passes_logs/2026/01/01/R4.6S_Anadyr/R4.6S_Anadyr__20260101_142723_NOAA_20_JPSS-1_rec.log

#Pass ID: 20260101_142723_NOAA 20 (JPSS-1)
#Satellite: NOAA 20 (JPSS-1)
#Configuration: NOAA 20
#almurnet v.1.7.20251203
#Start time: 2026-01-01 14:27:26

#Version: 2.2.20231116
#Station: R4.6S_Anadyr
#Location: 177.4865 lon 64.73178 lat
#TLE: 1 43013U 17073A   25364.89373485  .00000164  00000+0  98659-4 0  9997
#TLE: 2 43013  98.7619 300.9939 0001957  61.1511 298.9862 14.19531413420599

#Time	Az	El	Level	Level2	SNR	BER	BlckErr	Temp	State	Recorded	gain1	gain2
2026-01-01 14:27:26.99	20.04	0.20	-48.9	-62.7	3.3	1.54e+00	0	37	0	0	60	49295
2026-01-01 14:27:27.99	20.05	0.26	-49.0	-64.1	3.6	1.51e+00	0	37	104	0	60	58193
2026-01-01 14:27:29.00	20.06	0.32	-48.9	-64.2	3.6	1.51e+00	0	37	104	0	60	58448
2026-01-01 14:27:30.01	20.08	0.38	-49.0	-64.2	3.6	1.51e+00	0	37	104	0	60	58491
2026-01-01 14:27:31.02	20.09	0.44	-49.0	-64.2	3.6	1.51e+00	0	37	104	0	60	58846
2026-01-01 14:27:32.03	20.10	0.50	-49.0	-64.2	3.6	1.51e+00	0	37	104	0	60	58357
2026-01-01 14:27:33.04	20.11	0.56	-48.9	-64.1	3.6	1.51e+00	0	37	104	0	60	58221
2026-01-01 14:27:34.05	20.13	0.63	-48.8	-64.1	3.6	1.51e+00	0	37	104	0	60	57645
2026-01-01 14:27:35.06	20.14	0.69	-48.7	-64.0	3.6	1.51e+00	0	37	104	0	60	57241
2026-01-01 14:27:36.07	20.15	0.75	-48.6	-63.8	3.6	1.51e+00	0	37	104	0	60	56001
2026-01-01 14:27:37.08	20.17	0.81	-48.4	-63.6	3.5	1.51e+00	0	37	104	0	60	54832
2026-01-01 14:27:38.09	20.18	0.87	-48.2	-63.5	3.6	1.51e+00	0	37	104	0	60	53785
2026-01-01 14:27:39.10	20.19	0.93	-48.1	-63.2	3.6	1.51e+00	0	37	104	0	60	52463
2026-01-01 14:27:40.11	20.20	0.99	-47.8	-62.9	3.6	1.51e+00	0	37	104	0	60	50687
2026-01-01 14:27:41.12	20.22	1.06	-47.5	-62.7	3.6	1.51e+00	0	37	104	0	60	49352
2026-01-01 14:27:42.13	20.23	1.12	-47.5	-62.7	3.6	1.51e+00	0	37	104	0	60	49416
2026-01-01 14:27:43.14	20.24	1.18	-47.5	-62.7	3.6	1.51e+00	0	37	104	0	60	49149
2026-01-01 14:27:44.15	20.26	1.24	-47.5	-62.6	3.5	1.51e+00	0	37	104	0	60	48707
2026-01-01 14:27:45.16	20.27	1.31	-47.5	-62.5	3.6	1.51e+00	0	37	104	0	60	48313
2026-01-01 14:27:46.17	20.28	1.37	-47.5	-62.6	3.6	1.51e+00	0	37	104	0	60	48520
2026-01-01 14:27:47.18	20.29	1.43	-47.5	-62.5	3.6	1.51e+00	0	37	104	0	60	48141
2026-01-01 14:27:48.19	20.31	1.49	-47.5	-62.5	3.6	1.51e+00	0	37	104	0	60	48399
2026-01-01 14:27:49.20	20.32	1.56	-47.5	-62.6	3.6	1.51e+00	0	37	104	0	60	48896
2026-01-01 14:27:50.21	20.33	1.62	-47.5	-62.7	3.6	1.51e+00	0	37	104	0	60	49231
2026-01-01 14:27:51.22	20.35	1.68	-47.5	-62.7	3.6	1.51e+00	0	37	104	0	60	49180
2026-01-01 14:27:52.23	20.36	1.75	-47.5	-62.7	3.6	1.51e+00	0	37	104	0	60	49258
2026-01-01 14:27:53.24	20.37	1.81	-47.5	-62.6	3.6	1.51e+00	0	37	104	0	60	48925
2026-01-01 14:27:54.25	20.39	1.87	-47.5	-62.7	3.6	1.51e+00	0	37	104	0	60	49096
2026-01-01 14:27:55.26	20.40	1.94	-47.5	-62.7	3.6	1.51e+00	0	37	104	0	60	49176
2026-01-01 14:27:56.27	20.41	2.00	-47.5	-62.7	3.6	1.51e+00	0	37	104	0	60	49377
2026-01-01 14:27:57.28	20.43	2.07	-47.5	-62.7	3.6	1.51e+00	0	37	104	0	60	49314
2026-01-01 14:27:58.29	20.44	2.13	-47.5	-62.6	3.6	1.51e+00	0	37	104	0	60	48894
2026-01-01 14:27:59.30	20.45	2.20	-47.5	-62.3	3.6	1.51e+00	0	37	104	0	60	47210
2026-01-01 14:28:00.31	20.47	2.26	-47.5	-61.8	3.6	1.51e+00	0	37	104	0	60	44278
2026-01-01 14:28:01.32	20.48	2.33	-47.4	-60.9	3.6	1.51e+00	0	37	104	0	60	39863
2026-01-01 14:28:02.33	20.49	2.39	-47.4	-60.4	3.6	1.50e+00	0	37	104	0	60	37715
2026-01-01 14:28:03.34	20.51	2.46	-47.4	-59.7	3.7	1.47e+00	0	37	0	0	60	34922
2026-01-01 14:28:04.35	20.52	2.52	-47.3	-59.5	3.9	1.45e+00	0	37	104	0	60	33945
2026-01-01 14:28:05.36	20.54	2.59	-47.3	-59.4	3.9	1.48e+00	0	37	104	0	60	33740
2026-01-01 14:28:06.37	20.55	2.65	-47.3	-59.7	3.7	1.48e+00	0	37	104	0	60	34779
2026-01-01 14:28:07.38	20.56	2.72	-47.3	-58.1	3.9	1.41e+00	0	37	0	0	60	29063
2026-01-01 14:28:08.39	20.58	2.78	-47.2	-56.0	4.7	9.84e-01	0	37	0	1048576	60	22777
2026-01-01 14:28:09.40	20.59	2.85	-46.8	-53.9	6.7	2.47e-01	0	37	0	3145728	60	17944
2026-01-01 14:28:10.41	20.60	2.91	-46.4	-52.2	8.9	5.12e-02	92	37	0	5242880	60	14806
2026-01-01 14:28:11.42	20.62	2.98	-45.8	-50.6	10.9	7.85e-03	0	37	0	6291456	60	12256
2026-01-01 14:28:12.43	20.63	3.05	-45.2	-49.2	12.5	1.32e-03	49	37	0	8388608	60	10428
2026-01-01 14:28:13.44	20.65	3.11	-44.7	-48.1	13.6	2.82e-05	39	37	0	10485760	60	9158
2026-01-01 14:28:14.45	20.66	3.18	-44.2	-47.2	14.5	7.00e-07	6	37	0	12582912	60	8328
2026-01-01 14:28:15.46	20.67	3.25	-44.0	-46.9	14.9	0.00e+00	69	37	0	14680064	60	8023
2026-01-01 14:28:16.47	20.69	3.32	-43.7	-46.4	15.3	0.00e+00	6	37	0	15728640	60	7587
2026-01-01 14:28:17.49	20.70	3.38	-43.9	-46.8	14.8	0.00e+00	92	37	0	17825792	60	7864
2026-01-01 14:28:18.49	20.72	3.45	-43.9	-46.8	14.9	0.00e+00	6	37	0	19922944	60	7863
2026-01-01 14:28:19.50	20.73	3.52	-44.5	-47.7	13.9	7.00e-07	0	37	0	22020096	60	8793
2026-01-01 14:28:20.51	20.75	3.59	-44.7	-48.2	13.4	1.14e-05	5	37	0	24117248	60	9262
2026-01-01 14:28:21.52	20.76	3.65	-45.5	-49.7	11.7	1.15e-04	5	37	0	25165824	60	11103
2026-01-01 14:28:22.53	20.78	3.72	-43.1	-45.4	16.6	7.67e-04	0	37	0	27262976	60	6736
2026-01-01 14:28:23.55	20.79	3.79	-41.2	-42.7	19.0	0.00e+00	5	37	0	29360128	56	6234
2026-01-01 14:28:24.55	20.80	3.86	-45.4	-49.7	11.7	8.16e-05	92	37	0	31457280	60	11019
2026-01-01 14:28:25.56	20.82	3.93	-46.6	-53.4	5.4	1.50e+00	0	37	104	31457280	60	16950
2026-01-01 14:28:26.57	20.83	4.00	-45.0	-49.0	10.0	2.11e-01	92	37	104	31457280	60	10161
2026-01-01 14:28:27.58	20.85	4.06	-47.2	-57.7	4.7	1.51e+00	0	37	104	31457280	60	27629
2026-01-01 14:28:28.59	20.86	4.13	-43.6	-46.1	15.4	6.44e-01	40	37	104	31457280	60	7328
2026-01-01 14:28:29.60	20.88	4.20	-43.8	-46.4	15.4	0.00e+00	39	37	0	32505856	60	7552
2026-01-01 14:28:30.61	20.89	4.27	-43.5	-45.9	15.7	0.00e+00	40	37	0	34603008	60	7099
2026-01-01 14:28:31.62	20.91	4.34	-43.7	-46.3	15.6	0.00e+00	42	37	0	36700160	60	7446
2026-01-01 14:28:32.63	20.92	4.41	-42.8	-44.8	17.1	0.00e+00	51	37	0	38797312	60	6316
2026-01-01 14:28:33.64	20.94	4.48	-42.3	-44.2	17.7	0.00e+00	92	37	0	39845888	58	6566
2026-01-01 14:28:34.65	20.95	4.55	-42.4	-44.3	17.3	0.00e+00	52	37	0	41943040	58	6676
2026-01-01 14:28:35.66	20.97	4.62	-42.4	-44.3	17.6	0.00e+00	46	37	0	44040192	58	6641
2026-01-01 14:28:36.67	20.98	4.69	-42.1	-43.9	18.0	0.00e+00	49	37	0	46137344	58	6378
2026-01-01 14:28:37.68	21.00	4.76	-41.4	-43.0	19.0	0.00e+00	45	37	0	48234496	56	6427
2026-01-01 14:28:38.69	21.01	4.83	-41.1	-42.6	19.3	0.00e+00	0	37	0	49283072	56	6170
2026-01-01 14:28:39.70	21.03	4.91	-40.8	-42.2	19.8	0.00e+00	5	37	0	51380224	56	5888
2026-01-01 14:28:40.71	21.04	4.98	-41.0	-42.5	19.4	0.00e+00	92	37	0	53477376	54	6791
2026-01-01 14:28:41.72	21.06	5.05	-40.8	-42.2	19.7	0.00e+00	0	37	0	55574528	54	6579
2026-01-01 14:28:42.73	21.07	5.12	-40.9	-42.3	19.7	0.00e+00	0	37	0	57671680	54	6685
2026-01-01 14:28:43.74	21.09	5.19	-40.9	-42.3	19.6	0.00e+00	7	37	0	58720256	54	6682
2026-01-01 14:28:44.75	21.10	5.26	-40.7	-42.1	19.9	0.00e+00	0	37	0	60817408	54	6466
2026-01-01 14:28:45.76	21.12	5.34	-40.7	-42.1	19.9	0.00e+00	0	37	0	62914560	54	6467
2026-01-01 14:28:46.77	21.14	5.41	-40.5	-41.9	20.0	0.00e+00	39	37	0	65011712	54	6361
2026-01-01 14:28:47.78	21.15	5.48	-40.6	-42.0	20.0	0.00e+00	92	37	0	67108864	54	6393
2026-01-01 14:28:48.79	21.17	5.55	-40.4	-41.7	20.3	0.00e+00	0	37	0	68157440	54	6189
2026-01-01 14:28:49.80	21.18	5.63	-40.4	-41.7	20.2	0.00e+00	92	37	0	70254592	54	6233
2026-01-01 14:28:50.81	21.20	5.70	-40.5	-41.9	20.1	0.00e+00	46	37	0	72351744	54	6360
2026-01-01 14:28:51.82	21.22	5.77	-40.6	-42.0	20.1	0.00e+00	41	37	0	74448896	54	6395
2026-01-01 14:28:52.83	21.23	5.85	-40.3	-41.6	20.4	0.00e+00	41	38	0	76546048	54	6161
2026-01-01 14:28:53.84	21.25	5.92	-40.5	-41.8	20.1	0.00e+00	42	37	0	78643200	54	6304
2026-01-01 14:28:54.84	21.26	6.00	-40.6	-41.9	20.2	0.00e+00	0	37	0	79691776	54	6381
2026-01-01 14:28:55.85	21.28	6.07	-40.3	-41.6	20.5	0.00e+00	41	38	0	81788928	54	6109
2026-01-01 14:28:56.86	21.30	6.14	-40.3	-41.6	20.5	0.00e+00	92	37	0	83886080	54	6151
2026-01-01 14:28:57.87	21.31	6.22	-40.3	-41.6	20.5	0.00e+00	2	38	0	85983232	54	6132
2026-01-01 14:28:58.88	21.33	6.29	-40.5	-41.8	20.2	0.00e+00	0	37	0	88080384	54	6295
2026-01-01 14:28:59.89	21.34	6.37	-40.4	-41.7	20.4	0.00e+00	40	37	0	89128960	54	6195
2026-01-01 14:29:00.90	21.36	6.44	-40.4	-41.7	20.5	0.00e+00	40	37	0	91226112	54	6189
2026-01-01 14:29:01.91	21.38	6.52	-40.4	-41.7	20.4	0.00e+00	2	38	0	93323264	54	6219
2026-01-01 14:29:02.92	21.39	6.60	-40.1	-41.3	20.8	0.00e+00	2	37	0	95420416	54	5959
2026-01-01 14:29:03.93	21.41	6.67	-40.3	-41.6	20.5	0.00e+00	92	37	0	97517568	54	6107
2026-01-01 14:29:04.94	21.43	6.75	-40.1	-41.4	20.8	0.00e+00	0	38	0	98566144	54	5998
2026-01-01 14:29:05.95	21.44	6.82	-40.2	-41.5	20.7	0.00e+00	79	38	0	100663296	54	6072
2026-01-01 14:29:06.96	21.46	6.90	-40.1	-41.4	20.5	0.00e+00	0	38	0	102760448	54	5990
2026-01-01 14:29:07.97	21.48	6.98	-40.2	-41.4	20.8	0.00e+00	0	37	0	104857600	54	6026
2026-01-01 14:29:08.98	21.49	7.06	-40.0	-41.2	21.0	0.00e+00	0	38	0	106954752	54	5871
2026-01-01 14:29:09.98	21.51	7.13	-40.0	-41.2	20.9	0.00e+00	0	37	0	108003328	54	5845
2026-01-01 14:29:11.00	21.53	7.21	-40.0	-41.2	20.9	0.00e+00	92	37	0	110100480	54	5879
2026-01-01 14:29:12.00	21.55	7.29	-39.9	-41.1	21.0	0.00e+00	0	38	0	112197632	54	5815
2026-01-01 14:29:13.01	21.56	7.37	-40.0	-41.2	21.0	0.00e+00	92	38	0	114294784	54	5843
2026-01-01 14:29:14.02	21.58	7.44	-39.7	-40.9	21.3	0.00e+00	36	38	0	116391936	52	6342
2026-01-01 14:29:15.03	21.60	7.52	-39.8	-41.0	21.1	0.00e+00	4	38	0	117440512	52	6446
2026-01-01 14:29:16.04	21.62	7.60	-39.8	-41.0	21.2	0.00e+00	41	38	0	119537664	52	6399
2026-01-01 14:29:17.05	21.63	7.68	-39.7	-40.9	21.3	0.00e+00	42	37	0	121634816	52	6348
2026-01-01 14:29:18.06	21.65	7.76	-40.0	-41.2	21.0	0.00e+00	18	37	0	123731968	52	6601
2026-01-01 14:29:19.07	21.67	7.84	-39.9	-41.0	21.2	0.00e+00	39	38	0	125829120	52	6454
2026-01-01 14:29:20.08	21.69	7.92	-39.7	-40.8	21.4	0.00e+00	91	38	0	126877696	52	6295
2026-01-01 14:29:21.09	21.70	8.00	-39.6	-40.7	21.5	0.00e+00	2	38	0	128974848	52	6243
2026-01-01 14:29:22.10	21.72	8.08	-39.6	-40.8	21.4	0.00e+00	57	38	0	131072000	52	6266
2026-01-01 14:29:23.11	21.74	8.16	-39.9	-41.1	21.2	0.00e+00	0	38	0	133169152	52	6474
2026-01-01 14:29:24.12	21.76	8.24	-39.8	-40.9	21.1	0.00e+00	2	37	0	135266304	52	6376
2026-01-01 14:29:25.13	21.78	8.32	-40.0	-41.2	21.2	0.00e+00	0	38	0	136314880	52	6566
2026-01-01 14:29:26.14	21.79	8.40	-39.9	-41.0	21.1	0.00e+00	0	38	0	138412032	52	6464
2026-01-01 14:29:27.15	21.81	8.49	-39.7	-40.9	21.4	0.00e+00	90	38	0	140509184	52	6318
2026-01-01 14:29:28.16	21.83	8.57	-39.7	-40.9	21.4	0.00e+00	38	38	0	142606336	52	6332
2026-01-01 14:29:29.17	21.85	8.65	-39.7	-40.9	21.2	0.00e+00	92	38	0	144703488	52	6360
2026-01-01 14:29:30.18	21.87	8.73	-39.7	-40.8	21.5	0.00e+00	0	38	0	146800640	52	6288
2026-01-01 14:29:31.19	21.89	8.82	-39.6	-40.7	21.5	0.00e+00	0	38	0	147849216	52	6235
2026-01-01 14:29:32.20	21.90	8.90	-39.6	-40.8	21.5	0.00e+00	0	38	0	149946368	52	6253
2026-01-01 14:29:33.21	21.92	8.98	-39.7	-40.8	21.4	0.00e+00	39	38	0	152043520	52	6296
2026-01-01 14:29:34.21	21.94	9.06	-39.4	-40.5	21.8	0.00e+00	92	38	0	154140672	52	6069
2026-01-01 14:29:35.22	21.96	9.15	-39.4	-40.5	21.7	0.00e+00	39	38	0	156237824	52	6078
2026-01-01 14:29:36.23	21.98	9.23	-39.3	-40.3	21.9	0.00e+00	92	37	0	157286400	52	5958
2026-01-01 14:29:37.24	22.00	9.32	-39.4	-40.5	21.7	0.00e+00	45	38	0	159383552	52	6058
2026-01-01 14:29:38.25	22.02	9.40	-39.5	-40.6	21.6	0.00e+00	0	37	0	161480704	52	6144
2026-01-01 14:29:39.26	22.04	9.49	-39.2	-40.3	22.0	0.00e+00	0	38	0	163577856	52	5912
2026-01-01 14:29:40.27	22.06	9.57	-39.3	-40.4	21.9	0.00e+00	40	38	0	165675008	52	5973
2026-01-01 14:29:41.28	22.08	9.66	-39.3	-40.4	21.8	0.00e+00	92	38	0	166723584	52	6005
2026-01-01 14:29:42.29	22.09	9.74	-39.2	-40.2	22.1	0.00e+00	37	38	0	168820736	52	5896
2026-01-01 14:29:43.30	22.11	9.83	-39.2	-40.3	22.0	0.00e+00	90	38	0	170917888	52	5904
2026-01-01 14:29:44.31	22.13	9.92	-39.2	-40.2	22.1	0.00e+00	0	38	0	173015040	52	5884
2026-01-01 14:29:45.32	22.15	10.00	-39.1	-40.2	22.1	0.00e+00	92	38	0	175112192	52	5846
2026-01-01 14:29:46.33	22.17	10.09	-39.2	-40.2	22.1	0.00e+00	0	38	0	176160768	52	5877
2026-01-01 14:29:47.34	22.19	10.18	-39.0	-40.0	22.3	0.00e+00	0	38	0	178257920	52	5751
2026-01-01 14:29:48.35	22.21	10.26	-39.0	-40.1	22.2	0.00e+00	2	38	0	180355072	52	5764
2026-01-01 14:29:49.36	22.23	10.35	-39.0	-40.1	22.2	0.00e+00	0	38	0	182452224	52	5782
2026-01-01 14:29:50.37	22.25	10.44	-39.0	-40.0	22.2	0.00e+00	92	38	0	184549376	52	5744
2026-01-01 14:29:51.38	22.27	10.53	-39.0	-40.0	22.2	0.00e+00	42	38	0	185597952	52	5761
2026-01-01 14:29:52.39	22.29	10.62	-38.9	-39.9	22.4	0.00e+00	92	38	0	187695104	52	5693
2026-01-01 14:29:53.40	22.32	10.71	-38.8	-39.9	22.4	0.00e+00	37	38	0	189792256	52	5634
2026-01-01 14:29:54.41	22.34	10.80	-38.9	-39.9	22.4	0.00e+00	0	38	0	191889408	52	5679
2026-01-01 14:29:55.42	22.36	10.89	-38.7	-39.7	22.5	0.00e+00	0	38	0	193986560	50	6215
2026-01-01 14:29:56.42	22.38	10.98	-38.8	-39.8	22.5	0.00e+00	41	37	0	195035136	50	6277
2026-01-01 14:29:57.43	22.40	11.07	-38.8	-39.8	22.5	0.00e+00	90	38	0	197132288	50	6303
2026-01-01 14:29:58.44	22.42	11.16	-38.7	-39.7	22.6	0.00e+00	40	38	0	199229440	50	6226
2026-01-01 14:29:59.45	22.44	11.25	-38.7	-39.7	22.6	0.00e+00	92	38	0	201326592	50	6217
2026-01-01 14:30:00.46	22.46	11.34	-38.7	-39.6	22.7	0.00e+00	44	38	0	203423744	50	6172
2026-01-01 14:30:01.47	22.48	11.43	-38.5	-39.5	22.8	0.00e+00	49	38	0	204472320	50	6081
2026-01-01 14:30:02.48	22.50	11.52	-38.6	-39.6	22.7	0.00e+00	0	38	0	206569472	50	6146
2026-01-01 14:30:03.49	22.53	11.62	-38.6	-39.6	22.7	0.00e+00	5	38	0	208666624	50	6152
2026-01-01 14:30:04.50	22.55	11.71	-38.7	-39.7	22.5	0.00e+00	36	38	0	210763776	50	6224
2026-01-01 14:30:05.51	22.57	11.80	-38.7	-39.7	22.6	0.00e+00	5	38	0	212860928	50	6223
2026-01-01 14:30:06.52	22.59	11.90	-38.6	-39.5	22.7	0.00e+00	92	38	0	214958080	50	6094
2026-01-01 14:30:07.53	22.61	11.99	-38.5	-39.4	22.9	0.00e+00	6	38	0	216006656	50	6019
2026-01-01 14:30:08.54	22.63	12.09	-38.5	-39.5	22.9	0.00e+00	60	38	0	218103808	50	6058
2026-01-01 14:30:09.55	22.66	12.18	-38.5	-39.5	22.8	0.00e+00	0	38	0	220200960	50	6069
2026-01-01 14:30:10.56	22.68	12.27	-38.4	-39.3	23.0	0.00e+00	38	38	0	222298112	50	5951
2026-01-01 14:30:11.57	22.70	12.37	-38.3	-39.3	23.0	0.00e+00	0	38	0	224395264	50	5905
2026-01-01 14:30:12.58	22.72	12.47	-38.3	-39.3	23.0	0.00e+00	42	38	0	225443840	50	5921
2026-01-01 14:30:13.59	22.75	12.56	-38.4	-39.4	22.9	0.00e+00	92	38	0	227540992	50	5993
2026-01-01 14:30:14.60	22.77	12.66	-38.5	-39.4	22.9	0.00e+00	43	38	0	229638144	50	6025
2026-01-01 14:30:15.61	22.79	12.76	-38.4	-39.4	22.9	0.00e+00	92	38	0	231735296	50	5986
2026-01-01 14:30:16.62	22.82	12.85	-38.3	-39.2	23.1	0.00e+00	37	38	0	233832448	50	5887
2026-01-01 14:30:17.63	22.84	12.95	-38.2	-39.2	23.2	0.00e+00	0	38	0	234881024	50	5833
2026-01-01 14:30:18.64	22.86	13.05	-38.2	-39.2	23.2	0.00e+00	38	38	0	236978176	50	5835
2026-01-01 14:30:19.65	22.89	13.15	-38.4	-39.3	23.0	0.00e+00	41	38	0	239075328	50	5947
2026-01-01 14:30:20.66	22.91	13.25	-38.1	-39.0	23.2	0.00e+00	92	38	0	241172480	50	5749
2026-01-01 14:30:21.67	22.93	13.35	-38.2	-39.1	23.3	0.00e+00	45	38	0	243269632	50	5787
2026-01-01 14:30:22.67	22.96	13.44	-38.2	-39.1	23.2	0.00e+00	92	38	0	244318208	50	5827
2026-01-01 14:30:23.69	22.98	13.55	-38.1	-39.1	23.3	0.00e+00	6	38	0	246415360	50	5763
2026-01-01 14:30:24.70	23.00	13.65	-38.3	-39.2	23.2	0.00e+00	6	38	0	248512512	50	5862
2026-01-01 14:30:25.70	23.03	13.75	-38.2	-39.2	23.2	0.00e+00	0	38	0	250609664	50	5836
2026-01-01 14:30:26.71	23.05	13.85	-38.3	-39.2	23.1	0.00e+00	0	38	0	252706816	50	5884
2026-01-01 14:30:27.72	23.08	13.95	-38.2	-39.1	23.2	0.00e+00	90	38	0	253755392	50	5796
2026-01-01 14:30:28.73	23.10	14.05	-38.3	-39.3	23.1	0.00e+00	0	38	0	255852544	50	5903
2026-01-01 14:30:29.74	23.13	14.15	-38.2	-39.1	23.2	0.00e+00	92	38	0	257949696	50	5818
2026-01-01 14:30:30.75	23.15	14.26	-38.2	-39.1	23.3	0.00e+00	0	38	0	260046848	50	5783
2026-01-01 14:30:31.76	23.18	14.36	-38.3	-39.2	23.1	0.00e+00	43	38	0	262144000	50	5891
2026-01-01 14:30:32.77	23.20	14.47	-38.6	-39.6	22.8	0.00e+00	0	38	0	263192576	50	6114
2026-01-01 14:30:33.78	23.23	14.57	-38.3	-39.3	23.1	0.00e+00	38	38	0	265289728	50	5903
2026-01-01 14:30:34.79	23.25	14.67	-38.4	-39.4	23.0	0.00e+00	0	38	0	267386880	50	5968
2026-01-01 14:30:35.80	23.28	14.78	-38.4	-39.3	23.0	0.00e+00	43	38	0	269484032	50	5942
2026-01-01 14:30:36.81	23.30	14.89	-38.3	-39.2	23.2	0.00e+00	92	38	0	271581184	50	5865
2026-01-01 14:30:37.82	23.33	14.99	-38.4	-39.3	23.2	0.00e+00	37	38	0	272629760	50	5922
2026-01-01 14:30:38.83	23.35	15.10	-38.4	-39.3	23.1	0.00e+00	92	38	0	274726912	50	5939
2026-01-01 14:30:39.84	23.38	15.21	-38.3	-39.2	23.2	0.00e+00	43	38	0	276824064	50	5889
2026-01-01 14:30:40.85	23.41	15.31	-38.4	-39.3	23.1	0.00e+00	41	38	0	278921216	50	5930
2026-01-01 14:30:41.86	23.43	15.42	-38.4	-39.4	23.0	0.00e+00	0	38	0	281018368	50	5974
2026-01-01 14:30:42.87	23.46	15.53	-38.5	-39.5	22.9	0.00e+00	36	38	0	283115520	50	6048
2026-01-01 14:30:43.88	23.49	15.64	-38.7	-39.6	22.8	0.00e+00	92	38	0	284164096	50	6171
2026-01-01 14:30:44.89	23.51	15.75	-38.6	-39.6	22.9	0.00e+00	0	38	0	286261248	50	6104
2026-01-01 14:30:45.90	23.54	15.86	-38.5	-39.5	23.0	0.00e+00	92	38	0	288358400	50	6059
2026-01-01 14:30:46.91	23.57	15.97	-38.6	-39.5	23.0	0.00e+00	0	38	0	290455552	50	6090
2026-01-01 14:30:47.92	23.60	16.08	-38.6	-39.6	22.9	0.00e+00	27	38	0	292552704	50	6112
2026-01-01 14:30:48.93	23.62	16.19	-38.7	-39.7	22.8	0.00e+00	0	38	0	293601280	50	6221
2026-01-01 14:30:49.94	23.65	16.30	-38.8	-39.8	22.8	0.00e+00	0	38	0	295698432	50	6251
2026-01-01 14:30:50.95	23.68	16.42	-38.7	-39.6	22.8	0.00e+00	0	38	0	297795584	50	6159
2026-01-01 14:30:51.96	23.71	16.53	-38.8	-39.7	22.7	0.00e+00	45	38	0	299892736	50	6237
2026-01-01 14:30:52.97	23.74	16.64	-38.8	-39.8	22.7	0.00e+00	90	38	0	301989888	50	6279
2026-01-01 14:30:53.98	23.77	16.76	-38.8	-39.8	22.7	0.00e+00	0	38	0	303038464	50	6274
2026-01-01 14:30:54.99	23.79	16.87	-38.9	-39.9	22.7	0.00e+00	90	38	0	305135616	50	6321
2026-01-01 14:30:55.99	23.82	16.99	-39.0	-40.0	22.6	0.00e+00	45	38	0	307232768	50	6399
2026-01-01 14:30:57.01	23.85	17.10	-39.1	-40.1	22.5	0.00e+00	39	38	0	309329920	50	6478
2026-01-01 14:30:58.02	23.88	17.22	-39.0	-40.1	22.5	0.00e+00	30	38	0	311427072	50	6465
2026-01-01 14:30:59.03	23.91	17.34	-39.0	-40.0	22.6	0.00e+00	0	38	0	312475648	50	6414
2026-01-01 14:31:00.04	23.94	17.45	-39.0	-40.0	22.5	0.00e+00	92	38	0	314572800	50	6456
2026-01-01 14:31:01.05	23.97	17.57	-39.1	-40.1	22.5	0.00e+00	36	38	0	316669952	50	6523
2026-01-01 14:31:02.06	24.00	17.69	-39.2	-40.2	22.3	0.00e+00	92	38	0	318767104	50	6614
2026-01-01 14:31:03.07	24.03	17.81	-39.3	-40.3	22.3	0.00e+00	35	38	0	320864256	50	6644
2026-01-01 14:31:04.08	24.06	17.93	-39.3	-40.3	22.3	0.00e+00	2	38	0	321912832	50	6674
2026-01-01 14:31:05.09	24.09	18.05	-39.4	-40.4	22.2	0.00e+00	0	38	0	324009984	50	6736
2026-01-01 14:31:06.09	24.12	18.17	-39.3	-40.3	22.3	0.00e+00	0	38	0	326107136	50	6687
2026-01-01 14:31:07.11	24.15	18.29	-39.2	-40.2	22.3	0.00e+00	90	38	0	328204288	50	6615
2026-01-01 14:31:08.12	24.19	18.41	-39.3	-40.4	22.2	0.00e+00	0	38	0	330301440	50	6714
2026-01-01 14:31:09.13	24.22	18.54	-39.5	-40.5	22.0	0.00e+00	92	38	0	331350016	50	6843
2026-01-01 14:31:10.14	24.25	18.66	-39.4	-40.4	22.3	0.00e+00	0	38	0	333447168	50	6731
2026-01-01 14:31:11.15	24.28	18.78	-39.5	-40.6	22.1	0.00e+00	27	38	0	335544320	50	6868
2026-01-01 14:31:12.15	24.31	18.91	-39.5	-40.6	22.2	0.00e+00	46	38	0	337641472	50	6862
2026-01-01 14:31:13.16	24.35	19.03	-39.5	-40.5	22.1	0.00e+00	39	38	0	339738624	50	6844
2026-01-01 14:31:14.17	24.38	19.16	-39.6	-40.6	22.0	0.00e+00	12	38	0	340787200	50	6898
2026-01-01 14:31:15.18	24.41	19.28	-39.5	-40.5	22.1	0.00e+00	0	38	0	342884352	50	6824
2026-01-01 14:31:16.19	24.44	19.41	-39.6	-40.7	22.0	0.00e+00	91	38	0	344981504	50	6928
2026-01-01 14:31:17.20	24.48	19.54	-39.7	-40.7	21.9	0.00e+00	45	38	0	347078656	50	7000
2026-01-01 14:31:18.21	24.51	19.67	-39.7	-40.8	22.0	0.00e+00	53	38	0	349175808	52	6283
2026-01-01 14:31:19.22	24.55	19.80	-39.7	-40.8	21.9	0.00e+00	36	38	0	351272960	52	6269
2026-01-01 14:31:20.23	24.58	19.93	-39.7	-40.8	22.0	0.00e+00	34	38	0	352321536	52	6247
2026-01-01 14:31:21.24	24.61	20.06	-39.7	-40.7	22.0	0.00e+00	0	38	0	354418688	52	6229
2026-01-01 14:31:22.25	24.65	20.19	-39.6	-40.7	22.0	0.00e+00	0	38	0	356515840	52	6201
2026-01-01 14:31:23.26	24.68	20.32	-39.6	-40.7	22.0	0.00e+00	92	38	0	358612992	52	6187
2026-01-01 14:31:24.27	24.72	20.45	-39.6	-40.6	22.1	0.00e+00	2	38	0	360710144	52	6166
2026-01-01 14:31:25.28	24.75	20.58	-39.7	-40.7	22.0	0.00e+00	90	38	0	361758720	52	6239
2026-01-01 14:31:26.29	24.79	20.72	-39.8	-40.8	21.9	0.00e+00	34	38	0	363855872	52	6306
2026-01-01 14:31:27.30	24.83	20.85	-39.7	-40.7	22.0	0.00e+00	0	38	0	365953024	52	6242
2026-01-01 14:31:28.31	24.86	20.99	-39.8	-40.9	21.8	0.00e+00	0	38	0	368050176	52	6373
2026-01-01 14:31:29.33	24.90	21.12	-39.6	-40.7	22.1	0.00e+00	0	38	0	370147328	52	6195
2026-01-01 14:31:30.33	24.94	21.26	-39.6	-40.6	22.1	0.00e+00	92	38	0	371195904	52	6164
2026-01-01 14:31:31.34	24.97	21.40	-39.6	-40.6	22.1	0.00e+00	0	38	0	373293056	52	6169
2026-01-01 14:31:32.36	25.01	21.54	-39.6	-40.7	22.1	0.00e+00	92	38	0	375390208	52	6185
2026-01-01 14:31:33.37	25.05	21.68	-39.5	-40.6	22.2	0.00e+00	46	38	0	377487360	52	6112
2026-01-01 14:31:34.38	25.09	21.82	-39.4	-40.5	22.2	0.00e+00	25	38	0	379584512	52	6053
2026-01-01 14:31:35.39	25.12	21.96	-39.6	-40.6	22.1	0.00e+00	0	38	0	380633088	52	6158
2026-01-01 14:31:36.40	25.16	22.10	-39.4	-40.5	22.2	0.00e+00	46	38	0	382730240	52	6056
2026-01-01 14:31:37.41	25.20	22.24	-39.4	-40.5	22.3	0.00e+00	92	38	0	384827392	52	6046
2026-01-01 14:31:38.41	25.24	22.38	-39.5	-40.5	22.2	0.00e+00	0	38	0	386924544	52	6079
2026-01-01 14:31:39.43	25.28	22.53	-39.4	-40.5	22.2	0.00e+00	92	38	0	389021696	52	6051
2026-01-01 14:31:40.44	25.32	22.67	-39.5	-40.5	22.3	0.00e+00	37	38	0	390070272	52	6102
2026-01-01 14:31:41.44	25.36	22.81	-39.3	-40.3	22.3	0.00e+00	92	38	0	392167424	52	5920
2026-01-01 14:31:42.45	25.40	22.96	-39.3	-40.3	22.5	0.00e+00	37	38	0	394264576	52	5947
2026-01-01 14:31:43.47	25.44	23.11	-39.4	-40.4	22.3	0.00e+00	38	38	0	396361728	52	6017
2026-01-01 14:31:44.47	25.48	23.25	-39.2	-40.2	22.6	0.00e+00	45	38	0	398458880	52	5838
2026-01-01 14:31:45.48	25.53	23.40	-39.2	-40.2	22.5	0.00e+00	37	38	0	399507456	52	5847
2026-01-01 14:31:46.49	25.57	23.55	-39.2	-40.2	22.5	0.00e+00	91	38	0	401604608	52	5855
2026-01-01 14:31:47.50	25.61	23.70	-39.1	-40.1	22.7	0.00e+00	0	38	0	403701760	52	5794
2026-01-01 14:31:48.51	25.65	23.85	-39.0	-40.0	22.7	0.00e+00	57	38	0	405798912	52	5760
2026-01-01 14:31:49.52	25.70	24.00	-38.9	-39.9	22.8	0.00e+00	0	38	0	407896064	52	5671
2026-01-01 14:31:50.53	25.74	24.16	-38.9	-39.9	22.8	0.00e+00	7	38	0	408944640	52	5675
2026-01-01 14:31:51.54	25.78	24.31	-39.0	-39.9	22.7	0.00e+00	0	38	0	411041792	52	5692
2026-01-01 14:31:52.55	25.83	24.47	-39.0	-39.9	22.8	0.00e+00	5	38	0	413138944	52	5693
2026-01-01 14:31:53.56	25.87	24.62	-39.0	-40.0	22.8	0.00e+00	92	38	0	415236096	52	5703
2026-01-01 14:31:54.57	25.92	24.78	-39.0	-40.0	22.7	0.00e+00	0	38	0	417333248	52	5715
2026-01-01 14:31:55.57	25.96	24.93	-39.1	-40.1	22.7	0.00e+00	92	38	0	419430400	52	5824
2026-01-01 14:31:56.59	26.01	25.09	-39.1	-40.1	22.6	0.00e+00	0	38	0	420478976	52	5827
2026-01-01 14:31:57.60	26.05	25.25	-38.9	-39.9	22.8	0.00e+00	47	38	0	422576128	52	5631
2026-01-01 14:31:58.60	26.10	25.41	-39.0	-40.0	22.7	0.00e+00	41	38	0	424673280	52	5740
2026-01-01 14:31:59.62	26.15	25.57	-39.1	-40.1	22.6	0.00e+00	39	38	0	426770432	52	5766
2026-01-01 14:32:00.63	26.20	25.74	-39.1	-40.0	22.7	0.00e+00	0	38	0	428867584	52	5758
2026-01-01 14:32:01.63	26.24	25.90	-39.1	-40.1	22.8	0.00e+00	4	38	0	429916160	52	5768
2026-01-01 14:32:02.64	26.29	26.06	-39.2	-40.2	22.6	0.00e+00	92	38	0	432013312	52	5832
2026-01-01 14:32:03.65	26.34	26.23	-39.2	-40.2	22.5	0.00e+00	46	38	0	434110464	52	5873
2026-01-01 14:32:04.66	26.39	26.39	-39.4	-40.4	22.4	0.00e+00	92	38	0	436207616	52	5992
2026-01-01 14:32:05.67	26.44	26.56	-39.3	-40.3	22.4	0.00e+00	6	38	0	438304768	52	5964
2026-01-01 14:32:06.68	26.49	26.73	-39.3	-40.3	22.4	0.00e+00	8	38	0	439353344	52	5959
2026-01-01 14:32:07.69	26.54	26.90	-39.5	-40.5	22.3	0.00e+00	0	38	0	441450496	52	6080
2026-01-01 14:32:08.70	26.59	27.07	-39.7	-40.7	22.0	0.00e+00	46	38	0	443547648	52	6233
2026-01-01 14:32:09.71	26.64	27.24	-39.8	-40.9	22.0	0.00e+00	90	38	0	445644800	52	6363
2026-01-01 14:32:10.72	26.70	27.41	-39.9	-40.9	21.7	0.00e+00	0	38	0	447741952	52	6383
2026-01-01 14:32:11.73	26.75	27.58	-40.0	-41.1	21.8	0.00e+00	91	38	0	448790528	52	6495
2026-01-01 14:32:12.74	26.80	27.76	-40.0	-41.1	21.7	0.00e+00	7	38	0	450887680	52	6470
2026-01-01 14:32:13.75	26.86	27.93	-40.1	-41.3	21.4	0.00e+00	0	38	0	452984832	52	6630
2026-01-01 14:32:14.76	26.91	28.11	-40.1	-41.2	21.5	0.00e+00	0	38	0	455081984	52	6614
2026-01-01 14:32:15.77	26.97	28.29	-40.3	-41.4	21.5	0.00e+00	0	38	0	457179136	52	6738
2026-01-01 14:32:16.77	27.02	28.46	-40.1	-41.3	21.6	0.00e+00	92	38	0	458227712	52	6616
2026-01-01 14:32:17.78	27.08	28.64	-40.3	-41.4	21.5	0.00e+00	45	38	0	460324864	52	6731
2026-01-01 14:32:18.79	27.13	28.82	-40.3	-41.4	21.4	0.00e+00	92	38	0	462422016	52	6757
2026-01-01 14:32:19.80	27.19	29.01	-40.3	-41.5	21.4	0.00e+00	47	38	0	464519168	52	6790
2026-01-01 14:32:20.81	27.25	29.19	-40.5	-41.6	21.4	0.00e+00	46	38	0	466616320	52	6907
2026-01-01 14:32:21.82	27.31	29.37	-40.3	-41.4	21.4	0.00e+00	48	38	0	467664896	52	6746
2026-01-01 14:32:22.83	27.37	29.56	-40.4	-41.6	21.4	0.00e+00	47	38	0	469762048	52	6873
2026-01-01 14:32:23.84	27.43	29.75	-40.5	-41.7	21.2	0.00e+00	0	38	0	471859200	52	6935
2026-01-01 14:32:24.85	27.49	29.93	-40.6	-41.8	21.1	0.00e+00	33	38	0	473956352	52	7014
2026-01-01 14:32:25.86	27.55	30.12	-40.6	-41.7	21.1	0.00e+00	92	38	0	476053504	52	7007
2026-01-01 14:32:26.87	27.61	30.31	-40.9	-42.1	21.0	0.00e+00	0	38	0	477102080	52	7258
2026-01-01 14:32:27.88	27.67	30.51	-40.8	-42.0	21.0	0.00e+00	86	38	0	479199232	54	6418
2026-01-01 14:32:28.89	27.74	30.70	-40.9	-42.2	20.8	0.00e+00	2	38	0	481296384	54	6564
2026-01-01 14:32:29.90	27.80	30.89	-40.8	-42.0	20.9	0.00e+00	35	38	0	483393536	54	6427
2026-01-01 14:32:30.91	27.87	31.09	-40.8	-42.0	20.9	0.00e+00	2	38	0	485490688	54	6452
2026-01-01 14:32:31.92	27.93	31.29	-40.8	-42.1	20.8	0.00e+00	0	38	0	487587840	54	6494
2026-01-01 14:32:32.93	28.00	31.48	-40.8	-42.1	20.8	0.00e+00	92	38	0	488636416	54	6491
2026-01-01 14:32:33.94	28.06	31.68	-40.7	-42.0	20.9	0.00e+00	0	38	0	490733568	54	6416
2026-01-01 14:32:34.95	28.13	31.89	-40.7	-41.9	21.0	0.00e+00	92	38	0	492830720	54	6348
2026-01-01 14:32:35.96	28.20	32.09	-40.8	-42.0	20.9	0.00e+00	43	38	0	494927872	54	6426
2026-01-01 14:32:36.97	28.27	32.29	-40.8	-42.1	20.8	0.00e+00	41	38	0	497025024	54	6490
2026-01-01 14:32:37.98	28.34	32.50	-40.8	-42.1	20.8	0.00e+00	0	38	0	498073600	54	6468
2026-01-01 14:32:38.99	28.41	32.70	-40.5	-41.7	21.2	0.00e+00	0	38	0	500170752	54	6232
2026-01-01 14:32:40.00	28.48	32.91	-40.5	-41.7	21.1	0.00e+00	92	38	0	502267904	54	6236
2026-01-01 14:32:41.01	28.56	33.12	-40.5	-41.7	21.2	0.00e+00	48	38	0	504365056	54	6220
2026-01-01 14:32:42.02	28.63	33.33	-40.4	-41.5	21.3	0.00e+00	92	38	0	506462208	54	6093
2026-01-01 14:32:43.03	28.70	33.54	-40.3	-41.4	21.6	0.00e+00	4	38	0	507510784	54	5996
2026-01-01 14:32:44.04	28.78	33.75	-40.1	-41.2	21.7	0.00e+00	48	38	0	509607936	54	5835
2026-01-01 14:32:45.05	28.86	33.97	-40.0	-41.1	21.8	0.00e+00	47	38	0	511705088	54	5807
2026-01-01 14:32:46.06	28.93	34.19	-39.9	-41.0	21.9	0.00e+00	0	38	0	513802240	54	5738
2026-01-01 14:32:47.07	29.01	34.40	-39.9	-40.9	21.9	0.00e+00	92	38	0	515899392	54	5676
2026-01-01 14:32:48.08	29.09	34.62	-39.6	-40.6	22.3	0.00e+00	33	38	0	516947968	52	6172
2026-01-01 14:32:49.08	29.17	34.84	-39.6	-40.6	22.2	0.00e+00	92	38	0	519045120	52	6161
2026-01-01 14:32:50.10	29.25	35.07	-39.5	-40.6	22.3	0.00e+00	34	38	0	521142272	52	6122
2026-01-01 14:32:51.10	29.33	35.29	-39.3	-40.3	22.6	0.00e+00	92	38	0	523239424	52	5918
2026-01-01 14:32:52.11	29.42	35.51	-39.3	-40.3	22.5	0.00e+00	0	38	0	525336576	52	5925
2026-01-01 14:32:53.13	29.50	35.74	-39.5	-40.5	22.4	0.00e+00	2	38	0	526385152	52	6087
2026-01-01 14:32:54.14	29.59	35.97	-39.4	-40.4	22.4	0.00e+00	0	38	0	528482304	52	6009
2026-01-01 14:32:55.15	29.68	36.20	-39.5	-40.5	22.2	0.00e+00	0	38	0	530579456	52	6067
2026-01-01 14:32:56.16	29.76	36.43	-39.5	-40.5	22.4	0.00e+00	92	38	0	532676608	52	6056
2026-01-01 14:32:57.17	29.85	36.66	-39.5	-40.5	22.3	0.00e+00	0	38	0	534773760	52	6096
2026-01-01 14:32:58.18	29.94	36.90	-39.6	-40.7	22.2	0.00e+00	90	38	0	535822336	52	6189
2026-01-01 14:32:59.18	30.03	37.13	-39.7	-40.7	22.2	0.00e+00	0	38	0	537919488	52	6230
2026-01-01 14:33:00.19	30.13	37.37	-39.7	-40.8	22.1	0.00e+00	0	38	0	540016640	52	6247
2026-01-01 14:33:01.20	30.22	37.61	-39.9	-41.0	21.9	0.00e+00	47	38	0	542113792	52	6444
2026-01-01 14:33:02.21	30.32	37.85	-39.9	-41.0	21.9	0.00e+00	32	38	0	544210944	52	6447
2026-01-01 14:33:03.22	30.41	38.09	-39.9	-40.9	21.9	0.00e+00	92	38	0	545259520	52	6388
2026-01-01 14:33:04.23	30.51	38.34	-40.0	-41.1	21.8	0.00e+00	43	38	0	547356672	52	6521
2026-01-01 14:33:05.24	30.61	38.58	-39.8	-40.9	21.9	0.00e+00	92	38	0	549453824	52	6349
2026-01-01 14:33:06.25	30.71	38.83	-39.8	-40.9	22.0	0.00e+00	0	38	0	551550976	52	6353
2026-01-01 14:33:07.26	30.82	39.08	-39.9	-40.9	22.0	0.00e+00	0	38	0	553648128	52	6382
2026-01-01 14:33:08.27	30.92	39.33	-40.0	-41.1	21.8	0.00e+00	39	38	0	555745280	52	6497
2026-01-01 14:33:09.28	31.03	39.59	-40.4	-41.6	21.3	0.00e+00	0	38	0	556793856	52	6865
2026-01-01 14:33:10.29	31.13	39.84	-40.6	-41.8	21.1	0.00e+00	79	38	0	558891008	52	7043
2026-01-01 14:33:11.30	31.24	40.10	-40.9	-42.1	20.8	0.00e+00	2	38	0	560988160	54	6499
2026-01-01 14:33:12.31	31.35	40.36	-41.0	-42.3	20.8	0.00e+00	91	38	0	563085312	54	6651
2026-01-01 14:33:13.32	31.47	40.62	-41.1	-42.4	20.6	0.00e+00	0	38	0	565182464	54	6752
2026-01-01 14:33:14.33	31.58	40.88	-41.1	-42.4	20.6	0.00e+00	38	38	0	566231040	54	6735
2026-01-01 14:33:15.34	31.70	41.14	-40.9	-42.1	21.0	0.00e+00	0	38	0	568328192	54	6489
2026-01-01 14:33:16.35	31.82	41.41	-40.5	-41.6	21.3	0.00e+00	0	38	0	570425344	54	6159
2026-01-01 14:33:17.36	31.94	41.68	-40.6	-41.7	21.3	0.00e+00	0	38	0	572522496	54	6231
2026-01-01 14:33:18.37	32.06	41.95	-40.4	-41.5	21.3	0.00e+00	46	38	0	574619648	54	6071
2026-01-01 14:33:19.38	32.18	42.22	-40.5	-41.6	21.2	0.00e+00	90	38	0	575668224	54	6168
2026-01-01 14:33:20.38	32.31	42.49	-40.6	-41.8	21.1	0.00e+00	0	38	0	577765376	54	6275
2026-01-01 14:33:21.40	32.44	42.77	-40.5	-41.7	21.2	0.00e+00	90	38	0	579862528	54	6210
2026-01-01 14:33:22.41	32.57	43.04	-40.3	-41.5	21.4	0.00e+00	0	38	0	581959680	54	6036
2026-01-01 14:33:23.42	32.70	43.32	-40.2	-41.3	21.4	0.00e+00	0	38	0	584056832	54	5937
2026-01-01 14:33:24.42	32.83	43.60	-40.2	-41.3	21.1	0.00e+00	33	38	0	585105408	54	5939
2026-01-01 14:33:25.44	32.97	43.89	-40.3	-41.4	21.5	0.00e+00	50	38	0	587202560	54	5997
2026-01-01 14:33:26.45	33.11	44.17	-40.2	-41.4	21.5	0.00e+00	47	38	0	589299712	54	5979
2026-01-01 14:33:27.45	33.25	44.45	-40.4	-41.5	21.4	0.00e+00	5	38	0	591396864	54	6071
2026-01-01 14:33:28.46	33.39	44.74	-40.5	-41.7	21.1	0.00e+00	92	38	0	593494016	54	6189
2026-01-01 14:33:29.48	33.54	45.03	-40.8	-42.0	21.0	0.00e+00	6	38	0	594542592	54	6417
2026-01-01 14:33:30.48	33.69	45.32	-40.8	-42.0	21.0	0.00e+00	6	38	0	596639744	54	6416
2026-01-01 14:33:31.50	33.84	45.62	-40.9	-42.1	20.9	0.00e+00	0	38	0	598736896	54	6514
2026-01-01 14:33:32.51	34.00	45.92	-40.8	-42.0	20.9	0.00e+00	5	38	0	600834048	54	6435
2026-01-01 14:33:33.51	34.15	46.21	-40.6	-41.8	21.1	0.00e+00	2	38	0	602931200	54	6269
2026-01-01 14:33:34.53	34.32	46.52	-40.8	-42.1	20.8	0.00e+00	6	38	0	603979776	54	6469
2026-01-01 14:33:35.53	34.48	46.81	-41.1	-42.4	20.6	0.00e+00	92	38	0	606076928	54	6716
2026-01-01 14:33:36.54	34.64	47.12	-41.4	-42.7	20.4	0.00e+00	0	38	0	608174080	54	6959
2026-01-01 14:33:37.55	34.81	47.42	-41.5	-42.9	20.1	0.00e+00	22	38	0	610271232	54	7128
2026-01-01 14:33:38.56	34.99	47.73	-41.5	-42.9	20.2	0.00e+00	43	38	0	612368384	54	7091
2026-01-01 14:33:39.57	35.16	48.04	-41.1	-42.4	20.6	0.00e+00	42	38	0	613416960	54	6760
2026-01-01 14:33:40.58	35.35	48.35	-40.9	-42.2	20.8	0.00e+00	0	38	0	615514112	54	6542
2026-01-01 14:33:41.59	35.53	48.67	-40.0	-41.1	21.8	0.00e+00	0	38	0	617611264	54	5767
2026-01-01 14:33:42.60	35.72	48.98	-39.6	-40.6	22.2	0.00e+00	92	38	0	619708416	54	5494
2026-01-01 14:33:43.61	35.91	49.30	-39.4	-40.5	22.4	0.00e+00	37	38	0	621805568	52	6042
2026-01-01 14:33:44.62	36.10	49.62	-39.4	-40.4	22.4	0.00e+00	92	38	0	623902720	52	6031
2026-01-01 14:33:45.63	36.30	49.94	-39.2	-40.2	22.7	0.00e+00	0	38	0	624951296	52	5847
2026-01-01 14:33:46.64	36.51	50.27	-38.9	-39.9	22.9	0.00e+00	46	38	0	627048448	52	5659
2026-01-01 14:33:47.65	36.71	50.59	-38.3	-39.2	23.6	0.00e+00	47	38	0	629145600	50	5855
2026-01-01 14:33:48.66	36.93	50.92	-38.1	-39.0	23.6	0.00e+00	38	38	0	631242752	50	5757
2026-01-01 14:33:49.67	37.14	51.25	-37.5	-38.3	24.3	0.00e+00	92	38	0	633339904	48	5951
2026-01-01 14:33:50.68	37.36	51.58	-37.3	-38.1	24.4	0.00e+00	6	38	0	634388480	48	5803
2026-01-01 14:33:51.68	37.59	51.91	-37.1	-37.9	24.5	0.00e+00	92	38	0	636485632	48	5684
2026-01-01 14:33:52.70	37.82	52.25	-36.8	-37.6	24.9	0.00e+00	37	38	0	638582784	48	5474
2026-01-01 14:33:53.70	38.06	52.58	-36.4	-37.2	25.2	0.00e+00	9	38	0	640679936	46	5835
2026-01-01 14:33:54.71	38.30	52.92	-36.3	-37.1	25.3	0.00e+00	5	38	0	642777088	46	5768
2026-01-01 14:33:55.72	38.55	53.26	-36.1	-36.9	25.5	0.00e+00	6	38	0	643825664	46	5667
2026-01-01 14:33:56.73	38.80	53.60	-36.2	-37.0	25.3	0.00e+00	0	38	0	645922816	46	5738
2026-01-01 14:33:57.74	39.06	53.94	-36.0	-36.8	25.6	0.00e+00	7	38	0	648019968	46	5572
2026-01-01 14:33:58.75	39.33	54.29	-35.9	-36.6	25.7	0.00e+00	92	38	0	650117120	46	5471
2026-01-01 14:33:59.76	39.60	54.64	-35.5	-36.3	26.0	0.00e+00	0	38	0	652214272	44	5903
2026-01-01 14:34:00.77	39.88	54.99	-35.6	-36.3	25.8	0.00e+00	92	38	0	653262848	44	5921
2026-01-01 14:34:01.78	40.16	55.34	-36.1	-36.8	25.4	0.00e+00	0	38	0	655360000	44	6299
2026-01-01 14:34:02.79	40.46	55.69	-36.5	-37.3	25.0	0.00e+00	44	38	0	657457152	44	6678
2026-01-01 14:34:03.80	40.76	56.04	-37.0	-37.8	24.8	0.00e+00	0	38	0	659554304	46	6272
2026-01-01 14:34:04.81	41.06	56.40	-37.3	-38.1	24.4	0.00e+00	44	38	0	661651456	46	6505
2026-01-01 14:34:05.82	41.38	56.76	-37.4	-38.3	24.3	0.00e+00	92	38	0	662700032	46	6632
2026-01-01 14:34:06.83	41.70	57.11	-37.2	-38.0	24.7	0.00e+00	43	38	0	664797184	46	6431
2026-01-01 14:34:07.83	42.03	57.47	-37.0	-37.8	24.7	0.00e+00	92	38	0	666894336	46	6311
2026-01-01 14:34:08.84	42.37	57.83	-36.9	-37.7	24.8	0.00e+00	37	38	0	668991488	46	6212
2026-01-01 14:34:09.85	42.72	58.19	-36.8	-37.5	25.0	0.00e+00	0	38	0	671088640	46	6101
2026-01-01 14:34:10.86	43.08	58.56	-36.7	-37.5	24.9	0.00e+00	33	38	0	672137216	46	6074
2026-01-01 14:34:11.88	43.46	58.93	-36.1	-36.9	25.5	0.00e+00	33	38	0	674234368	46	5634
2026-01-01 14:34:12.88	43.83	59.29	-35.7	-36.4	25.7	0.00e+00	91	38	0	676331520	44	5994
2026-01-01 14:34:13.89	44.22	59.66	-35.6	-36.3	25.8	0.00e+00	0	38	0	678428672	44	5931
2026-01-01 14:34:14.90	44.62	60.02	-35.4	-36.2	26.0	0.00e+00	92	38	0	680525824	44	5837
2026-01-01 14:34:15.91	45.04	60.39	-34.9	-35.7	26.3	0.00e+00	0	38	0	681574400	44	5504
2026-01-01 14:34:16.92	45.46	60.76	-34.9	-35.6	26.4	0.00e+00	55	38	0	683671552	44	5499
2026-01-01 14:34:17.93	45.90	61.13	-34.7	-35.4	26.6	0.00e+00	2	38	0	685768704	44	5351
2026-01-01 14:34:18.94	46.35	61.50	-34.9	-35.6	26.5	0.00e+00	2	38	0	687865856	42	6169
2026-01-01 14:34:19.94	46.81	61.87	-34.8	-35.5	26.5	0.00e+00	0	38	0	689963008	42	6052
2026-01-01 14:34:20.96	47.30	62.25	-34.8	-35.5	26.5	0.00e+00	0	38	0	692060160	42	6080
2026-01-01 14:34:21.97	47.79	62.62	-35.0	-35.7	26.3	0.00e+00	92	38	0	693108736	42	6218
2026-01-01 14:34:22.98	48.30	62.99	-35.4	-36.1	25.9	0.00e+00	0	38	0	695205888	42	6535
2026-01-01 14:34:23.99	48.82	63.37	-35.7	-36.5	25.9	0.00e+00	92	38	0	697303040	42	6777
2026-01-01 14:34:25.00	49.36	63.74	-35.4	-36.1	26.0	0.00e+00	0	38	0	699400192	42	6538
2026-01-01 14:34:26.01	49.92	64.11	-35.4	-36.1	26.1	0.00e+00	50	38	0	701497344	42	6491
2026-01-01 14:34:27.02	50.50	64.48	-35.5	-36.2	25.8	0.00e+00	0	38	0	702545920	42	6615
2026-01-01 14:34:28.03	51.10	64.86	-35.7	-36.5	25.2	0.00e+00	50	38	0	704643072	42	6786
2026-01-01 14:34:29.04	51.71	65.23	-36.4	-37.1	25.1	0.00e+00	90	38	0	706740224	44	6514
2026-01-01 14:34:30.05	52.35	65.60	-37.3	-38.1	24.3	0.00e+00	51	38	0	708837376	46	6531
2026-01-01 14:34:31.06	53.01	65.97	-38.5	-39.4	23.3	0.00e+00	90	38	0	710934528	48	6716
2026-01-01 14:34:32.06	53.68	66.33	-39.1	-40.1	22.7	0.00e+00	32	38	0	711983104	50	6492
2026-01-01 14:34:33.07	54.38	66.70	-39.0	-40.0	22.1	0.00e+00	37	38	0	714080256	50	6440
2026-01-01 14:34:34.09	55.12	67.06	-39.0	-40.0	22.8	0.00e+00	37	38	0	716177408	50	6423
2026-01-01 14:34:35.10	55.87	67.43	-39.2	-40.2	22.6	0.00e+00	0	38	0	718274560	50	6565
2026-01-01 14:34:36.10	56.65	67.78	-39.7	-40.8	22.0	0.00e+00	92	38	0	720371712	52	6248
2026-01-01 14:34:37.11	57.46	68.14	-39.9	-41.0	21.9	0.00e+00	0	38	0	721420288	52	6399
2026-01-01 14:34:38.12	58.29	68.50	-40.0	-41.1	21.8	0.00e+00	90	38	0	723517440	52	6471
2026-01-01 14:34:39.13	59.16	68.85	-39.6	-40.6	22.3	0.00e+00	0	38	0	725614592	52	6147
2026-01-01 14:34:40.14	60.06	69.20	-39.0	-40.0	22.8	0.00e+00	90	38	0	727711744	52	5708
2026-01-01 14:34:41.15	60.99	69.55	-38.7	-39.7	23.1	0.00e+00	0	38	0	729808896	50	6176
2026-01-01 14:34:42.16	61.96	69.89	-39.1	-40.0	22.7	0.00e+00	0	38	0	730857472	50	6448
2026-01-01 14:34:43.17	62.96	70.23	-39.2	-40.2	22.7	0.00e+00	50	38	0	732954624	50	6598
2026-01-01 14:34:44.18	64.00	70.56	-38.7	-39.7	23.0	0.00e+00	0	38	0	735051776	50	6186
2026-01-01 14:34:45.19	65.08	70.89	-38.8	-39.7	22.9	0.00e+00	90	38	0	737148928	50	6244
2026-01-01 14:34:46.20	66.19	71.21	-39.2	-40.1	22.4	0.00e+00	0	38	0	739246080	50	6519
2026-01-01 14:34:47.21	67.35	71.53	-40.3	-41.4	21.5	0.00e+00	92	38	0	740294656	52	6734
2026-01-01 14:34:48.22	68.55	71.84	-40.6	-41.7	21.2	0.00e+00	52	38	0	742391808	54	6240
2026-01-01 14:34:49.23	69.80	72.14	-40.0	-41.1	21.6	0.00e+00	31	38	0	744488960	54	5819
2026-01-01 14:34:50.24	71.08	72.44	-39.8	-40.9	22.0	0.00e+00	2	38	0	746586112	52	6326
2026-01-01 14:34:51.25	72.42	72.73	-39.7	-40.8	22.1	0.00e+00	0	38	0	748683264	52	6280
2026-01-01 14:34:52.26	73.80	73.01	-39.8	-40.8	22.0	0.00e+00	92	38	0	749731840	52	6302
2026-01-01 14:34:53.27	75.23	73.28	-39.6	-40.7	22.3	0.00e+00	0	38	0	751828992	52	6188
2026-01-01 14:34:54.28	76.70	73.54	-39.7	-40.8	22.1	0.00e+00	90	38	0	753926144	52	6278
2026-01-01 14:34:55.28	78.21	73.79	-39.6	-40.7	22.1	0.00e+00	0	38	0	756023296	52	6195
2026-01-01 14:34:56.29	79.79	74.03	-39.7	-40.7	22.1	0.00e+00	29	38	0	758120448	52	6234
2026-01-01 14:34:57.30	81.41	74.26	-39.7	-40.8	22.0	0.00e+00	0	38	0	760217600	52	6291
2026-01-01 14:34:58.31	83.08	74.47	-39.6	-40.7	22.2	0.00e+00	0	38	0	761266176	52	6193
2026-01-01 14:34:59.32	84.80	74.68	-39.6	-40.6	22.2	0.00e+00	52	38	0	763363328	52	6148
2026-01-01 14:35:00.33	86.57	74.87	-39.6	-40.7	22.2	0.00e+00	0	38	0	765460480	52	6187
2026-01-01 14:35:01.34	88.38	75.05	-39.5	-40.6	22.3	0.00e+00	92	38	0	767557632	52	6115
2026-01-01 14:35:02.35	90.24	75.21	-39.6	-40.7	22.3	0.00e+00	0	38	0	768606208	52	6177
2026-01-01 14:35:03.36	92.13	75.36	-39.4	-40.5	22.4	0.00e+00	73	38	0	770703360	52	6037
2026-01-01 14:35:04.37	94.06	75.49	-39.1	-40.0	22.7	0.00e+00	0	38	0	772800512	52	5751
2026-01-01 14:35:05.38	96.03	75.60	-39.3	-40.3	22.6	0.00e+00	0	38	0	774897664	52	5906
2026-01-01 14:35:06.39	98.03	75.70	-39.5	-40.5	22.5	0.00e+00	0	38	0	776994816	52	6045
2026-01-01 14:35:07.38	100.02	75.79	-39.5	-40.5	22.4	0.00e+00	2	38	0	778043392	52	6046
2026-01-01 14:35:08.39	102.06	75.85	-39.9	-41.0	21.8	0.00e+00	91	38	0	780140544	52	6460
2026-01-01 14:35:09.40	104.13	75.90	-40.3	-41.4	21.5	0.00e+00	37	38	0	782237696	52	6767
2026-01-01 14:35:10.41	106.20	75.93	-40.5	-41.7	21.2	0.00e+00	91	38	0	784334848	52	6954
2026-01-01 14:35:11.42	108.29	75.94	-40.1	-41.2	21.6	0.00e+00	48	38	0	786432000	52	6608
2026-01-01 14:35:12.43	110.37	75.94	-39.7	-40.8	22.1	0.00e+00	49	38	0	788529152	52	6272
2026-01-01 14:35:13.43	112.43	75.92	-40.5	-41.7	21.1	0.00e+00	30	38	0	789577728	52	6953
2026-01-01 14:35:14.45	114.52	75.88	-41.7	-43.1	19.7	0.00e+00	0	38	0	791674880	54	7321
2026-01-01 14:35:15.45	116.56	75.82	-41.7	-43.1	19.9	0.00e+00	91	38	0	793772032	56	6471
2026-01-01 14:35:16.46	118.59	75.74	-40.9	-42.1	20.8	0.00e+00	33	38	0	795869184	56	5823
2026-01-01 14:35:17.47	120.60	75.65	-41.3	-42.5	20.6	0.00e+00	91	38	0	797966336	56	6102
2026-01-01 14:35:18.49	122.61	75.54	-42.6	-44.2	19.1	0.00e+00	6	38	0	799014912	56	7358
2026-01-01 14:35:19.50	124.56	75.41	-42.9	-44.6	18.6	0.00e+00	5	38	0	801112064	58	6899
2026-01-01 14:35:20.51	126.47	75.27	-41.8	-43.3	19.7	0.00e+00	0	38	0	803209216	58	5912
2026-01-01 14:35:21.51	128.32	75.12	-42.3	-43.8	19.1	0.00e+00	0	38	0	805306368	58	6308
2026-01-01 14:35:22.52	130.15	74.94	-42.6	-44.2	18.7	0.00e+00	38	38	0	807403520	58	6603
2026-01-01 14:35:23.53	131.94	74.76	-42.2	-43.8	18.9	0.00e+00	5	38	0	808452096	58	6254
2026-01-01 14:35:24.54	133.68	74.56	-41.6	-43.0	20.1	0.00e+00	90	38	0	810549248	58	5749
2026-01-01 14:35:25.55	135.37	74.35	-41.2	-42.5	20.7	0.00e+00	50	38	0	812646400	56	6039
2026-01-01 14:35:26.56	137.02	74.12	-41.7	-43.0	20.1	0.00e+00	81	38	0	814743552	56	6457
2026-01-01 14:35:27.57	138.61	73.89	-41.6	-43.0	20.2	0.00e+00	0	38	0	816840704	56	6419
2026-01-01 14:35:28.58	140.16	73.64	-40.9	-42.1	20.9	0.00e+00	50	38	0	817889280	56	5775
2026-01-01 14:35:29.59	141.66	73.38	-40.0	-41.1	21.7	0.00e+00	10	38	0	819986432	54	5774
2026-01-01 14:35:30.60	143.11	73.12	-39.7	-40.7	22.1	0.00e+00	50	38	0	822083584	52	6241
2026-01-01 14:35:31.61	144.51	72.84	-40.2	-41.3	21.7	0.00e+00	91	38	0	824180736	52	6664
2026-01-01 14:35:32.62	145.86	72.56	-40.0	-41.1	22.0	0.00e+00	44	38	0	826277888	52	6499
2026-01-01 14:35:33.63	147.17	72.26	-38.7	-39.6	23.0	0.00e+00	91	38	0	827326464	52	5486
2026-01-01 14:35:34.64	148.43	71.96	-38.5	-39.4	23.3	0.00e+00	42	38	0	829423616	50	5974
2026-01-01 14:35:35.65	149.65	71.65	-38.6	-39.5	23.3	0.00e+00	8	38	0	831520768	50	6063
2026-01-01 14:35:36.66	150.83	71.34	-38.4	-39.3	23.4	0.00e+00	0	38	0	833617920	50	5908
2026-01-01 14:35:37.67	151.96	71.02	-38.2	-39.1	23.6	0.00e+00	6	38	0	835715072	50	5801
2026-01-01 14:35:38.68	153.06	70.69	-37.9	-38.8	23.9	0.00e+00	91	38	0	836763648	50	5569
2026-01-01 14:35:39.69	154.11	70.36	-38.2	-39.1	23.4	0.00e+00	8	38	0	838860800	48	6498
2026-01-01 14:35:40.70	155.13	70.02	-38.8	-39.8	23.0	0.00e+00	92	38	0	840957952	50	6259
2026-01-01 14:35:41.71	156.11	69.68	-38.7	-39.6	23.1	0.00e+00	8	38	0	843055104	50	6160
2026-01-01 14:35:42.72	157.06	69.34	-38.3	-39.2	23.5	0.00e+00	0	38	0	845152256	50	5848
2026-01-01 14:35:43.73	157.97	68.99	-38.9	-39.8	22.9	0.00e+00	5	38	0	847249408	50	6295
2026-01-01 14:35:44.74	158.85	68.64	-40.3	-41.4	21.4	0.00e+00	0	38	0	848297984	52	6749
2026-01-01 14:35:45.75	159.70	68.28	-40.4	-41.6	21.5	0.00e+00	12	38	0	850395136	52	6865
2026-01-01 14:35:46.76	160.52	67.92	-39.3	-40.3	22.6	0.00e+00	0	38	0	852492288	52	5915
2026-01-01 14:35:47.77	161.31	67.56	-39.3	-40.3	22.7	0.00e+00	92	38	0	854589440	52	5901
2026-01-01 14:35:48.78	162.08	67.20	-39.6	-40.6	22.1	0.00e+00	49	38	0	856686592	52	6156
2026-01-01 14:35:49.79	162.82	66.83	-40.6	-41.8	21.1	0.00e+00	31	38	0	857735168	52	7055
2026-01-01 14:35:50.80	163.53	66.47	-38.8	-39.7	22.7	0.00e+00	32	38	0	859832320	52	5555
2026-01-01 14:35:51.81	164.22	66.10	-37.7	-38.6	24.0	0.00e+00	31	38	0	861929472	50	5458
2026-01-01 14:35:52.82	164.89	65.73	-37.4	-38.2	24.4	0.00e+00	0	38	0	864026624	48	5852
2026-01-01 14:35:53.82	165.53	65.36	-37.2	-38.1	24.4	0.00e+00	49	38	0	866123776	48	5780
2026-01-01 14:35:54.83	166.16	64.99	-37.2	-38.1	24.3	0.00e+00	92	38	0	867172352	48	5796
2026-01-01 14:35:55.84	166.76	64.62	-36.6	-37.4	25.0	0.00e+00	2	38	0	869269504	46	6021
2026-01-01 14:35:56.85	167.35	64.25	-35.6	-36.3	25.8	0.00e+00	92	38	0	871366656	44	5950
2026-01-01 14:35:57.86	167.91	63.87	-35.5	-36.2	26.0	0.00e+00	2	38	0	873463808	44	5863
2026-01-01 14:35:58.87	168.46	63.50	-34.9	-35.6	26.4	0.00e+00	2	38	0	875560960	44	5480
2026-01-01 14:35:59.88	168.99	63.13	-35.4	-36.1	26.0	0.00e+00	0	38	0	876609536	44	5806
2026-01-01 14:36:00.89	169.51	62.75	-35.3	-36.1	26.2	0.00e+00	0	38	0	878706688	44	5787
2026-01-01 14:36:01.90	170.01	62.38	-34.6	-35.3	26.7	0.00e+00	92	38	0	880803840	42	5909
2026-01-01 14:36:02.91	170.49	62.01	-34.7	-35.4	26.7	0.00e+00	2	38	0	882900992	42	5970
2026-01-01 14:36:03.92	170.96	61.63	-35.2	-35.9	26.2	0.00e+00	90	38	0	884998144	42	6374
2026-01-01 14:36:04.93	171.42	61.26	-35.7	-36.4	25.9	0.00e+00	2	38	0	886046720	42	6721
2026-01-01 14:36:05.94	171.86	60.89	-36.3	-37.0	25.2	0.00e+00	0	38	0	888143872	44	6459
2026-01-01 14:36:06.95	172.29	60.52	-37.3	-38.1	24.5	0.00e+00	42	38	0	890241024	46	6517
2026-01-01 14:36:07.96	172.71	60.15	-37.4	-38.2	24.4	0.00e+00	0	38	0	892338176	46	6563
2026-01-01 14:36:08.97	173.12	59.78	-37.6	-38.5	23.9	0.00e+00	54	38	0	894435328	46	6802
2026-01-01 14:36:09.98	173.51	59.41	-39.2	-40.2	22.5	0.00e+00	0	38	0	895483904	50	6556
2026-01-01 14:36:11.00	173.90	59.04	-40.6	-41.8	21.2	0.00e+00	90	38	0	897581056	52	7016
2026-01-01 14:36:12.01	174.28	58.67	-40.4	-41.6	21.4	0.00e+00	35	38	0	899678208	54	6104
2026-01-01 14:36:13.02	174.64	58.31	-39.8	-40.8	22.1	0.00e+00	92	38	0	901775360	54	5598
2026-01-01 14:36:14.03	174.99	57.95	-39.0	-39.9	22.7	0.00e+00	33	38	0	903872512	52	5673
2026-01-01 14:36:15.04	175.34	57.58	-38.5	-39.4	23.3	0.00e+00	2	38	0	905969664	50	6012
2026-01-01 14:36:16.05	175.67	57.22	-38.9	-39.8	23.0	0.00e+00	77	38	0	907018240	50	6289
2026-01-01 14:36:17.06	176.00	56.86	-39.1	-40.1	22.7	0.00e+00	2	38	0	909115392	50	6465
2026-01-01 14:36:18.07	176.32	56.50	-38.9	-39.8	23.0	0.00e+00	92	38	0	911212544	50	6311
2026-01-01 14:36:19.08	176.63	56.15	-38.2	-39.1	23.6	0.00e+00	0	38	0	913309696	50	5803
2026-01-01 14:36:20.09	176.93	55.79	-37.3	-38.1	24.5	0.00e+00	92	38	0	915406848	48	5821
2026-01-01 14:36:21.10	177.23	55.44	-36.7	-37.5	24.9	0.00e+00	2	38	0	916455424	46	6050
2026-01-01 14:36:22.11	177.52	55.08	-36.1	-36.8	25.6	0.00e+00	0	38	0	918552576	46	5619
2026-01-01 14:36:23.12	177.80	54.73	-36.1	-36.9	25.2	0.00e+00	2	38	0	920649728	46	5662
2026-01-01 14:36:24.13	178.07	54.38	-36.5	-37.3	25.2	0.00e+00	0	38	0	922746880	46	5922
2026-01-01 14:36:25.14	178.34	54.04	-36.3	-37.1	25.2	0.00e+00	92	38	0	924844032	46	5807
2026-01-01 14:36:26.15	178.60	53.69	-35.8	-36.5	25.8	0.00e+00	2	38	0	925892608	46	5422
2026-01-01 14:36:27.16	178.86	53.35	-35.8	-36.5	25.7	0.00e+00	90	38	0	927989760	44	6080
2026-01-01 14:36:28.17	179.11	53.01	-35.8	-36.5	25.7	0.00e+00	0	38	0	930086912	44	6102
2026-01-01 14:36:29.18	179.35	52.67	-36.1	-36.8	25.5	0.00e+00	48	38	0	932184064	44	6300
2026-01-01 14:36:30.18	179.59	52.33	-36.7	-37.5	24.9	0.00e+00	0	38	0	934281216	44	6774
2026-01-01 14:36:31.19	179.82	51.99	-37.8	-38.6	24.0	0.00e+00	34	38	0	935329792	46	6907
2026-01-01 14:36:32.20	180.05	51.66	-39.1	-40.1	22.6	0.00e+00	91	38	0	937426944	50	6506
2026-01-01 14:36:33.21	180.28	51.33	-40.5	-41.7	21.3	0.00e+00	42	38	0	939524096	52	7005
2026-01-01 14:36:34.22	180.49	51.00	-40.6	-41.8	21.2	0.00e+00	92	38	0	941621248	52	7060
2026-01-01 14:36:35.23	180.71	50.67	-40.5	-41.6	21.5	0.00e+00	0	38	0	943718400	52	6887
2026-01-01 14:36:36.24	180.92	50.34	-41.1	-42.4	20.5	0.00e+00	56	38	0	944766976	54	6716
2026-01-01 14:36:37.25	181.12	50.01	-42.9	-44.6	18.4	0.00e+00	39	38	0	946864128	58	6873
2026-01-01 14:36:38.26	181.32	49.69	-43.5	-45.4	17.8	0.00e+00	2	38	0	948961280	58	7514
2026-01-01 14:36:39.27	181.52	49.37	-42.8	-44.5	18.8	0.00e+00	53	38	0	951058432	58	6796
2026-01-01 14:36:40.28	181.71	49.05	-41.9	-43.3	19.8	0.00e+00	38	38	0	953155584	58	5945
2026-01-01 14:36:41.29	181.90	48.73	-42.1	-43.6	19.5	0.00e+00	92	38	0	954204160	58	6129
2026-01-01 14:36:42.30	182.09	48.42	-42.6	-44.2	19.0	0.00e+00	0	38	0	956301312	58	6566
2026-01-01 14:36:43.31	182.27	48.10	-42.7	-44.4	18.8	0.00e+00	31	38	0	958398464	58	6717
2026-01-01 14:36:44.32	182.45	47.79	-41.4	-42.7	20.4	0.00e+00	2	38	0	960495616	56	6225
2026-01-01 14:36:45.33	182.62	47.48	-40.4	-41.5	21.5	0.00e+00	0	38	0	962592768	54	6057
2026-01-01 14:36:46.34	182.79	47.18	-39.8	-40.8	21.9	0.00e+00	0	38	0	963641344	54	5628
2026-01-01 14:36:47.34	182.96	46.87	-39.8	-40.9	22.1	0.00e+00	0	38	0	965738496	52	6335
2026-01-01 14:36:48.35	183.12	46.57	-40.3	-41.4	21.5	0.00e+00	92	38	0	967835648	52	6752
2026-01-01 14:36:49.36	183.29	46.27	-41.1	-42.4	20.6	0.00e+00	46	38	0	969932800	54	6695
2026-01-01 14:36:50.37	183.44	45.97	-41.2	-42.6	20.6	0.00e+00	92	38	0	972029952	54	6872
2026-01-01 14:36:51.38	183.60	45.67	-40.2	-41.3	21.7	0.00e+00	0	38	0	973078528	54	5951
2026-01-01 14:36:52.39	183.75	45.37	-39.3	-40.3	22.7	0.00e+00	36	38	0	975175680	52	5925
2026-01-01 14:36:53.40	183.90	45.08	-38.7	-39.7	23.2	0.00e+00	33	38	0	977272832	52	5530
2026-01-01 14:36:54.41	184.05	44.79	-38.3	-39.2	23.7	0.00e+00	35	38	0	979369984	50	5885
2026-01-01 14:36:55.42	184.20	44.50	-37.8	-38.7	24.0	0.00e+00	91	38	0	981467136	50	5537
2026-01-01 14:36:56.43	184.34	44.21	-37.5	-38.3	24.4	0.00e+00	34	38	0	982515712	48	5963
2026-01-01 14:36:57.44	184.48	43.92	-37.0	-37.8	24.8	0.00e+00	92	38	0	984612864	48	5569
2026-01-01 14:36:58.45	184.62	43.64	-37.1	-37.9	24.7	0.00e+00	0	38	0	986710016	48	5674
2026-01-01 14:36:59.45	184.75	43.36	-37.6	-38.5	24.2	0.00e+00	0	38	0	988807168	48	6051
2026-01-01 14:37:00.46	184.88	43.08	-38.6	-39.6	23.1	0.00e+00	36	38	0	990904320	48	6869
2026-01-01 14:37:01.47	185.01	42.80	-39.8	-41.0	21.9	0.00e+00	34	38	0	993001472	52	6399
2026-01-01 14:37:02.48	185.14	42.53	-40.3	-41.6	21.6	0.00e+00	0	38	0	994050048	52	6865
2026-01-01 14:37:03.49	185.27	42.25	-39.8	-41.0	22.1	0.00e+00	0	38	0	996147200	52	6427
2026-01-01 14:37:04.50	185.39	41.98	-38.8	-39.8	23.1	0.00e+00	91	38	0	998244352	52	5593
2026-01-01 14:37:05.51	185.52	41.71	-37.8	-38.7	24.1	0.00e+00	0	38	0	1000341504	50	5534
2026-01-01 14:37:06.52	185.64	41.44	-37.2	-38.0	24.7	0.00e+00	52	38	0	1002438656	48	5706
2026-01-01 14:37:07.53	185.75	41.17	-36.8	-37.6	25.0	0.00e+00	0	38	0	1003487232	48	5453
2026-01-01 14:37:08.54	185.87	40.90	-37.0	-37.7	24.8	0.00e+00	40	38	0	1005584384	48	5564
2026-01-01 14:37:09.55	185.99	40.64	-37.5	-38.4	24.2	0.00e+00	0	38	0	1007681536	48	5973
2026-01-01 14:37:10.56	186.10	40.38	-38.4	-39.4	23.3	0.00e+00	0	38	0	1009778688	48	6723
2026-01-01 14:37:11.57	186.21	40.12	-39.5	-40.6	22.2	0.00e+00	92	38	0	1011875840	50	6868
2026-01-01 14:37:12.58	186.32	39.86	-40.3	-41.5	21.4	0.00e+00	46	38	0	1012924416	52	6788
2026-01-01 14:37:13.59	186.43	39.60	-40.6	-41.9	21.2	0.00e+00	90	38	0	1015021568	52	7107
2026-01-01 14:37:14.60	186.53	39.35	-40.6	-41.9	21.3	0.00e+00	39	38	0	1017118720	52	7099
2026-01-01 14:37:15.61	186.64	39.10	-40.2	-41.3	21.6	0.00e+00	46	38	0	1019215872	52	6672
2026-01-01 14:37:16.62	186.74	38.85	-39.6	-40.7	22.3	0.00e+00	44	38	0	1021313024	52	6222
2026-01-01 14:37:17.63	186.84	38.60	-38.8	-39.8	23.2	0.00e+00	39	38	0	1022361600	52	5571
2026-01-01 14:37:18.64	186.94	38.35	-38.5	-39.4	23.3	0.00e+00	19	38	0	1024458752	50	5967
2026-01-01 14:37:19.65	187.04	38.10	-38.4	-39.2	23.6	0.00e+00	42	38	0	1026555904	50	5893
2026-01-01 14:37:20.66	187.14	37.86	-38.4	-39.3	23.4	0.00e+00	92	38	0	1028653056	50	5915
2026-01-01 14:37:21.67	187.24	37.62	-39.0	-39.9	22.9	0.00e+00	0	38	0	1030750208	50	6388
2026-01-01 14:37:22.68	187.33	37.37	-39.6	-40.6	22.2	0.00e+00	6	38	0	1031798784	50	6924
2026-01-01 14:37:23.69	187.42	37.14	-40.6	-41.8	21.2	0.00e+00	0	38	0	1033895936	52	7020
2026-01-01 14:37:24.70	187.52	36.90	-40.9	-42.1	20.8	0.00e+00	0	38	0	1035993088	54	6538
2026-01-01 14:37:25.71	187.61	36.66	-41.2	-42.5	20.5	0.00e+00	4	38	0	1038090240	54	6791
2026-01-01 14:37:26.72	187.70	36.43	-40.9	-42.2	20.8	0.00e+00	8	38	0	1040187392	54	6562
2026-01-01 14:37:27.73	187.78	36.19	-40.7	-42.0	21.0	0.00e+00	90	38	0	1041235968	54	6398
2026-01-01 14:37:28.74	187.87	35.96	-40.5	-41.7	21.2	0.00e+00	0	38	0	1043333120	54	6206
2026-01-01 14:37:29.75	187.96	35.73	-40.1	-41.2	21.7	0.00e+00	90	38	0	1045430272	54	5892
2026-01-01 14:37:30.76	188.04	35.51	-39.6	-40.6	22.3	0.00e+00	0	38	0	1047527424	52	6155
2026-01-01 14:37:31.77	188.13	35.28	-39.4	-40.4	22.6	0.00e+00	46	38	0	1049624576	52	5995
2026-01-01 14:37:32.78	188.21	35.05	-39.3	-40.2	22.7	0.00e+00	19	38	0	1050673152	52	5890
2026-01-01 14:37:33.79	188.29	34.83	-39.2	-40.2	22.7	0.00e+00	41	38	0	1052770304	52	5864
2026-01-01 14:37:34.80	188.37	34.61	-39.3	-40.3	22.6	0.00e+00	90	38	0	1054867456	52	5910
2026-01-01 14:37:35.80	188.45	34.39	-39.3	-40.3	22.6	0.00e+00	42	38	0	1056964608	52	5919
2026-01-01 14:37:36.81	188.53	34.17	-39.6	-40.6	22.2	0.00e+00	92	38	0	1059061760	52	6156
2026-01-01 14:37:37.82	188.60	33.95	-40.1	-41.2	21.8	0.00e+00	41	38	0	1061158912	52	6542
2026-01-01 14:37:38.83	188.68	33.74	-40.5	-41.7	21.3	0.00e+00	40	38	0	1062207488	52	6994
2026-01-01 14:37:39.84	188.76	33.52	-41.0	-42.3	20.6	0.00e+00	0	38	0	1064304640	54	6624
2026-01-01 14:37:40.85	188.83	33.31	-41.3	-42.6	20.3	0.00e+00	0	38	0	1066401792	54	6891
2026-01-01 14:37:41.86	188.90	33.10	-41.6	-43.0	20.0	0.00e+00	90	38	0	1068498944	54	7239
2026-01-01 14:37:42.88	188.98	32.89	-41.8	-43.2	19.9	0.00e+00	0	38	0	1070596096	56	6565
2026-01-01 14:37:43.89	189.05	32.68	-41.9	-43.3	19.7	0.00e+00	92	38	0	1071644672	56	6683
2026-01-01 14:37:44.89	189.12	32.47	-41.5	-42.9	20.2	0.00e+00	0	38	0	1073741824	56	6364
2026-01-01 14:37:45.90	189.19	32.27	-41.2	-42.6	20.5	0.00e+00	90	38	0	1075838976	56	6106
2026-01-01 14:37:46.91	189.26	32.06	-41.2	-42.6	20.6	0.00e+00	2	38	0	1077936128	56	6110
2026-01-01 14:37:47.92	189.33	31.86	-41.1	-42.4	20.7	0.00e+00	0	38	0	1080033280	56	5996
2026-01-01 14:37:48.93	189.40	31.66	-41.1	-42.3	20.7	0.00e+00	0	38	0	1081081856	56	5954
2026-01-01 14:37:49.94	189.46	31.46	-41.1	-42.3	20.7	0.00e+00	46	38	0	1083179008	56	5955
2026-01-01 14:37:50.96	189.53	31.25	-41.0	-42.2	20.9	0.00e+00	91	38	0	1085276160	56	5860
2026-01-01 14:37:51.96	189.59	31.06	-40.8	-42.0	21.0	0.00e+00	0	38	0	1087373312	56	5709
2026-01-01 14:37:52.98	189.66	30.86	-40.4	-41.6	21.3	0.00e+00	92	38	0	1089470464	54	6123
2026-01-01 14:37:53.99	189.72	30.66	-40.4	-41.5	21.4	0.00e+00	38	38	0	1090519040	54	6061
2026-01-01 14:37:55.00	189.79	30.47	-40.1	-41.2	21.8	0.00e+00	0	38	0	1092616192	54	5883
2026-01-01 14:37:56.01	189.85	30.28	-39.7	-40.7	22.2	0.00e+00	42	38	0	1094713344	52	6203
2026-01-01 14:37:57.02	189.91	30.09	-39.4	-40.4	22.4	0.00e+00	38	38	0	1096810496	52	6030
2026-01-01 14:37:58.03	189.97	29.90	-39.4	-40.5	22.4	0.00e+00	90	38	0	1098907648	52	6035
2026-01-01 14:37:59.04	190.03	29.71	-39.1	-40.1	22.7	0.00e+00	0	38	0	1101004800	52	5796
2026-01-01 14:38:00.05	190.09	29.52	-39.1	-40.0	22.8	0.00e+00	90	38	0	1102053376	52	5745
2026-01-01 14:38:01.06	190.15	29.33	-39.0	-39.9	22.9	0.00e+00	37	38	0	1104150528	52	5680
2026-01-01 14:38:02.07	190.21	29.15	-39.0	-40.0	22.8	0.00e+00	38	38	0	1106247680	52	5704
2026-01-01 14:38:03.08	190.27	28.96	-39.1	-40.0	22.8	0.00e+00	0	38	0	1108344832	52	5757
2026-01-01 14:38:04.09	190.32	28.78	-39.1	-40.1	22.7	0.00e+00	0	38	0	1110441984	52	5797
2026-01-01 14:38:05.10	190.38	28.60	-39.0	-39.9	22.9	0.00e+00	92	38	0	1111490560	52	5679
2026-01-01 14:38:06.11	190.44	28.42	-39.0	-40.0	22.8	0.00e+00	0	38	0	1113587712	52	5728
2026-01-01 14:38:07.12	190.49	28.24	-38.9	-39.8	22.9	0.00e+00	92	38	0	1115684864	52	5623
2026-01-01 14:38:08.13	190.55	28.06	-38.8	-39.8	23.0	0.00e+00	0	38	0	1117782016	52	5583
2026-01-01 14:38:09.14	190.60	27.88	-38.8	-39.7	23.0	0.00e+00	75	38	0	1119879168	52	5551
2026-01-01 14:38:10.15	190.66	27.70	-38.6	-39.5	23.1	0.00e+00	0	38	0	1120927744	50	6072
2026-01-01 14:38:11.16	190.71	27.53	-38.6	-39.6	23.2	0.00e+00	2	38	0	1123024896	50	6116
2026-01-01 14:38:12.17	190.76	27.36	-38.3	-39.2	23.4	0.00e+00	0	38	0	1125122048	50	5889
2026-01-01 14:38:13.18	190.81	27.18	-38.2	-39.1	23.6	0.00e+00	0	38	0	1127219200	50	5785
2026-01-01 14:38:14.19	190.87	27.01	-38.2	-39.1	23.6	0.00e+00	91	38	0	1129316352	50	5791
2026-01-01 14:38:15.20	190.92	26.84	-38.1	-39.0	23.7	0.00e+00	43	38	0	1130364928	50	5712
2026-01-01 14:38:16.21	190.97	26.67	-38.2	-39.1	23.6	0.00e+00	92	38	0	1132462080	50	5768
2026-01-01 14:38:17.22	191.02	26.50	-38.1	-39.0	23.7	0.00e+00	38	38	0	1134559232	50	5735
2026-01-01 14:38:18.23	191.07	26.33	-38.1	-39.0	23.6	0.00e+00	0	38	0	1136656384	50	5706
2026-01-01 14:38:19.24	191.12	26.17	-38.2	-39.1	23.6	0.00e+00	0	38	0	1138753536	50	5784
2026-01-01 14:38:20.25	191.16	26.00	-38.0	-38.9	23.8	0.00e+00	37	38	0	1139802112	50	5682
2026-01-01 14:38:21.26	191.21	25.84	-38.2	-39.1	23.6	0.00e+00	90	38	0	1141899264	50	5772
2026-01-01 14:38:22.27	191.26	25.67	-38.2	-39.1	23.6	0.00e+00	0	38	0	1143996416	50	5771
2026-01-01 14:38:23.28	191.31	25.51	-38.2	-39.2	23.5	0.00e+00	92	38	0	1146093568	50	5833
2026-01-01 14:38:24.29	191.35	25.35	-38.1	-39.0	23.7	0.00e+00	0	38	0	1148190720	50	5722
2026-01-01 14:38:25.30	191.40	25.19	-38.2	-39.1	23.5	0.00e+00	0	38	0	1149239296	50	5802
2026-01-01 14:38:26.31	191.45	25.03	-38.1	-39.0	23.7	0.00e+00	0	38	0	1151336448	50	5717
2026-01-01 14:38:27.32	191.49	24.87	-38.1	-39.0	23.6	0.00e+00	0	38	0	1153433600	50	5751
2026-01-01 14:38:28.33	191.54	24.71	-37.8	-38.6	23.9	0.00e+00	76	38	0	1155530752	50	5497
2026-01-01 14:38:29.34	191.58	24.55	-37.7	-38.5	24.0	0.00e+00	0	38	0	1157627904	48	6093
2026-01-01 14:38:30.35	191.63	24.40	-37.7	-38.6	24.0	0.00e+00	92	38	0	1158676480	48	6129
2026-01-01 14:38:31.36	191.67	24.24	-37.4	-38.2	24.3	0.00e+00	0	38	0	1160773632	48	5895
2026-01-01 14:38:32.38	191.72	24.08	-37.4	-38.2	24.3	0.00e+00	38	38	0	1162870784	48	5871
2026-01-01 14:38:33.39	191.76	23.93	-37.3	-38.2	24.3	0.00e+00	37	38	0	1164967936	48	5849
2026-01-01 14:38:34.40	191.80	23.78	-37.3	-38.1	24.1	0.00e+00	0	38	0	1167065088	48	5785
2026-01-01 14:38:35.40	191.84	23.63	-37.2	-38.0	24.4	0.00e+00	0	38	0	1169162240	48	5741
2026-01-01 14:38:36.41	191.88	23.48	-37.2	-38.1	24.4	0.00e+00	46	38	0	1170210816	48	5770
2026-01-01 14:38:37.43	191.93	23.33	-37.1	-37.9	24.5	0.00e+00	92	38	0	1172307968	48	5691
2026-01-01 14:38:38.43	191.97	23.18	-36.8	-37.6	24.8	0.00e+00	40	38	0	1174405120	48	5487
2026-01-01 14:38:39.45	192.01	23.03	-36.8	-37.6	24.8	0.00e+00	92	38	0	1176502272	48	5470
2026-01-01 14:38:40.45	192.05	22.88	-36.9	-37.7	24.7	0.00e+00	45	38	0	1178599424	48	5531
2026-01-01 14:38:41.46	192.09	22.74	-36.9	-37.7	24.7	0.00e+00	6	38	0	1179648000	48	5504
2026-01-01 14:38:42.47	192.13	22.59	-36.9	-37.7	24.6	0.00e+00	0	38	0	1181745152	48	5516
2026-01-01 14:38:43.48	192.17	22.45	-36.9	-37.7	24.4	0.00e+00	0	38	0	1183842304	48	5539
2026-01-01 14:38:44.49	192.21	22.30	-37.0	-37.8	24.6	0.00e+00	92	38	0	1185939456	48	5576
2026-01-01 14:38:45.50	192.25	22.16	-37.1	-37.9	24.4	0.00e+00	0	38	0	1188036608	48	5663
2026-01-01 14:38:46.51	192.29	22.02	-37.2	-38.0	24.5	0.00e+00	92	38	0	1189085184	48	5711
2026-01-01 14:38:47.52	192.32	21.87	-37.2	-38.0	24.4	0.00e+00	0	38	0	1191182336	48	5725
2026-01-01 14:38:48.53	192.36	21.73	-37.3	-38.1	24.3	0.00e+00	4	38	0	1193279488	48	5815
2026-01-01 14:38:49.54	192.40	21.59	-37.4	-38.2	24.2	0.00e+00	6	38	0	1195376640	48	5863
2026-01-01 14:38:50.55	192.44	21.45	-37.5	-38.3	24.2	0.00e+00	0	38	0	1197473792	48	5947
2026-01-01 14:38:51.56	192.47	21.31	-37.5	-38.4	24.1	0.00e+00	2	38	0	1198522368	48	5972
2026-01-01 14:38:52.57	192.51	21.18	-37.6	-38.4	24.0	0.00e+00	0	38	0	1200619520	48	6014
2026-01-01 14:38:53.58	192.55	21.04	-37.6	-38.4	24.1	0.00e+00	92	38	0	1202716672	48	6020
2026-01-01 14:38:54.59	192.58	20.90	-37.5	-38.4	24.2	0.00e+00	45	38	0	1204813824	48	5967
2026-01-01 14:38:55.60	192.62	20.77	-37.5	-38.4	24.1	0.00e+00	88	38	0	1206910976	48	5985
2026-01-01 14:38:56.61	192.65	20.63	-37.6	-38.5	24.0	0.00e+00	45	38	0	1207959552	48	6037
2026-01-01 14:38:57.62	192.69	20.50	-37.6	-38.4	24.1	0.00e+00	5	38	0	1210056704	48	6020
2026-01-01 14:38:58.63	192.73	20.36	-37.5	-38.4	24.1	0.00e+00	0	38	0	1212153856	48	5982
2026-01-01 14:38:59.64	192.76	20.23	-37.5	-38.3	24.2	0.00e+00	38	38	0	1214251008	48	5959
2026-01-01 14:39:00.65	192.79	20.10	-37.5	-38.3	24.2	0.00e+00	92	38	0	1216348160	48	5935
2026-01-01 14:39:01.66	192.83	19.97	-37.5	-38.3	24.2	0.00e+00	47	38	0	1217396736	48	5946
