passes_logs/2026/01/01/R4.6S_Anadyr/R4.6S_Anadyr__20260101_020207_SUOMI_NPP_rec.log

#Pass ID: 20260101_020207_SUOMI NPP
#Satellite: SUOMI NPP
#Configuration: NPP
#almurnet v.1.7.20251203
#Start time: 2026-01-01 02:02:10

#Version: 2.2.20231116
#Station: R4.6S_Anadyr
#Location: 177.4865 lon 64.73178 lat
#TLE: 1 37849U 11061A   25364.87906318  .00000195  00000+0  11345-3 0  9993
#TLE: 2 37849  98.7794 302.0592 0002571  89.2401 270.9069 14.19520347734561

#Time	Az	El	Level	Level2	SNR	BER	BlckErr	Temp	State	Recorded	gain1	gain2
2026-01-01 02:02:10.04	201.43	0.13	-49.6	-67.3	3.5	3.02e+01	0	35	0	0	60	89501
2026-01-01 02:02:11.05	201.49	0.18	-49.3	-64.6	3.6	1.51e+00	0	36	104	0	60	61256
2026-01-01 02:02:12.06	201.55	0.24	-49.5	-64.7	3.6	1.51e+00	0	36	104	0	60	61810
2026-01-01 02:02:13.06	201.60	0.29	-49.4	-64.6	3.6	1.51e+00	0	36	104	0	60	61573
2026-01-01 02:02:14.07	201.66	0.35	-49.4	-64.6	3.6	1.51e+00	0	36	104	0	60	61624
2026-01-01 02:02:15.08	201.72	0.40	-49.4	-64.7	3.6	1.51e+00	0	36	104	0	60	61945
2026-01-01 02:02:16.09	201.77	0.46	-49.5	-64.7	3.6	1.51e+00	0	36	104	0	60	61982
2026-01-01 02:02:17.10	201.83	0.51	-49.5	-64.7	3.6	1.51e+00	0	36	104	0	60	61879
2026-01-01 02:02:18.11	201.89	0.57	-49.4	-64.7	3.6	1.51e+00	0	36	104	0	60	62137
2026-01-01 02:02:19.12	201.95	0.63	-49.4	-64.6	3.6	1.51e+00	0	36	104	0	60	61726
2026-01-01 02:02:20.13	202.01	0.68	-49.3	-64.6	3.6	1.51e+00	0	37	104	0	60	61092
2026-01-01 02:02:21.14	202.07	0.74	-49.2	-64.4	3.6	1.51e+00	0	37	104	0	60	60226
2026-01-01 02:02:22.15	202.12	0.79	-49.1	-64.3	3.6	1.51e+00	0	36	104	0	60	59494
2026-01-01 02:02:23.16	202.18	0.85	-49.0	-64.2	3.6	1.51e+00	0	37	104	0	60	58881
2026-01-01 02:02:24.17	202.24	0.90	-48.8	-64.0	3.6	1.51e+00	0	37	104	0	60	57398
2026-01-01 02:02:25.18	202.30	0.96	-48.5	-63.7	3.6	1.51e+00	0	37	104	0	60	55416
2026-01-01 02:02:26.19	202.36	1.02	-48.1	-63.2	3.6	1.51e+00	0	37	104	0	60	52460
2026-01-01 02:02:27.20	202.42	1.07	-48.1	-63.2	3.6	1.51e+00	0	37	104	0	60	52439
2026-01-01 02:02:28.21	202.48	1.13	-48.1	-63.3	3.6	1.51e+00	0	37	104	0	60	52636
2026-01-01 02:02:29.22	202.54	1.19	-48.1	-63.3	3.6	1.51e+00	0	37	104	0	60	52726
2026-01-01 02:02:30.23	202.60	1.24	-48.1	-63.2	3.6	1.51e+00	0	37	104	0	60	52211
2026-01-01 02:02:31.24	202.66	1.30	-48.1	-63.1	3.6	1.51e+00	0	37	104	0	60	51835
2026-01-01 02:02:32.25	202.72	1.36	-48.1	-63.2	3.6	1.51e+00	0	37	104	0	60	51954
2026-01-01 02:02:33.26	202.78	1.41	-48.1	-63.2	3.6	1.51e+00	0	37	104	0	60	52421
2026-01-01 02:02:34.27	202.85	1.47	-48.1	-63.3	3.6	1.51e+00	0	37	104	0	60	52586
2026-01-01 02:02:35.28	202.91	1.53	-48.1	-63.3	3.6	1.51e+00	0	37	104	0	60	52595
2026-01-01 02:02:36.29	202.97	1.58	-48.1	-63.3	3.6	1.51e+00	0	37	104	0	60	52864
2026-01-01 02:02:37.30	203.03	1.64	-48.1	-63.3	3.6	1.51e+00	0	37	104	0	60	52770
2026-01-01 02:02:38.31	203.09	1.70	-48.1	-63.3	3.6	1.51e+00	0	37	104	0	60	52861
2026-01-01 02:02:39.32	203.16	1.76	-48.1	-63.2	3.6	1.51e+00	0	37	104	0	60	52409
2026-01-01 02:02:40.32	203.22	1.81	-48.1	-63.3	3.6	1.51e+00	0	37	104	0	60	52955
2026-01-01 02:02:41.34	203.28	1.87	-48.1	-63.2	3.6	1.51e+00	0	37	104	0	60	52384
2026-01-01 02:02:42.34	203.34	1.93	-48.1	-63.3	3.6	1.51e+00	0	37	104	0	60	52632
2026-01-01 02:02:43.36	203.41	1.99	-48.1	-63.3	3.6	1.51e+00	0	37	104	0	60	52564
2026-01-01 02:02:44.37	203.47	2.04	-48.1	-63.2	3.6	1.51e+00	0	37	104	0	60	52443
2026-01-01 02:02:45.38	203.54	2.10	-48.1	-63.2	3.6	1.51e+00	0	37	104	0	60	52261
2026-01-01 02:02:46.39	203.60	2.16	-48.1	-63.2	3.6	1.51e+00	0	37	104	0	60	52312
2026-01-01 02:02:47.40	203.66	2.22	-48.1	-63.2	3.6	1.51e+00	0	37	104	0	60	52361
2026-01-01 02:02:48.41	203.73	2.28	-48.1	-63.2	3.6	1.51e+00	0	37	104	0	60	51977
2026-01-01 02:02:49.42	203.79	2.33	-48.1	-63.2	3.6	1.51e+00	0	37	104	0	60	52214
2026-01-01 02:02:50.43	203.86	2.39	-48.1	-63.1	3.6	1.51e+00	0	37	104	0	60	51923
2026-01-01 02:02:51.44	203.92	2.45	-48.1	-63.2	3.6	1.51e+00	0	37	104	0	60	52472
2026-01-01 02:02:52.45	203.99	2.51	-48.1	-63.3	3.6	1.51e+00	0	37	104	0	60	52593
2026-01-01 02:02:53.46	204.05	2.57	-48.1	-63.0	3.6	1.51e+00	0	37	104	0	60	50798
2026-01-01 02:02:54.47	204.12	2.63	-48.1	-62.5	3.6	1.51e+00	0	37	104	0	60	48078
2026-01-01 02:02:55.48	204.19	2.68	-48.0	-61.5	3.6	1.51e+00	0	37	104	0	60	42789
2026-01-01 02:02:56.49	204.25	2.74	-48.0	-60.7	3.7	1.49e+00	0	37	0	0	60	39127
2026-01-01 02:02:57.50	204.32	2.80	-48.0	-61.0	3.7	1.50e+00	0	37	104	0	60	40466
2026-01-01 02:02:58.51	204.39	2.86	-48.0	-61.9	3.6	1.50e+00	0	37	104	0	60	45080
2026-01-01 02:02:59.52	204.45	2.92	-48.1	-62.8	3.6	1.51e+00	0	37	104	0	60	49698
2026-01-01 02:03:00.51	204.52	2.98	-48.0	-61.4	3.6	1.51e+00	0	37	104	0	60	42336
2026-01-01 02:03:01.53	204.59	3.04	-47.7	-57.4	5.4	1.17e+00	92	37	104	0	60	26650
2026-01-01 02:03:02.54	204.66	3.10	-47.1	-53.6	8.2	1.48e-01	92	37	0	0	60	17234
2026-01-01 02:03:03.55	204.73	3.16	-46.4	-51.1	10.9	1.43e-02	0	37	0	2097152	60	13037
2026-01-01 02:03:04.56	204.79	3.22	-45.6	-49.4	12.7	1.05e-03	92	37	0	4194304	60	10650
2026-01-01 02:03:05.57	204.86	3.28	-45.3	-48.8	13.4	1.90e-05	0	37	0	6291456	60	9933
2026-01-01 02:03:06.58	204.93	3.34	-45.1	-48.3	13.8	5.30e-06	92	37	0	8388608	60	9447
2026-01-01 02:03:07.59	205.00	3.40	-45.3	-48.7	13.5	5.30e-06	0	37	0	9437184	60	9788
2026-01-01 02:03:08.60	205.07	3.46	-44.1	-46.6	8.0	1.06e-05	92	37	0	11534336	60	7705
2026-01-01 02:03:09.61	205.14	3.52	-47.3	-54.3	5.3	1.51e+00	0	37	104	11534336	60	18775
2026-01-01 02:03:10.62	205.21	3.58	-45.9	-50.1	10.7	3.69e-01	92	37	0	11534336	60	11567
2026-01-01 02:03:11.63	205.28	3.64	-47.9	-61.8	3.6	1.51e+00	0	37	104	11534336	60	44615
2026-01-01 02:03:12.64	205.35	3.70	-44.9	-48.0	15.0	1.50e+00	0	37	104	11534336	60	9100
2026-01-01 02:03:13.65	205.42	3.76	-43.6	-45.8	16.5	0.00e+00	92	37	0	12582912	60	7042
2026-01-01 02:03:14.66	205.49	3.82	-43.6	-45.9	16.2	0.00e+00	0	37	0	14680064	60	7135
2026-01-01 02:03:15.67	205.57	3.88	-43.5	-45.7	16.7	0.00e+00	92	37	0	16777216	60	6971
2026-01-01 02:03:16.68	205.64	3.94	-43.3	-45.5	17.1	0.00e+00	53	37	0	17825792	60	6783
2026-01-01 02:03:17.69	205.71	4.00	-43.4	-45.5	16.9	0.00e+00	92	37	0	19922944	60	6835
2026-01-01 02:03:18.70	205.78	4.06	-43.1	-45.2	17.3	0.00e+00	89	37	0	22020096	60	6579
2026-01-01 02:03:19.71	205.86	4.12	-42.8	-44.7	17.7	0.00e+00	0	37	0	24117248	60	6192
2026-01-01 02:03:20.71	205.93	4.18	-42.6	-44.5	17.8	0.00e+00	92	37	0	26214400	58	6779
2026-01-01 02:03:21.72	206.00	4.25	-42.6	-44.4	17.9	0.00e+00	0	37	0	27262976	58	6755
2026-01-01 02:03:22.73	206.07	4.31	-42.5	-44.3	18.1	0.00e+00	92	37	0	29360128	58	6651
2026-01-01 02:03:23.74	206.15	4.37	-42.6	-44.4	18.2	0.00e+00	61	37	0	31457280	58	6707
2026-01-01 02:03:24.75	206.22	4.43	-42.4	-44.1	18.2	0.00e+00	92	37	0	33554432	58	6522
2026-01-01 02:03:25.76	206.30	4.49	-42.3	-43.9	18.3	0.00e+00	92	37	0	35651584	58	6375
2026-01-01 02:03:26.77	206.37	4.55	-42.2	-43.8	18.5	0.00e+00	0	37	0	36700160	58	6298
2026-01-01 02:03:27.78	206.45	4.62	-42.2	-43.8	18.5	0.00e+00	92	37	0	38797312	58	6312
2026-01-01 02:03:28.79	206.52	4.68	-42.2	-43.9	18.6	0.00e+00	0	37	0	40894464	58	6322
2026-01-01 02:03:29.80	206.60	4.74	-42.1	-43.7	18.6	0.00e+00	92	37	0	42991616	58	6179
2026-01-01 02:03:30.81	206.67	4.80	-42.2	-43.8	18.8	0.00e+00	0	37	0	45088768	58	6310
2026-01-01 02:03:31.82	206.75	4.86	-41.9	-43.4	19.1	0.00e+00	88	37	0	46137344	58	6033
2026-01-01 02:03:32.83	206.83	4.93	-41.8	-43.4	19.2	0.00e+00	92	37	0	48234496	56	6703
2026-01-01 02:03:33.84	206.90	4.99	-41.6	-43.0	19.3	0.00e+00	35	37	0	50331648	56	6451
2026-01-01 02:03:34.84	206.98	5.05	-41.8	-43.3	19.2	0.00e+00	92	37	0	52428800	56	6643
2026-01-01 02:03:35.85	207.06	5.11	-41.6	-43.1	19.4	0.00e+00	0	37	0	54525952	56	6478
2026-01-01 02:03:36.86	207.14	5.18	-41.6	-43.0	19.5	0.00e+00	92	37	0	55574528	56	6457
2026-01-01 02:03:37.87	207.21	5.24	-41.6	-43.1	19.4	0.00e+00	0	37	0	57671680	56	6519
2026-01-01 02:03:38.87	207.29	5.30	-41.2	-42.6	19.8	0.00e+00	92	37	0	59768832	56	6140
2026-01-01 02:03:39.88	207.37	5.37	-41.3	-42.7	19.7	0.00e+00	92	37	0	61865984	56	6221
2026-01-01 02:03:40.89	207.45	5.43	-41.5	-42.9	19.7	0.00e+00	0	37	0	63963136	56	6344
2026-01-01 02:03:41.90	207.53	5.49	-41.2	-42.6	19.9	0.00e+00	90	37	0	65011712	56	6128
2026-01-01 02:03:42.91	207.61	5.56	-41.1	-42.5	19.9	0.00e+00	0	37	0	67108864	56	6067
2026-01-01 02:03:43.92	207.69	5.62	-41.1	-42.5	20.0	0.00e+00	92	37	0	69206016	56	6040
2026-01-01 02:03:44.93	207.77	5.68	-41.2	-42.6	19.9	0.00e+00	0	37	0	71303168	56	6151
2026-01-01 02:03:45.94	207.85	5.75	-41.0	-42.4	20.1	0.00e+00	92	37	0	73400320	56	5995
2026-01-01 02:03:46.95	207.93	5.81	-41.1	-42.4	20.0	0.00e+00	59	37	0	74448896	56	6021
2026-01-01 02:03:47.96	208.01	5.88	-41.0	-42.4	20.2	0.00e+00	79	37	0	76546048	56	5986
2026-01-01 02:03:48.96	208.09	5.94	-40.7	-41.9	20.4	0.00e+00	92	37	0	78643200	54	6385
2026-01-01 02:03:49.98	208.18	6.00	-40.7	-42.0	20.4	0.00e+00	0	37	0	80740352	54	6433
2026-01-01 02:03:50.99	208.26	6.07	-40.7	-42.0	20.4	0.00e+00	92	37	0	82837504	54	6452
2026-01-01 02:03:51.99	208.34	6.13	-40.7	-42.0	20.5	0.00e+00	0	37	0	83886080	54	6396
2026-01-01 02:03:53.00	208.42	6.20	-40.7	-42.0	20.4	0.00e+00	92	37	0	85983232	54	6393
2026-01-01 02:03:54.01	208.51	6.26	-40.6	-41.9	20.5	0.00e+00	61	37	0	88080384	54	6356
2026-01-01 02:03:55.03	208.59	6.33	-40.5	-41.8	20.7	0.00e+00	92	37	0	90177536	54	6290
2026-01-01 02:03:56.03	208.68	6.39	-40.4	-41.7	20.6	0.00e+00	92	37	0	92274688	54	6182
2026-01-01 02:03:57.04	208.76	6.46	-40.4	-41.7	20.8	0.00e+00	0	37	0	93323264	54	6193
2026-01-01 02:03:58.05	208.85	6.52	-40.3	-41.5	20.8	0.00e+00	92	37	0	95420416	54	6077
2026-01-01 02:03:59.06	208.93	6.59	-40.4	-41.6	20.8	0.00e+00	0	37	0	97517568	54	6151
2026-01-01 02:04:00.07	209.02	6.65	-40.2	-41.4	20.9	0.00e+00	92	37	0	99614720	54	6033
2026-01-01 02:04:01.08	209.10	6.72	-40.2	-41.5	20.9	0.00e+00	0	37	0	101711872	54	6034
2026-01-01 02:04:02.09	209.19	6.78	-40.2	-41.4	21.0	0.00e+00	92	37	0	103809024	54	5971
2026-01-01 02:04:03.10	209.28	6.85	-40.1	-41.3	21.1	0.00e+00	92	37	0	104857600	54	5901
2026-01-01 02:04:04.11	209.36	6.92	-40.1	-41.2	21.2	0.00e+00	0	37	0	106954752	54	5892
2026-01-01 02:04:05.12	209.45	6.98	-40.2	-41.4	21.0	0.00e+00	91	37	0	109051904	54	5999
2026-01-01 02:04:06.13	209.54	7.05	-40.1	-41.3	21.1	0.00e+00	0	37	0	111149056	54	5922
2026-01-01 02:04:07.14	209.63	7.11	-40.0	-41.2	21.1	0.00e+00	92	37	0	113246208	54	5861
2026-01-01 02:04:08.15	209.72	7.18	-39.9	-41.1	21.1	0.00e+00	0	37	0	114294784	54	5768
2026-01-01 02:04:09.16	209.80	7.25	-40.0	-41.2	21.2	0.00e+00	90	37	0	116391936	54	5862
2026-01-01 02:04:10.17	209.89	7.31	-39.9	-41.0	21.5	0.00e+00	88	37	0	118489088	54	5727
2026-01-01 02:04:11.18	209.98	7.38	-40.0	-41.1	21.2	0.00e+00	0	37	0	120586240	54	5799
2026-01-01 02:04:12.18	210.07	7.45	-40.0	-41.1	21.4	0.00e+00	62	37	0	122683392	54	5791
2026-01-01 02:04:13.19	210.16	7.51	-39.9	-41.1	21.3	0.00e+00	0	37	0	123731968	54	5775
2026-01-01 02:04:14.20	210.26	7.58	-39.9	-41.1	21.3	0.00e+00	79	37	0	125829120	54	5780
2026-01-01 02:04:15.21	210.35	7.65	-40.1	-41.3	21.2	0.00e+00	0	38	0	127926272	54	5904
2026-01-01 02:04:16.22	210.44	7.72	-40.1	-41.3	21.1	0.00e+00	92	37	0	130023424	54	5940
2026-01-01 02:04:17.23	210.53	7.78	-40.1	-41.2	21.2	0.00e+00	91	37	0	132120576	54	5892
2026-01-01 02:04:18.24	210.62	7.85	-40.2	-41.4	20.9	0.00e+00	0	38	0	133169152	54	6005
2026-01-01 02:04:19.25	210.72	7.92	-40.3	-41.5	21.0	0.00e+00	92	37	0	135266304	54	6082
2026-01-01 02:04:20.26	210.81	7.99	-40.1	-41.3	21.3	0.00e+00	33	37	0	137363456	54	5920
2026-01-01 02:04:21.27	210.90	8.05	-40.1	-41.2	21.2	0.00e+00	92	37	0	139460608	54	5879
2026-01-01 02:04:22.28	211.00	8.12	-40.1	-41.3	21.2	0.00e+00	0	37	0	141557760	54	5947
2026-01-01 02:04:23.29	211.09	8.19	-39.9	-41.1	21.4	0.00e+00	91	37	0	142606336	54	5775
2026-01-01 02:04:24.30	211.19	8.26	-39.9	-41.1	21.4	0.00e+00	64	37	0	144703488	54	5779
2026-01-01 02:04:25.31	211.28	8.33	-39.9	-41.1	21.4	0.00e+00	0	37	0	146800640	54	5783
2026-01-01 02:04:26.32	211.38	8.40	-39.8	-40.9	21.4	0.00e+00	92	38	0	148897792	54	5665
2026-01-01 02:04:27.33	211.48	8.46	-39.9	-41.0	21.5	0.00e+00	0	37	0	150994944	52	6439
2026-01-01 02:04:28.34	211.57	8.53	-39.8	-40.9	21.5	0.00e+00	92	37	0	152043520	52	6359
2026-01-01 02:04:29.35	211.67	8.60	-39.8	-40.9	21.5	0.00e+00	0	37	0	154140672	52	6376
2026-01-01 02:04:30.36	211.77	8.67	-39.7	-40.8	21.7	0.00e+00	92	38	0	156237824	52	6247
2026-01-01 02:04:31.37	211.87	8.74	-39.5	-40.6	21.9	0.00e+00	59	38	0	158334976	52	6120
2026-01-01 02:04:32.38	211.97	8.81	-39.4	-40.5	22.0	0.00e+00	92	38	0	160432128	52	6057
2026-01-01 02:04:33.39	212.07	8.88	-39.6	-40.7	21.7	0.00e+00	91	38	0	161480704	52	6202
2026-01-01 02:04:34.39	212.16	8.95	-39.7	-40.8	21.7	0.00e+00	0	38	0	163577856	52	6263
2026-01-01 02:04:35.40	212.26	9.02	-39.7	-40.8	21.7	0.00e+00	78	38	0	165675008	52	6286
2026-01-01 02:04:36.41	212.36	9.09	-39.5	-40.6	21.9	0.00e+00	0	37	0	167772160	52	6133
2026-01-01 02:04:37.42	212.47	9.16	-39.5	-40.6	21.9	0.00e+00	90	38	0	169869312	52	6112
2026-01-01 02:04:38.43	212.57	9.23	-39.6	-40.7	21.8	0.00e+00	33	38	0	171966464	52	6186
2026-01-01 02:04:39.44	212.67	9.30	-39.7	-40.8	21.6	0.00e+00	91	38	0	173015040	52	6317
2026-01-01 02:04:40.45	212.77	9.37	-39.8	-40.9	21.6	0.00e+00	92	37	0	175112192	52	6336
2026-01-01 02:04:41.46	212.87	9.44	-39.7	-40.8	21.7	0.00e+00	33	38	0	177209344	52	6258
2026-01-01 02:04:42.47	212.98	9.51	-39.8	-40.9	21.7	0.00e+00	92	38	0	179306496	52	6323
2026-01-01 02:04:43.48	213.08	9.58	-39.7	-40.8	21.7	0.00e+00	0	38	0	181403648	52	6280
2026-01-01 02:04:44.49	213.19	9.65	-39.8	-40.9	21.7	0.00e+00	91	38	0	182452224	52	6388
2026-01-01 02:04:45.50	213.29	9.72	-39.8	-41.0	21.6	0.00e+00	17	38	0	184549376	52	6397
2026-01-01 02:04:46.51	213.40	9.79	-39.9	-41.0	21.6	0.00e+00	91	38	0	186646528	52	6418
2026-01-01 02:04:47.52	213.50	9.86	-39.9	-41.0	21.5	0.00e+00	91	38	0	188743680	52	6428
2026-01-01 02:04:48.53	213.61	9.93	-39.9	-41.0	21.6	0.00e+00	0	38	0	190840832	52	6436
2026-01-01 02:04:49.54	213.71	10.00	-39.8	-40.9	21.7	0.00e+00	90	38	0	191889408	52	6357
2026-01-01 02:04:50.55	213.82	10.07	-39.8	-40.9	21.5	0.00e+00	0	38	0	193986560	52	6377
2026-01-01 02:04:51.55	213.93	10.15	-39.7	-40.8	21.8	0.00e+00	90	38	0	196083712	52	6280
2026-01-01 02:04:52.56	214.04	10.22	-39.7	-40.7	21.8	0.00e+00	17	38	0	198180864	52	6244
2026-01-01 02:04:53.57	214.15	10.29	-39.3	-40.4	22.2	0.00e+00	92	38	0	200278016	52	5972
2026-01-01 02:04:54.58	214.25	10.36	-39.3	-40.3	22.2	0.00e+00	92	38	0	201326592	52	5931
2026-01-01 02:04:55.59	214.36	10.43	-39.2	-40.3	22.2	0.00e+00	0	38	0	203423744	52	5900
2026-01-01 02:04:56.60	214.47	10.50	-39.2	-40.2	22.2	0.00e+00	92	38	0	205520896	52	5884
2026-01-01 02:04:57.61	214.59	10.58	-39.1	-40.1	22.3	0.00e+00	0	38	0	207618048	52	5811
2026-01-01 02:04:58.62	214.70	10.65	-39.2	-40.2	22.3	0.00e+00	92	38	0	209715200	52	5874
2026-01-01 02:04:59.63	214.81	10.72	-39.0	-40.0	22.5	0.00e+00	0	38	0	210763776	52	5749
2026-01-01 02:05:00.64	214.92	10.79	-39.0	-40.0	22.4	0.00e+00	92	38	0	212860928	52	5724
2026-01-01 02:05:01.65	215.03	10.87	-39.0	-40.0	22.4	0.00e+00	92	38	0	214958080	52	5738
2026-01-01 02:05:02.66	215.15	10.94	-39.0	-40.0	22.4	0.00e+00	21	38	0	217055232	52	5738
2026-01-01 02:05:03.67	215.26	11.01	-39.2	-40.2	22.2	0.00e+00	92	38	0	219152384	52	5867
2026-01-01 02:05:04.67	215.38	11.08	-39.5	-40.5	22.1	0.00e+00	0	38	0	220200960	52	6064
2026-01-01 02:05:05.68	215.49	11.16	-39.5	-40.6	22.0	0.00e+00	92	38	0	222298112	52	6114
2026-01-01 02:05:06.69	215.61	11.23	-39.4	-40.5	21.9	0.00e+00	0	38	0	224395264	52	6059
2026-01-01 02:05:07.70	215.72	11.30	-39.7	-40.7	21.9	0.00e+00	92	38	0	226492416	52	6241
2026-01-01 02:05:08.71	215.84	11.38	-39.7	-40.8	21.8	0.00e+00	92	38	0	228589568	52	6276
2026-01-01 02:05:09.72	215.96	11.45	-39.9	-41.0	21.7	0.00e+00	92	38	0	229638144	52	6423
2026-01-01 02:05:10.73	216.07	11.53	-39.7	-40.8	21.8	0.00e+00	92	38	0	231735296	52	6303
2026-01-01 02:05:11.74	216.19	11.60	-39.8	-40.9	21.8	0.00e+00	0	38	0	233832448	52	6342
2026-01-01 02:05:12.75	216.31	11.67	-39.8	-40.9	21.7	0.00e+00	86	38	0	235929600	52	6345
2026-01-01 02:05:13.76	216.43	11.75	-39.8	-40.8	21.8	0.00e+00	0	38	0	238026752	52	6313
2026-01-01 02:05:14.77	216.55	11.82	-39.8	-40.8	21.8	0.00e+00	92	38	0	240123904	52	6309
2026-01-01 02:05:15.77	216.67	11.89	-39.8	-40.9	21.7	0.00e+00	0	38	0	241172480	52	6364
2026-01-01 02:05:16.78	216.79	11.97	-39.7	-40.8	21.8	0.00e+00	92	38	0	243269632	52	6287
2026-01-01 02:05:17.79	216.92	12.04	-39.4	-40.4	22.1	0.00e+00	92	37	0	245366784	52	6030
2026-01-01 02:05:18.80	217.04	12.12	-39.6	-40.7	21.9	0.00e+00	0	38	0	247463936	52	6202
2026-01-01 02:05:19.81	217.16	12.19	-39.7	-40.8	21.9	0.00e+00	71	38	0	249561088	52	6271
2026-01-01 02:05:20.82	217.29	12.27	-39.7	-40.7	21.9	0.00e+00	0	38	0	250609664	52	6233
2026-01-01 02:05:21.83	217.41	12.34	-39.7	-40.7	21.9	0.00e+00	92	38	0	252706816	52	6225
2026-01-01 02:05:22.84	217.54	12.42	-39.7	-40.7	21.7	0.00e+00	0	38	0	254803968	52	6234
2026-01-01 02:05:23.85	217.66	12.49	-39.6	-40.7	22.0	0.00e+00	92	38	0	256901120	52	6186
2026-01-01 02:05:24.86	217.79	12.57	-39.6	-40.7	21.9	0.00e+00	92	38	0	258998272	52	6210
2026-01-01 02:05:25.87	217.91	12.64	-39.6	-40.7	21.9	0.00e+00	0	38	0	260046848	52	6176
2026-01-01 02:05:26.88	218.04	12.72	-39.7	-40.7	21.8	0.00e+00	92	38	0	262144000	52	6225
2026-01-01 02:05:27.89	218.17	12.80	-39.6	-40.7	22.0	0.00e+00	0	38	0	264241152	52	6189
2026-01-01 02:05:28.89	218.30	12.87	-39.4	-40.5	22.1	0.00e+00	92	38	0	266338304	52	6049
2026-01-01 02:05:29.90	218.43	12.95	-39.6	-40.7	22.0	0.00e+00	0	38	0	268435456	52	6207
2026-01-01 02:05:30.91	218.56	13.02	-39.5	-40.5	22.1	0.00e+00	92	38	0	269484032	52	6072
2026-01-01 02:05:31.92	218.69	13.10	-39.5	-40.5	22.1	0.00e+00	62	38	0	271581184	52	6068
2026-01-01 02:05:32.94	218.82	13.18	-39.5	-40.6	22.0	0.00e+00	0	38	0	273678336	52	6130
2026-01-01 02:05:33.94	218.95	13.25	-39.3	-40.3	22.2	0.00e+00	92	38	0	275775488	52	5928
2026-01-01 02:05:34.95	219.08	13.33	-39.4	-40.4	22.2	0.00e+00	0	38	0	277872640	52	6031
2026-01-01 02:05:35.96	219.22	13.40	-39.3	-40.3	22.4	0.00e+00	92	38	0	278921216	52	5941
2026-01-01 02:05:36.97	219.35	13.48	-39.3	-40.3	22.4	0.00e+00	0	38	0	281018368	52	5919
2026-01-01 02:05:37.98	219.49	13.56	-39.4	-40.4	22.2	0.00e+00	92	38	0	283115520	52	5986
2026-01-01 02:05:38.99	219.62	13.63	-38.9	-39.9	22.7	0.00e+00	63	38	0	285212672	52	5642
2026-01-01 02:05:40.00	219.76	13.71	-39.0	-40.0	22.6	0.00e+00	92	38	0	287309824	52	5734
2026-01-01 02:05:41.01	219.89	13.79	-39.1	-40.1	22.6	0.00e+00	92	38	0	288358400	52	5767
2026-01-01 02:05:42.02	220.03	13.86	-39.0	-40.0	22.6	0.00e+00	0	38	0	290455552	52	5722
2026-01-01 02:05:43.03	220.17	13.94	-39.1	-40.1	22.5	0.00e+00	92	38	0	292552704	52	5801
2026-01-01 02:05:44.04	220.31	14.02	-39.2	-40.2	22.4	0.00e+00	0	38	0	294649856	52	5865
2026-01-01 02:05:45.05	220.45	14.10	-39.2	-40.2	22.3	0.00e+00	92	38	0	296747008	52	5884
2026-01-01 02:05:46.06	220.59	14.17	-39.3	-40.3	22.2	0.00e+00	29	38	0	297795584	52	5956
2026-01-01 02:05:47.07	220.73	14.25	-39.7	-40.7	21.9	0.00e+00	91	38	0	299892736	52	6236
2026-01-01 02:05:48.08	220.87	14.33	-39.7	-40.7	22.0	0.00e+00	92	38	0	301989888	52	6228
2026-01-01 02:05:49.09	221.01	14.41	-39.6	-40.7	21.9	0.00e+00	0	38	0	304087040	52	6200
2026-01-01 02:05:50.10	221.16	14.48	-39.8	-40.9	21.8	0.00e+00	50	38	0	306184192	52	6375
2026-01-01 02:05:51.11	221.30	14.56	-39.9	-41.0	21.7	0.00e+00	0	38	0	308281344	52	6434
2026-01-01 02:05:52.11	221.44	14.64	-39.8	-40.8	21.8	0.00e+00	91	38	0	309329920	52	6312
2026-01-01 02:05:53.12	221.59	14.72	-39.7	-40.8	21.9	0.00e+00	0	38	0	311427072	52	6247
2026-01-01 02:05:54.13	221.73	14.80	-39.7	-40.8	22.0	0.00e+00	92	38	0	313524224	52	6257
2026-01-01 02:05:55.14	221.88	14.87	-39.5	-40.6	22.1	0.00e+00	91	38	0	315621376	52	6108
2026-01-01 02:05:56.15	222.03	14.95	-39.5	-40.6	22.1	0.00e+00	33	38	0	317718528	52	6128
2026-01-01 02:05:57.16	222.18	15.03	-39.5	-40.6	22.2	0.00e+00	91	38	0	318767104	52	6140
2026-01-01 02:05:58.17	222.33	15.11	-39.5	-40.5	22.2	0.00e+00	0	38	0	320864256	52	6081
2026-01-01 02:05:59.18	222.48	15.19	-39.4	-40.5	22.1	0.00e+00	92	38	0	322961408	52	6059
2026-01-01 02:06:00.19	222.63	15.27	-39.5	-40.5	22.2	0.00e+00	0	38	0	325058560	52	6078
2026-01-01 02:06:01.20	222.78	15.34	-39.5	-40.5	22.2	0.00e+00	92	38	0	326107136	52	6088
2026-01-01 02:06:02.21	222.93	15.42	-39.5	-40.6	22.2	0.00e+00	92	38	0	328204288	52	6147
2026-01-01 02:06:03.22	223.08	15.50	-39.4	-40.4	22.3	0.00e+00	0	38	0	330301440	52	6017
2026-01-01 02:06:04.23	223.24	15.58	-39.3	-40.3	22.4	0.00e+00	92	38	0	332398592	52	5917
2026-01-01 02:06:05.24	223.39	15.66	-38.9	-39.9	22.7	0.00e+00	0	38	0	334495744	52	5677
2026-01-01 02:06:06.25	223.55	15.74	-38.9	-39.8	22.7	0.00e+00	92	38	0	336592896	52	5629
2026-01-01 02:06:07.25	223.70	15.82	-38.7	-39.7	22.8	0.00e+00	0	38	0	337641472	50	6212
2026-01-01 02:06:08.26	223.86	15.90	-38.7	-39.7	22.9	0.00e+00	92	38	0	339738624	50	6206
2026-01-01 02:06:09.27	224.02	15.98	-38.8	-39.8	22.8	0.00e+00	92	38	0	341835776	50	6262
2026-01-01 02:06:10.28	224.17	16.05	-38.5	-39.5	22.9	0.00e+00	0	38	0	343932928	50	6060
2026-01-01 02:06:11.29	224.33	16.13	-38.5	-39.4	23.1	0.00e+00	92	38	0	346030080	50	5997
2026-01-01 02:06:12.30	224.49	16.21	-38.5	-39.5	22.3	0.00e+00	0	38	0	347078656	50	6073
2026-01-01 02:06:13.31	224.65	16.29	-38.2	-39.2	23.2	0.00e+00	73	38	0	349175808	50	5836
2026-01-01 02:06:14.32	224.82	16.37	-38.3	-39.2	23.1	0.00e+00	0	38	0	351272960	50	5894
2026-01-01 02:06:15.33	224.98	16.45	-38.4	-39.4	23.2	0.00e+00	92	38	0	353370112	50	5969
2026-01-01 02:06:16.34	225.14	16.53	-38.6	-39.5	23.0	0.00e+00	62	38	0	355467264	50	6087
2026-01-01 02:06:17.35	225.31	16.61	-38.3	-39.2	23.2	0.00e+00	0	38	0	356515840	50	5867
2026-01-01 02:06:18.36	225.47	16.69	-38.2	-39.1	23.3	0.00e+00	92	38	0	358612992	50	5828
2026-01-01 02:06:19.37	225.64	16.77	-38.5	-39.5	23.1	0.00e+00	0	38	0	360710144	50	6041
2026-01-01 02:06:20.38	225.80	16.85	-38.6	-39.6	22.9	0.00e+00	92	38	0	362807296	50	6133
2026-01-01 02:06:21.39	225.97	16.93	-38.6	-39.6	23.0	0.00e+00	0	38	0	364904448	50	6132
2026-01-01 02:06:22.40	226.14	17.01	-38.8	-39.8	22.8	0.00e+00	92	38	0	365953024	50	6265
2026-01-01 02:06:23.41	226.31	17.09	-38.8	-39.7	23.0	0.00e+00	63	38	0	368050176	50	6231
2026-01-01 02:06:24.42	226.48	17.17	-38.7	-39.7	22.9	0.00e+00	0	38	0	370147328	50	6191
2026-01-01 02:06:25.43	226.65	17.25	-38.9	-39.9	22.7	0.00e+00	92	38	0	372244480	50	6354
2026-01-01 02:06:26.44	226.82	17.33	-39.2	-40.2	22.5	0.00e+00	0	38	0	374341632	50	6602
2026-01-01 02:06:27.44	226.99	17.41	-38.3	-39.3	23.2	0.00e+00	92	38	0	375390208	50	5901
2026-01-01 02:06:28.45	227.17	17.49	-38.5	-39.5	23.0	0.00e+00	0	38	0	377487360	50	6055
2026-01-01 02:06:29.46	227.34	17.57	-38.5	-39.4	23.1	0.00e+00	92	38	0	379584512	50	5994
2026-01-01 02:06:30.47	227.52	17.65	-38.3	-39.3	23.2	0.00e+00	57	38	0	381681664	50	5903
2026-01-01 02:06:31.48	227.69	17.72	-38.2	-39.1	23.3	0.00e+00	89	38	0	383778816	50	5769
2026-01-01 02:06:32.49	227.87	17.80	-38.2	-39.1	23.3	0.00e+00	92	38	0	384827392	50	5792
2026-01-01 02:06:33.50	228.05	17.88	-37.9	-38.8	23.5	0.00e+00	0	38	0	386924544	50	5585
2026-01-01 02:06:34.51	228.23	17.96	-38.0	-38.9	23.5	0.00e+00	57	38	0	389021696	50	5660
2026-01-01 02:06:35.52	228.41	18.04	-38.0	-38.9	23.5	0.00e+00	0	38	0	391118848	50	5685
2026-01-01 02:06:36.53	228.59	18.12	-37.8	-38.6	23.7	0.00e+00	90	38	0	393216000	48	6167
2026-01-01 02:06:37.54	228.77	18.20	-37.9	-38.7	23.6	0.00e+00	0	38	0	394264576	48	6243
2026-01-01 02:06:38.55	228.95	18.28	-37.8	-38.6	23.7	0.00e+00	92	38	0	396361728	48	6167
2026-01-01 02:06:39.55	229.14	18.36	-37.6	-38.5	23.9	0.00e+00	92	38	0	398458880	48	6067
2026-01-01 02:06:40.56	229.32	18.44	-37.7	-38.5	23.7	0.00e+00	0	38	0	400556032	48	6094
2026-01-01 02:06:41.57	229.51	18.52	-37.7	-38.6	23.8	0.00e+00	92	38	0	402653184	48	6125
2026-01-01 02:06:42.59	229.70	18.60	-37.8	-38.7	23.7	0.00e+00	0	38	0	404750336	48	6202
2026-01-01 02:06:43.60	229.88	18.68	-37.8	-38.7	23.7	0.00e+00	87	38	0	405798912	48	6220
2026-01-01 02:06:44.60	230.07	18.76	-38.0	-38.9	23.4	0.00e+00	0	38	0	407896064	48	6380
2026-01-01 02:06:45.61	230.26	18.84	-38.1	-39.0	23.5	0.00e+00	92	38	0	409993216	48	6409
2026-01-01 02:06:46.62	230.45	18.92	-38.2	-39.1	23.4	0.00e+00	92	38	0	412090368	48	6478
2026-01-01 02:06:47.63	230.64	19.00	-38.1	-39.0	23.4	0.00e+00	0	38	0	414187520	48	6394
2026-01-01 02:06:48.64	230.83	19.08	-38.2	-39.1	23.4	0.00e+00	92	38	0	415236096	48	6488
2026-01-01 02:06:49.65	231.03	19.16	-38.2	-39.1	23.3	0.00e+00	0	38	0	417333248	48	6482
2026-01-01 02:06:50.66	231.22	19.24	-38.1	-38.9	23.5	0.00e+00	92	38	0	419430400	48	6384
2026-01-01 02:06:51.67	231.42	19.32	-38.1	-39.0	23.4	0.00e+00	0	38	0	421527552	48	6448
2026-01-01 02:06:52.68	231.61	19.39	-38.2	-39.1	23.3	0.00e+00	92	38	0	423624704	48	6519
2026-01-01 02:06:53.69	231.81	19.47	-38.3	-39.2	23.3	0.00e+00	0	38	0	424673280	48	6593
2026-01-01 02:06:54.69	232.01	19.55	-38.5	-39.4	23.2	0.00e+00	47	38	0	426770432	48	6723
2026-01-01 02:06:55.70	232.21	19.63	-38.6	-39.5	23.1	0.00e+00	92	38	0	428867584	50	6063
2026-01-01 02:06:56.71	232.41	19.71	-38.4	-39.3	23.3	0.00e+00	0	38	0	430964736	50	5922
2026-01-01 02:06:57.73	232.61	19.79	-38.3	-39.2	23.3	0.00e+00	73	38	0	433061888	50	5872
2026-01-01 02:06:58.73	232.81	19.87	-38.2	-39.0	23.5	0.00e+00	0	38	0	434110464	50	5754
2026-01-01 02:06:59.74	233.01	19.94	-38.3	-39.2	23.3	0.00e+00	91	38	0	436207616	50	5873
2026-01-01 02:07:00.75	233.22	20.02	-38.2	-39.0	23.4	0.00e+00	0	38	0	438304768	50	5761
2026-01-01 02:07:01.77	233.42	20.10	-38.2	-39.0	23.5	0.00e+00	91	38	0	440401920	50	5755
2026-01-01 02:07:02.78	233.63	20.18	-38.4	-39.3	23.3	0.00e+00	91	38	0	442499072	50	5953
2026-01-01 02:07:03.79	233.84	20.26	-38.5	-39.5	23.0	0.00e+00	0	38	0	443547648	50	6051
2026-01-01 02:07:04.80	234.05	20.34	-38.2	-39.1	23.4	0.00e+00	61	38	0	445644800	50	5819
2026-01-01 02:07:05.80	234.25	20.41	-37.9	-38.8	23.6	0.00e+00	0	38	0	447741952	50	5578
2026-01-01 02:07:06.81	234.46	20.49	-37.8	-38.7	23.7	0.00e+00	92	38	0	449839104	50	5542
2026-01-01 02:07:07.82	234.68	20.57	-37.7	-38.6	23.8	0.00e+00	33	38	0	451936256	48	6115
2026-01-01 02:07:08.83	234.89	20.64	-37.5	-38.3	24.0	0.00e+00	91	38	0	452984832	48	5924
2026-01-01 02:07:09.84	235.10	20.72	-37.3	-38.2	24.0	0.00e+00	92	38	0	455081984	48	5831
2026-01-01 02:07:10.85	235.32	20.80	-37.4	-38.3	24.0	0.00e+00	0	38	0	457179136	48	5911
2026-01-01 02:07:11.86	235.53	20.88	-37.6	-38.5	23.8	0.00e+00	67	38	0	459276288	48	6068
2026-01-01 02:07:12.87	235.75	20.95	-37.5	-38.3	24.1	0.00e+00	0	38	0	461373440	48	5961
2026-01-01 02:07:13.87	235.96	21.03	-37.5	-38.3	24.0	0.00e+00	78	38	0	462422016	48	5940
2026-01-01 02:07:14.88	236.18	21.10	-37.5	-38.3	24.0	0.00e+00	0	38	0	464519168	48	5947
2026-01-01 02:07:15.89	236.40	21.18	-37.3	-38.1	24.1	0.00e+00	92	38	0	466616320	48	5792
2026-01-01 02:07:16.90	236.62	21.26	-37.1	-37.9	24.2	0.00e+00	70	38	0	468713472	48	5687
2026-01-01 02:07:17.91	236.85	21.33	-37.2	-38.0	24.4	0.00e+00	0	38	0	470810624	48	5732
2026-01-01 02:07:18.92	237.07	21.41	-37.2	-38.0	23.9	0.00e+00	92	38	0	472907776	48	5742
2026-01-01 02:07:19.93	237.29	21.48	-37.4	-38.2	24.1	0.00e+00	0	38	0	473956352	48	5854
2026-01-01 02:07:20.94	237.52	21.56	-37.4	-38.2	23.9	0.00e+00	92	38	0	476053504	48	5895
2026-01-01 02:07:21.95	237.74	21.63	-37.3	-38.2	24.1	0.00e+00	0	38	0	478150656	48	5840
2026-01-01 02:07:22.96	237.97	21.71	-37.4	-38.2	24.1	0.00e+00	92	38	0	480247808	48	5884
2026-01-01 02:07:23.97	238.20	21.78	-37.4	-38.2	24.0	0.00e+00	64	38	0	482344960	48	5896
2026-01-01 02:07:24.97	238.43	21.85	-37.4	-38.3	24.1	0.00e+00	0	38	0	483393536	48	5916
2026-01-01 02:07:25.98	238.66	21.93	-37.4	-38.2	24.0	0.00e+00	92	38	0	485490688	48	5890
2026-01-01 02:07:26.99	238.89	22.00	-37.3	-38.1	24.1	0.00e+00	0	38	0	487587840	48	5824
2026-01-01 02:07:28.01	239.12	22.08	-37.2	-38.0	24.2	0.00e+00	92	38	0	489684992	48	5726
2026-01-01 02:07:29.01	239.35	22.15	-37.3	-38.1	24.2	0.00e+00	0	38	0	491782144	48	5816
2026-01-01 02:07:30.02	239.59	22.22	-37.2	-38.0	24.2	0.00e+00	92	38	0	492830720	48	5706
2026-01-01 02:07:31.03	239.83	22.29	-36.9	-37.7	24.4	0.00e+00	1	38	0	494927872	48	5543
2026-01-01 02:07:32.04	240.06	22.37	-37.0	-37.8	24.3	0.00e+00	87	38	0	497025024	48	5592
2026-01-01 02:07:33.05	240.30	22.44	-36.9	-37.7	24.4	0.00e+00	92	38	0	499122176	48	5528
2026-01-01 02:07:34.06	240.54	22.51	-37.0	-37.8	24.4	0.00e+00	0	38	0	501219328	48	5613
2026-01-01 02:07:35.07	240.78	22.58	-37.1	-37.9	24.2	0.00e+00	80	38	0	502267904	48	5687
2026-01-01 02:07:36.08	241.02	22.65	-37.3	-38.1	24.2	0.00e+00	0	38	0	504365056	48	5782
2026-01-01 02:07:37.09	241.26	22.72	-37.6	-38.4	24.0	0.00e+00	92	38	0	506462208	48	6004
2026-01-01 02:07:38.10	241.51	22.79	-37.5	-38.4	23.9	0.00e+00	25	38	0	508559360	48	5989
2026-01-01 02:07:39.11	241.75	22.86	-37.4	-38.3	24.1	0.00e+00	92	38	0	510656512	48	5906
2026-01-01 02:07:40.12	242.00	22.93	-37.6	-38.5	23.9	0.00e+00	90	38	0	511705088	48	6049
2026-01-01 02:07:41.13	242.24	23.00	-37.4	-38.2	24.1	0.00e+00	0	38	0	513802240	48	5848
2026-01-01 02:07:42.13	242.49	23.07	-37.4	-38.3	24.0	0.00e+00	32	38	0	515899392	48	5902
2026-01-01 02:07:43.14	242.74	23.14	-37.7	-38.6	23.8	0.00e+00	0	38	0	517996544	48	6120
2026-01-01 02:07:44.15	242.99	23.21	-37.7	-38.6	23.8	0.00e+00	90	38	0	520093696	48	6136
2026-01-01 02:07:45.16	243.24	23.28	-37.8	-38.6	23.7	0.00e+00	17	38	0	521142272	48	6150
2026-01-01 02:07:46.17	243.49	23.34	-37.6	-38.5	23.9	0.00e+00	92	38	0	523239424	48	6051
2026-01-01 02:07:47.18	243.74	23.41	-37.4	-38.2	24.1	0.00e+00	91	38	0	525336576	48	5886
2026-01-01 02:07:48.19	243.99	23.48	-37.3	-38.1	24.1	0.00e+00	0	38	0	527433728	48	5806
2026-01-01 02:07:49.20	244.25	23.54	-37.4	-38.2	24.1	0.00e+00	78	38	0	529530880	48	5849
2026-01-01 02:07:50.21	244.51	23.61	-37.9	-38.8	23.7	0.00e+00	0	38	0	530579456	48	6295
2026-01-01 02:07:51.22	244.76	23.67	-37.9	-38.8	23.7	0.00e+00	92	38	0	532676608	48	6284
2026-01-01 02:07:52.23	245.02	23.74	-38.3	-39.2	23.4	0.00e+00	0	38	0	534773760	48	6571
2026-01-01 02:07:53.24	245.28	23.80	-38.1	-39.0	23.4	0.00e+00	92	38	0	536870912	48	6402
2026-01-01 02:07:54.25	245.54	23.87	-37.7	-38.6	23.8	0.00e+00	92	38	0	538968064	48	6134
2026-01-01 02:07:55.26	245.80	23.93	-37.3	-38.1	24.0	0.00e+00	0	38	0	541065216	48	5811
2026-01-01 02:07:56.27	246.06	24.00	-37.3	-38.1	24.2	0.00e+00	90	38	0	542113792	48	5773
2026-01-01 02:07:57.28	246.33	24.06	-37.4	-38.2	24.1	0.00e+00	0	38	0	544210944	48	5865
2026-01-01 02:07:58.29	246.59	24.12	-37.7	-38.5	23.9	0.00e+00	92	38	0	546308096	48	6075
2026-01-01 02:07:59.30	246.86	24.18	-38.3	-39.2	23.3	0.00e+00	0	38	0	548405248	48	6591
2026-01-01 02:08:00.31	247.12	24.24	-39.0	-39.9	22.8	0.00e+00	90	38	0	550502400	50	6367
2026-01-01 02:08:01.31	247.39	24.30	-39.2	-40.1	22.6	0.00e+00	90	38	0	551550976	50	6534
2026-01-01 02:08:02.32	247.66	24.36	-39.3	-40.3	22.6	0.00e+00	0	38	0	553648128	50	6681
2026-01-01 02:08:03.33	247.93	24.42	-39.2	-40.2	22.5	0.00e+00	92	38	0	555745280	50	6596
2026-01-01 02:08:04.34	248.20	24.48	-39.6	-40.6	22.1	0.00e+00	0	38	0	557842432	50	6892
2026-01-01 02:08:05.35	248.47	24.54	-39.9	-41.0	21.9	0.00e+00	65	38	0	558891008	52	6421
2026-01-01 02:08:06.36	248.74	24.60	-39.9	-40.9	21.8	0.00e+00	0	38	0	560988160	52	6387
2026-01-01 02:08:07.37	249.01	24.66	-40.0	-41.1	22.0	0.00e+00	92	38	0	563085312	52	6496
2026-01-01 02:08:08.38	249.29	24.72	-39.4	-40.4	22.4	0.00e+00	64	38	0	565182464	52	6014
2026-01-01 02:08:09.39	249.56	24.77	-39.1	-40.1	22.7	0.00e+00	92	38	0	567279616	52	5798
2026-01-01 02:08:10.40	249.84	24.83	-39.0	-40.0	22.7	0.00e+00	92	38	0	569376768	52	5739
2026-01-01 02:08:11.41	250.12	24.88	-39.1	-40.1	22.8	0.00e+00	0	38	0	570425344	52	5786
2026-01-01 02:08:12.42	250.39	24.94	-39.4	-40.3	22.2	0.00e+00	84	38	0	572522496	52	5963
2026-01-01 02:08:13.42	250.67	24.99	-40.0	-41.1	21.9	0.00e+00	0	38	0	574619648	52	6492
2026-01-01 02:08:14.43	250.95	25.05	-40.4	-41.5	21.6	0.00e+00	84	38	0	576716800	52	6809
2026-01-01 02:08:15.44	251.23	25.10	-40.7	-41.9	21.2	0.00e+00	0	38	0	578813952	52	7108
2026-01-01 02:08:16.45	251.51	25.15	-40.7	-41.9	20.8	0.00e+00	92	38	0	579862528	54	6325
2026-01-01 02:08:17.46	251.80	25.20	-41.1	-42.4	20.7	0.00e+00	90	38	0	581959680	54	6712
2026-01-01 02:08:18.47	252.08	25.26	-41.3	-42.5	20.7	0.00e+00	0	38	0	584056832	54	6820
2026-01-01 02:08:19.48	252.36	25.31	-41.0	-42.2	20.9	0.00e+00	92	38	0	586153984	54	6543
2026-01-01 02:08:20.49	252.65	25.36	-40.8	-42.0	21.0	0.00e+00	0	38	0	588251136	54	6447
2026-01-01 02:08:21.50	252.94	25.41	-40.3	-41.4	21.6	0.00e+00	72	38	0	589299712	54	5999
2026-01-01 02:08:22.51	253.22	25.45	-40.4	-41.5	21.5	0.00e+00	0	38	0	591396864	54	6078
2026-01-01 02:08:23.52	253.51	25.50	-40.7	-41.8	21.3	0.00e+00	72	38	0	593494016	54	6281
2026-01-01 02:08:24.52	253.80	25.55	-40.9	-42.2	20.9	0.00e+00	55	38	0	595591168	54	6548
2026-01-01 02:08:25.53	254.09	25.60	-41.7	-43.1	20.2	0.00e+00	0	38	0	597688320	54	7255
2026-01-01 02:08:26.54	254.38	25.64	-42.2	-43.6	19.7	0.00e+00	68	38	0	598736896	56	6888
2026-01-01 02:08:27.55	254.67	25.69	-42.1	-43.5	19.8	0.00e+00	0	38	0	600834048	56	6803
2026-01-01 02:08:28.56	254.96	25.73	-41.3	-42.5	20.6	0.00e+00	92	38	0	602931200	56	6078
2026-01-01 02:08:29.56	255.25	25.78	-41.1	-42.3	20.9	0.00e+00	0	38	0	605028352	56	5962
2026-01-01 02:08:30.57	255.55	25.82	-40.7	-41.8	21.3	0.00e+00	92	38	0	607125504	54	6286
2026-01-01 02:08:31.58	255.84	25.86	-40.8	-42.0	20.9	0.00e+00	59	38	0	608174080	54	6456
2026-01-01 02:08:32.59	256.14	25.90	-41.0	-42.3	20.9	0.00e+00	0	38	0	610271232	54	6646
2026-01-01 02:08:33.60	256.43	25.94	-40.8	-42.0	21.0	0.00e+00	91	38	0	612368384	54	6426
2026-01-01 02:08:34.61	256.73	25.98	-40.8	-42.0	21.3	0.00e+00	0	38	0	614465536	54	6425
2026-01-01 02:08:35.62	257.03	26.02	-40.3	-41.4	21.7	0.00e+00	92	38	0	616562688	54	5981
2026-01-01 02:08:36.63	257.32	26.06	-40.3	-41.4	21.4	0.00e+00	0	38	0	617611264	54	5988
2026-01-01 02:08:37.64	257.62	26.10	-40.5	-41.6	21.4	0.00e+00	92	38	0	619708416	54	6155
2026-01-01 02:08:38.65	257.92	26.14	-41.0	-42.3	20.7	0.00e+00	13	38	0	621805568	54	6627
2026-01-01 02:08:39.66	258.22	26.17	-41.4	-42.7	20.5	0.00e+00	33	38	0	623902720	54	6965
2026-01-01 02:08:40.67	258.52	26.21	-41.6	-42.9	20.4	0.00e+00	92	38	0	625999872	54	7113
2026-01-01 02:08:41.68	258.83	26.25	-40.9	-42.1	21.0	0.00e+00	0	38	0	627048448	54	6523
2026-01-01 02:08:42.69	259.13	26.28	-40.8	-42.0	21.1	0.00e+00	59	38	0	629145600	54	6431
2026-01-01 02:08:43.70	259.43	26.31	-41.0	-42.1	20.8	0.00e+00	0	38	0	631242752	54	6537
2026-01-01 02:08:44.71	259.73	26.35	-42.0	-43.4	19.9	0.00e+00	91	38	0	633339904	56	6712
2026-01-01 02:08:45.72	260.04	26.38	-42.4	-43.9	19.5	0.00e+00	0	38	0	635437056	56	7111
2026-01-01 02:08:46.73	260.34	26.41	-42.5	-44.0	19.4	0.00e+00	73	38	0	637534208	56	7217
2026-01-01 02:08:47.73	260.64	26.44	-42.0	-43.4	20.0	0.00e+00	92	38	0	638582784	56	6700
2026-01-01 02:08:48.74	260.95	26.47	-41.6	-42.9	20.5	0.00e+00	0	38	0	640679936	56	6338
2026-01-01 02:08:49.75	261.26	26.50	-41.1	-42.3	20.9	0.00e+00	76	38	0	642777088	56	5928
2026-01-01 02:08:50.76	261.56	26.52	-40.4	-41.5	21.5	0.00e+00	0	38	0	644874240	54	6103
2026-01-01 02:08:51.77	261.87	26.55	-40.3	-41.4	21.5	0.00e+00	91	38	0	646971392	54	5975
2026-01-01 02:08:52.77	262.18	26.58	-40.3	-41.5	21.6	0.00e+00	9	38	0	648019968	54	6034
2026-01-01 02:08:53.78	262.48	26.60	-40.3	-41.3	21.5	0.00e+00	92	38	0	650117120	54	5964
2026-01-01 02:08:54.79	262.79	26.63	-40.6	-41.7	21.4	0.00e+00	92	38	0	652214272	54	6226
2026-01-01 02:08:55.80	263.10	26.65	-40.7	-41.9	21.1	0.00e+00	0	38	0	654311424	54	6351
2026-01-01 02:08:56.81	263.41	26.67	-41.0	-42.2	20.9	0.00e+00	92	38	0	656408576	54	6556
2026-01-01 02:08:57.82	263.72	26.69	-41.4	-42.6	20.5	0.00e+00	0	38	0	657457152	54	6924
2026-01-01 02:08:58.83	264.03	26.71	-41.4	-42.6	20.5	0.00e+00	92	38	0	659554304	54	6908
2026-01-01 02:08:59.84	264.34	26.73	-41.4	-42.7	20.5	0.00e+00	0	38	0	661651456	54	6970
2026-01-01 02:09:00.85	264.65	26.75	-41.5	-42.8	20.4	0.00e+00	92	38	0	663748608	54	7084
2026-01-01 02:09:01.86	264.97	26.77	-41.5	-42.8	20.3	0.00e+00	92	38	0	665845760	56	6264
2026-01-01 02:09:02.87	265.28	26.79	-41.2	-42.4	21.0	0.00e+00	0	38	0	666894336	56	5977
2026-01-01 02:09:03.88	265.59	26.81	-40.7	-41.9	21.2	0.00e+00	89	38	0	668991488	54	6350
2026-01-01 02:09:04.89	265.90	26.82	-40.5	-41.6	21.2	0.00e+00	0	38	0	671088640	54	6155
2026-01-01 02:09:05.90	266.22	26.84	-41.0	-42.3	21.0	0.00e+00	89	38	0	673185792	54	6635
2026-01-01 02:09:06.91	266.53	26.85	-41.2	-42.5	20.7	0.00e+00	0	38	0	675282944	54	6786
2026-01-01 02:09:07.92	266.84	26.86	-41.3	-42.6	20.5	0.00e+00	92	38	0	676331520	54	6907
2026-01-01 02:09:08.93	267.16	26.88	-41.3	-42.6	20.6	0.00e+00	80	38	0	678428672	54	6863
2026-01-01 02:09:09.94	267.47	26.89	-40.8	-42.0	21.1	0.00e+00	90	38	0	680525824	54	6451
2026-01-01 02:09:10.94	267.78	26.90	-40.4	-41.5	21.7	0.00e+00	92	38	0	682622976	54	6044
2026-01-01 02:09:11.95	268.10	26.91	-40.0	-41.1	22.1	0.00e+00	0	38	0	684720128	54	5763
2026-01-01 02:09:12.96	268.41	26.91	-39.7	-40.8	22.0	0.00e+00	91	38	0	685768704	54	5573
2026-01-01 02:09:13.97	268.72	26.92	-40.1	-41.1	21.9	0.00e+00	0	38	0	687865856	52	6536
2026-01-01 02:09:14.98	269.04	26.93	-40.3	-41.4	21.7	0.00e+00	91	38	0	689963008	52	6708
2026-01-01 02:09:15.99	269.35	26.93	-40.2	-41.3	21.7	0.00e+00	0	38	0	692060160	52	6642
2026-01-01 02:09:17.00	269.67	26.94	-40.2	-41.3	21.8	0.00e+00	92	38	0	694157312	52	6626
2026-01-01 02:09:18.01	269.98	26.94	-39.9	-41.0	22.0	0.00e+00	92	38	0	695205888	52	6422
2026-01-01 02:09:19.02	270.30	26.95	-40.1	-41.2	21.8	0.00e+00	0	38	0	697303040	52	6583
2026-01-01 02:09:20.03	270.61	26.95	-40.3	-41.4	21.6	0.00e+00	83	38	0	699400192	52	6737
2026-01-01 02:09:21.04	270.93	26.95	-40.6	-41.8	21.3	0.00e+00	0	38	0	701497344	52	7026
2026-01-01 02:09:22.04	271.24	26.95	-40.6	-41.8	21.3	0.00e+00	85	38	0	703594496	54	6253
2026-01-01 02:09:23.05	271.56	26.95	-40.8	-41.9	21.1	0.00e+00	0	38	0	704643072	54	6372
2026-01-01 02:09:24.06	271.87	26.95	-40.3	-41.4	21.7	0.00e+00	92	38	0	706740224	54	5976
2026-01-01 02:09:25.07	272.19	26.95	-40.0	-41.1	21.7	0.00e+00	92	38	0	708837376	54	5796
2026-01-01 02:09:26.08	272.50	26.94	-40.3	-41.4	21.6	0.00e+00	0	38	0	710934528	54	6003
2026-01-01 02:09:27.09	272.82	26.94	-40.9	-42.1	21.0	0.00e+00	67	38	0	713031680	54	6492
2026-01-01 02:09:28.09	273.13	26.93	-41.2	-42.4	20.8	0.00e+00	0	38	0	714080256	54	6736
2026-01-01 02:09:29.10	273.44	26.93	-40.8	-42.0	21.1	0.00e+00	50	38	0	716177408	54	6435
2026-01-01 02:09:30.11	273.76	26.92	-40.6	-41.7	21.3	0.00e+00	0	38	0	718274560	54	6226
2026-01-01 02:09:31.12	274.07	26.91	-40.2	-41.3	21.6	0.00e+00	92	38	0	720371712	54	5947
2026-01-01 02:09:32.12	274.38	26.90	-40.1	-41.2	21.7	0.00e+00	92	38	0	722468864	54	5888
2026-01-01 02:09:33.13	274.70	26.89	-40.1	-41.2	21.9	0.00e+00	0	38	0	723517440	54	5840
2026-01-01 02:09:34.14	275.01	26.88	-39.9	-41.0	22.0	0.00e+00	92	38	0	725614592	54	5718
2026-01-01 02:09:35.15	275.32	26.87	-39.8	-40.8	22.1	0.00e+00	0	38	0	727711744	54	5630
2026-01-01 02:09:36.16	275.64	26.86	-39.7	-40.7	22.1	0.00e+00	92	38	0	729808896	52	6237
2026-01-01 02:09:37.17	275.95	26.85	-39.6	-40.6	22.3	0.00e+00	0	38	0	731906048	52	6170
2026-01-01 02:09:38.17	276.26	26.83	-39.6	-40.7	22.3	0.00e+00	92	38	0	734003200	52	6192
2026-01-01 02:09:39.18	276.57	26.82	-39.9	-41.0	21.8	0.00e+00	35	38	0	735051776	52	6413
2026-01-01 02:09:40.19	276.88	26.80	-40.4	-41.6	21.4	0.00e+00	33	38	0	737148928	52	6867
2026-01-01 02:09:41.21	277.20	26.78	-40.9	-42.1	20.9	0.00e+00	61	38	0	739246080	54	6514
2026-01-01 02:09:42.21	277.51	26.77	-41.1	-42.4	20.8	0.00e+00	0	38	0	741343232	54	6709
2026-01-01 02:09:43.22	277.82	26.75	-41.2	-42.5	20.7	0.00e+00	92	38	0	743440384	54	6773
2026-01-01 02:09:44.23	278.13	26.73	-40.6	-41.7	21.4	0.00e+00	0	38	0	744488960	54	6214
2026-01-01 02:09:45.24	278.44	26.71	-40.1	-41.1	21.9	0.00e+00	92	38	0	746586112	54	5808
2026-01-01 02:09:46.25	278.75	26.69	-39.9	-40.9	22.1	0.00e+00	41	38	0	748683264	52	6327
2026-01-01 02:09:47.26	279.06	26.66	-39.3	-40.2	22.7	0.00e+00	33	38	0	750780416	52	5870
2026-01-01 02:09:48.27	279.37	26.64	-39.2	-40.2	22.7	0.00e+00	92	38	0	752877568	52	5872
2026-01-01 02:09:49.28	279.68	26.62	-39.2	-40.2	22.6	0.00e+00	0	38	0	753926144	52	5863
2026-01-01 02:09:50.29	279.99	26.59	-39.4	-40.3	22.4	0.00e+00	72	38	0	756023296	52	5960
2026-01-01 02:09:51.30	280.29	26.57	-39.5	-40.4	22.4	0.00e+00	0	38	0	758120448	52	6030
2026-01-01 02:09:52.31	280.60	26.54	-39.4	-40.4	22.5	0.00e+00	92	38	0	760217600	52	6000
2026-01-01 02:09:53.32	280.91	26.52	-39.3	-40.3	22.5	0.00e+00	25	38	0	762314752	52	5898
2026-01-01 02:09:54.32	281.21	26.49	-39.0	-39.9	22.8	0.00e+00	37	38	0	763363328	52	5664
2026-01-01 02:09:55.34	281.52	26.46	-39.3	-40.2	22.6	0.00e+00	92	38	0	765460480	52	5891
2026-01-01 02:09:56.35	281.82	26.43	-39.2	-40.2	22.5	0.00e+00	0	38	0	767557632	52	5855
2026-01-01 02:09:57.35	282.13	26.40	-39.4	-40.4	22.5	0.00e+00	64	38	0	769654784	52	6010
2026-01-01 02:09:58.36	282.43	26.37	-39.1	-40.1	22.7	0.00e+00	0	38	0	771751936	52	5791
2026-01-01 02:09:59.37	282.73	26.34	-38.9	-39.8	22.9	0.00e+00	90	38	0	772800512	52	5625
2026-01-01 02:10:00.38	283.04	26.30	-38.7	-39.6	23.0	0.00e+00	9	38	0	774897664	50	6168
2026-01-01 02:10:01.39	283.34	26.27	-38.4	-39.2	23.4	0.00e+00	91	38	0	776994816	50	5888
2026-01-01 02:10:02.40	283.64	26.23	-38.3	-39.2	23.4	0.00e+00	90	38	0	779091968	50	5847
2026-01-01 02:10:03.41	283.94	26.20	-38.6	-39.5	23.1	0.00e+00	0	38	0	781189120	50	6090
2026-01-01 02:10:04.42	284.24	26.16	-38.8	-39.8	22.9	0.00e+00	66	38	0	782237696	50	6249
2026-01-01 02:10:05.43	284.54	26.13	-39.2	-40.2	22.5	0.00e+00	0	38	0	784334848	50	6600
2026-01-01 02:10:06.44	284.84	26.09	-39.8	-40.8	22.1	0.00e+00	92	38	0	786432000	50	7080
2026-01-01 02:10:07.45	285.14	26.05	-39.9	-40.9	22.1	0.00e+00	0	38	0	788529152	52	6385
2026-01-01 02:10:08.45	285.43	26.01	-39.8	-40.8	22.0	0.00e+00	92	38	0	790626304	52	6283
2026-01-01 02:10:09.46	285.73	25.97	-39.5	-40.5	22.2	0.00e+00	92	38	0	791674880	52	6046
2026-01-01 02:10:10.47	286.03	25.93	-39.6	-40.6	22.3	0.00e+00	0	38	0	793772032	52	6166
2026-01-01 02:10:11.48	286.32	25.89	-39.3	-40.3	22.6	0.00e+00	78	38	0	795869184	52	5916
2026-01-01 02:10:12.48	286.61	25.85	-39.3	-40.3	22.6	0.00e+00	0	38	0	797966336	52	5901
2026-01-01 02:10:13.49	286.91	25.81	-38.5	-39.5	23.2	0.00e+00	72	38	0	800063488	50	6040
2026-01-01 02:10:14.50	287.20	25.76	-38.2	-39.1	23.6	0.00e+00	0	38	0	801112064	50	5805
2026-01-01 02:10:15.51	287.49	25.72	-37.6	-38.4	23.8	0.00e+00	92	38	0	803209216	48	6019
2026-01-01 02:10:16.52	287.78	25.68	-37.0	-37.8	24.4	0.00e+00	59	38	0	805306368	48	5567
2026-01-01 02:10:17.53	288.07	25.63	-36.7	-37.5	24.6	0.00e+00	0	38	0	807403520	48	5384
2026-01-01 02:10:18.54	288.36	25.58	-36.6	-37.4	24.6	0.00e+00	58	38	0	809500672	46	6019
2026-01-01 02:10:19.55	288.65	25.54	-37.0	-37.9	24.2	0.00e+00	0	38	0	810549248	46	6325
2026-01-01 02:10:20.56	288.94	25.49	-37.3	-38.1	24.2	0.00e+00	89	38	0	812646400	46	6523
2026-01-01 02:10:21.56	289.22	25.44	-37.6	-38.5	24.0	0.00e+00	0	38	0	814743552	46	6791
2026-01-01 02:10:22.57	289.51	25.39	-37.6	-38.5	23.9	0.00e+00	92	38	0	816840704	48	6045
2026-01-01 02:10:23.57	289.79	25.34	-37.5	-38.3	23.9	0.00e+00	0	38	0	818937856	48	5914
2026-01-01 02:10:24.59	290.08	25.29	-37.3	-38.1	24.2	0.00e+00	0	38	0	819986432	48	5798
2026-01-01 02:10:25.59	290.36	25.24	-37.0	-37.8	24.4	0.00e+00	90	38	0	822083584	48	5628
2026-01-01 02:10:26.60	290.64	25.19	-37.2	-38.0	24.4	0.00e+00	0	38	0	824180736	48	5745
2026-01-01 02:10:27.61	290.92	25.14	-37.3	-38.2	24.1	0.00e+00	57	38	0	826277888	48	5832
2026-01-01 02:10:28.62	291.20	25.09	-37.2	-38.1	24.2	0.00e+00	0	38	0	828375040	48	5772
2026-01-01 02:10:29.63	291.48	25.04	-37.1	-37.9	24.2	0.00e+00	92	38	0	830472192	48	5687
2026-01-01 02:10:30.64	291.76	24.98	-36.9	-37.7	24.5	0.00e+00	0	38	0	831520768	48	5552
2026-01-01 02:10:31.65	292.04	24.93	-36.7	-37.5	24.7	0.00e+00	0	38	0	833617920	48	5415
2026-01-01 02:10:32.66	292.32	24.87	-36.2	-37.0	25.0	0.00e+00	92	38	0	835715072	46	5700
2026-01-01 02:10:33.67	292.60	24.82	-36.2	-36.9	25.0	0.00e+00	0	38	0	837812224	46	5687
2026-01-01 02:10:34.68	292.87	24.76	-36.1	-36.9	25.1	0.00e+00	65	38	0	839909376	46	5659
2026-01-01 02:10:35.69	293.14	24.70	-36.0	-36.8	25.1	0.00e+00	0	38	0	840957952	46	5595
2026-01-01 02:10:36.70	293.42	24.65	-36.3	-37.1	24.8	0.00e+00	92	38	0	843055104	46	5792
2026-01-01 02:10:37.71	293.69	24.59	-36.5	-37.3	24.8	0.00e+00	0	38	0	845152256	46	5900
2026-01-01 02:10:38.72	293.96	24.53	-36.8	-37.6	24.6	0.00e+00	0	38	0	847249408	46	6116
2026-01-01 02:10:39.73	294.23	24.47	-36.8	-37.6	24.5	0.00e+00	61	38	0	849346560	46	6173
2026-01-01 02:10:40.74	294.50	24.41	-37.0	-37.9	24.0	0.00e+00	0	38	0	850395136	46	6337
2026-01-01 02:10:41.75	294.77	24.35	-36.7	-37.5	24.6	0.00e+00	60	38	0	852492288	46	6070
2026-01-01 02:10:42.76	295.04	24.29	-36.6	-37.4	24.6	0.00e+00	0	38	0	854589440	46	6015
2026-01-01 02:10:43.77	295.30	24.23	-36.5	-37.3	24.7	0.00e+00	92	38	0	856686592	46	5922
2026-01-01 02:10:44.78	295.57	24.17	-36.6	-37.4	24.7	0.00e+00	0	38	0	858783744	46	5998
2026-01-01 02:10:45.79	295.83	24.11	-36.8	-37.6	24.5	0.00e+00	80	38	0	859832320	46	6150
2026-01-01 02:10:46.80	296.10	24.05	-36.6	-37.4	24.6	0.00e+00	13	38	0	861929472	46	5984
2026-01-01 02:10:47.81	296.36	23.99	-36.4	-37.2	24.9	0.00e+00	0	38	0	864026624	46	5830
2026-01-01 02:10:48.81	296.62	23.92	-36.5	-37.2	24.8	0.00e+00	52	38	0	866123776	46	5884
2026-01-01 02:10:49.82	296.88	23.86	-36.7	-37.5	24.7	0.00e+00	0	38	0	868220928	46	6060
2026-01-01 02:10:50.83	297.14	23.80	-36.8	-37.6	24.6	0.00e+00	74	38	0	869269504	46	6147
2026-01-01 02:10:51.84	297.39	23.73	-36.8	-37.5	24.3	0.00e+00	0	38	0	871366656	46	6103
2026-01-01 02:10:52.84	297.65	23.67	-36.8	-37.6	24.6	0.00e+00	90	38	0	873463808	46	6124
2026-01-01 02:10:53.85	297.90	23.60	-36.4	-37.2	24.6	0.00e+00	0	38	0	875560960	46	5869
2026-01-01 02:10:54.86	298.16	23.54	-36.6	-37.4	24.5	0.00e+00	0	38	0	877658112	46	5979
2026-01-01 02:10:55.87	298.41	23.47	-36.7	-37.5	24.6	0.00e+00	67	38	0	878706688	46	6089
2026-01-01 02:10:56.88	298.67	23.40	-37.0	-37.8	24.4	0.00e+00	0	38	0	880803840	46	6262
2026-01-01 02:10:57.89	298.92	23.34	-37.3	-38.2	24.1	0.00e+00	90	38	0	882900992	46	6549
2026-01-01 02:10:58.90	299.17	23.27	-37.5	-38.3	24.1	0.00e+00	0	38	0	884998144	46	6660
2026-01-01 02:10:59.91	299.42	23.20	-37.6	-38.4	24.0	0.00e+00	91	38	0	887095296	46	6769
2026-01-01 02:11:00.92	299.67	23.13	-37.3	-38.2	24.2	0.00e+00	34	38	0	888143872	46	6547
2026-01-01 02:11:01.93	299.91	23.07	-37.1	-37.9	24.4	0.00e+00	0	38	0	890241024	46	6351
2026-01-01 02:11:02.94	300.16	23.00	-36.9	-37.7	24.4	0.00e+00	90	38	0	892338176	46	6237
2026-01-01 02:11:03.95	300.41	22.93	-37.0	-37.8	24.4	0.00e+00	0	38	0	894435328	46	6291
2026-01-01 02:11:04.96	300.65	22.86	-37.0	-37.8	24.3	0.00e+00	92	38	0	896532480	46	6271
2026-01-01 02:11:05.97	300.89	22.79	-37.3	-38.2	24.2	0.00e+00	0	38	0	898629632	46	6547
2026-01-01 02:11:06.98	301.14	22.72	-37.6	-38.5	23.8	0.00e+00	74	38	0	899678208	46	6819
2026-01-01 02:11:07.99	301.38	22.65	-38.2	-39.1	23.5	0.00e+00	0	38	0	901775360	48	6524
2026-01-01 02:11:09.00	301.62	22.58	-38.1	-39.0	23.5	0.00e+00	0	38	0	903872512	48	6400
2026-01-01 02:11:10.01	301.86	22.51	-38.1	-39.0	23.5	0.00e+00	92	38	0	905969664	48	6405
2026-01-01 02:11:11.02	302.09	22.44	-37.9	-38.8	23.8	0.00e+00	0	38	0	908066816	48	6252
2026-01-01 02:11:12.03	302.33	22.36	-37.7	-38.6	23.8	0.00e+00	65	38	0	909115392	48	6134
2026-01-01 02:11:13.04	302.57	22.29	-37.5	-38.3	24.0	0.00e+00	0	38	0	911212544	48	5959
2026-01-01 02:11:14.05	302.80	22.22	-37.8	-38.7	23.9	0.00e+00	90	38	0	913309696	48	6175
2026-01-01 02:11:15.06	303.03	22.15	-37.9	-38.8	23.7	0.00e+00	0	38	0	915406848	48	6288
2026-01-01 02:11:16.06	303.26	22.08	-38.3	-39.2	23.4	0.00e+00	0	38	0	917504000	48	6555
2026-01-01 02:11:17.07	303.50	22.00	-38.5	-39.4	23.1	0.00e+00	57	38	0	918552576	48	6733
2026-01-01 02:11:18.08	303.73	21.93	-38.1	-39.0	23.5	0.00e+00	0	38	0	920649728	48	6421
2026-01-01 02:11:19.09	303.96	21.86	-37.7	-38.6	23.7	0.00e+00	2	38	0	922746880	48	6149
2026-01-01 02:11:20.10	304.18	21.78	-37.5	-38.4	23.9	0.00e+00	0	38	0	924844032	48	5973
2026-01-01 02:11:21.11	304.41	21.71	-36.9	-37.7	24.5	0.00e+00	27	38	0	926941184	48	5549
2026-01-01 02:11:22.12	304.64	21.63	-36.9	-37.7	24.5	0.00e+00	0	38	0	927989760	48	5520
2026-01-01 02:11:23.13	304.86	21.56	-37.1	-37.9	24.3	0.00e+00	49	38	0	930086912	48	5681
2026-01-01 02:11:24.14	305.09	21.48	-37.1	-37.9	24.3	0.00e+00	31	38	0	932184064	48	5669
2026-01-01 02:11:25.15	305.31	21.41	-37.3	-38.1	24.1	0.00e+00	0	38	0	934281216	48	5828
2026-01-01 02:11:26.16	305.53	21.33	-37.7	-38.5	23.8	0.00e+00	21	38	0	936378368	48	6074
2026-01-01 02:11:27.17	305.75	21.26	-37.9	-38.8	23.7	0.00e+00	33	38	0	937426944	48	6276
2026-01-01 02:11:28.17	305.97	21.18	-38.2	-39.1	23.5	0.00e+00	90	38	0	939524096	48	6469
2026-01-01 02:11:29.18	306.19	21.11	-38.3	-39.2	23.2	0.00e+00	0	38	0	941621248	48	6595
2026-01-01 02:11:30.19	306.41	21.03	-38.3	-39.3	23.3	0.00e+00	90	38	0	943718400	48	6618
2026-01-01 02:11:31.20	306.62	20.96	-38.4	-39.3	23.1	0.00e+00	64	38	0	945815552	48	6656
2026-01-01 02:11:32.21	306.84	20.88	-38.5	-39.4	23.1	0.00e+00	0	38	0	946864128	48	6763
2026-01-01 02:11:33.22	307.05	20.81	-38.5	-39.5	23.0	0.00e+00	91	38	0	948961280	48	6797
2026-01-01 02:11:34.23	307.27	20.73	-38.4	-39.3	23.3	0.00e+00	0	38	0	951058432	48	6658
2026-01-01 02:11:35.24	307.48	20.65	-38.2	-39.1	23.4	0.00e+00	92	38	0	953155584	48	6504
2026-01-01 02:11:36.25	307.69	20.58	-38.1	-38.9	23.6	0.00e+00	0	38	0	955252736	48	6387
2026-01-01 02:11:37.26	307.90	20.50	-37.8	-38.7	23.7	0.00e+00	92	38	0	956301312	48	6211
2026-01-01 02:11:38.27	308.11	20.42	-37.9	-38.8	23.6	0.00e+00	0	38	0	958398464	48	6265
2026-01-01 02:11:39.28	308.32	20.34	-38.1	-39.0	23.5	0.00e+00	0	38	0	960495616	48	6399
2026-01-01 02:11:40.29	308.53	20.27	-38.4	-39.3	23.2	0.00e+00	90	38	0	962592768	48	6680
2026-01-01 02:11:41.30	308.73	20.19	-38.5	-39.5	23.1	0.00e+00	0	38	0	964689920	48	6784
2026-01-01 02:11:42.31	308.94	20.11	-39.0	-40.0	22.8	0.00e+00	61	38	0	966787072	50	6410
2026-01-01 02:11:43.32	309.14	20.03	-39.2	-40.3	22.4	0.00e+00	0	38	0	967835648	50	6620
2026-01-01 02:11:44.33	309.35	19.96	-39.0	-40.0	22.6	0.00e+00	92	38	0	969932800	50	6429
2026-01-01 02:11:45.34	309.55	19.88	-38.7	-39.7	23.0	0.00e+00	0	38	0	972029952	50	6174
2026-01-01 02:11:46.35	309.75	19.80	-38.2	-39.1	23.4	0.00e+00	0	38	0	974127104	50	5799
2026-01-01 02:11:47.36	309.95	19.72	-37.5	-38.4	23.7	0.00e+00	66	38	0	976224256	48	5997
2026-01-01 02:11:48.37	310.15	19.64	-37.0	-37.8	24.2	0.00e+00	0	38	0	977272832	48	5615
2026-01-01 02:11:49.37	310.35	19.57	-36.9	-37.7	24.4	0.00e+00	54	38	0	979369984	48	5526
2026-01-01 02:11:50.38	310.54	19.49	-37.3	-38.1	24.1	0.00e+00	0	38	0	981467136	48	5804
2026-01-01 02:11:51.39	310.74	19.41	-37.7	-38.6	23.8	0.00e+00	90	38	0	983564288	48	6112
2026-01-01 02:11:52.40	310.94	19.33	-38.2	-39.2	23.3	0.00e+00	0	38	0	984612864	48	6558
2026-01-01 02:11:53.40	311.13	19.25	-38.7	-39.7	22.8	0.00e+00	0	38	0	986710016	48	6939
2026-01-01 02:11:54.41	311.32	19.18	-39.0	-40.1	22.6	0.00e+00	92	38	0	988807168	50	6467
2026-01-01 02:11:55.42	311.51	19.10	-38.9	-39.9	22.6	0.00e+00	0	38	0	990904320	50	6337
2026-01-01 02:11:56.43	311.71	19.02	-38.6	-39.5	23.0	0.00e+00	78	38	0	993001472	50	6079
2026-01-01 02:11:57.44	311.90	18.94	-38.4	-39.3	23.2	0.00e+00	0	38	0	995098624	50	5956
2026-01-01 02:11:58.45	312.09	18.86	-38.2	-39.1	23.3	0.00e+00	92	38	0	996147200	50	5813
2026-01-01 02:11:59.46	312.27	18.78	-38.3	-39.2	23.1	0.00e+00	0	38	0	998244352	50	5885
2026-01-01 02:12:00.47	312.46	18.70	-38.7	-39.7	22.5	0.00e+00	81	38	0	1000341504	50	6190
2026-01-01 02:12:01.47	312.65	18.62	-39.1	-40.1	22.7	0.00e+00	14	38	0	1002438656	50	6475
2026-01-01 02:12:02.48	312.83	18.54	-38.9	-39.8	22.8	0.00e+00	0	38	0	1004535808	50	6313
2026-01-01 02:12:03.49	313.02	18.47	-38.8	-39.8	22.8	0.00e+00	47	38	0	1005584384	50	6261
2026-01-01 02:12:04.50	313.20	18.39	-38.2	-39.2	23.2	0.00e+00	0	38	0	1007681536	50	5830
2026-01-01 02:12:05.51	313.38	18.31	-38.0	-38.9	23.5	0.00e+00	92	38	0	1009778688	50	5654
2026-01-01 02:12:06.52	313.57	18.23	-37.9	-38.7	23.6	0.00e+00	0	38	0	1011875840	50	5563
2026-01-01 02:12:07.53	313.75	18.15	-37.6	-38.5	23.7	0.00e+00	57	38	0	1013972992	48	6056
2026-01-01 02:12:08.54	313.93	18.07	-37.8	-38.7	23.6	0.00e+00	0	38	0	1015021568	48	6184
2026-01-01 02:12:09.55	314.11	17.99	-37.9	-38.7	23.6	0.00e+00	0	38	0	1017118720	48	6232
2026-01-01 02:12:10.56	314.29	17.91	-38.1	-39.0	23.4	0.00e+00	54	38	0	1019215872	48	6402
2026-01-01 02:12:11.57	314.46	17.83	-38.2	-39.1	23.3	0.00e+00	0	38	0	1021313024	48	6479
2026-01-01 02:12:12.58	314.64	17.75	-38.4	-39.3	23.1	0.00e+00	92	38	0	1023410176	48	6668
2026-01-01 02:12:13.59	314.82	17.67	-38.3	-39.3	23.2	0.00e+00	0	38	0	1024458752	48	6622
2026-01-01 02:12:14.60	314.99	17.60	-38.0	-38.9	23.5	0.00e+00	57	38	0	1026555904	48	6333
2026-01-01 02:12:15.61	315.16	17.52	-37.9	-38.8	23.7	0.00e+00	0	38	0	1028653056	48	6275
2026-01-01 02:12:16.62	315.34	17.44	-37.6	-38.4	23.7	0.00e+00	0	38	0	1030750208	48	6031
2026-01-01 02:12:17.63	315.51	17.36	-37.6	-38.5	23.7	0.00e+00	91	38	0	1032847360	48	6084
2026-01-01 02:12:18.64	315.68	17.28	-37.6	-38.5	23.6	0.00e+00	0	38	0	1033895936	48	6047
2026-01-01 02:12:19.65	315.85	17.20	-37.8	-38.7	23.5	0.00e+00	55	38	0	1035993088	48	6206
2026-01-01 02:12:20.66	316.02	17.12	-38.5	-39.4	23.1	0.00e+00	0	38	0	1038090240	48	6748
2026-01-01 02:12:21.67	316.19	17.04	-38.8	-39.7	22.8	0.00e+00	66	38	0	1040187392	50	6225
2026-01-01 02:12:22.68	316.36	16.96	-39.0	-40.1	22.5	0.00e+00	0	38	0	1042284544	50	6466
2026-01-01 02:12:23.69	316.52	16.88	-39.2	-40.2	22.5	0.00e+00	0	38	0	1043333120	50	6558
2026-01-01 02:12:24.70	316.69	16.80	-38.9	-39.9	22.6	0.00e+00	78	38	0	1045430272	50	6382
2026-01-01 02:12:25.71	316.86	16.72	-38.7	-39.7	22.9	0.00e+00	0	38	0	1047527424	50	6192
2026-01-01 02:12:26.72	317.02	16.65	-38.2	-39.1	23.2	0.00e+00	90	38	0	1049624576	50	5808
2026-01-01 02:12:27.73	317.18	16.57	-38.2	-39.1	23.3	0.00e+00	0	38	0	1051721728	50	5817
2026-01-01 02:12:28.74	317.35	16.49	-38.0	-38.9	23.5	0.00e+00	0	38	0	1052770304	50	5687
2026-01-01 02:12:29.75	317.51	16.41	-38.0	-38.9	23.5	0.00e+00	0	38	0	1054867456	50	5691
2026-01-01 02:12:30.77	317.67	16.33	-38.0	-38.9	23.4	0.00e+00	0	38	0	1056964608	50	5672
2026-01-01 02:12:31.78	317.83	16.25	-38.2	-39.1	23.3	0.00e+00	59	37	0	1059061760	50	5792
2026-01-01 02:12:32.79	317.99	16.17	-38.3	-39.2	23.2	0.00e+00	0	38	0	1061158912	50	5851
2026-01-01 02:12:33.79	318.15	16.09	-38.2	-39.1	23.2	0.00e+00	58	38	0	1063256064	50	5805
2026-01-01 02:12:34.80	318.31	16.02	-38.2	-39.1	23.2	0.00e+00	0	38	0	1064304640	50	5819
2026-01-01 02:12:35.81	318.46	15.94	-38.0	-38.9	23.4	0.00e+00	0	38	0	1066401792	50	5658
2026-01-01 02:12:36.82	318.62	15.86	-37.9	-38.8	23.5	0.00e+00	0	38	0	1068498944	50	5570
2026-01-01 02:12:37.83	318.77	15.78	-37.8	-38.7	23.4	0.00e+00	0	38	0	1070596096	48	6180
2026-01-01 02:12:38.84	318.93	15.70	-37.7	-38.5	23.3	0.00e+00	59	38	0	1072693248	48	6102
2026-01-01 02:12:39.84	319.08	15.62	-37.8	-38.6	23.2	0.00e+00	0	38	0	1073741824	48	6155
2026-01-01 02:12:40.85	319.24	15.55	-38.2	-39.1	23.2	0.00e+00	59	38	0	1075838976	48	6469
2026-01-01 02:12:41.86	319.39	15.47	-38.5	-39.4	22.9	0.00e+00	0	38	0	1077936128	48	6737
2026-01-01 02:12:42.87	319.54	15.39	-39.0	-39.9	22.5	0.00e+00	0	38	0	1080033280	50	6384
2026-01-01 02:12:43.88	319.69	15.31	-39.5	-40.6	21.9	0.00e+00	0	38	0	1082130432	50	6860
2026-01-01 02:12:44.89	319.84	15.23	-39.7	-40.8	21.3	0.00e+00	0	38	0	1083179008	50	7058
2026-01-01 02:12:45.90	319.99	15.16	-40.0	-41.1	21.7	0.00e+00	0	38	0	1085276160	52	6486
2026-01-01 02:12:46.91	320.14	15.08	-40.0	-41.2	21.5	0.00e+00	0	38	0	1087373312	52	6546
2026-01-01 02:12:47.92	320.29	15.00	-40.0	-41.1	21.5	0.00e+00	58	38	0	1089470464	52	6508
2026-01-01 02:12:48.93	320.43	14.92	-39.7	-40.8	21.8	0.00e+00	0	38	0	1091567616	52	6311
2026-01-01 02:12:49.94	320.58	14.85	-39.4	-40.4	22.1	0.00e+00	7	38	0	1092616192	52	6032
2026-01-01 02:12:50.95	320.72	14.77	-39.3	-40.3	22.2	0.00e+00	0	38	0	1094713344	52	5947
2026-01-01 02:12:51.96	320.87	14.69	-39.3	-40.3	22.3	0.00e+00	0	38	0	1096810496	52	5925
2026-01-01 02:12:52.97	321.01	14.61	-38.9	-39.9	22.7	0.00e+00	0	38	0	1098907648	52	5669
2026-01-01 02:12:53.97	321.16	14.54	-38.7	-39.7	22.8	0.00e+00	0	38	0	1101004800	52	5515
2026-01-01 02:12:54.98	321.30	14.46	-38.7	-39.7	22.7	0.00e+00	70	38	0	1102053376	50	6220
2026-01-01 02:12:55.99	321.44	14.38	-38.4	-39.3	23.0	0.00e+00	0	38	0	1104150528	50	5963
2026-01-01 02:12:57.00	321.58	14.31	-38.4	-39.3	23.0	0.00e+00	91	38	0	1106247680	50	5918
2026-01-01 02:12:58.01	321.72	14.23	-38.1	-39.1	23.2	0.00e+00	0	38	0	1108344832	50	5765
2026-01-01 02:12:59.02	321.86	14.15	-37.9	-38.8	23.6	0.00e+00	0	38	0	1110441984	50	5586
2026-01-01 02:13:00.03	322.00	14.07	-37.7	-38.5	23.6	0.00e+00	0	38	0	1111490560	48	6083
2026-01-01 02:13:01.03	322.14	14.00	-37.7	-38.5	23.6	0.00e+00	0	38	0	1113587712	48	6079
2026-01-01 02:13:02.04	322.28	13.92	-37.7	-38.5	23.6	0.00e+00	61	38	0	1115684864	48	6079
2026-01-01 02:13:03.05	322.41	13.85	-37.7	-38.6	23.5	0.00e+00	0	37	0	1117782016	48	6112
2026-01-01 02:13:04.06	322.55	13.77	-37.8	-38.6	23.5	0.00e+00	92	37	0	1119879168	48	6173
2026-01-01 02:13:05.07	322.69	13.69	-38.1	-39.0	23.3	0.00e+00	0	37	0	1120927744	48	6404
2026-01-01 02:13:06.08	322.82	13.62	-38.3	-39.3	23.0	0.00e+00	0	37	0	1123024896	48	6622
2026-01-01 02:13:07.09	322.96	13.54	-38.6	-39.5	22.7	0.00e+00	0	38	0	1125122048	48	6847
2026-01-01 02:13:08.10	323.09	13.47	-38.9	-39.8	22.6	0.00e+00	0	37	0	1127219200	50	6317
2026-01-01 02:13:09.11	323.22	13.39	-39.0	-40.0	22.3	0.00e+00	25	38	0	1129316352	50	6445
2026-01-01 02:13:10.12	323.35	13.31	-39.4	-40.4	22.0	0.00e+00	0	38	0	1131413504	50	6744
2026-01-01 02:13:11.13	323.49	13.24	-39.5	-40.6	21.9	0.00e+00	38	38	0	1132462080	50	6856
2026-01-01 02:13:12.14	323.62	13.16	-39.6	-40.7	21.9	0.00e+00	0	38	0	1134559232	50	6960
2026-01-01 02:13:13.15	323.75	13.09	-39.7	-40.9	21.7	0.00e+00	0	38	0	1136656384	52	6321
2026-01-01 02:13:14.16	323.88	13.01	-39.6	-40.7	21.9	0.00e+00	33	38	0	1138753536	52	6212
2026-01-01 02:13:15.17	324.01	12.94	-39.6	-40.7	21.8	0.00e+00	0	37	0	1140850688	52	6233
2026-01-01 02:13:16.18	324.14	12.86	-39.3	-40.4	22.2	0.00e+00	41	37	0	1141899264	52	5966
2026-01-01 02:13:17.19	324.26	12.79	-39.2	-40.2	22.3	0.00e+00	0	37	0	1143996416	52	5884
2026-01-01 02:13:18.20	324.39	12.71	-39.0	-40.0	22.4	0.00e+00	92	37	0	1146093568	52	5732
2026-01-01 02:13:19.21	324.52	12.64	-38.9	-39.9	22.6	0.00e+00	0	38	0	1148190720	52	5652
2026-01-01 02:13:20.22	324.64	12.56	-38.9	-39.9	22.5	0.00e+00	0	37	0	1150287872	52	5632
2026-01-01 02:13:21.23	324.77	12.49	-38.9	-39.9	22.6	0.00e+00	33	38	0	1151336448	50	6341
2026-01-01 02:13:22.24	324.89	12.41	-38.6	-39.6	22.8	0.00e+00	0	37	0	1153433600	50	6112
2026-01-01 02:13:23.25	325.02	12.34	-38.7	-39.7	22.6	0.00e+00	9	38	0	1155530752	50	6207
2026-01-01 02:13:24.26	325.14	12.26	-38.9	-39.8	22.5	0.00e+00	0	37	0	1157627904	50	6316
2026-01-01 02:13:25.27	325.27	12.19	-38.9	-39.9	22.4	0.00e+00	84	37	0	1159725056	50	6338
2026-01-01 02:13:26.28	325.39	12.12	-38.9	-39.9	22.6	0.00e+00	0	37	0	1160773632	50	6369
2026-01-01 02:13:27.29	325.51	12.04	-38.8	-39.8	22.5	0.00e+00	70	37	0	1162870784	50	6300
2026-01-01 02:13:28.30	325.63	11.97	-39.1	-40.1	22.3	0.00e+00	0	37	0	1164967936	50	6521
2026-01-01 02:13:29.31	325.75	11.89	-39.1	-40.1	22.3	0.00e+00	0	38	0	1167065088	50	6529
2026-01-01 02:13:30.32	325.87	11.82	-39.1	-40.1	22.3	0.00e+00	17	37	0	1169162240	50	6529
2026-01-01 02:13:31.33	325.99	11.75	-39.1	-40.1	22.3	0.00e+00	0	37	0	1170210816	50	6489
2026-01-01 02:13:32.34	326.11	11.67	-39.0	-40.1	22.4	0.00e+00	57	38	0	1172307968	50	6468
2026-01-01 02:13:33.35	326.23	11.60	-39.2	-40.2	22.1	0.00e+00	0	38	0	1174405120	50	6567
2026-01-01 02:13:34.36	326.35	11.53	-39.2	-40.3	22.1	0.00e+00	90	37	0	1176502272	50	6632
2026-01-01 02:13:35.37	326.46	11.45	-39.5	-40.5	21.9	0.00e+00	0	37	0	1178599424	50	6819
2026-01-01 02:13:36.38	326.58	11.38	-39.6	-40.6	21.9	0.00e+00	0	37	0	1179648000	50	6907
2026-01-01 02:13:37.39	326.70	11.31	-39.7	-40.8	21.7	0.00e+00	0	37	0	1181745152	50	7053
2026-01-01 02:13:38.40	326.81	11.24	-39.8	-40.8	21.7	0.00e+00	0	38	0	1183842304	52	6316
2026-01-01 02:13:39.41	326.93	11.16	-39.8	-40.9	21.8	0.00e+00	92	38	0	1185939456	52	6331
2026-01-01 02:13:40.41	327.04	11.09	-39.9	-41.0	21.3	0.00e+00	0	38	0	1188036608	52	6446
