passes_logs/2026/01/01/R4.6S_Anadyr/R4.6S_Anadyr__20260101_154657_SUOMI_NPP_rec.log

#Pass ID: 20260101_154657_SUOMI NPP
#Satellite: SUOMI NPP
#Configuration: NPP
#almurnet v.1.7.20251203
#Start time: 2026-01-01 15:46:58

#Version: 2.2.20231116
#Station: R4.6S_Anadyr
#Location: 177.4865 lon 64.73178 lat
#TLE: 1 37849U 11061A   25364.87906318  .00000195  00000+0  11345-3 0  9993
#TLE: 2 37849  98.7794 302.0592 0002571  89.2401 270.9069 14.19520347734561

#Time	Az	El	Level	Level2	SNR	BER	BlckErr	Temp	State	Recorded	gain1	gain2
2026-01-01 15:46:58.05	23.21	0.05	-49.0	-61.5	3.4	1.52e+00	0	37	0	0	60	41893
2026-01-01 15:46:59.06	23.19	0.11	-49.0	-64.2	3.6	1.51e+00	0	38	104	0	60	58803
2026-01-01 15:47:00.07	23.17	0.17	-49.0	-64.3	3.6	1.51e+00	0	38	104	0	60	59022
2026-01-01 15:47:01.08	23.14	0.23	-49.0	-64.3	3.6	1.51e+00	0	38	104	0	60	58985
2026-01-01 15:47:02.09	23.12	0.29	-49.0	-64.2	3.6	1.51e+00	0	38	104	0	60	58826
2026-01-01 15:47:03.10	23.10	0.35	-49.0	-64.2	3.6	1.51e+00	0	38	104	0	60	58516
2026-01-01 15:47:04.11	23.08	0.41	-49.1	-64.3	3.6	1.51e+00	0	38	104	0	60	59234
2026-01-01 15:47:05.12	23.05	0.47	-49.0	-64.2	3.6	1.51e+00	0	38	104	0	60	58816
2026-01-01 15:47:06.13	23.03	0.53	-49.1	-64.2	3.6	1.51e+00	0	38	104	0	60	58871
2026-01-01 15:47:07.14	23.01	0.59	-48.9	-64.2	3.6	1.51e+00	0	38	104	0	60	58606
2026-01-01 15:47:08.15	22.98	0.65	-48.9	-64.1	3.6	1.51e+00	0	38	104	0	60	57970
2026-01-01 15:47:09.16	22.96	0.71	-48.8	-64.0	3.6	1.51e+00	0	38	104	0	60	57267
2026-01-01 15:47:10.17	22.94	0.77	-48.7	-63.9	3.5	1.51e+00	0	38	104	0	60	56420
2026-01-01 15:47:11.18	22.91	0.83	-48.5	-63.6	3.6	1.51e+00	0	38	104	0	60	54941
2026-01-01 15:47:12.19	22.89	0.89	-48.3	-63.6	3.6	1.51e+00	0	38	104	0	60	54503
2026-01-01 15:47:13.20	22.86	0.95	-48.2	-63.4	3.6	1.51e+00	0	38	104	0	60	53188
2026-01-01 15:47:14.21	22.84	1.01	-47.8	-62.9	3.6	1.51e+00	0	38	104	0	60	50680
2026-01-01 15:47:15.22	22.82	1.07	-47.6	-62.8	3.6	1.51e+00	0	38	104	0	60	49648
2026-01-01 15:47:16.23	22.79	1.14	-47.6	-62.8	3.6	1.51e+00	0	38	104	0	60	49715
2026-01-01 15:47:17.24	22.77	1.20	-47.6	-62.8	3.6	1.51e+00	0	38	104	0	60	49893
2026-01-01 15:47:18.25	22.74	1.26	-47.6	-62.8	3.6	1.51e+00	0	38	104	0	60	49716
2026-01-01 15:47:19.26	22.72	1.32	-47.6	-62.7	3.6	1.51e+00	0	38	104	0	60	49498
2026-01-01 15:47:20.27	22.69	1.38	-47.6	-62.8	3.6	1.51e+00	0	38	104	0	60	49698
2026-01-01 15:47:21.28	22.67	1.44	-47.6	-62.8	3.5	1.51e+00	0	38	104	0	60	49874
2026-01-01 15:47:22.29	22.64	1.51	-47.6	-62.7	3.6	1.51e+00	0	38	104	0	60	49572
2026-01-01 15:47:23.30	22.62	1.57	-47.6	-62.7	3.6	1.51e+00	0	39	104	0	60	49584
2026-01-01 15:47:24.31	22.59	1.63	-47.6	-62.7	3.6	1.51e+00	0	39	104	0	60	49158
2026-01-01 15:47:25.32	22.57	1.69	-47.6	-62.6	3.6	1.51e+00	0	39	104	0	60	48747
2026-01-01 15:47:26.33	22.54	1.76	-47.6	-62.6	3.6	1.51e+00	0	38	104	0	60	48583
2026-01-01 15:47:27.34	22.52	1.82	-47.6	-62.5	3.6	1.51e+00	0	38	104	0	60	48022
2026-01-01 15:47:28.35	22.49	1.88	-47.6	-62.4	3.6	1.51e+00	0	39	104	0	60	47895
2026-01-01 15:47:29.36	22.46	1.95	-47.6	-62.5	3.6	1.51e+00	0	39	104	0	60	48147
2026-01-01 15:47:30.37	22.44	2.01	-47.6	-62.5	3.6	1.51e+00	0	39	104	0	60	48151
2026-01-01 15:47:31.38	22.41	2.07	-47.6	-62.7	3.6	1.51e+00	0	38	104	0	60	49263
2026-01-01 15:47:32.39	22.38	2.14	-47.6	-62.7	3.6	1.51e+00	0	39	104	0	60	49499
2026-01-01 15:47:33.40	22.36	2.20	-47.6	-62.8	3.6	1.51e+00	0	39	104	0	60	49616
2026-01-01 15:47:34.41	22.33	2.26	-47.6	-62.7	3.6	1.51e+00	0	39	104	0	60	49118
2026-01-01 15:47:35.42	22.30	2.33	-47.6	-62.6	3.6	1.51e+00	0	39	104	0	60	48737
2026-01-01 15:47:36.43	22.28	2.39	-47.6	-62.5	3.6	1.51e+00	0	39	104	0	60	48389
2026-01-01 15:47:37.44	22.25	2.46	-47.6	-62.5	3.6	1.51e+00	0	39	104	0	60	48475
2026-01-01 15:47:38.45	22.22	2.52	-47.6	-62.5	3.6	1.51e+00	0	39	104	0	60	48149
2026-01-01 15:47:39.46	22.20	2.58	-47.6	-62.2	3.6	1.51e+00	0	39	104	0	60	46715
2026-01-01 15:47:40.47	22.17	2.65	-47.5	-62.0	3.6	1.51e+00	0	39	104	0	60	45380
2026-01-01 15:47:41.48	22.14	2.71	-47.5	-61.6	3.6	1.51e+00	0	39	104	0	60	43266
2026-01-01 15:47:42.49	22.11	2.78	-47.5	-61.3	3.6	1.51e+00	0	39	104	0	60	41902
2026-01-01 15:47:43.50	22.09	2.84	-47.5	-61.3	3.6	1.51e+00	0	39	104	0	60	41982
2026-01-01 15:47:44.51	22.06	2.91	-47.5	-61.8	3.6	1.51e+00	0	39	104	0	60	44513
2026-01-01 15:47:45.52	22.03	2.97	-47.6	-62.4	3.6	1.51e+00	0	39	104	0	60	47717
2026-01-01 15:47:46.53	22.00	3.04	-47.6	-62.6	3.6	1.51e+00	0	39	104	0	60	48954
2026-01-01 15:47:47.54	21.97	3.10	-47.5	-61.3	3.6	1.51e+00	0	39	104	0	60	41985
2026-01-01 15:47:48.55	21.94	3.17	-47.3	-58.5	4.2	1.45e+00	36	39	0	0	60	30449
2026-01-01 15:47:49.56	21.92	3.24	-47.0	-54.8	5.9	3.80e-01	74	39	0	1048576	60	19882
2026-01-01 15:47:50.57	21.89	3.30	-46.6	-52.8	8.1	1.70e-01	0	39	0	3145728	60	15804
2026-01-01 15:47:51.58	21.86	3.37	-46.2	-51.5	9.7	3.02e-02	0	39	0	5242880	60	13573
2026-01-01 15:47:52.59	21.83	3.43	-45.7	-50.2	11.3	6.46e-03	0	39	0	7340032	60	11631
2026-01-01 15:47:53.60	21.80	3.50	-45.2	-49.0	12.6	4.52e-04	0	39	0	9437184	60	10153
2026-01-01 15:47:54.61	21.77	3.57	-45.2	-49.1	12.5	1.82e-04	11	39	0	10485760	60	10248
2026-01-01 15:47:55.62	21.74	3.63	-45.0	-48.6	13.0	4.73e-05	0	39	0	12582912	60	9728
2026-01-01 15:47:56.63	21.71	3.70	-45.7	-50.1	10.8	3.02e-04	91	39	0	14680064	60	11593
2026-01-01 15:47:57.64	21.68	3.77	-41.7	-43.4	18.9	2.69e-02	0	39	0	16777216	60	5320
2026-01-01 15:47:58.64	21.65	3.84	-46.9	-54.6	4.3	0.00e+00	0	39	0	18874368	60	19333
2026-01-01 15:47:59.65	21.62	3.90	-45.2	-49.1	12.2	9.50e-01	0	39	104	18874368	60	10264
2026-01-01 15:48:00.66	21.59	3.97	-39.8	-41.1	19.9	4.10e-02	0	39	0	19922944	52	6496
2026-01-01 15:48:01.67	21.56	4.04	-42.0	-43.8	18.1	3.00e-06	92	39	0	22020096	60	5597
2026-01-01 15:48:02.68	21.53	4.11	-40.4	-41.8	19.8	0.00e+00	0	39	0	24117248	54	6302
2026-01-01 15:48:03.69	21.50	4.17	-39.6	-40.8	20.7	0.00e+00	78	39	0	26214400	52	6308
2026-01-01 15:48:04.70	21.47	4.24	-39.7	-40.9	20.6	0.00e+00	0	39	0	27262976	52	6344
2026-01-01 15:48:05.71	21.43	4.31	-39.9	-41.2	20.4	0.00e+00	0	39	0	29360128	52	6542
2026-01-01 15:48:06.71	21.40	4.38	-39.6	-40.8	20.6	0.00e+00	0	39	0	31457280	52	6284
2026-01-01 15:48:07.72	21.37	4.45	-39.8	-41.1	20.5	0.00e+00	0	39	0	33554432	52	6481
2026-01-01 15:48:08.73	21.34	4.52	-39.5	-40.7	20.7	0.00e+00	15	39	0	35651584	52	6220
2026-01-01 15:48:09.74	21.31	4.59	-39.3	-40.5	21.1	0.00e+00	0	39	0	36700160	52	6044
2026-01-01 15:48:10.75	21.28	4.65	-39.6	-40.8	20.7	0.00e+00	92	39	0	38797312	52	6265
2026-01-01 15:48:11.76	21.24	4.72	-39.5	-40.7	20.9	0.00e+00	0	39	0	40894464	52	6189
2026-01-01 15:48:12.77	21.21	4.79	-39.4	-40.6	20.9	0.00e+00	0	39	0	42991616	52	6148
2026-01-01 15:48:13.78	21.18	4.86	-39.4	-40.6	21.0	0.00e+00	0	39	0	45088768	52	6137
2026-01-01 15:48:14.79	21.15	4.93	-39.6	-40.9	20.7	0.00e+00	0	39	0	46137344	52	6320
2026-01-01 15:48:15.80	21.11	5.00	-39.6	-40.9	20.7	0.00e+00	15	39	0	48234496	52	6319
2026-01-01 15:48:16.81	21.08	5.07	-39.9	-41.1	20.5	0.00e+00	0	39	0	50331648	52	6539
2026-01-01 15:48:17.82	21.05	5.14	-39.5	-40.7	20.8	0.00e+00	92	39	0	52428800	52	6223
2026-01-01 15:48:18.83	21.01	5.21	-39.4	-40.6	21.0	0.00e+00	0	39	0	54525952	52	6145
2026-01-01 15:48:19.84	20.98	5.29	-39.6	-40.8	20.9	0.00e+00	14	39	0	55574528	52	6283
2026-01-01 15:48:20.85	20.95	5.36	-39.5	-40.6	21.0	0.00e+00	0	39	0	57671680	52	6165
2026-01-01 15:48:21.86	20.91	5.43	-39.6	-40.8	20.9	0.00e+00	0	39	0	59768832	52	6268
2026-01-01 15:48:22.87	20.88	5.50	-39.4	-40.6	21.0	0.00e+00	16	39	0	61865984	52	6145
2026-01-01 15:48:23.88	20.84	5.57	-39.4	-40.5	21.1	0.00e+00	0	39	0	63963136	52	6083
2026-01-01 15:48:24.89	20.81	5.64	-39.5	-40.7	21.0	0.00e+00	90	39	0	65011712	52	6176
2026-01-01 15:48:25.90	20.77	5.71	-39.1	-40.3	21.4	0.00e+00	0	39	0	67108864	52	5900
2026-01-01 15:48:26.91	20.74	5.79	-39.2	-40.3	21.5	0.00e+00	45	39	0	69206016	52	5936
2026-01-01 15:48:27.92	20.70	5.86	-38.9	-40.0	21.5	0.00e+00	0	39	0	71303168	52	5740
2026-01-01 15:48:28.93	20.67	5.93	-38.9	-40.1	21.5	0.00e+00	0	39	0	73400320	52	5762
2026-01-01 15:48:29.94	20.63	6.00	-39.1	-40.2	21.5	0.00e+00	17	39	0	74448896	52	5840
2026-01-01 15:48:30.94	20.60	6.08	-39.0	-40.1	21.5	0.00e+00	0	39	0	76546048	52	5820
2026-01-01 15:48:31.95	20.56	6.15	-39.3	-40.4	21.2	0.00e+00	15	39	0	78643200	52	6011
2026-01-01 15:48:32.96	20.52	6.22	-39.1	-40.2	21.5	0.00e+00	0	39	0	80740352	52	5884
2026-01-01 15:48:33.97	20.49	6.30	-39.0	-40.1	21.7	0.00e+00	92	39	0	82837504	52	5764
2026-01-01 15:48:34.98	20.45	6.37	-39.0	-40.1	21.6	0.00e+00	0	39	0	83886080	52	5790
2026-01-01 15:48:35.99	20.41	6.44	-38.9	-40.0	21.7	0.00e+00	0	39	0	85983232	52	5700
2026-01-01 15:48:37.00	20.38	6.52	-38.8	-39.9	21.7	0.00e+00	0	39	0	88080384	52	5656
2026-01-01 15:48:38.01	20.34	6.59	-38.8	-39.9	21.7	0.00e+00	0	39	0	90177536	52	5653
2026-01-01 15:48:39.02	20.30	6.66	-38.9	-40.0	21.7	0.00e+00	17	39	0	92274688	52	5702
2026-01-01 15:48:40.03	20.26	6.74	-39.1	-40.2	21.6	0.00e+00	0	39	0	94371840	52	5894
2026-01-01 15:48:41.04	20.23	6.81	-38.8	-39.8	21.9	0.00e+00	92	39	0	95420416	52	5613
2026-01-01 15:48:42.05	20.19	6.89	-39.0	-40.0	21.7	0.00e+00	0	39	0	97517568	50	6459
2026-01-01 15:48:43.06	20.15	6.96	-38.9	-40.0	21.8	0.00e+00	0	39	0	99614720	50	6416
2026-01-01 15:48:44.06	20.11	7.04	-38.7	-39.7	22.0	0.00e+00	0	39	0	101711872	50	6229
2026-01-01 15:48:45.07	20.07	7.11	-39.0	-40.1	21.6	0.00e+00	0	39	0	103809024	50	6484
2026-01-01 15:48:46.08	20.03	7.19	-38.9	-39.9	21.8	0.00e+00	82	39	0	104857600	50	6380
2026-01-01 15:48:47.09	20.00	7.27	-39.0	-40.1	21.6	0.00e+00	0	39	0	106954752	50	6476
2026-01-01 15:48:48.10	19.96	7.34	-39.0	-40.1	21.7	0.00e+00	72	39	0	109051904	50	6509
2026-01-01 15:48:49.11	19.92	7.42	-38.9	-40.0	21.7	0.00e+00	0	39	0	111149056	50	6417
2026-01-01 15:48:50.12	19.88	7.50	-39.1	-40.3	21.6	0.00e+00	17	39	0	113246208	50	6618
2026-01-01 15:48:51.13	19.84	7.57	-38.9	-40.0	21.8	0.00e+00	33	39	0	114294784	50	6424
2026-01-01 15:48:52.14	19.80	7.65	-39.1	-40.2	21.5	0.00e+00	0	39	0	116391936	50	6559
2026-01-01 15:48:53.15	19.76	7.73	-39.0	-40.1	21.6	0.00e+00	13	39	0	118489088	50	6539
2026-01-01 15:48:54.16	19.71	7.81	-39.1	-40.2	21.5	0.00e+00	0	39	0	120586240	50	6599
2026-01-01 15:48:55.17	19.67	7.88	-39.0	-40.1	21.7	0.00e+00	66	39	0	122683392	50	6535
2026-01-01 15:48:56.18	19.63	7.96	-38.8	-39.9	21.7	0.00e+00	0	39	0	123731968	50	6365
2026-01-01 15:48:57.19	19.59	8.04	-38.8	-39.9	21.7	0.00e+00	90	39	0	125829120	50	6346
2026-01-01 15:48:58.20	19.55	8.12	-38.9	-40.0	21.4	0.00e+00	0	39	0	127926272	50	6420
2026-01-01 15:48:59.21	19.51	8.20	-39.0	-40.1	21.4	0.00e+00	0	39	0	130023424	50	6497
2026-01-01 15:49:00.21	19.46	8.27	-38.9	-40.0	21.5	0.00e+00	15	39	0	132120576	50	6443
2026-01-01 15:49:01.22	19.42	8.35	-38.9	-40.0	21.5	0.00e+00	0	39	0	133169152	50	6431
2026-01-01 15:49:02.23	19.38	8.43	-39.0	-40.1	21.7	0.00e+00	90	39	0	135266304	50	6472
2026-01-01 15:49:03.25	19.34	8.51	-39.0	-40.1	21.6	0.00e+00	17	39	0	137363456	50	6483
2026-01-01 15:49:04.25	19.29	8.59	-39.1	-40.2	21.7	0.00e+00	90	39	0	139460608	50	6590
2026-01-01 15:49:05.27	19.25	8.67	-39.2	-40.4	21.4	0.00e+00	0	39	0	141557760	50	6707
2026-01-01 15:49:06.27	19.21	8.75	-39.0	-40.1	21.7	0.00e+00	0	39	0	142606336	50	6475
2026-01-01 15:49:07.28	19.16	8.83	-39.1	-40.2	21.6	0.00e+00	0	39	0	144703488	50	6606
2026-01-01 15:49:08.29	19.12	8.91	-39.0	-40.2	21.6	0.00e+00	0	39	0	146800640	50	6546
2026-01-01 15:49:09.30	19.07	9.00	-38.8	-39.9	21.9	0.00e+00	92	39	0	148897792	50	6366
2026-01-01 15:49:10.31	19.03	9.08	-38.9	-40.0	21.9	0.00e+00	0	39	0	150994944	50	6422
2026-01-01 15:49:11.32	18.98	9.16	-38.9	-40.0	21.8	0.00e+00	92	39	0	152043520	50	6455
2026-01-01 15:49:12.33	18.94	9.24	-38.9	-40.0	21.8	0.00e+00	0	39	0	154140672	50	6453
2026-01-01 15:49:13.34	18.89	9.32	-39.0	-40.0	21.9	0.00e+00	0	39	0	156237824	50	6459
2026-01-01 15:49:14.35	18.84	9.40	-38.7	-39.7	22.1	0.00e+00	0	39	0	158334976	50	6222
2026-01-01 15:49:15.36	18.80	9.49	-38.8	-39.9	22.0	0.00e+00	0	39	0	160432128	50	6342
2026-01-01 15:49:16.37	18.75	9.57	-38.8	-39.9	21.9	0.00e+00	56	39	0	162529280	50	6368
2026-01-01 15:49:17.38	18.70	9.65	-38.7	-39.8	22.1	0.00e+00	0	39	0	163577856	50	6255
2026-01-01 15:49:18.39	18.66	9.74	-38.8	-39.9	22.0	0.00e+00	90	39	0	165675008	50	6333
2026-01-01 15:49:19.40	18.61	9.82	-38.6	-39.6	22.2	0.00e+00	0	39	0	167772160	50	6168
2026-01-01 15:49:20.41	18.56	9.90	-38.6	-39.6	22.3	0.00e+00	0	39	0	169869312	50	6165
2026-01-01 15:49:21.42	18.51	9.99	-38.7	-39.7	22.1	0.00e+00	0	39	0	171966464	50	6240
2026-01-01 15:49:22.43	18.47	10.07	-38.6	-39.6	22.3	0.00e+00	0	39	0	173015040	50	6168
2026-01-01 15:49:23.44	18.42	10.16	-38.5	-39.6	22.2	0.00e+00	14	39	0	175112192	50	6129
2026-01-01 15:49:24.45	18.37	10.24	-38.6	-39.7	22.2	0.00e+00	12	39	0	177209344	50	6188
2026-01-01 15:49:25.46	18.32	10.33	-38.5	-39.5	22.2	0.00e+00	71	39	0	179306496	50	6096
2026-01-01 15:49:26.47	18.27	10.41	-38.5	-39.5	22.3	0.00e+00	0	39	0	181403648	50	6098
2026-01-01 15:49:27.48	18.22	10.50	-38.5	-39.5	22.3	0.00e+00	0	39	0	182452224	50	6048
2026-01-01 15:49:28.49	18.17	10.58	-38.3	-39.3	22.5	0.00e+00	0	39	0	184549376	50	5921
2026-01-01 15:49:29.50	18.12	10.67	-38.3	-39.3	22.5	0.00e+00	0	39	0	186646528	50	5904
2026-01-01 15:49:30.51	18.07	10.76	-38.1	-39.0	22.7	0.00e+00	9	39	0	188743680	50	5758
2026-01-01 15:49:31.52	18.02	10.84	-38.3	-39.3	22.5	0.00e+00	0	39	0	190840832	50	5934
2026-01-01 15:49:32.53	17.96	10.93	-38.1	-39.1	22.7	0.00e+00	90	39	0	191889408	50	5784
2026-01-01 15:49:33.54	17.91	11.02	-38.1	-39.0	22.7	0.00e+00	0	39	0	193986560	50	5759
2026-01-01 15:49:34.55	17.86	11.11	-38.2	-39.2	22.7	0.00e+00	49	39	0	196083712	50	5831
2026-01-01 15:49:35.56	17.81	11.19	-38.0	-39.0	22.7	0.00e+00	0	39	0	198180864	50	5708
2026-01-01 15:49:36.57	17.76	11.28	-37.9	-38.8	22.9	0.00e+00	0	39	0	200278016	50	5630
2026-01-01 15:49:37.58	17.70	11.37	-38.0	-39.0	22.8	0.00e+00	0	39	0	201326592	50	5706
2026-01-01 15:49:38.59	17.65	11.46	-37.9	-38.9	22.9	0.00e+00	0	39	0	203423744	50	5644
2026-01-01 15:49:39.60	17.59	11.55	-37.9	-38.8	23.0	0.00e+00	92	39	0	205520896	50	5614
2026-01-01 15:49:40.61	17.54	11.64	-37.8	-38.8	23.0	0.00e+00	0	39	0	207618048	50	5587
2026-01-01 15:49:41.62	17.49	11.73	-37.9	-38.9	22.9	0.00e+00	92	39	0	209715200	50	5636
2026-01-01 15:49:42.63	17.43	11.82	-37.9	-38.8	23.0	0.00e+00	0	39	0	210763776	50	5600
2026-01-01 15:49:43.64	17.37	11.91	-37.8	-38.8	23.1	0.00e+00	0	39	0	212860928	50	5570
2026-01-01 15:49:44.65	17.32	12.00	-37.9	-38.9	22.9	0.00e+00	0	39	0	214958080	48	6351
2026-01-01 15:49:45.66	17.26	12.09	-38.1	-39.0	22.9	0.00e+00	0	39	0	217055232	48	6461
2026-01-01 15:49:46.67	17.21	12.18	-38.1	-39.0	22.8	0.00e+00	92	39	0	219152384	48	6442
2026-01-01 15:49:47.68	17.15	12.27	-37.9	-38.8	23.0	0.00e+00	0	39	0	220200960	48	6293
2026-01-01 15:49:48.69	17.09	12.36	-37.9	-38.9	23.0	0.00e+00	92	39	0	222298112	48	6321
2026-01-01 15:49:49.70	17.03	12.46	-37.8	-38.7	23.0	0.00e+00	0	39	0	224395264	48	6231
2026-01-01 15:49:50.71	16.98	12.55	-37.9	-38.9	22.9	0.00e+00	0	39	0	226492416	48	6321
2026-01-01 15:49:51.72	16.92	12.64	-37.9	-38.8	23.0	0.00e+00	0	39	0	228589568	48	6304
2026-01-01 15:49:52.73	16.86	12.73	-38.0	-38.9	23.0	0.00e+00	0	39	0	230686720	48	6353
2026-01-01 15:49:53.74	16.80	12.83	-37.9	-38.9	23.0	0.00e+00	18	39	0	231735296	48	6355
2026-01-01 15:49:54.74	16.74	12.92	-37.9	-38.8	23.0	0.00e+00	0	39	0	233832448	48	6279
2026-01-01 15:49:55.75	16.68	13.02	-37.8	-38.8	23.0	0.00e+00	92	39	0	235929600	48	6251
2026-01-01 15:49:56.76	16.62	13.11	-37.9	-38.8	23.1	0.00e+00	0	39	0	238026752	48	6290
2026-01-01 15:49:57.77	16.56	13.20	-37.7	-38.6	23.2	0.00e+00	0	39	0	240123904	48	6171
2026-01-01 15:49:58.78	16.50	13.30	-37.8	-38.8	23.1	0.00e+00	0	39	0	241172480	48	6251
2026-01-01 15:49:59.79	16.44	13.40	-37.9	-38.9	22.9	0.00e+00	0	39	0	243269632	48	6321
2026-01-01 15:50:00.80	16.38	13.49	-37.8	-38.7	23.1	0.00e+00	17	39	0	245366784	48	6197
2026-01-01 15:50:01.81	16.31	13.59	-37.7	-38.6	23.2	0.00e+00	0	39	0	247463936	48	6151
2026-01-01 15:50:02.82	16.25	13.68	-37.9	-38.9	23.0	0.00e+00	92	39	0	249561088	48	6339
2026-01-01 15:50:03.83	16.19	13.78	-37.9	-38.9	23.0	0.00e+00	0	39	0	250609664	48	6334
2026-01-01 15:50:04.84	16.12	13.88	-37.9	-38.8	23.0	0.00e+00	63	39	0	252706816	48	6290
2026-01-01 15:50:05.85	16.06	13.98	-37.8	-38.7	23.0	0.00e+00	0	39	0	254803968	48	6216
2026-01-01 15:50:06.86	15.99	14.07	-37.8	-38.8	23.1	0.00e+00	0	39	0	256901120	48	6250
2026-01-01 15:50:07.87	15.93	14.17	-38.0	-39.0	22.9	0.00e+00	21	39	0	258998272	48	6409
2026-01-01 15:50:08.88	15.86	14.27	-38.0	-38.9	23.0	0.00e+00	0	39	0	260046848	48	6356
2026-01-01 15:50:09.89	15.80	14.37	-37.8	-38.7	23.1	0.00e+00	92	39	0	262144000	48	6216
2026-01-01 15:50:10.90	15.73	14.47	-37.6	-38.6	23.3	0.00e+00	0	39	0	264241152	48	6109
2026-01-01 15:50:11.91	15.66	14.57	-37.8	-38.7	23.1	0.00e+00	80	39	0	266338304	48	6237
2026-01-01 15:50:12.92	15.60	14.67	-37.8	-38.7	23.0	0.00e+00	0	39	0	268435456	48	6240
2026-01-01 15:50:13.93	15.53	14.77	-37.6	-38.5	23.3	0.00e+00	0	39	0	269484032	48	6086
2026-01-01 15:50:14.94	15.46	14.87	-37.6	-38.5	23.3	0.00e+00	20	39	0	271581184	48	6051
2026-01-01 15:50:15.95	15.39	14.97	-37.9	-38.8	23.1	0.00e+00	0	39	0	273678336	48	6315
2026-01-01 15:50:16.96	15.32	15.07	-37.9	-38.8	23.1	0.00e+00	84	39	0	275775488	48	6303
2026-01-01 15:50:17.97	15.25	15.18	-37.6	-38.6	23.4	0.00e+00	0	39	0	277872640	48	6110
2026-01-01 15:50:18.98	15.18	15.28	-37.7	-38.7	23.3	0.00e+00	79	39	0	278921216	48	6177
2026-01-01 15:50:19.99	15.11	15.38	-37.7	-38.6	23.2	0.00e+00	0	39	0	281018368	48	6145
2026-01-01 15:50:21.00	15.04	15.48	-37.6	-38.5	23.2	0.00e+00	0	39	0	283115520	48	6099
2026-01-01 15:50:22.01	14.97	15.59	-37.7	-38.6	23.2	0.00e+00	0	39	0	285212672	48	6123
2026-01-01 15:50:23.02	14.89	15.69	-37.8	-38.7	23.2	0.00e+00	0	39	0	287309824	48	6240
2026-01-01 15:50:24.03	14.82	15.80	-37.7	-38.6	23.2	0.00e+00	52	39	0	288358400	48	6161
2026-01-01 15:50:25.04	14.75	15.90	-37.6	-38.6	23.2	0.00e+00	0	39	0	290455552	48	6118
2026-01-01 15:50:26.05	14.67	16.01	-37.7	-38.6	23.3	0.00e+00	40	39	0	292552704	48	6154
2026-01-01 15:50:27.06	14.60	16.11	-37.6	-38.5	23.4	0.00e+00	0	39	0	294649856	48	6083
2026-01-01 15:50:28.07	14.52	16.22	-37.7	-38.6	23.3	0.00e+00	0	39	0	296747008	48	6167
2026-01-01 15:50:29.08	14.45	16.32	-38.0	-38.9	23.0	0.00e+00	0	39	0	298844160	48	6388
2026-01-01 15:50:30.09	14.37	16.43	-38.0	-38.9	23.1	0.00e+00	0	39	0	299892736	48	6376
2026-01-01 15:50:31.10	14.29	16.54	-37.8	-38.7	23.2	0.00e+00	79	39	0	301989888	48	6226
2026-01-01 15:50:32.11	14.21	16.64	-38.1	-39.1	23.1	0.00e+00	0	39	0	304087040	48	6483
2026-01-01 15:50:33.12	14.14	16.75	-38.0	-38.9	23.0	0.00e+00	80	39	0	306184192	48	6368
2026-01-01 15:50:34.12	14.06	16.86	-37.9	-38.8	23.2	0.00e+00	0	39	0	308281344	48	6284
2026-01-01 15:50:35.13	13.98	16.97	-38.2	-39.2	22.7	0.00e+00	0	39	0	309329920	48	6583
2026-01-01 15:50:36.14	13.90	17.08	-38.3	-39.3	22.7	0.00e+00	0	39	0	311427072	48	6673
2026-01-01 15:50:37.15	13.82	17.19	-38.7	-39.7	22.3	0.00e+00	18	39	0	313524224	48	6973
2026-01-01 15:50:38.16	13.74	17.30	-38.7	-39.7	22.5	0.00e+00	22	39	0	315621376	50	6233
2026-01-01 15:50:39.17	13.66	17.41	-38.6	-39.6	22.6	0.00e+00	0	39	0	317718528	50	6120
2026-01-01 15:50:40.18	13.57	17.52	-38.4	-39.4	22.7	0.00e+00	92	39	0	318767104	50	5973
2026-01-01 15:50:41.19	13.49	17.63	-38.1	-39.1	22.9	0.00e+00	0	39	0	320864256	50	5788
2026-01-01 15:50:42.20	13.41	17.74	-38.0	-38.9	23.2	0.00e+00	92	39	0	322961408	50	5657
2026-01-01 15:50:43.21	13.32	17.86	-38.1	-39.0	23.3	0.00e+00	0	39	0	325058560	50	5745
2026-01-01 15:50:44.22	13.24	17.97	-38.0	-38.9	23.0	0.00e+00	13	39	0	327155712	50	5691
2026-01-01 15:50:45.22	13.15	18.08	-38.0	-39.0	23.0	0.00e+00	0	39	0	328204288	50	5708
2026-01-01 15:50:46.24	13.06	18.20	-37.9	-38.8	23.1	0.00e+00	0	39	0	330301440	50	5614
2026-01-01 15:50:47.25	12.98	18.31	-37.6	-38.5	23.4	0.00e+00	90	39	0	332398592	48	6095
2026-01-01 15:50:48.25	12.89	18.42	-37.7	-38.6	23.2	0.00e+00	0	39	0	334495744	48	6144
2026-01-01 15:50:49.26	12.80	18.54	-37.7	-38.6	23.3	0.00e+00	90	39	0	336592896	48	6127
2026-01-01 15:50:50.27	12.71	18.65	-37.8	-38.7	23.2	0.00e+00	0	39	0	337641472	48	6192
2026-01-01 15:50:51.28	12.62	18.77	-37.8	-38.7	23.3	0.00e+00	0	39	0	339738624	48	6176
2026-01-01 15:50:52.29	12.53	18.89	-37.7	-38.6	23.3	0.00e+00	0	39	0	341835776	48	6132
2026-01-01 15:50:53.30	12.44	19.00	-38.0	-38.9	23.1	0.00e+00	0	39	0	343932928	48	6371
2026-01-01 15:50:54.31	12.35	19.12	-38.2	-39.1	22.9	0.00e+00	92	39	0	346030080	48	6502
2026-01-01 15:50:55.32	12.26	19.24	-38.2	-39.2	22.8	0.00e+00	0	39	0	347078656	48	6571
2026-01-01 15:50:56.33	12.16	19.36	-38.4	-39.4	22.8	0.00e+00	92	39	0	349175808	48	6762
2026-01-01 15:50:57.34	12.07	19.48	-38.6	-39.6	22.6	0.00e+00	0	39	0	351272960	48	6853
2026-01-01 15:50:58.35	11.97	19.60	-38.6	-39.6	22.6	0.00e+00	0	39	0	353370112	48	6863
2026-01-01 15:50:59.36	11.88	19.72	-38.6	-39.6	22.6	0.00e+00	0	39	0	355467264	50	6115
2026-01-01 15:51:00.37	11.78	19.84	-38.9	-39.9	22.4	0.00e+00	0	39	0	356515840	50	6356
2026-01-01 15:51:01.38	11.68	19.96	-39.1	-40.1	22.2	0.00e+00	18	39	0	358612992	50	6500
2026-01-01 15:51:02.39	11.59	20.08	-38.7	-39.7	22.6	0.00e+00	0	39	0	360710144	50	6204
2026-01-01 15:51:03.40	11.49	20.20	-38.8	-39.8	22.4	0.00e+00	66	39	0	362807296	50	6313
2026-01-01 15:51:04.41	11.39	20.32	-38.9	-40.0	22.3	0.00e+00	0	39	0	364904448	50	6404
2026-01-01 15:51:05.42	11.29	20.44	-38.9	-39.9	22.5	0.00e+00	0	39	0	367001600	50	6361
2026-01-01 15:51:06.43	11.19	20.57	-38.7	-39.7	22.5	0.00e+00	0	39	0	368050176	50	6229
2026-01-01 15:51:07.44	11.08	20.69	-38.8	-39.8	22.5	0.00e+00	0	39	0	370147328	50	6310
2026-01-01 15:51:08.45	10.98	20.82	-38.6	-39.5	22.6	0.00e+00	52	39	0	372244480	50	6100
2026-01-01 15:51:09.46	10.88	20.94	-38.6	-39.6	22.7	0.00e+00	0	39	0	374341632	50	6104
2026-01-01 15:51:10.47	10.77	21.07	-38.4	-39.4	22.6	0.00e+00	92	39	0	376438784	50	6022
2026-01-01 15:51:11.48	10.66	21.19	-38.7	-39.7	22.8	0.00e+00	0	39	0	377487360	50	6221
2026-01-01 15:51:12.49	10.56	21.32	-38.6	-39.6	22.7	0.00e+00	0	39	0	379584512	50	6160
2026-01-01 15:51:13.50	10.45	21.45	-38.8	-39.8	22.5	0.00e+00	0	39	0	381681664	50	6284
2026-01-01 15:51:14.51	10.34	21.57	-38.6	-39.6	22.7	0.00e+00	0	39	0	383778816	50	6106
2026-01-01 15:51:15.52	10.23	21.70	-38.7	-39.7	22.6	0.00e+00	16	39	0	385875968	50	6221
2026-01-01 15:51:16.53	10.12	21.83	-38.8	-39.8	22.6	0.00e+00	0	39	0	386924544	50	6266
2026-01-01 15:51:17.54	10.01	21.96	-39.0	-40.0	22.3	0.00e+00	81	39	0	389021696	50	6448
2026-01-01 15:51:18.55	9.90	22.09	-39.0	-40.0	22.3	0.00e+00	0	39	0	391118848	50	6422
2026-01-01 15:51:19.56	9.78	22.22	-38.6	-39.6	22.7	0.00e+00	92	39	0	393216000	50	6136
2026-01-01 15:51:20.57	9.67	22.35	-38.4	-39.4	22.8	0.00e+00	0	39	0	395313152	50	5999
2026-01-01 15:51:21.58	9.56	22.48	-38.6	-39.6	22.6	0.00e+00	0	39	0	396361728	50	6110
2026-01-01 15:51:22.59	9.44	22.61	-38.4	-39.4	22.8	0.00e+00	7	39	0	398458880	50	6005
2026-01-01 15:51:23.60	9.32	22.75	-38.4	-39.4	22.7	0.00e+00	0	39	0	400556032	50	5973
2026-01-01 15:51:24.61	9.20	22.88	-38.5	-39.4	22.7	0.00e+00	92	39	0	402653184	50	6025
2026-01-01 15:51:25.61	9.08	23.01	-38.7	-39.7	22.5	0.00e+00	0	39	0	404750336	50	6179
2026-01-01 15:51:26.62	8.96	23.15	-38.6	-39.5	22.7	0.00e+00	26	39	0	405798912	50	6090
2026-01-01 15:51:27.63	8.84	23.28	-38.6	-39.6	22.8	0.00e+00	0	39	0	407896064	50	6131
2026-01-01 15:51:28.64	8.72	23.42	-38.8	-39.8	22.4	0.00e+00	0	39	0	409993216	50	6287
2026-01-01 15:51:29.65	8.60	23.55	-39.1	-40.1	22.4	0.00e+00	0	39	0	412090368	50	6474
2026-01-01 15:51:30.66	8.47	23.69	-38.8	-39.8	22.3	0.00e+00	0	39	0	414187520	50	6261
2026-01-01 15:51:31.67	8.35	23.82	-39.1	-40.1	22.2	0.00e+00	17	39	0	415236096	50	6502
2026-01-01 15:51:32.68	8.22	23.96	-39.3	-40.3	22.0	0.00e+00	0	39	0	417333248	50	6663
2026-01-01 15:51:33.69	8.09	24.10	-39.1	-40.1	22.3	0.00e+00	90	39	0	419430400	50	6530
2026-01-01 15:51:34.70	7.96	24.24	-39.3	-40.4	22.1	0.00e+00	0	39	0	421527552	50	6707
2026-01-01 15:51:35.71	7.83	24.38	-39.1	-40.1	22.3	0.00e+00	0	39	0	423624704	50	6507
2026-01-01 15:51:36.72	7.70	24.52	-39.4	-40.4	22.0	0.00e+00	0	39	0	424673280	50	6762
2026-01-01 15:51:37.73	7.57	24.66	-39.5	-40.5	22.0	0.00e+00	0	39	0	426770432	50	6845
2026-01-01 15:51:38.74	7.43	24.80	-39.4	-40.5	22.0	0.00e+00	83	39	0	428867584	50	6838
2026-01-01 15:51:39.75	7.30	24.94	-39.6	-40.7	21.8	0.00e+00	12	39	0	430964736	50	6989
2026-01-01 15:51:40.76	7.16	25.08	-39.6	-40.7	21.7	0.00e+00	92	39	0	433061888	50	7007
2026-01-01 15:51:41.76	7.02	25.22	-39.7	-40.8	21.7	0.00e+00	0	39	0	434110464	52	6296
2026-01-01 15:51:42.77	6.88	25.37	-39.8	-41.0	21.5	0.00e+00	0	39	0	436207616	52	6413
2026-01-01 15:51:43.78	6.74	25.51	-40.0	-41.1	21.6	0.00e+00	0	39	0	438304768	52	6519
2026-01-01 15:51:44.79	6.60	25.65	-40.0	-41.1	21.4	0.00e+00	0	39	0	440401920	52	6536
2026-01-01 15:51:45.80	6.46	25.80	-40.1	-41.2	21.5	0.00e+00	53	39	0	442499072	52	6600
2026-01-01 15:51:46.81	6.31	25.95	-40.1	-41.3	21.2	0.00e+00	0	39	0	443547648	52	6642
2026-01-01 15:51:47.82	6.17	26.09	-39.7	-40.8	21.8	0.00e+00	92	39	0	445644800	52	6286
2026-01-01 15:51:48.83	6.02	26.24	-39.8	-41.0	21.6	0.00e+00	22	39	0	447741952	52	6419
2026-01-01 15:51:49.84	5.87	26.39	-39.4	-40.5	22.1	0.00e+00	0	39	0	449839104	52	6060
2026-01-01 15:51:50.85	5.72	26.53	-39.2	-40.2	22.2	0.00e+00	0	39	0	451936256	52	5892
2026-01-01 15:51:51.86	5.57	26.68	-38.5	-39.4	22.9	0.00e+00	0	39	0	452984832	50	6015
2026-01-01 15:51:52.87	5.42	26.83	-38.7	-39.7	22.6	0.00e+00	24	39	0	455081984	50	6219
2026-01-01 15:51:53.88	5.26	26.98	-38.8	-39.7	22.6	0.00e+00	0	39	0	457179136	50	6240
2026-01-01 15:51:54.89	5.11	27.13	-38.8	-39.8	22.6	0.00e+00	62	39	0	459276288	50	6282
2026-01-01 15:51:55.90	4.95	27.28	-38.8	-39.8	22.5	0.00e+00	0	39	0	461373440	50	6296
2026-01-01 15:51:56.91	4.79	27.43	-39.1	-40.1	22.5	0.00e+00	48	39	0	463470592	50	6508
2026-01-01 15:51:57.92	4.63	27.59	-39.3	-40.4	22.1	0.00e+00	0	39	0	464519168	50	6703
2026-01-01 15:51:58.93	4.47	27.74	-39.5	-40.5	22.0	0.00e+00	0	39	0	466616320	50	6832
2026-01-01 15:51:59.94	4.30	27.89	-38.9	-39.9	22.3	0.00e+00	0	39	0	468713472	50	6326
2026-01-01 15:52:00.95	4.14	28.05	-39.1	-40.1	22.3	0.00e+00	0	39	0	470810624	50	6532
2026-01-01 15:52:01.96	3.97	28.20	-39.3	-40.3	22.0	0.00e+00	92	39	0	472907776	50	6686
2026-01-01 15:52:02.97	3.80	28.35	-39.1	-40.1	22.3	0.00e+00	0	39	0	473956352	50	6499
2026-01-01 15:52:03.97	3.63	28.51	-39.1	-40.1	22.3	0.00e+00	79	39	0	476053504	50	6527
2026-01-01 15:52:04.98	3.46	28.67	-38.8	-39.8	22.2	0.00e+00	0	39	0	478150656	50	6247
2026-01-01 15:52:05.99	3.29	28.82	-39.4	-40.4	21.9	0.00e+00	0	39	0	480247808	50	6750
2026-01-01 15:52:07.00	3.11	28.98	-39.1	-40.2	22.3	0.00e+00	0	39	0	482344960	50	6555
2026-01-01 15:52:08.01	2.93	29.14	-38.8	-39.8	22.3	0.00e+00	0	39	0	483393536	50	6267
2026-01-01 15:52:09.02	2.76	29.30	-39.3	-40.3	22.1	0.00e+00	0	39	0	485490688	50	6688
2026-01-01 15:52:10.03	2.57	29.45	-39.6	-40.7	21.8	0.00e+00	0	39	0	487587840	50	6952
2026-01-01 15:52:11.05	2.39	29.62	-39.9	-41.0	21.5	0.00e+00	37	39	0	489684992	52	6438
2026-01-01 15:52:12.05	2.21	29.77	-40.0	-41.2	21.5	0.00e+00	0	39	0	491782144	52	6547
2026-01-01 15:52:13.06	2.02	29.94	-39.5	-40.6	22.0	0.00e+00	0	39	0	492830720	52	6139
2026-01-01 15:52:14.07	1.83	30.10	-40.2	-41.4	21.4	0.00e+00	0	39	0	494927872	52	6701
2026-01-01 15:52:15.09	1.64	30.26	-39.7	-40.8	21.7	0.00e+00	0	39	0	497025024	52	6305
2026-01-01 15:52:16.10	1.45	30.42	-39.6	-40.7	21.6	0.00e+00	76	39	0	499122176	52	6218
2026-01-01 15:52:17.10	1.26	30.58	-39.6	-40.7	21.9	0.00e+00	0	39	0	501219328	52	6233
2026-01-01 15:52:18.11	1.06	30.75	-39.7	-40.8	21.7	0.00e+00	83	39	0	502267904	52	6273
2026-01-01 15:52:19.12	0.86	30.91	-40.3	-41.5	21.1	0.00e+00	0	39	0	504365056	52	6821
2026-01-01 15:52:20.13	0.66	31.08	-40.3	-41.5	21.2	0.00e+00	0	39	0	506462208	52	6810
2026-01-01 15:52:21.14	0.46	31.24	-40.0	-41.1	21.4	0.00e+00	22	39	0	508559360	52	6504
2026-01-01 15:52:22.15	0.25	31.41	-40.7	-41.9	21.1	0.00e+00	0	39	0	510656512	52	7139
2026-01-01 15:52:23.16	0.05	31.57	-40.5	-41.7	20.7	0.00e+00	22	39	0	511705088	52	6967
2026-01-01 15:52:24.17	359.84	31.74	-40.7	-42.0	20.7	0.00e+00	0	39	0	513802240	52	7214
2026-01-01 15:52:25.17	359.63	31.91	-40.4	-41.6	21.1	0.00e+00	92	39	0	515899392	52	6855
2026-01-01 15:52:26.18	359.42	32.07	-40.2	-41.4	21.3	0.00e+00	0	39	0	517996544	52	6732
2026-01-01 15:52:27.20	359.20	32.24	-40.2	-41.3	21.3	0.00e+00	49	39	0	520093696	52	6649
2026-01-01 15:52:28.20	358.98	32.41	-40.5	-41.6	21.1	0.00e+00	0	39	0	521142272	52	6920
2026-01-01 15:52:29.21	358.76	32.58	-40.5	-41.7	20.9	0.00e+00	0	39	0	523239424	54	6231
2026-01-01 15:52:30.22	358.54	32.75	-40.9	-42.2	20.4	0.00e+00	0	39	0	525336576	54	6556
2026-01-01 15:52:31.23	358.32	32.92	-41.5	-42.9	19.9	0.00e+00	19	39	0	527433728	54	7157
2026-01-01 15:52:32.24	358.09	33.09	-40.9	-42.2	20.6	0.00e+00	92	39	0	529530880	54	6560
2026-01-01 15:52:33.25	357.86	33.26	-40.6	-41.8	20.9	0.00e+00	0	39	0	531628032	54	6308
2026-01-01 15:52:34.26	357.63	33.43	-40.3	-41.5	21.4	0.00e+00	91	39	0	532676608	54	6077
2026-01-01 15:52:35.27	357.39	33.60	-40.2	-41.4	21.2	0.00e+00	0	39	0	534773760	54	5994
2026-01-01 15:52:36.28	357.15	33.78	-40.1	-41.2	21.6	0.00e+00	0	39	0	536870912	54	5858
2026-01-01 15:52:37.29	356.92	33.95	-39.8	-40.9	21.7	0.00e+00	0	39	0	538968064	54	5638
2026-01-01 15:52:38.30	356.67	34.12	-40.2	-41.3	21.1	0.00e+00	0	39	0	541065216	54	5956
2026-01-01 15:52:39.31	356.43	34.29	-40.7	-42.0	20.7	0.00e+00	23	39	0	542113792	54	6408
2026-01-01 15:52:40.32	356.18	34.47	-41.4	-42.8	19.7	0.00e+00	0	39	0	544210944	54	7057
2026-01-01 15:52:41.33	355.93	34.64	-41.6	-43.1	19.9	0.00e+00	92	39	0	546308096	56	6487
2026-01-01 15:52:42.34	355.68	34.82	-41.0	-42.2	20.6	0.00e+00	0	39	0	548405248	56	5877
2026-01-01 15:52:43.35	355.42	34.99	-41.1	-42.4	20.5	0.00e+00	0	39	0	550502400	56	5972
2026-01-01 15:52:44.36	355.16	35.17	-40.4	-41.6	21.1	0.00e+00	0	39	0	551550976	54	6137
2026-01-01 15:52:45.36	354.90	35.34	-40.4	-41.6	21.2	0.00e+00	0	39	0	553648128	54	6128
2026-01-01 15:52:46.37	354.64	35.52	-40.3	-41.5	21.0	0.00e+00	92	39	0	555745280	54	6071
2026-01-01 15:52:47.38	354.37	35.69	-40.4	-41.6	21.3	0.00e+00	0	39	0	557842432	54	6137
2026-01-01 15:52:48.40	354.10	35.87	-40.6	-41.8	20.8	0.00e+00	73	39	0	559939584	54	6294
2026-01-01 15:52:49.40	353.83	36.04	-40.6	-41.9	20.8	0.00e+00	0	39	0	560988160	54	6334
2026-01-01 15:52:50.41	353.55	36.22	-41.3	-42.7	20.0	0.00e+00	0	39	0	563085312	54	6941
2026-01-01 15:52:51.42	353.27	36.40	-41.0	-42.3	20.4	0.00e+00	0	39	0	565182464	54	6643
2026-01-01 15:52:52.43	352.99	36.58	-40.9	-42.3	20.6	0.00e+00	0	39	0	567279616	54	6632
2026-01-01 15:52:53.44	352.71	36.75	-40.9	-42.2	20.5	0.00e+00	69	39	0	569376768	54	6577
2026-01-01 15:52:54.45	352.42	36.93	-41.7	-43.2	19.5	0.00e+00	0	39	0	570425344	54	7348
2026-01-01 15:52:55.46	352.13	37.11	-41.9	-43.4	19.6	0.00e+00	92	39	0	572522496	56	6743
2026-01-01 15:52:56.47	351.83	37.28	-41.9	-43.4	19.4	0.00e+00	0	40	0	574619648	56	6720
2026-01-01 15:52:57.49	351.53	37.46	-42.1	-43.6	19.4	0.00e+00	0	39	0	576716800	56	6873
2026-01-01 15:52:58.49	351.23	37.64	-40.8	-42.0	20.7	0.00e+00	0	39	0	578813952	56	5739
2026-01-01 15:52:59.50	350.93	37.82	-40.0	-41.1	21.5	0.00e+00	0	40	0	579862528	54	5765
2026-01-01 15:53:00.52	350.62	38.00	-39.6	-40.6	22.0	0.00e+00	19	39	0	581959680	52	6167
2026-01-01 15:53:01.52	350.31	38.17	-39.2	-40.2	22.3	0.00e+00	0	39	0	584056832	52	5848
2026-01-01 15:53:02.53	349.99	38.35	-39.5	-40.6	21.9	0.00e+00	92	39	0	586153984	52	6107
2026-01-01 15:53:03.54	349.68	38.53	-40.0	-41.1	21.6	0.00e+00	0	39	0	588251136	52	6512
2026-01-01 15:53:04.55	349.35	38.71	-40.4	-41.6	21.3	0.00e+00	0	40	0	589299712	52	6866
2026-01-01 15:53:05.56	349.03	38.88	-40.1	-41.2	21.2	0.00e+00	0	39	0	591396864	52	6601
2026-01-01 15:53:06.57	348.70	39.06	-40.3	-41.5	20.7	0.00e+00	0	40	0	593494016	52	6834
2026-01-01 15:53:07.58	348.37	39.24	-40.4	-41.6	21.2	0.00e+00	20	39	0	595591168	52	6870
2026-01-01 15:53:08.59	348.03	39.41	-40.1	-41.2	21.5	0.00e+00	0	39	0	597688320	52	6600
2026-01-01 15:53:09.60	347.69	39.59	-39.8	-40.8	21.5	0.00e+00	18	40	0	599785472	52	6313
2026-01-01 15:53:10.61	347.35	39.77	-39.4	-40.4	22.1	0.00e+00	0	39	0	600834048	52	5985
2026-01-01 15:53:11.62	347.00	39.94	-39.3	-40.3	22.3	0.00e+00	31	39	0	602931200	52	5951
2026-01-01 15:53:12.63	346.65	40.12	-39.1	-40.1	22.4	0.00e+00	0	39	0	605028352	52	5790
2026-01-01 15:53:13.64	346.29	40.29	-39.9	-40.9	21.8	0.00e+00	0	39	0	607125504	52	6371
2026-01-01 15:53:14.64	345.93	40.47	-39.8	-40.9	21.7	0.00e+00	0	39	0	609222656	52	6327
2026-01-01 15:53:15.65	345.57	40.64	-40.0	-41.0	21.5	0.00e+00	0	39	0	610271232	52	6445
2026-01-01 15:53:16.66	345.20	40.81	-40.0	-41.1	21.5	0.00e+00	73	40	0	612368384	52	6507
2026-01-01 15:53:17.67	344.83	40.99	-39.8	-40.9	21.7	0.00e+00	0	39	0	614465536	52	6339
2026-01-01 15:53:18.68	344.46	41.16	-39.8	-40.9	21.8	0.00e+00	92	40	0	616562688	52	6334
2026-01-01 15:53:19.69	344.08	41.33	-40.5	-41.7	21.0	0.00e+00	0	39	0	618659840	52	6964
2026-01-01 15:53:20.70	343.70	41.50	-41.0	-42.3	20.5	0.00e+00	0	39	0	619708416	54	6679
2026-01-01 15:53:21.71	343.31	41.68	-41.5	-42.9	19.9	0.00e+00	0	39	0	621805568	54	7137
2026-01-01 15:53:22.72	342.92	41.85	-41.5	-42.9	20.1	0.00e+00	0	39	0	623902720	56	6378
2026-01-01 15:53:23.73	342.52	42.01	-41.3	-42.7	20.1	0.00e+00	47	39	0	625999872	56	6192
2026-01-01 15:53:24.74	342.12	42.18	-40.9	-42.2	20.7	0.00e+00	0	39	0	628097024	56	5874
2026-01-01 15:53:25.75	341.72	42.35	-39.9	-41.0	21.7	0.00e+00	43	39	0	629145600	54	5747
2026-01-01 15:53:26.76	341.31	42.52	-39.5	-40.5	22.0	0.00e+00	0	39	0	631242752	52	6088
2026-01-01 15:53:27.77	340.89	42.68	-38.9	-39.9	22.6	0.00e+00	0	40	0	633339904	52	5648
2026-01-01 15:53:28.78	340.48	42.85	-39.5	-40.5	22.0	0.00e+00	0	39	0	635437056	52	6076
2026-01-01 15:53:29.79	340.06	43.01	-40.3	-41.5	21.2	0.00e+00	0	39	0	637534208	52	6797
2026-01-01 15:53:30.80	339.63	43.18	-41.0	-42.3	20.5	0.00e+00	20	39	0	638582784	54	6667
2026-01-01 15:53:31.81	339.20	43.34	-40.8	-42.1	20.5	0.00e+00	0	39	0	640679936	54	6487
2026-01-01 15:53:32.82	338.77	43.50	-41.3	-42.6	20.1	0.00e+00	92	40	0	642777088	54	6919
2026-01-01 15:53:33.83	338.33	43.66	-41.7	-43.2	19.6	0.00e+00	0	39	0	644874240	54	7397
2026-01-01 15:53:34.84	337.88	43.82	-42.0	-43.6	19.2	0.00e+00	0	39	0	646971392	56	6895
2026-01-01 15:53:35.85	337.44	43.97	-41.5	-43.0	20.0	0.00e+00	0	39	0	648019968	56	6439
2026-01-01 15:53:36.86	336.98	44.13	-40.0	-41.2	21.5	0.00e+00	0	39	0	650117120	54	5859
2026-01-01 15:53:37.87	336.53	44.28	-39.4	-40.5	22.2	0.00e+00	27	39	0	652214272	52	6078
2026-01-01 15:53:38.88	336.06	44.44	-38.8	-39.9	22.5	0.00e+00	0	40	0	654311424	52	5647
2026-01-01 15:53:39.89	335.60	44.59	-38.5	-39.5	22.8	0.00e+00	53	39	0	656408576	50	6064
2026-01-01 15:53:40.90	335.13	44.74	-38.0	-38.9	23.3	0.00e+00	0	39	0	657457152	50	5680
2026-01-01 15:53:41.90	334.66	44.89	-37.7	-38.5	23.8	0.00e+00	17	39	0	659554304	48	6077
2026-01-01 15:53:42.92	334.18	45.03	-37.2	-38.0	23.9	0.00e+00	0	39	0	661651456	48	5761
2026-01-01 15:53:43.93	333.69	45.18	-37.7	-38.6	23.4	0.00e+00	0	39	0	663748608	48	6147
2026-01-01 15:53:44.94	333.20	45.32	-38.8	-39.8	22.7	0.00e+00	0	39	0	665845760	48	7015
2026-01-01 15:53:45.94	332.72	45.46	-39.2	-40.3	22.1	0.00e+00	0	39	0	667942912	50	6621
2026-01-01 15:53:46.95	332.22	45.60	-39.8	-40.9	21.5	0.00e+00	91	39	0	668991488	52	6384
2026-01-01 15:53:47.96	331.72	45.74	-39.7	-40.9	21.7	0.00e+00	0	39	0	671088640	52	6381
2026-01-01 15:53:48.98	331.21	45.87	-40.0	-41.3	21.3	0.00e+00	77	40	0	673185792	52	6658
2026-01-01 15:53:49.98	330.70	46.01	-39.8	-40.9	21.7	0.00e+00	0	40	0	675282944	52	6376
2026-01-01 15:53:50.99	330.19	46.14	-39.6	-40.7	21.9	0.00e+00	0	39	0	677380096	52	6193
2026-01-01 15:53:52.00	329.67	46.27	-39.6	-40.7	21.8	0.00e+00	0	39	0	678428672	52	6215
2026-01-01 15:53:53.01	329.15	46.39	-39.6	-40.7	21.9	0.00e+00	0	39	0	680525824	52	6197
2026-01-01 15:53:54.02	328.62	46.52	-39.2	-40.2	22.0	0.00e+00	86	39	0	682622976	52	5892
2026-01-01 15:53:55.03	328.09	46.64	-39.2	-40.2	22.2	0.00e+00	0	39	0	684720128	52	5862
2026-01-01 15:53:56.04	327.55	46.76	-39.2	-40.2	22.3	0.00e+00	92	39	0	686817280	52	5875
2026-01-01 15:53:57.05	327.01	46.88	-38.6	-39.5	22.9	0.00e+00	0	39	0	687865856	50	6080
2026-01-01 15:53:58.06	326.47	46.99	-38.5	-39.4	22.9	0.00e+00	0	39	0	689963008	50	6001
2026-01-01 15:53:59.07	325.92	47.10	-38.4	-39.3	22.9	0.00e+00	0	39	0	692060160	50	5909
2026-01-01 15:54:00.08	325.37	47.21	-39.1	-40.1	22.3	0.00e+00	0	39	0	694157312	50	6522
2026-01-01 15:54:01.09	324.82	47.32	-39.7	-40.8	21.9	0.00e+00	10	39	0	696254464	50	7048
2026-01-01 15:54:02.10	324.26	47.43	-40.4	-41.6	21.3	0.00e+00	0	40	0	697303040	52	6910
2026-01-01 15:54:03.11	323.69	47.53	-41.1	-42.4	20.5	0.00e+00	55	39	0	699400192	54	6750
2026-01-01 15:54:04.12	323.13	47.63	-42.3	-44.0	19.0	0.00e+00	0	39	0	701497344	56	7208
2026-01-01 15:54:05.13	322.56	47.72	-43.9	-46.3	16.5	0.00e+00	0	39	0	703594496	60	7478
2026-01-01 15:54:06.14	321.98	47.82	-44.4	-47.2	16.1	0.00e+00	26	39	0	705691648	60	8235
2026-01-01 15:54:07.15	321.41	47.91	-43.5	-45.7	17.4	0.00e+00	0	39	0	706740224	60	6971
2026-01-01 15:54:08.16	320.83	47.99	-42.1	-43.8	19.1	0.00e+00	27	39	0	708837376	58	6307
2026-01-01 15:54:09.17	320.24	48.08	-41.9	-43.6	19.3	0.00e+00	0	40	0	710934528	58	6169
2026-01-01 15:54:10.18	319.66	48.16	-41.8	-43.4	19.3	0.00e+00	90	39	0	713031680	56	6769
2026-01-01 15:54:11.19	319.07	48.24	-41.6	-43.1	20.1	0.00e+00	5	39	0	715128832	56	6487
2026-01-01 15:54:12.19	318.48	48.31	-41.1	-42.4	20.5	0.00e+00	41	39	0	716177408	56	6015
2026-01-01 15:54:13.20	317.88	48.38	-41.2	-42.5	20.4	0.00e+00	0	39	0	718274560	56	6075
2026-01-01 15:54:14.21	317.29	48.45	-40.6	-41.8	20.8	0.00e+00	0	39	0	720371712	54	6317
2026-01-01 15:54:15.22	316.68	48.52	-40.2	-41.4	21.7	0.00e+00	26	39	0	722468864	54	5967
2026-01-01 15:54:16.23	316.08	48.58	-39.5	-40.5	21.9	0.00e+00	0	39	0	724566016	52	6091
2026-01-01 15:54:17.24	315.48	48.64	-39.8	-40.9	21.7	0.00e+00	91	39	0	725614592	52	6354
2026-01-01 15:54:18.25	314.87	48.69	-39.9	-41.1	21.3	0.00e+00	4	39	0	727711744	52	6471
2026-01-01 15:54:19.26	314.26	48.74	-40.5	-41.8	20.9	0.00e+00	49	39	0	729808896	52	7035
2026-01-01 15:54:20.27	313.64	48.79	-39.4	-40.5	22.1	0.00e+00	0	39	0	731906048	52	6061
2026-01-01 15:54:21.28	313.03	48.83	-38.9	-39.9	22.5	0.00e+00	0	39	0	734003200	52	5672
2026-01-01 15:54:22.29	312.42	48.88	-38.7	-39.7	22.5	0.00e+00	0	39	0	736100352	50	6224
2026-01-01 15:54:23.30	311.80	48.91	-39.1	-40.1	22.3	0.00e+00	0	39	0	737148928	50	6482
2026-01-01 15:54:24.31	311.18	48.95	-38.6	-39.6	22.7	0.00e+00	22	39	0	739246080	50	6151
2026-01-01 15:54:25.32	310.56	48.98	-38.2	-39.1	23.2	0.00e+00	0	39	0	741343232	50	5820
2026-01-01 15:54:26.33	309.94	49.00	-37.8	-38.7	23.6	0.00e+00	92	39	0	743440384	50	5530
2026-01-01 15:54:27.34	309.31	49.03	-37.6	-38.5	23.8	0.00e+00	0	39	0	745537536	48	6067
2026-01-01 15:54:28.35	308.69	49.05	-37.0	-37.8	24.2	0.00e+00	0	39	0	746586112	48	5618
2026-01-01 15:54:29.35	308.07	49.06	-36.8	-37.6	24.1	0.00e+00	0	39	0	748683264	46	6156
2026-01-01 15:54:30.36	307.45	49.07	-37.1	-37.9	24.0	0.00e+00	0	39	0	750780416	46	6372
2026-01-01 15:54:31.37	306.82	49.08	-38.1	-39.0	23.1	0.00e+00	92	39	0	752877568	48	6401
2026-01-01 15:54:32.38	306.20	49.09	-38.8	-39.8	22.6	0.00e+00	0	39	0	754974720	50	6292
2026-01-01 15:54:33.39	305.57	49.09	-38.9	-39.9	22.4	0.00e+00	92	39	0	756023296	50	6357
2026-01-01 15:54:34.40	304.95	49.09	-39.5	-40.6	21.8	0.00e+00	0	39	0	758120448	50	6900
2026-01-01 15:54:35.41	304.32	49.08	-40.4	-41.6	21.2	0.00e+00	0	39	0	760217600	52	6920
2026-01-01 15:54:36.42	303.70	49.07	-39.2	-40.3	22.3	0.00e+00	0	39	0	762314752	52	5897
2026-01-01 15:54:37.43	303.07	49.06	-38.9	-39.9	22.6	0.00e+00	0	39	0	764411904	50	6326
2026-01-01 15:54:38.44	302.45	49.04	-39.2	-40.3	22.2	0.00e+00	79	39	0	765460480	50	6627
2026-01-01 15:54:39.45	301.83	49.02	-39.7	-40.8	21.8	0.00e+00	0	39	0	767557632	50	7088
2026-01-01 15:54:40.46	301.20	48.99	-39.5	-40.6	22.1	0.00e+00	92	39	0	769654784	52	6132
2026-01-01 15:54:41.47	300.58	48.97	-39.0	-39.9	22.2	0.00e+00	0	39	0	771751936	52	5695
2026-01-01 15:54:42.48	299.96	48.94	-38.3	-39.2	22.9	0.00e+00	0	39	0	773849088	50	5852
2026-01-01 15:54:43.49	299.35	48.90	-37.8	-38.6	23.5	0.00e+00	0	39	0	774897664	50	5483
2026-01-01 15:54:44.50	298.73	48.86	-37.7	-38.6	23.6	0.00e+00	0	39	0	776994816	48	6138
2026-01-01 15:54:45.51	298.11	48.82	-37.7	-38.5	23.6	0.00e+00	18	39	0	779091968	48	6085
2026-01-01 15:54:46.52	297.50	48.77	-37.4	-38.3	23.8	0.00e+00	0	39	0	781189120	48	5908
2026-01-01 15:54:47.53	296.89	48.72	-37.2	-38.0	24.0	0.00e+00	90	39	0	783286272	48	5753
2026-01-01 15:54:48.54	296.28	48.67	-37.6	-38.5	23.7	0.00e+00	0	39	0	784334848	48	6076
2026-01-01 15:54:49.55	295.67	48.61	-38.5	-39.5	22.6	0.00e+00	57	39	0	786432000	48	6779
2026-01-01 15:54:50.55	295.07	48.56	-39.3	-40.3	22.1	0.00e+00	0	39	0	788529152	50	6644
2026-01-01 15:54:51.56	294.47	48.49	-39.3	-40.4	22.3	0.00e+00	0	39	0	790626304	50	6715
2026-01-01 15:54:52.57	293.87	48.43	-40.0	-41.1	21.5	0.00e+00	20	39	0	792723456	52	6514
2026-01-01 15:54:53.58	293.27	48.36	-40.2	-41.4	21.1	0.00e+00	0	39	0	793772032	52	6755
2026-01-01 15:54:54.59	292.67	48.28	-39.7	-40.8	21.8	0.00e+00	92	39	0	795869184	52	6293
2026-01-01 15:54:55.60	292.08	48.21	-39.0	-39.9	22.5	0.00e+00	0	39	0	797966336	52	5684
2026-01-01 15:54:56.61	291.49	48.13	-38.9	-39.9	22.5	0.00e+00	85	39	0	800063488	50	6360
2026-01-01 15:54:57.62	290.91	48.05	-39.6	-40.7	21.8	0.00e+00	0	39	0	802160640	50	6931
2026-01-01 15:54:58.63	290.32	47.96	-40.9	-42.3	20.6	0.00e+00	0	39	0	804257792	54	6625
2026-01-01 15:54:59.64	289.74	47.87	-40.4	-41.6	21.1	0.00e+00	21	39	0	805306368	54	6172
2026-01-01 15:55:00.65	289.17	47.78	-39.9	-41.0	21.6	0.00e+00	0	39	0	807403520	54	5742
2026-01-01 15:55:01.66	288.59	47.69	-39.5	-40.5	22.0	0.00e+00	21	39	0	809500672	52	6090
2026-01-01 15:55:02.67	288.02	47.59	-39.6	-40.7	22.0	0.00e+00	0	39	0	811597824	52	6216
2026-01-01 15:55:03.68	287.46	47.49	-38.8	-39.8	22.8	0.00e+00	92	39	0	813694976	52	5599
2026-01-01 15:55:04.69	286.90	47.39	-39.1	-40.0	22.5	0.00e+00	0	39	0	814743552	50	6462
2026-01-01 15:55:05.70	286.34	47.28	-38.9	-39.9	22.4	0.00e+00	0	39	0	816840704	50	6348
2026-01-01 15:55:06.71	285.78	47.17	-39.8	-40.9	21.9	0.00e+00	0	39	0	818937856	52	6364
2026-01-01 15:55:07.71	285.24	47.06	-40.4	-41.6	20.9	0.00e+00	0	39	0	821035008	52	6900
2026-01-01 15:55:08.72	284.69	46.95	-41.1	-42.4	20.5	0.00e+00	59	39	0	823132160	54	6711
2026-01-01 15:55:09.74	284.14	46.83	-40.2	-41.3	21.5	0.00e+00	0	39	0	824180736	54	5913
2026-01-01 15:55:10.75	283.60	46.71	-39.6	-40.6	22.1	0.00e+00	92	39	0	826277888	52	6136
2026-01-01 15:55:11.75	283.08	46.59	-39.0	-39.9	22.7	0.00e+00	0	39	0	828375040	52	5678
2026-01-01 15:55:12.76	282.54	46.47	-38.4	-39.3	22.9	0.00e+00	0	39	0	830472192	50	5917
2026-01-01 15:55:13.77	282.02	46.34	-38.3	-39.1	23.1	0.00e+00	0	39	0	832569344	50	5811
2026-01-01 15:55:14.78	281.50	46.22	-38.6	-39.6	22.8	0.00e+00	0	39	0	833617920	50	6116
2026-01-01 15:55:15.79	280.98	46.09	-39.4	-40.5	22.1	0.00e+00	63	39	0	835715072	50	6770
2026-01-01 15:55:16.80	280.47	45.95	-39.9	-41.0	21.5	0.00e+00	0	39	0	837812224	52	6460
2026-01-01 15:55:17.81	279.96	45.82	-40.2	-41.4	21.4	0.00e+00	78	39	0	839909376	52	6712
2026-01-01 15:55:18.82	279.45	45.68	-40.4	-41.5	21.1	0.00e+00	0	39	0	842006528	52	6848
2026-01-01 15:55:19.83	278.95	45.55	-40.2	-41.4	21.5	0.00e+00	0	39	0	843055104	52	6727
2026-01-01 15:55:20.84	278.46	45.41	-39.6	-40.7	22.1	0.00e+00	0	39	0	845152256	52	6192
2026-01-01 15:55:21.85	277.96	45.26	-39.5	-40.5	22.1	0.00e+00	0	39	0	847249408	52	6065
2026-01-01 15:55:22.86	277.48	45.12	-39.8	-41.0	21.7	0.00e+00	2	39	0	849346560	52	6394
2026-01-01 15:55:23.87	276.99	44.97	-39.4	-40.5	22.0	0.00e+00	0	39	0	851443712	52	6038
2026-01-01 15:55:24.88	276.52	44.83	-38.9	-39.9	22.5	0.00e+00	92	39	0	852492288	52	5687
2026-01-01 15:55:25.89	276.04	44.68	-38.3	-39.2	22.7	0.00e+00	0	39	0	854589440	50	5873
2026-01-01 15:55:26.90	275.57	44.53	-38.8	-39.8	22.6	0.00e+00	0	39	0	856686592	50	6271
2026-01-01 15:55:27.91	275.11	44.37	-38.3	-39.2	23.2	0.00e+00	0	39	0	858783744	50	5851
2026-01-01 15:55:28.92	274.65	44.22	-38.1	-39.0	23.2	0.00e+00	0	39	0	860880896	50	5727
2026-01-01 15:55:29.93	274.19	44.06	-38.0	-38.9	23.3	0.00e+00	25	39	0	861929472	50	5633
2026-01-01 15:55:30.93	273.74	43.91	-37.9	-38.8	23.4	0.00e+00	0	39	0	864026624	48	6258
2026-01-01 15:55:31.95	273.29	43.75	-38.1	-39.0	23.2	0.00e+00	92	39	0	866123776	48	6451
2026-01-01 15:55:32.96	272.85	43.59	-37.9	-38.7	23.1	0.00e+00	0	39	0	868220928	48	6244
2026-01-01 15:55:33.97	272.41	43.43	-37.5	-38.4	23.7	0.00e+00	92	39	0	870318080	48	5990
2026-01-01 15:55:34.98	271.98	43.27	-37.0	-37.7	23.9	0.00e+00	0	39	0	872415232	48	5562
2026-01-01 15:55:35.99	271.55	43.11	-37.2	-38.0	24.0	0.00e+00	0	39	0	873463808	48	5757
2026-01-01 15:55:37.00	271.12	42.94	-37.8	-38.7	23.4	0.00e+00	0	39	0	875560960	48	6199
2026-01-01 15:55:38.01	270.70	42.78	-38.1	-39.0	23.3	0.00e+00	0	39	0	877658112	48	6439
2026-01-01 15:55:39.02	270.29	42.61	-38.2	-39.1	23.0	0.00e+00	5	39	0	879755264	48	6520
2026-01-01 15:55:40.03	269.87	42.44	-38.3	-39.2	23.2	0.00e+00	0	39	0	881852416	48	6606
2026-01-01 15:55:41.03	269.47	42.28	-38.3	-39.2	22.9	0.00e+00	76	39	0	882900992	48	6571
2026-01-01 15:55:42.04	269.07	42.11	-39.4	-40.4	22.0	0.00e+00	0	39	0	884998144	50	6733
2026-01-01 15:55:43.05	268.67	41.94	-39.3	-40.4	22.2	0.00e+00	0	39	0	887095296	50	6700
2026-01-01 15:55:44.06	268.27	41.77	-38.5	-39.5	23.0	0.00e+00	0	39	0	889192448	50	6054
2026-01-01 15:55:45.07	267.88	41.60	-37.9	-38.7	23.4	0.00e+00	0	39	0	891289600	50	5557
2026-01-01 15:55:46.08	267.50	41.43	-38.2	-39.1	23.3	0.00e+00	0	39	0	892338176	50	5764
2026-01-01 15:55:47.09	267.11	41.26	-38.3	-39.2	23.2	0.00e+00	0	39	0	894435328	50	5847
2026-01-01 15:55:48.10	266.73	41.08	-38.7	-39.7	22.8	0.00e+00	81	39	0	896532480	50	6202
2026-01-01 15:55:49.11	266.36	40.91	-38.8	-39.8	22.7	0.00e+00	0	39	0	898629632	50	6254
2026-01-01 15:55:50.12	265.99	40.73	-39.5	-40.6	22.1	0.00e+00	0	39	0	900726784	50	6903
2026-01-01 15:55:51.13	265.62	40.56	-39.5	-40.6	21.9	0.00e+00	0	39	0	901775360	52	6172
2026-01-01 15:55:52.14	265.26	40.39	-39.4	-40.5	22.1	0.00e+00	19	39	0	903872512	52	6061
2026-01-01 15:55:53.14	264.90	40.21	-38.4	-39.4	22.9	0.00e+00	21	39	0	905969664	50	5994
2026-01-01 15:55:54.15	264.55	40.04	-38.2	-39.1	23.2	0.00e+00	0	39	0	908066816	50	5818
2026-01-01 15:55:55.16	264.20	39.86	-39.5	-40.6	22.2	0.00e+00	90	39	0	910163968	50	6881
2026-01-01 15:55:56.17	263.85	39.68	-40.3	-41.5	21.0	0.00e+00	0	39	0	911212544	52	6791
2026-01-01 15:55:57.18	263.51	39.51	-40.6	-41.9	20.7	0.00e+00	0	39	0	913309696	54	6337
2026-01-01 15:55:58.19	263.17	39.33	-40.5	-41.7	21.1	0.00e+00	11	39	0	915406848	54	6206
2026-01-01 15:55:59.20	262.83	39.15	-40.1	-41.2	21.4	0.00e+00	0	39	0	917504000	54	5858
2026-01-01 15:56:00.21	262.50	38.97	-39.9	-41.0	21.6	0.00e+00	60	39	0	919601152	54	5732
2026-01-01 15:56:01.22	262.17	38.80	-39.8	-40.9	21.8	0.00e+00	0	39	0	920649728	54	5660
2026-01-01 15:56:02.23	261.85	38.62	-39.7	-40.8	21.7	0.00e+00	92	39	0	922746880	52	6288
2026-01-01 15:56:03.24	261.53	38.44	-39.6	-40.6	22.0	0.00e+00	0	39	0	924844032	52	6142
2026-01-01 15:56:04.25	261.21	38.26	-40.2	-41.3	21.4	0.00e+00	92	39	0	926941184	52	6647
2026-01-01 15:56:05.26	260.89	38.08	-40.4	-41.6	21.3	0.00e+00	11	39	0	929038336	52	6868
2026-01-01 15:56:06.27	260.58	37.91	-40.8	-42.0	20.6	0.00e+00	0	39	0	930086912	54	6428
2026-01-01 15:56:07.28	260.27	37.73	-40.9	-42.2	20.5	0.00e+00	22	39	0	932184064	54	6567
2026-01-01 15:56:08.29	259.97	37.55	-41.3	-42.6	20.1	0.00e+00	0	39	0	934281216	54	6866
2026-01-01 15:56:09.30	259.67	37.37	-41.2	-42.6	20.1	0.00e+00	18	39	0	936378368	54	6855
2026-01-01 15:56:10.31	259.37	37.19	-41.5	-42.9	20.1	0.00e+00	0	39	0	938475520	56	6324
2026-01-01 15:56:11.32	259.08	37.02	-41.0	-42.3	20.5	0.00e+00	91	39	0	940572672	56	5964
2026-01-01 15:56:12.33	258.79	36.84	-40.8	-42.1	20.7	0.00e+00	0	39	0	941621248	56	5800
2026-01-01 15:56:13.34	258.50	36.66	-41.2	-42.6	20.2	0.00e+00	0	39	0	943718400	56	6120
2026-01-01 15:56:14.35	258.21	36.48	-42.5	-44.2	18.8	0.00e+00	22	39	0	945815552	56	7357
2026-01-01 15:56:15.36	257.93	36.30	-42.8	-44.6	18.3	0.00e+00	0	39	0	947912704	58	6921
2026-01-01 15:56:16.37	257.65	36.13	-42.3	-43.8	19.1	0.00e+00	19	39	0	950009856	58	6314
2026-01-01 15:56:17.38	257.38	35.95	-41.9	-43.3	19.6	0.00e+00	0	39	0	951058432	58	5964
2026-01-01 15:56:18.39	257.10	35.77	-41.7	-43.0	20.0	0.00e+00	90	39	0	953155584	56	6463
2026-01-01 15:56:19.40	256.83	35.60	-42.6	-44.2	17.8	0.00e+00	0	39	0	955252736	56	7415
2026-01-01 15:56:20.41	256.57	35.42	-44.0	-46.3	16.6	0.00e+00	0	39	0	957349888	60	7431
2026-01-01 15:56:21.42	256.30	35.24	-45.2	-48.0	14.9	0.00e+00	17	39	0	959447040	60	9117
2026-01-01 15:56:22.43	256.04	35.07	-44.2	-46.5	16.7	0.00e+00	0	39	0	960495616	60	7639
2026-01-01 15:56:23.44	255.78	34.89	-43.9	-46.0	17.5	0.00e+00	18	39	0	962592768	60	7199
2026-01-01 15:56:24.45	255.53	34.72	-42.7	-44.3	18.7	0.00e+00	0	39	0	964689920	60	5955
2026-01-01 15:56:25.46	255.28	34.54	-42.3	-43.9	19.2	0.00e+00	90	39	0	966787072	58	6336
2026-01-01 15:56:26.47	255.03	34.37	-41.6	-43.0	19.8	0.00e+00	0	39	0	968884224	58	5744
2026-01-01 15:56:27.48	254.78	34.19	-42.0	-43.5	19.5	0.00e+00	0	39	0	969932800	56	6771
2026-01-01 15:56:28.49	254.54	34.02	-41.2	-42.4	20.4	0.00e+00	0	39	0	972029952	56	6027
2026-01-01 15:56:29.50	254.29	33.85	-41.2	-42.5	20.5	0.00e+00	0	39	0	974127104	56	6063
2026-01-01 15:56:30.51	254.05	33.67	-41.4	-42.7	20.3	0.00e+00	72	39	0	976224256	56	6202
2026-01-01 15:56:31.52	253.82	33.50	-40.4	-41.5	21.1	0.00e+00	0	39	0	978321408	54	6055
2026-01-01 15:56:32.53	253.58	33.33	-39.4	-40.4	22.1	0.00e+00	92	39	0	979369984	54	5344
2026-01-01 15:56:33.54	253.35	33.16	-39.0	-40.0	22.5	0.00e+00	0	39	0	981467136	52	5720
2026-01-01 15:56:34.55	253.12	32.99	-38.7	-39.6	22.8	0.00e+00	48	39	0	983564288	50	6127
2026-01-01 15:56:35.56	252.89	32.81	-39.5	-40.5	22.1	0.00e+00	0	39	0	985661440	50	6817
2026-01-01 15:56:36.57	252.67	32.64	-40.7	-41.9	20.9	0.00e+00	0	39	0	987758592	52	7095
2026-01-01 15:56:37.58	252.45	32.47	-41.3	-42.7	20.0	0.00e+00	9	39	0	988807168	54	6931
2026-01-01 15:56:38.59	252.23	32.30	-42.2	-43.7	19.2	0.00e+00	0	39	0	990904320	56	6944
2026-01-01 15:56:39.60	252.01	32.14	-42.3	-43.9	19.2	0.00e+00	92	39	0	993001472	56	7117
2026-01-01 15:56:40.61	251.80	31.97	-41.6	-43.0	19.8	0.00e+00	0	39	0	995098624	56	6435
2026-01-01 15:56:41.62	251.58	31.80	-41.1	-42.4	20.4	0.00e+00	90	39	0	997195776	56	5971
2026-01-01 15:56:42.63	251.37	31.63	-41.7	-43.1	20.0	0.00e+00	0	39	0	998244352	56	6489
2026-01-01 15:56:43.64	251.16	31.46	-41.9	-43.4	19.3	0.00e+00	0	39	0	1000341504	56	6731
2026-01-01 15:56:44.65	250.96	31.30	-41.9	-43.4	19.7	0.00e+00	19	39	0	1002438656	56	6727
2026-01-01 15:56:45.66	250.75	31.13	-41.2	-42.5	20.2	0.00e+00	0	39	0	1004535808	56	6089
2026-01-01 15:56:46.67	250.55	30.97	-40.7	-41.9	21.0	0.00e+00	53	39	0	1006632960	56	5687
2026-01-01 15:56:47.67	250.35	30.80	-39.6	-40.6	22.0	0.00e+00	0	39	0	1008730112	52	6138
2026-01-01 15:56:48.68	250.15	30.64	-39.5	-40.5	22.2	0.00e+00	92	39	0	1009778688	52	6086
2026-01-01 15:56:49.69	249.96	30.47	-39.4	-40.5	22.0	0.00e+00	0	39	0	1011875840	52	6058
2026-01-01 15:56:50.70	249.76	30.31	-40.3	-41.5	21.1	0.00e+00	0	39	0	1013972992	52	6841
2026-01-01 15:56:51.71	249.57	30.15	-40.8	-42.1	20.6	0.00e+00	0	39	0	1016070144	52	7306
2026-01-01 15:56:52.72	249.38	29.99	-41.5	-43.0	19.6	0.00e+00	0	39	0	1018167296	54	7197
2026-01-01 15:56:53.73	249.19	29.82	-41.5	-42.9	20.0	0.00e+00	34	39	0	1019215872	56	6318
2026-01-01 15:56:54.74	249.01	29.66	-41.4	-42.7	20.1	0.00e+00	17	39	0	1021313024	56	6226
2026-01-01 15:56:55.75	248.82	29.50	-40.3	-41.5	21.2	0.00e+00	90	39	0	1023410176	54	6050
2026-01-01 15:56:56.76	248.64	29.34	-39.5	-40.6	22.0	0.00e+00	0	39	0	1025507328	52	6117
2026-01-01 15:56:57.77	248.46	29.18	-39.2	-40.2	22.3	0.00e+00	0	39	0	1027604480	52	5881
2026-01-01 15:56:58.78	248.28	29.03	-38.9	-39.8	22.6	0.00e+00	0	39	0	1028653056	52	5611
2026-01-01 15:56:59.79	248.10	28.87	-38.3	-39.2	22.9	0.00e+00	0	39	0	1030750208	50	5867
2026-01-01 15:57:00.80	247.93	28.71	-37.9	-38.8	23.3	0.00e+00	79	39	0	1032847360	50	5589
2026-01-01 15:57:01.81	247.75	28.55	-38.6	-39.5	22.8	0.00e+00	0	39	0	1034944512	50	6095
2026-01-01 15:57:02.82	247.58	28.40	-39.3	-40.3	22.2	0.00e+00	72	39	0	1037041664	50	6674
2026-01-01 15:57:03.83	247.41	28.24	-40.7	-42.0	20.7	0.00e+00	0	39	0	1038090240	52	7179
2026-01-01 15:57:04.84	247.24	28.08	-41.3	-42.7	19.9	0.00e+00	0	39	0	1040187392	54	6947
2026-01-01 15:57:05.85	247.08	27.93	-41.9	-43.4	19.7	0.00e+00	0	39	0	1042284544	56	6705
2026-01-01 15:57:06.86	246.91	27.78	-41.0	-42.3	20.3	0.00e+00	0	39	0	1044381696	56	5942
2026-01-01 15:57:07.87	246.75	27.62	-40.4	-41.5	21.1	0.00e+00	68	39	0	1046478848	54	6097
2026-01-01 15:57:08.88	246.58	27.47	-39.4	-40.4	22.2	0.00e+00	0	39	0	1047527424	52	6010
2026-01-01 15:57:09.89	246.42	27.32	-39.0	-40.0	22.4	0.00e+00	92	39	0	1049624576	52	5737
2026-01-01 15:57:10.90	246.26	27.17	-38.5	-39.5	22.9	0.00e+00	0	39	0	1051721728	50	6054
2026-01-01 15:57:11.91	246.11	27.01	-38.7	-39.7	22.7	0.00e+00	0	39	0	1053818880	50	6191
2026-01-01 15:57:12.92	245.95	26.86	-38.5	-39.5	22.7	0.00e+00	0	39	0	1055916032	50	6060
2026-01-01 15:57:13.93	245.80	26.71	-38.6	-39.5	22.7	0.00e+00	0	39	0	1056964608	50	6091
2026-01-01 15:57:14.94	245.64	26.56	-39.1	-40.1	22.4	0.00e+00	21	39	0	1059061760	50	6510
2026-01-01 15:57:15.94	245.49	26.42	-39.2	-40.2	22.2	0.00e+00	0	39	0	1061158912	50	6607
2026-01-01 15:57:16.96	245.34	26.27	-39.4	-40.4	22.0	0.00e+00	92	39	0	1063256064	50	6725
2026-01-01 15:57:17.97	245.19	26.12	-39.5	-40.5	21.9	0.00e+00	0	39	0	1065353216	50	6821
2026-01-01 15:57:18.97	245.05	25.97	-39.5	-40.5	21.9	0.00e+00	92	39	0	1066401792	52	6083
2026-01-01 15:57:19.98	244.90	25.83	-39.4	-40.4	21.9	0.00e+00	0	39	0	1068498944	52	5977
2026-01-01 15:57:20.99	244.76	25.68	-39.4	-40.4	22.1	0.00e+00	0	39	0	1070596096	52	6007
2026-01-01 15:57:22.00	244.61	25.54	-39.4	-40.4	22.0	0.00e+00	0	39	0	1072693248	52	6019
2026-01-01 15:57:23.01	244.47	25.39	-39.7	-40.8	21.7	0.00e+00	0	39	0	1074790400	52	6283
2026-01-01 15:57:24.02	244.33	25.25	-39.8	-40.9	21.7	0.00e+00	92	39	0	1076887552	52	6322
2026-01-01 15:57:25.03	244.19	25.10	-40.1	-41.2	21.3	0.00e+00	0	39	0	1077936128	52	6579
2026-01-01 15:57:26.04	244.05	24.96	-40.3	-41.4	21.2	0.00e+00	86	39	0	1080033280	52	6747
2026-01-01 15:57:27.05	243.92	24.82	-40.8	-42.0	20.7	0.00e+00	0	39	0	1082130432	52	7228
2026-01-01 15:57:28.06	243.78	24.68	-40.8	-42.0	20.6	0.00e+00	0	39	0	1084227584	54	6433
2026-01-01 15:57:29.07	243.65	24.54	-40.3	-41.5	21.1	0.00e+00	0	39	0	1086324736	54	6036
2026-01-01 15:57:30.08	243.51	24.40	-40.1	-41.3	21.3	0.00e+00	0	39	0	1087373312	54	5908
2026-01-01 15:57:31.09	243.38	24.26	-39.3	-40.4	22.1	0.00e+00	0	39	0	1089470464	52	5967
2026-01-01 15:57:32.10	243.25	24.12	-39.4	-40.4	22.2	0.00e+00	0	39	0	1091567616	52	5988
2026-01-01 15:57:33.10	243.12	23.98	-39.1	-40.1	22.3	0.00e+00	68	39	0	1093664768	52	5782
2026-01-01 15:57:34.12	242.99	23.84	-39.3	-40.3	22.2	0.00e+00	0	39	0	1094713344	52	5897
2026-01-01 15:57:35.12	242.87	23.70	-39.1	-40.1	22.2	0.00e+00	0	39	0	1096810496	52	5810
2026-01-01 15:57:36.13	242.74	23.57	-39.1	-40.1	22.3	0.00e+00	0	39	0	1098907648	52	5815
2026-01-01 15:57:37.14	242.62	23.43	-39.2	-40.2	22.2	0.00e+00	0	39	0	1101004800	52	5860
2026-01-01 15:57:38.15	242.49	23.29	-39.2	-40.2	22.1	0.00e+00	77	39	0	1103101952	52	5887
2026-01-01 15:57:39.16	242.37	23.16	-39.3	-40.3	22.2	0.00e+00	16	39	0	1105199104	52	5963
2026-01-01 15:57:40.17	242.25	23.02	-39.3	-40.3	22.1	0.00e+00	92	39	0	1106247680	52	5951
2026-01-01 15:57:41.18	242.13	22.89	-39.3	-40.4	22.1	0.00e+00	0	39	0	1108344832	52	5990
2026-01-01 15:57:42.19	242.01	22.76	-39.5	-40.5	21.9	0.00e+00	18	39	0	1110441984	52	6096
2026-01-01 15:57:43.20	241.89	22.62	-39.6	-40.7	21.8	0.00e+00	0	39	0	1112539136	52	6199
2026-01-01 15:57:44.21	241.77	22.49	-39.8	-41.0	21.7	0.00e+00	0	39	0	1114636288	52	6428
2026-01-01 15:57:45.22	241.66	22.36	-39.8	-40.9	21.7	0.00e+00	64	39	0	1115684864	52	6363
2026-01-01 15:57:46.23	241.54	22.23	-39.6	-40.7	21.7	0.00e+00	0	39	0	1117782016	52	6195
2026-01-01 15:57:47.24	241.43	22.10	-39.4	-40.5	21.9	0.00e+00	92	39	0	1119879168	52	6083
2026-01-01 15:57:48.25	241.31	21.97	-39.2	-40.2	22.2	0.00e+00	0	39	0	1121976320	52	5888
2026-01-01 15:57:49.26	241.20	21.84	-39.0	-40.1	22.3	0.00e+00	41	39	0	1124073472	52	5779
2026-01-01 15:57:50.27	241.09	21.71	-38.7	-39.7	22.6	0.00e+00	0	39	0	1125122048	50	6232
2026-01-01 15:57:51.28	240.98	21.58	-38.9	-39.9	22.5	0.00e+00	0	39	0	1127219200	50	6327
2026-01-01 15:57:52.29	240.87	21.45	-39.2	-40.3	22.1	0.00e+00	54	39	0	1129316352	50	6630
2026-01-01 15:57:53.29	240.76	21.32	-39.3	-40.4	22.0	0.00e+00	0	39	0	1131413504	50	6696
2026-01-01 15:57:54.30	240.65	21.20	-40.0	-41.1	21.5	0.00e+00	92	39	0	1133510656	52	6491
2026-01-01 15:57:55.31	240.54	21.07	-40.6	-41.8	20.7	0.00e+00	0	39	0	1134559232	52	7038
2026-01-01 15:57:56.32	240.44	20.94	-41.1	-42.5	20.1	0.00e+00	11	39	0	1136656384	54	6804
2026-01-01 15:57:57.33	240.33	20.82	-41.5	-42.9	19.7	0.00e+00	0	39	0	1138753536	54	7134
2026-01-01 15:57:58.34	240.23	20.69	-42.0	-43.5	19.4	0.00e+00	0	39	0	1140850688	56	6832
2026-01-01 15:57:59.35	240.13	20.57	-41.7	-43.1	19.6	0.00e+00	0	39	0	1142947840	56	6508
2026-01-01 15:58:00.36	240.02	20.44	-41.3	-42.7	20.0	0.00e+00	0	39	0	1143996416	56	6204
2026-01-01 15:58:01.37	239.92	20.32	-41.1	-42.5	20.3	0.00e+00	90	39	0	1146093568	56	6063
2026-01-01 15:58:02.38	239.82	20.20	-40.9	-42.3	20.5	0.00e+00	0	39	0	1148190720	56	5901
2026-01-01 15:58:03.39	239.72	20.07	-40.5	-41.7	20.8	0.00e+00	70	39	0	1150287872	54	6242
2026-01-01 15:58:04.40	239.62	19.95	-40.3	-41.5	21.0	0.00e+00	0	39	0	1152385024	54	6092
2026-01-01 15:58:05.40	239.52	19.83	-40.2	-41.4	21.2	0.00e+00	0	39	0	1153433600	54	5967
2026-01-01 15:58:06.42	239.43	19.71	-40.3	-41.6	20.9	0.00e+00	0	39	0	1155530752	54	6123
2026-01-01 15:58:07.42	239.33	19.59	-39.9	-41.1	21.3	0.00e+00	0	39	0	1157627904	54	5779
2026-01-01 15:58:08.43	239.23	19.47	-40.1	-41.3	21.2	0.00e+00	8	39	0	1159725056	54	5935
2026-01-01 15:58:09.44	239.14	19.35	-40.2	-41.5	21.0	0.00e+00	0	39	0	1161822208	54	6035
2026-01-01 15:58:10.45	239.04	19.23	-40.1	-41.2	21.2	0.00e+00	91	39	0	1162870784	54	5892
2026-01-01 15:58:11.46	238.95	19.11	-40.0	-41.2	21.3	0.00e+00	0	39	0	1164967936	54	5860
2026-01-01 15:58:12.47	238.86	19.00	-40.0	-41.2	21.4	0.00e+00	0	39	0	1167065088	54	5840
2026-01-01 15:58:13.48	238.76	18.88	-40.0	-41.2	21.2	0.00e+00	0	39	0	1169162240	54	5860
2026-01-01 15:58:14.49	238.67	18.76	-40.1	-41.3	21.2	0.00e+00	0	39	0	1171259392	54	5908
2026-01-01 15:58:15.50	238.58	18.64	-40.2	-41.4	21.2	0.00e+00	13	39	0	1173356544	54	5979
2026-01-01 15:58:16.51	238.49	18.53	-40.1	-41.3	21.1	0.00e+00	0	39	0	1174405120	54	5920
2026-01-01 15:58:17.52	238.40	18.41	-40.2	-41.5	21.0	0.00e+00	92	39	0	1176502272	54	6039
2026-01-01 15:58:18.53	238.31	18.30	-40.2	-41.3	21.2	0.00e+00	0	39	0	1178599424	54	5958
2026-01-01 15:58:19.54	238.23	18.18	-40.3	-41.5	21.0	0.00e+00	0	39	0	1180696576	54	6099
2026-01-01 15:58:20.55	238.14	18.07	-40.5	-41.7	20.8	0.00e+00	0	39	0	1182793728	54	6235
2026-01-01 15:58:21.56	238.05	17.95	-40.1	-41.3	21.1	0.00e+00	0	39	0	1183842304	54	5943
2026-01-01 15:58:22.57	237.97	17.84	-40.1	-41.3	21.2	0.00e+00	13	39	0	1185939456	54	5921
2026-01-01 15:58:23.58	237.88	17.73	-40.0	-41.2	21.2	0.00e+00	0	39	0	1188036608	54	5853
2026-01-01 15:58:24.59	237.79	17.62	-40.0	-41.1	21.3	0.00e+00	92	39	0	1190133760	54	5823
2026-01-01 15:58:25.60	237.71	17.50	-39.9	-41.0	21.5	0.00e+00	0	39	0	1192230912	54	5731
2026-01-01 15:58:26.61	237.63	17.39	-40.2	-41.3	21.1	0.00e+00	91	39	0	1193279488	54	5962
2026-01-01 15:58:27.62	237.54	17.28	-40.0	-41.1	21.4	0.00e+00	0	39	0	1195376640	54	5823
2026-01-01 15:58:28.63	237.46	17.17	-39.7	-40.8	21.6	0.00e+00	0	39	0	1197473792	52	6309
2026-01-01 15:58:29.64	237.38	17.06	-39.9	-41.1	21.3	0.00e+00	17	39	0	1199570944	52	6495
2026-01-01 15:58:30.65	237.30	16.95	-39.9	-41.0	21.4	0.00e+00	0	39	0	1201668096	52	6428
2026-01-01 15:58:31.66	237.22	16.84	-40.1	-41.2	21.4	0.00e+00	70	39	0	1202716672	52	6599
2026-01-01 15:58:32.66	237.14	16.73	-40.2	-41.4	21.1	0.00e+00	0	39	0	1204813824	52	6695
2026-01-01 15:58:33.67	237.06	16.62	-40.3	-41.5	21.0	0.00e+00	92	39	0	1206910976	52	6805
2026-01-01 15:58:34.68	236.98	16.52	-40.3	-41.5	20.9	0.00e+00	0	39	0	1209008128	52	6819
