passes_logs/2026/01/01/R4.6S_Anadyr/R4.6S_Anadyr__20260101_133658_NOAA_21_JPSS-2_rec.log

#Pass ID: 20260101_133658_NOAA 21 (JPSS-2)
#Satellite: NOAA 21 (JPSS-2)
#Configuration: NOAA-21
#almurnet v.1.7.20251203
#Start time: 2026-01-01 13:36:59

#Version: 2.2.20231116
#Station: R4.6S_Anadyr
#Location: 177.4865 lon 64.73178 lat
#TLE: 1 54234U 22150A   25364.85835894  .00000203  00000+0  11731-3 0  9998
#TLE: 2 54234  98.7482 300.9425 0001352 357.8195   2.2975 14.19530071162667

#Time	Az	El	Level	Level2	SNR	BER	BlckErr	Temp	State	Recorded	gain1	gain2
2026-01-01 13:36:59.63	18.95	0.09	-49.0	-63.9	3.5	1.51e+00	0	35	0	0	60	56683
2026-01-01 13:37:00.64	18.99	0.15	-49.2	-62.0	3.5	1.52e+00	0	36	104	0	60	44188
2026-01-01 13:37:01.65	19.03	0.21	-49.2	-62.0	3.5	1.52e+00	0	37	104	0	60	44089
2026-01-01 13:37:02.66	19.07	0.26	-49.2	-62.0	3.5	1.52e+00	0	37	104	0	60	44357
2026-01-01 13:37:03.67	19.10	0.32	-49.1	-62.0	3.5	1.52e+00	0	37	104	0	60	44419
2026-01-01 13:37:04.68	19.14	0.38	-49.1	-62.1	3.5	1.52e+00	0	37	104	0	60	44599
2026-01-01 13:37:05.69	19.18	0.44	-49.2	-62.1	3.5	1.51e+00	0	37	104	0	60	44695
2026-01-01 13:37:06.70	19.22	0.50	-49.2	-62.1	3.5	1.52e+00	0	37	104	0	60	44549
2026-01-01 13:37:07.71	19.26	0.55	-49.2	-62.1	3.5	1.52e+00	0	37	104	0	60	44542
2026-01-01 13:37:08.72	19.29	0.61	-49.1	-62.0	3.5	1.52e+00	0	37	104	0	60	44017
2026-01-01 13:37:09.73	19.33	0.67	-49.0	-61.9	3.5	1.52e+00	0	37	104	0	60	43640
2026-01-01 13:37:10.74	19.37	0.73	-48.9	-61.7	3.5	1.52e+00	0	37	104	0	60	42865
2026-01-01 13:37:11.75	19.41	0.79	-48.7	-61.6	3.5	1.52e+00	0	37	104	0	60	42201
2026-01-01 13:37:12.76	19.45	0.85	-48.4	-61.4	3.5	1.51e+00	0	37	104	0	60	41405
2026-01-01 13:37:13.77	19.49	0.91	-48.4	-61.2	3.5	1.52e+00	0	37	104	0	60	40360
2026-01-01 13:37:14.78	19.53	0.97	-48.2	-61.0	3.5	1.52e+00	0	37	104	0	60	39363
2026-01-01 13:37:15.79	19.57	1.03	-47.8	-60.6	3.5	1.52e+00	0	37	104	0	60	37479
2026-01-01 13:37:16.80	19.61	1.09	-47.7	-60.6	3.5	1.52e+00	0	37	104	0	60	37417
2026-01-01 13:37:17.81	19.65	1.15	-47.7	-60.6	3.5	1.52e+00	0	37	104	0	60	37511
2026-01-01 13:37:18.82	19.69	1.21	-47.7	-60.6	3.5	1.52e+00	0	37	104	0	60	37450
2026-01-01 13:37:19.83	19.73	1.27	-47.7	-60.5	3.5	1.52e+00	0	37	104	0	60	37358
2026-01-01 13:37:20.84	19.77	1.33	-47.7	-60.6	3.5	1.52e+00	0	37	104	0	60	37466
2026-01-01 13:37:21.85	19.81	1.39	-47.7	-60.5	3.5	1.52e+00	0	37	104	0	60	37277
2026-01-01 13:37:22.86	19.85	1.45	-47.7	-60.4	3.5	1.52e+00	0	37	104	0	60	36901
2026-01-01 13:37:23.87	19.89	1.51	-47.7	-60.4	3.5	1.52e+00	0	37	104	0	60	36809
2026-01-01 13:37:24.88	19.93	1.57	-47.7	-60.5	3.5	1.51e+00	0	37	104	0	60	37063
2026-01-01 13:37:25.89	19.97	1.63	-47.7	-60.4	3.5	1.52e+00	0	37	104	0	60	36880
2026-01-01 13:37:26.90	20.01	1.69	-47.7	-60.5	3.5	1.52e+00	0	37	104	0	60	37019
2026-01-01 13:37:27.91	20.05	1.75	-47.7	-60.5	3.5	1.52e+00	0	37	104	0	60	37044
2026-01-01 13:37:28.92	20.09	1.81	-47.7	-60.5	3.5	1.52e+00	0	37	104	0	60	37097
2026-01-01 13:37:29.93	20.13	1.87	-47.7	-60.5	3.5	1.52e+00	0	37	104	0	60	37220
2026-01-01 13:37:30.94	20.18	1.93	-47.7	-60.4	3.5	1.52e+00	0	37	104	0	60	36920
2026-01-01 13:37:31.94	20.22	1.99	-47.7	-60.4	3.5	1.52e+00	0	37	104	0	60	36847
2026-01-01 13:37:32.96	20.26	2.05	-47.7	-60.5	3.5	1.52e+00	0	37	104	0	60	37102
2026-01-01 13:37:33.96	20.30	2.12	-47.7	-60.4	3.5	1.52e+00	0	37	104	0	60	36792
2026-01-01 13:37:34.97	20.34	2.18	-47.7	-60.3	3.5	1.51e+00	0	37	104	0	60	36141
2026-01-01 13:37:35.99	20.39	2.24	-47.6	-59.8	3.5	1.52e+00	0	37	104	0	60	34155
2026-01-01 13:37:37.00	20.43	2.30	-47.6	-59.2	3.5	1.52e+00	0	38	104	0	60	31864
2026-01-01 13:37:38.01	20.47	2.36	-47.5	-58.7	3.7	1.51e+00	0	37	104	0	60	30084
2026-01-01 13:37:39.02	20.51	2.43	-47.5	-58.4	3.5	1.51e+00	0	38	104	0	60	29099
2026-01-01 13:37:40.03	20.56	2.49	-47.6	-58.9	3.5	1.51e+00	0	38	104	0	60	30924
2026-01-01 13:37:41.04	20.60	2.55	-47.7	-59.9	3.5	1.51e+00	0	38	104	0	60	34671
2026-01-01 13:37:42.05	20.64	2.61	-47.7	-59.9	3.5	1.52e+00	0	38	104	0	60	34626
2026-01-01 13:37:43.06	20.69	2.67	-47.4	-57.3	3.6	1.51e+00	0	38	104	0	60	25637
2026-01-01 13:37:44.06	20.73	2.74	-46.5	-52.8	7.4	2.46e-01	122	38	104	0	60	15384
2026-01-01 13:37:45.07	20.77	2.80	-45.4	-49.2	10.4	7.78e-03	122	38	0	2097152	60	10092
2026-01-01 13:37:46.08	20.82	2.86	-43.7	-46.2	13.6	1.81e-04	123	38	0	5242880	60	7203
2026-01-01 13:37:47.09	20.86	2.93	-42.2	-44.2	15.5	7.00e-07	123	38	0	8388608	58	6406
2026-01-01 13:37:48.10	20.91	2.99	-41.4	-43.2	16.7	0.00e+00	123	38	0	11534336	56	6368
2026-01-01 13:37:49.11	20.95	3.05	-40.5	-42.0	17.7	0.00e+00	122	38	0	14680064	54	6266
2026-01-01 13:37:50.12	21.00	3.12	-39.8	-41.2	18.4	0.00e+00	123	38	0	17825792	52	6415
2026-01-01 13:37:51.13	21.04	3.18	-39.5	-40.9	18.6	0.00e+00	122	37	0	20971520	52	6175
2026-01-01 13:37:52.14	21.08	3.24	-39.9	-41.3	18.4	0.00e+00	121	38	0	24117248	52	6457
2026-01-01 13:37:53.15	21.13	3.31	-40.4	-42.0	17.7	0.00e+00	123	38	0	27262976	52	6970
2026-01-01 13:37:54.16	21.18	3.37	-40.9	-42.6	17.1	0.00e+00	123	38	0	30408704	54	6670
2026-01-01 13:37:55.17	21.22	3.44	-42.2	-44.2	15.6	0.00e+00	123	37	0	33554432	56	7155
2026-01-01 13:37:56.18	21.27	3.50	-43.5	-46.0	13.7	3.00e-06	123	38	0	36700160	58	7850
2026-01-01 13:37:57.19	21.31	3.56	-44.9	-48.3	11.8	1.50e-04	121	38	0	39845888	60	9107
2026-01-01 13:37:58.20	21.36	3.63	-40.5	-42.0	17.6	0.00e+00	122	38	0	42991616	54	6237
2026-01-01 13:37:59.21	21.40	3.69	-47.3	-56.9	4.7	1.47e+00	0	38	104	45088768	60	24545
2026-01-01 13:38:00.22	21.45	3.76	-47.6	-57.9	3.6	8.70e-01	0	38	104	45088768	60	27559
2026-01-01 13:38:01.23	21.50	3.82	-44.0	-46.7	13.8	1.89e-04	122	38	0	45088768	60	7566
2026-01-01 13:38:02.24	21.54	3.89	-47.5	-57.7	3.9	1.50e+00	0	38	104	47185920	60	27070
2026-01-01 13:38:03.25	21.59	3.95	-44.3	-47.1	12.8	1.46e-04	123	38	0	48234496	60	7922
2026-01-01 13:38:04.26	21.64	4.02	-44.1	-46.8	13.0	2.44e-05	122	38	0	51380224	60	7687
2026-01-01 13:38:05.27	21.69	4.09	-44.1	-46.8	12.8	3.58e-05	123	38	0	54525952	60	7649
2026-01-01 13:38:06.28	21.73	4.15	-44.5	-47.6	12.3	5.49e-05	123	38	0	57671680	60	8419
2026-01-01 13:38:07.29	21.78	4.22	-44.1	-46.9	13.5	4.88e-05	123	38	0	60817408	60	7786
2026-01-01 13:38:08.30	21.83	4.28	-44.3	-47.2	12.8	1.83e-05	123	38	0	63963136	60	8020
2026-01-01 13:38:09.31	21.88	4.35	-43.5	-46.0	14.1	2.20e-06	120	38	0	67108864	60	6984
2026-01-01 13:38:10.32	21.93	4.42	-43.5	-46.0	14.1	1.50e-06	123	38	0	70254592	60	6989
2026-01-01 13:38:11.33	21.97	4.48	-43.7	-46.2	14.4	1.50e-06	122	38	0	73400320	60	7136
2026-01-01 13:38:12.34	22.02	4.55	-43.2	-45.5	14.5	1.50e-06	123	38	0	76546048	60	6593
2026-01-01 13:38:13.35	22.07	4.62	-43.4	-45.8	14.2	0.00e+00	120	38	0	79691776	60	6836
2026-01-01 13:38:14.36	22.12	4.68	-43.2	-45.5	14.5	1.50e-06	122	38	0	82837504	60	6596
2026-01-01 13:38:15.37	22.17	4.75	-43.1	-45.3	14.8	0.00e+00	120	38	0	85983232	58	7242
2026-01-01 13:38:16.38	22.22	4.82	-43.5	-45.8	14.3	7.00e-07	120	38	0	89128960	58	7723
2026-01-01 13:38:17.39	22.27	4.88	-42.2	-44.1	15.9	0.00e+00	123	38	0	92274688	58	6286
2026-01-01 13:38:18.40	22.32	4.95	-41.4	-43.1	17.1	0.00e+00	123	38	0	95420416	56	6305
2026-01-01 13:38:19.41	22.37	5.02	-40.9	-42.5	17.6	0.00e+00	123	38	0	98566144	56	5872
2026-01-01 13:38:20.42	22.42	5.09	-41.0	-42.6	17.7	0.00e+00	123	38	0	101711872	54	6674
2026-01-01 13:38:21.43	22.47	5.16	-40.3	-41.7	18.3	0.00e+00	120	38	0	104857600	54	6036
2026-01-01 13:38:22.44	22.52	5.22	-40.0	-41.4	18.4	0.00e+00	122	38	0	108003328	54	5822
2026-01-01 13:38:23.45	22.57	5.29	-39.6	-40.9	19.1	0.00e+00	120	38	0	111149056	52	6185
2026-01-01 13:38:24.46	22.62	5.36	-39.7	-41.0	19.0	0.00e+00	122	38	0	114294784	52	6277
2026-01-01 13:38:25.47	22.67	5.43	-39.8	-41.2	18.9	0.00e+00	123	38	0	117440512	52	6384
2026-01-01 13:38:26.48	22.73	5.50	-39.7	-41.0	18.9	0.00e+00	120	38	0	120586240	52	6241
2026-01-01 13:38:27.49	22.78	5.57	-39.5	-40.9	19.3	0.00e+00	122	38	0	123731968	52	6143
2026-01-01 13:38:28.50	22.83	5.64	-38.4	-39.5	20.4	0.00e+00	120	38	0	126877696	50	5911
2026-01-01 13:38:29.51	22.88	5.71	-38.4	-39.6	20.4	0.00e+00	122	38	0	130023424	50	5945
2026-01-01 13:38:30.52	22.94	5.78	-38.9	-40.1	19.9	0.00e+00	122	38	0	133169152	50	6306
2026-01-01 13:38:31.53	22.99	5.85	-38.3	-39.5	20.4	0.00e+00	122	38	0	136314880	50	5897
2026-01-01 13:38:32.54	23.04	5.92	-38.2	-39.4	20.6	0.00e+00	123	38	0	139460608	50	5812
2026-01-01 13:38:33.55	23.09	5.99	-38.3	-39.5	20.5	0.00e+00	123	38	0	143654912	50	5874
2026-01-01 13:38:34.56	23.15	6.06	-38.2	-39.3	20.6	0.00e+00	121	38	0	146800640	50	5776
2026-01-01 13:38:35.57	23.20	6.13	-38.0	-39.2	20.7	0.00e+00	123	38	0	148897792	50	5678
2026-01-01 13:38:36.58	23.26	6.20	-38.1	-39.2	20.7	0.00e+00	120	38	0	152043520	50	5693
2026-01-01 13:38:37.59	23.31	6.27	-38.1	-39.2	20.8	0.00e+00	123	38	0	155189248	50	5703
2026-01-01 13:38:38.60	23.36	6.34	-38.1	-39.3	20.7	0.00e+00	120	38	0	159383552	50	5750
2026-01-01 13:38:39.61	23.42	6.41	-38.0	-39.2	20.7	0.00e+00	122	38	0	162529280	50	5664
2026-01-01 13:38:40.62	23.47	6.48	-38.2	-39.3	20.9	0.00e+00	122	38	0	165675008	50	5760
2026-01-01 13:38:41.63	23.53	6.55	-37.9	-39.0	20.8	0.00e+00	123	38	0	168820736	50	5578
2026-01-01 13:38:42.64	23.58	6.62	-38.0	-39.2	20.9	0.00e+00	123	38	0	170917888	50	5679
2026-01-01 13:38:43.65	23.64	6.70	-37.7	-38.8	21.1	0.00e+00	123	38	0	175112192	48	6112
2026-01-01 13:38:44.66	23.70	6.77	-37.8	-39.0	21.1	0.00e+00	123	38	0	178257920	48	6211
2026-01-01 13:38:45.67	23.75	6.84	-37.6	-38.7	21.2	0.00e+00	123	38	0	181403648	48	6056
2026-01-01 13:38:46.68	23.81	6.91	-37.5	-38.6	21.4	0.00e+00	123	38	0	184549376	48	5940
2026-01-01 13:38:47.69	23.86	6.98	-37.5	-38.6	21.4	0.00e+00	122	38	0	187695104	48	5945
2026-01-01 13:38:48.70	23.92	7.06	-37.5	-38.6	21.4	0.00e+00	122	38	0	190840832	48	5944
2026-01-01 13:38:49.71	23.98	7.13	-37.4	-38.5	21.4	0.00e+00	123	38	0	193986560	48	5910
2026-01-01 13:38:50.72	24.04	7.20	-37.4	-38.5	21.5	0.00e+00	123	38	0	197132288	48	5876
2026-01-01 13:38:51.73	24.09	7.28	-37.4	-38.5	21.4	0.00e+00	122	38	0	200278016	48	5891
2026-01-01 13:38:52.74	24.15	7.35	-37.4	-38.5	21.5	0.00e+00	120	38	0	203423744	48	5877
2026-01-01 13:38:53.75	24.21	7.42	-37.4	-38.5	21.5	0.00e+00	123	38	0	206569472	48	5873
2026-01-01 13:38:54.76	24.27	7.50	-37.2	-38.2	21.6	0.00e+00	122	38	0	209715200	48	5717
2026-01-01 13:38:55.77	24.33	7.57	-37.3	-38.4	21.5	0.00e+00	123	38	0	212860928	48	5838
2026-01-01 13:38:56.78	24.39	7.65	-37.4	-38.4	21.5	0.00e+00	122	38	0	216006656	48	5852
2026-01-01 13:38:57.79	24.45	7.72	-37.4	-38.5	21.6	0.00e+00	123	38	0	219152384	48	5878
2026-01-01 13:38:58.80	24.51	7.79	-37.4	-38.5	21.5	0.00e+00	123	38	0	222298112	48	5897
2026-01-01 13:38:59.81	24.56	7.87	-37.1	-38.1	21.8	0.00e+00	122	38	0	225443840	48	5650
2026-01-01 13:39:00.82	24.63	7.94	-37.1	-38.1	21.8	0.00e+00	122	38	0	228589568	48	5648
2026-01-01 13:39:01.83	24.69	8.02	-37.1	-38.2	21.8	0.00e+00	120	38	0	231735296	48	5681
2026-01-01 13:39:02.84	24.75	8.09	-37.2	-38.2	21.7	0.00e+00	122	38	0	234881024	48	5704
2026-01-01 13:39:03.85	24.81	8.17	-37.4	-38.5	21.5	0.00e+00	120	38	0	238026752	48	5897
2026-01-01 13:39:04.86	24.87	8.25	-37.3	-38.3	21.6	0.00e+00	123	38	0	241172480	48	5765
2026-01-01 13:39:05.87	24.93	8.32	-37.4	-38.5	21.6	0.00e+00	123	38	0	244318208	48	5888
2026-01-01 13:39:06.88	24.99	8.40	-37.2	-38.2	21.4	0.00e+00	120	38	0	247463936	48	5721
2026-01-01 13:39:07.89	25.05	8.47	-37.5	-38.6	21.6	0.00e+00	123	38	0	250609664	48	5931
2026-01-01 13:39:08.90	25.12	8.55	-37.3	-38.4	21.5	0.00e+00	122	38	0	253755392	48	5797
2026-01-01 13:39:09.91	25.18	8.63	-37.3	-38.3	21.9	0.00e+00	122	38	0	256901120	48	5778
2026-01-01 13:39:10.92	25.24	8.70	-37.1	-38.1	21.8	0.00e+00	123	38	0	260046848	48	5624
2026-01-01 13:39:11.93	25.31	8.78	-36.9	-37.9	22.0	0.00e+00	120	38	0	263192576	48	5493
2026-01-01 13:39:12.94	25.37	8.86	-37.0	-38.0	22.0	0.00e+00	122	38	0	266338304	48	5570
2026-01-01 13:39:13.95	25.43	8.94	-36.7	-37.7	22.3	0.00e+00	122	38	0	269484032	46	6033
2026-01-01 13:39:14.96	25.50	9.01	-36.6	-37.6	22.3	0.00e+00	122	38	0	272629760	46	5990
2026-01-01 13:39:15.97	25.56	9.09	-36.5	-37.5	22.4	0.00e+00	120	38	0	275775488	46	5910
2026-01-01 13:39:16.98	25.63	9.17	-36.6	-37.6	22.3	0.00e+00	123	38	0	278921216	46	5965
2026-01-01 13:39:17.99	25.69	9.25	-36.6	-37.6	22.4	0.00e+00	122	38	0	282066944	46	5976
2026-01-01 13:39:19.00	25.76	9.33	-36.7	-37.7	22.3	0.00e+00	123	38	0	285212672	46	6016
2026-01-01 13:39:20.01	25.83	9.41	-36.5	-37.5	22.4	0.00e+00	121	38	0	288358400	46	5892
2026-01-01 13:39:21.02	25.89	9.49	-36.6	-37.6	22.4	0.00e+00	123	38	0	291504128	46	5938
2026-01-01 13:39:22.03	25.96	9.57	-36.4	-37.4	22.5	0.00e+00	123	38	0	294649856	46	5817
2026-01-01 13:39:23.04	26.03	9.65	-36.4	-37.4	22.5	0.00e+00	123	38	0	297795584	46	5835
2026-01-01 13:39:24.05	26.09	9.73	-36.5	-37.5	22.4	0.00e+00	122	38	0	300941312	46	5896
2026-01-01 13:39:25.06	26.16	9.81	-36.3	-37.3	22.6	0.00e+00	122	38	0	304087040	46	5765
2026-01-01 13:39:26.07	26.23	9.89	-36.3	-37.3	22.6	0.00e+00	120	38	0	307232768	46	5750
2026-01-01 13:39:27.08	26.30	9.97	-36.4	-37.4	22.5	0.00e+00	123	38	0	310378496	46	5854
2026-01-01 13:39:28.09	26.37	10.05	-36.5	-37.5	22.5	0.00e+00	123	38	0	313524224	46	5870
2026-01-01 13:39:29.10	26.43	10.13	-36.3	-37.3	22.7	0.00e+00	123	38	0	316669952	46	5738
2026-01-01 13:39:30.11	26.50	10.21	-36.1	-37.1	22.9	0.00e+00	122	38	0	319815680	46	5626
2026-01-01 13:39:31.13	26.57	10.29	-36.2	-37.2	22.8	0.00e+00	122	38	0	322961408	46	5675
2026-01-01 13:39:32.13	26.64	10.37	-36.3	-37.3	22.7	0.00e+00	123	38	0	326107136	46	5748
2026-01-01 13:39:33.14	26.71	10.45	-36.2	-37.2	22.7	0.00e+00	123	38	0	329252864	46	5711
2026-01-01 13:39:34.15	26.79	10.54	-35.9	-36.9	23.0	0.00e+00	122	38	0	332398592	46	5494
2026-01-01 13:39:35.16	26.86	10.62	-36.0	-37.0	23.0	0.00e+00	123	38	0	335544320	46	5538
2026-01-01 13:39:36.17	26.93	10.70	-36.0	-37.0	22.9	0.00e+00	123	38	0	338690048	46	5540
2026-01-01 13:39:37.18	27.00	10.78	-36.0	-37.0	22.9	0.00e+00	122	38	0	341835776	46	5561
2026-01-01 13:39:38.19	27.07	10.87	-35.7	-36.7	23.1	0.00e+00	123	38	0	344981504	44	6033
2026-01-01 13:39:39.20	27.15	10.95	-35.9	-36.8	23.0	0.00e+00	123	38	0	348127232	44	6131
2026-01-01 13:39:40.21	27.22	11.03	-35.8	-36.8	23.1	0.00e+00	123	38	0	351272960	44	6070
2026-01-01 13:39:41.22	27.29	11.12	-35.8	-36.7	23.2	0.00e+00	123	38	0	354418688	44	6055
2026-01-01 13:39:42.23	27.37	11.20	-35.8	-36.7	23.1	0.00e+00	123	38	0	357564416	44	6059
2026-01-01 13:39:43.24	27.44	11.29	-35.7	-36.6	23.2	0.00e+00	122	38	0	360710144	44	5979
2026-01-01 13:39:44.25	27.52	11.37	-35.7	-36.7	23.1	0.00e+00	123	38	0	363855872	44	6025
2026-01-01 13:39:45.26	27.59	11.46	-35.6	-36.6	23.3	0.00e+00	120	38	0	367001600	44	5932
2026-01-01 13:39:46.27	27.67	11.54	-35.7	-36.7	23.2	0.00e+00	122	38	0	370147328	44	6024
2026-01-01 13:39:47.28	27.74	11.63	-35.7	-36.6	23.2	0.00e+00	122	38	0	373293056	44	5984
2026-01-01 13:39:48.30	27.82	11.71	-35.6	-36.6	23.3	0.00e+00	123	38	0	376438784	44	5931
2026-01-01 13:39:49.30	27.90	11.80	-35.6	-36.5	23.3	0.00e+00	120	38	0	379584512	44	5894
2026-01-01 13:39:50.32	27.97	11.89	-35.5	-36.5	23.3	0.00e+00	123	38	0	382730240	44	5871
2026-01-01 13:39:51.32	28.05	11.97	-35.6	-36.6	23.3	0.00e+00	123	38	0	385875968	44	5944
2026-01-01 13:39:52.34	28.13	12.06	-35.5	-36.4	23.4	0.00e+00	123	38	0	389021696	44	5837
2026-01-01 13:39:53.35	28.21	12.15	-35.5	-36.4	23.4	0.00e+00	123	38	0	392167424	44	5847
2026-01-01 13:39:54.35	28.29	12.23	-35.4	-36.4	23.4	0.00e+00	123	38	0	395313152	44	5821
2026-01-01 13:39:55.37	28.37	12.32	-35.3	-36.3	23.6	0.00e+00	123	38	0	398458880	44	5746
2026-01-01 13:39:56.38	28.45	12.41	-35.4	-36.4	23.4	0.00e+00	122	38	0	401604608	44	5825
2026-01-01 13:39:57.39	28.53	12.50	-35.5	-36.5	23.4	0.00e+00	122	38	0	404750336	44	5871
2026-01-01 13:39:58.39	28.61	12.58	-35.5	-36.4	23.5	0.00e+00	120	38	0	407896064	44	5831
2026-01-01 13:39:59.40	28.69	12.67	-35.5	-36.4	23.4	0.00e+00	122	38	0	411041792	44	5822
2026-01-01 13:40:00.41	28.77	12.76	-35.2	-36.2	23.7	0.00e+00	120	38	0	414187520	44	5670
2026-01-01 13:40:01.42	28.85	12.85	-35.2	-36.1	23.7	0.00e+00	120	38	0	417333248	44	5643
2026-01-01 13:40:02.43	28.93	12.94	-35.4	-36.3	23.6	0.00e+00	123	38	0	420478976	44	5765
2026-01-01 13:40:03.44	29.02	13.03	-35.2	-36.2	23.7	0.00e+00	120	38	0	423624704	44	5663
2026-01-01 13:40:04.45	29.10	13.12	-35.3	-36.2	23.7	0.00e+00	123	38	0	426770432	44	5712
2026-01-01 13:40:05.46	29.19	13.21	-35.2	-36.1	23.7	0.00e+00	122	38	0	429916160	44	5642
2026-01-01 13:40:06.47	29.27	13.30	-35.3	-36.2	23.7	0.00e+00	123	38	0	433061888	44	5702
2026-01-01 13:40:07.48	29.35	13.39	-35.3	-36.2	23.7	0.00e+00	123	38	0	436207616	44	5688
2026-01-01 13:40:08.49	29.44	13.48	-35.2	-36.2	23.7	0.00e+00	122	38	0	439353344	44	5662
2026-01-01 13:40:09.50	29.53	13.57	-35.3	-36.2	23.7	0.00e+00	120	38	0	442499072	44	5702
2026-01-01 13:40:10.51	29.61	13.66	-35.3	-36.3	23.6	0.00e+00	122	38	0	445644800	44	5753
2026-01-01 13:40:11.52	29.70	13.76	-35.3	-36.2	23.6	0.00e+00	120	38	0	448790528	44	5688
2026-01-01 13:40:12.53	29.79	13.85	-35.3	-36.2	23.7	0.00e+00	122	38	0	451936256	44	5719
2026-01-01 13:40:13.54	29.88	13.94	-35.4	-36.3	23.6	0.00e+00	123	38	0	455081984	44	5791
2026-01-01 13:40:14.55	29.96	14.03	-35.2	-36.1	23.7	0.00e+00	123	38	0	459276288	44	5647
2026-01-01 13:40:15.56	30.05	14.13	-35.1	-36.0	23.9	0.00e+00	123	38	0	462422016	44	5567
2026-01-01 13:40:16.57	30.14	14.22	-35.1	-36.0	23.9	0.00e+00	123	38	0	464519168	44	5572
2026-01-01 13:40:17.58	30.23	14.31	-35.2	-36.1	23.8	0.00e+00	120	38	0	467664896	44	5631
2026-01-01 13:40:18.59	30.32	14.41	-35.2	-36.1	23.8	0.00e+00	121	38	0	470810624	44	5609
2026-01-01 13:40:19.60	30.42	14.50	-35.2	-36.1	23.8	0.00e+00	123	38	0	475004928	44	5628
2026-01-01 13:40:20.61	30.51	14.60	-35.3	-36.3	23.7	0.00e+00	121	38	0	478150656	44	5728
2026-01-01 13:40:21.62	30.60	14.69	-35.2	-36.1	23.8	0.00e+00	122	38	0	481296384	44	5646
2026-01-01 13:40:22.63	30.69	14.79	-35.1	-36.1	23.8	0.00e+00	122	38	0	484442112	44	5606
2026-01-01 13:40:23.64	30.79	14.88	-35.2	-36.1	23.8	0.00e+00	120	38	0	487587840	44	5632
2026-01-01 13:40:24.65	30.88	14.98	-35.3	-36.2	23.7	0.00e+00	122	38	0	490733568	44	5690
2026-01-01 13:40:25.66	30.97	15.08	-35.1	-36.0	23.9	0.00e+00	121	38	0	493879296	44	5586
2026-01-01 13:40:26.67	31.07	15.17	-35.1	-36.0	23.9	0.00e+00	123	38	0	497025024	44	5594
2026-01-01 13:40:27.68	31.17	15.27	-35.2	-36.2	23.7	0.00e+00	123	38	0	500170752	44	5668
2026-01-01 13:40:28.69	31.26	15.37	-35.1	-36.0	23.8	0.00e+00	120	38	0	503316480	44	5584
2026-01-01 13:40:29.70	31.36	15.46	-35.2	-36.1	23.9	0.00e+00	122	38	0	506462208	44	5635
2026-01-01 13:40:30.71	31.46	15.56	-35.3	-36.2	23.7	0.00e+00	122	38	0	509607936	44	5687
2026-01-01 13:40:31.72	31.55	15.66	-35.4	-36.4	23.7	0.00e+00	123	38	0	512753664	44	5793
2026-01-01 13:40:32.73	31.65	15.76	-35.3	-36.3	23.7	0.00e+00	122	38	0	515899392	44	5729
2026-01-01 13:40:33.74	31.75	15.86	-35.3	-36.2	23.8	0.00e+00	123	38	0	519045120	44	5690
2026-01-01 13:40:34.75	31.85	15.96	-35.3	-36.2	23.8	0.00e+00	122	38	0	522190848	44	5691
2026-01-01 13:40:35.76	31.95	16.05	-35.4	-36.3	23.8	0.00e+00	122	38	0	525336576	44	5752
2026-01-01 13:40:36.78	32.06	16.16	-35.4	-36.4	23.7	0.00e+00	123	38	0	528482304	44	5798
2026-01-01 13:40:37.79	32.16	16.26	-35.4	-36.3	23.7	0.00e+00	123	38	0	531628032	44	5766
2026-01-01 13:40:38.80	32.26	16.36	-35.4	-36.3	23.7	0.00e+00	122	38	0	534773760	44	5786
2026-01-01 13:40:39.80	32.36	16.46	-35.5	-36.4	23.7	0.00e+00	122	38	0	537919488	44	5827
2026-01-01 13:40:40.82	32.47	16.56	-35.4	-36.3	23.7	0.00e+00	123	38	0	541065216	44	5790
2026-01-01 13:40:41.83	32.57	16.66	-35.3	-36.3	23.7	0.00e+00	122	38	0	544210944	44	5752
2026-01-01 13:40:42.84	32.68	16.76	-35.4	-36.4	23.6	0.00e+00	120	38	0	547356672	44	5794
2026-01-01 13:40:43.84	32.78	16.86	-35.4	-36.3	23.8	0.00e+00	122	38	0	550502400	44	5757
2026-01-01 13:40:44.85	32.89	16.96	-35.5	-36.4	23.7	0.00e+00	122	38	0	553648128	44	5822
2026-01-01 13:40:45.87	33.00	17.07	-35.5	-36.4	23.7	0.00e+00	122	38	0	556793856	44	5810
2026-01-01 13:40:46.87	33.11	17.17	-35.7	-36.6	23.5	0.00e+00	120	38	0	559939584	44	5960
2026-01-01 13:40:47.89	33.22	17.27	-35.8	-36.7	23.4	0.00e+00	122	38	0	563085312	44	6051
2026-01-01 13:40:48.90	33.33	17.38	-35.7	-36.7	23.5	0.00e+00	122	38	0	566231040	44	6007
2026-01-01 13:40:49.90	33.43	17.48	-35.7	-36.7	23.4	0.00e+00	123	38	0	569376768	44	6026
2026-01-01 13:40:50.92	33.55	17.59	-35.7	-36.7	23.4	0.00e+00	122	38	0	572522496	44	6016
2026-01-01 13:40:51.93	33.66	17.69	-35.9	-36.9	23.3	0.00e+00	122	38	0	575668224	44	6172
2026-01-01 13:40:52.94	33.77	17.80	-35.8	-36.8	23.4	0.00e+00	122	38	0	578813952	44	6067
2026-01-01 13:40:53.95	33.88	17.90	-35.8	-36.7	23.5	0.00e+00	120	38	0	581959680	44	6053
2026-01-01 13:40:54.96	34.00	18.01	-35.9	-36.9	23.4	0.00e+00	122	38	0	585105408	44	6175
2026-01-01 13:40:55.97	34.11	18.11	-35.8	-36.8	23.4	0.00e+00	120	38	0	588251136	44	6067
2026-01-01 13:40:56.98	34.23	18.22	-35.9	-36.9	23.3	0.00e+00	122	38	0	591396864	44	6173
2026-01-01 13:40:57.99	34.34	18.33	-35.7	-36.6	23.5	0.00e+00	120	38	0	594542592	44	5970
2026-01-01 13:40:59.00	34.46	18.43	-35.8	-36.7	23.4	0.00e+00	122	38	0	597688320	44	6031
2026-01-01 13:41:00.01	34.58	18.54	-35.7	-36.7	23.5	0.00e+00	122	38	0	600834048	44	6019
2026-01-01 13:41:01.02	34.70	18.65	-35.7	-36.7	23.5	0.00e+00	123	38	0	603979776	44	5996
2026-01-01 13:41:02.03	34.82	18.76	-35.7	-36.6	23.6	0.00e+00	123	38	0	607125504	44	5987
2026-01-01 13:41:03.04	34.94	18.87	-35.6	-36.6	23.5	0.00e+00	122	38	0	610271232	44	5934
2026-01-01 13:41:04.04	35.06	18.97	-35.6	-36.6	23.5	0.00e+00	120	38	0	613416960	44	5932
2026-01-01 13:41:05.06	35.18	19.09	-35.8	-36.7	23.4	0.00e+00	123	38	0	616562688	44	6031
2026-01-01 13:41:06.07	35.30	19.20	-35.6	-36.6	23.5	0.00e+00	120	38	0	619708416	44	5932
2026-01-01 13:41:07.07	35.43	19.30	-35.6	-36.6	23.4	0.00e+00	122	38	0	622854144	44	5932
2026-01-01 13:41:08.08	35.55	19.41	-35.6	-36.6	23.5	0.00e+00	123	38	0	625999872	44	5933
2026-01-01 13:41:09.09	35.68	19.53	-35.6	-36.5	23.5	0.00e+00	122	38	0	629145600	44	5916
2026-01-01 13:41:10.10	35.80	19.64	-35.6	-36.6	23.5	0.00e+00	123	38	0	632291328	44	5949
2026-01-01 13:41:11.11	35.93	19.75	-35.7	-36.7	23.3	0.00e+00	122	38	0	635437056	44	6017
2026-01-01 13:41:12.12	36.06	19.86	-35.7	-36.6	23.4	0.00e+00	123	38	0	638582784	44	5983
2026-01-01 13:41:13.13	36.19	19.97	-35.6	-36.5	23.5	0.00e+00	120	38	0	641728512	44	5903
2026-01-01 13:41:14.14	36.32	20.09	-35.4	-36.3	23.7	0.00e+00	123	38	0	644874240	44	5774
2026-01-01 13:41:15.15	36.45	20.20	-35.3	-36.3	23.8	0.00e+00	120	38	0	648019968	44	5730
2026-01-01 13:41:16.17	36.58	20.31	-35.4	-36.3	23.7	0.00e+00	122	38	0	651165696	44	5755
2026-01-01 13:41:17.18	36.71	20.43	-35.4	-36.3	23.7	0.00e+00	120	38	0	654311424	44	5778
2026-01-01 13:41:18.19	36.85	20.54	-35.4	-36.3	23.7	0.00e+00	122	38	0	657457152	44	5787
2026-01-01 13:41:19.20	36.98	20.66	-35.3	-36.3	23.7	0.00e+00	120	38	0	660602880	44	5737
2026-01-01 13:41:20.21	37.12	20.77	-35.2	-36.1	23.9	0.00e+00	122	38	0	663748608	44	5656
2026-01-01 13:41:21.22	37.25	20.89	-35.2	-36.2	23.8	0.00e+00	122	38	0	666894336	44	5666
2026-01-01 13:41:22.23	37.39	21.00	-35.1	-36.0	24.0	0.00e+00	122	38	0	670040064	44	5555
2026-01-01 13:41:23.24	37.53	21.12	-35.1	-36.0	23.9	0.00e+00	123	38	0	673185792	44	5590
2026-01-01 13:41:24.26	37.67	21.24	-35.2	-36.1	23.9	0.00e+00	123	38	0	676331520	44	5659
2026-01-01 13:41:25.27	37.81	21.35	-35.0	-35.9	24.0	0.00e+00	121	38	0	679477248	44	5510
2026-01-01 13:41:26.28	37.95	21.47	-34.9	-35.9	24.0	0.00e+00	123	38	0	682622976	44	5471
2026-01-01 13:41:27.28	38.09	21.59	-34.9	-35.8	24.1	0.00e+00	122	38	0	685768704	44	5433
2026-01-01 13:41:28.29	38.24	21.70	-34.9	-35.8	24.0	0.00e+00	122	38	0	688914432	44	5462
2026-01-01 13:41:29.31	38.38	21.82	-34.8	-35.7	24.1	0.00e+00	121	38	0	692060160	44	5403
2026-01-01 13:41:30.31	38.53	21.94	-34.7	-35.7	24.2	0.00e+00	123	38	0	695205888	44	5344
2026-01-01 13:41:31.32	38.68	22.06	-34.7	-35.7	24.1	0.00e+00	122	38	0	698351616	42	5995
2026-01-01 13:41:32.34	38.83	22.18	-34.6	-35.6	24.3	0.00e+00	123	38	0	701497344	42	5927
2026-01-01 13:41:33.34	38.97	22.30	-34.9	-35.8	24.2	0.00e+00	123	38	0	704643072	42	6080
2026-01-01 13:41:34.35	39.12	22.42	-34.6	-35.5	24.4	0.00e+00	122	38	0	707788800	42	5874
2026-01-01 13:41:35.37	39.28	22.54	-34.6	-35.5	24.4	0.00e+00	122	38	0	710934528	42	5909
2026-01-01 13:41:36.37	39.43	22.66	-34.4	-35.3	24.5	0.00e+00	123	38	0	714080256	42	5777
2026-01-01 13:41:37.38	39.58	22.78	-34.5	-35.4	24.4	0.00e+00	123	38	0	717225984	42	5818
2026-01-01 13:41:38.39	39.74	22.90	-34.5	-35.4	24.4	0.00e+00	122	38	0	720371712	42	5799
2026-01-01 13:41:39.41	39.89	23.03	-34.5	-35.5	24.4	0.00e+00	123	38	0	723517440	42	5866
2026-01-01 13:41:40.41	40.05	23.15	-34.2	-35.0	24.7	0.00e+00	123	38	0	726663168	42	5590
2026-01-01 13:41:41.43	40.21	23.27	-34.2	-35.1	24.7	0.00e+00	123	38	0	729808896	42	5619
2026-01-01 13:41:42.44	40.37	23.39	-34.3	-35.2	24.6	0.00e+00	123	38	0	732954624	42	5693
2026-01-01 13:41:43.44	40.53	23.52	-34.2	-35.1	24.7	0.00e+00	122	38	0	736100352	42	5615
2026-01-01 13:41:44.45	40.69	23.64	-34.3	-35.2	24.7	0.00e+00	122	38	0	739246080	42	5671
2026-01-01 13:41:45.46	40.85	23.77	-34.1	-35.0	24.8	0.00e+00	122	38	0	742391808	42	5536
2026-01-01 13:41:46.47	41.02	23.89	-34.2	-35.1	24.9	0.00e+00	123	38	0	745537536	42	5606
2026-01-01 13:41:47.49	41.19	24.02	-34.3	-35.1	24.7	0.00e+00	123	38	0	748683264	42	5653
2026-01-01 13:41:48.50	41.35	24.14	-34.3	-35.2	24.7	0.00e+00	122	38	0	751828992	42	5685
2026-01-01 13:41:49.50	41.52	24.27	-34.4	-35.3	24.7	0.00e+00	123	38	0	756023296	42	5746
2026-01-01 13:41:50.51	41.69	24.39	-34.3	-35.2	24.8	0.00e+00	120	38	0	758120448	42	5691
2026-01-01 13:41:51.52	41.86	24.52	-34.5	-35.4	24.7	0.00e+00	123	38	0	761266176	42	5818
2026-01-01 13:41:52.53	42.03	24.65	-34.3	-35.2	24.8	0.00e+00	123	38	0	764411904	42	5663
2026-01-01 13:41:53.55	42.21	24.77	-34.5	-35.3	24.7	0.00e+00	122	38	0	767557632	42	5784
2026-01-01 13:41:54.56	42.38	24.90	-34.1	-35.0	24.9	0.00e+00	122	38	0	771751936	42	5555
2026-01-01 13:41:55.56	42.56	25.03	-34.2	-35.1	24.9	0.00e+00	122	38	0	774897664	42	5631
2026-01-01 13:41:56.58	42.74	25.16	-34.3	-35.1	24.8	0.00e+00	120	38	0	778043392	42	5636
2026-01-01 13:41:57.59	42.92	25.29	-34.1	-35.0	25.0	0.00e+00	123	38	0	781189120	42	5553
2026-01-01 13:41:58.59	43.10	25.41	-34.2	-35.0	24.9	0.00e+00	121	38	0	783286272	42	5570
2026-01-01 13:41:59.61	43.28	25.54	-34.4	-35.3	24.7	0.00e+00	123	38	0	787480576	42	5756
2026-01-01 13:42:00.62	43.46	25.67	-34.4	-35.3	24.6	0.00e+00	123	38	0	790626304	42	5764
2026-01-01 13:42:01.63	43.65	25.80	-34.6	-35.5	24.5	0.00e+00	122	38	0	793772032	42	5925
2026-01-01 13:42:02.63	43.84	25.93	-34.7	-35.6	24.4	0.00e+00	120	38	0	796917760	42	5985
2026-01-01 13:42:03.64	44.02	26.06	-34.8	-35.7	24.2	0.00e+00	122	38	0	800063488	42	6044
2026-01-01 13:42:04.66	44.21	26.19	-34.8	-35.7	24.3	0.00e+00	120	38	0	803209216	42	6060
2026-01-01 13:42:05.66	44.40	26.32	-34.9	-35.8	24.3	0.00e+00	121	38	0	806354944	42	6095
2026-01-01 13:42:06.68	44.60	26.46	-34.9	-35.8	24.3	0.00e+00	123	38	0	809500672	42	6127
2026-01-01 13:42:07.69	44.79	26.59	-35.0	-35.9	24.3	0.00e+00	122	38	0	812646400	42	6195
2026-01-01 13:42:08.70	44.99	26.72	-35.2	-36.2	24.1	0.00e+00	122	38	0	815792128	42	6351
2026-01-01 13:42:09.71	45.19	26.85	-35.3	-36.2	24.1	0.00e+00	123	38	0	818937856	42	6385
2026-01-01 13:42:10.72	45.39	26.99	-35.5	-36.4	23.9	0.00e+00	123	38	0	822083584	42	6519
2026-01-01 13:42:11.73	45.59	27.12	-35.6	-36.6	23.8	0.00e+00	123	38	0	825229312	42	6678
2026-01-01 13:42:12.74	45.79	27.25	-35.7	-36.6	23.7	0.00e+00	123	38	0	828375040	42	6698
2026-01-01 13:42:13.75	45.99	27.39	-35.7	-36.7	23.7	0.00e+00	123	38	0	831520768	44	6027
2026-01-01 13:42:14.76	46.20	27.52	-35.7	-36.7	23.7	0.00e+00	122	38	0	834666496	44	6005
2026-01-01 13:42:15.77	46.41	27.65	-35.6	-36.5	23.8	0.00e+00	122	38	0	837812224	44	5914
2026-01-01 13:42:16.78	46.62	27.79	-35.5	-36.5	23.9	0.00e+00	123	38	0	840957952	44	5880
2026-01-01 13:42:17.79	46.83	27.92	-35.6	-36.6	23.8	0.00e+00	123	38	0	844103680	44	5938
2026-01-01 13:42:18.80	47.04	28.06	-35.8	-36.7	23.7	0.00e+00	120	38	0	847249408	44	6035
2026-01-01 13:42:19.81	47.25	28.19	-35.7	-36.6	23.8	0.00e+00	122	38	0	850395136	44	5972
2026-01-01 13:42:20.82	47.47	28.33	-35.9	-36.8	23.5	0.00e+00	120	38	0	853540864	44	6085
2026-01-01 13:42:21.83	47.69	28.46	-35.8	-36.7	23.6	0.00e+00	122	38	0	856686592	44	6032
2026-01-01 13:42:22.84	47.91	28.60	-35.7	-36.7	23.7	0.00e+00	120	38	0	859832320	44	6018
2026-01-01 13:42:23.85	48.13	28.73	-35.9	-36.8	23.6	0.00e+00	123	38	0	862978048	44	6107
2026-01-01 13:42:24.86	48.35	28.87	-35.7	-36.6	23.8	0.00e+00	122	38	0	866123776	44	5964
2026-01-01 13:42:25.87	48.58	29.01	-35.6	-36.5	23.7	0.00e+00	123	38	0	869269504	44	5906
2026-01-01 13:42:26.88	48.80	29.14	-35.3	-36.2	23.9	0.00e+00	123	38	0	872415232	44	5713
2026-01-01 13:42:27.89	49.03	29.28	-35.2	-36.1	24.1	0.00e+00	122	38	0	875560960	44	5614
2026-01-01 13:42:28.90	49.26	29.42	-35.3	-36.2	24.0	0.00e+00	123	38	0	878706688	44	5686
2026-01-01 13:42:29.91	49.50	29.55	-35.3	-36.2	24.1	0.00e+00	122	38	0	881852416	44	5676
2026-01-01 13:42:30.92	49.73	29.69	-35.3	-36.2	24.1	0.00e+00	123	38	0	884998144	44	5676
2026-01-01 13:42:31.93	49.97	29.83	-35.1	-36.0	24.2	0.00e+00	120	38	0	888143872	44	5563
2026-01-01 13:42:32.94	50.21	29.97	-35.1	-36.1	24.1	0.00e+00	122	38	0	891289600	44	5599
2026-01-01 13:42:33.95	50.45	30.10	-35.0	-36.0	24.2	0.00e+00	123	38	0	894435328	44	5547
2026-01-01 13:42:34.96	50.69	30.24	-35.1	-36.0	24.2	0.00e+00	122	38	0	897581056	44	5544
2026-01-01 13:42:35.97	50.94	30.38	-35.2	-36.1	24.1	0.00e+00	122	38	0	900726784	44	5652
2026-01-01 13:42:36.98	51.18	30.52	-35.2	-36.1	24.2	0.00e+00	123	38	0	903872512	44	5602
2026-01-01 13:42:37.99	51.43	30.66	-35.0	-35.9	24.3	0.00e+00	120	38	0	907018240	44	5517
2026-01-01 13:42:39.00	51.68	30.79	-35.1	-36.0	24.2	0.00e+00	122	38	0	910163968	44	5552
2026-01-01 13:42:40.01	51.94	30.93	-34.8	-35.7	24.4	0.00e+00	122	38	0	913309696	44	5356
2026-01-01 13:42:41.02	52.19	31.07	-34.8	-35.7	24.4	0.00e+00	120	38	0	916455424	44	5351
2026-01-01 13:42:42.03	52.45	31.21	-34.8	-35.7	24.4	0.00e+00	123	38	0	919601152	44	5394
2026-01-01 13:42:43.04	52.71	31.35	-35.0	-35.9	24.2	0.00e+00	121	38	0	922746880	44	5487
2026-01-01 13:42:44.05	52.97	31.49	-35.2	-36.1	24.1	0.00e+00	123	38	0	925892608	44	5616
2026-01-01 13:42:45.06	53.24	31.62	-35.4	-36.3	24.0	0.00e+00	120	38	0	929038336	44	5791
2026-01-01 13:42:46.07	53.50	31.76	-35.4	-36.3	23.8	0.00e+00	122	38	0	932184064	44	5770
2026-01-01 13:42:47.08	53.77	31.90	-35.6	-36.6	23.7	0.00e+00	122	38	0	935329792	44	5941
2026-01-01 13:42:48.09	54.04	32.04	-35.5	-36.4	23.6	0.00e+00	123	38	0	938475520	44	5857
2026-01-01 13:42:49.10	54.31	32.18	-35.6	-36.6	23.6	0.00e+00	122	38	0	941621248	44	5929
2026-01-01 13:42:50.11	54.59	32.32	-35.7	-36.6	23.6	0.00e+00	123	38	0	944766976	44	5979
2026-01-01 13:42:51.12	54.87	32.45	-35.7	-36.6	23.7	0.00e+00	120	38	0	947912704	44	5941
2026-01-01 13:42:52.13	55.15	32.59	-35.4	-36.3	24.0	0.00e+00	123	38	0	951058432	44	5789
2026-01-01 13:42:53.14	55.43	32.73	-35.4	-36.3	23.9	0.00e+00	122	38	0	954204160	44	5774
2026-01-01 13:42:54.15	55.71	32.87	-35.5	-36.5	23.8	0.00e+00	122	38	0	957349888	44	5873
2026-01-01 13:42:55.16	56.00	33.01	-35.7	-36.7	23.6	0.00e+00	123	38	0	960495616	44	6008
2026-01-01 13:42:56.17	56.29	33.14	-35.7	-36.7	23.6	0.00e+00	123	38	0	963641344	44	6014
2026-01-01 13:42:57.18	56.58	33.28	-35.9	-36.9	23.4	0.00e+00	123	38	0	966787072	44	6182
2026-01-01 13:42:58.19	56.88	33.42	-35.9	-36.9	23.5	0.00e+00	122	38	0	969932800	44	6165
2026-01-01 13:42:59.20	57.17	33.55	-36.0	-37.0	23.5	0.00e+00	122	38	0	973078528	44	6240
2026-01-01 13:43:00.21	57.47	33.69	-36.0	-36.9	23.4	0.00e+00	122	38	0	976224256	44	6203
2026-01-01 13:43:01.22	57.78	33.83	-36.1	-37.0	23.3	0.00e+00	123	38	0	979369984	44	6249
2026-01-01 13:43:02.23	58.08	33.96	-36.0	-37.0	23.4	0.00e+00	123	38	0	982515712	44	6239
2026-01-01 13:43:03.24	58.39	34.10	-36.1	-37.1	23.3	0.00e+00	122	38	0	985661440	44	6293
2026-01-01 13:43:04.25	58.70	34.24	-36.2	-37.2	23.3	0.00e+00	123	38	0	988807168	44	6395
2026-01-01 13:43:05.26	59.01	34.37	-36.3	-37.3	23.2	0.00e+00	123	38	0	991952896	44	6435
2026-01-01 13:43:06.27	59.32	34.51	-36.3	-37.3	23.3	0.00e+00	123	38	0	995098624	44	6428
2026-01-01 13:43:07.28	59.64	34.64	-36.4	-37.4	23.2	0.00e+00	120	38	0	998244352	44	6506
2026-01-01 13:43:08.29	59.96	34.78	-36.3	-37.2	23.3	0.00e+00	122	38	0	1001390080	44	6417
2026-01-01 13:43:09.30	60.28	34.91	-36.3	-37.3	23.2	0.00e+00	123	38	0	1004535808	44	6448
2026-01-01 13:43:10.31	60.61	35.04	-36.5	-37.5	22.9	0.00e+00	122	38	0	1007681536	44	6621
2026-01-01 13:43:11.32	60.93	35.18	-36.5	-37.5	23.0	0.00e+00	122	38	0	1010827264	44	6593
2026-01-01 13:43:12.33	61.26	35.31	-36.3	-37.3	23.0	0.00e+00	123	38	0	1013972992	44	6459
2026-01-01 13:43:13.34	61.60	35.44	-36.5	-37.4	22.9	0.00e+00	123	38	0	1017118720	44	6564
2026-01-01 13:43:14.35	61.93	35.57	-36.5	-37.5	22.9	0.00e+00	121	38	0	1020264448	44	6590
2026-01-01 13:43:15.35	62.27	35.70	-36.6	-37.6	22.9	0.00e+00	120	38	0	1023410176	44	6657
2026-01-01 13:43:16.37	62.61	35.83	-36.7	-37.7	22.9	0.00e+00	120	38	0	1026555904	44	6773
2026-01-01 13:43:17.38	62.95	35.96	-36.7	-37.7	22.8	0.00e+00	123	38	0	1029701632	46	6039
2026-01-01 13:43:18.38	63.30	36.09	-37.0	-38.0	22.7	0.00e+00	123	38	0	1032847360	46	6229
2026-01-01 13:43:19.39	63.65	36.22	-36.9	-37.9	22.7	0.00e+00	123	38	0	1035993088	46	6147
2026-01-01 13:43:20.40	64.00	36.35	-37.0	-38.0	22.7	0.00e+00	122	38	0	1039138816	46	6234
2026-01-01 13:43:21.42	64.36	36.48	-36.7	-37.7	23.0	0.00e+00	123	38	0	1042284544	46	6019
2026-01-01 13:43:22.42	64.71	36.60	-36.6	-37.5	23.1	0.00e+00	125	38	0	1045430272	46	5915
2026-01-01 13:43:23.43	65.07	36.73	-36.6	-37.5	23.1	0.00e+00	121	38	0	1048576000	46	5914
2026-01-01 13:43:24.44	65.43	36.85	-36.8	-37.8	22.9	0.00e+00	123	38	0	1051721728	46	6087
2026-01-01 13:43:25.45	65.80	36.98	-37.1	-38.1	22.5	0.00e+00	121	38	0	1054867456	46	6328
2026-01-01 13:43:26.46	66.16	37.10	-37.1	-38.1	22.6	0.00e+00	123	38	0	1058013184	46	6322
2026-01-01 13:43:27.47	66.54	37.22	-37.1	-38.1	22.6	0.00e+00	120	38	0	1061158912	46	6285
2026-01-01 13:43:28.48	66.91	37.34	-37.0	-38.0	22.6	0.00e+00	122	38	0	1064304640	46	6232
2026-01-01 13:43:29.49	67.29	37.46	-37.0	-37.9	22.7	0.00e+00	123	38	0	1067450368	46	6205
2026-01-01 13:43:30.50	67.66	37.58	-36.8	-37.8	22.8	0.00e+00	122	38	0	1071644672	46	6099
2026-01-01 13:43:31.51	68.05	37.70	-36.6	-37.6	22.9	0.00e+00	120	38	0	1073741824	46	5958
2026-01-01 13:43:32.52	68.43	37.82	-36.6	-37.6	22.9	0.00e+00	122	38	0	1076887552	46	5969
2026-01-01 13:43:33.53	68.82	37.94	-36.8	-37.8	22.8	0.00e+00	120	38	0	1080033280	46	6083
2026-01-01 13:43:34.54	69.21	38.05	-37.1	-38.1	22.5	0.00e+00	122	38	0	1083179008	46	6335
2026-01-01 13:43:35.55	69.60	38.17	-37.3	-38.3	22.4	0.00e+00	122	38	0	1087373312	46	6484
2026-01-01 13:43:36.56	70.00	38.28	-37.3	-38.3	22.5	0.00e+00	122	38	0	1090519040	46	6432
2026-01-01 13:43:37.57	70.40	38.40	-37.3	-38.3	22.4	0.00e+00	123	38	0	1093664768	46	6457
2026-01-01 13:43:38.58	70.80	38.51	-37.1	-38.1	22.5	0.00e+00	120	38	0	1096810496	46	6307
2026-01-01 13:43:39.59	71.20	38.62	-37.1	-38.1	22.3	0.00e+00	123	38	0	1098907648	46	6304
2026-01-01 13:43:40.60	71.61	38.73	-37.1	-38.1	22.4	0.00e+00	122	38	0	1103101952	46	6309
2026-01-01 13:43:41.61	72.02	38.83	-37.1	-38.1	22.5	0.00e+00	122	38	0	1106247680	46	6332
2026-01-01 13:43:42.62	72.43	38.94	-37.0	-38.0	22.6	0.00e+00	123	38	0	1109393408	46	6247
2026-01-01 13:43:43.62	72.84	39.04	-37.1	-38.1	22.6	0.00e+00	123	38	0	1112539136	46	6291
2026-01-01 13:43:44.63	73.25	39.15	-37.3	-38.2	22.5	0.00e+00	122	38	0	1115684864	46	6422
2026-01-01 13:43:45.64	73.67	39.25	-37.6	-38.6	22.2	0.00e+00	120	38	0	1118830592	46	6656
2026-01-01 13:43:46.65	74.10	39.35	-38.0	-39.1	21.7	0.00e+00	122	38	0	1121976320	48	6321
2026-01-01 13:43:47.66	74.52	39.45	-38.1	-39.1	21.6	0.00e+00	123	38	0	1125122048	48	6334
2026-01-01 13:43:48.67	74.95	39.55	-38.0	-39.1	21.7	0.00e+00	123	38	0	1128267776	48	6335
2026-01-01 13:43:49.68	75.38	39.65	-37.9	-39.0	21.8	0.00e+00	123	38	0	1131413504	48	6213
2026-01-01 13:43:50.69	75.81	39.74	-37.9	-39.0	21.9	0.00e+00	120	38	0	1134559232	48	6216
2026-01-01 13:43:51.70	76.25	39.84	-37.6	-38.6	22.0	0.00e+00	120	38	0	1137704960	48	5986
2026-01-01 13:43:52.71	76.68	39.93	-37.7	-38.8	21.9	0.00e+00	122	38	0	1140850688	48	6081
2026-01-01 13:43:53.73	77.13	40.02	-37.6	-38.6	22.0	0.00e+00	123	38	0	1143996416	48	5989
2026-01-01 13:43:54.74	77.57	40.11	-37.6	-38.7	22.2	0.00e+00	122	38	0	1147142144	48	6002
2026-01-01 13:43:55.75	78.02	40.20	-37.3	-38.3	22.4	0.00e+00	123	38	0	1150287872	48	5784
2026-01-01 13:43:56.76	78.46	40.28	-37.2	-38.3	22.4	0.00e+00	122	38	0	1153433600	48	5735
2026-01-01 13:43:57.77	78.91	40.36	-37.3	-38.3	22.2	0.00e+00	122	38	0	1156579328	48	5762
2026-01-01 13:43:58.78	79.36	40.45	-37.3	-38.4	22.2	0.00e+00	122	38	0	1159725056	48	5810
2026-01-01 13:43:59.79	79.82	40.53	-37.5	-38.5	22.2	0.00e+00	123	38	0	1162870784	48	5882
2026-01-01 13:44:00.80	80.27	40.61	-37.7	-38.8	22.0	0.00e+00	122	38	0	1166016512	48	6096
2026-01-01 13:44:01.81	80.73	40.68	-37.9	-38.9	21.7	0.00e+00	120	38	0	1169162240	48	6191
2026-01-01 13:44:02.82	81.19	40.76	-37.8	-38.9	21.5	0.00e+00	122	38	0	1172307968	48	6165
2026-01-01 13:44:03.83	81.66	40.83	-37.7	-38.8	21.7	0.00e+00	122	38	0	1175453696	48	6082
2026-01-01 13:44:04.84	82.12	40.90	-37.8	-38.8	21.9	0.00e+00	122	38	0	1178599424	48	6119
2026-01-01 13:44:05.85	82.59	40.97	-37.6	-38.7	22.0	0.00e+00	121	38	0	1181745152	48	6002
2026-01-01 13:44:06.86	83.06	41.04	-37.6	-38.7	22.2	0.00e+00	122	38	0	1184890880	48	6005
2026-01-01 13:44:07.87	83.53	41.10	-37.3	-38.3	22.3	0.00e+00	123	38	0	1188036608	48	5772
2026-01-01 13:44:08.88	84.00	41.16	-37.6	-38.7	22.1	0.00e+00	123	38	0	1191182336	48	6032
2026-01-01 13:44:09.89	84.47	41.23	-37.9	-39.0	21.9	0.00e+00	120	38	0	1194328064	48	6217
2026-01-01 13:44:10.90	84.95	41.28	-37.9	-39.0	21.9	0.00e+00	123	38	0	1197473792	48	6240
2026-01-01 13:44:11.91	85.43	41.34	-37.8	-38.9	21.8	0.00e+00	120	38	0	1200619520	48	6168
2026-01-01 13:44:12.92	85.91	41.40	-37.4	-38.4	22.3	0.00e+00	122	38	0	1203765248	48	5821
2026-01-01 13:44:13.93	86.39	41.45	-37.4	-38.4	22.2	0.00e+00	120	38	0	1206910976	48	5804
2026-01-01 13:44:14.94	86.87	41.50	-37.4	-38.5	22.1	0.00e+00	123	38	0	1210056704	48	5859
2026-01-01 13:44:15.95	87.35	41.55	-37.6	-38.7	22.0	0.00e+00	120	38	0	1213202432	48	6019
2026-01-01 13:44:16.96	87.84	41.59	-37.8	-38.8	21.9	0.00e+00	123	38	0	1216348160	48	6128
2026-01-01 13:44:17.97	88.33	41.64	-37.6	-38.6	22.1	0.00e+00	123	38	0	1219493888	48	5964
2026-01-01 13:44:18.98	88.81	41.68	-37.4	-38.4	22.3	0.00e+00	122	38	0	1222639616	48	5828
2026-01-01 13:44:19.99	89.30	41.72	-37.1	-38.1	22.5	0.00e+00	120	38	0	1225785344	48	5600
2026-01-01 13:44:21.01	89.80	41.76	-37.0	-38.0	22.6	0.00e+00	123	38	0	1228931072	48	5565
2026-01-01 13:44:22.02	90.29	41.79	-37.4	-38.4	22.3	0.00e+00	120	38	0	1232076800	48	5813
2026-01-01 13:44:23.03	90.78	41.82	-37.6	-38.7	22.0	0.00e+00	121	38	0	1235222528	48	5997
2026-01-01 13:44:24.04	91.28	41.85	-37.8	-38.8	21.9	0.00e+00	122	38	0	1238368256	48	6115
2026-01-01 13:44:25.05	91.77	41.88	-38.0	-39.1	21.6	0.00e+00	123	38	0	1241513984	48	6311
2026-01-01 13:44:26.06	92.27	41.91	-38.1	-39.2	21.4	0.00e+00	123	38	0	1244659712	48	6397
2026-01-01 13:44:27.07	92.76	41.93	-38.1	-39.2	21.4	0.00e+00	122	38	0	1247805440	48	6356
2026-01-01 13:44:28.08	93.26	41.95	-38.1	-39.2	21.5	0.00e+00	123	38	0	1250951168	48	6380
2026-01-01 13:44:29.09	93.75	41.97	-37.8	-38.8	21.8	0.00e+00	123	38	0	1254096896	48	6134
2026-01-01 13:44:30.10	94.25	41.99	-37.7	-38.7	21.8	0.00e+00	122	38	0	1257242624	48	6049
2026-01-01 13:44:31.11	94.75	42.00	-38.2	-39.2	21.4	0.00e+00	123	38	0	1260388352	48	6406
2026-01-01 13:44:32.12	95.25	42.01	-38.5	-39.6	21.1	0.00e+00	122	38	0	1263534080	48	6690
2026-01-01 13:44:33.13	95.75	42.02	-38.4	-39.5	21.3	0.00e+00	122	38	0	1266679808	50	5912
2026-01-01 13:44:34.14	96.25	42.03	-38.2	-39.2	21.4	0.00e+00	123	38	0	1269825536	50	5725
2026-01-01 13:44:35.15	96.75	42.03	-37.6	-38.6	22.1	0.00e+00	122	38	0	1272971264	48	5944
2026-01-01 13:44:36.16	97.25	42.03	-37.0	-38.0	22.6	0.00e+00	123	38	0	1276116992	48	5552
2026-01-01 13:44:37.17	97.75	42.03	-37.2	-38.2	22.2	0.00e+00	123	38	0	1279262720	48	5708
2026-01-01 13:44:38.18	98.25	42.03	-37.7	-38.7	22.1	0.00e+00	122	38	0	1282408448	48	6034
2026-01-01 13:44:39.19	98.75	42.03	-38.0	-39.0	21.7	0.00e+00	120	38	0	1285554176	48	6276
2026-01-01 13:44:40.20	99.24	42.02	-37.5	-38.6	22.2	0.00e+00	123	38	0	1288699904	48	5930
2026-01-01 13:44:41.21	99.74	42.01	-37.6	-38.6	22.0	0.00e+00	122	38	0	1291845632	48	5985
2026-01-01 13:44:42.22	100.24	42.00	-37.9	-38.9	21.7	0.00e+00	122	38	0	1294991360	48	6188
2026-01-01 13:44:43.23	100.74	41.98	-38.2	-39.3	21.5	0.00e+00	123	38	0	1298137088	48	6470
2026-01-01 13:44:44.24	101.24	41.96	-38.4	-39.6	21.2	0.00e+00	123	38	0	1301282816	48	6676
2026-01-01 13:44:45.25	101.74	41.95	-38.2	-39.3	21.6	0.00e+00	120	38	0	1304428544	48	6461
2026-01-01 13:44:46.26	102.23	41.92	-37.8	-38.9	22.0	0.00e+00	123	38	0	1307574272	48	6160
2026-01-01 13:44:47.27	102.73	41.90	-37.5	-38.6	22.1	0.00e+00	122	38	0	1310720000	48	5927
2026-01-01 13:44:48.29	103.23	41.87	-37.8	-38.9	21.9	0.00e+00	122	38	0	1313865728	48	6168
2026-01-01 13:44:49.29	103.72	41.84	-37.8	-38.8	22.0	0.00e+00	123	38	0	1317011456	48	6115
2026-01-01 13:44:50.31	104.22	41.81	-37.6	-38.7	22.0	0.00e+00	123	38	0	1320157184	48	6026
2026-01-01 13:44:51.32	104.71	41.78	-37.6	-38.7	21.9	0.00e+00	120	38	0	1323302912	48	6009
2026-01-01 13:44:52.33	105.20	41.74	-37.5	-38.6	22.0	0.00e+00	122	38	0	1326448640	48	5949
2026-01-01 13:44:53.34	105.69	41.71	-37.7	-38.8	22.0	0.00e+00	120	38	0	1329594368	48	6076
2026-01-01 13:44:54.35	106.18	41.67	-37.4	-38.5	22.2	0.00e+00	123	38	0	1332740096	48	5880
2026-01-01 13:44:55.36	106.67	41.62	-37.0	-38.0	22.6	0.00e+00	123	38	0	1335885824	48	5570
2026-01-01 13:44:56.37	107.15	41.58	-37.3	-38.3	22.3	0.00e+00	123	38	0	1339031552	48	5764
2026-01-01 13:44:57.38	107.64	41.53	-38.0	-39.1	21.7	0.00e+00	122	38	0	1342177280	48	6325
2026-01-01 13:44:58.39	108.12	41.48	-38.1	-39.2	21.6	0.00e+00	120	38	0	1345323008	48	6385
2026-01-01 13:44:59.40	108.61	41.43	-37.7	-38.8	22.0	0.00e+00	122	38	0	1348468736	48	6081
2026-01-01 13:45:00.41	109.09	41.38	-37.5	-38.6	22.2	0.00e+00	123	38	0	1351614464	48	5939
2026-01-01 13:45:01.42	109.57	41.32	-37.3	-38.3	22.0	0.00e+00	120	38	0	1354760192	48	5757
2026-01-01 13:45:02.43	110.04	41.27	-37.5	-38.6	21.9	0.00e+00	123	38	0	1357905920	48	5960
2026-01-01 13:45:03.44	110.52	41.21	-37.5	-38.6	22.1	0.00e+00	123	38	0	1361051648	48	5967
2026-01-01 13:45:04.45	110.99	41.14	-37.7	-38.7	22.2	0.00e+00	123	38	0	1365245952	48	6028
2026-01-01 13:45:05.46	111.47	41.08	-37.5	-38.6	22.2	0.00e+00	122	38	0	1367343104	48	5943
2026-01-01 13:45:06.47	111.94	41.02	-37.7	-38.8	21.9	0.00e+00	123	38	0	1370488832	48	6095
2026-01-01 13:45:07.48	112.41	40.95	-37.9	-39.0	21.7	0.00e+00	122	38	0	1373634560	48	6253
2026-01-01 13:45:08.49	112.87	40.88	-37.6	-38.7	22.1	0.00e+00	122	38	0	1376780288	48	6018
2026-01-01 13:45:09.50	113.34	40.81	-37.6	-38.6	22.3	0.00e+00	123	38	0	1380974592	48	5965
2026-01-01 13:45:10.51	113.80	40.73	-37.2	-38.2	22.4	0.00e+00	122	38	0	1384120320	48	5717
2026-01-01 13:45:11.52	114.26	40.66	-37.7	-38.8	21.7	0.00e+00	122	38	0	1387266048	48	6101
2026-01-01 13:45:12.53	114.72	40.58	-38.1	-39.3	21.6	0.00e+00	122	38	0	1390411776	48	6425
2026-01-01 13:45:13.54	115.18	40.50	-38.1	-39.2	21.7	0.00e+00	120	38	0	1392508928	48	6374
2026-01-01 13:45:14.55	115.63	40.42	-37.8	-38.8	21.9	0.00e+00	123	38	0	1396703232	48	6085
2026-01-01 13:45:15.56	116.08	40.34	-37.4	-38.4	22.1	0.00e+00	123	38	0	1399848960	48	5812
2026-01-01 13:45:16.58	116.54	40.25	-37.0	-38.0	22.6	0.00e+00	122	38	0	1402994688	48	5549
2026-01-01 13:45:17.58	116.98	40.17	-36.7	-37.7	22.9	0.00e+00	122	38	0	1406140416	46	6000
2026-01-01 13:45:18.60	117.43	40.08	-36.7	-37.6	22.9	0.00e+00	122	38	0	1409286144	46	5982
2026-01-01 13:45:19.60	117.87	39.99	-36.8	-37.8	22.3	0.00e+00	122	38	0	1412431872	46	6127
2026-01-01 13:45:20.62	118.31	39.90	-37.3	-38.3	22.0	0.00e+00	122	38	0	1415577600	46	6473
2026-01-01 13:45:21.63	118.75	39.80	-37.5	-38.6	22.0	0.00e+00	122	38	0	1418723328	46	6669
2026-01-01 13:45:22.64	119.18	39.71	-37.2	-38.2	22.3	0.00e+00	123	38	0	1421869056	46	6360
2026-01-01 13:45:23.64	119.61	39.61	-37.1	-38.1	22.4	0.00e+00	120	38	0	1425014784	46	6336
2026-01-01 13:45:24.66	120.05	39.52	-36.7	-37.7	22.6	0.00e+00	123	38	0	1428160512	46	6038
2026-01-01 13:45:25.67	120.47	39.42	-36.6	-37.5	22.6	0.00e+00	123	38	0	1431306240	46	5903
2026-01-01 13:45:26.68	120.90	39.32	-36.6	-37.6	22.7	0.00e+00	123	38	0	1434451968	46	5937
2026-01-01 13:45:27.69	121.32	39.21	-37.0	-37.9	22.7	0.00e+00	123	38	0	1437597696	46	6199
2026-01-01 13:45:28.70	121.74	39.11	-37.3	-38.3	22.3	0.00e+00	123	38	0	1440743424	46	6468
2026-01-01 13:45:29.71	122.16	39.01	-38.0	-39.1	21.6	0.00e+00	123	38	0	1443889152	48	6310
2026-01-01 13:45:30.72	122.57	38.90	-38.2	-39.3	21.5	0.00e+00	123	38	0	1447034880	48	6447
2026-01-01 13:45:31.73	122.98	38.79	-38.1	-39.2	21.6	0.00e+00	124	38	0	1450180608	48	6359
2026-01-01 13:45:32.74	123.39	38.68	-37.7	-38.8	22.0	0.00e+00	123	38	0	1453326336	48	6080
2026-01-01 13:45:33.75	123.80	38.57	-36.9	-37.9	22.6	0.00e+00	120	38	0	1456472064	48	5517
2026-01-01 13:45:34.76	124.20	38.46	-36.7	-37.6	22.8	0.00e+00	123	38	0	1459617792	46	5972
2026-01-01 13:45:35.77	124.60	38.35	-36.4	-37.4	23.0	0.00e+00	123	38	0	1462763520	46	5829
2026-01-01 13:45:36.78	125.00	38.24	-36.9	-37.9	22.7	0.00e+00	123	38	0	1465909248	46	6174
2026-01-01 13:45:37.79	125.40	38.12	-37.1	-38.1	22.7	0.00e+00	123	38	0	1469054976	46	6286
2026-01-01 13:45:38.80	125.79	38.01	-37.0	-38.0	22.7	0.00e+00	123	38	0	1472200704	46	6264
2026-01-01 13:45:39.81	126.18	37.89	-36.8	-37.8	22.8	0.00e+00	123	38	0	1475346432	46	6065
2026-01-01 13:45:40.82	126.57	37.77	-36.9	-37.9	22.4	0.00e+00	123	38	0	1478492160	46	6191
2026-01-01 13:45:41.83	126.95	37.65	-36.9	-37.9	22.6	0.00e+00	122	38	0	1481637888	46	6164
2026-01-01 13:45:42.84	127.33	37.53	-36.8	-37.7	23.0	0.00e+00	123	38	0	1484783616	46	6044
2026-01-01 13:45:43.85	127.71	37.41	-36.5	-37.5	23.1	0.00e+00	123	38	0	1487929344	46	5870
2026-01-01 13:45:44.86	128.09	37.29	-36.7	-37.7	22.8	0.00e+00	120	38	0	1491075072	46	6011
2026-01-01 13:45:45.87	128.46	37.17	-37.0	-38.0	22.6	0.00e+00	122	38	0	1494220800	46	6256
2026-01-01 13:45:46.88	128.83	37.05	-37.2	-38.2	22.5	0.00e+00	122	38	0	1497366528	46	6386
2026-01-01 13:45:47.89	129.20	36.92	-37.0	-38.0	22.7	0.00e+00	123	38	0	1500512256	46	6209
2026-01-01 13:45:48.90	129.57	36.80	-36.7	-37.7	23.0	0.00e+00	120	38	0	1503657984	46	6024
2026-01-01 13:45:49.91	129.93	36.67	-36.4	-37.3	23.1	0.00e+00	123	38	0	1506803712	46	5767
2026-01-01 13:45:50.92	130.29	36.54	-36.4	-37.3	23.0	0.00e+00	120	38	0	1509949440	46	5760
2026-01-01 13:45:51.93	130.65	36.42	-36.0	-37.0	23.3	0.00e+00	122	38	0	1513095168	46	5547
2026-01-01 13:45:52.94	131.00	36.29	-36.1	-37.0	23.3	0.00e+00	122	38	0	1516240896	46	5581
2026-01-01 13:45:53.95	131.35	36.16	-36.0	-36.9	23.5	0.00e+00	122	38	0	1519386624	46	5492
2026-01-01 13:45:54.96	131.70	36.03	-36.1	-37.1	23.3	0.00e+00	120	38	0	1522532352	46	5607
2026-01-01 13:45:55.97	132.05	35.90	-36.3	-37.3	23.1	0.00e+00	122	38	0	1525678080	46	5733
2026-01-01 13:45:56.98	132.39	35.77	-36.5	-37.5	23.1	0.00e+00	122	38	0	1528823808	46	5892
2026-01-01 13:45:57.99	132.73	35.64	-36.6	-37.6	23.0	0.00e+00	122	38	0	1531969536	46	5947
2026-01-01 13:45:59.00	133.07	35.51	-36.7	-37.7	22.9	0.00e+00	120	38	0	1535115264	46	6016
2026-01-01 13:46:00.01	133.41	35.38	-36.8	-37.8	22.7	0.00e+00	122	38	0	1538260992	46	6119
2026-01-01 13:46:01.02	133.74	35.24	-36.9	-37.9	22.6	0.00e+00	123	38	0	1541406720	46	6188
2026-01-01 13:46:02.03	134.07	35.11	-37.2	-38.2	22.4	0.00e+00	122	38	0	1544552448	46	6411
2026-01-01 13:46:03.04	134.40	34.98	-37.3	-38.4	22.3	0.00e+00	123	38	0	1547698176	46	6531
2026-01-01 13:46:04.04	134.72	34.84	-37.3	-38.4	22.4	0.00e+00	123	38	0	1550843904	46	6514
2026-01-01 13:46:05.06	135.04	34.71	-37.2	-38.2	22.5	0.00e+00	123	38	0	1553989632	46	6411
2026-01-01 13:46:06.06	135.36	34.57	-37.0	-38.0	22.7	0.00e+00	123	38	0	1557135360	46	6216
2026-01-01 13:46:07.08	135.68	34.44	-37.1	-38.1	22.6	0.00e+00	122	38	0	1560281088	46	6301
2026-01-01 13:46:08.09	135.99	34.30	-36.6	-37.6	23.0	0.00e+00	122	38	0	1563426816	46	5956
2026-01-01 13:46:09.10	136.31	34.16	-36.6	-37.6	23.0	0.00e+00	122	38	0	1566572544	46	5975
2026-01-01 13:46:10.11	136.61	34.03	-36.5	-37.5	23.1	0.00e+00	123	38	0	1569718272	46	5894
2026-01-01 13:46:11.12	136.92	33.89	-36.5	-37.4	23.2	0.00e+00	121	38	0	1572864000	46	5839
2026-01-01 13:46:12.12	137.22	33.76	-36.4	-37.3	23.2	0.00e+00	123	38	0	1576009728	46	5766
2026-01-01 13:46:13.13	137.52	33.62	-36.1	-37.1	23.5	0.00e+00	122	38	0	1579155456	46	5605
2026-01-01 13:46:14.14	137.82	33.48	-35.8	-36.7	23.7	0.00e+00	123	38	0	1582301184	46	5385
2026-01-01 13:46:15.16	138.12	33.34	-35.7	-36.6	23.7	0.00e+00	123	38	0	1585446912	44	5935
2026-01-01 13:46:16.17	138.42	33.20	-35.7	-36.7	23.7	0.00e+00	123	38	0	1588592640	44	6008
2026-01-01 13:46:17.18	138.71	33.06	-35.7	-36.6	23.7	0.00e+00	122	38	0	1591738368	44	5982
2026-01-01 13:46:18.19	139.00	32.93	-35.5	-36.5	23.8	0.00e+00	120	38	0	1594884096	44	5876
2026-01-01 13:46:19.20	139.29	32.79	-35.6	-36.5	23.7	0.00e+00	123	38	0	1598029824	44	5904
2026-01-01 13:46:20.21	139.57	32.65	-35.5	-36.4	23.7	0.00e+00	122	38	0	1601175552	44	5845
2026-01-01 13:46:21.21	139.85	32.51	-35.3	-36.2	23.9	0.00e+00	123	38	0	1604321280	44	5691
2026-01-01 13:46:22.22	140.13	32.37	-35.4	-36.3	23.9	0.00e+00	123	38	0	1607467008	44	5745
2026-01-01 13:46:23.23	140.41	32.23	-35.3	-36.2	24.0	0.00e+00	120	38	0	1610612736	44	5671
2026-01-01 13:46:24.24	140.68	32.10	-34.9	-35.8	24.4	0.00e+00	122	38	0	1613758464	44	5409
2026-01-01 13:46:25.25	140.96	31.96	-35.0	-35.9	24.3	0.00e+00	122	38	0	1616904192	44	5471
2026-01-01 13:46:26.26	141.23	31.82	-35.0	-35.9	24.2	0.00e+00	122	38	0	1620049920	44	5486
2026-01-01 13:46:27.27	141.50	31.68	-35.2	-36.1	24.1	0.00e+00	123	38	0	1623195648	44	5605
2026-01-01 13:46:28.29	141.76	31.54	-34.9	-35.8	24.2	0.00e+00	123	38	0	1626341376	44	5438
2026-01-01 13:46:29.30	142.03	31.40	-35.0	-35.9	24.2	0.00e+00	123	38	0	1629487104	44	5483
2026-01-01 13:46:30.31	142.29	31.26	-34.7	-35.6	24.2	0.00e+00	120	38	0	1632632832	44	5340
2026-01-01 13:46:31.31	142.55	31.12	-35.0	-35.9	24.1	0.00e+00	122	38	0	1635778560	42	6161
2026-01-01 13:46:32.32	142.80	30.98	-35.0	-35.9	24.2	0.00e+00	120	38	0	1638924288	42	6144
2026-01-01 13:46:33.34	143.06	30.84	-34.8	-35.7	24.2	0.00e+00	122	38	0	1642070016	42	6045
2026-01-01 13:46:34.35	143.31	30.70	-34.7	-35.6	24.3	0.00e+00	122	38	0	1645215744	42	5994
2026-01-01 13:46:35.35	143.56	30.57	-34.5	-35.4	24.4	0.00e+00	122	38	0	1648361472	42	5845
2026-01-01 13:46:36.37	143.81	30.43	-34.6	-35.5	24.4	0.00e+00	120	38	0	1651507200	42	5898
2026-01-01 13:46:37.38	144.06	30.29	-34.7	-35.6	24.3	0.00e+00	123	38	0	1654652928	42	5963
2026-01-01 13:46:38.39	144.31	30.15	-34.9	-35.8	24.2	0.00e+00	122	38	0	1657798656	42	6116
2026-01-01 13:46:39.40	144.55	30.01	-34.8	-35.7	24.4	0.00e+00	123	38	0	1660944384	42	6027
2026-01-01 13:46:40.41	144.79	29.87	-34.9	-35.8	24.3	0.00e+00	122	38	0	1664090112	42	6086
2026-01-01 13:46:41.42	145.03	29.73	-35.0	-35.9	24.2	0.00e+00	122	38	0	1667235840	42	6168
2026-01-01 13:46:42.43	145.26	29.59	-34.9	-35.8	24.3	0.00e+00	123	38	0	1670381568	42	6127
2026-01-01 13:46:43.44	145.50	29.46	-34.8	-35.7	24.4	0.00e+00	123	38	0	1673527296	42	6024
2026-01-01 13:46:44.45	145.73	29.32	-34.8	-35.7	24.4	0.00e+00	123	38	0	1677721600	42	6006
2026-01-01 13:46:45.46	145.96	29.18	-34.8	-35.7	24.2	0.00e+00	122	38	0	1680867328	42	6056
2026-01-01 13:46:46.47	146.19	29.04	-34.9	-35.8	24.2	0.00e+00	121	38	0	1682964480	42	6091
2026-01-01 13:46:47.48	146.42	28.91	-34.9	-35.8	24.1	0.00e+00	123	38	0	1686110208	42	6122
2026-01-01 13:46:48.49	146.64	28.77	-34.9	-35.8	24.2	0.00e+00	123	38	0	1689255936	42	6134
2026-01-01 13:46:49.50	146.87	28.63	-35.0	-35.9	24.1	0.00e+00	120	38	0	1693450240	42	6182
2026-01-01 13:46:50.51	147.09	28.50	-34.9	-35.9	24.2	0.00e+00	123	38	0	1696595968	42	6139
2026-01-01 13:46:51.52	147.31	28.36	-34.9	-35.8	24.3	0.00e+00	120	38	0	1699741696	42	6121
2026-01-01 13:46:52.53	147.53	28.22	-34.9	-35.8	24.2	0.00e+00	123	38	0	1702887424	42	6115
2026-01-01 13:46:53.54	147.74	28.09	-34.9	-35.9	24.2	0.00e+00	121	38	0	1706033152	42	6144
2026-01-01 13:46:54.55	147.96	27.95	-35.1	-36.0	24.0	0.00e+00	123	38	0	1709178880	42	6265
2026-01-01 13:46:55.55	148.17	27.82	-35.0	-35.9	24.2	0.00e+00	121	38	0	1712324608	42	6182
2026-01-01 13:46:56.57	148.38	27.68	-35.0	-35.9	24.2	0.00e+00	123	38	0	1715470336	42	6195
2026-01-01 13:46:57.58	148.59	27.55	-35.0	-36.0	24.1	0.00e+00	120	38	0	1718616064	42	6207
2026-01-01 13:46:58.59	148.79	27.41	-35.1	-36.0	24.2	0.00e+00	122	38	0	1721761792	42	6263
2026-01-01 13:46:59.60	149.00	27.28	-35.2	-36.1	24.0	0.00e+00	123	38	0	1724907520	42	6326
2026-01-01 13:47:00.61	149.20	27.14	-35.2	-36.1	24.1	0.00e+00	123	38	0	1728053248	42	6315
2026-01-01 13:47:01.62	149.41	27.01	-35.2	-36.2	24.0	0.00e+00	123	38	0	1731198976	42	6363
2026-01-01 13:47:02.63	149.61	26.88	-34.9	-35.8	24.3	0.00e+00	122	38	0	1734344704	42	6099
2026-01-01 13:47:03.64	149.80	26.74	-34.7	-35.6	24.5	0.00e+00	122	38	0	1737490432	42	5956
2026-01-01 13:47:04.65	150.00	26.61	-34.7	-35.6	24.4	0.00e+00	122	38	0	1740636160	42	5965
2026-01-01 13:47:05.66	150.20	26.48	-34.7	-35.6	24.5	0.00e+00	122	38	0	1743781888	42	5945
2026-01-01 13:47:06.67	150.39	26.34	-34.6	-35.5	24.5	0.00e+00	122	38	0	1746927616	42	5868
2026-01-01 13:47:07.68	150.58	26.21	-34.5	-35.4	24.6	0.00e+00	123	38	0	1750073344	42	5798
2026-01-01 13:47:08.69	150.78	26.08	-34.4	-35.3	24.7	0.00e+00	122	38	0	1753219072	42	5728
2026-01-01 13:47:09.69	150.96	25.95	-34.4	-35.3	24.7	0.00e+00	121	38	0	1756364800	42	5730
2026-01-01 13:47:10.71	151.15	25.82	-34.2	-35.1	24.7	0.00e+00	123	38	0	1759510528	42	5630
2026-01-01 13:47:11.72	151.34	25.69	-34.3	-35.1	24.6	0.00e+00	121	38	0	1762656256	42	5658
2026-01-01 13:47:12.73	151.52	25.56	-34.5	-35.4	24.5	0.00e+00	123	38	0	1765801984	42	5798
2026-01-01 13:47:13.74	151.71	25.43	-34.5	-35.4	24.4	0.00e+00	122	38	0	1768947712	42	5847
2026-01-01 13:47:14.75	151.89	25.30	-34.6	-35.5	24.4	0.00e+00	122	38	0	1772093440	42	5906
2026-01-01 13:47:15.76	152.07	25.17	-34.6	-35.6	24.4	0.00e+00	122	38	0	1775239168	42	5928
2026-01-01 13:47:16.77	152.25	25.04	-34.6	-35.5	24.4	0.00e+00	122	38	0	1778384896	42	5880
2026-01-01 13:47:17.78	152.43	24.91	-34.5	-35.4	24.5	0.00e+00	120	38	0	1781530624	42	5821
2026-01-01 13:47:18.79	152.60	24.78	-34.5	-35.4	24.4	0.00e+00	123	38	0	1784676352	42	5827
2026-01-01 13:47:19.80	152.78	24.65	-34.3	-35.2	24.6	0.00e+00	123	38	0	1787822080	42	5725
2026-01-01 13:47:20.81	152.95	24.53	-34.4	-35.2	24.6	0.00e+00	122	38	0	1790967808	42	5720
2026-01-01 13:47:21.82	153.12	24.40	-34.3	-35.1	24.6	0.00e+00	123	38	0	1794113536	42	5656
2026-01-01 13:47:22.83	153.29	24.27	-34.3	-35.2	24.4	0.00e+00	122	38	0	1797259264	42	5688
2026-01-01 13:47:23.84	153.46	24.14	-34.3	-35.2	24.5	0.00e+00	121	38	0	1800404992	42	5715
2026-01-01 13:47:24.85	153.63	24.02	-34.5	-35.4	24.4	0.00e+00	122	38	0	1803550720	42	5799
2026-01-01 13:47:25.86	153.80	23.89	-34.5	-35.4	24.3	0.00e+00	123	38	0	1806696448	42	5855
2026-01-01 13:47:26.87	153.96	23.77	-34.7	-35.6	24.2	0.00e+00	122	38	0	1809842176	42	5940
2026-01-01 13:47:27.88	154.13	23.64	-34.7	-35.6	24.3	0.00e+00	120	38	0	1812987904	42	5985
2026-01-01 13:47:28.89	154.29	23.52	-34.7	-35.6	24.4	0.00e+00	122	38	0	1816133632	42	5977
2026-01-01 13:47:29.90	154.45	23.39	-34.7	-35.6	24.3	0.00e+00	122	38	0	1819279360	42	5944
2026-01-01 13:47:30.91	154.61	23.27	-34.9	-35.8	24.2	0.00e+00	122	38	0	1822425088	42	6075
2026-01-01 13:47:31.92	154.77	23.14	-34.8	-35.7	24.3	0.00e+00	123	38	0	1825570816	42	6000
2026-01-01 13:47:32.94	154.93	23.02	-34.9	-35.8	24.2	0.00e+00	122	38	0	1828716544	42	6074
2026-01-01 13:47:33.95	155.09	22.90	-34.8	-35.7	24.2	0.00e+00	120	38	0	1831862272	42	6048
2026-01-01 13:47:34.96	155.25	22.77	-34.8	-35.7	24.2	0.00e+00	123	38	0	1835008000	42	6056
2026-01-01 13:47:35.97	155.40	22.65	-34.8	-35.7	24.2	0.00e+00	122	38	0	1838153728	42	6043
2026-01-01 13:47:36.98	155.55	22.53	-35.0	-35.9	24.1	0.00e+00	123	38	0	1841299456	42	6145
2026-01-01 13:47:37.99	155.71	22.41	-34.9	-35.8	24.1	0.00e+00	121	38	0	1844445184	42	6089
2026-01-01 13:47:39.00	155.86	22.29	-34.9	-35.8	24.1	0.00e+00	122	38	0	1847590912	42	6097
2026-01-01 13:47:40.01	156.01	22.17	-34.9	-35.8	24.2	0.00e+00	123	38	0	1850736640	42	6120
2026-01-01 13:47:41.02	156.15	22.05	-34.9	-35.8	24.2	0.00e+00	123	38	0	1853882368	42	6105
2026-01-01 13:47:42.03	156.30	21.93	-34.9	-35.8	24.2	0.00e+00	123	38	0	1857028096	42	6111
2026-01-01 13:47:43.04	156.45	21.81	-34.6	-35.5	24.4	0.00e+00	122	38	0	1860173824	42	5883
2026-01-01 13:47:44.05	156.59	21.69	-34.6	-35.5	24.4	0.00e+00	123	38	0	1863319552	42	5900
2026-01-01 13:47:45.06	156.74	21.57	-34.6	-35.5	24.5	0.00e+00	123	38	0	1866465280	42	5868
2026-01-01 13:47:46.07	156.88	21.45	-34.6	-35.4	24.4	0.00e+00	122	38	0	1869611008	42	5857
2026-01-01 13:47:47.08	157.02	21.33	-34.6	-35.6	24.4	0.00e+00	123	38	0	1872756736	42	5928
2026-01-01 13:47:48.09	157.17	21.21	-34.7	-35.5	24.4	0.00e+00	123	38	0	1875902464	42	5917
2026-01-01 13:47:49.10	157.31	21.10	-34.8	-35.7	24.2	0.00e+00	123	38	0	1879048192	42	6022
2026-01-01 13:47:50.12	157.45	20.98	-34.7	-35.6	24.3	0.00e+00	123	38	0	1882193920	42	5980
2026-01-01 13:47:51.13	157.58	20.86	-34.6	-35.5	24.4	0.00e+00	123	38	0	1885339648	42	5911
2026-01-01 13:47:52.14	157.72	20.75	-34.7	-35.6	24.3	0.00e+00	122	38	0	1888485376	42	5949
2026-01-01 13:47:53.15	157.86	20.63	-34.5	-35.4	24.3	0.00e+00	123	38	0	1891631104	42	5856
2026-01-01 13:47:54.16	157.99	20.52	-34.5	-35.4	24.3	0.00e+00	123	38	0	1894776832	42	5852
2026-01-01 13:47:55.17	158.13	20.40	-34.7	-35.6	24.2	0.00e+00	123	38	0	1897922560	42	5932
2026-01-01 13:47:56.18	158.26	20.29	-34.5	-35.4	24.4	0.00e+00	122	38	0	1901068288	42	5821
2026-01-01 13:47:57.19	158.39	20.17	-34.6	-35.5	24.3	0.00e+00	123	38	0	1904214016	42	5888
2026-01-01 13:47:58.20	158.52	20.06	-34.4	-35.3	24.4	0.00e+00	123	38	0	1907359744	42	5779
2026-01-01 13:47:59.21	158.65	19.94	-34.4	-35.3	24.4	0.00e+00	122	38	0	1910505472	42	5772
2026-01-01 13:48:00.22	158.78	19.83	-34.4	-35.3	24.4	0.00e+00	123	38	0	1913651200	42	5732
2026-01-01 13:48:01.23	158.91	19.72	-34.4	-35.3	24.3	0.00e+00	123	38	0	1916796928	42	5748
2026-01-01 13:48:02.24	159.04	19.61	-34.4	-35.3	24.4	0.00e+00	123	38	0	1919942656	42	5741
2026-01-01 13:48:03.25	159.17	19.49	-34.4	-35.2	24.4	0.00e+00	118	38	0	1923088384	42	5721
2026-01-01 13:48:04.26	159.29	19.38	-34.4	-35.4	24.3	0.00e+00	121	38	0	1926234112	42	5796
2026-01-01 13:48:05.27	159.42	19.27	-34.3	-35.2	24.5	0.00e+00	123	38	0	1929379840	42	5708
2026-01-01 13:48:06.28	159.54	19.16	-34.5	-35.4	24.3	0.00e+00	122	38	0	1932525568	42	5813
2026-01-01 13:48:07.29	159.66	19.05	-34.6	-35.5	24.3	0.00e+00	123	38	0	1935671296	42	5912
2026-01-01 13:48:08.30	159.79	18.94	-34.6	-35.5	24.3	0.00e+00	120	38	0	1938817024	42	5909
2026-01-01 13:48:09.31	159.91	18.83	-34.6	-35.5	24.3	0.00e+00	123	38	0	1941962752	42	5911
2026-01-01 13:48:10.32	160.03	18.72	-34.7	-35.6	24.2	0.00e+00	122	38	0	1945108480	42	5980
2026-01-01 13:48:11.33	160.15	18.61	-34.8	-35.7	24.1	0.00e+00	123	38	0	1948254208	42	6026
2026-01-01 13:48:12.34	160.27	18.50	-34.8	-35.7	24.1	0.00e+00	122	38	0	1951399936	42	6052
2026-01-01 13:48:13.35	160.39	18.39	-34.9	-35.8	24.1	0.00e+00	123	38	0	1954545664	42	6111
2026-01-01 13:48:14.36	160.50	18.28	-34.9	-35.8	24.1	0.00e+00	123	38	0	1957691392	42	6133
2026-01-01 13:48:15.37	160.62	18.18	-34.9	-35.9	24.1	0.00e+00	123	38	0	1960837120	42	6137
2026-01-01 13:48:16.38	160.74	18.07	-35.0	-35.9	24.0	0.00e+00	120	38	0	1963982848	42	6199
2026-01-01 13:48:17.39	160.85	17.96	-35.0	-35.9	24.0	0.00e+00	123	38	0	1967128576	42	6150
2026-01-01 13:48:18.40	160.97	17.86	-35.0	-36.0	23.8	0.00e+00	120	38	0	1971322880	42	6214
2026-01-01 13:48:19.41	161.08	17.75	-35.0	-35.9	23.8	0.00e+00	123	38	0	1974468608	42	6178
2026-01-01 13:48:20.42	161.19	17.64	-35.1	-36.0	23.7	0.00e+00	120	38	0	1976565760	42	6258
2026-01-01 13:48:21.43	161.30	17.54	-35.2	-36.1	23.7	0.00e+00	122	38	0	1979711488	42	6310
