passes_logs/2026/01/01/R4.6S_Anadyr/R4.6S_Anadyr__20260101_233229_NOAA_21_JPSS-2_rec.log

#Pass ID: 20260101_233229_NOAA 21 (JPSS-2)
#Satellite: NOAA 21 (JPSS-2)
#Configuration: NOAA-21
#almurnet v.1.7.20251203
#Start time: 2026-01-01 23:32:33

#Version: 2.2.20231116
#Station: R4.6S_Anadyr
#Location: 177.4865 lon 64.73178 lat
#TLE: 1 54234U 22150A   26001.62049579  .00000200  00000+0  11561-3 0  9997
#TLE: 2 54234  98.7484 302.6830 0001258 352.4447   7.6710 14.19530916162916

#Time	Az	El	Level	Level2	SNR	BER	BlckErr	Temp	State	Recorded	gain1	gain2
2026-01-01 23:32:33.02	139.64	0.19	-49.7	-51.3	5.7	0.00e+00	0	37	0	0	60	44992
2026-01-01 23:32:33.99	139.62	0.24	-49.4	-62.2	3.5	1.52e+00	0	38	104	0	60	45468
2026-01-01 23:32:34.97	139.61	0.30	-49.5	-62.3	3.5	1.52e+00	0	38	104	0	60	45938
2026-01-01 23:32:35.94	139.59	0.36	-49.5	-62.3	3.5	1.52e+00	0	38	104	0	60	45656
2026-01-01 23:32:36.92	139.57	0.42	-49.4	-62.3	3.5	1.52e+00	0	38	104	0	60	45652
2026-01-01 23:32:37.90	139.56	0.48	-49.4	-62.3	3.5	1.52e+00	0	38	104	0	60	45592
2026-01-01 23:32:38.87	139.54	0.54	-49.3	-62.1	3.5	1.52e+00	0	38	104	0	60	44771
2026-01-01 23:32:39.85	139.53	0.60	-49.2	-62.0	3.5	1.52e+00	0	38	104	0	60	44345
2026-01-01 23:32:40.83	139.51	0.66	-49.1	-61.9	3.5	1.52e+00	0	38	104	0	60	43902
2026-01-01 23:32:41.80	139.50	0.72	-49.0	-61.8	3.5	1.52e+00	0	38	104	0	60	43306
2026-01-01 23:32:42.78	139.48	0.78	-48.5	-61.4	3.5	1.52e+00	0	38	104	0	60	41420
2026-01-01 23:32:43.76	139.47	0.84	-48.5	-61.3	3.5	1.52e+00	0	39	104	0	60	40885
2026-01-01 23:32:44.73	139.45	0.90	-48.3	-61.1	3.5	1.52e+00	0	39	104	0	60	39733
2026-01-01 23:32:45.71	139.43	0.96	-47.9	-60.7	3.5	1.52e+00	0	39	104	0	60	38217
2026-01-01 23:32:46.69	139.42	1.02	-47.8	-60.7	3.5	1.52e+00	0	39	104	0	60	37913
2026-01-01 23:32:47.67	139.40	1.08	-47.8	-60.7	3.5	1.52e+00	0	39	104	0	60	37861
2026-01-01 23:32:48.64	139.39	1.14	-47.8	-60.6	3.5	1.52e+00	0	39	104	0	60	37805
2026-01-01 23:32:49.62	139.37	1.20	-47.8	-60.6	3.5	1.52e+00	0	39	104	0	60	37666
2026-01-01 23:32:50.60	139.35	1.26	-47.8	-60.6	3.5	1.52e+00	0	39	104	0	60	37787
2026-01-01 23:32:51.58	139.34	1.32	-47.7	-60.6	3.5	1.52e+00	0	39	104	0	60	37730
2026-01-01 23:32:52.56	139.32	1.38	-47.7	-60.6	3.5	1.52e+00	0	39	104	0	60	37800
2026-01-01 23:32:53.54	139.30	1.44	-47.7	-60.6	3.5	1.52e+00	0	39	104	0	60	37779
2026-01-01 23:32:54.52	139.29	1.50	-47.7	-60.6	3.5	1.52e+00	0	39	104	0	60	37772
2026-01-01 23:32:55.49	139.27	1.56	-47.7	-60.6	3.5	1.52e+00	0	39	104	0	60	37588
2026-01-01 23:32:56.47	139.25	1.63	-47.7	-60.1	3.5	1.52e+00	0	39	104	0	60	35698
2026-01-01 23:32:57.44	139.24	1.69	-47.7	-60.6	3.5	1.52e+00	0	39	104	0	60	37579
2026-01-01 23:32:58.42	139.22	1.75	-47.6	-60.5	3.5	1.51e+00	0	39	104	0	60	37077
2026-01-01 23:32:59.39	139.20	1.81	-47.7	-60.4	3.5	1.52e+00	0	39	104	0	60	36835
2026-01-01 23:33:00.37	139.18	1.87	-47.7	-60.4	3.5	1.52e+00	0	39	104	0	60	36657
2026-01-01 23:33:01.35	139.17	1.93	-47.7	-60.3	3.5	1.52e+00	0	39	104	0	60	36410
2026-01-01 23:33:02.32	139.15	2.00	-47.7	-60.4	3.5	1.52e+00	0	39	104	0	60	36779
2026-01-01 23:33:03.29	139.13	2.06	-47.7	-60.5	3.5	1.52e+00	0	39	104	0	60	37004
2026-01-01 23:33:04.27	139.12	2.12	-47.8	-60.5	3.5	1.52e+00	0	39	104	0	60	37387
2026-01-01 23:33:05.25	139.10	2.18	-47.8	-60.6	3.5	1.52e+00	0	39	104	0	60	37563
2026-01-01 23:33:06.22	139.08	2.25	-47.8	-60.6	3.5	1.52e+00	0	39	104	0	60	37683
2026-01-01 23:33:07.20	139.06	2.31	-47.8	-60.6	3.5	1.52e+00	0	39	104	0	60	37415
2026-01-01 23:33:08.17	139.04	2.37	-47.8	-60.5	3.5	1.52e+00	0	39	104	0	60	37002
2026-01-01 23:33:09.15	139.03	2.43	-47.8	-60.5	3.5	1.52e+00	0	39	104	0	60	37005
2026-01-01 23:33:10.13	139.01	2.50	-47.8	-60.4	3.5	1.52e+00	0	39	104	0	60	36755
2026-01-01 23:33:11.10	138.99	2.56	-47.8	-60.5	3.5	1.52e+00	0	39	104	0	60	37109
2026-01-01 23:33:12.08	138.97	2.62	-47.8	-60.5	3.5	1.52e+00	0	39	104	0	60	36999
2026-01-01 23:33:13.06	138.95	2.69	-47.8	-60.4	3.5	1.52e+00	0	39	104	0	60	36775
2026-01-01 23:33:14.04	138.94	2.75	-47.8	-60.3	3.5	1.51e+00	0	39	104	0	60	36502
2026-01-01 23:33:15.01	138.92	2.82	-47.8	-60.3	3.5	1.52e+00	0	39	104	0	60	36435
2026-01-01 23:33:15.99	138.90	2.88	-47.8	-60.4	3.5	1.52e+00	0	39	104	0	60	36611
2026-01-01 23:33:16.97	138.88	2.94	-47.8	-60.5	3.5	1.52e+00	0	39	104	0	60	37285
2026-01-01 23:33:17.94	138.86	3.01	-47.8	-60.5	3.5	1.51e+00	0	39	104	0	60	37078
2026-01-01 23:33:18.92	138.84	3.07	-47.7	-59.6	3.5	1.52e+00	0	39	104	0	60	33709
2026-01-01 23:33:19.89	138.82	3.14	-47.5	-57.9	3.6	1.51e+00	0	39	104	0	60	27641
2026-01-01 23:33:20.87	138.80	3.20	-47.2	-55.4	5.2	7.92e-01	120	39	104	0	60	20722
2026-01-01 23:33:21.85	138.78	3.27	-46.6	-51.9	7.2	1.87e-01	121	39	0	2097152	60	13843
2026-01-01 23:33:22.82	138.77	3.33	-45.8	-49.9	9.5	3.91e-02	123	39	0	5242880	60	10985
2026-01-01 23:33:23.80	138.75	3.40	-44.9	-48.2	11.5	1.96e-03	122	39	0	8388608	60	9044
2026-01-01 23:33:24.78	138.73	3.46	-44.2	-47.0	12.8	1.28e-04	120	39	0	11534336	60	7876
2026-01-01 23:33:25.76	138.71	3.53	-43.4	-45.8	14.2	2.20e-06	121	39	0	14680064	60	6819
2026-01-01 23:33:26.73	138.69	3.59	-43.0	-45.2	14.7	0.00e+00	120	39	0	17825792	60	6366
2026-01-01 23:33:27.71	138.67	3.66	-42.6	-44.6	15.1	0.00e+00	122	39	0	20971520	58	6713
2026-01-01 23:33:28.69	138.65	3.73	-48.4	-61.2	3.5	1.52e+00	0	39	104	22020096	60	40349
2026-01-01 23:33:29.67	138.63	3.79	-48.0	-59.6	3.5	1.52e+00	0	39	104	22020096	60	33646
2026-01-01 23:33:30.64	138.61	3.86	-44.5	-47.9	10.3	1.18e+00	121	39	104	22020096	58	9763
2026-01-01 23:33:31.62	138.59	3.93	-46.3	-51.6	7.6	8.28e-01	122	39	104	22020096	60	13420
2026-01-01 23:33:32.60	138.57	3.99	-40.3	-42.1	5.2	1.44e+00	0	39	104	22020096	58	5005
2026-01-01 23:33:33.57	138.55	4.06	-43.1	-45.7	14.6	1.99e-03	124	39	104	22020096	60	6762
2026-01-01 23:33:34.55	138.53	4.13	-40.9	-42.5	17.2	0.00e+00	126	39	0	24117248	56	5895
2026-01-01 23:33:35.52	138.51	4.19	-40.5	-42.0	17.8	0.00e+00	123	39	0	27262976	54	6236
2026-01-01 23:33:36.50	138.49	4.26	-39.9	-41.4	18.5	0.00e+00	124	39	0	30408704	54	5793
2026-01-01 23:33:37.48	138.46	4.33	-39.4	-40.7	19.0	0.00e+00	122	39	0	33554432	52	6026
2026-01-01 23:33:38.45	138.44	4.40	-39.3	-40.6	19.0	0.00e+00	122	39	0	36700160	52	5987
2026-01-01 23:33:39.43	138.42	4.46	-39.3	-40.6	19.1	0.00e+00	124	39	0	39845888	52	5947
2026-01-01 23:33:40.40	138.40	4.53	-39.3	-40.6	19.1	0.00e+00	121	39	0	42991616	52	5982
2026-01-01 23:33:41.38	138.38	4.60	-39.2	-40.5	19.2	0.00e+00	123	39	0	46137344	52	5912
2026-01-01 23:33:42.35	138.36	4.67	-39.2	-40.5	19.5	0.00e+00	120	39	0	49283072	52	5864
2026-01-01 23:33:43.33	138.34	4.74	-38.9	-40.2	19.6	0.00e+00	121	39	0	51380224	52	5681
2026-01-01 23:33:44.31	138.32	4.81	-38.9	-40.1	19.5	0.00e+00	123	39	0	54525952	52	5655
2026-01-01 23:33:45.29	138.29	4.87	-38.7	-40.0	19.8	0.00e+00	123	39	0	57671680	52	5557
2026-01-01 23:33:46.27	138.27	4.94	-38.6	-39.9	19.8	0.00e+00	121	39	0	60817408	50	6146
2026-01-01 23:33:47.25	138.25	5.01	-38.7	-40.0	19.8	0.00e+00	122	39	0	63963136	50	6213
2026-01-01 23:33:48.22	138.23	5.08	-38.6	-39.9	19.8	0.00e+00	121	39	0	67108864	50	6145
2026-01-01 23:33:49.20	138.21	5.15	-38.6	-39.8	20.0	0.00e+00	123	39	0	70254592	50	6118
2026-01-01 23:33:50.18	138.18	5.22	-38.6	-39.8	20.0	0.00e+00	121	39	0	73400320	50	6086
2026-01-01 23:33:51.15	138.16	5.29	-38.6	-39.9	19.9	0.00e+00	122	39	0	76546048	50	6139
2026-01-01 23:33:52.13	138.14	5.36	-38.6	-39.8	20.0	0.00e+00	121	39	0	79691776	50	6123
2026-01-01 23:33:53.10	138.12	5.43	-38.6	-39.8	20.0	0.00e+00	124	39	0	82837504	50	6069
2026-01-01 23:33:54.08	138.09	5.50	-38.3	-39.5	20.3	0.00e+00	125	39	0	85983232	50	5868
2026-01-01 23:33:55.06	138.07	5.57	-38.3	-39.5	20.3	0.00e+00	121	39	0	88080384	50	5880
2026-01-01 23:33:56.04	138.05	5.64	-38.5	-39.7	20.3	0.00e+00	122	39	0	91226112	50	6013
2026-01-01 23:33:57.02	138.02	5.72	-38.1	-39.2	20.5	0.00e+00	124	39	0	94371840	50	5713
2026-01-01 23:33:58.00	138.00	5.79	-38.2	-39.4	20.5	0.00e+00	123	39	0	97517568	50	5806
2026-01-01 23:33:58.97	137.98	5.86	-38.2	-39.3	20.7	0.00e+00	121	39	0	100663296	50	5776
2026-01-01 23:33:59.95	137.95	5.93	-38.0	-39.1	20.7	0.00e+00	121	39	0	103809024	50	5639
2026-01-01 23:34:00.93	137.93	6.00	-38.0	-39.1	20.7	0.00e+00	123	39	0	106954752	50	5632
2026-01-01 23:34:01.91	137.91	6.07	-37.8	-38.9	21.0	0.00e+00	122	39	0	110100480	50	5506
2026-01-01 23:34:02.88	137.88	6.15	-37.9	-39.1	20.8	0.00e+00	123	39	0	113246208	50	5596
2026-01-01 23:34:03.86	137.86	6.22	-37.8	-38.9	21.0	0.00e+00	119	39	0	116391936	48	6199
2026-01-01 23:34:04.83	137.83	6.29	-37.7	-38.8	21.2	0.00e+00	122	39	0	119537664	48	6071
2026-01-01 23:34:05.81	137.81	6.36	-37.9	-39.0	20.9	0.00e+00	122	39	0	121634816	48	6272
2026-01-01 23:34:06.79	137.79	6.44	-37.7	-38.7	21.2	0.00e+00	121	39	0	124780544	48	6063
2026-01-01 23:34:07.77	137.76	6.51	-37.6	-38.6	21.3	0.00e+00	123	39	0	127926272	48	5987
2026-01-01 23:34:08.75	137.74	6.58	-37.6	-38.7	21.3	0.00e+00	122	39	0	131072000	48	6051
2026-01-01 23:34:09.72	137.71	6.66	-37.6	-38.7	21.2	0.00e+00	121	39	0	134217728	48	6030
2026-01-01 23:34:10.70	137.69	6.73	-37.5	-38.6	21.3	0.00e+00	121	39	0	137363456	48	5932
2026-01-01 23:34:11.68	137.66	6.80	-37.4	-38.4	21.4	0.00e+00	123	39	0	140509184	48	5847
2026-01-01 23:34:12.65	137.64	6.88	-37.3	-38.4	21.5	0.00e+00	123	39	0	143654912	48	5818
2026-01-01 23:34:13.63	137.61	6.95	-37.3	-38.4	21.5	0.00e+00	123	39	0	146800640	48	5824
2026-01-01 23:34:14.60	137.59	7.03	-37.4	-38.5	21.5	0.00e+00	124	39	0	149946368	48	5863
2026-01-01 23:34:15.58	137.56	7.10	-37.4	-38.4	21.5	0.00e+00	121	39	0	153092096	48	5837
2026-01-01 23:34:16.56	137.53	7.18	-37.2	-38.3	21.6	0.00e+00	121	39	0	155189248	48	5736
2026-01-01 23:34:17.54	137.51	7.25	-37.2	-38.2	21.7	0.00e+00	124	39	0	158334976	48	5709
2026-01-01 23:34:18.52	137.48	7.33	-37.1	-38.2	21.8	0.00e+00	123	39	0	161480704	48	5663
2026-01-01 23:34:19.49	137.45	7.40	-37.1	-38.2	21.8	0.00e+00	121	39	0	164626432	48	5679
2026-01-01 23:34:20.47	137.43	7.48	-37.3	-38.4	21.6	0.00e+00	121	39	0	167772160	48	5793
2026-01-01 23:34:21.44	137.40	7.56	-37.1	-38.1	21.8	0.00e+00	122	39	0	170917888	48	5633
2026-01-01 23:34:22.42	137.37	7.63	-37.2	-38.2	21.7	0.00e+00	121	39	0	174063616	48	5706
2026-01-01 23:34:23.39	137.35	7.71	-37.0	-38.0	21.9	0.00e+00	122	39	0	177209344	48	5575
2026-01-01 23:34:24.37	137.32	7.78	-36.9	-37.9	22.0	0.00e+00	123	39	0	180355072	48	5528
2026-01-01 23:34:25.35	137.29	7.86	-36.9	-38.0	22.0	0.00e+00	122	39	0	183500800	48	5537
2026-01-01 23:34:26.33	137.27	7.94	-36.8	-37.9	22.1	0.00e+00	123	39	0	185597952	48	5471
2026-01-01 23:34:27.30	137.24	8.02	-36.9	-38.0	22.0	0.00e+00	121	39	0	188743680	48	5539
2026-01-01 23:34:28.28	137.21	8.09	-36.9	-37.9	22.1	0.00e+00	120	39	0	191889408	48	5519
2026-01-01 23:34:29.25	137.18	8.17	-36.7	-37.8	22.2	0.00e+00	120	39	0	195035136	46	6073
2026-01-01 23:34:30.23	137.15	8.25	-36.7	-37.8	22.3	0.00e+00	124	39	0	198180864	46	6080
2026-01-01 23:34:31.21	137.13	8.33	-36.8	-37.9	22.1	0.00e+00	119	39	0	201326592	46	6150
2026-01-01 23:34:32.18	137.10	8.41	-36.7	-37.7	22.3	0.00e+00	121	40	0	204472320	46	6054
2026-01-01 23:34:33.16	137.07	8.49	-36.7	-37.8	22.3	0.00e+00	123	40	0	207618048	46	6067
2026-01-01 23:34:34.13	137.04	8.56	-36.6	-37.7	22.3	0.00e+00	122	39	0	210763776	46	6006
2026-01-01 23:34:35.11	137.01	8.64	-36.6	-37.6	22.3	0.00e+00	122	39	0	213909504	46	5977
2026-01-01 23:34:36.09	136.98	8.72	-36.6	-37.6	22.4	0.00e+00	122	39	0	217055232	46	5940
2026-01-01 23:34:37.06	136.95	8.80	-36.5	-37.5	22.5	0.00e+00	121	39	0	220200960	46	5912
2026-01-01 23:34:38.04	136.92	8.88	-36.7	-37.7	22.4	0.00e+00	124	40	0	223346688	46	6026
2026-01-01 23:34:39.02	136.89	8.96	-36.5	-37.5	22.5	0.00e+00	121	40	0	225443840	46	5920
2026-01-01 23:34:40.00	136.86	9.05	-36.5	-37.5	22.6	0.00e+00	118	39	0	228589568	46	5888
2026-01-01 23:34:40.97	136.83	9.13	-36.6	-37.6	22.5	0.00e+00	124	39	0	231735296	46	5934
2026-01-01 23:34:41.95	136.80	9.21	-36.5	-37.5	22.5	0.00e+00	122	39	0	234881024	46	5918
2026-01-01 23:34:42.92	136.77	9.29	-36.6	-37.6	22.4	0.00e+00	122	39	0	238026752	46	5987
2026-01-01 23:34:43.90	136.74	9.37	-36.6	-37.6	22.4	0.00e+00	120	39	0	241172480	46	5953
2026-01-01 23:34:44.88	136.71	9.45	-36.5	-37.5	22.5	0.00e+00	122	39	0	244318208	46	5918
2026-01-01 23:34:45.85	136.68	9.53	-36.5	-37.5	22.6	0.00e+00	121	40	0	247463936	46	5861
2026-01-01 23:34:46.83	136.65	9.62	-36.5	-37.4	22.7	0.00e+00	121	39	0	250609664	46	5851
2026-01-01 23:34:47.81	136.62	9.70	-36.5	-37.5	22.6	0.00e+00	122	40	0	253755392	46	5871
2026-01-01 23:34:48.78	136.59	9.78	-36.4	-37.4	22.6	0.00e+00	123	39	0	256901120	46	5845
2026-01-01 23:34:49.76	136.56	9.86	-36.3	-37.3	22.8	0.00e+00	124	39	0	258998272	46	5735
2026-01-01 23:34:50.73	136.52	9.95	-36.4	-37.4	22.6	0.00e+00	120	39	0	262144000	46	5806
2026-01-01 23:34:51.71	136.49	10.03	-36.3	-37.3	22.8	0.00e+00	123	39	0	265289728	46	5727
2026-01-01 23:34:52.69	136.46	10.12	-36.3	-37.3	22.8	0.00e+00	121	39	0	268435456	46	5746
2026-01-01 23:34:53.67	136.43	10.20	-36.3	-37.3	22.7	0.00e+00	120	40	0	271581184	46	5727
2026-01-01 23:34:54.64	136.39	10.28	-36.2	-37.2	22.8	0.00e+00	123	39	0	274726912	46	5675
2026-01-01 23:34:55.62	136.36	10.37	-36.3	-37.3	22.7	0.00e+00	124	40	0	277872640	46	5736
2026-01-01 23:34:56.60	136.33	10.45	-36.1	-37.1	22.9	0.00e+00	123	40	0	281018368	46	5627
2026-01-01 23:34:57.58	136.29	10.54	-36.3	-37.2	22.8	0.00e+00	122	40	0	284164096	46	5720
2026-01-01 23:34:58.55	136.26	10.63	-36.1	-37.0	22.9	0.00e+00	124	40	0	287309824	46	5585
2026-01-01 23:34:59.53	136.23	10.71	-36.0	-37.0	23.0	0.00e+00	123	40	0	290455552	46	5560
2026-01-01 23:35:00.51	136.19	10.80	-36.0	-37.0	23.0	0.00e+00	123	39	0	292552704	46	5582
2026-01-01 23:35:01.49	136.16	10.89	-36.1	-37.1	22.9	0.00e+00	119	39	0	295698432	46	5616
2026-01-01 23:35:02.47	136.12	10.97	-36.1	-37.1	22.9	0.00e+00	122	40	0	298844160	46	5637
2026-01-01 23:35:03.45	136.09	11.06	-36.0	-37.0	23.0	0.00e+00	122	40	0	301989888	46	5562
2026-01-01 23:35:04.42	136.06	11.15	-36.0	-37.0	23.1	0.00e+00	123	39	0	305135616	46	5549
2026-01-01 23:35:05.40	136.02	11.23	-36.0	-37.0	23.0	0.00e+00	121	40	0	308281344	46	5536
2026-01-01 23:35:06.38	135.98	11.32	-35.9	-36.9	23.1	0.00e+00	123	40	0	311427072	46	5513
2026-01-01 23:35:07.36	135.95	11.41	-36.1	-37.1	22.9	0.00e+00	121	39	0	314572800	46	5597
2026-01-01 23:35:08.27	135.92	11.49	-36.0	-37.0	23.1	0.00e+00	122	40	0	317718528	46	5547
2026-01-01 23:35:09.28	135.88	11.59	-36.0	-37.0	23.1	0.00e+00	123	40	0	320864256	46	5547
2026-01-01 23:35:10.26	135.84	11.68	-36.1	-37.1	23.0	0.00e+00	122	40	0	324009984	46	5628
2026-01-01 23:35:11.24	135.81	11.77	-36.0	-37.0	23.1	0.00e+00	124	40	0	327155712	46	5531
2026-01-01 23:35:12.22	135.77	11.86	-36.0	-36.9	23.2	0.00e+00	120	40	0	330301440	46	5518
2026-01-01 23:35:13.20	135.73	11.95	-35.9	-36.9	23.2	0.00e+00	124	40	0	332398592	46	5481
2026-01-01 23:35:14.17	135.69	12.04	-36.0	-36.9	23.0	0.00e+00	122	40	0	335544320	46	5529
2026-01-01 23:35:15.15	135.66	12.13	-36.0	-37.0	23.1	0.00e+00	120	40	0	338690048	46	5578
2026-01-01 23:35:16.13	135.62	12.22	-36.0	-37.0	23.1	0.00e+00	120	40	0	341835776	46	5568
2026-01-01 23:35:17.11	135.58	12.31	-36.1	-37.1	23.0	0.00e+00	123	40	0	344981504	46	5634
2026-01-01 23:35:18.09	135.54	12.40	-36.1	-37.1	23.1	0.00e+00	121	40	0	348127232	46	5601
2026-01-01 23:35:19.07	135.50	12.50	-35.8	-36.8	23.3	0.00e+00	123	40	0	351272960	46	5416
2026-01-01 23:35:20.04	135.46	12.59	-36.0	-36.9	23.2	0.00e+00	124	40	0	354418688	46	5517
2026-01-01 23:35:21.02	135.43	12.68	-35.7	-36.7	23.4	0.00e+00	123	40	0	357564416	44	6017
2026-01-01 23:35:21.99	135.39	12.77	-35.9	-36.9	23.3	0.00e+00	124	40	0	360710144	44	6137
2026-01-01 23:35:22.97	135.35	12.87	-36.0	-36.9	23.2	0.00e+00	125	40	0	363855872	44	6205
2026-01-01 23:35:23.95	135.31	12.96	-35.8	-36.8	23.4	0.00e+00	118	40	0	365953024	44	6109
2026-01-01 23:35:24.93	135.27	13.06	-35.7	-36.6	23.5	0.00e+00	123	40	0	369098752	44	5984
2026-01-01 23:35:25.91	135.23	13.15	-35.7	-36.6	23.5	0.00e+00	123	40	0	372244480	44	5971
2026-01-01 23:35:26.88	135.19	13.25	-35.7	-36.7	23.4	0.00e+00	121	40	0	375390208	44	6036
2026-01-01 23:35:27.86	135.14	13.34	-35.7	-36.7	23.5	0.00e+00	123	40	0	378535936	44	6003
2026-01-01 23:35:28.84	135.10	13.44	-35.8	-36.8	23.4	0.00e+00	121	40	0	381681664	44	6104
2026-01-01 23:35:29.81	135.06	13.53	-35.9	-36.9	23.4	0.00e+00	123	40	0	384827392	44	6159
2026-01-01 23:35:30.79	135.02	13.63	-35.7	-36.6	23.5	0.00e+00	123	40	0	387973120	44	5980
2026-01-01 23:35:31.76	134.98	13.73	-35.6	-36.5	23.6	0.00e+00	123	40	0	391118848	44	5908
2026-01-01 23:35:32.73	134.94	13.82	-35.6	-36.5	23.6	0.00e+00	122	40	0	394264576	44	5896
2026-01-01 23:35:33.71	134.89	13.92	-35.7	-36.6	23.5	0.00e+00	122	40	0	397410304	44	5967
2026-01-01 23:35:34.68	134.85	14.02	-35.6	-36.5	23.6	0.00e+00	122	40	0	399507456	44	5904
2026-01-01 23:35:35.66	134.81	14.12	-35.6	-36.5	23.6	0.00e+00	121	40	0	402653184	44	5912
2026-01-01 23:35:36.64	134.76	14.21	-35.5	-36.5	23.6	0.00e+00	124	40	0	405798912	44	5884
2026-01-01 23:35:37.62	134.72	14.31	-35.5	-36.4	23.7	0.00e+00	120	40	0	408944640	44	5847
2026-01-01 23:35:38.59	134.68	14.41	-35.7	-36.6	23.6	0.00e+00	120	40	0	412090368	44	5958
2026-01-01 23:35:39.57	134.63	14.51	-35.7	-36.7	23.5	0.00e+00	123	40	0	415236096	44	6018
2026-01-01 23:35:40.55	134.59	14.61	-35.5	-36.5	23.6	0.00e+00	119	40	0	418381824	44	5865
2026-01-01 23:35:41.53	134.54	14.71	-35.6	-36.5	23.6	0.00e+00	121	40	0	421527552	44	5894
2026-01-01 23:35:42.49	134.50	14.81	-35.5	-36.4	23.7	0.00e+00	122	40	0	424673280	44	5851
2026-01-01 23:35:43.47	134.45	14.92	-35.5	-36.4	23.7	0.00e+00	121	40	0	427819008	44	5821
2026-01-01 23:35:44.45	134.40	15.02	-35.5	-36.4	23.7	0.00e+00	122	40	0	430964736	44	5838
2026-01-01 23:35:45.42	134.36	15.12	-35.5	-36.4	23.7	0.00e+00	122	40	0	434110464	44	5852
2026-01-01 23:35:46.40	134.31	15.22	-35.5	-36.5	23.6	0.00e+00	122	40	0	436207616	44	5873
2026-01-01 23:35:47.38	134.26	15.33	-35.6	-36.6	23.6	0.00e+00	124	40	0	439353344	44	5949
2026-01-01 23:35:48.36	134.22	15.43	-35.5	-36.4	23.7	0.00e+00	124	40	0	442499072	44	5858
2026-01-01 23:35:49.33	134.17	15.53	-35.6	-36.5	23.7	0.00e+00	121	40	0	445644800	44	5911
2026-01-01 23:35:50.31	134.12	15.64	-35.6	-36.5	23.6	0.00e+00	122	40	0	448790528	44	5906
2026-01-01 23:35:51.29	134.07	15.74	-35.5	-36.4	23.7	0.00e+00	121	40	0	451936256	44	5838
2026-01-01 23:35:52.27	134.02	15.85	-35.7	-36.6	23.6	0.00e+00	121	40	0	455081984	44	5961
2026-01-01 23:35:53.25	133.97	15.95	-35.6	-36.6	23.6	0.00e+00	122	40	0	458227712	44	5929
2026-01-01 23:35:54.23	133.92	16.06	-35.6	-36.6	23.5	0.00e+00	123	40	0	461373440	44	5952
2026-01-01 23:35:55.21	133.87	16.17	-35.7	-36.6	23.5	0.00e+00	123	40	0	464519168	44	5978
2026-01-01 23:35:56.18	133.82	16.27	-35.7	-36.6	23.6	0.00e+00	124	40	0	467664896	44	5979
2026-01-01 23:35:57.16	133.77	16.38	-35.7	-36.6	23.6	0.00e+00	120	40	0	469762048	44	5965
2026-01-01 23:35:58.14	133.72	16.49	-35.8	-36.7	23.5	0.00e+00	120	40	0	472907776	44	6053
2026-01-01 23:35:59.11	133.67	16.60	-35.7	-36.6	23.6	0.00e+00	123	40	0	476053504	44	5984
2026-01-01 23:36:00.09	133.62	16.71	-35.7	-36.6	23.5	0.00e+00	124	40	0	479199232	44	5994
2026-01-01 23:36:01.06	133.56	16.81	-35.7	-36.6	23.5	0.00e+00	122	40	0	482344960	44	5993
2026-01-01 23:36:02.04	133.51	16.92	-35.7	-36.7	23.4	0.00e+00	123	40	0	485490688	44	5995
2026-01-01 23:36:03.02	133.46	17.03	-35.8	-36.8	23.3	0.00e+00	121	40	0	488636416	44	6072
2026-01-01 23:36:04.00	133.40	17.14	-35.8	-36.8	23.4	0.00e+00	124	40	0	491782144	44	6091
2026-01-01 23:36:04.98	133.35	17.26	-36.0	-37.0	23.2	0.00e+00	123	40	0	494927872	44	6215
2026-01-01 23:36:05.95	133.30	17.37	-36.1	-37.0	23.2	0.00e+00	123	40	0	498073600	44	6258
2026-01-01 23:36:06.93	133.24	17.48	-35.8	-36.7	23.5	0.00e+00	122	40	0	501219328	44	6049
2026-01-01 23:36:07.91	133.19	17.59	-35.9	-36.8	23.4	0.00e+00	122	40	0	503316480	44	6111
2026-01-01 23:36:08.89	133.13	17.71	-35.8	-36.8	23.4	0.00e+00	123	40	0	506462208	44	6073
2026-01-01 23:36:09.86	133.07	17.82	-35.8	-36.7	23.5	0.00e+00	119	40	0	509607936	44	6042
2026-01-01 23:36:10.84	133.02	17.93	-35.9	-36.8	23.3	0.00e+00	122	40	0	512753664	44	6109
2026-01-01 23:36:11.82	132.96	18.05	-35.8	-36.8	23.4	0.00e+00	123	40	0	515899392	44	6080
2026-01-01 23:36:12.80	132.90	18.16	-36.0	-37.0	23.3	0.00e+00	120	40	0	519045120	44	6207
2026-01-01 23:36:13.78	132.84	18.28	-35.8	-36.8	23.4	0.00e+00	119	40	0	522190848	44	6099
2026-01-01 23:36:14.75	132.79	18.39	-35.9	-36.8	23.3	0.00e+00	120	40	0	525336576	44	6116
2026-01-01 23:36:15.73	132.73	18.51	-35.8	-36.8	23.4	0.00e+00	122	40	0	528482304	44	6065
2026-01-01 23:36:16.71	132.67	18.63	-35.8	-36.8	23.4	0.00e+00	121	40	0	531628032	44	6093
2026-01-01 23:36:17.68	132.61	18.74	-35.8	-36.7	23.4	0.00e+00	125	40	0	534773760	44	6056
2026-01-01 23:36:18.66	132.55	18.86	-35.8	-36.8	23.4	0.00e+00	121	40	0	536870912	44	6095
2026-01-01 23:36:19.63	132.49	18.98	-35.9	-36.9	23.4	0.00e+00	121	40	0	540016640	44	6135
2026-01-01 23:36:20.61	132.42	19.10	-35.9	-36.9	23.4	0.00e+00	123	40	0	543162368	44	6145
2026-01-01 23:36:21.59	132.36	19.22	-35.9	-36.8	23.4	0.00e+00	123	40	0	546308096	44	6126
2026-01-01 23:36:22.57	132.30	19.34	-35.9	-36.8	23.4	0.00e+00	123	40	0	549453824	44	6112
2026-01-01 23:36:23.55	132.24	19.46	-35.8	-36.7	23.5	0.00e+00	123	40	0	552599552	44	6030
2026-01-01 23:36:24.52	132.17	19.58	-35.8	-36.7	23.5	0.00e+00	121	40	0	555745280	44	6045
2026-01-01 23:36:25.50	132.11	19.71	-35.7	-36.6	23.6	0.00e+00	123	40	0	558891008	44	5987
2026-01-01 23:36:26.48	132.04	19.83	-35.7	-36.6	23.5	0.00e+00	121	40	0	562036736	44	5978
2026-01-01 23:36:27.46	131.98	19.95	-35.6	-36.5	23.6	0.00e+00	124	40	0	565182464	44	5920
2026-01-01 23:36:28.44	131.91	20.08	-35.6	-36.6	23.6	0.00e+00	121	40	0	568328192	44	5952
2026-01-01 23:36:29.41	131.85	20.20	-35.6	-36.5	23.6	0.00e+00	121	40	0	571473920	44	5908
2026-01-01 23:36:30.39	131.78	20.32	-35.6	-36.5	23.6	0.00e+00	122	40	0	574619648	44	5904
2026-01-01 23:36:31.37	131.71	20.45	-35.2	-36.1	23.9	0.00e+00	120	40	0	576716800	44	5651
2026-01-01 23:36:32.35	131.65	20.58	-35.1	-36.0	23.9	0.00e+00	119	40	0	579862528	44	5586
2026-01-01 23:36:33.32	131.58	20.70	-35.3	-36.2	23.8	0.00e+00	124	40	0	583008256	44	5683
2026-01-01 23:36:34.30	131.51	20.83	-35.0	-36.0	23.9	0.00e+00	124	40	0	586153984	44	5543
2026-01-01 23:36:35.27	131.44	20.96	-35.0	-36.0	23.9	0.00e+00	120	40	0	589299712	44	5533
2026-01-01 23:36:36.25	131.37	21.08	-35.0	-35.9	23.9	0.00e+00	122	40	0	592445440	44	5527
2026-01-01 23:36:37.22	131.30	21.21	-34.9	-35.8	24.0	0.00e+00	122	40	0	595591168	44	5435
2026-01-01 23:36:38.20	131.23	21.34	-34.7	-35.6	24.1	0.00e+00	124	40	0	598736896	44	5330
2026-01-01 23:36:39.18	131.15	21.47	-34.7	-35.6	24.2	0.00e+00	123	40	0	601882624	42	5955
2026-01-01 23:36:40.16	131.08	21.60	-34.8	-35.7	24.1	0.00e+00	122	40	0	605028352	42	6039
2026-01-01 23:36:41.13	131.01	21.73	-34.7	-35.7	24.0	0.00e+00	125	40	0	608174080	42	5999
2026-01-01 23:36:42.11	130.93	21.87	-34.8	-35.7	24.2	0.00e+00	120	40	0	610271232	42	6038
2026-01-01 23:36:43.09	130.86	22.00	-34.6	-35.6	24.2	0.00e+00	121	40	0	613416960	42	5941
2026-01-01 23:36:44.06	130.78	22.13	-34.5	-35.4	24.4	0.00e+00	123	40	0	616562688	42	5815
2026-01-01 23:36:45.04	130.71	22.27	-34.6	-35.5	24.3	0.00e+00	123	40	0	619708416	42	5877
2026-01-01 23:36:46.02	130.63	22.40	-34.4	-35.3	24.5	0.00e+00	122	40	0	622854144	42	5747
2026-01-01 23:36:46.99	130.55	22.54	-34.4	-35.3	24.5	0.00e+00	121	40	0	625999872	42	5746
2026-01-01 23:36:47.97	130.48	22.67	-34.3	-35.2	24.7	0.00e+00	119	40	0	629145600	42	5685
2026-01-01 23:36:48.95	130.40	22.81	-34.2	-35.0	24.7	0.00e+00	121	39	0	632291328	42	5591
2026-01-01 23:36:49.93	130.32	22.95	-34.1	-35.0	24.8	0.00e+00	122	40	0	635437056	42	5569
2026-01-01 23:36:50.91	130.24	23.08	-34.2	-35.1	24.7	0.00e+00	123	39	0	638582784	42	5599
2026-01-01 23:36:51.89	130.16	23.22	-34.1	-35.0	24.9	0.00e+00	123	39	0	641728512	42	5579
2026-01-01 23:36:52.86	130.07	23.36	-34.1	-34.9	24.8	0.00e+00	125	39	0	643825664	42	5518
2026-01-01 23:36:53.84	129.99	23.50	-34.1	-34.9	24.9	0.00e+00	122	40	0	646971392	42	5523
2026-01-01 23:36:54.82	129.91	23.64	-34.0	-34.8	24.9	0.00e+00	123	40	0	650117120	42	5452
2026-01-01 23:36:55.80	129.82	23.78	-34.0	-34.9	24.8	0.00e+00	122	40	0	653262848	42	5515
2026-01-01 23:36:56.77	129.74	23.93	-34.1	-35.0	24.8	0.00e+00	123	39	0	656408576	42	5535
2026-01-01 23:36:57.75	129.65	24.07	-34.2	-35.1	24.7	0.00e+00	121	40	0	659554304	42	5639
2026-01-01 23:36:58.73	129.57	24.21	-34.3	-35.2	24.6	0.00e+00	123	39	0	662700032	42	5716
2026-01-01 23:36:59.70	129.48	24.36	-34.2	-35.1	24.7	0.00e+00	123	39	0	665845760	42	5655
2026-01-01 23:37:00.68	129.39	24.50	-34.3	-35.2	24.6	0.00e+00	122	39	0	668991488	42	5683
2026-01-01 23:37:01.66	129.30	24.65	-34.5	-35.4	24.5	0.00e+00	121	39	0	672137216	42	5803
2026-01-01 23:37:02.64	129.21	24.79	-34.5	-35.4	24.6	0.00e+00	123	39	0	675282944	42	5812
2026-01-01 23:37:03.61	129.12	24.94	-34.6	-35.5	24.4	0.00e+00	122	40	0	677380096	42	5908
2026-01-01 23:37:04.59	129.03	25.09	-34.5	-35.4	24.4	0.00e+00	123	40	0	680525824	42	5847
2026-01-01 23:37:05.56	128.94	25.24	-34.7	-35.6	24.4	0.00e+00	124	39	0	683671552	42	5933
2026-01-01 23:37:06.54	128.85	25.39	-34.8	-35.7	24.4	0.00e+00	121	39	0	686817280	42	6061
2026-01-01 23:37:07.51	128.75	25.53	-35.0	-35.9	24.3	0.00e+00	123	39	0	689963008	42	6184
2026-01-01 23:37:08.49	128.66	25.69	-34.9	-35.8	24.3	0.00e+00	122	40	0	693108736	42	6109
2026-01-01 23:37:09.47	128.56	25.84	-35.0	-35.9	24.3	0.00e+00	120	40	0	696254464	42	6181
2026-01-01 23:37:10.44	128.46	25.99	-34.9	-35.8	24.4	0.00e+00	122	39	0	699400192	42	6126
2026-01-01 23:37:11.42	128.37	26.14	-35.0	-35.9	24.3	0.00e+00	121	39	0	702545920	42	6164
2026-01-01 23:37:12.39	128.27	26.30	-34.9	-35.8	24.3	0.00e+00	122	39	0	705691648	42	6120
2026-01-01 23:37:13.38	128.17	26.45	-34.9	-35.8	24.4	0.00e+00	121	39	0	708837376	42	6125
2026-01-01 23:37:14.35	128.07	26.61	-35.0	-35.9	24.4	0.00e+00	123	40	0	710934528	42	6142
2026-01-01 23:37:15.32	127.96	26.76	-35.0	-35.9	24.3	0.00e+00	121	40	0	714080256	42	6198
2026-01-01 23:37:16.30	127.86	26.92	-34.9	-35.8	24.4	0.00e+00	121	39	0	717225984	42	6098
2026-01-01 23:37:17.28	127.76	27.08	-35.0	-35.9	24.3	0.00e+00	121	40	0	720371712	42	6178
2026-01-01 23:37:18.25	127.65	27.23	-35.0	-35.9	24.3	0.00e+00	120	39	0	723517440	42	6171
2026-01-01 23:37:19.23	127.55	27.39	-35.2	-36.0	24.2	0.00e+00	122	39	0	726663168	42	6277
2026-01-01 23:37:20.21	127.44	27.56	-35.2	-36.1	24.2	0.00e+00	124	39	0	729808896	42	6292
2026-01-01 23:37:21.18	127.33	27.72	-35.2	-36.2	24.0	0.00e+00	121	39	0	732954624	42	6351
2026-01-01 23:37:22.16	127.22	27.88	-35.3	-36.2	24.1	0.00e+00	125	39	0	736100352	42	6357
2026-01-01 23:37:23.14	127.11	28.04	-35.2	-36.1	24.0	0.00e+00	121	40	0	739246080	42	6344
2026-01-01 23:37:24.11	127.00	28.20	-35.2	-36.1	24.0	0.00e+00	123	39	0	742391808	42	6328
2026-01-01 23:37:25.09	126.89	28.37	-35.4	-36.3	23.9	0.00e+00	119	39	0	745537536	42	6461
2026-01-01 23:37:26.07	126.77	28.53	-35.1	-36.0	24.0	0.00e+00	124	39	0	748683264	42	6267
2026-01-01 23:37:27.05	126.66	28.70	-35.2	-36.1	24.0	0.00e+00	124	40	0	750780416	42	6295
2026-01-01 23:37:28.03	126.54	28.87	-35.1	-36.0	24.1	0.00e+00	122	40	0	753926144	42	6266
2026-01-01 23:37:29.00	126.42	29.04	-35.2	-36.1	24.0	0.00e+00	121	39	0	757071872	42	6305
2026-01-01 23:37:29.98	126.30	29.20	-35.2	-36.1	24.1	0.00e+00	123	39	0	760217600	42	6323
2026-01-01 23:37:30.95	126.18	29.37	-35.1	-36.0	24.2	0.00e+00	124	39	0	763363328	42	6247
2026-01-01 23:37:31.93	126.06	29.54	-35.2	-36.1	24.2	0.00e+00	122	39	0	766509056	42	6324
2026-01-01 23:37:32.90	125.94	29.71	-35.1	-36.0	24.2	0.00e+00	121	40	0	769654784	42	6237
2026-01-01 23:37:33.88	125.81	29.89	-35.1	-36.0	24.3	0.00e+00	124	39	0	772800512	42	6227
2026-01-01 23:37:34.86	125.69	30.06	-35.1	-36.0	24.3	0.00e+00	123	39	0	775946240	42	6251
2026-01-01 23:37:35.84	125.56	30.23	-35.0	-35.9	24.4	0.00e+00	122	39	0	779091968	42	6158
2026-01-01 23:37:36.81	125.43	30.41	-35.0	-35.9	24.4	0.00e+00	120	39	0	781189120	42	6168
2026-01-01 23:37:37.79	125.30	30.58	-34.8	-35.7	24.5	0.00e+00	121	40	0	784334848	42	6041
2026-01-01 23:37:38.77	125.17	30.76	-34.9	-35.8	24.4	0.00e+00	122	40	0	787480576	42	6075
2026-01-01 23:37:39.75	125.04	30.94	-34.9	-35.8	24.3	0.00e+00	122	39	0	790626304	42	6120
2026-01-01 23:37:40.73	124.90	31.12	-35.1	-36.0	24.2	0.00e+00	123	39	0	793772032	42	6229
2026-01-01 23:37:41.70	124.77	31.30	-35.2	-36.1	24.0	0.00e+00	122	40	0	796917760	42	6329
2026-01-01 23:37:42.68	124.63	31.48	-35.4	-36.3	23.9	0.00e+00	123	39	0	800063488	42	6482
2026-01-01 23:37:43.66	124.49	31.66	-35.6	-36.5	23.8	0.00e+00	124	40	0	803209216	42	6618
2026-01-01 23:37:44.63	124.35	31.84	-35.7	-36.6	23.8	0.00e+00	123	39	0	806354944	44	5954
2026-01-01 23:37:45.61	124.21	32.02	-35.7	-36.7	23.8	0.00e+00	123	39	0	809500672	44	6000
2026-01-01 23:37:46.58	124.06	32.21	-35.8	-36.7	23.7	0.00e+00	120	40	0	812646400	44	6029
2026-01-01 23:37:47.56	123.92	32.39	-35.7	-36.6	23.8	0.00e+00	121	39	0	814743552	44	5992
2026-01-01 23:37:48.53	123.77	32.58	-35.8	-36.7	23.7	0.00e+00	122	39	0	817889280	44	6020
2026-01-01 23:37:49.51	123.62	32.76	-35.8	-36.7	23.8	0.00e+00	124	39	0	821035008	44	6016
2026-01-01 23:37:50.49	123.47	32.95	-35.6	-36.5	23.9	0.00e+00	124	39	0	824180736	44	5922
2026-01-01 23:37:51.46	123.32	33.14	-35.5	-36.4	24.0	0.00e+00	123	39	0	827326464	44	5822
2026-01-01 23:37:52.44	123.16	33.33	-35.6	-36.6	23.8	0.00e+00	125	40	0	830472192	44	5940
2026-01-01 23:37:53.42	123.01	33.52	-35.6	-36.5	23.7	0.00e+00	123	39	0	833617920	44	5920
2026-01-01 23:37:54.39	122.85	33.71	-35.5	-36.4	23.7	0.00e+00	122	39	0	836763648	44	5822
2026-01-01 23:37:55.37	122.69	33.90	-35.5	-36.4	23.6	0.00e+00	122	39	0	839909376	44	5826
2026-01-01 23:37:56.35	122.53	34.10	-35.8	-36.7	23.4	0.00e+00	122	39	0	843055104	44	6044
2026-01-01 23:37:57.32	122.36	34.29	-35.8	-36.8	23.4	0.00e+00	124	39	0	846200832	44	6082
2026-01-01 23:37:58.30	122.20	34.49	-36.1	-37.1	23.2	0.00e+00	124	39	0	848297984	44	6308
2026-01-01 23:37:59.27	122.03	34.68	-36.5	-37.4	23.1	0.00e+00	119	39	0	851443712	44	6570
2026-01-01 23:38:00.24	121.86	34.88	-36.6	-37.6	22.9	0.00e+00	124	39	0	854589440	44	6687
2026-01-01 23:38:01.22	121.69	35.08	-36.8	-37.8	23.0	0.00e+00	121	39	0	857735168	46	6078
2026-01-01 23:38:02.20	121.51	35.28	-36.9	-37.9	22.8	0.00e+00	125	39	0	860880896	46	6197
2026-01-01 23:38:03.18	121.34	35.48	-37.1	-38.1	22.7	0.00e+00	118	39	0	864026624	46	6346
2026-01-01 23:38:04.15	121.16	35.68	-36.9	-37.9	22.9	0.00e+00	123	39	0	867172352	46	6147
2026-01-01 23:38:05.13	120.98	35.88	-36.6	-37.6	23.2	0.00e+00	121	39	0	870318080	46	5937
2026-01-01 23:38:06.11	120.79	36.08	-36.6	-37.6	23.2	0.00e+00	122	39	0	873463808	46	5931
2026-01-01 23:38:07.09	120.61	36.29	-36.4	-37.4	23.3	0.00e+00	121	39	0	876609536	46	5810
2026-01-01 23:38:08.07	120.42	36.49	-36.5	-37.5	23.2	0.00e+00	122	39	0	879755264	46	5870
2026-01-01 23:38:09.04	120.23	36.70	-36.8	-37.8	23.0	0.00e+00	123	39	0	882900992	46	6079
2026-01-01 23:38:10.02	120.04	36.90	-36.8	-37.8	23.0	0.00e+00	120	39	0	884998144	46	6105
2026-01-01 23:38:11.00	119.84	37.11	-36.8	-37.8	22.9	0.00e+00	123	39	0	888143872	46	6111
2026-01-01 23:38:11.97	119.64	37.32	-36.8	-37.8	22.9	0.00e+00	124	39	0	891289600	46	6075
2026-01-01 23:38:12.95	119.44	37.53	-36.8	-37.8	22.9	0.00e+00	121	39	0	894435328	46	6107
2026-01-01 23:38:13.93	119.24	37.74	-36.6	-37.6	23.0	0.00e+00	121	39	0	897581056	46	5941
2026-01-01 23:38:14.90	119.04	37.95	-36.8	-37.7	22.9	0.00e+00	125	39	0	900726784	46	6062
2026-01-01 23:38:15.88	118.83	38.16	-36.6	-37.6	23.0	0.00e+00	122	39	0	903872512	46	5943
2026-01-01 23:38:16.86	118.61	38.37	-36.6	-37.6	23.0	0.00e+00	122	39	0	907018240	46	5928
2026-01-01 23:38:17.83	118.40	38.59	-36.5	-37.5	23.0	0.00e+00	121	39	0	910163968	46	5892
2026-01-01 23:38:18.81	118.18	38.80	-36.7	-37.7	23.0	0.00e+00	122	39	0	913309696	46	6000
2026-01-01 23:38:19.79	117.96	39.02	-36.7	-37.6	23.0	0.00e+00	119	39	0	916455424	46	5965
2026-01-01 23:38:20.76	117.74	39.23	-36.8	-37.8	22.9	0.00e+00	122	39	0	918552576	46	6095
2026-01-01 23:38:21.74	117.52	39.45	-36.6	-37.6	23.0	0.00e+00	123	39	0	921698304	46	5952
2026-01-01 23:38:22.72	117.29	39.67	-36.8	-37.8	22.9	0.00e+00	120	39	0	924844032	46	6082
2026-01-01 23:38:23.69	117.06	39.89	-36.5	-37.4	23.1	0.00e+00	123	39	0	927989760	46	5835
2026-01-01 23:38:24.67	116.82	40.11	-36.5	-37.5	23.2	0.00e+00	120	39	0	931135488	46	5866
2026-01-01 23:38:25.65	116.58	40.33	-36.3	-37.3	23.4	0.00e+00	122	39	0	934281216	46	5732
2026-01-01 23:38:26.63	116.34	40.55	-36.2	-37.1	23.4	0.00e+00	124	39	0	937426944	46	5639
2026-01-01 23:38:27.60	116.10	40.77	-36.3	-37.2	23.3	0.00e+00	122	39	0	940572672	46	5699
2026-01-01 23:38:28.58	115.85	40.99	-36.5	-37.4	23.1	0.00e+00	120	39	0	943718400	46	5847
2026-01-01 23:38:29.56	115.59	41.22	-36.6	-37.6	23.0	0.00e+00	123	39	0	946864128	46	5960
2026-01-01 23:38:30.54	115.34	41.44	-36.9	-37.9	22.6	0.00e+00	122	39	0	950009856	46	6194
2026-01-01 23:38:31.51	115.08	41.67	-37.1	-38.1	22.5	0.00e+00	123	39	0	952107008	46	6330
2026-01-01 23:38:32.49	114.82	41.89	-37.3	-38.3	22.6	0.00e+00	124	39	0	955252736	46	6433
2026-01-01 23:38:33.47	114.55	42.12	-37.4	-38.4	22.5	0.00e+00	123	39	0	958398464	46	6506
2026-01-01 23:38:34.45	114.28	42.35	-37.5	-38.5	22.4	0.00e+00	122	39	0	961544192	46	6640
2026-01-01 23:38:35.42	114.01	42.57	-37.7	-38.7	22.2	0.00e+00	121	39	0	964689920	46	6767
2026-01-01 23:38:36.40	113.73	42.80	-37.9	-38.9	22.0	0.00e+00	123	39	0	967835648	48	6184
2026-01-01 23:38:37.38	113.44	43.03	-38.1	-39.2	21.8	0.00e+00	123	39	0	970981376	48	6372
2026-01-01 23:38:38.35	113.16	43.26	-38.5	-39.6	21.4	0.00e+00	123	39	0	974127104	48	6683
2026-01-01 23:38:39.33	112.87	43.49	-38.5	-39.6	21.3	0.00e+00	121	39	0	977272832	48	6681
2026-01-01 23:38:40.31	112.57	43.72	-38.4	-39.5	21.5	0.00e+00	122	39	0	980418560	48	6632
2026-01-01 23:38:41.28	112.28	43.95	-38.3	-39.4	21.7	0.00e+00	122	39	0	983564288	48	6536
2026-01-01 23:38:42.26	111.97	44.18	-38.2	-39.3	21.8	0.00e+00	121	39	0	985661440	48	6437
2026-01-01 23:38:43.23	111.67	44.41	-38.1	-39.2	21.8	0.00e+00	121	39	0	988807168	48	6375
2026-01-01 23:38:44.21	111.35	44.65	-38.2	-39.3	21.7	0.00e+00	123	39	0	991952896	48	6470
2026-01-01 23:38:45.18	111.04	44.88	-38.2	-39.2	21.8	0.00e+00	121	39	0	995098624	48	6414
2026-01-01 23:38:46.16	110.71	45.11	-38.0	-39.0	21.9	0.00e+00	124	39	0	998244352	48	6265
2026-01-01 23:38:47.13	110.39	45.34	-38.1	-39.2	21.6	0.00e+00	120	39	0	1001390080	48	6391
2026-01-01 23:38:48.11	110.06	45.58	-38.4	-39.6	21.1	0.00e+00	124	39	0	1004535808	48	6653
2026-01-01 23:38:49.08	109.72	45.81	-38.6	-39.7	21.3	0.00e+00	124	39	0	1007681536	48	6797
2026-01-01 23:38:50.06	109.38	46.05	-38.7	-39.8	21.2	0.00e+00	122	39	0	1010827264	48	6879
2026-01-01 23:38:51.04	109.03	46.28	-38.8	-39.9	21.1	0.00e+00	119	39	0	1013972992	50	6179
2026-01-01 23:38:52.01	108.68	46.52	-38.7	-39.8	21.2	0.00e+00	119	39	0	1017118720	50	6120
2026-01-01 23:38:52.99	108.33	46.75	-38.4	-39.5	21.6	0.00e+00	122	40	0	1019215872	50	5872
2026-01-01 23:38:53.97	107.96	46.99	-38.0	-39.1	21.8	0.00e+00	121	39	0	1022361600	50	5634
2026-01-01 23:38:54.94	107.60	47.22	-38.0	-39.1	21.8	0.00e+00	118	39	0	1025507328	50	5643
2026-01-01 23:38:55.92	107.22	47.46	-38.2	-39.3	21.7	0.00e+00	119	39	0	1028653056	50	5737
2026-01-01 23:38:56.90	106.84	47.69	-38.1	-39.2	21.8	0.00e+00	122	39	0	1031798784	50	5694
2026-01-01 23:38:57.87	106.46	47.92	-38.4	-39.5	21.5	0.00e+00	123	39	0	1034944512	50	5876
2026-01-01 23:38:58.85	106.07	48.16	-38.4	-39.5	21.6	0.00e+00	123	39	0	1038090240	50	5866
2026-01-01 23:38:59.82	105.67	48.39	-38.5	-39.5	21.6	0.00e+00	122	39	0	1041235968	50	5922
2026-01-01 23:39:00.80	105.27	48.63	-38.6	-39.7	21.4	0.00e+00	123	39	0	1044381696	50	6037
2026-01-01 23:39:01.77	104.86	48.86	-38.3	-39.4	21.7	0.00e+00	122	39	0	1047527424	50	5855
2026-01-01 23:39:02.75	104.44	49.09	-38.2	-39.3	21.7	0.00e+00	122	39	0	1050673152	50	5782
2026-01-01 23:39:03.73	104.02	49.33	-37.9	-38.9	21.9	0.00e+00	119	39	0	1053818880	50	5495
2026-01-01 23:39:04.70	103.59	49.56	-37.3	-38.3	22.6	0.00e+00	122	39	0	1055916032	48	5745
2026-01-01 23:39:05.68	103.16	49.79	-37.2	-38.1	22.5	0.00e+00	124	39	0	1059061760	48	5646
2026-01-01 23:39:06.66	102.71	50.02	-37.1	-38.1	22.5	0.00e+00	122	39	0	1062207488	48	5630
2026-01-01 23:39:07.64	102.26	50.25	-37.3	-38.4	22.4	0.00e+00	125	39	0	1065353216	48	5792
2026-01-01 23:39:08.61	101.81	50.48	-37.5	-38.5	22.5	0.00e+00	122	39	0	1068498944	48	5878
2026-01-01 23:39:09.59	101.35	50.71	-36.9	-37.9	22.9	0.00e+00	122	39	0	1071644672	48	5477
2026-01-01 23:39:10.57	100.88	50.94	-36.7	-37.7	23.0	0.00e+00	122	39	0	1074790400	48	5368
2026-01-01 23:39:11.54	100.40	51.17	-36.7	-37.7	22.8	0.00e+00	122	39	0	1077936128	46	6035
2026-01-01 23:39:12.52	99.92	51.39	-36.5	-37.5	22.7	0.00e+00	122	39	0	1081081856	46	5862
2026-01-01 23:39:13.50	99.42	51.62	-36.6	-37.6	22.7	0.00e+00	122	39	0	1084227584	46	5987
2026-01-01 23:39:14.47	98.93	51.84	-36.7	-37.7	22.8	0.00e+00	121	39	0	1087373312	46	6053
2026-01-01 23:39:15.45	98.42	52.06	-36.5	-37.5	23.1	0.00e+00	121	39	0	1089470464	46	5892
2026-01-01 23:39:16.43	97.90	52.29	-36.6	-37.5	23.1	0.00e+00	120	39	0	1092616192	46	5904
2026-01-01 23:39:17.40	97.39	52.50	-36.6	-37.6	22.8	0.00e+00	121	39	0	1095761920	46	5956
2026-01-01 23:39:18.38	96.85	52.72	-36.5	-37.5	22.5	0.00e+00	124	39	0	1098907648	46	5911
2026-01-01 23:39:19.36	96.31	52.94	-36.4	-37.4	22.6	0.00e+00	124	39	0	1102053376	46	5836
2026-01-01 23:39:20.33	95.77	53.15	-36.5	-37.6	22.9	0.00e+00	124	39	0	1105199104	46	5939
2026-01-01 23:39:21.31	95.22	53.37	-36.3	-37.3	23.3	0.00e+00	123	39	0	1108344832	46	5769
2026-01-01 23:39:22.28	94.66	53.58	-36.3	-37.3	23.1	0.00e+00	123	39	0	1111490560	46	5744
2026-01-01 23:39:23.27	94.08	53.79	-36.5	-37.5	23.0	0.00e+00	125	39	0	1114636288	46	5861
2026-01-01 23:39:24.24	93.51	53.99	-36.6	-37.6	22.8	0.00e+00	122	39	0	1117782016	46	5943
2026-01-01 23:39:25.21	92.92	54.20	-36.7	-37.8	22.6	0.00e+00	123	39	0	1119879168	46	6070
2026-01-01 23:39:26.19	92.33	54.40	-36.7	-37.8	22.8	0.00e+00	122	39	0	1123024896	46	6067
2026-01-01 23:39:27.17	91.72	54.60	-36.4	-37.3	23.3	0.00e+00	119	39	0	1126170624	46	5777
2026-01-01 23:39:28.14	91.11	54.80	-35.6	-36.5	24.0	0.00e+00	123	39	0	1129316352	44	5888
2026-01-01 23:39:29.11	90.50	54.99	-35.7	-36.6	23.9	0.00e+00	125	40	0	1132462080	44	5955
2026-01-01 23:39:30.09	89.86	55.19	-35.4	-36.3	24.1	0.00e+00	122	39	0	1135607808	44	5737
2026-01-01 23:39:31.07	89.22	55.38	-35.4	-36.3	24.1	0.00e+00	122	40	0	1138753536	44	5764
2026-01-01 23:39:32.04	88.58	55.56	-35.5	-36.4	24.0	0.00e+00	123	39	0	1141899264	44	5814
2026-01-01 23:39:33.02	87.93	55.75	-35.0	-35.8	24.4	0.00e+00	122	39	0	1145044992	44	5446
2026-01-01 23:39:33.99	87.27	55.92	-34.6	-35.4	24.7	0.00e+00	123	39	0	1148190720	42	5858
2026-01-01 23:39:34.97	86.59	56.10	-34.7	-35.6	24.3	0.00e+00	121	39	0	1151336448	42	5928
2026-01-01 23:39:35.95	85.91	56.28	-35.0	-35.9	24.0	0.00e+00	120	39	0	1153433600	42	6154
2026-01-01 23:39:36.92	85.22	56.45	-35.0	-35.9	24.3	0.00e+00	121	39	0	1156579328	42	6157
2026-01-01 23:39:37.90	84.52	56.61	-34.8	-35.7	24.2	0.00e+00	123	39	0	1159725056	42	6029
2026-01-01 23:39:38.87	83.82	56.78	-35.0	-35.8	24.3	0.00e+00	122	39	0	1162870784	42	6130
2026-01-01 23:39:39.86	83.10	56.94	-35.1	-35.9	24.2	0.00e+00	124	39	0	1166016512	42	6202
2026-01-01 23:39:40.84	82.37	57.09	-35.2	-36.1	24.0	0.00e+00	122	39	0	1169162240	42	6335
2026-01-01 23:39:41.81	81.65	57.24	-34.9	-35.9	24.3	0.00e+00	123	39	0	1172307968	42	6143
2026-01-01 23:39:42.79	80.91	57.39	-34.8	-35.7	24.2	0.00e+00	121	39	0	1175453696	42	6011
2026-01-01 23:39:43.77	80.16	57.54	-34.5	-35.3	24.5	0.00e+00	123	39	0	1178599424	42	5791
2026-01-01 23:39:44.75	79.40	57.68	-34.5	-35.4	24.7	0.00e+00	123	39	0	1181745152	42	5822
2026-01-01 23:39:45.73	78.63	57.81	-34.5	-35.4	24.6	0.00e+00	123	39	0	1184890880	42	5836
2026-01-01 23:39:46.70	77.87	57.94	-34.5	-35.4	24.8	0.00e+00	122	39	0	1188036608	42	5803
2026-01-01 23:39:47.68	77.09	58.06	-34.3	-35.2	24.8	0.00e+00	121	39	0	1191182336	42	5682
2026-01-01 23:39:48.66	76.30	58.19	-34.5	-35.3	24.6	0.00e+00	121	39	0	1193279488	42	5784
2026-01-01 23:39:49.63	75.52	58.30	-34.6	-35.5	24.6	0.00e+00	120	39	0	1196425216	42	5911
2026-01-01 23:39:50.61	74.72	58.41	-34.8	-35.7	24.5	0.00e+00	121	39	0	1199570944	42	6038
2026-01-01 23:39:51.58	73.92	58.52	-34.9	-35.7	24.5	0.00e+00	123	39	0	1202716672	42	6061
2026-01-01 23:39:52.56	73.10	58.62	-34.6	-35.5	24.6	0.00e+00	121	39	0	1205862400	42	5892
2026-01-01 23:39:53.54	72.28	58.71	-34.8	-35.7	24.3	0.00e+00	120	39	0	1209008128	42	6030
2026-01-01 23:39:54.51	71.47	58.80	-35.2	-36.1	23.9	0.00e+00	123	39	0	1212153856	42	6349
2026-01-01 23:39:55.49	70.63	58.89	-35.4	-36.4	23.9	0.00e+00	121	39	0	1215299584	42	6502
2026-01-01 23:39:56.47	69.80	58.97	-35.3	-36.2	24.2	0.00e+00	122	39	0	1218445312	42	6378
2026-01-01 23:39:57.45	68.96	59.04	-34.9	-35.8	24.4	0.00e+00	122	39	0	1221591040	42	6088
2026-01-01 23:39:58.42	68.12	59.11	-35.1	-36.1	24.0	0.00e+00	120	39	0	1224736768	42	6286
2026-01-01 23:39:59.40	67.27	59.17	-35.2	-36.1	24.2	0.00e+00	125	39	0	1226833920	42	6340
2026-01-01 23:40:00.38	66.42	59.23	-35.3	-36.2	24.1	0.00e+00	120	39	0	1229979648	42	6392
2026-01-01 23:40:01.36	65.56	59.28	-35.5	-36.5	24.0	0.00e+00	122	39	0	1233125376	42	6596
2026-01-01 23:40:02.34	64.70	59.32	-35.4	-36.3	23.8	0.00e+00	124	39	0	1236271104	42	6445
2026-01-01 23:40:03.31	63.85	59.36	-35.4	-36.3	23.9	0.00e+00	122	39	0	1239416832	42	6449
2026-01-01 23:40:04.29	62.98	59.39	-34.6	-35.5	24.7	0.00e+00	120	39	0	1242562560	42	5889
2026-01-01 23:40:05.27	62.11	59.42	-34.4	-35.3	24.9	0.00e+00	120	39	0	1245708288	42	5758
2026-01-01 23:40:06.25	61.24	59.44	-34.3	-35.2	24.8	0.00e+00	123	39	0	1248854016	42	5688
2026-01-01 23:40:07.22	60.38	59.46	-34.5	-35.4	24.7	0.00e+00	123	39	0	1251999744	42	5833
2026-01-01 23:40:08.20	59.51	59.47	-34.3	-35.2	25.0	0.00e+00	123	39	0	1255145472	42	5681
2026-01-01 23:40:09.17	58.65	59.47	-34.0	-34.8	25.1	0.00e+00	121	39	0	1258291200	42	5453
2026-01-01 23:40:10.15	57.78	59.47	-33.9	-34.7	25.2	0.00e+00	123	39	0	1260388352	42	5381
2026-01-01 23:40:11.12	56.92	59.46	-34.0	-34.8	25.1	0.00e+00	122	39	0	1263534080	42	5459
2026-01-01 23:40:12.10	56.05	59.44	-34.3	-35.2	24.8	0.00e+00	118	39	0	1266679808	42	5682
2026-01-01 23:40:13.08	55.18	59.42	-34.7	-35.5	24.5	0.00e+00	122	39	0	1269825536	42	5913
2026-01-01 23:40:14.06	54.31	59.40	-34.8	-35.7	24.6	0.00e+00	122	39	0	1272971264	42	6009
2026-01-01 23:40:15.03	53.45	59.36	-34.7	-35.6	24.5	0.00e+00	123	39	0	1276116992	42	5933
2026-01-01 23:40:16.01	52.59	59.32	-35.0	-36.0	24.0	0.00e+00	121	39	0	1279262720	42	6212
2026-01-01 23:40:16.99	51.73	59.28	-35.3	-36.2	24.0	0.00e+00	120	40	0	1282408448	42	6384
2026-01-01 23:40:17.96	50.88	59.23	-35.0	-35.9	24.5	0.00e+00	121	39	0	1285554176	42	6195
2026-01-01 23:40:18.94	50.03	59.17	-34.8	-35.6	24.7	0.00e+00	123	40	0	1288699904	42	5969
2026-01-01 23:40:19.92	49.18	59.11	-35.0	-35.9	24.5	0.00e+00	121	39	0	1290797056	42	6154
2026-01-01 23:40:20.90	48.33	59.04	-34.6	-35.5	24.8	0.00e+00	121	39	0	1293942784	42	5872
2026-01-01 23:40:21.87	47.50	58.97	-34.6	-35.5	24.5	0.00e+00	123	39	0	1297088512	42	5897
2026-01-01 23:40:22.85	46.67	58.89	-34.8	-35.7	24.5	0.00e+00	123	39	0	1300234240	42	6017
2026-01-01 23:40:23.82	45.84	58.81	-35.1	-36.0	24.4	0.00e+00	122	39	0	1303379968	42	6206
2026-01-01 23:40:24.80	45.02	58.72	-35.5	-36.5	24.1	0.00e+00	121	39	0	1306525696	42	6580
2026-01-01 23:40:25.78	44.20	58.62	-35.3	-36.2	24.2	0.00e+00	121	39	0	1309671424	42	6390
2026-01-01 23:40:26.76	43.39	58.52	-35.1	-36.0	24.2	0.00e+00	122	39	0	1312817152	42	6258
2026-01-01 23:40:27.74	42.58	58.42	-35.0	-35.9	24.5	0.00e+00	121	39	0	1315962880	42	6142
2026-01-01 23:40:28.71	41.79	58.31	-35.3	-36.3	24.1	0.00e+00	124	39	0	1319108608	42	6427
2026-01-01 23:40:29.69	40.99	58.19	-35.6	-36.5	23.9	0.00e+00	121	39	0	1322254336	42	6601
2026-01-01 23:40:30.67	40.21	58.07	-35.5	-36.4	24.1	0.00e+00	122	39	0	1325400064	42	6515
2026-01-01 23:40:31.65	39.43	57.95	-35.8	-36.7	23.9	0.00e+00	123	39	0	1327497216	42	6781
2026-01-01 23:40:32.63	38.65	57.82	-35.3	-36.2	24.2	0.00e+00	124	39	0	1330642944	44	5719
2026-01-01 23:40:33.60	37.90	57.68	-35.2	-36.2	24.2	0.00e+00	122	39	0	1333788672	44	5662
2026-01-01 23:40:34.58	37.14	57.55	-35.1	-36.0	24.2	0.00e+00	123	39	0	1336934400	44	5577
2026-01-01 23:40:35.56	36.39	57.40	-35.1	-36.0	24.4	0.00e+00	121	39	0	1340080128	44	5538
2026-01-01 23:40:36.53	35.66	57.26	-35.2	-36.1	24.2	0.00e+00	121	40	0	1343225856	44	5627
2026-01-01 23:40:37.51	34.92	57.10	-35.2	-36.1	24.4	0.00e+00	121	39	0	1346371584	44	5611
2026-01-01 23:40:38.49	34.20	56.95	-35.3	-36.2	24.2	0.00e+00	123	39	0	1349517312	44	5681
2026-01-01 23:40:39.47	33.48	56.79	-35.9	-36.9	23.7	0.00e+00	123	39	0	1352663040	44	6141
2026-01-01 23:40:40.45	32.78	56.63	-36.0	-37.0	23.7	0.00e+00	122	39	0	1355808768	44	6209
2026-01-01 23:40:41.43	32.08	56.46	-35.9	-36.9	23.4	0.00e+00	122	39	0	1358954496	44	6165
2026-01-01 23:40:42.40	31.39	56.29	-35.9	-36.9	23.4	0.00e+00	121	39	0	1362100224	44	6139
2026-01-01 23:40:43.38	30.71	56.12	-35.5	-36.4	23.8	0.00e+00	121	39	0	1365245952	44	5806
2026-01-01 23:40:44.36	30.04	55.94	-35.4	-36.3	24.0	0.00e+00	119	39	0	1367343104	44	5781
2026-01-01 23:40:45.33	29.38	55.76	-35.9	-36.8	23.6	0.00e+00	122	39	0	1370488832	44	6107
2026-01-01 23:40:46.31	28.72	55.58	-36.5	-37.4	23.2	0.00e+00	124	39	0	1373634560	44	6568
2026-01-01 23:40:47.29	28.07	55.39	-36.9	-37.9	22.9	0.00e+00	125	39	0	1376780288	46	6187
2026-01-01 23:40:48.27	27.43	55.20	-37.1	-38.1	22.1	0.00e+00	122	39	0	1379926016	46	6319
2026-01-01 23:40:49.24	26.81	55.01	-36.6	-37.7	22.4	0.00e+00	122	39	0	1383071744	46	6013
2026-01-01 23:40:50.22	26.19	54.81	-36.4	-37.3	23.1	0.00e+00	121	39	0	1386217472	46	5784
2026-01-01 23:40:51.20	25.57	54.62	-36.2	-37.1	23.5	0.00e+00	122	39	0	1389363200	46	5618
2026-01-01 23:40:52.18	24.97	54.42	-36.6	-37.6	23.1	0.00e+00	120	39	0	1392508928	46	5937
2026-01-01 23:40:53.16	24.37	54.21	-37.6	-38.6	22.4	0.00e+00	120	40	0	1395654656	46	6703
2026-01-01 23:40:54.13	23.79	54.01	-38.2	-39.3	21.7	0.00e+00	123	40	0	1398800384	48	6439
2026-01-01 23:40:55.11	23.21	53.80	-38.9	-40.0	20.9	0.00e+00	122	40	0	1400897536	50	6254
2026-01-01 23:40:56.08	22.64	53.60	-39.0	-40.3	20.5	0.00e+00	119	39	0	1404043264	50	6447
2026-01-01 23:40:57.05	22.09	53.39	-37.9	-39.0	21.9	0.00e+00	121	39	0	1407188992	50	5575
2026-01-01 23:40:58.03	21.53	53.17	-36.7	-37.7	23.0	0.00e+00	123	39	0	1410334720	48	5376
2026-01-01 23:40:59.01	20.98	52.96	-35.6	-36.5	24.0	0.00e+00	122	39	0	1413480448	46	5243
2026-01-01 23:40:59.98	20.45	52.75	-35.5	-36.3	24.0	0.00e+00	121	39	0	1416626176	44	5775
2026-01-01 23:41:00.96	19.92	52.53	-36.5	-37.4	23.0	0.00e+00	123	40	0	1419771904	44	6540
2026-01-01 23:41:01.93	19.40	52.31	-38.0	-39.0	21.9	0.00e+00	121	39	0	1422917632	48	6268
2026-01-01 23:41:02.91	18.89	52.09	-37.8	-38.9	21.8	0.00e+00	123	39	0	1426063360	48	6159
2026-01-01 23:41:03.88	18.38	51.87	-36.8	-37.8	22.5	0.00e+00	121	39	0	1429209088	48	5445
2026-01-01 23:41:04.86	17.88	51.64	-36.6	-37.5	22.5	0.00e+00	123	39	0	1431306240	46	5919
2026-01-01 23:41:05.84	17.39	51.42	-36.0	-37.0	22.8	0.00e+00	120	39	0	1434451968	46	5543
2026-01-01 23:41:06.81	16.91	51.20	-35.8	-36.7	23.0	0.00e+00	123	39	0	1437597696	46	5401
2026-01-01 23:41:07.79	16.43	50.97	-36.0	-37.0	23.0	0.00e+00	122	40	0	1440743424	46	5534
2026-01-01 23:41:08.77	15.96	50.74	-36.7	-37.6	22.9	0.00e+00	121	39	0	1443889152	46	5987
2026-01-01 23:41:09.75	15.50	50.51	-37.6	-38.6	22.2	0.00e+00	123	39	0	1447034880	46	6688
2026-01-01 23:41:10.72	15.05	50.28	-38.3	-39.4	21.1	0.00e+00	122	39	0	1450180608	48	6568
2026-01-01 23:41:11.70	14.60	50.05	-37.7	-38.9	21.0	0.00e+00	121	39	0	1453326336	48	6157
2026-01-01 23:41:12.68	14.15	49.82	-37.3	-38.3	21.7	0.00e+00	121	39	0	1456472064	48	5778
2026-01-01 23:41:13.65	13.72	49.59	-37.1	-38.1	22.4	0.00e+00	123	39	0	1459617792	48	5604
2026-01-01 23:41:14.63	13.29	49.36	-36.9	-37.9	22.9	0.00e+00	120	39	0	1462763520	48	5479
2026-01-01 23:41:15.61	12.87	49.13	-37.0	-38.0	22.8	0.00e+00	125	40	0	1464860672	48	5534
2026-01-01 23:41:16.58	12.46	48.90	-37.6	-38.6	22.4	0.00e+00	123	39	0	1468006400	48	5951
2026-01-01 23:41:17.56	12.05	48.66	-38.1	-39.2	21.8	0.00e+00	122	39	0	1471152128	48	6381
2026-01-01 23:41:18.54	11.64	48.43	-38.4	-39.5	21.6	0.00e+00	119	39	0	1474297856	48	6578
2026-01-01 23:41:19.51	11.25	48.20	-38.6	-39.7	21.3	0.00e+00	122	39	0	1477443584	48	6745
2026-01-01 23:41:20.49	10.86	47.96	-38.5	-39.6	21.2	0.00e+00	122	40	0	1480589312	48	6705
2026-01-01 23:41:21.47	10.47	47.73	-37.8	-38.8	21.9	0.00e+00	122	39	0	1483735040	48	6122
2026-01-01 23:41:22.45	10.09	47.49	-36.9	-37.9	22.9	0.00e+00	123	39	0	1486880768	48	5477
2026-01-01 23:41:23.42	9.72	47.26	-36.1	-37.0	23.6	0.00e+00	123	40	0	1490026496	46	5550
2026-01-01 23:41:24.40	9.35	47.03	-36.5	-37.4	23.2	0.00e+00	122	40	0	1493172224	46	5850
2026-01-01 23:41:25.38	8.99	46.79	-37.6	-38.6	22.1	0.00e+00	122	39	0	1496317952	46	6677
2026-01-01 23:41:26.35	8.64	46.56	-38.6	-39.7	21.2	0.00e+00	125	39	0	1499463680	48	6740
2026-01-01 23:41:27.33	8.28	46.32	-39.1	-40.2	20.9	0.00e+00	120	40	0	1501560832	50	6391
2026-01-01 23:41:28.30	7.94	46.09	-39.0	-40.2	20.7	0.00e+00	124	40	0	1504706560	50	6357
2026-01-01 23:41:29.28	7.60	45.86	-38.3	-39.4	21.1	0.00e+00	123	40	0	1507852288	50	5849
2026-01-01 23:41:30.26	7.26	45.62	-38.2	-39.3	21.4	0.00e+00	120	40	0	1510998016	50	5746
2026-01-01 23:41:31.23	6.93	45.39	-37.9	-38.9	21.8	0.00e+00	122	40	0	1514143744	50	5521
2026-01-01 23:41:32.21	6.60	45.16	-37.5	-38.6	22.2	0.00e+00	121	40	0	1517289472	48	5949
2026-01-01 23:41:33.19	6.28	44.93	-37.4	-38.4	22.4	0.00e+00	125	40	0	1520435200	48	5832
2026-01-01 23:41:34.16	5.97	44.70	-36.7	-37.6	23.2	0.00e+00	123	40	0	1523580928	46	5976
2026-01-01 23:41:35.14	5.66	44.46	-37.3	-38.2	22.6	0.00e+00	119	40	0	1526726656	46	6420
2026-01-01 23:41:36.12	5.35	44.23	-38.0	-39.0	21.8	0.00e+00	122	40	0	1529872384	48	6273
2026-01-01 23:41:37.10	5.04	44.00	-39.5	-40.7	20.3	0.00e+00	123	40	0	1533018112	50	6783
2026-01-01 23:41:38.07	4.75	43.77	-39.8	-41.1	19.5	0.00e+00	121	40	0	1536163840	52	6347
2026-01-01 23:41:39.05	4.45	43.54	-38.6	-39.8	20.0	0.00e+00	123	40	0	1538260992	50	6079
2026-01-01 23:41:40.02	4.16	43.31	-37.6	-38.7	21.0	0.00e+00	122	40	0	1541406720	48	5999
2026-01-01 23:41:41.00	3.88	43.08	-37.4	-38.5	21.8	0.00e+00	122	40	0	1544552448	48	5859
2026-01-01 23:41:41.98	3.59	42.85	-37.2	-38.2	22.5	0.00e+00	121	40	0	1547698176	48	5706
2026-01-01 23:41:42.95	3.32	42.63	-37.6	-38.6	22.2	0.00e+00	121	40	0	1550843904	48	5978
2026-01-01 23:41:43.93	3.04	42.40	-38.3	-39.4	21.5	0.00e+00	123	40	0	1553989632	48	6529
2026-01-01 23:41:44.91	2.77	42.17	-38.8	-39.9	21.3	0.00e+00	122	39	0	1557135360	50	6168
2026-01-01 23:41:45.88	2.51	41.95	-38.9	-40.0	21.2	0.00e+00	123	40	0	1560281088	50	6226
2026-01-01 23:41:46.86	2.25	41.72	-38.7	-39.8	21.2	0.00e+00	122	40	0	1563426816	50	6108
2026-01-01 23:41:47.84	1.99	41.50	-38.6	-39.7	21.4	0.00e+00	121	39	0	1566572544	50	6018
2026-01-01 23:41:48.81	1.73	41.28	-38.5	-39.6	21.5	0.00e+00	124	39	0	1568669696	50	5939
2026-01-01 23:41:49.79	1.48	41.05	-38.0	-39.1	21.9	0.00e+00	125	39	0	1571815424	50	5598
2026-01-01 23:41:50.77	1.23	40.83	-37.7	-38.8	22.1	0.00e+00	123	39	0	1574961152	48	6082
2026-01-01 23:41:51.75	0.99	40.61	-37.6	-38.7	22.2	0.00e+00	121	39	0	1578106880	48	6005
2026-01-01 23:41:52.73	0.75	40.39	-36.3	-37.3	23.1	0.00e+00	125	40	0	1581252608	46	5727
2026-01-01 23:41:53.70	0.51	40.17	-35.6	-36.5	23.7	0.00e+00	123	39	0	1584398336	44	5882
2026-01-01 23:41:54.68	0.27	39.95	-35.7	-36.6	23.7	0.00e+00	122	39	0	1587544064	44	5941
2026-01-01 23:41:55.66	0.04	39.73	-35.3	-36.1	24.0	0.00e+00	118	40	0	1590689792	44	5657
2026-01-01 23:41:56.64	359.81	39.51	-35.8	-36.7	23.7	0.00e+00	122	39	0	1593835520	44	6059
2026-01-01 23:41:57.62	359.59	39.30	-36.7	-37.7	22.9	0.00e+00	122	39	0	1596981248	44	6769
2026-01-01 23:41:58.59	359.37	39.08	-37.7	-38.8	22.0	0.00e+00	122	40	0	1600126976	46	6834
2026-01-01 23:41:59.57	359.15	38.87	-38.3	-39.5	21.4	0.00e+00	122	39	0	1603272704	48	6607
2026-01-01 23:42:00.54	358.93	38.65	-38.4	-39.5	21.4	0.00e+00	120	40	0	1605369856	48	6628
2026-01-01 23:42:01.52	358.72	38.44	-37.8	-38.9	22.0	0.00e+00	122	40	0	1608515584	48	6168
2026-01-01 23:42:02.50	358.51	38.23	-37.6	-38.6	22.2	0.00e+00	124	40	0	1611661312	48	5986
2026-01-01 23:42:03.48	358.30	38.02	-37.2	-38.2	22.6	0.00e+00	125	40	0	1614807040	48	5681
2026-01-01 23:42:04.46	358.09	37.81	-36.7	-37.6	23.1	0.00e+00	123	40	0	1617952768	46	5977
2026-01-01 23:42:05.44	357.89	37.60	-36.7	-37.7	23.1	0.00e+00	126	40	0	1621098496	46	5998
2026-01-01 23:42:06.42	357.69	37.39	-36.6	-37.5	23.2	0.00e+00	122	40	0	1624244224	46	5912
2026-01-01 23:42:07.39	357.49	37.18	-36.2	-37.1	23.5	0.00e+00	121	40	0	1627389952	46	5622
2026-01-01 23:42:08.37	357.30	36.97	-36.0	-37.0	23.4	0.00e+00	125	39	0	1630535680	46	5552
2026-01-01 23:42:09.34	357.10	36.77	-36.0	-36.9	23.5	0.00e+00	124	39	0	1633681408	46	5497
2026-01-01 23:42:10.32	356.91	36.56	-35.9	-36.8	23.4	0.00e+00	122	39	0	1636827136	46	5464
2026-01-01 23:42:11.30	356.73	36.36	-35.7	-36.6	23.7	0.00e+00	121	40	0	1638924288	44	5950
2026-01-01 23:42:12.28	356.54	36.16	-35.5	-36.4	23.9	0.00e+00	122	40	0	1642070016	44	5817
2026-01-01 23:42:13.26	356.36	35.95	-35.5	-36.4	23.9	0.00e+00	124	40	0	1645215744	44	5854
2026-01-01 23:42:14.23	356.18	35.75	-35.9	-36.8	23.6	0.00e+00	124	40	0	1648361472	44	6126
2026-01-01 23:42:15.20	356.00	35.55	-36.2	-37.2	23.4	0.00e+00	123	39	0	1651507200	44	6373
2026-01-01 23:42:16.18	355.82	35.35	-36.5	-37.5	23.1	0.00e+00	122	40	0	1654652928	44	6616
2026-01-01 23:42:17.15	355.65	35.16	-36.7	-37.7	23.1	0.00e+00	117	40	0	1657798656	44	6747
2026-01-01 23:42:18.13	355.48	34.96	-36.7	-37.7	23.0	0.00e+00	121	40	0	1660944384	44	6738
2026-01-01 23:42:19.10	355.31	34.76	-36.5	-37.5	23.1	0.00e+00	122	40	0	1664090112	44	6605
2026-01-01 23:42:20.08	355.14	34.57	-36.0	-37.0	23.5	0.00e+00	123	39	0	1667235840	44	6236
2026-01-01 23:42:21.06	354.98	34.37	-36.1	-37.0	23.5	0.00e+00	124	40	0	1670381568	44	6236
2026-01-01 23:42:22.04	354.81	34.18	-35.5	-36.4	23.8	0.00e+00	125	40	0	1673527296	44	5819
2026-01-01 23:42:23.02	354.65	33.99	-35.4	-36.4	23.8	0.00e+00	123	40	0	1675624448	44	5799
2026-01-01 23:42:24.00	354.49	33.79	-35.6	-36.5	23.6	0.00e+00	122	40	0	1678770176	44	5896
2026-01-01 23:42:24.98	354.33	33.60	-35.6	-36.5	23.6	0.00e+00	121	40	0	1681915904	44	5888
2026-01-01 23:42:25.95	354.18	33.41	-35.6	-36.6	23.5	0.00e+00	121	39	0	1685061632	44	5948
2026-01-01 23:42:26.92	354.03	33.23	-35.8	-36.7	23.3	0.00e+00	120	39	0	1688207360	44	6060
2026-01-01 23:42:27.90	353.87	33.04	-36.0	-36.9	23.3	0.00e+00	121	40	0	1691353088	44	6196
2026-01-01 23:42:28.88	353.72	32.85	-36.1	-37.0	23.3	0.00e+00	121	40	0	1694498816	44	6250
2026-01-01 23:42:29.86	353.57	32.66	-36.0	-37.0	23.3	0.00e+00	123	40	0	1697644544	44	6213
2026-01-01 23:42:30.84	353.43	32.48	-35.9	-36.9	23.5	0.00e+00	121	40	0	1700790272	44	6146
2026-01-01 23:42:31.82	353.28	32.29	-35.9	-36.8	23.5	0.00e+00	123	40	0	1703936000	44	6134
2026-01-01 23:42:32.79	353.14	32.11	-35.8	-36.7	23.7	0.00e+00	122	40	0	1707081728	44	6034
2026-01-01 23:42:33.77	352.99	31.93	-35.7	-36.6	23.9	0.00e+00	123	39	0	1709178880	44	5965
2026-01-01 23:42:34.74	352.86	31.75	-35.7	-36.6	23.9	0.00e+00	121	40	0	1712324608	44	5949
2026-01-01 23:42:35.72	352.72	31.57	-35.2	-36.2	24.1	0.00e+00	123	40	0	1715470336	44	5663
2026-01-01 23:42:36.70	352.58	31.39	-35.2	-36.2	24.1	0.00e+00	122	40	0	1718616064	44	5664
2026-01-01 23:42:37.68	352.44	31.21	-35.3	-36.2	23.9	0.00e+00	119	40	0	1721761792	44	5724
2026-01-01 23:42:38.65	352.31	31.03	-35.2	-36.2	24.1	0.00e+00	122	40	0	1724907520	44	5662
2026-01-01 23:42:39.63	352.18	30.85	-35.3	-36.2	23.9	0.00e+00	122	40	0	1728053248	44	5719
2026-01-01 23:42:40.61	352.05	30.68	-35.3	-36.2	23.9	0.00e+00	124	39	0	1731198976	44	5708
2026-01-01 23:42:41.58	351.92	30.50	-35.2	-36.1	24.0	0.00e+00	120	40	0	1734344704	44	5639
2026-01-01 23:42:42.56	351.79	30.33	-35.3	-36.3	23.8	0.00e+00	121	40	0	1737490432	44	5736
2026-01-01 23:42:43.54	351.66	30.15	-35.4	-36.4	23.7	0.00e+00	122	40	0	1740636160	44	5804
2026-01-01 23:42:44.51	351.54	29.98	-35.6	-36.5	23.7	0.00e+00	125	40	0	1742733312	44	5882
2026-01-01 23:42:45.49	351.41	29.81	-35.7	-36.6	23.7	0.00e+00	122	40	0	1745879040	44	5958
2026-01-01 23:42:46.47	351.29	29.64	-35.9	-36.8	23.7	0.00e+00	122	39	0	1749024768	44	6114
2026-01-01 23:42:47.45	351.17	29.47	-35.8	-36.7	23.8	0.00e+00	121	40	0	1752170496	44	6028
2026-01-01 23:42:48.43	351.05	29.30	-36.0	-36.9	23.5	0.00e+00	123	40	0	1755316224	44	6174
2026-01-01 23:42:49.40	350.93	29.13	-35.8	-36.7	23.7	0.00e+00	120	40	0	1758461952	44	6056
2026-01-01 23:42:50.38	350.81	28.96	-35.9	-36.8	23.7	0.00e+00	121	40	0	1761607680	44	6113
2026-01-01 23:42:51.36	350.69	28.80	-36.0	-36.9	23.5	0.00e+00	123	40	0	1764753408	44	6193
2026-01-01 23:42:52.34	350.58	28.63	-36.0	-37.0	23.4	0.00e+00	122	40	0	1767899136	44	6239
2026-01-01 23:42:53.31	350.47	28.47	-36.2	-37.2	23.3	0.00e+00	124	40	0	1771044864	44	6360
2026-01-01 23:42:54.29	350.35	28.30	-36.0	-37.0	23.4	0.00e+00	121	40	0	1774190592	44	6251
2026-01-01 23:42:55.27	350.24	28.14	-36.0	-37.0	23.4	0.00e+00	125	40	0	1777336320	44	6215
2026-01-01 23:42:56.25	350.13	27.98	-35.8	-36.8	23.4	0.00e+00	123	40	0	1779433472	44	6078
2026-01-01 23:42:57.23	350.02	27.81	-36.0	-37.0	23.2	0.00e+00	125	40	0	1782579200	44	6240
2026-01-01 23:42:58.20	349.91	27.66	-35.6	-36.5	23.6	0.00e+00	121	40	0	1785724928	44	5921
2026-01-01 23:42:59.18	349.81	27.49	-35.5	-36.5	23.7	0.00e+00	121	40	0	1788870656	44	5872
2026-01-01 23:43:00.15	349.70	27.34	-35.2	-36.2	24.0	0.00e+00	121	40	0	1792016384	44	5671
2026-01-01 23:43:01.13	349.60	27.18	-34.8	-35.7	24.3	0.00e+00	120	39	0	1795162112	44	5399
2026-01-01 23:43:02.11	349.49	27.02	-34.8	-35.7	24.3	0.00e+00	120	40	0	1798307840	44	5384
2026-01-01 23:43:03.08	349.39	26.87	-34.5	-35.4	24.8	0.00e+00	123	40	0	1801453568	42	5812
2026-01-01 23:43:04.06	349.29	26.71	-34.4	-35.2	24.8	0.00e+00	124	40	0	1804599296	42	5714
2026-01-01 23:43:05.04	349.19	26.55	-34.4	-35.3	24.9	0.00e+00	121	40	0	1807745024	42	5734
2026-01-01 23:43:06.02	349.09	26.40	-34.1	-34.9	25.0	0.00e+00	121	40	0	1810890752	42	5522
2026-01-01 23:43:07.00	348.99	26.25	-34.2	-35.1	25.0	0.00e+00	121	40	0	1812987904	42	5603
2026-01-01 23:43:07.98	348.89	26.09	-34.2	-35.1	25.0	0.00e+00	121	39	0	1816133632	42	5619
2026-01-01 23:43:08.96	348.80	25.94	-34.2	-35.1	25.0	0.00e+00	122	40	0	1819279360	42	5618
2026-01-01 23:43:09.94	348.70	25.79	-34.3	-35.2	24.8	0.00e+00	124	39	0	1822425088	42	5690
2026-01-01 23:43:10.92	348.61	25.64	-34.3	-35.2	24.8	0.00e+00	122	40	0	1825570816	42	5691
2026-01-01 23:43:11.89	348.51	25.49	-34.4	-35.3	24.9	0.00e+00	121	40	0	1828716544	42	5737
2026-01-01 23:43:12.87	348.42	25.34	-34.5	-35.4	24.8	0.00e+00	122	40	0	1831862272	42	5796
2026-01-01 23:43:13.85	348.33	25.19	-34.5	-35.3	24.8	0.00e+00	122	40	0	1835008000	42	5777
2026-01-01 23:43:14.83	348.24	25.04	-34.6	-35.5	24.7	0.00e+00	121	40	0	1838153728	42	5874
2026-01-01 23:43:15.81	348.15	24.90	-34.7	-35.6	24.5	0.00e+00	122	40	0	1841299456	42	5985
2026-01-01 23:43:16.78	348.06	24.75	-34.6	-35.5	24.6	0.00e+00	120	40	0	1844445184	42	5915
2026-01-01 23:43:17.76	347.97	24.61	-34.7	-35.6	24.5	0.00e+00	122	40	0	1847590912	42	5939
2026-01-01 23:43:18.74	347.88	24.46	-34.8	-35.7	24.5	0.00e+00	120	40	0	1849688064	42	6046
2026-01-01 23:43:19.72	347.79	24.32	-34.9	-35.7	24.4	0.00e+00	120	40	0	1852833792	42	6064
2026-01-01 23:43:20.70	347.71	24.17	-34.9	-35.8	24.4	0.00e+00	122	40	0	1855979520	42	6075
2026-01-01 23:43:21.67	347.62	24.03	-34.9	-35.8	24.3	0.00e+00	123	40	0	1859125248	42	6108
2026-01-01 23:43:22.65	347.54	23.89	-34.9	-35.8	24.3	0.00e+00	123	40	0	1862270976	42	6125
2026-01-01 23:43:23.63	347.45	23.75	-35.0	-35.9	24.2	0.00e+00	122	40	0	1865416704	42	6171
2026-01-01 23:43:24.60	347.37	23.61	-35.1	-36.0	24.2	0.00e+00	124	40	0	1868562432	42	6218
2026-01-01 23:43:25.58	347.29	23.47	-35.1	-36.1	24.2	0.00e+00	122	40	0	1871708160	42	6278
2026-01-01 23:43:26.55	347.21	23.33	-35.3	-36.2	24.0	0.00e+00	123	40	0	1874853888	42	6400
2026-01-01 23:43:27.53	347.13	23.19	-35.2	-36.1	24.1	0.00e+00	123	40	0	1877999616	42	6336
2026-01-01 23:43:28.51	347.05	23.06	-35.4	-36.3	24.0	0.00e+00	123	40	0	1881145344	42	6486
2026-01-01 23:43:29.49	346.97	22.92	-35.3	-36.3	24.0	0.00e+00	122	40	0	1884291072	42	6425
2026-01-01 23:43:30.46	346.89	22.78	-35.4	-36.3	24.0	0.00e+00	121	40	0	1886388224	42	6449
