passes_logs/2026/01/01/R4.6S_Anadyr/R4.6S_Anadyr__20260101_124656_NOAA_20_JPSS-1_rec.log

#Pass ID: 20260101_124656_NOAA 20 (JPSS-1)
#Satellite: NOAA 20 (JPSS-1)
#Configuration: NOAA 20
#almurnet v.1.7.20251203
#Start time: 2026-01-01 12:46:58

#Version: 2.2.20231116
#Station: R4.6S_Anadyr
#Location: 177.4865 lon 64.73178 lat
#TLE: 1 43013U 17073A   25364.89373485  .00000164  00000+0  98659-4 0  9997
#TLE: 2 43013  98.7619 300.9939 0001957  61.1511 298.9862 14.19531413420599

#Time	Az	El	Level	Level2	SNR	BER	BlckErr	Temp	State	Recorded	gain1	gain2
2026-01-01 12:46:58.36	18.86	0.11	-49.1	-64.1	3.5	1.51e+00	0	35	0	0	60	57830
2026-01-01 12:46:59.36	18.93	0.16	-49.1	-64.4	3.6	1.51e+00	0	37	104	0	60	60307
2026-01-01 12:47:00.37	18.99	0.21	-49.1	-64.3	3.6	1.51e+00	0	37	104	0	60	59046
2026-01-01 12:47:01.39	19.05	0.27	-49.1	-64.3	3.6	1.51e+00	0	37	104	0	60	59491
2026-01-01 12:47:02.39	19.12	0.32	-49.1	-64.3	3.6	1.51e+00	0	37	104	0	60	59217
2026-01-01 12:47:03.41	19.18	0.37	-49.1	-64.4	3.6	1.51e+00	0	37	104	0	60	59750
2026-01-01 12:47:04.41	19.24	0.43	-49.2	-64.4	3.6	1.51e+00	0	37	104	0	60	59644
2026-01-01 12:47:05.42	19.31	0.48	-49.1	-64.4	3.6	1.51e+00	0	37	104	0	60	60013
2026-01-01 12:47:06.43	19.37	0.53	-49.1	-64.4	3.6	1.51e+00	0	37	104	0	60	59873
2026-01-01 12:47:07.44	19.44	0.59	-49.1	-64.3	3.6	1.51e+00	0	37	104	0	60	59345
2026-01-01 12:47:08.45	19.50	0.64	-49.0	-64.3	3.6	1.51e+00	0	37	104	0	60	59230
2026-01-01 12:47:09.46	19.57	0.69	-48.9	-64.1	3.6	1.51e+00	0	37	104	0	60	58151
2026-01-01 12:47:10.47	19.63	0.75	-48.8	-64.0	3.6	1.51e+00	0	37	104	0	60	57204
2026-01-01 12:47:11.48	19.70	0.80	-48.6	-63.8	3.6	1.51e+00	0	37	104	0	60	55971
2026-01-01 12:47:12.49	19.76	0.85	-48.4	-63.7	3.6	1.51e+00	0	37	104	0	60	55173
2026-01-01 12:47:13.50	19.83	0.91	-48.3	-63.4	3.6	1.51e+00	0	37	104	0	60	53628
2026-01-01 12:47:14.51	19.89	0.96	-47.9	-63.1	3.6	1.51e+00	0	37	104	0	60	51738
2026-01-01 12:47:15.52	19.96	1.02	-47.5	-62.7	3.6	1.51e+00	0	37	104	0	60	49256
2026-01-01 12:47:16.53	20.03	1.07	-47.5	-62.7	3.6	1.51e+00	0	37	104	0	60	49149
2026-01-01 12:47:17.54	20.09	1.12	-47.5	-62.6	3.6	1.51e+00	0	37	104	0	60	49005
2026-01-01 12:47:18.56	20.16	1.18	-47.5	-62.6	3.6	1.51e+00	0	37	104	0	60	48986
2026-01-01 12:47:19.57	20.23	1.23	-47.5	-62.6	3.6	1.51e+00	0	37	104	0	60	48899
2026-01-01 12:47:20.58	20.29	1.29	-47.5	-62.7	3.6	1.51e+00	0	37	104	0	60	49438
2026-01-01 12:47:21.59	20.36	1.34	-47.5	-62.7	3.6	1.51e+00	0	37	104	0	60	49345
2026-01-01 12:47:22.60	20.43	1.40	-47.5	-62.7	3.6	1.51e+00	0	37	104	0	60	49280
2026-01-01 12:47:23.61	20.50	1.45	-47.5	-62.7	3.6	1.51e+00	0	37	104	0	60	49555
2026-01-01 12:47:24.62	20.57	1.50	-47.5	-62.7	3.6	1.51e+00	0	37	104	0	60	49479
2026-01-01 12:47:25.63	20.63	1.56	-47.5	-62.7	3.6	1.51e+00	0	37	104	0	60	49252
2026-01-01 12:47:26.64	20.70	1.61	-47.5	-62.7	3.6	1.51e+00	0	37	104	0	60	49290
2026-01-01 12:47:27.65	20.77	1.67	-47.5	-62.6	3.6	1.51e+00	0	37	104	0	60	48988
2026-01-01 12:47:28.66	20.84	1.72	-47.5	-62.6	3.6	1.51e+00	0	37	104	0	60	48562
2026-01-01 12:47:29.66	20.91	1.78	-47.5	-62.6	3.6	1.51e+00	0	37	104	0	60	49013
2026-01-01 12:47:30.68	20.98	1.83	-47.5	-62.6	3.6	1.51e+00	0	37	104	0	60	48827
2026-01-01 12:47:31.68	21.05	1.89	-47.5	-62.7	3.6	1.51e+00	0	37	104	0	60	49097
2026-01-01 12:47:32.70	21.12	1.94	-47.5	-62.7	3.6	1.51e+00	0	37	104	0	60	49166
2026-01-01 12:47:33.71	21.19	2.00	-47.5	-62.7	3.6	1.51e+00	0	37	104	0	60	49200
2026-01-01 12:47:34.72	21.26	2.05	-47.5	-62.7	3.6	1.51e+00	0	37	104	0	60	49135
2026-01-01 12:47:35.72	21.33	2.11	-47.5	-62.7	3.6	1.51e+00	0	37	104	0	60	49194
2026-01-01 12:47:36.73	21.40	2.17	-47.5	-62.7	3.6	1.51e+00	0	37	104	0	60	49384
2026-01-01 12:47:37.74	21.47	2.22	-47.5	-62.6	3.5	1.51e+00	0	37	104	0	60	49020
2026-01-01 12:47:38.75	21.54	2.28	-47.5	-62.1	3.6	1.51e+00	0	37	104	0	60	46250
2026-01-01 12:47:39.76	21.62	2.33	-47.5	-61.7	3.6	1.51e+00	0	37	104	0	60	43730
2026-01-01 12:47:40.77	21.69	2.39	-47.4	-61.0	3.6	1.51e+00	0	37	104	0	60	40435
2026-01-01 12:47:41.78	21.76	2.44	-47.4	-61.0	3.6	1.51e+00	0	37	104	0	60	40550
2026-01-01 12:47:42.79	21.83	2.50	-47.5	-61.6	3.6	1.51e+00	0	37	104	0	60	43560
2026-01-01 12:47:43.80	21.91	2.56	-47.4	-60.4	3.6	1.51e+00	0	37	104	0	60	37810
2026-01-01 12:47:44.81	21.98	2.61	-47.1	-56.1	5.3	1.42e+00	0	37	0	0	60	23078
2026-01-01 12:47:45.82	22.05	2.67	-46.3	-52.0	9.2	8.45e-02	0	37	0	2097152	60	14319
2026-01-01 12:47:46.83	22.13	2.72	-45.3	-49.3	12.4	1.85e-03	0	37	0	4194304	60	10583
2026-01-01 12:47:47.84	22.20	2.78	-43.9	-46.6	15.3	1.67e-05	89	37	0	5242880	60	7749
2026-01-01 12:47:48.85	22.27	2.84	-43.0	-45.2	16.7	0.00e+00	0	37	0	7340032	60	6591
2026-01-01 12:47:49.85	22.35	2.89	-41.7	-43.4	18.2	0.00e+00	92	37	0	9437184	56	6731
2026-01-01 12:47:50.86	22.42	2.95	-41.6	-43.3	18.4	0.00e+00	1	37	0	11534336	56	6636
2026-01-01 12:47:51.87	22.50	3.01	-41.4	-43.1	18.6	0.00e+00	6	37	0	13631488	56	6517
2026-01-01 12:47:52.88	22.57	3.06	-42.2	-44.2	17.5	0.00e+00	6	37	0	14680064	56	7369
2026-01-01 12:47:53.89	22.65	3.12	-42.9	-45.1	16.6	0.00e+00	9	37	0	16777216	58	7330
2026-01-01 12:47:54.90	22.72	3.18	-44.1	-47.1	14.5	0.00e+00	85	37	0	18874368	60	8219
2026-01-01 12:47:55.91	22.80	3.23	-45.4	-49.8	11.7	5.95e-05	0	37	0	20971520	60	11144
2026-01-01 12:47:56.92	22.88	3.29	-44.1	-46.9	15.1	2.04e-03	90	37	0	23068672	60	8020
2026-01-01 12:47:57.93	22.95	3.35	-41.4	-43.0	18.9	0.00e+00	7	37	0	24117248	56	6460
2026-01-01 12:47:58.93	23.03	3.40	-47.4	-60.2	3.6	2.29e-03	52	37	104	26214400	60	36777
2026-01-01 12:47:59.95	23.11	3.46	-46.6	-53.7	8.0	1.50e+00	0	37	104	26214400	60	17461
2026-01-01 12:48:00.96	23.18	3.52	-43.2	-45.4	15.5	5.76e-02	0	37	0	27262976	56	8496
2026-01-01 12:48:01.97	23.26	3.58	-42.8	-44.9	17.7	2.10e-03	0	37	0	29360128	60	6327
2026-01-01 12:48:02.98	23.34	3.63	-41.4	-43.0	19.0	0.00e+00	1	37	0	31457280	56	6419
2026-01-01 12:48:03.99	23.42	3.69	-41.2	-42.7	19.0	0.00e+00	92	37	0	33554432	56	6243
2026-01-01 12:48:05.00	23.50	3.75	-41.5	-43.1	19.1	0.00e+00	80	37	0	34603008	56	6507
2026-01-01 12:48:06.01	23.57	3.81	-41.5	-43.2	18.7	0.00e+00	91	37	0	36700160	56	6559
2026-01-01 12:48:07.01	23.65	3.86	-41.3	-42.9	19.2	0.00e+00	0	38	0	38797312	56	6355
2026-01-01 12:48:08.02	23.73	3.92	-41.0	-42.5	19.3	0.00e+00	81	38	0	40894464	56	6088
2026-01-01 12:48:09.03	23.81	3.98	-41.2	-42.8	19.1	0.00e+00	80	37	0	42991616	56	6249
2026-01-01 12:48:10.04	23.89	4.04	-40.9	-42.4	19.6	0.00e+00	0	37	0	45088768	56	6005
2026-01-01 12:48:11.05	23.97	4.10	-41.2	-42.7	19.2	0.00e+00	91	38	0	46137344	56	6199
2026-01-01 12:48:12.06	24.05	4.16	-41.2	-42.8	19.3	0.00e+00	0	37	0	48234496	56	6259
2026-01-01 12:48:13.07	24.13	4.21	-41.0	-42.4	19.6	0.00e+00	91	38	0	50331648	56	6004
2026-01-01 12:48:14.08	24.22	4.27	-41.0	-42.5	19.5	0.00e+00	0	38	0	52428800	56	6050
2026-01-01 12:48:15.09	24.30	4.33	-41.1	-42.6	19.4	0.00e+00	0	37	0	54525952	56	6135
2026-01-01 12:48:16.10	24.38	4.39	-41.3	-42.9	19.1	0.00e+00	0	37	0	55574528	56	6351
2026-01-01 12:48:17.11	24.46	4.45	-41.2	-42.7	19.3	0.00e+00	2	37	0	57671680	56	6233
2026-01-01 12:48:18.12	24.54	4.51	-41.2	-42.8	19.2	0.00e+00	0	37	0	59768832	56	6259
2026-01-01 12:48:19.13	24.63	4.57	-41.4	-43.0	19.0	0.00e+00	2	37	0	61865984	56	6440
2026-01-01 12:48:20.13	24.71	4.62	-41.3	-42.8	19.3	0.00e+00	90	37	0	63963136	56	6273
2026-01-01 12:48:21.14	24.79	4.68	-41.3	-42.8	19.2	0.00e+00	1	37	0	65011712	56	6301
2026-01-01 12:48:22.15	24.87	4.74	-41.0	-42.5	19.6	0.00e+00	92	37	0	67108864	56	6060
2026-01-01 12:48:23.16	24.96	4.80	-41.3	-42.8	19.4	0.00e+00	0	37	0	69206016	56	6275
2026-01-01 12:48:24.17	25.04	4.86	-41.2	-42.7	19.4	0.00e+00	0	37	0	71303168	56	6208
2026-01-01 12:48:25.18	25.13	4.92	-41.1	-42.6	19.5	0.00e+00	0	37	0	73400320	56	6160
2026-01-01 12:48:26.19	25.21	4.98	-41.2	-42.6	19.2	0.00e+00	2	37	0	74448896	56	6173
2026-01-01 12:48:27.20	25.30	5.04	-41.1	-42.6	19.5	0.00e+00	92	37	0	76546048	56	6134
2026-01-01 12:48:28.21	25.38	5.10	-41.2	-42.7	19.5	0.00e+00	79	37	0	78643200	56	6222
2026-01-01 12:48:29.22	25.47	5.16	-41.0	-42.4	19.7	0.00e+00	92	37	0	80740352	56	5998
2026-01-01 12:48:30.23	25.56	5.22	-41.1	-42.5	19.7	0.00e+00	81	37	0	82837504	56	6074
2026-01-01 12:48:31.24	25.64	5.28	-41.1	-42.6	19.6	0.00e+00	0	37	0	83886080	56	6118
2026-01-01 12:48:32.25	25.73	5.34	-41.0	-42.5	19.7	0.00e+00	0	37	0	85983232	56	6038
2026-01-01 12:48:33.26	25.82	5.40	-41.1	-42.6	19.6	0.00e+00	80	37	0	88080384	56	6123
2026-01-01 12:48:34.27	25.90	5.46	-40.7	-42.1	20.0	0.00e+00	90	37	0	90177536	54	6487
2026-01-01 12:48:35.28	25.99	5.52	-40.7	-42.1	20.0	0.00e+00	0	37	0	92274688	54	6539
2026-01-01 12:48:36.29	26.08	5.58	-40.7	-42.0	20.1	0.00e+00	90	37	0	93323264	54	6456
2026-01-01 12:48:37.30	26.17	5.64	-40.7	-42.1	20.0	0.00e+00	0	37	0	95420416	54	6483
2026-01-01 12:48:38.31	26.26	5.70	-40.8	-42.2	20.0	0.00e+00	0	37	0	97517568	54	6568
2026-01-01 12:48:39.32	26.35	5.76	-40.7	-42.0	20.1	0.00e+00	0	37	0	99614720	54	6436
2026-01-01 12:48:40.33	26.44	5.82	-40.7	-42.1	20.0	0.00e+00	0	37	0	101711872	54	6483
2026-01-01 12:48:41.34	26.53	5.88	-40.9	-42.3	20.0	0.00e+00	27	37	0	102760448	54	6658
2026-01-01 12:48:42.35	26.62	5.94	-40.7	-42.1	20.1	0.00e+00	0	37	0	104857600	54	6465
2026-01-01 12:48:43.36	26.71	6.00	-40.8	-42.1	20.1	0.00e+00	92	37	0	106954752	54	6520
2026-01-01 12:48:44.37	26.80	6.06	-40.8	-42.2	20.1	0.00e+00	3	37	0	109051904	54	6544
2026-01-01 12:48:45.37	26.89	6.12	-40.8	-42.2	19.9	0.00e+00	92	37	0	111149056	54	6589
2026-01-01 12:48:46.38	26.98	6.18	-40.8	-42.2	20.0	0.00e+00	3	37	0	113246208	54	6579
2026-01-01 12:48:47.39	27.07	6.25	-40.4	-41.7	20.4	0.00e+00	81	37	0	114294784	54	6210
2026-01-01 12:48:48.40	27.17	6.31	-40.6	-41.9	20.3	0.00e+00	0	37	0	116391936	54	6360
2026-01-01 12:48:49.41	27.26	6.37	-40.4	-41.7	20.5	0.00e+00	79	37	0	118489088	54	6217
2026-01-01 12:48:50.42	27.35	6.43	-40.4	-41.7	20.4	0.00e+00	95	37	0	120586240	54	6228
2026-01-01 12:48:51.43	27.45	6.49	-40.3	-41.6	20.5	0.00e+00	0	37	0	122683392	54	6125
2026-01-01 12:48:52.44	27.54	6.55	-40.4	-41.7	20.5	0.00e+00	90	37	0	123731968	54	6217
2026-01-01 12:48:53.45	27.64	6.61	-40.5	-41.8	20.4	0.00e+00	0	37	0	125829120	54	6286
2026-01-01 12:48:54.46	27.73	6.68	-40.6	-41.9	20.3	0.00e+00	0	37	0	127926272	54	6360
2026-01-01 12:48:55.47	27.83	6.74	-40.6	-42.0	20.2	0.00e+00	81	37	0	130023424	54	6395
2026-01-01 12:48:56.47	27.92	6.80	-40.6	-41.9	20.1	0.00e+00	0	37	0	132120576	54	6381
2026-01-01 12:48:57.48	28.02	6.86	-40.8	-42.2	20.2	0.00e+00	69	37	0	133169152	54	6564
2026-01-01 12:48:58.49	28.11	6.92	-40.6	-41.9	20.4	0.00e+00	0	37	0	135266304	54	6361
2026-01-01 12:48:59.50	28.21	6.99	-40.8	-42.2	19.9	0.00e+00	91	37	0	137363456	54	6577
2026-01-01 12:49:00.51	28.31	7.05	-40.8	-42.2	20.1	0.00e+00	0	37	0	139460608	54	6557
2026-01-01 12:49:01.52	28.40	7.11	-40.9	-42.3	19.8	0.00e+00	58	37	0	141557760	54	6631
2026-01-01 12:49:02.53	28.50	7.17	-40.7	-42.1	20.2	0.00e+00	0	37	0	142606336	54	6485
2026-01-01 12:49:03.54	28.60	7.24	-40.8	-42.1	20.0	0.00e+00	0	37	0	144703488	54	6527
2026-01-01 12:49:04.54	28.70	7.30	-40.9	-42.2	20.1	0.00e+00	0	37	0	146800640	54	6601
2026-01-01 12:49:05.55	28.80	7.36	-40.8	-42.2	20.1	0.00e+00	0	37	0	148897792	54	6565
2026-01-01 12:49:06.56	28.90	7.42	-41.2	-42.6	19.7	0.00e+00	92	37	0	150994944	54	6915
2026-01-01 12:49:07.57	29.00	7.49	-40.9	-42.3	20.0	0.00e+00	0	37	0	152043520	54	6667
2026-01-01 12:49:08.58	29.10	7.55	-40.6	-41.9	20.4	0.00e+00	90	37	0	154140672	54	6366
2026-01-01 12:49:09.59	29.20	7.61	-40.7	-42.0	20.2	0.00e+00	79	37	0	156237824	54	6397
2026-01-01 12:49:10.60	29.30	7.68	-40.8	-42.1	19.9	0.00e+00	0	37	0	158334976	54	6510
2026-01-01 12:49:11.61	29.40	7.74	-40.7	-42.0	20.1	0.00e+00	74	37	0	160432128	54	6456
2026-01-01 12:49:12.62	29.50	7.80	-40.8	-42.1	20.3	0.00e+00	0	37	0	161480704	54	6539
2026-01-01 12:49:13.63	29.61	7.87	-40.6	-41.9	20.5	0.00e+00	90	37	0	163577856	54	6345
2026-01-01 12:49:14.64	29.71	7.93	-40.5	-41.7	20.6	0.00e+00	0	37	0	165675008	54	6234
2026-01-01 12:49:15.65	29.81	7.99	-40.5	-41.8	20.6	0.00e+00	89	37	0	167772160	54	6251
2026-01-01 12:49:16.65	29.91	8.06	-40.4	-41.7	20.7	0.00e+00	0	37	0	169869312	54	6213
2026-01-01 12:49:17.66	30.02	8.12	-40.4	-41.7	20.7	0.00e+00	79	37	0	170917888	54	6201
2026-01-01 12:49:18.67	30.12	8.18	-40.4	-41.6	20.7	0.00e+00	0	37	0	173015040	54	6170
2026-01-01 12:49:19.68	30.23	8.25	-40.3	-41.6	20.8	0.00e+00	0	37	0	175112192	54	6107
2026-01-01 12:49:20.69	30.33	8.31	-40.4	-41.7	20.7	0.00e+00	88	37	0	177209344	54	6182
2026-01-01 12:49:21.70	30.44	8.38	-40.5	-41.7	20.8	0.00e+00	1	37	0	179306496	54	6227
2026-01-01 12:49:22.71	30.55	8.44	-40.2	-41.4	21.0	0.00e+00	92	37	0	180355072	54	5988
2026-01-01 12:49:23.72	30.65	8.50	-40.2	-41.4	21.0	0.00e+00	6	37	0	182452224	54	6032
2026-01-01 12:49:24.73	30.76	8.57	-40.1	-41.3	21.1	0.00e+00	86	37	0	184549376	54	5951
2026-01-01 12:49:25.73	30.87	8.63	-40.1	-41.3	21.0	0.00e+00	2	37	0	186646528	54	5957
2026-01-01 12:49:26.74	30.97	8.70	-40.2	-41.4	21.0	0.00e+00	0	37	0	188743680	54	5978
2026-01-01 12:49:27.75	31.08	8.76	-40.1	-41.3	21.1	0.00e+00	0	37	0	189792256	54	5921
2026-01-01 12:49:28.76	31.19	8.83	-40.1	-41.3	21.1	0.00e+00	0	37	0	191889408	54	5922
2026-01-01 12:49:29.77	31.30	8.89	-40.0	-41.2	21.2	0.00e+00	92	37	0	193986560	54	5853
2026-01-01 12:49:30.78	31.41	8.96	-39.9	-41.1	21.3	0.00e+00	3	37	0	196083712	54	5805
2026-01-01 12:49:31.79	31.52	9.02	-39.9	-41.1	21.3	0.00e+00	88	37	0	198180864	54	5807
2026-01-01 12:49:32.80	31.63	9.08	-39.9	-41.1	21.3	0.00e+00	2	37	0	199229440	54	5798
2026-01-01 12:49:33.81	31.74	9.15	-39.9	-41.0	21.4	0.00e+00	2	37	0	201326592	54	5756
2026-01-01 12:49:34.81	31.86	9.21	-39.9	-41.1	21.3	0.00e+00	86	37	0	203423744	54	5809
2026-01-01 12:49:35.82	31.97	9.28	-39.9	-41.0	21.4	0.00e+00	86	37	0	205520896	54	5748
2026-01-01 12:49:36.83	32.08	9.34	-40.0	-41.1	21.2	0.00e+00	92	37	0	207618048	54	5813
2026-01-01 12:49:37.84	32.19	9.41	-39.8	-40.9	21.5	0.00e+00	4	37	0	209715200	52	6375
2026-01-01 12:49:38.85	32.31	9.48	-39.8	-41.0	21.4	0.00e+00	92	37	0	210763776	52	6415
2026-01-01 12:49:39.86	32.42	9.54	-39.7	-40.8	21.6	0.00e+00	87	37	0	212860928	52	6295
2026-01-01 12:49:40.87	32.54	9.61	-39.6	-40.8	21.7	0.00e+00	0	37	0	214958080	52	6255
2026-01-01 12:49:41.88	32.65	9.67	-39.5	-40.6	21.9	0.00e+00	5	37	0	217055232	52	6115
2026-01-01 12:49:42.89	32.77	9.74	-39.5	-40.6	21.9	0.00e+00	7	37	0	219152384	52	6106
2026-01-01 12:49:43.90	32.88	9.80	-39.5	-40.6	21.8	0.00e+00	75	37	0	220200960	52	6123
2026-01-01 12:49:44.91	33.00	9.87	-39.4	-40.5	21.9	0.00e+00	6	37	0	222298112	52	6083
2026-01-01 12:49:45.92	33.12	9.94	-39.5	-40.6	21.8	0.00e+00	92	37	0	224395264	52	6137
2026-01-01 12:49:46.93	33.24	10.00	-39.6	-40.7	21.7	0.00e+00	6	37	0	226492416	52	6206
2026-01-01 12:49:47.93	33.35	10.07	-39.7	-40.8	21.6	0.00e+00	6	37	0	228589568	52	6252
2026-01-01 12:49:48.94	33.47	10.13	-39.5	-40.6	21.8	0.00e+00	6	37	0	229638144	52	6149
2026-01-01 12:49:49.95	33.59	10.20	-39.5	-40.6	21.9	0.00e+00	6	37	0	231735296	52	6119
2026-01-01 12:49:50.96	33.71	10.27	-39.4	-40.5	22.0	0.00e+00	4	37	0	233832448	52	6053
2026-01-01 12:49:51.97	33.83	10.33	-39.5	-40.6	21.9	0.00e+00	6	37	0	235929600	52	6158
2026-01-01 12:49:52.98	33.95	10.40	-39.4	-40.5	22.0	0.00e+00	92	37	0	238026752	52	6038
2026-01-01 12:49:53.99	34.07	10.47	-39.5	-40.6	21.9	0.00e+00	77	37	0	239075328	52	6122
2026-01-01 12:49:55.00	34.20	10.53	-39.4	-40.4	22.0	0.00e+00	76	37	0	241172480	52	6017
2026-01-01 12:49:56.01	34.32	10.60	-39.5	-40.6	21.9	0.00e+00	77	37	0	243269632	52	6131
2026-01-01 12:49:57.02	34.44	10.67	-39.5	-40.6	21.8	0.00e+00	78	37	0	245366784	52	6126
2026-01-01 12:49:58.03	34.57	10.73	-39.4	-40.5	22.0	0.00e+00	77	37	0	247463936	52	6053
2026-01-01 12:49:59.03	34.69	10.80	-39.3	-40.4	22.1	0.00e+00	78	37	0	248512512	52	5991
2026-01-01 12:50:00.04	34.81	10.87	-39.5	-40.6	21.9	0.00e+00	92	37	0	250609664	52	6139
2026-01-01 12:50:01.05	34.94	10.93	-39.3	-40.4	22.1	0.00e+00	0	37	0	252706816	52	5993
2026-01-01 12:50:02.06	35.06	11.00	-39.3	-40.4	22.1	0.00e+00	90	37	0	254803968	52	5993
2026-01-01 12:50:03.07	35.19	11.07	-39.5	-40.6	22.0	0.00e+00	0	37	0	256901120	52	6106
2026-01-01 12:50:04.08	35.32	11.13	-39.4	-40.5	22.1	0.00e+00	2	37	0	257949696	52	6079
2026-01-01 12:50:05.09	35.44	11.20	-39.4	-40.5	22.1	0.00e+00	0	37	0	260046848	52	6042
2026-01-01 12:50:06.10	35.57	11.27	-39.5	-40.5	22.0	0.00e+00	0	37	0	262144000	52	6095
2026-01-01 12:50:07.11	35.70	11.34	-39.4	-40.5	22.0	0.00e+00	78	37	0	264241152	52	6041
2026-01-01 12:50:08.12	35.83	11.40	-39.3	-40.4	22.2	0.00e+00	0	37	0	266338304	52	5977
2026-01-01 12:50:09.13	35.96	11.47	-39.3	-40.3	22.2	0.00e+00	92	37	0	267386880	52	5947
2026-01-01 12:50:10.14	36.09	11.54	-39.3	-40.4	22.1	0.00e+00	3	37	0	269484032	52	5979
2026-01-01 12:50:11.15	36.22	11.61	-39.1	-40.2	22.4	0.00e+00	3	37	0	271581184	52	5836
2026-01-01 12:50:12.16	36.35	11.67	-39.1	-40.2	22.3	0.00e+00	0	37	0	273678336	52	5834
2026-01-01 12:50:13.17	36.48	11.74	-39.1	-40.1	22.4	0.00e+00	3	37	0	275775488	52	5786
2026-01-01 12:50:14.18	36.62	11.81	-39.1	-40.1	22.3	0.00e+00	0	37	0	277872640	52	5799
2026-01-01 12:50:15.18	36.75	11.88	-39.0	-40.0	22.2	0.00e+00	77	37	0	278921216	52	5731
2026-01-01 12:50:16.20	36.88	11.95	-39.0	-40.0	22.5	0.00e+00	92	37	0	281018368	52	5704
2026-01-01 12:50:17.21	37.02	12.01	-39.2	-40.2	21.7	0.00e+00	78	37	0	283115520	52	5880
2026-01-01 12:50:18.21	37.15	12.08	-39.1	-40.1	22.4	0.00e+00	92	37	0	285212672	52	5795
2026-01-01 12:50:19.22	37.29	12.15	-39.1	-40.1	22.3	0.00e+00	0	37	0	287309824	52	5801
2026-01-01 12:50:20.23	37.42	12.22	-39.0	-40.1	22.4	0.00e+00	0	37	0	288358400	52	5771
2026-01-01 12:50:21.24	37.56	12.29	-39.0	-40.0	22.4	0.00e+00	0	37	0	290455552	52	5750
2026-01-01 12:50:22.25	37.70	12.35	-39.1	-40.2	22.4	0.00e+00	0	37	0	292552704	52	5835
2026-01-01 12:50:23.26	37.84	12.42	-39.1	-40.1	22.4	0.00e+00	92	37	0	294649856	52	5783
2026-01-01 12:50:24.27	37.98	12.49	-39.0	-40.0	22.6	0.00e+00	0	37	0	295698432	52	5729
2026-01-01 12:50:25.28	38.11	12.56	-39.0	-40.1	22.4	0.00e+00	92	37	0	297795584	52	5772
2026-01-01 12:50:26.29	38.25	12.63	-38.8	-39.8	22.8	0.00e+00	0	37	0	299892736	52	5579
2026-01-01 12:50:27.30	38.40	12.70	-38.9	-39.9	22.6	0.00e+00	0	37	0	301989888	52	5633
2026-01-01 12:50:28.31	38.54	12.76	-38.8	-39.9	22.6	0.00e+00	0	37	0	304087040	52	5632
2026-01-01 12:50:29.32	38.68	12.83	-38.9	-40.0	22.5	0.00e+00	5	37	0	306184192	52	5700
2026-01-01 12:50:30.33	38.82	12.90	-39.1	-40.2	22.4	0.00e+00	60	37	0	307232768	52	5847
2026-01-01 12:50:31.34	38.96	12.97	-39.1	-40.1	22.3	0.00e+00	3	37	0	309329920	52	5792
2026-01-01 12:50:32.35	39.11	13.04	-39.2	-40.2	22.4	0.00e+00	91	37	0	311427072	52	5890
2026-01-01 12:50:33.36	39.25	13.11	-39.1	-40.2	22.2	0.00e+00	0	37	0	313524224	52	5844
2026-01-01 12:50:34.37	39.40	13.18	-39.2	-40.2	22.3	0.00e+00	91	37	0	315621376	52	5868
2026-01-01 12:50:35.37	39.54	13.24	-39.1	-40.2	22.4	0.00e+00	0	37	0	316669952	52	5829
2026-01-01 12:50:36.38	39.69	13.31	-39.2	-40.2	22.3	0.00e+00	0	37	0	318767104	52	5896
2026-01-01 12:50:37.39	39.83	13.38	-39.1	-40.1	22.5	0.00e+00	0	37	0	320864256	52	5801
2026-01-01 12:50:38.40	39.98	13.45	-39.1	-40.2	22.5	0.00e+00	0	37	0	322961408	52	5833
2026-01-01 12:50:39.41	40.13	13.52	-38.9	-39.9	22.7	0.00e+00	92	37	0	325058560	52	5640
2026-01-01 12:50:40.42	40.28	13.59	-38.9	-39.9	22.6	0.00e+00	0	37	0	326107136	52	5687
2026-01-01 12:50:41.43	40.43	13.66	-38.9	-39.9	22.7	0.00e+00	92	37	0	328204288	52	5633
2026-01-01 12:50:42.44	40.58	13.72	-39.0	-40.0	22.6	0.00e+00	0	37	0	330301440	52	5712
2026-01-01 12:50:43.45	40.73	13.79	-38.8	-39.7	22.8	0.00e+00	2	37	0	332398592	52	5556
2026-01-01 12:50:44.46	40.88	13.86	-38.9	-39.9	22.7	0.00e+00	76	37	0	334495744	52	5659
2026-01-01 12:50:45.47	41.03	13.93	-38.9	-39.9	22.7	0.00e+00	0	37	0	335544320	52	5656
2026-01-01 12:50:46.48	41.19	14.00	-38.9	-39.9	22.6	0.00e+00	80	37	0	337641472	52	5682
2026-01-01 12:50:47.49	41.34	14.07	-38.8	-39.8	22.8	0.00e+00	0	37	0	339738624	52	5608
2026-01-01 12:50:48.49	41.49	14.14	-38.8	-39.8	22.7	0.00e+00	90	37	0	341835776	50	6275
2026-01-01 12:50:49.50	41.65	14.21	-38.7	-39.7	22.9	0.00e+00	0	37	0	343932928	50	6200
2026-01-01 12:50:50.51	41.80	14.28	-38.7	-39.7	22.9	0.00e+00	0	37	0	344981504	50	6197
2026-01-01 12:50:51.52	41.96	14.34	-38.6	-39.6	23.0	0.00e+00	0	37	0	347078656	50	6122
2026-01-01 12:50:52.52	42.12	14.41	-38.7	-39.7	22.8	0.00e+00	0	37	0	349175808	50	6175
2026-01-01 12:50:53.53	42.28	14.48	-38.6	-39.5	23.0	0.00e+00	0	37	0	351272960	50	6101
2026-01-01 12:50:54.54	42.43	14.55	-38.6	-39.6	22.9	0.00e+00	2	37	0	353370112	50	6127
2026-01-01 12:50:55.55	42.59	14.62	-38.7	-39.7	22.8	0.00e+00	92	37	0	354418688	50	6174
2026-01-01 12:50:56.56	42.75	14.69	-38.7	-39.7	22.8	0.00e+00	3	37	0	356515840	50	6204
2026-01-01 12:50:57.57	42.91	14.76	-38.7	-39.7	22.8	0.00e+00	92	37	0	358612992	50	6205
2026-01-01 12:50:58.58	43.08	14.83	-38.7	-39.6	22.9	0.00e+00	0	37	0	360710144	50	6146
2026-01-01 12:50:59.59	43.24	14.90	-38.8	-39.8	22.8	0.00e+00	0	37	0	362807296	50	6276
2026-01-01 12:51:00.60	43.40	14.96	-38.8	-39.7	22.8	0.00e+00	0	37	0	363855872	50	6228
2026-01-01 12:51:01.61	43.56	15.03	-38.7	-39.7	22.8	0.00e+00	77	37	0	365953024	50	6211
2026-01-01 12:51:02.62	43.73	15.10	-38.8	-39.8	22.9	0.00e+00	92	37	0	368050176	50	6292
2026-01-01 12:51:03.63	43.89	15.17	-38.7	-39.7	22.9	0.00e+00	82	37	0	370147328	50	6207
2026-01-01 12:51:04.64	44.06	15.24	-38.8	-39.8	22.8	0.00e+00	92	37	0	372244480	50	6251
2026-01-01 12:51:05.65	44.23	15.31	-38.9	-39.9	22.7	0.00e+00	0	37	0	374341632	50	6335
2026-01-01 12:51:06.66	44.39	15.38	-38.8	-39.7	22.8	0.00e+00	0	37	0	375390208	50	6232
2026-01-01 12:51:07.67	44.56	15.45	-38.7	-39.7	22.8	0.00e+00	0	37	0	377487360	50	6207
2026-01-01 12:51:08.67	44.73	15.51	-38.9	-39.9	22.7	0.00e+00	6	37	0	379584512	50	6328
2026-01-01 12:51:09.68	44.90	15.58	-38.9	-39.9	22.7	0.00e+00	92	37	0	381681664	50	6351
2026-01-01 12:51:10.69	45.07	15.65	-38.9	-39.9	22.7	0.00e+00	7	37	0	383778816	50	6333
2026-01-01 12:51:11.70	45.24	15.72	-38.7	-39.7	22.9	0.00e+00	92	37	0	384827392	50	6204
2026-01-01 12:51:12.71	45.41	15.79	-38.9	-39.9	22.8	0.00e+00	5	37	0	386924544	50	6339
2026-01-01 12:51:13.72	45.59	15.86	-38.7	-39.7	22.9	0.00e+00	83	37	0	389021696	50	6212
2026-01-01 12:51:14.73	45.76	15.93	-38.5	-39.5	23.1	0.00e+00	4	37	0	391118848	50	6057
2026-01-01 12:51:15.74	45.93	15.99	-38.5	-39.5	23.1	0.00e+00	5	37	0	393216000	50	6069
2026-01-01 12:51:16.75	46.11	16.06	-38.6	-39.5	23.1	0.00e+00	9	37	0	394264576	50	6083
2026-01-01 12:51:17.76	46.28	16.13	-38.6	-39.5	23.1	0.00e+00	5	37	0	396361728	50	6075
2026-01-01 12:51:18.77	46.46	16.20	-38.5	-39.5	23.1	0.00e+00	90	37	0	398458880	50	6067
2026-01-01 12:51:19.78	46.64	16.27	-38.5	-39.4	23.1	0.00e+00	4	37	0	400556032	50	6017
2026-01-01 12:51:20.79	46.82	16.34	-38.6	-39.6	23.0	0.00e+00	92	37	0	402653184	50	6126
2026-01-01 12:51:21.80	47.00	16.40	-38.7	-39.7	22.6	0.00e+00	2	37	0	403701760	50	6183
2026-01-01 12:51:22.80	47.17	16.47	-38.5	-39.5	23.1	0.00e+00	81	37	0	405798912	50	6047
2026-01-01 12:51:23.81	47.35	16.54	-38.4	-39.4	23.2	0.00e+00	0	37	0	407896064	50	5991
2026-01-01 12:51:24.82	47.54	16.61	-38.4	-39.3	23.3	0.00e+00	0	37	0	409993216	50	5954
2026-01-01 12:51:25.83	47.72	16.67	-38.1	-39.1	23.4	0.00e+00	95	37	0	412090368	50	5769
2026-01-01 12:51:26.84	47.90	16.74	-38.1	-39.0	23.5	0.00e+00	85	37	0	413138944	50	5715
2026-01-01 12:51:27.85	48.08	16.81	-38.0	-38.9	23.6	0.00e+00	91	37	0	415236096	50	5660
2026-01-01 12:51:28.86	48.27	16.88	-37.9	-38.8	23.7	0.00e+00	0	37	0	417333248	50	5573
2026-01-01 12:51:29.87	48.45	16.94	-38.0	-38.8	23.7	0.00e+00	1	37	0	419430400	50	5626
2026-01-01 12:51:30.87	48.64	17.01	-37.9	-38.7	23.8	0.00e+00	5	37	0	421527552	50	5561
2026-01-01 12:51:31.88	48.83	17.08	-37.9	-38.8	23.8	0.00e+00	0	37	0	422576128	50	5582
2026-01-01 12:51:32.89	49.01	17.14	-37.8	-38.7	23.8	0.00e+00	90	37	0	424673280	50	5515
2026-01-01 12:51:33.90	49.20	17.21	-37.8	-38.6	23.8	0.00e+00	0	37	0	426770432	48	6163
2026-01-01 12:51:34.91	49.39	17.28	-37.7	-38.6	23.9	0.00e+00	92	37	0	428867584	48	6151
2026-01-01 12:51:35.92	49.58	17.35	-37.8	-38.6	23.9	0.00e+00	0	37	0	430964736	48	6168
2026-01-01 12:51:36.93	49.77	17.41	-37.7	-38.6	23.9	0.00e+00	17	37	0	432013312	48	6132
2026-01-01 12:51:37.94	49.96	17.48	-37.7	-38.6	23.9	0.00e+00	0	37	0	434110464	48	6149
2026-01-01 12:51:38.95	50.16	17.54	-37.7	-38.5	23.9	0.00e+00	6	37	0	436207616	48	6092
2026-01-01 12:51:39.95	50.35	17.61	-37.6	-38.5	24.0	0.00e+00	0	37	0	438304768	48	6069
2026-01-01 12:51:40.96	50.54	17.68	-37.7	-38.6	23.9	0.00e+00	7	37	0	440401920	48	6150
2026-01-01 12:51:41.97	50.74	17.74	-37.7	-38.6	23.9	0.00e+00	90	37	0	442499072	48	6122
2026-01-01 12:51:42.98	50.93	17.81	-37.7	-38.6	23.9	0.00e+00	76	37	0	443547648	48	6120
2026-01-01 12:51:43.99	51.13	17.87	-37.8	-38.7	23.8	0.00e+00	92	37	0	445644800	48	6194
2026-01-01 12:51:45.00	51.33	17.94	-37.7	-38.6	24.0	0.00e+00	75	37	0	447741952	48	6119
2026-01-01 12:51:46.01	51.53	18.00	-37.8	-38.7	23.8	0.00e+00	6	37	0	449839104	48	6231
2026-01-01 12:51:47.02	51.73	18.07	-37.9	-38.8	23.7	0.00e+00	77	37	0	450887680	48	6289
2026-01-01 12:51:48.03	51.93	18.14	-37.9	-38.7	23.8	0.00e+00	76	37	0	452984832	48	6245
2026-01-01 12:51:49.03	52.13	18.20	-37.8	-38.7	23.8	0.00e+00	92	37	0	455081984	48	6211
2026-01-01 12:51:50.04	52.33	18.26	-37.9	-38.8	23.7	0.00e+00	0	37	0	457179136	48	6259
2026-01-01 12:51:51.06	52.53	18.33	-37.9	-38.8	23.7	0.00e+00	92	37	0	459276288	48	6296
2026-01-01 12:51:52.07	52.74	18.39	-38.0	-39.0	23.6	0.00e+00	0	37	0	460324864	48	6401
2026-01-01 12:51:53.07	52.94	18.46	-38.0	-38.9	23.6	0.00e+00	0	37	0	462422016	48	6389
2026-01-01 12:51:54.08	53.14	18.52	-38.2	-39.2	23.4	0.00e+00	0	37	0	464519168	48	6545
2026-01-01 12:51:55.09	53.35	18.59	-38.4	-39.3	23.3	0.00e+00	0	37	0	466616320	48	6666
2026-01-01 12:51:56.10	53.56	18.65	-38.5	-39.5	23.1	0.00e+00	77	37	0	468713472	48	6798
2026-01-01 12:51:57.11	53.76	18.71	-38.6	-39.6	23.0	0.00e+00	0	37	0	470810624	48	6892
2026-01-01 12:51:58.12	53.97	18.78	-38.7	-39.7	22.9	0.00e+00	92	37	0	471859200	48	6932
2026-01-01 12:51:59.13	54.18	18.84	-38.8	-39.8	22.9	0.00e+00	6	37	0	473956352	50	6248
2026-01-01 12:52:00.14	54.39	18.90	-38.7	-39.7	22.9	0.00e+00	92	37	0	476053504	50	6221
2026-01-01 12:52:01.15	54.60	18.96	-38.8	-39.8	22.9	0.00e+00	4	37	0	478150656	50	6280
2026-01-01 12:52:02.16	54.81	19.03	-38.8	-39.8	22.8	0.00e+00	5	37	0	480247808	50	6297
2026-01-01 12:52:03.16	55.03	19.09	-38.8	-39.8	22.9	0.00e+00	0	37	0	481296384	50	6288
2026-01-01 12:52:04.17	55.24	19.15	-39.0	-40.0	22.7	0.00e+00	2	37	0	483393536	50	6399
2026-01-01 12:52:05.18	55.45	19.21	-39.0	-40.0	22.7	0.00e+00	92	37	0	485490688	50	6436
2026-01-01 12:52:06.19	55.67	19.27	-39.1	-40.1	22.5	0.00e+00	81	37	0	487587840	50	6533
2026-01-01 12:52:07.20	55.89	19.33	-39.2	-40.3	22.3	0.00e+00	92	37	0	489684992	50	6616
2026-01-01 12:52:08.21	56.10	19.40	-39.4	-40.4	21.7	0.00e+00	2	37	0	490733568	50	6745
2026-01-01 12:52:09.22	56.32	19.46	-39.5	-40.6	22.0	0.00e+00	0	37	0	492830720	50	6860
2026-01-01 12:52:10.23	56.54	19.52	-39.7	-40.7	22.0	0.00e+00	82	37	0	494927872	50	7005
2026-01-01 12:52:11.23	56.76	19.58	-39.9	-41.0	21.8	0.00e+00	0	37	0	497025024	52	6424
2026-01-01 12:52:12.24	56.98	19.64	-40.0	-41.2	21.6	0.00e+00	92	37	0	499122176	52	6582
2026-01-01 12:52:13.25	57.20	19.70	-40.1	-41.3	21.5	0.00e+00	0	37	0	500170752	52	6645
2026-01-01 12:52:14.26	57.42	19.76	-40.3	-41.5	21.3	0.00e+00	92	37	0	502267904	52	6793
2026-01-01 12:52:15.27	57.64	19.81	-40.4	-41.7	21.1	0.00e+00	75	37	0	504365056	52	6947
2026-01-01 12:52:16.27	57.87	19.87	-40.3	-41.5	21.4	0.00e+00	58	37	0	506462208	52	6823
2026-01-01 12:52:17.28	58.09	19.93	-40.3	-41.5	21.4	0.00e+00	0	37	0	508559360	52	6842
2026-01-01 12:52:18.29	58.32	19.99	-40.0	-41.2	21.6	0.00e+00	0	37	0	509607936	52	6545
2026-01-01 12:52:19.31	58.54	20.05	-40.1	-41.3	21.5	0.00e+00	0	37	0	511705088	52	6623
2026-01-01 12:52:20.31	58.77	20.11	-40.1	-41.2	21.6	0.00e+00	2	37	0	513802240	52	6591
2026-01-01 12:52:21.32	59.00	20.16	-40.1	-41.2	21.5	0.00e+00	92	37	0	515899392	52	6576
2026-01-01 12:52:22.33	59.23	20.22	-40.0	-41.1	21.6	0.00e+00	6	37	0	517996544	52	6516
2026-01-01 12:52:23.34	59.46	20.28	-40.0	-41.2	21.7	0.00e+00	92	37	0	519045120	52	6567
2026-01-01 12:52:24.35	59.69	20.33	-39.9	-41.0	21.7	0.00e+00	0	37	0	521142272	52	6447
2026-01-01 12:52:25.36	59.92	20.39	-40.0	-41.2	21.7	0.00e+00	6	37	0	523239424	52	6551
2026-01-01 12:52:26.37	60.15	20.44	-40.0	-41.1	21.7	0.00e+00	0	37	0	525336576	52	6522
2026-01-01 12:52:27.38	60.38	20.50	-40.0	-41.1	21.8	0.00e+00	0	37	0	527433728	52	6491
2026-01-01 12:52:28.39	60.62	20.55	-39.9	-41.0	21.7	0.00e+00	92	37	0	529530880	52	6406
2026-01-01 12:52:29.40	60.85	20.61	-39.8	-40.9	21.9	0.00e+00	6	37	0	530579456	52	6343
2026-01-01 12:52:30.41	61.09	20.66	-39.6	-40.8	22.0	0.00e+00	92	37	0	532676608	52	6264
2026-01-01 12:52:31.41	61.32	20.72	-39.4	-40.5	22.3	0.00e+00	76	37	0	534773760	52	6063
2026-01-01 12:52:32.42	61.56	20.77	-39.1	-40.2	22.5	0.00e+00	0	37	0	536870912	52	5881
2026-01-01 12:52:33.44	61.80	20.82	-39.3	-40.4	22.3	0.00e+00	0	37	0	538968064	52	5997
2026-01-01 12:52:34.44	62.03	20.88	-39.3	-40.3	22.3	0.00e+00	0	37	0	540016640	52	5962
2026-01-01 12:52:35.45	62.27	20.93	-38.8	-39.7	23.0	0.00e+00	92	37	0	542113792	52	5556
2026-01-01 12:52:36.46	62.51	20.98	-38.9	-39.8	22.8	0.00e+00	0	37	0	544210944	52	5628
2026-01-01 12:52:37.47	62.75	21.03	-39.1	-40.1	22.6	0.00e+00	92	37	0	546308096	52	5800
2026-01-01 12:52:38.49	63.00	21.08	-39.4	-40.4	22.3	0.00e+00	2	37	0	548405248	52	6018
2026-01-01 12:52:39.49	63.24	21.14	-39.5	-40.7	22.2	0.00e+00	92	37	0	549453824	52	6182
2026-01-01 12:52:40.50	63.48	21.19	-39.5	-40.6	22.2	0.00e+00	0	37	0	551550976	52	6135
2026-01-01 12:52:41.51	63.73	21.24	-39.6	-40.7	22.1	0.00e+00	0	37	0	553648128	52	6178
2026-01-01 12:52:42.52	63.97	21.29	-39.5	-40.6	22.1	0.00e+00	0	37	0	555745280	52	6151
2026-01-01 12:52:43.53	64.22	21.33	-39.5	-40.5	22.2	0.00e+00	0	37	0	557842432	52	6091
2026-01-01 12:52:44.54	64.46	21.38	-39.4	-40.4	22.4	0.00e+00	92	37	0	558891008	52	5995
2026-01-01 12:52:45.55	64.71	21.43	-39.4	-40.4	22.3	0.00e+00	5	37	0	560988160	52	6017
2026-01-01 12:52:46.56	64.96	21.48	-39.3	-40.4	22.4	0.00e+00	92	37	0	563085312	52	5983
2026-01-01 12:52:47.57	65.21	21.53	-39.2	-40.2	22.5	0.00e+00	4	37	0	565182464	52	5878
2026-01-01 12:52:48.58	65.46	21.57	-39.1	-40.1	22.6	0.00e+00	75	37	0	567279616	52	5809
2026-01-01 12:52:49.59	65.71	21.62	-39.1	-40.1	22.6	0.00e+00	0	37	0	568328192	52	5815
2026-01-01 12:52:50.60	65.96	21.67	-39.2	-40.2	22.6	0.00e+00	2	37	0	570425344	52	5859
2026-01-01 12:52:51.61	66.21	21.71	-39.3	-40.3	22.4	0.00e+00	90	37	0	572522496	52	5932
2026-01-01 12:52:52.62	66.46	21.76	-39.4	-40.5	22.2	0.00e+00	5	37	0	574619648	52	6064
2026-01-01 12:52:53.63	66.72	21.80	-39.5	-40.6	22.2	0.00e+00	92	37	0	576716800	52	6107
2026-01-01 12:52:54.63	66.97	21.85	-39.5	-40.6	22.2	0.00e+00	0	37	0	577765376	52	6121
2026-01-01 12:52:55.64	67.22	21.89	-39.4	-40.4	22.3	0.00e+00	75	37	0	579862528	52	6027
2026-01-01 12:52:56.65	67.48	21.93	-39.2	-40.2	22.5	0.00e+00	76	37	0	581959680	52	5853
2026-01-01 12:52:57.66	67.73	21.98	-39.1	-40.1	22.7	0.00e+00	3	37	0	584056832	52	5773
2026-01-01 12:52:58.67	67.99	22.02	-39.0	-40.0	22.8	0.00e+00	75	37	0	586153984	52	5701
2026-01-01 12:52:59.68	68.25	22.06	-38.4	-39.8	20.4	6.93e-03	5	37	0	587202560	50	6260
2026-01-01 12:53:00.69	68.51	22.10	-38.5	-39.8	20.5	1.07e-02	92	37	0	589299712	50	6291
2026-01-01 12:53:01.70	68.77	22.14	-38.3	-39.5	21.3	9.18e-03	0	37	0	591396864	50	6052
2026-01-01 12:53:02.71	69.02	22.18	-38.4	-39.5	21.3	8.27e-03	27	37	0	593494016	50	6080
2026-01-01 12:53:03.72	69.28	22.22	-38.3	-39.4	21.5	9.80e-04	0	37	0	595591168	50	6004
2026-01-01 12:53:04.73	69.55	22.26	-38.3	-39.4	21.2	1.51e-04	0	37	0	597688320	50	6024
2026-01-01 12:53:05.74	69.81	22.30	-38.2	-39.3	21.3	1.80e-03	0	37	0	598736896	50	5952
2026-01-01 12:53:06.75	70.07	22.34	-38.4	-39.4	23.2	0.00e+00	6	37	0	600834048	50	5982
2026-01-01 12:53:07.76	70.33	22.37	-38.6	-39.5	23.1	0.00e+00	92	37	0	602931200	50	6079
2026-01-01 12:53:08.77	70.59	22.41	-38.5	-39.4	22.9	0.00e+00	0	37	0	605028352	50	6007
2026-01-01 12:53:09.78	70.86	22.45	-38.7	-39.6	23.0	0.00e+00	90	37	0	607125504	50	6150
2026-01-01 12:53:10.79	71.12	22.48	-38.7	-39.6	23.0	0.00e+00	81	37	0	608174080	50	6143
2026-01-01 12:53:11.79	71.39	22.52	-38.6	-39.5	23.1	0.00e+00	87	37	0	610271232	50	6081
2026-01-01 12:53:12.80	71.65	22.55	-38.7	-39.7	22.9	0.00e+00	0	37	0	612368384	50	6229
2026-01-01 12:53:13.81	71.92	22.59	-38.7	-39.7	22.9	0.00e+00	3	37	0	614465536	50	6203
2026-01-01 12:53:14.82	72.18	22.62	-38.9	-39.9	22.7	0.00e+00	92	37	0	616562688	50	6359
2026-01-01 12:53:15.83	72.45	22.65	-38.9	-39.9	22.7	0.00e+00	0	37	0	617611264	50	6375
2026-01-01 12:53:16.84	72.72	22.68	-39.1	-40.1	22.6	0.00e+00	92	37	0	619708416	50	6481
2026-01-01 12:53:17.85	72.99	22.72	-39.1	-40.1	22.6	0.00e+00	80	37	0	621805568	50	6493
2026-01-01 12:53:18.86	73.26	22.75	-39.3	-40.3	22.4	0.00e+00	81	37	0	623902720	50	6633
2026-01-01 12:53:19.87	73.53	22.78	-39.4	-40.5	22.2	0.00e+00	0	37	0	625999872	50	6778
2026-01-01 12:53:20.88	73.80	22.81	-39.3	-40.3	22.4	0.00e+00	7	37	0	627048448	50	6680
2026-01-01 12:53:21.89	74.07	22.84	-39.4	-40.4	22.3	0.00e+00	19	37	0	629145600	50	6766
2026-01-01 12:53:22.89	74.34	22.87	-39.4	-40.5	22.3	0.00e+00	6	37	0	631242752	50	6799
2026-01-01 12:53:23.90	74.61	22.89	-39.3	-40.4	22.3	0.00e+00	92	37	0	633339904	50	6724
2026-01-01 12:53:24.91	74.88	22.92	-39.2	-40.3	22.4	0.00e+00	0	37	0	635437056	50	6634
2026-01-01 12:53:25.92	75.15	22.95	-39.2	-40.3	22.5	0.00e+00	92	37	0	636485632	50	6624
2026-01-01 12:53:26.93	75.42	22.97	-39.0	-40.1	22.6	0.00e+00	5	37	0	638582784	50	6488
2026-01-01 12:53:27.94	75.70	23.00	-39.0	-40.1	22.6	0.00e+00	6	37	0	640679936	50	6468
2026-01-01 12:53:28.95	75.97	23.02	-39.0	-40.1	22.7	0.00e+00	13	37	0	642777088	50	6483
2026-01-01 12:53:29.96	76.25	23.05	-39.0	-39.9	22.7	0.00e+00	6	37	0	644874240	50	6370
2026-01-01 12:53:30.96	76.52	23.07	-38.7	-39.7	22.9	0.00e+00	90	37	0	645922816	50	6197
2026-01-01 12:53:31.97	76.79	23.09	-38.8	-39.8	22.8	0.00e+00	7	37	0	648019968	50	6274
2026-01-01 12:53:32.98	77.07	23.12	-39.0	-39.9	22.7	0.00e+00	90	37	0	650117120	50	6387
2026-01-01 12:53:33.99	77.34	23.14	-38.7	-39.7	22.9	0.00e+00	79	37	0	652214272	50	6205
2026-01-01 12:53:35.00	77.62	23.16	-38.7	-39.7	22.8	0.00e+00	0	37	0	654311424	50	6243
2026-01-01 12:53:36.01	77.90	23.18	-38.5	-39.5	23.1	0.00e+00	81	37	0	655360000	50	6081
2026-01-01 12:53:37.02	78.17	23.20	-38.3	-39.3	23.4	0.00e+00	0	37	0	657457152	50	5908
2026-01-01 12:53:38.03	78.45	23.22	-38.3	-39.3	23.4	0.00e+00	92	37	0	659554304	50	5919
2026-01-01 12:53:39.04	78.73	23.24	-38.4	-39.3	23.3	0.00e+00	80	37	0	661651456	50	5958
2026-01-01 12:53:40.05	79.01	23.25	-38.5	-39.5	23.2	0.00e+00	92	37	0	663748608	50	6038
2026-01-01 12:53:41.06	79.29	23.27	-38.8	-39.7	22.9	0.00e+00	80	37	0	664797184	50	6245
2026-01-01 12:53:42.06	79.56	23.29	-38.9	-39.8	22.8	0.00e+00	75	37	0	666894336	50	6306
2026-01-01 12:53:43.07	79.84	23.30	-39.0	-40.0	22.8	0.00e+00	0	37	0	668991488	50	6406
2026-01-01 12:53:44.08	80.12	23.32	-39.1	-40.1	22.7	0.00e+00	0	37	0	671088640	50	6519
2026-01-01 12:53:45.09	80.40	23.33	-38.8	-39.8	22.7	0.00e+00	86	37	0	673185792	50	6277
2026-01-01 12:53:46.10	80.68	23.35	-38.6	-39.6	23.1	0.00e+00	0	37	0	674234368	50	6144
2026-01-01 12:53:47.11	80.96	23.36	-38.5	-39.4	23.2	0.00e+00	92	37	0	676331520	50	6017
2026-01-01 12:53:48.12	81.24	23.37	-38.3	-39.2	23.3	0.00e+00	0	37	0	678428672	50	5885
2026-01-01 12:53:49.13	81.52	23.38	-38.3	-39.2	23.3	0.00e+00	77	37	0	680525824	50	5855
2026-01-01 12:53:50.14	81.80	23.39	-38.4	-39.3	23.2	0.00e+00	0	37	0	682622976	50	5954
2026-01-01 12:53:51.15	82.08	23.40	-38.7	-39.6	23.0	0.00e+00	6	37	0	683671552	50	6157
2026-01-01 12:53:52.15	82.36	23.41	-38.6	-39.5	23.1	0.00e+00	0	37	0	685768704	50	6093
2026-01-01 12:53:53.16	82.64	23.42	-38.7	-39.7	23.0	0.00e+00	0	37	0	687865856	50	6213
2026-01-01 12:53:54.17	82.92	23.43	-38.8	-39.7	22.8	0.00e+00	92	37	0	689963008	50	6228
2026-01-01 12:53:55.18	83.20	23.44	-38.7	-39.7	23.0	0.00e+00	5	37	0	692060160	50	6199
2026-01-01 12:53:56.18	83.48	23.44	-38.8	-39.7	23.0	0.00e+00	92	37	0	694157312	50	6232
2026-01-01 12:53:57.19	83.76	23.45	-38.5	-39.5	23.2	0.00e+00	74	37	0	695205888	50	6055
2026-01-01 12:53:58.20	84.04	23.45	-38.5	-39.4	23.2	0.00e+00	5	37	0	697303040	50	6015
2026-01-01 12:53:59.22	84.33	23.46	-38.4	-39.3	23.3	0.00e+00	6	37	0	699400192	50	5929
2026-01-01 12:54:00.22	84.61	23.46	-38.5	-39.4	23.1	0.00e+00	77	37	0	701497344	50	5988
2026-01-01 12:54:01.23	84.89	23.47	-38.5	-39.4	23.1	0.00e+00	92	37	0	703594496	50	6032
2026-01-01 12:54:02.24	85.17	23.47	-38.7	-39.7	22.9	0.00e+00	76	37	0	704643072	50	6222
2026-01-01 12:54:03.25	85.45	23.47	-38.9	-39.9	22.7	0.00e+00	92	37	0	706740224	50	6337
2026-01-01 12:54:04.26	85.73	23.47	-39.1	-40.1	22.5	0.00e+00	0	37	0	708837376	50	6527
2026-01-01 12:54:05.27	86.02	23.47	-39.3	-40.4	22.2	0.00e+00	0	37	0	710934528	50	6700
2026-01-01 12:54:06.28	86.30	23.47	-39.5	-40.6	22.2	0.00e+00	0	37	0	713031680	50	6883
2026-01-01 12:54:07.29	86.58	23.47	-39.3	-40.3	22.4	0.00e+00	0	37	0	714080256	50	6683
2026-01-01 12:54:08.30	86.86	23.47	-39.4	-40.4	22.3	0.00e+00	81	37	0	716177408	50	6722
2026-01-01 12:54:09.31	87.14	23.47	-39.2	-40.2	22.3	0.00e+00	2	37	0	718274560	50	6584
2026-01-01 12:54:10.32	87.43	23.46	-39.1	-40.1	22.6	0.00e+00	92	37	0	720371712	50	6523
2026-01-01 12:54:11.33	87.71	23.46	-38.9	-39.9	22.7	0.00e+00	0	37	0	722468864	50	6356
2026-01-01 12:54:12.33	87.99	23.45	-38.9	-39.9	22.8	0.00e+00	90	37	0	723517440	50	6323
2026-01-01 12:54:13.34	88.27	23.45	-38.5	-39.5	23.1	0.00e+00	2	37	0	725614592	50	6049
2026-01-01 12:54:14.35	88.55	23.44	-38.6	-39.5	23.1	0.00e+00	0	37	0	727711744	50	6074
2026-01-01 12:54:15.36	88.83	23.44	-38.6	-39.5	23.1	0.00e+00	0	37	0	729808896	50	6095
2026-01-01 12:54:16.37	89.11	23.43	-38.2	-39.2	23.4	0.00e+00	75	37	0	731906048	50	5847
2026-01-01 12:54:17.38	89.40	23.42	-38.5	-39.4	23.1	0.00e+00	92	37	0	732954624	50	6023
2026-01-01 12:54:18.39	89.68	23.41	-38.5	-39.4	23.2	0.00e+00	2	37	0	735051776	50	5992
2026-01-01 12:54:19.40	89.96	23.40	-38.6	-39.6	23.0	0.00e+00	92	37	0	737148928	50	6135
2026-01-01 12:54:20.41	90.24	23.39	-38.9	-39.9	22.7	0.00e+00	76	37	0	739246080	50	6352
2026-01-01 12:54:21.42	90.52	23.38	-39.1	-40.1	22.5	0.00e+00	0	37	0	741343232	50	6535
2026-01-01 12:54:22.43	90.80	23.37	-39.2	-40.2	22.5	0.00e+00	73	37	0	742391808	50	6602
2026-01-01 12:54:23.44	91.08	23.36	-39.2	-40.3	22.5	0.00e+00	0	37	0	744488960	50	6620
2026-01-01 12:54:24.45	91.36	23.34	-39.1	-40.1	22.6	0.00e+00	90	37	0	746586112	50	6499
2026-01-01 12:54:25.46	91.64	23.33	-39.1	-40.1	22.6	0.00e+00	76	37	0	748683264	50	6490
2026-01-01 12:54:26.47	91.92	23.31	-39.0	-40.0	22.7	0.00e+00	90	37	0	750780416	50	6448
2026-01-01 12:54:27.48	92.20	23.30	-39.0	-40.0	22.7	0.00e+00	0	37	0	751828992	50	6423
2026-01-01 12:54:28.49	92.48	23.28	-39.0	-40.1	22.7	0.00e+00	90	37	0	753926144	50	6471
2026-01-01 12:54:29.50	92.76	23.27	-38.9	-39.9	22.7	0.00e+00	0	37	0	756023296	50	6322
2026-01-01 12:54:30.51	93.03	23.25	-38.7	-39.6	22.9	0.00e+00	0	37	0	758120448	50	6164
2026-01-01 12:54:31.52	93.31	23.23	-38.6	-39.5	23.0	0.00e+00	1	37	0	760217600	50	6098
2026-01-01 12:54:32.53	93.59	23.21	-38.7	-39.7	22.9	0.00e+00	0	37	0	762314752	50	6199
2026-01-01 12:54:33.54	93.87	23.19	-38.9	-39.9	22.7	0.00e+00	92	37	0	763363328	50	6347
2026-01-01 12:54:34.55	94.14	23.17	-39.3	-40.4	22.4	0.00e+00	0	37	0	765460480	50	6693
2026-01-01 12:54:35.56	94.42	23.15	-39.3	-40.3	22.4	0.00e+00	0	37	0	767557632	50	6659
2026-01-01 12:54:36.57	94.70	23.13	-39.1	-40.1	22.5	0.00e+00	0	37	0	769654784	50	6532
2026-01-01 12:54:37.58	94.97	23.11	-38.9	-39.9	22.7	0.00e+00	1	37	0	771751936	50	6372
2026-01-01 12:54:38.59	95.25	23.09	-39.0	-40.0	22.7	0.00e+00	0	37	0	772800512	50	6394
2026-01-01 12:54:39.59	95.52	23.06	-38.7	-39.7	22.8	0.00e+00	81	37	0	774897664	50	6216
2026-01-01 12:54:40.60	95.80	23.04	-38.6	-39.6	23.0	0.00e+00	92	37	0	776994816	50	6139
2026-01-01 12:54:41.61	96.07	23.02	-38.8	-39.7	22.9	0.00e+00	4	37	0	779091968	50	6227
2026-01-01 12:54:42.62	96.35	22.99	-38.9	-39.9	22.7	0.00e+00	60	37	0	781189120	50	6356
2026-01-01 12:54:43.63	96.62	22.97	-39.0	-40.0	22.7	0.00e+00	0	37	0	782237696	50	6403
2026-01-01 12:54:44.64	96.89	22.94	-38.5	-39.5	23.1	0.00e+00	77	37	0	784334848	50	6035
2026-01-01 12:54:45.65	97.17	22.91	-38.6	-39.5	23.1	0.00e+00	78	37	0	786432000	50	6092
2026-01-01 12:54:46.66	97.44	22.88	-38.3	-39.2	23.3	0.00e+00	0	37	0	788529152	50	5881
2026-01-01 12:54:47.67	97.71	22.86	-38.1	-39.0	23.5	0.00e+00	4	37	0	790626304	50	5748
2026-01-01 12:54:48.68	97.98	22.83	-37.9	-38.8	23.6	0.00e+00	5	37	0	791674880	50	5599
2026-01-01 12:54:49.69	98.25	22.80	-37.9	-38.8	23.7	0.00e+00	92	37	0	793772032	50	5568
2026-01-01 12:54:50.70	98.52	22.77	-37.8	-38.6	23.5	0.00e+00	0	37	0	795869184	50	5498
2026-01-01 12:54:51.71	98.79	22.74	-37.5	-38.4	24.0	0.00e+00	5	37	0	797966336	48	6008
2026-01-01 12:54:52.72	99.06	22.71	-37.6	-38.5	23.9	0.00e+00	0	37	0	800063488	48	6067
2026-01-01 12:54:53.73	99.33	22.67	-37.4	-38.3	24.1	0.00e+00	4	37	0	801112064	48	5908
2026-01-01 12:54:54.74	99.60	22.64	-37.2	-38.1	24.2	0.00e+00	21	37	0	803209216	48	5801
2026-01-01 12:54:55.74	99.86	22.61	-37.2	-38.1	24.3	0.00e+00	3	37	0	805306368	48	5780
2026-01-01 12:54:56.75	100.13	22.57	-37.0	-37.9	24.3	0.00e+00	92	37	0	807403520	48	5648
2026-01-01 12:54:57.76	100.40	22.54	-37.2	-38.1	24.3	0.00e+00	3	37	0	809500672	48	5783
2026-01-01 12:54:58.77	100.66	22.51	-37.3	-38.1	24.3	0.00e+00	5	37	0	810549248	48	5819
2026-01-01 12:54:59.78	100.93	22.47	-37.3	-38.2	24.2	0.00e+00	4	37	0	812646400	48	5842
2026-01-01 12:55:00.79	101.19	22.43	-37.4	-38.3	24.1	0.00e+00	3	37	0	814743552	48	5903
2026-01-01 12:55:01.80	101.46	22.40	-37.3	-38.2	24.2	0.00e+00	0	37	0	816840704	48	5870
2026-01-01 12:55:02.81	101.72	22.36	-37.4	-38.3	24.2	0.00e+00	0	37	0	818937856	48	5897
2026-01-01 12:55:03.82	101.99	22.32	-37.1	-37.9	24.4	0.00e+00	92	37	0	819986432	48	5688
2026-01-01 12:55:04.83	102.25	22.28	-37.0	-37.9	24.5	0.00e+00	0	37	0	822083584	48	5647
2026-01-01 12:55:05.84	102.51	22.24	-37.1	-38.0	24.3	0.00e+00	92	37	0	824180736	48	5697
2026-01-01 12:55:06.85	102.77	22.21	-36.7	-37.5	24.8	0.00e+00	0	37	0	826277888	46	6087
2026-01-01 12:55:07.86	103.03	22.17	-36.6	-37.4	24.8	0.00e+00	85	37	0	828375040	46	6010
2026-01-01 12:55:08.87	103.29	22.13	-36.7	-37.5	24.7	0.00e+00	6	37	0	829423616	46	6071
2026-01-01 12:55:09.88	103.55	22.08	-36.5	-37.4	25.0	0.00e+00	6	37	0	831520768	46	5968
2026-01-01 12:55:10.89	103.81	22.04	-36.7	-37.5	24.7	0.00e+00	91	37	0	833617920	46	6078
2026-01-01 12:55:11.90	104.07	22.00	-36.7	-37.5	24.8	0.00e+00	0	37	0	835715072	46	6054
2026-01-01 12:55:12.91	104.32	21.96	-36.8	-37.6	24.6	0.00e+00	92	37	0	837812224	46	6173
2026-01-01 12:55:13.92	104.58	21.92	-36.9	-37.7	24.7	0.00e+00	0	37	0	838860800	46	6245
2026-01-01 12:55:14.92	104.83	21.87	-36.9	-37.7	24.6	0.00e+00	5	37	0	840957952	46	6235
2026-01-01 12:55:15.93	105.09	21.83	-36.5	-37.4	24.9	0.00e+00	7	37	0	843055104	46	5982
2026-01-01 12:55:16.94	105.34	21.78	-36.6	-37.5	24.8	0.00e+00	6	37	0	845152256	46	6043
2026-01-01 12:55:17.95	105.60	21.74	-36.7	-37.5	24.7	0.00e+00	0	37	0	847249408	46	6092
2026-01-01 12:55:18.96	105.85	21.69	-36.9	-37.8	24.5	0.00e+00	6	37	0	848297984	46	6257
2026-01-01 12:55:19.97	106.10	21.65	-37.2	-38.1	24.2	0.00e+00	92	37	0	850395136	46	6486
2026-01-01 12:55:20.98	106.35	21.60	-37.4	-38.2	24.2	0.00e+00	75	37	0	852492288	46	6606
2026-01-01 12:55:21.99	106.60	21.55	-37.5	-38.4	24.1	0.00e+00	92	37	0	854589440	46	6706
2026-01-01 12:55:23.00	106.85	21.51	-37.6	-38.5	23.7	0.00e+00	76	37	0	856686592	46	6813
2026-01-01 12:55:24.01	107.10	21.46	-37.6	-38.5	23.9	0.00e+00	4	37	0	858783744	46	6783
2026-01-01 12:55:25.02	107.35	21.41	-37.3	-38.2	24.2	0.00e+00	81	37	0	859832320	46	6555
2026-01-01 12:55:26.03	107.60	21.36	-37.2	-38.0	24.0	0.00e+00	77	37	0	861929472	46	6451
2026-01-01 12:55:27.04	107.85	21.31	-37.0	-37.8	24.5	0.00e+00	92	37	0	864026624	46	6286
2026-01-01 12:55:28.05	108.09	21.26	-37.0	-37.8	24.5	0.00e+00	0	37	0	866123776	46	6302
2026-01-01 12:55:29.06	108.34	21.21	-36.9	-37.7	24.5	0.00e+00	90	37	0	868220928	46	6210
2026-01-01 12:55:30.07	108.58	21.16	-36.7	-37.6	24.6	0.00e+00	0	37	0	869269504	46	6114
2026-01-01 12:55:31.08	108.83	21.11	-36.7	-37.6	24.6	0.00e+00	0	37	0	871366656	46	6111
2026-01-01 12:55:32.09	109.07	21.06	-36.7	-37.6	24.6	0.00e+00	0	37	0	873463808	46	6106
2026-01-01 12:55:33.10	109.31	21.01	-37.0	-37.8	24.4	0.00e+00	2	37	0	875560960	46	6306
2026-01-01 12:55:34.11	109.55	20.96	-37.2	-38.0	24.3	0.00e+00	92	37	0	877658112	46	6447
2026-01-01 12:55:35.12	109.79	20.90	-37.7	-38.6	23.3	0.00e+00	2	37	0	878706688	46	6876
2026-01-01 12:55:36.13	110.03	20.85	-38.0	-38.9	23.5	0.00e+00	92	37	0	880803840	48	6372
2026-01-01 12:55:37.14	110.27	20.80	-38.3	-39.2	23.3	0.00e+00	0	37	0	882900992	48	6575
2026-01-01 12:55:38.15	110.51	20.74	-38.5	-39.4	23.1	0.00e+00	0	37	0	884998144	48	6752
2026-01-01 12:55:39.16	110.75	20.69	-38.5	-39.5	23.0	0.00e+00	0	38	0	887095296	48	6775
2026-01-01 12:55:40.17	110.99	20.64	-38.6	-39.6	22.9	0.00e+00	82	38	0	888143872	48	6859
2026-01-01 12:55:41.18	111.22	20.58	-38.7	-39.6	22.9	0.00e+00	3	37	0	890241024	48	6911
2026-01-01 12:55:42.19	111.46	20.53	-38.6	-39.6	23.0	0.00e+00	3	37	0	892338176	48	6871
2026-01-01 12:55:43.20	111.69	20.47	-38.5	-39.5	23.0	0.00e+00	90	37	0	894435328	48	6789
2026-01-01 12:55:44.21	111.92	20.41	-38.6	-39.5	23.0	0.00e+00	78	38	0	896532480	48	6838
2026-01-01 12:55:45.22	112.16	20.36	-38.5	-39.4	23.0	0.00e+00	92	37	0	897581056	48	6742
2026-01-01 12:55:46.23	112.39	20.30	-38.1	-39.1	23.4	0.00e+00	77	37	0	899678208	48	6478
2026-01-01 12:55:47.24	112.62	20.25	-37.9	-38.8	23.6	0.00e+00	0	37	0	901775360	48	6255
2026-01-01 12:55:48.25	112.85	20.19	-38.0	-38.9	23.4	0.00e+00	0	37	0	903872512	48	6387
2026-01-01 12:55:49.26	113.08	20.13	-37.7	-38.5	23.9	0.00e+00	76	37	0	905969664	48	6090
2026-01-01 12:55:50.27	113.31	20.07	-37.8	-38.6	23.6	0.00e+00	90	37	0	907018240	48	6170
2026-01-01 12:55:51.28	113.54	20.01	-37.7	-38.6	23.8	0.00e+00	0	37	0	909115392	48	6155
2026-01-01 12:55:52.29	113.76	19.96	-38.0	-38.9	23.6	0.00e+00	92	37	0	911212544	48	6374
2026-01-01 12:55:53.30	113.99	19.90	-38.0	-38.9	23.5	0.00e+00	2	37	0	913309696	48	6368
2026-01-01 12:55:54.30	114.21	19.84	-38.2	-39.2	23.3	0.00e+00	0	37	0	915406848	48	6543
2026-01-01 12:55:55.31	114.44	19.78	-38.3	-39.3	23.1	0.00e+00	0	37	0	916455424	48	6636
2026-01-01 12:55:56.32	114.66	19.72	-38.3	-39.3	23.2	0.00e+00	0	37	0	918552576	48	6642
2026-01-01 12:55:57.33	114.88	19.66	-38.5	-39.4	23.0	0.00e+00	91	37	0	920649728	48	6753
2026-01-01 12:55:58.34	115.10	19.60	-38.5	-39.4	23.0	0.00e+00	0	37	0	922746880	48	6735
2026-01-01 12:55:59.35	115.32	19.54	-38.6	-39.6	22.8	0.00e+00	92	38	0	924844032	48	6900
2026-01-01 12:56:00.36	115.54	19.48	-38.7	-39.7	22.8	0.00e+00	3	37	0	925892608	48	6932
2026-01-01 12:56:01.37	115.76	19.42	-38.4	-39.4	23.1	0.00e+00	81	37	0	927989760	48	6698
2026-01-01 12:56:02.38	115.98	19.36	-38.2	-39.1	23.4	0.00e+00	0	37	0	930086912	48	6516
2026-01-01 12:56:03.39	116.20	19.30	-38.1	-39.1	23.3	0.00e+00	0	38	0	932184064	48	6472
2026-01-01 12:56:04.40	116.42	19.23	-37.7	-38.6	23.8	0.00e+00	0	38	0	934281216	48	6139
2026-01-01 12:56:05.41	116.63	19.17	-37.7	-38.6	23.9	0.00e+00	0	38	0	936378368	48	6128
2026-01-01 12:56:06.41	116.84	19.11	-37.8	-38.7	23.7	0.00e+00	91	37	0	937426944	48	6184
2026-01-01 12:56:07.42	117.06	19.05	-37.8	-38.7	23.6	0.00e+00	82	37	0	939524096	48	6215
2026-01-01 12:56:08.43	117.27	18.99	-38.0	-38.9	23.4	0.00e+00	91	37	0	941621248	48	6331
2026-01-01 12:56:09.44	117.48	18.92	-38.1	-39.0	23.4	0.00e+00	81	37	0	943718400	48	6420
2026-01-01 12:56:10.45	117.70	18.86	-38.2	-39.2	23.3	0.00e+00	0	37	0	945815552	48	6549
2026-01-01 12:56:11.46	117.91	18.80	-38.1	-39.0	23.3	0.00e+00	0	37	0	946864128	48	6456
2026-01-01 12:56:12.47	118.12	18.73	-38.3	-39.2	23.3	0.00e+00	0	37	0	948961280	48	6591
2026-01-01 12:56:13.48	118.33	18.67	-38.1	-39.0	23.4	0.00e+00	92	37	0	951058432	48	6463
2026-01-01 12:56:14.49	118.53	18.60	-38.3	-39.2	23.0	0.00e+00	0	38	0	953155584	48	6579
2026-01-01 12:56:15.50	118.74	18.54	-38.2	-39.1	23.3	0.00e+00	92	37	0	955252736	48	6505
2026-01-01 12:56:16.51	118.95	18.48	-38.3	-39.3	23.1	0.00e+00	0	38	0	956301312	48	6618
2026-01-01 12:56:17.52	119.15	18.41	-38.4	-39.4	23.0	0.00e+00	0	38	0	958398464	48	6713
2026-01-01 12:56:18.53	119.36	18.35	-38.3	-39.3	23.0	0.00e+00	0	37	0	960495616	48	6639
2026-01-01 12:56:19.54	119.56	18.28	-38.4	-39.3	23.1	0.00e+00	0	37	0	962592768	48	6686
2026-01-01 12:56:20.55	119.76	18.22	-38.5	-39.5	23.0	0.00e+00	92	37	0	964689920	48	6789
2026-01-01 12:56:21.56	119.97	18.15	-38.4	-39.4	23.1	0.00e+00	2	38	0	965738496	48	6712
2026-01-01 12:56:22.57	120.17	18.09	-38.7	-39.7	22.7	0.00e+00	92	37	0	967835648	48	6999
2026-01-01 12:56:23.58	120.37	18.02	-39.0	-40.0	22.6	0.00e+00	2	37	0	969932800	50	6426
2026-01-01 12:56:24.58	120.57	17.96	-39.1	-40.1	22.4	0.00e+00	66	37	0	972029952	50	6527
2026-01-01 12:56:25.60	120.77	17.89	-39.3	-40.4	22.1	0.00e+00	79	37	0	974127104	50	6746
2026-01-01 12:56:26.60	120.96	17.82	-39.3	-40.4	22.1	0.00e+00	0	37	0	975175680	50	6734
2026-01-01 12:56:27.61	121.16	17.76	-39.0	-40.1	22.5	0.00e+00	0	37	0	977272832	50	6489
2026-01-01 12:56:28.62	121.36	17.69	-38.8	-39.8	22.7	0.00e+00	0	37	0	979369984	50	6302
2026-01-01 12:56:29.63	121.55	17.62	-38.4	-39.4	23.1	0.00e+00	92	38	0	981467136	50	5989
2026-01-01 12:56:30.64	121.75	17.56	-38.1	-39.0	23.4	0.00e+00	0	38	0	983564288	50	5744
2026-01-01 12:56:31.65	121.94	17.49	-38.1	-39.0	23.4	0.00e+00	92	37	0	984612864	50	5711
2026-01-01 12:56:32.66	122.13	17.42	-38.3	-39.3	23.1	0.00e+00	0	37	0	986710016	50	5897
2026-01-01 12:56:33.67	122.33	17.36	-38.7	-39.7	22.5	0.00e+00	6	37	0	988807168	50	6217
2026-01-01 12:56:34.68	122.52	17.29	-39.1	-40.1	22.3	0.00e+00	3	37	0	990904320	50	6530
2026-01-01 12:56:35.69	122.71	17.22	-39.4	-40.4	22.1	0.00e+00	0	37	0	993001472	50	6759
2026-01-01 12:56:36.70	122.90	17.16	-39.3	-40.4	22.2	0.00e+00	92	38	0	994050048	50	6713
2026-01-01 12:56:37.71	123.09	17.09	-39.2	-40.3	22.3	0.00e+00	5	38	0	996147200	50	6644
2026-01-01 12:56:38.72	123.27	17.02	-38.8	-39.8	22.6	0.00e+00	91	37	0	998244352	50	6313
2026-01-01 12:56:39.73	123.46	16.95	-38.9	-39.9	22.7	0.00e+00	6	37	0	1000341504	50	6345
2026-01-01 12:56:40.74	123.65	16.89	-38.6	-39.6	22.9	0.00e+00	0	37	0	1002438656	50	6117
2026-01-01 12:56:41.75	123.83	16.82	-38.5	-39.4	23.0	0.00e+00	0	37	0	1004535808	50	6031
2026-01-01 12:56:42.76	124.02	16.75	-38.7	-39.7	22.7	0.00e+00	1	38	0	1005584384	50	6175
2026-01-01 12:56:43.77	124.20	16.68	-39.0	-40.0	22.5	0.00e+00	90	37	0	1007681536	50	6433
2026-01-01 12:56:44.78	124.39	16.61	-39.0	-40.0	22.5	0.00e+00	1	38	0	1009778688	50	6439
2026-01-01 12:56:45.79	124.57	16.54	-38.9	-39.9	22.6	0.00e+00	92	37	0	1011875840	50	6333
2026-01-01 12:56:46.80	124.75	16.48	-38.6	-39.6	22.8	0.00e+00	0	37	0	1013972992	50	6157
2026-01-01 12:56:47.81	124.93	16.41	-38.6	-39.6	22.9	0.00e+00	85	37	0	1015021568	50	6117
2026-01-01 12:56:48.82	125.11	16.34	-38.6	-39.6	22.9	0.00e+00	0	37	0	1017118720	50	6127
2026-01-01 12:56:49.83	125.29	16.27	-38.2	-39.2	23.2	0.00e+00	4	37	0	1019215872	50	5834
2026-01-01 12:56:50.84	125.47	16.20	-38.4	-39.3	23.0	0.00e+00	0	37	0	1021313024	50	5964
2026-01-01 12:56:51.85	125.65	16.13	-38.4	-39.3	23.1	0.00e+00	0	37	0	1023410176	50	5962
2026-01-01 12:56:52.86	125.82	16.07	-38.7	-39.7	22.7	0.00e+00	91	37	0	1024458752	50	6235
2026-01-01 12:56:53.87	126.00	16.00	-38.9	-39.9	22.6	0.00e+00	0	38	0	1026555904	50	6375
2026-01-01 12:56:54.88	126.17	15.93	-39.0	-40.0	22.5	0.00e+00	91	38	0	1028653056	50	6412
2026-01-01 12:56:55.89	126.35	15.86	-39.0	-40.0	22.5	0.00e+00	8	38	0	1030750208	50	6438
2026-01-01 12:56:56.90	126.52	15.79	-38.9	-39.9	22.6	0.00e+00	7	38	0	1032847360	50	6327
2026-01-01 12:56:57.91	126.69	15.72	-38.7	-39.6	22.8	0.00e+00	6	38	0	1033895936	50	6166
2026-01-01 12:56:58.92	126.87	15.65	-38.4	-39.4	23.0	0.00e+00	2	38	0	1035993088	50	5975
2026-01-01 12:56:59.93	127.04	15.58	-38.1	-39.1	23.3	0.00e+00	92	38	0	1038090240	50	5771
2026-01-01 12:57:00.94	127.21	15.51	-38.3	-39.3	23.1	0.00e+00	8	38	0	1040187392	50	5910
2026-01-01 12:57:01.95	127.38	15.44	-38.4	-39.4	23.0	0.00e+00	92	38	0	1042284544	50	5975
2026-01-01 12:57:02.96	127.55	15.37	-38.8	-39.8	22.6	0.00e+00	0	38	0	1043333120	50	6289
2026-01-01 12:57:03.97	127.72	15.31	-39.2	-40.2	22.2	0.00e+00	61	38	0	1045430272	50	6584
2026-01-01 12:57:04.97	127.88	15.24	-39.5	-40.6	21.9	0.00e+00	81	37	0	1047527424	50	6860
2026-01-01 12:57:05.99	128.05	15.17	-39.6	-40.8	21.8	0.00e+00	0	38	0	1049624576	50	7061
2026-01-01 12:57:07.00	128.22	15.10	-39.4	-40.5	22.0	0.00e+00	88	37	0	1051721728	50	6830
2026-01-01 12:57:08.01	128.38	15.03	-39.3	-40.4	22.1	0.00e+00	0	38	0	1052770304	50	6732
2026-01-01 12:57:09.01	128.54	14.96	-39.1	-40.1	22.3	0.00e+00	92	38	0	1054867456	50	6508
2026-01-01 12:57:10.02	128.71	14.89	-38.8	-39.8	22.6	0.00e+00	0	38	0	1056964608	50	6293
2026-01-01 12:57:11.03	128.87	14.82	-38.8	-39.8	22.6	0.00e+00	92	37	0	1059061760	50	6259
2026-01-01 12:57:12.04	129.03	14.75	-38.9	-39.9	22.5	0.00e+00	80	38	0	1061158912	50	6347
2026-01-01 12:57:13.05	129.20	14.68	-39.1	-40.1	22.3	0.00e+00	0	38	0	1062207488	50	6507
2026-01-01 12:57:14.06	129.36	14.61	-39.0	-40.0	22.4	0.00e+00	78	38	0	1064304640	50	6455
2026-01-01 12:57:15.07	129.52	14.54	-39.3	-40.3	22.1	0.00e+00	79	38	0	1066401792	50	6670
2026-01-01 12:57:16.08	129.68	14.47	-39.4	-40.4	22.0	0.00e+00	91	38	0	1068498944	50	6750
2026-01-01 12:57:17.09	129.84	14.40	-39.4	-40.4	22.0	0.00e+00	0	38	0	1070596096	50	6757
2026-01-01 12:57:18.10	129.99	14.33	-39.3	-40.3	22.1	0.00e+00	91	38	0	1072693248	50	6690
2026-01-01 12:57:19.11	130.15	14.26	-39.3	-40.4	21.9	0.00e+00	0	38	0	1073741824	50	6746
2026-01-01 12:57:20.12	130.31	14.19	-39.0	-40.1	22.3	0.00e+00	2	38	0	1075838976	50	6491
2026-01-01 12:57:21.13	130.46	14.13	-39.1	-40.1	22.3	0.00e+00	0	38	0	1077936128	50	6512
2026-01-01 12:57:22.14	130.62	14.06	-38.9	-39.9	22.4	0.00e+00	0	38	0	1080033280	50	6353
2026-01-01 12:57:23.15	130.77	13.99	-39.0	-40.0	22.4	0.00e+00	90	38	0	1082130432	50	6444
2026-01-01 12:57:24.16	130.93	13.92	-38.8	-39.8	22.5	0.00e+00	1	38	0	1083179008	50	6289
2026-01-01 12:57:25.17	131.08	13.85	-39.1	-40.1	22.3	0.00e+00	92	38	0	1085276160	50	6511
2026-01-01 12:57:26.18	131.23	13.78	-39.2	-40.2	22.1	0.00e+00	80	38	0	1087373312	50	6605
2026-01-01 12:57:27.19	131.38	13.71	-39.4	-40.5	22.0	0.00e+00	81	38	0	1089470464	50	6799
2026-01-01 12:57:28.20	131.53	13.64	-39.4	-40.5	21.9	0.00e+00	80	38	0	1091567616	50	6793
2026-01-01 12:57:29.21	131.69	13.57	-39.5	-40.6	21.7	0.00e+00	1	38	0	1092616192	50	6875
2026-01-01 12:57:30.21	131.83	13.50	-39.5	-40.5	21.8	0.00e+00	92	38	0	1094713344	50	6842
2026-01-01 12:57:31.22	131.98	13.43	-39.2	-40.2	22.1	0.00e+00	2	38	0	1096810496	50	6609
2026-01-01 12:57:32.23	132.13	13.36	-39.0	-40.0	22.4	0.00e+00	92	38	0	1098907648	50	6423
2026-01-01 12:57:33.24	132.28	13.29	-39.1	-40.1	22.3	0.00e+00	0	38	0	1101004800	50	6498
2026-01-01 12:57:34.25	132.43	13.22	-39.1	-40.2	22.3	0.00e+00	91	38	0	1102053376	50	6544
2026-01-01 12:57:35.26	132.57	13.15	-39.4	-40.4	22.0	0.00e+00	0	38	0	1104150528	50	6767
2026-01-01 12:57:36.27	132.72	13.09	-39.3	-40.4	22.0	0.00e+00	0	38	0	1106247680	50	6728
2026-01-01 12:57:37.28	132.86	13.02	-39.4	-40.5	21.9	0.00e+00	0	38	0	1108344832	50	6846
2026-01-01 12:57:38.29	133.01	12.95	-39.3	-40.4	22.0	0.00e+00	0	38	0	1110441984	50	6727
2026-01-01 12:57:39.30	133.15	12.88	-39.5	-40.6	21.8	0.00e+00	92	38	0	1111490560	50	6870
2026-01-01 12:57:40.31	133.29	12.81	-39.5	-40.6	21.8	0.00e+00	0	38	0	1113587712	50	6910
2026-01-01 12:57:41.32	133.44	12.74	-39.5	-40.6	21.7	0.00e+00	64	38	0	1115684864	50	6919
2026-01-01 12:57:42.33	133.58	12.67	-39.3	-40.4	21.9	0.00e+00	0	38	0	1117782016	50	6739
2026-01-01 12:57:43.34	133.72	12.60	-39.3	-40.4	21.9	0.00e+00	2	38	0	1119879168	50	6698
2026-01-01 12:57:44.35	133.86	12.53	-39.4	-40.5	21.9	0.00e+00	0	38	0	1120927744	50	6776
2026-01-01 12:57:45.36	134.00	12.46	-39.0	-40.1	22.3	0.00e+00	0	38	0	1123024896	50	6475
2026-01-01 12:57:46.37	134.14	12.39	-39.1	-40.1	22.2	0.00e+00	92	38	0	1125122048	50	6503
2026-01-01 12:57:47.37	134.28	12.33	-39.0	-40.0	22.2	0.00e+00	0	38	0	1127219200	50	6436
2026-01-01 12:57:48.39	134.41	12.26	-38.8	-39.9	22.3	0.00e+00	92	38	0	1129316352	50	6324
2026-01-01 12:57:49.39	134.55	12.19	-39.0	-40.1	22.3	0.00e+00	80	38	0	1130364928	50	6509
2026-01-01 12:57:50.40	134.69	12.12	-39.1	-40.2	22.1	0.00e+00	86	38	0	1132462080	50	6560
2026-01-01 12:57:51.41	134.82	12.05	-39.3	-40.4	22.0	0.00e+00	79	38	0	1134559232	50	6760
2026-01-01 12:57:52.42	134.96	11.98	-39.3	-40.4	22.0	0.00e+00	80	38	0	1136656384	50	6718
2026-01-01 12:57:53.43	135.09	11.91	-39.2	-40.3	22.0	0.00e+00	0	38	0	1138753536	50	6660
2026-01-01 12:57:54.44	135.23	11.85	-39.1	-40.2	22.1	0.00e+00	1	38	0	1140850688	50	6575
2026-01-01 12:57:55.45	135.36	11.78	-39.1	-40.2	22.1	0.00e+00	92	38	0	1141899264	50	6596
2026-01-01 12:57:56.46	135.50	11.71	-39.3	-40.4	21.9	0.00e+00	82	38	0	1143996416	50	6705
2026-01-01 12:57:57.47	135.63	11.64	-39.3	-40.4	21.9	0.00e+00	90	38	0	1146093568	50	6724
2026-01-01 12:57:58.48	135.76	11.57	-39.3	-40.4	22.0	0.00e+00	0	38	0	1148190720	50	6709
2026-01-01 12:57:59.49	135.89	11.50	-39.4	-40.5	21.9	0.00e+00	0	38	0	1150287872	50	6802
2026-01-01 12:58:00.50	136.02	11.44	-39.5	-40.7	21.7	0.00e+00	0	38	0	1151336448	50	6942
2026-01-01 12:58:01.51	136.15	11.37	-39.6	-40.8	21.6	0.00e+00	0	38	0	1153433600	50	7072
2026-01-01 12:58:02.52	136.28	11.30	-39.6	-40.8	21.5	0.00e+00	92	38	0	1155530752	50	7051
2026-01-01 12:58:03.53	136.41	11.23	-39.6	-40.8	21.6	0.00e+00	0	38	0	1157627904	50	7063
2026-01-01 12:58:04.54	136.54	11.16	-39.8	-41.0	21.4	0.00e+00	91	38	0	1159725056	52	6442
2026-01-01 12:58:05.55	136.67	11.10	-39.9	-41.1	21.3	0.00e+00	0	38	0	1160773632	52	6475
2026-01-01 12:58:06.56	136.79	11.03	-39.8	-41.0	21.4	0.00e+00	0	38	0	1162870784	52	6394
2026-01-01 12:58:07.57	136.92	10.96	-39.9	-41.1	21.3	0.00e+00	0	38	0	1164967936	52	6469
2026-01-01 12:58:08.57	137.05	10.89	-39.8	-41.0	21.4	0.00e+00	81	38	0	1167065088	52	6399
2026-01-01 12:58:09.58	137.17	10.83	-39.6	-40.8	21.5	0.00e+00	92	38	0	1169162240	52	6269
2026-01-01 12:58:10.59	137.30	10.76	-39.5	-40.7	21.7	0.00e+00	0	38	0	1170210816	52	6176
2026-01-01 12:58:11.60	137.42	10.69	-39.5	-40.7	21.6	0.00e+00	92	38	0	1172307968	52	6175
2026-01-01 12:58:12.61	137.54	10.62	-39.6	-40.7	21.6	0.00e+00	0	38	0	1174405120	52	6241
2026-01-01 12:58:13.62	137.67	10.56	-39.4	-40.6	21.7	0.00e+00	0	38	0	1176502272	52	6112
2026-01-01 12:58:14.63	137.79	10.49	-39.5	-40.7	21.6	0.00e+00	0	38	0	1178599424	52	6181
2026-01-01 12:58:15.64	137.91	10.42	-39.5	-40.6	21.6	0.00e+00	0	38	0	1179648000	52	6112
2026-01-01 12:58:16.65	138.04	10.36	-39.6	-40.8	21.6	0.00e+00	0	38	0	1181745152	52	6267
2026-01-01 12:58:17.66	138.16	10.29	-39.8	-41.0	21.3	0.00e+00	82	38	0	1183842304	52	6422
2026-01-01 12:58:18.67	138.28	10.22	-39.7	-40.9	21.3	0.00e+00	92	38	0	1185939456	52	6319
2026-01-01 12:58:19.68	138.40	10.15	-39.8	-41.0	21.2	0.00e+00	0	38	0	1188036608	52	6415
2026-01-01 12:58:20.69	138.52	10.09	-40.1	-41.3	21.0	0.00e+00	91	38	0	1189085184	52	6642
2026-01-01 12:58:21.70	138.64	10.02	-40.1	-41.3	20.9	0.00e+00	0	38	0	1191182336	52	6676
2026-01-01 12:58:22.71	138.75	9.95	-40.3	-41.5	20.7	0.00e+00	0	38	0	1193279488	52	6833
2026-01-01 12:58:23.72	138.87	9.89	-40.4	-41.7	20.6	0.00e+00	0	38	0	1195376640	52	6948
2026-01-01 12:58:24.73	138.99	9.82	-40.7	-42.0	20.2	0.00e+00	0	38	0	1197473792	52	7198
2026-01-01 12:58:25.74	139.11	9.75	-40.8	-42.1	20.1	0.00e+00	92	38	0	1198522368	54	6526
2026-01-01 12:58:26.75	139.22	9.69	-40.9	-42.3	19.9	0.00e+00	0	38	0	1200619520	54	6626
2026-01-01 12:58:27.76	139.34	9.62	-41.2	-42.7	19.5	0.00e+00	92	38	0	1202716672	54	6945
2026-01-01 12:58:28.77	139.46	9.56	-41.4	-42.9	19.2	0.00e+00	0	38	0	1204813824	54	7140
2026-01-01 12:58:29.77	139.57	9.49	-41.6	-43.3	18.9	0.00e+00	86	38	0	1206910976	54	7425
2026-01-01 12:58:30.79	139.69	9.42	-41.7	-43.3	18.7	0.00e+00	73	38	0	1209008128	54	7485
2026-01-01 12:58:31.80	139.80	9.36	-41.9	-43.6	18.6	0.00e+00	86	38	0	1210056704	56	6853
2026-01-01 12:58:32.81	139.91	9.29	-42.0	-43.6	18.3	0.00e+00	92	38	0	1212153856	56	6923
2026-01-01 12:58:33.82	140.03	9.23	-42.0	-43.7	18.3	0.00e+00	0	38	0	1214251008	56	6980
2026-01-01 12:58:34.83	140.14	9.16	-42.0	-43.7	18.1	0.00e+00	92	38	0	1216348160	56	7004
