passes_logs/2026/01/01/R4.6S_Anadyr/R4.6S_Anadyr__20260101_190615_SUOMI_NPP_rec.log

#Pass ID: 20260101_190615_SUOMI NPP
#Satellite: SUOMI NPP
#Configuration: NPP
#almurnet v.1.7.20251203
#Start time: 2026-01-01 19:06:17

#Version: 2.2.20231116
#Station: R4.6S_Anadyr
#Location: 177.4865 lon 64.73178 lat
#TLE: 1 37849U 11061A   25364.87906318  .00000195  00000+0  11345-3 0  9993
#TLE: 2 37849  98.7794 302.0592 0002571  89.2401 270.9069 14.19520347734561

#Time	Az	El	Level	Level2	SNR	BER	BlckErr	Temp	State	Recorded	gain1	gain2
2026-01-01 19:06:17.82	47.59	0.11	-49.4	-61.0	3.4	8.45e-01	0	36	0	0	60	40562
2026-01-01 19:06:18.83	47.52	0.16	-49.4	-64.7	3.6	1.51e+00	0	37	104	0	60	61883
2026-01-01 19:06:19.84	47.44	0.21	-49.5	-64.7	3.6	1.51e+00	0	37	104	0	60	61877
2026-01-01 19:06:20.85	47.37	0.26	-49.5	-64.7	3.6	1.51e+00	0	37	104	0	60	62346
2026-01-01 19:06:21.86	47.29	0.31	-49.5	-64.7	3.6	1.51e+00	0	37	104	0	60	62129
2026-01-01 19:06:22.87	47.21	0.36	-49.5	-64.8	3.6	1.51e+00	0	37	104	0	60	62507
2026-01-01 19:06:23.88	47.14	0.41	-49.5	-64.7	3.6	1.51e+00	0	37	104	0	60	62377
2026-01-01 19:06:24.89	47.06	0.46	-49.5	-64.7	3.6	1.51e+00	0	37	104	0	60	62440
2026-01-01 19:06:25.90	46.98	0.51	-49.5	-64.7	3.6	1.51e+00	0	37	104	0	60	62343
2026-01-01 19:06:26.91	46.90	0.56	-49.5	-64.7	3.6	1.51e+00	0	37	104	0	60	62053
2026-01-01 19:06:27.92	46.83	0.61	-49.5	-64.6	3.6	1.51e+00	0	37	104	0	60	61696
2026-01-01 19:06:28.93	46.75	0.65	-49.4	-64.7	3.6	1.51e+00	0	37	104	0	60	61843
2026-01-01 19:06:29.94	46.67	0.70	-49.3	-64.6	3.6	1.51e+00	0	38	104	0	60	61692
2026-01-01 19:06:30.95	46.59	0.75	-49.3	-64.5	3.6	1.51e+00	0	38	104	0	60	60621
2026-01-01 19:06:31.96	46.51	0.80	-49.2	-64.4	3.6	1.51e+00	0	38	104	0	60	59915
2026-01-01 19:06:32.97	46.43	0.85	-49.0	-64.2	3.6	1.51e+00	0	38	104	0	60	58673
2026-01-01 19:06:33.98	46.35	0.90	-48.8	-64.0	3.6	1.51e+00	0	38	104	0	60	57295
2026-01-01 19:06:34.99	46.27	0.95	-48.3	-63.5	3.6	1.51e+00	0	38	104	0	60	54026
2026-01-01 19:06:36.00	46.19	1.00	-47.9	-63.1	3.6	1.51e+00	0	38	104	0	60	51597
2026-01-01 19:06:37.01	46.11	1.05	-47.9	-63.2	3.6	1.51e+00	0	38	104	0	60	52021
2026-01-01 19:06:38.02	46.03	1.10	-47.9	-63.1	3.6	1.51e+00	0	38	104	0	60	51850
2026-01-01 19:06:39.03	45.95	1.15	-47.9	-63.1	3.6	1.51e+00	0	38	104	0	60	51912
2026-01-01 19:06:40.04	45.87	1.20	-47.9	-63.1	3.6	1.51e+00	0	38	104	0	60	51597
2026-01-01 19:06:41.05	45.79	1.25	-47.9	-63.1	3.6	1.51e+00	0	38	104	0	60	51719
2026-01-01 19:06:42.06	45.70	1.30	-47.9	-63.1	3.6	1.51e+00	0	38	104	0	60	51727
2026-01-01 19:06:43.07	45.62	1.35	-47.9	-63.1	3.6	1.51e+00	0	38	104	0	60	51513
2026-01-01 19:06:44.08	45.54	1.40	-47.9	-63.0	3.6	1.51e+00	0	38	104	0	60	51345
2026-01-01 19:06:45.09	45.46	1.45	-47.9	-63.1	3.6	1.51e+00	0	38	104	0	60	51688
2026-01-01 19:06:46.10	45.37	1.50	-47.9	-63.1	3.6	1.51e+00	0	38	104	0	60	51656
2026-01-01 19:06:47.11	45.29	1.55	-47.9	-63.1	3.6	1.51e+00	0	38	104	0	60	51513
2026-01-01 19:06:48.12	45.21	1.60	-47.9	-63.1	3.6	1.51e+00	0	38	104	0	60	51493
2026-01-01 19:06:49.13	45.12	1.65	-47.9	-63.0	3.6	1.51e+00	0	38	104	0	60	51169
2026-01-01 19:06:50.14	45.04	1.70	-47.9	-63.0	3.6	1.51e+00	0	38	104	0	60	51078
2026-01-01 19:06:51.15	44.95	1.75	-47.9	-63.0	3.6	1.51e+00	0	38	104	0	60	51031
2026-01-01 19:06:52.16	44.87	1.80	-47.9	-63.0	3.6	1.51e+00	0	38	104	0	60	51342
2026-01-01 19:06:53.17	44.78	1.85	-47.9	-63.0	3.6	1.51e+00	0	38	104	0	60	51259
2026-01-01 19:06:54.18	44.70	1.90	-47.9	-63.1	3.6	1.51e+00	0	38	104	0	60	51653
2026-01-01 19:06:55.19	44.61	1.95	-47.9	-63.1	3.6	1.51e+00	0	38	104	0	60	51435
2026-01-01 19:06:56.20	44.53	2.00	-47.9	-63.1	3.6	1.51e+00	0	38	104	0	60	51371
2026-01-01 19:06:57.21	44.44	2.05	-47.9	-63.0	3.6	1.51e+00	0	38	104	0	60	51004
2026-01-01 19:06:58.22	44.35	2.11	-47.9	-62.8	3.6	1.51e+00	0	38	104	0	60	49760
2026-01-01 19:06:59.23	44.27	2.16	-47.9	-62.6	3.6	1.51e+00	0	38	104	0	60	49038
2026-01-01 19:07:00.23	44.18	2.21	-47.9	-62.5	3.6	1.51e+00	0	38	104	0	60	48102
2026-01-01 19:07:01.25	44.09	2.26	-47.9	-62.5	3.6	1.51e+00	0	38	104	0	60	48453
2026-01-01 19:07:02.26	44.00	2.31	-47.9	-62.6	3.6	1.51e+00	0	38	104	0	60	49014
2026-01-01 19:07:03.27	43.92	2.36	-47.9	-63.0	3.6	1.51e+00	0	38	104	0	60	51265
2026-01-01 19:07:04.28	43.83	2.41	-47.9	-63.1	3.6	1.51e+00	0	38	104	0	60	51552
2026-01-01 19:07:05.29	43.74	2.46	-47.9	-63.1	3.6	1.51e+00	0	38	104	0	60	51529
2026-01-01 19:07:06.30	43.65	2.51	-47.9	-63.0	3.6	1.51e+00	0	38	104	0	60	51020
2026-01-01 19:07:07.31	43.56	2.56	-47.9	-63.0	3.6	1.51e+00	0	38	104	0	60	51304
2026-01-01 19:07:08.32	43.47	2.61	-47.9	-63.0	3.6	1.51e+00	0	38	104	0	60	51129
2026-01-01 19:07:09.33	43.38	2.66	-47.9	-62.6	3.6	1.51e+00	0	38	104	0	60	48890
2026-01-01 19:07:10.34	43.29	2.71	-47.8	-61.9	3.6	1.51e+00	0	38	104	0	60	44831
2026-01-01 19:07:11.35	43.20	2.76	-47.8	-61.6	3.6	1.51e+00	0	38	104	0	60	43387
2026-01-01 19:07:12.36	43.11	2.81	-47.8	-62.2	3.6	1.51e+00	0	38	104	0	60	46612
2026-01-01 19:07:13.37	43.02	2.87	-47.9	-62.5	3.6	1.51e+00	0	38	104	0	60	48392
2026-01-01 19:07:14.38	42.93	2.92	-47.7	-60.2	3.7	1.51e+00	0	38	104	0	60	37056
2026-01-01 19:07:15.39	42.83	2.97	-47.4	-55.9	6.0	5.90e-01	92	38	0	0	60	22459
2026-01-01 19:07:16.40	42.74	3.02	-46.8	-52.9	8.5	8.90e-02	0	38	0	2097152	60	15921
2026-01-01 19:07:17.41	42.65	3.07	-46.9	-53.1	6.7	9.41e-03	0	38	0	3145728	60	16331
2026-01-01 19:07:18.42	42.55	3.12	-48.0	-63.1	3.6	1.51e+00	0	38	104	3145728	60	51366
2026-01-01 19:07:19.43	42.46	3.17	-45.2	-48.8	12.2	2.06e-03	0	38	104	3145728	60	9946
2026-01-01 19:07:20.44	42.37	3.22	-47.9	-62.4	3.6	1.51e+00	0	38	104	3145728	60	47747
2026-01-01 19:07:21.44	42.27	3.27	-46.5	-52.1	5.7	1.51e+00	0	38	104	3145728	60	14534
2026-01-01 19:07:22.45	42.18	3.32	-43.4	-45.7	16.3	0.00e+00	92	38	0	3145728	60	6952
2026-01-01 19:07:23.47	42.08	3.37	-43.8	-46.2	15.8	0.00e+00	0	38	0	4194304	60	7418
2026-01-01 19:07:24.48	41.99	3.43	-43.4	-45.6	16.4	0.00e+00	0	38	0	6291456	60	6923
2026-01-01 19:07:25.48	41.89	3.48	-43.2	-45.3	16.7	0.00e+00	92	38	0	8388608	60	6675
2026-01-01 19:07:26.49	41.80	3.53	-43.2	-45.4	16.7	0.00e+00	0	38	0	10485760	60	6735
2026-01-01 19:07:27.50	41.70	3.58	-43.5	-45.8	16.3	0.00e+00	80	38	0	12582912	60	7036
2026-01-01 19:07:28.51	41.61	3.63	-43.5	-45.8	16.4	0.00e+00	0	38	0	13631488	60	7026
2026-01-01 19:07:29.52	41.51	3.68	-43.4	-45.6	16.6	0.00e+00	0	38	0	15728640	60	6873
2026-01-01 19:07:30.54	41.41	3.73	-43.6	-46.0	16.3	0.00e+00	0	38	0	17825792	60	7211
2026-01-01 19:07:31.54	41.31	3.78	-43.5	-45.8	16.4	0.00e+00	0	38	0	19922944	60	7071
2026-01-01 19:07:32.55	41.22	3.83	-43.3	-45.4	16.8	0.00e+00	40	38	0	22020096	60	6745
2026-01-01 19:07:33.56	41.12	3.89	-43.3	-45.5	16.8	0.00e+00	0	38	0	23068672	60	6780
2026-01-01 19:07:34.58	41.02	3.94	-43.0	-45.1	17.2	0.00e+00	92	38	0	25165824	60	6477
2026-01-01 19:07:35.59	40.92	3.99	-43.2	-45.3	17.2	0.00e+00	0	38	0	27262976	60	6642
2026-01-01 19:07:36.60	40.82	4.04	-43.0	-45.1	17.3	0.00e+00	0	38	0	29360128	60	6466
2026-01-01 19:07:37.61	40.72	4.09	-43.1	-45.2	17.2	0.00e+00	0	38	0	31457280	60	6563
2026-01-01 19:07:38.62	40.62	4.14	-43.0	-45.0	17.3	0.00e+00	0	38	0	33554432	60	6437
2026-01-01 19:07:39.63	40.52	4.19	-43.3	-45.5	16.8	0.00e+00	43	38	0	34603008	60	6795
2026-01-01 19:07:40.64	40.42	4.25	-43.2	-45.4	16.9	0.00e+00	0	38	0	36700160	60	6693
2026-01-01 19:07:41.65	40.32	4.30	-43.0	-45.0	17.3	0.00e+00	71	38	0	38797312	60	6427
2026-01-01 19:07:42.66	40.22	4.35	-42.9	-44.9	17.4	0.00e+00	0	38	0	40894464	60	6364
2026-01-01 19:07:43.67	40.12	4.40	-43.4	-45.6	16.9	0.00e+00	0	38	0	42991616	60	6872
2026-01-01 19:07:44.68	40.01	4.45	-43.0	-45.0	17.4	0.00e+00	0	38	0	44040192	60	6456
2026-01-01 19:07:45.69	39.91	4.50	-43.0	-45.0	17.4	0.00e+00	0	38	0	46137344	60	6415
2026-01-01 19:07:46.70	39.81	4.55	-42.8	-44.8	17.6	0.00e+00	0	38	0	48234496	60	6270
2026-01-01 19:07:47.71	39.70	4.61	-42.9	-44.9	17.4	0.00e+00	0	38	0	50331648	60	6371
2026-01-01 19:07:48.72	39.60	4.66	-43.0	-45.0	17.4	0.00e+00	92	38	0	52428800	60	6410
2026-01-01 19:07:49.72	39.50	4.71	-42.9	-44.9	17.5	0.00e+00	0	38	0	53477376	60	6361
2026-01-01 19:07:50.73	39.39	4.76	-42.9	-44.8	17.5	0.00e+00	42	38	0	55574528	60	6309
2026-01-01 19:07:51.74	39.29	4.81	-42.7	-44.6	17.7	0.00e+00	0	38	0	57671680	58	6854
2026-01-01 19:07:52.75	39.18	4.86	-42.7	-44.6	17.8	0.00e+00	0	38	0	59768832	58	6890
2026-01-01 19:07:53.76	39.08	4.91	-42.6	-44.4	17.8	0.00e+00	0	38	0	61865984	58	6750
2026-01-01 19:07:54.77	38.97	4.97	-42.8	-44.8	17.6	0.00e+00	0	38	0	62914560	58	7028
2026-01-01 19:07:55.78	38.86	5.02	-42.6	-44.5	17.9	0.00e+00	91	38	0	65011712	58	6795
2026-01-01 19:07:56.79	38.76	5.07	-42.7	-44.6	17.7	0.00e+00	0	38	0	67108864	58	6920
2026-01-01 19:07:57.80	38.65	5.12	-42.8	-44.7	17.5	0.00e+00	81	38	0	69206016	58	6947
2026-01-01 19:07:58.81	38.54	5.17	-42.6	-44.5	17.7	0.00e+00	0	38	0	71303168	58	6780
2026-01-01 19:07:59.82	38.44	5.22	-42.7	-44.6	17.6	0.00e+00	0	38	0	72351744	58	6885
2026-01-01 19:08:00.83	38.33	5.27	-42.6	-44.4	17.9	0.00e+00	0	38	0	74448896	58	6724
2026-01-01 19:08:01.84	38.22	5.33	-42.5	-44.3	18.0	0.00e+00	0	38	0	76546048	58	6616
2026-01-01 19:08:02.85	38.11	5.38	-42.6	-44.5	18.0	0.00e+00	47	38	0	78643200	58	6797
2026-01-01 19:08:03.86	38.00	5.43	-42.7	-44.6	17.8	0.00e+00	0	38	0	80740352	58	6852
2026-01-01 19:08:04.87	37.89	5.48	-42.8	-44.8	17.6	0.00e+00	49	38	0	81788928	58	7019
2026-01-01 19:08:05.88	37.78	5.53	-43.0	-45.1	17.4	0.00e+00	0	38	0	83886080	58	7268
2026-01-01 19:08:06.89	37.67	5.58	-42.7	-44.6	17.8	0.00e+00	0	38	0	85983232	58	6908
2026-01-01 19:08:07.90	37.56	5.64	-43.0	-45.0	17.4	0.00e+00	0	38	0	88080384	58	7207
2026-01-01 19:08:08.91	37.45	5.69	-42.8	-44.8	17.7	0.00e+00	0	38	0	90177536	58	7012
2026-01-01 19:08:09.92	37.33	5.74	-42.9	-44.9	17.7	0.00e+00	35	38	0	91226112	58	7104
2026-01-01 19:08:10.93	37.22	5.79	-42.7	-44.5	17.9	0.00e+00	0	38	0	93323264	58	6843
2026-01-01 19:08:11.94	37.11	5.84	-42.6	-44.4	18.1	0.00e+00	81	38	0	95420416	58	6733
2026-01-01 19:08:12.95	36.99	5.89	-42.3	-44.0	18.2	0.00e+00	0	38	0	97517568	58	6464
2026-01-01 19:08:13.96	36.88	5.95	-42.0	-43.7	18.7	0.00e+00	0	38	0	99614720	58	6184
2026-01-01 19:08:14.97	36.77	6.00	-42.0	-43.7	18.8	0.00e+00	0	38	0	101711872	58	6181
2026-01-01 19:08:15.98	36.65	6.05	-42.1	-43.8	18.6	0.00e+00	0	38	0	102760448	58	6255
2026-01-01 19:08:16.99	36.54	6.10	-42.1	-43.8	18.7	0.00e+00	15	38	0	104857600	58	6275
2026-01-01 19:08:18.00	36.42	6.15	-41.9	-43.5	18.9	0.00e+00	0	38	0	106954752	58	6073
2026-01-01 19:08:19.01	36.31	6.20	-41.8	-43.3	19.1	0.00e+00	40	39	0	109051904	56	6662
2026-01-01 19:08:20.02	36.19	6.25	-41.8	-43.3	19.2	0.00e+00	0	38	0	111149056	56	6640
2026-01-01 19:08:21.03	36.07	6.31	-41.7	-43.2	19.3	0.00e+00	31	38	0	112197632	56	6552
2026-01-01 19:08:22.04	35.96	6.36	-41.5	-43.0	19.4	0.00e+00	0	39	0	114294784	56	6410
2026-01-01 19:08:23.05	35.84	6.41	-41.4	-42.8	19.6	0.00e+00	0	39	0	116391936	56	6292
2026-01-01 19:08:24.06	35.72	6.46	-41.7	-43.2	19.3	0.00e+00	8	38	0	118489088	56	6592
2026-01-01 19:08:25.06	35.61	6.51	-41.4	-42.8	19.5	0.00e+00	0	39	0	120586240	56	6314
2026-01-01 19:08:26.07	35.49	6.56	-41.4	-42.8	19.8	0.00e+00	92	38	0	121634816	56	6251
2026-01-01 19:08:27.08	35.37	6.61	-41.4	-42.9	19.2	0.00e+00	0	38	0	123731968	56	6341
2026-01-01 19:08:28.09	35.25	6.67	-41.4	-42.9	19.5	0.00e+00	33	39	0	125829120	56	6340
2026-01-01 19:08:29.10	35.13	6.72	-41.4	-42.8	19.6	0.00e+00	0	39	0	127926272	56	6317
2026-01-01 19:08:30.11	35.01	6.77	-41.3	-42.8	19.7	0.00e+00	0	39	0	130023424	56	6267
2026-01-01 19:08:31.12	34.89	6.82	-41.5	-43.0	19.5	0.00e+00	0	39	0	131072000	56	6422
2026-01-01 19:08:32.13	34.77	6.87	-41.6	-43.1	19.5	0.00e+00	0	39	0	133169152	56	6505
2026-01-01 19:08:33.14	34.64	6.92	-41.5	-43.0	19.5	0.00e+00	93	39	0	135266304	56	6411
2026-01-01 19:08:34.15	34.52	6.97	-41.5	-42.9	19.6	0.00e+00	33	39	0	137363456	56	6365
2026-01-01 19:08:35.16	34.40	7.02	-41.5	-42.9	19.6	0.00e+00	92	39	0	139460608	56	6364
2026-01-01 19:08:36.17	34.28	7.08	-41.5	-43.0	19.5	0.00e+00	0	38	0	140509184	56	6437
2026-01-01 19:08:37.18	34.15	7.13	-41.5	-43.0	19.6	0.00e+00	0	39	0	142606336	56	6421
2026-01-01 19:08:38.19	34.03	7.18	-41.5	-43.0	19.5	0.00e+00	0	39	0	144703488	56	6419
2026-01-01 19:08:39.20	33.90	7.23	-41.5	-43.0	19.5	0.00e+00	0	39	0	146800640	56	6446
2026-01-01 19:08:40.21	33.78	7.28	-41.6	-43.1	19.4	0.00e+00	47	39	0	148897792	56	6484
2026-01-01 19:08:41.22	33.65	7.33	-41.7	-43.3	19.3	0.00e+00	0	39	0	149946368	56	6617
2026-01-01 19:08:42.23	33.53	7.38	-41.7	-43.2	19.2	0.00e+00	92	39	0	152043520	56	6578
2026-01-01 19:08:43.24	33.40	7.43	-41.9	-43.4	19.2	0.00e+00	0	39	0	154140672	56	6741
2026-01-01 19:08:44.25	33.27	7.49	-41.9	-43.4	19.2	0.00e+00	0	39	0	156237824	56	6739
2026-01-01 19:08:45.26	33.15	7.54	-41.8	-43.4	19.1	0.00e+00	0	39	0	158334976	56	6702
2026-01-01 19:08:46.27	33.02	7.59	-41.9	-43.5	19.2	0.00e+00	0	39	0	159383552	56	6816
2026-01-01 19:08:47.28	32.89	7.64	-41.8	-43.4	19.2	0.00e+00	47	39	0	161480704	56	6708
2026-01-01 19:08:48.29	32.76	7.69	-41.7	-43.2	19.4	0.00e+00	0	39	0	163577856	56	6543
2026-01-01 19:08:49.30	32.63	7.74	-41.9	-43.4	19.2	0.00e+00	81	39	0	165675008	56	6744
2026-01-01 19:08:50.31	32.51	7.79	-41.8	-43.3	19.3	0.00e+00	0	39	0	167772160	56	6643
2026-01-01 19:08:51.32	32.38	7.84	-41.8	-43.3	19.3	0.00e+00	0	39	0	169869312	56	6653
2026-01-01 19:08:52.33	32.25	7.89	-41.7	-43.2	19.4	0.00e+00	0	39	0	170917888	56	6604
2026-01-01 19:08:53.34	32.11	7.94	-41.8	-43.3	19.4	0.00e+00	0	39	0	173015040	56	6666
2026-01-01 19:08:54.35	31.98	7.99	-41.7	-43.2	19.5	0.00e+00	46	39	0	175112192	56	6547
2026-01-01 19:08:55.36	31.85	8.04	-41.7	-43.2	19.4	0.00e+00	0	39	0	177209344	56	6598
2026-01-01 19:08:56.37	31.72	8.09	-41.6	-43.0	19.5	0.00e+00	92	39	0	179306496	56	6463
2026-01-01 19:08:57.38	31.59	8.15	-41.5	-42.9	19.7	0.00e+00	0	39	0	180355072	56	6357
2026-01-01 19:08:58.39	31.45	8.20	-41.6	-43.0	19.8	0.00e+00	0	39	0	182452224	56	6442
2026-01-01 19:08:59.40	31.32	8.25	-41.4	-42.8	19.8	0.00e+00	0	39	0	184549376	56	6277
2026-01-01 19:09:00.41	31.19	8.30	-41.3	-42.7	19.9	0.00e+00	0	39	0	186646528	56	6184
2026-01-01 19:09:01.42	31.05	8.35	-41.3	-42.7	20.0	0.00e+00	0	39	0	188743680	56	6223
2026-01-01 19:09:02.43	30.92	8.40	-41.2	-42.6	20.1	0.00e+00	0	39	0	189792256	56	6140
2026-01-01 19:09:03.44	30.78	8.45	-41.4	-42.9	19.8	0.00e+00	49	39	0	191889408	56	6343
2026-01-01 19:09:04.45	30.64	8.50	-41.6	-43.0	19.6	0.00e+00	0	39	0	193986560	56	6443
2026-01-01 19:09:05.46	30.51	8.55	-41.3	-42.7	19.9	0.00e+00	18	39	0	196083712	56	6193
2026-01-01 19:09:06.47	30.37	8.60	-41.4	-42.8	19.9	0.00e+00	0	39	0	198180864	56	6279
2026-01-01 19:09:07.48	30.23	8.65	-41.5	-43.0	19.7	0.00e+00	0	39	0	199229440	56	6408
2026-01-01 19:09:08.49	30.10	8.70	-41.5	-42.9	19.8	0.00e+00	0	39	0	201326592	56	6335
2026-01-01 19:09:09.50	29.96	8.75	-41.6	-43.1	19.6	0.00e+00	0	39	0	203423744	56	6498
2026-01-01 19:09:10.51	29.82	8.80	-41.8	-43.3	19.4	0.00e+00	40	39	0	205520896	56	6662
2026-01-01 19:09:11.51	29.68	8.85	-41.9	-43.4	19.1	0.00e+00	0	39	0	207618048	56	6761
2026-01-01 19:09:12.52	29.54	8.90	-42.0	-43.6	19.1	0.00e+00	70	39	0	208666624	56	6905
2026-01-01 19:09:13.53	29.40	8.95	-42.1	-43.7	19.0	0.00e+00	0	39	0	210763776	56	6992
2026-01-01 19:09:14.54	29.26	9.00	-42.0	-43.6	19.2	0.00e+00	0	39	0	212860928	56	6886
2026-01-01 19:09:15.55	29.12	9.05	-41.8	-43.3	19.3	0.00e+00	0	39	0	214958080	56	6690
2026-01-01 19:09:16.57	28.97	9.10	-41.7	-43.2	19.5	0.00e+00	0	39	0	217055232	56	6602
2026-01-01 19:09:17.57	28.83	9.14	-41.7	-43.2	19.5	0.00e+00	62	39	0	218103808	56	6561
2026-01-01 19:09:18.58	28.69	9.19	-41.6	-43.0	19.6	0.00e+00	0	39	0	220200960	56	6447
2026-01-01 19:09:19.59	28.55	9.24	-41.5	-43.0	19.7	0.00e+00	81	39	0	222298112	56	6418
2026-01-01 19:09:20.60	28.40	9.29	-41.6	-43.0	19.7	0.00e+00	0	39	0	224395264	56	6464
2026-01-01 19:09:21.61	28.26	9.34	-41.5	-43.0	19.7	0.00e+00	0	39	0	226492416	56	6408
2026-01-01 19:09:22.62	28.11	9.39	-41.4	-42.8	20.0	0.00e+00	0	39	0	227540992	56	6301
2026-01-01 19:09:23.63	27.97	9.44	-41.5	-42.9	19.8	0.00e+00	0	39	0	229638144	56	6380
2026-01-01 19:09:24.64	27.82	9.49	-41.2	-42.6	20.1	0.00e+00	49	39	0	231735296	56	6115
2026-01-01 19:09:25.65	27.68	9.54	-41.0	-42.4	20.2	0.00e+00	0	39	0	233832448	56	5984
2026-01-01 19:09:26.66	27.53	9.59	-40.9	-42.2	20.4	0.00e+00	92	39	0	235929600	56	5859
2026-01-01 19:09:27.67	27.38	9.63	-40.7	-42.0	20.6	0.00e+00	0	39	0	238026752	54	6413
2026-01-01 19:09:28.68	27.24	9.68	-40.9	-42.2	20.4	0.00e+00	0	39	0	239075328	54	6555
2026-01-01 19:09:29.69	27.09	9.73	-40.7	-42.0	20.5	0.00e+00	0	39	0	241172480	54	6439
2026-01-01 19:09:30.70	26.94	9.78	-40.6	-41.9	20.7	0.00e+00	0	39	0	243269632	54	6327
2026-01-01 19:09:31.71	26.79	9.83	-40.5	-41.7	20.8	0.00e+00	59	39	0	245366784	54	6238
2026-01-01 19:09:32.72	26.64	9.88	-40.4	-41.6	20.8	0.00e+00	0	39	0	247463936	54	6160
2026-01-01 19:09:33.73	26.49	9.92	-40.2	-41.4	21.0	0.00e+00	92	39	0	248512512	54	6020
2026-01-01 19:09:34.74	26.34	9.97	-40.2	-41.4	21.0	0.00e+00	0	39	0	250609664	54	5971
2026-01-01 19:09:35.75	26.19	10.02	-40.1	-41.2	21.1	0.00e+00	0	39	0	252706816	54	5896
2026-01-01 19:09:36.76	26.04	10.07	-40.2	-41.3	21.2	0.00e+00	0	39	0	254803968	54	5955
2026-01-01 19:09:37.77	25.88	10.11	-39.9	-41.1	21.2	0.00e+00	0	39	0	256901120	54	5772
2026-01-01 19:09:38.78	25.73	10.16	-40.0	-41.2	21.4	0.00e+00	33	39	0	257949696	54	5832
2026-01-01 19:09:39.79	25.58	10.21	-39.7	-40.8	21.6	0.00e+00	0	39	0	260046848	52	6260
2026-01-01 19:09:40.80	25.42	10.26	-39.6	-40.6	21.8	0.00e+00	76	39	0	262144000	52	6171
2026-01-01 19:09:41.81	25.27	10.30	-39.6	-40.6	21.8	0.00e+00	0	39	0	264241152	52	6158
2026-01-01 19:09:42.82	25.11	10.35	-39.5	-40.5	21.8	0.00e+00	62	39	0	266338304	52	6094
2026-01-01 19:09:43.83	24.96	10.40	-39.6	-40.7	21.7	0.00e+00	0	39	0	267386880	52	6241
2026-01-01 19:09:44.84	24.80	10.44	-39.7	-40.8	21.6	0.00e+00	0	39	0	269484032	52	6292
2026-01-01 19:09:45.85	24.65	10.49	-39.7	-40.9	21.5	0.00e+00	17	39	0	271581184	52	6323
2026-01-01 19:09:46.86	24.49	10.54	-39.9	-41.0	21.4	0.00e+00	0	39	0	273678336	52	6464
2026-01-01 19:09:47.87	24.33	10.58	-40.0	-41.1	21.4	0.00e+00	90	39	0	275775488	52	6519
2026-01-01 19:09:48.88	24.17	10.63	-40.1	-41.3	21.3	0.00e+00	0	39	0	276824064	52	6679
2026-01-01 19:09:49.89	24.02	10.68	-40.1	-41.2	21.2	0.00e+00	90	39	0	278921216	52	6615
2026-01-01 19:09:50.90	23.86	10.72	-40.2	-41.4	21.2	0.00e+00	0	39	0	281018368	52	6757
2026-01-01 19:09:51.91	23.70	10.77	-40.3	-41.5	21.1	0.00e+00	0	39	0	283115520	52	6799
2026-01-01 19:09:52.91	23.54	10.81	-40.3	-41.5	21.0	0.00e+00	0	39	0	285212672	52	6793
2026-01-01 19:09:53.93	23.38	10.86	-40.3	-41.5	21.0	0.00e+00	0	39	0	286261248	52	6792
2026-01-01 19:09:54.93	23.22	10.91	-40.0	-41.1	21.3	0.00e+00	50	39	0	288358400	52	6533
2026-01-01 19:09:55.94	23.06	10.95	-39.8	-40.9	21.6	0.00e+00	0	39	0	290455552	52	6380
2026-01-01 19:09:56.95	22.89	11.00	-39.4	-40.5	22.0	0.00e+00	92	39	0	292552704	52	6060
2026-01-01 19:09:57.96	22.73	11.04	-39.3	-40.3	22.0	0.00e+00	0	39	0	294649856	52	5947
2026-01-01 19:09:58.97	22.57	11.09	-39.3	-40.4	22.0	0.00e+00	0	39	0	295698432	52	6001
2026-01-01 19:09:59.98	22.41	11.13	-39.2	-40.2	22.1	0.00e+00	0	39	0	297795584	52	5894
2026-01-01 19:10:00.99	22.24	11.18	-39.1	-40.2	22.1	0.00e+00	0	39	0	299892736	52	5835
2026-01-01 19:10:02.00	22.08	11.22	-39.1	-40.2	22.1	0.00e+00	33	39	0	301989888	52	5845
2026-01-01 19:10:03.01	21.91	11.27	-38.8	-39.8	22.5	0.00e+00	0	39	0	304087040	52	5626
2026-01-01 19:10:04.02	21.75	11.31	-38.7	-39.7	22.6	0.00e+00	48	39	0	306184192	50	6179
2026-01-01 19:10:05.03	21.58	11.35	-38.8	-39.8	22.5	0.00e+00	0	39	0	307232768	50	6276
2026-01-01 19:10:06.04	21.41	11.40	-38.9	-39.9	22.4	0.00e+00	0	39	0	309329920	50	6363
2026-01-01 19:10:07.05	21.25	11.44	-39.2	-40.2	22.2	0.00e+00	0	39	0	311427072	50	6599
2026-01-01 19:10:08.06	21.08	11.49	-39.3	-40.4	22.0	0.00e+00	0	39	0	313524224	50	6735
2026-01-01 19:10:09.07	20.91	11.53	-39.4	-40.5	21.9	0.00e+00	57	39	0	315621376	50	6773
2026-01-01 19:10:10.08	20.74	11.57	-39.1	-40.1	22.1	0.00e+00	0	39	0	316669952	50	6537
2026-01-01 19:10:11.09	20.57	11.62	-39.2	-40.2	22.1	0.00e+00	92	39	0	318767104	50	6595
2026-01-01 19:10:12.09	20.41	11.66	-38.9	-39.9	22.4	0.00e+00	0	39	0	320864256	50	6373
2026-01-01 19:10:13.11	20.23	11.70	-38.6	-39.6	22.7	0.00e+00	44	39	0	322961408	50	6147
2026-01-01 19:10:14.12	20.06	11.74	-38.6	-39.5	22.7	0.00e+00	0	39	0	325058560	50	6090
2026-01-01 19:10:15.13	19.89	11.79	-38.4	-39.3	22.9	0.00e+00	33	39	0	326107136	50	5941
2026-01-01 19:10:16.14	19.72	11.83	-38.5	-39.4	22.9	0.00e+00	46	39	0	328204288	50	6009
2026-01-01 19:10:17.15	19.55	11.87	-38.5	-39.4	22.8	0.00e+00	0	39	0	330301440	50	6025
2026-01-01 19:10:18.16	19.38	11.91	-38.6	-39.5	22.7	0.00e+00	92	39	0	332398592	50	6091
2026-01-01 19:10:19.17	19.20	11.95	-38.5	-39.4	22.7	0.00e+00	0	39	0	334495744	50	6030
2026-01-01 19:10:20.18	19.03	12.00	-38.8	-39.7	22.6	0.00e+00	80	39	0	335544320	50	6244
2026-01-01 19:10:21.19	18.85	12.04	-38.6	-39.6	22.8	0.00e+00	0	39	0	337641472	50	6148
2026-01-01 19:10:22.20	18.68	12.08	-38.8	-39.9	22.5	0.00e+00	0	39	0	339738624	50	6320
2026-01-01 19:10:23.21	18.50	12.12	-39.1	-40.2	22.1	0.00e+00	49	39	0	341835776	50	6569
2026-01-01 19:10:24.22	18.33	12.16	-39.4	-40.5	21.7	0.00e+00	0	39	0	343932928	50	6848
2026-01-01 19:10:25.23	18.15	12.20	-39.4	-40.6	21.8	0.00e+00	46	39	0	344981504	50	6854
2026-01-01 19:10:26.24	17.98	12.24	-39.3	-40.4	21.9	0.00e+00	0	39	0	347078656	50	6755
2026-01-01 19:10:27.24	17.80	12.28	-39.4	-40.5	22.0	0.00e+00	88	39	0	349175808	50	6803
2026-01-01 19:10:28.25	17.62	12.32	-39.4	-40.4	22.0	0.00e+00	0	39	0	351272960	50	6766
2026-01-01 19:10:29.26	17.45	12.36	-39.3	-40.4	22.1	0.00e+00	0	39	0	353370112	50	6736
2026-01-01 19:10:30.27	17.27	12.40	-39.3	-40.4	22.1	0.00e+00	0	39	0	354418688	50	6705
2026-01-01 19:10:31.28	17.09	12.44	-39.4	-40.4	22.1	0.00e+00	0	39	0	356515840	50	6760
2026-01-01 19:10:32.29	16.91	12.48	-39.4	-40.4	22.0	0.00e+00	48	39	0	358612992	50	6766
2026-01-01 19:10:33.30	16.73	12.52	-39.2	-40.2	22.2	0.00e+00	0	39	0	360710144	50	6605
2026-01-01 19:10:34.31	16.55	12.56	-39.3	-40.4	22.1	0.00e+00	63	39	0	362807296	50	6694
2026-01-01 19:10:35.32	16.37	12.59	-39.2	-40.2	22.2	0.00e+00	0	39	0	363855872	50	6611
2026-01-01 19:10:36.33	16.19	12.63	-39.3	-40.4	22.1	0.00e+00	0	39	0	365953024	50	6708
2026-01-01 19:10:37.34	16.00	12.67	-39.4	-40.5	22.0	0.00e+00	0	39	0	368050176	50	6823
2026-01-01 19:10:38.35	15.82	12.71	-39.6	-40.8	21.8	0.00e+00	0	39	0	370147328	50	7019
2026-01-01 19:10:39.36	15.64	12.75	-39.8	-40.9	21.6	0.00e+00	51	39	0	372244480	52	6356
2026-01-01 19:10:40.37	15.46	12.78	-39.6	-40.7	21.6	0.00e+00	0	39	0	374341632	52	6222
2026-01-01 19:10:41.38	15.27	12.82	-39.5	-40.6	22.0	0.00e+00	81	39	0	375390208	52	6136
2026-01-01 19:10:42.39	15.09	12.86	-39.0	-40.0	22.4	0.00e+00	0	39	0	377487360	52	5746
2026-01-01 19:10:43.40	14.90	12.89	-38.8	-39.8	22.6	0.00e+00	0	39	0	379584512	52	5601
2026-01-01 19:10:44.41	14.72	12.93	-38.7	-39.7	22.7	0.00e+00	0	39	0	381681664	50	6212
2026-01-01 19:10:45.42	14.53	12.97	-38.7	-39.7	22.6	0.00e+00	0	39	0	383778816	50	6213
2026-01-01 19:10:46.43	14.35	13.00	-39.0	-40.0	22.4	0.00e+00	35	39	0	384827392	50	6411
2026-01-01 19:10:47.44	14.16	13.04	-39.3	-40.3	22.1	0.00e+00	0	39	0	386924544	50	6684
2026-01-01 19:10:48.45	13.97	13.07	-39.2	-40.2	22.3	0.00e+00	66	39	0	389021696	50	6614
2026-01-01 19:10:49.46	13.78	13.11	-39.2	-40.2	22.3	0.00e+00	0	39	0	391118848	50	6569
2026-01-01 19:10:50.47	13.60	13.14	-39.1	-40.2	22.2	0.00e+00	50	39	0	393216000	50	6548
2026-01-01 19:10:51.48	13.41	13.18	-39.0	-40.0	22.4	0.00e+00	0	39	0	394264576	50	6447
2026-01-01 19:10:52.49	13.22	13.21	-39.0	-40.0	22.4	0.00e+00	0	39	0	396361728	50	6406
2026-01-01 19:10:53.50	13.03	13.25	-39.0	-40.0	22.4	0.00e+00	44	39	0	398458880	50	6439
2026-01-01 19:10:54.51	12.84	13.28	-39.0	-40.0	22.2	0.00e+00	0	39	0	400556032	50	6403
2026-01-01 19:10:55.52	12.65	13.31	-39.0	-40.0	22.3	0.00e+00	92	39	0	402653184	50	6400
2026-01-01 19:10:56.53	12.46	13.35	-38.9	-39.9	22.4	0.00e+00	0	39	0	403701760	50	6358
2026-01-01 19:10:57.54	12.27	13.38	-38.9	-39.9	22.4	0.00e+00	0	39	0	405798912	50	6378
2026-01-01 19:10:58.55	12.08	13.41	-39.0	-40.0	22.4	0.00e+00	0	39	0	407896064	50	6456
2026-01-01 19:10:59.56	11.88	13.45	-39.2	-40.3	22.1	0.00e+00	0	39	0	409993216	50	6670
2026-01-01 19:11:00.57	11.69	13.48	-39.3	-40.4	22.0	0.00e+00	0	39	0	412090368	50	6759
2026-01-01 19:11:01.58	11.50	13.51	-39.6	-40.7	21.8	0.00e+00	0	39	0	413138944	50	6969
2026-01-01 19:11:02.59	11.31	13.54	-39.9	-41.1	21.5	0.00e+00	70	39	0	415236096	52	6536
2026-01-01 19:11:03.59	11.11	13.57	-39.9	-41.1	21.5	0.00e+00	0	39	0	417333248	52	6530
2026-01-01 19:11:04.61	10.92	13.60	-39.9	-41.1	21.5	0.00e+00	92	39	0	419430400	52	6493
2026-01-01 19:11:05.61	10.73	13.64	-39.7	-40.8	21.7	0.00e+00	0	39	0	421527552	52	6287
2026-01-01 19:11:06.62	10.53	13.67	-39.1	-40.2	22.3	0.00e+00	0	39	0	422576128	52	5833
2026-01-01 19:11:07.63	10.34	13.70	-38.7	-39.7	22.2	0.00e+00	0	39	0	424673280	52	5556
2026-01-01 19:11:08.64	10.14	13.73	-38.4	-39.3	22.7	0.00e+00	0	39	0	426770432	50	5960
2026-01-01 19:11:09.65	9.94	13.76	-38.5	-39.5	22.8	0.00e+00	50	39	0	428867584	50	6037
2026-01-01 19:11:10.66	9.75	13.79	-38.5	-39.4	22.8	0.00e+00	0	39	0	430964736	50	6017
2026-01-01 19:11:11.67	9.55	13.81	-38.5	-39.5	22.9	0.00e+00	84	39	0	432013312	50	6058
2026-01-01 19:11:12.68	9.35	13.84	-38.3	-39.2	23.0	0.00e+00	0	39	0	434110464	50	5859
2026-01-01 19:11:13.69	9.16	13.87	-38.5	-39.5	22.8	0.00e+00	0	39	0	436207616	50	6055
2026-01-01 19:11:14.70	8.96	13.90	-38.3	-39.2	23.0	0.00e+00	0	39	0	438304768	50	5869
2026-01-01 19:11:15.71	8.76	13.93	-38.5	-39.4	23.0	0.00e+00	0	39	0	440401920	50	6009
2026-01-01 19:11:16.72	8.56	13.96	-38.6	-39.6	22.9	0.00e+00	47	39	0	442499072	50	6113
2026-01-01 19:11:17.73	8.36	13.98	-38.4	-39.4	22.9	0.00e+00	0	39	0	443547648	50	5994
2026-01-01 19:11:18.74	8.16	14.01	-38.4	-39.4	22.9	0.00e+00	82	39	0	445644800	50	5982
2026-01-01 19:11:19.75	7.96	14.04	-38.3	-39.2	23.0	0.00e+00	0	39	0	447741952	50	5877
2026-01-01 19:11:20.76	7.76	14.06	-38.2	-39.1	23.0	0.00e+00	0	39	0	449839104	50	5805
2026-01-01 19:11:21.77	7.56	14.09	-38.2	-39.1	23.1	0.00e+00	0	39	0	451936256	50	5772
2026-01-01 19:11:22.78	7.36	14.11	-38.2	-39.1	23.1	0.00e+00	0	39	0	452984832	50	5790
2026-01-01 19:11:23.79	7.16	14.14	-38.3	-39.2	23.1	0.00e+00	17	39	0	455081984	50	5869
2026-01-01 19:11:24.79	6.96	14.16	-38.5	-39.5	22.9	0.00e+00	0	39	0	457179136	50	6060
2026-01-01 19:11:25.80	6.76	14.19	-38.8	-39.8	22.5	0.00e+00	92	39	0	459276288	50	6291
2026-01-01 19:11:26.81	6.56	14.21	-39.1	-40.1	22.3	0.00e+00	0	39	0	461373440	50	6512
2026-01-01 19:11:27.82	6.35	14.24	-39.4	-40.5	22.1	0.00e+00	0	39	0	462422016	50	6821
2026-01-01 19:11:28.83	6.15	14.26	-39.1	-40.2	22.3	0.00e+00	0	39	0	464519168	50	6562
2026-01-01 19:11:29.84	5.95	14.28	-39.2	-40.3	22.3	0.00e+00	0	39	0	466616320	50	6648
2026-01-01 19:11:30.85	5.74	14.31	-39.2	-40.2	22.2	0.00e+00	0	39	0	468713472	50	6612
2026-01-01 19:11:31.86	5.54	14.33	-39.2	-40.3	22.2	0.00e+00	0	39	0	470810624	50	6646
2026-01-01 19:11:32.87	5.33	14.35	-39.6	-40.7	21.9	0.00e+00	46	39	0	471859200	50	6936
2026-01-01 19:11:33.88	5.13	14.37	-39.6	-40.8	21.5	0.00e+00	0	39	0	473956352	50	7028
2026-01-01 19:11:34.89	4.93	14.39	-39.7	-40.8	21.7	0.00e+00	92	39	0	476053504	52	6317
2026-01-01 19:11:35.90	4.72	14.42	-39.7	-40.8	21.9	0.00e+00	0	39	0	478150656	52	6280
2026-01-01 19:11:36.91	4.51	14.44	-39.4	-40.5	22.0	0.00e+00	0	39	0	480247808	52	6074
2026-01-01 19:11:37.92	4.31	14.46	-39.3	-40.4	22.1	0.00e+00	17	39	0	481296384	52	5966
2026-01-01 19:11:38.93	4.10	14.48	-39.2	-40.3	22.3	0.00e+00	0	39	0	483393536	52	5914
2026-01-01 19:11:39.94	3.90	14.50	-39.2	-40.3	22.2	0.00e+00	47	39	0	485490688	52	5943
2026-01-01 19:11:40.95	3.69	14.52	-39.1	-40.2	22.3	0.00e+00	0	39	0	487587840	52	5835
2026-01-01 19:11:41.96	3.48	14.54	-39.5	-40.6	22.0	0.00e+00	50	39	0	489684992	52	6111
2026-01-01 19:11:42.97	3.28	14.56	-39.4	-40.5	22.0	0.00e+00	0	39	0	490733568	52	6060
2026-01-01 19:11:43.98	3.07	14.57	-39.3	-40.3	22.2	0.00e+00	0	39	0	492830720	52	5932
2026-01-01 19:11:44.99	2.86	14.59	-38.9	-39.9	22.5	0.00e+00	0	39	0	494927872	52	5690
2026-01-01 19:11:46.00	2.65	14.61	-38.7	-39.7	22.7	0.00e+00	0	39	0	497025024	52	5535
2026-01-01 19:11:47.00	2.45	14.63	-38.4	-39.3	22.9	0.00e+00	22	39	0	499122176	50	5923
2026-01-01 19:11:48.02	2.24	14.64	-38.3	-39.2	23.2	0.00e+00	0	39	0	500170752	50	5844
2026-01-01 19:11:49.02	2.03	14.66	-38.4	-39.3	23.1	0.00e+00	78	39	0	502267904	50	5962
2026-01-01 19:11:50.03	1.82	14.68	-38.6	-39.5	22.9	0.00e+00	0	39	0	504365056	50	6074
2026-01-01 19:11:51.04	1.61	14.69	-38.6	-39.5	22.8	0.00e+00	0	39	0	506462208	50	6098
2026-01-01 19:11:52.05	1.40	14.71	-38.7	-39.7	22.8	0.00e+00	0	39	0	508559360	50	6174
2026-01-01 19:11:53.06	1.19	14.72	-38.7	-39.7	22.7	0.00e+00	0	39	0	510656512	50	6203
2026-01-01 19:11:54.07	0.98	14.74	-38.8	-39.7	22.7	0.00e+00	16	39	0	511705088	50	6231
2026-01-01 19:11:55.08	0.77	14.75	-38.9	-39.9	22.6	0.00e+00	0	39	0	513802240	50	6362
2026-01-01 19:11:56.09	0.56	14.77	-39.0	-40.0	22.5	0.00e+00	92	39	0	515899392	50	6402
2026-01-01 19:11:57.11	0.35	14.78	-39.0	-40.0	22.4	0.00e+00	0	39	0	517996544	50	6433
2026-01-01 19:11:58.11	0.14	14.79	-38.9	-39.9	22.4	0.00e+00	24	39	0	520093696	50	6373
2026-01-01 19:11:59.13	359.93	14.81	-39.0	-40.0	22.4	0.00e+00	0	39	0	521142272	50	6463
2026-01-01 19:12:00.13	359.72	14.82	-39.1	-40.1	22.4	0.00e+00	0	39	0	523239424	50	6525
2026-01-01 19:12:01.14	359.51	14.83	-39.0	-40.0	22.4	0.00e+00	47	39	0	525336576	50	6434
2026-01-01 19:12:02.15	359.30	14.84	-38.7	-39.7	22.6	0.00e+00	0	39	0	527433728	50	6231
2026-01-01 19:12:03.16	359.09	14.85	-38.8	-39.8	22.6	0.00e+00	89	39	0	529530880	50	6316
2026-01-01 19:12:04.17	358.88	14.86	-38.7	-39.7	22.7	0.00e+00	0	39	0	530579456	50	6211
2026-01-01 19:12:05.18	358.66	14.87	-39.0	-40.0	22.4	0.00e+00	90	39	0	532676608	50	6443
2026-01-01 19:12:06.19	358.45	14.88	-39.3	-40.3	22.2	0.00e+00	0	39	0	534773760	50	6672
2026-01-01 19:12:07.20	358.24	14.89	-39.4	-40.5	22.1	0.00e+00	0	39	0	536870912	50	6783
2026-01-01 19:12:08.21	358.03	14.90	-39.5	-40.6	21.9	0.00e+00	52	39	0	538968064	50	6859
2026-01-01 19:12:09.22	357.82	14.91	-39.4	-40.4	22.1	0.00e+00	0	39	0	540016640	50	6768
2026-01-01 19:12:10.23	357.60	14.92	-39.4	-40.4	22.2	0.00e+00	58	39	0	542113792	50	6739
2026-01-01 19:12:11.24	357.39	14.93	-39.1	-40.2	22.2	0.00e+00	0	39	0	544210944	50	6559
2026-01-01 19:12:12.25	357.18	14.94	-39.2	-40.2	22.3	0.00e+00	92	39	0	546308096	50	6594
2026-01-01 19:12:13.25	356.97	14.94	-39.4	-40.5	22.0	0.00e+00	0	39	0	548405248	50	6776
2026-01-01 19:12:14.27	356.75	14.95	-39.1	-40.1	22.4	0.00e+00	0	39	0	549453824	50	6477
2026-01-01 19:12:15.27	356.54	14.96	-39.1	-40.1	22.4	0.00e+00	0	39	0	551550976	50	6523
2026-01-01 19:12:16.29	356.33	14.96	-39.1	-40.1	22.3	0.00e+00	0	39	0	553648128	50	6513
2026-01-01 19:12:17.29	356.12	14.97	-39.1	-40.2	22.1	0.00e+00	63	39	0	555745280	50	6554
2026-01-01 19:12:18.30	355.90	14.97	-39.6	-40.7	22.0	0.00e+00	0	39	0	557842432	50	6955
2026-01-01 19:12:19.31	355.69	14.98	-39.3	-40.4	22.0	0.00e+00	92	39	0	558891008	50	6709
2026-01-01 19:12:20.32	355.48	14.98	-39.1	-40.1	22.4	0.00e+00	0	39	0	560988160	50	6509
2026-01-01 19:12:21.33	355.26	14.99	-38.6	-39.6	22.7	0.00e+00	0	39	0	563085312	50	6167
2026-01-01 19:12:22.34	355.05	14.99	-38.9	-39.9	22.5	0.00e+00	0	39	0	565182464	50	6363
2026-01-01 19:12:23.35	354.83	15.00	-38.9	-39.9	22.5	0.00e+00	0	39	0	567279616	50	6363
2026-01-01 19:12:24.36	354.62	15.00	-39.0	-40.0	22.4	0.00e+00	51	39	0	568328192	50	6433
2026-01-01 19:12:25.37	354.41	15.00	-39.0	-40.1	22.4	0.00e+00	0	39	0	570425344	50	6494
2026-01-01 19:12:26.38	354.19	15.00	-39.2	-40.2	22.2	0.00e+00	92	39	0	572522496	50	6610
2026-01-01 19:12:27.39	353.98	15.01	-39.3	-40.3	22.1	0.00e+00	0	39	0	574619648	50	6692
2026-01-01 19:12:28.40	353.77	15.01	-39.5	-40.7	22.0	0.00e+00	0	39	0	576716800	50	6934
2026-01-01 19:12:29.41	353.55	15.01	-39.5	-40.6	21.9	0.00e+00	0	39	0	578813952	50	6880
2026-01-01 19:12:30.42	353.34	15.01	-39.5	-40.6	22.0	0.00e+00	0	39	0	579862528	50	6907
2026-01-01 19:12:31.43	353.13	15.01	-39.5	-40.6	22.0	0.00e+00	44	39	0	581959680	50	6900
2026-01-01 19:12:32.44	352.91	15.01	-39.1	-40.1	22.4	0.00e+00	0	39	0	584056832	50	6539
2026-01-01 19:12:33.45	352.70	15.01	-39.0	-40.0	22.5	0.00e+00	91	39	0	586153984	50	6432
2026-01-01 19:12:34.46	352.48	15.01	-38.9	-39.9	22.6	0.00e+00	0	39	0	588251136	50	6327
2026-01-01 19:12:35.47	352.27	15.01	-38.7	-39.7	22.7	0.00e+00	35	39	0	589299712	50	6212
2026-01-01 19:12:36.48	352.06	15.00	-38.5	-39.4	22.9	0.00e+00	0	39	0	591396864	50	5998
2026-01-01 19:12:37.49	351.84	15.00	-38.6	-39.5	22.8	0.00e+00	0	39	0	593494016	50	6080
2026-01-01 19:12:38.49	351.63	15.00	-38.6	-39.5	22.7	0.00e+00	0	39	0	595591168	50	6101
2026-01-01 19:12:39.51	351.42	15.00	-38.8	-39.8	22.8	0.00e+00	0	39	0	597688320	50	6261
2026-01-01 19:12:40.52	351.20	14.99	-39.0	-40.1	22.4	0.00e+00	92	39	0	598736896	50	6475
2026-01-01 19:12:41.53	350.99	14.99	-39.1	-40.1	22.4	0.00e+00	0	39	0	600834048	50	6496
2026-01-01 19:12:42.54	350.78	14.98	-39.2	-40.3	22.3	0.00e+00	3	39	0	602931200	50	6626
2026-01-01 19:12:43.55	350.56	14.98	-39.1	-40.2	22.3	0.00e+00	0	39	0	605028352	50	6566
2026-01-01 19:12:44.55	350.35	14.97	-39.3	-40.4	22.1	0.00e+00	0	39	0	607125504	50	6713
2026-01-01 19:12:45.57	350.14	14.97	-39.1	-40.1	22.2	0.00e+00	0	39	0	608174080	50	6515
2026-01-01 19:12:46.58	349.92	14.96	-39.3	-40.3	21.6	0.00e+00	0	39	0	610271232	50	6651
2026-01-01 19:12:47.59	349.71	14.96	-39.5	-40.5	22.1	0.00e+00	92	39	0	612368384	50	6834
2026-01-01 19:12:48.60	349.50	14.95	-39.5	-40.5	21.9	0.00e+00	0	39	0	614465536	50	6831
2026-01-01 19:12:49.61	349.28	14.94	-39.7	-40.7	21.8	0.00e+00	92	39	0	616562688	50	7001
2026-01-01 19:12:50.62	349.07	14.94	-40.0	-41.1	21.5	0.00e+00	0	39	0	617611264	52	6520
2026-01-01 19:12:51.63	348.86	14.93	-39.8	-41.0	21.7	0.00e+00	0	39	0	619708416	52	6393
2026-01-01 19:12:52.64	348.65	14.92	-39.9	-41.1	21.6	0.00e+00	0	39	0	621805568	52	6473
2026-01-01 19:12:53.65	348.43	14.91	-39.7	-40.8	21.9	0.00e+00	0	39	0	623902720	52	6307
2026-01-01 19:12:54.66	348.22	14.90	-39.6	-40.7	21.9	0.00e+00	82	39	0	625999872	52	6204
2026-01-01 19:12:55.67	348.01	14.89	-39.4	-40.5	22.0	0.00e+00	0	39	0	627048448	52	6069
2026-01-01 19:12:56.68	347.80	14.88	-39.2	-40.2	22.3	0.00e+00	68	39	0	629145600	52	5885
2026-01-01 19:12:57.69	347.58	14.87	-39.3	-40.3	22.2	0.00e+00	0	39	0	631242752	52	5952
2026-01-01 19:12:58.70	347.37	14.86	-39.0	-40.0	22.5	0.00e+00	0	39	0	633339904	52	5731
2026-01-01 19:12:59.71	347.16	14.85	-38.9	-39.9	22.6	0.00e+00	0	39	0	635437056	52	5683
2026-01-01 19:13:00.72	346.95	14.84	-38.8	-39.8	22.6	0.00e+00	0	39	0	636485632	50	6272
2026-01-01 19:13:01.73	346.74	14.83	-38.8	-39.8	22.7	0.00e+00	23	39	0	638582784	50	6284
2026-01-01 19:13:02.74	346.53	14.82	-38.8	-39.9	22.6	0.00e+00	0	39	0	640679936	50	6323
2026-01-01 19:13:03.75	346.32	14.80	-38.9	-39.9	22.4	0.00e+00	71	39	0	642777088	50	6341
2026-01-01 19:13:04.76	346.11	14.79	-39.1	-40.2	22.2	0.00e+00	0	39	0	644874240	50	6548
2026-01-01 19:13:05.77	345.89	14.78	-39.2	-40.2	22.2	0.00e+00	0	39	0	646971392	50	6608
2026-01-01 19:13:06.78	345.68	14.76	-39.2	-40.3	22.2	0.00e+00	0	39	0	648019968	50	6675
2026-01-01 19:13:07.79	345.47	14.75	-39.1	-40.1	22.4	0.00e+00	0	39	0	650117120	50	6510
2026-01-01 19:13:08.80	345.26	14.74	-38.7	-39.7	22.6	0.00e+00	27	39	0	652214272	50	6213
2026-01-01 19:13:09.81	345.05	14.72	-38.6	-39.6	22.8	0.00e+00	0	39	0	654311424	50	6133
2026-01-01 19:13:10.82	344.84	14.71	-38.4	-39.4	23.0	0.00e+00	90	39	0	656408576	50	5968
2026-01-01 19:13:11.83	344.64	14.69	-38.2	-39.1	23.2	0.00e+00	0	39	0	657457152	50	5815
2026-01-01 19:13:12.84	344.43	14.68	-38.4	-39.3	22.9	0.00e+00	0	39	0	659554304	50	5956
2026-01-01 19:13:13.85	344.22	14.66	-38.7	-39.7	22.6	0.00e+00	0	39	0	661651456	50	6207
2026-01-01 19:13:14.86	344.01	14.64	-38.8	-39.8	22.6	0.00e+00	0	39	0	663748608	50	6263
2026-01-01 19:13:15.87	343.80	14.63	-38.9	-39.9	22.6	0.00e+00	50	39	0	665845760	50	6369
2026-01-01 19:13:16.88	343.59	14.61	-38.4	-39.4	22.8	0.00e+00	33	39	0	666894336	50	5999
2026-01-01 19:13:17.89	343.38	14.59	-38.5	-39.5	22.8	0.00e+00	89	39	0	668991488	50	6092
2026-01-01 19:13:18.90	343.18	14.57	-38.7	-39.7	22.7	0.00e+00	0	39	0	671088640	50	6181
2026-01-01 19:13:19.91	342.97	14.55	-38.5	-39.5	22.7	0.00e+00	0	39	0	673185792	50	6093
2026-01-01 19:13:20.92	342.76	14.54	-38.8	-39.8	22.5	0.00e+00	0	39	0	675282944	50	6267
2026-01-01 19:13:21.93	342.56	14.52	-38.9	-39.9	22.5	0.00e+00	0	39	0	676331520	50	6381
2026-01-01 19:13:22.94	342.35	14.50	-38.9	-40.0	22.3	0.00e+00	41	39	0	678428672	50	6415
2026-01-01 19:13:23.95	342.14	14.48	-39.0	-40.1	22.3	0.00e+00	0	39	0	680525824	50	6499
2026-01-01 19:13:24.96	341.94	14.46	-39.4	-40.5	22.1	0.00e+00	46	39	0	682622976	50	6808
2026-01-01 19:13:25.97	341.73	14.44	-39.1	-40.2	22.3	0.00e+00	0	39	0	684720128	50	6577
2026-01-01 19:13:26.98	341.52	14.42	-39.1	-40.1	22.3	0.00e+00	71	39	0	685768704	50	6523
2026-01-01 19:13:27.99	341.32	14.39	-39.3	-40.4	22.1	0.00e+00	0	39	0	687865856	50	6739
2026-01-01 19:13:29.00	341.11	14.37	-39.3	-40.4	22.2	0.00e+00	0	39	0	689963008	50	6703
2026-01-01 19:13:30.00	340.91	14.35	-39.4	-40.5	22.1	0.00e+00	15	39	0	692060160	50	6790
2026-01-01 19:13:31.01	340.71	14.33	-39.2	-40.3	22.2	0.00e+00	0	39	0	694157312	50	6636
2026-01-01 19:13:32.02	340.50	14.31	-39.0	-40.1	22.4	0.00e+00	11	39	0	695205888	50	6519
2026-01-01 19:13:33.03	340.30	14.28	-38.7	-39.7	22.7	0.00e+00	0	39	0	697303040	50	6207
2026-01-01 19:13:34.04	340.10	14.26	-38.7	-39.7	22.7	0.00e+00	90	39	0	699400192	50	6215
2026-01-01 19:13:35.05	339.89	14.24	-38.8	-39.8	22.4	0.00e+00	0	39	0	701497344	50	6299
2026-01-01 19:13:36.06	339.69	14.21	-39.0	-40.1	22.4	0.00e+00	0	39	0	703594496	50	6492
2026-01-01 19:13:37.07	339.49	14.19	-38.8	-39.8	22.5	0.00e+00	0	39	0	704643072	50	6297
2026-01-01 19:13:38.08	339.29	14.16	-38.9	-39.9	22.7	0.00e+00	0	39	0	706740224	50	6339
2026-01-01 19:13:39.09	339.09	14.14	-38.8	-39.8	22.6	0.00e+00	50	39	0	708837376	50	6299
2026-01-01 19:13:40.10	338.88	14.11	-38.5	-39.5	23.0	0.00e+00	0	39	0	710934528	50	6035
2026-01-01 19:13:41.11	338.68	14.09	-38.6	-39.5	22.8	0.00e+00	92	39	0	713031680	50	6091
2026-01-01 19:13:42.12	338.48	14.06	-38.3	-39.3	23.1	0.00e+00	33	39	0	715128832	50	5897
2026-01-01 19:13:43.13	338.28	14.03	-38.4	-39.4	23.0	0.00e+00	33	39	0	716177408	50	6019
2026-01-01 19:13:44.14	338.08	14.01	-38.7	-39.7	22.7	0.00e+00	0	39	0	718274560	50	6193
2026-01-01 19:13:45.15	337.88	13.98	-38.9	-40.0	22.5	0.00e+00	0	39	0	720371712	50	6413
2026-01-01 19:13:46.16	337.68	13.95	-39.1	-40.1	22.4	0.00e+00	46	39	0	722468864	50	6503
2026-01-01 19:13:47.17	337.48	13.93	-39.4	-40.5	22.0	0.00e+00	0	39	0	724566016	50	6842
2026-01-01 19:13:48.18	337.29	13.90	-39.6	-40.7	21.9	0.00e+00	92	39	0	725614592	50	6958
2026-01-01 19:13:49.19	337.09	13.87	-39.5	-40.6	21.9	0.00e+00	0	39	0	727711744	50	6920
2026-01-01 19:13:50.20	336.89	13.84	-39.5	-40.6	22.0	0.00e+00	43	39	0	729808896	50	6927
2026-01-01 19:13:51.21	336.69	13.81	-39.4	-40.5	22.0	0.00e+00	0	39	0	731906048	50	6792
2026-01-01 19:13:52.22	336.50	13.78	-39.7	-40.9	21.8	0.00e+00	0	39	0	734003200	50	7096
2026-01-01 19:13:53.23	336.30	13.75	-39.4	-40.5	22.0	0.00e+00	0	39	0	735051776	50	6847
2026-01-01 19:13:54.24	336.10	13.72	-39.8	-41.0	21.9	0.00e+00	0	39	0	737148928	50	7175
2026-01-01 19:13:55.25	335.91	13.69	-39.7	-40.8	21.9	0.00e+00	40	39	0	739246080	52	6277
2026-01-01 19:13:56.26	335.71	13.66	-39.5	-40.6	22.0	0.00e+00	0	39	0	741343232	52	6119
2026-01-01 19:13:57.27	335.52	13.63	-39.7	-40.8	22.0	0.00e+00	32	39	0	743440384	52	6284
2026-01-01 19:13:58.28	335.32	13.60	-39.6	-40.7	21.9	0.00e+00	0	39	0	744488960	52	6217
2026-01-01 19:13:59.29	335.13	13.57	-39.5	-40.6	22.0	0.00e+00	0	39	0	746586112	52	6151
2026-01-01 19:14:00.30	334.94	13.54	-39.4	-40.5	22.1	0.00e+00	49	39	0	748683264	52	6035
2026-01-01 19:14:01.31	334.74	13.51	-39.2	-40.3	22.3	0.00e+00	0	39	0	750780416	52	5926
2026-01-01 19:14:02.32	334.55	13.48	-39.2	-40.2	22.3	0.00e+00	90	39	0	752877568	52	5861
2026-01-01 19:14:03.33	334.36	13.44	-39.1	-40.2	22.4	0.00e+00	0	39	0	753926144	52	5830
2026-01-01 19:14:04.34	334.17	13.41	-38.9	-39.9	22.5	0.00e+00	48	39	0	756023296	52	5682
2026-01-01 19:14:05.35	333.97	13.38	-38.9	-39.9	22.6	0.00e+00	0	39	0	758120448	52	5645
2026-01-01 19:14:06.36	333.78	13.35	-38.8	-39.8	22.7	0.00e+00	0	39	0	760217600	52	5572
2026-01-01 19:14:07.37	333.59	13.31	-38.7	-39.7	22.7	0.00e+00	0	39	0	762314752	50	6212
2026-01-01 19:14:08.38	333.40	13.28	-38.9	-39.9	22.6	0.00e+00	0	39	0	763363328	50	6341
2026-01-01 19:14:09.39	333.21	13.25	-38.9	-39.9	22.5	0.00e+00	66	39	0	765460480	50	6349
2026-01-01 19:14:10.40	333.02	13.21	-38.7	-39.7	22.6	0.00e+00	0	39	0	767557632	50	6216
2026-01-01 19:14:11.40	332.84	13.18	-38.8	-39.8	22.6	0.00e+00	92	39	0	769654784	50	6248
2026-01-01 19:14:12.42	332.65	13.14	-38.7	-39.7	22.6	0.00e+00	0	39	0	771751936	50	6213
2026-01-01 19:14:13.42	332.46	13.11	-38.7	-39.6	22.8	0.00e+00	0	39	0	772800512	50	6172
2026-01-01 19:14:14.43	332.27	13.07	-38.6	-39.6	22.7	0.00e+00	0	39	0	774897664	50	6105
2026-01-01 19:14:15.45	332.08	13.04	-38.5	-39.5	22.5	0.00e+00	0	39	0	776994816	50	6043
2026-01-01 19:14:16.46	331.90	13.00	-38.4	-39.3	22.9	0.00e+00	42	39	0	779091968	50	5962
2026-01-01 19:14:17.46	331.71	12.97	-38.3	-39.2	23.0	0.00e+00	0	39	0	781189120	50	5842
2026-01-01 19:14:18.47	331.53	12.93	-38.3	-39.2	22.9	0.00e+00	92	39	0	783286272	50	5873
2026-01-01 19:14:19.48	331.34	12.89	-38.6	-39.6	22.6	0.00e+00	0	39	0	784334848	50	6127
2026-01-01 19:14:20.49	331.16	12.86	-38.9	-39.9	22.5	0.00e+00	0	39	0	786432000	50	6358
2026-01-01 19:14:21.50	330.97	12.82	-39.0	-40.0	22.5	0.00e+00	0	39	0	788529152	50	6441
2026-01-01 19:14:22.51	330.79	12.78	-39.0	-40.0	22.4	0.00e+00	0	39	0	790626304	50	6459
2026-01-01 19:14:23.52	330.60	12.74	-39.3	-40.4	22.3	0.00e+00	7	39	0	792723456	50	6728
2026-01-01 19:14:24.53	330.42	12.71	-39.4	-40.4	22.1	0.00e+00	0	39	0	793772032	50	6768
2026-01-01 19:14:25.54	330.24	12.67	-39.5	-40.6	22.0	0.00e+00	66	39	0	795869184	50	6863
2026-01-01 19:14:26.55	330.06	12.63	-39.7	-40.8	21.7	0.00e+00	0	39	0	797966336	52	6284
2026-01-01 19:14:27.56	329.88	12.59	-39.7	-40.9	21.7	0.00e+00	0	39	0	800063488	52	6321
2026-01-01 19:14:28.57	329.69	12.55	-40.0	-41.2	21.5	0.00e+00	0	39	0	802160640	52	6558
2026-01-01 19:14:29.58	329.51	12.52	-40.0	-41.1	21.4	0.00e+00	0	39	0	803209216	52	6519
2026-01-01 19:14:30.59	329.33	12.48	-40.0	-41.2	21.5	0.00e+00	0	39	0	805306368	52	6550
2026-01-01 19:14:31.60	329.15	12.44	-39.9	-41.0	21.7	0.00e+00	0	39	0	807403520	52	6455
2026-01-01 19:14:32.61	328.98	12.40	-39.8	-40.9	21.7	0.00e+00	91	39	0	809500672	52	6365
2026-01-01 19:14:33.62	328.80	12.36	-39.9	-41.0	21.5	0.00e+00	0	39	0	811597824	52	6433
2026-01-01 19:14:34.63	328.62	12.32	-39.9	-41.0	21.7	0.00e+00	48	39	0	812646400	52	6403
2026-01-01 19:14:35.64	328.44	12.28	-39.8	-40.9	21.7	0.00e+00	0	39	0	814743552	52	6382
2026-01-01 19:14:36.65	328.26	12.24	-39.7	-40.8	21.9	0.00e+00	0	39	0	816840704	52	6257
2026-01-01 19:14:37.66	328.09	12.20	-39.7	-40.8	21.8	0.00e+00	0	39	0	818937856	52	6260
2026-01-01 19:14:38.67	327.91	12.16	-39.7	-40.8	21.8	0.00e+00	0	39	0	821035008	52	6271
2026-01-01 19:14:39.68	327.74	12.12	-40.0	-41.2	21.5	0.00e+00	44	39	0	822083584	52	6563
2026-01-01 19:14:40.69	327.56	12.08	-40.0	-41.1	21.6	0.00e+00	0	39	0	824180736	52	6496
2026-01-01 19:14:41.70	327.39	12.03	-40.0	-41.1	21.6	0.00e+00	92	39	0	826277888	52	6537
2026-01-01 19:14:42.71	327.21	11.99	-39.9	-41.1	21.6	0.00e+00	0	39	0	828375040	52	6484
2026-01-01 19:14:43.72	327.04	11.95	-39.9	-41.1	21.6	0.00e+00	0	39	0	830472192	52	6482
2026-01-01 19:14:44.72	326.87	11.91	-39.9	-41.0	21.6	0.00e+00	0	39	0	831520768	52	6422
2026-01-01 19:14:45.73	326.69	11.87	-39.9	-41.0	21.7	0.00e+00	0	39	0	833617920	52	6443
2026-01-01 19:14:46.74	326.52	11.83	-40.0	-41.2	21.5	0.00e+00	46	39	0	835715072	52	6543
2026-01-01 19:14:47.75	326.35	11.78	-40.0	-41.1	21.5	0.00e+00	0	39	0	837812224	52	6511
2026-01-01 19:14:48.76	326.18	11.74	-40.2	-41.4	21.2	0.00e+00	91	39	0	839909376	52	6705
2026-01-01 19:14:49.77	326.01	11.70	-40.4	-41.6	21.2	0.00e+00	0	39	0	840957952	52	6891
2026-01-01 19:14:50.78	325.84	11.66	-40.3	-41.5	21.2	0.00e+00	0	39	0	843055104	52	6791
2026-01-01 19:14:51.79	325.67	11.61	-40.4	-41.5	21.2	0.00e+00	0	39	0	845152256	52	6814
2026-01-01 19:14:52.80	325.50	11.57	-40.0	-41.2	21.7	0.00e+00	0	39	0	847249408	52	6545
2026-01-01 19:14:53.81	325.33	11.53	-39.6	-40.7	21.9	0.00e+00	43	39	0	849346560	52	6191
2026-01-01 19:14:54.82	325.16	11.48	-39.5	-40.5	22.1	0.00e+00	0	39	0	851443712	52	6050
2026-01-01 19:14:55.83	324.99	11.44	-39.5	-40.5	22.0	0.00e+00	66	39	0	852492288	52	6073
2026-01-01 19:14:56.84	324.83	11.40	-39.5	-40.5	22.0	0.00e+00	0	39	0	854589440	52	6092
2026-01-01 19:14:57.85	324.66	11.35	-39.3	-40.3	22.1	0.00e+00	0	39	0	856686592	52	5955
2026-01-01 19:14:58.86	324.49	11.31	-39.6	-40.7	21.9	0.00e+00	0	39	0	858783744	52	6175
2026-01-01 19:14:59.86	324.33	11.26	-39.9	-41.0	21.6	0.00e+00	0	39	0	860880896	52	6436
2026-01-01 19:15:00.88	324.16	11.22	-40.3	-41.5	21.4	0.00e+00	48	39	0	861929472	52	6778
2026-01-01 19:15:01.89	324.00	11.17	-40.5	-41.7	20.9	0.00e+00	0	39	0	864026624	52	6970
2026-01-01 19:15:02.89	323.84	11.13	-40.8	-42.1	20.5	0.00e+00	90	39	0	866123776	54	6511
2026-01-01 19:15:03.90	323.67	11.08	-40.9	-42.2	20.5	0.00e+00	0	39	0	868220928	54	6562
2026-01-01 19:15:04.91	323.51	11.04	-41.1	-42.4	20.4	0.00e+00	41	39	0	870318080	54	6728
2026-01-01 19:15:05.92	323.35	10.99	-41.0	-42.4	20.4	0.00e+00	0	39	0	871366656	54	6697
2026-01-01 19:15:06.93	323.19	10.95	-40.9	-42.2	20.5	0.00e+00	0	39	0	873463808	54	6597
2026-01-01 19:15:07.94	323.02	10.90	-40.8	-42.1	20.7	0.00e+00	47	39	0	875560960	54	6477
2026-01-01 19:15:08.95	322.86	10.86	-40.7	-42.0	20.8	0.00e+00	0	39	0	877658112	54	6408
2026-01-01 19:15:09.96	322.70	10.81	-40.5	-41.7	21.0	0.00e+00	45	39	0	879755264	54	6209
2026-01-01 19:15:10.97	322.54	10.77	-40.5	-41.7	21.0	0.00e+00	0	39	0	880803840	54	6216
2026-01-01 19:15:11.98	322.38	10.72	-40.5	-41.7	21.2	0.00e+00	64	39	0	882900992	54	6192
2026-01-01 19:15:12.99	322.22	10.67	-40.4	-41.6	21.0	0.00e+00	0	39	0	884998144	54	6155
2026-01-01 19:15:14.00	322.07	10.63	-40.7	-42.0	20.6	0.00e+00	0	39	0	887095296	54	6412
2026-01-01 19:15:15.01	321.91	10.58	-41.2	-42.6	20.1	0.00e+00	18	39	0	889192448	54	6882
2026-01-01 19:15:16.02	321.75	10.54	-41.8	-43.3	19.5	0.00e+00	0	39	0	890241024	56	6675
2026-01-01 19:15:17.03	321.59	10.49	-42.4	-44.1	18.8	0.00e+00	50	39	0	892338176	56	7281
2026-01-01 19:15:18.05	321.43	10.44	-43.0	-44.9	18.0	0.00e+00	0	39	0	894435328	58	7143
2026-01-01 19:15:19.05	321.28	10.39	-43.3	-45.3	17.7	0.00e+00	13	39	0	896532480	58	7497
2026-01-01 19:15:20.06	321.12	10.35	-43.2	-45.1	17.9	0.00e+00	0	39	0	898629632	58	7300
2026-01-01 19:15:21.07	320.97	10.30	-43.3	-45.3	17.8	0.00e+00	0	39	0	899678208	58	7447
2026-01-01 19:15:22.08	320.82	10.25	-43.0	-44.8	18.3	0.00e+00	0	39	0	901775360	58	7040
2026-01-01 19:15:23.09	320.66	10.21	-42.6	-44.3	18.6	0.00e+00	33	39	0	903872512	58	6684
2026-01-01 19:15:24.10	320.51	10.16	-42.4	-44.0	18.9	0.00e+00	60	39	0	905969664	58	6445
2026-01-01 19:15:25.11	320.36	10.11	-42.6	-44.3	18.6	0.00e+00	0	39	0	908066816	58	6624
2026-01-01 19:15:26.12	320.20	10.06	-42.3	-43.8	19.1	0.00e+00	83	39	0	909115392	58	6310
2026-01-01 19:15:27.13	320.05	10.02	-42.1	-43.6	19.3	0.00e+00	0	39	0	911212544	58	6163
2026-01-01 19:15:28.14	319.90	9.97	-42.1	-43.7	19.2	0.00e+00	0	39	0	913309696	58	6209
2026-01-01 19:15:29.15	319.75	9.92	-42.0	-43.5	19.4	0.00e+00	0	39	0	915406848	58	6069
2026-01-01 19:15:30.16	319.60	9.87	-42.0	-43.5	19.3	0.00e+00	0	39	0	917504000	58	6065
2026-01-01 19:15:31.17	319.45	9.82	-41.7	-43.1	19.8	0.00e+00	33	39	0	919601152	56	6496
2026-01-01 19:15:32.18	319.30	9.78	-41.4	-42.8	20.0	0.00e+00	0	39	0	920649728	56	6284
2026-01-01 19:15:33.19	319.15	9.73	-41.2	-42.6	20.4	0.00e+00	81	39	0	922746880	56	6108
2026-01-01 19:15:34.20	319.00	9.68	-41.1	-42.4	20.4	0.00e+00	0	39	0	924844032	56	6001
2026-01-01 19:15:35.21	318.85	9.63	-41.2	-42.5	20.3	0.00e+00	0	39	0	926941184	56	6058
2026-01-01 19:15:36.21	318.71	9.58	-41.2	-42.5	20.2	0.00e+00	22	39	0	929038336	56	6096
2026-01-01 19:15:37.22	318.56	9.53	-41.3	-42.6	20.2	0.00e+00	0	39	0	930086912	56	6144
2026-01-01 19:15:38.23	318.41	9.49	-41.2	-42.5	20.1	0.00e+00	47	39	0	932184064	56	6091
2026-01-01 19:15:39.24	318.27	9.44	-41.5	-42.8	20.1	0.00e+00	0	39	0	934281216	56	6290
2026-01-01 19:15:40.25	318.12	9.39	-41.3	-42.7	20.0	0.00e+00	76	39	0	936378368	56	6196
2026-01-01 19:15:41.26	317.98	9.34	-41.3	-42.6	20.3	0.00e+00	0	39	0	938475520	56	6159
2026-01-01 19:15:42.27	317.83	9.29	-41.1	-42.3	20.3	0.00e+00	0	39	0	939524096	56	5963
2026-01-01 19:15:43.28	317.69	9.24	-40.8	-42.1	20.6	0.00e+00	0	39	0	941621248	56	5773
2026-01-01 19:15:44.29	317.55	9.19	-40.5	-41.7	20.4	0.00e+00	0	39	0	943718400	54	6242
2026-01-01 19:15:45.30	317.40	9.14	-40.5	-41.8	20.1	0.00e+00	0	39	0	945815552	54	6268
2026-01-01 19:15:46.31	317.26	9.09	-40.2	-41.7	19.5	0.00e+00	0	39	0	947912704	54	6180
2026-01-01 19:15:47.32	317.12	9.04	-40.1	-41.5	19.3	0.00e+00	52	39	0	948961280	54	6092
2026-01-01 19:15:48.33	316.98	8.99	-40.0	-41.4	19.8	0.00e+00	0	39	0	951058432	54	5977
2026-01-01 19:15:49.34	316.84	8.94	-40.1	-41.4	20.1	0.00e+00	10	39	0	953155584	54	5995
2026-01-01 19:15:50.35	316.70	8.89	-40.1	-41.3	20.9	0.00e+00	0	39	0	955252736	54	5909
2026-01-01 19:15:51.36	316.56	8.84	-40.1	-41.3	21.2	0.00e+00	0	39	0	957349888	54	5923
2026-01-01 19:15:52.37	316.42	8.79	-40.1	-41.3	21.2	0.00e+00	0	39	0	958398464	54	5918
2026-01-01 19:15:53.38	316.28	8.74	-40.4	-41.6	21.1	0.00e+00	0	39	0	960495616	54	6158
2026-01-01 19:15:54.39	316.14	8.69	-40.2	-41.3	21.0	0.00e+00	83	39	0	962592768	54	5958
2026-01-01 19:15:55.40	316.00	8.64	-40.4	-41.6	21.0	0.00e+00	0	39	0	964689920	54	6127
2026-01-01 19:15:56.41	315.86	8.59	-40.6	-41.8	20.7	0.00e+00	89	39	0	966787072	54	6294
2026-01-01 19:15:57.42	315.73	8.54	-40.8	-42.0	20.5	0.00e+00	0	39	0	967835648	54	6437
2026-01-01 19:15:58.43	315.59	8.49	-40.8	-42.1	20.5	0.00e+00	0	39	0	969932800	54	6492
2026-01-01 19:15:59.44	315.45	8.44	-40.9	-42.2	20.2	0.00e+00	0	39	0	972029952	54	6572
2026-01-01 19:16:00.45	315.32	8.39	-40.7	-41.9	20.7	0.00e+00	0	39	0	974127104	54	6354
2026-01-01 19:16:01.46	315.18	8.34	-40.9	-42.2	20.5	0.00e+00	73	39	0	976224256	54	6546
2026-01-01 19:16:02.47	315.05	8.29	-40.9	-42.2	20.4	0.00e+00	0	39	0	977272832	54	6573
2026-01-01 19:16:03.48	314.92	8.24	-40.8	-42.1	20.5	0.00e+00	92	39	0	979369984	54	6472
2026-01-01 19:16:04.48	314.78	8.19	-40.8	-42.0	20.5	0.00e+00	0	39	0	981467136	54	6457
2026-01-01 19:16:05.49	314.65	8.14	-40.7	-42.0	20.6	0.00e+00	0	39	0	983564288	54	6401
2026-01-01 19:16:06.50	314.52	8.09	-40.6	-41.9	20.8	0.00e+00	0	39	0	985661440	54	6318
2026-01-01 19:16:07.52	314.38	8.04	-40.7	-41.9	20.5	0.00e+00	0	39	0	987758592	54	6360
2026-01-01 19:16:08.53	314.25	7.99	-40.7	-42.0	20.5	0.00e+00	32	39	0	988807168	54	6448
2026-01-01 19:16:09.53	314.12	7.94	-40.9	-42.2	20.5	0.00e+00	0	39	0	990904320	54	6548
2026-01-01 19:16:10.54	313.99	7.89	-40.5	-41.8	20.7	0.00e+00	92	39	0	993001472	54	6278
2026-01-01 19:16:11.55	313.86	7.84	-40.5	-41.8	20.8	0.00e+00	0	39	0	995098624	54	6287
2026-01-01 19:16:12.56	313.73	7.79	-40.7	-42.0	20.5	0.00e+00	0	39	0	997195776	54	6420
2026-01-01 19:16:13.57	313.60	7.74	-40.6	-41.9	20.8	0.00e+00	0	39	0	998244352	54	6354
2026-01-01 19:16:14.58	313.47	7.69	-40.0	-41.2	21.3	0.00e+00	0	39	0	1000341504	54	5848
2026-01-01 19:16:15.59	313.34	7.63	-39.8	-40.9	21.4	0.00e+00	47	39	0	1002438656	54	5685
2026-01-01 19:16:16.60	313.21	7.58	-39.6	-40.7	21.8	0.00e+00	0	39	0	1004535808	52	6176
2026-01-01 19:16:17.61	313.09	7.53	-39.4	-40.5	21.8	0.00e+00	78	39	0	1006632960	52	6051
2026-01-01 19:16:18.62	312.96	7.48	-39.4	-40.5	21.9	0.00e+00	0	39	0	1007681536	52	6046
2026-01-01 19:16:19.63	312.83	7.43	-39.3	-40.3	22.0	0.00e+00	72	39	0	1009778688	52	5946
2026-01-01 19:16:20.64	312.71	7.38	-39.3	-40.3	22.0	0.00e+00	0	39	0	1011875840	52	5942
2026-01-01 19:16:21.65	312.58	7.33	-39.4	-40.4	21.9	0.00e+00	0	39	0	1013972992	52	6009
2026-01-01 19:16:22.66	312.46	7.28	-39.4	-40.5	21.8	0.00e+00	0	39	0	1016070144	52	6052
2026-01-01 19:16:23.67	312.33	7.23	-39.6	-40.7	21.6	0.00e+00	0	39	0	1017118720	52	6182
2026-01-01 19:16:24.68	312.21	7.17	-39.6	-40.7	21.6	0.00e+00	43	39	0	1019215872	52	6204
2026-01-01 19:16:25.69	312.08	7.12	-39.6	-40.7	21.6	0.00e+00	0	39	0	1021313024	52	6241
2026-01-01 19:16:26.69	311.96	7.07	-39.7	-40.8	21.5	0.00e+00	92	39	0	1023410176	52	6253
2026-01-01 19:16:27.70	311.84	7.02	-39.7	-40.8	21.6	0.00e+00	0	39	0	1025507328	52	6288
2026-01-01 19:16:28.71	311.71	6.97	-39.8	-40.9	21.5	0.00e+00	0	39	0	1026555904	52	6365
2026-01-01 19:16:29.72	311.59	6.92	-39.4	-40.5	21.8	0.00e+00	0	39	0	1028653056	52	6083
2026-01-01 19:16:30.73	311.47	6.87	-39.6	-40.7	21.6	0.00e+00	0	39	0	1030750208	52	6224
2026-01-01 19:16:31.74	311.35	6.82	-39.4	-40.5	21.8	0.00e+00	42	39	0	1032847360	52	6078
2026-01-01 19:16:32.75	311.23	6.77	-39.5	-40.6	21.8	0.00e+00	0	39	0	1034944512	52	6125
2026-01-01 19:16:33.76	311.11	6.71	-39.6	-40.7	21.6	0.00e+00	92	39	0	1035993088	52	6224
2026-01-01 19:16:34.77	310.99	6.66	-39.4	-40.4	21.9	0.00e+00	0	39	0	1038090240	52	6019
2026-01-01 19:16:35.78	310.87	6.61	-39.5	-40.6	21.7	0.00e+00	0	39	0	1040187392	52	6129
2026-01-01 19:16:36.79	310.75	6.56	-39.6	-40.8	21.5	0.00e+00	8	39	0	1042284544	52	6254
2026-01-01 19:16:37.80	310.63	6.51	-39.7	-40.8	21.5	0.00e+00	0	39	0	1044381696	52	6299
2026-01-01 19:16:38.81	310.51	6.46	-40.0	-41.1	21.2	0.00e+00	45	39	0	1045430272	52	6511
2026-01-01 19:16:39.82	310.39	6.40	-39.9	-41.0	21.3	0.00e+00	0	39	0	1047527424	52	6440
2026-01-01 19:16:40.83	310.28	6.35	-40.0	-41.2	21.1	0.00e+00	92	39	0	1049624576	52	6602
2026-01-01 19:16:41.84	310.16	6.30	-40.2	-41.4	21.0	0.00e+00	0	39	0	1051721728	52	6724
2026-01-01 19:16:42.85	310.04	6.25	-40.3	-41.5	20.8	0.00e+00	0	39	0	1053818880	52	6848
2026-01-01 19:16:43.86	309.93	6.20	-40.3	-41.5	20.9	0.00e+00	0	39	0	1054867456	52	6792
2026-01-01 19:16:44.86	309.81	6.15	-40.3	-41.6	20.8	0.00e+00	0	39	0	1056964608	52	6862
2026-01-01 19:16:45.87	309.70	6.10	-40.4	-41.7	20.7	0.00e+00	44	39	0	1059061760	52	6970
2026-01-01 19:16:46.88	309.58	6.04	-40.4	-41.7	20.8	0.00e+00	0	39	0	1061158912	52	6931
2026-01-01 19:16:47.89	309.47	5.99	-40.6	-41.9	20.5	0.00e+00	46	39	0	1063256064	52	7139
2026-01-01 19:16:48.90	309.35	5.94	-40.7	-42.0	20.3	0.00e+00	0	39	0	1065353216	52	7206
2026-01-01 19:16:49.91	309.24	5.89	-40.6	-41.9	20.1	0.00e+00	0	39	0	1066401792	52	7116
2026-01-01 19:16:50.92	309.12	5.84	-40.7	-42.0	20.3	0.00e+00	0	39	0	1068498944	54	6392
2026-01-01 19:16:51.93	309.01	5.79	-40.7	-42.1	20.3	0.00e+00	0	39	0	1070596096	54	6472
2026-01-01 19:16:52.94	308.90	5.74	-40.6	-41.9	20.5	0.00e+00	29	39	0	1072693248	54	6329
2026-01-01 19:16:53.95	308.79	5.68	-40.6	-41.9	20.5	0.00e+00	0	39	0	1074790400	54	6344
2026-01-01 19:16:54.96	308.68	5.63	-40.6	-41.9	20.4	0.00e+00	92	39	0	1075838976	54	6321
2026-01-01 19:16:55.97	308.56	5.58	-40.7	-41.9	20.3	0.00e+00	0	39	0	1077936128	54	6388
2026-01-01 19:16:56.98	308.45	5.53	-40.5	-41.8	20.2	0.00e+00	43	39	0	1080033280	54	6266
2026-01-01 19:16:57.99	308.34	5.48	-40.4	-41.6	20.4	0.00e+00	0	39	0	1082130432	54	6138
2026-01-01 19:16:59.00	308.23	5.43	-40.4	-41.7	20.5	0.00e+00	0	39	0	1084227584	54	6196
2026-01-01 19:17:00.01	308.12	5.37	-40.3	-41.6	20.6	0.00e+00	0	39	0	1085276160	54	6126
2026-01-01 19:17:01.02	308.01	5.32	-40.4	-41.7	20.5	0.00e+00	0	39	0	1087373312	54	6209
2026-01-01 19:17:02.03	307.90	5.27	-40.4	-41.6	20.5	0.00e+00	12	39	0	1089470464	54	6152
2026-01-01 19:17:03.04	307.80	5.22	-40.4	-41.7	20.7	0.00e+00	0	39	0	1091567616	54	6193
2026-01-01 19:17:04.05	307.69	5.17	-40.6	-41.9	20.2	0.00e+00	42	39	0	1093664768	54	6355
2026-01-01 19:17:05.05	307.58	5.12	-40.4	-41.6	20.7	0.00e+00	0	39	0	1094713344	54	6161
2026-01-01 19:17:06.06	307.47	5.07	-40.0	-41.2	20.9	0.00e+00	0	39	0	1096810496	54	5880
2026-01-01 19:17:07.07	307.37	5.01	-40.0	-41.2	21.0	0.00e+00	0	39	0	1098907648	54	5841
2026-01-01 19:17:08.08	307.26	4.96	-40.1	-41.3	20.8	0.00e+00	0	39	0	1101004800	54	5910
2026-01-01 19:17:09.09	307.15	4.91	-40.2	-41.5	20.6	0.00e+00	59	39	0	1103101952	54	6063
2026-01-01 19:17:10.10	307.05	4.86	-40.3	-41.6	20.7	0.00e+00	0	39	0	1104150528	54	6137
2026-01-01 19:17:11.11	306.94	4.81	-40.4	-41.7	20.4	0.00e+00	92	39	0	1106247680	54	6185
2026-01-01 19:17:12.12	306.84	4.76	-40.6	-41.9	20.4	0.00e+00	0	39	0	1108344832	54	6348
2026-01-01 19:17:13.13	306.73	4.70	-40.8	-42.2	20.0	0.00e+00	33	39	0	1110441984	54	6581
2026-01-01 19:17:14.14	306.63	4.65	-40.9	-42.3	20.1	0.00e+00	0	39	0	1112539136	54	6639
2026-01-01 19:17:15.15	306.53	4.60	-41.3	-42.7	19.5	0.00e+00	0	39	0	1113587712	54	6958
2026-01-01 19:17:16.16	306.42	4.55	-41.1	-42.5	19.7	0.00e+00	44	39	0	1115684864	54	6802
2026-01-01 19:17:17.17	306.32	4.50	-41.0	-42.4	19.7	0.00e+00	0	39	0	1117782016	54	6758
2026-01-01 19:17:18.18	306.22	4.45	-41.3	-42.7	19.5	0.00e+00	92	39	0	1119879168	54	7006
2026-01-01 19:17:19.19	306.11	4.40	-41.3	-42.7	19.6	0.00e+00	0	39	0	1121976320	54	6997
2026-01-01 19:17:20.20	306.01	4.34	-41.1	-42.5	19.7	0.00e+00	0	39	0	1123024896	54	6814
2026-01-01 19:17:21.21	305.91	4.29	-40.9	-42.2	20.0	0.00e+00	0	39	0	1125122048	54	6614
2026-01-01 19:17:22.22	305.81	4.24	-41.0	-42.3	19.9	0.00e+00	0	39	0	1127219200	54	6671
2026-01-01 19:17:23.23	305.71	4.19	-40.7	-42.0	20.2	0.00e+00	44	39	0	1129316352	54	6421
2026-01-01 19:17:24.24	305.61	4.14	-40.3	-41.6	20.5	0.00e+00	0	39	0	1131413504	54	6118
2026-01-01 19:17:25.25	305.51	4.09	-40.6	-41.9	20.1	0.00e+00	75	39	0	1133510656	54	6387
2026-01-01 19:17:26.26	305.41	4.04	-40.4	-41.6	20.5	0.00e+00	0	39	0	1134559232	54	6166
2026-01-01 19:17:27.27	305.31	3.99	-40.1	-41.4	20.7	0.00e+00	0	39	0	1136656384	54	5965
2026-01-01 19:17:28.28	305.21	3.93	-40.1	-41.3	20.7	0.00e+00	0	39	0	1138753536	54	5911
2026-01-01 19:17:29.29	305.11	3.88	-40.1	-41.3	20.6	0.00e+00	0	39	0	1140850688	54	5929
2026-01-01 19:17:30.30	305.01	3.83	-39.9	-41.1	20.8	0.00e+00	0	39	0	1142947840	54	5783
2026-01-01 19:17:31.31	304.91	3.78	-40.0	-41.2	20.8	0.00e+00	0	39	0	1143996416	54	5875
2026-01-01 19:17:32.32	304.82	3.73	-40.1	-41.3	20.7	0.00e+00	73	39	0	1146093568	54	5954
2026-01-01 19:17:33.33	304.72	3.68	-40.0	-41.2	20.7	0.00e+00	0	39	0	1148190720	54	5830
2026-01-01 19:17:34.34	304.62	3.63	-40.3	-41.6	20.4	0.00e+00	67	39	0	1150287872	54	6149
2026-01-01 19:17:35.35	304.53	3.58	-40.2	-41.5	20.5	0.00e+00	0	39	0	1152385024	54	6039
2026-01-01 19:17:36.36	304.43	3.52	-40.4	-41.7	20.2	0.00e+00	0	39	0	1153433600	54	6215
2026-01-01 19:17:37.37	304.33	3.47	-40.7	-42.0	20.0	0.00e+00	0	39	0	1155530752	54	6444
2026-01-01 19:17:38.38	304.24	3.42	-40.9	-42.3	19.8	0.00e+00	0	39	0	1157627904	54	6631
2026-01-01 19:17:39.39	304.14	3.37	-41.4	-43.0	19.0	0.00e+00	37	39	0	1159725056	54	7177
2026-01-01 19:17:40.40	304.05	3.32	-41.6	-43.1	18.9	0.00e+00	0	39	0	1161822208	54	7317
2026-01-01 19:17:41.41	303.95	3.27	-41.4	-42.9	19.2	0.00e+00	91	39	0	1162870784	54	7108
2026-01-01 19:17:42.42	303.86	3.22	-41.7	-43.3	18.8	0.00e+00	0	39	0	1164967936	54	7428
2026-01-01 19:17:43.43	303.77	3.17	-41.7	-43.2	18.8	0.00e+00	0	39	0	1167065088	54	7414
2026-01-01 19:17:44.44	303.67	3.12	-42.2	-43.9	18.2	0.00e+00	0	39	0	1169162240	56	7160
2026-01-01 19:17:45.45	303.58	3.06	-42.2	-44.0	18.0	0.00e+00	0	39	0	1171259392	56	7201
2026-01-01 19:17:46.46	303.49	3.01	-48.1	-61.3	3.5	0.00e+00	36	39	0	1172307968	60	42102
2026-01-01 19:17:47.47	303.39	2.96	-48.9	-64.0	3.6	1.51e+00	0	39	104	1172307968	60	57045
2026-01-01 19:17:48.48	303.30	2.91	-49.2	-64.4	3.6	1.51e+00	0	39	104	1172307968	60	59674
2026-01-01 19:17:49.49	303.21	2.86	-49.3	-64.5	3.6	1.51e+00	0	39	104	1172307968	60	60853
2026-01-01 19:17:50.50	303.12	2.81	-49.4	-64.6	3.6	1.51e+00	0	39	104	1172307968	60	61595
2026-01-01 19:17:51.51	303.03	2.76	-49.5	-64.7	3.6	1.51e+00	0	39	104	1172307968	60	61980
2026-01-01 19:17:52.52	302.94	2.71	-49.5	-64.7	3.6	1.51e+00	0	39	104	1172307968	60	62243
2026-01-01 19:17:53.53	302.84	2.66	-49.5	-64.7	3.6	1.51e+00	0	39	104	1172307968	60	62093
2026-01-01 19:17:54.54	302.75	2.61	-49.5	-64.8	3.6	1.51e+00	0	39	104	1172307968	60	62516
2026-01-01 19:17:55.55	302.66	2.56	-49.5	-64.7	3.6	1.51e+00	0	39	104	1172307968	60	62023
2026-01-01 19:17:56.56	302.58	2.51	-49.3	-64.7	3.6	1.51e+00	0	39	104	1172307968	60	62001
