passes_logs/2026/01/01/R4.6S_Anadyr/R4.6S_Anadyr__20260101_151724_NOAA_21_JPSS-2_rec.log

#Pass ID: 20260101_151724_NOAA 21 (JPSS-2)
#Satellite: NOAA 21 (JPSS-2)
#Configuration: NOAA-21
#almurnet v.1.7.20251203
#Start time: 2026-01-01 15:17:27

#Version: 2.2.20231116
#Station: R4.6S_Anadyr
#Location: 177.4865 lon 64.73178 lat
#TLE: 1 54234U 22150A   25364.85835894  .00000203  00000+0  11731-3 0  9998
#TLE: 2 54234  98.7482 300.9425 0001352 357.8195   2.2975 14.19530071162667

#Time	Az	El	Level	Level2	SNR	BER	BlckErr	Temp	State	Recorded	gain1	gain2
2026-01-01 15:17:27.12	21.84	0.13	-49.2	-66.9	3.5	3.02e+01	0	36	0	0	60	84962
2026-01-01 15:17:28.13	21.83	0.19	-49.0	-61.9	3.5	1.52e+00	0	38	104	0	60	43730
2026-01-01 15:17:29.14	21.82	0.26	-49.0	-61.9	3.5	1.52e+00	0	38	104	0	60	43575
2026-01-01 15:17:30.15	21.81	0.32	-49.1	-61.9	3.5	1.52e+00	0	38	104	0	60	43670
2026-01-01 15:17:31.16	21.80	0.38	-49.1	-62.0	3.5	1.52e+00	0	38	104	0	60	43999
2026-01-01 15:17:32.17	21.78	0.44	-49.0	-61.9	3.5	1.52e+00	0	38	104	0	60	43758
2026-01-01 15:17:33.18	21.77	0.50	-49.1	-61.9	3.5	1.51e+00	0	38	104	0	60	43755
2026-01-01 15:17:34.19	21.76	0.56	-49.1	-61.9	3.5	1.51e+00	0	38	104	0	60	43869
2026-01-01 15:17:35.20	21.75	0.62	-49.1	-61.9	3.5	1.51e+00	0	38	104	0	60	43813
2026-01-01 15:17:36.21	21.74	0.68	-49.0	-61.9	3.5	1.51e+00	0	38	104	0	60	43626
2026-01-01 15:17:37.22	21.72	0.74	-48.9	-61.8	3.5	1.52e+00	0	38	104	0	60	43173
2026-01-01 15:17:38.23	21.71	0.80	-48.9	-61.7	3.5	1.52e+00	0	38	104	0	60	42828
2026-01-01 15:17:39.24	21.70	0.87	-48.7	-61.6	3.5	1.52e+00	0	38	104	0	60	42138
2026-01-01 15:17:40.25	21.69	0.93	-48.5	-61.3	3.5	1.52e+00	0	38	104	0	60	40898
2026-01-01 15:17:41.26	21.67	0.99	-48.3	-61.2	3.5	1.52e+00	0	38	104	0	60	40420
2026-01-01 15:17:42.27	21.66	1.05	-48.1	-61.0	3.5	1.52e+00	0	38	104	0	60	39505
2026-01-01 15:17:43.28	21.65	1.11	-47.8	-60.6	3.5	1.52e+00	0	38	104	0	60	37514
2026-01-01 15:17:44.29	21.64	1.18	-47.6	-60.5	3.5	1.52e+00	0	38	104	0	60	37146
2026-01-01 15:17:45.30	21.62	1.24	-47.6	-60.5	3.5	1.52e+00	0	38	104	0	60	37080
2026-01-01 15:17:46.31	21.61	1.30	-47.6	-60.5	3.5	1.52e+00	0	38	104	0	60	37124
2026-01-01 15:17:47.32	21.60	1.36	-47.6	-60.4	3.5	1.52e+00	0	38	104	0	60	36817
2026-01-01 15:17:48.33	21.58	1.43	-47.6	-60.3	3.5	1.52e+00	0	38	104	0	60	36339
2026-01-01 15:17:49.34	21.57	1.49	-47.6	-60.1	3.5	1.52e+00	0	38	104	0	60	35572
2026-01-01 15:17:50.35	21.56	1.55	-47.5	-60.1	3.5	1.52e+00	0	38	104	0	60	35326
2026-01-01 15:17:51.36	21.55	1.62	-47.5	-59.9	3.5	1.52e+00	0	38	104	0	60	34829
2026-01-01 15:17:52.37	21.53	1.68	-47.5	-60.0	3.5	1.51e+00	0	38	104	0	60	35027
2026-01-01 15:17:53.38	21.52	1.74	-47.5	-60.0	3.5	1.52e+00	0	38	104	0	60	34908
2026-01-01 15:17:54.39	21.51	1.81	-47.5	-59.9	3.5	1.52e+00	0	38	104	0	60	34848
2026-01-01 15:17:55.40	21.49	1.87	-47.5	-60.1	3.5	1.51e+00	0	38	104	0	60	35558
2026-01-01 15:17:56.41	21.48	1.93	-47.6	-60.2	3.5	1.51e+00	0	38	104	0	60	35712
2026-01-01 15:17:57.42	21.47	2.00	-47.6	-60.3	3.5	1.52e+00	0	38	104	0	60	36493
2026-01-01 15:17:58.43	21.45	2.06	-47.6	-60.5	3.5	1.52e+00	0	38	104	0	60	36986
2026-01-01 15:17:59.44	21.44	2.13	-47.6	-60.5	3.5	1.52e+00	0	38	104	0	60	37261
2026-01-01 15:18:00.45	21.42	2.19	-47.6	-60.4	3.5	1.52e+00	0	38	104	0	60	36816
2026-01-01 15:18:01.46	21.41	2.25	-47.6	-60.4	3.5	1.51e+00	0	38	104	0	60	36718
2026-01-01 15:18:02.47	21.40	2.32	-47.6	-60.4	3.5	1.52e+00	0	38	104	0	60	36761
2026-01-01 15:18:03.48	21.38	2.38	-47.6	-60.4	3.5	1.52e+00	0	39	104	0	60	36557
2026-01-01 15:18:04.49	21.37	2.45	-47.6	-60.4	3.5	1.52e+00	0	38	104	0	60	36626
2026-01-01 15:18:05.50	21.35	2.51	-47.5	-60.2	3.5	1.52e+00	0	38	104	0	60	35985
2026-01-01 15:18:06.51	21.34	2.58	-47.5	-59.9	3.5	1.52e+00	0	38	104	0	60	34651
2026-01-01 15:18:07.52	21.32	2.65	-47.5	-59.6	3.5	1.52e+00	0	39	104	0	60	33566
2026-01-01 15:18:08.53	21.31	2.71	-47.5	-59.1	3.5	1.52e+00	0	39	104	0	60	31766
2026-01-01 15:18:09.54	21.30	2.78	-47.4	-58.8	3.5	1.51e+00	0	39	104	0	60	30688
2026-01-01 15:18:10.55	21.28	2.84	-47.4	-59.0	3.5	1.51e+00	0	39	104	0	60	31240
2026-01-01 15:18:11.56	21.27	2.91	-47.5	-59.3	3.5	1.52e+00	0	39	104	0	60	32370
2026-01-01 15:18:12.57	21.25	2.97	-47.5	-59.3	3.5	1.51e+00	0	39	104	0	60	32329
2026-01-01 15:18:13.58	21.24	3.04	-47.5	-59.2	3.5	1.52e+00	0	39	104	0	60	31856
2026-01-01 15:18:14.59	21.22	3.11	-47.3	-58.0	3.6	1.51e+00	0	39	104	0	60	27850
2026-01-01 15:18:15.60	21.21	3.17	-47.1	-56.2	4.7	9.46e-01	122	39	104	0	60	22638
2026-01-01 15:18:16.61	21.19	3.24	-46.5	-53.4	6.8	2.11e-01	123	39	104	0	60	16432
2026-01-01 15:18:17.62	21.18	3.31	-46.1	-51.0	8.2	9.93e-02	123	39	0	1048576	60	12515
2026-01-01 15:18:18.63	21.16	3.38	-45.5	-49.6	9.6	1.56e-02	122	39	0	4194304	60	10616
2026-01-01 15:18:19.64	21.14	3.44	-44.7	-48.2	11.3	1.87e-03	123	39	0	7340032	60	8987
2026-01-01 15:18:20.65	21.13	3.51	-44.3	-47.3	12.3	4.03e-04	123	39	0	10485760	60	8151
2026-01-01 15:18:21.66	21.11	3.58	-44.1	-47.1	12.5	9.91e-05	123	39	0	13631488	60	7916
2026-01-01 15:18:22.67	21.10	3.65	-44.2	-47.2	12.4	1.19e-04	123	39	0	16777216	60	8038
2026-01-01 15:18:23.68	21.08	3.71	-44.3	-47.4	12.2	1.88e-04	123	39	0	19922944	60	8186
2026-01-01 15:18:24.69	21.07	3.78	-44.6	-47.9	11.7	4.04e-04	123	39	0	23068672	60	8706
2026-01-01 15:18:25.70	21.05	3.85	-47.3	-57.5	3.6	7.47e-02	0	39	104	26214400	60	26428
2026-01-01 15:18:26.71	21.03	3.92	-40.6	-42.6	5.2	1.47e+00	0	39	104	26214400	60	4715
2026-01-01 15:18:27.72	21.02	3.99	-47.1	-55.2	3.5	6.67e-03	56	39	104	26214400	60	20273
2026-01-01 15:18:28.73	21.00	4.06	-43.3	-46.0	14.1	1.40e-01	115	39	0	26214400	60	7037
2026-01-01 15:18:29.74	20.98	4.13	-41.0	-42.7	14.3	7.00e-07	123	39	0	29360128	50	8509
2026-01-01 15:18:30.75	20.97	4.19	-41.6	-43.3	17.3	3.72e-02	122	39	0	32505856	60	5122
2026-01-01 15:18:31.76	20.95	4.26	-39.8	-41.3	18.4	0.00e+00	122	39	0	35651584	52	6432
2026-01-01 15:18:32.77	20.93	4.33	-39.7	-41.0	18.6	0.00e+00	123	39	0	38797312	52	6266
2026-01-01 15:18:33.77	20.92	4.40	-40.1	-41.6	17.9	0.00e+00	123	39	0	40894464	52	6711
2026-01-01 15:18:34.78	20.90	4.47	-40.0	-41.5	18.1	0.00e+00	122	39	0	45088768	52	6575
2026-01-01 15:18:35.79	20.88	4.54	-40.4	-41.9	18.0	0.00e+00	122	39	0	48234496	54	6150
2026-01-01 15:18:36.81	20.87	4.61	-39.9	-41.3	18.4	0.00e+00	122	39	0	51380224	54	5790
2026-01-01 15:18:37.81	20.85	4.68	-40.3	-41.8	18.0	0.00e+00	123	39	0	54525952	52	6811
2026-01-01 15:18:38.83	20.83	4.75	-39.8	-41.2	18.6	0.00e+00	123	39	0	57671680	52	6387
2026-01-01 15:18:39.84	20.81	4.82	-40.0	-41.5	18.1	0.00e+00	123	39	0	60817408	52	6588
2026-01-01 15:18:40.85	20.80	4.90	-39.9	-41.3	18.6	0.00e+00	120	39	0	63963136	52	6476
2026-01-01 15:18:41.85	20.78	4.97	-39.5	-40.9	19.0	0.00e+00	123	39	0	67108864	52	6171
2026-01-01 15:18:42.86	20.76	5.04	-39.1	-40.4	19.6	0.00e+00	123	39	0	70254592	52	5792
2026-01-01 15:18:43.88	20.74	5.11	-39.0	-40.3	19.6	0.00e+00	123	39	0	73400320	52	5755
2026-01-01 15:18:44.88	20.73	5.18	-39.1	-40.4	19.3	0.00e+00	120	39	0	76546048	52	5855
2026-01-01 15:18:45.89	20.71	5.25	-39.1	-40.3	19.6	0.00e+00	123	39	0	79691776	52	5778
2026-01-01 15:18:46.90	20.69	5.32	-38.7	-40.0	19.6	0.00e+00	120	39	0	82837504	50	6212
2026-01-01 15:18:47.92	20.67	5.40	-38.7	-39.9	20.0	0.00e+00	123	39	0	85983232	50	6182
2026-01-01 15:18:48.92	20.65	5.47	-38.7	-39.9	19.9	0.00e+00	123	39	0	89128960	50	6196
2026-01-01 15:18:49.93	20.63	5.54	-38.7	-39.9	20.0	0.00e+00	122	39	0	92274688	50	6177
2026-01-01 15:18:50.95	20.62	5.62	-38.0	-39.2	20.5	0.00e+00	120	39	0	95420416	50	5719
2026-01-01 15:18:51.95	20.60	5.69	-38.3	-39.5	20.3	0.00e+00	123	39	0	98566144	50	5898
2026-01-01 15:18:52.97	20.58	5.76	-38.2	-39.4	20.4	0.00e+00	123	39	0	101711872	50	5834
2026-01-01 15:18:53.97	20.56	5.84	-37.9	-39.0	20.8	0.00e+00	122	39	0	104857600	50	5586
2026-01-01 15:18:54.98	20.54	5.91	-38.3	-39.5	20.4	0.00e+00	123	39	0	108003328	48	6586
2026-01-01 15:18:56.00	20.52	5.98	-37.9	-39.0	20.8	0.00e+00	122	39	0	111149056	48	6266
2026-01-01 15:18:57.01	20.50	6.06	-38.0	-39.2	20.7	0.00e+00	123	39	0	114294784	48	6354
2026-01-01 15:18:58.01	20.48	6.13	-37.8	-39.0	20.9	0.00e+00	120	39	0	117440512	48	6222
2026-01-01 15:18:59.02	20.46	6.21	-38.0	-39.2	20.6	0.00e+00	123	39	0	120586240	48	6354
2026-01-01 15:19:00.03	20.44	6.28	-37.9	-39.0	20.8	0.00e+00	122	39	0	123731968	48	6267
2026-01-01 15:19:01.04	20.42	6.36	-37.7	-38.9	20.9	0.00e+00	122	39	0	126877696	48	6155
2026-01-01 15:19:02.05	20.40	6.43	-37.8	-38.9	20.9	0.00e+00	122	39	0	130023424	48	6177
2026-01-01 15:19:03.06	20.38	6.51	-37.8	-38.9	20.9	0.00e+00	120	39	0	133169152	48	6195
2026-01-01 15:19:04.07	20.36	6.58	-37.8	-38.9	21.0	0.00e+00	123	39	0	136314880	48	6155
2026-01-01 15:19:05.08	20.34	6.66	-37.7	-38.9	21.0	0.00e+00	120	39	0	139460608	48	6138
2026-01-01 15:19:06.09	20.32	6.73	-37.5	-38.6	21.3	0.00e+00	123	39	0	142606336	48	5930
2026-01-01 15:19:07.10	20.30	6.81	-37.4	-38.5	21.3	0.00e+00	123	39	0	145752064	48	5863
2026-01-01 15:19:08.11	20.28	6.89	-37.5	-38.6	21.3	0.00e+00	123	39	0	148897792	48	5956
2026-01-01 15:19:09.12	20.26	6.96	-37.6	-38.7	21.2	0.00e+00	121	39	0	152043520	48	5996
2026-01-01 15:19:10.13	20.24	7.04	-37.6	-38.7	21.2	0.00e+00	123	39	0	155189248	48	6037
2026-01-01 15:19:11.14	20.22	7.12	-37.7	-38.8	21.1	0.00e+00	123	39	0	158334976	48	6081
2026-01-01 15:19:12.15	20.20	7.19	-37.5	-38.6	21.3	0.00e+00	123	39	0	161480704	48	5930
2026-01-01 15:19:13.16	20.18	7.27	-37.2	-38.3	21.5	0.00e+00	120	39	0	164626432	48	5778
2026-01-01 15:19:14.17	20.15	7.35	-37.3	-38.4	21.5	0.00e+00	122	39	0	167772160	48	5852
2026-01-01 15:19:15.18	20.13	7.43	-37.1	-38.2	21.6	0.00e+00	122	39	0	170917888	48	5680
2026-01-01 15:19:16.19	20.11	7.51	-37.0	-38.1	21.8	0.00e+00	123	39	0	174063616	48	5638
2026-01-01 15:19:17.20	20.09	7.58	-37.2	-38.3	21.6	0.00e+00	123	39	0	177209344	48	5754
2026-01-01 15:19:18.21	20.07	7.66	-37.1	-38.1	21.8	0.00e+00	123	39	0	180355072	48	5645
2026-01-01 15:19:19.22	20.04	7.74	-37.1	-38.2	21.7	0.00e+00	122	39	0	183500800	48	5684
2026-01-01 15:19:20.23	20.02	7.82	-37.0	-38.1	21.8	0.00e+00	123	39	0	186646528	48	5626
2026-01-01 15:19:21.24	20.00	7.90	-37.2	-38.3	21.7	0.00e+00	120	39	0	189792256	48	5738
2026-01-01 15:19:22.25	19.98	7.98	-37.0	-38.0	21.8	0.00e+00	123	39	0	192937984	48	5590
2026-01-01 15:19:23.26	19.95	8.06	-36.9	-38.0	21.8	0.00e+00	122	39	0	196083712	48	5541
2026-01-01 15:19:24.27	19.93	8.14	-37.1	-38.2	21.9	0.00e+00	122	39	0	199229440	48	5660
2026-01-01 15:19:25.28	19.91	8.22	-37.2	-38.3	21.6	0.00e+00	122	39	0	202375168	48	5747
2026-01-01 15:19:26.30	19.88	8.30	-36.8	-37.9	21.9	0.00e+00	120	39	0	205520896	48	5495
2026-01-01 15:19:27.31	19.86	8.38	-37.0	-38.0	21.8	0.00e+00	122	39	0	208666624	48	5586
2026-01-01 15:19:28.32	19.84	8.46	-36.8	-37.8	22.0	0.00e+00	122	39	0	211812352	48	5466
2026-01-01 15:19:29.33	19.81	8.55	-36.7	-37.7	22.1	0.00e+00	122	39	0	214958080	46	6059
2026-01-01 15:19:30.34	19.79	8.63	-36.7	-37.8	22.0	0.00e+00	123	39	0	218103808	46	6077
2026-01-01 15:19:31.35	19.76	8.71	-36.5	-37.6	22.3	0.00e+00	122	39	0	221249536	46	5930
2026-01-01 15:19:32.36	19.74	8.79	-36.6	-37.6	22.2	0.00e+00	123	39	0	224395264	46	5959
2026-01-01 15:19:33.37	19.72	8.87	-36.7	-37.7	22.1	0.00e+00	120	39	0	227540992	46	6019
2026-01-01 15:19:34.38	19.69	8.96	-36.6	-37.6	22.3	0.00e+00	123	39	0	230686720	46	5950
2026-01-01 15:19:35.39	19.67	9.04	-36.6	-37.6	22.2	0.00e+00	123	39	0	233832448	46	5952
2026-01-01 15:19:36.40	19.64	9.12	-36.5	-37.6	22.3	0.00e+00	122	39	0	236978176	46	5946
2026-01-01 15:19:37.42	19.62	9.21	-36.5	-37.5	22.3	0.00e+00	123	39	0	240123904	46	5916
2026-01-01 15:19:38.43	19.59	9.29	-36.5	-37.6	22.3	0.00e+00	123	39	0	243269632	46	5940
2026-01-01 15:19:39.43	19.57	9.38	-36.8	-37.8	22.1	0.00e+00	122	39	0	246415360	46	6093
2026-01-01 15:19:40.45	19.54	9.46	-36.3	-37.4	22.5	0.00e+00	122	39	0	249561088	46	5797
2026-01-01 15:19:41.46	19.52	9.55	-36.6	-37.6	22.2	0.00e+00	123	39	0	252706816	46	5943
2026-01-01 15:19:42.47	19.49	9.63	-36.6	-37.6	22.3	0.00e+00	122	39	0	255852544	46	5961
2026-01-01 15:19:43.48	19.46	9.72	-36.5	-37.5	22.3	0.00e+00	122	39	0	258998272	46	5921
2026-01-01 15:19:44.49	19.44	9.80	-36.9	-37.9	22.2	0.00e+00	123	39	0	262144000	46	6179
2026-01-01 15:19:45.50	19.41	9.89	-36.7	-37.8	21.9	0.00e+00	123	39	0	265289728	46	6082
2026-01-01 15:19:46.51	19.38	9.97	-36.7	-37.8	22.2	0.00e+00	123	39	0	268435456	46	6072
2026-01-01 15:19:47.52	19.36	10.06	-36.4	-37.4	22.5	0.00e+00	120	39	0	271581184	46	5832
2026-01-01 15:19:48.53	19.33	10.15	-36.4	-37.4	22.4	0.00e+00	122	39	0	274726912	46	5850
2026-01-01 15:19:49.54	19.30	10.23	-36.5	-37.5	22.4	0.00e+00	123	39	0	277872640	46	5925
2026-01-01 15:19:50.55	19.28	10.32	-36.5	-37.6	22.6	0.00e+00	123	39	0	281018368	46	5935
2026-01-01 15:19:51.56	19.25	10.41	-36.4	-37.4	22.5	0.00e+00	122	39	0	284164096	46	5795
2026-01-01 15:19:52.57	19.22	10.50	-36.1	-37.1	22.7	0.00e+00	122	39	0	287309824	46	5622
2026-01-01 15:19:53.58	19.19	10.58	-36.2	-37.2	22.7	0.00e+00	123	39	0	290455552	46	5716
2026-01-01 15:19:54.59	19.16	10.67	-36.2	-37.2	22.7	0.00e+00	121	39	0	293601280	46	5698
2026-01-01 15:19:55.60	19.14	10.76	-36.2	-37.2	22.6	0.00e+00	120	39	0	296747008	46	5677
2026-01-01 15:19:56.61	19.11	10.85	-35.9	-36.8	23.0	0.00e+00	123	39	0	299892736	46	5460
2026-01-01 15:19:57.62	19.08	10.94	-36.0	-37.0	22.9	0.00e+00	122	39	0	303038464	46	5585
2026-01-01 15:19:58.63	19.05	11.03	-36.2	-37.2	22.7	0.00e+00	123	39	0	306184192	46	5684
2026-01-01 15:19:59.64	19.02	11.12	-36.3	-37.3	22.7	0.00e+00	123	39	0	309329920	46	5740
2026-01-01 15:20:00.65	18.99	11.21	-36.1	-37.1	22.7	0.00e+00	122	39	0	312475648	46	5631
2026-01-01 15:20:01.66	18.96	11.30	-35.9	-36.9	22.9	0.00e+00	122	39	0	315621376	46	5514
2026-01-01 15:20:02.67	18.93	11.39	-35.9	-36.9	22.9	0.00e+00	123	39	0	318767104	46	5479
2026-01-01 15:20:03.68	18.90	11.48	-36.0	-37.0	22.9	0.00e+00	122	39	0	322961408	46	5537
2026-01-01 15:20:04.69	18.87	11.58	-35.7	-36.7	23.1	0.00e+00	122	39	0	326107136	46	5384
2026-01-01 15:20:05.70	18.84	11.67	-35.8	-36.8	23.0	0.00e+00	123	39	0	329252864	44	6076
2026-01-01 15:20:06.71	18.81	11.76	-35.8	-36.8	23.1	0.00e+00	123	39	0	332398592	44	6073
2026-01-01 15:20:07.72	18.78	11.85	-35.8	-36.8	23.1	0.00e+00	123	39	0	334495744	44	6084
2026-01-01 15:20:08.73	18.75	11.95	-35.8	-36.8	23.1	0.00e+00	122	39	0	337641472	44	6086
2026-01-01 15:20:09.74	18.72	12.04	-35.9	-36.8	23.0	0.00e+00	123	39	0	341835776	44	6123
2026-01-01 15:20:10.75	18.69	12.13	-35.7	-36.7	23.2	0.00e+00	120	39	0	344981504	44	6025
2026-01-01 15:20:11.76	18.65	12.23	-35.8	-36.7	23.1	0.00e+00	120	39	0	348127232	44	6036
2026-01-01 15:20:12.77	18.62	12.32	-35.7	-36.6	23.2	0.00e+00	122	39	0	351272960	44	5982
2026-01-01 15:20:13.78	18.59	12.42	-35.7	-36.6	23.2	0.00e+00	122	39	0	354418688	44	5980
2026-01-01 15:20:14.79	18.56	12.51	-35.7	-36.7	23.2	0.00e+00	123	39	0	357564416	44	6036
2026-01-01 15:20:15.80	18.53	12.61	-35.7	-36.7	23.1	0.00e+00	123	39	0	360710144	44	5999
2026-01-01 15:20:16.81	18.49	12.71	-35.6	-36.6	23.3	0.00e+00	122	39	0	363855872	44	5961
2026-01-01 15:20:17.82	18.46	12.80	-35.5	-36.5	23.3	0.00e+00	120	39	0	367001600	44	5894
2026-01-01 15:20:18.83	18.43	12.90	-35.5	-36.4	23.3	0.00e+00	122	39	0	370147328	44	5842
2026-01-01 15:20:19.84	18.39	13.00	-35.5	-36.4	23.4	0.00e+00	120	39	0	373293056	44	5856
2026-01-01 15:20:20.85	18.36	13.09	-35.5	-36.5	23.3	0.00e+00	122	39	0	376438784	44	5893
2026-01-01 15:20:21.86	18.32	13.19	-35.4	-36.4	23.3	0.00e+00	123	39	0	379584512	44	5812
2026-01-01 15:20:22.87	18.29	13.29	-35.5	-36.4	23.2	0.00e+00	123	39	0	382730240	44	5855
2026-01-01 15:20:23.88	18.26	13.39	-35.6	-36.5	23.3	0.00e+00	121	39	0	385875968	44	5903
2026-01-01 15:20:24.89	18.22	13.49	-35.6	-36.6	23.2	0.00e+00	123	39	0	389021696	44	5958
2026-01-01 15:20:25.90	18.19	13.59	-35.4	-36.3	23.4	0.00e+00	120	39	0	392167424	44	5779
2026-01-01 15:20:26.91	18.15	13.69	-35.4	-36.4	23.4	0.00e+00	123	39	0	395313152	44	5802
2026-01-01 15:20:27.92	18.11	13.79	-35.3	-36.3	23.5	0.00e+00	122	39	0	398458880	44	5726
2026-01-01 15:20:28.93	18.08	13.89	-35.3	-36.3	23.6	0.00e+00	122	39	0	401604608	44	5729
2026-01-01 15:20:29.94	18.04	13.99	-35.3	-36.2	23.7	0.00e+00	120	39	0	404750336	44	5677
2026-01-01 15:20:30.95	18.01	14.09	-35.3	-36.2	23.5	0.00e+00	122	39	0	407896064	44	5687
2026-01-01 15:20:31.96	17.97	14.19	-35.3	-36.2	23.6	0.00e+00	122	39	0	411041792	44	5718
2026-01-01 15:20:32.97	17.93	14.29	-35.2	-36.2	23.6	0.00e+00	123	39	0	414187520	44	5672
2026-01-01 15:20:33.98	17.89	14.40	-35.4	-36.3	23.5	0.00e+00	122	39	0	417333248	44	5766
2026-01-01 15:20:34.99	17.86	14.50	-35.4	-36.3	23.6	0.00e+00	122	39	0	420478976	44	5751
2026-01-01 15:20:36.00	17.82	14.60	-35.4	-36.4	23.5	0.00e+00	123	39	0	423624704	44	5821
2026-01-01 15:20:37.01	17.78	14.71	-35.3	-36.2	23.6	0.00e+00	123	39	0	426770432	44	5675
2026-01-01 15:20:38.02	17.74	14.81	-35.2	-36.1	23.7	0.00e+00	122	39	0	429916160	44	5652
2026-01-01 15:20:39.03	17.70	14.92	-35.4	-36.3	23.6	0.00e+00	123	39	0	433061888	44	5765
2026-01-01 15:20:40.05	17.66	15.02	-35.3	-36.2	23.7	0.00e+00	120	39	0	436207616	44	5679
2026-01-01 15:20:41.05	17.62	15.13	-35.2	-36.1	23.7	0.00e+00	123	39	0	439353344	44	5648
2026-01-01 15:20:42.06	17.59	15.23	-35.3	-36.2	23.6	0.00e+00	122	39	0	442499072	44	5692
2026-01-01 15:20:43.07	17.55	15.34	-35.3	-36.2	23.6	0.00e+00	123	39	0	445644800	44	5702
2026-01-01 15:20:44.08	17.50	15.45	-35.2	-36.2	23.6	0.00e+00	122	39	0	448790528	44	5674
2026-01-01 15:20:45.09	17.46	15.55	-35.3	-36.2	23.6	0.00e+00	123	39	0	451936256	44	5691
2026-01-01 15:20:46.11	17.42	15.66	-35.2	-36.2	23.7	0.00e+00	120	39	0	455081984	44	5661
2026-01-01 15:20:47.11	17.38	15.77	-35.3	-36.2	23.5	0.00e+00	122	39	0	458227712	44	5703
2026-01-01 15:20:48.12	17.34	15.88	-35.3	-36.3	23.5	0.00e+00	120	39	0	461373440	44	5738
2026-01-01 15:20:49.13	17.30	15.99	-35.3	-36.2	23.6	0.00e+00	123	39	0	464519168	44	5713
2026-01-01 15:20:50.14	17.26	16.10	-35.3	-36.2	23.6	0.00e+00	120	39	0	467664896	44	5712
2026-01-01 15:20:51.15	17.21	16.21	-35.3	-36.2	23.6	0.00e+00	120	39	0	470810624	44	5695
2026-01-01 15:20:52.16	17.17	16.32	-35.3	-36.2	23.7	0.00e+00	123	39	0	473956352	44	5691
2026-01-01 15:20:53.17	17.13	16.43	-35.3	-36.2	23.6	0.00e+00	120	39	0	477102080	44	5719
2026-01-01 15:20:54.18	17.08	16.54	-35.4	-36.4	23.6	0.00e+00	123	39	0	480247808	44	5813
2026-01-01 15:20:55.20	17.04	16.66	-35.5	-36.5	23.5	0.00e+00	123	39	0	483393536	44	5865
2026-01-01 15:20:56.21	16.99	16.77	-35.6	-36.6	23.4	0.00e+00	122	39	0	486539264	44	5955
2026-01-01 15:20:57.22	16.95	16.88	-35.3	-36.2	23.7	0.00e+00	120	39	0	489684992	44	5703
2026-01-01 15:20:58.23	16.90	17.00	-35.4	-36.3	23.6	0.00e+00	123	39	0	492830720	44	5785
2026-01-01 15:20:59.24	16.86	17.11	-35.5	-36.4	23.5	0.00e+00	122	39	0	495976448	44	5838
2026-01-01 15:21:00.25	16.81	17.23	-35.6	-36.5	23.5	0.00e+00	122	39	0	499122176	44	5900
2026-01-01 15:21:01.25	16.77	17.34	-35.5	-36.4	23.6	0.00e+00	120	39	0	502267904	44	5849
2026-01-01 15:21:02.26	16.72	17.46	-35.2	-36.2	23.8	0.00e+00	123	39	0	505413632	44	5675
2026-01-01 15:21:03.27	16.67	17.57	-35.2	-36.2	23.7	0.00e+00	120	39	0	508559360	44	5670
2026-01-01 15:21:04.29	16.63	17.69	-35.3	-36.2	23.7	0.00e+00	123	39	0	511705088	44	5707
2026-01-01 15:21:05.30	16.58	17.81	-35.3	-36.2	23.8	0.00e+00	122	39	0	514850816	44	5687
2026-01-01 15:21:06.31	16.53	17.93	-35.2	-36.2	23.8	0.00e+00	123	39	0	517996544	44	5671
2026-01-01 15:21:07.31	16.48	18.04	-35.2	-36.1	23.9	0.00e+00	120	39	0	521142272	44	5609
2026-01-01 15:21:08.32	16.43	18.16	-35.2	-36.2	23.7	0.00e+00	123	39	0	524288000	44	5678
2026-01-01 15:21:09.33	16.38	18.28	-35.2	-36.1	23.8	0.00e+00	123	39	0	527433728	44	5654
2026-01-01 15:21:10.34	16.33	18.40	-35.2	-36.1	23.8	0.00e+00	123	39	0	530579456	44	5658
2026-01-01 15:21:11.35	16.28	18.52	-35.2	-36.1	23.8	0.00e+00	123	39	0	533725184	44	5632
2026-01-01 15:21:12.36	16.23	18.64	-35.2	-36.1	23.8	0.00e+00	123	39	0	536870912	44	5615
2026-01-01 15:21:13.37	16.18	18.77	-35.3	-36.2	23.8	0.00e+00	120	39	0	540016640	44	5684
2026-01-01 15:21:14.38	16.13	18.89	-35.1	-36.0	23.9	0.00e+00	123	39	0	543162368	44	5579
2026-01-01 15:21:15.39	16.08	19.01	-35.1	-36.0	23.9	0.00e+00	123	39	0	546308096	44	5568
2026-01-01 15:21:16.40	16.02	19.13	-35.0	-36.0	23.9	0.00e+00	123	39	0	549453824	44	5536
2026-01-01 15:21:17.41	15.97	19.26	-35.2	-36.1	23.8	0.00e+00	123	39	0	552599552	44	5611
2026-01-01 15:21:18.42	15.92	19.38	-35.0	-35.9	24.0	0.00e+00	120	39	0	555745280	44	5492
2026-01-01 15:21:19.43	15.86	19.51	-35.1	-36.0	23.9	0.00e+00	123	39	0	558891008	44	5583
2026-01-01 15:21:20.44	15.81	19.64	-35.0	-35.9	24.0	0.00e+00	120	39	0	562036736	44	5484
2026-01-01 15:21:21.45	15.75	19.76	-35.1	-36.0	23.8	0.00e+00	122	39	0	565182464	44	5550
2026-01-01 15:21:22.46	15.70	19.89	-35.0	-35.9	23.9	0.00e+00	123	39	0	568328192	44	5527
2026-01-01 15:21:23.47	15.64	20.02	-34.9	-35.9	24.0	0.00e+00	123	39	0	571473920	44	5469
2026-01-01 15:21:24.48	15.59	20.15	-34.9	-35.8	24.0	0.00e+00	120	39	0	574619648	44	5430
2026-01-01 15:21:25.49	15.53	20.27	-34.9	-35.8	24.1	0.00e+00	120	39	0	577765376	44	5425
2026-01-01 15:21:26.50	15.47	20.40	-34.8	-35.7	24.1	0.00e+00	122	39	0	580911104	44	5374
2026-01-01 15:21:27.51	15.41	20.54	-34.8	-35.7	24.1	0.00e+00	120	39	0	584056832	44	5397
2026-01-01 15:21:28.52	15.35	20.67	-34.9	-35.8	24.1	0.00e+00	123	39	0	587202560	44	5419
2026-01-01 15:21:29.53	15.30	20.80	-34.9	-35.8	24.2	0.00e+00	120	39	0	590348288	42	6072
2026-01-01 15:21:30.54	15.24	20.93	-34.9	-35.8	24.2	0.00e+00	123	39	0	593494016	42	6079
2026-01-01 15:21:31.55	15.18	21.06	-34.6	-35.5	24.3	0.00e+00	120	39	0	596639744	42	5882
2026-01-01 15:21:32.56	15.11	21.20	-34.8	-35.7	24.3	0.00e+00	125	39	0	599785472	42	6010
2026-01-01 15:21:33.57	15.05	21.33	-34.6	-35.5	24.4	0.00e+00	122	39	0	602931200	42	5891
2026-01-01 15:21:34.58	14.99	21.47	-34.4	-35.3	24.5	0.00e+00	123	39	0	606076928	42	5774
2026-01-01 15:21:35.59	14.93	21.60	-34.4	-35.3	24.5	0.00e+00	123	39	0	609222656	42	5744
2026-01-01 15:21:36.60	14.87	21.74	-34.5	-35.3	24.5	0.00e+00	122	39	0	612368384	42	5791
2026-01-01 15:21:37.61	14.80	21.88	-34.4	-35.3	24.6	0.00e+00	121	39	0	615514112	42	5775
2026-01-01 15:21:38.62	14.74	22.01	-34.1	-35.0	24.8	0.00e+00	123	39	0	618659840	42	5565
2026-01-01 15:21:39.63	14.67	22.15	-34.2	-35.1	24.7	0.00e+00	121	39	0	621805568	42	5595
2026-01-01 15:21:40.64	14.61	22.29	-34.1	-34.9	24.8	0.00e+00	122	40	0	625999872	42	5523
2026-01-01 15:21:41.64	14.54	22.43	-34.1	-35.0	24.9	0.00e+00	123	39	0	628097024	42	5560
2026-01-01 15:21:42.65	14.48	22.57	-33.7	-34.6	25.1	0.00e+00	123	39	0	631242752	40	5940
2026-01-01 15:21:43.66	14.41	22.71	-33.6	-34.5	25.1	0.00e+00	121	39	0	634388480	40	5867
2026-01-01 15:21:44.67	14.34	22.86	-33.7	-34.5	25.1	0.00e+00	123	39	0	637534208	40	5902
2026-01-01 15:21:45.68	14.27	23.00	-33.7	-34.5	25.1	0.00e+00	120	39	0	640679936	40	5916
2026-01-01 15:21:46.69	14.20	23.14	-33.6	-34.4	25.2	0.00e+00	122	39	0	644874240	40	5839
2026-01-01 15:21:47.70	14.13	23.29	-33.6	-34.4	25.1	0.00e+00	122	39	0	648019968	40	5853
2026-01-01 15:21:48.71	14.06	23.43	-33.7	-34.6	25.2	0.00e+00	123	39	0	650117120	40	5936
2026-01-01 15:21:49.72	13.99	23.58	-33.7	-34.6	25.1	0.00e+00	120	39	0	653262848	40	5945
2026-01-01 15:21:50.73	13.92	23.72	-33.5	-34.3	25.3	0.00e+00	122	39	0	656408576	40	5754
2026-01-01 15:21:51.74	13.85	23.87	-33.6	-34.5	25.2	0.00e+00	123	39	0	660602880	40	5862
2026-01-01 15:21:52.75	13.77	24.02	-33.6	-34.5	25.2	0.00e+00	122	39	0	663748608	40	5866
2026-01-01 15:21:53.76	13.70	24.17	-33.7	-34.6	25.1	0.00e+00	122	39	0	666894336	40	5962
2026-01-01 15:21:54.77	13.62	24.32	-33.7	-34.5	25.2	0.00e+00	123	39	0	670040064	40	5911
2026-01-01 15:21:55.78	13.55	24.47	-33.8	-34.7	25.1	0.00e+00	123	39	0	673185792	40	6004
2026-01-01 15:21:56.79	13.47	24.62	-33.7	-34.5	25.1	0.00e+00	123	39	0	676331520	40	5921
2026-01-01 15:21:57.80	13.39	24.77	-33.7	-34.5	25.1	0.00e+00	122	39	0	679477248	40	5910
2026-01-01 15:21:58.81	13.32	24.93	-33.7	-34.6	25.1	0.00e+00	120	40	0	682622976	40	5939
2026-01-01 15:21:59.82	13.24	25.08	-33.6	-34.5	25.1	0.00e+00	122	39	0	685768704	40	5887
2026-01-01 15:22:00.83	13.16	25.24	-33.8	-34.6	24.9	0.00e+00	120	39	0	688914432	40	5981
2026-01-01 15:22:01.83	13.08	25.39	-33.8	-34.7	24.9	0.00e+00	122	39	0	692060160	40	6033
2026-01-01 15:22:02.84	13.00	25.55	-33.9	-34.7	24.9	0.00e+00	120	39	0	695205888	40	6038
2026-01-01 15:22:03.85	12.91	25.71	-33.9	-34.8	24.9	0.00e+00	122	40	0	698351616	40	6088
2026-01-01 15:22:04.86	12.83	25.86	-34.0	-34.9	24.8	0.00e+00	120	40	0	701497344	40	6156
2026-01-01 15:22:05.87	12.75	26.02	-34.1	-35.0	24.7	0.00e+00	123	40	0	704643072	40	6215
2026-01-01 15:22:06.88	12.66	26.18	-34.2	-35.1	24.7	0.00e+00	120	40	0	707788800	40	6298
2026-01-01 15:22:07.89	12.58	26.34	-34.4	-35.2	24.5	0.00e+00	123	40	0	710934528	40	6405
2026-01-01 15:22:08.90	12.49	26.51	-34.3	-35.2	24.6	0.00e+00	120	40	0	714080256	40	6387
2026-01-01 15:22:09.91	12.40	26.67	-34.5	-35.4	24.4	0.00e+00	122	40	0	717225984	40	6532
2026-01-01 15:22:10.92	12.31	26.83	-34.6	-35.5	24.3	0.00e+00	123	39	0	720371712	40	6617
2026-01-01 15:22:11.93	12.22	27.00	-34.7	-35.5	24.2	0.00e+00	123	40	0	723517440	40	6648
2026-01-01 15:22:12.94	12.13	27.16	-34.8	-35.7	24.1	0.00e+00	121	40	0	726663168	42	6041
2026-01-01 15:22:13.95	12.04	27.33	-34.9	-35.8	24.1	0.00e+00	122	40	0	729808896	42	6104
2026-01-01 15:22:14.96	11.95	27.50	-34.9	-35.8	24.0	0.00e+00	123	40	0	732954624	42	6083
2026-01-01 15:22:15.97	11.86	27.66	-35.0	-35.9	23.9	0.00e+00	123	39	0	736100352	42	6174
2026-01-01 15:22:16.98	11.76	27.83	-35.1	-36.0	23.7	0.00e+00	122	39	0	739246080	42	6245
2026-01-01 15:22:17.99	11.67	28.00	-35.1	-36.0	23.9	0.00e+00	120	39	0	742391808	42	6256
2026-01-01 15:22:19.00	11.57	28.18	-35.1	-36.1	23.8	0.00e+00	122	39	0	745537536	42	6291
2026-01-01 15:22:20.01	11.47	28.35	-35.2	-36.2	23.7	0.00e+00	122	39	0	748683264	42	6378
2026-01-01 15:22:21.02	11.37	28.52	-35.4	-36.4	23.5	0.00e+00	122	39	0	751828992	42	6503
2026-01-01 15:22:22.02	11.28	28.69	-35.3	-36.2	23.7	0.00e+00	122	39	0	754974720	42	6391
2026-01-01 15:22:23.03	11.17	28.87	-35.2	-36.1	23.8	0.00e+00	123	39	0	758120448	42	6319
2026-01-01 15:22:24.04	11.07	29.04	-35.0	-35.9	24.0	0.00e+00	123	39	0	761266176	42	6201
2026-01-01 15:22:25.05	10.97	29.22	-35.0	-36.0	24.0	0.00e+00	120	39	0	764411904	42	6206
2026-01-01 15:22:26.06	10.86	29.40	-35.0	-35.9	24.0	0.00e+00	120	39	0	767557632	42	6203
2026-01-01 15:22:27.07	10.76	29.58	-35.1	-36.0	24.0	0.00e+00	122	39	0	770703360	42	6258
2026-01-01 15:22:28.08	10.65	29.76	-35.0	-35.9	24.1	0.00e+00	120	39	0	773849088	42	6192
2026-01-01 15:22:29.09	10.54	29.94	-35.1	-36.0	23.9	0.00e+00	123	39	0	776994816	42	6275
2026-01-01 15:22:30.10	10.43	30.12	-35.1	-36.0	23.9	0.00e+00	123	39	0	780140544	42	6231
2026-01-01 15:22:31.11	10.32	30.31	-34.9	-35.8	23.9	0.00e+00	123	39	0	783286272	42	6126
2026-01-01 15:22:32.12	10.21	30.49	-34.9	-35.8	23.9	0.00e+00	123	40	0	786432000	42	6121
2026-01-01 15:22:33.13	10.10	30.67	-34.6	-35.6	24.0	0.00e+00	123	39	0	789577728	42	5935
2026-01-01 15:22:34.14	9.98	30.86	-34.9	-35.8	23.8	0.00e+00	123	40	0	792723456	42	6100
2026-01-01 15:22:35.15	9.87	31.05	-34.7	-35.6	23.9	0.00e+00	122	39	0	795869184	42	5979
2026-01-01 15:22:36.16	9.75	31.24	-34.7	-35.7	24.0	0.00e+00	122	39	0	799014912	42	5997
2026-01-01 15:22:37.17	9.63	31.43	-34.7	-35.7	24.1	0.00e+00	122	39	0	802160640	42	6005
2026-01-01 15:22:38.18	9.51	31.62	-34.8	-35.7	24.0	0.00e+00	123	39	0	805306368	42	6055
2026-01-01 15:22:39.19	9.39	31.81	-35.0	-35.9	24.0	0.00e+00	120	39	0	808452096	42	6186
2026-01-01 15:22:40.20	9.27	32.00	-35.0	-35.9	24.0	0.00e+00	123	39	0	811597824	42	6170
2026-01-01 15:22:41.21	9.14	32.20	-35.0	-35.9	24.1	0.00e+00	122	40	0	814743552	42	6201
2026-01-01 15:22:42.22	9.01	32.39	-35.2	-36.2	24.0	0.00e+00	122	39	0	817889280	42	6359
2026-01-01 15:22:43.23	8.89	32.59	-35.1	-36.1	24.1	0.00e+00	123	40	0	821035008	42	6295
2026-01-01 15:22:44.24	8.76	32.79	-35.3	-36.3	24.1	0.00e+00	122	40	0	824180736	42	6431
2026-01-01 15:22:45.25	8.63	32.98	-35.0	-36.0	24.2	0.00e+00	120	40	0	827326464	42	6220
2026-01-01 15:22:46.26	8.49	33.18	-35.1	-36.0	24.1	0.00e+00	123	39	0	830472192	42	6256
2026-01-01 15:22:47.27	8.36	33.38	-35.1	-36.0	24.1	0.00e+00	123	39	0	833617920	42	6230
2026-01-01 15:22:48.28	8.22	33.59	-35.1	-36.0	24.2	0.00e+00	122	39	0	836763648	42	6242
2026-01-01 15:22:49.29	8.08	33.79	-35.2	-36.2	24.0	0.00e+00	123	40	0	839909376	42	6356
2026-01-01 15:22:50.30	7.94	33.99	-35.4	-36.3	23.9	0.00e+00	123	40	0	843055104	42	6479
2026-01-01 15:22:51.31	7.80	34.20	-35.6	-36.5	23.7	0.00e+00	121	40	0	846200832	42	6649
2026-01-01 15:22:52.32	7.66	34.41	-35.7	-36.6	23.7	0.00e+00	122	40	0	849346560	44	5980
2026-01-01 15:22:53.33	7.51	34.61	-35.9	-36.9	23.6	0.00e+00	122	40	0	852492288	44	6139
2026-01-01 15:22:54.34	7.37	34.82	-36.0	-37.0	23.3	0.00e+00	123	39	0	855638016	44	6252
2026-01-01 15:22:55.35	7.22	35.03	-36.1	-37.1	23.3	0.00e+00	123	40	0	858783744	44	6284
2026-01-01 15:22:56.36	7.07	35.24	-36.3	-37.3	23.1	0.00e+00	122	39	0	861929472	44	6453
2026-01-01 15:22:57.37	6.91	35.46	-36.3	-37.3	23.0	0.00e+00	123	39	0	865075200	44	6465
2026-01-01 15:22:58.38	6.76	35.67	-36.6	-37.6	22.9	0.00e+00	120	40	0	868220928	44	6663
2026-01-01 15:22:59.38	6.60	35.88	-36.5	-37.5	22.8	0.00e+00	123	39	0	871366656	44	6645
2026-01-01 15:23:00.39	6.44	36.10	-36.8	-37.8	22.7	0.00e+00	123	40	0	874512384	44	6806
2026-01-01 15:23:01.40	6.28	36.32	-36.9	-37.9	22.6	0.00e+00	122	39	0	877658112	46	6159
2026-01-01 15:23:02.41	6.12	36.53	-36.8	-37.8	22.6	0.00e+00	123	40	0	880803840	46	6133
2026-01-01 15:23:03.42	5.95	36.75	-36.8	-37.8	22.7	0.00e+00	122	39	0	883949568	46	6134
2026-01-01 15:23:04.43	5.78	36.97	-36.7	-37.8	22.6	0.00e+00	123	40	0	887095296	46	6065
2026-01-01 15:23:05.44	5.61	37.20	-36.6	-37.6	22.8	0.00e+00	123	40	0	890241024	46	5972
2026-01-01 15:23:06.45	5.44	37.42	-36.7	-37.7	22.7	0.00e+00	123	39	0	893386752	46	6011
2026-01-01 15:23:07.46	5.26	37.64	-36.8	-37.8	22.7	0.00e+00	120	40	0	896532480	46	6074
2026-01-01 15:23:08.47	5.08	37.87	-36.5	-37.4	23.0	0.00e+00	122	39	0	899678208	46	5832
2026-01-01 15:23:09.49	4.90	38.10	-36.5	-37.5	23.0	0.00e+00	123	39	0	902823936	46	5863
2026-01-01 15:23:10.49	4.72	38.32	-36.3	-37.3	23.1	0.00e+00	123	40	0	905969664	46	5746
2026-01-01 15:23:11.50	4.53	38.55	-36.5	-37.5	22.9	0.00e+00	122	39	0	909115392	46	5896
2026-01-01 15:23:12.51	4.35	38.78	-36.5	-37.4	23.0	0.00e+00	123	40	0	912261120	46	5847
2026-01-01 15:23:13.52	4.15	39.01	-36.6	-37.6	22.8	0.00e+00	123	40	0	915406848	46	5977
2026-01-01 15:23:14.54	3.96	39.25	-36.8	-37.9	22.4	0.00e+00	123	40	0	918552576	46	6143
2026-01-01 15:23:15.55	3.76	39.48	-37.1	-38.1	22.4	0.00e+00	123	40	0	921698304	46	6309
2026-01-01 15:23:16.56	3.56	39.72	-37.2	-38.3	22.3	0.00e+00	121	40	0	924844032	46	6449
2026-01-01 15:23:17.56	3.36	39.95	-37.4	-38.4	22.1	0.00e+00	123	40	0	927989760	46	6554
2026-01-01 15:23:18.58	3.15	40.19	-37.6	-38.7	22.1	0.00e+00	120	40	0	931135488	46	6730
2026-01-01 15:23:19.59	2.94	40.43	-37.6	-38.7	22.0	0.00e+00	123	40	0	934281216	46	6765
2026-01-01 15:23:20.60	2.73	40.67	-37.4	-38.5	22.3	0.00e+00	122	40	0	937426944	46	6581
2026-01-01 15:23:21.61	2.51	40.91	-37.2	-38.2	22.4	0.00e+00	122	40	0	940572672	46	6380
2026-01-01 15:23:22.62	2.30	41.15	-37.3	-38.3	22.3	0.00e+00	123	40	0	943718400	46	6481
2026-01-01 15:23:23.62	2.08	41.40	-37.2	-38.1	22.5	0.00e+00	123	40	0	946864128	46	6346
2026-01-01 15:23:24.63	1.85	41.64	-37.3	-38.3	22.3	0.00e+00	123	40	0	950009856	46	6463
2026-01-01 15:23:25.64	1.62	41.89	-37.2	-38.2	22.3	0.00e+00	123	40	0	953155584	46	6380
2026-01-01 15:23:26.65	1.39	42.13	-37.3	-38.4	21.9	0.00e+00	122	40	0	956301312	46	6513
2026-01-01 15:23:27.66	1.15	42.38	-37.8	-38.9	21.6	0.00e+00	120	40	0	959447040	46	6915
2026-01-01 15:23:28.67	0.91	42.63	-37.6	-38.7	21.6	0.00e+00	122	40	0	962592768	48	6012
2026-01-01 15:23:29.68	0.67	42.88	-37.8	-38.9	21.5	0.00e+00	123	40	0	966787072	48	6184
2026-01-01 15:23:30.69	0.42	43.13	-38.0	-39.1	21.7	0.00e+00	122	40	0	968884224	48	6314
2026-01-01 15:23:31.71	0.17	43.38	-38.0	-39.1	21.5	0.00e+00	122	40	0	972029952	48	6280
2026-01-01 15:23:32.72	359.91	43.64	-38.2	-39.3	21.5	0.00e+00	120	40	0	975175680	48	6479
2026-01-01 15:23:33.72	359.65	43.89	-37.9	-38.9	21.7	0.00e+00	123	39	0	978321408	48	6176
2026-01-01 15:23:34.74	359.39	44.15	-37.7	-38.7	22.0	0.00e+00	121	40	0	982515712	48	6048
2026-01-01 15:23:35.75	359.12	44.40	-38.0	-39.0	21.7	0.00e+00	123	40	0	985661440	48	6234
2026-01-01 15:23:36.76	358.85	44.66	-38.0	-39.0	21.4	0.00e+00	120	40	0	988807168	48	6253
2026-01-01 15:23:37.77	358.57	44.92	-37.5	-38.5	21.9	0.00e+00	123	40	0	990904320	48	5908
2026-01-01 15:23:38.78	358.29	45.18	-37.5	-38.5	22.0	0.00e+00	123	40	0	994050048	48	5917
2026-01-01 15:23:39.79	358.00	45.44	-37.4	-38.4	22.1	0.00e+00	122	40	0	998244352	48	5852
2026-01-01 15:23:40.80	357.71	45.70	-37.6	-38.6	22.0	0.00e+00	122	40	0	1001390080	48	5979
2026-01-01 15:23:41.81	357.41	45.96	-37.7	-38.7	21.9	0.00e+00	122	40	0	1004535808	48	6040
2026-01-01 15:23:42.82	357.11	46.22	-37.8	-38.8	21.7	0.00e+00	123	40	0	1007681536	48	6129
2026-01-01 15:23:43.83	356.80	46.48	-37.6	-38.7	22.0	0.00e+00	123	40	0	1010827264	48	6010
2026-01-01 15:23:44.84	356.49	46.75	-37.4	-38.4	22.2	0.00e+00	123	40	0	1013972992	48	5841
2026-01-01 15:23:45.85	356.17	47.01	-37.6	-38.6	22.0	0.00e+00	123	40	0	1017118720	48	5964
2026-01-01 15:23:46.86	355.85	47.28	-37.5	-38.5	22.0	0.00e+00	123	40	0	1020264448	48	5888
2026-01-01 15:23:47.87	355.52	47.54	-36.9	-37.9	22.4	0.00e+00	123	40	0	1023410176	48	5501
2026-01-01 15:23:48.88	355.19	47.81	-36.4	-37.4	22.9	0.00e+00	122	40	0	1026555904	46	5810
2026-01-01 15:23:49.89	354.85	48.08	-36.3	-37.3	22.9	0.00e+00	122	40	0	1029701632	46	5743
2026-01-01 15:23:50.90	354.50	48.35	-36.4	-37.4	22.8	0.00e+00	122	40	0	1032847360	46	5828
2026-01-01 15:23:51.91	354.15	48.61	-36.6	-37.6	22.5	0.00e+00	123	40	0	1035993088	46	5947
2026-01-01 15:23:52.92	353.79	48.88	-36.7	-37.7	22.5	0.00e+00	123	40	0	1039138816	46	6062
2026-01-01 15:23:53.93	353.43	49.15	-36.9	-37.9	22.5	0.00e+00	123	40	0	1042284544	46	6187
2026-01-01 15:23:54.94	353.06	49.42	-36.9	-37.9	22.6	0.00e+00	123	40	0	1045430272	46	6192
2026-01-01 15:23:55.94	352.68	49.69	-36.9	-37.9	22.6	0.00e+00	123	40	0	1048576000	46	6191
2026-01-01 15:23:56.95	352.30	49.96	-36.6	-37.6	22.8	0.00e+00	123	40	0	1051721728	46	5930
2026-01-01 15:23:57.96	351.91	50.23	-36.3	-37.3	23.0	0.00e+00	123	40	0	1054867456	46	5731
2026-01-01 15:23:58.97	351.51	50.50	-36.2	-37.2	22.9	0.00e+00	120	40	0	1058013184	46	5708
2026-01-01 15:23:59.98	351.10	50.77	-36.3	-37.3	23.0	0.00e+00	123	40	0	1061158912	46	5757
2026-01-01 15:24:00.99	350.69	51.04	-36.4	-37.4	23.0	0.00e+00	123	40	0	1064304640	46	5836
2026-01-01 15:24:02.00	350.27	51.31	-36.1	-37.0	23.3	0.00e+00	123	40	0	1067450368	46	5582
2026-01-01 15:24:03.01	349.84	51.58	-36.0	-37.0	23.3	0.00e+00	123	40	0	1070596096	46	5556
2026-01-01 15:24:04.02	349.40	51.85	-36.3	-37.3	23.1	0.00e+00	122	40	0	1073741824	46	5751
2026-01-01 15:24:05.03	348.96	52.12	-36.8	-37.8	22.5	0.00e+00	123	40	0	1076887552	46	6085
2026-01-01 15:24:06.04	348.51	52.39	-37.1	-38.2	22.4	0.00e+00	122	40	0	1080033280	46	6368
2026-01-01 15:24:07.05	348.05	52.66	-37.1	-38.1	22.3	0.00e+00	123	40	0	1083179008	46	6307
2026-01-01 15:24:08.06	347.58	52.93	-36.7	-37.7	22.9	0.00e+00	123	40	0	1086324736	46	6053
2026-01-01 15:24:09.07	347.10	53.19	-35.8	-36.8	23.6	0.00e+00	122	40	0	1089470464	46	5419
2026-01-01 15:24:10.08	346.61	53.46	-35.5	-36.4	23.7	0.00e+00	123	40	0	1092616192	44	5838
2026-01-01 15:24:11.09	346.11	53.73	-35.2	-36.1	23.7	0.00e+00	123	40	0	1095761920	44	5613
2026-01-01 15:24:12.11	345.60	54.00	-35.0	-35.9	24.0	0.00e+00	122	40	0	1098907648	44	5503
2026-01-01 15:24:13.11	345.09	54.26	-35.0	-35.9	24.1	0.00e+00	122	40	0	1102053376	44	5509
2026-01-01 15:24:14.13	344.56	54.52	-35.2	-36.2	24.0	0.00e+00	123	40	0	1105199104	44	5660
2026-01-01 15:24:15.13	344.03	54.78	-35.0	-35.9	24.2	0.00e+00	123	40	0	1108344832	44	5495
2026-01-01 15:24:16.14	343.49	55.05	-34.8	-35.7	24.2	0.00e+00	123	40	0	1111490560	44	5381
2026-01-01 15:24:17.15	342.93	55.31	-34.7	-35.6	24.0	0.00e+00	122	40	0	1114636288	42	5931
2026-01-01 15:24:18.16	342.37	55.56	-34.9	-35.8	23.8	0.00e+00	123	40	0	1117782016	42	6125
2026-01-01 15:24:19.18	341.79	55.82	-35.1	-36.1	24.0	0.00e+00	120	40	0	1120927744	42	6282
2026-01-01 15:24:20.18	341.20	56.08	-35.1	-36.0	24.1	0.00e+00	122	40	0	1124073472	42	6227
2026-01-01 15:24:21.20	340.60	56.33	-35.0	-35.9	24.1	0.00e+00	122	40	0	1127219200	42	6203
2026-01-01 15:24:22.21	339.99	56.58	-34.8	-35.7	24.4	0.00e+00	122	40	0	1130364928	42	6024
2026-01-01 15:24:23.22	339.37	56.83	-35.0	-35.9	24.1	0.00e+00	124	40	0	1133510656	42	6164
2026-01-01 15:24:24.23	338.74	57.08	-35.2	-36.2	23.8	0.00e+00	120	40	0	1136656384	42	6363
2026-01-01 15:24:25.24	338.10	57.32	-35.5	-36.4	23.7	0.00e+00	123	40	0	1139802112	42	6565
2026-01-01 15:24:26.25	337.44	57.57	-35.4	-36.3	23.9	0.00e+00	122	40	0	1142947840	42	6484
2026-01-01 15:24:27.25	336.78	57.80	-35.1	-36.0	24.1	0.00e+00	123	40	0	1146093568	42	6237
2026-01-01 15:24:28.27	336.10	58.04	-34.3	-35.2	24.7	0.00e+00	123	40	0	1149239296	42	5707
2026-01-01 15:24:29.28	335.41	58.28	-34.4	-35.3	24.5	0.00e+00	122	40	0	1152385024	42	5753
2026-01-01 15:24:30.29	334.71	58.51	-34.4	-35.3	24.4	0.00e+00	123	40	0	1155530752	42	5774
2026-01-01 15:24:31.30	333.99	58.74	-34.8	-35.7	24.2	0.00e+00	123	40	0	1158676480	42	6024
2026-01-01 15:24:32.31	333.27	58.96	-34.8	-35.8	24.2	0.00e+00	123	40	0	1161822208	42	6070
2026-01-01 15:24:33.32	332.53	59.18	-34.4	-35.3	24.2	0.00e+00	123	40	0	1164967936	42	5735
2026-01-01 15:24:34.33	331.77	59.40	-34.3	-35.3	23.6	0.00e+00	123	40	0	1168113664	42	5741
2026-01-01 15:24:35.34	331.01	59.61	-34.3	-35.2	24.1	0.00e+00	123	40	0	1171259392	42	5716
2026-01-01 15:24:36.35	330.23	59.82	-34.2	-35.1	24.6	0.00e+00	122	40	0	1174405120	42	5605
2026-01-01 15:24:37.36	329.44	60.03	-34.1	-35.0	24.7	0.00e+00	122	40	0	1177550848	42	5560
2026-01-01 15:24:38.37	328.64	60.23	-34.0	-34.9	24.8	0.00e+00	123	40	0	1180696576	42	5509
2026-01-01 15:24:39.38	327.82	60.42	-34.0	-34.8	24.8	0.00e+00	123	40	0	1183842304	42	5465
2026-01-01 15:24:40.39	327.00	60.62	-33.9	-34.8	24.9	0.00e+00	120	40	0	1186988032	42	5446
2026-01-01 15:24:41.40	326.16	60.80	-33.9	-34.8	25.0	0.00e+00	122	40	0	1190133760	42	5432
2026-01-01 15:24:42.41	325.30	60.99	-33.8	-34.7	25.0	0.00e+00	123	40	0	1193279488	42	5369
2026-01-01 15:24:43.42	324.44	61.16	-33.7	-34.6	25.1	0.00e+00	122	40	0	1196425216	40	5952
2026-01-01 15:24:44.43	323.56	61.33	-33.9	-34.7	25.1	0.00e+00	122	40	0	1199570944	40	6039
2026-01-01 15:24:45.44	322.67	61.50	-34.1	-34.9	24.9	0.00e+00	120	40	0	1202716672	40	6202
2026-01-01 15:24:46.45	321.77	61.66	-33.8	-34.6	25.1	0.00e+00	122	40	0	1205862400	40	5980
2026-01-01 15:24:47.46	320.86	61.81	-33.9	-34.8	25.0	0.00e+00	123	40	0	1209008128	40	6090
2026-01-01 15:24:48.47	319.93	61.96	-33.6	-34.4	25.0	0.00e+00	123	40	0	1212153856	40	5846
2026-01-01 15:24:49.48	319.00	62.10	-33.3	-34.2	25.1	0.00e+00	122	40	0	1215299584	40	5673
2026-01-01 15:24:50.49	318.05	62.24	-33.6	-34.4	25.0	0.00e+00	122	40	0	1218445312	40	5836
2026-01-01 15:24:51.50	317.10	62.37	-33.8	-34.7	24.8	0.00e+00	122	40	0	1221591040	40	6053
2026-01-01 15:24:52.51	316.13	62.49	-34.0	-34.9	24.7	0.00e+00	123	40	0	1224736768	40	6137
2026-01-01 15:24:53.52	315.15	62.61	-34.0	-34.9	24.7	0.00e+00	123	40	0	1227882496	40	6195
2026-01-01 15:24:54.53	314.17	62.72	-33.9	-34.8	25.0	0.00e+00	123	40	0	1231028224	40	6078
2026-01-01 15:24:55.54	313.17	62.82	-34.0	-34.9	25.0	0.00e+00	123	40	0	1234173952	40	6135
2026-01-01 15:24:56.55	312.17	62.91	-34.0	-34.8	24.8	0.00e+00	122	40	0	1237319680	40	6116
2026-01-01 15:24:57.56	311.16	63.00	-33.9	-34.8	25.0	0.00e+00	123	40	0	1240465408	40	6096
2026-01-01 15:24:58.57	310.15	63.08	-33.4	-34.3	25.3	0.00e+00	123	40	0	1243611136	40	5744
2026-01-01 15:24:59.58	309.12	63.15	-33.4	-34.3	25.1	0.00e+00	123	40	0	1246756864	40	5751
2026-01-01 15:25:00.59	308.09	63.22	-33.3	-34.2	25.1	0.00e+00	123	40	0	1249902592	40	5661
2026-01-01 15:25:01.60	307.06	63.28	-33.3	-34.1	25.0	0.00e+00	123	40	0	1253048320	40	5653
2026-01-01 15:25:02.61	306.02	63.32	-33.3	-34.2	24.9	0.00e+00	123	40	0	1256194048	40	5663
2026-01-01 15:25:03.62	304.97	63.37	-33.4	-34.3	25.0	0.00e+00	122	40	0	1259339776	40	5760
2026-01-01 15:25:04.63	303.93	63.40	-33.8	-34.7	24.7	0.00e+00	120	40	0	1262485504	40	6050
2026-01-01 15:25:05.64	302.88	63.43	-34.0	-34.9	24.7	0.00e+00	123	40	0	1265631232	40	6192
2026-01-01 15:25:06.65	301.83	63.44	-34.1	-35.0	24.8	0.00e+00	123	40	0	1268776960	40	6267
2026-01-01 15:25:07.66	300.77	63.45	-34.1	-35.0	24.6	0.00e+00	123	40	0	1271922688	40	6238
2026-01-01 15:25:08.68	299.71	63.46	-33.9	-34.8	24.6	0.00e+00	122	40	0	1275068416	40	6106
2026-01-01 15:25:09.69	298.65	63.45	-34.0	-34.9	24.9	0.00e+00	122	40	0	1279262720	40	6180
2026-01-01 15:25:10.69	297.61	63.44	-34.0	-34.8	24.9	0.00e+00	120	40	0	1282408448	40	6120
2026-01-01 15:25:11.71	296.55	63.41	-34.0	-34.9	25.0	0.00e+00	122	40	0	1284505600	40	6189
2026-01-01 15:25:12.72	295.50	63.38	-33.5	-34.4	25.2	0.00e+00	123	40	0	1287651328	40	5815
2026-01-01 15:25:13.73	294.46	63.35	-33.4	-34.3	24.9	0.00e+00	123	40	0	1290797056	40	5750
2026-01-01 15:25:14.73	293.43	63.30	-33.5	-34.4	25.3	0.00e+00	122	40	0	1294991360	40	5814
2026-01-01 15:25:15.74	292.39	63.25	-33.3	-34.1	25.4	0.00e+00	122	40	0	1298137088	40	5644
2026-01-01 15:25:16.75	291.36	63.19	-33.3	-34.2	25.4	0.00e+00	123	40	0	1301282816	40	5673
2026-01-01 15:25:17.76	290.33	63.12	-33.3	-34.2	25.4	0.00e+00	123	40	0	1304428544	40	5675
2026-01-01 15:25:18.77	289.31	63.04	-33.7	-34.5	25.2	0.00e+00	122	40	0	1307574272	40	5926
2026-01-01 15:25:19.78	288.29	62.96	-33.7	-34.6	24.9	0.00e+00	120	40	0	1310720000	40	5957
2026-01-01 15:25:20.79	287.29	62.87	-33.5	-34.3	24.9	0.00e+00	123	40	0	1313865728	40	5784
2026-01-01 15:25:21.80	286.29	62.77	-33.4	-34.3	24.7	0.00e+00	120	40	0	1317011456	40	5730
2026-01-01 15:25:22.81	285.30	62.66	-33.9	-34.8	24.6	0.00e+00	122	40	0	1320157184	40	6095
2026-01-01 15:25:23.82	284.32	62.55	-34.2	-35.1	24.7	0.00e+00	120	40	0	1323302912	40	6284
2026-01-01 15:25:24.83	283.35	62.43	-34.0	-34.9	24.8	0.00e+00	123	40	0	1326448640	40	6177
2026-01-01 15:25:25.84	282.38	62.30	-34.1	-35.0	24.7	0.00e+00	120	40	0	1329594368	40	6213
2026-01-01 15:25:26.85	281.43	62.17	-34.2	-35.1	24.7	0.00e+00	123	40	0	1332740096	40	6284
2026-01-01 15:25:27.86	280.49	62.03	-34.0	-34.9	25.0	0.00e+00	120	40	0	1335885824	40	6149
2026-01-01 15:25:28.87	279.56	61.89	-33.8	-34.7	24.9	0.00e+00	122	40	0	1339031552	40	6019
2026-01-01 15:25:29.88	278.64	61.73	-34.0	-34.9	24.9	0.00e+00	123	40	0	1342177280	40	6153
2026-01-01 15:25:30.89	277.73	61.58	-34.5	-35.5	24.5	0.00e+00	123	40	0	1345323008	40	6578
2026-01-01 15:25:31.90	276.84	61.41	-35.0	-35.9	24.0	0.00e+00	122	40	0	1348468736	42	6197
2026-01-01 15:25:32.91	275.95	61.24	-35.1	-36.0	24.0	0.00e+00	122	40	0	1351614464	42	6264
2026-01-01 15:25:33.92	275.08	61.07	-35.1	-36.1	24.1	0.00e+00	120	40	0	1354760192	42	6303
2026-01-01 15:25:34.93	274.22	60.89	-34.8	-35.7	24.4	0.00e+00	122	40	0	1357905920	42	6002
2026-01-01 15:25:35.94	273.38	60.71	-34.6	-35.5	24.5	0.00e+00	123	40	0	1361051648	42	5902
2026-01-01 15:25:36.95	272.54	60.52	-34.6	-35.5	24.5	0.00e+00	123	40	0	1364197376	42	5877
2026-01-01 15:25:37.97	271.71	60.32	-34.8	-35.7	24.2	0.00e+00	122	40	0	1367343104	42	6024
2026-01-01 15:25:38.97	270.91	60.12	-34.8	-35.7	24.3	0.00e+00	122	40	0	1370488832	42	6018
2026-01-01 15:25:39.99	270.10	59.92	-34.4	-35.2	24.7	0.00e+00	122	40	0	1373634560	42	5704
2026-01-01 15:25:40.99	269.33	59.71	-33.8	-34.6	25.0	0.00e+00	122	40	0	1376780288	42	5311
2026-01-01 15:25:42.00	268.56	59.50	-34.0	-34.8	24.9	0.00e+00	120	40	0	1379926016	40	6118
2026-01-01 15:25:43.01	267.80	59.28	-34.7	-35.5	24.3	0.00e+00	123	40	0	1383071744	40	6648
2026-01-01 15:25:44.02	267.05	59.06	-35.4	-36.3	23.8	0.00e+00	122	40	0	1386217472	42	6470
2026-01-01 15:25:45.03	266.32	58.84	-35.3	-36.2	24.0	0.00e+00	122	40	0	1389363200	42	6410
2026-01-01 15:25:46.04	265.59	58.61	-34.9	-35.7	24.4	0.00e+00	123	40	0	1392508928	42	6051
2026-01-01 15:25:47.05	264.88	58.38	-33.9	-34.8	25.0	0.00e+00	122	40	0	1395654656	42	5420
2026-01-01 15:25:48.06	264.19	58.15	-33.8	-34.7	25.0	0.00e+00	120	40	0	1398800384	40	5996
2026-01-01 15:25:49.07	263.50	57.92	-34.1	-35.0	24.8	0.00e+00	122	40	0	1401946112	40	6259
2026-01-01 15:25:50.08	262.83	57.68	-35.0	-36.0	24.1	0.00e+00	122	40	0	1405091840	42	6207
2026-01-01 15:25:51.10	262.16	57.43	-35.5	-36.4	23.7	0.00e+00	122	40	0	1408237568	42	6523
2026-01-01 15:25:52.10	261.52	57.19	-34.9	-35.8	23.7	0.00e+00	123	40	0	1411383296	42	6102
2026-01-01 15:25:53.11	260.88	56.94	-34.6	-35.5	23.6	0.00e+00	120	40	0	1414529024	42	5890
2026-01-01 15:25:54.12	260.26	56.70	-34.6	-35.6	24.0	0.00e+00	123	40	0	1417674752	42	5929
2026-01-01 15:25:55.13	259.64	56.44	-34.6	-35.5	24.2	0.00e+00	123	40	0	1420820480	42	5923
2026-01-01 15:25:56.14	259.04	56.19	-34.7	-35.7	24.2	0.00e+00	123	40	0	1423966208	42	6007
2026-01-01 15:25:57.15	258.44	55.94	-35.4	-36.3	23.8	0.00e+00	123	40	0	1427111936	42	6468
2026-01-01 15:25:58.16	257.86	55.68	-36.1	-37.1	23.2	0.00e+00	123	40	0	1430257664	44	6327
2026-01-01 15:25:59.18	257.29	55.42	-36.9	-37.9	22.5	0.00e+00	122	40	0	1433403392	46	6203
2026-01-01 15:26:00.19	256.72	55.16	-36.6	-37.6	22.6	0.00e+00	122	40	0	1436549120	46	5971
2026-01-01 15:26:01.20	256.17	54.90	-35.8	-36.7	23.4	0.00e+00	123	40	0	1439694848	46	5390
2026-01-01 15:26:02.21	255.63	54.63	-35.0	-35.9	24.2	0.00e+00	123	40	0	1442840576	44	5493
2026-01-01 15:26:03.22	255.10	54.37	-34.4	-35.3	24.7	0.00e+00	120	40	0	1445986304	42	5747
2026-01-01 15:26:04.23	254.58	54.11	-34.8	-35.7	24.4	0.00e+00	121	40	0	1449132032	42	6003
2026-01-01 15:26:05.24	254.07	53.84	-35.4	-36.3	23.8	0.00e+00	122	40	0	1452277760	42	6486
2026-01-01 15:26:06.25	253.57	53.57	-35.9	-36.9	23.4	0.00e+00	122	40	0	1455423488	44	6158
2026-01-01 15:26:07.26	253.08	53.31	-36.2	-37.2	23.2	0.00e+00	123	40	0	1458569216	44	6412
2026-01-01 15:26:08.27	252.59	53.04	-36.2	-37.2	23.0	0.00e+00	122	40	0	1461714944	44	6354
2026-01-01 15:26:09.28	252.12	52.77	-36.3	-37.3	22.6	0.00e+00	122	40	0	1464860672	44	6482
2026-01-01 15:26:10.28	251.66	52.50	-36.1	-37.1	22.6	0.00e+00	122	40	0	1468006400	44	6332
2026-01-01 15:26:11.29	251.20	52.23	-36.1	-37.1	23.5	0.00e+00	122	40	0	1471152128	44	6315
2026-01-01 15:26:12.30	250.75	51.96	-35.6	-36.5	23.6	0.00e+00	122	40	0	1474297856	44	5886
2026-01-01 15:26:13.31	250.31	51.69	-35.9	-36.8	23.4	0.00e+00	123	40	0	1477443584	44	6133
2026-01-01 15:26:14.32	249.88	51.42	-37.0	-38.0	22.4	0.00e+00	123	40	0	1480589312	46	6238
2026-01-01 15:26:15.33	249.45	51.15	-37.4	-38.5	21.8	0.00e+00	127	40	0	1483735040	46	6581
2026-01-01 15:26:16.34	249.03	50.88	-37.0	-38.1	21.7	0.00e+00	123	40	0	1486880768	46	6296
2026-01-01 15:26:17.35	248.62	50.61	-36.7	-37.7	22.1	0.00e+00	122	40	0	1490026496	46	6041
2026-01-01 15:26:18.36	248.22	50.34	-36.6	-37.7	22.3	0.00e+00	123	40	0	1493172224	46	6011
2026-01-01 15:26:19.37	247.82	50.07	-36.6	-37.6	22.6	0.00e+00	122	40	0	1496317952	46	5946
2026-01-01 15:26:20.38	247.44	49.79	-36.4	-37.4	22.8	0.00e+00	122	40	0	1499463680	46	5798
2026-01-01 15:26:21.39	247.05	49.52	-36.7	-37.7	22.8	0.00e+00	122	40	0	1502609408	46	6003
2026-01-01 15:26:22.40	246.68	49.25	-37.0	-38.1	22.4	0.00e+00	122	40	0	1505755136	46	6288
2026-01-01 15:26:23.41	246.31	48.98	-37.8	-38.9	21.8	0.00e+00	122	40	0	1508900864	46	6933
2026-01-01 15:26:24.42	245.95	48.71	-38.2	-39.4	21.3	0.00e+00	123	40	0	1512046592	48	6500
2026-01-01 15:26:25.43	245.59	48.45	-37.8	-39.0	21.1	0.00e+00	122	40	0	1515192320	48	6222
2026-01-01 15:26:26.44	245.24	48.18	-36.8	-37.8	22.1	0.00e+00	122	40	0	1518338048	48	5465
2026-01-01 15:26:27.45	244.90	47.91	-36.7	-37.7	22.6	0.00e+00	123	40	0	1521483776	46	6010
2026-01-01 15:26:28.46	244.56	47.64	-36.1	-37.0	23.2	0.00e+00	123	40	0	1524629504	46	5562
2026-01-01 15:26:29.47	244.23	47.37	-36.9	-37.9	22.5	0.00e+00	122	40	0	1527775232	46	6159
2026-01-01 15:26:30.48	243.91	47.11	-38.2	-39.3	21.4	0.00e+00	120	40	0	1530920960	48	6462
2026-01-01 15:26:31.49	243.59	46.84	-38.5	-39.6	21.1	0.00e+00	123	40	0	1534066688	48	6713
2026-01-01 15:26:32.50	243.27	46.58	-38.5	-39.6	21.1	0.00e+00	123	40	0	1537212416	48	6701
2026-01-01 15:26:33.51	242.96	46.31	-39.1	-40.3	20.5	0.00e+00	122	40	0	1540358144	50	6496
2026-01-01 15:26:34.52	242.66	46.05	-39.7	-41.0	19.9	0.00e+00	122	40	0	1543503872	50	6995
2026-01-01 15:26:35.53	242.36	45.79	-40.2	-41.6	19.1	0.00e+00	123	40	0	1546649600	52	6722
2026-01-01 15:26:36.54	242.06	45.52	-39.6	-41.0	19.1	0.00e+00	120	40	0	1549795328	52	6262
2026-01-01 15:26:37.56	241.77	45.26	-38.7	-40.0	19.8	0.00e+00	123	40	0	1552941056	52	5578
2026-01-01 15:26:38.56	241.49	45.00	-38.2	-39.3	20.7	0.00e+00	122	40	0	1556086784	50	5775
2026-01-01 15:26:39.57	241.21	44.74	-38.1	-39.1	21.4	0.00e+00	123	40	0	1559232512	50	5649
2026-01-01 15:26:40.58	240.93	44.49	-37.0	-37.9	22.6	0.00e+00	120	40	0	1562378240	48	5527
2026-01-01 15:26:41.60	240.66	44.23	-36.8	-37.8	22.5	0.00e+00	123	40	0	1565523968	48	5418
2026-01-01 15:26:42.60	240.39	43.97	-37.7	-38.8	21.5	0.00e+00	123	40	0	1568669696	48	6080
2026-01-01 15:26:43.62	240.13	43.71	-38.1	-39.3	21.3	0.00e+00	122	40	0	1571815424	48	6424
2026-01-01 15:26:44.63	239.87	43.46	-38.4	-39.5	21.3	0.00e+00	123	40	0	1574961152	48	6609
2026-01-01 15:26:45.64	239.62	43.21	-38.4	-39.5	21.3	0.00e+00	122	40	0	1578106880	48	6607
2026-01-01 15:26:46.65	239.37	42.95	-38.1	-39.2	21.6	0.00e+00	120	40	0	1581252608	48	6356
2026-01-01 15:26:47.66	239.12	42.70	-38.1	-39.2	21.6	0.00e+00	123	40	0	1584398336	48	6391
2026-01-01 15:26:48.67	238.88	42.45	-37.9	-39.0	21.7	0.00e+00	122	40	0	1587544064	48	6211
2026-01-01 15:26:49.68	238.64	42.20	-37.7	-38.8	21.4	0.00e+00	123	40	0	1590689792	48	6113
2026-01-01 15:26:50.69	238.41	41.96	-37.5	-38.6	21.4	0.00e+00	122	40	0	1594884096	48	5973
2026-01-01 15:26:51.70	238.17	41.71	-37.2	-38.3	21.8	0.00e+00	123	40	0	1598029824	48	5750
2026-01-01 15:26:52.71	237.95	41.46	-36.9	-37.9	22.4	0.00e+00	123	40	0	1600126976	48	5484
2026-01-01 15:26:53.72	237.72	41.22	-36.0	-37.0	23.2	0.00e+00	120	40	0	1603272704	46	5550
2026-01-01 15:26:54.73	237.50	40.98	-36.1	-37.0	23.3	0.00e+00	123	40	0	1606418432	46	5585
2026-01-01 15:26:55.74	237.28	40.73	-36.3	-37.3	23.0	0.00e+00	123	40	0	1610612736	46	5729
2026-01-01 15:26:56.74	237.07	40.49	-37.0	-38.0	22.2	0.00e+00	123	40	0	1613758464	46	6266
2026-01-01 15:26:57.75	236.86	40.25	-37.9	-38.9	21.5	0.00e+00	122	40	0	1616904192	46	6957
2026-01-01 15:26:58.76	236.65	40.02	-38.0	-39.1	21.5	0.00e+00	123	40	0	1620049920	48	6318
2026-01-01 15:26:59.77	236.45	39.78	-38.0	-39.1	21.7	0.00e+00	122	40	0	1623195648	48	6348
2026-01-01 15:27:00.78	236.25	39.54	-37.7	-38.8	21.9	0.00e+00	120	40	0	1626341376	48	6075
2026-01-01 15:27:01.80	236.04	39.30	-37.5	-38.5	22.0	0.00e+00	122	40	0	1629487104	48	5914
2026-01-01 15:27:02.81	235.85	39.07	-37.5	-38.5	22.1	0.00e+00	123	40	0	1632632832	48	5887
2026-01-01 15:27:03.82	235.66	38.84	-37.1	-38.2	22.4	0.00e+00	123	40	0	1635778560	48	5674
2026-01-01 15:27:04.83	235.47	38.61	-37.0	-38.0	22.6	0.00e+00	122	40	0	1638924288	48	5573
2026-01-01 15:27:05.84	235.28	38.37	-36.8	-37.7	22.8	0.00e+00	123	40	0	1642070016	48	5401
2026-01-01 15:27:06.85	235.09	38.15	-36.6	-37.6	22.9	0.00e+00	121	40	0	1645215744	46	5952
2026-01-01 15:27:07.86	234.91	37.92	-36.2	-37.1	23.1	0.00e+00	122	40	0	1648361472	46	5642
2026-01-01 15:27:08.87	234.73	37.69	-36.0	-37.0	23.2	0.00e+00	120	40	0	1651507200	46	5542
2026-01-01 15:27:09.88	234.55	37.46	-35.8	-36.7	23.4	0.00e+00	122	40	0	1654652928	46	5372
2026-01-01 15:27:10.89	234.38	37.24	-35.5	-36.4	23.8	0.00e+00	123	40	0	1657798656	44	5834
2026-01-01 15:27:11.90	234.21	37.02	-35.4	-36.3	23.9	0.00e+00	120	40	0	1660944384	44	5747
2026-01-01 15:27:12.91	234.04	36.80	-35.5	-36.5	23.9	0.00e+00	123	40	0	1664090112	44	5862
2026-01-01 15:27:13.92	233.87	36.57	-35.9	-36.8	23.6	0.00e+00	121	40	0	1667235840	44	6111
2026-01-01 15:27:14.93	233.70	36.35	-36.3	-37.2	23.2	0.00e+00	123	40	0	1670381568	44	6412
2026-01-01 15:27:15.94	233.54	36.14	-36.4	-37.4	23.0	0.00e+00	120	40	0	1673527296	44	6516
2026-01-01 15:27:16.95	233.38	35.92	-36.5	-37.5	22.8	0.00e+00	123	40	0	1676673024	44	6630
2026-01-01 15:27:17.96	233.22	35.70	-36.5	-37.6	22.6	0.00e+00	120	40	0	1679818752	44	6667
2026-01-01 15:27:18.97	233.06	35.49	-36.5	-37.5	22.5	0.00e+00	123	40	0	1682964480	44	6627
2026-01-01 15:27:19.98	232.91	35.27	-36.5	-37.5	22.4	0.00e+00	120	40	0	1686110208	44	6647
2026-01-01 15:27:20.99	232.76	35.06	-36.2	-37.2	22.9	0.00e+00	123	40	0	1689255936	44	6374
2026-01-01 15:27:22.01	232.60	34.85	-36.3	-37.3	23.0	0.00e+00	122	40	0	1692401664	44	6463
2026-01-01 15:27:23.02	232.46	34.64	-35.8	-36.8	23.5	0.00e+00	123	40	0	1695547392	44	6079
2026-01-01 15:27:24.03	232.31	34.43	-35.8	-36.7	23.6	0.00e+00	120	40	0	1698693120	44	6022
2026-01-01 15:27:25.04	232.16	34.22	-35.5	-36.4	23.8	0.00e+00	122	40	0	1701838848	44	5818
2026-01-01 15:27:26.05	232.02	34.02	-35.3	-36.2	24.0	0.00e+00	123	40	0	1704984576	44	5712
2026-01-01 15:27:27.06	231.88	33.81	-35.2	-36.1	24.0	0.00e+00	123	40	0	1708130304	44	5633
2026-01-01 15:27:28.07	231.74	33.61	-35.3	-36.2	23.9	0.00e+00	120	40	0	1711276032	44	5715
2026-01-01 15:27:29.08	231.60	33.40	-35.1	-36.0	24.1	0.00e+00	123	40	0	1714421760	44	5572
2026-01-01 15:27:30.09	231.47	33.20	-35.2	-36.1	24.0	0.00e+00	122	40	0	1717567488	44	5596
2026-01-01 15:27:31.10	231.33	33.00	-35.1	-36.0	24.0	0.00e+00	123	40	0	1720713216	44	5568
2026-01-01 15:27:32.11	231.20	32.80	-35.1	-36.0	24.0	0.00e+00	120	40	0	1723858944	44	5551
2026-01-01 15:27:33.12	231.07	32.60	-35.1	-36.0	23.9	0.00e+00	122	40	0	1727004672	44	5594
2026-01-01 15:27:34.13	230.94	32.41	-35.2	-36.1	23.8	0.00e+00	120	40	0	1730150400	44	5655
2026-01-01 15:27:35.14	230.81	32.21	-35.3	-36.2	23.8	0.00e+00	122	40	0	1733296128	44	5717
2026-01-01 15:27:36.15	230.69	32.01	-35.3	-36.2	23.8	0.00e+00	120	40	0	1736441856	44	5720
2026-01-01 15:27:37.16	230.56	31.82	-35.2	-36.1	23.8	0.00e+00	123	40	0	1739587584	44	5653
2026-01-01 15:27:38.17	230.44	31.63	-35.2	-36.1	23.9	0.00e+00	122	40	0	1742733312	44	5654
2026-01-01 15:27:39.18	230.32	31.44	-35.2	-36.1	23.9	0.00e+00	122	40	0	1745879040	44	5617
2026-01-01 15:27:40.19	230.20	31.24	-35.1	-36.0	24.0	0.00e+00	122	40	0	1749024768	44	5551
2026-01-01 15:27:41.20	230.08	31.05	-35.1	-36.0	24.0	0.00e+00	123	40	0	1752170496	44	5571
2026-01-01 15:27:42.21	229.96	30.87	-34.9	-35.8	24.2	0.00e+00	120	40	0	1755316224	44	5462
2026-01-01 15:27:43.22	229.85	30.68	-34.8	-35.8	24.1	0.00e+00	122	40	0	1758461952	44	5405
2026-01-01 15:27:44.23	229.73	30.49	-35.0	-35.9	24.0	0.00e+00	123	40	0	1761607680	44	5524
2026-01-01 15:27:45.24	229.62	30.31	-35.1	-36.0	23.9	0.00e+00	123	40	0	1764753408	44	5583
2026-01-01 15:27:46.25	229.51	30.12	-35.3	-36.2	23.8	0.00e+00	122	40	0	1767899136	44	5697
2026-01-01 15:27:47.26	229.40	29.94	-35.5	-36.5	23.6	0.00e+00	123	40	0	1771044864	44	5870
2026-01-01 15:27:48.27	229.29	29.76	-35.8	-36.8	23.6	0.00e+00	120	40	0	1774190592	44	6078
2026-01-01 15:27:49.28	229.18	29.58	-35.9	-36.9	23.4	0.00e+00	122	40	0	1777336320	44	6141
2026-01-01 15:27:50.29	229.07	29.40	-35.9	-36.8	23.5	0.00e+00	122	40	0	1780482048	44	6125
2026-01-01 15:27:51.30	228.97	29.22	-35.8	-36.7	23.5	0.00e+00	120	40	0	1783627776	44	6044
2026-01-01 15:27:52.31	228.86	29.04	-35.9	-36.8	23.4	0.00e+00	122	40	0	1786773504	44	6121
2026-01-01 15:27:53.32	228.76	28.86	-35.9	-36.9	23.2	0.00e+00	121	40	0	1789919232	44	6187
2026-01-01 15:27:54.33	228.66	28.69	-35.9	-36.8	23.4	0.00e+00	123	40	0	1793064960	44	6124
2026-01-01 15:27:55.34	228.56	28.51	-35.9	-36.9	23.3	0.00e+00	123	40	0	1796210688	44	6140
2026-01-01 15:27:56.35	228.46	28.34	-35.8	-36.8	23.3	0.00e+00	122	40	0	1799356416	44	6096
2026-01-01 15:27:57.36	228.36	28.16	-36.1	-37.1	23.2	0.00e+00	123	40	0	1802502144	44	6284
2026-01-01 15:27:58.37	228.26	27.99	-35.5	-36.5	23.5	0.00e+00	120	40	0	1805647872	44	5865
2026-01-01 15:27:59.38	228.17	27.82	-35.6	-36.6	23.5	0.00e+00	123	40	0	1808793600	44	5931
2026-01-01 15:28:00.39	228.07	27.65	-35.5	-36.5	23.7	0.00e+00	123	40	0	1811939328	44	5864
2026-01-01 15:28:01.40	227.98	27.48	-35.1	-36.1	23.8	0.00e+00	122	40	0	1815085056	44	5614
2026-01-01 15:28:02.41	227.88	27.31	-34.9	-35.8	24.2	0.00e+00	123	40	0	1818230784	44	5444
2026-01-01 15:28:03.42	227.79	27.15	-34.7	-35.6	24.4	0.00e+00	123	40	0	1821376512	42	5975
2026-01-01 15:28:04.43	227.70	26.98	-34.5	-35.4	24.6	0.00e+00	123	40	0	1824522240	42	5845
2026-01-01 15:28:05.44	227.61	26.81	-34.4	-35.2	24.7	0.00e+00	122	40	0	1827667968	42	5720
2026-01-01 15:28:06.45	227.52	26.65	-34.1	-35.0	24.9	0.00e+00	120	40	0	1830813696	42	5554
2026-01-01 15:28:07.46	227.43	26.49	-34.1	-34.9	24.9	0.00e+00	123	40	0	1833959424	42	5505
2026-01-01 15:28:08.47	227.34	26.32	-33.8	-34.6	25.1	0.00e+00	123	40	0	1837105152	42	5316
2026-01-01 15:28:09.48	227.26	26.16	-33.8	-34.7	25.1	0.00e+00	123	40	0	1840250880	42	5367
2026-01-01 15:28:10.49	227.17	26.00	-33.8	-34.7	25.0	0.00e+00	122	40	0	1843396608	42	5370
2026-01-01 15:28:11.50	227.09	25.84	-33.8	-34.6	25.1	0.00e+00	123	40	0	1846542336	42	5341
2026-01-01 15:28:12.51	227.00	25.68	-33.8	-34.6	25.1	0.00e+00	122	40	0	1849688064	42	5314
2026-01-01 15:28:13.52	226.92	25.52	-33.9	-34.7	25.0	0.00e+00	120	40	0	1852833792	42	5402
2026-01-01 15:28:14.53	226.84	25.37	-33.9	-34.8	25.0	0.00e+00	122	40	0	1855979520	42	5416
2026-01-01 15:28:15.54	226.76	25.21	-34.2	-35.0	24.9	0.00e+00	122	40	0	1859125248	42	5573
2026-01-01 15:28:16.55	226.68	25.05	-34.2	-35.1	24.8	0.00e+00	123	40	0	1862270976	42	5640
2026-01-01 15:28:17.56	226.60	24.90	-34.3	-35.2	24.7	0.00e+00	120	40	0	1865416704	42	5674
2026-01-01 15:28:18.57	226.52	24.74	-34.4	-35.3	24.6	0.00e+00	122	40	0	1868562432	42	5774
2026-01-01 15:28:19.58	226.44	24.59	-34.6	-35.5	24.5	0.00e+00	122	40	0	1871708160	42	5890
2026-01-01 15:28:20.59	226.36	24.44	-34.7	-35.6	24.4	0.00e+00	123	40	0	1874853888	42	5951
2026-01-01 15:28:21.60	226.29	24.29	-34.8	-35.7	24.4	0.00e+00	122	40	0	1877999616	42	6016
2026-01-01 15:28:22.61	226.21	24.14	-34.8	-35.7	24.3	0.00e+00	123	40	0	1881145344	42	6052
2026-01-01 15:28:23.62	226.13	23.99	-34.9	-35.8	24.2	0.00e+00	123	40	0	1884291072	42	6074
2026-01-01 15:28:24.63	226.06	23.84	-34.9	-35.8	24.3	0.00e+00	122	40	0	1887436800	42	6115
2026-01-01 15:28:25.64	225.99	23.69	-35.1	-36.0	24.1	0.00e+00	123	40	0	1891631104	42	6238
2026-01-01 15:28:26.65	225.91	23.54	-35.0	-35.9	24.2	0.00e+00	123	40	0	1893728256	42	6161
2026-01-01 15:28:27.66	225.84	23.40	-35.0	-35.9	24.1	0.00e+00	123	40	0	1896873984	42	6152
2026-01-01 15:28:28.67	225.77	23.25	-35.0	-35.9	24.1	0.00e+00	122	40	0	1900019712	42	6183
2026-01-01 15:28:29.68	225.70	23.10	-35.1	-36.0	24.0	0.00e+00	122	40	0	1903165440	42	6240
2026-01-01 15:28:30.69	225.63	22.96	-35.0	-35.9	24.1	0.00e+00	123	40	0	1907359744	42	6176
2026-01-01 15:28:31.70	225.56	22.82	-35.1	-36.0	24.1	0.00e+00	122	40	0	1910505472	42	6226
2026-01-01 15:28:32.71	225.49	22.67	-35.1	-36.0	24.0	0.00e+00	122	40	0	1913651200	42	6237
2026-01-01 15:28:33.72	225.42	22.53	-35.0	-36.0	23.9	0.00e+00	122	40	0	1915748352	42	6219
2026-01-01 15:28:34.73	225.36	22.39	-35.1	-36.0	23.9	0.00e+00	123	40	0	1919942656	42	6240
2026-01-01 15:28:35.74	225.29	22.25	-35.1	-36.0	23.9	0.00e+00	123	40	0	1923088384	42	6273
2026-01-01 15:28:36.75	225.22	22.11	-35.2	-36.1	23.9	0.00e+00	122	40	0	1926234112	42	6313
2026-01-01 15:28:37.76	225.16	21.97	-35.2	-36.1	23.8	0.00e+00	122	40	0	1929379840	42	6343
2026-01-01 15:28:38.77	225.09	21.83	-35.2	-36.1	23.8	0.00e+00	123	40	0	1932525568	42	6343
2026-01-01 15:28:39.78	225.03	21.69	-35.2	-36.2	23.9	0.00e+00	123	40	0	1935671296	42	6354
2026-01-01 15:28:40.79	224.96	21.56	-35.2	-36.2	23.8	0.00e+00	123	40	0	1938817024	42	6362
2026-01-01 15:28:41.80	224.90	21.42	-35.1	-36.0	24.0	0.00e+00	123	40	0	1941962752	42	6274
2026-01-01 15:28:42.81	224.84	21.28	-35.1	-36.1	23.9	0.00e+00	122	40	0	1945108480	42	6284
2026-01-01 15:28:43.82	224.78	21.15	-35.2	-36.1	24.0	0.00e+00	123	40	0	1948254208	42	6304
2026-01-01 15:28:44.83	224.71	21.01	-34.9	-35.8	24.2	0.00e+00	123	40	0	1951399936	42	6101
2026-01-01 15:28:45.84	224.65	20.88	-35.0	-35.9	24.1	0.00e+00	122	40	0	1954545664	42	6199
2026-01-01 15:28:46.85	224.59	20.75	-34.9	-35.8	24.1	0.00e+00	120	40	0	1957691392	42	6132
2026-01-01 15:28:47.86	224.53	20.62	-34.7	-35.6	24.3	0.00e+00	122	40	0	1960837120	42	5949
2026-01-01 15:28:48.87	224.47	20.48	-34.7	-35.6	24.3	0.00e+00	122	40	0	1963982848	42	5969
