passes_logs/2026/01/01/R4.6S_Anadyr/R4.6S_Anadyr__20260101_175923_AQUA_rec.log

#Pass ID: 20260101_175923_AQUA
#Satellite: AQUA
#Configuration: AQUA
#almurnet v.1.7.20251203
#Start time: 2026-01-01 17:59:24

#Version: 2.2.20231116
#Station: R4.6S_Anadyr
#Location: 177.4865 lon 64.73178 lat
#TLE: 1 27424U 02022A   25364.96158944  .00001951  00000+0  40088-3 0  9999
#TLE: 2 27424  98.4061 326.1390 0001916  95.3188 305.7939 14.61780362258698

#Time	Az	El	Level	Level2	SNR	BER	BlckErr	Temp	State	Recorded	gain1	gain2
2026-01-01 17:59:24.93	23.04	0.10	-49.2	-64.1	3.5	1.51e+00	0	36	0	0	60	57860
2026-01-01 17:59:25.94	22.99	0.15	-49.5	-67.4	3.5	3.02e+01	0	38	104	0	60	89921
2026-01-01 17:59:26.95	22.95	0.21	-49.6	-67.4	3.5	3.02e+01	0	38	104	0	60	89881
2026-01-01 17:59:27.96	22.90	0.27	-49.6	-67.4	3.5	3.02e+01	0	38	104	0	60	90428
2026-01-01 17:59:28.97	22.85	0.33	-49.6	-67.4	3.5	3.02e+01	0	38	104	0	60	90474
2026-01-01 17:59:29.98	22.80	0.39	-49.6	-67.4	3.5	3.02e+01	0	38	104	0	60	90522
2026-01-01 17:59:30.99	22.75	0.45	-49.5	-67.5	3.5	3.02e+01	0	38	104	0	60	91093
2026-01-01 17:59:32.00	22.71	0.51	-49.6	-67.4	3.5	3.02e+01	0	38	104	0	60	90171
2026-01-01 17:59:33.01	22.66	0.57	-49.5	-67.4	3.5	3.02e+01	0	38	104	0	60	89767
2026-01-01 17:59:34.02	22.61	0.63	-49.5	-67.3	3.5	3.02e+01	0	38	104	0	60	89492
2026-01-01 17:59:35.03	22.56	0.69	-49.4	-67.2	3.5	3.02e+01	0	38	104	0	60	88558
2026-01-01 17:59:36.04	22.51	0.75	-49.1	-67.1	3.5	3.02e+01	0	38	104	0	60	87213
2026-01-01 17:59:37.05	22.46	0.81	-49.0	-66.9	3.5	3.02e+01	0	38	104	0	60	85364
2026-01-01 17:59:38.06	22.41	0.87	-48.8	-66.8	3.5	3.02e+01	0	38	104	0	60	84244
2026-01-01 17:59:39.07	22.36	0.93	-48.7	-66.5	3.5	3.02e+01	0	38	104	0	60	81714
2026-01-01 17:59:40.07	22.31	0.99	-48.4	-66.3	3.5	3.02e+01	0	38	104	0	60	79044
2026-01-01 17:59:41.09	22.26	1.05	-48.0	-66.0	3.5	3.02e+01	0	38	104	0	60	77201
2026-01-01 17:59:42.10	22.21	1.11	-48.0	-66.0	3.5	3.02e+01	0	38	104	0	60	76602
2026-01-01 17:59:43.11	22.16	1.17	-48.0	-66.0	3.5	3.02e+01	0	38	104	0	60	76654
2026-01-01 17:59:44.12	22.10	1.23	-48.0	-66.0	3.5	3.02e+01	0	38	104	0	60	76567
2026-01-01 17:59:45.13	22.05	1.29	-48.0	-66.0	3.5	3.02e+01	0	38	104	0	60	76813
2026-01-01 17:59:46.14	22.00	1.35	-47.9	-66.0	3.5	3.02e+01	0	38	104	0	60	76486
2026-01-01 17:59:47.15	21.95	1.41	-47.9	-66.0	3.5	3.02e+01	0	38	104	0	60	76622
2026-01-01 17:59:48.16	21.90	1.48	-47.9	-66.0	3.5	3.02e+01	0	38	104	0	60	76871
2026-01-01 17:59:49.16	21.84	1.54	-47.9	-66.0	3.5	3.02e+01	0	38	104	0	60	76668
2026-01-01 17:59:50.17	21.79	1.60	-47.9	-66.0	3.5	3.02e+01	0	38	104	0	60	76527
2026-01-01 17:59:51.18	21.74	1.66	-48.0	-66.0	3.5	3.02e+01	0	38	104	0	60	76443
2026-01-01 17:59:52.19	21.68	1.72	-48.0	-66.0	3.5	3.02e+01	0	38	104	0	60	76601
2026-01-01 17:59:53.20	21.63	1.78	-47.9	-66.0	3.5	3.02e+01	0	38	104	0	60	77063
2026-01-01 17:59:54.21	21.58	1.84	-47.9	-66.0	3.5	3.02e+01	0	38	104	0	60	76791
2026-01-01 17:59:55.22	21.52	1.91	-48.0	-66.0	3.5	3.02e+01	0	38	104	0	60	76814
2026-01-01 17:59:56.23	21.47	1.97	-47.9	-66.0	3.5	3.02e+01	0	38	104	0	60	76379
2026-01-01 17:59:57.24	21.41	2.03	-47.9	-66.0	3.5	3.02e+01	0	38	104	0	60	77000
2026-01-01 17:59:58.26	21.36	2.09	-47.9	-65.9	3.5	3.02e+01	0	38	104	0	60	76174
2026-01-01 17:59:59.26	21.30	2.16	-47.9	-65.9	3.5	3.02e+01	0	38	104	0	60	76101
2026-01-01 18:00:00.27	21.25	2.22	-47.9	-65.9	3.5	3.02e+01	0	38	104	0	60	75926
2026-01-01 18:00:01.28	21.19	2.28	-47.9	-65.8	3.5	3.02e+01	0	38	104	0	60	75142
2026-01-01 18:00:02.29	21.13	2.35	-47.9	-65.7	3.5	3.02e+01	0	38	104	0	60	74287
2026-01-01 18:00:03.30	21.08	2.41	-47.9	-65.7	3.5	3.02e+01	0	38	104	0	60	73951
2026-01-01 18:00:04.31	21.02	2.47	-47.9	-65.7	3.5	3.02e+01	0	38	104	0	60	74447
2026-01-01 18:00:05.32	20.96	2.53	-47.9	-65.7	3.5	3.02e+01	0	38	104	0	60	74573
2026-01-01 18:00:06.33	20.90	2.60	-47.9	-65.9	3.5	3.02e+01	0	38	104	0	60	75631
2026-01-01 18:00:07.34	20.85	2.66	-47.9	-66.0	3.5	3.02e+01	0	38	104	0	60	76628
2026-01-01 18:00:08.35	20.79	2.73	-47.9	-66.0	3.5	3.02e+01	0	38	104	0	60	76820
2026-01-01 18:00:09.36	20.73	2.79	-47.9	-66.0	3.5	3.02e+01	0	38	104	0	60	76915
2026-01-01 18:00:10.37	20.67	2.85	-47.9	-66.0	3.5	3.02e+01	0	38	104	0	60	76760
2026-01-01 18:00:11.38	20.61	2.92	-47.9	-66.0	3.5	3.02e+01	0	38	104	0	60	76877
2026-01-01 18:00:12.39	20.55	2.98	-47.9	-65.9	3.5	3.02e+01	0	38	104	0	60	76268
2026-01-01 18:00:13.40	20.49	3.05	-47.9	-65.7	3.5	3.02e+01	0	38	104	0	60	74243
2026-01-01 18:00:14.41	20.43	3.11	-47.8	-65.2	3.5	3.02e+01	0	38	104	0	60	70372
2026-01-01 18:00:15.42	20.37	3.18	-47.8	-65.0	3.5	3.02e+01	0	38	104	0	60	68146
2026-01-01 18:00:16.43	20.31	3.24	-47.8	-65.3	3.5	3.02e+01	0	38	104	0	60	70680
2026-01-01 18:00:17.44	20.25	3.31	-47.9	-65.6	3.5	3.02e+01	0	39	104	0	60	73383
2026-01-01 18:00:18.45	20.19	3.37	-47.9	-65.5	3.5	3.02e+01	0	38	104	0	60	72806
2026-01-01 18:00:19.46	20.13	3.44	-47.6	-64.1	3.5	3.02e+01	0	39	104	0	60	62049
2026-01-01 18:00:20.47	20.07	3.50	-46.9	-61.6	3.5	3.02e+01	0	39	104	0	60	46100
2026-01-01 18:00:21.48	20.01	3.57	-46.1	-59.4	3.5	3.02e+01	0	38	104	0	60	35952
2026-01-01 18:00:22.49	19.94	3.63	-45.5	-58.1	3.5	3.02e+01	0	38	104	0	60	31070
2026-01-01 18:00:23.50	19.88	3.70	-46.8	-60.9	3.5	3.02e+01	0	38	104	0	60	42789
2026-01-01 18:00:24.51	19.82	3.77	-44.9	-57.1	3.5	3.02e+01	0	39	104	0	60	27590
2026-01-01 18:00:25.52	19.76	3.83	-44.9	-57.0	3.5	3.02e+01	0	38	104	0	56	34321
2026-01-01 18:00:26.53	19.69	3.90	-47.8	-63.7	3.5	3.02e+01	0	39	104	0	60	59077
2026-01-01 18:00:27.54	19.63	3.96	-40.4	-51.1	3.5	3.02e+01	0	38	104	0	60	13766
2026-01-01 18:00:28.55	19.56	4.03	-40.3	-51.0	3.5	3.02e+01	0	38	104	0	56	17235
2026-01-01 18:00:29.56	19.50	4.10	-39.6	-50.3	3.5	3.02e+01	0	38	104	0	54	17697
2026-01-01 18:00:30.57	19.43	4.16	-39.3	-49.8	3.5	3.02e+01	0	38	104	0	54	16836
2026-01-01 18:00:31.58	19.37	4.23	-39.2	-49.7	3.5	3.02e+01	0	38	104	0	52	18572
2026-01-01 18:00:32.59	19.30	4.30	-39.1	-49.5	3.5	3.02e+01	0	38	104	0	52	18199
2026-01-01 18:00:33.60	19.24	4.37	-44.0	-55.7	3.6	3.02e+01	0	38	104	0	58	26192
2026-01-01 18:00:34.61	19.17	4.43	-46.9	-61.0	3.5	3.02e+01	0	39	104	0	60	43129
2026-01-01 18:00:35.62	19.10	4.50	-42.5	-53.6	3.5	3.02e+01	0	38	104	0	60	18483
2026-01-01 18:00:36.63	19.04	4.57	-47.9	-64.9	3.5	3.02e+01	0	38	104	0	60	67357
2026-01-01 18:00:37.64	18.97	4.64	-45.5	-58.0	3.5	3.02e+01	0	39	104	0	60	30663
2026-01-01 18:00:38.64	18.90	4.70	-40.5	-51.1	3.5	3.02e+01	0	39	104	0	56	17437
2026-01-01 18:00:39.65	18.83	4.77	-40.3	-51.0	3.5	3.02e+01	0	39	104	0	56	17134
2026-01-01 18:00:40.66	18.76	4.84	-39.7	-50.2	3.5	3.02e+01	0	38	104	0	54	17648
2026-01-01 18:00:41.67	18.70	4.91	-48.3	-65.2	3.5	3.02e+01	0	39	104	0	60	70155
2026-01-01 18:00:42.68	18.63	4.98	-44.4	-56.2	3.5	3.02e+01	0	39	104	0	60	24965
2026-01-01 18:00:43.69	18.56	5.05	-48.2	-65.4	3.5	3.02e+01	0	39	104	0	60	71805
2026-01-01 18:00:44.70	18.49	5.12	-48.3	-65.6	3.5	3.02e+01	0	39	104	0	60	73309
2026-01-01 18:00:45.71	18.42	5.19	-40.0	-50.5	3.5	3.02e+01	0	39	104	0	54	18310
2026-01-01 18:00:46.72	18.35	5.26	-41.0	-51.7	3.5	3.02e+01	0	39	104	0	58	16553
2026-01-01 18:00:47.73	18.27	5.33	-40.8	-51.4	3.5	3.02e+01	0	39	104	0	56	18018
2026-01-01 18:00:48.74	18.20	5.39	-39.9	-50.4	3.5	3.02e+01	0	39	104	0	54	18084
2026-01-01 18:00:49.75	18.13	5.46	-39.7	-50.2	3.5	3.02e+01	0	39	104	0	54	17606
2026-01-01 18:00:50.76	18.06	5.53	-38.5	-48.9	3.5	3.02e+01	0	39	104	0	52	17066
2026-01-01 18:00:51.77	17.98	5.60	-43.7	-55.0	3.5	3.02e+01	0	39	104	0	60	21706
2026-01-01 18:00:52.78	17.91	5.68	-47.9	-63.5	3.5	3.02e+01	0	39	104	0	60	57347
2026-01-01 18:00:53.79	17.84	5.75	-42.2	-53.2	3.5	3.02e+01	0	39	104	0	60	17625
2026-01-01 18:00:54.80	17.76	5.82	-48.3	-65.3	3.5	3.02e+01	0	39	104	0	60	70767
2026-01-01 18:00:55.81	17.69	5.89	-40.4	-51.0	3.5	3.02e+01	0	39	104	0	56	17261
2026-01-01 18:00:56.82	17.61	5.96	-39.8	-50.3	3.5	3.02e+01	0	39	104	0	54	17725
2026-01-01 18:00:57.83	17.54	6.03	-39.3	-49.7	3.5	3.02e+01	0	39	104	0	54	16661
2026-01-01 18:00:58.83	17.46	6.10	-39.1	-49.5	3.5	3.02e+01	0	39	104	0	52	18230
2026-01-01 18:00:59.84	17.39	6.17	-48.2	-64.8	3.5	3.02e+01	0	39	104	0	60	66581
2026-01-01 18:01:00.85	17.31	6.24	-42.5	-53.6	3.5	3.02e+01	0	39	104	0	60	18487
2026-01-01 18:01:01.86	17.23	6.32	-48.3	-65.0	3.5	3.02e+01	0	39	104	0	60	68140
2026-01-01 18:01:02.87	17.16	6.39	-48.5	-66.4	3.5	3.02e+01	0	39	104	0	60	80352
2026-01-01 18:01:03.88	17.08	6.46	-40.4	-51.0	3.5	3.02e+01	0	39	104	0	54	19332
2026-01-01 18:01:04.89	17.00	6.53	-39.2	-49.6	3.5	3.02e+01	0	39	104	0	54	16496
2026-01-01 18:01:05.90	16.92	6.61	-38.9	-49.2	3.5	3.02e+01	0	39	104	0	52	17661
2026-01-01 18:01:06.91	16.84	6.68	-38.0	-48.4	3.5	3.02e+01	0	39	104	0	52	15953
2026-01-01 18:01:07.92	16.76	6.75	-37.9	-48.3	3.5	3.02e+01	0	39	104	0	50	17697
2026-01-01 18:01:08.93	16.68	6.82	-38.3	-48.6	3.5	3.02e+01	0	39	104	0	50	18515
2026-01-01 18:01:09.94	16.60	6.90	-41.2	-51.9	3.5	3.02e+01	0	39	104	0	54	21349
2026-01-01 18:01:10.95	16.52	6.97	-48.3	-65.2	3.5	3.02e+01	0	39	104	0	60	70298
2026-01-01 18:01:11.96	16.44	7.04	-48.7	-66.3	3.5	3.02e+01	0	39	104	0	60	79271
2026-01-01 18:01:12.97	16.36	7.12	-41.0	-51.7	3.6	3.02e+01	0	39	104	0	54	20938
2026-01-01 18:01:13.98	16.27	7.19	-39.5	-49.9	3.6	3.02e+01	0	39	104	0	54	17073
2026-01-01 18:01:14.99	16.19	7.27	-39.5	-50.0	3.5	3.02e+01	0	39	104	0	54	17288
2026-01-01 18:01:16.00	16.11	7.34	-39.2	-49.6	3.5	3.02e+01	0	39	104	0	52	18421
2026-01-01 18:01:17.00	16.02	7.42	-39.1	-49.5	3.5	3.02e+01	0	39	104	0	52	18302
2026-01-01 18:01:18.01	15.94	7.49	-40.1	-50.6	3.5	3.02e+01	0	39	104	0	52	20619
2026-01-01 18:01:19.02	15.86	7.57	-45.5	-58.0	3.5	3.02e+01	0	39	104	0	60	30438
2026-01-01 18:01:20.03	15.77	7.64	-48.7	-66.3	3.5	3.02e+01	0	39	104	0	60	79785
2026-01-01 18:01:21.04	15.68	7.72	-40.5	-51.0	3.5	3.02e+01	0	39	104	0	56	17271
2026-01-01 18:01:22.05	15.60	7.79	-48.3	-65.2	3.5	3.02e+01	0	39	104	0	60	69636
2026-01-01 18:01:23.06	15.51	7.87	-40.2	-50.8	3.5	3.02e+01	0	39	104	0	56	16772
2026-01-01 18:01:24.07	15.42	7.94	-39.6	-50.1	3.5	3.02e+01	0	39	104	0	54	17406
2026-01-01 18:01:25.08	15.33	8.02	-39.3	-49.8	3.5	3.02e+01	0	39	104	0	54	16710
2026-01-01 18:01:26.09	15.25	8.10	-39.1	-49.5	3.5	3.02e+01	0	39	104	0	52	18127
2026-01-01 18:01:27.10	15.16	8.17	-45.8	-58.3	3.5	3.02e+01	0	39	104	0	60	31632
2026-01-01 18:01:28.11	15.07	8.25	-40.2	-50.7	3.4	3.02e+01	0	39	104	0	58	14878
2026-01-01 18:01:29.12	14.98	8.33	-48.3	-64.6	3.5	3.02e+01	0	39	104	0	60	65659
2026-01-01 18:01:30.13	14.89	8.40	-48.5	-65.2	3.5	3.02e+01	0	39	104	0	60	70070
2026-01-01 18:01:31.14	14.80	8.48	-40.4	-51.0	3.5	3.02e+01	0	39	104	0	54	19228
2026-01-01 18:01:32.15	14.70	8.56	-38.6	-49.0	3.5	3.02e+01	0	39	104	0	52	17252
2026-01-01 18:01:33.16	14.61	8.64	-37.7	-48.0	3.5	3.02e+01	0	39	104	0	50	17147
2026-01-01 18:01:34.17	14.52	8.71	-37.1	-47.3	3.5	3.02e+01	0	39	104	0	50	15798
2026-01-01 18:01:35.18	14.42	8.79	-36.9	-47.1	3.5	3.02e+01	0	39	104	0	48	17488
2026-01-01 18:01:36.19	14.33	8.87	-40.5	-51.0	3.5	3.02e+01	0	39	104	0	54	19372
2026-01-01 18:01:37.20	14.24	8.95	-39.8	-50.4	3.5	3.02e+01	0	39	104	0	54	17916
2026-01-01 18:01:38.21	14.14	9.03	-48.3	-64.4	3.5	3.02e+01	0	39	104	0	60	63579
2026-01-01 18:01:39.22	14.05	9.11	-48.5	-64.7	3.5	3.02e+01	0	39	104	0	60	66235
2026-01-01 18:01:40.23	13.95	9.19	-40.2	-50.8	3.5	3.02e+01	0	39	104	0	54	18770
2026-01-01 18:01:41.24	13.85	9.26	-38.9	-49.3	3.5	3.02e+01	0	39	104	0	52	17721
2026-01-01 18:01:42.25	13.75	9.34	-37.8	-48.1	3.5	3.02e+01	0	39	104	0	50	17338
2026-01-01 18:01:43.26	13.66	9.42	-37.0	-47.2	3.5	3.02e+01	0	39	104	0	50	15620
2026-01-01 18:01:44.26	13.56	9.50	-36.8	-47.0	3.5	3.02e+01	0	39	104	0	48	17197
2026-01-01 18:01:45.27	13.46	9.58	-38.6	-48.8	3.6	3.02e+01	0	39	104	0	50	18862
2026-01-01 18:01:46.28	13.36	9.66	-39.3	-49.6	3.6	3.02e+01	0	39	104	0	54	16391
2026-01-01 18:01:47.29	13.26	9.74	-48.2	-57.8	4.4	3.02e+01	0	39	104	0	60	29849
2026-01-01 18:01:48.30	13.16	9.82	-46.2	-50.5	18.8	3.02e+01	60	39	0	0	60	12857
2026-01-01 18:01:49.31	13.06	9.91	-39.6	-41.1	25.2	3.02e+01	56	39	0	2097152	54	6170
2026-01-01 18:01:50.32	12.95	9.99	-38.1	-39.5	26.7	3.02e+01	64	39	0	4194304	52	5736
2026-01-01 18:01:51.33	12.85	10.07	-37.6	-38.9	27.0	3.02e+01	60	39	0	5767168	50	6057
2026-01-01 18:01:52.34	12.75	10.15	-37.4	-38.7	27.3	3.02e+01	54	39	0	7864320	50	5902
2026-01-01 18:01:53.35	12.64	10.23	-37.1	-38.4	27.5	3.02e+01	46	39	0	9961472	50	5695
2026-01-01 18:01:54.35	12.54	10.31	-36.8	-38.1	28.0	3.02e+01	60	39	0	11534336	48	6199
2026-01-01 18:01:55.36	12.43	10.40	-36.9	-38.2	27.6	3.02e+01	60	39	0	13631488	48	6233
2026-01-01 18:01:56.37	12.33	10.48	-36.9	-38.2	28.0	3.02e+01	59	39	0	15204352	48	6211
2026-01-01 18:01:57.38	12.22	10.56	-36.6	-37.8	27.8	3.02e+01	58	39	0	17301504	48	5992
2026-01-01 18:01:58.39	12.11	10.64	-36.6	-37.8	28.1	3.02e+01	55	39	0	19398656	48	5984
2026-01-01 18:01:59.40	12.00	10.73	-36.5	-37.7	28.2	3.02e+01	59	39	0	20971520	48	5921
2026-01-01 18:02:00.41	11.89	10.81	-36.2	-37.4	28.5	3.02e+01	60	39	0	23068672	48	5705
2026-01-01 18:02:01.42	11.78	10.89	-36.0	-37.2	25.4	3.02e+01	47	39	0	24641536	48	5569
2026-01-01 18:02:02.43	11.67	10.98	-36.0	-37.3	28.6	3.02e+01	58	39	0	26738688	46	6286
2026-01-01 18:02:03.44	11.56	11.06	-36.0	-37.3	28.6	3.02e+01	58	39	0	28311552	46	6316
2026-01-01 18:02:04.45	11.45	11.15	-35.9	-37.2	28.7	3.02e+01	56	39	0	30408704	46	6219
2026-01-01 18:02:05.46	11.34	11.23	-35.9	-37.2	28.7	3.02e+01	60	39	0	32505856	46	6220
2026-01-01 18:02:06.47	11.22	11.31	-36.0	-37.2	28.6	3.02e+01	53	39	0	34078720	46	6256
2026-01-01 18:02:07.48	11.11	11.40	-35.9	-37.1	28.8	3.02e+01	58	39	0	36175872	46	6180
2026-01-01 18:02:08.49	11.00	11.48	-36.0	-37.2	28.7	3.02e+01	59	39	0	38273024	46	6256
2026-01-01 18:02:09.49	10.88	11.57	-36.0	-37.2	28.7	3.02e+01	60	39	0	39845888	46	6245
2026-01-01 18:02:10.50	10.76	11.65	-36.0	-37.2	28.7	3.02e+01	58	39	0	41943040	46	6243
2026-01-01 18:02:11.51	10.65	11.74	-36.1	-37.3	28.6	3.02e+01	46	39	0	43515904	46	6333
2026-01-01 18:02:12.52	10.53	11.83	-35.8	-37.1	28.8	3.02e+01	62	39	0	45613056	46	6156
2026-01-01 18:02:13.53	10.41	11.91	-35.9	-37.1	28.8	3.02e+01	57	39	0	47710208	46	6202
2026-01-01 18:02:14.54	10.29	12.00	-35.7	-36.9	29.0	3.02e+01	46	39	0	49283072	46	6059
2026-01-01 18:02:15.55	10.17	12.09	-35.7	-36.9	28.9	3.02e+01	61	39	0	51380224	46	6049
2026-01-01 18:02:16.56	10.05	12.17	-35.8	-37.1	28.8	3.02e+01	58	39	0	53477376	46	6135
2026-01-01 18:02:17.57	9.93	12.26	-35.5	-36.8	29.1	3.02e+01	60	39	0	55050240	46	5930
2026-01-01 18:02:18.58	9.81	12.35	-35.7	-36.9	29.0	3.02e+01	58	39	0	57147392	46	6063
2026-01-01 18:02:19.59	9.68	12.43	-35.7	-36.9	29.0	3.02e+01	46	39	0	58720256	46	6041
2026-01-01 18:02:20.59	9.56	12.52	-35.5	-36.7	29.1	3.02e+01	58	39	0	60817408	46	5923
2026-01-01 18:02:21.60	9.44	12.61	-35.6	-36.8	29.1	3.02e+01	59	39	0	62914560	46	5981
2026-01-01 18:02:22.61	9.31	12.70	-35.6	-36.8	29.1	3.02e+01	52	39	0	64487424	46	5989
2026-01-01 18:02:23.62	9.18	12.79	-35.6	-36.8	29.1	3.02e+01	60	39	0	66584576	46	5985
2026-01-01 18:02:24.63	9.06	12.87	-35.6	-36.8	29.1	3.02e+01	60	39	0	68157440	46	5994
2026-01-01 18:02:25.64	8.93	12.96	-35.5	-36.8	29.1	3.02e+01	58	39	0	70254592	46	5951
2026-01-01 18:02:26.65	8.80	13.05	-35.5	-36.8	29.2	3.02e+01	57	39	0	72351744	46	5943
2026-01-01 18:02:27.66	8.67	13.14	-35.6	-36.8	29.2	3.02e+01	58	39	0	73924608	46	5943
2026-01-01 18:02:28.67	8.54	13.23	-35.7	-36.9	29.1	3.02e+01	56	39	0	76021760	46	6044
2026-01-01 18:02:29.68	8.41	13.32	-35.7	-36.9	29.0	3.02e+01	57	39	0	77594624	46	6013
2026-01-01 18:02:30.69	8.27	13.41	-35.5	-36.7	29.1	3.02e+01	48	39	0	79691776	46	5920
2026-01-01 18:02:31.70	8.14	13.50	-35.5	-36.7	29.3	3.02e+01	60	39	0	81788928	46	5866
2026-01-01 18:02:32.71	8.00	13.59	-35.5	-36.7	29.1	3.02e+01	62	39	0	83361792	46	5905
2026-01-01 18:02:33.72	7.87	13.68	-35.7	-36.9	29.3	3.02e+01	60	39	0	85458944	46	6014
2026-01-01 18:02:34.73	7.73	13.77	-35.6	-36.8	29.1	3.02e+01	56	39	0	87031808	46	5968
2026-01-01 18:02:35.74	7.60	13.86	-35.8	-37.0	29.1	3.02e+01	45	39	0	89128960	46	6089
2026-01-01 18:02:36.74	7.46	13.95	-35.7	-36.9	29.1	3.02e+01	63	39	0	91226112	46	6025
2026-01-01 18:02:37.75	7.32	14.05	-35.7	-36.9	29.1	3.02e+01	55	39	0	92798976	46	6029
2026-01-01 18:02:38.76	7.18	14.14	-35.5	-36.7	29.2	3.02e+01	45	39	0	94896128	46	5923
2026-01-01 18:02:39.77	7.04	14.23	-35.4	-36.6	29.4	3.02e+01	63	39	0	96468992	46	5805
2026-01-01 18:02:40.78	6.90	14.32	-35.5	-36.7	29.3	3.02e+01	54	39	0	98566144	46	5916
2026-01-01 18:02:41.79	6.75	14.41	-35.5	-36.8	29.2	3.02e+01	61	39	0	100663296	46	5930
2026-01-01 18:02:42.80	6.61	14.51	-35.5	-36.7	29.2	3.02e+01	59	39	0	102236160	46	5909
2026-01-01 18:02:43.81	6.47	14.60	-35.6	-36.8	29.2	3.02e+01	44	39	0	104333312	46	5983
2026-01-01 18:02:44.82	6.32	14.69	-35.5	-36.8	29.2	3.02e+01	60	39	0	106430464	46	5931
2026-01-01 18:02:45.83	6.17	14.79	-35.7	-36.9	29.1	3.02e+01	61	39	0	108003328	46	6051
2026-01-01 18:02:46.84	6.03	14.88	-35.7	-37.0	29.1	3.02e+01	56	39	0	110100480	46	6066
2026-01-01 18:02:47.85	5.88	14.97	-35.5	-36.8	29.2	3.02e+01	58	39	0	111673344	46	5933
2026-01-01 18:02:48.86	5.73	15.07	-35.7	-36.9	29.1	3.02e+01	51	39	0	113770496	46	6031
2026-01-01 18:02:49.87	5.58	15.16	-35.8	-37.0	29.1	3.02e+01	59	39	0	115867648	46	6076
2026-01-01 18:02:50.88	5.42	15.25	-35.7	-36.9	29.1	3.02e+01	60	39	0	117440512	46	6028
2026-01-01 18:02:51.89	5.27	15.35	-35.6	-36.8	29.2	3.02e+01	45	39	0	119537664	46	5967
2026-01-01 18:02:52.90	5.12	15.44	-35.6	-36.8	29.2	3.02e+01	59	39	0	121634816	46	5944
2026-01-01 18:02:53.91	4.96	15.54	-35.6	-36.8	29.3	3.02e+01	61	39	0	123207680	46	5937
2026-01-01 18:02:54.91	4.81	15.63	-35.5	-36.7	29.3	3.02e+01	60	39	0	125304832	46	5863
2026-01-01 18:02:55.92	4.65	15.73	-35.4	-36.7	29.3	3.02e+01	59	39	0	126877696	46	5865
2026-01-01 18:02:56.93	4.49	15.82	-35.4	-36.6	29.4	3.02e+01	58	39	0	128974848	46	5822
2026-01-01 18:02:57.94	4.33	15.92	-35.3	-36.5	29.5	3.02e+01	59	39	0	130547712	46	5757
2026-01-01 18:02:58.95	4.17	16.02	-35.4	-36.6	29.4	3.02e+01	57	39	0	132644864	46	5824
2026-01-01 18:02:59.96	4.01	16.11	-35.3	-36.5	29.5	3.02e+01	50	39	0	134742016	46	5780
2026-01-01 18:03:00.97	3.85	16.21	-35.3	-36.5	29.4	3.02e+01	52	39	0	136314880	46	5787
2026-01-01 18:03:01.98	3.68	16.30	-35.3	-36.5	29.5	3.02e+01	55	39	0	138412032	46	5773
2026-01-01 18:03:02.99	3.52	16.40	-35.3	-36.5	29.5	3.02e+01	61	39	0	139984896	46	5748
2026-01-01 18:03:04.00	3.35	16.50	-35.4	-36.6	29.5	3.02e+01	60	39	0	142082048	46	5796
2026-01-01 18:03:05.01	3.18	16.59	-35.5	-36.7	29.3	3.02e+01	54	39	0	144179200	46	5884
2026-01-01 18:03:06.02	3.01	16.69	-35.6	-36.8	29.4	3.02e+01	60	39	0	145752064	46	5942
2026-01-01 18:03:07.03	2.84	16.79	-35.5	-36.7	29.2	3.02e+01	60	39	0	147849216	46	5924
2026-01-01 18:03:08.03	2.68	16.89	-35.7	-36.9	29.2	3.02e+01	46	39	0	149946368	46	6046
2026-01-01 18:03:09.04	2.50	16.98	-35.8	-37.0	29.1	3.02e+01	58	39	0	151519232	46	6100
2026-01-01 18:03:10.06	2.33	17.08	-35.7	-36.9	29.3	3.02e+01	58	39	0	153616384	46	6024
2026-01-01 18:03:11.06	2.15	17.18	-35.6	-36.8	29.3	3.02e+01	60	39	0	155189248	46	5947
2026-01-01 18:03:12.07	1.98	17.28	-35.4	-36.6	29.4	3.02e+01	59	39	0	157286400	46	5832
2026-01-01 18:03:13.08	1.80	17.38	-35.5	-36.7	29.4	3.02e+01	54	39	0	159383552	46	5903
2026-01-01 18:03:14.09	1.62	17.48	-35.5	-36.7	29.3	3.02e+01	59	39	0	160956416	46	5874
2026-01-01 18:03:15.10	1.44	17.57	-35.6	-36.8	29.2	3.02e+01	58	39	0	163053568	46	5982
2026-01-01 18:03:16.11	1.26	17.67	-35.4	-36.6	29.5	3.02e+01	48	39	0	165150720	46	5810
2026-01-01 18:03:17.12	1.08	17.77	-35.5	-36.7	29.3	3.02e+01	56	39	0	166723584	46	5910
2026-01-01 18:03:18.13	0.90	17.87	-35.4	-36.6	29.5	3.02e+01	46	39	0	168820736	46	5838
2026-01-01 18:03:19.14	0.71	17.97	-35.5	-36.7	29.4	3.02e+01	57	39	0	170393600	46	5898
2026-01-01 18:03:20.15	0.53	18.07	-35.6	-36.8	29.3	3.02e+01	59	39	0	172490752	46	5938
2026-01-01 18:03:21.16	0.34	18.17	-35.4	-36.6	29.5	3.02e+01	46	39	0	174587904	46	5834
2026-01-01 18:03:22.17	0.15	18.27	-35.5	-36.7	29.4	3.02e+01	60	39	0	176160768	46	5912
2026-01-01 18:03:23.18	359.96	18.37	-35.5	-36.7	29.4	3.02e+01	57	39	0	178257920	46	5906
2026-01-01 18:03:24.19	359.77	18.47	-35.6	-36.8	29.3	3.02e+01	58	39	0	179830784	46	5940
2026-01-01 18:03:25.19	359.58	18.57	-35.7	-36.9	29.2	3.02e+01	61	39	0	181927936	46	6003
2026-01-01 18:03:26.20	359.38	18.67	-35.7	-37.0	29.2	3.02e+01	46	39	0	184025088	46	6065
2026-01-01 18:03:27.21	359.19	18.77	-35.7	-36.9	29.1	3.02e+01	57	39	0	185597952	46	6064
2026-01-01 18:03:28.22	358.99	18.87	-35.5	-36.7	29.4	3.02e+01	58	39	0	187695104	46	5882
2026-01-01 18:03:29.23	358.79	18.97	-35.5	-36.7	29.4	3.02e+01	44	39	0	189267968	46	5865
2026-01-01 18:03:30.24	358.59	19.07	-35.4	-36.6	29.5	3.02e+01	60	39	0	191365120	46	5813
2026-01-01 18:03:31.25	358.39	19.17	-35.4	-36.6	29.4	3.02e+01	63	39	0	193462272	46	5850
2026-01-01 18:03:32.26	358.19	19.27	-35.5	-36.7	29.4	3.02e+01	60	39	0	195035136	46	5903
2026-01-01 18:03:33.27	357.98	19.37	-35.5	-36.7	29.4	3.02e+01	60	39	0	197132288	46	5924
2026-01-01 18:03:34.28	357.78	19.48	-35.7	-36.9	29.2	3.02e+01	57	39	0	198705152	46	6007
2026-01-01 18:03:35.29	357.57	19.58	-35.5	-36.7	29.3	3.02e+01	57	39	0	200802304	46	5915
2026-01-01 18:03:36.30	357.36	19.68	-35.5	-36.7	29.4	3.02e+01	58	39	0	202899456	46	5889
2026-01-01 18:03:37.31	357.15	19.78	-35.6	-36.9	29.3	3.02e+01	53	39	0	204472320	46	5999
2026-01-01 18:03:38.32	356.94	19.88	-35.7	-36.9	29.2	3.02e+01	60	39	0	206569472	46	6036
2026-01-01 18:03:39.33	356.73	19.98	-35.8	-37.0	29.1	3.02e+01	60	39	0	208142336	46	6102
2026-01-01 18:03:40.34	356.51	20.08	-35.7	-36.9	29.2	3.02e+01	58	39	0	210239488	46	6058
2026-01-01 18:03:41.35	356.30	20.19	-35.7	-36.9	29.2	3.02e+01	57	39	0	212336640	46	6049
2026-01-01 18:03:42.36	356.08	20.29	-35.8	-37.0	29.2	3.02e+01	50	39	0	213909504	46	6086
2026-01-01 18:03:43.37	355.86	20.39	-35.8	-37.0	29.2	3.02e+01	60	39	0	216006656	46	6087
2026-01-01 18:03:44.38	355.64	20.49	-35.8	-37.0	29.1	3.02e+01	57	39	0	218103808	46	6117
2026-01-01 18:03:45.39	355.42	20.59	-35.8	-37.0	29.1	3.02e+01	46	39	0	219676672	46	6112
2026-01-01 18:03:46.39	355.20	20.69	-35.9	-37.1	29.1	3.02e+01	60	39	0	221773824	46	6162
2026-01-01 18:03:47.40	354.97	20.79	-35.8	-37.0	29.2	3.02e+01	63	39	0	223346688	46	6100
2026-01-01 18:03:48.41	354.74	20.90	-35.8	-37.1	29.1	3.02e+01	63	39	0	225443840	46	6139
2026-01-01 18:03:49.42	354.52	21.00	-35.9	-37.1	29.1	3.02e+01	58	39	0	227540992	46	6163
2026-01-01 18:03:50.43	354.29	21.10	-35.7	-36.9	29.3	3.02e+01	53	39	0	229113856	46	6020
2026-01-01 18:03:51.44	354.05	21.20	-35.7	-36.9	29.2	3.02e+01	58	39	0	231211008	46	6054
2026-01-01 18:03:52.45	353.82	21.30	-35.5	-36.7	29.4	3.02e+01	60	39	0	232783872	46	5919
2026-01-01 18:03:53.46	353.59	21.40	-35.6	-36.8	29.3	3.02e+01	61	39	0	234881024	46	5971
2026-01-01 18:03:54.47	353.35	21.50	-35.6	-36.8	29.3	3.02e+01	58	39	0	236978176	46	5980
2026-01-01 18:03:55.48	353.11	21.61	-35.7	-36.9	29.3	3.02e+01	55	39	0	238551040	46	6013
2026-01-01 18:03:56.49	352.87	21.71	-35.7	-36.9	29.2	3.02e+01	62	39	0	240648192	46	6053
2026-01-01 18:03:57.50	352.63	21.81	-35.8	-37.0	29.2	3.02e+01	57	39	0	242745344	46	6094
2026-01-01 18:03:58.50	352.39	21.91	-35.8	-37.0	29.2	3.02e+01	40	39	0	244318208	46	6101
2026-01-01 18:03:59.51	352.14	22.01	-35.9	-37.1	29.1	3.02e+01	59	39	0	246415360	46	6177
2026-01-01 18:04:00.51	351.90	22.11	-35.9	-37.2	29.1	3.02e+01	59	39	0	247988224	46	6218
2026-01-01 18:04:01.52	351.65	22.21	-36.0	-37.2	29.1	3.02e+01	52	39	0	250085376	46	6232
2026-01-01 18:04:02.53	351.40	22.31	-35.9	-37.1	29.0	3.02e+01	59	39	0	251658240	46	6204
2026-01-01 18:04:03.54	351.15	22.41	-35.9	-37.2	29.1	3.02e+01	46	39	0	253755392	46	6217
2026-01-01 18:04:04.55	350.89	22.51	-36.0	-37.2	29.0	3.02e+01	63	39	0	255852544	46	6263
2026-01-01 18:04:05.55	350.64	22.61	-35.9	-37.1	29.1	3.02e+01	59	39	0	257425408	46	6181
2026-01-01 18:04:06.56	350.38	22.71	-35.8	-37.0	29.2	3.02e+01	46	39	0	259522560	46	6124
2026-01-01 18:04:07.57	350.13	22.81	-36.0	-37.2	29.1	3.02e+01	61	39	0	261619712	46	6233
2026-01-01 18:04:08.58	349.86	22.91	-36.0	-37.2	29.0	3.02e+01	60	39	0	263192576	46	6260
2026-01-01 18:04:09.59	349.60	23.01	-35.7	-36.9	29.3	3.02e+01	60	39	0	265289728	46	6039
2026-01-01 18:04:10.60	349.34	23.11	-35.8	-37.0	29.3	3.02e+01	61	39	0	266862592	46	6097
2026-01-01 18:04:11.61	349.07	23.21	-35.8	-37.0	29.2	3.02e+01	57	39	0	268959744	46	6094
2026-01-01 18:04:12.62	348.80	23.31	-35.9	-37.2	29.0	3.02e+01	58	39	0	271056896	46	6225
2026-01-01 18:04:13.63	348.53	23.41	-35.8	-37.1	29.1	3.02e+01	59	39	0	272629760	46	6145
2026-01-01 18:04:14.64	348.26	23.50	-36.0	-37.2	29.0	3.02e+01	50	39	0	274726912	46	6238
2026-01-01 18:04:15.65	347.99	23.60	-35.9	-37.1	29.2	3.02e+01	60	39	0	276299776	46	6183
2026-01-01 18:04:16.66	347.72	23.70	-35.9	-37.1	29.1	3.02e+01	58	39	0	278396928	46	6187
2026-01-01 18:04:17.67	347.44	23.80	-35.9	-37.1	29.1	3.02e+01	58	39	0	280494080	46	6198
2026-01-01 18:04:18.67	347.16	23.89	-35.9	-37.1	29.1	3.02e+01	59	39	0	282066944	46	6166
2026-01-01 18:04:19.69	346.88	23.99	-35.9	-37.1	29.2	3.02e+01	57	39	0	284164096	46	6142
2026-01-01 18:04:20.70	346.60	24.09	-35.8	-37.0	29.2	3.02e+01	52	39	0	286261248	46	6093
2026-01-01 18:04:21.71	346.31	24.18	-35.7	-37.0	29.3	3.02e+01	58	39	0	287834112	46	6069
2026-01-01 18:04:22.71	346.03	24.28	-35.8	-37.0	29.2	3.02e+01	45	39	0	289931264	46	6115
2026-01-01 18:04:23.72	345.74	24.38	-35.7	-36.9	29.3	3.02e+01	63	39	0	291504128	46	6061
2026-01-01 18:04:24.74	345.45	24.47	-35.7	-36.9	29.2	3.02e+01	58	39	0	293601280	46	6049
2026-01-01 18:04:25.74	345.16	24.57	-35.9	-37.1	29.1	3.02e+01	57	39	0	295698432	46	6144
2026-01-01 18:04:26.76	344.86	24.66	-35.9	-37.1	29.2	3.02e+01	62	39	0	297271296	46	6163
2026-01-01 18:04:27.76	344.57	24.75	-35.8	-37.0	29.3	3.02e+01	53	39	0	299368448	46	6100
2026-01-01 18:04:28.77	344.28	24.85	-35.8	-37.0	29.2	3.02e+01	58	39	0	300941312	46	6125
2026-01-01 18:04:29.78	343.98	24.94	-35.8	-37.0	29.2	3.02e+01	58	39	0	303038464	46	6102
2026-01-01 18:04:30.79	343.68	25.03	-35.9	-37.1	29.1	3.02e+01	57	39	0	305135616	46	6164
2026-01-01 18:04:31.81	343.37	25.12	-35.8	-37.0	29.2	3.02e+01	60	39	0	306708480	46	6122
2026-01-01 18:04:32.82	343.07	25.22	-35.9	-37.1	29.3	3.02e+01	45	39	0	308805632	46	6149
2026-01-01 18:04:33.83	342.76	25.31	-35.8	-37.0	29.3	3.02e+01	59	39	0	310378496	46	6076
2026-01-01 18:04:34.83	342.45	25.40	-35.8	-37.0	29.2	3.02e+01	61	39	0	312475648	46	6074
2026-01-01 18:04:35.85	342.14	25.49	-35.6	-36.8	29.4	3.02e+01	44	39	0	314572800	46	5956
2026-01-01 18:04:36.86	341.83	25.58	-35.7	-36.9	29.3	3.02e+01	58	39	0	316145664	46	5998
2026-01-01 18:04:37.87	341.52	25.67	-35.8	-37.0	29.3	3.02e+01	59	39	0	318242816	46	6080
2026-01-01 18:04:38.88	341.20	25.75	-35.8	-37.0	29.3	3.02e+01	60	39	0	319815680	46	6085
2026-01-01 18:04:39.89	340.88	25.84	-35.8	-37.0	29.3	3.02e+01	59	39	0	321912832	46	6090
2026-01-01 18:04:40.90	340.56	25.93	-35.7	-36.9	29.3	3.02e+01	51	39	0	324009984	46	6048
2026-01-01 18:04:41.91	340.24	26.01	-35.7	-36.9	29.4	3.02e+01	59	39	0	325582848	46	6003
2026-01-01 18:04:42.92	339.92	26.10	-35.6	-36.8	29.4	3.02e+01	60	39	0	327680000	46	5967
2026-01-01 18:04:43.93	339.59	26.18	-35.5	-36.7	29.5	3.02e+01	44	39	0	329252864	46	5924
2026-01-01 18:04:44.94	339.27	26.27	-35.6	-36.8	29.5	3.02e+01	58	39	0	331350016	46	5946
2026-01-01 18:04:45.95	338.94	26.35	-35.7	-36.9	29.4	3.02e+01	57	39	0	333447168	46	6005
2026-01-01 18:04:46.96	338.61	26.43	-35.7	-36.9	29.3	3.02e+01	59	39	0	335020032	46	6015
2026-01-01 18:04:47.96	338.28	26.52	-35.7	-37.0	29.3	3.02e+01	60	39	0	337117184	46	6065
2026-01-01 18:04:48.97	337.95	26.60	-35.7	-36.9	29.3	3.02e+01	52	39	0	339214336	46	6031
2026-01-01 18:04:49.98	337.61	26.68	-35.6	-36.8	29.3	3.02e+01	60	39	0	340787200	46	5980
2026-01-01 18:04:51.00	337.27	26.76	-35.6	-36.8	29.4	3.02e+01	63	39	0	342884352	46	5943
2026-01-01 18:04:52.00	336.93	26.84	-35.6	-36.8	29.5	3.02e+01	49	39	0	344457216	46	5939
2026-01-01 18:04:53.01	336.59	26.91	-35.6	-36.8	29.5	3.02e+01	60	39	0	346554368	46	5962
2026-01-01 18:04:54.02	336.25	26.99	-35.4	-36.6	29.6	3.02e+01	60	39	0	348651520	46	5834
2026-01-01 18:04:55.03	335.91	27.07	-35.6	-36.8	29.4	3.02e+01	63	39	0	350224384	46	5983
2026-01-01 18:04:56.04	335.56	27.14	-35.4	-36.6	29.6	3.02e+01	57	39	0	352321536	46	5829
2026-01-01 18:04:57.05	335.21	27.22	-35.4	-36.6	29.6	3.02e+01	49	39	0	354418688	46	5820
2026-01-01 18:04:58.06	334.86	27.29	-35.5	-36.6	29.6	3.02e+01	57	39	0	355991552	46	5858
2026-01-01 18:04:59.07	334.51	27.36	-35.6	-36.8	29.4	3.02e+01	53	39	0	358088704	46	5978
2026-01-01 18:05:00.08	334.16	27.43	-35.5	-36.7	29.5	3.02e+01	47	39	0	359661568	46	5913
2026-01-01 18:05:01.09	333.80	27.50	-35.6	-36.7	29.4	3.02e+01	56	39	0	361758720	46	5923
2026-01-01 18:05:02.10	333.45	27.57	-35.5	-36.7	29.6	3.02e+01	60	39	0	363855872	46	5911
2026-01-01 18:05:03.12	333.09	27.64	-35.4	-36.6	29.6	3.02e+01	58	39	0	365428736	46	5809
2026-01-01 18:05:04.12	332.73	27.71	-35.6	-36.8	29.5	3.02e+01	58	39	0	367525888	46	5975
2026-01-01 18:05:05.13	332.37	27.78	-35.5	-36.7	29.6	3.02e+01	56	39	0	369098752	46	5876
2026-01-01 18:05:06.14	332.01	27.84	-35.5	-36.7	29.6	3.02e+01	60	39	0	371195904	46	5894
2026-01-01 18:05:07.15	331.64	27.91	-35.5	-36.7	29.5	3.02e+01	58	39	0	373293056	46	5912
2026-01-01 18:05:08.16	331.28	27.97	-35.5	-36.7	29.6	3.02e+01	56	39	0	374865920	46	5869
2026-01-01 18:05:09.17	330.91	28.03	-35.5	-36.7	29.6	3.02e+01	61	39	0	376963072	46	5882
2026-01-01 18:05:10.18	330.54	28.09	-35.4	-36.6	29.7	3.02e+01	47	39	0	378535936	46	5813
2026-01-01 18:05:11.19	330.17	28.15	-35.4	-36.6	29.6	3.02e+01	60	39	0	380633088	46	5841
2026-01-01 18:05:12.20	329.80	28.21	-35.4	-36.6	29.6	3.02e+01	61	39	0	382730240	46	5841
2026-01-01 18:05:13.21	329.43	28.27	-35.5	-36.6	29.7	3.02e+01	45	39	0	384303104	46	5858
2026-01-01 18:05:14.22	329.05	28.33	-35.3	-36.5	29.7	3.02e+01	59	39	0	386400256	46	5768
2026-01-01 18:05:15.23	328.68	28.38	-35.4	-36.6	29.7	3.02e+01	59	39	0	387973120	46	5800
2026-01-01 18:05:16.24	328.30	28.44	-35.3	-36.5	29.7	3.02e+01	58	39	0	390070272	46	5768
2026-01-01 18:05:17.25	327.92	28.49	-35.3	-36.5	29.8	3.02e+01	59	39	0	392167424	46	5748
2026-01-01 18:05:18.26	327.54	28.54	-35.3	-36.5	29.7	3.02e+01	52	39	0	393740288	46	5785
2026-01-01 18:05:19.27	327.16	28.59	-35.3	-36.5	29.7	3.02e+01	57	39	0	395837440	46	5733
2026-01-01 18:05:20.28	326.78	28.64	-35.4	-36.6	29.7	3.02e+01	59	39	0	397410304	46	5844
2026-01-01 18:05:21.29	326.40	28.69	-35.3	-36.5	29.7	3.02e+01	54	39	0	399507456	46	5768
2026-01-01 18:05:22.30	326.01	28.73	-35.5	-36.7	29.6	3.02e+01	61	39	0	401604608	46	5862
2026-01-01 18:05:23.31	325.63	28.78	-35.2	-36.4	29.8	3.02e+01	60	39	0	403177472	46	5708
2026-01-01 18:05:24.32	325.24	28.82	-35.4	-36.6	29.6	3.02e+01	58	39	0	405274624	46	5850
2026-01-01 18:05:25.33	324.85	28.86	-35.3	-36.5	29.7	3.02e+01	60	39	0	407371776	46	5777
2026-01-01 18:05:26.34	324.46	28.91	-35.3	-36.5	29.8	3.02e+01	54	39	0	408944640	46	5777
2026-01-01 18:05:27.35	324.07	28.95	-35.4	-36.6	29.7	3.02e+01	60	39	0	411041792	46	5827
2026-01-01 18:05:28.36	323.68	28.98	-35.5	-36.7	29.6	3.02e+01	57	39	0	412614656	46	5878
2026-01-01 18:05:29.37	323.29	29.02	-35.4	-36.6	29.7	3.02e+01	44	39	0	414711808	46	5809
2026-01-01 18:05:30.38	322.90	29.06	-35.4	-36.6	29.8	3.02e+01	60	39	0	416808960	46	5846
2026-01-01 18:05:31.39	322.50	29.09	-35.4	-36.6	29.8	3.02e+01	61	39	0	418381824	46	5792
2026-01-01 18:05:32.40	322.11	29.12	-35.4	-36.6	29.7	3.02e+01	58	39	0	420478976	46	5799
2026-01-01 18:05:33.41	321.71	29.15	-35.4	-36.6	29.7	3.02e+01	60	39	0	422576128	46	5826
2026-01-01 18:05:34.42	321.32	29.18	-35.5	-36.7	29.6	3.02e+01	53	39	0	424148992	46	5891
2026-01-01 18:05:35.43	320.92	29.21	-35.4	-36.6	29.6	3.02e+01	61	39	0	426246144	46	5832
2026-01-01 18:05:36.44	320.52	29.24	-35.3	-36.5	29.8	3.02e+01	60	39	0	427819008	46	5755
2026-01-01 18:05:37.45	320.12	29.26	-35.3	-36.5	29.7	3.02e+01	55	39	0	429916160	46	5778
2026-01-01 18:05:38.46	319.72	29.29	-35.4	-36.5	29.7	3.02e+01	58	39	0	432013312	46	5791
2026-01-01 18:05:39.47	319.33	29.31	-35.4	-36.6	29.6	3.02e+01	56	39	0	433586176	46	5813
2026-01-01 18:05:40.48	318.92	29.33	-35.5	-36.7	29.6	3.02e+01	57	39	0	435683328	46	5866
2026-01-01 18:05:41.49	318.52	29.35	-35.5	-36.7	29.6	3.02e+01	56	39	0	437256192	46	5872
2026-01-01 18:05:42.50	318.12	29.37	-35.5	-36.7	29.6	3.02e+01	51	39	0	439353344	46	5908
2026-01-01 18:05:43.51	317.72	29.38	-35.6	-36.8	29.5	3.02e+01	61	39	0	441450496	46	5939
2026-01-01 18:05:44.52	317.32	29.40	-35.8	-37.0	29.4	3.02e+01	59	39	0	443023360	46	6112
2026-01-01 18:05:45.53	316.92	29.41	-35.9	-37.2	29.2	3.02e+01	62	39	0	445120512	46	6209
2026-01-01 18:05:46.54	316.51	29.42	-35.6	-36.8	29.5	3.02e+01	57	39	0	446693376	46	5946
2026-01-01 18:05:47.55	316.11	29.43	-35.5	-36.6	29.7	3.02e+01	45	39	0	448790528	46	5855
2026-01-01 18:05:48.56	315.71	29.44	-35.6	-36.8	29.5	3.02e+01	59	39	0	450887680	46	5950
2026-01-01 18:05:49.57	315.30	29.45	-35.8	-37.0	29.3	3.02e+01	59	39	0	452460544	46	6106
2026-01-01 18:05:50.58	314.90	29.46	-36.1	-37.3	29.1	3.02e+01	44	39	0	454557696	46	6322
2026-01-01 18:05:51.59	314.50	29.46	-35.8	-37.1	29.3	3.02e+01	58	39	0	456130560	46	6138
2026-01-01 18:05:52.60	314.09	29.46	-35.6	-36.8	29.6	3.02e+01	59	39	0	458227712	46	5953
2026-01-01 18:05:53.61	313.69	29.46	-35.5	-36.7	29.6	3.02e+01	57	39	0	460324864	46	5917
2026-01-01 18:05:54.62	313.29	29.46	-36.0	-37.3	29.2	3.02e+01	59	39	0	461897728	46	6301
2026-01-01 18:05:55.63	312.88	29.46	-35.8	-37.1	29.2	3.02e+01	58	39	0	463994880	46	6150
2026-01-01 18:05:56.64	312.48	29.46	-35.7	-36.9	29.3	3.02e+01	58	39	0	465567744	46	6023
2026-01-01 18:05:57.65	312.07	29.45	-35.2	-36.4	29.9	3.02e+01	61	39	0	467664896	46	5694
2026-01-01 18:05:58.66	311.67	29.44	-35.7	-36.9	29.4	3.02e+01	52	39	0	469762048	46	6047
2026-01-01 18:05:59.67	311.27	29.44	-36.5	-37.8	28.5	3.02e+01	55	39	0	471334912	46	6687
2026-01-01 18:06:00.67	310.87	29.43	-35.4	-36.6	29.1	3.02e+01	59	39	0	473432064	44	6534
2026-01-01 18:06:01.68	310.46	29.41	-34.9	-36.1	29.9	3.02e+01	59	39	0	475529216	46	5483
2026-01-01 18:06:02.69	310.06	29.40	-35.7	-36.9	29.4	3.02e+01	60	39	0	477102080	46	6003
2026-01-01 18:06:03.70	309.66	29.39	-36.3	-37.6	28.4	3.02e+01	57	39	0	479199232	46	6503
2026-01-01 18:06:04.71	309.26	29.37	-36.2	-37.5	28.8	3.02e+01	60	39	0	480772096	44	7282
2026-01-01 18:06:05.72	308.86	29.35	-35.2	-36.4	29.6	3.02e+01	62	39	0	482869248	44	6411
2026-01-01 18:06:06.73	308.46	29.33	-35.1	-36.2	30.0	3.02e+01	46	39	0	484966400	46	5572
2026-01-01 18:06:07.74	308.05	29.31	-35.8	-37.0	29.1	3.02e+01	60	39	0	486539264	46	6124
2026-01-01 18:06:08.75	307.65	29.29	-36.3	-37.5	28.9	3.02e+01	55	39	0	488636416	46	6498
2026-01-01 18:06:09.76	307.26	29.27	-35.6	-36.7	29.6	3.02e+01	61	39	0	490733568	46	5913
2026-01-01 18:06:10.77	306.86	29.24	-35.3	-36.5	29.8	3.02e+01	56	39	0	492306432	46	5759
2026-01-01 18:06:11.78	306.46	29.22	-36.7	-38.0	28.1	3.02e+01	56	39	0	494403584	46	6845
2026-01-01 18:06:12.79	306.06	29.19	-36.6	-37.9	28.3	3.02e+01	60	39	0	495976448	46	6794
2026-01-01 18:06:13.80	305.66	29.16	-35.5	-36.7	29.1	3.02e+01	59	39	0	498073600	46	5895
2026-01-01 18:06:14.81	305.27	29.13	-35.5	-36.7	29.6	3.02e+01	61	39	0	500170752	46	5863
2026-01-01 18:06:15.82	304.87	29.10	-36.2	-37.4	29.0	3.02e+01	58	39	0	501743616	46	6404
2026-01-01 18:06:16.82	304.48	29.06	-35.6	-36.8	29.3	3.02e+01	55	39	0	503840768	46	5963
2026-01-01 18:06:17.83	304.09	29.03	-35.6	-36.8	29.5	3.02e+01	61	39	0	505413632	46	5948
2026-01-01 18:06:18.84	303.70	28.99	-36.1	-37.3	28.9	3.02e+01	56	39	0	507510784	46	6322
2026-01-01 18:06:19.85	303.31	28.95	-35.9	-37.1	29.3	3.02e+01	46	39	0	509607936	46	6165
2026-01-01 18:06:20.86	302.92	28.91	-36.1	-37.4	28.8	3.02e+01	60	39	0	511180800	46	6351
2026-01-01 18:06:21.87	302.53	28.87	-37.0	-38.4	27.9	3.02e+01	55	39	0	513277952	46	7192
2026-01-01 18:06:22.88	302.14	28.83	-36.2	-37.5	28.8	3.02e+01	57	39	0	514850816	46	6473
2026-01-01 18:06:23.89	301.75	28.79	-36.2	-37.4	29.0	3.02e+01	59	39	0	516947968	46	6394
2026-01-01 18:06:24.90	301.36	28.74	-36.5	-37.8	28.8	3.02e+01	61	39	0	519045120	46	6679
2026-01-01 18:06:25.91	300.98	28.70	-36.0	-37.3	29.1	3.02e+01	60	39	0	520617984	46	6305
2026-01-01 18:06:26.92	300.59	28.65	-36.1	-37.4	29.1	3.02e+01	56	39	0	522715136	46	6356
2026-01-01 18:06:27.93	300.21	28.60	-36.4	-37.7	28.8	3.02e+01	47	39	0	524288000	46	6619
2026-01-01 18:06:28.94	299.83	28.55	-35.9	-37.1	29.2	3.02e+01	60	39	0	526385152	46	6182
2026-01-01 18:06:29.95	299.45	28.50	-36.3	-37.5	28.9	3.02e+01	57	39	0	528482304	46	6471
2026-01-01 18:06:30.96	299.07	28.45	-36.6	-38.0	28.4	3.02e+01	60	39	0	530055168	46	6810
2026-01-01 18:06:31.96	298.70	28.39	-35.6	-36.7	29.3	3.02e+01	61	39	0	532152320	46	5908
2026-01-01 18:06:32.97	298.32	28.34	-36.2	-37.4	28.8	3.02e+01	56	39	0	533725184	46	6396
2026-01-01 18:06:33.98	297.94	28.28	-36.8	-38.1	28.3	3.02e+01	59	39	0	535822336	46	6913
2026-01-01 18:06:34.99	297.57	28.22	-36.1	-37.3	28.8	3.02e+01	61	39	0	537919488	46	6297
2026-01-01 18:06:36.00	297.20	28.16	-36.0	-37.2	29.0	3.02e+01	46	39	0	539492352	48	5542
2026-01-01 18:06:37.01	296.83	28.10	-36.8	-38.0	28.4	3.02e+01	58	39	0	541589504	46	6865
2026-01-01 18:06:38.02	296.46	28.04	-36.8	-38.1	28.4	3.02e+01	57	39	0	543686656	46	6902
2026-01-01 18:06:39.03	296.09	27.98	-35.9	-37.1	29.2	3.02e+01	60	39	0	545259520	46	6170
2026-01-01 18:06:40.04	295.72	27.92	-37.2	-38.5	27.6	3.02e+01	61	39	0	547356672	48	6463
2026-01-01 18:06:41.05	295.36	27.85	-37.6	-39.0	27.3	3.02e+01	38	39	0	548929536	48	6841
2026-01-01 18:06:42.06	294.99	27.79	-36.5	-37.7	28.6	3.02e+01	59	39	0	551026688	48	5877
2026-01-01 18:06:43.07	294.63	27.72	-38.1	-39.5	26.6	3.02e+01	64	39	0	553123840	50	6461
2026-01-01 18:06:44.08	294.27	27.65	-36.1	-37.3	28.5	3.02e+01	46	39	0	554696704	46	6307
2026-01-01 18:06:45.09	293.91	27.59	-36.2	-37.4	28.7	3.02e+01	57	39	0	556793856	48	5705
2026-01-01 18:06:46.10	293.56	27.52	-37.9	-39.3	27.2	3.02e+01	60	39	0	558891008	48	7116
2026-01-01 18:06:47.11	293.20	27.45	-36.8	-38.0	28.1	3.02e+01	61	39	0	560463872	48	6133
2026-01-01 18:06:48.12	292.85	27.37	-37.2	-38.5	27.8	3.02e+01	59	39	0	562561024	50	5757
2026-01-01 18:06:49.13	292.49	27.30	-37.3	-38.6	27.8	3.02e+01	54	39	0	564133888	48	6535
2026-01-01 18:06:50.14	292.14	27.23	-36.7	-37.9	28.4	3.02e+01	61	39	0	566231040	48	6029
2026-01-01 18:06:51.15	291.79	27.15	-37.0	-38.2	28.1	3.02e+01	59	39	0	568328192	48	6267
2026-01-01 18:06:52.16	291.45	27.08	-37.4	-38.7	27.8	3.02e+01	59	39	0	569901056	48	6586
2026-01-01 18:06:53.17	291.10	27.00	-37.1	-38.4	28.3	3.02e+01	63	39	0	571998208	48	6363
2026-01-01 18:06:54.18	290.76	26.93	-37.7	-39.1	27.3	3.02e+01	47	39	0	573571072	48	6907
2026-01-01 18:06:55.19	290.42	26.85	-37.0	-38.2	28.2	3.02e+01	60	39	0	575668224	48	6264
2026-01-01 18:06:56.20	290.07	26.77	-38.1	-39.5	27.0	3.02e+01	60	39	0	577765376	50	6485
2026-01-01 18:06:57.21	289.74	26.69	-37.9	-39.2	27.4	3.02e+01	44	39	0	579338240	50	6242
2026-01-01 18:06:58.22	289.40	26.61	-38.8	-40.3	26.6	3.02e+01	58	39	0	581435392	50	7051
2026-01-01 18:06:59.23	289.06	26.53	-38.0	-39.4	27.2	3.02e+01	58	39	0	583008256	50	6352
2026-01-01 18:07:00.24	288.73	26.45	-37.9	-39.2	27.7	3.02e+01	51	39	0	585105408	50	6217
2026-01-01 18:07:01.25	288.40	26.36	-37.7	-39.0	27.4	3.02e+01	60	39	0	587202560	50	6086
2026-01-01 18:07:02.26	288.07	26.28	-38.3	-39.6	27.2	3.02e+01	62	39	0	588775424	50	6569
2026-01-01 18:07:03.27	287.74	26.19	-37.5	-38.8	27.5	3.02e+01	60	39	0	590872576	50	5945
2026-01-01 18:07:04.28	287.42	26.11	-38.5	-39.9	27.0	3.02e+01	57	39	0	592445440	50	6729
2026-01-01 18:07:05.29	287.09	26.02	-37.9	-39.3	27.3	3.02e+01	45	39	0	594542592	50	6280
2026-01-01 18:07:06.30	286.77	25.94	-38.0	-39.3	27.3	3.02e+01	62	39	0	596639744	50	6345
2026-01-01 18:07:07.31	286.45	25.85	-38.6	-40.0	26.4	3.02e+01	59	39	0	598212608	50	6874
2026-01-01 18:07:08.32	286.13	25.76	-38.0	-39.3	27.7	3.02e+01	59	39	0	600309760	50	6340
2026-01-01 18:07:09.33	285.81	25.68	-37.7	-39.0	27.4	3.02e+01	60	39	0	601882624	50	6090
2026-01-01 18:07:10.34	285.50	25.59	-38.2	-39.6	26.9	3.02e+01	60	39	0	603979776	50	6536
2026-01-01 18:07:11.35	285.19	25.50	-38.0	-39.3	27.1	3.02e+01	60	39	0	606076928	50	6327
2026-01-01 18:07:12.36	284.87	25.41	-38.6	-39.9	26.8	3.02e+01	58	39	0	607649792	50	6800
2026-01-01 18:07:13.37	284.56	25.32	-37.4	-38.8	27.8	3.02e+01	45	39	0	609746944	50	5930
2026-01-01 18:07:14.38	284.26	25.23	-36.6	-37.8	28.6	3.02e+01	60	39	0	611844096	48	5966
2026-01-01 18:07:15.39	283.95	25.13	-36.5	-37.7	28.7	3.02e+01	58	39	0	613416960	48	5884
2026-01-01 18:07:16.40	283.65	25.04	-36.8	-38.1	28.3	3.02e+01	59	39	0	615514112	48	6135
2026-01-01 18:07:17.41	283.35	24.95	-36.6	-37.9	28.5	3.02e+01	60	39	0	617086976	48	6010
2026-01-01 18:07:18.41	283.05	24.86	-36.7	-37.9	28.6	3.02e+01	52	39	0	619184128	48	6039
2026-01-01 18:07:19.42	282.75	24.76	-36.8	-38.1	28.4	3.02e+01	49	39	0	621281280	48	6176
2026-01-01 18:07:20.43	282.45	24.67	-36.7	-38.0	28.4	3.02e+01	61	39	0	622854144	48	6075
2026-01-01 18:07:21.44	282.16	24.57	-36.5	-37.8	28.7	3.02e+01	53	39	0	624951296	48	5935
2026-01-01 18:07:22.45	281.87	24.48	-36.8	-38.0	28.4	3.02e+01	58	39	0	627048448	48	6134
2026-01-01 18:07:23.46	281.58	24.38	-36.7	-38.0	28.3	3.02e+01	58	39	0	628621312	48	6087
2026-01-01 18:07:24.47	281.29	24.29	-36.8	-38.0	28.5	3.02e+01	57	39	0	630718464	48	6123
2026-01-01 18:07:25.48	281.00	24.19	-37.1	-38.4	28.1	3.02e+01	59	39	0	632291328	48	6365
2026-01-01 18:07:26.49	280.71	24.10	-37.1	-38.3	28.2	3.02e+01	52	39	0	634388480	48	6330
2026-01-01 18:07:27.50	280.43	24.00	-36.6	-37.8	28.6	3.02e+01	59	39	0	636485632	48	5942
2026-01-01 18:07:28.51	280.15	23.90	-37.2	-38.5	28.1	3.02e+01	62	39	0	638058496	48	6454
2026-01-01 18:07:29.52	279.87	23.80	-36.8	-38.1	28.2	3.02e+01	59	39	0	640155648	48	6162
2026-01-01 18:07:30.53	279.59	23.71	-36.6	-37.8	28.5	3.02e+01	59	39	0	641728512	48	5984
2026-01-01 18:07:31.54	279.31	23.61	-37.2	-38.5	28.1	3.02e+01	46	39	0	643825664	48	6429
2026-01-01 18:07:32.55	279.04	23.51	-37.3	-38.6	27.9	3.02e+01	63	39	0	645922816	48	6512
2026-01-01 18:07:33.56	278.77	23.41	-36.7	-38.0	28.5	3.02e+01	57	39	0	647495680	48	6074
2026-01-01 18:07:34.56	278.50	23.31	-36.9	-38.1	28.4	3.02e+01	47	39	0	649592832	48	6200
2026-01-01 18:07:35.58	278.23	23.21	-37.0	-38.3	28.3	3.02e+01	60	39	0	651165696	48	6286
2026-01-01 18:07:36.59	277.96	23.11	-36.8	-38.1	28.4	3.02e+01	58	39	0	653262848	48	6158
2026-01-01 18:07:37.60	277.69	23.02	-37.0	-38.2	28.2	3.02e+01	56	39	0	655360000	48	6265
2026-01-01 18:07:38.60	277.43	22.92	-36.8	-38.0	28.5	3.02e+01	54	39	0	656932864	48	6107
2026-01-01 18:07:39.61	277.17	22.82	-36.7	-38.0	28.4	3.02e+01	58	39	0	659030016	48	6090
2026-01-01 18:07:40.62	276.91	22.72	-36.7	-38.0	28.4	3.02e+01	60	39	0	660602880	48	6077
2026-01-01 18:07:41.63	276.65	22.62	-36.9	-38.1	28.4	3.02e+01	58	39	0	662700032	48	6189
2026-01-01 18:07:42.64	276.40	22.52	-37.1	-38.4	28.2	3.02e+01	45	39	0	664797184	48	6368
2026-01-01 18:07:43.65	276.14	22.41	-37.1	-38.4	27.9	3.02e+01	59	39	0	666370048	48	6375
2026-01-01 18:07:44.66	275.89	22.31	-36.9	-38.2	28.1	3.02e+01	58	39	0	668467200	48	6225
2026-01-01 18:07:45.67	275.64	22.21	-36.5	-37.7	28.6	3.02e+01	58	39	0	670040064	48	5898
2026-01-01 18:07:46.68	275.39	22.11	-36.6	-37.8	28.6	3.02e+01	59	39	0	672137216	48	5974
2026-01-01 18:07:47.69	275.14	22.01	-36.9	-38.1	28.3	3.02e+01	60	39	0	674234368	48	6198
2026-01-01 18:07:48.70	274.89	21.91	-36.7	-38.0	28.4	3.02e+01	61	39	0	675807232	48	6089
2026-01-01 18:07:49.71	274.65	21.81	-36.7	-38.0	28.4	3.02e+01	58	39	0	677904384	48	6082
2026-01-01 18:07:50.72	274.41	21.71	-36.6	-37.8	28.6	3.02e+01	48	39	0	680001536	48	5942
2026-01-01 18:07:51.73	274.16	21.60	-36.7	-37.9	28.5	3.02e+01	59	39	0	681574400	48	6061
2026-01-01 18:07:52.74	273.92	21.50	-36.7	-37.9	28.5	3.02e+01	61	39	0	683671552	48	6048
2026-01-01 18:07:53.75	273.69	21.40	-36.8	-38.0	28.4	3.02e+01	60	39	0	685244416	48	6128
2026-01-01 18:07:54.76	273.45	21.30	-36.4	-37.7	28.6	3.02e+01	59	39	0	687341568	48	5885
2026-01-01 18:07:55.77	273.22	21.20	-36.4	-37.6	28.8	3.02e+01	54	39	0	689438720	48	5813
2026-01-01 18:07:56.78	272.98	21.09	-36.3	-37.5	28.8	3.02e+01	63	39	0	691011584	48	5784
2026-01-01 18:07:57.79	272.75	20.99	-36.5	-37.8	28.5	3.02e+01	53	39	0	693108736	48	5938
2026-01-01 18:07:58.80	272.52	20.89	-36.8	-38.1	28.4	3.02e+01	56	39	0	695205888	48	6189
2026-01-01 18:07:59.81	272.29	20.79	-36.7	-38.0	28.4	3.02e+01	60	39	0	696778752	48	6091
2026-01-01 18:08:00.82	272.07	20.69	-36.4	-37.6	28.6	3.02e+01	45	39	0	698875904	48	5839
2026-01-01 18:08:01.83	271.84	20.58	-36.4	-37.6	28.6	3.02e+01	54	39	0	700448768	48	5838
2026-01-01 18:08:02.84	271.62	20.48	-36.3	-37.5	28.9	3.02e+01	59	39	0	702545920	48	5728
2026-01-01 18:08:03.85	271.40	20.38	-36.2	-37.4	29.0	3.02e+01	45	39	0	704643072	48	5700
2026-01-01 18:08:04.86	271.18	20.28	-36.4	-37.6	28.8	3.02e+01	60	39	0	706215936	48	5823
2026-01-01 18:08:05.87	270.96	20.18	-36.5	-37.8	28.6	3.02e+01	58	39	0	708313088	48	5949
2026-01-01 18:08:06.88	270.74	20.07	-36.5	-37.8	28.6	3.02e+01	59	39	0	709885952	48	5928
2026-01-01 18:08:07.89	270.53	19.97	-36.4	-37.7	28.6	3.02e+01	59	40	0	711983104	48	5864
2026-01-01 18:08:08.90	270.31	19.87	-36.4	-37.6	28.7	3.02e+01	51	39	0	714080256	48	5848
2026-01-01 18:08:09.91	270.10	19.77	-36.5	-37.7	28.5	3.02e+01	60	39	0	715653120	48	5897
2026-01-01 18:08:10.92	269.89	19.67	-36.8	-38.0	28.5	3.02e+01	61	39	0	717750272	48	6110
2026-01-01 18:08:11.93	269.68	19.57	-36.8	-38.0	28.3	3.02e+01	45	39	0	719323136	48	6106
2026-01-01 18:08:12.94	269.47	19.46	-36.4	-37.6	28.8	3.02e+01	57	39	0	721420288	48	5822
2026-01-01 18:08:13.95	269.26	19.36	-36.3	-37.5	28.8	3.02e+01	62	39	0	723517440	48	5764
2026-01-01 18:08:14.96	269.06	19.26	-36.3	-37.5	28.9	3.02e+01	58	39	0	725090304	48	5754
2026-01-01 18:08:15.97	268.85	19.16	-36.3	-37.5	28.8	3.02e+01	61	39	0	727187456	48	5770
2026-01-01 18:08:16.98	268.65	19.06	-36.5	-37.7	28.8	3.02e+01	52	39	0	728760320	48	5895
2026-01-01 18:08:17.99	268.45	18.96	-36.5	-37.8	28.6	3.02e+01	58	39	0	730857472	48	5929
2026-01-01 18:08:19.00	268.25	18.86	-36.5	-37.7	28.6	3.02e+01	59	39	0	732954624	48	5885
2026-01-01 18:08:20.01	268.05	18.76	-36.7	-37.9	28.5	3.02e+01	45	39	0	734527488	48	6035
2026-01-01 18:08:21.02	267.86	18.65	-36.5	-37.7	28.6	3.02e+01	58	39	0	736624640	48	5899
2026-01-01 18:08:22.03	267.66	18.55	-36.5	-37.7	28.6	3.02e+01	63	39	0	738197504	48	5918
2026-01-01 18:08:23.04	267.47	18.45	-36.3	-37.6	28.7	3.02e+01	57	39	0	740294656	48	5803
2026-01-01 18:08:24.05	267.27	18.35	-36.4	-37.6	28.6	3.02e+01	60	39	0	742391808	48	5831
2026-01-01 18:08:25.06	267.08	18.25	-36.3	-37.5	28.7	3.02e+01	50	39	0	743964672	48	5782
2026-01-01 18:08:26.07	266.89	18.15	-36.3	-37.5	28.9	3.02e+01	56	39	0	746061824	48	5739
2026-01-01 18:08:27.08	266.71	18.05	-36.2	-37.5	28.8	3.02e+01	59	39	0	748158976	48	5727
2026-01-01 18:08:28.09	266.52	17.95	-36.4	-37.6	28.7	3.02e+01	47	39	0	749731840	48	5836
2026-01-01 18:08:29.10	266.33	17.85	-36.4	-37.6	28.6	3.02e+01	56	39	0	751828992	48	5837
2026-01-01 18:08:30.11	266.15	17.75	-36.5	-37.7	28.6	3.02e+01	46	39	0	753401856	48	5892
2026-01-01 18:08:31.12	265.96	17.65	-36.4	-37.6	28.6	3.02e+01	58	39	0	755499008	48	5851
2026-01-01 18:08:32.13	265.78	17.55	-36.3	-37.6	28.7	3.02e+01	61	39	0	757596160	48	5799
2026-01-01 18:08:33.14	265.60	17.46	-36.4	-37.7	28.7	3.02e+01	52	39	0	759169024	48	5872
2026-01-01 18:08:34.15	265.42	17.36	-36.4	-37.7	28.6	3.02e+01	61	39	0	761266176	48	5876
2026-01-01 18:08:35.16	265.24	17.26	-36.5	-37.8	28.5	3.02e+01	59	39	0	763363328	48	5942
2026-01-01 18:08:36.17	265.07	17.16	-36.5	-37.7	28.5	3.02e+01	61	39	0	764936192	48	5910
2026-01-01 18:08:37.18	264.89	17.06	-36.3	-37.5	28.7	3.02e+01	59	39	0	767033344	48	5757
2026-01-01 18:08:38.19	264.72	16.96	-36.1	-37.4	28.8	3.02e+01	44	39	0	768606208	48	5663
2026-01-01 18:08:39.20	264.54	16.86	-36.2	-37.4	28.2	3.02e+01	57	39	0	770703360	48	5698
2026-01-01 18:08:40.21	264.37	16.77	-36.2	-37.4	28.6	3.02e+01	57	39	0	772800512	48	5718
2026-01-01 18:08:41.22	264.20	16.67	-36.4	-37.6	28.7	3.02e+01	45	39	0	774373376	48	5828
2026-01-01 18:08:42.23	264.03	16.57	-36.5	-37.7	28.5	3.02e+01	60	39	0	776470528	48	5909
2026-01-01 18:08:43.24	263.86	16.47	-36.4	-37.7	28.6	3.02e+01	58	39	0	778043392	48	5868
2026-01-01 18:08:44.25	263.70	16.38	-36.5	-37.8	28.5	3.02e+01	59	39	0	780140544	48	5944
2026-01-01 18:08:45.26	263.53	16.28	-36.4	-37.7	28.6	3.02e+01	58	39	0	782237696	48	5866
2026-01-01 18:08:46.26	263.37	16.18	-36.6	-37.9	28.4	3.02e+01	58	39	0	783810560	48	6001
2026-01-01 18:08:47.27	263.20	16.09	-36.6	-37.9	28.4	3.02e+01	64	39	0	785907712	48	5996
2026-01-01 18:08:48.28	263.04	15.99	-36.7	-38.0	28.3	3.02e+01	59	39	0	787480576	48	6096
2026-01-01 18:08:49.29	262.88	15.89	-36.6	-37.9	28.3	3.02e+01	51	39	0	789577728	48	6021
2026-01-01 18:08:50.30	262.72	15.80	-36.6	-37.8	28.4	3.02e+01	57	39	0	791674880	48	5959
2026-01-01 18:08:51.31	262.56	15.70	-36.3	-37.6	28.6	3.02e+01	61	39	0	793247744	48	5793
2026-01-01 18:08:52.32	262.40	15.61	-36.3	-37.5	28.6	3.02e+01	60	39	0	795344896	48	5788
2026-01-01 18:08:53.33	262.24	15.51	-36.3	-37.5	28.7	3.02e+01	58	39	0	796917760	48	5750
2026-01-01 18:08:54.34	262.09	15.41	-36.4	-37.7	28.6	3.02e+01	60	39	0	799014912	48	5860
2026-01-01 18:08:55.35	261.93	15.32	-36.5	-37.8	28.4	3.02e+01	59	39	0	801112064	48	5955
2026-01-01 18:08:56.36	261.78	15.22	-36.6	-37.8	28.3	3.02e+01	63	39	0	802684928	48	5974
2026-01-01 18:08:57.37	261.63	15.13	-36.6	-37.9	28.3	3.02e+01	44	39	0	804782080	48	6006
2026-01-01 18:08:58.38	261.47	15.04	-36.5	-37.7	28.4	3.02e+01	59	39	0	806354944	48	5926
2026-01-01 18:08:59.38	261.32	14.94	-36.5	-37.7	28.6	3.02e+01	62	39	0	808452096	48	5890
2026-01-01 18:09:00.40	261.17	14.85	-36.6	-37.8	28.3	3.02e+01	60	39	0	810549248	48	5971
2026-01-01 18:09:01.41	261.02	14.75	-36.5	-37.7	28.4	3.02e+01	61	39	0	812122112	48	5915
2026-01-01 18:09:02.42	260.88	14.66	-36.4	-37.6	28.5	3.02e+01	50	39	0	814219264	48	5848
2026-01-01 18:09:03.43	260.73	14.57	-36.4	-37.7	28.5	3.02e+01	61	39	0	816316416	48	5873
2026-01-01 18:09:04.44	260.58	14.47	-36.4	-37.6	28.5	3.02e+01	60	39	0	817889280	48	5858
2026-01-01 18:09:05.45	260.44	14.38	-36.6	-37.8	28.4	3.02e+01	51	39	0	819986432	48	5985
2026-01-01 18:09:06.46	260.30	14.29	-36.5	-37.8	28.4	3.02e+01	57	39	0	821559296	48	5963
2026-01-01 18:09:07.47	260.15	14.20	-36.7	-38.0	28.3	3.02e+01	45	39	0	823656448	48	6103
2026-01-01 18:09:08.47	260.01	14.10	-36.7	-38.0	28.3	3.02e+01	56	39	0	825753600	48	6071
2026-01-01 18:09:09.48	259.87	14.01	-36.7	-38.0	28.3	3.02e+01	61	39	0	827326464	48	6070
2026-01-01 18:09:10.49	259.73	13.92	-36.7	-38.0	28.2	3.02e+01	55	39	0	829423616	48	6088
2026-01-01 18:09:11.50	259.59	13.83	-36.7	-37.9	28.3	3.02e+01	61	39	0	831520768	48	6052
2026-01-01 18:09:12.51	259.45	13.74	-36.4	-37.6	28.5	3.02e+01	61	39	0	833093632	48	5828
2026-01-01 18:09:13.52	259.32	13.65	-36.5	-37.7	28.5	3.02e+01	58	39	0	835190784	48	5883
2026-01-01 18:09:14.53	259.18	13.55	-36.3	-37.6	28.6	3.02e+01	59	39	0	836763648	48	5797
2026-01-01 18:09:15.54	259.05	13.46	-36.4	-37.7	28.5	3.02e+01	46	39	0	838860800	48	5880
2026-01-01 18:09:16.55	258.91	13.37	-36.5	-37.7	28.5	3.02e+01	61	39	0	840957952	48	5908
2026-01-01 18:09:17.56	258.78	13.28	-36.6	-37.9	28.4	3.02e+01	53	39	0	842530816	48	6023
2026-01-01 18:09:18.57	258.64	13.19	-36.7	-37.9	28.3	3.02e+01	45	39	0	844627968	48	6035
2026-01-01 18:09:19.57	258.51	13.10	-36.7	-38.0	28.3	3.02e+01	62	39	0	846200832	48	6074
2026-01-01 18:09:20.59	258.38	13.01	-36.9	-38.1	28.1	3.02e+01	51	39	0	848297984	48	6189
2026-01-01 18:09:21.60	258.25	12.92	-36.8	-38.1	28.1	3.02e+01	58	39	0	850395136	48	6153
2026-01-01 18:09:22.60	258.12	12.84	-36.9	-38.2	28.1	3.02e+01	58	39	0	851968000	48	6214
2026-01-01 18:09:23.61	258.00	12.75	-36.7	-38.0	28.2	3.02e+01	57	39	0	854065152	48	6065
2026-01-01 18:09:24.62	257.87	12.66	-36.6	-37.9	28.3	3.02e+01	60	39	0	855638016	48	6024
2026-01-01 18:09:25.63	257.74	12.57	-36.6	-37.9	28.2	3.02e+01	58	39	0	857735168	48	6012
2026-01-01 18:09:26.64	257.62	12.48	-36.7	-38.0	28.1	3.02e+01	52	39	0	859832320	48	6078
2026-01-01 18:09:27.65	257.49	12.39	-36.8	-38.0	28.2	3.02e+01	62	39	0	861405184	48	6107
2026-01-01 18:09:28.66	257.37	12.31	-36.8	-38.0	28.1	3.02e+01	59	39	0	863502336	48	6112
2026-01-01 18:09:29.67	257.24	12.22	-36.8	-38.1	28.0	3.02e+01	60	39	0	865075200	48	6136
2026-01-01 18:09:30.68	257.12	12.13	-36.8	-38.0	28.1	3.02e+01	59	39	0	867172352	48	6133
2026-01-01 18:09:31.69	257.00	12.04	-36.8	-38.1	28.1	3.02e+01	58	39	0	869269504	48	6178
2026-01-01 18:09:32.70	256.88	11.96	-36.9	-38.2	27.9	3.02e+01	59	39	0	870842368	48	6236
2026-01-01 18:09:33.71	256.76	11.87	-37.0	-38.3	27.8	3.02e+01	59	39	0	872939520	48	6315
2026-01-01 18:09:34.72	256.64	11.78	-37.0	-38.3	27.9	3.02e+01	45	39	0	874512384	48	6330
2026-01-01 18:09:35.73	256.52	11.70	-37.0	-38.3	27.8	3.02e+01	58	39	0	876609536	48	6316
2026-01-01 18:09:36.74	256.40	11.61	-37.1	-38.4	27.7	3.02e+01	61	39	0	878706688	48	6386
2026-01-01 18:09:37.75	256.28	11.53	-36.9	-38.1	28.0	3.02e+01	62	39	0	880279552	48	6205
2026-01-01 18:09:38.76	256.17	11.44	-37.0	-38.3	27.8	3.02e+01	60	39	0	882376704	48	6280
2026-01-01 18:09:39.77	256.05	11.35	-37.0	-38.3	27.8	3.02e+01	52	39	0	884473856	48	6332
2026-01-01 18:09:40.78	255.94	11.27	-37.1	-38.3	27.8	3.02e+01	60	39	0	886046720	48	6335
2026-01-01 18:09:41.79	255.82	11.18	-37.2	-38.5	27.8	3.02e+01	57	39	0	888143872	48	6432
2026-01-01 18:09:42.80	255.71	11.10	-37.1	-38.4	27.8	3.02e+01	58	39	0	889716736	48	6391
2026-01-01 18:09:43.81	255.60	11.02	-37.1	-38.3	27.7	3.02e+01	59	39	0	891813888	48	6341
2026-01-01 18:09:44.82	255.49	10.93	-37.2	-38.5	27.7	3.02e+01	44	39	0	893911040	48	6451
2026-01-01 18:09:45.83	255.37	10.85	-37.0	-38.2	27.9	3.02e+01	57	39	0	895483904	48	6270
2026-01-01 18:09:46.84	255.26	10.76	-36.9	-38.2	27.9	3.02e+01	60	39	0	897581056	48	6253
2026-01-01 18:09:47.85	255.15	10.68	-37.0	-38.3	27.8	3.02e+01	46	39	0	899678208	48	6304
2026-01-01 18:09:48.86	255.04	10.60	-37.0	-38.3	27.8	3.02e+01	61	39	0	901251072	48	6320
2026-01-01 18:09:49.87	254.94	10.51	-37.1	-38.4	27.8	3.02e+01	58	39	0	903348224	48	6363
2026-01-01 18:09:50.88	254.83	10.43	-37.1	-38.4	27.8	3.02e+01	57	39	0	904921088	48	6356
2026-01-01 18:09:51.89	254.72	10.35	-37.3	-38.6	27.6	3.02e+01	56	39	0	907018240	48	6515
2026-01-01 18:09:52.90	254.61	10.26	-37.4	-38.7	27.4	3.02e+01	59	39	0	909115392	48	6585
2026-01-01 18:09:53.91	254.51	10.18	-37.4	-38.8	27.4	3.02e+01	57	39	0	910688256	48	6664
2026-01-01 18:09:54.92	254.40	10.10	-37.5	-38.8	27.4	3.02e+01	59	39	0	912785408	48	6674
2026-01-01 18:09:55.93	254.30	10.02	-37.5	-38.8	27.3	3.02e+01	50	39	0	914358272	48	6717
2026-01-01 18:09:56.94	254.19	9.94	-37.5	-38.8	27.3	3.02e+01	56	39	0	916455424	48	6710
2026-01-01 18:09:57.95	254.09	9.85	-37.6	-38.9	27.1	3.02e+01	58	39	0	918552576	48	6785
2026-01-01 18:09:58.96	253.99	9.77	-37.3	-38.6	27.5	3.02e+01	58	39	0	920125440	48	6564
2026-01-01 18:09:59.97	253.89	9.69	-37.2	-38.5	27.6	3.02e+01	59	39	0	922222592	48	6424
2026-01-01 18:10:00.97	253.79	9.61	-37.3	-38.6	27.5	3.02e+01	62	39	0	923795456	48	6543
2026-01-01 18:10:01.98	253.69	9.53	-37.2	-38.5	27.6	3.02e+01	60	39	0	925892608	48	6430
2026-01-01 18:10:02.99	253.59	9.45	-37.3	-38.6	27.6	3.02e+01	62	39	0	927989760	48	6514
2026-01-01 18:10:04.00	253.49	9.37	-37.1	-38.4	27.6	3.02e+01	49	39	0	929562624	48	6409
2026-01-01 18:10:05.01	253.39	9.29	-37.2	-38.5	27.6	3.02e+01	61	39	0	931659776	48	6433
2026-01-01 18:10:06.02	253.29	9.21	-37.3	-38.6	27.5	3.02e+01	60	39	0	933232640	48	6544
2026-01-01 18:10:07.03	253.19	9.13	-37.3	-38.6	27.5	3.02e+01	59	39	0	935329792	48	6541
2026-01-01 18:10:08.04	253.09	9.05	-37.4	-38.7	27.3	3.02e+01	61	39	0	937426944	48	6648
2026-01-01 18:10:09.05	253.00	8.97	-37.6	-38.9	27.2	3.02e+01	46	39	0	938999808	48	6759
2026-01-01 18:10:10.06	252.90	8.89	-37.6	-38.9	27.2	3.02e+01	60	39	0	941096960	48	6757
2026-01-01 18:10:11.07	252.81	8.82	-37.7	-39.0	27.0	3.02e+01	60	39	0	942669824	48	6882
2026-01-01 18:10:12.08	252.71	8.74	-37.5	-38.8	27.3	3.02e+01	44	39	0	944766976	48	6706
2026-01-01 18:10:13.09	252.62	8.66	-37.6	-38.9	27.2	3.02e+01	58	39	0	946864128	48	6766
2026-01-01 18:10:14.10	252.52	8.58	-37.6	-38.9	27.1	3.02e+01	60	39	0	948436992	48	6795
2026-01-01 18:10:15.11	252.43	8.50	-37.5	-38.8	27.2	3.02e+01	58	39	0	950534144	48	6714
2026-01-01 18:10:16.12	252.34	8.42	-37.6	-38.9	27.2	3.02e+01	61	39	0	952631296	48	6773
2026-01-01 18:10:17.13	252.25	8.35	-37.7	-39.0	27.1	3.02e+01	54	39	0	954204160	48	6852
2026-01-01 18:10:18.14	252.15	8.27	-37.6	-39.0	27.1	3.02e+01	53	39	0	956301312	48	6811
2026-01-01 18:10:19.15	252.06	8.19	-37.7	-39.0	27.0	3.02e+01	59	39	0	957874176	48	6862
2026-01-01 18:10:20.15	251.97	8.12	-37.6	-38.9	27.1	3.02e+01	59	39	0	959971328	48	6784
2026-01-01 18:10:21.17	251.88	8.04	-37.7	-39.0	27.1	3.02e+01	58	39	0	962068480	48	6867
2026-01-01 18:10:22.18	251.79	7.96	-37.8	-39.1	27.0	3.02e+01	48	39	0	963641344	48	6946
2026-01-01 18:10:23.18	251.71	7.89	-37.9	-39.3	26.7	3.02e+01	57	39	0	965738496	50	6312
2026-01-01 18:10:24.19	251.62	7.81	-38.1	-39.5	26.6	3.02e+01	59	39	0	967311360	50	6449
2026-01-01 18:10:25.21	251.53	7.73	-38.1	-39.5	26.6	3.02e+01	47	39	0	969408512	50	6459
2026-01-01 18:10:26.22	251.44	7.66	-38.5	-39.9	26.3	3.02e+01	59	39	0	971505664	50	6793
2026-01-01 18:10:27.23	251.36	7.58	-38.4	-39.8	26.2	3.02e+01	60	39	0	973078528	50	6660
2026-01-01 18:10:28.23	251.27	7.51	-38.6	-40.0	26.4	3.02e+01	59	39	0	975175680	50	6863
2026-01-01 18:10:29.24	251.18	7.43	-38.3	-39.6	26.5	3.02e+01	61	39	0	977272832	50	6570
2026-01-01 18:10:30.26	251.10	7.36	-38.3	-39.7	26.3	3.02e+01	63	39	0	978845696	50	6634
2026-01-01 18:10:31.27	251.01	7.28	-38.5	-39.9	26.2	3.02e+01	60	39	0	980942848	50	6788
2026-01-01 18:10:32.27	250.93	7.21	-38.4	-39.8	26.3	3.02e+01	62	39	0	982515712	50	6657
2026-01-01 18:10:33.28	250.85	7.13	-38.0	-39.3	26.7	3.02e+01	45	39	0	984612864	50	6350
2026-01-01 18:10:34.29	250.76	7.06	-38.0	-39.3	26.7	3.02e+01	58	39	0	986185728	50	6350
2026-01-01 18:10:35.30	250.68	6.99	-38.0	-39.4	26.6	3.02e+01	61	39	0	988282880	50	6374
2026-01-01 18:10:36.31	250.60	6.91	-38.1	-39.4	26.6	3.02e+01	60	39	0	990380032	50	6412
2026-01-01 18:10:37.32	250.52	6.84	-38.1	-39.5	26.5	3.02e+01	62	39	0	991952896	50	6447
2026-01-01 18:10:38.33	250.43	6.76	-38.1	-39.5	26.4	3.02e+01	52	39	0	994050048	50	6482
2026-01-01 18:10:39.34	250.35	6.69	-38.1	-39.5	26.5	3.02e+01	57	39	0	995622912	50	6479
2026-01-01 18:10:40.35	250.27	6.62	-38.1	-39.5	26.5	3.02e+01	54	39	0	997720064	50	6432
2026-01-01 18:10:41.36	250.19	6.54	-38.2	-39.6	26.4	3.02e+01	45	39	0	999817216	50	6551
2026-01-01 18:10:42.37	250.11	6.47	-38.4	-39.8	26.3	3.02e+01	61	39	0	1001390080	50	6668
2026-01-01 18:10:43.38	250.03	6.40	-38.2	-39.6	26.4	3.02e+01	61	39	0	1003487232	50	6530
2026-01-01 18:10:44.39	249.95	6.33	-38.2	-39.6	26.4	3.02e+01	61	39	0	1005584384	50	6516
2026-01-01 18:10:45.40	249.88	6.25	-38.3	-39.7	26.3	3.02e+01	59	39	0	1007157248	50	6607
2026-01-01 18:10:46.41	249.80	6.18	-38.4	-39.9	26.1	3.02e+01	52	39	0	1009254400	50	6736
2026-01-01 18:10:47.42	249.72	6.11	-38.5	-40.0	26.0	3.02e+01	63	39	0	1010827264	50	6809
2026-01-01 18:10:48.43	249.64	6.04	-38.6	-40.0	26.0	3.02e+01	58	39	0	1012924416	50	6854
2026-01-01 18:10:49.44	249.57	5.97	-38.5	-39.9	26.0	3.02e+01	52	39	0	1015021568	50	6767
2026-01-01 18:10:50.45	249.49	5.90	-38.6	-40.1	25.9	3.02e+01	61	39	0	1016594432	50	6890
2026-01-01 18:10:51.46	249.42	5.82	-38.8	-40.3	25.7	3.02e+01	57	39	0	1018691584	50	7084
2026-01-01 18:10:52.46	249.34	5.75	-38.7	-40.2	25.7	3.02e+01	62	39	0	1020788736	50	6978
2026-01-01 18:10:53.48	249.27	5.68	-38.4	-39.9	26.0	3.02e+01	61	39	0	1022361600	50	6736
2026-01-01 18:10:54.49	249.19	5.61	-38.6	-40.1	25.8	3.02e+01	53	39	0	1024458752	50	6913
2026-01-01 18:10:55.50	249.12	5.54	-38.6	-40.1	25.8	3.02e+01	58	39	0	1026031616	50	6884
2026-01-01 18:10:56.51	249.04	5.47	-38.4	-39.9	26.0	3.02e+01	57	39	0	1028128768	50	6744
2026-01-01 18:10:57.52	248.97	5.40	-38.6	-40.0	25.8	3.02e+01	62	39	0	1030225920	50	6858
2026-01-01 18:10:58.52	248.90	5.33	-38.6	-40.1	25.8	3.02e+01	62	39	0	1031798784	50	6919
2026-01-01 18:10:59.53	248.83	5.26	-38.7	-40.2	25.7	3.02e+01	44	39	0	1033895936	50	6982
2026-01-01 18:11:00.54	248.75	5.19	-38.9	-40.4	25.5	3.02e+01	59	39	0	1035468800	50	7141
2026-01-01 18:11:01.55	248.68	5.12	-39.1	-40.6	25.3	3.02e+01	58	39	0	1037565952	52	6508
2026-01-01 18:11:02.56	248.61	5.05	-39.1	-40.6	25.2	3.02e+01	48	39	0	1039663104	52	6552
2026-01-01 18:11:03.57	248.54	4.98	-39.2	-40.7	25.1	3.02e+01	61	39	0	1041235968	52	6644
2026-01-01 18:11:04.58	248.47	4.91	-39.2	-40.8	25.1	3.02e+01	59	39	0	1043333120	52	6654
