passes_logs/2026/01/01/R4.6S_Anadyr/R4.6S_Anadyr__20260101_200819_FENGYUN_3D_rec.log

#Pass ID: 20260101_200819_FENGYUN 3D
#Satellite: FENGYUN 3D
#Configuration: FENGYUN 3D
#almurnet v.1.7.20251203
#Start time: 2026-01-01 20:08:20

#Version: 2.2.20231116
#Station: R4.6S_Anadyr
#Location: 177.4865 lon 64.73178 lat
#TLE: 1 43010U 17072A   25364.99193771  .00000012  00000+0  27255-4 0  9998
#TLE: 2 43010  98.9913 331.5779 0001825 135.6238 224.5084 14.19689358421127

#Time	Az	El	Level	Level2	SNR	BER	BlckErr	Temp	State	Recorded	gain1	gain2
2026-01-01 20:08:20.50	37.91	0.06	-49.4	-64.4	3.5	1.51e+00	0	36	0	0	60	59653
2026-01-01 20:08:21.51	37.84	0.11	-49.2	-61.4	3.6	8.46e-01	0	37	104	0	60	42318
2026-01-01 20:08:22.52	37.78	0.16	-49.2	-61.4	3.6	8.46e-01	0	37	104	0	60	42375
2026-01-01 20:08:23.53	37.71	0.22	-49.2	-61.4	3.6	8.46e-01	0	37	104	0	60	42312
2026-01-01 20:08:24.54	37.64	0.27	-49.2	-61.4	3.6	8.44e-01	0	37	104	0	60	42516
2026-01-01 20:08:25.55	37.57	0.32	-49.2	-61.4	3.6	8.45e-01	0	38	104	0	60	42645
2026-01-01 20:08:26.55	37.50	0.37	-49.3	-61.4	3.6	8.46e-01	0	38	104	0	60	42611
2026-01-01 20:08:27.56	37.44	0.42	-49.2	-61.3	3.6	8.45e-01	0	38	104	0	60	42154
2026-01-01 20:08:28.57	37.37	0.47	-49.3	-61.4	3.6	8.44e-01	0	38	104	0	60	42312
2026-01-01 20:08:29.58	37.30	0.53	-49.2	-61.3	3.6	8.45e-01	0	38	104	0	60	42043
2026-01-01 20:08:30.60	37.23	0.58	-49.1	-61.3	3.6	8.45e-01	0	38	104	0	60	41935
2026-01-01 20:08:31.61	37.16	0.63	-49.1	-61.2	3.6	8.46e-01	0	38	104	0	60	41661
2026-01-01 20:08:32.61	37.09	0.68	-49.0	-61.2	3.6	8.46e-01	0	38	104	0	60	41490
2026-01-01 20:08:33.63	37.02	0.74	-48.8	-61.0	3.6	8.46e-01	0	38	104	0	60	40563
2026-01-01 20:08:34.64	36.95	0.79	-48.8	-60.8	3.6	8.45e-01	0	38	104	0	60	39682
2026-01-01 20:08:35.65	36.88	0.84	-48.6	-60.7	3.6	8.44e-01	0	38	104	0	60	39322
2026-01-01 20:08:36.66	36.81	0.89	-48.2	-60.4	3.6	8.45e-01	0	38	104	0	60	37715
2026-01-01 20:08:37.67	36.73	0.94	-47.6	-59.7	3.6	8.46e-01	0	38	104	0	60	35068
2026-01-01 20:08:38.68	36.66	1.00	-47.6	-59.7	3.6	8.45e-01	0	38	104	0	60	34923
2026-01-01 20:08:39.69	36.59	1.05	-47.6	-59.7	3.6	8.45e-01	0	38	104	0	60	35086
2026-01-01 20:08:40.70	36.52	1.10	-47.6	-59.7	3.6	8.45e-01	0	38	104	0	60	34856
2026-01-01 20:08:41.71	36.45	1.16	-47.6	-59.7	3.6	8.45e-01	0	38	104	0	60	34776
2026-01-01 20:08:42.72	36.37	1.21	-47.6	-59.7	3.6	8.44e-01	0	38	104	0	60	34794
2026-01-01 20:08:43.73	36.30	1.26	-47.6	-59.7	3.5	8.44e-01	0	38	104	0	60	34801
2026-01-01 20:08:44.74	36.23	1.31	-47.6	-59.7	3.6	8.46e-01	0	38	104	0	60	34938
2026-01-01 20:08:45.75	36.15	1.37	-47.6	-59.7	3.5	8.46e-01	0	38	104	0	60	34858
2026-01-01 20:08:46.76	36.08	1.42	-47.6	-59.6	3.6	8.44e-01	0	38	104	0	60	34686
2026-01-01 20:08:47.77	36.01	1.47	-47.6	-59.6	3.6	8.45e-01	0	38	104	0	60	34637
2026-01-01 20:08:48.78	35.93	1.53	-47.6	-59.6	3.6	8.44e-01	0	38	104	0	60	34678
2026-01-01 20:08:49.79	35.86	1.58	-47.6	-59.6	3.6	8.45e-01	0	38	104	0	60	34453
2026-01-01 20:08:50.80	35.78	1.63	-47.6	-59.6	3.6	8.45e-01	0	38	104	0	60	34715
2026-01-01 20:08:51.81	35.71	1.68	-47.6	-59.7	3.6	8.44e-01	0	38	104	0	60	34855
2026-01-01 20:08:52.82	35.63	1.74	-47.6	-59.7	3.6	8.46e-01	0	38	104	0	60	34850
2026-01-01 20:08:53.83	35.56	1.79	-47.6	-59.7	3.6	8.44e-01	0	38	104	0	60	34869
2026-01-01 20:08:54.84	35.48	1.84	-47.6	-59.6	3.6	8.45e-01	0	38	104	0	60	34687
2026-01-01 20:08:55.85	35.40	1.90	-47.6	-59.6	3.6	8.45e-01	0	38	104	0	60	34612
2026-01-01 20:08:56.86	35.33	1.95	-47.6	-59.4	3.6	8.46e-01	0	38	104	0	60	33652
2026-01-01 20:08:57.87	35.25	2.00	-47.6	-59.0	3.6	8.44e-01	0	38	104	0	60	32297
2026-01-01 20:08:58.88	35.17	2.06	-47.5	-58.7	3.6	8.44e-01	0	38	104	0	60	30949
2026-01-01 20:08:59.89	35.10	2.11	-47.5	-58.4	3.6	8.45e-01	0	38	104	0	60	30137
2026-01-01 20:09:00.90	35.02	2.17	-47.5	-58.3	3.6	8.44e-01	0	38	104	0	60	29806
2026-01-01 20:09:01.91	34.94	2.22	-47.5	-59.0	3.6	8.45e-01	0	38	104	0	60	32272
2026-01-01 20:09:02.92	34.86	2.27	-47.6	-59.4	3.6	8.45e-01	0	38	104	0	60	33731
2026-01-01 20:09:03.93	34.78	2.33	-47.6	-59.7	3.6	8.45e-01	0	38	104	0	60	35073
2026-01-01 20:09:04.94	34.71	2.38	-47.6	-59.7	3.6	8.45e-01	0	38	104	0	60	34744
2026-01-01 20:09:05.95	34.63	2.43	-47.6	-59.5	3.6	8.45e-01	0	38	104	0	60	34104
2026-01-01 20:09:06.96	34.55	2.49	-47.6	-59.6	3.6	8.45e-01	0	38	104	0	60	34606
2026-01-01 20:09:07.97	34.47	2.54	-47.6	-59.6	3.6	8.45e-01	0	38	104	0	60	34694
2026-01-01 20:09:08.98	34.39	2.60	-47.6	-59.3	3.6	8.46e-01	0	38	104	0	60	33273
2026-01-01 20:09:09.99	34.31	2.65	-47.5	-58.3	3.6	8.45e-01	0	38	104	0	60	29753
2026-01-01 20:09:11.00	34.23	2.70	-47.4	-57.5	3.6	8.45e-01	0	38	104	0	60	27016
2026-01-01 20:09:12.01	34.14	2.76	-47.4	-57.2	3.8	8.43e-01	0	38	104	0	60	26207
2026-01-01 20:09:13.02	34.06	2.81	-47.5	-58.0	3.5	8.45e-01	0	38	104	0	60	28856
2026-01-01 20:09:14.03	33.98	2.87	-47.5	-58.6	3.6	8.46e-01	0	38	104	0	60	30589
2026-01-01 20:09:15.04	33.90	2.92	-47.2	-55.7	4.3	8.38e-01	0	38	104	0	60	21931
2026-01-01 20:09:16.05	33.82	2.98	-46.2	-50.8	7.0	3.21e-01	0	38	0	2097152	60	12501
2026-01-01 20:09:17.06	33.73	3.03	-45.3	-48.7	9.6	3.87e-02	0	38	0	8388608	60	9849
2026-01-01 20:09:18.07	33.65	3.08	-44.2	-46.9	11.8	1.17e-03	0	38	0	13631488	60	7980
2026-01-01 20:09:19.08	33.57	3.14	-45.5	-49.3	8.6	2.14e-03	0	38	0	19922944	60	10538
2026-01-01 20:09:20.09	33.48	3.19	-47.6	-58.6	3.6	8.28e-01	0	38	104	23068672	60	30868
2026-01-01 20:09:21.10	33.40	3.25	-43.3	-45.6	12.4	8.07e-01	0	38	104	23068672	58	7745
2026-01-01 20:09:22.11	33.32	3.30	-37.3	-38.3	20.5	0.00e+00	0	38	0	24117248	48	5898
2026-01-01 20:09:23.11	33.23	3.36	-47.4	-58.1	3.6	1.94e-01	0	38	104	28311552	60	29093
2026-01-01 20:09:24.12	33.15	3.41	-38.1	-39.1	19.0	7.86e-01	0	38	104	28311552	52	5163
2026-01-01 20:09:25.13	33.06	3.47	-37.5	-38.4	20.4	0.00e+00	0	38	0	29360128	48	5996
2026-01-01 20:09:26.14	32.98	3.52	-37.2	-38.1	20.7	0.00e+00	0	38	0	35651584	48	5799
2026-01-01 20:09:27.15	32.89	3.58	-37.3	-38.2	20.6	0.00e+00	0	38	0	40894464	48	5885
2026-01-01 20:09:28.16	32.80	3.63	-37.2	-38.1	20.9	0.00e+00	0	38	0	46137344	48	5824
2026-01-01 20:09:29.17	32.72	3.69	-37.5	-38.4	20.5	0.00e+00	0	38	0	52428800	48	5989
2026-01-01 20:09:30.18	32.63	3.74	-37.8	-38.7	20.2	0.00e+00	0	38	0	57671680	48	6244
2026-01-01 20:09:31.19	32.54	3.80	-37.9	-38.9	20.0	0.00e+00	0	38	0	63963136	48	6338
2026-01-01 20:09:32.20	32.46	3.85	-37.5	-38.4	20.6	0.00e+00	0	38	0	69206016	48	6007
2026-01-01 20:09:33.21	32.37	3.91	-37.3	-38.2	20.8	0.00e+00	0	38	0	74448896	48	5855
2026-01-01 20:09:34.22	32.28	3.96	-37.3	-38.2	20.8	0.00e+00	0	38	0	80740352	48	5833
2026-01-01 20:09:35.23	32.19	4.02	-37.2	-38.1	20.9	0.00e+00	0	38	0	85983232	48	5799
2026-01-01 20:09:36.24	32.10	4.07	-37.3	-38.2	20.9	0.00e+00	0	38	0	92274688	48	5858
2026-01-01 20:09:37.25	32.01	4.13	-36.9	-37.8	21.1	0.00e+00	0	38	0	97517568	46	6261
2026-01-01 20:09:38.26	31.92	4.18	-37.0	-37.9	21.1	0.00e+00	0	38	0	103809024	46	6354
2026-01-01 20:09:39.27	31.83	4.24	-36.9	-37.7	21.1	0.00e+00	0	38	0	109051904	46	6235
2026-01-01 20:09:40.28	31.74	4.30	-36.8	-37.6	21.3	0.00e+00	0	38	0	115343360	46	6163
2026-01-01 20:09:41.29	31.65	4.35	-36.9	-37.7	21.5	0.00e+00	0	38	0	120586240	46	6232
2026-01-01 20:09:42.30	31.56	4.41	-36.7	-37.5	21.5	0.00e+00	0	38	0	125829120	46	6095
2026-01-01 20:09:43.30	31.47	4.46	-36.7	-37.5	21.5	0.00e+00	0	38	0	132120576	46	6082
2026-01-01 20:09:44.32	31.38	4.52	-36.5	-37.3	21.7	0.00e+00	0	38	0	137363456	46	5927
2026-01-01 20:09:45.33	31.29	4.57	-36.8	-37.7	21.3	0.00e+00	0	38	0	143654912	46	6186
2026-01-01 20:09:46.34	31.19	4.63	-37.0	-37.9	21.1	0.00e+00	0	38	0	148897792	46	6364
2026-01-01 20:09:47.35	31.10	4.69	-36.8	-37.7	21.4	0.00e+00	0	38	0	154140672	46	6174
2026-01-01 20:09:48.36	31.01	4.74	-36.6	-37.5	21.6	0.00e+00	0	38	0	160432128	46	6038
2026-01-01 20:09:49.36	30.91	4.80	-36.6	-37.5	21.6	0.00e+00	0	38	0	165675008	46	6046
2026-01-01 20:09:50.37	30.82	4.85	-36.5	-37.4	21.7	0.00e+00	0	38	0	171966464	46	5968
2026-01-01 20:09:51.38	30.73	4.91	-36.4	-37.2	21.8	0.00e+00	0	38	0	177209344	46	5875
2026-01-01 20:09:52.39	30.63	4.97	-36.3	-37.1	22.0	0.00e+00	0	38	0	182452224	46	5825
2026-01-01 20:09:53.40	30.54	5.02	-36.5	-37.3	21.7	0.00e+00	0	38	0	188743680	46	5956
2026-01-01 20:09:54.41	30.44	5.08	-36.5	-37.3	21.8	0.00e+00	0	38	0	193986560	46	5903
2026-01-01 20:09:55.42	30.34	5.13	-36.4	-37.2	21.9	0.00e+00	0	38	0	200278016	46	5887
2026-01-01 20:09:56.43	30.25	5.19	-36.4	-37.2	21.9	0.00e+00	0	38	0	205520896	46	5849
2026-01-01 20:09:57.44	30.15	5.25	-36.4	-37.2	22.0	0.00e+00	0	38	0	211812352	46	5832
2026-01-01 20:09:58.45	30.05	5.30	-36.4	-37.2	21.8	0.00e+00	0	38	0	217055232	46	5883
2026-01-01 20:09:59.46	29.96	5.36	-36.2	-37.0	22.1	0.00e+00	0	38	0	222298112	46	5723
2026-01-01 20:10:00.47	29.86	5.42	-36.2	-37.0	22.1	0.00e+00	0	38	0	228589568	46	5709
2026-01-01 20:10:01.48	29.76	5.47	-36.2	-37.1	22.1	0.00e+00	0	38	0	233832448	46	5765
2026-01-01 20:10:02.49	29.66	5.53	-36.1	-36.9	22.2	0.00e+00	0	38	0	240123904	46	5658
2026-01-01 20:10:03.50	29.56	5.59	-36.2	-37.0	22.1	0.00e+00	0	38	0	245366784	46	5755
2026-01-01 20:10:04.51	29.46	5.64	-36.0	-36.8	22.2	0.00e+00	0	38	0	250609664	46	5599
2026-01-01 20:10:05.52	29.36	5.70	-36.1	-36.9	22.2	0.00e+00	0	38	0	256901120	46	5668
2026-01-01 20:10:06.53	29.26	5.76	-36.2	-37.0	22.1	0.00e+00	0	38	0	262144000	46	5749
2026-01-01 20:10:07.54	29.16	5.81	-36.2	-36.9	22.3	0.00e+00	0	38	0	268435456	46	5692
2026-01-01 20:10:08.55	29.06	5.87	-36.2	-37.0	22.1	0.00e+00	0	38	0	273678336	46	5753
2026-01-01 20:10:09.56	28.96	5.93	-36.1	-36.9	22.2	0.00e+00	0	38	0	278921216	46	5663
2026-01-01 20:10:10.57	28.86	5.98	-36.2	-37.0	22.1	0.00e+00	0	38	0	285212672	46	5749
2026-01-01 20:10:11.58	28.76	6.04	-36.1	-36.9	22.3	0.00e+00	0	38	0	290455552	46	5645
2026-01-01 20:10:12.59	28.65	6.10	-36.3	-37.1	22.0	0.00e+00	0	38	0	296747008	46	5781
2026-01-01 20:10:13.60	28.55	6.15	-36.4	-37.2	22.0	0.00e+00	0	38	0	301989888	46	5850
2026-01-01 20:10:14.61	28.45	6.21	-36.5	-37.3	21.9	0.00e+00	0	38	0	308281344	46	5926
2026-01-01 20:10:15.62	28.34	6.27	-36.5	-37.3	22.0	0.00e+00	0	38	0	313524224	46	5921
2026-01-01 20:10:16.63	28.24	6.32	-36.4	-37.2	22.1	0.00e+00	0	38	0	319815680	46	5843
2026-01-01 20:10:17.64	28.13	6.38	-36.3	-37.1	22.3	0.00e+00	0	38	0	325058560	46	5775
2026-01-01 20:10:18.65	28.03	6.44	-36.2	-37.0	22.3	0.00e+00	0	38	0	330301440	46	5707
2026-01-01 20:10:19.66	27.92	6.50	-36.2	-37.0	22.2	0.00e+00	0	38	0	336592896	46	5720
2026-01-01 20:10:20.67	27.82	6.55	-36.1	-36.9	22.4	0.00e+00	0	38	0	341835776	46	5691
2026-01-01 20:10:21.68	27.71	6.61	-36.1	-36.9	22.3	0.00e+00	0	38	0	348127232	46	5650
2026-01-01 20:10:22.69	27.60	6.67	-36.1	-36.9	22.4	0.00e+00	0	38	0	353370112	46	5674
2026-01-01 20:10:23.70	27.49	6.72	-35.9	-36.7	22.6	0.00e+00	0	38	0	358612992	46	5556
2026-01-01 20:10:24.71	27.39	6.78	-35.9	-36.7	22.6	0.00e+00	0	38	0	364904448	46	5521
2026-01-01 20:10:25.72	27.28	6.84	-35.9	-36.7	22.7	0.00e+00	0	38	0	370147328	46	5527
2026-01-01 20:10:26.73	27.17	6.90	-35.8	-36.6	22.7	0.00e+00	0	38	0	376438784	46	5452
2026-01-01 20:10:27.74	27.06	6.95	-35.8	-36.6	22.7	0.00e+00	0	38	0	381681664	46	5468
2026-01-01 20:10:28.75	26.95	7.01	-35.6	-36.3	22.9	0.00e+00	0	38	0	386924544	44	5958
2026-01-01 20:10:29.76	26.84	7.07	-35.4	-36.1	23.1	0.00e+00	0	38	0	393216000	44	5818
2026-01-01 20:10:30.77	26.73	7.13	-35.4	-36.2	23.1	0.00e+00	0	38	0	398458880	44	5866
2026-01-01 20:10:31.78	26.62	7.18	-35.4	-36.2	23.0	0.00e+00	0	38	0	404750336	44	5860
2026-01-01 20:10:32.79	26.51	7.24	-35.3	-36.1	23.2	0.00e+00	0	38	0	409993216	44	5766
2026-01-01 20:10:33.80	26.40	7.30	-35.4	-36.1	23.2	0.00e+00	0	38	0	416284672	44	5824
2026-01-01 20:10:34.81	26.28	7.36	-35.4	-36.1	23.2	0.00e+00	0	38	0	421527552	44	5799
2026-01-01 20:10:35.81	26.17	7.41	-35.2	-35.9	23.4	0.00e+00	0	38	0	427819008	44	5657
2026-01-01 20:10:36.82	26.06	7.47	-35.1	-35.9	23.4	0.00e+00	0	38	0	433061888	44	5643
2026-01-01 20:10:37.83	25.95	7.53	-35.3	-36.0	23.4	0.00e+00	0	39	0	438304768	44	5743
2026-01-01 20:10:38.84	25.83	7.59	-35.1	-35.8	23.5	0.00e+00	0	38	0	444596224	44	5604
2026-01-01 20:10:39.85	25.72	7.64	-35.0	-35.8	23.5	0.00e+00	0	38	0	449839104	44	5570
2026-01-01 20:10:40.86	25.60	7.70	-35.1	-35.8	23.5	0.00e+00	0	38	0	455081984	44	5583
2026-01-01 20:10:41.87	25.49	7.76	-35.1	-35.9	23.4	0.00e+00	0	39	0	461373440	44	5641
2026-01-01 20:10:42.88	25.37	7.82	-35.2	-36.0	23.4	0.00e+00	0	39	0	466616320	44	5716
2026-01-01 20:10:43.89	25.25	7.88	-35.2	-35.9	23.4	0.00e+00	0	38	0	472907776	44	5673
2026-01-01 20:10:44.90	25.14	7.93	-35.3	-36.0	23.3	0.00e+00	0	38	0	478150656	44	5740
2026-01-01 20:10:45.91	25.02	7.99	-35.3	-36.0	23.3	0.00e+00	0	39	0	483393536	44	5733
2026-01-01 20:10:46.92	24.90	8.05	-35.3	-36.0	23.3	0.00e+00	0	39	0	489684992	44	5756
2026-01-01 20:10:47.93	24.78	8.11	-35.5	-36.3	23.1	0.00e+00	0	38	0	494927872	44	5913
2026-01-01 20:10:48.94	24.66	8.16	-35.3	-36.0	23.3	0.00e+00	0	38	0	501219328	44	5741
2026-01-01 20:10:49.95	24.54	8.22	-35.4	-36.1	23.3	0.00e+00	0	38	0	506462208	44	5818
2026-01-01 20:10:50.96	24.42	8.28	-35.2	-35.9	23.4	0.00e+00	0	39	0	512753664	44	5685
2026-01-01 20:10:51.97	24.30	8.34	-35.2	-35.9	23.5	0.00e+00	0	38	0	517996544	44	5691
2026-01-01 20:10:52.98	24.18	8.40	-35.1	-35.9	23.5	0.00e+00	0	39	0	524288000	44	5637
2026-01-01 20:10:53.99	24.06	8.45	-35.3	-36.0	23.4	0.00e+00	0	39	0	529530880	44	5739
2026-01-01 20:10:55.00	23.94	8.51	-35.3	-36.0	23.4	0.00e+00	0	39	0	534773760	44	5738
2026-01-01 20:10:56.01	23.82	8.57	-35.2	-35.9	23.4	0.00e+00	0	38	0	541065216	44	5677
2026-01-01 20:10:57.02	23.69	8.63	-35.3	-36.1	23.3	0.00e+00	0	38	0	546308096	44	5785
2026-01-01 20:10:58.03	23.57	8.69	-35.1	-35.9	23.5	0.00e+00	0	39	0	552599552	44	5639
2026-01-01 20:10:59.04	23.45	8.74	-35.2	-35.9	23.5	0.00e+00	0	39	0	557842432	44	5679
2026-01-01 20:11:00.05	23.32	8.80	-35.2	-35.9	23.4	0.00e+00	0	39	0	563085312	44	5689
2026-01-01 20:11:01.06	23.20	8.86	-35.0	-35.7	23.7	0.00e+00	0	38	0	569376768	44	5546
2026-01-01 20:11:02.07	23.07	8.92	-34.9	-35.7	23.7	0.00e+00	0	39	0	574619648	44	5504
2026-01-01 20:11:03.08	22.95	8.98	-35.1	-35.8	23.6	0.00e+00	0	39	0	580911104	44	5616
2026-01-01 20:11:04.09	22.82	9.03	-35.0	-35.7	23.7	0.00e+00	0	38	0	586153984	44	5551
2026-01-01 20:11:05.10	22.69	9.09	-35.1	-35.8	23.7	0.00e+00	0	39	0	591396864	44	5591
2026-01-01 20:11:06.11	22.57	9.15	-34.8	-35.6	23.8	0.00e+00	0	38	0	597688320	44	5440
2026-01-01 20:11:07.12	22.44	9.21	-34.8	-35.6	23.9	0.00e+00	0	38	0	602931200	44	5449
2026-01-01 20:11:08.13	22.31	9.27	-34.8	-35.5	23.9	0.00e+00	0	39	0	609222656	44	5394
2026-01-01 20:11:09.14	22.18	9.32	-34.8	-35.5	23.9	0.00e+00	0	39	0	614465536	42	6074
2026-01-01 20:11:10.15	22.05	9.38	-34.9	-35.6	24.0	0.00e+00	0	39	0	620756992	42	6124
2026-01-01 20:11:11.16	21.92	9.44	-34.7	-35.4	24.0	0.00e+00	0	39	0	625999872	42	6002
2026-01-01 20:11:12.17	21.79	9.50	-34.6	-35.3	24.2	0.00e+00	0	39	0	632291328	42	5927
2026-01-01 20:11:13.18	21.66	9.55	-34.5	-35.2	24.2	0.00e+00	0	39	0	637534208	42	5894
2026-01-01 20:11:14.19	21.53	9.61	-34.5	-35.2	24.2	0.00e+00	0	39	0	642777088	42	5875
2026-01-01 20:11:15.20	21.39	9.67	-34.5	-35.2	24.2	0.00e+00	0	38	0	649068544	42	5884
2026-01-01 20:11:16.21	21.26	9.73	-34.4	-35.1	24.3	0.00e+00	0	39	0	654311424	42	5818
2026-01-01 20:11:17.22	21.13	9.79	-34.5	-35.2	24.3	0.00e+00	0	39	0	660602880	42	5866
2026-01-01 20:11:18.22	21.00	9.84	-34.5	-35.2	24.2	0.00e+00	0	38	0	665845760	42	5857
2026-01-01 20:11:19.23	20.86	9.90	-34.5	-35.2	24.2	0.00e+00	0	39	0	671088640	42	5878
2026-01-01 20:11:20.24	20.73	9.96	-34.6	-35.3	24.2	0.00e+00	0	38	0	677380096	42	5923
2026-01-01 20:11:21.25	20.59	10.02	-34.4	-35.1	24.3	0.00e+00	0	38	0	682622976	42	5809
2026-01-01 20:11:22.26	20.46	10.07	-34.4	-35.1	24.3	0.00e+00	0	39	0	687865856	42	5802
2026-01-01 20:11:23.27	20.32	10.13	-34.4	-35.2	24.3	0.00e+00	0	39	0	694157312	42	5829
2026-01-01 20:11:24.28	20.18	10.19	-34.5	-35.2	24.2	0.00e+00	0	38	0	699400192	42	5854
2026-01-01 20:11:25.29	20.04	10.25	-34.5	-35.2	24.2	0.00e+00	0	38	0	705691648	42	5889
2026-01-01 20:11:26.30	19.91	10.31	-34.6	-35.3	24.1	0.00e+00	0	38	0	710934528	42	5939
2026-01-01 20:11:27.31	19.77	10.36	-34.7	-35.4	24.1	0.00e+00	0	38	0	717225984	42	5991
2026-01-01 20:11:28.32	19.63	10.42	-34.8	-35.5	24.0	0.00e+00	0	39	0	722468864	42	6071
2026-01-01 20:11:29.33	19.49	10.48	-34.7	-35.5	24.0	0.00e+00	0	39	0	728760320	42	6062
2026-01-01 20:11:30.34	19.35	10.54	-34.8	-35.5	24.0	0.00e+00	0	39	0	734003200	42	6059
2026-01-01 20:11:31.35	19.21	10.59	-34.7	-35.5	24.0	0.00e+00	0	38	0	739246080	42	6050
2026-01-01 20:11:32.36	19.06	10.65	-34.6	-35.3	24.1	0.00e+00	0	39	0	745537536	42	5951
2026-01-01 20:11:33.37	18.92	10.71	-34.5	-35.2	24.3	0.00e+00	0	39	0	750780416	42	5887
2026-01-01 20:11:34.38	18.78	10.77	-34.6	-35.3	24.2	0.00e+00	0	39	0	757071872	42	5934
2026-01-01 20:11:35.39	18.64	10.82	-34.4	-35.1	24.3	0.00e+00	0	39	0	762314752	42	5828
2026-01-01 20:11:36.40	18.49	10.88	-34.5	-35.2	24.3	0.00e+00	0	39	0	767557632	42	5858
2026-01-01 20:11:37.41	18.35	10.94	-34.5	-35.2	24.3	0.00e+00	0	39	0	773849088	42	5830
2026-01-01 20:11:38.42	18.20	10.99	-34.6	-35.3	24.2	0.00e+00	0	39	0	779091968	42	5913
2026-01-01 20:11:39.43	18.06	11.05	-34.5	-35.2	24.3	0.00e+00	0	39	0	785383424	42	5867
2026-01-01 20:11:40.44	17.91	11.11	-34.6	-35.3	24.3	0.00e+00	0	39	0	790626304	42	5910
2026-01-01 20:11:41.45	17.76	11.17	-34.5	-35.2	24.4	0.00e+00	0	39	0	795869184	42	5853
2026-01-01 20:11:42.46	17.62	11.22	-34.4	-35.1	24.3	0.00e+00	0	39	0	802160640	42	5827
2026-01-01 20:11:43.47	17.47	11.28	-34.4	-35.1	24.5	0.00e+00	0	39	0	807403520	42	5795
2026-01-01 20:11:44.48	17.32	11.34	-34.3	-35.0	24.6	0.00e+00	0	39	0	813694976	42	5726
2026-01-01 20:11:45.49	17.17	11.39	-34.2	-34.9	24.6	0.00e+00	0	38	0	818937856	42	5641
2026-01-01 20:11:46.50	17.02	11.45	-34.1	-34.8	24.7	0.00e+00	0	38	0	825229312	42	5574
2026-01-01 20:11:47.51	16.87	11.51	-34.1	-34.8	24.6	0.00e+00	0	39	0	830472192	42	5615
2026-01-01 20:11:48.52	16.72	11.56	-34.2	-34.9	24.7	0.00e+00	0	39	0	836763648	42	5643
2026-01-01 20:11:49.53	16.57	11.62	-34.1	-34.8	24.7	0.00e+00	0	39	0	842006528	42	5583
2026-01-01 20:11:50.54	16.42	11.68	-34.1	-34.8	24.7	0.00e+00	0	39	0	847249408	42	5575
2026-01-01 20:11:51.55	16.26	11.73	-34.1	-34.8	24.7	0.00e+00	0	39	0	853540864	42	5583
2026-01-01 20:11:52.56	16.11	11.79	-34.1	-34.8	24.7	0.00e+00	0	38	0	858783744	42	5598
2026-01-01 20:11:53.57	15.96	11.85	-34.2	-35.0	24.8	0.00e+00	0	39	0	865075200	42	5700
2026-01-01 20:11:54.58	15.80	11.90	-34.0	-34.7	24.7	0.00e+00	0	39	0	870318080	42	5510
2026-01-01 20:11:55.59	15.65	11.96	-34.0	-34.7	24.7	0.00e+00	0	39	0	875560960	42	5542
2026-01-01 20:11:56.60	15.49	12.01	-34.0	-34.8	24.8	0.00e+00	0	39	0	881852416	42	5590
2026-01-01 20:11:57.61	15.33	12.07	-33.8	-34.5	24.9	0.00e+00	0	39	0	887095296	42	5403
2026-01-01 20:11:58.62	15.18	12.13	-33.9	-34.6	24.9	0.00e+00	0	39	0	893386752	42	5457
2026-01-01 20:11:59.63	15.02	12.18	-34.0	-34.7	24.8	0.00e+00	0	39	0	898629632	42	5504
2026-01-01 20:12:00.64	14.86	12.24	-34.0	-34.7	24.8	0.00e+00	0	39	0	903872512	42	5540
2026-01-01 20:12:01.65	14.70	12.29	-33.9	-34.6	24.8	0.00e+00	0	39	0	910163968	42	5485
2026-01-01 20:12:02.66	14.54	12.35	-34.0	-34.7	24.8	0.00e+00	0	39	0	915406848	42	5523
2026-01-01 20:12:03.67	14.38	12.40	-33.9	-34.6	24.9	0.00e+00	0	39	0	921698304	42	5470
2026-01-01 20:12:04.68	14.22	12.46	-34.0	-34.7	24.9	0.00e+00	0	39	0	926941184	42	5529
2026-01-01 20:12:05.69	14.06	12.52	-33.9	-34.6	24.9	0.00e+00	0	39	0	933232640	42	5453
2026-01-01 20:12:06.70	13.90	12.57	-34.0	-34.7	24.9	0.00e+00	0	39	0	938475520	42	5523
2026-01-01 20:12:07.71	13.74	12.63	-34.0	-34.7	24.8	0.00e+00	0	39	0	943718400	42	5544
2026-01-01 20:12:08.72	13.57	12.68	-33.9	-34.6	25.0	0.00e+00	0	39	0	950009856	42	5446
2026-01-01 20:12:09.73	13.41	12.74	-33.9	-34.6	24.9	0.00e+00	0	39	0	955252736	42	5481
2026-01-01 20:12:10.74	13.24	12.79	-33.9	-34.6	25.0	0.00e+00	0	39	0	961544192	42	5457
2026-01-01 20:12:11.75	13.08	12.84	-34.0	-34.7	24.8	0.00e+00	0	39	0	966787072	42	5515
2026-01-01 20:12:12.77	12.91	12.90	-34.0	-34.7	24.9	0.00e+00	0	39	0	973078528	42	5530
2026-01-01 20:12:13.78	12.75	12.95	-34.1	-34.8	24.8	0.00e+00	0	39	0	978321408	42	5583
2026-01-01 20:12:14.79	12.58	13.01	-34.0	-34.7	24.9	0.00e+00	0	39	0	983564288	42	5528
2026-01-01 20:12:15.80	12.41	13.06	-33.9	-34.6	24.9	0.00e+00	0	39	0	989855744	42	5481
2026-01-01 20:12:16.81	12.24	13.12	-33.9	-34.6	24.9	0.00e+00	0	39	0	995098624	42	5476
2026-01-01 20:12:17.82	12.07	13.17	-33.8	-34.4	25.1	0.00e+00	0	39	0	1001390080	42	5361
2026-01-01 20:12:18.83	11.91	13.22	-33.7	-34.4	25.1	0.00e+00	0	39	0	1006632960	40	5997
2026-01-01 20:12:19.84	11.74	13.28	-33.8	-34.5	25.0	0.00e+00	0	39	0	1011875840	40	6081
2026-01-01 20:12:20.85	11.56	13.33	-33.6	-34.3	25.2	0.00e+00	0	39	0	1018167296	40	5900
2026-01-01 20:12:21.86	11.39	13.39	-33.5	-34.2	25.3	0.00e+00	0	39	0	1023410176	40	5837
2026-01-01 20:12:22.87	11.22	13.44	-33.3	-34.0	25.4	0.00e+00	0	39	0	1029701632	40	5745
2026-01-01 20:12:23.88	11.05	13.49	-33.4	-34.0	25.4	0.00e+00	0	39	0	1034944512	40	5745
2026-01-01 20:12:24.89	10.88	13.54	-33.2	-33.8	25.6	0.00e+00	0	39	0	1041235968	40	5615
2026-01-01 20:12:25.90	10.70	13.60	-33.3	-33.9	25.5	0.00e+00	0	39	0	1046478848	40	5686
2026-01-01 20:12:26.91	10.53	13.65	-33.3	-34.0	25.5	0.00e+00	0	39	0	1051721728	40	5713
2026-01-01 20:12:27.92	10.35	13.70	-33.3	-34.0	25.4	0.00e+00	0	39	0	1058013184	40	5728
2026-01-01 20:12:28.93	10.18	13.75	-33.4	-34.1	25.4	0.00e+00	0	39	0	1063256064	40	5782
2026-01-01 20:12:29.94	10.00	13.81	-33.5	-34.1	25.3	0.00e+00	0	39	0	1069547520	40	5813
2026-01-01 20:12:30.95	9.82	13.86	-33.4	-34.1	25.4	0.00e+00	0	39	0	1074790400	40	5787
2026-01-01 20:12:31.96	9.65	13.91	-33.5	-34.1	25.3	0.00e+00	0	39	0	1080033280	40	5827
2026-01-01 20:12:32.97	9.47	13.96	-33.5	-34.2	25.3	0.00e+00	0	39	0	1086324736	40	5839
2026-01-01 20:12:33.98	9.29	14.01	-33.4	-34.1	25.4	0.00e+00	0	38	0	1091567616	40	5799
2026-01-01 20:12:34.99	9.11	14.07	-33.4	-34.1	25.3	0.00e+00	0	39	0	1097859072	40	5807
2026-01-01 20:12:36.00	8.93	14.12	-33.3	-34.0	25.4	0.00e+00	0	39	0	1103101952	40	5731
2026-01-01 20:12:37.01	8.75	14.17	-33.4	-34.1	25.4	0.00e+00	0	39	0	1108344832	40	5770
2026-01-01 20:12:38.02	8.57	14.22	-33.4	-34.1	25.5	0.00e+00	0	39	0	1114636288	40	5775
2026-01-01 20:12:39.03	8.39	14.27	-33.3	-33.9	25.5	0.00e+00	0	39	0	1119879168	40	5674
2026-01-01 20:12:40.04	8.20	14.32	-33.4	-34.1	25.3	0.00e+00	0	39	0	1126170624	40	5770
2026-01-01 20:12:41.05	8.02	14.37	-33.5	-34.1	25.3	0.00e+00	0	39	0	1131413504	40	5821
2026-01-01 20:12:42.06	7.84	14.42	-33.7	-34.4	25.1	0.00e+00	0	39	0	1137704960	40	5968
2026-01-01 20:12:43.07	7.65	14.47	-33.7	-34.4	25.1	0.00e+00	0	39	0	1142947840	40	5992
2026-01-01 20:12:44.08	7.47	14.52	-33.7	-34.4	25.1	0.00e+00	0	39	0	1149239296	40	5983
2026-01-01 20:12:45.09	7.28	14.57	-33.6	-34.3	25.3	0.00e+00	0	39	0	1154482176	40	5919
2026-01-01 20:12:46.10	7.09	14.62	-33.4	-34.1	25.3	0.00e+00	0	39	0	1159725056	40	5795
2026-01-01 20:12:47.11	6.91	14.67	-33.5	-34.2	25.3	0.00e+00	0	39	0	1166016512	40	5852
2026-01-01 20:12:48.12	6.72	14.72	-33.4	-34.1	25.5	0.00e+00	0	39	0	1171259392	40	5773
2026-01-01 20:12:49.13	6.53	14.76	-33.4	-34.0	25.5	0.00e+00	0	39	0	1177550848	40	5749
2026-01-01 20:12:50.14	6.34	14.81	-33.2	-33.8	25.6	0.00e+00	0	39	0	1182793728	40	5628
2026-01-01 20:12:51.15	6.15	14.86	-33.3	-33.9	25.5	0.00e+00	0	39	0	1188036608	40	5674
2026-01-01 20:12:52.16	5.96	14.91	-33.1	-33.8	25.7	0.00e+00	0	39	0	1194328064	40	5575
2026-01-01 20:12:53.17	5.77	14.96	-33.1	-33.8	25.8	0.00e+00	0	39	0	1199570944	40	5575
2026-01-01 20:12:54.18	5.58	15.00	-33.1	-33.7	25.7	0.00e+00	0	39	0	1205862400	40	5566
2026-01-01 20:12:55.19	5.39	15.05	-33.2	-33.9	25.6	0.00e+00	0	39	0	1211105280	40	5655
2026-01-01 20:12:56.20	5.19	15.10	-33.2	-33.9	25.6	0.00e+00	0	39	0	1216348160	40	5693
2026-01-01 20:12:57.21	5.00	15.15	-33.1	-33.8	25.7	0.00e+00	0	39	0	1222639616	40	5574
2026-01-01 20:12:58.22	4.81	15.19	-33.2	-33.9	25.6	0.00e+00	0	39	0	1227882496	40	5648
2026-01-01 20:12:59.23	4.61	15.24	-33.2	-33.9	25.7	0.00e+00	0	39	0	1234173952	40	5659
2026-01-01 20:13:00.24	4.42	15.29	-33.3	-34.0	25.6	0.00e+00	0	39	0	1239416832	40	5734
2026-01-01 20:13:01.25	4.22	15.33	-33.1	-33.8	25.7	0.00e+00	0	39	0	1245708288	40	5614
2026-01-01 20:13:02.26	4.03	15.38	-33.1	-33.9	25.6	0.00e+00	0	39	0	1250951168	40	5642
2026-01-01 20:13:03.27	3.83	15.42	-33.0	-33.7	25.8	0.00e+00	0	39	0	1257242624	40	5526
2026-01-01 20:13:04.28	3.63	15.47	-33.0	-33.7	25.7	0.00e+00	0	39	0	1262485504	40	5545
2026-01-01 20:13:05.29	3.43	15.51	-33.0	-33.7	25.7	0.00e+00	0	39	0	1267728384	40	5547
2026-01-01 20:13:06.30	3.23	15.56	-33.0	-33.7	25.8	0.00e+00	0	39	0	1274019840	40	5546
2026-01-01 20:13:07.31	3.03	15.60	-33.0	-33.7	25.9	0.00e+00	0	39	0	1279262720	40	5529
2026-01-01 20:13:08.32	2.83	15.64	-33.0	-33.6	25.8	0.00e+00	0	39	0	1285554176	40	5485
2026-01-01 20:13:09.33	2.63	15.69	-33.0	-33.6	25.9	0.00e+00	0	39	0	1290797056	40	5491
2026-01-01 20:13:10.34	2.43	15.73	-33.0	-33.6	25.9	0.00e+00	0	39	0	1296039936	40	5498
2026-01-01 20:13:11.35	2.23	15.77	-32.9	-33.6	25.9	0.00e+00	0	39	0	1302331392	40	5442
2026-01-01 20:13:12.36	2.03	15.82	-33.0	-33.7	25.8	0.00e+00	0	39	0	1307574272	40	5546
2026-01-01 20:13:13.37	1.83	15.86	-32.8	-33.5	26.0	0.00e+00	0	39	0	1313865728	40	5382
2026-01-01 20:13:14.38	1.62	15.90	-32.8	-33.5	26.1	0.00e+00	0	39	0	1319108608	38	6041
2026-01-01 20:13:15.39	1.42	15.94	-32.8	-33.5	26.0	0.00e+00	0	39	0	1324351488	38	6063
2026-01-01 20:13:16.40	1.21	15.99	-32.8	-33.5	25.9	0.00e+00	0	39	0	1330642944	38	6038
2026-01-01 20:13:17.41	1.01	16.03	-32.9	-33.5	25.9	0.00e+00	0	39	0	1335885824	38	6095
2026-01-01 20:13:18.42	0.80	16.07	-32.8	-33.5	26.0	0.00e+00	0	39	0	1342177280	38	6072
2026-01-01 20:13:19.43	0.60	16.11	-32.7	-33.4	26.1	0.00e+00	0	39	0	1347420160	38	5973
2026-01-01 20:13:20.44	0.39	16.15	-32.9	-33.6	25.9	0.00e+00	0	39	0	1353711616	38	6132
2026-01-01 20:13:21.45	0.18	16.19	-32.5	-33.2	26.3	0.00e+00	0	39	0	1358954496	38	5879
2026-01-01 20:13:22.47	359.97	16.23	-32.5	-33.1	26.3	0.00e+00	0	39	0	1365245952	38	5812
2026-01-01 20:13:23.48	359.76	16.27	-32.4	-33.0	26.4	0.00e+00	0	39	0	1370488832	38	5739
2026-01-01 20:13:24.49	359.55	16.31	-32.4	-33.0	26.5	0.00e+00	0	39	0	1375731712	38	5738
2026-01-01 20:13:25.50	359.34	16.35	-32.3	-32.9	26.5	0.00e+00	0	39	0	1382023168	38	5694
2026-01-01 20:13:26.51	359.13	16.39	-32.3	-33.0	26.4	0.00e+00	0	39	0	1387266048	38	5720
2026-01-01 20:13:27.52	358.92	16.43	-32.2	-32.9	26.4	0.00e+00	0	39	0	1393557504	38	5646
2026-01-01 20:13:28.53	358.71	16.46	-32.3	-32.9	26.5	0.00e+00	0	39	0	1398800384	38	5692
2026-01-01 20:13:29.54	358.50	16.50	-32.3	-33.0	26.5	0.00e+00	0	39	0	1404043264	38	5701
2026-01-01 20:13:30.55	358.29	16.54	-32.3	-33.0	26.4	0.00e+00	0	39	0	1410334720	38	5736
2026-01-01 20:13:31.55	358.08	16.57	-32.4	-33.0	26.4	0.00e+00	0	39	0	1415577600	38	5758
2026-01-01 20:13:32.57	357.86	16.61	-32.4	-33.1	26.3	0.00e+00	0	39	0	1421869056	38	5783
2026-01-01 20:13:33.58	357.65	16.65	-32.3	-33.0	26.4	0.00e+00	0	39	0	1427111936	38	5738
2026-01-01 20:13:34.59	357.43	16.68	-32.3	-32.9	26.5	0.00e+00	0	39	0	1432354816	38	5689
2026-01-01 20:13:35.60	357.22	16.72	-32.0	-32.6	26.7	0.00e+00	0	39	0	1438646272	38	5501
2026-01-01 20:13:36.61	357.00	16.75	-32.0	-32.6	26.7	0.00e+00	0	39	0	1443889152	38	5482
2026-01-01 20:13:37.62	356.78	16.79	-32.0	-32.7	26.7	0.00e+00	0	39	0	1450180608	38	5512
2026-01-01 20:13:38.63	356.57	16.82	-32.0	-32.7	26.7	0.00e+00	0	39	0	1455423488	38	5508
2026-01-01 20:13:39.64	356.35	16.86	-32.1	-32.8	26.6	0.00e+00	0	39	0	1461714944	38	5592
2026-01-01 20:13:40.64	356.14	16.89	-32.1	-32.8	26.6	0.00e+00	0	39	0	1466957824	38	5573
2026-01-01 20:13:41.65	355.92	16.92	-32.2	-32.9	26.5	0.00e+00	0	39	0	1472200704	38	5674
2026-01-01 20:13:42.66	355.70	16.96	-32.2	-32.9	26.5	0.00e+00	0	39	0	1478492160	38	5666
2026-01-01 20:13:43.68	355.48	16.99	-32.3	-32.9	26.4	0.00e+00	0	39	0	1483735040	38	5691
2026-01-01 20:13:44.69	355.26	17.02	-32.4	-33.0	26.4	0.00e+00	0	39	0	1490026496	38	5738
2026-01-01 20:13:45.70	355.04	17.05	-32.5	-33.2	26.3	0.00e+00	0	39	0	1495269376	38	5837
2026-01-01 20:13:46.71	354.82	17.08	-32.5	-33.1	26.3	0.00e+00	0	39	0	1500512256	38	5823
2026-01-01 20:13:47.72	354.60	17.11	-32.6	-33.2	26.2	0.00e+00	0	39	0	1506803712	38	5856
2026-01-01 20:13:48.73	354.37	17.14	-32.6	-33.2	26.2	0.00e+00	0	39	0	1512046592	38	5890
2026-01-01 20:13:49.74	354.15	17.17	-32.6	-33.3	26.2	0.00e+00	0	39	0	1518338048	38	5897
2026-01-01 20:13:50.75	353.93	17.20	-32.5	-33.2	26.3	0.00e+00	0	39	0	1523580928	38	5830
2026-01-01 20:13:51.76	353.71	17.23	-32.5	-33.2	26.3	0.00e+00	0	39	0	1528823808	38	5830
2026-01-01 20:13:52.77	353.48	17.26	-32.4	-33.1	26.3	0.00e+00	0	39	0	1535115264	38	5764
2026-01-01 20:13:53.78	353.26	17.29	-32.4	-33.0	26.4	0.00e+00	0	39	0	1540358144	38	5753
2026-01-01 20:13:54.79	353.04	17.32	-32.4	-33.0	26.4	0.00e+00	0	39	0	1546649600	38	5757
2026-01-01 20:13:55.80	352.81	17.35	-32.5	-33.1	26.3	0.00e+00	0	39	0	1551892480	38	5814
2026-01-01 20:13:56.81	352.59	17.37	-32.6	-33.3	26.3	0.00e+00	0	39	0	1558183936	38	5899
2026-01-01 20:13:57.82	352.36	17.40	-32.5	-33.2	26.3	0.00e+00	0	39	0	1563426816	38	5862
2026-01-01 20:13:58.83	352.14	17.43	-32.5	-33.2	26.3	0.00e+00	0	39	0	1569718272	38	5865
2026-01-01 20:13:59.84	351.91	17.45	-32.6	-33.3	26.2	0.00e+00	0	39	0	1574961152	38	5940
2026-01-01 20:14:00.85	351.68	17.48	-32.5	-33.2	26.3	0.00e+00	0	39	0	1580204032	38	5863
2026-01-01 20:14:01.86	351.46	17.50	-32.5	-33.1	26.4	0.00e+00	0	39	0	1586495488	38	5813
2026-01-01 20:14:02.87	351.23	17.53	-32.5	-33.1	26.4	0.00e+00	0	39	0	1591738368	38	5791
2026-01-01 20:14:03.88	351.00	17.55	-32.4	-33.0	26.4	0.00e+00	0	39	0	1598029824	38	5742
2026-01-01 20:14:04.89	350.77	17.58	-32.5	-33.1	26.4	0.00e+00	0	39	0	1603272704	38	5815
2026-01-01 20:14:05.90	350.55	17.60	-32.5	-33.1	26.4	0.00e+00	0	39	0	1608515584	38	5804
2026-01-01 20:14:06.91	350.32	17.62	-32.3	-33.0	26.5	0.00e+00	0	39	0	1614807040	38	5723
2026-01-01 20:14:07.92	350.09	17.64	-32.2	-32.9	26.6	0.00e+00	0	39	0	1620049920	38	5636
2026-01-01 20:14:08.93	349.86	17.67	-32.2	-32.9	26.6	0.00e+00	0	39	0	1626341376	38	5672
2026-01-01 20:14:09.94	349.63	17.69	-32.1	-32.7	26.7	0.00e+00	0	39	0	1631584256	38	5532
2026-01-01 20:14:10.95	349.40	17.71	-32.1	-32.7	26.7	0.00e+00	0	39	0	1636827136	38	5550
2026-01-01 20:14:11.96	349.17	17.73	-32.1	-32.8	26.6	0.00e+00	0	39	0	1643118592	38	5603
2026-01-01 20:14:12.97	348.94	17.75	-32.3	-33.0	26.6	0.00e+00	0	39	0	1648361472	38	5717
2026-01-01 20:14:13.98	348.71	17.77	-32.3	-32.9	26.5	0.00e+00	0	39	0	1654652928	38	5665
2026-01-01 20:14:14.99	348.47	17.79	-32.1	-32.8	26.6	0.00e+00	0	39	0	1659895808	38	5568
2026-01-01 20:14:16.00	348.24	17.81	-32.2	-32.8	26.5	0.00e+00	0	39	0	1666187264	38	5608
2026-01-01 20:14:17.01	348.01	17.82	-32.2	-32.8	26.6	0.00e+00	0	39	0	1671430144	38	5617
2026-01-01 20:14:18.02	347.78	17.84	-32.2	-32.8	26.5	0.00e+00	0	39	0	1677721600	38	5629
2026-01-01 20:14:19.03	347.55	17.86	-32.4	-33.1	26.4	0.00e+00	0	39	0	1682964480	38	5780
2026-01-01 20:14:20.04	347.31	17.88	-32.4	-33.0	26.4	0.00e+00	0	39	0	1688207360	38	5760
2026-01-01 20:14:21.05	347.08	17.89	-32.5	-33.2	26.4	0.00e+00	0	39	0	1694498816	38	5837
2026-01-01 20:14:22.06	346.85	17.91	-32.3	-33.0	26.5	0.00e+00	0	39	0	1699741696	38	5723
2026-01-01 20:14:23.07	346.61	17.92	-32.2	-32.9	26.6	0.00e+00	0	39	0	1706033152	38	5631
2026-01-01 20:14:24.08	346.38	17.94	-32.1	-32.7	26.7	0.00e+00	0	39	0	1711276032	38	5544
2026-01-01 20:14:25.09	346.15	17.95	-32.0	-32.6	26.8	0.00e+00	0	39	0	1716518912	38	5496
2026-01-01 20:14:26.10	345.91	17.97	-32.0	-32.7	26.7	0.00e+00	0	39	0	1722810368	38	5523
2026-01-01 20:14:27.11	345.68	17.98	-32.0	-32.7	26.7	0.00e+00	0	39	0	1728053248	38	5503
2026-01-01 20:14:28.12	345.44	17.99	-32.1	-32.7	26.7	0.00e+00	0	39	0	1734344704	38	5561
2026-01-01 20:14:29.13	345.21	18.01	-32.1	-32.8	26.8	0.00e+00	0	39	0	1739587584	38	5568
2026-01-01 20:14:30.14	344.97	18.02	-32.1	-32.7	26.7	0.00e+00	0	39	0	1744830464	38	5560
2026-01-01 20:14:31.15	344.74	18.03	-32.1	-32.7	26.7	0.00e+00	0	39	0	1751121920	38	5551
2026-01-01 20:14:32.16	344.50	18.04	-32.3	-32.9	26.6	0.00e+00	0	39	0	1756364800	38	5637
2026-01-01 20:14:33.17	344.27	18.05	-32.3	-33.0	26.5	0.00e+00	0	39	0	1762656256	38	5697
2026-01-01 20:14:34.18	344.03	18.06	-32.2	-32.8	26.6	0.00e+00	0	39	0	1767899136	38	5613
2026-01-01 20:14:35.19	343.80	18.07	-32.2	-32.9	26.6	0.00e+00	0	39	0	1774190592	38	5644
2026-01-01 20:14:36.20	343.56	18.08	-32.2	-32.9	26.5	0.00e+00	0	39	0	1779433472	38	5665
2026-01-01 20:14:37.21	343.32	18.09	-32.2	-32.9	26.7	0.00e+00	0	39	0	1784676352	38	5636
2026-01-01 20:14:38.22	343.09	18.10	-32.3	-33.0	26.5	0.00e+00	0	39	0	1790967808	38	5721
2026-01-01 20:14:39.23	342.85	18.10	-32.1	-32.8	26.6	0.00e+00	0	39	0	1796210688	38	5594
2026-01-01 20:14:40.24	342.62	18.11	-32.1	-32.7	26.7	0.00e+00	0	39	0	1802502144	38	5528
2026-01-01 20:14:41.25	342.38	18.12	-32.0	-32.6	26.8	0.00e+00	0	39	0	1807745024	38	5465
2026-01-01 20:14:42.25	342.14	18.12	-31.9	-32.6	26.8	0.00e+00	0	39	0	1812987904	38	5443
2026-01-01 20:14:43.26	341.91	18.13	-31.9	-32.6	26.8	0.00e+00	0	39	0	1819279360	38	5470
2026-01-01 20:14:44.28	341.67	18.13	-32.0	-32.7	26.8	0.00e+00	0	39	0	1824522240	38	5541
2026-01-01 20:14:45.29	341.43	18.14	-31.8	-32.5	26.9	0.00e+00	0	39	0	1830813696	38	5380
2026-01-01 20:14:46.30	341.19	18.14	-31.8	-32.4	27.0	0.00e+00	0	39	0	1836056576	36	6014
2026-01-01 20:14:47.31	340.96	18.14	-31.8	-32.5	26.9	0.00e+00	0	39	0	1841299456	36	6037
2026-01-01 20:14:48.32	340.72	18.15	-31.6	-32.3	27.1	0.00e+00	0	39	0	1847590912	36	5898
2026-01-01 20:14:49.33	340.48	18.15	-31.6	-32.2	27.1	0.00e+00	0	39	0	1852833792	36	5870
2026-01-01 20:14:50.34	340.25	18.15	-31.7	-32.3	27.0	0.00e+00	0	39	0	1859125248	36	5942
2026-01-01 20:14:51.35	340.01	18.15	-31.7	-32.4	27.0	0.00e+00	0	39	0	1864368128	36	5974
2026-01-01 20:14:52.36	339.77	18.15	-31.7	-32.4	26.8	0.00e+00	0	39	0	1870659584	36	5968
2026-01-01 20:14:53.37	339.53	18.15	-31.8	-32.5	26.8	0.00e+00	0	39	0	1875902464	36	6068
2026-01-01 20:14:54.38	339.30	18.15	-31.8	-32.5	26.8	0.00e+00	0	39	0	1882193920	36	6074
2026-01-01 20:14:55.39	339.06	18.15	-31.9	-32.6	26.7	0.00e+00	0	39	0	1887436800	36	6151
2026-01-01 20:14:56.40	338.82	18.15	-32.0	-32.6	26.7	0.00e+00	0	39	0	1892679680	36	6153
2026-01-01 20:14:57.41	338.58	18.15	-32.1	-32.7	26.6	0.00e+00	0	39	0	1898971136	36	6205
2026-01-01 20:14:58.42	338.35	18.15	-32.1	-32.7	26.7	0.00e+00	0	39	0	1904214016	36	6234
2026-01-01 20:14:59.43	338.11	18.15	-32.1	-32.8	26.6	0.00e+00	0	39	0	1910505472	36	6262
2026-01-01 20:15:00.44	337.87	18.14	-32.3	-32.9	26.5	0.00e+00	0	39	0	1915748352	36	6345
2026-01-01 20:15:01.45	337.64	18.14	-32.4	-33.1	26.4	0.00e+00	0	39	0	1920991232	36	6490
2026-01-01 20:15:02.46	337.40	18.13	-32.3	-33.0	26.4	0.00e+00	0	39	0	1927282688	36	6413
2026-01-01 20:15:03.47	337.16	18.13	-32.3	-33.0	26.4	0.00e+00	0	39	0	1932525568	36	6445
2026-01-01 20:15:04.48	336.93	18.12	-32.3	-32.9	26.5	0.00e+00	0	39	0	1938817024	36	6382
2026-01-01 20:15:05.49	336.69	18.12	-32.2	-32.9	26.5	0.00e+00	0	39	0	1944059904	36	6370
2026-01-01 20:15:06.50	336.45	18.11	-32.2	-32.9	26.5	0.00e+00	0	39	0	1949302784	36	6363
2026-01-01 20:15:07.51	336.22	18.11	-32.3	-32.9	26.3	0.00e+00	0	39	0	1955594240	36	6368
2026-01-01 20:15:08.52	335.98	18.10	-32.1	-32.7	26.4	0.00e+00	0	39	0	1960837120	36	6232
2026-01-01 20:15:09.53	335.74	18.09	-32.1	-32.7	26.7	0.00e+00	0	39	0	1967128576	36	6223
2026-01-01 20:15:10.54	335.51	18.08	-31.9	-32.5	26.8	0.00e+00	0	39	0	1972371456	36	6068
2026-01-01 20:15:11.55	335.27	18.07	-31.8	-32.4	26.9	0.00e+00	0	39	0	1978662912	36	6029
2026-01-01 20:15:12.56	335.03	18.07	-31.8	-32.4	26.9	0.00e+00	0	39	0	1983905792	36	6022
2026-01-01 20:15:13.57	334.80	18.06	-31.9	-32.5	26.8	0.00e+00	0	39	0	1990197248	36	6075
2026-01-01 20:15:14.58	334.56	18.05	-32.0	-32.6	26.8	0.00e+00	0	39	0	1995440128	36	6157
2026-01-01 20:15:15.59	334.33	18.03	-32.1	-32.8	26.7	0.00e+00	0	39	0	2000683008	36	6270
2026-01-01 20:15:16.60	334.09	18.02	-32.1	-32.7	26.6	0.00e+00	0	39	0	2006974464	36	6214
2026-01-01 20:15:17.61	333.86	18.01	-32.0	-32.6	26.8	0.00e+00	0	39	0	2012217344	36	6148
2026-01-01 20:15:18.62	333.62	18.00	-32.0	-32.6	26.8	0.00e+00	0	39	0	2018508800	36	6148
2026-01-01 20:15:19.63	333.39	17.99	-31.9	-32.6	26.9	0.00e+00	0	39	0	2023751680	36	6112
2026-01-01 20:15:20.64	333.15	17.97	-31.9	-32.6	26.8	0.00e+00	0	39	0	2028994560	36	6139
2026-01-01 20:15:21.65	332.92	17.96	-32.0	-32.6	26.8	0.00e+00	0	39	0	2035286016	36	6161
2026-01-01 20:15:22.66	332.68	17.95	-32.1	-32.7	26.7	0.00e+00	0	39	0	2040528896	36	6237
2026-01-01 20:15:23.67	332.45	17.93	-32.2	-32.8	26.6	0.00e+00	0	39	0	2046820352	36	6310
2026-01-01 20:15:24.68	332.22	17.92	-32.2	-32.8	26.6	0.00e+00	0	39	0	2052063232	36	6288
2026-01-01 20:15:25.70	331.98	17.90	-32.3	-33.0	26.5	0.00e+00	0	39	0	2057306112	36	6404
2026-01-01 20:15:26.70	331.75	17.88	-32.3	-33.0	26.5	0.00e+00	0	39	0	2063597568	36	6406
2026-01-01 20:15:27.71	331.52	17.87	-32.4	-33.1	26.4	0.00e+00	0	39	0	2068840448	36	6492
2026-01-01 20:15:28.73	331.28	17.85	-32.4	-33.1	26.4	0.00e+00	0	39	0	2075131904	36	6501
2026-01-01 20:15:29.74	331.05	17.83	-32.4	-33.1	26.4	0.00e+00	0	39	0	2080374784	36	6509
2026-01-01 20:15:30.75	330.82	17.82	-32.3	-33.0	26.5	0.00e+00	0	39	0	2086666240	36	6425
2026-01-01 20:15:31.76	330.58	17.80	-32.3	-32.9	26.5	0.00e+00	0	39	0	2091909120	36	6379
2026-01-01 20:15:32.77	330.35	17.78	-32.3	-32.9	26.5	0.00e+00	0	39	0	2098200576	36	6360
2026-01-01 20:15:33.78	330.12	17.76	-32.3	-33.0	26.5	0.00e+00	0	39	0	2103443456	36	6408
2026-01-01 20:15:34.79	329.89	17.74	-32.2	-32.9	26.6	0.00e+00	0	39	0	2108686336	36	6353
2026-01-01 20:15:35.80	329.66	17.72	-32.3	-32.9	26.5	0.00e+00	0	39	0	2114977792	36	6365
2026-01-01 20:15:36.81	329.43	17.70	-32.4	-33.0	26.5	0.00e+00	0	39	0	2120220672	36	6460
2026-01-01 20:15:37.82	329.20	17.68	-32.5	-33.1	26.4	0.00e+00	0	39	0	2126512128	36	6512
2026-01-01 20:15:38.83	328.97	17.65	-32.6	-33.3	26.3	0.00e+00	0	39	0	2131755008	36	6663
2026-01-01 20:15:39.84	328.74	17.63	-32.5	-33.2	26.4	0.00e+00	0	39	0	2136997888	36	6552
2026-01-01 20:15:40.85	328.51	17.61	-32.4	-33.1	26.3	0.00e+00	0	39	0	2143289344	36	6523
2026-01-01 20:15:41.86	328.28	17.59	-32.5	-33.1	26.3	0.00e+00	0	39	0	2148532224	36	6521
2026-01-01 20:15:42.87	328.05	17.56	-32.5	-33.2	26.3	0.00e+00	0	39	0	2154823680	36	6540
2026-01-01 20:15:43.88	327.83	17.54	-32.5	-33.1	26.3	0.00e+00	0	39	0	2160066560	36	6502
2026-01-01 20:15:44.89	327.60	17.51	-32.6	-33.3	26.3	0.00e+00	0	39	0	2165309440	36	6687
2026-01-01 20:15:45.90	327.37	17.49	-32.7	-33.4	26.0	0.00e+00	0	39	0	2171600896	36	6732
2026-01-01 20:15:46.91	327.14	17.46	-32.6	-33.3	26.3	0.00e+00	0	39	0	2176843776	38	5912
2026-01-01 20:15:47.92	326.92	17.44	-32.6	-33.3	26.3	0.00e+00	0	39	0	2183135232	38	5940
2026-01-01 20:15:48.93	326.69	17.41	-32.6	-33.2	26.3	0.00e+00	0	39	0	2188378112	38	5850
2026-01-01 20:15:49.94	326.47	17.39	-32.6	-33.3	26.2	0.00e+00	0	39	0	2194669568	38	5913
2026-01-01 20:15:50.95	326.24	17.36	-32.7	-33.4	26.2	0.00e+00	0	39	0	2199912448	38	6005
2026-01-01 20:15:51.96	326.02	17.33	-32.7	-33.4	26.1	0.00e+00	0	39	0	2205155328	38	6030
2026-01-01 20:15:52.97	325.79	17.30	-32.7	-33.4	26.3	0.00e+00	0	39	0	2211446784	38	5984
2026-01-01 20:15:53.98	325.57	17.28	-32.7	-33.4	26.3	0.00e+00	0	39	0	2216689664	38	6023
2026-01-01 20:15:54.99	325.34	17.25	-32.7	-33.3	26.2	0.00e+00	0	39	0	2222981120	38	5951
2026-01-01 20:15:56.00	325.12	17.22	-32.6	-33.3	26.3	0.00e+00	0	39	0	2228224000	38	5955
2026-01-01 20:15:57.01	324.90	17.19	-32.4	-33.2	26.4	0.00e+00	0	39	0	2233466880	38	5833
2026-01-01 20:15:58.02	324.67	17.16	-32.5	-33.2	26.2	0.00e+00	0	39	0	2239758336	38	5869
2026-01-01 20:15:59.03	324.45	17.13	-32.4	-33.1	26.4	0.00e+00	0	39	0	2245001216	38	5796
2026-01-01 20:16:00.04	324.23	17.10	-32.4	-33.0	26.4	0.00e+00	0	39	0	2251292672	38	5745
2026-01-01 20:16:01.05	324.01	17.07	-32.5	-33.1	26.4	0.00e+00	0	39	0	2256535552	38	5813
2026-01-01 20:16:02.06	323.79	17.04	-32.5	-33.2	26.3	0.00e+00	0	39	0	2261778432	38	5876
2026-01-01 20:16:03.07	323.57	17.00	-32.4	-33.1	26.5	0.00e+00	0	39	0	2268069888	38	5779
2026-01-01 20:16:04.08	323.35	16.97	-32.5	-33.1	26.4	0.00e+00	0	39	0	2273312768	38	5801
2026-01-01 20:16:05.09	323.13	16.94	-32.5	-33.1	26.4	0.00e+00	0	39	0	2279604224	38	5790
2026-01-01 20:16:06.10	322.91	16.91	-32.6	-33.2	26.4	0.00e+00	0	39	0	2284847104	38	5832
2026-01-01 20:16:07.11	322.69	16.87	-32.6	-33.3	26.2	0.00e+00	0	39	0	2291138560	38	5914
2026-01-01 20:16:08.12	322.48	16.84	-32.6	-33.2	26.3	0.00e+00	0	39	0	2296381440	38	5893
2026-01-01 20:16:09.13	322.26	16.80	-32.7	-33.4	26.2	0.00e+00	0	39	0	2302672896	38	5972
2026-01-01 20:16:10.14	322.04	16.77	-32.7	-33.4	26.3	0.00e+00	0	39	0	2307915776	38	5992
2026-01-01 20:16:11.15	321.83	16.73	-32.7	-33.4	26.2	0.00e+00	0	39	0	2313158656	38	5981
2026-01-01 20:16:12.16	321.61	16.70	-32.6	-33.2	26.3	0.00e+00	0	39	0	2319450112	38	5846
2026-01-01 20:16:13.17	321.40	16.66	-32.7	-33.3	26.1	0.00e+00	0	39	0	2324692992	38	5912
2026-01-01 20:16:14.18	321.18	16.63	-32.7	-33.4	26.2	0.00e+00	0	39	0	2330984448	38	5992
2026-01-01 20:16:15.19	320.97	16.59	-32.7	-33.3	26.2	0.00e+00	0	39	0	2336227328	38	5902
2026-01-01 20:16:16.20	320.75	16.55	-32.4	-33.1	26.3	0.00e+00	0	39	0	2341470208	38	5797
2026-01-01 20:16:17.21	320.54	16.52	-32.4	-33.0	26.4	0.00e+00	0	39	0	2347761664	38	5711
2026-01-01 20:16:18.23	320.33	16.48	-32.3	-32.9	26.5	0.00e+00	0	39	0	2353004544	38	5660
2026-01-01 20:16:19.24	320.11	16.44	-32.4	-33.1	26.4	0.00e+00	0	39	0	2359296000	38	5792
2026-01-01 20:16:20.24	319.90	16.40	-32.4	-33.1	26.4	0.00e+00	0	39	0	2364538880	38	5799
2026-01-01 20:16:21.25	319.69	16.37	-32.5	-33.1	26.4	0.00e+00	0	39	0	2369781760	38	5798
2026-01-01 20:16:22.26	319.48	16.33	-32.6	-33.3	26.4	0.00e+00	0	39	0	2376073216	38	5934
2026-01-01 20:16:23.28	319.27	16.29	-32.6	-33.2	26.3	0.00e+00	0	39	0	2381316096	38	5892
2026-01-01 20:16:24.29	319.06	16.25	-32.6	-33.3	26.3	0.00e+00	0	39	0	2387607552	38	5942
2026-01-01 20:16:25.30	318.85	16.21	-32.7	-33.4	26.2	0.00e+00	0	39	0	2392850432	38	5974
2026-01-01 20:16:26.31	318.64	16.17	-32.8	-33.4	26.1	0.00e+00	0	39	0	2399141888	38	6030
2026-01-01 20:16:27.32	318.44	16.13	-32.9	-33.5	25.9	0.00e+00	0	39	0	2404384768	38	6049
2026-01-01 20:16:28.33	318.23	16.09	-32.9	-33.5	26.0	0.00e+00	0	39	0	2410676224	38	6077
2026-01-01 20:16:29.34	318.02	16.05	-32.8	-33.5	26.1	0.00e+00	0	39	0	2415919104	38	6053
2026-01-01 20:16:30.35	317.82	16.00	-32.7	-33.5	26.0	0.00e+00	0	39	0	2421161984	38	6035
2026-01-01 20:16:31.36	317.61	15.96	-33.0	-33.6	26.0	0.00e+00	0	39	0	2427453440	38	6135
2026-01-01 20:16:32.37	317.41	15.92	-32.9	-33.5	25.9	0.00e+00	0	39	0	2432696320	38	6052
2026-01-01 20:16:33.38	317.20	15.88	-33.1	-33.8	25.9	0.00e+00	0	39	0	2438987776	38	6279
2026-01-01 20:16:34.39	317.00	15.84	-33.2	-33.9	25.8	0.00e+00	0	39	0	2444230656	38	6326
2026-01-01 20:16:35.40	316.80	15.79	-33.1	-33.7	25.8	0.00e+00	0	39	0	2449473536	38	6236
2026-01-01 20:16:36.41	316.59	15.75	-33.2	-33.9	25.7	0.00e+00	0	39	0	2455764992	38	6373
2026-01-01 20:16:37.42	316.39	15.71	-33.0	-33.6	26.0	0.00e+00	0	39	0	2461007872	38	6112
2026-01-01 20:16:38.43	316.19	15.66	-33.0	-33.7	25.9	0.00e+00	0	39	0	2467299328	38	6216
2026-01-01 20:16:39.44	315.99	15.62	-33.1	-33.9	25.7	0.00e+00	0	39	0	2472542208	38	6336
2026-01-01 20:16:40.45	315.79	15.57	-33.1	-33.7	25.8	0.00e+00	0	39	0	2477785088	38	6241
2026-01-01 20:16:41.47	315.59	15.53	-33.1	-33.8	25.9	0.00e+00	0	39	0	2484076544	38	6310
2026-01-01 20:16:42.47	315.39	15.49	-33.0	-33.8	25.9	0.00e+00	0	39	0	2489319424	38	6251
2026-01-01 20:16:43.49	315.19	15.44	-33.0	-33.7	25.9	0.00e+00	0	39	0	2495610880	38	6175
2026-01-01 20:16:44.50	314.99	15.39	-33.0	-33.7	25.9	0.00e+00	0	39	0	2500853760	38	6191
2026-01-01 20:16:45.51	314.80	15.35	-33.0	-33.7	26.0	0.00e+00	0	39	0	2507145216	38	6233
2026-01-01 20:16:46.52	314.60	15.30	-33.0	-33.6	25.8	0.00e+00	0	39	0	2512388096	38	6167
2026-01-01 20:16:47.53	314.41	15.26	-33.0	-33.7	25.9	0.00e+00	0	39	0	2518679552	38	6242
2026-01-01 20:16:48.54	314.21	15.21	-33.0	-33.6	25.9	0.00e+00	0	39	0	2523922432	38	6139
2026-01-01 20:16:49.54	314.02	15.17	-33.0	-33.6	25.9	0.00e+00	0	39	0	2529165312	38	6166
2026-01-01 20:16:50.55	313.82	15.12	-33.1	-33.8	25.9	0.00e+00	0	39	0	2535456768	38	6274
2026-01-01 20:16:51.56	313.63	15.07	-33.2	-33.9	25.9	0.00e+00	0	39	0	2540699648	38	6338
2026-01-01 20:16:52.57	313.44	15.02	-33.1	-33.9	25.8	0.00e+00	0	39	0	2546991104	38	6349
2026-01-01 20:16:53.58	313.25	14.98	-33.2	-34.0	25.7	0.00e+00	0	39	0	2552233984	38	6413
2026-01-01 20:16:54.59	313.05	14.93	-33.3	-33.9	25.7	0.00e+00	0	39	0	2557476864	38	6368
2026-01-01 20:16:55.60	312.86	14.88	-33.4	-34.1	25.6	0.00e+00	0	39	0	2563768320	38	6489
2026-01-01 20:16:56.62	312.67	14.83	-33.3	-33.9	25.8	0.00e+00	0	39	0	2569011200	38	6336
2026-01-01 20:16:57.63	312.48	14.78	-33.2	-33.8	25.7	0.00e+00	0	39	0	2575302656	38	6280
2026-01-01 20:16:58.64	312.29	14.74	-33.1	-33.8	25.8	0.00e+00	0	39	0	2580545536	38	6290
2026-01-01 20:16:59.65	312.10	14.69	-33.1	-33.7	25.8	0.00e+00	0	39	0	2585788416	38	6226
2026-01-01 20:17:00.66	311.92	14.64	-33.3	-34.0	25.7	0.00e+00	0	39	0	2592079872	38	6448
2026-01-01 20:17:01.67	311.73	14.59	-33.4	-34.1	25.4	0.00e+00	0	39	0	2597322752	38	6474
2026-01-01 20:17:02.68	311.54	14.54	-33.5	-34.1	25.5	0.00e+00	0	39	0	2603614208	38	6492
2026-01-01 20:17:03.69	311.36	14.49	-33.5	-34.2	25.4	0.00e+00	0	39	0	2608857088	38	6550
2026-01-01 20:17:04.71	311.17	14.44	-33.6	-34.3	25.3	0.00e+00	0	39	0	2615148544	38	6631
2026-01-01 20:17:05.72	310.99	14.39	-33.4	-34.2	25.5	0.00e+00	0	39	0	2620391424	38	6540
2026-01-01 20:17:06.73	310.80	14.34	-33.3	-34.0	25.6	0.00e+00	0	39	0	2625634304	38	6437
2026-01-01 20:17:07.74	310.62	14.29	-33.3	-34.1	25.6	0.00e+00	0	39	0	2631925760	38	6488
2026-01-01 20:17:08.75	310.44	14.24	-33.4	-34.0	25.5	0.00e+00	0	39	0	2637168640	38	6444
2026-01-01 20:17:09.76	310.25	14.19	-33.4	-34.1	25.3	0.00e+00	0	39	0	2643460096	38	6496
2026-01-01 20:17:10.77	310.07	14.14	-33.6	-34.3	25.4	0.00e+00	0	39	0	2648702976	38	6630
2026-01-01 20:17:11.78	309.89	14.08	-33.6	-34.3	25.4	0.00e+00	0	39	0	2654994432	38	6664
2026-01-01 20:17:12.78	309.71	14.03	-33.6	-34.3	25.4	0.00e+00	0	39	0	2660237312	38	6686
2026-01-01 20:17:13.79	309.53	13.98	-33.7	-34.3	25.3	0.00e+00	0	39	0	2665480192	38	6667
2026-01-01 20:17:14.81	309.35	13.93	-33.6	-34.2	25.3	0.00e+00	0	39	0	2671771648	38	6586
2026-01-01 20:17:15.81	309.18	13.88	-33.7	-34.3	25.2	0.00e+00	0	39	0	2677014528	38	6646
2026-01-01 20:17:16.82	309.00	13.83	-33.7	-34.4	25.1	0.00e+00	0	39	0	2683305984	40	5972
2026-01-01 20:17:17.83	308.82	13.77	-33.9	-34.5	25.1	0.00e+00	0	39	0	2688548864	40	6088
2026-01-01 20:17:18.85	308.64	13.72	-33.9	-34.7	25.0	0.00e+00	0	39	0	2693791744	40	6202
2026-01-01 20:17:19.86	308.47	13.67	-33.9	-34.6	25.1	0.00e+00	0	39	0	2700083200	40	6146
2026-01-01 20:17:20.87	308.29	13.62	-33.7	-34.4	25.2	0.00e+00	0	39	0	2705326080	40	5982
2026-01-01 20:17:21.88	308.12	13.56	-33.7	-34.4	25.3	0.00e+00	0	39	0	2711617536	40	5995
2026-01-01 20:17:22.89	307.94	13.51	-33.6	-34.2	25.3	0.00e+00	0	39	0	2716860416	40	5853
2026-01-01 20:17:23.90	307.77	13.46	-33.6	-34.4	25.3	0.00e+00	0	39	0	2722103296	40	5967
2026-01-01 20:17:24.91	307.60	13.40	-33.7	-34.4	25.3	0.00e+00	0	39	0	2728394752	40	6019
2026-01-01 20:17:25.92	307.43	13.35	-33.8	-34.5	25.2	0.00e+00	0	39	0	2733637632	40	6093
2026-01-01 20:17:26.92	307.26	13.30	-33.6	-34.4	25.3	0.00e+00	0	39	0	2739929088	40	5979
2026-01-01 20:17:27.94	307.08	13.24	-33.5	-34.1	25.4	0.00e+00	0	39	0	2745171968	40	5789
2026-01-01 20:17:28.94	306.92	13.19	-33.4	-34.0	25.5	0.00e+00	0	39	0	2751463424	40	5724
2026-01-01 20:17:29.95	306.75	13.14	-33.4	-34.0	25.4	0.00e+00	0	39	0	2756706304	40	5760
2026-01-01 20:17:30.97	306.58	13.08	-33.4	-34.1	25.5	0.00e+00	0	39	0	2762997760	40	5805
2026-01-01 20:17:31.97	306.41	13.03	-33.5	-34.3	25.4	0.00e+00	0	39	0	2768240640	40	5910
2026-01-01 20:17:32.99	306.24	12.97	-33.5	-34.1	25.3	0.00e+00	0	39	0	2773483520	40	5820
2026-01-01 20:17:34.00	306.07	12.92	-33.7	-34.3	25.2	0.00e+00	0	39	0	2779774976	40	5953
2026-01-01 20:17:35.00	305.91	12.86	-33.7	-34.5	25.2	0.00e+00	0	39	0	2785017856	40	6054
2026-01-01 20:17:36.01	305.74	12.81	-33.7	-34.4	25.0	0.00e+00	0	39	0	2790260736	40	5984
2026-01-01 20:17:37.02	305.58	12.75	-33.7	-34.4	25.3	0.00e+00	0	39	0	2796552192	40	6017
2026-01-01 20:17:38.03	305.41	12.70	-33.6	-34.3	25.3	0.00e+00	0	39	0	2801795072	40	5931
2026-01-01 20:17:39.04	305.25	12.64	-33.5	-34.1	25.2	0.00e+00	0	39	0	2808086528	40	5810
2026-01-01 20:17:40.05	305.09	12.59	-33.5	-34.2	25.3	0.00e+00	0	39	0	2813329408	40	5867
2026-01-01 20:17:41.07	304.92	12.53	-33.5	-34.3	24.7	0.00e+00	0	39	0	2819620864	40	5906
2026-01-01 20:17:42.08	304.76	12.48	-33.8	-34.6	24.7	0.00e+00	0	39	0	2824863744	40	6136
2026-01-01 20:17:43.08	304.60	12.42	-33.8	-34.4	24.9	0.00e+00	0	39	0	2830106624	40	6016
2026-01-01 20:17:44.09	304.44	12.37	-34.0	-34.7	24.8	0.00e+00	0	39	0	2836398080	40	6195
2026-01-01 20:17:45.10	304.28	12.31	-34.0	-34.8	24.7	0.00e+00	0	39	0	2841640960	40	6257
2026-01-01 20:17:46.11	304.12	12.26	-34.0	-34.6	24.9	0.00e+00	0	39	0	2847932416	40	6161
2026-01-01 20:17:47.12	303.96	12.20	-34.1	-34.7	24.9	0.00e+00	0	39	0	2853175296	40	6239
2026-01-01 20:17:48.14	303.80	12.14	-33.9	-34.5	24.9	0.00e+00	0	39	0	2859466752	40	6096
2026-01-01 20:17:49.15	303.64	12.09	-34.0	-34.6	24.8	0.00e+00	0	39	0	2864709632	40	6156
2026-01-01 20:17:50.16	303.49	12.03	-34.1	-34.8	24.8	0.00e+00	0	39	0	2869952512	40	6301
2026-01-01 20:17:51.17	303.33	11.98	-34.3	-35.1	24.6	0.00e+00	0	39	0	2876243968	40	6470
2026-01-01 20:17:52.18	303.17	11.92	-34.4	-35.1	24.5	0.00e+00	0	39	0	2881486848	40	6512
2026-01-01 20:17:53.19	303.02	11.86	-34.3	-35.1	24.5	0.00e+00	0	39	0	2887778304	40	6529
2026-01-01 20:17:54.20	302.86	11.81	-34.3	-35.0	24.6	0.00e+00	0	39	0	2893021184	40	6432
2026-01-01 20:17:55.21	302.71	11.75	-34.3	-34.9	24.6	0.00e+00	0	39	0	2898264064	40	6373
2026-01-01 20:17:56.22	302.56	11.69	-34.2	-35.0	24.6	0.00e+00	0	39	0	2904555520	40	6423
2026-01-01 20:17:57.23	302.40	11.64	-34.3	-35.1	24.6	0.00e+00	0	39	0	2909798400	40	6516
2026-01-01 20:17:58.24	302.25	11.58	-34.5	-35.2	24.5	0.00e+00	0	39	0	2916089856	40	6542
2026-01-01 20:17:59.25	302.10	11.52	-34.3	-35.1	24.5	0.00e+00	0	39	0	2921332736	40	6473
2026-01-01 20:18:00.26	301.95	11.47	-34.5	-35.1	24.5	0.00e+00	0	39	0	2926575616	40	6514
2026-01-01 20:18:01.27	301.80	11.41	-34.7	-35.5	24.4	0.00e+00	0	39	0	2932867072	40	6814
2026-01-01 20:18:02.28	301.65	11.35	-34.7	-35.5	24.1	0.00e+00	0	39	0	2938109952	42	6052
2026-01-01 20:18:03.29	301.50	11.30	-34.7	-35.4	24.2	0.00e+00	0	39	0	2944401408	42	5973
2026-01-01 20:18:04.30	301.35	11.24	-34.6	-35.3	24.3	0.00e+00	0	39	0	2949644288	42	5906
2026-01-01 20:18:05.31	301.20	11.18	-34.5	-35.2	24.3	0.00e+00	0	39	0	2955935744	42	5840
2026-01-01 20:18:06.32	301.05	11.13	-34.5	-35.1	24.3	0.00e+00	0	39	0	2961178624	42	5806
2026-01-01 20:18:07.33	300.91	11.07	-34.5	-35.1	24.3	0.00e+00	0	39	0	2967470080	42	5816
2026-01-01 20:18:08.34	300.76	11.01	-34.5	-35.1	24.4	0.00e+00	0	39	0	2972712960	42	5781
2026-01-01 20:18:09.35	300.61	10.95	-34.5	-35.1	24.3	0.00e+00	0	39	0	2977955840	42	5791
2026-01-01 20:18:10.36	300.47	10.90	-34.5	-35.3	24.3	0.00e+00	0	39	0	2984247296	42	5908
2026-01-01 20:18:11.37	300.32	10.84	-34.5	-35.2	24.3	0.00e+00	0	39	0	2989490176	42	5844
2026-01-01 20:18:12.38	300.18	10.78	-34.6	-35.2	24.3	0.00e+00	0	39	0	2995781632	42	5881
2026-01-01 20:18:13.39	300.04	10.72	-34.7	-35.3	24.2	0.00e+00	0	39	0	3001024512	42	5940
2026-01-01 20:18:14.40	299.89	10.67	-34.6	-35.3	24.2	0.00e+00	0	39	0	3006267392	42	5912
2026-01-01 20:18:15.41	299.75	10.61	-34.7	-35.3	24.1	0.00e+00	0	39	0	3012558848	42	5944
2026-01-01 20:18:16.42	299.61	10.55	-34.6	-35.3	24.2	0.00e+00	0	39	0	3017801728	42	5918
2026-01-01 20:18:17.43	299.47	10.49	-34.7	-35.5	24.2	0.00e+00	0	39	0	3024093184	42	6039
2026-01-01 20:18:18.44	299.33	10.44	-34.7	-35.4	24.1	0.00e+00	0	39	0	3029336064	42	5997
2026-01-01 20:18:19.45	299.19	10.38	-34.8	-35.5	24.1	0.00e+00	0	39	0	3034578944	42	6070
2026-01-01 20:18:20.46	299.05	10.32	-34.8	-35.5	24.1	0.00e+00	0	39	0	3040870400	42	6061
2026-01-01 20:18:21.47	298.91	10.26	-34.7	-35.5	24.1	0.00e+00	0	39	0	3046113280	42	6092
2026-01-01 20:18:22.47	298.77	10.21	-34.8	-35.5	24.0	0.00e+00	0	39	0	3052404736	42	6041
2026-01-01 20:18:23.48	298.63	10.15	-34.9	-35.6	23.9	0.00e+00	0	39	0	3057647616	42	6123
2026-01-01 20:18:24.49	298.50	10.09	-34.9	-35.7	23.9	0.00e+00	0	39	0	3063939072	42	6209
2026-01-01 20:18:25.50	298.36	10.03	-34.8	-35.6	24.1	0.00e+00	0	39	0	3069181952	42	6113
2026-01-01 20:18:26.51	298.22	9.97	-34.7	-35.5	24.1	0.00e+00	0	39	0	3074424832	42	6087
2026-01-01 20:18:27.52	298.09	9.92	-34.8	-35.4	24.0	0.00e+00	0	39	0	3080716288	42	6030
2026-01-01 20:18:28.53	297.95	9.86	-34.7	-35.4	24.1	0.00e+00	0	39	0	3085959168	42	6020
2026-01-01 20:18:29.54	297.82	9.80	-34.9	-35.6	23.9	0.00e+00	0	39	0	3092250624	42	6167
2026-01-01 20:18:30.56	297.68	9.74	-35.0	-35.7	23.7	0.00e+00	0	39	0	3097493504	42	6178
2026-01-01 20:18:31.57	297.55	9.68	-35.1	-35.7	23.7	0.00e+00	0	39	0	3103784960	42	6228
2026-01-01 20:18:32.58	297.42	9.63	-35.1	-35.9	23.9	0.00e+00	0	39	0	3109027840	42	6382
2026-01-01 20:18:33.59	297.28	9.57	-34.9	-35.7	24.0	0.00e+00	0	39	0	3114270720	42	6194
2026-01-01 20:18:34.60	297.15	9.51	-34.8	-35.4	24.0	0.00e+00	0	39	0	3120562176	42	6026
2026-01-01 20:18:35.61	297.02	9.45	-34.8	-35.5	24.0	0.00e+00	0	39	0	3125805056	42	6035
2026-01-01 20:18:36.62	296.89	9.39	-34.8	-35.4	24.0	0.00e+00	0	39	0	3132096512	42	6030
2026-01-01 20:18:37.63	296.76	9.34	-34.7	-35.4	24.0	0.00e+00	0	39	0	3137339392	42	5973
2026-01-01 20:18:38.64	296.63	9.28	-34.9	-35.5	23.9	0.00e+00	0	39	0	3142582272	42	6096
2026-01-01 20:18:39.65	296.50	9.22	-35.0	-35.6	23.8	0.00e+00	0	39	0	3148873728	42	6160
2026-01-01 20:18:40.66	296.37	9.16	-35.0	-35.7	23.8	0.00e+00	0	39	0	3154116608	42	6178
2026-01-01 20:18:41.68	296.24	9.10	-35.0	-35.8	23.7	0.00e+00	0	39	0	3160408064	42	6298
2026-01-01 20:18:42.68	296.12	9.05	-35.0	-35.7	23.7	0.00e+00	0	39	0	3165650944	42	6207
2026-01-01 20:18:43.70	295.99	8.99	-35.2	-35.9	23.6	0.00e+00	0	39	0	3171942400	42	6327
2026-01-01 20:18:44.70	295.86	8.93	-35.2	-35.9	23.6	0.00e+00	0	39	0	3177185280	42	6329
2026-01-01 20:18:45.71	295.74	8.87	-35.0	-35.7	23.8	0.00e+00	0	39	0	3182428160	42	6193
2026-01-01 20:18:46.72	295.61	8.81	-35.1	-35.9	23.5	0.00e+00	0	39	0	3188719616	42	6373
2026-01-01 20:18:47.73	295.49	8.76	-35.2	-36.0	23.4	0.00e+00	0	39	0	3193962496	42	6429
2026-01-01 20:18:48.74	295.36	8.70	-35.5	-36.3	23.4	0.00e+00	0	39	0	3200253952	42	6680
2026-01-01 20:18:49.75	295.24	8.64	-35.2	-35.9	23.4	0.00e+00	0	39	0	3205496832	42	6344
2026-01-01 20:18:50.76	295.11	8.58	-35.5	-36.2	23.3	0.00e+00	0	39	0	3210739712	42	6577
2026-01-01 20:18:51.77	294.99	8.52	-35.5	-36.2	23.3	0.00e+00	0	39	0	3217031168	42	6584
2026-01-01 20:18:52.78	294.87	8.47	-35.5	-36.1	23.3	0.00e+00	0	39	0	3222274048	42	6528
2026-01-01 20:18:53.79	294.75	8.41	-35.5	-36.2	23.3	0.00e+00	0	39	0	3228565504	42	6587
2026-01-01 20:18:54.80	294.63	8.35	-35.6	-36.2	23.3	0.00e+00	0	39	0	3233808384	42	6605
2026-01-01 20:18:55.81	294.50	8.29	-35.6	-36.3	23.1	0.00e+00	0	39	0	3239051264	42	6640
2026-01-01 20:18:56.82	294.38	8.23	-35.5	-36.4	23.2	0.00e+00	0	39	0	3245342720	42	6705
2026-01-01 20:18:57.83	294.26	8.18	-35.6	-36.3	23.1	0.00e+00	0	39	0	3250585600	42	6642
2026-01-01 20:18:58.84	294.14	8.12	-35.7	-36.5	23.1	0.00e+00	0	39	0	3256877056	44	6035
2026-01-01 20:18:59.85	294.02	8.06	-35.4	-36.3	23.3	0.00e+00	0	39	0	3262119936	44	5900
2026-01-01 20:19:00.86	293.91	8.00	-35.6	-36.2	23.1	0.00e+00	0	39	0	3268411392	44	5895
2026-01-01 20:19:01.87	293.79	7.94	-35.6	-36.4	22.9	0.00e+00	0	39	0	3273654272	44	5975
2026-01-01 20:19:02.88	293.67	7.89	-35.4	-36.2	23.3	0.00e+00	0	39	0	3279945728	44	5847
2026-01-01 20:19:03.89	293.55	7.83	-35.3	-36.1	23.4	0.00e+00	0	39	0	3285188608	44	5771
2026-01-01 20:19:04.89	293.44	7.77	-35.4	-36.1	23.3	0.00e+00	0	39	0	3290431488	44	5800
2026-01-01 20:19:05.91	293.32	7.71	-35.4	-36.2	23.3	0.00e+00	0	39	0	3296722944	44	5860
2026-01-01 20:19:06.92	293.20	7.65	-35.4	-36.2	23.3	0.00e+00	0	39	0	3301965824	44	5880
2026-01-01 20:19:07.93	293.09	7.60	-35.4	-36.1	23.2	0.00e+00	0	39	0	3308257280	44	5804
2026-01-01 20:19:08.94	292.97	7.54	-35.3	-36.0	23.3	0.00e+00	0	39	0	3313500160	44	5716
2026-01-01 20:19:09.95	292.86	7.48	-35.4	-36.1	23.3	0.00e+00	0	39	0	3318743040	44	5777
2026-01-01 20:19:10.96	292.75	7.42	-35.5	-36.2	23.2	0.00e+00	0	39	0	3325034496	44	5847
2026-01-01 20:19:11.97	292.63	7.37	-35.4	-36.1	23.2	0.00e+00	0	39	0	3330277376	44	5766
2026-01-01 20:19:12.98	292.52	7.31	-35.4	-36.3	23.2	0.00e+00	0	39	0	3336568832	44	5899
2026-01-01 20:19:13.99	292.41	7.25	-35.7	-36.4	23.0	0.00e+00	0	39	0	3341811712	44	5995
2026-01-01 20:19:15.00	292.30	7.19	-35.5	-36.3	23.1	0.00e+00	0	39	0	3347054592	44	5935
2026-01-01 20:19:16.01	292.18	7.13	-35.5	-36.3	23.1	0.00e+00	0	39	0	3353346048	44	5957
2026-01-01 20:19:17.02	292.07	7.08	-35.6	-36.5	23.0	0.00e+00	0	39	0	3358588928	44	6056
2026-01-01 20:19:18.03	291.96	7.02	-35.7	-36.5	22.9	0.00e+00	0	39	0	3364880384	44	6042
2026-01-01 20:19:19.04	291.85	6.96	-35.7	-36.4	22.9	0.00e+00	0	39	0	3370123264	44	6028
2026-01-01 20:19:20.05	291.74	6.90	-35.7	-36.4	22.9	0.00e+00	0	39	0	3376414720	44	6024
2026-01-01 20:19:21.06	291.63	6.85	-35.8	-36.7	22.7	0.00e+00	0	39	0	3381657600	44	6179
2026-01-01 20:19:22.07	291.52	6.79	-35.8	-36.6	22.8	0.00e+00	0	39	0	3387949056	44	6158
2026-01-01 20:19:23.08	291.41	6.73	-35.9	-36.7	22.7	0.00e+00	0	39	0	3393191936	44	6180
2026-01-01 20:19:24.09	291.31	6.67	-36.1	-37.0	22.3	0.00e+00	0	39	0	3398434816	44	6404
2026-01-01 20:19:25.10	291.20	6.62	-36.1	-36.8	22.4	0.00e+00	0	39	0	3404726272	44	6308
2026-01-01 20:19:26.11	291.09	6.56	-36.0	-36.7	22.6	0.00e+00	0	39	0	3409969152	44	6186
2026-01-01 20:19:27.12	290.99	6.50	-36.0	-36.7	22.6	0.00e+00	0	39	0	3416260608	44	6191
2026-01-01 20:19:28.13	290.88	6.45	-36.0	-36.7	22.5	0.00e+00	0	39	0	3421503488	44	6228
2026-01-01 20:19:29.14	290.77	6.39	-36.0	-36.8	22.5	0.00e+00	0	39	0	3426746368	44	6257
2026-01-01 20:19:30.15	290.67	6.33	-36.0	-36.8	22.5	0.00e+00	0	39	0	3433037824	44	6295
2026-01-01 20:19:31.16	290.56	6.27	-36.1	-37.0	22.4	0.00e+00	0	39	0	3438280704	44	6413
2026-01-01 20:19:32.17	290.46	6.22	-36.0	-36.9	22.6	0.00e+00	0	39	0	3444572160	44	6323
2026-01-01 20:19:33.18	290.35	6.16	-36.0	-36.8	22.5	0.00e+00	0	39	0	3449815040	44	6312
2026-01-01 20:19:34.19	290.25	6.10	-36.3	-37.0	22.2	0.00e+00	0	39	0	3455057920	44	6442
2026-01-01 20:19:35.20	290.15	6.05	-36.3	-37.1	22.2	0.00e+00	0	39	0	3461349376	44	6524
2026-01-01 20:19:36.21	290.04	5.99	-36.3	-37.0	22.2	0.00e+00	0	39	0	3466592256	44	6417
2026-01-01 20:19:37.22	289.94	5.93	-36.3	-37.1	22.1	0.00e+00	0	39	0	3472883712	44	6481
2026-01-01 20:19:38.23	289.84	5.87	-36.5	-37.4	22.1	0.00e+00	0	39	0	3478126592	44	6717
2026-01-01 20:19:39.24	289.74	5.82	-36.4	-37.1	22.2	0.00e+00	0	39	0	3484418048	44	6501
2026-01-01 20:19:40.25	289.64	5.76	-36.3	-37.1	22.2	0.00e+00	0	39	0	3489660928	44	6539
2026-01-01 20:19:41.26	289.54	5.70	-36.4	-37.2	22.1	0.00e+00	0	39	0	3494903808	44	6564
2026-01-01 20:19:42.27	289.43	5.65	-36.4	-37.1	22.1	0.00e+00	0	39	0	3501195264	44	6527
2026-01-01 20:19:43.28	289.33	5.59	-36.4	-37.1	22.0	0.00e+00	0	39	0	3506438144	44	6534
2026-01-01 20:19:44.29	289.23	5.53	-36.4	-37.2	22.1	0.00e+00	0	39	0	3512729600	44	6562
2026-01-01 20:19:45.30	289.14	5.48	-36.4	-37.1	22.0	0.00e+00	0	39	0	3517972480	44	6501
2026-01-01 20:19:46.31	289.04	5.42	-36.1	-36.9	22.3	0.00e+00	0	39	0	3523215360	44	6343
2026-01-01 20:19:47.32	288.94	5.36	-36.1	-36.9	22.3	0.00e+00	0	39	0	3529506816	44	6320
2026-01-01 20:19:48.33	288.84	5.31	-36.2	-37.0	22.2	0.00e+00	0	39	0	3534749696	44	6408
2026-01-01 20:19:49.34	288.74	5.25	-36.2	-36.9	22.3	0.00e+00	0	39	0	3541041152	44	6384
2026-01-01 20:19:50.35	288.65	5.19	-36.2	-37.0	22.3	0.00e+00	0	39	0	3546284032	44	6464
2026-01-01 20:19:51.36	288.55	5.14	-36.3	-37.0	22.1	0.00e+00	0	39	0	3551526912	44	6448
2026-01-01 20:19:52.37	288.45	5.08	-36.3	-37.1	22.1	0.00e+00	0	39	0	3557818368	44	6508
2026-01-01 20:19:53.38	288.36	5.03	-36.4	-37.2	22.0	0.00e+00	0	39	0	3563061248	44	6567
2026-01-01 20:19:54.39	288.26	4.97	-36.2	-37.1	22.2	0.00e+00	0	39	0	3569352704	44	6490
2026-01-01 20:19:55.41	288.16	4.91	-36.4	-37.2	21.9	0.00e+00	0	39	0	3574595584	44	6563
2026-01-01 20:19:56.42	288.07	4.86	-36.3	-37.2	22.1	0.00e+00	0	39	0	3580887040	44	6572
