passes_logs/2026/01/01/R4.6S_Anadyr/R4.6S_Anadyr__20260101_205613_TY-39_rec.log

#Pass ID: 20260101_205613_TY-39
#Satellite: TY-39
#Configuration: TY-39
#almurnet v.1.7.20251203
#Start time: 2026-01-01 20:56:19

#Version: 2.2.20231116
#Station: R4.6S_Anadyr
#Location: 177.4865 lon 64.73178 lat
#TLE: 1 51832U 22019J   25364.61574850  .00005861  00000-0  27849-3 0  9992
#TLE: 2 51832  97.3676  66.6800 0010489  97.9984 262.2442 15.19544764212196

#Time	Az	El	Level	Level2	SNR	BER	BlckErr	Temp	State	Recorded	gain1	gain2
2026-01-01 20:56:19.21	24.82	0.29	-49.2	-60.9	3.5	8.46e-01	0	36	0	0	60	39934
2026-01-01 20:56:20.21	24.92	0.34	-49.4	-51.8	3.6	0.00e+00	0	38	104	0	60	47893
2026-01-01 20:56:21.23	25.03	0.39	-49.5	-52.0	3.6	0.00e+00	0	38	104	0	60	48511
2026-01-01 20:56:22.24	25.13	0.44	-49.5	-52.0	3.6	0.00e+00	0	38	104	0	60	48720
2026-01-01 20:56:23.25	25.24	0.50	-49.4	-51.9	3.6	0.00e+00	0	38	104	0	60	48038
2026-01-01 20:56:24.25	25.35	0.55	-49.6	-52.0	3.6	0.00e+00	0	38	104	0	60	48549
2026-01-01 20:56:25.26	25.45	0.60	-49.5	-51.9	3.6	0.00e+00	0	38	104	0	60	48177
2026-01-01 20:56:26.27	25.56	0.65	-49.4	-51.8	3.6	0.00e+00	0	38	104	0	60	47864
2026-01-01 20:56:27.28	25.67	0.70	-49.3	-51.7	3.6	0.00e+00	0	38	104	0	60	47198
2026-01-01 20:56:28.29	25.78	0.75	-49.1	-51.5	3.6	0.00e+00	0	38	104	0	60	46207
2026-01-01 20:56:29.30	25.89	0.81	-48.7	-51.2	3.6	0.00e+00	0	38	104	0	60	44652
2026-01-01 20:56:30.31	26.00	0.86	-48.8	-51.3	3.6	0.00e+00	0	38	104	0	60	45098
2026-01-01 20:56:31.32	26.11	0.91	-48.6	-51.1	3.6	0.00e+00	0	38	104	0	60	43767
2026-01-01 20:56:32.33	26.22	0.96	-48.2	-50.7	3.6	0.00e+00	0	38	104	0	60	41988
2026-01-01 20:56:33.34	26.33	1.01	-47.6	-50.1	3.6	0.00e+00	0	38	104	0	60	39243
2026-01-01 20:56:34.35	26.44	1.07	-47.5	-50.0	3.6	0.00e+00	0	38	104	0	60	38846
2026-01-01 20:56:35.36	26.56	1.12	-47.5	-50.0	3.6	0.00e+00	0	38	104	0	60	38808
2026-01-01 20:56:36.37	26.67	1.17	-47.5	-50.1	3.6	0.00e+00	0	38	104	0	60	38989
2026-01-01 20:56:37.38	26.78	1.22	-47.5	-50.0	3.5	0.00e+00	0	38	104	0	60	38769
2026-01-01 20:56:38.39	26.90	1.28	-47.5	-50.0	3.6	0.00e+00	0	38	104	0	60	38737
2026-01-01 20:56:39.40	27.01	1.33	-47.5	-50.0	3.6	0.00e+00	0	38	104	0	60	38738
2026-01-01 20:56:40.41	27.13	1.38	-47.5	-50.0	3.6	0.00e+00	0	38	104	0	60	38753
2026-01-01 20:56:41.42	27.24	1.43	-47.5	-50.0	3.6	0.00e+00	0	39	104	0	60	38693
2026-01-01 20:56:42.42	27.36	1.49	-47.5	-50.0	3.6	0.00e+00	0	38	104	0	60	38669
2026-01-01 20:56:43.43	27.47	1.54	-47.5	-50.0	3.6	0.00e+00	0	38	104	0	60	38841
2026-01-01 20:56:44.44	27.59	1.59	-47.5	-50.0	3.6	0.00e+00	0	38	104	0	60	38813
2026-01-01 20:56:45.45	27.71	1.65	-47.5	-50.0	3.6	0.00e+00	0	38	104	0	60	38910
2026-01-01 20:56:46.46	27.82	1.70	-47.5	-50.0	3.6	0.00e+00	0	38	104	0	60	38775
2026-01-01 20:56:47.47	27.94	1.75	-47.5	-50.0	3.6	0.00e+00	0	39	104	0	60	38702
2026-01-01 20:56:48.48	28.06	1.80	-47.5	-50.0	3.6	0.00e+00	0	39	104	0	60	38862
2026-01-01 20:56:49.49	28.18	1.86	-47.5	-50.0	3.6	0.00e+00	0	39	104	0	60	38560
2026-01-01 20:56:50.50	28.30	1.91	-47.5	-50.0	3.6	0.00e+00	0	39	104	0	60	38706
2026-01-01 20:56:51.51	28.42	1.96	-47.5	-50.0	3.6	0.00e+00	0	39	104	0	60	38937
2026-01-01 20:56:52.52	28.54	2.02	-47.5	-50.0	3.6	0.00e+00	0	39	104	0	60	38857
2026-01-01 20:56:53.53	28.66	2.07	-47.5	-50.0	3.6	0.00e+00	0	39	104	0	60	38863
2026-01-01 20:56:54.54	28.79	2.12	-47.5	-50.0	3.6	0.00e+00	0	39	104	0	60	38939
2026-01-01 20:56:55.55	28.91	2.18	-47.5	-50.0	3.6	0.00e+00	0	39	104	0	60	38745
2026-01-01 20:56:56.56	29.03	2.23	-47.5	-50.0	3.6	0.00e+00	0	39	104	0	60	38755
2026-01-01 20:56:57.57	29.16	2.28	-47.5	-50.0	3.6	0.00e+00	0	39	104	0	60	38745
2026-01-01 20:56:58.57	29.28	2.34	-47.5	-50.0	3.6	0.00e+00	0	39	104	0	60	38904
2026-01-01 20:56:59.58	29.40	2.39	-47.5	-50.0	3.6	0.00e+00	0	39	104	0	60	38904
2026-01-01 20:57:00.59	29.53	2.44	-47.5	-50.0	3.6	0.00e+00	0	39	104	0	60	38811
2026-01-01 20:57:01.60	29.66	2.50	-47.5	-50.1	3.6	0.00e+00	0	39	104	0	60	38973
2026-01-01 20:57:02.61	29.78	2.55	-47.5	-50.1	3.6	0.00e+00	0	39	104	0	60	39041
2026-01-01 20:57:03.62	29.91	2.60	-47.5	-50.0	3.6	0.00e+00	0	39	104	0	60	38770
2026-01-01 20:57:04.63	30.04	2.66	-47.5	-50.0	3.6	0.00e+00	0	39	104	0	60	38641
2026-01-01 20:57:05.64	30.17	2.71	-47.5	-50.0	3.6	0.00e+00	0	39	104	0	60	38716
2026-01-01 20:57:06.65	30.29	2.76	-47.5	-50.0	3.6	0.00e+00	0	39	104	0	60	38649
2026-01-01 20:57:07.66	30.42	2.82	-47.5	-50.0	3.6	0.00e+00	0	39	104	0	60	38830
2026-01-01 20:57:08.67	30.55	2.87	-47.5	-50.0	3.6	0.00e+00	0	39	104	0	60	38892
2026-01-01 20:57:09.68	30.69	2.93	-47.5	-50.0	3.6	0.00e+00	0	39	104	0	60	38655
2026-01-01 20:57:10.69	30.82	2.98	-47.5	-50.0	3.6	0.00e+00	0	39	104	0	60	38786
2026-01-01 20:57:11.70	30.95	3.03	-47.5	-50.1	3.6	0.00e+00	0	39	104	0	60	39001
2026-01-01 20:57:12.71	31.08	3.09	-47.5	-50.0	3.6	0.00e+00	0	39	104	0	60	38938
2026-01-01 20:57:13.72	31.21	3.14	-47.5	-50.0	3.6	0.00e+00	0	39	104	0	60	38695
2026-01-01 20:57:14.73	31.35	3.20	-47.7	-50.2	3.6	0.00e+00	0	39	104	0	60	39689
2026-01-01 20:57:15.74	31.48	3.25	-47.5	-50.1	3.6	0.00e+00	0	39	104	0	60	38976
2026-01-01 20:57:16.75	31.62	3.30	-47.8	-50.4	3.6	0.00e+00	0	39	104	0	60	40348
2026-01-01 20:57:17.76	31.75	3.36	-48.0	-50.5	3.6	0.00e+00	0	39	104	0	60	41138
2026-01-01 20:57:18.77	31.89	3.41	-47.9	-50.3	3.5	0.00e+00	0	39	104	0	60	40272
2026-01-01 20:57:19.78	32.02	3.47	-47.5	-50.0	3.6	0.00e+00	0	39	104	0	60	38513
2026-01-01 20:57:20.79	32.16	3.52	-48.1	-50.5	3.6	0.00e+00	0	39	104	0	60	41169
2026-01-01 20:57:21.80	32.30	3.58	-47.6	-50.1	3.6	0.00e+00	0	39	104	0	60	39131
2026-01-01 20:57:22.81	32.44	3.63	-47.7	-50.2	3.6	0.00e+00	0	39	104	0	60	39745
2026-01-01 20:57:23.82	32.58	3.68	-47.9	-50.4	3.6	0.00e+00	0	39	104	0	60	40367
2026-01-01 20:57:24.84	32.72	3.74	-47.6	-50.2	3.6	0.00e+00	0	39	104	0	60	39416
2026-01-01 20:57:25.85	32.86	3.79	-47.6	-50.1	3.6	0.00e+00	0	39	104	0	60	39315
2026-01-01 20:57:26.85	33.00	3.85	-47.7	-50.2	3.6	0.00e+00	0	39	104	0	60	39520
2026-01-01 20:57:27.86	33.14	3.90	-48.1	-50.5	3.6	0.00e+00	0	39	104	0	60	41070
2026-01-01 20:57:28.88	33.29	3.96	-47.9	-50.4	3.6	0.00e+00	0	39	104	0	60	40625
2026-01-01 20:57:29.88	33.43	4.01	-47.9	-50.5	3.6	0.00e+00	0	39	104	0	60	40849
2026-01-01 20:57:30.90	33.57	4.07	-48.0	-50.5	3.6	0.00e+00	0	39	104	0	60	40895
2026-01-01 20:57:31.90	33.71	4.12	-48.0	-50.4	3.6	0.00e+00	0	39	104	0	60	40657
2026-01-01 20:57:32.91	33.86	4.17	-48.0	-50.4	3.6	0.00e+00	0	39	104	0	60	40610
2026-01-01 20:57:33.92	34.01	4.23	-48.2	-50.6	3.6	0.00e+00	0	39	104	0	60	41672
2026-01-01 20:57:34.93	34.15	4.28	-47.9	-50.3	3.6	0.00e+00	0	39	104	0	60	40315
2026-01-01 20:57:35.94	34.30	4.34	-48.0	-50.5	3.6	0.00e+00	0	39	104	0	60	40997
2026-01-01 20:57:36.95	34.45	4.39	-47.6	-50.1	3.6	0.00e+00	0	39	104	0	60	39338
2026-01-01 20:57:37.96	34.60	4.45	-48.2	-50.6	3.6	0.00e+00	0	39	104	0	60	41721
2026-01-01 20:57:38.97	34.74	4.50	-48.1	-50.5	3.6	0.00e+00	0	39	104	0	60	41163
2026-01-01 20:57:39.98	34.89	4.56	-47.9	-50.4	3.6	0.00e+00	0	39	104	0	60	40590
2026-01-01 20:57:40.99	35.05	4.61	-47.8	-50.3	3.6	0.00e+00	0	39	104	0	60	40319
2026-01-01 20:57:42.00	35.20	4.67	-48.3	-50.8	3.6	0.00e+00	0	39	104	0	60	42509
2026-01-01 20:57:43.01	35.35	4.72	-48.3	-50.7	3.6	0.00e+00	0	39	104	0	60	41869
2026-01-01 20:57:44.02	35.50	4.78	-48.1	-50.6	3.6	0.00e+00	0	39	104	0	60	41351
2026-01-01 20:57:45.03	35.65	4.83	-47.9	-50.5	3.6	0.00e+00	0	39	104	0	60	40945
2026-01-01 20:57:46.04	35.81	4.88	-39.4	-39.8	6.6	0.00e+00	0	39	104	0	50	21401
2026-01-01 20:57:47.05	35.96	4.94	-38.1	-38.4	10.0	2.02e-02	0	40	0	58720256	50	18051
2026-01-01 20:57:48.06	36.12	4.99	-48.1	-50.5	3.6	6.42e-02	0	40	104	117440512	60	40887
2026-01-01 20:57:49.07	36.27	5.05	-39.5	-39.9	8.0	0.00e+00	0	39	104	117440512	56	15303
2026-01-01 20:57:50.08	36.43	5.10	-38.4	-38.6	9.6	5.09e-02	0	40	0	150994944	54	14800
2026-01-01 20:57:51.09	36.59	5.16	-36.8	-37.1	10.9	3.10e-03	0	40	0	226492416	50	15581
2026-01-01 20:57:52.10	36.75	5.21	-36.1	-36.4	11.3	1.92e-03	0	40	0	301989888	48	16146
2026-01-01 20:57:53.11	36.91	5.27	-34.8	-35.1	12.5	1.87e-04	0	40	0	377487360	46	15670
2026-01-01 20:57:54.12	37.07	5.32	-34.7	-35.1	12.8	6.24e-05	0	40	0	452984832	44	17457
2026-01-01 20:57:55.13	37.23	5.38	-34.1	-34.5	13.2	1.38e-05	0	40	0	528482304	44	16289
2026-01-01 20:57:56.14	37.39	5.43	-33.7	-34.1	13.4	0.00e+00	0	40	0	603979776	42	17549
2026-01-01 20:57:57.15	37.55	5.49	-34.1	-34.4	13.1	1.38e-05	0	40	0	679477248	42	18200
2026-01-01 20:57:58.16	37.71	5.54	-33.0	-33.4	13.8	2.08e-05	0	40	0	754974720	42	16135
2026-01-01 20:57:59.17	37.88	5.60	-31.6	-32.0	14.4	0.00e+00	0	40	0	830472192	38	17282
2026-01-01 20:58:00.18	38.04	5.65	-30.7	-31.2	14.8	0.00e+00	0	40	0	914358272	38	15716
2026-01-01 20:58:01.18	38.20	5.71	-30.2	-30.6	15.2	0.00e+00	0	40	0	981467136	36	16494
2026-01-01 20:58:02.19	38.37	5.76	-30.1	-30.5	15.3	0.00e+00	0	40	0	1056964608	36	16340
2026-01-01 20:58:03.20	38.54	5.81	-30.3	-30.7	15.2	0.00e+00	0	40	0	1132462080	36	16677
2026-01-01 20:58:04.21	38.70	5.87	-29.9	-30.4	15.3	0.00e+00	0	40	0	1207959552	36	16099
2026-01-01 20:58:05.22	38.87	5.92	-30.0	-30.4	15.3	0.00e+00	0	40	0	1291845632	36	16212
2026-01-01 20:58:06.23	39.04	5.98	-30.0	-30.4	15.3	0.00e+00	0	40	0	1367343104	36	16161
2026-01-01 20:58:07.24	39.21	6.03	-30.0	-30.5	15.3	0.00e+00	0	40	0	1442840576	36	16249
2026-01-01 20:58:08.25	39.38	6.09	-30.1	-30.5	15.3	0.00e+00	0	40	0	1509949440	36	16333
2026-01-01 20:58:09.26	39.55	6.14	-29.9	-30.3	15.3	0.00e+00	0	40	0	1585446912	36	16022
2026-01-01 20:58:10.27	39.72	6.20	-29.8	-30.2	15.4	0.00e+00	0	40	0	1660944384	36	15865
2026-01-01 20:58:11.28	39.90	6.25	-29.9	-30.4	15.3	0.00e+00	0	40	0	1744830464	36	16065
2026-01-01 20:58:12.29	40.07	6.31	-30.0	-30.4	15.3	0.00e+00	0	40	0	1820327936	36	16197
2026-01-01 20:58:13.30	40.24	6.36	-30.0	-30.4	15.2	0.00e+00	0	40	0	1895825408	36	16193
2026-01-01 20:58:14.31	40.42	6.41	-29.9	-30.3	15.3	0.00e+00	0	40	0	1971322880	36	16026
2026-01-01 20:58:15.32	40.60	6.47	-30.0	-30.4	15.3	0.00e+00	0	40	0	2046820352	36	16233
2026-01-01 20:58:16.34	40.77	6.52	-29.7	-30.2	15.4	0.00e+00	0	40	0	2122317824	36	15731
2026-01-01 20:58:17.34	40.95	6.58	-29.6	-30.0	15.4	0.00e+00	0	40	0	2197815296	34	17395
2026-01-01 20:58:18.35	41.13	6.63	-29.7	-30.2	15.4	0.00e+00	0	40	0	2273312768	34	17603
2026-01-01 20:58:19.36	41.31	6.69	-29.7	-30.2	15.3	0.00e+00	0	40	0	2348810240	34	17641
2026-01-01 20:58:20.37	41.49	6.74	-29.7	-30.2	15.3	0.00e+00	0	40	0	2424307712	34	17617
2026-01-01 20:58:21.38	41.67	6.79	-29.5	-29.9	15.3	0.00e+00	0	40	0	2499805184	34	17177
2026-01-01 20:58:22.39	41.85	6.85	-29.7	-30.1	15.1	0.00e+00	0	40	0	2575302656	34	17472
2026-01-01 20:58:23.40	42.03	6.90	-29.7	-30.1	14.9	0.00e+00	0	40	0	2650800128	34	17464
2026-01-01 20:58:24.41	42.22	6.96	-29.6	-30.0	14.7	0.00e+00	0	40	0	2726297600	34	17274
2026-01-01 20:58:25.42	42.40	7.01	-29.5	-29.9	14.7	0.00e+00	0	40	0	2793406464	34	17034
2026-01-01 20:58:26.43	42.59	7.06	-29.6	-30.0	14.7	0.00e+00	0	40	0	2877292544	34	17252
2026-01-01 20:58:27.44	42.77	7.12	-29.4	-29.8	14.8	0.00e+00	0	40	0	2952790016	34	16942
2026-01-01 20:58:28.45	42.96	7.17	-29.4	-29.8	14.9	0.00e+00	0	40	0	3028287488	34	16940
2026-01-01 20:58:29.46	43.15	7.22	-29.4	-29.8	15.0	0.00e+00	0	40	0	3103784960	34	16961
2026-01-01 20:58:30.47	43.33	7.28	-29.6	-30.0	15.3	0.00e+00	0	40	0	3179282432	34	17295
2026-01-01 20:58:31.48	43.52	7.33	-29.4	-29.9	15.2	0.00e+00	0	40	0	3254779904	34	17017
2026-01-01 20:58:32.49	43.71	7.38	-29.3	-29.7	15.5	0.00e+00	0	40	0	3330277376	34	16717
2026-01-01 20:58:33.50	43.90	7.44	-29.3	-29.7	15.5	0.00e+00	0	40	0	3405774848	34	16756
2026-01-01 20:58:34.51	44.10	7.49	-29.4	-29.8	15.5	0.00e+00	0	40	0	3481272320	34	16959
2026-01-01 20:58:35.52	44.29	7.54	-29.6	-30.1	15.5	0.00e+00	0	40	0	3556769792	34	17423
2026-01-01 20:58:36.53	44.48	7.60	-29.3	-29.7	15.5	0.00e+00	0	40	0	3640655872	34	16785
2026-01-01 20:58:37.54	44.68	7.65	-29.4	-29.9	15.5	0.00e+00	0	40	0	3707764736	34	17081
2026-01-01 20:58:38.55	44.87	7.70	-29.2	-29.7	15.6	0.00e+00	0	40	0	3783262208	34	16658
2026-01-01 20:58:39.56	45.07	7.75	-29.3	-29.7	15.6	0.00e+00	0	40	0	3858759680	34	16725
2026-01-01 20:58:40.57	45.26	7.81	-29.1	-29.6	15.6	0.00e+00	0	40	0	3934257152	34	16481
2026-01-01 20:58:41.58	45.46	7.86	-29.1	-29.6	15.6	0.00e+00	0	40	0	4018143232	34	16499
2026-01-01 20:58:42.58	45.66	7.91	-29.2	-29.6	15.6	0.00e+00	0	41	0	4093640704	34	16595
2026-01-01 20:58:43.59	45.86	7.96	-29.3	-29.8	15.5	0.00e+00	0	40	0	4169138176	34	16810
2026-01-01 20:58:44.60	46.06	8.02	-29.3	-29.7	15.3	0.00e+00	0	40	0	4236247040	34	16727
2026-01-01 20:58:45.61	46.26	8.07	-29.2	-29.6	15.5	0.00e+00	0	40	0	4311744512	34	16556
2026-01-01 20:58:46.62	46.46	8.12	-29.2	-29.6	15.6	0.00e+00	0	40	0	4395630592	34	16573
2026-01-01 20:58:47.63	46.66	8.17	-29.2	-29.7	15.6	0.00e+00	0	41	0	4471128064	34	16634
2026-01-01 20:58:48.64	46.87	8.22	-29.1	-29.5	15.5	0.00e+00	0	41	0	4546625536	34	16424
2026-01-01 20:58:49.65	47.07	8.28	-29.1	-29.5	15.6	0.00e+00	0	41	0	4622123008	34	16361
2026-01-01 20:58:50.66	47.28	8.33	-29.1	-29.5	15.7	0.00e+00	0	41	0	4697620480	34	16330
2026-01-01 20:58:51.67	47.49	8.38	-29.0	-29.4	15.7	0.00e+00	0	40	0	4773117952	34	16198
2026-01-01 20:58:52.68	47.69	8.43	-29.0	-29.5	15.7	0.00e+00	0	41	0	4848615424	34	16267
2026-01-01 20:58:53.69	47.90	8.48	-29.0	-29.4	15.7	0.00e+00	0	41	0	4924112896	34	16146
2026-01-01 20:58:54.70	48.11	8.53	-29.1	-29.5	15.8	0.00e+00	0	40	0	4999610368	34	16355
2026-01-01 20:58:55.71	48.32	8.58	-29.0	-29.4	15.7	0.00e+00	0	41	0	5075107840	34	16215
2026-01-01 20:58:56.72	48.53	8.63	-29.0	-29.4	15.8	0.00e+00	0	41	0	5150605312	34	16132
2026-01-01 20:58:57.73	48.74	8.68	-28.9	-29.3	15.7	0.00e+00	0	41	0	5226102784	34	16008
2026-01-01 20:58:58.74	48.96	8.73	-28.8	-29.3	15.7	0.00e+00	0	41	0	5301600256	34	15895
2026-01-01 20:58:59.75	49.17	8.78	-28.9	-29.3	15.8	0.00e+00	0	41	0	5377097728	34	16028
2026-01-01 20:59:00.76	49.38	8.83	-28.9	-29.3	15.8	0.00e+00	0	41	0	5452595200	34	15955
2026-01-01 20:59:01.77	49.60	8.88	-28.8	-29.2	15.7	0.00e+00	0	41	0	5528092672	34	15843
2026-01-01 20:59:02.78	49.82	8.93	-28.9	-29.3	15.6	0.00e+00	0	41	0	5603590144	34	15975
2026-01-01 20:59:03.79	50.03	8.98	-28.8	-29.2	15.5	0.00e+00	0	41	0	5679087616	34	15791
2026-01-01 20:59:04.80	50.25	9.03	-28.8	-29.3	15.5	0.00e+00	0	41	0	5754585088	34	15930
2026-01-01 20:59:05.81	50.47	9.08	-28.7	-29.2	15.7	0.00e+00	0	41	0	5830082560	32	17665
2026-01-01 20:59:06.82	50.69	9.13	-28.8	-29.2	15.7	0.00e+00	0	41	0	5905580032	32	17699
2026-01-01 20:59:07.83	50.91	9.18	-28.9	-29.3	15.4	0.00e+00	0	41	0	5981077504	32	17955
2026-01-01 20:59:08.84	51.13	9.23	-28.9	-29.4	14.9	0.00e+00	0	41	0	6056574976	32	18042
2026-01-01 20:59:09.85	51.36	9.28	-28.7	-29.1	14.6	0.00e+00	0	41	0	6132072448	32	17455
2026-01-01 20:59:10.86	51.58	9.32	-28.8	-29.2	14.6	0.00e+00	0	41	0	6207569920	32	17725
2026-01-01 20:59:11.87	51.80	9.37	-28.5	-29.0	15.2	0.00e+00	0	41	0	6291456000	32	17217
2026-01-01 20:59:12.88	52.03	9.42	-28.7	-29.2	15.5	0.00e+00	0	41	0	6366953472	32	17671
2026-01-01 20:59:13.89	52.25	9.47	-28.6	-29.1	15.8	0.00e+00	0	41	0	6434062336	32	17479
2026-01-01 20:59:14.90	52.48	9.51	-28.6	-29.1	15.7	0.00e+00	0	41	0	6509559808	32	17493
2026-01-01 20:59:15.92	52.71	9.56	-28.8	-29.2	15.5	0.00e+00	0	41	0	6585057280	32	17681
2026-01-01 20:59:16.93	52.94	9.61	-28.8	-29.3	15.0	0.00e+00	0	41	0	6668943360	32	17824
2026-01-01 20:59:17.94	53.17	9.66	-28.9	-29.3	14.3	0.00e+00	0	41	0	6744440832	32	17947
2026-01-01 20:59:18.95	53.40	9.70	-29.3	-29.7	13.5	0.00e+00	0	41	0	6819938304	32	18662
2026-01-01 20:59:19.95	53.63	9.75	-29.0	-29.4	13.1	0.00e+00	0	41	0	6895435776	32	18123
2026-01-01 20:59:20.97	53.86	9.79	-29.0	-29.4	13.6	0.00e+00	0	41	0	6962544640	32	18116
2026-01-01 20:59:21.98	54.10	9.84	-29.1	-29.5	14.2	0.00e+00	0	41	0	7046430720	32	18288
2026-01-01 20:59:22.99	54.33	9.89	-28.6	-29.1	15.3	0.00e+00	0	41	0	7121928192	32	17407
2026-01-01 20:59:24.00	54.57	9.93	-28.7	-29.2	15.6	0.00e+00	0	41	0	7197425664	32	17687
2026-01-01 20:59:25.01	54.80	9.98	-28.4	-28.9	15.8	0.00e+00	0	41	0	7272923136	32	17087
2026-01-01 20:59:26.02	55.04	10.02	-28.6	-29.0	15.8	0.00e+00	0	41	0	7348420608	32	17367
2026-01-01 20:59:27.03	55.28	10.07	-28.4	-28.9	15.9	0.00e+00	0	41	0	7423918080	32	17086
2026-01-01 20:59:28.04	55.52	10.11	-28.7	-29.1	15.8	0.00e+00	0	41	0	7499415552	32	17542
2026-01-01 20:59:29.05	55.76	10.15	-28.3	-28.8	15.9	0.00e+00	0	41	0	7574913024	32	16885
2026-01-01 20:59:30.06	56.00	10.20	-28.5	-28.9	15.8	0.00e+00	0	41	0	7650410496	32	17185
2026-01-01 20:59:31.07	56.24	10.24	-28.3	-28.7	15.4	0.00e+00	0	41	0	7725907968	32	16804
2026-01-01 20:59:32.08	56.48	10.28	-28.3	-28.8	15.4	0.00e+00	0	41	0	7801405440	32	16829
2026-01-01 20:59:33.08	56.72	10.33	-28.3	-28.8	15.7	0.00e+00	0	41	0	7876902912	32	16859
2026-01-01 20:59:34.10	56.97	10.37	-28.4	-28.8	16.0	0.00e+00	0	41	0	7952400384	32	16923
2026-01-01 20:59:35.11	57.21	10.41	-28.4	-28.8	15.9	0.00e+00	0	41	0	8027897856	32	16884
2026-01-01 20:59:36.12	57.46	10.45	-28.3	-28.8	15.7	0.00e+00	0	41	0	8103395328	32	16814
2026-01-01 20:59:37.12	57.70	10.49	-28.3	-28.8	15.8	0.00e+00	0	41	0	8178892800	32	16876
2026-01-01 20:59:38.13	57.95	10.53	-28.3	-28.8	16.0	0.00e+00	0	41	0	8254390272	32	16812
2026-01-01 20:59:39.14	58.19	10.58	-28.2	-28.7	16.0	0.00e+00	0	41	0	8329887744	32	16629
2026-01-01 20:59:40.15	58.44	10.62	-28.2	-28.6	15.8	0.00e+00	0	41	0	8405385216	32	16608
2026-01-01 20:59:41.16	58.69	10.66	-28.3	-28.7	15.9	0.00e+00	0	41	0	8480882688	32	16787
2026-01-01 20:59:42.17	58.94	10.70	-28.2	-28.7	16.0	0.00e+00	0	41	0	8556380160	32	16656
2026-01-01 20:59:43.18	59.19	10.74	-28.4	-28.8	15.8	0.00e+00	0	41	0	8631877632	32	16892
2026-01-01 20:59:44.19	59.45	10.78	-28.3	-28.7	15.4	0.00e+00	0	41	0	8707375104	32	16678
2026-01-01 20:59:45.20	59.70	10.81	-28.2	-28.7	15.5	0.00e+00	0	41	0	8782872576	32	16657
2026-01-01 20:59:46.21	59.95	10.85	-28.5	-28.9	15.7	0.00e+00	0	41	0	8858370048	32	17095
2026-01-01 20:59:47.22	60.21	10.89	-28.5	-28.9	15.8	0.00e+00	0	41	0	8942256128	32	17080
2026-01-01 20:59:48.23	60.46	10.93	-28.2	-28.7	15.9	0.00e+00	0	41	0	9017753600	32	16627
2026-01-01 20:59:49.24	60.72	10.97	-28.3	-28.7	15.9	0.00e+00	0	41	0	9093251072	32	16754
2026-01-01 20:59:50.25	60.97	11.00	-28.4	-28.8	15.8	0.00e+00	0	41	0	9160359936	32	16961
2026-01-01 20:59:51.26	61.23	11.04	-28.3	-28.7	15.7	0.00e+00	0	41	0	9235857408	32	16774
2026-01-01 20:59:52.27	61.49	11.08	-28.4	-28.8	15.6	0.00e+00	0	41	0	9319743488	32	16963
2026-01-01 20:59:53.28	61.75	11.11	-28.1	-28.5	15.8	0.00e+00	0	41	0	9395240960	32	16396
2026-01-01 20:59:54.29	62.01	11.15	-28.1	-28.5	15.7	0.00e+00	0	41	0	9470738432	32	16391
2026-01-01 20:59:55.30	62.27	11.18	-28.0	-28.4	14.6	0.00e+00	0	41	0	9546235904	32	16162
2026-01-01 20:59:56.31	62.53	11.22	-27.9	-28.3	14.3	0.00e+00	0	41	0	9621733376	32	16042
2026-01-01 20:59:57.32	62.79	11.25	-27.9	-28.3	14.0	0.00e+00	0	41	0	9697230848	32	16019
2026-01-01 20:59:58.33	63.06	11.29	-27.9	-28.3	14.1	0.00e+00	0	41	0	9772728320	32	15934
2026-01-01 20:59:59.35	63.32	11.32	-27.9	-28.3	14.1	0.00e+00	0	41	0	9848225792	32	15890
2026-01-01 21:00:00.35	63.58	11.35	-27.9	-28.4	14.1	0.00e+00	0	41	0	9923723264	32	16068
2026-01-01 21:00:01.36	63.85	11.39	-27.8	-28.3	14.7	0.00e+00	0	41	0	9999220736	32	15912
2026-01-01 21:00:02.37	64.12	11.42	-28.0	-28.5	15.5	0.00e+00	0	41	0	10074718208	32	16243
2026-01-01 21:00:03.39	64.38	11.45	-27.8	-28.2	15.8	0.00e+00	0	41	0	10150215680	32	15853
2026-01-01 21:00:04.39	64.65	11.48	-27.9	-28.3	15.9	0.00e+00	0	41	0	10225713152	32	16038
2026-01-01 21:00:05.41	64.92	11.51	-28.1	-28.5	15.8	0.00e+00	0	41	0	10301210624	32	16415
2026-01-01 21:00:06.41	65.19	11.54	-28.1	-28.5	15.9	0.00e+00	0	41	0	10376708096	32	16412
2026-01-01 21:00:07.42	65.45	11.57	-28.2	-28.6	15.8	0.00e+00	0	41	0	10452205568	32	16606
2026-01-01 21:00:08.44	65.73	11.60	-27.9	-28.3	15.8	0.00e+00	0	41	0	10527703040	32	16049
2026-01-01 21:00:09.45	66.00	11.63	-27.9	-28.3	16.0	0.00e+00	0	41	0	10603200512	32	16012
2026-01-01 21:00:10.45	66.27	11.66	-27.9	-28.3	16.1	0.00e+00	0	41	0	10678697984	32	16021
2026-01-01 21:00:11.46	66.54	11.69	-27.8	-28.3	16.1	0.00e+00	0	41	0	10754195456	30	17864
2026-01-01 21:00:12.47	66.81	11.72	-27.9	-28.3	15.9	0.00e+00	0	41	0	10829692928	30	17977
2026-01-01 21:00:13.48	67.08	11.75	-28.0	-28.4	15.2	0.00e+00	0	41	0	10905190400	30	18201
2026-01-01 21:00:14.49	67.36	11.77	-27.8	-28.2	14.8	0.00e+00	0	41	0	10980687872	30	17758
2026-01-01 21:00:15.50	67.63	11.80	-27.9	-28.3	14.8	0.00e+00	0	41	0	11056185344	30	17956
2026-01-01 21:00:16.52	67.91	11.83	-28.0	-28.4	14.8	0.00e+00	0	41	0	11131682816	30	18143
2026-01-01 21:00:17.53	68.18	11.85	-27.8	-28.2	15.1	0.00e+00	0	41	0	11215568896	30	17783
2026-01-01 21:00:18.54	68.46	11.88	-27.8	-28.3	15.4	0.00e+00	0	41	0	11282677760	30	17830
2026-01-01 21:00:19.55	68.74	11.90	-27.7	-28.1	15.7	0.00e+00	0	41	0	11358175232	30	17530
2026-01-01 21:00:20.56	69.01	11.93	-27.8	-28.3	15.5	0.00e+00	0	41	0	11433672704	30	17846
2026-01-01 21:00:21.57	69.29	11.95	-27.9	-28.4	15.5	0.00e+00	0	41	0	11509170176	30	18046
2026-01-01 21:00:22.58	69.57	11.97	-27.8	-28.3	15.2	0.00e+00	0	41	0	11593056256	30	17841
2026-01-01 21:00:23.59	69.85	11.99	-28.0	-28.4	14.7	0.00e+00	0	41	0	11668553728	30	18111
2026-01-01 21:00:24.60	70.13	12.02	-27.8	-28.3	14.9	0.00e+00	0	41	0	11744051200	30	17813
2026-01-01 21:00:25.61	70.41	12.04	-27.7	-28.2	15.7	0.00e+00	0	41	0	11819548672	30	17694
2026-01-01 21:00:26.62	70.69	12.06	-27.8	-28.2	16.0	0.00e+00	0	41	0	11886657536	30	17746
2026-01-01 21:00:27.63	70.97	12.08	-27.7	-28.2	16.1	0.00e+00	0	41	0	11970543616	30	17634
2026-01-01 21:00:28.64	71.25	12.10	-27.7	-28.1	16.1	0.00e+00	0	41	0	12046041088	30	17544
2026-01-01 21:00:29.65	71.53	12.12	-27.6	-28.1	15.9	0.00e+00	0	41	0	12121538560	30	17478
2026-01-01 21:00:30.66	71.81	12.14	-27.6	-28.0	16.0	0.00e+00	0	41	0	12197036032	30	17379
2026-01-01 21:00:31.67	72.10	12.16	-27.7	-28.1	15.9	0.00e+00	0	41	0	12272533504	30	17512
2026-01-01 21:00:32.68	72.38	12.17	-27.7	-28.2	15.9	0.00e+00	0	41	0	12348030976	30	17638
2026-01-01 21:00:33.69	72.66	12.19	-27.6	-28.1	16.1	0.00e+00	0	41	0	12423528448	30	17446
2026-01-01 21:00:34.70	72.95	12.21	-27.8	-28.3	16.2	0.00e+00	0	41	0	12499025920	30	17845
2026-01-01 21:00:35.71	73.23	12.23	-27.9	-28.4	16.2	0.00e+00	0	41	0	12574523392	30	18024
2026-01-01 21:00:36.72	73.51	12.24	-27.9	-28.4	16.1	0.00e+00	0	41	0	12650020864	30	18013
2026-01-01 21:00:37.73	73.80	12.26	-27.9	-28.3	16.1	0.00e+00	0	41	0	12725518336	30	17988
2026-01-01 21:00:38.74	74.08	12.27	-27.9	-28.3	16.0	0.00e+00	0	41	0	12801015808	30	17968
2026-01-01 21:00:39.75	74.37	12.29	-27.6	-28.1	15.8	0.00e+00	0	41	0	12876513280	30	17432
2026-01-01 21:00:40.76	74.66	12.30	-27.6	-28.1	15.4	0.00e+00	0	41	0	12952010752	30	17459
2026-01-01 21:00:41.77	74.94	12.31	-27.7	-28.1	15.3	0.00e+00	0	41	0	13027508224	30	17500
2026-01-01 21:00:42.78	75.23	12.32	-27.7	-28.1	15.8	0.00e+00	0	41	0	13103005696	30	17489
2026-01-01 21:00:43.79	75.52	12.34	-27.7	-28.2	16.0	0.00e+00	0	41	0	13178503168	30	17621
2026-01-01 21:00:44.80	75.80	12.35	-27.7	-28.2	15.8	0.00e+00	0	41	0	13254000640	30	17634
2026-01-01 21:00:45.81	76.09	12.36	-27.8	-28.2	15.7	0.00e+00	0	41	0	13329498112	30	17790
2026-01-01 21:00:46.82	76.38	12.37	-27.7	-28.1	15.6	0.00e+00	0	41	0	13404995584	30	17527
2026-01-01 21:00:47.83	76.66	12.38	-27.6	-28.1	15.8	0.00e+00	0	41	0	13480493056	30	17440
2026-01-01 21:00:48.84	76.95	12.39	-27.7	-28.1	15.7	0.00e+00	0	41	0	13555990528	30	17595
2026-01-01 21:00:49.85	77.24	12.40	-27.6	-28.0	15.8	0.00e+00	0	41	0	13631488000	30	17305
2026-01-01 21:00:50.86	77.53	12.40	-27.6	-28.1	15.8	0.00e+00	0	41	0	13706985472	30	17449
2026-01-01 21:00:51.87	77.82	12.41	-27.5	-27.9	15.0	0.00e+00	0	41	0	13782482944	30	17201
2026-01-01 21:00:52.88	78.11	12.42	-27.5	-28.0	14.9	0.00e+00	0	41	0	13866369024	30	17215
2026-01-01 21:00:53.89	78.40	12.42	-27.8	-28.2	15.8	0.00e+00	0	41	0	13941866496	30	17675
2026-01-01 21:00:54.90	78.68	12.43	-27.8	-28.2	16.1	0.00e+00	0	41	0	14008975360	30	17729
2026-01-01 21:00:55.91	78.97	12.44	-27.7	-28.2	16.1	0.00e+00	0	41	0	14084472832	30	17680
2026-01-01 21:00:56.92	79.26	12.44	-27.5	-27.9	16.2	0.00e+00	0	41	0	14168358912	30	17131
2026-01-01 21:00:57.93	79.55	12.44	-27.5	-28.0	16.1	0.00e+00	0	41	0	14243856384	30	17278
2026-01-01 21:00:58.94	79.84	12.45	-27.7	-28.1	16.0	0.00e+00	0	41	0	14319353856	30	17549
2026-01-01 21:00:59.95	80.13	12.45	-27.5	-28.0	16.1	0.00e+00	0	41	0	14394851328	30	17225
2026-01-01 21:01:00.96	80.42	12.45	-27.7	-28.1	16.1	0.00e+00	0	41	0	14470348800	30	17592
2026-01-01 21:01:01.97	80.71	12.45	-27.7	-28.2	16.1	0.00e+00	0	41	0	14545846272	30	17659
2026-01-01 21:01:02.98	81.00	12.45	-27.8	-28.2	16.0	0.00e+00	0	41	0	14621343744	30	17750
2026-01-01 21:01:03.99	81.29	12.45	-27.8	-28.2	15.9	0.00e+00	0	41	0	14696841216	30	17731
2026-01-01 21:01:05.00	81.58	12.45	-27.7	-28.1	16.1	0.00e+00	0	41	0	14772338688	30	17534
2026-01-01 21:01:06.01	81.87	12.45	-27.7	-28.2	16.2	0.00e+00	0	41	0	14847836160	30	17623
2026-01-01 21:01:07.02	82.16	12.45	-27.8	-28.2	16.1	0.00e+00	0	41	0	14923333632	30	17780
2026-01-01 21:01:08.03	82.45	12.45	-27.6	-28.1	16.1	0.00e+00	0	41	0	14998831104	30	17504
2026-01-01 21:01:09.04	82.74	12.45	-27.7	-28.1	16.1	0.00e+00	0	41	0	15074328576	30	17496
2026-01-01 21:01:10.05	83.03	12.45	-27.5	-27.9	16.2	0.00e+00	0	41	0	15149826048	30	17152
2026-01-01 21:01:11.06	83.32	12.44	-27.5	-28.0	16.0	0.00e+00	0	41	0	15225323520	30	17248
2026-01-01 21:01:12.07	83.61	12.44	-27.6	-28.1	16.0	0.00e+00	0	41	0	15300820992	30	17446
2026-01-01 21:01:13.08	83.90	12.43	-27.6	-28.1	16.2	0.00e+00	0	41	0	15376318464	30	17490
2026-01-01 21:01:14.09	84.19	12.43	-27.6	-28.1	16.2	0.00e+00	0	41	0	15451815936	30	17449
2026-01-01 21:01:15.10	84.48	12.42	-27.7	-28.1	15.6	0.00e+00	0	41	0	15527313408	30	17599
2026-01-01 21:01:16.11	84.77	12.42	-27.9	-28.3	16.1	0.00e+00	0	41	0	15602810880	30	17990
2026-01-01 21:01:17.12	85.05	12.41	-27.8	-28.2	16.1	0.00e+00	0	41	0	15678308352	30	17722
2026-01-01 21:01:18.13	85.34	12.40	-27.8	-28.2	16.2	0.00e+00	0	41	0	15753805824	30	17744
2026-01-01 21:01:19.14	85.63	12.39	-27.6	-28.0	16.2	0.00e+00	0	41	0	15829303296	30	17386
2026-01-01 21:01:20.15	85.92	12.38	-27.9	-28.4	16.2	0.00e+00	0	41	0	15904800768	30	18077
2026-01-01 21:01:21.16	86.21	12.37	-27.7	-28.2	16.2	0.00e+00	0	41	0	15980298240	30	17677
2026-01-01 21:01:22.17	86.50	12.36	-27.7	-28.1	16.2	0.00e+00	0	41	0	16055795712	30	17519
2026-01-01 21:01:23.18	86.78	12.35	-27.6	-28.0	16.2	0.00e+00	0	41	0	16131293184	30	17369
2026-01-01 21:01:24.19	87.07	12.34	-27.5	-28.0	16.2	0.00e+00	0	41	0	16206790656	30	17295
2026-01-01 21:01:25.20	87.36	12.33	-27.6	-28.1	16.1	0.00e+00	0	41	0	16282288128	30	17522
2026-01-01 21:01:26.20	87.64	12.32	-27.5	-28.0	16.2	0.00e+00	0	41	0	16357785600	30	17306
2026-01-01 21:01:27.21	87.93	12.31	-27.5	-28.0	16.2	0.00e+00	0	41	0	16433283072	30	17305
2026-01-01 21:01:28.22	88.22	12.29	-27.6	-28.1	16.0	0.00e+00	0	41	0	16517169152	30	17426
2026-01-01 21:01:29.23	88.50	12.28	-27.6	-28.0	16.1	0.00e+00	0	41	0	16592666624	30	17366
2026-01-01 21:01:30.24	88.79	12.26	-27.6	-28.0	16.2	0.00e+00	0	41	0	16668164096	30	17348
2026-01-01 21:01:31.25	89.07	12.25	-27.6	-28.1	16.3	0.00e+00	0	41	0	16735272960	30	17433
2026-01-01 21:01:32.27	89.36	12.23	-27.6	-28.1	16.3	0.00e+00	0	41	0	16810770432	30	17481
2026-01-01 21:01:33.28	89.64	12.22	-27.8	-28.2	16.1	0.00e+00	0	41	0	16894656512	30	17714
2026-01-01 21:01:34.29	89.93	12.20	-27.7	-28.2	16.1	0.00e+00	0	41	0	16970153984	30	17622
2026-01-01 21:01:35.29	90.21	12.18	-27.7	-28.2	16.2	0.00e+00	0	41	0	17045651456	30	17652
2026-01-01 21:01:36.31	90.50	12.17	-27.7	-28.1	16.1	0.00e+00	0	41	0	17121148928	30	17577
2026-01-01 21:01:37.31	90.78	12.15	-27.7	-28.2	16.1	0.00e+00	0	41	0	17196646400	30	17685
2026-01-01 21:01:38.32	91.06	12.13	-27.6	-28.1	16.1	0.00e+00	0	41	0	17272143872	30	17503
2026-01-01 21:01:39.33	91.34	12.11	-27.7	-28.1	16.1	0.00e+00	0	41	0	17347641344	30	17596
2026-01-01 21:01:40.34	91.62	12.09	-27.7	-28.2	16.2	0.00e+00	0	41	0	17423138816	30	17641
2026-01-01 21:01:41.35	91.91	12.07	-27.6	-28.1	16.1	0.00e+00	0	41	0	17498636288	30	17448
2026-01-01 21:01:42.36	92.19	12.05	-27.7	-28.2	16.1	0.00e+00	0	41	0	17574133760	30	17667
2026-01-01 21:01:43.37	92.47	12.03	-27.7	-28.1	16.1	0.00e+00	0	41	0	17649631232	30	17548
2026-01-01 21:01:44.39	92.75	12.01	-27.6	-28.1	16.1	0.00e+00	0	41	0	17725128704	30	17489
2026-01-01 21:01:45.40	93.03	11.98	-27.8	-28.2	16.1	0.00e+00	0	41	0	17800626176	30	17803
2026-01-01 21:01:46.41	93.31	11.96	-27.7	-28.2	16.1	0.00e+00	0	41	0	17876123648	30	17690
2026-01-01 21:01:47.42	93.59	11.94	-27.7	-28.2	16.1	0.00e+00	0	41	0	17951621120	30	17648
2026-01-01 21:01:48.43	93.86	11.91	-27.7	-28.2	16.1	0.00e+00	0	41	0	18027118592	30	17664
2026-01-01 21:01:49.43	94.14	11.89	-27.9	-28.3	16.0	0.00e+00	0	41	0	18102616064	30	17911
2026-01-01 21:01:50.44	94.42	11.86	-27.7	-28.2	16.0	0.00e+00	0	41	0	18178113536	30	17712
2026-01-01 21:01:51.45	94.69	11.84	-27.8	-28.3	16.0	0.00e+00	0	41	0	18253611008	30	17839
2026-01-01 21:01:52.46	94.97	11.81	-28.0	-28.4	16.0	0.00e+00	0	41	0	18329108480	30	18126
2026-01-01 21:01:53.47	95.24	11.79	-27.9	-28.4	16.0	0.00e+00	0	41	0	18404605952	30	18020
2026-01-01 21:01:54.48	95.52	11.76	-27.8	-28.2	16.2	0.00e+00	0	41	0	18480103424	30	17779
2026-01-01 21:01:55.49	95.79	11.73	-27.8	-28.3	16.0	0.00e+00	0	41	0	18555600896	30	17898
2026-01-01 21:01:56.50	96.07	11.70	-27.9	-28.3	16.0	0.00e+00	0	41	0	18631098368	30	17958
2026-01-01 21:01:57.51	96.34	11.68	-27.9	-28.3	16.1	0.00e+00	0	41	0	18706595840	30	17975
2026-01-01 21:01:58.52	96.61	11.65	-27.8	-28.2	16.2	0.00e+00	0	41	0	18782093312	30	17720
2026-01-01 21:01:59.53	96.88	11.62	-27.9	-28.4	16.1	0.00e+00	0	41	0	18857590784	30	18055
2026-01-01 21:02:00.54	97.15	11.59	-28.0	-28.4	15.9	0.00e+00	0	41	0	18933088256	30	18153
2026-01-01 21:02:01.55	97.42	11.56	-28.2	-28.7	15.9	0.00e+00	0	41	0	19008585728	30	18716
2026-01-01 21:02:02.56	97.69	11.53	-28.0	-28.4	16.1	0.00e+00	0	41	0	19084083200	30	18143
2026-01-01 21:02:03.57	97.96	11.50	-27.9	-28.3	15.9	0.00e+00	0	41	0	19159580672	30	17989
2026-01-01 21:02:04.57	98.23	11.47	-28.0	-28.5	15.9	0.00e+00	0	41	0	19243466752	30	18264
2026-01-01 21:02:05.58	98.50	11.43	-28.0	-28.4	16.0	0.00e+00	0	41	0	19318964224	30	18191
2026-01-01 21:02:06.59	98.76	11.40	-27.9	-28.4	16.0	0.00e+00	0	41	0	19394461696	30	18050
2026-01-01 21:02:07.60	99.03	11.37	-27.9	-28.3	16.0	0.00e+00	0	41	0	19461570560	30	17975
2026-01-01 21:02:08.61	99.29	11.34	-28.1	-28.5	15.8	0.00e+00	0	42	0	19537068032	30	18398
2026-01-01 21:02:09.62	99.56	11.30	-27.9	-28.4	15.7	0.00e+00	0	41	0	19620954112	30	18065
2026-01-01 21:02:10.63	99.82	11.27	-28.0	-28.5	15.4	0.00e+00	0	42	0	19696451584	30	18243
2026-01-01 21:02:11.64	100.09	11.23	-27.9	-28.4	15.6	0.00e+00	0	41	0	19771949056	30	18019
2026-01-01 21:02:12.65	100.35	11.20	-28.0	-28.4	15.7	0.00e+00	0	42	0	19847446528	30	18127
2026-01-01 21:02:13.66	100.61	11.16	-28.2	-28.6	15.6	0.00e+00	0	42	0	19922944000	30	18608
2026-01-01 21:02:14.67	100.87	11.13	-28.0	-28.5	15.8	0.00e+00	0	42	0	19990052864	30	18291
2026-01-01 21:02:15.68	101.13	11.09	-28.0	-28.4	16.0	0.00e+00	0	41	0	20073938944	30	18174
2026-01-01 21:02:16.69	101.39	11.06	-28.0	-28.5	16.0	0.00e+00	0	42	0	20149436416	30	18288
2026-01-01 21:02:17.70	101.65	11.02	-28.1	-28.5	16.0	0.00e+00	0	41	0	20224933888	30	18424
2026-01-01 21:02:18.71	101.91	10.98	-28.1	-28.5	16.0	0.00e+00	0	41	0	20300431360	30	18402
2026-01-01 21:02:19.72	102.17	10.95	-28.0	-28.4	16.1	0.00e+00	0	42	0	20375928832	30	18153
2026-01-01 21:02:20.73	102.42	10.91	-28.0	-28.5	15.9	0.00e+00	0	42	0	20451426304	30	18284
2026-01-01 21:02:21.74	102.68	10.87	-28.0	-28.5	15.8	0.00e+00	0	42	0	20526923776	30	18316
2026-01-01 21:02:22.75	102.93	10.83	-28.1	-28.5	15.8	0.00e+00	0	42	0	20602421248	30	18404
2026-01-01 21:02:23.76	103.19	10.79	-28.1	-28.5	15.9	0.00e+00	0	42	0	20677918720	30	18358
2026-01-01 21:02:24.77	103.44	10.75	-28.3	-28.7	15.9	0.00e+00	0	41	0	20753416192	30	18784
2026-01-01 21:02:25.78	103.69	10.71	-28.3	-28.7	15.9	0.00e+00	0	42	0	20828913664	30	18798
2026-01-01 21:02:26.79	103.95	10.67	-28.0	-28.5	15.9	0.00e+00	0	42	0	20904411136	30	18288
2026-01-01 21:02:27.80	104.20	10.63	-28.2	-28.6	15.8	0.00e+00	0	41	0	20979908608	30	18640
2026-01-01 21:02:28.81	104.45	10.59	-28.2	-28.6	15.8	0.00e+00	0	42	0	21055406080	30	18623
2026-01-01 21:02:29.82	104.70	10.55	-28.2	-28.6	15.9	0.00e+00	0	42	0	21130903552	30	18595
2026-01-01 21:02:30.83	104.94	10.51	-28.2	-28.7	15.9	0.00e+00	0	42	0	21206401024	30	18694
2026-01-01 21:02:31.84	105.19	10.47	-28.5	-28.9	16.0	0.00e+00	0	42	0	21281898496	30	19240
2026-01-01 21:02:32.85	105.44	10.43	-28.4	-28.8	15.9	0.00e+00	0	41	0	21357395968	30	19066
2026-01-01 21:02:33.86	105.68	10.38	-28.5	-29.0	15.9	0.00e+00	0	41	0	21432893440	30	19421
2026-01-01 21:02:34.87	105.93	10.34	-28.2	-28.7	16.0	0.00e+00	0	42	0	21508390912	30	18683
2026-01-01 21:02:35.88	106.17	10.30	-28.4	-28.9	15.9	0.00e+00	0	41	0	21583888384	30	19131
2026-01-01 21:02:36.89	106.42	10.26	-28.4	-28.9	15.8	0.00e+00	0	41	0	21659385856	30	19154
2026-01-01 21:02:37.90	106.66	10.21	-28.3	-28.8	15.9	0.00e+00	0	41	0	21734883328	30	18955
2026-01-01 21:02:38.91	106.90	10.17	-28.3	-28.7	16.0	0.00e+00	0	42	0	21810380800	30	18838
2026-01-01 21:02:39.91	107.14	10.12	-28.3	-28.8	16.0	0.00e+00	0	41	0	21885878272	30	18945
2026-01-01 21:02:40.92	107.38	10.08	-28.4	-28.8	15.9	0.00e+00	0	42	0	21969764352	30	19046
2026-01-01 21:02:41.93	107.62	10.04	-28.3	-28.7	15.9	0.00e+00	0	41	0	22045261824	30	18797
2026-01-01 21:02:42.94	107.86	9.99	-28.3	-28.8	15.9	0.00e+00	0	41	0	22120759296	30	18984
2026-01-01 21:02:43.95	108.09	9.95	-28.5	-28.9	15.9	0.00e+00	0	42	0	22187868160	30	19251
2026-01-01 21:02:44.97	108.33	9.90	-28.5	-29.0	15.9	0.00e+00	0	41	0	22263365632	30	19336
2026-01-01 21:02:45.98	108.57	9.85	-28.4	-28.8	15.9	0.00e+00	0	42	0	22347251712	30	19033
2026-01-01 21:02:46.99	108.80	9.81	-28.5	-28.9	15.9	0.00e+00	0	42	0	22422749184	30	19271
2026-01-01 21:02:47.99	109.03	9.76	-28.4	-28.8	15.9	0.00e+00	0	41	0	22498246656	30	19045
2026-01-01 21:02:49.00	109.27	9.72	-28.4	-28.9	16.0	0.00e+00	0	41	0	22573744128	30	19087
2026-01-01 21:02:50.01	109.50	9.67	-28.5	-29.0	15.9	0.00e+00	0	42	0	22649241600	30	19406
2026-01-01 21:02:51.02	109.73	9.62	-28.4	-28.8	15.9	0.00e+00	0	41	0	22724739072	30	18971
2026-01-01 21:02:52.03	109.96	9.58	-28.6	-29.0	15.8	0.00e+00	0	42	0	22800236544	30	19475
2026-01-01 21:02:53.04	110.19	9.53	-28.7	-29.2	15.8	0.00e+00	0	42	0	22875734016	30	19799
2026-01-01 21:02:54.05	110.42	9.48	-28.4	-28.9	15.9	0.00e+00	0	42	0	22951231488	30	19182
2026-01-01 21:02:55.06	110.64	9.43	-28.5	-29.0	15.9	0.00e+00	0	42	0	23026728960	30	19309
2026-01-01 21:02:56.07	110.87	9.39	-28.5	-29.0	15.8	0.00e+00	0	42	0	23102226432	30	19403
2026-01-01 21:02:57.08	111.10	9.34	-28.7	-29.1	15.7	0.00e+00	0	42	0	23177723904	30	19699
2026-01-01 21:02:58.09	111.32	9.29	-28.6	-29.0	15.8	0.00e+00	0	42	0	23253221376	30	19427
2026-01-01 21:02:59.10	111.55	9.24	-28.8	-29.2	15.7	0.00e+00	0	41	0	23328718848	32	17728
2026-01-01 21:03:00.11	111.77	9.19	-28.6	-29.1	15.8	0.00e+00	0	41	0	23404216320	32	17492
2026-01-01 21:03:01.12	111.99	9.14	-28.8	-29.3	15.8	0.00e+00	0	41	0	23479713792	32	17845
2026-01-01 21:03:02.13	112.21	9.09	-28.8	-29.2	15.8	0.00e+00	0	41	0	23555211264	32	17768
2026-01-01 21:03:03.14	112.43	9.04	-28.7	-29.1	15.9	0.00e+00	0	42	0	23630708736	32	17596
2026-01-01 21:03:04.15	112.65	8.99	-28.6	-29.1	15.9	0.00e+00	0	42	0	23706206208	32	17494
2026-01-01 21:03:05.16	112.87	8.95	-28.8	-29.3	15.8	0.00e+00	0	42	0	23781703680	32	17881
2026-01-01 21:03:06.17	113.09	8.90	-28.6	-29.1	15.9	0.00e+00	0	42	0	23857201152	32	17470
2026-01-01 21:03:07.18	113.31	8.85	-28.7	-29.2	15.8	0.00e+00	0	42	0	23932698624	32	17669
2026-01-01 21:03:08.19	113.52	8.80	-28.8	-29.2	15.8	0.00e+00	0	42	0	24008196096	32	17751
2026-01-01 21:03:09.20	113.74	8.74	-28.8	-29.2	15.8	0.00e+00	0	42	0	24083693568	32	17795
2026-01-01 21:03:10.21	113.95	8.69	-28.7	-29.2	15.9	0.00e+00	0	42	0	24159191040	32	17709
2026-01-01 21:03:11.22	114.16	8.64	-28.8	-29.3	15.8	0.00e+00	0	42	0	24243077120	32	17845
2026-01-01 21:03:12.23	114.38	8.59	-29.0	-29.4	15.7	0.00e+00	0	42	0	24310185984	32	18215
2026-01-01 21:03:13.24	114.59	8.54	-28.9	-29.3	15.8	0.00e+00	0	42	0	24385683456	32	17981
2026-01-01 21:03:14.25	114.80	8.49	-28.9	-29.4	15.7	0.00e+00	0	42	0	24461180928	32	18130
2026-01-01 21:03:15.26	115.01	8.44	-28.9	-29.3	15.8	0.00e+00	0	42	0	24536678400	32	17940
2026-01-01 21:03:16.27	115.22	8.39	-28.9	-29.3	15.7	0.00e+00	0	42	0	24620564480	32	17949
2026-01-01 21:03:17.28	115.42	8.34	-29.0	-29.4	15.7	0.00e+00	0	42	0	24696061952	32	18191
2026-01-01 21:03:18.29	115.63	8.28	-28.9	-29.4	15.7	0.00e+00	0	41	0	24771559424	32	18055
2026-01-01 21:03:19.30	115.84	8.23	-28.9	-29.4	15.7	0.00e+00	0	42	0	24838668288	32	18085
2026-01-01 21:03:20.31	116.04	8.18	-29.0	-29.5	15.7	0.00e+00	0	42	0	24914165760	32	18299
2026-01-01 21:03:21.32	116.25	8.13	-28.9	-29.4	15.7	0.00e+00	0	42	0	24998051840	32	18117
2026-01-01 21:03:22.33	116.45	8.08	-29.1	-29.5	15.7	0.00e+00	0	42	0	25073549312	32	18376
2026-01-01 21:03:23.34	116.65	8.02	-29.0	-29.5	15.7	0.00e+00	0	42	0	25149046784	32	18331
2026-01-01 21:03:24.35	116.85	7.97	-29.1	-29.6	15.7	0.00e+00	0	42	0	25224544256	32	18470
2026-01-01 21:03:25.36	117.06	7.92	-29.2	-29.6	15.6	0.00e+00	0	42	0	25300041728	32	18551
2026-01-01 21:03:26.37	117.26	7.87	-29.0	-29.5	15.7	0.00e+00	0	42	0	25375539200	32	18279
2026-01-01 21:03:27.38	117.45	7.81	-29.3	-29.8	15.6	0.00e+00	0	42	0	25451036672	32	18946
2026-01-01 21:03:28.39	117.65	7.76	-29.2	-29.7	15.6	0.00e+00	0	42	0	25526534144	32	18697
2026-01-01 21:03:29.40	117.85	7.71	-29.2	-29.7	15.6	0.00e+00	0	42	0	25602031616	32	18763
2026-01-01 21:03:30.41	118.05	7.65	-29.3	-29.8	15.6	0.00e+00	0	42	0	25677529088	32	18906
2026-01-01 21:03:31.42	118.24	7.60	-29.3	-29.7	15.6	0.00e+00	0	42	0	25753026560	32	18824
2026-01-01 21:03:32.43	118.44	7.55	-29.1	-29.6	15.7	0.00e+00	0	42	0	25828524032	32	18454
2026-01-01 21:03:33.43	118.63	7.49	-29.3	-29.8	15.6	0.00e+00	0	42	0	25904021504	32	18864
2026-01-01 21:03:34.45	118.82	7.44	-29.6	-30.1	15.5	0.00e+00	0	42	0	25979518976	32	19602
2026-01-01 21:03:35.45	119.01	7.39	-29.6	-30.1	15.5	0.00e+00	0	42	0	26055016448	34	17413
2026-01-01 21:03:36.46	119.20	7.33	-29.3	-29.8	15.6	0.00e+00	0	42	0	26130513920	34	16891
2026-01-01 21:03:37.47	119.39	7.28	-29.3	-29.8	15.5	0.00e+00	0	42	0	26206011392	34	16884
2026-01-01 21:03:38.48	119.58	7.23	-29.3	-29.8	15.5	0.00e+00	0	42	0	26281508864	34	16854
2026-01-01 21:03:39.49	119.77	7.17	-29.5	-29.9	15.5	0.00e+00	0	42	0	26357006336	34	17166
2026-01-01 21:03:40.50	119.96	7.12	-29.4	-29.9	15.5	0.00e+00	0	42	0	26432503808	34	17073
2026-01-01 21:03:41.51	120.15	7.06	-29.4	-29.9	15.6	0.00e+00	0	42	0	26508001280	34	17052
2026-01-01 21:03:42.52	120.33	7.01	-29.4	-29.8	15.5	0.00e+00	0	42	0	26583498752	34	16974
2026-01-01 21:03:43.54	120.52	6.95	-29.5	-29.9	15.5	0.00e+00	0	42	0	26658996224	34	17117
2026-01-01 21:03:44.55	120.71	6.90	-29.6	-30.1	15.3	0.00e+00	0	42	0	26734493696	34	17407
2026-01-01 21:03:45.55	120.89	6.85	-29.7	-30.1	15.2	0.00e+00	0	42	0	26809991168	34	17596
2026-01-01 21:03:46.56	121.07	6.79	-29.4	-29.8	15.3	0.00e+00	0	42	0	26885488640	34	17000
2026-01-01 21:03:47.57	121.25	6.74	-29.8	-30.2	15.2	0.00e+00	0	42	0	26969374720	34	17763
2026-01-01 21:03:48.58	121.43	6.68	-29.8	-30.2	15.2	0.00e+00	0	42	0	27036483584	34	17755
2026-01-01 21:03:49.59	121.61	6.63	-29.8	-30.2	15.3	0.00e+00	0	42	0	27111981056	34	17707
2026-01-01 21:03:50.60	121.79	6.57	-29.7	-30.1	15.3	0.00e+00	0	42	0	27187478528	34	17487
2026-01-01 21:03:51.61	121.97	6.52	-30.0	-30.4	15.1	0.00e+00	0	42	0	27262976000	34	18152
2026-01-01 21:03:52.62	122.15	6.47	-29.8	-30.3	15.2	0.00e+00	0	42	0	27346862080	34	17833
2026-01-01 21:03:53.63	122.33	6.41	-29.7	-30.2	15.3	0.00e+00	0	42	0	27422359552	34	17635
2026-01-01 21:03:54.64	122.50	6.36	-29.8	-30.2	15.3	0.00e+00	0	42	0	27497857024	34	17797
2026-01-01 21:03:55.65	122.68	6.30	-29.8	-30.2	15.3	0.00e+00	0	42	0	27564965888	34	17753
2026-01-01 21:03:56.66	122.85	6.25	-29.7	-30.2	15.4	0.00e+00	0	42	0	27640463360	34	17685
2026-01-01 21:03:57.67	123.03	6.19	-29.9	-30.3	15.3	0.00e+00	0	42	0	27724349440	34	18006
2026-01-01 21:03:58.68	123.20	6.14	-29.9	-30.4	15.4	0.00e+00	0	42	0	27799846912	34	18065
2026-01-01 21:03:59.69	123.37	6.08	-29.8	-30.3	15.3	0.00e+00	0	42	0	27875344384	34	17915
2026-01-01 21:04:00.70	123.54	6.03	-29.8	-30.3	15.3	0.00e+00	0	42	0	27950841856	34	17907
2026-01-01 21:04:01.71	123.71	5.97	-29.9	-30.3	15.3	0.00e+00	0	42	0	28017950720	34	17971
2026-01-01 21:04:02.72	123.88	5.92	-30.1	-30.6	15.2	0.00e+00	0	42	0	28101836800	34	18451
2026-01-01 21:04:03.73	124.05	5.86	-30.1	-30.5	15.2	0.00e+00	0	42	0	28177334272	34	18393
2026-01-01 21:04:04.74	124.22	5.81	-29.7	-30.2	15.4	0.00e+00	0	42	0	28252831744	34	17679
2026-01-01 21:04:05.75	124.39	5.75	-30.1	-30.6	15.2	0.00e+00	0	42	0	28328329216	34	18444
2026-01-01 21:04:06.76	124.56	5.70	-29.9	-30.3	15.3	0.00e+00	0	42	0	28403826688	34	17982
2026-01-01 21:04:07.77	124.72	5.64	-30.0	-30.4	15.2	0.00e+00	0	42	0	28479324160	34	18152
2026-01-01 21:04:08.78	124.89	5.59	-30.1	-30.6	15.2	0.00e+00	0	42	0	28554821632	34	18512
2026-01-01 21:04:09.79	125.05	5.53	-30.0	-30.5	15.2	0.00e+00	0	42	0	28630319104	34	18237
2026-01-01 21:04:10.81	125.22	5.48	-30.4	-30.8	15.1	0.00e+00	0	42	0	28705816576	34	19073
2026-01-01 21:04:11.81	125.38	5.42	-30.4	-30.8	15.1	0.00e+00	0	42	0	28781314048	34	19015
2026-01-01 21:04:12.83	125.54	5.37	-30.1	-30.6	15.2	0.00e+00	0	42	0	28856811520	34	18526
2026-01-01 21:04:13.84	125.70	5.31	-30.2	-30.6	15.1	0.00e+00	0	42	0	28932308992	34	18603
2026-01-01 21:04:14.85	125.86	5.25	-30.3	-30.8	15.0	0.00e+00	0	42	0	29007806464	34	18961
2026-01-01 21:04:15.86	126.02	5.20	-30.6	-31.0	15.0	0.00e+00	0	42	0	29083303936	34	19400
2026-01-01 21:04:16.87	126.18	5.14	-30.7	-31.1	15.1	0.00e+00	0	42	0	29158801408	36	17588
2026-01-01 21:04:17.88	126.34	5.09	-31.0	-31.4	14.8	0.00e+00	0	42	0	29234298880	36	18098
2026-01-01 21:04:18.89	126.50	5.03	-31.6	-32.0	14.6	0.00e+00	0	42	0	29309796352	36	19394
2026-01-01 21:04:19.89	126.65	4.98	-30.5	-30.9	15.1	0.00e+00	0	42	0	29385293824	36	17131
2026-01-01 21:04:20.90	126.81	4.92	-30.3	-30.8	15.1	0.00e+00	0	42	0	29460791296	36	16822
2026-01-01 21:04:21.91	126.97	4.87	-30.5	-30.9	15.0	0.00e+00	0	42	0	29536288768	36	17181
2026-01-01 21:04:22.92	127.12	4.81	-30.4	-30.8	15.2	0.00e+00	0	42	0	29620174848	36	16915
2026-01-01 21:04:23.93	127.28	4.76	-30.5	-31.0	15.0	0.00e+00	0	42	0	29695672320	36	17242
2026-01-01 21:04:24.94	127.43	4.70	-30.6	-31.1	15.0	0.00e+00	0	42	0	29762781184	36	17425
2026-01-01 21:04:25.96	127.58	4.65	-31.0	-31.4	14.8	0.00e+00	0	42	0	29838278656	36	18145
2026-01-01 21:04:26.96	127.73	4.59	-31.5	-31.9	14.6	0.00e+00	0	42	0	29913776128	36	19219
2026-01-01 21:04:27.98	127.89	4.54	-30.9	-31.4	14.9	0.00e+00	0	42	0	29997662208	36	18046
2026-01-01 21:04:28.98	128.04	4.48	-30.8	-31.2	15.0	0.00e+00	0	42	0	30073159680	36	17784
2026-01-01 21:04:29.99	128.19	4.43	-30.8	-31.3	14.9	0.00e+00	0	42	0	30148657152	36	17829
2026-01-01 21:04:31.00	128.33	4.37	-30.5	-31.0	14.9	0.00e+00	0	42	0	30224154624	36	17259
2026-01-01 21:04:32.01	128.48	4.32	-30.1	-30.5	15.1	0.00e+00	0	42	0	30291263488	36	16388
2026-01-01 21:04:33.02	128.63	4.26	-30.9	-31.3	14.8	0.00e+00	0	42	0	30375149568	36	17934
2026-01-01 21:04:34.03	128.78	4.21	-30.7	-31.1	14.9	0.00e+00	0	42	0	30450647040	36	17557
2026-01-01 21:04:35.04	128.92	4.15	-31.3	-31.8	14.6	0.00e+00	0	42	0	30526144512	36	18881
2026-01-01 21:04:36.05	129.07	4.10	-30.7	-31.1	14.8	0.00e+00	0	42	0	30601641984	36	17555
2026-01-01 21:04:37.06	129.22	4.04	-31.0	-31.4	14.7	0.00e+00	0	42	0	30677139456	36	18111
2026-01-01 21:04:38.07	129.36	3.99	-31.0	-31.5	14.6	0.00e+00	0	42	0	30752636928	36	18236
2026-01-01 21:04:39.08	129.50	3.93	-31.4	-31.8	14.5	0.00e+00	0	42	0	30828134400	36	18934
2026-01-01 21:04:40.09	129.65	3.88	-31.7	-32.1	14.3	0.00e+00	0	42	0	30903631872	36	19700
2026-01-01 21:04:41.10	129.79	3.82	-30.5	-31.0	14.9	0.00e+00	0	42	0	30979129344	36	17217
2026-01-01 21:04:42.10	129.93	3.77	-30.6	-31.1	14.8	0.00e+00	0	42	0	31054626816	36	17471
2026-01-01 21:04:43.12	130.07	3.71	-30.8	-31.2	14.8	0.00e+00	0	42	0	31130124288	36	17711
2026-01-01 21:04:44.13	130.21	3.66	-31.2	-31.7	14.5	0.00e+00	0	42	0	31205621760	36	18737
2026-01-01 21:04:45.13	130.35	3.60	-30.9	-31.4	3.6	0.00e+00	0	42	0	31281119232	36	18104
2026-01-01 21:04:46.14	130.49	3.55	-47.9	-50.4	3.6	0.00e+00	0	42	104	31281119232	60	40440
2026-01-01 21:04:47.15	130.63	3.50	-47.9	-50.4	3.6	0.00e+00	0	42	104	31281119232	60	40471
2026-01-01 21:04:48.16	130.77	3.44	-47.9	-50.4	3.6	0.00e+00	0	42	104	31281119232	60	40384
2026-01-01 21:04:49.17	130.90	3.39	-47.9	-50.4	3.6	0.00e+00	0	42	104	31281119232	60	40609
2026-01-01 21:04:50.18	131.04	3.33	-47.8	-50.3	3.6	0.00e+00	0	42	104	31281119232	60	39963
2026-01-01 21:04:51.19	131.18	3.28	-47.9	-50.3	3.6	0.00e+00	0	42	104	31281119232	60	40252
2026-01-01 21:04:52.19	131.31	3.22	-47.6	-50.1	3.6	0.00e+00	0	42	104	31281119232	60	39188
2026-01-01 21:04:53.20	131.45	3.17	-47.9	-50.4	3.6	0.00e+00	0	42	104	31281119232	60	40446
2026-01-01 21:04:54.21	131.58	3.11	-47.7	-50.2	3.6	0.00e+00	0	41	104	31281119232	60	39854
2026-01-01 21:04:55.22	131.71	3.06	-47.8	-50.3	3.6	0.00e+00	0	42	104	31281119232	60	39901
2026-01-01 21:04:56.23	131.85	3.00	-47.6	-50.1	3.6	0.00e+00	0	42	104	31281119232	60	39030
2026-01-01 21:04:57.24	131.98	2.95	-48.3	-50.8	3.6	0.00e+00	0	42	104	31281119232	60	42447
2026-01-01 21:04:58.25	132.11	2.90	-48.7	-51.2	3.6	0.00e+00	0	42	104	31281119232	60	44273
2026-01-01 21:04:59.26	132.24	2.84	-48.9	-51.3	3.6	0.00e+00	0	42	104	31281119232	60	45196
2026-01-01 21:05:00.27	132.37	2.79	-49.1	-51.6	3.6	0.00e+00	0	42	104	31281119232	60	46681
2026-01-01 21:05:01.28	132.50	2.73	-49.2	-51.6	3.6	0.00e+00	0	42	104	31281119232	60	46794
2026-01-01 21:05:02.29	132.63	2.68	-49.1	-51.6	3.5	0.00e+00	0	42	104	31281119232	60	46605
2026-01-01 21:05:03.30	132.76	2.63	-49.2	-51.7	3.6	0.00e+00	0	42	104	31281119232	60	47127
2026-01-01 21:05:04.31	132.89	2.57	-49.3	-51.7	3.6	0.00e+00	0	42	104	31281119232	60	47337
2026-01-01 21:05:05.32	133.02	2.52	-49.5	-51.9	3.6	0.00e+00	0	42	104	31281119232	60	48419
2026-01-01 21:05:06.33	133.14	2.46	-49.4	-51.8	3.6	0.00e+00	0	42	104	31281119232	60	47836
2026-01-01 21:05:07.34	133.27	2.41	-49.4	-51.8	3.6	0.00e+00	0	41	104	31281119232	60	47838
2026-01-01 21:05:08.35	133.40	2.35	-49.4	-51.9	3.6	0.00e+00	0	42	104	31281119232	60	48334
2026-01-01 21:05:09.36	133.52	2.30	-49.6	-52.0	3.6	0.00e+00	0	42	104	31281119232	60	48793
2026-01-01 21:05:10.37	133.65	2.25	-49.5	-52.0	3.6	0.00e+00	0	42	104	31281119232	60	48640
2026-01-01 21:05:11.38	133.77	2.19	-49.5	-52.0	3.5	0.00e+00	0	42	104	31281119232	60	48550
2026-01-01 21:05:12.39	133.89	2.14	-49.4	-51.9	3.6	0.00e+00	0	42	104	31281119232	60	47986
2026-01-01 21:05:13.40	134.02	2.09	-49.5	-52.0	3.6	0.00e+00	0	41	104	31281119232	60	48538
2026-01-01 21:05:14.41	134.14	2.03	-49.5	-52.0	3.6	0.00e+00	0	42	104	31281119232	60	48488
2026-01-01 21:05:15.42	134.26	1.98	-49.4	-51.9	3.6	0.00e+00	0	41	104	31281119232	60	48168
2026-01-01 21:05:16.43	134.38	1.93	-49.4	-51.9	3.6	0.00e+00	0	41	104	31281119232	60	48429
2026-01-01 21:05:17.44	134.50	1.87	-49.5	-51.9	3.6	0.00e+00	0	41	104	31281119232	60	48193
2026-01-01 21:05:18.45	134.62	1.82	-49.5	-51.9	3.6	0.00e+00	0	42	104	31281119232	60	48118
2026-01-01 21:05:19.46	134.74	1.76	-49.5	-51.9	3.6	0.00e+00	0	42	104	31281119232	60	48213
2026-01-01 21:05:20.47	134.86	1.71	-49.5	-51.9	3.6	0.00e+00	0	42	104	31281119232	60	48217
2026-01-01 21:05:21.48	134.98	1.66	-49.5	-51.9	3.6	0.00e+00	0	41	104	31281119232	60	48452
2026-01-01 21:05:22.49	135.10	1.60	-49.5	-51.9	3.6	0.00e+00	0	42	104	31281119232	60	48315
2026-01-01 21:05:23.51	135.22	1.55	-49.4	-51.9	3.6	0.00e+00	0	42	104	31281119232	60	48085
2026-01-01 21:05:24.51	135.33	1.50	-49.5	-51.9	3.6	0.00e+00	0	42	104	31281119232	60	48165
2026-01-01 21:05:25.52	135.45	1.45	-49.5	-51.9	3.6	0.00e+00	0	42	104	31281119232	60	48427
2026-01-01 21:05:26.53	135.57	1.39	-49.5	-51.9	3.6	0.00e+00	0	41	104	31281119232	60	48406
2026-01-01 21:05:27.55	135.68	1.34	-49.5	-52.0	3.6	0.00e+00	0	42	104	31281119232	60	48484
2026-01-01 21:05:28.55	135.80	1.29	-49.5	-51.9	3.6	0.00e+00	0	42	104	31281119232	60	48306
2026-01-01 21:05:29.56	135.91	1.23	-49.5	-51.9	3.6	0.00e+00	0	42	104	31281119232	60	47985
2026-01-01 21:05:30.57	136.03	1.18	-49.5	-51.9	3.6	0.00e+00	0	42	104	31281119232	60	48074
2026-01-01 21:05:31.58	136.14	1.13	-49.4	-51.9	3.6	0.00e+00	0	42	104	31281119232	60	48340
2026-01-01 21:05:32.59	136.25	1.07	-49.4	-51.9	3.6	0.00e+00	0	41	104	31281119232	60	48209
2026-01-01 21:05:33.60	136.37	1.02	-49.4	-51.8	3.6	0.00e+00	0	42	104	31281119232	60	47885
2026-01-01 21:05:34.61	136.48	0.97	-49.4	-51.9	3.6	0.00e+00	0	41	104	31281119232	60	47985
2026-01-01 21:05:35.62	136.59	0.92	-49.4	-51.9	3.6	0.00e+00	0	42	104	31281119232	60	48195
2026-01-01 21:05:36.63	136.70	0.86	-49.4	-51.9	3.6	0.00e+00	0	41	104	31281119232	60	48145
2026-01-01 21:05:37.64	136.81	0.81	-49.4	-51.9	3.6	0.00e+00	0	41	104	31281119232	60	48226
2026-01-01 21:05:38.65	136.92	0.76	-49.4	-51.9	3.6	0.00e+00	0	42	104	31281119232	60	48346
2026-01-01 21:05:39.66	137.03	0.71	-49.5	-51.9	3.6	0.00e+00	0	42	104	31281119232	60	48176
2026-01-01 21:05:40.67	137.14	0.65	-49.4	-51.9	3.5	0.00e+00	0	41	104	31281119232	60	48166
2026-01-01 21:05:41.68	137.25	0.60	-49.5	-51.9	3.6	0.00e+00	0	41	104	31281119232	60	48221
2026-01-01 21:05:42.69	137.36	0.55	-49.5	-51.9	3.6	0.00e+00	0	42	104	31281119232	60	48354
2026-01-01 21:05:43.70	137.47	0.50	-49.5	-51.9	3.6	0.00e+00	0	42	104	31281119232	60	48216
2026-01-01 21:05:44.71	137.57	0.44	-49.5	-51.9	3.6	0.00e+00	0	42	104	31281119232	60	48104
2026-01-01 21:05:45.72	137.68	0.39	-49.5	-51.9	3.6	0.00e+00	0	41	104	31281119232	60	48132
2026-01-01 21:05:46.73	137.79	0.34	-49.5	-51.9	3.6	0.00e+00	0	42	104	31281119232	60	48243
2026-01-01 21:05:47.74	137.89	0.29	-49.4	-51.9	3.6	0.00e+00	0	41	104	31281119232	60	48010
2026-01-01 21:05:48.75	138.00	0.24	-49.5	-51.9	3.6	0.00e+00	0	41	104	31281119232	60	48342
2026-01-01 21:05:49.76	138.10	0.18	-49.5	-51.9	3.6	0.00e+00	0	41	104	31281119232	60	48067
2026-01-01 21:05:50.77	138.21	0.13	-49.5	-51.9	3.6	0.00e+00	0	41	104	31281119232	60	48172
2026-01-01 21:05:51.78	138.31	0.08	-49.4	-51.9	3.6	0.00e+00	0	41	104	31281119232	60	48078
2026-01-01 21:05:52.79	138.42	0.03	-49.5	-51.9	3.6	0.00e+00	0	41	104	31281119232	60	48305
2026-01-01 21:05:53.80	138.52	-0.02	-49.5	-51.9	3.6	0.00e+00	0	41	104	31281119232	60	48443
2026-01-01 21:05:54.80	138.62	-0.07	-49.5	-51.9	3.6	0.00e+00	0	41	104	31281119232	60	48232

#Closed at: 2026-01-01 21:05:55
#Recorded file [31281 MB]: D:/lorett/data/35029_260102_085619.dat