passes_logs/2026/01/01/R4.6S_Anadyr/R4.6S_Anadyr__20260101_012210_AQUA_rec.log

#Pass ID: 20260101_012210_AQUA
#Satellite: AQUA
#Configuration: AQUA
#almurnet v.1.7.20251203
#Start time: 2026-01-01 01:22:14

#Version: 2.2.20231116
#Station: R4.6S_Anadyr
#Location: 177.4865 lon 64.73178 lat
#TLE: 1 27424U 02022A   25364.96158944  .00001951  00000+0  40088-3 0  9999
#TLE: 2 27424  98.4061 326.1390 0001916  95.3188 305.7939 14.61780362258698

#Time	Az	El	Level	Level2	SNR	BER	BlckErr	Temp	State	Recorded	gain1	gain2
2026-01-01 01:22:14.01	142.10	0.22	-49.7	-66.1	3.3	3.02e+01	0	36	0	0	60	77805
2026-01-01 01:22:15.01	142.08	0.28	-49.8	-67.6	3.5	3.02e+01	0	36	104	0	60	92619
2026-01-01 01:22:16.02	142.07	0.34	-49.8	-67.7	3.5	3.02e+01	0	36	104	0	60	93534
2026-01-01 01:22:17.03	142.05	0.40	-49.8	-67.7	3.6	3.02e+01	0	36	104	0	60	93471
2026-01-01 01:22:18.04	142.03	0.47	-49.7	-67.7	3.5	3.02e+01	0	36	104	0	60	93489
2026-01-01 01:22:19.05	142.02	0.53	-49.7	-67.6	3.5	3.02e+01	0	36	104	0	60	92262
2026-01-01 01:22:20.06	142.00	0.59	-49.6	-67.5	3.5	3.02e+01	0	36	104	0	60	91333
2026-01-01 01:22:21.07	141.98	0.66	-49.5	-67.3	3.5	3.02e+01	0	36	104	0	60	89665
2026-01-01 01:22:22.08	141.96	0.72	-49.4	-67.3	3.5	3.02e+01	0	37	104	0	60	89013
2026-01-01 01:22:23.09	141.95	0.78	-49.2	-67.0	3.5	3.02e+01	0	37	104	0	60	86641
2026-01-01 01:22:24.10	141.93	0.85	-48.5	-66.6	3.5	3.02e+01	0	37	104	0	60	82508
2026-01-01 01:22:25.11	141.91	0.91	-48.3	-66.3	3.5	3.02e+01	0	37	104	0	60	79516
2026-01-01 01:22:26.12	141.89	0.98	-46.9	-64.9	3.5	3.02e+01	0	37	104	0	60	67943
2026-01-01 01:22:27.12	141.88	1.04	-46.3	-64.5	3.5	3.02e+01	0	37	104	0	60	64585
2026-01-01 01:22:28.14	141.86	1.11	-46.3	-64.5	3.5	3.02e+01	0	37	104	0	60	64567
2026-01-01 01:22:29.14	141.84	1.17	-46.2	-64.5	3.5	3.02e+01	0	37	104	0	60	64686
2026-01-01 01:22:30.15	141.82	1.23	-46.0	-64.5	3.5	3.02e+01	0	37	104	0	60	64450
2026-01-01 01:22:31.16	141.80	1.30	-45.9	-64.6	3.5	3.02e+01	0	37	104	0	60	65021
2026-01-01 01:22:32.17	141.78	1.36	-46.2	-64.5	3.5	3.02e+01	0	37	104	0	60	64407
2026-01-01 01:22:33.18	141.77	1.43	-45.8	-64.5	3.5	3.02e+01	0	37	104	0	60	64419
2026-01-01 01:22:34.19	141.75	1.49	-46.4	-64.5	3.5	3.02e+01	0	37	104	0	60	64907
2026-01-01 01:22:35.20	141.73	1.56	-46.4	-64.4	3.5	3.02e+01	0	37	104	0	60	64181
2026-01-01 01:22:36.21	141.71	1.63	-46.4	-64.3	3.5	3.02e+01	0	37	104	0	60	63215
2026-01-01 01:22:37.22	141.69	1.69	-46.4	-64.4	3.5	3.02e+01	0	37	104	0	60	63814
2026-01-01 01:22:38.23	141.67	1.76	-46.4	-64.3	3.5	3.02e+01	0	37	104	0	60	63332
2026-01-01 01:22:39.24	141.65	1.82	-46.4	-64.4	3.6	3.02e+01	0	37	104	0	60	64101
2026-01-01 01:22:40.25	141.63	1.89	-46.4	-64.4	3.5	3.02e+01	0	37	104	0	60	64206
2026-01-01 01:22:41.26	141.61	1.96	-46.4	-64.6	3.5	3.02e+01	0	37	104	0	60	65111
2026-01-01 01:22:42.27	141.60	2.02	-46.4	-64.5	3.5	3.02e+01	0	37	104	0	60	64440
2026-01-01 01:22:43.28	141.58	2.09	-46.4	-64.4	3.5	3.02e+01	0	37	104	0	60	63536
2026-01-01 01:22:44.29	141.56	2.16	-46.4	-64.1	3.5	3.02e+01	0	37	104	0	60	61964
2026-01-01 01:22:45.30	141.54	2.22	-46.4	-64.3	3.5	3.02e+01	0	37	104	0	60	63193
2026-01-01 01:22:46.30	141.52	2.29	-46.4	-64.2	3.5	3.02e+01	0	37	104	0	60	62590
2026-01-01 01:22:47.31	141.50	2.36	-46.4	-64.2	3.5	3.02e+01	0	37	104	0	60	62736
2026-01-01 01:22:48.33	141.48	2.43	-46.4	-64.3	3.5	3.02e+01	0	37	104	0	60	63143
2026-01-01 01:22:49.33	141.46	2.49	-46.4	-64.1	3.5	3.02e+01	0	37	104	0	60	61970
2026-01-01 01:22:50.34	141.44	2.56	-46.4	-64.1	3.5	3.02e+01	0	37	104	0	60	61415
2026-01-01 01:22:51.35	141.42	2.63	-46.4	-64.0	3.5	3.02e+01	0	37	104	0	60	60901
2026-01-01 01:22:52.36	141.40	2.70	-46.4	-64.0	3.5	3.02e+01	0	37	104	0	60	60976
2026-01-01 01:22:53.37	141.37	2.77	-46.4	-64.3	3.5	3.02e+01	0	37	104	0	60	62830
2026-01-01 01:22:54.38	141.35	2.84	-46.4	-64.4	3.5	3.02e+01	0	37	104	0	60	64150
2026-01-01 01:22:55.39	141.33	2.91	-46.4	-64.4	3.5	3.02e+01	0	37	104	0	60	64221
2026-01-01 01:22:56.40	141.31	2.98	-46.4	-64.0	3.5	3.02e+01	0	37	104	0	60	60866
2026-01-01 01:22:57.41	141.29	3.04	-46.4	-63.3	3.5	3.02e+01	0	37	104	0	60	55962
2026-01-01 01:22:58.42	141.27	3.11	-46.4	-62.6	3.6	3.02e+01	0	37	104	0	60	52168
2026-01-01 01:22:59.43	141.25	3.18	-46.4	-62.0	3.6	3.02e+01	0	37	104	0	60	48614
2026-01-01 01:23:00.44	141.23	3.25	-46.3	-61.7	4.0	3.02e+01	0	37	104	0	60	46641
2026-01-01 01:23:01.45	141.20	3.32	-46.4	-61.9	3.5	3.02e+01	0	37	104	0	60	48156
2026-01-01 01:23:02.46	141.18	3.39	-46.4	-61.9	3.8	3.02e+01	0	37	104	0	60	48112
2026-01-01 01:23:03.47	141.16	3.47	-46.4	-62.3	3.6	3.02e+01	0	37	104	0	60	50149
2026-01-01 01:23:04.48	141.14	3.54	-46.4	-62.4	3.5	3.02e+01	0	37	104	0	60	50593
2026-01-01 01:23:05.49	141.12	3.61	-46.4	-62.1	3.8	3.02e+01	0	37	104	0	60	49266
2026-01-01 01:23:06.50	141.09	3.68	-46.4	-61.9	4.0	3.02e+01	0	37	104	0	60	47645
2026-01-01 01:23:07.51	141.07	3.75	-46.3	-60.6	4.0	3.02e+01	0	37	104	0	60	41419
2026-01-01 01:23:08.52	141.05	3.82	-46.3	-60.5	4.5	3.02e+01	0	37	104	0	60	40641
2026-01-01 01:23:09.53	141.03	3.89	-45.9	-60.4	4.4	3.02e+01	0	37	104	0	60	40258
2026-01-01 01:23:10.54	141.00	3.96	-46.1	-62.5	3.5	3.02e+01	0	37	104	0	60	51132
2026-01-01 01:23:11.55	140.98	4.04	-46.0	-59.6	4.9	3.02e+01	0	37	104	0	60	36857
2026-01-01 01:23:12.56	140.96	4.11	-46.0	-57.0	9.4	3.02e+01	92	37	104	0	60	27226
2026-01-01 01:23:13.57	140.93	4.18	-45.3	-53.8	6.1	3.02e+01	92	37	0	1048576	60	18841
2026-01-01 01:23:14.58	140.91	4.25	-46.0	-60.2	5.2	3.02e+01	0	37	104	1048576	60	39239
2026-01-01 01:23:15.58	140.89	4.33	-44.6	-51.3	12.4	3.02e+01	91	37	0	2621440	60	14122
2026-01-01 01:23:16.59	140.86	4.40	-44.5	-51.3	12.4	3.02e+01	92	37	0	4194304	60	14137
2026-01-01 01:23:17.60	140.84	4.47	-44.5	-50.9	13.0	3.02e+01	90	37	0	6291456	60	13569
2026-01-01 01:23:18.61	140.82	4.55	-44.5	-50.7	13.0	3.02e+01	92	37	0	8388608	60	13234
2026-01-01 01:23:19.62	140.79	4.62	-44.5	-50.4	13.4	3.02e+01	92	37	0	9961472	60	12710
2026-01-01 01:23:20.63	140.77	4.70	-44.6	-50.4	13.6	3.02e+01	91	37	0	12058624	60	12698
2026-01-01 01:23:21.64	140.74	4.77	-44.8	-50.2	13.8	3.02e+01	92	37	0	13631488	60	12393
2026-01-01 01:23:22.65	140.72	4.84	-44.7	-49.8	14.1	3.02e+01	92	37	0	15728640	60	11953
2026-01-01 01:23:23.66	140.69	4.92	-44.6	-49.7	14.2	3.02e+01	89	37	0	17825792	60	11812
2026-01-01 01:23:24.67	140.67	4.99	-44.6	-49.7	14.4	3.02e+01	92	37	0	19398656	60	11738
2026-01-01 01:23:25.68	140.64	5.07	-44.5	-49.3	14.6	3.02e+01	92	37	0	21495808	60	11263
2026-01-01 01:23:26.69	140.62	5.14	-44.5	-49.5	14.4	3.02e+01	92	37	0	23592960	60	11433
2026-01-01 01:23:27.70	140.59	5.22	-44.4	-49.1	14.7	3.02e+01	90	37	0	25165824	60	11009
2026-01-01 01:23:28.71	140.57	5.30	-44.2	-48.8	15.1	3.02e+01	92	37	0	27262976	60	10589
2026-01-01 01:23:29.71	140.54	5.37	-44.2	-48.7	15.0	3.02e+01	90	37	0	28835840	60	10524
2026-01-01 01:23:30.72	140.52	5.45	-44.0	-48.4	15.5	3.02e+01	92	37	0	30932992	60	10087
2026-01-01 01:23:31.73	140.49	5.52	-44.0	-48.3	15.4	3.02e+01	92	37	0	33030144	60	10057
2026-01-01 01:23:32.74	140.46	5.60	-44.0	-48.3	15.5	3.02e+01	92	37	0	34603008	60	9986
2026-01-01 01:23:33.75	140.44	5.68	-43.7	-47.7	16.0	3.02e+01	90	37	0	36700160	60	9340
2026-01-01 01:23:34.76	140.41	5.76	-43.6	-47.4	16.3	3.02e+01	92	37	0	38273024	60	9025
2026-01-01 01:23:35.77	140.38	5.83	-43.5	-47.3	16.4	3.02e+01	92	38	0	40370176	60	8934
2026-01-01 01:23:36.78	140.36	5.91	-43.2	-46.7	17.1	3.02e+01	92	38	0	42467328	60	8315
2026-01-01 01:23:37.79	140.33	5.99	-43.1	-46.5	17.6	3.02e+01	92	37	0	44040192	60	8120
2026-01-01 01:23:38.80	140.30	6.07	-42.9	-45.9	18.1	3.02e+01	90	37	0	46137344	60	7616
2026-01-01 01:23:39.81	140.27	6.15	-42.8	-45.8	18.5	3.02e+01	92	37	0	47710208	60	7511
2026-01-01 01:23:40.82	140.25	6.23	-42.6	-45.3	19.1	3.02e+01	92	37	0	49807360	60	7122
2026-01-01 01:23:41.83	140.22	6.31	-42.4	-45.0	19.6	3.02e+01	92	37	0	51904512	60	6866
2026-01-01 01:23:42.84	140.19	6.38	-42.4	-45.0	19.9	3.02e+01	92	37	0	53477376	60	6850
2026-01-01 01:23:43.85	140.16	6.46	-41.8	-44.2	20.5	3.02e+01	92	38	0	55574528	58	7020
2026-01-01 01:23:44.86	140.13	6.54	-41.8	-44.1	20.8	3.02e+01	90	37	0	57147392	58	6918
2026-01-01 01:23:45.86	140.11	6.62	-41.5	-43.7	21.3	3.02e+01	92	37	0	59244544	58	6609
2026-01-01 01:23:46.87	140.08	6.70	-41.4	-43.6	21.3	3.02e+01	92	37	0	61341696	58	6534
2026-01-01 01:23:47.88	140.05	6.79	-41.3	-43.5	21.6	3.02e+01	87	37	0	62914560	58	6465
2026-01-01 01:23:48.89	140.02	6.87	-41.0	-43.0	22.2	3.02e+01	92	37	0	65011712	56	6843
2026-01-01 01:23:49.90	139.99	6.95	-40.7	-42.6	22.6	3.02e+01	92	37	0	66584576	56	6569
2026-01-01 01:23:50.91	139.96	7.03	-40.7	-42.6	22.6	3.02e+01	91	37	0	68681728	56	6546
2026-01-01 01:23:51.92	139.93	7.11	-40.6	-42.5	22.8	3.02e+01	91	38	0	70778880	56	6492
2026-01-01 01:23:52.93	139.90	7.19	-40.0	-41.8	23.6	3.02e+01	89	37	0	72351744	56	5970
2026-01-01 01:23:53.94	139.87	7.28	-40.1	-41.8	23.7	3.02e+01	91	37	0	74448896	56	5966
2026-01-01 01:23:54.95	139.84	7.36	-40.2	-41.9	23.6	3.02e+01	92	37	0	76546048	56	6054
2026-01-01 01:23:55.96	139.81	7.44	-39.8	-41.4	24.1	3.02e+01	90	37	0	78118912	54	6415
2026-01-01 01:23:56.97	139.78	7.53	-39.4	-41.1	24.4	3.02e+01	92	37	0	80216064	54	6174
2026-01-01 01:23:57.98	139.75	7.61	-39.4	-41.1	24.5	3.02e+01	92	37	0	81788928	54	6144
2026-01-01 01:23:58.99	139.72	7.69	-39.1	-40.7	24.9	3.02e+01	91	37	0	83886080	54	5862
2026-01-01 01:24:00.00	139.68	7.78	-39.3	-40.9	24.7	3.02e+01	92	37	0	85983232	54	6040
2026-01-01 01:24:01.00	139.65	7.86	-39.0	-40.5	25.1	3.02e+01	92	37	0	87556096	54	5766
2026-01-01 01:24:02.01	139.62	7.95	-38.5	-40.0	25.7	3.02e+01	92	38	0	89653248	52	6126
2026-01-01 01:24:03.02	139.59	8.03	-38.5	-40.0	25.8	3.02e+01	92	38	0	91750400	52	6092
2026-01-01 01:24:04.03	139.56	8.12	-38.4	-39.8	26.0	3.02e+01	91	38	0	93323264	52	5980
2026-01-01 01:24:05.04	139.52	8.20	-38.4	-39.9	26.0	3.02e+01	92	37	0	95420416	52	6001
2026-01-01 01:24:06.05	139.49	8.29	-38.0	-39.4	26.5	3.02e+01	92	38	0	96993280	52	5674
2026-01-01 01:24:07.06	139.46	8.38	-37.9	-39.3	26.6	3.02e+01	92	37	0	99090432	50	6287
2026-01-01 01:24:08.07	139.43	8.46	-37.9	-39.3	26.6	3.02e+01	90	38	0	101187584	50	6304
2026-01-01 01:24:09.08	139.39	8.55	-37.9	-39.3	26.5	3.02e+01	91	37	0	102760448	50	6337
2026-01-01 01:24:10.09	139.36	8.64	-37.8	-39.1	26.8	3.02e+01	85	37	0	104857600	50	6190
2026-01-01 01:24:11.10	139.32	8.72	-37.4	-38.8	27.1	3.02e+01	92	37	0	106430464	50	5954
2026-01-01 01:24:12.11	139.29	8.81	-37.4	-38.8	27.1	3.02e+01	91	38	0	108527616	50	5944
2026-01-01 01:24:13.12	139.26	8.90	-37.3	-38.6	27.3	3.02e+01	89	37	0	110100480	50	5833
2026-01-01 01:24:14.13	139.22	8.99	-37.3	-38.6	27.4	3.02e+01	90	37	0	112197632	50	5810
2026-01-01 01:24:15.14	139.19	9.08	-37.1	-38.4	27.5	3.02e+01	90	38	0	114294784	50	5694
2026-01-01 01:24:16.15	139.15	9.17	-37.1	-38.4	27.5	3.02e+01	92	38	0	115867648	50	5698
2026-01-01 01:24:17.15	139.12	9.26	-36.9	-38.3	27.7	3.02e+01	91	37	0	117964800	50	5602
2026-01-01 01:24:18.16	139.08	9.35	-37.0	-38.2	27.7	3.02e+01	92	38	0	120061952	48	6274
2026-01-01 01:24:19.18	139.04	9.44	-36.8	-38.1	27.8	3.02e+01	92	37	0	121634816	48	6173
2026-01-01 01:24:20.18	139.01	9.53	-36.9	-38.2	27.7	3.02e+01	92	38	0	123731968	48	6252
2026-01-01 01:24:21.19	138.97	9.62	-36.7	-38.0	27.9	3.02e+01	92	38	0	125304832	48	6117
2026-01-01 01:24:22.20	138.94	9.71	-36.5	-37.8	28.1	3.02e+01	92	38	0	127401984	48	5978
2026-01-01 01:24:23.21	138.90	9.80	-36.6	-37.8	28.1	3.02e+01	92	37	0	129499136	48	5988
2026-01-01 01:24:24.22	138.86	9.90	-36.5	-37.8	28.1	3.02e+01	92	38	0	131072000	48	5958
2026-01-01 01:24:25.23	138.82	9.99	-36.5	-37.8	28.2	3.02e+01	92	37	0	133169152	48	5942
2026-01-01 01:24:26.24	138.79	10.08	-36.5	-37.7	28.2	3.02e+01	92	38	0	134742016	48	5923
2026-01-01 01:24:27.24	138.75	10.17	-36.5	-37.7	28.2	3.02e+01	92	38	0	136839168	48	5920
2026-01-01 01:24:28.25	138.71	10.27	-36.3	-37.6	28.3	3.02e+01	92	37	0	138936320	48	5816
2026-01-01 01:24:29.26	138.67	10.36	-36.3	-37.6	28.3	3.02e+01	92	38	0	140509184	48	5806
2026-01-01 01:24:30.27	138.63	10.46	-36.3	-37.6	28.4	3.02e+01	92	38	0	142606336	48	5797
2026-01-01 01:24:31.28	138.59	10.55	-36.2	-37.5	28.5	3.02e+01	92	37	0	144703488	48	5744
2026-01-01 01:24:32.28	138.55	10.65	-36.1	-37.4	28.6	3.02e+01	88	38	0	146276352	48	5669
2026-01-01 01:24:33.29	138.51	10.74	-36.0	-37.3	28.7	3.02e+01	92	38	0	148373504	48	5611
2026-01-01 01:24:34.30	138.47	10.84	-36.0	-37.3	28.6	3.02e+01	92	38	0	149946368	48	5612
2026-01-01 01:24:35.31	138.43	10.94	-36.0	-37.2	28.6	3.02e+01	92	38	0	152043520	48	5585
2026-01-01 01:24:36.32	138.39	11.03	-36.0	-37.2	28.7	3.02e+01	92	38	0	153616384	48	5581
2026-01-01 01:24:37.33	138.35	11.13	-36.0	-37.3	28.7	3.02e+01	90	37	0	155713536	46	6284
2026-01-01 01:24:38.33	138.31	11.23	-36.1	-37.3	28.7	3.02e+01	92	38	0	157810688	46	6321
2026-01-01 01:24:39.34	138.27	11.33	-35.9	-37.1	28.9	3.02e+01	92	37	0	159383552	46	6198
2026-01-01 01:24:40.35	138.23	11.42	-35.8	-37.0	29.0	3.02e+01	92	37	0	161480704	46	6094
2026-01-01 01:24:41.36	138.18	11.52	-35.8	-37.0	28.9	3.02e+01	92	37	0	163053568	46	6122
2026-01-01 01:24:42.37	138.14	11.62	-35.8	-37.0	28.9	3.02e+01	90	38	0	165150720	46	6115
2026-01-01 01:24:43.39	138.10	11.72	-35.7	-36.9	29.0	3.02e+01	92	38	0	167247872	46	6025
2026-01-01 01:24:44.39	138.05	11.82	-35.7	-36.9	29.0	3.02e+01	92	37	0	168820736	46	6024
2026-01-01 01:24:45.40	138.01	11.92	-35.7	-36.9	29.0	3.02e+01	92	37	0	170917888	46	6048
2026-01-01 01:24:46.41	137.97	12.03	-35.6	-36.8	29.1	3.02e+01	92	38	0	173015040	46	5974
2026-01-01 01:24:47.42	137.92	12.13	-35.6	-36.8	29.2	3.02e+01	92	38	0	174587904	46	5955
2026-01-01 01:24:48.43	137.88	12.23	-35.6	-36.8	29.1	3.02e+01	90	38	0	176685056	46	5958
2026-01-01 01:24:49.44	137.83	12.33	-35.7	-36.9	29.0	3.02e+01	91	38	0	178257920	46	6062
2026-01-01 01:24:50.45	137.79	12.44	-35.6	-36.8	29.2	3.02e+01	92	38	0	180355072	46	5980
2026-01-01 01:24:51.45	137.74	12.54	-35.5	-36.7	29.3	3.02e+01	89	38	0	182452224	46	5905
2026-01-01 01:24:52.46	137.69	12.64	-35.6	-36.8	29.2	3.02e+01	91	38	0	184025088	46	5956
2026-01-01 01:24:53.47	137.65	12.75	-35.5	-36.7	29.2	3.02e+01	92	38	0	186122240	46	5904
2026-01-01 01:24:54.48	137.60	12.85	-35.6	-36.8	29.2	3.02e+01	92	38	0	188219392	46	5973
2026-01-01 01:24:55.49	137.55	12.96	-35.5	-36.7	29.2	3.02e+01	91	38	0	189792256	46	5904
2026-01-01 01:24:56.50	137.51	13.06	-35.6	-36.8	29.2	3.02e+01	92	38	0	191889408	46	5965
2026-01-01 01:24:57.51	137.46	13.17	-35.5	-36.7	29.2	3.02e+01	92	38	0	193462272	46	5917
2026-01-01 01:24:58.52	137.41	13.28	-35.5	-36.7	29.2	3.02e+01	92	38	0	195559424	46	5922
2026-01-01 01:24:59.53	137.36	13.39	-35.6	-36.8	29.2	3.02e+01	92	38	0	197656576	46	5956
2026-01-01 01:25:00.54	137.31	13.49	-35.6	-36.8	29.2	3.02e+01	92	37	0	199229440	46	5964
2026-01-01 01:25:01.55	137.26	13.60	-35.6	-36.8	29.1	3.02e+01	92	38	0	201326592	46	5976
2026-01-01 01:25:02.56	137.21	13.71	-35.7	-36.9	29.1	3.02e+01	92	38	0	202899456	46	6053
2026-01-01 01:25:03.57	137.16	13.82	-35.6	-36.8	29.2	3.02e+01	92	38	0	204996608	46	5973
2026-01-01 01:25:04.58	137.11	13.93	-35.7	-36.9	29.1	3.02e+01	91	38	0	207093760	46	6005
2026-01-01 01:25:05.59	137.06	14.04	-35.7	-36.9	29.1	3.02e+01	92	38	0	208666624	46	6049
2026-01-01 01:25:06.60	137.00	14.15	-35.8	-37.1	29.0	3.02e+01	91	38	0	210763776	46	6147
2026-01-01 01:25:07.61	136.95	14.26	-35.7	-36.9	29.1	3.02e+01	91	38	0	212336640	46	6020
2026-01-01 01:25:08.62	136.90	14.38	-35.8	-37.0	29.1	3.02e+01	91	38	0	214433792	46	6088
2026-01-01 01:25:09.62	136.85	14.49	-35.6	-36.8	29.2	3.02e+01	90	38	0	216530944	46	5963
2026-01-01 01:25:10.63	136.79	14.60	-35.7	-36.9	29.2	3.02e+01	88	38	0	218103808	46	6020
2026-01-01 01:25:11.64	136.74	14.72	-35.6	-36.8	29.2	3.02e+01	92	38	0	220200960	46	5993
2026-01-01 01:25:12.65	136.68	14.83	-35.6	-36.8	29.2	3.02e+01	90	38	0	221773824	46	5967
2026-01-01 01:25:13.66	136.63	14.95	-35.6	-36.8	29.3	3.02e+01	92	38	0	223870976	46	5927
2026-01-01 01:25:14.67	136.57	15.06	-35.6	-36.8	29.3	3.02e+01	92	38	0	225968128	46	5931
2026-01-01 01:25:15.68	136.52	15.18	-35.5	-36.8	29.2	3.02e+01	92	38	0	227540992	46	5927
2026-01-01 01:25:16.69	136.46	15.29	-35.3	-36.5	29.5	3.02e+01	92	38	0	229638144	46	5782
2026-01-01 01:25:17.70	136.40	15.41	-35.4	-36.6	29.4	3.02e+01	91	38	0	231211008	46	5844
2026-01-01 01:25:18.71	136.34	15.53	-35.3	-36.5	29.5	3.02e+01	91	38	0	233308160	46	5779
2026-01-01 01:25:19.72	136.29	15.65	-35.3	-36.5	29.5	3.02e+01	92	38	0	235405312	46	5766
2026-01-01 01:25:20.73	136.23	15.77	-35.2	-36.4	29.6	3.02e+01	92	38	0	236978176	46	5683
2026-01-01 01:25:21.74	136.17	15.89	-35.3	-36.5	29.5	3.02e+01	92	38	0	239075328	46	5749
2026-01-01 01:25:22.75	136.11	16.01	-35.1	-36.3	29.7	3.02e+01	91	38	0	241172480	46	5628
2026-01-01 01:25:23.76	136.05	16.13	-35.1	-36.3	29.7	3.02e+01	92	38	0	242745344	46	5623
2026-01-01 01:25:24.77	135.99	16.25	-35.1	-36.3	29.7	3.02e+01	91	38	0	244842496	46	5644
2026-01-01 01:25:25.78	135.93	16.37	-35.1	-36.3	29.7	3.02e+01	91	38	0	246415360	46	5606
2026-01-01 01:25:26.79	135.86	16.50	-35.1	-36.3	29.7	3.02e+01	91	38	0	248512512	46	5633
2026-01-01 01:25:27.80	135.80	16.62	-35.0	-36.2	29.8	3.02e+01	91	38	0	250609664	46	5542
2026-01-01 01:25:28.81	135.74	16.74	-35.2	-36.4	29.8	3.02e+01	92	38	0	252182528	46	5671
2026-01-01 01:25:29.81	135.68	16.87	-35.2	-36.4	29.6	3.02e+01	92	38	0	254279680	46	5669
2026-01-01 01:25:30.82	135.61	16.99	-35.2	-36.4	29.7	3.02e+01	91	38	0	256376832	46	5681
2026-01-01 01:25:31.83	135.55	17.12	-35.2	-36.4	29.6	3.02e+01	91	38	0	257949696	46	5703
2026-01-01 01:25:32.84	135.48	17.25	-35.2	-36.4	29.7	3.02e+01	91	38	0	260046848	46	5685
2026-01-01 01:25:33.85	135.41	17.38	-35.3	-36.5	29.5	3.02e+01	91	38	0	261619712	46	5753
2026-01-01 01:25:34.86	135.35	17.50	-35.3	-36.5	29.6	3.02e+01	92	38	0	263716864	46	5754
2026-01-01 01:25:35.87	135.28	17.63	-35.4	-36.6	29.4	3.02e+01	92	38	0	265814016	46	5836
2026-01-01 01:25:36.88	135.21	17.76	-35.3	-36.6	29.5	3.02e+01	92	38	0	267386880	46	5802
2026-01-01 01:25:37.89	135.14	17.89	-35.3	-36.5	29.6	3.02e+01	92	38	0	269484032	46	5778
2026-01-01 01:25:38.90	135.07	18.02	-35.5	-36.7	29.4	3.02e+01	91	38	0	271056896	46	5906
2026-01-01 01:25:39.91	135.00	18.16	-35.6	-36.8	29.3	3.02e+01	91	38	0	273154048	46	5945
2026-01-01 01:25:40.91	134.93	18.29	-35.5	-36.7	29.4	3.02e+01	90	38	0	274726912	46	5868
2026-01-01 01:25:41.92	134.86	18.42	-35.5	-36.7	29.5	3.02e+01	90	38	0	276824064	46	5887
2026-01-01 01:25:42.93	134.79	18.56	-35.4	-36.7	29.5	3.02e+01	92	38	0	278921216	46	5860
2026-01-01 01:25:43.94	134.72	18.69	-35.4	-36.7	29.5	3.02e+01	92	38	0	280494080	46	5860
2026-01-01 01:25:44.95	134.65	18.83	-35.4	-36.6	29.4	3.02e+01	92	38	0	282591232	46	5845
2026-01-01 01:25:45.96	134.57	18.96	-35.4	-36.6	29.5	3.02e+01	90	38	0	284688384	46	5850
2026-01-01 01:25:46.97	134.50	19.10	-35.5	-36.7	29.5	3.02e+01	90	38	0	286261248	46	5884
2026-01-01 01:25:47.98	134.42	19.24	-35.3	-36.5	29.6	3.02e+01	91	38	0	288358400	46	5777
2026-01-01 01:25:48.99	134.34	19.38	-35.3	-36.5	29.5	3.02e+01	91	38	0	289931264	46	5787
2026-01-01 01:25:50.00	134.27	19.52	-35.2	-36.4	29.7	3.02e+01	92	38	0	292028416	46	5676
2026-01-01 01:25:51.01	134.19	19.66	-35.4	-36.6	29.5	3.02e+01	90	38	0	294125568	46	5811
2026-01-01 01:25:52.02	134.11	19.80	-35.3	-36.5	29.5	3.02e+01	89	38	0	295698432	46	5780
2026-01-01 01:25:53.03	134.03	19.94	-35.4	-36.5	29.6	3.02e+01	92	38	0	297795584	46	5781
2026-01-01 01:25:54.04	133.95	20.08	-35.3	-36.5	29.6	3.02e+01	92	38	0	299368448	46	5780
2026-01-01 01:25:55.05	133.87	20.23	-35.5	-36.7	29.5	3.02e+01	91	38	0	301465600	46	5876
2026-01-01 01:25:56.05	133.79	20.37	-35.4	-36.6	29.6	3.02e+01	92	38	0	303562752	46	5793
2026-01-01 01:25:57.07	133.70	20.52	-35.5	-36.7	29.5	3.02e+01	92	38	0	305135616	46	5883
2026-01-01 01:25:58.07	133.62	20.66	-35.5	-36.7	29.5	3.02e+01	90	38	0	307232768	46	5897
2026-01-01 01:25:59.09	133.54	20.81	-35.7	-36.9	29.3	3.02e+01	92	38	0	309329920	46	6012
2026-01-01 01:26:00.09	133.45	20.96	-35.7	-36.9	29.3	3.02e+01	92	38	0	310902784	46	6039
2026-01-01 01:26:01.10	133.36	21.11	-35.8	-37.0	29.2	3.02e+01	90	38	0	312999936	46	6109
2026-01-01 01:26:02.11	133.28	21.26	-35.8	-37.0	29.2	3.02e+01	90	38	0	314572800	46	6092
2026-01-01 01:26:03.12	133.19	21.41	-35.8	-37.0	29.2	3.02e+01	91	38	0	316669952	46	6098
2026-01-01 01:26:04.13	133.10	21.56	-35.8	-37.0	29.2	3.02e+01	92	38	0	318767104	46	6093
2026-01-01 01:26:05.14	133.01	21.71	-35.6	-36.8	29.4	3.02e+01	92	38	0	320339968	46	5953
2026-01-01 01:26:06.15	132.92	21.87	-35.6	-36.8	29.4	3.02e+01	90	38	0	322437120	46	5960
2026-01-01 01:26:07.16	132.83	22.02	-35.6	-36.8	29.4	3.02e+01	92	38	0	324009984	46	5944
2026-01-01 01:26:08.17	132.73	22.18	-35.6	-36.8	29.4	3.02e+01	92	38	0	326107136	46	5928
2026-01-01 01:26:09.18	132.64	22.33	-35.6	-36.8	29.4	3.02e+01	91	38	0	328204288	46	5944
2026-01-01 01:26:10.19	132.54	22.49	-35.4	-36.6	29.6	3.02e+01	92	38	0	329777152	46	5850
2026-01-01 01:26:11.20	132.45	22.65	-35.6	-36.8	29.4	3.02e+01	86	38	0	331874304	46	5954
2026-01-01 01:26:12.21	132.35	22.81	-35.5	-36.7	29.5	3.02e+01	92	38	0	333447168	46	5914
2026-01-01 01:26:13.22	132.25	22.97	-35.7	-36.9	29.4	3.02e+01	90	38	0	335544320	46	6039
2026-01-01 01:26:14.23	132.15	23.13	-35.7	-36.9	29.3	3.02e+01	91	38	0	337641472	46	6041
2026-01-01 01:26:15.24	132.05	23.29	-35.8	-37.0	29.3	3.02e+01	92	38	0	339214336	46	6096
2026-01-01 01:26:16.25	131.95	23.46	-35.8	-37.0	29.2	3.02e+01	92	38	0	341311488	46	6092
2026-01-01 01:26:17.26	131.85	23.62	-35.8	-37.0	29.2	3.02e+01	92	38	0	342884352	46	6088
2026-01-01 01:26:18.27	131.74	23.79	-35.8	-37.0	29.2	3.02e+01	86	38	0	344981504	46	6083
2026-01-01 01:26:19.28	131.64	23.95	-35.9	-37.1	29.3	3.02e+01	92	38	0	347078656	46	6142
2026-01-01 01:26:20.29	131.53	24.12	-35.7	-36.9	29.3	3.02e+01	92	38	0	348651520	46	6047
2026-01-01 01:26:21.30	131.42	24.29	-35.7	-36.9	29.5	3.02e+01	92	38	0	350748672	46	6002
2026-01-01 01:26:22.30	131.32	24.46	-35.7	-36.9	29.4	3.02e+01	92	38	0	352845824	46	6047
2026-01-01 01:26:23.31	131.21	24.63	-35.7	-36.9	29.4	3.02e+01	92	38	0	354418688	46	6014
2026-01-01 01:26:24.32	131.10	24.80	-35.7	-36.9	29.4	3.02e+01	92	38	0	356515840	46	6008
2026-01-01 01:26:25.33	130.98	24.97	-35.6	-36.8	29.5	3.02e+01	90	38	0	358088704	46	5962
2026-01-01 01:26:26.34	130.87	25.15	-35.6	-36.8	29.5	3.02e+01	92	38	0	360185856	46	5970
2026-01-01 01:26:27.34	130.75	25.32	-35.6	-36.8	29.5	3.02e+01	92	38	0	362283008	46	5991
2026-01-01 01:26:28.35	130.64	25.50	-35.6	-36.8	29.5	3.02e+01	92	38	0	363855872	46	5927
2026-01-01 01:26:29.36	130.52	25.67	-35.7	-36.9	29.4	3.02e+01	92	38	0	365953024	46	6010
2026-01-01 01:26:30.37	130.40	25.85	-35.7	-36.9	29.3	3.02e+01	85	38	0	367525888	46	6051
2026-01-01 01:26:31.38	130.28	26.03	-35.8	-37.0	29.3	3.02e+01	92	38	0	369623040	46	6092
2026-01-01 01:26:32.39	130.16	26.21	-35.8	-37.0	29.3	3.02e+01	92	38	0	371720192	46	6076
2026-01-01 01:26:33.40	130.03	26.40	-35.8	-37.0	29.3	3.02e+01	89	38	0	373293056	46	6126
2026-01-01 01:26:34.41	129.91	26.58	-35.5	-36.7	29.6	3.02e+01	92	38	0	375390208	46	5885
2026-01-01 01:26:35.42	129.78	26.76	-35.5	-36.7	29.5	3.02e+01	89	38	0	377487360	46	5903
2026-01-01 01:26:36.43	129.65	26.95	-35.5	-36.6	29.6	3.02e+01	92	38	0	379060224	46	5855
2026-01-01 01:26:37.44	129.52	27.14	-35.4	-36.6	29.7	3.02e+01	92	38	0	381157376	46	5795
2026-01-01 01:26:38.45	129.39	27.33	-35.4	-36.6	29.7	3.02e+01	88	38	0	382730240	46	5831
2026-01-01 01:26:39.46	129.25	27.51	-35.4	-36.6	29.6	3.02e+01	92	38	0	384827392	46	5823
2026-01-01 01:26:40.47	129.12	27.71	-35.3	-36.6	29.7	3.02e+01	92	38	0	386924544	46	5794
2026-01-01 01:26:41.48	128.98	27.90	-35.2	-36.4	29.8	3.02e+01	92	38	0	388497408	46	5661
2026-01-01 01:26:42.49	128.84	28.09	-35.3	-36.5	29.8	3.02e+01	92	38	0	390594560	46	5731
2026-01-01 01:26:43.50	128.70	28.28	-34.9	-36.0	30.1	3.02e+01	92	38	0	392167424	44	6120
2026-01-01 01:26:44.51	128.56	28.48	-34.9	-36.1	30.1	3.02e+01	92	38	0	394264576	44	6135
2026-01-01 01:26:45.52	128.42	28.68	-34.7	-35.9	30.2	3.02e+01	90	38	0	396361728	44	6030
2026-01-01 01:26:46.53	128.27	28.88	-34.8	-36.0	30.2	3.02e+01	92	38	0	397934592	44	6094
2026-01-01 01:26:47.54	128.12	29.08	-34.9	-36.1	30.1	3.02e+01	92	38	0	400031744	44	6149
2026-01-01 01:26:48.55	127.97	29.28	-35.0	-36.2	30.1	3.02e+01	92	38	0	401604608	44	6218
2026-01-01 01:26:49.56	127.82	29.48	-35.1	-36.3	29.8	3.02e+01	92	38	0	403701760	44	6333
2026-01-01 01:26:50.57	127.67	29.68	-35.0	-36.2	29.9	3.02e+01	92	38	0	405798912	44	6243
2026-01-01 01:26:51.58	127.51	29.89	-35.0	-36.2	30.0	3.02e+01	92	38	0	407371776	44	6253
2026-01-01 01:26:52.59	127.35	30.09	-34.9	-36.0	30.1	3.02e+01	89	38	0	409468928	44	6118
2026-01-01 01:26:53.60	127.19	30.30	-34.9	-36.0	30.1	3.02e+01	92	38	0	411041792	44	6109
2026-01-01 01:26:54.61	127.03	30.51	-34.8	-35.9	30.2	3.02e+01	92	38	0	413138944	44	6061
2026-01-01 01:26:55.62	126.86	30.72	-34.7	-35.9	30.3	3.02e+01	92	38	0	415236096	44	6021
2026-01-01 01:26:56.62	126.70	30.93	-34.8	-36.0	30.2	3.02e+01	90	38	0	416808960	44	6081
2026-01-01 01:26:57.63	126.53	31.14	-35.0	-36.2	30.1	3.02e+01	92	38	0	418906112	44	6208
2026-01-01 01:26:58.64	126.36	31.36	-35.0	-36.2	30.0	3.02e+01	92	38	0	421003264	44	6246
2026-01-01 01:26:59.65	126.18	31.57	-35.2	-36.4	29.8	3.02e+01	91	38	0	422576128	44	6390
2026-01-01 01:27:00.66	126.01	31.79	-35.1	-36.3	30.0	3.02e+01	91	38	0	424673280	44	6291
2026-01-01 01:27:01.67	125.83	32.01	-35.2	-36.3	29.9	3.02e+01	92	38	0	426246144	44	6339
2026-01-01 01:27:02.68	125.65	32.23	-35.0	-36.1	30.1	3.02e+01	92	38	0	428343296	44	6193
2026-01-01 01:27:03.69	125.46	32.45	-35.0	-36.1	30.1	3.02e+01	92	38	0	430440448	44	6185
2026-01-01 01:27:04.70	125.28	32.67	-35.2	-36.3	29.9	3.02e+01	90	38	0	432013312	44	6330
2026-01-01 01:27:05.71	125.09	32.90	-35.4	-36.6	29.7	3.02e+01	92	38	0	434110464	44	6541
2026-01-01 01:27:06.72	124.89	33.12	-35.5	-36.7	29.6	3.02e+01	92	38	0	435683328	44	6602
2026-01-01 01:27:07.73	124.70	33.35	-35.4	-36.6	29.7	3.02e+01	91	38	0	437780480	44	6534
2026-01-01 01:27:08.74	124.50	33.58	-35.4	-36.6	29.8	3.02e+01	92	38	0	439877632	44	6502
2026-01-01 01:27:09.75	124.30	33.81	-35.3	-36.5	29.7	3.02e+01	92	38	0	441450496	44	6468
2026-01-01 01:27:10.76	124.10	34.04	-35.6	-36.7	29.6	3.02e+01	90	38	0	443547648	44	6648
2026-01-01 01:27:11.77	123.89	34.27	-35.7	-36.9	29.4	3.02e+01	92	38	0	445120512	44	6779
2026-01-01 01:27:12.77	123.68	34.51	-35.9	-37.1	29.3	3.02e+01	92	38	0	447217664	44	6941
2026-01-01 01:27:13.79	123.47	34.74	-36.0	-37.2	29.2	3.02e+01	92	38	0	449314816	46	6277
2026-01-01 01:27:14.79	123.25	34.98	-36.3	-37.5	29.0	3.02e+01	92	38	0	450887680	46	6480
2026-01-01 01:27:15.80	123.03	35.22	-36.5	-37.8	28.7	3.02e+01	90	38	0	452984832	46	6650
2026-01-01 01:27:16.81	122.81	35.46	-36.6	-37.8	28.7	3.02e+01	92	38	0	454557696	46	6680
2026-01-01 01:27:17.82	122.58	35.70	-36.4	-37.6	28.9	3.02e+01	92	38	0	456654848	46	6551
2026-01-01 01:27:18.83	122.35	35.94	-36.5	-37.7	28.9	3.02e+01	92	38	0	458752000	46	6616
2026-01-01 01:27:19.84	122.12	36.19	-36.9	-38.2	28.4	3.02e+01	92	38	0	460324864	46	6974
2026-01-01 01:27:20.85	121.88	36.43	-37.0	-38.3	28.3	3.02e+01	92	38	0	462422016	48	6299
2026-01-01 01:27:21.85	121.65	36.68	-37.0	-38.3	28.3	3.02e+01	90	38	0	463994880	48	6287
2026-01-01 01:27:22.86	121.40	36.93	-37.1	-38.4	28.2	3.02e+01	92	38	0	466092032	48	6360
2026-01-01 01:27:23.87	121.15	37.18	-37.3	-38.5	28.1	3.02e+01	92	38	0	468189184	48	6487
2026-01-01 01:27:24.88	120.90	37.43	-37.2	-38.5	28.1	3.02e+01	92	38	0	469762048	48	6431
2026-01-01 01:27:25.89	120.64	37.68	-37.2	-38.5	28.1	3.02e+01	92	38	0	471859200	48	6429
2026-01-01 01:27:26.90	120.38	37.93	-36.9	-38.1	28.5	3.02e+01	91	38	0	473956352	48	6174
2026-01-01 01:27:27.91	120.12	38.19	-37.1	-38.4	28.2	3.02e+01	90	38	0	475529216	48	6383
2026-01-01 01:27:28.92	119.85	38.45	-37.8	-39.1	27.5	3.02e+01	92	38	0	477626368	48	6952
2026-01-01 01:27:29.93	119.57	38.70	-37.9	-39.2	27.5	3.02e+01	92	38	0	479199232	48	6994
2026-01-01 01:27:30.94	119.30	38.96	-37.4	-38.7	28.0	3.02e+01	87	38	0	481296384	48	6600
2026-01-01 01:27:31.95	119.01	39.22	-37.4	-38.7	28.0	3.02e+01	91	38	0	483393536	48	6591
2026-01-01 01:27:32.96	118.73	39.49	-37.4	-38.7	28.0	3.02e+01	90	38	0	484966400	48	6620
2026-01-01 01:27:33.97	118.43	39.75	-37.6	-38.9	27.7	3.02e+01	90	38	0	487063552	48	6774
2026-01-01 01:27:34.98	118.14	40.01	-37.4	-38.7	28.0	3.02e+01	90	38	0	489160704	48	6574
2026-01-01 01:27:35.99	117.83	40.28	-37.5	-38.8	27.9	3.02e+01	91	38	0	490733568	48	6656
2026-01-01 01:27:37.00	117.53	40.55	-37.5	-38.8	27.9	3.02e+01	91	38	0	492830720	48	6657
2026-01-01 01:27:38.01	117.21	40.82	-37.6	-38.8	27.8	3.02e+01	91	38	0	494403584	48	6724
2026-01-01 01:27:39.02	116.89	41.09	-37.2	-38.5	28.1	3.02e+01	91	38	0	496500736	48	6450
2026-01-01 01:27:40.03	116.57	41.36	-37.3	-38.6	28.1	3.02e+01	91	38	0	498597888	48	6541
2026-01-01 01:27:41.04	116.24	41.63	-37.2	-38.4	28.2	3.02e+01	91	37	0	500170752	48	6416
2026-01-01 01:27:42.05	115.91	41.90	-37.1	-38.3	28.3	3.02e+01	91	38	0	502267904	48	6339
2026-01-01 01:27:43.06	115.57	42.17	-36.9	-38.2	28.4	3.02e+01	91	38	0	503840768	48	6211
2026-01-01 01:27:44.07	115.22	42.45	-36.8	-38.0	28.5	3.02e+01	92	38	0	505937920	48	6118
2026-01-01 01:27:45.07	114.87	42.72	-36.9	-38.2	28.4	3.02e+01	91	38	0	508035072	48	6221
2026-01-01 01:27:46.08	114.51	43.00	-36.7	-38.0	28.7	3.02e+01	91	38	0	509607936	48	6065
2026-01-01 01:27:47.09	114.14	43.27	-36.7	-37.9	28.7	3.02e+01	90	38	0	511705088	48	6030
2026-01-01 01:27:48.10	113.77	43.55	-36.6	-37.8	28.8	3.02e+01	91	37	0	513277952	48	5981
2026-01-01 01:27:49.11	113.39	43.83	-36.6	-37.8	28.7	3.02e+01	91	38	0	515375104	48	5991
2026-01-01 01:27:50.12	113.01	44.11	-36.5	-37.8	28.8	3.02e+01	90	38	0	517472256	48	5945
2026-01-01 01:27:51.12	112.62	44.39	-36.5	-37.7	28.7	3.02e+01	90	38	0	519045120	48	5926
2026-01-01 01:27:52.13	112.22	44.67	-36.5	-37.7	28.7	3.02e+01	92	38	0	521142272	48	5916
2026-01-01 01:27:53.14	111.81	44.95	-36.5	-37.8	28.7	3.02e+01	86	37	0	522715136	48	5949
2026-01-01 01:27:54.15	111.40	45.23	-36.7	-38.0	28.4	3.02e+01	90	38	0	524812288	48	6073
2026-01-01 01:27:55.16	110.98	45.51	-36.3	-37.5	29.0	3.02e+01	89	38	0	526909440	48	5734
2026-01-01 01:27:56.17	110.55	45.80	-36.5	-37.7	28.8	3.02e+01	92	37	0	528482304	48	5891
2026-01-01 01:27:57.18	110.11	46.08	-36.5	-37.8	28.7	3.02e+01	92	37	0	530579456	48	5944
2026-01-01 01:27:58.19	109.67	46.36	-36.5	-37.7	28.8	3.02e+01	92	37	0	532152320	48	5920
2026-01-01 01:27:59.20	109.21	46.64	-36.6	-37.8	28.7	3.02e+01	92	37	0	534249472	48	5964
2026-01-01 01:28:00.21	108.75	46.93	-36.4	-37.7	28.9	3.02e+01	92	37	0	536346624	48	5865
2026-01-01 01:28:01.22	108.28	47.21	-36.5	-37.7	28.8	3.02e+01	90	37	0	537919488	48	5904
2026-01-01 01:28:02.23	107.80	47.49	-36.8	-38.1	28.6	3.02e+01	92	37	0	540016640	48	6140
2026-01-01 01:28:03.23	107.32	47.77	-36.6	-37.9	28.6	3.02e+01	92	37	0	542113792	48	6008
2026-01-01 01:28:04.25	106.81	48.06	-36.5	-37.7	28.8	3.02e+01	92	37	0	543686656	48	5882
2026-01-01 01:28:05.26	106.31	48.34	-36.8	-38.0	28.6	3.02e+01	90	37	0	545783808	48	6098
2026-01-01 01:28:06.26	105.79	48.62	-36.7	-38.0	28.5	3.02e+01	92	38	0	547356672	48	6099
2026-01-01 01:28:07.28	105.26	48.90	-36.6	-37.9	28.7	3.02e+01	90	37	0	549453824	48	6012
2026-01-01 01:28:08.28	104.73	49.18	-36.5	-37.7	28.8	3.02e+01	92	37	0	551550976	48	5884
2026-01-01 01:28:09.29	104.19	49.45	-36.4	-37.6	28.9	3.02e+01	92	37	0	553123840	48	5820
2026-01-01 01:28:10.30	103.63	49.73	-36.4	-37.7	28.8	3.02e+01	92	37	0	555220992	48	5872
2026-01-01 01:28:11.31	103.07	50.01	-36.2	-37.5	29.0	3.02e+01	92	37	0	556793856	48	5729
2026-01-01 01:28:12.32	102.49	50.28	-36.4	-37.6	28.9	3.02e+01	90	37	0	558891008	48	5839
2026-01-01 01:28:13.33	101.90	50.56	-36.1	-37.3	29.2	3.02e+01	92	37	0	560988160	48	5625
2026-01-01 01:28:14.34	101.30	50.83	-36.1	-37.3	29.2	3.02e+01	92	37	0	562561024	48	5615
2026-01-01 01:28:15.34	100.70	51.10	-36.1	-37.3	29.1	3.02e+01	92	37	0	564658176	48	5634
2026-01-01 01:28:16.36	100.07	51.37	-36.2	-37.4	29.1	3.02e+01	90	37	0	566231040	48	5678
2026-01-01 01:28:17.36	99.45	51.63	-36.0	-37.2	29.2	3.02e+01	92	37	0	568328192	46	6275
2026-01-01 01:28:18.37	98.81	51.90	-35.7	-36.9	29.5	3.02e+01	92	37	0	570425344	46	6017
2026-01-01 01:28:19.38	98.15	52.16	-35.8	-37.0	29.4	3.02e+01	92	37	0	571998208	46	6092
2026-01-01 01:28:20.39	97.48	52.42	-35.8	-37.0	29.5	3.02e+01	90	37	0	574095360	46	6117
2026-01-01 01:28:21.40	96.80	52.68	-35.7	-36.9	29.5	3.02e+01	92	37	0	575668224	46	6046
2026-01-01 01:28:22.41	96.11	52.93	-35.7	-36.9	29.5	3.02e+01	90	37	0	577765376	46	6061
2026-01-01 01:28:23.42	95.41	53.18	-35.8	-37.0	29.5	3.02e+01	92	37	0	579862528	46	6099
2026-01-01 01:28:24.43	94.70	53.43	-35.6	-36.8	29.6	3.02e+01	90	37	0	581435392	46	5974
2026-01-01 01:28:25.44	93.97	53.68	-35.5	-36.7	29.6	3.02e+01	92	37	0	583532544	46	5887
2026-01-01 01:28:26.45	93.23	53.92	-35.6	-36.8	29.7	3.02e+01	91	37	0	585629696	46	5948
2026-01-01 01:28:27.46	92.48	54.15	-35.9	-37.1	29.3	3.02e+01	92	37	0	587202560	46	6142
2026-01-01 01:28:28.47	91.71	54.39	-35.5	-36.7	29.6	3.02e+01	90	37	0	589299712	46	5879
2026-01-01 01:28:29.48	90.93	54.62	-35.9	-37.2	29.3	3.02e+01	91	37	0	590872576	46	6213
2026-01-01 01:28:30.49	90.14	54.84	-35.9	-37.1	29.4	3.02e+01	89	37	0	592969728	46	6175
2026-01-01 01:28:31.50	89.34	55.06	-35.8	-37.0	29.4	3.02e+01	92	37	0	595066880	46	6099
2026-01-01 01:28:32.50	88.53	55.28	-36.0	-37.2	29.3	3.02e+01	92	37	0	596639744	46	6217
2026-01-01 01:28:33.51	87.71	55.49	-36.0	-37.2	29.2	3.02e+01	92	37	0	598736896	46	6271
2026-01-01 01:28:34.52	86.87	55.69	-36.0	-37.2	29.3	3.02e+01	57	37	0	600309760	46	6225
2026-01-01 01:28:35.53	86.01	55.90	-36.1	-37.3	29.1	3.02e+01	54	37	0	602406912	46	6317
2026-01-01 01:28:36.54	85.15	56.09	-36.2	-37.4	29.1	3.02e+01	59	37	0	604504064	46	6400
2026-01-01 01:28:37.55	84.27	56.28	-36.2	-37.4	29.0	3.02e+01	59	37	0	606076928	46	6394
2026-01-01 01:28:38.56	83.38	56.46	-36.3	-37.5	29.0	3.02e+01	51	37	0	608174080	46	6484
2026-01-01 01:28:39.57	82.48	56.64	-36.5	-37.7	28.8	3.02e+01	58	37	0	609746944	46	6633
2026-01-01 01:28:40.58	81.57	56.81	-36.5	-37.7	28.8	3.02e+01	61	37	0	611844096	46	6607
2026-01-01 01:28:41.59	80.65	56.98	-36.6	-37.9	28.7	3.02e+01	59	37	0	613941248	46	6752
2026-01-01 01:28:42.60	79.71	57.13	-36.7	-38.0	28.6	3.02e+01	57	37	0	615514112	46	6810
2026-01-01 01:28:43.61	78.77	57.29	-37.0	-38.2	28.2	3.02e+01	48	37	0	617611264	48	6273
2026-01-01 01:28:44.61	77.82	57.43	-37.0	-38.3	28.5	3.02e+01	59	37	0	619184128	48	6282
2026-01-01 01:28:45.62	76.85	57.56	-37.3	-38.5	28.1	3.02e+01	57	37	0	621281280	48	6497
2026-01-01 01:28:46.63	75.88	57.69	-37.1	-38.3	28.2	3.02e+01	46	37	0	623378432	48	6335
2026-01-01 01:28:47.64	74.90	57.81	-37.2	-38.5	28.1	3.02e+01	61	37	0	624951296	48	6476
2026-01-01 01:28:48.65	73.90	57.93	-37.2	-38.5	28.3	3.02e+01	60	37	0	627048448	48	6460
2026-01-01 01:28:49.66	72.90	58.03	-37.1	-38.3	28.3	3.02e+01	59	37	0	628621312	48	6323
2026-01-01 01:28:50.67	71.89	58.13	-37.0	-38.3	28.2	3.02e+01	59	37	0	630718464	48	6318
2026-01-01 01:28:51.68	70.88	58.22	-37.0	-38.2	28.3	3.02e+01	57	37	0	632815616	48	6250
2026-01-01 01:28:52.68	69.86	58.30	-37.5	-38.8	27.8	3.02e+01	58	37	0	634388480	48	6651
2026-01-01 01:28:53.69	68.84	58.37	-37.2	-38.5	28.2	3.02e+01	54	37	0	636485632	48	6455
2026-01-01 01:28:54.70	67.80	58.44	-37.3	-38.6	28.0	3.02e+01	44	37	0	638582784	48	6515
2026-01-01 01:28:55.71	66.76	58.49	-37.6	-38.9	27.8	3.02e+01	60	37	0	640155648	48	6742
2026-01-01 01:28:56.72	65.72	58.54	-37.4	-38.7	27.8	3.02e+01	58	37	0	642252800	48	6605
2026-01-01 01:28:57.73	64.68	58.58	-37.5	-38.8	28.0	3.02e+01	60	37	0	643825664	48	6661
2026-01-01 01:28:58.74	63.63	58.61	-37.6	-38.9	27.8	3.02e+01	58	37	0	645922816	48	6758
2026-01-01 01:28:59.75	62.58	58.63	-37.7	-39.0	27.4	3.02e+01	58	37	0	648019968	48	6863
2026-01-01 01:29:00.76	61.53	58.64	-37.5	-38.8	28.0	3.02e+01	57	37	0	649592832	48	6700
2026-01-01 01:29:01.77	60.47	58.64	-37.4	-38.7	27.9	3.02e+01	58	37	0	651689984	48	6589
2026-01-01 01:29:02.78	59.42	58.64	-37.5	-38.7	27.9	3.02e+01	47	37	0	653787136	48	6644
2026-01-01 01:29:03.79	58.37	58.62	-37.6	-38.9	27.8	3.02e+01	59	37	0	655360000	50	6030
2026-01-01 01:29:04.80	57.32	58.60	-37.0	-38.3	28.3	3.02e+01	57	37	0	657457152	50	5611
2026-01-01 01:29:05.81	56.28	58.57	-37.4	-38.7	27.9	3.02e+01	64	37	0	659030016	50	5896
2026-01-01 01:29:06.82	55.23	58.52	-37.6	-38.8	27.9	3.02e+01	60	37	0	661127168	50	5991
2026-01-01 01:29:07.82	54.20	58.47	-37.2	-38.5	28.2	3.02e+01	53	37	0	663224320	50	5740
2026-01-01 01:29:08.83	53.17	58.41	-37.6	-38.9	27.8	3.02e+01	57	37	0	664797184	50	6058
2026-01-01 01:29:09.84	52.13	58.35	-37.6	-38.9	27.8	3.02e+01	60	37	0	666894336	50	6019
2026-01-01 01:29:10.85	51.11	58.27	-37.5	-38.8	27.9	3.02e+01	60	37	0	668467200	50	5929
2026-01-01 01:29:11.86	50.09	58.19	-37.4	-38.7	28.0	3.02e+01	61	37	0	670564352	50	5872
2026-01-01 01:29:12.87	49.08	58.09	-37.7	-39.0	27.7	3.02e+01	53	37	0	672661504	50	6127
2026-01-01 01:29:13.88	48.07	57.99	-37.2	-38.4	28.2	3.02e+01	61	37	0	674234368	50	5698
2026-01-01 01:29:14.89	47.07	57.88	-37.7	-39.0	27.9	3.02e+01	62	37	0	676331520	50	6079
2026-01-01 01:29:15.90	46.09	57.77	-37.5	-38.8	27.9	3.02e+01	43	37	0	677904384	50	5930
2026-01-01 01:29:16.91	45.11	57.64	-37.3	-38.5	28.1	3.02e+01	55	37	0	680001536	50	5759
2026-01-01 01:29:17.92	44.14	57.51	-37.4	-38.7	28.1	3.02e+01	63	37	0	682098688	50	5889
2026-01-01 01:29:18.93	43.18	57.37	-36.8	-38.1	28.5	3.02e+01	57	37	0	683671552	48	6139
2026-01-01 01:29:19.94	42.22	57.22	-36.9	-38.2	28.4	3.02e+01	59	37	0	685768704	48	6208
2026-01-01 01:29:20.95	41.28	57.07	-37.1	-38.4	28.3	3.02e+01	45	37	0	687341568	48	6351
2026-01-01 01:29:21.96	40.36	56.91	-36.8	-38.0	28.6	3.02e+01	58	37	0	689438720	48	6118
2026-01-01 01:29:22.97	39.44	56.74	-36.5	-37.7	28.8	3.02e+01	57	37	0	691535872	48	5879
2026-01-01 01:29:23.98	38.53	56.57	-36.8	-38.0	28.6	3.02e+01	45	37	0	693108736	48	6099
2026-01-01 01:29:24.99	37.64	56.39	-36.6	-37.8	28.7	3.02e+01	57	37	0	695205888	48	5972
2026-01-01 01:29:26.00	36.75	56.20	-36.4	-37.6	29.1	3.02e+01	59	37	0	696778752	48	5826
2026-01-01 01:29:27.00	35.89	56.02	-36.5	-37.7	28.9	3.02e+01	59	37	0	698875904	48	5904
2026-01-01 01:29:28.01	35.03	55.82	-36.6	-37.8	28.7	3.02e+01	59	37	0	700973056	48	5986
2026-01-01 01:29:29.02	34.19	55.62	-36.3	-37.5	29.0	3.02e+01	59	37	0	702545920	48	5746
2026-01-01 01:29:30.03	33.35	55.41	-36.1	-37.3	29.2	3.02e+01	61	37	0	704643072	48	5602
2026-01-01 01:29:31.03	32.54	55.20	-36.7	-38.0	28.5	3.02e+01	58	37	0	706740224	48	6103
2026-01-01 01:29:32.04	31.73	54.98	-36.1	-37.4	29.2	3.02e+01	47	37	0	708313088	48	5661
2026-01-01 01:29:33.05	30.93	54.76	-35.8	-37.0	29.6	3.02e+01	57	37	0	710410240	46	6086
2026-01-01 01:29:34.06	30.15	54.53	-35.6	-36.8	29.6	3.02e+01	58	37	0	711983104	46	5992
2026-01-01 01:29:35.07	29.38	54.30	-35.4	-36.6	29.7	3.02e+01	59	37	0	714080256	46	5845
2026-01-01 01:29:36.08	28.62	54.07	-35.3	-36.5	29.9	3.02e+01	62	37	0	716177408	46	5744
2026-01-01 01:29:37.09	27.87	53.83	-35.3	-36.5	29.9	3.02e+01	50	37	0	717750272	46	5735
2026-01-01 01:29:38.10	27.14	53.58	-35.3	-36.5	29.9	3.02e+01	63	37	0	719847424	46	5736
2026-01-01 01:29:39.11	26.42	53.34	-35.1	-36.3	30.0	3.02e+01	59	37	0	721420288	46	5623
2026-01-01 01:29:40.12	25.71	53.09	-35.5	-36.7	29.7	3.02e+01	49	37	0	723517440	46	5911
2026-01-01 01:29:41.13	25.01	52.84	-35.4	-36.5	29.7	3.02e+01	61	37	0	725614592	46	5789
2026-01-01 01:29:42.14	24.33	52.58	-35.3	-36.4	29.8	3.02e+01	60	37	0	727187456	46	5725
2026-01-01 01:29:43.15	23.65	52.33	-35.5	-36.7	29.7	3.02e+01	55	37	0	729284608	46	5870
2026-01-01 01:29:44.16	22.99	52.07	-35.8	-37.0	29.4	3.02e+01	57	37	0	730857472	46	6124
2026-01-01 01:29:45.17	22.34	51.80	-35.8	-36.9	29.6	3.02e+01	52	37	0	732954624	46	6064
2026-01-01 01:29:46.18	21.71	51.54	-35.7	-36.9	29.5	3.02e+01	59	37	0	735051776	46	6005
2026-01-01 01:29:47.19	21.08	51.27	-36.3	-37.6	28.9	3.02e+01	56	37	0	736624640	46	6516
2026-01-01 01:29:48.20	20.47	51.00	-34.8	-35.9	30.3	3.02e+01	59	37	0	738721792	44	6038
2026-01-01 01:29:49.21	19.86	50.73	-35.2	-36.4	30.0	3.02e+01	57	37	0	740294656	44	6361
2026-01-01 01:29:50.22	19.27	50.46	-35.3	-36.5	29.9	3.02e+01	47	37	0	742391808	44	6464
2026-01-01 01:29:51.23	18.69	50.19	-35.7	-36.9	29.5	3.02e+01	59	37	0	744488960	44	6745
2026-01-01 01:29:52.23	18.12	49.91	-35.7	-36.9	29.5	3.02e+01	61	37	0	746061824	44	6736
2026-01-01 01:29:53.24	17.56	49.64	-35.1	-36.3	29.9	3.02e+01	44	37	0	748158976	44	6279
2026-01-01 01:29:54.25	17.01	49.36	-35.1	-36.2	30.1	3.02e+01	51	37	0	750256128	44	6259
2026-01-01 01:29:55.26	16.47	49.08	-35.6	-36.8	29.5	3.02e+01	59	37	0	751828992	44	6712
2026-01-01 01:29:56.27	15.94	48.80	-35.6	-36.8	29.6	3.02e+01	58	37	0	753926144	44	6667
2026-01-01 01:29:57.28	15.42	48.52	-35.5	-36.7	29.7	3.02e+01	60	37	0	755499008	44	6598
2026-01-01 01:29:58.29	14.91	48.24	-35.5	-36.7	29.8	3.02e+01	44	37	0	757596160	44	6581
2026-01-01 01:29:59.30	14.40	47.96	-35.2	-36.3	29.9	3.02e+01	58	37	0	759693312	44	6325
2026-01-01 01:30:00.31	13.91	47.68	-35.3	-36.4	29.9	3.02e+01	58	37	0	761266176	44	6411
2026-01-01 01:30:01.32	13.43	47.40	-35.8	-37.0	29.3	3.02e+01	45	37	0	763363328	44	6871
2026-01-01 01:30:02.32	12.96	47.12	-35.7	-36.9	29.5	3.02e+01	62	37	0	764936192	46	6048
2026-01-01 01:30:03.33	12.49	46.84	-35.7	-36.9	29.5	3.02e+01	62	37	0	767033344	46	6007
2026-01-01 01:30:04.34	12.03	46.56	-35.3	-36.5	29.9	3.02e+01	58	37	0	769130496	46	5740
2026-01-01 01:30:05.35	11.58	46.27	-35.4	-36.6	29.8	3.02e+01	60	37	0	770703360	46	5820
2026-01-01 01:30:06.36	11.14	45.99	-35.5	-36.6	29.8	3.02e+01	65	37	0	772800512	46	5843
2026-01-01 01:30:07.37	10.71	45.71	-35.5	-36.7	29.8	3.02e+01	59	37	0	774373376	46	5898
2026-01-01 01:30:08.38	10.28	45.43	-35.7	-36.9	29.4	3.02e+01	58	37	0	776470528	46	6024
2026-01-01 01:30:09.39	9.86	45.15	-35.7	-36.9	29.5	3.02e+01	50	37	0	778567680	46	6024
2026-01-01 01:30:10.40	9.45	44.87	-35.8	-36.9	29.5	3.02e+01	58	37	0	780140544	46	6063
2026-01-01 01:30:11.41	9.05	44.59	-35.6	-36.8	29.7	3.02e+01	60	37	0	782237696	46	5935
2026-01-01 01:30:12.42	8.65	44.31	-35.9	-37.1	29.4	3.02e+01	60	37	0	783810560	46	6180
2026-01-01 01:30:13.42	8.27	44.03	-36.2	-37.5	29.0	3.02e+01	54	37	0	785907712	46	6437
2026-01-01 01:30:14.43	7.89	43.75	-36.1	-37.3	29.1	3.02e+01	53	37	0	788004864	46	6296
2026-01-01 01:30:15.44	7.51	43.48	-35.8	-37.0	29.4	3.02e+01	59	37	0	789577728	46	6119
2026-01-01 01:30:16.45	7.14	43.20	-35.8	-37.0	29.5	3.02e+01	48	37	0	791674880	46	6072
2026-01-01 01:30:17.46	6.78	42.92	-36.0	-37.2	29.2	3.02e+01	48	37	0	793247744	46	6255
2026-01-01 01:30:18.47	6.43	42.65	-36.1	-37.3	29.2	3.02e+01	62	37	0	795344896	46	6282
2026-01-01 01:30:19.48	6.08	42.38	-36.6	-37.8	28.7	3.02e+01	56	37	0	797442048	46	6715
2026-01-01 01:30:20.49	5.73	42.10	-36.8	-38.0	28.5	3.02e+01	62	37	0	799014912	46	6864
2026-01-01 01:30:21.50	5.39	41.83	-36.6	-37.8	28.7	3.02e+01	60	37	0	801112064	46	6707
2026-01-01 01:30:22.51	5.06	41.56	-36.6	-37.8	28.8	3.02e+01	51	37	0	803209216	46	6699
2026-01-01 01:30:23.52	4.74	41.29	-37.2	-38.5	28.2	3.02e+01	59	37	0	804782080	48	6469
2026-01-01 01:30:24.53	4.42	41.02	-37.3	-38.6	27.9	3.02e+01	58	37	0	806879232	48	6556
2026-01-01 01:30:25.54	4.10	40.75	-37.0	-38.2	28.3	3.02e+01	58	37	0	808452096	48	6255
2026-01-01 01:30:26.55	3.79	40.48	-37.0	-38.3	28.3	3.02e+01	57	37	0	810549248	48	6304
2026-01-01 01:30:27.55	3.49	40.22	-37.5	-38.8	27.8	3.02e+01	46	37	0	812646400	48	6725
2026-01-01 01:30:28.56	3.19	39.96	-37.8	-39.1	27.6	3.02e+01	60	37	0	814219264	48	6940
2026-01-01 01:30:29.57	2.89	39.69	-37.3	-38.5	27.9	3.02e+01	60	37	0	816316416	48	6492
2026-01-01 01:30:30.58	2.60	39.43	-37.0	-38.3	28.3	3.02e+01	47	37	0	818413568	48	6284
2026-01-01 01:30:31.58	2.32	39.17	-36.9	-38.1	28.5	3.02e+01	62	37	0	819986432	48	6152
2026-01-01 01:30:32.59	2.04	38.91	-37.2	-38.4	28.1	3.02e+01	61	37	0	822083584	48	6395
2026-01-01 01:30:33.60	1.77	38.66	-37.5	-38.8	27.8	3.02e+01	63	37	0	823656448	48	6709
2026-01-01 01:30:34.61	1.49	38.40	-37.9	-39.2	27.5	3.02e+01	56	37	0	825753600	48	7029
2026-01-01 01:30:35.62	1.23	38.14	-38.0	-39.3	27.3	3.02e+01	40	37	0	827326464	50	6312
2026-01-01 01:30:36.62	0.97	37.89	-37.8	-39.1	27.5	3.02e+01	58	37	0	829423616	50	6171
2026-01-01 01:30:37.63	0.71	37.64	-37.1	-38.4	28.2	3.02e+01	59	37	0	831520768	50	5679
2026-01-01 01:30:38.64	0.45	37.39	-37.2	-38.5	28.1	3.02e+01	46	37	0	833093632	50	5740
2026-01-01 01:30:39.65	0.20	37.14	-37.7	-39.0	27.7	3.02e+01	63	37	0	835190784	50	6129
2026-01-01 01:30:40.66	359.96	36.89	-37.6	-38.9	27.7	3.02e+01	57	37	0	836763648	50	6028
2026-01-01 01:30:41.67	359.71	36.64	-37.5	-38.8	27.9	3.02e+01	57	37	0	838860800	50	5972
2026-01-01 01:30:42.68	359.47	36.40	-37.1	-38.4	28.2	3.02e+01	57	37	0	840957952	50	5687
2026-01-01 01:30:43.69	359.24	36.15	-37.2	-38.4	28.2	3.02e+01	56	37	0	842530816	50	5717
2026-01-01 01:30:44.70	359.01	35.91	-37.2	-38.4	28.2	3.02e+01	59	37	0	844627968	50	5714
2026-01-01 01:30:45.71	358.78	35.67	-37.1	-38.4	28.3	3.02e+01	57	37	0	846725120	50	5670
2026-01-01 01:30:46.71	358.56	35.43	-37.1	-38.3	28.2	3.02e+01	44	37	0	848297984	50	5640
2026-01-01 01:30:47.72	358.34	35.19	-36.5	-37.8	28.8	3.02e+01	60	37	0	850395136	48	5929
2026-01-01 01:30:48.73	358.12	34.95	-36.4	-37.6	28.9	3.02e+01	61	37	0	851968000	48	5814
2026-01-01 01:30:49.74	357.90	34.72	-36.3	-37.5	29.0	3.02e+01	62	37	0	854065152	48	5764
2026-01-01 01:30:50.75	357.69	34.48	-36.3	-37.5	28.9	3.02e+01	58	37	0	856162304	48	5753
2026-01-01 01:30:51.76	357.48	34.25	-36.3	-37.5	29.0	3.02e+01	45	37	0	857735168	48	5776
2026-01-01 01:30:52.77	357.28	34.02	-36.3	-37.5	29.0	3.02e+01	57	37	0	859832320	48	5757
2026-01-01 01:30:53.78	357.08	33.79	-36.1	-37.3	29.2	3.02e+01	61	37	0	861405184	48	5603
2026-01-01 01:30:54.79	356.88	33.56	-36.0	-37.3	29.2	3.02e+01	44	37	0	863502336	48	5598
2026-01-01 01:30:55.80	356.68	33.33	-35.8	-37.0	29.4	3.02e+01	57	37	0	865599488	46	6111
2026-01-01 01:30:56.81	356.49	33.11	-35.9	-37.1	29.4	3.02e+01	59	37	0	867172352	46	6154
2026-01-01 01:30:57.82	356.30	32.88	-35.8	-37.0	29.4	3.02e+01	60	37	0	869269504	46	6069
2026-01-01 01:30:58.83	356.11	32.66	-35.7	-36.9	29.5	3.02e+01	60	37	0	871366656	46	6021
2026-01-01 01:30:59.84	355.92	32.44	-35.5	-36.7	29.6	3.02e+01	55	37	0	872939520	46	5890
2026-01-01 01:31:00.85	355.74	32.22	-35.6	-36.7	29.6	3.02e+01	58	37	0	875036672	46	5921
2026-01-01 01:31:01.86	355.56	32.00	-35.5	-36.7	29.7	3.02e+01	61	37	0	876609536	46	5859
2026-01-01 01:31:02.87	355.38	31.78	-35.5	-36.7	29.6	3.02e+01	46	37	0	878706688	46	5912
2026-01-01 01:31:03.88	355.21	31.57	-35.5	-36.7	29.6	3.02e+01	59	37	0	880803840	46	5919
2026-01-01 01:31:04.89	355.04	31.35	-35.5	-36.7	29.6	3.02e+01	54	37	0	882376704	46	5892
2026-01-01 01:31:05.90	354.87	31.14	-35.5	-36.7	29.7	3.02e+01	59	37	0	884473856	46	5902
2026-01-01 01:31:06.91	354.70	30.93	-35.4	-36.5	29.8	3.02e+01	63	37	0	886046720	46	5781
2026-01-01 01:31:07.91	354.54	30.72	-35.5	-36.6	29.7	3.02e+01	51	37	0	888143872	46	5858
2026-01-01 01:31:08.92	354.37	30.51	-35.5	-36.6	29.7	3.02e+01	58	37	0	890241024	46	5858
2026-01-01 01:31:09.93	354.21	30.30	-35.4	-36.6	29.7	3.02e+01	56	37	0	891813888	46	5803
2026-01-01 01:31:10.94	354.05	30.09	-35.3	-36.5	29.8	3.02e+01	59	37	0	893911040	46	5752
2026-01-01 01:31:11.95	353.89	29.89	-35.4	-36.5	29.7	3.02e+01	59	37	0	895483904	46	5785
2026-01-01 01:31:12.96	353.74	29.68	-35.3	-36.5	29.8	3.02e+01	47	37	0	897581056	46	5741
2026-01-01 01:31:13.97	353.59	29.48	-35.3	-36.5	29.7	3.02e+01	56	37	0	899678208	46	5758
2026-01-01 01:31:14.98	353.44	29.28	-35.3	-36.5	29.8	3.02e+01	56	37	0	901251072	46	5760
2026-01-01 01:31:15.98	353.29	29.08	-35.3	-36.5	29.7	3.02e+01	52	37	0	903348224	46	5749
2026-01-01 01:31:17.00	353.14	28.88	-35.3	-36.5	29.7	3.02e+01	56	37	0	904921088	46	5778
2026-01-01 01:31:18.00	353.00	28.69	-35.5	-36.7	29.7	3.02e+01	57	37	0	907018240	46	5873
2026-01-01 01:31:19.02	352.85	28.49	-35.5	-36.7	29.6	3.02e+01	59	37	0	909115392	46	5889
2026-01-01 01:31:20.03	352.71	28.30	-35.6	-36.8	29.6	3.02e+01	59	37	0	910688256	46	5929
2026-01-01 01:31:21.04	352.57	28.10	-35.7	-36.9	29.4	3.02e+01	59	37	0	912785408	46	6033
2026-01-01 01:31:22.04	352.44	27.91	-35.7	-36.9	29.3	3.02e+01	58	37	0	914882560	46	6053
2026-01-01 01:31:23.05	352.30	27.72	-35.7	-37.0	29.4	3.02e+01	61	37	0	916455424	46	6065
2026-01-01 01:31:24.06	352.17	27.53	-35.9	-37.1	29.3	3.02e+01	46	37	0	918552576	46	6205
2026-01-01 01:31:25.07	352.03	27.34	-35.8	-37.0	29.2	3.02e+01	58	37	0	920125440	46	6109
2026-01-01 01:31:26.08	351.90	27.16	-35.8	-37.0	29.3	3.02e+01	63	37	0	922222592	46	6072
2026-01-01 01:31:27.09	351.77	26.97	-35.8	-37.0	29.3	3.02e+01	58	37	0	924319744	46	6080
2026-01-01 01:31:28.10	351.65	26.79	-35.8	-37.0	29.3	3.02e+01	57	37	0	925892608	46	6100
2026-01-01 01:31:29.11	351.52	26.60	-35.7	-36.9	29.3	3.02e+01	53	37	0	927989760	46	6056
2026-01-01 01:31:30.12	351.40	26.42	-35.9	-37.1	29.4	3.02e+01	60	37	0	929562624	46	6139
2026-01-01 01:31:31.13	351.27	26.24	-35.9	-37.1	29.3	3.02e+01	60	37	0	931659776	46	6144
2026-01-01 01:31:32.14	351.15	26.06	-35.8	-37.0	29.3	3.02e+01	46	37	0	933756928	46	6094
2026-01-01 01:31:33.15	351.03	25.88	-35.9	-37.1	29.2	3.02e+01	60	37	0	935329792	46	6173
2026-01-01 01:31:34.16	350.91	25.70	-35.9	-37.1	29.3	3.02e+01	58	37	0	937426944	46	6159
2026-01-01 01:31:35.17	350.79	25.53	-35.9	-37.1	29.2	3.02e+01	59	37	0	939524096	46	6205
2026-01-01 01:31:36.18	350.68	25.35	-35.9	-37.1	29.2	3.02e+01	52	37	0	941096960	46	6201
2026-01-01 01:31:37.19	350.56	25.18	-36.1	-37.3	29.1	3.02e+01	53	37	0	943194112	46	6294
2026-01-01 01:31:38.20	350.45	25.00	-36.2	-37.4	29.0	3.02e+01	57	37	0	944766976	46	6378
2026-01-01 01:31:39.21	350.34	24.83	-36.4	-37.6	28.8	3.02e+01	61	37	0	946864128	46	6547
2026-01-01 01:31:40.22	350.23	24.66	-36.3	-37.5	28.8	3.02e+01	47	37	0	948436992	46	6488
2026-01-01 01:31:41.22	350.12	24.49	-36.4	-37.7	28.8	3.02e+01	57	37	0	950534144	46	6587
2026-01-01 01:31:42.23	350.01	24.32	-36.2	-37.4	28.9	3.02e+01	44	37	0	952631296	46	6421
2026-01-01 01:31:43.24	349.91	24.15	-36.3	-37.5	28.8	3.02e+01	60	37	0	954204160	46	6463
2026-01-01 01:31:44.25	349.80	23.99	-36.3	-37.6	28.8	3.02e+01	59	37	0	956301312	46	6522
2026-01-01 01:31:45.26	349.70	23.82	-36.0	-37.2	29.1	3.02e+01	45	37	0	957874176	46	6264
2026-01-01 01:31:46.27	349.59	23.66	-36.1	-37.3	29.1	3.02e+01	58	37	0	959971328	46	6336
2026-01-01 01:31:47.28	349.49	23.49	-36.1	-37.3	29.1	3.02e+01	60	37	0	962068480	46	6346
2026-01-01 01:31:48.29	349.39	23.33	-36.1	-37.3	29.1	3.02e+01	57	37	0	963641344	46	6301
2026-01-01 01:31:49.30	349.29	23.17	-36.2	-37.4	29.0	3.02e+01	59	37	0	965738496	46	6413
2026-01-01 01:31:50.31	349.19	23.01	-36.2	-37.5	28.9	3.02e+01	54	37	0	967835648	46	6430
2026-01-01 01:31:51.32	349.10	22.85	-36.3	-37.5	28.9	3.02e+01	60	37	0	969408512	46	6475
2026-01-01 01:31:52.33	349.00	22.69	-36.2	-37.4	28.9	3.02e+01	58	37	0	971505664	46	6414
2026-01-01 01:31:53.34	348.90	22.53	-36.3	-37.5	28.8	3.02e+01	53	37	0	973078528	46	6487
2026-01-01 01:31:54.35	348.81	22.38	-36.3	-37.6	28.8	3.02e+01	59	37	0	975175680	46	6516
2026-01-01 01:31:55.36	348.72	22.22	-36.3	-37.5	28.8	3.02e+01	56	37	0	977272832	46	6490
2026-01-01 01:31:56.37	348.62	22.07	-36.4	-37.6	28.7	3.02e+01	60	37	0	978845696	46	6528
2026-01-01 01:31:57.37	348.53	21.91	-36.1	-37.3	29.0	3.02e+01	58	37	0	980942848	46	6338
2026-01-01 01:31:58.38	348.44	21.76	-36.3	-37.5	28.9	3.02e+01	61	37	0	983040000	46	6460
2026-01-01 01:31:59.39	348.35	21.61	-36.2	-37.4	28.9	3.02e+01	60	37	0	984612864	46	6404
2026-01-01 01:32:00.40	348.27	21.46	-36.4	-37.6	28.7	3.02e+01	59	37	0	986710016	46	6537
2026-01-01 01:32:01.41	348.18	21.31	-36.3	-37.5	28.8	3.02e+01	45	37	0	988282880	46	6451
2026-01-01 01:32:02.42	348.09	21.16	-36.3	-37.5	28.8	3.02e+01	58	37	0	990380032	46	6461
2026-01-01 01:32:03.43	348.01	21.01	-36.4	-37.6	28.8	3.02e+01	58	37	0	992477184	46	6533
2026-01-01 01:32:04.44	347.92	20.86	-36.4	-37.6	28.8	3.02e+01	58	37	0	994050048	46	6544
2026-01-01 01:32:05.45	347.84	20.72	-36.3	-37.5	28.8	3.02e+01	61	37	0	996147200	46	6454
2026-01-01 01:32:06.46	347.76	20.57	-36.2	-37.5	28.8	3.02e+01	47	37	0	997720064	46	6435
2026-01-01 01:32:07.47	347.67	20.43	-36.2	-37.4	28.9	3.02e+01	60	37	0	999817216	46	6366
2026-01-01 01:32:08.48	347.59	20.28	-36.1	-37.3	28.9	3.02e+01	61	37	0	1001914368	46	6342
2026-01-01 01:32:09.49	347.51	20.14	-36.1	-37.3	29.0	3.02e+01	47	37	0	1003487232	46	6342
2026-01-01 01:32:10.50	347.43	20.00	-36.1	-37.3	29.0	3.02e+01	60	37	0	1005584384	46	6311
2026-01-01 01:32:11.50	347.35	19.86	-36.1	-37.3	28.9	3.02e+01	59	37	0	1007157248	46	6312
2026-01-01 01:32:12.51	347.28	19.72	-36.2	-37.5	28.9	3.02e+01	60	37	0	1009254400	46	6436
2026-01-01 01:32:13.52	347.20	19.58	-36.2	-37.4	28.9	3.02e+01	59	37	0	1011351552	46	6383
2026-01-01 01:32:14.53	347.12	19.44	-36.1	-37.3	28.9	3.02e+01	42	37	0	1012924416	46	6343
2026-01-01 01:32:15.54	347.05	19.30	-36.2	-37.4	28.9	3.02e+01	58	37	0	1015021568	46	6387
2026-01-01 01:32:16.55	346.97	19.16	-36.2	-37.5	28.8	3.02e+01	59	37	0	1016594432	46	6432
2026-01-01 01:32:17.56	346.90	19.02	-36.1	-37.3	28.9	3.02e+01	57	37	0	1018691584	46	6322
2026-01-01 01:32:18.56	346.82	18.89	-36.2	-37.5	28.7	3.02e+01	59	37	0	1020788736	46	6441
2026-01-01 01:32:19.57	346.75	18.75	-36.1	-37.3	28.9	3.02e+01	44	37	0	1022361600	46	6304
2026-01-01 01:32:20.58	346.68	18.62	-36.1	-37.4	28.8	3.02e+01	58	37	0	1024458752	46	6367
2026-01-01 01:32:21.59	346.61	18.49	-36.2	-37.5	28.8	3.02e+01	59	37	0	1026031616	46	6435
2026-01-01 01:32:22.60	346.54	18.35	-36.1	-37.3	29.0	3.02e+01	52	37	0	1028128768	46	6306
2026-01-01 01:32:23.61	346.47	18.22	-36.2	-37.5	28.8	3.02e+01	59	37	0	1030225920	46	6437
2026-01-01 01:32:24.62	346.40	18.09	-36.1	-37.3	29.0	3.02e+01	58	37	0	1031798784	46	6302
2026-01-01 01:32:25.63	346.33	17.96	-36.0	-37.2	29.0	3.02e+01	62	37	0	1033895936	46	6274
2026-01-01 01:32:26.64	346.26	17.83	-35.8	-37.0	29.1	3.02e+01	58	37	0	1035993088	46	6127
2026-01-01 01:32:27.65	346.20	17.70	-35.8	-37.0	29.3	3.02e+01	46	37	0	1037565952	46	6069
2026-01-01 01:32:28.66	346.13	17.57	-35.8	-37.1	29.2	3.02e+01	63	37	0	1039663104	46	6137
2026-01-01 01:32:29.67	346.06	17.44	-35.8	-37.0	29.2	3.02e+01	59	37	0	1041235968	46	6102
2026-01-01 01:32:30.68	346.00	17.32	-35.9	-37.1	29.1	3.02e+01	52	37	0	1043333120	46	6167
2026-01-01 01:32:31.69	345.93	17.19	-35.8	-37.0	29.2	3.02e+01	59	37	0	1045430272	46	6120
2026-01-01 01:32:32.70	345.87	17.06	-35.9	-37.1	29.1	3.02e+01	58	37	0	1047003136	46	6181
2026-01-01 01:32:33.70	345.81	16.94	-36.0	-37.2	29.0	3.02e+01	58	37	0	1049100288	46	6232
2026-01-01 01:32:34.71	345.74	16.82	-35.9	-37.2	29.0	3.02e+01	60	37	0	1050673152	46	6206
2026-01-01 01:32:35.72	345.68	16.69	-36.1	-37.3	29.0	3.02e+01	59	37	0	1052770304	46	6308
2026-01-01 01:32:36.73	345.62	16.57	-36.0	-37.2	29.0	3.02e+01	50	37	0	1054867456	46	6233
2026-01-01 01:32:37.74	345.56	16.45	-36.0	-37.3	29.0	3.02e+01	59	37	0	1056440320	46	6281
2026-01-01 01:32:38.75	345.50	16.32	-36.1	-37.3	28.9	3.02e+01	52	37	0	1058537472	46	6300
2026-01-01 01:32:39.76	345.44	16.20	-36.2	-37.4	28.9	3.02e+01	52	37	0	1060110336	46	6421
2026-01-01 01:32:40.77	345.38	16.08	-36.1	-37.4	28.8	3.02e+01	59	37	0	1062207488	46	6361
2026-01-01 01:32:41.78	345.32	15.96	-36.1	-37.3	28.8	3.02e+01	59	37	0	1064304640	46	6302
2026-01-01 01:32:42.79	345.26	15.84	-36.3	-37.5	28.7	3.02e+01	59	37	0	1065877504	46	6466
2026-01-01 01:32:43.80	345.20	15.72	-36.1	-37.4	28.8	3.02e+01	56	37	0	1067974656	46	6351
2026-01-01 01:32:44.81	345.14	15.61	-36.3	-37.6	28.6	3.02e+01	57	37	0	1069547520	46	6516
2026-01-01 01:32:45.82	345.09	15.49	-36.1	-37.3	28.9	3.02e+01	59	37	0	1071644672	46	6333
2026-01-01 01:32:46.82	345.03	15.37	-36.1	-37.3	28.9	3.02e+01	46	37	0	1073741824	46	6312
2026-01-01 01:32:47.83	344.98	15.26	-36.2	-37.4	28.7	3.02e+01	59	37	0	1075314688	46	6402
2026-01-01 01:32:48.84	344.92	15.14	-36.1	-37.4	28.7	3.02e+01	60	37	0	1077411840	46	6371
2026-01-01 01:32:49.85	344.87	15.03	-36.1	-37.3	28.8	3.02e+01	61	37	0	1079508992	46	6333
2026-01-01 01:32:50.86	344.81	14.91	-36.1	-37.3	28.9	3.02e+01	58	37	0	1081081856	46	6313
2026-01-01 01:32:51.87	344.76	14.80	-36.2	-37.4	28.7	3.02e+01	55	37	0	1083179008	46	6390
2026-01-01 01:32:52.88	344.70	14.68	-36.3	-37.6	28.6	3.02e+01	58	37	0	1084751872	46	6529
2026-01-01 01:32:53.89	344.65	14.57	-36.1	-37.4	28.7	3.02e+01	60	37	0	1086849024	46	6369
2026-01-01 01:32:54.89	344.60	14.46	-36.2	-37.4	28.7	3.02e+01	60	37	0	1088946176	46	6419
2026-01-01 01:32:55.90	344.55	14.35	-36.1	-37.3	28.8	3.02e+01	60	37	0	1090519040	46	6329
2026-01-01 01:32:56.91	344.49	14.24	-36.2	-37.5	28.7	3.02e+01	44	37	0	1092616192	46	6446
2026-01-01 01:32:57.92	344.44	14.12	-36.3	-37.5	28.6	3.02e+01	60	38	0	1094189056	46	6490
2026-01-01 01:32:58.93	344.39	14.01	-36.1	-37.3	28.8	3.02e+01	61	37	0	1096286208	46	6310
2026-01-01 01:32:59.94	344.34	13.90	-36.1	-37.4	28.7	3.02e+01	44	37	0	1098383360	46	6367
2026-01-01 01:33:00.95	344.29	13.80	-36.1	-37.4	28.8	3.02e+01	58	37	0	1099956224	46	6356
2026-01-01 01:33:01.96	344.24	13.69	-36.2	-37.4	28.8	3.02e+01	58	37	0	1102053376	46	6405
2026-01-01 01:33:02.97	344.19	13.58	-36.2	-37.4	28.7	3.02e+01	60	37	0	1103626240	46	6395
2026-01-01 01:33:03.98	344.14	13.47	-36.1	-37.4	28.8	3.02e+01	58	37	0	1105723392	46	6358
2026-01-01 01:33:04.99	344.10	13.36	-36.2	-37.5	28.7	3.02e+01	50	37	0	1107820544	46	6450
2026-01-01 01:33:05.99	344.05	13.26	-36.2	-37.4	28.7	3.02e+01	59	37	0	1109393408	46	6416
2026-01-01 01:33:07.00	344.00	13.15	-36.3	-37.6	28.6	3.02e+01	62	37	0	1111490560	46	6528
2026-01-01 01:33:08.01	343.95	13.05	-36.3	-37.5	28.6	3.02e+01	45	37	0	1113063424	46	6461
2026-01-01 01:33:09.02	343.91	12.94	-36.2	-37.5	28.7	3.02e+01	62	37	0	1115160576	46	6425
2026-01-01 01:33:10.03	343.86	12.84	-36.2	-37.4	28.6	3.02e+01	57	37	0	1117257728	46	6416
2026-01-01 01:33:11.04	343.82	12.73	-36.3	-37.5	28.6	3.02e+01	61	37	0	1118830592	46	6479
2026-01-01 01:33:12.05	343.77	12.63	-36.8	-46.9	3.6	3.02e+01	0	38	104	1119354880	48	17012
2026-01-01 01:33:13.06	343.72	12.53	-36.9	-47.0	3.6	3.02e+01	0	37	104	1119354880	48	17146
2026-01-01 01:33:14.07	343.68	12.42	-36.7	-46.7	3.4	3.02e+01	0	37	104	1119354880	48	16651
2026-01-01 01:33:15.08	343.64	12.32	-39.2	-49.3	3.6	3.02e+01	0	37	104	1119354880	52	17892
2026-01-01 01:33:16.09	343.59	12.22	-39.2	-49.3	3.6	3.02e+01	0	37	104	1119354880	50	19883
2026-01-01 01:33:17.10	343.55	12.12	-48.7	-64.7	3.5	3.02e+01	0	37	104	1119354880	60	66032
2026-01-01 01:33:18.11	343.50	12.02	-41.0	-51.3	3.6	3.02e+01	0	38	104	1119354880	56	17794
2026-01-01 01:33:19.12	343.46	11.92	-49.1	-66.5	3.5	3.02e+01	0	37	104	1119354880	60	80943
2026-01-01 01:33:20.13	343.42	11.82	-39.9	-50.2	3.6	3.02e+01	0	37	104	1119354880	56	15588
2026-01-01 01:33:21.14	343.38	11.72	-39.5	-49.8	3.6	3.02e+01	0	38	104	1119354880	54	16739
2026-01-01 01:33:22.15	343.33	11.62	-39.5	-49.8	3.6	3.02e+01	0	37	104	1119354880	54	16729
2026-01-01 01:33:23.16	343.29	11.52	-39.6	-49.8	3.6	3.02e+01	0	37	104	1119354880	54	16880
2026-01-01 01:33:24.16	343.25	11.42	-43.4	-54.1	3.6	3.02e+01	0	37	104	1119354880	60	19605
2026-01-01 01:33:25.17	343.21	11.32	-40.8	-51.2	3.6	3.02e+01	0	38	104	1119354880	58	15718
2026-01-01 01:33:26.18	343.17	11.22	-49.0	-66.5	3.5	3.02e+01	0	38	104	1119354880	60	81412
2026-01-01 01:33:27.19	343.13	11.13	-48.6	-64.1	3.5	3.02e+01	0	37	104	1119354880	60	61683
2026-01-01 01:33:28.20	343.09	11.03	-39.6	-49.9	4.1	3.02e+01	0	38	104	1119354880	54	17023
2026-01-01 01:33:29.21	343.05	10.93	-38.2	-48.4	4.1	3.02e+01	0	38	104	1119354880	52	15962
2026-01-01 01:33:30.22	343.01	10.84	-37.8	-48.1	3.4	3.02e+01	0	37	104	1119354880	52	15493
2026-01-01 01:33:31.23	342.97	10.74	-37.6	-47.8	3.8	3.02e+01	0	37	104	1119354880	50	16774
2026-01-01 01:33:32.23	342.93	10.65	-37.3	-47.4	4.1	3.02e+01	0	38	104	1119354880	50	16113
2026-01-01 01:33:33.24	342.89	10.55	-37.2	-47.4	3.6	3.02e+01	0	37	104	1119354880	50	16004
2026-01-01 01:33:34.25	342.86	10.46	-39.4	-49.8	3.5	3.02e+01	0	38	104	1119354880	54	16773
2026-01-01 01:33:35.26	342.82	10.37	-48.7	-64.4	3.5	3.02e+01	0	38	104	1119354880	60	63572
2026-01-01 01:33:36.27	342.78	10.27	-39.2	-49.6	3.5	3.02e+01	0	37	104	1119354880	54	16460
2026-01-01 01:33:37.28	342.74	10.18	-48.4	-63.4	3.5	3.02e+01	0	38	104	1119354880	60	56995
2026-01-01 01:33:38.29	342.71	10.09	-37.9	-48.2	3.4	3.02e+01	0	38	104	1119354880	52	15592
2026-01-01 01:33:39.30	342.67	9.99	-37.4	-47.6	3.5	3.02e+01	0	38	104	1119354880	50	16340
2026-01-01 01:33:40.31	342.63	9.90	-37.5	-47.6	3.5	3.02e+01	0	38	104	1119354880	50	16406
2026-01-01 01:33:41.32	342.60	9.81	-37.2	-47.3	3.6	3.02e+01	0	37	104	1119354880	50	15902
2026-01-01 01:33:42.32	342.56	9.72	-39.9	-50.2	3.5	3.02e+01	0	37	104	1119354880	56	15591
2026-01-01 01:33:43.33	342.52	9.63	-38.5	-48.7	3.5	3.02e+01	0	37	104	1119354880	54	14828
