passes_logs/2026/01/01/R4.6S_Anadyr/R4.6S_Anadyr__20260101_223705_TY-42_rec.log

#Pass ID: 20260101_223705_TY-42
#Satellite: TY-42
#Configuration: TY-42_900M
#almurnet v.1.7.20251203
#Start time: 2026-01-01 22:37:35

#Version: 2.2.20231116
#Station: R4.6S_Anadyr
#Location: 177.4865 lon 64.73178 lat
#TLE: 1 64048U 25103A   26001.66820602  .00008015  00000-0  38191-3 0 09991
#TLE: 2 64048 097.4120 077.3378 0001817 093.9765 301.2032 15.19188665 34792

#Time	Az	El	Level	Level2	SNR	BER	BlckErr	Temp	State	Recorded	gain1	gain2
2026-01-01 22:37:35.64	21.07	1.90	-49.3	-61.8	3.4	1.52e+00	0	36	0	0	60	42977
2026-01-01 22:37:36.65	21.13	1.97	-48.2	-50.7	6.1	0.00e+00	0	38	104	0	60	42115
2026-01-01 22:37:37.66	21.18	2.03	-48.2	-50.8	6.1	0.00e+00	0	38	104	0	60	42275
2026-01-01 22:37:38.67	21.24	2.10	-48.2	-50.7	6.1	0.00e+00	0	38	104	0	60	42093
2026-01-01 22:37:39.68	21.30	2.17	-48.2	-50.7	6.1	0.00e+00	0	38	104	0	60	41818
2026-01-01 22:37:40.69	21.35	2.23	-48.2	-50.7	6.1	0.00e+00	0	38	104	0	60	41852
2026-01-01 22:37:41.70	21.41	2.30	-48.2	-50.7	6.1	0.00e+00	0	38	104	0	60	42074
2026-01-01 22:37:42.71	21.47	2.37	-48.2	-50.7	6.1	0.00e+00	0	38	104	0	60	41885
2026-01-01 22:37:43.72	21.53	2.44	-48.2	-50.7	6.1	0.00e+00	0	38	104	0	60	41831
2026-01-01 22:37:44.73	21.59	2.50	-48.2	-50.7	6.1	0.00e+00	0	38	104	0	60	41826
2026-01-01 22:37:45.74	21.64	2.57	-48.2	-50.7	6.0	0.00e+00	0	38	104	0	60	42010
2026-01-01 22:37:46.75	21.70	2.64	-48.2	-50.7	6.1	0.00e+00	0	39	104	0	60	41898
2026-01-01 22:37:47.76	21.76	2.71	-48.2	-50.7	6.1	0.00e+00	0	38	104	0	60	41866
2026-01-01 22:37:48.77	21.82	2.78	-48.2	-50.7	6.1	0.00e+00	0	39	104	0	60	41904
2026-01-01 22:37:49.78	21.88	2.85	-48.2	-50.7	6.1	0.00e+00	0	39	104	0	60	41951
2026-01-01 22:37:50.79	21.94	2.92	-48.2	-50.7	6.1	0.00e+00	0	39	104	0	60	41991
2026-01-01 22:37:51.79	22.00	2.99	-48.2	-50.7	6.1	0.00e+00	0	39	104	0	60	42038
2026-01-01 22:37:52.80	22.07	3.06	-48.2	-50.7	6.1	0.00e+00	0	38	104	0	60	41833
2026-01-01 22:37:53.81	22.13	3.13	-48.2	-50.6	6.1	0.00e+00	0	39	104	0	60	41560
2026-01-01 22:37:54.82	22.19	3.20	-48.2	-50.6	6.0	0.00e+00	0	39	104	0	60	41552
2026-01-01 22:37:55.83	22.25	3.27	-48.1	-50.5	6.1	0.00e+00	0	39	104	0	60	41178
2026-01-01 22:37:56.84	22.31	3.34	-48.1	-50.5	6.1	0.00e+00	0	39	104	0	60	41080
2026-01-01 22:37:57.85	22.38	3.41	-48.1	-50.5	6.1	0.00e+00	0	39	104	0	60	41085
2026-01-01 22:37:58.86	22.44	3.48	-29.7	-30.0	11.5	0.00e+00	849	39	104	0	34	17286
2026-01-01 22:37:59.87	22.50	3.55	-29.5	-29.9	15.0	0.00e+00	0	39	0	8388608	34	17193
2026-01-01 22:38:00.88	22.57	3.62	-30.2	-30.6	14.8	6.62e-02	0	39	0	125829120	34	18595
2026-01-01 22:38:01.89	22.63	3.69	-31.2	-31.6	14.4	6.62e-02	0	39	0	234881024	36	18588
2026-01-01 22:38:02.90	22.70	3.76	-33.7	-34.1	13.1	6.62e-02	0	39	0	343932928	40	19663
2026-01-01 22:38:03.91	22.76	3.84	-36.6	-36.9	11.3	3.53e-02	2571	39	0	469762048	46	19268
2026-01-01 22:38:04.92	22.83	3.91	-29.9	-30.3	14.8	3.53e-02	0	39	0	578813952	36	15958
2026-01-01 22:38:05.93	22.89	3.98	-29.6	-30.0	15.0	1.02e-01	0	39	0	687865856	34	17273
2026-01-01 22:38:06.94	22.96	4.05	-46.7	-48.5	6.2	1.02e-01	0	39	104	763363328	60	32551
2026-01-01 22:38:07.95	23.03	4.13	-38.0	-38.5	10.0	0.00e+00	363	39	104	763363328	52	16240
2026-01-01 22:38:08.96	23.09	4.20	-42.4	-43.2	7.3	0.00e+00	1098	39	104	763363328	52	27982
2026-01-01 22:38:09.96	23.16	4.27	-31.9	-32.2	11.3	0.00e+00	15	39	104	763363328	40	15718
2026-01-01 22:38:10.97	23.23	4.35	-31.7	-32.0	14.3	0.00e+00	0	39	0	771751936	38	17358
2026-01-01 22:38:11.98	23.30	4.42	-31.2	-31.6	14.2	5.08e-02	0	39	0	889192448	38	16608
2026-01-01 22:38:12.99	23.37	4.49	-31.4	-31.8	14.0	5.08e-02	0	39	0	998244352	38	16912
2026-01-01 22:38:14.00	23.44	4.57	-31.1	-31.5	14.5	5.08e-02	0	39	0	1107296256	38	16268
2026-01-01 22:38:15.01	23.51	4.64	-31.5	-31.9	14.3	1.80e-02	0	39	0	1233125376	36	19118
2026-01-01 22:38:16.02	23.58	4.72	-30.8	-31.2	14.7	1.80e-02	0	39	0	1342177280	36	17615
2026-01-01 22:38:17.03	23.65	4.79	-29.6	-30.0	15.1	1.30e-02	0	39	0	1451229184	34	17374
2026-01-01 22:38:18.04	23.72	4.87	-30.0	-30.3	14.9	4.65e-03	0	39	0	1568669696	34	17983
2026-01-01 22:38:19.05	23.79	4.94	-29.3	-29.7	15.3	4.65e-03	0	39	0	1677721600	34	16629
2026-01-01 22:38:20.06	23.86	5.02	-28.9	-29.2	15.4	3.29e-03	0	40	0	1795162112	34	15858
2026-01-01 22:38:21.07	23.93	5.10	-28.9	-29.3	15.4	3.29e-03	0	40	0	1912602624	32	17819
2026-01-01 22:38:22.08	24.00	5.17	-28.9	-29.2	15.5	1.72e-03	0	40	0	2021654528	32	17762
2026-01-01 22:38:23.09	24.08	5.25	-28.9	-29.3	15.4	1.72e-03	0	40	0	2130706432	32	17910
2026-01-01 22:38:24.10	24.15	5.33	-28.7	-29.1	15.5	1.12e-03	0	40	0	2248146944	32	17496
2026-01-01 22:38:25.11	24.22	5.40	-28.9	-29.3	15.5	1.62e-03	0	40	0	2365587456	32	17810
2026-01-01 22:38:26.12	24.30	5.48	-29.1	-29.5	15.4	1.62e-03	0	40	0	2474639360	32	18312
2026-01-01 22:38:27.12	24.37	5.56	-29.0	-29.3	15.4	1.94e-03	0	40	0	2592079872	32	17978
2026-01-01 22:38:28.13	24.45	5.64	-28.5	-28.9	15.5	1.94e-03	0	40	0	2701131776	32	17144
2026-01-01 22:38:29.14	24.52	5.72	-28.1	-28.5	15.7	1.44e-03	0	40	0	2818572288	32	16363
2026-01-01 22:38:30.15	24.60	5.79	-28.3	-28.7	15.8	1.44e-03	0	40	0	2927624192	32	16728
2026-01-01 22:38:31.16	24.68	5.87	-28.2	-28.5	15.9	1.44e-03	0	40	0	3045064704	32	16416
2026-01-01 22:38:32.17	24.76	5.95	-28.3	-28.7	15.9	6.92e-04	0	40	0	3162505216	32	16739
2026-01-01 22:38:33.18	24.83	6.03	-28.3	-28.7	15.8	6.92e-04	0	40	0	3271557120	32	16745
2026-01-01 22:38:34.19	24.91	6.11	-28.0	-28.4	16.0	7.46e-04	0	40	0	3380609024	32	16144
2026-01-01 22:38:35.20	24.99	6.19	-28.1	-28.5	16.0	4.20e-04	0	40	0	3498049536	32	16334
2026-01-01 22:38:36.21	25.07	6.27	-28.5	-28.8	15.8	4.20e-04	0	40	0	3615490048	32	16980
2026-01-01 22:38:37.22	25.15	6.35	-28.3	-28.7	15.8	8.01e-04	0	40	0	3724541952	32	16721
2026-01-01 22:38:38.22	25.23	6.43	-28.1	-28.5	15.9	8.01e-04	0	40	0	3841982464	32	16302
2026-01-01 22:38:39.24	25.31	6.51	-28.1	-28.5	16.0	3.65e-04	0	40	0	3951034368	32	16340
2026-01-01 22:38:40.25	25.39	6.60	-28.4	-28.8	15.9	3.65e-04	0	40	0	4060086272	32	16839
2026-01-01 22:38:41.26	25.47	6.68	-28.1	-28.5	16.0	5.94e-04	0	40	0	4177526784	32	16398
2026-01-01 22:38:42.26	25.56	6.76	-28.3	-28.7	15.9	5.94e-04	0	40	0	4294967296	32	16756
2026-01-01 22:38:43.27	25.64	6.84	-27.8	-28.2	16.0	5.94e-04	0	40	0	4404019200	32	15832
2026-01-01 22:38:44.28	25.72	6.92	-27.8	-28.1	16.1	4.63e-04	0	40	0	4521459712	32	15677
2026-01-01 22:38:45.29	25.81	7.01	-27.9	-28.3	16.1	4.14e-04	0	40	0	4630511616	30	17894
2026-01-01 22:38:46.30	25.89	7.09	-27.8	-28.2	16.2	4.14e-04	0	40	0	4747952128	30	17791
2026-01-01 22:38:47.31	25.98	7.17	-27.7	-28.1	16.2	2.51e-04	0	40	0	4865392640	30	17560
2026-01-01 22:38:48.32	26.06	7.26	-27.6	-28.0	16.2	2.51e-04	0	40	0	4974444544	30	17299
2026-01-01 22:38:49.33	26.15	7.34	-27.7	-28.1	16.2	1.63e-04	0	40	0	5091885056	30	17464
2026-01-01 22:38:50.34	26.24	7.43	-27.5	-27.9	16.2	1.63e-04	0	40	0	5200936960	30	17079
2026-01-01 22:38:51.35	26.32	7.51	-27.5	-27.9	16.3	2.07e-04	0	40	0	5309988864	30	17127
2026-01-01 22:38:52.36	26.41	7.60	-27.6	-28.0	16.2	2.07e-04	0	40	0	5427429376	30	17253
2026-01-01 22:38:53.37	26.50	7.68	-27.5	-27.9	16.3	1.42e-04	0	40	0	5544869888	30	17165
2026-01-01 22:38:54.38	26.59	7.77	-27.5	-27.9	16.2	1.42e-04	0	40	0	5653921792	30	17015
2026-01-01 22:38:55.38	26.68	7.86	-27.6	-28.0	16.2	1.42e-04	0	40	0	5771362304	30	17319
2026-01-01 22:38:56.40	26.77	7.94	-27.5	-27.8	16.3	1.36e-04	0	40	0	5880414208	30	16955
2026-01-01 22:38:57.40	26.86	8.03	-27.1	-27.5	16.4	1.42e-04	0	40	0	5989466112	30	16370
2026-01-01 22:38:58.41	26.95	8.12	-27.6	-28.0	16.3	1.42e-04	0	40	0	6115295232	30	17328
2026-01-01 22:38:59.42	27.05	8.20	-27.3	-27.7	16.3	1.69e-04	0	40	0	6224347136	30	16632
2026-01-01 22:39:00.43	27.14	8.29	-27.1	-27.5	16.4	1.69e-04	0	40	0	6333399040	30	16356
2026-01-01 22:39:01.44	27.23	8.38	-26.9	-27.3	16.4	1.69e-04	0	40	0	6450839552	30	15996
2026-01-01 22:39:02.45	27.33	8.47	-27.1	-27.5	16.4	7.62e-05	0	40	0	6559891456	30	16408
2026-01-01 22:39:03.46	27.42	8.56	-27.0	-27.4	16.4	4.90e-05	0	40	0	6677331968	30	16203
2026-01-01 22:39:04.47	27.52	8.65	-26.9	-27.3	16.4	4.90e-05	0	40	0	6794772480	30	15932
2026-01-01 22:39:05.48	27.62	8.74	-26.9	-27.3	16.4	4.35e-05	0	40	0	6903824384	30	15997
2026-01-01 22:39:06.49	27.71	8.83	-26.9	-27.3	16.5	4.35e-05	0	40	0	7021264896	30	15904
2026-01-01 22:39:07.50	27.81	8.92	-26.7	-27.1	16.5	2.17e-05	0	40	0	7130316800	28	17550
2026-01-01 22:39:08.51	27.91	9.01	-26.5	-26.9	16.6	2.17e-05	0	40	0	7247757312	28	17152
2026-01-01 22:39:09.52	28.01	9.10	-26.6	-27.0	16.5	4.90e-05	0	40	0	7356809216	28	17217
2026-01-01 22:39:10.52	28.11	9.19	-26.6	-27.0	16.5	4.90e-05	0	40	0	7474249728	28	17220
2026-01-01 22:39:11.53	28.21	9.28	-26.5	-26.9	16.5	1.08e-05	0	40	0	7583301632	28	17050
2026-01-01 22:39:12.54	28.31	9.38	-26.5	-26.9	16.6	1.08e-05	0	41	0	7700742144	28	17115
2026-01-01 22:39:13.56	28.42	9.47	-26.3	-26.7	16.6	5.40e-06	0	41	0	7809794048	28	16689
2026-01-01 22:39:14.56	28.52	9.56	-26.4	-26.8	16.6	5.40e-06	0	40	0	7927234560	28	16863
2026-01-01 22:39:15.57	28.62	9.66	-26.3	-26.7	16.6	0.00e+00	0	40	0	8044675072	28	16715
2026-01-01 22:39:16.58	28.73	9.75	-26.3	-26.7	16.6	0.00e+00	0	40	0	8153726976	28	16647
2026-01-01 22:39:17.59	28.83	9.85	-26.3	-26.8	16.6	1.63e-05	0	40	0	8262778880	28	16850
2026-01-01 22:39:18.60	28.94	9.94	-26.4	-26.8	16.5	1.63e-05	0	41	0	8380219392	28	16965
2026-01-01 22:39:19.61	29.05	10.04	-26.1	-26.6	16.6	2.72e-05	0	40	0	8489271296	28	16431
2026-01-01 22:39:20.62	29.16	10.13	-26.2	-26.6	16.5	2.72e-05	0	41	0	8606711808	28	16466
2026-01-01 22:39:21.62	29.26	10.23	-26.2	-26.6	16.5	1.63e-05	0	40	0	8724152320	28	16489
2026-01-01 22:39:22.63	29.37	10.32	-26.1	-26.5	16.5	1.63e-05	0	40	0	8833204224	28	16273
2026-01-01 22:39:23.64	29.48	10.42	-26.1	-26.5	16.5	3.81e-05	0	41	0	8950644736	28	16386
2026-01-01 22:39:24.66	29.60	10.52	-26.2	-26.6	16.5	3.26e-05	0	41	0	9059696640	28	16548
2026-01-01 22:39:25.67	29.71	10.62	-26.2	-26.6	16.6	3.26e-05	0	41	0	9177137152	28	16505
2026-01-01 22:39:26.68	29.82	10.72	-26.0	-26.4	16.6	3.26e-05	0	41	0	9286189056	28	16182
2026-01-01 22:39:27.68	29.94	10.81	-26.0	-26.4	16.6	3.26e-05	0	40	0	9403629568	28	16120
2026-01-01 22:39:28.69	30.05	10.91	-26.0	-26.4	16.6	2.17e-05	0	41	0	9512681472	28	16222
2026-01-01 22:39:29.70	30.17	11.01	-25.8	-26.2	16.7	2.17e-05	0	41	0	9630121984	28	15822
2026-01-01 22:39:30.71	30.28	11.11	-25.9	-26.3	16.7	1.08e-05	0	41	0	9747562496	28	15890
2026-01-01 22:39:31.72	30.40	11.21	-25.8	-26.2	16.7	1.08e-05	0	41	0	9856614400	28	15860
2026-01-01 22:39:32.73	30.52	11.31	-25.8	-26.2	16.7	1.08e-05	0	41	0	9974054912	28	15756
2026-01-01 22:39:33.74	30.64	11.42	-25.8	-26.2	16.7	1.08e-05	0	41	0	10083106816	26	17711
2026-01-01 22:39:34.75	30.76	11.52	-25.9	-26.3	16.7	0.00e+00	0	41	0	10192158720	26	18002
2026-01-01 22:39:35.76	30.88	11.62	-26.1	-26.5	16.7	0.00e+00	0	41	0	10309599232	26	18309
2026-01-01 22:39:36.77	31.01	11.72	-25.8	-26.3	16.7	2.72e-05	0	41	0	10427039744	26	17816
2026-01-01 22:39:37.78	31.13	11.83	-25.9	-26.3	16.7	2.72e-05	0	41	0	10536091648	26	17973
2026-01-01 22:39:38.78	31.25	11.93	-25.9	-26.3	16.7	5.40e-06	0	41	0	10653532160	26	17883
2026-01-01 22:39:39.79	31.38	12.03	-25.9	-26.3	16.7	5.40e-06	0	41	0	10762584064	26	17886
2026-01-01 22:39:40.80	31.51	12.14	-25.6	-26.0	16.7	5.40e-06	0	41	0	10880024576	26	17359
2026-01-01 22:39:41.81	31.63	12.24	-25.6	-26.0	16.6	0.00e+00	0	41	0	10997465088	26	17288
2026-01-01 22:39:42.82	31.76	12.35	-25.3	-25.7	16.7	0.00e+00	0	41	0	11106516992	26	16705
2026-01-01 22:39:43.83	31.89	12.46	-25.1	-25.5	16.7	1.08e-05	0	41	0	11215568896	26	16392
2026-01-01 22:39:44.84	32.03	12.56	-25.1	-25.5	16.8	1.08e-05	0	41	0	11333009408	26	16298
2026-01-01 22:39:45.85	32.16	12.67	-25.3	-25.7	16.8	0.00e+00	0	41	0	11442061312	26	16687
2026-01-01 22:39:46.86	32.29	12.78	-25.0	-25.5	16.8	0.00e+00	0	41	0	11559501824	26	16247
2026-01-01 22:39:47.87	32.43	12.89	-25.0	-25.4	16.9	0.00e+00	0	41	0	11676942336	26	16151
2026-01-01 22:39:48.88	32.56	12.99	-24.9	-25.3	16.9	0.00e+00	0	41	0	11785994240	26	15988
2026-01-01 22:39:49.89	32.70	13.10	-24.9	-25.3	16.9	0.00e+00	0	41	0	11903434752	26	15938
2026-01-01 22:39:50.90	32.84	13.21	-24.8	-25.2	16.9	0.00e+00	0	41	0	12012486656	26	15857
2026-01-01 22:39:51.91	32.98	13.32	-25.0	-25.4	16.9	0.00e+00	0	41	0	12129927168	26	16157
2026-01-01 22:39:52.92	33.12	13.43	-25.0	-25.4	16.9	0.00e+00	0	41	0	12238979072	26	16099
2026-01-01 22:39:53.93	33.26	13.55	-25.0	-25.4	16.9	0.00e+00	0	41	0	12356419584	26	16216
2026-01-01 22:39:54.94	33.40	13.66	-24.8	-25.3	16.9	0.00e+00	0	41	0	12465471488	26	15879
2026-01-01 22:39:55.95	33.54	13.77	-24.8	-25.3	16.9	0.00e+00	0	41	0	12582912000	26	15890
2026-01-01 22:39:56.95	33.69	13.88	-24.8	-25.2	17.0	0.00e+00	0	41	0	12691963904	24	17743
2026-01-01 22:39:57.97	33.84	14.00	-24.9	-25.3	16.9	0.00e+00	0	41	0	12809404416	24	17926
2026-01-01 22:39:58.98	33.98	14.11	-24.7	-25.2	16.9	0.00e+00	0	41	0	12926844928	24	17627
2026-01-01 22:39:59.99	34.13	14.23	-24.7	-25.1	16.9	0.00e+00	0	41	0	13035896832	24	17600
2026-01-01 22:40:01.00	34.28	14.34	-24.7	-25.2	17.0	0.00e+00	0	41	0	13144948736	24	17623
2026-01-01 22:40:02.00	34.43	14.45	-24.7	-25.1	16.9	0.00e+00	0	41	0	13262389248	24	17593
2026-01-01 22:40:03.01	34.59	14.57	-24.8	-25.2	17.0	0.00e+00	0	41	0	13379829760	24	17639
2026-01-01 22:40:04.02	34.74	14.69	-24.6	-25.0	17.0	0.00e+00	0	41	0	13488881664	24	17397
2026-01-01 22:40:05.03	34.90	14.81	-24.6	-25.0	17.0	0.00e+00	0	41	0	13606322176	24	17312
2026-01-01 22:40:06.04	35.06	14.92	-24.5	-24.9	17.0	0.00e+00	0	41	0	13715374080	24	17196
2026-01-01 22:40:07.05	35.22	15.04	-24.5	-24.9	17.0	0.00e+00	0	41	0	13832814592	24	17104
2026-01-01 22:40:08.06	35.38	15.16	-24.5	-24.9	17.0	0.00e+00	0	41	0	13950255104	24	17098
2026-01-01 22:40:09.07	35.54	15.28	-24.4	-24.9	17.0	0.00e+00	0	41	0	14059307008	24	17038
2026-01-01 22:40:10.08	35.70	15.40	-24.2	-24.6	17.0	0.00e+00	0	41	0	14168358912	24	16572
2026-01-01 22:40:11.09	35.87	15.52	-24.3	-24.8	17.0	0.00e+00	0	41	0	14285799424	24	16817
2026-01-01 22:40:12.10	36.03	15.64	-24.2	-24.7	17.1	0.00e+00	0	41	0	14394851328	24	16692
2026-01-01 22:40:13.11	36.20	15.76	-24.2	-24.6	17.1	0.00e+00	0	41	0	14512291840	24	16616
2026-01-01 22:40:14.11	36.37	15.89	-24.3	-24.7	17.1	0.00e+00	0	41	0	14629732352	24	16774
2026-01-01 22:40:15.13	36.54	16.01	-24.6	-25.0	17.0	0.00e+00	0	41	0	14738784256	24	17317
2026-01-01 22:40:16.14	36.71	16.13	-24.0	-24.5	17.1	0.00e+00	0	41	0	14856224768	24	16306
2026-01-01 22:40:17.14	36.89	16.26	-24.3	-24.8	17.1	0.00e+00	0	41	0	14965276672	24	16825
2026-01-01 22:40:18.15	37.06	16.38	-23.9	-24.3	17.1	0.00e+00	0	41	0	15074328576	24	15946
2026-01-01 22:40:19.16	37.24	16.51	-24.0	-24.4	17.1	0.00e+00	0	41	0	15200157696	24	16157
2026-01-01 22:40:20.17	37.42	16.63	-24.0	-24.4	17.0	0.00e+00	0	41	0	15309209600	24	16206
2026-01-01 22:40:21.18	37.60	16.76	-23.9	-24.3	16.8	0.00e+00	0	41	0	15418261504	24	16037
2026-01-01 22:40:22.19	37.79	16.89	-23.8	-24.2	16.8	0.00e+00	0	41	0	15527313408	22	17738
2026-01-01 22:40:23.20	37.97	17.02	-23.5	-24.0	16.9	0.00e+00	0	41	0	15644753920	22	17218
2026-01-01 22:40:24.21	38.16	17.14	-23.7	-24.2	17.0	0.00e+00	0	41	0	15762194432	22	17639
2026-01-01 22:40:25.22	38.34	17.27	-23.6	-24.0	17.0	0.00e+00	0	41	0	15879634944	22	17288
2026-01-01 22:40:26.23	38.54	17.40	-23.4	-23.9	17.1	0.00e+00	0	41	0	15988686848	22	17028
2026-01-01 22:40:27.24	38.73	17.53	-23.4	-23.8	17.1	0.00e+00	0	41	0	16097738752	22	16959
2026-01-01 22:40:28.25	38.92	17.66	-23.4	-23.9	17.2	0.00e+00	0	41	0	16215179264	22	17072
2026-01-01 22:40:29.26	39.12	17.80	-23.3	-23.7	17.1	0.00e+00	0	41	0	16332619776	22	16741
2026-01-01 22:40:30.27	39.31	17.93	-23.3	-23.7	17.1	0.00e+00	0	41	0	16441671680	22	16778
2026-01-01 22:40:31.28	39.51	18.06	-23.2	-23.7	17.1	0.00e+00	0	41	0	16559112192	22	16737
2026-01-01 22:40:32.29	39.72	18.20	-23.2	-23.6	17.1	0.00e+00	0	41	0	16668164096	22	16587
2026-01-01 22:40:33.30	39.92	18.33	-23.2	-23.6	17.1	0.00e+00	0	41	0	16785604608	22	16607
2026-01-01 22:40:34.31	40.13	18.46	-23.0	-23.4	17.2	0.00e+00	0	41	0	16903045120	22	16191
2026-01-01 22:40:35.32	40.33	18.60	-23.1	-23.6	17.2	0.00e+00	0	41	0	17012097024	22	16523
2026-01-01 22:40:36.33	40.54	18.74	-23.1	-23.5	17.2	0.00e+00	0	41	0	17129537536	22	16358
2026-01-01 22:40:37.34	40.76	18.87	-23.0	-23.4	17.2	0.00e+00	0	41	0	17238589440	22	16167
2026-01-01 22:40:38.35	40.97	19.01	-23.0	-23.5	17.2	0.00e+00	0	41	0	17347641344	22	16258
2026-01-01 22:40:39.36	41.19	19.15	-23.0	-23.4	17.2	0.00e+00	0	41	0	17465081856	22	16228
2026-01-01 22:40:40.37	41.41	19.28	-23.0	-23.4	17.2	0.00e+00	0	41	0	17582522368	22	16214
2026-01-01 22:40:41.38	41.63	19.42	-22.8	-23.2	17.2	0.00e+00	0	41	0	17691574272	22	15801
2026-01-01 22:40:42.39	41.85	19.56	-22.7	-23.1	17.3	0.00e+00	0	41	0	17809014784	20	17548
2026-01-01 22:40:43.40	42.08	19.70	-22.6	-23.1	17.2	0.00e+00	0	41	0	17918066688	20	17511
2026-01-01 22:40:44.41	42.30	19.84	-22.5	-22.9	17.3	0.00e+00	0	41	0	18035507200	20	17188
2026-01-01 22:40:45.42	42.53	19.99	-22.3	-22.8	17.3	0.00e+00	0	41	0	18152947712	20	16866
2026-01-01 22:40:46.43	42.77	20.13	-22.4	-22.8	17.3	0.00e+00	0	41	0	18261999616	20	16981
2026-01-01 22:40:47.44	43.00	20.27	-22.2	-22.7	17.3	0.00e+00	0	41	0	18371051520	20	16680
2026-01-01 22:40:48.45	43.24	20.41	-22.2	-22.7	17.3	0.00e+00	0	41	0	18488492032	20	16668
2026-01-01 22:40:49.46	43.48	20.56	-22.3	-22.7	17.3	0.00e+00	0	41	0	18597543936	20	16731
2026-01-01 22:40:50.46	43.72	20.70	-22.2	-22.6	17.3	0.00e+00	0	41	0	18714984448	20	16603
2026-01-01 22:40:51.47	43.96	20.85	-22.5	-22.9	17.3	0.00e+00	0	41	0	18832424960	20	17094
2026-01-01 22:40:52.48	44.21	20.99	-22.1	-22.6	17.3	0.00e+00	0	41	0	18941476864	20	16475
2026-01-01 22:40:53.49	44.46	21.14	-22.2	-22.7	17.3	0.00e+00	0	41	0	19058917376	20	16621
2026-01-01 22:40:54.50	44.71	21.28	-21.8	-22.3	17.3	0.00e+00	0	41	0	19167969280	20	15953
2026-01-01 22:40:55.51	44.97	21.43	-22.0	-22.5	17.3	0.00e+00	0	41	0	19285409792	20	16335
2026-01-01 22:40:56.52	45.23	21.58	-21.8	-22.3	17.3	0.00e+00	0	41	0	19394461696	20	15964
2026-01-01 22:40:57.53	45.49	21.73	-21.8	-22.3	17.3	0.00e+00	0	41	0	19511902208	20	15942
2026-01-01 22:40:58.54	45.75	21.88	-21.8	-22.2	17.4	0.00e+00	0	41	0	19620954112	20	15835
2026-01-01 22:40:59.54	46.02	22.02	-21.7	-22.2	17.4	0.00e+00	0	41	0	19738394624	18	17643
2026-01-01 22:41:00.56	46.29	22.17	-21.5	-22.0	17.4	0.00e+00	0	41	0	19847446528	18	17283
2026-01-01 22:41:01.57	46.56	22.33	-21.7	-22.2	17.4	0.00e+00	0	41	0	19964887040	18	17629
2026-01-01 22:41:02.58	46.84	22.48	-21.5	-22.0	17.3	0.00e+00	0	41	0	20082327552	18	17225
2026-01-01 22:41:03.58	47.11	22.63	-21.5	-22.0	17.3	0.00e+00	0	41	0	20191379456	18	17287
2026-01-01 22:41:04.59	47.39	22.78	-21.3	-21.7	17.3	0.00e+00	0	41	0	20300431360	18	16757
2026-01-01 22:41:05.60	47.68	22.93	-21.1	-21.6	17.5	0.00e+00	0	41	0	20417871872	18	16547
2026-01-01 22:41:06.61	47.96	23.08	-21.3	-21.8	17.5	0.00e+00	0	41	0	20535312384	18	16856
2026-01-01 22:41:07.62	48.25	23.24	-21.1	-21.6	17.4	0.00e+00	0	41	0	20644364288	18	16468
2026-01-01 22:41:08.62	48.55	23.39	-21.1	-21.6	17.4	0.00e+00	0	41	0	20761804800	18	16478
2026-01-01 22:41:09.63	48.84	23.54	-21.1	-21.6	17.4	0.00e+00	0	41	0	20870856704	18	16458
2026-01-01 22:41:10.64	49.14	23.70	-21.0	-21.4	17.4	0.00e+00	0	41	0	20988297216	18	16204
2026-01-01 22:41:11.65	49.45	23.85	-21.0	-21.5	17.5	0.00e+00	0	41	0	21097349120	18	16290
2026-01-01 22:41:12.66	49.75	24.01	-20.9	-21.3	17.5	0.00e+00	0	41	0	21206401024	18	16046
2026-01-01 22:41:13.67	50.06	24.16	-20.8	-21.3	17.5	0.00e+00	0	41	0	21323841536	18	15961
2026-01-01 22:41:14.68	50.38	24.32	-20.9	-21.3	17.4	0.00e+00	0	41	0	21441282048	18	16038
2026-01-01 22:41:15.69	50.69	24.47	-20.9	-21.4	17.3	0.00e+00	0	41	0	21550333952	18	16074
2026-01-01 22:41:16.69	51.01	24.63	-20.7	-21.2	17.4	0.00e+00	0	41	0	21667774464	16	17687
2026-01-01 22:41:17.70	51.33	24.79	-20.7	-21.2	17.5	0.00e+00	0	41	0	21776826368	16	17703
2026-01-01 22:41:18.71	51.66	24.94	-20.7	-21.2	17.5	0.00e+00	0	41	0	21894266880	16	17646
2026-01-01 22:41:19.72	51.99	25.10	-20.6	-21.1	17.5	0.00e+00	0	41	0	22011707392	16	17431
2026-01-01 22:41:20.73	52.33	25.26	-20.6	-21.1	17.5	0.00e+00	0	41	0	22120759296	16	17442
2026-01-01 22:41:21.74	52.67	25.42	-20.3	-20.8	17.5	0.00e+00	0	41	0	22229811200	16	16899
2026-01-01 22:41:22.75	53.01	25.57	-20.2	-20.7	17.6	0.00e+00	0	41	0	22347251712	16	16721
2026-01-01 22:41:23.76	53.35	25.73	-20.2	-20.7	17.5	0.00e+00	0	41	0	22464692224	16	16628
2026-01-01 22:41:24.77	53.70	25.89	-20.3	-20.8	17.5	0.00e+00	0	41	0	22573744128	16	16882
2026-01-01 22:41:25.78	54.06	26.05	-20.2	-20.7	17.5	0.00e+00	0	41	0	22691184640	16	16707
2026-01-01 22:41:26.79	54.41	26.21	-20.1	-20.6	17.5	0.00e+00	0	42	0	22800236544	16	16489
2026-01-01 22:41:27.80	54.77	26.37	-20.1	-20.6	17.4	0.00e+00	0	41	0	22917677056	16	16490
2026-01-01 22:41:28.81	55.14	26.52	-20.0	-20.5	17.4	0.00e+00	0	42	0	23026728960	16	16240
2026-01-01 22:41:29.82	55.51	26.68	-19.8	-20.3	17.4	0.00e+00	0	41	0	23144169472	16	15890
2026-01-01 22:41:30.82	55.88	26.84	-19.9	-20.3	17.3	0.00e+00	0	41	0	23253221376	16	16033
2026-01-01 22:41:31.83	56.25	27.00	-19.7	-20.2	17.5	0.00e+00	0	42	0	23370661888	14	17622
2026-01-01 22:41:32.84	56.63	27.16	-19.7	-20.1	17.5	0.00e+00	0	42	0	23479713792	14	17585
2026-01-01 22:41:33.86	57.02	27.31	-19.6	-20.1	17.5	0.00e+00	0	42	0	23597154304	14	17484
2026-01-01 22:41:34.86	57.41	27.47	-19.5	-20.0	17.6	0.00e+00	0	41	0	23714594816	14	17316
2026-01-01 22:41:35.87	57.80	27.63	-19.5	-19.9	17.6	0.00e+00	0	41	0	23823646720	14	17197
2026-01-01 22:41:36.88	58.20	27.79	-19.5	-19.9	17.6	0.00e+00	0	41	0	23941087232	14	17197
2026-01-01 22:41:37.89	58.60	27.94	-19.3	-19.8	17.6	0.00e+00	0	41	0	24050139136	14	16916
2026-01-01 22:41:38.90	59.01	28.10	-19.3	-19.8	17.6	0.00e+00	0	42	0	24159191040	14	16824
2026-01-01 22:41:39.90	59.42	28.25	-19.4	-19.9	17.6	0.00e+00	0	42	0	24276631552	14	17013
2026-01-01 22:41:40.92	59.83	28.41	-19.1	-19.6	17.6	0.00e+00	0	41	0	24394072064	14	16450
2026-01-01 22:41:41.92	60.25	28.57	-19.2	-19.6	17.6	0.00e+00	0	41	0	24503123968	14	16615
2026-01-01 22:41:42.93	60.67	28.72	-19.1	-19.6	17.6	0.00e+00	0	41	0	24620564480	14	16544
2026-01-01 22:41:43.94	61.10	28.87	-19.0	-19.5	17.5	0.00e+00	0	42	0	24729616384	14	16354
2026-01-01 22:41:44.96	61.54	29.03	-19.1	-19.5	17.5	0.00e+00	0	41	0	24847056896	14	16422
2026-01-01 22:41:45.97	61.97	29.18	-19.1	-19.6	17.5	0.00e+00	0	42	0	24964497408	14	16468
2026-01-01 22:41:46.98	62.42	29.33	-18.9	-19.4	17.6	0.00e+00	0	42	0	25073549312	14	16184
2026-01-01 22:41:47.98	62.86	29.48	-18.9	-19.4	17.6	0.00e+00	0	42	0	25182601216	14	16068
2026-01-01 22:41:49.00	63.31	29.64	-18.8	-19.3	17.6	0.00e+00	0	42	0	25300041728	14	15955
2026-01-01 22:41:50.00	63.76	29.79	-18.7	-19.2	17.6	0.00e+00	0	42	0	25409093632	14	15829
2026-01-01 22:41:51.02	64.23	29.94	-18.9	-19.4	17.6	0.00e+00	0	42	0	25526534144	12	18081
2026-01-01 22:41:52.02	64.69	30.08	-18.9	-19.3	17.6	0.00e+00	0	42	0	25643974656	12	17997
2026-01-01 22:41:53.03	65.16	30.23	-18.7	-19.2	17.6	0.00e+00	0	42	0	25753026560	12	17699
2026-01-01 22:41:54.04	65.63	30.38	-18.8	-19.3	17.7	0.00e+00	0	41	0	25870467072	12	17958
2026-01-01 22:41:55.06	66.11	30.52	-18.6	-19.1	17.7	0.00e+00	0	41	0	25979518976	12	17507
2026-01-01 22:41:56.07	66.59	30.67	-18.6	-19.1	17.7	0.00e+00	0	41	0	26096959488	12	17418
2026-01-01 22:41:57.08	67.08	30.81	-18.5	-19.0	17.7	0.00e+00	0	42	0	26206011392	12	17324
2026-01-01 22:41:58.08	67.57	30.95	-18.5	-19.0	17.6	0.00e+00	0	42	0	26323451904	12	17265
2026-01-01 22:41:59.09	68.06	31.09	-18.5	-19.0	17.7	0.00e+00	0	42	0	26432503808	12	17261
2026-01-01 22:42:00.10	68.56	31.22	-18.5	-19.0	17.7	0.00e+00	0	41	0	26549944320	12	17295
2026-01-01 22:42:01.11	69.07	31.36	-18.5	-19.0	17.6	0.00e+00	0	42	0	26667384832	12	17238
2026-01-01 22:42:02.12	69.58	31.50	-18.3	-18.8	17.7	0.00e+00	0	41	0	26776436736	12	16872
2026-01-01 22:42:03.13	70.09	31.63	-18.4	-18.9	17.7	0.00e+00	0	42	0	26893877248	12	17012
2026-01-01 22:42:04.14	70.61	31.76	-18.5	-19.0	17.7	0.00e+00	0	42	0	27002929152	12	17294
2026-01-01 22:42:05.15	71.14	31.89	-18.3	-18.8	17.7	0.00e+00	0	42	0	27111981056	12	16826
2026-01-01 22:42:06.16	71.66	32.02	-18.2	-18.7	17.6	0.00e+00	0	42	0	27237810176	12	16660
2026-01-01 22:42:07.17	72.20	32.15	-18.3	-18.7	17.6	0.00e+00	0	42	0	27346862080	12	16736
2026-01-01 22:42:08.18	72.73	32.27	-18.2	-18.7	17.7	0.00e+00	0	42	0	27455913984	12	16632
2026-01-01 22:42:09.19	73.27	32.39	-18.2	-18.7	17.6	0.00e+00	0	41	0	27573354496	12	16703
2026-01-01 22:42:10.19	73.82	32.51	-18.2	-18.7	17.6	0.00e+00	0	42	0	27682406400	12	16726
2026-01-01 22:42:11.20	74.36	32.63	-18.3	-18.7	17.6	0.00e+00	0	42	0	27799846912	12	16760
2026-01-01 22:42:12.21	74.92	32.75	-18.2	-18.7	17.6	0.00e+00	0	42	0	27908898816	12	16634
2026-01-01 22:42:13.22	75.48	32.86	-18.2	-18.7	17.6	0.00e+00	0	42	0	28026339328	12	16729
2026-01-01 22:42:14.22	76.03	32.97	-18.1	-18.6	17.6	0.00e+00	0	42	0	28135391232	12	16529
2026-01-01 22:42:15.23	76.60	33.08	-17.9	-18.4	17.6	0.00e+00	0	42	0	28252831744	12	16183
2026-01-01 22:42:16.24	77.17	33.19	-17.8	-18.3	17.6	0.00e+00	0	42	0	28361883648	12	15944
2026-01-01 22:42:17.25	77.74	33.29	-17.9	-18.4	17.6	0.00e+00	0	41	0	28479324160	12	16082
2026-01-01 22:42:18.26	78.32	33.39	-17.7	-18.2	17.6	0.00e+00	0	42	0	28596764672	10	17618
2026-01-01 22:42:19.27	78.90	33.49	-17.7	-18.2	17.6	0.00e+00	0	42	0	28705816576	10	17667
2026-01-01 22:42:20.28	79.49	33.59	-17.6	-18.1	17.6	0.00e+00	0	42	0	28823257088	10	17484
2026-01-01 22:42:21.29	80.08	33.68	-17.7	-18.2	17.6	0.00e+00	0	41	0	28932308992	10	17648
2026-01-01 22:42:22.30	80.67	33.77	-17.6	-18.1	17.6	0.00e+00	0	42	0	29041360896	10	17477
2026-01-01 22:42:23.31	81.27	33.86	-17.6	-18.1	17.6	0.00e+00	0	42	0	29158801408	10	17519
2026-01-01 22:42:24.32	81.87	33.94	-17.6	-18.0	17.5	0.00e+00	0	42	0	29276241920	10	17339
2026-01-01 22:42:25.33	82.47	34.02	-17.6	-18.1	17.5	0.00e+00	0	42	0	29385293824	10	17519
2026-01-01 22:42:26.34	83.08	34.10	-17.7	-18.2	17.5	0.00e+00	0	42	0	29502734336	10	17613
2026-01-01 22:42:27.35	83.69	34.18	-17.5	-17.9	17.6	0.00e+00	0	42	0	29611786240	10	17186
2026-01-01 22:42:28.36	84.30	34.25	-17.6	-18.0	17.5	0.00e+00	0	42	0	29729226752	10	17350
2026-01-01 22:42:29.36	84.91	34.32	-17.6	-18.0	17.5	0.00e+00	0	42	0	29846667264	10	17344
2026-01-01 22:42:30.37	85.52	34.38	-17.6	-18.0	17.5	0.00e+00	0	42	0	29955719168	10	17351
2026-01-01 22:42:31.38	86.14	34.44	-17.5	-18.0	17.5	0.00e+00	0	42	0	30064771072	10	17269
2026-01-01 22:42:32.39	86.77	34.50	-17.5	-18.0	17.5	0.00e+00	0	42	0	30182211584	10	17278
2026-01-01 22:42:33.40	87.39	34.56	-17.4	-17.9	17.5	0.00e+00	0	42	0	30291263488	10	17092
2026-01-01 22:42:34.41	88.02	34.61	-17.6	-18.1	17.5	0.00e+00	0	41	0	30408704000	10	17427
2026-01-01 22:42:35.42	88.65	34.66	-17.5	-17.9	17.5	0.00e+00	0	42	0	30526144512	10	17173
2026-01-01 22:42:36.43	89.28	34.70	-17.3	-17.8	17.5	0.00e+00	0	42	0	30635196416	10	16888
2026-01-01 22:42:37.44	89.91	34.74	-17.4	-17.9	17.5	0.00e+00	0	42	0	30752636928	10	17010
2026-01-01 22:42:38.45	90.55	34.78	-17.5	-17.9	17.4	0.00e+00	0	42	0	30861688832	10	17103
2026-01-01 22:42:39.46	91.18	34.82	-17.5	-17.9	17.4	0.00e+00	0	42	0	30970740736	10	17162
2026-01-01 22:42:40.46	91.81	34.85	-17.3	-17.7	17.5	0.00e+00	0	42	0	31096569856	10	16770
2026-01-01 22:42:41.47	92.45	34.87	-17.4	-17.8	17.4	0.00e+00	0	42	0	31205621760	10	16999
2026-01-01 22:42:42.48	93.09	34.89	-17.4	-17.8	17.4	0.00e+00	0	42	0	31314673664	10	16950
2026-01-01 22:42:43.49	93.73	34.91	-17.4	-17.9	17.4	0.00e+00	0	42	0	31432114176	10	17065
2026-01-01 22:42:44.50	94.37	34.93	-17.5	-17.9	17.3	0.00e+00	0	42	0	31541166080	10	17127
2026-01-01 22:42:45.51	95.01	34.94	-17.4	-17.9	17.4	0.00e+00	0	42	0	31658606592	10	17083
2026-01-01 22:42:46.52	95.66	34.95	-17.3	-17.7	17.4	0.00e+00	0	42	0	31776047104	10	16767
2026-01-01 22:42:47.53	96.30	34.95	-17.5	-17.9	17.4	0.00e+00	0	42	0	31885099008	10	17194
2026-01-01 22:42:48.54	96.94	34.95	-17.4	-17.8	17.4	0.00e+00	0	41	0	31994150912	10	16916
2026-01-01 22:42:49.55	97.58	34.95	-17.4	-17.8	17.4	0.00e+00	0	42	0	32111591424	10	16921
2026-01-01 22:42:50.56	98.23	34.94	-17.5	-17.9	17.3	0.00e+00	0	42	0	32229031936	10	17182
2026-01-01 22:42:51.57	98.87	34.93	-17.4	-17.8	17.3	0.00e+00	0	42	0	32338083840	10	16964
2026-01-01 22:42:52.58	99.51	34.91	-17.4	-17.9	17.3	0.00e+00	0	42	0	32455524352	10	17084
2026-01-01 22:42:53.60	100.16	34.90	-17.5	-17.9	17.3	0.00e+00	0	42	0	32564576256	10	17172
2026-01-01 22:42:54.60	100.79	34.87	-17.4	-17.8	17.3	0.00e+00	0	42	0	32682016768	10	16943
2026-01-01 22:42:55.61	101.43	34.85	-17.5	-17.9	17.3	0.00e+00	0	42	0	32799457280	10	17107
2026-01-01 22:42:56.62	102.07	34.82	-17.5	-17.9	17.3	0.00e+00	0	42	0	32908509184	10	17127
2026-01-01 22:42:57.63	102.70	34.78	-17.5	-17.9	17.3	0.00e+00	0	42	0	33025949696	10	17092
2026-01-01 22:42:58.64	103.34	34.75	-17.5	-18.0	17.3	0.00e+00	0	42	0	33135001600	10	17248
2026-01-01 22:42:59.65	103.97	34.71	-17.6	-18.0	17.3	0.00e+00	0	42	0	33244053504	10	17260
2026-01-01 22:43:00.66	104.60	34.66	-17.6	-18.0	17.3	0.00e+00	0	42	0	33361494016	10	17335
2026-01-01 22:43:01.67	105.23	34.61	-17.7	-18.1	17.3	0.00e+00	0	42	0	33478934528	10	17514
2026-01-01 22:43:02.68	105.86	34.56	-17.7	-18.1	17.3	0.00e+00	0	42	0	33587986432	10	17515
2026-01-01 22:43:03.69	106.49	34.51	-17.5	-18.0	17.4	0.00e+00	0	42	0	33705426944	10	17210
2026-01-01 22:43:04.70	107.11	34.45	-17.6	-18.1	17.4	0.00e+00	0	42	0	33814478848	10	17419
2026-01-01 22:43:05.71	107.73	34.39	-17.6	-18.0	17.4	0.00e+00	0	42	0	33931919360	10	17337
2026-01-01 22:43:06.72	108.35	34.32	-17.7	-18.1	17.3	0.00e+00	0	42	0	34049359872	10	17602
2026-01-01 22:43:07.73	108.97	34.25	-17.7	-18.1	17.4	0.00e+00	0	42	0	34158411776	10	17521
2026-01-01 22:43:08.74	109.58	34.18	-17.7	-18.1	17.3	0.00e+00	0	42	0	34267463680	10	17477
2026-01-01 22:43:09.75	110.19	34.10	-17.6	-18.0	17.4	0.00e+00	0	42	0	34384904192	10	17330
2026-01-01 22:43:10.76	110.80	34.03	-17.6	-18.0	17.4	0.00e+00	0	42	0	34493956096	10	17310
2026-01-01 22:43:11.77	111.40	33.95	-17.6	-18.1	17.4	0.00e+00	0	42	0	34611396608	10	17455
2026-01-01 22:43:12.78	112.00	33.86	-17.6	-18.0	17.5	0.00e+00	0	42	0	34728837120	10	17379
2026-01-01 22:43:13.79	112.60	33.77	-17.7	-18.1	17.4	0.00e+00	0	42	0	34837889024	10	17590
2026-01-01 22:43:14.80	113.20	33.68	-17.7	-18.1	17.5	0.00e+00	0	42	0	34955329536	10	17553
2026-01-01 22:43:15.80	113.78	33.59	-17.7	-18.1	17.5	0.00e+00	0	42	0	35064381440	10	17438
2026-01-01 22:43:16.81	114.37	33.49	-17.8	-18.3	17.5	0.00e+00	0	42	0	35181821952	10	17821
2026-01-01 22:43:17.82	114.95	33.40	-17.8	-18.2	17.5	0.00e+00	0	42	0	35290873856	10	17725
2026-01-01 22:43:18.83	115.53	33.29	-17.9	-18.3	17.5	0.00e+00	0	42	0	35408314368	10	17882
2026-01-01 22:43:19.84	116.11	33.19	-18.0	-18.4	17.5	0.00e+00	0	42	0	35517366272	10	18054
2026-01-01 22:43:20.85	116.68	33.08	-17.9	-18.3	17.5	0.00e+00	0	42	0	35634806784	10	17966
2026-01-01 22:43:21.86	117.25	32.97	-18.0	-18.4	17.5	0.00e+00	0	42	0	35752247296	10	18145
2026-01-01 22:43:22.87	117.81	32.86	-18.1	-18.5	17.6	0.00e+00	0	42	0	35861299200	10	18266
2026-01-01 22:43:23.88	118.37	32.75	-18.0	-18.4	17.6	0.00e+00	0	42	0	35978739712	10	18133
2026-01-01 22:43:24.89	118.93	32.63	-18.0	-18.4	17.6	0.00e+00	0	42	0	36087791616	10	18153
2026-01-01 22:43:25.90	119.48	32.51	-18.1	-18.5	17.6	0.00e+00	0	42	0	36196843520	10	18314
2026-01-01 22:43:26.91	120.02	32.39	-18.2	-18.6	17.6	0.00e+00	0	42	0	36314284032	10	18633
2026-01-01 22:43:27.92	120.57	32.27	-18.1	-18.5	17.7	0.00e+00	0	42	0	36431724544	10	18345
2026-01-01 22:43:28.93	121.11	32.15	-18.1	-18.5	17.7	0.00e+00	0	42	0	36540776448	10	18396
2026-01-01 22:43:29.94	121.64	32.02	-18.1	-18.5	17.7	0.00e+00	0	42	0	36658216960	10	18329
2026-01-01 22:43:30.95	122.17	31.89	-18.3	-18.8	17.7	0.00e+00	0	42	0	36767268864	10	18878
2026-01-01 22:43:31.95	122.69	31.76	-18.1	-18.6	17.7	0.00e+00	0	42	0	36876320768	10	18466
2026-01-01 22:43:32.96	123.21	31.63	-18.3	-18.7	17.7	0.00e+00	0	42	0	37002149888	10	18830
2026-01-01 22:43:33.98	123.73	31.49	-18.2	-18.6	17.8	0.00e+00	0	42	0	37111201792	10	18644
2026-01-01 22:43:34.99	124.24	31.36	-18.3	-18.8	17.7	0.00e+00	0	42	0	37220253696	10	18908
2026-01-01 22:43:35.99	124.75	31.22	-18.3	-18.7	17.8	0.00e+00	0	42	0	37337694208	10	18826
2026-01-01 22:43:37.00	125.25	31.08	-18.4	-18.9	17.7	0.00e+00	0	42	0	37446746112	10	19125
2026-01-01 22:43:38.01	125.75	30.94	-18.4	-18.8	17.8	0.00e+00	0	42	0	37564186624	10	18918
2026-01-01 22:43:39.02	126.24	30.80	-18.3	-18.8	17.8	0.00e+00	0	42	0	37681627136	10	18896
2026-01-01 22:43:40.03	126.73	30.66	-18.4	-18.8	17.8	0.00e+00	0	42	0	37790679040	10	18932
2026-01-01 22:43:41.04	127.21	30.51	-18.4	-18.8	17.8	0.00e+00	0	42	0	37908119552	10	19064
2026-01-01 22:43:42.05	127.69	30.37	-18.3	-18.8	17.9	0.00e+00	0	42	0	38017171456	10	18902
2026-01-01 22:43:43.06	128.17	30.22	-18.4	-18.8	17.8	0.00e+00	0	42	0	38134611968	10	19071
2026-01-01 22:43:44.07	128.64	30.07	-18.5	-18.9	17.9	0.00e+00	0	42	0	38243663872	10	19237
2026-01-01 22:43:45.08	129.10	29.92	-18.4	-18.8	17.9	0.00e+00	0	42	0	38361104384	10	19046
2026-01-01 22:43:46.09	129.57	29.77	-18.4	-18.9	17.9	0.00e+00	0	42	0	38470156288	10	19148
2026-01-01 22:43:47.10	130.02	29.62	-18.6	-19.0	17.9	0.00e+00	0	42	0	38587596800	10	19433
2026-01-01 22:43:48.11	130.47	29.47	-18.7	-19.1	17.9	0.00e+00	0	42	0	38705037312	10	19652
2026-01-01 22:43:49.12	130.92	29.32	-18.8	-19.2	17.9	0.00e+00	0	42	0	38814089216	12	17778
2026-01-01 22:43:50.13	131.37	29.17	-18.8	-19.2	17.9	0.00e+00	0	42	0	38931529728	12	17697
2026-01-01 22:43:51.13	131.80	29.01	-18.8	-19.3	17.9	0.00e+00	0	42	0	39040581632	12	17811
2026-01-01 22:43:52.14	132.23	28.86	-18.9	-19.4	17.9	0.00e+00	0	42	0	39149633536	12	18025
2026-01-01 22:43:53.15	132.66	28.70	-18.9	-19.4	17.9	0.00e+00	0	42	0	39267074048	12	18061
2026-01-01 22:43:54.16	133.09	28.55	-18.9	-19.4	17.9	0.00e+00	0	42	0	39384514560	12	18104
2026-01-01 22:43:55.17	133.51	28.39	-19.1	-19.5	17.9	0.00e+00	0	42	0	39493566464	12	18329
2026-01-01 22:43:56.18	133.93	28.24	-19.2	-19.6	17.9	0.00e+00	0	42	0	39611006976	12	18584
2026-01-01 22:43:57.19	134.34	28.08	-19.1	-19.6	17.9	0.00e+00	0	42	0	39720058880	12	18520
2026-01-01 22:43:58.20	134.75	27.92	-19.1	-19.6	17.9	0.00e+00	0	42	0	39837499392	12	18548
2026-01-01 22:43:59.21	135.15	27.76	-19.2	-19.7	17.9	0.00e+00	0	42	0	39954939904	12	18728
2026-01-01 22:44:00.22	135.55	27.61	-19.2	-19.7	17.9	0.00e+00	0	42	0	40063991808	12	18677
2026-01-01 22:44:01.23	135.94	27.45	-19.4	-19.8	17.9	0.00e+00	0	42	0	40173043712	12	19037
2026-01-01 22:44:02.24	136.34	27.29	-19.3	-19.8	17.9	0.00e+00	0	42	0	40290484224	12	18883
2026-01-01 22:44:03.25	136.72	27.13	-19.3	-19.8	17.9	0.00e+00	0	42	0	40399536128	12	18906
2026-01-01 22:44:04.26	137.10	26.97	-19.4	-19.9	17.8	0.00e+00	0	42	0	40516976640	12	19116
2026-01-01 22:44:05.26	137.48	26.81	-19.5	-20.0	17.8	0.00e+00	0	42	0	40634417152	12	19345
2026-01-01 22:44:06.28	137.86	26.65	-19.3	-19.8	17.8	0.00e+00	0	42	0	40743469056	12	18945
2026-01-01 22:44:07.29	138.23	26.49	-19.4	-19.9	17.8	0.00e+00	0	42	0	40860909568	12	19139
2026-01-01 22:44:08.30	138.59	26.33	-19.4	-19.9	17.8	0.00e+00	0	42	0	40969961472	12	19195
2026-01-01 22:44:09.30	138.95	26.17	-19.5	-20.0	17.8	0.00e+00	0	42	0	41079013376	12	19388
2026-01-01 22:44:10.31	139.31	26.02	-19.6	-20.1	17.8	0.00e+00	0	42	0	41196453888	12	19536
2026-01-01 22:44:11.32	139.67	25.86	-19.7	-20.1	17.8	0.00e+00	0	42	0	41313894400	12	19730
2026-01-01 22:44:12.33	140.02	25.70	-19.8	-20.2	17.7	0.00e+00	0	42	0	41422946304	12	19931
2026-01-01 22:44:13.34	140.36	25.54	-19.9	-20.3	17.7	0.00e+00	0	42	0	41540386816	14	17968
2026-01-01 22:44:14.35	140.71	25.38	-19.9	-20.3	17.7	0.00e+00	0	42	0	41649438720	14	17992
2026-01-01 22:44:15.36	141.05	25.22	-20.0	-20.4	17.7	0.00e+00	0	42	0	41766879232	14	18181
2026-01-01 22:44:16.37	141.38	25.06	-20.0	-20.5	17.7	0.00e+00	0	42	0	41884319744	14	18234
2026-01-01 22:44:17.38	141.72	24.90	-19.9	-20.4	17.7	0.00e+00	0	42	0	41993371648	14	18126
2026-01-01 22:44:18.39	142.04	24.75	-20.1	-20.6	17.7	0.00e+00	0	42	0	42102423552	14	18464
2026-01-01 22:44:19.40	142.37	24.59	-20.1	-20.6	17.7	0.00e+00	0	42	0	42219864064	14	18569
2026-01-01 22:44:20.41	142.69	24.43	-20.2	-20.7	17.7	0.00e+00	0	42	0	42337304576	14	18659
2026-01-01 22:44:21.42	143.01	24.27	-20.2	-20.7	17.6	0.00e+00	0	42	0	42446356480	14	18798
2026-01-01 22:44:22.43	143.32	24.12	-20.3	-20.8	17.6	0.00e+00	0	42	0	42563796992	14	18981
2026-01-01 22:44:23.44	143.63	23.96	-20.3	-20.8	17.7	0.00e+00	0	42	0	42672848896	14	18870
2026-01-01 22:44:24.45	143.94	23.80	-20.4	-20.8	17.6	0.00e+00	0	42	0	42781900800	14	19039
2026-01-01 22:44:25.45	144.24	23.65	-20.4	-20.9	17.6	0.00e+00	0	42	0	42899341312	14	19101
2026-01-01 22:44:26.46	144.55	23.49	-20.3	-20.8	17.6	0.00e+00	0	42	0	43016781824	14	18981
2026-01-01 22:44:27.47	144.84	23.34	-20.4	-20.9	17.5	0.00e+00	0	42	0	43134222336	14	19167
2026-01-01 22:44:28.48	145.14	23.18	-49.5	-51.9	6.1	0.00e+00	0	42	104	43209719808	60	48016
2026-01-01 22:44:29.49	145.43	23.03	-49.5	-51.9	6.1	0.00e+00	0	42	104	43209719808	60	48351
2026-01-01 22:44:30.50	145.72	22.88	-49.4	-51.9	6.1	0.00e+00	0	42	104	43209719808	60	48341
2026-01-01 22:44:31.51	146.00	22.72	-49.4	-51.9	6.1	0.00e+00	0	42	104	43209719808	60	48052
2026-01-01 22:44:32.52	146.29	22.57	-49.4	-51.9	6.1	0.00e+00	0	42	104	43209719808	60	48031
2026-01-01 22:44:33.53	146.56	22.42	-49.5	-51.9	6.1	0.00e+00	0	42	104	43209719808	60	48247
2026-01-01 22:44:34.54	146.84	22.27	-49.4	-51.9	6.1	0.00e+00	0	42	104	43209719808	60	48034
2026-01-01 22:44:35.55	147.11	22.11	-49.4	-51.9	6.1	0.00e+00	0	42	104	43209719808	60	48117
2026-01-01 22:44:36.56	147.38	21.96	-49.4	-51.9	6.1	0.00e+00	0	42	104	43209719808	60	48075
2026-01-01 22:44:37.57	147.65	21.81	-49.4	-51.9	6.1	0.00e+00	0	41	104	43209719808	60	48005
2026-01-01 22:44:38.58	147.92	21.66	-49.4	-51.8	6.1	0.00e+00	0	42	104	43209719808	60	47793
2026-01-01 22:44:39.59	148.18	21.51	-49.4	-51.9	6.1	0.00e+00	0	42	104	43209719808	60	48056
2026-01-01 22:44:40.60	148.44	21.36	-49.4	-51.9	6.1	0.00e+00	0	42	104	43209719808	60	48207
2026-01-01 22:44:41.61	148.69	21.22	-49.4	-51.8	6.1	0.00e+00	0	42	104	43209719808	60	47761
2026-01-01 22:44:42.62	148.95	21.07	-49.4	-51.9	6.1	0.00e+00	0	42	104	43209719808	60	48118
2026-01-01 22:44:43.63	149.20	20.92	-49.4	-51.8	6.1	0.00e+00	0	42	104	43209719808	60	47855
2026-01-01 22:44:44.63	149.44	20.78	-49.3	-51.8	6.1	0.00e+00	0	42	104	43209719808	60	47834
2026-01-01 22:44:45.64	149.69	20.63	-49.4	-51.8	6.1	0.00e+00	0	42	104	43209719808	60	47649
2026-01-01 22:44:46.65	149.93	20.49	-49.4	-51.8	6.1	0.00e+00	0	42	104	43209719808	60	47626
2026-01-01 22:44:47.66	150.17	20.34	-49.4	-51.8	6.1	0.00e+00	0	42	104	43209719808	60	47815
2026-01-01 22:44:48.67	150.41	20.20	-49.4	-51.9	6.1	0.00e+00	0	42	104	43209719808	60	47936
2026-01-01 22:44:49.68	150.65	20.05	-49.4	-51.8	6.1	0.00e+00	0	42	104	43209719808	60	47811
2026-01-01 22:44:50.69	150.88	19.91	-49.4	-51.9	6.1	0.00e+00	0	42	104	43209719808	60	47934
2026-01-01 22:44:51.70	151.11	19.77	-49.4	-51.8	6.1	0.00e+00	0	42	104	43209719808	60	47797
2026-01-01 22:44:52.71	151.34	19.63	-49.4	-51.8	6.1	0.00e+00	0	42	104	43209719808	60	47825
2026-01-01 22:44:53.72	151.57	19.49	-49.4	-51.8	6.1	0.00e+00	0	42	104	43209719808	60	47857
2026-01-01 22:44:54.72	151.79	19.35	-49.4	-51.8	6.1	0.00e+00	0	42	104	43209719808	60	47773
2026-01-01 22:44:55.74	152.01	19.21	-49.3	-51.8	6.1	0.00e+00	0	42	104	43209719808	60	47908
2026-01-01 22:44:56.74	152.23	19.07	-49.3	-51.8	6.1	0.00e+00	0	42	104	43209719808	60	47683
2026-01-01 22:44:57.75	152.45	18.93	-49.3	-51.8	6.1	0.00e+00	0	42	104	43209719808	60	47852
2026-01-01 22:44:58.76	152.66	18.79	-49.3	-51.8	6.1	0.00e+00	0	41	104	43209719808	60	47741
2026-01-01 22:44:59.77	152.87	18.65	-49.3	-51.8	6.1	0.00e+00	0	42	104	43209719808	60	47610
2026-01-01 22:45:00.78	153.08	18.52	-49.2	-51.7	6.1	0.00e+00	0	42	104	43209719808	60	47051
2026-01-01 22:45:01.79	153.29	18.38	-49.3	-51.7	6.1	0.00e+00	0	42	104	43209719808	60	47287
2026-01-01 22:45:02.80	153.50	18.24	-49.3	-51.8	6.1	0.00e+00	0	42	104	43209719808	60	47412
2026-01-01 22:45:03.81	153.70	18.11	-49.1	-51.6	6.1	0.00e+00	0	42	104	43209719808	60	46698
2026-01-01 22:45:04.82	153.91	17.98	-48.4	-50.9	6.1	0.00e+00	0	42	104	43209719808	60	42948
2026-01-01 22:45:05.83	154.11	17.84	-49.0	-51.5	6.1	0.00e+00	0	42	104	43209719808	60	45976
2026-01-01 22:45:06.84	154.30	17.71	-48.1	-50.6	6.0	0.00e+00	0	42	104	43209719808	60	41639
2026-01-01 22:45:07.85	154.50	17.58	-47.9	-50.4	6.1	0.00e+00	0	42	104	43209719808	60	40529
2026-01-01 22:45:08.86	154.69	17.44	-47.7	-50.2	6.1	0.00e+00	0	42	104	43209719808	60	39564
2026-01-01 22:45:09.87	154.89	17.31	-47.9	-50.4	6.1	0.00e+00	0	41	104	43209719808	60	40477
2026-01-01 22:45:10.88	155.08	17.18	-48.2	-50.7	6.1	0.00e+00	0	41	104	43209719808	60	41876
2026-01-01 22:45:11.89	155.27	17.05	-48.3	-50.8	6.1	0.00e+00	0	42	104	43209719808	60	42603
2026-01-01 22:45:12.90	155.45	16.92	-48.5	-50.9	6.1	0.00e+00	0	41	104	43209719808	60	43176
2026-01-01 22:45:13.91	155.64	16.79	-48.6	-51.1	6.1	0.00e+00	0	42	104	43209719808	60	44011
2026-01-01 22:45:14.91	155.82	16.67	-48.2	-50.7	6.1	0.00e+00	0	41	104	43209719808	60	41814
2026-01-01 22:45:15.92	156.00	16.54	-48.5	-50.9	6.1	0.00e+00	0	42	104	43209719808	60	43068
2026-01-01 22:45:16.93	156.18	16.41	-48.9	-51.4	6.1	0.00e+00	0	41	104	43209719808	60	45419
2026-01-01 22:45:17.94	156.36	16.29	-49.1	-51.6	6.1	0.00e+00	0	42	104	43209719808	60	46324
2026-01-01 22:45:18.95	156.54	16.16	-48.7	-51.2	6.1	0.00e+00	0	42	104	43209719808	60	44263
2026-01-01 22:45:19.96	156.71	16.04	-48.8	-51.3	6.1	0.00e+00	0	42	104	43209719808	60	44803
2026-01-01 22:45:20.97	156.88	15.91	-49.2	-51.6	6.1	0.00e+00	0	41	104	43209719808	60	46672
2026-01-01 22:45:21.98	157.06	15.79	-49.2	-51.7	6.1	0.00e+00	0	41	104	43209719808	60	46885
2026-01-01 22:45:22.99	157.23	15.66	-49.1	-51.5	6.1	0.00e+00	0	42	104	43209719808	60	46211
2026-01-01 22:45:24.00	157.39	15.54	-49.1	-51.6	6.1	0.00e+00	0	41	104	43209719808	60	46703
2026-01-01 22:45:25.01	157.56	15.42	-49.3	-51.7	6.1	0.00e+00	0	41	104	43209719808	60	47046
2026-01-01 22:45:26.02	157.73	15.30	-49.2	-51.7	6.1	0.00e+00	0	42	104	43209719808	60	47030
2026-01-01 22:45:27.03	157.89	15.18	-49.2	-51.7	6.1	0.00e+00	0	41	104	43209719808	60	47061
2026-01-01 22:45:28.04	158.05	15.06	-49.2	-51.7	6.1	0.00e+00	0	41	104	43209719808	60	46973
2026-01-01 22:45:29.04	158.21	14.94	-49.3	-51.7	6.1	0.00e+00	0	42	104	43209719808	60	47252
2026-01-01 22:45:30.05	158.37	14.82	-49.2	-51.6	6.1	0.00e+00	0	41	104	43209719808	60	46726
2026-01-01 22:45:31.06	158.53	14.70	-49.2	-51.7	6.1	0.00e+00	0	42	104	43209719808	60	46936
2026-01-01 22:45:32.07	158.68	14.58	-49.2	-51.6	6.1	0.00e+00	0	41	104	43209719808	60	46762
2026-01-01 22:45:33.08	158.84	14.46	-49.2	-51.7	6.1	0.00e+00	0	41	104	43209719808	60	46983
2026-01-01 22:45:34.09	158.99	14.35	-49.2	-51.6	6.1	0.00e+00	0	41	104	43209719808	60	46694
2026-01-01 22:45:35.10	159.14	14.23	-49.2	-51.6	6.1	0.00e+00	0	42	104	43209719808	60	46623
2026-01-01 22:45:36.11	159.29	14.12	-49.2	-51.7	6.1	0.00e+00	0	41	104	43209719808	60	47004
2026-01-01 22:45:37.12	159.44	14.00	-49.2	-51.7	6.1	0.00e+00	0	41	104	43209719808	60	46861
2026-01-01 22:45:38.13	159.59	13.89	-49.0	-51.5	6.1	0.00e+00	0	41	104	43209719808	60	46134
2026-01-01 22:45:39.14	159.74	13.77	-49.2	-51.6	6.1	0.00e+00	0	41	104	43209719808	60	46832
2026-01-01 22:45:40.15	159.88	13.66	-49.2	-51.6	6.1	0.00e+00	0	41	104	43209719808	60	46810
2026-01-01 22:45:41.16	160.03	13.55	-49.2	-51.6	6.1	0.00e+00	0	41	104	43209719808	60	46809
2026-01-01 22:45:42.16	160.17	13.43	-49.1	-51.6	6.1	0.00e+00	0	41	104	43209719808	60	46479
2026-01-01 22:45:43.17	160.31	13.32	-49.0	-51.6	6.1	0.00e+00	0	41	104	43209719808	60	46417
2026-01-01 22:45:44.18	160.45	13.21	-49.2	-51.6	6.1	0.00e+00	0	41	104	43209719808	60	46672
2026-01-01 22:45:45.19	160.59	13.10	-49.2	-51.7	6.1	0.00e+00	0	41	104	43209719808	60	46987
2026-01-01 22:45:46.20	160.73	12.99	-49.1	-51.5	6.1	0.00e+00	0	42	104	43209719808	60	46163
2026-01-01 22:45:47.21	160.87	12.88	-49.1	-51.6	6.1	0.00e+00	0	42	104	43209719808	60	46399
2026-01-01 22:45:48.22	161.00	12.77	-49.2	-51.6	6.1	0.00e+00	0	42	104	43209719808	60	46821
2026-01-01 22:45:49.23	161.14	12.66	-49.2	-51.7	6.1	0.00e+00	0	42	104	43209719808	60	47010
2026-01-01 22:45:50.24	161.27	12.55	-49.0	-51.5	6.1	0.00e+00	0	41	104	43209719808	60	45836
2026-01-01 22:45:51.25	161.40	12.44	-49.0	-51.6	6.1	0.00e+00	0	41	104	43209719808	60	46360
2026-01-01 22:45:52.26	161.53	12.34	-49.1	-51.6	6.1	0.00e+00	0	42	104	43209719808	60	46454
2026-01-01 22:45:53.27	161.66	12.23	-49.2	-51.6	6.1	0.00e+00	0	41	104	43209719808	60	46794
2026-01-01 22:45:54.28	161.79	12.12	-48.9	-51.4	6.1	0.00e+00	0	41	104	43209719808	60	45715
2026-01-01 22:45:55.30	161.92	12.02	-49.0	-51.6	6.1	0.00e+00	0	42	104	43209719808	60	46302
2026-01-01 22:45:56.30	162.05	11.91	-49.1	-51.5	6.1	0.00e+00	0	42	104	43209719808	60	46229
2026-01-01 22:45:57.31	162.17	11.81	-49.2	-51.6	6.1	0.00e+00	0	42	104	43209719808	60	46721
2026-01-01 22:45:58.32	162.30	11.70	-49.0	-51.6	6.1	0.00e+00	0	41	104	43209719808	60	46310
2026-01-01 22:45:59.33	162.42	11.60	-48.9	-51.5	6.1	0.00e+00	0	41	104	43209719808	60	45793
2026-01-01 22:46:00.34	162.54	11.50	-49.0	-51.5	6.1	0.00e+00	0	41	104	43209719808	60	46123
2026-01-01 22:46:01.35	162.67	11.39	-49.2	-51.6	6.1	0.00e+00	0	42	104	43209719808	60	46707
2026-01-01 22:46:02.35	162.79	11.29	-49.1	-51.6	6.1	0.00e+00	0	42	104	43209719808	60	46352
2026-01-01 22:46:03.36	162.91	11.19	-49.0	-51.5	6.1	0.00e+00	0	41	104	43209719808	60	45972
2026-01-01 22:46:04.37	163.02	11.09	-49.1	-51.5	6.1	0.00e+00	0	42	104	43209719808	60	46109
2026-01-01 22:46:05.38	163.14	10.99	-49.1	-51.6	6.1	0.00e+00	0	42	104	43209719808	60	46633
2026-01-01 22:46:06.39	163.26	10.89	-49.1	-51.6	6.1	0.00e+00	0	42	104	43209719808	60	46532
2026-01-01 22:46:07.40	163.37	10.79	-49.1	-51.5	6.1	0.00e+00	0	42	104	43209719808	60	46282
2026-01-01 22:46:08.41	163.49	10.69	-49.1	-51.6	6.1	0.00e+00	0	42	104	43209719808	60	46395
2026-01-01 22:46:09.42	163.60	10.59	-49.1	-51.6	6.1	0.00e+00	0	42	104	43209719808	60	46532
2026-01-01 22:46:10.43	163.72	10.49	-49.0	-51.5	6.1	0.00e+00	0	42	104	43209719808	60	46032
2026-01-01 22:46:11.44	163.83	10.39	-49.1	-51.6	6.1	0.00e+00	0	42	104	43209719808	60	46529
2026-01-01 22:46:12.45	163.94	10.29	-49.1	-51.5	6.1	0.00e+00	0	42	104	43209719808	60	45965
2026-01-01 22:46:13.45	164.05	10.20	-49.0	-51.5	6.1	0.00e+00	0	42	104	43209719808	60	46071
2026-01-01 22:46:14.46	164.16	10.10	-49.0	-51.5	6.1	0.00e+00	0	41	104	43209719808	60	45822
2026-01-01 22:46:15.47	164.27	10.00	-49.0	-51.5	6.1	0.00e+00	0	42	104	43209719808	60	45949
2026-01-01 22:46:16.48	164.38	9.91	-48.9	-51.5	6.1	0.00e+00	0	42	104	43209719808	60	45782
2026-01-01 22:46:17.49	164.48	9.81	-49.0	-51.5	6.1	0.00e+00	0	42	104	43209719808	60	46105
2026-01-01 22:46:18.50	164.59	9.71	-49.0	-51.4	6.1	0.00e+00	0	42	104	43209719808	60	45680
2026-01-01 22:46:19.51	164.70	9.62	-48.9	-51.4	6.1	0.00e+00	0	42	104	43209719808	60	45700
2026-01-01 22:46:20.52	164.80	9.52	-48.9	-51.4	6.1	0.00e+00	0	42	104	43209719808	60	45628
2026-01-01 22:46:21.53	164.90	9.43	-49.1	-51.6	6.1	0.00e+00	0	41	104	43209719808	60	46306
2026-01-01 22:46:22.54	165.01	9.34	-49.0	-51.4	6.1	0.00e+00	0	41	104	43209719808	60	45630
2026-01-01 22:46:23.55	165.11	9.24	-48.9	-51.4	6.1	0.00e+00	0	42	104	43209719808	60	45547
2026-01-01 22:46:24.56	165.21	9.15	-49.0	-51.5	6.1	0.00e+00	0	42	104	43209719808	60	45787
2026-01-01 22:46:25.57	165.31	9.06	-49.0	-51.5	6.1	0.00e+00	0	41	104	43209719808	60	45933
2026-01-01 22:46:26.58	165.41	8.96	-49.0	-51.4	6.1	0.00e+00	0	41	104	43209719808	60	45653
2026-01-01 22:46:27.58	165.51	8.87	-49.0	-51.4	6.1	0.00e+00	0	41	104	43209719808	60	45633
2026-01-01 22:46:28.59	165.61	8.78	-49.0	-51.5	6.1	0.00e+00	0	41	104	43209719808	60	46006
2026-01-01 22:46:29.60	165.71	8.69	-49.0	-51.5	6.1	0.00e+00	0	41	104	43209719808	60	45885
2026-01-01 22:46:30.61	165.80	8.60	-48.9	-51.4	6.1	0.00e+00	0	41	104	43209719808	60	45675
2026-01-01 22:46:31.62	165.90	8.51	-48.8	-51.3	6.1	0.00e+00	0	41	104	43209719808	60	45194
2026-01-01 22:46:32.63	166.00	8.42	-48.9	-51.4	6.1	0.00e+00	0	41	104	43209719808	60	45461
2026-01-01 22:46:33.64	166.09	8.33	-48.8	-51.3	6.1	0.00e+00	0	41	104	43209719808	60	44951
2026-01-01 22:46:34.65	166.19	8.24	-48.9	-51.3	6.1	0.00e+00	0	42	104	43209719808	60	45124
2026-01-01 22:46:35.66	166.28	8.15	-48.9	-51.3	6.1	0.00e+00	0	41	104	43209719808	60	45165
2026-01-01 22:46:36.67	166.37	8.06	-48.8	-51.3	6.1	0.00e+00	0	41	104	43209719808	60	44913
2026-01-01 22:46:37.67	166.46	7.98	-48.8	-51.3	6.1	0.00e+00	0	41	104	43209719808	60	44848
2026-01-01 22:46:38.69	166.56	7.89	-48.9	-51.3	6.1	0.00e+00	0	41	104	43209719808	60	45065
2026-01-01 22:46:39.69	166.65	7.80	-48.8	-51.3	6.1	0.00e+00	0	42	104	43209719808	60	45076
2026-01-01 22:46:40.70	166.74	7.71	-48.8	-51.3	6.1	0.00e+00	0	41	104	43209719808	60	45022
2026-01-01 22:46:41.71	166.83	7.63	-48.8	-51.3	6.1	0.00e+00	0	41	104	43209719808	60	44833
2026-01-01 22:46:42.72	166.92	7.54	-48.8	-51.3	6.1	0.00e+00	0	42	104	43209719808	60	44991
2026-01-01 22:46:43.73	167.01	7.45	-48.8	-51.3	6.1	0.00e+00	0	42	104	43209719808	60	45107
2026-01-01 22:46:44.74	167.09	7.37	-48.7	-51.2	6.1	0.00e+00	0	41	104	43209719808	60	44642
2026-01-01 22:46:45.75	167.18	7.28	-48.8	-51.3	6.1	0.00e+00	0	42	104	43209719808	60	44808
2026-01-01 22:46:46.76	167.27	7.20	-48.8	-51.3	6.1	0.00e+00	0	42	104	43209719808	60	44831
2026-01-01 22:46:47.77	167.35	7.11	-48.7	-51.2	6.1	0.00e+00	0	41	104	43209719808	60	44493
2026-01-01 22:46:48.77	167.44	7.03	-48.6	-51.2	6.1	0.00e+00	0	42	104	43209719808	60	44256
2026-01-01 22:46:49.78	167.52	6.95	-48.7	-51.2	6.1	0.00e+00	0	41	104	43209719808	60	44519
2026-01-01 22:46:50.79	167.61	6.86	-48.7	-51.2	6.1	0.00e+00	0	41	104	43209719808	60	44500
2026-01-01 22:46:51.80	167.69	6.78	-48.7	-51.2	6.1	0.00e+00	0	42	104	43209719808	60	44262
2026-01-01 22:46:52.80	167.77	6.70	-48.8	-51.3	6.1	0.00e+00	0	42	104	43209719808	60	44741
2026-01-01 22:46:53.81	167.86	6.61	-48.7	-51.2	6.1	0.00e+00	0	41	104	43209719808	60	44476
2026-01-01 22:46:54.82	167.94	6.53	-48.7	-51.1	6.1	0.00e+00	0	41	104	43209719808	60	44167
2026-01-01 22:46:55.83	168.02	6.45	-48.7	-51.2	6.1	0.00e+00	0	42	104	43209719808	60	44226
2026-01-01 22:46:56.84	168.10	6.37	-48.8	-51.3	6.1	0.00e+00	0	42	104	43209719808	60	45017
2026-01-01 22:46:57.85	168.18	6.29	-48.8	-51.2	6.1	0.00e+00	0	41	104	43209719808	60	44406
2026-01-01 22:46:58.86	168.26	6.20	-48.7	-51.2	6.1	0.00e+00	0	42	104	43209719808	60	44490
2026-01-01 22:46:59.87	168.34	6.12	-48.6	-51.1	6.1	0.00e+00	0	41	104	43209719808	60	44087
2026-01-01 22:47:00.88	168.42	6.04	-48.8	-51.3	6.1	0.00e+00	0	42	104	43209719808	60	44856
2026-01-01 22:47:01.89	168.50	5.96	-48.7	-51.2	6.1	0.00e+00	0	42	104	43209719808	60	44522
2026-01-01 22:47:02.89	168.58	5.88	-48.7	-51.2	6.1	0.00e+00	0	42	104	43209719808	60	44410
2026-01-01 22:47:03.90	168.65	5.80	-48.6	-51.0	6.1	0.00e+00	0	42	104	43209719808	60	43403
2026-01-01 22:47:04.91	168.73	5.72	-48.8	-51.3	6.0	0.00e+00	0	41	104	43209719808	60	44729
2026-01-01 22:47:05.92	168.81	5.64	-48.7	-51.2	6.1	0.00e+00	0	41	104	43209719808	60	44231
2026-01-01 22:47:06.93	168.88	5.57	-48.7	-51.1	6.1	0.00e+00	0	41	104	43209719808	60	44207
2026-01-01 22:47:07.94	168.96	5.49	-48.5	-51.0	6.1	0.00e+00	0	42	104	43209719808	60	43444
2026-01-01 22:47:08.95	169.03	5.41	-48.7	-51.2	6.1	0.00e+00	0	41	104	43209719808	60	44393
2026-01-01 22:47:09.96	169.11	5.33	-48.6	-51.1	6.1	0.00e+00	0	42	104	43209719808	60	43843
2026-01-01 22:47:10.97	169.18	5.25	-48.7	-51.1	6.1	0.00e+00	0	42	104	43209719808	60	44013
2026-01-01 22:47:11.98	169.25	5.17	-48.5	-51.0	6.1	0.00e+00	0	41	104	43209719808	60	43425
2026-01-01 22:47:12.99	169.33	5.10	-48.7	-51.2	6.1	0.00e+00	0	42	104	43209719808	60	44234
2026-01-01 22:47:14.00	169.40	5.02	-48.6	-51.0	6.1	0.00e+00	0	42	104	43209719808	60	43562
2026-01-01 22:47:15.01	169.47	4.94	-48.7	-51.1	6.1	0.00e+00	0	42	104	43209719808	60	43961
2026-01-01 22:47:16.01	169.54	4.87	-48.4	-50.9	6.1	0.00e+00	0	42	104	43209719808	60	43008
2026-01-01 22:47:17.02	169.61	4.79	-48.7	-51.1	6.1	0.00e+00	0	41	104	43209719808	60	44159
2026-01-01 22:47:18.03	169.68	4.72	-48.6	-51.0	6.1	0.00e+00	0	41	104	43209719808	60	43611
2026-01-01 22:47:19.04	169.75	4.64	-48.6	-51.1	6.1	0.00e+00	0	42	104	43209719808	60	43889
2026-01-01 22:47:20.05	169.82	4.56	-48.4	-50.9	6.1	0.00e+00	0	41	104	43209719808	60	42770
2026-01-01 22:47:21.05	169.89	4.49	-48.7	-51.1	6.1	0.00e+00	0	42	104	43209719808	60	44121
2026-01-01 22:47:22.06	169.96	4.41	-48.5	-51.0	6.1	0.00e+00	0	42	104	43209719808	60	43292
2026-01-01 22:47:23.07	170.03	4.34	-48.6	-51.0	6.1	0.00e+00	0	42	104	43209719808	60	43587
2026-01-01 22:47:24.08	170.10	4.27	-48.4	-50.9	6.1	0.00e+00	0	41	104	43209719808	60	42802
2026-01-01 22:47:25.09	170.17	4.19	-48.6	-51.1	6.1	0.00e+00	0	42	104	43209719808	60	43832
2026-01-01 22:47:26.10	170.23	4.12	-48.4	-50.9	6.0	0.00e+00	0	42	104	43209719808	60	42773
2026-01-01 22:47:27.11	170.30	4.04	-48.5	-51.0	6.1	0.00e+00	0	42	104	43209719808	60	43383
2026-01-01 22:47:28.12	170.37	3.97	-48.4	-50.9	6.1	0.00e+00	0	42	104	43209719808	60	42734
2026-01-01 22:47:29.13	170.43	3.90	-48.6	-51.1	6.1	0.00e+00	0	42	104	43209719808	60	44176
2026-01-01 22:47:30.14	170.50	3.82	-48.4	-50.9	6.1	0.00e+00	0	42	104	43209719808	60	42733
2026-01-01 22:47:31.14	170.56	3.75	-48.5	-51.0	6.1	0.00e+00	0	42	104	43209719808	60	43237
2026-01-01 22:47:32.15	170.63	3.68	-48.3	-50.8	6.1	0.00e+00	0	42	104	43209719808	60	42528
2026-01-01 22:47:33.16	170.69	3.61	-48.6	-51.0	6.1	0.00e+00	0	42	104	43209719808	60	43527
2026-01-01 22:47:34.17	170.76	3.53	-48.3	-50.8	6.1	0.00e+00	0	42	104	43209719808	60	42519
2026-01-01 22:47:35.18	170.82	3.46	-48.4	-50.9	6.1	0.00e+00	0	42	104	43209719808	60	43147
2026-01-01 22:47:36.19	170.89	3.39	-48.2	-50.7	6.1	0.00e+00	0	42	104	43209719808	60	42057
2026-01-01 22:47:37.20	170.95	3.32	-48.5	-50.9	6.1	0.00e+00	0	42	104	43209719808	60	43196
2026-01-01 22:47:38.21	171.01	3.25	-48.3	-50.8	6.1	0.00e+00	0	41	104	43209719808	60	42302
2026-01-01 22:47:39.21	171.07	3.18	-48.4	-50.8	6.1	0.00e+00	0	42	104	43209719808	60	42636
2026-01-01 22:47:40.22	171.13	3.11	-48.2	-50.7	6.1	0.00e+00	0	42	104	43209719808	60	41782
2026-01-01 22:47:41.23	171.20	3.04	-48.4	-51.0	6.0	0.00e+00	0	42	104	43209719808	60	43263
2026-01-01 22:47:42.24	171.26	2.97	-48.8	-51.3	6.1	0.00e+00	0	41	104	43209719808	60	44766
2026-01-01 22:47:43.25	171.32	2.90	-49.0	-51.5	6.1	0.00e+00	0	41	104	43209719808	60	46220
2026-01-01 22:47:44.26	171.38	2.83	-49.5	-51.9	6.1	0.00e+00	0	42	104	43209719808	60	48087
2026-01-01 22:47:45.28	171.44	2.76	-49.5	-52.0	6.1	0.00e+00	0	42	104	43209719808	60	48489
2026-01-01 22:47:46.28	171.50	2.69	-49.6	-52.1	6.1	0.00e+00	0	41	104	43209719808	60	49329
2026-01-01 22:47:47.29	171.56	2.62	-49.7	-52.2	6.1	0.00e+00	0	42	104	43209719808	60	49727
2026-01-01 22:47:48.30	171.62	2.55	-49.6	-52.1	6.1	0.00e+00	0	41	104	43209719808	60	49421
2026-01-01 22:47:49.31	171.68	2.48	-49.7	-52.2	6.1	0.00e+00	0	42	104	43209719808	60	50056
2026-01-01 22:47:50.32	171.74	2.41	-49.7	-52.2	6.1	0.00e+00	0	42	104	43209719808	60	49870
2026-01-01 22:47:51.33	171.79	2.34	-49.7	-52.2	6.1	0.00e+00	0	41	104	43209719808	60	49703
2026-01-01 22:47:52.34	171.85	2.27	-49.7	-52.1	6.1	0.00e+00	0	41	104	43209719808	60	49600
2026-01-01 22:47:53.35	171.91	2.21	-49.7	-52.2	6.1	0.00e+00	0	41	104	43209719808	60	49880
2026-01-01 22:47:54.36	171.97	2.14	-49.6	-52.1	6.1	0.00e+00	0	41	104	43209719808	60	49407
2026-01-01 22:47:55.37	172.02	2.07	-49.6	-52.1	6.1	0.00e+00	0	41	104	43209719808	60	49072
2026-01-01 22:47:56.38	172.08	2.00	-49.6	-52.1	6.1	0.00e+00	0	41	104	43209719808	60	49408
2026-01-01 22:47:57.38	172.14	1.94	-49.7	-52.1	6.1	0.00e+00	0	41	104	43209719808	60	49559
2026-01-01 22:47:58.40	172.19	1.87	-49.7	-52.2	6.1	0.00e+00	0	41	104	43209719808	60	49804
2026-01-01 22:47:59.40	172.25	1.80	-49.7	-52.1	6.1	0.00e+00	0	41	104	43209719808	60	49577
2026-01-01 22:48:00.42	172.30	1.73	-49.7	-52.2	6.1	0.00e+00	0	42	104	43209719808	60	49703
2026-01-01 22:48:01.43	172.36	1.67	-49.7	-52.1	6.1	0.00e+00	0	42	104	43209719808	60	49506
2026-01-01 22:48:02.44	172.42	1.60	-49.7	-52.1	6.0	0.00e+00	0	41	104	43209719808	60	49450
2026-01-01 22:48:03.44	172.47	1.54	-49.7	-52.2	6.1	0.00e+00	0	41	104	43209719808	60	49837
2026-01-01 22:48:04.45	172.52	1.47	-49.7	-52.1	6.1	0.00e+00	0	41	104	43209719808	60	49316
2026-01-01 22:48:05.46	172.58	1.40	-49.7	-52.2	6.1	0.00e+00	0	42	104	43209719808	60	49659
2026-01-01 22:48:06.47	172.63	1.34	-49.7	-52.1	6.1	0.00e+00	0	42	104	43209719808	60	49270
2026-01-01 22:48:07.48	172.68	1.27	-49.7	-52.1	6.1	0.00e+00	0	42	104	43209719808	60	49484
2026-01-01 22:48:08.49	172.74	1.21	-49.7	-52.1	6.1	0.00e+00	0	41	104	43209719808	60	49566
2026-01-01 22:48:09.50	172.79	1.14	-49.7	-52.1	6.1	0.00e+00	0	41	104	43209719808	60	49468
2026-01-01 22:48:10.51	172.84	1.08	-49.7	-52.1	6.1	0.00e+00	0	41	104	43209719808	60	49345
2026-01-01 22:48:11.52	172.90	1.01	-49.7	-52.2	6.1	0.00e+00	0	42	104	43209719808	60	49634
2026-01-01 22:48:12.53	172.95	0.95	-49.7	-52.1	6.1	0.00e+00	0	42	104	43209719808	60	49506
2026-01-01 22:48:13.54	173.00	0.88	-49.7	-52.1	6.1	0.00e+00	0	41	104	43209719808	60	49367
2026-01-01 22:48:14.55	173.05	0.82	-49.7	-52.1	6.1	0.00e+00	0	42	104	43209719808	60	49470
2026-01-01 22:48:15.56	173.10	0.75	-49.7	-52.1	6.1	0.00e+00	0	42	104	43209719808	60	49495
2026-01-01 22:48:16.56	173.15	0.69	-49.7	-52.2	6.1	0.00e+00	0	42	104	43209719808	60	49703
2026-01-01 22:48:17.58	173.20	0.63	-49.7	-52.1	6.1	0.00e+00	0	42	104	43209719808	60	49571
2026-01-01 22:48:18.59	173.25	0.56	-49.7	-52.1	6.1	0.00e+00	0	42	104	43209719808	60	49410
2026-01-01 22:48:19.59	173.30	0.50	-49.7	-52.1	6.1	0.00e+00	0	42	104	43209719808	60	49580
2026-01-01 22:48:20.60	173.35	0.44	-49.7	-52.1	6.1	0.00e+00	0	42	104	43209719808	60	49544
2026-01-01 22:48:21.61	173.40	0.37	-49.7	-52.1	6.1	0.00e+00	0	42	104	43209719808	60	49514
2026-01-01 22:48:22.62	173.45	0.31	-49.7	-52.1	6.1	0.00e+00	0	42	104	43209719808	60	49388
2026-01-01 22:48:23.63	173.50	0.25	-49.7	-52.1	6.1	0.00e+00	0	41	104	43209719808	60	49453
2026-01-01 22:48:24.64	173.55	0.18	-49.7	-52.1	6.1	0.00e+00	0	42	104	43209719808	60	49492
2026-01-01 22:48:25.65	173.60	0.12	-49.7	-52.1	6.1	0.00e+00	0	42	104	43209719808	60	49470
2026-01-01 22:48:26.66	173.65	0.06	-49.7	-52.1	6.1	0.00e+00	0	42	104	43209719808	60	49524
2026-01-01 22:48:27.67	173.70	-0.00	-49.7	-52.1	6.1	0.00e+00	0	42	104	43209719808	60	49442

#Closed at: 2026-01-01 22:48:28
#Recorded file [43209 MB]: D:/lorett/data/35029_260102_103735.dat