passes_logs/2026/01/01/R4.6S_Anadyr/R4.6S_Anadyr__20260101_044517_FENGYUN_3D_rec.log

#Pass ID: 20260101_044517_FENGYUN 3D
#Satellite: FENGYUN 3D
#Configuration: FENGYUN 3D
#almurnet v.1.7.20251203
#Start time: 2026-01-01 04:45:20

#Version: 2.2.20231116
#Station: R4.6S_Anadyr
#Location: 177.4865 lon 64.73178 lat
#TLE: 1 43010U 17072A   25364.99193771  .00000012  00000+0  27255-4 0  9998
#TLE: 2 43010  98.9913 331.5779 0001825 135.6238 224.5084 14.19689358421127

#Time	Az	El	Level	Level2	SNR	BER	BlckErr	Temp	State	Recorded	gain1	gain2
2026-01-01 04:45:20.25	222.89	0.12	-49.3	-60.9	3.4	8.46e-01	0	35	0	0	60	39965
2026-01-01 04:45:21.25	222.97	0.17	-49.4	-61.7	3.6	8.45e-01	0	36	104	0	60	44007
2026-01-01 04:45:22.26	223.05	0.22	-49.3	-61.5	3.5	8.45e-01	0	36	104	0	60	43162
2026-01-01 04:45:23.27	223.13	0.27	-49.4	-61.6	3.6	8.45e-01	0	36	104	0	60	43397
2026-01-01 04:45:24.28	223.21	0.32	-49.4	-61.6	3.6	8.45e-01	0	36	104	0	60	43346
2026-01-01 04:45:25.30	223.29	0.36	-49.5	-61.6	3.6	8.45e-01	0	36	104	0	60	43558
2026-01-01 04:45:26.30	223.37	0.41	-49.4	-61.6	3.6	8.46e-01	0	36	104	0	60	43463
2026-01-01 04:45:27.31	223.45	0.46	-49.4	-61.6	3.6	8.45e-01	0	37	104	0	60	43316
2026-01-01 04:45:28.32	223.54	0.51	-49.5	-61.7	3.6	8.45e-01	0	37	104	0	60	43722
2026-01-01 04:45:29.33	223.62	0.56	-49.4	-61.6	3.6	8.46e-01	0	37	104	0	60	43506
2026-01-01 04:45:30.34	223.70	0.61	-49.2	-61.6	3.6	8.46e-01	0	37	104	0	60	43701
2026-01-01 04:45:31.35	223.78	0.66	-49.0	-61.6	3.6	8.45e-01	0	37	104	0	60	43329
2026-01-01 04:45:32.36	223.86	0.70	-49.2	-61.5	3.6	8.46e-01	0	37	104	0	60	43054
2026-01-01 04:45:33.37	223.94	0.75	-49.3	-61.4	3.6	8.45e-01	0	37	104	0	60	42497
2026-01-01 04:45:34.38	224.03	0.80	-49.1	-61.1	3.6	8.45e-01	0	37	104	0	60	41213
2026-01-01 04:45:35.39	224.11	0.85	-48.5	-60.6	3.6	8.45e-01	0	37	104	0	60	38542
2026-01-01 04:45:36.40	224.19	0.90	-46.5	-58.3	3.6	8.45e-01	0	37	104	0	60	29598
2026-01-01 04:45:37.41	224.28	0.95	-46.7	-58.7	3.6	8.45e-01	0	37	104	0	60	31161
2026-01-01 04:45:38.42	224.36	1.00	-46.7	-58.7	3.6	8.46e-01	0	37	104	0	60	30979
2026-01-01 04:45:39.43	224.44	1.05	-46.7	-58.7	3.6	8.44e-01	0	37	104	0	60	30990
2026-01-01 04:45:40.44	224.53	1.10	-46.7	-58.7	3.6	8.46e-01	0	37	104	0	60	31189
2026-01-01 04:45:41.44	224.61	1.14	-46.7	-58.7	3.6	8.46e-01	0	37	104	0	60	31119
2026-01-01 04:45:42.45	224.70	1.19	-46.7	-58.7	3.6	8.45e-01	0	37	104	0	60	31120
2026-01-01 04:45:43.46	224.78	1.24	-46.7	-58.7	3.6	8.45e-01	0	37	104	0	60	31245
2026-01-01 04:45:44.47	224.87	1.29	-46.7	-58.7	3.6	8.46e-01	0	37	104	0	60	31143
2026-01-01 04:45:45.48	224.95	1.34	-46.7	-58.7	3.6	8.46e-01	0	37	104	0	60	30980
2026-01-01 04:45:46.49	225.04	1.39	-46.7	-58.7	3.6	8.45e-01	0	37	104	0	60	31087
2026-01-01 04:45:47.50	225.12	1.44	-46.7	-58.7	3.6	8.46e-01	0	37	104	0	60	31094
2026-01-01 04:45:48.51	225.21	1.49	-46.7	-58.7	3.6	8.45e-01	0	37	104	0	60	31076
2026-01-01 04:45:49.52	225.30	1.54	-46.7	-58.7	3.6	8.46e-01	0	37	104	0	60	31153
2026-01-01 04:45:50.53	225.38	1.59	-46.7	-58.7	3.6	8.44e-01	0	37	104	0	60	31084
2026-01-01 04:45:51.54	225.47	1.64	-46.7	-58.7	3.6	8.45e-01	0	37	104	0	60	31000
2026-01-01 04:45:52.55	225.56	1.69	-46.7	-58.7	3.6	8.44e-01	0	37	104	0	60	30978
2026-01-01 04:45:53.56	225.65	1.74	-46.7	-58.7	3.6	8.46e-01	0	37	104	0	60	31039
2026-01-01 04:45:54.57	225.73	1.79	-46.7	-58.6	3.6	8.45e-01	0	37	104	0	60	30892
2026-01-01 04:45:55.58	225.82	1.83	-46.7	-58.7	3.6	8.46e-01	0	37	104	0	60	31068
2026-01-01 04:45:56.59	225.91	1.88	-46.7	-58.7	3.6	8.46e-01	0	37	104	0	60	31064
2026-01-01 04:45:57.60	226.00	1.93	-46.7	-58.6	3.6	8.44e-01	0	37	104	0	60	30721
2026-01-01 04:45:58.61	226.09	1.98	-46.7	-58.6	3.7	8.45e-01	0	37	104	0	60	30882
2026-01-01 04:45:59.62	226.18	2.03	-46.7	-58.6	3.6	8.45e-01	0	37	104	0	60	30641
2026-01-01 04:46:00.63	226.27	2.08	-46.7	-58.6	3.6	8.46e-01	0	37	104	0	60	30682
2026-01-01 04:46:01.64	226.36	2.13	-46.7	-58.6	3.6	8.45e-01	0	37	104	0	60	30705
2026-01-01 04:46:02.65	226.45	2.18	-46.7	-58.6	3.6	8.45e-01	0	37	104	0	60	30684
2026-01-01 04:46:03.66	226.54	2.23	-46.7	-58.6	3.6	8.45e-01	0	37	104	0	60	30915
2026-01-01 04:46:04.67	226.63	2.28	-46.7	-58.6	3.6	8.45e-01	0	37	104	0	60	30799
2026-01-01 04:46:05.68	226.72	2.33	-46.7	-58.5	3.6	8.46e-01	0	37	104	0	60	30355
2026-01-01 04:46:06.69	226.81	2.38	-46.6	-58.3	3.6	8.44e-01	0	37	104	0	60	29837
2026-01-01 04:46:07.70	226.90	2.43	-46.6	-58.2	3.6	8.44e-01	0	37	104	0	60	29290
2026-01-01 04:46:08.71	227.00	2.48	-46.6	-57.8	3.6	8.46e-01	0	37	104	0	60	28219
2026-01-01 04:46:09.72	227.09	2.53	-46.6	-57.4	3.6	8.45e-01	0	37	104	0	60	26943
2026-01-01 04:46:10.73	227.18	2.58	-46.5	-57.0	3.6	8.44e-01	0	37	104	0	60	25483
2026-01-01 04:46:11.74	227.27	2.63	-46.4	-55.8	3.7	8.44e-01	0	37	104	0	60	22378
2026-01-01 04:46:12.75	227.37	2.68	-46.2	-54.4	4.2	8.30e-01	0	37	0	0	60	18920
2026-01-01 04:46:13.76	227.46	2.73	-45.8	-51.3	5.4	7.43e-01	0	37	0	0	60	13269
2026-01-01 04:46:14.77	227.55	2.78	-45.4	-50.3	6.5	2.41e-01	0	37	0	5242880	60	11774
2026-01-01 04:46:15.78	227.65	2.83	-45.0	-49.1	7.8	1.27e-01	0	37	0	10485760	60	10284
2026-01-01 04:46:16.79	227.74	2.88	-44.8	-48.7	8.3	6.18e-02	0	37	0	16777216	60	9856
2026-01-01 04:46:17.80	227.84	2.93	-44.8	-48.7	8.3	4.78e-02	0	37	0	22020096	60	9840
2026-01-01 04:46:18.81	227.93	2.98	-44.8	-48.7	8.2	5.75e-02	0	37	0	27262976	60	9819
2026-01-01 04:46:19.82	228.03	3.03	-45.2	-49.7	7.1	1.35e-01	0	37	0	33554432	60	11011
2026-01-01 04:46:20.83	228.12	3.08	-47.0	-58.7	3.6	1.16e-01	0	37	104	37748736	60	31025
2026-01-01 04:46:21.84	228.22	3.13	-46.4	-56.4	3.6	8.30e-01	0	37	104	37748736	60	23781
2026-01-01 04:46:22.85	228.31	3.18	-44.0	-47.3	9.6	3.19e-01	0	37	0	38797312	60	8411
2026-01-01 04:46:23.86	228.41	3.23	-46.8	-54.5	3.6	6.80e-01	0	37	0	42991616	60	19206
2026-01-01 04:46:24.87	228.51	3.28	-44.6	-49.1	7.4	2.10e-02	0	37	104	42991616	60	10296
2026-01-01 04:46:25.88	228.61	3.33	-44.6	-48.4	8.5	5.93e-02	0	37	0	47185920	60	9492
2026-01-01 04:46:26.89	228.70	3.39	-44.6	-48.3	8.7	3.01e-02	0	37	0	53477376	60	9392
2026-01-01 04:46:27.90	228.80	3.44	-44.6	-48.0	9.6	1.86e-02	0	37	0	58720256	60	9052
2026-01-01 04:46:28.91	228.90	3.49	-44.7	-48.2	9.4	1.75e-02	0	37	0	63963136	60	9247
2026-01-01 04:46:29.92	229.00	3.54	-44.7	-48.2	9.5	1.83e-02	0	37	0	70254592	60	9252
2026-01-01 04:46:30.93	229.10	3.59	-44.7	-47.9	9.8	1.19e-02	0	37	0	75497472	60	9014
2026-01-01 04:46:31.94	229.20	3.64	-44.8	-48.3	9.5	1.69e-02	0	37	0	81788928	60	9366
2026-01-01 04:46:32.95	229.30	3.69	-44.9	-48.4	9.4	2.43e-02	0	37	0	87031808	60	9547
2026-01-01 04:46:33.96	229.40	3.74	-45.0	-48.5	9.2	2.31e-02	0	37	0	92274688	60	9667
2026-01-01 04:46:34.97	229.50	3.79	-45.1	-48.8	8.8	2.75e-02	0	37	0	98566144	60	10005
2026-01-01 04:46:35.98	229.60	3.84	-45.2	-48.9	8.8	3.82e-02	0	37	0	103809024	60	10088
2026-01-01 04:46:36.99	229.70	3.89	-45.2	-49.0	8.8	4.17e-02	0	37	0	110100480	60	10226
2026-01-01 04:46:38.00	229.80	3.94	-45.2	-49.0	8.7	4.20e-02	0	37	0	115343360	60	10208
2026-01-01 04:46:39.01	229.90	3.99	-45.3	-49.3	8.5	4.71e-02	0	37	0	120586240	60	10503
2026-01-01 04:46:40.02	230.00	4.04	-45.4	-49.3	8.5	4.91e-02	0	37	0	126877696	60	10542
2026-01-01 04:46:41.03	230.10	4.09	-45.3	-49.1	8.7	4.63e-02	0	37	0	132120576	60	10322
2026-01-01 04:46:42.04	230.21	4.14	-45.4	-49.3	8.4	5.15e-02	0	37	0	138412032	60	10583
2026-01-01 04:46:43.05	230.31	4.20	-45.4	-49.3	8.5	5.00e-02	0	37	0	143654912	60	10577
2026-01-01 04:46:44.06	230.41	4.25	-45.5	-49.4	8.5	4.60e-02	0	37	0	149946368	60	10641
2026-01-01 04:46:45.07	230.52	4.30	-45.5	-49.6	8.3	5.66e-02	0	37	0	155189248	60	10872
2026-01-01 04:46:46.08	230.62	4.35	-45.5	-49.4	8.4	5.69e-02	0	37	0	161480704	60	10649
2026-01-01 04:46:47.09	230.72	4.40	-45.5	-49.5	8.2	5.95e-02	0	37	0	166723584	60	10793
2026-01-01 04:46:48.10	230.83	4.45	-45.5	-49.5	8.0	6.76e-02	0	37	0	171966464	60	10849
2026-01-01 04:46:49.11	230.93	4.50	-45.6	-49.8	7.9	7.57e-02	0	37	0	178257920	60	11182
2026-01-01 04:46:50.12	231.04	4.55	-45.6	-49.6	8.2	6.58e-02	0	37	0	183500800	60	10937
2026-01-01 04:46:51.13	231.14	4.60	-45.8	-49.9	8.0	6.55e-02	0	37	0	189792256	60	11254
2026-01-01 04:46:52.14	231.25	4.65	-45.7	-49.8	8.1	6.26e-02	0	37	0	195035136	60	11142
2026-01-01 04:46:53.15	231.36	4.70	-45.7	-49.7	8.2	6.39e-02	0	37	0	200278016	60	11102
2026-01-01 04:46:54.16	231.46	4.76	-45.8	-49.9	8.1	6.85e-02	0	37	0	206569472	60	11264
2026-01-01 04:46:55.17	231.57	4.81	-45.9	-50.0	8.0	7.85e-02	0	37	0	211812352	60	11488
2026-01-01 04:46:56.18	231.68	4.86	-45.9	-50.0	8.0	1.48e-01	0	38	0	218103808	60	11403
2026-01-01 04:46:57.19	231.78	4.91	-46.0	-50.1	7.9	8.11e-02	0	37	0	223346688	60	11542
2026-01-01 04:46:58.20	231.89	4.96	-46.0	-50.2	7.9	8.11e-02	0	37	0	228589568	60	11715
2026-01-01 04:46:59.21	232.00	5.01	-46.1	-50.3	7.7	8.65e-02	0	38	0	234881024	60	11876
2026-01-01 04:47:00.22	232.11	5.06	-46.1	-50.2	7.9	8.74e-02	0	37	0	240123904	60	11757
2026-01-01 04:47:01.23	232.22	5.11	-46.2	-50.4	7.8	9.16e-02	0	37	0	246415360	60	11939
2026-01-01 04:47:02.24	232.33	5.16	-46.2	-50.4	7.7	9.38e-02	0	38	0	251658240	60	11987
2026-01-01 04:47:03.25	232.44	5.22	-46.2	-50.5	7.6	9.71e-02	0	38	0	257949696	60	12126
2026-01-01 04:47:04.26	232.55	5.27	-46.3	-50.5	7.6	9.63e-02	0	38	0	263192576	60	12156
2026-01-01 04:47:05.27	232.66	5.32	-46.2	-50.4	7.8	1.03e-01	0	37	0	269484032	60	11992
2026-01-01 04:47:06.28	232.77	5.37	-46.2	-50.4	7.7	9.46e-02	0	38	0	274726912	60	11991
2026-01-01 04:47:07.29	232.88	5.42	-46.2	-50.4	7.8	9.08e-02	0	38	0	279969792	60	11948
2026-01-01 04:47:08.30	232.99	5.47	-46.2	-50.3	7.8	9.13e-02	0	38	0	286261248	60	11898
2026-01-01 04:47:09.31	233.11	5.52	-46.2	-50.3	7.9	8.77e-02	0	37	0	291504128	60	11881
2026-01-01 04:47:10.32	233.22	5.57	-46.2	-50.3	7.9	8.41e-02	0	37	0	297795584	60	11817
2026-01-01 04:47:11.33	233.33	5.63	-46.2	-50.4	7.9	8.30e-02	0	38	0	303038464	60	11926
2026-01-01 04:47:12.34	233.45	5.68	-46.1	-50.2	8.2	7.01e-02	0	38	0	308281344	60	11637
2026-01-01 04:47:13.35	233.56	5.73	-46.2	-50.2	8.1	6.44e-02	0	38	0	314572800	60	11682
2026-01-01 04:47:14.36	233.67	5.78	-46.1	-50.0	8.4	5.79e-02	0	38	0	319815680	60	11432
2026-01-01 04:47:15.37	233.79	5.83	-46.0	-49.8	8.6	4.29e-02	0	38	0	326107136	60	11225
2026-01-01 04:47:16.38	233.90	5.88	-46.0	-49.8	8.7	4.04e-02	0	38	0	331350016	60	11132
2026-01-01 04:47:17.39	234.02	5.93	-46.1	-49.8	8.6	4.39e-02	0	38	0	336592896	60	11226
2026-01-01 04:47:18.40	234.13	5.98	-46.0	-49.7	8.9	3.33e-02	0	38	0	342884352	60	11064
2026-01-01 04:47:19.41	234.25	6.04	-46.0	-49.8	8.8	3.56e-02	0	37	0	348127232	60	11129
2026-01-01 04:47:20.42	234.37	6.09	-45.9	-49.6	9.1	2.90e-02	0	37	0	354418688	60	10880
2026-01-01 04:47:21.43	234.48	6.14	-46.0	-49.7	8.9	3.16e-02	0	38	0	359661568	60	11069
2026-01-01 04:47:22.44	234.60	6.19	-46.0	-49.8	8.9	3.37e-02	0	37	0	365953024	60	11111
2026-01-01 04:47:23.45	234.72	6.24	-46.0	-49.7	8.9	3.12e-02	0	38	0	371195904	60	11061
2026-01-01 04:47:24.46	234.84	6.29	-46.0	-49.6	9.0	2.82e-02	0	38	0	376438784	60	10948
2026-01-01 04:47:25.47	234.95	6.34	-45.9	-49.5	9.2	2.95e-02	0	38	0	382730240	60	10797
2026-01-01 04:47:26.48	235.07	6.39	-45.8	-49.3	9.4	2.02e-02	0	38	0	387973120	60	10584
2026-01-01 04:47:27.49	235.19	6.45	-45.8	-49.3	9.4	1.93e-02	0	38	0	394264576	60	10575
2026-01-01 04:47:28.50	235.31	6.50	-45.8	-49.2	9.6	1.76e-02	0	38	0	399507456	60	10442
2026-01-01 04:47:29.51	235.43	6.55	-45.6	-48.9	9.9	1.32e-02	0	38	0	404750336	60	10070
2026-01-01 04:47:30.52	235.55	6.60	-45.5	-48.7	10.1	8.44e-03	0	38	0	411041792	60	9820
2026-01-01 04:47:31.53	235.67	6.65	-45.5	-48.6	10.3	7.13e-03	0	38	0	416284672	60	9727
2026-01-01 04:47:32.54	235.79	6.70	-45.4	-48.5	10.4	6.57e-03	0	38	0	422576128	60	9617
2026-01-01 04:47:33.55	235.92	6.75	-45.4	-48.4	10.6	5.09e-03	0	38	0	427819008	60	9514
2026-01-01 04:47:34.56	236.04	6.81	-45.2	-48.1	11.0	2.99e-03	0	38	0	433061888	60	9158
2026-01-01 04:47:35.57	236.16	6.86	-44.9	-47.6	11.5	1.48e-03	0	38	0	439353344	60	8687
2026-01-01 04:47:36.58	236.28	6.91	-44.8	-47.5	11.6	1.08e-03	0	38	0	444596224	60	8553
2026-01-01 04:47:37.59	236.41	6.96	-44.8	-47.4	11.7	8.07e-04	0	38	0	450887680	60	8441
2026-01-01 04:47:38.60	236.53	7.01	-44.6	-47.1	12.0	6.23e-04	0	38	0	456130560	60	8189
2026-01-01 04:47:39.61	236.65	7.06	-44.5	-46.9	12.2	4.04e-04	0	38	0	462422016	60	8029
2026-01-01 04:47:40.62	236.78	7.11	-44.3	-46.7	12.5	2.16e-04	0	38	0	467664896	60	7810
2026-01-01 04:47:41.63	236.90	7.16	-44.2	-46.5	12.7	1.54e-04	0	38	0	473956352	60	7657
2026-01-01 04:47:42.64	237.03	7.22	-44.2	-46.5	12.7	1.22e-04	0	38	0	479199232	60	7672
2026-01-01 04:47:43.65	237.16	7.27	-44.1	-46.4	13.0	1.21e-04	0	38	0	484442112	60	7526
2026-01-01 04:47:44.66	237.28	7.32	-43.9	-46.1	13.3	3.20e-05	0	38	0	490733568	60	7260
2026-01-01 04:47:45.67	237.41	7.37	-43.8	-45.9	13.5	3.20e-05	0	38	0	495976448	60	7137
2026-01-01 04:47:46.68	237.54	7.42	-43.6	-45.7	13.7	1.25e-05	0	38	0	502267904	60	6956
2026-01-01 04:47:47.69	237.66	7.47	-43.7	-45.8	13.6	1.14e-05	0	38	0	507510784	60	7026
2026-01-01 04:47:48.70	237.79	7.52	-43.3	-45.2	14.2	5.70e-06	0	38	0	512753664	60	6600
2026-01-01 04:47:49.71	237.92	7.57	-43.0	-44.8	14.6	2.20e-06	0	38	0	519045120	60	6268
2026-01-01 04:47:50.72	238.05	7.62	-43.0	-44.7	14.7	1.10e-06	0	38	0	524288000	60	6226
2026-01-01 04:47:51.73	238.18	7.68	-42.9	-44.7	14.7	0.00e+00	0	38	0	530579456	60	6193
2026-01-01 04:47:52.74	238.31	7.73	-43.0	-44.8	14.6	0.00e+00	0	38	0	535822336	60	6256
2026-01-01 04:47:53.75	238.44	7.78	-42.7	-44.5	14.8	0.00e+00	0	38	0	541065216	60	6052
2026-01-01 04:47:54.76	238.57	7.83	-42.6	-44.3	14.9	0.00e+00	0	38	0	547356672	58	6682
2026-01-01 04:47:55.77	238.70	7.88	-42.6	-44.3	14.9	0.00e+00	0	38	0	552599552	58	6648
2026-01-01 04:47:56.78	238.83	7.93	-42.5	-44.1	15.2	0.00e+00	0	38	0	558891008	58	6521
2026-01-01 04:47:57.79	238.96	7.98	-42.1	-43.6	15.7	0.00e+00	0	38	0	564133888	58	6143
2026-01-01 04:47:58.80	239.10	8.03	-41.7	-43.2	16.3	0.00e+00	0	38	0	570425344	56	6560
2026-01-01 04:47:59.81	239.23	8.08	-41.7	-43.1	16.3	0.00e+00	0	38	0	575668224	56	6539
2026-01-01 04:48:00.82	239.36	8.13	-41.5	-42.8	16.7	0.00e+00	0	38	0	581959680	56	6289
2026-01-01 04:48:01.83	239.50	8.18	-41.3	-42.7	16.9	0.00e+00	0	38	0	587202560	56	6190
2026-01-01 04:48:02.84	239.63	8.24	-40.9	-42.1	17.3	0.00e+00	0	38	0	592445440	56	5819
2026-01-01 04:48:03.85	239.76	8.29	-40.7	-41.9	17.5	0.00e+00	0	38	0	598736896	54	6379
2026-01-01 04:48:04.86	239.90	8.34	-40.6	-41.8	17.7	0.00e+00	0	38	0	603979776	54	6305
2026-01-01 04:48:05.87	240.03	8.39	-40.4	-41.6	17.9	0.00e+00	0	38	0	610271232	54	6124
2026-01-01 04:48:06.88	240.17	8.44	-40.1	-41.3	18.2	0.00e+00	0	38	0	615514112	54	5902
2026-01-01 04:48:07.89	240.31	8.49	-40.0	-41.1	18.4	0.00e+00	0	38	0	620756992	54	5825
2026-01-01 04:48:08.90	240.44	8.54	-40.1	-41.2	18.3	0.00e+00	0	38	0	627048448	54	5867
2026-01-01 04:48:09.91	240.58	8.59	-39.7	-40.8	18.7	0.00e+00	0	38	0	632291328	52	6281
2026-01-01 04:48:10.92	240.72	8.64	-39.5	-40.5	19.0	0.00e+00	0	38	0	638582784	52	6074
2026-01-01 04:48:11.93	240.86	8.69	-39.4	-40.4	19.1	0.00e+00	0	38	0	643825664	52	6007
2026-01-01 04:48:12.94	241.00	8.74	-39.2	-40.2	19.3	0.00e+00	0	38	0	649068544	52	5864
2026-01-01 04:48:13.95	241.14	8.79	-39.1	-40.1	19.4	0.00e+00	0	38	0	655360000	52	5806
2026-01-01 04:48:14.96	241.28	8.84	-38.8	-39.8	19.7	0.00e+00	0	38	0	660602880	52	5620
2026-01-01 04:48:15.97	241.42	8.89	-38.8	-39.8	19.8	0.00e+00	0	38	0	666894336	52	5587
2026-01-01 04:48:16.98	241.56	8.94	-38.6	-39.6	19.9	0.00e+00	0	38	0	672137216	50	6133
2026-01-01 04:48:17.99	241.70	8.99	-38.3	-39.3	20.2	0.00e+00	0	38	0	678428672	50	5926
2026-01-01 04:48:19.00	241.84	9.04	-38.3	-39.3	20.1	0.00e+00	0	38	0	683671552	50	5923
2026-01-01 04:48:20.01	241.98	9.09	-38.0	-38.9	20.6	0.00e+00	0	38	0	688914432	50	5654
2026-01-01 04:48:21.02	242.12	9.14	-37.7	-38.6	20.9	0.00e+00	0	38	0	695205888	48	6108
2026-01-01 04:48:22.03	242.27	9.19	-37.7	-38.6	20.9	0.00e+00	0	38	0	700448768	48	6110
2026-01-01 04:48:23.04	242.41	9.24	-37.4	-38.2	21.2	0.00e+00	0	38	0	706740224	48	5891
2026-01-01 04:48:24.05	242.55	9.29	-37.1	-37.9	21.5	0.00e+00	0	38	0	711983104	48	5695
2026-01-01 04:48:25.06	242.70	9.34	-37.1	-37.9	21.6	0.00e+00	0	38	0	717225984	48	5651
2026-01-01 04:48:26.07	242.84	9.39	-36.9	-37.7	21.7	0.00e+00	0	38	0	723517440	48	5539
2026-01-01 04:48:27.08	242.99	9.44	-36.9	-37.7	21.8	0.00e+00	0	38	0	728760320	48	5517
2026-01-01 04:48:28.09	243.13	9.49	-36.8	-37.7	21.8	0.00e+00	0	38	0	735051776	46	6187
2026-01-01 04:48:29.10	243.28	9.54	-36.8	-37.6	21.9	0.00e+00	0	38	0	740294656	46	6116
2026-01-01 04:48:30.11	243.43	9.59	-36.5	-37.3	22.2	0.00e+00	0	38	0	745537536	46	5934
2026-01-01 04:48:31.12	243.57	9.64	-36.5	-37.3	22.3	0.00e+00	0	38	0	751828992	46	5918
2026-01-01 04:48:32.13	243.72	9.69	-36.3	-37.1	22.4	0.00e+00	0	38	0	757071872	46	5810
2026-01-01 04:48:33.14	243.87	9.74	-36.3	-37.1	22.5	0.00e+00	0	38	0	763363328	46	5773
2026-01-01 04:48:34.15	244.02	9.79	-36.0	-36.8	22.8	0.00e+00	0	38	0	768606208	46	5594
2026-01-01 04:48:35.16	244.17	9.84	-36.0	-36.8	22.8	0.00e+00	0	38	0	774897664	46	5569
2026-01-01 04:48:36.17	244.32	9.89	-36.0	-36.7	22.8	0.00e+00	0	38	0	780140544	46	5562
2026-01-01 04:48:37.18	244.47	9.94	-35.7	-36.4	23.1	0.00e+00	0	38	0	786432000	44	6015
2026-01-01 04:48:38.19	244.62	9.98	-35.5	-36.3	23.2	0.00e+00	0	38	0	791674880	44	5911
2026-01-01 04:48:39.20	244.77	10.03	-35.5	-36.2	23.3	0.00e+00	0	38	0	796917760	44	5878
2026-01-01 04:48:40.21	244.92	10.08	-35.4	-36.2	23.3	0.00e+00	0	38	0	803209216	44	5843
2026-01-01 04:48:41.22	245.07	10.13	-35.6	-36.3	23.2	0.00e+00	0	38	0	808452096	44	5951
2026-01-01 04:48:42.23	245.22	10.18	-35.2	-35.9	23.6	0.00e+00	0	38	0	814743552	44	5647
2026-01-01 04:48:43.24	245.38	10.23	-35.3	-36.0	23.4	0.00e+00	0	38	0	819986432	44	5738
2026-01-01 04:48:44.25	245.53	10.28	-35.1	-35.8	23.7	0.00e+00	0	38	0	825229312	44	5627
2026-01-01 04:48:45.26	245.69	10.32	-35.2	-36.0	23.6	0.00e+00	0	38	0	831520768	44	5715
2026-01-01 04:48:46.27	245.84	10.37	-34.9	-35.6	23.9	0.00e+00	0	38	0	836763648	44	5497
2026-01-01 04:48:47.28	246.00	10.42	-35.0	-35.7	23.8	0.00e+00	0	38	0	843055104	44	5560
2026-01-01 04:48:48.29	246.15	10.47	-34.9	-35.6	24.0	0.00e+00	0	38	0	848297984	44	5473
2026-01-01 04:48:49.30	246.31	10.52	-34.8	-35.5	24.0	0.00e+00	0	38	0	853540864	42	6077
2026-01-01 04:48:50.31	246.46	10.57	-34.9	-35.7	23.9	0.00e+00	0	38	0	859832320	42	6180
2026-01-01 04:48:51.32	246.62	10.61	-34.8	-35.5	24.1	0.00e+00	0	38	0	865075200	42	6070
2026-01-01 04:48:52.33	246.78	10.66	-34.7	-35.4	24.2	0.00e+00	0	38	0	871366656	42	5993
2026-01-01 04:48:53.34	246.94	10.71	-34.5	-35.2	24.4	0.00e+00	0	38	0	876609536	42	5843
2026-01-01 04:48:54.35	247.09	10.76	-34.6	-35.3	24.3	0.00e+00	0	38	0	882900992	42	5908
2026-01-01 04:48:55.36	247.25	10.80	-34.4	-35.2	24.4	0.00e+00	0	38	0	888143872	42	5836
2026-01-01 04:48:56.37	247.41	10.85	-34.5	-35.2	24.3	0.00e+00	0	38	0	894435328	42	5873
2026-01-01 04:48:57.38	247.57	10.90	-34.5	-35.2	24.5	0.00e+00	0	38	0	899678208	42	5880
2026-01-01 04:48:58.39	247.73	10.95	-34.4	-35.1	24.5	0.00e+00	0	38	0	904921088	42	5810
2026-01-01 04:48:59.39	247.89	10.99	-34.2	-34.9	24.6	0.00e+00	0	38	0	911212544	42	5692
2026-01-01 04:49:00.40	248.05	11.04	-34.3	-35.0	24.6	0.00e+00	0	38	0	916455424	42	5717
2026-01-01 04:49:01.41	248.22	11.09	-34.2	-35.0	24.6	0.00e+00	0	38	0	921698304	42	5706
2026-01-01 04:49:02.42	248.38	11.13	-34.1	-34.8	24.7	0.00e+00	0	38	0	927989760	42	5617
2026-01-01 04:49:03.43	248.54	11.18	-34.2	-34.9	24.7	0.00e+00	0	38	0	933232640	42	5681
2026-01-01 04:49:04.44	248.70	11.23	-34.2	-34.9	24.6	0.00e+00	0	38	0	939524096	42	5688
2026-01-01 04:49:05.45	248.87	11.27	-34.1	-34.8	24.8	0.00e+00	0	38	0	944766976	42	5583
2026-01-01 04:49:06.46	249.03	11.32	-34.1	-34.8	24.8	0.00e+00	0	38	0	950009856	42	5575
2026-01-01 04:49:07.47	249.20	11.36	-34.1	-34.8	24.7	0.00e+00	0	38	0	956301312	42	5615
2026-01-01 04:49:08.48	249.36	11.41	-34.1	-34.8	24.8	0.00e+00	0	38	0	961544192	42	5579
2026-01-01 04:49:09.49	249.53	11.46	-34.2	-34.9	24.7	0.00e+00	0	38	0	967835648	42	5643
2026-01-01 04:49:10.50	249.70	11.50	-34.1	-34.8	24.8	0.00e+00	0	38	0	973078528	42	5576
2026-01-01 04:49:11.51	249.86	11.55	-34.2	-34.9	24.6	0.00e+00	0	38	0	979369984	42	5656
2026-01-01 04:49:12.51	250.03	11.59	-34.1	-34.8	24.7	0.00e+00	0	38	0	984612864	42	5595
2026-01-01 04:49:13.52	250.20	11.64	-34.1	-34.8	24.7	0.00e+00	0	38	0	990904320	42	5629
2026-01-01 04:49:14.53	250.36	11.68	-34.2	-34.9	24.7	0.00e+00	0	38	0	996147200	42	5676
2026-01-01 04:49:15.55	250.54	11.73	-34.2	-34.9	24.6	0.00e+00	0	38	0	1001390080	42	5683
2026-01-01 04:49:16.55	250.70	11.77	-34.2	-34.9	24.6	0.00e+00	0	38	0	1007681536	42	5672
2026-01-01 04:49:17.56	250.87	11.82	-34.2	-34.9	24.7	0.00e+00	0	38	0	1012924416	42	5684
2026-01-01 04:49:18.57	251.04	11.86	-34.0	-34.7	24.8	0.00e+00	0	38	0	1019215872	42	5527
2026-01-01 04:49:19.58	251.21	11.91	-34.2	-34.9	24.7	0.00e+00	0	38	0	1024458752	42	5668
2026-01-01 04:49:20.59	251.39	11.95	-34.1	-34.8	24.7	0.00e+00	0	38	0	1029701632	42	5621
2026-01-01 04:49:21.60	251.56	11.99	-34.1	-34.8	24.8	0.00e+00	0	38	0	1035993088	42	5612
2026-01-01 04:49:22.61	251.73	12.04	-34.0	-34.7	24.9	0.00e+00	0	38	0	1041235968	42	5539
2026-01-01 04:49:23.62	251.90	12.08	-34.0	-34.7	24.9	0.00e+00	0	38	0	1047527424	42	5516
2026-01-01 04:49:24.64	252.08	12.13	-33.9	-34.6	25.0	0.00e+00	0	38	0	1052770304	42	5470
2026-01-01 04:49:25.65	252.25	12.17	-33.9	-34.6	24.9	0.00e+00	0	38	0	1058013184	42	5476
2026-01-01 04:49:26.66	252.43	12.21	-33.8	-34.4	25.1	0.00e+00	0	38	0	1064304640	42	5371
2026-01-01 04:49:27.67	252.60	12.26	-33.8	-34.5	25.1	0.00e+00	0	38	0	1069547520	40	6059
2026-01-01 04:49:28.68	252.78	12.30	-33.8	-34.5	25.1	0.00e+00	0	38	0	1075838976	40	6059
2026-01-01 04:49:29.69	252.95	12.34	-33.7	-34.4	25.1	0.00e+00	0	38	0	1081081856	40	6028
2026-01-01 04:49:30.69	253.13	12.38	-33.8	-34.5	25.1	0.00e+00	0	38	0	1087373312	40	6047
2026-01-01 04:49:31.70	253.31	12.43	-33.7	-34.4	25.1	0.00e+00	0	38	0	1092616192	40	6015
2026-01-01 04:49:32.71	253.48	12.47	-33.7	-34.3	25.2	0.00e+00	0	38	0	1098907648	40	5963
2026-01-01 04:49:33.72	253.66	12.51	-33.6	-34.3	25.3	0.00e+00	0	38	0	1104150528	40	5916
2026-01-01 04:49:34.73	253.84	12.55	-33.7	-34.4	25.2	0.00e+00	0	38	0	1109393408	40	5974
2026-01-01 04:49:35.74	254.02	12.60	-33.5	-34.2	25.3	0.00e+00	0	38	0	1115684864	40	5838
2026-01-01 04:49:36.75	254.20	12.64	-33.5	-34.2	25.3	0.00e+00	0	38	0	1120927744	40	5859
2026-01-01 04:49:37.76	254.38	12.68	-33.6	-34.2	25.3	0.00e+00	0	38	0	1127219200	40	5882
2026-01-01 04:49:38.77	254.56	12.72	-33.5	-34.2	25.4	0.00e+00	0	38	0	1132462080	40	5835
2026-01-01 04:49:39.78	254.74	12.76	-33.5	-34.2	25.4	0.00e+00	0	38	0	1137704960	40	5842
2026-01-01 04:49:40.79	254.92	12.80	-33.5	-34.1	25.3	0.00e+00	0	38	0	1143996416	40	5820
2026-01-01 04:49:41.80	255.10	12.84	-33.5	-34.2	25.4	0.00e+00	0	38	0	1149239296	40	5861
2026-01-01 04:49:42.80	255.28	12.88	-33.6	-34.3	25.2	0.00e+00	0	38	0	1154482176	40	5951
2026-01-01 04:49:43.82	255.47	12.92	-33.7	-34.4	25.2	0.00e+00	0	38	0	1160773632	40	5976
2026-01-01 04:49:44.82	255.65	12.96	-33.8	-34.5	25.1	0.00e+00	0	38	0	1166016512	40	6098
2026-01-01 04:49:45.83	255.83	13.00	-33.7	-34.4	25.2	0.00e+00	0	38	0	1172307968	40	6007
2026-01-01 04:49:46.84	256.02	13.04	-33.8	-34.5	25.1	0.00e+00	0	38	0	1177550848	40	6062
2026-01-01 04:49:47.85	256.20	13.08	-33.6	-34.3	25.2	0.00e+00	0	38	0	1183842304	40	5926
2026-01-01 04:49:48.86	256.39	13.12	-33.7	-34.4	25.3	0.00e+00	0	38	0	1189085184	40	6013
2026-01-01 04:49:49.87	256.57	13.16	-33.6	-34.3	25.3	0.00e+00	0	38	0	1195376640	40	5900
2026-01-01 04:49:50.88	256.76	13.20	-33.6	-34.3	25.3	0.00e+00	0	38	0	1200619520	40	5897
2026-01-01 04:49:51.89	256.94	13.24	-33.6	-34.3	25.3	0.00e+00	0	38	0	1205862400	40	5937
2026-01-01 04:49:52.90	257.13	13.28	-33.5	-34.2	25.4	0.00e+00	0	38	0	1212153856	40	5873
2026-01-01 04:49:53.91	257.32	13.31	-33.7	-34.3	25.2	0.00e+00	0	38	0	1217396736	40	5940
2026-01-01 04:49:54.91	257.50	13.35	-33.4	-34.1	25.5	0.00e+00	0	38	0	1223688192	40	5769
2026-01-01 04:49:55.93	257.69	13.39	-33.5	-34.2	25.3	0.00e+00	0	38	0	1228931072	40	5853
2026-01-01 04:49:56.94	257.88	13.43	-33.6	-34.2	25.3	0.00e+00	0	38	0	1234173952	40	5878
2026-01-01 04:49:57.95	258.07	13.47	-33.6	-34.3	25.2	0.00e+00	0	38	0	1240465408	40	5935
2026-01-01 04:49:58.95	258.26	13.50	-33.7	-34.4	25.1	0.00e+00	0	38	0	1245708288	40	6003
2026-01-01 04:49:59.97	258.45	13.54	-33.8	-34.5	25.1	0.00e+00	0	38	0	1251999744	40	6047
2026-01-01 04:50:00.98	258.64	13.58	-33.8	-34.5	25.2	0.00e+00	0	38	0	1257242624	40	6050
2026-01-01 04:50:01.99	258.84	13.61	-33.6	-34.3	25.3	0.00e+00	0	38	0	1262485504	40	5916
2026-01-01 04:50:03.00	259.03	13.65	-33.6	-34.2	25.4	0.00e+00	0	38	0	1268776960	40	5882
2026-01-01 04:50:04.00	259.22	13.68	-33.4	-34.1	25.4	0.00e+00	0	38	0	1274019840	40	5772
2026-01-01 04:50:05.01	259.41	13.72	-33.4	-34.1	25.5	0.00e+00	0	38	0	1280311296	40	5775
2026-01-01 04:50:06.02	259.60	13.76	-33.2	-33.8	25.6	0.00e+00	0	38	0	1285554176	40	5623
2026-01-01 04:50:07.03	259.80	13.79	-33.1	-33.8	25.7	0.00e+00	0	38	0	1291845632	40	5597
2026-01-01 04:50:08.04	259.99	13.83	-33.2	-33.8	25.7	0.00e+00	0	38	0	1297088512	40	5620
2026-01-01 04:50:09.05	260.18	13.86	-33.2	-33.9	25.6	0.00e+00	0	38	0	1302331392	40	5636
2026-01-01 04:50:10.06	260.38	13.89	-33.3	-34.0	25.5	0.00e+00	0	38	0	1308622848	40	5713
2026-01-01 04:50:11.07	260.57	13.93	-33.5	-34.2	25.4	0.00e+00	0	38	0	1313865728	40	5854
2026-01-01 04:50:12.08	260.77	13.96	-33.6	-34.3	25.4	0.00e+00	0	38	0	1320157184	40	5903
2026-01-01 04:50:13.09	260.97	14.00	-33.5	-34.2	25.3	0.00e+00	0	38	0	1325400064	40	5832
2026-01-01 04:50:14.10	261.16	14.03	-33.5	-34.2	25.3	0.00e+00	0	38	0	1330642944	40	5875
2026-01-01 04:50:15.11	261.36	14.06	-33.4	-34.0	25.5	0.00e+00	0	38	0	1336934400	40	5750
2026-01-01 04:50:16.13	261.56	14.10	-33.3	-33.9	25.6	0.00e+00	0	38	0	1342177280	40	5691
2026-01-01 04:50:17.14	261.76	14.13	-33.2	-33.9	25.6	0.00e+00	0	38	0	1348468736	40	5633
2026-01-01 04:50:18.14	261.95	14.16	-33.3	-34.0	25.6	0.00e+00	0	38	0	1353711616	40	5739
2026-01-01 04:50:19.15	262.15	14.19	-33.1	-33.8	25.7	0.00e+00	0	38	0	1358954496	40	5568
2026-01-01 04:50:20.16	262.35	14.22	-33.1	-33.7	25.7	0.00e+00	0	38	0	1365245952	40	5556
2026-01-01 04:50:21.17	262.55	14.26	-33.1	-33.8	25.8	0.00e+00	0	38	0	1370488832	40	5597
2026-01-01 04:50:22.18	262.75	14.29	-33.2	-33.8	25.7	0.00e+00	0	38	0	1376780288	40	5605
2026-01-01 04:50:23.19	262.95	14.32	-33.0	-33.7	25.8	0.00e+00	0	38	0	1382023168	40	5507
2026-01-01 04:50:24.20	263.15	14.35	-33.0	-33.7	25.7	0.00e+00	0	38	0	1388314624	40	5527
2026-01-01 04:50:25.21	263.35	14.38	-33.0	-33.7	25.8	0.00e+00	0	38	0	1393557504	40	5511
2026-01-01 04:50:26.22	263.55	14.41	-33.1	-33.7	25.7	0.00e+00	0	38	0	1399848960	40	5551
2026-01-01 04:50:27.23	263.76	14.44	-33.1	-33.7	25.7	0.00e+00	0	38	0	1405091840	40	5559
2026-01-01 04:50:28.24	263.96	14.47	-33.2	-33.9	25.6	0.00e+00	0	38	0	1410334720	40	5647
2026-01-01 04:50:29.25	264.16	14.50	-33.3	-33.9	25.6	0.00e+00	0	38	0	1416626176	40	5671
2026-01-01 04:50:30.26	264.36	14.53	-33.2	-33.9	25.6	0.00e+00	0	38	0	1421869056	40	5643
2026-01-01 04:50:31.27	264.57	14.56	-36.8	-37.7	25.2	0.00e+00	0	38	0	1428160512	56	3495
2026-01-01 04:50:32.28	264.77	14.58	-34.1	-34.7	25.2	0.00e+00	0	38	0	1433403392	40	6237
2026-01-01 04:50:33.29	264.97	14.61	-33.4	-34.1	25.2	0.00e+00	0	38	0	1438646272	40	5799
2026-01-01 04:50:34.30	265.18	14.64	-33.5	-34.1	25.6	0.00e+00	0	38	0	1444937728	40	5819
2026-01-01 04:50:35.31	265.38	14.67	-33.3	-34.0	25.5	0.00e+00	0	38	0	1450180608	40	5744
2026-01-01 04:50:36.32	265.59	14.69	-33.1	-33.8	25.8	0.00e+00	0	38	0	1456472064	40	5609
2026-01-01 04:50:37.33	265.79	14.72	-33.1	-33.8	25.8	0.00e+00	0	38	0	1461714944	40	5584
2026-01-01 04:50:38.34	266.00	14.75	-33.1	-33.8	25.7	0.00e+00	0	38	0	1466957824	40	5610
2026-01-01 04:50:39.35	266.21	14.77	-33.3	-34.0	25.6	0.00e+00	0	38	0	1473249280	40	5696
2026-01-01 04:50:40.36	266.41	14.80	-33.3	-33.9	25.5	0.00e+00	0	38	0	1478492160	40	5688
2026-01-01 04:50:41.37	266.62	14.82	-33.4	-34.1	25.4	0.00e+00	0	38	0	1484783616	40	5808
2026-01-01 04:50:42.38	266.83	14.85	-33.3	-33.9	25.5	0.00e+00	0	38	0	1490026496	40	5688
2026-01-01 04:50:43.39	267.04	14.87	-33.2	-33.9	25.6	0.00e+00	0	38	0	1496317952	40	5681
2026-01-01 04:50:44.40	267.24	14.90	-33.2	-33.9	25.6	0.00e+00	0	38	0	1501560832	40	5694
2026-01-01 04:50:45.41	267.45	14.92	-33.1	-33.8	25.7	0.00e+00	0	38	0	1506803712	40	5602
2026-01-01 04:50:46.42	267.66	14.95	-33.0	-33.6	25.8	0.00e+00	0	38	0	1513095168	40	5498
2026-01-01 04:50:47.42	267.87	14.97	-32.9	-33.6	25.9	0.00e+00	0	37	0	1518338048	40	5462
2026-01-01 04:50:48.43	268.08	14.99	-33.1	-33.8	25.8	0.00e+00	0	38	0	1524629504	40	5568
2026-01-01 04:50:49.44	268.29	15.02	-33.0	-33.7	25.8	0.00e+00	0	38	0	1529872384	40	5529
2026-01-01 04:50:50.45	268.50	15.04	-33.2	-33.8	25.7	0.00e+00	0	38	0	1535115264	40	5613
2026-01-01 04:50:51.46	268.71	15.06	-33.2	-33.8	25.7	0.00e+00	0	38	0	1541406720	40	5610
2026-01-01 04:50:52.47	268.92	15.08	-33.1	-33.8	25.7	0.00e+00	0	38	0	1546649600	40	5625
2026-01-01 04:50:53.48	269.13	15.10	-33.1	-33.8	25.7	0.00e+00	0	38	0	1552941056	40	5580
2026-01-01 04:50:54.49	269.34	15.13	-33.0	-33.8	25.7	0.00e+00	0	38	0	1558183936	40	5570
2026-01-01 04:50:55.50	269.55	15.15	-33.0	-33.7	25.8	0.00e+00	0	38	0	1563426816	40	5526
2026-01-01 04:50:56.51	269.76	15.17	-33.0	-33.7	25.8	0.00e+00	0	38	0	1569718272	40	5523
2026-01-01 04:50:57.52	269.97	15.19	-32.9	-33.6	25.8	0.00e+00	0	38	0	1574961152	40	5488
2026-01-01 04:50:58.53	270.19	15.21	-33.0	-33.6	25.8	0.00e+00	0	38	0	1581252608	40	5491
2026-01-01 04:50:59.54	270.40	15.23	-33.1	-33.7	25.7	0.00e+00	0	38	0	1586495488	40	5536
2026-01-01 04:51:00.55	270.61	15.25	-33.2	-33.9	25.7	0.00e+00	0	38	0	1592786944	40	5631
2026-01-01 04:51:01.56	270.82	15.26	-33.2	-33.9	25.6	0.00e+00	0	38	0	1598029824	40	5671
2026-01-01 04:51:02.57	271.04	15.28	-32.9	-33.6	25.9	0.00e+00	0	38	0	1604321280	40	5456
2026-01-01 04:51:03.58	271.25	15.30	-33.1	-33.7	25.8	0.00e+00	0	38	0	1609564160	40	5563
2026-01-01 04:51:04.59	271.46	15.32	-33.1	-33.8	25.7	0.00e+00	0	38	0	1614807040	40	5598
2026-01-01 04:51:05.60	271.68	15.34	-33.2	-33.9	25.6	0.00e+00	0	38	0	1621098496	40	5636
2026-01-01 04:51:06.61	271.89	15.35	-33.3	-34.0	25.6	0.00e+00	0	38	0	1626341376	40	5719
2026-01-01 04:51:07.62	272.11	15.37	-33.3	-34.0	25.5	0.00e+00	0	38	0	1632632832	40	5728
2026-01-01 04:51:08.63	272.32	15.39	-33.4	-34.2	25.4	0.00e+00	0	37	0	1637875712	40	5839
2026-01-01 04:51:09.64	272.54	15.40	-33.2	-33.9	25.6	0.00e+00	0	38	0	1643118592	40	5661
2026-01-01 04:51:10.65	272.75	15.42	-33.1	-33.8	25.7	0.00e+00	0	38	0	1649410048	40	5619
2026-01-01 04:51:11.66	272.97	15.43	-33.1	-33.8	25.8	0.00e+00	0	38	0	1654652928	40	5582
2026-01-01 04:51:12.67	273.18	15.45	-33.1	-33.7	25.8	0.00e+00	0	38	0	1660944384	40	5565
2026-01-01 04:51:13.68	273.40	15.46	-32.9	-33.5	25.9	0.00e+00	0	38	0	1666187264	40	5418
2026-01-01 04:51:14.69	273.61	15.47	-32.9	-33.5	25.9	0.00e+00	0	38	0	1671430144	40	5425
2026-01-01 04:51:15.70	273.83	15.49	-32.8	-33.5	25.9	0.00e+00	0	38	0	1677721600	40	5389
2026-01-01 04:51:16.71	274.05	15.50	-33.1	-33.7	25.7	0.00e+00	0	38	0	1682964480	40	5564
2026-01-01 04:51:17.72	274.26	15.51	-33.0	-33.7	25.8	0.00e+00	0	38	0	1689255936	40	5520
2026-01-01 04:51:18.73	274.48	15.53	-33.1	-33.8	25.7	0.00e+00	0	38	0	1694498816	40	5591
2026-01-01 04:51:19.74	274.70	15.54	-33.1	-33.7	25.6	0.00e+00	0	38	0	1700790272	40	5553
2026-01-01 04:51:20.75	274.91	15.55	-33.1	-33.7	25.7	0.00e+00	0	38	0	1706033152	40	5532
2026-01-01 04:51:21.76	275.13	15.56	-32.9	-33.6	25.9	0.00e+00	0	38	0	1711276032	40	5469
2026-01-01 04:51:22.77	275.35	15.57	-32.8	-33.5	25.9	0.00e+00	0	38	0	1717567488	40	5410
2026-01-01 04:51:23.78	275.56	15.58	-32.8	-33.4	26.0	0.00e+00	0	38	0	1722810368	40	5369
2026-01-01 04:51:24.79	275.78	15.59	-32.9	-33.5	25.9	0.00e+00	0	38	0	1729101824	40	5411
2026-01-01 04:51:25.80	276.00	15.60	-32.9	-33.6	25.9	0.00e+00	0	37	0	1734344704	40	5451
2026-01-01 04:51:26.81	276.22	15.61	-33.0	-33.6	25.9	0.00e+00	0	38	0	1739587584	40	5491
2026-01-01 04:51:27.82	276.44	15.62	-32.9	-33.5	25.9	0.00e+00	0	38	0	1745879040	40	5387
2026-01-01 04:51:28.83	276.65	15.63	-32.9	-33.6	25.9	0.00e+00	0	38	0	1751121920	40	5490
2026-01-01 04:51:29.84	276.87	15.64	-32.7	-33.3	26.1	0.00e+00	0	37	0	1757413376	38	5934
2026-01-01 04:51:30.85	277.09	15.65	-32.8	-33.5	26.0	0.00e+00	0	38	0	1762656256	38	6047
2026-01-01 04:51:31.85	277.31	15.65	-32.9	-33.5	26.0	0.00e+00	0	38	0	1767899136	38	6078
2026-01-01 04:51:32.86	277.53	15.66	-32.7	-33.4	26.1	0.00e+00	0	38	0	1774190592	38	5991
2026-01-01 04:51:33.88	277.75	15.67	-32.7	-33.4	26.1	0.00e+00	0	37	0	1779433472	38	5968
2026-01-01 04:51:34.88	277.96	15.67	-32.8	-33.5	26.0	0.00e+00	0	37	0	1785724928	38	6053
2026-01-01 04:51:35.89	278.18	15.68	-32.9	-33.6	25.9	0.00e+00	0	37	0	1790967808	38	6128
2026-01-01 04:51:36.90	278.40	15.69	-32.9	-33.5	26.0	0.00e+00	0	38	0	1797259264	38	6089
2026-01-01 04:51:37.91	278.62	15.69	-32.8	-33.5	25.9	0.00e+00	0	38	0	1802502144	38	6038
2026-01-01 04:51:38.92	278.84	15.70	-32.8	-33.5	26.0	0.00e+00	0	37	0	1808793600	38	6062
2026-01-01 04:51:39.93	279.06	15.70	-32.9	-33.6	25.8	0.00e+00	0	37	0	1814036480	38	6135
2026-01-01 04:51:40.94	279.28	15.70	-33.0	-33.7	25.8	0.00e+00	0	37	0	1819279360	38	6198
2026-01-01 04:51:41.95	279.50	15.71	-33.0	-33.7	25.8	0.00e+00	0	37	0	1825570816	38	6189
2026-01-01 04:51:42.96	279.71	15.71	-33.2	-33.9	25.7	0.00e+00	0	38	0	1830813696	38	6334
2026-01-01 04:51:43.97	279.93	15.71	-33.1	-33.8	25.8	0.00e+00	0	37	0	1837105152	38	6262
2026-01-01 04:51:44.98	280.15	15.72	-33.0	-33.7	25.8	0.00e+00	0	37	0	1842348032	38	6215
2026-01-01 04:51:45.99	280.37	15.72	-33.2	-33.9	25.7	0.00e+00	0	37	0	1847590912	38	6346
2026-01-01 04:51:47.01	280.59	15.72	-33.1	-33.7	25.7	0.00e+00	0	37	0	1853882368	38	6242
2026-01-01 04:51:48.01	280.81	15.72	-33.0	-33.7	25.8	0.00e+00	0	37	0	1859125248	38	6207
2026-01-01 04:51:49.03	281.03	15.72	-33.0	-33.6	25.8	0.00e+00	0	37	0	1865416704	38	6157
2026-01-01 04:51:50.03	281.25	15.72	-33.0	-33.6	25.8	0.00e+00	0	37	0	1870659584	38	6144
2026-01-01 04:51:51.04	281.47	15.72	-33.0	-33.6	25.8	0.00e+00	0	38	0	1875902464	38	6138
2026-01-01 04:51:52.06	281.69	15.72	-33.0	-33.7	25.8	0.00e+00	0	37	0	1882193920	38	6187
2026-01-01 04:51:53.07	281.91	15.72	-33.2	-33.8	25.5	0.00e+00	0	37	0	1887436800	38	6307
2026-01-01 04:51:54.08	282.13	15.72	-33.1	-33.7	25.7	0.00e+00	0	37	0	1893728256	38	6236
2026-01-01 04:51:55.08	282.35	15.72	-33.2	-33.9	25.7	0.00e+00	0	37	0	1898971136	38	6332
2026-01-01 04:51:56.09	282.57	15.72	-33.0	-33.7	25.8	0.00e+00	0	37	0	1905262592	38	6176
2026-01-01 04:51:57.10	282.79	15.71	-33.1	-33.8	25.7	0.00e+00	0	37	0	1910505472	38	6271
2026-01-01 04:51:58.11	283.00	15.71	-33.1	-33.8	25.7	0.00e+00	0	37	0	1915748352	38	6317
2026-01-01 04:51:59.12	283.22	15.71	-32.9	-33.5	25.8	0.00e+00	0	37	0	1922039808	38	6101
2026-01-01 04:52:00.13	283.44	15.71	-33.0	-33.6	25.7	0.00e+00	0	37	0	1927282688	38	6168
2026-01-01 04:52:01.14	283.66	15.70	-33.0	-33.7	25.8	0.00e+00	0	37	0	1933574144	38	6177
2026-01-01 04:52:02.15	283.88	15.70	-33.1	-33.8	25.7	0.00e+00	0	37	0	1938817024	38	6260
2026-01-01 04:52:03.16	284.10	15.69	-33.2	-33.9	25.5	0.00e+00	0	37	0	1944059904	38	6371
2026-01-01 04:52:04.17	284.32	15.69	-33.2	-33.8	25.5	0.00e+00	0	37	0	1950351360	38	6308
2026-01-01 04:52:05.18	284.54	15.68	-33.2	-33.9	25.4	0.00e+00	0	37	0	1955594240	38	6333
2026-01-01 04:52:06.18	284.75	15.68	-33.3	-33.9	25.6	0.00e+00	0	37	0	1961885696	38	6381
2026-01-01 04:52:07.19	284.97	15.67	-33.1	-33.8	25.7	0.00e+00	0	37	0	1967128576	38	6310
2026-01-01 04:52:08.21	285.19	15.66	-33.1	-33.7	25.7	0.00e+00	0	37	0	1972371456	38	6232
2026-01-01 04:52:09.21	285.41	15.66	-33.1	-33.8	25.7	0.00e+00	0	37	0	1978662912	38	6250
2026-01-01 04:52:10.23	285.63	15.65	-33.2	-33.9	25.6	0.00e+00	0	37	0	1983905792	38	6320
2026-01-01 04:52:11.23	285.85	15.64	-33.2	-33.8	25.6	0.00e+00	0	37	0	1990197248	38	6285
2026-01-01 04:52:12.24	286.06	15.63	-33.2	-33.8	25.7	0.00e+00	0	37	0	1995440128	38	6283
2026-01-01 04:52:13.25	286.28	15.62	-33.1	-33.8	25.7	0.00e+00	0	37	0	2001731584	38	6291
2026-01-01 04:52:14.26	286.50	15.62	-33.0	-33.6	25.8	0.00e+00	0	38	0	2006974464	38	6151
2026-01-01 04:52:15.27	286.72	15.61	-33.0	-33.6	25.9	0.00e+00	0	37	0	2013265920	38	6145
2026-01-01 04:52:16.28	286.93	15.60	-32.9	-33.6	25.9	0.00e+00	0	37	0	2018508800	38	6169
2026-01-01 04:52:17.29	287.15	15.59	-33.0	-33.7	25.8	0.00e+00	0	37	0	2023751680	38	6186
2026-01-01 04:52:18.30	287.37	15.58	-32.9	-33.6	25.9	0.00e+00	0	37	0	2030043136	38	6112
2026-01-01 04:52:19.31	287.59	15.57	-33.1	-33.7	25.7	0.00e+00	0	37	0	2035286016	38	6222
2026-01-01 04:52:20.32	287.80	15.55	-33.1	-33.8	25.6	0.00e+00	0	37	0	2041577472	38	6273
2026-01-01 04:52:21.33	288.02	15.54	-33.3	-34.0	25.6	0.00e+00	0	37	0	2046820352	38	6414
2026-01-01 04:52:22.34	288.24	15.53	-33.2	-33.9	25.6	0.00e+00	0	37	0	2052063232	38	6349
2026-01-01 04:52:23.35	288.45	15.52	-33.1	-33.7	25.7	0.00e+00	0	37	0	2058354688	38	6239
2026-01-01 04:52:24.36	288.67	15.51	-33.1	-33.8	25.7	0.00e+00	0	37	0	2063597568	38	6268
2026-01-01 04:52:25.36	288.88	15.49	-33.2	-33.9	25.6	0.00e+00	0	37	0	2069889024	38	6350
2026-01-01 04:52:26.37	289.10	15.48	-33.2	-33.9	25.6	0.00e+00	0	37	0	2075131904	38	6380
2026-01-01 04:52:27.38	289.32	15.47	-33.3	-34.0	25.4	0.00e+00	0	37	0	2080374784	38	6399
2026-01-01 04:52:28.40	289.53	15.45	-33.2	-34.0	25.7	0.00e+00	0	37	0	2086666240	38	6402
2026-01-01 04:52:29.40	289.75	15.44	-33.2	-33.9	25.6	0.00e+00	0	37	0	2091909120	38	6343
2026-01-01 04:52:30.41	289.96	15.42	-33.2	-33.9	25.7	0.00e+00	0	38	0	2098200576	38	6369
2026-01-01 04:52:31.42	290.18	15.41	-33.3	-34.0	25.6	0.00e+00	0	37	0	2103443456	38	6403
2026-01-01 04:52:32.44	290.39	15.39	-33.4	-34.1	25.5	0.00e+00	0	37	0	2109734912	38	6499
2026-01-01 04:52:33.44	290.60	15.37	-33.4	-34.0	25.5	0.00e+00	0	38	0	2114977792	38	6460
2026-01-01 04:52:34.45	290.82	15.36	-33.3	-34.0	25.5	0.00e+00	0	37	0	2120220672	38	6458
2026-01-01 04:52:35.46	291.03	15.34	-33.4	-34.0	25.5	0.00e+00	0	37	0	2126512128	38	6450
2026-01-01 04:52:36.47	291.25	15.32	-33.5	-34.2	25.4	0.00e+00	0	38	0	2131755008	38	6567
2026-01-01 04:52:37.48	291.46	15.31	-33.2	-33.8	25.6	0.00e+00	0	37	0	2138046464	38	6316
2026-01-01 04:52:38.49	291.67	15.29	-33.3	-33.9	25.6	0.00e+00	0	37	0	2143289344	38	6363
2026-01-01 04:52:39.50	291.89	15.27	-33.3	-34.0	25.5	0.00e+00	0	37	0	2148532224	38	6428
2026-01-01 04:52:40.51	292.10	15.25	-33.3	-34.0	25.6	0.00e+00	0	37	0	2154823680	38	6434
2026-01-01 04:52:41.52	292.31	15.23	-33.4	-34.0	25.5	0.00e+00	0	37	0	2160066560	38	6461
2026-01-01 04:52:42.53	292.52	15.21	-33.5	-34.2	25.3	0.00e+00	0	37	0	2166358016	38	6580
2026-01-01 04:52:43.54	292.74	15.19	-33.4	-34.0	25.4	0.00e+00	0	37	0	2171600896	38	6433
2026-01-01 04:52:44.55	292.95	15.17	-33.6	-34.3	25.4	0.00e+00	0	37	0	2176843776	38	6636
2026-01-01 04:52:45.56	293.16	15.15	-33.3	-34.0	25.5	0.00e+00	0	37	0	2183135232	38	6434
2026-01-01 04:52:46.57	293.37	15.13	-33.3	-34.0	25.5	0.00e+00	0	37	0	2188378112	38	6395
2026-01-01 04:52:47.58	293.58	15.11	-33.3	-34.0	25.5	0.00e+00	0	37	0	2194669568	38	6400
2026-01-01 04:52:48.59	293.79	15.09	-33.3	-33.9	25.6	0.00e+00	0	37	0	2199912448	38	6390
2026-01-01 04:52:49.60	294.00	15.07	-33.3	-34.0	25.5	0.00e+00	0	37	0	2206203904	38	6411
2026-01-01 04:52:50.61	294.21	15.05	-33.3	-33.9	25.5	0.00e+00	0	37	0	2211446784	38	6386
2026-01-01 04:52:51.62	294.42	15.03	-33.3	-34.0	25.5	0.00e+00	0	37	0	2217738240	38	6430
2026-01-01 04:52:52.63	294.63	15.00	-33.5	-34.2	25.4	0.00e+00	0	37	0	2222981120	38	6612
2026-01-01 04:52:53.63	294.84	14.98	-33.5	-34.1	25.4	0.00e+00	0	37	0	2228224000	38	6515
2026-01-01 04:52:54.64	295.04	14.96	-33.4	-34.1	25.4	0.00e+00	0	37	0	2234515456	38	6481
2026-01-01 04:52:55.65	295.25	14.93	-33.4	-34.1	25.5	0.00e+00	0	37	0	2239758336	38	6468
2026-01-01 04:52:56.66	295.46	14.91	-33.4	-34.1	25.5	0.00e+00	0	37	0	2245001216	38	6475
2026-01-01 04:52:57.67	295.67	14.88	-33.5	-34.2	25.4	0.00e+00	0	37	0	2251292672	38	6572
2026-01-01 04:52:58.68	295.88	14.86	-33.6	-34.3	25.3	0.00e+00	0	37	0	2256535552	38	6654
2026-01-01 04:52:59.69	296.08	14.83	-33.6	-34.3	25.3	0.00e+00	0	37	0	2262827008	40	5957
2026-01-01 04:53:00.70	296.29	14.81	-33.8	-34.5	25.1	0.00e+00	0	37	0	2268069888	40	6074
2026-01-01 04:53:01.71	296.50	14.78	-33.6	-34.3	25.2	0.00e+00	0	37	0	2273312768	40	5919
2026-01-01 04:53:02.72	296.70	14.76	-33.7	-34.4	25.2	0.00e+00	0	37	0	2279604224	40	5990
2026-01-01 04:53:03.73	296.91	14.73	-33.8	-34.5	25.2	0.00e+00	0	37	0	2284847104	40	6085
2026-01-01 04:53:04.74	297.11	14.71	-33.7	-34.4	25.1	0.00e+00	0	37	0	2291138560	40	5985
2026-01-01 04:53:05.75	297.32	14.68	-33.7	-34.5	25.2	0.00e+00	0	37	0	2296381440	40	6058
2026-01-01 04:53:06.76	297.52	14.65	-33.7	-34.4	25.2	0.00e+00	0	37	0	2302672896	40	6027
2026-01-01 04:53:07.77	297.73	14.62	-33.7	-34.4	25.2	0.00e+00	0	37	0	2307915776	40	6008
2026-01-01 04:53:08.78	297.93	14.60	-33.8	-34.4	25.1	0.00e+00	0	37	0	2314207232	40	6026
2026-01-01 04:53:09.79	298.13	14.57	-33.9	-34.5	25.0	0.00e+00	0	37	0	2319450112	40	6085
2026-01-01 04:53:10.80	298.34	14.54	-33.8	-34.4	25.1	0.00e+00	0	37	0	2324692992	40	6007
2026-01-01 04:53:11.81	298.54	14.51	-33.9	-34.5	25.0	0.00e+00	0	37	0	2330984448	40	6049
2026-01-01 04:53:12.82	298.74	14.48	-33.7	-34.4	25.2	0.00e+00	0	37	0	2336227328	40	6018
2026-01-01 04:53:13.83	298.94	14.45	-33.6	-34.3	25.3	0.00e+00	0	37	0	2342518784	40	5956
2026-01-01 04:53:14.83	299.14	14.42	-33.6	-34.3	25.3	0.00e+00	0	37	0	2347761664	40	5909
2026-01-01 04:53:15.84	299.34	14.39	-33.8	-34.5	25.1	0.00e+00	0	37	0	2353004544	40	6040
2026-01-01 04:53:16.85	299.54	14.36	-33.6	-34.3	25.2	0.00e+00	0	37	0	2359296000	40	5925
2026-01-01 04:53:17.86	299.74	14.33	-33.7	-34.5	25.3	0.00e+00	0	37	0	2364538880	40	6051
2026-01-01 04:53:18.87	299.94	14.30	-33.7	-34.4	25.2	0.00e+00	0	37	0	2370830336	40	5977
2026-01-01 04:53:19.88	300.14	14.27	-33.5	-34.2	25.3	0.00e+00	0	37	0	2376073216	40	5862
2026-01-01 04:53:20.89	300.34	14.24	-33.4	-34.1	25.4	0.00e+00	0	37	0	2381316096	40	5793
2026-01-01 04:53:21.90	300.54	14.21	-33.4	-34.0	25.4	0.00e+00	0	37	0	2387607552	40	5754
2026-01-01 04:53:22.91	300.74	14.18	-33.4	-34.0	25.4	0.00e+00	0	37	0	2392850432	40	5756
2026-01-01 04:53:23.92	300.94	14.14	-33.5	-34.2	25.4	0.00e+00	0	37	0	2399141888	40	5869
2026-01-01 04:53:24.93	301.13	14.11	-33.6	-34.3	25.2	0.00e+00	0	37	0	2404384768	40	5935
2026-01-01 04:53:25.94	301.33	14.08	-33.7	-34.4	25.2	0.00e+00	0	37	0	2410676224	40	6016
2026-01-01 04:53:26.95	301.53	14.05	-33.9	-34.6	25.1	0.00e+00	0	37	0	2415919104	40	6109
2026-01-01 04:53:27.96	301.72	14.01	-33.8	-34.5	25.1	0.00e+00	0	37	0	2422210560	40	6047
2026-01-01 04:53:28.97	301.92	13.98	-33.8	-34.4	25.2	0.00e+00	0	37	0	2427453440	40	6033
2026-01-01 04:53:29.98	302.11	13.95	-33.8	-34.5	25.3	0.00e+00	0	37	0	2432696320	40	6043
2026-01-01 04:53:30.99	302.31	13.91	-33.6	-34.2	25.3	0.00e+00	0	37	0	2438987776	40	5834
2026-01-01 04:53:32.00	302.50	13.88	-33.8	-34.4	25.3	0.00e+00	0	37	0	2444230656	40	5976
2026-01-01 04:53:33.01	302.70	13.84	-33.6	-34.3	25.4	0.00e+00	0	37	0	2449473536	40	5939
2026-01-01 04:53:34.02	302.89	13.81	-33.7	-34.4	25.2	0.00e+00	0	37	0	2455764992	40	5992
2026-01-01 04:53:35.03	303.08	13.77	-33.9	-34.5	25.1	0.00e+00	0	37	0	2461007872	40	6091
2026-01-01 04:53:36.04	303.28	13.74	-33.7	-34.5	25.2	0.00e+00	0	37	0	2467299328	40	6039
2026-01-01 04:53:37.05	303.47	13.70	-33.7	-34.4	25.2	0.00e+00	0	37	0	2472542208	40	6009
2026-01-01 04:53:38.06	303.66	13.67	-33.6	-34.3	25.3	0.00e+00	0	37	0	2477785088	40	5943
2026-01-01 04:53:39.07	303.85	13.63	-33.7	-34.4	25.2	0.00e+00	0	37	0	2484076544	40	5981
2026-01-01 04:53:40.08	304.04	13.60	-33.8	-34.5	25.2	0.00e+00	0	37	0	2489319424	40	6058
2026-01-01 04:53:41.08	304.23	13.56	-33.8	-34.5	25.2	0.00e+00	0	37	0	2495610880	40	6051
2026-01-01 04:53:42.09	304.42	13.52	-33.9	-34.5	25.0	0.00e+00	0	37	0	2500853760	40	6058
2026-01-01 04:53:43.10	304.61	13.49	-33.8	-34.5	25.1	0.00e+00	0	37	0	2507145216	40	6071
2026-01-01 04:53:44.11	304.80	13.45	-33.8	-34.5	25.2	0.00e+00	0	37	0	2512388096	40	6053
2026-01-01 04:53:45.12	304.99	13.41	-33.8	-34.4	25.2	0.00e+00	0	37	0	2518679552	40	6012
2026-01-01 04:53:46.13	305.17	13.38	-33.8	-34.5	25.1	0.00e+00	0	37	0	2523922432	40	6075
2026-01-01 04:53:47.14	305.36	13.34	-33.9	-34.6	25.1	0.00e+00	0	37	0	2529165312	40	6109
2026-01-01 04:53:48.15	305.55	13.30	-33.9	-34.7	25.1	0.00e+00	0	37	0	2535456768	40	6177
2026-01-01 04:53:49.16	305.74	13.26	-33.9	-34.6	25.0	0.00e+00	0	37	0	2540699648	40	6141
2026-01-01 04:53:50.17	305.92	13.22	-34.0	-34.6	25.1	0.00e+00	0	37	0	2546991104	40	6132
2026-01-01 04:53:51.18	306.11	13.18	-33.9	-34.7	25.0	0.00e+00	0	37	0	2552233984	40	6202
2026-01-01 04:53:52.19	306.29	13.15	-34.0	-34.7	24.9	0.00e+00	0	37	0	2557476864	40	6180
2026-01-01 04:53:53.20	306.48	13.11	-34.0	-34.7	24.9	0.00e+00	0	37	0	2563768320	40	6244
2026-01-01 04:53:54.21	306.66	13.07	-34.0	-34.7	24.9	0.00e+00	0	37	0	2569011200	40	6198
2026-01-01 04:53:55.22	306.85	13.03	-34.0	-34.7	25.0	0.00e+00	0	37	0	2575302656	40	6233
2026-01-01 04:53:56.23	307.03	12.99	-34.0	-34.7	25.0	0.00e+00	0	37	0	2580545536	40	6229
2026-01-01 04:53:57.23	307.21	12.95	-34.0	-34.8	24.9	0.00e+00	0	37	0	2585788416	40	6250
2026-01-01 04:53:58.24	307.39	12.91	-34.0	-34.8	24.9	0.00e+00	0	37	0	2592079872	40	6270
2026-01-01 04:53:59.25	307.57	12.87	-34.0	-34.7	25.0	0.00e+00	0	37	0	2597322752	40	6209
2026-01-01 04:54:00.26	307.76	12.83	-34.1	-34.8	24.8	0.00e+00	0	37	0	2603614208	40	6304
2026-01-01 04:54:01.27	307.94	12.79	-34.2	-35.0	24.8	0.00e+00	0	37	0	2608857088	40	6412
2026-01-01 04:54:02.28	308.12	12.75	-34.2	-34.9	24.8	0.00e+00	0	37	0	2615148544	40	6364
2026-01-01 04:54:03.29	308.30	12.71	-34.2	-35.0	24.7	0.00e+00	0	37	0	2620391424	40	6391
2026-01-01 04:54:04.30	308.48	12.67	-34.2	-34.9	24.7	0.00e+00	0	37	0	2625634304	40	6348
2026-01-01 04:54:05.31	308.65	12.62	-34.0	-34.7	24.9	0.00e+00	0	37	0	2631925760	40	6242
2026-01-01 04:54:06.32	308.83	12.58	-34.0	-34.7	24.9	0.00e+00	0	37	0	2637168640	40	6213
2026-01-01 04:54:07.33	309.01	12.54	-34.0	-34.8	24.9	0.00e+00	0	37	0	2643460096	40	6255
2026-01-01 04:54:08.34	309.19	12.50	-34.0	-34.7	24.8	0.00e+00	0	37	0	2648702976	40	6220
2026-01-01 04:54:09.35	309.37	12.46	-34.1	-34.8	24.8	0.00e+00	0	37	0	2653945856	40	6285
2026-01-01 04:54:10.36	309.54	12.42	-34.1	-34.8	24.8	0.00e+00	0	37	0	2660237312	40	6254
2026-01-01 04:54:11.37	309.72	12.37	-34.1	-34.7	24.8	0.00e+00	0	37	0	2665480192	40	6236
2026-01-01 04:54:12.38	309.89	12.33	-34.2	-34.9	24.7	0.00e+00	0	37	0	2671771648	40	6337
2026-01-01 04:54:13.39	310.07	12.29	-34.2	-35.0	24.8	0.00e+00	0	37	0	2677014528	40	6414
2026-01-01 04:54:14.40	310.24	12.24	-34.3	-35.0	24.7	0.00e+00	0	37	0	2682257408	40	6436
2026-01-01 04:54:15.41	310.42	12.20	-34.2	-34.9	24.7	0.00e+00	0	37	0	2688548864	40	6389
2026-01-01 04:54:16.42	310.59	12.16	-34.2	-35.0	24.7	0.00e+00	0	37	0	2693791744	40	6418
2026-01-01 04:54:17.43	310.76	12.12	-34.2	-35.0	24.7	0.00e+00	0	37	0	2700083200	40	6395
2026-01-01 04:54:18.44	310.94	12.07	-34.2	-34.8	24.8	0.00e+00	0	37	0	2705326080	40	6288
2026-01-01 04:54:19.45	311.11	12.03	-34.2	-34.8	24.6	0.00e+00	0	37	0	2711617536	40	6294
2026-01-01 04:54:20.45	311.28	11.98	-34.0	-34.7	24.8	0.00e+00	0	37	0	2716860416	40	6184
2026-01-01 04:54:21.46	311.45	11.94	-34.1	-34.8	24.9	0.00e+00	0	37	0	2723151872	40	6254
2026-01-01 04:54:22.47	311.62	11.90	-34.2	-34.8	24.7	0.00e+00	0	37	0	2728394752	40	6284
2026-01-01 04:54:23.48	311.79	11.85	-34.3	-35.0	24.6	0.00e+00	0	37	0	2733637632	40	6422
2026-01-01 04:54:24.49	311.96	11.81	-34.2	-34.9	24.7	0.00e+00	0	37	0	2739929088	40	6319
2026-01-01 04:54:25.50	312.13	11.76	-34.2	-34.9	24.6	0.00e+00	0	37	0	2745171968	40	6382
2026-01-01 04:54:26.51	312.30	11.72	-34.2	-35.0	24.7	0.00e+00	0	37	0	2750414848	40	6420
2026-01-01 04:54:27.52	312.46	11.67	-34.2	-35.0	24.6	0.00e+00	0	37	0	2756706304	40	6408
2026-01-01 04:54:28.53	312.63	11.63	-34.4	-35.1	24.6	0.00e+00	0	37	0	2761949184	40	6484
2026-01-01 04:54:29.54	312.80	11.58	-34.4	-35.1	24.5	0.00e+00	0	37	0	2768240640	40	6496
2026-01-01 04:54:30.55	312.97	11.54	-34.5	-35.2	24.4	0.00e+00	0	37	0	2773483520	40	6588
2026-01-01 04:54:31.56	313.13	11.49	-34.5	-35.2	24.4	0.00e+00	0	37	0	2779774976	40	6575
2026-01-01 04:54:32.57	313.30	11.45	-34.5	-35.2	24.4	0.00e+00	0	37	0	2785017856	40	6567
2026-01-01 04:54:33.58	313.46	11.40	-34.6	-35.3	24.4	0.00e+00	0	37	0	2790260736	40	6626
2026-01-01 04:54:34.59	313.63	11.36	-34.6	-35.3	24.3	0.00e+00	0	37	0	2796552192	40	6632
2026-01-01 04:54:35.60	313.79	11.31	-34.6	-35.2	24.4	0.00e+00	0	37	0	2801795072	40	6604
2026-01-01 04:54:36.61	313.95	11.27	-34.6	-35.3	24.4	0.00e+00	0	37	0	2808086528	40	6617
2026-01-01 04:54:37.62	314.12	11.22	-34.6	-35.4	24.3	0.00e+00	0	37	0	2813329408	40	6699
2026-01-01 04:54:38.63	314.28	11.17	-34.6	-35.2	24.4	0.00e+00	0	37	0	2819620864	40	6575
2026-01-01 04:54:39.64	314.44	11.13	-34.6	-35.3	24.3	0.00e+00	0	37	0	2824863744	40	6654
2026-01-01 04:54:40.65	314.60	11.08	-34.6	-35.3	24.3	0.00e+00	0	37	0	2830106624	40	6665
2026-01-01 04:54:41.66	314.77	11.03	-34.5	-35.2	24.4	0.00e+00	0	37	0	2836398080	40	6571
2026-01-01 04:54:42.67	314.93	10.99	-34.7	-35.3	24.3	0.00e+00	0	37	0	2841640960	40	6680
2026-01-01 04:54:43.68	315.09	10.94	-34.6	-35.3	24.3	0.00e+00	0	37	0	2847932416	40	6644
2026-01-01 04:54:44.69	315.25	10.89	-34.6	-35.3	24.3	0.00e+00	0	37	0	2853175296	40	6688
2026-01-01 04:54:45.70	315.40	10.85	-34.6	-35.3	24.3	0.00e+00	0	37	0	2858418176	40	6663
2026-01-01 04:54:46.71	315.56	10.80	-34.6	-35.3	24.3	0.00e+00	0	37	0	2864709632	40	6678
2026-01-01 04:54:47.71	315.72	10.75	-34.6	-35.2	24.3	0.00e+00	0	37	0	2869952512	40	6592
2026-01-01 04:54:48.72	315.88	10.71	-34.6	-35.4	24.3	0.00e+00	0	37	0	2876243968	40	6695
2026-01-01 04:54:49.73	316.03	10.66	-34.7	-35.5	24.1	0.00e+00	0	37	0	2881486848	40	6790
2026-01-01 04:54:50.74	316.19	10.61	-34.5	-35.3	24.3	0.00e+00	0	37	0	2886729728	40	6662
2026-01-01 04:54:51.75	316.35	10.56	-34.6	-35.3	24.4	0.00e+00	0	37	0	2893021184	40	6678
2026-01-01 04:54:52.76	316.50	10.52	-34.5	-35.2	24.3	0.00e+00	0	37	0	2898264064	40	6557
2026-01-01 04:54:53.77	316.66	10.47	-34.6	-35.3	24.3	0.00e+00	0	37	0	2904555520	40	6673
2026-01-01 04:54:54.78	316.81	10.42	-34.5	-35.1	24.4	0.00e+00	0	37	0	2909798400	40	6504
2026-01-01 04:54:55.79	316.97	10.37	-34.5	-35.3	24.3	0.00e+00	0	37	0	2916089856	40	6616
2026-01-01 04:54:56.80	317.12	10.33	-34.6	-35.4	24.2	0.00e+00	0	37	0	2921332736	40	6722
2026-01-01 04:54:57.81	317.27	10.28	-34.6	-35.2	24.1	0.00e+00	0	37	0	2927624192	40	6583
2026-01-01 04:54:58.82	317.43	10.23	-34.6	-35.4	24.3	0.00e+00	0	38	0	2932867072	40	6706
2026-01-01 04:54:59.83	317.58	10.18	-34.6	-35.3	24.2	0.00e+00	0	37	0	2938109952	40	6619
2026-01-01 04:55:00.84	317.73	10.13	-34.6	-35.3	24.2	0.00e+00	0	37	0	2944401408	40	6616
2026-01-01 04:55:01.85	317.88	10.08	-34.7	-35.4	24.1	0.00e+00	0	37	0	2949644288	40	6753
2026-01-01 04:55:02.86	318.03	10.04	-34.6	-35.3	24.1	0.00e+00	0	37	0	2955935744	40	6650
2026-01-01 04:55:03.87	318.18	9.99	-34.6	-35.3	24.1	0.00e+00	0	37	0	2961178624	40	6692
2026-01-01 04:55:04.88	318.33	9.94	-34.7	-35.5	24.1	0.00e+00	0	37	0	2966421504	40	6825
2026-01-01 04:55:05.89	318.48	9.89	-34.8	-35.5	23.9	0.00e+00	0	37	0	2972712960	40	6775
2026-01-01 04:55:06.90	318.63	9.84	-34.8	-35.5	24.0	0.00e+00	0	37	0	2977955840	42	6061
2026-01-01 04:55:07.91	318.78	9.79	-34.8	-35.6	23.9	0.00e+00	0	37	0	2983198720	42	6154
2026-01-01 04:55:08.92	318.93	9.74	-34.9	-35.6	23.9	0.00e+00	0	37	0	2989490176	42	6142
2026-01-01 04:55:09.93	319.07	9.70	-34.9	-35.6	24.0	0.00e+00	0	37	0	2994733056	42	6122
2026-01-01 04:55:10.94	319.22	9.65	-34.9	-35.6	23.9	0.00e+00	0	37	0	3001024512	42	6115
2026-01-01 04:55:11.95	319.37	9.60	-35.0	-35.7	23.8	0.00e+00	0	37	0	3006267392	42	6181
2026-01-01 04:55:12.96	319.51	9.55	-34.9	-35.6	23.9	0.00e+00	0	37	0	3012558848	42	6160
2026-01-01 04:55:13.97	319.66	9.50	-35.0	-35.6	23.9	0.00e+00	0	37	0	3017801728	42	6154
2026-01-01 04:55:14.98	319.80	9.45	-35.0	-35.8	23.8	0.00e+00	0	37	0	3024093184	42	6266
2026-01-01 04:55:15.99	319.95	9.40	-34.9	-35.7	23.9	0.00e+00	0	37	0	3029336064	42	6214
2026-01-01 04:55:16.99	320.09	9.35	-35.0	-35.7	23.8	0.00e+00	0	37	0	3034578944	42	6201
2026-01-01 04:55:18.00	320.24	9.30	-35.0	-35.7	23.9	0.00e+00	0	37	0	3040870400	42	6227
2026-01-01 04:55:19.01	320.38	9.25	-35.1	-35.9	23.7	0.00e+00	0	37	0	3046113280	42	6353
2026-01-01 04:55:20.02	320.52	9.20	-35.0	-35.8	23.8	0.00e+00	0	37	0	3052404736	42	6262
2026-01-01 04:55:21.03	320.66	9.15	-35.1	-35.9	23.7	0.00e+00	0	37	0	3057647616	42	6334
2026-01-01 04:55:22.04	320.81	9.10	-35.3	-36.1	23.5	0.00e+00	0	37	0	3062890496	42	6529
2026-01-01 04:55:23.05	320.95	9.05	-35.3	-36.1	23.5	0.00e+00	0	37	0	3069181952	42	6508
2026-01-01 04:55:24.06	321.09	9.00	-35.4	-36.2	23.5	0.00e+00	0	37	0	3074424832	42	6570
2026-01-01 04:55:25.07	321.23	8.95	-35.4	-36.2	23.5	0.00e+00	0	37	0	3080716288	42	6542
2026-01-01 04:55:26.08	321.37	8.90	-35.4	-36.2	23.5	0.00e+00	0	37	0	3085959168	42	6543
2026-01-01 04:55:27.08	321.51	8.86	-35.3	-36.0	23.5	0.00e+00	0	37	0	3091202048	42	6418
2026-01-01 04:55:28.09	321.65	8.81	-35.5	-36.2	23.3	0.00e+00	0	37	0	3097493504	42	6567
2026-01-01 04:55:29.10	321.78	8.76	-35.5	-36.2	23.3	0.00e+00	0	37	0	3102736384	42	6586
2026-01-01 04:55:30.11	321.92	8.71	-35.5	-36.3	23.3	0.00e+00	0	37	0	3109027840	42	6631
2026-01-01 04:55:31.12	322.06	8.66	-35.4	-36.3	23.3	0.00e+00	0	37	0	3114270720	44	5902
2026-01-01 04:55:32.13	322.20	8.61	-35.5	-36.4	23.4	0.00e+00	0	37	0	3120562176	44	5971
2026-01-01 04:55:33.14	322.33	8.56	-35.6	-36.5	23.1	0.00e+00	0	37	0	3125805056	44	6039
2026-01-01 04:55:34.15	322.47	8.51	-35.6	-36.4	23.3	0.00e+00	0	37	0	3131047936	44	6027
2026-01-01 04:55:35.16	322.61	8.45	-35.6	-36.4	23.2	0.00e+00	0	37	0	3137339392	44	5982
2026-01-01 04:55:36.17	322.74	8.40	-35.6	-36.3	23.2	0.00e+00	0	37	0	3142582272	44	5929
2026-01-01 04:55:37.18	322.88	8.35	-35.6	-36.4	23.2	0.00e+00	0	37	0	3148873728	44	6000
2026-01-01 04:55:38.19	323.01	8.30	-35.3	-36.1	23.4	0.00e+00	0	37	0	3154116608	44	5805
2026-01-01 04:55:39.20	323.14	8.25	-35.3	-36.2	23.5	0.00e+00	0	37	0	3159359488	44	5837
2026-01-01 04:55:40.21	323.28	8.20	-35.3	-36.1	23.4	0.00e+00	0	37	0	3165650944	44	5780
2026-01-01 04:55:41.21	323.41	8.15	-35.3	-36.1	23.4	0.00e+00	0	37	0	3170893824	44	5808
2026-01-01 04:55:42.22	323.54	8.10	-35.4	-36.1	23.3	0.00e+00	0	37	0	3177185280	44	5776
2026-01-01 04:55:43.23	323.67	8.05	-35.4	-36.1	23.3	0.00e+00	0	37	0	3182428160	44	5825
2026-01-01 04:55:44.24	323.81	8.00	-35.5	-36.3	23.3	0.00e+00	0	37	0	3187671040	44	5924
2026-01-01 04:55:45.25	323.94	7.95	-35.5	-36.2	23.3	0.00e+00	0	37	0	3193962496	44	5832
2026-01-01 04:55:46.26	324.07	7.90	-35.5	-36.3	23.3	0.00e+00	0	37	0	3199205376	44	5956
2026-01-01 04:55:47.27	324.20	7.85	-35.6	-36.3	23.1	0.00e+00	0	37	0	3205496832	44	5937
2026-01-01 04:55:48.28	324.33	7.80	-35.6	-36.4	23.1	0.00e+00	0	38	0	3210739712	44	6012
2026-01-01 04:55:49.29	324.46	7.75	-35.6	-36.3	23.1	0.00e+00	0	37	0	3217031168	44	5914
2026-01-01 04:55:50.30	324.59	7.70	-35.7	-36.5	23.0	0.00e+00	0	37	0	3222274048	44	6044
2026-01-01 04:55:51.31	324.72	7.65	-35.6	-36.3	23.1	0.00e+00	0	37	0	3228565504	44	5962
2026-01-01 04:55:52.32	324.85	7.60	-35.8	-36.6	22.9	0.00e+00	0	37	0	3233808384	44	6116
2026-01-01 04:55:53.33	324.97	7.55	-35.8	-36.6	22.8	0.00e+00	0	37	0	3239051264	44	6147
2026-01-01 04:55:54.34	325.10	7.50	-35.7	-36.4	23.0	0.00e+00	0	37	0	3245342720	44	6015
2026-01-01 04:55:55.35	325.23	7.45	-35.7	-36.4	23.0	0.00e+00	0	37	0	3250585600	44	5998
2026-01-01 04:55:56.36	325.35	7.40	-35.7	-36.5	23.0	0.00e+00	0	37	0	3255828480	44	6061
2026-01-01 04:55:57.37	325.48	7.34	-35.6	-36.4	23.0	0.00e+00	0	37	0	3262119936	44	5979
2026-01-01 04:55:58.38	325.61	7.29	-35.7	-36.5	22.9	0.00e+00	0	37	0	3267362816	44	6098
2026-01-01 04:55:59.39	325.73	7.24	-35.5	-36.2	23.1	0.00e+00	0	37	0	3273654272	44	5875
2026-01-01 04:56:00.40	325.86	7.19	-35.7	-36.4	23.0	0.00e+00	0	37	0	3278897152	44	5984
2026-01-01 04:56:01.41	325.98	7.14	-35.6	-36.5	22.9	0.00e+00	0	37	0	3285188608	44	6050
2026-01-01 04:56:02.42	326.11	7.09	-35.6	-36.4	23.0	0.00e+00	0	37	0	3290431488	44	5972
2026-01-01 04:56:03.43	326.23	7.04	-35.6	-36.5	23.0	0.00e+00	0	37	0	3295674368	44	6039
2026-01-01 04:56:04.44	326.35	6.99	-35.6	-36.5	23.0	0.00e+00	0	37	0	3301965824	44	6036
2026-01-01 04:56:05.45	326.48	6.94	-35.6	-36.4	23.0	0.00e+00	0	37	0	3307208704	44	6018
2026-01-01 04:56:06.46	326.60	6.89	-35.7	-36.4	22.9	0.00e+00	0	37	0	3313500160	44	6016
2026-01-01 04:56:07.47	326.72	6.84	-35.7	-36.4	22.9	0.00e+00	0	37	0	3318743040	44	6014
2026-01-01 04:56:08.48	326.84	6.79	-35.7	-36.5	22.8	0.00e+00	0	37	0	3325034496	44	6080
2026-01-01 04:56:09.49	326.96	6.74	-36.0	-36.9	22.6	0.00e+00	0	37	0	3330277376	44	6341
2026-01-01 04:56:10.49	327.08	6.68	-35.9	-36.8	22.7	0.00e+00	0	37	0	3335520256	44	6265
2026-01-01 04:56:11.51	327.20	6.63	-36.0	-36.8	22.5	0.00e+00	0	37	0	3341811712	44	6263
2026-01-01 04:56:12.51	327.32	6.58	-36.1	-36.8	22.4	0.00e+00	0	37	0	3347054592	44	6304
2026-01-01 04:56:13.52	327.44	6.53	-36.2	-36.9	22.4	0.00e+00	0	37	0	3353346048	44	6352
2026-01-01 04:56:14.53	327.56	6.48	-36.3	-37.0	22.3	0.00e+00	0	37	0	3358588928	44	6439
2026-01-01 04:56:15.54	327.68	6.43	-36.3	-37.0	22.2	0.00e+00	0	37	0	3363831808	44	6464
2026-01-01 04:56:16.55	327.80	6.38	-36.3	-37.1	22.3	0.00e+00	0	37	0	3370123264	44	6501
2026-01-01 04:56:17.56	327.92	6.33	-36.2	-37.0	22.3	0.00e+00	0	37	0	3375366144	44	6432
2026-01-01 04:56:18.57	328.04	6.28	-36.3	-37.1	22.2	0.00e+00	0	37	0	3381657600	44	6484
2026-01-01 04:56:19.58	328.15	6.23	-36.5	-37.4	22.1	0.00e+00	0	37	0	3386900480	44	6722
2026-01-01 04:56:20.59	328.27	6.18	-36.5	-37.2	22.0	0.00e+00	0	37	0	3392143360	44	6613
2026-01-01 04:56:21.60	328.39	6.13	-36.6	-37.4	22.0	0.00e+00	0	37	0	3398434816	44	6750
2026-01-01 04:56:22.61	328.50	6.07	-36.5	-37.4	22.0	0.00e+00	0	37	0	3403677696	44	6697
2026-01-01 04:56:23.62	328.62	6.02	-36.6	-37.4	21.8	0.00e+00	0	37	0	3409969152	44	6724
2026-01-01 04:56:24.63	328.73	5.97	-36.7	-37.4	21.8	0.00e+00	0	37	0	3415212032	44	6751
2026-01-01 04:56:25.64	328.85	5.92	-36.4	-37.1	22.2	0.00e+00	0	37	0	3421503488	44	6511
2026-01-01 04:56:26.65	328.96	5.87	-36.5	-37.4	22.0	0.00e+00	0	37	0	3426746368	44	6705
2026-01-01 04:56:27.66	329.08	5.82	-36.5	-37.2	21.9	0.00e+00	0	37	0	3431989248	44	6596
2026-01-01 04:56:28.67	329.19	5.77	-36.5	-37.2	21.9	0.00e+00	0	37	0	3438280704	44	6606
2026-01-01 04:56:29.68	329.30	5.72	-36.6	-37.4	21.9	0.00e+00	0	37	0	3443523584	44	6759
2026-01-01 04:56:30.69	329.42	5.67	-36.7	-37.5	21.9	0.00e+00	0	37	0	3449815040	46	6060
2026-01-01 04:56:31.70	329.53	5.62	-37.0	-37.8	21.7	0.00e+00	0	37	0	3455057920	46	6273
2026-01-01 04:56:32.71	329.64	5.57	-37.0	-37.8	21.6	0.00e+00	0	37	0	3460300800	46	6305
2026-01-01 04:56:33.71	329.75	5.52	-36.8	-37.6	21.7	0.00e+00	0	37	0	3466592256	46	6166
2026-01-01 04:56:34.72	329.86	5.47	-36.9	-37.7	21.6	0.00e+00	0	37	0	3471835136	46	6206
2026-01-01 04:56:35.73	329.98	5.42	-37.0	-37.8	21.5	0.00e+00	0	37	0	3478126592	46	6282
2026-01-01 04:56:36.74	330.09	5.36	-36.8	-37.6	21.6	0.00e+00	0	37	0	3483369472	46	6147
2026-01-01 04:56:37.75	330.20	5.31	-37.0	-37.7	21.4	0.00e+00	0	37	0	3488612352	46	6243
2026-01-01 04:56:38.76	330.31	5.26	-36.9	-37.8	21.6	0.00e+00	0	37	0	3494903808	46	6250
2026-01-01 04:56:39.77	330.42	5.21	-36.6	-37.5	21.8	0.00e+00	0	37	0	3500146688	46	6094
2026-01-01 04:56:40.78	330.53	5.16	-36.6	-37.4	21.7	0.00e+00	0	37	0	3506438144	46	6021
2026-01-01 04:56:41.79	330.64	5.11	-36.7	-37.6	21.6	0.00e+00	0	37	0	3511681024	46	6138
2026-01-01 04:56:42.80	330.74	5.06	-37.0	-37.9	21.3	0.00e+00	0	37	0	3517972480	46	6340
2026-01-01 04:56:43.81	330.85	5.01	-36.9	-37.7	21.4	0.00e+00	0	37	0	3523215360	46	6211
2026-01-01 04:56:44.82	330.96	4.96	-36.6	-37.5	21.7	0.00e+00	0	37	0	3529506816	46	6076
2026-01-01 04:56:45.83	331.07	4.91	-36.8	-37.6	21.5	0.00e+00	0	37	0	3534749696	46	6126
2026-01-01 04:56:46.83	331.17	4.86	-36.8	-37.7	21.5	0.00e+00	0	37	0	3539992576	46	6221
2026-01-01 04:56:47.84	331.28	4.81	-36.9	-37.8	21.3	0.00e+00	0	37	0	3546284032	46	6263
2026-01-01 04:56:48.85	331.39	4.76	-36.8	-37.6	21.3	0.00e+00	0	37	0	3551526912	46	6160
2026-01-01 04:56:49.86	331.49	4.71	-37.3	-38.3	20.7	0.00e+00	0	37	0	3557818368	46	6642
2026-01-01 04:56:50.87	331.60	4.66	-37.2	-38.1	20.6	0.00e+00	0	37	0	3563061248	46	6484
2026-01-01 04:56:51.88	331.71	4.61	-37.6	-38.7	20.2	0.00e+00	0	37	0	3568304128	46	6930
