passes_logs/2026/01/01/R4.6S_Anadyr/R4.6S_Anadyr__20260101_122607_SUOMI_NPP_rec.log

#Pass ID: 20260101_122607_SUOMI NPP
#Satellite: SUOMI NPP
#Configuration: NPP
#almurnet v.1.7.20251203
#Start time: 2026-01-01 12:26:08

#Version: 2.2.20231116
#Station: R4.6S_Anadyr
#Location: 177.4865 lon 64.73178 lat
#TLE: 1 37849U 11061A   25364.87906318  .00000195  00000+0  11345-3 0  9993
#TLE: 2 37849  98.7794 302.0592 0002571  89.2401 270.9069 14.19520347734561

#Time	Az	El	Level	Level2	SNR	BER	BlckErr	Temp	State	Recorded	gain1	gain2
2026-01-01 12:26:08.77	19.18	0.06	-49.2	-61.8	3.4	1.52e+00	0	35	0	0	60	43076
2026-01-01 12:26:09.78	19.25	0.11	-49.2	-64.4	3.6	1.51e+00	0	36	104	0	60	60272
2026-01-01 12:26:10.79	19.33	0.16	-49.3	-64.4	3.6	1.51e+00	0	36	104	0	60	60330
2026-01-01 12:26:11.80	19.40	0.21	-49.3	-64.5	3.6	1.51e+00	0	36	104	0	60	60507
2026-01-01 12:26:12.81	19.48	0.26	-49.3	-64.5	3.6	1.51e+00	0	36	104	0	60	60401
2026-01-01 12:26:13.82	19.55	0.31	-49.3	-64.5	3.6	1.51e+00	0	36	104	0	60	60736
2026-01-01 12:26:14.83	19.63	0.36	-49.3	-64.5	3.6	1.51e+00	0	36	104	0	60	60677
2026-01-01 12:26:15.84	19.71	0.41	-49.3	-64.5	3.6	1.51e+00	0	36	104	0	60	60511
2026-01-01 12:26:16.85	19.78	0.46	-49.2	-64.4	3.6	1.51e+00	0	36	104	0	60	60114
2026-01-01 12:26:17.86	19.86	0.50	-49.2	-64.4	3.6	1.51e+00	0	36	104	0	60	59931
2026-01-01 12:26:18.86	19.94	0.55	-49.1	-64.3	3.6	1.51e+00	0	36	104	0	60	59445
2026-01-01 12:26:19.88	20.01	0.60	-49.1	-64.3	3.6	1.51e+00	0	37	104	0	60	59156
2026-01-01 12:26:20.89	20.09	0.65	-48.8	-64.0	3.6	1.51e+00	0	36	104	0	60	57356
2026-01-01 12:26:21.89	20.17	0.70	-48.7	-63.9	3.6	1.51e+00	0	36	104	0	60	56418
2026-01-01 12:26:22.90	20.25	0.75	-48.5	-63.7	3.6	1.51e+00	0	37	104	0	60	55509
2026-01-01 12:26:23.91	20.32	0.80	-48.3	-63.4	3.6	1.51e+00	0	36	104	0	60	53580
2026-01-01 12:26:24.92	20.40	0.85	-47.7	-62.9	3.6	1.51e+00	0	37	104	0	60	50647
2026-01-01 12:26:25.93	20.48	0.90	-47.7	-62.8	3.6	1.51e+00	0	37	104	0	60	50130
2026-01-01 12:26:26.94	20.56	0.95	-47.7	-62.8	3.6	1.51e+00	0	37	104	0	60	49970
2026-01-01 12:26:27.95	20.64	1.00	-47.7	-62.8	3.6	1.51e+00	0	37	104	0	60	49867
2026-01-01 12:26:28.96	20.72	1.05	-47.7	-62.8	3.6	1.51e+00	0	37	104	0	60	49677
2026-01-01 12:26:29.97	20.80	1.10	-47.7	-62.8	3.6	1.51e+00	0	37	104	0	60	49792
2026-01-01 12:26:30.98	20.88	1.15	-47.6	-62.7	3.5	1.51e+00	0	37	104	0	60	49448
2026-01-01 12:26:31.99	20.96	1.20	-47.6	-62.8	3.6	1.51e+00	0	37	104	0	60	49847
2026-01-01 12:26:33.00	21.04	1.25	-47.7	-62.8	3.6	1.51e+00	0	37	104	0	60	49869
2026-01-01 12:26:34.01	21.12	1.30	-47.6	-62.8	3.6	1.51e+00	0	37	104	0	60	49928
2026-01-01 12:26:35.02	21.20	1.35	-47.6	-62.8	3.6	1.51e+00	0	37	104	0	60	49726
2026-01-01 12:26:36.03	21.28	1.40	-47.6	-62.8	3.6	1.51e+00	0	37	104	0	60	49827
2026-01-01 12:26:37.04	21.36	1.45	-47.6	-62.8	3.6	1.51e+00	0	37	104	0	60	50138
2026-01-01 12:26:38.05	21.45	1.50	-47.7	-62.8	3.6	1.51e+00	0	37	104	0	60	49909
2026-01-01 12:26:39.06	21.53	1.55	-47.6	-62.8	3.6	1.51e+00	0	37	104	0	60	49938
2026-01-01 12:26:40.07	21.61	1.60	-47.7	-62.8	3.6	1.51e+00	0	37	104	0	60	49914
2026-01-01 12:26:41.08	21.69	1.65	-47.7	-62.8	3.6	1.51e+00	0	37	104	0	60	50090
2026-01-01 12:26:42.09	21.77	1.71	-47.6	-62.8	3.6	1.51e+00	0	37	104	0	60	49825
2026-01-01 12:26:43.10	21.86	1.76	-47.6	-62.8	3.6	1.51e+00	0	37	104	0	60	49715
2026-01-01 12:26:44.11	21.94	1.81	-47.6	-62.7	3.6	1.51e+00	0	37	104	0	60	49466
2026-01-01 12:26:45.12	22.02	1.86	-47.6	-62.8	3.6	1.51e+00	0	37	104	0	60	49959
2026-01-01 12:26:46.13	22.11	1.91	-47.6	-62.8	3.6	1.51e+00	0	37	104	0	60	49854
2026-01-01 12:26:47.14	22.19	1.96	-47.6	-62.8	3.6	1.51e+00	0	37	104	0	60	49827
2026-01-01 12:26:48.14	22.28	2.01	-47.6	-62.8	3.6	1.51e+00	0	37	104	0	60	49610
2026-01-01 12:26:49.16	22.36	2.06	-47.6	-62.7	3.6	1.51e+00	0	37	104	0	60	49440
2026-01-01 12:26:50.16	22.45	2.11	-47.6	-62.8	3.6	1.51e+00	0	37	104	0	60	49756
2026-01-01 12:26:51.17	22.53	2.16	-47.6	-62.8	3.6	1.51e+00	0	37	104	0	60	49875
2026-01-01 12:26:52.18	22.62	2.21	-47.6	-62.6	3.6	1.51e+00	0	37	104	0	60	48481
2026-01-01 12:26:53.19	22.70	2.26	-47.6	-62.1	3.6	1.51e+00	0	37	104	0	60	45968
2026-01-01 12:26:54.20	22.79	2.31	-47.6	-61.4	3.6	1.51e+00	0	37	104	0	60	42572
2026-01-01 12:26:55.21	22.87	2.37	-47.6	-61.5	3.6	1.51e+00	0	37	104	0	60	42782
2026-01-01 12:26:56.22	22.96	2.42	-47.6	-61.1	3.6	1.51e+00	0	37	104	0	60	40896
2026-01-01 12:26:57.23	23.05	2.47	-47.4	-58.8	4.2	1.44e+00	33	37	104	0	60	31598
2026-01-01 12:26:58.24	23.14	2.52	-46.9	-53.9	7.3	4.11e-01	34	37	0	1048576	60	17865
2026-01-01 12:26:59.25	23.22	2.57	-45.9	-50.6	11.2	3.01e-02	0	37	0	3145728	60	12196
2026-01-01 12:27:00.26	23.31	2.62	-44.8	-48.1	13.7	2.88e-04	92	37	0	4194304	60	9220
2026-01-01 12:27:01.27	23.40	2.67	-43.3	-45.7	16.1	0.00e+00	0	37	0	6291456	60	6990
2026-01-01 12:27:02.28	23.49	2.72	-42.2	-44.1	17.5	0.00e+00	0	37	0	8388608	58	6487
2026-01-01 12:27:03.29	23.58	2.78	-42.3	-44.3	17.4	0.00e+00	0	37	0	10485760	58	6629
2026-01-01 12:27:04.30	23.66	2.83	-42.3	-44.3	17.4	0.00e+00	0	37	0	12582912	58	6679
2026-01-01 12:27:05.31	23.75	2.88	-42.9	-45.1	16.5	0.00e+00	43	37	0	13631488	58	7301
2026-01-01 12:27:06.32	23.84	2.93	-43.9	-46.6	14.8	0.00e+00	0	37	0	15728640	58	8679
2026-01-01 12:27:07.33	23.93	2.98	-45.1	-48.9	12.6	3.20e-05	46	37	0	17825792	60	10031
2026-01-01 12:27:08.34	24.02	3.03	-44.6	-47.6	15.1	6.92e-03	0	37	0	19922944	60	8696
2026-01-01 12:27:09.35	24.11	3.09	-42.7	-44.7	17.1	0.00e+00	0	37	0	22020096	58	6982
2026-01-01 12:27:10.36	24.20	3.14	-43.7	-46.3	14.5	0.00e+00	0	37	0	23068672	58	8341
2026-01-01 12:27:11.37	24.30	3.19	-47.6	-62.3	3.6	1.51e+00	0	37	104	24117248	60	47092
2026-01-01 12:27:12.38	24.39	3.24	-44.8	-48.3	14.5	1.30e+00	37	37	104	24117248	60	9407
2026-01-01 12:27:13.39	24.48	3.29	-45.8	-49.8	12.7	1.21e-02	0	37	0	25165824	60	11223
2026-01-01 12:27:14.40	24.57	3.34	-43.5	-46.0	15.9	7.00e-07	41	37	0	27262976	60	7171
2026-01-01 12:27:15.41	24.66	3.40	-43.4	-45.7	16.6	0.00e+00	0	37	0	29360128	60	6991
2026-01-01 12:27:16.42	24.75	3.45	-43.5	-45.9	15.2	0.00e+00	9	37	0	30408704	60	7133
2026-01-01 12:27:17.43	24.85	3.50	-44.1	-46.7	16.1	0.00e+00	0	37	0	32505856	60	7830
2026-01-01 12:27:18.44	24.94	3.55	-44.0	-46.7	15.3	0.00e+00	0	37	0	34603008	60	7804
2026-01-01 12:27:19.45	25.03	3.61	-43.4	-45.7	16.4	0.00e+00	50	37	0	36700160	60	7003
2026-01-01 12:27:20.46	25.13	3.66	-43.5	-45.8	15.6	0.00e+00	0	37	0	38797312	60	7071
2026-01-01 12:27:21.47	25.22	3.71	-43.9	-46.5	15.5	0.00e+00	38	37	0	39845888	60	7658
2026-01-01 12:27:22.48	25.32	3.76	-44.3	-47.1	15.8	0.00e+00	0	37	0	41943040	60	8156
2026-01-01 12:27:23.49	25.41	3.81	-44.2	-47.0	15.3	0.00e+00	42	37	0	44040192	60	8095
2026-01-01 12:27:24.50	25.51	3.87	-44.1	-46.7	15.6	0.00e+00	0	37	0	46137344	60	7806
2026-01-01 12:27:25.51	25.60	3.92	-44.4	-47.3	14.4	0.00e+00	0	37	0	48234496	60	8339
2026-01-01 12:27:26.52	25.70	3.97	-44.5	-47.3	15.1	0.00e+00	0	37	0	49283072	60	8421
2026-01-01 12:27:27.52	25.79	4.02	-43.9	-46.5	15.5	0.00e+00	0	37	0	51380224	60	7636
2026-01-01 12:27:28.53	25.89	4.08	-44.5	-47.5	14.3	0.00e+00	83	37	0	53477376	60	8538
2026-01-01 12:27:29.54	25.99	4.13	-43.4	-45.6	16.6	0.00e+00	0	37	0	55574528	60	6880
2026-01-01 12:27:30.55	26.08	4.18	-43.4	-45.6	16.3	0.00e+00	67	37	0	57671680	60	6909
2026-01-01 12:27:31.56	26.18	4.23	-43.3	-45.5	16.8	0.00e+00	0	37	0	58720256	60	6822
2026-01-01 12:27:32.57	26.28	4.29	-43.0	-45.0	16.9	0.00e+00	0	37	0	60817408	60	6455
2026-01-01 12:27:33.58	26.38	4.34	-43.1	-45.3	16.7	0.00e+00	0	37	0	62914560	58	7432
2026-01-01 12:27:34.59	26.47	4.39	-42.5	-44.4	17.3	0.00e+00	0	37	0	65011712	58	6726
2026-01-01 12:27:35.60	26.57	4.44	-42.7	-44.6	17.4	0.00e+00	32	37	0	67108864	58	6905
2026-01-01 12:27:36.61	26.67	4.50	-42.8	-44.8	17.0	0.00e+00	0	37	0	68157440	58	7025
2026-01-01 12:27:37.62	26.77	4.55	-43.1	-45.1	17.1	0.00e+00	66	37	0	70254592	58	7333
2026-01-01 12:27:38.63	26.87	4.60	-42.9	-45.0	16.9	0.00e+00	0	37	0	72351744	58	7179
2026-01-01 12:27:39.64	26.97	4.66	-43.0	-45.1	17.1	0.00e+00	0	37	0	74448896	58	7268
2026-01-01 12:27:40.65	27.07	4.71	-42.9	-44.9	17.1	0.00e+00	0	37	0	76546048	58	7134
2026-01-01 12:27:41.66	27.17	4.76	-43.1	-45.2	17.2	0.00e+00	0	37	0	77594624	58	7373
2026-01-01 12:27:42.67	27.27	4.81	-42.2	-44.0	18.1	0.00e+00	34	37	0	79691776	58	6415
2026-01-01 12:27:43.67	27.37	4.87	-42.8	-44.7	17.5	0.00e+00	0	37	0	81788928	58	6965
2026-01-01 12:27:44.68	27.47	4.92	-41.9	-43.5	18.5	0.00e+00	92	37	0	83886080	58	6087
2026-01-01 12:27:45.69	27.58	4.97	-42.0	-43.7	18.6	0.00e+00	0	37	0	85983232	56	6966
2026-01-01 12:27:46.70	27.68	5.03	-42.1	-43.8	18.6	0.00e+00	0	37	0	88080384	56	7011
2026-01-01 12:27:47.70	27.78	5.08	-41.1	-42.6	19.6	0.00e+00	0	37	0	89128960	56	6120
2026-01-01 12:27:48.71	27.88	5.13	-40.6	-42.0	19.8	0.00e+00	0	37	0	91226112	54	6432
2026-01-01 12:27:49.72	27.99	5.18	-40.7	-42.0	19.9	0.00e+00	22	37	0	93323264	54	6444
2026-01-01 12:27:50.73	28.09	5.24	-40.3	-41.6	20.3	0.00e+00	0	37	0	95420416	54	6167
2026-01-01 12:27:51.74	28.20	5.29	-40.4	-41.7	20.3	0.00e+00	77	37	0	97517568	54	6243
2026-01-01 12:27:52.75	28.30	5.34	-40.1	-41.3	20.6	0.00e+00	0	37	0	98566144	54	5964
2026-01-01 12:27:53.76	28.41	5.40	-40.5	-41.8	20.2	0.00e+00	0	37	0	100663296	54	6307
2026-01-01 12:27:54.77	28.51	5.45	-40.3	-41.6	20.4	0.00e+00	0	37	0	102760448	54	6113
2026-01-01 12:27:55.78	28.62	5.50	-40.0	-41.2	20.6	0.00e+00	0	37	0	104857600	54	5874
2026-01-01 12:27:56.79	28.72	5.56	-40.2	-41.5	20.4	0.00e+00	0	37	0	106954752	54	6081
2026-01-01 12:27:57.80	28.83	5.61	-40.1	-41.3	20.6	0.00e+00	0	37	0	108003328	54	5938
2026-01-01 12:27:58.81	28.94	5.67	-40.1	-41.4	20.5	0.00e+00	73	37	0	110100480	54	5983
2026-01-01 12:27:59.82	29.04	5.72	-40.1	-41.4	20.5	0.00e+00	0	37	0	112197632	54	6000
2026-01-01 12:28:00.83	29.15	5.77	-40.2	-41.5	20.5	0.00e+00	7	37	0	114294784	54	6076
2026-01-01 12:28:01.84	29.26	5.83	-40.4	-41.7	20.4	0.00e+00	0	37	0	116391936	54	6200
2026-01-01 12:28:02.85	29.37	5.88	-40.3	-41.6	20.4	0.00e+00	0	37	0	117440512	54	6115
2026-01-01 12:28:03.86	29.48	5.93	-40.5	-41.9	20.2	0.00e+00	9	37	0	119537664	54	6319
2026-01-01 12:28:04.87	29.59	5.99	-40.2	-41.5	20.5	0.00e+00	0	37	0	121634816	54	6074
2026-01-01 12:28:05.88	29.69	6.04	-40.3	-41.5	20.5	0.00e+00	38	37	0	123731968	54	6095
2026-01-01 12:28:06.89	29.80	6.09	-40.6	-41.9	20.1	0.00e+00	0	37	0	125829120	54	6373
2026-01-01 12:28:07.90	29.91	6.15	-40.5	-41.8	20.3	0.00e+00	92	37	0	126877696	54	6293
2026-01-01 12:28:08.91	30.03	6.20	-40.5	-41.8	20.2	0.00e+00	0	37	0	128974848	54	6303
2026-01-01 12:28:09.92	30.14	6.26	-40.6	-42.0	20.1	0.00e+00	0	37	0	131072000	54	6397
2026-01-01 12:28:10.93	30.25	6.31	-40.7	-42.1	20.0	0.00e+00	0	37	0	133169152	54	6472
2026-01-01 12:28:11.93	30.36	6.36	-40.5	-41.8	20.3	0.00e+00	0	37	0	135266304	54	6299
2026-01-01 12:28:12.94	30.47	6.42	-40.5	-41.9	20.1	0.00e+00	91	37	0	136314880	54	6330
2026-01-01 12:28:13.95	30.58	6.47	-40.3	-41.6	20.5	0.00e+00	0	37	0	138412032	54	6104
2026-01-01 12:28:14.96	30.70	6.52	-40.4	-41.7	20.4	0.00e+00	90	37	0	140509184	54	6176
2026-01-01 12:28:15.97	30.81	6.58	-40.5	-41.8	20.3	0.00e+00	0	37	0	142606336	54	6255
2026-01-01 12:28:16.98	30.92	6.63	-40.7	-42.0	20.2	0.00e+00	0	37	0	144703488	54	6435
2026-01-01 12:28:17.99	31.04	6.69	-40.4	-41.7	20.4	0.00e+00	0	37	0	145752064	54	6195
2026-01-01 12:28:19.00	31.15	6.74	-40.4	-41.7	20.4	0.00e+00	0	37	0	147849216	54	6198
2026-01-01 12:28:20.01	31.27	6.79	-40.3	-41.6	20.6	0.00e+00	44	37	0	149946368	54	6108
2026-01-01 12:28:21.02	31.38	6.85	-40.3	-41.5	20.5	0.00e+00	0	37	0	152043520	54	6094
2026-01-01 12:28:22.03	31.50	6.90	-40.2	-41.4	20.7	0.00e+00	26	37	0	154140672	54	6016
2026-01-01 12:28:23.04	31.62	6.96	-39.9	-41.1	20.9	0.00e+00	0	37	0	155189248	54	5824
2026-01-01 12:28:24.05	31.73	7.01	-40.1	-41.3	20.7	0.00e+00	0	37	0	157286400	54	5948
2026-01-01 12:28:25.06	31.85	7.06	-40.1	-41.3	20.7	0.00e+00	0	37	0	159383552	54	5942
2026-01-01 12:28:26.07	31.97	7.12	-40.3	-41.6	20.6	0.00e+00	0	37	0	161480704	54	6121
2026-01-01 12:28:27.07	32.08	7.17	-40.0	-41.2	20.8	0.00e+00	5	37	0	163577856	54	5839
2026-01-01 12:28:28.08	32.20	7.23	-40.3	-41.5	20.7	0.00e+00	0	37	0	164626432	54	6098
2026-01-01 12:28:29.09	32.32	7.28	-40.2	-41.4	20.7	0.00e+00	92	37	0	166723584	54	6033
2026-01-01 12:28:30.10	32.44	7.33	-40.0	-41.2	21.0	0.00e+00	31	37	0	168820736	54	5870
2026-01-01 12:28:31.11	32.56	7.39	-40.0	-41.2	21.0	0.00e+00	67	37	0	170917888	54	5840
2026-01-01 12:28:32.12	32.68	7.44	-39.8	-41.0	21.2	0.00e+00	0	37	0	173015040	54	5741
2026-01-01 12:28:33.13	32.80	7.50	-39.6	-40.8	21.3	0.00e+00	0	37	0	174063616	52	6250
2026-01-01 12:28:34.14	32.92	7.55	-39.6	-40.7	21.3	0.00e+00	35	37	0	176160768	52	6239
2026-01-01 12:28:35.15	33.04	7.61	-39.4	-40.5	21.5	0.00e+00	0	37	0	178257920	52	6093
2026-01-01 12:28:36.16	33.16	7.66	-39.5	-40.7	21.5	0.00e+00	92	37	0	180355072	52	6182
2026-01-01 12:28:37.17	33.29	7.71	-39.4	-40.5	21.6	0.00e+00	31	37	0	182452224	52	6063
2026-01-01 12:28:38.17	33.41	7.77	-39.7	-40.8	21.4	0.00e+00	92	37	0	184549376	52	6272
2026-01-01 12:28:39.18	33.53	7.82	-39.4	-40.5	21.6	0.00e+00	0	37	0	185597952	52	6084
2026-01-01 12:28:40.19	33.65	7.88	-39.4	-40.5	21.5	0.00e+00	0	37	0	187695104	52	6078
2026-01-01 12:28:41.20	33.78	7.93	-39.5	-40.6	21.5	0.00e+00	39	37	0	189792256	52	6132
2026-01-01 12:28:42.21	33.90	7.99	-39.4	-40.5	21.4	0.00e+00	0	38	0	191889408	52	6096
2026-01-01 12:28:43.22	34.03	8.04	-39.8	-40.9	21.2	0.00e+00	52	37	0	193986560	52	6370
2026-01-01 12:28:44.23	34.15	8.09	-39.5	-40.6	21.0	0.00e+00	0	37	0	195035136	52	6135
2026-01-01 12:28:45.24	34.28	8.15	-39.6	-40.7	21.2	0.00e+00	80	38	0	197132288	52	6231
2026-01-01 12:28:46.25	34.40	8.20	-39.7	-40.9	21.2	0.00e+00	0	37	0	199229440	52	6333
2026-01-01 12:28:47.26	34.53	8.26	-39.8	-40.9	21.3	0.00e+00	0	37	0	201326592	52	6361
2026-01-01 12:28:48.27	34.66	8.31	-39.7	-40.9	21.3	0.00e+00	0	38	0	203423744	52	6336
2026-01-01 12:28:49.28	34.79	8.37	-39.8	-40.9	21.2	0.00e+00	0	37	0	204472320	52	6354
2026-01-01 12:28:50.29	34.91	8.42	-39.7	-40.9	21.2	0.00e+00	36	37	0	206569472	52	6338
2026-01-01 12:28:51.30	35.04	8.47	-39.7	-40.9	21.4	0.00e+00	0	37	0	208666624	52	6320
2026-01-01 12:28:52.31	35.17	8.53	-39.7	-40.9	21.3	0.00e+00	90	38	0	210763776	52	6323
2026-01-01 12:28:53.32	35.30	8.58	-39.9	-41.1	21.1	0.00e+00	0	38	0	212860928	52	6508
2026-01-01 12:28:54.32	35.43	8.64	-39.9	-41.1	21.1	0.00e+00	0	38	0	213909504	52	6475
2026-01-01 12:28:55.34	35.56	8.69	-40.0	-41.1	21.2	0.00e+00	0	38	0	216006656	52	6528
2026-01-01 12:28:56.34	35.69	8.75	-39.9	-41.1	21.1	0.00e+00	0	38	0	218103808	52	6487
2026-01-01 12:28:57.35	35.82	8.80	-39.7	-40.9	21.3	0.00e+00	58	38	0	220200960	52	6344
2026-01-01 12:28:58.36	35.95	8.85	-39.8	-40.9	21.3	0.00e+00	0	38	0	222298112	52	6361
2026-01-01 12:28:59.37	36.09	8.91	-39.9	-41.0	21.2	0.00e+00	70	38	0	223346688	52	6445
2026-01-01 12:29:00.38	36.22	8.96	-39.9	-41.1	21.2	0.00e+00	0	38	0	225443840	52	6506
2026-01-01 12:29:01.39	36.35	9.02	-39.8	-40.9	21.2	0.00e+00	0	37	0	227540992	52	6390
2026-01-01 12:29:02.39	36.48	9.07	-39.9	-41.0	21.3	0.00e+00	0	37	0	229638144	52	6439
2026-01-01 12:29:03.40	36.62	9.12	-39.9	-41.1	21.1	0.00e+00	0	38	0	231735296	52	6478
2026-01-01 12:29:04.41	36.75	9.18	-40.0	-41.2	21.2	0.00e+00	33	38	0	232783872	52	6540
2026-01-01 12:29:05.41	36.89	9.23	-39.9	-41.1	21.2	0.00e+00	0	38	0	234881024	52	6504
2026-01-01 12:29:06.42	37.02	9.29	-39.9	-41.1	21.2	0.00e+00	67	38	0	236978176	52	6475
2026-01-01 12:29:07.43	37.16	9.34	-40.1	-41.3	21.0	0.00e+00	0	37	0	239075328	52	6616
2026-01-01 12:29:08.44	37.29	9.39	-40.1	-41.3	21.1	0.00e+00	0	38	0	241172480	52	6647
2026-01-01 12:29:09.45	37.43	9.45	-39.9	-41.1	21.2	0.00e+00	0	37	0	242221056	52	6500
2026-01-01 12:29:10.46	37.57	9.50	-39.9	-41.1	21.2	0.00e+00	0	38	0	244318208	52	6482
2026-01-01 12:29:11.47	37.71	9.56	-39.6	-40.7	21.6	0.00e+00	0	38	0	246415360	52	6176
2026-01-01 12:29:12.48	37.84	9.61	-39.5	-40.6	21.6	0.00e+00	0	38	0	248512512	52	6136
2026-01-01 12:29:13.49	37.98	9.66	-39.4	-40.5	21.8	0.00e+00	53	38	0	250609664	52	6082
2026-01-01 12:29:14.50	38.12	9.72	-39.3	-40.4	21.8	0.00e+00	0	38	0	252706816	52	5983
2026-01-01 12:29:15.51	38.26	9.77	-39.1	-40.1	22.0	0.00e+00	92	38	0	253755392	52	5806
2026-01-01 12:29:16.52	38.40	9.83	-39.1	-40.1	21.9	0.00e+00	0	37	0	255852544	52	5798
2026-01-01 12:29:17.53	38.54	9.88	-39.0	-40.1	22.0	0.00e+00	0	37	0	257949696	52	5789
2026-01-01 12:29:18.53	38.68	9.93	-39.1	-40.2	22.0	0.00e+00	0	38	0	260046848	52	5859
2026-01-01 12:29:19.54	38.83	9.99	-39.2	-40.3	21.9	0.00e+00	0	38	0	262144000	52	5901
2026-01-01 12:29:20.55	38.97	10.04	-39.2	-40.3	21.9	0.00e+00	92	37	0	263192576	52	5909
2026-01-01 12:29:21.56	39.11	10.09	-39.1	-40.1	22.0	0.00e+00	0	38	0	265289728	52	5815
2026-01-01 12:29:22.57	39.26	10.15	-39.1	-40.2	22.0	0.00e+00	43	38	0	267386880	52	5845
2026-01-01 12:29:23.58	39.40	10.20	-38.9	-39.9	22.3	0.00e+00	0	37	0	269484032	52	5686
2026-01-01 12:29:24.59	39.54	10.26	-38.7	-39.8	22.5	0.00e+00	0	38	0	271581184	50	6246
2026-01-01 12:29:25.60	39.69	10.31	-38.5	-39.5	22.6	0.00e+00	0	38	0	272629760	50	6059
2026-01-01 12:29:26.61	39.83	10.36	-38.2	-39.2	22.8	0.00e+00	0	38	0	274726912	50	5861
2026-01-01 12:29:27.62	39.98	10.42	-38.3	-39.3	22.8	0.00e+00	46	38	0	276824064	50	5900
2026-01-01 12:29:28.63	40.13	10.47	-38.0	-38.9	23.0	0.00e+00	0	38	0	278921216	50	5680
2026-01-01 12:29:29.63	40.27	10.52	-38.0	-38.9	23.1	0.00e+00	92	38	0	281018368	50	5684
2026-01-01 12:29:30.65	40.42	10.58	-38.3	-39.2	22.8	0.00e+00	0	37	0	282066944	50	5883
2026-01-01 12:29:31.65	40.57	10.63	-38.5	-39.5	22.6	0.00e+00	0	38	0	284164096	50	6048
2026-01-01 12:29:32.66	40.72	10.68	-38.5	-39.5	22.6	0.00e+00	0	38	0	286261248	50	6065
2026-01-01 12:29:33.68	40.87	10.74	-38.7	-39.7	22.3	0.00e+00	0	38	0	288358400	50	6201
2026-01-01 12:29:34.68	41.02	10.79	-38.7	-39.8	22.3	0.00e+00	36	38	0	290455552	50	6250
2026-01-01 12:29:35.69	41.17	10.84	-38.7	-39.7	22.5	0.00e+00	0	38	0	291504128	50	6234
2026-01-01 12:29:36.70	41.32	10.90	-38.7	-39.7	22.4	0.00e+00	90	38	0	293601280	50	6195
2026-01-01 12:29:37.71	41.47	10.95	-38.7	-39.7	22.4	0.00e+00	0	38	0	295698432	50	6186
2026-01-01 12:29:38.72	41.62	11.00	-38.6	-39.6	22.6	0.00e+00	0	38	0	297795584	50	6156
2026-01-01 12:29:39.73	41.77	11.05	-38.5	-39.5	22.6	0.00e+00	0	38	0	299892736	50	6059
2026-01-01 12:29:40.74	41.93	11.11	-38.5	-39.5	22.5	0.00e+00	0	37	0	300941312	50	6094
2026-01-01 12:29:41.75	42.08	11.16	-38.4	-39.4	22.7	0.00e+00	27	37	0	303038464	50	6008
2026-01-01 12:29:42.76	42.23	11.21	-38.6	-39.7	22.6	0.00e+00	0	38	0	305135616	50	6177
2026-01-01 12:29:43.77	42.39	11.26	-38.4	-39.4	22.7	0.00e+00	91	38	0	307232768	50	6015
2026-01-01 12:29:44.78	42.54	11.32	-38.4	-39.4	22.7	0.00e+00	0	38	0	309329920	50	6027
2026-01-01 12:29:45.79	42.70	11.37	-38.5	-39.5	22.7	0.00e+00	91	37	0	310378496	50	6051
2026-01-01 12:29:46.79	42.85	11.42	-38.6	-39.6	22.6	0.00e+00	0	38	0	312475648	50	6133
2026-01-01 12:29:47.80	43.01	11.47	-38.5	-39.5	22.6	0.00e+00	0	38	0	314572800	50	6090
2026-01-01 12:29:48.81	43.17	11.53	-38.5	-39.5	22.6	0.00e+00	41	37	0	316669952	50	6041
2026-01-01 12:29:49.82	43.32	11.58	-38.5	-39.5	22.6	0.00e+00	0	37	0	318767104	50	6076
2026-01-01 12:29:50.83	43.48	11.63	-38.4	-39.4	22.7	0.00e+00	34	38	0	319815680	50	6018
2026-01-01 12:29:51.84	43.64	11.68	-38.5	-39.4	22.6	0.00e+00	0	38	0	321912832	50	6024
2026-01-01 12:29:52.85	43.80	11.73	-38.6	-39.6	22.6	0.00e+00	92	38	0	324009984	50	6127
2026-01-01 12:29:53.86	43.96	11.79	-38.5	-39.5	22.4	0.00e+00	0	38	0	326107136	50	6041
2026-01-01 12:29:54.87	44.12	11.84	-38.4	-39.4	22.4	0.00e+00	0	38	0	328204288	50	5980
2026-01-01 12:29:55.88	44.28	11.89	-38.6	-39.6	22.5	0.00e+00	0	38	0	329252864	50	6109
2026-01-01 12:29:56.89	44.44	11.94	-38.7	-39.7	22.3	0.00e+00	0	38	0	331350016	50	6230
2026-01-01 12:29:57.90	44.61	11.99	-38.7	-39.7	22.4	0.00e+00	36	38	0	333447168	50	6194
2026-01-01 12:29:58.91	44.77	12.04	-38.7	-39.7	22.4	0.00e+00	0	38	0	335544320	50	6210
2026-01-01 12:29:59.91	44.93	12.09	-38.7	-39.8	22.5	0.00e+00	89	37	0	337641472	50	6249
2026-01-01 12:30:00.92	45.09	12.15	-38.7	-39.8	22.4	0.00e+00	0	38	0	338690048	50	6253
2026-01-01 12:30:01.93	45.26	12.20	-38.7	-39.7	22.6	0.00e+00	0	38	0	340787200	50	6180
2026-01-01 12:30:02.94	45.42	12.25	-38.6	-39.6	22.7	0.00e+00	0	38	0	342884352	50	6131
2026-01-01 12:30:03.95	45.59	12.30	-38.6	-39.6	22.6	0.00e+00	0	38	0	344981504	50	6141
2026-01-01 12:30:04.95	45.75	12.35	-38.9	-39.9	22.4	0.00e+00	57	38	0	347078656	50	6351
2026-01-01 12:30:05.96	45.92	12.40	-38.7	-39.7	22.4	0.00e+00	0	38	0	349175808	50	6240
2026-01-01 12:30:06.97	46.09	12.45	-38.9	-39.9	22.4	0.00e+00	67	38	0	350224384	50	6380
2026-01-01 12:30:07.98	46.25	12.50	-38.8	-39.8	22.4	0.00e+00	0	38	0	352321536	50	6257
2026-01-01 12:30:08.99	46.42	12.55	-39.0	-40.0	22.3	0.00e+00	0	38	0	354418688	50	6431
2026-01-01 12:30:10.00	46.59	12.60	-39.1	-40.2	22.1	0.00e+00	0	38	0	356515840	50	6556
2026-01-01 12:30:11.01	46.76	12.65	-39.2	-40.2	22.1	0.00e+00	0	38	0	358612992	50	6599
2026-01-01 12:30:12.02	46.93	12.70	-39.3	-40.3	22.0	0.00e+00	0	38	0	359661568	50	6689
2026-01-01 12:30:13.03	47.10	12.75	-39.2	-40.3	22.0	0.00e+00	0	38	0	361758720	50	6645
2026-01-01 12:30:14.04	47.27	12.80	-39.1	-40.1	22.1	0.00e+00	23	38	0	363855872	50	6525
2026-01-01 12:30:15.05	47.44	12.85	-39.3	-40.3	22.0	0.00e+00	0	38	0	365953024	50	6690
2026-01-01 12:30:16.06	47.61	12.90	-39.0	-40.0	22.2	0.00e+00	31	38	0	368050176	50	6459
2026-01-01 12:30:17.07	47.79	12.95	-39.1	-40.1	22.2	0.00e+00	0	38	0	369098752	50	6509
2026-01-01 12:30:18.07	47.96	13.00	-39.2	-40.3	22.1	0.00e+00	0	38	0	371195904	50	6630
2026-01-01 12:30:19.08	48.13	13.05	-39.3	-40.3	21.9	0.00e+00	0	38	0	373293056	50	6672
2026-01-01 12:30:20.09	48.31	13.09	-39.3	-40.4	21.8	0.00e+00	18	38	0	375390208	50	6756
2026-01-01 12:30:21.10	48.48	13.14	-39.4	-40.5	21.8	0.00e+00	91	38	0	377487360	50	6821
2026-01-01 12:30:22.11	48.66	13.19	-39.6	-40.7	21.8	0.00e+00	0	38	0	378535936	50	6967
2026-01-01 12:30:23.12	48.83	13.24	-39.3	-40.4	21.8	0.00e+00	91	38	0	380633088	50	6751
2026-01-01 12:30:24.13	49.01	13.29	-39.4	-40.5	21.8	0.00e+00	32	38	0	382730240	50	6804
2026-01-01 12:30:25.14	49.19	13.34	-39.4	-40.4	21.9	0.00e+00	0	38	0	384827392	50	6768
2026-01-01 12:30:26.15	49.37	13.39	-39.2	-40.2	22.1	0.00e+00	0	38	0	386924544	50	6608
2026-01-01 12:30:27.16	49.54	13.43	-39.2	-40.3	22.0	0.00e+00	31	37	0	387973120	50	6655
2026-01-01 12:30:28.17	49.72	13.48	-39.2	-40.3	22.0	0.00e+00	43	38	0	390070272	50	6663
2026-01-01 12:30:29.17	49.90	13.53	-39.2	-40.3	22.1	0.00e+00	0	38	0	392167424	50	6619
2026-01-01 12:30:30.18	50.08	13.58	-39.4	-40.5	21.9	0.00e+00	90	38	0	394264576	50	6772
2026-01-01 12:30:31.19	50.26	13.62	-39.3	-40.4	21.9	0.00e+00	0	38	0	396361728	50	6724
2026-01-01 12:30:32.20	50.44	13.67	-39.5	-40.6	21.9	0.00e+00	0	38	0	397410304	50	6851
2026-01-01 12:30:33.21	50.62	13.72	-39.4	-40.5	21.9	0.00e+00	0	38	0	399507456	50	6784
2026-01-01 12:30:34.22	50.81	13.76	-39.4	-40.4	21.9	0.00e+00	0	38	0	401604608	50	6765
2026-01-01 12:30:35.23	50.99	13.81	-39.5	-40.6	21.8	0.00e+00	31	38	0	403701760	50	6850
2026-01-01 12:30:36.24	51.17	13.86	-39.6	-40.7	21.8	0.00e+00	0	38	0	405798912	50	6996
2026-01-01 12:30:37.25	51.36	13.90	-39.7	-40.8	21.5	0.00e+00	92	38	0	406847488	50	7027
2026-01-01 12:30:38.26	51.54	13.95	-39.9	-41.1	21.5	0.00e+00	0	38	0	408944640	52	6480
2026-01-01 12:30:39.26	51.72	13.99	-40.0	-41.2	21.3	0.00e+00	0	38	0	411041792	52	6574
2026-01-01 12:30:40.28	51.91	14.04	-40.0	-41.2	21.3	0.00e+00	0	38	0	413138944	52	6589
2026-01-01 12:30:41.28	52.09	14.08	-39.9	-41.1	21.4	0.00e+00	0	38	0	415236096	52	6468
2026-01-01 12:30:42.29	52.28	14.13	-39.9	-41.0	21.4	0.00e+00	23	38	0	417333248	52	6432
2026-01-01 12:30:43.30	52.47	14.17	-39.7	-40.9	21.6	0.00e+00	0	38	0	418381824	52	6334
2026-01-01 12:30:44.31	52.66	14.22	-39.8	-40.9	21.5	0.00e+00	92	38	0	420478976	52	6339
2026-01-01 12:30:45.32	52.84	14.26	-39.9	-41.1	21.4	0.00e+00	0	38	0	422576128	52	6507
2026-01-01 12:30:46.33	53.03	14.31	-39.8	-41.0	21.3	0.00e+00	0	38	0	424673280	52	6407
2026-01-01 12:30:47.34	53.22	14.35	-40.1	-41.2	21.0	0.00e+00	0	38	0	426770432	52	6606
2026-01-01 12:30:48.35	53.41	14.40	-40.1	-41.3	21.2	0.00e+00	0	37	0	427819008	52	6674
2026-01-01 12:30:49.36	53.60	14.44	-40.4	-41.6	20.9	0.00e+00	0	38	0	429916160	52	6877
2026-01-01 12:30:50.37	53.79	14.48	-40.6	-41.8	20.8	0.00e+00	0	38	0	432013312	52	7044
2026-01-01 12:30:51.37	53.98	14.53	-40.7	-41.9	20.6	0.00e+00	40	38	0	434110464	54	6373
2026-01-01 12:30:52.38	54.18	14.57	-40.6	-41.8	20.7	0.00e+00	0	38	0	435159040	54	6278
2026-01-01 12:30:53.39	54.37	14.61	-40.5	-41.8	20.8	0.00e+00	56	38	0	437256192	54	6249
2026-01-01 12:30:54.40	54.56	14.66	-40.5	-41.7	20.8	0.00e+00	0	38	0	439353344	54	6217
2026-01-01 12:30:55.41	54.76	14.70	-40.8	-42.1	20.4	0.00e+00	0	38	0	441450496	54	6472
2026-01-01 12:30:56.42	54.95	14.74	-40.6	-41.9	20.7	0.00e+00	0	38	0	443547648	54	6348
2026-01-01 12:30:57.43	55.15	14.78	-40.8	-42.0	20.5	0.00e+00	0	38	0	445644800	54	6461
2026-01-01 12:30:58.44	55.34	14.83	-40.8	-42.1	20.5	0.00e+00	92	38	0	446693376	54	6515
2026-01-01 12:30:59.45	55.54	14.87	-40.6	-41.9	20.7	0.00e+00	0	38	0	448790528	54	6352
2026-01-01 12:31:00.46	55.73	14.91	-40.5	-41.8	20.8	0.00e+00	48	38	0	450887680	54	6246
2026-01-01 12:31:01.46	55.93	14.95	-40.2	-41.4	21.1	0.00e+00	0	38	0	452984832	54	5971
2026-01-01 12:31:02.47	56.13	14.99	-40.1	-41.2	21.2	0.00e+00	0	38	0	455081984	54	5891
2026-01-01 12:31:03.48	56.32	15.03	-39.9	-41.0	21.4	0.00e+00	0	38	0	456130560	54	5761
2026-01-01 12:31:04.49	56.52	15.07	-39.8	-40.9	21.5	0.00e+00	0	38	0	458227712	54	5694
2026-01-01 12:31:05.50	56.72	15.11	-39.9	-41.1	21.4	0.00e+00	61	37	0	460324864	54	5776
2026-01-01 12:31:06.51	56.92	15.15	-40.1	-41.3	21.3	0.00e+00	0	38	0	462422016	54	5899
2026-01-01 12:31:07.52	57.12	15.19	-40.3	-41.5	21.0	0.00e+00	92	38	0	464519168	54	6088
2026-01-01 12:31:08.53	57.32	15.23	-40.3	-41.5	21.1	0.00e+00	0	38	0	465567744	54	6044
2026-01-01 12:31:09.53	57.52	15.27	-40.4	-41.7	21.0	0.00e+00	0	38	0	467664896	54	6184
2026-01-01 12:31:10.54	57.72	15.31	-40.3	-41.5	21.1	0.00e+00	0	38	0	469762048	54	6060
2026-01-01 12:31:11.55	57.92	15.35	-39.9	-41.1	21.5	0.00e+00	0	38	0	471859200	54	5773
2026-01-01 12:31:12.56	58.13	15.38	-39.6	-40.7	21.7	0.00e+00	39	38	0	473956352	52	6235
2026-01-01 12:31:13.57	58.33	15.42	-39.6	-40.7	21.8	0.00e+00	0	37	0	475004928	52	6196
2026-01-01 12:31:14.58	58.53	15.46	-39.7	-40.8	21.7	0.00e+00	70	38	0	477102080	52	6317
2026-01-01 12:31:15.58	58.74	15.50	-39.6	-40.7	21.7	0.00e+00	0	37	0	479199232	52	6180
2026-01-01 12:31:16.60	58.94	15.53	-39.3	-40.3	21.8	0.00e+00	0	37	0	481296384	52	5951
2026-01-01 12:31:17.60	59.15	15.57	-39.2	-40.2	22.0	0.00e+00	0	38	0	483393536	52	5873
2026-01-01 12:31:18.62	59.35	15.61	-39.2	-40.3	22.2	0.00e+00	0	37	0	484442112	52	5899
2026-01-01 12:31:19.62	59.56	15.64	-38.9	-39.9	22.3	0.00e+00	0	37	0	486539264	52	5689
2026-01-01 12:31:20.63	59.77	15.68	-39.0	-40.0	22.4	0.00e+00	0	38	0	488636416	52	5712
2026-01-01 12:31:21.64	59.97	15.72	-38.6	-39.6	22.6	0.00e+00	45	37	0	490733568	50	6152
2026-01-01 12:31:22.65	60.18	15.75	-38.7	-39.7	22.5	0.00e+00	0	37	0	492830720	50	6190
2026-01-01 12:31:23.66	60.39	15.79	-38.8	-39.8	22.4	0.00e+00	92	37	0	493879296	50	6312
2026-01-01 12:31:24.67	60.60	15.82	-38.8	-39.8	22.5	0.00e+00	0	37	0	495976448	50	6268
2026-01-01 12:31:25.68	60.81	15.85	-38.7	-39.7	22.6	0.00e+00	0	37	0	498073600	50	6176
2026-01-01 12:31:26.69	61.02	15.89	-38.7	-39.6	22.5	0.00e+00	0	38	0	500170752	50	6170
2026-01-01 12:31:27.70	61.23	15.92	-38.7	-39.8	22.5	0.00e+00	0	37	0	502267904	50	6246
2026-01-01 12:31:28.71	61.44	15.96	-38.4	-39.4	22.7	0.00e+00	80	38	0	503316480	50	6011
2026-01-01 12:31:29.72	61.65	15.99	-38.5	-39.5	22.2	0.00e+00	0	37	0	505413632	50	6075
2026-01-01 12:31:30.73	61.86	16.02	-38.7	-39.7	22.6	0.00e+00	78	37	0	507510784	50	6191
2026-01-01 12:31:31.74	62.07	16.06	-38.8	-39.8	22.5	0.00e+00	0	37	0	509607936	50	6248
2026-01-01 12:31:32.75	62.28	16.09	-39.0	-40.0	22.3	0.00e+00	0	37	0	511705088	50	6440
2026-01-01 12:31:33.76	62.50	16.12	-39.4	-40.4	22.0	0.00e+00	0	37	0	513802240	50	6755
2026-01-01 12:31:34.77	62.71	16.15	-39.5	-40.6	21.8	0.00e+00	0	37	0	514850816	50	6877
2026-01-01 12:31:35.78	62.92	16.18	-39.3	-40.4	21.9	0.00e+00	73	37	0	516947968	50	6741
2026-01-01 12:31:36.79	63.14	16.21	-39.7	-40.8	21.7	0.00e+00	0	37	0	519045120	50	7031
2026-01-01 12:31:37.80	63.35	16.24	-39.5	-40.6	21.8	0.00e+00	83	37	0	521142272	50	6865
2026-01-01 12:31:38.81	63.57	16.27	-39.5	-40.6	21.9	0.00e+00	0	37	0	523239424	50	6864
2026-01-01 12:31:39.82	63.78	16.30	-39.6	-40.7	21.7	0.00e+00	0	37	0	524288000	50	7007
2026-01-01 12:31:40.83	64.00	16.33	-39.6	-40.6	21.7	0.00e+00	2	37	0	526385152	50	6923
2026-01-01 12:31:41.84	64.21	16.36	-39.4	-40.5	22.0	0.00e+00	0	37	0	528482304	50	6820
2026-01-01 12:31:42.85	64.43	16.39	-39.3	-40.4	21.9	0.00e+00	42	37	0	530579456	50	6703
2026-01-01 12:31:43.86	64.65	16.42	-39.0	-40.0	22.3	0.00e+00	0	37	0	532676608	50	6451
2026-01-01 12:31:44.87	64.87	16.45	-38.6	-39.6	22.7	0.00e+00	91	37	0	533725184	50	6116
2026-01-01 12:31:45.88	65.08	16.48	-38.4	-39.4	22.8	0.00e+00	0	37	0	535822336	50	5974
2026-01-01 12:31:46.89	65.30	16.50	-38.1	-39.1	23.0	0.00e+00	0	37	0	537919488	50	5791
2026-01-01 12:31:47.90	65.52	16.53	-38.3	-39.3	22.9	0.00e+00	0	37	0	540016640	50	5920
2026-01-01 12:31:48.90	65.74	16.56	-38.8	-39.8	22.6	0.00e+00	0	37	0	542113792	50	6303
2026-01-01 12:31:49.91	65.96	16.58	-38.9	-40.0	22.2	0.00e+00	39	37	0	543162368	50	6401
2026-01-01 12:31:50.92	66.18	16.61	-39.2	-40.3	22.0	0.00e+00	0	37	0	545259520	50	6656
2026-01-01 12:31:51.93	66.40	16.64	-39.3	-40.4	22.0	0.00e+00	90	37	0	547356672	50	6729
2026-01-01 12:31:52.94	66.62	16.66	-39.3	-40.4	22.0	0.00e+00	0	37	0	549453824	50	6700
2026-01-01 12:31:53.95	66.84	16.69	-39.0	-40.0	22.2	0.00e+00	0	37	0	551550976	50	6444
2026-01-01 12:31:54.96	67.06	16.71	-39.1	-40.1	22.2	0.00e+00	0	37	0	552599552	50	6523
2026-01-01 12:31:55.97	67.28	16.73	-39.1	-40.2	21.9	0.00e+00	0	37	0	554696704	50	6561
2026-01-01 12:31:56.98	67.50	16.76	-39.2	-40.3	21.9	0.00e+00	25	37	0	556793856	50	6653
2026-01-01 12:31:57.99	67.72	16.78	-39.5	-40.6	21.7	0.00e+00	0	37	0	558891008	50	6926
2026-01-01 12:31:59.00	67.95	16.80	-39.4	-40.5	21.7	0.00e+00	90	37	0	560988160	50	6834
2026-01-01 12:32:00.01	68.17	16.83	-39.3	-40.4	22.0	0.00e+00	0	37	0	562036736	50	6694
2026-01-01 12:32:01.02	68.39	16.85	-38.9	-39.9	22.4	0.00e+00	54	37	0	564133888	50	6366
2026-01-01 12:32:02.02	68.62	16.87	-38.7	-39.7	22.5	0.00e+00	0	37	0	566231040	50	6175
2026-01-01 12:32:03.03	68.84	16.89	-38.2	-39.1	23.1	0.00e+00	0	37	0	568328192	50	5818
2026-01-01 12:32:04.04	69.06	16.91	-38.4	-39.3	22.9	0.00e+00	0	37	0	570425344	50	5960
2026-01-01 12:32:05.05	69.29	16.93	-38.5	-39.5	22.6	0.00e+00	0	37	0	571473920	50	6065
2026-01-01 12:32:06.06	69.51	16.95	-38.8	-39.8	22.5	0.00e+00	92	37	0	573571072	50	6275
2026-01-01 12:32:07.07	69.74	16.97	-39.0	-40.0	22.2	0.00e+00	0	37	0	575668224	50	6464
2026-01-01 12:32:08.08	69.96	16.99	-39.1	-40.1	22.2	0.00e+00	5	37	0	577765376	50	6514
2026-01-01 12:32:09.09	70.19	17.01	-38.8	-39.8	22.4	0.00e+00	0	37	0	579862528	50	6271
2026-01-01 12:32:10.10	70.41	17.03	-38.6	-39.6	22.7	0.00e+00	0	37	0	581959680	50	6128
2026-01-01 12:32:11.11	70.64	17.05	-38.3	-39.3	22.9	0.00e+00	29	37	0	583008256	50	5902
2026-01-01 12:32:12.12	70.87	17.07	-38.4	-39.4	22.8	0.00e+00	0	37	0	585105408	50	5973
2026-01-01 12:32:13.13	71.09	17.08	-38.7	-39.6	22.6	0.00e+00	39	37	0	587202560	50	6173
2026-01-01 12:32:14.14	71.32	17.10	-39.1	-40.1	22.2	0.00e+00	31	37	0	589299712	50	6506
2026-01-01 12:32:15.15	71.55	17.12	-39.4	-40.5	21.8	0.00e+00	79	37	0	591396864	50	6840
2026-01-01 12:32:16.16	71.78	17.13	-39.8	-40.9	21.5	0.00e+00	0	37	0	592445440	52	6355
2026-01-01 12:32:17.17	72.00	17.15	-39.9	-41.0	21.5	0.00e+00	0	37	0	594542592	52	6456
2026-01-01 12:32:18.17	72.23	17.16	-39.9	-41.1	21.5	0.00e+00	0	37	0	596639744	52	6480
2026-01-01 12:32:19.18	72.46	17.18	-39.8	-40.9	21.6	0.00e+00	0	37	0	598736896	52	6390
2026-01-01 12:32:20.19	72.69	17.19	-39.9	-41.1	21.3	0.00e+00	40	37	0	600834048	52	6469
2026-01-01 12:32:21.20	72.92	17.21	-40.3	-41.5	20.9	0.00e+00	0	37	0	601882624	52	6827
2026-01-01 12:32:22.21	73.14	17.22	-40.5	-41.8	20.9	0.00e+00	90	37	0	603979776	52	7010
2026-01-01 12:32:23.22	73.37	17.23	-40.5	-41.8	20.8	0.00e+00	0	37	0	606076928	52	7028
2026-01-01 12:32:24.23	73.60	17.25	-40.5	-41.7	20.8	0.00e+00	38	37	0	608174080	52	6969
2026-01-01 12:32:25.24	73.83	17.26	-40.4	-41.7	21.0	0.00e+00	0	37	0	610271232	52	6944
2026-01-01 12:32:26.25	74.06	17.27	-39.9	-41.1	21.3	0.00e+00	0	37	0	611319808	52	6498
2026-01-01 12:32:27.26	74.29	17.28	-39.9	-41.1	21.4	0.00e+00	40	37	0	613416960	52	6488
2026-01-01 12:32:28.27	74.52	17.29	-39.9	-41.1	21.5	0.00e+00	0	37	0	615514112	52	6484
2026-01-01 12:32:29.28	74.75	17.30	-39.7	-40.8	21.5	0.00e+00	92	37	0	617611264	52	6314
2026-01-01 12:32:30.29	74.98	17.31	-39.7	-40.9	21.6	0.00e+00	0	37	0	619708416	52	6333
2026-01-01 12:32:31.30	75.21	17.32	-39.6	-40.7	21.8	0.00e+00	0	37	0	620756992	52	6244
2026-01-01 12:32:32.31	75.44	17.33	-39.4	-40.5	21.9	0.00e+00	0	37	0	622854144	52	6083
2026-01-01 12:32:33.32	75.67	17.34	-39.2	-40.3	22.1	0.00e+00	0	37	0	624951296	52	5947
2026-01-01 12:32:34.33	75.90	17.35	-39.0	-40.1	22.3	0.00e+00	0	37	0	627048448	52	5771
2026-01-01 12:32:35.34	76.14	17.36	-39.0	-40.1	22.2	0.00e+00	33	37	0	629145600	52	5803
2026-01-01 12:32:36.35	76.37	17.36	-39.1	-40.2	22.0	0.00e+00	37	37	0	630194176	52	5854
2026-01-01 12:32:37.36	76.60	17.37	-39.2	-40.4	21.9	0.00e+00	0	37	0	632291328	52	5992
2026-01-01 12:32:38.37	76.83	17.38	-39.3	-40.5	21.9	0.00e+00	65	37	0	634388480	52	6037
2026-01-01 12:32:39.38	77.06	17.38	-39.5	-40.6	21.7	0.00e+00	0	37	0	636485632	52	6166
2026-01-01 12:32:40.39	77.29	17.39	-39.5	-40.6	21.9	0.00e+00	0	37	0	638582784	52	6125
2026-01-01 12:32:41.40	77.52	17.39	-39.4	-40.4	21.9	0.00e+00	0	37	0	639631360	52	6019
2026-01-01 12:32:42.41	77.76	17.40	-39.4	-40.4	21.9	0.00e+00	0	37	0	641728512	52	6015
2026-01-01 12:32:43.41	77.99	17.40	-39.4	-40.5	22.0	0.00e+00	30	37	0	643825664	52	6036
2026-01-01 12:32:44.42	78.22	17.41	-39.4	-40.5	22.0	0.00e+00	0	37	0	645922816	52	6072
2026-01-01 12:32:45.43	78.45	17.41	-39.4	-40.5	21.8	0.00e+00	92	37	0	648019968	52	6073
2026-01-01 12:32:46.44	78.68	17.41	-39.5	-40.6	21.9	0.00e+00	0	37	0	650117120	52	6118
2026-01-01 12:32:47.44	78.91	17.42	-39.5	-40.6	21.8	0.00e+00	0	37	0	651165696	52	6145
2026-01-01 12:32:48.45	79.14	17.42	-39.2	-40.2	22.1	0.00e+00	0	37	0	653262848	52	5882
2026-01-01 12:32:49.46	79.37	17.42	-39.2	-40.2	22.3	0.00e+00	0	37	0	655360000	52	5883
2026-01-01 12:32:50.47	79.61	17.42	-39.0	-40.0	22.3	0.00e+00	46	37	0	657457152	52	5750
2026-01-01 12:32:51.48	79.84	17.42	-39.0	-40.1	22.2	0.00e+00	0	37	0	658505728	52	5779
2026-01-01 12:32:52.49	80.07	17.42	-38.9	-40.0	22.2	0.00e+00	64	37	0	660602880	52	5711
2026-01-01 12:32:53.50	80.30	17.42	-38.9	-40.0	22.4	0.00e+00	0	37	0	662700032	52	5723
2026-01-01 12:32:54.51	80.54	17.42	-39.0	-40.1	22.3	0.00e+00	0	37	0	664797184	52	5781
2026-01-01 12:32:55.52	80.77	17.42	-39.2	-40.2	22.2	0.00e+00	0	37	0	666894336	52	5869
2026-01-01 12:32:56.53	81.00	17.42	-39.2	-40.3	22.0	0.00e+00	0	37	0	667942912	52	5908
2026-01-01 12:32:57.54	81.23	17.42	-39.2	-40.2	22.2	0.00e+00	92	37	0	670040064	52	5896
2026-01-01 12:32:58.55	81.46	17.41	-39.3	-40.5	21.9	0.00e+00	0	37	0	672137216	52	6053
2026-01-01 12:32:59.55	81.69	17.41	-39.3	-40.4	22.0	0.00e+00	92	37	0	674234368	52	5971
2026-01-01 12:33:00.56	81.93	17.41	-39.4	-40.5	21.8	0.00e+00	0	37	0	676331520	52	6100
2026-01-01 12:33:01.57	82.16	17.40	-39.6	-40.7	21.7	0.00e+00	61	37	0	678428672	52	6241
2026-01-01 12:33:02.58	82.39	17.40	-39.6	-40.7	21.7	0.00e+00	0	37	0	679477248	52	6210
2026-01-01 12:33:03.59	82.62	17.40	-39.6	-40.8	21.6	0.00e+00	0	37	0	681574400	52	6290
2026-01-01 12:33:04.60	82.85	17.39	-39.5	-40.7	21.7	0.00e+00	0	37	0	683671552	52	6240
2026-01-01 12:33:05.61	83.08	17.38	-39.7	-41.0	21.5	0.00e+00	0	37	0	685768704	52	6396
2026-01-01 12:33:06.62	83.32	17.38	-39.6	-40.8	21.6	0.00e+00	92	37	0	687865856	52	6297
2026-01-01 12:33:07.63	83.55	17.37	-39.7	-40.9	21.4	0.00e+00	0	37	0	688914432	52	6346
2026-01-01 12:33:08.63	83.78	17.37	-39.8	-41.0	20.9	0.00e+00	88	37	0	691011584	52	6461
2026-01-01 12:33:09.65	84.01	17.36	-40.1	-41.3	21.2	0.00e+00	0	37	0	693108736	52	6654
2026-01-01 12:33:10.65	84.24	17.35	-40.3	-41.5	21.2	0.00e+00	0	37	0	695205888	52	6780
2026-01-01 12:33:11.67	84.47	17.34	-40.1	-41.3	21.0	0.00e+00	0	37	0	697303040	52	6652
2026-01-01 12:33:12.68	84.70	17.33	-40.0	-41.2	21.3	0.00e+00	0	37	0	698351616	52	6548
2026-01-01 12:33:13.68	84.93	17.32	-39.6	-40.8	21.6	0.00e+00	91	37	0	700448768	52	6248
2026-01-01 12:33:14.69	85.16	17.31	-39.4	-40.5	21.9	0.00e+00	0	37	0	702545920	52	6090
2026-01-01 12:33:15.70	85.39	17.30	-39.1	-40.1	22.2	0.00e+00	91	37	0	704643072	52	5817
2026-01-01 12:33:16.71	85.62	17.29	-38.7	-39.7	22.5	0.00e+00	0	37	0	706740224	50	6245
2026-01-01 12:33:17.72	85.85	17.28	-38.5	-39.5	22.6	0.00e+00	0	37	0	707788800	50	6094
2026-01-01 12:33:18.73	86.08	17.27	-38.4	-39.3	23.0	0.00e+00	0	37	0	709885952	50	5957
2026-01-01 12:33:19.74	86.31	17.26	-38.4	-39.3	22.8	0.00e+00	0	37	0	711983104	50	5948
2026-01-01 12:33:20.75	86.54	17.25	-38.3	-39.2	22.8	0.00e+00	92	37	0	714080256	50	5886
2026-01-01 12:33:21.76	86.77	17.24	-38.2	-39.1	23.0	0.00e+00	0	37	0	716177408	50	5808
2026-01-01 12:33:22.77	87.00	17.22	-38.3	-39.3	22.8	0.00e+00	92	37	0	717225984	50	5909
2026-01-01 12:33:23.78	87.23	17.21	-38.7	-39.6	22.6	0.00e+00	0	37	0	719323136	50	6172
2026-01-01 12:33:24.79	87.46	17.19	-38.9	-39.9	22.5	0.00e+00	0	37	0	721420288	50	6350
2026-01-01 12:33:25.80	87.69	17.18	-39.0	-40.0	22.2	0.00e+00	0	37	0	723517440	50	6450
2026-01-01 12:33:26.81	87.92	17.17	-39.3	-40.3	22.0	0.00e+00	0	37	0	725614592	50	6685
2026-01-01 12:33:27.82	88.15	17.15	-39.4	-40.4	22.0	0.00e+00	35	37	0	726663168	50	6748
2026-01-01 12:33:28.83	88.37	17.13	-39.4	-40.5	21.9	0.00e+00	0	37	0	728760320	50	6775
2026-01-01 12:33:29.83	88.60	17.12	-39.4	-40.5	21.8	0.00e+00	90	37	0	730857472	50	6789
2026-01-01 12:33:30.84	88.83	17.10	-39.5	-40.6	21.8	0.00e+00	0	37	0	732954624	50	6896
2026-01-01 12:33:31.85	89.06	17.09	-39.4	-40.5	21.7	0.00e+00	0	37	0	735051776	50	6836
2026-01-01 12:33:32.86	89.28	17.07	-39.5	-40.6	21.8	0.00e+00	0	37	0	736100352	50	6886
2026-01-01 12:33:33.87	89.51	17.05	-39.4	-40.5	22.0	0.00e+00	0	37	0	738197504	50	6796
2026-01-01 12:33:34.87	89.73	17.03	-39.2	-40.3	22.1	0.00e+00	40	37	0	740294656	50	6622
2026-01-01 12:33:35.88	89.96	17.01	-39.1	-40.1	22.1	0.00e+00	0	37	0	742391808	50	6509
2026-01-01 12:33:36.89	90.19	17.00	-38.9	-39.9	22.3	0.00e+00	90	37	0	744488960	50	6341
2026-01-01 12:33:37.90	90.41	16.98	-38.6	-39.6	22.6	0.00e+00	0	37	0	746586112	50	6167
2026-01-01 12:33:38.91	90.64	16.96	-38.6	-39.6	22.4	0.00e+00	91	37	0	747634688	50	6161
2026-01-01 12:33:39.91	90.86	16.94	-38.8	-39.8	22.5	0.00e+00	0	37	0	749731840	50	6283
2026-01-01 12:33:40.92	91.09	16.92	-38.9	-39.9	22.3	0.00e+00	0	37	0	751828992	50	6344
2026-01-01 12:33:41.93	91.31	16.89	-38.7	-39.7	22.4	0.00e+00	0	37	0	753926144	50	6224
2026-01-01 12:33:42.94	91.54	16.87	-38.9	-39.9	22.3	0.00e+00	0	37	0	756023296	50	6359
2026-01-01 12:33:43.95	91.76	16.85	-38.8	-39.9	22.4	0.00e+00	92	37	0	757071872	50	6323
2026-01-01 12:33:44.96	91.98	16.83	-38.6	-39.6	22.4	0.00e+00	0	37	0	759169024	50	6114
2026-01-01 12:33:45.97	92.21	16.81	-38.7	-39.8	22.4	0.00e+00	92	37	0	761266176	50	6259
2026-01-01 12:33:46.98	92.43	16.78	-38.6	-39.6	22.6	0.00e+00	0	37	0	763363328	50	6156
2026-01-01 12:33:47.99	92.65	16.76	-38.7	-39.7	22.5	0.00e+00	0	37	0	765460480	50	6197
2026-01-01 12:33:49.00	92.88	16.74	-38.5	-39.5	22.6	0.00e+00	9	37	0	766509056	50	6083
2026-01-01 12:33:50.01	93.10	16.71	-38.4	-39.3	22.8	0.00e+00	0	37	0	768606208	50	5956
2026-01-01 12:33:51.02	93.32	16.69	-38.2	-39.2	22.9	0.00e+00	5	37	0	770703360	50	5842
2026-01-01 12:33:52.03	93.54	16.66	-38.3	-39.3	22.7	0.00e+00	2	37	0	772800512	50	5951
2026-01-01 12:33:53.04	93.76	16.64	-38.4	-39.4	22.7	0.00e+00	34	37	0	774897664	50	5997
2026-01-01 12:33:54.05	93.98	16.61	-38.5	-39.5	22.7	0.00e+00	0	37	0	775946240	50	6100
2026-01-01 12:33:55.06	94.20	16.59	-38.8	-39.8	22.4	0.00e+00	0	37	0	778043392	50	6295
2026-01-01 12:33:56.06	94.42	16.56	-38.6	-39.6	22.7	0.00e+00	0	37	0	780140544	50	6125
2026-01-01 12:33:57.07	94.64	16.53	-38.5	-39.5	22.6	0.00e+00	0	37	0	782237696	50	6070
2026-01-01 12:33:58.08	94.86	16.51	-38.3	-39.2	22.9	0.00e+00	6	37	0	784334848	50	5890
2026-01-01 12:33:59.09	95.08	16.48	-37.9	-38.8	23.2	0.00e+00	0	37	0	785383424	50	5618
2026-01-01 12:34:00.10	95.30	16.45	-38.0	-39.0	23.1	0.00e+00	92	37	0	787480576	50	5705
2026-01-01 12:34:01.11	95.51	16.42	-37.9	-38.9	23.2	0.00e+00	0	37	0	789577728	50	5642
2026-01-01 12:34:02.12	95.73	16.39	-37.9	-38.8	23.1	0.00e+00	0	37	0	791674880	48	6302
2026-01-01 12:34:03.13	95.95	16.37	-37.8	-38.8	23.2	0.00e+00	0	37	0	793772032	48	6258
2026-01-01 12:34:04.14	96.17	16.34	-37.9	-38.8	23.2	0.00e+00	0	37	0	794820608	48	6304
2026-01-01 12:34:05.15	96.38	16.31	-37.9	-39.0	23.1	0.00e+00	38	37	0	796917760	48	6413
2026-01-01 12:34:06.16	96.60	16.28	-38.1	-39.2	22.9	0.00e+00	0	37	0	799014912	48	6567
2026-01-01 12:34:07.17	96.81	16.25	-38.1	-39.1	22.9	0.00e+00	92	37	0	801112064	48	6536
2026-01-01 12:34:08.18	97.03	16.22	-38.0	-39.0	23.1	0.00e+00	25	37	0	803209216	48	6427
2026-01-01 12:34:09.19	97.24	16.18	-38.2	-39.1	22.9	0.00e+00	45	37	0	804257792	48	6537
2026-01-01 12:34:10.20	97.46	16.15	-38.1	-39.0	22.9	0.00e+00	0	37	0	806354944	48	6446
2026-01-01 12:34:11.21	97.67	16.12	-38.2	-39.2	22.9	0.00e+00	0	37	0	808452096	48	6544
2026-01-01 12:34:12.22	97.89	16.09	-38.1	-39.0	23.0	0.00e+00	0	37	0	810549248	48	6454
2026-01-01 12:34:13.23	98.10	16.06	-38.1	-39.0	23.1	0.00e+00	0	37	0	812646400	48	6431
2026-01-01 12:34:14.23	98.31	16.02	-37.9	-38.9	23.1	0.00e+00	92	37	0	813694976	48	6320
2026-01-01 12:34:15.24	98.52	15.99	-37.9	-38.9	23.1	0.00e+00	0	37	0	815792128	48	6326
2026-01-01 12:34:16.25	98.73	15.96	-38.1	-39.1	22.9	0.00e+00	61	37	0	817889280	48	6525
2026-01-01 12:34:17.26	98.94	15.92	-38.3	-39.2	22.9	0.00e+00	0	37	0	819986432	48	6613
2026-01-01 12:34:18.27	99.16	15.89	-38.4	-39.4	22.8	0.00e+00	0	37	0	822083584	48	6717
2026-01-01 12:34:19.28	99.37	15.86	-38.3	-39.3	22.8	0.00e+00	0	37	0	823132160	48	6659
2026-01-01 12:34:20.29	99.58	15.82	-38.3	-39.3	22.8	0.00e+00	0	37	0	825229312	48	6658
2026-01-01 12:34:21.30	99.78	15.79	-38.2	-39.2	22.9	0.00e+00	36	37	0	827326464	48	6568
2026-01-01 12:34:22.31	99.99	15.75	-38.0	-39.0	23.1	0.00e+00	0	37	0	829423616	48	6392
2026-01-01 12:34:23.32	100.20	15.72	-38.0	-38.9	23.1	0.00e+00	78	37	0	831520768	48	6351
2026-01-01 12:34:24.33	100.41	15.68	-37.7	-38.6	23.3	0.00e+00	0	37	0	832569344	48	6140
2026-01-01 12:34:25.34	100.62	15.64	-37.9	-38.8	23.1	0.00e+00	0	37	0	834666496	48	6290
2026-01-01 12:34:26.34	100.82	15.61	-38.0	-39.0	23.1	0.00e+00	0	37	0	836763648	48	6396
2026-01-01 12:34:27.35	101.03	15.57	-38.2	-39.2	22.9	0.00e+00	0	37	0	838860800	48	6579
2026-01-01 12:34:28.36	101.23	15.53	-38.3	-39.3	22.9	0.00e+00	40	37	0	840957952	48	6634
2026-01-01 12:34:29.37	101.44	15.50	-38.3	-39.3	22.8	0.00e+00	0	37	0	843055104	48	6665
2026-01-01 12:34:30.38	101.65	15.46	-38.2	-39.2	22.9	0.00e+00	92	37	0	844103680	48	6557
2026-01-01 12:34:31.39	101.85	15.42	-38.1	-39.0	23.0	0.00e+00	0	37	0	846200832	48	6440
2026-01-01 12:34:32.40	102.05	15.38	-38.0	-39.0	23.0	0.00e+00	0	37	0	848297984	48	6404
2026-01-01 12:34:33.41	102.26	15.34	-38.0	-39.0	23.0	0.00e+00	0	37	0	850395136	48	6406
2026-01-01 12:34:34.42	102.46	15.31	-38.1	-39.1	22.8	0.00e+00	0	37	0	852492288	48	6472
2026-01-01 12:34:35.42	102.66	15.27	-38.5	-39.5	22.4	0.00e+00	34	37	0	853540864	48	6819
2026-01-01 12:34:36.44	102.86	15.23	-38.9	-40.0	22.2	0.00e+00	0	37	0	855638016	48	7180
2026-01-01 12:34:37.45	103.07	15.19	-39.3	-40.4	21.7	0.00e+00	90	37	0	857735168	50	6733
2026-01-01 12:34:38.46	103.27	15.15	-39.7	-40.8	21.3	0.00e+00	0	37	0	859832320	50	7075
2026-01-01 12:34:39.46	103.47	15.11	-39.7	-40.9	21.4	0.00e+00	0	37	0	861929472	50	7132
2026-01-01 12:34:40.47	103.67	15.07	-39.6	-40.7	21.5	0.00e+00	0	37	0	862978048	52	6236
2026-01-01 12:34:41.48	103.86	15.03	-39.4	-40.5	21.5	0.00e+00	0	37	0	865075200	52	6098
2026-01-01 12:34:42.49	104.06	14.99	-39.1	-40.2	22.0	0.00e+00	34	37	0	867172352	52	5867
2026-01-01 12:34:43.50	104.26	14.95	-38.9	-40.0	22.1	0.00e+00	0	37	0	869269504	52	5747
2026-01-01 12:34:44.51	104.46	14.90	-38.7	-39.8	22.4	0.00e+00	92	37	0	871366656	50	6266
2026-01-01 12:34:45.52	104.66	14.86	-38.5	-39.5	22.6	0.00e+00	0	37	0	872415232	50	6101
2026-01-01 12:34:46.53	104.85	14.82	-38.4	-39.4	22.7	0.00e+00	92	37	0	874512384	50	6022
2026-01-01 12:34:47.54	105.05	14.78	-38.8	-39.8	22.4	0.00e+00	0	37	0	876609536	50	6296
2026-01-01 12:34:48.54	105.24	14.74	-38.6	-39.6	22.5	0.00e+00	0	37	0	878706688	50	6171
2026-01-01 12:34:49.55	105.44	14.69	-38.6	-39.7	22.5	0.00e+00	7	37	0	880803840	50	6187
2026-01-01 12:34:50.56	105.63	14.65	-38.8	-39.8	22.3	0.00e+00	0	37	0	881852416	50	6300
2026-01-01 12:34:51.57	105.83	14.61	-38.9	-40.0	22.3	0.00e+00	31	37	0	883949568	50	6432
2026-01-01 12:34:52.58	106.02	14.57	-38.9	-39.9	21.9	0.00e+00	0	37	0	886046720	50	6379
2026-01-01 12:34:53.59	106.21	14.52	-39.0	-40.2	22.0	0.00e+00	92	37	0	888143872	50	6563
2026-01-01 12:34:54.60	106.41	14.48	-39.2	-40.4	21.8	0.00e+00	0	37	0	890241024	50	6742
2026-01-01 12:34:55.61	106.60	14.43	-39.4	-40.6	21.6	0.00e+00	0	37	0	891289600	50	6866
2026-01-01 12:34:56.62	106.79	14.39	-39.6	-40.9	21.3	0.00e+00	30	37	0	893386752	50	7093
2026-01-01 12:34:57.63	106.98	14.35	-39.9	-41.2	21.0	0.00e+00	0	37	0	895483904	52	6588
2026-01-01 12:34:58.64	107.17	14.30	-40.3	-41.7	20.7	0.00e+00	27	37	0	897581056	52	6957
2026-01-01 12:34:59.65	107.36	14.26	-40.5	-41.9	20.6	0.00e+00	0	37	0	899678208	52	7142
2026-01-01 12:35:00.66	107.55	14.21	-40.4	-41.8	20.7	0.00e+00	64	37	0	900726784	52	7011
2026-01-01 12:35:01.68	107.74	14.17	-40.3	-41.6	20.8	0.00e+00	0	37	0	902823936	52	6887
2026-01-01 12:35:02.68	107.92	14.12	-40.3	-41.5	20.9	0.00e+00	0	37	0	904921088	52	6833
2026-01-01 12:35:03.69	108.11	14.08	-40.2	-41.5	20.9	0.00e+00	0	37	0	907018240	52	6775
2026-01-01 12:35:04.70	108.30	14.03	-40.0	-41.3	21.0	0.00e+00	0	37	0	909115392	52	6619
2026-01-01 12:35:05.71	108.49	13.98	-39.8	-41.0	21.4	0.00e+00	62	37	0	911212544	52	6433
2026-01-01 12:35:06.98	108.72	13.93	-39.7	-40.9	21.5	0.00e+00	0	37	0	912261120	52	6325
2026-01-01 12:35:07.70	108.85	13.89	-39.8	-41.0	21.4	0.00e+00	33	37	0	914358272	52	6392
2026-01-01 12:35:09.00	109.09	13.83	-39.7	-40.9	21.5	0.00e+00	0	37	0	916455424	52	6329
2026-01-01 12:35:09.72	109.22	13.80	-39.6	-40.8	21.6	0.00e+00	78	37	0	917504000	52	6256
2026-01-01 12:35:11.02	109.46	13.74	-39.5	-40.6	21.7	0.00e+00	0	37	0	920649728	52	6151
2026-01-01 12:35:11.74	109.59	13.71	-39.3	-40.4	21.8	0.00e+00	69	37	0	921698304	52	5998
2026-01-01 12:35:13.04	109.82	13.65	-39.2	-40.3	22.0	0.00e+00	37	37	0	923795456	52	5936
2026-01-01 12:35:13.76	109.95	13.61	-39.2	-40.2	22.0	0.00e+00	0	37	0	924844032	52	5881
2026-01-01 12:35:15.06	110.18	13.55	-39.6	-40.7	21.5	0.00e+00	83	37	0	927989760	52	6198
2026-01-01 12:35:15.78	110.31	13.52	-39.7	-40.9	21.4	0.00e+00	0	37	0	929038336	52	6347
2026-01-01 12:35:17.08	110.54	13.46	-40.1	-41.3	21.0	0.00e+00	0	37	0	931135488	52	6660
2026-01-01 12:35:17.80	110.67	13.42	-39.9	-41.0	21.2	0.00e+00	0	37	0	933232640	52	6447
2026-01-01 12:35:19.10	110.90	13.36	-40.0	-41.1	21.2	0.00e+00	0	37	0	935329792	52	6535
2026-01-01 12:35:19.82	111.03	13.32	-39.8	-41.0	21.3	0.00e+00	0	37	0	936378368	52	6408
2026-01-01 12:35:21.12	111.26	13.26	-39.6	-40.8	21.3	0.00e+00	0	37	0	939524096	52	6249
2026-01-01 12:35:21.83	111.38	13.23	-39.7	-40.9	21.3	0.00e+00	0	37	0	940572672	52	6343
2026-01-01 12:35:23.13	111.61	13.16	-39.7	-40.9	21.2	0.00e+00	0	37	0	942669824	52	6390
2026-01-01 12:35:23.85	111.74	13.13	-40.0	-41.3	20.9	0.00e+00	90	37	0	944766976	52	6640
2026-01-01 12:35:25.15	111.96	13.07	-39.8	-41.0	21.2	0.00e+00	0	37	0	946864128	52	6421
2026-01-01 12:35:25.87	112.09	13.03	-39.8	-41.0	21.3	0.00e+00	90	37	0	947912704	52	6428
2026-01-01 12:35:27.17	112.31	12.97	-39.7	-40.8	21.3	0.00e+00	36	37	0	950009856	52	6311
2026-01-01 12:35:27.89	112.43	12.93	-39.8	-40.9	21.3	0.00e+00	0	37	0	952107008	52	6375
2026-01-01 12:35:29.19	112.66	12.87	-39.4	-40.5	21.6	0.00e+00	43	37	0	954204160	52	6041
2026-01-01 12:35:29.91	112.78	12.83	-39.4	-40.5	21.6	0.00e+00	0	37	0	955252736	52	6073
2026-01-01 12:35:31.21	113.00	12.77	-39.2	-40.3	21.8	0.00e+00	90	37	0	958398464	52	5955
2026-01-01 12:35:31.93	113.12	12.73	-39.4	-40.5	21.7	0.00e+00	0	37	0	959447040	52	6064
2026-01-01 12:35:33.22	113.34	12.67	-39.4	-40.6	21.6	0.00e+00	0	37	0	961544192	52	6157
2026-01-01 12:35:33.95	113.47	12.63	-39.6	-40.8	21.4	0.00e+00	0	37	0	963641344	52	6289
2026-01-01 12:35:35.25	113.69	12.57	-39.7	-40.9	21.3	0.00e+00	0	37	0	965738496	52	6355
2026-01-01 12:35:35.97	113.81	12.53	-39.8	-41.0	21.2	0.00e+00	0	37	0	966787072	52	6442
2026-01-01 12:35:37.26	114.02	12.47	-39.7	-40.9	21.4	0.00e+00	0	37	0	968884224	52	6340
2026-01-01 12:35:37.98	114.14	12.43	-39.4	-40.6	21.5	0.00e+00	47	37	0	970981376	52	6110
2026-01-01 12:35:39.28	114.36	12.37	-39.3	-40.5	21.7	0.00e+00	0	37	0	973078528	52	6042
2026-01-01 12:35:40.00	114.48	12.33	-39.2	-40.4	21.8	0.00e+00	92	37	0	974127104	52	5982
2026-01-01 12:35:41.30	114.69	12.26	-39.0	-40.1	21.9	0.00e+00	0	37	0	977272832	52	5791
2026-01-01 12:35:42.02	114.81	12.23	-38.8	-39.9	22.1	0.00e+00	0	37	0	978321408	52	5649
2026-01-01 12:35:43.32	115.02	12.16	-38.6	-39.6	22.2	0.00e+00	3	37	0	980418560	50	6156
2026-01-01 12:35:44.04	115.14	12.12	-38.6	-39.7	22.3	0.00e+00	0	37	0	982515712	50	6188
2026-01-01 12:35:45.34	115.35	12.06	-38.7	-39.8	22.3	0.00e+00	55	37	0	984612864	50	6255
2026-01-01 12:35:46.06	115.47	12.02	-38.7	-39.7	22.2	0.00e+00	0	37	0	985661440	50	6219
2026-01-01 12:35:47.36	115.68	11.95	-38.8	-39.9	22.1	0.00e+00	0	37	0	988807168	50	6327
2026-01-01 12:35:48.08	115.79	11.92	-38.8	-39.9	22.0	0.00e+00	0	37	0	989855744	50	6366
2026-01-01 12:35:49.37	116.00	11.85	-39.0	-40.2	21.9	0.00e+00	0	37	0	991952896	50	6575
2026-01-01 12:35:50.10	116.12	11.81	-38.8	-39.9	22.0	0.00e+00	0	37	0	993001472	50	6383
2026-01-01 12:35:51.39	116.32	11.75	-38.7	-39.8	22.2	0.00e+00	0	37	0	996147200	50	6271
2026-01-01 12:35:52.12	116.44	11.71	-38.7	-39.8	22.1	0.00e+00	36	37	0	997195776	50	6279
2026-01-01 12:35:53.41	116.64	11.64	-38.7	-39.7	22.3	0.00e+00	0	37	0	999292928	50	6239
2026-01-01 12:35:54.13	116.76	11.60	-38.7	-39.7	22.2	0.00e+00	92	37	0	1001390080	50	6221
2026-01-01 12:35:55.43	116.96	11.54	-38.8	-39.9	22.1	0.00e+00	13	37	0	1003487232	50	6376
2026-01-01 12:35:56.15	117.07	11.50	-38.8	-39.8	22.2	0.00e+00	92	37	0	1004535808	50	6296
2026-01-01 12:35:57.45	117.28	11.43	-39.0	-40.0	22.0	0.00e+00	37	37	0	1007681536	50	6453
2026-01-01 12:35:58.17	117.39	11.39	-39.1	-40.1	21.9	0.00e+00	33	37	0	1008730112	50	6524
2026-01-01 12:35:59.47	117.59	11.33	-38.8	-39.9	22.0	0.00e+00	92	37	0	1010827264	50	6352
2026-01-01 12:36:00.19	117.70	11.29	-38.9	-40.0	22.1	0.00e+00	0	37	0	1011875840	50	6399
2026-01-01 12:36:01.49	117.90	11.22	-39.1	-40.2	22.0	0.00e+00	90	37	0	1015021568	50	6559
2026-01-01 12:36:02.21	118.01	11.18	-38.6	-39.6	22.2	0.00e+00	0	37	0	1016070144	50	6171
2026-01-01 12:36:03.50	118.21	11.11	-38.2	-39.2	22.6	0.00e+00	0	37	0	1018167296	50	5843
2026-01-01 12:36:04.23	118.32	11.08	-38.0	-39.0	22.8	0.00e+00	0	37	0	1020264448	50	5740
2026-01-01 12:36:05.52	118.52	11.01	-38.1	-39.1	22.8	0.00e+00	0	37	0	1022361600	50	5797
2026-01-01 12:36:06.24	118.63	10.97	-38.2	-39.2	22.7	0.00e+00	0	37	0	1023410176	50	5872
2026-01-01 12:36:07.54	118.82	10.90	-38.5	-39.5	22.3	0.00e+00	0	37	0	1026555904	50	6070
2026-01-01 12:36:08.27	118.93	10.86	-38.6	-39.6	22.3	0.00e+00	53	37	0	1027604480	50	6123
2026-01-01 12:36:09.56	119.12	10.79	-38.3	-39.3	22.6	0.00e+00	0	37	0	1029701632	50	5903
2026-01-01 12:36:10.29	119.23	10.76	-38.5	-39.5	22.4	0.00e+00	25	37	0	1030750208	50	6068
2026-01-01 12:36:11.58	119.43	10.69	-38.5	-39.5	22.4	0.00e+00	0	37	0	1033895936	50	6092
2026-01-01 12:36:12.30	119.53	10.65	-38.5	-39.5	22.4	0.00e+00	0	37	0	1034944512	50	6072
2026-01-01 12:36:13.60	119.72	10.58	-38.6	-39.7	22.3	0.00e+00	36	37	0	1037041664	50	6186
2026-01-01 12:36:14.32	119.83	10.54	-38.5	-39.6	22.4	0.00e+00	0	37	0	1039138816	50	6111
2026-01-01 12:36:15.62	120.02	10.47	-38.5	-39.5	22.4	0.00e+00	77	37	0	1041235968	50	6056
2026-01-01 12:36:16.34	120.13	10.43	-38.4	-39.4	22.4	0.00e+00	0	37	0	1042284544	50	6028
2026-01-01 12:36:17.64	120.31	10.36	-38.5	-39.6	22.3	0.00e+00	0	37	0	1045430272	50	6117
2026-01-01 12:36:18.36	120.42	10.33	-38.8	-39.8	22.1	0.00e+00	0	37	0	1046478848	50	6306
2026-01-01 12:36:19.66	120.61	10.26	-38.9	-40.0	22.0	0.00e+00	0	37	0	1048576000	50	6443
2026-01-01 12:36:20.38	120.71	10.22	-39.1	-40.1	21.8	0.00e+00	0	37	0	1050673152	50	6533
2026-01-01 12:36:21.68	120.90	10.15	-39.1	-40.2	21.8	0.00e+00	0	37	0	1052770304	50	6566
2026-01-01 12:36:22.39	121.00	10.11	-39.1	-40.1	21.8	0.00e+00	33	37	0	1053818880	50	6538
2026-01-01 12:36:23.69	121.18	10.04	-39.2	-40.3	21.5	0.00e+00	0	37	0	1055916032	50	6648
2026-01-01 12:36:24.41	121.29	10.00	-39.1	-40.2	21.8	0.00e+00	90	37	0	1058013184	50	6593
2026-01-01 12:36:25.71	121.47	9.93	-39.0	-40.1	21.8	0.00e+00	0	37	0	1060110336	50	6477
2026-01-01 12:36:26.44	121.57	9.89	-38.9	-40.0	22.0	0.00e+00	61	37	0	1061158912	50	6432
2026-01-01 12:36:27.73	121.75	9.82	-38.8	-39.8	22.2	0.00e+00	29	37	0	1064304640	50	6284
2026-01-01 12:36:28.45	121.86	9.78	-38.8	-39.9	22.1	0.00e+00	0	37	0	1065353216	50	6326
2026-01-01 12:36:29.75	122.04	9.71	-38.6	-39.6	22.2	0.00e+00	92	37	0	1067450368	50	6141
2026-01-01 12:36:30.47	122.14	9.68	-38.5	-39.5	22.3	0.00e+00	0	37	0	1069547520	50	6053
2026-01-01 12:36:31.77	122.32	9.61	-38.8	-39.8	22.1	0.00e+00	26	37	0	1071644672	50	6279
2026-01-01 12:36:32.49	122.42	9.57	-38.8	-39.8	22.1	0.00e+00	0	37	0	1072693248	50	6292
2026-01-01 12:36:33.79	122.59	9.50	-39.3	-40.3	21.7	0.00e+00	0	37	0	1075838976	50	6691
2026-01-01 12:36:34.51	122.69	9.46	-39.4	-40.5	21.5	0.00e+00	0	37	0	1076887552	50	6784
2026-01-01 12:36:35.81	122.87	9.39	-39.5	-40.7	21.3	0.00e+00	0	37	0	1078984704	50	6959
2026-01-01 12:36:36.53	122.97	9.35	-39.8	-41.0	21.1	0.00e+00	0	37	0	1080033280	50	7171
2026-01-01 12:36:37.82	123.14	9.28	-39.8	-41.0	21.1	0.00e+00	0	37	0	1083179008	52	6392
2026-01-01 12:36:38.55	123.24	9.24	-39.9	-41.1	21.0	0.00e+00	92	37	0	1084227584	52	6487
2026-01-01 12:36:39.84	123.42	9.17	-39.9	-41.1	21.2	0.00e+00	0	37	0	1086324736	52	6499
2026-01-01 12:36:40.56	123.51	9.13	-39.7	-40.9	21.0	0.00e+00	92	37	0	1088421888	52	6376
2026-01-01 12:36:41.86	123.69	9.06	-39.6	-40.7	21.2	0.00e+00	0	37	0	1090519040	52	6227
2026-01-01 12:36:42.58	123.78	9.02	-39.4	-40.5	21.5	0.00e+00	0	37	0	1091567616	52	6071
2026-01-01 12:36:43.88	123.95	8.95	-39.5	-40.6	21.4	0.00e+00	29	37	0	1094713344	52	6125
2026-01-01 12:36:44.60	124.05	8.91	-39.6	-40.8	21.3	0.00e+00	0	37	0	1095761920	52	6262
2026-01-01 12:36:45.90	124.22	8.84	-39.6	-40.7	21.2	0.00e+00	90	37	0	1097859072	52	6241
2026-01-01 12:36:46.62	124.31	8.80	-39.7	-40.9	21.1	0.00e+00	0	37	0	1098907648	52	6353
2026-01-01 12:36:47.92	124.48	8.73	-39.8	-40.9	21.0	0.00e+00	0	37	0	1102053376	52	6377
2026-01-01 12:36:48.64	124.58	8.69	-40.0	-41.2	20.8	0.00e+00	0	37	0	1103101952	52	6578
2026-01-01 12:36:49.93	124.75	8.62	-40.0	-41.3	20.7	0.00e+00	0	37	0	1105199104	52	6641
2026-01-01 12:36:50.66	124.84	8.58	-40.0	-41.3	20.7	0.00e+00	0	37	0	1107296256	52	6633
2026-01-01 12:36:51.95	125.01	8.51	-40.1	-41.4	20.6	0.00e+00	0	37	0	1109393408	52	6724
2026-01-01 12:36:52.67	125.10	8.47	-40.0	-41.2	20.8	0.00e+00	29	37	0	1110441984	52	6611
2026-01-01 12:36:53.97	125.26	8.40	-40.0	-41.2	20.9	0.00e+00	0	37	0	1113587712	52	6574
2026-01-01 12:36:54.69	125.36	8.37	-40.2	-41.4	20.6	0.00e+00	92	37	0	1114636288	52	6762
2026-01-01 12:36:55.98	125.52	8.30	-40.0	-41.3	20.6	0.00e+00	0	37	0	1116733440	52	6630
2026-01-01 12:36:56.70	125.61	8.26	-40.2	-41.5	20.5	0.00e+00	0	37	0	1118830592	52	6809
2026-01-01 12:36:58.00	125.77	8.19	-40.4	-41.7	20.4	0.00e+00	33	37	0	1120927744	52	6987
2026-01-01 12:36:58.72	125.87	8.15	-40.2	-41.5	20.6	0.00e+00	0	37	0	1121976320	52	6819
2026-01-01 12:37:00.02	126.03	8.08	-40.4	-41.7	20.4	0.00e+00	74	37	0	1124073472	52	6956
2026-01-01 12:37:00.74	126.12	8.04	-40.4	-41.7	20.3	0.00e+00	0	37	0	1126170624	52	6982
2026-01-01 12:37:02.03	126.28	7.97	-40.6	-42.0	20.1	0.00e+00	2	37	0	1128267776	52	7173
2026-01-01 12:37:02.75	126.37	7.93	-40.5	-41.9	20.2	0.00e+00	0	37	0	1129316352	52	7124
2026-01-01 12:37:04.05	126.53	7.86	-40.5	-41.8	20.2	0.00e+00	0	37	0	1132462080	52	7074
2026-01-01 12:37:04.77	126.62	7.82	-40.2	-41.5	20.6	0.00e+00	0	37	0	1133510656	52	6818
2026-01-01 12:37:06.07	126.78	7.75	-40.0	-41.2	20.8	0.00e+00	0	37	0	1135607808	52	6585
2026-01-01 12:37:06.79	126.86	7.71	-40.0	-41.2	20.8	0.00e+00	0	37	0	1137704960	52	6572
2026-01-01 12:37:08.08	127.02	7.64	-39.8	-41.0	21.0	0.00e+00	0	37	0	1139802112	52	6418
2026-01-01 12:37:08.80	127.11	7.60	-39.5	-40.7	21.1	0.00e+00	92	37	0	1140850688	52	6205
2026-01-01 12:37:10.10	127.26	7.53	-39.7	-40.8	21.0	0.00e+00	0	37	0	1143996416	52	6312
2026-01-01 12:37:10.83	127.35	7.49	-39.6	-40.8	21.1	0.00e+00	90	37	0	1145044992	52	6260
2026-01-01 12:37:12.12	127.51	7.42	-39.7	-40.9	20.9	0.00e+00	0	37	0	1147142144	52	6323
2026-01-01 12:37:12.84	127.59	7.38	-39.8	-41.0	20.9	0.00e+00	0	37	0	1148190720	52	6396
2026-01-01 12:37:14.14	127.75	7.31	-40.1	-41.3	20.6	0.00e+00	90	37	0	1151336448	52	6683
2026-01-01 12:37:14.86	127.83	7.27	-40.3	-41.6	20.4	0.00e+00	0	37	0	1152385024	52	6864
2026-01-01 12:37:16.16	127.99	7.20	-40.6	-41.9	20.1	0.00e+00	92	37	0	1154482176	52	7129
2026-01-01 12:37:16.88	128.07	7.16	-40.6	-41.9	19.9	0.00e+00	0	37	0	1156579328	52	7145
2026-01-01 12:37:18.18	128.22	7.09	-40.7	-42.1	19.7	0.00e+00	0	37	0	1158676480	52	7284
2026-01-01 12:37:18.89	128.31	7.05	-40.6	-42.0	19.8	0.00e+00	0	37	0	1159725056	54	6457
2026-01-01 12:37:20.19	128.46	6.98	-40.4	-41.7	20.2	0.00e+00	0	37	0	1162870784	54	6240
2026-01-01 12:37:20.91	128.54	6.94	-40.4	-41.7	20.2	0.00e+00	0	37	0	1163919360	54	6240
2026-01-01 12:37:22.21	128.69	6.87	-40.0	-41.3	20.6	0.00e+00	0	37	0	1166016512	54	5918
2026-01-01 12:37:22.93	128.77	6.83	-40.0	-41.2	20.7	0.00e+00	72	37	0	1167065088	54	5895
2026-01-01 12:37:24.23	128.92	6.76	-39.8	-41.0	20.7	0.00e+00	0	37	0	1170210816	54	5734
2026-01-01 12:37:24.95	129.01	6.73	-39.8	-41.0	20.7	0.00e+00	67	37	0	1171259392	54	5761
2026-01-01 12:37:26.25	129.15	6.66	-39.8	-41.0	20.6	0.00e+00	0	38	0	1173356544	52	6395
2026-01-01 12:37:26.97	129.24	6.62	-39.8	-41.0	20.6	0.00e+00	0	37	0	1175453696	52	6393
2026-01-01 12:37:28.27	129.38	6.55	-39.9	-41.2	20.7	0.00e+00	0	37	0	1177550848	52	6546
2026-01-01 12:37:28.99	129.46	6.51	-40.1	-41.3	20.6	0.00e+00	0	37	0	1178599424	52	6661
2026-01-01 12:37:30.29	129.61	6.44	-40.2	-41.5	20.5	0.00e+00	66	37	0	1181745152	52	6788
2026-01-01 12:37:31.01	129.69	6.40	-40.2	-41.5	20.4	0.00e+00	0	37	0	1182793728	52	6779
2026-01-01 12:37:32.31	129.84	6.33	-40.5	-41.9	20.0	0.00e+00	0	37	0	1184890880	52	7100
2026-01-01 12:37:33.03	129.92	6.29	-40.6	-42.0	19.9	0.00e+00	0	37	0	1185939456	52	7202
2026-01-01 12:37:34.33	130.06	6.22	-40.7	-42.1	19.8	0.00e+00	0	37	0	1189085184	54	6524
2026-01-01 12:37:35.05	130.14	6.18	-41.0	-42.4	19.6	0.00e+00	0	37	0	1190133760	54	6764
2026-01-01 12:37:36.35	130.28	6.11	-40.9	-42.3	19.6	0.00e+00	0	37	0	1192230912	54	6667
2026-01-01 12:37:37.07	130.36	6.07	-40.8	-42.3	19.6	0.00e+00	0	37	0	1194328064	54	6637
2026-01-01 12:37:38.37	130.50	6.00	-40.8	-42.2	19.7	0.00e+00	0	37	0	1196425216	54	6594
2026-01-01 12:37:39.09	130.58	5.96	-40.8	-42.3	19.6	0.00e+00	68	37	0	1197473792	54	6619
2026-01-01 12:37:40.38	130.72	5.90	-40.9	-42.3	19.7	0.00e+00	0	37	0	1200619520	54	6625
2026-01-01 12:37:41.10	130.80	5.86	-40.6	-42.0	19.9	0.00e+00	90	37	0	1201668096	54	6418
2026-01-01 12:37:42.40	130.94	5.79	-41.0	-42.5	19.5	0.00e+00	34	37	0	1203765248	54	6816
2026-01-01 12:37:43.12	131.02	5.75	-41.3	-42.8	19.2	0.00e+00	0	37	0	1205862400	54	7085
2026-01-01 12:37:44.41	131.15	5.68	-41.4	-43.0	18.9	0.00e+00	31	37	0	1207959552	54	7187
2026-01-01 12:37:45.13	131.23	5.64	-41.4	-43.0	18.8	0.00e+00	0	37	0	1209008128	54	7231
2026-01-01 12:37:46.43	131.37	5.57	-41.8	-43.5	18.4	0.00e+00	83	37	0	1211105280	54	7613
2026-01-01 12:37:47.16	131.44	5.53	-42.0	-43.8	18.2	0.00e+00	0	38	0	1213202432	56	7014
