passes_logs/2026/01/01/R4.6S_Anadyr/R4.6S_Anadyr__20260101_192638_NOAA_20_JPSS-1_rec.log

#Pass ID: 20260101_192638_NOAA 20 (JPSS-1)
#Satellite: NOAA 20 (JPSS-1)
#Configuration: NOAA 20
#almurnet v.1.7.20251203
#Start time: 2026-01-01 19:26:39

#Version: 2.2.20231116
#Station: R4.6S_Anadyr
#Location: 177.4865 lon 64.73178 lat
#TLE: 1 43013U 17073A   25364.89373485  .00000164  00000+0  98659-4 0  9997
#TLE: 2 43013  98.7619 300.9939 0001957  61.1511 298.9862 14.19531413420599

#Time	Az	El	Level	Level2	SNR	BER	BlckErr	Temp	State	Recorded	gain1	gain2
2026-01-01 19:26:39.55	53.39	0.04	-49.4	-64.3	3.5	1.51e+00	0	37	0	0	60	59346
2026-01-01 19:26:40.55	53.31	0.09	-49.4	-64.6	3.6	1.51e+00	0	38	104	0	60	61606
2026-01-01 19:26:41.56	53.23	0.14	-49.4	-64.7	3.6	1.51e+00	0	38	104	0	60	61819
2026-01-01 19:26:42.57	53.16	0.19	-49.5	-64.7	3.6	1.51e+00	0	38	104	0	60	61861
2026-01-01 19:26:43.59	53.08	0.24	-49.4	-64.7	3.5	1.51e+00	0	38	104	0	60	61924
2026-01-01 19:26:44.60	53.00	0.29	-49.5	-64.7	3.6	1.51e+00	0	38	104	0	60	62432
2026-01-01 19:26:45.61	52.93	0.33	-49.5	-64.7	3.6	1.51e+00	0	38	104	0	60	62225
2026-01-01 19:26:46.62	52.85	0.38	-49.5	-64.7	3.6	1.51e+00	0	38	104	0	60	62393
2026-01-01 19:26:47.63	52.77	0.43	-49.5	-64.7	3.6	1.51e+00	0	38	104	0	60	62191
2026-01-01 19:26:48.64	52.69	0.48	-49.4	-64.6	3.6	1.51e+00	0	38	104	0	60	61657
2026-01-01 19:26:49.65	52.61	0.53	-49.4	-64.6	3.6	1.51e+00	0	38	104	0	60	61560
2026-01-01 19:26:50.65	52.53	0.58	-49.4	-64.6	3.6	1.51e+00	0	38	104	0	60	61271
2026-01-01 19:26:51.66	52.46	0.63	-49.3	-64.5	3.6	1.51e+00	0	38	104	0	60	60930
2026-01-01 19:26:52.67	52.38	0.68	-49.1	-64.4	3.6	1.51e+00	0	38	104	0	60	60217
2026-01-01 19:26:53.68	52.30	0.73	-49.0	-64.3	3.6	1.51e+00	0	38	104	0	60	59215
2026-01-01 19:26:54.69	52.22	0.78	-48.9	-64.0	3.6	1.51e+00	0	38	104	0	60	57543
2026-01-01 19:26:55.70	52.14	0.83	-48.5	-63.7	3.6	1.51e+00	0	38	104	0	60	55277
2026-01-01 19:26:56.71	52.06	0.88	-47.9	-63.1	3.6	1.51e+00	0	38	104	0	60	51607
2026-01-01 19:26:57.72	51.97	0.92	-47.9	-63.1	3.6	1.51e+00	0	38	104	0	60	51406
2026-01-01 19:26:58.73	51.89	0.97	-47.9	-63.1	3.6	1.51e+00	0	38	104	0	60	51358
2026-01-01 19:26:59.74	51.81	1.02	-47.9	-63.0	3.6	1.51e+00	0	38	104	0	60	51216
2026-01-01 19:27:00.75	51.73	1.07	-47.9	-63.0	3.6	1.51e+00	0	38	104	0	60	51153
2026-01-01 19:27:01.76	51.65	1.12	-47.8	-63.0	3.6	1.51e+00	0	38	104	0	60	51053
2026-01-01 19:27:02.77	51.57	1.17	-47.9	-63.0	3.6	1.51e+00	0	38	104	0	60	51076
2026-01-01 19:27:03.78	51.48	1.22	-47.8	-63.0	3.6	1.51e+00	0	38	104	0	60	51009
2026-01-01 19:27:04.79	51.40	1.27	-47.8	-63.0	3.5	1.51e+00	0	38	104	0	60	51219
2026-01-01 19:27:05.80	51.32	1.32	-47.8	-63.0	3.6	1.51e+00	0	38	104	0	60	51065
2026-01-01 19:27:06.82	51.23	1.37	-47.8	-63.0	3.6	1.51e+00	0	39	104	0	60	51085
2026-01-01 19:27:07.83	51.15	1.42	-47.8	-63.0	3.6	1.51e+00	0	39	104	0	60	51005
2026-01-01 19:27:08.84	51.07	1.47	-47.8	-63.0	3.6	1.51e+00	0	39	104	0	60	51176
2026-01-01 19:27:09.85	50.98	1.52	-47.8	-63.0	3.6	1.51e+00	0	39	104	0	60	51098
2026-01-01 19:27:10.86	50.90	1.57	-47.8	-63.0	3.6	1.51e+00	0	39	104	0	60	51239
2026-01-01 19:27:11.87	50.81	1.62	-47.8	-63.0	3.6	1.51e+00	0	39	104	0	60	50894
2026-01-01 19:27:12.88	50.73	1.67	-47.8	-63.0	3.5	1.51e+00	0	39	104	0	60	50841
2026-01-01 19:27:13.89	50.64	1.72	-47.8	-62.9	3.6	1.51e+00	0	39	104	0	60	50762
2026-01-01 19:27:14.90	50.56	1.77	-47.8	-63.0	3.6	1.51e+00	0	39	104	0	60	50783
2026-01-01 19:27:15.91	50.47	1.82	-47.8	-63.0	3.6	1.51e+00	0	38	104	0	60	51063
2026-01-01 19:27:16.92	50.38	1.87	-47.8	-63.0	3.6	1.51e+00	0	39	104	0	60	50864
2026-01-01 19:27:17.93	50.30	1.92	-47.8	-63.0	3.6	1.51e+00	0	38	104	0	60	51056
2026-01-01 19:27:18.94	50.21	1.97	-47.8	-62.9	3.6	1.51e+00	0	39	104	0	60	50656
2026-01-01 19:27:19.95	50.12	2.02	-47.8	-62.9	3.6	1.51e+00	0	39	104	0	60	50469
2026-01-01 19:27:20.96	50.04	2.07	-47.8	-62.7	3.6	1.51e+00	0	39	104	0	60	49288
2026-01-01 19:27:21.97	49.95	2.12	-47.8	-62.6	3.6	1.51e+00	0	39	104	0	60	48800
2026-01-01 19:27:22.98	49.86	2.17	-47.8	-62.4	3.6	1.51e+00	0	39	104	0	60	47729
2026-01-01 19:27:23.99	49.77	2.22	-47.8	-62.6	3.6	1.51e+00	0	39	104	0	60	48811
2026-01-01 19:27:25.00	49.68	2.27	-47.8	-62.7	3.6	1.51e+00	0	39	104	0	60	49605
2026-01-01 19:27:26.01	49.59	2.32	-47.8	-62.9	3.6	1.51e+00	0	39	104	0	60	50697
2026-01-01 19:27:27.02	49.50	2.37	-47.8	-63.0	3.6	1.51e+00	0	39	104	0	60	51330
2026-01-01 19:27:28.03	49.41	2.42	-47.8	-63.0	3.6	1.51e+00	0	39	104	0	60	50842
2026-01-01 19:27:29.04	49.32	2.47	-47.8	-62.9	3.6	1.51e+00	0	39	104	0	60	50521
2026-01-01 19:27:30.05	49.23	2.52	-47.8	-62.9	3.6	1.51e+00	0	39	104	0	60	50686
2026-01-01 19:27:31.06	49.14	2.57	-47.8	-63.0	3.6	1.51e+00	0	39	104	0	60	50907
2026-01-01 19:27:32.07	49.05	2.62	-47.8	-62.8	3.6	1.51e+00	0	39	104	0	60	50031
2026-01-01 19:27:33.08	48.96	2.67	-47.8	-62.1	3.6	1.51e+00	0	39	104	0	60	46212
2026-01-01 19:27:34.09	48.87	2.72	-47.8	-61.7	3.6	1.51e+00	0	39	104	0	60	44175
2026-01-01 19:27:35.10	48.78	2.77	-47.8	-62.1	3.6	1.51e+00	0	39	104	0	60	45988
2026-01-01 19:27:36.11	48.69	2.82	-47.8	-62.5	3.6	1.51e+00	0	39	104	0	60	48206
2026-01-01 19:27:37.12	48.59	2.87	-47.8	-61.6	3.6	1.51e+00	0	39	104	0	60	43660
2026-01-01 19:27:38.13	48.50	2.92	-47.6	-58.5	4.5	1.48e+00	92	39	104	0	60	30294
2026-01-01 19:27:39.14	48.41	2.97	-47.2	-54.9	6.2	5.10e-01	0	39	0	1048576	60	20004
2026-01-01 19:27:40.15	48.31	3.02	-46.8	-53.0	8.1	7.00e-02	92	39	0	2097152	60	16215
2026-01-01 19:27:41.17	48.22	3.07	-47.4	-55.5	6.4	4.92e-01	71	39	0	4194304	60	21513
2026-01-01 19:27:42.18	48.12	3.13	-45.7	-49.6	13.1	3.22e-03	92	39	0	6291456	60	10881
2026-01-01 19:27:43.19	48.03	3.18	-47.7	-62.7	3.6	1.52e+00	0	39	104	7340032	60	49320
2026-01-01 19:27:44.20	47.93	3.23	-47.9	-62.6	3.6	1.51e+00	0	39	104	7340032	60	48603
2026-01-01 19:27:45.21	47.84	3.28	-46.2	-51.2	10.5	4.88e-01	92	39	104	7340032	60	13162
2026-01-01 19:27:46.22	47.74	3.33	-45.9	-50.4	11.4	1.13e-03	0	39	0	8388608	60	11922
2026-01-01 19:27:47.23	47.65	3.38	-46.2	-51.0	10.6	7.95e-04	92	39	0	10485760	60	12876
2026-01-01 19:27:48.23	47.55	3.43	-46.4	-51.7	9.8	1.85e-03	0	39	0	12582912	60	13893
2026-01-01 19:27:49.24	47.46	3.48	-46.2	-51.0	10.9	6.28e-03	92	39	0	13631488	60	12804
2026-01-01 19:27:50.25	47.36	3.53	-46.1	-50.6	11.0	2.36e-03	0	39	0	15728640	60	12236
2026-01-01 19:27:51.26	47.26	3.58	-45.9	-50.1	12.0	3.43e-03	2	39	0	17825792	60	11594
2026-01-01 19:27:52.27	47.16	3.63	-45.9	-50.2	11.5	1.19e-03	92	39	0	19922944	60	11686
2026-01-01 19:27:53.28	47.06	3.68	-46.2	-50.8	11.6	1.32e-03	2	39	0	22020096	60	12569
2026-01-01 19:27:54.29	46.97	3.73	-45.5	-49.3	12.6	9.81e-04	91	39	0	23068672	60	10528
2026-01-01 19:27:55.30	46.87	3.78	-45.9	-50.1	11.8	4.26e-04	0	39	0	25165824	60	11540
2026-01-01 19:27:56.31	46.77	3.83	-46.0	-50.3	11.7	6.03e-04	91	39	0	27262976	60	11771
2026-01-01 19:27:57.32	46.67	3.88	-45.5	-49.2	13.6	1.06e-05	82	39	0	29360128	60	10411
2026-01-01 19:27:58.33	46.57	3.94	-44.9	-47.9	14.2	1.60e-05	72	39	0	31457280	60	9001
2026-01-01 19:27:59.34	46.47	3.99	-44.6	-47.5	15.1	1.50e-06	47	39	0	32505856	60	8608
2026-01-01 19:28:00.35	46.37	4.04	-44.6	-47.4	15.0	0.00e+00	12	39	0	34603008	60	8475
2026-01-01 19:28:01.36	46.27	4.09	-44.2	-46.7	15.4	0.00e+00	92	39	0	36700160	60	7854
2026-01-01 19:28:02.37	46.17	4.14	-43.7	-45.9	16.4	0.00e+00	0	39	0	38797312	60	7167
2026-01-01 19:28:03.38	46.06	4.19	-43.1	-45.1	17.3	0.00e+00	92	39	0	40894464	60	6498
2026-01-01 19:28:04.39	45.96	4.24	-42.9	-44.8	17.6	0.00e+00	0	39	0	42991616	60	6303
2026-01-01 19:28:05.40	45.86	4.29	-42.9	-44.8	17.7	0.00e+00	92	39	0	44040192	60	6274
2026-01-01 19:28:06.41	45.76	4.34	-43.1	-45.1	17.3	0.00e+00	0	39	0	46137344	60	6513
2026-01-01 19:28:07.42	45.65	4.39	-42.9	-44.8	17.6	0.00e+00	7	39	0	48234496	60	6279
2026-01-01 19:28:08.43	45.55	4.44	-42.9	-44.8	17.7	0.00e+00	92	39	0	50331648	60	6261
2026-01-01 19:28:09.44	45.45	4.49	-42.8	-44.7	17.8	0.00e+00	0	39	0	52428800	60	6208
2026-01-01 19:28:10.45	45.34	4.55	-43.1	-45.0	17.5	0.00e+00	92	39	0	53477376	60	6452
2026-01-01 19:28:11.46	45.24	4.60	-42.8	-44.6	17.8	0.00e+00	6	39	0	55574528	60	6166
2026-01-01 19:28:12.46	45.13	4.65	-42.9	-44.8	17.7	0.00e+00	92	39	0	57671680	60	6261
2026-01-01 19:28:13.47	45.03	4.70	-43.2	-45.3	17.4	0.00e+00	0	39	0	59768832	60	6623
2026-01-01 19:28:14.48	44.92	4.75	-42.6	-44.3	18.0	0.00e+00	9	39	0	61865984	58	6692
2026-01-01 19:28:15.49	44.82	4.80	-42.5	-44.3	18.1	0.00e+00	91	39	0	62914560	58	6679
2026-01-01 19:28:16.50	44.71	4.85	-42.4	-44.2	18.2	0.00e+00	11	39	0	65011712	58	6565
2026-01-01 19:28:17.50	44.61	4.90	-42.4	-44.1	18.1	0.00e+00	92	39	0	67108864	58	6530
2026-01-01 19:28:18.52	44.50	4.95	-42.6	-44.5	17.8	0.00e+00	12	39	0	69206016	58	6772
2026-01-01 19:28:19.53	44.39	5.00	-42.5	-44.3	18.2	0.00e+00	91	39	0	71303168	58	6638
2026-01-01 19:28:20.54	44.28	5.05	-42.4	-44.2	18.1	0.00e+00	9	39	0	72351744	58	6572
2026-01-01 19:28:21.54	44.17	5.10	-42.4	-44.1	18.4	0.00e+00	92	39	0	74448896	58	6513
2026-01-01 19:28:22.55	44.07	5.16	-42.4	-44.2	18.3	0.00e+00	42	39	0	76546048	58	6557
2026-01-01 19:28:23.56	43.96	5.21	-42.4	-44.1	18.4	0.00e+00	0	39	0	78643200	58	6478
2026-01-01 19:28:24.57	43.85	5.26	-42.6	-44.3	18.1	0.00e+00	90	39	0	80740352	58	6686
2026-01-01 19:28:25.58	43.74	5.31	-42.3	-44.0	18.5	0.00e+00	0	39	0	81788928	58	6455
2026-01-01 19:28:26.59	43.63	5.36	-42.3	-44.0	18.5	0.00e+00	92	39	0	83886080	58	6457
2026-01-01 19:28:27.60	43.52	5.41	-42.2	-43.9	18.6	0.00e+00	80	39	0	85983232	58	6327
2026-01-01 19:28:28.61	43.40	5.46	-42.2	-43.9	18.7	0.00e+00	0	39	0	88080384	58	6366
2026-01-01 19:28:29.62	43.29	5.51	-42.3	-44.0	18.5	0.00e+00	92	39	0	90177536	58	6427
2026-01-01 19:28:30.63	43.18	5.56	-42.0	-43.6	18.9	0.00e+00	0	39	0	91226112	58	6166
2026-01-01 19:28:31.64	43.07	5.61	-42.1	-43.7	18.8	0.00e+00	90	39	0	93323264	58	6204
2026-01-01 19:28:32.65	42.96	5.66	-42.1	-43.7	18.9	0.00e+00	0	39	0	95420416	58	6233
2026-01-01 19:28:33.66	42.84	5.72	-42.0	-43.5	19.1	0.00e+00	27	39	0	97517568	56	6831
2026-01-01 19:28:34.67	42.73	5.77	-42.2	-43.8	18.8	0.00e+00	12	39	0	99614720	56	7027
2026-01-01 19:28:35.68	42.62	5.82	-42.0	-43.5	19.0	0.00e+00	13	39	0	100663296	56	6821
2026-01-01 19:28:36.69	42.50	5.87	-42.1	-43.7	18.8	0.00e+00	0	39	0	102760448	56	6997
2026-01-01 19:28:37.69	42.39	5.92	-42.0	-43.6	19.0	0.00e+00	13	39	0	104857600	56	6874
2026-01-01 19:28:38.70	42.27	5.97	-42.2	-43.8	18.7	0.00e+00	94	39	0	106954752	56	7080
2026-01-01 19:28:39.71	42.16	6.02	-42.1	-43.7	18.8	0.00e+00	7	39	0	109051904	56	6966
2026-01-01 19:28:40.72	42.04	6.07	-42.1	-43.6	19.0	0.00e+00	90	39	0	111149056	56	6920
2026-01-01 19:28:41.72	41.92	6.12	-42.2	-43.8	18.9	0.00e+00	69	38	0	112197632	56	7034
2026-01-01 19:28:42.73	41.81	6.17	-42.0	-43.6	19.1	0.00e+00	14	38	0	114294784	56	6913
2026-01-01 19:28:43.74	41.69	6.22	-42.0	-43.6	19.0	0.00e+00	68	39	0	116391936	56	6905
2026-01-01 19:28:44.75	41.57	6.27	-42.1	-43.7	19.0	0.00e+00	12	38	0	118489088	56	6947
2026-01-01 19:28:45.76	41.45	6.32	-42.1	-43.7	18.9	0.00e+00	51	38	0	119537664	56	7007
2026-01-01 19:28:46.77	41.34	6.38	-42.2	-43.9	18.8	0.00e+00	70	39	0	121634816	56	7104
2026-01-01 19:28:47.78	41.22	6.43	-42.2	-43.7	18.9	0.00e+00	92	38	0	123731968	56	7006
2026-01-01 19:28:48.79	41.10	6.48	-42.0	-43.6	19.2	0.00e+00	67	38	0	125829120	56	6864
2026-01-01 19:28:49.80	40.98	6.53	-41.9	-43.5	19.2	0.00e+00	0	39	0	127926272	56	6783
2026-01-01 19:28:50.81	40.86	6.58	-42.0	-43.5	19.2	0.00e+00	69	39	0	128974848	56	6806
2026-01-01 19:28:51.82	40.74	6.63	-42.0	-43.5	19.2	0.00e+00	0	39	0	131072000	56	6823
2026-01-01 19:28:52.83	40.62	6.68	-42.0	-43.5	19.1	0.00e+00	91	39	0	133169152	56	6845
2026-01-01 19:28:53.84	40.49	6.73	-41.9	-43.4	19.2	0.00e+00	0	38	0	135266304	56	6747
2026-01-01 19:28:54.85	40.37	6.78	-42.0	-43.5	19.2	0.00e+00	92	39	0	137363456	56	6833
2026-01-01 19:28:55.86	40.25	6.83	-42.0	-43.5	19.2	0.00e+00	0	39	0	139460608	56	6815
2026-01-01 19:28:56.87	40.13	6.88	-41.9	-43.4	19.4	0.00e+00	13	38	0	140509184	56	6720
2026-01-01 19:28:57.88	40.00	6.93	-41.9	-43.4	19.4	0.00e+00	12	38	0	142606336	56	6727
2026-01-01 19:28:58.89	39.88	6.98	-41.9	-43.4	19.3	0.00e+00	3	39	0	144703488	56	6715
2026-01-01 19:28:59.90	39.76	7.03	-41.9	-43.4	19.3	0.00e+00	0	38	0	146800640	56	6704
2026-01-01 19:29:00.90	39.63	7.08	-41.9	-43.4	19.4	0.00e+00	13	39	0	148897792	56	6715
2026-01-01 19:29:01.91	39.51	7.13	-41.7	-43.2	19.5	0.00e+00	90	38	0	149946368	56	6576
2026-01-01 19:29:02.92	39.38	7.18	-41.7	-43.2	19.6	0.00e+00	68	39	0	152043520	56	6575
2026-01-01 19:29:03.94	39.25	7.24	-41.6	-43.0	19.7	0.00e+00	90	39	0	154140672	56	6452
2026-01-01 19:29:04.94	39.13	7.29	-41.7	-43.2	19.6	0.00e+00	69	39	0	156237824	56	6550
2026-01-01 19:29:05.95	39.00	7.34	-41.8	-43.3	19.5	0.00e+00	69	39	0	158334976	56	6619
2026-01-01 19:29:06.96	38.88	7.39	-41.9	-43.4	19.3	0.00e+00	0	39	0	159383552	56	6763
2026-01-01 19:29:07.97	38.75	7.44	-41.9	-43.4	19.4	0.00e+00	0	39	0	161480704	56	6736
2026-01-01 19:29:08.99	38.62	7.49	-41.7	-43.1	19.6	0.00e+00	92	39	0	163577856	56	6527
2026-01-01 19:29:10.00	38.49	7.54	-41.8	-43.2	19.5	0.00e+00	68	39	0	165675008	56	6615
2026-01-01 19:29:11.01	38.36	7.59	-41.6	-43.0	19.8	0.00e+00	92	39	0	167772160	56	6458
2026-01-01 19:29:12.02	38.23	7.64	-41.7	-43.1	19.7	0.00e+00	2	39	0	168820736	56	6510
2026-01-01 19:29:13.03	38.10	7.69	-41.7	-43.2	19.6	0.00e+00	2	39	0	170917888	56	6559
2026-01-01 19:29:14.04	37.97	7.74	-41.6	-43.0	19.8	0.00e+00	0	39	0	173015040	56	6427
2026-01-01 19:29:15.05	37.84	7.79	-41.5	-42.9	19.9	0.00e+00	0	39	0	175112192	56	6376
2026-01-01 19:29:16.06	37.71	7.84	-41.5	-42.9	19.9	0.00e+00	0	38	0	177209344	56	6347
2026-01-01 19:29:17.07	37.58	7.89	-41.4	-42.8	20.0	0.00e+00	13	39	0	179306496	56	6263
2026-01-01 19:29:18.08	37.44	7.94	-41.4	-42.8	20.0	0.00e+00	92	39	0	180355072	56	6300
2026-01-01 19:29:19.09	37.31	7.99	-41.4	-42.8	20.0	0.00e+00	0	39	0	182452224	56	6283
2026-01-01 19:29:20.10	37.18	8.04	-41.4	-42.8	20.0	0.00e+00	91	39	0	184549376	56	6257
2026-01-01 19:29:21.11	37.04	8.09	-41.4	-42.7	20.1	0.00e+00	0	39	0	186646528	56	6221
2026-01-01 19:29:22.12	36.91	8.13	-41.3	-42.7	20.1	0.00e+00	0	39	0	188743680	56	6213
2026-01-01 19:29:23.13	36.78	8.18	-41.2	-42.6	20.2	0.00e+00	0	39	0	189792256	56	6122
2026-01-01 19:29:24.14	36.64	8.23	-41.1	-42.4	20.3	0.00e+00	13	39	0	191889408	56	6008
2026-01-01 19:29:25.15	36.51	8.28	-41.2	-42.6	20.2	0.00e+00	91	39	0	193986560	56	6109
2026-01-01 19:29:26.16	36.37	8.33	-41.4	-42.7	20.1	0.00e+00	68	39	0	196083712	56	6243
2026-01-01 19:29:27.17	36.23	8.38	-41.4	-42.8	20.0	0.00e+00	92	39	0	198180864	56	6292
2026-01-01 19:29:28.18	36.10	8.43	-41.3	-42.7	20.2	0.00e+00	64	39	0	199229440	56	6183
2026-01-01 19:29:29.19	35.96	8.48	-41.3	-42.6	20.2	0.00e+00	0	39	0	201326592	56	6125
2026-01-01 19:29:30.20	35.82	8.53	-41.3	-42.6	20.2	0.00e+00	0	39	0	203423744	56	6132
2026-01-01 19:29:31.21	35.68	8.58	-41.4	-42.7	20.2	0.00e+00	0	39	0	205520896	56	6208
2026-01-01 19:29:32.22	35.54	8.63	-41.3	-42.7	20.2	0.00e+00	90	39	0	207618048	56	6183
2026-01-01 19:29:33.23	35.40	8.68	-41.4	-42.8	20.0	0.00e+00	0	39	0	208666624	56	6253
2026-01-01 19:29:34.24	35.26	8.73	-41.3	-42.6	20.2	0.00e+00	92	39	0	210763776	56	6140
2026-01-01 19:29:35.25	35.12	8.77	-41.2	-42.5	20.3	0.00e+00	0	39	0	212860928	56	6095
2026-01-01 19:29:36.26	34.98	8.82	-41.3	-42.6	20.2	0.00e+00	0	39	0	214958080	56	6148
2026-01-01 19:29:37.26	34.84	8.87	-41.2	-42.5	20.4	0.00e+00	11	39	0	217055232	56	6061
2026-01-01 19:29:38.27	34.70	8.92	-41.3	-42.7	20.2	0.00e+00	0	39	0	218103808	56	6208
2026-01-01 19:29:39.29	34.56	8.97	-41.3	-42.6	20.2	0.00e+00	0	39	0	220200960	56	6161
2026-01-01 19:29:40.29	34.42	9.02	-41.3	-42.7	20.2	0.00e+00	0	39	0	222298112	56	6175
2026-01-01 19:29:41.30	34.27	9.06	-41.3	-42.7	20.2	0.00e+00	90	39	0	224395264	56	6176
2026-01-01 19:29:42.31	34.13	9.11	-41.3	-42.6	20.3	0.00e+00	13	39	0	226492416	56	6159
2026-01-01 19:29:43.32	33.98	9.16	-41.3	-42.6	20.3	0.00e+00	90	39	0	227540992	56	6153
2026-01-01 19:29:44.33	33.84	9.21	-41.2	-42.6	20.3	0.00e+00	67	39	0	229638144	56	6104
2026-01-01 19:29:45.34	33.70	9.26	-41.2	-42.5	20.5	0.00e+00	13	39	0	231735296	56	6091
2026-01-01 19:29:46.35	33.55	9.31	-41.2	-42.5	20.4	0.00e+00	0	39	0	233832448	56	6071
2026-01-01 19:29:47.36	33.40	9.35	-41.2	-42.5	20.4	0.00e+00	0	39	0	235929600	56	6055
2026-01-01 19:29:48.37	33.26	9.40	-41.1	-42.4	20.6	0.00e+00	90	38	0	236978176	56	5969
2026-01-01 19:29:49.38	33.11	9.45	-41.0	-42.3	20.6	0.00e+00	0	39	0	239075328	56	5938
2026-01-01 19:29:50.39	32.96	9.50	-41.0	-42.3	20.6	0.00e+00	92	38	0	241172480	56	5914
2026-01-01 19:29:51.40	32.81	9.54	-40.9	-42.1	20.8	0.00e+00	0	39	0	243269632	56	5802
2026-01-01 19:29:52.41	32.67	9.59	-40.8	-42.1	20.8	0.00e+00	6	38	0	245366784	56	5781
2026-01-01 19:29:53.42	32.52	9.64	-40.9	-42.2	20.7	0.00e+00	0	39	0	247463936	56	5831
2026-01-01 19:29:54.43	32.37	9.69	-40.6	-41.9	21.0	0.00e+00	0	39	0	248512512	54	6323
2026-01-01 19:29:55.44	32.22	9.73	-40.5	-41.7	21.1	0.00e+00	70	39	0	250609664	54	6227
2026-01-01 19:29:56.45	32.07	9.78	-40.5	-41.7	21.1	0.00e+00	6	39	0	252706816	54	6204
2026-01-01 19:29:57.46	31.92	9.83	-40.6	-41.8	21.1	0.00e+00	92	39	0	254803968	54	6269
2026-01-01 19:29:58.47	31.76	9.87	-40.4	-41.6	21.3	0.00e+00	12	39	0	256901120	54	6117
2026-01-01 19:29:59.48	31.61	9.92	-40.5	-41.6	21.2	0.00e+00	77	39	0	257949696	54	6166
2026-01-01 19:30:00.49	31.46	9.97	-40.3	-41.5	21.3	0.00e+00	7	39	0	260046848	54	6071
2026-01-01 19:30:01.50	31.31	10.01	-40.5	-41.7	21.4	0.00e+00	5	38	0	262144000	54	6183
2026-01-01 19:30:02.51	31.15	10.06	-40.3	-41.4	21.3	0.00e+00	20	39	0	264241152	54	6023
2026-01-01 19:30:03.52	31.00	10.11	-40.2	-41.4	21.4	0.00e+00	13	39	0	266338304	54	5992
2026-01-01 19:30:04.53	30.84	10.15	-40.2	-41.3	21.5	0.00e+00	92	39	0	267386880	54	5928
2026-01-01 19:30:05.54	30.69	10.20	-39.8	-40.9	21.9	0.00e+00	13	39	0	269484032	54	5632
2026-01-01 19:30:06.55	30.53	10.24	-39.8	-40.9	22.0	0.00e+00	92	38	0	271581184	54	5639
2026-01-01 19:30:07.56	30.38	10.29	-39.7	-40.8	22.0	0.00e+00	73	39	0	273678336	54	5592
2026-01-01 19:30:08.57	30.22	10.34	-39.7	-40.8	22.1	0.00e+00	71	39	0	275775488	52	6272
2026-01-01 19:30:09.58	30.06	10.38	-39.7	-40.8	22.1	0.00e+00	0	39	0	276824064	52	6251
2026-01-01 19:30:10.59	29.91	10.43	-39.7	-40.8	22.1	0.00e+00	0	38	0	278921216	52	6279
2026-01-01 19:30:11.60	29.75	10.47	-39.8	-40.8	21.9	0.00e+00	90	39	0	281018368	52	6309
2026-01-01 19:30:12.60	29.59	10.52	-39.9	-41.0	21.9	0.00e+00	71	38	0	283115520	52	6407
2026-01-01 19:30:13.61	29.43	10.56	-39.8	-40.9	22.0	0.00e+00	90	39	0	285212672	52	6337
2026-01-01 19:30:14.62	29.27	10.61	-39.7	-40.8	22.1	0.00e+00	7	39	0	286261248	52	6247
2026-01-01 19:30:15.63	29.11	10.65	-39.7	-40.8	22.1	0.00e+00	1	39	0	288358400	52	6252
2026-01-01 19:30:16.64	28.95	10.70	-39.7	-40.8	22.1	0.00e+00	3	39	0	290455552	52	6258
2026-01-01 19:30:17.66	28.79	10.74	-39.5	-40.6	22.3	0.00e+00	1	39	0	292552704	52	6123
2026-01-01 19:30:18.66	28.63	10.78	-39.5	-40.6	22.2	0.00e+00	92	39	0	294649856	52	6124
2026-01-01 19:30:19.68	28.47	10.83	-39.4	-40.5	22.4	0.00e+00	8	39	0	295698432	52	6040
2026-01-01 19:30:20.68	28.31	10.87	-39.5	-40.5	22.3	0.00e+00	92	39	0	297795584	52	6071
2026-01-01 19:30:21.69	28.14	10.92	-39.5	-40.5	22.2	0.00e+00	13	39	0	299892736	52	6100
2026-01-01 19:30:22.70	27.98	10.96	-39.3	-40.3	22.4	0.00e+00	14	39	0	301989888	52	5951
2026-01-01 19:30:23.71	27.82	11.00	-39.3	-40.3	22.5	0.00e+00	14	39	0	304087040	52	5927
2026-01-01 19:30:24.72	27.65	11.05	-39.4	-40.5	22.5	0.00e+00	14	39	0	305135616	52	6047
2026-01-01 19:30:25.74	27.48	11.09	-39.2	-40.2	22.6	0.00e+00	92	39	0	307232768	52	5892
2026-01-01 19:30:26.74	27.32	11.13	-39.2	-40.2	22.6	0.00e+00	68	39	0	309329920	52	5854
2026-01-01 19:30:27.75	27.15	11.18	-39.2	-40.2	22.6	0.00e+00	90	39	0	311427072	52	5872
2026-01-01 19:30:28.76	26.99	11.22	-39.2	-40.2	22.3	0.00e+00	67	38	0	313524224	52	5896
2026-01-01 19:30:29.78	26.82	11.26	-39.1	-40.1	22.3	0.00e+00	90	38	0	315621376	52	5781
2026-01-01 19:30:30.79	26.65	11.31	-39.0	-40.0	22.8	0.00e+00	0	39	0	316669952	52	5721
2026-01-01 19:30:31.80	26.48	11.35	-39.0	-39.9	22.8	0.00e+00	67	38	0	318767104	52	5693
2026-01-01 19:30:32.81	26.32	11.39	-38.9	-39.9	22.9	0.00e+00	78	39	0	320864256	52	5666
2026-01-01 19:30:33.82	26.15	11.43	-38.9	-39.9	23.0	0.00e+00	0	39	0	322961408	52	5632
2026-01-01 19:30:34.83	25.98	11.47	-38.9	-39.9	22.9	0.00e+00	92	38	0	325058560	52	5647
2026-01-01 19:30:35.84	25.81	11.52	-38.9	-39.9	23.0	0.00e+00	2	39	0	326107136	52	5638
2026-01-01 19:30:36.85	25.64	11.56	-38.9	-39.9	22.9	0.00e+00	92	39	0	328204288	52	5651
2026-01-01 19:30:37.86	25.47	11.60	-38.9	-39.8	23.0	0.00e+00	0	39	0	330301440	52	5623
2026-01-01 19:30:38.87	25.30	11.64	-38.8	-39.8	23.0	0.00e+00	0	39	0	332398592	52	5589
2026-01-01 19:30:39.88	25.12	11.68	-38.9	-39.9	23.0	0.00e+00	0	39	0	334495744	52	5635
2026-01-01 19:30:40.89	24.95	11.72	-38.9	-39.8	22.9	0.00e+00	9	39	0	335544320	52	5616
2026-01-01 19:30:41.90	24.78	11.76	-39.0	-40.0	22.8	0.00e+00	92	39	0	337641472	52	5748
2026-01-01 19:30:42.91	24.61	11.80	-39.0	-40.0	22.8	0.00e+00	4	39	0	339738624	52	5734
2026-01-01 19:30:43.92	24.43	11.84	-39.1	-40.1	22.7	0.00e+00	92	39	0	341835776	52	5796
2026-01-01 19:30:44.93	24.26	11.88	-39.2	-40.2	22.5	0.00e+00	12	39	0	343932928	52	5851
2026-01-01 19:30:45.94	24.08	11.92	-39.1	-40.1	22.7	0.00e+00	66	39	0	344981504	52	5808
2026-01-01 19:30:46.95	23.91	11.96	-39.2	-40.2	22.7	0.00e+00	66	39	0	347078656	52	5874
2026-01-01 19:30:47.96	23.73	12.00	-39.3	-40.3	22.6	0.00e+00	67	39	0	349175808	52	5937
2026-01-01 19:30:48.97	23.56	12.04	-39.2	-40.2	22.6	0.00e+00	81	39	0	351272960	52	5875
2026-01-01 19:30:49.98	23.38	12.08	-39.3	-40.3	22.6	0.00e+00	67	39	0	353370112	52	5928
2026-01-01 19:30:50.99	23.20	12.12	-39.3	-40.4	22.5	0.00e+00	90	39	0	354418688	52	5968
2026-01-01 19:30:52.00	23.02	12.16	-39.4	-40.4	22.5	0.00e+00	67	38	0	356515840	52	6008
2026-01-01 19:30:53.01	22.85	12.19	-39.3	-40.3	22.5	0.00e+00	0	39	0	358612992	52	5931
2026-01-01 19:30:54.02	22.67	12.23	-39.4	-40.4	22.5	0.00e+00	0	39	0	360710144	52	5997
2026-01-01 19:30:55.04	22.49	12.27	-39.3	-40.4	22.5	0.00e+00	2	39	0	362807296	52	5974
2026-01-01 19:30:56.04	22.31	12.31	-39.5	-40.5	22.4	0.00e+00	0	39	0	363855872	52	6067
2026-01-01 19:30:57.05	22.13	12.35	-39.6	-40.6	22.3	0.00e+00	0	38	0	365953024	52	6145
2026-01-01 19:30:58.06	21.95	12.38	-39.5	-40.5	22.4	0.00e+00	92	39	0	368050176	52	6089
2026-01-01 19:30:59.07	21.77	12.42	-39.3	-40.3	22.6	0.00e+00	0	39	0	370147328	52	5913
2026-01-01 19:31:00.08	21.59	12.46	-39.3	-40.4	22.5	0.00e+00	92	38	0	372244480	52	5968
2026-01-01 19:31:01.09	21.41	12.49	-39.1	-40.1	22.8	0.00e+00	2	38	0	373293056	52	5800
2026-01-01 19:31:02.10	21.22	12.53	-39.2	-40.1	22.7	0.00e+00	0	39	0	375390208	52	5820
2026-01-01 19:31:03.11	21.04	12.57	-39.3	-40.3	22.6	0.00e+00	82	39	0	377487360	52	5959
2026-01-01 19:31:04.12	20.86	12.60	-39.3	-40.3	22.6	0.00e+00	10	39	0	379584512	52	5939
2026-01-01 19:31:05.13	20.67	12.64	-39.5	-40.5	22.4	0.00e+00	92	39	0	381681664	52	6077
2026-01-01 19:31:06.14	20.49	12.67	-39.3	-40.3	22.6	0.00e+00	2	39	0	383778816	52	5920
2026-01-01 19:31:07.15	20.31	12.71	-39.3	-40.3	22.6	0.00e+00	90	38	0	384827392	52	5952
2026-01-01 19:31:08.16	20.12	12.74	-39.2	-40.2	22.7	0.00e+00	0	38	0	386924544	52	5875
2026-01-01 19:31:09.17	19.93	12.78	-39.3	-40.2	22.7	0.00e+00	70	39	0	389021696	52	5896
2026-01-01 19:31:10.18	19.75	12.81	-39.2	-40.2	22.7	0.00e+00	0	39	0	391118848	52	5868
2026-01-01 19:31:11.19	19.56	12.85	-39.3	-40.3	22.7	0.00e+00	0	38	0	393216000	52	5905
2026-01-01 19:31:12.20	19.38	12.88	-39.4	-40.4	22.5	0.00e+00	0	38	0	394264576	52	5991
2026-01-01 19:31:13.21	19.19	12.91	-39.1	-40.1	22.7	0.00e+00	2	39	0	396361728	52	5813
2026-01-01 19:31:14.22	19.00	12.95	-39.2	-40.1	22.8	0.00e+00	92	39	0	398458880	52	5814
2026-01-01 19:31:15.23	18.81	12.98	-39.1	-40.1	22.5	0.00e+00	0	39	0	400556032	52	5791
2026-01-01 19:31:16.24	18.63	13.01	-39.1	-40.0	22.8	0.00e+00	79	39	0	402653184	52	5739
2026-01-01 19:31:17.25	18.44	13.05	-39.2	-40.2	22.8	0.00e+00	2	39	0	403701760	52	5835
2026-01-01 19:31:18.26	18.25	13.08	-39.1	-40.1	22.8	0.00e+00	13	39	0	405798912	52	5807
2026-01-01 19:31:19.27	18.06	13.11	-39.2	-40.2	22.6	0.00e+00	13	39	0	407896064	52	5879
2026-01-01 19:31:20.28	17.87	13.14	-39.1	-40.1	22.8	0.00e+00	15	39	0	409993216	52	5805
2026-01-01 19:31:21.29	17.68	13.17	-39.1	-40.1	22.8	0.00e+00	92	39	0	412090368	52	5788
2026-01-01 19:31:22.30	17.49	13.21	-39.3	-40.3	22.8	0.00e+00	0	39	0	413138944	52	5924
2026-01-01 19:31:23.31	17.29	13.24	-39.1	-40.0	23.0	0.00e+00	92	39	0	415236096	52	5748
2026-01-01 19:31:24.32	17.10	13.27	-39.1	-40.1	22.9	0.00e+00	13	39	0	417333248	52	5771
2026-01-01 19:31:25.33	16.91	13.30	-39.1	-40.0	22.9	0.00e+00	15	39	0	419430400	52	5759
2026-01-01 19:31:26.34	16.72	13.33	-39.1	-40.0	22.9	0.00e+00	72	39	0	421527552	52	5750
2026-01-01 19:31:27.35	16.53	13.36	-39.2	-40.2	22.7	0.00e+00	13	39	0	422576128	52	5878
2026-01-01 19:31:28.36	16.33	13.39	-39.1	-40.1	22.9	0.00e+00	69	39	0	424673280	52	5775
2026-01-01 19:31:29.37	16.14	13.42	-38.9	-39.9	22.9	0.00e+00	70	39	0	426770432	52	5668
2026-01-01 19:31:30.38	15.94	13.45	-39.0	-40.0	23.0	0.00e+00	92	39	0	428867584	52	5711
2026-01-01 19:31:31.39	15.75	13.47	-39.4	-40.5	22.6	0.00e+00	0	39	0	430964736	52	6035
2026-01-01 19:31:32.40	15.56	13.50	-39.1	-40.1	22.9	0.00e+00	0	39	0	432013312	52	5772
2026-01-01 19:31:33.41	15.36	13.53	-39.2	-40.2	22.7	0.00e+00	72	39	0	434110464	52	5871
2026-01-01 19:31:34.42	15.16	13.56	-39.1	-40.1	22.9	0.00e+00	5	39	0	436207616	52	5788
2026-01-01 19:31:35.43	14.97	13.59	-39.1	-40.0	22.9	0.00e+00	92	39	0	438304768	52	5755
2026-01-01 19:31:36.44	14.77	13.61	-38.8	-39.8	23.2	0.00e+00	0	39	0	440401920	52	5576
2026-01-01 19:31:37.45	14.58	13.64	-38.8	-39.8	23.1	0.00e+00	92	39	0	441450496	52	5567
2026-01-01 19:31:38.46	14.38	13.67	-38.8	-39.8	23.2	0.00e+00	7	39	0	443547648	52	5570
2026-01-01 19:31:39.47	14.18	13.69	-38.9	-39.8	23.1	0.00e+00	5	39	0	445644800	52	5591
2026-01-01 19:31:40.47	13.98	13.72	-38.9	-39.9	23.0	0.00e+00	9	39	0	447741952	52	5661
2026-01-01 19:31:41.48	13.79	13.74	-39.1	-40.0	22.9	0.00e+00	5	39	0	449839104	52	5748
2026-01-01 19:31:42.49	13.59	13.77	-39.1	-40.0	22.9	0.00e+00	0	39	0	451936256	52	5741
2026-01-01 19:31:43.50	13.39	13.80	-39.1	-40.0	22.9	0.00e+00	6	39	0	452984832	52	5753
2026-01-01 19:31:44.51	13.19	13.82	-39.2	-40.1	22.9	0.00e+00	93	39	0	455081984	52	5812
2026-01-01 19:31:45.52	12.99	13.84	-39.1	-40.0	22.8	0.00e+00	5	39	0	457179136	52	5752
2026-01-01 19:31:46.53	12.79	13.87	-39.3	-40.3	22.7	0.00e+00	19	39	0	459276288	52	5901
2026-01-01 19:31:47.54	12.59	13.89	-39.3	-40.3	22.6	0.00e+00	73	39	0	461373440	52	5921
2026-01-01 19:31:48.55	12.39	13.92	-39.4	-40.4	22.6	0.00e+00	72	39	0	462422016	52	5970
2026-01-01 19:31:49.56	12.19	13.94	-39.4	-40.4	22.6	0.00e+00	0	39	0	464519168	52	5989
2026-01-01 19:31:50.57	11.99	13.96	-39.4	-40.4	22.6	0.00e+00	0	39	0	466616320	52	6023
2026-01-01 19:31:51.58	11.79	13.98	-39.3	-40.3	22.7	0.00e+00	92	39	0	468713472	52	5932
2026-01-01 19:31:52.59	11.59	14.01	-39.2	-40.2	22.8	0.00e+00	2	39	0	470810624	52	5855
2026-01-01 19:31:53.60	11.38	14.03	-39.4	-40.4	22.6	0.00e+00	92	39	0	471859200	52	6001
2026-01-01 19:31:54.61	11.18	14.05	-39.5	-40.5	22.3	0.00e+00	4	39	0	473956352	52	6083
2026-01-01 19:31:55.62	10.98	14.07	-39.6	-40.6	22.4	0.00e+00	6	39	0	476053504	52	6138
2026-01-01 19:31:56.63	10.78	14.09	-39.7	-40.8	22.3	0.00e+00	3	39	0	478150656	52	6249
2026-01-01 19:31:57.64	10.57	14.11	-39.8	-40.8	22.3	0.00e+00	1	39	0	480247808	52	6289
2026-01-01 19:31:58.65	10.37	14.13	-39.8	-40.8	22.2	0.00e+00	92	39	0	481296384	52	6301
2026-01-01 19:31:59.66	10.17	14.15	-39.8	-40.8	22.2	0.00e+00	4	39	0	483393536	52	6310
2026-01-01 19:32:00.67	9.96	14.17	-39.8	-40.9	22.2	0.00e+00	91	39	0	485490688	52	6328
2026-01-01 19:32:01.68	9.76	14.19	-39.8	-40.9	22.1	0.00e+00	14	39	0	487587840	52	6325
2026-01-01 19:32:02.69	9.55	14.21	-39.8	-40.9	22.1	0.00e+00	14	39	0	489684992	52	6334
2026-01-01 19:32:03.70	9.35	14.23	-40.1	-41.2	21.8	0.00e+00	9	39	0	490733568	52	6561
2026-01-01 19:32:04.71	9.14	14.25	-40.0	-41.1	22.0	0.00e+00	9	39	0	492830720	52	6487
2026-01-01 19:32:05.72	8.94	14.26	-39.8	-40.9	22.2	0.00e+00	0	39	0	494927872	52	6331
2026-01-01 19:32:06.73	8.73	14.28	-39.6	-40.7	22.2	0.00e+00	9	39	0	497025024	52	6189
2026-01-01 19:32:07.74	8.53	14.30	-39.4	-40.4	22.6	0.00e+00	90	39	0	499122176	52	5999
2026-01-01 19:32:08.75	8.32	14.31	-39.5	-40.5	22.6	0.00e+00	71	39	0	500170752	52	6035
2026-01-01 19:32:09.76	8.11	14.33	-39.3	-40.3	22.7	0.00e+00	90	39	0	502267904	52	5932
2026-01-01 19:32:10.77	7.91	14.35	-39.4	-40.4	22.6	0.00e+00	72	39	0	504365056	52	6032
2026-01-01 19:32:11.78	7.70	14.36	-39.2	-40.2	22.8	0.00e+00	67	39	0	506462208	52	5865
2026-01-01 19:32:12.79	7.49	14.38	-39.3	-40.2	22.7	0.00e+00	0	39	0	508559360	52	5887
2026-01-01 19:32:13.80	7.29	14.39	-39.2	-40.2	22.7	0.00e+00	66	39	0	509607936	52	5882
2026-01-01 19:32:14.81	7.08	14.41	-39.1	-40.1	22.9	0.00e+00	92	39	0	511705088	52	5795
2026-01-01 19:32:15.82	6.87	14.42	-39.0	-39.9	23.1	0.00e+00	0	39	0	513802240	52	5693
2026-01-01 19:32:16.83	6.66	14.43	-39.0	-39.9	23.0	0.00e+00	92	39	0	515899392	52	5692
2026-01-01 19:32:17.84	6.46	14.45	-39.1	-40.1	22.9	0.00e+00	0	39	0	517996544	52	5773
2026-01-01 19:32:18.85	6.25	14.46	-39.2	-40.2	22.7	0.00e+00	0	39	0	520093696	52	5835
2026-01-01 19:32:19.86	6.04	14.47	-39.3	-40.2	22.7	0.00e+00	0	39	0	521142272	52	5883
2026-01-01 19:32:20.87	5.83	14.48	-39.4	-40.4	22.5	0.00e+00	0	39	0	523239424	52	6023
2026-01-01 19:32:21.88	5.62	14.50	-39.4	-40.4	22.6	0.00e+00	0	39	0	525336576	52	5971
2026-01-01 19:32:22.89	5.41	14.51	-39.4	-40.4	22.6	0.00e+00	14	39	0	527433728	52	6025
2026-01-01 19:32:23.90	5.20	14.52	-39.4	-40.4	22.6	0.00e+00	92	39	0	529530880	52	5991
2026-01-01 19:32:24.91	5.00	14.53	-39.3	-40.3	22.6	0.00e+00	0	39	0	530579456	52	5953
2026-01-01 19:32:25.92	4.79	14.54	-39.4	-40.3	22.7	0.00e+00	14	39	0	532676608	52	5962
2026-01-01 19:32:26.93	4.58	14.55	-39.4	-40.4	22.7	0.00e+00	0	39	0	534773760	52	5971
2026-01-01 19:32:27.94	4.37	14.56	-39.5	-40.5	22.5	0.00e+00	66	39	0	536870912	52	6098
2026-01-01 19:32:28.95	4.16	14.57	-39.5	-40.6	22.4	0.00e+00	0	39	0	538968064	52	6133
2026-01-01 19:32:29.96	3.95	14.58	-39.4	-40.4	22.7	0.00e+00	15	39	0	540016640	52	6003
2026-01-01 19:32:30.97	3.74	14.59	-39.4	-40.4	22.7	0.00e+00	92	39	0	542113792	52	5982
2026-01-01 19:32:31.98	3.53	14.59	-39.3	-40.4	22.6	0.00e+00	0	39	0	544210944	52	5965
2026-01-01 19:32:32.99	3.32	14.60	-39.3	-40.3	22.6	0.00e+00	92	39	0	546308096	52	5908
2026-01-01 19:32:34.00	3.11	14.61	-39.2	-40.2	22.8	0.00e+00	71	39	0	548405248	52	5873
2026-01-01 19:32:35.01	2.90	14.62	-39.2	-40.2	22.8	0.00e+00	0	39	0	549453824	52	5877
2026-01-01 19:32:36.02	2.69	14.62	-39.3	-40.3	22.8	0.00e+00	2	39	0	551550976	52	5905
2026-01-01 19:32:37.02	2.48	14.63	-39.3	-40.3	22.8	0.00e+00	0	39	0	553648128	52	5923
2026-01-01 19:32:38.04	2.27	14.63	-39.5	-40.5	22.5	0.00e+00	92	39	0	555745280	52	6043
2026-01-01 19:32:39.04	2.06	14.64	-39.5	-40.5	22.6	0.00e+00	0	39	0	557842432	52	6072
2026-01-01 19:32:40.05	1.85	14.64	-39.3	-40.4	22.8	0.00e+00	90	39	0	558891008	52	5971
2026-01-01 19:32:41.06	1.63	14.65	-39.1	-40.1	22.9	0.00e+00	16	39	0	560988160	52	5799
2026-01-01 19:32:42.07	1.42	14.65	-39.1	-40.1	23.0	0.00e+00	0	39	0	563085312	52	5792
2026-01-01 19:32:43.08	1.21	14.66	-39.1	-40.1	22.9	0.00e+00	0	39	0	565182464	52	5799
2026-01-01 19:32:44.09	1.00	14.66	-39.0	-40.0	23.0	0.00e+00	1	39	0	567279616	52	5717
2026-01-01 19:32:45.10	0.79	14.66	-39.1	-40.1	23.0	0.00e+00	27	39	0	568328192	52	5773
2026-01-01 19:32:46.11	0.58	14.67	-39.1	-40.1	22.9	0.00e+00	64	39	0	570425344	52	5800
2026-01-01 19:32:47.12	0.37	14.67	-39.2	-40.2	22.8	0.00e+00	90	39	0	572522496	52	5852
2026-01-01 19:32:48.13	0.16	14.67	-39.2	-40.2	22.9	0.00e+00	66	39	0	574619648	52	5843
2026-01-01 19:32:49.14	359.95	14.67	-39.2	-40.1	22.9	0.00e+00	92	39	0	576716800	52	5824
2026-01-01 19:32:50.15	359.73	14.67	-39.2	-40.1	22.8	0.00e+00	0	39	0	577765376	52	5824
2026-01-01 19:32:51.16	359.52	14.67	-39.2	-40.2	22.8	0.00e+00	0	39	0	579862528	52	5867
2026-01-01 19:32:52.17	359.31	14.67	-39.2	-40.2	22.9	0.00e+00	9	39	0	581959680	52	5874
2026-01-01 19:32:53.18	359.10	14.67	-39.3	-40.3	22.8	0.00e+00	66	39	0	584056832	52	5897
2026-01-01 19:32:54.19	358.89	14.67	-39.2	-40.2	22.8	0.00e+00	90	39	0	586153984	52	5847
2026-01-01 19:32:55.20	358.68	14.67	-39.2	-40.2	22.4	0.00e+00	66	39	0	588251136	52	5877
2026-01-01 19:32:56.21	358.47	14.67	-39.2	-40.2	22.9	0.00e+00	92	39	0	589299712	52	5848
2026-01-01 19:32:57.22	358.26	14.67	-39.2	-40.2	22.8	0.00e+00	0	39	0	591396864	52	5860
2026-01-01 19:32:58.23	358.05	14.67	-39.2	-40.2	22.6	0.00e+00	0	39	0	593494016	52	5881
2026-01-01 19:32:59.24	357.83	14.66	-39.3	-40.3	22.6	0.00e+00	0	39	0	595591168	52	5917
2026-01-01 19:33:00.25	357.62	14.66	-39.3	-40.3	22.8	0.00e+00	1	39	0	597688320	52	5904
2026-01-01 19:33:01.26	357.41	14.66	-39.2	-40.2	22.8	0.00e+00	77	39	0	598736896	52	5856
2026-01-01 19:33:02.26	357.20	14.65	-39.4	-40.4	22.6	0.00e+00	8	39	0	600834048	52	5971
2026-01-01 19:33:03.27	356.99	14.65	-39.3	-40.3	22.7	0.00e+00	90	39	0	602931200	52	5922
2026-01-01 19:33:04.28	356.78	14.65	-39.1	-40.1	22.9	0.00e+00	10	39	0	605028352	52	5792
2026-01-01 19:33:05.29	356.57	14.64	-39.2	-40.2	22.8	0.00e+00	13	39	0	607125504	52	5843
2026-01-01 19:33:06.30	356.36	14.64	-39.2	-40.2	22.8	0.00e+00	0	39	0	608174080	52	5893
2026-01-01 19:33:07.32	356.15	14.63	-39.3	-40.3	22.7	0.00e+00	0	39	0	610271232	52	5939
2026-01-01 19:33:08.33	355.94	14.62	-39.4	-40.5	22.5	0.00e+00	14	39	0	612368384	52	6052
2026-01-01 19:33:09.34	355.73	14.62	-39.5	-40.6	22.4	0.00e+00	14	39	0	614465536	52	6121
2026-01-01 19:33:10.35	355.52	14.61	-39.5	-40.6	22.3	0.00e+00	92	39	0	616562688	52	6133
2026-01-01 19:33:11.36	355.31	14.60	-39.7	-40.7	22.3	0.00e+00	80	39	0	617611264	52	6239
2026-01-01 19:33:12.37	355.09	14.60	-39.7	-40.7	22.3	0.00e+00	92	39	0	619708416	52	6212
2026-01-01 19:33:13.38	354.88	14.59	-39.7	-40.8	22.4	0.00e+00	6	39	0	621805568	52	6269
2026-01-01 19:33:14.39	354.67	14.58	-39.5	-40.6	22.4	0.00e+00	0	39	0	623902720	52	6115
2026-01-01 19:33:15.40	354.47	14.57	-39.5	-40.5	22.5	0.00e+00	0	39	0	625999872	52	6095
2026-01-01 19:33:16.41	354.26	14.56	-39.4	-40.4	22.6	0.00e+00	68	39	0	627048448	52	6018
2026-01-01 19:33:17.42	354.05	14.55	-39.4	-40.4	22.6	0.00e+00	92	39	0	629145600	52	5990
2026-01-01 19:33:18.43	353.84	14.54	-39.4	-40.5	22.5	0.00e+00	0	39	0	631242752	52	6045
2026-01-01 19:33:19.44	353.63	14.53	-39.6	-40.6	22.3	0.00e+00	90	39	0	633339904	52	6143
2026-01-01 19:33:20.45	353.42	14.52	-39.5	-40.6	22.4	0.00e+00	7	39	0	635437056	52	6110
2026-01-01 19:33:21.46	353.21	14.51	-39.7	-40.8	22.3	0.00e+00	0	39	0	636485632	52	6253
2026-01-01 19:33:22.47	353.00	14.50	-39.8	-40.9	22.1	0.00e+00	4	39	0	638582784	52	6365
2026-01-01 19:33:23.48	352.79	14.49	-39.8	-40.8	22.1	0.00e+00	13	39	0	640679936	52	6311
2026-01-01 19:33:24.49	352.58	14.48	-39.9	-41.0	22.1	0.00e+00	92	39	0	642777088	52	6411
2026-01-01 19:33:25.50	352.37	14.47	-39.7	-40.7	22.3	0.00e+00	6	39	0	644874240	52	6220
2026-01-01 19:33:26.51	352.17	14.45	-39.7	-40.8	22.2	0.00e+00	92	39	0	645922816	52	6267
2026-01-01 19:33:27.51	351.96	14.44	-39.5	-40.5	22.6	0.00e+00	78	39	0	648019968	52	6054
2026-01-01 19:33:28.52	351.75	14.43	-39.6	-40.6	22.5	0.00e+00	77	39	0	650117120	52	6128
2026-01-01 19:33:29.53	351.54	14.41	-39.4	-40.4	22.8	0.00e+00	5	39	0	652214272	52	6008
2026-01-01 19:33:30.55	351.34	14.40	-39.3	-40.3	22.7	0.00e+00	14	39	0	654311424	52	5915
2026-01-01 19:33:31.55	351.13	14.38	-39.4	-40.4	22.6	0.00e+00	91	39	0	656408576	52	5980
2026-01-01 19:33:32.56	350.92	14.37	-39.3	-40.4	22.6	0.00e+00	74	39	0	657457152	52	5968
2026-01-01 19:33:33.58	350.71	14.35	-39.3	-40.3	22.7	0.00e+00	92	39	0	659554304	52	5901
2026-01-01 19:33:34.58	350.51	14.34	-39.4	-40.4	22.6	0.00e+00	80	39	0	661651456	52	6002
2026-01-01 19:33:35.60	350.30	14.32	-39.5	-40.5	22.6	0.00e+00	91	39	0	663748608	52	6089
2026-01-01 19:33:36.61	350.10	14.30	-39.6	-40.6	22.5	0.00e+00	0	39	0	665845760	52	6131
2026-01-01 19:33:37.62	349.89	14.29	-39.5	-40.5	22.6	0.00e+00	8	39	0	666894336	52	6062
2026-01-01 19:33:38.63	349.68	14.27	-39.4	-40.4	22.6	0.00e+00	0	39	0	668991488	52	5997
2026-01-01 19:33:39.64	349.48	14.25	-39.3	-40.3	22.6	0.00e+00	6	39	0	671088640	52	5941
2026-01-01 19:33:40.64	349.28	14.24	-39.3	-40.3	22.7	0.00e+00	92	39	0	673185792	52	5912
2026-01-01 19:33:41.65	349.07	14.22	-39.4	-40.4	22.7	0.00e+00	6	39	0	675282944	52	5968
2026-01-01 19:33:42.67	348.86	14.20	-39.2	-40.2	22.9	0.00e+00	92	39	0	676331520	52	5832
2026-01-01 19:33:43.67	348.66	14.18	-39.2	-40.2	22.8	0.00e+00	7	39	0	678428672	52	5833
2026-01-01 19:33:44.68	348.46	14.16	-39.1	-40.1	22.8	0.00e+00	15	39	0	680525824	52	5803
2026-01-01 19:33:45.69	348.25	14.14	-39.1	-40.1	22.9	0.00e+00	5	39	0	682622976	52	5778
2026-01-01 19:33:46.70	348.05	14.12	-39.3	-40.3	22.7	0.00e+00	5	39	0	684720128	52	5900
2026-01-01 19:33:47.71	347.85	14.10	-39.2	-40.2	22.8	0.00e+00	91	39	0	685768704	52	5857
2026-01-01 19:33:48.72	347.64	14.08	-39.3	-40.3	22.7	0.00e+00	15	39	0	687865856	52	5898
2026-01-01 19:33:49.73	347.44	14.06	-39.2	-40.2	22.8	0.00e+00	92	39	0	689963008	52	5870
2026-01-01 19:33:50.74	347.24	14.04	-39.3	-40.3	22.7	0.00e+00	9	39	0	692060160	52	5905
2026-01-01 19:33:51.75	347.04	14.02	-39.1	-40.1	22.9	0.00e+00	75	39	0	694157312	52	5812
2026-01-01 19:33:52.76	346.83	13.99	-39.1	-40.1	22.9	0.00e+00	72	39	0	696254464	52	5807
2026-01-01 19:33:53.77	346.63	13.97	-39.2	-40.2	22.7	0.00e+00	68	39	0	697303040	52	5892
2026-01-01 19:33:54.78	346.43	13.95	-39.3	-40.4	22.6	0.00e+00	74	39	0	699400192	52	5977
2026-01-01 19:33:55.79	346.23	13.93	-39.5	-40.6	22.4	0.00e+00	69	39	0	701497344	52	6119
2026-01-01 19:33:56.80	346.03	13.90	-39.4	-40.5	22.6	0.00e+00	92	39	0	703594496	52	6051
2026-01-01 19:33:57.80	345.83	13.88	-39.5	-40.5	22.5	0.00e+00	0	39	0	704643072	52	6099
2026-01-01 19:33:58.81	345.63	13.86	-39.4	-40.5	22.5	0.00e+00	4	39	0	706740224	52	6055
2026-01-01 19:33:59.82	345.43	13.83	-39.5	-40.6	22.5	0.00e+00	0	39	0	708837376	52	6144
2026-01-01 19:34:00.83	345.23	13.81	-39.6	-40.6	22.4	0.00e+00	2	39	0	710934528	52	6163
2026-01-01 19:34:01.84	345.03	13.78	-39.6	-40.7	22.3	0.00e+00	0	39	0	713031680	52	6207
2026-01-01 19:34:02.85	344.84	13.76	-39.5	-40.6	22.6	0.00e+00	2	39	0	714080256	52	6106
2026-01-01 19:34:03.86	344.64	13.73	-39.5	-40.5	22.5	0.00e+00	92	39	0	716177408	52	6088
2026-01-01 19:34:04.87	344.44	13.70	-39.5	-40.5	22.4	0.00e+00	2	39	0	718274560	52	6103
2026-01-01 19:34:05.88	344.24	13.68	-39.4	-40.4	22.6	0.00e+00	92	39	0	720371712	52	6020
2026-01-01 19:34:06.89	344.04	13.65	-39.5	-40.5	22.5	0.00e+00	2	39	0	722468864	52	6089
2026-01-01 19:34:07.90	343.85	13.63	-39.5	-40.6	22.4	0.00e+00	0	39	0	724566016	52	6134
2026-01-01 19:34:08.91	343.65	13.60	-39.6	-40.6	22.4	0.00e+00	0	39	0	725614592	52	6173
2026-01-01 19:34:09.92	343.46	13.57	-39.6	-40.7	22.3	0.00e+00	13	39	0	727711744	52	6196
2026-01-01 19:34:10.93	343.26	13.54	-39.6	-40.6	22.4	0.00e+00	92	39	0	729808896	52	6168
2026-01-01 19:34:11.94	343.06	13.52	-39.5	-40.6	22.5	0.00e+00	71	39	0	731906048	52	6105
2026-01-01 19:34:12.95	342.87	13.49	-39.6	-40.7	22.3	0.00e+00	92	39	0	734003200	52	6193
2026-01-01 19:34:13.96	342.67	13.46	-39.6	-40.7	22.4	0.00e+00	14	39	0	735051776	52	6189
2026-01-01 19:34:14.97	342.48	13.43	-39.6	-40.7	22.3	0.00e+00	72	39	0	737148928	52	6187
2026-01-01 19:34:15.98	342.29	13.40	-39.7	-40.8	22.3	0.00e+00	72	39	0	739246080	52	6262
2026-01-01 19:34:16.99	342.09	13.37	-39.7	-40.8	22.2	0.00e+00	74	39	0	741343232	52	6255
2026-01-01 19:34:17.99	341.90	13.34	-39.7	-40.8	22.2	0.00e+00	75	39	0	743440384	52	6248
2026-01-01 19:34:19.00	341.71	13.31	-39.7	-40.8	22.3	0.00e+00	0	39	0	744488960	52	6249
2026-01-01 19:34:20.01	341.52	13.28	-39.7	-40.8	22.3	0.00e+00	92	39	0	746586112	52	6248
2026-01-01 19:34:21.02	341.33	13.25	-39.5	-40.6	22.4	0.00e+00	0	39	0	748683264	52	6139
2026-01-01 19:34:22.03	341.13	13.22	-39.5	-40.6	22.4	0.00e+00	91	39	0	750780416	52	6127
2026-01-01 19:34:23.04	340.94	13.19	-39.5	-40.6	22.4	0.00e+00	0	39	0	752877568	52	6120
2026-01-01 19:34:24.05	340.75	13.16	-39.4	-40.4	22.4	0.00e+00	0	39	0	753926144	52	6012
2026-01-01 19:34:25.06	340.56	13.12	-39.5	-40.6	22.4	0.00e+00	0	39	0	756023296	52	6132
2026-01-01 19:34:26.07	340.37	13.09	-39.6	-40.7	22.3	0.00e+00	0	39	0	758120448	52	6201
2026-01-01 19:34:27.08	340.18	13.06	-39.5	-40.6	22.5	0.00e+00	92	39	0	760217600	52	6119
2026-01-01 19:34:28.09	339.99	13.03	-39.2	-40.2	22.7	0.00e+00	2	39	0	762314752	52	5873
2026-01-01 19:34:29.10	339.81	13.00	-39.2	-40.3	22.6	0.00e+00	92	39	0	763363328	52	5921
2026-01-01 19:34:30.11	339.62	12.96	-39.3	-40.4	22.7	0.00e+00	9	39	0	765460480	52	5982
2026-01-01 19:34:31.11	339.43	12.93	-39.3	-40.3	22.6	0.00e+00	73	39	0	767557632	52	5927
2026-01-01 19:34:32.13	339.24	12.90	-39.4	-40.5	22.5	0.00e+00	7	39	0	769654784	52	6057
2026-01-01 19:34:33.14	339.06	12.86	-39.2	-40.3	22.6	0.00e+00	69	39	0	771751936	52	5919
2026-01-01 19:34:34.15	338.87	12.83	-39.1	-40.1	22.8	0.00e+00	92	39	0	772800512	52	5798
2026-01-01 19:34:35.16	338.68	12.79	-39.1	-40.1	22.8	0.00e+00	0	39	0	774897664	52	5808
2026-01-01 19:34:36.17	338.50	12.76	-39.1	-40.1	22.9	0.00e+00	92	39	0	776994816	52	5804
2026-01-01 19:34:37.18	338.31	12.72	-39.2	-40.2	22.7	0.00e+00	0	39	0	779091968	52	5867
2026-01-01 19:34:38.18	338.13	12.69	-39.2	-40.2	22.5	0.00e+00	92	39	0	781189120	52	5893
2026-01-01 19:34:39.19	337.95	12.65	-39.3	-40.3	22.5	0.00e+00	72	39	0	782237696	52	5958
2026-01-01 19:34:40.21	337.76	12.62	-39.4	-40.5	22.5	0.00e+00	0	39	0	784334848	52	6053
2026-01-01 19:34:41.22	337.58	12.58	-39.4	-40.4	22.5	0.00e+00	82	39	0	786432000	52	5987
2026-01-01 19:34:42.23	337.39	12.55	-39.2	-40.3	22.7	0.00e+00	2	39	0	788529152	52	5906
2026-01-01 19:34:43.24	337.21	12.51	-39.1	-40.1	22.8	0.00e+00	92	39	0	790626304	52	5818
2026-01-01 19:34:44.25	337.03	12.47	-39.2	-40.2	22.8	0.00e+00	0	39	0	792723456	52	5847
2026-01-01 19:34:45.26	336.85	12.44	-39.1	-40.1	22.8	0.00e+00	91	39	0	793772032	52	5798
2026-01-01 19:34:46.27	336.67	12.40	-39.1	-40.1	22.8	0.00e+00	5	39	0	795869184	52	5820
2026-01-01 19:34:47.28	336.49	12.36	-39.2	-40.2	22.7	0.00e+00	7	39	0	797966336	52	5879
2026-01-01 19:34:48.28	336.31	12.33	-39.2	-40.2	22.7	0.00e+00	0	39	0	800063488	52	5883
2026-01-01 19:34:49.29	336.13	12.29	-39.4	-40.4	22.6	0.00e+00	2	39	0	802160640	52	5985
2026-01-01 19:34:50.30	335.95	12.25	-39.1	-40.1	22.8	0.00e+00	90	39	0	803209216	52	5816
2026-01-01 19:34:51.31	335.77	12.21	-39.2	-40.2	22.8	0.00e+00	0	39	0	805306368	52	5838
2026-01-01 19:34:52.32	335.59	12.17	-39.1	-40.1	22.7	0.00e+00	92	39	0	807403520	52	5804
2026-01-01 19:34:53.33	335.41	12.14	-39.3	-40.2	22.8	0.00e+00	68	39	0	809500672	52	5893
2026-01-01 19:34:54.34	335.24	12.10	-39.1	-40.1	22.8	0.00e+00	76	39	0	811597824	52	5789
2026-01-01 19:34:55.35	335.06	12.06	-39.2	-40.2	22.7	0.00e+00	6	39	0	812646400	52	5866
2026-01-01 19:34:56.36	334.88	12.02	-39.3	-40.3	22.7	0.00e+00	0	39	0	814743552	52	5931
2026-01-01 19:34:57.37	334.71	11.98	-39.4	-40.4	22.5	0.00e+00	92	39	0	816840704	52	5979
2026-01-01 19:34:58.38	334.53	11.94	-39.5	-40.5	22.4	0.00e+00	0	39	0	818937856	52	6087
2026-01-01 19:34:59.39	334.36	11.90	-39.5	-40.6	22.4	0.00e+00	89	39	0	821035008	52	6116
2026-01-01 19:35:00.40	334.18	11.86	-39.7	-40.8	22.3	0.00e+00	71	39	0	822083584	52	6258
2026-01-01 19:35:01.41	334.01	11.82	-39.7	-40.8	22.2	0.00e+00	6	39	0	824180736	52	6253
2026-01-01 19:35:02.42	333.84	11.78	-39.9	-41.0	22.0	0.00e+00	0	39	0	826277888	52	6438
2026-01-01 19:35:03.43	333.66	11.74	-39.9	-41.0	22.0	0.00e+00	0	39	0	828375040	52	6423
2026-01-01 19:35:04.44	333.49	11.70	-40.1	-41.1	21.8	0.00e+00	88	39	0	830472192	52	6535
2026-01-01 19:35:05.45	333.32	11.66	-40.1	-41.2	21.8	0.00e+00	6	39	0	831520768	52	6587
2026-01-01 19:35:06.46	333.15	11.62	-40.1	-41.1	21.8	0.00e+00	92	39	0	833617920	52	6532
2026-01-01 19:35:07.73	332.93	11.57	-40.0	-41.1	21.9	0.00e+00	12	39	0	835715072	52	6491
2026-01-01 19:35:08.45	332.81	11.54	-40.1	-41.2	21.8	0.00e+00	91	39	0	836763648	52	6548
2026-01-01 19:35:09.75	332.59	11.48	-40.2	-41.4	21.7	0.00e+00	12	39	0	839909376	52	6699
2026-01-01 19:35:10.47	332.47	11.45	-40.3	-41.4	21.7	0.00e+00	92	39	0	840957952	52	6747
2026-01-01 19:35:11.77	332.25	11.40	-40.3	-41.4	21.6	0.00e+00	0	39	0	843055104	52	6730
2026-01-01 19:35:12.49	332.13	11.37	-40.4	-41.5	21.3	0.00e+00	0	39	0	845152256	52	6846
2026-01-01 19:35:13.79	331.92	11.31	-40.6	-41.8	21.3	0.00e+00	92	39	0	847249408	52	7018
2026-01-01 19:35:14.51	331.80	11.28	-40.5	-41.7	21.4	0.00e+00	2	39	0	848297984	52	6956
2026-01-01 19:35:15.81	331.58	11.23	-40.7	-41.9	21.1	0.00e+00	92	39	0	850395136	54	6352
2026-01-01 19:35:16.53	331.46	11.20	-40.7	-41.9	21.1	0.00e+00	11	39	0	852492288	54	6367
2026-01-01 19:35:17.83	331.25	11.14	-41.1	-42.4	20.7	0.00e+00	74	39	0	854589440	54	6709
2026-01-01 19:35:18.55	331.13	11.11	-41.1	-42.3	20.7	0.00e+00	0	39	0	855638016	54	6648
2026-01-01 19:35:19.85	330.92	11.06	-41.2	-42.5	20.7	0.00e+00	80	39	0	858783744	54	6830
2026-01-01 19:35:20.57	330.80	11.03	-41.3	-42.6	20.5	0.00e+00	0	39	0	859832320	54	6866
2026-01-01 19:35:21.87	330.59	10.97	-41.5	-42.8	20.3	0.00e+00	0	39	0	861929472	54	7019
2026-01-01 19:35:22.59	330.48	10.94	-41.6	-42.9	20.4	0.00e+00	12	39	0	864026624	54	7159
2026-01-01 19:35:23.89	330.27	10.88	-41.5	-42.8	20.3	0.00e+00	0	39	0	866123776	54	7031
2026-01-01 19:35:24.61	330.15	10.85	-41.5	-42.9	20.4	0.00e+00	90	39	0	867172352	54	7117
2026-01-01 19:35:25.91	329.94	10.79	-41.4	-42.7	20.3	0.00e+00	0	39	0	870318080	54	6997
2026-01-01 19:35:26.63	329.83	10.76	-41.4	-42.7	20.5	0.00e+00	24	39	0	871366656	54	6979
2026-01-01 19:35:27.92	329.62	10.71	-41.5	-42.9	20.2	0.00e+00	0	39	0	873463808	54	7103
2026-01-01 19:35:28.65	329.50	10.67	-41.6	-42.9	20.1	0.00e+00	75	39	0	874512384	54	7125
2026-01-01 19:35:29.95	329.30	10.62	-41.5	-42.8	20.2	0.00e+00	92	39	0	877658112	54	7045
2026-01-01 19:35:30.67	329.18	10.58	-41.6	-42.9	20.1	0.00e+00	0	39	0	878706688	54	7160
2026-01-01 19:35:31.96	328.98	10.53	-41.5	-42.8	20.2	0.00e+00	10	39	0	880803840	54	7071
2026-01-01 19:35:32.69	328.87	10.49	-41.4	-42.8	20.3	0.00e+00	6	39	0	882900992	54	7008
2026-01-01 19:35:33.99	328.66	10.44	-41.7	-43.1	20.0	0.00e+00	12	39	0	884998144	56	6486
2026-01-01 19:35:34.71	328.55	10.40	-41.8	-43.2	19.8	0.00e+00	0	39	0	886046720	56	6598
2026-01-01 19:35:36.01	328.35	10.35	-42.0	-43.4	19.7	0.00e+00	74	39	0	889192448	56	6755
2026-01-01 19:35:36.73	328.24	10.31	-42.1	-43.5	19.6	0.00e+00	0	39	0	890241024	56	6847
2026-01-01 19:35:38.03	328.04	10.25	-42.2	-43.7	19.6	0.00e+00	0	39	0	892338176	56	6935
2026-01-01 19:35:38.75	327.92	10.22	-42.3	-43.8	19.5	0.00e+00	89	39	0	894435328	56	7069
2026-01-01 19:35:40.05	327.72	10.16	-42.4	-43.9	19.4	0.00e+00	69	39	0	896532480	56	7111
2026-01-01 19:35:40.77	327.61	10.13	-42.1	-43.6	19.6	0.00e+00	92	39	0	897581056	56	6904
2026-01-01 19:35:42.06	327.42	10.07	-42.1	-43.6	19.6	0.00e+00	70	39	0	899678208	56	6851
2026-01-01 19:35:42.79	327.31	10.04	-42.3	-43.8	19.4	0.00e+00	4	39	0	901775360	56	7036
2026-01-01 19:35:44.08	327.11	9.98	-41.9	-43.3	19.8	0.00e+00	90	39	0	903872512	56	6675
2026-01-01 19:35:44.81	327.00	9.94	-42.1	-43.6	19.6	0.00e+00	7	39	0	904921088	56	6852
2026-01-01 19:35:46.11	326.80	9.88	-42.0	-43.5	19.7	0.00e+00	92	39	0	908066816	56	6783
2026-01-01 19:35:46.83	326.70	9.85	-42.2	-43.6	19.5	0.00e+00	75	39	0	909115392	56	6922
2026-01-01 19:35:48.12	326.50	9.79	-42.2	-43.7	19.5	0.00e+00	0	39	0	911212544	56	6928
2026-01-01 19:35:48.85	326.39	9.76	-42.2	-43.7	19.4	0.00e+00	0	39	0	913309696	56	6944
2026-01-01 19:35:50.15	326.20	9.70	-42.2	-43.6	19.4	0.00e+00	11	39	0	915406848	56	6927
2026-01-01 19:35:50.87	326.09	9.66	-42.3	-43.8	19.3	0.00e+00	75	39	0	916455424	56	7067
2026-01-01 19:35:52.17	325.90	9.60	-42.4	-43.9	19.2	0.00e+00	2	39	0	918552576	56	7151
2026-01-01 19:35:52.89	325.80	9.57	-42.4	-44.0	19.1	0.00e+00	0	39	0	920649728	56	7171
2026-01-01 19:35:54.18	325.61	9.51	-42.5	-44.0	19.1	0.00e+00	70	39	0	922746880	56	7226
2026-01-01 19:35:54.90	325.50	9.47	-42.4	-44.0	19.2	0.00e+00	92	39	0	923795456	56	7199
2026-01-01 19:35:56.20	325.31	9.41	-42.6	-44.2	19.0	0.00e+00	12	39	0	926941184	56	7393
2026-01-01 19:35:56.92	325.21	9.38	-42.4	-44.0	19.2	0.00e+00	91	39	0	927989760	56	7197
2026-01-01 19:35:58.22	325.02	9.32	-42.2	-43.6	19.4	0.00e+00	11	39	0	930086912	56	6905
2026-01-01 19:35:58.94	324.92	9.28	-42.4	-43.9	19.2	0.00e+00	6	39	0	932184064	56	7139
2026-01-01 19:36:00.24	324.73	9.22	-42.3	-43.8	19.3	0.00e+00	92	39	0	934281216	56	7026
2026-01-01 19:36:00.96	324.63	9.19	-42.2	-43.7	19.5	0.00e+00	12	39	0	935329792	56	6955
2026-01-01 19:36:02.26	324.44	9.12	-42.3	-43.9	19.2	0.00e+00	90	39	0	938475520	56	7110
2026-01-01 19:36:02.98	324.34	9.09	-42.5	-44.0	19.1	0.00e+00	11	39	0	939524096	56	7244
2026-01-01 19:36:04.28	324.15	9.03	-42.3	-43.8	19.3	0.00e+00	0	39	0	941621248	56	7021
2026-01-01 19:36:05.00	324.05	8.99	-42.3	-43.8	19.3	0.00e+00	71	39	0	942669824	56	7046
2026-01-01 19:36:06.30	323.87	8.93	-42.3	-43.8	19.3	0.00e+00	0	39	0	945815552	56	7076
2026-01-01 19:36:07.02	323.77	8.90	-42.3	-43.8	19.3	0.00e+00	72	39	0	946864128	56	7066
2026-01-01 19:36:08.32	323.58	8.83	-42.1	-43.6	19.5	0.00e+00	14	39	0	948961280	56	6894
2026-01-01 19:36:09.04	323.48	8.80	-42.1	-43.5	19.6	0.00e+00	81	39	0	951058432	56	6831
2026-01-01 19:36:10.34	323.30	8.74	-42.0	-43.4	19.7	0.00e+00	0	39	0	953155584	56	6743
2026-01-01 19:36:11.06	323.20	8.70	-41.9	-43.3	19.8	0.00e+00	90	39	0	954204160	56	6657
2026-01-01 19:36:12.36	323.02	8.64	-41.8	-43.2	19.9	0.00e+00	0	39	0	957349888	56	6566
2026-01-01 19:36:13.08	322.93	8.60	-41.9	-43.4	19.8	0.00e+00	92	39	0	958398464	56	6693
2026-01-01 19:36:14.38	322.75	8.54	-41.9	-43.3	19.8	0.00e+00	12	39	0	960495616	56	6636
2026-01-01 19:36:15.10	322.65	8.51	-41.9	-43.3	19.9	0.00e+00	0	39	0	962592768	56	6646
2026-01-01 19:36:16.40	322.47	8.44	-41.9	-43.3	19.9	0.00e+00	92	39	0	964689920	56	6631
2026-01-01 19:36:17.12	322.37	8.41	-41.7	-43.1	19.9	0.00e+00	0	39	0	965738496	56	6496
2026-01-01 19:36:18.42	322.20	8.34	-41.8	-43.2	19.9	0.00e+00	92	39	0	967835648	56	6595
2026-01-01 19:36:19.14	322.10	8.31	-41.8	-43.2	19.9	0.00e+00	3	39	0	969932800	56	6560
2026-01-01 19:36:20.44	321.93	8.25	-41.8	-43.2	19.8	0.00e+00	0	39	0	972029952	56	6562
2026-01-01 19:36:21.16	321.83	8.21	-41.6	-43.0	19.9	0.00e+00	11	39	0	973078528	56	6443
2026-01-01 19:36:22.46	321.66	8.15	-41.7	-43.1	19.7	0.00e+00	0	39	0	976224256	56	6535
2026-01-01 19:36:23.18	321.56	8.11	-41.8	-43.3	19.3	0.00e+00	0	39	0	977272832	56	6645
2026-01-01 19:36:24.48	321.39	8.05	-41.3	-43.0	18.5	0.00e+00	0	39	0	979369984	56	6394
2026-01-01 19:36:25.20	321.29	8.01	-41.1	-42.8	18.1	0.00e+00	92	39	0	981467136	56	6316
2026-01-01 19:36:26.49	321.12	7.95	-41.0	-42.9	17.7	0.00e+00	0	39	0	983564288	56	6344
2026-01-01 19:36:27.21	321.03	7.91	-40.9	-42.7	18.1	0.00e+00	92	39	0	984612864	56	6199
2026-01-01 19:36:28.51	320.86	7.85	-41.2	-42.7	19.4	0.00e+00	0	39	0	986710016	56	6217
2026-01-01 19:36:29.23	320.77	7.81	-41.2	-42.6	19.7	0.00e+00	0	39	0	988807168	56	6130
2026-01-01 19:36:30.53	320.60	7.75	-41.1	-42.5	20.4	0.00e+00	91	39	0	990904320	56	6051
2026-01-01 19:36:31.26	320.50	7.71	-41.0	-42.3	20.6	0.00e+00	0	39	0	991952896	56	5944
2026-01-01 19:36:32.55	320.34	7.65	-40.9	-42.2	20.7	0.00e+00	91	39	0	995098624	56	5842
2026-01-01 19:36:33.27	320.24	7.61	-41.0	-42.3	20.7	0.00e+00	0	39	0	996147200	56	5900
2026-01-01 19:36:34.57	320.08	7.55	-40.9	-42.1	20.8	0.00e+00	0	39	0	998244352	56	5784
2026-01-01 19:36:35.30	319.98	7.51	-40.9	-42.1	20.8	0.00e+00	0	39	0	1000341504	56	5817
2026-01-01 19:36:36.59	319.82	7.45	-40.9	-42.1	20.9	0.00e+00	4	39	0	1002438656	56	5788
2026-01-01 19:36:37.31	319.73	7.41	-40.7	-41.9	20.9	0.00e+00	0	39	0	1003487232	54	6388
2026-01-01 19:36:38.61	319.57	7.35	-40.6	-41.8	21.0	0.00e+00	77	39	0	1006632960	54	6316
2026-01-01 19:36:39.34	319.47	7.31	-40.6	-41.8	21.0	0.00e+00	0	39	0	1007681536	54	6303
2026-01-01 19:36:40.63	319.31	7.25	-40.6	-41.8	21.0	0.00e+00	0	39	0	1009778688	54	6293
2026-01-01 19:36:41.36	319.22	7.21	-40.8	-42.0	20.9	0.00e+00	92	39	0	1010827264	54	6424
2026-01-01 19:36:42.66	319.06	7.15	-40.4	-41.5	21.2	0.00e+00	0	39	0	1013972992	54	6078
2026-01-01 19:36:43.38	318.97	7.11	-40.3	-41.5	21.3	0.00e+00	0	39	0	1015021568	54	6071
2026-01-01 19:36:44.68	318.81	7.05	-40.4	-41.5	21.2	0.00e+00	0	39	0	1017118720	54	6101
2026-01-01 19:36:45.40	318.72	7.01	-40.2	-41.4	21.2	0.00e+00	70	39	0	1019215872	54	5977
2026-01-01 19:36:46.70	318.56	6.95	-40.3	-41.5	21.2	0.00e+00	90	39	0	1021313024	54	6057
2026-01-01 19:36:47.42	318.47	6.91	-40.3	-41.4	21.1	0.00e+00	0	39	0	1022361600	54	6026
2026-01-01 19:36:48.72	318.32	6.84	-40.3	-41.4	21.4	0.00e+00	92	39	0	1025507328	54	5999
2026-01-01 19:36:49.44	318.23	6.81	-40.1	-41.3	21.4	0.00e+00	78	39	0	1026555904	54	5916
2026-01-01 19:36:50.74	318.07	6.74	-40.2	-41.4	21.4	0.00e+00	9	39	0	1028653056	54	5969
2026-01-01 19:36:51.46	317.98	6.71	-40.0	-41.2	21.5	0.00e+00	2	39	0	1030750208	54	5839
2026-01-01 19:36:52.76	317.83	6.64	-40.1	-41.3	21.5	0.00e+00	7	39	0	1032847360	54	5907
2026-01-01 19:36:53.48	317.74	6.61	-40.2	-41.3	21.1	0.00e+00	0	39	0	1033895936	54	5939
2026-01-01 19:36:54.77	317.59	6.54	-40.0	-41.1	21.3	0.00e+00	77	39	0	1037041664	54	5828
2026-01-01 19:36:55.50	317.50	6.50	-40.1	-41.2	21.5	0.00e+00	92	39	0	1038090240	54	5884
2026-01-01 19:36:56.79	317.35	6.44	-40.1	-41.2	21.5	0.00e+00	74	39	0	1040187392	54	5851
2026-01-01 19:36:57.52	317.26	6.40	-40.2	-41.4	21.4	0.00e+00	92	39	0	1041235968	54	5972
2026-01-01 19:36:58.81	317.11	6.34	-40.2	-41.4	21.4	0.00e+00	76	39	0	1044381696	54	5992
2026-01-01 19:36:59.54	317.03	6.30	-40.1	-41.2	21.3	0.00e+00	0	39	0	1045430272	54	5886
2026-01-01 19:37:00.84	316.87	6.24	-40.2	-41.4	21.2	0.00e+00	69	39	0	1047527424	54	5993
2026-01-01 19:37:01.56	316.79	6.20	-40.4	-41.6	21.1	0.00e+00	10	39	0	1049624576	54	6128
2026-01-01 19:37:02.86	316.64	6.13	-40.5	-41.7	20.9	0.00e+00	92	39	0	1051721728	54	6225
2026-01-01 19:37:03.58	316.56	6.10	-40.5	-41.7	20.9	0.00e+00	3	39	0	1052770304	54	6234
2026-01-01 19:37:04.88	316.41	6.03	-40.5	-41.7	21.1	0.00e+00	92	39	0	1055916032	54	6187
2026-01-01 19:37:05.60	316.32	6.00	-40.4	-41.5	21.1	0.00e+00	78	39	0	1056964608	54	6102
2026-01-01 19:37:06.90	316.18	5.93	-40.6	-41.8	21.0	0.00e+00	0	39	0	1059061760	54	6257
2026-01-01 19:37:07.62	316.09	5.90	-40.6	-41.8	20.9	0.00e+00	0	39	0	1060110336	54	6313
2026-01-01 19:37:08.92	315.95	5.83	-40.6	-41.8	20.9	0.00e+00	6	39	0	1063256064	54	6297
2026-01-01 19:37:09.64	315.87	5.79	-40.7	-41.9	20.8	0.00e+00	0	39	0	1064304640	54	6366
2026-01-01 19:37:10.94	315.72	5.73	-40.4	-41.7	20.9	0.00e+00	3	39	0	1066401792	54	6175
2026-01-01 19:37:11.66	315.64	5.69	-40.4	-41.6	21.0	0.00e+00	92	39	0	1068498944	54	6128
2026-01-01 19:37:12.96	315.49	5.63	-40.3	-41.5	21.2	0.00e+00	9	39	0	1070596096	54	6090
2026-01-01 19:37:13.68	315.41	5.59	-40.4	-41.7	21.0	0.00e+00	91	39	0	1071644672	54	6186
2026-01-01 19:37:14.98	315.27	5.52	-40.5	-41.7	20.9	0.00e+00	0	39	0	1074790400	54	6234
2026-01-01 19:37:15.70	315.19	5.49	-40.3	-41.4	21.2	0.00e+00	0	39	0	1075838976	54	6022
2026-01-01 19:37:17.00	315.05	5.42	-40.6	-41.8	20.8	0.00e+00	72	39	0	1077936128	54	6265
2026-01-01 19:37:17.72	314.97	5.39	-40.6	-41.8	20.8	0.00e+00	9	39	0	1080033280	54	6272
2026-01-01 19:37:19.02	314.82	5.32	-40.8	-42.1	20.6	0.00e+00	92	39	0	1082130432	54	6486
2026-01-01 19:37:19.74	314.75	5.28	-40.7	-42.0	20.6	0.00e+00	5	39	0	1083179008	54	6439
2026-01-01 19:37:21.04	314.61	5.22	-41.0	-42.3	20.4	0.00e+00	71	39	0	1085276160	54	6659
2026-01-01 19:37:21.76	314.53	5.18	-40.9	-42.2	20.4	0.00e+00	0	39	0	1087373312	54	6581
2026-01-01 19:37:23.06	314.39	5.12	-40.7	-42.0	20.6	0.00e+00	2	39	0	1089470464	54	6410
2026-01-01 19:37:23.78	314.31	5.08	-40.7	-42.0	20.6	0.00e+00	5	39	0	1090519040	54	6437
2026-01-01 19:37:25.08	314.17	5.02	-40.7	-42.0	20.7	0.00e+00	0	39	0	1093664768	54	6449
2026-01-01 19:37:25.80	314.09	4.98	-40.8	-42.0	20.4	0.00e+00	0	39	0	1094713344	54	6464
2026-01-01 19:37:27.10	313.96	4.91	-40.8	-42.1	20.5	0.00e+00	3	39	0	1096810496	54	6517
2026-01-01 19:37:27.82	313.88	4.88	-40.7	-42.0	20.5	0.00e+00	92	39	0	1098907648	54	6442
2026-01-01 19:37:29.12	313.74	4.81	-40.7	-41.9	20.6	0.00e+00	0	39	0	1101004800	54	6369
2026-01-01 19:37:29.84	313.67	4.78	-40.7	-42.0	20.5	0.00e+00	92	39	0	1102053376	54	6443
2026-01-01 19:37:31.14	313.53	4.71	-40.7	-41.9	20.6	0.00e+00	2	39	0	1105199104	54	6382
2026-01-01 19:37:31.86	313.46	4.67	-40.6	-41.9	20.7	0.00e+00	80	39	0	1106247680	54	6352
2026-01-01 19:37:33.15	313.32	4.61	-40.8	-42.1	20.5	0.00e+00	90	39	0	1108344832	54	6486
2026-01-01 19:37:33.88	313.25	4.57	-40.8	-42.1	20.4	0.00e+00	6	39	0	1109393408	54	6539
2026-01-01 19:37:35.18	313.11	4.51	-40.6	-41.9	20.5	0.00e+00	92	39	0	1112539136	54	6365
2026-01-01 19:37:35.89	313.04	4.47	-40.7	-42.0	20.5	0.00e+00	6	39	0	1113587712	54	6418
2026-01-01 19:37:37.19	312.91	4.40	-40.7	-42.0	20.5	0.00e+00	78	39	0	1115684864	54	6412
2026-01-01 19:37:37.91	312.83	4.37	-40.9	-42.2	20.2	0.00e+00	0	39	0	1117782016	54	6596
2026-01-01 19:37:39.21	312.70	4.30	-41.1	-42.5	19.9	0.00e+00	0	39	0	1119879168	54	6828
2026-01-01 19:37:39.93	312.63	4.27	-40.9	-42.2	20.2	0.00e+00	6	39	0	1120927744	54	6600
2026-01-01 19:37:41.23	312.49	4.20	-41.1	-42.5	20.0	0.00e+00	0	39	0	1124073472	54	6790
2026-01-01 19:37:41.95	312.42	4.17	-41.2	-42.6	19.8	0.00e+00	0	39	0	1125122048	54	6851
2026-01-01 19:37:43.25	312.29	4.10	-41.4	-42.9	19.6	0.00e+00	74	39	0	1127219200	54	7104
2026-01-01 19:37:43.97	312.22	4.06	-41.4	-42.8	19.6	0.00e+00	92	39	0	1128267776	54	7057
2026-01-01 19:37:45.27	312.09	4.00	-41.5	-43.0	19.4	0.00e+00	0	39	0	1131413504	54	7203
2026-01-01 19:37:45.99	312.02	3.96	-41.3	-42.8	19.8	0.00e+00	74	39	0	1132462080	54	7012
2026-01-01 19:37:47.29	311.89	3.90	-41.8	-43.3	19.2	0.00e+00	92	39	0	1134559232	54	7475
2026-01-01 19:37:48.01	311.82	3.86	-41.6	-43.0	19.3	0.00e+00	7	39	0	1136656384	56	6451
2026-01-01 19:37:49.31	311.69	3.80	-41.8	-43.4	19.2	0.00e+00	92	39	0	1138753536	56	6705
2026-01-01 19:37:50.03	311.62	3.76	-41.7	-43.2	19.4	0.00e+00	72	39	0	1139802112	56	6574
2026-01-01 19:37:51.33	311.49	3.69	-41.6	-43.1	19.2	7.00e-07	92	39	0	1142947840	56	6531
2026-01-01 19:37:52.05	311.42	3.66	-41.6	-43.1	19.3	0.00e+00	76	39	0	1143996416	56	6512
2026-01-01 19:37:53.35	311.30	3.59	-41.7	-43.2	19.0	0.00e+00	8	39	0	1146093568	56	6606
2026-01-01 19:37:54.07	311.23	3.56	-41.9	-43.5	18.9	0.00e+00	74	39	0	1147142144	56	6805
2026-01-01 19:37:55.37	311.10	3.49	-41.8	-43.3	19.1	0.00e+00	0	39	0	1150287872	56	6655
2026-01-01 19:37:56.09	311.04	3.46	-41.7	-43.3	19.0	0.00e+00	0	39	0	1151336448	56	6641
2026-01-01 19:37:57.39	310.91	3.39	-41.8	-43.4	19.0	0.00e+00	73	39	0	1153433600	56	6720
2026-01-01 19:37:58.11	310.84	3.35	-42.0	-43.5	18.9	0.00e+00	91	39	0	1155530752	56	6844
2026-01-01 19:37:59.41	310.72	3.29	-42.0	-43.6	18.8	0.00e+00	74	39	0	1157627904	56	6904
2026-01-01 19:38:00.13	310.65	3.25	-42.2	-43.8	18.5	0.00e+00	92	39	0	1158676480	56	7072
2026-01-01 19:38:01.43	310.53	3.19	-42.5	-44.3	18.1	0.00e+00	0	39	0	1161822208	56	7424
2026-01-01 19:38:02.15	310.46	3.15	-42.4	-44.2	18.1	0.00e+00	3	39	0	1162870784	56	7373
2026-01-01 19:38:03.45	310.34	3.09	-42.2	-43.8	18.5	0.00e+00	92	39	0	1164967936	56	7082
2026-01-01 19:38:04.17	310.27	3.05	-42.0	-43.7	18.5	0.00e+00	79	39	0	1167065088	56	6975
2026-01-01 19:38:05.47	310.15	2.99	-42.2	-43.9	18.0	0.00e+00	92	39	0	1169162240	56	7169
2026-01-01 19:38:06.19	310.09	2.95	-48.6	-63.6	3.6	6.71e-01	0	39	104	1169162240	60	54872
2026-01-01 19:38:07.49	309.97	2.89	-49.1	-64.3	3.6	1.51e+00	0	39	104	1169162240	60	59168
2026-01-01 19:38:08.21	309.90	2.85	-49.3	-64.5	3.6	1.51e+00	0	39	104	1169162240	60	60742
2026-01-01 19:38:09.51	309.78	2.78	-49.5	-64.6	3.6	1.51e+00	0	39	104	1169162240	60	61522
2026-01-01 19:38:10.23	309.72	2.75	-49.5	-64.7	3.6	1.51e+00	0	39	104	1169162240	60	61984
2026-01-01 19:38:11.53	309.60	2.68	-49.6	-64.7	3.6	1.51e+00	0	39	104	1169162240	60	62210
2026-01-01 19:38:12.25	309.53	2.65	-49.6	-64.8	3.6	1.51e+00	0	39	104	1169162240	60	62649
2026-01-01 19:38:13.55	309.42	2.58	-49.6	-64.8	3.6	1.51e+00	0	39	104	1169162240	60	63079
2026-01-01 19:38:14.27	309.35	2.55	-49.6	-64.8	3.6	1.51e+00	0	39	104	1169162240	60	62741
2026-01-01 19:38:15.57	309.23	2.48	-49.4	-64.8	3.6	1.51e+00	0	39	104	1169162240	60	62503
2026-01-01 19:38:16.29	309.17	2.45	-49.2	-64.8	3.6	1.51e+00	0	39	104	1169162240	60	62556
2026-01-01 19:38:17.59	309.05	2.38	-49.3	-64.7	3.6	1.51e+00	0	39	104	1169162240	60	62088
