passes_logs/2026/01/01/R4.6S_Anadyr/R4.6S_Anadyr__20260101_172659_SUOMI_NPP_rec.log

#Pass ID: 20260101_172659_SUOMI NPP
#Satellite: SUOMI NPP
#Configuration: NPP
#almurnet v.1.7.20251203
#Start time: 2026-01-01 17:27:02

#Version: 2.2.20231116
#Station: R4.6S_Anadyr
#Location: 177.4865 lon 64.73178 lat
#TLE: 1 37849U 11061A   25364.87906318  .00000195  00000+0  11345-3 0  9993
#TLE: 2 37849  98.7794 302.0592 0002571  89.2401 270.9069 14.19520347734561

#Time	Az	El	Level	Level2	SNR	BER	BlckErr	Temp	State	Recorded	gain1	gain2
2026-01-01 17:27:02.37	31.45	0.14	-49.0	-60.7	3.5	8.44e-01	0	36	0	0	60	39175
2026-01-01 17:27:03.37	31.39	0.19	-49.2	-64.4	3.6	1.51e+00	0	37	104	0	60	60196
2026-01-01 17:27:04.38	31.33	0.24	-49.2	-64.4	3.6	1.51e+00	0	37	104	0	60	60217
2026-01-01 17:27:05.39	31.27	0.30	-49.2	-64.4	3.6	1.51e+00	0	37	104	0	60	59708
2026-01-01 17:27:06.40	31.22	0.35	-49.2	-64.4	3.6	1.51e+00	0	37	104	0	60	60227
2026-01-01 17:27:07.41	31.16	0.41	-49.2	-64.4	3.6	1.51e+00	0	38	104	0	60	60137
2026-01-01 17:27:08.42	31.10	0.46	-49.2	-64.4	3.6	1.51e+00	0	38	104	0	60	60199
2026-01-01 17:27:09.43	31.04	0.52	-49.2	-64.4	3.6	1.51e+00	0	38	104	0	60	59810
2026-01-01 17:27:10.44	30.98	0.57	-49.1	-64.4	3.6	1.51e+00	0	38	104	0	60	59651
2026-01-01 17:27:11.45	30.92	0.62	-49.1	-64.2	3.6	1.51e+00	0	38	104	0	60	58885
2026-01-01 17:27:12.46	30.86	0.68	-48.9	-64.1	3.6	1.51e+00	0	38	104	0	60	57925
2026-01-01 17:27:13.47	30.79	0.73	-48.9	-64.1	3.6	1.51e+00	0	38	104	0	60	57708
2026-01-01 17:27:14.48	30.73	0.79	-48.8	-64.0	3.6	1.51e+00	0	38	104	0	60	57063
2026-01-01 17:27:15.49	30.67	0.84	-48.6	-63.8	3.6	1.51e+00	0	38	104	0	60	55962
2026-01-01 17:27:16.50	30.61	0.90	-48.4	-63.6	3.6	1.51e+00	0	38	104	0	60	54868
2026-01-01 17:27:17.51	30.55	0.95	-48.0	-63.2	3.6	1.51e+00	0	38	104	0	60	52077
2026-01-01 17:27:18.52	30.49	1.01	-47.7	-62.9	3.6	1.51e+00	0	38	104	0	60	50623
2026-01-01 17:27:19.53	30.42	1.06	-47.7	-62.8	3.6	1.51e+00	0	38	104	0	60	50146
2026-01-01 17:27:20.54	30.36	1.12	-47.7	-62.8	3.6	1.51e+00	0	38	104	0	60	50108
2026-01-01 17:27:21.55	30.30	1.17	-47.7	-62.8	3.6	1.51e+00	0	38	104	0	60	49850
2026-01-01 17:27:22.56	30.24	1.23	-47.7	-62.9	3.6	1.51e+00	0	38	104	0	60	50246
2026-01-01 17:27:23.57	30.17	1.29	-47.7	-62.8	3.6	1.51e+00	0	38	104	0	60	49813
2026-01-01 17:27:24.58	30.11	1.34	-47.7	-62.8	3.6	1.51e+00	0	38	104	0	60	49728
2026-01-01 17:27:25.59	30.05	1.40	-47.7	-62.8	3.6	1.51e+00	0	38	104	0	60	49877
2026-01-01 17:27:26.60	29.98	1.45	-47.7	-62.8	3.6	1.51e+00	0	38	104	0	60	49991
2026-01-01 17:27:27.61	29.92	1.51	-47.7	-62.8	3.6	1.51e+00	0	38	104	0	60	49939
2026-01-01 17:27:28.62	29.85	1.56	-47.7	-62.8	3.6	1.51e+00	0	38	104	0	60	49937
2026-01-01 17:27:29.63	29.79	1.62	-47.7	-62.8	3.6	1.51e+00	0	38	104	0	60	49919
2026-01-01 17:27:30.64	29.72	1.68	-47.7	-62.8	3.6	1.51e+00	0	38	104	0	60	49988
2026-01-01 17:27:31.65	29.66	1.73	-47.7	-62.8	3.6	1.51e+00	0	38	104	0	60	49674
2026-01-01 17:27:32.66	29.59	1.79	-47.7	-62.8	3.6	1.51e+00	0	38	104	0	60	49744
2026-01-01 17:27:33.67	29.53	1.84	-47.7	-62.8	3.6	1.51e+00	0	38	104	0	60	50160
2026-01-01 17:27:34.68	29.46	1.90	-47.7	-62.8	3.6	1.51e+00	0	38	104	0	60	50124
2026-01-01 17:27:35.69	29.39	1.96	-47.7	-62.8	3.6	1.51e+00	0	38	104	0	60	50049
2026-01-01 17:27:36.70	29.33	2.01	-47.7	-62.8	3.6	1.51e+00	0	38	104	0	60	49762
2026-01-01 17:27:37.71	29.26	2.07	-47.7	-62.7	3.6	1.51e+00	0	38	104	0	60	49394
2026-01-01 17:27:38.72	29.19	2.13	-47.6	-62.5	3.6	1.51e+00	0	38	104	0	60	48273
2026-01-01 17:27:39.73	29.13	2.18	-47.6	-62.3	3.6	1.51e+00	0	38	104	0	60	47163
2026-01-01 17:27:40.74	29.06	2.24	-47.6	-62.4	3.6	1.51e+00	0	38	104	0	60	47464
2026-01-01 17:27:41.75	28.99	2.30	-47.6	-62.4	3.6	1.51e+00	0	38	104	0	60	47765
2026-01-01 17:27:42.76	28.92	2.35	-47.6	-62.5	3.6	1.51e+00	0	38	104	0	60	48240
2026-01-01 17:27:43.77	28.85	2.41	-47.6	-62.7	3.6	1.51e+00	0	38	104	0	60	49316
2026-01-01 17:27:44.78	28.78	2.47	-47.6	-62.8	3.6	1.51e+00	0	38	104	0	60	50073
2026-01-01 17:27:45.79	28.72	2.52	-47.6	-62.9	3.6	1.51e+00	0	38	104	0	60	50226
2026-01-01 17:27:46.80	28.65	2.58	-47.6	-62.8	3.6	1.51e+00	0	38	104	0	60	49807
2026-01-01 17:27:47.81	28.58	2.64	-47.6	-62.8	3.6	1.51e+00	0	38	104	0	60	49932
2026-01-01 17:27:48.82	28.51	2.70	-47.6	-62.8	3.6	1.51e+00	0	38	104	0	60	50008
2026-01-01 17:27:49.83	28.44	2.75	-47.6	-62.7	3.6	1.51e+00	0	38	104	0	60	49362
2026-01-01 17:27:50.84	28.37	2.81	-47.6	-62.4	3.6	1.51e+00	0	38	104	0	60	47540
2026-01-01 17:27:51.85	28.30	2.87	-47.6	-62.0	3.5	1.51e+00	0	38	104	0	60	45633
2026-01-01 17:27:52.86	28.22	2.93	-47.6	-61.9	3.6	1.51e+00	0	38	104	0	60	44846
2026-01-01 17:27:53.87	28.15	2.98	-47.6	-61.9	3.6	1.51e+00	0	38	104	0	60	45022
2026-01-01 17:27:54.88	28.08	3.04	-47.6	-62.5	3.6	1.51e+00	0	38	104	0	60	48293
2026-01-01 17:27:55.89	28.01	3.10	-47.6	-61.9	3.6	1.51e+00	0	38	104	0	60	44782
2026-01-01 17:27:56.90	27.94	3.16	-47.5	-59.4	4.0	1.50e+00	0	38	104	0	60	33579
2026-01-01 17:27:57.91	27.86	3.21	-47.2	-55.9	5.1	1.15e+00	72	38	0	0	60	22592
2026-01-01 17:27:58.92	27.79	3.27	-46.7	-53.3	7.7	2.40e-01	0	38	0	2097152	60	16618
2026-01-01 17:27:59.93	27.72	3.33	-46.6	-52.7	8.5	5.13e-02	36	38	0	4194304	60	15595
2026-01-01 17:28:00.94	27.64	3.39	-47.6	-60.2	3.7	1.13e-01	0	38	104	5242880	60	36859
2026-01-01 17:28:01.95	27.57	3.45	-47.7	-62.6	3.6	1.50e+00	0	38	104	5242880	60	48683
2026-01-01 17:28:02.96	27.50	3.51	-46.6	-53.4	8.0	1.43e+00	2	38	104	5242880	60	16883
2026-01-01 17:28:03.97	27.42	3.56	-42.7	-44.7	17.0	6.80e-06	0	38	0	5242880	58	6990
2026-01-01 17:28:04.98	27.35	3.62	-47.5	-62.0	3.6	2.20e-01	0	38	104	6291456	60	45513
2026-01-01 17:28:05.99	27.27	3.68	-44.0	-46.8	15.1	1.05e+00	0	38	104	6291456	60	7868
2026-01-01 17:28:07.00	27.20	3.74	-43.3	-45.6	16.1	0.00e+00	89	38	0	6291456	60	6876
2026-01-01 17:28:08.01	27.12	3.80	-43.5	-45.9	15.7	0.00e+00	0	38	0	8388608	60	7145
2026-01-01 17:28:09.02	27.05	3.86	-42.8	-44.9	17.1	0.00e+00	0	38	0	10485760	60	6324
2026-01-01 17:28:10.03	26.97	3.92	-42.5	-44.5	17.1	0.00e+00	0	38	0	12582912	58	6833
2026-01-01 17:28:11.04	26.89	3.98	-43.0	-45.2	16.7	0.00e+00	0	38	0	14680064	58	7348
2026-01-01 17:28:12.05	26.82	4.03	-42.6	-44.6	17.2	0.00e+00	77	38	0	15728640	58	6906
2026-01-01 17:28:13.06	26.74	4.09	-42.1	-44.0	17.8	0.00e+00	0	38	0	17825792	58	6412
2026-01-01 17:28:14.07	26.66	4.15	-42.1	-44.0	17.9	0.00e+00	4	38	0	19922944	58	6421
2026-01-01 17:28:15.08	26.58	4.21	-42.2	-44.1	17.8	0.00e+00	0	38	0	22020096	58	6475
2026-01-01 17:28:16.09	26.50	4.27	-42.5	-44.4	17.5	0.00e+00	0	38	0	24117248	58	6757
2026-01-01 17:28:17.10	26.43	4.33	-42.3	-44.1	18.0	0.00e+00	0	38	0	25165824	58	6515
2026-01-01 17:28:18.11	26.35	4.39	-42.0	-43.7	18.2	0.00e+00	0	38	0	27262976	58	6216
2026-01-01 17:28:19.12	26.27	4.45	-42.0	-43.8	18.1	0.00e+00	89	38	0	29360128	58	6291
2026-01-01 17:28:20.13	26.19	4.51	-41.8	-43.4	18.5	0.00e+00	0	38	0	31457280	58	6027
2026-01-01 17:28:21.13	26.11	4.57	-41.8	-43.5	18.3	0.00e+00	92	38	0	33554432	56	6816
2026-01-01 17:28:22.15	26.03	4.63	-42.0	-43.8	18.3	0.00e+00	0	38	0	34603008	56	7013
2026-01-01 17:28:23.15	25.95	4.69	-41.8	-43.4	18.5	0.00e+00	0	38	0	36700160	56	6759
2026-01-01 17:28:24.16	25.87	4.75	-41.9	-43.6	18.4	0.00e+00	22	38	0	38797312	56	6862
2026-01-01 17:28:25.17	25.78	4.81	-41.8	-43.4	18.6	0.00e+00	0	38	0	40894464	56	6726
2026-01-01 17:28:26.18	25.70	4.87	-41.7	-43.3	18.8	0.00e+00	53	38	0	42991616	56	6621
2026-01-01 17:28:27.19	25.62	4.93	-41.8	-43.4	18.6	0.00e+00	21	38	0	44040192	56	6737
2026-01-01 17:28:28.20	25.54	4.99	-41.8	-43.4	18.6	0.00e+00	92	38	0	46137344	56	6738
2026-01-01 17:28:29.21	25.46	5.05	-41.6	-43.2	18.8	0.00e+00	0	38	0	48234496	56	6542
2026-01-01 17:28:30.22	25.37	5.11	-41.5	-43.0	19.1	0.00e+00	70	38	0	50331648	56	6462
2026-01-01 17:28:31.23	25.29	5.17	-41.6	-43.1	18.8	0.00e+00	0	38	0	52428800	56	6524
2026-01-01 17:28:32.24	25.21	5.23	-41.3	-42.8	19.1	0.00e+00	0	38	0	54525952	56	6259
2026-01-01 17:28:33.25	25.12	5.29	-41.3	-42.8	19.1	0.00e+00	18	38	0	55574528	56	6272
2026-01-01 17:28:34.26	25.04	5.35	-41.4	-42.9	19.1	0.00e+00	0	38	0	57671680	56	6386
2026-01-01 17:28:35.27	24.95	5.41	-41.5	-43.0	19.0	0.00e+00	45	38	0	59768832	56	6448
2026-01-01 17:28:36.28	24.87	5.48	-41.6	-43.2	18.9	0.00e+00	0	38	0	61865984	56	6566
2026-01-01 17:28:37.28	24.78	5.54	-41.4	-42.9	19.2	0.00e+00	25	38	0	63963136	56	6344
2026-01-01 17:28:38.30	24.69	5.60	-41.6	-43.2	18.9	0.00e+00	0	38	0	65011712	56	6581
2026-01-01 17:28:39.31	24.61	5.66	-41.5	-43.1	19.2	0.00e+00	0	38	0	67108864	56	6483
2026-01-01 17:28:40.31	24.52	5.72	-41.6	-43.1	19.0	0.00e+00	18	39	0	69206016	56	6520
2026-01-01 17:28:41.32	24.43	5.78	-41.7	-43.3	18.9	0.00e+00	0	39	0	71303168	56	6643
2026-01-01 17:28:42.33	24.35	5.84	-41.5	-43.0	19.2	0.00e+00	17	38	0	73400320	56	6423
2026-01-01 17:28:43.34	24.26	5.90	-41.7	-43.4	18.9	0.00e+00	0	39	0	74448896	56	6700
2026-01-01 17:28:44.35	24.17	5.97	-41.7	-43.4	18.7	0.00e+00	92	38	0	76546048	56	6695
2026-01-01 17:28:45.36	24.08	6.03	-41.7	-43.2	18.9	0.00e+00	0	39	0	78643200	56	6611
2026-01-01 17:28:46.37	23.99	6.09	-41.7	-43.3	18.8	0.00e+00	0	38	0	80740352	56	6650
2026-01-01 17:28:47.38	23.90	6.15	-41.7	-43.4	18.8	0.00e+00	13	38	0	82837504	56	6703
2026-01-01 17:28:48.39	23.81	6.21	-41.8	-43.5	18.7	0.00e+00	0	38	0	83886080	56	6772
2026-01-01 17:28:49.40	23.72	6.28	-41.8	-43.4	18.8	0.00e+00	71	39	0	85983232	56	6743
2026-01-01 17:28:50.41	23.63	6.34	-41.9	-43.5	18.8	0.00e+00	0	39	0	88080384	56	6804
2026-01-01 17:28:51.42	23.54	6.40	-42.0	-43.7	18.5	0.00e+00	92	38	0	90177536	56	6969
2026-01-01 17:28:52.43	23.45	6.46	-41.9	-43.5	18.7	0.00e+00	0	39	0	92274688	56	6815
2026-01-01 17:28:53.44	23.36	6.52	-42.1	-43.8	18.6	0.00e+00	0	39	0	93323264	56	7085
2026-01-01 17:28:54.45	23.26	6.59	-41.8	-43.4	18.9	0.00e+00	0	39	0	95420416	56	6766
2026-01-01 17:28:55.46	23.17	6.65	-42.0	-43.7	18.8	0.00e+00	0	39	0	97517568	56	6944
2026-01-01 17:28:56.46	23.08	6.71	-41.9	-43.6	18.7	0.00e+00	61	39	0	99614720	56	6899
2026-01-01 17:28:57.47	22.99	6.77	-42.1	-43.8	18.5	0.00e+00	0	39	0	101711872	56	7039
2026-01-01 17:28:58.48	22.89	6.84	-41.9	-43.6	18.7	0.00e+00	37	39	0	102760448	56	6873
2026-01-01 17:28:59.49	22.80	6.90	-42.0	-43.7	18.7	0.00e+00	0	39	0	104857600	56	6972
2026-01-01 17:29:00.50	22.70	6.96	-41.7	-43.3	19.0	0.00e+00	0	39	0	106954752	56	6639
2026-01-01 17:29:01.51	22.61	7.03	-41.6	-43.1	19.2	0.00e+00	0	39	0	109051904	56	6497
2026-01-01 17:29:02.52	22.51	7.09	-41.5	-43.1	19.3	0.00e+00	0	39	0	111149056	56	6473
2026-01-01 17:29:03.53	22.41	7.15	-41.4	-42.8	19.5	0.00e+00	18	39	0	112197632	56	6316
2026-01-01 17:29:04.54	22.32	7.21	-41.1	-42.5	19.6	0.00e+00	0	39	0	114294784	56	6096
2026-01-01 17:29:05.55	22.22	7.28	-41.2	-42.6	19.6	0.00e+00	92	39	0	116391936	56	6152
2026-01-01 17:29:06.56	22.12	7.34	-41.2	-42.6	19.7	0.00e+00	0	39	0	118489088	56	6144
2026-01-01 17:29:07.57	22.03	7.40	-41.0	-42.3	19.9	0.00e+00	0	39	0	120586240	56	5955
2026-01-01 17:29:08.58	21.93	7.47	-40.8	-42.1	20.2	0.00e+00	0	39	0	121634816	56	5797
2026-01-01 17:29:09.58	21.83	7.53	-40.9	-42.2	19.9	0.00e+00	0	39	0	123731968	54	6595
2026-01-01 17:29:10.59	21.73	7.59	-40.7	-42.0	20.2	0.00e+00	0	39	0	125829120	54	6461
2026-01-01 17:29:11.60	21.63	7.66	-40.7	-42.0	20.2	0.00e+00	0	39	0	127926272	54	6420
2026-01-01 17:29:12.61	21.53	7.72	-40.8	-42.1	20.1	0.00e+00	53	39	0	130023424	54	6529
2026-01-01 17:29:13.62	21.43	7.79	-40.4	-41.7	20.4	0.00e+00	0	39	0	131072000	54	6203
2026-01-01 17:29:14.63	21.33	7.85	-40.4	-41.6	20.5	0.00e+00	44	39	0	133169152	54	6168
2026-01-01 17:29:15.64	21.23	7.91	-40.4	-41.6	20.5	0.00e+00	0	39	0	135266304	54	6124
2026-01-01 17:29:16.65	21.12	7.98	-40.3	-41.5	20.6	0.00e+00	0	39	0	137363456	54	6098
2026-01-01 17:29:17.66	21.02	8.04	-40.4	-41.7	20.5	0.00e+00	0	39	0	139460608	54	6219
2026-01-01 17:29:18.67	20.92	8.11	-40.5	-41.7	20.4	0.00e+00	0	38	0	140509184	54	6228
2026-01-01 17:29:19.68	20.82	8.17	-40.5	-41.8	20.4	0.00e+00	35	39	0	142606336	54	6248
2026-01-01 17:29:20.69	20.71	8.24	-40.4	-41.7	20.5	0.00e+00	0	39	0	144703488	54	6210
2026-01-01 17:29:21.70	20.61	8.30	-40.5	-41.8	20.4	0.00e+00	85	39	0	146800640	54	6299
2026-01-01 17:29:22.71	20.50	8.36	-40.5	-41.8	20.4	0.00e+00	0	39	0	148897792	54	6259
2026-01-01 17:29:23.72	20.40	8.43	-40.6	-41.8	20.4	0.00e+00	0	39	0	150994944	54	6311
2026-01-01 17:29:24.73	20.29	8.49	-40.5	-41.8	20.3	0.00e+00	0	39	0	152043520	54	6247
2026-01-01 17:29:25.74	20.19	8.56	-40.6	-41.8	20.3	0.00e+00	0	39	0	154140672	54	6315
2026-01-01 17:29:26.74	20.08	8.62	-40.5	-41.7	20.4	0.00e+00	18	39	0	156237824	54	6241
2026-01-01 17:29:27.75	19.97	8.69	-40.9	-42.3	20.1	0.00e+00	0	39	0	158334976	54	6630
2026-01-01 17:29:28.76	19.86	8.75	-40.6	-41.9	20.4	0.00e+00	92	39	0	160432128	54	6361
2026-01-01 17:29:29.77	19.76	8.82	-40.6	-41.9	20.3	0.00e+00	0	39	0	161480704	54	6358
2026-01-01 17:29:30.78	19.65	8.88	-40.6	-41.9	20.3	0.00e+00	0	39	0	163577856	54	6350
2026-01-01 17:29:31.79	19.54	8.95	-40.6	-41.9	20.2	0.00e+00	0	39	0	165675008	54	6381
2026-01-01 17:29:32.80	19.43	9.01	-40.8	-42.1	20.3	0.00e+00	0	39	0	167772160	54	6482
2026-01-01 17:29:33.81	19.32	9.08	-41.1	-42.5	19.8	0.00e+00	19	39	0	169869312	54	6778
2026-01-01 17:29:34.82	19.21	9.14	-41.0	-42.4	20.0	0.00e+00	0	39	0	170917888	54	6694
2026-01-01 17:29:35.83	19.10	9.21	-41.3	-42.7	19.8	0.00e+00	92	39	0	173015040	54	6987
2026-01-01 17:29:36.84	18.98	9.27	-40.8	-42.1	20.2	0.00e+00	0	39	0	175112192	54	6529
2026-01-01 17:29:37.85	18.87	9.34	-40.9	-42.2	20.1	0.00e+00	0	39	0	177209344	54	6599
2026-01-01 17:29:38.86	18.76	9.41	-40.8	-42.2	20.2	0.00e+00	0	39	0	179306496	54	6567
2026-01-01 17:29:39.86	18.65	9.47	-40.8	-42.1	20.1	0.00e+00	0	39	0	180355072	54	6523
2026-01-01 17:29:40.87	18.53	9.54	-41.0	-42.3	19.8	0.00e+00	51	39	0	182452224	54	6677
2026-01-01 17:29:41.88	18.42	9.60	-40.9	-42.2	20.2	0.00e+00	0	39	0	184549376	54	6607
2026-01-01 17:29:42.89	18.30	9.67	-40.7	-42.0	20.3	0.00e+00	92	39	0	186646528	54	6418
2026-01-01 17:29:43.90	18.19	9.73	-40.7	-42.0	20.2	0.00e+00	0	39	0	188743680	54	6450
2026-01-01 17:29:44.90	18.07	9.80	-40.6	-41.8	20.2	0.00e+00	92	39	0	189792256	54	6306
2026-01-01 17:29:45.91	17.96	9.87	-40.7	-41.9	20.0	0.00e+00	0	39	0	191889408	54	6387
2026-01-01 17:29:46.92	17.84	9.93	-40.8	-42.1	20.1	0.00e+00	0	39	0	193986560	54	6533
2026-01-01 17:29:47.93	17.72	10.00	-40.7	-42.0	20.3	0.00e+00	21	39	0	196083712	54	6396
2026-01-01 17:29:48.94	17.60	10.06	-41.0	-42.3	20.1	0.00e+00	0	39	0	198180864	54	6689
2026-01-01 17:29:49.95	17.48	10.13	-40.8	-42.1	20.3	0.00e+00	92	39	0	199229440	54	6478
2026-01-01 17:29:50.96	17.36	10.20	-40.6	-41.8	20.5	0.00e+00	0	39	0	201326592	54	6315
2026-01-01 17:29:51.97	17.24	10.26	-40.8	-42.1	20.3	0.00e+00	92	39	0	203423744	54	6471
2026-01-01 17:29:52.98	17.12	10.33	-40.5	-41.7	20.6	0.00e+00	0	39	0	205520896	54	6222
2026-01-01 17:29:53.99	17.00	10.40	-40.4	-41.6	20.8	0.00e+00	0	39	0	207618048	54	6126
2026-01-01 17:29:55.00	16.88	10.46	-40.5	-41.8	20.6	0.00e+00	0	39	0	208666624	54	6276
2026-01-01 17:29:56.01	16.76	10.53	-40.6	-41.9	20.5	0.00e+00	0	39	0	210763776	54	6331
2026-01-01 17:29:57.02	16.64	10.60	-40.9	-42.3	20.2	0.00e+00	69	39	0	212860928	54	6643
2026-01-01 17:29:58.03	16.51	10.66	-40.9	-42.2	20.3	0.00e+00	0	39	0	214958080	54	6571
2026-01-01 17:29:59.04	16.39	10.73	-40.8	-42.2	20.3	0.00e+00	8	39	0	217055232	54	6548
2026-01-01 17:30:00.05	16.26	10.80	-40.7	-42.0	20.5	0.00e+00	0	39	0	219152384	54	6413
2026-01-01 17:30:01.05	16.14	10.86	-40.4	-41.7	20.7	0.00e+00	0	39	0	220200960	54	6175
2026-01-01 17:30:02.06	16.01	10.93	-40.5	-41.7	20.7	0.00e+00	0	39	0	222298112	54	6230
2026-01-01 17:30:03.07	15.89	11.00	-40.6	-41.9	20.4	0.00e+00	0	39	0	224395264	54	6377
2026-01-01 17:30:04.08	15.76	11.06	-40.4	-41.6	20.7	0.00e+00	78	39	0	226492416	54	6170
2026-01-01 17:30:05.10	15.63	11.13	-40.6	-41.9	20.6	0.00e+00	19	39	0	228589568	54	6360
2026-01-01 17:30:06.10	15.51	11.20	-40.6	-41.9	20.6	0.00e+00	68	39	0	229638144	54	6319
2026-01-01 17:30:07.11	15.38	11.27	-40.4	-41.6	20.7	0.00e+00	0	39	0	231735296	54	6150
2026-01-01 17:30:08.12	15.25	11.33	-40.4	-41.7	20.7	0.00e+00	0	39	0	233832448	54	6200
2026-01-01 17:30:09.13	15.12	11.40	-40.5	-41.7	20.6	0.00e+00	0	39	0	235929600	54	6239
2026-01-01 17:30:10.14	14.99	11.47	-40.4	-41.6	20.8	0.00e+00	0	39	0	238026752	54	6167
2026-01-01 17:30:11.15	14.86	11.53	-40.2	-41.4	21.0	0.00e+00	17	39	0	239075328	54	6019
2026-01-01 17:30:12.16	14.73	11.60	-39.9	-41.0	21.1	0.00e+00	0	39	0	241172480	54	5758
2026-01-01 17:30:13.17	14.59	11.67	-40.1	-41.3	21.2	0.00e+00	88	39	0	243269632	54	5925
2026-01-01 17:30:14.18	14.46	11.74	-39.9	-41.1	21.2	0.00e+00	0	39	0	245366784	54	5802
2026-01-01 17:30:15.19	14.33	11.80	-39.8	-40.9	21.3	0.00e+00	47	39	0	247463936	54	5675
2026-01-01 17:30:16.20	14.19	11.87	-39.7	-40.8	21.5	0.00e+00	0	39	0	248512512	52	6281
2026-01-01 17:30:17.21	14.06	11.94	-39.9	-41.1	21.3	0.00e+00	0	39	0	250609664	52	6471
2026-01-01 17:30:18.22	13.92	12.01	-40.0	-41.1	21.1	0.00e+00	10	39	0	252706816	52	6520
2026-01-01 17:30:19.23	13.79	12.07	-39.9	-41.1	21.2	0.00e+00	0	39	0	254803968	52	6488
2026-01-01 17:30:20.23	13.65	12.14	-40.0	-41.2	21.1	0.00e+00	45	39	0	256901120	52	6599
2026-01-01 17:30:21.24	13.51	12.21	-39.9	-41.1	21.2	0.00e+00	0	39	0	257949696	52	6501
2026-01-01 17:30:22.26	13.37	12.28	-39.8	-41.0	21.4	0.00e+00	89	39	0	260046848	52	6410
2026-01-01 17:30:23.26	13.24	12.34	-39.7	-40.8	21.5	0.00e+00	0	39	0	262144000	52	6280
2026-01-01 17:30:24.27	13.10	12.41	-39.5	-40.6	21.6	0.00e+00	0	39	0	264241152	52	6164
2026-01-01 17:30:25.28	12.96	12.48	-39.6	-40.8	21.5	0.00e+00	0	39	0	266338304	52	6248
2026-01-01 17:30:26.29	12.82	12.55	-39.7	-40.8	21.4	0.00e+00	0	39	0	267386880	52	6317
2026-01-01 17:30:27.30	12.67	12.61	-39.7	-40.8	21.4	0.00e+00	90	39	0	269484032	52	6303
2026-01-01 17:30:28.31	12.53	12.68	-39.9	-41.0	21.3	0.00e+00	0	39	0	271581184	52	6460
2026-01-01 17:30:29.32	12.39	12.75	-39.9	-41.1	21.3	0.00e+00	92	39	0	273678336	52	6468
2026-01-01 17:30:30.33	12.25	12.82	-40.1	-41.3	21.2	0.00e+00	0	39	0	275775488	52	6641
2026-01-01 17:30:31.34	12.10	12.89	-40.1	-41.3	21.1	0.00e+00	0	39	0	276824064	52	6621
2026-01-01 17:30:32.35	11.96	12.95	-40.1	-41.3	21.1	0.00e+00	0	39	0	278921216	52	6637
2026-01-01 17:30:33.36	11.81	13.02	-39.9	-41.1	21.2	0.00e+00	0	39	0	281018368	52	6472
2026-01-01 17:30:34.37	11.67	13.09	-40.2	-41.4	20.6	0.00e+00	78	39	0	283115520	52	6727
2026-01-01 17:30:35.38	11.52	13.16	-39.9	-41.1	21.1	0.00e+00	0	39	0	285212672	52	6476
2026-01-01 17:30:36.39	11.37	13.22	-40.0	-41.2	21.2	0.00e+00	90	39	0	287309824	52	6598
2026-01-01 17:30:37.40	11.22	13.29	-40.0	-41.2	21.2	0.00e+00	0	39	0	288358400	52	6551
2026-01-01 17:30:38.41	11.07	13.36	-40.1	-41.3	21.2	0.00e+00	0	39	0	290455552	52	6666
2026-01-01 17:30:39.42	10.93	13.43	-40.3	-41.5	20.9	0.00e+00	0	39	0	292552704	52	6845
2026-01-01 17:30:40.43	10.77	13.50	-40.2	-41.4	21.0	0.00e+00	0	39	0	294649856	52	6693
2026-01-01 17:30:41.44	10.62	13.56	-40.1	-41.3	21.2	0.00e+00	67	39	0	296747008	52	6630
2026-01-01 17:30:42.45	10.47	13.63	-40.0	-41.1	21.3	0.00e+00	0	39	0	297795584	52	6535
2026-01-01 17:30:43.46	10.32	13.70	-40.0	-41.1	21.3	0.00e+00	92	39	0	299892736	52	6507
2026-01-01 17:30:44.47	10.17	13.77	-40.1	-41.2	21.3	0.00e+00	0	39	0	301989888	52	6602
2026-01-01 17:30:45.47	10.01	13.83	-39.6	-40.7	21.7	0.00e+00	0	39	0	304087040	52	6185
2026-01-01 17:30:46.48	9.86	13.90	-39.7	-40.8	21.5	0.00e+00	0	39	0	306184192	52	6285
2026-01-01 17:30:47.49	9.70	13.97	-39.8	-40.9	21.4	0.00e+00	0	39	0	307232768	52	6383
2026-01-01 17:30:48.50	9.55	14.04	-39.8	-40.9	21.4	0.00e+00	25	39	0	309329920	52	6374
2026-01-01 17:30:49.51	9.39	14.10	-39.7	-40.8	21.6	0.00e+00	0	39	0	311427072	52	6257
2026-01-01 17:30:50.52	9.23	14.17	-39.8	-41.0	21.5	0.00e+00	92	39	0	313524224	52	6391
2026-01-01 17:30:51.53	9.08	14.24	-39.9	-41.0	21.4	0.00e+00	0	39	0	315621376	52	6457
2026-01-01 17:30:52.54	8.92	14.31	-40.0	-41.1	21.3	0.00e+00	0	39	0	316669952	52	6515
2026-01-01 17:30:53.56	8.76	14.38	-40.4	-41.7	20.9	0.00e+00	0	39	0	318767104	52	6936
2026-01-01 17:30:54.56	8.60	14.44	-40.5	-41.8	20.6	0.00e+00	0	39	0	320864256	52	7018
2026-01-01 17:30:55.57	8.44	14.51	-40.8	-42.1	20.5	0.00e+00	17	39	0	322961408	54	6517
2026-01-01 17:30:56.59	8.27	14.58	-40.7	-42.0	20.5	0.00e+00	0	39	0	325058560	54	6421
2026-01-01 17:30:57.60	8.11	14.64	-40.7	-42.0	20.6	0.00e+00	90	39	0	326107136	54	6424
2026-01-01 17:30:58.60	7.95	14.71	-40.6	-41.9	20.6	0.00e+00	0	39	0	328204288	54	6350
2026-01-01 17:30:59.61	7.78	14.78	-40.7	-41.9	20.7	0.00e+00	92	39	0	330301440	54	6352
2026-01-01 17:31:00.62	7.62	14.85	-40.3	-41.5	21.0	0.00e+00	0	39	0	332398592	54	6034
2026-01-01 17:31:01.63	7.45	14.91	-40.3	-41.5	20.9	0.00e+00	0	39	0	334495744	54	6101
2026-01-01 17:31:02.64	7.29	14.98	-40.2	-41.4	21.0	0.00e+00	0	39	0	335544320	54	6002
2026-01-01 17:31:03.64	7.12	15.05	-40.3	-41.5	21.0	0.00e+00	0	39	0	337641472	54	6068
2026-01-01 17:31:04.65	6.95	15.11	-40.1	-41.3	21.0	0.00e+00	91	39	0	339738624	54	5933
2026-01-01 17:31:05.66	6.79	15.18	-40.5	-41.7	20.9	0.00e+00	0	39	0	341835776	54	6231
2026-01-01 17:31:06.67	6.62	15.25	-40.4	-41.6	20.9	0.00e+00	90	39	0	343932928	54	6156
2026-01-01 17:31:07.68	6.45	15.31	-40.7	-42.0	20.7	0.00e+00	0	39	0	344981504	54	6396
2026-01-01 17:31:08.69	6.27	15.38	-40.4	-41.7	20.8	0.00e+00	0	39	0	347078656	54	6184
2026-01-01 17:31:09.70	6.10	15.45	-40.6	-41.8	20.7	0.00e+00	0	39	0	349175808	54	6311
2026-01-01 17:31:10.71	5.93	15.51	-40.3	-41.6	20.9	0.00e+00	0	39	0	351272960	54	6116
2026-01-01 17:31:11.73	5.76	15.58	-39.9	-41.0	21.3	0.00e+00	70	39	0	353370112	54	5759
2026-01-01 17:31:12.73	5.58	15.65	-39.9	-41.0	21.4	0.00e+00	0	39	0	355467264	52	6462
2026-01-01 17:31:13.74	5.41	15.71	-39.9	-41.0	21.4	0.00e+00	92	39	0	356515840	52	6464
2026-01-01 17:31:14.75	5.23	15.78	-39.8	-40.9	21.6	0.00e+00	0	39	0	358612992	52	6354
2026-01-01 17:31:15.76	5.06	15.84	-40.1	-41.3	21.3	0.00e+00	0	39	0	360710144	52	6636
2026-01-01 17:31:16.77	4.88	15.91	-40.3	-41.5	21.0	0.00e+00	0	39	0	362807296	52	6822
2026-01-01 17:31:17.78	4.70	15.98	-40.5	-41.7	20.9	0.00e+00	0	39	0	363855872	52	6991
2026-01-01 17:31:18.79	4.52	16.04	-40.3	-41.5	21.0	0.00e+00	52	39	0	365953024	52	6846
2026-01-01 17:31:19.80	4.34	16.11	-40.3	-41.6	20.9	0.00e+00	0	39	0	368050176	52	6863
2026-01-01 17:31:20.81	4.16	16.17	-40.3	-41.5	21.0	0.00e+00	75	39	0	370147328	52	6830
2026-01-01 17:31:21.82	3.98	16.24	-40.2	-41.4	21.0	0.00e+00	0	39	0	372244480	52	6751
2026-01-01 17:31:22.83	3.80	16.30	-40.3	-41.6	20.9	0.00e+00	0	39	0	373293056	52	6868
2026-01-01 17:31:23.84	3.61	16.37	-40.5	-41.8	20.8	0.00e+00	0	39	0	375390208	52	7052
2026-01-01 17:31:24.84	3.43	16.43	-40.7	-42.0	20.7	0.00e+00	2	39	0	377487360	54	6398
2026-01-01 17:31:25.85	3.25	16.50	-40.6	-41.9	20.7	0.00e+00	22	39	0	379584512	54	6351
2026-01-01 17:31:26.86	3.06	16.56	-40.4	-41.7	20.9	0.00e+00	0	39	0	381681664	54	6185
2026-01-01 17:31:27.87	2.88	16.63	-40.6	-41.9	20.9	0.00e+00	38	39	0	383778816	54	6352
2026-01-01 17:31:28.88	2.69	16.69	-40.2	-41.4	21.2	0.00e+00	0	39	0	384827392	54	5966
2026-01-01 17:31:29.89	2.50	16.75	-39.7	-40.8	21.7	0.00e+00	65	39	0	386924544	52	6300
2026-01-01 17:31:30.90	2.31	16.82	-39.5	-40.6	21.8	0.00e+00	0	39	0	389021696	52	6114
2026-01-01 17:31:31.91	2.12	16.88	-39.3	-40.4	22.0	0.00e+00	0	39	0	391118848	52	6012
2026-01-01 17:31:32.92	1.93	16.95	-39.4	-40.5	21.9	0.00e+00	24	39	0	393216000	52	6087
2026-01-01 17:31:33.92	1.74	17.01	-39.5	-40.6	21.9	0.00e+00	0	39	0	394264576	52	6147
2026-01-01 17:31:34.93	1.55	17.07	-39.3	-40.4	22.0	0.00e+00	92	39	0	396361728	52	5997
2026-01-01 17:31:35.94	1.36	17.14	-39.5	-40.6	21.9	0.00e+00	0	39	0	398458880	52	6163
2026-01-01 17:31:36.95	1.17	17.20	-39.3	-40.4	22.1	0.00e+00	92	39	0	400556032	52	5971
2026-01-01 17:31:37.96	0.97	17.26	-39.2	-40.3	22.2	0.00e+00	0	39	0	402653184	52	5904
2026-01-01 17:31:38.97	0.78	17.33	-38.9	-40.0	22.3	0.00e+00	0	39	0	403701760	52	5709
2026-01-01 17:31:39.98	0.58	17.39	-38.5	-39.5	22.8	0.00e+00	0	39	0	405798912	50	6057
2026-01-01 17:31:40.99	0.38	17.45	-38.6	-39.6	22.7	0.00e+00	0	39	0	407896064	50	6104
2026-01-01 17:31:42.00	0.19	17.51	-38.7	-39.7	22.6	0.00e+00	67	39	0	409993216	50	6237
2026-01-01 17:31:43.01	359.99	17.58	-38.8	-39.8	22.3	0.00e+00	0	39	0	412090368	50	6261
2026-01-01 17:31:44.02	359.79	17.64	-38.7	-39.7	22.5	0.00e+00	46	39	0	413138944	50	6219
2026-01-01 17:31:45.03	359.59	17.70	-38.5	-39.5	22.7	0.00e+00	0	39	0	415236096	50	6053
2026-01-01 17:31:46.04	359.39	17.76	-38.4	-39.3	22.9	0.00e+00	0	39	0	417333248	50	5952
2026-01-01 17:31:47.05	359.19	17.82	-38.2	-39.2	23.0	0.00e+00	0	39	0	419430400	50	5833
2026-01-01 17:31:48.06	358.98	17.88	-38.2	-39.1	23.1	0.00e+00	0	39	0	421527552	50	5809
2026-01-01 17:31:49.07	358.78	17.94	-38.1	-39.0	23.2	0.00e+00	81	39	0	422576128	50	5742
2026-01-01 17:31:50.08	358.58	18.00	-38.1	-39.1	23.1	0.00e+00	0	39	0	424673280	50	5771
2026-01-01 17:31:51.09	358.37	18.06	-38.5	-39.4	22.8	0.00e+00	86	39	0	426770432	50	6032
2026-01-01 17:31:52.10	358.16	18.12	-38.5	-39.5	22.9	0.00e+00	0	39	0	428867584	50	6042
2026-01-01 17:31:53.11	357.96	18.18	-38.4	-39.4	22.9	0.00e+00	0	39	0	430964736	50	5986
2026-01-01 17:31:54.12	357.75	18.24	-38.0	-38.9	23.2	0.00e+00	0	39	0	432013312	50	5667
2026-01-01 17:31:55.13	357.54	18.30	-37.8	-38.7	23.3	0.00e+00	13	39	0	434110464	50	5557
2026-01-01 17:31:56.14	357.33	18.36	-37.6	-38.5	23.4	0.00e+00	19	39	0	436207616	48	6073
2026-01-01 17:31:57.15	357.12	18.42	-37.6	-38.5	23.4	0.00e+00	0	39	0	438304768	48	6095
2026-01-01 17:31:58.16	356.91	18.48	-37.8	-38.7	23.4	0.00e+00	92	39	0	440401920	48	6196
2026-01-01 17:31:59.17	356.70	18.54	-37.8	-38.7	23.4	0.00e+00	0	39	0	441450496	48	6191
2026-01-01 17:32:00.18	356.49	18.60	-38.0	-38.9	23.2	0.00e+00	19	39	0	443547648	48	6365
2026-01-01 17:32:01.19	356.27	18.65	-38.0	-38.9	23.2	0.00e+00	0	39	0	445644800	48	6355
2026-01-01 17:32:02.20	356.06	18.71	-37.7	-38.6	23.4	0.00e+00	14	39	0	447741952	48	6161
2026-01-01 17:32:03.21	355.84	18.77	-37.6	-38.6	23.4	0.00e+00	0	39	0	449839104	48	6122
2026-01-01 17:32:04.22	355.63	18.83	-37.7	-38.6	23.5	0.00e+00	0	39	0	451936256	48	6126
2026-01-01 17:32:05.23	355.41	18.88	-37.6	-38.5	23.5	0.00e+00	90	39	0	452984832	48	6055
2026-01-01 17:32:06.24	355.19	18.94	-37.9	-38.9	23.2	0.00e+00	0	39	0	455081984	48	6342
2026-01-01 17:32:07.25	354.98	18.99	-38.0	-39.0	23.1	0.00e+00	36	39	0	457179136	48	6448
2026-01-01 17:32:08.26	354.76	19.05	-38.1	-39.1	23.1	0.00e+00	0	39	0	459276288	48	6482
2026-01-01 17:32:09.27	354.54	19.11	-38.0	-39.0	22.7	0.00e+00	0	39	0	461373440	48	6403
2026-01-01 17:32:10.28	354.32	19.16	-37.9	-38.9	23.1	0.00e+00	0	39	0	462422016	48	6349
2026-01-01 17:32:11.29	354.10	19.22	-37.6	-38.5	23.5	0.00e+00	0	39	0	464519168	48	6093
2026-01-01 17:32:12.30	353.87	19.27	-37.6	-38.5	23.6	0.00e+00	92	39	0	466616320	48	6058
2026-01-01 17:32:13.31	353.65	19.32	-37.8	-38.7	23.4	0.00e+00	0	39	0	468713472	48	6223
2026-01-01 17:32:14.31	353.43	19.38	-37.8	-38.7	23.5	0.00e+00	91	39	0	470810624	48	6240
2026-01-01 17:32:15.33	353.20	19.43	-38.0	-38.9	23.2	0.00e+00	0	39	0	471859200	48	6372
2026-01-01 17:32:16.34	352.98	19.48	-38.4	-39.4	22.9	0.00e+00	0	39	0	473956352	48	6744
2026-01-01 17:32:17.35	352.75	19.54	-38.5	-39.5	22.8	0.00e+00	0	39	0	476053504	48	6805
2026-01-01 17:32:18.36	352.52	19.59	-38.3	-39.3	23.0	0.00e+00	0	39	0	478150656	48	6653
2026-01-01 17:32:19.37	352.29	19.64	-37.8	-38.7	23.4	0.00e+00	21	39	0	480247808	48	6204
2026-01-01 17:32:20.38	352.07	19.69	-37.7	-38.6	23.4	0.00e+00	0	39	0	481296384	48	6168
2026-01-01 17:32:21.39	351.84	19.74	-37.6	-38.5	23.7	0.00e+00	88	39	0	483393536	48	6053
2026-01-01 17:32:22.40	351.61	19.79	-37.7	-38.6	23.4	0.00e+00	0	39	0	485490688	48	6157
2026-01-01 17:32:23.41	351.37	19.85	-37.6	-38.5	23.6	0.00e+00	0	39	0	487587840	48	6046
2026-01-01 17:32:24.42	351.14	19.90	-37.5	-38.4	23.6	0.00e+00	0	39	0	489684992	48	5973
2026-01-01 17:32:25.43	350.91	19.95	-37.5	-38.4	23.6	0.00e+00	0	39	0	490733568	48	6012
2026-01-01 17:32:26.43	350.68	19.99	-37.4	-38.3	23.9	0.00e+00	17	39	0	492830720	48	5903
2026-01-01 17:32:27.44	350.45	20.04	-37.0	-37.8	24.2	0.00e+00	0	39	0	494927872	48	5592
2026-01-01 17:32:28.45	350.21	20.09	-37.0	-37.8	24.1	0.00e+00	76	39	0	497025024	48	5594
2026-01-01 17:32:29.46	349.98	20.14	-36.8	-37.7	24.2	0.00e+00	0	39	0	499122176	48	5507
2026-01-01 17:32:30.47	349.74	20.19	-36.9	-37.7	24.1	0.00e+00	0	39	0	500170752	48	5538
2026-01-01 17:32:31.47	349.50	20.23	-37.2	-38.1	23.9	0.00e+00	0	39	0	502267904	48	5798
2026-01-01 17:32:32.48	349.27	20.28	-37.4	-38.3	23.7	0.00e+00	0	39	0	504365056	48	5945
2026-01-01 17:32:33.49	349.03	20.33	-37.5	-38.4	23.7	0.00e+00	17	39	0	506462208	48	5984
2026-01-01 17:32:34.50	348.79	20.37	-37.3	-38.2	23.8	0.00e+00	0	39	0	508559360	48	5863
2026-01-01 17:32:35.51	348.55	20.42	-37.1	-37.9	24.0	0.00e+00	84	39	0	509607936	48	5685
2026-01-01 17:32:36.52	348.31	20.46	-37.0	-37.8	24.1	0.00e+00	0	39	0	511705088	48	5587
2026-01-01 17:32:37.53	348.07	20.51	-37.0	-37.8	24.0	0.00e+00	79	39	0	513802240	48	5610
2026-01-01 17:32:38.54	347.82	20.55	-37.3	-38.2	23.8	0.00e+00	0	39	0	515899392	48	5844
2026-01-01 17:32:39.55	347.58	20.60	-37.4	-38.3	23.7	0.00e+00	0	39	0	517996544	48	5914
2026-01-01 17:32:40.55	347.34	20.64	-37.5	-38.4	23.7	0.00e+00	16	39	0	520093696	48	6002
2026-01-01 17:32:41.56	347.10	20.68	-37.7	-38.6	23.5	0.00e+00	0	39	0	521142272	48	6129
2026-01-01 17:32:42.57	346.85	20.72	-37.7	-38.6	23.7	0.00e+00	92	39	0	523239424	48	6126
2026-01-01 17:32:43.58	346.61	20.76	-37.3	-38.2	23.6	0.00e+00	0	39	0	525336576	48	5863
2026-01-01 17:32:44.59	346.36	20.81	-37.3	-38.2	23.3	0.00e+00	92	39	0	527433728	48	5855
2026-01-01 17:32:45.60	346.11	20.85	-37.4	-38.3	23.7	0.00e+00	0	39	0	529530880	48	5928
2026-01-01 17:32:46.61	345.87	20.89	-37.3	-38.2	23.8	0.00e+00	0	39	0	530579456	48	5875
2026-01-01 17:32:47.62	345.62	20.93	-37.5	-38.4	23.7	0.00e+00	0	39	0	532676608	48	5987
2026-01-01 17:32:48.63	345.37	20.97	-37.4	-38.3	23.7	0.00e+00	0	39	0	534773760	48	5900
2026-01-01 17:32:49.63	345.12	21.00	-37.2	-38.1	23.8	0.00e+00	92	39	0	536870912	48	5781
2026-01-01 17:32:50.64	344.87	21.04	-37.0	-37.9	24.1	0.00e+00	0	39	0	538968064	48	5639
2026-01-01 17:32:51.65	344.62	21.08	-37.1	-38.0	24.1	0.00e+00	92	39	0	540016640	48	5708
2026-01-01 17:32:52.66	344.37	21.12	-37.0	-37.8	24.0	0.00e+00	0	39	0	542113792	48	5621
2026-01-01 17:32:53.67	344.12	21.15	-37.2	-38.1	23.8	0.00e+00	0	39	0	544210944	48	5792
2026-01-01 17:32:54.68	343.86	21.19	-37.1	-37.9	23.8	0.00e+00	0	39	0	546308096	48	5690
2026-01-01 17:32:55.69	343.61	21.23	-37.2	-38.0	23.9	0.00e+00	0	39	0	548405248	48	5746
2026-01-01 17:32:56.70	343.36	21.26	-37.0	-37.9	24.1	0.00e+00	69	39	0	549453824	48	5634
2026-01-01 17:32:57.71	343.10	21.30	-37.2	-38.0	24.0	0.00e+00	0	39	0	551550976	48	5744
2026-01-01 17:32:58.72	342.85	21.33	-37.2	-38.1	23.9	0.00e+00	62	39	0	553648128	48	5775
2026-01-01 17:32:59.73	342.59	21.36	-37.4	-38.2	23.8	0.00e+00	0	39	0	555745280	48	5884
2026-01-01 17:33:00.74	342.34	21.40	-37.4	-38.2	23.7	0.00e+00	0	39	0	557842432	48	5888
2026-01-01 17:33:01.74	342.08	21.43	-37.6	-38.5	23.6	0.00e+00	0	39	0	558891008	48	6100
2026-01-01 17:33:02.75	341.83	21.46	-38.1	-39.0	23.2	0.00e+00	0	39	0	560988160	48	6464
2026-01-01 17:33:03.76	341.57	21.49	-38.5	-39.5	22.9	0.00e+00	21	39	0	563085312	48	6810
2026-01-01 17:33:04.77	341.31	21.52	-39.1	-40.2	22.2	0.00e+00	0	39	0	565182464	50	6553
2026-01-01 17:33:05.78	341.05	21.55	-39.2	-40.3	22.1	0.00e+00	91	39	0	567279616	50	6647
2026-01-01 17:33:06.79	340.79	21.58	-39.3	-40.3	22.1	0.00e+00	0	39	0	568328192	50	6685
2026-01-01 17:33:07.80	340.53	21.61	-39.1	-40.2	22.3	0.00e+00	25	39	0	570425344	50	6575
2026-01-01 17:33:08.81	340.27	21.64	-39.0	-40.1	22.4	0.00e+00	0	39	0	572522496	50	6472
2026-01-01 17:33:09.82	340.01	21.66	-39.1	-40.2	22.3	0.00e+00	11	39	0	574619648	50	6564
2026-01-01 17:33:10.83	339.75	21.69	-39.3	-40.4	22.1	0.00e+00	59	39	0	576716800	50	6756
2026-01-01 17:33:11.84	339.49	21.72	-39.5	-40.6	21.9	0.00e+00	0	39	0	577765376	50	6913
2026-01-01 17:33:12.85	339.23	21.74	-39.3	-40.4	22.0	0.00e+00	51	39	0	579862528	50	6760
2026-01-01 17:33:13.86	338.97	21.77	-39.3	-40.3	22.2	0.00e+00	0	39	0	581959680	50	6690
2026-01-01 17:33:14.87	338.70	21.79	-39.1	-40.1	22.3	0.00e+00	52	39	0	584056832	50	6521
2026-01-01 17:33:15.88	338.44	21.82	-38.9	-39.9	22.5	0.00e+00	0	39	0	586153984	50	6348
2026-01-01 17:33:16.89	338.18	21.84	-38.6	-39.6	22.8	0.00e+00	0	39	0	588251136	50	6153
2026-01-01 17:33:17.90	337.91	21.86	-38.4	-39.4	23.0	0.00e+00	0	39	0	589299712	50	5972
2026-01-01 17:33:18.91	337.65	21.88	-38.4	-39.3	23.0	0.00e+00	0	39	0	591396864	50	5960
2026-01-01 17:33:19.92	337.38	21.90	-38.6	-39.6	22.7	0.00e+00	90	39	0	593494016	50	6145
2026-01-01 17:33:20.93	337.12	21.93	-39.2	-40.3	22.2	0.00e+00	0	39	0	595591168	50	6630
2026-01-01 17:33:21.94	336.85	21.95	-39.6	-40.7	21.9	0.00e+00	59	39	0	597688320	50	6982
2026-01-01 17:33:22.95	336.59	21.97	-39.6	-40.8	21.8	0.00e+00	0	39	0	598736896	50	7050
2026-01-01 17:33:23.96	336.32	21.98	-39.6	-40.8	21.8	0.00e+00	0	39	0	600834048	52	6284
2026-01-01 17:33:24.97	336.05	22.00	-38.9	-40.0	22.4	0.00e+00	0	39	0	602931200	52	5718
2026-01-01 17:33:25.98	335.79	22.02	-38.7	-39.7	22.7	0.00e+00	0	39	0	605028352	50	6192
2026-01-01 17:33:26.99	335.52	22.04	-38.3	-39.2	23.0	0.00e+00	0	39	0	607125504	50	5892
2026-01-01 17:33:28.00	335.25	22.05	-38.4	-39.4	22.9	0.00e+00	0	39	0	608174080	50	6002
2026-01-01 17:33:29.01	334.98	22.07	-39.0	-40.0	22.4	0.00e+00	38	39	0	610271232	50	6458
2026-01-01 17:33:30.02	334.72	22.08	-39.3	-40.3	22.2	0.00e+00	0	39	0	612368384	50	6687
2026-01-01 17:33:31.02	334.45	22.10	-39.5	-40.6	21.8	0.00e+00	0	39	0	614465536	50	6887
2026-01-01 17:33:32.03	334.18	22.11	-39.5	-40.5	22.0	0.00e+00	0	39	0	616562688	50	6848
2026-01-01 17:33:33.04	333.91	22.12	-39.0	-40.0	22.5	0.00e+00	0	39	0	617611264	50	6458
2026-01-01 17:33:34.05	333.64	22.14	-38.7	-39.7	22.7	0.00e+00	83	39	0	619708416	50	6230
2026-01-01 17:33:35.06	333.38	22.15	-38.6	-39.5	22.7	0.00e+00	0	39	0	621805568	50	6087
2026-01-01 17:33:36.07	333.11	22.16	-38.6	-39.5	22.8	0.00e+00	79	39	0	623902720	50	6078
2026-01-01 17:33:37.08	332.84	22.17	-38.9	-39.9	22.5	0.00e+00	0	39	0	625999872	50	6371
2026-01-01 17:33:38.09	332.57	22.18	-39.3	-40.4	22.0	0.00e+00	0	39	0	627048448	50	6697
2026-01-01 17:33:39.10	332.30	22.19	-39.8	-40.9	21.6	0.00e+00	20	39	0	629145600	52	6349
2026-01-01 17:33:40.11	332.03	22.19	-40.2	-41.4	21.2	0.00e+00	0	39	0	631242752	52	6760
2026-01-01 17:33:41.12	331.76	22.20	-40.6	-41.9	20.9	0.00e+00	57	39	0	633339904	52	7121
2026-01-01 17:33:42.13	331.49	22.21	-40.8	-42.1	20.7	0.00e+00	10	39	0	635437056	54	6499
2026-01-01 17:33:43.15	331.21	22.21	-40.6	-41.9	20.9	0.00e+00	92	39	0	636485632	54	6365
2026-01-01 17:33:44.16	330.94	22.22	-40.6	-41.8	20.9	0.00e+00	0	39	0	638582784	54	6307
2026-01-01 17:33:45.17	330.67	22.22	-40.6	-41.8	21.0	0.00e+00	56	39	0	640679936	54	6298
2026-01-01 17:33:46.17	330.40	22.23	-40.1	-41.3	21.6	0.00e+00	9	39	0	642777088	54	5964
2026-01-01 17:33:47.19	330.13	22.23	-39.9	-41.1	21.5	0.00e+00	0	39	0	644874240	54	5796
2026-01-01 17:33:48.19	329.86	22.23	-39.7	-40.8	21.8	0.00e+00	14	39	0	645922816	52	6299
2026-01-01 17:33:49.20	329.59	22.24	-39.3	-40.4	22.1	0.00e+00	12	39	0	648019968	52	6006
2026-01-01 17:33:50.21	329.32	22.24	-39.2	-40.3	22.2	0.00e+00	92	39	0	650117120	52	5918
2026-01-01 17:33:51.22	329.05	22.24	-39.2	-40.2	22.4	0.00e+00	0	39	0	652214272	52	5856
2026-01-01 17:33:52.23	328.78	22.24	-38.9	-39.8	22.7	0.00e+00	23	39	0	654311424	52	5629
2026-01-01 17:33:53.24	328.51	22.24	-38.9	-39.9	22.7	0.00e+00	0	39	0	656408576	52	5667
2026-01-01 17:33:54.25	328.24	22.24	-38.8	-39.8	22.7	0.00e+00	0	39	0	657457152	50	6261
2026-01-01 17:33:55.26	327.97	22.23	-38.4	-39.3	22.9	0.00e+00	0	39	0	659554304	50	5953
2026-01-01 17:33:56.27	327.70	22.23	-38.3	-39.2	23.1	0.00e+00	0	39	0	661651456	50	5876
2026-01-01 17:33:57.28	327.43	22.23	-38.2	-39.2	23.2	0.00e+00	71	39	0	663748608	50	5831
2026-01-01 17:33:58.29	327.15	22.22	-38.1	-39.0	23.3	0.00e+00	0	39	0	665845760	50	5701
2026-01-01 17:33:59.30	326.88	22.22	-38.2	-39.2	23.1	0.00e+00	84	39	0	666894336	50	5832
2026-01-01 17:34:00.31	326.61	22.21	-38.5	-39.4	22.9	0.00e+00	0	39	0	668991488	50	6024
2026-01-01 17:34:01.32	326.34	22.21	-38.8	-39.8	22.5	0.00e+00	0	39	0	671088640	50	6309
2026-01-01 17:34:02.33	326.07	22.20	-39.1	-40.1	22.4	0.00e+00	0	39	0	673185792	50	6518
2026-01-01 17:34:03.34	325.80	22.19	-39.2	-40.3	22.2	0.00e+00	0	39	0	675282944	50	6655
2026-01-01 17:34:04.35	325.53	22.18	-39.3	-40.3	22.0	0.00e+00	24	39	0	676331520	50	6681
2026-01-01 17:34:05.36	325.26	22.18	-38.9	-39.9	22.4	0.00e+00	0	39	0	678428672	50	6384
2026-01-01 17:34:06.37	324.99	22.17	-38.7	-39.7	22.8	0.00e+00	69	39	0	680525824	50	6175
2026-01-01 17:34:07.38	324.72	22.16	-38.6	-39.6	22.7	0.00e+00	0	39	0	682622976	50	6142
2026-01-01 17:34:08.38	324.46	22.14	-38.3	-39.2	23.2	0.00e+00	0	39	0	684720128	50	5888
2026-01-01 17:34:09.40	324.18	22.13	-38.1	-39.0	23.2	0.00e+00	0	39	0	685768704	50	5755
2026-01-01 17:34:10.41	323.92	22.12	-38.0	-38.9	23.4	0.00e+00	0	39	0	687865856	50	5650
2026-01-01 17:34:11.42	323.65	22.11	-37.8	-38.7	23.5	0.00e+00	76	39	0	689963008	50	5551
2026-01-01 17:34:12.42	323.38	22.09	-37.9	-38.8	23.5	0.00e+00	0	39	0	692060160	50	5590
2026-01-01 17:34:13.43	323.11	22.08	-38.0	-38.9	23.3	0.00e+00	53	39	0	694157312	50	5688
2026-01-01 17:34:14.44	322.85	22.07	-38.3	-39.3	23.0	0.00e+00	0	39	0	695205888	50	5900
2026-01-01 17:34:15.45	322.58	22.05	-38.1	-39.1	23.4	0.00e+00	0	39	0	697303040	50	5782
2026-01-01 17:34:16.46	322.31	22.03	-37.8	-38.7	23.4	0.00e+00	0	39	0	699400192	48	6233
2026-01-01 17:34:17.47	322.04	22.02	-37.7	-38.6	23.6	0.00e+00	0	39	0	701497344	48	6114
2026-01-01 17:34:18.48	321.78	22.00	-37.6	-38.5	23.7	0.00e+00	16	39	0	703594496	48	6045
2026-01-01 17:34:19.49	321.51	21.98	-37.2	-38.1	24.0	0.00e+00	0	39	0	704643072	48	5779
2026-01-01 17:34:20.50	321.24	21.96	-37.4	-38.2	23.8	0.00e+00	92	39	0	706740224	48	5894
2026-01-01 17:34:21.51	320.98	21.94	-37.6	-38.5	23.7	0.00e+00	0	39	0	708837376	48	6060
2026-01-01 17:34:22.52	320.71	21.92	-37.4	-38.2	23.9	0.00e+00	0	39	0	710934528	48	5891
2026-01-01 17:34:23.53	320.45	21.90	-37.3	-38.1	23.9	0.00e+00	0	39	0	713031680	48	5813
2026-01-01 17:34:24.53	320.18	21.88	-37.1	-38.0	23.8	0.00e+00	0	39	0	714080256	48	5710
2026-01-01 17:34:25.54	319.92	21.86	-37.0	-37.8	24.2	0.00e+00	55	39	0	716177408	48	5619
2026-01-01 17:34:26.55	319.65	21.84	-37.1	-38.0	23.8	0.00e+00	0	39	0	718274560	48	5735
2026-01-01 17:34:27.56	319.39	21.81	-37.3	-38.2	23.9	0.00e+00	92	39	0	720371712	48	5855
2026-01-01 17:34:28.57	319.13	21.79	-37.3	-38.1	23.9	0.00e+00	0	39	0	722468864	48	5819
2026-01-01 17:34:29.58	318.86	21.76	-37.4	-38.3	23.7	0.00e+00	81	39	0	723517440	48	5923
2026-01-01 17:34:30.59	318.60	21.74	-37.4	-38.3	23.8	0.00e+00	0	39	0	725614592	48	5905
2026-01-01 17:34:31.60	318.34	21.71	-37.7	-38.7	23.5	0.00e+00	0	39	0	727711744	48	6175
2026-01-01 17:34:32.61	318.08	21.69	-37.7	-38.6	23.6	0.00e+00	0	39	0	729808896	48	6116
2026-01-01 17:34:33.62	317.82	21.66	-37.6	-38.5	23.6	0.00e+00	0	39	0	731906048	48	6095
2026-01-01 17:34:34.63	317.56	21.63	-37.6	-38.5	23.6	0.00e+00	79	39	0	732954624	48	6083
2026-01-01 17:34:35.63	317.30	21.60	-37.7	-38.6	23.6	0.00e+00	0	39	0	735051776	48	6119
2026-01-01 17:34:36.65	317.04	21.57	-37.3	-38.2	23.9	0.00e+00	92	39	0	737148928	48	5841
2026-01-01 17:34:37.66	316.78	21.54	-37.2	-38.1	23.9	0.00e+00	0	39	0	739246080	48	5778
2026-01-01 17:34:38.67	316.52	21.51	-37.2	-38.0	24.1	0.00e+00	0	39	0	741343232	48	5743
2026-01-01 17:34:39.67	316.26	21.48	-36.9	-37.8	24.2	0.00e+00	0	39	0	742391808	48	5571
2026-01-01 17:34:40.68	316.00	21.45	-37.1	-38.0	24.1	0.00e+00	0	39	0	744488960	48	5706
2026-01-01 17:34:41.69	315.75	21.42	-36.9	-37.7	24.2	0.00e+00	65	39	0	746586112	48	5564
2026-01-01 17:34:42.71	315.49	21.39	-37.0	-37.8	24.2	0.00e+00	0	39	0	748683264	46	6315
2026-01-01 17:34:43.71	315.23	21.36	-37.1	-37.9	24.1	0.00e+00	69	39	0	750780416	46	6347
2026-01-01 17:34:44.72	314.98	21.32	-37.4	-38.2	23.6	0.00e+00	0	39	0	752877568	46	6594
2026-01-01 17:34:45.73	314.72	21.29	-37.9	-38.8	23.5	0.00e+00	0	39	0	753926144	48	6267
2026-01-01 17:34:46.74	314.47	21.25	-38.2	-39.1	23.1	0.00e+00	0	39	0	756023296	48	6513
2026-01-01 17:34:47.75	314.22	21.22	-38.8	-39.8	22.7	0.00e+00	0	39	0	758120448	50	6262
2026-01-01 17:34:48.76	313.96	21.18	-38.9	-39.9	22.6	0.00e+00	58	39	0	760217600	50	6321
2026-01-01 17:34:49.77	313.71	21.15	-38.7	-39.6	22.9	0.00e+00	0	39	0	762314752	50	6157
2026-01-01 17:34:50.78	313.46	21.11	-38.4	-39.3	23.0	0.00e+00	47	39	0	763363328	50	5950
2026-01-01 17:34:51.79	313.21	21.07	-38.4	-39.4	23.1	0.00e+00	0	39	0	765460480	50	5971
2026-01-01 17:34:52.80	312.95	21.04	-37.9	-38.8	23.5	0.00e+00	0	39	0	767557632	50	5598
2026-01-01 17:34:53.81	312.70	21.00	-38.3	-39.2	23.2	0.00e+00	0	39	0	769654784	50	5848
2026-01-01 17:34:54.82	312.45	20.96	-38.6	-39.6	22.9	0.00e+00	0	39	0	771751936	50	6124
2026-01-01 17:34:55.83	312.21	20.92	-38.6	-39.6	22.8	0.00e+00	23	39	0	772800512	50	6119
2026-01-01 17:34:56.84	311.96	20.88	-38.7	-39.7	22.8	0.00e+00	0	39	0	774897664	50	6191
2026-01-01 17:34:57.85	311.71	20.84	-38.9	-39.8	22.6	0.00e+00	92	39	0	776994816	50	6314
2026-01-01 17:34:58.86	311.46	20.80	-39.4	-40.4	22.1	0.00e+00	0	39	0	779091968	50	6737
2026-01-01 17:34:59.87	311.22	20.76	-39.3	-40.4	22.3	0.00e+00	56	39	0	781189120	50	6705
2026-01-01 17:35:00.88	310.97	20.71	-39.5	-40.6	22.0	0.00e+00	0	39	0	782237696	50	6875
2026-01-01 17:35:01.89	310.72	20.67	-40.2	-41.3	21.5	0.00e+00	0	39	0	784334848	52	6652
2026-01-01 17:35:02.90	310.48	20.63	-40.0	-41.1	21.6	0.00e+00	22	39	0	786432000	52	6489
2026-01-01 17:35:03.91	310.24	20.59	-39.7	-40.8	21.8	0.00e+00	0	39	0	788529152	52	6268
2026-01-01 17:35:04.92	309.99	20.54	-39.9	-41.0	21.7	0.00e+00	60	39	0	790626304	52	6437
2026-01-01 17:35:05.93	309.75	20.50	-39.7	-40.8	21.9	0.00e+00	0	39	0	791674880	52	6297
2026-01-01 17:35:06.93	309.51	20.45	-39.5	-40.6	22.1	0.00e+00	79	39	0	793772032	52	6124
2026-01-01 17:35:07.94	309.27	20.41	-39.2	-40.2	22.4	0.00e+00	0	39	0	795869184	52	5882
2026-01-01 17:35:08.95	309.03	20.36	-39.4	-40.4	22.4	0.00e+00	0	39	0	797966336	52	6004
2026-01-01 17:35:09.96	308.79	20.32	-39.3	-40.3	22.3	0.00e+00	0	39	0	800063488	52	5907
2026-01-01 17:35:10.97	308.55	20.27	-39.4	-40.4	22.2	0.00e+00	0	39	0	802160640	52	5980
2026-01-01 17:35:11.98	308.31	20.22	-39.4	-40.5	22.2	0.00e+00	21	39	0	803209216	52	6037
2026-01-01 17:35:12.99	308.08	20.18	-39.4	-40.4	22.2	0.00e+00	0	39	0	805306368	52	5999
2026-01-01 17:35:14.00	307.84	20.13	-39.4	-40.4	22.1	0.00e+00	92	39	0	807403520	52	6029
2026-01-01 17:35:15.00	307.61	20.08	-39.2	-40.2	22.4	0.00e+00	0	39	0	809500672	52	5862
2026-01-01 17:35:16.01	307.37	20.03	-38.9	-39.9	22.5	0.00e+00	0	39	0	810549248	52	5659
2026-01-01 17:35:17.02	307.14	19.98	-38.5	-39.4	22.8	0.00e+00	0	39	0	812646400	50	5997
2026-01-01 17:35:18.03	306.90	19.93	-38.4	-39.3	22.9	0.00e+00	0	39	0	814743552	50	5909
2026-01-01 17:35:19.04	306.67	19.88	-38.3	-39.2	23.1	0.00e+00	0	39	0	816840704	50	5853
2026-01-01 17:35:20.05	306.44	19.83	-38.1	-39.0	23.3	0.00e+00	0	39	0	818937856	50	5727
2026-01-01 17:35:21.06	306.21	19.78	-37.9	-38.8	23.5	0.00e+00	86	39	0	819986432	50	5576
2026-01-01 17:35:22.07	305.98	19.73	-37.9	-38.8	23.5	0.00e+00	0	39	0	822083584	50	5578
2026-01-01 17:35:23.08	305.75	19.68	-37.8	-38.7	23.6	0.00e+00	24	39	0	824180736	50	5510
2026-01-01 17:35:24.09	305.52	19.63	-37.8	-38.7	23.6	0.00e+00	0	39	0	826277888	48	6194
2026-01-01 17:35:25.10	305.29	19.58	-38.2	-39.1	23.4	0.00e+00	0	39	0	828375040	48	6479
2026-01-01 17:35:26.11	305.06	19.52	-38.1	-39.0	23.3	0.00e+00	73	39	0	830472192	48	6452
2026-01-01 17:35:27.12	304.84	19.47	-38.4	-39.3	23.2	0.00e+00	0	39	0	831520768	48	6647
2026-01-01 17:35:28.13	304.61	19.42	-38.6	-39.5	22.8	0.00e+00	92	39	0	833617920	48	6829
2026-01-01 17:35:29.14	304.39	19.36	-39.1	-40.1	22.2	0.00e+00	23	39	0	835715072	50	6496
2026-01-01 17:35:30.15	304.16	19.31	-39.5	-40.5	22.1	0.00e+00	0	39	0	837812224	50	6793
2026-01-01 17:35:31.16	303.94	19.26	-39.9	-41.0	21.7	0.00e+00	0	39	0	839909376	52	6397
2026-01-01 17:35:32.17	303.72	19.20	-39.9	-41.0	21.5	0.00e+00	0	39	0	840957952	52	6410
2026-01-01 17:35:33.18	303.49	19.15	-39.7	-40.7	21.8	0.00e+00	42	39	0	843055104	52	6232
2026-01-01 17:35:34.19	303.27	19.09	-39.5	-40.5	22.1	0.00e+00	0	39	0	845152256	52	6097
2026-01-01 17:35:35.19	303.05	19.04	-39.5	-40.5	22.0	0.00e+00	92	39	0	847249408	52	6071
2026-01-01 17:35:36.20	302.84	18.98	-40.0	-41.1	21.6	0.00e+00	0	39	0	849346560	52	6517
2026-01-01 17:35:37.21	302.62	18.92	-40.2	-41.4	21.3	0.00e+00	29	39	0	850395136	52	6744
2026-01-01 17:35:38.22	302.40	18.87	-40.8	-42.1	20.6	0.00e+00	0	39	0	852492288	52	7291
2026-01-01 17:35:39.23	302.18	18.81	-41.4	-42.9	19.9	0.00e+00	0	39	0	854589440	54	7112
2026-01-01 17:35:40.24	301.97	18.75	-41.6	-43.1	19.9	0.00e+00	23	39	0	856686592	54	7282
2026-01-01 17:35:41.25	301.75	18.70	-41.6	-43.1	20.1	0.00e+00	0	39	0	858783744	56	6474
2026-01-01 17:35:42.26	301.54	18.64	-41.5	-42.9	20.1	0.00e+00	30	39	0	859832320	56	6324
2026-01-01 17:35:43.27	301.32	18.58	-41.3	-42.6	20.3	0.00e+00	0	39	0	861929472	56	6153
2026-01-01 17:35:44.28	301.11	18.52	-40.5	-41.8	21.0	0.00e+00	69	39	0	864026624	54	6271
2026-01-01 17:35:45.29	300.90	18.46	-40.1	-41.3	21.4	0.00e+00	0	39	0	866123776	54	5917
2026-01-01 17:35:46.30	300.69	18.41	-39.6	-40.7	21.9	0.00e+00	0	39	0	868220928	52	6203
2026-01-01 17:35:47.31	300.48	18.35	-39.1	-40.1	22.5	0.00e+00	10	39	0	869269504	52	5782
2026-01-01 17:35:48.31	300.27	18.29	-38.8	-39.8	22.8	0.00e+00	0	39	0	871366656	52	5587
2026-01-01 17:35:49.32	300.06	18.23	-38.2	-39.1	23.2	0.00e+00	92	39	0	873463808	50	5793
2026-01-01 17:35:50.33	299.85	18.17	-38.1	-39.0	23.3	0.00e+00	0	39	0	875560960	50	5749
2026-01-01 17:35:51.34	299.64	18.11	-38.1	-39.0	23.2	0.00e+00	37	39	0	877658112	50	5703
2026-01-01 17:35:52.35	299.44	18.05	-38.2	-39.1	23.3	0.00e+00	0	39	0	878706688	50	5822
2026-01-01 17:35:53.36	299.23	17.99	-38.5	-39.4	23.0	0.00e+00	0	39	0	880803840	50	6032
2026-01-01 17:35:54.37	299.03	17.93	-38.4	-39.3	23.0	0.00e+00	0	39	0	882900992	50	5930
2026-01-01 17:35:55.38	298.82	17.87	-38.6	-39.5	22.8	0.00e+00	0	39	0	884998144	50	6090
2026-01-01 17:35:56.39	298.62	17.81	-38.6	-39.6	22.8	0.00e+00	15	39	0	887095296	50	6109
2026-01-01 17:35:57.40	298.42	17.74	-38.7	-39.7	22.8	0.00e+00	0	39	0	888143872	50	6176
2026-01-01 17:35:58.42	298.22	17.68	-38.4	-39.4	23.0	0.00e+00	76	39	0	890241024	50	5982
2026-01-01 17:35:59.42	298.02	17.62	-38.2	-39.1	23.2	0.00e+00	0	39	0	892338176	50	5782
2026-01-01 17:36:00.43	297.82	17.56	-38.0	-38.9	23.3	0.00e+00	0	39	0	894435328	50	5689
2026-01-01 17:36:01.44	297.62	17.50	-38.0	-38.9	23.2	0.00e+00	0	39	0	896532480	50	5636
2026-01-01 17:36:02.45	297.42	17.43	-38.0	-39.0	22.4	0.00e+00	0	39	0	898629632	48	6399
2026-01-01 17:36:03.47	297.22	17.37	-38.0	-39.1	21.5	0.00e+00	16	39	0	899678208	48	6527
2026-01-01 17:36:04.47	297.03	17.31	-38.3	-39.6	20.5	0.00e+00	0	39	0	901775360	48	6898
2026-01-01 17:36:05.48	296.83	17.25	-38.7	-40.0	20.2	0.00e+00	57	39	0	903872512	48	7208
2026-01-01 17:36:06.49	296.64	17.18	-39.5	-40.8	20.5	0.00e+00	0	39	0	905969664	50	7028
2026-01-01 17:36:07.51	296.44	17.12	-39.9	-41.1	21.1	0.00e+00	0	39	0	908066816	52	6537
2026-01-01 17:36:08.51	296.25	17.06	-40.4	-41.6	21.1	0.00e+00	0	39	0	909115392	52	6853
2026-01-01 17:36:09.52	296.06	16.99	-40.5	-41.7	20.9	0.00e+00	0	39	0	911212544	52	7004
2026-01-01 17:36:10.53	295.87	16.93	-40.5	-41.8	21.0	0.00e+00	77	39	0	913309696	52	7014
2026-01-01 17:36:11.54	295.68	16.86	-40.3	-41.5	21.2	0.00e+00	0	39	0	915406848	52	6807
2026-01-01 17:36:12.55	295.49	16.80	-40.0	-41.1	21.5	0.00e+00	90	39	0	917504000	52	6507
2026-01-01 17:36:13.56	295.30	16.74	-39.7	-40.8	21.9	0.00e+00	0	39	0	918552576	52	6256
2026-01-01 17:36:14.57	295.11	16.67	-39.6	-40.6	22.0	0.00e+00	0	39	0	920649728	52	6166
2026-01-01 17:36:15.58	294.92	16.61	-39.4	-40.4	22.1	0.00e+00	0	39	0	922746880	52	6025
2026-01-01 17:36:16.59	294.74	16.54	-39.2	-40.3	22.3	0.00e+00	0	39	0	924844032	52	5900
2026-01-01 17:36:17.60	294.55	16.48	-39.1	-40.1	22.3	0.00e+00	17	39	0	926941184	52	5778
2026-01-01 17:36:18.61	294.36	16.41	-38.9	-39.9	22.6	0.00e+00	0	39	0	927989760	52	5669
2026-01-01 17:36:19.62	294.18	16.35	-38.8	-39.8	22.6	0.00e+00	92	39	0	930086912	52	5606
2026-01-01 17:36:20.63	294.00	16.28	-38.6	-39.6	22.8	0.00e+00	0	39	0	932184064	50	6107
2026-01-01 17:36:21.64	293.81	16.22	-38.6	-39.5	22.9	0.00e+00	92	39	0	934281216	50	6065
2026-01-01 17:36:22.65	293.63	16.15	-38.6	-39.6	22.8	0.00e+00	0	39	0	936378368	50	6107
2026-01-01 17:36:23.66	293.45	16.08	-38.8	-39.7	22.7	0.00e+00	0	39	0	937426944	50	6238
2026-01-01 17:36:24.67	293.27	16.02	-39.0	-40.1	22.4	0.00e+00	18	39	0	939524096	50	6465
2026-01-01 17:36:25.68	293.09	15.95	-39.2	-40.3	22.2	0.00e+00	0	39	0	941621248	50	6620
2026-01-01 17:36:26.69	292.91	15.89	-39.6	-40.7	21.8	0.00e+00	25	39	0	943718400	50	6970
2026-01-01 17:36:27.70	292.74	15.82	-39.6	-40.7	21.9	0.00e+00	0	39	0	945815552	50	6954
2026-01-01 17:36:28.71	292.56	15.76	-39.8	-40.9	21.6	0.00e+00	84	39	0	946864128	52	6379
2026-01-01 17:36:29.72	292.38	15.69	-39.7	-40.8	21.8	0.00e+00	0	39	0	948961280	52	6272
2026-01-01 17:36:30.73	292.21	15.62	-39.6	-40.7	21.9	0.00e+00	0	39	0	951058432	52	6189
2026-01-01 17:36:31.74	292.03	15.56	-39.4	-40.4	22.2	0.00e+00	0	39	0	953155584	52	5995
2026-01-01 17:36:32.75	291.86	15.49	-39.2	-40.2	22.3	0.00e+00	0	39	0	955252736	52	5875
2026-01-01 17:36:33.76	291.69	15.42	-39.3	-40.3	22.2	0.00e+00	19	39	0	956301312	52	5958
2026-01-01 17:36:34.77	291.52	15.36	-39.1	-40.2	22.3	0.00e+00	0	39	0	958398464	52	5833
2026-01-01 17:36:35.78	291.34	15.29	-39.2	-40.2	22.3	0.00e+00	90	39	0	960495616	52	5874
2026-01-01 17:36:36.79	291.17	15.22	-39.4	-40.4	22.3	0.00e+00	0	39	0	962592768	52	6015
2026-01-01 17:36:37.80	291.00	15.16	-39.4	-40.5	22.0	0.00e+00	0	39	0	964689920	52	6048
2026-01-01 17:36:38.81	290.83	15.09	-39.4	-40.5	22.0	0.00e+00	0	39	0	966787072	52	6090
2026-01-01 17:36:39.82	290.67	15.02	-39.5	-40.6	22.0	0.00e+00	0	39	0	967835648	52	6118
2026-01-01 17:36:40.82	290.50	14.96	-39.6	-40.7	21.7	0.00e+00	71	39	0	969932800	52	6213
2026-01-01 17:36:41.83	290.33	14.89	-39.6	-40.7	21.7	0.00e+00	0	39	0	972029952	52	6194
2026-01-01 17:36:42.84	290.17	14.82	-39.6	-40.7	21.9	0.00e+00	81	39	0	974127104	52	6207
2026-01-01 17:36:43.85	290.00	14.75	-39.6	-40.6	21.9	0.00e+00	0	39	0	976224256	52	6159
2026-01-01 17:36:44.86	289.84	14.69	-39.5	-40.5	22.0	0.00e+00	0	39	0	977272832	52	6098
2026-01-01 17:36:45.87	289.67	14.62	-39.0	-40.1	22.3	0.00e+00	0	39	0	979369984	52	5771
2026-01-01 17:36:46.88	289.51	14.55	-39.1	-40.1	22.3	0.00e+00	0	39	0	981467136	52	5807
2026-01-01 17:36:47.89	289.35	14.48	-38.9	-39.9	22.5	0.00e+00	0	39	0	983564288	52	5659
2026-01-01 17:36:48.90	289.19	14.42	-38.5	-39.5	22.9	0.00e+00	0	39	0	985661440	50	6051
2026-01-01 17:36:49.91	289.03	14.35	-38.5	-39.5	22.8	0.00e+00	92	39	0	986710016	50	6067
2026-01-01 17:36:50.92	288.87	14.28	-38.4	-39.4	22.9	0.00e+00	0	39	0	988807168	50	5981
2026-01-01 17:36:51.93	288.71	14.21	-38.5	-39.5	22.9	0.00e+00	92	39	0	990904320	50	6043
2026-01-01 17:36:52.94	288.55	14.15	-38.2	-39.1	23.1	0.00e+00	0	39	0	993001472	50	5818
2026-01-01 17:36:53.95	288.39	14.08	-38.3	-39.2	23.0	0.00e+00	0	39	0	995098624	50	5896
2026-01-01 17:36:54.96	288.23	14.01	-37.8	-38.6	23.5	0.00e+00	0	39	0	996147200	50	5502
2026-01-01 17:36:55.97	288.08	13.94	-37.7	-38.5	23.5	0.00e+00	0	39	0	998244352	48	6076
2026-01-01 17:36:56.97	287.92	13.88	-37.3	-38.2	23.9	0.00e+00	36	39	0	1000341504	48	5852
2026-01-01 17:36:57.98	287.77	13.81	-37.3	-38.1	23.9	0.00e+00	0	39	0	1002438656	48	5807
2026-01-01 17:36:58.99	287.61	13.74	-37.3	-38.2	23.9	0.00e+00	92	39	0	1004535808	48	5830
2026-01-01 17:37:00.00	287.46	13.67	-37.2	-38.0	23.8	0.00e+00	0	39	0	1005584384	48	5739
2026-01-01 17:37:01.01	287.31	13.60	-37.4	-38.2	23.6	0.00e+00	0	39	0	1007681536	48	5875
2026-01-01 17:37:02.02	287.16	13.54	-37.6	-38.5	23.6	0.00e+00	0	39	0	1009778688	48	6036
2026-01-01 17:37:03.03	287.00	13.47	-37.8	-38.6	23.4	0.00e+00	0	39	0	1011875840	48	6173
2026-01-01 17:37:04.04	286.85	13.40	-37.9	-38.8	23.3	0.00e+00	0	39	0	1013972992	48	6262
2026-01-01 17:37:05.05	286.70	13.33	-38.2	-39.1	23.0	0.00e+00	0	39	0	1015021568	48	6525
2026-01-01 17:37:06.06	286.55	13.26	-38.4	-39.3	22.8	0.00e+00	38	39	0	1017118720	48	6672
2026-01-01 17:37:07.07	286.41	13.20	-38.4	-39.4	22.8	0.00e+00	0	39	0	1019215872	48	6740
2026-01-01 17:37:08.07	286.26	13.13	-38.5	-39.5	22.8	0.00e+00	0	39	0	1021313024	48	6775
2026-01-01 17:37:09.08	286.11	13.06	-38.4	-39.4	22.9	0.00e+00	0	39	0	1023410176	48	6712
2026-01-01 17:37:10.09	285.97	12.99	-38.6	-39.6	22.7	0.00e+00	0	39	0	1024458752	48	6850
2026-01-01 17:37:11.10	285.82	12.93	-38.3	-39.2	22.9	0.00e+00	19	39	0	1026555904	48	6587
2026-01-01 17:37:12.11	285.67	12.86	-38.3	-39.2	23.0	0.00e+00	0	39	0	1028653056	48	6576
2026-01-01 17:37:13.12	285.53	12.79	-38.0	-38.9	23.1	0.00e+00	92	39	0	1030750208	48	6328
2026-01-01 17:37:14.13	285.39	12.72	-37.9	-38.8	23.3	0.00e+00	0	39	0	1032847360	48	6264
2026-01-01 17:37:15.14	285.24	12.65	-37.6	-38.4	23.6	0.00e+00	0	39	0	1034944512	48	6027
2026-01-01 17:37:16.15	285.10	12.59	-37.5	-38.3	23.6	0.00e+00	0	39	0	1035993088	48	5933
2026-01-01 17:37:17.16	284.96	12.52	-37.6	-38.5	23.6	0.00e+00	0	39	0	1038090240	48	6041
2026-01-01 17:37:18.17	284.82	12.45	-37.5	-38.4	23.5	0.00e+00	66	39	0	1040187392	48	5997
2026-01-01 17:37:19.18	284.68	12.38	-37.7	-38.6	23.4	0.00e+00	0	39	0	1042284544	48	6130
2026-01-01 17:37:20.19	284.54	12.31	-37.9	-38.8	23.3	0.00e+00	92	39	0	1044381696	48	6274
2026-01-01 17:37:21.20	284.40	12.25	-38.3	-39.2	22.8	0.00e+00	0	39	0	1045430272	48	6595
2026-01-01 17:37:22.21	284.26	12.18	-38.5	-39.5	22.5	0.00e+00	2	39	0	1047527424	48	6791
2026-01-01 17:37:23.22	284.12	12.11	-38.6	-39.6	22.4	0.00e+00	0	39	0	1049624576	48	6912
2026-01-01 17:37:24.23	283.99	12.04	-38.9	-39.9	22.4	0.00e+00	0	39	0	1051721728	50	6335
2026-01-01 17:37:25.24	283.85	11.98	-38.9	-39.9	22.3	0.00e+00	68	39	0	1053818880	50	6361
2026-01-01 17:37:26.25	283.71	11.91	-39.1	-40.2	22.1	0.00e+00	0	39	0	1054867456	50	6544
2026-01-01 17:37:27.26	283.58	11.84	-39.2	-40.2	22.2	0.00e+00	92	39	0	1056964608	50	6608
2026-01-01 17:37:28.27	283.44	11.77	-39.3	-40.4	21.5	0.00e+00	0	39	0	1059061760	50	6719
2026-01-01 17:37:29.28	283.31	11.71	-39.1	-40.2	21.9	0.00e+00	61	39	0	1061158912	50	6554
2026-01-01 17:37:30.29	283.18	11.64	-39.1	-40.2	22.1	0.00e+00	0	39	0	1063256064	50	6546
2026-01-01 17:37:31.30	283.04	11.57	-39.2	-40.3	22.0	0.00e+00	0	39	0	1064304640	50	6620
2026-01-01 17:37:32.31	282.91	11.50	-38.8	-39.8	22.5	0.00e+00	15	39	0	1066401792	50	6270
2026-01-01 17:37:33.31	282.78	11.44	-38.5	-39.5	22.6	0.00e+00	0	39	0	1068498944	50	6043
2026-01-01 17:37:34.33	282.65	11.37	-38.3	-39.2	22.9	0.00e+00	13	39	0	1070596096	50	5866
2026-01-01 17:37:35.33	282.52	11.30	-37.9	-38.8	23.2	0.00e+00	0	39	0	1072693248	50	5613
2026-01-01 17:37:36.34	282.39	11.23	-37.4	-38.3	23.6	0.00e+00	92	39	0	1073741824	48	5918
2026-01-01 17:37:37.36	282.26	11.17	-37.6	-38.4	23.5	0.00e+00	0	39	0	1075838976	48	6032
2026-01-01 17:37:38.36	282.13	11.10	-37.5	-38.4	23.6	0.00e+00	0	39	0	1077936128	48	5992
2026-01-01 17:37:39.37	282.00	11.03	-37.6	-38.4	23.4	0.00e+00	0	39	0	1080033280	48	6029
2026-01-01 17:37:40.38	281.88	10.97	-37.9	-38.8	23.2	0.00e+00	0	39	0	1082130432	48	6282
2026-01-01 17:37:41.39	281.75	10.90	-38.0	-38.9	23.1	0.00e+00	80	39	0	1083179008	48	6386
2026-01-01 17:37:42.40	281.62	10.83	-38.7	-39.7	22.5	0.00e+00	0	39	0	1085276160	48	6942
2026-01-01 17:37:43.40	281.50	10.76	-39.0	-40.0	22.3	0.00e+00	92	39	0	1087373312	50	6460
2026-01-01 17:37:44.42	281.37	10.70	-39.2	-40.3	22.0	0.00e+00	0	39	0	1089470464	50	6627
2026-01-01 17:37:45.42	281.25	10.63	-39.4	-40.5	21.9	0.00e+00	0	39	0	1091567616	50	6771
2026-01-01 17:37:46.44	281.13	10.56	-39.5	-40.5	21.8	0.00e+00	0	39	0	1092616192	50	6831
2026-01-01 17:37:47.44	281.00	10.50	-39.4	-40.5	21.8	0.00e+00	0	39	0	1094713344	50	6784
2026-01-01 17:37:48.45	280.88	10.43	-39.4	-40.5	21.9	0.00e+00	11	39	0	1096810496	50	6809
2026-01-01 17:37:49.46	280.76	10.36	-39.4	-40.5	21.9	0.00e+00	0	39	0	1098907648	50	6785
2026-01-01 17:37:50.47	280.64	10.30	-39.2	-40.2	22.1	0.00e+00	40	39	0	1101004800	50	6589
2026-01-01 17:37:51.48	280.52	10.23	-39.2	-40.2	22.1	0.00e+00	0	39	0	1103101952	50	6589
2026-01-01 17:37:52.49	280.40	10.16	-39.3	-40.4	21.9	0.00e+00	0	39	0	1104150528	50	6743
2026-01-01 17:37:53.50	280.28	10.10	-38.9	-39.9	22.2	0.00e+00	0	39	0	1106247680	50	6346
2026-01-01 17:37:54.51	280.16	10.03	-39.0	-40.0	22.1	0.00e+00	0	39	0	1108344832	50	6462
2026-01-01 17:37:55.52	280.04	9.96	-39.0	-40.1	22.1	0.00e+00	68	39	0	1110441984	50	6483
2026-01-01 17:37:56.53	279.92	9.90	-39.2	-40.3	22.0	0.00e+00	0	39	0	1112539136	50	6640
2026-01-01 17:37:57.54	279.80	9.83	-39.0	-40.1	22.0	0.00e+00	91	39	0	1113587712	50	6480
2026-01-01 17:37:58.55	279.69	9.77	-39.3	-40.4	21.9	0.00e+00	0	39	0	1115684864	50	6715
2026-01-01 17:37:59.57	279.57	9.70	-39.2	-40.3	21.9	0.00e+00	0	39	0	1117782016	50	6643
2026-01-01 17:38:00.58	279.45	9.63	-39.4	-40.4	21.9	0.00e+00	0	39	0	1119879168	50	6766
2026-01-01 17:38:01.59	279.34	9.57	-39.5	-40.6	21.7	0.00e+00	0	39	0	1121976320	50	6891
2026-01-01 17:38:02.60	279.22	9.50	-39.5	-40.6	21.7	0.00e+00	1	39	0	1123024896	50	6893
2026-01-01 17:38:03.60	279.11	9.44	-39.6	-40.7	21.6	0.00e+00	0	39	0	1125122048	50	6977
2026-01-01 17:38:04.61	278.99	9.37	-39.5	-40.6	21.7	0.00e+00	53	39	0	1127219200	50	6876
2026-01-01 17:38:05.62	278.88	9.30	-39.8	-40.9	21.4	0.00e+00	0	39	0	1129316352	52	6364
2026-01-01 17:38:06.63	278.77	9.24	-39.8	-40.9	21.4	0.00e+00	92	39	0	1131413504	52	6359
2026-01-01 17:38:07.64	278.66	9.17	-40.1	-41.3	21.1	0.00e+00	0	39	0	1132462080	52	6663
2026-01-01 17:38:08.65	278.54	9.11	-40.0	-41.2	21.1	0.00e+00	0	39	0	1134559232	52	6592
2026-01-01 17:38:09.66	278.43	9.04	-40.0	-41.1	21.3	0.00e+00	0	39	0	1136656384	52	6536
2026-01-01 17:38:10.67	278.32	8.98	-40.4	-41.6	20.8	0.00e+00	0	39	0	1138753536	52	6883
2026-01-01 17:38:11.68	278.21	8.91	-40.3	-41.5	20.9	0.00e+00	35	39	0	1140850688	52	6834
2026-01-01 17:38:12.69	278.10	8.85	-40.4	-41.7	20.8	0.00e+00	0	39	0	1141899264	52	6954
2026-01-01 17:38:13.70	277.99	8.78	-40.1	-41.3	21.1	0.00e+00	92	39	0	1143996416	52	6627
2026-01-01 17:38:14.71	277.88	8.72	-40.1	-41.3	21.0	0.00e+00	0	39	0	1146093568	52	6674
2026-01-01 17:38:15.72	277.78	8.65	-39.8	-40.9	21.4	0.00e+00	0	39	0	1148190720	52	6360
2026-01-01 17:38:16.73	277.67	8.59	-40.0	-41.2	21.1	0.00e+00	0	39	0	1150287872	52	6590
2026-01-01 17:38:17.74	277.56	8.52	-40.2	-41.4	20.9	0.00e+00	0	39	0	1151336448	52	6730
2026-01-01 17:38:18.75	277.45	8.46	-40.1	-41.3	21.0	0.00e+00	14	39	0	1153433600	52	6633
2026-01-01 17:38:19.76	277.35	8.39	-40.1	-41.3	21.0	0.00e+00	0	39	0	1155530752	52	6681
2026-01-01 17:38:20.77	277.24	8.33	-40.4	-41.7	20.9	0.00e+00	81	39	0	1157627904	52	6969
2026-01-01 17:38:21.78	277.14	8.26	-40.6	-41.9	20.5	0.00e+00	0	39	0	1159725056	52	7103
2026-01-01 17:38:22.79	277.03	8.20	-40.8	-42.1	20.3	0.00e+00	0	39	0	1160773632	54	6502
2026-01-01 17:38:23.80	276.93	8.13	-41.0	-42.4	20.1	0.00e+00	0	39	0	1162870784	54	6751
2026-01-01 17:38:24.80	276.82	8.07	-41.1	-42.5	20.0	0.00e+00	0	39	0	1164967936	54	6834
2026-01-01 17:38:25.81	276.72	8.00	-41.1	-42.5	19.9	0.00e+00	16	39	0	1167065088	54	6811
2026-01-01 17:38:26.82	276.62	7.94	-41.4	-42.9	19.7	0.00e+00	0	39	0	1169162240	54	7136
2026-01-01 17:38:27.83	276.52	7.88	-41.1	-42.5	20.0	0.00e+00	92	39	0	1171259392	54	6824
2026-01-01 17:38:28.84	276.41	7.81	-41.1	-42.6	19.7	0.00e+00	0	39	0	1172307968	54	6852
2026-01-01 17:38:29.85	276.31	7.75	-40.9	-42.3	20.1	0.00e+00	11	39	0	1174405120	54	6616
2026-01-01 17:38:30.86	276.21	7.68	-40.8	-42.2	20.2	0.00e+00	0	39	0	1176502272	54	6540
2026-01-01 17:38:31.87	276.11	7.62	-40.7	-42.0	20.4	0.00e+00	0	39	0	1178599424	54	6420
2026-01-01 17:38:32.88	276.01	7.56	-40.5	-41.7	20.6	0.00e+00	57	39	0	1180696576	54	6207
2026-01-01 17:38:33.89	275.91	7.49	-40.4	-41.7	20.6	0.00e+00	0	39	0	1181745152	54	6175
2026-01-01 17:38:34.90	275.81	7.43	-40.3	-41.5	20.7	0.00e+00	90	39	0	1183842304	54	6043
2026-01-01 17:38:35.91	275.71	7.36	-40.2	-41.4	20.8	0.00e+00	0	39	0	1185939456	54	6024
2026-01-01 17:38:36.92	275.61	7.30	-39.9	-41.1	21.1	0.00e+00	53	39	0	1188036608	54	5781
2026-01-01 17:38:37.93	275.52	7.24	-39.9	-41.1	21.1	0.00e+00	0	39	0	1190133760	52	6468
2026-01-01 17:38:38.94	275.42	7.17	-40.2	-41.4	20.9	0.00e+00	0	39	0	1191182336	52	6703
