passes_logs/2026/01/01/R4.6S_Anadyr/R4.6S_Anadyr__20260101_002039_SUOMI_NPP_rec.log

#Pass ID: 20260101_002039_SUOMI NPP
#Satellite: SUOMI NPP
#Configuration: NPP
#almurnet v.1.7.20251203
#Start time: 2026-01-01 00:20:42

#Version: 2.2.20231116
#Station: R4.6S_Anadyr
#Location: 177.4865 lon 64.73178 lat
#TLE: 1 37849U 11061A   25364.87906318  .00000195  00000+0  11345-3 0  9993
#TLE: 2 37849  98.7794 302.0592 0002571  89.2401 270.9069 14.19520347734561

#Time	Az	El	Level	Level2	SNR	BER	BlckErr	Temp	State	Recorded	gain1	gain2
2026-01-01 00:20:42.52	157.71	0.19	-49.1	-62.9	3.3	1.54e+00	0	37	0	0	60	50583
2026-01-01 00:20:43.53	157.71	0.25	-49.2	-64.4	3.6	1.51e+00	0	37	104	0	60	59844
2026-01-01 00:20:44.54	157.72	0.32	-49.1	-64.4	3.6	1.51e+00	0	37	104	0	60	59963
2026-01-01 00:20:45.55	157.72	0.38	-49.2	-64.5	3.6	1.51e+00	0	37	104	0	60	60681
2026-01-01 00:20:46.56	157.73	0.44	-49.2	-64.4	3.6	1.51e+00	0	37	104	0	60	60319
2026-01-01 00:20:47.57	157.74	0.50	-49.2	-64.4	3.6	1.51e+00	0	37	104	0	60	60221
2026-01-01 00:20:48.58	157.74	0.56	-49.0	-64.3	3.6	1.51e+00	0	37	104	0	60	59095
2026-01-01 00:20:49.59	157.75	0.62	-48.9	-64.2	3.6	1.51e+00	0	37	104	0	60	58954
2026-01-01 00:20:50.60	157.75	0.69	-48.8	-64.0	3.6	1.51e+00	0	37	104	0	60	57451
2026-01-01 00:20:51.61	157.76	0.75	-48.7	-63.9	3.6	1.51e+00	0	37	104	0	60	56833
2026-01-01 00:20:52.62	157.76	0.81	-48.3	-63.5	3.6	1.51e+00	0	37	104	0	60	54099
2026-01-01 00:20:53.63	157.77	0.87	-47.8	-63.0	3.6	1.51e+00	0	37	104	0	60	51288
2026-01-01 00:20:54.64	157.77	0.93	-47.7	-62.9	3.5	1.51e+00	0	37	104	0	60	50258
2026-01-01 00:20:55.65	157.78	1.00	-47.6	-62.8	3.6	1.51e+00	0	37	104	0	60	49925
2026-01-01 00:20:56.66	157.78	1.06	-47.6	-62.8	3.6	1.51e+00	0	37	104	0	60	49928
2026-01-01 00:20:57.67	157.79	1.12	-47.6	-62.8	3.6	1.51e+00	0	37	104	0	60	49866
2026-01-01 00:20:58.68	157.80	1.19	-47.6	-62.8	3.6	1.51e+00	0	37	104	0	60	49752
2026-01-01 00:20:59.69	157.80	1.25	-47.6	-62.7	3.6	1.51e+00	0	37	104	0	60	49480
2026-01-01 00:21:00.70	157.81	1.31	-47.6	-62.7	3.6	1.51e+00	0	37	104	0	60	49429
2026-01-01 00:21:01.71	157.81	1.38	-47.6	-62.7	3.6	1.51e+00	0	37	104	0	60	49390
2026-01-01 00:21:02.72	157.82	1.44	-47.6	-62.7	3.6	1.51e+00	0	37	104	0	60	49301
2026-01-01 00:21:03.73	157.82	1.50	-47.6	-62.7	3.6	1.51e+00	0	37	104	0	60	49257
2026-01-01 00:21:04.74	157.83	1.57	-47.6	-62.7	3.6	1.51e+00	0	37	104	0	60	49159
2026-01-01 00:21:05.75	157.83	1.63	-47.6	-62.7	3.6	1.51e+00	0	37	104	0	60	49389
2026-01-01 00:21:06.76	157.84	1.69	-47.6	-62.6	3.6	1.51e+00	0	37	104	0	60	49040
2026-01-01 00:21:07.77	157.85	1.76	-47.6	-62.7	3.6	1.51e+00	0	37	104	0	60	49332
2026-01-01 00:21:08.78	157.85	1.82	-47.6	-62.7	3.6	1.51e+00	0	37	104	0	60	49317
2026-01-01 00:21:09.79	157.86	1.89	-47.6	-62.7	3.6	1.51e+00	0	37	104	0	60	49291
2026-01-01 00:21:10.74	157.86	1.95	-47.6	-62.7	3.6	1.51e+00	0	37	104	0	60	49262
2026-01-01 00:21:11.70	157.87	2.01	-47.6	-62.7	3.6	1.51e+00	0	37	104	0	60	49234
2026-01-01 00:21:12.65	157.87	2.07	-47.6	-62.7	3.6	1.51e+00	0	38	104	0	60	49114
2026-01-01 00:21:13.61	157.88	2.13	-47.6	-62.7	3.6	1.51e+00	0	37	104	0	60	49266
2026-01-01 00:21:14.57	157.88	2.20	-47.6	-62.7	3.6	1.51e+00	0	38	104	0	60	49059
2026-01-01 00:21:15.53	157.89	2.26	-47.6	-62.7	3.6	1.51e+00	0	37	104	0	60	49478
2026-01-01 00:21:16.49	157.90	2.32	-47.6	-62.6	3.6	1.51e+00	0	37	104	0	60	49000
2026-01-01 00:21:17.45	157.90	2.38	-47.6	-62.5	3.6	1.51e+00	0	38	104	0	60	48140
2026-01-01 00:21:18.42	157.91	2.45	-47.6	-62.4	3.6	1.51e+00	0	37	104	0	60	47619
2026-01-01 00:21:19.37	157.91	2.51	-47.5	-62.1	3.6	1.51e+00	0	38	104	0	60	46131
2026-01-01 00:21:20.34	157.92	2.57	-47.5	-61.9	3.6	1.51e+00	0	38	104	0	60	45172
2026-01-01 00:21:21.31	157.92	2.63	-47.5	-62.0	3.6	1.51e+00	0	38	104	0	60	45394
2026-01-01 00:21:22.29	157.93	2.70	-47.5	-62.0	3.6	1.51e+00	0	38	104	0	60	45474
2026-01-01 00:21:23.27	157.93	2.76	-47.5	-62.0	3.6	1.51e+00	0	38	104	0	60	45652
2026-01-01 00:21:24.25	157.94	2.83	-47.5	-62.0	3.6	1.51e+00	0	38	104	0	60	45672
2026-01-01 00:21:25.20	157.94	2.89	-47.5	-61.9	3.6	1.51e+00	0	38	104	0	60	44872
2026-01-01 00:21:26.16	157.95	2.95	-47.5	-61.3	3.6	1.51e+00	0	38	104	0	60	42101
2026-01-01 00:21:27.11	157.96	3.02	-47.4	-60.1	3.7	1.51e+00	0	38	104	0	60	36370
2026-01-01 00:21:28.07	157.96	3.08	-47.3	-57.5	4.4	1.41e+00	0	38	0	0	60	27004
2026-01-01 00:21:29.02	157.97	3.15	-47.1	-55.1	5.7	5.00e-01	85	38	0	2097152	60	20581
2026-01-01 00:21:30.00	157.97	3.21	-46.7	-53.4	7.2	2.14e-01	0	38	0	3145728	60	16895
2026-01-01 00:21:30.97	157.98	3.28	-46.3	-51.9	9.2	4.73e-02	92	38	0	5242880	60	14287
2026-01-01 00:21:31.93	157.98	3.34	-46.1	-51.2	10.2	8.50e-03	83	38	0	7340032	60	13167
2026-01-01 00:21:32.90	157.99	3.41	-45.7	-50.3	11.3	1.66e-03	92	38	0	8388608	60	11796
2026-01-01 00:21:33.86	158.00	3.47	-45.2	-49.1	12.4	2.66e-04	80	38	0	10485760	60	10348
2026-01-01 00:21:34.83	158.00	3.54	-45.0	-48.7	12.9	8.54e-05	0	38	0	12582912	60	9820
2026-01-01 00:21:35.79	158.01	3.60	-44.8	-48.2	13.4	2.13e-05	92	38	0	14680064	60	9335
2026-01-01 00:21:36.74	158.01	3.67	-44.8	-48.3	13.3	1.60e-05	0	38	0	15728640	60	9389
2026-01-01 00:21:37.70	158.02	3.73	-47.5	-62.0	3.6	6.50e-01	0	38	104	17825792	60	45372
2026-01-01 00:21:38.65	158.02	3.80	-44.2	-47.1	5.9	1.50e+00	0	38	104	17825792	60	8227
2026-01-01 00:21:39.61	158.03	3.86	-44.9	-48.6	11.2	0.00e+00	90	38	0	17825792	60	9696
2026-01-01 00:21:40.56	158.04	3.93	-46.2	-51.7	10.0	1.49e+00	0	38	104	17825792	60	13882
2026-01-01 00:21:41.57	158.04	4.00	-42.9	-45.0	15.8	1.56e-02	68	38	0	18874368	60	6416
2026-01-01 00:21:42.58	158.05	4.07	-47.1	-56.2	8.2	1.44e+00	0	38	104	18874368	60	23241
2026-01-01 00:21:43.59	158.05	4.14	-44.3	-47.3	14.5	3.80e-06	54	38	0	18874368	60	8370
2026-01-01 00:21:44.60	158.06	4.21	-42.9	-45.1	16.8	0.00e+00	91	38	0	20971520	60	6501
2026-01-01 00:21:45.61	158.07	4.28	-43.5	-45.9	15.8	0.00e+00	0	38	0	23068672	60	7162
2026-01-01 00:21:46.61	158.07	4.35	-43.5	-45.9	16.0	0.00e+00	79	38	0	25165824	60	7108
2026-01-01 00:21:47.62	158.08	4.42	-43.1	-45.4	16.5	0.00e+00	0	38	0	26214400	60	6702
2026-01-01 00:21:48.63	158.08	4.49	-43.2	-45.5	16.4	0.00e+00	91	38	0	28311552	60	6809
2026-01-01 00:21:49.64	158.09	4.56	-43.2	-45.5	16.4	0.00e+00	0	38	0	30408704	60	6788
2026-01-01 00:21:50.65	158.10	4.63	-43.2	-45.5	16.4	0.00e+00	92	38	0	32505856	60	6816
2026-01-01 00:21:51.66	158.10	4.70	-43.3	-45.7	16.3	0.00e+00	92	38	0	34603008	60	6935
2026-01-01 00:21:52.67	158.11	4.78	-43.4	-45.7	16.4	0.00e+00	0	38	0	35651584	60	6984
2026-01-01 00:21:53.68	158.11	4.85	-43.1	-45.3	16.6	0.00e+00	92	38	0	37748736	60	6683
2026-01-01 00:21:54.69	158.12	4.92	-42.7	-44.8	16.9	0.00e+00	0	38	0	39845888	58	7040
2026-01-01 00:21:55.70	158.13	4.99	-43.0	-45.1	16.9	0.00e+00	84	38	0	41943040	58	7337
2026-01-01 00:21:56.71	158.13	5.06	-42.9	-45.0	16.8	0.00e+00	0	38	0	44040192	58	7234
2026-01-01 00:21:57.72	158.14	5.14	-42.7	-44.7	17.0	0.00e+00	90	38	0	45088768	58	6977
2026-01-01 00:21:58.73	158.15	5.21	-42.7	-44.6	17.3	0.00e+00	83	38	0	47185920	58	6920
2026-01-01 00:21:59.73	158.15	5.28	-42.6	-44.5	17.5	0.00e+00	0	38	0	49283072	58	6811
2026-01-01 00:22:00.74	158.16	5.36	-42.5	-44.4	17.5	0.00e+00	91	38	0	51380224	58	6740
2026-01-01 00:22:01.75	158.17	5.43	-42.4	-44.3	17.7	0.00e+00	0	38	0	53477376	58	6617
2026-01-01 00:22:02.76	158.17	5.50	-42.3	-44.2	17.8	0.00e+00	92	38	0	55574528	58	6541
2026-01-01 00:22:03.77	158.18	5.58	-42.4	-44.3	17.7	0.00e+00	0	38	0	56623104	58	6643
2026-01-01 00:22:04.78	158.18	5.65	-42.4	-44.2	17.8	0.00e+00	91	38	0	58720256	58	6592
2026-01-01 00:22:05.79	158.19	5.72	-42.5	-44.4	17.6	0.00e+00	81	38	0	60817408	58	6764
2026-01-01 00:22:06.80	158.20	5.80	-42.5	-44.4	17.6	0.00e+00	0	38	0	62914560	58	6724
2026-01-01 00:22:07.81	158.20	5.87	-42.5	-44.4	17.7	0.00e+00	90	38	0	65011712	58	6708
2026-01-01 00:22:08.82	158.21	5.95	-42.7	-44.6	17.4	0.00e+00	0	38	0	66060288	58	6913
2026-01-01 00:22:09.83	158.22	6.02	-42.5	-44.4	17.7	0.00e+00	88	38	0	68157440	58	6708
2026-01-01 00:22:10.84	158.22	6.10	-42.3	-44.1	17.9	0.00e+00	0	38	0	70254592	58	6524
2026-01-01 00:22:11.85	158.23	6.18	-42.6	-44.5	17.4	0.00e+00	90	38	0	72351744	58	6840
2026-01-01 00:22:12.86	158.24	6.25	-42.6	-44.5	17.7	0.00e+00	0	38	0	74448896	58	6805
2026-01-01 00:22:13.87	158.24	6.33	-42.6	-44.5	17.7	0.00e+00	89	38	0	75497472	58	6803
2026-01-01 00:22:14.88	158.25	6.40	-42.5	-44.4	17.8	0.00e+00	92	38	0	77594624	58	6721
2026-01-01 00:22:15.88	158.26	6.48	-42.3	-44.2	18.0	0.00e+00	0	38	0	79691776	58	6542
2026-01-01 00:22:16.89	158.26	6.56	-42.4	-44.2	17.9	0.00e+00	83	38	0	81788928	58	6587
2026-01-01 00:22:17.90	158.27	6.63	-42.5	-44.4	17.7	0.00e+00	0	38	0	83886080	58	6720
2026-01-01 00:22:18.91	158.28	6.71	-42.3	-44.0	18.1	0.00e+00	90	38	0	84934656	58	6446
2026-01-01 00:22:19.92	158.28	6.79	-42.2	-44.0	18.1	0.00e+00	41	38	0	87031808	58	6404
2026-01-01 00:22:20.93	158.29	6.86	-42.2	-44.0	18.1	0.00e+00	92	38	0	89128960	58	6393
2026-01-01 00:22:21.94	158.30	6.94	-42.1	-43.9	18.2	0.00e+00	91	38	0	91226112	58	6333
2026-01-01 00:22:22.94	158.30	7.02	-42.1	-43.8	18.3	0.00e+00	0	38	0	93323264	58	6259
2026-01-01 00:22:23.96	158.31	7.10	-41.9	-43.5	18.6	0.00e+00	67	38	0	94371840	58	6061
2026-01-01 00:22:24.96	158.32	7.18	-42.1	-43.8	18.3	0.00e+00	0	38	0	96468992	58	6252
2026-01-01 00:22:25.97	158.32	7.26	-42.0	-43.7	18.4	0.00e+00	92	38	0	98566144	58	6234
2026-01-01 00:22:26.98	158.33	7.33	-41.8	-43.4	18.7	0.00e+00	0	38	0	100663296	56	6755
2026-01-01 00:22:27.99	158.34	7.41	-42.1	-43.7	18.4	0.00e+00	91	38	0	102760448	56	7002
2026-01-01 00:22:29.00	158.34	7.49	-42.1	-43.7	18.4	0.00e+00	90	38	0	103809024	56	6988
2026-01-01 00:22:30.01	158.35	7.57	-42.0	-43.6	18.5	0.00e+00	0	38	0	105906176	56	6921
2026-01-01 00:22:31.02	158.36	7.65	-42.1	-43.8	18.4	0.00e+00	53	38	0	108003328	56	7072
2026-01-01 00:22:32.02	158.36	7.73	-42.0	-43.7	18.4	0.00e+00	0	38	0	110100480	56	6955
2026-01-01 00:22:33.03	158.37	7.81	-42.1	-43.8	18.5	0.00e+00	92	38	0	112197632	56	7015
2026-01-01 00:22:34.04	158.38	7.89	-42.1	-43.7	18.5	0.00e+00	0	38	0	113246208	56	6975
2026-01-01 00:22:35.05	158.38	7.98	-42.0	-43.7	18.5	0.00e+00	90	38	0	115343360	56	6967
2026-01-01 00:22:36.06	158.39	8.06	-41.9	-43.6	18.6	0.00e+00	84	38	0	117440512	56	6859
2026-01-01 00:22:37.07	158.40	8.14	-41.9	-43.5	18.8	0.00e+00	0	38	0	119537664	56	6788
2026-01-01 00:22:38.08	158.41	8.22	-42.0	-43.6	18.6	0.00e+00	71	38	0	121634816	56	6887
2026-01-01 00:22:39.09	158.41	8.30	-41.9	-43.5	18.7	0.00e+00	0	38	0	123731968	56	6838
2026-01-01 00:22:40.10	158.42	8.38	-41.8	-43.4	18.9	0.00e+00	56	38	0	124780544	56	6708
2026-01-01 00:22:41.11	158.43	8.47	-41.8	-43.4	18.7	0.00e+00	0	38	0	126877696	56	6752
2026-01-01 00:22:42.11	158.43	8.55	-41.8	-43.4	18.9	0.00e+00	92	38	0	128974848	56	6703
2026-01-01 00:22:43.12	158.44	8.63	-41.8	-43.4	18.8	0.00e+00	0	38	0	131072000	56	6763
2026-01-01 00:22:44.13	158.45	8.72	-41.8	-43.4	18.9	0.00e+00	0	38	0	132120576	56	6714
2026-01-01 00:22:45.14	158.46	8.80	-41.7	-43.3	18.9	0.00e+00	92	38	0	134217728	56	6661
2026-01-01 00:22:46.14	158.46	8.88	-42.0	-43.6	18.9	0.00e+00	0	38	0	136314880	56	6884
2026-01-01 00:22:47.15	158.47	8.97	-41.9	-43.6	18.7	0.00e+00	92	38	0	138412032	56	6859
2026-01-01 00:22:48.17	158.48	9.05	-41.9	-43.5	18.8	0.00e+00	0	38	0	140509184	56	6846
2026-01-01 00:22:49.17	158.48	9.14	-41.8	-43.4	18.8	0.00e+00	92	38	0	141557760	56	6746
2026-01-01 00:22:50.18	158.49	9.22	-41.9	-43.5	18.9	0.00e+00	0	38	0	143654912	56	6818
2026-01-01 00:22:51.19	158.50	9.31	-41.9	-43.5	19.0	0.00e+00	33	38	0	145752064	56	6799
2026-01-01 00:22:52.20	158.51	9.39	-41.6	-43.2	19.0	0.00e+00	92	38	0	147849216	56	6547
2026-01-01 00:22:53.21	158.51	9.48	-41.7	-43.2	19.2	0.00e+00	0	38	0	149946368	56	6582
2026-01-01 00:22:54.22	158.52	9.57	-41.7	-43.2	19.1	0.00e+00	92	38	0	152043520	56	6591
2026-01-01 00:22:55.23	158.53	9.65	-41.6	-43.1	19.2	0.00e+00	0	38	0	153092096	56	6532
2026-01-01 00:22:56.24	158.54	9.74	-41.5	-43.0	19.3	0.00e+00	91	38	0	155189248	56	6443
2026-01-01 00:22:57.25	158.54	9.83	-41.5	-43.0	19.3	0.00e+00	0	38	0	157286400	56	6421
2026-01-01 00:22:58.26	158.55	9.92	-41.4	-42.9	19.4	0.00e+00	92	38	0	159383552	56	6348
2026-01-01 00:22:59.27	158.56	10.00	-41.4	-42.8	19.5	0.00e+00	91	38	0	161480704	56	6317
2026-01-01 00:23:00.28	158.57	10.09	-41.4	-42.8	19.5	0.00e+00	0	38	0	162529280	56	6307
2026-01-01 00:23:01.29	158.57	10.18	-41.3	-42.7	19.6	0.00e+00	84	38	0	164626432	56	6206
2026-01-01 00:23:02.30	158.58	10.27	-41.2	-42.6	19.8	0.00e+00	0	38	0	166723584	56	6147
2026-01-01 00:23:03.31	158.59	10.36	-41.1	-42.5	19.8	0.00e+00	90	38	0	168820736	56	6042
2026-01-01 00:23:04.32	158.60	10.45	-41.3	-42.7	19.6	0.00e+00	0	38	0	170917888	56	6208
2026-01-01 00:23:05.33	158.60	10.54	-41.0	-42.4	20.0	0.00e+00	91	38	0	171966464	56	5989
2026-01-01 00:23:06.34	158.61	10.63	-41.0	-42.4	19.9	0.00e+00	92	38	0	174063616	56	5970
2026-01-01 00:23:07.35	158.62	10.72	-41.0	-42.3	19.9	0.00e+00	0	38	0	176160768	56	5958
2026-01-01 00:23:08.36	158.63	10.81	-41.0	-42.3	20.1	0.00e+00	65	38	0	178257920	56	5950
2026-01-01 00:23:09.36	158.63	10.90	-41.0	-42.3	20.0	0.00e+00	0	38	0	180355072	56	5944
2026-01-01 00:23:10.37	158.64	10.99	-40.9	-42.2	20.1	0.00e+00	82	38	0	181403648	56	5888
2026-01-01 00:23:11.38	158.65	11.08	-40.8	-42.1	20.2	0.00e+00	0	38	0	183500800	56	5794
2026-01-01 00:23:12.39	158.66	11.17	-40.7	-42.0	20.2	0.00e+00	91	38	0	185597952	56	5761
2026-01-01 00:23:13.40	158.67	11.27	-40.6	-41.9	20.4	0.00e+00	85	38	0	187695104	54	6343
2026-01-01 00:23:14.41	158.67	11.36	-40.6	-41.9	20.3	0.00e+00	0	38	0	189792256	54	6340
2026-01-01 00:23:15.42	158.68	11.45	-40.6	-41.9	20.3	0.00e+00	90	38	0	190840832	54	6377
2026-01-01 00:23:16.43	158.69	11.55	-40.5	-41.8	20.4	0.00e+00	0	38	0	192937984	54	6296
2026-01-01 00:23:17.44	158.70	11.64	-40.7	-42.0	20.2	0.00e+00	90	38	0	195035136	54	6416
2026-01-01 00:23:18.45	158.71	11.74	-40.5	-41.8	20.5	0.00e+00	0	38	0	197132288	54	6269
2026-01-01 00:23:19.46	158.71	11.83	-40.5	-41.8	20.4	0.00e+00	90	38	0	199229440	54	6306
2026-01-01 00:23:20.47	158.72	11.93	-40.5	-41.8	20.5	0.00e+00	0	38	0	200278016	54	6260
2026-01-01 00:23:21.48	158.73	12.02	-40.4	-41.7	20.5	0.00e+00	89	38	0	202375168	54	6200
2026-01-01 00:23:22.49	158.74	12.12	-40.4	-41.7	20.6	0.00e+00	92	38	0	204472320	54	6196
2026-01-01 00:23:23.50	158.75	12.21	-40.5	-41.8	20.6	0.00e+00	0	38	0	206569472	54	6288
2026-01-01 00:23:24.51	158.75	12.31	-40.4	-41.6	20.6	0.00e+00	86	38	0	208666624	54	6133
2026-01-01 00:23:25.52	158.76	12.41	-40.3	-41.5	20.8	0.00e+00	0	38	0	209715200	54	6088
2026-01-01 00:23:26.53	158.77	12.50	-40.1	-41.3	20.9	0.00e+00	92	38	0	211812352	54	5916
2026-01-01 00:23:27.54	158.78	12.60	-40.2	-41.4	20.9	0.00e+00	0	38	0	213909504	54	5987
2026-01-01 00:23:28.55	158.79	12.70	-40.1	-41.3	21.0	0.00e+00	92	38	0	216006656	54	5920
2026-01-01 00:23:29.55	158.80	12.80	-39.8	-40.9	21.2	0.00e+00	90	38	0	218103808	54	5691
2026-01-01 00:23:30.57	158.80	12.90	-39.8	-41.0	21.2	0.00e+00	0	38	0	220200960	54	5733
2026-01-01 00:23:31.58	158.81	13.00	-39.7	-40.8	21.4	0.00e+00	81	38	0	221249536	54	5616
2026-01-01 00:23:32.58	158.82	13.10	-39.7	-40.8	21.4	0.00e+00	0	38	0	223346688	52	6303
2026-01-01 00:23:33.59	158.83	13.20	-39.8	-40.9	21.3	0.00e+00	92	38	0	225443840	52	6369
2026-01-01 00:23:34.60	158.84	13.30	-39.7	-40.8	21.4	0.00e+00	0	38	0	227540992	52	6276
2026-01-01 00:23:35.61	158.85	13.40	-39.9	-41.0	21.3	0.00e+00	81	38	0	229638144	52	6440
2026-01-01 00:23:36.62	158.86	13.50	-40.1	-41.3	20.9	0.00e+00	90	38	0	230686720	52	6643
2026-01-01 00:23:37.63	158.86	13.60	-39.6	-40.7	21.6	0.00e+00	0	38	0	232783872	52	6194
2026-01-01 00:23:38.64	158.87	13.70	-39.6	-40.7	21.5	0.00e+00	70	38	0	234881024	52	6179
2026-01-01 00:23:39.65	158.88	13.81	-39.3	-40.4	21.9	0.00e+00	0	38	0	236978176	52	5973
2026-01-01 00:23:40.66	158.89	13.91	-39.3	-40.4	21.6	0.00e+00	83	38	0	239075328	52	6014
2026-01-01 00:23:41.67	158.90	14.01	-39.5	-40.6	21.7	0.00e+00	0	38	0	240123904	52	6117
2026-01-01 00:23:42.68	158.91	14.12	-39.2	-40.2	21.9	0.00e+00	92	38	0	242221056	52	5878
2026-01-01 00:23:43.69	158.92	14.22	-39.1	-40.2	22.0	0.00e+00	92	38	0	244318208	52	5842
2026-01-01 00:23:44.70	158.93	14.33	-39.1	-40.2	22.0	0.00e+00	0	38	0	246415360	52	5852
2026-01-01 00:23:45.71	158.94	14.43	-39.1	-40.1	22.1	0.00e+00	92	38	0	248512512	52	5790
2026-01-01 00:23:46.72	158.94	14.54	-39.1	-40.2	22.1	0.00e+00	33	38	0	249561088	52	5832
2026-01-01 00:23:47.73	158.95	14.64	-38.9	-39.9	22.1	0.00e+00	92	38	0	251658240	52	5695
2026-01-01 00:23:48.73	158.96	14.75	-38.8	-39.9	22.1	0.00e+00	0	38	0	253755392	52	5637
2026-01-01 00:23:49.74	158.97	14.86	-38.9	-40.0	22.1	0.00e+00	90	38	0	255852544	52	5702
2026-01-01 00:23:50.75	158.98	14.96	-38.9	-40.0	22.2	0.00e+00	84	38	0	257949696	52	5701
2026-01-01 00:23:51.76	158.99	15.07	-38.8	-39.8	22.3	0.00e+00	0	38	0	258998272	50	6276
2026-01-01 00:23:52.77	159.00	15.18	-38.5	-39.5	22.5	0.00e+00	92	38	0	261095424	50	6076
2026-01-01 00:23:53.78	159.01	15.29	-38.2	-39.2	22.8	0.00e+00	0	38	0	263192576	50	5858
2026-01-01 00:23:54.79	159.02	15.40	-38.3	-39.3	22.7	0.00e+00	88	38	0	265289728	50	5899
2026-01-01 00:23:55.80	159.03	15.51	-38.3	-39.3	22.8	0.00e+00	0	38	0	267386880	50	5902
2026-01-01 00:23:56.81	159.04	15.62	-38.2	-39.2	22.8	0.00e+00	92	38	0	268435456	50	5830
2026-01-01 00:23:57.82	159.05	15.73	-38.3	-39.2	22.8	0.00e+00	85	38	0	270532608	50	5867
2026-01-01 00:23:58.83	159.06	15.84	-38.2	-39.2	22.7	0.00e+00	0	38	0	272629760	50	5856
2026-01-01 00:23:59.84	159.07	15.96	-38.2	-39.2	22.8	0.00e+00	92	38	0	274726912	50	5854
2026-01-01 00:24:00.85	159.08	16.07	-38.0	-39.0	22.7	0.00e+00	0	38	0	276824064	50	5702
2026-01-01 00:24:01.86	159.08	16.18	-38.1	-39.1	22.9	0.00e+00	83	38	0	277872640	50	5782
2026-01-01 00:24:02.87	159.09	16.30	-38.3	-39.3	22.4	0.00e+00	0	38	0	279969792	50	5899
2026-01-01 00:24:03.88	159.10	16.41	-38.1	-39.0	23.0	0.00e+00	90	38	0	282066944	50	5742
2026-01-01 00:24:04.89	159.11	16.53	-38.2	-39.1	22.7	0.00e+00	0	38	0	284164096	50	5783
2026-01-01 00:24:05.90	159.12	16.64	-38.0	-39.0	22.8	0.00e+00	0	38	0	286261248	50	5702
2026-01-01 00:24:06.91	159.13	16.76	-38.0	-38.9	23.1	0.00e+00	92	38	0	288358400	50	5695
2026-01-01 00:24:07.92	159.14	16.87	-38.1	-39.1	22.9	0.00e+00	0	38	0	289406976	50	5775
2026-01-01 00:24:08.93	159.15	16.99	-38.1	-39.0	23.0	0.00e+00	88	38	0	291504128	50	5752
2026-01-01 00:24:09.94	159.16	17.11	-38.0	-39.0	23.0	0.00e+00	0	38	0	293601280	50	5702
2026-01-01 00:24:10.95	159.17	17.23	-38.0	-39.0	23.1	0.00e+00	88	38	0	295698432	50	5708
2026-01-01 00:24:11.96	159.18	17.34	-37.9	-38.8	23.1	0.00e+00	0	38	0	297795584	50	5603
2026-01-01 00:24:12.97	159.19	17.46	-37.9	-38.8	23.2	0.00e+00	91	38	0	298844160	50	5575
2026-01-01 00:24:13.98	159.20	17.58	-37.7	-38.6	23.3	0.00e+00	89	38	0	300941312	50	5497
2026-01-01 00:24:14.99	159.22	17.70	-37.7	-38.6	23.4	0.00e+00	0	38	0	303038464	48	6152
2026-01-01 00:24:16.00	159.23	17.83	-37.7	-38.6	23.4	0.00e+00	7	38	0	305135616	48	6154
2026-01-01 00:24:17.01	159.24	17.95	-37.7	-38.5	23.3	0.00e+00	0	38	0	307232768	48	6100
2026-01-01 00:24:18.02	159.25	18.07	-37.7	-38.6	23.3	0.00e+00	89	38	0	308281344	48	6141
2026-01-01 00:24:19.03	159.26	18.19	-37.6	-38.5	23.4	0.00e+00	0	38	0	310378496	48	6051
2026-01-01 00:24:20.04	159.27	18.32	-37.6	-38.5	23.3	0.00e+00	92	38	0	312475648	48	6100
2026-01-01 00:24:21.05	159.28	18.44	-37.6	-38.5	23.4	0.00e+00	90	38	0	314572800	48	6068
2026-01-01 00:24:22.06	159.29	18.56	-37.5	-38.3	23.4	0.00e+00	0	38	0	316669952	48	5964
2026-01-01 00:24:23.06	159.30	18.69	-37.7	-38.6	23.4	0.00e+00	35	38	0	317718528	48	6108
2026-01-01 00:24:24.07	159.31	18.82	-37.6	-38.5	23.4	0.00e+00	0	38	0	319815680	48	6079
2026-01-01 00:24:25.08	159.32	18.94	-37.7	-38.7	23.3	0.00e+00	87	38	0	321912832	48	6178
2026-01-01 00:24:26.09	159.33	19.07	-37.8	-38.8	23.3	0.00e+00	0	38	0	324009984	48	6260
2026-01-01 00:24:27.10	159.34	19.20	-37.8	-38.7	23.2	0.00e+00	92	38	0	326107136	48	6224
2026-01-01 00:24:28.11	159.35	19.33	-37.9	-38.8	23.2	0.00e+00	56	38	0	327155712	48	6297
2026-01-01 00:24:29.12	159.37	19.46	-37.9	-38.9	23.2	0.00e+00	0	38	0	329252864	48	6320
2026-01-01 00:24:30.13	159.38	19.59	-37.7	-38.6	23.3	0.00e+00	92	38	0	331350016	48	6173
2026-01-01 00:24:31.14	159.39	19.72	-37.9	-38.8	23.2	0.00e+00	0	38	0	333447168	48	6301
2026-01-01 00:24:32.15	159.40	19.85	-37.8	-38.7	23.3	0.00e+00	92	38	0	335544320	48	6225
2026-01-01 00:24:33.16	159.41	19.98	-37.9	-38.8	23.2	0.00e+00	0	38	0	336592896	48	6291
2026-01-01 00:24:34.17	159.42	20.11	-37.7	-38.6	23.3	0.00e+00	70	38	0	338690048	48	6156
2026-01-01 00:24:35.18	159.43	20.25	-37.8	-38.7	23.3	0.00e+00	0	38	0	340787200	48	6240
2026-01-01 00:24:36.19	159.45	20.38	-37.8	-38.7	23.3	0.00e+00	0	38	0	342884352	48	6220
2026-01-01 00:24:37.20	159.46	20.52	-38.0	-38.9	23.2	0.00e+00	90	38	0	344981504	48	6387
2026-01-01 00:24:38.21	159.47	20.65	-38.0	-39.0	23.1	0.00e+00	0	38	0	346030080	48	6391
2026-01-01 00:24:39.22	159.48	20.79	-38.0	-39.0	23.0	0.00e+00	87	38	0	348127232	48	6409
2026-01-01 00:24:40.22	159.49	20.92	-37.7	-38.7	23.4	0.00e+00	0	38	0	350224384	48	6178
2026-01-01 00:24:41.24	159.51	21.06	-37.8	-38.7	23.3	0.00e+00	92	38	0	352321536	48	6192
2026-01-01 00:24:42.25	159.52	21.20	-37.8	-38.7	23.3	0.00e+00	0	38	0	354418688	48	6207
2026-01-01 00:24:43.25	159.53	21.34	-38.0	-38.9	23.2	0.00e+00	90	38	0	356515840	48	6352
2026-01-01 00:24:44.27	159.54	21.48	-38.0	-39.0	23.1	0.00e+00	92	38	0	357564416	48	6421
2026-01-01 00:24:45.28	159.55	21.62	-38.1	-39.0	23.1	0.00e+00	0	38	0	359661568	48	6424
2026-01-01 00:24:46.29	159.57	21.76	-38.2	-39.2	22.9	0.00e+00	89	38	0	361758720	48	6555
2026-01-01 00:24:47.30	159.58	21.91	-38.2	-39.2	22.9	0.00e+00	0	38	0	363855872	48	6572
2026-01-01 00:24:48.31	159.59	22.05	-38.2	-39.2	22.9	0.00e+00	92	38	0	365953024	48	6545
2026-01-01 00:24:49.32	159.60	22.19	-38.4	-39.3	22.7	0.00e+00	0	38	0	367001600	48	6688
2026-01-01 00:24:50.33	159.62	22.34	-38.2	-39.2	23.0	0.00e+00	92	38	0	369098752	48	6555
2026-01-01 00:24:51.33	159.63	22.48	-38.4	-39.3	22.9	0.00e+00	88	38	0	371195904	48	6691
2026-01-01 00:24:52.34	159.64	22.63	-38.3	-39.2	22.9	0.00e+00	0	38	0	373293056	48	6611
2026-01-01 00:24:53.35	159.66	22.78	-37.9	-38.8	23.3	0.00e+00	77	38	0	375390208	48	6279
2026-01-01 00:24:54.36	159.67	22.93	-38.0	-39.0	23.2	0.00e+00	0	38	0	376438784	48	6397
2026-01-01 00:24:55.37	159.68	23.08	-38.1	-39.0	23.1	0.00e+00	92	38	0	378535936	48	6436
2026-01-01 00:24:56.38	159.70	23.23	-38.1	-39.1	23.1	0.00e+00	0	38	0	380633088	48	6468
2026-01-01 00:24:57.39	159.71	23.38	-38.1	-39.0	23.1	0.00e+00	90	38	0	382730240	48	6437
2026-01-01 00:24:58.40	159.72	23.53	-38.1	-39.0	23.1	0.00e+00	7	38	0	384827392	48	6460
2026-01-01 00:24:59.41	159.74	23.68	-38.3	-39.2	22.9	0.00e+00	2	38	0	385875968	48	6614
2026-01-01 00:25:00.42	159.75	23.83	-38.4	-39.4	22.7	0.00e+00	91	38	0	387973120	48	6717
2026-01-01 00:25:01.43	159.76	23.99	-38.1	-39.1	23.1	0.00e+00	0	38	0	390070272	48	6479
2026-01-01 00:25:02.44	159.78	24.15	-38.3	-39.2	22.9	0.00e+00	89	38	0	392167424	48	6602
2026-01-01 00:25:03.45	159.79	24.30	-38.4	-39.3	22.7	0.00e+00	0	38	0	394264576	48	6648
2026-01-01 00:25:04.46	159.81	24.46	-38.4	-39.4	22.8	0.00e+00	91	38	0	395313152	48	6711
2026-01-01 00:25:05.47	159.82	24.62	-38.3	-39.3	23.0	0.00e+00	0	38	0	397410304	48	6635
2026-01-01 00:25:06.48	159.83	24.78	-38.2	-39.2	23.2	0.00e+00	90	38	0	399507456	48	6552
2026-01-01 00:25:07.49	159.85	24.94	-38.2	-39.2	23.0	0.00e+00	92	38	0	401604608	48	6548
2026-01-01 00:25:08.50	159.86	25.10	-38.0	-38.9	23.1	0.00e+00	0	38	0	403701760	48	6389
2026-01-01 00:25:09.51	159.88	25.26	-37.9	-38.8	23.3	0.00e+00	74	38	0	404750336	48	6277
2026-01-01 00:25:10.52	159.89	25.42	-37.9	-38.8	23.4	0.00e+00	0	38	0	406847488	48	6267
2026-01-01 00:25:11.53	159.91	25.59	-37.8	-38.7	23.2	0.00e+00	92	38	0	408944640	48	6207
2026-01-01 00:25:12.54	159.92	25.75	-37.9	-38.8	23.2	0.00e+00	25	38	0	411041792	48	6286
2026-01-01 00:25:13.55	159.94	25.92	-38.2	-39.1	23.1	0.00e+00	91	38	0	413138944	48	6489
2026-01-01 00:25:14.56	159.95	26.09	-38.2	-39.1	23.1	0.00e+00	92	38	0	414187520	48	6504
2026-01-01 00:25:15.57	159.97	26.26	-38.2	-39.1	23.1	0.00e+00	0	38	0	416284672	48	6512
2026-01-01 00:25:16.58	159.98	26.42	-38.6	-39.6	22.7	0.00e+00	53	38	0	418381824	48	6854
2026-01-01 00:25:17.59	160.00	26.60	-39.0	-40.0	22.7	0.00e+00	0	38	0	420478976	50	6393
2026-01-01 00:25:18.60	160.02	26.77	-38.7	-39.6	22.6	0.00e+00	88	38	0	422576128	50	6126
2026-01-01 00:25:19.61	160.03	26.94	-38.8	-39.7	22.6	0.00e+00	0	38	0	424673280	50	6227
2026-01-01 00:25:20.62	160.05	27.11	-38.5	-39.4	22.8	0.00e+00	92	38	0	425721856	50	6003
2026-01-01 00:25:21.63	160.06	27.29	-38.5	-39.4	22.9	0.00e+00	92	38	0	427819008	50	6015
2026-01-01 00:25:22.63	160.08	27.46	-38.7	-39.7	22.6	0.00e+00	0	38	0	429916160	50	6176
2026-01-01 00:25:23.64	160.10	27.64	-38.4	-39.3	22.9	0.00e+00	85	38	0	432013312	50	5948
2026-01-01 00:25:24.65	160.11	27.82	-38.6	-39.6	22.8	0.00e+00	0	38	0	434110464	50	6109
2026-01-01 00:25:25.66	160.13	28.00	-38.6	-39.6	22.6	0.00e+00	92	38	0	435159040	50	6124
2026-01-01 00:25:26.67	160.15	28.18	-38.7	-39.7	22.7	0.00e+00	0	38	0	437256192	50	6179
2026-01-01 00:25:27.68	160.16	28.36	-39.2	-40.2	22.3	0.00e+00	92	38	0	439353344	50	6554
2026-01-01 00:25:28.69	160.18	28.54	-39.5	-40.5	21.9	0.00e+00	91	38	0	441450496	50	6832
2026-01-01 00:25:29.70	160.20	28.73	-39.8	-40.8	21.6	0.00e+00	0	38	0	443547648	50	7074
2026-01-01 00:25:30.71	160.22	28.91	-40.4	-41.5	21.2	0.00e+00	88	38	0	444596224	52	6832
2026-01-01 00:25:31.72	160.23	29.10	-40.0	-41.2	21.4	0.00e+00	0	38	0	446693376	52	6566
2026-01-01 00:25:32.73	160.25	29.29	-40.0	-41.2	21.3	0.00e+00	91	38	0	448790528	52	6568
2026-01-01 00:25:33.74	160.27	29.48	-40.4	-41.6	21.3	0.00e+00	0	38	0	450887680	52	6866
2026-01-01 00:25:34.75	160.29	29.67	-40.4	-41.6	21.2	0.00e+00	91	38	0	452984832	52	6895
2026-01-01 00:25:35.76	160.31	29.86	-40.3	-41.5	21.2	0.00e+00	88	38	0	454033408	52	6796
2026-01-01 00:25:36.76	160.32	30.05	-40.1	-41.3	21.5	0.00e+00	38	38	0	456130560	52	6621
2026-01-01 00:25:37.77	160.34	30.24	-40.1	-41.3	21.4	0.00e+00	92	38	0	458227712	52	6658
2026-01-01 00:25:38.78	160.36	30.44	-40.0	-41.1	21.5	0.00e+00	0	38	0	460324864	52	6537
2026-01-01 00:25:39.79	160.38	30.64	-40.3	-41.4	21.3	0.00e+00	87	38	0	462422016	52	6767
2026-01-01 00:25:40.80	160.40	30.84	-40.3	-41.5	21.5	0.00e+00	0	38	0	463470592	52	6816
2026-01-01 00:25:41.81	160.42	31.04	-40.4	-41.5	21.1	0.00e+00	92	38	0	465567744	52	6847
2026-01-01 00:25:42.82	160.44	31.24	-40.4	-41.6	21.1	0.00e+00	0	38	0	467664896	52	6899
2026-01-01 00:25:43.83	160.46	31.44	-40.3	-41.5	21.6	0.00e+00	63	38	0	469762048	52	6774
2026-01-01 00:25:44.84	160.48	31.64	-40.4	-41.5	21.0	0.00e+00	92	38	0	471859200	52	6834
2026-01-01 00:25:45.85	160.50	31.85	-40.4	-41.6	21.2	0.00e+00	0	38	0	472907776	52	6887
2026-01-01 00:25:46.86	160.52	32.05	-39.8	-40.9	21.7	0.00e+00	79	38	0	475004928	52	6321
2026-01-01 00:25:47.87	160.54	32.26	-39.8	-40.9	21.7	0.00e+00	0	38	0	477102080	52	6360
2026-01-01 00:25:48.88	160.56	32.47	-39.9	-41.0	21.6	0.00e+00	92	38	0	479199232	52	6447
2026-01-01 00:25:49.88	160.58	32.68	-39.9	-41.0	21.7	0.00e+00	0	38	0	481296384	52	6404
2026-01-01 00:25:50.89	160.60	32.89	-40.2	-41.3	21.3	0.00e+00	92	38	0	482344960	52	6685
2026-01-01 00:25:51.90	160.62	33.11	-40.5	-41.6	21.1	0.00e+00	90	38	0	484442112	52	6922
2026-01-01 00:25:52.91	160.65	33.32	-40.8	-42.0	20.5	0.00e+00	0	38	0	486539264	54	6440
2026-01-01 00:25:53.92	160.67	33.54	-40.6	-41.8	20.8	0.00e+00	91	38	0	488636416	54	6274
2026-01-01 00:25:54.93	160.69	33.76	-40.6	-41.8	20.9	0.00e+00	0	38	0	490733568	54	6296
2026-01-01 00:25:55.94	160.71	33.98	-40.7	-41.9	20.7	0.00e+00	92	38	0	492830720	54	6330
2026-01-01 00:25:56.95	160.74	34.20	-40.6	-41.8	20.9	0.00e+00	0	38	0	493879296	54	6286
2026-01-01 00:25:57.96	160.76	34.43	-40.4	-41.6	21.3	0.00e+00	90	38	0	495976448	54	6114
2026-01-01 00:25:58.97	160.78	34.65	-40.2	-41.3	21.4	0.00e+00	92	38	0	498073600	54	5951
2026-01-01 00:25:59.98	160.81	34.88	-39.8	-40.9	22.0	0.00e+00	0	38	0	500170752	52	6324
2026-01-01 00:26:00.99	160.83	35.11	-39.1	-40.2	22.4	0.00e+00	47	38	0	502267904	52	5844
2026-01-01 00:26:02.00	160.85	35.34	-39.2	-40.2	22.4	0.00e+00	0	38	0	503316480	52	5877
2026-01-01 00:26:03.01	160.88	35.57	-38.7	-39.7	22.7	0.00e+00	92	38	0	505413632	50	6179
2026-01-01 00:26:04.02	160.90	35.80	-38.2	-39.1	23.2	0.00e+00	0	38	0	507510784	50	5816
2026-01-01 00:26:05.03	160.93	36.04	-37.6	-38.5	23.5	0.00e+00	92	38	0	509607936	48	6085
2026-01-01 00:26:06.04	160.95	36.27	-37.6	-38.5	23.7	0.00e+00	91	38	0	511705088	48	6062
2026-01-01 00:26:07.05	160.98	36.51	-37.2	-38.0	23.9	0.00e+00	0	38	0	512753664	48	5760
2026-01-01 00:26:08.06	161.01	36.75	-37.0	-37.9	24.1	0.00e+00	92	38	0	514850816	48	5632
2026-01-01 00:26:09.06	161.03	36.99	-36.8	-37.6	24.2	0.00e+00	0	38	0	516947968	48	5451
2026-01-01 00:26:10.07	161.06	37.23	-36.8	-37.6	24.3	0.00e+00	91	38	0	519045120	46	6116
2026-01-01 00:26:11.08	161.09	37.48	-36.6	-37.4	24.5	0.00e+00	0	38	0	521142272	46	5981
2026-01-01 00:26:12.09	161.11	37.73	-36.6	-37.4	24.5	0.00e+00	92	38	0	522190848	46	5967
2026-01-01 00:26:13.10	161.14	37.98	-36.5	-37.3	24.4	0.00e+00	59	38	0	524288000	46	5919
2026-01-01 00:26:14.11	161.17	38.23	-36.2	-37.0	24.7	0.00e+00	0	38	0	526385152	46	5706
2026-01-01 00:26:15.12	161.20	38.48	-36.2	-37.0	24.7	0.00e+00	92	38	0	528482304	46	5698
2026-01-01 00:26:16.13	161.23	38.74	-36.2	-37.0	24.7	0.00e+00	0	38	0	530579456	46	5701
2026-01-01 00:26:17.14	161.26	38.99	-36.3	-37.1	24.6	0.00e+00	92	38	0	531628032	46	5811
2026-01-01 00:26:18.15	161.29	39.25	-36.4	-37.2	24.4	0.00e+00	0	38	0	533725184	46	5886
2026-01-01 00:26:19.16	161.32	39.51	-36.6	-37.4	24.4	0.00e+00	60	38	0	535822336	46	6012
2026-01-01 00:26:20.17	161.35	39.77	-36.7	-37.6	24.4	7.00e-07	0	38	0	537919488	46	6117
2026-01-01 00:26:21.18	161.38	40.04	-37.0	-37.8	24.1	0.00e+00	92	38	0	540016640	46	6306
2026-01-01 00:26:22.19	161.41	40.31	-37.0	-37.9	24.1	0.00e+00	92	38	0	541065216	46	6354
2026-01-01 00:26:23.20	161.44	40.57	-37.2	-38.1	24.0	0.00e+00	0	38	0	543162368	46	6501
2026-01-01 00:26:24.21	161.47	40.85	-37.0	-37.9	24.0	0.00e+00	92	38	0	545259520	46	6353
2026-01-01 00:26:25.22	161.51	41.12	-37.5	-38.4	23.6	0.00e+00	0	38	0	547356672	46	6760
2026-01-01 00:26:26.23	161.54	41.39	-37.7	-38.6	23.5	0.00e+00	92	38	0	549453824	48	6153
2026-01-01 00:26:27.23	161.57	41.67	-38.1	-39.0	23.1	0.00e+00	0	38	0	550502400	48	6450
2026-01-01 00:26:28.24	161.61	41.95	-38.2	-39.2	23.2	0.00e+00	92	38	0	552599552	48	6557
2026-01-01 00:26:29.25	161.64	42.23	-37.8	-38.7	23.4	0.00e+00	92	38	0	554696704	48	6229
2026-01-01 00:26:30.26	161.68	42.51	-38.3	-39.2	23.2	0.00e+00	0	38	0	556793856	48	6575
2026-01-01 00:26:31.27	161.72	42.80	-38.1	-39.0	23.2	0.00e+00	79	38	0	558891008	48	6426
2026-01-01 00:26:32.28	161.75	43.08	-38.6	-39.6	23.0	0.00e+00	33	38	0	559939584	48	6852
2026-01-01 00:26:33.29	161.79	43.37	-38.2	-39.1	23.1	0.00e+00	92	38	0	562036736	48	6532
2026-01-01 00:26:34.30	161.83	43.66	-38.5	-39.4	23.0	0.00e+00	0	38	0	564133888	48	6723
2026-01-01 00:26:35.31	161.87	43.96	-38.3	-39.2	23.0	0.00e+00	90	38	0	566231040	48	6575
2026-01-01 00:26:36.32	161.91	44.25	-38.6	-39.5	22.9	0.00e+00	92	38	0	568328192	50	6089
2026-01-01 00:26:37.32	161.94	44.55	-39.6	-40.6	22.2	0.00e+00	0	38	0	569376768	50	6923
2026-01-01 00:26:38.33	161.99	44.85	-39.5	-40.5	22.0	0.00e+00	92	38	0	571473920	50	6837
2026-01-01 00:26:39.34	162.03	45.15	-39.8	-40.9	21.8	0.00e+00	0	38	0	573571072	52	6353
2026-01-01 00:26:40.35	162.07	45.46	-40.3	-41.5	21.2	0.00e+00	92	38	0	575668224	52	6781
2026-01-01 00:26:41.36	162.11	45.77	-40.6	-41.8	21.0	0.00e+00	1	38	0	577765376	52	7076
2026-01-01 00:26:42.37	162.15	46.08	-40.3	-41.5	21.2	0.00e+00	92	38	0	578813952	52	6779
2026-01-01 00:26:43.38	162.20	46.39	-40.3	-41.5	21.2	0.00e+00	92	38	0	580911104	52	6803
2026-01-01 00:26:44.39	162.24	46.70	-40.4	-41.5	21.2	0.00e+00	0	38	0	583008256	52	6832
2026-01-01 00:26:45.40	162.29	47.02	-40.3	-41.5	21.5	0.00e+00	90	38	0	585105408	52	6779
2026-01-01 00:26:46.41	162.34	47.34	-40.7	-41.8	20.8	0.00e+00	0	38	0	587202560	52	7082
2026-01-01 00:26:47.42	162.38	47.66	-40.3	-41.4	21.1	0.00e+00	92	38	0	589299712	54	6007
2026-01-01 00:26:48.42	162.43	47.98	-40.3	-41.4	21.2	0.00e+00	0	38	0	590348288	54	5972
2026-01-01 00:26:49.43	162.48	48.31	-40.5	-41.7	21.1	0.00e+00	92	38	0	592445440	54	6198
2026-01-01 00:26:50.44	162.53	48.64	-40.1	-41.2	21.4	0.00e+00	92	38	0	594542592	54	5883
2026-01-01 00:26:51.45	162.58	48.97	-40.3	-41.5	21.3	0.00e+00	0	38	0	596639744	54	6049
2026-01-01 00:26:52.46	162.64	49.31	-40.3	-41.5	21.1	0.00e+00	90	38	0	598736896	54	6040
2026-01-01 00:26:53.47	162.69	49.64	-40.8	-42.1	20.7	0.00e+00	0	38	0	599785472	54	6489
2026-01-01 00:26:54.48	162.75	49.98	-39.9	-41.0	21.7	0.00e+00	92	38	0	601882624	54	5734
2026-01-01 00:26:55.49	162.80	50.32	-39.5	-40.6	22.0	0.00e+00	0	38	0	603979776	52	6132
2026-01-01 00:26:56.50	162.86	50.67	-38.8	-39.8	22.7	0.00e+00	92	38	0	606076928	52	5580
2026-01-01 00:26:57.51	162.92	51.01	-38.2	-39.1	23.2	0.00e+00	0	38	0	608174080	50	5796
2026-01-01 00:26:58.52	162.98	51.36	-37.5	-38.3	23.7	0.00e+00	92	38	0	609222656	48	5958
2026-01-01 00:26:59.53	163.04	51.72	-36.4	-37.2	24.4	0.00e+00	92	38	0	611319808	46	5856
2026-01-01 00:27:00.53	163.10	52.07	-36.2	-36.9	24.8	0.00e+00	0	38	0	613416960	46	5676
2026-01-01 00:27:01.55	163.16	52.43	-36.5	-37.3	24.4	0.00e+00	68	38	0	615514112	46	5920
2026-01-01 00:27:02.55	163.23	52.78	-37.1	-37.9	24.0	0.00e+00	0	38	0	617611264	46	6374
2026-01-01 00:27:03.56	163.30	53.15	-37.4	-38.3	23.8	0.00e+00	92	38	0	618659840	46	6637
2026-01-01 00:27:04.57	163.36	53.51	-37.7	-38.7	23.5	0.00e+00	0	38	0	620756992	48	6181
2026-01-01 00:27:05.59	163.43	53.88	-37.6	-38.5	23.5	0.00e+00	92	38	0	622854144	48	6088
2026-01-01 00:27:06.60	163.51	54.25	-37.8	-38.8	23.4	0.00e+00	92	38	0	624951296	48	6258
2026-01-01 00:27:07.60	163.58	54.62	-37.9	-38.8	23.5	0.00e+00	0	38	0	627048448	48	6260
2026-01-01 00:27:08.61	163.66	55.00	-37.7	-38.6	23.6	0.00e+00	89	38	0	628097024	48	6136
2026-01-01 00:27:09.62	163.73	55.37	-37.3	-38.1	23.8	0.00e+00	0	38	0	630194176	48	5824
2026-01-01 00:27:10.63	163.81	55.75	-37.2	-38.0	24.0	0.00e+00	83	38	0	632291328	48	5743
2026-01-01 00:27:11.64	163.89	56.14	-36.4	-37.2	24.5	0.00e+00	33	38	0	634388480	46	5879
2026-01-01 00:27:12.65	163.98	56.52	-36.3	-37.1	24.6	0.00e+00	91	38	0	636485632	46	5787
2026-01-01 00:27:13.66	164.06	56.91	-36.5	-37.3	24.5	0.00e+00	89	38	0	637534208	46	5923
2026-01-01 00:27:14.67	164.15	57.30	-36.9	-37.8	23.6	0.00e+00	0	38	0	639631360	46	6265
2026-01-01 00:27:15.67	164.24	57.69	-37.5	-38.5	23.6	0.00e+00	90	38	0	641728512	46	6770
2026-01-01 00:27:16.68	164.33	58.09	-37.4	-38.3	23.8	0.00e+00	0	38	0	643825664	48	5912
2026-01-01 00:27:17.69	164.43	58.49	-37.5	-38.4	23.8	0.00e+00	90	38	0	645922816	48	6000
2026-01-01 00:27:18.70	164.53	58.89	-37.1	-37.9	24.1	0.00e+00	0	38	0	646971392	48	5685
2026-01-01 00:27:19.71	164.63	59.29	-36.8	-37.6	24.1	0.00e+00	90	38	0	649068544	48	5468
2026-01-01 00:27:20.72	164.73	59.70	-36.7	-37.5	24.4	0.00e+00	0	38	0	651165696	46	6070
2026-01-01 00:27:21.73	164.84	60.11	-36.5	-37.3	24.3	0.00e+00	0	38	0	653262848	46	5909
2026-01-01 00:27:22.74	164.95	60.52	-35.9	-36.6	25.0	0.00e+00	92	38	0	655360000	46	5475
2026-01-01 00:27:23.75	165.07	60.94	-36.1	-36.9	24.9	0.00e+00	0	38	0	657457152	46	5675
2026-01-01 00:27:24.76	165.19	61.35	-36.2	-37.0	24.6	0.00e+00	92	38	0	658505728	46	5700
2026-01-01 00:27:25.76	165.31	61.77	-36.1	-36.9	24.9	0.00e+00	0	38	0	660602880	46	5647
2026-01-01 00:27:26.77	165.44	62.19	-35.6	-36.3	25.2	0.00e+00	92	38	0	662700032	44	5947
2026-01-01 00:27:27.78	165.57	62.61	-35.3	-36.1	25.2	0.00e+00	0	38	0	664797184	44	5780
2026-01-01 00:27:28.79	165.70	63.04	-35.8	-36.6	24.9	0.00e+00	0	38	0	666894336	44	6147
2026-01-01 00:27:29.79	165.84	63.47	-36.0	-36.8	24.9	0.00e+00	92	38	0	667942912	44	6290
2026-01-01 00:27:30.80	165.99	63.90	-35.7	-36.5	25.1	0.00e+00	0	38	0	670040064	44	6037
2026-01-01 00:27:31.81	166.14	64.33	-35.5	-36.2	25.1	0.00e+00	92	38	0	672137216	44	5886
2026-01-01 00:27:32.82	166.29	64.77	-35.7	-36.4	25.2	0.00e+00	0	38	0	674234368	44	6024
2026-01-01 00:27:33.83	166.46	65.21	-35.9	-36.7	24.8	0.00e+00	92	38	0	675282944	44	6211
2026-01-01 00:27:34.84	166.63	65.65	-36.0	-36.8	24.8	0.00e+00	17	38	0	677380096	44	6264
2026-01-01 00:27:35.85	166.80	66.09	-36.1	-36.9	24.9	0.00e+00	56	38	0	679477248	44	6325
2026-01-01 00:27:36.86	166.98	66.54	-36.3	-37.1	24.5	0.00e+00	92	38	0	681574400	44	6508
2026-01-01 00:27:37.87	167.17	66.99	-36.9	-37.7	24.2	0.00e+00	0	38	0	683671552	46	6216
2026-01-01 00:27:38.88	167.37	67.44	-37.5	-38.4	23.7	0.00e+00	91	38	0	685768704	46	6700
2026-01-01 00:27:39.88	167.58	67.89	-38.2	-39.2	23.0	0.00e+00	0	38	0	686817280	48	6541
2026-01-01 00:27:40.90	167.80	68.34	-39.4	-40.5	22.2	0.00e+00	82	38	0	688914432	50	6788
2026-01-01 00:27:41.90	168.02	68.80	-40.6	-41.9	21.0	0.00e+00	0	38	0	691011584	52	7098
2026-01-01 00:27:42.91	168.26	69.26	-40.4	-41.6	21.2	0.00e+00	70	38	0	693108736	54	6161
2026-01-01 00:27:43.92	168.51	69.72	-40.5	-41.7	21.2	0.00e+00	92	38	0	695205888	54	6207
2026-01-01 00:27:44.93	168.77	70.18	-40.6	-41.9	20.9	0.00e+00	0	38	0	696254464	54	6327
2026-01-01 00:27:45.94	169.04	70.64	-40.5	-41.7	20.9	0.00e+00	92	38	0	698351616	54	6236
2026-01-01 00:27:46.95	169.33	71.11	-40.5	-41.7	20.8	0.00e+00	0	38	0	700448768	54	6188
2026-01-01 00:27:47.96	169.63	71.58	-40.8	-42.0	20.7	0.00e+00	92	38	0	702545920	54	6454
2026-01-01 00:27:48.97	169.95	72.04	-40.2	-41.4	21.5	0.00e+00	0	38	0	704643072	54	6000
2026-01-01 00:27:49.98	170.29	72.52	-38.2	-39.1	23.2	0.00e+00	91	38	0	705691648	50	5818
2026-01-01 00:27:50.99	170.65	72.99	-36.7	-37.5	24.3	0.00e+00	77	38	0	707788800	46	6072
2026-01-01 00:27:52.00	171.03	73.46	-36.9	-37.7	24.1	0.00e+00	0	38	0	709885952	46	6224
2026-01-01 00:27:53.01	171.43	73.93	-37.4	-38.3	23.7	0.00e+00	33	38	0	711983104	46	6687
2026-01-01 00:27:54.02	171.85	74.41	-36.7	-37.5	24.4	0.00e+00	0	38	0	714080256	46	6096
2026-01-01 00:27:55.02	172.30	74.88	-37.5	-38.4	23.7	0.00e+00	92	38	0	715128832	46	6705
2026-01-01 00:27:56.03	172.79	75.36	-39.4	-40.6	22.0	0.00e+00	0	38	0	717225984	50	6855
2026-01-01 00:27:57.04	173.31	75.84	-40.1	-41.3	21.6	0.00e+00	92	38	0	719323136	52	6623
2026-01-01 00:27:58.05	173.86	76.32	-38.9	-39.9	22.7	0.00e+00	92	38	0	721420288	52	5632
2026-01-01 00:27:59.07	174.47	76.80	-38.3	-39.2	23.2	0.00e+00	0	38	0	723517440	50	5852
2026-01-01 00:28:00.07	175.10	77.27	-39.5	-40.5	22.0	0.00e+00	92	38	0	724566016	50	6842
2026-01-01 00:28:01.08	175.80	77.75	-39.9	-41.0	21.5	0.00e+00	0	38	0	726663168	50	7192
2026-01-01 00:28:02.09	176.55	78.23	-40.8	-42.0	20.9	0.00e+00	70	38	0	728760320	54	6462
2026-01-01 00:28:03.10	177.37	78.71	-40.6	-41.7	21.0	0.00e+00	0	38	0	730857472	54	6232
2026-01-01 00:28:04.11	178.26	79.18	-39.3	-40.3	22.3	0.00e+00	60	38	0	732954624	52	5904
2026-01-01 00:28:05.12	179.23	79.66	-38.9	-39.8	22.6	0.00e+00	0	38	0	734003200	52	5611
2026-01-01 00:28:06.13	180.30	80.13	-39.7	-40.8	21.9	0.00e+00	11	38	0	736100352	52	6292
2026-01-01 00:28:07.14	181.48	80.60	-39.9	-41.1	21.7	0.00e+00	87	38	0	738197504	52	6469
2026-01-01 00:28:08.15	182.78	81.07	-40.3	-41.5	21.1	0.00e+00	0	38	0	740294656	52	6792
2026-01-01 00:28:09.16	184.23	81.53	-42.8	-44.6	18.6	0.00e+00	79	38	0	742391808	56	7690
2026-01-01 00:28:10.17	185.84	81.99	-42.6	-44.3	18.5	0.00e+00	0	38	0	743440384	58	6669
2026-01-01 00:28:11.18	187.65	82.44	-41.6	-42.9	19.9	0.00e+00	61	38	0	745537536	56	6371
2026-01-01 00:28:12.18	189.67	82.88	-40.4	-41.5	21.2	0.00e+00	0	38	0	747634688	54	6061
2026-01-01 00:28:13.19	191.98	83.31	-39.1	-40.1	22.5	0.00e+00	0	38	0	749731840	52	5787
2026-01-01 00:28:14.20	194.60	83.74	-39.0	-39.9	22.5	0.00e+00	92	38	0	751828992	52	5678
2026-01-01 00:28:15.21	197.60	84.14	-38.8	-39.7	22.9	0.00e+00	0	38	0	753926144	50	6214
2026-01-01 00:28:16.21	201.01	84.53	-38.5	-39.4	22.7	0.00e+00	92	38	0	754974720	50	6011
2026-01-01 00:28:17.22	204.96	84.90	-39.4	-40.5	22.0	0.00e+00	0	38	0	757071872	50	6770
2026-01-01 00:28:18.23	209.50	85.24	-39.5	-40.5	22.2	0.00e+00	92	38	0	759169024	52	6051
2026-01-01 00:28:19.24	214.71	85.55	-38.7	-39.7	22.5	0.00e+00	2	38	0	761266176	50	6229
2026-01-01 00:28:20.25	220.64	85.81	-40.4	-41.6	21.2	0.00e+00	37	38	0	763363328	52	6917
2026-01-01 00:28:21.26	227.29	86.03	-41.0	-42.3	21.1	0.00e+00	90	38	0	764411904	54	6622
2026-01-01 00:28:22.27	234.59	86.19	-40.1	-41.2	21.6	0.00e+00	0	38	0	766509056	54	5878
2026-01-01 00:28:23.28	242.38	86.28	-40.9	-42.2	20.7	0.00e+00	7	38	0	768606208	54	6604
2026-01-01 00:28:24.29	250.41	86.30	-38.5	-39.5	22.9	0.00e+00	0	38	0	770703360	52	5389
2026-01-01 00:28:25.30	258.36	86.24	-36.1	-36.9	24.7	0.00e+00	90	38	0	772800512	46	5655
2026-01-01 00:28:26.31	265.95	86.12	-36.0	-36.7	25.0	0.00e+00	0	38	0	773849088	46	5561
2026-01-01 00:28:27.32	272.95	85.93	-37.2	-38.1	23.9	0.00e+00	92	38	0	775946240	46	6468
2026-01-01 00:28:28.33	279.27	85.69	-39.3	-40.3	22.2	0.00e+00	92	38	0	778043392	50	6656
2026-01-01 00:28:29.34	284.85	85.41	-38.9	-39.9	22.3	0.00e+00	0	38	0	780140544	52	5639
2026-01-01 00:28:30.35	289.73	85.08	-38.7	-39.6	22.6	0.00e+00	80	38	0	782237696	50	6159
2026-01-01 00:28:31.36	293.99	84.73	-38.4	-39.3	22.8	0.00e+00	0	38	0	783286272	50	5947
2026-01-01 00:28:32.36	297.65	84.35	-37.7	-38.6	23.4	0.00e+00	62	38	0	785383424	48	6147
2026-01-01 00:28:33.37	300.87	83.95	-38.2	-39.2	23.0	0.00e+00	0	38	0	787480576	48	6576
2026-01-01 00:28:34.38	303.69	83.54	-38.3	-39.3	22.9	0.00e+00	92	38	0	789577728	48	6662
2026-01-01 00:28:35.39	306.15	83.11	-38.6	-39.6	22.9	0.00e+00	0	38	0	791674880	50	6142
2026-01-01 00:28:36.40	308.33	82.67	-38.7	-39.6	22.7	0.00e+00	0	38	0	792723456	50	6142
2026-01-01 00:28:37.41	310.25	82.22	-40.2	-41.3	21.2	0.00e+00	76	38	0	794820608	52	6676
2026-01-01 00:28:38.42	311.96	81.77	-41.9	-43.4	19.5	0.00e+00	0	38	0	796917760	56	6745
2026-01-01 00:28:39.43	313.49	81.31	-41.5	-42.8	20.2	0.00e+00	63	38	0	799014912	56	6317
2026-01-01 00:28:40.44	314.87	80.84	-40.5	-41.7	20.9	0.00e+00	0	38	0	801112064	54	6232
2026-01-01 00:28:41.45	316.11	80.38	-39.7	-40.7	21.9	0.00e+00	91	38	0	802160640	52	6233
2026-01-01 00:28:42.46	317.23	79.91	-39.5	-40.5	22.5	0.00e+00	6	38	0	804257792	52	6075
2026-01-01 00:28:43.47	318.25	79.43	-39.1	-40.2	22.3	0.00e+00	0	38	0	806354944	52	5832
2026-01-01 00:28:44.48	319.18	78.96	-40.7	-42.0	20.5	0.00e+00	92	38	0	808452096	52	7232
2026-01-01 00:28:45.49	320.04	78.48	-41.4	-42.8	20.1	0.00e+00	0	38	0	810549248	56	6291
2026-01-01 00:28:46.51	320.83	78.00	-40.0	-41.0	21.6	0.00e+00	88	38	0	811597824	54	5759
2026-01-01 00:28:47.52	321.55	77.52	-39.7	-40.8	22.0	0.00e+00	0	38	0	813694976	52	6251
2026-01-01 00:28:48.53	322.22	77.04	-40.2	-41.4	21.3	0.00e+00	92	38	0	815792128	52	6717
2026-01-01 00:28:49.53	322.83	76.57	-39.3	-40.4	21.9	0.00e+00	0	38	0	817889280	52	5975
2026-01-01 00:28:50.55	323.42	76.09	-39.8	-40.9	21.8	0.00e+00	0	38	0	819986432	52	6328
2026-01-01 00:28:51.56	323.95	75.61	-39.6	-40.7	21.8	0.00e+00	92	38	0	822083584	52	6197
2026-01-01 00:28:52.57	324.46	75.13	-39.4	-40.4	22.0	0.00e+00	0	38	0	823132160	52	5983
2026-01-01 00:28:53.57	324.92	74.66	-40.9	-42.1	20.5	0.00e+00	50	38	0	825229312	52	7322
2026-01-01 00:28:54.59	325.37	74.18	-42.4	-44.0	18.8	0.00e+00	0	38	0	827326464	56	7203
2026-01-01 00:28:55.60	325.78	73.71	-40.7	-41.9	20.6	0.00e+00	92	38	0	829423616	54	6367
2026-01-01 00:28:56.60	326.17	73.24	-41.7	-43.2	19.5	0.00e+00	0	38	0	831520768	54	7343
2026-01-01 00:28:57.61	326.53	72.77	-44.2	-46.5	16.5	0.00e+00	0	38	0	832569344	60	7654
2026-01-01 00:28:58.62	326.88	72.30	-42.3	-43.8	19.1	0.00e+00	81	38	0	834666496	58	6305
2026-01-01 00:28:59.63	327.21	71.83	-42.9	-44.6	18.3	0.00e+00	0	38	0	836763648	58	6913
2026-01-01 00:29:00.64	327.52	71.36	-43.7	-45.7	17.1	0.00e+00	34	38	0	838860800	60	6976
2026-01-01 00:29:01.65	327.82	70.89	-43.6	-45.6	17.8	0.00e+00	0	38	0	840957952	60	6924
2026-01-01 00:29:02.66	328.10	70.43	-44.4	-46.8	16.4	0.00e+00	87	38	0	842006528	60	7873
2026-01-01 00:29:03.67	328.37	69.97	-43.8	-45.8	17.5	0.00e+00	0	38	0	844103680	60	7036
2026-01-01 00:29:04.68	328.62	69.51	-40.3	-41.4	21.4	0.00e+00	83	38	0	846200832	54	5979
2026-01-01 00:29:05.69	328.86	69.05	-38.8	-39.7	22.6	0.00e+00	91	38	0	848297984	52	5543
2026-01-01 00:29:06.70	329.09	68.59	-39.6	-40.6	21.8	0.00e+00	0	38	0	850395136	52	6157
2026-01-01 00:29:07.71	329.32	68.14	-39.4	-40.4	22.3	0.00e+00	16	38	0	851443712	52	6007
2026-01-01 00:29:08.72	329.53	67.68	-39.7	-40.8	21.8	0.00e+00	0	38	0	853540864	52	6269
2026-01-01 00:29:09.73	329.73	67.23	-40.8	-42.2	20.7	0.00e+00	92	38	0	855638016	52	7348
2026-01-01 00:29:10.74	329.93	66.79	-39.6	-40.7	22.1	0.00e+00	0	38	0	857735168	52	6197
2026-01-01 00:29:11.75	330.11	66.34	-38.6	-39.6	23.0	0.00e+00	92	38	0	859832320	50	6154
2026-01-01 00:29:12.76	330.29	65.90	-38.3	-39.2	22.7	0.00e+00	89	38	0	860880896	50	5872
2026-01-01 00:29:13.77	330.46	65.45	-38.6	-39.6	22.9	0.00e+00	0	38	0	862978048	50	6106
2026-01-01 00:29:14.78	330.63	65.01	-36.6	-37.3	24.5	0.00e+00	51	38	0	865075200	46	5958
2026-01-01 00:29:15.79	330.79	64.58	-36.1	-36.9	24.8	0.00e+00	0	38	0	867172352	44	6336
2026-01-01 00:29:16.80	330.94	64.14	-37.2	-38.1	24.0	0.00e+00	92	38	0	869269504	46	6494
2026-01-01 00:29:17.81	331.09	63.71	-38.4	-39.5	22.9	0.00e+00	0	38	0	870318080	48	6772
2026-01-01 00:29:18.82	331.23	63.28	-38.2	-39.1	23.2	0.00e+00	92	38	0	872415232	48	6539
2026-01-01 00:29:19.83	331.37	62.85	-37.2	-38.1	24.0	0.00e+00	49	38	0	874512384	48	5779
2026-01-01 00:29:20.84	331.50	62.43	-36.3	-37.1	24.5	0.00e+00	0	38	0	876609536	46	5809
2026-01-01 00:29:21.85	331.63	62.01	-36.9	-37.7	24.2	0.00e+00	70	38	0	878706688	46	6205
2026-01-01 00:29:22.86	331.76	61.59	-37.7	-38.6	23.6	0.00e+00	0	38	0	879755264	46	6893
2026-01-01 00:29:23.87	331.88	61.17	-39.3	-40.4	22.3	0.00e+00	92	38	0	881852416	50	6710
2026-01-01 00:29:24.88	332.00	60.76	-40.8	-42.1	20.7	0.00e+00	0	38	0	883949568	54	6524
2026-01-01 00:29:25.89	332.11	60.34	-41.4	-42.8	20.4	0.00e+00	92	38	0	886046720	56	6307
2026-01-01 00:29:26.90	332.22	59.93	-39.7	-40.8	21.9	0.00e+00	1	38	0	888143872	54	5585
2026-01-01 00:29:27.91	332.33	59.53	-39.0	-40.0	22.8	0.00e+00	0	38	0	890241024	52	5753
2026-01-01 00:29:28.92	332.43	59.12	-38.8	-39.8	22.4	0.00e+00	91	38	0	891289600	50	6316
2026-01-01 00:29:29.93	332.53	58.72	-39.9	-41.0	21.6	0.00e+00	0	38	0	893386752	50	7219
2026-01-01 00:29:30.94	332.63	58.32	-40.2	-41.4	21.3	0.00e+00	91	38	0	895483904	52	6751
2026-01-01 00:29:31.95	332.72	57.92	-39.9	-41.1	21.5	0.00e+00	0	38	0	897581056	52	6516
2026-01-01 00:29:32.95	332.81	57.53	-38.5	-39.5	22.9	0.00e+00	92	38	0	899678208	50	6037
2026-01-01 00:29:33.96	332.90	57.14	-37.7	-38.6	23.6	0.00e+00	0	38	0	900726784	48	6131
2026-01-01 00:29:34.97	332.99	56.75	-37.3	-38.2	23.9	0.00e+00	0	38	0	902823936	48	5836
2026-01-01 00:29:35.98	333.07	56.37	-38.2	-39.2	23.2	0.00e+00	92	38	0	904921088	48	6550
2026-01-01 00:29:36.99	333.16	55.99	-39.0	-40.1	22.3	0.00e+00	0	38	0	907018240	50	6521
2026-01-01 00:29:38.00	333.24	55.60	-38.1	-39.1	23.0	0.00e+00	92	38	0	909115392	50	5801
2026-01-01 00:29:39.01	333.32	55.23	-37.7	-38.6	23.6	0.00e+00	0	38	0	910163968	48	6145
2026-01-01 00:29:40.01	333.39	54.85	-37.7	-38.6	23.4	0.00e+00	92	38	0	912261120	48	6143
2026-01-01 00:29:41.03	333.47	54.48	-37.9	-38.8	23.5	0.00e+00	0	38	0	914358272	48	6294
2026-01-01 00:29:42.04	333.54	54.11	-38.5	-39.4	23.0	0.00e+00	0	38	0	916455424	50	6029
2026-01-01 00:29:43.05	333.61	53.74	-38.7	-39.8	22.4	0.00e+00	87	38	0	918552576	50	6280
2026-01-01 00:29:44.06	333.68	53.38	-38.9	-39.9	22.5	0.00e+00	0	38	0	919601152	50	6377
2026-01-01 00:29:45.07	333.75	53.01	-38.7	-39.7	22.7	0.00e+00	73	38	0	921698304	50	6179
2026-01-01 00:29:46.08	333.81	52.65	-39.0	-39.9	22.5	0.00e+00	0	38	0	923795456	50	6380
2026-01-01 00:29:47.09	333.88	52.30	-39.9	-41.0	21.7	0.00e+00	64	38	0	925892608	52	6428
2026-01-01 00:29:48.10	333.94	51.94	-40.9	-42.2	20.5	0.00e+00	0	38	0	927989760	54	6590
2026-01-01 00:29:49.11	334.00	51.59	-42.1	-43.7	19.3	0.00e+00	61	38	0	929038336	56	6991
2026-01-01 00:29:50.11	334.06	51.24	-42.3	-43.9	19.2	0.00e+00	0	38	0	931135488	56	7166
2026-01-01 00:29:51.12	334.12	50.90	-42.0	-43.5	19.7	0.00e+00	0	38	0	933232640	56	6832
2026-01-01 00:29:52.13	334.18	50.55	-39.9	-41.0	21.6	0.00e+00	56	38	0	935329792	54	5761
2026-01-01 00:29:53.14	334.24	50.21	-39.0	-40.0	22.6	0.00e+00	0	38	0	937426944	52	5754
2026-01-01 00:29:54.15	334.29	49.87	-38.1	-39.0	23.4	0.00e+00	60	38	0	938475520	50	5744
2026-01-01 00:29:55.16	334.35	49.53	-37.9	-38.8	23.5	0.00e+00	0	38	0	940572672	50	5609
2026-01-01 00:29:56.17	334.40	49.20	-38.3	-39.2	23.2	0.00e+00	80	38	0	942669824	50	5857
2026-01-01 00:29:57.18	334.45	48.87	-39.0	-40.0	22.5	0.00e+00	0	38	0	944766976	50	6439
2026-01-01 00:29:58.18	334.50	48.54	-41.2	-42.6	20.2	0.00e+00	4	38	0	946864128	54	6906
2026-01-01 00:29:59.19	334.55	48.21	-43.1	-45.2	17.9	0.00e+00	91	38	0	947912704	58	7400
2026-01-01 00:30:00.20	334.60	47.89	-41.1	-42.6	20.5	0.00e+00	0	38	0	950009856	56	6121
2026-01-01 00:30:01.21	334.65	47.57	-39.4	-40.5	22.2	0.00e+00	66	38	0	952107008	52	6089
2026-01-01 00:30:02.22	334.70	47.25	-38.5	-39.5	23.1	0.00e+00	0	38	0	954204160	50	6080
2026-01-01 00:30:03.23	334.75	46.93	-38.2	-39.1	23.2	0.00e+00	92	38	0	956301312	50	5795
2026-01-01 00:30:04.24	334.79	46.61	-38.5	-39.4	22.7	0.00e+00	0	38	0	958398464	50	6015
2026-01-01 00:30:05.25	334.84	46.30	-38.8	-39.8	22.3	0.00e+00	0	38	0	959447040	50	6289
2026-01-01 00:30:06.26	334.88	45.99	-38.1	-39.0	23.2	0.00e+00	92	38	0	961544192	50	5735
2026-01-01 00:30:07.27	334.92	45.68	-38.4	-39.4	22.7	0.00e+00	0	38	0	963641344	50	5987
2026-01-01 00:30:08.28	334.97	45.38	-39.4	-40.5	22.0	0.00e+00	33	38	0	965738496	50	6824
2026-01-01 00:30:09.29	335.01	45.07	-40.4	-41.7	21.1	0.00e+00	0	38	0	967835648	52	6947
2026-01-01 00:30:10.30	335.05	44.77	-40.2	-41.5	21.2	0.00e+00	92	38	0	968884224	52	6791
2026-01-01 00:30:11.30	335.09	44.48	-40.0	-41.2	21.5	0.00e+00	0	38	0	970981376	52	6611
2026-01-01 00:30:12.31	335.13	44.18	-39.0	-40.0	22.5	0.00e+00	0	38	0	973078528	52	5740
2026-01-01 00:30:13.32	335.17	43.89	-37.9	-38.7	23.5	0.00e+00	90	38	0	975175680	50	5557
2026-01-01 00:30:14.33	335.21	43.59	-36.6	-37.4	24.5	0.00e+00	0	38	0	976224256	46	5972
2026-01-01 00:30:15.34	335.24	43.30	-36.1	-36.8	24.8	0.00e+00	39	38	0	978321408	46	5608
2026-01-01 00:30:16.35	335.28	43.02	-36.4	-37.1	24.6	0.00e+00	0	38	0	980418560	46	5797
2026-01-01 00:30:17.36	335.32	42.73	-37.0	-37.8	24.1	0.00e+00	90	38	0	982515712	46	6296
2026-01-01 00:30:18.37	335.35	42.45	-38.4	-39.4	22.8	0.00e+00	0	38	0	984612864	48	6723
2026-01-01 00:30:19.38	335.39	42.17	-39.6	-40.7	21.8	0.00e+00	92	38	0	986710016	50	6984
2026-01-01 00:30:20.39	335.42	41.89	-40.8	-42.1	21.0	0.00e+00	91	38	0	987758592	52	7309
2026-01-01 00:30:21.40	335.46	41.61	-40.5	-41.8	21.0	0.00e+00	0	38	0	989855744	54	6299
2026-01-01 00:30:22.41	335.49	41.34	-40.1	-41.4	21.4	0.00e+00	90	38	0	991952896	54	5965
2026-01-01 00:30:23.42	335.53	41.06	-39.8	-41.0	21.7	0.00e+00	0	38	0	994050048	52	6403
2026-01-01 00:30:24.43	335.56	40.79	-39.3	-40.4	22.0	0.00e+00	90	38	0	996147200	52	5975
2026-01-01 00:30:25.43	335.59	40.53	-39.8	-40.8	21.8	0.00e+00	0	38	0	997195776	52	6308
2026-01-01 00:30:26.44	335.62	40.26	-39.3	-40.2	22.5	0.00e+00	61	38	0	999292928	52	5879
2026-01-01 00:30:27.45	335.66	39.99	-38.3	-39.2	23.2	0.00e+00	57	38	0	1001390080	50	5860
2026-01-01 00:30:28.46	335.69	39.73	-37.5	-38.3	23.9	0.00e+00	0	38	0	1003487232	48	5925
2026-01-01 00:30:29.47	335.72	39.47	-38.0	-38.9	23.3	0.00e+00	91	38	0	1005584384	48	6373
2026-01-01 00:30:30.48	335.75	39.21	-38.4	-39.3	23.0	0.00e+00	0	38	0	1006632960	48	6686
2026-01-01 00:30:31.49	335.78	38.95	-39.7	-40.9	21.5	0.00e+00	88	38	0	1008730112	50	7119
2026-01-01 00:30:32.50	335.81	38.70	-41.4	-42.9	20.0	0.00e+00	0	38	0	1010827264	54	7103
2026-01-01 00:30:33.51	335.84	38.45	-43.2	-45.3	17.7	0.00e+00	64	38	0	1012924416	58	7425
2026-01-01 00:30:34.52	335.86	38.19	-44.4	-47.1	16.0	0.00e+00	0	38	0	1015021568	60	8168
2026-01-01 00:30:35.53	335.89	37.94	-45.3	-48.7	14.4	3.00e-06	0	38	0	1016070144	60	9867
2026-01-01 00:30:36.54	335.92	37.70	-44.9	-48.4	14.7	5.30e-06	47	38	0	1018167296	60	9506
2026-01-01 00:30:37.55	335.95	37.45	-44.4	-47.5	15.2	0.00e+00	0	38	0	1020264448	60	8568
2026-01-01 00:30:38.55	335.98	37.21	-44.9	-48.4	14.5	0.00e+00	85	38	0	1022361600	60	9495
2026-01-01 00:30:39.56	336.00	36.97	-44.8	-47.9	15.8	0.00e+00	0	38	0	1024458752	60	8938
2026-01-01 00:30:40.57	336.03	36.73	-42.8	-44.7	18.3	0.00e+00	92	38	0	1025507328	58	6948
2026-01-01 00:30:41.58	336.06	36.49	-41.1	-42.4	20.6	0.00e+00	0	38	0	1027604480	56	5971
2026-01-01 00:30:42.59	336.08	36.25	-40.2	-41.3	21.4	0.00e+00	0	38	0	1029701632	54	5939
2026-01-01 00:30:43.60	336.11	36.02	-40.1	-41.2	21.5	0.00e+00	92	38	0	1031798784	54	5868
2026-01-01 00:30:44.61	336.13	35.78	-39.7	-40.7	21.9	0.00e+00	0	38	0	1033895936	52	6239
2026-01-01 00:30:45.62	336.16	35.55	-40.0	-41.1	21.5	0.00e+00	14	38	0	1034944512	52	6515
2026-01-01 00:30:46.63	336.18	35.32	-40.7	-41.9	20.9	0.00e+00	0	38	0	1037041664	52	7120
2026-01-01 00:30:47.63	336.21	35.09	-41.3	-42.7	19.7	0.00e+00	85	38	0	1039138816	54	6999
2026-01-01 00:30:48.64	336.23	34.87	-42.6	-44.4	18.7	0.00e+00	0	38	0	1041235968	58	6699
2026-01-01 00:30:49.65	336.25	34.64	-44.4	-47.0	16.1	0.00e+00	0	38	0	1043333120	60	8087
2026-01-01 00:30:50.66	336.28	34.42	-45.1	-48.1	15.0	0.00e+00	76	38	0	1044381696	60	9234
2026-01-01 00:30:51.67	336.30	34.20	-45.7	-49.1	13.8	0.00e+00	0	38	0	1046478848	60	10359
2026-01-01 00:30:52.68	336.32	33.98	-45.7	-49.2	13.7	4.50e-06	0	38	0	1048576000	60	10483
2026-01-01 00:30:53.69	336.35	33.76	-45.8	-49.6	13.9	0.00e+00	0	38	0	1050673152	60	10881
2026-01-01 00:30:54.70	336.37	33.54	-45.6	-49.0	13.9	0.00e+00	91	38	0	1052770304	60	10231
2026-01-01 00:30:55.71	336.39	33.32	-44.3	-46.8	15.8	7.00e-07	0	38	0	1054867456	60	7945
2026-01-01 00:30:56.72	336.41	33.11	-44.9	-47.7	15.0	0.00e+00	75	38	0	1055916032	60	8748
2026-01-01 00:30:57.73	336.44	32.90	-44.8	-47.5	15.6	0.00e+00	0	38	0	1058013184	60	8583
2026-01-01 00:30:58.74	336.46	32.69	-43.7	-45.8	17.4	0.00e+00	0	38	0	1060110336	60	7028
2026-01-01 00:30:59.74	336.48	32.48	-42.5	-44.2	18.8	0.00e+00	44	38	0	1062207488	60	5872
2026-01-01 00:31:00.76	336.50	32.27	-41.7	-43.2	19.9	0.00e+00	0	38	0	1064304640	56	6571
2026-01-01 00:31:01.77	336.52	32.06	-40.5	-41.7	21.0	0.00e+00	16	38	0	1065353216	54	6219
2026-01-01 00:31:02.78	336.54	31.86	-39.8	-40.9	21.8	0.00e+00	0	38	0	1067450368	54	5648
2026-01-01 00:31:03.79	336.56	31.65	-39.9	-41.0	21.6	0.00e+00	0	38	0	1069547520	52	6460
2026-01-01 00:31:04.80	336.58	31.45	-39.4	-40.5	22.1	0.00e+00	0	38	0	1071644672	52	6057
2026-01-01 00:31:05.81	336.60	31.25	-39.7	-40.7	21.9	0.00e+00	0	38	0	1073741824	52	6239
2026-01-01 00:31:06.82	336.62	31.05	-40.5	-41.6	21.1	0.00e+00	86	38	0	1074790400	52	6920
2026-01-01 00:31:07.83	336.64	30.85	-40.7	-41.9	20.7	0.00e+00	0	38	0	1076887552	54	6372
2026-01-01 00:31:08.84	336.66	30.65	-41.2	-42.6	20.0	0.00e+00	52	38	0	1078984704	54	6861
2026-01-01 00:31:09.84	336.68	30.46	-42.1	-43.6	19.6	0.00e+00	0	38	0	1081081856	56	6906
2026-01-01 00:31:10.85	336.70	30.26	-42.0	-43.6	19.4	0.00e+00	0	38	0	1083179008	56	6867
2026-01-01 00:31:11.86	336.72	30.07	-41.6	-43.1	19.6	0.00e+00	0	38	0	1084227584	56	6491
2026-01-01 00:31:12.87	336.74	29.88	-41.7	-43.2	19.7	0.00e+00	0	38	0	1086324736	56	6613
2026-01-01 00:31:13.88	336.76	29.69	-41.2	-42.5	20.4	0.00e+00	87	38	0	1088421888	56	6091
2026-01-01 00:31:14.89	336.77	29.50	-40.9	-42.3	20.5	0.00e+00	0	38	0	1090519040	56	5900
2026-01-01 00:31:15.90	336.79	29.31	-40.8	-42.1	20.5	0.00e+00	92	38	0	1092616192	56	5821
2026-01-01 00:31:16.91	336.81	29.12	-40.6	-41.9	20.8	0.00e+00	0	38	0	1093664768	54	6331
2026-01-01 00:31:17.92	336.83	28.94	-40.4	-41.6	21.1	0.00e+00	0	38	0	1095761920	54	6115
2026-01-01 00:31:18.93	336.85	28.75	-40.0	-41.2	21.5	0.00e+00	0	38	0	1097859072	54	5840
2026-01-01 00:31:19.93	336.86	28.57	-39.9	-41.0	21.6	0.00e+00	0	38	0	1099956224	54	5738
2026-01-01 00:31:20.94	336.88	28.39	-39.9	-41.0	21.6	0.00e+00	87	38	0	1102053376	52	6453
2026-01-01 00:31:21.95	336.90	28.21	-39.8	-40.9	21.8	0.00e+00	0	38	0	1103101952	52	6348
2026-01-01 00:31:22.96	336.92	28.03	-39.3	-40.3	22.2	0.00e+00	87	38	0	1105199104	52	5901
2026-01-01 00:31:23.97	336.93	27.85	-39.3	-40.3	22.2	0.00e+00	0	38	0	1107296256	52	5915
2026-01-01 00:31:24.98	336.95	27.67	-39.1	-40.1	22.3	0.00e+00	0	38	0	1109393408	52	5774
2026-01-01 00:31:25.99	336.97	27.50	-38.9	-39.9	22.5	0.00e+00	0	38	0	1111490560	52	5674
2026-01-01 00:31:27.00	336.98	27.32	-38.5	-39.4	22.8	0.00e+00	0	38	0	1112539136	50	6011
2026-01-01 00:31:28.01	337.00	27.15	-38.7	-39.7	22.7	0.00e+00	0	38	0	1114636288	50	6184
2026-01-01 00:31:29.02	337.02	26.98	-38.5	-39.5	22.8	0.00e+00	0	38	0	1116733440	50	6034
2026-01-01 00:31:30.03	337.03	26.81	-38.0	-39.0	23.3	0.00e+00	88	38	0	1118830592	50	5697
2026-01-01 00:31:31.04	337.05	26.63	-37.9	-38.8	23.4	0.00e+00	0	38	0	1120927744	50	5616
2026-01-01 00:31:32.05	337.07	26.46	-38.1	-39.0	23.3	0.00e+00	0	38	0	1121976320	50	5734
2026-01-01 00:31:33.06	337.08	26.30	-37.4	-38.3	23.7	0.00e+00	0	38	0	1124073472	48	5914
2026-01-01 00:31:34.07	337.10	26.13	-37.4	-38.2	23.7	0.00e+00	0	38	0	1126170624	48	5887
2026-01-01 00:31:35.08	337.11	25.96	-37.4	-38.3	23.7	0.00e+00	73	38	0	1128267776	48	5936
2026-01-01 00:31:36.08	337.13	25.80	-37.5	-38.4	23.5	0.00e+00	0	38	0	1130364928	48	6019
2026-01-01 00:31:37.09	337.14	25.63	-37.8	-38.7	23.4	0.00e+00	58	38	0	1132462080	48	6219
2026-01-01 00:31:38.10	337.16	25.47	-37.6	-38.5	23.5	0.00e+00	0	38	0	1133510656	48	6075
2026-01-01 00:31:39.11	337.17	25.31	-37.7	-38.6	23.5	0.00e+00	0	38	0	1135607808	48	6164
2026-01-01 00:31:40.12	337.19	25.15	-37.9	-38.8	23.3	0.00e+00	0	38	0	1137704960	48	6298
2026-01-01 00:31:41.13	337.20	24.99	-37.7	-38.6	23.3	0.00e+00	0	38	0	1139802112	48	6169
2026-01-01 00:31:42.14	337.22	24.83	-38.0	-39.0	23.2	0.00e+00	26	38	0	1141899264	48	6406
2026-01-01 00:31:43.15	337.23	24.67	-38.1	-39.1	23.0	0.00e+00	0	38	0	1142947840	48	6468
2026-01-01 00:31:44.15	337.25	24.51	-38.3	-39.2	23.0	0.00e+00	91	38	0	1145044992	48	6610
2026-01-01 00:31:45.16	337.26	24.36	-38.2	-39.2	23.0	0.00e+00	0	38	0	1147142144	48	6540
2026-01-01 00:31:46.17	337.28	24.20	-38.0	-39.0	23.1	0.00e+00	91	38	0	1149239296	48	6405
2026-01-01 00:31:47.18	337.29	24.05	-38.0	-38.9	23.2	0.00e+00	0	38	0	1150287872	48	6375
2026-01-01 00:31:48.19	337.30	23.89	-37.5	-38.4	23.6	0.00e+00	0	38	0	1152385024	48	5998
2026-01-01 00:31:49.20	337.32	23.74	-37.2	-38.1	23.9	0.00e+00	0	38	0	1154482176	48	5792
2026-01-01 00:31:50.21	337.33	23.59	-37.0	-37.8	24.0	0.00e+00	0	38	0	1156579328	48	5623
2026-01-01 00:31:51.22	337.35	23.44	-36.9	-37.7	24.1	0.00e+00	30	38	0	1158676480	48	5560
2026-01-01 00:31:52.23	337.36	23.29	-36.7	-37.6	24.2	0.00e+00	0	38	0	1160773632	48	5449
2026-01-01 00:31:53.24	337.37	23.14	-36.8	-37.6	24.0	0.00e+00	89	38	0	1161822208	46	6146
2026-01-01 00:31:54.25	337.39	22.99	-36.7	-37.5	24.2	0.00e+00	0	38	0	1163919360	46	6062
2026-01-01 00:31:55.26	337.40	22.84	-36.7	-37.6	24.1	0.00e+00	0	38	0	1166016512	46	6116
2026-01-01 00:31:56.26	337.42	22.70	-36.7	-37.5	24.3	0.00e+00	0	38	0	1168113664	46	6076
2026-01-01 00:31:57.27	337.43	22.55	-36.7	-37.6	24.1	0.00e+00	0	38	0	1170210816	46	6120
2026-01-01 00:31:58.28	337.44	22.40	-36.8	-37.7	24.0	0.00e+00	83	38	0	1171259392	46	6188
2026-01-01 00:31:59.29	337.46	22.26	-36.9	-37.7	24.0	0.00e+00	33	38	0	1173356544	46	6207
2026-01-01 00:32:00.30	337.47	22.12	-37.0	-37.8	24.1	0.00e+00	70	38	0	1175453696	46	6305
2026-01-01 00:32:01.31	337.48	21.97	-37.1	-37.9	23.8	0.00e+00	0	38	0	1177550848	46	6383
2026-01-01 00:32:02.32	337.49	21.83	-37.1	-38.0	23.8	0.00e+00	0	38	0	1179648000	46	6408
2026-01-01 00:32:03.33	337.51	21.69	-37.1	-38.0	23.8	0.00e+00	0	38	0	1180696576	46	6444
2026-01-01 00:32:04.33	337.52	21.55	-37.3	-38.2	23.6	0.00e+00	0	38	0	1182793728	46	6592
2026-01-01 00:32:05.35	337.53	21.41	-37.3	-38.2	23.6	0.00e+00	10	38	0	1184890880	46	6591
2026-01-01 00:32:06.36	337.55	21.27	-37.4	-38.3	23.6	0.00e+00	0	38	0	1186988032	46	6627
2026-01-01 00:32:07.37	337.56	21.13	-37.5	-38.4	23.4	0.00e+00	86	38	0	1189085184	46	6728
2026-01-01 00:32:08.38	337.57	21.00	-37.6	-38.6	23.4	0.00e+00	0	38	0	1190133760	46	6850
2026-01-01 00:32:09.39	337.58	20.86	-37.6	-38.5	23.3	0.00e+00	0	38	0	1192230912	46	6824
2026-01-01 00:32:10.40	337.60	20.72	-37.6	-38.5	23.5	0.00e+00	0	38	0	1194328064	46	6798
2026-01-01 00:32:11.41	337.61	20.59	-37.7	-38.6	23.3	0.00e+00	0	38	0	1196425216	46	6895
