passes_logs/2026/01/01/R4.6S_Anadyr/R4.6S_Anadyr__20260101_144418_AQUA_rec.log

#Pass ID: 20260101_144418_AQUA
#Satellite: AQUA
#Configuration: AQUA
#almurnet v.1.7.20251203
#Start time: 2026-01-01 14:44:21

#Version: 2.2.20231116
#Station: R4.6S_Anadyr
#Location: 177.4865 lon 64.73178 lat
#TLE: 1 27424U 02022A   25364.96158944  .00001951  00000+0  40088-3 0  9999
#TLE: 2 27424  98.4061 326.1390 0001916  95.3188 305.7939 14.61780362258698

#Time	Az	El	Level	Level2	SNR	BER	BlckErr	Temp	State	Recorded	gain1	gain2
2026-01-01 14:44:21.26	20.36	0.17	-49.2	-65.6	3.3	3.02e+01	0	37	0	0	60	73265
2026-01-01 14:44:22.26	20.42	0.23	-49.2	-67.1	3.5	3.02e+01	0	37	104	0	60	86682
2026-01-01 14:44:23.28	20.49	0.28	-49.3	-67.1	3.5	3.02e+01	0	37	104	0	60	86775
2026-01-01 14:44:24.28	20.55	0.34	-49.2	-67.2	3.5	3.02e+01	0	37	104	0	60	87783
2026-01-01 14:44:25.29	20.61	0.40	-48.9	-67.1	3.5	3.02e+01	0	37	104	0	60	87251
2026-01-01 14:44:26.30	20.68	0.45	-49.2	-67.1	3.5	3.02e+01	0	37	104	0	60	86845
2026-01-01 14:44:27.31	20.74	0.51	-49.1	-67.0	3.5	3.02e+01	0	37	104	0	60	86429
2026-01-01 14:44:28.32	20.81	0.56	-49.1	-67.0	3.5	3.02e+01	0	37	104	0	60	85882
2026-01-01 14:44:29.33	20.87	0.62	-49.0	-66.8	3.5	3.02e+01	0	37	104	0	60	84390
2026-01-01 14:44:30.34	20.94	0.68	-48.9	-66.7	3.5	3.02e+01	0	37	104	0	60	83339
2026-01-01 14:44:31.36	21.00	0.74	-48.7	-66.7	3.5	3.02e+01	0	37	104	0	60	82898
2026-01-01 14:44:32.37	21.07	0.79	-48.6	-66.4	3.5	3.02e+01	0	37	104	0	60	80810
2026-01-01 14:44:33.38	21.13	0.85	-48.4	-66.2	3.5	3.02e+01	0	37	104	0	60	78688
2026-01-01 14:44:34.39	21.20	0.91	-48.0	-65.9	3.5	3.02e+01	0	37	104	0	60	76248
2026-01-01 14:44:35.40	21.27	0.96	-47.7	-65.5	3.5	3.02e+01	0	37	104	0	60	72358
2026-01-01 14:44:36.40	21.33	1.02	-47.7	-65.5	3.5	3.02e+01	0	37	104	0	60	72724
2026-01-01 14:44:37.41	21.40	1.08	-47.7	-65.5	3.5	3.02e+01	0	37	104	0	60	72364
2026-01-01 14:44:38.42	21.47	1.14	-47.6	-65.5	3.5	3.02e+01	0	37	104	0	60	72736
2026-01-01 14:44:39.43	21.54	1.19	-47.6	-65.5	3.5	3.02e+01	0	37	104	0	60	72671
2026-01-01 14:44:40.44	21.60	1.25	-47.7	-65.4	3.5	3.02e+01	0	37	104	0	60	71701
2026-01-01 14:44:41.45	21.67	1.31	-47.7	-65.3	3.5	3.02e+01	0	37	104	0	60	71076
2026-01-01 14:44:42.46	21.74	1.37	-47.6	-65.4	3.5	3.02e+01	0	37	104	0	60	72035
2026-01-01 14:44:43.47	21.81	1.42	-47.7	-65.5	3.5	3.02e+01	0	37	104	0	60	72776
2026-01-01 14:44:44.48	21.88	1.48	-47.7	-65.5	3.5	3.02e+01	0	37	104	0	60	72817
2026-01-01 14:44:45.49	21.95	1.54	-47.7	-65.6	3.5	3.02e+01	0	37	104	0	60	73011
2026-01-01 14:44:46.50	22.02	1.60	-47.7	-65.6	3.5	3.02e+01	0	37	104	0	60	73084
2026-01-01 14:44:47.51	22.09	1.66	-47.7	-65.5	3.5	3.02e+01	0	37	104	0	60	72695
2026-01-01 14:44:48.52	22.16	1.72	-47.6	-65.5	3.5	3.02e+01	0	37	104	0	60	72861
2026-01-01 14:44:49.53	22.23	1.77	-47.6	-65.4	3.5	3.02e+01	0	37	104	0	60	71987
2026-01-01 14:44:50.54	22.30	1.83	-47.6	-65.4	3.5	3.02e+01	0	37	104	0	60	71573
2026-01-01 14:44:51.55	22.37	1.89	-47.6	-65.3	3.5	3.02e+01	0	37	104	0	60	70951
2026-01-01 14:44:52.56	22.44	1.95	-47.6	-65.3	3.5	3.02e+01	0	37	104	0	60	70895
2026-01-01 14:44:53.57	22.51	2.01	-47.6	-65.3	3.5	3.02e+01	0	37	104	0	60	71085
2026-01-01 14:44:54.58	22.58	2.07	-47.6	-65.4	3.5	3.02e+01	0	37	104	0	60	71840
2026-01-01 14:44:55.59	22.66	2.13	-47.6	-65.6	3.5	3.02e+01	0	37	104	0	60	73277
2026-01-01 14:44:56.60	22.73	2.19	-47.6	-65.6	3.5	3.02e+01	0	37	104	0	60	72965
2026-01-01 14:44:57.61	22.80	2.25	-47.7	-65.6	3.5	3.02e+01	0	37	104	0	60	73288
2026-01-01 14:44:58.62	22.87	2.31	-47.6	-65.6	3.5	3.02e+01	0	38	104	0	60	73717
2026-01-01 14:44:59.63	22.95	2.37	-47.7	-65.6	3.5	3.02e+01	0	37	104	0	60	73158
2026-01-01 14:45:00.64	23.02	2.43	-47.6	-65.3	3.5	3.02e+01	0	38	104	0	60	70942
2026-01-01 14:45:01.65	23.09	2.48	-47.6	-65.0	3.5	3.02e+01	0	38	104	0	60	68802
2026-01-01 14:45:02.66	23.17	2.54	-47.5	-64.9	3.5	3.02e+01	0	37	104	0	60	67598
2026-01-01 14:45:03.67	23.24	2.60	-47.6	-65.2	3.5	3.02e+01	0	37	104	0	60	69883
2026-01-01 14:45:04.68	23.32	2.67	-47.4	-64.6	3.5	3.02e+01	0	37	104	0	60	65032
2026-01-01 14:45:05.69	23.39	2.73	-46.9	-62.1	3.5	3.02e+01	0	37	104	0	60	49090
2026-01-01 14:45:06.70	23.47	2.79	-45.5	-58.6	3.4	3.02e+01	0	37	104	0	60	32852
2026-01-01 14:45:07.71	23.55	2.85	-43.6	-55.2	3.6	3.02e+01	0	37	104	0	60	22194
2026-01-01 14:45:08.72	23.62	2.91	-42.0	-53.0	3.6	3.02e+01	0	37	104	0	60	17253
2026-01-01 14:45:09.73	23.70	2.97	-40.6	-51.4	3.4	3.02e+01	0	37	104	0	56	18057
2026-01-01 14:45:10.74	23.77	3.03	-39.8	-50.4	3.6	3.02e+01	0	38	104	0	54	18084
2026-01-01 14:45:11.75	23.85	3.09	-39.2	-49.6	3.4	3.02e+01	0	37	104	0	54	16504
2026-01-01 14:45:12.76	23.93	3.15	-40.0	-50.6	4.0	3.02e+01	0	37	104	0	54	18322
2026-01-01 14:45:13.77	24.01	3.21	-41.4	-52.3	3.9	3.02e+01	0	37	104	0	56	19929
2026-01-01 14:45:14.78	24.09	3.27	-42.4	-53.5	4.0	3.02e+01	0	37	104	0	58	20438
2026-01-01 14:45:15.79	24.16	3.33	-44.1	-56.0	3.9	3.02e+01	0	37	104	0	60	24203
2026-01-01 14:45:16.80	24.24	3.40	-44.0	-55.7	3.5	3.02e+01	0	37	104	0	60	23501
2026-01-01 14:45:17.81	24.32	3.46	-39.8	-50.4	3.4	3.02e+01	0	37	104	0	56	16070
2026-01-01 14:45:18.82	24.40	3.52	-47.6	-65.2	3.5	3.02e+01	0	37	104	0	60	70162
2026-01-01 14:45:19.83	24.48	3.58	-46.1	-60.0	3.5	3.02e+01	0	38	104	0	60	38429
2026-01-01 14:45:20.84	24.56	3.64	-44.0	-55.9	3.5	3.02e+01	0	37	104	0	58	26824
2026-01-01 14:45:21.85	24.64	3.70	-40.9	-51.8	3.5	3.02e+01	0	37	104	0	58	16712
2026-01-01 14:45:22.86	24.72	3.77	-40.2	-51.0	3.5	3.02e+01	0	37	104	0	54	19191
2026-01-01 14:45:23.87	24.80	3.83	-39.6	-50.3	3.5	3.02e+01	0	37	104	0	54	17737
2026-01-01 14:45:24.87	24.88	3.89	-40.1	-50.7	3.5	3.02e+01	0	37	104	0	54	18732
2026-01-01 14:45:25.88	24.97	3.95	-44.2	-56.0	3.5	3.02e+01	0	37	104	0	60	24337
2026-01-01 14:45:26.90	25.05	4.02	-39.3	-49.8	3.5	3.02e+01	0	37	104	0	54	16756
2026-01-01 14:45:27.91	25.13	4.08	-47.6	-65.3	3.5	3.02e+01	0	37	104	0	60	70463
2026-01-01 14:45:28.91	25.21	4.14	-45.8	-59.0	3.5	3.02e+01	0	37	104	0	60	34352
2026-01-01 14:45:29.92	25.30	4.20	-46.5	-60.4	3.5	3.02e+01	0	37	104	0	60	40513
2026-01-01 14:45:30.93	25.38	4.27	-40.3	-50.9	3.5	3.02e+01	0	37	104	0	56	17053
2026-01-01 14:45:31.94	25.47	4.33	-39.8	-50.3	3.5	3.02e+01	0	38	104	0	54	17839
2026-01-01 14:45:32.95	25.55	4.39	-39.9	-50.6	3.5	3.02e+01	0	37	104	0	54	18339
2026-01-01 14:45:33.96	25.63	4.46	-39.7	-50.2	3.5	3.02e+01	0	38	104	0	54	17653
2026-01-01 14:45:34.97	25.72	4.52	-39.9	-50.7	3.5	3.02e+01	0	37	104	0	54	18540
2026-01-01 14:45:35.98	25.81	4.59	-38.9	-49.3	3.5	3.02e+01	0	37	104	0	52	17746
2026-01-01 14:45:36.99	25.89	4.65	-47.8	-64.8	3.5	3.02e+01	0	37	104	0	60	66845
2026-01-01 14:45:37.99	25.98	4.71	-46.5	-60.7	3.5	3.02e+01	0	37	104	0	60	41936
2026-01-01 14:45:39.00	26.06	4.78	-46.8	-61.0	3.5	3.02e+01	0	37	104	0	60	42954
2026-01-01 14:45:40.01	26.15	4.84	-42.9	-54.0	3.5	3.02e+01	0	38	104	0	60	19333
2026-01-01 14:45:41.03	26.24	4.91	-42.4	-53.4	3.5	3.02e+01	0	37	104	0	60	17989
2026-01-01 14:45:42.03	26.33	4.97	-42.6	-53.7	3.5	3.02e+01	0	38	104	0	60	18660
2026-01-01 14:45:43.05	26.42	5.03	-43.6	-55.2	3.5	3.02e+01	0	37	104	0	60	22022
2026-01-01 14:45:44.06	26.50	5.10	-39.5	-49.9	3.5	3.02e+01	0	38	104	0	54	17088
2026-01-01 14:45:45.07	26.59	5.16	-38.9	-49.3	3.5	3.02e+01	0	37	104	0	52	17890
2026-01-01 14:45:46.07	26.68	5.23	-47.8	-64.7	3.5	3.02e+01	0	38	104	0	60	66449
2026-01-01 14:45:47.08	26.77	5.29	-45.8	-58.9	3.5	3.02e+01	0	38	104	0	60	34051
2026-01-01 14:45:48.10	26.86	5.36	-47.3	-62.3	3.5	3.02e+01	0	38	104	0	60	50421
2026-01-01 14:45:49.11	26.95	5.42	-40.0	-50.6	3.5	3.02e+01	0	38	104	0	56	16375
2026-01-01 14:45:50.11	27.05	5.49	-39.7	-50.3	3.5	3.02e+01	0	38	104	0	54	17733
2026-01-01 14:45:51.12	27.14	5.56	-39.5	-50.1	3.5	3.02e+01	0	38	104	0	54	17442
2026-01-01 14:45:52.13	27.23	5.62	-39.4	-50.0	3.5	3.02e+01	0	38	104	0	54	17112
2026-01-01 14:45:53.14	27.32	5.69	-45.3	-57.9	3.5	3.02e+01	0	38	104	0	60	30302
2026-01-01 14:45:54.15	27.41	5.75	-38.6	-49.1	3.5	3.02e+01	0	38	104	0	52	17417
2026-01-01 14:45:55.16	27.51	5.82	-47.9	-64.7	3.5	3.02e+01	0	38	104	0	60	65798
2026-01-01 14:45:56.17	27.60	5.89	-45.8	-59.0	3.5	3.02e+01	0	38	104	0	60	34274
2026-01-01 14:45:57.18	27.70	5.95	-47.2	-62.4	3.5	3.02e+01	0	38	104	0	60	50965
2026-01-01 14:45:58.19	27.79	6.02	-39.8	-50.4	3.5	3.02e+01	0	37	104	0	54	18003
2026-01-01 14:45:59.20	27.89	6.08	-40.0	-50.6	3.5	3.02e+01	0	38	104	0	54	18498
2026-01-01 14:46:00.21	27.98	6.15	-39.9	-50.5	3.5	3.02e+01	0	38	104	0	54	18179
2026-01-01 14:46:01.22	28.08	6.22	-39.9	-50.5	3.5	3.02e+01	0	37	104	0	54	18180
2026-01-01 14:46:02.23	28.17	6.29	-38.9	-49.4	3.5	3.02e+01	0	38	104	0	52	17939
2026-01-01 14:46:03.24	28.27	6.35	-38.4	-48.8	3.5	3.02e+01	0	37	104	0	52	16709
2026-01-01 14:46:04.25	28.37	6.42	-47.8	-64.6	3.5	3.02e+01	0	38	104	0	60	65063
2026-01-01 14:46:05.26	28.47	6.49	-43.9	-55.9	3.5	3.02e+01	0	38	104	0	60	23978
2026-01-01 14:46:06.27	28.57	6.55	-47.5	-62.6	3.5	3.02e+01	0	37	104	0	60	51725
2026-01-01 14:46:07.28	28.66	6.62	-39.9	-50.6	3.5	3.02e+01	0	37	104	0	56	16334
2026-01-01 14:46:08.29	28.76	6.69	-40.2	-50.9	3.5	3.02e+01	0	38	104	0	54	19159
2026-01-01 14:46:09.30	28.86	6.76	-39.6	-50.1	3.5	3.02e+01	0	38	104	0	54	17449
2026-01-01 14:46:10.31	28.96	6.83	-38.9	-49.4	3.5	3.02e+01	0	38	104	0	54	16029
2026-01-01 14:46:11.32	29.07	6.89	-39.1	-49.5	3.5	3.02e+01	0	37	104	0	52	18299
2026-01-01 14:46:12.32	29.17	6.96	-38.4	-48.8	3.5	3.02e+01	0	37	104	0	52	16779
2026-01-01 14:46:13.33	29.27	7.03	-48.1	-65.2	3.5	3.02e+01	0	38	104	0	60	69806
2026-01-01 14:46:14.34	29.37	7.10	-42.7	-53.9	3.5	3.02e+01	0	38	104	0	60	19081
2026-01-01 14:46:15.35	29.47	7.17	-46.9	-60.9	3.5	3.02e+01	0	38	104	0	60	42717
2026-01-01 14:46:16.36	29.58	7.24	-39.5	-50.0	3.5	3.02e+01	0	38	104	0	54	17286
2026-01-01 14:46:17.37	29.68	7.31	-39.2	-49.7	3.5	3.02e+01	0	38	104	0	54	16571
2026-01-01 14:46:18.38	29.78	7.38	-39.6	-50.0	3.5	3.02e+01	0	38	104	0	54	17277
2026-01-01 14:46:19.39	29.89	7.44	-39.4	-49.9	3.5	3.02e+01	0	38	104	0	54	16994
2026-01-01 14:46:20.40	29.99	7.51	-43.5	-54.8	3.5	3.02e+01	0	38	104	0	60	21255
2026-01-01 14:46:21.41	30.10	7.58	-38.5	-48.8	3.5	3.02e+01	0	38	104	0	52	16789
2026-01-01 14:46:22.42	30.21	7.65	-48.2	-65.4	3.5	3.02e+01	0	38	104	0	60	71336
2026-01-01 14:46:23.43	30.31	7.72	-39.2	-49.7	3.5	3.02e+01	0	38	104	0	58	13171
2026-01-01 14:46:24.44	30.42	7.79	-45.5	-58.0	3.5	3.02e+01	0	38	104	0	60	30698
2026-01-01 14:46:25.45	30.53	7.86	-39.9	-50.4	3.5	3.02e+01	0	38	104	0	54	18006
2026-01-01 14:46:26.46	30.64	7.93	-38.9	-49.3	3.6	3.02e+01	0	38	104	0	52	17852
2026-01-01 14:46:27.47	30.75	8.00	-38.7	-49.2	3.5	3.02e+01	0	38	104	0	52	17586
2026-01-01 14:46:28.48	30.86	8.07	-38.0	-48.3	3.6	3.02e+01	0	38	104	0	52	15926
2026-01-01 14:46:29.49	30.97	8.14	-38.0	-48.3	3.5	3.02e+01	0	38	104	0	52	15832
2026-01-01 14:46:30.50	31.08	8.22	-39.8	-50.3	3.5	3.02e+01	0	38	104	0	50	22387
2026-01-01 14:46:31.51	31.19	8.29	-48.0	-65.5	3.5	3.02e+01	0	38	104	0	60	72276
2026-01-01 14:46:32.52	31.30	8.36	-40.2	-50.8	3.5	3.02e+01	0	38	104	0	60	13309
2026-01-01 14:46:33.53	31.41	8.43	-46.5	-60.3	3.5	3.02e+01	0	38	104	0	60	39756
2026-01-01 14:46:34.54	31.53	8.50	-43.2	-54.5	3.5	3.02e+01	0	38	104	0	60	20316
2026-01-01 14:46:35.55	31.64	8.57	-43.9	-55.3	3.5	3.02e+01	0	38	104	0	60	22531
2026-01-01 14:46:36.56	31.75	8.64	-43.9	-55.5	3.5	3.02e+01	0	38	104	0	60	23055
2026-01-01 14:46:37.57	31.87	8.72	-40.6	-51.1	3.5	3.02e+01	0	38	104	0	58	15580
2026-01-01 14:46:38.58	31.98	8.79	-44.1	-55.5	3.5	3.02e+01	0	38	104	0	58	25846
2026-01-01 14:46:39.59	32.10	8.86	-42.8	-53.8	3.5	3.02e+01	0	38	104	0	60	18928
2026-01-01 14:46:40.60	32.22	8.93	-42.3	-53.4	3.6	3.02e+01	0	38	104	0	60	18003
2026-01-01 14:46:41.60	32.33	9.00	-46.7	-60.8	3.4	3.02e+01	0	38	104	0	60	41993
2026-01-01 14:46:42.61	32.45	9.08	-44.7	-56.9	3.6	3.02e+01	0	38	104	0	60	26846
2026-01-01 14:46:43.62	32.57	9.15	-39.5	-49.9	3.5	3.02e+01	0	38	104	0	52	19150
2026-01-01 14:46:44.63	32.69	9.22	-39.4	-49.9	3.5	3.02e+01	0	38	104	0	52	19013
2026-01-01 14:46:45.64	32.81	9.29	-39.5	-50.1	3.5	3.02e+01	0	38	104	0	52	19503
2026-01-01 14:46:46.65	32.93	9.37	-47.5	-64.3	3.5	3.02e+01	0	38	104	0	60	63094
2026-01-01 14:46:47.66	33.05	9.44	-41.2	-52.2	3.5	3.02e+01	0	38	104	0	60	15668
2026-01-01 14:46:48.67	33.17	9.51	-45.0	-57.4	3.5	3.02e+01	0	38	104	0	56	36087
2026-01-01 14:46:49.68	33.29	9.59	-45.6	-58.5	3.5	3.02e+01	0	38	104	0	60	32342
2026-01-01 14:46:50.69	33.42	9.66	-39.2	-49.8	3.5	3.02e+01	0	38	104	0	50	21033
2026-01-01 14:46:51.70	33.54	9.73	-42.3	-53.5	3.6	3.02e+01	0	38	104	0	60	18210
2026-01-01 14:46:52.71	33.66	9.81	-39.3	-49.8	3.5	3.02e+01	0	38	104	0	54	16750
2026-01-01 14:46:53.72	33.79	9.88	-38.4	-48.8	3.5	3.02e+01	0	38	104	0	52	16714
2026-01-01 14:46:54.73	33.91	9.96	-37.7	-48.0	3.5	3.02e+01	0	38	104	0	50	17230
2026-01-01 14:46:55.74	34.04	10.03	-39.4	-49.9	3.6	3.02e+01	0	38	104	0	50	21392
2026-01-01 14:46:56.75	34.17	10.10	-37.3	-47.5	3.5	3.02e+01	0	38	104	0	50	16212
2026-01-01 14:46:57.76	34.29	10.18	-46.0	-58.9	3.5	3.02e+01	0	38	104	0	58	38259
2026-01-01 14:46:58.77	34.42	10.25	-46.8	-60.7	3.5	3.02e+01	0	38	104	0	60	41566
2026-01-01 14:46:59.78	34.55	10.33	-43.8	-55.2	3.5	3.02e+01	0	38	104	0	56	27803
2026-01-01 14:47:00.79	34.68	10.40	-44.5	-56.1	3.5	3.02e+01	0	38	104	0	60	24580
2026-01-01 14:47:01.80	34.81	10.48	-43.3	-54.4	3.5	3.02e+01	0	38	104	0	60	20278
2026-01-01 14:47:02.81	34.94	10.55	-43.0	-54.2	3.5	3.02e+01	0	38	104	0	60	19657
2026-01-01 14:47:03.81	35.07	10.63	-43.4	-54.7	3.5	3.02e+01	0	38	104	0	60	20939
2026-01-01 14:47:04.82	35.20	10.70	-38.8	-49.2	3.5	3.02e+01	0	38	104	0	54	15699
2026-01-01 14:47:05.83	35.34	10.78	-47.4	-61.8	3.5	3.02e+01	0	38	104	0	60	47599
2026-01-01 14:47:06.84	35.47	10.86	-45.6	-58.3	3.5	3.02e+01	0	38	104	0	60	31820
2026-01-01 14:47:07.85	35.60	10.93	-39.3	-49.7	3.5	3.02e+01	0	38	104	0	54	16663
2026-01-01 14:47:08.86	35.74	11.01	-48.0	-65.6	3.5	3.02e+01	0	38	104	0	60	73269
2026-01-01 14:47:09.87	35.87	11.08	-39.8	-50.3	3.6	3.02e+01	0	38	104	0	56	15937
2026-01-01 14:47:10.88	36.01	11.16	-38.6	-49.0	3.5	3.02e+01	0	38	104	0	52	17161
2026-01-01 14:47:11.89	36.15	11.24	-37.5	-47.7	3.5	3.02e+01	0	38	104	0	50	16682
2026-01-01 14:47:12.90	36.29	11.31	-36.9	-47.2	3.6	3.02e+01	0	38	104	0	50	15625
2026-01-01 14:47:13.91	36.43	11.39	-47.7	-63.7	3.5	3.02e+01	0	38	104	0	60	58784
2026-01-01 14:47:14.92	36.57	11.47	-38.5	-49.0	3.5	3.02e+01	0	38	104	0	54	15358
2026-01-01 14:47:15.93	36.71	11.54	-47.9	-64.5	3.5	3.02e+01	0	38	104	0	60	64640
2026-01-01 14:47:16.94	36.85	11.62	-44.5	-56.3	3.5	3.02e+01	0	38	104	0	60	25206
2026-01-01 14:47:17.95	36.99	11.70	-46.8	-61.5	3.5	3.02e+01	0	38	104	0	60	45998
2026-01-01 14:47:18.95	37.13	11.77	-39.4	-49.9	3.5	3.02e+01	0	38	104	0	56	15085
2026-01-01 14:47:19.96	37.27	11.85	-39.0	-49.5	3.5	3.02e+01	0	38	104	0	52	18164
2026-01-01 14:47:20.97	37.42	11.93	-37.6	-47.9	3.5	3.02e+01	0	38	104	0	50	16986
2026-01-01 14:47:21.98	37.56	12.01	-37.1	-47.4	3.5	3.02e+01	0	38	104	0	50	15994
2026-01-01 14:47:22.99	37.71	12.08	-42.0	-53.1	3.5	3.02e+01	0	38	104	0	56	21993
2026-01-01 14:47:24.00	37.85	12.16	-37.7	-48.0	3.5	3.02e+01	0	38	104	0	50	17178
2026-01-01 14:47:25.01	38.00	12.24	-48.1	-64.4	3.5	3.02e+01	0	38	104	0	60	63693
2026-01-01 14:47:26.02	38.15	12.32	-44.5	-56.4	3.5	3.02e+01	0	38	104	0	60	25300
2026-01-01 14:47:27.03	38.30	12.40	-47.0	-61.7	3.5	3.02e+01	0	38	104	0	60	46917
2026-01-01 14:47:28.04	38.45	12.47	-43.0	-54.2	3.5	3.02e+01	0	38	104	0	60	19745
2026-01-01 14:47:29.05	38.60	12.55	-43.2	-54.4	3.6	3.02e+01	0	38	104	0	60	20198
2026-01-01 14:47:30.06	38.75	12.63	-43.7	-55.2	3.5	3.02e+01	0	38	104	0	60	22035
2026-01-01 14:47:31.07	38.90	12.71	-43.9	-55.4	3.5	3.02e+01	0	38	104	0	60	22752
2026-01-01 14:47:32.08	39.06	12.79	-47.7	-62.7	3.5	3.02e+01	0	38	104	0	60	52534
2026-01-01 14:47:33.09	39.21	12.87	-48.5	-65.0	3.5	3.02e+01	0	38	104	0	60	68351
2026-01-01 14:47:34.10	39.37	12.95	-48.0	-65.1	3.5	3.02e+01	0	38	104	0	60	69143
2026-01-01 14:47:35.11	39.52	13.03	-37.9	-48.1	3.5	3.02e+01	0	38	104	0	52	15579
2026-01-01 14:47:36.12	39.68	13.11	-48.2	-64.7	3.5	3.02e+01	0	38	104	0	60	66116
2026-01-01 14:47:37.13	39.84	13.19	-38.0	-48.4	3.5	3.02e+01	0	38	104	0	52	16010
2026-01-01 14:47:38.14	40.00	13.26	-38.3	-48.7	3.5	3.02e+01	0	38	104	0	50	18651
2026-01-01 14:47:39.15	40.15	13.34	-38.4	-48.7	3.6	3.02e+01	0	38	104	0	50	18639
2026-01-01 14:47:40.16	40.31	13.42	-38.7	-49.0	3.6	3.02e+01	0	38	104	0	50	19395
2026-01-01 14:47:41.17	40.48	13.50	-48.0	-63.4	3.5	3.02e+01	0	38	104	0	60	56854
2026-01-01 14:47:42.17	40.64	13.58	-37.0	-47.2	3.5	3.02e+01	0	38	104	0	50	15750
2026-01-01 14:47:43.18	40.80	13.66	-47.4	-63.9	3.5	3.02e+01	0	38	104	0	60	60080
2026-01-01 14:47:44.19	40.96	13.74	-44.4	-56.0	3.5	3.02e+01	0	38	104	0	60	24235
2026-01-01 14:47:45.20	41.13	13.82	-47.7	-62.5	3.5	3.02e+01	0	38	104	0	60	51072
2026-01-01 14:47:46.21	41.29	13.90	-38.8	-49.1	3.5	3.02e+01	0	38	104	0	52	17470
2026-01-01 14:47:47.22	41.46	13.98	-39.0	-49.4	3.5	3.02e+01	0	38	104	0	52	18019
2026-01-01 14:47:48.23	41.63	14.06	-37.3	-47.5	3.5	3.02e+01	0	38	104	0	50	16303
2026-01-01 14:47:49.24	41.80	14.14	-36.7	-46.9	3.5	3.02e+01	0	38	104	0	48	17084
2026-01-01 14:47:50.25	41.97	14.22	-42.7	-53.8	3.5	3.02e+01	0	38	104	0	60	18779
2026-01-01 14:47:51.26	42.14	14.31	-36.6	-46.9	3.5	3.02e+01	0	38	104	0	48	16951
2026-01-01 14:47:52.27	42.31	14.39	-48.0	-64.3	3.5	3.02e+01	0	38	104	0	60	62850
2026-01-01 14:47:53.28	42.48	14.47	-41.3	-52.1	3.5	3.02e+01	0	38	104	0	60	15483
2026-01-01 14:47:54.29	42.65	14.55	-46.0	-62.1	3.5	3.02e+01	0	38	104	0	60	48756
2026-01-01 14:47:55.30	42.83	14.63	-42.3	-53.6	3.5	3.02e+01	0	38	104	0	60	18373
2026-01-01 14:47:56.31	43.00	14.71	-41.6	-52.7	3.5	3.02e+01	0	38	104	0	58	18641
2026-01-01 14:47:57.32	43.18	14.79	-41.6	-52.9	3.5	3.02e+01	0	38	104	0	58	19045
2026-01-01 14:47:58.33	43.36	14.87	-41.2	-52.3	3.5	3.02e+01	0	38	104	0	58	17754
2026-01-01 14:47:59.34	43.54	14.95	-43.4	-55.1	3.5	3.02e+01	0	38	104	0	60	22006
2026-01-01 14:48:00.35	43.71	15.03	-36.5	-46.9	3.5	3.02e+01	0	38	104	0	48	16959
2026-01-01 14:48:01.36	43.90	15.12	-46.5	-64.2	3.5	3.02e+01	0	38	104	0	60	62724
2026-01-01 14:48:02.37	44.08	15.20	-41.8	-53.3	3.5	3.02e+01	0	38	104	0	60	17719
2026-01-01 14:48:03.38	44.26	15.28	-47.0	-60.4	3.5	3.02e+01	0	38	104	0	60	40122
2026-01-01 14:48:04.39	44.44	15.36	-39.9	-50.4	3.5	3.02e+01	0	38	104	0	54	17959
2026-01-01 14:48:05.40	44.63	15.44	-39.5	-49.9	3.6	3.02e+01	0	38	104	0	54	17027
2026-01-01 14:48:06.41	44.81	15.52	-39.8	-50.2	3.5	3.02e+01	0	38	104	0	54	17678
2026-01-01 14:48:07.42	45.00	15.60	-40.9	-51.5	3.4	3.02e+01	0	38	104	0	54	20406
2026-01-01 14:48:08.43	45.19	15.69	-44.8	-56.6	3.5	3.02e+01	0	38	104	0	60	25991
2026-01-01 14:48:09.43	45.37	15.77	-37.4	-47.7	3.5	3.02e+01	0	38	104	0	48	18552
2026-01-01 14:48:10.45	45.57	15.85	-48.5	-65.1	3.5	3.02e+01	0	38	104	0	60	69019
2026-01-01 14:48:11.46	45.76	15.93	-38.8	-49.1	3.5	3.02e+01	0	38	104	0	58	12379
2026-01-01 14:48:12.47	45.95	16.01	-46.0	-59.6	3.5	3.02e+01	0	38	104	0	60	36720
2026-01-01 14:48:13.48	46.14	16.09	-39.8	-50.3	3.5	3.02e+01	0	38	104	0	54	17767
2026-01-01 14:48:14.49	46.34	16.18	-38.9	-49.4	3.5	3.02e+01	0	38	104	0	54	16082
2026-01-01 14:48:15.50	46.53	16.26	-38.6	-49.0	3.5	3.02e+01	0	38	104	0	52	17125
2026-01-01 14:48:16.51	46.73	16.34	-36.9	-47.1	3.5	3.02e+01	0	38	104	0	50	15579
2026-01-01 14:48:17.51	46.92	16.42	-36.6	-46.8	3.5	3.02e+01	0	38	104	0	48	16816
2026-01-01 14:48:18.52	47.12	16.50	-40.5	-51.1	4.0	3.02e+01	0	38	104	0	48	27484
2026-01-01 14:48:19.53	47.32	16.58	-45.8	-58.2	3.5	3.02e+01	0	38	104	0	60	31284
2026-01-01 14:48:20.54	47.52	16.66	-36.4	-46.6	3.5	3.02e+01	0	38	104	0	48	16379
2026-01-01 14:48:21.55	47.72	16.75	-45.9	-58.3	3.6	3.02e+01	0	38	104	0	60	31606
2026-01-01 14:48:22.55	47.93	16.83	-38.2	-48.6	3.5	3.02e+01	0	38	104	0	52	16402
2026-01-01 14:48:23.56	48.13	16.91	-36.8	-47.1	3.6	3.02e+01	0	38	104	0	48	17329
2026-01-01 14:48:24.57	48.34	16.99	-36.2	-46.4	3.5	3.02e+01	0	38	104	0	48	16051
2026-01-01 14:48:25.58	48.54	17.07	-36.8	-47.1	3.5	3.02e+01	0	38	104	0	48	17376
2026-01-01 14:48:26.59	48.75	17.15	-37.9	-48.2	3.5	3.02e+01	0	38	104	0	52	15749
2026-01-01 14:48:27.60	48.96	17.24	-41.6	-52.4	3.5	3.02e+01	0	38	104	0	50	28627
2026-01-01 14:48:28.61	49.17	17.32	-46.4	-59.5	3.5	3.02e+01	0	38	104	0	60	36256
2026-01-01 14:48:29.62	49.38	17.40	-37.9	-48.2	3.5	3.02e+01	0	38	104	0	50	17658
2026-01-01 14:48:30.63	49.59	17.48	-43.9	-55.3	3.5	3.02e+01	0	38	104	0	60	22357
2026-01-01 14:48:31.64	49.81	17.56	-39.3	-49.6	3.5	3.02e+01	0	38	104	0	54	16434
2026-01-01 14:48:32.65	50.02	17.64	-39.8	-50.3	3.5	3.02e+01	0	38	104	0	54	17733
2026-01-01 14:48:33.66	50.24	17.72	-39.7	-50.2	3.5	3.02e+01	0	38	104	0	54	17553
2026-01-01 14:48:34.66	50.45	17.80	-37.0	-47.3	3.5	3.02e+01	0	38	104	0	50	15881
2026-01-01 14:48:35.67	50.67	17.88	-36.0	-46.2	3.5	3.02e+01	0	38	104	0	48	15644
2026-01-01 14:48:36.68	50.89	17.96	-43.0	-54.0	3.5	3.02e+01	0	38	104	0	52	30491
2026-01-01 14:48:37.69	51.11	18.05	-45.5	-58.1	3.5	3.02e+01	0	38	104	0	60	30974
2026-01-01 14:48:38.70	51.33	18.13	-38.7	-49.0	3.5	3.02e+01	0	38	104	0	48	21566
2026-01-01 14:48:39.71	51.56	18.21	-43.2	-54.4	3.5	3.02e+01	0	38	104	0	60	20084
2026-01-01 14:48:40.72	51.78	18.29	-39.3	-49.7	3.5	3.02e+01	0	38	104	0	52	18637
2026-01-01 14:48:41.73	52.01	18.37	-38.4	-48.8	3.5	3.02e+01	0	38	104	0	52	16756
2026-01-01 14:48:42.74	52.23	18.45	-39.1	-49.4	3.5	3.02e+01	0	38	104	0	52	18073
2026-01-01 14:48:43.75	52.46	18.53	-36.4	-46.6	3.5	3.02e+01	0	38	104	0	48	16441
2026-01-01 14:48:44.76	52.69	18.61	-36.5	-46.7	3.5	3.02e+01	0	38	104	0	48	16678
2026-01-01 14:48:45.77	52.92	18.69	-47.6	-62.0	3.5	3.02e+01	0	38	104	0	60	48198
2026-01-01 14:48:46.78	53.15	18.77	-42.4	-53.3	3.5	3.02e+01	0	38	104	0	60	17866
2026-01-01 14:48:47.79	53.39	18.85	-43.2	-54.4	3.5	3.02e+01	0	38	104	0	52	32174
2026-01-01 14:48:48.80	53.62	18.93	-40.8	-51.4	3.5	3.02e+01	0	38	104	0	60	14314
2026-01-01 14:48:49.81	53.86	19.00	-37.9	-48.2	3.6	3.02e+01	0	38	104	0	50	17557
2026-01-01 14:48:50.82	54.10	19.08	-38.1	-48.5	3.5	3.02e+01	0	38	104	0	50	18132
2026-01-01 14:48:51.83	54.33	19.16	-37.5	-47.8	3.5	3.02e+01	0	38	104	0	50	16756
2026-01-01 14:48:52.84	54.57	19.24	-41.8	-52.6	3.5	3.02e+01	0	38	104	0	54	23186
2026-01-01 14:48:53.85	54.81	19.32	-37.8	-48.1	3.6	3.02e+01	0	38	104	0	50	17384
2026-01-01 14:48:54.86	55.06	19.40	-47.9	-64.1	3.5	3.02e+01	0	38	104	0	60	61558
2026-01-01 14:48:55.87	55.30	19.48	-44.0	-55.7	3.5	3.02e+01	0	38	104	0	60	23580
2026-01-01 14:48:56.87	55.54	19.55	-46.5	-61.1	3.5	3.02e+01	0	38	104	0	60	43768
2026-01-01 14:48:57.88	55.79	19.63	-39.6	-50.3	3.5	3.02e+01	0	38	104	0	56	15889
2026-01-01 14:48:58.89	56.04	19.71	-39.0	-49.9	3.5	3.02e+01	0	38	104	0	54	16972
2026-01-01 14:48:59.90	56.28	19.78	-39.3	-50.8	3.5	3.02e+01	0	38	104	0	52	21143
2026-01-01 14:49:00.91	56.53	19.86	-39.4	-50.6	3.5	3.02e+01	0	38	104	0	52	20647
2026-01-01 14:49:01.92	56.79	19.94	-46.7	-61.4	3.5	3.02e+01	0	38	104	0	60	45094
2026-01-01 14:49:02.93	57.04	20.01	-37.8	-48.2	3.5	3.02e+01	0	38	104	0	52	15597
2026-01-01 14:49:03.94	57.29	20.09	-44.9	-65.2	3.5	3.02e+01	0	38	104	0	60	70154
2026-01-01 14:49:04.95	57.55	20.17	-44.3	-56.5	3.5	3.02e+01	0	38	104	0	60	25764
2026-01-01 14:49:05.96	57.80	20.24	-47.7	-62.0	3.5	3.02e+01	0	38	104	0	60	48394
2026-01-01 14:49:06.97	58.06	20.32	-40.0	-50.4	3.5	3.02e+01	0	38	104	0	56	16125
2026-01-01 14:49:07.98	58.32	20.39	-40.2	-50.7	3.5	3.02e+01	0	38	104	0	54	18713
2026-01-01 14:49:08.99	58.58	20.47	-39.1	-49.5	3.5	3.02e+01	0	38	104	0	54	16203
2026-01-01 14:49:10.00	58.84	20.54	-39.6	-50.1	3.5	3.02e+01	0	38	104	0	54	17344
2026-01-01 14:49:11.01	59.11	20.61	-45.3	-61.4	3.5	3.02e+01	0	38	104	0	60	45202
2026-01-01 14:49:12.02	59.37	20.69	-37.5	-48.1	3.5	3.02e+01	0	38	104	0	50	17377
2026-01-01 14:49:13.03	59.64	20.76	-47.1	-64.2	3.5	3.02e+01	0	38	104	0	60	62059
2026-01-01 14:49:14.04	59.90	20.83	-42.9	-55.3	3.5	3.02e+01	0	38	104	0	58	25020
2026-01-01 14:49:15.05	60.17	20.91	-47.8	-62.4	3.5	3.02e+01	0	38	104	0	60	50491
2026-01-01 14:49:16.06	60.44	20.98	-39.0	-49.4	3.6	3.02e+01	0	38	104	0	54	15975
2026-01-01 14:49:17.07	60.71	21.05	-39.1	-49.5	3.5	3.02e+01	0	38	104	0	52	18118
2026-01-01 14:49:18.07	60.98	21.12	-37.8	-48.1	3.5	3.02e+01	0	38	104	0	50	17293
2026-01-01 14:49:19.08	61.25	21.19	-36.6	-46.9	3.5	3.02e+01	0	38	104	0	48	16936
2026-01-01 14:49:20.09	61.53	21.26	-38.9	-49.3	3.5	3.02e+01	0	38	104	0	50	19963
2026-01-01 14:49:21.10	61.80	21.33	-37.3	-47.6	3.5	3.02e+01	0	38	104	0	48	18426
2026-01-01 14:49:22.11	62.08	21.40	-48.4	-64.2	3.5	3.02e+01	0	38	104	0	60	62597
2026-01-01 14:49:23.12	62.36	21.47	-45.0	-57.4	3.5	3.02e+01	0	38	104	0	60	28630
2026-01-01 14:49:24.13	62.64	21.54	-48.0	-62.9	3.5	3.02e+01	0	38	104	0	60	53812
2026-01-01 14:49:25.14	62.92	21.61	-39.5	-50.1	3.5	3.02e+01	0	38	104	0	54	17325
2026-01-01 14:49:26.15	63.20	21.67	-39.4	-49.9	3.5	3.02e+01	0	38	104	0	54	16958
2026-01-01 14:49:27.16	63.49	21.74	-38.0	-48.3	3.5	3.02e+01	0	38	104	0	52	15787
2026-01-01 14:49:28.17	63.77	21.81	-37.4	-47.6	3.5	3.02e+01	0	38	104	0	50	16509
2026-01-01 14:49:29.18	64.06	21.88	-39.4	-50.0	3.5	3.02e+01	0	38	104	0	52	19185
2026-01-01 14:49:30.19	64.35	21.94	-36.8	-47.2	3.5	3.02e+01	0	38	104	0	48	17521
2026-01-01 14:49:31.20	64.64	22.01	-48.4	-64.2	3.5	3.02e+01	0	38	104	0	60	62199
2026-01-01 14:49:32.21	64.93	22.07	-44.5	-57.2	3.5	3.02e+01	0	38	104	0	60	27960
2026-01-01 14:49:33.22	65.22	22.14	-46.2	-63.2	3.5	3.02e+01	0	38	104	0	60	55364
2026-01-01 14:49:34.23	65.51	22.20	-39.6	-50.5	3.5	3.02e+01	0	38	104	0	54	18127
2026-01-01 14:49:35.24	65.80	22.26	-39.9	-50.7	3.5	3.02e+01	0	38	104	0	54	18735
2026-01-01 14:49:36.25	66.10	22.32	-39.1	-49.6	3.5	3.02e+01	0	38	104	0	54	16423
2026-01-01 14:49:37.26	66.39	22.39	-38.1	-48.4	3.5	3.02e+01	0	38	104	0	52	16084
2026-01-01 14:49:38.27	66.69	22.45	-37.8	-48.2	3.6	3.02e+01	0	38	104	0	50	17573
2026-01-01 14:49:39.27	66.99	22.51	-36.8	-47.1	3.5	3.02e+01	0	38	104	0	48	17468
2026-01-01 14:49:40.28	67.29	22.57	-48.3	-64.6	3.5	3.02e+01	0	38	104	0	60	64987
2026-01-01 14:49:41.29	67.59	22.63	-41.2	-51.8	3.5	3.02e+01	0	38	104	0	60	15005
2026-01-01 14:49:42.30	67.89	22.69	-47.6	-62.6	3.5	3.02e+01	0	38	104	0	60	51756
2026-01-01 14:49:43.31	68.19	22.75	-39.2	-49.7	3.5	3.02e+01	0	38	104	0	54	16542
2026-01-01 14:49:44.32	68.50	22.80	-37.3	-47.6	3.5	3.02e+01	0	38	104	0	50	16382
2026-01-01 14:49:45.33	68.80	22.86	-36.5	-47.0	3.5	3.02e+01	0	38	104	0	48	17099
2026-01-01 14:49:46.34	69.11	22.92	-36.3	-46.7	3.5	3.02e+01	0	38	104	0	48	16647
2026-01-01 14:49:47.35	69.42	22.97	-38.6	-49.0	3.5	3.02e+01	0	38	104	0	52	17135
2026-01-01 14:49:48.36	69.73	23.03	-36.8	-47.2	3.5	3.02e+01	0	38	104	0	48	17528
2026-01-01 14:49:49.37	70.04	23.08	-46.7	-64.8	3.5	3.02e+01	0	38	104	0	60	66630
2026-01-01 14:49:50.38	70.35	23.13	-39.4	-49.8	3.5	3.02e+01	0	38	104	0	58	13376
2026-01-01 14:49:51.39	70.66	23.19	-47.4	-62.1	3.5	3.02e+01	0	38	104	0	60	48960
2026-01-01 14:49:52.40	70.98	23.24	-39.6	-50.1	3.5	3.02e+01	0	38	104	0	54	17295
2026-01-01 14:49:53.41	71.29	23.29	-39.5	-49.9	3.5	3.02e+01	0	38	104	0	54	16926
2026-01-01 14:49:54.42	71.61	23.34	-38.1	-48.3	3.5	3.02e+01	0	38	104	0	52	15910
2026-01-01 14:49:55.42	71.92	23.39	-36.9	-47.2	3.5	3.02e+01	0	38	104	0	50	15641
2026-01-01 14:49:56.44	72.24	23.44	-37.6	-48.0	3.5	3.02e+01	0	38	104	0	52	15392
2026-01-01 14:49:57.45	72.56	23.49	-37.3	-47.6	3.5	3.02e+01	0	38	104	0	48	18334
2026-01-01 14:49:58.45	72.88	23.54	-47.9	-65.5	3.5	3.02e+01	0	38	104	0	60	72297
2026-01-01 14:49:59.46	73.20	23.58	-38.5	-48.9	3.5	3.02e+01	0	38	104	0	56	13537
2026-01-01 14:50:00.47	73.52	23.63	-47.4	-61.7	3.5	3.02e+01	0	38	104	0	60	46680
2026-01-01 14:50:01.48	73.84	23.67	-39.5	-50.2	3.6	3.02e+01	0	38	104	0	54	17540
2026-01-01 14:50:02.49	74.17	23.72	-39.6	-50.3	3.5	3.02e+01	0	38	104	0	54	17877
2026-01-01 14:50:03.50	74.49	23.76	-38.7	-49.3	3.5	3.02e+01	0	38	104	0	52	17810
2026-01-01 14:50:04.51	74.82	23.80	-37.4	-47.9	3.5	3.02e+01	0	38	104	0	50	17007
2026-01-01 14:50:05.52	75.14	23.85	-36.4	-46.6	3.5	3.02e+01	0	38	104	0	48	16429
2026-01-01 14:50:06.53	75.47	23.89	-40.0	-50.5	3.5	3.02e+01	0	38	104	0	48	25716
2026-01-01 14:50:07.54	75.80	23.93	-46.5	-59.6	3.5	3.02e+01	0	38	104	0	60	36645
2026-01-01 14:50:08.55	76.13	23.97	-37.5	-47.7	3.5	3.02e+01	0	38	104	0	50	16546
2026-01-01 14:50:09.56	76.46	24.01	-45.8	-58.2	3.5	3.02e+01	0	38	104	0	60	31224
2026-01-01 14:50:10.57	76.79	24.04	-39.9	-50.4	3.5	3.02e+01	0	38	104	0	54	18079
2026-01-01 14:50:11.58	77.12	24.08	-39.9	-50.4	3.5	3.02e+01	0	38	104	0	54	18057
2026-01-01 14:50:12.59	77.45	24.12	-39.3	-49.6	3.5	3.02e+01	0	38	104	0	52	18470
2026-01-01 14:50:13.60	77.79	24.15	-36.4	-46.7	3.5	3.02e+01	0	38	104	0	50	14724
2026-01-01 14:50:14.61	78.12	24.18	-36.6	-46.9	3.5	3.02e+01	0	38	104	0	48	16975
2026-01-01 14:50:15.62	78.46	24.22	-41.2	-51.9	3.5	3.02e+01	0	38	104	0	50	26974
2026-01-01 14:50:16.63	78.79	24.25	-45.5	-58.0	3.5	3.02e+01	0	38	104	0	60	30705
2026-01-01 14:50:17.64	79.13	24.28	-37.8	-48.1	3.5	3.02e+01	0	38	104	0	50	17358
2026-01-01 14:50:18.65	79.47	24.31	-44.9	-56.7	3.5	3.02e+01	0	38	104	0	60	26178
2026-01-01 14:50:19.66	79.80	24.34	-39.6	-50.1	3.5	3.02e+01	0	38	104	0	54	17349
2026-01-01 14:50:20.67	80.14	24.37	-38.5	-49.0	3.5	3.02e+01	0	38	104	0	52	17270
2026-01-01 14:50:21.68	80.48	24.39	-38.2	-48.6	3.5	3.02e+01	0	38	104	0	52	16379
2026-01-01 14:50:22.69	80.82	24.42	-36.8	-46.9	3.5	3.02e+01	0	38	104	0	48	17051
2026-01-01 14:50:23.70	81.16	24.45	-37.0	-47.3	3.5	3.02e+01	0	38	104	0	48	17814
2026-01-01 14:50:24.71	81.50	24.47	-45.6	-57.9	3.6	3.02e+01	0	38	104	0	58	33983
2026-01-01 14:50:25.72	81.84	24.49	-42.7	-53.9	3.5	3.02e+01	0	38	104	0	60	19030
2026-01-01 14:50:26.72	82.18	24.52	-42.4	-53.5	3.5	3.02e+01	0	38	104	0	50	32269
2026-01-01 14:50:27.74	82.52	24.54	-42.3	-53.2	3.5	3.02e+01	0	38	104	0	60	17533
2026-01-01 14:50:28.75	82.87	24.56	-39.7	-50.3	3.5	3.02e+01	0	38	104	0	54	17744
2026-01-01 14:50:29.76	83.21	24.58	-38.1	-48.5	3.5	3.02e+01	0	38	104	0	52	16277
2026-01-01 14:50:30.77	83.55	24.60	-37.1	-47.4	3.5	3.02e+01	0	38	104	0	50	16015
2026-01-01 14:50:31.77	83.89	24.61	-38.0	-48.3	3.5	3.02e+01	0	38	104	0	48	19996
2026-01-01 14:50:32.78	84.24	24.63	-37.1	-47.4	3.5	3.02e+01	0	38	104	0	48	17959
2026-01-01 14:50:33.79	84.58	24.64	-47.0	-60.3	3.4	3.02e+01	0	38	104	0	60	40065
2026-01-01 14:50:34.80	84.93	24.66	-41.2	-51.8	3.5	3.02e+01	0	38	104	0	58	16757
2026-01-01 14:50:35.81	85.27	24.67	-43.6	-54.7	3.5	3.02e+01	0	38	104	0	52	32959
2026-01-01 14:50:36.82	85.62	24.68	-41.7	-52.5	3.5	3.02e+01	0	38	104	0	60	16191
2026-01-01 14:50:37.83	85.96	24.69	-38.6	-48.8	3.5	3.02e+01	0	38	104	0	52	16717
2026-01-01 14:50:38.84	86.31	24.70	-39.1	-49.6	3.5	3.02e+01	0	38	104	0	52	18374
2026-01-01 14:50:39.85	86.66	24.71	-37.4	-47.7	3.5	3.02e+01	0	38	104	0	50	16565
2026-01-01 14:50:40.86	87.00	24.72	-37.5	-47.7	3.4	3.02e+01	0	38	104	0	48	18700
2026-01-01 14:50:41.86	87.35	24.73	-37.5	-47.7	3.5	3.02e+01	0	38	104	0	50	16666
2026-01-01 14:50:42.88	87.70	24.73	-48.6	-66.0	3.5	3.02e+01	0	38	104	0	60	76646
2026-01-01 14:50:43.88	88.04	24.74	-42.8	-54.0	3.5	3.02e+01	0	38	104	0	60	19216
2026-01-01 14:50:44.89	88.39	24.74	-47.4	-61.4	3.5	3.02e+01	0	38	104	0	60	45461
2026-01-01 14:50:45.90	88.74	24.75	-40.0	-50.5	3.5	3.02e+01	0	38	104	0	56	16266
2026-01-01 14:50:46.92	89.09	24.75	-39.9	-50.4	3.5	3.02e+01	0	38	104	0	54	17980
2026-01-01 14:50:47.93	89.43	24.75	-38.4	-48.8	3.6	3.02e+01	0	38	104	0	52	16719
2026-01-01 14:50:48.93	89.78	24.75	-38.2	-48.6	3.5	3.02e+01	0	38	104	0	52	16421
2026-01-01 14:50:49.94	90.12	24.75	-44.0	-55.2	3.5	3.02e+01	0	38	104	0	60	22207
2026-01-01 14:50:50.96	90.47	24.74	-38.0	-48.3	3.5	3.02e+01	0	38	104	0	52	15941
2026-01-01 14:50:51.97	90.82	24.74	-48.4	-66.2	3.5	3.02e+01	0	38	104	0	60	78271
2026-01-01 14:50:52.98	91.17	24.73	-43.3	-55.5	3.5	3.02e+01	0	38	104	0	60	22851
2026-01-01 14:50:53.99	91.52	24.73	-47.8	-62.8	3.5	3.02e+01	0	38	104	0	60	52935
2026-01-01 14:50:55.00	91.86	24.72	-39.8	-50.2	3.5	3.02e+01	0	38	104	0	56	15683
2026-01-01 14:50:56.01	92.21	24.71	-39.4	-50.1	3.5	3.02e+01	0	38	104	0	54	17290
2026-01-01 14:50:57.02	92.56	24.70	-40.2	-50.8	3.5	3.02e+01	0	38	104	0	54	18807
2026-01-01 14:50:58.03	92.90	24.69	-38.0	-48.5	3.5	3.02e+01	0	38	104	0	52	16194
2026-01-01 14:50:59.04	93.25	24.68	-37.1	-47.5	3.5	3.02e+01	0	38	104	0	48	18131
2026-01-01 14:51:00.05	93.59	24.67	-37.4	-47.7	3.5	3.02e+01	0	38	104	0	48	18702
2026-01-01 14:51:01.06	93.94	24.66	-47.8	-64.9	3.5	3.02e+01	0	38	104	0	60	67518
2026-01-01 14:51:02.07	94.28	24.64	-43.8	-55.2	3.5	3.02e+01	0	38	104	0	60	22128
2026-01-01 14:51:03.08	94.63	24.63	-47.5	-62.8	3.5	3.02e+01	0	38	104	0	60	52977
2026-01-01 14:51:04.09	94.97	24.61	-39.3	-49.7	3.5	3.02e+01	0	38	104	0	54	16580
2026-01-01 14:51:05.10	95.32	24.60	-39.0	-49.5	3.5	3.02e+01	0	38	104	0	52	18223
2026-01-01 14:51:06.11	95.66	24.58	-37.4	-47.7	3.5	3.02e+01	0	38	104	0	50	16517
2026-01-01 14:51:07.12	96.01	24.56	-36.5	-46.6	3.5	3.02e+01	0	38	104	0	48	16417
2026-01-01 14:51:08.13	96.35	24.54	-39.4	-49.8	3.5	3.02e+01	0	38	104	0	52	18928
2026-01-01 14:51:09.13	96.69	24.52	-37.4	-47.7	3.5	3.02e+01	0	38	104	0	48	18730
2026-01-01 14:51:10.14	97.03	24.49	-48.4	-64.7	3.5	3.02e+01	0	38	104	0	60	65960
2026-01-01 14:51:11.15	97.37	24.47	-46.0	-58.3	3.5	3.02e+01	0	38	104	0	60	31731
2026-01-01 14:51:12.16	97.71	24.45	-48.1	-63.7	3.5	3.02e+01	0	38	104	0	60	59038
2026-01-01 14:51:13.17	98.05	24.42	-41.3	-52.2	3.5	3.02e+01	0	38	104	0	58	17518
2026-01-01 14:51:14.18	98.39	24.40	-40.8	-51.4	3.5	3.02e+01	0	38	104	0	56	18068
2026-01-01 14:51:15.19	98.73	24.37	-39.6	-50.0	3.5	3.02e+01	0	38	104	0	54	17173
2026-01-01 14:51:16.20	99.07	24.34	-38.7	-49.0	3.5	3.02e+01	0	38	104	0	52	17109
2026-01-01 14:51:17.21	99.41	24.31	-46.3	-59.1	3.5	3.02e+01	0	38	104	0	60	34577
2026-01-01 14:51:18.22	99.75	24.28	-36.7	-46.9	3.5	3.02e+01	0	38	104	0	50	15218
2026-01-01 14:51:19.23	100.08	24.25	-48.3	-65.0	3.5	3.02e+01	0	38	104	0	60	68465
2026-01-01 14:51:20.24	100.42	24.22	-42.1	-52.9	3.5	3.02e+01	0	38	104	0	60	16959
2026-01-01 14:51:21.25	100.76	24.18	-48.0	-62.6	3.5	3.02e+01	0	38	104	0	60	52149
2026-01-01 14:51:22.26	101.09	24.15	-39.2	-49.4	3.5	3.02e+01	0	38	104	0	52	18075
2026-01-01 14:51:23.27	101.42	24.12	-38.9	-49.2	3.5	3.02e+01	0	38	104	0	52	17660
2026-01-01 14:51:24.28	101.76	24.08	-39.7	-50.1	3.5	3.02e+01	0	38	104	0	52	19474
2026-01-01 14:51:25.29	102.09	24.04	-38.6	-49.0	3.5	3.02e+01	0	38	104	0	52	17162
2026-01-01 14:51:26.30	102.42	24.01	-36.2	-46.4	3.6	3.02e+01	0	38	104	0	46	17985
2026-01-01 14:51:27.31	102.75	23.97	-36.4	-46.5	3.6	3.02e+01	0	38	104	0	48	16275
2026-01-01 14:51:28.32	103.08	23.93	-48.7	-61.2	3.9	3.02e+01	0	38	104	0	60	44411
2026-01-01 14:51:29.33	103.41	23.89	-38.5	-39.9	26.9	3.02e+01	53	38	0	0	56	4763
2026-01-01 14:51:30.34	103.74	23.85	-47.5	-53.7	12.7	3.02e+01	59	38	0	2097152	60	18664
2026-01-01 14:51:31.35	104.07	23.80	-38.1	-39.5	26.5	3.02e+01	60	38	0	3670016	52	5772
2026-01-01 14:51:32.36	104.39	23.76	-37.6	-39.0	27.0	3.02e+01	61	38	0	5767168	50	6088
2026-01-01 14:51:33.37	104.72	23.72	-36.3	-37.5	28.3	3.02e+01	62	38	0	7864320	48	5780
2026-01-01 14:51:34.38	105.04	23.67	-35.8	-37.1	28.6	3.02e+01	58	38	0	9437184	46	6175
2026-01-01 14:51:35.39	105.37	23.63	-35.9	-37.1	28.5	3.02e+01	61	38	0	11534336	46	6205
2026-01-01 14:51:36.40	105.69	23.58	-35.9	-37.1	28.5	3.02e+01	61	38	0	13631488	46	6175
2026-01-01 14:51:37.41	106.01	23.54	-35.6	-36.9	28.9	3.02e+01	45	38	0	15204352	46	6002
2026-01-01 14:51:38.42	106.33	23.49	-35.8	-37.0	28.7	3.02e+01	59	38	0	17301504	46	6132
2026-01-01 14:51:39.44	106.66	23.44	-35.8	-37.1	28.7	3.02e+01	54	38	0	18874368	46	6137
2026-01-01 14:51:40.44	106.97	23.39	-35.5	-36.7	29.0	3.02e+01	61	38	0	20971520	46	5877
2026-01-01 14:51:41.45	107.29	23.34	-35.5	-36.8	29.0	3.02e+01	60	38	0	23068672	46	5938
2026-01-01 14:51:42.46	107.61	23.29	-35.7	-36.9	28.9	3.02e+01	60	38	0	24641536	46	6029
2026-01-01 14:51:43.47	107.92	23.24	-35.5	-36.7	28.9	3.02e+01	59	38	0	26738688	46	5878
2026-01-01 14:51:44.48	108.24	23.19	-35.2	-36.5	29.1	3.02e+01	60	38	0	28311552	46	5731
2026-01-01 14:51:45.49	108.55	23.13	-35.0	-36.2	29.4	3.02e+01	45	38	0	30408704	46	5561
2026-01-01 14:51:46.50	108.86	23.08	-35.2	-36.3	29.3	3.02e+01	60	38	0	32505856	46	5657
2026-01-01 14:51:47.51	109.17	23.02	-35.3	-36.5	29.3	3.02e+01	53	38	0	34078720	46	5749
2026-01-01 14:51:48.52	109.48	22.97	-35.2	-36.4	29.2	3.02e+01	61	38	0	36175872	46	5720
2026-01-01 14:51:49.53	109.79	22.91	-35.3	-36.5	29.2	3.02e+01	57	38	0	38273024	46	5770
2026-01-01 14:51:50.54	110.10	22.86	-35.2	-36.4	29.3	3.02e+01	52	38	0	39845888	46	5668
2026-01-01 14:51:51.55	110.41	22.80	-35.1	-36.3	29.3	3.02e+01	59	38	0	41943040	46	5654
2026-01-01 14:51:52.56	110.71	22.74	-35.2	-36.4	29.2	3.02e+01	57	38	0	43515904	46	5719
2026-01-01 14:51:53.57	111.02	22.68	-35.1	-36.3	29.3	3.02e+01	59	38	0	45613056	46	5656
2026-01-01 14:51:54.58	111.32	22.62	-35.0	-36.2	29.4	3.02e+01	60	38	0	47710208	46	5571
2026-01-01 14:51:55.59	111.62	22.56	-35.1	-36.3	29.5	3.02e+01	44	38	0	49283072	46	5601
2026-01-01 14:51:56.60	111.92	22.50	-35.1	-36.3	29.4	3.02e+01	60	38	0	51380224	46	5620
2026-01-01 14:51:57.61	112.22	22.44	-35.2	-36.4	29.3	3.02e+01	58	38	0	52953088	46	5699
2026-01-01 14:51:58.62	112.52	22.38	-35.2	-36.4	29.3	3.02e+01	47	38	0	55050240	46	5716
2026-01-01 14:51:59.63	112.82	22.32	-35.2	-36.4	29.3	3.02e+01	58	38	0	57147392	46	5698
2026-01-01 14:52:00.64	113.11	22.25	-35.1	-36.3	29.4	3.02e+01	59	38	0	58720256	46	5648
2026-01-01 14:52:01.65	113.41	22.19	-35.1	-36.3	29.3	3.02e+01	57	38	0	60817408	46	5640
2026-01-01 14:52:02.66	113.70	22.13	-35.0	-36.2	29.4	3.02e+01	57	38	0	62390272	46	5565
2026-01-01 14:52:03.67	113.99	22.06	-35.0	-36.2	29.6	3.02e+01	50	38	0	64487424	46	5545
2026-01-01 14:52:04.68	114.29	22.00	-35.1	-36.3	29.4	3.02e+01	59	38	0	66584576	46	5621
2026-01-01 14:52:05.69	114.58	21.93	-35.1	-36.3	29.2	3.02e+01	57	38	0	68157440	46	5654
2026-01-01 14:52:06.70	114.86	21.87	-35.1	-36.3	29.2	3.02e+01	47	38	0	70254592	46	5635
2026-01-01 14:52:07.71	115.15	21.80	-35.2	-36.4	29.2	3.02e+01	61	38	0	71827456	46	5667
2026-01-01 14:52:08.71	115.43	21.73	-35.1	-36.3	29.3	3.02e+01	57	38	0	73924608	46	5639
2026-01-01 14:52:09.73	115.72	21.66	-35.1	-36.3	29.2	3.02e+01	60	38	0	76021760	46	5639
2026-01-01 14:52:10.74	116.01	21.60	-35.0	-36.2	29.4	3.02e+01	57	38	0	77594624	46	5544
2026-01-01 14:52:11.75	116.29	21.53	-35.1	-36.3	29.3	3.02e+01	53	38	0	79691776	46	5616
2026-01-01 14:52:12.76	116.57	21.46	-35.0	-36.2	29.3	3.02e+01	58	38	0	81788928	46	5566
2026-01-01 14:52:13.77	116.85	21.39	-34.8	-36.0	29.5	3.02e+01	60	38	0	83361792	44	6124
2026-01-01 14:52:14.78	117.13	21.32	-34.9	-36.1	29.3	3.02e+01	45	38	0	85458944	44	6162
2026-01-01 14:52:15.79	117.40	21.25	-34.9	-36.1	29.5	3.02e+01	59	38	0	87031808	44	6137
2026-01-01 14:52:16.80	117.68	21.18	-35.1	-36.3	29.3	3.02e+01	58	38	0	89128960	44	6295
2026-01-01 14:52:17.81	117.95	21.11	-35.0	-36.2	29.3	3.02e+01	58	38	0	91226112	44	6255
2026-01-01 14:52:18.82	118.23	21.03	-34.9	-36.2	29.3	3.02e+01	59	38	0	92798976	44	6206
2026-01-01 14:52:19.83	118.50	20.96	-34.8	-35.9	29.4	3.02e+01	59	38	0	94896128	44	6060
2026-01-01 14:52:20.83	118.77	20.89	-34.7	-35.9	29.6	3.02e+01	59	38	0	96468992	44	6028
2026-01-01 14:52:21.84	119.04	20.82	-34.8	-36.0	29.4	3.02e+01	61	38	0	98566144	44	6132
2026-01-01 14:52:22.85	119.30	20.74	-34.9	-36.1	29.4	3.02e+01	46	38	0	100663296	44	6205
2026-01-01 14:52:23.86	119.57	20.67	-35.0	-36.2	29.3	3.02e+01	60	38	0	102236160	44	6235
2026-01-01 14:52:24.87	119.84	20.60	-34.9	-36.1	29.4	3.02e+01	50	38	0	104333312	44	6189
2026-01-01 14:52:25.88	120.10	20.52	-34.9	-36.1	29.5	3.02e+01	60	38	0	106430464	44	6135
2026-01-01 14:52:26.89	120.36	20.45	-35.0	-36.2	29.4	3.02e+01	57	38	0	108003328	44	6213
2026-01-01 14:52:27.90	120.62	20.37	-34.9	-36.1	29.4	3.02e+01	45	38	0	110100480	44	6184
2026-01-01 14:52:28.91	120.88	20.30	-34.8	-36.0	29.5	3.02e+01	60	38	0	111673344	44	6093
2026-01-01 14:52:29.92	121.14	20.22	-34.8	-36.0	29.5	3.02e+01	59	38	0	113770496	44	6096
2026-01-01 14:52:30.93	121.40	20.15	-34.8	-36.0	29.5	3.02e+01	61	38	0	115867648	44	6067
2026-01-01 14:52:31.94	121.66	20.07	-34.9	-36.1	29.4	3.02e+01	60	38	0	117440512	44	6194
2026-01-01 14:52:32.95	121.91	19.99	-34.9	-36.1	29.5	3.02e+01	51	38	0	119537664	44	6186
2026-01-01 14:52:33.96	122.16	19.92	-35.1	-36.3	29.3	3.02e+01	62	38	0	121110528	44	6288
2026-01-01 14:52:34.97	122.42	19.84	-34.7	-35.9	29.6	3.02e+01	58	38	0	123207680	44	6051
2026-01-01 14:52:35.98	122.67	19.76	-34.9	-36.1	29.4	3.02e+01	46	38	0	125304832	44	6146
2026-01-01 14:52:36.98	122.91	19.69	-34.8	-35.9	29.5	3.02e+01	54	38	0	126877696	44	6052
2026-01-01 14:52:37.99	123.16	19.61	-34.9	-36.0	29.5	3.02e+01	59	38	0	128974848	44	6129
2026-01-01 14:52:39.00	123.41	19.53	-34.9	-36.1	29.4	3.02e+01	59	38	0	130547712	44	6165
2026-01-01 14:52:40.01	123.66	19.45	-34.9	-36.1	29.5	3.02e+01	58	38	0	132644864	44	6141
2026-01-01 14:52:41.02	123.90	19.37	-34.8	-36.0	29.6	3.02e+01	61	38	0	134742016	44	6076
2026-01-01 14:52:42.03	124.14	19.29	-34.8	-36.0	29.6	3.02e+01	61	38	0	136314880	44	6071
2026-01-01 14:52:43.04	124.39	19.21	-34.8	-36.1	29.4	3.02e+01	60	38	0	138412032	44	6138
2026-01-01 14:52:44.05	124.63	19.14	-34.6	-35.8	29.6	3.02e+01	53	38	0	139984896	44	5979
2026-01-01 14:52:45.06	124.87	19.06	-34.6	-35.8	29.6	3.02e+01	60	38	0	142082048	44	5948
2026-01-01 14:52:46.07	125.10	18.98	-34.7	-35.9	29.6	3.02e+01	60	38	0	144179200	44	6009
2026-01-01 14:52:47.08	125.34	18.90	-34.8	-36.0	29.5	3.02e+01	59	38	0	145752064	44	6092
2026-01-01 14:52:48.09	125.58	18.82	-34.7	-35.9	29.5	3.02e+01	58	38	0	147849216	44	6018
2026-01-01 14:52:49.10	125.81	18.74	-34.7	-35.9	29.6	3.02e+01	51	38	0	149946368	44	6011
2026-01-01 14:52:50.11	126.04	18.66	-34.8	-36.0	29.4	3.02e+01	58	38	0	151519232	44	6110
2026-01-01 14:52:51.12	126.27	18.58	-34.6	-35.8	29.7	3.02e+01	61	38	0	153616384	44	5943
2026-01-01 14:52:52.13	126.51	18.50	-34.5	-35.7	29.7	3.02e+01	45	38	0	155189248	44	5921
2026-01-01 14:52:53.14	126.73	18.42	-34.6	-35.8	29.7	3.02e+01	61	38	0	157286400	44	5982
2026-01-01 14:52:54.15	126.96	18.33	-34.7	-35.9	29.6	3.02e+01	57	38	0	159383552	44	6043
2026-01-01 14:52:55.16	127.19	18.25	-34.7	-35.9	29.6	3.02e+01	58	38	0	160956416	44	6015
2026-01-01 14:52:56.17	127.41	18.17	-34.7	-35.9	29.6	3.02e+01	59	38	0	163053568	44	6050
2026-01-01 14:52:57.18	127.64	18.09	-34.6	-35.8	29.6	3.02e+01	54	38	0	164626432	44	5972
2026-01-01 14:52:58.19	127.86	18.01	-34.7	-35.9	29.5	3.02e+01	60	38	0	166723584	44	5999
2026-01-01 14:52:59.20	128.08	17.93	-34.7	-35.9	29.6	3.02e+01	52	38	0	168820736	44	6020
2026-01-01 14:53:00.21	128.30	17.85	-34.8	-36.0	29.3	3.02e+01	53	38	0	170393600	44	6131
2026-01-01 14:53:01.22	128.52	17.77	-34.6	-35.8	29.6	3.02e+01	62	38	0	172490752	44	5938
2026-01-01 14:53:02.23	128.74	17.68	-34.8	-36.0	29.4	3.02e+01	46	38	0	174587904	44	6092
2026-01-01 14:53:03.24	128.96	17.60	-34.5	-35.7	29.7	3.02e+01	58	38	0	176160768	44	5898
2026-01-01 14:53:04.25	129.17	17.52	-34.6	-35.7	29.6	3.02e+01	59	38	0	178257920	44	5920
2026-01-01 14:53:05.26	129.39	17.44	-34.6	-35.8	29.7	3.02e+01	45	38	0	179830784	44	5964
2026-01-01 14:53:06.27	129.60	17.36	-34.6	-35.8	29.7	3.02e+01	58	38	0	181927936	44	5957
2026-01-01 14:53:07.28	129.81	17.28	-34.7	-35.9	29.6	3.02e+01	58	38	0	184025088	44	6013
2026-01-01 14:53:08.29	130.02	17.19	-34.7	-35.9	29.6	3.02e+01	59	38	0	185597952	44	6001
2026-01-01 14:53:09.30	130.23	17.11	-34.6	-35.8	29.6	3.02e+01	58	38	0	187695104	44	5954
2026-01-01 14:53:10.31	130.44	17.03	-34.6	-35.8	29.7	3.02e+01	44	38	0	189267968	44	5947
2026-01-01 14:53:11.32	130.65	16.95	-34.6	-35.8	29.6	3.02e+01	59	38	0	191365120	44	5957
2026-01-01 14:53:12.33	130.86	16.86	-34.5	-35.7	29.7	3.02e+01	59	38	0	193462272	44	5917
2026-01-01 14:53:13.34	131.06	16.78	-34.6	-35.8	29.6	3.02e+01	44	38	0	195035136	44	5966
2026-01-01 14:53:14.35	131.26	16.70	-34.8	-36.0	29.5	3.02e+01	61	38	0	197132288	44	6079
2026-01-01 14:53:15.36	131.47	16.62	-34.7	-35.8	29.6	3.02e+01	59	38	0	198705152	44	5994
2026-01-01 14:53:16.37	131.67	16.54	-34.8	-36.0	29.4	3.02e+01	61	38	0	200802304	44	6068
2026-01-01 14:53:17.38	131.87	16.45	-34.6	-35.8	29.6	3.02e+01	61	38	0	202899456	44	5973
2026-01-01 14:53:18.39	132.07	16.37	-34.7	-35.8	29.6	3.02e+01	46	38	0	204472320	44	5991
2026-01-01 14:53:19.40	132.27	16.29	-34.6	-35.8	29.6	3.02e+01	57	38	0	206569472	44	5948
2026-01-01 14:53:20.41	132.46	16.21	-34.6	-35.8	29.7	3.02e+01	60	38	0	208142336	44	5959
2026-01-01 14:53:21.42	132.66	16.12	-34.6	-35.8	29.7	3.02e+01	54	38	0	210239488	44	5945
2026-01-01 14:53:22.43	132.85	16.04	-34.7	-35.9	29.6	3.02e+01	59	38	0	212336640	44	6014
2026-01-01 14:53:23.44	133.05	15.96	-34.8	-36.0	29.5	3.02e+01	59	38	0	213909504	44	6065
2026-01-01 14:53:24.45	133.24	15.88	-34.6	-35.8	29.6	3.02e+01	58	38	0	216006656	44	5962
2026-01-01 14:53:25.46	133.43	15.80	-34.8	-36.0	29.5	3.02e+01	58	38	0	218103808	44	6097
2026-01-01 14:53:26.47	133.62	15.71	-34.8	-36.0	29.4	3.02e+01	46	38	0	219676672	44	6111
2026-01-01 14:53:27.48	133.81	15.63	-35.1	-36.3	29.3	3.02e+01	59	38	0	221773824	44	6347
2026-01-01 14:53:28.49	134.00	15.55	-34.9	-36.1	29.4	3.02e+01	57	38	0	223346688	44	6199
2026-01-01 14:53:29.50	134.19	15.47	-35.2	-36.5	29.1	3.02e+01	47	38	0	225443840	44	6447
2026-01-01 14:53:30.51	134.37	15.38	-35.1	-36.4	29.1	3.02e+01	57	38	0	227540992	44	6359
2026-01-01 14:53:31.52	134.56	15.30	-34.7	-35.9	29.5	3.02e+01	53	38	0	229113856	44	6056
2026-01-01 14:53:32.53	134.74	15.22	-34.8	-36.0	29.3	3.02e+01	58	38	0	231211008	44	6121
2026-01-01 14:53:33.54	134.93	15.14	-34.7	-35.9	29.4	3.02e+01	56	38	0	232783872	44	6060
2026-01-01 14:53:34.55	135.11	15.06	-34.7	-35.9	29.4	3.02e+01	48	38	0	234881024	44	6062
2026-01-01 14:53:35.56	135.29	14.97	-34.8	-36.0	29.3	3.02e+01	60	38	0	236978176	44	6127
2026-01-01 14:53:36.57	135.47	14.89	-34.8	-35.9	29.4	3.02e+01	55	38	0	238551040	44	6059
2026-01-01 14:53:37.58	135.65	14.81	-34.8	-36.0	29.4	3.02e+01	60	38	0	240648192	44	6093
2026-01-01 14:53:38.59	135.83	14.73	-34.8	-36.0	29.4	3.02e+01	60	38	0	242745344	44	6122
2026-01-01 14:53:39.60	136.00	14.65	-34.6	-35.8	29.6	3.02e+01	46	38	0	244318208	44	5969
2026-01-01 14:53:40.61	136.18	14.57	-34.7	-35.9	29.4	3.02e+01	60	38	0	246415360	44	6033
2026-01-01 14:53:41.62	136.35	14.48	-34.7	-35.9	29.5	3.02e+01	60	38	0	247988224	44	6026
2026-01-01 14:53:42.63	136.53	14.40	-34.8	-35.9	29.5	3.02e+01	48	38	0	250085376	44	6064
2026-01-01 14:53:43.64	136.70	14.32	-34.8	-36.0	29.4	3.02e+01	56	38	0	252182528	44	6066
2026-01-01 14:53:44.65	136.87	14.24	-34.8	-36.0	29.4	3.02e+01	62	38	0	253755392	44	6117
2026-01-01 14:53:45.66	137.04	14.16	-34.8	-36.0	29.4	3.02e+01	59	38	0	255852544	44	6083
2026-01-01 14:53:46.67	137.21	14.08	-34.8	-36.0	29.4	3.02e+01	58	38	0	257425408	44	6098
2026-01-01 14:53:47.68	137.38	14.00	-34.9	-36.1	29.3	3.02e+01	61	38	0	259522560	44	6180
2026-01-01 14:53:48.69	137.55	13.92	-35.0	-36.3	29.2	3.02e+01	59	38	0	261619712	44	6282
2026-01-01 14:53:49.70	137.72	13.83	-34.9	-36.1	29.3	3.02e+01	57	38	0	263192576	44	6167
2026-01-01 14:53:50.71	137.88	13.75	-35.0	-36.2	29.2	3.02e+01	47	38	0	265289728	44	6222
2026-01-01 14:53:51.71	138.05	13.67	-35.0	-36.2	29.3	3.02e+01	57	38	0	266862592	44	6233
2026-01-01 14:53:52.72	138.21	13.59	-34.8	-36.0	29.4	3.02e+01	58	38	0	268959744	44	6112
2026-01-01 14:53:53.73	138.37	13.51	-34.8	-36.0	29.4	3.02e+01	58	38	0	271056896	44	6127
2026-01-01 14:53:54.74	138.54	13.43	-34.9	-36.1	29.3	3.02e+01	57	38	0	272629760	44	6178
2026-01-01 14:53:55.75	138.70	13.35	-35.0	-36.3	29.2	3.02e+01	46	38	0	274726912	44	6283
2026-01-01 14:53:56.76	138.86	13.27	-35.1	-36.3	29.2	3.02e+01	56	38	0	276299776	44	6314
2026-01-01 14:53:57.77	139.02	13.19	-35.1	-36.3	29.0	3.02e+01	59	38	0	278396928	44	6335
2026-01-01 14:53:58.78	139.18	13.11	-35.3	-36.5	28.9	3.02e+01	47	38	0	280494080	44	6452
2026-01-01 14:53:59.79	139.33	13.03	-35.4	-36.6	28.8	3.02e+01	59	38	0	282066944	44	6535
2026-01-01 14:54:00.80	139.49	12.95	-35.5	-36.7	28.7	3.02e+01	60	38	0	284164096	44	6640
2026-01-01 14:54:01.81	139.65	12.87	-35.7	-36.9	28.5	3.02e+01	58	38	0	286261248	44	6793
2026-01-01 14:54:02.82	139.80	12.79	-35.9	-37.1	28.2	3.02e+01	61	38	0	287834112	44	6962
2026-01-01 14:54:03.83	139.96	12.71	-35.8	-37.1	28.2	3.02e+01	54	38	0	289931264	44	6912
2026-01-01 14:54:04.84	140.11	12.63	-36.1	-37.4	28.0	3.02e+01	58	38	0	291504128	46	6354
2026-01-01 14:54:05.85	140.26	12.55	-36.3	-37.6	27.6	3.02e+01	60	38	0	293601280	46	6559
2026-01-01 14:54:06.86	140.42	12.47	-36.4	-37.8	27.4	3.02e+01	59	38	0	295698432	46	6665
2026-01-01 14:54:07.86	140.57	12.40	-36.7	-38.0	27.2	3.02e+01	58	38	0	297271296	46	6863
2026-01-01 14:54:08.87	140.72	12.32	-36.9	-38.3	26.8	3.02e+01	43	38	0	299368448	46	7096
2026-01-01 14:54:09.88	140.86	12.24	-37.1	-38.6	26.4	3.02e+01	59	38	0	300941312	48	6506
2026-01-01 14:54:10.89	141.01	12.16	-37.3	-38.8	26.2	3.02e+01	56	38	0	303038464	48	6669
2026-01-01 14:54:11.90	141.16	12.08	-37.5	-39.0	26.1	3.02e+01	46	38	0	305135616	48	6824
2026-01-01 14:54:12.91	141.31	12.00	-37.6	-39.1	25.8	3.02e+01	58	38	0	306708480	48	6896
2026-01-01 14:54:13.92	141.45	11.92	-37.4	-38.9	26.1	3.02e+01	56	38	0	308805632	48	6764
2026-01-01 14:54:14.93	141.60	11.85	-37.5	-39.0	26.0	3.02e+01	61	38	0	310902784	48	6847
2026-01-01 14:54:15.94	141.74	11.77	-37.5	-39.0	26.1	3.02e+01	52	38	0	312475648	48	6816
2026-01-01 14:54:16.95	141.89	11.69	-37.2	-38.7	26.5	3.02e+01	45	38	0	314572800	48	6584
2026-01-01 14:54:17.96	142.03	11.61	-37.2	-38.7	26.6	3.02e+01	58	38	0	316145664	48	6575
2026-01-01 14:54:18.97	142.17	11.53	-37.1	-38.5	26.8	3.02e+01	62	38	0	318242816	48	6478
2026-01-01 14:54:19.98	142.31	11.46	-36.9	-38.3	26.9	3.02e+01	52	38	0	320339968	48	6299
2026-01-01 14:54:20.99	142.45	11.38	-37.0	-38.4	26.9	3.02e+01	57	38	0	321912832	48	6375
2026-01-01 14:54:22.00	142.59	11.30	-36.9	-38.3	27.0	3.02e+01	61	38	0	324009984	48	6296
2026-01-01 14:54:23.01	142.73	11.22	-36.7	-38.1	27.2	3.02e+01	58	38	0	325582848	48	6137
2026-01-01 14:54:24.02	142.87	11.15	-36.5	-37.9	27.3	3.02e+01	59	38	0	327680000	48	6018
2026-01-01 14:54:25.03	143.01	11.07	-36.6	-38.0	27.4	3.02e+01	52	38	0	329777152	48	6081
2026-01-01 14:54:26.04	143.15	10.99	-36.4	-37.7	27.5	3.02e+01	60	38	0	331350016	48	5907
2026-01-01 14:54:27.05	143.28	10.92	-36.5	-37.8	27.3	3.02e+01	62	38	0	333447168	48	5987
2026-01-01 14:54:28.06	143.42	10.84	-36.4	-37.7	27.7	3.02e+01	51	38	0	335020032	48	5870
2026-01-01 14:54:29.06	143.55	10.76	-36.3	-37.6	27.6	3.02e+01	60	38	0	337117184	48	5838
2026-01-01 14:54:30.07	143.68	10.69	-36.2	-37.5	27.8	3.02e+01	62	38	0	339214336	48	5743
2026-01-01 14:54:31.08	143.82	10.61	-36.3	-37.6	27.7	3.02e+01	60	38	0	340787200	48	5829
2026-01-01 14:54:32.09	143.95	10.54	-36.7	-38.0	27.3	3.02e+01	57	38	0	342884352	48	6091
2026-01-01 14:54:33.10	144.08	10.46	-36.3	-37.6	27.7	3.02e+01	52	38	0	344457216	48	5819
2026-01-01 14:54:34.11	144.21	10.38	-36.3	-37.6	27.6	3.02e+01	61	38	0	346554368	48	5830
2026-01-01 14:54:35.12	144.34	10.31	-36.1	-37.4	27.8	3.02e+01	52	38	0	348651520	48	5695
2026-01-01 14:54:36.13	144.47	10.23	-36.1	-37.3	27.9	3.02e+01	46	38	0	350224384	48	5655
2026-01-01 14:54:37.14	144.60	10.16	-36.3	-37.6	27.8	3.02e+01	60	38	0	352321536	48	5794
2026-01-01 14:54:38.15	144.73	10.08	-36.2	-37.5	27.8	3.02e+01	54	38	0	354418688	48	5731
2026-01-01 14:54:39.16	144.86	10.01	-36.1	-37.4	27.8	3.02e+01	61	38	0	355991552	48	5702
2026-01-01 14:54:40.17	144.98	9.93	-36.1	-37.4	27.9	3.02e+01	59	38	0	358088704	48	5682
2026-01-01 14:54:41.18	145.11	9.86	-36.1	-37.4	27.9	3.02e+01	53	38	0	359661568	48	5718
2026-01-01 14:54:42.19	145.23	9.78	-36.1	-37.4	27.9	3.02e+01	57	38	0	361758720	48	5687
2026-01-01 14:54:43.20	145.36	9.71	-36.1	-37.4	27.9	3.02e+01	58	38	0	363855872	48	5692
2026-01-01 14:54:44.21	145.48	9.63	-36.2	-37.4	27.9	3.02e+01	52	38	0	365428736	48	5717
2026-01-01 14:54:45.22	145.61	9.56	-36.0	-37.3	28.0	3.02e+01	61	38	0	367525888	48	5628
2026-01-01 14:54:46.23	145.73	9.49	-36.1	-37.3	28.0	3.02e+01	45	38	0	369098752	48	5649
2026-01-01 14:54:47.24	145.85	9.41	-36.0	-37.3	28.1	3.02e+01	57	38	0	371195904	48	5597
2026-01-01 14:54:48.25	145.97	9.34	-36.0	-37.3	28.1	3.02e+01	61	38	0	373293056	46	6305
2026-01-01 14:54:49.26	146.09	9.26	-36.0	-37.3	28.1	3.02e+01	44	38	0	374865920	46	6334
2026-01-01 14:54:50.27	146.21	9.19	-36.0	-37.3	28.1	3.02e+01	58	38	0	376963072	46	6285
2026-01-01 14:54:51.28	146.33	9.12	-36.0	-37.3	28.1	3.02e+01	55	38	0	379060224	46	6316
2026-01-01 14:54:52.29	146.45	9.04	-36.1	-37.4	28.0	3.02e+01	60	38	0	380633088	46	6381
2026-01-01 14:54:53.29	146.57	8.97	-35.9	-37.2	28.2	3.02e+01	56	38	0	382730240	46	6229
2026-01-01 14:54:54.30	146.69	8.90	-36.0	-37.3	28.1	3.02e+01	57	38	0	384303104	46	6299
2026-01-01 14:54:55.31	146.80	8.83	-36.0	-37.3	28.1	3.02e+01	58	38	0	386400256	46	6318
2026-01-01 14:54:56.32	146.92	8.75	-36.0	-37.3	28.0	3.02e+01	58	38	0	388497408	46	6317
2026-01-01 14:54:57.33	147.04	8.68	-36.0	-37.3	28.1	3.02e+01	40	38	0	390070272	46	6302
2026-01-01 14:54:58.34	147.15	8.61	-36.3	-37.6	27.9	3.02e+01	58	38	0	392167424	46	6505
2026-01-01 14:54:59.35	147.27	8.54	-36.2	-37.5	27.9	3.02e+01	58	38	0	393740288	46	6442
2026-01-01 14:55:00.36	147.38	8.46	-36.1	-37.4	28.0	3.02e+01	61	38	0	395837440	46	6409
2026-01-01 14:55:01.37	147.49	8.39	-36.1	-37.3	28.0	3.02e+01	62	38	0	397934592	46	6347
2026-01-01 14:55:02.38	147.61	8.32	-36.1	-37.4	28.0	3.02e+01	60	38	0	399507456	46	6384
2026-01-01 14:55:03.39	147.72	8.25	-36.1	-37.4	28.0	3.02e+01	61	38	0	401604608	46	6358
2026-01-01 14:55:04.40	147.83	8.18	-36.2	-37.5	27.9	3.02e+01	57	38	0	403177472	46	6489
2026-01-01 14:55:05.41	147.94	8.10	-36.2	-37.5	27.8	3.02e+01	54	38	0	405274624	46	6475
2026-01-01 14:55:06.42	148.05	8.03	-36.2	-37.5	27.8	3.02e+01	60	38	0	407371776	46	6468
2026-01-01 14:55:07.43	148.16	7.96	-36.3	-37.6	27.7	3.02e+01	58	38	0	408944640	46	6554
2026-01-01 14:55:08.44	148.27	7.89	-36.2	-37.5	27.8	3.02e+01	58	38	0	411041792	46	6428
2026-01-01 14:55:09.45	148.38	7.82	-36.3	-37.6	27.8	3.02e+01	60	38	0	412614656	46	6501
2026-01-01 14:55:10.46	148.49	7.75	-36.1	-37.4	27.9	3.02e+01	57	38	0	414711808	46	6387
2026-01-01 14:55:11.47	148.60	7.68	-36.3	-37.6	27.8	3.02e+01	61	38	0	416808960	46	6508
2026-01-01 14:55:12.48	148.70	7.61	-36.4	-37.7	27.7	3.02e+01	60	38	0	418381824	46	6622
2026-01-01 14:55:13.49	148.81	7.54	-36.3	-37.6	27.7	3.02e+01	55	38	0	420478976	46	6546
2026-01-01 14:55:14.50	148.92	7.47	-36.3	-37.6	27.7	3.02e+01	62	38	0	422576128	46	6546
2026-01-01 14:55:15.52	149.02	7.40	-36.3	-37.6	27.8	3.02e+01	53	38	0	424148992	46	6522
2026-01-01 14:55:16.53	149.13	7.33	-36.3	-37.6	27.6	3.02e+01	52	38	0	426246144	46	6554
2026-01-01 14:55:17.54	149.23	7.26	-36.4	-37.7	27.5	3.02e+01	56	38	0	427819008	46	6645
2026-01-01 14:55:18.55	149.34	7.19	-36.3	-37.6	27.6	3.02e+01	51	38	0	429916160	46	6513
2026-01-01 14:55:19.56	149.44	7.12	-36.4	-37.7	27.6	3.02e+01	60	38	0	432013312	46	6647
2026-01-01 14:55:20.57	149.55	7.05	-36.6	-37.9	27.4	3.02e+01	59	38	0	433586176	46	6749
2026-01-01 14:55:21.58	149.65	6.98	-36.4	-37.7	27.5	3.02e+01	59	38	0	435683328	46	6635
2026-01-01 14:55:22.59	149.75	6.91	-36.6	-37.9	27.4	3.02e+01	59	38	0	437256192	46	6771
2026-01-01 14:55:23.60	149.85	6.84	-36.5	-37.8	27.4	3.02e+01	48	38	0	439353344	46	6699
2026-01-01 14:55:24.61	149.95	6.77	-36.5	-37.8	27.4	3.02e+01	60	38	0	441450496	46	6726
2026-01-01 14:55:25.61	150.05	6.70	-36.5	-37.9	27.4	3.02e+01	62	38	0	443023360	46	6739
2026-01-01 14:55:26.62	150.15	6.64	-36.6	-37.9	27.4	3.02e+01	46	38	0	445120512	46	6745
2026-01-01 14:55:27.63	150.25	6.57	-36.5	-37.8	27.4	3.02e+01	57	38	0	447217664	46	6699
2026-01-01 14:55:28.64	150.35	6.50	-36.6	-37.9	27.3	3.02e+01	60	38	0	448790528	46	6802
2026-01-01 14:55:29.65	150.45	6.43	-36.4	-37.7	27.5	3.02e+01	60	38	0	450887680	46	6644
2026-01-01 14:55:30.66	150.55	6.36	-36.5	-37.9	27.3	3.02e+01	60	38	0	452460544	46	6735
2026-01-01 14:55:31.67	150.65	6.29	-36.6	-37.9	27.3	3.02e+01	56	38	0	454557696	46	6748
2026-01-01 14:55:32.68	150.74	6.23	-36.5	-37.8	27.4	3.02e+01	57	38	0	456654848	46	6659
2026-01-01 14:55:33.69	150.84	6.16	-36.7	-38.0	27.3	3.02e+01	58	38	0	458227712	46	6873
2026-01-01 14:55:34.70	150.94	6.09	-36.7	-38.0	27.2	3.02e+01	46	38	0	460324864	46	6835
2026-01-01 14:55:35.71	151.03	6.02	-36.8	-38.1	27.0	3.02e+01	50	38	0	461897728	46	6942
2026-01-01 14:55:36.72	151.13	5.96	-36.7	-38.1	27.2	3.02e+01	57	38	0	463994880	46	6896
2026-01-01 14:55:37.73	151.22	5.89	-36.7	-38.0	27.2	3.02e+01	57	38	0	466092032	46	6839
2026-01-01 14:55:38.74	151.32	5.82	-36.8	-38.1	27.0	3.02e+01	61	38	0	467664896	46	6941
2026-01-01 14:55:39.75	151.41	5.76	-36.8	-38.1	26.9	3.02e+01	44	38	0	469762048	48	6196
2026-01-01 14:55:40.76	151.50	5.69	-37.0	-38.3	26.9	3.02e+01	56	38	0	471334912	48	6339
2026-01-01 14:55:41.77	151.60	5.62	-37.0	-38.3	26.9	3.02e+01	59	38	0	473432064	48	6318
2026-01-01 14:55:42.78	151.69	5.56	-37.0	-38.3	26.9	3.02e+01	47	38	0	475529216	48	6337
2026-01-01 14:55:43.79	151.78	5.49	-37.0	-38.4	26.8	3.02e+01	60	38	0	477102080	48	6371
2026-01-01 14:55:44.80	151.87	5.42	-37.0	-38.3	26.8	3.02e+01	55	38	0	479199232	48	6349
2026-01-01 14:55:45.81	151.96	5.36	-37.2	-38.6	26.5	3.02e+01	60	38	0	480772096	48	6515
2026-01-01 14:55:46.82	152.06	5.29	-37.1	-38.5	26.7	3.02e+01	59	38	0	482869248	48	6436
2026-01-01 14:55:47.83	152.15	5.23	-37.5	-38.9	26.2	3.02e+01	53	38	0	484966400	48	6777
2026-01-01 14:55:48.84	152.24	5.16	-37.6	-39.1	26.0	3.02e+01	62	38	0	486539264	48	6890
2026-01-01 14:55:49.85	152.33	5.10	-37.4	-38.8	26.2	3.02e+01	62	38	0	488636416	48	6683
2026-01-01 14:55:50.86	152.41	5.03	-37.6	-39.1	26.0	3.02e+01	47	38	0	490209280	48	6889
2026-01-01 14:55:51.87	152.50	4.96	-37.6	-39.0	25.9	3.02e+01	60	38	0	492306432	48	6851
2026-01-01 14:55:52.88	152.59	4.90	-37.7	-39.1	25.8	3.02e+01	50	38	0	494403584	48	6961
2026-01-01 14:55:53.89	152.68	4.83	-38.2	-39.7	25.3	3.02e+01	60	38	0	495976448	50	6592
2026-01-01 14:55:54.90	152.77	4.77	-38.2	-39.8	25.2	3.02e+01	63	38	0	498073600	50	6668
2026-01-01 14:55:55.91	152.85	4.71	-38.3	-39.8	25.1	3.02e+01	45	38	0	500170752	50	6672
2026-01-01 14:55:56.92	152.94	4.64	-38.6	-40.2	24.7	3.02e+01	57	38	0	501743616	50	6978
2026-01-01 14:55:57.93	153.03	4.58	-38.9	-40.6	24.4	3.02e+01	56	38	0	503840768	52	6512
2026-01-01 14:55:58.94	153.11	4.51	-39.0	-40.7	24.1	3.02e+01	62	38	0	505413632	52	6629
2026-01-01 14:55:59.95	153.20	4.45	-39.1	-40.8	24.0	3.02e+01	59	38	0	507510784	52	6704
2026-01-01 14:56:00.96	153.28	4.38	-39.6	-41.4	23.3	3.02e+01	46	38	0	509607936	52	7193
2026-01-01 14:56:01.97	153.37	4.32	-39.4	-41.2	23.4	3.02e+01	61	38	0	511180800	52	6996
2026-01-01 14:56:02.98	153.45	4.26	-39.2	-41.0	23.3	3.02e+01	60	38	0	513277952	54	6095
2026-01-01 14:56:03.99	153.54	4.19	-39.6	-41.4	23.1	3.02e+01	53	38	0	515375104	54	6369
2026-01-01 14:56:05.00	153.62	4.13	-40.2	-42.1	22.0	3.02e+01	59	38	0	516947968	54	6962
2026-01-01 14:56:06.01	153.70	4.06	-40.3	-42.4	22.1	3.02e+01	59	38	0	519045120	54	7176
2026-01-01 14:56:07.02	153.79	4.00	-40.5	-42.6	21.6	3.02e+01	60	38	0	520617984	54	7321
2026-01-01 14:56:08.03	153.87	3.94	-40.6	-42.8	21.6	3.02e+01	58	38	0	522715136	54	7483
2026-01-01 14:56:09.03	153.95	3.87	-40.4	-42.5	21.8	3.02e+01	57	38	0	524812288	54	7246
2026-01-01 14:56:10.04	154.03	3.81	-40.8	-42.9	21.2	3.02e+01	61	38	0	526385152	54	7632
2026-01-01 14:56:11.05	154.11	3.75	-41.2	-43.6	20.8	3.02e+01	59	38	0	528482304	56	7342
2026-01-01 14:56:12.06	154.20	3.69	-40.8	-43.1	21.2	3.02e+01	47	38	0	530055168	56	6953
2026-01-01 14:56:13.07	154.28	3.62	-41.2	-43.8	20.5	3.02e+01	62	38	0	532152320	56	7500
2026-01-01 14:56:14.08	154.36	3.56	-41.3	-44.0	20.2	3.02e+01	59	38	0	534249472	56	7636
2026-01-01 14:56:15.09	154.44	3.50	-41.4	-44.4	19.9	3.02e+01	59	38	0	535822336	56	7999
2026-01-01 14:56:16.10	154.52	3.44	-41.5	-44.6	19.6	3.02e+01	62	38	0	537919488	56	8218
2026-01-01 14:56:17.11	154.60	3.37	-41.3	-44.4	19.7	3.02e+01	53	38	0	539492352	56	8026
2026-01-01 14:56:18.12	154.67	3.31	-41.2	-44.3	19.7	3.02e+01	58	38	0	541589504	56	7939
2026-01-01 14:56:19.13	154.75	3.25	-41.1	-44.1	19.9	3.02e+01	56	38	0	543686656	56	7791
2026-01-01 14:56:20.14	154.83	3.19	-41.0	-44.1	20.1	3.02e+01	47	38	0	545259520	56	7792
2026-01-01 14:56:21.15	154.91	3.13	-41.4	-44.7	19.5	3.02e+01	60	38	0	547356672	56	8280
2026-01-01 14:56:22.16	154.99	3.06	-41.7	-45.3	19.2	3.02e+01	57	38	0	548929536	56	8871
2026-01-01 14:56:23.17	155.06	3.00	-41.8	-45.2	18.9	3.02e+01	60	38	0	551026688	58	7831
2026-01-01 14:56:24.18	155.14	2.94	-48.1	-65.8	3.5	3.02e+01	0	38	104	551550976	60	75159
2026-01-01 14:56:25.19	155.22	2.88	-48.3	-66.3	3.5	3.02e+01	0	38	104	551550976	60	79079
