passes_logs/2026/01/01/R4.6S_Anadyr/R4.6S_Anadyr__20260101_004132_NOAA_20_JPSS-1_rec.log

#Pass ID: 20260101_004132_NOAA 20 (JPSS-1)
#Satellite: NOAA 20 (JPSS-1)
#Configuration: NOAA 20
#almurnet v.1.7.20251203
#Start time: 2026-01-01 00:41:33

#Version: 2.2.20231116
#Station: R4.6S_Anadyr
#Location: 177.4865 lon 64.73178 lat
#TLE: 1 43013U 17073A   25364.89373485  .00000164  00000+0  98659-4 0  9997
#TLE: 2 43013  98.7619 300.9939 0001957  61.1511 298.9862 14.19531413420599

#Time	Az	El	Level	Level2	SNR	BER	BlckErr	Temp	State	Recorded	gain1	gain2
2026-01-01 00:41:33.45	168.22	0.04	-49.0	-64.0	3.5	1.51e+00	0	35	0	0	60	56998
2026-01-01 00:41:34.46	168.24	0.10	-49.1	-64.3	3.6	1.51e+00	0	36	104	0	60	59287
2026-01-01 00:41:35.47	168.26	0.16	-49.1	-64.3	3.6	1.51e+00	0	37	104	0	60	59550
2026-01-01 00:41:36.48	168.27	0.22	-49.1	-64.4	3.6	1.51e+00	0	36	104	0	60	59800
2026-01-01 00:41:37.49	168.29	0.28	-49.2	-64.4	3.6	1.51e+00	0	37	104	0	60	59988
2026-01-01 00:41:38.50	168.31	0.34	-49.2	-64.4	3.6	1.51e+00	0	36	104	0	60	59896
2026-01-01 00:41:39.51	168.33	0.40	-49.2	-64.5	3.6	1.51e+00	0	37	104	0	60	60525
2026-01-01 00:41:40.52	168.35	0.46	-49.2	-64.4	3.6	1.51e+00	0	37	104	0	60	60227
2026-01-01 00:41:41.53	168.36	0.52	-49.2	-64.4	3.5	1.51e+00	0	37	104	0	60	59943
2026-01-01 00:41:42.54	168.38	0.58	-49.0	-64.3	3.6	1.51e+00	0	37	104	0	60	59447
2026-01-01 00:41:43.55	168.40	0.64	-49.0	-64.2	3.6	1.51e+00	0	37	104	0	60	58588
2026-01-01 00:41:44.56	168.42	0.70	-48.9	-64.1	3.6	1.51e+00	0	37	104	0	60	57926
2026-01-01 00:41:45.57	168.44	0.77	-48.8	-64.0	3.6	1.51e+00	0	37	104	0	60	57220
2026-01-01 00:41:46.58	168.46	0.83	-47.4	-62.6	3.6	1.51e+00	0	37	104	0	60	48635
2026-01-01 00:41:47.59	168.48	0.89	-48.5	-63.7	3.6	1.51e+00	0	37	104	0	60	55382
2026-01-01 00:41:48.60	168.49	0.95	-48.3	-63.5	3.6	1.51e+00	0	37	104	0	60	54069
2026-01-01 00:41:49.61	168.51	1.01	-48.0	-63.1	3.6	1.51e+00	0	37	104	0	60	51853
2026-01-01 00:41:50.62	168.53	1.08	-47.7	-62.9	3.6	1.51e+00	0	37	104	0	60	50371
2026-01-01 00:41:51.63	168.55	1.14	-47.7	-62.9	3.6	1.51e+00	0	37	104	0	60	50428
2026-01-01 00:41:52.63	168.57	1.20	-47.7	-62.8	3.6	1.51e+00	0	37	104	0	60	50022
2026-01-01 00:41:53.64	168.59	1.26	-47.7	-62.9	3.6	1.51e+00	0	37	104	0	60	50300
2026-01-01 00:41:54.66	168.61	1.33	-47.7	-62.8	3.6	1.51e+00	0	37	104	0	60	50069
2026-01-01 00:41:55.66	168.63	1.39	-47.7	-62.9	3.6	1.51e+00	0	37	104	0	60	50201
2026-01-01 00:41:56.67	168.64	1.45	-47.7	-62.7	3.6	1.51e+00	0	37	104	0	60	49085
2026-01-01 00:41:57.68	168.66	1.51	-47.7	-62.6	3.6	1.51e+00	0	37	104	0	60	48628
2026-01-01 00:41:58.69	168.68	1.58	-47.7	-62.6	3.6	1.51e+00	0	37	104	0	60	48501
2026-01-01 00:41:59.70	168.70	1.64	-47.7	-62.5	3.6	1.51e+00	0	37	104	0	60	48085
2026-01-01 00:42:00.71	168.72	1.71	-47.7	-62.5	3.6	1.51e+00	0	37	104	0	60	48180
2026-01-01 00:42:01.72	168.74	1.77	-47.7	-62.6	3.6	1.51e+00	0	37	104	0	60	48925
2026-01-01 00:42:02.73	168.76	1.83	-47.7	-62.7	3.6	1.51e+00	0	37	104	0	60	49556
2026-01-01 00:42:03.73	168.78	1.90	-47.7	-62.8	3.6	1.51e+00	0	37	104	0	60	49698
2026-01-01 00:42:04.75	168.80	1.96	-47.7	-62.8	3.6	1.51e+00	0	37	104	0	60	49919
2026-01-01 00:42:05.76	168.82	2.02	-47.7	-62.9	3.6	1.51e+00	0	37	104	0	60	50307
2026-01-01 00:42:06.77	168.84	2.09	-47.7	-62.8	3.6	1.51e+00	0	37	104	0	60	49821
2026-01-01 00:42:07.77	168.86	2.15	-47.7	-62.8	3.6	1.51e+00	0	37	104	0	60	49809
2026-01-01 00:42:08.78	168.88	2.22	-47.7	-62.7	3.6	1.51e+00	0	37	104	0	60	49598
2026-01-01 00:42:09.79	168.90	2.28	-47.7	-62.8	3.6	1.51e+00	0	37	104	0	60	49931
2026-01-01 00:42:10.80	168.92	2.35	-47.7	-62.7	3.6	1.51e+00	0	37	104	0	60	49366
2026-01-01 00:42:11.81	168.94	2.41	-47.7	-62.6	3.6	1.51e+00	0	37	104	0	60	48740
2026-01-01 00:42:12.82	168.96	2.48	-47.7	-62.1	3.6	1.51e+00	0	37	104	0	60	45800
2026-01-01 00:42:13.82	168.98	2.54	-47.7	-61.7	3.6	1.51e+00	0	37	104	0	60	43970
2026-01-01 00:42:14.84	169.00	2.61	-47.6	-61.4	3.6	1.51e+00	0	37	104	0	60	42394
2026-01-01 00:42:15.84	169.02	2.67	-47.6	-61.4	3.6	1.51e+00	0	37	104	0	60	42326
2026-01-01 00:42:16.86	169.04	2.74	-47.6	-61.5	3.6	1.51e+00	0	37	104	0	60	43026
2026-01-01 00:42:17.86	169.06	2.81	-47.7	-61.7	3.6	1.51e+00	0	37	104	0	60	44078
2026-01-01 00:42:18.88	169.08	2.87	-47.6	-61.1	3.6	1.51e+00	0	37	104	0	60	40867
2026-01-01 00:42:19.88	169.10	2.94	-47.5	-58.7	4.3	1.50e+00	73	37	104	0	60	31238
2026-01-01 00:42:20.89	169.13	3.01	-47.2	-55.1	6.0	4.67e-01	0	37	0	0	60	20460
2026-01-01 00:42:21.90	169.15	3.07	-46.7	-52.7	8.5	1.02e-01	92	37	0	2097152	60	15681
2026-01-01 00:42:22.91	169.17	3.14	-46.0	-50.7	10.9	1.23e-02	92	37	0	4194304	60	12426
2026-01-01 00:42:23.92	169.19	3.21	-45.3	-49.0	13.0	8.78e-04	92	37	0	6291456	60	10172
2026-01-01 00:42:24.93	169.21	3.27	-44.3	-47.3	14.5	5.30e-06	92	37	0	7340032	60	8367
2026-01-01 00:42:25.94	169.23	3.34	-43.8	-46.4	15.6	0.00e+00	8	37	0	9437184	60	7592
2026-01-01 00:42:26.95	169.25	3.41	-43.3	-45.5	16.4	0.00e+00	92	37	0	11534336	60	6841
2026-01-01 00:42:27.96	169.27	3.48	-42.9	-45.0	17.0	0.00e+00	8	37	0	13631488	60	6393
2026-01-01 00:42:28.97	169.30	3.54	-42.8	-44.9	17.0	0.00e+00	90	37	0	15728640	58	7103
2026-01-01 00:42:29.98	169.32	3.61	-42.8	-45.0	16.9	0.00e+00	91	37	0	16777216	58	7178
2026-01-01 00:42:30.99	169.34	3.68	-43.2	-45.5	16.4	0.00e+00	91	37	0	18874368	58	7602
2026-01-01 00:42:31.99	169.36	3.75	-46.6	-52.6	7.7	5.42e-04	91	37	0	20971520	60	15467
2026-01-01 00:42:33.00	169.38	3.82	-46.2	-51.0	10.6	5.92e-03	72	37	0	23068672	60	12883
2026-01-01 00:42:34.01	169.41	3.88	-47.5	-58.5	3.7	3.18e-01	12	37	0	25165824	60	30455
2026-01-01 00:42:35.02	169.43	3.95	-46.1	-51.3	10.9	1.61e-01	5	37	104	25165824	60	13344
2026-01-01 00:42:36.03	169.45	4.02	-47.6	-58.8	3.6	1.54e-04	36	38	0	26214400	60	31577
2026-01-01 00:42:37.04	169.47	4.09	-45.1	-48.7	12.9	2.53e-03	50	37	104	26214400	60	9819
2026-01-01 00:42:38.05	169.49	4.16	-45.4	-49.1	13.5	3.20e-05	92	38	0	27262976	60	10339
2026-01-01 00:42:39.06	169.52	4.23	-44.8	-47.9	13.8	3.96e-05	92	37	0	29360128	60	9005
2026-01-01 00:42:40.07	169.54	4.30	-45.0	-48.4	13.2	2.97e-05	8	37	0	31457280	60	9532
2026-01-01 00:42:41.08	169.56	4.37	-45.2	-48.8	14.5	8.30e-06	92	38	0	33554432	60	9913
2026-01-01 00:42:42.09	169.58	4.44	-44.8	-47.9	13.7	6.80e-06	3	38	0	34603008	60	9006
2026-01-01 00:42:43.10	169.61	4.51	-44.9	-48.2	13.8	6.10e-06	92	37	0	36700160	60	9310
2026-01-01 00:42:44.11	169.63	4.58	-45.1	-48.5	14.1	3.80e-06	0	38	0	38797312	60	9610
2026-01-01 00:42:45.12	169.65	4.65	-44.6	-47.5	14.6	3.00e-06	90	38	0	40894464	60	8596
2026-01-01 00:42:46.13	169.68	4.72	-43.7	-46.2	16.1	0.00e+00	92	38	0	42991616	60	7350
2026-01-01 00:42:47.14	169.70	4.79	-42.9	-45.0	17.1	0.00e+00	92	38	0	44040192	60	6448
2026-01-01 00:42:48.15	169.72	4.86	-42.5	-44.4	17.7	0.00e+00	92	37	0	46137344	58	6761
2026-01-01 00:42:49.16	169.75	4.94	-41.8	-43.4	18.8	0.00e+00	0	38	0	48234496	58	6010
2026-01-01 00:42:50.17	169.77	5.01	-41.3	-42.8	19.3	0.00e+00	92	38	0	50331648	56	6288
2026-01-01 00:42:51.18	169.79	5.08	-41.3	-42.8	19.2	0.00e+00	0	38	0	52428800	56	6314
2026-01-01 00:42:52.18	169.82	5.15	-41.2	-42.7	19.4	0.00e+00	92	38	0	53477376	56	6180
2026-01-01 00:42:53.20	169.84	5.22	-41.0	-42.5	19.7	0.00e+00	92	38	0	55574528	56	6043
2026-01-01 00:42:54.21	169.87	5.29	-40.9	-42.3	19.9	0.00e+00	92	38	0	57671680	56	5933
2026-01-01 00:42:55.22	169.89	5.37	-40.8	-42.2	20.0	0.00e+00	92	38	0	59768832	56	5840
2026-01-01 00:42:56.23	169.91	5.44	-40.9	-42.3	19.9	0.00e+00	28	38	0	61865984	56	5920
2026-01-01 00:42:57.23	169.94	5.51	-40.6	-41.9	20.2	0.00e+00	92	38	0	62914560	54	6356
2026-01-01 00:42:58.24	169.96	5.59	-40.6	-41.9	20.3	0.00e+00	0	38	0	65011712	54	6355
2026-01-01 00:42:59.25	169.99	5.66	-40.8	-42.2	19.9	0.00e+00	92	38	0	67108864	54	6553
2026-01-01 00:43:00.26	170.01	5.73	-40.6	-41.9	20.2	0.00e+00	0	38	0	69206016	54	6337
2026-01-01 00:43:01.27	170.04	5.81	-40.6	-42.0	20.2	0.00e+00	92	38	0	71303168	54	6415
2026-01-01 00:43:02.28	170.06	5.88	-40.7	-42.0	20.2	0.00e+00	92	38	0	72351744	54	6458
2026-01-01 00:43:03.29	170.09	5.95	-40.6	-41.9	20.2	0.00e+00	92	38	0	74448896	54	6357
2026-01-01 00:43:04.30	170.11	6.03	-40.5	-41.9	20.2	0.00e+00	91	38	0	76546048	54	6327
2026-01-01 00:43:05.31	170.14	6.10	-40.6	-42.0	20.1	0.00e+00	13	38	0	78643200	54	6399
2026-01-01 00:43:06.32	170.16	6.18	-40.5	-41.8	20.4	0.00e+00	90	38	0	80740352	54	6285
2026-01-01 00:43:07.33	170.19	6.25	-40.5	-41.7	20.4	0.00e+00	0	38	0	81788928	54	6245
2026-01-01 00:43:08.34	170.21	6.33	-40.6	-41.9	20.3	0.00e+00	88	38	0	83886080	54	6356
2026-01-01 00:43:09.34	170.24	6.40	-40.4	-41.6	20.6	0.00e+00	91	38	0	85983232	54	6170
2026-01-01 00:43:10.35	170.26	6.48	-40.4	-41.7	20.5	0.00e+00	91	38	0	88080384	54	6229
2026-01-01 00:43:11.36	170.29	6.55	-40.4	-41.7	20.5	0.00e+00	92	38	0	90177536	54	6180
2026-01-01 00:43:12.37	170.31	6.63	-40.4	-41.7	20.6	0.00e+00	79	38	0	91226112	54	6185
2026-01-01 00:43:13.38	170.34	6.71	-40.4	-41.7	20.6	0.00e+00	92	38	0	93323264	54	6180
2026-01-01 00:43:14.39	170.37	6.78	-40.2	-41.4	20.8	0.00e+00	2	38	0	95420416	54	6016
2026-01-01 00:43:15.40	170.39	6.86	-40.4	-41.7	20.5	0.00e+00	92	38	0	97517568	54	6193
2026-01-01 00:43:16.41	170.42	6.94	-40.2	-41.4	20.8	0.00e+00	92	38	0	99614720	54	6002
2026-01-01 00:43:17.42	170.45	7.01	-40.3	-41.6	20.6	0.00e+00	92	38	0	101711872	54	6140
2026-01-01 00:43:18.43	170.47	7.09	-40.2	-41.4	20.9	0.00e+00	92	38	0	102760448	54	5996
2026-01-01 00:43:19.44	170.50	7.17	-40.1	-41.3	21.0	0.00e+00	80	38	0	104857600	54	5927
2026-01-01 00:43:20.44	170.53	7.25	-40.2	-41.5	20.8	0.00e+00	93	38	0	106954752	54	6034
2026-01-01 00:43:21.45	170.55	7.32	-40.1	-41.4	20.9	0.00e+00	8	38	0	109051904	54	5974
2026-01-01 00:43:22.46	170.58	7.40	-40.0	-41.2	21.0	0.00e+00	92	38	0	110100480	54	5895
2026-01-01 00:43:23.47	170.61	7.48	-40.0	-41.2	21.1	0.00e+00	7	38	0	112197632	54	5867
2026-01-01 00:43:24.48	170.63	7.56	-40.0	-41.3	21.0	0.00e+00	92	38	0	114294784	54	5904
2026-01-01 00:43:25.49	170.66	7.64	-39.9	-41.1	21.2	0.00e+00	92	38	0	116391936	54	5814
2026-01-01 00:43:26.50	170.69	7.72	-39.9	-41.1	21.2	0.00e+00	92	38	0	118489088	54	5780
2026-01-01 00:43:27.51	170.72	7.80	-39.8	-41.0	21.3	0.00e+00	92	38	0	119537664	54	5740
2026-01-01 00:43:28.52	170.74	7.88	-39.9	-41.1	21.2	0.00e+00	0	38	0	121634816	54	5795
2026-01-01 00:43:29.53	170.77	7.96	-39.9	-41.1	21.2	0.00e+00	92	38	0	123731968	54	5767
2026-01-01 00:43:30.54	170.80	8.04	-39.7	-40.9	21.5	0.00e+00	0	38	0	125829120	52	6346
2026-01-01 00:43:31.55	170.83	8.12	-39.9	-41.0	21.4	0.00e+00	92	38	0	127926272	52	6433
2026-01-01 00:43:32.56	170.86	8.20	-39.7	-40.9	21.5	0.00e+00	92	38	0	130023424	52	6336
2026-01-01 00:43:33.57	170.89	8.28	-39.7	-40.8	21.4	0.00e+00	92	38	0	131072000	52	6308
2026-01-01 00:43:34.58	170.92	8.36	-39.6	-40.7	21.6	0.00e+00	90	38	0	133169152	52	6228
2026-01-01 00:43:35.59	170.94	8.44	-39.7	-40.8	21.5	0.00e+00	0	38	0	135266304	52	6311
2026-01-01 00:43:36.60	170.97	8.52	-39.6	-40.8	21.6	0.00e+00	92	38	0	137363456	52	6250
2026-01-01 00:43:37.61	171.00	8.61	-39.5	-40.6	21.8	0.00e+00	11	38	0	139460608	52	6145
2026-01-01 00:43:38.62	171.03	8.69	-39.4	-40.5	21.8	0.00e+00	92	38	0	140509184	52	6076
2026-01-01 00:43:39.63	171.06	8.77	-39.2	-40.3	22.0	0.00e+00	90	38	0	142606336	52	5914
2026-01-01 00:43:40.64	171.09	8.85	-39.3	-40.4	22.0	0.00e+00	91	38	0	144703488	52	5978
2026-01-01 00:43:41.65	171.12	8.94	-39.3	-40.4	21.9	0.00e+00	92	38	0	146800640	52	5974
2026-01-01 00:43:42.65	171.15	9.02	-39.2	-40.3	22.2	0.00e+00	18	38	0	148897792	52	5914
2026-01-01 00:43:43.66	171.18	9.10	-39.2	-40.2	22.1	0.00e+00	90	38	0	149946368	52	5885
2026-01-01 00:43:44.67	171.21	9.19	-39.2	-40.3	22.0	0.00e+00	5	38	0	152043520	52	5911
2026-01-01 00:43:45.68	171.24	9.27	-39.1	-40.1	22.2	0.00e+00	91	38	0	154140672	52	5804
2026-01-01 00:43:46.69	171.27	9.36	-39.1	-40.2	22.2	0.00e+00	71	38	0	156237824	52	5841
2026-01-01 00:43:47.70	171.30	9.44	-39.1	-40.1	22.3	0.00e+00	92	38	0	158334976	52	5787
2026-01-01 00:43:48.71	171.33	9.53	-39.0	-40.0	22.4	0.00e+00	92	38	0	159383552	52	5714
2026-01-01 00:43:49.72	171.36	9.61	-38.8	-39.8	22.6	0.00e+00	67	38	0	161480704	52	5594
2026-01-01 00:43:50.73	171.40	9.70	-38.7	-39.7	22.6	0.00e+00	92	38	0	163577856	50	6240
2026-01-01 00:43:51.74	171.43	9.78	-38.8	-39.8	22.6	0.00e+00	0	38	0	165675008	50	6270
2026-01-01 00:43:52.75	171.46	9.87	-38.7	-39.7	22.6	0.00e+00	92	38	0	167772160	50	6216
2026-01-01 00:43:53.76	171.49	9.96	-38.8	-39.8	22.6	0.00e+00	0	38	0	168820736	50	6284
2026-01-01 00:43:54.77	171.52	10.04	-38.9	-39.9	22.4	0.00e+00	92	38	0	170917888	50	6371
2026-01-01 00:43:55.78	171.55	10.13	-38.7	-39.7	22.6	0.00e+00	92	38	0	173015040	50	6184
2026-01-01 00:43:56.79	171.59	10.22	-38.6	-39.6	22.7	0.00e+00	92	38	0	175112192	50	6164
2026-01-01 00:43:57.79	171.62	10.30	-38.7	-39.7	22.6	0.00e+00	92	38	0	177209344	50	6182
2026-01-01 00:43:58.81	171.65	10.39	-38.7	-39.7	22.7	0.00e+00	46	38	0	178257920	50	6219
2026-01-01 00:43:59.81	171.68	10.48	-38.6	-39.5	22.8	0.00e+00	92	38	0	180355072	50	6096
2026-01-01 00:44:00.82	171.72	10.57	-38.6	-39.5	22.8	0.00e+00	77	38	0	182452224	50	6097
2026-01-01 00:44:01.83	171.75	10.66	-38.5	-39.5	22.8	0.00e+00	92	38	0	184549376	50	6083
2026-01-01 00:44:02.84	171.78	10.75	-38.5	-39.5	22.8	0.00e+00	95	38	0	186646528	50	6047
2026-01-01 00:44:03.85	171.82	10.84	-38.5	-39.5	22.9	0.00e+00	92	38	0	187695104	50	6051
2026-01-01 00:44:04.86	171.85	10.93	-38.5	-39.4	22.9	0.00e+00	92	38	0	189792256	50	6019
2026-01-01 00:44:05.87	171.88	11.02	-38.5	-39.4	23.0	0.00e+00	8	38	0	191889408	50	6021
2026-01-01 00:44:06.88	171.92	11.11	-38.4	-39.4	23.0	0.00e+00	92	38	0	193986560	50	5992
2026-01-01 00:44:07.88	171.95	11.20	-38.4	-39.3	23.1	0.00e+00	7	38	0	196083712	50	5959
2026-01-01 00:44:08.89	171.99	11.29	-38.3	-39.3	23.1	0.00e+00	92	38	0	198180864	50	5912
2026-01-01 00:44:09.90	172.02	11.38	-38.3	-39.3	23.1	0.00e+00	0	38	0	199229440	50	5923
2026-01-01 00:44:10.91	172.05	11.47	-38.4	-39.3	23.0	0.00e+00	92	38	0	201326592	50	5962
2026-01-01 00:44:11.92	172.09	11.56	-38.3	-39.2	23.1	0.00e+00	92	38	0	203423744	50	5880
2026-01-01 00:44:12.93	172.12	11.66	-38.3	-39.2	23.2	0.00e+00	75	38	0	205520896	50	5886
2026-01-01 00:44:13.94	172.16	11.75	-38.3	-39.2	23.2	0.00e+00	91	38	0	207618048	50	5858
2026-01-01 00:44:14.95	172.20	11.84	-38.4	-39.3	23.1	0.00e+00	0	38	0	208666624	50	5927
2026-01-01 00:44:15.96	172.23	11.94	-38.3	-39.2	23.2	0.00e+00	92	38	0	210763776	50	5858
2026-01-01 00:44:16.97	172.27	12.03	-38.3	-39.3	23.2	0.00e+00	0	38	0	212860928	50	5909
2026-01-01 00:44:17.98	172.30	12.13	-38.2	-39.1	23.2	0.00e+00	92	38	0	214958080	50	5802
2026-01-01 00:44:18.99	172.34	12.22	-38.2	-39.2	23.2	0.00e+00	91	38	0	217055232	50	5835
2026-01-01 00:44:20.00	172.38	12.31	-38.2	-39.1	23.3	0.00e+00	0	38	0	218103808	50	5810
2026-01-01 00:44:21.01	172.41	12.41	-38.2	-39.1	23.3	0.00e+00	91	38	0	220200960	50	5803
2026-01-01 00:44:22.02	172.45	12.51	-38.2	-39.1	23.3	0.00e+00	81	38	0	222298112	50	5827
2026-01-01 00:44:23.03	172.49	12.60	-38.2	-39.2	23.3	0.00e+00	91	38	0	224395264	50	5843
2026-01-01 00:44:24.04	172.52	12.70	-38.2	-39.1	23.4	0.00e+00	81	38	0	226492416	50	5786
2026-01-01 00:44:25.05	172.56	12.80	-38.1	-39.1	23.3	0.00e+00	91	38	0	227540992	50	5772
2026-01-01 00:44:26.06	172.60	12.89	-38.1	-39.1	23.3	0.00e+00	92	38	0	229638144	50	5762
2026-01-01 00:44:27.06	172.64	12.99	-38.1	-39.0	23.5	0.00e+00	0	38	0	231735296	50	5731
2026-01-01 00:44:28.07	172.68	13.09	-38.1	-39.0	23.4	0.00e+00	92	38	0	233832448	50	5742
2026-01-01 00:44:29.08	172.72	13.19	-38.1	-39.0	23.5	0.00e+00	0	38	0	235929600	50	5728
2026-01-01 00:44:30.09	172.75	13.28	-38.1	-39.0	23.5	0.00e+00	92	38	0	236978176	50	5707
2026-01-01 00:44:31.10	172.79	13.38	-38.1	-39.0	23.5	0.00e+00	5	38	0	239075328	50	5727
2026-01-01 00:44:32.11	172.83	13.48	-38.0	-38.9	23.5	0.00e+00	92	38	0	241172480	50	5644
2026-01-01 00:44:33.12	172.87	13.58	-37.9	-38.8	23.6	0.00e+00	0	38	0	243269632	50	5622
2026-01-01 00:44:34.13	172.91	13.68	-37.9	-38.8	23.6	0.00e+00	92	38	0	245366784	50	5622
2026-01-01 00:44:35.14	172.95	13.79	-38.0	-38.9	23.5	0.00e+00	92	38	0	246415360	50	5663
2026-01-01 00:44:36.15	172.99	13.89	-38.0	-38.9	23.5	0.00e+00	7	38	0	248512512	50	5638
2026-01-01 00:44:37.16	173.03	13.99	-38.0	-38.9	23.6	0.00e+00	92	38	0	250609664	50	5657
2026-01-01 00:44:38.16	173.07	14.09	-38.1	-39.0	23.5	0.00e+00	76	38	0	252706816	50	5704
2026-01-01 00:44:39.17	173.11	14.19	-38.0	-38.9	23.6	0.00e+00	92	38	0	254803968	50	5672
2026-01-01 00:44:40.18	173.16	14.29	-38.0	-38.8	23.6	0.00e+00	0	38	0	256901120	50	5629
2026-01-01 00:44:41.19	173.20	14.40	-37.9	-38.8	23.6	0.00e+00	90	38	0	257949696	50	5618
2026-01-01 00:44:42.20	173.24	14.50	-38.1	-39.0	23.5	0.00e+00	92	38	0	260046848	50	5737
2026-01-01 00:44:43.21	173.28	14.61	-38.0	-38.9	23.6	0.00e+00	8	38	0	262144000	50	5659
2026-01-01 00:44:44.22	173.32	14.71	-38.2	-39.1	23.4	0.00e+00	92	38	0	264241152	50	5779
2026-01-01 00:44:45.23	173.37	14.82	-38.1	-39.1	23.4	0.00e+00	78	38	0	266338304	50	5762
2026-01-01 00:44:46.24	173.41	14.92	-38.2	-39.1	23.4	0.00e+00	92	38	0	267386880	50	5781
2026-01-01 00:44:47.25	173.45	15.03	-38.3	-39.2	23.3	0.00e+00	81	38	0	269484032	50	5881
2026-01-01 00:44:48.26	173.50	15.13	-38.2	-39.1	23.4	0.00e+00	92	38	0	271581184	50	5820
2026-01-01 00:44:49.27	173.54	15.24	-38.3	-39.2	23.3	0.00e+00	90	38	0	273678336	50	5883
2026-01-01 00:44:50.28	173.58	15.35	-38.5	-39.4	23.1	0.00e+00	91	38	0	275775488	50	6007
2026-01-01 00:44:51.29	173.63	15.45	-38.4	-39.3	23.2	0.00e+00	92	38	0	276824064	50	5939
2026-01-01 00:44:52.30	173.67	15.56	-38.5	-39.5	23.1	0.00e+00	0	38	0	278921216	50	6044
2026-01-01 00:44:53.30	173.72	15.67	-38.5	-39.4	23.1	0.00e+00	90	38	0	281018368	50	6011
2026-01-01 00:44:54.31	173.76	15.78	-38.6	-39.6	22.9	0.00e+00	0	38	0	283115520	50	6130
2026-01-01 00:44:55.32	173.81	15.89	-38.6	-39.6	23.0	0.00e+00	92	38	0	285212672	50	6106
2026-01-01 00:44:56.33	173.85	16.00	-38.5	-39.5	23.1	0.00e+00	0	38	0	286261248	50	6064
2026-01-01 00:44:57.34	173.90	16.11	-38.6	-39.6	23.0	0.00e+00	90	38	0	288358400	50	6126
2026-01-01 00:44:58.35	173.95	16.22	-38.7	-39.6	23.0	0.00e+00	92	38	0	290455552	50	6166
2026-01-01 00:44:59.36	173.99	16.33	-38.7	-39.7	23.0	0.00e+00	0	38	0	292552704	50	6174
2026-01-01 00:45:00.37	174.04	16.45	-38.7	-39.7	22.9	0.00e+00	92	38	0	294649856	50	6175
2026-01-01 00:45:01.38	174.09	16.56	-38.7	-39.7	23.0	0.00e+00	0	38	0	295698432	50	6201
2026-01-01 00:45:02.39	174.14	16.67	-38.8	-39.8	22.8	0.00e+00	92	38	0	297795584	50	6256
2026-01-01 00:45:03.40	174.18	16.78	-38.6	-39.6	23.0	0.00e+00	0	38	0	299892736	50	6124
2026-01-01 00:45:04.41	174.23	16.90	-38.7	-39.7	23.0	0.00e+00	90	38	0	301989888	50	6209
2026-01-01 00:45:05.41	174.28	17.01	-38.7	-39.7	23.0	0.00e+00	92	38	0	304087040	50	6177
2026-01-01 00:45:06.42	174.33	17.13	-38.6	-39.6	23.0	0.00e+00	0	38	0	305135616	50	6134
2026-01-01 00:45:07.43	174.38	17.24	-38.7	-39.7	23.0	0.00e+00	92	38	0	307232768	50	6182
2026-01-01 00:45:08.44	174.43	17.36	-38.7	-39.7	23.1	0.00e+00	10	38	0	309329920	50	6179
2026-01-01 00:45:09.44	174.48	17.47	-38.7	-39.6	23.0	0.00e+00	92	38	0	311427072	50	6171
2026-01-01 00:45:10.45	174.53	17.59	-38.7	-39.6	23.0	0.00e+00	77	38	0	313524224	50	6157
2026-01-01 00:45:11.46	174.58	17.71	-38.7	-39.6	23.0	0.00e+00	92	38	0	314572800	50	6148
2026-01-01 00:45:12.47	174.63	17.83	-38.7	-39.7	23.0	0.00e+00	58	38	0	316669952	50	6185
2026-01-01 00:45:13.48	174.68	17.95	-38.7	-39.6	23.0	0.00e+00	90	38	0	318767104	50	6159
2026-01-01 00:45:14.48	174.73	18.07	-38.8	-39.8	22.9	0.00e+00	91	38	0	320864256	50	6262
2026-01-01 00:45:15.49	174.79	18.19	-38.7	-39.6	23.1	0.00e+00	10	38	0	322961408	50	6143
2026-01-01 00:45:16.50	174.84	18.31	-38.8	-39.8	22.9	0.00e+00	92	38	0	324009984	50	6254
2026-01-01 00:45:17.51	174.89	18.43	-38.8	-39.7	23.0	0.00e+00	11	38	0	326107136	50	6232
2026-01-01 00:45:18.52	174.95	18.55	-38.8	-39.8	22.9	0.00e+00	92	38	0	328204288	50	6279
2026-01-01 00:45:19.53	175.00	18.67	-38.7	-39.7	23.0	0.00e+00	0	38	0	330301440	50	6211
2026-01-01 00:45:20.54	175.05	18.79	-38.9	-39.9	22.8	0.00e+00	92	38	0	332398592	50	6324
2026-01-01 00:45:21.55	175.11	18.92	-38.7	-39.7	23.0	0.00e+00	92	38	0	333447168	50	6205
2026-01-01 00:45:22.56	175.16	19.04	-38.9	-39.8	22.9	0.00e+00	11	37	0	335544320	50	6294
2026-01-01 00:45:23.56	175.22	19.17	-38.7	-39.7	23.0	0.00e+00	90	38	0	337641472	50	6201
2026-01-01 00:45:24.57	175.28	19.29	-38.8	-39.8	23.0	0.00e+00	76	38	0	339738624	50	6262
2026-01-01 00:45:25.58	175.33	19.42	-38.8	-39.8	22.9	0.00e+00	92	38	0	341835776	50	6254
2026-01-01 00:45:26.59	175.39	19.54	-38.8	-39.7	22.9	0.00e+00	0	38	0	342884352	50	6232
2026-01-01 00:45:27.59	175.45	19.67	-38.8	-39.7	23.0	0.00e+00	91	38	0	344981504	50	6223
2026-01-01 00:45:28.60	175.50	19.80	-38.9	-39.9	22.8	0.00e+00	32	38	0	347078656	50	6319
2026-01-01 00:45:29.61	175.56	19.93	-38.8	-39.8	22.9	0.00e+00	90	38	0	349175808	50	6288
2026-01-01 00:45:30.62	175.62	20.05	-38.9	-39.9	22.8	0.00e+00	91	38	0	351272960	50	6342
2026-01-01 00:45:31.63	175.68	20.18	-38.8	-39.8	23.0	0.00e+00	84	38	0	353370112	50	6262
2026-01-01 00:45:32.64	175.74	20.32	-38.8	-39.8	22.9	0.00e+00	91	38	0	354418688	50	6289
2026-01-01 00:45:33.65	175.80	20.45	-38.8	-39.7	23.1	0.00e+00	84	38	0	356515840	50	6217
2026-01-01 00:45:34.66	175.86	20.58	-38.9	-39.9	22.8	0.00e+00	92	38	0	358612992	50	6346
2026-01-01 00:45:35.67	175.92	20.71	-39.0	-39.9	22.9	0.00e+00	92	38	0	360710144	50	6390
2026-01-01 00:45:36.68	175.98	20.84	-38.9	-39.9	22.8	0.00e+00	90	38	0	362807296	50	6359
2026-01-01 00:45:37.69	176.05	20.98	-39.0	-40.0	22.8	0.00e+00	91	37	0	363855872	50	6395
2026-01-01 00:45:38.70	176.11	21.11	-39.1	-40.1	22.8	0.00e+00	33	38	0	365953024	50	6474
2026-01-01 00:45:39.70	176.17	21.25	-38.9	-39.9	22.8	0.00e+00	92	38	0	368050176	50	6364
2026-01-01 00:45:40.72	176.24	21.38	-39.0	-40.0	22.7	0.00e+00	13	38	0	370147328	50	6434
2026-01-01 00:45:41.73	176.30	21.52	-39.0	-40.0	22.8	0.00e+00	91	38	0	372244480	50	6422
2026-01-01 00:45:42.74	176.36	21.66	-39.0	-40.0	22.8	0.00e+00	0	38	0	373293056	50	6433
2026-01-01 00:45:43.74	176.43	21.79	-39.0	-40.0	22.7	0.00e+00	92	38	0	375390208	50	6445
2026-01-01 00:45:44.75	176.49	21.93	-39.0	-40.0	22.8	0.00e+00	90	37	0	377487360	50	6437
2026-01-01 00:45:45.76	176.56	22.07	-39.0	-40.0	22.8	0.00e+00	92	38	0	379584512	50	6422
2026-01-01 00:45:46.77	176.63	22.21	-39.0	-39.9	22.7	0.00e+00	92	37	0	381681664	50	6379
2026-01-01 00:45:47.78	176.70	22.35	-38.9	-39.9	22.9	0.00e+00	0	38	0	382730240	50	6326
2026-01-01 00:45:48.79	176.76	22.49	-38.9	-39.9	22.9	0.00e+00	92	37	0	384827392	50	6328
2026-01-01 00:45:49.80	176.83	22.64	-38.9	-39.8	23.0	0.00e+00	0	37	0	386924544	50	6311
2026-01-01 00:45:50.81	176.90	22.78	-38.9	-39.9	22.9	0.00e+00	92	38	0	389021696	50	6320
2026-01-01 00:45:51.82	176.97	22.92	-38.8	-39.8	23.0	0.00e+00	90	37	0	391118848	50	6260
2026-01-01 00:45:52.82	177.04	23.07	-38.8	-39.8	23.0	0.00e+00	91	38	0	392167424	50	6265
2026-01-01 00:45:53.83	177.11	23.21	-38.8	-39.8	23.0	0.00e+00	91	38	0	394264576	50	6281
2026-01-01 00:45:54.84	177.18	23.36	-38.8	-39.8	23.0	0.00e+00	7	37	0	396361728	50	6269
2026-01-01 00:45:55.85	177.26	23.50	-38.9	-39.8	23.0	0.00e+00	92	37	0	398458880	50	6289
2026-01-01 00:45:56.86	177.33	23.65	-38.8	-39.7	23.1	0.00e+00	0	37	0	400556032	50	6209
2026-01-01 00:45:57.87	177.40	23.80	-38.9	-39.8	23.0	0.00e+00	91	38	0	401604608	50	6305
2026-01-01 00:45:58.88	177.48	23.95	-38.8	-39.7	23.0	0.00e+00	72	38	0	403701760	50	6233
2026-01-01 00:45:59.89	177.55	24.10	-39.0	-39.9	22.9	0.00e+00	92	37	0	405798912	50	6383
2026-01-01 00:46:00.90	177.63	24.25	-38.8	-39.8	23.0	0.00e+00	90	37	0	407896064	50	6250
2026-01-01 00:46:01.91	177.70	24.40	-38.7	-39.7	23.1	0.00e+00	92	37	0	409993216	50	6193
2026-01-01 00:46:02.92	177.78	24.55	-38.7	-39.6	23.2	0.00e+00	92	37	0	411041792	50	6143
2026-01-01 00:46:03.92	177.86	24.71	-38.7	-39.6	23.2	0.00e+00	0	37	0	413138944	50	6173
2026-01-01 00:46:04.93	177.94	24.86	-38.7	-39.6	23.2	0.00e+00	90	37	0	415236096	50	6155
2026-01-01 00:46:05.95	178.02	25.02	-38.8	-39.7	22.9	0.00e+00	0	37	0	417333248	50	6244
2026-01-01 00:46:06.95	178.10	25.17	-38.8	-39.7	23.1	0.00e+00	92	37	0	419430400	50	6236
2026-01-01 00:46:07.96	178.18	25.33	-38.8	-39.7	23.1	0.00e+00	90	38	0	421527552	50	6225
2026-01-01 00:46:08.97	178.26	25.49	-38.8	-39.7	23.1	0.00e+00	92	37	0	422576128	50	6233
2026-01-01 00:46:09.98	178.34	25.65	-38.7	-39.7	23.1	0.00e+00	90	37	0	424673280	50	6194
2026-01-01 00:46:10.99	178.42	25.80	-38.6	-39.6	23.3	0.00e+00	0	37	0	426770432	50	6107
2026-01-01 00:46:12.00	178.51	25.97	-38.6	-39.6	23.3	0.00e+00	92	37	0	428867584	50	6130
2026-01-01 00:46:13.01	178.59	26.13	-38.6	-39.5	23.3	0.00e+00	81	37	0	429916160	50	6088
2026-01-01 00:46:14.02	178.68	26.29	-38.7	-39.7	23.2	0.00e+00	92	37	0	432013312	50	6193
2026-01-01 00:46:15.03	178.77	26.45	-38.8	-39.7	23.1	0.00e+00	80	37	0	434110464	50	6211
2026-01-01 00:46:16.04	178.85	26.62	-38.9	-39.8	23.0	0.00e+00	92	37	0	436207616	50	6315
2026-01-01 00:46:17.05	178.94	26.78	-38.6	-39.5	23.3	0.00e+00	92	37	0	438304768	50	6071
2026-01-01 00:46:18.06	179.03	26.95	-38.6	-39.6	23.2	0.00e+00	90	37	0	439353344	50	6117
2026-01-01 00:46:19.07	179.12	27.11	-38.5	-39.5	23.4	0.00e+00	92	37	0	441450496	50	6036
2026-01-01 00:46:20.08	179.21	27.28	-38.3	-39.2	23.6	0.00e+00	6	37	0	443547648	50	5863
2026-01-01 00:46:21.09	179.30	27.45	-38.2	-39.1	23.7	0.00e+00	92	37	0	445644800	50	5778
2026-01-01 00:46:22.10	179.39	27.62	-38.1	-39.0	23.8	0.00e+00	0	37	0	447741952	50	5747
2026-01-01 00:46:23.11	179.49	27.79	-38.3	-39.2	23.6	0.00e+00	91	37	0	449839104	50	5876
2026-01-01 00:46:24.12	179.58	27.96	-38.2	-39.1	23.7	0.00e+00	92	37	0	450887680	50	5771
2026-01-01 00:46:25.12	179.68	28.13	-38.3	-39.2	23.6	0.00e+00	90	37	0	452984832	50	5864
2026-01-01 00:46:26.13	179.77	28.31	-38.2	-39.1	23.6	0.00e+00	92	37	0	455081984	50	5819
2026-01-01 00:46:27.15	179.87	28.48	-38.4	-39.3	23.6	0.00e+00	0	37	0	457179136	50	5898
2026-01-01 00:46:28.16	179.97	28.66	-38.5	-39.4	23.4	0.00e+00	92	37	0	459276288	50	5984
2026-01-01 00:46:29.16	180.07	28.84	-38.6	-39.5	23.3	0.00e+00	0	37	0	460324864	50	6092
2026-01-01 00:46:30.17	180.17	29.01	-38.9	-39.8	23.1	0.00e+00	92	38	0	462422016	50	6299
2026-01-01 00:46:31.19	180.27	29.19	-38.9	-39.9	23.0	0.00e+00	92	37	0	464519168	50	6337
2026-01-01 00:46:32.20	180.38	29.37	-39.0	-39.9	22.9	0.00e+00	91	37	0	466616320	50	6383
2026-01-01 00:46:33.20	180.48	29.55	-39.2	-40.2	22.8	0.00e+00	91	37	0	468713472	50	6558
2026-01-01 00:46:34.21	180.58	29.74	-39.3	-40.3	22.7	0.00e+00	16	37	0	469762048	50	6674
2026-01-01 00:46:35.22	180.69	29.92	-39.6	-40.6	22.4	0.00e+00	90	37	0	471859200	50	6878
2026-01-01 00:46:36.23	180.80	30.10	-39.6	-40.7	22.4	0.00e+00	0	38	0	473956352	50	6941
2026-01-01 00:46:37.24	180.91	30.29	-39.8	-40.9	22.2	0.00e+00	91	37	0	476053504	52	6348
2026-01-01 00:46:38.25	181.02	30.47	-39.9	-40.9	22.1	0.00e+00	0	37	0	478150656	52	6377
2026-01-01 00:46:39.26	181.13	30.66	-40.0	-41.1	22.0	0.00e+00	92	37	0	479199232	52	6518
2026-01-01 00:46:40.27	181.24	30.85	-40.1	-41.2	21.9	0.00e+00	90	38	0	481296384	52	6597
2026-01-01 00:46:41.28	181.35	31.04	-40.2	-41.3	21.9	0.00e+00	92	37	0	483393536	52	6618
2026-01-01 00:46:42.28	181.47	31.23	-40.0	-41.1	21.9	0.00e+00	90	37	0	485490688	52	6495
2026-01-01 00:46:43.29	181.58	31.42	-40.1	-41.2	21.9	0.00e+00	0	37	0	487587840	52	6596
2026-01-01 00:46:44.30	181.70	31.61	-40.2	-41.2	21.9	0.00e+00	90	37	0	488636416	52	6605
2026-01-01 00:46:45.31	181.82	31.81	-40.3	-41.4	21.7	0.00e+00	0	37	0	490733568	52	6742
2026-01-01 00:46:46.32	181.94	32.00	-40.3	-41.4	21.7	0.00e+00	92	37	0	492830720	52	6724
2026-01-01 00:46:47.33	182.06	32.20	-40.4	-41.5	21.6	0.00e+00	90	37	0	494927872	52	6809
2026-01-01 00:46:48.34	182.18	32.40	-40.5	-41.6	21.6	0.00e+00	92	37	0	497025024	52	6863
2026-01-01 00:46:49.35	182.31	32.60	-40.4	-41.5	21.6	0.00e+00	90	37	0	498073600	52	6838
2026-01-01 00:46:50.36	182.43	32.80	-40.6	-41.7	21.5	0.00e+00	6	37	0	500170752	52	6981
2026-01-01 00:46:51.37	182.56	33.00	-40.3	-41.4	21.7	0.00e+00	90	37	0	502267904	52	6706
2026-01-01 00:46:52.38	182.69	33.20	-40.2	-41.3	21.8	0.00e+00	0	37	0	504365056	52	6671
2026-01-01 00:46:53.39	182.82	33.41	-40.0	-41.1	22.1	0.00e+00	90	37	0	506462208	52	6489
2026-01-01 00:46:54.40	182.95	33.61	-39.8	-40.8	22.2	0.00e+00	92	37	0	507510784	52	6285
2026-01-01 00:46:55.40	183.09	33.81	-39.8	-40.8	22.2	0.00e+00	90	37	0	509607936	52	6315
2026-01-01 00:46:56.42	183.22	34.02	-39.9	-40.9	22.1	0.00e+00	92	37	0	511705088	52	6357
2026-01-01 00:46:57.42	183.36	34.23	-39.8	-40.9	22.2	0.00e+00	24	37	0	513802240	52	6345
2026-01-01 00:46:58.43	183.50	34.44	-39.9	-40.9	22.2	0.00e+00	90	37	0	515899392	52	6387
2026-01-01 00:46:59.44	183.64	34.65	-40.1	-41.2	21.9	0.00e+00	0	37	0	517996544	52	6547
2026-01-01 00:47:00.45	183.78	34.86	-40.2	-41.3	21.8	0.00e+00	92	37	0	519045120	52	6686
2026-01-01 00:47:01.46	183.93	35.08	-40.3	-41.4	21.7	0.00e+00	74	37	0	521142272	52	6729
2026-01-01 00:47:02.47	184.07	35.29	-40.2	-41.4	21.8	0.00e+00	92	37	0	523239424	52	6695
2026-01-01 00:47:03.48	184.22	35.51	-40.2	-41.3	21.8	0.00e+00	92	37	0	525336576	52	6670
2026-01-01 00:47:04.49	184.37	35.73	-40.3	-41.4	21.7	0.00e+00	92	37	0	527433728	52	6743
2026-01-01 00:47:05.50	184.52	35.94	-40.2	-41.3	21.8	0.00e+00	92	37	0	528482304	52	6642
2026-01-01 00:47:06.51	184.68	36.16	-40.3	-41.4	21.7	0.00e+00	6	37	0	530579456	52	6764
2026-01-01 00:47:07.52	184.83	36.39	-40.5	-41.6	21.6	0.00e+00	92	38	0	532676608	52	6908
2026-01-01 00:47:08.53	184.99	36.61	-40.6	-41.7	21.5	0.00e+00	0	37	0	534773760	52	6959
2026-01-01 00:47:09.54	185.15	36.83	-40.8	-42.0	21.1	0.00e+00	92	37	0	536870912	54	6454
2026-01-01 00:47:10.54	185.31	37.05	-40.9	-42.1	21.1	0.00e+00	92	37	0	537919488	54	6490
2026-01-01 00:47:11.56	185.48	37.28	-41.1	-42.4	20.7	0.00e+00	92	37	0	540016640	54	6713
2026-01-01 00:47:12.57	185.64	37.51	-41.3	-42.6	20.6	0.00e+00	92	37	0	542113792	54	6861
2026-01-01 00:47:13.57	185.81	37.74	-41.3	-42.5	20.7	0.00e+00	6	37	0	544210944	54	6827
2026-01-01 00:47:14.59	185.98	37.97	-41.3	-42.5	20.7	0.00e+00	92	37	0	546308096	54	6835
2026-01-01 00:47:15.59	186.16	38.20	-41.3	-42.6	20.8	0.00e+00	0	37	0	547356672	54	6854
2026-01-01 00:47:16.60	186.33	38.43	-41.1	-42.3	20.8	0.00e+00	92	37	0	549453824	54	6689
2026-01-01 00:47:17.61	186.51	38.67	-41.2	-42.5	20.7	0.00e+00	50	37	0	551550976	54	6778
2026-01-01 00:47:18.62	186.69	38.90	-41.3	-42.5	20.6	0.00e+00	92	37	0	553648128	54	6845
2026-01-01 00:47:19.63	186.87	39.14	-41.5	-42.8	20.4	0.00e+00	92	37	0	555745280	54	7072
2026-01-01 00:47:20.64	187.06	39.38	-41.7	-43.0	19.9	0.00e+00	11	37	0	556793856	54	7203
2026-01-01 00:47:21.65	187.25	39.62	-42.0	-43.4	19.9	0.00e+00	92	37	0	558891008	56	6715
2026-01-01 00:47:22.66	187.44	39.86	-42.1	-43.5	19.8	0.00e+00	11	37	0	560988160	56	6786
2026-01-01 00:47:23.67	187.64	40.10	-42.2	-43.7	19.7	0.00e+00	91	37	0	563085312	56	6942
2026-01-01 00:47:24.68	187.83	40.34	-41.8	-43.1	20.2	0.00e+00	70	37	0	565182464	56	6524
2026-01-01 00:47:25.69	188.03	40.59	-41.9	-43.3	20.0	0.00e+00	92	37	0	566231040	56	6624
2026-01-01 00:47:26.70	188.24	40.83	-41.6	-42.9	20.4	0.00e+00	90	37	0	568328192	56	6326
2026-01-01 00:47:27.71	188.44	41.08	-41.4	-42.6	20.7	0.00e+00	91	37	0	570425344	56	6149
2026-01-01 00:47:28.72	188.65	41.33	-41.2	-42.5	20.8	0.00e+00	90	37	0	572522496	56	6061
2026-01-01 00:47:29.73	188.87	41.58	-41.3	-42.5	20.8	0.00e+00	14	37	0	574619648	56	6096
2026-01-01 00:47:30.74	189.08	41.83	-41.1	-42.3	21.1	0.00e+00	90	37	0	575668224	56	5906
2026-01-01 00:47:31.75	189.30	42.08	-40.7	-41.9	21.3	0.00e+00	7	37	0	577765376	56	5647
2026-01-01 00:47:32.76	189.52	42.33	-40.6	-41.7	21.5	0.00e+00	92	37	0	579862528	54	6215
2026-01-01 00:47:33.77	189.75	42.59	-40.7	-41.8	21.3	0.00e+00	92	37	0	581959680	54	6313
2026-01-01 00:47:34.78	189.98	42.85	-40.3	-41.5	21.7	0.00e+00	91	37	0	584056832	54	6037
2026-01-01 00:47:35.79	190.21	43.10	-40.1	-41.2	21.9	0.00e+00	92	37	0	586153984	54	5853
2026-01-01 00:47:36.80	190.45	43.36	-40.1	-41.2	21.9	0.00e+00	81	37	0	587202560	54	5848
2026-01-01 00:47:37.81	190.69	43.62	-40.4	-41.5	21.7	0.00e+00	92	37	0	589299712	54	6100
2026-01-01 00:47:38.82	190.94	43.88	-40.4	-41.5	21.7	0.00e+00	81	37	0	591396864	54	6078
2026-01-01 00:47:39.83	191.18	44.14	-40.4	-41.5	21.6	0.00e+00	92	37	0	593494016	54	6097
2026-01-01 00:47:40.84	191.44	44.41	-40.0	-41.1	22.0	0.00e+00	90	37	0	595591168	54	5796
2026-01-01 00:47:41.85	191.69	44.67	-40.1	-41.2	21.8	0.00e+00	92	37	0	596639744	54	5888
2026-01-01 00:47:42.86	191.96	44.94	-40.4	-41.6	21.4	0.00e+00	92	37	0	598736896	54	6139
2026-01-01 00:47:43.87	192.22	45.20	-40.8	-42.0	21.1	0.00e+00	68	38	0	600834048	54	6422
2026-01-01 00:47:44.88	192.49	45.47	-41.0	-42.2	21.0	0.00e+00	91	37	0	602931200	54	6555
2026-01-01 00:47:45.88	192.76	45.74	-41.4	-42.7	20.7	0.00e+00	0	37	0	605028352	54	6937
2026-01-01 00:47:46.89	193.04	46.01	-41.2	-42.5	20.6	0.00e+00	92	37	0	606076928	54	6801
2026-01-01 00:47:47.90	193.33	46.28	-41.0	-42.2	21.0	0.00e+00	73	37	0	608174080	54	6577
2026-01-01 00:47:48.91	193.61	46.55	-40.9	-42.1	21.1	0.00e+00	92	37	0	610271232	54	6466
2026-01-01 00:47:49.92	193.91	46.83	-40.3	-41.4	21.7	0.00e+00	91	37	0	612368384	54	6021
2026-01-01 00:47:50.93	194.21	47.10	-40.1	-41.2	21.9	0.00e+00	91	37	0	614465536	54	5876
2026-01-01 00:47:51.94	194.51	47.38	-40.2	-41.2	21.9	0.00e+00	95	37	0	615514112	54	5885
2026-01-01 00:47:52.95	194.82	47.65	-40.3	-41.5	21.7	0.00e+00	0	37	0	617611264	54	6042
2026-01-01 00:47:53.96	195.13	47.93	-40.4	-41.5	21.6	0.00e+00	92	37	0	619708416	54	6064
2026-01-01 00:47:54.97	195.45	48.21	-40.8	-42.0	21.2	0.00e+00	0	37	0	621805568	54	6434
2026-01-01 00:47:55.98	195.78	48.49	-40.6	-41.8	21.4	0.00e+00	92	37	0	623902720	54	6252
2026-01-01 00:47:56.99	196.11	48.76	-40.2	-41.4	21.8	0.00e+00	92	37	0	624951296	54	5966
2026-01-01 00:47:58.00	196.45	49.05	-39.9	-41.0	22.1	0.00e+00	92	37	0	627048448	54	5724
2026-01-01 00:47:59.00	196.79	49.32	-39.7	-40.8	22.3	0.00e+00	92	37	0	629145600	54	5583
2026-01-01 00:48:00.02	197.14	49.61	-38.7	-39.6	23.4	0.00e+00	83	38	0	631242752	52	5484
2026-01-01 00:48:01.02	197.50	49.89	-38.0	-38.9	24.0	0.00e+00	92	37	0	633339904	50	5678
2026-01-01 00:48:02.03	197.86	50.17	-37.7	-38.5	24.4	0.00e+00	82	37	0	634388480	48	6102
2026-01-01 00:48:03.04	198.23	50.45	-37.8	-38.6	24.3	0.00e+00	92	37	0	636485632	48	6150
2026-01-01 00:48:04.05	198.61	50.74	-37.6	-38.5	24.3	0.00e+00	88	37	0	638582784	48	6036
2026-01-01 00:48:05.06	198.99	51.02	-37.4	-38.3	24.5	0.00e+00	92	37	0	640679936	48	5914
2026-01-01 00:48:06.07	199.38	51.31	-37.1	-37.9	24.8	0.00e+00	92	38	0	642777088	48	5690
2026-01-01 00:48:07.08	199.78	51.59	-36.5	-37.3	25.4	0.00e+00	7	37	0	643825664	46	5920
2026-01-01 00:48:08.09	200.19	51.88	-36.0	-36.8	25.7	0.00e+00	90	37	0	645922816	46	5584
2026-01-01 00:48:09.10	200.60	52.16	-35.9	-36.7	25.9	0.00e+00	2	37	0	648019968	46	5522
2026-01-01 00:48:10.11	201.03	52.45	-35.6	-36.3	26.1	0.00e+00	92	37	0	650117120	44	5950
2026-01-01 00:48:11.12	201.46	52.73	-35.3	-36.0	26.3	0.00e+00	87	38	0	652214272	44	5760
2026-01-01 00:48:12.13	201.89	53.02	-35.4	-36.1	26.2	0.00e+00	71	37	0	654311424	44	5773
2026-01-01 00:48:13.14	202.34	53.30	-35.6	-36.3	26.0	0.00e+00	92	37	0	655360000	44	5940
2026-01-01 00:48:14.15	202.80	53.59	-35.6	-36.4	26.0	0.00e+00	0	37	0	657457152	44	5977
2026-01-01 00:48:15.16	203.26	53.88	-35.5	-36.3	26.0	0.00e+00	92	37	0	659554304	44	5908
2026-01-01 00:48:16.17	203.74	54.16	-35.5	-36.3	26.0	0.00e+00	82	37	0	661651456	44	5908
2026-01-01 00:48:17.17	204.22	54.44	-35.6	-36.4	26.1	0.00e+00	92	37	0	663748608	44	5965
2026-01-01 00:48:18.18	204.71	54.73	-35.9	-36.7	25.8	0.00e+00	0	37	0	664797184	44	6199
2026-01-01 00:48:19.19	205.21	55.01	-36.4	-37.2	25.3	0.00e+00	92	37	0	666894336	44	6571
2026-01-01 00:48:20.20	205.72	55.29	-36.8	-37.6	25.0	0.00e+00	92	37	0	668991488	44	6849
2026-01-01 00:48:21.21	206.25	55.57	-37.1	-37.9	24.7	0.00e+00	92	37	0	671088640	46	6329
2026-01-01 00:48:22.22	206.78	55.85	-37.3	-38.1	24.6	0.00e+00	92	37	0	673185792	46	6521
2026-01-01 00:48:23.23	207.33	56.13	-37.7	-38.5	24.2	0.00e+00	0	38	0	674234368	46	6845
2026-01-01 00:48:24.24	207.88	56.41	-38.0	-38.9	23.9	0.00e+00	92	37	0	676331520	48	6340
2026-01-01 00:48:25.25	208.45	56.69	-38.5	-39.4	23.5	0.00e+00	4	37	0	678428672	48	6701
2026-01-01 00:48:26.26	209.03	56.97	-38.8	-39.8	23.3	0.00e+00	92	37	0	680525824	48	7010
2026-01-01 00:48:27.27	209.61	57.24	-38.9	-39.9	23.1	0.00e+00	92	37	0	682622976	50	6355
2026-01-01 00:48:28.28	210.22	57.52	-39.2	-40.2	22.8	0.00e+00	53	37	0	683671552	50	6557
2026-01-01 00:48:29.29	210.83	57.79	-39.2	-40.2	22.8	0.00e+00	90	37	0	685768704	50	6593
2026-01-01 00:48:30.30	211.46	58.06	-39.4	-40.4	22.7	0.00e+00	4	37	0	687865856	50	6709
2026-01-01 00:48:31.31	212.09	58.33	-39.3	-40.3	22.8	0.00e+00	92	37	0	689963008	50	6626
2026-01-01 00:48:32.32	212.74	58.59	-39.2	-40.2	22.8	0.00e+00	0	37	0	692060160	50	6586
2026-01-01 00:48:33.33	213.41	58.85	-39.3	-40.3	22.7	0.00e+00	90	37	0	693108736	50	6654
2026-01-01 00:48:34.34	214.09	59.12	-39.4	-40.4	22.7	0.00e+00	0	37	0	695205888	50	6720
2026-01-01 00:48:35.35	214.78	59.37	-39.3	-40.2	22.7	0.00e+00	79	37	0	697303040	50	6602
2026-01-01 00:48:36.36	215.48	59.63	-39.1	-40.0	23.0	0.00e+00	90	37	0	699400192	50	6451
2026-01-01 00:48:37.37	216.20	59.88	-38.7	-39.6	23.4	0.00e+00	22	37	0	701497344	50	6126
2026-01-01 00:48:38.37	216.92	60.13	-38.3	-39.2	23.7	0.00e+00	90	37	0	702545920	50	5843
2026-01-01 00:48:39.38	217.67	60.38	-38.1	-39.0	23.9	0.00e+00	0	37	0	704643072	50	5739
2026-01-01 00:48:40.39	218.43	60.62	-37.8	-38.6	24.1	0.00e+00	92	37	0	706740224	48	6155
2026-01-01 00:48:41.40	219.21	60.86	-37.4	-38.2	24.5	0.00e+00	0	37	0	708837376	48	5857
2026-01-01 00:48:42.41	220.00	61.09	-37.3	-38.1	24.7	0.00e+00	92	37	0	710934528	48	5828
2026-01-01 00:48:43.42	220.80	61.33	-37.1	-37.9	24.8	0.00e+00	92	37	0	711983104	48	5638
2026-01-01 00:48:44.43	221.62	61.55	-36.8	-37.6	25.0	0.00e+00	79	37	0	714080256	48	5478
2026-01-01 00:48:45.44	222.46	61.78	-36.9	-37.7	24.8	0.00e+00	92	37	0	716177408	48	5555
2026-01-01 00:48:46.45	223.30	62.00	-36.9	-37.7	24.7	0.00e+00	0	37	0	718274560	48	5540
2026-01-01 00:48:47.46	224.17	62.21	-37.0	-37.8	24.9	0.00e+00	90	37	0	720371712	48	5618
2026-01-01 00:48:48.47	225.05	62.42	-37.2	-38.0	24.8	0.00e+00	0	37	0	722468864	48	5701
2026-01-01 00:48:49.48	225.94	62.62	-37.3	-38.1	24.6	0.00e+00	90	37	0	723517440	48	5782
2026-01-01 00:48:50.48	226.84	62.82	-37.6	-38.4	24.4	0.00e+00	92	37	0	725614592	48	5983
2026-01-01 00:48:51.49	227.77	63.01	-37.9	-38.8	24.0	0.00e+00	0	37	0	727711744	48	6255
2026-01-01 00:48:52.50	228.71	63.20	-37.8	-38.7	24.1	0.00e+00	92	37	0	729808896	48	6189
2026-01-01 00:48:53.51	229.66	63.38	-37.5	-38.4	24.5	0.00e+00	5	37	0	730857472	48	5979
2026-01-01 00:48:54.52	230.63	63.56	-37.2	-38.0	24.7	0.00e+00	92	37	0	732954624	48	5754
2026-01-01 00:48:55.53	231.61	63.73	-37.5	-38.3	24.5	0.00e+00	5	37	0	735051776	48	5927
2026-01-01 00:48:56.54	232.61	63.89	-38.0	-38.9	23.9	0.00e+00	92	37	0	737148928	48	6371
2026-01-01 00:48:57.55	233.62	64.04	-38.5	-39.4	23.4	0.00e+00	0	37	0	739246080	48	6746
2026-01-01 00:48:58.56	234.64	64.19	-38.3	-39.2	23.7	0.00e+00	29	37	0	740294656	48	6553
2026-01-01 00:48:59.57	235.68	64.33	-38.3	-39.2	23.6	0.00e+00	92	37	0	742391808	48	6610
2026-01-01 00:49:00.58	236.72	64.47	-38.1	-39.0	23.8	0.00e+00	86	37	0	744488960	48	6460
2026-01-01 00:49:01.59	237.79	64.60	-37.9	-38.8	24.0	0.00e+00	92	37	0	746586112	48	6304
2026-01-01 00:49:02.60	238.86	64.72	-38.3	-39.2	23.6	0.00e+00	80	38	0	748683264	48	6551
2026-01-01 00:49:03.61	239.94	64.83	-38.9	-39.9	22.9	0.00e+00	92	37	0	750780416	50	6324
2026-01-01 00:49:04.62	241.03	64.93	-39.5	-40.6	22.5	0.00e+00	81	38	0	751828992	50	6875
2026-01-01 00:49:05.63	242.14	65.03	-39.4	-40.5	22.6	0.00e+00	92	37	0	753926144	50	6786
2026-01-01 00:49:06.64	243.25	65.11	-39.2	-40.2	22.8	0.00e+00	90	37	0	756023296	50	6542
2026-01-01 00:49:07.65	244.37	65.19	-39.0	-39.9	22.9	0.00e+00	12	37	0	758120448	50	6367
2026-01-01 00:49:08.66	245.50	65.26	-39.0	-39.9	23.0	0.00e+00	90	38	0	760217600	50	6387
2026-01-01 00:49:09.67	246.63	65.33	-39.6	-40.6	22.5	0.00e+00	8	37	0	761266176	50	6881
2026-01-01 00:49:10.68	247.77	65.38	-39.7	-40.7	22.3	0.00e+00	92	37	0	763363328	50	6984
2026-01-01 00:49:11.69	248.92	65.43	-39.9	-41.0	22.2	0.00e+00	6	37	0	765460480	52	6405
2026-01-01 00:49:12.70	250.06	65.46	-39.5	-40.5	22.6	0.00e+00	92	37	0	767557632	52	6077
2026-01-01 00:49:13.70	251.21	65.49	-38.7	-39.6	23.3	0.00e+00	55	37	0	769654784	52	5484
2026-01-01 00:49:14.72	252.37	65.51	-38.3	-39.2	23.6	0.00e+00	12	37	0	770703360	50	5870
2026-01-01 00:49:15.73	253.53	65.52	-38.1	-39.0	23.8	0.00e+00	92	38	0	772800512	50	5732
2026-01-01 00:49:16.74	254.68	65.52	-38.2	-39.0	23.9	0.00e+00	0	37	0	774897664	50	5759
2026-01-01 00:49:17.74	255.83	65.51	-38.0	-38.8	24.0	0.00e+00	90	37	0	776994816	50	5626
2026-01-01 00:49:18.75	256.98	65.49	-38.2	-39.0	23.9	0.00e+00	7	37	0	779091968	50	5750
2026-01-01 00:49:19.76	258.14	65.46	-38.2	-39.1	23.8	0.00e+00	92	37	0	780140544	50	5795
2026-01-01 00:49:20.77	259.29	65.43	-38.0	-38.8	24.0	0.00e+00	89	38	0	782237696	50	5613
2026-01-01 00:49:21.78	260.43	65.39	-38.1	-38.9	24.1	0.00e+00	81	37	0	784334848	50	5685
2026-01-01 00:49:22.79	261.57	65.33	-37.7	-38.6	24.2	0.00e+00	92	37	0	786432000	50	5467
2026-01-01 00:49:23.80	262.71	65.27	-37.6	-38.5	24.3	0.00e+00	0	37	0	788529152	48	6044
2026-01-01 00:49:24.81	263.83	65.20	-38.5	-39.4	23.5	0.00e+00	92	37	0	789577728	48	6727
2026-01-01 00:49:25.82	264.95	65.12	-38.6	-39.5	23.5	0.00e+00	82	37	0	791674880	48	6808
2026-01-01 00:49:26.83	266.07	65.04	-37.7	-38.5	24.3	0.00e+00	92	37	0	793772032	48	6099
2026-01-01 00:49:27.84	267.17	64.94	-37.6	-38.4	24.4	0.00e+00	66	37	0	795869184	48	6029
2026-01-01 00:49:28.85	268.26	64.84	-37.3	-38.1	24.6	0.00e+00	92	37	0	797966336	48	5819
2026-01-01 00:49:29.86	269.35	64.73	-37.1	-37.8	24.8	0.00e+00	90	37	0	799014912	48	5625
2026-01-01 00:49:30.87	270.42	64.61	-37.8	-38.6	24.2	0.00e+00	0	37	0	801112064	48	6144
2026-01-01 00:49:31.87	271.47	64.48	-38.4	-39.3	23.6	0.00e+00	90	37	0	803209216	48	6657
2026-01-01 00:49:32.88	272.52	64.35	-37.6	-38.4	24.4	0.00e+00	5	38	0	805306368	48	6023
2026-01-01 00:49:33.89	273.56	64.21	-37.3	-38.1	24.6	0.00e+00	90	37	0	807403520	48	5781
2026-01-01 00:49:34.90	274.58	64.06	-37.2	-38.0	24.6	0.00e+00	8	37	0	808452096	48	5750
2026-01-01 00:49:35.91	275.59	63.91	-37.1	-37.9	24.8	0.00e+00	91	37	0	810549248	48	5665
2026-01-01 00:49:36.92	276.59	63.75	-36.5	-37.2	25.4	0.00e+00	91	37	0	812646400	46	5875
2026-01-01 00:49:37.93	277.57	63.58	-36.5	-37.2	25.3	0.00e+00	0	37	0	814743552	46	5880
2026-01-01 00:49:38.94	278.54	63.40	-36.6	-37.4	25.2	0.00e+00	91	38	0	816840704	46	6022
2026-01-01 00:49:39.95	279.49	63.22	-36.1	-36.9	25.6	0.00e+00	0	37	0	817889280	46	5648
2026-01-01 00:49:40.96	280.43	63.04	-36.0	-36.7	25.7	0.00e+00	92	37	0	819986432	46	5547
2026-01-01 00:49:41.97	281.36	62.84	-36.2	-37.0	25.6	0.00e+00	81	37	0	822083584	46	5741
2026-01-01 00:49:42.97	282.26	62.65	-36.1	-36.9	25.6	0.00e+00	91	38	0	824180736	46	5664
2026-01-01 00:49:43.98	283.15	62.45	-35.9	-36.7	25.8	0.00e+00	2	37	0	826277888	46	5519
2026-01-01 00:49:44.99	284.03	62.24	-36.0	-36.8	25.7	0.00e+00	92	37	0	828375040	46	5571
2026-01-01 00:49:46.00	284.90	62.03	-35.8	-36.5	25.8	0.00e+00	90	37	0	829423616	46	5434
2026-01-01 00:49:47.01	285.75	61.81	-35.4	-36.1	26.2	0.00e+00	10	37	0	831520768	44	5811
2026-01-01 00:49:48.02	286.58	61.59	-35.5	-36.3	26.1	0.00e+00	92	38	0	833617920	44	5923
2026-01-01 00:49:49.03	287.40	61.36	-36.0	-36.8	25.6	0.00e+00	81	37	0	835715072	44	6287
2026-01-01 00:49:50.04	288.21	61.13	-35.8	-36.6	25.8	0.00e+00	92	38	0	837812224	44	6136
2026-01-01 00:49:51.05	289.00	60.89	-35.8	-36.5	25.9	0.00e+00	0	37	0	838860800	44	6089
2026-01-01 00:49:52.06	289.78	60.65	-35.9	-36.7	25.7	0.00e+00	92	37	0	840957952	44	6203
2026-01-01 00:49:53.07	290.54	60.41	-36.3	-37.1	25.4	0.00e+00	90	38	0	843055104	44	6469
2026-01-01 00:49:54.08	291.28	60.17	-37.2	-38.0	24.7	0.00e+00	2	38	0	845152256	46	6455
2026-01-01 00:49:55.09	292.02	59.92	-38.0	-38.9	24.0	0.00e+00	90	37	0	847249408	48	6355
2026-01-01 00:49:56.10	292.74	59.67	-37.9	-38.8	24.0	0.00e+00	0	38	0	848297984	48	6286
2026-01-01 00:49:57.10	293.43	59.41	-38.1	-39.0	23.9	0.00e+00	92	38	0	850395136	48	6425
2026-01-01 00:49:58.12	294.13	59.15	-38.5	-39.4	23.5	0.00e+00	0	38	0	852492288	48	6720
2026-01-01 00:49:59.13	294.81	58.89	-38.6	-39.6	23.4	0.00e+00	92	38	0	854589440	48	6863
2026-01-01 00:50:00.14	295.47	58.63	-38.6	-39.5	23.4	0.00e+00	92	37	0	856686592	48	6832
2026-01-01 00:50:01.15	296.13	58.37	-38.8	-39.7	23.2	0.00e+00	92	37	0	857735168	50	6224
2026-01-01 00:50:02.15	296.76	58.10	-38.5	-39.5	23.5	0.00e+00	92	37	0	859832320	50	6056
2026-01-01 00:50:03.16	297.38	57.83	-38.3	-39.2	23.4	0.00e+00	0	37	0	861929472	50	5889
2026-01-01 00:50:04.17	298.00	57.56	-37.6	-38.5	24.2	0.00e+00	90	37	0	864026624	48	6052
2026-01-01 00:50:05.18	298.60	57.29	-37.5	-38.4	24.5	0.00e+00	0	37	0	866123776	48	5988
2026-01-01 00:50:06.19	299.19	57.02	-36.4	-37.1	25.5	0.00e+00	90	37	0	867172352	46	5818
2026-01-01 00:50:07.20	299.77	56.74	-35.5	-36.2	26.3	0.00e+00	0	37	0	869269504	44	5863
2026-01-01 00:50:08.20	300.33	56.47	-35.4	-36.1	26.3	0.00e+00	90	37	0	871366656	44	5823
2026-01-01 00:50:09.21	300.89	56.19	-35.4	-36.2	26.2	0.00e+00	92	37	0	873463808	44	5843
2026-01-01 00:50:10.22	301.43	55.91	-34.9	-35.6	26.7	0.00e+00	0	38	0	875560960	44	5468
2026-01-01 00:50:11.23	301.97	55.63	-34.6	-35.3	26.9	0.00e+00	92	37	0	876609536	42	5959
2026-01-01 00:50:12.24	302.49	55.35	-34.8	-35.5	26.8	0.00e+00	0	37	0	878706688	42	6046
2026-01-01 00:50:13.25	303.00	55.07	-34.9	-35.6	26.6	0.00e+00	92	37	0	880803840	42	6169
2026-01-01 00:50:14.26	303.51	54.79	-34.9	-35.6	26.6	0.00e+00	0	38	0	882900992	42	6111
2026-01-01 00:50:15.27	304.00	54.50	-34.9	-35.6	26.5	0.00e+00	90	38	0	884998144	42	6152
2026-01-01 00:50:16.28	304.48	54.22	-35.6	-36.3	26.0	0.00e+00	90	37	0	887095296	42	6684
2026-01-01 00:50:17.28	304.95	53.94	-35.6	-36.3	26.2	0.00e+00	0	37	0	888143872	42	6671
2026-01-01 00:50:18.29	305.42	53.65	-35.5	-36.2	26.2	0.00e+00	92	37	0	890241024	42	6570
2026-01-01 00:50:19.30	305.88	53.37	-35.5	-36.2	26.2	0.00e+00	0	38	0	892338176	42	6590
2026-01-01 00:50:20.31	306.32	53.09	-36.3	-37.1	25.4	0.00e+00	92	37	0	894435328	44	6484
2026-01-01 00:50:21.32	306.76	52.80	-36.8	-37.7	25.0	0.00e+00	0	37	0	896532480	44	6932
2026-01-01 00:50:22.33	307.19	52.52	-36.2	-37.0	25.6	0.00e+00	92	38	0	897581056	46	5711
2026-01-01 00:50:23.34	307.62	52.23	-36.2	-37.0	25.5	0.00e+00	92	37	0	899678208	46	5710
2026-01-01 00:50:24.35	308.03	51.95	-36.6	-37.4	25.2	0.00e+00	0	37	0	901775360	46	6020
2026-01-01 00:50:25.36	308.44	51.66	-37.7	-38.6	24.3	0.00e+00	92	37	0	903872512	46	6876
2026-01-01 00:50:26.36	308.83	51.38	-38.3	-39.2	23.7	0.00e+00	0	38	0	905969664	48	6592
2026-01-01 00:50:27.37	309.23	51.10	-38.2	-39.1	23.7	0.00e+00	91	37	0	907018240	48	6536
2026-01-01 00:50:28.39	309.61	50.81	-38.5	-39.5	23.4	0.00e+00	0	37	0	909115392	48	6790
2026-01-01 00:50:29.39	309.99	50.53	-39.2	-40.2	22.8	0.00e+00	92	37	0	911212544	50	6564
2026-01-01 00:50:30.40	310.36	50.25	-39.5	-40.6	22.5	0.00e+00	0	38	0	913309696	50	6870
2026-01-01 00:50:31.41	310.72	49.97	-39.4	-40.4	22.7	0.00e+00	92	38	0	915406848	50	6761
2026-01-01 00:50:32.42	311.08	49.69	-39.9	-41.0	22.2	0.00e+00	90	37	0	916455424	52	6430
2026-01-01 00:50:33.43	311.43	49.41	-41.2	-42.5	20.7	0.00e+00	0	38	0	918552576	54	6790
2026-01-01 00:50:34.44	311.78	49.13	-42.3	-43.8	19.4	0.00e+00	92	37	0	920649728	56	7084
2026-01-01 00:50:35.45	312.11	48.85	-41.7	-43.1	20.3	0.00e+00	0	37	0	922746880	56	6515
2026-01-01 00:50:36.46	312.45	48.57	-41.3	-42.6	20.7	0.00e+00	92	37	0	924844032	56	6140
2026-01-01 00:50:37.47	312.77	48.29	-41.5	-42.8	20.4	0.00e+00	0	37	0	925892608	56	6292
2026-01-01 00:50:38.47	313.09	48.02	-42.5	-44.0	19.2	0.00e+00	91	38	0	927989760	56	7245
2026-01-01 00:50:39.48	313.41	47.74	-42.7	-44.3	19.1	0.00e+00	92	37	0	930086912	58	6636
2026-01-01 00:50:40.49	313.72	47.46	-42.6	-44.1	19.2	0.00e+00	6	38	0	932184064	58	6531
2026-01-01 00:50:41.50	314.02	47.19	-42.2	-43.7	19.6	0.00e+00	92	37	0	934281216	58	6181
2026-01-01 00:50:42.51	314.32	46.92	-41.9	-43.4	20.0	0.00e+00	0	38	0	935329792	58	5969
2026-01-01 00:50:43.52	314.61	46.64	-41.7	-43.1	20.3	0.00e+00	91	38	0	937426944	58	5818
2026-01-01 00:50:44.53	314.90	46.37	-41.2	-42.5	20.8	0.00e+00	6	38	0	939524096	56	6095
2026-01-01 00:50:45.54	315.19	46.10	-41.2	-42.4	20.9	0.00e+00	90	38	0	941621248	56	6009
2026-01-01 00:50:46.55	315.47	45.83	-40.4	-41.5	21.7	0.00e+00	0	38	0	943718400	54	6101
2026-01-01 00:50:47.56	315.74	45.57	-40.4	-41.5	21.7	0.00e+00	92	37	0	944766976	54	6072
2026-01-01 00:50:48.57	316.01	45.30	-40.4	-41.5	21.7	0.00e+00	92	38	0	946864128	54	6100
2026-01-01 00:50:49.58	316.28	45.03	-39.8	-40.8	22.3	0.00e+00	0	37	0	948961280	54	5615
2026-01-01 00:50:50.59	316.54	44.77	-39.4	-40.4	22.6	0.00e+00	92	38	0	951058432	52	6018
2026-01-01 00:50:51.60	316.80	44.50	-38.7	-39.6	23.4	0.00e+00	85	38	0	953155584	50	6157
2026-01-01 00:50:52.60	317.05	44.24	-38.6	-39.5	23.5	0.00e+00	92	38	0	954204160	50	6090
2026-01-01 00:50:53.61	317.30	43.98	-38.1	-39.0	24.0	0.00e+00	0	38	0	956301312	50	5709
2026-01-01 00:50:54.62	317.54	43.72	-37.8	-38.7	24.2	0.00e+00	91	38	0	958398464	50	5520
2026-01-01 00:50:55.63	317.78	43.46	-37.2	-38.0	24.8	0.00e+00	92	38	0	960495616	48	5703
2026-01-01 00:50:56.63	318.02	43.21	-36.8	-37.6	24.9	0.00e+00	0	38	0	962592768	48	5480
2026-01-01 00:50:57.64	318.25	42.95	-37.2	-38.0	24.7	0.00e+00	92	38	0	963641344	48	5712
2026-01-01 00:50:58.65	318.48	42.70	-38.3	-39.2	23.1	0.00e+00	0	37	0	965738496	48	6548
2026-01-01 00:50:59.66	318.71	42.44	-39.2	-40.2	22.8	0.00e+00	90	38	0	967835648	50	6614
2026-01-01 00:51:00.67	318.93	42.19	-39.2	-40.2	23.0	0.00e+00	6	38	0	969932800	50	6572
2026-01-01 00:51:01.67	319.15	41.94	-38.0	-38.9	24.1	0.00e+00	92	38	0	972029952	50	5658
2026-01-01 00:51:02.68	319.37	41.69	-37.5	-38.3	24.6	0.00e+00	92	38	0	973078528	48	5909
2026-01-01 00:51:03.69	319.58	41.44	-37.1	-37.8	24.9	0.00e+00	6	38	0	975175680	48	5629
2026-01-01 00:51:04.70	319.79	41.19	-36.9	-37.7	24.9	0.00e+00	91	38	0	977272832	48	5536
2026-01-01 00:51:05.71	320.00	40.95	-36.6	-37.3	25.3	0.00e+00	0	37	0	979369984	46	5961
2026-01-01 00:51:06.72	320.20	40.70	-37.2	-38.1	24.5	0.00e+00	92	37	0	981467136	46	6473
2026-01-01 00:51:07.72	320.40	40.46	-38.0	-38.9	23.9	0.00e+00	6	37	0	983564288	48	6345
2026-01-01 00:51:08.73	320.60	40.22	-38.7	-39.7	22.9	0.00e+00	92	38	0	984612864	48	6967
2026-01-01 00:51:09.74	320.79	39.98	-39.1	-40.1	23.1	0.00e+00	0	37	0	986710016	50	6478
2026-01-01 00:51:10.75	320.98	39.74	-38.8	-39.8	23.2	0.00e+00	0	37	0	988807168	50	6284
2026-01-01 00:51:11.76	321.17	39.50	-38.5	-39.4	23.7	0.00e+00	92	37	0	990904320	50	5976
2026-01-01 00:51:12.77	321.36	39.26	-37.5	-38.3	24.6	0.00e+00	0	37	0	993001472	48	5919
2026-01-01 00:51:13.78	321.55	39.02	-36.9	-37.6	25.0	0.00e+00	92	38	0	994050048	48	5500
2026-01-01 00:51:14.78	321.72	38.79	-36.5	-37.2	25.6	0.00e+00	81	37	0	996147200	46	5857
2026-01-01 00:51:15.79	321.90	38.56	-36.5	-37.2	25.4	0.00e+00	92	37	0	998244352	46	5889
2026-01-01 00:51:16.80	322.08	38.33	-37.1	-37.9	24.7	0.00e+00	0	37	0	1000341504	46	6377
2026-01-01 00:51:17.81	322.25	38.10	-38.3	-39.2	23.7	0.00e+00	51	37	0	1001390080	48	6580
2026-01-01 00:51:18.82	322.43	37.87	-39.2	-40.2	22.8	0.00e+00	92	37	0	1003487232	50	6613
2026-01-01 00:51:19.83	322.60	37.64	-39.2	-40.3	22.8	0.00e+00	0	37	0	1005584384	50	6621
2026-01-01 00:51:20.84	322.76	37.41	-38.9	-39.9	23.1	0.00e+00	92	37	0	1007681536	50	6340
2026-01-01 00:51:21.85	322.93	37.19	-38.5	-39.4	23.6	0.00e+00	0	38	0	1009778688	50	5986
2026-01-01 00:51:22.85	323.09	36.96	-38.1	-38.9	23.8	0.00e+00	92	37	0	1011875840	50	5694
2026-01-01 00:51:23.86	323.25	36.74	-37.5	-38.3	24.5	0.00e+00	0	38	0	1012924416	48	5932
2026-01-01 00:51:24.87	323.41	36.52	-37.6	-38.5	24.1	0.00e+00	90	38	0	1015021568	48	6054
2026-01-01 00:51:25.88	323.57	36.30	-38.2	-39.1	23.7	0.00e+00	42	37	0	1017118720	48	6500
2026-01-01 00:51:26.89	323.72	36.08	-38.1	-38.9	24.0	0.00e+00	0	38	0	1019215872	48	6366
2026-01-01 00:51:27.90	323.87	35.86	-38.6	-39.5	23.3	0.00e+00	90	38	0	1021313024	48	6834
2026-01-01 00:51:28.91	324.02	35.64	-39.1	-40.1	23.1	0.00e+00	0	38	0	1022361600	50	6504
2026-01-01 00:51:29.92	324.17	35.43	-39.9	-40.9	22.1	0.00e+00	90	37	0	1024458752	50	7161
2026-01-01 00:51:30.92	324.32	35.22	-39.9	-41.0	22.2	0.00e+00	0	37	0	1026555904	52	6435
2026-01-01 00:51:31.93	324.46	35.00	-40.0	-41.1	22.0	0.00e+00	92	37	0	1028653056	52	6530
2026-01-01 00:51:32.94	324.60	34.79	-39.5	-40.5	22.6	0.00e+00	0	37	0	1030750208	52	6092
2026-01-01 00:51:33.96	324.75	34.58	-38.8	-39.8	23.2	0.00e+00	0	37	0	1031798784	52	5576
2026-01-01 00:51:34.96	324.88	34.37	-38.4	-39.3	23.6	0.00e+00	90	37	0	1033895936	50	5925
2026-01-01 00:51:35.98	325.02	34.16	-38.0	-38.8	24.0	0.00e+00	0	37	0	1035993088	50	5620
2026-01-01 00:51:36.98	325.16	33.96	-37.9	-38.7	24.1	0.00e+00	92	37	0	1038090240	50	5554
2026-01-01 00:51:38.00	325.29	33.75	-38.1	-38.9	24.1	0.00e+00	81	38	0	1040187392	50	5667
2026-01-01 00:51:39.00	325.43	33.55	-38.2	-39.1	23.8	0.00e+00	90	37	0	1041235968	50	5766
2026-01-01 00:51:40.01	325.56	33.34	-38.6	-39.5	23.4	0.00e+00	0	37	0	1043333120	50	6082
2026-01-01 00:51:41.02	325.69	33.14	-38.7	-39.6	23.2	0.00e+00	92	37	0	1045430272	50	6164
2026-01-01 00:51:42.04	325.82	32.94	-39.2	-40.2	22.8	0.00e+00	92	37	0	1047527424	50	6578
2026-01-01 00:51:43.04	325.94	32.74	-39.5	-40.5	22.5	0.00e+00	83	37	0	1049624576	50	6796
2026-01-01 00:51:44.05	326.07	32.54	-39.5	-40.6	22.5	0.00e+00	92	37	0	1050673152	50	6867
2026-01-01 00:51:45.06	326.19	32.35	-39.6	-40.7	22.4	0.00e+00	0	38	0	1052770304	50	6932
2026-01-01 00:51:46.07	326.31	32.15	-39.6	-40.6	22.4	0.00e+00	91	38	0	1054867456	50	6910
2026-01-01 00:51:47.08	326.43	31.96	-39.6	-40.6	22.4	0.00e+00	0	37	0	1056964608	52	6169
2026-01-01 00:51:48.09	326.55	31.76	-39.9	-41.0	22.1	0.00e+00	2	37	0	1059061760	52	6391
2026-01-01 00:51:49.10	326.67	31.57	-40.2	-41.3	21.8	0.00e+00	90	37	0	1060110336	52	6640
2026-01-01 00:51:50.11	326.79	31.38	-40.3	-41.5	21.6	0.00e+00	0	37	0	1062207488	52	6794
2026-01-01 00:51:51.12	326.90	31.19	-40.7	-41.9	21.2	0.00e+00	90	38	0	1064304640	52	7165
2026-01-01 00:51:52.13	327.02	31.00	-40.9	-42.1	21.1	0.00e+00	0	38	0	1066401792	54	6520
2026-01-01 00:51:53.14	327.13	30.81	-40.7	-41.9	21.3	0.00e+00	92	37	0	1068498944	54	6336
2026-01-01 00:51:54.14	327.24	30.62	-40.6	-41.8	21.3	0.00e+00	0	37	0	1069547520	54	6255
2026-01-01 00:51:55.15	327.35	30.44	-40.5	-41.7	21.4	0.00e+00	92	38	0	1071644672	54	6205
2026-01-01 00:51:56.16	327.46	30.25	-40.3	-41.4	21.8	0.00e+00	0	38	0	1073741824	54	6003
2026-01-01 00:51:57.17	327.57	30.07	-39.7	-40.8	22.3	0.00e+00	0	38	0	1075838976	54	5570
2026-01-01 00:51:58.18	327.67	29.89	-39.4	-40.5	22.6	0.00e+00	90	38	0	1077936128	52	6038
2026-01-01 00:51:59.19	327.78	29.71	-39.4	-40.4	22.6	0.00e+00	82	38	0	1080033280	52	6012
2026-01-01 00:52:00.20	327.88	29.53	-39.2	-40.2	22.8	0.00e+00	92	38	0	1081081856	52	5867
2026-01-01 00:52:01.21	327.99	29.35	-39.4	-40.4	22.6	0.00e+00	0	38	0	1083179008	52	6000
2026-01-01 00:52:02.22	328.09	29.17	-39.3	-40.3	22.8	0.00e+00	0	38	0	1085276160	52	5913
2026-01-01 00:52:03.23	328.19	28.99	-39.5	-40.5	22.5	0.00e+00	0	38	0	1087373312	52	6094
2026-01-01 00:52:04.24	328.29	28.81	-39.3	-40.3	22.7	0.00e+00	0	38	0	1089470464	52	5938
2026-01-01 00:52:05.25	328.39	28.64	-39.3	-40.3	22.7	0.00e+00	91	38	0	1090519040	52	5953
2026-01-01 00:52:06.26	328.49	28.46	-39.4	-40.5	22.6	0.00e+00	82	38	0	1092616192	52	6034
2026-01-01 00:52:07.27	328.58	28.29	-39.5	-40.5	22.6	0.00e+00	90	38	0	1094713344	52	6065
2026-01-01 00:52:08.28	328.68	28.12	-39.5	-40.5	22.6	0.00e+00	0	38	0	1096810496	52	6083
2026-01-01 00:52:09.29	328.77	27.95	-39.6	-40.7	22.4	0.00e+00	2	38	0	1098907648	52	6175
2026-01-01 00:52:10.30	328.87	27.78	-39.6	-40.6	22.5	0.00e+00	0	37	0	1099956224	52	6163
2026-01-01 00:52:11.31	328.96	27.61	-39.5	-40.5	22.5	0.00e+00	0	38	0	1102053376	52	6063
2026-01-01 00:52:12.32	329.05	27.44	-39.4	-40.4	22.6	0.00e+00	92	38	0	1104150528	52	6029
2026-01-01 00:52:13.32	329.14	27.27	-39.3	-40.3	22.7	0.00e+00	0	37	0	1106247680	52	5928
2026-01-01 00:52:14.33	329.24	27.11	-39.2	-40.1	22.9	0.00e+00	92	38	0	1108344832	52	5825
2026-01-01 00:52:15.34	329.32	26.94	-38.9	-39.9	23.1	0.00e+00	0	38	0	1109393408	52	5644
2026-01-01 00:52:16.35	329.41	26.78	-39.0	-40.0	23.1	0.00e+00	92	38	0	1111490560	52	5696
2026-01-01 00:52:17.36	329.50	26.61	-38.6	-39.5	23.4	0.00e+00	2	37	0	1113587712	50	6048
2026-01-01 00:52:18.37	329.59	26.45	-38.3	-39.2	23.7	0.00e+00	2	38	0	1115684864	50	5864
2026-01-01 00:52:19.38	329.67	26.29	-38.4	-39.3	23.5	0.00e+00	0	38	0	1117782016	50	5963
2026-01-01 00:52:20.39	329.76	26.13	-38.5	-39.4	23.4	0.00e+00	82	38	0	1118830592	50	6025
2026-01-01 00:52:21.40	329.84	25.97	-38.1	-39.0	23.8	0.00e+00	92	37	0	1120927744	50	5727
2026-01-01 00:52:22.41	329.93	25.81	-38.1	-39.0	23.9	0.00e+00	81	38	0	1123024896	50	5712
2026-01-01 00:52:23.42	330.01	25.65	-38.2	-39.1	23.7	0.00e+00	92	38	0	1125122048	50	5801
2026-01-01 00:52:24.43	330.09	25.49	-38.3	-39.2	23.6	0.00e+00	0	38	0	1127219200	50	5845
2026-01-01 00:52:25.44	330.17	25.34	-38.5	-39.4	23.4	0.00e+00	81	38	0	1128267776	50	5998
2026-01-01 00:52:26.44	330.25	25.18	-38.6	-39.5	23.3	0.00e+00	0	38	0	1130364928	50	6068
2026-01-01 00:52:27.45	330.33	25.03	-38.7	-39.6	23.2	0.00e+00	0	38	0	1132462080	50	6162
2026-01-01 00:52:28.46	330.41	24.87	-38.9	-39.8	23.0	0.00e+00	82	38	0	1134559232	50	6298
2026-01-01 00:52:29.47	330.49	24.72	-38.9	-39.9	23.1	0.00e+00	0	38	0	1136656384	50	6345
2026-01-01 00:52:30.48	330.57	24.57	-39.0	-40.0	23.0	0.00e+00	92	38	0	1137704960	50	6408
2026-01-01 00:52:31.48	330.64	24.42	-39.0	-40.0	23.0	0.00e+00	6	38	0	1139802112	50	6397
2026-01-01 00:52:32.49	330.72	24.27	-38.9	-39.9	23.0	0.00e+00	35	38	0	1141899264	50	6358
2026-01-01 00:52:33.50	330.80	24.12	-38.9	-39.8	23.1	0.00e+00	0	38	0	1143996416	50	6302
2026-01-01 00:52:34.51	330.87	23.97	-38.4	-39.3	23.6	0.00e+00	0	38	0	1146093568	50	5942
2026-01-01 00:52:35.52	330.95	23.82	-38.3	-39.3	23.5	0.00e+00	90	38	0	1148190720	50	5904
2026-01-01 00:52:36.53	331.02	23.67	-38.1	-38.9	23.9	0.00e+00	0	38	0	1149239296	50	5686
2026-01-01 00:52:37.54	331.09	23.53	-37.9	-38.8	23.9	0.00e+00	92	38	0	1151336448	50	5596
2026-01-01 00:52:38.55	331.16	23.38	-37.6	-38.4	24.3	0.00e+00	6	38	0	1153433600	48	6014
2026-01-01 00:52:39.56	331.24	23.24	-37.4	-38.3	24.4	0.00e+00	15	38	0	1155530752	48	5909
2026-01-01 00:52:40.57	331.31	23.09	-37.5	-38.3	24.4	0.00e+00	82	38	0	1157627904	48	5915
2026-01-01 00:52:41.58	331.38	22.95	-37.1	-37.9	24.7	0.00e+00	0	38	0	1158676480	48	5643
2026-01-01 00:52:42.59	331.45	22.81	-37.1	-37.8	24.8	0.00e+00	0	38	0	1160773632	48	5628
2026-01-01 00:52:43.59	331.52	22.66	-37.0	-37.8	24.8	0.00e+00	0	38	0	1162870784	48	5624
2026-01-01 00:52:44.60	331.58	22.52	-37.0	-37.8	24.7	0.00e+00	92	38	0	1164967936	48	5620
2026-01-01 00:52:45.61	331.65	22.38	-37.0	-37.8	24.8	0.00e+00	3	38	0	1167065088	48	5600
2026-01-01 00:52:46.63	331.72	22.24	-37.1	-37.9	24.7	0.00e+00	92	38	0	1168113664	48	5644
2026-01-01 00:52:47.63	331.79	22.10	-37.1	-37.9	24.7	0.00e+00	6	38	0	1170210816	48	5652
2026-01-01 00:52:48.64	331.85	21.97	-37.3	-38.1	24.4	0.00e+00	81	38	0	1172307968	48	5803
2026-01-01 00:52:49.65	331.92	21.83	-37.3	-38.1	24.5	0.00e+00	0	37	0	1174405120	48	5822
2026-01-01 00:52:50.66	331.98	21.69	-37.4	-38.3	24.3	0.00e+00	5	37	0	1176502272	48	5919
2026-01-01 00:52:51.67	332.05	21.56	-37.6	-38.4	24.2	0.00e+00	92	37	0	1177550848	48	5995
2026-01-01 00:52:52.68	332.11	21.42	-37.7	-38.6	24.0	0.00e+00	7	38	0	1179648000	48	6111
2026-01-01 00:52:53.69	332.18	21.29	-37.8	-38.7	24.0	0.00e+00	92	38	0	1181745152	48	6186
2026-01-01 00:52:54.70	332.24	21.15	-37.8	-38.6	24.0	0.00e+00	6	38	0	1183842304	48	6167
2026-01-01 00:52:55.71	332.30	21.02	-37.9	-38.8	23.9	0.00e+00	6	38	0	1185939456	48	6273
2026-01-01 00:52:56.72	332.37	20.88	-38.0	-38.9	23.8	0.00e+00	6	38	0	1186988032	48	6349
2026-01-01 00:52:57.73	332.43	20.75	-38.0	-38.9	23.8	0.00e+00	0	38	0	1189085184	48	6362
2026-01-01 00:52:58.73	332.49	20.62	-38.0	-38.9	23.9	0.00e+00	0	38	0	1191182336	48	6345
2026-01-01 00:52:59.74	332.55	20.49	-37.9	-38.8	23.8	0.00e+00	0	37	0	1193279488	48	6301
2026-01-01 00:53:00.75	332.61	20.36	-37.9	-38.8	23.9	0.00e+00	92	38	0	1195376640	48	6309
2026-01-01 00:53:01.76	332.67	20.23	-37.8	-38.7	23.9	0.00e+00	6	38	0	1196425216	48	6208
