passes_logs/2026/01/01/R4.6S_Anadyr/R4.6S_Anadyr__20260101_022337_NOAA_20_JPSS-1_rec.log

#Pass ID: 20260101_022337_NOAA 20 (JPSS-1)
#Satellite: NOAA 20 (JPSS-1)
#Configuration: NOAA 20
#almurnet v.1.7.20251203
#Start time: 2026-01-01 02:23:39

#Version: 2.2.20231116
#Station: R4.6S_Anadyr
#Location: 177.4865 lon 64.73178 lat
#TLE: 1 43013U 17073A   25364.89373485  .00000164  00000+0  98659-4 0  9997
#TLE: 2 43013  98.7619 300.9939 0001957  61.1511 298.9862 14.19531413420599

#Time	Az	El	Level	Level2	SNR	BER	BlckErr	Temp	State	Recorded	gain1	gain2
2026-01-01 02:23:39.04	213.16	0.06	-49.4	-64.3	3.5	1.51e+00	0	35	0	0	60	59331
2026-01-01 02:23:40.04	213.22	0.11	-49.5	-64.7	3.6	1.51e+00	0	36	104	0	60	62024
2026-01-01 02:23:41.05	213.29	0.16	-49.5	-64.7	3.6	1.51e+00	0	36	104	0	60	61985
2026-01-01 02:23:42.06	213.36	0.21	-49.6	-64.8	3.6	1.51e+00	0	36	104	0	60	62866
2026-01-01 02:23:43.07	213.43	0.26	-49.6	-64.8	3.6	1.51e+00	0	36	104	0	60	62855
2026-01-01 02:23:44.08	213.50	0.32	-49.6	-64.7	3.6	1.51e+00	0	37	104	0	60	62341
2026-01-01 02:23:45.09	213.57	0.37	-49.6	-64.8	3.6	1.51e+00	0	36	104	0	60	63121
2026-01-01 02:23:46.10	213.64	0.42	-49.6	-64.8	3.6	1.51e+00	0	37	104	0	60	63000
2026-01-01 02:23:47.11	213.71	0.47	-49.6	-64.8	3.6	1.51e+00	0	37	104	0	60	62980
2026-01-01 02:23:48.12	213.78	0.52	-49.5	-64.8	3.6	1.51e+00	0	37	104	0	60	62680
2026-01-01 02:23:49.13	213.85	0.58	-49.5	-64.8	3.6	1.51e+00	0	37	104	0	60	62561
2026-01-01 02:23:50.14	213.93	0.63	-49.6	-64.8	3.6	1.51e+00	0	37	104	0	60	63125
2026-01-01 02:23:51.15	214.00	0.68	-49.4	-64.7	3.6	1.51e+00	0	37	104	0	60	61869
2026-01-01 02:23:52.16	214.07	0.73	-49.4	-64.7	3.6	1.51e+00	0	37	104	0	60	61833
2026-01-01 02:23:53.17	214.14	0.78	-49.3	-64.5	3.6	1.51e+00	0	37	104	0	60	60934
2026-01-01 02:23:54.18	214.21	0.84	-49.2	-64.4	3.6	1.51e+00	0	37	104	0	60	59786
2026-01-01 02:23:55.19	214.28	0.89	-48.9	-64.0	3.6	1.51e+00	0	37	104	0	60	57519
2026-01-01 02:23:56.20	214.36	0.94	-48.3	-63.4	3.6	1.51e+00	0	37	104	0	60	53472
2026-01-01 02:23:57.21	214.43	0.99	-48.1	-63.3	3.6	1.51e+00	0	37	104	0	60	52715
2026-01-01 02:23:58.22	214.50	1.05	-48.1	-63.3	3.6	1.51e+00	0	37	104	0	60	52936
2026-01-01 02:23:59.23	214.58	1.10	-48.1	-63.3	3.6	1.51e+00	0	37	104	0	60	52794
2026-01-01 02:24:00.24	214.65	1.15	-48.1	-63.3	3.6	1.51e+00	0	37	104	0	60	52638
2026-01-01 02:24:01.25	214.72	1.21	-48.1	-63.3	3.6	1.51e+00	0	37	104	0	60	52641
2026-01-01 02:24:02.26	214.80	1.26	-48.1	-63.3	3.6	1.51e+00	0	37	104	0	60	52569
2026-01-01 02:24:03.27	214.87	1.31	-48.1	-63.2	3.6	1.51e+00	0	37	104	0	60	52167
2026-01-01 02:24:04.28	214.95	1.36	-48.1	-63.2	3.6	1.51e+00	0	37	104	0	60	52181
2026-01-01 02:24:05.29	215.02	1.42	-48.1	-63.3	3.6	1.51e+00	0	37	104	0	60	52563
2026-01-01 02:24:06.30	215.10	1.47	-48.1	-63.3	3.6	1.51e+00	0	37	104	0	60	52686
2026-01-01 02:24:07.31	215.17	1.52	-48.1	-63.3	3.6	1.51e+00	0	37	104	0	60	52592
2026-01-01 02:24:08.32	215.25	1.58	-48.1	-63.3	3.6	1.51e+00	0	37	104	0	60	52588
2026-01-01 02:24:09.33	215.32	1.63	-48.1	-63.3	3.6	1.51e+00	0	37	104	0	60	52865
2026-01-01 02:24:10.34	215.40	1.68	-48.1	-63.2	3.6	1.51e+00	0	37	104	0	60	52476
2026-01-01 02:24:11.35	215.48	1.74	-48.1	-63.3	3.6	1.51e+00	0	37	104	0	60	52872
2026-01-01 02:24:12.36	215.55	1.79	-48.1	-63.3	3.6	1.51e+00	0	37	104	0	60	52817
2026-01-01 02:24:13.37	215.63	1.84	-48.1	-63.3	3.6	1.51e+00	0	37	104	0	60	52758
2026-01-01 02:24:14.38	215.71	1.90	-48.1	-63.3	3.6	1.51e+00	0	37	104	0	60	52742
2026-01-01 02:24:15.39	215.78	1.95	-48.1	-63.2	3.6	1.51e+00	0	37	104	0	60	52290
2026-01-01 02:24:16.40	215.86	2.01	-48.1	-63.2	3.6	1.51e+00	0	37	104	0	60	52277
2026-01-01 02:24:17.41	215.94	2.06	-48.1	-63.2	3.6	1.51e+00	0	37	104	0	60	52410
2026-01-01 02:24:18.42	216.02	2.11	-48.1	-63.2	3.6	1.51e+00	0	37	104	0	60	52415
2026-01-01 02:24:19.44	216.10	2.17	-48.1	-63.2	3.6	1.51e+00	0	37	104	0	60	52272
2026-01-01 02:24:20.44	216.18	2.22	-48.1	-63.1	3.6	1.51e+00	0	37	104	0	60	51921
2026-01-01 02:24:21.45	216.25	2.28	-48.1	-63.0	3.6	1.51e+00	0	37	104	0	60	51193
2026-01-01 02:24:22.46	216.33	2.33	-48.1	-63.2	3.6	1.51e+00	0	37	104	0	60	51969
2026-01-01 02:24:23.48	216.41	2.38	-48.1	-63.2	3.6	1.51e+00	0	37	104	0	60	51948
2026-01-01 02:24:24.49	216.49	2.44	-48.1	-62.4	3.6	1.51e+00	0	37	104	0	60	47871
2026-01-01 02:24:25.50	216.57	2.49	-48.0	-61.9	3.6	1.51e+00	0	37	104	0	60	44768
2026-01-01 02:24:26.51	216.66	2.55	-48.0	-61.1	3.6	1.51e+00	0	37	104	0	60	41087
2026-01-01 02:24:27.52	216.74	2.60	-48.0	-61.1	3.6	1.50e+00	0	37	104	0	60	41017
2026-01-01 02:24:28.53	216.82	2.66	-48.0	-61.8	3.6	1.50e+00	0	37	104	0	60	44641
2026-01-01 02:24:29.53	216.90	2.71	-48.1	-62.6	3.6	1.51e+00	0	37	104	0	60	48874
2026-01-01 02:24:30.55	216.98	2.77	-48.0	-61.4	3.6	1.51e+00	0	37	104	0	60	42566
2026-01-01 02:24:31.55	217.06	2.82	-47.6	-56.9	5.5	1.22e+00	92	37	104	0	60	25370
2026-01-01 02:24:32.56	217.14	2.87	-47.0	-53.2	8.5	1.40e-01	92	37	0	0	60	16442
2026-01-01 02:24:33.58	217.23	2.93	-46.3	-50.9	11.0	1.18e-02	92	37	0	2097152	60	12702
2026-01-01 02:24:34.59	217.31	2.98	-45.9	-50.0	12.0	2.66e-04	92	37	0	4194304	60	11450
2026-01-01 02:24:35.59	217.39	3.04	-45.6	-49.3	12.9	6.79e-05	74	37	0	6291456	60	10522
2026-01-01 02:24:36.60	217.47	3.09	-45.7	-49.6	12.5	5.49e-05	92	37	0	8388608	60	10920
2026-01-01 02:24:37.61	217.56	3.15	-45.9	-49.9	7.6	1.75e-05	30	37	0	9437184	60	11283
2026-01-01 02:24:38.62	217.64	3.20	-44.4	-47.2	5.6	1.50e+00	0	37	104	10485760	60	8263
2026-01-01 02:24:39.63	217.73	3.26	-44.5	-47.3	16.9	1.49e+00	38	37	104	10485760	60	8334
2026-01-01 02:24:40.64	217.81	3.31	-44.0	-46.5	15.3	0.00e+00	92	37	0	11534336	58	8548
2026-01-01 02:24:41.65	217.90	3.37	-42.2	-43.9	18.2	7.78e-05	92	37	0	13631488	58	6337
2026-01-01 02:24:42.66	217.98	3.42	-44.2	-46.7	16.4	8.92e-05	92	37	0	15728640	60	7785
2026-01-01 02:24:43.67	218.07	3.48	-43.1	-45.1	17.5	0.00e+00	92	37	0	17825792	60	6493
2026-01-01 02:24:44.68	218.15	3.54	-42.3	-44.0	18.5	0.00e+00	92	37	0	18874368	58	6457
2026-01-01 02:24:45.69	218.24	3.59	-42.2	-43.9	18.4	0.00e+00	92	37	0	20971520	58	6371
2026-01-01 02:24:46.70	218.33	3.65	-42.2	-43.9	18.6	0.00e+00	5	37	0	23068672	58	6346
2026-01-01 02:24:47.70	218.41	3.70	-42.3	-44.0	18.5	0.00e+00	92	37	0	25165824	58	6438
2026-01-01 02:24:48.71	218.50	3.76	-42.0	-43.6	18.9	0.00e+00	92	37	0	27262976	58	6110
2026-01-01 02:24:49.72	218.59	3.81	-42.1	-43.8	18.7	0.00e+00	90	37	0	29360128	58	6259
2026-01-01 02:24:50.73	218.67	3.87	-41.9	-43.4	19.0	0.00e+00	91	37	0	30408704	58	6018
2026-01-01 02:24:51.74	218.76	3.92	-41.8	-43.4	19.1	0.00e+00	90	37	0	32505856	58	6000
2026-01-01 02:24:52.75	218.85	3.98	-41.9	-43.5	18.9	0.00e+00	92	37	0	34603008	58	6039
2026-01-01 02:24:53.76	218.94	4.04	-41.9	-43.5	18.9	0.00e+00	60	37	0	36700160	58	6082
2026-01-01 02:24:54.77	219.03	4.09	-42.0	-43.6	18.9	0.00e+00	89	37	0	38797312	58	6121
2026-01-01 02:24:55.78	219.12	4.15	-41.9	-43.5	19.0	0.00e+00	37	37	0	39845888	58	6053
2026-01-01 02:24:56.79	219.21	4.21	-41.9	-43.5	19.1	0.00e+00	91	37	0	41943040	58	6063
2026-01-01 02:24:57.80	219.30	4.26	-41.8	-43.4	19.1	0.00e+00	91	37	0	44040192	58	5997
2026-01-01 02:24:58.81	219.39	4.32	-41.9	-43.5	19.1	0.00e+00	91	37	0	46137344	58	6056
2026-01-01 02:24:59.82	219.48	4.37	-41.9	-43.4	19.1	0.00e+00	91	37	0	48234496	58	5998
2026-01-01 02:25:00.83	219.57	4.43	-42.0	-43.6	18.9	0.00e+00	25	37	0	49283072	58	6154
2026-01-01 02:25:01.84	219.66	4.49	-42.1	-43.7	19.0	0.00e+00	92	37	0	51380224	58	6179
2026-01-01 02:25:02.85	219.75	4.54	-41.9	-43.5	19.1	0.00e+00	60	37	0	53477376	58	6068
2026-01-01 02:25:03.86	219.84	4.60	-42.0	-43.6	18.9	0.00e+00	92	37	0	55574528	58	6159
2026-01-01 02:25:04.87	219.93	4.66	-42.1	-43.7	19.0	0.00e+00	92	37	0	57671680	58	6180
2026-01-01 02:25:05.88	220.03	4.71	-41.9	-43.4	19.2	0.00e+00	92	37	0	58720256	58	6015
2026-01-01 02:25:06.88	220.12	4.77	-41.9	-43.5	19.1	0.00e+00	92	37	0	60817408	58	6061
2026-01-01 02:25:07.89	220.21	4.83	-42.0	-43.5	19.1	0.00e+00	22	37	0	62914560	58	6100
2026-01-01 02:25:08.90	220.31	4.88	-42.0	-43.6	19.0	0.00e+00	92	37	0	65011712	58	6137
2026-01-01 02:25:09.91	220.40	4.94	-42.1	-43.7	19.0	0.00e+00	6	37	0	67108864	58	6181
2026-01-01 02:25:10.92	220.49	5.00	-42.1	-43.7	19.0	0.00e+00	92	37	0	68157440	58	6233
2026-01-01 02:25:11.93	220.59	5.05	-42.0	-43.6	19.0	0.00e+00	92	37	0	70254592	58	6131
2026-01-01 02:25:12.94	220.68	5.11	-41.9	-43.5	19.1	0.00e+00	92	37	0	72351744	58	6070
2026-01-01 02:25:13.95	220.78	5.17	-42.0	-43.6	19.0	0.00e+00	90	37	0	74448896	58	6139
2026-01-01 02:25:14.96	220.88	5.23	-42.1	-43.7	19.0	0.00e+00	9	37	0	76546048	58	6178
2026-01-01 02:25:15.97	220.97	5.28	-42.1	-43.7	19.0	0.00e+00	92	37	0	77594624	58	6200
2026-01-01 02:25:16.98	221.07	5.34	-42.2	-43.8	18.9	0.00e+00	0	37	0	79691776	58	6265
2026-01-01 02:25:17.99	221.16	5.40	-42.3	-43.9	18.8	0.00e+00	92	37	0	81788928	58	6338
2026-01-01 02:25:19.00	221.26	5.46	-42.3	-43.9	18.8	0.00e+00	70	37	0	83886080	58	6348
2026-01-01 02:25:20.01	221.36	5.51	-42.3	-43.9	18.8	0.00e+00	92	37	0	85983232	58	6334
2026-01-01 02:25:21.02	221.46	5.57	-42.1	-43.7	19.0	0.00e+00	92	37	0	87031808	58	6183
2026-01-01 02:25:22.03	221.56	5.63	-42.2	-43.8	18.8	0.00e+00	92	37	0	89128960	58	6283
2026-01-01 02:25:23.04	221.65	5.69	-42.2	-43.8	18.9	0.00e+00	92	37	0	91226112	58	6282
2026-01-01 02:25:24.04	221.75	5.74	-42.3	-43.9	18.7	0.00e+00	69	38	0	93323264	58	6377
2026-01-01 02:25:25.05	221.85	5.80	-42.3	-43.9	18.8	0.00e+00	90	37	0	95420416	58	6384
2026-01-01 02:25:26.06	221.95	5.86	-42.1	-43.7	19.0	0.00e+00	64	37	0	97517568	58	6183
2026-01-01 02:25:27.07	222.05	5.92	-42.2	-43.7	18.9	0.00e+00	90	37	0	98566144	58	6242
2026-01-01 02:25:28.08	222.15	5.98	-42.4	-44.0	18.8	0.00e+00	92	38	0	100663296	58	6427
2026-01-01 02:25:29.09	222.25	6.03	-42.3	-44.0	18.7	0.00e+00	92	37	0	102760448	58	6424
2026-01-01 02:25:30.10	222.36	6.09	-42.4	-44.0	18.7	0.00e+00	92	37	0	104857600	58	6462
2026-01-01 02:25:31.11	222.46	6.15	-42.4	-44.1	18.6	0.00e+00	0	38	0	106954752	58	6518
2026-01-01 02:25:32.11	222.56	6.21	-42.4	-44.1	18.6	0.00e+00	92	37	0	108003328	58	6497
2026-01-01 02:25:33.12	222.66	6.27	-42.4	-44.0	18.7	0.00e+00	7	37	0	110100480	58	6453
2026-01-01 02:25:34.13	222.76	6.32	-42.4	-44.1	18.6	0.00e+00	90	38	0	112197632	58	6466
2026-01-01 02:25:35.14	222.87	6.38	-42.5	-44.2	18.6	0.00e+00	92	38	0	114294784	58	6572
2026-01-01 02:25:36.15	222.97	6.44	-42.5	-44.2	18.6	0.00e+00	92	37	0	115343360	58	6587
2026-01-01 02:25:37.16	223.07	6.50	-42.6	-44.3	18.5	0.00e+00	92	38	0	117440512	58	6634
2026-01-01 02:25:38.17	223.18	6.56	-42.7	-44.5	18.3	0.00e+00	92	37	0	119537664	58	6780
2026-01-01 02:25:39.18	223.28	6.62	-42.7	-44.4	18.4	0.00e+00	92	38	0	121634816	58	6708
2026-01-01 02:25:40.19	223.39	6.68	-42.6	-44.2	18.5	0.00e+00	66	38	0	123731968	58	6614
2026-01-01 02:25:41.20	223.50	6.73	-42.6	-44.3	18.5	0.00e+00	92	38	0	125829120	58	6647
2026-01-01 02:25:42.21	223.60	6.79	-42.5	-44.2	18.6	0.00e+00	72	37	0	126877696	58	6578
2026-01-01 02:25:43.22	223.71	6.85	-42.6	-44.3	18.5	0.00e+00	92	37	0	128974848	58	6665
2026-01-01 02:25:44.23	223.82	6.91	-42.7	-44.4	18.5	0.00e+00	90	38	0	131072000	58	6695
2026-01-01 02:25:45.24	223.92	6.97	-42.6	-44.3	18.6	0.00e+00	92	38	0	133169152	58	6629
2026-01-01 02:25:46.25	224.03	7.03	-42.5	-44.2	18.6	0.00e+00	92	38	0	135266304	58	6575
2026-01-01 02:25:47.26	224.14	7.09	-42.6	-44.2	18.6	0.00e+00	0	38	0	136314880	58	6615
2026-01-01 02:25:48.27	224.25	7.15	-42.6	-44.3	18.6	0.00e+00	90	37	0	138412032	58	6632
2026-01-01 02:25:49.28	224.36	7.21	-42.5	-44.2	18.7	0.00e+00	23	38	0	140509184	58	6556
2026-01-01 02:25:50.28	224.46	7.27	-42.6	-44.3	18.6	0.00e+00	92	38	0	142606336	58	6625
2026-01-01 02:25:51.29	224.57	7.32	-42.7	-44.4	18.5	0.00e+00	92	38	0	144703488	58	6724
2026-01-01 02:25:52.30	224.69	7.38	-42.6	-44.2	18.6	0.00e+00	90	38	0	145752064	58	6613
2026-01-01 02:25:53.31	224.80	7.44	-42.5	-44.2	18.7	0.00e+00	92	38	0	147849216	58	6557
2026-01-01 02:25:54.32	224.91	7.50	-42.4	-44.1	18.8	0.00e+00	52	38	0	149946368	58	6481
2026-01-01 02:25:55.33	225.02	7.56	-42.6	-44.2	18.6	0.00e+00	92	38	0	152043520	58	6584
2026-01-01 02:25:56.34	225.13	7.62	-42.5	-44.1	18.8	0.00e+00	0	38	0	154140672	58	6514
2026-01-01 02:25:57.35	225.24	7.68	-42.5	-44.1	18.8	0.00e+00	90	38	0	155189248	58	6506
2026-01-01 02:25:58.36	225.36	7.74	-42.7	-44.3	18.6	0.00e+00	92	38	0	157286400	58	6672
2026-01-01 02:25:59.37	225.47	7.80	-42.6	-44.3	18.6	0.00e+00	91	38	0	159383552	58	6646
2026-01-01 02:26:00.38	225.58	7.86	-42.6	-44.2	18.7	0.00e+00	91	38	0	161480704	58	6601
2026-01-01 02:26:01.39	225.70	7.92	-42.7	-44.3	18.6	0.00e+00	90	38	0	163577856	58	6675
2026-01-01 02:26:02.40	225.81	7.98	-42.7	-44.4	18.5	0.00e+00	91	38	0	164626432	58	6706
2026-01-01 02:26:03.41	225.93	8.04	-42.6	-44.3	18.7	0.00e+00	6	38	0	166723584	58	6618
2026-01-01 02:26:04.42	226.04	8.10	-42.7	-44.3	18.6	0.00e+00	92	38	0	168820736	58	6658
2026-01-01 02:26:05.43	226.16	8.16	-42.7	-44.3	18.7	0.00e+00	62	38	0	170917888	58	6655
2026-01-01 02:26:06.44	226.28	8.22	-42.7	-44.3	18.6	0.00e+00	91	38	0	173015040	58	6667
2026-01-01 02:26:07.45	226.39	8.28	-42.6	-44.3	18.7	0.00e+00	90	38	0	174063616	58	6650
2026-01-01 02:26:08.46	226.51	8.34	-42.6	-44.2	18.8	0.00e+00	91	38	0	176160768	58	6562
2026-01-01 02:26:09.47	226.63	8.40	-42.5	-44.2	18.8	0.00e+00	90	38	0	178257920	58	6541
2026-01-01 02:26:10.48	226.75	8.46	-42.5	-44.2	18.8	0.00e+00	12	38	0	180355072	58	6545
2026-01-01 02:26:11.49	226.87	8.52	-42.5	-44.1	18.9	0.00e+00	92	38	0	182452224	58	6525
2026-01-01 02:26:12.49	226.98	8.58	-42.5	-44.1	18.8	0.00e+00	0	38	0	183500800	58	6507
2026-01-01 02:26:13.50	227.10	8.64	-42.5	-44.1	18.9	0.00e+00	91	38	0	185597952	58	6509
2026-01-01 02:26:14.51	227.23	8.70	-42.5	-44.1	18.9	0.00e+00	94	38	0	187695104	58	6514
2026-01-01 02:26:15.52	227.35	8.76	-42.5	-44.1	18.9	0.00e+00	92	38	0	189792256	58	6527
2026-01-01 02:26:16.53	227.47	8.82	-42.6	-44.2	18.8	0.00e+00	90	38	0	191889408	58	6587
2026-01-01 02:26:17.54	227.59	8.88	-42.5	-44.1	18.8	0.00e+00	92	38	0	193986560	58	6502
2026-01-01 02:26:18.55	227.71	8.94	-42.6	-44.3	18.8	0.00e+00	90	37	0	195035136	58	6631
2026-01-01 02:26:19.56	227.83	9.00	-42.6	-44.3	18.7	0.00e+00	0	38	0	197132288	58	6644
2026-01-01 02:26:20.57	227.96	9.06	-42.8	-44.4	18.6	0.00e+00	92	38	0	199229440	58	6763
2026-01-01 02:26:21.58	228.08	9.12	-42.8	-44.5	18.5	0.00e+00	91	38	0	201326592	58	6780
2026-01-01 02:26:22.59	228.21	9.18	-42.7	-44.4	18.6	0.00e+00	90	38	0	203423744	58	6734
2026-01-01 02:26:23.60	228.33	9.24	-42.8	-44.4	18.6	0.00e+00	92	38	0	204472320	58	6742
2026-01-01 02:26:24.61	228.46	9.30	-42.7	-44.3	18.7	0.00e+00	92	38	0	206569472	58	6664
2026-01-01 02:26:25.62	228.58	9.37	-42.7	-44.4	18.6	0.00e+00	90	38	0	208666624	58	6728
2026-01-01 02:26:26.63	228.71	9.43	-42.7	-44.3	18.7	0.00e+00	70	38	0	210763776	58	6689
2026-01-01 02:26:27.64	228.83	9.49	-42.7	-44.4	18.7	0.00e+00	90	38	0	212860928	58	6707
2026-01-01 02:26:28.65	228.96	9.55	-42.7	-44.4	18.7	0.00e+00	37	38	0	213909504	58	6702
2026-01-01 02:26:29.66	229.09	9.61	-42.7	-44.3	18.7	0.00e+00	92	38	0	216006656	58	6681
2026-01-01 02:26:30.67	229.22	9.67	-42.7	-44.3	18.7	0.00e+00	92	38	0	218103808	58	6691
2026-01-01 02:26:31.68	229.35	9.73	-42.7	-44.3	18.8	0.00e+00	92	38	0	220200960	58	6667
2026-01-01 02:26:32.68	229.47	9.79	-42.7	-44.4	18.7	0.00e+00	92	38	0	222298112	58	6694
2026-01-01 02:26:33.69	229.60	9.85	-42.7	-44.3	18.7	0.00e+00	64	38	0	223346688	58	6689
2026-01-01 02:26:34.70	229.73	9.91	-42.8	-44.4	18.7	0.00e+00	92	38	0	225443840	58	6738
2026-01-01 02:26:35.72	229.87	9.97	-42.8	-44.5	18.6	0.00e+00	12	38	0	227540992	58	6794
2026-01-01 02:26:36.72	230.00	10.03	-42.7	-44.3	18.8	0.00e+00	92	38	0	229638144	58	6656
2026-01-01 02:26:37.73	230.13	10.09	-42.5	-44.1	18.9	0.00e+00	90	38	0	231735296	58	6497
2026-01-01 02:26:38.74	230.26	10.16	-42.5	-44.1	19.0	0.00e+00	92	38	0	232783872	58	6506
2026-01-01 02:26:39.75	230.39	10.22	-42.6	-44.2	18.9	0.00e+00	92	38	0	234881024	58	6598
2026-01-01 02:26:40.76	230.53	10.28	-42.4	-44.0	19.0	0.00e+00	92	38	0	236978176	58	6432
2026-01-01 02:26:41.77	230.66	10.34	-42.5	-44.0	19.0	0.00e+00	92	38	0	239075328	58	6451
2026-01-01 02:26:42.78	230.80	10.40	-42.4	-44.0	19.1	0.00e+00	48	38	0	241172480	58	6421
2026-01-01 02:26:43.79	230.93	10.46	-42.4	-43.9	19.2	0.00e+00	92	38	0	242221056	58	6355
2026-01-01 02:26:44.80	231.07	10.52	-42.4	-44.0	19.2	0.00e+00	90	38	0	244318208	58	6398
2026-01-01 02:26:45.81	231.20	10.58	-42.5	-44.1	19.0	0.00e+00	90	38	0	246415360	58	6469
2026-01-01 02:26:46.82	231.34	10.64	-42.2	-43.8	19.3	0.00e+00	92	38	0	248512512	58	6249
2026-01-01 02:26:47.83	231.48	10.70	-42.3	-43.8	19.3	0.00e+00	90	38	0	250609664	58	6294
2026-01-01 02:26:48.83	231.61	10.77	-42.3	-43.8	19.3	0.00e+00	92	38	0	251658240	58	6255
2026-01-01 02:26:49.84	231.75	10.83	-42.3	-43.9	19.2	0.00e+00	65	38	0	253755392	58	6320
2026-01-01 02:26:50.85	231.89	10.89	-42.2	-43.6	19.4	0.00e+00	92	38	0	255852544	58	6167
2026-01-01 02:26:51.86	232.03	10.95	-42.2	-43.7	19.4	0.00e+00	89	38	0	257949696	58	6233
2026-01-01 02:26:52.87	232.17	11.01	-42.3	-43.8	19.3	0.00e+00	92	38	0	260046848	58	6304
2026-01-01 02:26:53.88	232.31	11.07	-42.1	-43.6	19.5	0.00e+00	90	38	0	262144000	58	6154
2026-01-01 02:26:54.89	232.45	11.13	-42.1	-43.6	19.5	0.00e+00	92	38	0	263192576	58	6139
2026-01-01 02:26:55.90	232.60	11.19	-42.2	-43.6	19.4	0.00e+00	92	38	0	265289728	58	6160
2026-01-01 02:26:56.91	232.74	11.25	-42.2	-43.7	19.4	0.00e+00	16	38	0	267386880	58	6181
2026-01-01 02:26:57.92	232.88	11.32	-42.3	-43.8	19.3	0.00e+00	92	38	0	269484032	58	6268
2026-01-01 02:26:58.92	233.02	11.38	-42.2	-43.7	19.4	0.00e+00	0	38	0	271581184	58	6227
2026-01-01 02:26:59.93	233.17	11.44	-42.2	-43.7	19.5	0.00e+00	92	38	0	272629760	58	6202
2026-01-01 02:27:00.94	233.31	11.50	-42.2	-43.6	19.4	0.00e+00	91	38	0	274726912	58	6164
2026-01-01 02:27:01.95	233.46	11.56	-42.2	-43.7	19.5	0.00e+00	92	38	0	276824064	58	6190
2026-01-01 02:27:02.96	233.60	11.62	-42.1	-43.5	19.6	0.00e+00	90	38	0	278921216	58	6085
2026-01-01 02:27:03.97	233.75	11.68	-42.2	-43.6	19.6	0.00e+00	86	38	0	281018368	58	6172
2026-01-01 02:27:04.98	233.90	11.74	-42.1	-43.6	19.6	0.00e+00	90	38	0	282066944	58	6128
2026-01-01 02:27:05.99	234.04	11.80	-41.9	-43.3	19.7	0.00e+00	0	38	0	284164096	58	5947
2026-01-01 02:27:07.00	234.19	11.86	-41.9	-43.3	19.8	0.00e+00	92	38	0	286261248	58	5909
2026-01-01 02:27:08.00	234.34	11.92	-42.0	-43.4	19.6	0.00e+00	92	38	0	288358400	58	6012
2026-01-01 02:27:09.01	234.49	11.99	-41.8	-43.2	19.8	0.00e+00	92	38	0	290455552	58	5887
2026-01-01 02:27:10.02	234.64	12.05	-41.8	-43.2	19.9	0.00e+00	90	38	0	291504128	56	6580
2026-01-01 02:27:11.03	234.79	12.11	-41.9	-43.3	19.9	0.00e+00	92	38	0	293601280	56	6621
2026-01-01 02:27:12.04	234.94	12.17	-41.8	-43.1	19.9	0.00e+00	92	38	0	295698432	56	6534
2026-01-01 02:27:13.05	235.09	12.23	-41.8	-43.2	19.9	0.00e+00	22	38	0	297795584	56	6572
2026-01-01 02:27:14.06	235.25	12.29	-41.6	-43.0	20.1	0.00e+00	92	38	0	299892736	56	6422
2026-01-01 02:27:15.07	235.40	12.35	-41.6	-43.0	20.1	0.00e+00	10	38	0	300941312	56	6398
2026-01-01 02:27:16.08	235.55	12.41	-41.5	-42.9	20.2	0.00e+00	92	38	0	303038464	56	6321
2026-01-01 02:27:17.09	235.71	12.47	-41.4	-42.7	20.4	0.00e+00	91	38	0	305135616	56	6200
2026-01-01 02:27:18.10	235.86	12.53	-41.3	-42.6	20.5	0.00e+00	92	38	0	307232768	56	6163
2026-01-01 02:27:19.11	236.02	12.59	-41.2	-42.5	20.6	0.00e+00	92	38	0	309329920	56	6066
2026-01-01 02:27:20.12	236.17	12.65	-41.1	-42.4	20.7	0.00e+00	0	38	0	310378496	56	5975
2026-01-01 02:27:21.12	236.33	12.71	-41.1	-42.4	20.7	0.00e+00	92	38	0	312475648	56	5971
2026-01-01 02:27:22.13	236.49	12.77	-41.1	-42.4	20.7	0.00e+00	0	38	0	314572800	56	5985
2026-01-01 02:27:23.14	236.64	12.83	-41.0	-42.2	20.9	0.00e+00	92	38	0	316669952	56	5852
2026-01-01 02:27:24.15	236.80	12.89	-41.0	-42.2	20.9	0.00e+00	90	38	0	318767104	56	5850
2026-01-01 02:27:25.16	236.96	12.96	-41.0	-42.3	20.8	0.00e+00	92	38	0	319815680	56	5906
2026-01-01 02:27:26.17	237.12	13.02	-40.9	-42.1	21.0	0.00e+00	90	38	0	321912832	56	5813
2026-01-01 02:27:27.18	237.28	13.08	-40.7	-41.8	21.2	0.00e+00	0	38	0	324009984	54	6298
2026-01-01 02:27:28.19	237.44	13.14	-40.6	-41.8	21.3	0.00e+00	91	38	0	326107136	54	6248
2026-01-01 02:27:29.20	237.60	13.20	-40.5	-41.7	21.1	0.00e+00	72	38	0	328204288	54	6177
2026-01-01 02:27:30.21	237.77	13.26	-40.7	-41.8	21.2	0.00e+00	91	38	0	330301440	54	6310
2026-01-01 02:27:31.22	237.93	13.32	-40.5	-41.7	21.4	0.00e+00	91	38	0	331350016	54	6182
2026-01-01 02:27:32.23	238.09	13.38	-40.6	-41.7	21.4	0.00e+00	92	38	0	333447168	54	6219
2026-01-01 02:27:33.24	238.26	13.44	-40.6	-41.8	21.3	0.00e+00	91	38	0	335544320	54	6255
2026-01-01 02:27:34.25	238.42	13.50	-40.6	-41.7	21.3	0.00e+00	74	38	0	337641472	54	6230
2026-01-01 02:27:35.26	238.59	13.56	-40.6	-41.7	21.4	0.00e+00	91	38	0	339738624	54	6230
2026-01-01 02:27:36.27	238.76	13.62	-40.7	-41.8	21.3	0.00e+00	8	38	0	340787200	54	6314
2026-01-01 02:27:37.28	238.92	13.68	-40.4	-41.6	21.6	0.00e+00	91	38	0	342884352	54	6113
2026-01-01 02:27:38.29	239.09	13.73	-40.4	-41.6	21.5	0.00e+00	0	38	0	344981504	54	6113
2026-01-01 02:27:39.29	239.26	13.79	-40.3	-41.4	21.7	0.00e+00	92	38	0	347078656	54	6028
2026-01-01 02:27:40.30	239.43	13.85	-40.2	-41.3	21.8	0.00e+00	91	38	0	349175808	54	5906
2026-01-01 02:27:41.31	239.59	13.91	-40.2	-41.3	21.9	0.00e+00	92	38	0	350224384	54	5918
2026-01-01 02:27:42.32	239.77	13.97	-40.2	-41.3	21.8	0.00e+00	92	38	0	352321536	54	5931
2026-01-01 02:27:43.33	239.94	14.03	-40.1	-41.2	21.9	0.00e+00	6	38	0	354418688	54	5856
2026-01-01 02:27:44.34	240.11	14.09	-40.1	-41.2	22.0	0.00e+00	92	38	0	356515840	54	5838
2026-01-01 02:27:45.35	240.28	14.15	-40.0	-41.1	22.0	0.00e+00	0	38	0	358612992	54	5775
2026-01-01 02:27:46.36	240.45	14.21	-40.0	-41.1	22.0	0.00e+00	92	38	0	359661568	54	5794
2026-01-01 02:27:47.37	240.63	14.27	-40.0	-41.1	22.1	0.00e+00	92	38	0	361758720	54	5763
2026-01-01 02:27:48.38	240.80	14.32	-39.8	-40.8	22.3	0.00e+00	92	38	0	363855872	54	5621
2026-01-01 02:27:49.39	240.97	14.38	-39.6	-40.6	22.5	0.00e+00	92	38	0	365953024	52	6158
2026-01-01 02:27:50.40	241.15	14.44	-39.5	-40.4	22.7	0.00e+00	65	38	0	368050176	52	6025
2026-01-01 02:27:51.41	241.33	14.50	-39.3	-40.3	22.8	0.00e+00	92	38	0	369098752	52	5901
2026-01-01 02:27:52.42	241.50	14.56	-39.3	-40.3	22.8	0.00e+00	19	38	0	371195904	52	5914
2026-01-01 02:27:53.43	241.68	14.62	-39.2	-40.1	23.0	0.00e+00	92	38	0	373293056	52	5806
2026-01-01 02:27:54.44	241.86	14.67	-39.2	-40.2	23.0	0.00e+00	72	38	0	375390208	52	5846
2026-01-01 02:27:55.45	242.04	14.73	-39.2	-40.1	22.9	0.00e+00	92	38	0	377487360	52	5802
2026-01-01 02:27:56.45	242.22	14.79	-39.2	-40.2	22.9	0.00e+00	90	38	0	378535936	52	5835
2026-01-01 02:27:57.46	242.40	14.85	-39.0	-39.9	23.2	0.00e+00	92	38	0	380633088	52	5666
2026-01-01 02:27:58.48	242.58	14.91	-38.9	-39.9	23.2	0.00e+00	90	38	0	382730240	52	5640
2026-01-01 02:27:59.48	242.76	14.96	-38.8	-39.7	23.4	0.00e+00	12	38	0	384827392	52	5517
2026-01-01 02:28:00.49	242.94	15.02	-38.7	-39.6	23.5	0.00e+00	92	38	0	386924544	50	6124
2026-01-01 02:28:01.50	243.12	15.08	-38.6	-39.5	23.6	0.00e+00	0	38	0	387973120	50	6077
2026-01-01 02:28:02.51	243.31	15.13	-38.4	-39.2	23.8	0.00e+00	90	38	0	390070272	50	5887
2026-01-01 02:28:03.52	243.49	15.19	-38.4	-39.2	23.8	0.00e+00	92	38	0	392167424	50	5885
2026-01-01 02:28:04.53	243.68	15.25	-38.5	-39.4	23.6	0.00e+00	92	38	0	394264576	50	6001
2026-01-01 02:28:05.54	243.86	15.30	-38.3	-39.2	23.9	0.00e+00	92	38	0	396361728	50	5856
2026-01-01 02:28:06.55	244.05	15.36	-38.3	-39.2	23.8	0.00e+00	0	38	0	397410304	50	5876
2026-01-01 02:28:07.56	244.24	15.42	-38.4	-39.3	23.7	0.00e+00	92	38	0	399507456	50	5922
2026-01-01 02:28:08.57	244.42	15.47	-38.4	-39.3	23.7	0.00e+00	0	38	0	401604608	50	5922
2026-01-01 02:28:09.58	244.61	15.53	-38.5	-39.4	23.7	0.00e+00	92	38	0	403701760	50	5977
2026-01-01 02:28:10.59	244.80	15.58	-38.5	-39.4	23.6	0.00e+00	92	38	0	405798912	50	6029
2026-01-01 02:28:11.60	244.99	15.64	-38.5	-39.4	23.6	0.00e+00	92	38	0	406847488	50	6029
2026-01-01 02:28:12.61	245.18	15.69	-38.7	-39.6	23.4	0.00e+00	92	38	0	408944640	50	6140
2026-01-01 02:28:13.62	245.37	15.75	-38.5	-39.4	23.7	0.00e+00	92	38	0	411041792	50	6019
2026-01-01 02:28:14.63	245.56	15.80	-38.4	-39.3	23.7	0.00e+00	92	38	0	413138944	50	5910
2026-01-01 02:28:15.64	245.76	15.86	-38.3	-39.2	23.9	0.00e+00	25	38	0	415236096	50	5859
2026-01-01 02:28:16.65	245.95	15.91	-38.4	-39.2	23.8	0.00e+00	89	38	0	416284672	50	5878
2026-01-01 02:28:17.66	246.14	15.97	-38.5	-39.4	23.6	0.00e+00	90	38	0	418381824	50	5970
2026-01-01 02:28:18.67	246.34	16.02	-38.5	-39.4	23.6	0.00e+00	92	38	0	420478976	50	6021
2026-01-01 02:28:19.68	246.53	16.08	-38.5	-39.4	23.6	0.00e+00	90	38	0	422576128	50	6019
2026-01-01 02:28:20.68	246.73	16.13	-38.7	-39.6	23.4	0.00e+00	92	38	0	424673280	50	6134
2026-01-01 02:28:21.70	246.92	16.19	-38.8	-39.7	23.4	0.00e+00	90	38	0	426770432	50	6229
2026-01-01 02:28:22.71	247.12	16.24	-38.9	-39.9	23.2	0.00e+00	12	38	0	427819008	50	6325
2026-01-01 02:28:23.72	247.32	16.29	-39.1	-40.0	23.2	0.00e+00	92	38	0	429916160	50	6435
2026-01-01 02:28:24.72	247.52	16.34	-39.1	-40.0	23.1	0.00e+00	22	38	0	432013312	50	6464
2026-01-01 02:28:25.73	247.72	16.40	-39.0	-39.9	23.2	0.00e+00	92	38	0	434110464	50	6351
2026-01-01 02:28:26.74	247.92	16.45	-39.0	-39.9	23.2	0.00e+00	92	38	0	436207616	50	6367
2026-01-01 02:28:27.75	248.12	16.50	-38.9	-39.9	23.3	0.00e+00	88	38	0	437256192	50	6333
2026-01-01 02:28:28.76	248.32	16.56	-38.9	-39.9	23.3	0.00e+00	90	38	0	439353344	50	6319
2026-01-01 02:28:29.77	248.52	16.61	-38.9	-39.8	23.3	0.00e+00	67	38	0	441450496	50	6279
2026-01-01 02:28:30.78	248.72	16.66	-38.9	-39.9	23.3	0.00e+00	90	38	0	443547648	50	6319
2026-01-01 02:28:31.79	248.93	16.71	-39.1	-40.0	23.1	0.00e+00	0	38	0	445644800	50	6434
2026-01-01 02:28:32.80	249.13	16.76	-39.1	-40.1	23.0	0.00e+00	92	38	0	446693376	50	6496
2026-01-01 02:28:33.81	249.33	16.81	-39.3	-40.2	22.9	0.00e+00	92	38	0	448790528	50	6587
2026-01-01 02:28:34.82	249.54	16.86	-39.3	-40.3	22.9	0.00e+00	90	38	0	450887680	50	6618
2026-01-01 02:28:35.83	249.75	16.91	-39.3	-40.3	22.8	0.00e+00	91	38	0	452984832	50	6665
2026-01-01 02:28:36.84	249.95	16.97	-39.4	-40.4	22.8	0.00e+00	92	38	0	455081984	50	6740
2026-01-01 02:28:37.84	250.16	17.01	-39.4	-40.3	22.8	0.00e+00	90	38	0	456130560	50	6669
2026-01-01 02:28:38.85	250.37	17.06	-39.4	-40.4	22.8	0.00e+00	9	38	0	458227712	50	6740
2026-01-01 02:28:39.86	250.57	17.11	-39.4	-40.4	22.8	0.00e+00	92	38	0	460324864	50	6739
2026-01-01 02:28:40.87	250.78	17.16	-39.4	-40.3	22.9	0.00e+00	61	38	0	462422016	50	6682
2026-01-01 02:28:41.88	250.99	17.21	-39.4	-40.4	22.8	0.00e+00	90	38	0	464519168	50	6717
2026-01-01 02:28:42.89	251.20	17.26	-39.4	-40.4	22.8	0.00e+00	92	38	0	465567744	50	6740
2026-01-01 02:28:43.90	251.42	17.31	-39.5	-40.5	22.7	0.00e+00	81	38	0	467664896	50	6837
2026-01-01 02:28:44.90	251.63	17.36	-39.6	-40.6	22.6	0.00e+00	92	38	0	469762048	50	6923
2026-01-01 02:28:45.91	251.84	17.41	-39.8	-40.9	22.5	0.00e+00	0	38	0	471859200	52	6323
2026-01-01 02:28:46.92	252.05	17.45	-39.9	-40.9	22.4	0.00e+00	90	38	0	473956352	52	6386
2026-01-01 02:28:47.94	252.27	17.50	-40.0	-41.1	22.2	0.00e+00	6	38	0	475004928	52	6495
2026-01-01 02:28:48.95	252.48	17.55	-40.1	-41.1	22.1	0.00e+00	92	38	0	477102080	52	6534
2026-01-01 02:28:49.96	252.70	17.60	-40.2	-41.3	22.0	0.00e+00	92	38	0	479199232	52	6651
2026-01-01 02:28:50.97	252.91	17.64	-40.3	-41.3	21.9	0.00e+00	92	38	0	481296384	52	6675
2026-01-01 02:28:51.98	253.13	17.69	-40.4	-41.5	21.8	0.00e+00	90	38	0	483393536	52	6798
2026-01-01 02:28:52.98	253.35	17.73	-40.3	-41.3	22.0	0.00e+00	67	38	0	484442112	52	6684
2026-01-01 02:28:53.99	253.56	17.78	-40.4	-41.4	21.9	0.00e+00	92	38	0	486539264	52	6762
2026-01-01 02:28:55.01	253.78	17.82	-40.6	-41.7	21.7	0.00e+00	56	38	0	488636416	52	6968
2026-01-01 02:28:56.02	254.00	17.87	-40.7	-41.8	21.5	0.00e+00	92	38	0	490733568	52	7024
2026-01-01 02:28:57.02	254.22	17.91	-40.8	-41.9	21.4	0.00e+00	92	38	0	492830720	54	6371
2026-01-01 02:28:58.03	254.44	17.96	-40.9	-42.0	21.4	0.00e+00	90	38	0	494927872	54	6451
2026-01-01 02:28:59.04	254.66	18.00	-41.0	-42.1	21.2	0.00e+00	92	38	0	495976448	54	6532
2026-01-01 02:29:00.06	254.89	18.05	-40.7	-41.9	21.5	0.00e+00	18	38	0	498073600	54	6348
2026-01-01 02:29:01.06	255.11	18.09	-40.6	-41.7	21.6	0.00e+00	92	38	0	500170752	54	6241
2026-01-01 02:29:02.07	255.33	18.13	-40.5	-41.7	21.1	0.00e+00	6	38	0	502267904	54	6184
2026-01-01 02:29:03.08	255.55	18.17	-40.4	-41.4	21.9	0.00e+00	92	38	0	504365056	54	6031
2026-01-01 02:29:04.09	255.78	18.22	-40.2	-41.3	22.0	0.00e+00	90	38	0	505413632	54	5898
2026-01-01 02:29:05.10	256.00	18.26	-40.2	-41.3	22.0	0.00e+00	92	38	0	507510784	54	5904
2026-01-01 02:29:06.11	256.23	18.30	-40.1	-41.2	22.2	0.00e+00	92	38	0	509607936	54	5845
2026-01-01 02:29:07.12	256.45	18.34	-40.2	-41.3	22.1	0.00e+00	0	38	0	511705088	54	5903
2026-01-01 02:29:08.13	256.68	18.38	-40.1	-41.2	22.0	0.00e+00	92	38	0	513802240	54	5865
2026-01-01 02:29:09.14	256.91	18.42	-40.3	-41.4	21.9	0.00e+00	2	38	0	514850816	54	5995
2026-01-01 02:29:10.15	257.13	18.46	-40.4	-41.5	21.8	0.00e+00	92	38	0	516947968	54	6068
2026-01-01 02:29:11.16	257.36	18.50	-40.5	-41.6	21.7	0.00e+00	0	38	0	519045120	54	6158
2026-01-01 02:29:12.17	257.59	18.54	-40.4	-41.5	21.8	0.00e+00	92	38	0	521142272	54	6103
2026-01-01 02:29:13.18	257.82	18.58	-40.5	-41.6	21.7	0.00e+00	90	38	0	523239424	54	6124
2026-01-01 02:29:14.19	258.05	18.62	-40.3	-41.3	22.0	0.00e+00	0	38	0	524288000	54	5960
2026-01-01 02:29:15.20	258.28	18.66	-40.0	-41.1	22.2	0.00e+00	90	38	0	526385152	54	5788
2026-01-01 02:29:16.21	258.51	18.70	-39.9	-40.9	22.4	0.00e+00	73	38	0	528482304	54	5680
2026-01-01 02:29:17.22	258.74	18.73	-39.8	-40.8	22.4	0.00e+00	92	38	0	530579456	54	5619
2026-01-01 02:29:18.23	258.97	18.77	-39.9	-40.9	22.3	0.00e+00	18	38	0	532676608	54	5695
2026-01-01 02:29:19.24	259.21	18.81	-40.0	-41.1	22.2	0.00e+00	90	38	0	533725184	54	5777
2026-01-01 02:29:20.25	259.44	18.84	-39.9	-41.0	22.4	0.00e+00	92	38	0	535822336	54	5712
2026-01-01 02:29:21.26	259.67	18.88	-39.8	-40.8	22.4	0.00e+00	92	38	0	537919488	54	5613
2026-01-01 02:29:22.26	259.91	18.91	-39.9	-40.9	22.3	0.00e+00	92	38	0	540016640	54	5658
2026-01-01 02:29:23.27	260.14	18.95	-39.9	-40.9	22.4	0.00e+00	0	38	0	542113792	54	5655
2026-01-01 02:29:24.28	260.38	18.98	-39.9	-41.0	22.3	0.00e+00	92	38	0	543162368	54	5706
2026-01-01 02:29:25.29	260.61	19.02	-40.0	-41.0	22.3	0.00e+00	18	38	0	545259520	54	5744
2026-01-01 02:29:26.30	260.85	19.05	-40.0	-41.0	22.2	0.00e+00	92	38	0	547356672	54	5761
2026-01-01 02:29:27.31	261.08	19.08	-40.1	-41.1	22.2	0.00e+00	86	38	0	549453824	54	5824
2026-01-01 02:29:28.32	261.32	19.12	-40.3	-41.3	22.0	0.00e+00	92	38	0	551550976	54	5934
2026-01-01 02:29:29.33	261.56	19.15	-40.0	-41.1	22.2	0.00e+00	92	38	0	552599552	54	5775
2026-01-01 02:29:30.34	261.80	19.18	-40.1	-41.1	22.2	0.00e+00	0	38	0	554696704	54	5803
2026-01-01 02:29:31.35	262.04	19.21	-40.1	-41.1	22.2	0.00e+00	92	38	0	556793856	54	5822
2026-01-01 02:29:32.36	262.28	19.24	-40.0	-41.0	22.3	0.00e+00	0	38	0	558891008	54	5743
2026-01-01 02:29:33.37	262.52	19.27	-39.8	-40.9	22.5	0.00e+00	92	38	0	560988160	54	5635
2026-01-01 02:29:34.38	262.76	19.31	-39.7	-40.7	22.6	0.00e+00	0	38	0	563085312	52	6218
2026-01-01 02:29:35.39	263.00	19.33	-39.6	-40.6	22.6	0.00e+00	92	38	0	564133888	52	6142
2026-01-01 02:29:36.39	263.24	19.36	-39.7	-40.7	22.7	0.00e+00	90	38	0	566231040	52	6179
2026-01-01 02:29:37.40	263.48	19.39	-39.6	-40.6	22.7	0.00e+00	92	38	0	568328192	52	6124
2026-01-01 02:29:38.41	263.72	19.42	-39.7	-40.7	22.7	0.00e+00	92	38	0	570425344	52	6192
2026-01-01 02:29:39.42	263.96	19.45	-39.7	-40.7	22.7	0.00e+00	0	38	0	572522496	52	6188
2026-01-01 02:29:40.43	264.20	19.48	-39.8	-40.8	22.5	0.00e+00	92	38	0	573571072	52	6274
2026-01-01 02:29:41.44	264.45	19.50	-39.9	-40.9	22.5	0.00e+00	9	38	0	575668224	52	6367
2026-01-01 02:29:42.45	264.69	19.53	-39.9	-40.9	22.5	0.00e+00	92	38	0	577765376	52	6333
2026-01-01 02:29:43.46	264.94	19.56	-39.8	-40.8	22.5	0.00e+00	92	38	0	579862528	52	6308
2026-01-01 02:29:44.46	265.18	19.58	-39.8	-40.8	22.5	0.00e+00	92	38	0	581959680	52	6265
2026-01-01 02:29:45.47	265.42	19.61	-39.8	-40.8	22.6	0.00e+00	92	38	0	583008256	52	6296
2026-01-01 02:29:46.48	265.67	19.63	-39.7	-40.7	22.7	0.00e+00	5	38	0	585105408	52	6174
2026-01-01 02:29:47.49	265.91	19.65	-39.6	-40.6	22.8	0.00e+00	92	38	0	587202560	52	6127
2026-01-01 02:29:48.50	266.16	19.68	-39.6	-40.5	22.8	0.00e+00	7	38	0	589299712	52	6102
2026-01-01 02:29:49.51	266.40	19.70	-39.5	-40.5	22.7	0.00e+00	90	38	0	591396864	52	6084
2026-01-01 02:29:50.52	266.65	19.72	-39.6	-40.5	22.8	0.00e+00	41	38	0	592445440	52	6100
2026-01-01 02:29:51.53	266.90	19.74	-39.7	-40.7	22.6	0.00e+00	92	38	0	594542592	52	6194
2026-01-01 02:29:52.53	267.14	19.77	-39.6	-40.6	22.7	0.00e+00	92	38	0	596639744	52	6145
2026-01-01 02:29:53.54	267.39	19.79	-39.5	-40.5	22.8	0.00e+00	92	38	0	598736896	52	6065
2026-01-01 02:29:54.55	267.64	19.81	-39.7	-40.7	22.7	0.00e+00	92	38	0	600834048	52	6174
2026-01-01 02:29:55.57	267.89	19.83	-39.6	-40.6	22.8	0.00e+00	70	38	0	601882624	52	6111
2026-01-01 02:29:56.57	268.14	19.85	-39.6	-40.5	22.7	0.00e+00	92	38	0	603979776	52	6097
2026-01-01 02:29:57.58	268.39	19.87	-39.4	-40.4	23.0	0.00e+00	0	38	0	606076928	52	5972
2026-01-01 02:29:58.59	268.63	19.88	-39.2	-40.2	23.1	0.00e+00	92	38	0	608174080	52	5831
2026-01-01 02:29:59.61	268.89	19.90	-39.3	-40.3	23.0	0.00e+00	92	38	0	610271232	52	5934
2026-01-01 02:30:00.61	269.13	19.92	-39.2	-40.1	23.2	0.00e+00	92	38	0	611319808	52	5803
2026-01-01 02:30:01.62	269.38	19.94	-39.3	-40.2	23.0	0.00e+00	92	38	0	613416960	52	5871
2026-01-01 02:30:02.63	269.63	19.95	-39.3	-40.2	23.0	0.00e+00	66	38	0	615514112	52	5896
2026-01-01 02:30:03.64	269.88	19.97	-39.5	-40.5	22.8	0.00e+00	92	38	0	617611264	52	6037
2026-01-01 02:30:04.65	270.14	19.98	-39.7	-40.7	22.6	0.00e+00	66	38	0	619708416	52	6232
2026-01-01 02:30:05.66	270.39	20.00	-39.9	-41.0	22.4	0.00e+00	92	38	0	620756992	52	6399
2026-01-01 02:30:06.67	270.64	20.01	-40.2	-41.2	22.1	0.00e+00	50	38	0	622854144	52	6599
2026-01-01 02:30:07.68	270.89	20.03	-40.3	-41.4	22.0	0.00e+00	92	38	0	624951296	52	6741
2026-01-01 02:30:08.69	271.14	20.04	-40.5	-41.6	21.8	0.00e+00	92	38	0	627048448	52	6852
2026-01-01 02:30:09.70	271.39	20.05	-40.4	-41.5	21.9	0.00e+00	92	38	0	629145600	52	6779
2026-01-01 02:30:10.71	271.64	20.06	-40.2	-41.2	22.2	0.00e+00	92	38	0	631242752	52	6577
2026-01-01 02:30:11.71	271.89	20.08	-40.2	-41.3	22.2	0.00e+00	0	38	0	632291328	52	6617
2026-01-01 02:30:12.72	272.15	20.09	-39.9	-40.9	22.5	0.00e+00	90	38	0	634388480	52	6354
2026-01-01 02:30:13.73	272.40	20.10	-39.6	-40.6	22.8	0.00e+00	34	38	0	636485632	52	6159
2026-01-01 02:30:14.74	272.65	20.11	-39.8	-40.8	22.6	0.00e+00	92	38	0	638582784	52	6267
2026-01-01 02:30:15.75	272.90	20.12	-39.6	-40.6	22.7	0.00e+00	92	38	0	639631360	52	6146
2026-01-01 02:30:16.76	273.16	20.12	-39.7	-40.7	22.6	0.00e+00	92	38	0	641728512	52	6211
2026-01-01 02:30:17.77	273.41	20.13	-39.8	-40.9	22.5	0.00e+00	90	38	0	643825664	52	6322
2026-01-01 02:30:18.78	273.66	20.14	-39.9	-40.9	22.4	0.00e+00	0	38	0	645922816	52	6359
2026-01-01 02:30:19.79	273.92	20.15	-40.1	-41.1	22.2	0.00e+00	92	38	0	648019968	52	6538
2026-01-01 02:30:20.80	274.17	20.15	-40.1	-41.1	22.2	0.00e+00	0	38	0	649068544	52	6511
2026-01-01 02:30:21.81	274.42	20.16	-40.2	-41.3	22.1	0.00e+00	90	38	0	651165696	52	6656
2026-01-01 02:30:22.82	274.68	20.17	-40.2	-41.2	22.2	0.00e+00	92	38	0	653262848	52	6588
2026-01-01 02:30:23.83	274.93	20.17	-40.2	-41.3	22.1	0.00e+00	90	38	0	655360000	52	6626
2026-01-01 02:30:24.84	275.19	20.17	-40.3	-41.3	22.0	0.00e+00	92	38	0	657457152	52	6679
2026-01-01 02:30:25.85	275.44	20.18	-40.2	-41.3	22.0	0.00e+00	92	38	0	659554304	52	6627
2026-01-01 02:30:26.86	275.69	20.18	-40.3	-41.4	22.0	0.00e+00	92	38	0	660602880	52	6713
2026-01-01 02:30:27.87	275.95	20.18	-40.4	-41.5	21.9	0.00e+00	7	38	0	662700032	52	6805
2026-01-01 02:30:28.88	276.20	20.19	-40.5	-41.6	21.8	0.00e+00	92	38	0	664797184	52	6911
2026-01-01 02:30:29.88	276.45	20.19	-40.7	-41.8	21.6	0.00e+00	69	38	0	666894336	52	7085
2026-01-01 02:30:30.89	276.71	20.19	-40.7	-41.8	21.6	0.00e+00	92	38	0	668991488	54	6305
2026-01-01 02:30:31.90	276.96	20.19	-40.7	-41.8	21.6	0.00e+00	92	38	0	670040064	54	6269
2026-01-01 02:30:32.91	277.22	20.19	-40.6	-41.7	21.7	0.00e+00	92	38	0	672137216	54	6224
2026-01-01 02:30:33.92	277.47	20.19	-40.5	-41.6	21.8	0.00e+00	90	38	0	674234368	54	6152
2026-01-01 02:30:34.93	277.72	20.19	-40.6	-41.7	21.6	0.00e+00	0	38	0	676331520	54	6195
2026-01-01 02:30:35.94	277.98	20.19	-40.5	-41.6	21.8	0.00e+00	92	38	0	678428672	54	6124
2026-01-01 02:30:36.95	278.23	20.18	-40.5	-41.6	21.7	0.00e+00	0	38	0	679477248	54	6117
2026-01-01 02:30:37.96	278.49	20.18	-40.5	-41.6	21.8	0.00e+00	92	38	0	681574400	54	6164
2026-01-01 02:30:38.97	278.74	20.18	-40.4	-41.5	21.9	0.00e+00	92	38	0	683671552	54	6064
2026-01-01 02:30:39.98	278.99	20.17	-40.4	-41.5	22.0	0.00e+00	90	38	0	685768704	54	6087
2026-01-01 02:30:40.99	279.25	20.17	-40.2	-41.2	22.1	0.00e+00	92	38	0	687865856	54	5886
2026-01-01 02:30:42.00	279.50	20.16	-39.9	-40.9	22.3	0.00e+00	0	38	0	688914432	54	5691
2026-01-01 02:30:43.01	279.75	20.16	-39.8	-40.8	22.5	0.00e+00	90	38	0	691011584	54	5622
2026-01-01 02:30:44.02	280.01	20.15	-39.6	-40.6	22.8	0.00e+00	31	38	0	693108736	52	6142
2026-01-01 02:30:45.03	280.26	20.14	-39.7	-40.6	22.6	0.00e+00	92	38	0	695205888	52	6164
2026-01-01 02:30:46.03	280.51	20.14	-39.6	-40.6	22.7	0.00e+00	92	38	0	697303040	52	6119
2026-01-01 02:30:47.04	280.76	20.13	-39.7	-40.7	22.6	0.00e+00	92	38	0	698351616	52	6223
2026-01-01 02:30:48.05	281.02	20.12	-39.9	-40.9	22.4	0.00e+00	92	38	0	700448768	52	6376
2026-01-01 02:30:49.06	281.27	20.11	-40.0	-41.0	22.3	0.00e+00	0	38	0	702545920	52	6432
2026-01-01 02:30:50.06	281.52	20.10	-40.1	-41.1	22.3	0.00e+00	90	38	0	704643072	52	6497
2026-01-01 02:30:51.07	281.77	20.09	-40.2	-41.3	22.2	0.00e+00	0	38	0	706740224	52	6620
2026-01-01 02:30:52.08	282.02	20.08	-40.1	-41.1	22.3	0.00e+00	90	38	0	707788800	52	6507
2026-01-01 02:30:53.09	282.28	20.07	-40.0	-41.1	22.3	0.00e+00	92	38	0	709885952	52	6493
2026-01-01 02:30:54.10	282.53	20.06	-39.9	-40.9	22.4	0.00e+00	91	38	0	711983104	52	6359
2026-01-01 02:30:55.11	282.78	20.05	-40.0	-41.1	22.3	0.00e+00	92	38	0	714080256	52	6495
2026-01-01 02:30:56.12	283.03	20.03	-40.0	-41.0	22.2	0.00e+00	45	38	0	716177408	52	6451
2026-01-01 02:30:57.13	283.28	20.02	-40.1	-41.2	22.2	0.00e+00	91	38	0	717225984	52	6544
2026-01-01 02:30:58.14	283.53	20.01	-40.2	-41.3	22.1	0.00e+00	0	38	0	719323136	52	6659
2026-01-01 02:30:59.15	283.79	19.99	-40.3	-41.3	22.0	0.00e+00	92	38	0	721420288	52	6660
2026-01-01 02:31:00.16	284.04	19.98	-40.2	-41.3	22.1	0.00e+00	8	38	0	723517440	52	6648
2026-01-01 02:31:01.17	284.29	19.96	-40.3	-41.3	22.0	0.00e+00	92	38	0	725614592	52	6670
2026-01-01 02:31:02.18	284.54	19.95	-40.2	-41.3	22.1	0.00e+00	90	38	0	727711744	52	6644
2026-01-01 02:31:03.19	284.79	19.93	-40.4	-41.4	21.9	0.00e+00	83	38	0	728760320	52	6761
2026-01-01 02:31:04.20	285.04	19.91	-40.4	-41.5	21.9	0.00e+00	92	38	0	730857472	52	6779
2026-01-01 02:31:05.20	285.28	19.90	-40.4	-41.5	21.9	0.00e+00	68	38	0	732954624	52	6775
2026-01-01 02:31:06.21	285.53	19.88	-40.2	-41.3	22.1	0.00e+00	92	38	0	735051776	52	6658
2026-01-01 02:31:07.22	285.78	19.86	-40.1	-41.1	22.0	0.00e+00	0	38	0	737148928	52	6513
2026-01-01 02:31:08.24	286.03	19.84	-39.9	-40.9	22.5	0.00e+00	92	38	0	738197504	52	6326
2026-01-01 02:31:09.25	286.28	19.82	-39.7	-40.7	22.6	0.00e+00	92	38	0	740294656	52	6231
2026-01-01 02:31:10.25	286.52	19.80	-39.8	-40.8	22.7	0.00e+00	90	38	0	742391808	52	6272
2026-01-01 02:31:11.26	286.77	19.78	-39.7	-40.7	22.5	0.00e+00	91	38	0	744488960	52	6245
2026-01-01 02:31:12.27	287.02	19.76	-39.9	-40.9	22.5	0.00e+00	7	38	0	746586112	52	6353
2026-01-01 02:31:13.28	287.27	19.74	-39.9	-41.0	22.5	0.00e+00	90	38	0	747634688	52	6395
2026-01-01 02:31:14.29	287.51	19.72	-40.0	-41.1	22.3	0.00e+00	0	38	0	749731840	52	6476
2026-01-01 02:31:15.30	287.76	19.69	-40.0	-41.1	22.2	0.00e+00	92	38	0	751828992	52	6473
2026-01-01 02:31:16.31	288.00	19.67	-40.0	-41.1	22.3	0.00e+00	83	38	0	753926144	52	6485
2026-01-01 02:31:17.32	288.25	19.65	-40.0	-41.0	22.4	0.00e+00	92	38	0	756023296	52	6413
2026-01-01 02:31:18.33	288.49	19.62	-39.8	-40.9	22.4	0.00e+00	92	38	0	757071872	52	6327
2026-01-01 02:31:19.34	288.74	19.60	-39.6	-40.6	22.7	0.00e+00	0	38	0	759169024	52	6161
2026-01-01 02:31:20.35	288.98	19.57	-39.4	-40.4	22.9	0.00e+00	92	38	0	761266176	52	5996
2026-01-01 02:31:21.36	289.23	19.55	-39.2	-40.2	23.1	0.00e+00	66	38	0	763363328	52	5832
2026-01-01 02:31:22.36	289.47	19.52	-39.2	-40.1	23.1	0.00e+00	92	38	0	765460480	52	5823
2026-01-01 02:31:23.37	289.71	19.50	-39.0	-39.9	23.4	0.00e+00	0	38	0	766509056	52	5665
2026-01-01 02:31:24.38	289.95	19.47	-38.9	-39.8	23.4	0.00e+00	92	38	0	768606208	52	5611
2026-01-01 02:31:25.39	290.20	19.44	-38.8	-39.8	23.4	0.00e+00	92	38	0	770703360	52	5568
2026-01-01 02:31:26.39	290.44	19.41	-38.7	-39.6	23.6	0.00e+00	0	38	0	772800512	50	6164
2026-01-01 02:31:27.40	290.68	19.39	-38.6	-39.5	23.7	0.00e+00	90	38	0	774897664	50	6063
2026-01-01 02:31:28.41	290.92	19.36	-38.6	-39.5	23.6	0.00e+00	9	38	0	775946240	50	6068
2026-01-01 02:31:29.42	291.16	19.33	-38.6	-39.5	23.7	0.00e+00	90	38	0	778043392	50	6076
2026-01-01 02:31:30.43	291.40	19.30	-38.8	-39.7	23.5	0.00e+00	0	38	0	780140544	50	6213
2026-01-01 02:31:31.44	291.64	19.27	-39.1	-40.0	23.3	0.00e+00	44	38	0	782237696	50	6420
2026-01-01 02:31:32.45	291.88	19.24	-39.3	-40.3	23.0	0.00e+00	78	38	0	784334848	50	6623
2026-01-01 02:31:33.46	292.11	19.21	-39.3	-40.3	23.0	0.00e+00	8	38	0	785383424	50	6628
2026-01-01 02:31:34.47	292.35	19.17	-39.3	-40.2	23.0	0.00e+00	92	38	0	787480576	50	6596
2026-01-01 02:31:35.48	292.59	19.14	-39.1	-40.0	23.2	0.00e+00	6	38	0	789577728	50	6449
2026-01-01 02:31:36.49	292.83	19.11	-39.1	-40.0	23.2	0.00e+00	92	38	0	791674880	50	6436
2026-01-01 02:31:37.50	293.06	19.08	-39.0	-39.9	23.3	0.00e+00	0	38	0	793772032	50	6384
2026-01-01 02:31:38.51	293.30	19.04	-39.1	-40.0	23.1	0.00e+00	92	38	0	795869184	50	6421
2026-01-01 02:31:39.52	293.54	19.01	-39.1	-40.1	23.2	0.00e+00	60	38	0	796917760	50	6475
2026-01-01 02:31:40.53	293.77	18.98	-39.0	-39.9	23.4	0.00e+00	5	38	0	799014912	50	6339
2026-01-01 02:31:41.54	294.00	18.94	-38.7	-39.6	23.6	0.00e+00	90	38	0	801112064	50	6139
2026-01-01 02:31:42.55	294.24	18.91	-38.5	-39.4	23.8	0.00e+00	0	38	0	803209216	50	5986
2026-01-01 02:31:43.56	294.47	18.87	-38.5	-39.4	23.7	0.00e+00	92	38	0	805306368	50	5998
2026-01-01 02:31:44.57	294.70	18.84	-38.5	-39.3	23.9	0.00e+00	0	38	0	806354944	50	5958
2026-01-01 02:31:45.58	294.94	18.80	-38.1	-38.9	24.1	0.00e+00	92	38	0	808452096	50	5688
2026-01-01 02:31:46.59	295.17	18.76	-37.9	-38.7	24.3	0.00e+00	0	38	0	810549248	50	5566
2026-01-01 02:31:47.60	295.40	18.73	-37.9	-38.8	24.3	0.00e+00	0	38	0	812646400	50	5568
2026-01-01 02:31:48.61	295.63	18.69	-38.0	-38.9	24.2	0.00e+00	92	38	0	814743552	50	5655
2026-01-01 02:31:49.62	295.86	18.65	-38.2	-39.0	24.1	0.00e+00	14	38	0	815792128	50	5737
2026-01-01 02:31:50.63	296.09	18.61	-38.3	-39.1	23.9	0.00e+00	90	38	0	817889280	50	5826
2026-01-01 02:31:51.64	296.32	18.57	-38.4	-39.3	23.9	0.00e+00	71	38	0	819986432	50	5908
2026-01-01 02:31:52.65	296.55	18.53	-38.5	-39.4	23.7	0.00e+00	92	38	0	822083584	50	5977
2026-01-01 02:31:53.66	296.78	18.50	-38.5	-39.4	23.6	0.00e+00	0	38	0	824180736	50	5976
2026-01-01 02:31:54.67	297.00	18.46	-38.5	-39.4	23.6	0.00e+00	13	38	0	825229312	50	5977
2026-01-01 02:31:55.68	297.23	18.42	-38.5	-39.4	23.8	0.00e+00	92	38	0	827326464	50	5998
2026-01-01 02:31:56.69	297.46	18.38	-38.4	-39.3	23.7	0.00e+00	14	38	0	829423616	50	5897
2026-01-01 02:31:57.70	297.68	18.33	-38.4	-39.3	23.9	0.00e+00	90	38	0	831520768	50	5924
2026-01-01 02:31:58.71	297.91	18.29	-38.3	-39.2	23.9	0.00e+00	0	38	0	833617920	50	5858
2026-01-01 02:31:59.72	298.13	18.25	-38.1	-38.9	24.1	0.00e+00	92	38	0	834666496	50	5690
2026-01-01 02:32:00.72	298.35	18.21	-38.0	-38.9	24.1	0.00e+00	0	38	0	836763648	50	5648
2026-01-01 02:32:01.73	298.58	18.17	-37.8	-38.6	24.4	0.00e+00	92	38	0	838860800	50	5463
2026-01-01 02:32:02.74	298.80	18.13	-37.8	-38.7	24.3	0.00e+00	0	38	0	840957952	48	6174
2026-01-01 02:32:03.75	299.02	18.08	-37.7	-38.5	24.5	0.00e+00	0	38	0	843055104	48	6093
2026-01-01 02:32:04.76	299.24	18.04	-37.8	-38.6	24.4	0.00e+00	92	38	0	844103680	48	6142
2026-01-01 02:32:05.77	299.46	18.00	-37.7	-38.5	24.4	0.00e+00	71	38	0	846200832	48	6083
2026-01-01 02:32:06.78	299.68	17.95	-37.6	-38.5	24.5	0.00e+00	92	38	0	848297984	48	6049
2026-01-01 02:32:07.79	299.90	17.91	-37.7	-38.5	24.4	0.00e+00	71	38	0	850395136	48	6052
2026-01-01 02:32:08.80	300.12	17.86	-37.7	-38.6	24.3	0.00e+00	92	38	0	852492288	48	6120
2026-01-01 02:32:09.81	300.34	17.82	-37.9	-38.7	24.3	0.00e+00	0	38	0	853540864	48	6213
2026-01-01 02:32:10.82	300.56	17.77	-37.9	-38.8	24.1	0.00e+00	68	38	0	855638016	48	6269
2026-01-01 02:32:11.83	300.77	17.73	-38.1	-38.9	24.1	0.00e+00	92	38	0	857735168	48	6361
2026-01-01 02:32:12.84	300.99	17.68	-38.0	-38.9	24.1	0.00e+00	10	38	0	859832320	48	6353
2026-01-01 02:32:13.85	301.20	17.64	-38.1	-39.0	24.0	0.00e+00	92	38	0	861929472	48	6438
2026-01-01 02:32:14.85	301.42	17.59	-38.3	-39.2	24.0	0.00e+00	11	38	0	864026624	48	6550
2026-01-01 02:32:15.86	301.63	17.54	-38.2	-39.1	24.0	0.00e+00	92	38	0	865075200	48	6488
2026-01-01 02:32:16.87	301.84	17.50	-38.2	-39.1	24.0	0.00e+00	10	37	0	867172352	48	6513
2026-01-01 02:32:17.88	302.06	17.45	-38.1	-39.0	24.1	0.00e+00	2	38	0	869269504	48	6434
2026-01-01 02:32:18.89	302.27	17.40	-38.3	-39.2	23.9	0.00e+00	92	38	0	871366656	48	6578
2026-01-01 02:32:19.90	302.48	17.36	-38.3	-39.2	23.9	0.00e+00	0	38	0	873463808	48	6599
2026-01-01 02:32:20.91	302.69	17.31	-38.6	-39.5	23.6	0.00e+00	92	38	0	874512384	48	6844
2026-01-01 02:32:21.92	302.90	17.26	-38.8	-39.8	23.4	0.00e+00	0	38	0	876609536	50	6257
2026-01-01 02:32:22.93	303.11	17.21	-39.0	-40.0	23.1	0.00e+00	92	38	0	878706688	50	6416
2026-01-01 02:32:23.94	303.32	17.16	-39.2	-40.2	23.0	0.00e+00	0	38	0	880803840	50	6570
2026-01-01 02:32:24.95	303.53	17.11	-39.2	-40.2	23.0	0.00e+00	92	38	0	881852416	50	6560
2026-01-01 02:32:25.96	303.74	17.06	-39.3	-40.3	22.9	0.00e+00	16	38	0	883949568	50	6653
2026-01-01 02:32:26.97	303.94	17.01	-39.3	-40.3	22.9	0.00e+00	4	38	0	886046720	50	6648
2026-01-01 02:32:27.98	304.15	16.96	-39.4	-40.3	22.8	0.00e+00	92	38	0	888143872	50	6687
2026-01-01 02:32:28.99	304.36	16.91	-39.3	-40.3	22.9	0.00e+00	0	37	0	890241024	50	6624
2026-01-01 02:32:30.00	304.56	16.86	-39.4	-40.3	22.9	0.00e+00	90	38	0	892338176	50	6690
2026-01-01 02:32:31.01	304.77	16.81	-39.5	-40.5	22.7	0.00e+00	9	38	0	893386752	50	6813
2026-01-01 02:32:32.02	304.97	16.76	-39.5	-40.5	22.7	0.00e+00	90	38	0	895483904	50	6798
2026-01-01 02:32:33.03	305.17	16.71	-39.5	-40.5	22.6	0.00e+00	0	38	0	897581056	50	6828
2026-01-01 02:32:34.04	305.38	16.66	-39.4	-40.4	22.8	0.00e+00	71	38	0	899678208	50	6699
2026-01-01 02:32:35.05	305.58	16.61	-39.2	-40.2	23.0	0.00e+00	92	38	0	901775360	50	6558
2026-01-01 02:32:36.06	305.78	16.56	-39.3	-40.3	23.0	0.00e+00	11	38	0	902823936	50	6626
2026-01-01 02:32:37.06	305.98	16.50	-39.3	-40.2	22.9	0.00e+00	92	38	0	904921088	50	6615
2026-01-01 02:32:38.07	306.18	16.45	-39.3	-40.3	22.8	0.00e+00	10	38	0	907018240	50	6651
2026-01-01 02:32:39.08	306.37	16.40	-39.4	-40.3	22.9	0.00e+00	92	38	0	909115392	50	6688
2026-01-01 02:32:40.09	306.57	16.35	-39.4	-40.3	22.8	0.00e+00	0	37	0	911212544	50	6692
2026-01-01 02:32:41.10	306.77	16.29	-39.5	-40.5	22.7	0.00e+00	92	37	0	912261120	50	6786
2026-01-01 02:32:42.11	306.97	16.24	-39.7	-40.7	22.4	0.00e+00	92	37	0	914358272	50	6993
2026-01-01 02:32:43.12	307.16	16.19	-40.0	-41.0	22.3	0.00e+00	0	38	0	916455424	52	6421
2026-01-01 02:32:44.13	307.36	16.13	-40.0	-41.0	22.2	0.00e+00	90	38	0	918552576	52	6462
2026-01-01 02:32:45.14	307.55	16.08	-40.1	-41.2	22.1	0.00e+00	2	37	0	920649728	52	6556
2026-01-01 02:32:46.15	307.75	16.03	-40.1	-41.1	22.1	0.00e+00	92	38	0	921698304	52	6508
2026-01-01 02:32:47.16	307.94	15.97	-39.9	-40.9	22.4	0.00e+00	0	38	0	923795456	52	6348
2026-01-01 02:32:48.17	308.13	15.92	-39.9	-40.9	22.3	0.00e+00	92	38	0	925892608	52	6386
2026-01-01 02:32:49.18	308.33	15.87	-39.9	-40.9	22.3	0.00e+00	14	38	0	927989760	52	6351
2026-01-01 02:32:50.19	308.52	15.81	-39.8	-40.8	22.3	0.00e+00	0	38	0	930086912	52	6264
2026-01-01 02:32:51.20	308.71	15.76	-39.8	-40.8	22.4	0.00e+00	92	38	0	931135488	52	6296
2026-01-01 02:32:52.20	308.90	15.70	-39.7	-40.7	22.4	0.00e+00	70	38	0	933232640	52	6239
2026-01-01 02:32:53.21	309.09	15.65	-39.8	-40.8	22.5	0.00e+00	92	38	0	935329792	52	6263
2026-01-01 02:32:54.22	309.28	15.59	-39.9	-40.9	22.1	0.00e+00	73	38	0	937426944	52	6343
2026-01-01 02:32:55.23	309.46	15.54	-39.8	-40.8	22.4	0.00e+00	92	38	0	939524096	52	6314
2026-01-01 02:32:56.24	309.65	15.48	-39.9	-40.9	22.4	0.00e+00	42	38	0	940572672	52	6361
2026-01-01 02:32:57.25	309.84	15.42	-40.0	-41.1	22.1	0.00e+00	0	38	0	942669824	52	6475
2026-01-01 02:32:58.26	310.02	15.37	-36.7	-41.1	18.5	2.36e-02	92	38	0	944766976	46	9145
2026-01-01 02:32:59.27	310.21	15.31	-37.2	-41.0	19.5	1.36e-02	0	38	0	946864128	46	9081
2026-01-01 02:33:00.28	310.39	15.26	-37.0	-41.2	18.8	1.27e-02	92	37	0	948961280	46	9249
2026-01-01 02:33:01.28	310.58	15.20	-37.3	-40.8	17.8	1.79e-02	2	38	0	950009856	46	8902
2026-01-01 02:33:02.29	310.76	15.14	-36.4	-40.7	18.0	3.26e-02	90	38	0	952107008	46	8816
2026-01-01 02:33:03.30	310.94	15.09	-36.7	-40.5	18.1	2.91e-02	0	38	0	954204160	46	8563
2026-01-01 02:33:04.31	311.12	15.03	-39.5	-40.5	22.7	0.00e+00	0	37	0	956301312	52	6048
2026-01-01 02:33:05.32	311.31	14.97	-39.2	-40.2	22.9	0.00e+00	92	38	0	958398464	52	5851
2026-01-01 02:33:06.33	311.49	14.92	-39.3	-40.3	22.8	0.00e+00	3	38	0	960495616	52	5939
2026-01-01 02:33:07.34	311.67	14.86	-39.2	-40.2	22.9	0.00e+00	92	38	0	961544192	52	5860
2026-01-01 02:33:08.35	311.85	14.80	-39.3	-40.2	22.9	0.00e+00	0	38	0	963641344	52	5896
2026-01-01 02:33:09.36	312.02	14.75	-39.2	-40.1	23.0	0.00e+00	90	38	0	965738496	52	5827
2026-01-01 02:33:10.37	312.20	14.69	-39.3	-40.3	22.8	0.00e+00	0	37	0	967835648	52	5914
2026-01-01 02:33:11.38	312.38	14.63	-39.3	-40.2	22.9	0.00e+00	92	38	0	969932800	52	5895
2026-01-01 02:33:12.39	312.56	14.57	-39.5	-40.5	22.7	0.00e+00	0	38	0	970981376	52	6036
2026-01-01 02:33:13.40	312.73	14.52	-39.5	-40.5	22.6	0.00e+00	0	38	0	973078528	52	6090
2026-01-01 02:33:14.41	312.91	14.46	-39.7	-40.7	22.4	0.00e+00	92	38	0	975175680	52	6188
2026-01-01 02:33:15.42	313.08	14.40	-39.9	-41.0	22.2	0.00e+00	0	38	0	977272832	52	6416
2026-01-01 02:33:16.43	313.26	14.34	-40.2	-41.2	21.9	0.00e+00	92	38	0	979369984	52	6606
2026-01-01 02:33:17.44	313.43	14.28	-40.5	-41.7	21.6	0.00e+00	71	38	0	980418560	52	6949
2026-01-01 02:33:18.45	313.60	14.23	-40.7	-41.8	21.4	0.00e+00	92	38	0	982515712	52	7080
2026-01-01 02:33:19.45	313.77	14.17	-40.8	-41.9	21.3	0.00e+00	22	38	0	984612864	52	7155
2026-01-01 02:33:20.46	313.94	14.11	-40.6	-41.8	21.4	0.00e+00	6	38	0	986710016	54	6275
2026-01-01 02:33:21.47	314.11	14.05	-40.1	-41.2	22.0	0.00e+00	91	38	0	988807168	54	5876
2026-01-01 02:33:22.48	314.28	13.99	-39.8	-40.8	22.3	0.00e+00	7	38	0	989855744	54	5621
2026-01-01 02:33:23.49	314.45	13.93	-39.6	-40.7	22.5	0.00e+00	91	38	0	991952896	52	6180
2026-01-01 02:33:24.50	314.62	13.87	-39.3	-40.3	22.7	0.00e+00	14	37	0	994050048	52	5942
2026-01-01 02:33:25.51	314.79	13.82	-39.2	-40.2	22.9	0.00e+00	90	38	0	996147200	52	5835
2026-01-01 02:33:26.52	314.96	13.76	-39.0	-40.0	23.1	0.00e+00	6	37	0	998244352	52	5704
2026-01-01 02:33:27.53	315.12	13.70	-39.1	-40.1	23.0	0.00e+00	56	38	0	999292928	52	5764
2026-01-01 02:33:28.54	315.29	13.64	-39.2	-40.1	23.0	0.00e+00	91	37	0	1001390080	52	5816
2026-01-01 02:33:29.55	315.46	13.58	-39.3	-40.3	22.7	0.00e+00	0	38	0	1003487232	52	5932
2026-01-01 02:33:30.56	315.62	13.52	-39.4	-40.4	22.7	0.00e+00	92	38	0	1005584384	52	5970
2026-01-01 02:33:31.57	315.78	13.46	-39.3	-40.3	22.7	0.00e+00	65	37	0	1007681536	52	5943
2026-01-01 02:33:32.58	315.95	13.40	-39.5	-40.5	22.7	0.00e+00	68	38	0	1008730112	52	6041
2026-01-01 02:33:33.59	316.11	13.34	-39.5	-40.5	22.7	0.00e+00	70	37	0	1010827264	52	6040
2026-01-01 02:33:34.60	316.27	13.28	-39.4	-40.4	22.6	0.00e+00	0	38	0	1012924416	52	6031
2026-01-01 02:33:35.60	316.43	13.22	-39.2	-40.2	22.8	0.00e+00	90	38	0	1015021568	52	5870
2026-01-01 02:33:36.61	316.59	13.16	-39.3	-40.3	22.8	0.00e+00	18	38	0	1017118720	52	5915
2026-01-01 02:33:37.63	316.76	13.10	-39.3	-40.3	22.7	0.00e+00	92	38	0	1018167296	52	5930
2026-01-01 02:33:38.64	316.92	13.04	-39.4	-40.4	22.7	0.00e+00	19	38	0	1020264448	52	5990
2026-01-01 02:33:39.65	317.08	12.98	-39.5	-40.5	22.6	0.00e+00	17	38	0	1022361600	52	6084
2026-01-01 02:33:40.66	317.23	12.92	-39.6	-40.6	22.5	0.00e+00	6	38	0	1024458752	52	6149
2026-01-01 02:33:41.67	317.39	12.86	-39.6	-40.6	22.5	0.00e+00	6	37	0	1026555904	52	6169
2026-01-01 02:33:42.68	317.55	12.80	-39.6	-40.6	22.4	0.00e+00	24	37	0	1028653056	52	6169
2026-01-01 02:33:43.69	317.71	12.74	-39.5	-40.5	22.7	0.00e+00	18	37	0	1029701632	52	6060
2026-01-01 02:33:44.70	317.86	12.68	-39.4	-40.4	22.6	0.00e+00	92	38	0	1031798784	52	6018
2026-01-01 02:33:45.71	318.02	12.62	-39.1	-40.0	23.0	0.00e+00	7	38	0	1033895936	52	5735
2026-01-01 02:33:46.72	318.17	12.56	-38.9	-39.8	23.1	0.00e+00	57	37	0	1035993088	52	5628
2026-01-01 02:33:47.73	318.33	12.50	-38.8	-39.8	23.3	0.00e+00	0	38	0	1038090240	52	5582
2026-01-01 02:33:48.74	318.48	12.44	-38.9	-39.9	23.2	0.00e+00	0	38	0	1039138816	52	5653
2026-01-01 02:33:49.75	318.63	12.38	-38.9	-39.9	23.1	0.00e+00	0	37	0	1041235968	52	5659
2026-01-01 02:33:50.76	318.79	12.32	-39.2	-40.2	22.8	0.00e+00	0	38	0	1043333120	52	5847
2026-01-01 02:33:51.76	318.94	12.26	-39.3	-40.3	22.7	0.00e+00	91	37	0	1045430272	52	5908
2026-01-01 02:33:52.77	319.09	12.20	-39.5	-40.5	22.5	0.00e+00	69	37	0	1047527424	52	6095
2026-01-01 02:33:53.78	319.24	12.14	-39.6	-40.7	22.4	0.00e+00	92	37	0	1048576000	52	6198
2026-01-01 02:33:54.79	319.39	12.08	-39.6	-40.6	22.4	0.00e+00	0	38	0	1050673152	52	6144
2026-01-01 02:33:55.80	319.54	12.02	-39.6	-40.7	22.5	0.00e+00	70	37	0	1052770304	52	6178
2026-01-01 02:33:56.80	319.68	11.96	-39.4	-40.5	22.5	0.00e+00	12	38	0	1054867456	52	6039
2026-01-01 02:33:57.81	319.83	11.90	-39.5	-40.5	22.6	0.00e+00	69	38	0	1056964608	52	6064
2026-01-01 02:33:58.82	319.98	11.84	-39.3	-40.3	22.6	0.00e+00	55	38	0	1058013184	52	5936
2026-01-01 02:33:59.83	320.13	11.78	-39.2	-40.2	22.8	0.00e+00	69	37	0	1060110336	52	5842
2026-01-01 02:34:00.84	320.27	11.72	-39.2	-40.2	22.7	0.00e+00	92	38	0	1062207488	52	5871
2026-01-01 02:34:01.85	320.42	11.66	-39.3	-40.3	22.7	0.00e+00	70	38	0	1064304640	52	5905
2026-01-01 02:34:02.86	320.56	11.60	-39.5	-40.5	22.5	0.00e+00	29	38	0	1066401792	52	6087
2026-01-01 02:34:03.87	320.71	11.54	-39.6	-40.7	22.3	0.00e+00	12	38	0	1067450368	52	6183
2026-01-01 02:34:04.88	320.85	11.48	-39.7	-40.8	22.2	0.00e+00	0	38	0	1069547520	52	6267
2026-01-01 02:34:05.89	321.00	11.42	-39.9	-41.0	22.0	0.00e+00	11	37	0	1071644672	52	6399
2026-01-01 02:34:06.90	321.14	11.36	-40.0	-41.1	21.6	0.00e+00	14	38	0	1073741824	52	6521
2026-01-01 02:34:07.91	321.28	11.30	-40.1	-41.2	21.8	0.00e+00	92	38	0	1075838976	52	6568
2026-01-01 02:34:08.91	321.42	11.24	-40.0	-41.0	21.9	0.00e+00	0	38	0	1076887552	52	6460
2026-01-01 02:34:09.93	321.57	11.18	-39.8	-40.8	22.2	0.00e+00	90	38	0	1078984704	52	6312
2026-01-01 02:34:10.93	321.70	11.12	-39.7	-40.8	22.2	0.00e+00	0	38	0	1081081856	52	6258
2026-01-01 02:34:11.95	321.85	11.05	-39.8	-40.9	22.1	0.00e+00	0	38	0	1083179008	52	6325
2026-01-01 02:34:12.95	321.98	10.99	-39.5	-40.6	22.4	0.00e+00	0	38	0	1085276160	52	6106
2026-01-01 02:34:13.96	322.12	10.93	-39.4	-40.4	22.4	0.00e+00	68	38	0	1086324736	52	5982
2026-01-01 02:34:14.97	322.26	10.87	-39.5	-40.5	22.5	0.00e+00	92	38	0	1088421888	52	6057
2026-01-01 02:34:15.98	322.40	10.81	-39.6	-40.6	22.3	0.00e+00	0	38	0	1090519040	52	6156
2026-01-01 02:34:16.99	322.54	10.75	-39.6	-40.7	22.3	0.00e+00	92	38	0	1092616192	52	6197
2026-01-01 02:34:18.00	322.67	10.69	-39.8	-40.8	22.1	0.00e+00	68	38	0	1094713344	52	6292
2026-01-01 02:34:19.01	322.81	10.63	-39.9	-41.0	22.0	0.00e+00	0	38	0	1096810496	52	6407
2026-01-01 02:34:20.02	322.95	10.57	-40.0	-41.0	22.0	0.00e+00	13	38	0	1097859072	52	6457
2026-01-01 02:34:21.03	323.08	10.51	-40.0	-41.0	22.0	0.00e+00	13	37	0	1099956224	52	6453
2026-01-01 02:34:22.04	323.22	10.45	-39.8	-40.9	22.1	0.00e+00	38	38	0	1102053376	52	6363
2026-01-01 02:34:23.05	323.35	10.39	-39.8	-40.9	22.1	0.00e+00	69	38	0	1104150528	52	6326
2026-01-01 02:34:24.06	323.48	10.33	-39.9	-40.9	22.1	0.00e+00	92	38	0	1106247680	52	6373
2026-01-01 02:34:25.07	323.62	10.27	-39.8	-40.9	22.2	0.00e+00	14	37	0	1107296256	52	6358
2026-01-01 02:34:26.08	323.75	10.21	-39.7	-40.7	22.2	0.00e+00	90	38	0	1109393408	52	6243
2026-01-01 02:34:27.08	323.88	10.15	-39.6	-40.7	22.3	0.00e+00	0	37	0	1111490560	52	6196
2026-01-01 02:34:28.09	324.01	10.09	-39.8	-40.9	22.1	0.00e+00	14	37	0	1113587712	52	6335
2026-01-01 02:34:29.10	324.14	10.03	-40.1	-41.2	21.8	0.00e+00	0	37	0	1115684864	52	6546
2026-01-01 02:34:30.11	324.27	9.97	-40.3	-41.4	21.6	0.00e+00	0	38	0	1116733440	52	6733
2026-01-01 02:34:31.12	324.40	9.91	-40.3	-41.4	21.5	0.00e+00	92	38	0	1118830592	52	6724
2026-01-01 02:34:32.13	324.53	9.85	-40.5	-41.7	21.2	0.00e+00	0	38	0	1120927744	52	6944
2026-01-01 02:34:33.14	324.66	9.79	-40.7	-41.8	21.1	0.00e+00	91	38	0	1123024896	52	7083
2026-01-01 02:34:34.15	324.79	9.73	-40.7	-41.9	21.0	0.00e+00	0	38	0	1125122048	54	6375
2026-01-01 02:34:35.16	324.92	9.67	-40.7	-42.0	21.1	0.00e+00	0	38	0	1126170624	54	6399
2026-01-01 02:34:36.17	325.05	9.61	-40.6	-41.8	21.1	0.00e+00	64	38	0	1128267776	54	6271
2026-01-01 02:34:37.18	325.17	9.55	-40.7	-41.9	21.0	0.00e+00	68	38	0	1130364928	54	6319
2026-01-01 02:34:38.19	325.30	9.49	-40.6	-41.8	21.2	0.00e+00	23	37	0	1132462080	54	6288
2026-01-01 02:34:39.19	325.42	9.43	-40.6	-41.8	20.9	0.00e+00	69	38	0	1134559232	54	6309
2026-01-01 02:34:40.20	325.55	9.37	-40.8	-42.0	21.2	0.00e+00	92	38	0	1135607808	54	6411
2026-01-01 02:34:41.21	325.67	9.31	-40.7	-41.8	21.0	0.00e+00	16	37	0	1137704960	54	6306
2026-01-01 02:34:42.22	325.80	9.25	-40.7	-41.9	21.3	0.00e+00	0	38	0	1139802112	54	6330
2026-01-01 02:34:43.23	325.92	9.19	-40.6	-41.7	20.9	0.00e+00	0	38	0	1141899264	54	6241
2026-01-01 02:34:44.24	326.05	9.13	-40.9	-42.1	20.6	0.00e+00	67	37	0	1143996416	54	6512
2026-01-01 02:34:45.25	326.17	9.07	-40.9	-42.2	20.8	0.00e+00	51	37	0	1145044992	54	6554
2026-01-01 02:34:46.26	326.29	9.01	-41.1	-42.4	20.6	0.00e+00	2	37	0	1147142144	54	6708
2026-01-01 02:34:47.27	326.41	8.95	-41.2	-42.5	20.4	0.00e+00	92	38	0	1149239296	54	6810
2026-01-01 02:34:48.28	326.53	8.89	-41.2	-42.5	20.4	0.00e+00	13	38	0	1151336448	54	6842
2026-01-01 02:34:49.29	326.66	8.83	-41.3	-42.6	20.3	0.00e+00	95	38	0	1153433600	54	6888
2026-01-01 02:34:50.30	326.78	8.77	-40.7	-41.9	21.0	0.00e+00	0	37	0	1154482176	54	6347
2026-01-01 02:34:51.31	326.90	8.71	-40.8	-42.1	20.8	0.00e+00	3	37	0	1156579328	54	6488
2026-01-01 02:34:52.32	327.02	8.65	-40.8	-42.1	20.8	0.00e+00	0	37	0	1158676480	54	6465
2026-01-01 02:34:53.33	327.14	8.59	-40.7	-41.9	21.0	0.00e+00	0	38	0	1160773632	54	6367
2026-01-01 02:34:54.33	327.25	8.53	-40.7	-41.9	21.0	0.00e+00	92	37	0	1162870784	54	6359
2026-01-01 02:34:55.34	327.37	8.47	-40.5	-41.7	21.1	0.00e+00	2	38	0	1163919360	54	6224
2026-01-01 02:34:56.35	327.49	8.41	-40.6	-41.8	21.0	0.00e+00	92	37	0	1166016512	54	6252
2026-01-01 02:34:57.36	327.61	8.35	-40.8	-42.1	20.9	0.00e+00	0	38	0	1168113664	54	6473
2026-01-01 02:34:58.37	327.72	8.29	-40.9	-42.2	20.7	0.00e+00	0	37	0	1170210816	54	6545
2026-01-01 02:34:59.38	327.84	8.23	-40.9	-42.1	20.7	0.00e+00	0	37	0	1172307968	54	6514
2026-01-01 02:35:00.39	327.96	8.17	-41.0	-42.3	20.5	0.00e+00	0	37	0	1173356544	54	6657
2026-01-01 02:35:01.40	328.07	8.11	-41.1	-42.4	20.5	0.00e+00	67	38	0	1175453696	54	6721
2026-01-01 02:35:02.41	328.19	8.05	-41.3	-42.6	20.2	0.00e+00	64	38	0	1177550848	54	6905
2026-01-01 02:35:03.42	328.30	7.99	-41.4	-42.7	20.1	0.00e+00	91	37	0	1179648000	54	7007
2026-01-01 02:35:04.43	328.41	7.93	-41.4	-42.7	19.9	0.00e+00	15	37	0	1181745152	54	7005
2026-01-01 02:35:05.36	328.52	7.88	-41.4	-42.8	20.0	0.00e+00	91	37	0	1182793728	54	7049
2026-01-01 02:35:06.37	328.63	7.82	-41.4	-42.8	20.2	0.00e+00	0	37	0	1184890880	54	7038
2026-01-01 02:35:07.38	328.75	7.76	-41.2	-42.6	20.2	0.00e+00	5	37	0	1186988032	54	6859
2026-01-01 02:35:08.39	328.86	7.70	-41.2	-42.5	20.3	0.00e+00	65	37	0	1189085184	54	6820
