passes_logs/2026/01/01/R4.6S_Anadyr/R4.6S_Anadyr__20260101_024456_2024-110A_rec.log

#Pass ID: 20260101_024456_2024-110A
#Satellite: 2024-110A
#Configuration: 01B_900M
#almurnet v.1.7.20251203
#Start time: 2026-01-01 02:44:58

#Version: 2.2.20231116
#Station: R4.6S_Anadyr
#Location: 177.4865 lon 64.73178 lat
#TLE: 1 60012U 24110A   25364.97239494  .00013903  00000+0  84393-3 0  9999
#TLE: 2 60012  97.5768  93.1309 0010708 111.9575 248.2794 15.10580706 86499

#Time	Az	El	Level	Level2	SNR	BER	BlckErr	Temp	State	Recorded	gain1	gain2
2026-01-01 02:44:58.20	18.52	0.09	-49.4	-64.4	3.5	1.51e+00	0	35	0	0	60	59793
2026-01-01 02:44:59.21	18.45	0.14	-49.7	-52.2	6.1	7.55e-01	0	37	104	0	60	49822
2026-01-01 02:45:00.22	18.37	0.20	-49.7	-52.1	6.1	7.54e-01	0	37	104	0	60	49417
2026-01-01 02:45:01.23	18.29	0.26	-49.6	-52.0	6.1	7.55e-01	0	37	104	0	60	48967
2026-01-01 02:45:02.24	18.21	0.31	-49.7	-52.1	6.0	7.55e-01	0	37	104	0	60	49508
2026-01-01 02:45:03.25	18.13	0.37	-49.7	-52.1	6.1	7.55e-01	0	37	104	0	60	49575
2026-01-01 02:45:04.26	18.05	0.43	-49.7	-52.2	6.1	7.54e-01	0	37	104	0	60	49685
2026-01-01 02:45:05.27	17.97	0.49	-49.5	-52.0	6.1	7.55e-01	0	37	104	0	60	48778
2026-01-01 02:45:06.28	17.89	0.54	-49.7	-52.1	6.1	7.55e-01	0	37	104	0	60	49505
2026-01-01 02:45:07.29	17.81	0.60	-49.2	-51.7	6.1	7.54e-01	0	37	104	0	60	47246
2026-01-01 02:45:08.30	17.73	0.66	-49.5	-52.0	6.0	7.54e-01	0	37	104	0	60	48806
2026-01-01 02:45:09.31	17.64	0.72	-49.4	-51.9	6.1	7.53e-01	0	37	104	0	60	47961
2026-01-01 02:45:10.32	17.56	0.77	-49.2	-51.7	6.1	7.54e-01	0	37	104	0	60	47167
2026-01-01 02:45:11.33	17.48	0.83	-49.0	-51.4	6.1	7.55e-01	0	37	104	0	60	45491
2026-01-01 02:45:12.34	17.40	0.89	-48.7	-51.2	6.1	7.55e-01	0	37	104	0	60	44313
2026-01-01 02:45:13.35	17.31	0.95	-48.5	-50.9	6.1	7.54e-01	0	37	104	0	60	43174
2026-01-01 02:45:14.36	17.23	1.01	-48.0	-50.5	6.1	7.53e-01	0	37	104	0	60	40909
2026-01-01 02:45:15.37	17.14	1.06	-48.0	-50.5	6.1	7.54e-01	0	37	104	0	60	40876
2026-01-01 02:45:16.38	17.06	1.12	-48.0	-50.5	6.1	7.54e-01	0	37	104	0	60	40920
2026-01-01 02:45:17.39	16.97	1.18	-48.0	-50.5	6.1	7.55e-01	0	37	104	0	60	41226
2026-01-01 02:45:18.40	16.89	1.24	-48.0	-50.5	6.1	7.55e-01	0	37	104	0	60	40929
2026-01-01 02:45:19.41	16.80	1.30	-48.0	-50.5	6.1	7.54e-01	0	37	104	0	60	41146
2026-01-01 02:45:20.42	16.71	1.36	-48.0	-50.5	6.1	7.54e-01	0	37	104	0	60	40976
2026-01-01 02:45:21.43	16.63	1.42	-48.0	-50.5	6.1	7.55e-01	0	37	104	0	60	41139
2026-01-01 02:45:22.44	16.54	1.47	-48.0	-50.5	6.1	7.55e-01	0	37	104	0	60	40925
2026-01-01 02:45:23.45	16.45	1.53	-48.0	-50.5	6.1	7.54e-01	0	37	104	0	60	40864
2026-01-01 02:45:24.46	16.36	1.59	-48.0	-50.5	6.1	7.54e-01	0	37	104	0	60	40995
2026-01-01 02:45:25.47	16.27	1.65	-48.0	-50.5	6.1	7.54e-01	0	37	104	0	60	41010
2026-01-01 02:45:26.48	16.18	1.71	-48.0	-50.5	6.1	7.56e-01	0	37	104	0	60	41101
2026-01-01 02:45:27.49	16.09	1.77	-48.0	-50.5	6.1	7.52e-01	0	37	104	0	60	41094
2026-01-01 02:45:28.50	16.00	1.83	-48.0	-50.5	6.1	7.55e-01	0	37	104	0	60	41012
2026-01-01 02:45:29.51	15.91	1.89	-48.0	-50.5	6.1	7.54e-01	0	37	104	0	60	41033
2026-01-01 02:45:30.52	15.82	1.95	-48.0	-50.5	6.1	7.54e-01	0	37	104	0	60	41203
2026-01-01 02:45:31.52	15.73	2.01	-48.0	-50.5	6.1	7.53e-01	0	37	104	0	60	41203
2026-01-01 02:45:32.53	15.64	2.07	-48.0	-50.5	6.1	7.54e-01	0	37	104	0	60	41215
2026-01-01 02:45:33.54	15.54	2.13	-48.0	-50.5	6.1	7.54e-01	0	38	104	0	60	40878
2026-01-01 02:45:34.55	15.45	2.19	-48.0	-50.5	6.1	7.55e-01	0	37	104	0	60	41055
2026-01-01 02:45:35.56	15.36	2.25	-48.0	-50.5	6.1	7.54e-01	0	38	104	0	60	40938
2026-01-01 02:45:36.58	15.26	2.31	-48.0	-50.5	6.1	7.54e-01	0	38	104	0	60	40925
2026-01-01 02:45:37.58	15.17	2.37	-48.0	-50.5	6.1	7.54e-01	0	38	104	0	60	40933
2026-01-01 02:45:38.59	15.07	2.43	-48.0	-50.5	6.1	7.54e-01	0	38	104	0	60	41211
2026-01-01 02:45:39.60	14.98	2.49	-48.0	-50.5	6.1	7.53e-01	0	38	104	0	60	41108
2026-01-01 02:45:40.61	14.88	2.55	-48.0	-50.5	6.1	7.54e-01	0	38	104	0	60	40929
2026-01-01 02:45:41.62	14.78	2.61	-48.0	-50.6	6.1	7.55e-01	0	38	104	0	60	41330
2026-01-01 02:45:42.63	14.69	2.67	-48.0	-50.5	6.1	7.54e-01	0	38	104	0	60	41174
2026-01-01 02:45:43.64	14.59	2.73	-48.0	-50.5	6.1	7.54e-01	0	38	104	0	60	41011
2026-01-01 02:45:44.66	14.49	2.80	-48.0	-50.5	6.1	7.54e-01	0	38	104	0	60	41039
2026-01-01 02:45:45.66	14.39	2.86	-48.0	-50.5	6.1	7.54e-01	0	38	104	0	60	40919
2026-01-01 02:45:46.67	14.29	2.92	-48.0	-50.5	6.1	7.55e-01	0	38	104	0	60	41065
2026-01-01 02:45:47.69	14.19	2.98	-48.0	-50.5	6.1	7.54e-01	0	38	104	0	60	41023
2026-01-01 02:45:48.70	14.09	3.04	-48.0	-50.5	6.1	7.55e-01	0	38	104	0	60	40949
2026-01-01 02:45:49.71	13.99	3.10	-48.0	-50.5	6.1	7.54e-01	0	38	104	0	60	41018
2026-01-01 02:45:50.72	13.89	3.17	-48.0	-50.5	6.1	7.54e-01	0	38	104	0	60	40889
2026-01-01 02:45:51.73	13.78	3.23	-48.0	-50.5	6.1	7.54e-01	0	38	104	0	60	40981
2026-01-01 02:45:52.74	13.68	3.29	-48.0	-50.5	6.1	7.54e-01	0	38	104	0	60	40971
2026-01-01 02:45:53.75	13.58	3.35	-48.0	-50.5	6.1	7.54e-01	0	38	104	0	60	41089
2026-01-01 02:45:54.75	13.47	3.41	-48.0	-50.5	6.1	7.54e-01	0	38	104	0	60	41179
2026-01-01 02:45:55.77	13.37	3.48	-48.0	-50.5	6.1	7.54e-01	0	38	104	0	60	41092
2026-01-01 02:45:56.78	13.26	3.54	-48.3	-50.8	6.1	7.53e-01	0	38	104	0	60	42536
2026-01-01 02:45:57.79	13.16	3.60	-48.3	-50.8	6.1	7.54e-01	0	38	104	0	60	42229
2026-01-01 02:45:58.80	13.05	3.66	-48.0	-50.5	6.1	7.53e-01	0	38	104	0	60	40989
2026-01-01 02:45:59.81	12.95	3.73	-48.2	-50.7	6.1	7.54e-01	0	38	104	0	60	42076
2026-01-01 02:46:00.82	12.84	3.79	-48.1	-50.6	6.1	7.54e-01	0	38	104	0	60	41619
2026-01-01 02:46:01.83	12.73	3.85	-48.3	-50.8	6.1	7.55e-01	0	38	104	0	60	42448
2026-01-01 02:46:02.84	12.62	3.91	-48.0	-50.5	6.1	7.55e-01	0	38	104	0	60	41100
2026-01-01 02:46:03.84	12.51	3.98	-48.3	-50.8	6.1	7.54e-01	0	38	104	0	60	42440
2026-01-01 02:46:04.86	12.40	4.04	-48.2	-50.7	6.1	7.54e-01	0	38	104	0	60	42066
2026-01-01 02:46:05.87	12.29	4.10	-48.4	-50.8	6.1	7.55e-01	0	38	104	0	60	42603
2026-01-01 02:46:06.88	12.18	4.17	-48.1	-50.6	6.1	7.53e-01	0	38	104	0	60	41697
2026-01-01 02:46:07.88	12.07	4.23	-48.4	-50.8	6.1	7.55e-01	0	38	104	0	60	42637
2026-01-01 02:46:08.89	11.96	4.29	-48.3	-50.8	6.0	7.52e-01	0	38	104	0	60	42356
2026-01-01 02:46:09.90	11.84	4.36	-48.5	-50.9	6.1	7.54e-01	0	38	104	0	60	43080
2026-01-01 02:46:10.91	11.73	4.42	-48.2	-50.7	6.1	7.54e-01	0	38	104	0	60	41982
2026-01-01 02:46:11.92	11.62	4.49	-48.4	-50.9	6.1	7.54e-01	0	38	104	0	60	42859
2026-01-01 02:46:12.93	11.50	4.55	-48.4	-50.9	6.1	7.54e-01	0	38	104	0	60	42765
2026-01-01 02:46:13.94	11.39	4.61	-48.5	-50.9	6.1	7.54e-01	0	38	104	0	60	43052
2026-01-01 02:46:14.95	11.27	4.68	-48.3	-50.7	6.1	7.55e-01	0	38	104	0	60	42126
2026-01-01 02:46:15.96	11.15	4.74	-48.5	-51.0	6.1	7.54e-01	0	38	104	0	60	43342
2026-01-01 02:46:16.97	11.03	4.81	-48.4	-50.8	6.1	7.55e-01	0	38	104	0	60	42708
2026-01-01 02:46:17.98	10.92	4.87	-48.6	-51.0	6.1	7.54e-01	0	38	104	0	60	43546
2026-01-01 02:46:18.98	10.80	4.94	-48.4	-50.9	6.1	7.53e-01	0	38	104	0	60	42853
2026-01-01 02:46:20.00	10.68	5.00	-48.5	-51.0	6.1	7.53e-01	0	38	104	0	60	43546
2026-01-01 02:46:21.00	10.56	5.07	-48.4	-50.9	6.1	7.55e-01	0	38	104	0	60	42999
2026-01-01 02:46:22.01	10.44	5.13	-48.6	-51.1	6.1	7.54e-01	0	38	104	0	60	43817
2026-01-01 02:46:23.02	10.32	5.20	-48.4	-50.8	6.1	7.55e-01	0	38	104	0	60	42599
2026-01-01 02:46:24.03	10.19	5.26	-48.5	-51.0	6.1	7.54e-01	0	38	104	0	60	43476
2026-01-01 02:46:25.04	10.07	5.33	-48.5	-50.9	6.1	7.54e-01	0	38	104	0	60	43158
2026-01-01 02:46:26.05	9.95	5.39	-48.5	-51.0	6.1	7.54e-01	0	38	104	0	60	43460
2026-01-01 02:46:27.06	9.82	5.46	-48.5	-50.9	6.1	7.54e-01	0	38	104	0	60	43100
2026-01-01 02:46:28.07	9.70	5.52	-48.6	-51.1	6.1	7.53e-01	0	38	104	0	60	43774
2026-01-01 02:46:29.08	9.57	5.59	-48.5	-50.9	6.1	7.55e-01	0	38	104	0	60	43167
2026-01-01 02:46:30.09	9.45	5.66	-48.6	-51.0	6.1	7.53e-01	0	38	104	0	60	43614
2026-01-01 02:46:31.10	9.32	5.72	-48.5	-51.0	6.1	7.54e-01	0	38	104	0	60	43473
2026-01-01 02:46:32.11	9.19	5.79	-48.6	-51.1	6.1	7.54e-01	0	38	104	0	60	43712
2026-01-01 02:46:33.12	9.06	5.85	-48.6	-51.0	6.0	7.54e-01	0	38	104	0	60	43695
2026-01-01 02:46:34.13	8.93	5.92	-48.7	-51.1	6.1	7.54e-01	0	38	104	0	60	44195
2026-01-01 02:46:35.14	8.80	5.99	-48.5	-51.0	6.1	7.54e-01	0	38	104	0	60	43375
2026-01-01 02:46:36.15	8.67	6.05	-48.6	-51.0	6.1	7.54e-01	0	38	104	0	60	43603
2026-01-01 02:46:37.16	8.54	6.12	-48.6	-51.0	6.1	7.53e-01	0	38	104	0	60	43525
2026-01-01 02:46:38.17	8.41	6.19	-48.7	-51.1	6.1	7.53e-01	0	38	104	0	60	44162
2026-01-01 02:46:39.18	8.27	6.25	-48.5	-51.0	6.1	7.54e-01	0	38	104	0	60	43545
2026-01-01 02:46:40.19	8.14	6.32	-48.6	-51.1	6.1	7.53e-01	0	38	104	0	60	43718
2026-01-01 02:46:41.19	8.01	6.39	-48.5	-51.0	6.1	7.54e-01	0	38	104	0	60	43462
2026-01-01 02:46:42.20	7.87	6.45	-48.7	-51.1	6.1	7.53e-01	0	38	104	0	60	44184
2026-01-01 02:46:43.21	7.73	6.52	-48.6	-51.0	6.1	7.54e-01	0	38	104	0	60	43590
2026-01-01 02:46:44.22	7.60	6.59	-48.7	-51.2	6.1	7.54e-01	0	38	104	0	60	44249
2026-01-01 02:46:45.23	7.46	6.66	-48.6	-51.1	6.1	7.55e-01	0	38	104	0	60	43778
2026-01-01 02:46:46.24	7.32	6.72	-48.7	-51.1	6.1	7.53e-01	0	38	104	0	60	44098
2026-01-01 02:46:47.25	7.18	6.79	-48.6	-51.1	6.1	7.54e-01	0	38	104	0	60	43710
2026-01-01 02:46:48.26	7.04	6.86	-48.7	-51.2	6.1	7.55e-01	0	38	104	0	60	44511
2026-01-01 02:46:49.27	6.90	6.93	-48.7	-51.1	6.1	7.54e-01	0	38	104	0	60	44078
2026-01-01 02:46:50.28	6.76	6.99	-48.8	-51.2	6.1	7.53e-01	0	38	104	0	60	44399
2026-01-01 02:46:51.29	6.61	7.06	-48.7	-51.1	6.1	7.54e-01	0	38	104	0	60	44105
2026-01-01 02:46:52.29	6.47	7.13	-48.6	-51.1	6.1	7.54e-01	0	38	104	0	60	43828
2026-01-01 02:46:53.31	6.32	7.20	-48.7	-51.1	6.1	7.54e-01	0	38	104	0	60	44142
2026-01-01 02:46:54.32	6.18	7.27	-48.8	-51.2	6.1	7.55e-01	0	38	104	0	60	44672
2026-01-01 02:46:55.33	6.03	7.33	-48.7	-51.2	6.1	7.55e-01	0	38	104	0	60	44463
2026-01-01 02:46:56.33	5.89	7.40	-48.8	-51.3	6.1	7.55e-01	0	38	104	0	60	44786
2026-01-01 02:46:57.34	5.74	7.47	-48.8	-51.2	6.1	7.54e-01	0	38	104	0	60	44364
2026-01-01 02:46:58.35	5.59	7.54	-48.8	-51.3	6.1	7.55e-01	0	38	104	0	60	45086
2026-01-01 02:46:59.36	5.44	7.61	-48.8	-51.2	6.1	7.54e-01	0	38	104	0	60	44678
2026-01-01 02:47:00.37	5.29	7.68	-48.8	-51.3	6.1	7.54e-01	0	38	104	0	60	44734
2026-01-01 02:47:01.38	5.14	7.74	-48.7	-51.2	6.1	7.54e-01	0	38	104	0	60	44278
2026-01-01 02:47:02.39	4.99	7.81	-48.8	-51.3	6.1	7.54e-01	0	38	104	0	60	44784
2026-01-01 02:47:03.40	4.83	7.88	-48.7	-51.2	6.1	7.54e-01	0	38	104	0	60	44375
2026-01-01 02:47:04.41	4.68	7.95	-48.8	-51.3	6.1	7.54e-01	0	38	104	0	60	45011
2026-01-01 02:47:05.42	4.52	8.02	-48.9	-51.3	6.1	7.54e-01	0	38	104	0	60	44947
2026-01-01 02:47:06.43	4.37	8.09	-48.9	-51.3	6.1	7.54e-01	0	38	104	0	60	44961
2026-01-01 02:47:07.44	4.21	8.16	-48.9	-51.3	6.1	7.54e-01	0	38	104	0	60	45211
2026-01-01 02:47:08.45	4.05	8.23	-48.9	-51.4	6.1	7.53e-01	0	38	104	0	60	45273
2026-01-01 02:47:09.46	3.89	8.30	-48.8	-51.3	6.1	7.54e-01	0	38	104	0	60	44948
2026-01-01 02:47:10.46	3.73	8.37	-48.9	-51.3	6.1	7.54e-01	0	38	104	0	60	45185
2026-01-01 02:47:11.47	3.57	8.43	-48.9	-51.3	6.1	7.54e-01	0	38	104	0	60	45182
2026-01-01 02:47:12.48	3.41	8.50	-48.9	-51.4	6.1	7.53e-01	0	38	104	0	60	45289
2026-01-01 02:47:13.49	3.25	8.57	-48.9	-51.3	6.1	7.54e-01	0	38	104	0	60	44965
2026-01-01 02:47:14.50	3.09	8.64	-48.9	-51.4	6.1	7.55e-01	0	38	104	0	60	45311
2026-01-01 02:47:15.51	2.92	8.71	-48.9	-51.4	6.1	7.54e-01	0	39	104	0	60	45308
2026-01-01 02:47:16.52	2.75	8.78	-48.8	-51.2	6.1	7.54e-01	0	39	104	0	60	44710
2026-01-01 02:47:17.53	2.59	8.85	-48.9	-51.5	6.1	7.55e-01	0	39	104	0	60	45843
2026-01-01 02:47:18.54	2.42	8.92	-48.9	-51.4	6.1	7.54e-01	0	38	104	0	60	45279
2026-01-01 02:47:19.55	2.25	8.99	-48.9	-51.3	6.1	7.55e-01	0	39	104	0	60	45182
2026-01-01 02:47:20.55	2.08	9.06	-48.9	-51.4	6.1	7.56e-01	0	39	104	0	60	45483
2026-01-01 02:47:21.57	1.91	9.13	-48.9	-51.4	6.1	7.54e-01	0	39	104	0	60	45592
2026-01-01 02:47:22.58	1.74	9.20	-49.0	-51.4	6.1	7.53e-01	0	39	104	0	60	45660
2026-01-01 02:47:23.59	1.57	9.27	-48.9	-51.4	6.1	7.55e-01	0	38	104	0	60	45538
2026-01-01 02:47:24.59	1.40	9.34	-48.9	-51.4	6.1	7.54e-01	0	38	104	0	60	45508
2026-01-01 02:47:25.60	1.22	9.41	-49.0	-51.4	6.1	7.54e-01	0	39	104	0	60	45631
2026-01-01 02:47:26.61	1.05	9.48	-48.9	-51.4	6.1	7.54e-01	0	38	104	0	60	45258
2026-01-01 02:47:27.62	0.87	9.55	-49.0	-51.4	6.1	7.54e-01	0	39	104	0	60	45603
2026-01-01 02:47:28.63	0.69	9.62	-49.0	-51.4	6.1	7.54e-01	0	39	104	0	60	45604
2026-01-01 02:47:29.64	0.51	9.69	-49.0	-51.4	6.1	7.54e-01	0	39	104	0	60	45708
2026-01-01 02:47:30.65	0.33	9.76	-49.0	-51.5	6.0	7.56e-01	0	39	104	0	60	45959
2026-01-01 02:47:31.66	0.15	9.83	-49.0	-51.5	6.1	7.54e-01	0	39	104	0	60	46065
2026-01-01 02:47:32.67	359.97	9.90	-49.0	-51.5	6.1	7.54e-01	0	38	104	0	60	45889
2026-01-01 02:47:33.68	359.79	9.97	-49.1	-51.5	6.1	7.54e-01	0	39	104	0	60	46173
2026-01-01 02:47:34.69	359.60	10.04	-49.0	-51.4	6.1	7.54e-01	0	39	104	0	60	45703
2026-01-01 02:47:35.70	359.42	10.11	-49.0	-51.5	6.1	7.54e-01	0	39	104	0	60	45941
2026-01-01 02:47:36.71	359.23	10.19	-49.0	-51.6	6.1	7.54e-01	0	39	104	0	60	46352
2026-01-01 02:47:37.72	359.04	10.26	-49.0	-51.5	6.1	7.55e-01	0	39	104	0	60	45792
2026-01-01 02:47:38.73	358.85	10.33	-49.0	-51.4	6.1	7.53e-01	0	39	104	0	60	45520
2026-01-01 02:47:39.73	358.67	10.40	-49.0	-51.5	6.1	7.52e-01	0	39	104	0	60	45982
2026-01-01 02:47:40.75	358.47	10.47	-48.9	-51.5	6.1	7.55e-01	0	39	104	0	60	45820
2026-01-01 02:47:41.75	358.28	10.54	-49.0	-51.4	6.1	7.54e-01	0	39	104	0	60	45681
2026-01-01 02:47:42.76	358.09	10.61	-49.0	-51.4	6.1	7.55e-01	0	39	104	0	60	45622
2026-01-01 02:47:43.78	357.89	10.68	-48.9	-51.4	6.1	7.54e-01	0	39	104	0	60	45426
2026-01-01 02:47:44.79	357.70	10.75	-49.0	-51.5	6.1	7.54e-01	0	39	104	0	60	45864
2026-01-01 02:47:45.80	357.50	10.82	-49.0	-51.5	6.1	7.55e-01	0	39	104	0	60	46084
2026-01-01 02:47:46.81	357.30	10.89	-49.0	-51.4	6.1	7.54e-01	0	39	104	0	60	45717
2026-01-01 02:47:47.82	357.10	10.96	-49.1	-51.6	6.1	7.54e-01	0	38	104	0	60	46427
2026-01-01 02:47:48.83	356.90	11.03	-49.0	-51.5	6.1	7.54e-01	0	39	104	0	60	45939
2026-01-01 02:47:49.83	356.70	11.10	-49.1	-51.6	6.1	7.54e-01	0	39	104	0	60	46425
2026-01-01 02:47:50.84	356.50	11.17	-49.0	-51.4	6.1	7.56e-01	0	39	104	0	60	45753
2026-01-01 02:47:51.85	356.30	11.24	-49.1	-51.6	6.1	7.55e-01	0	38	104	0	60	46300
2026-01-01 02:47:52.86	356.09	11.31	-49.1	-51.5	6.1	7.53e-01	0	38	104	0	60	46125
2026-01-01 02:47:53.87	355.89	11.38	-49.1	-51.6	6.1	7.55e-01	0	38	104	0	60	46638
2026-01-01 02:47:54.88	355.68	11.45	-49.1	-51.6	6.1	7.54e-01	0	38	104	0	60	46363
2026-01-01 02:47:55.89	355.47	11.52	-49.1	-51.6	6.1	7.54e-01	0	39	104	0	60	46323
2026-01-01 02:47:56.90	355.26	11.59	-49.1	-51.6	6.1	7.54e-01	0	38	104	0	60	46336
2026-01-01 02:47:57.91	355.05	11.66	-49.1	-51.7	6.1	7.55e-01	0	38	104	0	60	46856
2026-01-01 02:47:58.92	354.84	11.73	-49.1	-51.5	6.1	7.54e-01	0	38	104	0	60	46079
2026-01-01 02:47:59.93	354.63	11.80	-49.2	-51.6	6.1	7.54e-01	0	39	104	0	60	46377
2026-01-01 02:48:00.94	354.41	11.87	-49.1	-51.5	6.1	7.54e-01	0	39	104	0	60	45971
2026-01-01 02:48:01.95	354.20	11.94	-49.1	-51.6	6.1	7.54e-01	0	39	104	0	60	46630
2026-01-01 02:48:02.96	353.98	12.01	-49.1	-51.5	6.1	7.54e-01	0	39	104	0	60	46122
2026-01-01 02:48:03.97	353.76	12.07	-49.1	-51.6	6.1	7.55e-01	0	39	104	0	60	46488
2026-01-01 02:48:04.98	353.54	12.14	-49.1	-51.6	6.1	7.55e-01	0	39	104	0	60	46318
2026-01-01 02:48:05.99	353.32	12.21	-49.2	-51.6	6.1	7.53e-01	0	38	104	0	60	46720
2026-01-01 02:48:07.00	353.10	12.28	-49.1	-51.5	6.1	7.53e-01	0	38	104	0	60	46053
2026-01-01 02:48:08.01	352.88	12.35	-49.2	-51.7	6.1	7.54e-01	0	39	104	0	60	46847
2026-01-01 02:48:09.02	352.65	12.42	-49.2	-51.6	6.1	7.56e-01	0	39	104	0	60	46582
2026-01-01 02:48:10.03	352.43	12.49	-49.2	-51.7	6.1	7.56e-01	0	39	104	0	60	46930
2026-01-01 02:48:11.04	352.20	12.56	-49.2	-51.7	6.1	7.54e-01	0	39	104	0	60	47117
2026-01-01 02:48:12.05	351.97	12.62	-49.2	-51.7	6.1	7.53e-01	0	38	104	0	60	46941
2026-01-01 02:48:13.05	351.75	12.69	-49.2	-51.7	6.1	7.54e-01	0	39	104	0	60	46847
2026-01-01 02:48:14.07	351.51	12.76	-49.2	-51.6	6.1	7.54e-01	0	39	104	0	60	46703
2026-01-01 02:48:15.08	351.28	12.83	-49.1	-51.6	6.1	7.55e-01	0	38	104	0	60	46368
2026-01-01 02:48:16.09	351.05	12.89	-49.2	-51.6	6.1	7.54e-01	0	38	104	0	60	46539
2026-01-01 02:48:17.10	350.81	12.96	-49.1	-51.6	6.1	7.55e-01	0	38	104	0	60	46406
2026-01-01 02:48:18.11	350.58	13.03	-49.1	-51.6	6.1	7.53e-01	0	38	104	0	60	46614
2026-01-01 02:48:19.12	350.34	13.10	-49.2	-51.6	6.1	7.54e-01	0	38	104	0	60	46517
2026-01-01 02:48:20.13	350.10	13.16	-49.2	-51.6	6.1	7.54e-01	0	38	104	0	60	46701
2026-01-01 02:48:21.13	349.86	13.23	-49.2	-51.7	6.1	7.54e-01	0	38	104	0	60	46887
2026-01-01 02:48:22.15	349.62	13.30	-49.2	-51.7	6.1	7.54e-01	0	38	104	0	60	47008
2026-01-01 02:48:23.16	349.38	13.36	-49.2	-51.7	6.1	7.55e-01	0	38	104	0	60	46882
2026-01-01 02:48:24.17	349.13	13.43	-49.2	-51.6	6.1	7.55e-01	0	38	104	0	60	46809
2026-01-01 02:48:25.17	348.89	13.49	-49.2	-51.7	6.1	7.54e-01	0	39	104	0	60	46860
2026-01-01 02:48:26.18	348.65	13.56	-49.2	-51.7	6.1	7.55e-01	0	38	104	0	60	46926
2026-01-01 02:48:27.19	348.40	13.62	-49.2	-51.6	6.1	7.54e-01	0	38	104	0	60	46636
2026-01-01 02:48:28.20	348.15	13.69	-49.2	-51.7	6.1	7.54e-01	0	38	104	0	60	47131
2026-01-01 02:48:29.21	347.90	13.75	-49.3	-51.7	6.1	7.56e-01	0	38	104	0	60	47051
2026-01-01 02:48:30.23	347.65	13.82	-49.2	-51.7	6.1	7.55e-01	0	38	104	0	60	46969
2026-01-01 02:48:31.24	347.39	13.88	-49.2	-51.6	6.1	7.54e-01	0	38	104	0	60	46785
2026-01-01 02:48:32.25	347.14	13.95	-49.2	-51.7	6.1	7.54e-01	0	38	104	0	60	46917
2026-01-01 02:48:33.26	346.88	14.01	-49.2	-51.7	6.1	7.53e-01	0	38	104	0	60	47046
2026-01-01 02:48:34.27	346.63	14.08	-49.2	-51.7	6.1	7.54e-01	0	38	104	0	60	47144
2026-01-01 02:48:35.28	346.37	14.14	-49.3	-51.7	6.1	7.53e-01	0	38	104	0	60	46941
2026-01-01 02:48:36.29	346.11	14.20	-49.2	-51.7	6.1	7.54e-01	0	38	104	0	60	47058
2026-01-01 02:48:37.30	345.85	14.26	-49.3	-51.7	6.1	7.54e-01	0	38	104	0	60	47031
2026-01-01 02:48:38.30	345.59	14.33	-49.2	-51.7	6.1	7.53e-01	0	38	104	0	60	47246
2026-01-01 02:48:39.31	345.33	14.39	-49.2	-51.7	6.1	7.54e-01	0	38	104	0	60	46980
2026-01-01 02:48:40.32	345.06	14.45	-49.2	-51.7	6.1	7.54e-01	0	38	104	0	60	47021
2026-01-01 02:48:41.33	344.80	14.51	-49.2	-51.7	6.1	7.54e-01	0	39	104	0	60	46891
2026-01-01 02:48:42.34	344.53	14.57	-49.2	-51.7	6.1	7.54e-01	0	38	104	0	60	47054
2026-01-01 02:48:43.35	344.26	14.63	-49.2	-51.7	6.1	7.54e-01	0	38	104	0	60	46979
2026-01-01 02:48:44.36	343.99	14.69	-49.2	-51.7	6.1	7.54e-01	0	38	104	0	60	47103
2026-01-01 02:48:45.37	343.72	14.75	-49.2	-51.7	6.1	7.53e-01	0	38	104	0	60	46980
2026-01-01 02:48:46.38	343.45	14.81	-49.2	-51.7	6.1	7.55e-01	0	38	104	0	60	47173
2026-01-01 02:48:47.38	343.18	14.87	-49.3	-51.7	6.1	7.53e-01	0	38	104	0	60	47256
2026-01-01 02:48:48.39	342.90	14.93	-49.3	-51.7	6.1	7.55e-01	0	38	104	0	60	47276
2026-01-01 02:48:49.40	342.63	14.99	-49.3	-51.7	6.1	7.54e-01	0	38	104	0	60	47064
2026-01-01 02:48:50.41	342.35	15.04	-49.3	-51.7	6.1	7.54e-01	0	38	104	0	60	47186
2026-01-01 02:48:51.41	342.07	15.10	-49.2	-51.7	6.1	7.55e-01	0	38	104	0	60	47078
2026-01-01 02:48:52.43	341.79	15.16	-49.2	-51.8	6.1	7.55e-01	0	38	104	0	60	47480
2026-01-01 02:48:53.43	341.51	15.21	-49.3	-51.7	6.1	7.55e-01	0	38	104	0	60	47192
2026-01-01 02:48:54.44	341.23	15.27	-49.2	-51.7	6.1	7.54e-01	0	38	104	0	60	46982
2026-01-01 02:48:55.45	340.95	15.33	-49.2	-51.7	6.1	7.53e-01	0	38	104	0	60	46862
2026-01-01 02:48:56.46	340.66	15.38	-49.3	-51.7	6.1	7.54e-01	0	38	104	0	60	47358
2026-01-01 02:48:57.47	340.38	15.44	-49.3	-51.7	6.1	7.54e-01	0	38	104	0	60	47223
2026-01-01 02:48:58.48	340.09	15.49	-49.3	-51.8	6.1	7.54e-01	0	38	104	0	60	47377
2026-01-01 02:48:59.49	339.80	15.54	-49.3	-51.7	6.1	7.54e-01	0	38	104	0	60	47184
2026-01-01 02:49:00.50	339.51	15.60	-49.2	-51.7	6.1	7.55e-01	0	38	104	0	60	47228
2026-01-01 02:49:01.51	339.22	15.65	-49.2	-51.7	6.1	7.55e-01	0	38	104	0	60	47082
2026-01-01 02:49:02.52	338.93	15.70	-49.2	-51.7	6.1	7.53e-01	0	38	104	0	60	46948
2026-01-01 02:49:03.53	338.63	15.75	-49.3	-51.8	6.1	7.54e-01	0	38	104	0	60	47722
2026-01-01 02:49:04.54	338.34	15.80	-49.3	-51.8	6.1	7.55e-01	0	38	104	0	60	47504
2026-01-01 02:49:05.55	338.04	15.86	-49.3	-51.8	6.1	7.54e-01	0	38	104	0	60	47739
2026-01-01 02:49:06.56	337.75	15.91	-49.3	-51.8	6.1	7.54e-01	0	38	104	0	60	47712
2026-01-01 02:49:07.57	337.45	15.95	-49.3	-51.8	6.1	7.54e-01	0	38	104	0	60	47630
2026-01-01 02:49:08.58	337.15	16.00	-49.3	-51.8	6.1	7.55e-01	0	38	104	0	60	47744
2026-01-01 02:49:09.59	336.85	16.05	-49.3	-51.8	6.1	7.53e-01	0	38	104	0	60	47656
2026-01-01 02:49:10.60	336.55	16.10	-49.3	-51.8	6.1	7.55e-01	0	38	104	0	60	47570
2026-01-01 02:49:11.61	336.25	16.15	-49.3	-51.8	6.0	7.53e-01	0	38	104	0	60	47378
2026-01-01 02:49:12.62	335.94	16.19	-49.3	-51.7	6.1	7.54e-01	0	38	104	0	60	47318
2026-01-01 02:49:13.63	335.64	16.24	-49.3	-51.8	6.0	7.55e-01	0	38	104	0	60	47755
2026-01-01 02:49:14.64	335.33	16.28	-49.3	-51.8	6.1	7.54e-01	0	38	104	0	60	47507
2026-01-01 02:49:15.65	335.02	16.33	-49.3	-51.8	6.1	7.55e-01	0	38	104	0	60	47662
2026-01-01 02:49:16.66	334.72	16.37	-49.3	-51.8	6.1	7.55e-01	0	38	104	0	60	47567
2026-01-01 02:49:17.67	334.41	16.42	-49.2	-51.8	6.1	7.55e-01	0	38	104	0	60	47622
2026-01-01 02:49:18.68	334.10	16.46	-49.4	-51.9	6.1	7.54e-01	0	38	104	0	60	48029
2026-01-01 02:49:19.69	333.79	16.50	-49.4	-51.9	6.1	7.54e-01	0	38	104	0	60	48072
2026-01-01 02:49:20.70	333.47	16.54	-49.4	-51.8	6.1	7.54e-01	0	38	104	0	60	47726
2026-01-01 02:49:21.71	333.16	16.58	-49.3	-51.9	6.0	7.54e-01	0	38	104	0	60	48044
2026-01-01 02:49:22.72	332.85	16.62	-49.4	-51.9	6.0	7.54e-01	0	38	104	0	60	48188
2026-01-01 02:49:23.73	332.53	16.66	-49.4	-51.8	6.1	7.54e-01	0	38	104	0	60	47805
2026-01-01 02:49:24.74	332.22	16.70	-49.4	-51.9	6.1	7.54e-01	0	38	104	0	60	47984
2026-01-01 02:49:25.75	331.90	16.74	-49.3	-51.8	6.1	7.54e-01	0	38	104	0	60	47726
2026-01-01 02:49:26.76	331.58	16.78	-49.4	-51.9	6.1	7.54e-01	0	38	104	0	60	48047
2026-01-01 02:49:27.77	331.26	16.81	-49.4	-51.8	6.1	7.56e-01	0	38	104	0	60	47924
2026-01-01 02:49:28.78	330.94	16.85	-49.4	-51.8	6.1	7.55e-01	0	38	104	0	60	47834
2026-01-01 02:49:29.79	330.62	16.88	-49.3	-51.8	6.1	7.54e-01	0	38	104	0	60	47379
2026-01-01 02:49:30.80	330.30	16.92	-49.4	-51.9	6.1	7.53e-01	0	38	104	0	60	48038
2026-01-01 02:49:31.81	329.98	16.95	-49.4	-51.9	6.1	7.54e-01	0	38	104	0	60	48114
2026-01-01 02:49:32.82	329.65	16.98	-49.4	-51.9	6.1	7.54e-01	0	38	104	0	60	48057
2026-01-01 02:49:33.83	329.33	17.01	-49.4	-51.9	6.1	7.54e-01	0	38	104	0	60	48000
2026-01-01 02:49:34.84	329.01	17.05	-49.4	-51.9	6.1	7.54e-01	0	38	104	0	60	48186
2026-01-01 02:49:35.85	328.68	17.08	-49.5	-51.9	6.1	7.54e-01	0	38	104	0	60	47992
2026-01-01 02:49:36.86	328.35	17.11	-49.4	-51.9	6.1	7.53e-01	0	38	104	0	60	48082
2026-01-01 02:49:37.87	328.03	17.13	-49.4	-51.9	6.1	7.54e-01	0	38	104	0	60	47966
2026-01-01 02:49:38.88	327.70	17.16	-49.4	-51.9	6.1	7.54e-01	0	38	104	0	60	48073
2026-01-01 02:49:39.89	327.37	17.19	-49.5	-51.9	6.1	7.55e-01	0	38	104	0	60	48273
2026-01-01 02:49:40.90	327.04	17.22	-49.4	-51.9	6.1	7.55e-01	0	38	104	0	60	48013
2026-01-01 02:49:41.90	326.72	17.24	-49.4	-51.9	6.1	7.54e-01	0	38	104	0	60	48128
2026-01-01 02:49:42.91	326.38	17.26	-49.5	-51.9	6.1	7.54e-01	0	38	104	0	60	48341
2026-01-01 02:49:43.92	326.05	17.29	-49.4	-51.9	6.1	7.55e-01	0	38	104	0	60	47986
2026-01-01 02:49:44.93	325.72	17.31	-49.5	-51.9	6.1	7.54e-01	0	38	104	0	60	48061
2026-01-01 02:49:45.94	325.39	17.33	-49.4	-51.9	6.1	7.53e-01	0	38	104	0	60	48127
2026-01-01 02:49:46.95	325.06	17.35	-49.4	-51.8	6.1	7.53e-01	0	38	104	0	60	47786
2026-01-01 02:49:47.96	324.72	17.38	-49.5	-52.0	6.1	7.54e-01	0	38	104	0	60	48541
2026-01-01 02:49:48.97	324.39	17.39	-49.4	-51.9	6.1	7.55e-01	0	38	104	0	60	47965
2026-01-01 02:49:49.98	324.06	17.41	-49.4	-51.9	6.1	7.55e-01	0	38	104	0	60	48095
2026-01-01 02:49:50.99	323.72	17.43	-49.5	-51.9	6.1	7.54e-01	0	38	104	0	60	48135
2026-01-01 02:49:52.00	323.39	17.45	-49.5	-51.9	6.1	7.54e-01	0	38	104	0	60	47998
2026-01-01 02:49:53.01	323.05	17.46	-49.5	-51.9	6.1	7.55e-01	0	38	104	0	60	48173
2026-01-01 02:49:54.02	322.71	17.48	-49.4	-51.9	6.1	7.54e-01	0	38	104	0	60	48221
2026-01-01 02:49:55.03	322.38	17.49	-49.4	-51.8	6.1	7.55e-01	0	38	104	0	60	47581
2026-01-01 02:49:56.04	322.04	17.51	-49.5	-51.9	6.1	7.54e-01	0	38	104	0	60	48120
2026-01-01 02:49:57.05	321.70	17.52	-49.4	-51.9	6.1	7.54e-01	0	38	104	0	60	48128
2026-01-01 02:49:58.06	321.37	17.53	-49.4	-51.9	6.1	7.54e-01	0	38	104	0	60	48017
2026-01-01 02:49:59.07	321.03	17.54	-49.4	-51.9	6.1	7.53e-01	0	38	104	0	60	48226
2026-01-01 02:50:00.08	320.69	17.55	-49.5	-51.9	6.1	7.54e-01	0	38	104	0	60	48037
2026-01-01 02:50:01.09	320.35	17.56	-49.4	-51.8	6.1	7.54e-01	0	38	104	0	60	47787
2026-01-01 02:50:02.10	320.01	17.57	-49.5	-51.9	6.1	7.55e-01	0	38	104	0	60	48452
2026-01-01 02:50:03.11	319.68	17.57	-49.5	-52.0	6.1	7.54e-01	0	38	104	0	60	48555
2026-01-01 02:50:04.12	319.34	17.58	-49.5	-51.9	6.1	7.53e-01	0	38	104	0	60	48114
2026-01-01 02:50:05.13	319.00	17.58	-49.5	-52.0	6.1	7.54e-01	0	38	104	0	60	48575
2026-01-01 02:50:06.14	318.66	17.59	-49.3	-51.8	6.1	7.54e-01	0	38	104	0	60	47855
2026-01-01 02:50:07.15	318.32	17.59	-49.5	-52.0	6.1	7.55e-01	0	38	104	0	60	48578
2026-01-01 02:50:08.16	317.98	17.59	-49.4	-51.9	6.1	7.54e-01	0	38	104	0	60	48165
2026-01-01 02:50:09.17	317.64	17.60	-49.4	-51.9	6.1	7.54e-01	0	38	104	0	60	47999
2026-01-01 02:50:10.17	317.30	17.60	-49.3	-51.8	6.1	7.55e-01	0	38	104	0	60	47703
2026-01-01 02:50:11.18	316.96	17.60	-49.5	-51.9	6.1	7.55e-01	0	38	104	0	60	48290
2026-01-01 02:50:12.19	316.63	17.60	-49.5	-52.0	6.0	7.55e-01	0	38	104	0	60	48627
2026-01-01 02:50:13.20	316.29	17.59	-49.5	-52.0	6.1	7.55e-01	0	38	104	0	60	48636
2026-01-01 02:50:14.21	315.95	17.59	-49.5	-52.0	6.1	7.54e-01	0	38	104	0	60	48710
2026-01-01 02:50:15.22	315.61	17.59	-49.5	-51.9	6.1	7.54e-01	0	38	104	0	60	48267
2026-01-01 02:50:16.23	315.27	17.58	-49.5	-52.0	6.1	7.53e-01	0	38	104	0	60	48583
2026-01-01 02:50:17.24	314.93	17.57	-49.4	-51.9	6.1	7.53e-01	0	38	104	0	60	47952
2026-01-01 02:50:18.25	314.59	17.57	-49.4	-51.9	6.1	7.54e-01	0	38	104	0	60	47959
2026-01-01 02:50:19.26	314.25	17.56	-49.4	-51.9	6.1	7.54e-01	0	38	104	0	60	48346
2026-01-01 02:50:20.26	313.92	17.55	-49.4	-51.9	6.0	7.54e-01	0	38	104	0	60	48030
2026-01-01 02:50:21.27	313.58	17.54	-49.4	-51.8	6.1	7.54e-01	0	38	104	0	60	47868
2026-01-01 02:50:22.28	313.24	17.53	-49.4	-51.9	6.1	7.54e-01	0	38	104	0	60	48065
2026-01-01 02:50:23.29	312.90	17.52	-49.5	-52.0	6.1	7.54e-01	0	38	104	0	60	48830
2026-01-01 02:50:24.30	312.56	17.51	-49.5	-52.0	6.1	7.55e-01	0	38	104	0	60	48695
2026-01-01 02:50:25.31	312.23	17.50	-49.5	-52.0	6.1	7.54e-01	0	38	104	0	60	48753
2026-01-01 02:50:26.33	311.89	17.48	-49.4	-51.9	6.1	7.54e-01	0	38	104	0	60	48323
2026-01-01 02:50:27.33	311.55	17.47	-49.5	-51.9	6.1	7.55e-01	0	38	104	0	60	48374
2026-01-01 02:50:28.35	311.22	17.45	-49.5	-51.9	6.1	7.54e-01	0	38	104	0	60	48439
2026-01-01 02:50:29.35	310.88	17.43	-49.4	-51.9	6.1	7.56e-01	0	38	104	0	60	48274
2026-01-01 02:50:30.37	310.54	17.42	-49.3	-51.9	6.1	7.56e-01	0	38	104	0	60	48219
2026-01-01 02:50:31.38	310.21	17.40	-49.5	-51.9	6.1	7.55e-01	0	38	104	0	60	48350
2026-01-01 02:50:32.39	309.88	17.38	-49.5	-52.0	6.1	7.54e-01	0	38	104	0	60	48641
2026-01-01 02:50:33.39	309.54	17.36	-49.5	-52.0	6.1	7.54e-01	0	38	104	0	60	48537
2026-01-01 02:50:34.40	309.21	17.34	-49.4	-51.9	6.1	7.54e-01	0	38	104	0	60	48208
2026-01-01 02:50:35.41	308.88	17.31	-49.5	-52.0	6.1	7.54e-01	0	38	104	0	60	48583
2026-01-01 02:50:36.42	308.55	17.29	-49.4	-51.9	6.0	7.54e-01	0	38	104	0	60	48259
2026-01-01 02:50:37.43	308.22	17.27	-49.4	-51.9	6.1	7.54e-01	0	38	104	0	60	48067
2026-01-01 02:50:38.44	307.88	17.24	-49.3	-51.8	6.1	7.55e-01	0	38	104	0	60	47775
2026-01-01 02:50:39.45	307.55	17.22	-49.4	-51.9	6.1	7.54e-01	0	38	104	0	60	48135
2026-01-01 02:50:40.46	307.22	17.19	-49.3	-51.8	6.1	7.52e-01	0	38	104	0	60	47581
2026-01-01 02:50:41.47	306.90	17.17	-49.3	-51.8	6.1	7.54e-01	0	38	104	0	60	47497
2026-01-01 02:50:42.48	306.57	17.14	-49.2	-51.7	6.1	7.55e-01	0	38	104	0	60	46924
2026-01-01 02:50:43.49	306.24	17.11	-49.2	-51.8	6.1	7.52e-01	0	38	104	0	60	47479
2026-01-01 02:50:44.50	305.91	17.08	-49.1	-51.7	6.1	7.55e-01	0	38	104	0	60	46908
2026-01-01 02:50:45.50	305.59	17.05	-49.2	-51.7	6.1	7.55e-01	0	38	104	0	60	47174
2026-01-01 02:50:46.51	305.26	17.02	-49.2	-51.7	6.1	7.54e-01	0	38	104	0	60	47045
2026-01-01 02:50:47.52	304.94	16.99	-49.2	-51.7	6.1	7.54e-01	0	38	104	0	60	47225
2026-01-01 02:50:48.53	304.62	16.95	-49.2	-51.8	6.1	7.55e-01	0	38	104	0	60	47415
2026-01-01 02:50:49.54	304.29	16.92	-49.1	-51.7	6.1	7.54e-01	0	38	104	0	60	47005
2026-01-01 02:50:50.55	303.97	16.89	-49.1	-51.6	6.1	7.54e-01	0	38	104	0	60	46813
2026-01-01 02:50:51.56	303.65	16.85	-49.2	-51.6	6.1	7.54e-01	0	38	104	0	60	46822
2026-01-01 02:50:52.57	303.33	16.82	-49.1	-51.6	6.1	7.54e-01	0	38	104	0	60	46775
2026-01-01 02:50:53.58	303.01	16.78	-49.2	-51.8	6.1	7.55e-01	0	38	104	0	60	47401
2026-01-01 02:50:54.58	302.69	16.74	-49.2	-51.8	6.1	7.54e-01	0	38	104	0	60	47394
2026-01-01 02:50:55.59	302.37	16.71	-49.3	-51.9	6.1	7.53e-01	0	38	104	0	60	47969
2026-01-01 02:50:56.60	302.06	16.67	-49.2	-51.7	6.1	7.53e-01	0	38	104	0	60	47176
2026-01-01 02:50:57.61	301.74	16.63	-49.3	-51.8	6.1	7.55e-01	0	38	104	0	60	47736
2026-01-01 02:50:58.62	301.43	16.59	-49.4	-51.8	6.1	7.55e-01	0	38	104	0	60	47727
2026-01-01 02:50:59.63	301.11	16.55	-49.4	-51.8	6.1	7.55e-01	0	38	104	0	60	47885
2026-01-01 02:51:00.64	300.80	16.51	-49.4	-51.8	6.1	7.55e-01	0	38	104	0	60	47837
2026-01-01 02:51:01.65	300.49	16.46	-49.3	-51.8	6.1	7.54e-01	0	38	104	0	60	47853
2026-01-01 02:51:02.66	300.18	16.42	-49.4	-51.8	6.1	7.55e-01	0	38	104	0	60	47895
2026-01-01 02:51:03.67	299.87	16.38	-49.4	-51.9	6.1	7.54e-01	0	38	104	0	60	48187
2026-01-01 02:51:04.68	299.56	16.33	-49.4	-51.9	6.1	7.54e-01	0	38	104	0	60	48021
2026-01-01 02:51:05.69	299.25	16.29	-49.3	-51.8	6.1	7.54e-01	0	38	104	0	60	47773
2026-01-01 02:51:06.70	298.94	16.24	-49.5	-51.9	6.1	7.54e-01	0	38	104	0	60	48448
2026-01-01 02:51:07.71	298.64	16.20	-49.5	-51.9	6.1	7.54e-01	0	38	104	0	60	48221
2026-01-01 02:51:08.72	298.33	16.15	-49.4	-51.8	6.1	7.55e-01	0	38	104	0	60	47918
2026-01-01 02:51:09.72	298.03	16.11	-49.4	-51.9	6.1	7.55e-01	0	38	104	0	60	48093
2026-01-01 02:51:10.73	297.73	16.06	-49.4	-51.9	6.1	7.55e-01	0	38	104	0	60	48295
2026-01-01 02:51:11.74	297.43	16.01	-49.4	-51.9	6.1	7.54e-01	0	38	104	0	60	47973
2026-01-01 02:51:12.75	297.13	15.96	-49.4	-51.9	6.1	7.54e-01	0	38	104	0	60	48325
2026-01-01 02:51:13.76	296.83	15.91	-49.5	-51.9	6.1	7.54e-01	0	38	104	0	60	48317
2026-01-01 02:51:14.77	296.53	15.86	-49.5	-51.9	6.1	7.54e-01	0	38	104	0	60	48067
2026-01-01 02:51:15.78	296.23	15.81	-49.5	-52.0	6.1	7.55e-01	0	38	104	0	60	48645
2026-01-01 02:51:16.79	295.94	15.76	-49.5	-51.9	6.1	7.55e-01	0	38	104	0	60	48378
2026-01-01 02:51:17.80	295.64	15.71	-49.5	-51.9	6.1	7.54e-01	0	38	104	0	60	48382
2026-01-01 02:51:18.81	295.35	15.66	-49.5	-51.9	6.1	7.54e-01	0	38	104	0	60	48189
2026-01-01 02:51:19.82	295.06	15.60	-49.5	-52.0	6.1	7.54e-01	0	38	104	0	60	48541
2026-01-01 02:51:20.83	294.77	15.55	-49.4	-51.9	6.1	7.54e-01	0	38	104	0	60	48072
2026-01-01 02:51:21.84	294.48	15.50	-49.5	-51.9	6.1	7.54e-01	0	38	104	0	60	48243
2026-01-01 02:51:22.85	294.19	15.44	-49.5	-51.9	6.1	7.55e-01	0	38	104	0	60	48272
2026-01-01 02:51:23.86	293.90	15.39	-49.5	-51.9	6.1	7.54e-01	0	38	104	0	60	48424
2026-01-01 02:51:24.87	293.62	15.33	-49.5	-51.9	6.1	7.54e-01	0	38	104	0	60	48040
2026-01-01 02:51:25.88	293.33	15.28	-49.5	-52.0	6.1	7.54e-01	0	38	104	0	60	48574
2026-01-01 02:51:26.89	293.05	15.22	-49.5	-52.0	6.1	7.54e-01	0	38	104	0	60	48491
2026-01-01 02:51:27.90	292.77	15.16	-49.5	-51.9	6.1	7.55e-01	0	38	104	0	60	48111
2026-01-01 02:51:28.91	292.48	15.11	-49.5	-51.9	6.1	7.55e-01	0	38	104	0	60	48410
2026-01-01 02:51:29.92	292.20	15.05	-49.4	-51.9	6.1	7.55e-01	0	38	104	0	60	48184
2026-01-01 02:51:30.93	291.93	14.99	-49.4	-51.9	6.1	7.55e-01	0	38	104	0	60	48291
2026-01-01 02:51:31.94	291.65	14.93	-49.5	-51.9	6.1	7.55e-01	0	38	104	0	60	48338
2026-01-01 02:51:32.95	291.37	14.87	-49.4	-51.9	6.1	7.55e-01	0	38	104	0	60	48269
2026-01-01 02:51:33.96	291.10	14.81	-49.4	-51.9	6.1	7.54e-01	0	38	104	0	60	48471
2026-01-01 02:51:34.97	290.82	14.75	-49.5	-51.9	6.1	7.53e-01	0	38	104	0	60	48213
2026-01-01 02:51:35.98	290.55	14.69	-49.4	-51.9	6.1	7.55e-01	0	38	104	0	60	48078
2026-01-01 02:51:36.99	290.28	14.63	-49.4	-51.8	6.1	7.55e-01	0	38	104	0	60	47694
2026-01-01 02:51:38.00	290.01	14.57	-49.4	-51.9	6.1	7.54e-01	0	38	104	0	60	48241
2026-01-01 02:51:39.01	289.74	14.51	-49.4	-51.9	6.1	7.55e-01	0	38	104	0	60	48029
2026-01-01 02:51:40.02	289.48	14.45	-49.4	-51.8	6.1	7.55e-01	0	38	104	0	60	47838
2026-01-01 02:51:41.03	289.21	14.39	-49.4	-51.9	6.1	7.54e-01	0	38	104	0	60	48107
2026-01-01 02:51:42.04	288.95	14.33	-49.4	-51.9	6.1	7.54e-01	0	38	104	0	60	47938
2026-01-01 02:51:43.05	288.68	14.26	-49.4	-51.9	6.1	7.54e-01	0	38	104	0	60	48201
2026-01-01 02:51:44.06	288.42	14.20	-49.4	-51.9	6.1	7.55e-01	0	38	104	0	60	47956
2026-01-01 02:51:45.07	288.16	14.14	-49.4	-51.9	6.1	7.54e-01	0	38	104	0	60	47957
2026-01-01 02:51:46.08	287.90	14.07	-49.4	-51.9	6.0	7.55e-01	0	38	104	0	60	47992
2026-01-01 02:51:47.09	287.64	14.01	-49.4	-51.8	6.1	7.54e-01	0	38	104	0	60	47755
2026-01-01 02:51:48.10	287.39	13.95	-49.4	-51.9	6.1	7.55e-01	0	38	104	0	60	48041
2026-01-01 02:51:49.10	287.14	13.88	-49.4	-51.9	6.1	7.54e-01	0	38	104	0	60	48033
2026-01-01 02:51:50.11	286.88	13.82	-49.4	-51.9	6.0	7.55e-01	0	38	104	0	60	48170
2026-01-01 02:51:51.12	286.63	13.75	-49.4	-51.8	6.1	7.54e-01	0	38	104	0	60	47741
2026-01-01 02:51:52.13	286.38	13.69	-49.4	-51.9	6.1	7.54e-01	0	38	104	0	60	48052
2026-01-01 02:51:53.14	286.13	13.62	-49.4	-51.8	6.1	7.54e-01	0	38	104	0	60	47881
2026-01-01 02:51:54.15	285.88	13.56	-49.3	-51.8	6.1	7.54e-01	0	38	104	0	60	47880
2026-01-01 02:51:55.16	285.63	13.49	-49.4	-51.8	6.1	7.55e-01	0	38	104	0	60	47690
2026-01-01 02:51:56.17	285.38	13.43	-49.4	-51.8	6.1	7.53e-01	0	38	104	0	60	47858
2026-01-01 02:51:57.18	285.14	13.36	-49.4	-51.9	6.1	7.54e-01	0	38	104	0	60	47960
2026-01-01 02:51:58.19	284.90	13.29	-49.4	-51.9	6.1	7.54e-01	0	38	104	0	60	47934
2026-01-01 02:51:59.20	284.65	13.23	-49.4	-51.8	6.1	7.55e-01	0	38	104	0	60	47528
2026-01-01 02:52:00.21	284.41	13.16	-49.4	-51.8	6.1	7.53e-01	0	38	104	0	60	47774
2026-01-01 02:52:01.22	284.17	13.09	-49.4	-51.8	6.1	7.55e-01	0	38	104	0	60	47921
2026-01-01 02:52:02.23	283.94	13.03	-49.4	-51.8	6.1	7.55e-01	0	38	104	0	60	47821
2026-01-01 02:52:03.24	283.70	12.96	-49.4	-51.8	6.1	7.53e-01	0	38	104	0	60	47796
2026-01-01 02:52:04.25	283.46	12.89	-49.4	-51.8	6.1	7.54e-01	0	38	104	0	60	47719
2026-01-01 02:52:05.26	283.23	12.82	-49.4	-51.8	6.1	7.53e-01	0	38	104	0	60	47847
2026-01-01 02:52:06.27	282.99	12.75	-49.3	-51.8	6.1	7.54e-01	0	38	104	0	60	47753
2026-01-01 02:52:07.28	282.76	12.69	-49.4	-51.8	6.1	7.54e-01	0	38	104	0	60	47772
2026-01-01 02:52:08.29	282.53	12.62	-49.4	-51.8	6.1	7.55e-01	0	38	104	0	60	47526
2026-01-01 02:52:09.30	282.30	12.55	-49.4	-51.8	6.1	7.55e-01	0	38	104	0	60	47853
2026-01-01 02:52:10.31	282.07	12.48	-49.3	-51.8	6.1	7.54e-01	0	38	104	0	60	47632
2026-01-01 02:52:11.32	281.85	12.41	-49.3	-51.8	6.1	7.55e-01	0	38	104	0	60	47423
2026-01-01 02:52:12.33	281.62	12.34	-49.3	-51.8	6.1	7.54e-01	0	38	104	0	60	47595
2026-01-01 02:52:13.34	281.40	12.27	-49.3	-51.8	6.1	7.54e-01	0	38	104	0	60	47476
2026-01-01 02:52:14.35	281.17	12.21	-49.3	-51.8	6.1	7.54e-01	0	38	104	0	60	47419
2026-01-01 02:52:15.35	280.95	12.14	-49.3	-51.7	6.1	7.53e-01	0	38	104	0	60	47372
2026-01-01 02:52:16.36	280.73	12.07	-49.3	-51.7	6.1	7.53e-01	0	38	104	0	60	47321
2026-01-01 02:52:17.37	280.51	12.00	-49.3	-51.7	6.1	7.54e-01	0	38	104	0	60	47376
2026-01-01 02:52:18.38	280.30	11.93	-49.3	-51.7	6.1	7.54e-01	0	38	104	0	60	47323
2026-01-01 02:52:19.39	280.08	11.86	-49.3	-51.7	6.1	7.54e-01	0	38	104	0	60	47183
2026-01-01 02:52:20.41	279.86	11.79	-49.3	-51.8	6.1	7.54e-01	0	38	104	0	60	47463
2026-01-01 02:52:21.42	279.65	11.72	-49.3	-51.7	6.1	7.53e-01	0	38	104	0	60	47149
2026-01-01 02:52:22.42	279.44	11.65	-49.3	-51.7	6.1	7.55e-01	0	38	104	0	60	47294
2026-01-01 02:52:23.43	279.22	11.58	-49.3	-51.7	6.1	7.53e-01	0	38	104	0	60	47289
2026-01-01 02:52:24.44	279.01	11.51	-49.2	-51.6	6.1	7.55e-01	0	38	104	0	60	46648
2026-01-01 02:52:25.45	278.80	11.44	-48.7	-50.8	6.1	7.54e-01	0	38	104	0	60	42561
2026-01-01 02:52:26.46	278.60	11.37	-49.2	-51.7	6.1	7.55e-01	0	38	104	0	60	47128
2026-01-01 02:52:27.47	278.39	11.30	-49.3	-51.7	6.1	7.55e-01	0	38	104	0	60	46996
2026-01-01 02:52:28.48	278.18	11.23	-49.3	-51.7	6.1	7.53e-01	0	38	104	0	60	47077
2026-01-01 02:52:29.49	277.98	11.16	-49.3	-51.7	6.1	7.56e-01	0	38	104	0	60	46994
2026-01-01 02:52:30.49	277.78	11.09	-49.3	-51.7	6.1	7.55e-01	0	38	104	0	60	47213
2026-01-01 02:52:31.50	277.57	11.02	-49.2	-51.7	6.1	7.55e-01	0	38	104	0	60	47119
2026-01-01 02:52:32.51	277.37	10.95	-49.3	-51.7	6.1	7.54e-01	0	38	104	0	60	47130
2026-01-01 02:52:33.51	277.17	10.88	-49.3	-51.7	6.0	7.54e-01	0	38	104	0	60	47096
2026-01-01 02:52:34.52	276.97	10.81	-49.2	-51.7	6.1	7.54e-01	0	38	104	0	60	47096
2026-01-01 02:52:35.53	276.78	10.74	-49.2	-51.7	6.1	7.55e-01	0	38	104	0	60	46872
2026-01-01 02:52:36.54	276.58	10.67	-49.2	-51.7	6.1	7.54e-01	0	38	104	0	60	47131
2026-01-01 02:52:37.55	276.38	10.60	-49.2	-51.7	6.1	7.54e-01	0	38	104	0	60	47232
2026-01-01 02:52:38.56	276.19	10.52	-49.2	-51.7	6.0	7.54e-01	0	38	104	0	60	47085
2026-01-01 02:52:39.56	276.00	10.45	-49.2	-51.7	6.1	7.55e-01	0	38	104	0	60	46964
2026-01-01 02:52:40.58	275.80	10.38	-49.2	-51.7	6.1	7.54e-01	0	38	104	0	60	46863
2026-01-01 02:52:41.59	275.61	10.31	-49.2	-51.7	6.1	7.54e-01	0	38	104	0	60	46952
2026-01-01 02:52:42.59	275.43	10.24	-49.2	-51.6	6.1	7.54e-01	0	38	104	0	60	46815
2026-01-01 02:52:43.60	275.24	10.17	-49.2	-51.6	6.1	7.55e-01	0	38	104	0	60	46678
2026-01-01 02:52:44.61	275.05	10.10	-49.2	-51.7	6.1	7.54e-01	0	38	104	0	60	46938
2026-01-01 02:52:45.62	274.86	10.03	-49.2	-51.6	6.1	7.54e-01	0	38	104	0	60	46820
2026-01-01 02:52:46.63	274.68	9.96	-49.2	-51.6	6.1	7.54e-01	0	38	104	0	60	46640
2026-01-01 02:52:47.64	274.49	9.89	-49.2	-51.6	6.1	7.53e-01	0	38	104	0	60	46559
2026-01-01 02:52:48.66	274.31	9.82	-49.1	-51.6	6.1	7.55e-01	0	38	104	0	60	46335
2026-01-01 02:52:49.67	274.13	9.75	-49.1	-51.6	6.1	7.54e-01	0	38	104	0	60	46496
2026-01-01 02:52:50.68	273.94	9.68	-49.1	-51.6	6.1	7.53e-01	0	38	104	0	60	46350
2026-01-01 02:52:51.69	273.76	9.61	-49.1	-51.6	6.1	7.55e-01	0	38	104	0	60	46358
2026-01-01 02:52:52.69	273.59	9.54	-49.1	-51.6	6.1	7.53e-01	0	38	104	0	60	46463
2026-01-01 02:52:53.70	273.41	9.47	-49.1	-51.6	6.1	7.54e-01	0	38	104	0	60	46708
2026-01-01 02:52:54.71	273.23	9.40	-49.1	-51.5	6.1	7.55e-01	0	38	104	0	60	46190
2026-01-01 02:52:55.72	273.06	9.32	-49.1	-51.6	6.1	7.54e-01	0	38	104	0	60	46601
2026-01-01 02:52:56.73	272.88	9.25	-49.1	-51.6	6.1	7.55e-01	0	38	104	0	60	46373
2026-01-01 02:52:57.74	272.71	9.18	-49.1	-51.6	6.1	7.55e-01	0	38	104	0	60	46546
2026-01-01 02:52:58.75	272.53	9.11	-49.1	-51.6	6.1	7.54e-01	0	38	104	0	60	46414
2026-01-01 02:52:59.75	272.36	9.04	-49.1	-51.6	6.1	7.54e-01	0	38	104	0	60	46508
2026-01-01 02:53:00.76	272.19	8.97	-49.1	-51.6	6.1	7.54e-01	0	38	104	0	60	46523
2026-01-01 02:53:01.78	272.02	8.90	-49.1	-51.6	6.1	7.53e-01	0	38	104	0	60	46605
2026-01-01 02:53:02.79	271.85	8.83	-49.1	-51.5	6.1	7.53e-01	0	38	104	0	60	46259
2026-01-01 02:53:03.80	271.69	8.76	-49.1	-51.5	6.1	7.54e-01	0	38	104	0	60	46043
2026-01-01 02:53:04.81	271.52	8.69	-49.1	-51.6	6.1	7.54e-01	0	38	104	0	60	46454
2026-01-01 02:53:05.81	271.35	8.62	-49.1	-51.6	6.1	7.54e-01	0	38	104	0	60	46440
2026-01-01 02:53:06.82	271.19	8.55	-49.0	-51.5	6.1	7.54e-01	0	38	104	0	60	45954
2026-01-01 02:53:07.83	271.03	8.48	-49.1	-51.5	6.1	7.54e-01	0	38	104	0	60	45965
2026-01-01 02:53:08.84	270.86	8.41	-49.1	-51.5	6.1	7.54e-01	0	38	104	0	60	45933
2026-01-01 02:53:09.85	270.70	8.34	-49.0	-51.5	6.1	7.55e-01	0	38	104	0	60	46044
2026-01-01 02:53:10.86	270.54	8.27	-49.0	-51.4	6.1	7.54e-01	0	38	104	0	60	45711
2026-01-01 02:53:11.87	270.38	8.20	-49.0	-51.5	6.1	7.54e-01	0	38	104	0	60	45856
2026-01-01 02:53:12.88	270.22	8.14	-49.0	-51.5	6.1	7.54e-01	0	38	104	0	60	45856
2026-01-01 02:53:13.89	270.06	8.07	-49.0	-51.5	6.1	7.54e-01	0	38	104	0	60	46149
2026-01-01 02:53:14.90	269.91	8.00	-49.0	-51.4	6.1	7.55e-01	0	38	104	0	60	45665
2026-01-01 02:53:15.91	269.75	7.93	-49.0	-51.4	6.1	7.55e-01	0	38	104	0	60	45674
2026-01-01 02:53:16.92	269.59	7.86	-49.0	-51.5	6.1	7.54e-01	0	38	104	0	60	46079
2026-01-01 02:53:17.93	269.44	7.79	-49.0	-51.5	6.1	7.54e-01	0	38	104	0	60	46073
2026-01-01 02:53:18.94	269.29	7.72	-48.9	-51.4	6.1	7.54e-01	0	38	104	0	60	45444
2026-01-01 02:53:19.94	269.13	7.65	-49.0	-51.4	6.1	7.55e-01	0	38	104	0	60	45565
2026-01-01 02:53:20.96	268.98	7.58	-49.0	-51.5	6.1	7.54e-01	0	38	104	0	60	45922
2026-01-01 02:53:21.96	268.83	7.51	-49.0	-51.5	6.1	7.54e-01	0	38	104	0	60	45824
2026-01-01 02:53:22.97	268.68	7.44	-48.9	-51.3	6.0	7.55e-01	0	38	104	0	60	45187
2026-01-01 02:53:23.98	268.53	7.38	-49.0	-51.4	6.1	7.55e-01	0	38	104	0	60	45669
2026-01-01 02:53:24.99	268.38	7.31	-49.0	-51.4	6.1	7.55e-01	0	38	104	0	60	45689
2026-01-01 02:53:26.00	268.24	7.24	-49.0	-51.4	6.0	7.55e-01	0	38	104	0	60	45460
2026-01-01 02:53:27.01	268.09	7.17	-48.9	-51.3	6.0	7.54e-01	0	38	104	0	60	45094
2026-01-01 02:53:28.02	267.94	7.10	-48.9	-51.4	6.1	7.54e-01	0	38	104	0	60	45581
2026-01-01 02:53:29.03	267.80	7.03	-49.0	-51.4	6.1	7.54e-01	0	38	104	0	60	45676
2026-01-01 02:53:30.04	267.66	6.97	-48.9	-51.4	6.1	7.55e-01	0	38	104	0	60	45714
2026-01-01 02:53:31.05	267.51	6.90	-48.9	-51.3	6.1	7.54e-01	0	38	104	0	60	45122
2026-01-01 02:53:32.06	267.37	6.83	-48.9	-51.3	6.1	7.54e-01	0	38	104	0	60	45168
2026-01-01 02:53:33.07	267.23	6.76	-48.9	-51.4	6.1	7.54e-01	0	38	104	0	60	45484
2026-01-01 02:53:34.08	267.09	6.69	-48.9	-51.4	6.1	7.55e-01	0	38	104	0	60	45281
2026-01-01 02:53:35.09	266.95	6.63	-48.8	-51.3	6.1	7.55e-01	0	38	104	0	60	44792
2026-01-01 02:53:36.10	266.81	6.56	-48.9	-51.3	6.1	7.54e-01	0	38	104	0	60	45009
2026-01-01 02:53:37.11	266.67	6.49	-48.9	-51.4	6.1	7.53e-01	0	38	104	0	60	45302
2026-01-01 02:53:38.11	266.53	6.42	-48.9	-51.3	6.1	7.53e-01	0	38	104	0	60	45227
2026-01-01 02:53:39.12	266.40	6.36	-48.8	-51.2	6.1	7.55e-01	0	38	104	0	60	44583
2026-01-01 02:53:40.13	266.26	6.29	-48.8	-51.3	6.1	7.55e-01	0	38	104	0	60	45015
2026-01-01 02:53:41.14	266.13	6.22	-48.9	-51.3	6.1	7.53e-01	0	38	104	0	60	45057
2026-01-01 02:53:42.15	265.99	6.16	-48.9	-51.4	6.1	7.54e-01	0	38	104	0	60	45386
2026-01-01 02:53:43.16	265.86	6.09	-48.8	-51.2	6.1	7.55e-01	0	38	104	0	60	44644
2026-01-01 02:53:44.17	265.73	6.02	-48.8	-51.3	6.1	7.53e-01	0	38	104	0	60	44817
2026-01-01 02:53:45.18	265.59	5.95	-48.8	-51.3	6.1	7.55e-01	0	38	104	0	60	44992
2026-01-01 02:53:46.19	265.46	5.89	-48.8	-51.3	6.1	7.53e-01	0	38	104	0	60	45015
2026-01-01 02:53:47.20	265.33	5.82	-48.7	-51.1	6.1	7.54e-01	0	38	104	0	60	44094
2026-01-01 02:53:48.21	265.20	5.75	-48.7	-51.2	6.1	7.54e-01	0	38	104	0	60	44361
2026-01-01 02:53:49.22	265.07	5.69	-48.8	-51.2	6.1	7.55e-01	0	38	104	0	60	44596
2026-01-01 02:53:50.23	264.95	5.62	-48.8	-51.3	6.1	7.54e-01	0	38	104	0	60	44962
2026-01-01 02:53:51.24	264.82	5.56	-48.7	-51.1	6.1	7.55e-01	0	38	104	0	60	43994
2026-01-01 02:53:52.25	264.69	5.49	-48.7	-51.2	6.1	7.55e-01	0	38	104	0	60	44370
2026-01-01 02:53:53.25	264.57	5.42	-48.8	-51.2	6.1	7.54e-01	0	38	104	0	60	44390
2026-01-01 02:53:54.27	264.44	5.36	-48.8	-51.2	6.1	7.54e-01	0	38	104	0	60	44610
2026-01-01 02:53:55.28	264.31	5.29	-48.6	-51.0	6.1	7.54e-01	0	38	104	0	60	43627
2026-01-01 02:53:56.29	264.19	5.23	-48.7	-51.1	6.1	7.54e-01	0	38	104	0	60	43969
2026-01-01 02:53:57.29	264.07	5.16	-48.7	-51.2	6.1	7.55e-01	0	38	104	0	60	44354
2026-01-01 02:53:58.31	263.94	5.10	-48.7	-51.2	6.1	7.55e-01	0	38	104	0	60	44247
2026-01-01 02:53:59.31	263.82	5.03	-48.5	-51.0	6.1	7.54e-01	0	38	104	0	60	43583
2026-01-01 02:54:00.33	263.70	4.97	-48.6	-51.1	6.1	7.55e-01	0	38	104	0	60	43842
2026-01-01 02:54:01.33	263.58	4.90	-48.7	-51.1	6.1	7.55e-01	0	38	104	0	60	44054
2026-01-01 02:54:02.35	263.46	4.84	-48.7	-51.1	6.1	7.55e-01	0	38	104	0	60	44088
2026-01-01 02:54:03.36	263.34	4.77	-48.5	-50.9	6.1	7.53e-01	0	38	104	0	60	43125
2026-01-01 02:54:04.37	263.22	4.71	-48.6	-51.0	6.1	7.54e-01	0	38	104	0	60	43507
2026-01-01 02:54:05.38	263.11	4.64	-48.6	-51.1	6.1	7.54e-01	0	38	104	0	60	43963
2026-01-01 02:54:06.39	262.99	4.58	-48.6	-51.0	6.1	7.54e-01	0	38	104	0	60	43650
2026-01-01 02:54:07.39	262.87	4.51	-48.4	-50.9	6.1	7.54e-01	0	38	104	0	60	42972
2026-01-01 02:54:08.41	262.76	4.45	-48.5	-51.0	6.1	7.55e-01	0	38	104	0	60	43378
2026-01-01 02:54:09.41	262.64	4.38	-48.6	-51.0	6.1	7.54e-01	0	38	104	0	60	43607
2026-01-01 02:54:10.43	262.53	4.32	-48.5	-51.0	6.1	7.54e-01	0	38	104	0	60	43444
2026-01-01 02:54:11.43	262.41	4.26	-48.4	-50.8	6.1	7.53e-01	0	38	104	0	60	42696
2026-01-01 02:54:12.44	262.30	4.19	-48.5	-51.0	6.1	7.55e-01	0	38	104	0	60	43266
2026-01-01 02:54:13.45	262.19	4.13	-48.5	-51.0	6.1	7.54e-01	0	38	104	0	60	43450
2026-01-01 02:54:14.46	262.08	4.06	-48.4	-50.9	6.0	7.54e-01	0	38	104	0	60	43046
2026-01-01 02:54:15.47	261.96	4.00	-48.3	-50.8	6.1	7.54e-01	0	38	104	0	60	42291
2026-01-01 02:54:16.48	261.85	3.94	-48.4	-50.8	6.1	7.54e-01	0	38	104	0	60	42624
2026-01-01 02:54:17.49	261.74	3.87	-48.5	-50.9	6.1	7.55e-01	0	38	104	0	60	43115
2026-01-01 02:54:18.50	261.63	3.81	-48.4	-50.8	6.1	7.54e-01	0	38	104	0	60	42579
2026-01-01 02:54:19.51	261.52	3.75	-48.2	-50.7	6.1	7.55e-01	0	38	104	0	60	42021
2026-01-01 02:54:20.52	261.42	3.68	-48.3	-50.8	6.1	7.55e-01	0	38	104	0	60	42441
2026-01-01 02:54:21.53	261.31	3.62	-48.4	-50.9	6.1	7.55e-01	0	38	104	0	60	42776
2026-01-01 02:54:22.54	261.20	3.56	-48.3	-50.7	6.1	7.53e-01	0	38	104	0	60	42209
2026-01-01 02:54:23.55	261.09	3.50	-48.1	-50.6	6.1	7.54e-01	0	38	104	0	60	41509
2026-01-01 02:54:24.55	260.99	3.43	-48.2	-50.7	6.1	7.55e-01	0	38	104	0	60	42036
2026-01-01 02:54:25.56	260.88	3.37	-48.3	-50.8	6.1	7.54e-01	0	38	104	0	60	42546
2026-01-01 02:54:26.57	260.78	3.31	-48.1	-50.6	6.1	7.53e-01	0	38	104	0	60	41603
2026-01-01 02:54:27.58	260.67	3.25	-48.1	-50.5	6.1	7.54e-01	0	38	104	0	60	41184
2026-01-01 02:54:28.59	260.57	3.18	-48.2	-50.7	6.1	7.55e-01	0	38	104	0	60	41875
2026-01-01 02:54:29.60	260.47	3.12	-48.3	-50.8	6.1	7.54e-01	0	38	104	0	60	42364
2026-01-01 02:54:30.61	260.36	3.06	-48.1	-50.5	6.1	7.53e-01	0	38	104	0	60	40961
2026-01-01 02:54:31.62	260.26	3.00	-48.4	-50.8	6.1	7.54e-01	0	38	104	0	60	42563
2026-01-01 02:54:32.63	260.16	2.94	-49.1	-51.6	6.1	7.54e-01	0	38	104	0	60	46391
2026-01-01 02:54:33.64	260.06	2.87	-49.4	-51.9	6.1	7.54e-01	0	38	104	0	60	48076
2026-01-01 02:54:34.65	259.96	2.81	-49.6	-52.0	6.1	7.55e-01	0	38	104	0	60	48652
2026-01-01 02:54:35.66	259.86	2.75	-49.6	-52.1	6.1	7.55e-01	0	38	104	0	60	49159
2026-01-01 02:54:36.67	259.76	2.69	-49.7	-52.2	6.1	7.54e-01	0	38	104	0	60	49696
2026-01-01 02:54:37.68	259.66	2.63	-49.7	-52.2	6.1	7.54e-01	0	38	104	0	60	49621
2026-01-01 02:54:38.69	259.56	2.57	-49.7	-52.2	6.1	7.54e-01	0	38	104	0	60	49820
2026-01-01 02:54:39.70	259.46	2.51	-49.8	-52.2	6.1	7.55e-01	0	38	104	0	60	50069
2026-01-01 02:54:40.71	259.37	2.45	-49.7	-52.2	6.1	7.54e-01	0	38	104	0	60	50077
2026-01-01 02:54:41.72	259.27	2.38	-49.6	-52.1	6.1	7.54e-01	0	38	104	0	60	49126
2026-01-01 02:54:42.73	259.17	2.32	-49.4	-51.9	6.1	7.56e-01	0	38	104	0	60	48326
2026-01-01 02:54:43.74	259.08	2.26	-49.5	-52.0	6.1	7.54e-01	0	38	104	0	60	48616
2026-01-01 02:54:44.75	258.98	2.20	-49.4	-51.9	6.1	7.55e-01	0	38	104	0	60	48046
2026-01-01 02:54:45.75	258.89	2.14	-49.4	-51.9	6.1	7.54e-01	0	38	104	0	60	48196
2026-01-01 02:54:46.76	258.79	2.08	-49.6	-52.0	6.1	7.54e-01	0	38	104	0	60	48921
2026-01-01 02:54:47.77	258.70	2.02	-49.2	-51.7	6.1	7.54e-01	0	38	104	0	60	47016
2026-01-01 02:54:48.78	258.61	1.96	-49.6	-52.1	6.1	7.55e-01	0	38	104	0	60	49278
2026-01-01 02:54:49.79	258.51	1.90	-49.7	-52.1	6.1	7.54e-01	0	38	104	0	60	49274
2026-01-01 02:54:50.80	258.42	1.84	-49.7	-52.1	6.1	7.54e-01	0	38	104	0	60	49178
2026-01-01 02:54:51.81	258.33	1.78	-49.6	-52.1	6.1	7.54e-01	0	38	104	0	60	49092
2026-01-01 02:54:52.82	258.24	1.72	-49.6	-52.1	6.1	7.54e-01	0	38	104	0	60	49320
2026-01-01 02:54:53.83	258.15	1.66	-49.6	-52.1	6.1	7.54e-01	0	38	104	0	60	49302
2026-01-01 02:54:54.84	258.06	1.60	-49.6	-52.0	6.1	7.55e-01	0	38	104	0	60	48974
2026-01-01 02:54:55.85	257.97	1.54	-49.6	-52.1	6.1	7.54e-01	0	38	104	0	60	49055
2026-01-01 02:54:56.86	257.88	1.49	-49.6	-52.1	6.1	7.54e-01	0	38	104	0	60	49347
2026-01-01 02:54:57.87	257.79	1.43	-49.6	-52.1	6.1	7.54e-01	0	38	104	0	60	49337
2026-01-01 02:54:58.88	257.70	1.37	-49.6	-52.1	6.1	7.55e-01	0	38	104	0	60	49445
2026-01-01 02:54:59.89	257.61	1.31	-49.6	-52.1	6.1	7.55e-01	0	38	104	0	60	49101
2026-01-01 02:55:00.90	257.52	1.25	-49.6	-52.1	6.1	7.55e-01	0	38	104	0	60	49104
2026-01-01 02:55:01.91	257.44	1.19	-49.6	-52.0	6.1	7.54e-01	0	38	104	0	60	49009
2026-01-01 02:55:02.92	257.35	1.13	-49.6	-52.1	6.1	7.54e-01	0	38	104	0	60	49432
2026-01-01 02:55:03.93	257.26	1.07	-49.6	-52.1	6.0	7.54e-01	0	38	104	0	60	49434
2026-01-01 02:55:04.94	257.18	1.01	-49.6	-52.1	6.1	7.54e-01	0	38	104	0	60	49280
2026-01-01 02:55:05.95	257.09	0.96	-49.6	-52.1	6.1	7.54e-01	0	38	104	0	60	49062
2026-01-01 02:55:06.96	257.01	0.90	-49.6	-52.1	6.1	7.54e-01	0	38	104	0	60	49115
2026-01-01 02:55:07.97	256.92	0.84	-49.6	-52.1	6.1	7.53e-01	0	38	104	0	60	49258
2026-01-01 02:55:08.98	256.84	0.78	-49.6	-52.0	6.1	7.55e-01	0	38	104	0	60	49010
2026-01-01 02:55:09.99	256.75	0.72	-49.6	-52.1	6.1	7.55e-01	0	38	104	0	60	49134
2026-01-01 02:55:11.00	256.67	0.67	-49.6	-52.0	6.1	7.54e-01	0	38	104	0	60	48960
2026-01-01 02:55:12.01	256.59	0.61	-49.6	-52.1	6.1	7.53e-01	0	38	104	0	60	49189
2026-01-01 02:55:13.02	256.51	0.55	-49.6	-52.1	6.1	7.54e-01	0	38	104	0	60	49178
2026-01-01 02:55:14.03	256.42	0.49	-49.6	-52.0	6.1	7.54e-01	0	38	104	0	60	48996
2026-01-01 02:55:15.04	256.34	0.43	-49.6	-52.1	6.1	7.54e-01	0	38	104	0	60	49205
2026-01-01 02:55:16.05	256.26	0.38	-49.6	-52.1	6.1	7.56e-01	0	38	104	0	60	49203
2026-01-01 02:55:17.06	256.18	0.32	-49.6	-52.0	6.1	7.54e-01	0	38	104	0	60	49005
2026-01-01 02:55:18.07	256.10	0.26	-49.6	-52.1	6.1	7.55e-01	0	38	104	0	60	49251
2026-01-01 02:55:19.08	256.02	0.21	-49.6	-52.0	6.1	7.54e-01	0	38	104	0	60	49000
2026-01-01 02:55:20.09	255.94	0.15	-49.6	-52.1	6.1	7.56e-01	0	38	104	0	60	49312
2026-01-01 02:55:21.10	255.86	0.09	-49.6	-52.0	6.1	7.54e-01	0	38	104	0	60	49037
2026-01-01 02:55:22.11	255.78	0.03	-49.6	-52.1	6.1	7.54e-01	0	38	104	0	60	49075

#Closed at: 2026-01-01 02:55:23
#Recorded file [0 MB]: D:/lorett/data/35029_260101_144458.dat