passes_logs/2026/01/01/R4.6S_Anadyr/R4.6S_Anadyr__20260101_215340_NOAA_21_JPSS-2_rec.log

#Pass ID: 20260101_215340_NOAA 21 (JPSS-2)
#Satellite: NOAA 21 (JPSS-2)
#Configuration: NOAA-21
#almurnet v.1.7.20251203
#Start time: 2026-01-01 21:53:44

#Version: 2.2.20231116
#Station: R4.6S_Anadyr
#Location: 177.4865 lon 64.73178 lat
#TLE: 1 54234U 22150A   26001.62049579  .00000200  00000+0  11561-3 0  9997
#TLE: 2 54234  98.7484 302.6830 0001258 352.4447   7.6710 14.19530916162916

#Time	Az	El	Level	Level2	SNR	BER	BlckErr	Temp	State	Recorded	gain1	gain2
2026-01-01 21:53:44.89	100.54	0.22	-49.4	-50.8	3.3	0.00e+00	0	37	0	0	60	42614
2026-01-01 21:53:45.87	100.48	0.28	-49.3	-62.2	3.5	1.52e+00	0	38	104	0	60	45194
2026-01-01 21:53:46.84	100.43	0.33	-49.3	-62.2	3.5	1.52e+00	0	38	104	0	60	45127
2026-01-01 21:53:47.82	100.38	0.39	-49.3	-62.2	3.5	1.52e+00	0	38	104	0	60	45232
2026-01-01 21:53:48.79	100.33	0.44	-49.3	-62.2	3.5	1.52e+00	0	38	104	0	60	45038
2026-01-01 21:53:49.77	100.27	0.49	-49.3	-62.1	3.5	1.51e+00	0	38	104	0	60	44944
2026-01-01 21:53:50.75	100.22	0.55	-49.3	-62.2	3.5	1.52e+00	0	38	104	0	60	45205
2026-01-01 21:53:51.72	100.16	0.60	-49.4	-62.3	3.5	1.51e+00	0	38	104	0	60	45612
2026-01-01 21:53:52.70	100.11	0.66	-49.4	-62.3	3.5	1.52e+00	0	38	104	0	60	45706
2026-01-01 21:53:53.68	100.06	0.71	-49.4	-62.2	3.5	1.52e+00	0	38	104	0	60	45411
2026-01-01 21:53:54.66	100.00	0.76	-49.3	-62.2	3.5	1.51e+00	0	38	104	0	60	45196
2026-01-01 21:53:55.64	99.95	0.82	-49.2	-62.2	3.5	1.52e+00	0	38	104	0	60	45110
2026-01-01 21:53:56.62	99.89	0.87	-49.2	-62.1	3.5	1.52e+00	0	38	104	0	60	44855
2026-01-01 21:53:57.59	99.84	0.93	-49.1	-62.0	3.5	1.52e+00	0	38	104	0	60	43940
2026-01-01 21:53:58.57	99.78	0.98	-48.8	-61.9	3.5	1.52e+00	0	38	104	0	60	43447
2026-01-01 21:53:59.54	99.73	1.04	-48.4	-61.7	3.5	1.52e+00	0	39	104	0	60	42720
2026-01-01 21:54:00.52	99.67	1.09	-48.4	-61.4	3.5	1.52e+00	0	39	104	0	60	41079
2026-01-01 21:54:01.49	99.62	1.15	-47.5	-60.8	3.5	1.52e+00	0	38	104	0	60	38621
2026-01-01 21:54:02.48	99.56	1.20	-45.4	-60.2	3.5	1.51e+00	0	39	104	0	60	36059
2026-01-01 21:54:03.45	99.50	1.26	-45.4	-60.2	3.5	1.52e+00	0	39	104	0	60	35949
2026-01-01 21:54:04.43	99.45	1.31	-45.4	-60.3	3.5	1.52e+00	0	39	104	0	60	36142
2026-01-01 21:54:05.41	99.39	1.37	-45.4	-60.2	3.5	1.52e+00	0	38	104	0	60	35841
2026-01-01 21:54:06.39	99.33	1.42	-45.4	-60.1	3.5	1.51e+00	0	39	104	0	60	35611
2026-01-01 21:54:07.37	99.28	1.48	-45.4	-60.3	3.5	1.52e+00	0	39	104	0	60	36136
2026-01-01 21:54:08.35	99.22	1.53	-45.4	-60.3	3.5	1.52e+00	0	39	104	0	60	36126
2026-01-01 21:54:09.32	99.16	1.59	-45.4	-60.3	3.5	1.52e+00	0	39	104	0	60	36145
2026-01-01 21:54:10.30	99.10	1.64	-45.4	-60.3	3.5	1.52e+00	0	39	104	0	60	36327
2026-01-01 21:54:11.28	99.05	1.70	-45.4	-60.3	3.5	1.52e+00	0	39	104	0	60	36349
2026-01-01 21:54:12.25	98.99	1.76	-45.4	-60.3	3.5	1.52e+00	0	39	104	0	60	36423
2026-01-01 21:54:13.23	98.93	1.81	-45.3	-60.3	3.5	1.51e+00	0	39	104	0	60	36212
2026-01-01 21:54:14.21	98.87	1.87	-45.3	-60.3	3.5	1.52e+00	0	39	104	0	60	36160
2026-01-01 21:54:15.18	98.81	1.92	-45.3	-60.2	3.5	1.52e+00	0	39	104	0	60	35963
2026-01-01 21:54:16.16	98.75	1.98	-45.3	-60.1	3.5	1.51e+00	0	39	104	0	60	35552
2026-01-01 21:54:17.14	98.69	2.04	-45.3	-60.0	3.5	1.52e+00	0	39	104	0	60	35105
2026-01-01 21:54:18.12	98.63	2.09	-45.3	-59.7	3.5	1.52e+00	0	39	104	0	60	33940
2026-01-01 21:54:19.10	98.57	2.15	-45.3	-59.7	3.5	1.52e+00	0	39	104	0	60	33744
2026-01-01 21:54:20.07	98.51	2.21	-45.2	-59.4	3.5	1.52e+00	0	39	104	0	60	32752
2026-01-01 21:54:21.05	98.45	2.26	-45.3	-59.5	3.5	1.52e+00	0	39	104	0	60	33088
2026-01-01 21:54:22.03	98.39	2.32	-45.3	-59.8	3.5	1.52e+00	0	39	104	0	60	34280
2026-01-01 21:54:23.00	98.33	2.38	-45.3	-60.0	3.5	1.52e+00	0	39	104	0	60	35173
2026-01-01 21:54:23.97	98.27	2.43	-45.3	-60.2	3.5	1.52e+00	0	39	104	0	60	35887
2026-01-01 21:54:24.95	98.21	2.49	-45.3	-60.3	3.5	1.52e+00	0	39	104	0	60	36204
2026-01-01 21:54:25.93	98.15	2.55	-45.3	-60.3	3.5	1.52e+00	0	39	104	0	60	36135
2026-01-01 21:54:26.91	98.08	2.60	-45.3	-60.2	3.5	1.52e+00	0	39	104	0	60	36055
2026-01-01 21:54:27.88	98.02	2.66	-45.3	-60.3	3.5	1.51e+00	0	39	104	0	60	36130
2026-01-01 21:54:28.86	97.96	2.72	-45.3	-60.2	3.5	1.52e+00	0	39	104	0	60	35929
2026-01-01 21:54:29.84	97.90	2.77	-45.3	-59.8	3.5	1.51e+00	0	39	104	0	60	34478
2026-01-01 21:54:30.81	97.84	2.83	-45.3	-59.4	3.5	1.52e+00	0	39	104	0	60	32819
2026-01-01 21:54:31.79	97.77	2.89	-45.2	-59.1	3.5	1.51e+00	0	39	104	0	60	31506
2026-01-01 21:54:32.77	97.71	2.95	-45.2	-59.2	3.5	1.51e+00	0	39	104	0	60	32073
2026-01-01 21:54:33.75	97.64	3.00	-45.3	-59.9	3.5	1.52e+00	0	39	104	0	60	34518
2026-01-01 21:54:34.72	97.58	3.06	-45.2	-59.7	3.5	1.51e+00	0	39	104	0	60	34046
2026-01-01 21:54:35.70	97.52	3.12	-45.0	-56.1	4.5	1.48e+00	105	39	104	0	60	22472
2026-01-01 21:54:36.68	97.45	3.18	-44.5	-52.6	7.1	1.18e+00	125	39	104	0	60	14930
2026-01-01 21:54:37.65	97.39	3.23	-44.0	-49.7	9.5	5.12e-02	122	39	0	1048576	60	10764
2026-01-01 21:54:38.63	97.32	3.29	-42.9	-46.9	12.4	3.42e-04	118	39	0	4194304	60	7800
2026-01-01 21:54:39.60	97.26	3.35	-46.3	-53.0	3.5	8.14e-02	117	39	104	6291456	60	15652
2026-01-01 21:54:40.58	97.19	3.41	-46.9	-60.1	3.5	1.51e+00	0	39	104	6291456	60	35536
2026-01-01 21:54:41.56	97.13	3.47	-42.5	-45.2	11.5	2.70e-04	122	39	0	6291456	58	7157
2026-01-01 21:54:42.54	97.06	3.53	-45.5	-58.9	3.5	1.51e+00	0	39	104	6291456	60	30946
2026-01-01 21:54:43.51	96.99	3.58	-45.1	-51.7	4.5	1.51e+00	0	39	104	6291456	60	13541
2026-01-01 21:54:44.49	96.93	3.64	-43.0	-49.3	10.2	1.40e-02	123	39	104	6291456	60	10193
2026-01-01 21:54:45.46	96.86	3.70	-43.0	-47.6	10.9	6.49e-04	120	39	0	8388608	60	8399
2026-01-01 21:54:46.44	96.79	3.76	-43.5	-48.1	11.1	1.07e-03	124	39	0	11534336	60	8882
2026-01-01 21:54:47.42	96.73	3.82	-43.4	-47.0	12.1	4.53e-04	120	39	0	14680064	60	7883
2026-01-01 21:54:48.40	96.66	3.88	-43.2	-46.4	13.2	9.91e-05	119	39	0	17825792	60	7347
2026-01-01 21:54:49.37	96.59	3.94	-42.7	-45.5	13.3	6.71e-05	123	39	0	20971520	60	6610
2026-01-01 21:54:50.35	96.52	4.00	-42.7	-45.4	14.5	3.80e-06	124	39	0	24117248	58	7339
2026-01-01 21:54:51.33	96.45	4.06	-42.4	-45.0	13.9	7.00e-07	124	39	0	27262976	58	6979
2026-01-01 21:54:52.30	96.38	4.11	-42.1	-44.4	15.4	1.50e-06	121	39	0	30408704	58	6534
2026-01-01 21:54:53.28	96.32	4.17	-40.6	-42.2	17.5	0.00e+00	122	39	0	33554432	54	6375
2026-01-01 21:54:54.25	96.25	4.23	-39.5	-40.9	18.9	0.00e+00	125	39	0	35651584	52	6156
2026-01-01 21:54:55.23	96.18	4.29	-38.6	-39.8	19.9	0.00e+00	123	39	0	38797312	50	6087
2026-01-01 21:54:56.21	96.11	4.35	-38.6	-39.9	20.0	0.00e+00	123	39	0	41943040	50	6152
2026-01-01 21:54:57.18	96.04	4.41	-38.4	-39.7	20.1	0.00e+00	118	39	0	45088768	50	6057
2026-01-01 21:54:58.15	95.97	4.47	-38.7	-40.1	19.7	0.00e+00	123	39	0	48234496	50	6330
2026-01-01 21:54:59.14	95.89	4.53	-38.7	-40.1	19.8	0.00e+00	124	39	0	51380224	50	6278
2026-01-01 21:55:00.11	95.82	4.59	-38.9	-40.3	19.6	0.00e+00	123	39	0	54525952	50	6427
2026-01-01 21:55:01.09	95.75	4.65	-38.8	-40.1	19.7	0.00e+00	124	39	0	57671680	50	6319
2026-01-01 21:55:02.07	95.68	4.71	-38.8	-40.1	19.9	0.00e+00	124	39	0	60817408	50	6284
2026-01-01 21:55:03.05	95.61	4.77	-38.6	-39.8	20.1	0.00e+00	121	39	0	63963136	50	6106
2026-01-01 21:55:04.02	95.54	4.83	-38.4	-39.6	20.3	0.00e+00	120	39	0	67108864	50	5970
2026-01-01 21:55:05.00	95.46	4.89	-38.4	-39.6	20.2	0.00e+00	122	39	0	70254592	50	5983
2026-01-01 21:55:05.98	95.39	4.95	-38.8	-40.1	19.9	0.00e+00	122	39	0	73400320	50	6293
2026-01-01 21:55:06.96	95.32	5.01	-38.6	-39.9	20.1	0.00e+00	121	39	0	75497472	50	6151
2026-01-01 21:55:07.94	95.24	5.08	-38.6	-39.8	20.1	0.00e+00	122	39	0	78643200	50	6102
2026-01-01 21:55:08.91	95.17	5.14	-38.5	-39.7	20.3	0.00e+00	120	39	0	81788928	50	6058
2026-01-01 21:55:09.88	95.09	5.20	-38.6	-39.8	20.1	0.00e+00	121	39	0	84934656	50	6104
2026-01-01 21:55:10.86	95.02	5.26	-38.3	-39.6	20.3	0.00e+00	121	39	0	88080384	50	5942
2026-01-01 21:55:11.84	94.94	5.32	-38.3	-39.6	20.4	0.00e+00	123	39	0	91226112	50	5928
2026-01-01 21:55:12.81	94.87	5.38	-38.4	-39.7	20.1	0.00e+00	121	39	0	94371840	50	6047
2026-01-01 21:55:13.79	94.79	5.44	-38.3	-39.7	20.2	0.00e+00	122	39	0	97517568	50	5998
2026-01-01 21:55:14.77	94.72	5.50	-38.5	-39.8	20.0	0.00e+00	120	39	0	100663296	50	6132
2026-01-01 21:55:15.74	94.64	5.56	-38.1	-39.4	20.5	0.00e+00	124	39	0	103809024	50	5819
2026-01-01 21:55:16.72	94.56	5.63	-38.3	-39.5	20.3	0.00e+00	122	39	0	106954752	50	5907
2026-01-01 21:55:17.70	94.49	5.69	-38.4	-39.7	20.1	0.00e+00	121	39	0	109051904	50	6024
2026-01-01 21:55:18.67	94.41	5.75	-38.4	-39.7	20.2	0.00e+00	123	39	0	112197632	50	6028
2026-01-01 21:55:19.64	94.33	5.81	-38.2	-39.4	20.5	0.00e+00	123	39	0	115343360	50	5844
2026-01-01 21:55:20.62	94.26	5.87	-38.2	-39.5	20.4	0.00e+00	123	39	0	118489088	50	5906
2026-01-01 21:55:21.60	94.18	5.93	-38.0	-39.3	20.7	0.00e+00	124	39	0	121634816	50	5783
2026-01-01 21:55:22.57	94.10	6.00	-38.1	-39.4	20.6	0.00e+00	123	39	0	124780544	50	5831
2026-01-01 21:55:23.55	94.02	6.06	-37.8	-39.1	20.8	0.00e+00	123	39	0	127926272	50	5613
2026-01-01 21:55:24.53	93.94	6.12	-38.3	-39.6	20.4	0.00e+00	122	39	0	131072000	50	5942
2026-01-01 21:55:25.51	93.86	6.18	-38.1	-39.3	20.7	0.00e+00	123	39	0	134217728	50	5737
2026-01-01 21:55:26.49	93.78	6.25	-37.8	-39.0	20.8	0.00e+00	122	39	0	137363456	48	6250
2026-01-01 21:55:27.46	93.70	6.31	-37.9	-39.1	20.8	0.00e+00	125	39	0	140509184	48	6324
2026-01-01 21:55:28.44	93.62	6.37	-37.7	-39.0	20.9	0.00e+00	121	39	0	142606336	48	6208
2026-01-01 21:55:29.42	93.54	6.43	-37.8	-39.2	20.9	0.00e+00	123	39	0	145752064	48	6357
2026-01-01 21:55:30.39	93.46	6.50	-37.7	-39.1	20.9	0.00e+00	123	39	0	148897792	48	6291
2026-01-01 21:55:31.37	93.37	6.56	-37.5	-38.9	21.1	0.00e+00	124	39	0	152043520	48	6177
2026-01-01 21:55:32.35	93.29	6.62	-37.5	-38.9	21.0	0.00e+00	124	39	0	155189248	48	6167
2026-01-01 21:55:33.32	93.21	6.69	-37.8	-39.1	20.9	0.00e+00	123	39	0	158334976	48	6305
2026-01-01 21:55:34.30	93.13	6.75	-37.6	-38.8	21.1	0.00e+00	124	39	0	161480704	48	6129
2026-01-01 21:55:35.28	93.04	6.81	-37.6	-38.8	21.2	0.00e+00	125	39	0	164626432	48	6095
2026-01-01 21:55:36.26	92.96	6.88	-37.7	-38.9	21.1	0.00e+00	123	39	0	167772160	48	6151
2026-01-01 21:55:37.23	92.87	6.94	-37.7	-38.8	21.1	0.00e+00	124	39	0	170917888	48	6116
2026-01-01 21:55:38.21	92.79	7.00	-37.7	-38.9	21.1	0.00e+00	124	39	0	174063616	48	6162
2026-01-01 21:55:39.19	92.70	7.07	-37.5	-38.6	21.3	0.00e+00	119	39	0	176160768	48	5993
2026-01-01 21:55:40.17	92.62	7.13	-37.5	-38.7	21.3	0.00e+00	121	39	0	179306496	48	6026
2026-01-01 21:55:41.14	92.53	7.20	-37.7	-38.8	21.3	0.00e+00	122	39	0	182452224	48	6108
2026-01-01 21:55:42.12	92.45	7.26	-37.5	-38.6	21.4	0.00e+00	121	39	0	185597952	48	5967
2026-01-01 21:55:43.09	92.36	7.32	-37.5	-38.6	21.4	0.00e+00	123	39	0	188743680	48	5952
2026-01-01 21:55:44.07	92.27	7.39	-37.3	-38.4	21.6	0.00e+00	123	39	0	191889408	48	5812
2026-01-01 21:55:45.05	92.19	7.45	-37.4	-38.5	21.5	0.00e+00	121	39	0	195035136	48	5893
2026-01-01 21:55:46.02	92.10	7.52	-37.3	-38.4	21.6	0.00e+00	121	39	0	198180864	48	5794
2026-01-01 21:55:47.00	92.01	7.58	-37.4	-38.5	21.5	0.00e+00	120	39	0	201326592	48	5869
2026-01-01 21:55:47.98	91.92	7.65	-37.3	-38.4	21.5	0.00e+00	125	39	0	204472320	48	5848
2026-01-01 21:55:48.96	91.83	7.71	-37.2	-38.3	21.6	0.00e+00	121	39	0	207618048	48	5783
2026-01-01 21:55:49.93	91.75	7.78	-37.1	-38.3	21.7	0.00e+00	126	39	0	209715200	48	5736
2026-01-01 21:55:50.91	91.66	7.84	-37.2	-38.3	21.5	0.00e+00	124	39	0	212860928	48	5787
2026-01-01 21:55:51.89	91.57	7.91	-37.3	-38.4	21.5	0.00e+00	123	39	0	216006656	48	5826
2026-01-01 21:55:52.87	91.47	7.97	-37.2	-38.3	21.7	0.00e+00	124	39	0	219152384	48	5785
2026-01-01 21:55:53.85	91.38	8.04	-37.1	-38.1	21.9	0.00e+00	121	39	0	222298112	48	5647
2026-01-01 21:55:54.82	91.29	8.10	-37.1	-38.1	21.8	0.00e+00	120	39	0	225443840	48	5642
2026-01-01 21:55:55.80	91.20	8.17	-36.9	-37.9	22.0	0.00e+00	119	39	0	228589568	48	5530
2026-01-01 21:55:56.78	91.11	8.23	-36.8	-37.9	22.0	0.00e+00	121	39	0	231735296	48	5485
2026-01-01 21:55:57.76	91.01	8.30	-37.0	-38.1	21.9	0.00e+00	121	39	0	234881024	46	6311
2026-01-01 21:55:58.74	90.92	8.37	-37.0	-38.1	21.9	0.00e+00	123	39	0	238026752	46	6313
2026-01-01 21:55:59.71	90.83	8.43	-36.9	-38.0	22.0	0.00e+00	123	39	0	241172480	46	6258
2026-01-01 21:56:00.69	90.73	8.50	-36.7	-37.8	22.1	0.00e+00	124	39	0	244318208	46	6128
2026-01-01 21:56:01.67	90.64	8.56	-36.8	-37.9	22.2	0.00e+00	120	39	0	247463936	46	6147
2026-01-01 21:56:02.64	90.55	8.63	-36.7	-37.7	22.3	0.00e+00	119	39	0	249561088	46	6030
2026-01-01 21:56:03.62	90.45	8.70	-36.7	-37.7	22.3	0.00e+00	122	39	0	252706816	46	6047
2026-01-01 21:56:04.59	90.36	8.76	-36.9	-37.9	22.1	0.00e+00	120	39	0	255852544	46	6154
2026-01-01 21:56:05.57	90.26	8.83	-36.7	-37.8	22.3	0.00e+00	122	39	0	258998272	46	6078
2026-01-01 21:56:06.55	90.16	8.90	-36.7	-37.7	22.3	0.00e+00	121	39	0	262144000	46	6060
2026-01-01 21:56:07.53	90.06	8.96	-36.8	-37.9	22.1	0.00e+00	120	39	0	265289728	46	6171
2026-01-01 21:56:08.50	89.97	9.03	-36.8	-37.9	22.1	0.00e+00	123	39	0	268435456	46	6163
2026-01-01 21:56:09.48	89.87	9.10	-36.8	-38.0	22.1	0.00e+00	122	39	0	271581184	46	6212
2026-01-01 21:56:10.45	89.77	9.16	-36.5	-37.6	22.3	0.00e+00	121	39	0	274726912	46	5987
2026-01-01 21:56:11.43	89.67	9.23	-36.6	-37.6	22.3	0.00e+00	124	39	0	277872640	46	5982
2026-01-01 21:56:12.41	89.57	9.30	-36.5	-37.5	22.5	0.00e+00	123	39	0	281018368	46	5922
2026-01-01 21:56:13.38	89.47	9.36	-36.3	-37.3	22.7	0.00e+00	122	39	0	283115520	46	5735
2026-01-01 21:56:14.36	89.37	9.43	-36.2	-37.3	22.7	0.00e+00	124	39	0	286261248	46	5750
2026-01-01 21:56:15.33	89.27	9.50	-36.2	-37.4	22.6	0.00e+00	123	39	0	289406976	46	5801
2026-01-01 21:56:16.31	89.17	9.57	-36.1	-37.2	22.8	0.00e+00	122	39	0	292552704	46	5712
2026-01-01 21:56:17.29	89.07	9.63	-36.3	-37.4	22.7	0.00e+00	124	39	0	295698432	46	5811
2026-01-01 21:56:18.26	88.97	9.70	-36.1	-37.2	22.8	0.00e+00	121	39	0	298844160	46	5668
2026-01-01 21:56:19.24	88.86	9.77	-36.2	-37.2	22.8	0.00e+00	123	39	0	301989888	46	5680
2026-01-01 21:56:20.22	88.76	9.84	-36.2	-37.2	22.7	0.00e+00	124	39	0	305135616	46	5681
2026-01-01 21:56:21.19	88.66	9.90	-36.1	-37.2	22.9	0.00e+00	121	39	0	308281344	46	5669
2026-01-01 21:56:22.17	88.55	9.97	-36.0	-37.1	22.9	0.00e+00	122	39	0	311427072	46	5600
2026-01-01 21:56:23.15	88.45	10.04	-36.1	-37.1	22.9	0.00e+00	123	39	0	313524224	46	5618
2026-01-01 21:56:24.13	88.34	10.11	-36.0	-37.0	22.9	0.00e+00	122	39	0	316669952	46	5570
2026-01-01 21:56:25.11	88.24	10.18	-36.1	-37.2	22.8	0.00e+00	121	39	0	319815680	46	5672
2026-01-01 21:56:26.08	88.13	10.25	-36.0	-37.1	22.9	0.00e+00	124	39	0	322961408	46	5597
2026-01-01 21:56:27.06	88.02	10.31	-36.1	-37.1	22.9	0.00e+00	122	39	0	326107136	46	5644
2026-01-01 21:56:28.04	87.92	10.38	-36.1	-37.1	22.9	0.00e+00	121	39	0	329252864	46	5643
2026-01-01 21:56:29.02	87.81	10.45	-36.1	-37.1	22.9	0.00e+00	121	39	0	332398592	46	5596
2026-01-01 21:56:30.00	87.70	10.52	-36.1	-37.1	22.9	0.00e+00	123	39	0	335544320	46	5621
2026-01-01 21:56:30.97	87.59	10.59	-36.1	-37.1	22.9	0.00e+00	122	39	0	338690048	46	5656
2026-01-01 21:56:31.95	87.48	10.66	-36.0	-36.9	23.0	0.00e+00	120	39	0	341835776	46	5528
2026-01-01 21:56:32.93	87.37	10.73	-36.0	-37.1	23.0	0.00e+00	123	39	0	344981504	46	5598
2026-01-01 21:56:33.90	87.26	10.80	-36.0	-37.0	23.0	0.00e+00	122	39	0	347078656	46	5565
2026-01-01 21:56:34.88	87.15	10.87	-36.1	-37.1	22.9	0.00e+00	121	39	0	350224384	46	5633
2026-01-01 21:56:35.86	87.04	10.94	-36.1	-37.1	22.9	0.00e+00	124	39	0	353370112	46	5635
2026-01-01 21:56:36.84	86.93	11.01	-35.9	-36.9	23.1	0.00e+00	121	39	0	356515840	46	5487
2026-01-01 21:56:37.81	86.82	11.08	-36.0	-36.9	23.0	0.00e+00	122	39	0	359661568	46	5523
2026-01-01 21:56:38.78	86.70	11.14	-36.1	-37.1	22.9	0.00e+00	122	39	0	362807296	46	5609
2026-01-01 21:56:39.76	86.59	11.21	-36.0	-37.0	23.0	0.00e+00	121	39	0	365953024	46	5554
2026-01-01 21:56:40.73	86.48	11.28	-36.3	-37.3	22.7	0.00e+00	122	39	0	369098752	46	5755
2026-01-01 21:56:41.71	86.36	11.35	-36.2	-37.2	22.9	0.00e+00	123	39	0	372244480	46	5692
2026-01-01 21:56:42.69	86.25	11.42	-35.9	-36.9	23.1	0.00e+00	122	39	0	375390208	46	5479
2026-01-01 21:56:43.67	86.13	11.49	-35.8	-36.7	23.3	0.00e+00	122	39	0	378535936	46	5401
2026-01-01 21:56:44.65	86.01	11.56	-35.7	-36.7	23.3	0.00e+00	121	39	0	381681664	44	6019
2026-01-01 21:56:45.63	85.90	11.64	-35.6	-36.6	23.3	0.00e+00	121	39	0	384827392	44	5955
2026-01-01 21:56:46.60	85.78	11.71	-35.7	-36.6	23.3	0.00e+00	122	39	0	386924544	44	5970
2026-01-01 21:56:47.58	85.66	11.78	-35.7	-36.7	23.2	0.00e+00	122	39	0	390070272	44	6023
2026-01-01 21:56:48.56	85.54	11.85	-36.1	-37.1	23.0	0.00e+00	122	39	0	393216000	44	6284
2026-01-01 21:56:49.54	85.42	11.92	-36.0	-36.9	23.2	0.00e+00	125	39	0	396361728	44	6204
2026-01-01 21:56:50.52	85.30	11.99	-35.8	-36.8	23.2	0.00e+00	124	39	0	399507456	44	6081
2026-01-01 21:56:51.50	85.18	12.06	-35.6	-36.6	23.3	0.00e+00	122	39	0	402653184	44	5969
2026-01-01 21:56:52.47	85.06	12.13	-35.8	-36.7	23.2	0.00e+00	122	39	0	405798912	44	6046
2026-01-01 21:56:53.45	84.94	12.20	-35.8	-36.7	23.2	0.00e+00	123	39	0	408944640	44	6055
2026-01-01 21:56:54.42	84.82	12.27	-35.8	-36.8	23.2	0.00e+00	124	39	0	412090368	44	6094
2026-01-01 21:56:55.40	84.69	12.34	-35.8	-36.8	23.2	0.00e+00	122	39	0	415236096	44	6107
2026-01-01 21:56:56.37	84.57	12.41	-35.9	-36.8	23.2	0.00e+00	124	39	0	418381824	44	6127
2026-01-01 21:56:57.36	84.45	12.49	-35.8	-36.8	23.2	0.00e+00	121	39	0	421527552	44	6118
2026-01-01 21:56:58.33	84.32	12.56	-35.8	-36.8	23.3	0.00e+00	124	39	0	423624704	44	6093
2026-01-01 21:56:59.31	84.20	12.63	-35.7	-36.7	23.3	0.00e+00	122	39	0	426770432	44	6008
2026-01-01 21:57:00.29	84.07	12.70	-36.1	-37.1	23.3	0.00e+00	120	39	0	429916160	46	5618
2026-01-01 21:57:01.27	83.94	12.77	-35.9	-36.9	23.4	0.00e+00	122	39	0	433061888	44	6140
2026-01-01 21:57:02.25	83.81	12.84	-35.8	-36.8	23.4	0.00e+00	123	39	0	436207616	44	6098
2026-01-01 21:57:03.23	83.69	12.91	-35.5	-36.4	23.5	0.00e+00	124	39	0	439353344	44	5819
2026-01-01 21:57:04.21	83.56	12.99	-35.6	-36.6	23.5	0.00e+00	123	39	0	442499072	44	5944
2026-01-01 21:57:05.20	83.43	13.06	-35.4	-36.3	23.6	0.00e+00	122	39	0	445644800	44	5780
2026-01-01 21:57:06.17	83.30	13.13	-35.4	-36.4	23.5	0.00e+00	124	39	0	448790528	44	5823
2026-01-01 21:57:07.15	83.17	13.20	-35.3	-36.3	23.6	0.00e+00	123	39	0	451936256	44	5746
2026-01-01 21:57:08.13	83.04	13.27	-35.6	-36.6	23.4	0.00e+00	124	39	0	455081984	44	5941
2026-01-01 21:57:09.11	82.90	13.35	-35.6	-36.6	23.4	0.00e+00	120	39	0	458227712	44	5952
2026-01-01 21:57:10.08	82.77	13.42	-35.5	-36.4	23.5	0.00e+00	122	39	0	460324864	44	5848
2026-01-01 21:57:11.06	82.64	13.49	-35.6	-36.5	23.5	0.00e+00	123	39	0	463470592	44	5910
2026-01-01 21:57:12.04	82.50	13.56	-35.6	-36.6	23.5	0.00e+00	123	39	0	466616320	44	5927
2026-01-01 21:57:13.01	82.37	13.63	-35.6	-36.6	23.4	0.00e+00	121	39	0	469762048	44	5934
2026-01-01 21:57:13.98	82.24	13.71	-35.4	-36.4	23.6	0.00e+00	121	39	0	472907776	44	5798
2026-01-01 21:57:14.96	82.10	13.78	-35.5	-36.5	23.5	0.00e+00	123	39	0	476053504	44	5864
2026-01-01 21:57:15.94	81.96	13.85	-35.5	-36.5	23.6	0.00e+00	121	39	0	479199232	44	5868
2026-01-01 21:57:16.92	81.83	13.92	-35.5	-36.5	23.5	0.00e+00	120	39	0	482344960	44	5865
2026-01-01 21:57:17.90	81.69	14.00	-35.5	-36.4	23.6	0.00e+00	123	39	0	485490688	44	5843
2026-01-01 21:57:18.88	81.55	14.07	-35.5	-36.5	23.4	0.00e+00	123	39	0	488636416	44	5870
2026-01-01 21:57:19.85	81.41	14.14	-35.5	-36.5	23.4	0.00e+00	125	39	0	490733568	44	5888
2026-01-01 21:57:20.83	81.27	14.22	-35.8	-36.8	23.2	0.00e+00	124	39	0	493879296	44	6087
2026-01-01 21:57:21.81	81.13	14.29	-36.1	-37.1	23.2	0.00e+00	122	39	0	497025024	44	6278
2026-01-01 21:57:22.78	80.99	14.36	-36.2	-37.2	23.0	0.00e+00	121	39	0	500170752	44	6352
2026-01-01 21:57:23.76	80.85	14.43	-36.0	-37.0	23.2	0.00e+00	125	39	0	503316480	44	6233
2026-01-01 21:57:24.73	80.71	14.51	-36.2	-37.1	23.0	0.00e+00	123	39	0	506462208	44	6348
2026-01-01 21:57:25.70	80.56	14.58	-36.1	-37.1	23.1	0.00e+00	120	39	0	509607936	44	6283
2026-01-01 21:57:26.68	80.42	14.65	-36.0	-37.0	23.1	0.00e+00	121	39	0	512753664	44	6234
2026-01-01 21:57:27.65	80.28	14.72	-35.9	-36.9	23.3	0.00e+00	124	39	0	515899392	44	6163
2026-01-01 21:57:28.63	80.13	14.80	-35.8	-36.8	23.3	0.00e+00	123	39	0	519045120	44	6072
2026-01-01 21:57:29.60	79.99	14.87	-35.7	-36.6	23.4	0.00e+00	123	39	0	521142272	44	5973
2026-01-01 21:57:30.58	79.84	14.94	-35.7	-36.6	23.4	0.00e+00	122	39	0	524288000	44	5981
2026-01-01 21:57:31.55	79.69	15.01	-35.7	-36.7	23.4	0.00e+00	121	39	0	527433728	44	6011
2026-01-01 21:57:32.53	79.54	15.09	-35.8	-36.8	23.2	0.00e+00	121	39	0	530579456	44	6093
2026-01-01 21:57:33.50	79.40	15.16	-36.0	-37.0	23.2	0.00e+00	123	39	0	533725184	44	6235
2026-01-01 21:57:34.48	79.24	15.23	-36.1	-37.1	23.0	0.00e+00	123	39	0	536870912	44	6324
2026-01-01 21:57:35.45	79.10	15.31	-36.2	-37.2	22.9	0.00e+00	122	39	0	540016640	44	6397
2026-01-01 21:57:36.44	78.94	15.38	-36.3	-37.2	22.9	0.00e+00	124	39	0	543162368	44	6419
2026-01-01 21:57:37.41	78.79	15.45	-36.0	-36.9	23.2	0.00e+00	121	39	0	546308096	44	6200
2026-01-01 21:57:38.39	78.64	15.53	-35.9	-36.9	23.2	0.00e+00	123	39	0	549453824	44	6155
2026-01-01 21:57:39.37	78.48	15.60	-36.0	-36.9	23.3	0.00e+00	120	39	0	552599552	44	6196
2026-01-01 21:57:40.35	78.33	15.67	-35.8	-36.7	23.4	0.00e+00	122	39	0	555745280	44	6057
2026-01-01 21:57:41.32	78.17	15.75	-35.8	-36.7	23.4	0.00e+00	125	39	0	558891008	44	6044
2026-01-01 21:57:42.30	78.02	15.82	-35.9	-36.8	23.4	0.00e+00	121	39	0	560988160	44	6102
2026-01-01 21:57:43.28	77.86	15.89	-36.0	-36.9	23.2	0.00e+00	122	39	0	564133888	44	6198
2026-01-01 21:57:44.25	77.70	15.97	-35.9	-36.8	23.3	0.00e+00	119	39	0	567279616	44	6120
2026-01-01 21:57:45.23	77.55	16.04	-35.8	-36.8	23.3	0.00e+00	124	39	0	570425344	44	6097
2026-01-01 21:57:46.21	77.39	16.11	-36.1	-37.1	23.1	0.00e+00	117	39	0	573571072	44	6317
2026-01-01 21:57:47.19	77.23	16.19	-36.3	-37.3	23.0	0.00e+00	120	39	0	576716800	44	6450
2026-01-01 21:57:48.17	77.07	16.26	-36.0	-37.0	23.1	0.00e+00	122	39	0	579862528	44	6272
2026-01-01 21:57:49.15	76.90	16.33	-35.9	-36.9	23.3	0.00e+00	123	39	0	583008256	44	6136
2026-01-01 21:57:50.13	76.74	16.41	-36.0	-37.0	23.2	0.00e+00	122	39	0	586153984	44	6233
2026-01-01 21:57:51.10	76.58	16.48	-36.0	-37.0	23.2	0.00e+00	122	39	0	589299712	44	6220
2026-01-01 21:57:52.08	76.41	16.55	-36.0	-36.9	23.3	0.00e+00	124	39	0	592445440	44	6193
2026-01-01 21:57:53.05	76.25	16.62	-35.9	-36.9	23.3	0.00e+00	123	39	0	595591168	44	6154
2026-01-01 21:57:54.03	76.09	16.70	-36.0	-36.9	23.3	0.00e+00	123	39	0	597688320	44	6193
2026-01-01 21:57:55.01	75.92	16.77	-35.7	-36.7	23.4	0.00e+00	123	39	0	600834048	44	6041
2026-01-01 21:57:55.99	75.75	16.84	-35.8	-36.8	23.4	0.00e+00	123	39	0	603979776	44	6082
2026-01-01 21:57:56.96	75.58	16.92	-35.7	-36.7	23.4	0.00e+00	124	39	0	607125504	44	6032
2026-01-01 21:57:57.94	75.41	16.99	-35.6	-36.6	23.5	0.00e+00	122	39	0	610271232	44	5931
2026-01-01 21:57:58.92	75.24	17.06	-35.6	-36.6	23.5	0.00e+00	122	39	0	613416960	44	5929
2026-01-01 21:57:59.89	75.08	17.14	-35.5	-36.5	23.6	0.00e+00	124	39	0	616562688	44	5874
2026-01-01 21:58:00.87	74.90	17.21	-35.4	-36.4	23.7	0.00e+00	122	39	0	619708416	44	5805
2026-01-01 21:58:01.85	74.73	17.28	-35.4	-36.4	23.8	0.00e+00	123	39	0	622854144	44	5792
2026-01-01 21:58:02.83	74.56	17.35	-35.3	-36.3	23.9	0.00e+00	123	39	0	625999872	44	5735
2026-01-01 21:58:03.80	74.39	17.43	-35.5	-36.4	23.8	0.00e+00	123	39	0	628097024	44	5831
2026-01-01 21:58:04.78	74.21	17.50	-35.3	-36.2	23.9	0.00e+00	123	39	0	631242752	44	5689
2026-01-01 21:58:05.76	74.03	17.57	-35.4	-36.4	23.7	0.00e+00	121	39	0	634388480	44	5813
2026-01-01 21:58:06.73	73.86	17.64	-35.4	-36.3	23.7	0.00e+00	125	39	0	637534208	44	5765
2026-01-01 21:58:07.71	73.68	17.72	-35.4	-36.4	23.7	0.00e+00	122	39	0	640679936	44	5804
2026-01-01 21:58:08.69	73.50	17.79	-35.5	-36.5	23.7	0.00e+00	121	39	0	643825664	44	5872
2026-01-01 21:58:09.67	73.32	17.86	-35.4	-36.4	23.7	0.00e+00	123	39	0	646971392	44	5820
2026-01-01 21:58:10.64	73.15	17.93	-35.4	-36.4	23.8	0.00e+00	125	39	0	650117120	44	5803
2026-01-01 21:58:11.62	72.96	18.01	-35.3	-36.2	23.9	0.00e+00	125	39	0	653262848	44	5717
2026-01-01 21:58:12.60	72.78	18.08	-35.3	-36.2	23.9	0.00e+00	121	39	0	656408576	44	5708
2026-01-01 21:58:13.57	72.60	18.15	-35.1	-36.0	24.0	0.00e+00	122	39	0	659554304	44	5579
2026-01-01 21:58:14.55	72.42	18.22	-35.1	-36.1	24.0	0.00e+00	123	39	0	661651456	44	5598
2026-01-01 21:58:15.53	72.23	18.29	-35.0	-36.0	24.1	0.00e+00	124	39	0	664797184	44	5541
2026-01-01 21:58:16.50	72.05	18.36	-35.0	-35.9	24.1	0.00e+00	122	39	0	667942912	44	5498
2026-01-01 21:58:17.48	71.86	18.44	-35.0	-35.9	24.1	0.00e+00	121	39	0	671088640	44	5524
2026-01-01 21:58:18.46	71.68	18.51	-35.0	-35.9	24.2	0.00e+00	120	39	0	674234368	44	5501
2026-01-01 21:58:19.44	71.49	18.58	-35.1	-36.0	24.1	0.00e+00	121	39	0	677380096	44	5584
2026-01-01 21:58:20.42	71.30	18.65	-35.3	-36.2	23.8	0.00e+00	122	39	0	680525824	44	5701
2026-01-01 21:58:21.39	71.11	18.72	-35.2	-36.1	24.0	0.00e+00	122	39	0	683671552	44	5625
2026-01-01 21:58:22.37	70.92	18.79	-35.1	-36.0	24.0	0.00e+00	123	39	0	686817280	44	5581
2026-01-01 21:58:23.35	70.73	18.86	-35.1	-36.1	24.0	0.00e+00	122	39	0	689963008	44	5595
2026-01-01 21:58:24.32	70.54	18.93	-35.3	-36.2	23.9	0.00e+00	123	39	0	693108736	44	5696
2026-01-01 21:58:25.30	70.34	19.00	-35.2	-36.2	23.9	0.00e+00	122	39	0	695205888	44	5665
2026-01-01 21:58:26.28	70.15	19.07	-35.1	-36.1	23.9	0.00e+00	124	39	0	698351616	44	5607
2026-01-01 21:58:27.25	69.96	19.14	-35.4	-36.3	23.7	0.00e+00	123	39	0	701497344	44	5791
2026-01-01 21:58:28.23	69.76	19.21	-35.2	-36.2	23.8	0.00e+00	123	39	0	704643072	44	5682
2026-01-01 21:58:29.21	69.56	19.28	-35.4	-36.3	23.8	0.00e+00	121	39	0	707788800	44	5786
2026-01-01 21:58:30.19	69.36	19.35	-35.4	-36.3	23.8	0.00e+00	121	39	0	710934528	44	5780
2026-01-01 21:58:31.16	69.17	19.42	-35.2	-36.2	24.0	0.00e+00	122	39	0	714080256	44	5682
2026-01-01 21:58:32.14	68.97	19.49	-35.2	-36.2	23.9	0.00e+00	122	39	0	717225984	44	5669
2026-01-01 21:58:33.12	68.77	19.56	-35.4	-36.4	23.9	0.00e+00	124	39	0	720371712	44	5792
2026-01-01 21:58:34.09	68.57	19.63	-35.6	-36.5	23.6	0.00e+00	123	39	0	723517440	44	5899
2026-01-01 21:58:35.07	68.36	19.70	-35.3	-36.3	23.9	0.00e+00	121	39	0	726663168	44	5734
2026-01-01 21:58:36.04	68.16	19.77	-35.4	-36.3	23.8	0.00e+00	120	39	0	729808896	44	5774
2026-01-01 21:58:37.02	67.96	19.84	-35.3	-36.3	23.9	0.00e+00	122	39	0	732954624	44	5751
2026-01-01 21:58:37.99	67.75	19.91	-35.2	-36.1	24.0	0.00e+00	124	39	0	735051776	44	5631
2026-01-01 21:58:38.97	67.55	19.97	-35.2	-36.1	24.0	0.00e+00	120	39	0	738197504	44	5645
2026-01-01 21:58:39.95	67.34	20.04	-35.2	-36.1	24.0	0.00e+00	121	39	0	741343232	44	5632
2026-01-01 21:58:40.93	67.13	20.11	-35.0	-36.0	24.1	0.00e+00	123	39	0	744488960	44	5544
2026-01-01 21:58:41.91	66.92	20.18	-35.0	-36.0	24.2	0.00e+00	124	39	0	747634688	44	5545
2026-01-01 21:58:42.89	66.71	20.25	-34.9	-35.9	24.2	0.00e+00	122	39	0	750780416	44	5473
2026-01-01 21:58:43.87	66.50	20.31	-35.0	-35.9	24.2	0.00e+00	124	39	0	753926144	44	5514
2026-01-01 21:58:44.85	66.29	20.38	-34.8	-35.8	24.2	0.00e+00	121	39	0	757071872	44	5407
2026-01-01 21:58:45.83	66.08	20.45	-34.9	-35.8	24.2	0.00e+00	121	39	0	760217600	44	5435
2026-01-01 21:58:46.81	65.86	20.51	-35.0	-35.9	24.2	0.00e+00	122	39	0	763363328	44	5504
2026-01-01 21:58:47.79	65.65	20.58	-35.0	-35.9	24.3	0.00e+00	123	39	0	766509056	44	5500
2026-01-01 21:58:48.76	65.44	20.64	-34.9	-35.8	24.3	0.00e+00	123	39	0	769654784	44	5465
2026-01-01 21:58:49.74	65.22	20.71	-35.0	-35.9	24.2	0.00e+00	122	39	0	771751936	44	5503
2026-01-01 21:58:50.72	65.00	20.78	-34.8	-35.7	24.3	0.00e+00	121	39	0	774897664	42	6028
2026-01-01 21:58:51.70	64.78	20.84	-34.9	-35.8	24.3	0.00e+00	124	39	0	778043392	42	6083
2026-01-01 21:58:52.68	64.56	20.91	-34.9	-35.9	24.2	0.00e+00	123	39	0	781189120	42	6146
2026-01-01 21:58:53.66	64.34	20.97	-34.9	-35.8	24.2	0.00e+00	122	39	0	784334848	42	6122
2026-01-01 21:58:54.63	64.12	21.03	-35.1	-36.0	24.2	0.00e+00	122	39	0	787480576	42	6230
2026-01-01 21:58:55.61	63.90	21.10	-35.1	-36.0	24.2	0.00e+00	123	39	0	790626304	42	6229
2026-01-01 21:58:56.59	63.68	21.16	-34.9	-35.8	24.3	0.00e+00	121	39	0	793772032	42	6099
2026-01-01 21:58:57.57	63.46	21.23	-35.0	-35.9	24.2	0.00e+00	125	39	0	796917760	42	6189
2026-01-01 21:58:58.55	63.23	21.29	-34.9	-35.8	24.3	0.00e+00	121	39	0	800063488	42	6131
2026-01-01 21:58:59.52	63.01	21.35	-34.9	-35.9	24.3	0.00e+00	122	39	0	803209216	42	6146
2026-01-01 21:59:00.50	62.78	21.41	-34.9	-35.9	24.3	0.00e+00	124	39	0	805306368	42	6139
2026-01-01 21:59:01.48	62.55	21.48	-34.9	-35.8	24.3	0.00e+00	122	39	0	808452096	42	6118
2026-01-01 21:59:02.45	62.33	21.54	-34.9	-35.9	24.3	0.00e+00	120	39	0	811597824	42	6144
2026-01-01 21:59:03.42	62.10	21.60	-34.8	-35.7	24.4	0.00e+00	121	39	0	814743552	42	6029
2026-01-01 21:59:04.40	61.87	21.66	-34.9	-35.7	24.3	0.00e+00	122	39	0	817889280	42	6059
2026-01-01 21:59:05.38	61.64	21.72	-34.8	-35.7	24.5	0.00e+00	122	39	0	821035008	42	6019
2026-01-01 21:59:06.35	61.41	21.78	-34.8	-35.7	24.4	0.00e+00	123	39	0	824180736	42	6018
2026-01-01 21:59:07.33	61.17	21.84	-34.7	-35.6	24.5	0.00e+00	121	39	0	827326464	42	5965
2026-01-01 21:59:08.31	60.94	21.90	-34.7	-35.6	24.4	0.00e+00	119	39	0	830472192	42	5932
2026-01-01 21:59:09.28	60.71	21.96	-34.7	-35.6	24.4	0.00e+00	120	39	0	833617920	42	5953
2026-01-01 21:59:10.26	60.47	22.02	-34.7	-35.6	24.5	0.00e+00	121	39	0	836763648	42	5955
2026-01-01 21:59:11.24	60.24	22.08	-34.6	-35.5	24.6	0.00e+00	120	39	0	838860800	42	5905
2026-01-01 21:59:12.22	60.00	22.13	-34.7	-35.7	24.4	0.00e+00	124	39	0	842006528	42	5995
2026-01-01 21:59:13.20	59.76	22.19	-34.6	-35.5	24.5	0.00e+00	124	39	0	845152256	42	5903
2026-01-01 21:59:14.17	59.52	22.25	-34.8	-35.7	24.4	0.00e+00	121	39	0	848297984	42	6047
2026-01-01 21:59:15.15	59.28	22.31	-34.8	-35.7	24.3	0.00e+00	124	39	0	851443712	42	6009
2026-01-01 21:59:16.13	59.04	22.36	-35.0	-36.0	24.1	0.00e+00	122	39	0	854589440	42	6208
2026-01-01 21:59:17.11	58.80	22.42	-35.1	-36.0	24.1	0.00e+00	124	39	0	857735168	42	6230
2026-01-01 21:59:18.09	58.56	22.48	-35.2	-36.1	24.1	0.00e+00	122	39	0	860880896	42	6329
2026-01-01 21:59:19.06	58.31	22.53	-34.9	-35.9	24.2	0.00e+00	122	39	0	864026624	42	6155
2026-01-01 21:59:20.04	58.07	22.58	-35.0	-35.9	24.3	0.00e+00	122	39	0	867172352	42	6163
2026-01-01 21:59:21.02	57.82	22.64	-35.1	-36.0	24.2	0.00e+00	123	39	0	870318080	42	6258
2026-01-01 21:59:21.99	57.58	22.69	-34.9	-35.8	24.3	0.00e+00	122	39	0	872415232	42	6134
2026-01-01 21:59:22.97	57.33	22.75	-35.0	-35.9	24.2	0.00e+00	123	39	0	875560960	42	6205
2026-01-01 21:59:23.95	57.08	22.80	-34.8	-35.7	24.4	0.00e+00	125	39	0	878706688	42	6061
2026-01-01 21:59:24.93	56.84	22.85	-34.9	-35.8	24.3	0.00e+00	122	39	0	881852416	42	6087
2026-01-01 21:59:25.90	56.59	22.90	-34.8	-35.7	24.5	0.00e+00	124	39	0	884998144	42	6054
2026-01-01 21:59:26.88	56.34	22.96	-34.8	-35.7	24.3	0.00e+00	121	39	0	888143872	42	6044
2026-01-01 21:59:27.86	56.09	23.01	-34.6	-35.5	24.6	0.00e+00	123	39	0	891289600	42	5921
2026-01-01 21:59:28.84	55.83	23.06	-34.6	-35.5	24.6	0.00e+00	122	39	0	894435328	42	5904
2026-01-01 21:59:29.81	55.58	23.11	-34.7	-35.6	24.5	0.00e+00	124	39	0	897581056	42	5937
2026-01-01 21:59:30.80	55.33	23.16	-34.6	-35.5	24.5	0.00e+00	124	39	0	900726784	42	5920
2026-01-01 21:59:31.78	55.07	23.21	-34.7	-35.6	24.5	0.00e+00	122	39	0	903872512	42	5942
2026-01-01 21:59:32.76	54.82	23.25	-34.5	-35.4	24.6	0.00e+00	122	39	0	907018240	42	5838
2026-01-01 21:59:33.73	54.56	23.30	-34.6	-35.5	24.5	0.00e+00	123	39	0	909115392	42	5888
2026-01-01 21:59:34.71	54.31	23.35	-34.7	-35.6	24.5	0.00e+00	121	39	0	912261120	42	5945
2026-01-01 21:59:35.69	54.05	23.40	-34.7	-35.6	24.4	0.00e+00	123	39	0	915406848	42	5993
2026-01-01 21:59:36.66	53.79	23.44	-34.8	-35.7	24.4	0.00e+00	121	39	0	918552576	42	6061
2026-01-01 21:59:37.64	53.53	23.49	-34.9	-35.8	24.3	0.00e+00	125	39	0	921698304	42	6099
2026-01-01 21:59:38.62	53.27	23.53	-34.7	-35.6	24.4	0.00e+00	123	39	0	924844032	42	5978
2026-01-01 21:59:39.59	53.01	23.58	-34.6	-35.6	24.5	0.00e+00	122	39	0	927989760	42	5928
2026-01-01 21:59:40.57	52.75	23.62	-34.7	-35.6	24.5	0.00e+00	124	39	0	931135488	42	5987
2026-01-01 21:59:41.55	52.49	23.67	-34.7	-35.7	24.4	0.00e+00	121	39	0	934281216	42	5996
2026-01-01 21:59:42.53	52.23	23.71	-34.9	-35.9	24.3	0.00e+00	125	39	0	937426944	42	6137
2026-01-01 21:59:43.51	51.96	23.75	-34.9	-35.8	24.5	0.00e+00	122	39	0	940572672	42	6091
2026-01-01 21:59:44.48	51.70	23.79	-34.8	-35.7	24.4	0.00e+00	121	39	0	943718400	42	6056
2026-01-01 21:59:45.46	51.44	23.83	-34.8	-35.8	24.4	0.00e+00	123	39	0	946864128	42	6075
2026-01-01 21:59:46.43	51.17	23.88	-34.8	-35.7	24.4	0.00e+00	125	39	0	948961280	42	6059
2026-01-01 21:59:47.41	50.91	23.92	-34.7	-35.6	24.4	0.00e+00	121	39	0	952107008	42	5989
2026-01-01 21:59:48.38	50.64	23.95	-34.6	-35.5	24.5	0.00e+00	122	39	0	955252736	42	5922
2026-01-01 21:59:49.36	50.37	23.99	-34.7	-35.6	24.5	0.00e+00	123	39	0	958398464	42	5951
2026-01-01 21:59:50.34	50.10	24.03	-34.6	-35.5	24.5	0.00e+00	120	39	0	961544192	42	5897
2026-01-01 21:59:51.32	49.83	24.07	-34.6	-35.5	24.6	0.00e+00	124	39	0	964689920	42	5866
2026-01-01 21:59:52.29	49.57	24.11	-34.6	-35.5	24.5	0.00e+00	122	39	0	967835648	42	5891
2026-01-01 21:59:53.27	49.30	24.14	-34.6	-35.5	24.5	0.00e+00	125	39	0	970981376	42	5876
2026-01-01 21:59:54.25	49.03	24.18	-34.7	-35.6	24.4	0.00e+00	123	39	0	974127104	42	5979
2026-01-01 21:59:55.22	48.76	24.21	-34.7	-35.6	24.4	0.00e+00	120	39	0	977272832	42	5975
2026-01-01 21:59:56.20	48.48	24.25	-34.8	-35.8	24.3	0.00e+00	122	39	0	979369984	42	6079
2026-01-01 21:59:57.17	48.21	24.28	-34.9	-35.8	24.3	0.00e+00	123	39	0	982515712	42	6078
2026-01-01 21:59:58.15	47.94	24.31	-34.9	-35.8	24.3	0.00e+00	122	39	0	985661440	42	6099
2026-01-01 21:59:59.13	47.67	24.35	-34.9	-35.8	24.3	0.00e+00	122	39	0	988807168	42	6083
2026-01-01 22:00:00.10	47.39	24.38	-34.8	-35.7	24.5	0.00e+00	121	39	0	991952896	42	6023
2026-01-01 22:00:01.08	47.12	24.41	-34.9	-35.8	24.4	0.00e+00	122	39	0	995098624	42	6074
2026-01-01 22:00:02.06	46.84	24.44	-34.6	-35.5	24.6	0.00e+00	122	39	0	998244352	42	5888
2026-01-01 22:00:03.03	46.57	24.47	-34.6	-35.5	24.6	0.00e+00	124	39	0	1001390080	42	5925
2026-01-01 22:00:04.01	46.29	24.50	-34.7	-35.6	24.5	0.00e+00	121	39	0	1004535808	42	5943
2026-01-01 22:00:04.99	46.02	24.53	-34.6	-35.5	24.5	0.00e+00	120	39	0	1007681536	42	5913
2026-01-01 22:00:05.96	45.74	24.55	-34.8	-35.7	24.5	0.00e+00	122	39	0	1010827264	42	6016
2026-01-01 22:00:06.94	45.46	24.58	-34.7	-35.6	24.6	0.00e+00	123	39	0	1012924416	42	5964
2026-01-01 22:00:07.92	45.18	24.61	-34.7	-35.6	24.5	0.00e+00	125	39	0	1016070144	42	5968
2026-01-01 22:00:08.89	44.91	24.63	-34.6	-35.5	24.5	0.00e+00	123	39	0	1019215872	42	5889
2026-01-01 22:00:09.87	44.63	24.66	-34.5	-35.4	24.7	0.00e+00	121	39	0	1022361600	42	5798
2026-01-01 22:00:10.85	44.35	24.68	-34.5	-35.3	24.7	0.00e+00	122	39	0	1025507328	42	5791
2026-01-01 22:00:11.82	44.07	24.70	-34.4	-35.3	24.8	0.00e+00	122	39	0	1028653056	42	5738
2026-01-01 22:00:12.80	43.79	24.73	-34.4	-35.3	24.7	0.00e+00	124	39	0	1031798784	42	5731
2026-01-01 22:00:13.78	43.51	24.75	-34.4	-35.3	24.8	0.00e+00	120	39	0	1034944512	42	5753
2026-01-01 22:00:14.76	43.23	24.77	-34.6	-35.5	24.7	0.00e+00	120	39	0	1038090240	42	5879
2026-01-01 22:00:15.74	42.94	24.79	-34.2	-35.1	24.9	0.00e+00	123	39	0	1041235968	42	5635
2026-01-01 22:00:16.72	42.66	24.81	-34.4	-35.3	24.8	0.00e+00	121	39	0	1044381696	42	5758
2026-01-01 22:00:17.69	42.38	24.83	-34.3	-35.2	24.9	0.00e+00	122	39	0	1046478848	42	5711
2026-01-01 22:00:18.67	42.10	24.85	-34.4	-35.3	24.8	0.00e+00	121	39	0	1049624576	42	5744
2026-01-01 22:00:19.65	41.82	24.86	-34.4	-35.3	24.8	0.00e+00	120	39	0	1052770304	42	5791
2026-01-01 22:00:20.62	41.53	24.88	-34.5	-35.4	24.7	0.00e+00	123	39	0	1055916032	42	5800
2026-01-01 22:00:21.60	41.25	24.90	-34.5	-35.3	24.7	0.00e+00	123	39	0	1059061760	42	5785
2026-01-01 22:00:22.57	40.97	24.91	-34.6	-35.5	24.7	0.00e+00	124	39	0	1062207488	42	5896
2026-01-01 22:00:23.55	40.68	24.93	-34.6	-35.5	24.6	0.00e+00	120	39	0	1065353216	42	5911
2026-01-01 22:00:24.53	40.40	24.94	-34.5	-35.4	24.7	0.00e+00	123	39	0	1068498944	42	5829
2026-01-01 22:00:25.51	40.11	24.95	-34.6	-35.5	24.6	0.00e+00	121	39	0	1071644672	42	5871
2026-01-01 22:00:26.48	39.83	24.96	-34.5	-35.4	24.6	0.00e+00	123	39	0	1074790400	42	5832
2026-01-01 22:00:27.46	39.55	24.97	-34.5	-35.4	24.6	0.00e+00	122	39	0	1077936128	42	5802
2026-01-01 22:00:28.44	39.26	24.99	-34.5	-35.4	24.6	0.00e+00	122	39	0	1081081856	42	5840
2026-01-01 22:00:29.41	38.98	25.00	-34.6	-35.5	24.6	0.00e+00	123	39	0	1083179008	42	5922
2026-01-01 22:00:30.39	38.69	25.00	-34.7	-35.6	24.5	0.00e+00	120	39	0	1086324736	42	5983
2026-01-01 22:00:31.37	38.41	25.01	-34.7	-35.6	24.6	0.00e+00	124	39	0	1089470464	42	5979
2026-01-01 22:00:32.34	38.12	25.02	-34.7	-35.6	24.6	0.00e+00	124	39	0	1092616192	42	5948
2026-01-01 22:00:33.32	37.84	25.03	-34.8	-35.7	24.5	0.00e+00	122	39	0	1095761920	42	6030
2026-01-01 22:00:34.29	37.55	25.03	-34.7	-35.6	24.6	0.00e+00	121	39	0	1098907648	42	5927
2026-01-01 22:00:35.26	37.27	25.04	-34.6	-35.5	24.6	0.00e+00	120	39	0	1102053376	42	5904
2026-01-01 22:00:36.24	36.98	25.04	-34.8	-35.7	24.5	0.00e+00	124	39	0	1105199104	42	6028
2026-01-01 22:00:37.22	36.70	25.05	-34.6	-35.5	24.6	0.00e+00	122	39	0	1108344832	42	5905
2026-01-01 22:00:38.20	36.41	25.05	-34.5	-35.4	24.7	0.00e+00	121	39	0	1111490560	42	5828
2026-01-01 22:00:39.18	36.12	25.05	-34.4	-35.3	24.7	0.00e+00	121	39	0	1114636288	42	5760
2026-01-01 22:00:40.15	35.84	25.05	-34.4	-35.3	24.7	0.00e+00	123	39	0	1116733440	42	5765
2026-01-01 22:00:41.13	35.55	25.05	-34.4	-35.3	24.8	0.00e+00	121	39	0	1119879168	42	5741
2026-01-01 22:00:42.11	35.26	25.05	-34.5	-35.4	24.7	0.00e+00	123	39	0	1123024896	42	5825
2026-01-01 22:00:43.09	34.98	25.05	-34.5	-35.4	24.6	0.00e+00	123	39	0	1126170624	42	5839
2026-01-01 22:00:44.06	34.69	25.05	-34.6	-35.5	24.6	0.00e+00	124	39	0	1129316352	42	5921
2026-01-01 22:00:45.04	34.41	25.05	-34.8	-35.7	24.5	0.00e+00	122	39	0	1132462080	42	6017
2026-01-01 22:00:46.02	34.12	25.04	-34.7	-35.6	24.6	0.00e+00	126	39	0	1135607808	42	5946
2026-01-01 22:00:46.99	33.84	25.04	-34.6	-35.5	24.6	0.00e+00	124	39	0	1138753536	42	5862
2026-01-01 22:00:47.96	33.55	25.03	-34.6	-35.4	24.6	0.00e+00	120	39	0	1141899264	42	5855
2026-01-01 22:00:48.94	33.27	25.03	-34.6	-35.5	24.6	0.00e+00	122	39	0	1145044992	42	5864
2026-01-01 22:00:49.92	32.98	25.02	-34.8	-35.7	24.6	0.00e+00	125	39	0	1148190720	42	6005
2026-01-01 22:00:50.89	32.70	25.01	-34.6	-35.5	24.7	0.00e+00	122	39	0	1150287872	42	5867
2026-01-01 22:00:51.87	32.41	25.01	-34.7	-35.6	24.6	0.00e+00	122	39	0	1153433600	42	5939
2026-01-01 22:00:52.85	32.12	25.00	-34.6	-35.6	24.6	0.00e+00	121	39	0	1156579328	42	5931
2026-01-01 22:00:53.83	31.84	24.99	-34.6	-35.5	24.6	0.00e+00	123	39	0	1159725056	42	5867
2026-01-01 22:00:54.80	31.56	24.98	-34.6	-35.5	24.7	0.00e+00	123	39	0	1162870784	42	5873
2026-01-01 22:00:55.78	31.27	24.97	-34.4	-35.3	24.8	0.00e+00	121	39	0	1166016512	42	5739
2026-01-01 22:00:56.76	30.99	24.95	-34.5	-35.3	24.7	0.00e+00	121	39	0	1169162240	42	5789
2026-01-01 22:00:57.74	30.70	24.94	-34.3	-35.2	24.9	0.00e+00	123	39	0	1172307968	42	5705
2026-01-01 22:00:58.72	30.42	24.93	-34.5	-35.3	24.7	0.00e+00	120	39	0	1175453696	42	5790
2026-01-01 22:00:59.69	30.13	24.91	-34.4	-35.3	24.7	0.00e+00	122	39	0	1178599424	42	5754
2026-01-01 22:01:00.67	29.85	24.90	-34.5	-35.3	24.8	0.00e+00	122	39	0	1181745152	42	5784
2026-01-01 22:01:01.65	29.57	24.88	-34.5	-35.4	24.7	0.00e+00	125	39	0	1183842304	42	5819
2026-01-01 22:01:02.63	29.28	24.87	-34.3	-35.2	24.9	0.00e+00	123	39	0	1186988032	42	5662
2026-01-01 22:01:03.60	29.00	24.85	-34.4	-35.3	24.8	0.00e+00	122	39	0	1190133760	42	5756
2026-01-01 22:01:04.58	28.72	24.83	-34.4	-35.3	24.8	0.00e+00	121	39	0	1193279488	42	5766
2026-01-01 22:01:05.56	28.44	24.81	-34.5	-35.4	24.6	0.00e+00	122	39	0	1196425216	42	5852
2026-01-01 22:01:06.54	28.15	24.79	-34.7	-35.6	24.6	0.00e+00	121	39	0	1199570944	42	5944
2026-01-01 22:01:07.51	27.88	24.77	-34.6	-35.5	24.6	0.00e+00	122	39	0	1202716672	42	5867
2026-01-01 22:01:08.50	27.59	24.75	-34.7	-35.6	24.5	0.00e+00	123	39	0	1205862400	42	5946
2026-01-01 22:01:09.47	27.31	24.73	-34.4	-35.3	24.7	0.00e+00	123	39	0	1209008128	42	5777
2026-01-01 22:01:10.45	27.03	24.71	-34.6	-35.5	24.6	0.00e+00	122	39	0	1212153856	42	5863
2026-01-01 22:01:11.43	26.75	24.68	-34.4	-35.2	24.7	0.00e+00	121	39	0	1215299584	42	5723
2026-01-01 22:01:12.40	26.47	24.66	-34.4	-35.3	24.7	0.00e+00	121	39	0	1217396736	42	5780
2026-01-01 22:01:13.38	26.20	24.63	-34.4	-35.3	24.8	0.00e+00	122	39	0	1220542464	42	5757
2026-01-01 22:01:14.36	25.92	24.61	-34.5	-35.4	24.7	0.00e+00	122	39	0	1223688192	42	5807
2026-01-01 22:01:15.34	25.64	24.58	-34.6	-35.5	24.6	0.00e+00	121	39	0	1226833920	42	5870
2026-01-01 22:01:16.31	25.36	24.56	-34.7	-35.6	24.5	0.00e+00	121	39	0	1229979648	42	5979
2026-01-01 22:01:17.29	25.09	24.53	-34.8	-35.7	24.5	0.00e+00	123	39	0	1233125376	42	6042
2026-01-01 22:01:18.27	24.81	24.50	-34.8	-35.7	24.5	0.00e+00	122	39	0	1236271104	42	6039
2026-01-01 22:01:19.24	24.53	24.47	-35.0	-35.9	24.2	0.00e+00	121	39	0	1239416832	42	6196
2026-01-01 22:01:20.22	24.26	24.44	-35.1	-36.0	24.2	0.00e+00	121	39	0	1242562560	42	6263
2026-01-01 22:01:21.20	23.98	24.41	-35.2	-36.1	24.1	0.00e+00	122	39	0	1245708288	42	6347
2026-01-01 22:01:22.18	23.71	24.38	-35.3	-36.2	24.1	0.00e+00	121	39	0	1248854016	42	6392
2026-01-01 22:01:23.15	23.44	24.35	-35.2	-36.1	24.1	0.00e+00	125	39	0	1251999744	42	6331
2026-01-01 22:01:24.13	23.16	24.32	-35.2	-36.1	24.2	0.00e+00	124	39	0	1254096896	42	6307
2026-01-01 22:01:25.11	22.89	24.28	-35.2	-36.1	24.2	0.00e+00	123	39	0	1257242624	42	6321
2026-01-01 22:01:26.09	22.62	24.25	-34.9	-35.8	24.4	0.00e+00	122	39	0	1260388352	42	6129
2026-01-01 22:01:27.06	22.35	24.22	-34.8	-35.7	24.4	0.00e+00	122	39	0	1263534080	42	6039
2026-01-01 22:01:28.04	22.08	24.18	-34.9	-35.7	24.3	0.00e+00	124	39	0	1266679808	42	6063
2026-01-01 22:01:29.01	21.81	24.15	-34.9	-35.8	24.3	0.00e+00	122	39	0	1269825536	42	6120
2026-01-01 22:01:29.99	21.54	24.11	-34.9	-35.8	24.3	0.00e+00	124	39	0	1272971264	42	6105
2026-01-01 22:01:30.96	21.27	24.07	-34.9	-35.9	24.3	0.00e+00	122	39	0	1276116992	42	6140
2026-01-01 22:01:31.94	21.00	24.04	-34.9	-35.8	24.3	0.00e+00	121	39	0	1279262720	42	6105
2026-01-01 22:01:32.91	20.74	24.00	-34.9	-35.8	24.3	0.00e+00	123	39	0	1282408448	42	6128
2026-01-01 22:01:33.88	20.47	23.96	-34.9	-35.8	24.4	0.00e+00	123	39	0	1285554176	42	6082
2026-01-01 22:01:34.86	20.20	23.92	-34.8	-35.7	24.4	0.00e+00	122	39	0	1288699904	42	6035
2026-01-01 22:01:35.84	19.94	23.88	-34.8	-35.7	24.4	0.00e+00	122	39	0	1290797056	42	6056
2026-01-01 22:01:36.82	19.67	23.84	-34.7	-35.6	24.5	0.00e+00	120	39	0	1293942784	42	5944
2026-01-01 22:01:37.79	19.41	23.80	-34.9	-35.8	24.4	0.00e+00	122	39	0	1297088512	42	6080
2026-01-01 22:01:38.77	19.15	23.76	-34.8	-35.7	24.2	0.00e+00	123	39	0	1300234240	42	6034
2026-01-01 22:01:39.75	18.88	23.72	-34.9	-35.8	24.2	0.00e+00	121	39	0	1303379968	42	6113
2026-01-01 22:01:40.72	18.62	23.67	-35.1	-36.1	24.0	0.00e+00	121	39	0	1306525696	42	6280
2026-01-01 22:01:41.70	18.36	23.63	-35.0	-35.9	24.0	0.00e+00	124	39	0	1309671424	42	6163
2026-01-01 22:01:42.68	18.10	23.59	-34.9	-35.8	24.1	0.00e+00	120	39	0	1312817152	42	6125
2026-01-01 22:01:43.65	17.84	23.54	-34.8	-35.7	24.2	0.00e+00	123	39	0	1315962880	42	6030
2026-01-01 22:01:44.63	17.58	23.50	-34.8	-35.7	24.2	0.00e+00	123	39	0	1319108608	42	6022
2026-01-01 22:01:45.61	17.32	23.45	-34.8	-35.7	24.1	0.00e+00	123	39	0	1322254336	42	6032
2026-01-01 22:01:46.58	17.07	23.40	-34.9	-35.8	24.1	0.00e+00	121	39	0	1324351488	42	6110
2026-01-01 22:01:47.56	16.81	23.36	-34.8	-35.7	24.3	0.00e+00	125	39	0	1327497216	42	6029
2026-01-01 22:01:48.53	16.56	23.31	-34.7	-35.6	24.4	0.00e+00	121	39	0	1330642944	42	5984
2026-01-01 22:01:49.51	16.30	23.26	-34.7	-35.6	24.5	0.00e+00	122	39	0	1333788672	42	5973
2026-01-01 22:01:50.48	16.05	23.21	-34.7	-35.6	24.5	0.00e+00	122	39	0	1336934400	42	5960
2026-01-01 22:01:51.45	15.79	23.17	-34.7	-35.6	24.5	0.00e+00	122	39	0	1340080128	42	5960
2026-01-01 22:01:52.43	15.54	23.12	-34.6	-35.4	24.6	0.00e+00	122	39	0	1343225856	42	5852
2026-01-01 22:01:53.41	15.29	23.07	-34.6	-35.5	24.6	0.00e+00	121	39	0	1346371584	42	5873
2026-01-01 22:01:54.38	15.04	23.02	-34.6	-35.5	24.7	0.00e+00	122	39	0	1349517312	42	5862
2026-01-01 22:01:55.36	14.79	22.97	-34.6	-35.5	24.6	0.00e+00	124	39	0	1352663040	42	5881
2026-01-01 22:01:56.33	14.54	22.92	-34.6	-35.5	24.6	0.00e+00	119	40	0	1354760192	42	5864
2026-01-01 22:01:57.31	14.29	22.86	-34.8	-35.7	24.5	0.00e+00	123	39	0	1357905920	42	6005
2026-01-01 22:01:58.28	14.05	22.81	-34.7	-35.6	24.6	0.00e+00	122	39	0	1361051648	42	5938
2026-01-01 22:01:59.26	13.80	22.76	-34.9	-35.8	24.4	0.00e+00	123	39	0	1364197376	42	6083
2026-01-01 22:02:00.23	13.55	22.71	-34.8	-35.7	24.4	0.00e+00	121	39	0	1367343104	42	6009
2026-01-01 22:02:01.21	13.31	22.65	-34.7	-35.5	24.6	0.00e+00	124	39	0	1370488832	42	5922
2026-01-01 22:02:02.19	13.06	22.60	-34.8	-35.6	24.5	0.00e+00	122	39	0	1373634560	42	5994
2026-01-01 22:02:03.16	12.82	22.54	-34.8	-35.7	24.5	0.00e+00	123	39	0	1376780288	42	6015
2026-01-01 22:02:04.13	12.58	22.49	-34.6	-35.5	24.7	0.00e+00	123	39	0	1379926016	42	5888
2026-01-01 22:02:05.10	12.34	22.43	-34.5	-35.4	24.7	0.00e+00	122	39	0	1383071744	42	5828
2026-01-01 22:02:06.08	12.10	22.38	-34.5	-35.3	24.7	0.00e+00	123	39	0	1386217472	42	5772
2026-01-01 22:02:07.06	11.86	22.32	-34.4	-35.3	24.7	0.00e+00	121	39	0	1389363200	42	5782
2026-01-01 22:02:08.03	11.62	22.27	-34.6	-35.5	24.5	0.00e+00	125	39	0	1391460352	42	5899
2026-01-01 22:02:09.01	11.38	22.21	-34.7	-35.6	24.4	0.00e+00	124	39	0	1394606080	42	5975
2026-01-01 22:02:09.98	11.14	22.15	-34.9	-35.8	24.3	0.00e+00	121	39	0	1397751808	42	6085
2026-01-01 22:02:10.96	10.91	22.09	-35.0	-35.9	24.4	0.00e+00	123	39	0	1400897536	42	6141
2026-01-01 22:02:11.94	10.67	22.03	-34.9	-35.8	24.3	0.00e+00	121	39	0	1404043264	42	6121
2026-01-01 22:02:12.92	10.44	21.98	-34.9	-35.8	24.4	0.00e+00	122	40	0	1407188992	42	6069
2026-01-01 22:02:13.89	10.20	21.92	-34.9	-35.8	24.4	0.00e+00	122	39	0	1410334720	42	6113
2026-01-01 22:02:14.87	9.97	21.86	-34.7	-35.6	24.5	0.00e+00	121	40	0	1413480448	42	5985
2026-01-01 22:02:15.84	9.74	21.80	-34.9	-35.8	24.4	0.00e+00	119	39	0	1416626176	42	6071
2026-01-01 22:02:16.82	9.51	21.74	-34.9	-35.8	24.4	0.00e+00	122	40	0	1419771904	42	6082
2026-01-01 22:02:17.80	9.28	21.68	-34.9	-35.8	24.4	0.00e+00	122	40	0	1421869056	42	6094
2026-01-01 22:02:18.77	9.05	21.62	-35.1	-36.0	24.2	0.00e+00	122	39	0	1425014784	42	6247
2026-01-01 22:02:19.75	8.82	21.56	-35.1	-36.0	24.2	0.00e+00	122	39	0	1428160512	42	6263
2026-01-01 22:02:20.73	8.59	21.49	-35.1	-36.0	24.3	0.00e+00	121	40	0	1431306240	42	6248
2026-01-01 22:02:21.71	8.36	21.43	-34.9	-35.8	24.3	0.00e+00	123	40	0	1434451968	42	6092
2026-01-01 22:02:22.68	8.14	21.37	-34.9	-35.8	24.3	0.00e+00	125	39	0	1437597696	42	6079
2026-01-01 22:02:23.66	7.92	21.31	-34.8	-35.7	24.4	0.00e+00	123	39	0	1440743424	42	6013
2026-01-01 22:02:24.64	7.69	21.24	-34.5	-35.4	24.6	0.00e+00	122	39	0	1443889152	42	5849
2026-01-01 22:02:25.62	7.47	21.18	-34.6	-35.5	24.6	0.00e+00	120	39	0	1447034880	42	5865
2026-01-01 22:02:26.59	7.25	21.12	-34.4	-35.3	24.7	0.00e+00	121	39	0	1450180608	42	5758
2026-01-01 22:02:27.57	7.03	21.05	-34.5	-35.4	24.6	0.00e+00	124	39	0	1453326336	42	5839
2026-01-01 22:02:28.55	6.80	20.99	-34.7	-35.6	24.4	0.00e+00	125	39	0	1455423488	42	5951
2026-01-01 22:02:29.52	6.59	20.93	-34.8	-35.7	24.4	0.00e+00	122	39	0	1458569216	42	6058
2026-01-01 22:02:30.50	6.37	20.86	-35.0	-35.9	24.3	0.00e+00	123	39	0	1461714944	42	6155
2026-01-01 22:02:31.47	6.15	20.80	-34.9	-35.8	24.4	0.00e+00	122	39	0	1464860672	42	6092
2026-01-01 22:02:32.45	5.94	20.73	-34.9	-35.8	24.4	0.00e+00	124	39	0	1468006400	42	6071
2026-01-01 22:02:33.43	5.72	20.67	-34.7	-35.6	24.5	0.00e+00	120	39	0	1471152128	42	5976
2026-01-01 22:02:34.41	5.50	20.60	-34.8	-35.7	24.3	0.00e+00	122	39	0	1474297856	42	6056
2026-01-01 22:02:35.39	5.29	20.53	-34.8	-35.7	24.4	0.00e+00	124	40	0	1477443584	42	6010
2026-01-01 22:02:36.36	5.08	20.47	-34.7	-35.6	24.5	0.00e+00	122	40	0	1480589312	42	5952
2026-01-01 22:02:37.34	4.87	20.40	-34.8	-35.7	24.4	0.00e+00	122	39	0	1483735040	42	6006
2026-01-01 22:02:38.32	4.65	20.34	-34.6	-35.6	24.5	0.00e+00	122	39	0	1486880768	42	5931
2026-01-01 22:02:39.29	4.45	20.27	-34.8	-35.7	24.3	0.00e+00	122	40	0	1488977920	42	6047
2026-01-01 22:02:40.27	4.24	20.20	-34.8	-35.7	24.2	0.00e+00	123	40	0	1492123648	42	6053
2026-01-01 22:02:41.24	4.03	20.14	-35.0	-35.9	24.2	0.00e+00	123	39	0	1495269376	42	6163
2026-01-01 22:02:42.22	3.82	20.07	-34.9	-35.8	24.1	0.00e+00	120	39	0	1498415104	42	6109
2026-01-01 22:02:43.20	3.62	20.00	-34.8	-35.7	24.2	0.00e+00	121	40	0	1501560832	42	6049
2026-01-01 22:02:44.18	3.41	19.93	-34.8	-35.7	24.3	0.00e+00	121	39	0	1504706560	42	6001
2026-01-01 22:02:45.15	3.21	19.86	-34.7	-35.6	24.3	0.00e+00	122	39	0	1507852288	42	5954
2026-01-01 22:02:46.13	3.00	19.80	-34.8	-35.7	24.3	0.00e+00	124	40	0	1510998016	42	6047
2026-01-01 22:02:47.11	2.80	19.73	-34.8	-35.7	24.4	0.00e+00	123	39	0	1514143744	42	6012
2026-01-01 22:02:48.09	2.60	19.66	-35.0	-35.9	24.3	0.00e+00	122	40	0	1517289472	42	6146
2026-01-01 22:02:49.07	2.40	19.59	-35.1	-36.0	24.2	0.00e+00	124	40	0	1520435200	42	6212
2026-01-01 22:02:50.04	2.20	19.52	-35.2	-36.1	24.1	0.00e+00	123	40	0	1523580928	42	6306
2026-01-01 22:02:51.02	2.00	19.45	-35.3	-36.2	24.0	0.00e+00	122	39	0	1525678080	42	6386
2026-01-01 22:02:52.00	1.80	19.38	-35.3	-36.2	24.0	0.00e+00	121	39	0	1528823808	42	6397
2026-01-01 22:02:52.97	1.60	19.31	-35.2	-36.1	24.0	0.00e+00	117	39	0	1531969536	42	6344
2026-01-01 22:02:53.95	1.41	19.24	-35.0	-36.0	24.1	0.00e+00	120	40	0	1535115264	42	6218
2026-01-01 22:02:54.93	1.21	19.17	-35.1	-36.0	24.1	0.00e+00	123	39	0	1538260992	42	6272
2026-01-01 22:02:55.90	1.02	19.10	-34.7	-35.7	24.3	0.00e+00	122	39	0	1541406720	42	5997
2026-01-01 22:02:56.88	0.83	19.03	-34.7	-35.6	24.4	0.00e+00	120	40	0	1544552448	42	5980
2026-01-01 22:02:57.86	0.63	18.96	-34.8	-35.7	24.3	0.00e+00	123	40	0	1547698176	42	6033
2026-01-01 22:02:58.84	0.44	18.89	-34.8	-35.7	24.4	0.00e+00	122	39	0	1550843904	42	6005
2026-01-01 22:02:59.82	0.25	18.82	-35.0	-35.9	24.3	0.00e+00	122	39	0	1553989632	42	6157
2026-01-01 22:03:00.80	0.06	18.75	-34.9	-35.8	24.3	0.00e+00	121	39	0	1557135360	42	6118
2026-01-01 22:03:01.77	359.87	18.68	-35.1	-36.0	24.1	0.00e+00	120	40	0	1560281088	42	6251
2026-01-01 22:03:02.75	359.68	18.61	-35.1	-36.1	24.1	0.00e+00	122	40	0	1562378240	42	6284
2026-01-01 22:03:03.73	359.49	18.54	-35.1	-36.0	24.1	0.00e+00	122	40	0	1565523968	42	6261
2026-01-01 22:03:04.71	359.31	18.47	-35.2	-36.1	24.1	0.00e+00	124	40	0	1568669696	42	6301
2026-01-01 22:03:05.69	359.12	18.40	-35.0	-35.9	24.2	0.00e+00	122	40	0	1571815424	42	6183
2026-01-01 22:03:06.66	358.94	18.32	-35.0	-35.9	24.2	0.00e+00	124	39	0	1574961152	42	6172
2026-01-01 22:03:07.64	358.75	18.25	-35.1	-36.0	24.2	0.00e+00	121	40	0	1578106880	42	6271
2026-01-01 22:03:08.62	358.57	18.18	-35.1	-36.0	24.1	0.00e+00	122	40	0	1581252608	42	6263
2026-01-01 22:03:09.60	358.39	18.11	-35.2	-36.1	24.1	0.00e+00	121	39	0	1584398336	42	6307
2026-01-01 22:03:10.57	358.21	18.04	-35.2	-36.1	24.0	0.00e+00	122	40	0	1587544064	42	6325
2026-01-01 22:03:11.55	358.03	17.97	-35.2	-36.1	24.0	0.00e+00	123	40	0	1590689792	42	6343
2026-01-01 22:03:12.53	357.85	17.89	-35.4	-36.3	23.9	0.00e+00	120	39	0	1593835520	42	6458
2026-01-01 22:03:13.51	357.67	17.82	-35.4	-36.3	23.9	0.00e+00	122	40	0	1596981248	42	6460
2026-01-01 22:03:14.49	357.49	17.75	-35.4	-36.3	23.9	0.00e+00	126	40	0	1599078400	42	6473
2026-01-01 22:03:15.46	357.32	17.68	-35.4	-36.3	23.8	0.00e+00	122	39	0	1602224128	42	6488
2026-01-01 22:03:16.44	357.14	17.60	-35.4	-36.3	23.9	0.00e+00	121	39	0	1605369856	42	6494
2026-01-01 22:03:17.42	356.96	17.53	-35.6	-36.5	23.8	0.00e+00	122	39	0	1608515584	42	6623
2026-01-01 22:03:18.40	356.79	17.46	-35.4	-36.3	23.9	0.00e+00	121	39	0	1611661312	42	6471
2026-01-01 22:03:19.38	356.62	17.39	-35.4	-36.4	23.8	0.00e+00	120	39	0	1614807040	42	6509
2026-01-01 22:03:20.36	356.44	17.31	-35.5	-36.4	23.9	0.00e+00	122	39	0	1617952768	42	6542
2026-01-01 22:03:21.34	356.27	17.24	-35.6	-36.5	23.8	0.00e+00	123	40	0	1621098496	42	6598
2026-01-01 22:03:22.32	356.10	17.17	-35.6	-36.5	23.7	0.00e+00	122	39	0	1624244224	42	6639
2026-01-01 22:03:23.30	355.93	17.10	-35.5	-36.5	23.8	0.00e+00	125	39	0	1627389952	42	6596
2026-01-01 22:03:24.28	355.76	17.02	-35.6	-36.6	23.7	0.00e+00	122	40	0	1630535680	42	6682
2026-01-01 22:03:25.25	355.59	16.95	-35.5	-36.4	23.8	0.00e+00	123	39	0	1633681408	44	5857
2026-01-01 22:03:26.23	355.43	16.88	-35.5	-36.5	23.7	0.00e+00	121	39	0	1635778560	44	5873
2026-01-01 22:03:27.21	355.26	16.81	-35.4	-36.3	23.8	0.00e+00	120	40	0	1638924288	44	5757
2026-01-01 22:03:28.18	355.09	16.73	-35.5	-36.5	23.7	0.00e+00	122	40	0	1642070016	44	5872
2026-01-01 22:03:29.16	354.93	16.66	-35.4	-36.3	23.8	0.00e+00	124	40	0	1645215744	44	5770
2026-01-01 22:03:30.14	354.76	16.59	-35.3	-36.3	23.8	0.00e+00	122	40	0	1648361472	44	5737
2026-01-01 22:03:31.12	354.60	16.51	-35.5	-36.4	23.7	0.00e+00	122	40	0	1651507200	44	5847
2026-01-01 22:03:32.10	354.44	16.44	-35.4	-36.4	23.7	0.00e+00	123	40	0	1654652928	44	5797
2026-01-01 22:03:33.08	354.28	16.37	-35.5	-36.4	23.7	0.00e+00	122	40	0	1657798656	44	5821
2026-01-01 22:03:34.05	354.12	16.30	-35.5	-36.4	23.7	0.00e+00	122	40	0	1660944384	44	5817
2026-01-01 22:03:35.03	353.96	16.22	-35.4	-36.3	23.8	0.00e+00	124	40	0	1664090112	44	5755
2026-01-01 22:03:36.00	353.80	16.15	-35.4	-36.4	23.8	0.00e+00	123	40	0	1667235840	44	5808
2026-01-01 22:03:36.98	353.64	16.08	-35.5	-36.4	23.7	0.00e+00	120	40	0	1669332992	44	5816
2026-01-01 22:03:37.96	353.48	16.00	-35.4	-36.3	23.7	0.00e+00	125	40	0	1672478720	44	5752
2026-01-01 22:03:38.93	353.32	15.93	-35.4	-36.3	23.8	0.00e+00	122	40	0	1675624448	44	5753
2026-01-01 22:03:39.91	353.17	15.86	-35.4	-36.4	23.8	0.00e+00	121	40	0	1678770176	44	5794
2026-01-01 22:03:40.89	353.01	15.78	-35.3	-36.2	23.8	0.00e+00	119	40	0	1681915904	44	5716
2026-01-01 22:03:41.87	352.86	15.71	-35.3	-36.2	23.9	0.00e+00	124	40	0	1685061632	44	5692
2026-01-01 22:03:42.85	352.70	15.64	-35.4	-36.3	23.8	0.00e+00	125	40	0	1688207360	44	5764
2026-01-01 22:03:43.82	352.55	15.57	-35.6	-36.6	23.6	0.00e+00	123	40	0	1691353088	44	5935
2026-01-01 22:03:44.80	352.40	15.49	-35.8	-36.7	23.5	0.00e+00	123	40	0	1694498816	44	6019
2026-01-01 22:03:45.78	352.25	15.42	-35.8	-36.8	23.4	0.00e+00	121	40	0	1697644544	44	6074
2026-01-01 22:03:46.75	352.10	15.35	-35.9	-36.9	23.3	0.00e+00	123	40	0	1699741696	44	6163
2026-01-01 22:03:47.73	351.95	15.27	-36.1	-37.0	23.2	0.00e+00	122	40	0	1702887424	44	6256
2026-01-01 22:03:48.71	351.80	15.20	-36.0	-37.0	23.2	0.00e+00	121	40	0	1706033152	44	6246
2026-01-01 22:03:49.69	351.65	15.13	-36.1	-37.0	23.2	0.00e+00	121	40	0	1709178880	44	6250
2026-01-01 22:03:50.66	351.50	15.06	-36.0	-37.0	23.2	0.00e+00	122	40	0	1712324608	44	6225
2026-01-01 22:03:51.64	351.35	14.98	-35.8	-36.8	23.3	0.00e+00	122	40	0	1715470336	44	6075
2026-01-01 22:03:52.62	351.21	14.91	-35.8	-36.8	23.3	0.00e+00	120	40	0	1718616064	44	6091
2026-01-01 22:03:53.60	351.06	14.84	-35.6	-36.5	23.6	0.00e+00	124	40	0	1721761792	44	5898
2026-01-01 22:03:54.57	350.92	14.76	-35.5	-36.4	23.6	0.00e+00	123	40	0	1724907520	44	5851
2026-01-01 22:03:55.55	350.77	14.69	-35.5	-36.4	23.6	0.00e+00	124	40	0	1728053248	44	5852
2026-01-01 22:03:56.52	350.63	14.62	-35.6	-36.5	23.6	0.00e+00	123	40	0	1731198976	44	5890
2026-01-01 22:03:57.50	350.49	14.55	-35.8	-36.8	23.5	0.00e+00	120	40	0	1734344704	44	6084
2026-01-01 22:03:58.47	350.34	14.47	-35.7	-36.7	23.5	0.00e+00	123	40	0	1736441856	44	6001
2026-01-01 22:03:59.45	350.20	14.40	-35.8	-36.7	23.5	0.00e+00	126	40	0	1739587584	44	6018
2026-01-01 22:04:00.43	350.06	14.33	-35.9	-36.8	23.2	0.00e+00	120	40	0	1742733312	44	6118
2026-01-01 22:04:01.40	349.92	14.26	-36.0	-37.0	23.2	0.00e+00	123	40	0	1745879040	44	6231
2026-01-01 22:04:02.38	349.78	14.18	-36.2	-37.2	22.9	0.00e+00	121	40	0	1749024768	44	6395
2026-01-01 22:04:03.35	349.65	14.11	-36.4	-37.4	22.9	0.00e+00	120	40	0	1752170496	44	6501
2026-01-01 22:04:04.33	349.51	14.04	-36.5	-37.5	22.7	0.00e+00	120	40	0	1755316224	44	6575
2026-01-01 22:04:05.31	349.37	13.97	-36.5	-37.5	22.6	0.00e+00	124	40	0	1758461952	44	6638
2026-01-01 22:04:06.28	349.23	13.90	-36.5	-37.5	22.6	0.00e+00	123	40	0	1761607680	44	6627
2026-01-01 22:04:07.26	349.10	13.82	-36.5	-37.6	22.6	0.00e+00	121	40	0	1764753408	44	6650
2026-01-01 22:04:08.23	348.96	13.75	-36.4	-37.4	22.8	0.00e+00	118	40	0	1767899136	44	6521
2026-01-01 22:04:09.21	348.83	13.68	-36.1	-37.1	22.9	0.00e+00	123	40	0	1771044864	44	6294
2026-01-01 22:04:10.19	348.69	13.61	-36.0	-37.0	23.1	0.00e+00	121	40	0	1773142016	44	6259
2026-01-01 22:04:11.17	348.56	13.53	-36.1	-37.0	23.0	0.00e+00	122	40	0	1776287744	44	6260
2026-01-01 22:04:12.14	348.43	13.46	-36.2	-37.1	23.1	0.00e+00	125	40	0	1779433472	44	6330
2026-01-01 22:04:13.12	348.30	13.39	-36.1	-37.0	23.2	0.00e+00	123	40	0	1782579200	44	6270
2026-01-01 22:04:14.10	348.17	13.32	-36.1	-37.1	23.1	0.00e+00	123	40	0	1785724928	44	6321
2026-01-01 22:04:15.07	348.04	13.25	-36.3	-37.2	23.0	0.00e+00	122	40	0	1788870656	44	6417
2026-01-01 22:04:16.05	347.91	13.18	-36.5	-37.4	22.8	0.00e+00	124	40	0	1792016384	44	6553
2026-01-01 22:04:17.03	347.78	13.10	-36.8	-37.8	22.6	0.00e+00	122	40	0	1795162112	46	6086
2026-01-01 22:04:18.01	347.65	13.03	-37.0	-38.0	22.3	0.00e+00	122	40	0	1798307840	46	6276
2026-01-01 22:04:18.99	347.52	12.96	-36.9	-38.0	22.4	0.00e+00	121	40	0	1801453568	46	6214
2026-01-01 22:04:19.97	347.39	12.89	-37.1	-38.1	22.2	0.00e+00	123	40	0	1804599296	46	6323
2026-01-01 22:04:20.95	347.26	12.82	-37.1	-38.1	22.3	0.00e+00	123	40	0	1806696448	46	6302
2026-01-01 22:04:21.93	347.14	12.75	-36.8	-37.9	22.5	0.00e+00	122	40	0	1809842176	46	6142
2026-01-01 22:04:22.90	347.01	12.68	-36.7	-37.7	22.5	0.00e+00	122	40	0	1812987904	46	6045
2026-01-01 22:04:23.89	346.89	12.60	-36.5	-37.5	22.7	0.00e+00	124	40	0	1816133632	46	5888
2026-01-01 22:04:24.86	346.76	12.53	-36.4	-37.4	22.8	0.00e+00	121	40	0	1819279360	46	5824
2026-01-01 22:04:25.84	346.64	12.46	-36.3	-37.3	22.8	0.00e+00	122	40	0	1822425088	46	5782
2026-01-01 22:04:26.81	346.52	12.39	-36.4	-37.4	22.8	0.00e+00	119	40	0	1825570816	46	5804
2026-01-01 22:04:27.79	346.39	12.32	-36.5	-37.5	22.7	0.00e+00	121	40	0	1828716544	46	5897
2026-01-01 22:04:28.77	346.27	12.25	-36.2	-37.2	23.0	0.00e+00	123	40	0	1831862272	46	5706
2026-01-01 22:04:29.74	346.15	12.18	-36.1	-37.1	23.0	0.00e+00	123	40	0	1835008000	46	5621
2026-01-01 22:04:30.71	346.03	12.11	-36.3	-37.2	22.9	0.00e+00	123	40	0	1838153728	46	5720
2026-01-01 22:04:31.69	345.91	12.04	-36.6	-37.6	22.7	0.00e+00	123	40	0	1840250880	46	5943
2026-01-01 22:04:32.67	345.79	11.97	-36.7	-37.7	22.6	0.00e+00	122	40	0	1843396608	46	6043
2026-01-01 22:04:33.65	345.67	11.90	-36.7	-37.7	22.6	0.00e+00	121	40	0	1846542336	46	6002
2026-01-01 22:04:34.62	345.56	11.83	-36.6	-37.6	22.7	0.00e+00	122	40	0	1849688064	46	5982
2026-01-01 22:04:35.60	345.44	11.76	-36.7	-37.7	22.6	0.00e+00	120	40	0	1852833792	46	6026
2026-01-01 22:04:36.58	345.32	11.69	-36.8	-37.8	22.5	0.00e+00	121	40	0	1855979520	46	6131
2026-01-01 22:04:37.55	345.21	11.62	-36.9	-37.9	22.4	0.00e+00	119	40	0	1859125248	46	6197
2026-01-01 22:04:38.53	345.09	11.55	-36.8	-37.9	22.4	0.00e+00	124	40	0	1862270976	46	6147
2026-01-01 22:04:39.51	344.97	11.48	-36.9	-37.9	22.4	0.00e+00	123	40	0	1865416704	46	6180
2026-01-01 22:04:40.49	344.86	11.41	-36.6	-37.6	22.5	0.00e+00	123	40	0	1868562432	46	5976
2026-01-01 22:04:41.47	344.74	11.34	-36.5	-37.5	22.6	0.00e+00	121	40	0	1871708160	46	5903
2026-01-01 22:04:42.44	344.63	11.27	-36.4	-37.4	22.6	0.00e+00	123	40	0	1873805312	46	5832
2026-01-01 22:04:43.42	344.52	11.20	-36.2	-37.1	22.8	0.00e+00	123	40	0	1876951040	46	5658
2026-01-01 22:04:44.40	344.40	11.13	-36.1	-37.1	22.9	0.00e+00	125	40	0	1880096768	46	5618
2026-01-01 22:04:45.38	344.29	11.06	-35.9	-36.9	23.2	0.00e+00	123	40	0	1883242496	46	5475
2026-01-01 22:04:46.35	344.18	10.99	-35.9	-36.8	23.1	0.00e+00	121	40	0	1886388224	46	5456
2026-01-01 22:04:47.33	344.07	10.92	-35.8	-36.7	23.2	0.00e+00	120	40	0	1889533952	46	5398
