passes_logs/2026/01/01/R4.6S_Anadyr/R4.6S_Anadyr__20260101_115636_NOAA_21_JPSS-2_rec.log

#Pass ID: 20260101_115636_NOAA 21 (JPSS-2)
#Satellite: NOAA 21 (JPSS-2)
#Configuration: NOAA-21
#almurnet v.1.7.20251203
#Start time: 2026-01-01 11:56:38

#Version: 2.2.20231116
#Station: R4.6S_Anadyr
#Location: 177.4865 lon 64.73178 lat
#TLE: 1 54234U 22150A   25364.85835894  .00000203  00000+0  11731-3 0  9998
#TLE: 2 54234  98.7482 300.9425 0001352 357.8195   2.2975 14.19530071162667

#Time	Az	El	Level	Level2	SNR	BER	BlckErr	Temp	State	Recorded	gain1	gain2
2026-01-01 11:56:38.31	19.75	0.09	-49.3	-61.0	3.5	8.45e-01	0	35	0	0	60	40399
2026-01-01 11:56:39.32	19.83	0.13	-49.2	-62.1	3.5	1.52e+00	0	36	104	0	60	44544
2026-01-01 11:56:40.33	19.92	0.18	-49.2	-62.1	3.5	1.52e+00	0	36	104	0	60	44866
2026-01-01 11:56:41.33	20.01	0.22	-49.2	-62.1	3.5	1.52e+00	0	36	104	0	60	44788
2026-01-01 11:56:42.35	20.09	0.27	-49.2	-62.1	3.5	1.52e+00	0	37	104	0	60	44799
2026-01-01 11:56:43.36	20.18	0.31	-49.3	-62.1	3.6	1.52e+00	0	37	104	0	60	44926
2026-01-01 11:56:44.37	20.27	0.36	-49.3	-62.1	3.5	1.52e+00	0	36	104	0	60	44729
2026-01-01 11:56:45.38	20.36	0.40	-49.3	-62.1	3.5	1.52e+00	0	37	104	0	60	44777
2026-01-01 11:56:46.39	20.45	0.45	-49.3	-62.1	3.5	1.52e+00	0	37	104	0	60	44860
2026-01-01 11:56:47.40	20.53	0.49	-49.2	-62.1	3.5	1.52e+00	0	37	104	0	60	44594
2026-01-01 11:56:48.41	20.62	0.54	-49.1	-62.0	3.5	1.52e+00	0	37	104	0	60	43979
2026-01-01 11:56:49.42	20.71	0.58	-49.0	-61.9	3.5	1.51e+00	0	37	104	0	60	43554
2026-01-01 11:56:50.43	20.80	0.63	-48.9	-61.8	3.5	1.51e+00	0	37	104	0	60	42998
2026-01-01 11:56:51.44	20.89	0.67	-48.7	-61.6	3.5	1.52e+00	0	37	104	0	60	42382
2026-01-01 11:56:52.45	20.98	0.72	-48.6	-61.4	3.5	1.52e+00	0	37	104	0	60	41457
2026-01-01 11:56:53.46	21.07	0.76	-48.4	-61.2	3.5	1.52e+00	0	37	104	0	60	40382
2026-01-01 11:56:54.47	21.16	0.81	-48.1	-60.9	3.5	1.52e+00	0	37	104	0	60	38778
2026-01-01 11:56:55.47	21.25	0.85	-47.7	-60.5	3.5	1.52e+00	0	37	104	0	60	37285
2026-01-01 11:56:56.48	21.34	0.90	-47.7	-60.5	3.5	1.52e+00	0	37	104	0	60	37068
2026-01-01 11:56:57.50	21.43	0.94	-47.7	-60.5	3.5	1.52e+00	0	37	104	0	60	37203
2026-01-01 11:56:58.50	21.52	0.99	-47.7	-60.5	3.5	1.52e+00	0	37	104	0	60	37007
2026-01-01 11:56:59.51	21.61	1.03	-47.7	-60.5	3.5	1.52e+00	0	37	104	0	60	37017
2026-01-01 11:57:00.52	21.71	1.08	-47.7	-60.5	3.5	1.51e+00	0	37	104	0	60	37231
2026-01-01 11:57:01.53	21.80	1.12	-47.7	-60.5	3.5	1.52e+00	0	37	104	0	60	37041
2026-01-01 11:57:02.54	21.89	1.17	-47.7	-60.4	3.5	1.52e+00	0	37	104	0	60	36754
2026-01-01 11:57:03.55	21.98	1.21	-47.7	-60.4	3.5	1.51e+00	0	37	104	0	60	36744
2026-01-01 11:57:04.56	22.08	1.26	-47.7	-60.4	3.5	1.52e+00	0	37	104	0	60	36929
2026-01-01 11:57:05.57	22.17	1.30	-47.7	-60.5	3.5	1.52e+00	0	37	104	0	60	36994
2026-01-01 11:57:06.58	22.26	1.35	-47.7	-60.5	3.5	1.52e+00	0	37	104	0	60	37017
2026-01-01 11:57:07.59	22.36	1.39	-47.7	-60.4	3.5	1.52e+00	0	37	104	0	60	36890
2026-01-01 11:57:08.60	22.45	1.44	-47.7	-60.4	3.5	1.52e+00	0	37	104	0	60	36829
2026-01-01 11:57:09.61	22.54	1.48	-47.7	-60.4	3.5	1.52e+00	0	37	104	0	60	36755
2026-01-01 11:57:10.62	22.64	1.53	-47.7	-60.4	3.5	1.52e+00	0	37	104	0	60	36901
2026-01-01 11:57:11.63	22.73	1.57	-47.7	-60.5	3.5	1.52e+00	0	37	104	0	60	37157
2026-01-01 11:57:12.64	22.83	1.62	-47.7	-60.5	3.5	1.52e+00	0	37	104	0	60	37055
2026-01-01 11:57:13.65	22.92	1.66	-47.7	-60.5	3.5	1.52e+00	0	37	104	0	60	37058
2026-01-01 11:57:14.66	23.02	1.71	-47.7	-60.5	3.5	1.51e+00	0	37	104	0	60	37179
2026-01-01 11:57:15.67	23.11	1.75	-47.7	-60.5	3.5	1.52e+00	0	37	104	0	60	37113
2026-01-01 11:57:16.68	23.21	1.80	-47.7	-60.5	3.5	1.52e+00	0	37	104	0	60	36990
2026-01-01 11:57:17.69	23.31	1.84	-47.7	-60.5	3.5	1.52e+00	0	37	104	0	60	37080
2026-01-01 11:57:18.70	23.40	1.89	-47.7	-60.5	3.5	1.52e+00	0	37	104	0	60	37171
2026-01-01 11:57:19.71	23.50	1.94	-47.7	-60.5	3.5	1.52e+00	0	37	104	0	60	37074
2026-01-01 11:57:20.72	23.60	1.98	-47.7	-60.5	3.5	1.52e+00	0	37	104	0	60	37025
2026-01-01 11:57:21.73	23.70	2.03	-47.7	-60.4	3.5	1.52e+00	0	37	104	0	60	36780
2026-01-01 11:57:22.74	23.79	2.07	-47.6	-60.4	3.5	1.52e+00	0	37	104	0	60	36644
2026-01-01 11:57:23.75	23.89	2.12	-47.7	-60.5	3.5	1.51e+00	0	37	104	0	60	36987
2026-01-01 11:57:24.76	23.99	2.16	-47.7	-60.5	3.5	1.52e+00	0	37	104	0	60	37068
2026-01-01 11:57:25.77	24.09	2.21	-47.7	-60.4	3.5	1.52e+00	0	37	104	0	60	36844
2026-01-01 11:57:26.78	24.19	2.25	-47.7	-60.4	3.5	1.52e+00	0	37	104	0	60	36766
2026-01-01 11:57:27.79	24.29	2.30	-47.7	-60.4	3.5	1.52e+00	0	37	104	0	60	36673
2026-01-01 11:57:28.80	24.39	2.34	-47.7	-60.5	3.5	1.52e+00	0	37	104	0	60	37127
2026-01-01 11:57:29.81	24.49	2.39	-47.7	-60.3	3.5	1.52e+00	0	37	104	0	60	36379
2026-01-01 11:57:30.81	24.58	2.43	-47.6	-59.7	3.5	1.52e+00	0	37	104	0	60	33746
2026-01-01 11:57:31.83	24.69	2.48	-47.5	-59.0	3.5	1.51e+00	0	37	104	0	60	31366
2026-01-01 11:57:32.84	24.79	2.53	-47.5	-58.9	3.6	1.51e+00	0	37	104	0	60	30883
2026-01-01 11:57:33.85	24.89	2.57	-47.5	-58.2	3.5	1.51e+00	0	37	104	0	60	28518
2026-01-01 11:57:34.86	24.99	2.62	-46.8	-53.1	6.1	7.37e-01	122	37	0	0	60	15900
2026-01-01 11:57:35.87	25.09	2.66	-44.8	-48.2	11.3	9.65e-03	123	37	0	3145728	60	9016
2026-01-01 11:57:36.88	25.19	2.71	-42.9	-45.1	14.9	8.30e-06	121	37	0	6291456	60	6303
2026-01-01 11:57:37.89	25.29	2.75	-41.4	-43.2	16.7	0.00e+00	123	37	0	9437184	56	6352
2026-01-01 11:57:38.90	25.40	2.80	-40.2	-41.7	18.1	0.00e+00	123	37	0	12582912	54	5998
2026-01-01 11:57:39.91	25.50	2.84	-39.7	-41.2	18.4	0.00e+00	123	37	0	15728640	52	6353
2026-01-01 11:57:40.92	25.60	2.89	-40.0	-41.5	18.2	0.00e+00	122	37	0	18874368	52	6619
2026-01-01 11:57:41.93	25.71	2.93	-40.9	-42.6	17.0	0.00e+00	122	37	0	22020096	54	6663
2026-01-01 11:57:42.93	25.81	2.98	-42.6	-44.7	14.7	0.00e+00	120	37	0	25165824	56	7617
2026-01-01 11:57:43.95	25.91	3.03	-44.5	-47.6	11.7	7.17e-05	123	37	0	28311552	60	8381
2026-01-01 11:57:44.96	26.02	3.07	-47.8	-58.7	3.8	1.51e+00	0	37	104	30408704	60	30315
2026-01-01 11:57:45.97	26.12	3.12	-47.5	-59.5	3.5	9.88e-01	0	37	104	30408704	60	33296
2026-01-01 11:57:46.97	26.23	3.16	-46.8	-53.5	6.4	1.43e+00	16	37	104	30408704	60	16619
2026-01-01 11:57:47.98	26.33	3.21	-40.4	-41.8	18.0	0.00e+00	122	37	0	30408704	54	6124
2026-01-01 11:57:48.99	26.44	3.25	-47.6	-58.6	3.5	9.13e-01	0	37	104	32505856	60	29786
2026-01-01 11:57:50.00	26.54	3.30	-40.3	-41.8	18.1	0.00e+00	122	38	0	32505856	54	6066
2026-01-01 11:57:51.01	26.65	3.34	-40.2	-41.7	18.1	0.00e+00	123	38	0	35651584	54	6024
2026-01-01 11:57:52.02	26.76	3.39	-40.3	-41.8	18.1	0.00e+00	120	38	0	38797312	54	6098
2026-01-01 11:57:53.03	26.86	3.43	-40.3	-41.8	18.1	0.00e+00	122	38	0	41943040	54	6092
2026-01-01 11:57:54.04	26.97	3.48	-40.5	-42.0	17.9	0.00e+00	123	38	0	45088768	54	6235
2026-01-01 11:57:55.05	27.08	3.52	-40.2	-41.7	18.4	0.00e+00	122	37	0	48234496	54	6026
2026-01-01 11:57:56.06	27.18	3.57	-40.5	-42.0	17.6	0.00e+00	123	37	0	51380224	54	6226
2026-01-01 11:57:57.07	27.29	3.62	-41.0	-42.6	17.7	0.00e+00	122	38	0	54525952	54	6691
2026-01-01 11:57:58.08	27.40	3.66	-39.3	-40.6	19.0	0.00e+00	122	38	0	57671680	52	5983
2026-01-01 11:57:59.09	27.51	3.71	-39.9	-41.3	18.3	0.00e+00	123	38	0	60817408	52	6464
2026-01-01 11:58:00.10	27.62	3.75	-40.3	-41.8	18.6	0.00e+00	123	38	0	63963136	52	6851
2026-01-01 11:58:01.11	27.73	3.80	-40.2	-41.6	18.1	0.00e+00	123	38	0	67108864	52	6679
2026-01-01 11:58:02.12	27.84	3.84	-39.9	-41.3	18.5	0.00e+00	122	37	0	70254592	52	6476
2026-01-01 11:58:03.13	27.95	3.89	-39.9	-41.3	18.5	0.00e+00	121	38	0	74448896	52	6469
2026-01-01 11:58:04.14	28.06	3.93	-40.0	-41.4	18.2	0.00e+00	123	37	0	77594624	52	6518
2026-01-01 11:58:05.15	28.17	3.98	-40.7	-42.3	18.1	0.00e+00	123	38	0	79691776	52	7244
2026-01-01 11:58:06.16	28.28	4.02	-40.4	-41.9	17.4	0.00e+00	123	38	0	82837504	54	6199
2026-01-01 11:58:07.17	28.39	4.07	-40.7	-42.2	18.5	0.00e+00	123	38	0	85983232	54	6370
2026-01-01 11:58:08.18	28.50	4.11	-40.4	-41.9	17.7	0.00e+00	123	38	0	90177536	54	6182
2026-01-01 11:58:09.19	28.61	4.16	-39.5	-40.9	19.2	0.00e+00	123	38	0	93323264	52	6152
2026-01-01 11:58:10.20	28.73	4.21	-39.3	-40.6	19.3	0.00e+00	122	38	0	96468992	52	5945
2026-01-01 11:58:11.20	28.84	4.25	-39.6	-41.0	19.1	0.00e+00	123	38	0	99614720	52	6218
2026-01-01 11:58:12.21	28.95	4.30	-39.4	-40.6	19.5	0.00e+00	122	38	0	101711872	52	5992
2026-01-01 11:58:13.22	29.06	4.34	-39.5	-40.9	19.0	0.00e+00	122	38	0	105906176	52	6137
2026-01-01 11:58:14.23	29.18	4.39	-39.9	-41.3	19.2	0.00e+00	122	38	0	109051904	52	6441
2026-01-01 11:58:15.25	29.29	4.43	-39.2	-40.4	19.4	0.00e+00	123	38	0	112197632	52	5851
2026-01-01 11:58:16.26	29.41	4.48	-39.9	-41.3	18.9	0.00e+00	122	38	0	115343360	52	6487
2026-01-01 11:58:17.26	29.52	4.52	-40.2	-41.6	18.9	0.00e+00	122	38	0	118489088	52	6664
2026-01-01 11:58:18.28	29.64	4.57	-39.6	-40.9	18.9	0.00e+00	123	38	0	121634816	52	6179
2026-01-01 11:58:19.28	29.75	4.61	-39.9	-41.2	18.8	0.00e+00	120	38	0	124780544	52	6409
2026-01-01 11:58:20.30	29.87	4.66	-39.7	-41.1	18.8	0.00e+00	122	38	0	127926272	52	6299
2026-01-01 11:58:21.31	29.98	4.70	-40.0	-41.3	19.2	0.00e+00	123	38	0	131072000	52	6494
2026-01-01 11:58:22.32	30.10	4.75	-39.5	-40.8	19.0	0.00e+00	123	38	0	134217728	52	6108
2026-01-01 11:58:23.33	30.22	4.79	-39.8	-41.1	19.2	0.00e+00	120	38	0	137363456	52	6312
2026-01-01 11:58:24.34	30.33	4.84	-39.4	-40.7	19.3	0.00e+00	121	38	0	140509184	52	6009
2026-01-01 11:58:25.35	30.45	4.88	-39.2	-40.4	19.6	0.00e+00	123	38	0	143654912	52	5854
2026-01-01 11:58:26.36	30.57	4.93	-38.7	-39.9	20.1	0.00e+00	123	38	0	146800640	52	5514
2026-01-01 11:58:27.37	30.69	4.97	-38.8	-40.1	19.9	0.00e+00	124	38	0	149946368	50	6298
2026-01-01 11:58:28.38	30.80	5.02	-38.7	-39.9	20.2	0.00e+00	123	38	0	153092096	50	6175
2026-01-01 11:58:29.39	30.92	5.06	-38.5	-39.6	20.4	0.00e+00	121	38	0	156237824	50	5984
2026-01-01 11:58:30.40	31.04	5.11	-38.5	-39.7	20.3	0.00e+00	123	38	0	159383552	50	6026
2026-01-01 11:58:31.41	31.16	5.15	-38.4	-39.6	20.4	0.00e+00	122	38	0	162529280	50	5983
2026-01-01 11:58:32.42	31.28	5.20	-38.5	-39.7	20.3	0.00e+00	122	38	0	165675008	50	6034
2026-01-01 11:58:33.43	31.40	5.24	-38.5	-39.7	20.4	0.00e+00	122	38	0	168820736	50	6017
2026-01-01 11:58:34.44	31.52	5.29	-38.5	-39.7	20.3	0.00e+00	120	38	0	171966464	50	6050
2026-01-01 11:58:35.45	31.64	5.33	-38.4	-39.5	20.5	0.00e+00	120	38	0	175112192	50	5915
2026-01-01 11:58:36.46	31.76	5.38	-38.5	-39.7	20.4	0.00e+00	123	38	0	178257920	50	6039
2026-01-01 11:58:37.47	31.88	5.42	-38.4	-39.6	20.5	0.00e+00	122	38	0	181403648	50	5939
2026-01-01 11:58:38.48	32.01	5.47	-38.4	-39.5	20.5	0.00e+00	120	38	0	184549376	50	5914
2026-01-01 11:58:39.49	32.13	5.51	-38.5	-39.6	20.5	0.00e+00	123	38	0	187695104	50	5981
2026-01-01 11:58:40.50	32.25	5.56	-38.4	-39.5	20.5	0.00e+00	123	38	0	190840832	50	5908
2026-01-01 11:58:41.51	32.37	5.60	-38.2	-39.4	20.6	0.00e+00	122	38	0	193986560	50	5829
2026-01-01 11:58:42.52	32.50	5.65	-38.2	-39.3	20.7	0.00e+00	123	38	0	197132288	50	5771
2026-01-01 11:58:43.53	32.62	5.69	-38.1	-39.2	20.8	0.00e+00	123	38	0	200278016	50	5697
2026-01-01 11:58:44.54	32.74	5.74	-38.1	-39.2	20.8	0.00e+00	122	38	0	203423744	50	5717
2026-01-01 11:58:45.54	32.87	5.78	-38.3	-39.4	20.7	0.00e+00	123	38	0	206569472	50	5855
2026-01-01 11:58:46.55	32.99	5.82	-38.2	-39.4	20.7	0.00e+00	120	38	0	209715200	50	5801
2026-01-01 11:58:47.56	33.12	5.87	-38.1	-39.2	20.8	0.00e+00	122	38	0	212860928	50	5699
2026-01-01 11:58:48.57	33.24	5.91	-38.1	-39.3	20.9	0.00e+00	120	38	0	216006656	50	5728
2026-01-01 11:58:49.58	33.37	5.96	-37.9	-39.1	21.0	0.00e+00	123	38	0	219152384	50	5597
2026-01-01 11:58:50.59	33.50	6.00	-38.0	-39.1	21.0	0.00e+00	121	38	0	222298112	50	5638
2026-01-01 11:58:51.60	33.62	6.05	-38.0	-39.1	20.9	0.00e+00	122	38	0	225443840	50	5648
2026-01-01 11:58:52.61	33.75	6.09	-37.8	-38.9	21.0	0.00e+00	123	38	0	228589568	50	5530
2026-01-01 11:58:53.62	33.88	6.14	-38.1	-39.3	20.8	0.00e+00	123	38	0	231735296	50	5732
2026-01-01 11:58:54.63	34.00	6.18	-38.0	-39.2	20.9	0.00e+00	123	38	0	234881024	50	5672
2026-01-01 11:58:55.64	34.13	6.22	-38.0	-39.1	21.0	0.00e+00	122	38	0	238026752	50	5624
2026-01-01 11:58:56.65	34.26	6.27	-38.1	-39.2	20.9	0.00e+00	122	38	0	241172480	50	5698
2026-01-01 11:58:57.66	34.39	6.31	-38.0	-39.1	21.0	0.00e+00	123	38	0	244318208	50	5637
2026-01-01 11:58:58.67	34.52	6.36	-38.0	-39.1	20.9	0.00e+00	123	38	0	247463936	50	5609
2026-01-01 11:58:59.68	34.65	6.40	-38.1	-39.2	20.7	0.00e+00	123	38	0	250609664	50	5702
2026-01-01 11:59:00.69	34.78	6.44	-38.0	-39.1	21.0	0.00e+00	122	38	0	253755392	50	5638
2026-01-01 11:59:01.70	34.91	6.49	-37.9	-39.1	21.1	0.00e+00	123	38	0	256901120	50	5595
2026-01-01 11:59:02.71	35.04	6.53	-37.7	-38.8	21.2	0.00e+00	120	38	0	260046848	50	5451
2026-01-01 11:59:03.72	35.17	6.58	-37.8	-39.0	21.0	0.00e+00	123	38	0	263192576	48	6212
2026-01-01 11:59:04.73	35.30	6.62	-38.0	-39.1	21.1	0.00e+00	122	38	0	266338304	48	6294
2026-01-01 11:59:05.74	35.43	6.66	-37.7	-38.8	21.2	0.00e+00	122	38	0	269484032	48	6126
2026-01-01 11:59:06.75	35.57	6.71	-37.7	-38.8	21.3	0.00e+00	120	38	0	272629760	48	6103
2026-01-01 11:59:07.76	35.70	6.75	-37.7	-38.8	21.2	0.00e+00	122	38	0	275775488	48	6067
2026-01-01 11:59:08.77	35.83	6.79	-37.6	-38.8	21.4	0.00e+00	123	38	0	278921216	48	6068
2026-01-01 11:59:09.78	35.96	6.84	-37.7	-38.8	21.3	0.00e+00	120	38	0	282066944	48	6119
2026-01-01 11:59:10.79	36.10	6.88	-37.5	-38.6	21.5	0.00e+00	122	38	0	285212672	48	5939
2026-01-01 11:59:11.80	36.23	6.92	-37.5	-38.5	21.6	0.00e+00	123	38	0	288358400	48	5903
2026-01-01 11:59:12.81	36.37	6.97	-37.3	-38.4	21.7	0.00e+00	122	38	0	291504128	48	5807
2026-01-01 11:59:13.82	36.50	7.01	-37.5	-38.5	21.5	0.00e+00	120	38	0	294649856	48	5908
2026-01-01 11:59:14.83	36.64	7.05	-37.5	-38.6	21.5	0.00e+00	122	38	0	297795584	48	5931
2026-01-01 11:59:15.84	36.77	7.10	-37.5	-38.5	21.6	0.00e+00	120	38	0	300941312	48	5915
2026-01-01 11:59:16.85	36.91	7.14	-37.5	-38.5	21.5	0.00e+00	122	38	0	304087040	48	5926
2026-01-01 11:59:17.86	37.05	7.18	-37.5	-38.6	21.5	0.00e+00	120	38	0	307232768	48	5965
2026-01-01 11:59:18.87	37.18	7.23	-37.6	-38.6	21.4	0.00e+00	122	38	0	310378496	48	5969
2026-01-01 11:59:19.88	37.32	7.27	-37.8	-38.9	21.3	0.00e+00	123	38	0	313524224	48	6182
2026-01-01 11:59:20.89	37.46	7.31	-37.6	-38.7	21.4	0.00e+00	122	38	0	316669952	48	6003
2026-01-01 11:59:21.90	37.60	7.35	-37.7	-38.8	21.4	0.00e+00	123	38	0	319815680	48	6085
2026-01-01 11:59:22.91	37.73	7.40	-37.3	-38.4	21.6	0.00e+00	123	38	0	322961408	48	5819
2026-01-01 11:59:23.92	37.87	7.44	-37.4	-38.5	21.6	0.00e+00	122	38	0	326107136	48	5897
2026-01-01 11:59:24.93	38.01	7.48	-37.3	-38.4	21.7	0.00e+00	121	38	0	329252864	48	5828
2026-01-01 11:59:25.94	38.15	7.52	-37.4	-38.5	21.6	0.00e+00	123	38	0	332398592	48	5878
2026-01-01 11:59:26.95	38.29	7.57	-37.3	-38.4	21.7	0.00e+00	123	38	0	335544320	48	5799
2026-01-01 11:59:27.96	38.43	7.61	-37.4	-38.4	21.6	0.00e+00	123	38	0	338690048	48	5841
2026-01-01 11:59:28.97	38.57	7.65	-37.5	-38.6	21.5	0.00e+00	120	38	0	341835776	48	5973
2026-01-01 11:59:29.98	38.71	7.69	-37.5	-38.6	21.5	0.00e+00	123	38	0	344981504	48	5951
2026-01-01 11:59:30.99	38.86	7.74	-37.4	-38.5	21.6	0.00e+00	122	38	0	348127232	48	5885
2026-01-01 11:59:32.00	39.00	7.78	-37.3	-38.4	21.7	0.00e+00	123	38	0	351272960	48	5808
2026-01-01 11:59:33.01	39.14	7.82	-37.3	-38.3	21.8	0.00e+00	123	38	0	354418688	48	5769
2026-01-01 11:59:34.02	39.28	7.86	-37.4	-38.5	21.7	0.00e+00	122	38	0	357564416	48	5877
2026-01-01 11:59:35.03	39.43	7.90	-37.5	-38.5	21.6	0.00e+00	123	38	0	360710144	48	5917
2026-01-01 11:59:36.04	39.57	7.95	-37.5	-38.5	21.7	0.00e+00	122	38	0	363855872	48	5918
2026-01-01 11:59:37.05	39.71	7.99	-37.5	-38.6	21.6	0.00e+00	123	38	0	367001600	48	5932
2026-01-01 11:59:38.06	39.86	8.03	-37.4	-38.4	21.8	0.00e+00	120	38	0	370147328	48	5851
2026-01-01 11:59:39.07	40.00	8.07	-37.3	-38.4	21.8	0.00e+00	123	38	0	373293056	48	5823
2026-01-01 11:59:40.08	40.15	8.11	-37.3	-38.4	21.8	0.00e+00	122	38	0	376438784	48	5823
2026-01-01 11:59:41.09	40.29	8.15	-37.1	-38.2	21.9	0.00e+00	121	38	0	379584512	48	5685
2026-01-01 11:59:42.10	40.44	8.19	-37.3	-38.3	21.9	0.00e+00	123	38	0	382730240	48	5754
2026-01-01 11:59:43.11	40.58	8.24	-37.4	-38.4	21.7	0.00e+00	124	38	0	385875968	48	5833
2026-01-01 11:59:44.12	40.73	8.28	-37.2	-38.3	21.9	0.00e+00	123	38	0	389021696	48	5742
2026-01-01 11:59:45.13	40.88	8.32	-37.2	-38.2	21.9	0.00e+00	122	38	0	393216000	48	5712
2026-01-01 11:59:46.14	41.03	8.36	-37.2	-38.2	21.9	0.00e+00	121	38	0	395313152	48	5688
2026-01-01 11:59:47.15	41.17	8.40	-37.1	-38.2	21.9	0.00e+00	123	38	0	398458880	48	5675
2026-01-01 11:59:48.16	41.32	8.44	-37.2	-38.2	22.0	0.00e+00	120	38	0	401604608	48	5692
2026-01-01 11:59:49.17	41.47	8.48	-37.1	-38.1	22.0	0.00e+00	122	38	0	404750336	48	5623
2026-01-01 11:59:50.17	41.62	8.52	-37.2	-38.2	21.9	0.00e+00	122	38	0	408944640	48	5711
2026-01-01 11:59:51.18	41.77	8.56	-37.1	-38.1	22.0	0.00e+00	123	38	0	412090368	48	5628
2026-01-01 11:59:52.20	41.92	8.60	-37.1	-38.1	22.1	0.00e+00	122	38	0	415236096	48	5645
2026-01-01 11:59:53.21	42.07	8.64	-37.0	-38.0	22.1	0.00e+00	122	38	0	417333248	48	5568
2026-01-01 11:59:54.21	42.22	8.68	-37.1	-38.2	22.0	0.00e+00	120	38	0	420478976	48	5680
2026-01-01 11:59:55.22	42.37	8.72	-37.1	-38.1	22.1	0.00e+00	123	38	0	424673280	48	5658
2026-01-01 11:59:56.24	42.52	8.76	-36.9	-38.0	22.2	0.00e+00	123	38	0	427819008	48	5537
2026-01-01 11:59:57.25	42.67	8.80	-37.0	-38.0	22.1	0.00e+00	121	38	0	430964736	48	5587
2026-01-01 11:59:58.26	42.83	8.84	-37.2	-38.2	22.0	0.00e+00	123	38	0	434110464	48	5691
2026-01-01 11:59:59.27	42.98	8.88	-37.2	-38.2	22.0	0.00e+00	120	38	0	437256192	48	5709
2026-01-01 12:00:00.28	43.13	8.92	-37.0	-38.1	22.1	0.00e+00	123	38	0	440401920	48	5605
2026-01-01 12:00:01.29	43.29	8.96	-37.0	-38.0	22.2	0.00e+00	123	38	0	443547648	48	5554
2026-01-01 12:00:02.30	43.44	9.00	-36.8	-37.9	22.3	0.00e+00	123	38	0	446693376	48	5471
2026-01-01 12:00:03.31	43.59	9.04	-36.9	-37.9	22.3	0.00e+00	120	38	0	449839104	48	5475
2026-01-01 12:00:04.32	43.75	9.08	-36.7	-37.7	22.5	0.00e+00	123	38	0	452984832	46	6025
2026-01-01 12:00:05.33	43.90	9.11	-36.8	-37.7	22.4	0.00e+00	122	38	0	456130560	46	6064
2026-01-01 12:00:06.34	44.06	9.15	-36.9	-37.9	22.3	0.00e+00	123	38	0	459276288	46	6186
2026-01-01 12:00:07.35	44.22	9.19	-36.8	-37.8	22.4	0.00e+00	120	38	0	462422016	46	6069
2026-01-01 12:00:08.36	44.37	9.23	-36.9	-37.9	22.3	0.00e+00	122	38	0	465567744	46	6168
2026-01-01 12:00:09.37	44.53	9.27	-36.8	-37.8	22.4	0.00e+00	120	38	0	468713472	46	6119
2026-01-01 12:00:10.38	44.69	9.31	-36.8	-37.8	22.4	0.00e+00	123	38	0	471859200	46	6085
2026-01-01 12:00:11.39	44.84	9.35	-36.8	-37.9	22.3	0.00e+00	123	38	0	475004928	46	6137
2026-01-01 12:00:12.40	45.00	9.38	-36.9	-37.9	22.3	0.00e+00	122	38	0	478150656	46	6205
2026-01-01 12:00:13.41	45.16	9.42	-36.9	-37.9	22.2	0.00e+00	122	38	0	481296384	46	6194
2026-01-01 12:00:14.42	45.32	9.46	-36.9	-37.9	22.3	0.00e+00	123	38	0	484442112	46	6190
2026-01-01 12:00:15.43	45.48	9.50	-37.1	-38.1	22.2	0.00e+00	123	38	0	487587840	46	6307
2026-01-01 12:00:16.44	45.64	9.53	-37.2	-38.2	22.0	0.00e+00	122	38	0	490733568	46	6379
2026-01-01 12:00:17.44	45.80	9.57	-37.1	-38.2	22.1	0.00e+00	122	38	0	493879296	46	6360
2026-01-01 12:00:18.45	45.96	9.61	-37.3	-38.4	21.9	0.00e+00	123	38	0	497025024	46	6506
2026-01-01 12:00:19.46	46.12	9.64	-37.3	-38.3	22.0	0.00e+00	123	38	0	500170752	46	6468
2026-01-01 12:00:20.47	46.28	9.68	-37.3	-38.3	21.9	0.00e+00	122	38	0	503316480	46	6451
2026-01-01 12:00:21.48	46.44	9.72	-37.1	-38.1	22.2	0.00e+00	123	38	0	506462208	46	6293
2026-01-01 12:00:22.50	46.60	9.76	-37.0	-38.0	22.2	0.00e+00	122	38	0	509607936	46	6261
2026-01-01 12:00:23.50	46.76	9.79	-37.0	-38.0	22.3	0.00e+00	123	38	0	512753664	46	6246
2026-01-01 12:00:24.51	46.93	9.83	-37.0	-38.0	22.2	0.00e+00	122	38	0	515899392	46	6275
2026-01-01 12:00:25.52	47.09	9.86	-37.0	-38.0	22.2	0.00e+00	122	38	0	519045120	46	6252
2026-01-01 12:00:26.54	47.25	9.90	-36.8	-37.8	22.4	0.00e+00	123	38	0	522190848	46	6129
2026-01-01 12:00:27.55	47.42	9.94	-36.8	-37.8	22.4	0.00e+00	122	38	0	525336576	46	6086
2026-01-01 12:00:28.56	47.58	9.97	-36.9	-38.0	22.3	0.00e+00	123	38	0	528482304	46	6229
2026-01-01 12:00:29.56	47.74	10.01	-37.0	-38.1	22.2	0.00e+00	122	38	0	531628032	46	6279
2026-01-01 12:00:30.57	47.91	10.04	-36.9	-37.9	22.3	0.00e+00	123	38	0	534773760	46	6173
2026-01-01 12:00:31.58	48.08	10.08	-37.0	-38.0	22.2	0.00e+00	123	38	0	537919488	46	6240
2026-01-01 12:00:32.59	48.24	10.11	-36.9	-37.9	22.2	0.00e+00	123	38	0	541065216	46	6204
2026-01-01 12:00:33.60	48.41	10.15	-36.9	-37.9	22.3	0.00e+00	122	38	0	544210944	46	6176
2026-01-01 12:00:34.61	48.57	10.18	-36.9	-37.9	22.3	0.00e+00	122	38	0	547356672	46	6168
2026-01-01 12:00:35.62	48.74	10.22	-36.8	-37.8	22.4	0.00e+00	120	38	0	550502400	46	6134
2026-01-01 12:00:36.63	48.91	10.25	-36.8	-37.8	22.5	0.00e+00	123	38	0	553648128	46	6096
2026-01-01 12:00:37.64	49.08	10.29	-36.8	-37.8	22.4	0.00e+00	122	38	0	556793856	46	6133
2026-01-01 12:00:38.65	49.24	10.32	-36.8	-37.9	22.4	0.00e+00	123	38	0	559939584	46	6142
2026-01-01 12:00:39.66	49.41	10.35	-36.9	-37.9	22.3	0.00e+00	123	38	0	563085312	46	6205
2026-01-01 12:00:40.67	49.58	10.39	-36.8	-37.8	22.4	0.00e+00	123	38	0	566231040	46	6103
2026-01-01 12:00:41.68	49.75	10.42	-36.8	-37.8	22.4	0.00e+00	122	38	0	569376768	46	6095
2026-01-01 12:00:42.70	49.92	10.45	-37.0	-38.0	22.2	0.00e+00	123	38	0	572522496	46	6248
2026-01-01 12:00:43.70	50.09	10.49	-37.0	-38.0	22.2	0.00e+00	123	38	0	575668224	46	6234
2026-01-01 12:00:44.71	50.26	10.52	-37.1	-38.1	22.2	0.00e+00	123	38	0	578813952	46	6336
2026-01-01 12:00:45.72	50.43	10.55	-37.1	-38.2	22.0	0.00e+00	122	38	0	581959680	46	6362
2026-01-01 12:00:46.73	50.60	10.59	-37.3	-38.3	22.0	0.00e+00	122	38	0	585105408	46	6498
2026-01-01 12:00:47.74	50.77	10.62	-37.5	-38.5	21.9	0.00e+00	123	38	0	588251136	46	6640
2026-01-01 12:00:48.75	50.94	10.65	-37.4	-38.5	21.8	0.00e+00	123	38	0	591396864	46	6605
2026-01-01 12:00:49.76	51.12	10.68	-37.1	-38.1	22.1	0.00e+00	122	38	0	594542592	46	6319
2026-01-01 12:00:50.77	51.29	10.71	-37.1	-38.1	22.1	0.00e+00	123	38	0	597688320	46	6329
2026-01-01 12:00:51.78	51.46	10.75	-36.9	-37.9	22.3	0.00e+00	122	38	0	600834048	46	6195
2026-01-01 12:00:52.79	51.64	10.78	-37.1	-38.1	22.2	0.00e+00	122	38	0	603979776	46	6313
2026-01-01 12:00:53.80	51.81	10.81	-36.9	-37.9	22.4	0.00e+00	122	38	0	607125504	46	6192
2026-01-01 12:00:54.81	51.98	10.84	-36.8	-37.8	22.5	0.00e+00	123	38	0	610271232	46	6079
2026-01-01 12:00:55.82	52.16	10.87	-36.9	-37.9	22.3	0.00e+00	120	38	0	613416960	46	6159
2026-01-01 12:00:56.83	52.33	10.90	-37.0	-38.0	22.3	0.00e+00	123	38	0	616562688	46	6240
2026-01-01 12:00:57.84	52.51	10.93	-36.8	-37.8	22.4	0.00e+00	122	38	0	619708416	46	6082
2026-01-01 12:00:58.85	52.68	10.96	-36.9	-37.9	22.4	0.00e+00	122	38	0	622854144	46	6149
2026-01-01 12:00:59.86	52.86	10.99	-36.8	-37.8	22.5	0.00e+00	122	38	0	625999872	46	6100
2026-01-01 12:01:00.87	53.04	11.02	-36.7	-37.8	22.5	0.00e+00	120	38	0	629145600	46	6065
2026-01-01 12:01:01.88	53.21	11.05	-36.9	-37.9	22.4	0.00e+00	122	38	0	632291328	46	6160
2026-01-01 12:01:02.89	53.39	11.08	-36.8	-37.8	22.5	0.00e+00	122	38	0	635437056	46	6084
2026-01-01 12:01:03.90	53.57	11.11	-36.8	-37.8	22.5	0.00e+00	123	38	0	638582784	46	6109
2026-01-01 12:01:04.91	53.74	11.14	-36.7	-37.7	22.5	0.00e+00	122	38	0	641728512	46	6055
2026-01-01 12:01:05.92	53.92	11.17	-36.8	-37.7	22.5	0.00e+00	123	38	0	644874240	46	6063
2026-01-01 12:01:06.93	54.10	11.20	-36.9	-37.9	22.4	0.00e+00	123	38	0	648019968	46	6155
2026-01-01 12:01:07.95	54.28	11.23	-36.8	-37.8	22.4	0.00e+00	123	38	0	651165696	46	6117
2026-01-01 12:01:08.96	54.46	11.26	-36.9	-37.9	22.4	0.00e+00	123	38	0	654311424	46	6174
2026-01-01 12:01:09.97	54.64	11.29	-37.1	-38.1	22.2	0.00e+00	122	38	0	657457152	46	6313
2026-01-01 12:01:10.98	54.82	11.31	-37.0	-38.1	22.2	0.00e+00	120	38	0	660602880	46	6298
2026-01-01 12:01:11.98	55.00	11.34	-36.8	-37.8	22.4	0.00e+00	122	38	0	663748608	46	6095
2026-01-01 12:01:12.99	55.18	11.37	-36.8	-37.8	22.5	0.00e+00	123	38	0	666894336	46	6117
2026-01-01 12:01:14.00	55.36	11.40	-36.7	-37.7	22.5	0.00e+00	123	38	0	670040064	46	6012
2026-01-01 12:01:15.01	55.54	11.42	-36.6	-37.6	22.5	0.00e+00	122	38	0	673185792	46	5968
2026-01-01 12:01:16.02	55.72	11.45	-36.7	-37.7	22.6	0.00e+00	122	38	0	676331520	46	6014
2026-01-01 12:01:17.03	55.90	11.48	-36.5	-37.5	22.7	0.00e+00	123	38	0	679477248	46	5899
2026-01-01 12:01:18.04	56.08	11.50	-36.4	-37.4	22.7	0.00e+00	122	38	0	682622976	46	5835
2026-01-01 12:01:19.05	56.26	11.53	-36.6	-37.5	22.6	0.00e+00	123	38	0	685768704	46	5916
2026-01-01 12:01:20.06	56.45	11.55	-36.5	-37.5	22.7	0.00e+00	122	38	0	688914432	46	5902
2026-01-01 12:01:21.07	56.63	11.58	-36.6	-37.6	22.6	0.00e+00	123	38	0	692060160	46	5979
2026-01-01 12:01:22.08	56.81	11.61	-36.8	-37.8	22.4	0.00e+00	123	38	0	695205888	46	6126
2026-01-01 12:01:23.09	57.00	11.63	-36.8	-37.8	22.4	0.00e+00	122	38	0	698351616	46	6119
2026-01-01 12:01:24.10	57.18	11.66	-37.0	-38.0	22.3	0.00e+00	123	38	0	701497344	46	6229
2026-01-01 12:01:25.11	57.36	11.68	-36.9	-38.0	22.4	0.00e+00	123	38	0	704643072	46	6219
2026-01-01 12:01:26.12	57.55	11.71	-36.8	-37.8	22.4	0.00e+00	122	38	0	707788800	46	6127
2026-01-01 12:01:27.13	57.73	11.73	-36.8	-37.8	22.5	0.00e+00	123	38	0	710934528	46	6069
2026-01-01 12:01:28.14	57.92	11.75	-36.7	-37.8	22.6	0.00e+00	122	38	0	714080256	46	6071
2026-01-01 12:01:29.15	58.10	11.78	-36.5	-37.5	22.7	0.00e+00	122	38	0	717225984	46	5905
2026-01-01 12:01:30.16	58.29	11.80	-36.5	-37.5	22.6	0.00e+00	123	38	0	720371712	46	5895
2026-01-01 12:01:31.17	58.47	11.82	-36.4	-37.4	22.7	0.00e+00	123	38	0	723517440	46	5839
2026-01-01 12:01:32.18	58.66	11.85	-36.5	-37.5	22.7	0.00e+00	123	38	0	727711744	46	5884
2026-01-01 12:01:33.19	58.85	11.87	-36.7	-37.7	22.4	0.00e+00	123	38	0	730857472	46	6043
2026-01-01 12:01:34.20	59.03	11.89	-36.6	-37.6	22.5	0.00e+00	123	38	0	734003200	46	5965
2026-01-01 12:01:35.21	59.22	11.91	-36.6	-37.6	22.6	0.00e+00	122	38	0	736100352	46	5955
2026-01-01 12:01:36.22	59.41	11.94	-36.6	-37.7	22.5	0.00e+00	123	38	0	739246080	46	6003
2026-01-01 12:01:37.23	59.60	11.96	-36.6	-37.7	22.6	0.00e+00	123	38	0	743440384	46	5999
2026-01-01 12:01:38.24	59.78	11.98	-36.6	-37.6	22.7	0.00e+00	123	38	0	746586112	46	5974
2026-01-01 12:01:39.25	59.97	12.00	-36.5	-37.5	22.7	0.00e+00	122	38	0	749731840	46	5922
2026-01-01 12:01:40.26	60.16	12.02	-36.4	-37.4	22.8	0.00e+00	123	38	0	752877568	46	5840
2026-01-01 12:01:41.26	60.35	12.04	-36.5	-37.5	22.7	0.00e+00	123	38	0	756023296	46	5903
2026-01-01 12:01:42.27	60.54	12.06	-36.4	-37.4	22.8	0.00e+00	123	38	0	758120448	46	5829
2026-01-01 12:01:43.28	60.72	12.08	-36.6	-37.6	22.7	0.00e+00	120	38	0	762314752	46	5964
2026-01-01 12:01:44.29	60.91	12.10	-36.8	-37.8	22.4	0.00e+00	123	38	0	765460480	46	6094
2026-01-01 12:01:45.30	61.10	12.12	-36.8	-37.8	22.4	0.00e+00	123	38	0	768606208	46	6098
2026-01-01 12:01:46.31	61.29	12.14	-36.7	-37.7	22.5	0.00e+00	122	38	0	771751936	46	6052
2026-01-01 12:01:47.32	61.48	12.16	-36.8	-37.8	22.4	0.00e+00	123	38	0	774897664	46	6101
2026-01-01 12:01:48.33	61.67	12.18	-36.8	-37.9	22.3	0.00e+00	122	38	0	778043392	46	6159
2026-01-01 12:01:49.34	61.86	12.20	-36.7	-37.7	22.4	0.00e+00	123	38	0	781189120	46	6036
2026-01-01 12:01:50.35	62.05	12.22	-36.6	-37.6	22.6	0.00e+00	122	38	0	784334848	46	5962
2026-01-01 12:01:51.36	62.25	12.24	-36.7	-37.7	22.5	0.00e+00	122	38	0	787480576	46	5997
2026-01-01 12:01:52.37	62.44	12.25	-36.5	-37.5	22.7	0.00e+00	123	38	0	790626304	46	5911
2026-01-01 12:01:53.38	62.63	12.27	-36.6	-37.6	22.6	0.00e+00	122	38	0	793772032	46	5947
2026-01-01 12:01:54.39	62.82	12.29	-36.1	-37.1	23.0	0.00e+00	123	38	0	796917760	46	5608
2026-01-01 12:01:55.40	63.01	12.31	-36.1	-37.1	22.9	0.00e+00	123	38	0	800063488	46	5616
2026-01-01 12:01:56.41	63.20	12.32	-36.3	-37.3	22.8	0.00e+00	122	38	0	803209216	46	5763
2026-01-01 12:01:57.42	63.40	12.34	-36.4	-37.4	22.7	0.00e+00	122	38	0	806354944	46	5812
2026-01-01 12:01:58.43	63.59	12.35	-36.4	-37.4	22.8	0.00e+00	123	38	0	809500672	46	5803
2026-01-01 12:01:59.44	63.78	12.37	-36.5	-37.5	22.7	0.00e+00	123	38	0	812646400	46	5860
2026-01-01 12:02:00.45	63.98	12.39	-36.4	-37.4	22.7	0.00e+00	122	38	0	815792128	46	5838
2026-01-01 12:02:01.46	64.17	12.40	-36.5	-37.5	22.7	0.00e+00	122	38	0	818937856	46	5902
2026-01-01 12:02:02.47	64.36	12.42	-36.5	-37.5	22.7	0.00e+00	122	38	0	822083584	46	5902
2026-01-01 12:02:03.48	64.56	12.43	-36.5	-37.5	22.7	0.00e+00	122	38	0	825229312	46	5883
2026-01-01 12:02:04.49	64.75	12.45	-36.5	-37.5	22.7	0.00e+00	120	38	0	828375040	46	5869
2026-01-01 12:02:05.50	64.94	12.46	-36.4	-37.4	22.7	0.00e+00	122	38	0	831520768	46	5852
2026-01-01 12:02:06.50	65.14	12.47	-36.5	-37.5	22.6	0.00e+00	123	38	0	834666496	46	5891
2026-01-01 12:02:07.51	65.33	12.49	-36.6	-37.7	22.5	0.00e+00	123	38	0	837812224	46	6001
2026-01-01 12:02:08.52	65.52	12.50	-36.7	-37.8	22.3	0.00e+00	122	38	0	840957952	46	6081
2026-01-01 12:02:09.53	65.72	12.51	-36.8	-37.8	22.4	0.00e+00	122	38	0	844103680	46	6083
2026-01-01 12:02:10.54	65.91	12.53	-36.6	-37.6	22.5	0.00e+00	123	38	0	847249408	46	5935
2026-01-01 12:02:11.55	66.11	12.54	-36.6	-37.7	22.4	0.00e+00	123	38	0	850395136	46	6003
2026-01-01 12:02:12.56	66.30	12.55	-36.6	-37.6	22.6	0.00e+00	122	38	0	853540864	46	5937
2026-01-01 12:02:13.57	66.50	12.56	-36.4	-37.4	22.7	0.00e+00	122	38	0	856686592	46	5843
2026-01-01 12:02:14.58	66.69	12.57	-36.5	-37.6	22.7	0.00e+00	122	38	0	859832320	46	5930
2026-01-01 12:02:15.59	66.89	12.59	-36.5	-37.5	22.7	0.00e+00	123	38	0	862978048	46	5924
2026-01-01 12:02:16.60	67.09	12.60	-36.6	-37.6	22.6	0.00e+00	123	38	0	866123776	46	5969
2026-01-01 12:02:17.61	67.28	12.61	-36.6	-37.6	22.7	0.00e+00	122	38	0	869269504	46	5937
2026-01-01 12:02:18.62	67.48	12.62	-36.6	-37.6	22.5	0.00e+00	123	38	0	872415232	46	5974
2026-01-01 12:02:19.63	67.67	12.63	-36.7	-37.7	22.6	0.00e+00	122	38	0	875560960	46	6044
2026-01-01 12:02:20.64	67.87	12.64	-36.4	-37.4	22.8	0.00e+00	120	38	0	878706688	46	5856
2026-01-01 12:02:21.65	68.07	12.65	-36.3	-37.3	22.9	0.00e+00	120	38	0	881852416	46	5742
2026-01-01 12:02:22.66	68.26	12.66	-36.1	-37.1	23.0	0.00e+00	122	38	0	884998144	46	5651
2026-01-01 12:02:23.67	68.46	12.67	-36.2	-37.2	23.0	0.00e+00	122	38	0	888143872	46	5690
2026-01-01 12:02:24.68	68.66	12.67	-36.0	-37.0	23.1	0.00e+00	122	38	0	891289600	46	5539
2026-01-01 12:02:25.69	68.85	12.68	-36.0	-37.0	23.1	0.00e+00	122	38	0	894435328	46	5573
2026-01-01 12:02:26.70	69.05	12.69	-36.2	-37.2	23.0	0.00e+00	122	38	0	897581056	46	5681
2026-01-01 12:02:27.71	69.25	12.70	-36.1	-37.1	23.0	0.00e+00	120	38	0	900726784	46	5637
2026-01-01 12:02:28.72	69.45	12.71	-36.1	-37.1	23.0	0.00e+00	123	38	0	903872512	46	5629
2026-01-01 12:02:29.73	69.64	12.71	-36.3	-37.2	22.9	0.00e+00	120	38	0	907018240	46	5723
2026-01-01 12:02:30.74	69.84	12.72	-36.2	-37.2	23.0	0.00e+00	122	38	0	910163968	46	5677
2026-01-01 12:02:31.74	70.04	12.73	-36.5	-37.5	22.7	0.00e+00	120	38	0	913309696	46	5875
2026-01-01 12:02:32.75	70.23	12.73	-36.3	-37.3	22.8	0.00e+00	122	38	0	916455424	46	5779
2026-01-01 12:02:33.76	70.43	12.74	-36.5	-37.5	22.7	0.00e+00	122	38	0	919601152	46	5879
2026-01-01 12:02:34.77	70.63	12.74	-36.2	-37.3	22.8	0.00e+00	123	38	0	922746880	46	5727
2026-01-01 12:02:35.78	70.83	12.75	-36.3	-37.3	22.9	0.00e+00	123	38	0	925892608	46	5740
2026-01-01 12:02:36.79	71.02	12.75	-36.2	-37.2	22.9	0.00e+00	122	38	0	929038336	46	5682
2026-01-01 12:02:37.80	71.22	12.76	-36.3	-37.3	22.9	0.00e+00	122	38	0	932184064	46	5727
2026-01-01 12:02:38.81	71.42	12.76	-36.2	-37.2	22.9	0.00e+00	122	38	0	935329792	46	5682
2026-01-01 12:02:39.82	71.62	12.77	-36.1	-37.1	23.0	0.00e+00	123	38	0	938475520	46	5627
2026-01-01 12:02:40.83	71.82	12.77	-36.2	-37.2	23.0	0.00e+00	120	38	0	941621248	46	5663
2026-01-01 12:02:41.84	72.01	12.77	-36.1	-37.1	23.1	0.00e+00	123	38	0	944766976	46	5634
2026-01-01 12:02:42.85	72.21	12.78	-36.2	-37.2	23.1	0.00e+00	120	38	0	947912704	46	5687
2026-01-01 12:02:43.86	72.41	12.78	-36.0	-37.0	23.2	0.00e+00	123	38	0	951058432	46	5538
2026-01-01 12:02:44.87	72.61	12.78	-36.1	-37.0	23.2	0.00e+00	122	38	0	954204160	46	5587
2026-01-01 12:02:45.88	72.81	12.78	-36.0	-37.0	23.1	0.00e+00	123	38	0	957349888	46	5556
2026-01-01 12:02:46.89	73.01	12.78	-36.2	-37.1	23.0	0.00e+00	123	38	0	960495616	46	5641
2026-01-01 12:02:47.90	73.20	12.79	-36.1	-37.1	23.0	0.00e+00	122	38	0	963641344	46	5618
2026-01-01 12:02:48.91	73.40	12.79	-36.2	-37.2	23.0	0.00e+00	123	38	0	966787072	46	5685
2026-01-01 12:02:49.92	73.60	12.79	-36.2	-37.2	23.0	0.00e+00	123	38	0	969932800	46	5689
2026-01-01 12:02:50.93	73.80	12.79	-36.4	-37.3	22.9	0.00e+00	123	38	0	973078528	46	5779
2026-01-01 12:02:51.94	74.00	12.79	-36.1	-37.1	23.1	0.00e+00	123	38	0	976224256	46	5618
2026-01-01 12:02:52.95	74.20	12.79	-36.0	-36.9	23.2	0.00e+00	122	38	0	979369984	46	5524
2026-01-01 12:02:53.96	74.40	12.79	-36.1	-37.1	23.0	0.00e+00	123	38	0	982515712	46	5622
2026-01-01 12:02:54.97	74.59	12.79	-36.2	-37.2	23.0	0.00e+00	123	38	0	985661440	46	5665
2026-01-01 12:02:55.98	74.79	12.79	-36.1	-37.1	23.0	0.00e+00	123	38	0	988807168	46	5622
2026-01-01 12:02:56.99	74.99	12.79	-36.1	-37.1	23.0	0.00e+00	122	38	0	991952896	46	5639
2026-01-01 12:02:58.00	75.19	12.78	-36.2	-37.2	23.0	0.00e+00	121	38	0	995098624	46	5694
2026-01-01 12:02:59.01	75.39	12.78	-36.1	-37.1	23.0	0.00e+00	122	38	0	998244352	46	5641
2026-01-01 12:03:00.02	75.59	12.78	-36.2	-37.1	23.0	0.00e+00	123	38	0	1001390080	46	5644
2026-01-01 12:03:01.01	75.78	12.78	-36.2	-37.2	22.9	0.00e+00	123	38	0	1004535808	46	5712
2026-01-01 12:03:02.02	75.98	12.77	-36.3	-37.3	22.9	0.00e+00	122	38	0	1007681536	46	5737
2026-01-01 12:03:03.03	76.18	12.77	-36.4	-37.4	22.7	0.00e+00	122	38	0	1010827264	46	5846
2026-01-01 12:03:04.04	76.38	12.77	-36.5	-37.5	22.7	0.00e+00	123	38	0	1013972992	46	5900
2026-01-01 12:03:05.05	76.57	12.76	-36.5	-37.5	22.8	0.00e+00	120	38	0	1017118720	46	5862
2026-01-01 12:03:06.06	76.77	12.76	-36.5	-37.6	22.6	0.00e+00	123	38	0	1020264448	46	5930
2026-01-01 12:03:07.07	76.97	12.76	-36.5	-37.5	22.6	0.00e+00	122	38	0	1023410176	46	5903
2026-01-01 12:03:08.08	77.17	12.75	-36.6	-37.6	22.6	0.00e+00	122	38	0	1026555904	46	5967
2026-01-01 12:03:09.09	77.37	12.75	-36.5	-37.5	22.6	0.00e+00	122	38	0	1029701632	46	5914
2026-01-01 12:03:10.10	77.56	12.74	-36.4	-37.4	22.7	0.00e+00	123	38	0	1032847360	46	5841
2026-01-01 12:03:11.11	77.76	12.74	-36.5	-37.5	22.7	0.00e+00	123	38	0	1035993088	46	5911
2026-01-01 12:03:12.12	77.96	12.73	-36.4	-37.4	22.8	0.00e+00	123	38	0	1039138816	46	5796
2026-01-01 12:03:13.13	78.16	12.72	-36.3	-37.3	22.9	0.00e+00	120	38	0	1042284544	46	5767
2026-01-01 12:03:14.14	78.36	12.72	-36.4	-37.4	22.8	0.00e+00	123	38	0	1045430272	46	5804
2026-01-01 12:03:15.15	78.55	12.71	-36.2	-37.2	22.9	0.00e+00	120	38	0	1048576000	46	5684
2026-01-01 12:03:16.15	78.75	12.70	-36.2	-37.2	23.1	0.00e+00	123	38	0	1051721728	46	5661
2026-01-01 12:03:17.17	78.95	12.69	-36.3	-37.3	22.9	0.00e+00	120	38	0	1054867456	46	5729
2026-01-01 12:03:18.18	79.14	12.69	-36.2	-37.2	22.9	0.00e+00	123	38	0	1058013184	46	5698
2026-01-01 12:03:19.19	79.34	12.68	-36.2	-37.2	22.9	0.00e+00	118	38	0	1061158912	46	5707
2026-01-01 12:03:20.20	79.54	12.67	-36.2	-37.2	23.0	0.00e+00	123	38	0	1064304640	46	5716
2026-01-01 12:03:21.21	79.74	12.66	-36.4	-37.4	22.8	0.00e+00	120	38	0	1067450368	46	5838
2026-01-01 12:03:22.22	79.93	12.65	-36.3	-37.3	22.9	0.00e+00	122	38	0	1070596096	46	5761
2026-01-01 12:03:23.23	80.13	12.64	-36.3	-37.3	22.9	0.00e+00	122	38	0	1074790400	46	5761
2026-01-01 12:03:24.24	80.33	12.63	-36.3	-37.2	22.9	0.00e+00	123	38	0	1076887552	46	5718
2026-01-01 12:03:25.25	80.52	12.62	-36.3	-37.2	23.0	0.00e+00	123	38	0	1080033280	46	5711
2026-01-01 12:03:26.26	80.72	12.61	-36.1	-37.0	23.1	0.00e+00	123	38	0	1083179008	46	5576
2026-01-01 12:03:27.27	80.92	12.60	-36.0	-37.0	23.1	0.00e+00	122	38	0	1086324736	46	5564
2026-01-01 12:03:28.28	81.11	12.59	-36.0	-37.0	23.1	0.00e+00	122	38	0	1090519040	46	5546
2026-01-01 12:03:29.29	81.31	12.58	-36.1	-37.1	23.1	0.00e+00	120	38	0	1093664768	46	5633
2026-01-01 12:03:30.30	81.50	12.57	-36.1	-37.1	23.0	0.00e+00	122	38	0	1096810496	46	5620
2026-01-01 12:03:31.31	81.70	12.56	-36.3	-37.3	23.0	0.00e+00	120	38	0	1098907648	46	5749
2026-01-01 12:03:32.32	81.89	12.55	-36.3	-37.2	22.9	0.00e+00	123	38	0	1103101952	46	5712
2026-01-01 12:03:33.33	82.09	12.53	-36.2	-37.2	23.0	0.00e+00	123	38	0	1106247680	46	5678
2026-01-01 12:03:34.34	82.29	12.52	-36.3	-37.3	22.9	0.00e+00	123	38	0	1109393408	46	5736
2026-01-01 12:03:35.36	82.48	12.51	-36.2	-37.2	23.0	0.00e+00	120	38	0	1112539136	46	5678
2026-01-01 12:03:36.36	82.68	12.50	-36.2	-37.2	23.0	0.00e+00	122	38	0	1115684864	46	5711
2026-01-01 12:03:37.38	82.87	12.48	-36.2	-37.1	23.0	0.00e+00	122	38	0	1118830592	46	5657
2026-01-01 12:03:38.39	83.07	12.47	-36.1	-37.1	23.0	0.00e+00	122	38	0	1121976320	46	5630
2026-01-01 12:03:39.40	83.26	12.45	-36.3	-37.3	22.8	0.00e+00	120	38	0	1125122048	46	5770
2026-01-01 12:03:40.41	83.45	12.44	-36.3	-37.3	22.9	0.00e+00	123	38	0	1128267776	46	5768
2026-01-01 12:03:41.42	83.65	12.43	-36.3	-37.3	22.9	0.00e+00	120	38	0	1131413504	46	5748
2026-01-01 12:03:42.43	83.84	12.41	-36.4	-37.3	22.8	0.00e+00	122	38	0	1134559232	46	5784
2026-01-01 12:03:43.44	84.04	12.39	-36.4	-37.4	22.9	0.00e+00	120	38	0	1137704960	46	5823
2026-01-01 12:03:44.45	84.23	12.38	-36.3	-37.3	23.0	0.00e+00	125	38	0	1140850688	46	5739
2026-01-01 12:03:45.46	84.42	12.36	-36.2	-37.2	23.1	0.00e+00	123	38	0	1143996416	46	5669
2026-01-01 12:03:46.47	84.62	12.35	-36.2	-37.2	23.0	0.00e+00	122	38	0	1147142144	46	5714
2026-01-01 12:03:47.48	84.81	12.33	-36.1	-37.1	23.1	0.00e+00	120	38	0	1150287872	46	5624
2026-01-01 12:03:48.49	85.00	12.31	-36.2	-37.1	23.0	0.00e+00	122	38	0	1153433600	46	5647
2026-01-01 12:03:49.50	85.19	12.30	-36.2	-37.1	23.0	0.00e+00	120	38	0	1156579328	46	5654
2026-01-01 12:03:50.51	85.39	12.28	-36.2	-37.2	23.0	0.00e+00	121	38	0	1159725056	46	5661
2026-01-01 12:03:51.52	85.58	12.26	-36.1	-37.1	23.0	0.00e+00	122	38	0	1162870784	46	5641
2026-01-01 12:03:52.52	85.77	12.25	-36.1	-37.1	23.1	0.00e+00	120	38	0	1166016512	46	5628
2026-01-01 12:03:53.53	85.96	12.23	-36.2	-37.2	23.0	0.00e+00	122	38	0	1169162240	46	5702
2026-01-01 12:03:54.54	86.15	12.21	-36.2	-37.2	23.0	0.00e+00	123	38	0	1172307968	46	5694
2026-01-01 12:03:55.55	86.34	12.19	-36.3	-37.3	22.9	0.00e+00	122	38	0	1175453696	46	5727
2026-01-01 12:03:56.56	86.53	12.17	-36.5	-37.5	22.7	0.00e+00	122	38	0	1178599424	46	5913
2026-01-01 12:03:57.57	86.72	12.15	-36.6	-37.6	22.7	0.00e+00	122	38	0	1181745152	46	5958
2026-01-01 12:03:58.58	86.91	12.13	-36.2	-37.3	22.9	0.00e+00	120	38	0	1184890880	46	5737
2026-01-01 12:03:59.59	87.10	12.11	-36.3	-37.4	22.8	0.00e+00	123	38	0	1188036608	46	5824
2026-01-01 12:04:00.60	87.29	12.09	-36.5	-37.5	22.7	0.00e+00	123	38	0	1191182336	46	5914
2026-01-01 12:04:01.61	87.48	12.07	-36.6	-37.6	22.7	0.00e+00	123	38	0	1194328064	46	5965
2026-01-01 12:04:02.62	87.67	12.05	-36.4	-37.4	22.8	0.00e+00	120	38	0	1197473792	46	5850
2026-01-01 12:04:03.63	87.86	12.03	-36.3	-37.2	22.9	0.00e+00	122	38	0	1200619520	46	5718
2026-01-01 12:04:04.64	88.05	12.01	-36.2	-37.2	22.9	0.00e+00	122	38	0	1203765248	46	5690
2026-01-01 12:04:05.65	88.24	11.99	-36.5	-37.4	22.8	0.00e+00	123	38	0	1206910976	46	5857
2026-01-01 12:04:06.66	88.43	11.97	-36.4	-37.4	22.8	0.00e+00	123	38	0	1210056704	46	5845
2026-01-01 12:04:07.67	88.62	11.95	-36.3	-37.4	22.8	0.00e+00	122	38	0	1213202432	46	5798
2026-01-01 12:04:08.68	88.80	11.93	-36.2	-37.3	22.9	0.00e+00	123	38	0	1216348160	46	5731
2026-01-01 12:04:09.69	88.99	11.90	-36.3	-37.4	22.9	0.00e+00	123	38	0	1219493888	46	5811
2026-01-01 12:04:10.70	89.18	11.88	-36.2	-37.3	22.9	0.00e+00	122	38	0	1222639616	46	5740
2026-01-01 12:04:11.71	89.37	11.86	-36.3	-37.4	22.8	0.00e+00	123	38	0	1225785344	46	5814
2026-01-01 12:04:12.72	89.55	11.83	-36.4	-37.5	22.8	0.00e+00	120	38	0	1228931072	46	5861
2026-01-01 12:04:13.73	89.74	11.81	-36.4	-37.4	22.8	0.00e+00	122	38	0	1232076800	46	5857
2026-01-01 12:04:14.74	89.93	11.79	-36.4	-37.5	22.8	0.00e+00	123	38	0	1235222528	46	5865
2026-01-01 12:04:15.75	90.11	11.76	-36.6	-37.6	22.7	0.00e+00	122	38	0	1238368256	46	5940
2026-01-01 12:04:16.76	90.30	11.74	-36.5	-37.5	22.7	0.00e+00	122	38	0	1241513984	46	5879
2026-01-01 12:04:17.77	90.48	11.72	-36.5	-37.5	22.7	0.00e+00	123	38	0	1244659712	46	5913
2026-01-01 12:04:18.78	90.67	11.69	-36.4	-37.4	22.8	0.00e+00	120	38	0	1247805440	46	5818
2026-01-01 12:04:19.79	90.85	11.67	-36.4	-37.4	22.8	0.00e+00	122	38	0	1250951168	46	5827
2026-01-01 12:04:20.80	91.04	11.64	-36.5	-37.5	22.8	0.00e+00	123	38	0	1254096896	46	5891
2026-01-01 12:04:21.81	91.22	11.62	-36.4	-37.4	22.7	0.00e+00	120	38	0	1257242624	46	5851
2026-01-01 12:04:22.82	91.41	11.59	-36.4	-37.5	22.7	0.00e+00	123	38	0	1260388352	46	5865
2026-01-01 12:04:23.83	91.59	11.57	-36.4	-37.4	22.8	0.00e+00	121	38	0	1263534080	46	5850
2026-01-01 12:04:24.84	91.77	11.54	-36.5	-37.6	22.6	0.00e+00	123	38	0	1266679808	46	5931
2026-01-01 12:04:25.85	91.95	11.51	-36.6	-37.7	22.6	0.00e+00	123	38	0	1269825536	46	5996
2026-01-01 12:04:26.86	92.14	11.49	-36.6	-37.6	22.6	0.00e+00	122	38	0	1272971264	46	5988
2026-01-01 12:04:27.87	92.32	11.46	-36.6	-37.6	22.6	0.00e+00	120	38	0	1276116992	46	5945
2026-01-01 12:04:28.88	92.50	11.43	-36.6	-37.6	22.6	0.00e+00	123	38	0	1279262720	46	5949
2026-01-01 12:04:29.89	92.68	11.41	-36.6	-37.6	22.6	0.00e+00	120	38	0	1282408448	46	5974
2026-01-01 12:04:30.90	92.86	11.38	-36.4	-37.4	22.7	0.00e+00	122	38	0	1285554176	46	5855
2026-01-01 12:04:31.91	93.05	11.35	-36.4	-37.4	22.7	0.00e+00	120	38	0	1288699904	46	5857
2026-01-01 12:04:32.92	93.23	11.32	-36.4	-37.5	22.6	0.00e+00	123	38	0	1291845632	46	5888
2026-01-01 12:04:33.93	93.41	11.30	-36.4	-37.4	22.6	0.00e+00	120	38	0	1294991360	46	5827
2026-01-01 12:04:34.94	93.59	11.27	-36.5	-37.5	22.6	0.00e+00	122	38	0	1298137088	46	5914
2026-01-01 12:04:35.95	93.77	11.24	-36.6	-37.6	22.6	0.00e+00	120	38	0	1301282816	46	5934
2026-01-01 12:04:36.96	93.95	11.21	-36.5	-37.5	22.6	0.00e+00	122	38	0	1304428544	46	5880
2026-01-01 12:04:37.97	94.12	11.18	-36.5	-37.5	22.6	0.00e+00	120	38	0	1307574272	46	5867
2026-01-01 12:04:38.98	94.30	11.15	-36.5	-37.5	22.7	0.00e+00	122	38	0	1310720000	46	5887
2026-01-01 12:04:39.99	94.48	11.12	-36.5	-37.6	22.6	0.00e+00	122	38	0	1313865728	46	5932
2026-01-01 12:04:41.00	94.66	11.09	-36.5	-37.5	22.6	0.00e+00	122	38	0	1317011456	46	5913
2026-01-01 12:04:42.01	94.84	11.06	-36.6	-37.6	22.7	0.00e+00	120	38	0	1320157184	46	5951
2026-01-01 12:04:43.02	95.01	11.03	-36.4	-37.4	22.7	0.00e+00	123	38	0	1323302912	46	5827
2026-01-01 12:04:44.03	95.19	11.00	-36.5	-37.5	22.7	0.00e+00	123	38	0	1326448640	46	5872
2026-01-01 12:04:45.04	95.37	10.97	-36.5	-37.5	22.7	0.00e+00	122	38	0	1329594368	46	5871
2026-01-01 12:04:46.05	95.54	10.94	-36.5	-37.5	22.7	0.00e+00	122	38	0	1332740096	46	5912
2026-01-01 12:04:47.06	95.72	10.91	-36.5	-37.5	22.6	0.00e+00	122	38	0	1335885824	46	5896
2026-01-01 12:04:48.07	95.90	10.88	-36.4	-37.4	22.7	0.00e+00	122	38	0	1339031552	46	5841
2026-01-01 12:04:49.08	96.07	10.85	-36.4	-37.4	22.7	0.00e+00	123	38	0	1342177280	46	5851
2026-01-01 12:04:50.09	96.25	10.82	-36.5	-37.5	22.6	0.00e+00	123	38	0	1345323008	46	5890
2026-01-01 12:04:51.10	96.42	10.79	-36.5	-37.5	22.7	0.00e+00	123	38	0	1348468736	46	5910
2026-01-01 12:04:52.11	96.59	10.76	-36.4	-37.4	22.7	0.00e+00	122	38	0	1351614464	46	5799
2026-01-01 12:04:53.12	96.77	10.72	-36.3	-37.3	22.7	0.00e+00	122	38	0	1354760192	46	5770
2026-01-01 12:04:54.13	96.94	10.69	-36.4	-37.5	22.7	0.00e+00	122	38	0	1357905920	46	5886
2026-01-01 12:04:55.14	97.11	10.66	-36.5	-37.5	22.5	0.00e+00	123	38	0	1361051648	46	5918
2026-01-01 12:04:56.15	97.29	10.63	-36.2	-37.3	22.8	0.00e+00	123	38	0	1364197376	46	5730
2026-01-01 12:04:57.16	97.46	10.60	-36.3	-37.3	22.8	0.00e+00	123	38	0	1367343104	46	5784
2026-01-01 12:04:58.17	97.63	10.56	-36.4	-37.4	22.7	0.00e+00	120	38	0	1370488832	46	5829
2026-01-01 12:04:59.18	97.80	10.53	-36.4	-37.5	22.6	0.00e+00	123	38	0	1373634560	46	5862
2026-01-01 12:05:00.19	97.97	10.50	-36.5	-37.5	22.4	0.00e+00	123	38	0	1376780288	46	5914
2026-01-01 12:05:01.19	98.14	10.46	-36.5	-37.6	22.4	0.00e+00	120	38	0	1379926016	46	5931
2026-01-01 12:05:02.20	98.31	10.43	-36.7	-37.7	22.4	0.00e+00	122	38	0	1383071744	46	6032
2026-01-01 12:05:03.21	98.48	10.40	-36.6	-37.6	22.5	0.00e+00	120	38	0	1386217472	46	5960
2026-01-01 12:05:04.22	98.65	10.36	-36.7	-37.7	22.4	0.00e+00	123	38	0	1389363200	46	6014
2026-01-01 12:05:05.23	98.82	10.33	-36.6	-37.6	22.5	0.00e+00	123	38	0	1392508928	46	5939
2026-01-01 12:05:06.24	98.99	10.29	-36.5	-37.5	22.4	0.00e+00	123	38	0	1395654656	46	5918
2026-01-01 12:05:07.25	99.16	10.26	-36.5	-37.5	22.4	0.00e+00	122	38	0	1398800384	46	5912
2026-01-01 12:05:08.26	99.33	10.22	-36.6	-37.7	22.4	0.00e+00	123	38	0	1401946112	46	5996
2026-01-01 12:05:09.27	99.50	10.19	-36.5	-37.5	22.5	0.00e+00	120	38	0	1405091840	46	5918
2026-01-01 12:05:10.28	99.66	10.16	-36.5	-37.5	22.5	0.00e+00	123	38	0	1409286144	46	5917
2026-01-01 12:05:11.29	99.83	10.12	-36.7	-37.7	22.5	0.00e+00	123	38	0	1412431872	46	6016
2026-01-01 12:05:12.30	100.00	10.08	-36.8	-37.8	22.3	0.00e+00	122	38	0	1414529024	46	6110
2026-01-01 12:05:13.31	100.16	10.05	-36.9	-38.0	22.2	0.00e+00	120	38	0	1417674752	46	6212
2026-01-01 12:05:14.32	100.33	10.01	-36.9	-37.9	22.3	0.00e+00	120	38	0	1420820480	46	6154
2026-01-01 12:05:15.33	100.49	9.98	-36.8	-37.8	22.3	0.00e+00	123	38	0	1425014784	46	6128
2026-01-01 12:05:16.34	100.66	9.94	-36.9	-37.9	22.2	0.00e+00	122	38	0	1428160512	46	6156
2026-01-01 12:05:17.35	100.82	9.91	-36.9	-38.0	22.2	0.00e+00	123	38	0	1431306240	46	6214
2026-01-01 12:05:18.36	100.99	9.87	-36.9	-38.0	22.2	0.00e+00	120	38	0	1434451968	46	6219
2026-01-01 12:05:19.37	101.15	9.83	-37.0	-38.1	22.1	0.00e+00	123	38	0	1437597696	46	6278
2026-01-01 12:05:20.38	101.31	9.80	-37.2	-38.3	21.9	0.00e+00	122	38	0	1440743424	46	6471
2026-01-01 12:05:21.39	101.48	9.76	-36.9	-37.9	22.2	0.00e+00	123	38	0	1443889152	46	6202
2026-01-01 12:05:22.40	101.64	9.72	-36.9	-38.0	22.1	0.00e+00	122	38	0	1447034880	46	6229
2026-01-01 12:05:23.41	101.80	9.69	-37.0	-38.0	22.0	0.00e+00	122	38	0	1450180608	46	6276
2026-01-01 12:05:24.42	101.96	9.65	-36.8	-37.9	22.2	0.00e+00	123	38	0	1453326336	46	6137
2026-01-01 12:05:25.43	102.13	9.61	-36.8	-37.8	22.3	0.00e+00	123	38	0	1456472064	46	6113
2026-01-01 12:05:26.44	102.29	9.58	-36.8	-37.8	22.3	0.00e+00	123	38	0	1459617792	46	6134
2026-01-01 12:05:27.44	102.45	9.54	-36.9	-38.0	22.1	0.00e+00	122	38	0	1462763520	46	6233
2026-01-01 12:05:28.46	102.61	9.50	-36.9	-38.0	22.1	0.00e+00	122	38	0	1465909248	46	6228
2026-01-01 12:05:29.47	102.77	9.46	-36.8	-37.9	22.2	0.00e+00	120	38	0	1469054976	46	6157
2026-01-01 12:05:30.47	102.93	9.42	-36.9	-38.0	22.1	0.00e+00	122	38	0	1472200704	46	6220
2026-01-01 12:05:31.49	103.09	9.39	-36.9	-38.0	22.0	0.00e+00	123	38	0	1475346432	46	6273
2026-01-01 12:05:32.50	103.25	9.35	-36.9	-38.0	22.1	0.00e+00	123	38	0	1478492160	46	6253
2026-01-01 12:05:33.51	103.40	9.31	-37.0	-38.0	22.0	0.00e+00	123	38	0	1481637888	46	6273
2026-01-01 12:05:34.52	103.56	9.27	-37.0	-38.0	22.0	0.00e+00	122	38	0	1484783616	46	6261
2026-01-01 12:05:35.53	103.72	9.23	-37.1	-38.2	21.8	0.00e+00	123	38	0	1487929344	46	6363
2026-01-01 12:05:36.54	103.88	9.19	-37.1	-38.2	21.8	0.00e+00	123	38	0	1491075072	46	6370
2026-01-01 12:05:37.55	104.03	9.16	-37.1	-38.2	21.8	0.00e+00	121	38	0	1494220800	46	6400
2026-01-01 12:05:38.55	104.19	9.12	-37.3	-38.3	21.7	0.00e+00	123	38	0	1497366528	46	6489
2026-01-01 12:05:39.56	104.34	9.08	-37.3	-38.4	21.6	0.00e+00	123	38	0	1500512256	46	6544
2026-01-01 12:05:40.57	104.50	9.04	-37.2	-38.3	21.8	0.00e+00	123	38	0	1503657984	46	6451
2026-01-01 12:05:41.58	104.65	9.00	-37.4	-38.5	21.6	0.00e+00	122	38	0	1506803712	46	6597
2026-01-01 12:05:42.59	104.81	8.96	-37.5	-38.6	21.4	0.00e+00	122	38	0	1509949440	46	6673
2026-01-01 12:05:43.60	104.96	8.92	-37.2	-38.3	21.7	0.00e+00	122	38	0	1513095168	46	6480
2026-01-01 12:05:44.61	105.12	8.88	-37.1	-38.2	21.8	0.00e+00	120	38	0	1516240896	46	6405
2026-01-01 12:05:45.62	105.27	8.84	-37.2	-38.2	21.7	0.00e+00	122	38	0	1519386624	46	6411
2026-01-01 12:05:46.63	105.42	8.80	-37.1	-38.2	21.9	0.00e+00	122	38	0	1522532352	46	6370
2026-01-01 12:05:47.64	105.58	8.76	-37.2	-38.2	21.9	0.00e+00	123	38	0	1525678080	46	6416
2026-01-01 12:05:48.65	105.73	8.72	-37.2	-38.2	21.8	0.00e+00	123	38	0	1528823808	46	6415
2026-01-01 12:05:49.66	105.88	8.68	-37.2	-38.3	21.8	0.00e+00	122	38	0	1531969536	46	6441
2026-01-01 12:05:50.67	106.03	8.64	-37.1	-38.2	21.8	0.00e+00	122	38	0	1535115264	46	6379
2026-01-01 12:05:51.68	106.18	8.60	-37.2	-38.3	21.8	0.00e+00	123	38	0	1538260992	46	6430
2026-01-01 12:05:52.69	106.33	8.56	-37.2	-38.3	21.7	0.00e+00	122	38	0	1541406720	46	6475
2026-01-01 12:05:53.70	106.48	8.52	-37.3	-38.4	21.6	0.00e+00	123	38	0	1544552448	46	6508
2026-01-01 12:05:54.71	106.63	8.48	-37.4	-38.5	21.6	0.00e+00	120	38	0	1547698176	46	6596
2026-01-01 12:05:55.72	106.78	8.44	-37.3	-38.4	21.7	0.00e+00	123	38	0	1550843904	46	6546
2026-01-01 12:05:56.73	106.93	8.40	-37.4	-38.5	21.6	0.00e+00	123	38	0	1553989632	46	6587
2026-01-01 12:05:57.74	107.08	8.36	-37.3	-38.4	21.7	0.00e+00	122	38	0	1557135360	46	6519
2026-01-01 12:05:58.75	107.23	8.31	-37.4	-38.5	21.6	0.00e+00	123	38	0	1560281088	46	6594
2026-01-01 12:05:59.76	107.38	8.27	-37.4	-38.5	21.5	0.00e+00	123	38	0	1563426816	46	6622
2026-01-01 12:06:00.77	107.52	8.23	-37.2	-38.4	21.6	0.00e+00	120	38	0	1566572544	46	6529
2026-01-01 12:06:01.78	107.67	8.19	-37.2	-38.3	21.6	0.00e+00	123	38	0	1569718272	46	6496
2026-01-01 12:06:02.79	107.82	8.15	-37.3	-38.4	21.6	0.00e+00	122	38	0	1572864000	46	6547
2026-01-01 12:06:03.80	107.96	8.11	-37.4	-38.4	21.6	0.00e+00	122	38	0	1576009728	46	6568
2026-01-01 12:06:04.81	108.11	8.07	-37.3	-38.3	21.7	0.00e+00	123	38	0	1579155456	46	6498
2026-01-01 12:06:05.82	108.26	8.02	-37.3	-38.4	21.6	0.00e+00	122	38	0	1582301184	46	6543
2026-01-01 12:06:06.83	108.40	7.98	-37.5	-38.6	21.5	0.00e+00	122	38	0	1585446912	46	6704
2026-01-01 12:06:07.84	108.55	7.94	-37.5	-38.7	21.5	0.00e+00	122	38	0	1588592640	46	6760
2026-01-01 12:06:08.85	108.69	7.90	-37.5	-38.6	21.4	0.00e+00	123	38	0	1591738368	46	6717
2026-01-01 12:06:09.86	108.83	7.86	-37.5	-38.6	21.4	0.00e+00	123	38	0	1594884096	46	6719
2026-01-01 12:06:10.87	108.98	7.81	-37.7	-38.8	21.2	0.00e+00	123	38	0	1598029824	48	6108
2026-01-01 12:06:11.87	109.12	7.77	-37.5	-38.6	21.5	0.00e+00	123	38	0	1601175552	48	5949
2026-01-01 12:06:12.88	109.26	7.73	-37.3	-38.5	21.5	0.00e+00	123	38	0	1604321280	48	5866
2026-01-01 12:06:13.89	109.40	7.69	-37.5	-38.6	21.4	0.00e+00	123	38	0	1607467008	48	5970
2026-01-01 12:06:14.90	109.55	7.64	-37.5	-38.7	21.4	0.00e+00	123	38	0	1610612736	48	6005
2026-01-01 12:06:15.91	109.69	7.60	-37.6	-38.7	21.3	0.00e+00	123	38	0	1613758464	48	6042
2026-01-01 12:06:16.92	109.83	7.56	-37.7	-38.8	21.2	0.00e+00	122	38	0	1616904192	48	6093
2026-01-01 12:06:17.93	109.97	7.52	-37.7	-38.8	21.2	0.00e+00	123	38	0	1620049920	48	6134
2026-01-01 12:06:18.94	110.11	7.47	-37.7	-38.8	21.2	0.00e+00	122	38	0	1623195648	48	6093
2026-01-01 12:06:19.95	110.25	7.43	-37.7	-38.8	21.2	0.00e+00	122	38	0	1626341376	48	6108
2026-01-01 12:06:20.96	110.39	7.39	-37.7	-38.8	21.3	0.00e+00	122	38	0	1629487104	48	6077
2026-01-01 12:06:21.97	110.53	7.34	-37.7	-38.8	21.2	0.00e+00	122	38	0	1632632832	48	6124
2026-01-01 12:06:22.98	110.67	7.30	-37.7	-38.8	21.2	0.00e+00	122	38	0	1635778560	48	6125
2026-01-01 12:06:23.99	110.80	7.26	-37.9	-39.0	21.0	0.00e+00	122	38	0	1638924288	48	6258
2026-01-01 12:06:25.00	110.94	7.21	-37.8	-38.9	21.2	0.00e+00	123	38	0	1642070016	48	6171
2026-01-01 12:06:26.01	111.08	7.17	-37.9	-39.1	21.1	0.00e+00	122	38	0	1645215744	48	6313
2026-01-01 12:06:27.02	111.22	7.13	-37.7	-38.8	21.2	0.00e+00	123	38	0	1648361472	48	6084
2026-01-01 12:06:28.02	111.35	7.08	-37.8	-38.9	21.1	0.00e+00	122	38	0	1651507200	48	6172
2026-01-01 12:06:29.03	111.49	7.04	-37.7	-38.9	21.1	0.00e+00	122	38	0	1654652928	48	6145
2026-01-01 12:06:30.04	111.62	7.00	-37.9	-39.0	21.0	0.00e+00	123	38	0	1657798656	48	6245
2026-01-01 12:06:31.05	111.76	6.95	-37.8	-38.9	21.1	0.00e+00	123	38	0	1660944384	48	6198
2026-01-01 12:06:32.06	111.90	6.91	-37.9	-39.1	21.0	0.00e+00	123	38	0	1664090112	48	6284
2026-01-01 12:06:33.07	112.03	6.87	-38.0	-39.1	20.9	0.00e+00	123	38	0	1667235840	48	6328
2026-01-01 12:06:34.08	112.16	6.82	-37.9	-39.1	20.9	0.00e+00	123	38	0	1670381568	48	6302
2026-01-01 12:06:35.09	112.30	6.78	-38.0	-39.1	20.9	0.00e+00	123	38	0	1673527296	48	6318
2026-01-01 12:06:36.10	112.43	6.73	-37.8	-38.9	21.1	0.00e+00	123	38	0	1676673024	48	6175
2026-01-01 12:06:37.11	112.57	6.69	-37.9	-39.0	21.1	0.00e+00	123	38	0	1679818752	48	6220
2026-01-01 12:06:38.12	112.70	6.65	-37.9	-39.0	21.1	0.00e+00	122	38	0	1682964480	48	6229
2026-01-01 12:06:39.13	112.83	6.60	-38.0	-39.1	20.9	0.00e+00	122	38	0	1686110208	48	6324
2026-01-01 12:06:40.14	112.96	6.56	-37.9	-39.0	21.0	0.00e+00	122	38	0	1689255936	48	6244
2026-01-01 12:06:41.15	113.09	6.51	-37.8	-39.0	21.0	0.00e+00	122	38	0	1692401664	48	6207
2026-01-01 12:06:42.16	113.23	6.47	-37.9	-39.0	21.0	0.00e+00	123	38	0	1695547392	48	6232
2026-01-01 12:06:43.17	113.36	6.43	-38.0	-39.1	20.9	0.00e+00	122	38	0	1698693120	48	6333
2026-01-01 12:06:44.17	113.49	6.38	-37.8	-38.9	21.0	0.00e+00	123	38	0	1701838848	48	6192
2026-01-01 12:06:45.19	113.62	6.34	-37.8	-38.9	21.0	0.00e+00	122	38	0	1704984576	48	6155
2026-01-01 12:06:46.20	113.75	6.29	-37.9	-39.0	20.9	0.00e+00	123	38	0	1708130304	48	6238
2026-01-01 12:06:47.21	113.88	6.25	-37.7	-38.9	21.1	0.00e+00	123	38	0	1711276032	48	6148
2026-01-01 12:06:48.21	114.00	6.20	-37.8	-39.0	21.0	0.00e+00	123	38	0	1714421760	48	6214
2026-01-01 12:06:49.22	114.13	6.16	-37.7	-38.8	21.1	0.00e+00	122	38	0	1717567488	48	6098
2026-01-01 12:06:50.23	114.26	6.11	-37.8	-38.9	21.1	0.00e+00	122	38	0	1720713216	48	6155
2026-01-01 12:06:51.24	114.39	6.07	-37.8	-38.9	21.0	0.00e+00	122	38	0	1723858944	48	6195
2026-01-01 12:06:52.25	114.52	6.03	-37.8	-38.9	21.1	0.00e+00	123	38	0	1727004672	48	6179
2026-01-01 12:06:53.26	114.64	5.98	-37.7	-38.9	21.1	0.00e+00	123	38	0	1730150400	48	6145
2026-01-01 12:06:54.27	114.77	5.94	-37.8	-38.9	21.0	0.00e+00	123	38	0	1733296128	48	6190
2026-01-01 12:06:55.28	114.90	5.89	-37.8	-38.9	21.0	0.00e+00	123	38	0	1736441856	48	6204
2026-01-01 12:06:56.29	115.02	5.85	-37.9	-39.0	20.9	0.00e+00	120	38	0	1739587584	48	6257
2026-01-01 12:06:57.30	115.15	5.80	-37.9	-39.1	20.8	0.00e+00	123	38	0	1742733312	48	6326
2026-01-01 12:06:58.31	115.27	5.76	-37.9	-39.1	20.9	0.00e+00	122	38	0	1745879040	48	6311
2026-01-01 12:06:59.32	115.40	5.71	-37.8	-39.0	21.0	0.00e+00	123	38	0	1749024768	48	6215
2026-01-01 12:07:00.33	115.52	5.67	-37.9	-39.0	20.9	0.00e+00	123	38	0	1753219072	48	6261
2026-01-01 12:07:01.34	115.65	5.62	-37.8	-39.0	20.9	0.00e+00	123	38	0	1755316224	48	6215
2026-01-01 12:07:02.35	115.77	5.58	-37.9	-39.1	20.8	0.00e+00	120	38	0	1758461952	48	6288
2026-01-01 12:07:03.36	115.89	5.53	-38.1	-39.3	20.6	0.00e+00	122	38	0	1761607680	48	6441
2026-01-01 12:07:04.37	116.02	5.49	-38.2	-39.4	20.4	0.00e+00	123	38	0	1764753408	48	6515
2026-01-01 12:07:05.38	116.14	5.44	-38.2	-39.4	20.5	0.00e+00	123	38	0	1768947712	48	6544
2026-01-01 12:07:06.39	116.26	5.40	-38.1	-39.2	20.7	0.00e+00	123	38	0	1772093440	48	6393
2026-01-01 12:07:07.40	116.38	5.35	-38.1	-39.2	20.6	0.00e+00	123	38	0	1775239168	48	6399
2026-01-01 12:07:08.41	116.51	5.31	-38.1	-39.3	20.5	0.00e+00	120	38	0	1777336320	48	6458
2026-01-01 12:07:09.42	116.63	5.26	-38.1	-39.2	20.6	0.00e+00	123	38	0	1780482048	48	6410
2026-01-01 12:07:10.42	116.75	5.22	-38.1	-39.3	20.5	0.00e+00	123	38	0	1784676352	48	6437
2026-01-01 12:07:11.43	116.87	5.17	-38.2	-39.4	20.4	0.00e+00	123	38	0	1787822080	48	6515
2026-01-01 12:07:12.44	116.99	5.12	-38.1	-39.3	20.5	0.00e+00	122	38	0	1790967808	48	6463
2026-01-01 12:07:13.45	117.11	5.08	-38.1	-39.2	20.6	0.00e+00	122	38	0	1794113536	48	6402
2026-01-01 12:07:14.46	117.23	5.03	-38.1	-39.3	20.5	0.00e+00	122	38	0	1797259264	48	6478
2026-01-01 12:07:15.47	117.35	4.99	-38.4	-39.6	20.3	0.00e+00	122	38	0	1800404992	48	6693
2026-01-01 12:07:16.48	117.46	4.94	-38.4	-39.6	20.2	0.00e+00	123	38	0	1803550720	48	6714
2026-01-01 12:07:17.49	117.58	4.90	-38.3	-39.6	20.2	0.00e+00	122	38	0	1806696448	48	6670
2026-01-01 12:07:18.50	117.70	4.85	-38.3	-39.6	20.2	0.00e+00	122	38	0	1809842176	48	6668
2026-01-01 12:07:19.51	117.82	4.81	-38.5	-39.7	20.1	0.00e+00	123	38	0	1812987904	48	6784
2026-01-01 12:07:20.52	117.94	4.76	-38.5	-39.7	20.2	0.00e+00	123	38	0	1816133632	48	6790
2026-01-01 12:07:21.53	118.05	4.72	-38.5	-39.8	20.1	0.00e+00	122	38	0	1819279360	48	6815
2026-01-01 12:07:22.54	118.17	4.67	-38.4	-39.6	20.3	0.00e+00	123	38	0	1822425088	48	6661
2026-01-01 12:07:23.55	118.29	4.62	-38.5	-39.7	20.1	0.00e+00	123	38	0	1825570816	48	6801
2026-01-01 12:07:24.56	118.40	4.58	-38.6	-39.8	20.0	0.00e+00	122	38	0	1828716544	48	6856
2026-01-01 12:07:25.57	118.52	4.53	-38.5	-39.7	20.2	0.00e+00	123	38	0	1831862272	48	6744
2026-01-01 12:07:26.58	118.63	4.49	-38.6	-39.8	20.0	0.00e+00	120	38	0	1835008000	48	6865
2026-01-01 12:07:27.59	118.75	4.44	-38.5	-39.8	20.0	0.00e+00	123	38	0	1838153728	48	6832
2026-01-01 12:07:28.60	118.86	4.40	-38.8	-40.1	19.8	0.00e+00	120	38	0	1841299456	50	6298
2026-01-01 12:07:29.61	118.98	4.35	-38.6	-39.8	20.0	0.00e+00	123	38	0	1844445184	50	6113
2026-01-01 12:07:30.62	119.09	4.30	-38.5	-39.7	20.0	0.00e+00	123	38	0	1847590912	50	6061
2026-01-01 12:07:31.63	119.20	4.26	-38.7	-39.9	19.9	0.00e+00	123	38	0	1850736640	50	6200
2026-01-01 12:07:32.64	119.32	4.21	-38.7	-40.0	19.8	0.00e+00	123	38	0	1853882368	50	6218
2026-01-01 12:07:33.65	119.43	4.17	-38.7	-39.9	19.9	0.00e+00	122	38	0	1857028096	50	6199
2026-01-01 12:07:34.66	119.54	4.12	-38.6	-39.9	19.9	0.00e+00	122	38	0	1860173824	50	6144
2026-01-01 12:07:35.67	119.65	4.08	-38.6	-39.9	19.8	0.00e+00	120	38	0	1863319552	50	6194
2026-01-01 12:07:36.68	119.77	4.03	-38.7	-40.0	19.8	0.00e+00	123	38	0	1866465280	50	6219
2026-01-01 12:07:37.69	119.88	3.98	-38.5	-39.8	19.9	0.00e+00	123	38	0	1869611008	50	6078
2026-01-01 12:07:38.70	119.99	3.94	-38.4	-39.6	20.1	0.00e+00	123	38	0	1872756736	50	5983
2026-01-01 12:07:39.71	120.10	3.89	-38.4	-39.7	20.0	0.00e+00	123	38	0	1875902464	50	6017
2026-01-01 12:07:40.72	120.21	3.85	-38.7	-40.1	19.6	0.00e+00	122	38	0	1879048192	50	6287
2026-01-01 12:07:41.73	120.32	3.80	-38.8	-40.2	19.5	0.00e+00	122	38	0	1882193920	50	6360
2026-01-01 12:07:42.73	120.43	3.76	-39.0	-40.4	19.2	0.00e+00	122	38	0	1885339648	50	6554
2026-01-01 12:07:43.74	120.54	3.71	-38.7	-40.1	19.5	0.00e+00	122	38	0	1888485376	50	6320
2026-01-01 12:07:44.75	120.65	3.66	-38.7	-40.1	19.5	0.00e+00	120	38	0	1891631104	50	6298
2026-01-01 12:07:45.76	120.76	3.62	-39.1	-40.5	19.1	0.00e+00	123	38	0	1894776832	50	6590
2026-01-01 12:07:46.77	120.87	3.57	-39.3	-40.7	18.8	0.00e+00	123	38	0	1897922560	50	6775
2026-01-01 12:07:47.78	120.97	3.53	-39.5	-40.9	18.9	0.00e+00	122	38	0	1901068288	50	6924
2026-01-01 12:07:48.79	121.08	3.48	-39.0	-40.4	19.2	0.00e+00	120	38	0	1904214016	50	6516
2026-01-01 12:07:49.80	121.19	3.43	-39.1	-40.5	19.0	0.00e+00	123	38	0	1907359744	50	6579
2026-01-01 12:07:50.81	121.30	3.39	-39.0	-40.4	19.1	0.00e+00	122	38	0	1910505472	50	6499
2026-01-01 12:07:51.82	121.40	3.34	-39.3	-40.7	18.8	0.00e+00	120	38	0	1913651200	50	6744
2026-01-01 12:07:52.83	121.51	3.30	-39.2	-40.5	19.0	0.00e+00	123	38	0	1916796928	50	6620
2026-01-01 12:07:53.84	121.62	3.25	-39.1	-40.4	18.9	0.00e+00	123	38	0	1919942656	50	6566
2026-01-01 12:07:54.85	121.72	3.20	-39.3	-40.7	18.8	0.00e+00	122	38	0	1923088384	50	6727
2026-01-01 12:07:55.86	121.83	3.16	-39.3	-40.7	18.6	0.00e+00	120	38	0	1926234112	50	6781
2026-01-01 12:07:56.86	121.93	3.11	-39.4	-40.8	18.6	0.00e+00	123	38	0	1929379840	50	6852
2026-01-01 12:07:57.87	122.04	3.07	-39.3	-40.7	18.6	0.00e+00	120	38	0	1932525568	50	6754
2026-01-01 12:07:58.88	122.14	3.02	-39.5	-41.0	18.3	0.00e+00	122	38	0	1935671296	50	6967
2026-01-01 12:07:59.90	122.25	2.97	-48.0	-61.0	3.5	1.52e+00	0	38	104	1937768448	60	39158
2026-01-01 12:08:00.90	122.35	2.93	-48.2	-61.4	3.5	1.52e+00	0	38	104	1937768448	60	41297
2026-01-01 12:08:01.91	122.46	2.88	-48.8	-61.6	3.5	1.52e+00	0	38	104	1937768448	60	42357
2026-01-01 12:08:02.92	122.56	2.84	-48.9	-61.8	3.5	1.52e+00	0	38	104	1937768448	60	42968
2026-01-01 12:08:03.93	122.66	2.79	-49.1	-62.0	3.5	1.52e+00	0	38	104	1937768448	60	44114
2026-01-01 12:08:04.94	122.77	2.75	-49.2	-62.1	3.5	1.52e+00	0	38	104	1937768448	60	44484
