passes_logs/2026/01/01/R4.6S_Anadyr/R4.6S_Anadyr__20260101_160744_NOAA_20_JPSS-1_rec.log

#Pass ID: 20260101_160744_NOAA 20 (JPSS-1)
#Satellite: NOAA 20 (JPSS-1)
#Configuration: NOAA 20
#almurnet v.1.7.20251203
#Start time: 2026-01-01 16:07:46

#Version: 2.2.20231116
#Station: R4.6S_Anadyr
#Location: 177.4865 lon 64.73178 lat
#TLE: 1 43013U 17073A   25364.89373485  .00000164  00000+0  98659-4 0  9997
#TLE: 2 43013  98.7619 300.9939 0001957  61.1511 298.9862 14.19531413420599

#Time	Az	El	Level	Level2	SNR	BER	BlckErr	Temp	State	Recorded	gain1	gain2
2026-01-01 16:07:46.74	24.71	0.12	-48.9	-63.8	3.5	1.51e+00	0	37	0	0	60	55829
2026-01-01 16:07:47.75	24.67	0.18	-49.0	-64.2	3.6	1.51e+00	0	38	104	0	60	58436
2026-01-01 16:07:48.75	24.64	0.24	-49.0	-64.2	3.6	1.51e+00	0	38	104	0	60	58443
2026-01-01 16:07:49.76	24.61	0.29	-49.0	-64.2	3.6	1.51e+00	0	38	104	0	60	58621
2026-01-01 16:07:50.77	24.57	0.35	-49.0	-64.2	3.6	1.51e+00	0	38	104	0	60	58516
2026-01-01 16:07:51.78	24.54	0.41	-48.9	-64.2	3.6	1.51e+00	0	38	104	0	60	58633
2026-01-01 16:07:52.79	24.51	0.47	-49.0	-64.2	3.6	1.51e+00	0	38	104	0	60	58836
2026-01-01 16:07:53.80	24.47	0.53	-49.0	-64.2	3.6	1.51e+00	0	38	104	0	60	58763
2026-01-01 16:07:54.81	24.44	0.59	-49.0	-64.2	3.6	1.51e+00	0	38	104	0	60	58723
2026-01-01 16:07:55.82	24.40	0.65	-48.9	-64.1	3.6	1.51e+00	0	38	104	0	60	58084
2026-01-01 16:07:56.83	24.37	0.71	-48.8	-64.0	3.6	1.51e+00	0	38	104	0	60	57393
2026-01-01 16:07:57.84	24.34	0.77	-48.7	-63.9	3.6	1.51e+00	0	38	104	0	60	56737
2026-01-01 16:07:58.85	24.30	0.83	-48.5	-63.7	3.6	1.51e+00	0	38	104	0	60	55636
2026-01-01 16:07:59.86	24.27	0.89	-48.3	-63.6	3.6	1.51e+00	0	38	104	0	60	54658
2026-01-01 16:08:00.87	24.23	0.95	-48.2	-63.4	3.6	1.51e+00	0	38	104	0	60	53664
2026-01-01 16:08:01.88	24.20	1.01	-47.9	-63.1	3.6	1.51e+00	0	38	104	0	60	51639
2026-01-01 16:08:02.89	24.16	1.07	-47.6	-62.7	3.6	1.51e+00	0	38	104	0	60	49212
2026-01-01 16:08:03.90	24.12	1.13	-47.6	-62.7	3.6	1.51e+00	0	38	104	0	60	49090
2026-01-01 16:08:04.91	24.09	1.19	-47.6	-62.7	3.6	1.51e+00	0	38	104	0	60	49583
2026-01-01 16:08:05.92	24.05	1.25	-47.6	-62.8	3.6	1.51e+00	0	38	104	0	60	49610
2026-01-01 16:08:06.93	24.02	1.31	-47.6	-62.7	3.6	1.51e+00	0	38	104	0	60	49573
2026-01-01 16:08:07.94	23.98	1.37	-47.6	-62.7	3.6	1.51e+00	0	38	104	0	60	49497
2026-01-01 16:08:08.95	23.94	1.43	-47.5	-62.7	3.6	1.51e+00	0	38	104	0	60	49137
2026-01-01 16:08:09.96	23.91	1.49	-47.5	-62.7	3.6	1.51e+00	0	38	104	0	60	49125
2026-01-01 16:08:10.97	23.87	1.55	-47.5	-62.6	3.6	1.51e+00	0	38	104	0	60	49027
2026-01-01 16:08:11.98	23.83	1.61	-47.6	-62.7	3.6	1.51e+00	0	38	104	0	60	49160
2026-01-01 16:08:12.99	23.80	1.67	-47.5	-62.7	3.6	1.51e+00	0	38	104	0	60	49410
2026-01-01 16:08:14.00	23.76	1.74	-47.5	-62.7	3.6	1.51e+00	0	38	104	0	60	49257
2026-01-01 16:08:15.01	23.72	1.80	-47.6	-62.7	3.6	1.51e+00	0	38	104	0	60	49403
2026-01-01 16:08:16.02	23.69	1.86	-47.5	-62.7	3.6	1.51e+00	0	38	104	0	60	49393
2026-01-01 16:08:17.03	23.65	1.92	-47.5	-62.6	3.6	1.51e+00	0	38	104	0	60	48484
2026-01-01 16:08:18.04	23.61	1.98	-47.5	-62.5	3.6	1.51e+00	0	38	104	0	60	48047
2026-01-01 16:08:19.05	23.57	2.04	-47.5	-62.4	3.6	1.51e+00	0	38	104	0	60	47794
2026-01-01 16:08:20.06	23.53	2.11	-47.5	-62.5	3.6	1.51e+00	0	38	104	0	60	48018
2026-01-01 16:08:21.07	23.50	2.17	-47.5	-62.5	3.6	1.51e+00	0	39	104	0	60	48070
2026-01-01 16:08:22.08	23.46	2.23	-47.5	-62.6	3.6	1.51e+00	0	38	104	0	60	48862
2026-01-01 16:08:23.09	23.42	2.29	-47.5	-62.7	3.6	1.51e+00	0	39	104	0	60	49480
2026-01-01 16:08:24.10	23.38	2.36	-47.5	-62.7	3.6	1.51e+00	0	38	104	0	60	49156
2026-01-01 16:08:25.11	23.34	2.42	-47.5	-62.7	3.6	1.51e+00	0	38	104	0	60	49148
2026-01-01 16:08:26.12	23.30	2.48	-47.5	-62.6	3.6	1.51e+00	0	39	104	0	60	48782
2026-01-01 16:08:27.13	23.26	2.55	-47.5	-62.6	3.6	1.51e+00	0	39	104	0	60	48887
2026-01-01 16:08:28.14	23.22	2.61	-47.5	-62.6	3.6	1.51e+00	0	39	104	0	60	48774
2026-01-01 16:08:29.15	23.18	2.67	-47.5	-62.5	3.6	1.51e+00	0	39	104	0	60	48463
2026-01-01 16:08:30.16	23.14	2.73	-47.5	-62.3	3.6	1.51e+00	0	39	104	0	60	47302
2026-01-01 16:08:31.17	23.10	2.80	-47.5	-62.1	3.6	1.51e+00	0	39	104	0	60	45874
2026-01-01 16:08:32.17	23.06	2.86	-47.5	-61.9	3.6	1.51e+00	0	39	104	0	60	44761
2026-01-01 16:08:33.18	23.02	2.93	-47.5	-61.7	3.6	1.51e+00	0	39	104	0	60	43953
2026-01-01 16:08:34.19	22.98	2.99	-47.5	-61.9	3.6	1.51e+00	0	39	104	0	60	45144
2026-01-01 16:08:35.20	22.94	3.05	-47.5	-62.5	3.6	1.51e+00	0	39	104	0	60	47937
2026-01-01 16:08:36.21	22.90	3.12	-47.5	-62.7	3.6	1.51e+00	0	39	104	0	60	49498
2026-01-01 16:08:37.22	22.86	3.18	-47.5	-61.8	3.6	1.51e+00	0	39	104	0	60	44541
2026-01-01 16:08:38.23	22.82	3.25	-47.4	-59.8	3.9	1.50e+00	0	39	104	0	60	35149
2026-01-01 16:08:39.24	22.77	3.31	-47.2	-56.4	4.9	1.03e+00	81	39	0	0	60	23790
2026-01-01 16:08:40.25	22.73	3.37	-46.8	-53.9	7.0	4.19e-01	91	39	0	2097152	60	17902
2026-01-01 16:08:41.26	22.69	3.44	-46.4	-52.2	8.8	4.64e-02	0	39	0	4194304	60	14776
2026-01-01 16:08:42.27	22.65	3.50	-46.2	-51.6	9.5	2.68e-02	2	39	0	6291456	60	13783
2026-01-01 16:08:43.28	22.60	3.57	-46.0	-51.0	10.3	7.27e-03	0	39	0	7340032	60	12820
2026-01-01 16:08:44.29	22.56	3.63	-46.0	-51.1	10.2	3.84e-03	0	39	0	9437184	60	12990
2026-01-01 16:08:45.30	22.52	3.70	-46.3	-51.6	10.7	1.79e-01	92	39	0	11534336	60	13728
2026-01-01 16:08:46.31	22.47	3.77	-42.0	-43.8	17.6	0.00e+00	0	39	0	13631488	58	6314
2026-01-01 16:08:47.32	22.43	3.83	-47.5	-61.4	3.6	1.51e+00	0	39	104	13631488	60	42676
2026-01-01 16:08:48.33	22.39	3.90	-46.3	-52.0	11.8	1.12e+00	0	39	104	13631488	60	14362
2026-01-01 16:08:49.34	22.34	3.96	-44.6	-47.8	14.4	5.30e-06	0	39	0	14680064	60	8854
2026-01-01 16:08:50.35	22.30	4.03	-42.0	-43.9	18.0	0.00e+00	0	39	0	16777216	58	6329
2026-01-01 16:08:51.36	22.26	4.10	-41.9	-43.7	18.2	0.00e+00	0	39	0	17825792	58	6193
2026-01-01 16:08:52.37	22.21	4.16	-41.5	-43.1	18.7	0.00e+00	90	39	0	19922944	56	6497
2026-01-01 16:08:53.38	22.17	4.23	-41.7	-43.4	18.3	0.00e+00	82	39	0	22020096	56	6716
2026-01-01 16:08:54.39	22.12	4.29	-41.6	-43.3	18.5	0.00e+00	92	39	0	24117248	56	6622
2026-01-01 16:08:55.40	22.08	4.36	-41.5	-43.1	18.9	0.00e+00	81	39	0	26214400	56	6502
2026-01-01 16:08:56.41	22.03	4.43	-41.4	-43.0	18.9	0.00e+00	92	39	0	28311552	56	6420
2026-01-01 16:08:57.42	21.98	4.50	-41.3	-42.9	19.1	0.00e+00	0	39	0	29360128	56	6329
2026-01-01 16:08:58.42	21.94	4.56	-41.3	-42.8	19.1	0.00e+00	0	39	0	31457280	56	6299
2026-01-01 16:08:59.43	21.89	4.63	-41.0	-42.5	19.5	0.00e+00	0	39	0	33554432	56	6073
2026-01-01 16:09:00.44	21.85	4.70	-41.1	-42.6	19.3	0.00e+00	82	39	0	35651584	56	6118
2026-01-01 16:09:01.45	21.80	4.76	-40.9	-42.4	19.5	0.00e+00	90	39	0	37748736	56	6003
2026-01-01 16:09:02.46	21.75	4.83	-41.2	-42.7	19.3	0.00e+00	0	39	0	38797312	56	6245
2026-01-01 16:09:03.47	21.71	4.90	-41.1	-42.6	19.4	0.00e+00	92	39	0	40894464	56	6105
2026-01-01 16:09:04.48	21.66	4.97	-41.3	-42.8	19.2	0.00e+00	5	39	0	42991616	56	6315
2026-01-01 16:09:05.49	21.61	5.04	-41.1	-42.5	19.4	0.00e+00	0	39	0	45088768	56	6099
2026-01-01 16:09:06.50	21.56	5.11	-41.2	-42.7	19.3	0.00e+00	6	39	0	47185920	56	6218
2026-01-01 16:09:07.51	21.52	5.17	-41.1	-42.5	19.5	0.00e+00	0	39	0	48234496	56	6078
2026-01-01 16:09:08.52	21.47	5.24	-41.0	-42.5	19.6	0.00e+00	92	39	0	50331648	56	6038
2026-01-01 16:09:09.53	21.42	5.31	-41.0	-42.5	19.6	0.00e+00	5	39	0	52428800	56	6035
2026-01-01 16:09:10.54	21.37	5.38	-41.2	-42.7	19.2	0.00e+00	92	39	0	54525952	56	6228
2026-01-01 16:09:11.55	21.32	5.45	-41.1	-42.5	19.7	0.00e+00	5	39	0	56623104	56	6073
2026-01-01 16:09:12.56	21.27	5.52	-41.1	-42.6	19.6	0.00e+00	86	39	0	57671680	56	6141
2026-01-01 16:09:13.57	21.22	5.59	-41.0	-42.4	19.6	0.00e+00	0	39	0	59768832	56	6028
2026-01-01 16:09:14.58	21.17	5.66	-40.9	-42.3	19.7	0.00e+00	0	39	0	61865984	56	5961
2026-01-01 16:09:15.59	21.12	5.73	-41.2	-42.6	19.5	0.00e+00	0	39	0	63963136	56	6169
2026-01-01 16:09:16.60	21.07	5.80	-40.9	-42.3	19.9	0.00e+00	0	39	0	66060288	56	5927
2026-01-01 16:09:17.61	21.02	5.87	-41.3	-42.9	19.3	0.00e+00	92	39	0	67108864	56	6325
2026-01-01 16:09:18.62	20.97	5.94	-40.9	-42.3	19.8	0.00e+00	86	39	0	69206016	56	5947
2026-01-01 16:09:19.63	20.92	6.01	-41.1	-42.5	19.6	0.00e+00	79	39	0	71303168	56	6076
2026-01-01 16:09:20.64	20.87	6.08	-41.2	-42.7	19.4	0.00e+00	86	39	0	73400320	56	6237
2026-01-01 16:09:21.65	20.82	6.15	-41.1	-42.5	19.6	0.00e+00	6	39	0	75497472	56	6090
2026-01-01 16:09:22.66	20.76	6.22	-40.8	-42.2	20.1	0.00e+00	0	39	0	76546048	56	5836
2026-01-01 16:09:23.67	20.71	6.29	-41.0	-42.4	19.8	0.00e+00	7	39	0	78643200	54	6734
2026-01-01 16:09:24.68	20.66	6.36	-40.9	-42.3	19.7	0.00e+00	90	39	0	80740352	54	6620
2026-01-01 16:09:25.69	20.61	6.44	-41.0	-42.4	19.9	0.00e+00	0	39	0	82837504	54	6723
2026-01-01 16:09:26.70	20.55	6.51	-40.8	-42.2	20.0	0.00e+00	92	39	0	84934656	54	6591
2026-01-01 16:09:27.70	20.50	6.58	-41.2	-42.7	19.5	0.00e+00	1	39	0	85983232	54	6962
2026-01-01 16:09:28.71	20.45	6.65	-40.8	-42.2	19.9	0.00e+00	6	39	0	88080384	54	6577
2026-01-01 16:09:29.72	20.39	6.72	-40.7	-42.0	20.1	0.00e+00	0	39	0	90177536	54	6432
2026-01-01 16:09:30.73	20.34	6.80	-40.8	-42.2	19.9	0.00e+00	6	39	0	92274688	54	6542
2026-01-01 16:09:31.74	20.29	6.87	-40.5	-41.9	20.3	0.00e+00	92	39	0	94371840	54	6328
2026-01-01 16:09:32.75	20.23	6.94	-40.7	-42.0	20.2	0.00e+00	81	39	0	96468992	54	6421
2026-01-01 16:09:33.76	20.18	7.01	-40.8	-42.2	20.0	0.00e+00	92	39	0	97517568	54	6556
2026-01-01 16:09:34.77	20.12	7.09	-41.0	-42.4	19.7	0.00e+00	0	39	0	99614720	54	6723
2026-01-01 16:09:35.78	20.06	7.16	-40.4	-41.7	20.5	0.00e+00	24	39	0	101711872	54	6207
2026-01-01 16:09:36.79	20.01	7.23	-40.3	-41.6	20.6	0.00e+00	81	39	0	103809024	54	6125
2026-01-01 16:09:37.80	19.95	7.31	-40.3	-41.5	20.6	0.00e+00	81	39	0	105906176	54	6095
2026-01-01 16:09:38.81	19.90	7.38	-40.3	-41.6	20.6	0.00e+00	70	39	0	106954752	54	6122
2026-01-01 16:09:39.82	19.84	7.46	-40.2	-41.4	20.7	0.00e+00	0	39	0	109051904	54	6009
2026-01-01 16:09:40.83	19.78	7.53	-40.4	-41.7	20.5	0.00e+00	92	39	0	111149056	54	6186
2026-01-01 16:09:41.84	19.72	7.60	-40.2	-41.4	20.7	0.00e+00	0	39	0	113246208	54	6024
2026-01-01 16:09:42.85	19.67	7.68	-40.2	-41.5	20.9	0.00e+00	88	39	0	115343360	54	6039
2026-01-01 16:09:43.86	19.61	7.75	-40.2	-41.4	20.8	0.00e+00	0	39	0	116391936	54	5985
2026-01-01 16:09:44.87	19.55	7.83	-40.2	-41.4	20.9	0.00e+00	0	39	0	118489088	54	5987
2026-01-01 16:09:45.88	19.49	7.90	-40.0	-41.2	21.0	0.00e+00	0	39	0	120586240	54	5851
2026-01-01 16:09:46.89	19.43	7.98	-40.2	-41.4	20.9	0.00e+00	0	39	0	122683392	54	5985
2026-01-01 16:09:47.90	19.37	8.06	-40.1	-41.3	20.8	0.00e+00	92	39	0	124780544	54	5961
2026-01-01 16:09:48.92	19.31	8.13	-39.8	-41.0	21.2	0.00e+00	0	39	0	125829120	54	5711
2026-01-01 16:09:49.92	19.25	8.21	-39.9	-41.1	21.1	0.00e+00	90	39	0	127926272	54	5777
2026-01-01 16:09:50.93	19.19	8.28	-39.8	-40.9	21.3	0.00e+00	0	39	0	130023424	52	6390
2026-01-01 16:09:51.94	19.13	8.36	-39.8	-41.0	21.3	0.00e+00	0	39	0	132120576	52	6415
2026-01-01 16:09:52.95	19.07	8.44	-39.8	-40.9	21.3	0.00e+00	0	39	0	134217728	52	6371
2026-01-01 16:09:53.96	19.01	8.51	-39.8	-41.0	21.3	0.00e+00	80	39	0	135266304	52	6415
2026-01-01 16:09:54.97	18.95	8.59	-40.0	-41.1	21.2	0.00e+00	79	39	0	137363456	52	6535
2026-01-01 16:09:55.98	18.89	8.67	-39.7	-40.8	21.4	0.00e+00	1	39	0	139460608	52	6310
2026-01-01 16:09:56.99	18.82	8.74	-39.8	-41.0	21.3	0.00e+00	90	39	0	141557760	52	6418
2026-01-01 16:09:58.00	18.76	8.82	-39.7	-40.9	21.4	0.00e+00	2	39	0	143654912	52	6332
2026-01-01 16:09:59.01	18.70	8.90	-39.8	-40.9	21.3	0.00e+00	0	39	0	144703488	52	6354
2026-01-01 16:10:00.02	18.63	8.98	-39.8	-41.0	21.4	0.00e+00	0	39	0	146800640	52	6401
2026-01-01 16:10:01.03	18.57	9.06	-39.8	-40.9	21.5	0.00e+00	80	39	0	148897792	52	6356
2026-01-01 16:10:02.04	18.51	9.13	-39.7	-40.9	21.4	0.00e+00	62	39	0	150994944	52	6336
2026-01-01 16:10:03.05	18.44	9.21	-39.7	-40.8	21.4	0.00e+00	0	39	0	153092096	52	6279
2026-01-01 16:10:04.06	18.38	9.29	-39.7	-40.8	21.5	0.00e+00	91	39	0	154140672	52	6288
2026-01-01 16:10:05.07	18.31	9.37	-39.8	-40.9	21.4	0.00e+00	0	39	0	156237824	52	6371
2026-01-01 16:10:06.08	18.24	9.45	-39.8	-41.0	21.4	0.00e+00	92	39	0	158334976	52	6424
2026-01-01 16:10:07.08	18.18	9.53	-40.1	-41.3	21.0	0.00e+00	0	39	0	160432128	52	6679
2026-01-01 16:10:08.10	18.11	9.61	-39.7	-40.9	21.4	0.00e+00	0	39	0	162529280	52	6358
2026-01-01 16:10:09.10	18.05	9.69	-39.8	-41.0	21.3	0.00e+00	2	39	0	164626432	52	6416
2026-01-01 16:10:10.12	17.98	9.77	-39.9	-41.1	21.1	0.00e+00	0	39	0	165675008	52	6535
2026-01-01 16:10:11.12	17.91	9.85	-39.7	-40.9	21.4	0.00e+00	92	39	0	167772160	52	6339
2026-01-01 16:10:12.13	17.84	9.93	-39.7	-40.8	21.5	0.00e+00	0	39	0	169869312	52	6301
2026-01-01 16:10:13.14	17.77	10.01	-39.8	-40.9	21.5	0.00e+00	92	39	0	171966464	52	6390
2026-01-01 16:10:14.15	17.71	10.09	-39.8	-40.9	21.4	0.00e+00	3	39	0	174063616	52	6390
2026-01-01 16:10:15.16	17.64	10.17	-39.9	-41.1	21.4	0.00e+00	3	39	0	175112192	52	6489
2026-01-01 16:10:16.17	17.57	10.25	-39.8	-40.9	21.4	0.00e+00	80	39	0	177209344	52	6388
2026-01-01 16:10:17.18	17.50	10.34	-39.7	-40.8	21.7	0.00e+00	79	39	0	179306496	52	6282
2026-01-01 16:10:18.19	17.43	10.42	-39.5	-40.6	21.7	0.00e+00	89	39	0	181403648	52	6156
2026-01-01 16:10:19.20	17.35	10.50	-39.6	-40.7	21.7	0.00e+00	0	39	0	182452224	52	6203
2026-01-01 16:10:20.20	17.28	10.58	-39.5	-40.6	21.8	0.00e+00	92	39	0	184549376	52	6132
2026-01-01 16:10:21.21	17.21	10.66	-39.3	-40.4	22.1	0.00e+00	0	39	0	186646528	52	5970
2026-01-01 16:10:22.22	17.14	10.75	-39.3	-40.4	22.0	0.00e+00	0	39	0	188743680	52	5989
2026-01-01 16:10:23.23	17.07	10.83	-39.4	-40.5	22.0	0.00e+00	0	39	0	190840832	52	6059
2026-01-01 16:10:24.24	16.99	10.91	-39.4	-40.4	21.9	0.00e+00	79	39	0	192937984	52	6019
2026-01-01 16:10:25.25	16.92	11.00	-39.3	-40.4	22.1	0.00e+00	77	39	0	193986560	52	5997
2026-01-01 16:10:26.26	16.85	11.08	-39.1	-40.1	22.3	0.00e+00	0	39	0	196083712	52	5823
2026-01-01 16:10:27.27	16.77	11.17	-39.2	-40.3	22.1	0.00e+00	92	39	0	198180864	52	5939
2026-01-01 16:10:28.28	16.70	11.25	-39.2	-40.2	22.3	0.00e+00	0	39	0	200278016	52	5860
2026-01-01 16:10:29.28	16.62	11.33	-39.1	-40.1	22.3	0.00e+00	92	39	0	202375168	52	5821
2026-01-01 16:10:30.29	16.55	11.42	-39.1	-40.1	22.3	0.00e+00	0	39	0	203423744	52	5802
2026-01-01 16:10:31.30	16.47	11.50	-39.2	-40.3	22.2	0.00e+00	0	39	0	205520896	52	5920
2026-01-01 16:10:32.31	16.39	11.59	-39.1	-40.2	22.2	0.00e+00	0	39	0	207618048	52	5839
2026-01-01 16:10:33.32	16.32	11.67	-39.1	-40.1	22.2	0.00e+00	0	39	0	209715200	52	5820
2026-01-01 16:10:34.33	16.24	11.76	-39.2	-40.2	22.2	0.00e+00	92	39	0	211812352	52	5865
2026-01-01 16:10:35.34	16.16	11.84	-39.1	-40.1	22.3	0.00e+00	0	39	0	212860928	52	5811
2026-01-01 16:10:36.35	16.08	11.93	-39.2	-40.3	22.2	0.00e+00	91	39	0	214958080	52	5910
2026-01-01 16:10:37.36	16.00	12.02	-39.1	-40.2	22.2	0.00e+00	3	39	0	217055232	52	5839
2026-01-01 16:10:38.37	15.92	12.10	-39.2	-40.3	22.2	0.00e+00	1	39	0	219152384	52	5919
2026-01-01 16:10:39.38	15.84	12.19	-39.1	-40.1	22.3	0.00e+00	2	39	0	221249536	52	5791
2026-01-01 16:10:40.39	15.76	12.28	-39.0	-40.1	22.4	0.00e+00	3	39	0	222298112	52	5763
2026-01-01 16:10:41.40	15.68	12.37	-39.1	-40.1	22.3	0.00e+00	3	39	0	224395264	52	5785
2026-01-01 16:10:42.41	15.60	12.45	-39.1	-40.1	22.3	0.00e+00	0	39	0	226492416	52	5800
2026-01-01 16:10:43.42	15.52	12.54	-39.0	-40.1	22.4	0.00e+00	92	39	0	228589568	52	5769
2026-01-01 16:10:44.43	15.44	12.63	-39.2	-40.3	22.2	0.00e+00	81	39	0	230686720	52	5928
2026-01-01 16:10:45.44	15.35	12.72	-39.1	-40.2	22.3	0.00e+00	9	39	0	231735296	52	5851
2026-01-01 16:10:46.44	15.27	12.81	-39.1	-40.1	22.4	0.00e+00	80	39	0	233832448	52	5783
2026-01-01 16:10:47.45	15.19	12.89	-39.1	-40.1	22.4	0.00e+00	0	39	0	235929600	52	5801
2026-01-01 16:10:48.46	15.10	12.98	-39.1	-40.1	22.3	0.00e+00	15	39	0	238026752	52	5816
2026-01-01 16:10:49.47	15.02	13.07	-39.2	-40.2	22.3	0.00e+00	2	39	0	240123904	52	5861
2026-01-01 16:10:50.48	14.93	13.16	-39.0	-40.1	22.4	0.00e+00	92	39	0	241172480	52	5774
2026-01-01 16:10:51.49	14.84	13.25	-39.2	-40.2	22.3	0.00e+00	0	39	0	243269632	52	5868
2026-01-01 16:10:52.49	14.76	13.34	-39.2	-40.2	22.3	0.00e+00	92	39	0	245366784	52	5878
2026-01-01 16:10:53.50	14.67	13.43	-39.1	-40.1	22.4	0.00e+00	5	39	0	247463936	52	5800
2026-01-01 16:10:54.51	14.58	13.52	-39.1	-40.2	22.4	0.00e+00	1	39	0	249561088	52	5845
2026-01-01 16:10:55.52	14.49	13.62	-39.1	-40.2	22.3	0.00e+00	5	39	0	250609664	52	5839
2026-01-01 16:10:56.53	14.41	13.71	-39.3	-40.3	22.2	0.00e+00	5	39	0	252706816	52	5933
2026-01-01 16:10:57.54	14.32	13.80	-39.1	-40.1	22.3	0.00e+00	90	39	0	254803968	52	5821
2026-01-01 16:10:58.55	14.23	13.89	-39.2	-40.2	22.2	0.00e+00	85	39	0	256901120	52	5860
2026-01-01 16:10:59.56	14.13	13.98	-39.2	-40.2	22.3	0.00e+00	92	39	0	258998272	52	5890
2026-01-01 16:11:00.57	14.04	14.08	-39.2	-40.2	22.3	0.00e+00	0	39	0	261095424	52	5861
2026-01-01 16:11:01.58	13.95	14.17	-39.1	-40.2	22.4	0.00e+00	83	39	0	262144000	52	5829
2026-01-01 16:11:02.59	13.86	14.26	-39.2	-40.2	22.3	0.00e+00	2	39	0	264241152	52	5869
2026-01-01 16:11:03.60	13.77	14.35	-39.2	-40.2	22.3	0.00e+00	85	39	0	266338304	52	5863
2026-01-01 16:11:04.60	13.67	14.45	-39.2	-40.3	22.3	0.00e+00	90	39	0	268435456	52	5900
2026-01-01 16:11:05.61	13.58	14.54	-39.2	-40.2	22.3	0.00e+00	0	39	0	270532608	52	5859
2026-01-01 16:11:06.62	13.48	14.64	-39.2	-40.2	22.3	0.00e+00	90	39	0	271581184	52	5855
2026-01-01 16:11:07.63	13.39	14.73	-39.2	-40.3	22.3	0.00e+00	0	39	0	273678336	52	5915
2026-01-01 16:11:08.64	13.29	14.82	-39.1	-40.1	22.4	0.00e+00	92	39	0	275775488	52	5798
2026-01-01 16:11:09.65	13.19	14.92	-39.2	-40.3	22.4	0.00e+00	6	39	0	277872640	52	5909
2026-01-01 16:11:10.67	13.10	15.02	-39.3	-40.3	22.3	0.00e+00	0	39	0	279969792	52	5942
2026-01-01 16:11:11.67	13.00	15.11	-39.3	-40.4	22.2	0.00e+00	0	39	0	281018368	52	5981
2026-01-01 16:11:12.68	12.90	15.21	-39.1	-40.2	22.4	0.00e+00	0	39	0	283115520	52	5846
2026-01-01 16:11:13.69	12.80	15.30	-39.2	-40.3	22.3	0.00e+00	91	39	0	285212672	52	5908
2026-01-01 16:11:14.70	12.70	15.40	-39.3	-40.4	22.1	0.00e+00	6	39	0	287309824	52	5989
2026-01-01 16:11:15.71	12.60	15.50	-39.2	-40.2	22.4	0.00e+00	92	39	0	289406976	52	5878
2026-01-01 16:11:16.72	12.50	15.59	-39.3	-40.3	22.3	0.00e+00	8	39	0	290455552	52	5938
2026-01-01 16:11:17.73	12.39	15.69	-39.1	-40.1	22.5	0.00e+00	5	39	0	292552704	52	5794
2026-01-01 16:11:18.74	12.29	15.79	-39.1	-40.1	22.5	0.00e+00	0	39	0	294649856	52	5816
2026-01-01 16:11:19.75	12.19	15.89	-39.2	-40.2	22.4	0.00e+00	4	39	0	296747008	52	5860
2026-01-01 16:11:20.76	12.08	15.98	-39.2	-40.2	22.4	0.00e+00	90	39	0	298844160	52	5847
2026-01-01 16:11:21.77	11.98	16.08	-39.0	-40.0	22.6	0.00e+00	4	39	0	299892736	52	5746
2026-01-01 16:11:22.78	11.87	16.18	-39.1	-40.1	22.6	0.00e+00	92	39	0	301989888	52	5783
2026-01-01 16:11:23.79	11.77	16.28	-39.2	-40.2	22.5	0.00e+00	81	39	0	304087040	52	5846
2026-01-01 16:11:24.80	11.66	16.38	-39.0	-40.0	22.7	0.00e+00	82	39	0	306184192	52	5731
2026-01-01 16:11:25.81	11.55	16.48	-39.0	-40.0	22.6	0.00e+00	0	39	0	308281344	52	5758
2026-01-01 16:11:26.82	11.44	16.58	-39.0	-40.0	22.6	0.00e+00	80	39	0	309329920	52	5752
2026-01-01 16:11:27.83	11.33	16.68	-39.2	-40.3	22.6	0.00e+00	82	39	0	311427072	52	5900
2026-01-01 16:11:28.84	11.22	16.78	-39.1	-40.1	22.4	0.00e+00	0	39	0	313524224	52	5821
2026-01-01 16:11:29.85	11.11	16.88	-39.4	-40.5	22.3	0.00e+00	92	39	0	315621376	52	6036
2026-01-01 16:11:30.86	11.00	16.98	-39.4	-40.4	22.2	0.00e+00	2	39	0	317718528	52	6020
2026-01-01 16:11:31.87	10.89	17.08	-39.1	-40.1	22.4	0.00e+00	0	39	0	318767104	52	5813
2026-01-01 16:11:32.88	10.77	17.19	-39.1	-40.1	22.2	0.00e+00	0	39	0	320864256	52	5820
2026-01-01 16:11:33.89	10.66	17.29	-38.8	-39.7	22.7	0.00e+00	0	39	0	322961408	52	5551
2026-01-01 16:11:34.90	10.54	17.39	-38.9	-39.9	22.7	0.00e+00	0	39	0	325058560	52	5668
2026-01-01 16:11:35.90	10.43	17.49	-38.9	-39.9	22.7	0.00e+00	0	39	0	327155712	52	5672
2026-01-01 16:11:36.92	10.31	17.60	-38.8	-39.8	22.8	0.00e+00	92	39	0	329252864	50	6290
2026-01-01 16:11:37.92	10.20	17.70	-38.9	-39.9	22.7	0.00e+00	0	39	0	330301440	50	6356
2026-01-01 16:11:38.93	10.08	17.80	-38.8	-39.8	22.9	0.00e+00	90	39	0	332398592	50	6255
2026-01-01 16:11:39.94	9.96	17.91	-38.9	-39.9	22.7	0.00e+00	2	39	0	334495744	50	6353
2026-01-01 16:11:40.95	9.84	18.01	-38.7	-39.6	23.0	0.00e+00	80	39	0	336592896	50	6148
2026-01-01 16:11:41.96	9.72	18.11	-38.7	-39.6	22.9	0.00e+00	0	39	0	338690048	50	6160
2026-01-01 16:11:42.97	9.60	18.22	-38.7	-39.7	23.0	0.00e+00	4	39	0	339738624	50	6176
2026-01-01 16:11:43.98	9.47	18.32	-38.9	-39.8	22.9	0.00e+00	92	39	0	341835776	50	6303
2026-01-01 16:11:44.99	9.35	18.43	-38.7	-39.6	23.0	0.00e+00	78	39	0	343932928	50	6165
2026-01-01 16:11:46.00	9.23	18.54	-38.7	-39.6	23.0	0.00e+00	92	39	0	346030080	50	6162
2026-01-01 16:11:47.01	9.10	18.64	-38.7	-39.7	23.0	0.00e+00	4	39	0	348127232	50	6189
2026-01-01 16:11:48.02	8.97	18.75	-38.7	-39.7	23.0	0.00e+00	82	39	0	349175808	50	6179
2026-01-01 16:11:49.03	8.85	18.86	-38.7	-39.7	22.9	0.00e+00	79	39	0	351272960	50	6220
2026-01-01 16:11:50.04	8.72	18.96	-38.7	-39.6	22.8	0.00e+00	75	39	0	353370112	50	6143
2026-01-01 16:11:51.05	8.59	19.07	-38.8	-39.8	23.0	0.00e+00	92	39	0	355467264	50	6258
2026-01-01 16:11:52.06	8.46	19.18	-38.8	-39.8	22.9	0.00e+00	0	39	0	357564416	50	6287
2026-01-01 16:11:53.07	8.33	19.29	-38.8	-39.8	23.0	0.00e+00	90	39	0	358612992	50	6268
2026-01-01 16:11:54.08	8.20	19.39	-38.8	-39.8	22.8	0.00e+00	0	39	0	360710144	50	6295
2026-01-01 16:11:55.09	8.07	19.50	-38.8	-39.8	22.9	0.00e+00	10	39	0	362807296	50	6256
2026-01-01 16:11:56.10	7.93	19.61	-38.8	-39.7	23.0	0.00e+00	0	39	0	364904448	50	6233
2026-01-01 16:11:57.11	7.80	19.72	-38.8	-39.8	22.9	0.00e+00	2	39	0	367001600	50	6279
2026-01-01 16:11:58.12	7.66	19.83	-38.8	-39.8	23.0	0.00e+00	0	39	0	368050176	50	6262
2026-01-01 16:11:59.12	7.53	19.94	-38.8	-39.8	22.9	0.00e+00	2	39	0	370147328	50	6283
2026-01-01 16:12:00.14	7.39	20.05	-38.8	-39.7	22.9	0.00e+00	92	39	0	372244480	50	6227
2026-01-01 16:12:01.15	7.25	20.16	-38.7	-39.7	23.0	0.00e+00	2	39	0	374341632	50	6198
2026-01-01 16:12:02.16	7.11	20.27	-38.7	-39.7	23.0	0.00e+00	75	39	0	376438784	50	6187
2026-01-01 16:12:03.17	6.97	20.38	-38.9	-39.8	22.9	0.00e+00	0	39	0	377487360	50	6316
2026-01-01 16:12:04.18	6.83	20.49	-39.0	-39.9	22.8	0.00e+00	81	39	0	379584512	50	6384
2026-01-01 16:12:05.19	6.69	20.61	-38.7	-39.7	22.9	0.00e+00	0	39	0	381681664	50	6206
2026-01-01 16:12:06.20	6.54	20.72	-39.0	-39.9	22.9	0.00e+00	7	39	0	383778816	50	6379
2026-01-01 16:12:07.21	6.40	20.83	-39.1	-40.1	22.7	0.00e+00	92	39	0	385875968	50	6492
2026-01-01 16:12:08.22	6.25	20.94	-38.9	-39.9	23.0	0.00e+00	74	39	0	386924544	50	6337
2026-01-01 16:12:09.23	6.10	21.06	-38.9	-39.8	22.9	0.00e+00	92	39	0	389021696	50	6314
2026-01-01 16:12:10.24	5.96	21.17	-39.0	-40.0	22.8	0.00e+00	0	39	0	391118848	50	6461
2026-01-01 16:12:11.25	5.81	21.28	-39.1	-40.0	22.8	0.00e+00	0	39	0	393216000	50	6457
2026-01-01 16:12:12.26	5.66	21.40	-39.2	-40.2	22.6	0.00e+00	0	39	0	395313152	50	6572
2026-01-01 16:12:13.27	5.50	21.51	-39.3	-40.3	22.5	0.00e+00	0	39	0	397410304	50	6674
2026-01-01 16:12:14.28	5.35	21.62	-39.2	-40.2	22.5	0.00e+00	90	39	0	398458880	50	6587
2026-01-01 16:12:15.29	5.20	21.74	-39.3	-40.3	22.5	0.00e+00	2	39	0	400556032	50	6649
2026-01-01 16:12:16.30	5.04	21.85	-39.3	-40.4	22.5	0.00e+00	92	39	0	402653184	50	6698
2026-01-01 16:12:17.31	4.89	21.97	-39.2	-40.2	22.6	0.00e+00	4	39	0	404750336	50	6580
2026-01-01 16:12:18.32	4.73	22.09	-39.3	-40.3	22.5	0.00e+00	0	39	0	406847488	50	6642
2026-01-01 16:12:19.33	4.57	22.20	-39.2	-40.2	22.6	0.00e+00	0	39	0	407896064	50	6547
2026-01-01 16:12:20.34	4.41	22.32	-39.4	-40.4	22.4	0.00e+00	0	39	0	409993216	50	6759
2026-01-01 16:12:21.35	4.25	22.43	-39.5	-40.6	22.2	0.00e+00	0	39	0	412090368	50	6872
2026-01-01 16:12:22.36	4.09	22.55	-39.5	-40.5	22.3	0.00e+00	5	39	0	414187520	50	6828
2026-01-01 16:12:23.37	3.92	22.67	-39.4	-40.4	22.4	0.00e+00	92	39	0	416284672	50	6757
2026-01-01 16:12:24.38	3.76	22.79	-39.3	-40.3	22.5	0.00e+00	6	39	0	417333248	50	6664
2026-01-01 16:12:25.39	3.59	22.90	-39.3	-40.4	22.5	0.00e+00	92	39	0	419430400	50	6698
2026-01-01 16:12:26.40	3.42	23.02	-39.4	-40.4	22.4	0.00e+00	0	39	0	421527552	50	6718
2026-01-01 16:12:27.41	3.26	23.14	-39.5	-40.5	22.4	0.00e+00	0	39	0	423624704	50	6813
2026-01-01 16:12:28.42	3.09	23.26	-39.5	-40.6	22.2	0.00e+00	0	39	0	425721856	50	6861
2026-01-01 16:12:29.43	2.91	23.38	-39.6	-40.7	22.2	0.00e+00	77	39	0	426770432	52	6195
2026-01-01 16:12:30.44	2.74	23.50	-39.6	-40.7	22.3	0.00e+00	90	39	0	428867584	52	6180
2026-01-01 16:12:31.45	2.57	23.61	-39.7	-40.8	22.2	0.00e+00	0	39	0	430964736	52	6284
2026-01-01 16:12:32.46	2.39	23.73	-39.4	-40.4	22.5	0.00e+00	92	39	0	433061888	52	5975
2026-01-01 16:12:33.47	2.22	23.85	-39.4	-40.4	22.5	0.00e+00	3	39	0	435159040	52	6000
2026-01-01 16:12:34.47	2.04	23.97	-39.2	-40.2	22.6	0.00e+00	7	39	0	436207616	52	5881
2026-01-01 16:12:35.48	1.86	24.09	-39.3	-40.3	22.6	0.00e+00	0	39	0	438304768	52	5927
2026-01-01 16:12:36.49	1.68	24.21	-39.2	-40.2	22.6	0.00e+00	5	39	0	440401920	52	5867
2026-01-01 16:12:37.50	1.50	24.33	-39.2	-40.2	22.6	0.00e+00	92	39	0	442499072	52	5857
2026-01-01 16:12:38.51	1.31	24.45	-39.2	-40.2	22.5	0.00e+00	5	39	0	444596224	52	5850
2026-01-01 16:12:39.52	1.13	24.58	-39.1	-40.1	22.7	0.00e+00	92	39	0	445644800	52	5794
2026-01-01 16:12:40.53	0.94	24.70	-39.0	-40.0	22.8	0.00e+00	6	39	0	447741952	52	5747
2026-01-01 16:12:41.54	0.75	24.82	-39.0	-40.0	22.8	0.00e+00	92	39	0	449839104	52	5740
2026-01-01 16:12:42.55	0.56	24.94	-39.0	-40.0	22.8	0.00e+00	0	39	0	451936256	52	5699
2026-01-01 16:12:43.56	0.37	25.06	-39.1	-40.1	22.7	0.00e+00	86	39	0	454033408	52	5805
2026-01-01 16:12:44.57	0.18	25.18	-39.1	-40.2	22.6	0.00e+00	0	39	0	455081984	52	5830
2026-01-01 16:12:45.58	359.99	25.31	-39.3	-40.3	22.6	0.00e+00	6	39	0	457179136	52	5917
2026-01-01 16:12:46.59	359.79	25.43	-39.6	-40.6	22.2	0.00e+00	92	39	0	459276288	52	6164
2026-01-01 16:12:47.60	359.59	25.55	-39.6	-40.7	22.3	0.00e+00	82	39	0	461373440	52	6185
2026-01-01 16:12:48.61	359.40	25.68	-39.4	-40.4	22.3	0.00e+00	91	39	0	463470592	52	6031
2026-01-01 16:12:49.62	359.19	25.80	-39.6	-40.6	22.3	0.00e+00	0	39	0	465567744	52	6167
2026-01-01 16:12:50.63	358.99	25.92	-39.6	-40.7	22.2	0.00e+00	0	39	0	466616320	52	6181
2026-01-01 16:12:51.64	358.79	26.05	-39.7	-40.7	22.1	0.00e+00	83	39	0	468713472	52	6234
2026-01-01 16:12:52.65	358.58	26.17	-39.6	-40.6	22.3	0.00e+00	85	39	0	470810624	52	6154
2026-01-01 16:12:53.66	358.38	26.29	-39.7	-40.7	22.1	0.00e+00	91	39	0	472907776	52	6228
2026-01-01 16:12:54.67	358.17	26.42	-39.8	-40.9	22.0	0.00e+00	6	39	0	475004928	52	6343
2026-01-01 16:12:55.68	357.96	26.54	-40.1	-41.2	21.7	0.00e+00	92	39	0	476053504	52	6552
2026-01-01 16:12:56.69	357.75	26.67	-39.8	-40.9	21.9	0.00e+00	0	39	0	478150656	52	6354
2026-01-01 16:12:57.70	357.53	26.79	-40.2	-41.3	21.6	0.00e+00	8	39	0	480247808	52	6633
2026-01-01 16:12:58.71	357.32	26.92	-40.2	-41.4	21.6	0.00e+00	0	39	0	482344960	52	6702
2026-01-01 16:12:59.71	357.10	27.04	-40.4	-41.6	21.4	0.00e+00	6	39	0	484442112	52	6854
2026-01-01 16:13:00.73	356.88	27.17	-40.7	-41.9	21.1	0.00e+00	0	39	0	485490688	52	7090
2026-01-01 16:13:01.74	356.66	27.29	-40.7	-41.9	21.1	0.00e+00	6	39	0	487587840	54	6359
2026-01-01 16:13:02.75	356.44	27.42	-40.9	-42.2	20.8	0.00e+00	92	39	0	489684992	54	6554
2026-01-01 16:13:03.76	356.22	27.54	-41.1	-42.4	20.6	0.00e+00	6	39	0	491782144	54	6702
2026-01-01 16:13:04.77	355.99	27.67	-41.3	-42.6	20.5	0.00e+00	74	39	0	493879296	54	6852
2026-01-01 16:13:05.78	355.76	27.79	-41.3	-42.6	20.4	0.00e+00	5	39	0	494927872	54	6922
2026-01-01 16:13:06.79	355.53	27.92	-41.3	-42.7	20.3	0.00e+00	77	39	0	497025024	54	6935
2026-01-01 16:13:07.80	355.30	28.04	-41.3	-42.7	20.3	0.00e+00	0	39	0	499122176	54	6948
2026-01-01 16:13:08.80	355.07	28.17	-41.4	-42.7	20.3	0.00e+00	74	39	0	501219328	54	7007
2026-01-01 16:13:09.81	354.84	28.29	-41.4	-42.7	20.2	0.00e+00	92	39	0	503316480	54	6961
2026-01-01 16:13:10.82	354.60	28.42	-41.4	-42.7	20.3	0.00e+00	0	39	0	504365056	54	7000
2026-01-01 16:13:11.83	354.36	28.54	-41.4	-42.7	20.3	0.00e+00	92	39	0	506462208	54	6978
2026-01-01 16:13:12.84	354.12	28.67	-41.6	-42.9	20.2	0.00e+00	0	39	0	508559360	54	7139
2026-01-01 16:13:13.85	353.88	28.79	-41.4	-42.8	20.1	0.00e+00	0	39	0	510656512	54	7041
2026-01-01 16:13:14.86	353.64	28.92	-41.4	-42.7	20.2	0.00e+00	0	39	0	512753664	54	6981
2026-01-01 16:13:15.87	353.39	29.04	-41.4	-42.8	20.3	0.00e+00	0	39	0	513802240	54	7017
2026-01-01 16:13:16.87	353.14	29.17	-41.4	-42.7	20.3	0.00e+00	90	39	0	515899392	54	7001
2026-01-01 16:13:17.89	352.89	29.30	-41.3	-42.6	20.4	0.00e+00	0	39	0	517996544	54	6893
2026-01-01 16:13:18.89	352.64	29.42	-41.5	-42.8	20.3	0.00e+00	92	39	0	520093696	54	7073
2026-01-01 16:13:19.90	352.39	29.54	-41.5	-42.8	20.1	0.00e+00	7	39	0	522190848	54	7060
2026-01-01 16:13:20.91	352.13	29.67	-41.5	-42.9	20.1	0.00e+00	6	39	0	523239424	54	7092
2026-01-01 16:13:21.92	351.87	29.79	-41.7	-43.1	20.0	0.00e+00	2	39	0	525336576	56	6475
2026-01-01 16:13:22.93	351.61	29.92	-41.8	-43.3	19.9	0.00e+00	3	39	0	527433728	56	6634
2026-01-01 16:13:23.94	351.35	30.04	-41.7	-43.1	20.0	0.00e+00	47	39	0	529530880	56	6498
2026-01-01 16:13:24.95	351.09	30.17	-41.8	-43.3	19.8	0.00e+00	6	39	0	531628032	56	6637
2026-01-01 16:13:25.96	350.82	30.29	-42.1	-43.6	19.6	0.00e+00	92	39	0	533725184	56	6864
2026-01-01 16:13:26.97	350.55	30.42	-42.2	-43.8	19.3	0.00e+00	75	39	0	534773760	56	7054
2026-01-01 16:13:27.98	350.28	30.54	-42.3	-43.9	19.2	0.00e+00	92	39	0	536870912	56	7126
2026-01-01 16:13:28.99	350.01	30.67	-42.2	-43.8	19.4	0.00e+00	74	39	0	538968064	56	7023
2026-01-01 16:13:30.00	349.73	30.79	-42.0	-43.5	19.6	0.00e+00	0	40	0	541065216	56	6823
2026-01-01 16:13:31.01	349.46	30.91	-41.8	-43.2	20.0	0.00e+00	2	39	0	543162368	56	6577
2026-01-01 16:13:32.02	349.18	31.04	-41.7	-43.2	20.0	0.00e+00	74	39	0	544210944	56	6545
2026-01-01 16:13:33.04	348.89	31.16	-41.7	-43.1	20.1	0.00e+00	92	39	0	546308096	56	6519
2026-01-01 16:13:34.04	348.61	31.28	-41.7	-43.1	20.1	0.00e+00	0	39	0	548405248	56	6483
2026-01-01 16:13:35.05	348.33	31.40	-41.3	-42.6	20.5	0.00e+00	92	39	0	550502400	56	6130
2026-01-01 16:13:36.06	348.04	31.53	-41.5	-42.8	20.3	0.00e+00	0	39	0	552599552	56	6262
2026-01-01 16:13:37.07	347.75	31.65	-41.2	-42.5	20.8	0.00e+00	0	39	0	553648128	56	6051
2026-01-01 16:13:38.08	347.46	31.77	-41.3	-42.6	20.6	0.00e+00	0	39	0	555745280	56	6107
2026-01-01 16:13:39.09	347.16	31.89	-41.5	-42.8	20.5	0.00e+00	0	39	0	557842432	56	6265
2026-01-01 16:13:40.10	346.87	32.01	-41.1	-42.3	20.8	0.00e+00	77	39	0	559939584	56	5931
2026-01-01 16:13:41.10	346.57	32.13	-41.1	-42.3	20.8	0.00e+00	7	39	0	562036736	56	5921
2026-01-01 16:13:42.11	346.27	32.25	-41.2	-42.4	20.8	0.00e+00	92	39	0	563085312	56	6031
2026-01-01 16:13:43.12	345.97	32.37	-41.2	-42.5	20.6	0.00e+00	0	39	0	565182464	56	6068
2026-01-01 16:13:44.13	345.66	32.49	-41.4	-42.7	20.5	0.00e+00	21	39	0	567279616	56	6204
2026-01-01 16:13:45.14	345.35	32.61	-41.5	-42.9	20.3	0.00e+00	0	39	0	569376768	56	6348
2026-01-01 16:13:46.15	345.04	32.73	-41.7	-43.0	20.1	0.00e+00	0	39	0	571473920	56	6459
2026-01-01 16:13:47.16	344.73	32.84	-41.7	-43.0	20.2	0.00e+00	92	39	0	572522496	56	6454
2026-01-01 16:13:48.17	344.42	32.96	-41.9	-43.3	19.9	0.00e+00	7	39	0	574619648	56	6670
2026-01-01 16:13:49.18	344.10	33.08	-42.0	-43.4	19.8	0.00e+00	92	39	0	576716800	56	6768
2026-01-01 16:13:50.19	343.78	33.19	-41.9	-43.3	19.8	0.00e+00	73	39	0	578813952	56	6691
2026-01-01 16:13:51.20	343.46	33.31	-41.8	-43.2	19.8	0.00e+00	77	40	0	580911104	56	6614
2026-01-01 16:13:52.21	343.14	33.43	-42.0	-43.4	19.7	0.00e+00	79	39	0	581959680	56	6733
2026-01-01 16:13:53.22	342.81	33.54	-42.2	-43.7	19.5	0.00e+00	74	39	0	584056832	56	6954
2026-01-01 16:13:54.23	342.48	33.65	-42.4	-44.0	19.3	0.00e+00	0	39	0	586153984	56	7171
2026-01-01 16:13:55.24	342.15	33.77	-42.5	-44.1	19.2	0.00e+00	0	39	0	588251136	56	7270
2026-01-01 16:13:56.25	341.82	33.88	-42.5	-44.0	19.1	0.00e+00	91	39	0	590348288	56	7231
2026-01-01 16:13:57.26	341.48	33.99	-42.4	-43.9	19.3	0.00e+00	0	39	0	591396864	56	7163
2026-01-01 16:13:58.27	341.14	34.10	-42.6	-44.2	19.0	0.00e+00	91	39	0	593494016	56	7378
2026-01-01 16:13:59.28	340.80	34.21	-42.7	-44.4	18.7	0.00e+00	0	40	0	595591168	58	6708
2026-01-01 16:14:00.29	340.46	34.32	-43.1	-44.8	18.4	0.00e+00	0	39	0	597688320	58	7088
2026-01-01 16:14:01.30	340.12	34.43	-43.4	-45.2	18.0	0.00e+00	0	39	0	599785472	58	7390
2026-01-01 16:14:02.31	339.77	34.54	-43.7	-45.6	17.6	0.00e+00	0	39	0	601882624	58	7716
2026-01-01 16:14:03.32	339.42	34.64	-43.3	-45.1	18.1	0.00e+00	92	39	0	602931200	58	7258
2026-01-01 16:14:04.33	339.07	34.75	-43.6	-45.6	17.7	0.00e+00	0	39	0	605028352	58	7686
2026-01-01 16:14:05.34	338.71	34.85	-43.5	-45.4	17.6	0.00e+00	91	39	0	607125504	58	7557
2026-01-01 16:14:06.35	338.36	34.96	-43.6	-45.5	17.8	0.00e+00	0	39	0	609222656	58	7602
2026-01-01 16:14:07.36	338.00	35.06	-43.4	-45.2	18.0	0.00e+00	31	39	0	611319808	58	7419
2026-01-01 16:14:08.37	337.64	35.16	-42.8	-44.5	18.7	0.00e+00	80	39	0	612368384	58	6775
2026-01-01 16:14:09.38	337.28	35.27	-42.7	-44.3	18.9	0.00e+00	81	39	0	614465536	58	6628
2026-01-01 16:14:10.39	336.91	35.37	-42.5	-44.1	19.1	0.00e+00	91	39	0	616562688	58	6466
2026-01-01 16:14:11.40	336.54	35.47	-42.7	-44.3	19.0	0.00e+00	0	39	0	618659840	58	6653
2026-01-01 16:14:12.41	336.17	35.56	-42.5	-44.1	19.2	0.00e+00	91	39	0	620756992	58	6502
2026-01-01 16:14:13.42	335.80	35.66	-42.4	-44.0	19.2	0.00e+00	73	39	0	621805568	58	6431
2026-01-01 16:14:14.43	335.43	35.76	-42.2	-43.7	19.4	0.00e+00	91	39	0	623902720	58	6227
2026-01-01 16:14:15.45	335.05	35.85	-41.9	-43.4	19.7	0.00e+00	0	39	0	625999872	58	5986
2026-01-01 16:14:16.46	334.67	35.95	-41.7	-43.0	19.9	0.00e+00	6	39	0	628097024	56	6455
2026-01-01 16:14:17.47	334.29	36.04	-41.7	-43.1	20.0	0.00e+00	0	39	0	630194176	56	6507
2026-01-01 16:14:18.48	333.90	36.13	-41.8	-43.2	20.0	0.00e+00	6	39	0	631242752	56	6570
2026-01-01 16:14:19.48	333.52	36.22	-41.5	-42.8	20.3	0.00e+00	92	39	0	633339904	56	6316
2026-01-01 16:14:20.49	333.13	36.31	-41.2	-42.5	20.6	0.00e+00	0	39	0	635437056	56	6072
2026-01-01 16:14:21.50	332.74	36.40	-40.7	-41.8	21.3	0.00e+00	91	39	0	637534208	56	5612
2026-01-01 16:14:22.51	332.35	36.48	-40.3	-41.4	21.7	0.00e+00	6	39	0	639631360	54	6004
2026-01-01 16:14:23.52	331.96	36.57	-40.2	-41.3	21.7	0.00e+00	5	39	0	640679936	54	5959
2026-01-01 16:14:24.53	331.56	36.65	-39.8	-40.9	22.0	0.00e+00	0	39	0	642777088	54	5649
2026-01-01 16:14:25.54	331.16	36.74	-39.7	-40.8	22.2	0.00e+00	0	39	0	644874240	52	6255
2026-01-01 16:14:26.55	330.76	36.82	-39.6	-40.6	22.4	0.00e+00	91	39	0	646971392	52	6141
2026-01-01 16:14:27.56	330.36	36.90	-39.3	-40.2	22.7	0.00e+00	2	39	0	649068544	52	5894
2026-01-01 16:14:28.57	329.96	36.98	-39.3	-40.3	22.7	0.00e+00	92	39	0	650117120	52	5938
2026-01-01 16:14:29.58	329.55	37.05	-39.3	-40.2	22.7	0.00e+00	79	39	0	652214272	52	5888
2026-01-01 16:14:30.59	329.14	37.13	-38.9	-39.8	23.1	0.00e+00	80	39	0	654311424	52	5617
2026-01-01 16:14:31.60	328.73	37.20	-38.9	-39.9	23.0	0.00e+00	80	39	0	656408576	52	5637
2026-01-01 16:14:32.61	328.32	37.27	-38.8	-39.7	23.1	0.00e+00	84	39	0	658505728	52	5537
2026-01-01 16:14:33.62	327.91	37.34	-38.6	-39.5	23.3	0.00e+00	0	39	0	659554304	50	6056
2026-01-01 16:14:34.63	327.49	37.41	-38.4	-39.3	23.4	0.00e+00	84	39	0	661651456	50	5963
2026-01-01 16:14:35.64	327.08	37.48	-38.5	-39.4	23.4	0.00e+00	90	39	0	663748608	50	6027
2026-01-01 16:14:36.65	326.66	37.55	-38.2	-39.1	23.7	0.00e+00	85	39	0	665845760	50	5794
2026-01-01 16:14:37.66	326.24	37.61	-38.3	-39.2	23.7	0.00e+00	91	39	0	667942912	50	5843
2026-01-01 16:14:38.67	325.82	37.67	-38.4	-39.3	23.5	0.00e+00	7	39	0	670040064	50	5940
2026-01-01 16:14:39.68	325.39	37.74	-38.3	-39.2	23.5	0.00e+00	0	39	0	671088640	50	5887
2026-01-01 16:14:40.69	324.97	37.80	-38.3	-39.2	23.6	0.00e+00	0	39	0	673185792	50	5856
2026-01-01 16:14:41.69	324.54	37.85	-38.3	-39.2	23.7	0.00e+00	7	39	0	675282944	50	5881
2026-01-01 16:14:42.71	324.11	37.91	-38.1	-39.0	23.8	0.00e+00	92	39	0	677380096	50	5698
2026-01-01 16:14:43.72	323.68	37.96	-38.2	-39.1	23.8	0.00e+00	6	39	0	679477248	50	5805
2026-01-01 16:14:44.73	323.25	38.02	-38.0	-38.8	23.9	0.00e+00	92	39	0	680525824	50	5611
2026-01-01 16:14:45.73	322.82	38.07	-37.8	-38.7	23.9	0.00e+00	6	39	0	682622976	50	5538
2026-01-01 16:14:46.74	322.39	38.12	-37.8	-38.6	24.1	0.00e+00	8	39	0	684720128	50	5480
2026-01-01 16:14:47.75	321.95	38.16	-37.5	-38.3	24.4	0.00e+00	78	39	0	686817280	48	5946
2026-01-01 16:14:48.76	321.52	38.21	-37.8	-38.6	24.1	0.00e+00	8	39	0	688914432	48	6172
2026-01-01 16:14:49.77	321.08	38.25	-38.0	-38.8	23.9	0.00e+00	92	39	0	689963008	48	6308
2026-01-01 16:14:50.78	320.64	38.29	-37.9	-38.8	23.9	0.00e+00	6	39	0	692060160	48	6256
2026-01-01 16:14:51.79	320.20	38.33	-37.7	-38.5	24.1	0.00e+00	91	39	0	694157312	48	6100
2026-01-01 16:14:52.80	319.76	38.37	-37.8	-38.7	24.0	0.00e+00	0	39	0	696254464	48	6219
2026-01-01 16:14:53.81	319.32	38.41	-37.8	-38.7	23.8	0.00e+00	73	39	0	698351616	48	6231
2026-01-01 16:14:54.82	318.87	38.44	-37.8	-38.7	24.1	0.00e+00	0	39	0	699400192	48	6206
2026-01-01 16:14:55.83	318.43	38.47	-37.5	-38.3	24.4	0.00e+00	73	39	0	701497344	48	5919
2026-01-01 16:14:56.84	317.99	38.50	-37.3	-38.1	24.5	0.00e+00	61	39	0	703594496	48	5805
2026-01-01 16:14:57.85	317.54	38.53	-37.2	-38.0	24.6	0.00e+00	0	39	0	705691648	48	5759
2026-01-01 16:14:58.86	317.09	38.56	-37.1	-37.9	24.6	0.00e+00	92	39	0	707788800	48	5664
2026-01-01 16:14:59.87	316.65	38.58	-37.4	-38.2	24.6	0.00e+00	2	39	0	708837376	48	5872
2026-01-01 16:15:00.88	316.20	38.60	-37.4	-38.2	24.5	0.00e+00	91	39	0	710934528	48	5892
2026-01-01 16:15:01.89	315.75	38.62	-37.4	-38.2	24.5	0.00e+00	0	39	0	713031680	48	5867
2026-01-01 16:15:02.90	315.30	38.64	-37.5	-38.4	24.2	0.00e+00	2	39	0	715128832	48	5988
2026-01-01 16:15:03.91	314.85	38.66	-37.6	-38.5	24.2	0.00e+00	0	39	0	717225984	48	6041
2026-01-01 16:15:04.92	314.40	38.67	-37.9	-38.8	24.0	0.00e+00	1	39	0	718274560	48	6277
2026-01-01 16:15:05.93	313.95	38.69	-37.9	-38.7	24.0	0.00e+00	92	39	0	720371712	48	6231
2026-01-01 16:15:06.94	313.50	38.70	-38.1	-39.0	23.7	0.00e+00	2	39	0	722468864	48	6449
2026-01-01 16:15:07.95	313.05	38.70	-38.4	-39.3	23.6	0.00e+00	92	39	0	724566016	48	6632
2026-01-01 16:15:08.96	312.60	38.71	-38.6	-39.5	23.4	0.00e+00	1	39	0	726663168	48	6838
2026-01-01 16:15:09.97	312.15	38.72	-38.5	-39.4	23.5	0.00e+00	78	39	0	727711744	48	6730
2026-01-01 16:15:10.98	311.70	38.72	-38.8	-39.7	23.1	0.00e+00	0	39	0	729808896	50	6242
2026-01-01 16:15:11.99	311.25	38.72	-38.8	-39.8	23.1	0.00e+00	74	39	0	731906048	50	6281
2026-01-01 16:15:13.00	310.80	38.72	-39.0	-40.0	22.9	0.00e+00	59	39	0	734003200	50	6406
2026-01-01 16:15:14.01	310.34	38.71	-39.2	-40.2	22.6	0.00e+00	74	39	0	736100352	50	6572
2026-01-01 16:15:15.02	309.89	38.71	-39.5	-40.6	22.4	0.00e+00	92	39	0	738197504	50	6853
2026-01-01 16:15:16.03	309.44	38.70	-39.8	-40.8	22.1	0.00e+00	76	39	0	739246080	52	6314
2026-01-01 16:15:17.04	308.99	38.69	-39.8	-40.9	22.1	0.00e+00	0	39	0	741343232	52	6348
2026-01-01 16:15:18.04	308.55	38.68	-39.8	-40.8	22.2	0.00e+00	0	39	0	743440384	52	6307
2026-01-01 16:15:19.05	308.10	38.66	-39.7	-40.8	22.3	0.00e+00	0	39	0	745537536	52	6255
2026-01-01 16:15:20.06	307.65	38.65	-39.6	-40.6	22.4	0.00e+00	92	39	0	747634688	52	6156
2026-01-01 16:15:21.07	307.20	38.63	-39.6	-40.7	22.3	0.00e+00	0	39	0	748683264	52	6179
2026-01-01 16:15:22.08	306.75	38.61	-39.6	-40.6	22.4	0.00e+00	92	39	0	750780416	52	6147
2026-01-01 16:15:23.09	306.30	38.59	-39.9	-40.9	22.0	0.00e+00	0	39	0	752877568	52	6385
2026-01-01 16:15:24.10	305.85	38.56	-40.0	-41.1	21.9	0.00e+00	92	39	0	754974720	52	6508
2026-01-01 16:15:25.11	305.41	38.54	-40.3	-41.4	21.7	0.00e+00	2	39	0	757071872	52	6695
2026-01-01 16:15:26.12	304.96	38.51	-39.9	-41.0	22.0	0.00e+00	7	39	0	758120448	52	6428
2026-01-01 16:15:27.13	304.52	38.48	-40.0	-41.0	22.0	0.00e+00	0	39	0	760217600	52	6460
2026-01-01 16:15:28.14	304.07	38.45	-40.2	-41.3	21.8	0.00e+00	8	39	0	762314752	52	6690
2026-01-01 16:15:29.15	303.63	38.42	-40.7	-41.8	20.4	0.00e+00	92	39	0	764411904	52	7081
2026-01-01 16:15:30.16	303.19	38.38	-40.6	-41.7	21.4	0.00e+00	2	39	0	766509056	54	6199
2026-01-01 16:15:31.17	302.74	38.34	-40.6	-41.7	21.4	0.00e+00	32	39	0	767557632	54	6240
2026-01-01 16:15:32.18	302.30	38.30	-40.7	-41.8	21.3	0.00e+00	75	39	0	769654784	54	6300
2026-01-01 16:15:33.18	301.87	38.26	-40.9	-42.1	21.0	0.00e+00	79	39	0	771751936	54	6505
2026-01-01 16:15:34.19	301.43	38.22	-40.8	-42.0	21.1	0.00e+00	80	39	0	773849088	54	6429
2026-01-01 16:15:35.20	300.99	38.17	-40.6	-41.8	21.2	0.00e+00	0	39	0	775946240	54	6260
2026-01-01 16:15:36.21	300.56	38.13	-40.6	-41.8	21.3	0.00e+00	92	39	0	776994816	54	6259
2026-01-01 16:15:37.22	300.12	38.08	-40.8	-42.0	21.1	0.00e+00	79	39	0	779091968	54	6409
2026-01-01 16:15:38.23	299.69	38.03	-40.9	-42.1	21.0	0.00e+00	92	39	0	781189120	54	6533
2026-01-01 16:15:39.24	299.26	37.98	-41.2	-42.4	20.7	0.00e+00	0	39	0	783286272	54	6759
2026-01-01 16:15:40.25	298.83	37.92	-41.6	-42.9	20.3	0.00e+00	53	39	0	785383424	54	7118
2026-01-01 16:15:41.26	298.40	37.87	-41.8	-43.2	20.1	0.00e+00	0	39	0	786432000	56	6541
2026-01-01 16:15:42.27	297.97	37.81	-41.6	-42.9	20.3	0.00e+00	2	39	0	788529152	56	6343
2026-01-01 16:15:43.28	297.54	37.75	-41.3	-42.6	20.7	0.00e+00	88	39	0	790626304	56	6108
2026-01-01 16:15:44.29	297.12	37.69	-41.3	-42.6	20.8	0.00e+00	0	39	0	792723456	56	6116
2026-01-01 16:15:45.30	296.70	37.63	-41.0	-42.2	21.0	0.00e+00	92	39	0	794820608	56	5871
2026-01-01 16:15:46.31	296.27	37.56	-40.9	-42.1	21.1	0.00e+00	0	39	0	795869184	56	5828
2026-01-01 16:15:47.32	295.85	37.50	-40.6	-41.8	21.4	0.00e+00	0	39	0	797966336	56	5570
2026-01-01 16:15:48.33	295.44	37.43	-40.6	-41.8	21.3	0.00e+00	2	39	0	800063488	54	6259
2026-01-01 16:15:49.34	295.02	37.36	-40.6	-41.7	21.4	0.00e+00	7	39	0	802160640	54	6238
2026-01-01 16:15:50.35	294.61	37.29	-40.4	-41.5	21.6	0.00e+00	0	39	0	804257792	54	6068
2026-01-01 16:15:51.36	294.19	37.22	-40.5	-41.6	21.5	0.00e+00	74	39	0	806354944	54	6128
2026-01-01 16:15:52.37	293.78	37.15	-40.2	-41.3	21.8	0.00e+00	92	39	0	807403520	54	5938
2026-01-01 16:15:53.38	293.37	37.07	-40.2	-41.3	21.8	0.00e+00	4	39	0	809500672	54	5919
2026-01-01 16:15:54.39	292.97	36.99	-39.7	-40.8	22.3	0.00e+00	92	39	0	811597824	54	5570
2026-01-01 16:15:55.40	292.56	36.92	-39.2	-40.2	22.8	0.00e+00	0	39	0	813694976	52	5860
2026-01-01 16:15:56.41	292.16	36.84	-39.1	-40.1	22.9	0.00e+00	75	39	0	815792128	52	5814
2026-01-01 16:15:57.42	291.76	36.76	-39.1	-40.1	22.9	0.00e+00	75	39	0	816840704	52	5779
2026-01-01 16:15:58.43	291.36	36.67	-38.6	-39.6	23.4	0.00e+00	76	39	0	818937856	50	6115
2026-01-01 16:15:59.44	290.96	36.59	-38.6	-39.5	23.3	0.00e+00	91	39	0	821035008	50	6069
2026-01-01 16:16:00.45	290.57	36.50	-38.4	-39.3	23.6	0.00e+00	0	39	0	823132160	50	5909
2026-01-01 16:16:01.46	290.17	36.42	-38.4	-39.3	23.6	0.00e+00	92	39	0	825229312	50	5935
2026-01-01 16:16:02.47	289.78	36.33	-38.2	-39.1	23.8	0.00e+00	6	39	0	826277888	50	5804
2026-01-01 16:16:03.48	289.39	36.24	-38.1	-39.0	23.9	0.00e+00	0	39	0	828375040	50	5717
2026-01-01 16:16:04.49	289.01	36.15	-38.0	-38.9	23.9	0.00e+00	5	39	0	830472192	50	5674
2026-01-01 16:16:05.49	288.63	36.06	-38.0	-38.9	23.8	0.00e+00	0	39	0	832569344	50	5649
2026-01-01 16:16:06.50	288.24	35.97	-38.1	-39.0	23.9	0.00e+00	65	39	0	834666496	50	5699
2026-01-01 16:16:07.51	287.86	35.87	-37.7	-38.6	24.2	0.00e+00	5	39	0	835715072	50	5448
2026-01-01 16:16:08.52	287.49	35.78	-38.0	-38.8	23.9	0.00e+00	92	39	0	837812224	48	6314
2026-01-01 16:16:09.53	287.11	35.68	-38.3	-39.2	23.6	0.00e+00	6	39	0	839909376	48	6583
2026-01-01 16:16:10.54	286.74	35.59	-38.5	-39.4	23.4	0.00e+00	6	39	0	842006528	48	6736
2026-01-01 16:16:11.55	286.37	35.49	-38.5	-39.4	23.4	0.00e+00	80	39	0	844103680	48	6766
2026-01-01 16:16:12.56	286.00	35.39	-38.8	-39.7	23.3	0.00e+00	5	39	0	845152256	48	6952
2026-01-01 16:16:13.57	285.63	35.29	-38.9	-39.8	22.9	0.00e+00	0	39	0	847249408	50	6299
2026-01-01 16:16:14.58	285.27	35.19	-39.0	-40.0	22.9	0.00e+00	82	39	0	849346560	50	6434
2026-01-01 16:16:15.59	284.90	35.08	-39.1	-40.1	22.9	0.00e+00	90	39	0	851443712	50	6480
2026-01-01 16:16:16.60	284.54	34.98	-39.2	-40.2	22.8	0.00e+00	81	39	0	853540864	50	6561
2026-01-01 16:16:17.61	284.19	34.88	-39.5	-40.5	22.5	0.00e+00	92	39	0	854589440	50	6814
2026-01-01 16:16:18.62	283.83	34.77	-39.5	-40.6	22.5	0.00e+00	80	39	0	856686592	50	6850
2026-01-01 16:16:19.63	283.48	34.67	-39.5	-40.5	22.5	0.00e+00	0	39	0	858783744	50	6783
2026-01-01 16:16:20.64	283.13	34.56	-39.6	-40.6	22.5	0.00e+00	83	39	0	860880896	50	6861
2026-01-01 16:16:21.65	282.78	34.45	-39.6	-40.7	22.3	0.00e+00	6	39	0	862978048	50	6940
2026-01-01 16:16:22.66	282.43	34.34	-39.8	-40.9	22.1	0.00e+00	92	39	0	864026624	52	6331
2026-01-01 16:16:23.67	282.09	34.23	-39.8	-40.8	22.3	0.00e+00	0	39	0	866123776	52	6278
2026-01-01 16:16:24.68	281.75	34.12	-39.6	-40.6	22.4	0.00e+00	90	39	0	868220928	52	6137
2026-01-01 16:16:25.69	281.41	34.01	-39.5	-40.5	22.5	0.00e+00	8	39	0	870318080	52	6100
2026-01-01 16:16:26.70	281.07	33.90	-39.6	-40.7	22.4	0.00e+00	6	39	0	872415232	52	6185
2026-01-01 16:16:27.71	280.74	33.79	-39.7	-40.7	22.2	0.00e+00	7	39	0	874512384	52	6233
2026-01-01 16:16:28.72	280.41	33.67	-39.9	-41.0	22.1	0.00e+00	7	39	0	875560960	52	6395
2026-01-01 16:16:29.73	280.08	33.56	-40.2	-41.3	21.8	0.00e+00	0	39	0	877658112	52	6622
2026-01-01 16:16:30.74	279.75	33.45	-40.3	-41.4	21.6	0.00e+00	8	39	0	879755264	52	6739
2026-01-01 16:16:31.74	279.43	33.33	-40.2	-41.3	21.8	0.00e+00	92	39	0	881852416	52	6635
2026-01-01 16:16:32.75	279.10	33.22	-40.1	-41.2	21.8	0.00e+00	79	39	0	883949568	52	6560
2026-01-01 16:16:33.76	278.78	33.10	-40.1	-41.2	21.9	0.00e+00	61	39	0	884998144	52	6545
2026-01-01 16:16:34.77	278.46	32.98	-39.9	-41.0	22.1	0.00e+00	79	39	0	887095296	52	6405
2026-01-01 16:16:35.78	278.15	32.87	-39.9	-40.9	22.1	0.00e+00	80	39	0	889192448	52	6365
2026-01-01 16:16:36.79	277.84	32.75	-39.9	-40.9	22.2	0.00e+00	0	39	0	891289600	52	6349
2026-01-01 16:16:37.80	277.52	32.63	-40.2	-41.3	21.8	0.00e+00	80	39	0	893386752	52	6625
2026-01-01 16:16:38.81	277.21	32.51	-40.1	-41.2	21.9	0.00e+00	90	39	0	894435328	52	6557
2026-01-01 16:16:39.82	276.91	32.39	-40.2	-41.3	21.6	0.00e+00	82	39	0	896532480	52	6618
2026-01-01 16:16:40.83	276.60	32.27	-40.4	-41.6	21.6	0.00e+00	91	39	0	898629632	52	6861
2026-01-01 16:16:41.84	276.30	32.15	-40.6	-41.7	21.3	0.00e+00	0	39	0	900726784	52	6974
2026-01-01 16:16:42.85	276.00	32.03	-40.7	-41.9	21.3	0.00e+00	0	39	0	902823936	52	7103
2026-01-01 16:16:43.86	275.70	31.91	-40.7	-41.8	21.3	0.00e+00	0	39	0	903872512	52	7087
2026-01-01 16:16:44.87	275.41	31.79	-40.8	-42.0	21.1	0.00e+00	0	39	0	905969664	52	7189
2026-01-01 16:16:45.88	275.11	31.67	-40.8	-42.0	21.0	0.00e+00	90	39	0	908066816	54	6460
2026-01-01 16:16:46.88	274.83	31.55	-40.9	-42.1	21.0	0.00e+00	0	39	0	910163968	54	6533
2026-01-01 16:16:47.89	274.54	31.42	-40.8	-42.0	21.0	0.00e+00	92	39	0	912261120	54	6453
2026-01-01 16:16:48.90	274.25	31.30	-40.9	-42.1	21.0	0.00e+00	0	39	0	913309696	54	6504
2026-01-01 16:16:49.91	273.96	31.18	-41.1	-42.3	20.8	0.00e+00	5	39	0	915406848	54	6649
2026-01-01 16:16:50.92	273.68	31.05	-40.8	-42.0	21.0	0.00e+00	3	39	0	917504000	54	6455
2026-01-01 16:16:51.93	273.40	30.93	-41.0	-42.2	20.9	0.00e+00	5	39	0	919601152	54	6557
2026-01-01 16:16:52.94	273.12	30.81	-40.9	-42.2	20.9	0.00e+00	4	39	0	921698304	54	6549
2026-01-01 16:16:53.95	272.85	30.68	-41.0	-42.2	20.9	0.00e+00	6	39	0	922746880	54	6558
2026-01-01 16:16:54.96	272.57	30.56	-40.9	-42.2	20.9	0.00e+00	90	39	0	924844032	54	6544
2026-01-01 16:16:55.97	272.30	30.43	-40.7	-41.9	21.1	0.00e+00	6	39	0	926941184	54	6361
2026-01-01 16:16:56.98	272.03	30.31	-40.7	-41.9	21.2	0.00e+00	92	39	0	929038336	54	6379
2026-01-01 16:16:57.99	271.76	30.19	-40.7	-41.9	21.2	0.00e+00	6	39	0	931135488	54	6325
2026-01-01 16:16:59.00	271.50	30.06	-40.3	-41.4	21.7	0.00e+00	2	39	0	932184064	54	5999
2026-01-01 16:17:00.01	271.24	29.94	-40.2	-41.3	21.8	0.00e+00	1	39	0	934281216	54	5916
2026-01-01 16:17:01.02	270.97	29.81	-39.9	-40.9	21.9	0.00e+00	76	39	0	936378368	54	5688
2026-01-01 16:17:02.03	270.71	29.68	-39.7	-40.8	22.3	0.00e+00	92	39	0	938475520	52	6265
2026-01-01 16:17:03.04	270.46	29.56	-39.7	-40.7	22.2	0.00e+00	0	39	0	940572672	52	6236
2026-01-01 16:17:04.05	270.20	29.43	-39.8	-40.9	22.1	0.00e+00	90	39	0	941621248	52	6330
2026-01-01 16:17:05.06	269.95	29.31	-39.8	-40.8	22.1	0.00e+00	0	39	0	943718400	52	6313
2026-01-01 16:17:06.07	269.70	29.18	-39.8	-40.9	22.1	0.00e+00	0	39	0	945815552	52	6334
2026-01-01 16:17:07.08	269.45	29.06	-39.6	-40.6	22.3	0.00e+00	0	39	0	947912704	52	6162
2026-01-01 16:17:08.09	269.20	28.93	-39.6	-40.6	22.5	0.00e+00	0	39	0	950009856	52	6120
2026-01-01 16:17:09.10	268.96	28.80	-39.4	-40.4	22.6	0.00e+00	89	39	0	951058432	52	6009
2026-01-01 16:17:10.11	268.71	28.68	-39.3	-40.3	22.7	0.00e+00	0	39	0	953155584	52	5901
2026-01-01 16:17:11.12	268.47	28.55	-39.3	-40.2	22.6	0.00e+00	91	39	0	955252736	52	5893
2026-01-01 16:17:12.13	268.23	28.43	-39.1	-40.0	22.9	0.00e+00	0	39	0	957349888	52	5746
2026-01-01 16:17:13.14	267.99	28.30	-39.1	-40.0	22.8	0.00e+00	58	39	0	959447040	52	5756
2026-01-01 16:17:14.15	267.76	28.18	-39.1	-40.0	22.9	0.00e+00	0	39	0	960495616	52	5742
2026-01-01 16:17:15.16	267.52	28.05	-38.9	-39.8	23.0	0.00e+00	0	39	0	962592768	52	5619
2026-01-01 16:17:16.17	267.29	27.92	-38.9	-39.8	23.0	0.00e+00	0	39	0	964689920	52	5612
2026-01-01 16:17:17.18	267.06	27.80	-38.7	-39.7	23.2	0.00e+00	76	39	0	966787072	50	6196
2026-01-01 16:17:18.19	266.83	27.67	-38.8	-39.8	23.1	0.00e+00	92	39	0	968884224	50	6272
2026-01-01 16:17:19.20	266.60	27.55	-38.5	-39.4	23.4	0.00e+00	5	39	0	970981376	50	5998
2026-01-01 16:17:20.21	266.38	27.42	-38.5	-39.5	23.2	0.00e+00	92	39	0	972029952	50	6050
2026-01-01 16:17:21.22	266.16	27.30	-38.7	-39.6	23.3	0.00e+00	78	39	0	974127104	50	6173
2026-01-01 16:17:22.23	265.93	27.17	-38.6	-39.5	23.3	0.00e+00	2	39	0	976224256	50	6080
2026-01-01 16:17:23.24	265.71	27.05	-38.8	-39.8	23.3	0.00e+00	0	39	0	978321408	50	6260
2026-01-01 16:17:24.25	265.50	26.92	-38.4	-39.3	23.5	0.00e+00	0	39	0	980418560	50	5921
2026-01-01 16:17:25.26	265.28	26.79	-38.4	-39.3	23.4	0.00e+00	92	39	0	981467136	50	5955
2026-01-01 16:17:26.27	265.07	26.67	-38.3	-39.1	23.2	0.00e+00	0	39	0	983564288	50	5828
2026-01-01 16:17:27.28	264.85	26.55	-38.3	-39.1	23.6	0.00e+00	92	39	0	985661440	50	5823
2026-01-01 16:17:28.29	264.64	26.42	-38.4	-39.3	23.4	0.00e+00	0	39	0	987758592	50	5909
2026-01-01 16:17:29.30	264.43	26.30	-38.4	-39.3	23.3	0.00e+00	0	39	0	989855744	50	5950
2026-01-01 16:17:30.31	264.22	26.17	-38.2	-39.1	23.3	0.00e+00	0	39	0	990904320	50	5794
2026-01-01 16:17:31.32	264.02	26.05	-38.1	-39.0	23.7	0.00e+00	0	39	0	993001472	50	5721
2026-01-01 16:17:32.33	263.81	25.92	-38.1	-39.0	23.8	0.00e+00	90	39	0	995098624	50	5724
2026-01-01 16:17:33.34	263.61	25.80	-38.0	-38.8	23.9	0.00e+00	0	39	0	997195776	50	5619
2026-01-01 16:17:34.35	263.41	25.68	-38.0	-38.9	23.9	0.00e+00	90	39	0	999292928	50	5669
2026-01-01 16:17:35.36	263.21	25.55	-38.1	-39.0	23.8	0.00e+00	82	39	0	1000341504	50	5709
2026-01-01 16:17:36.37	263.01	25.43	-38.1	-39.0	23.8	0.00e+00	81	39	0	1002438656	50	5709
2026-01-01 16:17:37.38	262.81	25.31	-38.1	-38.9	23.8	0.00e+00	0	39	0	1004535808	50	5691
2026-01-01 16:17:38.39	262.62	25.18	-38.3	-39.1	23.7	0.00e+00	0	39	0	1006632960	50	5826
2026-01-01 16:17:39.40	262.43	25.06	-38.3	-39.2	23.5	0.00e+00	0	39	0	1008730112	50	5888
2026-01-01 16:17:40.41	262.23	24.94	-38.5	-39.4	23.4	0.00e+00	0	39	0	1010827264	50	5995
2026-01-01 16:17:41.41	262.05	24.82	-38.6	-39.5	23.3	0.00e+00	92	39	0	1011875840	50	6062
2026-01-01 16:17:42.42	261.86	24.69	-38.7	-39.7	23.2	0.00e+00	79	39	0	1013972992	50	6188
2026-01-01 16:17:43.43	261.67	24.57	-38.8	-39.7	23.1	0.00e+00	92	39	0	1016070144	50	6222
2026-01-01 16:17:44.44	261.48	24.45	-38.6	-39.6	23.3	0.00e+00	0	39	0	1018167296	50	6104
2026-01-01 16:17:45.45	261.30	24.33	-38.4	-39.4	23.4	0.00e+00	3	39	0	1020264448	50	5971
2026-01-01 16:17:46.47	261.11	24.21	-38.6	-39.5	23.3	0.00e+00	0	39	0	1021313024	50	6058
2026-01-01 16:17:47.48	260.93	24.09	-38.5	-39.4	23.4	0.00e+00	5	39	0	1023410176	50	6007
2026-01-01 16:17:48.49	260.75	23.97	-38.5	-39.4	23.3	0.00e+00	90	39	0	1025507328	50	6028
2026-01-01 16:17:49.50	260.57	23.85	-38.7	-39.6	23.2	0.00e+00	0	39	0	1027604480	50	6146
2026-01-01 16:17:50.51	260.39	23.73	-38.7	-39.6	23.2	0.00e+00	92	39	0	1029701632	50	6154
2026-01-01 16:17:51.52	260.22	23.61	-38.5	-39.4	23.4	0.00e+00	5	39	0	1030750208	50	5977
2026-01-01 16:17:52.52	260.04	23.49	-38.6	-39.5	23.2	0.00e+00	3	39	0	1032847360	50	6100
2026-01-01 16:17:53.53	259.87	23.37	-38.5	-39.4	23.5	0.00e+00	3	39	0	1034944512	50	5988
2026-01-01 16:17:54.54	259.70	23.25	-38.6	-39.5	23.3	0.00e+00	5	39	0	1037041664	50	6088
2026-01-01 16:17:55.55	259.53	23.13	-38.5	-39.4	23.3	0.00e+00	92	39	0	1039138816	50	6021
2026-01-01 16:17:56.56	259.36	23.01	-38.7	-39.6	23.2	0.00e+00	1	39	0	1040187392	50	6121
2026-01-01 16:17:57.57	259.19	22.89	-38.8	-39.7	23.0	0.00e+00	92	39	0	1042284544	50	6237
2026-01-01 16:17:58.58	259.02	22.78	-38.9	-39.8	22.9	0.00e+00	84	39	0	1044381696	50	6294
2026-01-01 16:17:59.59	258.86	22.66	-39.1	-40.0	22.8	0.00e+00	70	39	0	1046478848	50	6440
2026-01-01 16:18:00.60	258.69	22.54	-39.1	-40.1	22.8	0.00e+00	4	39	0	1048576000	50	6493
2026-01-01 16:18:01.61	258.53	22.42	-39.2	-40.2	22.7	0.00e+00	0	39	0	1049624576	50	6563
2026-01-01 16:18:02.62	258.37	22.31	-39.5	-40.5	22.5	0.00e+00	0	39	0	1051721728	50	6797
2026-01-01 16:18:03.63	258.21	22.19	-39.2	-40.2	22.6	0.00e+00	0	39	0	1053818880	50	6601
2026-01-01 16:18:04.64	258.05	22.07	-39.2	-40.2	22.6	0.00e+00	92	39	0	1055916032	50	6612
2026-01-01 16:18:05.65	257.89	21.96	-39.3	-40.3	22.6	0.00e+00	85	39	0	1058013184	50	6626
2026-01-01 16:18:06.66	257.73	21.84	-39.3	-40.3	22.6	0.00e+00	92	39	0	1059061760	50	6620
2026-01-01 16:18:07.67	257.57	21.73	-39.3	-40.3	22.6	0.00e+00	8	39	0	1061158912	50	6625
2026-01-01 16:18:08.68	257.42	21.61	-39.5	-40.5	22.4	0.00e+00	7	39	0	1063256064	50	6838
2026-01-01 16:18:09.69	257.27	21.50	-39.6	-40.7	22.2	0.00e+00	0	39	0	1065353216	50	6952
2026-01-01 16:18:10.69	257.12	21.38	-39.8	-40.9	22.1	0.00e+00	6	39	0	1067450368	52	6360
2026-01-01 16:18:11.70	256.96	21.27	-39.9	-41.0	21.9	0.00e+00	92	39	0	1068498944	52	6435
2026-01-01 16:18:12.71	256.81	21.15	-40.1	-41.2	21.7	0.00e+00	2	39	0	1070596096	52	6610
2026-01-01 16:18:13.72	256.66	21.04	-40.1	-41.2	21.7	0.00e+00	92	39	0	1072693248	52	6586
2026-01-01 16:18:14.73	256.52	20.93	-40.2	-41.4	21.6	0.00e+00	3	39	0	1074790400	52	6706
2026-01-01 16:18:15.74	256.37	20.81	-40.1	-41.3	21.7	0.00e+00	37	39	0	1076887552	52	6622
2026-01-01 16:18:16.75	256.22	20.70	-39.9	-41.0	21.9	0.00e+00	83	39	0	1078984704	52	6422
2026-01-01 16:18:17.76	256.08	20.59	-39.6	-40.6	22.2	0.00e+00	3	39	0	1080033280	52	6172
2026-01-01 16:18:18.77	255.94	20.48	-39.5	-40.5	22.4	0.00e+00	92	39	0	1082130432	52	6083
2026-01-01 16:18:19.78	255.79	20.36	-39.4	-40.5	22.4	0.00e+00	3	39	0	1084227584	52	6042
2026-01-01 16:18:20.79	255.65	20.25	-39.6	-40.6	22.3	0.00e+00	92	39	0	1086324736	52	6135
2026-01-01 16:18:21.80	255.51	20.14	-39.6	-40.6	22.3	0.00e+00	0	39	0	1088421888	52	6149
2026-01-01 16:18:22.81	255.37	20.03	-39.6	-40.6	22.2	0.00e+00	0	39	0	1089470464	52	6153
2026-01-01 16:18:23.82	255.23	19.92	-39.7	-40.8	22.0	0.00e+00	79	39	0	1091567616	52	6255
2026-01-01 16:18:24.83	255.10	19.81	-39.7	-40.7	22.0	0.00e+00	0	39	0	1093664768	52	6237
2026-01-01 16:18:25.84	254.96	19.70	-39.9	-41.0	21.9	0.00e+00	80	39	0	1095761920	52	6418
2026-01-01 16:18:26.85	254.82	19.59	-40.1	-41.2	21.8	0.00e+00	0	39	0	1097859072	52	6541
2026-01-01 16:18:27.86	254.69	19.48	-40.2	-41.3	21.6	0.00e+00	92	39	0	1098907648	52	6674
2026-01-01 16:18:28.87	254.56	19.37	-40.2	-41.3	21.6	0.00e+00	0	39	0	1101004800	52	6692
2026-01-01 16:18:29.88	254.42	19.26	-40.3	-41.4	21.5	0.00e+00	92	39	0	1103101952	52	6717
2026-01-01 16:18:30.89	254.29	19.16	-40.2	-41.3	21.5	0.00e+00	2	39	0	1105199104	52	6655
2026-01-01 16:18:31.90	254.16	19.05	-40.2	-41.3	21.6	0.00e+00	2	39	0	1107296256	52	6679
2026-01-01 16:18:32.91	254.03	18.94	-40.2	-41.3	21.6	0.00e+00	0	39	0	1108344832	52	6647
2026-01-01 16:18:33.92	253.90	18.83	-40.4	-41.5	21.4	0.00e+00	0	39	0	1110441984	52	6830
2026-01-01 16:18:34.93	253.77	18.72	-40.0	-41.1	21.8	0.00e+00	92	39	0	1112539136	52	6514
2026-01-01 16:18:35.94	253.65	18.62	-40.0	-41.1	21.8	0.00e+00	0	39	0	1114636288	52	6532
2026-01-01 16:18:36.95	253.52	18.51	-39.9	-41.0	21.8	0.00e+00	91	39	0	1116733440	52	6437
2026-01-01 16:18:37.96	253.40	18.41	-39.7	-40.7	22.2	0.00e+00	81	39	0	1117782016	52	6216
2026-01-01 16:18:38.97	253.27	18.30	-39.6	-40.7	22.2	0.00e+00	82	39	0	1119879168	52	6176
2026-01-01 16:18:39.98	253.15	18.19	-39.7	-40.7	22.1	0.00e+00	0	39	0	1121976320	52	6212
2026-01-01 16:18:40.99	253.03	18.09	-39.7	-40.8	22.1	0.00e+00	1	39	0	1124073472	52	6250
2026-01-01 16:18:42.00	252.91	17.98	-39.8	-40.9	22.0	0.00e+00	91	39	0	1126170624	52	6318
2026-01-01 16:18:43.01	252.78	17.88	-39.7	-40.8	22.0	0.00e+00	0	39	0	1127219200	52	6278
2026-01-01 16:18:44.02	252.66	17.77	-39.9	-41.0	21.9	0.00e+00	92	39	0	1129316352	52	6396
2026-01-01 16:18:45.03	252.55	17.67	-39.9	-41.0	21.8	0.00e+00	80	39	0	1131413504	52	6453
2026-01-01 16:18:46.04	252.43	17.57	-39.9	-41.0	21.8	0.00e+00	92	39	0	1133510656	52	6423
2026-01-01 16:18:47.05	252.31	17.46	-40.1	-41.2	21.7	0.00e+00	0	39	0	1135607808	52	6571
2026-01-01 16:18:48.06	252.19	17.36	-39.8	-40.8	22.0	0.00e+00	0	39	0	1136656384	52	6316
2026-01-01 16:18:49.07	252.08	17.26	-39.8	-40.8	22.0	0.00e+00	81	39	0	1138753536	52	6304
2026-01-01 16:18:50.08	251.96	17.16	-39.7	-40.8	22.1	0.00e+00	0	39	0	1140850688	52	6249
2026-01-01 16:18:51.09	251.85	17.05	-39.6	-40.7	22.1	0.00e+00	92	39	0	1142947840	52	6191
2026-01-01 16:18:52.10	251.73	16.95	-39.7	-40.7	22.1	0.00e+00	2	39	0	1145044992	52	6232
2026-01-01 16:18:53.11	251.62	16.85	-39.7	-40.7	22.1	0.00e+00	92	39	0	1146093568	52	6218
2026-01-01 16:18:54.12	251.51	16.75	-39.7	-40.7	22.1	0.00e+00	2	39	0	1148190720	52	6220
2026-01-01 16:18:55.13	251.40	16.65	-39.8	-40.9	21.9	0.00e+00	1	39	0	1150287872	52	6339
2026-01-01 16:18:56.14	251.29	16.55	-39.9	-41.0	21.9	0.00e+00	0	39	0	1152385024	52	6412
2026-01-01 16:18:57.15	251.18	16.45	-39.7	-40.8	22.0	0.00e+00	1	39	0	1154482176	52	6282
2026-01-01 16:18:58.16	251.07	16.35	-39.8	-40.9	21.9	0.00e+00	92	39	0	1156579328	52	6360
2026-01-01 16:18:59.17	250.96	16.25	-39.9	-41.0	21.9	0.00e+00	0	39	0	1157627904	52	6407
2026-01-01 16:19:00.18	250.86	16.15	-40.0	-41.1	21.7	0.00e+00	92	39	0	1159725056	52	6477
2026-01-01 16:19:01.19	250.75	16.05	-40.0	-41.1	21.8	0.00e+00	79	39	0	1161822208	52	6500
2026-01-01 16:19:02.20	250.64	15.95	-40.0	-41.1	21.8	0.00e+00	81	39	0	1163919360	52	6493
2026-01-01 16:19:03.21	250.54	15.85	-39.9	-41.0	21.8	0.00e+00	0	39	0	1166016512	52	6436
2026-01-01 16:19:04.22	250.43	15.75	-40.1	-41.2	21.7	0.00e+00	81	39	0	1167065088	52	6576
2026-01-01 16:19:05.23	250.33	15.65	-40.0	-41.1	21.7	0.00e+00	92	39	0	1169162240	52	6470
2026-01-01 16:19:06.24	250.23	15.56	-40.0	-41.1	21.8	0.00e+00	2	39	0	1171259392	52	6472
2026-01-01 16:19:07.25	250.12	15.46	-39.9	-41.0	21.8	0.00e+00	90	39	0	1173356544	52	6453
2026-01-01 16:19:08.26	250.02	15.36	-39.9	-40.9	21.9	0.00e+00	0	39	0	1175453696	52	6388
2026-01-01 16:19:09.27	249.92	15.27	-39.9	-41.0	21.8	0.00e+00	37	39	0	1176502272	52	6420
2026-01-01 16:19:10.28	249.82	15.17	-39.9	-41.0	21.8	0.00e+00	2	39	0	1178599424	52	6459
2026-01-01 16:19:11.29	249.72	15.07	-39.9	-41.0	21.7	0.00e+00	2	39	0	1180696576	52	6419
2026-01-01 16:19:12.30	249.62	14.98	-39.7	-40.8	22.0	0.00e+00	0	39	0	1182793728	52	6285
2026-01-01 16:19:13.31	249.52	14.88	-39.8	-40.8	21.9	0.00e+00	2	39	0	1184890880	52	6314
2026-01-01 16:19:14.32	249.43	14.79	-39.8	-40.8	21.9	0.00e+00	92	39	0	1185939456	52	6317
2026-01-01 16:19:15.33	249.33	14.69	-39.7	-40.8	22.0	0.00e+00	0	39	0	1188036608	52	6286
2026-01-01 16:19:16.34	249.23	14.60	-39.8	-40.9	21.8	0.00e+00	92	39	0	1190133760	52	6349
2026-01-01 16:19:17.35	249.14	14.50	-39.9	-41.0	21.8	0.00e+00	0	39	0	1192230912	52	6439
2026-01-01 16:19:18.36	249.04	14.41	-39.8	-40.9	21.9	0.00e+00	81	39	0	1194328064	52	6341
2026-01-01 16:19:19.37	248.95	14.31	-40.0	-41.1	21.7	0.00e+00	0	39	0	1195376640	52	6473
2026-01-01 16:19:20.38	248.85	14.22	-39.9	-41.0	21.8	0.00e+00	81	39	0	1197473792	52	6425
2026-01-01 16:19:21.39	248.76	14.13	-40.1	-41.2	21.6	0.00e+00	92	39	0	1199570944	52	6580
