passes_logs/2026/01/01/R4.6S_Anadyr/R4.6S_Anadyr__20260101_164820_FENGYUN_3D_rec.log

#Pass ID: 20260101_164820_FENGYUN 3D
#Satellite: FENGYUN 3D
#Configuration: FENGYUN 3D
#almurnet v.1.7.20251203
#Start time: 2026-01-01 16:48:21

#Version: 2.2.20231116
#Station: R4.6S_Anadyr
#Location: 177.4865 lon 64.73178 lat
#TLE: 1 43010U 17072A   25364.99193771  .00000012  00000+0  27255-4 0  9998
#TLE: 2 43010  98.9913 331.5779 0001825 135.6238 224.5084 14.19689358421127

#Time	Az	El	Level	Level2	SNR	BER	BlckErr	Temp	State	Recorded	gain1	gain2
2026-01-01 16:48:21.69	21.10	0.09	-49.0	-63.9	3.5	1.51e+00	0	37	0	0	60	56830
2026-01-01 16:48:22.70	21.11	0.15	-49.1	-61.1	3.6	8.46e-01	0	38	104	0	60	41188
2026-01-01 16:48:23.71	21.11	0.21	-49.0	-61.2	3.6	8.45e-01	0	38	104	0	60	41367
2026-01-01 16:48:24.72	21.11	0.27	-49.1	-61.1	3.6	8.47e-01	0	38	104	0	60	41246
2026-01-01 16:48:25.73	21.12	0.33	-49.1	-61.2	3.6	8.45e-01	0	38	104	0	60	41592
2026-01-01 16:48:26.74	21.12	0.39	-49.0	-61.2	3.6	8.46e-01	0	38	104	0	60	41675
2026-01-01 16:48:27.75	21.13	0.45	-49.1	-61.2	3.6	8.44e-01	0	38	104	0	60	41551
2026-01-01 16:48:28.75	21.13	0.51	-49.1	-61.2	3.6	8.47e-01	0	38	104	0	60	41666
2026-01-01 16:48:29.76	21.14	0.57	-49.0	-61.2	3.6	8.46e-01	0	38	104	0	60	41345
2026-01-01 16:48:30.77	21.14	0.63	-49.0	-61.1	3.6	8.46e-01	0	38	104	0	60	41168
2026-01-01 16:48:31.78	21.14	0.70	-48.9	-61.0	3.6	8.45e-01	0	38	104	0	60	40658
2026-01-01 16:48:32.79	21.15	0.76	-48.8	-60.9	3.6	8.46e-01	0	38	104	0	60	40259
2026-01-01 16:48:33.80	21.15	0.82	-48.6	-60.7	3.6	8.46e-01	0	38	104	0	60	39014
2026-01-01 16:48:34.81	21.16	0.88	-48.3	-60.6	3.6	8.45e-01	0	38	104	0	60	38535
2026-01-01 16:48:35.82	21.16	0.94	-48.3	-60.4	3.6	8.46e-01	0	38	104	0	60	37706
2026-01-01 16:48:36.83	21.16	1.00	-48.0	-60.0	3.6	8.46e-01	0	38	104	0	60	36295
2026-01-01 16:48:37.84	21.17	1.07	-47.7	-59.7	3.6	8.45e-01	0	38	104	0	60	34984
2026-01-01 16:48:38.85	21.17	1.13	-47.7	-59.7	3.6	8.46e-01	0	38	104	0	60	35041
2026-01-01 16:48:39.86	21.18	1.19	-47.7	-59.6	3.6	8.45e-01	0	38	104	0	60	34695
2026-01-01 16:48:40.87	21.18	1.25	-47.6	-59.6	3.6	8.46e-01	0	38	104	0	60	34419
2026-01-01 16:48:41.88	21.19	1.32	-47.6	-59.4	3.6	8.46e-01	0	38	104	0	60	33862
2026-01-01 16:48:42.89	21.19	1.38	-47.6	-59.2	3.6	8.45e-01	0	38	104	0	60	32901
2026-01-01 16:48:43.90	21.19	1.44	-47.6	-59.1	3.6	8.45e-01	0	38	104	0	60	32662
2026-01-01 16:48:44.91	21.20	1.51	-47.6	-59.0	3.6	8.45e-01	0	38	104	0	60	32311
2026-01-01 16:48:45.91	21.20	1.57	-47.6	-59.2	3.6	8.45e-01	0	38	104	0	60	33109
2026-01-01 16:48:46.92	21.21	1.63	-47.6	-59.3	3.6	8.45e-01	0	38	104	0	60	33520
2026-01-01 16:48:47.94	21.21	1.70	-47.6	-59.6	3.6	8.44e-01	0	38	104	0	60	34355
2026-01-01 16:48:48.94	21.21	1.76	-47.6	-59.7	3.6	8.45e-01	0	39	104	0	60	34837
2026-01-01 16:48:49.95	21.22	1.82	-47.6	-59.7	3.6	8.46e-01	0	38	104	0	60	35000
2026-01-01 16:48:50.96	21.22	1.89	-47.6	-59.7	3.6	8.45e-01	0	38	104	0	60	34975
2026-01-01 16:48:51.97	21.23	1.95	-47.6	-59.7	3.6	8.46e-01	0	39	104	0	60	34864
2026-01-01 16:48:52.98	21.23	2.02	-47.6	-59.7	3.6	8.45e-01	0	39	104	0	60	34806
2026-01-01 16:48:53.99	21.24	2.08	-47.6	-59.7	3.6	8.45e-01	0	39	104	0	60	35025
2026-01-01 16:48:55.00	21.24	2.15	-47.6	-59.7	3.6	8.45e-01	0	39	104	0	60	34997
2026-01-01 16:48:56.01	21.24	2.21	-47.6	-59.6	3.6	8.44e-01	0	39	104	0	60	34606
2026-01-01 16:48:57.02	21.25	2.28	-47.6	-59.2	3.6	8.45e-01	0	39	104	0	60	33114
2026-01-01 16:48:58.03	21.25	2.34	-47.5	-58.5	3.6	8.45e-01	0	39	104	0	60	30255
2026-01-01 16:48:59.04	21.26	2.41	-47.4	-57.3	3.6	8.44e-01	0	39	104	0	60	26630
2026-01-01 16:49:00.05	21.26	2.47	-47.3	-56.5	4.0	8.45e-01	0	39	104	0	60	24195
2026-01-01 16:49:01.06	21.26	2.54	-47.2	-56.0	4.1	8.42e-01	0	39	104	0	60	22715
2026-01-01 16:49:02.07	21.27	2.60	-47.2	-54.2	4.0	8.20e-01	0	39	0	0	60	18640
2026-01-01 16:49:03.08	21.27	2.67	-47.2	-54.2	4.0	8.27e-01	0	39	0	0	60	18608
2026-01-01 16:49:04.09	21.28	2.73	-47.2	-54.4	4.0	8.26e-01	0	39	0	0	60	18899
2026-01-01 16:49:05.10	21.28	2.80	-47.0	-53.2	4.6	7.90e-01	0	39	0	0	60	16518
2026-01-01 16:49:06.10	21.28	2.87	-46.7	-52.0	5.6	7.23e-01	0	39	0	0	60	14419
2026-01-01 16:49:07.11	21.29	2.93	-46.0	-50.2	7.8	1.52e-01	0	39	0	6291456	60	11679
2026-01-01 16:49:08.12	21.29	3.00	-45.0	-48.2	10.1	2.52e-02	0	39	0	11534336	60	9257
2026-01-01 16:49:09.13	21.30	3.07	-44.1	-46.6	12.0	1.24e-03	0	39	0	17825792	60	7743
2026-01-01 16:49:10.14	21.30	3.13	-42.9	-44.9	13.9	4.69e-05	0	39	0	23068672	60	6384
2026-01-01 16:49:11.15	21.31	3.20	-42.3	-44.1	14.6	2.20e-06	0	39	0	28311552	58	6513
2026-01-01 16:49:12.16	21.31	3.27	-41.5	-43.0	15.9	0.00e+00	0	39	0	34603008	56	6439
2026-01-01 16:49:13.17	21.31	3.34	-41.0	-42.5	16.4	0.00e+00	0	39	0	39845888	56	6045
2026-01-01 16:49:14.18	21.32	3.40	-40.6	-42.0	16.6	0.00e+00	0	39	0	46137344	54	6440
2026-01-01 16:49:15.19	21.32	3.47	-40.9	-42.3	16.3	0.00e+00	0	39	0	51380224	54	6680
2026-01-01 16:49:16.20	21.33	3.54	-41.5	-43.1	15.6	0.00e+00	0	39	0	57671680	54	7260
2026-01-01 16:49:17.21	21.33	3.61	-42.0	-43.6	15.0	0.00e+00	0	39	0	62914560	56	6923
2026-01-01 16:49:18.22	21.33	3.67	-42.8	-44.7	13.9	1.10e-06	0	39	0	69206016	56	7862
2026-01-01 16:49:19.23	21.34	3.74	-42.7	-44.5	14.3	2.97e-05	0	39	0	74448896	58	6815
2026-01-01 16:49:20.24	21.34	3.81	-37.8	-38.7	20.2	0.00e+00	0	39	0	79691776	50	5561
2026-01-01 16:49:21.25	21.35	3.88	-39.2	-40.3	18.0	0.00e+00	0	39	0	85983232	50	6676
2026-01-01 16:49:22.26	21.35	3.95	-47.5	-57.6	4.2	8.43e-01	0	39	104	88080384	60	27531
2026-01-01 16:49:23.27	21.35	4.02	-37.1	-37.9	21.3	0.00e+00	0	39	0	90177536	48	5688
2026-01-01 16:49:24.28	21.36	4.09	-47.4	-58.1	3.6	8.46e-01	0	39	104	92274688	60	28895
2026-01-01 16:49:25.29	21.36	4.16	-39.0	-40.0	17.9	4.82e-01	0	39	104	92274688	52	5761
2026-01-01 16:49:26.30	21.37	4.23	-39.2	-40.3	18.7	0.00e+00	0	39	0	95420416	52	5956
2026-01-01 16:49:27.31	21.37	4.30	-37.6	-38.5	20.3	0.00e+00	0	39	0	101711872	48	6091
2026-01-01 16:49:28.32	21.37	4.37	-36.5	-37.3	21.5	0.00e+00	0	39	0	106954752	46	5944
2026-01-01 16:49:29.33	21.38	4.44	-36.9	-37.8	21.1	0.00e+00	0	39	0	112197632	46	6260
2026-01-01 16:49:30.34	21.38	4.51	-36.7	-37.5	21.3	0.00e+00	0	39	0	118489088	46	6098
2026-01-01 16:49:31.35	21.39	4.58	-36.6	-37.5	21.4	0.00e+00	0	39	0	123731968	46	6043
2026-01-01 16:49:32.36	21.39	4.65	-36.5	-37.4	21.5	0.00e+00	0	39	0	130023424	46	5971
2026-01-01 16:49:33.37	21.40	4.72	-36.3	-37.2	21.8	0.00e+00	0	39	0	135266304	46	5836
2026-01-01 16:49:34.38	21.40	4.79	-36.1	-36.9	22.0	0.00e+00	0	39	0	140509184	46	5653
2026-01-01 16:49:35.39	21.40	4.86	-36.0	-36.8	22.1	0.00e+00	0	39	0	146800640	46	5614
2026-01-01 16:49:36.40	21.41	4.93	-36.0	-36.9	22.1	0.00e+00	0	39	0	152043520	46	5632
2026-01-01 16:49:37.41	21.41	5.01	-36.1	-36.9	22.0	0.00e+00	0	39	0	158334976	46	5659
2026-01-01 16:49:38.42	21.42	5.08	-36.3	-37.1	21.8	0.00e+00	0	39	0	163577856	46	5769
2026-01-01 16:49:39.43	21.42	5.15	-36.1	-36.9	22.0	0.00e+00	0	39	0	168820736	46	5668
2026-01-01 16:49:40.44	21.42	5.22	-36.1	-37.0	22.0	0.00e+00	0	39	0	175112192	46	5703
2026-01-01 16:49:41.45	21.43	5.30	-36.0	-36.8	22.2	0.00e+00	0	39	0	180355072	46	5618
2026-01-01 16:49:42.46	21.43	5.37	-36.1	-36.9	22.1	0.00e+00	0	39	0	186646528	46	5637
2026-01-01 16:49:43.47	21.44	5.44	-35.8	-36.6	22.4	0.00e+00	0	39	0	191889408	46	5489
2026-01-01 16:49:44.48	21.44	5.51	-35.8	-36.6	22.4	0.00e+00	0	39	0	198180864	46	5499
2026-01-01 16:49:45.50	21.44	5.59	-35.9	-36.7	22.3	0.00e+00	0	39	0	203423744	46	5526
2026-01-01 16:49:46.50	21.45	5.66	-35.9	-36.8	22.3	0.00e+00	0	39	0	208666624	46	5577
2026-01-01 16:49:47.52	21.45	5.74	-35.7	-36.5	22.5	0.00e+00	0	39	0	214958080	44	6071
2026-01-01 16:49:48.53	21.46	5.81	-35.9	-36.7	22.2	0.00e+00	0	39	0	220200960	44	6213
2026-01-01 16:49:49.54	21.46	5.88	-36.0	-36.8	22.2	0.00e+00	0	39	0	226492416	44	6264
2026-01-01 16:49:50.54	21.46	5.96	-35.7	-36.5	22.5	0.00e+00	0	39	0	231735296	44	6057
2026-01-01 16:49:51.55	21.47	6.03	-35.5	-36.3	22.7	0.00e+00	0	39	0	236978176	44	5899
2026-01-01 16:49:52.57	21.47	6.11	-35.5	-36.3	22.7	0.00e+00	0	39	0	243269632	44	5913
2026-01-01 16:49:53.58	21.48	6.18	-35.5	-36.3	22.8	0.00e+00	0	39	0	248512512	44	5916
2026-01-01 16:49:54.59	21.48	6.26	-35.7	-36.5	22.5	0.00e+00	0	39	0	254803968	44	6077
2026-01-01 16:49:55.59	21.48	6.33	-35.5	-36.2	22.8	0.00e+00	0	39	0	260046848	44	5869
2026-01-01 16:49:56.61	21.49	6.41	-35.4	-36.2	22.9	0.00e+00	0	39	0	266338304	44	5848
2026-01-01 16:49:57.62	21.49	6.48	-35.3	-36.1	23.0	0.00e+00	0	39	0	271581184	44	5788
2026-01-01 16:49:58.63	21.50	6.56	-35.4	-36.1	22.9	0.00e+00	0	39	0	276824064	44	5820
2026-01-01 16:49:59.64	21.50	6.64	-35.4	-36.2	22.9	0.00e+00	0	39	0	283115520	44	5855
2026-01-01 16:50:00.65	21.50	6.71	-35.5	-36.3	22.8	0.00e+00	0	39	0	288358400	44	5944
2026-01-01 16:50:01.66	21.51	6.79	-35.2	-36.0	23.1	0.00e+00	0	39	0	294649856	44	5698
2026-01-01 16:50:02.67	21.51	6.87	-35.3	-36.0	23.1	0.00e+00	0	39	0	299892736	44	5746
2026-01-01 16:50:03.68	21.52	6.94	-35.2	-35.9	23.1	0.00e+00	0	39	0	306184192	44	5680
2026-01-01 16:50:04.69	21.52	7.02	-35.2	-35.9	23.2	0.00e+00	0	39	0	311427072	44	5682
2026-01-01 16:50:05.70	21.52	7.10	-35.1	-35.8	23.2	0.00e+00	0	39	0	316669952	44	5620
2026-01-01 16:50:06.71	21.53	7.18	-34.9	-35.6	23.5	0.00e+00	0	39	0	322961408	44	5475
2026-01-01 16:50:07.72	21.53	7.26	-35.2	-35.9	23.1	0.00e+00	0	39	0	328204288	44	5672
2026-01-01 16:50:08.73	21.54	7.33	-35.2	-35.9	23.1	0.00e+00	0	39	0	334495744	44	5658
2026-01-01 16:50:09.74	21.54	7.41	-35.2	-36.0	23.1	0.00e+00	0	39	0	339738624	44	5718
2026-01-01 16:50:10.74	21.54	7.49	-35.4	-36.1	23.1	0.00e+00	0	39	0	344981504	44	5790
2026-01-01 16:50:11.75	21.55	7.57	-35.3	-36.0	23.1	0.00e+00	0	39	0	351272960	44	5737
2026-01-01 16:50:12.76	21.55	7.65	-35.1	-35.8	23.2	0.00e+00	0	39	0	356515840	44	5596
2026-01-01 16:50:13.77	21.56	7.73	-35.2	-35.9	23.2	0.00e+00	0	39	0	362807296	44	5668
2026-01-01 16:50:14.78	21.56	7.81	-35.0	-35.7	23.4	0.00e+00	0	39	0	368050176	44	5556
2026-01-01 16:50:15.79	21.56	7.89	-34.8	-35.6	23.6	0.00e+00	0	39	0	373293056	42	6108
2026-01-01 16:50:16.80	21.57	7.97	-34.9	-35.6	23.6	0.00e+00	0	39	0	379584512	42	6134
2026-01-01 16:50:17.80	21.57	8.05	-34.8	-35.5	23.7	0.00e+00	0	39	0	384827392	42	6084
2026-01-01 16:50:18.81	21.58	8.13	-34.8	-35.6	23.6	0.00e+00	0	39	0	391118848	42	6125
2026-01-01 16:50:19.83	21.58	8.21	-34.7	-35.5	23.8	0.00e+00	0	39	0	396361728	42	6038
2026-01-01 16:50:20.84	21.58	8.29	-34.8	-35.5	23.7	0.00e+00	0	39	0	402653184	42	6085
2026-01-01 16:50:21.85	21.59	8.38	-34.8	-35.5	23.6	0.00e+00	0	39	0	407896064	42	6072
2026-01-01 16:50:22.86	21.59	8.46	-34.8	-35.5	23.7	0.00e+00	0	39	0	414187520	42	6084
2026-01-01 16:50:23.87	21.60	8.54	-34.6	-35.3	23.9	0.00e+00	0	39	0	419430400	42	5957
2026-01-01 16:50:24.88	21.60	8.62	-34.6	-35.4	23.8	0.00e+00	0	39	0	424673280	42	5966
2026-01-01 16:50:25.89	21.60	8.71	-34.5	-35.2	24.0	0.00e+00	0	39	0	430964736	42	5895
2026-01-01 16:50:26.90	21.61	8.79	-34.5	-35.2	24.0	0.00e+00	0	39	0	436207616	42	5863
2026-01-01 16:50:27.91	21.61	8.87	-34.5	-35.2	23.9	0.00e+00	0	39	0	442499072	42	5871
2026-01-01 16:50:28.92	21.62	8.96	-34.5	-35.2	24.0	0.00e+00	0	39	0	447741952	42	5879
2026-01-01 16:50:29.93	21.62	9.04	-34.5	-35.2	24.0	0.00e+00	0	39	0	452984832	42	5875
2026-01-01 16:50:30.94	21.62	9.12	-34.5	-35.2	24.0	0.00e+00	0	39	0	459276288	42	5863
2026-01-01 16:50:31.95	21.63	9.21	-34.4	-35.1	24.1	0.00e+00	0	39	0	464519168	42	5792
2026-01-01 16:50:32.96	21.63	9.29	-34.4	-35.1	24.2	0.00e+00	0	39	0	470810624	42	5767
2026-01-01 16:50:33.97	21.63	9.38	-34.4	-35.1	24.1	0.00e+00	0	39	0	476053504	42	5813
2026-01-01 16:50:34.98	21.64	9.46	-34.5	-35.2	24.1	0.00e+00	0	39	0	481296384	42	5835
2026-01-01 16:50:35.98	21.64	9.55	-34.3	-35.0	24.2	0.00e+00	0	39	0	487587840	42	5716
2026-01-01 16:50:36.99	21.65	9.64	-34.4	-35.1	24.1	0.00e+00	0	39	0	492830720	42	5776
2026-01-01 16:50:38.00	21.65	9.72	-34.2	-34.9	24.3	0.00e+00	0	39	0	499122176	42	5687
2026-01-01 16:50:39.01	21.65	9.81	-34.2	-35.0	24.2	0.00e+00	0	39	0	504365056	42	5705
2026-01-01 16:50:40.02	21.66	9.89	-34.3	-34.9	24.3	0.00e+00	0	39	0	510656512	42	5695
2026-01-01 16:50:41.03	21.66	9.98	-34.4	-35.0	24.1	0.00e+00	0	39	0	515899392	42	5760
2026-01-01 16:50:42.04	21.67	10.07	-34.2	-34.9	24.3	0.00e+00	0	39	0	521142272	42	5649
2026-01-01 16:50:43.05	21.67	10.16	-34.2	-34.9	24.4	0.00e+00	0	39	0	527433728	42	5666
2026-01-01 16:50:44.06	21.67	10.25	-34.1	-34.8	24.4	0.00e+00	0	39	0	532676608	42	5597
2026-01-01 16:50:45.07	21.68	10.33	-34.1	-34.8	24.4	0.00e+00	0	39	0	538968064	42	5576
2026-01-01 16:50:46.08	21.68	10.42	-34.2	-34.9	24.3	0.00e+00	0	39	0	544210944	42	5665
2026-01-01 16:50:47.09	21.69	10.51	-34.2	-34.9	24.3	0.00e+00	0	39	0	549453824	42	5655
2026-01-01 16:50:48.10	21.69	10.60	-34.1	-34.8	24.3	0.00e+00	0	39	0	555745280	42	5605
2026-01-01 16:50:49.12	21.69	10.69	-34.1	-34.9	24.4	0.00e+00	0	39	0	560988160	42	5635
2026-01-01 16:50:50.12	21.70	10.78	-34.1	-34.8	24.4	0.00e+00	0	39	0	567279616	42	5576
2026-01-01 16:50:51.14	21.70	10.87	-34.3	-35.0	24.2	0.00e+00	0	39	0	572522496	42	5723
2026-01-01 16:50:52.14	21.70	10.96	-34.1	-34.7	24.5	0.00e+00	0	39	0	577765376	42	5559
2026-01-01 16:50:53.16	21.71	11.05	-34.1	-34.8	24.4	0.00e+00	0	39	0	584056832	42	5603
2026-01-01 16:50:54.17	21.71	11.15	-34.1	-34.7	24.5	0.00e+00	0	39	0	589299712	42	5563
2026-01-01 16:50:55.18	21.72	11.24	-34.2	-34.9	24.3	0.00e+00	0	39	0	595591168	42	5648
2026-01-01 16:50:56.18	21.72	11.33	-34.3	-35.0	24.3	0.00e+00	0	39	0	600834048	42	5717
2026-01-01 16:50:57.19	21.72	11.42	-33.9	-34.6	24.6	0.00e+00	0	39	0	607125504	42	5494
2026-01-01 16:50:58.20	21.73	11.51	-34.0	-34.7	24.6	0.00e+00	0	39	0	612368384	42	5548
2026-01-01 16:50:59.21	21.73	11.61	-34.0	-34.7	24.6	0.00e+00	0	39	0	618659840	42	5549
2026-01-01 16:51:00.22	21.74	11.70	-34.0	-34.7	24.6	0.00e+00	0	39	0	623902720	42	5520
2026-01-01 16:51:01.23	21.74	11.79	-34.1	-34.7	24.6	0.00e+00	0	39	0	629145600	42	5561
2026-01-01 16:51:02.24	21.74	11.89	-34.0	-34.6	24.7	0.00e+00	0	39	0	635437056	42	5488
2026-01-01 16:51:03.25	21.75	11.98	-33.7	-34.4	24.9	0.00e+00	0	39	0	640679936	42	5345
2026-01-01 16:51:04.26	21.75	12.08	-33.8	-34.5	24.7	0.00e+00	0	39	0	646971392	40	6069
2026-01-01 16:51:05.27	21.75	12.17	-34.2	-34.9	24.5	0.00e+00	0	39	0	652214272	40	6328
2026-01-01 16:51:06.28	21.76	12.27	-34.1	-34.7	24.7	0.00e+00	0	39	0	657457152	40	6234
2026-01-01 16:51:07.29	21.76	12.36	-33.8	-34.5	24.8	0.00e+00	0	39	0	663748608	40	6038
2026-01-01 16:51:08.30	21.77	12.46	-33.7	-34.4	24.8	0.00e+00	0	39	0	668991488	40	6031
2026-01-01 16:51:09.31	21.77	12.56	-33.6	-34.3	24.9	0.00e+00	0	39	0	675282944	40	5941
2026-01-01 16:51:10.32	21.77	12.66	-33.7	-34.3	24.8	0.00e+00	0	39	0	680525824	40	5956
2026-01-01 16:51:11.33	21.78	12.75	-33.5	-34.1	25.0	0.00e+00	0	39	0	685768704	40	5817
2026-01-01 16:51:12.34	21.78	12.85	-33.6	-34.2	24.9	0.00e+00	0	39	0	692060160	40	5886
2026-01-01 16:51:13.36	21.78	12.95	-33.4	-34.1	25.1	0.00e+00	0	39	0	697303040	40	5801
2026-01-01 16:51:14.36	21.79	13.05	-33.4	-34.1	25.2	0.00e+00	0	39	0	703594496	40	5778
2026-01-01 16:51:15.37	21.79	13.15	-33.4	-34.0	25.2	0.00e+00	0	39	0	708837376	40	5759
2026-01-01 16:51:16.38	21.80	13.25	-33.5	-34.2	25.2	0.00e+00	0	39	0	715128832	40	5836
2026-01-01 16:51:17.39	21.80	13.35	-33.2	-33.8	25.4	0.00e+00	0	39	0	720371712	40	5614
2026-01-01 16:51:18.40	21.80	13.45	-33.3	-34.0	25.2	0.00e+00	0	39	0	725614592	40	5742
2026-01-01 16:51:19.41	21.81	13.55	-33.2	-33.9	25.3	0.00e+00	0	39	0	731906048	40	5674
2026-01-01 16:51:20.42	21.81	13.65	-33.3	-34.0	25.3	0.00e+00	0	39	0	737148928	40	5709
2026-01-01 16:51:21.43	21.81	13.75	-33.3	-33.9	25.3	0.00e+00	0	39	0	743440384	40	5684
2026-01-01 16:51:22.44	21.82	13.85	-33.3	-34.0	25.3	0.00e+00	0	39	0	748683264	40	5716
2026-01-01 16:51:23.45	21.82	13.96	-33.0	-33.7	25.6	0.00e+00	0	39	0	753926144	40	5539
2026-01-01 16:51:24.46	21.83	14.06	-33.2	-33.8	25.4	0.00e+00	0	39	0	760217600	40	5619
2026-01-01 16:51:25.47	21.83	14.16	-33.1	-33.8	25.4	0.00e+00	0	39	0	765460480	40	5573
2026-01-01 16:51:26.48	21.83	14.27	-33.1	-33.7	25.5	0.00e+00	0	39	0	771751936	40	5533
2026-01-01 16:51:27.49	21.84	14.37	-33.0	-33.6	25.6	0.00e+00	0	39	0	776994816	40	5496
2026-01-01 16:51:28.50	21.84	14.48	-33.0	-33.7	25.6	0.00e+00	0	39	0	782237696	40	5519
2026-01-01 16:51:29.51	21.84	14.58	-32.9	-33.5	25.6	0.00e+00	0	39	0	788529152	40	5404
2026-01-01 16:51:30.52	21.85	14.69	-32.9	-33.5	25.7	0.00e+00	0	39	0	793772032	40	5420
2026-01-01 16:51:31.53	21.85	14.79	-33.0	-33.6	25.6	0.00e+00	0	39	0	800063488	40	5480
2026-01-01 16:51:32.54	21.86	14.90	-32.9	-33.6	25.7	0.00e+00	0	39	0	805306368	40	5450
2026-01-01 16:51:33.55	21.86	15.01	-33.0	-33.6	25.6	0.00e+00	0	39	0	811597824	40	5482
2026-01-01 16:51:34.56	21.86	15.11	-33.1	-33.7	25.6	0.00e+00	0	39	0	816840704	40	5557
2026-01-01 16:51:35.57	21.87	15.22	-32.8	-33.5	25.8	0.00e+00	0	39	0	823132160	38	6049
2026-01-01 16:51:36.58	21.87	15.33	-32.7	-33.3	25.9	0.00e+00	0	39	0	828375040	38	5955
2026-01-01 16:51:37.59	21.87	15.44	-32.7	-33.3	25.9	0.00e+00	0	39	0	833617920	38	5940
2026-01-01 16:51:38.60	21.88	15.55	-32.7	-33.3	25.9	0.00e+00	0	39	0	839909376	38	5943
2026-01-01 16:51:39.61	21.88	15.66	-32.7	-33.4	25.8	0.00e+00	0	39	0	845152256	38	5974
2026-01-01 16:51:40.62	21.89	15.77	-32.6	-33.3	26.0	0.00e+00	0	39	0	851443712	38	5925
2026-01-01 16:51:41.63	21.89	15.88	-32.6	-33.2	26.0	0.00e+00	0	39	0	856686592	38	5864
2026-01-01 16:51:42.64	21.89	15.99	-32.5	-33.2	26.1	0.00e+00	0	39	0	861929472	38	5834
2026-01-01 16:51:43.65	21.90	16.10	-32.5	-33.1	26.0	0.00e+00	0	39	0	868220928	38	5819
2026-01-01 16:51:44.66	21.90	16.22	-32.5	-33.2	26.1	0.00e+00	0	39	0	873463808	38	5847
2026-01-01 16:51:45.67	21.90	16.33	-32.5	-33.2	26.1	0.00e+00	0	39	0	879755264	38	5837
2026-01-01 16:51:46.68	21.91	16.44	-32.4	-33.0	26.2	0.00e+00	0	39	0	884998144	38	5759
2026-01-01 16:51:47.69	21.91	16.56	-32.4	-33.0	26.2	0.00e+00	0	39	0	890241024	38	5732
2026-01-01 16:51:48.70	21.91	16.67	-32.4	-33.0	26.2	0.00e+00	0	39	0	896532480	38	5710
2026-01-01 16:51:49.71	21.92	16.79	-32.6	-33.2	25.9	0.00e+00	0	39	0	901775360	38	5889
2026-01-01 16:51:50.72	21.92	16.90	-32.4	-33.1	26.2	0.00e+00	0	39	0	908066816	38	5780
2026-01-01 16:51:51.73	21.93	17.02	-32.3	-32.9	26.3	0.00e+00	0	39	0	913309696	38	5650
2026-01-01 16:51:52.74	21.93	17.14	-32.3	-33.0	26.3	0.00e+00	0	39	0	919601152	38	5712
2026-01-01 16:51:53.74	21.93	17.25	-32.4	-33.0	26.1	0.00e+00	0	39	0	924844032	38	5749
2026-01-01 16:51:54.76	21.94	17.37	-32.3	-33.0	26.3	0.00e+00	0	39	0	930086912	38	5700
2026-01-01 16:51:55.76	21.94	17.49	-32.3	-33.0	26.3	0.00e+00	0	39	0	936378368	38	5731
2026-01-01 16:51:56.78	21.94	17.61	-32.2	-32.9	26.3	0.00e+00	0	39	0	941621248	38	5635
2026-01-01 16:51:57.78	21.95	17.73	-32.1	-32.8	26.4	0.00e+00	0	39	0	947912704	38	5579
2026-01-01 16:51:58.79	21.95	17.85	-32.1	-32.7	26.4	0.00e+00	0	39	0	953155584	38	5564
2026-01-01 16:51:59.80	21.95	17.97	-32.1	-32.7	26.5	0.00e+00	0	39	0	958398464	38	5556
2026-01-01 16:52:00.82	21.96	18.09	-32.1	-32.8	26.4	0.00e+00	0	39	0	964689920	38	5577
2026-01-01 16:52:01.82	21.96	18.21	-32.0	-32.6	26.5	0.00e+00	0	39	0	969932800	38	5494
2026-01-01 16:52:02.83	21.97	18.34	-32.0	-32.6	26.6	0.00e+00	0	39	0	976224256	38	5485
2026-01-01 16:52:03.84	21.97	18.46	-31.9	-32.6	26.6	0.00e+00	0	39	0	981467136	38	5448
2026-01-01 16:52:04.86	21.97	18.59	-31.9	-32.6	26.6	0.00e+00	0	39	0	986710016	38	5447
2026-01-01 16:52:05.87	21.98	18.71	-31.9	-32.5	26.6	0.00e+00	0	39	0	993001472	38	5415
2026-01-01 16:52:06.88	21.98	18.84	-32.0	-32.6	26.5	0.00e+00	0	39	0	998244352	38	5469
2026-01-01 16:52:07.89	21.98	18.96	-31.9	-32.6	26.7	0.00e+00	0	39	0	1004535808	38	5443
2026-01-01 16:52:08.90	21.99	19.09	-31.9	-32.5	26.7	0.00e+00	0	39	0	1009778688	38	5432
2026-01-01 16:52:09.91	21.99	19.21	-31.7	-32.3	26.9	0.00e+00	0	39	0	1016070144	36	5948
2026-01-01 16:52:10.92	21.99	19.34	-31.5	-32.1	27.0	0.00e+00	0	39	0	1021313024	36	5801
2026-01-01 16:52:11.93	22.00	19.47	-31.6	-32.2	27.1	0.00e+00	0	39	0	1027604480	36	5843
2026-01-01 16:52:12.94	22.00	19.60	-31.5	-32.1	27.1	0.00e+00	0	39	0	1032847360	36	5770
2026-01-01 16:52:13.95	22.00	19.73	-31.6	-32.2	27.0	0.00e+00	0	39	0	1038090240	36	5887
2026-01-01 16:52:14.96	22.01	19.86	-31.4	-32.0	27.1	0.00e+00	0	39	0	1044381696	36	5761
2026-01-01 16:52:15.97	22.01	19.99	-31.4	-32.0	27.1	0.00e+00	0	39	0	1049624576	36	5758
2026-01-01 16:52:16.98	22.01	20.12	-31.4	-32.0	27.1	0.00e+00	0	39	0	1055916032	36	5752
2026-01-01 16:52:17.99	22.02	20.26	-31.4	-32.0	27.2	0.00e+00	0	39	0	1061158912	36	5717
2026-01-01 16:52:19.00	22.02	20.39	-31.3	-32.0	27.2	0.00e+00	0	39	0	1066401792	36	5700
2026-01-01 16:52:20.01	22.02	20.52	-31.3	-32.0	27.1	0.00e+00	0	39	0	1072693248	36	5707
2026-01-01 16:52:21.02	22.03	20.66	-31.3	-32.0	27.2	0.00e+00	0	39	0	1077936128	36	5699
2026-01-01 16:52:22.03	22.03	20.79	-31.3	-31.9	27.2	0.00e+00	0	39	0	1084227584	36	5666
2026-01-01 16:52:23.04	22.04	20.93	-31.5	-32.1	27.1	0.00e+00	0	39	0	1089470464	36	5771
2026-01-01 16:52:24.05	22.04	21.07	-31.5	-32.1	27.1	0.00e+00	0	39	0	1094713344	36	5792
2026-01-01 16:52:25.06	22.04	21.21	-31.5	-32.1	27.1	0.00e+00	0	39	0	1101004800	36	5796
2026-01-01 16:52:26.08	22.05	21.35	-31.7	-32.3	26.9	0.00e+00	0	39	0	1106247680	36	5916
2026-01-01 16:52:27.09	22.05	21.48	-31.3	-31.9	27.3	0.00e+00	0	39	0	1112539136	36	5650
2026-01-01 16:52:28.10	22.05	21.63	-31.4	-32.0	27.1	0.00e+00	0	39	0	1117782016	36	5752
2026-01-01 16:52:29.11	22.06	21.77	-31.4	-32.1	27.1	0.00e+00	0	39	0	1124073472	36	5766
2026-01-01 16:52:30.12	22.06	21.91	-31.3	-31.9	27.3	0.00e+00	0	39	0	1129316352	36	5672
2026-01-01 16:52:31.12	22.06	22.05	-31.2	-31.8	27.3	0.00e+00	0	39	0	1135607808	36	5615
2026-01-01 16:52:32.13	22.07	22.19	-31.3	-31.9	27.3	0.00e+00	0	39	0	1140850688	36	5669
2026-01-01 16:52:33.14	22.07	22.34	-31.2	-31.8	27.3	0.00e+00	0	39	0	1146093568	36	5612
2026-01-01 16:52:34.15	22.07	22.48	-31.2	-31.9	27.3	0.00e+00	0	39	0	1152385024	36	5640
2026-01-01 16:52:35.16	22.08	22.63	-31.1	-31.7	27.4	0.00e+00	0	39	0	1157627904	36	5529
2026-01-01 16:52:36.17	22.08	22.77	-31.1	-31.7	27.4	0.00e+00	0	39	0	1163919360	36	5559
2026-01-01 16:52:37.19	22.08	22.92	-31.1	-31.7	27.5	0.00e+00	0	39	0	1169162240	36	5520
2026-01-01 16:52:38.20	22.09	23.07	-30.9	-31.6	27.6	0.00e+00	0	39	0	1174405120	36	5447
2026-01-01 16:52:39.21	22.09	23.22	-31.1	-31.7	27.4	0.00e+00	0	39	0	1180696576	36	5540
2026-01-01 16:52:40.22	22.09	23.37	-31.0	-31.6	27.6	0.00e+00	0	39	0	1185939456	36	5502
2026-01-01 16:52:41.23	22.10	23.52	-30.8	-31.4	27.7	0.00e+00	0	39	0	1192230912	36	5320
2026-01-01 16:52:42.24	22.10	23.67	-30.8	-31.4	27.7	0.00e+00	0	39	0	1197473792	36	5347
2026-01-01 16:52:43.25	22.10	23.82	-30.8	-31.3	27.7	0.00e+00	0	39	0	1202716672	34	5957
2026-01-01 16:52:44.26	22.11	23.98	-30.7	-31.3	27.7	0.00e+00	0	39	0	1209008128	34	5917
2026-01-01 16:52:45.27	22.11	24.13	-30.8	-31.4	27.6	0.00e+00	0	39	0	1214251008	34	5987
2026-01-01 16:52:46.28	22.11	24.29	-30.7	-31.4	27.7	0.00e+00	0	39	0	1220542464	34	5966
2026-01-01 16:52:47.29	22.12	24.44	-30.8	-31.4	27.7	0.00e+00	0	39	0	1225785344	34	5997
2026-01-01 16:52:48.30	22.12	24.60	-30.7	-31.4	27.7	0.00e+00	0	39	0	1232076800	34	5979
2026-01-01 16:52:49.31	22.12	24.76	-30.9	-31.5	27.6	0.00e+00	0	39	0	1237319680	34	6074
2026-01-01 16:52:50.32	22.13	24.92	-30.7	-31.4	27.7	0.00e+00	0	39	0	1243611136	34	5975
2026-01-01 16:52:51.33	22.13	25.08	-30.8	-31.4	27.7	0.00e+00	0	39	0	1248854016	34	6031
2026-01-01 16:52:52.34	22.13	25.24	-30.9	-31.5	27.6	0.00e+00	0	39	0	1254096896	34	6079
2026-01-01 16:52:53.35	22.14	25.40	-30.9	-31.6	27.6	0.00e+00	0	39	0	1260388352	34	6105
2026-01-01 16:52:54.36	22.14	25.57	-31.1	-31.7	27.4	0.00e+00	0	39	0	1265631232	34	6237
2026-01-01 16:52:55.37	22.14	25.73	-31.1	-31.7	27.4	0.00e+00	0	39	0	1271922688	34	6238
2026-01-01 16:52:56.38	22.14	25.89	-31.0	-31.6	27.5	0.00e+00	0	39	0	1277165568	34	6149
2026-01-01 16:52:57.39	22.15	26.06	-30.9	-31.5	27.5	0.00e+00	0	39	0	1282408448	34	6094
2026-01-01 16:52:58.40	22.15	26.23	-31.0	-31.6	27.4	0.00e+00	0	39	0	1288699904	34	6160
2026-01-01 16:52:59.41	22.15	26.40	-31.1	-31.7	27.4	0.00e+00	0	39	0	1293942784	34	6213
2026-01-01 16:53:00.42	22.16	26.57	-30.9	-31.6	27.6	0.00e+00	0	39	0	1300234240	34	6126
2026-01-01 16:53:01.43	22.16	26.74	-30.9	-31.6	27.6	0.00e+00	0	39	0	1305477120	34	6113
2026-01-01 16:53:02.44	22.16	26.91	-31.2	-31.9	27.5	0.00e+00	0	39	0	1310720000	34	6335
2026-01-01 16:53:03.45	22.17	27.08	-30.8	-31.4	27.7	0.00e+00	0	39	0	1317011456	34	6022
2026-01-01 16:53:04.46	22.17	27.25	-30.9	-31.5	27.6	0.00e+00	0	39	0	1322254336	34	6049
2026-01-01 16:53:05.47	22.17	27.43	-30.8	-31.5	27.7	0.00e+00	0	39	0	1328545792	34	6041
2026-01-01 16:53:06.48	22.18	27.60	-30.7	-31.3	27.7	0.00e+00	0	39	0	1333788672	34	5945
2026-01-01 16:53:07.49	22.18	27.78	-30.6	-31.2	27.9	0.00e+00	0	39	0	1340080128	34	5839
2026-01-01 16:53:08.50	22.18	27.96	-30.6	-31.2	27.8	0.00e+00	0	39	0	1345323008	34	5875
2026-01-01 16:53:09.51	22.19	28.14	-30.3	-31.0	28.0	0.00e+00	0	39	0	1351614464	34	5714
2026-01-01 16:53:10.52	22.19	28.32	-30.4	-31.1	28.0	0.00e+00	0	39	0	1356857344	34	5764
2026-01-01 16:53:11.53	22.19	28.50	-30.5	-31.1	27.9	0.00e+00	0	39	0	1362100224	34	5775
2026-01-01 16:53:12.54	22.19	28.68	-30.4	-31.0	28.1	0.00e+00	0	39	0	1368391680	34	5724
2026-01-01 16:53:13.55	22.20	28.87	-30.6	-31.2	27.9	0.00e+00	0	39	0	1373634560	34	5835
2026-01-01 16:53:14.56	22.20	29.05	-30.6	-31.3	27.8	0.00e+00	0	39	0	1379926016	34	5899
2026-01-01 16:53:15.58	22.20	29.24	-30.6	-31.2	27.8	0.00e+00	0	39	0	1385168896	34	5882
2026-01-01 16:53:16.58	22.21	29.43	-30.5	-31.2	27.9	0.00e+00	0	39	0	1390411776	34	5835
2026-01-01 16:53:17.59	22.21	29.62	-30.6	-31.3	27.8	0.00e+00	0	39	0	1396703232	34	5904
2026-01-01 16:53:18.60	22.21	29.81	-30.7	-31.3	27.9	0.00e+00	0	40	0	1401946112	34	5924
2026-01-01 16:53:19.61	22.21	30.00	-30.6	-31.2	27.9	0.00e+00	0	39	0	1408237568	34	5856
2026-01-01 16:53:20.62	22.22	30.19	-30.5	-31.1	27.9	0.00e+00	0	39	0	1413480448	34	5801
2026-01-01 16:53:21.63	22.22	30.39	-30.6	-31.1	27.9	0.00e+00	0	39	0	1418723328	34	5824
2026-01-01 16:53:22.64	22.22	30.58	-30.6	-31.2	27.8	0.00e+00	0	39	0	1425014784	34	5881
2026-01-01 16:53:23.65	22.23	30.78	-30.7	-31.3	27.8	0.00e+00	0	39	0	1430257664	34	5919
2026-01-01 16:53:24.67	22.23	30.98	-30.6	-31.2	27.9	0.00e+00	0	39	0	1436549120	34	5865
2026-01-01 16:53:25.68	22.23	31.18	-30.6	-31.2	27.8	0.00e+00	0	39	0	1441792000	34	5880
2026-01-01 16:53:26.69	22.23	31.38	-30.6	-31.3	27.9	0.00e+00	0	39	0	1448083456	34	5908
2026-01-01 16:53:27.70	22.24	31.58	-30.6	-31.2	27.9	0.00e+00	0	39	0	1453326336	34	5889
2026-01-01 16:53:28.71	22.24	31.79	-30.6	-31.2	27.8	0.00e+00	0	39	0	1459617792	34	5890
2026-01-01 16:53:29.72	22.24	31.99	-30.7	-31.4	27.8	0.00e+00	0	39	0	1464860672	34	5965
2026-01-01 16:53:30.73	22.25	32.20	-30.5	-31.1	28.0	0.00e+00	0	39	0	1470103552	34	5781
2026-01-01 16:53:31.74	22.25	32.41	-30.5	-31.1	28.0	0.00e+00	0	39	0	1476395008	34	5807
2026-01-01 16:53:32.74	22.25	32.61	-30.4	-31.0	28.0	0.00e+00	0	39	0	1481637888	34	5737
2026-01-01 16:53:33.75	22.25	32.83	-30.5	-31.1	27.7	0.00e+00	0	39	0	1486880768	34	5823
2026-01-01 16:53:34.76	22.26	33.04	-30.8	-31.3	27.7	0.00e+00	0	39	0	1493172224	34	5962
2026-01-01 16:53:35.77	22.26	33.25	-31.2	-31.8	27.5	0.00e+00	0	39	0	1498415104	34	6280
2026-01-01 16:53:36.78	22.26	33.47	-31.2	-31.8	27.5	0.00e+00	0	39	0	1504706560	34	6276
2026-01-01 16:53:37.79	22.26	33.69	-31.3	-32.0	27.3	0.00e+00	0	39	0	1509949440	34	6404
2026-01-01 16:53:38.80	22.27	33.90	-31.1	-31.7	27.6	0.00e+00	0	39	0	1515192320	34	6191
2026-01-01 16:53:39.81	22.27	34.12	-31.1	-31.8	27.3	0.00e+00	0	39	0	1521483776	34	6254
2026-01-01 16:53:40.82	22.27	34.35	-31.2	-31.8	27.7	0.00e+00	0	39	0	1526726656	34	6279
2026-01-01 16:53:41.83	22.27	34.57	-30.7	-31.3	27.8	0.00e+00	0	39	0	1533018112	34	5959
2026-01-01 16:53:42.84	22.28	34.80	-30.2	-30.8	28.3	0.00e+00	0	39	0	1538260992	34	5579
2026-01-01 16:53:43.85	22.28	35.02	-30.0	-30.6	28.3	0.00e+00	0	39	0	1544552448	34	5471
2026-01-01 16:53:44.86	22.28	35.25	-29.9	-30.5	28.4	0.00e+00	0	40	0	1549795328	34	5421
2026-01-01 16:53:45.87	22.28	35.48	-29.9	-30.5	28.4	0.00e+00	0	40	0	1556086784	34	5387
2026-01-01 16:53:46.88	22.29	35.71	-30.0	-30.6	28.4	0.00e+00	0	39	0	1561329664	34	5451
2026-01-01 16:53:47.89	22.29	35.95	-30.1	-30.7	28.3	0.00e+00	0	39	0	1566572544	34	5519
2026-01-01 16:53:48.90	22.29	36.18	-29.8	-30.4	28.4	0.00e+00	0	39	0	1572864000	34	5340
2026-01-01 16:53:49.91	22.29	36.42	-29.9	-30.5	28.5	0.00e+00	0	39	0	1578106880	34	5419
2026-01-01 16:53:50.91	22.30	36.65	-29.6	-30.2	28.6	0.00e+00	0	39	0	1584398336	32	5886
2026-01-01 16:53:51.93	22.30	36.90	-29.5	-30.1	28.7	0.00e+00	0	40	0	1589641216	32	5803
2026-01-01 16:53:52.94	22.30	37.14	-29.6	-30.1	28.6	0.00e+00	0	39	0	1594884096	32	5828
2026-01-01 16:53:53.94	22.30	37.38	-29.6	-30.2	28.6	0.00e+00	0	39	0	1601175552	32	5881
2026-01-01 16:53:54.96	22.31	37.63	-29.7	-30.3	28.5	0.00e+00	0	39	0	1606418432	32	5937
2026-01-01 16:53:55.97	22.31	37.88	-29.7	-30.3	28.6	0.00e+00	0	39	0	1612709888	32	5940
2026-01-01 16:53:56.98	22.31	38.13	-29.8	-30.3	28.6	0.00e+00	0	39	0	1617952768	32	5952
2026-01-01 16:53:57.99	22.31	38.38	-29.7	-30.3	28.6	0.00e+00	0	39	0	1623195648	32	5899
2026-01-01 16:53:59.00	22.31	38.63	-29.7	-30.3	28.6	0.00e+00	0	39	0	1629487104	32	5947
2026-01-01 16:54:00.00	22.32	38.88	-29.9	-30.5	28.4	0.00e+00	0	39	0	1634729984	32	6048
2026-01-01 16:54:01.01	22.32	39.14	-29.9	-30.5	28.5	0.00e+00	0	39	0	1641021440	32	6074
2026-01-01 16:54:02.02	22.32	39.40	-30.2	-30.8	28.4	0.00e+00	0	39	0	1646264320	32	6260
2026-01-01 16:54:03.03	22.32	39.66	-30.1	-30.6	28.3	0.00e+00	0	39	0	1652555776	32	6171
2026-01-01 16:54:04.04	22.32	39.92	-30.2	-30.8	28.2	0.00e+00	0	39	0	1657798656	32	6290
2026-01-01 16:54:05.06	22.33	40.19	-30.2	-30.8	28.2	0.00e+00	0	39	0	1663041536	32	6300
2026-01-01 16:54:06.06	22.33	40.45	-30.1	-30.7	28.2	0.00e+00	0	39	0	1669332992	32	6223
2026-01-01 16:54:07.07	22.33	40.72	-30.1	-30.7	28.3	0.00e+00	0	39	0	1674575872	32	6207
2026-01-01 16:54:08.09	22.33	41.00	-30.2	-30.8	28.2	0.00e+00	0	39	0	1680867328	32	6287
2026-01-01 16:54:09.10	22.33	41.27	-30.3	-30.8	28.2	0.00e+00	0	39	0	1686110208	32	6296
2026-01-01 16:54:10.10	22.33	41.54	-30.3	-30.9	28.2	0.00e+00	0	39	0	1691353088	32	6332
2026-01-01 16:54:11.11	22.34	41.82	-30.4	-31.0	28.2	0.00e+00	0	39	0	1697644544	32	6424
2026-01-01 16:54:12.12	22.34	42.10	-30.5	-31.1	28.1	0.00e+00	0	39	0	1702887424	32	6489
2026-01-01 16:54:13.14	22.34	42.38	-30.7	-31.2	27.9	0.00e+00	0	39	0	1709178880	32	6612
2026-01-01 16:54:14.15	22.34	42.67	-30.6	-31.2	27.9	0.00e+00	0	39	0	1714421760	32	6598
2026-01-01 16:54:15.16	22.34	42.95	-30.7	-31.3	27.9	0.00e+00	0	39	0	1719664640	32	6671
2026-01-01 16:54:16.17	22.34	43.24	-30.6	-31.3	27.8	0.00e+00	0	39	0	1725956096	34	5897
2026-01-01 16:54:17.18	22.35	43.53	-30.6	-31.2	27.9	0.00e+00	0	39	0	1731198976	34	5836
2026-01-01 16:54:18.19	22.35	43.82	-30.6	-31.2	27.9	0.00e+00	0	39	0	1737490432	34	5890
2026-01-01 16:54:19.20	22.35	44.12	-30.7	-31.3	27.8	0.00e+00	0	39	0	1742733312	34	5919
2026-01-01 16:54:20.21	22.35	44.41	-30.6	-31.2	28.0	0.00e+00	0	39	0	1749024768	34	5829
2026-01-01 16:54:21.22	22.35	44.71	-30.4	-31.0	28.1	0.00e+00	0	39	0	1754267648	34	5734
2026-01-01 16:54:22.23	22.35	45.02	-30.5	-31.1	28.0	0.00e+00	0	39	0	1760559104	34	5812
2026-01-01 16:54:23.24	22.35	45.32	-30.8	-31.4	27.8	0.00e+00	0	39	0	1765801984	34	6024
2026-01-01 16:54:24.25	22.35	45.63	-30.8	-31.5	27.7	0.00e+00	0	39	0	1771044864	34	6037
2026-01-01 16:54:25.26	22.36	45.93	-30.7	-31.3	27.8	0.00e+00	0	39	0	1777336320	34	5953
2026-01-01 16:54:26.27	22.36	46.24	-30.7	-31.3	27.9	0.00e+00	0	39	0	1782579200	34	5930
2026-01-01 16:54:27.28	22.36	46.56	-30.8	-31.4	27.8	0.00e+00	0	39	0	1788870656	34	5980
2026-01-01 16:54:28.29	22.36	46.87	-30.7	-31.3	27.9	0.00e+00	0	39	0	1794113536	34	5937
2026-01-01 16:54:29.30	22.36	47.19	-30.7	-31.3	27.9	0.00e+00	0	39	0	1799356416	34	5903
2026-01-01 16:54:30.31	22.36	47.51	-30.7	-31.3	27.9	0.00e+00	0	39	0	1805647872	34	5926
2026-01-01 16:54:31.32	22.36	47.84	-30.4	-31.0	28.1	0.00e+00	0	39	0	1810890752	34	5711
2026-01-01 16:54:32.33	22.36	48.16	-30.4	-31.0	28.1	0.00e+00	0	39	0	1817182208	34	5716
2026-01-01 16:54:33.34	22.36	48.49	-30.5	-31.1	28.0	0.00e+00	0	39	0	1822425088	34	5796
2026-01-01 16:54:34.35	22.36	48.82	-30.3	-30.9	28.2	0.00e+00	0	39	0	1827667968	34	5649
2026-01-01 16:54:35.36	22.36	49.15	-30.3	-30.9	28.2	0.00e+00	0	39	0	1833959424	34	5631
2026-01-01 16:54:36.37	22.36	49.49	-30.0	-30.6	28.3	0.00e+00	0	39	0	1839202304	34	5474
2026-01-01 16:54:37.38	22.36	49.82	-30.4	-31.0	28.1	0.00e+00	0	39	0	1845493760	34	5703
2026-01-01 16:54:38.39	22.36	50.16	-31.0	-31.7	27.5	0.00e+00	0	39	0	1850736640	34	6196
2026-01-01 16:54:39.40	22.36	50.51	-31.4	-32.1	27.3	0.00e+00	0	39	0	1857028096	34	6497
2026-01-01 16:54:40.41	22.36	50.85	-31.5	-32.2	27.2	0.00e+00	0	39	0	1862270976	34	6571
2026-01-01 16:54:41.42	22.36	51.20	-31.2	-31.8	27.4	0.00e+00	0	39	0	1868562432	34	6278
2026-01-01 16:54:42.43	22.36	51.55	-31.4	-32.1	27.3	0.00e+00	0	39	0	1873805312	34	6484
2026-01-01 16:54:43.44	22.36	51.91	-31.8	-32.5	27.0	0.00e+00	0	39	0	1879048192	36	6038
2026-01-01 16:54:44.45	22.36	52.26	-32.4	-33.1	26.5	0.00e+00	0	39	0	1885339648	36	6494
2026-01-01 16:54:45.46	22.36	52.62	-32.5	-33.1	26.6	0.00e+00	0	39	0	1890582528	36	6523
2026-01-01 16:54:46.47	22.36	52.98	-31.4	-32.0	27.4	0.00e+00	0	39	0	1896873984	36	5750
2026-01-01 16:54:47.48	22.36	53.35	-31.1	-31.7	27.7	0.00e+00	0	39	0	1902116864	36	5520
2026-01-01 16:54:48.49	22.36	53.71	-31.1	-31.7	27.6	0.00e+00	0	39	0	1907359744	36	5514
2026-01-01 16:54:49.50	22.36	54.08	-31.4	-32.0	27.2	0.00e+00	0	39	0	1913651200	36	5757
2026-01-01 16:54:50.51	22.36	54.45	-31.8	-32.4	27.0	0.00e+00	0	39	0	1918894080	36	6028
2026-01-01 16:54:51.53	22.35	54.83	-31.8	-32.4	27.0	0.00e+00	0	39	0	1925185536	36	5982
2026-01-01 16:54:52.54	22.35	55.21	-31.4	-32.0	27.4	0.00e+00	0	39	0	1930428416	36	5717
2026-01-01 16:54:53.54	22.35	55.59	-31.2	-31.8	27.5	0.00e+00	0	39	0	1935671296	36	5607
2026-01-01 16:54:54.55	22.35	55.97	-31.3	-32.0	27.4	0.00e+00	0	39	0	1941962752	36	5699
2026-01-01 16:54:55.56	22.35	56.35	-31.7	-32.4	27.0	0.00e+00	0	39	0	1947205632	36	5991
2026-01-01 16:54:56.57	22.34	56.74	-31.5	-32.1	27.3	0.00e+00	0	39	0	1953497088	36	5771
2026-01-01 16:54:57.58	22.34	57.13	-31.1	-31.7	27.5	0.00e+00	0	39	0	1958739968	36	5534
2026-01-01 16:54:58.59	22.34	57.53	-31.4	-32.0	27.3	0.00e+00	0	39	0	1965031424	36	5754
2026-01-01 16:54:59.60	22.34	57.92	-31.4	-32.0	27.3	0.00e+00	0	39	0	1970274304	36	5720
2026-01-01 16:55:00.61	22.33	58.32	-31.1	-31.7	27.5	0.00e+00	0	39	0	1976565760	36	5516
2026-01-01 16:55:01.62	22.33	58.72	-31.2	-31.8	27.5	0.00e+00	0	39	0	1981808640	36	5615
2026-01-01 16:55:02.63	22.33	59.13	-31.0	-31.6	27.6	0.00e+00	0	39	0	1987051520	36	5480
2026-01-01 16:55:03.64	22.32	59.53	-30.9	-31.6	27.6	0.00e+00	0	39	0	1993342976	36	5447
2026-01-01 16:55:04.65	22.32	59.94	-30.3	-30.9	27.9	0.00e+00	0	39	0	1998585856	34	5682
2026-01-01 16:55:05.66	22.32	60.36	-30.1	-30.7	28.3	0.00e+00	0	39	0	2004877312	34	5525
2026-01-01 16:55:06.67	22.31	60.77	-30.3	-30.9	28.1	0.00e+00	0	39	0	2010120192	34	5674
2026-01-01 16:55:07.68	22.31	61.19	-30.4	-31.1	28.0	0.00e+00	0	39	0	2015363072	34	5777
2026-01-01 16:55:08.69	22.30	61.61	-30.5	-31.1	28.0	0.00e+00	0	39	0	2021654528	34	5784
2026-01-01 16:55:09.70	22.30	62.03	-30.4	-31.0	28.0	0.00e+00	0	39	0	2026897408	34	5721
2026-01-01 16:55:10.71	22.29	62.46	-30.1	-30.7	28.2	0.00e+00	0	39	0	2032140288	34	5510
2026-01-01 16:55:11.72	22.29	62.89	-30.4	-31.1	28.0	0.00e+00	0	39	0	2038431744	34	5774
2026-01-01 16:55:12.73	22.28	63.32	-30.1	-30.7	28.3	0.00e+00	0	39	0	2043674624	34	5524
2026-01-01 16:55:13.74	22.27	63.75	-30.0	-30.6	28.2	0.00e+00	0	39	0	2049966080	34	5477
2026-01-01 16:55:14.75	22.27	64.19	-30.4	-31.0	28.1	0.00e+00	0	39	0	2055208960	34	5711
2026-01-01 16:55:15.76	22.26	64.63	-30.4	-31.0	27.9	0.00e+00	0	39	0	2061500416	34	5755
2026-01-01 16:55:16.77	22.25	65.07	-30.4	-31.0	28.1	0.00e+00	0	39	0	2066743296	34	5731
2026-01-01 16:55:17.78	22.24	65.52	-29.7	-30.3	28.6	0.00e+00	0	39	0	2073034752	34	5273
2026-01-01 16:55:18.79	22.24	65.96	-29.5	-30.1	28.6	0.00e+00	0	39	0	2078277632	32	5800
2026-01-01 16:55:19.80	22.23	66.41	-29.6	-30.2	28.6	0.00e+00	0	39	0	2083520512	32	5889
2026-01-01 16:55:20.81	22.22	66.86	-29.8	-30.4	28.5	0.00e+00	0	39	0	2089811968	32	6000
2026-01-01 16:55:21.82	22.21	67.32	-29.7	-30.3	28.6	0.00e+00	0	39	0	2095054848	32	5932
2026-01-01 16:55:22.82	22.19	67.77	-29.8	-30.5	28.4	0.00e+00	0	39	0	2101346304	32	6036
2026-01-01 16:55:23.84	22.18	68.24	-29.7	-30.3	28.5	0.00e+00	0	39	0	2106589184	32	5941
2026-01-01 16:55:24.85	22.17	68.70	-29.2	-29.8	28.8	0.00e+00	0	39	0	2111832064	32	5596
2026-01-01 16:55:25.85	22.16	69.16	-29.4	-30.0	28.8	0.00e+00	0	39	0	2118123520	32	5714
2026-01-01 16:55:26.86	22.14	69.62	-29.4	-30.1	28.7	0.00e+00	0	39	0	2123366400	32	5770
2026-01-01 16:55:27.87	22.13	70.09	-29.2	-29.8	28.9	0.00e+00	0	39	0	2129657856	32	5591
2026-01-01 16:55:28.88	22.11	70.56	-29.1	-29.7	28.9	0.00e+00	0	39	0	2134900736	32	5541
2026-01-01 16:55:29.89	22.10	71.04	-29.2	-29.8	28.9	0.00e+00	0	39	0	2140143616	32	5601
2026-01-01 16:55:30.91	22.08	71.52	-29.2	-29.8	28.9	0.00e+00	0	39	0	2146435072	32	5586
2026-01-01 16:55:31.92	22.06	72.00	-29.3	-29.9	28.9	0.00e+00	0	39	0	2151677952	32	5643
2026-01-01 16:55:32.93	22.04	72.48	-29.0	-29.6	29.1	0.00e+00	0	39	0	2157969408	32	5461
2026-01-01 16:55:33.94	22.01	72.96	-28.8	-29.4	29.2	0.00e+00	0	39	0	2163212288	30	5993
2026-01-01 16:55:34.95	21.99	73.44	-28.7	-29.2	29.3	0.00e+00	0	39	0	2169503744	30	5890
2026-01-01 16:55:35.96	21.96	73.93	-28.7	-29.3	29.3	0.00e+00	0	39	0	2174746624	30	5916
2026-01-01 16:55:36.97	21.94	74.42	-28.9	-29.4	29.1	0.00e+00	0	39	0	2181038080	30	6010
2026-01-01 16:55:37.98	21.91	74.91	-29.0	-29.6	29.0	0.00e+00	0	39	0	2186280960	30	6112
2026-01-01 16:55:38.98	21.88	75.39	-28.7	-29.2	29.2	0.00e+00	0	39	0	2191523840	30	5890
2026-01-01 16:55:39.99	21.84	75.89	-28.8	-29.4	29.0	0.00e+00	0	39	0	2197815296	30	5966
2026-01-01 16:55:41.00	21.80	76.38	-28.5	-29.1	29.4	0.00e+00	0	39	0	2203058176	30	5811
2026-01-01 16:55:42.01	21.76	76.88	-28.3	-28.9	29.5	0.00e+00	0	39	0	2209349632	30	5647
2026-01-01 16:55:43.02	21.72	77.38	-28.8	-29.5	29.1	0.00e+00	0	39	0	2214592512	30	6040
2026-01-01 16:55:44.03	21.67	77.88	-28.4	-29.0	29.4	0.00e+00	0	39	0	2219835392	30	5731
2026-01-01 16:55:45.04	21.62	78.38	-28.0	-28.6	29.7	0.00e+00	0	39	0	2226126848	30	5477
2026-01-01 16:55:46.05	21.56	78.88	-28.1	-28.7	29.6	0.00e+00	0	39	0	2231369728	30	5546
2026-01-01 16:55:47.06	21.49	79.39	-28.3	-28.9	29.5	0.00e+00	0	39	0	2237661184	30	5645
2026-01-01 16:55:48.08	21.42	79.90	-27.8	-28.4	29.8	0.00e+00	0	39	0	2242904064	30	5338
2026-01-01 16:55:49.09	21.34	80.41	-27.8	-28.3	29.8	0.00e+00	0	39	0	2248146944	28	5952
2026-01-01 16:55:50.10	21.25	80.92	-27.7	-28.3	29.9	0.00e+00	0	39	0	2254438400	28	5951
2026-01-01 16:55:51.11	21.15	81.43	-28.1	-28.7	29.7	0.00e+00	0	39	0	2259681280	28	6174
2026-01-01 16:55:52.12	21.04	81.94	-27.8	-28.4	29.8	0.00e+00	0	39	0	2265972736	28	6003
2026-01-01 16:55:53.13	20.91	82.45	-27.1	-27.6	30.3	0.00e+00	0	39	0	2271215616	28	5487
2026-01-01 16:55:54.14	20.76	82.96	-27.2	-27.7	30.1	0.00e+00	0	39	0	2277507072	28	5516
2026-01-01 16:55:55.15	20.59	83.48	-27.2	-27.8	30.1	0.00e+00	0	39	0	2282749952	28	5609
2026-01-01 16:55:56.15	20.38	83.99	-27.4	-27.9	30.0	0.00e+00	0	39	0	2287992832	28	5679
2026-01-01 16:55:57.16	20.14	84.50	-27.9	-28.5	29.7	0.00e+00	0	39	0	2294284288	28	6048
2026-01-01 16:55:58.18	19.84	85.02	-28.0	-28.6	29.6	0.00e+00	0	39	0	2299527168	28	6108
2026-01-01 16:55:59.19	19.48	85.54	-28.0	-28.6	29.7	0.00e+00	0	39	0	2305818624	28	6130
2026-01-01 16:56:00.20	19.02	86.06	-28.0	-28.5	29.7	0.00e+00	0	39	0	2311061504	28	6079
2026-01-01 16:56:01.21	18.41	86.58	-28.0	-28.6	29.7	0.00e+00	0	39	0	2317352960	28	6110
2026-01-01 16:56:02.22	17.59	87.09	-28.1	-28.7	29.6	0.00e+00	0	39	0	2322595840	28	6237
2026-01-01 16:56:03.23	16.41	87.61	-28.1	-28.8	29.6	0.00e+00	0	39	0	2327838720	28	6260
2026-01-01 16:56:04.24	14.58	88.13	-28.3	-28.9	29.4	0.00e+00	0	39	0	2334130176	28	6352
2026-01-01 16:56:05.25	11.36	88.64	-28.2	-28.8	29.4	0.00e+00	0	39	0	2339373056	28	6250
2026-01-01 16:56:06.26	4.30	89.14	-28.9	-29.5	29.1	0.00e+00	0	39	0	2345664512	30	6060
2026-01-01 16:56:07.27	339.63	89.60	-30.7	-31.2	29.1	0.00e+00	0	39	0	2350907392	36	5200
2026-01-01 16:56:08.28	253.20	89.64	-29.9	-30.4	29.1	0.00e+00	0	39	0	2356150272	38	4255
2026-01-01 16:56:09.29	223.20	89.20	-29.1	-29.7	29.1	0.00e+00	0	39	0	2362441728	32	5552
2026-01-01 16:56:10.30	215.27	88.70	-29.1	-29.7	29.3	0.00e+00	0	39	0	2367684608	30	6186
2026-01-01 16:56:11.31	211.79	88.19	-28.8	-29.4	29.0	0.00e+00	0	39	0	2373976064	30	6010
2026-01-01 16:56:12.32	209.85	87.67	-28.5	-29.1	29.2	0.00e+00	0	39	0	2379218944	30	5794
2026-01-01 16:56:13.33	208.62	87.15	-28.7	-29.2	29.0	0.00e+00	0	39	0	2385510400	30	5856
2026-01-01 16:56:14.34	207.76	86.64	-28.5	-29.1	29.0	0.00e+00	0	39	0	2390753280	30	5785
2026-01-01 16:56:15.35	207.14	86.12	-27.6	-28.2	29.8	0.00e+00	0	39	0	2395996160	28	5830
2026-01-01 16:56:16.36	206.66	85.60	-27.5	-28.1	29.8	0.00e+00	0	39	0	2402287616	28	5764
2026-01-01 16:56:17.37	206.29	85.08	-27.6	-28.1	29.9	0.00e+00	0	39	0	2407530496	28	5813
2026-01-01 16:56:18.38	205.98	84.57	-27.7	-28.2	29.8	0.00e+00	0	39	0	2413821952	28	5859
2026-01-01 16:56:19.39	205.73	84.05	-27.5	-28.0	30.0	0.00e+00	0	39	0	2419064832	28	5756
2026-01-01 16:56:20.40	205.53	83.54	-27.5	-28.1	29.8	0.00e+00	0	39	0	2424307712	28	5804
2026-01-01 16:56:21.41	205.35	83.02	-27.7	-28.3	29.7	0.00e+00	0	39	0	2430599168	28	5937
2026-01-01 16:56:22.42	205.20	82.51	-27.5	-28.2	30.0	0.00e+00	0	39	0	2435842048	28	5850
2026-01-01 16:56:23.43	205.06	81.99	-27.5	-28.1	30.0	0.00e+00	0	39	0	2442133504	28	5803
2026-01-01 16:56:24.44	204.95	81.48	-27.5	-28.1	29.9	0.00e+00	0	39	0	2447376384	28	5767
2026-01-01 16:56:25.45	204.85	80.97	-27.5	-28.1	29.7	0.00e+00	0	39	0	2452619264	28	5772
2026-01-01 16:56:26.46	204.76	80.46	-27.6	-28.2	29.7	0.00e+00	0	39	0	2458910720	28	5870
2026-01-01 16:56:27.47	204.68	79.95	-27.5	-28.0	29.9	0.00e+00	0	39	0	2464153600	28	5751
2026-01-01 16:56:28.48	204.60	79.45	-27.4	-28.0	29.9	0.00e+00	0	39	0	2470445056	28	5729
2026-01-01 16:56:29.50	204.54	78.94	-27.7	-28.3	29.7	0.00e+00	0	39	0	2475687936	28	5921
2026-01-01 16:56:30.51	204.48	78.43	-28.0	-28.6	29.6	0.00e+00	0	39	0	2481979392	28	6110
2026-01-01 16:56:31.51	204.43	77.93	-28.0	-28.6	29.5	0.00e+00	0	39	0	2487222272	28	6117
2026-01-01 16:56:32.52	204.38	77.43	-28.0	-28.6	29.6	0.00e+00	0	39	0	2493513728	28	6161
2026-01-01 16:56:33.54	204.33	76.93	-28.4	-29.0	29.4	0.00e+00	0	39	0	2498756608	28	6440
2026-01-01 16:56:34.55	204.29	76.43	-28.8	-29.4	29.2	0.00e+00	0	39	0	2503999488	28	6743
2026-01-01 16:56:35.56	204.25	75.93	-28.6	-29.2	29.0	0.00e+00	0	39	0	2510290944	30	5857
2026-01-01 16:56:36.57	204.22	75.44	-28.9	-29.6	29.1	0.00e+00	0	39	0	2515533824	30	6117
2026-01-01 16:56:37.58	204.18	74.95	-28.8	-29.3	29.1	0.00e+00	0	39	0	2521825280	30	5916
2026-01-01 16:56:38.59	204.15	74.46	-28.8	-29.4	29.3	0.00e+00	0	39	0	2527068160	30	6017
2026-01-01 16:56:39.60	204.13	73.97	-28.8	-29.4	29.0	0.00e+00	0	39	0	2532311040	30	6024
2026-01-01 16:56:40.61	204.10	73.48	-29.0	-29.6	29.0	0.00e+00	0	39	0	2538602496	30	6173
2026-01-01 16:56:41.62	204.08	72.99	-28.7	-29.3	29.1	0.00e+00	0	39	0	2543845376	30	5932
2026-01-01 16:56:42.63	204.05	72.51	-28.7	-29.2	29.2	0.00e+00	0	39	0	2550136832	30	5842
2026-01-01 16:56:43.64	204.03	72.03	-29.4	-29.9	28.7	0.00e+00	0	39	0	2555379712	30	6371
2026-01-01 16:56:44.65	204.01	71.55	-29.6	-30.3	28.5	0.00e+00	0	39	0	2560622592	30	6678
2026-01-01 16:56:45.66	204.00	71.07	-29.1	-29.6	29.0	0.00e+00	0	39	0	2566914048	30	6167
2026-01-01 16:56:46.67	203.98	70.60	-29.1	-29.7	29.0	0.00e+00	0	39	0	2572156928	30	6179
2026-01-01 16:56:47.68	203.96	70.13	-29.5	-30.0	28.6	0.00e+00	0	39	0	2578448384	30	6423
2026-01-01 16:56:48.70	203.95	69.65	-29.3	-29.8	28.9	0.00e+00	0	39	0	2583691264	30	6288
2026-01-01 16:56:49.70	203.93	69.19	-29.1	-29.7	29.0	0.00e+00	0	39	0	2589982720	30	6177
2026-01-01 16:56:50.71	203.92	68.72	-29.2	-29.7	28.9	0.00e+00	0	39	0	2595225600	30	6212
2026-01-01 16:56:51.72	203.91	68.26	-29.4	-29.9	28.8	0.00e+00	0	39	0	2600468480	30	6379
2026-01-01 16:56:52.73	203.89	67.80	-29.3	-29.8	28.7	0.00e+00	0	39	0	2606759936	30	6267
2026-01-01 16:56:53.75	203.88	67.34	-29.5	-30.1	28.7	0.00e+00	0	39	0	2612002816	30	6530
2026-01-01 16:56:54.76	203.87	66.88	-29.6	-30.2	28.5	0.00e+00	0	39	0	2618294272	30	6604
2026-01-01 16:56:55.77	203.86	66.43	-29.5	-30.0	28.7	0.00e+00	0	39	0	2623537152	30	6439
2026-01-01 16:56:56.78	203.85	65.98	-29.1	-29.8	28.7	0.00e+00	0	39	0	2629828608	30	6278
2026-01-01 16:56:57.79	203.84	65.53	-29.3	-29.9	28.7	0.00e+00	0	39	0	2635071488	30	6375
2026-01-01 16:56:58.80	203.84	65.09	-29.6	-30.3	28.5	0.00e+00	0	39	0	2640314368	30	6621
2026-01-01 16:56:59.81	203.83	64.64	-29.6	-30.1	28.5	0.00e+00	0	39	0	2646605824	30	6515
2026-01-01 16:57:00.82	203.82	64.20	-29.5	-30.1	28.7	0.00e+00	0	39	0	2651848704	30	6539
2026-01-01 16:57:01.82	203.81	63.77	-29.6	-30.2	28.7	0.00e+00	0	39	0	2658140160	30	6613
2026-01-01 16:57:02.83	203.81	63.33	-29.7	-30.3	28.5	0.00e+00	0	39	0	2663383040	32	5930
2026-01-01 16:57:03.84	203.80	62.90	-29.7	-30.2	28.5	0.00e+00	0	39	0	2668625920	32	5862
2026-01-01 16:57:04.85	203.79	62.47	-29.8	-30.4	28.4	0.00e+00	0	39	0	2674917376	32	6018
2026-01-01 16:57:05.86	203.79	62.04	-30.0	-30.7	28.2	0.00e+00	0	39	0	2680160256	32	6225
2026-01-01 16:57:06.87	203.78	61.62	-29.6	-30.2	28.5	0.00e+00	0	39	0	2686451712	32	5847
2026-01-01 16:57:07.88	203.78	61.20	-29.5	-30.0	28.6	0.00e+00	0	39	0	2691694592	32	5731
2026-01-01 16:57:08.89	203.77	60.78	-29.6	-30.3	28.5	0.00e+00	0	39	0	2696937472	32	5922
2026-01-01 16:57:09.90	203.77	60.36	-29.9	-30.4	28.4	0.00e+00	0	39	0	2703228928	32	5992
2026-01-01 16:57:10.91	203.76	59.95	-29.7	-30.4	28.5	0.00e+00	0	39	0	2708471808	32	5995
2026-01-01 16:57:11.92	203.76	59.53	-29.7	-30.3	28.4	0.00e+00	0	39	0	2714763264	32	5900
2026-01-01 16:57:12.93	203.76	59.13	-29.9	-30.5	28.3	0.00e+00	0	39	0	2720006144	32	6100
2026-01-01 16:57:13.94	203.75	58.72	-30.1	-30.8	28.2	0.00e+00	0	39	0	2726297600	32	6295
2026-01-01 16:57:14.95	203.75	58.32	-30.4	-31.0	28.1	0.00e+00	0	39	0	2731540480	32	6462
2026-01-01 16:57:15.96	203.75	57.92	-30.7	-31.4	27.8	0.00e+00	0	39	0	2737831936	32	6709
2026-01-01 16:57:16.97	203.74	57.52	-30.9	-31.5	27.6	0.00e+00	0	39	0	2743074816	34	6065
2026-01-01 16:57:17.98	203.74	57.12	-31.2	-31.9	27.3	0.00e+00	0	39	0	2748317696	34	6379
2026-01-01 16:57:18.99	203.74	56.73	-31.3	-31.9	27.2	0.00e+00	0	39	0	2754609152	34	6327
2026-01-01 16:57:20.00	203.74	56.34	-31.3	-31.9	27.2	0.00e+00	0	39	0	2759852032	34	6323
2026-01-01 16:57:21.01	203.74	55.96	-31.2	-31.8	27.0	0.00e+00	0	39	0	2766143488	34	6290
2026-01-01 16:57:22.02	203.73	55.57	-31.2	-31.9	27.0	0.00e+00	0	39	0	2771386368	34	6341
2026-01-01 16:57:23.03	203.73	55.19	-31.1	-31.7	27.1	0.00e+00	0	39	0	2776629248	34	6175
2026-01-01 16:57:24.04	203.73	54.81	-31.1	-31.7	27.2	0.00e+00	0	39	0	2782920704	34	6241
2026-01-01 16:57:25.05	203.73	54.44	-31.0	-31.5	27.5	0.00e+00	0	39	0	2788163584	34	6059
2026-01-01 16:57:26.06	203.73	54.06	-30.9	-31.6	27.6	0.00e+00	0	39	0	2794455040	34	6104
2026-01-01 16:57:27.07	203.73	53.69	-30.9	-31.5	27.7	0.00e+00	0	39	0	2799697920	34	6090
2026-01-01 16:57:28.08	203.72	53.32	-30.8	-31.5	27.6	0.00e+00	0	39	0	2804940800	34	6071
2026-01-01 16:57:29.09	203.72	52.96	-31.0	-31.6	27.5	0.00e+00	0	39	0	2811232256	34	6126
2026-01-01 16:57:30.10	203.72	52.60	-30.9	-31.6	27.7	0.00e+00	0	39	0	2816475136	34	6111
2026-01-01 16:57:31.11	203.72	52.24	-30.7	-31.4	27.8	0.00e+00	0	39	0	2822766592	34	5999
2026-01-01 16:57:32.12	203.72	51.88	-30.5	-31.1	27.9	0.00e+00	0	39	0	2828009472	34	5778
2026-01-01 16:57:33.13	203.72	51.52	-30.5	-31.2	28.0	0.00e+00	0	39	0	2834300928	34	5831
2026-01-01 16:57:34.14	203.72	51.17	-30.6	-31.2	27.8	0.00e+00	0	39	0	2839543808	34	5883
2026-01-01 16:57:35.15	203.72	50.82	-30.6	-31.3	27.8	0.00e+00	0	39	0	2844786688	34	5926
2026-01-01 16:57:36.16	203.72	50.48	-30.3	-30.8	28.1	0.00e+00	0	39	0	2851078144	34	5620
2026-01-01 16:57:37.17	203.72	50.13	-30.2	-30.7	28.1	0.00e+00	0	39	0	2856321024	34	5510
2026-01-01 16:57:38.18	203.72	49.79	-30.1	-30.6	28.2	0.00e+00	0	39	0	2862612480	34	5457
2026-01-01 16:57:39.19	203.72	49.45	-30.0	-30.5	28.2	0.00e+00	0	39	0	2867855360	34	5398
2026-01-01 16:57:40.20	203.72	49.11	-30.2	-30.7	28.1	0.00e+00	0	39	0	2873098240	34	5555
2026-01-01 16:57:41.21	203.72	48.78	-30.2	-30.9	28.1	0.00e+00	0	39	0	2879389696	34	5656
2026-01-01 16:57:42.22	203.72	48.45	-30.5	-31.1	28.0	0.00e+00	0	39	0	2884632576	34	5826
2026-01-01 16:57:43.23	203.72	48.12	-30.1	-30.6	28.2	0.00e+00	0	39	0	2890924032	34	5499
2026-01-01 16:57:44.24	203.72	47.79	-30.1	-30.6	28.2	0.00e+00	0	39	0	2896166912	34	5502
2026-01-01 16:57:45.25	203.72	47.47	-29.9	-30.6	28.3	0.00e+00	0	39	0	2901409792	34	5457
2026-01-01 16:57:46.26	203.72	47.15	-29.9	-30.6	28.3	0.00e+00	0	39	0	2907701248	34	5483
2026-01-01 16:57:47.26	203.72	46.83	-30.0	-30.7	28.2	0.00e+00	0	39	0	2912944128	34	5547
2026-01-01 16:57:48.27	203.72	46.51	-30.1	-30.7	28.2	0.00e+00	0	39	0	2919235584	34	5504
2026-01-01 16:57:49.28	203.72	46.20	-30.1	-30.6	28.2	0.00e+00	0	39	0	2924478464	34	5500
2026-01-01 16:57:50.28	203.72	45.89	-30.2	-30.9	28.1	0.00e+00	0	39	0	2930769920	34	5674
2026-01-01 16:57:51.29	203.72	45.58	-30.2	-30.7	28.1	0.00e+00	0	39	0	2936012800	34	5553
2026-01-01 16:57:52.31	203.72	45.27	-30.1	-30.8	28.2	0.00e+00	0	39	0	2941255680	34	5595
2026-01-01 16:57:53.32	203.73	44.97	-30.0	-30.5	28.2	0.00e+00	0	39	0	2947547136	34	5430
2026-01-01 16:57:54.33	203.73	44.66	-30.1	-30.6	28.2	0.00e+00	0	39	0	2952790016	34	5480
2026-01-01 16:57:55.34	203.73	44.36	-30.0	-30.7	28.2	0.00e+00	0	39	0	2959081472	34	5518
2026-01-01 16:57:56.35	203.73	44.06	-30.0	-30.7	28.2	0.00e+00	0	39	0	2964324352	34	5523
2026-01-01 16:57:57.36	203.73	43.77	-30.0	-30.7	28.2	0.00e+00	0	39	0	2970615808	34	5503
2026-01-01 16:57:58.37	203.73	43.47	-30.2	-30.8	28.1	0.00e+00	0	39	0	2975858688	34	5620
2026-01-01 16:57:59.38	203.73	43.18	-30.2	-30.9	28.1	0.00e+00	0	39	0	2981101568	34	5680
2026-01-01 16:58:00.39	203.73	42.89	-30.4	-31.1	27.9	0.00e+00	0	39	0	2987393024	34	5823
2026-01-01 16:58:01.40	203.73	42.61	-30.5	-31.2	28.0	0.00e+00	0	39	0	2992635904	34	5873
2026-01-01 16:58:02.41	203.74	42.32	-30.2	-30.9	28.1	0.00e+00	0	39	0	2998927360	34	5675
2026-01-01 16:58:03.42	203.74	42.04	-30.1	-30.6	28.2	0.00e+00	0	39	0	3004170240	34	5478
2026-01-01 16:58:04.44	203.74	41.76	-29.9	-30.6	28.3	0.00e+00	0	39	0	3009413120	34	5440
2026-01-01 16:58:05.45	203.74	41.48	-29.9	-30.4	28.3	0.00e+00	0	39	0	3015704576	34	5372
2026-01-01 16:58:06.46	203.74	41.20	-29.8	-30.3	28.5	0.00e+00	0	39	0	3020947456	34	5280
2026-01-01 16:58:07.46	203.74	40.93	-29.7	-30.2	28.6	0.00e+00	0	39	0	3027238912	32	5880
2026-01-01 16:58:08.47	203.74	40.66	-29.7	-30.3	28.5	0.00e+00	0	39	0	3032481792	32	5963
2026-01-01 16:58:09.48	203.75	40.39	-29.6	-30.3	28.6	0.00e+00	0	39	0	3038773248	32	5909
2026-01-01 16:58:10.49	203.75	40.12	-29.5	-30.2	28.7	0.00e+00	0	39	0	3044016128	32	5841
2026-01-01 16:58:11.50	203.75	39.86	-29.6	-30.3	28.7	0.00e+00	0	39	0	3049259008	32	5905
2026-01-01 16:58:12.52	203.75	39.59	-29.6	-30.3	28.5	0.00e+00	0	39	0	3055550464	32	5919
2026-01-01 16:58:13.53	203.75	39.33	-29.4	-30.1	28.7	0.00e+00	0	39	0	3060793344	32	5785
2026-01-01 16:58:14.53	203.75	39.07	-29.5	-30.0	28.7	0.00e+00	0	39	0	3067084800	32	5724
2026-01-01 16:58:15.54	203.76	38.81	-29.2	-29.7	28.9	0.00e+00	0	39	0	3072327680	32	5552
2026-01-01 16:58:16.55	203.76	38.56	-29.1	-29.8	28.9	0.00e+00	0	39	0	3077570560	32	5580
2026-01-01 16:58:17.56	203.76	38.30	-29.1	-29.8	28.8	0.00e+00	0	39	0	3083862016	32	5576
2026-01-01 16:58:18.57	203.76	38.05	-29.1	-29.8	28.8	0.00e+00	0	39	0	3089104896	32	5592
2026-01-01 16:58:19.58	203.76	37.80	-29.2	-29.7	28.9	0.00e+00	0	39	0	3095396352	32	5506
2026-01-01 16:58:20.59	203.76	37.55	-29.3	-29.7	28.8	0.00e+00	0	39	0	3100639232	32	5565
2026-01-01 16:58:21.60	203.77	37.30	-29.4	-29.9	28.8	0.00e+00	0	39	0	3105882112	32	5650
2026-01-01 16:58:22.61	203.77	37.06	-29.5	-30.0	28.6	0.00e+00	0	39	0	3112173568	32	5751
2026-01-01 16:58:23.62	203.77	36.81	-29.7	-30.2	28.5	0.00e+00	0	39	0	3117416448	32	5868
2026-01-01 16:58:24.63	203.77	36.57	-29.9	-30.4	28.4	0.00e+00	0	39	0	3123707904	32	6019
2026-01-01 16:58:25.64	203.77	36.33	-30.0	-30.5	28.4	0.00e+00	0	39	0	3128950784	32	6101
2026-01-01 16:58:26.65	203.78	36.10	-30.2	-30.7	28.1	0.00e+00	0	39	0	3135242240	32	6245
2026-01-01 16:58:27.66	203.78	35.86	-29.9	-30.4	28.3	0.00e+00	0	39	0	3140485120	32	6027
2026-01-01 16:58:28.66	203.78	35.63	-29.9	-30.5	28.3	0.00e+00	0	39	0	3146776576	32	6052
2026-01-01 16:58:29.68	203.78	35.39	-29.9	-30.6	28.3	0.00e+00	0	39	0	3152019456	32	6155
2026-01-01 16:58:30.68	203.78	35.16	-29.8	-30.3	28.4	0.00e+00	0	39	0	3157262336	32	5935
2026-01-01 16:58:31.69	203.79	34.94	-29.8	-30.3	28.5	0.00e+00	0	39	0	3163553792	32	5919
2026-01-01 16:58:32.70	203.79	34.71	-29.5	-30.1	28.6	0.00e+00	0	39	0	3168796672	32	5766
2026-01-01 16:58:33.71	203.79	34.48	-29.5	-30.0	28.6	0.00e+00	0	39	0	3175088128	32	5759
2026-01-01 16:58:34.72	203.79	34.26	-29.5	-30.1	28.6	0.00e+00	0	39	0	3180331008	32	5762
2026-01-01 16:58:35.73	203.80	34.03	-29.6	-30.1	28.5	0.00e+00	0	39	0	3185573888	32	5812
2026-01-01 16:58:36.74	203.80	33.81	-29.8	-30.3	28.5	0.00e+00	0	39	0	3191865344	32	5905
2026-01-01 16:58:37.75	203.80	33.59	-29.8	-30.3	28.5	0.00e+00	0	39	0	3197108224	32	5907
2026-01-01 16:58:38.76	203.80	33.38	-29.9	-30.5	28.4	0.00e+00	0	39	0	3203399680	32	6082
2026-01-01 16:58:39.77	203.80	33.16	-30.0	-30.7	28.2	0.00e+00	0	39	0	3208642560	32	6208
2026-01-01 16:58:40.78	203.81	32.94	-30.1	-30.7	28.2	0.00e+00	0	39	0	3213885440	32	6234
2026-01-01 16:58:41.79	203.81	32.73	-30.2	-30.9	28.2	0.00e+00	0	39	0	3220176896	32	6339
2026-01-01 16:58:42.80	203.81	32.52	-30.3	-30.8	28.1	0.00e+00	0	39	0	3225419776	32	6309
2026-01-01 16:58:43.81	203.81	32.31	-30.5	-31.1	27.9	0.00e+00	0	39	0	3231711232	32	6481
2026-01-01 16:58:44.82	203.82	32.10	-30.5	-31.0	28.0	0.00e+00	0	39	0	3236954112	32	6451
2026-01-01 16:58:45.83	203.82	31.89	-30.5	-31.1	27.9	0.00e+00	0	39	0	3243245568	32	6492
2026-01-01 16:58:46.84	203.82	31.69	-30.6	-31.1	27.8	0.00e+00	0	39	0	3248488448	32	6530
2026-01-01 16:58:47.85	203.82	31.48	-30.6	-31.2	27.8	0.00e+00	0	39	0	3253731328	32	6579
2026-01-01 16:58:48.86	203.83	31.28	-30.7	-31.3	27.7	0.00e+00	0	39	0	3260022784	32	6623
2026-01-01 16:58:49.87	203.83	31.08	-30.6	-31.2	27.7	0.00e+00	0	39	0	3265265664	32	6576
2026-01-01 16:58:50.88	203.83	30.88	-30.7	-31.2	27.8	0.00e+00	0	39	0	3271557120	34	5871
2026-01-01 16:58:51.89	203.83	30.68	-30.7	-31.3	27.7	0.00e+00	0	39	0	3276800000	34	5932
2026-01-01 16:58:52.90	203.84	30.48	-30.6	-31.2	27.8	0.00e+00	0	39	0	3282042880	34	5830
2026-01-01 16:58:53.91	203.84	30.28	-30.5	-31.0	28.0	0.00e+00	0	39	0	3288334336	34	5735
2026-01-01 16:58:54.92	203.84	30.09	-30.5	-31.0	27.8	0.00e+00	0	39	0	3293577216	34	5752
2026-01-01 16:58:55.93	203.84	29.89	-30.4	-30.9	28.0	0.00e+00	0	39	0	3299868672	34	5673
2026-01-01 16:58:56.94	203.85	29.70	-30.4	-30.9	27.9	0.00e+00	0	39	0	3305111552	34	5675
2026-01-01 16:58:57.95	203.85	29.51	-30.4	-31.0	27.9	0.00e+00	0	39	0	3310354432	34	5703
2026-01-01 16:58:58.96	203.85	29.32	-30.3	-30.8	28.1	0.00e+00	0	39	0	3316645888	34	5594
2026-01-01 16:58:59.97	203.85	29.13	-30.2	-30.7	28.1	0.00e+00	0	39	0	3321888768	34	5543
2026-01-01 16:59:00.98	203.86	28.95	-30.2	-30.7	28.1	0.00e+00	0	39	0	3328180224	34	5565
2026-01-01 16:59:01.99	203.86	28.76	-30.1	-30.7	28.1	0.00e+00	0	39	0	3333423104	34	5514
2026-01-01 16:59:03.00	203.86	28.57	-30.2	-30.9	28.0	0.00e+00	0	39	0	3339714560	34	5665
2026-01-01 16:59:04.01	203.86	28.39	-30.1	-30.6	28.2	0.00e+00	0	39	0	3344957440	34	5457
2026-01-01 16:59:05.02	203.87	28.21	-30.1	-30.6	28.3	0.00e+00	0	39	0	3351248896	34	5459
2026-01-01 16:59:06.02	203.87	28.03	-30.0	-30.6	28.3	0.00e+00	0	39	0	3356491776	34	5496
2026-01-01 16:59:07.03	203.87	27.85	-29.9	-30.6	28.3	0.00e+00	0	39	0	3361734656	34	5479
2026-01-01 16:59:08.04	203.87	27.67	-29.8	-30.4	28.4	0.00e+00	0	39	0	3368026112	32	6022
2026-01-01 16:59:09.05	203.88	27.49	-29.9	-30.6	28.3	0.00e+00	0	39	0	3373268992	32	6104
2026-01-01 16:59:10.06	203.88	27.32	-29.9	-30.5	28.3	0.00e+00	0	39	0	3379560448	32	6084
2026-01-01 16:59:11.07	203.88	27.14	-29.8	-30.4	28.4	0.00e+00	0	39	0	3384803328	32	6010
2026-01-01 16:59:12.08	203.88	26.97	-29.8	-30.5	28.4	0.00e+00	0	39	0	3390046208	32	6040
2026-01-01 16:59:13.09	203.89	26.79	-29.9	-30.5	28.4	0.00e+00	0	39	0	3396337664	32	6082
2026-01-01 16:59:14.10	203.89	26.62	-29.9	-30.6	28.3	0.00e+00	0	39	0	3401580544	32	6120
2026-01-01 16:59:15.11	203.89	26.45	-29.9	-30.6	28.3	0.00e+00	0	39	0	3407872000	32	6116
2026-01-01 16:59:16.12	203.89	26.28	-30.0	-30.7	28.3	0.00e+00	0	39	0	3413114880	32	6191
2026-01-01 16:59:17.13	203.90	26.11	-30.1	-30.7	28.2	0.00e+00	0	39	0	3418357760	32	6240
2026-01-01 16:59:18.14	203.90	25.94	-30.1	-30.8	28.1	0.00e+00	0	39	0	3424649216	32	6284
2026-01-01 16:59:19.15	203.90	25.78	-30.2	-30.9	28.1	0.00e+00	0	39	0	3429892096	32	6343
2026-01-01 16:59:20.17	203.91	25.61	-30.3	-31.0	28.0	0.00e+00	0	39	0	3436183552	32	6404
2026-01-01 16:59:21.18	203.91	25.44	-30.3	-31.0	28.1	0.00e+00	0	39	0	3441426432	32	6424
2026-01-01 16:59:22.19	203.91	25.28	-30.4	-31.1	27.9	0.00e+00	0	39	0	3447717888	32	6518
2026-01-01 16:59:23.19	203.91	25.12	-30.4	-31.1	28.0	0.00e+00	0	39	0	3452960768	32	6472
2026-01-01 16:59:24.20	203.92	24.96	-30.5	-31.2	27.8	0.00e+00	0	39	0	3458203648	32	6586
2026-01-01 16:59:25.22	203.92	24.80	-30.4	-31.1	27.9	0.00e+00	0	39	0	3464495104	32	6536
2026-01-01 16:59:26.23	203.92	24.64	-30.5	-31.2	27.8	0.00e+00	0	39	0	3469737984	32	6570
2026-01-01 16:59:27.24	203.93	24.48	-30.6	-31.3	27.8	0.00e+00	0	39	0	3476029440	32	6652
2026-01-01 16:59:28.25	203.93	24.32	-30.5	-31.2	27.9	0.00e+00	0	39	0	3481272320	32	6567
2026-01-01 16:59:29.26	203.93	24.16	-30.6	-31.3	27.8	0.00e+00	0	39	0	3487563776	32	6655
2026-01-01 16:59:30.27	203.93	24.01	-30.7	-31.2	27.8	0.00e+00	0	39	0	3492806656	34	5892
2026-01-01 16:59:31.28	203.94	23.85	-30.6	-31.3	27.8	0.00e+00	0	39	0	3498049536	34	5911
2026-01-01 16:59:32.29	203.94	23.70	-30.6	-31.1	27.9	0.00e+00	0	39	0	3504340992	34	5802
2026-01-01 16:59:33.30	203.94	23.54	-30.6	-31.3	27.8	0.00e+00	0	39	0	3509583872	34	5904
2026-01-01 16:59:34.31	203.94	23.39	-30.8	-31.5	27.6	0.00e+00	0	39	0	3515875328	34	6035
2026-01-01 16:59:35.32	203.95	23.24	-30.7	-31.4	27.7	0.00e+00	0	39	0	3521118208	34	5975
2026-01-01 16:59:36.33	203.95	23.09	-30.8	-31.4	27.6	0.00e+00	0	39	0	3526361088	34	5993
2026-01-01 16:59:37.34	203.95	22.94	-30.8	-31.5	27.5	0.00e+00	0	39	0	3532652544	34	6084
2026-01-01 16:59:38.35	203.96	22.79	-31.0	-31.5	27.6	0.00e+00	0	39	0	3537895424	34	6081
2026-01-01 16:59:39.36	203.96	22.64	-31.0	-31.6	27.5	0.00e+00	0	39	0	3544186880	34	6130
2026-01-01 16:59:40.37	203.96	22.50	-31.1	-31.6	27.5	0.00e+00	0	39	0	3549429760	34	6136
2026-01-01 16:59:41.37	203.96	22.35	-31.1	-31.7	27.4	0.00e+00	0	39	0	3555721216	34	6198
2026-01-01 16:59:42.38	203.97	22.21	-31.0	-31.5	27.4	0.00e+00	0	39	0	3560964096	34	6096
2026-01-01 16:59:43.39	203.97	22.06	-31.2	-31.7	27.4	0.00e+00	0	39	0	3566206976	34	6214
2026-01-01 16:59:44.40	203.97	21.92	-31.1	-31.7	27.4	0.00e+00	0	39	0	3572498432	34	6232
2026-01-01 16:59:45.41	203.98	21.78	-31.2	-31.9	27.3	0.00e+00	0	39	0	3577741312	34	6330
2026-01-01 16:59:46.42	203.98	21.63	-31.3	-32.0	27.2	0.00e+00	0	39	0	3584032768	34	6424
2026-01-01 16:59:47.43	203.98	21.49	-31.3	-31.8	27.2	0.00e+00	0	39	0	3589275648	34	6301
2026-01-01 16:59:48.44	203.99	21.35	-31.3	-32.0	27.2	0.00e+00	0	39	0	3594518528	34	6413
2026-01-01 16:59:49.45	203.99	21.21	-31.4	-32.1	27.1	0.00e+00	0	39	0	3600809984	34	6470
2026-01-01 16:59:50.46	203.99	21.07	-31.4	-32.0	27.0	0.00e+00	0	39	0	3606052864	34	6415
2026-01-01 16:59:51.47	203.99	20.93	-31.4	-32.1	27.1	0.00e+00	0	39	0	3612344320	34	6496
2026-01-01 16:59:52.48	204.00	20.80	-31.4	-32.2	27.1	0.00e+00	0	39	0	3617587200	34	6540
2026-01-01 16:59:53.49	204.00	20.66	-31.6	-32.3	27.0	0.00e+00	0	39	0	3622830080	34	6623
2026-01-01 16:59:54.50	204.00	20.52	-31.6	-32.3	27.0	0.00e+00	0	39	0	3629121536	34	6640
2026-01-01 16:59:55.51	204.01	20.39	-31.7	-32.3	26.9	0.00e+00	0	39	0	3634364416	36	5917
2026-01-01 16:59:56.52	204.01	20.26	-31.6	-32.1	27.0	0.00e+00	0	39	0	3640655872	36	5809
