passes_logs/2026/01/01/R4.6S_Anadyr/R4.6S_Anadyr__20260101_030242_FENGYUN_3D_rec.log

#Pass ID: 20260101_030242_FENGYUN 3D
#Satellite: FENGYUN 3D
#Configuration: FENGYUN 3D
#almurnet v.1.7.20251203
#Start time: 2026-01-01 03:02:43

#Version: 2.2.20231116
#Station: R4.6S_Anadyr
#Location: 177.4865 lon 64.73178 lat
#TLE: 1 43010U 17072A   25364.99193771  .00000012  00000+0  27255-4 0  9998
#TLE: 2 43010  98.9913 331.5779 0001825 135.6238 224.5084 14.19689358421127

#Time	Az	El	Level	Level2	SNR	BER	BlckErr	Temp	State	Recorded	gain1	gain2
2026-01-01 03:02:43.16	176.62	0.06	-49.6	-51.1	5.7	7.63e-01	0	35	0	0	60	44129
2026-01-01 03:02:44.17	176.65	0.12	-49.3	-61.4	3.6	8.46e-01	0	36	104	0	60	42548
2026-01-01 03:02:45.17	176.68	0.18	-49.3	-61.4	3.6	8.45e-01	0	36	104	0	60	42632
2026-01-01 03:02:46.18	176.71	0.24	-49.3	-61.5	3.6	8.45e-01	0	36	104	0	60	42947
2026-01-01 03:02:47.20	176.74	0.30	-49.4	-61.5	3.6	8.46e-01	0	36	104	0	60	42883
2026-01-01 03:02:48.21	176.77	0.36	-49.4	-61.5	3.6	8.46e-01	0	36	104	0	60	43066
2026-01-01 03:02:49.21	176.80	0.42	-49.5	-61.6	3.6	8.45e-01	0	37	104	0	60	43611
2026-01-01 03:02:50.22	176.83	0.48	-49.5	-61.6	3.6	8.46e-01	0	37	104	0	60	43450
2026-01-01 03:02:51.23	176.85	0.54	-49.5	-61.6	3.6	8.46e-01	0	37	104	0	60	43345
2026-01-01 03:02:52.24	176.88	0.60	-49.5	-61.6	3.6	8.46e-01	0	37	104	0	60	43604
2026-01-01 03:02:53.25	176.91	0.66	-49.5	-61.7	3.6	8.45e-01	0	37	104	0	60	43781
2026-01-01 03:02:54.26	176.94	0.72	-49.5	-61.7	3.6	8.45e-01	0	37	104	0	60	43961
2026-01-01 03:02:55.27	176.97	0.78	-49.4	-61.6	3.6	8.46e-01	0	37	104	0	60	43355
2026-01-01 03:02:56.28	177.00	0.84	-49.4	-61.6	3.6	8.45e-01	0	37	104	0	60	43251
2026-01-01 03:02:57.29	177.03	0.90	-49.3	-61.5	3.6	8.45e-01	0	37	104	0	60	42856
2026-01-01 03:02:58.30	177.06	0.96	-49.3	-61.4	3.6	8.44e-01	0	37	104	0	60	42649
2026-01-01 03:02:59.31	177.09	1.02	-49.2	-61.3	3.6	8.44e-01	0	37	104	0	60	42212
2026-01-01 03:03:00.32	177.12	1.09	-49.1	-61.2	3.6	8.45e-01	0	37	104	0	60	41423
2026-01-01 03:03:01.33	177.15	1.15	-48.9	-61.0	3.6	8.45e-01	0	37	104	0	60	40626
2026-01-01 03:03:02.34	177.18	1.21	-48.6	-60.7	3.6	8.46e-01	0	37	104	0	60	39250
2026-01-01 03:03:03.35	177.21	1.27	-48.1	-60.2	3.6	8.46e-01	0	37	104	0	60	37071
2026-01-01 03:03:04.35	177.24	1.33	-48.1	-60.2	3.6	8.46e-01	0	37	104	0	60	37142
2026-01-01 03:03:05.36	177.27	1.39	-48.1	-60.2	3.6	8.45e-01	0	37	104	0	60	37153
2026-01-01 03:03:06.37	177.30	1.46	-48.1	-60.2	3.6	8.46e-01	0	37	104	0	60	37108
2026-01-01 03:03:07.38	177.33	1.52	-48.1	-60.2	3.6	8.46e-01	0	37	104	0	60	36963
2026-01-01 03:03:08.39	177.37	1.58	-48.1	-60.2	3.6	8.45e-01	0	37	104	0	60	36883
2026-01-01 03:03:09.40	177.40	1.64	-48.1	-60.1	3.6	8.45e-01	0	37	104	0	60	36511
2026-01-01 03:03:10.41	177.43	1.71	-48.1	-60.1	3.6	8.46e-01	0	37	104	0	60	36649
2026-01-01 03:03:11.42	177.46	1.77	-48.1	-60.1	3.6	8.45e-01	0	37	104	0	60	36367
2026-01-01 03:03:12.43	177.49	1.83	-48.1	-60.1	3.6	8.45e-01	0	37	104	0	60	36622
2026-01-01 03:03:13.44	177.52	1.89	-48.1	-60.1	3.6	8.46e-01	0	37	104	0	60	36491
2026-01-01 03:03:14.45	177.55	1.96	-48.1	-60.2	3.6	8.45e-01	0	37	104	0	60	36823
2026-01-01 03:03:15.46	177.59	2.02	-48.1	-60.1	3.6	8.47e-01	0	37	104	0	60	36773
2026-01-01 03:03:16.47	177.62	2.08	-48.1	-60.1	3.6	8.45e-01	0	37	104	0	60	36754
2026-01-01 03:03:17.48	177.65	2.15	-48.1	-60.0	3.6	8.45e-01	0	37	104	0	60	36266
2026-01-01 03:03:18.49	177.68	2.21	-48.1	-59.9	3.6	8.45e-01	0	37	104	0	60	35772
2026-01-01 03:03:19.50	177.71	2.27	-48.1	-59.9	3.6	8.46e-01	0	37	104	0	60	35856
2026-01-01 03:03:20.51	177.75	2.34	-48.1	-60.1	3.6	8.46e-01	0	37	104	0	60	36357
2026-01-01 03:03:21.51	177.78	2.40	-48.1	-59.9	3.6	8.45e-01	0	37	104	0	60	35920
2026-01-01 03:03:22.52	177.81	2.47	-48.1	-59.7	3.6	8.46e-01	0	37	104	0	60	34748
2026-01-01 03:03:23.53	177.84	2.53	-48.0	-58.7	3.6	8.44e-01	0	37	104	0	60	31218
2026-01-01 03:03:24.54	177.88	2.59	-47.8	-57.5	3.8	8.44e-01	0	37	104	0	60	27145
2026-01-01 03:03:25.55	177.91	2.66	-47.7	-55.3	3.8	8.36e-01	0	37	0	0	60	20992
2026-01-01 03:03:26.56	177.94	2.72	-47.7	-54.9	3.9	8.30e-01	0	37	0	0	60	20168
2026-01-01 03:03:27.57	177.98	2.79	-47.7	-55.1	3.9	8.28e-01	0	37	0	0	60	20559
2026-01-01 03:03:28.58	178.01	2.85	-47.9	-57.6	3.8	8.43e-01	0	37	104	0	60	27504
2026-01-01 03:03:29.59	178.04	2.92	-48.0	-58.5	3.6	8.44e-01	0	37	104	0	60	30522
2026-01-01 03:03:30.60	178.08	2.98	-47.7	-56.1	4.3	8.38e-01	0	37	104	0	60	22981
2026-01-01 03:03:31.61	178.11	3.05	-46.6	-50.9	7.6	3.38e-01	0	37	0	2097152	60	12624
2026-01-01 03:03:32.62	178.15	3.11	-44.8	-47.5	11.5	1.74e-02	0	37	0	8388608	60	8583
2026-01-01 03:03:33.63	178.18	3.18	-43.0	-44.8	14.5	1.83e-05	0	37	0	13631488	60	6302
2026-01-01 03:03:34.64	178.21	3.25	-41.4	-42.7	16.7	0.00e+00	0	37	0	19922944	56	6238
2026-01-01 03:03:35.65	178.25	3.31	-39.7	-40.9	18.4	0.00e+00	0	37	0	25165824	54	5635
2026-01-01 03:03:36.66	178.28	3.38	-38.4	-39.4	19.7	0.00e+00	0	37	0	30408704	50	6002
2026-01-01 03:03:37.67	178.32	3.44	-38.1	-39.1	20.2	0.00e+00	0	37	0	36700160	50	5774
2026-01-01 03:03:38.68	178.35	3.51	-37.5	-38.4	20.7	0.00e+00	0	37	0	41943040	48	6026
2026-01-01 03:03:39.69	178.39	3.58	-37.3	-38.2	20.9	0.00e+00	0	37	0	48234496	48	5855
2026-01-01 03:03:40.70	178.42	3.64	-37.6	-38.5	20.5	0.00e+00	0	37	0	53477376	48	6051
2026-01-01 03:03:41.71	178.46	3.71	-37.2	-38.1	21.0	0.00e+00	0	37	0	59768832	48	5790
2026-01-01 03:03:42.71	178.49	3.78	-44.2	-46.7	9.0	0.00e+00	0	37	0	65011712	56	9801
2026-01-01 03:03:43.72	178.53	3.85	-36.9	-37.8	20.2	0.00e+00	0	37	0	70254592	48	5602
2026-01-01 03:03:44.73	178.56	3.91	-45.9	-49.4	9.1	0.00e+00	0	37	0	75497472	60	10656
2026-01-01 03:03:45.74	178.60	3.98	-41.5	-43.0	15.0	0.00e+00	0	37	0	81788928	50	9122
2026-01-01 03:03:46.75	178.64	4.05	-41.3	-42.6	17.1	8.92e-05	0	37	0	87031808	56	6158
2026-01-01 03:03:47.76	178.67	4.12	-40.5	-41.8	17.5	0.00e+00	0	37	0	93323264	54	6288
2026-01-01 03:03:48.77	178.71	4.18	-40.8	-42.2	16.8	0.00e+00	0	37	0	98566144	54	6556
2026-01-01 03:03:49.78	178.74	4.25	-39.5	-40.6	17.9	0.00e+00	0	37	0	104857600	52	6157
2026-01-01 03:03:50.79	178.78	4.32	-39.2	-40.2	18.1	0.00e+00	0	37	0	110100480	52	5860
2026-01-01 03:03:51.81	178.82	4.39	-39.0	-40.0	18.4	0.00e+00	0	37	0	115343360	52	5730
2026-01-01 03:03:52.82	178.86	4.46	-38.8	-39.8	18.6	0.00e+00	0	37	0	121634816	52	5630
2026-01-01 03:03:53.82	178.89	4.53	-40.0	-41.1	18.3	0.00e+00	0	37	0	126877696	52	6531
2026-01-01 03:03:54.83	178.93	4.60	-39.3	-40.4	19.3	0.00e+00	0	37	0	133169152	52	5977
2026-01-01 03:03:55.85	178.97	4.67	-38.8	-39.8	19.2	0.00e+00	0	37	0	138412032	50	6299
2026-01-01 03:03:56.86	179.00	4.74	-38.9	-39.9	20.0	0.00e+00	0	37	0	143654912	50	6332
2026-01-01 03:03:57.86	179.04	4.80	-38.3	-39.3	19.9	0.00e+00	0	37	0	149946368	50	5920
2026-01-01 03:03:58.87	179.08	4.87	-37.8	-38.7	20.3	0.00e+00	0	37	0	155189248	50	5507
2026-01-01 03:03:59.88	179.12	4.94	-38.1	-39.0	20.5	0.00e+00	0	37	0	161480704	48	6398
2026-01-01 03:04:00.90	179.16	5.01	-38.0	-38.9	20.5	0.00e+00	0	37	0	166723584	48	6364
2026-01-01 03:04:01.90	179.20	5.08	-38.5	-39.4	20.5	0.00e+00	0	37	0	171966464	48	6769
2026-01-01 03:04:02.91	179.23	5.15	-38.1	-39.1	20.4	0.00e+00	0	37	0	178257920	48	6502
2026-01-01 03:04:03.92	179.27	5.23	-38.0	-38.9	20.6	0.00e+00	0	37	0	183500800	48	6337
2026-01-01 03:04:04.93	179.31	5.30	-37.7	-38.7	20.8	0.00e+00	0	37	0	189792256	48	6191
2026-01-01 03:04:05.94	179.35	5.37	-38.1	-39.1	20.3	0.00e+00	0	37	0	195035136	48	6480
2026-01-01 03:04:06.95	179.39	5.44	-38.3	-39.3	20.5	0.00e+00	0	37	0	201326592	48	6633
2026-01-01 03:04:07.96	179.43	5.51	-38.0	-38.9	20.3	0.00e+00	0	37	0	206569472	48	6369
2026-01-01 03:04:08.97	179.47	5.58	-38.1	-39.1	20.1	0.00e+00	0	37	0	211812352	48	6486
2026-01-01 03:04:09.98	179.51	5.65	-37.6	-38.5	21.1	0.00e+00	0	37	0	218103808	48	6052
2026-01-01 03:04:10.99	179.55	5.72	-37.2	-38.0	21.2	0.00e+00	0	37	0	223346688	48	5734
2026-01-01 03:04:12.00	179.59	5.80	-37.2	-38.0	21.4	0.00e+00	0	37	0	229638144	48	5748
2026-01-01 03:04:13.01	179.63	5.87	-36.2	-36.9	22.0	0.00e+00	0	37	0	234881024	46	5693
2026-01-01 03:04:14.02	179.67	5.94	-36.1	-36.9	22.0	0.00e+00	0	37	0	240123904	46	5666
2026-01-01 03:04:15.03	179.71	6.01	-36.5	-37.3	22.3	0.00e+00	0	37	0	246415360	46	5904
2026-01-01 03:04:16.04	179.75	6.09	-36.2	-37.0	22.6	0.00e+00	0	38	0	251658240	46	5706
2026-01-01 03:04:17.05	179.79	6.16	-35.6	-36.4	22.9	0.00e+00	0	37	0	257949696	44	5984
2026-01-01 03:04:18.06	179.83	6.23	-35.7	-36.5	22.9	0.00e+00	0	38	0	263192576	44	6057
2026-01-01 03:04:19.07	179.88	6.31	-35.6	-36.3	23.0	0.00e+00	0	37	0	268435456	44	5940
2026-01-01 03:04:20.08	179.92	6.38	-35.7	-36.5	23.0	0.00e+00	0	37	0	274726912	44	6058
2026-01-01 03:04:21.09	179.96	6.45	-35.8	-36.5	22.8	0.00e+00	0	37	0	279969792	44	6072
2026-01-01 03:04:22.10	180.00	6.53	-35.4	-36.1	23.2	0.00e+00	0	37	0	286261248	44	5825
2026-01-01 03:04:23.11	180.04	6.60	-35.5	-36.3	23.1	0.00e+00	0	38	0	291504128	44	5910
2026-01-01 03:04:24.12	180.09	6.68	-35.2	-35.9	23.4	0.00e+00	0	38	0	297795584	44	5653
2026-01-01 03:04:25.12	180.13	6.75	-35.2	-35.9	23.4	0.00e+00	0	37	0	303038464	44	5647
2026-01-01 03:04:26.13	180.17	6.83	-35.1	-35.8	23.6	0.00e+00	0	37	0	309329920	44	5597
2026-01-01 03:04:27.14	180.21	6.90	-35.1	-35.8	23.4	0.00e+00	0	37	0	314572800	44	5629
2026-01-01 03:04:28.15	180.26	6.98	-35.2	-35.9	23.5	0.00e+00	0	37	0	319815680	44	5662
2026-01-01 03:04:29.16	180.30	7.05	-35.2	-35.9	23.5	0.00e+00	0	37	0	326107136	44	5664
2026-01-01 03:04:30.17	180.34	7.13	-35.2	-35.9	23.4	0.00e+00	0	37	0	331350016	44	5666
2026-01-01 03:04:31.18	180.39	7.20	-35.4	-36.1	23.2	0.00e+00	0	37	0	337641472	44	5804
2026-01-01 03:04:32.19	180.43	7.28	-35.2	-35.9	23.4	0.00e+00	0	37	0	342884352	44	5695
2026-01-01 03:04:33.20	180.48	7.36	-35.2	-35.9	23.4	0.00e+00	0	37	0	348127232	44	5694
2026-01-01 03:04:34.21	180.52	7.43	-35.1	-35.9	23.5	0.00e+00	0	37	0	354418688	44	5642
2026-01-01 03:04:35.22	180.57	7.51	-35.3	-36.0	23.4	0.00e+00	0	37	0	359661568	44	5736
2026-01-01 03:04:36.23	180.61	7.59	-35.0	-35.7	23.7	0.00e+00	0	37	0	365953024	44	5548
2026-01-01 03:04:37.24	180.66	7.66	-35.1	-35.8	23.6	0.00e+00	0	37	0	371195904	44	5593
2026-01-01 03:04:38.25	180.70	7.74	-35.1	-35.9	23.6	0.00e+00	0	37	0	376438784	44	5638
2026-01-01 03:04:39.26	180.75	7.82	-35.1	-35.8	23.6	0.00e+00	0	38	0	382730240	44	5623
2026-01-01 03:04:40.26	180.79	7.90	-35.4	-36.1	23.4	0.00e+00	0	37	0	387973120	44	5815
2026-01-01 03:04:41.27	180.84	7.97	-35.2	-36.0	23.5	0.00e+00	0	37	0	394264576	44	5700
2026-01-01 03:04:42.28	180.88	8.05	-35.1	-35.9	23.5	0.00e+00	0	37	0	399507456	44	5644
2026-01-01 03:04:43.29	180.93	8.13	-35.4	-36.1	23.4	0.00e+00	0	38	0	405798912	44	5812
2026-01-01 03:04:44.30	180.98	8.21	-35.1	-35.8	23.6	0.00e+00	0	37	0	411041792	44	5600
2026-01-01 03:04:45.31	181.02	8.29	-35.1	-35.9	23.6	0.00e+00	0	38	0	416284672	44	5633
2026-01-01 03:04:46.32	181.07	8.37	-35.1	-35.8	23.6	0.00e+00	0	37	0	422576128	44	5582
2026-01-01 03:04:47.33	181.12	8.45	-35.0	-35.8	23.7	0.00e+00	0	37	0	427819008	44	5576
2026-01-01 03:04:48.34	181.17	8.53	-35.1	-35.9	23.6	0.00e+00	0	37	0	434110464	44	5643
2026-01-01 03:04:49.35	181.22	8.61	-35.1	-35.8	23.7	0.00e+00	0	38	0	439353344	44	5609
2026-01-01 03:04:50.36	181.26	8.69	-35.1	-35.9	23.6	0.00e+00	0	38	0	444596224	44	5632
2026-01-01 03:04:51.37	181.31	8.77	-34.9	-35.7	23.8	0.00e+00	0	38	0	450887680	44	5507
2026-01-01 03:04:52.38	181.36	8.85	-34.9	-35.7	23.8	0.00e+00	0	37	0	456130560	44	5503
2026-01-01 03:04:53.39	181.41	8.93	-34.8	-35.6	23.9	0.00e+00	0	37	0	462422016	44	5441
2026-01-01 03:04:54.40	181.46	9.01	-34.8	-35.5	24.0	0.00e+00	0	37	0	467664896	42	6076
2026-01-01 03:04:55.41	181.51	9.09	-34.8	-35.6	24.0	0.00e+00	0	38	0	472907776	42	6105
2026-01-01 03:04:56.42	181.56	9.17	-34.7	-35.4	24.2	0.00e+00	0	37	0	479199232	42	5976
2026-01-01 03:04:57.43	181.61	9.26	-34.7	-35.5	24.1	0.00e+00	0	38	0	484442112	42	6035
2026-01-01 03:04:58.44	181.66	9.34	-34.5	-35.2	24.3	0.00e+00	0	38	0	490733568	42	5857
2026-01-01 03:04:59.45	181.71	9.42	-34.5	-35.3	24.3	0.00e+00	0	37	0	495976448	42	5908
2026-01-01 03:05:00.46	181.76	9.50	-34.5	-35.2	24.2	0.00e+00	0	37	0	502267904	42	5880
2026-01-01 03:05:01.47	181.81	9.59	-34.4	-35.1	24.5	0.00e+00	0	38	0	507510784	42	5763
2026-01-01 03:05:02.48	181.86	9.67	-34.4	-35.1	24.5	0.00e+00	0	37	0	513802240	42	5777
2026-01-01 03:05:03.48	181.91	9.75	-34.4	-35.1	24.4	0.00e+00	0	38	0	519045120	42	5807
2026-01-01 03:05:04.49	181.96	9.84	-34.6	-35.3	24.3	0.00e+00	0	37	0	524288000	42	5927
2026-01-01 03:05:05.50	182.02	9.92	-34.3	-35.0	24.6	0.00e+00	0	37	0	530579456	42	5717
2026-01-01 03:05:06.51	182.07	10.00	-34.2	-34.8	24.7	0.00e+00	0	37	0	535822336	42	5615
2026-01-01 03:05:07.52	182.12	10.09	-34.1	-34.8	24.7	0.00e+00	0	38	0	542113792	42	5604
2026-01-01 03:05:08.54	182.18	10.17	-34.2	-34.8	24.7	0.00e+00	0	37	0	547356672	42	5622
2026-01-01 03:05:09.54	182.23	10.26	-34.2	-34.8	24.7	0.00e+00	0	38	0	552599552	42	5618
2026-01-01 03:05:10.55	182.28	10.34	-34.2	-34.9	24.7	0.00e+00	0	38	0	558891008	42	5646
2026-01-01 03:05:11.56	182.34	10.43	-34.2	-34.9	24.6	0.00e+00	0	38	0	564133888	42	5676
2026-01-01 03:05:12.57	182.39	10.52	-34.2	-34.9	24.7	0.00e+00	0	38	0	569376768	42	5645
2026-01-01 03:05:13.58	182.44	10.60	-34.3	-34.9	24.6	0.00e+00	0	38	0	575668224	42	5687
2026-01-01 03:05:14.59	182.50	10.69	-34.4	-35.1	24.4	0.00e+00	0	38	0	580911104	42	5765
2026-01-01 03:05:15.60	182.55	10.78	-34.2	-34.9	24.7	0.00e+00	0	38	0	587202560	42	5643
2026-01-01 03:05:16.61	182.61	10.86	-34.2	-34.8	24.7	0.00e+00	0	38	0	592445440	42	5623
2026-01-01 03:05:17.62	182.67	10.95	-34.2	-34.9	24.6	0.00e+00	0	38	0	598736896	42	5673
2026-01-01 03:05:18.63	182.72	11.04	-34.2	-34.9	24.7	0.00e+00	0	38	0	603979776	42	5641
2026-01-01 03:05:19.63	182.78	11.12	-34.2	-34.9	24.6	0.00e+00	0	38	0	610271232	42	5639
2026-01-01 03:05:20.64	182.83	11.21	-34.3	-35.0	24.6	0.00e+00	0	38	0	615514112	42	5708
2026-01-01 03:05:21.65	182.89	11.30	-34.3	-35.0	24.6	0.00e+00	0	38	0	620756992	42	5739
2026-01-01 03:05:22.66	182.95	11.39	-34.2	-34.9	24.7	0.00e+00	0	38	0	627048448	42	5635
2026-01-01 03:05:23.67	183.01	11.48	-34.3	-35.0	24.6	0.00e+00	0	37	0	632291328	42	5727
2026-01-01 03:05:24.68	183.06	11.57	-34.1	-34.8	24.8	0.00e+00	0	37	0	638582784	42	5587
2026-01-01 03:05:25.70	183.12	11.66	-34.2	-34.8	24.7	0.00e+00	0	37	0	643825664	42	5629
2026-01-01 03:05:26.70	183.18	11.75	-34.2	-34.8	24.7	0.00e+00	0	38	0	649068544	42	5629
2026-01-01 03:05:27.71	183.24	11.84	-34.2	-34.9	24.7	0.00e+00	0	38	0	655360000	42	5652
2026-01-01 03:05:28.72	183.30	11.93	-34.0	-34.7	24.9	0.00e+00	0	38	0	660602880	42	5556
2026-01-01 03:05:29.73	183.36	12.02	-34.1	-34.8	24.7	0.00e+00	0	38	0	666894336	42	5624
2026-01-01 03:05:30.74	183.42	12.11	-34.1	-34.7	24.8	0.00e+00	0	38	0	672137216	42	5564
2026-01-01 03:05:31.75	183.48	12.20	-34.1	-34.8	24.8	0.00e+00	0	38	0	677380096	42	5584
2026-01-01 03:05:32.76	183.54	12.29	-33.9	-34.6	25.0	0.00e+00	0	38	0	683671552	42	5472
2026-01-01 03:05:33.77	183.60	12.39	-34.0	-34.7	24.9	0.00e+00	0	38	0	688914432	42	5524
2026-01-01 03:05:34.78	183.66	12.48	-34.0	-34.7	25.0	0.00e+00	0	38	0	695205888	42	5508
2026-01-01 03:05:35.79	183.72	12.57	-33.9	-34.6	24.9	0.00e+00	0	38	0	700448768	42	5499
2026-01-01 03:05:36.80	183.78	12.67	-33.9	-34.6	25.1	0.00e+00	0	38	0	706740224	42	5440
2026-01-01 03:05:37.81	183.85	12.76	-33.9	-34.6	25.0	0.00e+00	0	38	0	711983104	42	5447
2026-01-01 03:05:38.83	183.91	12.85	-33.8	-34.5	25.2	0.00e+00	0	38	0	718274560	42	5381
2026-01-01 03:05:39.83	183.97	12.95	-33.6	-34.3	25.2	0.00e+00	0	38	0	723517440	40	5924
2026-01-01 03:05:40.84	184.04	13.04	-33.6	-34.3	25.3	0.00e+00	0	38	0	728760320	40	5899
2026-01-01 03:05:41.85	184.10	13.14	-33.6	-34.3	25.2	0.00e+00	0	38	0	735051776	40	5936
2026-01-01 03:05:42.87	184.17	13.23	-33.5	-34.2	25.3	0.00e+00	0	38	0	740294656	40	5890
2026-01-01 03:05:43.87	184.23	13.33	-33.6	-34.2	25.3	0.00e+00	0	38	0	746586112	40	5896
2026-01-01 03:05:44.88	184.30	13.42	-33.6	-34.2	25.3	0.00e+00	0	38	0	751828992	40	5896
2026-01-01 03:05:45.89	184.36	13.52	-33.7	-34.4	25.2	0.00e+00	0	38	0	757071872	40	5984
2026-01-01 03:05:46.91	184.43	13.62	-33.7	-34.4	25.2	0.00e+00	0	38	0	763363328	40	5979
2026-01-01 03:05:47.91	184.49	13.71	-33.7	-34.4	25.3	0.00e+00	0	38	0	768606208	40	5983
2026-01-01 03:05:48.92	184.56	13.81	-33.5	-34.2	25.3	0.00e+00	0	38	0	773849088	40	5871
2026-01-01 03:05:49.93	184.63	13.91	-33.5	-34.2	25.3	0.00e+00	0	38	0	780140544	40	5859
2026-01-01 03:05:50.94	184.69	14.01	-33.5	-34.1	25.4	0.00e+00	0	38	0	785383424	40	5814
2026-01-01 03:05:51.95	184.76	14.10	-33.6	-34.3	25.4	0.00e+00	0	38	0	791674880	40	5924
2026-01-01 03:05:52.96	184.83	14.20	-33.4	-34.1	25.5	0.00e+00	0	38	0	796917760	40	5784
2026-01-01 03:05:53.97	184.90	14.30	-33.3	-34.0	25.5	0.00e+00	0	38	0	803209216	40	5721
2026-01-01 03:05:54.98	184.97	14.40	-33.4	-34.1	25.5	0.00e+00	0	38	0	808452096	40	5788
2026-01-01 03:05:55.99	185.04	14.50	-33.3	-33.9	25.6	0.00e+00	0	38	0	814743552	40	5676
2026-01-01 03:05:57.00	185.11	14.60	-33.2	-33.8	25.7	0.00e+00	0	38	0	819986432	40	5630
2026-01-01 03:05:58.01	185.18	14.70	-33.1	-33.8	25.7	0.00e+00	0	38	0	825229312	40	5594
2026-01-01 03:05:59.02	185.25	14.80	-33.2	-33.8	25.7	0.00e+00	0	38	0	831520768	40	5607
2026-01-01 03:06:00.03	185.32	14.91	-33.1	-33.7	25.8	0.00e+00	0	38	0	836763648	40	5544
2026-01-01 03:06:01.04	185.39	15.01	-33.0	-33.6	25.8	0.00e+00	0	38	0	843055104	40	5487
2026-01-01 03:06:02.05	185.47	15.11	-33.1	-33.8	25.7	0.00e+00	0	38	0	848297984	40	5577
2026-01-01 03:06:03.06	185.54	15.21	-33.0	-33.6	25.9	0.00e+00	0	38	0	853540864	40	5496
2026-01-01 03:06:04.07	185.61	15.31	-32.9	-33.6	25.9	0.00e+00	0	38	0	859832320	40	5447
2026-01-01 03:06:05.07	185.69	15.42	-32.9	-33.5	26.0	0.00e+00	0	38	0	865075200	40	5428
2026-01-01 03:06:06.08	185.76	15.52	-33.0	-33.6	25.9	0.00e+00	0	38	0	871366656	40	5487
2026-01-01 03:06:07.09	185.84	15.62	-33.0	-33.7	25.9	0.00e+00	0	38	0	876609536	40	5526
2026-01-01 03:06:08.10	185.91	15.73	-33.0	-33.6	26.0	0.00e+00	0	38	0	881852416	40	5487
2026-01-01 03:06:09.11	185.99	15.83	-32.8	-33.5	26.0	0.00e+00	0	38	0	888143872	40	5398
2026-01-01 03:06:10.12	186.06	15.94	-32.8	-33.4	26.1	0.00e+00	0	38	0	893386752	40	5363
2026-01-01 03:06:11.13	186.14	16.05	-32.8	-33.5	26.1	0.00e+00	0	38	0	899678208	38	6058
2026-01-01 03:06:12.14	186.22	16.15	-32.9	-33.5	26.1	0.00e+00	0	38	0	904921088	38	6079
2026-01-01 03:06:13.15	186.30	16.26	-32.9	-33.5	26.0	0.00e+00	0	38	0	911212544	38	6094
2026-01-01 03:06:14.16	186.37	16.37	-32.7	-33.4	26.2	0.00e+00	0	38	0	916455424	38	5982
2026-01-01 03:06:15.17	186.45	16.47	-32.8	-33.4	26.1	0.00e+00	0	38	0	921698304	38	6033
2026-01-01 03:06:16.18	186.53	16.58	-32.7	-33.3	26.2	0.00e+00	0	38	0	927989760	38	5933
2026-01-01 03:06:17.19	186.61	16.69	-32.9	-33.5	26.0	0.00e+00	0	38	0	933232640	38	6054
2026-01-01 03:06:18.20	186.69	16.80	-32.6	-33.3	26.2	0.00e+00	0	38	0	939524096	38	5898
2026-01-01 03:06:19.21	186.78	16.91	-32.7	-33.3	26.2	0.00e+00	0	38	0	944766976	38	5942
2026-01-01 03:06:20.22	186.86	17.02	-32.6	-33.2	26.3	0.00e+00	0	38	0	950009856	38	5896
2026-01-01 03:06:21.23	186.94	17.13	-32.7	-33.4	26.2	0.00e+00	0	38	0	956301312	38	5986
2026-01-01 03:06:22.24	187.02	17.24	-32.6	-33.2	26.4	0.00e+00	0	38	0	961544192	38	5876
2026-01-01 03:06:23.25	187.11	17.35	-32.7	-33.3	26.2	0.00e+00	0	38	0	967835648	38	5940
2026-01-01 03:06:24.26	187.19	17.46	-32.5	-33.1	26.4	0.00e+00	0	38	0	973078528	38	5823
2026-01-01 03:06:25.27	187.27	17.57	-32.5	-33.1	26.4	0.00e+00	0	38	0	978321408	38	5791
2026-01-01 03:06:26.28	187.36	17.68	-32.5	-33.1	26.4	0.00e+00	0	38	0	984612864	38	5798
2026-01-01 03:06:27.29	187.45	17.80	-32.4	-33.0	26.5	0.00e+00	0	38	0	989855744	38	5735
2026-01-01 03:06:28.30	187.53	17.91	-32.2	-32.9	26.5	0.00e+00	0	38	0	996147200	38	5654
2026-01-01 03:06:29.31	187.62	18.02	-32.4	-33.0	26.5	0.00e+00	0	38	0	1001390080	38	5743
2026-01-01 03:06:30.32	187.71	18.14	-32.1	-32.7	26.7	0.00e+00	0	38	0	1007681536	38	5563
2026-01-01 03:06:31.33	187.80	18.25	-32.1	-32.7	26.7	0.00e+00	0	38	0	1012924416	38	5546
2026-01-01 03:06:32.34	187.88	18.37	-32.0	-32.6	26.8	0.00e+00	0	38	0	1019215872	38	5483
2026-01-01 03:06:33.35	187.97	18.48	-32.1	-32.7	26.8	0.00e+00	0	38	0	1024458752	38	5524
2026-01-01 03:06:34.36	188.06	18.60	-32.0	-32.6	26.9	0.00e+00	0	38	0	1029701632	38	5494
2026-01-01 03:06:35.37	188.16	18.72	-32.1	-32.7	26.7	0.00e+00	0	38	0	1035993088	38	5539
2026-01-01 03:06:36.38	188.25	18.83	-32.1	-32.8	26.7	0.00e+00	0	38	0	1041235968	38	5580
2026-01-01 03:06:37.39	188.34	18.95	-32.2	-32.8	26.7	0.00e+00	0	38	0	1047527424	38	5600
2026-01-01 03:06:38.40	188.43	19.07	-32.2	-32.8	26.7	0.00e+00	0	38	0	1052770304	38	5621
2026-01-01 03:06:39.41	188.53	19.19	-32.1	-32.7	26.7	0.00e+00	0	38	0	1058013184	38	5565
2026-01-01 03:06:40.42	188.62	19.30	-32.3	-32.9	26.6	0.00e+00	0	38	0	1064304640	38	5688
2026-01-01 03:06:41.43	188.72	19.42	-32.4	-33.0	26.5	0.00e+00	0	38	0	1069547520	38	5730
2026-01-01 03:06:42.43	188.81	19.54	-32.4	-33.0	26.6	0.00e+00	0	38	0	1075838976	38	5732
2026-01-01 03:06:43.44	188.91	19.66	-32.4	-33.0	26.5	0.00e+00	0	38	0	1081081856	38	5736
2026-01-01 03:06:44.45	189.01	19.78	-32.0	-32.7	26.8	0.00e+00	0	38	0	1086324736	38	5525
2026-01-01 03:06:45.46	189.10	19.91	-32.0	-32.7	26.7	0.00e+00	0	38	0	1092616192	38	5516
2026-01-01 03:06:46.47	189.20	20.03	-31.9	-32.5	27.0	0.00e+00	0	38	0	1097859072	38	5416
2026-01-01 03:06:47.47	189.30	20.15	-31.8	-32.5	27.0	0.00e+00	0	38	0	1104150528	38	5390
2026-01-01 03:06:48.48	189.40	20.27	-31.8	-32.4	27.0	0.00e+00	0	38	0	1109393408	38	5359
2026-01-01 03:06:49.49	189.50	20.40	-31.8	-32.4	26.9	0.00e+00	0	38	0	1115684864	36	6007
2026-01-01 03:06:50.50	189.60	20.52	-31.8	-32.4	27.0	0.00e+00	0	38	0	1120927744	36	6024
2026-01-01 03:06:51.51	189.71	20.64	-31.6	-32.2	27.2	0.00e+00	0	38	0	1126170624	36	5847
2026-01-01 03:06:52.52	189.81	20.77	-31.6	-32.2	27.1	0.00e+00	0	38	0	1132462080	36	5881
2026-01-01 03:06:53.53	189.91	20.90	-31.5	-32.1	27.3	0.00e+00	0	38	0	1137704960	36	5808
2026-01-01 03:06:54.54	190.02	21.02	-31.5	-32.1	27.3	0.00e+00	0	38	0	1143996416	36	5818
2026-01-01 03:06:55.55	190.13	21.15	-31.4	-32.0	27.3	0.00e+00	0	38	0	1149239296	36	5723
2026-01-01 03:06:56.56	190.23	21.28	-31.5	-32.1	27.3	0.00e+00	0	38	0	1154482176	36	5764
2026-01-01 03:06:57.57	190.34	21.40	-31.3	-31.9	27.4	0.00e+00	0	38	0	1160773632	36	5692
2026-01-01 03:06:58.58	190.45	21.53	-31.5	-32.1	27.3	0.00e+00	0	38	0	1166016512	36	5810
2026-01-01 03:06:59.59	190.56	21.66	-31.4	-31.9	27.3	0.00e+00	0	38	0	1172307968	36	5695
2026-01-01 03:07:00.60	190.67	21.79	-31.4	-32.0	27.4	0.00e+00	0	38	0	1177550848	36	5746
2026-01-01 03:07:01.61	190.78	21.92	-31.4	-32.0	27.3	0.00e+00	0	38	0	1182793728	36	5748
2026-01-01 03:07:02.62	190.89	22.05	-31.4	-32.0	27.4	0.00e+00	0	38	0	1189085184	36	5718
2026-01-01 03:07:03.63	191.00	22.18	-31.5	-32.1	27.3	0.00e+00	0	38	0	1194328064	36	5809
2026-01-01 03:07:04.64	191.12	22.31	-31.3	-32.0	27.4	0.00e+00	0	38	0	1200619520	36	5698
2026-01-01 03:07:05.65	191.23	22.45	-31.5	-32.1	27.3	0.00e+00	0	38	0	1205862400	36	5820
2026-01-01 03:07:06.66	191.35	22.58	-31.5	-32.1	27.3	0.00e+00	0	38	0	1212153856	36	5825
2026-01-01 03:07:07.67	191.46	22.71	-31.4	-32.1	27.3	0.00e+00	0	38	0	1217396736	36	5784
2026-01-01 03:07:08.68	191.58	22.85	-31.7	-32.3	27.1	0.00e+00	0	38	0	1223688192	36	5930
2026-01-01 03:07:09.69	191.70	22.98	-31.5	-32.1	27.3	0.00e+00	0	38	0	1228931072	36	5795
2026-01-01 03:07:10.70	191.82	23.12	-31.5	-32.2	27.3	0.00e+00	0	38	0	1234173952	36	5831
2026-01-01 03:07:11.70	191.94	23.25	-31.3	-31.9	27.4	0.00e+00	0	38	0	1240465408	36	5670
2026-01-01 03:07:12.71	192.06	23.39	-31.2	-31.9	27.5	0.00e+00	0	38	0	1245708288	36	5653
2026-01-01 03:07:13.72	192.18	23.53	-31.2	-31.9	27.5	0.00e+00	0	38	0	1251999744	36	5647
2026-01-01 03:07:14.73	192.31	23.66	-31.2	-31.8	27.5	0.00e+00	0	38	0	1257242624	36	5620
2026-01-01 03:07:15.74	192.43	23.80	-31.2	-31.8	27.5	0.00e+00	0	38	0	1262485504	36	5591
2026-01-01 03:07:16.75	192.56	23.94	-31.1	-31.7	27.7	0.00e+00	0	38	0	1268776960	36	5523
2026-01-01 03:07:17.76	192.69	24.08	-31.2	-31.9	27.5	0.00e+00	0	38	0	1274019840	36	5636
2026-01-01 03:07:18.77	192.81	24.22	-31.0	-31.6	27.7	0.00e+00	0	38	0	1279262720	36	5464
2026-01-01 03:07:19.78	192.94	24.36	-31.0	-31.7	27.7	0.00e+00	0	38	0	1285554176	36	5511
2026-01-01 03:07:20.79	193.07	24.50	-30.9	-31.5	27.7	0.00e+00	0	38	0	1290797056	36	5409
2026-01-01 03:07:21.80	193.20	24.64	-31.0	-31.6	27.7	0.00e+00	0	38	0	1297088512	36	5489
2026-01-01 03:07:22.81	193.34	24.79	-30.9	-31.5	27.8	0.00e+00	0	38	0	1302331392	36	5419
2026-01-01 03:07:23.82	193.47	24.93	-30.9	-31.5	27.8	0.00e+00	0	38	0	1308622848	36	5417
2026-01-01 03:07:24.83	193.61	25.07	-31.1	-31.7	27.7	0.00e+00	0	38	0	1313865728	36	5524
2026-01-01 03:07:25.84	193.74	25.22	-31.0	-31.6	27.8	0.00e+00	0	38	0	1320157184	36	5495
2026-01-01 03:07:26.85	193.88	25.36	-31.1	-31.7	27.6	0.00e+00	0	38	0	1325400064	36	5555
2026-01-01 03:07:27.86	194.02	25.51	-31.2	-31.9	27.5	0.00e+00	0	38	0	1330642944	36	5634
2026-01-01 03:07:28.87	194.16	25.65	-31.3	-31.9	27.5	0.00e+00	0	38	0	1336934400	36	5646
2026-01-01 03:07:29.88	194.30	25.80	-31.4	-32.0	27.5	0.00e+00	0	38	0	1342177280	36	5751
2026-01-01 03:07:30.89	194.44	25.95	-31.1	-31.7	27.5	0.00e+00	0	38	0	1348468736	36	5556
2026-01-01 03:07:31.90	194.58	26.10	-31.4	-32.0	27.4	0.00e+00	0	38	0	1353711616	36	5712
2026-01-01 03:07:32.91	194.73	26.25	-31.4	-32.0	27.4	0.00e+00	0	38	0	1358954496	36	5723
2026-01-01 03:07:33.92	194.88	26.39	-31.3	-31.9	27.4	0.00e+00	0	38	0	1365245952	36	5692
2026-01-01 03:07:34.93	195.02	26.54	-31.3	-31.9	27.4	0.00e+00	0	38	0	1370488832	36	5683
2026-01-01 03:07:35.94	195.17	26.70	-31.5	-32.2	27.4	0.00e+00	0	38	0	1376780288	36	5832
2026-01-01 03:07:36.95	195.32	26.85	-31.5	-32.1	27.6	0.00e+00	0	38	0	1382023168	36	5796
2026-01-01 03:07:37.96	195.47	27.00	-31.3	-31.9	27.4	0.00e+00	0	38	0	1387266048	36	5667
2026-01-01 03:07:38.97	195.63	27.15	-31.5	-32.2	27.4	0.00e+00	0	38	0	1393557504	36	5836
2026-01-01 03:07:39.98	195.78	27.30	-31.5	-32.1	27.1	0.00e+00	0	38	0	1398800384	36	5822
2026-01-01 03:07:40.99	195.94	27.46	-31.9	-32.6	27.1	0.00e+00	0	38	0	1405091840	36	6110
2026-01-01 03:07:42.00	196.09	27.61	-31.8	-32.5	26.9	0.00e+00	0	38	0	1410334720	36	6055
2026-01-01 03:07:43.01	196.25	27.77	-31.9	-32.5	27.2	0.00e+00	0	38	0	1416626176	36	6092
2026-01-01 03:07:44.02	196.41	27.92	-31.7	-32.4	27.1	0.00e+00	0	38	0	1421869056	36	5975
2026-01-01 03:07:45.03	196.58	28.08	-31.8	-32.5	27.1	0.00e+00	0	38	0	1428160512	36	6050
2026-01-01 03:07:46.04	196.74	28.24	-31.9	-32.5	27.2	0.00e+00	0	38	0	1433403392	36	6089
2026-01-01 03:07:47.05	196.90	28.40	-31.2	-31.8	27.6	0.00e+00	0	38	0	1438646272	36	5601
2026-01-01 03:07:48.06	197.07	28.55	-31.0	-31.6	27.8	0.00e+00	0	38	0	1444937728	36	5458
2026-01-01 03:07:49.07	197.24	28.71	-31.0	-31.6	27.7	0.00e+00	0	38	0	1450180608	36	5465
2026-01-01 03:07:50.08	197.41	28.87	-30.5	-31.1	28.2	0.00e+00	0	38	0	1456472064	34	5782
2026-01-01 03:07:51.09	197.58	29.03	-30.5	-31.1	28.1	0.00e+00	0	38	0	1461714944	34	5790
2026-01-01 03:07:52.10	197.75	29.19	-30.7	-31.3	28.1	0.00e+00	0	38	0	1466957824	34	5923
2026-01-01 03:07:53.11	197.93	29.36	-30.8	-31.4	27.8	0.00e+00	0	38	0	1473249280	34	5973
2026-01-01 03:07:54.12	198.11	29.52	-30.9	-31.5	27.8	0.00e+00	0	38	0	1478492160	34	6095
2026-01-01 03:07:55.13	198.28	29.68	-30.9	-31.5	27.7	0.00e+00	0	38	0	1484783616	34	6088
2026-01-01 03:07:56.14	198.46	29.85	-31.0	-31.5	27.6	0.00e+00	0	38	0	1490026496	34	6100
2026-01-01 03:07:57.16	198.65	30.01	-30.9	-31.5	27.8	0.00e+00	0	38	0	1495269376	34	6087
2026-01-01 03:07:58.17	198.83	30.18	-30.8	-31.5	27.8	0.00e+00	0	38	0	1501560832	34	6039
2026-01-01 03:07:59.18	199.02	30.34	-30.6	-31.2	28.0	0.00e+00	0	38	0	1506803712	34	5886
2026-01-01 03:08:00.19	199.21	30.51	-30.7	-31.3	28.0	0.00e+00	0	38	0	1513095168	34	5937
2026-01-01 03:08:01.20	199.39	30.67	-30.6	-31.2	28.0	0.00e+00	0	38	0	1518338048	34	5846
2026-01-01 03:08:02.21	199.59	30.84	-30.5	-31.2	28.1	0.00e+00	0	38	0	1524629504	34	5835
2026-01-01 03:08:03.22	199.78	31.01	-30.6	-31.2	28.0	0.00e+00	0	38	0	1529872384	34	5871
2026-01-01 03:08:04.23	199.97	31.18	-30.7	-31.4	28.0	0.00e+00	0	38	0	1536163840	34	5966
2026-01-01 03:08:05.24	200.17	31.35	-30.6	-31.2	28.0	0.00e+00	0	38	0	1541406720	34	5866
2026-01-01 03:08:06.25	200.37	31.52	-30.7	-31.3	27.9	0.00e+00	0	38	0	1546649600	34	5935
2026-01-01 03:08:07.26	200.57	31.69	-30.7	-31.3	27.9	0.00e+00	0	38	0	1552941056	34	5943
2026-01-01 03:08:08.27	200.78	31.86	-30.5	-31.1	28.1	0.00e+00	0	38	0	1558183936	34	5807
2026-01-01 03:08:09.28	200.98	32.03	-30.4	-31.0	28.2	0.00e+00	0	38	0	1564475392	34	5746
2026-01-01 03:08:10.29	201.19	32.20	-30.5	-31.2	28.0	0.00e+00	0	38	0	1569718272	34	5833
2026-01-01 03:08:11.30	201.40	32.38	-30.4	-31.0	28.2	0.00e+00	0	38	0	1574961152	34	5757
2026-01-01 03:08:12.31	201.61	32.55	-30.3	-30.9	28.3	0.00e+00	0	38	0	1581252608	34	5654
2026-01-01 03:08:13.32	201.82	32.72	-30.4	-31.0	28.2	0.00e+00	0	38	0	1586495488	34	5728
2026-01-01 03:08:14.33	202.04	32.90	-30.4	-31.0	28.2	0.00e+00	0	38	0	1592786944	34	5709
2026-01-01 03:08:15.34	202.26	33.07	-30.4	-31.0	28.2	0.00e+00	0	38	0	1598029824	34	5697
2026-01-01 03:08:16.35	202.48	33.25	-30.5	-31.1	27.9	0.00e+00	0	38	0	1603272704	34	5807
2026-01-01 03:08:17.36	202.70	33.43	-30.6	-31.2	27.9	0.00e+00	0	38	0	1609564160	34	5851
2026-01-01 03:08:18.37	202.93	33.60	-30.6	-31.2	28.1	0.00e+00	0	38	0	1614807040	34	5835
2026-01-01 03:08:19.38	203.16	33.78	-30.5	-31.1	28.1	0.00e+00	0	38	0	1621098496	34	5791
2026-01-01 03:08:20.39	203.39	33.96	-30.2	-30.8	28.3	0.00e+00	0	38	0	1626341376	34	5596
2026-01-01 03:08:21.40	203.62	34.14	-30.3	-30.9	28.2	0.00e+00	0	38	0	1632632832	34	5684
2026-01-01 03:08:22.41	203.86	34.32	-30.2	-30.8	28.3	0.00e+00	0	38	0	1637875712	34	5591
2026-01-01 03:08:23.42	204.10	34.50	-30.3	-30.9	28.3	0.00e+00	0	38	0	1643118592	34	5663
2026-01-01 03:08:24.43	204.34	34.68	-30.2	-30.8	28.4	0.00e+00	0	38	0	1649410048	34	5570
2026-01-01 03:08:25.44	204.58	34.86	-30.0	-30.6	28.5	0.00e+00	0	38	0	1654652928	34	5478
2026-01-01 03:08:26.45	204.83	35.04	-30.1	-30.7	28.5	0.00e+00	0	38	0	1660944384	34	5538
2026-01-01 03:08:27.46	205.08	35.22	-30.1	-30.7	28.4	0.00e+00	0	38	0	1666187264	34	5552
2026-01-01 03:08:28.47	205.33	35.40	-30.2	-30.8	28.4	0.00e+00	0	38	0	1671430144	34	5574
2026-01-01 03:08:29.48	205.58	35.58	-30.3	-30.9	28.2	0.00e+00	0	38	0	1677721600	34	5689
2026-01-01 03:08:30.49	205.84	35.76	-30.1	-30.6	28.4	0.00e+00	0	38	0	1682964480	34	5497
2026-01-01 03:08:31.50	206.10	35.95	-30.0	-30.6	28.5	0.00e+00	0	38	0	1689255936	34	5470
2026-01-01 03:08:32.51	206.36	36.13	-30.0	-30.5	28.6	0.00e+00	0	38	0	1694498816	34	5427
2026-01-01 03:08:33.52	206.63	36.32	-30.1	-30.7	28.4	0.00e+00	0	38	0	1699741696	34	5504
2026-01-01 03:08:34.53	206.90	36.50	-29.8	-30.4	28.7	0.00e+00	0	38	0	1706033152	34	5351
2026-01-01 03:08:35.54	207.17	36.68	-29.8	-30.4	28.7	0.00e+00	0	38	0	1711276032	34	5324
2026-01-01 03:08:36.55	207.44	36.87	-29.8	-30.4	28.6	0.00e+00	0	38	0	1717567488	34	5334
2026-01-01 03:08:37.56	207.72	37.05	-30.0	-30.6	28.5	0.00e+00	0	38	0	1722810368	34	5444
2026-01-01 03:08:38.57	208.00	37.24	-30.1	-30.7	28.3	0.00e+00	0	38	0	1729101824	34	5536
2026-01-01 03:08:39.58	208.29	37.43	-30.3	-30.9	28.2	0.00e+00	0	38	0	1734344704	34	5678
2026-01-01 03:08:40.59	208.57	37.61	-30.4	-31.0	28.2	0.00e+00	0	38	0	1740636160	34	5737
2026-01-01 03:08:41.60	208.86	37.80	-30.3	-30.9	28.3	0.00e+00	0	38	0	1745879040	34	5655
2026-01-01 03:08:42.61	209.16	37.98	-30.1	-30.6	28.5	0.00e+00	0	38	0	1751121920	34	5501
2026-01-01 03:08:43.62	209.46	38.17	-30.0	-30.6	28.5	0.00e+00	0	38	0	1757413376	34	5465
2026-01-01 03:08:44.63	209.76	38.36	-30.0	-30.6	28.5	0.00e+00	0	38	0	1762656256	34	5476
2026-01-01 03:08:45.64	210.06	38.55	-30.2	-30.8	28.4	0.00e+00	0	38	0	1768947712	34	5575
2026-01-01 03:08:46.65	210.37	38.73	-30.1	-30.7	28.3	0.00e+00	0	38	0	1774190592	34	5519
2026-01-01 03:08:47.66	210.68	38.92	-30.2	-30.8	28.4	0.00e+00	0	38	0	1779433472	34	5581
2026-01-01 03:08:48.67	210.99	39.11	-30.2	-30.8	28.3	0.00e+00	0	38	0	1785724928	34	5597
2026-01-01 03:08:49.68	211.31	39.30	-30.3	-30.9	28.3	0.00e+00	0	38	0	1790967808	34	5646
2026-01-01 03:08:50.69	211.63	39.48	-30.3	-30.9	28.3	0.00e+00	0	38	0	1797259264	34	5651
2026-01-01 03:08:51.70	211.96	39.67	-30.3	-31.0	28.2	0.00e+00	0	38	0	1802502144	34	5705
2026-01-01 03:08:52.71	212.29	39.86	-30.1	-30.7	28.5	0.00e+00	0	38	0	1807745024	34	5511
2026-01-01 03:08:53.71	212.62	40.04	-30.2	-30.8	28.4	0.00e+00	0	38	0	1814036480	34	5593
2026-01-01 03:08:54.72	212.95	40.23	-30.2	-30.8	28.4	0.00e+00	0	38	0	1819279360	34	5582
2026-01-01 03:08:55.73	213.29	40.42	-30.3	-30.8	28.3	0.00e+00	0	38	0	1825570816	34	5596
2026-01-01 03:08:56.74	213.64	40.61	-30.4	-31.0	28.2	0.00e+00	0	38	0	1830813696	34	5702
2026-01-01 03:08:57.75	213.99	40.79	-30.5	-31.1	28.2	0.00e+00	0	38	0	1837105152	34	5795
2026-01-01 03:08:58.76	214.34	40.98	-30.5	-31.1	28.1	0.00e+00	0	38	0	1842348032	34	5774
2026-01-01 03:08:59.77	214.70	41.17	-30.5	-31.1	28.2	0.00e+00	0	38	0	1847590912	34	5815
2026-01-01 03:09:00.78	215.06	41.35	-30.4	-31.0	28.2	0.00e+00	0	38	0	1853882368	34	5723
2026-01-01 03:09:01.79	215.42	41.54	-30.5	-31.1	28.2	0.00e+00	0	38	0	1859125248	34	5791
2026-01-01 03:09:02.80	215.79	41.72	-30.2	-30.7	28.4	0.00e+00	0	38	0	1865416704	34	5565
2026-01-01 03:09:03.81	216.16	41.91	-30.2	-30.8	28.3	0.00e+00	0	38	0	1870659584	34	5616
2026-01-01 03:09:04.82	216.54	42.09	-30.4	-30.9	28.3	0.00e+00	0	38	0	1875902464	34	5687
2026-01-01 03:09:05.83	216.92	42.28	-30.4	-31.0	28.3	0.00e+00	0	38	0	1882193920	34	5708
2026-01-01 03:09:06.84	217.31	42.46	-30.4	-31.0	28.1	0.00e+00	0	38	0	1887436800	34	5742
2026-01-01 03:09:07.84	217.69	42.64	-30.5	-31.1	28.0	0.00e+00	0	38	0	1893728256	34	5825
2026-01-01 03:09:08.86	218.09	42.83	-30.4	-31.1	28.1	0.00e+00	0	38	0	1898971136	34	5774
2026-01-01 03:09:09.87	218.49	43.01	-30.2	-30.8	28.4	0.00e+00	0	38	0	1904214016	34	5597
2026-01-01 03:09:10.88	218.89	43.19	-30.4	-31.0	28.2	0.00e+00	0	38	0	1910505472	34	5720
2026-01-01 03:09:11.88	219.30	43.37	-30.4	-31.0	28.1	0.00e+00	0	38	0	1915748352	34	5747
2026-01-01 03:09:12.90	219.71	43.55	-30.4	-31.0	28.2	0.00e+00	0	38	0	1922039808	34	5751
2026-01-01 03:09:13.90	220.13	43.73	-30.3	-30.9	28.3	0.00e+00	0	38	0	1927282688	34	5639
2026-01-01 03:09:14.91	220.55	43.91	-30.3	-30.9	28.3	0.00e+00	0	38	0	1933574144	34	5685
2026-01-01 03:09:15.92	220.97	44.09	-30.4	-31.0	28.2	0.00e+00	0	38	0	1938817024	34	5742
2026-01-01 03:09:16.93	221.40	44.26	-30.6	-31.2	28.1	0.00e+00	0	38	0	1945108480	34	5836
2026-01-01 03:09:17.94	221.84	44.44	-30.8	-31.4	27.9	0.00e+00	0	38	0	1950351360	34	5988
2026-01-01 03:09:18.95	222.28	44.61	-30.9	-31.5	27.8	0.00e+00	0	38	0	1955594240	34	6057
2026-01-01 03:09:19.96	222.73	44.79	-30.7	-31.3	28.0	0.00e+00	0	38	0	1961885696	34	5920
2026-01-01 03:09:20.97	223.18	44.96	-30.6	-31.2	28.1	0.00e+00	0	38	0	1967128576	34	5829
2026-01-01 03:09:21.98	223.63	45.13	-30.2	-30.8	28.3	0.00e+00	0	38	0	1973420032	34	5596
2026-01-01 03:09:23.00	224.10	45.30	-30.4	-31.0	28.3	0.00e+00	0	38	0	1978662912	34	5731
2026-01-01 03:09:24.01	224.56	45.47	-30.8	-31.4	27.9	0.00e+00	0	38	0	1983905792	34	6012
2026-01-01 03:09:25.01	225.02	45.64	-31.0	-31.7	27.8	0.00e+00	0	38	0	1990197248	34	6177
2026-01-01 03:09:26.03	225.50	45.81	-31.0	-31.6	27.7	0.00e+00	0	38	0	1995440128	34	6148
2026-01-01 03:09:27.04	225.98	45.97	-30.7	-31.4	28.0	0.00e+00	0	38	0	2001731584	34	5981
2026-01-01 03:09:28.05	226.47	46.13	-30.4	-31.0	28.1	0.00e+00	0	38	0	2006974464	34	5761
2026-01-01 03:09:29.06	226.96	46.29	-30.3	-30.9	28.4	0.00e+00	0	38	0	2012217344	34	5664
2026-01-01 03:09:30.06	227.45	46.45	-30.2	-30.7	28.4	0.00e+00	0	38	0	2018508800	34	5557
2026-01-01 03:09:31.07	227.95	46.61	-30.4	-31.0	28.2	0.00e+00	0	38	0	2023751680	34	5713
2026-01-01 03:09:32.08	228.45	46.77	-30.5	-31.1	28.0	0.00e+00	0	38	0	2030043136	34	5809
2026-01-01 03:09:33.09	228.96	46.92	-30.6	-31.3	27.9	0.00e+00	0	38	0	2035286016	34	5899
2026-01-01 03:09:34.10	229.47	47.07	-30.6	-31.2	28.1	0.00e+00	0	38	0	2041577472	34	5834
2026-01-01 03:09:35.11	229.99	47.22	-30.7	-31.2	28.0	0.00e+00	0	38	0	2046820352	34	5872
2026-01-01 03:09:36.12	230.52	47.37	-30.7	-31.3	27.9	0.00e+00	0	38	0	2052063232	34	5951
2026-01-01 03:09:37.13	231.05	47.52	-30.5	-31.1	28.2	0.00e+00	0	38	0	2058354688	34	5820
2026-01-01 03:09:38.14	231.58	47.66	-30.6	-31.2	28.1	0.00e+00	0	38	0	2063597568	34	5856
2026-01-01 03:09:39.15	232.12	47.81	-30.8	-31.4	27.9	0.00e+00	0	38	0	2069889024	34	6026
2026-01-01 03:09:40.16	232.66	47.95	-30.9	-31.5	27.8	0.00e+00	0	38	0	2075131904	34	6098
2026-01-01 03:09:41.17	233.21	48.08	-30.7	-31.3	28.0	0.00e+00	0	38	0	2080374784	34	5913
2026-01-01 03:09:42.18	233.76	48.22	-30.5	-31.1	28.1	0.00e+00	0	38	0	2086666240	34	5779
2026-01-01 03:09:43.19	234.32	48.35	-30.4	-31.0	28.2	0.00e+00	0	38	0	2091909120	34	5735
2026-01-01 03:09:44.20	234.88	48.48	-30.8	-31.5	27.9	0.00e+00	0	38	0	2098200576	34	6048
2026-01-01 03:09:45.21	235.45	48.61	-30.9	-31.5	27.9	0.00e+00	0	38	0	2103443456	34	6084
2026-01-01 03:09:46.22	236.02	48.74	-30.7	-31.3	28.0	0.00e+00	0	38	0	2108686336	34	5910
2026-01-01 03:09:47.23	236.60	48.86	-31.0	-31.7	27.7	0.00e+00	0	38	0	2114977792	34	6177
2026-01-01 03:09:48.24	237.18	48.98	-31.1	-31.8	27.6	0.00e+00	0	38	0	2120220672	34	6259
2026-01-01 03:09:49.25	237.77	49.10	-31.0	-31.6	27.8	0.00e+00	0	38	0	2126512128	34	6153
2026-01-01 03:09:50.26	238.36	49.21	-30.4	-31.0	28.3	0.00e+00	0	38	0	2131755008	34	5700
2026-01-01 03:09:51.27	238.95	49.32	-30.6	-31.3	28.1	0.00e+00	0	38	0	2138046464	34	5899
2026-01-01 03:09:52.28	239.55	49.43	-30.8	-31.4	28.0	0.00e+00	0	38	0	2143289344	34	5986
2026-01-01 03:09:53.29	240.15	49.53	-30.5	-31.1	28.1	0.00e+00	0	38	0	2149580800	34	5823
2026-01-01 03:09:54.30	240.76	49.64	-30.7	-31.3	28.0	0.00e+00	0	38	0	2154823680	34	5960
2026-01-01 03:09:55.31	241.37	49.74	-31.1	-31.7	27.8	0.00e+00	0	38	0	2160066560	34	6183
2026-01-01 03:09:56.32	241.98	49.83	-30.8	-31.4	27.9	0.00e+00	0	38	0	2166358016	34	5996
2026-01-01 03:09:57.33	242.60	49.92	-30.8	-31.4	27.9	0.00e+00	0	38	0	2171600896	34	5996
2026-01-01 03:09:58.34	243.22	50.01	-30.7	-31.3	28.0	0.00e+00	0	38	0	2177892352	34	5931
2026-01-01 03:09:59.35	243.85	50.10	-30.9	-31.5	27.9	0.00e+00	0	38	0	2183135232	34	6091
2026-01-01 03:10:00.36	244.48	50.18	-31.0	-31.6	27.8	0.00e+00	0	38	0	2188378112	34	6119
2026-01-01 03:10:01.36	245.11	50.26	-31.1	-31.6	27.7	0.00e+00	0	38	0	2194669568	34	6163
2026-01-01 03:10:02.37	245.74	50.33	-31.0	-31.6	27.8	0.00e+00	0	38	0	2199912448	34	6156
2026-01-01 03:10:03.39	246.39	50.41	-30.9	-31.5	27.8	0.00e+00	0	38	0	2206203904	34	6084
2026-01-01 03:10:04.39	247.02	50.48	-30.7	-31.3	28.0	0.00e+00	0	38	0	2211446784	34	5956
2026-01-01 03:10:05.40	247.66	50.54	-30.7	-31.3	28.0	0.00e+00	0	38	0	2216689664	34	5939
2026-01-01 03:10:06.41	248.31	50.60	-30.9	-31.5	27.9	0.00e+00	0	38	0	2222981120	34	6063
2026-01-01 03:10:07.42	248.96	50.66	-30.5	-31.1	28.1	0.00e+00	0	38	0	2228224000	34	5797
2026-01-01 03:10:08.43	249.61	50.71	-30.6	-31.1	28.2	0.00e+00	0	38	0	2234515456	34	5824
2026-01-01 03:10:09.44	250.27	50.76	-30.6	-31.2	28.1	0.00e+00	0	38	0	2239758336	34	5877
2026-01-01 03:10:10.44	250.92	50.81	-30.7	-31.3	28.0	0.00e+00	0	38	0	2246049792	34	5909
2026-01-01 03:10:11.45	251.57	50.85	-30.5	-31.1	28.2	0.00e+00	0	38	0	2251292672	34	5765
2026-01-01 03:10:12.46	252.23	50.89	-30.8	-31.4	28.0	0.00e+00	0	38	0	2256535552	34	5974
2026-01-01 03:10:13.47	252.89	50.92	-31.0	-31.6	27.8	0.00e+00	0	38	0	2262827008	34	6146
2026-01-01 03:10:14.48	253.56	50.95	-31.2	-31.8	27.6	0.00e+00	0	38	0	2268069888	34	6309
2026-01-01 03:10:15.49	254.22	50.98	-31.2	-31.8	27.7	0.00e+00	0	38	0	2274361344	34	6261
2026-01-01 03:10:16.50	254.89	51.00	-31.4	-32.1	27.5	0.00e+00	0	38	0	2279604224	34	6486
2026-01-01 03:10:17.51	255.55	51.02	-30.9	-31.5	27.8	0.00e+00	0	38	0	2284847104	34	6049
2026-01-01 03:10:18.52	256.22	51.03	-30.9	-31.5	27.9	0.00e+00	0	38	0	2291138560	34	6047
2026-01-01 03:10:19.53	256.88	51.04	-30.7	-31.3	28.1	0.00e+00	0	38	0	2296381440	34	5910
2026-01-01 03:10:20.54	257.55	51.05	-30.5	-31.0	28.2	0.00e+00	0	38	0	2302672896	34	5752
2026-01-01 03:10:21.55	258.22	51.05	-30.7	-31.2	28.0	0.00e+00	0	38	0	2307915776	34	5895
2026-01-01 03:10:22.56	258.89	51.05	-30.8	-31.4	27.9	0.00e+00	0	38	0	2313158656	34	6025
2026-01-01 03:10:23.57	259.55	51.05	-30.8	-31.4	28.0	0.00e+00	0	38	0	2319450112	34	6008
2026-01-01 03:10:24.58	260.22	51.04	-30.8	-31.5	28.0	0.00e+00	0	38	0	2324692992	34	6034
2026-01-01 03:10:25.58	260.88	51.02	-30.7	-31.3	27.9	0.00e+00	0	38	0	2330984448	34	5948
2026-01-01 03:10:26.59	261.55	51.01	-30.9	-31.5	27.8	0.00e+00	0	38	0	2336227328	34	6100
2026-01-01 03:10:27.60	262.21	50.99	-31.1	-31.7	27.6	0.00e+00	0	37	0	2342518784	34	6210
2026-01-01 03:10:28.62	262.88	50.96	-30.9	-31.5	27.9	0.00e+00	0	38	0	2347761664	34	6063
2026-01-01 03:10:29.63	263.54	50.93	-30.6	-31.2	28.1	0.00e+00	0	38	0	2354053120	34	5849
2026-01-01 03:10:30.64	264.21	50.90	-30.3	-30.9	28.3	0.00e+00	0	38	0	2359296000	34	5677
2026-01-01 03:10:31.65	264.87	50.86	-30.6	-31.1	28.1	0.00e+00	0	37	0	2364538880	34	5814
2026-01-01 03:10:32.66	265.52	50.82	-30.7	-31.3	28.0	0.00e+00	0	38	0	2370830336	34	5922
2026-01-01 03:10:33.67	266.18	50.77	-30.9	-31.5	27.9	0.00e+00	0	38	0	2376073216	34	6054
2026-01-01 03:10:34.68	266.83	50.73	-30.8	-31.4	27.9	0.00e+00	0	38	0	2382364672	34	6030
2026-01-01 03:10:35.69	267.49	50.67	-30.6	-31.2	28.1	0.00e+00	0	38	0	2387607552	34	5861
2026-01-01 03:10:36.70	268.14	50.62	-30.6	-31.2	28.1	0.00e+00	0	38	0	2392850432	34	5862
2026-01-01 03:10:37.71	268.78	50.56	-30.8	-31.4	28.0	0.00e+00	0	38	0	2399141888	34	5972
2026-01-01 03:10:38.72	269.43	50.49	-30.9	-31.5	27.8	0.00e+00	0	38	0	2404384768	34	6094
2026-01-01 03:10:39.73	270.07	50.43	-30.8	-31.4	28.0	0.00e+00	0	38	0	2410676224	34	6030
2026-01-01 03:10:40.74	270.71	50.36	-30.8	-31.4	28.0	0.00e+00	0	38	0	2415919104	34	5971
2026-01-01 03:10:41.75	271.34	50.28	-31.1	-31.7	27.7	0.00e+00	0	38	0	2421161984	34	6243
2026-01-01 03:10:42.76	271.98	50.20	-31.4	-32.0	27.5	0.00e+00	0	38	0	2427453440	34	6463
2026-01-01 03:10:43.77	272.61	50.12	-31.2	-31.8	27.6	0.00e+00	0	38	0	2432696320	34	6305
2026-01-01 03:10:44.78	273.23	50.04	-30.8	-31.4	28.0	0.00e+00	0	38	0	2438987776	34	5987
2026-01-01 03:10:45.79	273.85	49.95	-30.7	-31.3	28.0	0.00e+00	0	38	0	2444230656	34	5951
2026-01-01 03:10:46.80	274.47	49.86	-30.6	-31.2	28.1	0.00e+00	0	38	0	2450522112	34	5834
2026-01-01 03:10:47.81	275.09	49.76	-30.5	-31.1	28.1	0.00e+00	0	38	0	2455764992	34	5828
2026-01-01 03:10:48.82	275.70	49.67	-30.6	-31.2	28.1	0.00e+00	0	38	0	2461007872	34	5856
2026-01-01 03:10:49.83	276.30	49.56	-30.9	-31.4	27.9	0.00e+00	0	38	0	2467299328	34	6015
2026-01-01 03:10:50.84	276.91	49.46	-31.1	-31.7	27.8	0.00e+00	0	38	0	2472542208	34	6184
2026-01-01 03:10:51.85	277.51	49.35	-31.2	-31.8	27.6	0.00e+00	0	38	0	2478833664	34	6304
2026-01-01 03:10:52.86	278.10	49.24	-31.2	-31.8	27.7	0.00e+00	0	38	0	2484076544	34	6300
2026-01-01 03:10:53.87	278.69	49.13	-31.0	-31.5	27.8	0.00e+00	0	38	0	2489319424	34	6071
2026-01-01 03:10:54.88	279.28	49.01	-30.7	-31.4	28.0	0.00e+00	0	38	0	2495610880	34	5975
2026-01-01 03:10:55.89	279.86	48.89	-30.7	-31.3	28.0	0.00e+00	0	38	0	2500853760	34	5957
2026-01-01 03:10:56.90	280.44	48.77	-30.7	-31.2	28.0	0.00e+00	0	38	0	2507145216	34	5881
2026-01-01 03:10:57.91	281.01	48.65	-30.9	-31.5	27.9	0.00e+00	0	38	0	2512388096	34	6099
2026-01-01 03:10:58.92	281.58	48.52	-30.8	-31.4	27.8	0.00e+00	0	38	0	2517630976	34	5986
2026-01-01 03:10:59.93	282.14	48.39	-30.9	-31.5	27.7	0.00e+00	0	38	0	2523922432	34	6047
2026-01-01 03:11:00.94	282.70	48.26	-30.9	-31.5	27.8	0.00e+00	0	37	0	2529165312	34	6043
2026-01-01 03:11:01.95	283.25	48.13	-30.9	-31.6	27.8	0.00e+00	0	38	0	2535456768	34	6160
2026-01-01 03:11:02.96	283.80	47.99	-31.2	-31.7	27.7	0.00e+00	0	38	0	2540699648	34	6235
2026-01-01 03:11:03.97	284.34	47.85	-31.4	-32.0	27.5	0.00e+00	0	38	0	2546991104	34	6407
2026-01-01 03:11:04.98	284.88	47.71	-31.0	-31.7	27.7	0.00e+00	0	38	0	2552233984	34	6187
2026-01-01 03:11:05.99	285.42	47.57	-30.7	-31.4	28.0	0.00e+00	0	38	0	2558525440	34	5979
2026-01-01 03:11:07.00	285.95	47.42	-30.4	-30.9	28.2	0.00e+00	0	38	0	2563768320	34	5688
2026-01-01 03:11:08.01	286.47	47.27	-30.4	-31.1	28.2	0.00e+00	0	38	0	2569011200	34	5786
2026-01-01 03:11:09.02	286.99	47.12	-30.5	-31.1	28.1	0.00e+00	0	38	0	2575302656	34	5826
2026-01-01 03:11:10.03	287.51	46.97	-30.5	-31.2	28.1	0.00e+00	0	38	0	2580545536	34	5844
2026-01-01 03:11:11.04	288.02	46.82	-30.4	-31.1	28.2	0.00e+00	0	38	0	2586836992	34	5772
2026-01-01 03:11:12.05	288.52	46.66	-30.7	-31.2	27.9	0.00e+00	0	38	0	2592079872	34	5885
2026-01-01 03:11:13.06	289.02	46.51	-30.8	-31.5	27.8	0.00e+00	0	38	0	2597322752	34	6083
2026-01-01 03:11:14.07	289.52	46.35	-30.9	-31.5	27.8	0.00e+00	0	38	0	2603614208	34	6091
2026-01-01 03:11:15.07	290.00	46.19	-30.9	-31.4	27.9	0.00e+00	0	38	0	2608857088	34	6017
2026-01-01 03:11:16.09	290.49	46.02	-31.0	-31.5	27.8	0.00e+00	0	38	0	2615148544	34	6068
2026-01-01 03:11:17.09	290.97	45.86	-30.9	-31.5	27.7	0.00e+00	0	38	0	2620391424	34	6091
2026-01-01 03:11:18.10	291.44	45.70	-30.8	-31.4	27.9	0.00e+00	0	38	0	2625634304	34	5984
2026-01-01 03:11:19.12	291.92	45.53	-30.7	-31.3	27.9	0.00e+00	0	38	0	2631925760	34	5939
2026-01-01 03:11:20.13	292.38	45.36	-30.7	-31.3	28.0	0.00e+00	0	38	0	2637168640	34	5964
2026-01-01 03:11:21.14	292.84	45.19	-30.5	-31.0	28.2	0.00e+00	0	38	0	2643460096	34	5731
2026-01-01 03:11:22.15	293.30	45.02	-30.5	-31.1	28.1	0.00e+00	0	37	0	2648702976	34	5771
2026-01-01 03:11:23.16	293.75	44.85	-30.7	-31.3	28.0	0.00e+00	0	38	0	2654994432	34	5907
2026-01-01 03:11:24.16	294.19	44.68	-30.9	-31.6	27.8	0.00e+00	0	38	0	2660237312	34	6152
2026-01-01 03:11:25.17	294.63	44.51	-31.0	-31.7	27.8	0.00e+00	0	37	0	2665480192	34	6206
2026-01-01 03:11:26.18	295.07	44.33	-30.9	-31.6	27.8	0.00e+00	0	38	0	2671771648	34	6153
2026-01-01 03:11:27.19	295.50	44.15	-30.9	-31.4	27.8	0.00e+00	0	38	0	2677014528	34	6021
2026-01-01 03:11:28.20	295.92	43.98	-30.9	-31.6	27.9	0.00e+00	0	38	0	2683305984	34	6112
2026-01-01 03:11:29.21	296.35	43.80	-30.9	-31.4	27.8	0.00e+00	0	38	0	2688548864	34	6008
2026-01-01 03:11:30.22	296.76	43.62	-30.8	-31.4	27.9	0.00e+00	0	38	0	2693791744	34	6014
2026-01-01 03:11:31.23	297.18	43.44	-30.8	-31.4	27.8	0.00e+00	0	38	0	2700083200	34	5970
2026-01-01 03:11:32.24	297.58	43.26	-30.8	-31.5	28.0	0.00e+00	0	38	0	2705326080	34	6035
2026-01-01 03:11:33.25	297.99	43.08	-30.7	-31.4	28.0	0.00e+00	0	38	0	2711617536	34	6032
2026-01-01 03:11:34.26	298.39	42.90	-30.6	-31.3	28.1	0.00e+00	0	38	0	2716860416	34	5900
2026-01-01 03:11:35.27	298.78	42.72	-30.5	-31.0	28.1	0.00e+00	0	38	0	2722103296	34	5753
2026-01-01 03:11:36.28	299.17	42.54	-30.5	-31.0	28.1	0.00e+00	0	38	0	2728394752	34	5747
2026-01-01 03:11:37.29	299.56	42.35	-30.7	-31.3	27.9	0.00e+00	0	38	0	2733637632	34	5923
2026-01-01 03:11:38.30	299.94	42.17	-30.9	-31.6	27.7	0.00e+00	0	38	0	2739929088	34	6118
2026-01-01 03:11:39.31	300.32	41.99	-31.1	-31.8	27.5	0.00e+00	0	38	0	2745171968	34	6307
2026-01-01 03:11:40.32	300.69	41.80	-30.9	-31.5	27.9	0.00e+00	0	38	0	2751463424	34	6059
2026-01-01 03:11:41.33	301.06	41.62	-30.7	-31.3	28.0	0.00e+00	0	38	0	2756706304	34	5939
2026-01-01 03:11:42.34	301.43	41.43	-30.6	-31.1	28.1	0.00e+00	0	38	0	2762997760	34	5812
2026-01-01 03:11:43.35	301.79	41.25	-30.6	-31.1	28.1	0.00e+00	0	38	0	2768240640	34	5785
2026-01-01 03:11:44.36	302.14	41.06	-30.5	-31.2	28.1	0.00e+00	0	38	0	2773483520	34	5871
2026-01-01 03:11:45.37	302.50	40.87	-30.7	-31.2	28.0	0.00e+00	0	38	0	2779774976	34	5874
2026-01-01 03:11:46.38	302.85	40.69	-30.7	-31.4	28.0	0.00e+00	0	38	0	2785017856	34	5965
2026-01-01 03:11:47.39	303.19	40.50	-30.6	-31.1	28.0	0.00e+00	0	38	0	2791309312	34	5816
2026-01-01 03:11:48.40	303.53	40.31	-30.3	-30.8	28.2	0.00e+00	0	37	0	2796552192	34	5596
2026-01-01 03:11:49.41	303.87	40.13	-30.0	-30.7	28.3	0.00e+00	0	38	0	2801795072	34	5531
2026-01-01 03:11:50.41	304.20	39.94	-30.0	-30.5	28.3	0.00e+00	0	38	0	2808086528	34	5400
2026-01-01 03:11:51.42	304.53	39.76	-30.1	-30.6	28.0	0.00e+00	0	38	0	2813329408	34	5478
2026-01-01 03:11:52.43	304.85	39.57	-30.1	-30.7	28.0	0.00e+00	0	37	0	2819620864	34	5507
2026-01-01 03:11:53.44	305.18	39.38	-30.2	-30.7	28.2	0.00e+00	0	37	0	2824863744	34	5539
2026-01-01 03:11:54.45	305.49	39.20	-30.2	-30.9	28.0	0.00e+00	0	37	0	2830106624	34	5639
2026-01-01 03:11:55.46	305.81	39.01	-30.2	-30.8	28.2	0.00e+00	0	37	0	2836398080	34	5626
2026-01-01 03:11:56.47	306.12	38.82	-30.2	-30.8	28.2	0.00e+00	0	38	0	2841640960	34	5576
2026-01-01 03:11:57.48	306.43	38.64	-30.3	-30.8	28.0	0.00e+00	0	38	0	2847932416	34	5612
2026-01-01 03:11:58.49	306.73	38.45	-30.4	-30.9	28.1	0.00e+00	0	37	0	2853175296	34	5691
2026-01-01 03:11:59.50	307.03	38.26	-30.4	-31.0	28.2	0.00e+00	0	37	0	2859466752	34	5708
2026-01-01 03:12:00.51	307.33	38.08	-30.3	-31.0	28.1	0.00e+00	0	38	0	2864709632	34	5759
2026-01-01 03:12:01.52	307.63	37.89	-30.2	-30.8	28.2	0.00e+00	0	38	0	2869952512	34	5581
2026-01-01 03:12:02.53	307.92	37.71	-30.4	-30.9	28.2	0.00e+00	0	38	0	2876243968	34	5679
2026-01-01 03:12:03.54	308.21	37.52	-30.1	-30.6	28.4	0.00e+00	0	37	0	2881486848	34	5487
2026-01-01 03:12:04.55	308.49	37.34	-30.1	-30.7	28.3	0.00e+00	0	38	0	2887778304	34	5552
2026-01-01 03:12:05.55	308.77	37.15	-30.1	-30.6	28.4	0.00e+00	0	38	0	2893021184	34	5501
2026-01-01 03:12:06.56	309.05	36.97	-30.1	-30.7	28.3	0.00e+00	0	37	0	2898264064	34	5505
2026-01-01 03:12:07.57	309.32	36.78	-30.3	-31.0	28.2	0.00e+00	0	37	0	2904555520	34	5711
2026-01-01 03:12:08.58	309.60	36.60	-30.2	-30.8	28.1	0.00e+00	0	37	0	2909798400	34	5584
2026-01-01 03:12:09.59	309.86	36.42	-30.3	-31.0	28.2	0.00e+00	0	37	0	2916089856	34	5721
2026-01-01 03:12:10.60	310.13	36.23	-30.4	-31.1	28.1	0.00e+00	0	37	0	2921332736	34	5778
2026-01-01 03:12:11.61	310.39	36.05	-30.5	-31.2	28.1	0.00e+00	0	37	0	2926575616	34	5848
2026-01-01 03:12:12.62	310.65	35.87	-30.4	-31.0	28.2	0.00e+00	0	38	0	2932867072	34	5719
2026-01-01 03:12:13.63	310.91	35.69	-30.6	-31.2	28.1	0.00e+00	0	37	0	2938109952	34	5883
2026-01-01 03:12:14.64	311.17	35.51	-30.7	-31.3	28.0	0.00e+00	0	37	0	2944401408	34	5943
2026-01-01 03:12:15.65	311.42	35.32	-30.5	-31.1	28.1	0.00e+00	0	37	0	2949644288	34	5779
2026-01-01 03:12:16.66	311.67	35.14	-30.4	-30.9	28.2	0.00e+00	0	38	0	2955935744	34	5686
2026-01-01 03:12:17.67	311.92	34.96	-30.2	-30.9	28.3	0.00e+00	0	38	0	2961178624	34	5632
2026-01-01 03:12:18.68	312.16	34.78	-30.0	-30.7	28.3	0.00e+00	0	38	0	2967470080	34	5504
2026-01-01 03:12:19.69	312.40	34.60	-30.0	-30.6	28.4	0.00e+00	0	38	0	2972712960	34	5442
2026-01-01 03:12:20.70	312.64	34.43	-30.1	-30.7	28.4	0.00e+00	0	38	0	2977955840	34	5551
2026-01-01 03:12:21.71	312.88	34.25	-30.3	-30.9	28.3	0.00e+00	0	37	0	2984247296	34	5680
2026-01-01 03:12:22.72	313.11	34.07	-30.6	-31.1	28.1	0.00e+00	0	37	0	2989490176	34	5787
2026-01-01 03:12:23.72	313.34	33.89	-30.4	-31.1	28.1	0.00e+00	0	37	0	2995781632	34	5806
2026-01-01 03:12:24.74	313.57	33.72	-30.5	-31.1	28.0	0.00e+00	0	37	0	3001024512	34	5767
2026-01-01 03:12:25.75	313.80	33.54	-30.4	-31.0	28.1	0.00e+00	0	38	0	3006267392	34	5712
2026-01-01 03:12:26.75	314.02	33.36	-30.5	-31.0	28.1	0.00e+00	0	38	0	3012558848	34	5731
2026-01-01 03:12:27.76	314.24	33.19	-30.4	-31.1	28.1	0.00e+00	0	38	0	3017801728	34	5771
2026-01-01 03:12:28.78	314.46	33.01	-30.5	-31.2	28.1	0.00e+00	0	38	0	3024093184	34	5881
2026-01-01 03:12:29.79	314.68	32.84	-30.6	-31.2	27.9	0.00e+00	0	37	0	3029336064	34	5838
2026-01-01 03:12:30.80	314.89	32.67	-30.6	-31.3	28.0	0.00e+00	0	37	0	3034578944	34	5907
2026-01-01 03:12:31.81	315.10	32.49	-30.8	-31.4	28.0	0.00e+00	0	37	0	3040870400	34	6027
2026-01-01 03:12:32.82	315.32	32.32	-30.7	-31.2	27.9	0.00e+00	0	37	0	3046113280	34	5887
2026-01-01 03:12:33.83	315.52	32.15	-30.6	-31.3	27.9	0.00e+00	0	37	0	3052404736	34	5897
2026-01-01 03:12:34.84	315.73	31.98	-30.6	-31.1	28.0	0.00e+00	0	37	0	3057647616	34	5819
2026-01-01 03:12:35.85	315.93	31.81	-30.6	-31.3	28.0	0.00e+00	0	37	0	3063939072	34	5921
2026-01-01 03:12:36.86	316.14	31.64	-30.6	-31.3	28.0	0.00e+00	0	37	0	3069181952	34	5902
2026-01-01 03:12:37.87	316.33	31.47	-30.5	-31.2	28.1	0.00e+00	0	37	0	3074424832	34	5876
2026-01-01 03:12:38.88	316.53	31.30	-30.6	-31.2	27.9	0.00e+00	0	37	0	3080716288	34	5836
2026-01-01 03:12:39.89	316.73	31.13	-30.5	-31.2	28.1	0.00e+00	0	37	0	3085959168	34	5856
2026-01-01 03:12:40.89	316.92	30.97	-30.6	-31.2	28.0	0.00e+00	0	38	0	3092250624	34	5832
2026-01-01 03:12:41.91	317.11	30.80	-30.7	-31.2	28.0	0.00e+00	0	37	0	3097493504	34	5858
2026-01-01 03:12:42.91	317.30	30.63	-30.8	-31.3	27.9	0.00e+00	0	37	0	3102736384	34	5943
2026-01-01 03:12:43.92	317.49	30.47	-30.8	-31.3	27.9	0.00e+00	0	38	0	3109027840	34	5958
2026-01-01 03:12:44.93	317.68	30.30	-30.8	-31.4	27.8	0.00e+00	0	38	0	3114270720	34	5980
2026-01-01 03:12:45.94	317.86	30.14	-31.0	-31.5	27.8	0.00e+00	0	37	0	3120562176	34	6072
2026-01-01 03:12:46.95	318.04	29.97	-30.9	-31.6	27.7	0.00e+00	0	38	0	3125805056	34	6149
2026-01-01 03:12:47.96	318.22	29.81	-30.9	-31.6	27.7	0.00e+00	0	37	0	3131047936	34	6127
2026-01-01 03:12:48.97	318.40	29.65	-31.0	-31.5	27.7	0.00e+00	0	38	0	3137339392	34	6073
2026-01-01 03:12:49.98	318.58	29.49	-30.9	-31.6	27.7	0.00e+00	0	38	0	3142582272	34	6105
2026-01-01 03:12:50.99	318.76	29.33	-30.8	-31.5	27.8	0.00e+00	0	38	0	3148873728	34	6037
2026-01-01 03:12:52.00	318.93	29.16	-30.7	-31.4	28.0	0.00e+00	0	37	0	3154116608	34	5970
2026-01-01 03:12:53.01	319.10	29.00	-30.6	-31.2	27.9	0.00e+00	0	37	0	3160408064	34	5849
2026-01-01 03:12:54.02	319.27	28.85	-30.7	-31.2	27.9	0.00e+00	0	38	0	3165650944	34	5857
2026-01-01 03:12:55.03	319.44	28.69	-30.6	-31.2	27.9	0.00e+00	0	38	0	3171942400	34	5842
2026-01-01 03:12:56.04	319.61	28.53	-30.6	-31.2	27.9	0.00e+00	0	38	0	3177185280	34	5843
2026-01-01 03:12:57.05	319.77	28.37	-30.7	-31.3	27.9	0.00e+00	0	38	0	3182428160	34	5923
2026-01-01 03:12:58.06	319.94	28.22	-30.6	-31.1	28.0	0.00e+00	0	37	0	3188719616	34	5788
2026-01-01 03:12:59.06	320.10	28.06	-30.7	-31.2	27.9	0.00e+00	0	37	0	3193962496	34	5871
2026-01-01 03:13:00.07	320.26	27.91	-30.5	-31.0	28.1	0.00e+00	0	37	0	3199205376	34	5745
2026-01-01 03:13:01.08	320.42	27.75	-30.5	-31.0	28.1	0.00e+00	0	38	0	3205496832	34	5759
2026-01-01 03:13:02.09	320.58	27.60	-30.6	-31.1	27.9	0.00e+00	0	37	0	3210739712	34	5804
2026-01-01 03:13:03.10	320.73	27.44	-30.8	-31.3	27.9	0.00e+00	0	37	0	3217031168	34	5931
2026-01-01 03:13:04.11	320.89	27.29	-30.8	-31.4	27.8	0.00e+00	0	37	0	3222274048	34	5997
2026-01-01 03:13:05.12	321.04	27.14	-30.9	-31.4	27.7	0.00e+00	0	37	0	3228565504	34	5999
2026-01-01 03:13:06.14	321.20	26.98	-30.9	-31.4	27.8	0.00e+00	0	38	0	3233808384	34	6030
2026-01-01 03:13:07.14	321.35	26.84	-31.1	-31.8	27.6	0.00e+00	0	38	0	3239051264	34	6256
2026-01-01 03:13:08.15	321.49	26.69	-30.9	-31.5	27.6	0.00e+00	0	38	0	3245342720	34	6084
2026-01-01 03:13:09.16	321.64	26.54	-30.9	-31.7	27.6	0.00e+00	0	38	0	3250585600	34	6193
2026-01-01 03:13:10.17	321.79	26.39	-31.0	-31.5	27.6	0.00e+00	0	37	0	3256877056	34	6101
2026-01-01 03:13:11.18	321.94	26.24	-31.0	-31.7	27.6	0.00e+00	0	37	0	3262119936	34	6209
2026-01-01 03:13:12.19	322.08	26.09	-31.0	-31.7	27.6	0.00e+00	0	37	0	3267362816	34	6180
2026-01-01 03:13:13.20	322.22	25.94	-30.9	-31.5	27.6	0.00e+00	0	38	0	3273654272	34	6102
2026-01-01 03:13:14.21	322.36	25.80	-30.8	-31.4	27.8	0.00e+00	0	38	0	3278897152	34	5967
2026-01-01 03:13:15.22	322.50	25.65	-30.8	-31.4	27.8	0.00e+00	0	38	0	3285188608	34	5980
2026-01-01 03:13:16.23	322.64	25.51	-30.8	-31.4	27.7	0.00e+00	0	37	0	3290431488	34	5981
2026-01-01 03:13:17.24	322.78	25.36	-31.0	-31.5	27.7	0.00e+00	0	37	0	3296722944	34	6068
2026-01-01 03:13:18.25	322.92	25.22	-30.8	-31.3	27.8	0.00e+00	0	37	0	3301965824	34	5963
2026-01-01 03:13:19.26	323.05	25.07	-30.8	-31.5	27.7	0.00e+00	0	37	0	3307208704	34	6036
2026-01-01 03:13:20.27	323.19	24.93	-31.0	-31.5	27.7	0.00e+00	0	38	0	3313500160	34	6063
2026-01-01 03:13:21.28	323.32	24.79	-30.9	-31.4	27.7	0.00e+00	0	37	0	3318743040	34	6021
2026-01-01 03:13:22.29	323.45	24.65	-31.0	-31.6	27.6	0.00e+00	0	38	0	3325034496	34	6110
2026-01-01 03:13:23.30	323.58	24.51	-31.1	-31.8	27.4	0.00e+00	0	38	0	3330277376	34	6291
2026-01-01 03:13:24.31	323.71	24.37	-31.1	-31.6	27.6	0.00e+00	0	38	0	3335520256	34	6146
2026-01-01 03:13:25.32	323.84	24.23	-31.1	-31.6	27.6	0.00e+00	0	38	0	3341811712	34	6141
2026-01-01 03:13:26.33	323.97	24.09	-31.2	-31.9	27.3	0.00e+00	0	38	0	3347054592	34	6367
2026-01-01 03:13:27.34	324.10	23.95	-31.3	-31.9	27.3	0.00e+00	0	38	0	3353346048	34	6346
2026-01-01 03:13:28.35	324.22	23.81	-31.2	-31.9	27.5	0.00e+00	0	38	0	3358588928	34	6336
2026-01-01 03:13:29.36	324.35	23.67	-31.4	-31.9	27.3	0.00e+00	0	37	0	3363831808	34	6378
2026-01-01 03:13:30.37	324.47	23.54	-31.3	-31.9	27.3	0.00e+00	0	38	0	3370123264	34	6333
2026-01-01 03:13:31.38	324.59	23.40	-31.5	-32.2	27.2	0.00e+00	0	38	0	3375366144	34	6595
2026-01-01 03:13:32.39	324.71	23.27	-31.6	-32.1	27.2	0.00e+00	0	37	0	3381657600	34	6532
2026-01-01 03:13:33.40	324.83	23.13	-31.5	-32.1	27.2	0.00e+00	0	37	0	3386900480	34	6500
2026-01-01 03:13:34.41	324.95	23.00	-31.6	-32.1	27.2	0.00e+00	0	37	0	3393191936	34	6536
2026-01-01 03:13:35.42	325.07	22.86	-31.7	-32.3	27.1	0.00e+00	0	37	0	3398434816	34	6633
2026-01-01 03:13:36.43	325.19	22.73	-31.8	-32.4	27.0	0.00e+00	0	37	0	3404726272	36	5976
2026-01-01 03:13:37.44	325.30	22.60	-31.9	-32.5	26.9	0.00e+00	0	38	0	3409969152	36	6077
2026-01-01 03:13:38.45	325.42	22.47	-32.0	-32.6	26.8	0.00e+00	0	38	0	3415212032	36	6139
2026-01-01 03:13:39.46	325.53	22.33	-31.9	-32.5	27.0	0.00e+00	0	38	0	3421503488	36	6091
2026-01-01 03:13:40.46	325.65	22.21	-31.8	-32.5	26.9	0.00e+00	0	37	0	3426746368	36	6056
2026-01-01 03:13:41.47	325.76	22.07	-31.8	-32.4	27.0	0.00e+00	0	37	0	3433037824	36	5981
2026-01-01 03:13:42.48	325.87	21.95	-31.9	-32.4	27.0	0.00e+00	0	37	0	3438280704	36	6008
2026-01-01 03:13:43.49	325.98	21.82	-31.8	-32.5	27.0	0.00e+00	0	37	0	3443523584	36	6037
2026-01-01 03:13:44.50	326.09	21.69	-31.9	-32.6	26.9	0.00e+00	0	37	0	3449815040	36	6130
2026-01-01 03:13:45.51	326.20	21.56	-31.9	-32.4	27.0	0.00e+00	0	37	0	3455057920	36	6028
2026-01-01 03:13:46.52	326.31	21.43	-31.8	-32.4	26.9	0.00e+00	0	38	0	3460300800	36	5977
2026-01-01 03:13:47.53	326.41	21.30	-31.9	-32.4	26.9	0.00e+00	0	37	0	3466592256	36	6004
2026-01-01 03:13:48.54	326.52	21.18	-31.8	-32.5	27.0	0.00e+00	0	37	0	3471835136	36	6067
2026-01-01 03:13:49.55	326.63	21.05	-32.0	-32.5	26.8	0.00e+00	0	37	0	3478126592	36	6083
2026-01-01 03:13:50.56	326.73	20.93	-31.9	-32.4	27.0	0.00e+00	0	37	0	3483369472	36	6026
2026-01-01 03:13:51.57	326.84	20.80	-32.0	-32.5	26.8	0.00e+00	0	37	0	3489660928	36	6102
2026-01-01 03:13:52.58	326.94	20.68	-31.9	-32.5	26.9	0.00e+00	0	37	0	3494903808	36	6046
2026-01-01 03:13:53.59	327.04	20.55	-32.1	-32.7	26.7	0.00e+00	0	37	0	3501195264	36	6199
2026-01-01 03:13:54.60	327.14	20.43	-32.0	-32.6	26.8	0.00e+00	0	37	0	3506438144	36	6110
2026-01-01 03:13:55.60	327.24	20.31	-32.0	-32.5	26.8	0.00e+00	0	38	0	3511681024	36	6096
2026-01-01 03:13:56.61	327.34	20.19	-32.1	-32.8	26.7	0.00e+00	0	38	0	3517972480	36	6287
2026-01-01 03:13:57.62	327.44	20.07	-32.1	-32.6	26.8	0.00e+00	0	37	0	3523215360	36	6159
2026-01-01 03:13:58.63	327.54	19.94	-32.1	-32.7	26.7	0.00e+00	0	38	0	3529506816	36	6199
2026-01-01 03:13:59.64	327.64	19.82	-32.2	-32.9	26.6	0.00e+00	0	38	0	3534749696	36	6373
2026-01-01 03:14:00.65	327.74	19.70	-32.3	-32.8	26.6	0.00e+00	0	38	0	3539992576	36	6299
2026-01-01 03:14:01.66	327.83	19.58	-32.4	-33.1	26.4	0.00e+00	0	38	0	3546284032	36	6518
2026-01-01 03:14:02.67	327.93	19.46	-32.2	-32.9	26.6	0.00e+00	0	38	0	3551526912	36	6374
2026-01-01 03:14:03.68	328.02	19.35	-32.3	-32.8	26.5	0.00e+00	0	37	0	3557818368	36	6308
2026-01-01 03:14:04.68	328.12	19.23	-32.3	-32.9	26.5	0.00e+00	0	38	0	3563061248	36	6337
2026-01-01 03:14:05.69	328.21	19.11	-32.4	-33.0	26.5	0.00e+00	0	38	0	3568304128	36	6432
2026-01-01 03:14:06.70	328.30	18.99	-32.4	-32.9	26.4	0.00e+00	0	38	0	3574595584	36	6390
2026-01-01 03:14:07.72	328.40	18.88	-32.4	-33.1	26.4	0.00e+00	0	38	0	3579838464	36	6511
2026-01-01 03:14:08.72	328.49	18.76	-32.6	-33.3	26.3	0.00e+00	0	38	0	3586129920	36	6630
2026-01-01 03:14:09.73	328.58	18.65	-32.6	-33.2	26.3	0.00e+00	0	38	0	3591372800	36	6545
2026-01-01 03:14:10.74	328.67	18.53	-32.6	-33.3	26.2	0.00e+00	0	37	0	3597664256	36	6665
2026-01-01 03:14:11.75	328.76	18.42	-32.6	-33.2	26.2	0.00e+00	0	38	0	3602907136	36	6569
2026-01-01 03:14:12.77	328.85	18.30	-32.7	-33.3	26.1	0.00e+00	0	37	0	3608150016	38	5932
