passes_logs/2026/01/01/R4.6S_Anadyr/R4.6S_Anadyr__20260101_182835_FENGYUN_3D_rec.log

#Pass ID: 20260101_182835_FENGYUN 3D
#Satellite: FENGYUN 3D
#Configuration: FENGYUN 3D
#almurnet v.1.7.20251203
#Start time: 2026-01-01 18:28:39

#Version: 2.2.20231116
#Station: R4.6S_Anadyr
#Location: 177.4865 lon 64.73178 lat
#TLE: 1 43010U 17072A   25364.99193771  .00000012  00000+0  27255-4 0  9998
#TLE: 2 43010  98.9913 331.5779 0001825 135.6238 224.5084 14.19689358421127

#Time	Az	El	Level	Level2	SNR	BER	BlckErr	Temp	State	Recorded	gain1	gain2
2026-01-01 18:28:39.17	26.53	0.19	-49.3	-60.0	3.3	8.39e-01	0	38	0	0	60	36192
2026-01-01 18:28:40.18	26.49	0.25	-49.4	-61.4	3.6	8.45e-01	0	38	104	0	60	42699
2026-01-01 18:28:41.19	26.45	0.31	-49.4	-61.5	3.6	8.45e-01	0	38	104	0	60	43129
2026-01-01 18:28:42.20	26.41	0.36	-49.4	-61.5	3.6	8.45e-01	0	38	104	0	60	42973
2026-01-01 18:28:43.21	26.37	0.42	-49.4	-61.5	3.6	8.45e-01	0	38	104	0	60	43034
2026-01-01 18:28:44.22	26.33	0.48	-49.2	-61.5	3.6	8.44e-01	0	38	104	0	60	42832
2026-01-01 18:28:45.23	26.29	0.54	-49.2	-61.4	3.6	8.45e-01	0	38	104	0	60	42263
2026-01-01 18:28:46.24	26.25	0.60	-49.1	-61.3	3.6	8.44e-01	0	38	104	0	60	41859
2026-01-01 18:28:47.25	26.21	0.66	-49.0	-61.1	3.6	8.45e-01	0	38	104	0	60	41207
2026-01-01 18:28:48.26	26.17	0.71	-48.9	-61.0	3.6	8.45e-01	0	38	104	0	60	40524
2026-01-01 18:28:49.26	26.13	0.77	-48.7	-60.8	3.6	8.45e-01	0	38	104	0	60	39742
2026-01-01 18:28:50.27	26.09	0.83	-48.5	-60.6	3.6	8.44e-01	0	38	104	0	60	38750
2026-01-01 18:28:51.29	26.05	0.89	-48.2	-60.3	3.6	8.45e-01	0	38	104	0	60	37435
2026-01-01 18:28:52.30	26.01	0.95	-47.8	-59.9	3.6	8.45e-01	0	38	104	0	60	35657
2026-01-01 18:28:53.31	25.96	1.01	-47.8	-59.9	3.6	8.46e-01	0	38	104	0	60	35823
2026-01-01 18:28:54.31	25.92	1.07	-47.8	-59.9	3.6	8.45e-01	0	38	104	0	60	35785
2026-01-01 18:28:55.32	25.88	1.13	-47.8	-60.0	3.6	8.45e-01	0	38	104	0	60	36104
2026-01-01 18:28:56.33	25.84	1.19	-47.8	-60.0	3.6	8.46e-01	0	38	104	0	60	36283
2026-01-01 18:28:57.34	25.80	1.24	-47.8	-60.0	3.6	8.46e-01	0	38	104	0	60	36039
2026-01-01 18:28:58.35	25.75	1.30	-47.8	-59.9	3.6	8.43e-01	0	38	104	0	60	35874
2026-01-01 18:28:59.36	25.71	1.36	-47.8	-59.9	3.6	8.46e-01	0	38	104	0	60	35689
2026-01-01 18:29:00.37	25.67	1.42	-47.8	-59.9	3.6	8.46e-01	0	38	104	0	60	35725
2026-01-01 18:29:01.38	25.62	1.48	-47.8	-59.9	3.6	8.45e-01	0	38	104	0	60	35712
2026-01-01 18:29:02.39	25.58	1.54	-47.8	-59.9	3.6	8.46e-01	0	38	104	0	60	35738
2026-01-01 18:29:03.40	25.54	1.60	-47.8	-59.9	3.6	8.47e-01	0	38	104	0	60	35750
2026-01-01 18:29:04.41	25.49	1.66	-47.8	-59.9	3.6	8.46e-01	0	38	104	0	60	35705
2026-01-01 18:29:05.42	25.45	1.72	-47.8	-60.0	3.6	8.46e-01	0	38	104	0	60	36041
2026-01-01 18:29:06.43	25.40	1.79	-47.8	-59.9	3.6	8.45e-01	0	38	104	0	60	35585
2026-01-01 18:29:07.44	25.36	1.85	-47.8	-59.7	3.6	8.44e-01	0	38	104	0	60	35051
2026-01-01 18:29:08.45	25.32	1.91	-47.8	-59.6	3.6	8.46e-01	0	38	104	0	60	34424
2026-01-01 18:29:09.46	25.27	1.97	-47.8	-59.3	3.6	8.46e-01	0	38	104	0	60	33242
2026-01-01 18:29:10.46	25.23	2.03	-47.8	-59.3	3.6	8.46e-01	0	38	104	0	60	33450
2026-01-01 18:29:11.47	25.18	2.09	-47.8	-59.3	3.6	8.45e-01	0	38	104	0	60	33439
2026-01-01 18:29:12.48	25.14	2.15	-47.8	-59.5	3.6	8.45e-01	0	38	104	0	60	34315
2026-01-01 18:29:13.49	25.09	2.21	-47.8	-59.7	3.6	8.45e-01	0	38	104	0	60	34920
2026-01-01 18:29:14.51	25.04	2.27	-47.8	-60.0	3.6	8.45e-01	0	38	104	0	60	36047
2026-01-01 18:29:15.52	25.00	2.33	-47.8	-60.0	3.6	8.46e-01	0	38	104	0	60	36044
2026-01-01 18:29:16.52	24.95	2.40	-47.8	-60.0	3.6	8.46e-01	0	38	104	0	60	35961
2026-01-01 18:29:17.54	24.91	2.46	-47.8	-59.9	3.6	8.46e-01	0	38	104	0	60	35632
2026-01-01 18:29:18.55	24.86	2.52	-47.8	-59.9	3.6	8.46e-01	0	38	104	0	60	35602
2026-01-01 18:29:19.55	24.81	2.58	-47.8	-59.8	3.6	8.45e-01	0	38	104	0	60	35325
2026-01-01 18:29:20.56	24.77	2.64	-47.8	-59.6	3.5	8.46e-01	0	38	104	0	60	34554
2026-01-01 18:29:21.57	24.72	2.71	-47.7	-59.3	3.6	8.45e-01	0	38	104	0	60	33245
2026-01-01 18:29:22.58	24.67	2.77	-47.7	-58.8	3.6	8.46e-01	0	38	104	0	60	31345
2026-01-01 18:29:23.59	24.62	2.83	-47.6	-58.2	3.6	8.45e-01	0	38	104	0	60	29352
2026-01-01 18:29:24.60	24.58	2.89	-47.7	-58.5	3.6	8.44e-01	0	38	104	0	60	30571
2026-01-01 18:29:25.61	24.53	2.96	-47.7	-59.1	3.6	8.45e-01	0	38	104	0	60	32476
2026-01-01 18:29:26.62	24.48	3.02	-47.8	-59.9	3.6	8.45e-01	0	38	104	0	60	35606
2026-01-01 18:29:27.63	24.43	3.08	-47.7	-59.2	3.6	8.45e-01	0	38	104	0	60	33135
2026-01-01 18:29:28.64	24.38	3.14	-47.4	-56.3	3.8	8.43e-01	0	38	104	0	60	23601
2026-01-01 18:29:29.65	24.33	3.21	-46.7	-52.8	6.3	4.77e-01	0	39	0	0	60	15763
2026-01-01 18:29:30.66	24.28	3.27	-45.9	-49.9	8.5	8.54e-02	0	38	0	5242880	60	11250
2026-01-01 18:29:31.67	24.23	3.33	-45.0	-48.0	10.7	1.02e-02	0	38	0	10485760	60	9089
2026-01-01 18:29:32.68	24.18	3.40	-44.1	-46.6	12.2	8.26e-04	0	38	0	16777216	60	7742
2026-01-01 18:29:33.69	24.13	3.46	-44.0	-46.4	12.5	3.16e-04	0	38	0	22020096	60	7534
2026-01-01 18:29:34.70	24.08	3.52	-45.4	-48.8	9.7	1.57e-03	0	38	0	28311552	60	9965
2026-01-01 18:29:35.72	24.03	3.59	-47.7	-57.7	3.6	2.09e-01	0	38	104	32505856	60	27598
2026-01-01 18:29:36.72	23.98	3.65	-44.0	-46.8	5.3	8.18e-01	0	38	104	32505856	60	7868
2026-01-01 18:29:37.74	23.93	3.72	-37.1	-37.9	21.1	1.22e-03	0	38	0	32505856	48	5694
2026-01-01 18:29:38.75	23.88	3.78	-47.8	-59.5	3.6	3.23e-01	0	39	104	37748736	60	33980
2026-01-01 18:29:39.75	23.83	3.85	-39.7	-40.8	6.1	8.34e-01	0	39	104	37748736	56	5018
2026-01-01 18:29:40.77	23.78	3.91	-37.5	-38.4	20.7	0.00e+00	0	39	0	38797312	48	5974
2026-01-01 18:29:41.78	23.73	3.97	-36.9	-37.8	21.3	0.00e+00	0	38	0	44040192	48	5615
2026-01-01 18:29:42.79	23.67	4.04	-37.0	-37.8	21.2	0.00e+00	0	38	0	50331648	46	6308
2026-01-01 18:29:43.80	23.62	4.10	-36.8	-37.6	21.5	0.00e+00	0	38	0	55574528	46	6148
2026-01-01 18:29:44.81	23.57	4.17	-37.0	-37.8	21.3	0.00e+00	0	39	0	60817408	46	6315
2026-01-01 18:29:45.82	23.52	4.23	-36.9	-37.7	21.5	0.00e+00	0	38	0	67108864	46	6235
2026-01-01 18:29:46.83	23.46	4.30	-36.6	-37.4	21.7	0.00e+00	0	39	0	72351744	46	6029
2026-01-01 18:29:47.83	23.41	4.37	-36.7	-37.5	21.6	0.00e+00	0	39	0	78643200	46	6084
2026-01-01 18:29:48.84	23.36	4.43	-36.8	-37.7	21.5	0.00e+00	0	39	0	83886080	46	6176
2026-01-01 18:29:49.86	23.30	4.50	-37.2	-38.1	21.1	0.00e+00	0	39	0	90177536	46	6479
2026-01-01 18:29:50.87	23.25	4.56	-37.2	-38.0	21.2	0.00e+00	0	39	0	95420416	46	6459
2026-01-01 18:29:51.88	23.19	4.63	-36.6	-37.4	21.8	0.00e+00	0	38	0	100663296	46	5994
2026-01-01 18:29:52.89	23.14	4.69	-36.5	-37.3	21.8	0.00e+00	0	38	0	106954752	46	5959
2026-01-01 18:29:53.90	23.08	4.76	-36.7	-37.5	21.8	0.00e+00	0	38	0	112197632	46	6065
2026-01-01 18:29:54.91	23.03	4.83	-36.6	-37.5	21.7	0.00e+00	0	38	0	118489088	46	6042
2026-01-01 18:29:55.92	22.97	4.89	-36.1	-36.9	22.2	0.00e+00	0	38	0	123731968	46	5678
2026-01-01 18:29:56.93	22.92	4.96	-36.2	-37.0	22.2	0.00e+00	0	38	0	128974848	46	5733
2026-01-01 18:29:57.94	22.86	5.03	-36.1	-36.9	22.3	0.00e+00	0	38	0	135266304	46	5691
2026-01-01 18:29:58.95	22.80	5.09	-36.0	-36.8	22.4	0.00e+00	0	39	0	140509184	46	5601
2026-01-01 18:29:59.96	22.75	5.16	-35.9	-36.7	22.4	0.00e+00	0	38	0	146800640	46	5555
2026-01-01 18:30:00.97	22.69	5.23	-36.2	-37.0	22.2	0.00e+00	0	39	0	152043520	46	5728
2026-01-01 18:30:01.98	22.63	5.30	-36.0	-36.8	22.4	0.00e+00	0	39	0	157286400	46	5568
2026-01-01 18:30:02.99	22.58	5.36	-36.0	-36.7	22.5	0.00e+00	0	39	0	163577856	46	5565
2026-01-01 18:30:04.00	22.52	5.43	-36.1	-36.9	22.4	0.00e+00	0	38	0	168820736	46	5675
2026-01-01 18:30:05.01	22.46	5.50	-35.8	-36.6	22.6	0.00e+00	0	39	0	175112192	46	5459
2026-01-01 18:30:06.02	22.40	5.57	-36.1	-36.9	22.4	0.00e+00	0	38	0	180355072	46	5685
2026-01-01 18:30:07.03	22.34	5.64	-36.2	-37.0	22.3	0.00e+00	0	38	0	186646528	46	5722
2026-01-01 18:30:08.04	22.28	5.70	-36.2	-36.9	22.5	0.00e+00	0	38	0	191889408	46	5685
2026-01-01 18:30:09.05	22.23	5.77	-36.1	-36.9	22.3	0.00e+00	0	39	0	198180864	46	5691
2026-01-01 18:30:10.06	22.17	5.84	-36.1	-36.9	22.5	0.00e+00	0	39	0	203423744	46	5641
2026-01-01 18:30:11.07	22.11	5.91	-36.3	-37.1	22.2	0.00e+00	0	39	0	208666624	46	5785
2026-01-01 18:30:12.08	22.05	5.98	-36.2	-37.0	22.3	0.00e+00	0	39	0	214958080	46	5751
2026-01-01 18:30:13.09	21.99	6.05	-36.0	-36.8	22.5	0.00e+00	0	39	0	220200960	46	5595
2026-01-01 18:30:14.10	21.92	6.12	-36.0	-36.8	22.5	0.00e+00	0	39	0	226492416	46	5579
2026-01-01 18:30:15.11	21.86	6.19	-36.1	-36.9	22.5	0.00e+00	0	39	0	231735296	46	5650
2026-01-01 18:30:16.12	21.80	6.26	-36.0	-36.8	22.5	0.00e+00	0	39	0	236978176	46	5616
2026-01-01 18:30:17.13	21.74	6.32	-36.4	-37.2	22.2	0.00e+00	0	39	0	243269632	46	5858
2026-01-01 18:30:18.14	21.68	6.39	-36.3	-37.1	22.2	0.00e+00	0	39	0	248512512	46	5815
2026-01-01 18:30:19.15	21.62	6.46	-36.2	-37.0	22.3	0.00e+00	0	39	0	254803968	46	5738
2026-01-01 18:30:20.16	21.55	6.53	-36.5	-37.3	22.2	0.00e+00	0	39	0	260046848	46	5926
2026-01-01 18:30:21.16	21.49	6.60	-36.3	-37.1	22.4	0.00e+00	0	39	0	265289728	46	5810
2026-01-01 18:30:22.17	21.43	6.67	-36.3	-37.1	22.2	0.00e+00	0	39	0	271581184	46	5802
2026-01-01 18:30:23.18	21.37	6.74	-36.1	-36.9	22.5	0.00e+00	0	39	0	276824064	46	5671
2026-01-01 18:30:24.19	21.30	6.82	-35.9	-36.6	22.7	0.00e+00	0	39	0	283115520	46	5492
2026-01-01 18:30:25.20	21.24	6.89	-35.9	-36.7	22.8	0.00e+00	0	39	0	288358400	46	5547
2026-01-01 18:30:26.21	21.17	6.96	-35.8	-36.6	22.9	0.00e+00	0	39	0	294649856	44	6105
2026-01-01 18:30:27.23	21.11	7.03	-35.9	-36.6	22.7	0.00e+00	0	39	0	299892736	44	6148
2026-01-01 18:30:28.24	21.04	7.10	-35.8	-36.5	22.9	0.00e+00	0	39	0	306184192	44	6096
2026-01-01 18:30:29.25	20.98	7.17	-35.7	-36.5	22.9	0.00e+00	0	39	0	311427072	44	6077
2026-01-01 18:30:30.26	20.91	7.24	-35.7	-36.4	23.0	0.00e+00	0	39	0	316669952	44	6004
2026-01-01 18:30:31.26	20.84	7.31	-35.7	-36.5	22.9	0.00e+00	0	39	0	322961408	44	6039
2026-01-01 18:30:32.28	20.78	7.39	-35.6	-36.3	23.1	0.00e+00	0	39	0	328204288	44	5962
2026-01-01 18:30:33.28	20.71	7.46	-35.6	-36.4	23.0	0.00e+00	0	39	0	334495744	44	5982
2026-01-01 18:30:34.29	20.64	7.53	-35.7	-36.5	23.0	0.00e+00	0	39	0	339738624	44	6044
2026-01-01 18:30:35.30	20.58	7.60	-35.5	-36.2	23.2	0.00e+00	0	39	0	344981504	44	5892
2026-01-01 18:30:36.32	20.51	7.68	-35.5	-36.2	23.2	0.00e+00	0	39	0	351272960	44	5851
2026-01-01 18:30:37.33	20.44	7.75	-35.4	-36.1	23.3	0.00e+00	0	39	0	356515840	44	5793
2026-01-01 18:30:38.34	20.37	7.82	-35.3	-36.1	23.4	0.00e+00	0	39	0	362807296	44	5767
2026-01-01 18:30:39.35	20.30	7.90	-35.3	-36.0	23.4	0.00e+00	0	39	0	368050176	44	5739
2026-01-01 18:30:40.36	20.23	7.97	-35.3	-36.0	23.4	0.00e+00	0	39	0	373293056	44	5746
2026-01-01 18:30:41.37	20.16	8.04	-35.4	-36.1	23.4	0.00e+00	0	39	0	379584512	44	5800
2026-01-01 18:30:42.38	20.09	8.12	-35.2	-35.9	23.6	0.00e+00	0	39	0	384827392	44	5672
2026-01-01 18:30:43.39	20.02	8.19	-35.4	-36.1	23.4	0.00e+00	0	39	0	391118848	44	5797
2026-01-01 18:30:44.40	19.95	8.26	-35.4	-36.1	23.4	0.00e+00	0	39	0	396361728	44	5818
2026-01-01 18:30:45.41	19.88	8.34	-35.3	-36.0	23.4	0.00e+00	0	39	0	402653184	44	5760
2026-01-01 18:30:46.42	19.81	8.41	-35.1	-35.8	23.6	0.00e+00	0	39	0	407896064	44	5583
2026-01-01 18:30:47.43	19.74	8.49	-35.1	-35.8	23.7	0.00e+00	0	39	0	413138944	44	5572
2026-01-01 18:30:48.44	19.66	8.56	-35.0	-35.7	23.7	0.00e+00	0	39	0	419430400	44	5564
2026-01-01 18:30:49.45	19.59	8.64	-35.2	-35.9	23.6	0.00e+00	0	39	0	424673280	44	5688
2026-01-01 18:30:50.46	19.52	8.71	-35.2	-35.9	23.6	0.00e+00	0	39	0	430964736	44	5690
2026-01-01 18:30:51.47	19.44	8.79	-35.0	-35.7	23.8	0.00e+00	0	39	0	436207616	44	5556
2026-01-01 18:30:52.48	19.37	8.86	-35.1	-35.8	23.7	0.00e+00	0	39	0	441450496	44	5624
2026-01-01 18:30:53.49	19.29	8.94	-35.1	-35.8	23.7	0.00e+00	0	39	0	447741952	44	5611
2026-01-01 18:30:54.50	19.22	9.01	-35.1	-35.9	23.7	0.00e+00	0	39	0	452984832	44	5651
2026-01-01 18:30:55.51	19.14	9.09	-35.1	-35.9	23.7	0.00e+00	0	39	0	459276288	44	5638
2026-01-01 18:30:56.52	19.07	9.17	-35.2	-35.9	23.6	0.00e+00	0	39	0	464519168	44	5674
2026-01-01 18:30:57.53	18.99	9.24	-35.2	-35.9	23.6	0.00e+00	0	39	0	469762048	44	5686
2026-01-01 18:30:58.54	18.92	9.32	-35.0	-35.7	23.8	0.00e+00	0	39	0	476053504	44	5538
2026-01-01 18:30:59.55	18.84	9.40	-35.0	-35.7	23.7	0.00e+00	0	39	0	481296384	44	5541
2026-01-01 18:31:00.56	18.76	9.47	-35.0	-35.7	23.8	0.00e+00	0	39	0	487587840	44	5534
2026-01-01 18:31:01.57	18.68	9.55	-35.0	-35.8	23.8	0.00e+00	0	39	0	492830720	44	5569
2026-01-01 18:31:02.58	18.60	9.63	-35.1	-35.8	23.8	0.00e+00	0	39	0	499122176	44	5592
2026-01-01 18:31:03.59	18.53	9.70	-35.1	-35.8	23.8	0.00e+00	0	39	0	504365056	44	5617
2026-01-01 18:31:04.61	18.45	9.78	-35.0	-35.7	23.8	0.00e+00	0	39	0	510656512	44	5527
2026-01-01 18:31:05.62	18.37	9.86	-35.0	-35.8	23.8	0.00e+00	0	39	0	515899392	44	5594
2026-01-01 18:31:06.63	18.29	9.94	-35.0	-35.7	23.9	0.00e+00	0	39	0	521142272	44	5525
2026-01-01 18:31:07.63	18.21	10.02	-35.0	-35.7	23.8	0.00e+00	0	39	0	527433728	44	5537
2026-01-01 18:31:08.64	18.13	10.09	-35.2	-35.9	23.7	0.00e+00	0	39	0	532676608	44	5673
2026-01-01 18:31:09.65	18.04	10.17	-35.0	-35.7	23.9	0.00e+00	0	39	0	538968064	44	5562
2026-01-01 18:31:10.66	17.96	10.25	-34.8	-35.5	24.1	0.00e+00	0	39	0	544210944	42	6067
2026-01-01 18:31:11.67	17.88	10.33	-34.9	-35.7	23.9	0.00e+00	0	39	0	549453824	42	6175
2026-01-01 18:31:12.68	17.80	10.41	-34.8	-35.5	24.1	0.00e+00	0	39	0	555745280	42	6099
2026-01-01 18:31:13.69	17.71	10.49	-34.7	-35.4	24.2	0.00e+00	0	39	0	560988160	42	6023
2026-01-01 18:31:14.70	17.63	10.57	-34.9	-35.6	24.0	0.00e+00	0	39	0	567279616	42	6136
2026-01-01 18:31:15.71	17.55	10.65	-34.8	-35.5	24.2	0.00e+00	0	39	0	572522496	42	6066
2026-01-01 18:31:16.72	17.46	10.73	-34.7	-35.5	24.3	0.00e+00	0	39	0	577765376	42	6038
2026-01-01 18:31:17.73	17.38	10.81	-34.7	-35.5	24.2	0.00e+00	0	39	0	584056832	42	6038
2026-01-01 18:31:18.75	17.29	10.89	-34.8	-35.5	24.2	0.00e+00	0	39	0	589299712	42	6049
2026-01-01 18:31:19.75	17.20	10.97	-34.6	-35.3	24.4	0.00e+00	0	39	0	595591168	42	5907
2026-01-01 18:31:20.76	17.12	11.05	-34.5	-35.2	24.4	0.00e+00	0	39	0	600834048	42	5870
2026-01-01 18:31:21.77	17.03	11.13	-34.6	-35.3	24.4	0.00e+00	0	39	0	607125504	42	5924
2026-01-01 18:31:22.79	16.94	11.21	-34.4	-35.2	24.5	0.00e+00	0	39	0	612368384	42	5830
2026-01-01 18:31:23.79	16.85	11.29	-34.4	-35.1	24.6	0.00e+00	0	39	0	618659840	42	5779
2026-01-01 18:31:24.80	16.77	11.38	-34.3	-35.0	24.5	0.00e+00	0	39	0	623902720	42	5738
2026-01-01 18:31:25.81	16.68	11.46	-34.5	-35.2	24.5	0.00e+00	0	39	0	629145600	42	5851
2026-01-01 18:31:26.82	16.59	11.54	-34.5	-35.2	24.4	0.00e+00	0	39	0	635437056	42	5885
2026-01-01 18:31:27.83	16.50	11.62	-34.6	-35.2	24.3	0.00e+00	0	39	0	640679936	42	5888
2026-01-01 18:31:28.84	16.41	11.70	-34.5	-35.2	24.5	0.00e+00	0	39	0	646971392	42	5881
2026-01-01 18:31:29.85	16.31	11.79	-34.6	-35.3	24.4	0.00e+00	0	39	0	652214272	42	5928
2026-01-01 18:31:30.86	16.22	11.87	-34.7	-35.4	24.2	0.00e+00	0	39	0	657457152	42	6016
2026-01-01 18:31:31.87	16.13	11.95	-34.4	-35.1	24.6	0.00e+00	0	39	0	663748608	42	5785
2026-01-01 18:31:32.88	16.04	12.03	-34.3	-35.0	24.6	0.00e+00	0	39	0	668991488	42	5753
2026-01-01 18:31:33.89	15.94	12.12	-34.3	-35.0	24.7	0.00e+00	0	39	0	675282944	42	5740
2026-01-01 18:31:34.90	15.85	12.20	-34.1	-34.8	24.9	0.00e+00	0	39	0	680525824	42	5573
2026-01-01 18:31:35.91	15.76	12.29	-34.1	-34.8	24.8	0.00e+00	0	39	0	685768704	42	5597
2026-01-01 18:31:36.92	15.66	12.37	-34.1	-34.8	24.8	0.00e+00	0	39	0	692060160	42	5608
2026-01-01 18:31:37.93	15.56	12.45	-34.2	-35.0	24.8	0.00e+00	0	39	0	697303040	42	5697
2026-01-01 18:31:38.94	15.47	12.54	-34.4	-35.1	24.7	0.00e+00	0	39	0	703594496	42	5786
2026-01-01 18:31:39.95	15.37	12.62	-34.2	-34.9	24.7	0.00e+00	0	39	0	708837376	42	5641
2026-01-01 18:31:40.96	15.27	12.71	-34.2	-34.9	24.8	0.00e+00	0	39	0	715128832	42	5657
2026-01-01 18:31:41.97	15.18	12.79	-34.4	-35.1	24.7	0.00e+00	0	39	0	720371712	42	5778
2026-01-01 18:31:42.98	15.08	12.88	-34.2	-34.9	24.7	0.00e+00	0	39	0	725614592	42	5664
2026-01-01 18:31:43.99	14.98	12.96	-34.3	-35.0	24.8	0.00e+00	0	39	0	731906048	42	5747
2026-01-01 18:31:45.00	14.88	13.05	-34.3	-35.0	24.6	0.00e+00	0	39	0	737148928	42	5710
2026-01-01 18:31:46.01	14.78	13.13	-34.2	-34.9	24.8	0.00e+00	0	39	0	743440384	42	5665
2026-01-01 18:31:47.02	14.68	13.22	-34.0	-34.7	25.0	0.00e+00	0	39	0	748683264	42	5566
2026-01-01 18:31:48.03	14.58	13.31	-34.2	-34.9	24.8	0.00e+00	0	39	0	753926144	42	5665
2026-01-01 18:31:49.03	14.47	13.39	-34.2	-34.9	24.8	0.00e+00	0	39	0	760217600	42	5635
2026-01-01 18:31:50.04	14.37	13.48	-34.2	-34.9	24.8	0.00e+00	0	39	0	765460480	42	5679
2026-01-01 18:31:51.05	14.27	13.57	-34.3	-35.0	24.7	0.00e+00	0	39	0	771751936	42	5741
2026-01-01 18:31:52.06	14.16	13.65	-34.2	-34.9	24.8	0.00e+00	0	39	0	776994816	42	5640
2026-01-01 18:31:53.07	14.06	13.74	-34.1	-34.8	24.9	0.00e+00	0	39	0	782237696	42	5607
2026-01-01 18:31:54.08	13.95	13.83	-34.1	-34.8	24.9	0.00e+00	0	39	0	788529152	42	5593
2026-01-01 18:31:55.10	13.85	13.92	-34.1	-34.8	24.9	0.00e+00	0	39	0	793772032	42	5588
2026-01-01 18:31:56.10	13.74	14.00	-33.9	-34.6	25.1	0.00e+00	0	39	0	800063488	42	5490
2026-01-01 18:31:57.11	13.63	14.09	-33.9	-34.5	25.1	0.00e+00	0	39	0	805306368	42	5430
2026-01-01 18:31:58.12	13.53	14.18	-34.1	-34.7	25.1	0.00e+00	0	39	0	811597824	42	5553
2026-01-01 18:31:59.13	13.42	14.27	-33.8	-34.5	25.2	0.00e+00	0	39	0	816840704	42	5398
2026-01-01 18:32:00.14	13.31	14.36	-33.8	-34.4	25.2	0.00e+00	0	39	0	823132160	42	5361
2026-01-01 18:32:01.16	13.20	14.45	-33.7	-34.4	25.2	0.00e+00	0	39	0	828375040	40	6010
2026-01-01 18:32:02.16	13.09	14.54	-33.7	-34.4	25.3	0.00e+00	0	39	0	833617920	40	5980
2026-01-01 18:32:03.17	12.98	14.63	-33.9	-34.5	25.1	0.00e+00	0	39	0	839909376	40	6092
2026-01-01 18:32:04.18	12.86	14.72	-33.7	-34.4	25.4	0.00e+00	0	39	0	845152256	40	5980
2026-01-01 18:32:05.19	12.75	14.81	-33.8	-34.5	25.2	0.00e+00	0	39	0	851443712	40	6064
2026-01-01 18:32:06.20	12.64	14.90	-33.8	-34.5	25.2	0.00e+00	0	39	0	856686592	40	6061
2026-01-01 18:32:07.21	12.52	14.99	-33.6	-34.3	25.4	0.00e+00	0	39	0	861929472	40	5917
2026-01-01 18:32:08.21	12.41	15.08	-33.5	-34.2	25.4	0.00e+00	0	39	0	868220928	40	5876
2026-01-01 18:32:09.23	12.29	15.17	-33.5	-34.2	25.4	0.00e+00	0	39	0	873463808	40	5863
2026-01-01 18:32:10.24	12.18	15.26	-33.5	-34.2	25.5	0.00e+00	0	39	0	879755264	40	5839
2026-01-01 18:32:11.24	12.06	15.35	-33.3	-34.0	25.7	0.00e+00	0	39	0	884998144	40	5737
2026-01-01 18:32:12.26	11.94	15.44	-33.4	-34.1	25.6	0.00e+00	0	39	0	890241024	40	5775
2026-01-01 18:32:13.27	11.82	15.53	-33.4	-34.0	25.6	0.00e+00	0	39	0	896532480	40	5747
2026-01-01 18:32:14.27	11.70	15.63	-33.3	-34.0	25.7	0.00e+00	0	39	0	901775360	40	5706
2026-01-01 18:32:15.28	11.58	15.72	-33.2	-33.9	25.8	0.00e+00	0	39	0	908066816	40	5652
2026-01-01 18:32:16.29	11.46	15.81	-33.1	-33.8	25.8	0.00e+00	0	39	0	913309696	40	5603
2026-01-01 18:32:17.31	11.34	15.90	-33.2	-33.8	25.8	0.00e+00	0	39	0	919601152	40	5616
2026-01-01 18:32:18.31	11.22	16.00	-33.1	-33.7	25.9	0.00e+00	0	39	0	924844032	40	5555
2026-01-01 18:32:19.32	11.10	16.09	-33.2	-33.9	25.7	0.00e+00	0	39	0	930086912	40	5660
2026-01-01 18:32:20.33	10.97	16.18	-33.3	-34.0	25.7	0.00e+00	0	39	0	936378368	40	5748
2026-01-01 18:32:21.34	10.85	16.28	-33.1	-33.8	25.9	0.00e+00	0	39	0	941621248	40	5584
2026-01-01 18:32:22.35	10.72	16.37	-33.2	-33.9	25.8	0.00e+00	0	39	0	947912704	40	5672
2026-01-01 18:32:23.36	10.59	16.46	-33.3	-34.0	25.7	0.00e+00	0	39	0	953155584	40	5712
2026-01-01 18:32:24.37	10.47	16.56	-33.5	-34.2	25.6	0.00e+00	0	39	0	958398464	40	5887
2026-01-01 18:32:25.38	10.34	16.65	-33.4	-34.1	25.6	0.00e+00	0	39	0	964689920	40	5823
2026-01-01 18:32:26.39	10.21	16.75	-33.4	-34.1	25.5	0.00e+00	0	39	0	969932800	40	5791
2026-01-01 18:32:27.40	10.08	16.84	-33.3	-34.0	25.7	0.00e+00	0	39	0	976224256	40	5723
2026-01-01 18:32:28.41	9.95	16.94	-33.3	-34.0	25.7	0.00e+00	0	39	0	981467136	40	5727
2026-01-01 18:32:29.42	9.82	17.03	-33.2	-33.9	25.8	0.00e+00	0	39	0	986710016	40	5661
2026-01-01 18:32:30.43	9.69	17.13	-33.1	-33.8	25.9	0.00e+00	0	39	0	993001472	40	5574
2026-01-01 18:32:31.44	9.55	17.22	-33.0	-33.7	26.0	0.00e+00	0	39	0	998244352	40	5544
2026-01-01 18:32:32.45	9.42	17.32	-33.0	-33.6	26.0	0.00e+00	0	39	0	1004535808	40	5501
2026-01-01 18:32:33.46	9.28	17.41	-33.1	-33.8	26.0	0.00e+00	0	39	0	1009778688	40	5572
2026-01-01 18:32:34.47	9.15	17.51	-32.8	-33.5	26.2	0.00e+00	0	39	0	1016070144	40	5403
2026-01-01 18:32:35.48	9.01	17.61	-33.0	-33.7	26.0	0.00e+00	0	39	0	1021313024	40	5512
2026-01-01 18:32:36.49	8.87	17.70	-33.0	-33.6	26.0	0.00e+00	0	39	0	1027604480	40	5476
2026-01-01 18:32:37.50	8.74	17.80	-32.9	-33.6	26.1	0.00e+00	0	39	0	1032847360	40	5447
2026-01-01 18:32:38.51	8.60	17.90	-33.1	-33.7	26.0	0.00e+00	0	39	0	1038090240	40	5548
2026-01-01 18:32:39.52	8.46	17.99	-32.9	-33.5	26.2	0.00e+00	0	39	0	1044381696	40	5419
2026-01-01 18:32:40.53	8.31	18.09	-32.8	-33.4	26.1	0.00e+00	0	39	0	1049624576	40	5371
2026-01-01 18:32:41.54	8.17	18.19	-32.7	-33.4	26.3	0.00e+00	0	39	0	1055916032	38	5974
2026-01-01 18:32:42.56	8.03	18.29	-32.6	-33.2	26.3	0.00e+00	0	39	0	1061158912	38	5884
2026-01-01 18:32:43.57	7.88	18.39	-32.7	-33.3	26.4	0.00e+00	0	39	0	1066401792	38	5931
2026-01-01 18:32:44.58	7.74	18.49	-32.6	-33.2	26.4	0.00e+00	0	39	0	1072693248	38	5883
2026-01-01 18:32:45.59	7.59	18.58	-32.4	-33.0	26.6	0.00e+00	0	39	0	1077936128	38	5748
2026-01-01 18:32:46.60	7.45	18.68	-32.4	-33.1	26.5	0.00e+00	0	39	0	1084227584	38	5788
2026-01-01 18:32:47.61	7.30	18.78	-32.4	-33.0	26.5	0.00e+00	0	39	0	1089470464	38	5760
2026-01-01 18:32:48.62	7.15	18.88	-32.5	-33.1	26.5	0.00e+00	0	39	0	1094713344	38	5811
2026-01-01 18:32:49.63	7.00	18.98	-32.6	-33.2	26.5	0.00e+00	0	39	0	1101004800	38	5859
2026-01-01 18:32:50.64	6.85	19.08	-32.5	-33.2	26.5	0.00e+00	0	39	0	1106247680	38	5837
2026-01-01 18:32:51.65	6.70	19.18	-32.4	-33.1	26.6	0.00e+00	0	39	0	1112539136	38	5781
2026-01-01 18:32:52.65	6.54	19.28	-32.3	-33.0	26.6	0.00e+00	0	39	0	1117782016	38	5727
2026-01-01 18:32:53.66	6.39	19.38	-32.3	-33.0	26.6	0.00e+00	0	39	0	1124073472	38	5717
2026-01-01 18:32:54.67	6.24	19.48	-32.3	-33.0	26.6	0.00e+00	0	39	0	1129316352	38	5728
2026-01-01 18:32:55.68	6.08	19.58	-32.4	-33.0	26.6	0.00e+00	0	39	0	1134559232	38	5755
2026-01-01 18:32:56.69	5.92	19.68	-32.4	-33.1	26.6	0.00e+00	0	39	0	1140850688	38	5795
2026-01-01 18:32:57.70	5.76	19.78	-32.3	-33.0	26.7	0.00e+00	0	39	0	1146093568	38	5707
2026-01-01 18:32:58.71	5.60	19.88	-32.5	-33.1	26.6	0.00e+00	0	39	0	1152385024	38	5798
2026-01-01 18:32:59.72	5.44	19.98	-32.4	-33.0	26.7	0.00e+00	0	39	0	1157627904	38	5743
2026-01-01 18:33:00.73	5.28	20.08	-32.2	-32.9	26.7	0.00e+00	0	39	0	1162870784	38	5662
2026-01-01 18:33:01.74	5.12	20.18	-32.2	-32.9	26.7	0.00e+00	0	39	0	1169162240	38	5653
2026-01-01 18:33:02.75	4.96	20.29	-32.2	-32.9	26.8	0.00e+00	0	39	0	1174405120	38	5642
2026-01-01 18:33:03.76	4.79	20.39	-32.2	-32.8	26.8	0.00e+00	0	39	0	1180696576	38	5606
2026-01-01 18:33:04.77	4.63	20.49	-32.3	-33.0	26.8	0.00e+00	0	39	0	1185939456	38	5697
2026-01-01 18:33:05.78	4.46	20.59	-32.2	-32.9	26.8	0.00e+00	0	39	0	1191182336	38	5648
2026-01-01 18:33:06.79	4.29	20.69	-32.3	-32.9	26.7	0.00e+00	0	39	0	1197473792	38	5695
2026-01-01 18:33:07.80	4.12	20.80	-32.2	-32.8	26.8	0.00e+00	0	39	0	1202716672	38	5622
2026-01-01 18:33:08.81	3.95	20.90	-32.1	-32.7	26.9	0.00e+00	0	39	0	1209008128	38	5566
2026-01-01 18:33:09.82	3.78	21.00	-32.0	-32.6	27.0	0.00e+00	0	39	0	1214251008	38	5468
2026-01-01 18:33:10.83	3.61	21.11	-32.0	-32.6	27.0	0.00e+00	0	39	0	1220542464	38	5455
2026-01-01 18:33:11.84	3.43	21.21	-32.0	-32.7	27.0	0.00e+00	0	39	0	1225785344	38	5519
2026-01-01 18:33:12.85	3.26	21.31	-32.0	-32.6	27.0	0.00e+00	0	39	0	1232076800	38	5495
2026-01-01 18:33:13.86	3.08	21.41	-31.9	-32.5	27.0	0.00e+00	0	39	0	1237319680	38	5432
2026-01-01 18:33:14.87	2.90	21.52	-31.9	-32.5	27.1	0.00e+00	0	39	0	1242562560	38	5406
2026-01-01 18:33:15.88	2.73	21.62	-31.8	-32.5	27.1	0.00e+00	0	39	0	1248854016	38	5406
2026-01-01 18:33:16.89	2.55	21.72	-31.8	-32.4	27.1	0.00e+00	0	39	0	1254096896	38	5376
2026-01-01 18:33:17.90	2.36	21.83	-31.8	-32.5	27.1	0.00e+00	0	39	0	1260388352	38	5389
2026-01-01 18:33:18.91	2.18	21.93	-31.8	-32.5	27.0	0.00e+00	0	39	0	1265631232	38	5424
2026-01-01 18:33:19.92	2.00	22.04	-31.9	-32.6	27.0	0.00e+00	0	39	0	1270874112	38	5440
2026-01-01 18:33:20.93	1.81	22.14	-31.9	-32.5	27.0	0.00e+00	0	39	0	1277165568	38	5435
2026-01-01 18:33:21.94	1.63	22.24	-31.9	-32.5	27.1	0.00e+00	0	39	0	1282408448	38	5407
2026-01-01 18:33:22.95	1.44	22.35	-31.9	-32.5	27.0	0.00e+00	0	39	0	1288699904	38	5426
2026-01-01 18:33:23.96	1.25	22.45	-31.8	-32.4	27.1	0.00e+00	0	39	0	1293942784	38	5369
2026-01-01 18:33:24.97	1.06	22.56	-31.9	-32.5	27.1	0.00e+00	0	39	0	1299185664	38	5419
2026-01-01 18:33:25.98	0.87	22.66	-31.8	-32.4	27.1	0.00e+00	0	39	0	1305477120	38	5355
2026-01-01 18:33:27.00	0.68	22.77	-31.8	-32.4	27.0	0.00e+00	0	39	0	1310720000	36	6024
2026-01-01 18:33:28.00	0.48	22.87	-31.8	-32.4	27.1	0.00e+00	0	39	0	1317011456	36	6032
2026-01-01 18:33:29.01	0.29	22.98	-31.8	-32.5	27.1	0.00e+00	0	39	0	1322254336	36	6051
2026-01-01 18:33:30.02	0.09	23.08	-31.9	-32.5	27.1	0.00e+00	0	39	0	1328545792	36	6067
2026-01-01 18:33:31.03	359.89	23.19	-31.6	-32.3	27.3	0.00e+00	0	39	0	1333788672	36	5905
2026-01-01 18:33:32.04	359.69	23.29	-31.6	-32.2	27.3	0.00e+00	0	39	0	1340080128	36	5871
2026-01-01 18:33:33.05	359.49	23.40	-31.7	-32.3	27.2	0.00e+00	0	39	0	1345323008	36	5924
2026-01-01 18:33:34.06	359.29	23.50	-31.6	-32.3	27.3	0.00e+00	0	39	0	1350565888	36	5911
2026-01-01 18:33:35.08	359.09	23.61	-31.7	-32.3	27.2	0.00e+00	0	39	0	1356857344	36	5927
2026-01-01 18:33:36.08	358.88	23.71	-31.6	-32.3	27.2	0.00e+00	0	39	0	1362100224	36	5926
2026-01-01 18:33:37.10	358.68	23.82	-31.7	-32.3	27.2	0.00e+00	0	39	0	1368391680	36	5952
2026-01-01 18:33:38.11	358.47	23.92	-31.5	-32.2	27.2	0.00e+00	0	39	0	1373634560	36	5835
2026-01-01 18:33:39.11	358.26	24.03	-31.4	-32.1	27.4	0.00e+00	0	39	0	1378877440	36	5780
2026-01-01 18:33:40.12	358.05	24.13	-31.5	-32.1	27.3	0.00e+00	0	39	0	1385168896	36	5809
2026-01-01 18:33:41.14	357.84	24.24	-31.4	-32.1	27.4	0.00e+00	0	39	0	1390411776	36	5808
2026-01-01 18:33:42.15	357.62	24.34	-31.4	-32.0	27.5	0.00e+00	0	39	0	1396703232	36	5748
2026-01-01 18:33:43.15	357.41	24.45	-31.3	-31.9	27.5	0.00e+00	0	39	0	1401946112	36	5681
2026-01-01 18:33:44.16	357.19	24.55	-31.2	-31.9	27.5	0.00e+00	0	39	0	1407188992	36	5667
2026-01-01 18:33:45.17	356.98	24.66	-31.2	-31.9	27.6	0.00e+00	0	39	0	1413480448	36	5637
2026-01-01 18:33:46.18	356.76	24.76	-31.2	-31.8	27.6	0.00e+00	0	39	0	1418723328	36	5609
2026-01-01 18:33:47.19	356.54	24.87	-31.3	-32.0	27.5	0.00e+00	0	39	0	1425014784	36	5705
2026-01-01 18:33:48.20	356.31	24.97	-31.1	-31.8	27.7	0.00e+00	0	39	0	1430257664	36	5573
2026-01-01 18:33:49.21	356.09	25.08	-31.3	-31.9	27.5	0.00e+00	0	39	0	1436549120	36	5662
2026-01-01 18:33:50.22	355.86	25.18	-31.3	-31.9	27.5	0.00e+00	0	39	0	1441792000	36	5653
2026-01-01 18:33:51.23	355.64	25.29	-31.3	-32.0	27.5	0.00e+00	0	39	0	1447034880	36	5707
2026-01-01 18:33:52.23	355.41	25.39	-31.2	-31.8	27.6	0.00e+00	0	39	0	1453326336	36	5608
2026-01-01 18:33:53.24	355.18	25.49	-31.2	-31.8	27.6	0.00e+00	0	39	0	1458569216	36	5586
2026-01-01 18:33:54.26	354.95	25.60	-31.2	-31.8	27.6	0.00e+00	0	39	0	1464860672	36	5607
2026-01-01 18:33:55.27	354.72	25.70	-31.0	-31.6	27.8	0.00e+00	0	39	0	1470103552	36	5494
2026-01-01 18:33:56.28	354.48	25.81	-30.8	-31.4	27.9	0.00e+00	0	39	0	1475346432	36	5374
2026-01-01 18:33:57.29	354.25	25.91	-30.9	-31.5	27.8	0.00e+00	0	39	0	1481637888	36	5421
2026-01-01 18:33:58.30	354.01	26.02	-30.8	-31.4	27.9	0.00e+00	0	39	0	1486880768	36	5358
2026-01-01 18:33:59.31	353.77	26.12	-30.9	-31.6	27.8	0.00e+00	0	39	0	1493172224	36	5471
2026-01-01 18:34:00.32	353.53	26.22	-31.0	-31.6	27.8	0.00e+00	0	39	0	1498415104	36	5459
2026-01-01 18:34:01.33	353.29	26.33	-31.1	-31.7	27.7	0.00e+00	0	39	0	1503657984	36	5552
2026-01-01 18:34:02.34	353.04	26.43	-30.9	-31.6	27.9	0.00e+00	0	39	0	1509949440	36	5441
2026-01-01 18:34:03.35	352.80	26.53	-30.9	-31.5	27.9	0.00e+00	0	39	0	1515192320	36	5436
2026-01-01 18:34:04.36	352.55	26.64	-30.8	-31.4	27.9	0.00e+00	0	39	0	1521483776	36	5365
2026-01-01 18:34:05.37	352.30	26.74	-30.8	-31.5	27.9	0.00e+00	0	39	0	1526726656	36	5391
2026-01-01 18:34:06.38	352.05	26.84	-30.8	-31.4	27.9	0.00e+00	0	39	0	1533018112	36	5354
2026-01-01 18:34:07.39	351.80	26.94	-30.9	-31.5	27.8	0.00e+00	0	39	0	1538260992	34	6054
2026-01-01 18:34:08.40	351.54	27.05	-31.0	-31.7	27.7	0.00e+00	0	39	0	1544552448	34	6179
2026-01-01 18:34:09.41	351.29	27.15	-30.9	-31.5	27.9	0.00e+00	0	39	0	1549795328	34	6071
2026-01-01 18:34:10.42	351.03	27.25	-30.9	-31.5	27.8	0.00e+00	0	39	0	1555038208	34	6074
2026-01-01 18:34:11.43	350.77	27.35	-30.8	-31.5	27.8	0.00e+00	0	39	0	1561329664	34	6050
2026-01-01 18:34:12.44	350.51	27.45	-30.7	-31.3	28.1	0.00e+00	0	39	0	1566572544	34	5940
2026-01-01 18:34:13.45	350.25	27.55	-30.7	-31.4	28.0	0.00e+00	0	39	0	1572864000	34	5967
2026-01-01 18:34:14.46	349.99	27.65	-30.8	-31.4	28.0	0.00e+00	0	39	0	1578106880	34	6033
2026-01-01 18:34:15.47	349.72	27.75	-30.8	-31.5	27.9	0.00e+00	0	39	0	1583349760	34	6053
2026-01-01 18:34:16.48	349.45	27.85	-31.0	-31.7	27.8	0.00e+00	0	39	0	1589641216	34	6191
2026-01-01 18:34:17.49	349.18	27.95	-31.1	-31.7	27.8	0.00e+00	0	39	0	1594884096	34	6218
2026-01-01 18:34:18.50	348.91	28.05	-30.9	-31.6	27.9	0.00e+00	0	39	0	1601175552	34	6112
2026-01-01 18:34:19.51	348.64	28.15	-31.0	-31.6	27.8	0.00e+00	0	39	0	1606418432	34	6167
2026-01-01 18:34:20.52	348.37	28.25	-30.8	-31.4	28.0	0.00e+00	0	39	0	1611661312	34	6001
2026-01-01 18:34:21.53	348.09	28.35	-31.0	-31.6	27.8	0.00e+00	0	39	0	1617952768	34	6119
2026-01-01 18:34:22.54	347.81	28.44	-30.8	-31.4	27.9	0.00e+00	0	39	0	1623195648	34	5979
2026-01-01 18:34:23.55	347.54	28.54	-30.8	-31.4	27.9	0.00e+00	0	39	0	1629487104	34	6004
2026-01-01 18:34:24.56	347.25	28.64	-30.8	-31.4	27.9	0.00e+00	0	39	0	1634729984	34	6016
2026-01-01 18:34:25.57	346.97	28.73	-30.9	-31.5	27.7	0.00e+00	0	39	0	1641021440	34	6086
2026-01-01 18:34:26.59	346.69	28.83	-30.8	-31.4	27.8	0.00e+00	0	39	0	1646264320	34	5997
2026-01-01 18:34:27.60	346.40	28.93	-30.8	-31.4	27.8	0.00e+00	0	39	0	1652555776	34	6014
2026-01-01 18:34:28.61	346.11	29.02	-30.8	-31.4	27.9	0.00e+00	0	39	0	1657798656	34	5998
2026-01-01 18:34:29.62	345.82	29.12	-30.8	-31.4	27.9	0.00e+00	0	39	0	1663041536	34	6026
2026-01-01 18:34:30.63	345.53	29.21	-30.8	-31.4	27.8	0.00e+00	0	39	0	1669332992	34	6007
2026-01-01 18:34:31.64	345.24	29.30	-30.8	-31.5	27.9	0.00e+00	0	39	0	1674575872	34	6041
2026-01-01 18:34:32.65	344.94	29.40	-30.6	-31.3	28.0	0.00e+00	0	39	0	1680867328	34	5911
2026-01-01 18:34:33.66	344.65	29.49	-30.8	-31.4	28.0	0.00e+00	0	39	0	1686110208	34	6026
2026-01-01 18:34:34.67	344.35	29.58	-30.3	-30.9	28.3	0.00e+00	0	39	0	1691353088	34	5692
2026-01-01 18:34:35.68	344.05	29.67	-30.3	-30.9	28.4	0.00e+00	0	39	0	1697644544	34	5694
2026-01-01 18:34:36.69	343.75	29.76	-30.5	-31.1	28.3	0.00e+00	0	39	0	1702887424	34	5772
2026-01-01 18:34:37.70	343.45	29.85	-30.6	-31.2	28.2	0.00e+00	0	39	0	1709178880	34	5853
2026-01-01 18:34:38.71	343.14	29.94	-30.8	-31.4	28.0	0.00e+00	0	39	0	1714421760	34	5994
2026-01-01 18:34:39.72	342.83	30.03	-30.9	-31.5	27.9	0.00e+00	0	39	0	1719664640	34	6034
2026-01-01 18:34:40.73	342.53	30.12	-30.6	-31.2	28.0	0.00e+00	0	39	0	1725956096	34	5880
2026-01-01 18:34:41.74	342.22	30.20	-30.7	-31.3	28.0	0.00e+00	0	39	0	1731198976	34	5924
2026-01-01 18:34:42.75	341.91	30.29	-30.7	-31.3	28.0	0.00e+00	0	39	0	1737490432	34	5938
2026-01-01 18:34:43.76	341.59	30.38	-30.7	-31.3	28.0	0.00e+00	0	39	0	1742733312	34	5948
2026-01-01 18:34:44.77	341.28	30.46	-30.7	-31.4	28.0	0.00e+00	0	39	0	1749024768	34	5994
2026-01-01 18:34:45.78	340.96	30.55	-30.7	-31.4	28.0	0.00e+00	0	39	0	1754267648	34	5992
2026-01-01 18:34:46.79	340.64	30.63	-30.5	-31.2	28.2	0.00e+00	0	39	0	1760559104	34	5843
2026-01-01 18:34:47.80	340.32	30.71	-30.5	-31.1	28.1	0.00e+00	0	39	0	1765801984	34	5796
2026-01-01 18:34:48.82	340.00	30.80	-30.7	-31.3	28.1	0.00e+00	0	39	0	1771044864	34	5916
2026-01-01 18:34:49.82	339.68	30.88	-30.5	-31.2	28.2	0.00e+00	0	39	0	1777336320	34	5829
2026-01-01 18:34:50.84	339.35	30.96	-30.4	-31.0	28.3	0.00e+00	0	39	0	1782579200	34	5739
2026-01-01 18:34:51.84	339.03	31.04	-30.5	-31.1	28.2	0.00e+00	0	39	0	1788870656	34	5779
2026-01-01 18:34:52.85	338.70	31.12	-30.4	-31.0	28.4	0.00e+00	0	39	0	1794113536	34	5756
2026-01-01 18:34:53.86	338.37	31.19	-30.4	-31.0	28.2	0.00e+00	0	39	0	1799356416	34	5741
2026-01-01 18:34:54.87	338.04	31.27	-30.4	-31.0	28.3	0.00e+00	0	39	0	1805647872	34	5759
2026-01-01 18:34:55.88	337.70	31.35	-30.4	-31.0	28.3	0.00e+00	0	39	0	1810890752	34	5728
2026-01-01 18:34:56.89	337.37	31.42	-30.4	-30.9	28.4	0.00e+00	0	39	0	1817182208	34	5690
2026-01-01 18:34:57.90	337.03	31.50	-30.2	-30.9	28.4	0.00e+00	0	39	0	1822425088	34	5643
2026-01-01 18:34:58.91	336.70	31.57	-30.3	-31.0	28.3	0.00e+00	0	39	0	1827667968	34	5712
2026-01-01 18:34:59.92	336.36	31.64	-30.2	-30.8	28.4	0.00e+00	0	39	0	1833959424	34	5593
2026-01-01 18:35:00.93	336.02	31.72	-30.1	-30.8	28.5	0.00e+00	0	39	0	1839202304	34	5568
2026-01-01 18:35:01.94	335.67	31.79	-30.2	-30.9	28.4	0.00e+00	0	39	0	1845493760	34	5649
2026-01-01 18:35:02.95	335.33	31.86	-30.1	-30.7	28.4	0.00e+00	0	39	0	1850736640	34	5538
2026-01-01 18:35:03.96	334.98	31.92	-30.2	-30.8	28.4	0.00e+00	0	39	0	1857028096	34	5613
2026-01-01 18:35:04.97	334.64	31.99	-30.3	-30.9	28.4	0.00e+00	0	39	0	1862270976	34	5667
2026-01-01 18:35:05.98	334.29	32.06	-30.4	-31.1	28.2	0.00e+00	0	39	0	1867513856	34	5766
2026-01-01 18:35:06.97	333.95	32.12	-30.4	-31.0	28.2	0.00e+00	0	39	0	1873805312	34	5759
2026-01-01 18:35:07.98	333.60	32.19	-30.4	-31.0	28.3	0.00e+00	0	39	0	1879048192	34	5696
2026-01-01 18:35:08.99	333.24	32.25	-30.2	-30.8	28.4	0.00e+00	0	39	0	1885339648	34	5617
2026-01-01 18:35:10.00	332.89	32.31	-30.2	-30.8	28.5	0.00e+00	0	39	0	1890582528	34	5613
2026-01-01 18:35:11.01	332.53	32.37	-30.2	-30.8	28.5	0.00e+00	0	39	0	1895825408	34	5615
2026-01-01 18:35:12.02	332.18	32.43	-30.2	-30.8	28.5	0.00e+00	0	39	0	1902116864	34	5630
2026-01-01 18:35:13.03	331.82	32.49	-30.2	-30.8	28.4	0.00e+00	0	39	0	1907359744	34	5620
2026-01-01 18:35:14.04	331.46	32.55	-30.4	-31.0	28.3	0.00e+00	0	39	0	1913651200	34	5721
2026-01-01 18:35:15.05	331.10	32.61	-30.5	-31.1	28.3	0.00e+00	0	39	0	1918894080	34	5798
2026-01-01 18:35:16.07	330.74	32.66	-30.5	-31.1	28.2	0.00e+00	0	39	0	1924136960	34	5827
2026-01-01 18:35:17.07	330.38	32.72	-30.4	-31.0	28.4	0.00e+00	0	39	0	1930428416	34	5715
2026-01-01 18:35:18.08	330.01	32.77	-30.3	-30.9	28.3	0.00e+00	0	39	0	1935671296	34	5667
2026-01-01 18:35:19.09	329.65	32.82	-30.3	-31.0	28.4	0.00e+00	0	39	0	1941962752	34	5712
2026-01-01 18:35:20.11	329.28	32.87	-30.1	-30.7	28.5	0.00e+00	0	39	0	1947205632	34	5545
2026-01-01 18:35:21.11	328.91	32.92	-30.0	-30.6	28.6	0.00e+00	0	39	0	1953497088	34	5467
2026-01-01 18:35:22.12	328.54	32.97	-29.9	-30.6	28.7	0.00e+00	0	39	0	1958739968	34	5462
2026-01-01 18:35:23.13	328.17	33.02	-29.9	-30.5	28.8	0.00e+00	0	39	0	1965031424	34	5414
2026-01-01 18:35:24.14	327.80	33.06	-29.9	-30.5	28.7	0.00e+00	0	39	0	1970274304	34	5422
2026-01-01 18:35:25.15	327.43	33.11	-30.0	-30.6	28.5	0.00e+00	0	39	0	1975517184	34	5486
2026-01-01 18:35:26.16	327.06	33.15	-30.0	-30.7	28.6	0.00e+00	0	39	0	1981808640	34	5512
2026-01-01 18:35:27.17	326.68	33.19	-30.0	-30.6	28.6	0.00e+00	0	39	0	1987051520	34	5468
2026-01-01 18:35:28.19	326.31	33.23	-30.0	-30.6	28.6	0.00e+00	0	39	0	1993342976	34	5446
2026-01-01 18:35:29.19	325.93	33.27	-30.3	-30.9	28.3	0.00e+00	0	39	0	1998585856	34	5641
2026-01-01 18:35:30.20	325.56	33.31	-30.3	-31.0	28.4	0.00e+00	0	39	0	2003828736	34	5700
2026-01-01 18:35:31.21	325.18	33.34	-30.2	-30.8	28.5	0.00e+00	0	39	0	2010120192	34	5595
2026-01-01 18:35:32.23	324.80	33.38	-30.1	-30.8	28.5	0.00e+00	0	39	0	2015363072	34	5567
2026-01-01 18:35:33.23	324.42	33.41	-30.0	-30.6	28.7	0.00e+00	0	39	0	2021654528	34	5481
2026-01-01 18:35:34.24	324.04	33.44	-30.2	-30.8	28.5	0.00e+00	0	39	0	2026897408	34	5589
2026-01-01 18:35:35.25	323.66	33.47	-30.2	-30.8	28.5	0.00e+00	0	39	0	2032140288	34	5620
2026-01-01 18:35:36.27	323.28	33.50	-30.2	-30.8	28.4	0.00e+00	0	39	0	2038431744	34	5582
2026-01-01 18:35:37.28	322.89	33.53	-30.0	-30.6	28.5	0.00e+00	0	39	0	2043674624	34	5496
2026-01-01 18:35:38.29	322.51	33.56	-30.2	-30.8	28.5	0.00e+00	0	39	0	2049966080	34	5629
2026-01-01 18:35:39.29	322.13	33.58	-30.2	-30.9	28.3	0.00e+00	0	39	0	2055208960	34	5632
2026-01-01 18:35:40.30	321.75	33.60	-30.5	-31.1	28.2	0.00e+00	0	39	0	2061500416	34	5788
2026-01-01 18:35:41.31	321.36	33.63	-30.6	-31.2	28.1	0.00e+00	0	39	0	2066743296	34	5887
2026-01-01 18:35:42.32	320.98	33.65	-30.6	-31.2	28.3	0.00e+00	0	39	0	2073034752	34	5885
2026-01-01 18:35:43.33	320.59	33.67	-30.3	-30.9	28.4	0.00e+00	0	39	0	2078277632	34	5658
2026-01-01 18:35:44.34	320.21	33.68	-30.2	-30.8	28.5	0.00e+00	0	39	0	2083520512	34	5600
2026-01-01 18:35:45.35	319.82	33.70	-30.3	-30.9	28.4	0.00e+00	0	39	0	2089811968	34	5678
2026-01-01 18:35:46.36	319.43	33.71	-30.4	-31.0	28.4	0.00e+00	0	39	0	2095054848	34	5752
2026-01-01 18:35:47.37	319.05	33.73	-30.3	-30.9	28.4	0.00e+00	0	39	0	2101346304	34	5682
2026-01-01 18:35:48.38	318.66	33.74	-30.3	-30.9	28.4	0.00e+00	0	39	0	2106589184	34	5654
2026-01-01 18:35:49.39	318.27	33.75	-30.1	-30.7	28.6	0.00e+00	0	39	0	2111832064	34	5547
2026-01-01 18:35:50.40	317.89	33.76	-30.1	-30.6	28.6	0.00e+00	0	39	0	2118123520	34	5479
2026-01-01 18:35:51.41	317.50	33.77	-30.2	-30.8	28.6	0.00e+00	0	39	0	2123366400	34	5612
2026-01-01 18:35:52.42	317.11	33.77	-30.2	-30.9	28.4	0.00e+00	0	39	0	2129657856	34	5638
2026-01-01 18:35:53.43	316.72	33.78	-30.3	-30.9	28.4	0.00e+00	0	39	0	2134900736	34	5659
2026-01-01 18:35:54.45	316.33	33.78	-30.3	-30.9	28.4	0.00e+00	0	39	0	2140143616	34	5668
2026-01-01 18:35:55.46	315.94	33.78	-30.4	-31.0	28.3	0.00e+00	0	39	0	2146435072	34	5745
2026-01-01 18:35:56.47	315.55	33.78	-30.2	-30.8	28.4	0.00e+00	0	39	0	2151677952	34	5619
2026-01-01 18:35:57.48	315.16	33.78	-30.1	-30.7	28.5	0.00e+00	0	39	0	2157969408	34	5545
2026-01-01 18:35:58.49	314.77	33.77	-30.0	-30.7	28.5	0.00e+00	0	39	0	2163212288	34	5512
2026-01-01 18:35:59.50	314.39	33.77	-30.1	-30.8	28.5	0.00e+00	0	39	0	2169503744	34	5601
2026-01-01 18:36:00.50	314.00	33.76	-30.0	-30.6	28.6	0.00e+00	0	39	0	2174746624	34	5471
2026-01-01 18:36:01.52	313.61	33.76	-30.0	-30.7	28.4	0.00e+00	0	39	0	2179989504	34	5504
2026-01-01 18:36:02.53	313.22	33.75	-30.1	-30.6	28.4	0.00e+00	0	39	0	2186280960	34	5502
2026-01-01 18:36:03.53	312.84	33.74	-30.3	-30.9	28.3	0.00e+00	0	39	0	2191523840	34	5640
2026-01-01 18:36:04.54	312.45	33.72	-30.2	-30.8	28.2	0.00e+00	0	39	0	2197815296	34	5604
2026-01-01 18:36:05.55	312.06	33.71	-30.1	-30.7	28.5	0.00e+00	0	39	0	2203058176	34	5563
2026-01-01 18:36:06.56	311.68	33.69	-30.0	-30.7	28.6	0.00e+00	0	39	0	2208301056	34	5518
2026-01-01 18:36:07.57	311.29	33.68	-30.1	-30.8	28.5	0.00e+00	0	39	0	2214592512	34	5567
2026-01-01 18:36:08.58	310.91	33.66	-30.3	-30.8	28.4	0.00e+00	0	39	0	2219835392	34	5622
2026-01-01 18:36:09.59	310.52	33.64	-30.4	-31.0	28.2	0.00e+00	0	39	0	2226126848	34	5716
2026-01-01 18:36:10.60	310.13	33.62	-30.4	-31.0	28.3	0.00e+00	0	39	0	2231369728	34	5724
2026-01-01 18:36:11.61	309.75	33.60	-30.4	-31.0	28.4	0.00e+00	0	39	0	2236612608	34	5758
2026-01-01 18:36:12.62	309.37	33.57	-30.2	-30.8	28.5	0.00e+00	0	39	0	2242904064	34	5601
2026-01-01 18:36:13.63	308.98	33.55	-30.3	-31.0	28.4	0.00e+00	0	39	0	2248146944	34	5720
2026-01-01 18:36:14.64	308.60	33.52	-30.2	-30.8	28.4	0.00e+00	0	39	0	2254438400	34	5596
2026-01-01 18:36:15.65	308.22	33.49	-30.2	-30.9	28.5	0.00e+00	0	39	0	2259681280	34	5644
2026-01-01 18:36:16.66	307.84	33.46	-30.2	-30.8	28.5	0.00e+00	0	39	0	2265972736	34	5614
2026-01-01 18:36:17.67	307.46	33.43	-30.1	-30.7	28.5	0.00e+00	0	39	0	2271215616	34	5553
2026-01-01 18:36:18.68	307.08	33.40	-30.2	-30.8	28.5	0.00e+00	0	39	0	2277507072	34	5600
2026-01-01 18:36:19.69	306.70	33.37	-29.9	-30.5	28.8	0.00e+00	0	39	0	2282749952	34	5430
2026-01-01 18:36:20.70	306.32	33.33	-29.7	-30.3	28.8	0.00e+00	0	39	0	2287992832	32	5939
2026-01-01 18:36:21.71	305.94	33.29	-29.8	-30.5	28.8	0.00e+00	0	39	0	2294284288	32	6064
2026-01-01 18:36:22.72	305.56	33.26	-29.9	-30.5	28.8	0.00e+00	0	39	0	2299527168	32	6051
2026-01-01 18:36:23.73	305.19	33.22	-29.9	-30.5	28.7	0.00e+00	0	39	0	2305818624	32	6040
2026-01-01 18:36:24.74	304.81	33.18	-29.9	-30.5	28.7	0.00e+00	0	39	0	2311061504	32	6080
2026-01-01 18:36:25.75	304.44	33.13	-30.0	-30.7	28.7	0.00e+00	0	39	0	2316304384	32	6198
2026-01-01 18:36:26.76	304.07	33.09	-30.2	-30.8	28.5	0.00e+00	0	39	0	2322595840	32	6264
2026-01-01 18:36:27.77	303.69	33.05	-30.2	-30.9	28.5	0.00e+00	0	39	0	2327838720	32	6343
2026-01-01 18:36:28.78	303.32	33.00	-30.2	-30.9	28.5	0.00e+00	0	39	0	2334130176	32	6326
2026-01-01 18:36:29.79	302.95	32.95	-30.4	-30.9	28.4	0.00e+00	0	39	0	2339373056	32	6382
2026-01-01 18:36:30.80	302.58	32.90	-30.3	-30.9	28.4	0.00e+00	0	39	0	2344615936	32	6378
2026-01-01 18:36:31.81	302.22	32.85	-30.3	-31.0	28.3	0.00e+00	0	39	0	2350907392	32	6395
2026-01-01 18:36:32.82	301.85	32.80	-30.3	-30.9	28.4	0.00e+00	0	39	0	2356150272	32	6372
2026-01-01 18:36:33.83	301.49	32.75	-30.3	-30.9	28.4	0.00e+00	0	39	0	2362441728	32	6376
2026-01-01 18:36:34.84	301.12	32.70	-30.2	-30.8	28.5	0.00e+00	0	39	0	2367684608	32	6298
2026-01-01 18:36:35.85	300.76	32.64	-30.3	-30.9	28.4	0.00e+00	0	39	0	2373976064	32	6328
2026-01-01 18:36:36.86	300.40	32.59	-30.2	-30.9	28.4	0.00e+00	0	39	0	2379218944	32	6348
2026-01-01 18:36:37.87	300.04	32.53	-30.2	-30.9	28.4	0.00e+00	0	39	0	2385510400	32	6360
2026-01-01 18:36:38.88	299.68	32.47	-30.2	-30.9	28.4	0.00e+00	0	39	0	2390753280	32	6374
2026-01-01 18:36:39.89	299.32	32.41	-30.3	-31.0	28.4	0.00e+00	0	39	0	2395996160	32	6431
2026-01-01 18:36:40.90	298.96	32.35	-30.4	-31.1	28.4	0.00e+00	0	39	0	2402287616	32	6469
2026-01-01 18:36:41.91	298.61	32.29	-30.5	-31.0	28.3	0.00e+00	0	39	0	2407530496	32	6443
2026-01-01 18:36:42.92	298.25	32.23	-30.5	-31.2	28.2	0.00e+00	0	39	0	2413821952	32	6604
2026-01-01 18:36:43.93	297.90	32.16	-30.3	-31.0	28.3	0.00e+00	0	39	0	2419064832	32	6459
2026-01-01 18:36:44.94	297.55	32.10	-30.2	-30.7	28.5	0.00e+00	0	39	0	2424307712	32	6239
2026-01-01 18:36:45.95	297.20	32.03	-30.2	-30.8	28.5	0.00e+00	0	39	0	2430599168	32	6247
2026-01-01 18:36:46.96	296.85	31.96	-30.3	-30.9	28.4	0.00e+00	0	39	0	2435842048	32	6372
2026-01-01 18:36:47.97	296.50	31.90	-30.4	-31.1	28.3	0.00e+00	0	39	0	2442133504	32	6472
2026-01-01 18:36:48.98	296.16	31.83	-30.5	-31.2	28.2	0.00e+00	0	39	0	2447376384	32	6581
2026-01-01 18:36:49.99	295.82	31.76	-30.5	-31.2	28.2	0.00e+00	0	39	0	2452619264	32	6582
2026-01-01 18:36:51.00	295.47	31.69	-30.4	-30.9	28.3	0.00e+00	0	39	0	2458910720	32	6375
2026-01-01 18:36:52.01	295.13	31.61	-30.3	-30.9	28.4	0.00e+00	0	39	0	2464153600	32	6334
2026-01-01 18:36:53.02	294.79	31.54	-30.3	-31.0	28.4	0.00e+00	0	39	0	2470445056	32	6406
2026-01-01 18:36:54.02	294.46	31.47	-30.6	-31.1	28.4	0.00e+00	0	39	0	2475687936	32	6509
2026-01-01 18:36:55.04	294.12	31.39	-30.3	-30.9	28.4	0.00e+00	0	39	0	2481979392	32	6363
2026-01-01 18:36:56.04	293.79	31.32	-30.2	-30.9	28.5	0.00e+00	0	39	0	2487222272	32	6335
2026-01-01 18:36:57.06	293.45	31.24	-30.2	-30.8	28.5	0.00e+00	0	39	0	2492465152	32	6301
2026-01-01 18:36:58.07	293.12	31.16	-30.2	-30.8	28.4	0.00e+00	0	39	0	2498756608	32	6279
2026-01-01 18:36:59.08	292.79	31.08	-30.3	-31.0	28.4	0.00e+00	0	39	0	2503999488	32	6435
2026-01-01 18:37:00.09	292.46	31.00	-30.4	-31.0	28.4	0.00e+00	0	39	0	2510290944	32	6400
2026-01-01 18:37:01.10	292.14	30.92	-30.3	-30.9	28.4	0.00e+00	0	39	0	2515533824	32	6341
2026-01-01 18:37:02.11	291.81	30.84	-30.3	-31.0	28.4	0.00e+00	0	39	0	2520776704	32	6393
2026-01-01 18:37:03.12	291.49	30.76	-30.4	-31.0	28.3	0.00e+00	0	39	0	2527068160	32	6459
2026-01-01 18:37:04.13	291.17	30.68	-30.4	-31.0	28.3	0.00e+00	0	39	0	2532311040	32	6424
2026-01-01 18:37:05.14	290.85	30.59	-30.5	-31.1	28.2	0.00e+00	0	39	0	2538602496	32	6494
2026-01-01 18:37:06.14	290.53	30.51	-30.7	-31.3	28.1	0.00e+00	0	39	0	2543845376	32	6680
2026-01-01 18:37:07.15	290.21	30.43	-30.9	-31.6	28.0	0.00e+00	0	39	0	2549088256	34	6149
2026-01-01 18:37:08.16	289.90	30.34	-30.9	-31.6	28.0	0.00e+00	0	39	0	2555379712	34	6140
2026-01-01 18:37:09.17	289.58	30.25	-30.7	-31.4	28.1	0.00e+00	0	39	0	2560622592	34	5986
2026-01-01 18:37:10.18	289.27	30.17	-30.6	-31.2	28.3	0.00e+00	0	39	0	2566914048	34	5843
2026-01-01 18:37:11.19	288.96	30.08	-30.4	-31.1	28.4	0.00e+00	0	39	0	2572156928	34	5765
2026-01-01 18:37:12.20	288.65	29.99	-30.5	-31.0	28.3	0.00e+00	0	39	0	2578448384	34	5748
2026-01-01 18:37:13.21	288.35	29.90	-30.4	-31.0	28.3	0.00e+00	0	39	0	2583691264	34	5704
2026-01-01 18:37:14.23	288.04	29.81	-30.5	-31.2	28.2	0.00e+00	0	39	0	2589982720	34	5875
2026-01-01 18:37:15.24	287.74	29.72	-30.5	-31.0	28.3	0.00e+00	0	39	0	2595225600	34	5737
2026-01-01 18:37:16.25	287.44	29.63	-30.5	-31.0	28.2	0.00e+00	0	39	0	2600468480	34	5761
2026-01-01 18:37:17.26	287.14	29.54	-30.5	-31.0	28.2	0.00e+00	0	39	0	2606759936	34	5757
2026-01-01 18:37:18.27	286.84	29.44	-30.6	-31.1	28.2	0.00e+00	0	39	0	2612002816	34	5811
2026-01-01 18:37:19.27	286.54	29.35	-30.6	-31.1	28.2	0.00e+00	0	39	0	2618294272	34	5816
2026-01-01 18:37:20.28	286.25	29.26	-30.6	-31.2	28.2	0.00e+00	0	39	0	2623537152	34	5856
2026-01-01 18:37:21.29	285.96	29.17	-30.7	-31.3	28.1	0.00e+00	0	39	0	2628780032	34	5947
2026-01-01 18:37:22.31	285.66	29.07	-30.8	-31.5	27.9	0.00e+00	0	39	0	2635071488	34	6072
2026-01-01 18:37:23.31	285.38	28.98	-30.9	-31.4	28.1	0.00e+00	0	39	0	2640314368	34	6018
2026-01-01 18:37:24.32	285.09	28.88	-30.7	-31.4	28.1	0.00e+00	0	39	0	2646605824	34	5974
2026-01-01 18:37:25.33	284.80	28.79	-30.8	-31.5	28.0	0.00e+00	0	39	0	2651848704	34	6063
2026-01-01 18:37:26.34	284.52	28.69	-30.8	-31.5	27.9	0.00e+00	0	39	0	2657091584	34	6084
2026-01-01 18:37:27.35	284.24	28.59	-30.7	-31.4	28.0	0.00e+00	0	39	0	2663383040	34	5973
2026-01-01 18:37:28.36	283.95	28.50	-30.7	-31.2	28.1	0.00e+00	0	39	0	2668625920	34	5871
2026-01-01 18:37:29.37	283.67	28.40	-30.7	-31.2	28.1	0.00e+00	0	39	0	2674917376	34	5872
2026-01-01 18:37:30.38	283.40	28.30	-30.7	-31.3	28.1	0.00e+00	0	39	0	2680160256	34	5937
2026-01-01 18:37:31.39	283.12	28.20	-30.7	-31.4	28.1	0.00e+00	0	39	0	2686451712	34	5976
2026-01-01 18:37:32.40	282.85	28.10	-30.7	-31.2	28.2	0.00e+00	0	39	0	2691694592	34	5877
2026-01-01 18:37:33.41	282.58	28.00	-30.8	-31.5	28.0	0.00e+00	0	39	0	2696937472	34	6098
2026-01-01 18:37:34.42	282.30	27.90	-30.8	-31.4	28.0	0.00e+00	0	39	0	2703228928	34	5968
2026-01-01 18:37:35.43	282.04	27.80	-30.7	-31.3	28.1	0.00e+00	0	39	0	2708471808	34	5929
2026-01-01 18:37:36.44	281.77	27.70	-30.7	-31.3	28.0	0.00e+00	0	39	0	2714763264	34	5906
2026-01-01 18:37:37.45	281.50	27.60	-30.7	-31.3	27.9	0.00e+00	0	39	0	2720006144	34	5916
2026-01-01 18:37:38.46	281.24	27.50	-30.8	-31.3	27.8	0.00e+00	0	39	0	2725249024	34	5955
2026-01-01 18:37:39.47	280.98	27.40	-30.8	-31.4	27.8	0.00e+00	0	39	0	2731540480	34	6016
2026-01-01 18:37:40.48	280.72	27.30	-30.9	-31.6	27.6	0.00e+00	0	39	0	2736783360	34	6163
2026-01-01 18:37:41.49	280.46	27.20	-31.1	-31.8	27.6	0.00e+00	0	39	0	2743074816	34	6292
2026-01-01 18:37:42.51	280.20	27.09	-31.2	-31.8	27.5	0.00e+00	0	39	0	2748317696	34	6258
2026-01-01 18:37:43.51	279.94	26.99	-31.1	-31.7	27.5	0.00e+00	0	39	0	2753560576	34	6198
2026-01-01 18:37:44.52	279.69	26.89	-31.1	-31.8	27.6	0.00e+00	0	39	0	2759852032	34	6309
2026-01-01 18:37:45.53	279.44	26.79	-31.0	-31.6	27.6	0.00e+00	0	39	0	2765094912	34	6132
2026-01-01 18:37:46.54	279.19	26.69	-31.1	-31.6	27.5	0.00e+00	0	39	0	2771386368	34	6139
2026-01-01 18:37:47.55	278.94	26.58	-31.0	-31.7	27.5	0.00e+00	0	39	0	2776629248	34	6219
2026-01-01 18:37:48.56	278.69	26.48	-31.0	-31.6	27.5	0.00e+00	0	39	0	2782920704	34	6104
2026-01-01 18:37:49.57	278.44	26.38	-31.0	-31.7	27.4	0.00e+00	0	39	0	2788163584	34	6224
2026-01-01 18:37:50.58	278.20	26.27	-30.9	-31.6	27.6	0.00e+00	0	39	0	2794455040	34	6129
2026-01-01 18:37:51.60	277.95	26.17	-30.8	-31.5	27.4	0.00e+00	0	39	0	2799697920	34	6072
2026-01-01 18:37:52.60	277.72	26.06	-30.9	-31.6	27.6	0.00e+00	0	39	0	2804940800	34	6105
2026-01-01 18:37:53.61	277.48	25.96	-31.1	-31.8	27.4	0.00e+00	0	39	0	2811232256	34	6251
2026-01-01 18:37:54.62	277.24	25.85	-31.2	-31.9	27.4	0.00e+00	0	39	0	2816475136	34	6337
2026-01-01 18:37:55.63	277.00	25.75	-31.4	-32.0	27.3	0.00e+00	0	39	0	2822766592	34	6401
2026-01-01 18:37:56.64	276.77	25.65	-31.4	-31.9	27.1	0.00e+00	0	39	0	2828009472	34	6388
2026-01-01 18:37:57.65	276.53	25.54	-31.4	-32.2	27.3	0.00e+00	0	39	0	2833252352	34	6544
2026-01-01 18:37:58.66	276.30	25.44	-31.5	-32.1	27.3	0.00e+00	0	39	0	2839543808	34	6474
2026-01-01 18:37:59.67	276.07	25.33	-31.5	-32.1	27.3	0.00e+00	0	39	0	2844786688	34	6527
2026-01-01 18:38:00.68	275.84	25.23	-31.4	-31.9	27.3	0.00e+00	0	39	0	2851078144	34	6381
2026-01-01 18:38:01.69	275.62	25.12	-31.4	-32.1	27.3	0.00e+00	0	39	0	2856321024	34	6516
2026-01-01 18:38:02.70	275.39	25.02	-31.5	-32.1	27.3	0.00e+00	0	39	0	2861563904	34	6467
2026-01-01 18:38:03.71	275.17	24.91	-31.4	-32.0	27.5	0.00e+00	0	39	0	2867855360	34	6441
2026-01-01 18:38:04.72	274.95	24.81	-31.4	-32.0	27.4	0.00e+00	0	39	0	2873098240	34	6396
2026-01-01 18:38:05.73	274.72	24.70	-31.5	-32.0	27.3	0.00e+00	0	39	0	2879389696	34	6452
2026-01-01 18:38:06.74	274.51	24.59	-31.5	-32.2	27.2	0.00e+00	0	39	0	2884632576	34	6597
2026-01-01 18:38:07.75	274.29	24.49	-31.5	-32.1	27.3	0.00e+00	0	39	0	2890924032	34	6488
2026-01-01 18:38:08.76	274.07	24.38	-31.6	-32.3	27.2	0.00e+00	0	39	0	2896166912	34	6645
2026-01-01 18:38:09.77	273.86	24.28	-31.5	-32.1	27.2	0.00e+00	0	39	0	2902458368	34	6514
2026-01-01 18:38:10.78	273.64	24.17	-31.5	-32.1	27.2	0.00e+00	0	39	0	2907701248	34	6478
2026-01-01 18:38:11.79	273.43	24.07	-31.4	-32.1	27.3	0.00e+00	0	39	0	2912944128	34	6529
2026-01-01 18:38:12.80	273.22	23.96	-31.5	-32.1	27.2	0.00e+00	0	39	0	2919235584	34	6475
2026-01-01 18:38:13.81	273.01	23.86	-31.5	-32.2	27.3	0.00e+00	0	39	0	2924478464	34	6563
2026-01-01 18:38:14.82	272.80	23.75	-31.5	-32.2	27.3	0.00e+00	0	39	0	2930769920	34	6575
2026-01-01 18:38:15.83	272.60	23.65	-31.5	-32.0	27.4	0.00e+00	0	39	0	2936012800	34	6436
2026-01-01 18:38:16.84	272.39	23.54	-31.4	-32.1	27.3	0.00e+00	0	39	0	2941255680	34	6502
2026-01-01 18:38:17.85	272.19	23.43	-31.4	-32.2	27.3	0.00e+00	0	39	0	2947547136	34	6542
2026-01-01 18:38:18.86	271.98	23.33	-31.5	-32.2	27.2	0.00e+00	0	39	0	2952790016	34	6556
2026-01-01 18:38:19.87	271.78	23.22	-31.5	-32.2	27.2	0.00e+00	0	39	0	2959081472	34	6592
2026-01-01 18:38:20.88	271.58	23.12	-31.6	-32.2	27.2	0.00e+00	0	39	0	2964324352	34	6566
2026-01-01 18:38:21.89	271.39	23.01	-31.7	-32.4	27.1	0.00e+00	0	39	0	2969567232	34	6705
2026-01-01 18:38:22.90	271.19	22.91	-31.7	-32.3	27.1	0.00e+00	0	39	0	2975858688	36	5938
2026-01-01 18:38:23.91	270.99	22.80	-31.7	-32.4	27.1	0.00e+00	0	39	0	2981101568	36	6025
2026-01-01 18:38:24.92	270.80	22.70	-31.6	-32.2	27.2	0.00e+00	0	39	0	2987393024	36	5835
2026-01-01 18:38:25.93	270.61	22.59	-31.5	-32.2	27.2	0.00e+00	0	39	0	2992635904	36	5862
2026-01-01 18:38:26.94	270.41	22.49	-31.6	-32.2	27.1	0.00e+00	0	39	0	2998927360	36	5843
2026-01-01 18:38:27.95	270.22	22.38	-31.6	-32.1	27.3	0.00e+00	0	39	0	3004170240	36	5800
2026-01-01 18:38:28.96	270.03	22.28	-31.6	-32.3	27.2	0.00e+00	0	39	0	3009413120	36	5940
2026-01-01 18:38:29.97	269.85	22.17	-31.7	-32.4	27.1	0.00e+00	0	39	0	3015704576	36	5996
2026-01-01 18:38:30.98	269.66	22.07	-31.8	-32.4	27.0	0.00e+00	0	39	0	3020947456	36	5989
2026-01-01 18:38:31.99	269.48	21.96	-31.8	-32.3	27.1	0.00e+00	0	39	0	3027238912	36	5963
2026-01-01 18:38:33.00	269.29	21.86	-31.8	-32.5	26.9	0.00e+00	0	39	0	3032481792	36	6078
2026-01-01 18:38:34.01	269.11	21.76	-31.6	-32.3	27.1	0.00e+00	0	39	0	3037724672	36	5917
2026-01-01 18:38:35.02	268.93	21.65	-31.5	-32.1	27.3	0.00e+00	0	39	0	3044016128	36	5795
2026-01-01 18:38:36.03	268.75	21.55	-31.7	-32.4	27.1	0.00e+00	0	39	0	3049259008	36	5989
2026-01-01 18:38:37.04	268.57	21.44	-31.6	-32.3	27.2	0.00e+00	0	39	0	3055550464	36	5924
2026-01-01 18:38:38.05	268.39	21.34	-31.6	-32.3	27.1	0.00e+00	0	39	0	3060793344	36	5954
2026-01-01 18:38:39.06	268.21	21.24	-31.7	-32.4	27.1	0.00e+00	0	39	0	3066036224	36	5992
2026-01-01 18:38:40.07	268.04	21.13	-31.7	-32.3	27.1	0.00e+00	0	39	0	3072327680	36	5921
2026-01-01 18:38:41.08	267.86	21.03	-31.9	-32.6	27.0	0.00e+00	0	39	0	3077570560	36	6122
2026-01-01 18:38:42.09	267.69	20.93	-31.8	-32.4	27.1	0.00e+00	0	39	0	3083862016	36	5976
2026-01-01 18:38:43.10	267.52	20.82	-31.7	-32.3	27.1	0.00e+00	0	39	0	3089104896	36	5904
2026-01-01 18:38:44.11	267.35	20.72	-31.6	-32.2	27.1	0.00e+00	0	39	0	3095396352	36	5858
2026-01-01 18:38:45.12	267.18	20.62	-31.7	-32.2	27.2	0.00e+00	0	39	0	3100639232	36	5895
2026-01-01 18:38:46.13	267.01	20.52	-31.6	-32.1	27.1	0.00e+00	0	39	0	3106930688	36	5820
2026-01-01 18:38:47.14	266.84	20.41	-31.6	-32.2	27.2	0.00e+00	0	39	0	3112173568	36	5833
2026-01-01 18:38:48.15	266.68	20.31	-31.6	-32.2	27.2	0.00e+00	0	39	0	3117416448	36	5844
2026-01-01 18:38:49.17	266.51	20.21	-31.7	-32.3	27.1	0.00e+00	0	39	0	3123707904	36	5910
2026-01-01 18:38:50.18	266.35	20.11	-31.9	-32.5	27.0	0.00e+00	0	39	0	3128950784	36	6087
2026-01-01 18:38:51.18	266.19	20.01	-31.9	-32.6	26.9	0.00e+00	0	39	0	3135242240	36	6153
2026-01-01 18:38:52.20	266.02	19.90	-31.9	-32.7	26.9	0.00e+00	0	39	0	3140485120	36	6180
2026-01-01 18:38:53.21	265.86	19.80	-32.1	-32.6	26.9	0.00e+00	0	39	0	3145728000	36	6160
2026-01-01 18:38:54.22	265.70	19.70	-32.0	-32.5	26.9	0.00e+00	0	39	0	3152019456	36	6099
2026-01-01 18:38:55.23	265.54	19.60	-32.1	-32.8	26.9	0.00e+00	0	39	0	3157262336	36	6263
2026-01-01 18:38:56.24	265.39	19.50	-32.0	-32.7	26.9	0.00e+00	0	39	0	3163553792	36	6203
2026-01-01 18:38:57.24	265.23	19.40	-32.1	-32.8	26.8	0.00e+00	0	39	0	3168796672	36	6282
2026-01-01 18:38:58.25	265.08	19.30	-32.1	-32.8	26.8	0.00e+00	0	39	0	3174039552	36	6255
2026-01-01 18:38:59.26	264.92	19.20	-32.1	-32.7	26.8	0.00e+00	0	39	0	3180331008	36	6221
2026-01-01 18:39:00.27	264.77	19.10	-32.2	-32.8	26.7	0.00e+00	0	39	0	3185573888	36	6309
2026-01-01 18:39:01.28	264.62	19.00	-32.2	-32.8	26.6	0.00e+00	0	39	0	3191865344	36	6268
2026-01-01 18:39:02.29	264.46	18.90	-32.3	-32.8	26.7	0.00e+00	0	39	0	3197108224	36	6307
2026-01-01 18:39:03.30	264.31	18.80	-32.3	-33.0	26.6	0.00e+00	0	39	0	3203399680	36	6440
2026-01-01 18:39:04.31	264.16	18.70	-32.4	-33.1	26.6	0.00e+00	0	39	0	3208642560	36	6481
2026-01-01 18:39:05.32	264.02	18.60	-32.2	-32.9	26.7	0.00e+00	0	39	0	3213885440	36	6340
2026-01-01 18:39:06.33	263.87	18.50	-32.3	-33.0	26.6	0.00e+00	0	39	0	3220176896	36	6421
2026-01-01 18:39:07.35	263.72	18.40	-32.2	-32.7	26.7	0.00e+00	0	39	0	3225419776	36	6226
2026-01-01 18:39:08.36	263.58	18.30	-32.4	-33.0	26.6	0.00e+00	0	39	0	3231711232	36	6405
2026-01-01 18:39:09.37	263.43	18.20	-32.4	-33.0	26.6	0.00e+00	0	39	0	3236954112	36	6424
2026-01-01 18:39:10.38	263.29	18.11	-32.5	-33.1	26.5	0.00e+00	0	39	0	3243245568	36	6513
2026-01-01 18:39:11.39	263.15	18.01	-32.6	-33.3	26.4	0.00e+00	0	39	0	3248488448	36	6646
2026-01-01 18:39:12.40	263.00	17.91	-32.7	-33.4	26.3	0.00e+00	0	39	0	3253731328	36	6737
2026-01-01 18:39:13.41	262.86	17.81	-32.6	-33.3	26.4	0.00e+00	0	39	0	3260022784	36	6668
2026-01-01 18:39:14.42	262.72	17.72	-32.7	-33.4	26.4	0.00e+00	0	39	0	3265265664	36	6721
2026-01-01 18:39:15.43	262.58	17.62	-32.5	-33.1	26.4	0.00e+00	0	39	0	3271557120	36	6523
2026-01-01 18:39:16.44	262.45	17.52	-32.6	-33.2	26.3	0.00e+00	0	39	0	3276800000	36	6589
2026-01-01 18:39:17.45	262.31	17.42	-32.6	-33.3	26.3	0.00e+00	0	39	0	3282042880	36	6689
2026-01-01 18:39:18.46	262.17	17.33	-32.8	-33.4	26.2	0.00e+00	0	39	0	3288334336	38	5974
2026-01-01 18:39:19.47	262.04	17.23	-32.8	-33.4	26.2	0.00e+00	0	39	0	3293577216	38	5988
2026-01-01 18:39:20.48	261.90	17.14	-33.0	-33.8	25.9	0.00e+00	0	39	0	3299868672	38	6272
2026-01-01 18:39:21.49	261.77	17.04	-33.0	-33.8	26.0	0.00e+00	0	39	0	3305111552	38	6248
2026-01-01 18:39:22.50	261.64	16.94	-33.1	-33.7	25.9	0.00e+00	0	39	0	3310354432	38	6230
2026-01-01 18:39:23.51	261.51	16.85	-33.1	-33.7	26.0	0.00e+00	0	39	0	3316645888	38	6180
2026-01-01 18:39:24.52	261.38	16.75	-32.9	-33.5	26.1	0.00e+00	0	39	0	3321888768	38	6095
2026-01-01 18:39:25.53	261.25	16.66	-32.9	-33.6	26.1	0.00e+00	0	39	0	3328180224	38	6168
2026-01-01 18:39:26.54	261.12	16.56	-32.9	-33.5	26.1	0.00e+00	0	39	0	3333423104	38	6060
2026-01-01 18:39:27.55	260.99	16.47	-33.1	-33.8	25.9	0.00e+00	0	39	0	3339714560	38	6298
2026-01-01 18:39:28.56	260.86	16.37	-32.9	-33.6	26.2	0.00e+00	0	39	0	3344957440	38	6122
2026-01-01 18:39:29.57	260.73	16.28	-33.0	-33.5	26.0	0.00e+00	0	39	0	3351248896	38	6097
2026-01-01 18:39:30.58	260.61	16.19	-33.0	-33.5	26.1	0.00e+00	0	39	0	3356491776	38	6103
2026-01-01 18:39:31.59	260.48	16.09	-33.0	-33.6	26.0	0.00e+00	0	39	0	3361734656	38	6113
2026-01-01 18:39:32.60	260.36	16.00	-33.1	-33.7	25.9	0.00e+00	0	39	0	3368026112	38	6197
2026-01-01 18:39:33.61	260.23	15.91	-33.2	-33.8	25.8	0.00e+00	0	39	0	3373268992	38	6288
2026-01-01 18:39:34.62	260.11	15.81	-33.2	-33.8	25.8	0.00e+00	0	39	0	3379560448	38	6265
2026-01-01 18:39:35.63	259.99	15.72	-33.2	-34.0	25.8	0.00e+00	0	39	0	3384803328	38	6413
2026-01-01 18:39:36.64	259.87	15.63	-33.3	-34.0	25.7	0.00e+00	0	39	0	3390046208	38	6439
2026-01-01 18:39:37.65	259.75	15.53	-33.4	-34.2	25.7	0.00e+00	0	39	0	3396337664	38	6543
2026-01-01 18:39:38.66	259.63	15.44	-33.3	-34.0	25.7	0.00e+00	0	39	0	3401580544	38	6463
2026-01-01 18:39:39.67	259.51	15.35	-33.4	-34.0	25.7	0.00e+00	0	39	0	3407872000	38	6436
2026-01-01 18:39:40.68	259.39	15.26	-33.4	-34.0	25.6	0.00e+00	0	39	0	3413114880	38	6438
2026-01-01 18:39:41.69	259.27	15.17	-33.4	-34.1	25.7	0.00e+00	0	39	0	3418357760	38	6471
2026-01-01 18:39:42.70	259.16	15.08	-33.6	-34.2	25.5	0.00e+00	0	39	0	3424649216	38	6543
2026-01-01 18:39:43.71	259.04	14.98	-33.5	-34.1	25.5	0.00e+00	0	39	0	3429892096	38	6470
2026-01-01 18:39:44.72	258.92	14.89	-33.6	-34.1	25.5	0.00e+00	0	39	0	3436183552	38	6532
2026-01-01 18:39:45.73	258.81	14.80	-33.6	-34.2	25.4	0.00e+00	0	39	0	3441426432	38	6605
2026-01-01 18:39:46.74	258.70	14.71	-33.7	-34.3	25.3	0.00e+00	0	39	0	3447717888	38	6660
2026-01-01 18:39:47.75	258.58	14.62	-33.8	-34.4	25.3	0.00e+00	0	39	0	3452960768	40	5999
2026-01-01 18:39:48.76	258.47	14.53	-33.9	-34.5	25.2	0.00e+00	0	39	0	3458203648	40	6060
2026-01-01 18:39:49.77	258.36	14.44	-33.8	-34.6	25.2	0.00e+00	0	39	0	3464495104	40	6105
2026-01-01 18:39:50.78	258.25	14.35	-33.9	-34.5	25.2	0.00e+00	0	39	0	3469737984	40	6054
2026-01-01 18:39:51.79	258.14	14.26	-33.8	-34.4	25.3	0.00e+00	0	39	0	3476029440	40	5974
2026-01-01 18:39:52.80	258.03	14.17	-33.8	-34.4	25.2	0.00e+00	0	39	0	3481272320	40	5969
2026-01-01 18:39:53.81	257.92	14.09	-34.0	-34.6	25.1	0.00e+00	0	39	0	3486515200	40	6109
2026-01-01 18:39:54.82	257.81	14.00	-33.9	-34.5	25.1	0.00e+00	0	39	0	3492806656	40	6088
2026-01-01 18:39:55.83	257.70	13.91	-33.8	-34.4	25.2	0.00e+00	0	39	0	3498049536	40	6032
2026-01-01 18:39:56.84	257.59	13.82	-33.9	-34.5	25.2	0.00e+00	0	39	0	3504340992	40	6051
2026-01-01 18:39:57.85	257.49	13.73	-34.0	-34.7	25.1	0.00e+00	0	39	0	3509583872	40	6208
2026-01-01 18:39:58.86	257.38	13.64	-34.1	-34.8	25.0	0.00e+00	0	39	0	3514826752	40	6290
2026-01-01 18:39:59.86	257.28	13.56	-34.0	-34.8	25.0	0.00e+00	0	39	0	3521118208	40	6269
2026-01-01 18:40:00.88	257.17	13.47	-34.1	-34.7	25.0	0.00e+00	0	39	0	3526361088	40	6195
2026-01-01 18:40:01.89	257.07	13.38	-34.1	-34.7	25.0	0.00e+00	0	39	0	3532652544	40	6197
2026-01-01 18:40:02.90	256.96	13.30	-34.2	-34.8	25.0	0.00e+00	0	39	0	3537895424	40	6268
2026-01-01 18:40:03.91	256.86	13.21	-34.1	-34.7	25.0	0.00e+00	0	39	0	3544186880	40	6237
2026-01-01 18:40:04.92	256.76	13.12	-34.1	-34.7	25.0	0.00e+00	0	39	0	3549429760	40	6220
2026-01-01 18:40:05.93	256.66	13.04	-34.0	-34.7	25.0	0.00e+00	0	39	0	3555721216	40	6220
2026-01-01 18:40:06.94	256.56	12.95	-34.0	-34.6	25.1	0.00e+00	0	39	0	3560964096	40	6122
2026-01-01 18:40:07.95	256.46	12.86	-34.0	-34.6	25.0	0.00e+00	0	39	0	3566206976	40	6163
2026-01-01 18:40:08.96	256.36	12.78	-34.0	-34.8	25.0	0.00e+00	0	39	0	3572498432	40	6284
2026-01-01 18:40:09.97	256.26	12.69	-34.1	-34.7	25.0	0.00e+00	0	39	0	3577741312	40	6199
2026-01-01 18:40:10.98	256.16	12.61	-34.1	-34.7	25.0	0.00e+00	0	39	0	3584032768	40	6183
2026-01-01 18:40:11.99	256.06	12.52	-34.1	-34.7	24.8	0.00e+00	0	39	0	3589275648	40	6241
2026-01-01 18:40:13.00	255.97	12.44	-34.1	-34.7	24.9	0.00e+00	0	39	0	3594518528	40	6199
