passes_logs/2026/01/21/R3.2S_Murmansk/R3.2S_Murmansk__20260121_075701_NOAA_20_JPSS-1_rec.log

#Pass ID: 20260121_075701_NOAA 20 (JPSS-1)
#Satellite: NOAA 20 (JPSS-1)
#Configuration: NOAA 20
#almurnet v.1.7.20251203
#Start time: 2026-01-21 07:57:03

#Version: 2.2.20231116
#Station: R3.2S_Murmansk
#Location: 33.079688 lon 68.888172 lat
#TLE: 1 43013U 17073A   26020.26397077  .00000127  00000+0  80954-4 0  9999
#TLE: 2 43013  98.7643 321.1479 0001288  31.3158 328.8095 14.19537595423482

#Time	Az	El	Level	Level2	SNR	BER	BlckErr	Temp	State	Recorded	gain1	gain2
2026-01-21 07:57:03.03	115.13	2.12	-53.6	-68.6	3.8	1.49e+00	0	38	0	0	79	19403
2026-01-21 07:57:04.04	115.10	2.18	-52.9	-67.9	3.8	1.49e+00	0	38	104	0	77	20298
2026-01-21 07:57:05.04	115.06	2.24	-52.6	-67.6	3.8	1.49e+00	0	38	104	0	77	19454
2026-01-21 07:57:06.05	115.03	2.31	-52.4	-67.4	3.8	1.49e+00	0	38	104	0	76	20248
2026-01-21 07:57:07.06	114.99	2.37	-52.4	-67.4	3.8	1.49e+00	0	38	104	0	76	20210
2026-01-21 07:57:08.07	114.96	2.43	-52.4	-67.4	3.8	1.49e+00	0	38	104	0	76	20167
2026-01-21 07:57:09.08	114.92	2.50	-52.4	-67.4	3.8	1.49e+00	0	38	104	0	76	20080
2026-01-21 07:57:10.08	114.88	2.56	-52.4	-67.4	3.8	1.49e+00	0	38	104	0	76	20130
2026-01-21 07:57:11.09	114.85	2.62	-52.4	-67.4	3.8	1.49e+00	0	38	104	0	76	20098
2026-01-21 07:57:12.10	114.81	2.69	-52.4	-67.4	3.8	1.49e+00	0	38	104	0	76	20155
2026-01-21 07:57:13.11	114.77	2.75	-52.4	-67.4	3.8	1.49e+00	0	38	104	0	76	20175
2026-01-21 07:57:14.12	114.74	2.82	-52.4	-67.4	3.8	1.49e+00	0	38	104	0	76	20107
2026-01-21 07:57:15.12	114.70	2.88	-52.4	-67.4	3.8	1.49e+00	0	38	104	0	76	20122
2026-01-21 07:57:16.13	114.66	2.95	-52.4	-67.4	3.8	1.49e+00	0	39	104	0	76	20131
2026-01-21 07:57:17.14	114.63	3.01	-52.4	-67.4	3.8	1.49e+00	0	38	104	0	76	20136
2026-01-21 07:57:18.15	114.59	3.08	-52.4	-67.4	3.8	1.49e+00	0	38	104	0	76	20146
2026-01-21 07:57:19.16	114.55	3.14	-52.4	-67.4	3.8	1.49e+00	0	38	104	0	76	20136
2026-01-21 07:57:20.17	114.51	3.21	-52.4	-67.4	3.8	1.49e+00	0	38	104	0	76	20141
2026-01-21 07:57:21.17	114.47	3.27	-52.4	-67.4	3.8	1.49e+00	0	38	104	0	76	20130
2026-01-21 07:57:22.18	114.44	3.34	-52.4	-67.4	3.8	1.49e+00	0	39	104	0	76	20171
2026-01-21 07:57:23.19	114.40	3.40	-52.4	-67.4	3.8	1.49e+00	0	38	104	0	76	20139
2026-01-21 07:57:24.20	114.36	3.47	-52.4	-67.3	3.8	1.49e+00	0	39	104	0	76	20054
2026-01-21 07:57:25.20	114.32	3.53	-52.4	-67.3	3.8	1.49e+00	0	38	104	0	76	19846
2026-01-21 07:57:26.21	114.28	3.60	-52.4	-67.1	3.8	1.49e+00	0	39	104	0	76	19601
2026-01-21 07:57:27.22	114.24	3.66	-52.4	-66.8	3.8	1.49e+00	0	38	104	0	76	18926
2026-01-21 07:57:28.23	114.20	3.73	-52.4	-66.5	3.8	1.49e+00	0	39	104	0	76	18241
2026-01-21 07:57:29.24	114.16	3.80	-52.4	-66.5	3.8	1.49e+00	0	39	104	0	76	18193
2026-01-21 07:57:30.24	114.12	3.86	-52.3	-66.3	3.8	1.49e+00	0	39	104	0	76	17823
2026-01-21 07:57:31.26	114.08	3.93	-52.4	-66.5	3.8	1.49e+00	0	39	104	0	76	18204
2026-01-21 07:57:32.26	114.04	4.00	-52.4	-66.7	3.8	1.49e+00	0	39	104	0	76	18691
2026-01-21 07:57:33.27	114.00	4.06	-52.4	-66.9	3.8	1.49e+00	0	39	104	0	76	18963
2026-01-21 07:57:34.28	113.96	4.13	-52.4	-66.4	3.8	1.49e+00	0	39	104	0	76	18059
2026-01-21 07:57:35.29	113.92	4.20	-52.3	-65.1	3.8	1.49e+00	0	39	104	0	76	15541
2026-01-21 07:57:36.30	113.88	4.27	-52.2	-63.1	4.4	1.46e+00	122	39	104	0	76	12361
2026-01-21 07:57:37.31	113.84	4.33	-51.9	-60.8	5.6	8.62e-01	0	39	0	1048576	75	9990
2026-01-21 07:57:38.32	113.80	4.40	-51.6	-59.2	6.9	2.39e-01	0	39	0	3145728	75	8294
2026-01-21 07:57:39.32	113.76	4.47	-51.3	-57.7	8.3	8.66e-02	0	39	0	5242880	74	7379
2026-01-21 07:57:40.33	113.72	4.54	-50.8	-56.1	10.0	9.29e-03	0	39	0	7340032	73	6540
2026-01-21 07:57:41.34	113.67	4.61	-50.3	-54.7	11.5	1.21e-03	0	39	0	9437184	72	5891
2026-01-21 07:57:42.35	113.63	4.67	-49.9	-53.6	12.8	4.78e-04	0	39	0	10485760	71	5510
2026-01-21 07:57:43.36	113.59	4.74	-49.7	-53.3	13.1	7.17e-05	0	39	0	12582912	71	5309
2026-01-21 07:57:44.36	113.55	4.81	-49.5	-52.9	13.5	1.98e-05	0	39	0	14680064	70	5359
2026-01-21 07:57:45.37	113.50	4.88	-49.1	-52.2	14.3	7.60e-06	0	39	0	16777216	70	4931
2026-01-21 07:57:46.38	113.46	4.95	-49.5	-53.0	13.4	6.10e-06	0	39	0	18874368	70	5417
2026-01-21 07:57:47.39	113.42	5.02	-49.4	-52.7	13.7	4.50e-06	0	39	0	19922944	70	5237
2026-01-21 07:57:48.40	113.37	5.09	-49.3	-52.5	14.0	6.80e-06	0	39	0	22020096	70	5104
2026-01-21 07:57:49.41	113.33	5.16	-49.8	-53.4	13.2	5.18e-05	0	39	0	24117248	70	5665
2026-01-21 07:57:50.42	113.29	5.23	-49.6	-52.8	13.9	5.59e-04	0	39	0	26214400	71	5008
2026-01-21 07:57:51.43	113.24	5.30	-49.9	-53.5	12.7	1.61e-01	0	39	0	28311552	71	5457
2026-01-21 07:57:52.43	113.20	5.37	-49.0	-51.8	15.1	0.00e+00	0	39	0	30408704	68	5307
2026-01-21 07:57:53.44	113.15	5.44	-50.8	-55.6	10.5	6.27e-01	0	39	0	31457280	73	6148
2026-01-21 07:57:54.45	113.11	5.51	-48.0	-50.3	16.3	0.00e+00	0	39	0	33554432	67	4708
2026-01-21 07:57:55.46	113.06	5.58	-47.5	-49.6	16.9	0.00e+00	0	39	0	35651584	67	4378
2026-01-21 07:57:56.47	113.02	5.65	-47.7	-49.8	16.8	0.00e+00	0	39	0	37748736	66	4722
2026-01-21 07:57:57.47	112.97	5.72	-47.6	-49.8	16.8	0.00e+00	0	39	0	38797312	66	4708
2026-01-21 07:57:58.48	112.93	5.79	-47.6	-49.7	16.8	0.00e+00	0	39	0	40894464	66	4699
2026-01-21 07:57:59.49	112.88	5.86	-47.6	-49.7	16.9	0.00e+00	0	39	0	42991616	66	4656
2026-01-21 07:58:00.50	112.83	5.93	-47.5	-49.5	17.1	0.00e+00	0	39	0	45088768	66	4560
2026-01-21 07:58:01.50	112.79	6.00	-47.4	-49.4	17.2	0.00e+00	0	39	0	46137344	66	4534
2026-01-21 07:58:02.51	112.74	6.08	-47.5	-49.5	17.1	0.00e+00	0	39	0	48234496	66	4585
2026-01-21 07:58:03.52	112.69	6.15	-47.6	-49.6	17.0	0.00e+00	0	39	0	50331648	66	4630
2026-01-21 07:58:04.53	112.65	6.22	-47.7	-49.8	16.9	0.00e+00	0	39	0	52428800	66	4723
2026-01-21 07:58:05.54	112.60	6.29	-47.6	-49.7	17.0	0.00e+00	0	39	0	54525952	66	4669
2026-01-21 07:58:06.55	112.55	6.36	-47.4	-49.4	17.4	0.00e+00	0	39	0	56623104	66	4495
2026-01-21 07:58:07.56	112.50	6.44	-47.5	-49.5	17.3	0.00e+00	0	39	0	57671680	66	4566
2026-01-21 07:58:08.57	112.45	6.51	-47.3	-49.2	17.6	0.00e+00	0	39	0	59768832	66	4408
2026-01-21 07:58:09.57	112.41	6.58	-47.6	-49.6	17.2	0.00e+00	0	39	0	61865984	66	4619
2026-01-21 07:58:10.58	112.36	6.66	-47.2	-49.0	17.7	0.00e+00	0	39	0	63963136	66	4322
2026-01-21 07:58:11.59	112.31	6.73	-47.3	-49.2	17.6	0.00e+00	0	39	0	66060288	66	4419
2026-01-21 07:58:12.60	112.26	6.80	-47.3	-49.1	17.7	0.00e+00	0	39	0	67108864	66	4390
2026-01-21 07:58:13.61	112.21	6.88	-47.1	-48.9	17.9	0.00e+00	0	39	0	69206016	66	4263
2026-01-21 07:58:14.61	112.16	6.95	-47.3	-49.1	17.7	0.00e+00	0	39	0	71303168	66	4377
2026-01-21 07:58:15.62	112.11	7.02	-47.1	-48.9	18.0	0.00e+00	0	39	0	73400320	66	4249
2026-01-21 07:58:16.63	112.06	7.10	-47.1	-49.0	17.8	0.00e+00	0	39	0	75497472	66	4303
2026-01-21 07:58:17.64	112.01	7.17	-47.1	-49.0	17.8	0.00e+00	0	39	0	76546048	66	4294
2026-01-21 07:58:18.65	111.96	7.25	-47.2	-49.0	17.8	0.00e+00	0	39	0	78643200	66	4325
2026-01-21 07:58:19.65	111.91	7.32	-47.2	-49.1	17.8	0.00e+00	0	39	0	80740352	66	4347
2026-01-21 07:58:20.66	111.85	7.40	-47.1	-48.9	17.9	0.00e+00	0	39	0	82837504	66	4268
2026-01-21 07:58:21.67	111.80	7.47	-47.1	-49.0	17.8	0.00e+00	0	39	0	84934656	66	4304
2026-01-21 07:58:22.68	111.75	7.55	-47.1	-48.9	18.0	0.00e+00	0	39	0	85983232	66	4262
2026-01-21 07:58:23.68	111.70	7.62	-47.1	-48.9	18.0	0.00e+00	0	39	0	88080384	66	4267
2026-01-21 07:58:24.69	111.64	7.70	-46.9	-48.6	18.3	0.00e+00	0	39	0	90177536	65	4368
2026-01-21 07:58:25.70	111.59	7.78	-47.0	-48.8	18.1	0.00e+00	0	39	0	92274688	65	4455
2026-01-21 07:58:26.70	111.54	7.85	-46.9	-48.6	18.3	0.00e+00	0	39	0	94371840	65	4390
2026-01-21 07:58:27.71	111.49	7.93	-46.8	-48.5	18.4	0.00e+00	0	39	0	95420416	65	4318
2026-01-21 07:58:28.72	111.43	8.01	-46.7	-48.3	18.6	0.00e+00	0	39	0	97517568	65	4238
2026-01-21 07:58:29.73	111.38	8.08	-46.7	-48.3	18.6	0.00e+00	0	39	0	99614720	65	4226
2026-01-21 07:58:30.74	111.32	8.16	-46.8	-48.5	18.4	0.00e+00	0	39	0	101711872	65	4331
2026-01-21 07:58:31.75	111.27	8.24	-46.7	-48.3	18.6	0.00e+00	0	39	0	103809024	65	4239
2026-01-21 07:58:32.76	111.21	8.31	-46.7	-48.4	18.5	0.00e+00	0	39	0	104857600	65	4273
2026-01-21 07:58:33.77	111.16	8.39	-46.7	-48.3	18.6	0.00e+00	0	39	0	106954752	65	4225
2026-01-21 07:58:34.77	111.10	8.47	-46.7	-48.4	18.5	0.00e+00	0	39	0	109051904	65	4270
2026-01-21 07:58:35.78	111.05	8.55	-46.8	-48.4	18.5	0.00e+00	0	39	0	111149056	65	4276
2026-01-21 07:58:36.79	110.99	8.63	-46.8	-48.5	18.5	0.00e+00	0	39	0	113246208	65	4300
2026-01-21 07:58:37.80	110.93	8.71	-46.6	-48.2	18.8	0.00e+00	0	39	0	114294784	65	4178
2026-01-21 07:58:38.80	110.88	8.78	-46.5	-48.1	18.9	0.00e+00	0	39	0	116391936	65	4111
2026-01-21 07:58:39.81	110.82	8.86	-46.7	-48.3	18.6	0.00e+00	0	39	0	118489088	65	4242
2026-01-21 07:58:40.82	110.76	8.94	-46.8	-48.5	18.5	0.00e+00	0	39	0	120586240	65	4320
2026-01-21 07:58:41.83	110.70	9.02	-46.7	-48.4	18.6	0.00e+00	0	39	0	122683392	65	4252
2026-01-21 07:58:42.84	110.64	9.10	-46.4	-48.0	19.0	0.00e+00	0	39	0	124780544	64	4296
2026-01-21 07:58:43.84	110.59	9.18	-46.6	-48.3	18.8	0.00e+00	0	39	0	125829120	64	4444
2026-01-21 07:58:44.85	110.53	9.26	-46.4	-48.0	19.0	0.00e+00	0	39	0	127926272	64	4317
2026-01-21 07:58:45.86	110.47	9.34	-46.6	-48.2	18.8	0.00e+00	0	39	0	130023424	64	4405
2026-01-21 07:58:46.87	110.41	9.42	-46.5	-48.1	18.9	0.00e+00	0	39	0	132120576	64	4383
2026-01-21 07:58:47.88	110.35	9.50	-46.6	-48.1	18.9	0.00e+00	0	39	0	133169152	64	4388
2026-01-21 07:58:48.89	110.29	9.59	-46.6	-48.2	18.8	0.00e+00	0	39	0	135266304	64	4409
2026-01-21 07:58:49.89	110.23	9.67	-46.5	-48.0	19.0	0.00e+00	0	39	0	137363456	64	4331
2026-01-21 07:58:50.90	110.17	9.75	-46.5	-48.1	19.0	0.00e+00	0	39	0	139460608	64	4359
2026-01-21 07:58:51.91	110.10	9.83	-46.6	-48.1	18.9	0.00e+00	0	39	0	141557760	64	4388
2026-01-21 07:58:52.92	110.04	9.91	-46.4	-47.9	19.1	0.00e+00	0	39	0	142606336	64	4263
2026-01-21 07:58:53.93	109.98	9.99	-46.4	-48.0	19.0	0.00e+00	0	39	0	144703488	64	4313
2026-01-21 07:58:54.93	109.92	10.08	-46.4	-47.9	19.1	0.00e+00	0	39	0	146800640	64	4262
2026-01-21 07:58:55.94	109.86	10.16	-46.3	-47.9	19.2	0.00e+00	0	39	0	148897792	64	4255
2026-01-21 07:58:56.95	109.79	10.24	-46.3	-47.9	19.2	0.00e+00	0	39	0	150994944	64	4250
2026-01-21 07:58:57.95	109.73	10.32	-46.3	-47.8	19.2	0.00e+00	0	39	0	153092096	64	4228
2026-01-21 07:58:58.96	109.67	10.41	-46.4	-47.9	19.2	0.00e+00	0	39	0	154140672	64	4255
2026-01-21 07:58:59.97	109.60	10.49	-46.3	-47.8	19.2	0.00e+00	0	39	0	156237824	64	4226
2026-01-21 07:59:00.98	109.54	10.58	-46.3	-47.8	19.3	0.00e+00	0	39	0	158334976	64	4205
2026-01-21 07:59:01.98	109.47	10.66	-46.2	-47.7	19.4	0.00e+00	0	39	0	160432128	64	4162
2026-01-21 07:59:02.99	109.41	10.74	-46.2	-47.6	19.4	0.00e+00	0	39	0	161480704	64	4138
2026-01-21 07:59:04.00	109.34	10.83	-46.1	-47.6	19.5	0.00e+00	0	39	0	163577856	64	4111
2026-01-21 07:59:05.00	109.27	10.91	-46.0	-47.5	19.6	0.00e+00	0	39	0	165675008	64	4068
2026-01-21 07:59:06.01	109.21	11.00	-46.0	-47.5	19.7	0.00e+00	0	39	0	167772160	63	4297
2026-01-21 07:59:07.02	109.14	11.08	-46.0	-47.5	19.7	0.00e+00	0	39	0	169869312	63	4294
2026-01-21 07:59:08.03	109.07	11.17	-46.0	-47.5	19.7	0.00e+00	0	39	0	171966464	63	4296
2026-01-21 07:59:09.04	109.00	11.26	-46.1	-47.5	19.6	0.00e+00	0	39	0	173015040	63	4317
2026-01-21 07:59:10.04	108.94	11.34	-46.1	-47.5	19.6	0.00e+00	0	39	0	175112192	63	4321
2026-01-21 07:59:11.05	108.87	11.43	-46.0	-47.4	19.7	0.00e+00	0	39	0	177209344	63	4274
2026-01-21 07:59:12.06	108.80	11.52	-46.0	-47.4	19.7	0.00e+00	0	39	0	179306496	63	4291
2026-01-21 07:59:13.07	108.73	11.60	-45.9	-47.3	19.8	0.00e+00	0	40	0	181403648	63	4229
2026-01-21 07:59:14.08	108.66	11.69	-46.0	-47.4	19.8	0.00e+00	0	39	0	182452224	63	4257
2026-01-21 07:59:15.09	108.59	11.78	-46.0	-47.4	19.7	0.00e+00	0	40	0	184549376	63	4285
2026-01-21 07:59:16.09	108.52	11.87	-46.0	-47.3	19.9	0.00e+00	0	40	0	186646528	63	4241
2026-01-21 07:59:17.10	108.44	11.95	-45.9	-47.3	19.9	0.00e+00	0	39	0	188743680	63	4217
2026-01-21 07:59:18.11	108.37	12.04	-46.0	-47.4	19.8	0.00e+00	0	39	0	189792256	63	4265
2026-01-21 07:59:19.12	108.30	12.13	-45.9	-47.3	19.9	0.00e+00	0	39	0	191889408	63	4205
2026-01-21 07:59:20.12	108.23	12.22	-46.0	-47.4	19.8	0.00e+00	0	39	0	193986560	63	4265
2026-01-21 07:59:21.13	108.15	12.31	-45.9	-47.3	19.9	0.00e+00	0	40	0	196083712	63	4198
2026-01-21 07:59:22.14	108.08	12.40	-46.0	-47.4	19.8	0.00e+00	0	40	0	198180864	63	4253
2026-01-21 07:59:23.15	108.01	12.49	-46.1	-47.5	19.7	0.00e+00	0	39	0	200278016	63	4306
2026-01-21 07:59:24.16	107.93	12.58	-46.0	-47.5	19.8	0.00e+00	0	39	0	201326592	63	4296
2026-01-21 07:59:25.17	107.86	12.67	-46.0	-47.4	19.8	0.00e+00	0	39	0	203423744	63	4259
2026-01-21 07:59:26.17	107.78	12.76	-45.9	-47.3	19.9	0.00e+00	0	39	0	205520896	63	4202
2026-01-21 07:59:27.18	107.70	12.85	-45.9	-47.3	20.0	0.00e+00	0	40	0	207618048	63	4194
2026-01-21 07:59:28.19	107.63	12.94	-45.9	-47.2	20.0	0.00e+00	0	39	0	209715200	63	4190
2026-01-21 07:59:29.20	107.55	13.03	-45.8	-47.2	20.0	0.00e+00	0	39	0	210763776	63	4164
2026-01-21 07:59:30.21	107.47	13.13	-45.9	-47.3	19.9	0.00e+00	0	39	0	212860928	63	4224
2026-01-21 07:59:31.21	107.40	13.22	-45.9	-47.3	19.9	0.00e+00	0	39	0	214958080	63	4200
2026-01-21 07:59:32.22	107.32	13.31	-45.9	-47.2	20.0	0.00e+00	0	39	0	217055232	63	4191
2026-01-21 07:59:33.23	107.24	13.40	-45.8	-47.2	20.0	0.00e+00	0	40	0	219152384	63	4173
2026-01-21 07:59:34.24	107.16	13.49	-46.0	-47.4	19.8	0.00e+00	0	40	0	220200960	63	4256
2026-01-21 07:59:35.25	107.08	13.59	-45.9	-47.3	19.9	0.00e+00	0	40	0	222298112	63	4228
2026-01-21 07:59:36.25	107.00	13.68	-45.9	-47.3	19.9	0.00e+00	0	39	0	224395264	63	4222
2026-01-21 07:59:37.26	106.92	13.78	-45.9	-47.3	19.9	0.00e+00	0	39	0	226492416	63	4235
2026-01-21 07:59:38.27	106.83	13.87	-45.9	-47.3	19.9	0.00e+00	0	39	0	228589568	63	4225
2026-01-21 07:59:39.28	106.75	13.96	-45.9	-47.3	19.9	0.00e+00	0	39	0	229638144	63	4213
2026-01-21 07:59:40.28	106.67	14.06	-45.9	-47.2	20.0	0.00e+00	0	39	0	231735296	63	4182
2026-01-21 07:59:41.29	106.59	14.15	-45.8	-47.2	20.0	0.00e+00	0	40	0	233832448	63	4177
2026-01-21 07:59:42.30	106.50	14.25	-45.9	-47.2	20.0	0.00e+00	0	40	0	235929600	63	4182
2026-01-21 07:59:43.31	106.42	14.34	-46.0	-47.4	19.8	0.00e+00	0	39	0	238026752	63	4264
2026-01-21 07:59:44.31	106.33	14.44	-46.0	-47.4	19.8	0.00e+00	0	40	0	239075328	63	4281
2026-01-21 07:59:45.32	106.25	14.54	-46.0	-47.4	19.8	0.00e+00	0	40	0	241172480	63	4250
2026-01-21 07:59:46.33	106.16	14.63	-45.9	-47.3	19.9	0.00e+00	0	40	0	243269632	63	4207
2026-01-21 07:59:47.34	106.07	14.73	-46.0	-47.4	19.8	0.00e+00	0	40	0	245366784	63	4256
2026-01-21 07:59:48.35	105.99	14.83	-45.9	-47.2	20.0	0.00e+00	0	39	0	247463936	63	4190
2026-01-21 07:59:49.35	105.90	14.92	-45.9	-47.2	20.0	0.00e+00	0	40	0	248512512	63	4193
2026-01-21 07:59:50.36	105.81	15.02	-45.9	-47.3	19.9	0.00e+00	0	40	0	250609664	63	4238
2026-01-21 07:59:51.37	105.72	15.12	-45.9	-47.3	19.9	0.00e+00	0	39	0	252706816	63	4231
2026-01-21 07:59:52.38	105.63	15.22	-46.0	-47.4	19.8	0.00e+00	0	40	0	254803968	63	4280
2026-01-21 07:59:53.38	105.54	15.32	-46.0	-47.4	19.8	0.00e+00	0	40	0	256901120	63	4262
2026-01-21 07:59:54.39	105.45	15.42	-46.0	-47.4	19.8	0.00e+00	0	40	0	257949696	63	4291
2026-01-21 07:59:55.40	105.36	15.52	-46.1	-47.5	19.7	0.00e+00	0	40	0	260046848	63	4306
2026-01-21 07:59:56.41	105.27	15.62	-46.0	-47.4	19.8	0.00e+00	0	40	0	262144000	63	4265
2026-01-21 07:59:57.42	105.17	15.72	-46.1	-47.5	19.7	0.00e+00	0	40	0	264241152	63	4326
2026-01-21 07:59:58.43	105.08	15.82	-46.1	-47.5	19.7	0.00e+00	0	40	0	266338304	63	4308
2026-01-21 07:59:59.43	104.99	15.92	-46.0	-47.4	19.9	0.00e+00	0	39	0	267386880	63	4255
2026-01-21 08:00:00.42	104.89	16.02	-45.9	-47.3	19.9	0.00e+00	0	40	0	269484032	63	4197
2026-01-21 08:00:01.42	104.80	16.12	-46.0	-47.4	19.9	0.00e+00	0	40	0	271581184	63	4250
2026-01-21 08:00:02.43	104.70	16.22	-45.9	-47.3	20.0	0.00e+00	0	40	0	273678336	63	4194
2026-01-21 08:00:03.44	104.60	16.32	-45.9	-47.3	20.0	0.00e+00	0	40	0	275775488	63	4195
2026-01-21 08:00:04.45	104.51	16.43	-45.9	-47.3	19.9	0.00e+00	0	40	0	276824064	63	4236
2026-01-21 08:00:05.45	104.41	16.53	-46.0	-47.4	19.9	0.00e+00	0	40	0	278921216	63	4253
2026-01-21 08:00:06.46	104.31	16.63	-46.1	-47.5	19.8	0.00e+00	0	40	0	281018368	63	4296
2026-01-21 08:00:07.47	104.21	16.74	-46.0	-47.4	19.9	0.00e+00	0	40	0	283115520	63	4274
2026-01-21 08:00:08.48	104.11	16.84	-45.8	-47.2	20.0	0.00e+00	0	39	0	285212672	63	4167
2026-01-21 08:00:09.49	104.01	16.94	-45.7	-47.1	20.1	0.00e+00	0	40	0	286261248	63	4115
2026-01-21 08:00:10.49	103.91	17.05	-45.7	-47.1	20.1	0.00e+00	0	40	0	288358400	63	4113
2026-01-21 08:00:11.50	103.80	17.15	-45.9	-47.2	20.0	0.00e+00	0	40	0	290455552	63	4189
2026-01-21 08:00:12.50	103.70	17.26	-45.8	-47.2	20.1	0.00e+00	0	40	0	292552704	63	4155
2026-01-21 08:00:13.51	103.60	17.36	-45.8	-47.1	20.1	0.00e+00	0	40	0	294649856	63	4142
2026-01-21 08:00:14.52	103.49	17.47	-45.8	-47.1	20.1	0.00e+00	0	40	0	295698432	63	4139
2026-01-21 08:00:15.53	103.39	17.58	-45.9	-47.3	20.0	0.00e+00	0	39	0	297795584	63	4209
2026-01-21 08:00:16.54	103.28	17.68	-45.7	-47.1	20.2	0.00e+00	0	39	0	299892736	63	4099
2026-01-21 08:00:17.54	103.17	17.79	-45.8	-47.1	20.1	0.00e+00	0	40	0	301989888	63	4138
2026-01-21 08:00:18.55	103.07	17.90	-45.8	-47.2	20.1	0.00e+00	0	40	0	304087040	63	4156
2026-01-21 08:00:19.56	102.96	18.01	-45.9	-47.2	20.0	0.00e+00	0	40	0	305135616	63	4185
2026-01-21 08:00:20.56	102.85	18.11	-45.8	-47.2	20.1	0.00e+00	0	40	0	307232768	63	4150
2026-01-21 08:00:21.57	102.74	18.22	-45.8	-47.1	20.1	0.00e+00	0	40	0	309329920	63	4144
2026-01-21 08:00:22.58	102.63	18.33	-45.8	-47.2	20.1	0.00e+00	0	40	0	311427072	63	4159
2026-01-21 08:00:23.59	102.52	18.44	-45.9	-47.3	19.9	0.00e+00	0	39	0	313524224	63	4233
2026-01-21 08:00:24.60	102.40	18.55	-45.7	-47.1	20.2	0.00e+00	0	40	0	314572800	63	4111
2026-01-21 08:00:25.61	102.29	18.66	-45.8	-47.1	20.1	0.00e+00	0	40	0	316669952	63	4139
2026-01-21 08:00:26.61	102.18	18.77	-45.7	-47.0	20.3	0.00e+00	0	40	0	318767104	63	4075
2026-01-21 08:00:27.62	102.06	18.88	-45.7	-47.0	20.3	0.00e+00	0	40	0	320864256	63	4074
2026-01-21 08:00:28.63	101.94	18.99	-45.5	-46.8	20.4	0.00e+00	0	40	0	322961408	63	4000
2026-01-21 08:00:29.64	101.83	19.10	-45.5	-46.8	20.5	0.00e+00	0	40	0	324009984	63	3966
2026-01-21 08:00:30.64	101.71	19.22	-45.6	-46.9	20.4	0.00e+00	0	39	0	326107136	63	4008
2026-01-21 08:00:31.65	101.59	19.33	-45.6	-46.9	20.3	0.00e+00	0	39	0	328204288	63	4048
2026-01-21 08:00:32.66	101.47	19.44	-45.6	-47.0	20.3	0.00e+00	0	39	0	330301440	63	4053
2026-01-21 08:00:33.67	101.35	19.55	-45.8	-47.2	20.1	0.00e+00	0	39	0	332398592	63	4167
2026-01-21 08:00:34.68	101.23	19.67	-45.8	-47.1	20.2	0.00e+00	0	39	0	333447168	63	4144
2026-01-21 08:00:35.69	101.11	19.78	-45.8	-47.1	20.2	0.00e+00	0	39	0	335544320	63	4131
2026-01-21 08:00:36.69	100.98	19.89	-45.8	-47.2	20.1	0.00e+00	0	39	0	337641472	63	4155
2026-01-21 08:00:37.70	100.86	20.01	-45.8	-47.2	20.2	0.00e+00	0	40	0	339738624	63	4148
2026-01-21 08:00:38.71	100.73	20.12	-45.9	-47.2	20.1	0.00e+00	0	39	0	341835776	63	4176
2026-01-21 08:00:39.72	100.61	20.24	-45.9	-47.3	20.0	0.00e+00	0	39	0	342884352	63	4236
2026-01-21 08:00:40.72	100.48	20.36	-46.1	-47.6	19.8	0.00e+00	0	39	0	344981504	63	4350
2026-01-21 08:00:41.73	100.35	20.47	-45.9	-47.3	20.0	0.00e+00	0	39	0	347078656	63	4231
2026-01-21 08:00:42.74	100.22	20.59	-46.1	-47.5	19.9	0.00e+00	0	39	0	349175808	63	4298
2026-01-21 08:00:43.75	100.09	20.71	-45.9	-47.3	20.0	0.00e+00	0	39	0	351272960	63	4226
2026-01-21 08:00:44.76	99.96	20.82	-45.8	-47.2	20.2	0.00e+00	0	39	0	352321536	63	4146
2026-01-21 08:00:45.77	99.83	20.94	-45.8	-47.2	20.1	0.00e+00	0	40	0	354418688	63	4158
2026-01-21 08:00:46.77	99.70	21.06	-45.8	-47.1	20.2	0.00e+00	0	39	0	356515840	63	4140
2026-01-21 08:00:47.78	99.56	21.18	-45.9	-47.2	20.1	0.00e+00	0	40	0	358612992	63	4189
2026-01-21 08:00:48.79	99.43	21.30	-45.9	-47.3	20.0	0.00e+00	0	40	0	360710144	63	4220
2026-01-21 08:00:49.80	99.29	21.41	-45.9	-47.2	20.1	0.00e+00	0	40	0	361758720	63	4183
2026-01-21 08:00:50.81	99.15	21.53	-45.9	-47.3	20.1	0.00e+00	0	40	0	363855872	63	4201
2026-01-21 08:00:51.81	99.02	21.65	-45.9	-47.3	20.1	0.00e+00	0	40	0	365953024	63	4209
2026-01-21 08:00:52.82	98.88	21.77	-46.0	-47.4	20.0	0.00e+00	0	40	0	368050176	63	4247
2026-01-21 08:00:53.83	98.73	21.90	-45.9	-47.2	20.1	0.00e+00	0	40	0	370147328	63	4170
2026-01-21 08:00:54.84	98.59	22.02	-45.9	-47.3	20.0	0.00e+00	0	40	0	372244480	63	4224
2026-01-21 08:00:55.84	98.45	22.14	-45.8	-47.2	20.2	0.00e+00	0	40	0	373293056	63	4154
2026-01-21 08:00:56.85	98.31	22.26	-45.9	-47.2	20.1	0.00e+00	0	40	0	375390208	63	4178
2026-01-21 08:00:57.86	98.16	22.38	-45.9	-47.2	20.1	0.00e+00	0	39	0	377487360	63	4182
2026-01-21 08:00:58.87	98.01	22.50	-45.8	-47.2	20.2	0.00e+00	0	40	0	379584512	63	4152
2026-01-21 08:00:59.87	97.87	22.63	-45.8	-47.2	20.2	0.00e+00	0	40	0	380633088	63	4158
2026-01-21 08:01:00.88	97.72	22.75	-45.8	-47.2	20.2	0.00e+00	0	39	0	382730240	63	4158
2026-01-21 08:01:01.89	97.57	22.87	-45.7	-47.0	20.3	0.00e+00	0	40	0	384827392	63	4079
2026-01-21 08:01:02.90	97.42	23.00	-45.8	-47.2	20.2	0.00e+00	0	40	0	386924544	63	4148
2026-01-21 08:01:03.91	97.26	23.12	-45.9	-47.2	20.1	0.00e+00	0	40	0	389021696	63	4167
2026-01-21 08:01:04.92	97.11	23.25	-46.0	-47.4	20.0	0.00e+00	0	39	0	390070272	63	4247
2026-01-21 08:01:05.93	96.95	23.37	-45.9	-47.3	20.0	0.00e+00	0	40	0	392167424	63	4225
2026-01-21 08:01:06.93	96.80	23.50	-45.9	-47.3	20.1	0.00e+00	0	40	0	394264576	63	4200
2026-01-21 08:01:07.94	96.64	23.62	-46.0	-47.4	20.0	0.00e+00	0	40	0	396361728	63	4243
2026-01-21 08:01:08.95	96.48	23.75	-46.0	-47.4	20.0	0.00e+00	0	40	0	398458880	63	4260
2026-01-21 08:01:09.96	96.32	23.88	-45.9	-47.3	20.1	0.00e+00	0	40	0	400556032	63	4218
2026-01-21 08:01:10.96	96.16	24.00	-46.0	-47.4	20.0	0.00e+00	0	39	0	401604608	63	4279
2026-01-21 08:01:11.97	96.00	24.13	-46.1	-47.5	19.9	0.00e+00	0	40	0	403701760	63	4308
2026-01-21 08:01:12.98	95.83	24.26	-46.1	-47.5	19.9	0.00e+00	0	39	0	405798912	63	4316
2026-01-21 08:01:13.99	95.67	24.39	-46.1	-47.5	19.9	0.00e+00	0	40	0	407896064	63	4304
2026-01-21 08:01:15.00	95.50	24.52	-46.2	-47.6	19.8	0.00e+00	0	39	0	408944640	63	4356
2026-01-21 08:01:16.01	95.33	24.65	-46.3	-47.7	19.7	0.00e+00	0	40	0	411041792	63	4421
2026-01-21 08:01:17.01	95.16	24.78	-46.3	-47.7	19.7	0.00e+00	0	40	0	413138944	63	4419
2026-01-21 08:01:18.02	94.99	24.91	-46.1	-47.5	20.0	0.00e+00	0	40	0	415236096	63	4300
2026-01-21 08:01:19.03	94.82	25.04	-46.1	-47.5	19.9	0.00e+00	0	39	0	417333248	63	4311
2026-01-21 08:01:20.04	94.65	25.17	-46.1	-47.5	20.0	0.00e+00	0	40	0	419430400	63	4300
2026-01-21 08:01:21.05	94.47	25.30	-46.0	-47.4	20.0	0.00e+00	0	40	0	420478976	63	4252
2026-01-21 08:01:22.05	94.29	25.43	-45.9	-47.3	20.1	0.00e+00	0	39	0	422576128	63	4207
2026-01-21 08:01:23.06	94.12	25.56	-45.9	-47.3	20.1	0.00e+00	0	40	0	424673280	63	4214
2026-01-21 08:01:24.07	93.94	25.69	-46.1	-47.5	19.9	0.00e+00	0	40	0	426770432	63	4311
2026-01-21 08:01:25.08	93.75	25.82	-46.1	-47.5	20.0	0.00e+00	0	40	0	428867584	63	4320
2026-01-21 08:01:26.08	93.57	25.95	-46.1	-47.5	19.9	0.00e+00	0	40	0	429916160	63	4330
2026-01-21 08:01:27.09	93.39	26.09	-46.2	-47.7	19.8	0.00e+00	0	40	0	432013312	63	4400
2026-01-21 08:01:28.10	93.20	26.22	-46.3	-47.8	19.7	0.00e+00	0	40	0	434110464	63	4463
2026-01-21 08:01:29.11	93.01	26.35	-46.4	-47.9	19.5	0.00e+00	0	40	0	436207616	63	4528
2026-01-21 08:01:30.11	92.82	26.49	-46.5	-48.0	19.5	0.00e+00	0	40	0	437256192	63	4569
2026-01-21 08:01:31.12	92.63	26.62	-46.4	-47.9	19.6	0.00e+00	0	40	0	439353344	63	4510
2026-01-21 08:01:32.13	92.44	26.76	-46.4	-47.9	19.6	0.00e+00	0	40	0	441450496	63	4507
2026-01-21 08:01:33.14	92.25	26.89	-46.5	-48.0	19.5	0.00e+00	0	40	0	443547648	63	4551
2026-01-21 08:01:34.15	92.05	27.03	-46.6	-48.1	19.3	0.00e+00	0	40	0	445644800	63	4640
2026-01-21 08:01:35.15	91.85	27.16	-46.7	-48.2	19.3	0.00e+00	0	40	0	447741952	63	4678
2026-01-21 08:01:36.16	91.65	27.30	-46.7	-48.2	19.2	0.00e+00	0	40	0	448790528	64	4431
2026-01-21 08:01:37.17	91.45	27.43	-46.8	-48.3	19.1	0.00e+00	0	39	0	450887680	64	4474
2026-01-21 08:01:38.18	91.25	27.57	-47.0	-48.6	18.9	0.00e+00	0	40	0	452984832	64	4618
2026-01-21 08:01:39.19	91.04	27.71	-47.1	-48.7	18.8	0.00e+00	0	39	0	455081984	64	4679
2026-01-21 08:01:40.19	90.84	27.84	-47.4	-49.1	18.3	0.00e+00	0	40	0	457179136	65	4638
2026-01-21 08:01:41.20	90.63	27.98	-47.6	-49.4	18.1	0.00e+00	0	39	0	458227712	65	4787
2026-01-21 08:01:42.21	90.42	28.12	-47.8	-49.6	17.9	0.00e+00	0	39	0	460324864	66	4643
2026-01-21 08:01:43.21	90.21	28.25	-48.0	-49.9	17.7	0.00e+00	0	40	0	462422016	66	4764
2026-01-21 08:01:44.22	90.00	28.39	-48.1	-50.0	17.5	0.00e+00	0	40	0	464519168	66	4868
2026-01-21 08:01:45.23	89.78	28.53	-48.4	-50.5	17.1	0.00e+00	0	40	0	466616320	67	4816
2026-01-21 08:01:46.24	89.56	28.67	-48.5	-50.6	16.9	0.00e+00	0	40	0	467664896	67	4920
2026-01-21 08:01:47.25	89.34	28.80	-48.8	-51.0	16.7	0.00e+00	0	40	0	469762048	68	4817
2026-01-21 08:01:48.25	89.12	28.94	-48.8	-51.0	16.7	0.00e+00	0	40	0	471859200	68	4825
2026-01-21 08:01:49.26	88.90	29.08	-48.8	-50.9	16.7	0.00e+00	0	40	0	473956352	68	4806
2026-01-21 08:01:50.27	88.68	29.22	-48.8	-51.0	16.6	0.00e+00	0	40	0	476053504	68	4856
2026-01-21 08:01:51.28	88.45	29.36	-48.7	-50.9	16.7	0.00e+00	0	40	0	477102080	68	4762
2026-01-21 08:01:52.29	88.22	29.50	-48.7	-50.9	16.7	0.00e+00	0	40	0	479199232	68	4770
2026-01-21 08:01:53.30	87.99	29.64	-48.7	-50.8	16.8	0.00e+00	0	39	0	481296384	68	4726
2026-01-21 08:01:54.31	87.75	29.78	-48.6	-50.7	16.9	0.00e+00	0	40	0	483393536	68	4686
2026-01-21 08:01:55.31	87.52	29.92	-48.7	-50.8	16.8	0.00e+00	0	40	0	485490688	68	4739
2026-01-21 08:01:56.32	87.28	30.06	-48.5	-50.6	17.0	0.00e+00	0	40	0	486539264	68	4629
2026-01-21 08:01:57.33	87.04	30.20	-48.4	-50.4	17.3	0.00e+00	0	40	0	488636416	68	4511
2026-01-21 08:01:58.34	86.80	30.34	-48.5	-50.6	17.0	0.00e+00	0	40	0	490733568	68	4610
2026-01-21 08:01:59.34	86.56	30.48	-48.5	-50.6	17.0	0.00e+00	0	40	0	492830720	68	4623
2026-01-21 08:02:00.35	86.32	30.62	-48.5	-50.5	17.1	0.00e+00	0	40	0	494927872	68	4576
2026-01-21 08:02:01.35	86.07	30.76	-48.6	-50.6	17.0	0.00e+00	0	40	0	495976448	68	4642
2026-01-21 08:02:02.36	85.82	30.90	-48.6	-50.6	17.0	0.00e+00	0	40	0	498073600	68	4641
2026-01-21 08:02:03.37	85.57	31.04	-48.4	-50.4	17.3	0.00e+00	0	40	0	500170752	68	4494
2026-01-21 08:02:04.38	85.31	31.18	-48.5	-50.5	17.2	0.00e+00	0	40	0	502267904	68	4553
2026-01-21 08:02:05.39	85.05	31.32	-48.6	-50.7	17.0	0.00e+00	0	40	0	504365056	68	4693
2026-01-21 08:02:06.39	84.80	31.46	-48.5	-50.5	17.1	0.00e+00	0	40	0	505413632	68	4588
2026-01-21 08:02:07.40	84.54	31.60	-48.6	-50.7	17.0	0.00e+00	0	40	0	507510784	68	4692
2026-01-21 08:02:08.41	84.27	31.74	-48.8	-50.9	16.8	0.00e+00	0	40	0	509607936	68	4802
2026-01-21 08:02:09.42	84.01	31.88	-48.9	-51.0	16.7	0.00e+00	0	40	0	511705088	68	4867
2026-01-21 08:02:10.42	83.74	32.02	-48.8	-51.0	16.7	0.00e+00	0	40	0	513802240	68	4854
2026-01-21 08:02:11.43	83.47	32.16	-49.1	-51.4	16.3	0.00e+00	0	40	0	515899392	68	5059
2026-01-21 08:02:12.43	83.20	32.30	-49.0	-51.2	16.4	0.00e+00	0	40	0	516947968	68	4976
2026-01-21 08:02:13.44	82.92	32.44	-48.8	-51.0	16.7	0.00e+00	0	40	0	519045120	68	4832
2026-01-21 08:02:14.45	82.65	32.58	-48.6	-50.7	16.9	0.00e+00	0	40	0	521142272	68	4687
2026-01-21 08:02:15.46	82.37	32.72	-48.4	-50.4	17.3	0.00e+00	0	40	0	523239424	68	4505
2026-01-21 08:02:16.46	82.09	32.86	-48.1	-50.0	17.7	0.00e+00	0	40	0	524288000	68	4294
2026-01-21 08:02:17.47	81.80	33.00	-47.6	-49.4	18.2	0.00e+00	0	40	0	526385152	67	4263
2026-01-21 08:02:18.48	81.51	33.14	-47.4	-49.1	18.5	0.00e+00	0	40	0	528482304	66	4346
2026-01-21 08:02:19.49	81.22	33.28	-47.3	-49.0	18.5	0.00e+00	0	40	0	530579456	66	4310
2026-01-21 08:02:20.50	80.93	33.42	-47.2	-48.8	18.7	0.00e+00	0	40	0	532676608	66	4227
2026-01-21 08:02:21.50	80.64	33.55	-47.1	-48.7	18.8	0.00e+00	0	40	0	533725184	66	4173
2026-01-21 08:02:22.51	80.34	33.69	-46.9	-48.5	19.0	0.00e+00	0	40	0	535822336	65	4308
2026-01-21 08:02:23.52	80.04	33.83	-46.9	-48.5	19.1	0.00e+00	0	40	0	537919488	65	4315
2026-01-21 08:02:24.53	79.74	33.97	-47.0	-48.6	19.0	0.00e+00	0	40	0	540016640	65	4343
2026-01-21 08:02:25.53	79.43	34.11	-47.0	-48.6	19.0	0.00e+00	0	40	0	542113792	65	4360
2026-01-21 08:02:26.54	79.13	34.24	-47.1	-48.7	18.9	0.00e+00	0	39	0	544210944	65	4407
2026-01-21 08:02:27.55	78.82	34.38	-47.3	-49.0	18.6	0.00e+00	0	40	0	545259520	65	4578
2026-01-21 08:02:28.56	78.50	34.52	-47.6	-49.4	18.2	0.00e+00	0	40	0	547356672	65	4761
2026-01-21 08:02:29.57	78.19	34.65	-47.7	-49.5	18.1	0.00e+00	0	39	0	549453824	65	4834
2026-01-21 08:02:30.57	77.87	34.79	-47.8	-49.6	18.0	0.00e+00	0	40	0	551550976	66	4612
2026-01-21 08:02:31.58	77.55	34.92	-47.7	-49.5	18.1	0.00e+00	0	40	0	552599552	66	4584
2026-01-21 08:02:32.59	77.23	35.06	-47.5	-49.2	18.4	0.00e+00	0	40	0	554696704	66	4405
2026-01-21 08:02:33.60	76.90	35.19	-47.6	-49.3	18.3	0.00e+00	0	40	0	556793856	66	4462
2026-01-21 08:02:34.61	76.57	35.33	-47.7	-49.5	18.1	0.00e+00	0	40	0	558891008	66	4551
2026-01-21 08:02:35.61	76.24	35.46	-47.8	-49.6	18.0	0.00e+00	0	40	0	560988160	66	4623
2026-01-21 08:02:36.62	75.90	35.59	-47.8	-49.6	18.0	0.00e+00	0	40	0	562036736	66	4619
2026-01-21 08:02:37.63	75.57	35.73	-47.8	-49.6	18.0	0.00e+00	0	40	0	564133888	66	4643
2026-01-21 08:02:38.64	75.23	35.86	-47.8	-49.6	18.1	0.00e+00	0	40	0	566231040	66	4610
2026-01-21 08:02:39.64	74.89	35.99	-47.8	-49.6	18.0	0.00e+00	0	40	0	568328192	66	4640
2026-01-21 08:02:40.65	74.54	36.12	-48.0	-49.8	17.7	0.00e+00	0	40	0	570425344	66	4750
2026-01-21 08:02:41.66	74.19	36.25	-48.2	-50.1	17.5	0.00e+00	0	40	0	572522496	66	4898
2026-01-21 08:02:42.67	73.84	36.38	-48.3	-50.3	17.4	0.00e+00	0	40	0	573571072	67	4707
2026-01-21 08:02:43.67	73.49	36.51	-48.5	-50.5	17.1	0.00e+00	0	40	0	575668224	67	4832
2026-01-21 08:02:44.68	73.13	36.63	-48.3	-50.3	17.4	0.00e+00	0	40	0	577765376	67	4710
2026-01-21 08:02:45.69	72.77	36.76	-48.2	-50.2	17.5	0.00e+00	0	40	0	579862528	67	4652
2026-01-21 08:02:46.70	72.41	36.89	-48.2	-50.1	17.5	0.00e+00	0	40	0	580911104	67	4626
2026-01-21 08:02:47.71	72.04	37.01	-48.1	-50.0	17.7	0.00e+00	0	40	0	583008256	67	4548
2026-01-21 08:02:48.71	71.68	37.14	-48.1	-49.9	17.7	0.00e+00	0	40	0	585105408	67	4534
2026-01-21 08:02:49.72	71.31	37.26	-47.9	-49.7	17.9	0.00e+00	0	39	0	587202560	67	4416
2026-01-21 08:02:50.73	70.93	37.38	-47.8	-49.6	18.0	0.00e+00	0	40	0	589299712	67	4351
2026-01-21 08:02:51.74	70.56	37.50	-47.8	-49.5	18.1	0.00e+00	0	40	0	591396864	67	4340
2026-01-21 08:02:52.75	70.18	37.62	-47.7	-49.4	18.2	0.00e+00	0	40	0	592445440	67	4270
2026-01-21 08:02:53.75	69.80	37.74	-47.6	-49.3	18.3	0.00e+00	0	40	0	594542592	67	4225
2026-01-21 08:02:54.76	69.41	37.86	-47.6	-49.3	18.3	0.00e+00	0	40	0	596639744	67	4242
2026-01-21 08:02:55.77	69.03	37.98	-47.7	-49.4	18.2	0.00e+00	0	40	0	598736896	67	4276
2026-01-21 08:02:56.78	68.63	38.10	-47.6	-49.3	18.4	0.00e+00	0	40	0	600834048	67	4225
2026-01-21 08:02:57.79	68.24	38.21	-47.4	-49.1	18.5	0.00e+00	0	40	0	601882624	66	4374
2026-01-21 08:02:58.79	67.85	38.32	-47.3	-48.9	18.7	0.00e+00	0	40	0	603979776	66	4259
2026-01-21 08:02:59.80	67.45	38.44	-47.1	-48.7	18.9	0.00e+00	0	40	0	606076928	66	4174
2026-01-21 08:03:00.81	67.05	38.55	-46.6	-48.1	19.5	0.00e+00	0	39	0	608174080	65	4122
2026-01-21 08:03:01.82	66.64	38.66	-46.5	-47.9	19.7	0.00e+00	0	40	0	609222656	64	4261
2026-01-21 08:03:02.83	66.23	38.77	-46.5	-48.0	19.6	0.00e+00	0	40	0	611319808	64	4299
2026-01-21 08:03:03.83	65.83	38.88	-46.7	-48.1	19.4	0.00e+00	0	40	0	613416960	64	4390
2026-01-21 08:03:04.84	65.41	38.98	-46.6	-48.0	19.5	0.00e+00	0	40	0	615514112	64	4333
2026-01-21 08:03:05.85	65.00	39.09	-46.5	-48.0	19.6	0.00e+00	0	40	0	617611264	64	4306
2026-01-21 08:03:06.85	64.58	39.19	-46.5	-48.0	19.6	0.00e+00	0	40	0	619708416	64	4310
2026-01-21 08:03:07.86	64.16	39.29	-46.5	-47.9	19.7	0.00e+00	0	40	0	620756992	64	4275
2026-01-21 08:03:08.87	63.74	39.39	-46.7	-48.1	19.5	0.00e+00	0	40	0	622854144	64	4385
2026-01-21 08:03:09.88	63.31	39.49	-46.6	-48.0	19.6	0.00e+00	0	40	0	624951296	64	4327
2026-01-21 08:03:10.89	62.88	39.59	-46.4	-47.8	19.7	0.00e+00	0	40	0	627048448	64	4239
2026-01-21 08:03:11.89	62.46	39.69	-46.5	-47.9	19.7	0.00e+00	0	40	0	629145600	64	4271
2026-01-21 08:03:12.90	62.02	39.78	-46.3	-47.7	19.9	0.00e+00	0	40	0	630194176	64	4180
2026-01-21 08:03:13.91	61.59	39.87	-46.3	-47.6	20.0	0.00e+00	0	40	0	632291328	64	4127
2026-01-21 08:03:14.92	61.15	39.96	-46.1	-47.4	20.1	0.00e+00	0	40	0	634388480	63	4289
2026-01-21 08:03:15.93	60.71	40.05	-45.9	-47.2	20.4	0.00e+00	0	40	0	636485632	63	4187
2026-01-21 08:03:16.93	60.27	40.14	-45.7	-47.0	20.7	0.00e+00	0	40	0	638582784	63	4057
2026-01-21 08:03:17.94	59.82	40.23	-45.6	-46.8	20.9	0.00e+00	0	40	0	639631360	63	3978
2026-01-21 08:03:18.95	59.37	40.31	-45.5	-46.8	20.9	0.00e+00	0	40	0	641728512	63	3967
2026-01-21 08:03:19.96	58.92	40.39	-45.4	-46.6	21.0	0.00e+00	0	40	0	643825664	62	4123
2026-01-21 08:03:20.97	58.47	40.48	-45.3	-46.5	21.1	0.00e+00	0	40	0	645922816	62	4082
2026-01-21 08:03:21.97	58.02	40.55	-45.3	-46.5	21.2	0.00e+00	0	40	0	648019968	62	4080
2026-01-21 08:03:22.98	57.56	40.63	-45.1	-46.2	21.4	0.00e+00	0	40	0	649068544	61	4179
2026-01-21 08:03:23.99	57.10	40.71	-45.2	-46.3	21.3	0.00e+00	0	40	0	651165696	61	4241
2026-01-21 08:03:25.00	56.64	40.78	-45.3	-46.5	21.2	0.00e+00	0	40	0	653262848	61	4320
2026-01-21 08:03:26.01	56.17	40.85	-45.7	-46.9	20.8	0.00e+00	0	40	0	655360000	61	4529
2026-01-21 08:03:27.01	55.71	40.92	-45.7	-47.0	20.7	0.00e+00	0	40	0	657457152	62	4302
2026-01-21 08:03:28.02	55.24	40.99	-45.5	-46.7	21.0	0.00e+00	0	40	0	658505728	62	4170
2026-01-21 08:03:29.03	54.77	41.05	-45.5	-46.7	21.0	0.00e+00	0	40	0	660602880	62	4180
2026-01-21 08:03:30.04	54.30	41.11	-45.5	-46.8	20.9	0.00e+00	0	40	0	662700032	62	4204
2026-01-21 08:03:31.05	53.83	41.17	-45.2	-46.4	21.2	0.00e+00	0	40	0	664797184	62	4028
2026-01-21 08:03:32.05	53.36	41.23	-45.0	-46.1	21.5	0.00e+00	0	40	0	666894336	61	4137
2026-01-21 08:03:33.06	52.88	41.29	-44.9	-46.1	21.6	0.00e+00	0	40	0	667942912	61	4107
2026-01-21 08:03:34.07	52.40	41.34	-45.1	-46.3	21.4	0.00e+00	0	40	0	670040064	61	4194
2026-01-21 08:03:35.08	51.92	41.40	-45.1	-46.2	21.4	0.00e+00	0	40	0	672137216	61	4190
2026-01-21 08:03:36.09	51.44	41.45	-45.0	-46.1	21.5	0.00e+00	0	40	0	674234368	61	4123
2026-01-21 08:03:37.10	50.96	41.49	-44.9	-46.0	21.7	0.00e+00	0	40	0	676331520	61	4058
2026-01-21 08:03:38.11	50.47	41.54	-45.1	-46.3	21.4	0.00e+00	0	40	0	677380096	61	4194
2026-01-21 08:03:39.11	49.99	41.58	-45.3	-46.5	21.1	0.00e+00	0	40	0	679477248	61	4327
2026-01-21 08:03:40.12	49.50	41.62	-45.4	-46.7	21.0	0.00e+00	0	40	0	681574400	61	4397
2026-01-21 08:03:41.13	49.01	41.66	-45.5	-46.7	21.0	0.00e+00	0	40	0	683671552	61	4411
2026-01-21 08:03:42.14	48.52	41.70	-45.7	-46.9	20.8	0.00e+00	0	40	0	685768704	62	4271
2026-01-21 08:03:43.14	48.04	41.73	-45.8	-47.1	20.6	0.00e+00	0	40	0	686817280	62	4369
2026-01-21 08:03:44.15	47.55	41.76	-45.8	-47.1	20.6	0.00e+00	0	40	0	688914432	62	4342
2026-01-21 08:03:45.16	47.05	41.79	-45.8	-47.0	20.7	0.00e+00	0	40	0	691011584	62	4337
2026-01-21 08:03:46.16	46.57	41.82	-45.5	-46.7	21.0	0.00e+00	0	40	0	693108736	62	4176
2026-01-21 08:03:47.17	46.07	41.84	-45.5	-46.8	20.9	0.00e+00	0	40	0	695205888	62	4195
2026-01-21 08:03:48.18	45.58	41.86	-45.4	-46.6	21.1	0.00e+00	0	40	0	696254464	62	4112
2026-01-21 08:03:49.19	45.08	41.88	-45.5	-46.7	21.0	0.00e+00	0	40	0	698351616	62	4166
2026-01-21 08:03:50.20	44.59	41.90	-45.7	-47.0	20.7	0.00e+00	0	40	0	700448768	62	4299
2026-01-21 08:03:51.21	44.09	41.92	-46.2	-47.5	20.2	0.00e+00	0	40	0	702545920	62	4589
2026-01-21 08:03:52.21	43.60	41.93	-46.5	-47.9	19.8	0.00e+00	0	40	0	704643072	63	4539
2026-01-21 08:03:53.22	43.10	41.94	-46.6	-48.1	19.7	0.00e+00	0	40	0	705691648	63	4605
2026-01-21 08:03:54.23	42.60	41.95	-46.4	-47.8	19.9	0.00e+00	0	40	0	707788800	64	4213
2026-01-21 08:03:55.24	42.10	41.95	-46.4	-47.8	19.8	0.00e+00	0	40	0	709885952	64	4217
2026-01-21 08:03:56.24	41.61	41.95	-46.6	-48.1	19.6	0.00e+00	0	40	0	711983104	64	4350
2026-01-21 08:03:57.25	41.11	41.95	-46.7	-48.2	19.5	0.00e+00	0	40	0	714080256	64	4407
2026-01-21 08:03:58.26	40.62	41.95	-46.9	-48.4	19.2	0.00e+00	0	40	0	715128832	64	4516
2026-01-21 08:03:59.27	40.12	41.95	-47.1	-48.7	19.0	0.00e+00	0	40	0	717225984	64	4678
2026-01-21 08:04:00.28	39.62	41.94	-47.2	-48.8	18.9	0.00e+00	0	40	0	719323136	65	4462
2026-01-21 08:04:01.28	39.13	41.93	-47.3	-48.9	18.8	0.00e+00	0	40	0	721420288	65	4506
2026-01-21 08:04:02.29	38.63	41.92	-47.3	-48.9	18.8	0.00e+00	0	40	0	723517440	65	4507
2026-01-21 08:04:03.30	38.13	41.91	-47.4	-49.1	18.6	0.00e+00	0	40	0	724566016	65	4599
2026-01-21 08:04:04.31	37.64	41.89	-47.4	-49.1	18.6	0.00e+00	0	40	0	726663168	65	4623
2026-01-21 08:04:05.32	37.14	41.87	-47.4	-49.0	18.7	0.00e+00	0	40	0	728760320	65	4595
2026-01-21 08:04:06.32	36.65	41.85	-47.5	-49.2	18.6	0.00e+00	0	40	0	730857472	65	4666
2026-01-21 08:04:07.33	36.16	41.82	-47.9	-49.7	18.0	0.00e+00	0	40	0	732954624	66	4671
2026-01-21 08:04:08.34	35.67	41.80	-48.1	-49.9	17.8	0.00e+00	0	40	0	735051776	66	4798
2026-01-21 08:04:09.35	35.17	41.77	-48.5	-50.5	17.2	0.00e+00	0	40	0	736100352	67	4870
2026-01-21 08:04:10.36	34.68	41.74	-48.8	-50.9	17.0	0.00e+00	0	40	0	738197504	68	4789
2026-01-21 08:04:11.37	34.19	41.70	-49.0	-51.2	16.6	0.00e+00	0	40	0	740294656	68	4977
2026-01-21 08:04:12.37	33.71	41.67	-49.1	-51.3	16.6	0.00e+00	0	40	0	742391808	68	5018
2026-01-21 08:04:13.38	33.22	41.63	-49.0	-51.2	16.6	0.00e+00	0	39	0	743440384	68	4983
2026-01-21 08:04:14.39	32.73	41.59	-49.1	-51.4	16.4	0.00e+00	0	40	0	745537536	69	4780
2026-01-21 08:04:15.40	32.24	41.55	-49.2	-51.5	16.4	0.00e+00	0	40	0	747634688	69	4830
2026-01-21 08:04:16.40	31.76	41.50	-49.1	-51.3	16.5	0.00e+00	0	40	0	749731840	69	4733
2026-01-21 08:04:17.41	31.28	41.46	-49.2	-51.5	16.3	0.00e+00	0	40	0	751828992	69	4855
2026-01-21 08:04:18.42	30.80	41.41	-49.5	-51.9	16.0	0.00e+00	0	40	0	752877568	69	5098
2026-01-21 08:04:19.43	30.32	41.35	-49.6	-52.2	15.8	0.00e+00	0	40	0	754974720	70	4934
2026-01-21 08:04:20.44	29.84	41.30	-49.2	-51.6	16.2	0.00e+00	0	40	0	757071872	70	4612
2026-01-21 08:04:21.45	29.36	41.24	-48.8	-50.9	16.9	0.00e+00	0	40	0	759169024	69	4526
2026-01-21 08:04:22.45	28.89	41.19	-48.6	-50.6	17.2	0.00e+00	0	40	0	761266176	68	4632
2026-01-21 08:04:23.46	28.42	41.13	-48.1	-49.9	17.9	0.00e+00	0	40	0	763363328	68	4264
2026-01-21 08:04:24.47	27.95	41.06	-47.8	-49.6	18.2	0.00e+00	0	40	0	764411904	67	4343
2026-01-21 08:04:25.48	27.48	41.00	-47.6	-49.3	18.4	0.00e+00	0	40	0	766509056	67	4217
2026-01-21 08:04:26.48	27.01	40.93	-47.3	-49.0	18.8	0.00e+00	0	40	0	768606208	66	4295
2026-01-21 08:04:27.49	26.55	40.87	-46.9	-48.4	19.2	0.00e+00	0	40	0	770703360	65	4287
2026-01-21 08:04:28.50	26.08	40.80	-46.5	-47.9	19.8	0.00e+00	0	40	0	771751936	65	4011
2026-01-21 08:04:29.51	25.62	40.72	-46.4	-47.8	19.9	0.00e+00	0	40	0	773849088	64	4204
2026-01-21 08:04:30.52	25.16	40.65	-46.4	-47.7	19.9	0.00e+00	0	40	0	775946240	64	4186
2026-01-21 08:04:31.53	24.70	40.57	-46.2	-47.6	20.1	0.00e+00	0	40	0	778043392	64	4102
2026-01-21 08:04:32.53	24.25	40.49	-46.3	-47.7	20.0	0.00e+00	0	40	0	780140544	64	4178
2026-01-21 08:04:33.54	23.80	40.41	-46.0	-47.3	20.4	0.00e+00	0	40	0	782237696	63	4214
2026-01-21 08:04:34.55	23.35	40.33	-45.5	-46.7	21.0	0.00e+00	0	40	0	783286272	62	4154
2026-01-21 08:04:35.56	22.90	40.25	-45.2	-46.4	21.4	0.00e+00	0	40	0	785383424	62	4022
2026-01-21 08:04:36.57	22.45	40.16	-45.1	-46.2	21.5	0.00e+00	0	40	0	787480576	62	3947
2026-01-21 08:04:37.57	22.02	40.08	-45.2	-46.3	21.4	0.00e+00	0	40	0	789577728	62	3990
2026-01-21 08:04:38.58	21.57	39.99	-45.2	-46.3	21.4	0.00e+00	0	40	0	791674880	62	3998
2026-01-21 08:04:39.58	21.14	39.90	-44.8	-45.9	21.7	0.00e+00	0	40	0	792723456	61	4029
2026-01-21 08:04:40.59	20.70	39.80	-44.5	-45.6	22.0	0.00e+00	0	40	0	794820608	61	3905
2026-01-21 08:04:41.60	20.27	39.71	-44.3	-45.4	22.2	0.00e+00	0	40	0	796917760	60	4025
2026-01-21 08:04:42.61	19.84	39.61	-44.3	-45.4	22.3	0.00e+00	0	39	0	799014912	60	4007
2026-01-21 08:04:43.62	19.41	39.52	-44.1	-45.1	22.4	0.00e+00	0	40	0	800063488	60	3902
2026-01-21 08:04:44.62	18.99	39.42	-44.3	-45.4	22.5	0.00e+00	0	40	0	802160640	59	4256
2026-01-21 08:04:45.63	18.56	39.32	-44.4	-45.5	22.5	0.00e+00	0	40	0	804257792	59	4299
2026-01-21 08:04:46.64	18.14	39.22	-44.7	-45.8	22.2	0.00e+00	0	40	0	806354944	59	4451
2026-01-21 08:04:47.65	17.72	39.11	-44.7	-45.7	22.2	0.00e+00	0	40	0	808452096	59	4440
2026-01-21 08:04:48.65	17.31	39.01	-44.6	-45.7	22.2	0.00e+00	0	40	0	810549248	59	4393
2026-01-21 08:04:49.66	16.90	38.90	-44.5	-45.5	22.4	0.00e+00	0	40	0	811597824	59	4328
2026-01-21 08:04:50.67	16.49	38.80	-44.3	-45.3	22.5	0.00e+00	0	40	0	813694976	59	4216
2026-01-21 08:04:51.68	16.08	38.69	-44.3	-45.3	22.6	0.00e+00	0	40	0	815792128	59	4219
2026-01-21 08:04:52.69	15.68	38.58	-44.3	-45.3	22.6	0.00e+00	0	40	0	817889280	59	4233
2026-01-21 08:04:53.70	15.27	38.47	-44.5	-45.6	22.3	0.00e+00	0	40	0	819986432	59	4366
2026-01-21 08:04:54.71	14.87	38.35	-44.6	-45.7	22.2	0.00e+00	0	40	0	821035008	59	4393
2026-01-21 08:04:55.71	14.48	38.24	-44.7	-45.7	22.2	0.00e+00	0	40	0	823132160	59	4432
2026-01-21 08:04:56.72	14.09	38.13	-44.3	-45.4	22.2	0.00e+00	0	40	0	825229312	60	4019
2026-01-21 08:04:57.73	13.70	38.01	-44.4	-45.4	22.1	0.00e+00	0	40	0	827326464	60	4051
2026-01-21 08:04:58.73	13.31	37.90	-44.4	-45.4	22.2	0.00e+00	0	40	0	829423616	60	4040
2026-01-21 08:04:59.74	12.93	37.78	-44.4	-45.5	22.1	0.00e+00	0	40	0	830472192	60	4059
2026-01-21 08:05:00.75	12.54	37.66	-44.4	-45.5	22.1	0.00e+00	0	39	0	832569344	60	4061
2026-01-21 08:05:01.76	12.16	37.54	-44.5	-45.5	22.1	0.00e+00	0	39	0	834666496	60	4089
2026-01-21 08:05:02.77	11.79	37.42	-44.6	-45.7	21.9	0.00e+00	0	40	0	836763648	60	4160
2026-01-21 08:05:03.77	11.42	37.30	-44.6	-45.7	21.9	0.00e+00	0	39	0	838860800	60	4172
2026-01-21 08:05:04.78	11.05	37.17	-44.4	-45.5	22.1	0.00e+00	0	40	0	839909376	60	4072
2026-01-21 08:05:05.79	10.68	37.05	-44.6	-45.6	21.9	0.00e+00	0	40	0	842006528	60	4143
2026-01-21 08:05:06.80	10.31	36.92	-44.7	-45.9	21.8	0.00e+00	0	40	0	844103680	60	4243
2026-01-21 08:05:07.81	9.95	36.80	-44.8	-45.9	21.7	0.00e+00	0	40	0	846200832	60	4279
2026-01-21 08:05:08.81	9.59	36.67	-44.9	-46.1	21.6	0.00e+00	0	40	0	848297984	60	4362
2026-01-21 08:05:09.82	9.24	36.54	-45.0	-46.2	21.4	0.00e+00	0	40	0	849346560	60	4413
2026-01-21 08:05:10.83	8.88	36.42	-45.0	-46.2	21.5	0.00e+00	0	40	0	851443712	60	4401
2026-01-21 08:05:11.84	8.53	36.29	-45.0	-46.2	21.4	0.00e+00	0	40	0	853540864	60	4402
2026-01-21 08:05:12.85	8.18	36.16	-45.0	-46.2	21.5	0.00e+00	0	40	0	855638016	60	4400
2026-01-21 08:05:13.85	7.84	36.03	-45.3	-46.5	21.2	0.00e+00	0	40	0	857735168	61	4304
2026-01-21 08:05:14.86	7.50	35.90	-45.3	-46.5	21.1	0.00e+00	0	40	0	858783744	61	4305
2026-01-21 08:05:15.86	7.16	35.77	-45.6	-46.8	20.9	0.00e+00	0	40	0	860880896	61	4483
2026-01-21 08:05:16.87	6.82	35.64	-45.5	-46.8	20.9	0.00e+00	0	40	0	862978048	61	4454
2026-01-21 08:05:17.88	6.49	35.50	-45.6	-46.8	20.8	0.00e+00	0	40	0	865075200	61	4472
2026-01-21 08:05:18.89	6.15	35.37	-45.8	-47.1	20.6	0.00e+00	0	40	0	867172352	62	4356
2026-01-21 08:05:19.90	5.83	35.24	-46.1	-47.5	20.3	0.00e+00	0	40	0	868220928	62	4557
2026-01-21 08:05:20.91	5.50	35.10	-46.2	-47.6	20.1	0.00e+00	0	40	0	870318080	63	4365
2026-01-21 08:05:21.91	5.18	34.97	-46.3	-47.7	20.0	0.00e+00	0	40	0	872415232	63	4436
2026-01-21 08:05:22.92	4.86	34.83	-46.2	-47.6	20.1	0.00e+00	0	40	0	874512384	63	4369
2026-01-21 08:05:23.93	4.54	34.70	-46.3	-47.7	20.1	0.00e+00	0	40	0	876609536	63	4405
2026-01-21 08:05:24.93	4.22	34.56	-46.3	-47.7	20.0	0.00e+00	0	40	0	878706688	63	4433
2026-01-21 08:05:25.94	3.91	34.43	-46.4	-47.8	20.0	0.00e+00	0	40	0	879755264	63	4449
2026-01-21 08:05:26.95	3.60	34.29	-46.5	-47.9	19.8	0.00e+00	0	40	0	881852416	63	4535
2026-01-21 08:05:27.96	3.29	34.15	-46.6	-48.1	19.4	0.00e+00	0	40	0	883949568	64	4361
2026-01-21 08:05:28.97	2.99	34.02	-46.7	-48.2	19.4	0.00e+00	0	40	0	886046720	64	4439
2026-01-21 08:05:29.97	2.69	33.88	-46.8	-48.3	19.3	0.00e+00	0	40	0	887095296	64	4465
2026-01-21 08:05:30.98	2.39	33.74	-46.9	-48.5	19.2	0.00e+00	0	40	0	889192448	64	4553
2026-01-21 08:05:31.99	2.09	33.60	-47.0	-48.6	19.1	0.00e+00	0	40	0	891289600	64	4603
2026-01-21 08:05:33.00	1.79	33.46	-47.3	-48.9	18.8	0.00e+00	0	40	0	893386752	65	4511
2026-01-21 08:05:34.01	1.50	33.32	-47.5	-49.2	18.4	0.00e+00	0	40	0	895483904	65	4705
2026-01-21 08:05:35.01	1.21	33.19	-47.6	-49.4	18.3	0.00e+00	0	40	0	896532480	65	4767
2026-01-21 08:05:36.02	0.93	33.05	-47.8	-49.6	18.1	0.00e+00	0	40	0	898629632	66	4609
2026-01-21 08:05:37.03	0.64	32.91	-47.9	-49.7	18.0	0.00e+00	0	40	0	900726784	66	4684
2026-01-21 08:05:38.04	0.36	32.77	-47.9	-49.7	18.0	0.00e+00	0	40	0	902823936	66	4691
2026-01-21 08:05:39.05	0.08	32.63	-48.0	-49.9	17.8	0.00e+00	0	40	0	904921088	66	4792
2026-01-21 08:05:40.06	359.80	32.49	-47.9	-49.7	17.9	0.00e+00	0	40	0	907018240	66	4678
2026-01-21 08:05:41.07	359.53	32.35	-48.1	-49.9	17.7	0.00e+00	0	40	0	908066816	66	4808
2026-01-21 08:05:42.07	359.26	32.21	-48.2	-50.2	17.5	0.00e+00	0	40	0	910163968	67	4666
2026-01-21 08:05:43.08	358.98	32.07	-48.3	-50.3	17.3	0.00e+00	0	40	0	912261120	67	4715
2026-01-21 08:05:44.09	358.72	31.93	-48.3	-50.2	17.5	0.00e+00	0	40	0	914358272	67	4670
2026-01-21 08:05:45.09	358.45	31.79	-48.1	-49.9	17.7	0.00e+00	0	40	0	915406848	67	4540
2026-01-21 08:05:46.10	358.19	31.65	-48.0	-49.9	17.8	0.00e+00	0	40	0	917504000	67	4496
2026-01-21 08:05:47.11	357.93	31.51	-48.2	-50.2	17.5	0.00e+00	0	40	0	919601152	67	4656
2026-01-21 08:05:48.12	357.67	31.37	-48.3	-50.2	17.5	0.00e+00	0	40	0	921698304	67	4672
2026-01-21 08:05:49.13	357.41	31.23	-48.3	-50.3	17.3	0.00e+00	0	40	0	923795456	67	4734
2026-01-21 08:05:50.13	357.16	31.09	-48.2	-50.0	17.6	0.00e+00	0	40	0	925892608	67	4592
2026-01-21 08:05:51.14	356.91	30.95	-48.1	-49.9	17.7	0.00e+00	0	40	0	926941184	67	4539
2026-01-21 08:05:52.15	356.66	30.81	-47.9	-49.7	17.9	0.00e+00	0	40	0	929038336	67	4436
2026-01-21 08:05:53.15	356.41	30.67	-47.7	-49.4	18.3	0.00e+00	0	40	0	931135488	67	4251
2026-01-21 08:05:54.16	356.17	30.53	-47.5	-49.2	18.4	0.00e+00	0	40	0	933232640	67	4178
2026-01-21 08:05:55.17	355.92	30.39	-47.6	-49.3	18.2	0.00e+00	0	40	0	935329792	67	4241
2026-01-21 08:05:56.18	355.68	30.25	-47.5	-49.2	18.4	0.00e+00	0	40	0	936378368	67	4186
2026-01-21 08:05:57.19	355.44	30.11	-47.5	-49.2	18.4	0.00e+00	0	40	0	938475520	67	4165
2026-01-21 08:05:58.19	355.21	29.97	-47.3	-49.0	18.6	0.00e+00	0	40	0	940572672	66	4297
2026-01-21 08:05:59.20	354.97	29.84	-47.3	-49.0	18.6	0.00e+00	0	40	0	942669824	66	4309
2026-01-21 08:06:00.20	354.74	29.70	-47.4	-49.1	18.5	0.00e+00	0	40	0	943718400	66	4343
2026-01-21 08:06:01.21	354.51	29.56	-47.2	-48.8	18.8	0.00e+00	0	40	0	945815552	66	4203
2026-01-21 08:06:02.22	354.28	29.42	-47.0	-48.6	19.0	0.00e+00	0	40	0	947912704	66	4117
2026-01-21 08:06:03.23	354.05	29.28	-46.8	-48.3	19.3	0.00e+00	0	40	0	950009856	65	4232
2026-01-21 08:06:04.24	353.83	29.14	-46.6	-48.1	19.5	0.00e+00	0	40	0	952107008	65	4108
2026-01-21 08:06:05.25	353.60	29.00	-46.6	-48.1	19.5	0.00e+00	0	40	0	954204160	65	4104
2026-01-21 08:06:06.25	353.39	28.87	-46.5	-47.9	19.7	0.00e+00	0	40	0	955252736	64	4278
2026-01-21 08:06:07.26	353.17	28.73	-46.2	-47.6	19.9	0.00e+00	0	40	0	957349888	64	4134
2026-01-21 08:06:08.27	352.95	28.59	-46.3	-47.7	19.8	0.00e+00	0	40	0	959447040	64	4188
2026-01-21 08:06:09.28	352.73	28.45	-46.3	-47.7	19.8	0.00e+00	0	40	0	961544192	64	4193
2026-01-21 08:06:10.28	352.52	28.32	-46.3	-47.7	19.8	0.00e+00	0	40	0	963641344	64	4191
2026-01-21 08:06:11.29	352.31	28.18	-46.3	-47.7	19.8	0.00e+00	0	40	0	964689920	64	4179
2026-01-21 08:06:12.30	352.10	28.04	-46.4	-47.8	19.7	0.00e+00	0	40	0	966787072	64	4219
2026-01-21 08:06:13.31	351.89	27.90	-46.4	-47.8	19.7	0.00e+00	0	40	0	968884224	64	4214
2026-01-21 08:06:14.32	351.68	27.77	-46.2	-47.6	19.9	0.00e+00	0	40	0	970981376	64	4123
2026-01-21 08:06:15.32	351.48	27.63	-46.0	-47.4	20.1	0.00e+00	0	40	0	973078528	64	4027
2026-01-21 08:06:16.33	351.28	27.50	-46.1	-47.5	20.0	0.00e+00	0	40	0	974127104	64	4069
2026-01-21 08:06:17.34	351.08	27.36	-46.0	-47.4	20.2	0.00e+00	0	40	0	976224256	63	4250
2026-01-21 08:06:18.35	350.88	27.23	-46.1	-47.5	20.1	0.00e+00	0	40	0	978321408	63	4306
2026-01-21 08:06:19.36	350.68	27.09	-46.2	-47.6	20.0	0.00e+00	0	40	0	980418560	63	4378
2026-01-21 08:06:20.37	350.48	26.96	-46.4	-47.9	19.7	0.00e+00	0	40	0	982515712	63	4497
2026-01-21 08:06:21.37	350.29	26.82	-46.5	-48.0	19.6	0.00e+00	0	40	0	983564288	63	4564
2026-01-21 08:06:22.38	350.10	26.69	-46.5	-48.0	19.7	0.00e+00	0	40	0	985661440	63	4546
2026-01-21 08:06:23.38	349.91	26.56	-46.5	-47.9	19.7	0.00e+00	0	40	0	987758592	63	4514
2026-01-21 08:06:24.39	349.72	26.42	-46.4	-47.9	19.7	0.00e+00	0	40	0	989855744	63	4501
2026-01-21 08:06:25.40	349.53	26.29	-46.3	-47.7	19.9	0.00e+00	0	40	0	991952896	63	4435
2026-01-21 08:06:26.41	349.35	26.16	-46.1	-47.5	20.1	0.00e+00	0	40	0	993001472	63	4315
2026-01-21 08:06:27.41	349.16	26.02	-46.2	-47.6	20.0	0.00e+00	0	40	0	995098624	63	4366
2026-01-21 08:06:28.42	348.98	25.89	-46.1	-47.5	20.1	0.00e+00	0	40	0	997195776	63	4312
2026-01-21 08:06:29.43	348.80	25.76	-46.1	-47.5	20.1	0.00e+00	0	40	0	999292928	63	4307
2026-01-21 08:06:30.44	348.62	25.63	-46.1	-47.5	20.1	0.00e+00	0	40	0	1001390080	63	4292
2026-01-21 08:06:31.45	348.44	25.50	-46.3	-47.7	19.9	0.00e+00	0	40	0	1002438656	63	4403
2026-01-21 08:06:32.45	348.26	25.37	-46.3	-47.7	19.9	0.00e+00	0	40	0	1004535808	63	4418
2026-01-21 08:06:33.46	348.09	25.24	-46.5	-47.9	19.7	0.00e+00	0	40	0	1006632960	63	4534
2026-01-21 08:06:34.47	347.91	25.11	-46.6	-48.0	19.5	0.00e+00	0	40	0	1008730112	63	4595
2026-01-21 08:06:35.48	347.74	24.98	-46.6	-48.1	19.5	0.00e+00	0	40	0	1010827264	63	4624
2026-01-21 08:06:36.49	347.57	24.85	-46.7	-48.1	19.4	0.00e+00	0	40	0	1011875840	63	4643
2026-01-21 08:06:37.49	347.40	24.72	-46.7	-48.2	19.4	0.00e+00	0	40	0	1013972992	63	4671
2026-01-21 08:06:38.50	347.23	24.59	-46.7	-48.2	19.3	0.00e+00	0	40	0	1016070144	64	4395
2026-01-21 08:06:39.51	347.07	24.46	-46.5	-48.0	19.5	0.00e+00	0	40	0	1018167296	64	4306
2026-01-21 08:06:40.52	346.90	24.33	-46.6	-48.0	19.4	0.00e+00	0	40	0	1020264448	64	4333
2026-01-21 08:06:41.53	346.74	24.21	-46.5	-48.0	19.3	0.00e+00	0	40	0	1021313024	64	4333
2026-01-21 08:06:42.53	346.58	24.08	-46.5	-48.0	19.5	0.00e+00	0	40	0	1023410176	64	4300
2026-01-21 08:06:43.54	346.41	23.95	-46.4	-47.8	19.6	0.00e+00	0	40	0	1025507328	64	4236
2026-01-21 08:06:44.55	346.25	23.83	-46.5	-48.0	19.5	0.00e+00	0	40	0	1027604480	64	4300
2026-01-21 08:06:45.56	346.10	23.70	-46.5	-48.0	19.5	0.00e+00	0	39	0	1029701632	64	4309
2026-01-21 08:06:46.57	345.94	23.57	-46.4	-47.9	19.6	0.00e+00	0	40	0	1030750208	64	4249
2026-01-21 08:06:47.58	345.78	23.45	-46.5	-48.0	19.5	0.00e+00	0	40	0	1032847360	64	4299
2026-01-21 08:06:48.59	345.63	23.32	-46.3	-47.8	19.6	0.00e+00	0	40	0	1034944512	64	4201
2026-01-21 08:06:49.59	345.47	23.20	-46.1	-47.5	19.9	0.00e+00	0	40	0	1037041664	64	4074
2026-01-21 08:06:50.60	345.32	23.07	-46.1	-47.5	19.9	0.00e+00	0	40	0	1039138816	64	4071
2026-01-21 08:06:51.61	345.17	22.95	-46.1	-47.4	20.0	0.00e+00	0	40	0	1040187392	64	4036
2026-01-21 08:06:52.62	345.02	22.83	-46.1	-47.5	19.9	0.00e+00	0	40	0	1042284544	64	4079
2026-01-21 08:06:53.62	344.87	22.70	-46.1	-47.4	19.9	0.00e+00	0	40	0	1044381696	64	4049
2026-01-21 08:06:54.63	344.73	22.58	-46.3	-47.8	19.6	0.00e+00	0	40	0	1046478848	64	4203
2026-01-21 08:06:55.64	344.58	22.46	-46.4	-47.9	19.5	0.00e+00	0	40	0	1048576000	64	4258
2026-01-21 08:06:56.64	344.44	22.34	-46.5	-48.0	19.4	0.00e+00	0	40	0	1049624576	64	4303
2026-01-21 08:06:57.65	344.29	22.22	-46.6	-48.1	19.4	0.00e+00	0	40	0	1051721728	64	4345
2026-01-21 08:06:58.66	344.15	22.09	-46.6	-48.1	19.3	0.00e+00	0	40	0	1053818880	64	4363
2026-01-21 08:06:59.67	344.01	21.97	-46.6	-48.1	19.3	0.00e+00	0	40	0	1055916032	64	4357
2026-01-21 08:07:00.68	343.87	21.85	-46.6	-48.2	19.2	0.00e+00	0	40	0	1058013184	64	4412
2026-01-21 08:07:01.68	343.73	21.73	-46.7	-48.2	19.2	0.00e+00	0	40	0	1059061760	64	4420
2026-01-21 08:07:02.69	343.59	21.61	-46.6	-48.1	19.3	0.00e+00	0	40	0	1061158912	64	4353
2026-01-21 08:07:03.70	343.45	21.49	-46.6	-48.1	19.3	0.00e+00	0	40	0	1063256064	64	4355
2026-01-21 08:07:04.71	343.31	21.37	-46.6	-48.1	19.2	0.00e+00	0	40	0	1065353216	64	4388
2026-01-21 08:07:05.72	343.18	21.26	-46.5	-48.1	19.3	0.00e+00	0	40	0	1067450368	64	4345
2026-01-21 08:07:06.72	343.05	21.14	-46.5	-48.0	19.4	0.00e+00	0	40	0	1068498944	64	4292
2026-01-21 08:07:07.73	342.91	21.02	-46.4	-47.9	19.5	0.00e+00	0	40	0	1070596096	64	4248
2026-01-21 08:07:08.74	342.78	20.90	-46.3	-47.7	19.6	0.00e+00	0	40	0	1072693248	64	4181
2026-01-21 08:07:09.75	342.65	20.79	-46.1	-47.5	19.8	0.00e+00	0	40	0	1074790400	64	4085
2026-01-21 08:07:10.75	342.52	20.67	-46.2	-47.6	19.8	0.00e+00	0	40	0	1076887552	64	4118
2026-01-21 08:07:11.76	342.39	20.55	-46.1	-47.4	19.9	0.00e+00	0	40	0	1077936128	64	4048
2026-01-21 08:07:12.77	342.26	20.44	-46.2	-47.6	19.8	0.00e+00	0	40	0	1080033280	64	4116
2026-01-21 08:07:13.78	342.14	20.32	-46.1	-47.5	19.8	0.00e+00	0	40	0	1082130432	64	4086
2026-01-21 08:07:14.79	342.01	20.21	-46.2	-47.7	19.7	0.00e+00	0	40	0	1084227584	64	4158
2026-01-21 08:07:15.79	341.89	20.09	-46.3	-47.8	19.6	0.00e+00	0	40	0	1086324736	64	4205
2026-01-21 08:07:16.80	341.76	19.98	-46.3	-47.8	19.5	0.00e+00	0	40	0	1087373312	64	4222
2026-01-21 08:07:17.81	341.64	19.86	-46.4	-47.9	19.5	0.00e+00	0	40	0	1089470464	64	4245
2026-01-21 08:07:18.82	341.52	19.75	-46.4	-47.8	19.5	0.00e+00	0	40	0	1091567616	64	4238
2026-01-21 08:07:19.82	341.40	19.64	-46.4	-47.9	19.5	0.00e+00	0	40	0	1093664768	64	4245
2026-01-21 08:07:20.83	341.28	19.52	-46.3	-47.8	19.5	0.00e+00	0	40	0	1095761920	64	4219
2026-01-21 08:07:21.84	341.16	19.41	-46.2	-47.7	19.6	0.00e+00	0	40	0	1097859072	64	4166
2026-01-21 08:07:22.85	341.04	19.30	-46.2	-47.6	19.7	0.00e+00	0	40	0	1098907648	64	4119
2026-01-21 08:07:23.86	340.92	19.19	-46.2	-47.7	19.7	0.00e+00	0	40	0	1101004800	64	4147
2026-01-21 08:07:24.87	340.80	19.08	-46.2	-47.6	19.7	0.00e+00	0	40	0	1103101952	64	4133
2026-01-21 08:07:25.87	340.69	18.97	-46.2	-47.7	19.6	0.00e+00	0	40	0	1105199104	64	4157
2026-01-21 08:07:26.88	340.57	18.86	-46.1	-47.5	19.8	0.00e+00	0	40	0	1106247680	64	4068
2026-01-21 08:07:27.89	340.46	18.75	-46.0	-47.4	19.4	0.00e+00	0	40	0	1108344832	64	4031
2026-01-21 08:07:28.90	340.35	18.64	-46.1	-47.5	19.9	0.00e+00	0	40	0	1110441984	63	4318
2026-01-21 08:07:29.91	340.23	18.53	-46.1	-47.5	19.9	0.00e+00	0	40	0	1112539136	63	4309
2026-01-21 08:07:30.91	340.12	18.42	-46.2	-47.6	19.8	0.00e+00	0	40	0	1114636288	63	4347
2026-01-21 08:07:31.92	340.01	18.31	-46.1	-47.5	19.9	0.00e+00	0	40	0	1115684864	63	4315
2026-01-21 08:07:32.93	339.90	18.20	-46.1	-47.5	19.9	0.00e+00	0	40	0	1117782016	63	4313
2026-01-21 08:07:33.93	339.79	18.09	-46.2	-47.6	19.7	0.00e+00	0	40	0	1119879168	63	4389
2026-01-21 08:07:34.94	339.68	17.98	-46.3	-47.7	19.6	0.00e+00	0	40	0	1121976320	63	4420
2026-01-21 08:07:35.95	339.58	17.88	-46.4	-47.9	19.5	0.00e+00	0	40	0	1124073472	63	4502
2026-01-21 08:07:36.96	339.47	17.77	-46.4	-47.9	19.5	0.00e+00	0	40	0	1126170624	63	4525
2026-01-21 08:07:37.97	339.36	17.66	-46.5	-48.0	19.3	0.00e+00	0	40	0	1127219200	63	4587
2026-01-21 08:07:38.97	339.26	17.56	-46.5	-48.0	19.3	0.00e+00	0	40	0	1129316352	63	4596
2026-01-21 08:07:39.98	339.15	17.45	-46.6	-48.2	19.2	0.00e+00	0	40	0	1131413504	63	4665
2026-01-21 08:07:40.99	339.05	17.35	-46.7	-48.2	19.0	0.00e+00	0	40	0	1133510656	64	4433
2026-01-21 08:07:42.00	338.95	17.24	-46.6	-48.1	19.1	0.00e+00	0	40	0	1134559232	64	4378
2026-01-21 08:07:43.01	338.85	17.14	-46.6	-48.1	19.1	0.00e+00	0	40	0	1136656384	64	4382
2026-01-21 08:07:44.01	338.74	17.03	-46.5	-48.1	19.2	0.00e+00	0	40	0	1138753536	64	4352
2026-01-21 08:07:45.02	338.64	16.93	-46.4	-48.0	19.3	0.00e+00	0	40	0	1140850688	64	4298
2026-01-21 08:07:46.03	338.54	16.82	-46.5	-48.0	19.3	0.00e+00	0	40	0	1142947840	64	4302
2026-01-21 08:07:47.04	338.44	16.72	-46.5	-48.0	19.2	0.00e+00	0	40	0	1145044992	64	4320
2026-01-21 08:07:48.05	338.35	16.62	-46.3	-47.8	19.4	0.00e+00	0	40	0	1146093568	64	4230
2026-01-21 08:07:49.05	338.25	16.51	-46.4	-47.9	19.3	0.00e+00	0	40	0	1148190720	64	4287
2026-01-21 08:07:50.06	338.15	16.41	-46.5	-48.0	19.2	0.00e+00	0	40	0	1150287872	64	4305
2026-01-21 08:07:51.07	338.05	16.31	-46.4	-47.9	19.3	0.00e+00	0	40	0	1152385024	64	4275
2026-01-21 08:07:52.07	337.96	16.21	-46.5	-48.0	19.2	0.00e+00	0	40	0	1154482176	64	4335
2026-01-21 08:07:53.08	337.86	16.11	-46.5	-48.0	19.2	0.00e+00	0	40	0	1155530752	64	4315
2026-01-21 08:07:54.09	337.77	16.01	-46.5	-48.0	19.2	0.00e+00	0	40	0	1157627904	64	4314
2026-01-21 08:07:55.10	337.67	15.91	-46.6	-48.1	19.1	0.00e+00	0	40	0	1159725056	64	4361
2026-01-21 08:07:56.11	337.58	15.80	-46.6	-48.2	19.0	0.00e+00	0	40	0	1161822208	64	4405
2026-01-21 08:07:57.11	337.49	15.71	-46.6	-48.2	19.0	0.00e+00	0	40	0	1163919360	64	4422
2026-01-21 08:07:58.12	337.40	15.61	-46.7	-48.2	18.9	0.00e+00	0	40	0	1164967936	64	4440
2026-01-21 08:07:59.13	337.31	15.51	-46.7	-48.3	18.9	0.00e+00	0	40	0	1167065088	64	4476
2026-01-21 08:08:00.14	337.21	15.41	-46.7	-48.2	19.0	0.00e+00	0	40	0	1169162240	64	4429
2026-01-21 08:08:01.14	337.13	15.31	-46.7	-48.2	19.0	3.00e-06	0	40	0	1171259392	64	4433
2026-01-21 08:08:02.15	337.04	15.21	-46.6	-48.2	19.0	0.00e+00	0	40	0	1173356544	64	4420
2026-01-21 08:08:03.16	336.95	15.11	-46.6	-48.2	19.0	0.00e+00	0	40	0	1174405120	64	4411
2026-01-21 08:08:04.17	336.86	15.01	-46.5	-48.1	19.1	0.00e+00	0	40	0	1176502272	64	4356
2026-01-21 08:08:05.18	336.77	14.92	-46.6	-48.2	19.0	0.00e+00	0	40	0	1178599424	64	4416
2026-01-21 08:08:06.19	336.68	14.82	-46.6	-48.1	19.1	0.00e+00	0	40	0	1180696576	64	4374
2026-01-21 08:08:07.19	336.60	14.72	-46.6	-48.1	19.0	3.80e-06	0	40	0	1182793728	64	4389
2026-01-21 08:08:08.20	336.51	14.63	-46.6	-48.2	19.0	0.00e+00	0	40	0	1183842304	64	4417
2026-01-21 08:08:09.21	336.43	14.53	-46.7	-48.3	18.8	3.00e-06	0	40	0	1185939456	64	4468
2026-01-21 08:08:10.22	336.34	14.43	-46.8	-48.4	18.7	0.00e+00	0	40	0	1188036608	64	4544
2026-01-21 08:08:11.22	336.26	14.34	-46.7	-48.3	18.9	0.00e+00	0	40	0	1190133760	64	4488
2026-01-21 08:08:12.23	336.17	14.24	-46.6	-48.2	18.9	0.00e+00	0	40	0	1192230912	64	4424
2026-01-21 08:08:13.24	336.09	14.15	-46.7	-48.3	18.8	0.00e+00	0	40	0	1193279488	64	4479
2026-01-21 08:08:14.25	336.01	14.05	-46.9	-48.5	18.6	0.00e+00	0	40	0	1195376640	64	4579
2026-01-21 08:08:15.25	335.93	13.96	-46.8	-48.4	18.8	0.00e+00	0	40	0	1197473792	64	4507
2026-01-21 08:08:16.26	335.85	13.87	-46.9	-48.5	18.7	0.00e+00	0	40	0	1199570944	64	4590
2026-01-21 08:08:17.27	335.76	13.77	-46.9	-48.5	18.6	0.00e+00	0	40	0	1201668096	64	4576
2026-01-21 08:08:18.28	335.68	13.68	-47.0	-48.7	18.5	0.00e+00	0	40	0	1202716672	64	4667
2026-01-21 08:08:19.28	335.61	13.59	-46.9	-48.6	18.5	0.00e+00	0	40	0	1204813824	64	4611
2026-01-21 08:08:20.29	335.53	13.49	-47.1	-48.8	18.4	0.00e+00	0	40	0	1206910976	64	4708
2026-01-21 08:08:21.30	335.45	13.40	-47.0	-48.8	18.3	0.00e+00	0	40	0	1209008128	64	4707
2026-01-21 08:08:22.31	335.37	13.31	-47.1	-48.8	18.3	0.00e+00	0	40	0	1211105280	64	4739
2026-01-21 08:08:23.31	335.29	13.22	-47.2	-49.0	18.2	0.00e+00	0	40	0	1212153856	64	4815
2026-01-21 08:08:24.32	335.21	13.13	-47.2	-48.9	18.2	0.00e+00	0	40	0	1214251008	65	4540
2026-01-21 08:08:25.33	335.14	13.03	-47.2	-49.0	18.1	0.00e+00	0	40	0	1216348160	65	4574
2026-01-21 08:08:26.34	335.06	12.94	-47.3	-49.0	18.1	0.00e+00	0	40	0	1218445312	65	4590
2026-01-21 08:08:27.34	334.99	12.85	-47.1	-48.8	18.3	0.00e+00	0	40	0	1220542464	65	4473
2026-01-21 08:08:28.35	334.91	12.76	-47.2	-48.9	18.2	0.00e+00	0	40	0	1221591040	65	4521
2026-01-21 08:08:29.36	334.84	12.67	-47.1	-48.8	18.3	0.00e+00	0	40	0	1223688192	65	4455
2026-01-21 08:08:30.37	334.76	12.58	-47.2	-48.9	18.1	0.00e+00	0	40	0	1225785344	65	4545
2026-01-21 08:08:31.38	334.69	12.49	-46.9	-48.6	18.5	0.00e+00	0	40	0	1227882496	65	4366
2026-01-21 08:08:32.38	334.61	12.40	-47.0	-48.7	18.3	0.00e+00	0	40	0	1229979648	65	4439
2026-01-21 08:08:33.39	334.54	12.31	-47.0	-48.7	18.4	0.00e+00	0	40	0	1231028224	65	4420
2026-01-21 08:08:34.40	334.47	12.23	-46.9	-48.6	18.5	0.00e+00	0	40	0	1233125376	65	4356
2026-01-21 08:08:35.41	334.40	12.14	-47.0	-48.7	18.4	0.00e+00	0	40	0	1235222528	65	4399
2026-01-21 08:08:36.42	334.32	12.05	-46.9	-48.5	18.5	1.50e-06	0	40	0	1237319680	65	4320
2026-01-21 08:08:37.43	334.25	11.96	-47.0	-48.7	18.4	0.00e+00	0	40	0	1239416832	65	4405
