passes_logs/2026/01/21/R3.2S_Murmansk/R3.2S_Murmansk__20260121_052307_KANOPUS-V_5_rec.log

#Pass ID: 20260121_052307_KANOPUS-V 5
#Satellite: KANOPUS-V 5
#Configuration: KANOPUS-V_8320
#almurnet v.1.7.20251203
#Start time: 2026-01-21 05:23:08

#Version: 2.2.20231116
#Station: R3.2S_Murmansk
#Location: 33.079688 lon 68.888172 lat
#TLE: 1 43876U 18111A   26020.16250899  .00005594  00000+0  23751-3 0  9993
#TLE: 2 43876  97.3687 288.5833 0001817  87.9007 272.2438 15.23474018392259

#Time	Az	El	Level	Level2	SNR	BER	BlckErr	Temp	State	Recorded	gain1	gain2
2026-01-21 05:23:08.69	96.08	2.10	-54.9	-63.7	3.8	7.46e-01	0	39	0	0	80	10515
2026-01-21 05:23:09.70	95.99	2.16	-55.0	-63.9	3.8	7.45e-01	0	39	104	0	81	10086
2026-01-21 05:23:10.71	95.90	2.23	-55.0	-63.9	3.8	7.44e-01	0	39	104	0	81	10069
2026-01-21 05:23:11.72	95.81	2.29	-54.9	-63.8	3.8	7.44e-01	0	39	104	0	81	9980
2026-01-21 05:23:12.72	95.72	2.35	-54.9	-63.7	3.8	7.46e-01	0	39	104	0	81	9944
2026-01-21 05:23:13.73	95.63	2.41	-54.8	-63.7	3.8	7.45e-01	0	39	104	0	81	9868
2026-01-21 05:23:14.74	95.53	2.48	-54.8	-63.6	3.8	7.45e-01	0	39	104	0	81	9791
2026-01-21 05:23:15.75	95.44	2.54	-54.7	-63.6	3.8	7.45e-01	0	39	104	0	81	9759
2026-01-21 05:23:16.76	95.34	2.60	-54.7	-63.5	3.8	7.45e-01	0	39	104	0	81	9691
2026-01-21 05:23:17.77	95.25	2.67	-54.6	-63.5	3.8	7.45e-01	0	39	104	0	81	9644
2026-01-21 05:23:18.77	95.15	2.73	-54.5	-63.4	3.8	7.45e-01	0	39	104	0	81	9549
2026-01-21 05:23:19.78	95.06	2.79	-54.4	-63.3	3.8	7.45e-01	0	39	104	0	80	9951
2026-01-21 05:23:20.79	94.96	2.86	-54.3	-63.1	3.8	7.45e-01	0	39	104	0	80	9808
2026-01-21 05:23:21.80	94.87	2.92	-54.1	-63.0	3.8	7.46e-01	0	39	104	0	80	9639
2026-01-21 05:23:22.80	94.77	2.99	-54.0	-62.8	3.8	7.45e-01	0	39	104	0	80	9461
2026-01-21 05:23:23.81	94.67	3.05	-53.8	-62.7	3.8	7.44e-01	0	39	104	0	79	9834
2026-01-21 05:23:24.82	94.57	3.11	-53.6	-62.5	3.8	7.44e-01	0	39	104	0	79	9622
2026-01-21 05:23:25.83	94.47	3.18	-53.6	-62.4	3.8	7.46e-01	0	39	104	0	79	9539
2026-01-21 05:23:26.84	94.37	3.24	-53.5	-62.3	3.8	7.46e-01	0	39	104	0	79	9480
2026-01-21 05:23:27.84	94.27	3.31	-53.4	-62.2	3.8	7.46e-01	0	39	104	0	78	9857
2026-01-21 05:23:28.85	94.17	3.37	-53.2	-62.1	3.8	7.44e-01	0	39	104	0	78	9788
2026-01-21 05:23:29.86	94.07	3.44	-53.1	-62.0	3.8	7.43e-01	0	39	104	0	78	9611
2026-01-21 05:23:30.87	93.97	3.50	-53.1	-61.9	3.8	7.45e-01	0	40	104	0	78	9579
2026-01-21 05:23:31.88	93.86	3.57	-53.1	-61.9	3.8	7.45e-01	0	39	104	0	78	9603
2026-01-21 05:23:32.89	93.76	3.63	-53.1	-61.9	3.8	7.45e-01	0	39	104	0	78	9549
2026-01-21 05:23:33.90	93.66	3.70	-53.1	-61.9	3.8	7.46e-01	0	39	104	0	78	9569
2026-01-21 05:23:34.91	93.55	3.77	-53.1	-61.9	3.8	7.46e-01	0	40	104	0	78	9530
2026-01-21 05:23:35.91	93.45	3.83	-53.1	-61.9	3.8	7.44e-01	0	39	104	0	78	9571
2026-01-21 05:23:36.92	93.34	3.90	-53.1	-61.9	3.8	7.45e-01	0	40	104	0	78	9581
2026-01-21 05:23:37.93	93.23	3.96	-53.1	-61.9	3.8	7.46e-01	0	39	104	0	78	9543
2026-01-21 05:23:38.94	93.13	4.03	-53.1	-61.9	3.8	7.47e-01	0	40	104	0	78	9532
2026-01-21 05:23:39.95	93.02	4.10	-53.1	-61.9	3.8	7.45e-01	0	39	104	0	78	9575
2026-01-21 05:23:40.96	92.91	4.16	-53.1	-61.9	3.8	7.45e-01	0	39	104	0	78	9572
2026-01-21 05:23:41.97	92.80	4.23	-53.0	-61.8	3.8	7.44e-01	0	39	104	0	78	9400
2026-01-21 05:23:42.97	92.69	4.30	-52.9	-61.3	3.8	7.47e-01	0	39	104	0	77	9481
2026-01-21 05:23:43.98	92.58	4.36	-52.9	-61.0	3.8	7.45e-01	0	40	104	0	77	9131
2026-01-21 05:23:44.99	92.47	4.43	-52.8	-60.8	3.8	7.45e-01	0	40	104	0	77	8921
2026-01-21 05:23:46.00	92.36	4.50	-52.7	-60.5	3.8	7.44e-01	0	39	104	0	77	8654
2026-01-21 05:23:47.01	92.25	4.56	-52.5	-59.6	3.8	7.44e-01	0	40	104	0	77	7776
2026-01-21 05:23:48.01	92.13	4.63	-51.9	-57.9	4.3	7.30e-01	0	40	104	0	75	7140
2026-01-21 05:23:49.02	92.02	4.70	-50.6	-55.1	5.7	6.89e-01	0	40	0	14680064	73	5831
2026-01-21 05:23:50.03	91.91	4.77	-49.7	-53.4	7.2	6.58e-01	0	40	0	29360128	71	5377
2026-01-21 05:23:51.04	91.79	4.84	-48.4	-51.5	9.0	6.23e-01	0	40	0	46137344	68	5137
2026-01-21 05:23:52.05	91.67	4.90	-48.2	-51.2	9.5	6.23e-01	0	40	0	60817408	67	5256
2026-01-21 05:23:53.05	91.56	4.97	-47.7	-50.5	10.1	6.21e-01	0	40	0	75497472	67	4858
2026-01-21 05:23:54.06	91.44	5.04	-48.3	-51.2	9.4	6.26e-01	0	40	0	92274688	67	5275
2026-01-21 05:23:55.07	91.32	5.11	-48.1	-51.0	9.7	6.14e-01	0	40	0	106954752	67	5134
2026-01-21 05:23:56.08	91.20	5.18	-44.3	-46.4	14.2	6.02e-01	0	40	0	121634816	60	4496
2026-01-21 05:23:57.09	91.08	5.25	-52.9	-61.3	3.8	7.46e-01	0	40	104	134217728	76	10048
2026-01-21 05:23:58.09	90.97	5.31	-45.8	-48.1	12.7	6.00e-01	0	40	0	136314880	63	4630
2026-01-21 05:23:59.10	90.84	5.38	-48.2	-51.2	9.6	6.12e-01	0	40	0	150994944	67	5238
2026-01-21 05:24:00.11	90.72	5.45	-44.4	-46.5	14.0	5.99e-01	0	40	0	165675008	60	4579
2026-01-21 05:24:01.12	90.60	5.52	-44.1	-46.1	14.4	5.98e-01	0	40	0	182452224	59	4641
2026-01-21 05:24:02.13	90.48	5.59	-44.1	-46.2	14.4	5.99e-01	0	40	0	197132288	59	4677
2026-01-21 05:24:03.14	90.35	5.66	-44.1	-46.1	14.4	6.02e-01	0	40	0	211812352	59	4636
2026-01-21 05:24:04.14	90.23	5.73	-43.9	-46.0	14.6	5.97e-01	0	40	0	226492416	59	4563
2026-01-21 05:24:05.16	90.10	5.80	-43.6	-45.6	14.9	5.98e-01	0	40	0	243269632	59	4374
2026-01-21 05:24:06.16	89.98	5.87	-44.0	-46.0	14.6	5.99e-01	0	40	0	257949696	59	4568
2026-01-21 05:24:07.17	89.85	5.94	-44.0	-46.1	14.5	6.02e-01	0	40	0	272629760	59	4608
2026-01-21 05:24:08.18	89.72	6.01	-43.8	-45.8	14.8	6.01e-01	0	40	0	289406976	59	4443
2026-01-21 05:24:09.19	89.59	6.08	-43.7	-45.7	14.8	6.01e-01	0	40	0	306184192	59	4425
2026-01-21 05:24:10.20	89.46	6.15	-44.1	-46.1	14.5	6.04e-01	0	40	0	320864256	59	4632
2026-01-21 05:24:11.21	89.33	6.22	-43.7	-45.7	14.8	6.02e-01	0	40	0	335544320	59	4425
2026-01-21 05:24:12.21	89.20	6.29	-43.9	-46.0	14.6	6.02e-01	0	40	0	352321536	59	4562
2026-01-21 05:24:13.22	89.07	6.37	-43.9	-45.9	14.7	6.04e-01	0	40	0	367001600	59	4529
2026-01-21 05:24:14.23	88.94	6.44	-44.0	-46.0	14.6	6.02e-01	0	40	0	381681664	59	4568
2026-01-21 05:24:15.24	88.80	6.51	-43.6	-45.6	14.9	6.03e-01	0	40	0	398458880	59	4369
2026-01-21 05:24:16.25	88.67	6.58	-43.6	-45.6	15.0	5.99e-01	0	40	0	413138944	59	4362
2026-01-21 05:24:17.25	88.53	6.65	-43.5	-45.5	15.1	6.01e-01	0	40	0	427819008	58	4573
2026-01-21 05:24:18.26	88.40	6.72	-43.6	-45.6	14.9	6.02e-01	0	40	0	444596224	58	4650
2026-01-21 05:24:19.27	88.26	6.80	-43.5	-45.5	15.1	6.02e-01	0	40	0	459276288	58	4567
2026-01-21 05:24:20.28	88.12	6.87	-43.3	-45.3	15.3	6.01e-01	0	40	0	473956352	58	4460
2026-01-21 05:24:21.29	87.98	6.94	-43.2	-45.2	15.4	6.01e-01	0	40	0	490733568	58	4422
2026-01-21 05:24:22.30	87.84	7.01	-43.4	-45.4	15.2	6.02e-01	0	40	0	507510784	58	4533
2026-01-21 05:24:23.30	87.70	7.08	-43.1	-45.0	15.6	6.03e-01	0	40	0	522190848	58	4299
2026-01-21 05:24:24.31	87.56	7.16	-43.3	-45.3	15.4	5.99e-01	0	40	0	536870912	58	4442
2026-01-21 05:24:25.33	87.42	7.23	-43.2	-45.1	15.4	6.03e-01	0	40	0	553648128	58	4374
2026-01-21 05:24:26.34	87.27	7.30	-43.1	-45.0	15.6	5.98e-01	0	40	0	568328192	58	4324
2026-01-21 05:24:27.34	87.13	7.38	-43.0	-44.9	15.6	5.98e-01	0	40	0	583008256	57	4508
2026-01-21 05:24:28.35	86.99	7.45	-42.9	-44.8	15.7	5.96e-01	0	40	0	599785472	57	4477
2026-01-21 05:24:29.36	86.84	7.52	-43.0	-44.9	15.6	5.99e-01	0	40	0	614465536	57	4528
2026-01-21 05:24:30.37	86.69	7.60	-43.1	-44.9	15.6	6.01e-01	0	40	0	629145600	57	4540
2026-01-21 05:24:31.38	86.54	7.67	-43.1	-45.0	15.5	6.03e-01	0	40	0	645922816	57	4579
2026-01-21 05:24:32.39	86.39	7.74	-43.4	-45.3	15.3	6.03e-01	0	40	0	662700032	57	4741
2026-01-21 05:24:33.40	86.24	7.82	-42.9	-44.8	15.7	5.99e-01	0	40	0	677380096	57	4475
2026-01-21 05:24:34.41	86.09	7.89	-43.0	-44.9	15.7	5.96e-01	0	40	0	692060160	57	4537
2026-01-21 05:24:35.41	85.94	7.97	-43.0	-45.0	15.6	5.99e-01	0	40	0	708837376	57	4561
2026-01-21 05:24:36.42	85.79	8.04	-43.0	-45.0	15.6	6.00e-01	0	40	0	723517440	57	4551
2026-01-21 05:24:37.43	85.64	8.11	-43.1	-45.0	15.5	6.01e-01	0	40	0	738197504	57	4597
2026-01-21 05:24:38.44	85.48	8.19	-43.1	-45.1	15.5	6.03e-01	0	40	0	754974720	57	4633
2026-01-21 05:24:39.44	85.33	8.26	-43.1	-45.0	15.6	5.99e-01	0	40	0	769654784	57	4585
2026-01-21 05:24:40.45	85.17	8.34	-43.1	-45.1	15.5	6.02e-01	0	40	0	784334848	57	4614
2026-01-21 05:24:41.46	85.01	8.41	-43.1	-45.1	15.5	5.99e-01	0	40	0	801112064	57	4633
2026-01-21 05:24:42.47	84.85	8.49	-42.9	-44.8	15.8	6.01e-01	0	40	0	815792128	57	4492
2026-01-21 05:24:43.48	84.69	8.56	-42.9	-44.9	15.7	6.03e-01	0	40	0	830472192	57	4529
2026-01-21 05:24:44.49	84.53	8.64	-43.0	-45.0	15.7	6.02e-01	0	40	0	847249408	57	4560
2026-01-21 05:24:45.50	84.37	8.71	-42.9	-44.9	15.8	5.95e-01	0	40	0	864026624	57	4509
2026-01-21 05:24:46.50	84.21	8.79	-42.7	-44.7	15.9	6.01e-01	0	40	0	878706688	57	4402
2026-01-21 05:24:47.51	84.04	8.86	-42.9	-44.9	15.8	5.96e-01	0	41	0	893386752	57	4507
2026-01-21 05:24:48.52	83.88	8.94	-42.7	-44.7	15.9	5.98e-01	0	40	0	910163968	57	4418
2026-01-21 05:24:49.53	83.71	9.02	-42.5	-44.5	16.1	6.02e-01	0	40	0	924844032	57	4314
2026-01-21 05:24:50.54	83.54	9.09	-42.6	-44.6	16.0	6.01e-01	0	40	0	939524096	57	4367
2026-01-21 05:24:51.55	83.37	9.17	-42.7	-44.7	15.9	6.01e-01	0	41	0	956301312	57	4410
2026-01-21 05:24:52.56	83.20	9.25	-42.5	-44.5	16.1	6.00e-01	0	40	0	970981376	57	4336
2026-01-21 05:24:53.57	83.03	9.32	-42.5	-44.5	16.1	5.92e-01	0	40	0	985661440	57	4333
2026-01-21 05:24:54.57	82.86	9.40	-42.5	-44.6	16.1	5.92e-01	0	40	0	1002438656	57	4345
2026-01-21 05:24:55.58	82.69	9.47	-42.5	-44.5	16.1	6.00e-01	0	40	0	1017118720	57	4296
2026-01-21 05:24:56.59	82.51	9.55	-42.5	-44.4	16.2	6.00e-01	0	40	0	1033895936	56	4527
2026-01-21 05:24:57.60	82.34	9.63	-42.3	-44.2	16.4	6.02e-01	0	40	0	1048576000	56	4425
2026-01-21 05:24:58.61	82.16	9.70	-42.4	-44.3	16.3	6.00e-01	0	41	0	1065353216	56	4467
2026-01-21 05:24:59.61	81.98	9.78	-42.5	-44.4	16.3	5.91e-01	0	41	0	1080033280	56	4497
2026-01-21 05:25:00.62	81.80	9.86	-42.6	-44.5	16.2	5.91e-01	0	40	0	1094713344	56	4551
2026-01-21 05:25:01.63	81.62	9.94	-42.5	-44.3	16.3	5.99e-01	0	40	0	1111490560	56	4475
2026-01-21 05:25:02.64	81.44	10.01	-42.5	-44.4	16.3	5.97e-01	0	41	0	1126170624	56	4505
2026-01-21 05:25:03.65	81.26	10.09	-42.6	-44.4	16.2	5.91e-01	0	40	0	1140850688	56	4516
2026-01-21 05:25:04.65	81.08	10.17	-42.5	-44.3	16.3	5.98e-01	0	40	0	1157627904	56	4489
2026-01-21 05:25:05.66	80.89	10.24	-42.3	-44.1	16.5	5.99e-01	0	41	0	1172307968	56	4384
2026-01-21 05:25:06.67	80.71	10.32	-42.5	-44.3	16.3	6.00e-01	0	40	0	1186988032	56	4470
2026-01-21 05:25:07.68	80.52	10.40	-42.2	-44.0	16.6	5.97e-01	0	40	0	1203765248	56	4323
2026-01-21 05:25:08.69	80.33	10.48	-42.2	-44.0	16.6	5.93e-01	0	40	0	1220542464	56	4340
2026-01-21 05:25:09.70	80.14	10.56	-42.2	-44.1	16.5	5.92e-01	0	40	0	1235222528	56	4342
2026-01-21 05:25:10.71	79.95	10.63	-42.1	-44.0	16.6	5.98e-01	0	40	0	1249902592	56	4314
2026-01-21 05:25:11.72	79.76	10.71	-42.0	-43.9	16.7	5.99e-01	0	41	0	1266679808	56	4254
2026-01-21 05:25:12.73	79.56	10.79	-42.1	-44.0	16.7	5.97e-01	0	40	0	1281359872	55	4587
2026-01-21 05:25:13.73	79.37	10.87	-42.1	-44.0	16.7	5.94e-01	0	40	0	1296039936	55	4569
2026-01-21 05:25:14.74	79.17	10.94	-42.2	-44.1	16.7	5.95e-01	0	41	0	1312817152	55	4611
2026-01-21 05:25:15.75	78.97	11.02	-42.0	-43.8	16.9	5.96e-01	0	40	0	1327497216	55	4488
2026-01-21 05:25:16.76	78.77	11.10	-41.9	-43.8	16.9	6.00e-01	0	41	0	1342177280	55	4451
2026-01-21 05:25:17.77	78.57	11.18	-41.9	-43.8	16.9	5.97e-01	0	41	0	1358954496	55	4460
2026-01-21 05:25:18.78	78.37	11.26	-41.9	-43.8	16.9	5.96e-01	0	40	0	1373634560	55	4478
2026-01-21 05:25:19.79	78.17	11.34	-41.9	-43.9	16.8	5.96e-01	0	40	0	1388314624	55	4508
2026-01-21 05:25:20.79	77.97	11.41	-41.8	-43.8	16.9	5.95e-01	0	41	0	1405091840	55	4457
2026-01-21 05:25:21.80	77.76	11.49	-41.8	-43.7	17.0	5.98e-01	0	41	0	1421869056	55	4435
2026-01-21 05:25:22.81	77.55	11.57	-41.8	-43.7	17.0	5.94e-01	0	40	0	1436549120	55	4430
2026-01-21 05:25:23.82	77.34	11.65	-41.8	-43.7	17.0	5.95e-01	0	41	0	1451229184	55	4439
2026-01-21 05:25:24.82	77.14	11.73	-41.7	-43.6	17.0	5.96e-01	0	40	0	1468006400	55	4390
2026-01-21 05:25:25.83	76.93	11.81	-41.8	-43.7	17.0	5.95e-01	0	41	0	1482686464	55	4436
2026-01-21 05:25:26.84	76.71	11.88	-41.8	-43.7	17.0	5.93e-01	0	40	0	1497366528	55	4416
2026-01-21 05:25:27.85	76.50	11.96	-41.7	-43.6	17.1	5.92e-01	0	41	0	1514143744	55	4355
2026-01-21 05:25:28.86	76.28	12.04	-41.9	-43.8	17.0	5.94e-01	0	41	0	1528823808	55	4450
2026-01-21 05:25:29.86	76.07	12.12	-41.8	-43.7	17.0	5.99e-01	0	41	0	1543503872	55	4400
2026-01-21 05:25:30.87	75.85	12.20	-41.8	-43.7	17.0	5.97e-01	0	41	0	1558183936	55	4416
2026-01-21 05:25:31.88	75.63	12.28	-41.8	-43.7	17.1	5.96e-01	0	41	0	1574961152	55	4403
2026-01-21 05:25:32.89	75.41	12.35	-41.8	-43.6	17.1	5.91e-01	0	41	0	1591738368	55	4373
2026-01-21 05:25:33.90	75.19	12.43	-41.8	-43.6	17.1	5.93e-01	0	41	0	1606418432	55	4366
2026-01-21 05:25:34.90	74.96	12.51	-41.8	-43.6	17.1	5.93e-01	0	41	0	1623195648	55	4372
2026-01-21 05:25:35.91	74.74	12.59	-41.8	-43.6	17.1	5.98e-01	0	41	0	1637875712	55	4384
2026-01-21 05:25:36.92	74.51	12.67	-41.7	-43.6	17.2	5.92e-01	0	41	0	1652555776	55	4353
2026-01-21 05:25:37.93	74.28	12.74	-41.9	-43.8	17.0	5.95e-01	0	41	0	1669332992	55	4451
2026-01-21 05:25:38.94	74.05	12.82	-41.8	-43.7	17.0	5.98e-01	0	41	0	1684013056	55	4435
2026-01-21 05:25:39.95	73.82	12.90	-41.8	-43.8	16.9	5.98e-01	0	41	0	1698693120	55	4470
2026-01-21 05:25:40.95	73.59	12.98	-41.8	-43.8	17.0	5.92e-01	0	41	0	1713373184	55	4475
2026-01-21 05:25:41.96	73.36	13.06	-41.7	-43.7	17.0	5.89e-01	0	41	0	1730150400	55	4424
2026-01-21 05:25:42.97	73.12	13.13	-41.8	-43.8	17.0	5.94e-01	0	41	0	1744830464	55	4449
2026-01-21 05:25:43.98	72.88	13.21	-41.7	-43.7	17.1	5.97e-01	0	41	0	1759510528	55	4413
2026-01-21 05:25:44.99	72.64	13.29	-41.6	-43.6	17.1	5.97e-01	0	41	0	1776287744	55	4362
2026-01-21 05:25:45.99	72.41	13.37	-41.6	-43.6	17.2	5.96e-01	0	41	0	1793064960	55	4341
2026-01-21 05:25:47.00	72.16	13.44	-41.6	-43.5	17.2	5.92e-01	0	41	0	1807745024	55	4337
2026-01-21 05:25:48.01	71.92	13.52	-41.5	-43.4	17.2	5.90e-01	0	41	0	1822425088	55	4283
2026-01-21 05:25:49.02	71.68	13.60	-41.4	-43.3	17.3	5.96e-01	0	41	0	1839202304	54	4472
2026-01-21 05:25:50.02	71.43	13.68	-41.5	-43.5	17.2	5.95e-01	0	40	0	1853882368	54	4554
2026-01-21 05:25:51.03	71.18	13.75	-41.5	-43.4	17.3	5.97e-01	0	41	0	1868562432	54	4524
2026-01-21 05:25:52.04	70.93	13.83	-41.5	-43.4	17.3	5.93e-01	0	41	0	1885339648	54	4530
2026-01-21 05:25:53.05	70.68	13.91	-41.3	-43.2	17.4	5.90e-01	0	41	0	1900019712	54	4397
2026-01-21 05:25:54.06	70.43	13.98	-41.3	-43.2	17.4	5.96e-01	0	41	0	1914699776	54	4398
2026-01-21 05:25:55.06	70.18	14.06	-41.4	-43.2	17.4	5.96e-01	0	41	0	1931476992	54	4424
2026-01-21 05:25:56.07	69.92	14.13	-41.3	-43.2	17.5	5.93e-01	0	41	0	1946157056	54	4423
2026-01-21 05:25:57.08	69.66	14.21	-41.5	-43.4	17.3	5.92e-01	0	41	0	1960837120	54	4510
2026-01-21 05:25:58.09	69.40	14.29	-41.6	-43.5	17.3	5.94e-01	0	41	0	1977614336	54	4548
2026-01-21 05:25:59.10	69.14	14.36	-41.6	-43.4	17.3	5.91e-01	0	41	0	1994391552	54	4530
2026-01-21 05:26:00.11	68.88	14.44	-41.6	-43.5	17.3	5.96e-01	0	41	0	2009071616	54	4556
2026-01-21 05:26:01.11	68.62	14.51	-41.6	-43.5	17.3	5.99e-01	0	41	0	2023751680	54	4561
2026-01-21 05:26:02.12	68.35	14.59	-41.6	-43.5	17.3	5.99e-01	0	41	0	2040528896	54	4555
2026-01-21 05:26:03.13	68.09	14.66	-41.5	-43.4	17.3	5.94e-01	0	41	0	2055208960	54	4522
2026-01-21 05:26:04.14	67.82	14.74	-41.4	-43.3	17.4	5.99e-01	0	41	0	2069889024	54	4491
2026-01-21 05:26:05.15	67.55	14.81	-41.4	-43.3	17.4	6.00e-01	0	41	0	2086666240	54	4468
2026-01-21 05:26:06.15	67.28	14.88	-41.4	-43.3	17.4	6.00e-01	0	41	0	2101346304	54	4489
2026-01-21 05:26:07.16	67.00	14.96	-41.3	-43.2	17.5	5.99e-01	0	41	0	2116026368	54	4398
2026-01-21 05:26:08.17	66.73	15.03	-41.4	-43.3	17.5	5.85e-01	0	41	0	2132803584	54	4456
2026-01-21 05:26:09.18	66.45	15.10	-41.4	-43.3	17.5	5.86e-01	0	41	0	2147483648	54	4449
2026-01-21 05:26:10.19	66.17	15.18	-41.4	-43.3	17.5	5.85e-01	0	41	0	2164260864	54	4489
2026-01-21 05:26:11.20	65.89	15.25	-41.5	-43.3	17.4	5.85e-01	0	41	0	2178940928	54	4490
2026-01-21 05:26:12.21	65.61	15.32	-41.5	-43.4	17.4	5.86e-01	0	41	0	2195718144	54	4496
2026-01-21 05:26:13.21	65.33	15.39	-41.5	-43.4	17.4	5.86e-01	0	41	0	2210398208	54	4500
2026-01-21 05:26:14.22	65.04	15.47	-41.5	-43.4	17.3	5.86e-01	0	41	0	2225078272	54	4543
2026-01-21 05:26:15.23	64.76	15.54	-41.5	-43.4	17.4	5.85e-01	0	41	0	2241855488	54	4512
2026-01-21 05:26:16.24	64.47	15.61	-41.6	-43.5	17.3	5.86e-01	0	41	0	2256535552	54	4583
2026-01-21 05:26:17.25	64.18	15.68	-41.6	-43.5	17.3	5.86e-01	0	41	0	2271215616	54	4581
2026-01-21 05:26:18.26	63.89	15.75	-41.5	-43.5	17.3	5.86e-01	0	41	0	2287992832	54	4580
2026-01-21 05:26:19.27	63.59	15.82	-41.5	-43.5	17.3	5.85e-01	0	41	0	2302672896	54	4581
2026-01-21 05:26:20.27	63.30	15.89	-41.6	-43.6	17.3	5.86e-01	0	41	0	2317352960	54	4633
2026-01-21 05:26:21.28	63.01	15.95	-41.3	-43.3	17.5	5.86e-01	0	41	0	2334130176	54	4446
2026-01-21 05:26:22.29	62.71	16.02	-41.4	-43.4	17.4	5.85e-01	0	41	0	2350907392	54	4526
2026-01-21 05:26:23.30	62.41	16.09	-41.3	-43.3	17.5	5.85e-01	0	41	0	2365587456	54	4466
2026-01-21 05:26:24.31	62.11	16.16	-41.4	-43.4	17.4	5.86e-01	0	41	0	2380267520	54	4503
2026-01-21 05:26:25.31	61.81	16.23	-41.2	-43.1	17.6	5.85e-01	0	41	0	2397044736	54	4386
2026-01-21 05:26:26.32	61.50	16.29	-41.3	-43.2	17.6	5.85e-01	0	41	0	2411724800	54	4419
2026-01-21 05:26:27.33	61.20	16.36	-41.3	-43.3	17.5	5.84e-01	0	41	0	2426404864	54	4453
2026-01-21 05:26:28.34	60.89	16.42	-41.3	-43.3	17.4	5.94e-01	0	41	0	2443182080	54	4488
2026-01-21 05:26:29.34	60.58	16.49	-41.4	-43.4	17.3	6.01e-01	0	41	0	2457862144	54	4512
2026-01-21 05:26:30.35	60.27	16.55	-41.4	-43.3	17.4	6.00e-01	0	40	0	2472542208	54	4489
2026-01-21 05:26:31.36	59.96	16.62	-41.5	-43.5	17.3	5.98e-01	0	41	0	2489319424	54	4588
2026-01-21 05:26:32.37	59.64	16.68	-41.8	-43.8	17.1	6.01e-01	0	41	0	2503999488	54	4726
2026-01-21 05:26:33.38	59.33	16.74	-41.7	-43.7	17.2	5.97e-01	0	41	0	2518679552	54	4689
2026-01-21 05:26:34.39	59.01	16.81	-41.9	-43.8	17.0	5.97e-01	0	40	0	2535456768	54	4756
2026-01-21 05:26:35.39	58.70	16.87	-41.8	-43.8	17.1	5.98e-01	0	41	0	2552233984	54	4725
2026-01-21 05:26:36.40	58.38	16.93	-41.7	-43.7	17.2	5.97e-01	0	41	0	2566914048	54	4665
2026-01-21 05:26:37.41	58.06	16.99	-41.8	-43.7	17.1	5.99e-01	0	41	0	2581594112	54	4698
2026-01-21 05:26:38.42	57.73	17.05	-41.8	-43.7	17.1	5.99e-01	0	41	0	2598371328	54	4694
2026-01-21 05:26:39.43	57.41	17.11	-41.6	-43.5	17.3	5.98e-01	0	41	0	2613051392	54	4565
2026-01-21 05:26:40.43	57.08	17.17	-41.6	-43.5	17.3	6.03e-01	0	41	0	2627731456	54	4586
2026-01-21 05:26:41.44	56.76	17.22	-41.6	-43.6	17.3	5.97e-01	0	41	0	2644508672	54	4601
2026-01-21 05:26:42.45	56.43	17.28	-41.6	-43.5	17.3	5.97e-01	0	41	0	2659188736	54	4597
2026-01-21 05:26:43.46	56.10	17.34	-41.5	-43.5	17.3	5.97e-01	0	41	0	2673868800	54	4565
2026-01-21 05:26:44.47	55.76	17.39	-41.6	-43.6	17.3	5.97e-01	0	41	0	2690646016	54	4620
2026-01-21 05:26:45.47	55.43	17.45	-41.6	-43.6	17.2	5.97e-01	0	41	0	2705326080	54	4642
2026-01-21 05:26:46.48	55.10	17.50	-41.8	-43.8	17.1	5.98e-01	0	41	0	2720006144	54	4731
2026-01-21 05:26:47.49	54.76	17.56	-41.7	-43.7	17.1	5.97e-01	0	41	0	2736783360	54	4703
2026-01-21 05:26:48.50	54.43	17.61	-41.8	-43.9	17.0	5.97e-01	0	40	0	2753560576	54	4760
2026-01-21 05:26:49.51	54.09	17.66	-41.8	-43.9	17.0	5.97e-01	0	41	0	2768240640	54	4804
2026-01-21 05:26:50.52	53.75	17.72	-41.6	-43.7	17.2	5.97e-01	0	41	0	2782920704	54	4660
2026-01-21 05:26:51.53	53.40	17.77	-41.7	-43.8	17.1	5.97e-01	0	41	0	2799697920	54	4739
2026-01-21 05:26:52.53	53.06	17.82	-41.6	-43.7	17.2	5.99e-01	0	41	0	2814377984	54	4700
2026-01-21 05:26:53.54	52.72	17.86	-41.8	-43.9	17.0	5.99e-01	0	41	0	2829058048	54	4788
2026-01-21 05:26:54.55	52.37	17.91	-41.8	-43.9	17.0	5.97e-01	0	41	0	2845835264	54	4809
2026-01-21 05:26:55.56	52.03	17.96	-41.8	-43.9	17.0	6.03e-01	0	41	0	2860515328	54	4779
2026-01-21 05:26:56.57	51.68	18.01	-41.9	-44.0	17.0	5.98e-01	0	41	0	2875195392	54	4850
2026-01-21 05:26:57.58	51.33	18.05	-41.9	-44.0	16.9	5.96e-01	0	41	0	2891972608	54	4868
2026-01-21 05:26:58.59	50.98	18.10	-41.9	-44.1	16.9	5.97e-01	0	41	0	2906652672	54	4884
2026-01-21 05:26:59.59	50.63	18.14	-42.1	-44.3	16.7	5.99e-01	0	41	0	2923429888	54	4989
2026-01-21 05:27:00.60	50.28	18.19	-42.0	-44.2	16.8	5.98e-01	0	41	0	2938109952	54	4978
2026-01-21 05:27:01.61	49.92	18.23	-42.0	-44.1	16.9	5.98e-01	0	41	0	2954887168	54	4913
2026-01-21 05:27:02.62	49.57	18.27	-41.9	-44.0	16.9	5.97e-01	0	41	0	2969567232	54	4859
2026-01-21 05:27:03.63	49.21	18.31	-41.9	-44.0	16.9	5.97e-01	0	41	0	2984247296	54	4852
2026-01-21 05:27:04.63	48.86	18.35	-42.0	-44.2	16.8	5.99e-01	0	41	0	3001024512	54	4968
2026-01-21 05:27:05.64	48.50	18.39	-42.1	-44.3	16.7	6.02e-01	0	41	0	3015704576	54	5038
2026-01-21 05:27:06.65	48.14	18.43	-42.0	-44.3	16.7	5.98e-01	0	41	0	3030384640	54	5004
2026-01-21 05:27:07.66	47.78	18.46	-42.1	-44.3	16.7	5.98e-01	0	41	0	3045064704	54	5023
2026-01-21 05:27:08.66	47.42	18.50	-42.0	-44.3	16.7	5.99e-01	0	41	0	3061841920	54	4986
2026-01-21 05:27:09.67	47.06	18.53	-42.0	-44.2	16.7	5.98e-01	0	41	0	3076521984	54	4980
2026-01-21 05:27:10.68	46.69	18.57	-42.1	-44.4	16.7	5.98e-01	0	40	0	3091202048	54	5054
2026-01-21 05:27:11.69	46.33	18.60	-42.2	-44.5	16.6	5.98e-01	0	41	0	3110076416	54	5136
2026-01-21 05:27:12.70	45.96	18.63	-42.3	-44.6	16.5	5.96e-01	0	41	0	3124756480	55	4906
2026-01-21 05:27:13.70	45.60	18.66	-42.4	-44.6	16.5	5.98e-01	0	41	0	3139436544	55	4925
2026-01-21 05:27:14.71	45.23	18.69	-42.2	-44.5	16.6	5.98e-01	0	41	0	3154116608	55	4822
2026-01-21 05:27:15.72	44.87	18.72	-42.2	-44.5	16.6	5.97e-01	0	41	0	3170893824	55	4816
2026-01-21 05:27:16.73	44.50	18.75	-42.1	-44.4	16.7	5.98e-01	0	41	0	3185573888	55	4782
2026-01-21 05:27:17.74	44.13	18.78	-42.1	-44.4	16.7	5.98e-01	0	41	0	3200253952	55	4792
2026-01-21 05:27:18.74	43.76	18.80	-42.1	-44.4	16.7	5.97e-01	0	41	0	3217031168	55	4776
2026-01-21 05:27:19.75	43.39	18.83	-42.1	-44.4	16.7	5.98e-01	0	41	0	3231711232	55	4813
2026-01-21 05:27:20.76	43.02	18.85	-42.1	-44.4	16.6	5.99e-01	0	41	0	3246391296	55	4808
2026-01-21 05:27:21.77	42.65	18.87	-42.0	-44.3	16.8	5.98e-01	0	41	0	3263168512	55	4713
2026-01-21 05:27:22.78	42.27	18.89	-42.0	-44.2	16.8	5.98e-01	0	41	0	3277848576	55	4688
2026-01-21 05:27:23.79	41.90	18.91	-42.0	-44.3	16.7	5.97e-01	0	41	0	3292528640	55	4720
2026-01-21 05:27:24.79	41.53	18.93	-42.1	-44.4	16.7	5.98e-01	0	41	0	3309305856	55	4793
2026-01-21 05:27:25.80	41.16	18.95	-42.1	-44.4	16.7	6.01e-01	0	41	0	3326083072	55	4801
2026-01-21 05:27:26.81	40.78	18.97	-42.2	-44.5	16.6	5.98e-01	0	41	0	3340763136	55	4817
2026-01-21 05:27:27.81	40.41	18.98	-42.1	-44.4	16.7	5.99e-01	0	41	0	3355443200	55	4770
2026-01-21 05:27:28.82	40.03	19.00	-42.1	-44.4	16.7	5.98e-01	0	41	0	3372220416	55	4766
2026-01-21 05:27:29.83	39.66	19.01	-42.2	-44.5	16.6	5.92e-01	0	41	0	3386900480	55	4816
2026-01-21 05:27:30.84	39.28	19.02	-42.2	-44.4	16.7	5.97e-01	0	41	0	3401580544	55	4797
2026-01-21 05:27:31.85	38.90	19.03	-42.1	-44.4	16.7	5.97e-01	0	41	0	3418357760	55	4805
2026-01-21 05:27:32.85	38.53	19.04	-42.2	-44.5	16.6	5.98e-01	0	41	0	3433037824	55	4846
2026-01-21 05:27:33.86	38.15	19.05	-42.2	-44.5	16.6	5.99e-01	0	41	0	3447717888	55	4824
2026-01-21 05:27:34.87	37.77	19.06	-42.1	-44.3	16.7	6.00e-01	0	41	0	3464495104	55	4745
2026-01-21 05:27:35.88	37.40	19.07	-42.0	-44.2	16.9	5.98e-01	0	41	0	3479175168	55	4693
2026-01-21 05:27:36.89	37.02	19.07	-42.1	-44.3	16.8	6.00e-01	0	41	0	3493855232	55	4748
2026-01-21 05:27:37.89	36.64	19.08	-42.2	-44.5	16.6	6.01e-01	0	41	0	3510632448	55	4822
2026-01-21 05:27:38.90	36.26	19.08	-42.2	-44.6	16.6	5.99e-01	0	41	0	3527409664	55	4897
2026-01-21 05:27:39.91	35.89	19.08	-42.2	-44.6	16.5	5.99e-01	0	41	0	3542089728	55	4922
2026-01-21 05:27:40.92	35.51	19.09	-42.3	-44.7	16.4	6.02e-01	0	41	0	3556769792	55	4951
2026-01-21 05:27:41.93	35.13	19.08	-42.3	-44.7	16.4	6.01e-01	0	41	0	3573547008	55	4973
2026-01-21 05:27:42.93	34.75	19.08	-42.3	-44.7	16.5	5.98e-01	0	41	0	3588227072	55	4935
2026-01-21 05:27:43.94	34.38	19.08	-42.2	-44.6	16.5	6.02e-01	0	41	0	3602907136	55	4914
2026-01-21 05:27:44.95	34.00	19.08	-42.3	-44.7	16.5	6.00e-01	0	41	0	3619684352	55	4957
2026-01-21 05:27:45.96	33.62	19.07	-42.4	-44.9	16.4	6.00e-01	0	41	0	3634364416	55	5044
2026-01-21 05:27:46.97	33.24	19.07	-42.3	-44.7	16.4	6.00e-01	0	41	0	3649044480	55	4957
2026-01-21 05:27:47.97	32.87	19.06	-42.3	-44.8	16.4	6.00e-01	0	41	0	3665821696	55	4993
2026-01-21 05:27:48.98	32.49	19.05	-42.3	-44.8	16.3	6.02e-01	0	41	0	3680501760	55	5037
2026-01-21 05:27:49.98	32.12	19.04	-42.3	-44.8	16.3	6.01e-01	0	41	0	3695181824	55	5024
2026-01-21 05:27:50.99	31.74	19.03	-42.4	-44.8	16.3	6.00e-01	0	41	0	3711959040	55	5037
2026-01-21 05:27:52.00	31.36	19.02	-42.4	-44.9	16.3	6.02e-01	0	41	0	3728736256	55	5047
2026-01-21 05:27:53.01	30.98	19.01	-42.5	-45.0	16.2	5.98e-01	0	41	0	3743416320	55	5104
2026-01-21 05:27:54.02	30.61	18.99	-42.5	-44.9	16.3	5.98e-01	0	41	0	3758096384	55	5082
2026-01-21 05:27:55.03	30.23	18.98	-42.6	-44.9	16.2	6.02e-01	0	41	0	3774873600	55	5093
2026-01-21 05:27:56.03	29.86	18.96	-42.6	-45.0	16.2	6.03e-01	0	41	0	3789553664	55	5119
2026-01-21 05:27:57.04	29.49	18.95	-42.7	-45.2	16.1	5.98e-01	0	41	0	3804233728	55	5222
2026-01-21 05:27:58.05	29.11	18.93	-42.6	-45.1	16.1	5.98e-01	0	41	0	3821010944	55	5162
2026-01-21 05:27:59.06	28.74	18.91	-42.6	-45.1	16.1	5.99e-01	0	41	0	3835691008	55	5171
2026-01-21 05:28:00.07	28.37	18.89	-42.5	-44.9	16.3	6.00e-01	0	41	0	3850371072	55	5050
2026-01-21 05:28:01.07	28.00	18.87	-42.5	-44.9	16.3	5.97e-01	0	41	0	3867148288	55	5072
2026-01-21 05:28:02.08	27.63	18.85	-42.5	-44.9	16.3	5.98e-01	0	41	0	3881828352	55	5054
2026-01-21 05:28:03.09	27.25	18.82	-42.6	-45.0	16.1	6.01e-01	0	41	0	3898605568	55	5151
2026-01-21 05:28:04.10	26.88	18.80	-42.7	-45.1	16.1	5.99e-01	0	41	0	3913285632	55	5191
2026-01-21 05:28:05.10	26.52	18.77	-42.7	-45.1	16.0	5.99e-01	0	41	0	3930062848	56	4882
2026-01-21 05:28:06.11	26.15	18.74	-42.6	-44.9	16.1	6.00e-01	0	41	0	3944742912	56	4799
2026-01-21 05:28:07.12	25.78	18.72	-42.6	-44.9	16.2	6.00e-01	0	41	0	3959422976	56	4771
2026-01-21 05:28:08.13	25.41	18.69	-42.8	-45.0	16.0	5.99e-01	0	41	0	3976200192	56	4835
2026-01-21 05:28:09.14	25.05	18.66	-42.7	-44.9	16.1	6.00e-01	0	41	0	3990880256	56	4796
2026-01-21 05:28:10.14	24.68	18.63	-42.6	-44.9	16.2	5.98e-01	0	41	0	4005560320	56	4775
2026-01-21 05:28:11.15	24.32	18.59	-42.6	-44.9	16.1	6.04e-01	0	41	0	4022337536	56	4807
2026-01-21 05:28:12.16	23.96	18.56	-42.7	-45.1	16.0	5.97e-01	0	41	0	4037017600	56	4907
2026-01-21 05:28:13.17	23.59	18.53	-42.8	-45.2	15.9	5.98e-01	0	41	0	4051697664	56	4980
2026-01-21 05:28:14.17	23.23	18.49	-42.8	-45.2	15.9	5.98e-01	0	41	0	4068474880	56	4980
2026-01-21 05:28:15.18	22.87	18.46	-42.8	-45.2	15.9	6.00e-01	0	41	0	4083154944	56	4950
2026-01-21 05:28:16.19	22.51	18.42	-42.8	-45.2	15.9	6.00e-01	0	41	0	4099932160	56	4952
2026-01-21 05:28:17.20	22.15	18.38	-42.8	-45.2	15.9	5.98e-01	0	41	0	4114612224	56	4954
2026-01-21 05:28:18.21	21.80	18.34	-42.9	-45.3	15.8	5.98e-01	0	41	0	4131389440	56	4997
2026-01-21 05:28:19.21	21.44	18.30	-42.9	-45.2	15.9	6.01e-01	0	41	0	4146069504	56	4973
2026-01-21 05:28:20.22	21.09	18.26	-42.6	-45.0	16.0	6.02e-01	0	41	0	4160749568	56	4815
2026-01-21 05:28:21.23	20.73	18.22	-42.5	-44.8	16.1	5.97e-01	0	41	0	4177526784	56	4728
2026-01-21 05:28:22.24	20.38	18.18	-42.6	-44.9	16.1	5.97e-01	0	41	0	4192206848	56	4790
2026-01-21 05:28:23.25	20.03	18.14	-42.5	-44.8	16.2	5.99e-01	0	41	0	4206886912	56	4752
2026-01-21 05:28:24.25	19.68	18.09	-42.5	-44.8	16.2	5.99e-01	0	41	0	4223664128	56	4753
2026-01-21 05:28:25.26	19.33	18.05	-42.5	-44.8	16.2	5.99e-01	0	41	0	4238344192	56	4746
2026-01-21 05:28:26.27	18.98	18.00	-42.5	-44.8	16.1	6.04e-01	0	41	0	4253024256	56	4750
2026-01-21 05:28:27.28	18.63	17.95	-42.4	-44.7	16.2	6.01e-01	0	41	0	4267704320	56	4696
2026-01-21 05:28:28.28	18.29	17.91	-42.5	-44.8	16.2	5.98e-01	0	41	0	4284481536	56	4750
2026-01-21 05:28:29.29	17.94	17.86	-42.5	-44.8	16.2	6.01e-01	0	41	0	4301258752	56	4747
2026-01-21 05:28:30.30	17.60	17.81	-42.5	-44.8	16.2	6.02e-01	0	41	0	4315938816	56	4748
2026-01-21 05:28:31.31	17.26	17.76	-42.5	-44.9	16.2	6.02e-01	0	41	0	4332716032	56	4762
2026-01-21 05:28:32.32	16.92	17.71	-42.6	-45.0	16.0	6.00e-01	0	41	0	4347396096	56	4834
2026-01-21 05:28:33.32	16.58	17.66	-42.7	-45.1	15.9	5.98e-01	0	41	0	4362076160	56	4917
2026-01-21 05:28:34.33	16.24	17.61	-42.7	-45.2	15.9	6.01e-01	0	41	0	4376756224	56	4951
2026-01-21 05:28:35.34	15.91	17.55	-42.7	-45.1	15.9	5.99e-01	0	41	0	4393533440	56	4908
2026-01-21 05:28:36.35	15.57	17.50	-42.8	-45.1	15.9	5.99e-01	0	41	0	4408213504	56	4925
2026-01-21 05:28:37.36	15.24	17.44	-42.8	-45.1	15.9	5.99e-01	0	41	0	4422893568	56	4918
2026-01-21 05:28:38.37	14.90	17.39	-42.8	-45.0	16.0	6.00e-01	0	41	0	4439670784	56	4869
2026-01-21 05:28:39.37	14.58	17.33	-42.7	-44.9	16.1	5.99e-01	0	41	0	4454350848	56	4773
2026-01-21 05:28:40.38	14.25	17.28	-42.8	-45.0	16.0	5.98e-01	0	41	0	4469030912	56	4856
2026-01-21 05:28:41.39	13.92	17.22	-42.8	-45.1	15.9	6.01e-01	0	41	0	4485808128	56	4889
2026-01-21 05:28:42.40	13.59	17.16	-42.8	-45.1	16.0	5.99e-01	0	41	0	4502585344	56	4903
2026-01-21 05:28:43.40	13.27	17.10	-42.8	-45.1	15.9	5.98e-01	0	41	0	4517265408	56	4908
2026-01-21 05:28:44.41	12.95	17.04	-42.9	-45.2	15.8	6.02e-01	0	41	0	4531945472	56	4955
2026-01-21 05:28:45.42	12.62	16.98	-42.9	-45.1	15.9	6.02e-01	0	41	0	4548722688	56	4920
2026-01-21 05:28:46.43	12.30	16.92	-42.6	-44.8	16.2	6.03e-01	0	41	0	4563402752	56	4733
2026-01-21 05:28:47.43	11.99	16.86	-42.5	-44.8	16.2	6.01e-01	0	41	0	4578082816	56	4723
2026-01-21 05:28:48.44	11.67	16.80	-42.6	-44.9	16.1	6.02e-01	0	41	0	4594860032	56	4785
2026-01-21 05:28:49.45	11.35	16.74	-42.6	-44.9	16.1	6.03e-01	0	41	0	4609540096	56	4771
2026-01-21 05:28:50.46	11.04	16.68	-42.6	-44.9	16.1	6.03e-01	0	41	0	4624220160	56	4770
2026-01-21 05:28:51.46	10.73	16.61	-42.7	-45.0	16.0	6.02e-01	0	41	0	4640997376	56	4854
2026-01-21 05:28:52.47	10.42	16.55	-42.7	-45.1	15.9	6.03e-01	0	41	0	4655677440	56	4911
2026-01-21 05:28:53.48	10.11	16.48	-42.8	-45.1	15.9	6.04e-01	0	41	0	4670357504	56	4917
2026-01-21 05:28:54.49	9.80	16.42	-42.7	-45.1	15.9	6.04e-01	0	41	0	4687134720	56	4874
2026-01-21 05:28:55.49	9.50	16.35	-42.8	-45.2	15.9	6.04e-01	0	41	0	4703911936	56	4929
2026-01-21 05:28:56.50	9.19	16.29	-42.8	-45.1	15.9	6.03e-01	0	41	0	4718592000	56	4900
2026-01-21 05:28:57.51	8.89	16.22	-42.7	-45.0	15.9	6.06e-01	0	41	0	4733272064	56	4865
2026-01-21 05:28:58.52	8.59	16.15	-42.7	-44.9	16.1	5.85e-01	0	41	0	4750049280	56	4806
2026-01-21 05:28:59.53	8.29	16.09	-42.6	-44.9	16.1	5.86e-01	0	41	0	4764729344	56	4804
2026-01-21 05:29:00.53	7.99	16.02	-42.6	-44.9	16.1	5.86e-01	0	41	0	4779409408	56	4804
2026-01-21 05:29:01.54	7.69	15.95	-42.5	-44.8	16.2	5.85e-01	0	41	0	4796186624	56	4745
2026-01-21 05:29:02.55	7.40	15.88	-42.6	-45.0	16.0	5.85e-01	0	41	0	4810866688	56	4827
2026-01-21 05:29:03.56	7.10	15.81	-42.5	-44.9	16.1	5.85e-01	0	41	0	4825546752	56	4800
2026-01-21 05:29:04.56	6.81	15.74	-42.7	-45.1	15.9	5.85e-01	0	41	0	4842323968	56	4900
2026-01-21 05:29:05.57	6.52	15.67	-42.7	-45.1	15.9	5.86e-01	0	41	0	4857004032	56	4898
2026-01-21 05:29:06.58	6.23	15.60	-42.6	-45.0	16.1	5.86e-01	0	41	0	4871684096	56	4842
2026-01-21 05:29:07.59	5.95	15.53	-42.7	-45.0	16.1	5.87e-01	0	41	0	4888461312	56	4831
2026-01-21 05:29:08.60	5.66	15.46	-44.1	-45.0	16.1	5.86e-01	0	41	0	4905238528	58	4334
2026-01-21 05:29:09.60	5.38	15.39	-43.9	-44.8	16.3	5.85e-01	0	41	0	4919918592	58	4227
2026-01-21 05:29:10.61	5.10	15.32	-54.1	-63.0	3.8	7.46e-01	0	41	104	4924112896	78	10831
2026-01-21 05:29:11.62	4.82	15.25	-54.1	-63.0	3.8	7.47e-01	0	41	104	4924112896	78	10799
2026-01-21 05:29:12.63	4.54	15.18	-54.1	-62.9	3.8	7.44e-01	0	41	104	4924112896	78	10739
2026-01-21 05:29:13.64	4.26	15.10	-54.1	-62.9	3.8	7.45e-01	0	41	104	4924112896	78	10731
2026-01-21 05:29:14.65	3.98	15.03	-54.1	-62.9	3.8	7.45e-01	0	41	104	4924112896	78	10739
2026-01-21 05:29:15.65	3.71	14.96	-54.1	-62.9	3.8	7.45e-01	0	41	104	4924112896	78	10715
2026-01-21 05:29:16.66	3.44	14.88	-54.1	-62.9	3.8	7.44e-01	0	41	104	4924112896	78	10722
2026-01-21 05:29:17.67	3.17	14.81	-54.1	-62.9	3.8	7.46e-01	0	41	104	4924112896	78	10672
2026-01-21 05:29:18.68	2.90	14.74	-54.0	-62.9	3.8	7.46e-01	0	41	104	4924112896	78	10696
2026-01-21 05:29:19.69	2.63	14.66	-54.0	-62.9	3.8	7.44e-01	0	41	104	4924112896	78	10702
2026-01-21 05:29:20.69	2.37	14.59	-54.1	-62.9	3.8	7.45e-01	0	41	104	4924112896	78	10684
2026-01-21 05:29:21.70	2.10	14.51	-54.0	-62.9	3.8	7.44e-01	0	41	104	4924112896	78	10662
2026-01-21 05:29:22.71	1.84	14.44	-54.0	-62.8	3.8	7.46e-01	0	41	104	4924112896	78	10649
2026-01-21 05:29:23.72	1.58	14.36	-54.0	-62.9	3.8	7.44e-01	0	41	104	4924112896	78	10657
2026-01-21 05:29:24.73	1.32	14.29	-54.0	-62.9	3.8	7.47e-01	0	41	104	4924112896	78	10712
2026-01-21 05:29:25.73	1.06	14.21	-54.0	-62.8	3.8	7.46e-01	0	41	104	4924112896	78	10624
2026-01-21 05:29:26.74	0.81	14.14	-54.0	-62.8	3.8	7.46e-01	0	41	104	4924112896	78	10622
2026-01-21 05:29:27.75	0.55	14.06	-54.0	-62.8	3.8	7.46e-01	0	41	104	4924112896	78	10606
2026-01-21 05:29:28.76	0.30	13.98	-54.0	-62.8	3.8	7.45e-01	0	41	104	4924112896	78	10647
2026-01-21 05:29:29.77	0.05	13.91	-54.0	-62.8	3.8	7.47e-01	0	41	104	4924112896	78	10618
2026-01-21 05:29:30.77	359.80	13.83	-54.0	-62.8	3.8	7.46e-01	0	41	104	4924112896	78	10589
2026-01-21 05:29:31.78	359.55	13.76	-54.0	-62.8	3.8	7.46e-01	0	41	104	4924112896	78	10603
2026-01-21 05:29:32.79	359.30	13.68	-54.0	-62.8	3.8	7.45e-01	0	41	104	4924112896	78	10608
2026-01-21 05:29:33.80	359.06	13.60	-54.0	-62.8	3.8	7.46e-01	0	41	104	4924112896	78	10581
2026-01-21 05:29:34.81	358.81	13.52	-53.9	-62.8	3.8	7.44e-01	0	41	104	4924112896	78	10564
2026-01-21 05:29:35.81	358.57	13.45	-53.9	-62.8	3.8	7.45e-01	0	41	104	4924112896	78	10556
2026-01-21 05:29:36.82	358.33	13.37	-54.0	-62.9	3.8	7.44e-01	0	41	104	4924112896	78	10658
2026-01-21 05:29:37.83	358.09	13.29	-53.9	-62.8	3.8	7.45e-01	0	41	104	4924112896	78	10545
2026-01-21 05:29:38.84	357.85	13.22	-53.9	-62.8	3.8	7.45e-01	0	41	104	4924112896	78	10547
2026-01-21 05:29:39.84	357.62	13.14	-53.9	-62.8	3.8	7.46e-01	0	41	104	4924112896	78	10582
2026-01-21 05:29:40.85	357.38	13.06	-54.0	-62.8	3.8	7.45e-01	0	41	104	4924112896	78	10601
2026-01-21 05:29:41.86	357.15	12.98	-53.9	-62.7	3.8	7.46e-01	0	41	104	4924112896	78	10511
2026-01-21 05:29:42.87	356.92	12.91	-53.9	-62.7	3.8	7.46e-01	0	41	104	4924112896	78	10509
2026-01-21 05:29:43.88	356.69	12.83	-53.9	-62.7	3.8	7.47e-01	0	41	104	4924112896	78	10529
2026-01-21 05:29:44.89	356.46	12.75	-53.9	-62.8	3.8	7.45e-01	0	41	104	4924112896	78	10559
2026-01-21 05:29:45.89	356.23	12.67	-53.9	-62.7	3.8	7.45e-01	0	41	104	4924112896	78	10436
2026-01-21 05:29:46.90	356.01	12.59	-53.9	-62.7	3.8	7.45e-01	0	41	104	4924112896	78	10499
2026-01-21 05:29:47.91	355.78	12.52	-53.9	-62.7	3.8	7.47e-01	0	41	104	4924112896	78	10509
2026-01-21 05:29:48.92	355.56	12.44	-53.9	-62.8	3.8	7.48e-01	0	41	104	4924112896	78	10542
2026-01-21 05:29:49.93	355.34	12.36	-53.9	-62.7	3.8	7.44e-01	0	41	104	4924112896	78	10439
2026-01-21 05:29:50.93	355.12	12.28	-53.9	-62.7	3.8	7.45e-01	0	41	104	4924112896	78	10459
2026-01-21 05:29:51.94	354.90	12.20	-53.9	-62.7	3.8	7.45e-01	0	41	104	4924112896	78	10439
2026-01-21 05:29:52.95	354.68	12.13	-53.9	-62.7	3.8	7.45e-01	0	41	104	4924112896	78	10513
2026-01-21 05:29:53.96	354.47	12.05	-53.8	-62.7	3.8	7.45e-01	0	41	104	4924112896	78	10431
2026-01-21 05:29:54.96	354.26	11.97	-53.9	-62.7	3.8	7.44e-01	0	41	104	4924112896	78	10444
2026-01-21 05:29:55.97	354.04	11.89	-53.9	-62.7	3.8	7.47e-01	0	41	104	4924112896	78	10438
2026-01-21 05:29:56.98	353.83	11.81	-53.9	-62.7	3.8	7.45e-01	0	41	104	4924112896	78	10526
2026-01-21 05:29:57.99	353.62	11.74	-53.8	-62.6	3.8	7.45e-01	0	41	104	4924112896	78	10388
2026-01-21 05:29:59.00	353.41	11.66	-53.8	-62.7	3.8	7.45e-01	0	41	104	4924112896	78	10446
2026-01-21 05:30:00.01	353.20	11.58	-53.8	-62.7	3.8	7.45e-01	0	41	104	4924112896	78	10465
2026-01-21 05:30:01.02	353.00	11.50	-53.9	-62.7	3.8	7.46e-01	0	41	104	4924112896	78	10457
2026-01-21 05:30:02.02	352.80	11.42	-53.8	-62.6	3.8	7.45e-01	0	41	104	4924112896	78	10377
2026-01-21 05:30:03.03	352.59	11.35	-53.8	-62.6	3.8	7.46e-01	0	41	104	4924112896	78	10346
2026-01-21 05:30:04.04	352.39	11.27	-53.8	-62.7	3.8	7.46e-01	0	41	104	4924112896	78	10444
2026-01-21 05:30:05.05	352.19	11.19	-53.8	-62.7	3.8	7.47e-01	0	41	104	4924112896	78	10467
2026-01-21 05:30:06.06	351.99	11.11	-53.8	-62.6	3.8	7.47e-01	0	41	104	4924112896	78	10341
2026-01-21 05:30:07.07	351.79	11.03	-53.8	-62.6	3.8	7.46e-01	0	41	104	4924112896	78	10400
2026-01-21 05:30:08.07	351.60	10.96	-53.8	-62.6	3.8	7.45e-01	0	41	104	4924112896	78	10375
2026-01-21 05:30:09.08	351.40	10.88	-53.8	-62.6	3.8	7.45e-01	0	41	104	4924112896	78	10397
2026-01-21 05:30:10.09	351.21	10.80	-53.7	-62.6	3.8	7.43e-01	0	41	104	4924112896	78	10318
2026-01-21 05:30:11.10	351.01	10.72	-53.8	-62.6	3.8	7.45e-01	0	41	104	4924112896	78	10327
2026-01-21 05:30:12.11	350.82	10.65	-53.8	-62.6	3.8	7.46e-01	0	41	104	4924112896	78	10308
2026-01-21 05:30:13.12	350.63	10.57	-53.8	-62.6	3.8	7.45e-01	0	41	104	4924112896	78	10373
2026-01-21 05:30:14.13	350.44	10.49	-53.7	-62.5	3.8	7.44e-01	0	41	104	4924112896	78	10274
2026-01-21 05:30:15.13	350.26	10.41	-53.7	-62.5	3.8	7.44e-01	0	41	104	4924112896	78	10265
2026-01-21 05:30:16.14	350.07	10.34	-53.7	-62.6	3.8	7.45e-01	0	41	104	4924112896	78	10318
2026-01-21 05:30:17.15	349.88	10.26	-53.8	-62.6	3.8	7.44e-01	0	41	104	4924112896	78	10364
2026-01-21 05:30:18.16	349.70	10.18	-53.7	-62.5	3.8	7.45e-01	0	41	104	4924112896	78	10208
2026-01-21 05:30:19.17	349.52	10.10	-53.7	-62.5	3.8	7.45e-01	0	41	104	4924112896	78	10263
2026-01-21 05:30:20.17	349.34	10.03	-53.7	-62.5	3.8	7.43e-01	0	41	104	4924112896	78	10250
2026-01-21 05:30:21.18	349.15	9.95	-53.7	-62.6	3.8	7.45e-01	0	41	104	4924112896	78	10334
2026-01-21 05:30:22.19	348.98	9.87	-53.6	-62.5	3.8	7.45e-01	0	41	104	4924112896	78	10214
2026-01-21 05:30:23.20	348.80	9.80	-53.7	-62.5	3.8	7.44e-01	0	41	104	4924112896	78	10220
2026-01-21 05:30:24.20	348.62	9.72	-53.7	-62.5	3.8	7.45e-01	0	41	104	4924112896	78	10250
2026-01-21 05:30:25.21	348.45	9.64	-53.7	-62.5	3.8	7.45e-01	0	41	104	4924112896	78	10234
2026-01-21 05:30:26.22	348.27	9.57	-53.6	-62.5	3.8	7.45e-01	0	41	104	4924112896	78	10193
2026-01-21 05:30:27.23	348.10	9.49	-53.6	-62.5	3.8	7.44e-01	0	41	104	4924112896	78	10207
2026-01-21 05:30:28.24	347.92	9.41	-53.7	-62.5	3.8	7.46e-01	0	41	104	4924112896	78	10219
2026-01-21 05:30:29.24	347.76	9.34	-53.7	-62.5	3.8	7.45e-01	0	41	104	4924112896	78	10237
2026-01-21 05:30:30.25	347.58	9.26	-53.6	-62.4	3.8	7.45e-01	0	41	104	4924112896	78	10102
2026-01-21 05:30:31.26	347.42	9.19	-53.6	-62.5	3.8	7.45e-01	0	41	104	4924112896	78	10202
2026-01-21 05:30:32.27	347.25	9.11	-53.6	-62.4	3.8	7.45e-01	0	41	104	4924112896	78	10172
2026-01-21 05:30:33.28	347.08	9.04	-53.7	-62.5	3.8	7.45e-01	0	41	104	4924112896	78	10204
2026-01-21 05:30:34.29	346.91	8.96	-53.6	-62.4	3.8	7.45e-01	0	41	104	4924112896	78	10127
2026-01-21 05:30:35.30	346.75	8.88	-53.6	-62.4	3.8	7.46e-01	0	41	104	4924112896	78	10154
2026-01-21 05:30:36.31	346.59	8.81	-53.6	-62.4	3.8	7.45e-01	0	41	104	4924112896	78	10145
2026-01-21 05:30:37.31	346.43	8.73	-53.6	-62.4	3.8	7.44e-01	0	41	104	4924112896	78	10122
2026-01-21 05:30:38.32	346.26	8.66	-53.5	-62.4	3.8	7.46e-01	0	40	104	4924112896	78	10087
2026-01-21 05:30:39.33	346.10	8.58	-53.6	-62.4	3.8	7.44e-01	0	41	104	4924112896	78	10109
2026-01-21 05:30:40.34	345.94	8.51	-53.6	-62.4	3.8	7.45e-01	0	41	104	4924112896	78	10112
2026-01-21 05:30:41.34	345.79	8.43	-53.6	-62.4	3.8	7.47e-01	0	41	104	4924112896	78	10118
2026-01-21 05:30:42.35	345.63	8.36	-53.5	-62.3	3.8	7.43e-01	0	41	104	4924112896	78	10054
2026-01-21 05:30:43.36	345.47	8.28	-53.5	-62.3	3.8	7.45e-01	0	41	104	4924112896	78	10041
2026-01-21 05:30:44.37	345.32	8.21	-53.6	-62.4	3.8	7.44e-01	0	41	104	4924112896	78	10130
2026-01-21 05:30:45.37	345.17	8.14	-53.6	-62.4	3.8	7.45e-01	0	41	104	4924112896	78	10076
2026-01-21 05:30:46.38	345.01	8.06	-53.5	-62.3	3.8	7.44e-01	0	41	104	4924112896	78	10023
2026-01-21 05:30:47.39	344.86	7.99	-53.5	-62.4	3.8	7.45e-01	0	41	104	4924112896	78	10080
2026-01-21 05:30:48.40	344.71	7.91	-53.5	-62.3	3.8	7.45e-01	0	41	104	4924112896	78	10051
2026-01-21 05:30:49.40	344.56	7.84	-53.5	-62.3	3.8	7.45e-01	0	41	104	4924112896	78	10034
2026-01-21 05:30:50.42	344.41	7.77	-53.4	-62.3	3.8	7.46e-01	0	41	104	4924112896	78	9985
2026-01-21 05:30:51.42	344.26	7.69	-53.5	-62.3	3.8	7.47e-01	0	41	104	4924112896	78	10011
2026-01-21 05:30:52.43	344.11	7.62	-53.5	-62.3	3.8	7.45e-01	0	41	104	4924112896	78	10018
2026-01-21 05:30:53.44	343.97	7.55	-53.5	-62.3	3.8	7.46e-01	0	41	104	4924112896	78	10010
2026-01-21 05:30:54.45	343.82	7.47	-53.4	-62.2	3.8	7.45e-01	0	41	104	4924112896	78	9938
2026-01-21 05:30:55.46	343.68	7.40	-53.4	-62.3	3.8	7.44e-01	0	41	104	4924112896	78	9993
2026-01-21 05:30:56.47	343.53	7.33	-53.5	-62.3	3.8	7.45e-01	0	41	104	4924112896	78	10022
2026-01-21 05:30:57.47	343.39	7.26	-53.4	-62.3	3.8	7.45e-01	0	41	104	4924112896	78	9979
2026-01-21 05:30:58.48	343.25	7.18	-53.4	-62.2	3.8	7.45e-01	0	41	104	4924112896	78	9868
2026-01-21 05:30:59.49	343.11	7.11	-53.4	-62.3	3.8	7.45e-01	0	41	104	4924112896	78	9951
2026-01-21 05:31:00.50	342.97	7.04	-53.5	-62.3	3.8	7.43e-01	0	41	104	4924112896	78	9984
2026-01-21 05:31:01.51	342.83	6.97	-53.4	-62.2	3.8	7.44e-01	0	41	104	4924112896	78	9918
2026-01-21 05:31:02.51	342.69	6.89	-53.3	-62.1	3.8	7.46e-01	0	41	104	4924112896	78	9828
2026-01-21 05:31:03.52	342.56	6.82	-53.4	-62.2	3.8	7.46e-01	0	41	104	4924112896	78	9905
2026-01-21 05:31:04.53	342.42	6.75	-53.4	-62.2	3.8	7.45e-01	0	41	104	4924112896	78	9928
2026-01-21 05:31:05.54	342.28	6.68	-53.3	-62.2	3.8	7.45e-01	0	41	104	4924112896	78	9869
2026-01-21 05:31:06.55	342.15	6.61	-53.3	-62.1	3.8	7.45e-01	0	41	104	4924112896	78	9812
2026-01-21 05:31:07.56	342.01	6.54	-53.3	-62.2	3.8	7.45e-01	0	41	104	4924112896	78	9864
2026-01-21 05:31:08.56	341.88	6.47	-53.4	-62.2	3.8	7.44e-01	0	41	104	4924112896	78	9880
2026-01-21 05:31:09.57	341.75	6.39	-53.3	-62.1	3.8	7.45e-01	0	41	104	4924112896	78	9806
2026-01-21 05:31:10.58	341.62	6.32	-53.3	-62.1	3.8	7.47e-01	0	41	104	4924112896	78	9785
2026-01-21 05:31:11.59	341.49	6.25	-53.3	-62.1	3.8	7.45e-01	0	41	104	4924112896	78	9793
2026-01-21 05:31:12.60	341.36	6.18	-53.4	-62.2	3.8	7.45e-01	0	41	104	4924112896	78	9855
2026-01-21 05:31:13.61	341.23	6.11	-53.2	-62.0	3.8	7.44e-01	0	41	104	4924112896	78	9704
2026-01-21 05:31:14.62	341.10	6.04	-53.2	-62.0	3.8	7.45e-01	0	41	104	4924112896	78	9697
2026-01-21 05:31:15.63	340.97	5.97	-53.3	-62.1	3.8	7.45e-01	0	41	104	4924112896	78	9773
2026-01-21 05:31:16.63	340.85	5.90	-53.3	-62.1	3.8	7.45e-01	0	41	104	4924112896	78	9824
2026-01-21 05:31:17.64	340.72	5.83	-53.2	-62.0	3.8	7.45e-01	0	41	104	4924112896	78	9684
2026-01-21 05:31:18.65	340.60	5.76	-53.2	-62.0	3.8	7.45e-01	0	41	104	4924112896	78	9662
2026-01-21 05:31:19.66	340.47	5.69	-53.2	-62.1	3.8	7.46e-01	0	41	104	4924112896	78	9731
2026-01-21 05:31:20.67	340.35	5.62	-53.3	-62.1	3.8	7.45e-01	0	41	104	4924112896	78	9756
2026-01-21 05:31:21.67	340.23	5.55	-53.1	-62.0	3.8	7.46e-01	0	41	104	4924112896	78	9653
2026-01-21 05:31:22.68	340.11	5.48	-53.1	-62.0	3.8	7.46e-01	0	41	104	4924112896	78	9630
2026-01-21 05:31:23.69	339.99	5.41	-53.2	-62.0	3.8	7.45e-01	0	41	104	4924112896	78	9678
2026-01-21 05:31:24.70	339.87	5.35	-53.2	-62.0	3.8	7.47e-01	0	41	104	4924112896	78	9715
2026-01-21 05:31:25.70	339.75	5.28	-53.1	-61.9	3.8	7.46e-01	0	41	104	4924112896	78	9534
2026-01-21 05:31:26.71	339.63	5.21	-53.1	-61.9	3.8	7.45e-01	0	41	104	4924112896	78	9558
2026-01-21 05:31:27.72	339.51	5.14	-53.1	-62.0	3.8	7.45e-01	0	41	104	4924112896	78	9612
2026-01-21 05:31:28.73	339.39	5.07	-53.2	-62.0	3.8	7.46e-01	0	41	104	4924112896	78	9657
2026-01-21 05:31:29.74	339.28	5.00	-53.1	-62.0	3.8	7.46e-01	0	41	104	4924112896	78	9620
2026-01-21 05:31:30.75	339.16	4.94	-52.3	-61.1	3.8	7.45e-01	0	40	104	4924112896	76	9807
2026-01-21 05:31:31.75	339.05	4.87	-49.1	-58.0	3.8	7.45e-01	0	41	104	4924112896	70	9656
2026-01-21 05:31:32.76	338.93	4.80	-49.1	-58.0	3.8	7.46e-01	0	41	104	4924112896	70	9652
2026-01-21 05:31:33.77	338.82	4.73	-49.1	-58.0	3.8	7.44e-01	0	41	104	4924112896	70	9627
2026-01-21 05:31:34.78	338.70	4.67	-49.1	-58.0	3.8	7.44e-01	0	41	104	4924112896	70	9641
2026-01-21 05:31:35.79	338.59	4.60	-49.1	-58.0	3.8	7.45e-01	0	41	104	4924112896	70	9635
2026-01-21 05:31:36.79	338.48	4.53	-49.1	-58.0	3.8	7.45e-01	0	41	104	4924112896	70	9625
2026-01-21 05:31:37.80	338.37	4.46	-49.1	-58.0	3.8	7.45e-01	0	41	104	4924112896	70	9609
2026-01-21 05:31:38.81	338.26	4.40	-49.1	-57.9	3.8	7.44e-01	0	41	104	4924112896	70	9605
2026-01-21 05:31:39.82	338.15	4.33	-49.1	-58.0	3.8	7.44e-01	0	41	104	4924112896	70	9607
2026-01-21 05:31:40.82	338.04	4.26	-49.1	-58.0	3.8	7.44e-01	0	41	104	4924112896	70	9632
2026-01-21 05:31:41.83	337.93	4.20	-49.1	-58.0	3.8	7.46e-01	0	41	104	4924112896	70	9640
2026-01-21 05:31:42.84	337.82	4.13	-49.1	-58.0	3.8	7.46e-01	0	41	104	4924112896	70	9637
2026-01-21 05:31:43.85	337.72	4.06	-49.1	-57.9	3.8	7.46e-01	0	41	104	4924112896	70	9581
2026-01-21 05:31:44.86	337.61	4.00	-49.1	-58.0	3.8	7.44e-01	0	41	104	4924112896	70	9617
2026-01-21 05:31:45.87	337.50	3.93	-49.1	-57.9	3.8	7.45e-01	0	41	104	4924112896	70	9588
2026-01-21 05:31:46.87	337.40	3.87	-49.1	-58.0	3.8	7.44e-01	0	41	104	4924112896	70	9619
2026-01-21 05:31:47.88	337.30	3.80	-49.1	-58.0	3.8	7.46e-01	0	41	104	4924112896	70	9617
2026-01-21 05:31:48.89	337.19	3.74	-49.1	-57.9	3.8	7.46e-01	0	41	104	4924112896	70	9551
2026-01-21 05:31:49.90	337.09	3.67	-49.1	-58.0	3.8	7.45e-01	0	41	104	4924112896	70	9615
2026-01-21 05:31:50.90	336.99	3.61	-49.1	-58.0	3.8	7.45e-01	0	41	104	4924112896	70	9607
2026-01-21 05:31:51.91	336.88	3.54	-49.1	-58.0	3.8	7.45e-01	0	41	104	4924112896	70	9614
2026-01-21 05:31:52.92	336.78	3.48	-49.1	-58.0	3.8	7.45e-01	0	41	104	4924112896	70	9624
2026-01-21 05:31:53.93	336.68	3.41	-49.1	-58.0	3.8	7.45e-01	0	41	104	4924112896	70	9612
2026-01-21 05:31:54.94	336.58	3.35	-49.1	-58.0	3.8	7.46e-01	0	41	104	4924112896	70	9619
2026-01-21 05:31:55.95	336.48	3.28	-49.1	-58.0	3.8	7.46e-01	0	41	104	4924112896	70	9612
2026-01-21 05:31:56.96	336.38	3.22	-49.1	-57.9	3.8	7.45e-01	0	41	104	4924112896	70	9575
2026-01-21 05:31:57.97	336.28	3.15	-49.1	-58.0	3.8	7.47e-01	0	41	104	4924112896	70	9627
2026-01-21 05:31:58.97	336.18	3.09	-49.1	-58.0	3.8	7.45e-01	0	41	104	4924112896	70	9619
2026-01-21 05:31:59.98	336.09	3.02	-49.1	-57.9	3.8	7.45e-01	0	41	104	4924112896	70	9570
2026-01-21 05:32:00.99	335.99	2.96	-49.1	-57.9	3.8	7.45e-01	0	41	104	4924112896	70	9582
2026-01-21 05:32:02.00	335.89	2.90	-49.1	-57.9	3.8	7.45e-01	0	41	104	4924112896	70	9578
2026-01-21 05:32:03.01	335.80	2.83	-49.1	-57.9	3.8	7.45e-01	0	41	104	4924112896	70	9599
2026-01-21 05:32:04.02	335.70	2.77	-49.1	-57.9	3.8	7.46e-01	0	41	104	4924112896	70	9577
2026-01-21 05:32:05.03	335.61	2.71	-49.1	-57.9	3.8	7.46e-01	0	41	104	4924112896	70	9586
2026-01-21 05:32:06.03	335.51	2.64	-49.1	-57.9	3.8	7.45e-01	0	41	104	4924112896	70	9588
2026-01-21 05:32:07.04	335.42	2.58	-49.1	-58.0	3.8	7.46e-01	0	41	104	4924112896	70	9613
2026-01-21 05:32:08.05	335.33	2.52	-49.1	-58.0	3.8	7.46e-01	0	41	104	4924112896	70	9623
2026-01-21 05:32:09.06	335.23	2.45	-49.1	-58.0	3.8	7.46e-01	0	41	104	4924112896	70	9611
2026-01-21 05:32:10.07	335.14	2.39	-49.1	-58.0	3.8	7.45e-01	0	41	104	4924112896	70	9615
2026-01-21 05:32:11.08	335.05	2.33	-49.1	-57.9	3.8	7.44e-01	0	41	104	4924112896	70	9587
2026-01-21 05:32:12.09	334.96	2.26	-49.1	-57.9	3.8	7.46e-01	0	41	104	4924112896	70	9596
2026-01-21 05:32:13.09	334.87	2.20	-49.1	-58.0	3.8	7.44e-01	0	41	104	4924112896	70	9609
2026-01-21 05:32:14.10	334.78	2.14	-49.1	-57.9	3.8	7.44e-01	0	41	104	4924112896	70	9593
2026-01-21 05:32:15.11	334.69	2.08	-49.1	-58.0	3.8	7.45e-01	0	41	104	4924112896	70	9636
2026-01-21 05:32:16.12	334.60	2.02	-49.1	-57.9	3.8	7.46e-01	0	41	104	4924112896	70	9596

#Closed at: 2026-01-21 05:32:16
#Recorded file [4924 MB]: D:/lorett/data/31041_260121_082308.dat