passes_logs/2026/01/21/R3.2S_Murmansk/R3.2S_Murmansk__20260121_200346_JL1KF02B07_rec.log

#Pass ID: 20260121_200346_JL1KF02B07
#Satellite: JL1KF02B07
#Configuration: 01B_900M
#almurnet v.1.7.20251203
#Start time: 2026-01-21 20:03:47

#Version: 2.2.20231116
#Station: R3.2S_Murmansk
#Location: 33.079688 lon 68.888172 lat
#TLE: 1 65939U 25226B   26020.89886288  .00033261  00000+0  20820-2 0  9994
#TLE: 2 65939  97.6530  99.8959 0018064 279.8018  80.1170 15.09176210 15350

#Time	Az	El	Level	Level2	SNR	BER	BlckErr	Temp	State	Recorded	gain1	gain2
2026-01-21 20:03:47.25	185.36	2.02	-54.5	-56.6	6.2	0.00e+00	0	42	0	0	80	18552
2026-01-21 20:03:48.21	185.41	2.09	-54.7	-56.9	6.2	0.00e+00	0	41	104	0	80	19066
2026-01-21 20:03:49.19	185.46	2.15	-54.8	-56.9	6.2	0.00e+00	0	41	104	0	80	19161
2026-01-21 20:03:50.16	185.51	2.22	-54.8	-56.9	6.2	0.00e+00	0	41	104	0	80	19168
2026-01-21 20:03:51.13	185.56	2.28	-54.8	-56.9	6.2	0.00e+00	0	41	104	0	80	19121
2026-01-21 20:03:52.10	185.61	2.35	-54.8	-56.9	6.2	0.00e+00	0	41	104	0	80	19133
2026-01-21 20:03:53.07	185.66	2.41	-54.7	-56.9	6.2	0.00e+00	0	42	104	0	80	19062
2026-01-21 20:03:54.04	185.71	2.48	-54.7	-56.9	6.2	0.00e+00	0	41	104	0	80	19047
2026-01-21 20:03:55.01	185.76	2.54	-54.7	-56.8	6.2	0.00e+00	0	42	104	0	80	19032
2026-01-21 20:03:55.98	185.81	2.61	-54.7	-56.8	6.2	0.00e+00	0	41	104	0	80	18915
2026-01-21 20:03:56.95	185.87	2.68	-54.7	-56.8	6.2	0.00e+00	0	41	104	0	80	18870
2026-01-21 20:03:57.92	185.92	2.74	-54.6	-56.8	6.2	0.00e+00	0	42	104	0	80	18840
2026-01-21 20:03:58.89	185.97	2.81	-54.6	-56.7	6.2	0.00e+00	0	42	104	0	80	18755
2026-01-21 20:03:59.86	186.02	2.88	-54.6	-56.7	6.2	0.00e+00	0	42	104	0	80	18619
2026-01-21 20:04:00.83	186.07	2.94	-54.5	-56.6	6.2	0.00e+00	0	42	104	0	80	18554
2026-01-21 20:04:01.80	186.13	3.01	-54.5	-56.6	6.2	0.00e+00	0	42	104	0	80	18447
2026-01-21 20:04:02.77	186.18	3.08	-54.4	-56.5	6.2	0.00e+00	0	42	104	0	80	18329
2026-01-21 20:04:03.74	186.23	3.15	-54.4	-56.5	6.2	0.00e+00	0	42	104	0	80	18260
2026-01-21 20:04:04.71	186.29	3.21	-54.3	-56.4	6.2	0.00e+00	0	42	104	0	80	18066
2026-01-21 20:04:05.68	186.34	3.28	-54.2	-56.3	6.2	0.00e+00	0	42	104	0	80	17912
2026-01-21 20:04:06.65	186.40	3.35	-54.1	-56.2	6.2	0.00e+00	0	42	104	0	80	17647
2026-01-21 20:04:07.61	186.45	3.42	-54.0	-56.1	6.2	0.00e+00	0	42	104	0	79	18475
2026-01-21 20:04:08.58	186.50	3.49	-53.8	-55.9	6.2	0.00e+00	0	42	104	0	79	18031
2026-01-21 20:04:09.56	186.56	3.56	-53.4	-55.5	6.2	0.00e+00	0	42	104	0	78	18352
2026-01-21 20:04:10.53	186.62	3.62	-53.1	-55.2	6.2	0.00e+00	0	42	104	0	78	17733
2026-01-21 20:04:11.50	186.67	3.69	-53.1	-55.2	6.2	0.00e+00	0	42	104	0	78	17724
2026-01-21 20:04:12.47	186.73	3.76	-53.1	-55.2	6.2	0.00e+00	0	42	104	0	78	17659
2026-01-21 20:04:13.44	186.78	3.83	-53.1	-55.2	6.2	0.00e+00	0	42	104	0	78	17661
2026-01-21 20:04:14.41	186.84	3.90	-53.1	-55.2	6.2	0.00e+00	0	42	104	0	78	17701
2026-01-21 20:04:15.38	186.90	3.97	-53.1	-55.2	6.2	0.00e+00	0	42	104	0	78	17651
2026-01-21 20:04:16.35	186.95	4.04	-53.1	-55.2	6.2	0.00e+00	0	42	104	0	78	17673
2026-01-21 20:04:17.33	187.01	4.11	-53.1	-55.2	6.2	0.00e+00	0	42	104	0	78	17626
2026-01-21 20:04:18.30	187.07	4.18	-53.1	-55.2	6.2	0.00e+00	0	42	104	0	78	17632
2026-01-21 20:04:19.27	187.13	4.25	-53.0	-55.2	6.2	0.00e+00	0	42	104	0	78	17637
2026-01-21 20:04:20.24	187.19	4.32	-53.0	-55.1	6.2	0.00e+00	0	42	104	0	78	17553
2026-01-21 20:04:21.21	187.25	4.40	-53.0	-55.1	6.2	0.00e+00	0	42	104	0	78	17555
2026-01-21 20:04:22.18	187.31	4.47	-53.0	-55.2	6.2	0.00e+00	0	42	104	0	78	17583
2026-01-21 20:04:23.15	187.36	4.54	-53.0	-55.1	6.2	0.00e+00	0	42	104	0	78	17552
2026-01-21 20:04:24.12	187.42	4.61	-53.0	-55.1	6.2	0.00e+00	0	42	104	0	78	17543
2026-01-21 20:04:25.09	187.48	4.68	-53.0	-55.2	6.2	0.00e+00	0	42	104	0	78	17596
2026-01-21 20:04:26.07	187.55	4.76	-53.0	-55.1	6.2	0.00e+00	0	42	104	0	78	17537
2026-01-21 20:04:27.04	187.61	4.83	-53.0	-55.1	6.2	0.00e+00	0	42	104	0	78	17528
2026-01-21 20:04:28.01	187.67	4.90	-53.0	-55.1	6.2	0.00e+00	0	42	104	0	78	17536
2026-01-21 20:04:28.99	187.73	4.98	-52.9	-55.1	6.2	0.00e+00	0	42	104	0	77	18479
2026-01-21 20:04:29.95	187.79	5.05	-52.9	-55.1	6.2	0.00e+00	0	42	104	0	77	18524
2026-01-21 20:04:30.93	187.85	5.12	-53.0	-55.1	6.2	0.00e+00	0	42	104	0	77	18584
2026-01-21 20:04:31.90	187.92	5.20	-52.9	-55.1	6.2	0.00e+00	0	42	104	0	77	18444
2026-01-21 20:04:32.87	187.98	5.27	-53.1	-55.2	6.2	0.00e+00	0	42	104	0	77	18751
2026-01-21 20:04:33.85	188.04	5.34	-53.1	-55.2	6.2	0.00e+00	0	42	104	0	77	18768
2026-01-21 20:04:34.82	188.11	5.42	-52.9	-55.1	6.2	0.00e+00	0	42	104	0	77	18459
2026-01-21 20:04:35.79	188.17	5.49	-52.9	-55.1	6.2	0.00e+00	0	43	104	0	77	18424
2026-01-21 20:04:36.76	188.24	5.57	-53.1	-55.2	6.2	0.00e+00	0	42	104	0	77	18727
2026-01-21 20:04:37.73	188.30	5.64	-53.1	-55.2	6.2	0.00e+00	0	42	104	0	77	18797
2026-01-21 20:04:38.70	188.37	5.72	-52.9	-55.1	6.2	0.00e+00	0	42	104	0	77	18483
2026-01-21 20:04:39.68	188.43	5.80	-52.9	-55.1	6.2	0.00e+00	0	42	104	0	77	18404
2026-01-21 20:04:40.65	188.50	5.87	-53.0	-55.2	6.2	0.00e+00	0	42	104	0	77	18730
2026-01-21 20:04:41.61	188.56	5.95	-53.1	-55.2	6.2	0.00e+00	0	42	104	0	77	18758
2026-01-21 20:04:42.58	188.63	6.02	-52.9	-55.1	6.2	0.00e+00	0	42	104	0	77	18519
2026-01-21 20:04:43.55	188.70	6.10	-52.9	-55.1	6.2	0.00e+00	0	42	104	0	77	18468
2026-01-21 20:04:44.53	188.77	6.18	-52.9	-55.1	6.2	0.00e+00	0	42	104	0	77	18538
2026-01-21 20:04:45.50	188.83	6.25	-53.1	-55.3	6.2	0.00e+00	0	42	104	0	77	18859
2026-01-21 20:04:46.47	188.90	6.33	-53.0	-55.2	6.2	0.00e+00	0	42	104	0	77	18623
2026-01-21 20:04:47.45	188.97	6.41	-52.9	-55.1	6.2	0.00e+00	0	43	104	0	77	18430
2026-01-21 20:04:48.42	189.04	6.49	-52.9	-55.1	6.2	0.00e+00	0	42	104	0	77	18512
2026-01-21 20:04:49.39	189.11	6.57	-53.1	-55.2	6.2	0.00e+00	0	43	104	0	77	18772
2026-01-21 20:04:50.36	189.18	6.65	-53.1	-55.2	6.2	0.00e+00	0	42	104	0	77	18816
2026-01-21 20:04:51.33	189.25	6.72	-52.9	-55.1	6.2	0.00e+00	0	42	104	0	77	18522
2026-01-21 20:04:52.30	189.32	6.80	-52.9	-55.1	6.2	0.00e+00	0	42	104	0	77	18512
2026-01-21 20:04:53.27	189.39	6.88	-53.1	-55.3	6.2	0.00e+00	0	42	104	0	77	18908
2026-01-21 20:04:54.24	189.47	6.96	-53.1	-55.3	6.2	0.00e+00	0	42	104	0	77	18841
2026-01-21 20:04:55.21	189.54	7.04	-52.9	-55.1	6.2	0.00e+00	0	43	104	0	77	18582
2026-01-21 20:04:56.18	189.61	7.12	-53.0	-55.1	6.2	0.00e+00	0	43	104	0	77	18564
2026-01-21 20:04:57.15	189.68	7.20	-53.2	-55.3	6.2	0.00e+00	0	42	104	0	77	18936
2026-01-21 20:04:58.12	189.76	7.28	-53.2	-55.3	6.2	0.00e+00	0	42	104	0	77	18905
2026-01-21 20:04:59.10	189.83	7.37	-52.9	-55.1	6.2	0.00e+00	0	43	104	0	77	18568
2026-01-21 20:05:00.07	189.91	7.45	-53.0	-55.2	6.2	0.00e+00	0	43	104	0	77	18631
2026-01-21 20:05:01.04	189.98	7.53	-53.2	-55.3	6.2	0.00e+00	0	43	104	0	77	18937
2026-01-21 20:05:02.02	190.06	7.61	-53.2	-55.3	6.2	0.00e+00	0	43	104	0	77	19027
2026-01-21 20:05:02.99	190.14	7.69	-53.0	-55.2	6.2	0.00e+00	0	43	104	0	77	18654
2026-01-21 20:05:03.96	190.21	7.78	-53.0	-55.2	6.2	0.00e+00	0	43	104	0	77	18630
2026-01-21 20:05:04.94	190.29	7.86	-53.2	-55.4	6.2	0.00e+00	0	43	104	0	77	19092
2026-01-21 20:05:05.91	190.37	7.94	-53.2	-55.4	6.2	0.00e+00	0	43	104	0	77	19072
2026-01-21 20:05:06.88	190.45	8.03	-53.0	-55.2	6.2	0.00e+00	0	43	104	0	77	18716
2026-01-21 20:05:07.85	190.52	8.11	-53.0	-55.2	6.2	0.00e+00	0	43	104	0	77	18712
2026-01-21 20:05:08.83	190.60	8.20	-53.2	-55.4	6.2	0.00e+00	0	43	104	0	77	19051
2026-01-21 20:05:09.80	190.68	8.28	-53.3	-55.4	6.2	0.00e+00	0	43	104	0	77	19112
2026-01-21 20:05:10.76	190.76	8.36	-53.0	-55.3	6.2	0.00e+00	0	43	104	0	77	18852
2026-01-21 20:05:11.73	190.84	8.45	-53.0	-55.2	6.2	0.00e+00	0	43	104	0	77	18771
2026-01-21 20:05:12.70	190.93	8.53	-53.2	-55.3	6.2	0.00e+00	0	43	104	0	77	19025
2026-01-21 20:05:13.67	191.01	8.62	-53.3	-55.4	6.2	0.00e+00	0	43	104	0	77	19193
2026-01-21 20:05:14.64	191.09	8.71	-49.2	-49.9	6.6	0.00e+00	0	43	104	0	70	15130
2026-01-21 20:05:15.61	191.17	8.79	-47.3	-47.9	6.3	0.00e+00	0	43	104	0	66	15128
2026-01-21 20:05:16.58	191.26	8.88	-47.0	-47.6	6.3	0.00e+00	0	43	104	0	65	15639
2026-01-21 20:05:17.55	191.34	8.97	-47.1	-47.7	6.3	0.00e+00	0	43	104	0	65	15660
2026-01-21 20:05:18.53	191.42	9.05	-47.0	-47.6	6.3	0.00e+00	0	43	104	0	65	15652
2026-01-21 20:05:19.50	191.51	9.14	-47.0	-47.7	6.3	0.00e+00	0	43	104	0	65	15752
2026-01-21 20:05:20.48	191.60	9.23	-48.2	-48.9	6.3	0.00e+00	0	43	104	0	66	17146
2026-01-21 20:05:21.45	191.68	9.32	-49.4	-50.3	6.3	0.00e+00	0	43	104	0	71	14998
2026-01-21 20:05:22.42	191.77	9.41	-47.1	-47.6	6.3	0.00e+00	0	43	104	0	66	14728
2026-01-21 20:05:23.39	191.86	9.50	-50.2	-51.2	6.3	0.00e+00	0	43	104	0	72	15695
2026-01-21 20:05:24.36	191.95	9.59	-47.0	-47.6	6.3	0.00e+00	0	43	104	0	66	14753
2026-01-21 20:05:25.33	192.03	9.68	-46.8	-47.4	6.2	0.00e+00	0	43	104	0	65	15130
2026-01-21 20:05:26.30	192.12	9.77	-46.7	-47.3	6.3	0.00e+00	0	43	104	0	65	14948
2026-01-21 20:05:27.28	192.21	9.86	-47.3	-47.9	6.2	0.00e+00	0	43	104	0	66	15163
2026-01-21 20:05:28.25	192.30	9.95	-46.6	-47.2	6.2	0.00e+00	0	43	104	0	65	14930
2026-01-21 20:05:29.22	192.40	10.04	-52.8	-54.8	6.2	0.00e+00	0	43	104	0	76	18836
2026-01-21 20:05:30.19	192.49	10.13	-47.9	-48.5	6.2	0.00e+00	0	43	104	0	67	15364
2026-01-21 20:05:31.15	192.58	10.22	-42.0	-42.0	12.1	9.35e-03	0	43	0	33554432	55	14481
2026-01-21 20:05:32.13	192.67	10.32	-33.2	-33.0	16.1	2.47e-05	0	43	0	134217728	38	13759
2026-01-21 20:05:33.10	192.77	10.41	-32.8	-32.7	16.1	7.60e-06	0	43	0	251658240	37	13963
2026-01-21 20:05:34.07	192.86	10.50	-33.0	-32.8	16.4	2.09e-05	0	43	0	360710144	37	14225
2026-01-21 20:05:35.04	192.96	10.60	-32.9	-32.7	16.5	1.14e-05	0	43	0	461373440	37	14100
2026-01-21 20:05:36.01	193.05	10.69	-32.7	-32.6	16.5	5.70e-06	0	43	0	570425344	37	13823
2026-01-21 20:05:36.98	193.15	10.79	-32.7	-32.6	16.6	9.50e-06	0	43	0	687865856	37	13837
2026-01-21 20:05:37.95	193.25	10.88	-32.8	-32.7	16.5	1.33e-05	0	43	0	796917760	37	13966
2026-01-21 20:05:38.92	193.34	10.98	-32.7	-32.6	16.3	7.60e-06	0	43	0	897581056	37	13813
2026-01-21 20:05:39.89	193.44	11.07	-32.7	-32.5	16.7	3.80e-06	0	43	0	1015021568	37	13694
2026-01-21 20:05:40.86	193.54	11.17	-32.7	-32.5	16.7	0.00e+00	0	43	0	1124073472	37	13705
2026-01-21 20:05:41.83	193.64	11.26	-32.5	-32.4	16.5	7.60e-06	0	43	0	1224736768	37	13526
2026-01-21 20:05:42.80	193.74	11.36	-32.6	-32.4	16.5	9.50e-06	0	43	0	1342177280	37	13615
2026-01-21 20:05:43.77	193.85	11.46	-32.4	-32.3	16.5	5.70e-06	0	43	0	1451229184	36	14116
2026-01-21 20:05:44.73	193.95	11.55	-32.5	-32.3	16.6	0.00e+00	0	43	0	1551892480	36	14229
2026-01-21 20:05:45.71	194.05	11.65	-32.5	-32.4	16.9	7.60e-06	0	43	0	1669332992	36	14331
2026-01-21 20:05:46.68	194.16	11.75	-32.4	-32.3	16.7	7.60e-06	0	43	0	1778384896	36	14158
2026-01-21 20:05:47.65	194.26	11.85	-32.2	-32.1	16.9	5.70e-06	0	43	0	1887436800	36	13837
2026-01-21 20:05:48.62	194.37	11.95	-32.4	-32.2	16.5	1.90e-06	0	43	0	1988100096	36	14000
2026-01-21 20:05:49.60	194.47	12.05	-32.3	-32.1	16.7	0.00e+00	0	43	0	2105540608	36	13924
2026-01-21 20:05:50.57	194.58	12.15	-32.4	-32.2	16.7	3.80e-06	0	43	0	2214592512	36	14026
2026-01-21 20:05:51.54	194.69	12.25	-32.2	-32.1	16.9	5.70e-06	0	43	0	2332033024	36	13828
2026-01-21 20:05:52.51	194.80	12.35	-32.2	-32.0	17.1	1.90e-06	0	43	0	2432696320	36	13763
2026-01-21 20:05:53.48	194.91	12.45	-32.3	-32.1	17.2	5.70e-06	0	43	0	2541748224	36	13931
2026-01-21 20:05:54.45	195.02	12.56	-32.1	-32.0	17.0	0.00e+00	0	43	0	2659188736	36	13649
2026-01-21 20:05:55.42	195.13	12.66	-32.1	-32.0	17.4	1.90e-06	0	44	0	2759852032	36	13661
2026-01-21 20:05:56.39	195.24	12.76	-32.3	-32.1	17.1	3.80e-06	0	44	0	2868903936	36	13857
2026-01-21 20:05:57.36	195.35	12.87	-32.2	-32.1	17.0	0.00e+00	0	43	0	2977955840	36	13806
2026-01-21 20:05:58.33	195.47	12.97	-32.0	-31.9	17.1	0.00e+00	0	43	0	3087007744	36	13519
2026-01-21 20:05:59.30	195.58	13.07	-32.2	-32.1	17.0	1.90e-06	0	43	0	3196059648	36	13828
2026-01-21 20:06:00.27	195.70	13.18	-29.6	-29.5	16.6	1.90e-06	0	43	0	3305111552	31	13681
2026-01-21 20:06:01.25	195.82	13.28	-29.6	-29.5	16.8	1.71e-05	0	43	0	3422552064	31	13690
2026-01-21 20:06:02.22	195.94	13.39	-29.5	-29.4	17.0	1.90e-06	0	43	0	3523215360	31	13490
2026-01-21 20:06:03.19	196.05	13.50	-29.4	-29.2	16.6	7.60e-06	0	43	0	3632267264	30	14082
2026-01-21 20:06:04.16	196.17	13.60	-29.5	-29.3	16.7	5.70e-06	0	43	0	3749707776	30	14177
2026-01-21 20:06:05.13	196.29	13.71	-29.4	-29.2	16.9	3.80e-06	0	43	0	3850371072	30	14050
2026-01-21 20:06:06.10	196.42	13.82	-29.3	-29.2	16.7	0.00e+00	0	43	0	3959422976	30	13969
2026-01-21 20:06:07.08	196.54	13.93	-29.2	-29.1	16.7	3.80e-06	0	43	0	4076863488	30	13858
2026-01-21 20:06:08.05	196.66	14.04	-29.3	-29.2	16.8	1.14e-05	0	44	0	4185915392	30	13957
2026-01-21 20:06:09.02	196.79	14.14	-29.3	-29.2	16.6	7.60e-06	0	43	0	4286578688	30	13969
2026-01-21 20:06:09.99	196.91	14.25	-29.1	-28.9	17.0	7.60e-06	0	43	0	4395630592	30	13595
2026-01-21 20:06:10.96	197.04	14.36	-29.1	-28.9	16.6	5.70e-06	0	43	0	4513071104	30	13601
2026-01-21 20:06:11.93	197.17	14.47	-29.0	-28.9	16.7	5.70e-06	0	44	0	4613734400	30	13495
2026-01-21 20:06:12.90	197.30	14.59	-29.1	-28.9	17.0	5.70e-06	0	43	0	4722786304	30	13585
2026-01-21 20:06:13.87	197.43	14.70	-28.8	-28.7	17.0	0.00e+00	0	43	0	4840226816	29	14014
2026-01-21 20:06:14.84	197.56	14.81	-28.9	-28.7	16.6	3.80e-06	0	43	0	4949278720	29	14056
2026-01-21 20:06:15.81	197.69	14.92	-28.8	-28.7	17.0	3.80e-06	0	43	0	5049942016	29	14024
2026-01-21 20:06:16.78	197.82	15.04	-28.9	-28.8	16.9	5.70e-06	0	44	0	5167382528	29	14114
2026-01-21 20:06:17.75	197.96	15.15	-28.9	-28.8	16.7	3.80e-06	0	43	0	5276434432	29	14126
2026-01-21 20:06:18.72	198.09	15.26	-28.8	-28.6	17.0	5.70e-06	0	43	0	5377097728	29	13902
2026-01-21 20:06:19.70	198.23	15.38	-28.7	-28.6	16.8	0.00e+00	0	43	0	5494538240	29	13803
2026-01-21 20:06:20.67	198.37	15.50	-28.7	-28.5	16.9	0.00e+00	0	43	0	5603590144	29	13759
2026-01-21 20:06:21.64	198.51	15.61	-28.5	-28.3	16.9	1.90e-06	0	44	0	5712642048	29	13475
2026-01-21 20:06:22.61	198.65	15.73	-28.6	-28.4	17.0	0.00e+00	0	43	0	5813305344	28	14425
2026-01-21 20:06:23.59	198.79	15.85	-28.5	-28.4	17.2	1.90e-06	0	43	0	5930745856	28	14288
2026-01-21 20:06:24.56	198.93	15.96	-28.5	-28.3	17.3	1.90e-06	0	43	0	6039797760	28	14202
2026-01-21 20:06:25.52	199.08	16.08	-28.5	-28.3	17.3	1.90e-06	0	43	0	6140461056	28	14262
2026-01-21 20:06:26.49	199.22	16.20	-28.5	-28.4	17.3	0.00e+00	0	43	0	6257901568	28	14302
2026-01-21 20:06:27.46	199.37	16.32	-28.3	-28.1	17.4	0.00e+00	0	43	0	6366953472	28	13894
2026-01-21 20:06:28.43	199.51	16.44	-28.3	-28.1	17.4	0.00e+00	0	43	0	6467616768	28	13937
2026-01-21 20:06:29.41	199.66	16.56	-28.2	-28.1	17.6	0.00e+00	0	43	0	6585057280	28	13826
2026-01-21 20:06:30.38	199.82	16.68	-28.3	-28.1	17.4	0.00e+00	0	44	0	6694109184	28	13935
2026-01-21 20:06:31.35	199.97	16.80	-28.3	-28.2	17.5	1.90e-06	0	43	0	6803161088	28	13990
2026-01-21 20:06:32.32	200.12	16.92	-28.3	-28.1	17.3	0.00e+00	0	43	0	6912212992	28	13888
2026-01-21 20:06:33.29	200.27	17.05	-28.2	-28.0	17.6	0.00e+00	0	44	0	7021264896	28	13732
2026-01-21 20:06:34.27	200.43	17.17	-28.3	-28.1	17.6	0.00e+00	0	43	0	7130316800	28	13879
2026-01-21 20:06:35.24	200.59	17.29	-28.1	-28.0	17.8	0.00e+00	0	44	0	7230980096	28	13644
2026-01-21 20:06:36.21	200.75	17.42	-28.1	-27.9	17.8	0.00e+00	0	44	0	7348420608	28	13599
2026-01-21 20:06:37.18	200.91	17.54	-28.1	-28.0	17.7	0.00e+00	0	44	0	7457472512	28	13651
2026-01-21 20:06:38.15	201.07	17.67	-28.0	-27.9	17.7	0.00e+00	0	44	0	7574913024	28	13500
2026-01-21 20:06:39.12	201.23	17.80	-28.0	-27.9	18.1	0.00e+00	0	43	0	7675576320	28	13477
2026-01-21 20:06:40.09	201.40	17.92	-28.0	-27.8	18.2	0.00e+00	0	44	0	7784628224	27	14195
2026-01-21 20:06:41.07	201.56	18.05	-28.1	-28.0	17.9	0.00e+00	0	44	0	7902068736	27	14469
2026-01-21 20:06:42.04	201.73	18.18	-28.0	-27.8	18.3	1.90e-06	0	44	0	8002732032	27	14191
2026-01-21 20:06:43.01	201.90	18.31	-27.9	-27.7	18.0	0.00e+00	0	44	0	8111783936	27	14109
2026-01-21 20:06:43.97	202.07	18.43	-27.9	-27.8	18.3	0.00e+00	0	44	0	8220835840	27	14162
2026-01-21 20:06:44.95	202.24	18.57	-27.9	-27.7	18.3	0.00e+00	0	44	0	8338276352	27	14077
2026-01-21 20:06:45.91	202.42	18.69	-27.9	-27.7	18.4	0.00e+00	0	44	0	8438939648	27	14045
2026-01-21 20:06:46.88	202.59	18.83	-27.8	-27.7	18.5	0.00e+00	0	44	0	8547991552	27	13996
2026-01-21 20:06:47.85	202.77	18.96	-27.7	-27.6	18.3	0.00e+00	0	43	0	8665432064	27	13831
2026-01-21 20:06:48.83	202.95	19.09	-27.7	-27.5	18.3	0.00e+00	0	44	0	8766095360	27	13743
2026-01-21 20:06:49.80	203.13	19.22	-27.6	-27.5	18.3	0.00e+00	0	44	0	8875147264	27	13678
2026-01-21 20:06:50.77	203.31	19.36	-27.6	-27.4	18.5	0.00e+00	0	44	0	8992587776	27	13566
2026-01-21 20:06:51.75	203.50	19.49	-27.5	-27.4	18.6	0.00e+00	0	44	0	9101639680	27	13507
2026-01-21 20:06:52.71	203.68	19.62	-27.3	-27.2	18.7	0.00e+00	0	44	0	9202302976	26	13981
2026-01-21 20:06:53.68	203.87	19.76	-27.4	-27.2	18.4	0.00e+00	0	44	0	9319743488	26	14102
2026-01-21 20:06:54.65	204.06	19.90	-27.4	-27.2	18.6	0.00e+00	0	44	0	9428795392	26	14011
2026-01-21 20:06:55.62	204.25	20.03	-27.3	-27.1	18.8	0.00e+00	0	44	0	9529458688	26	13907
2026-01-21 20:06:56.60	204.45	20.17	-27.3	-27.1	18.6	0.00e+00	0	44	0	9638510592	26	13889
2026-01-21 20:06:57.57	204.64	20.31	-27.1	-26.9	19.0	0.00e+00	0	44	0	9755951104	26	13608
2026-01-21 20:06:58.54	204.84	20.45	-27.0	-26.9	18.8	1.90e-06	0	44	0	9856614400	26	13506
2026-01-21 20:06:59.51	205.04	20.59	-27.1	-26.9	18.6	0.00e+00	0	44	0	9965666304	26	13593
2026-01-21 20:07:00.48	205.24	20.72	-26.9	-26.8	18.8	0.00e+00	0	44	0	10083106816	25	14116
2026-01-21 20:07:01.45	205.44	20.86	-26.9	-26.7	19.0	0.00e+00	0	44	0	10192158720	25	14031
2026-01-21 20:07:02.43	205.65	21.01	-26.9	-26.7	19.0	0.00e+00	0	44	0	10292822016	25	14011
2026-01-21 20:07:03.40	205.85	21.15	-26.8	-26.6	19.0	0.00e+00	0	43	0	10410262528	25	13873
2026-01-21 20:07:04.37	206.06	21.29	-26.6	-26.4	18.9	0.00e+00	0	44	0	10519314432	25	13619
2026-01-21 20:07:05.34	206.27	21.43	-26.6	-26.4	19.1	0.00e+00	0	44	0	10619977728	25	13630
2026-01-21 20:07:06.31	206.49	21.58	-26.6	-26.4	19.0	0.00e+00	0	44	0	10737418240	25	13605
2026-01-21 20:07:07.28	206.70	21.72	-26.6	-26.4	19.0	0.00e+00	0	44	0	10846470144	25	13544
2026-01-21 20:07:08.25	206.92	21.86	-26.6	-26.4	18.8	0.00e+00	0	44	0	10955522048	25	13612
2026-01-21 20:07:09.23	207.14	22.01	-26.4	-26.2	19.1	0.00e+00	0	44	0	11056185344	24	14070
2026-01-21 20:07:10.20	207.36	22.16	-26.4	-26.2	19.2	0.00e+00	0	43	0	11173625856	24	14038
2026-01-21 20:07:11.16	207.58	22.30	-26.4	-26.2	18.9	0.00e+00	0	44	0	11282677760	24	14028
2026-01-21 20:07:12.13	207.81	22.45	-26.4	-26.2	19.0	0.00e+00	0	44	0	11383341056	24	14064
2026-01-21 20:07:13.10	208.04	22.59	-26.3	-26.2	19.0	0.00e+00	0	44	0	11500781568	24	13979
2026-01-21 20:07:14.07	208.27	22.74	-26.2	-26.0	19.2	0.00e+00	0	44	0	11609833472	24	13766
2026-01-21 20:07:15.04	208.50	22.89	-26.2	-26.0	19.3	0.00e+00	0	44	0	11727273984	24	13777
2026-01-21 20:07:16.02	208.74	23.04	-26.1	-25.9	19.3	0.00e+00	0	44	0	11827937280	24	13588
2026-01-21 20:07:16.99	208.98	23.19	-26.1	-25.9	19.1	0.00e+00	0	43	0	11936989184	24	13585
2026-01-21 20:07:17.96	209.22	23.34	-26.0	-25.9	19.1	0.00e+00	0	44	0	12046041088	24	13542
2026-01-21 20:07:18.93	209.47	23.49	-26.0	-25.8	19.3	0.00e+00	0	44	0	12146704384	23	14237
2026-01-21 20:07:19.90	209.71	23.64	-26.0	-25.8	19.3	0.00e+00	0	44	0	12264144896	23	14228
2026-01-21 20:07:20.88	209.96	23.80	-25.9	-25.8	19.2	0.00e+00	0	44	0	12373196800	23	14149
2026-01-21 20:07:21.85	210.21	23.95	-25.9	-25.7	19.4	0.00e+00	0	44	0	12490637312	23	14034
2026-01-21 20:07:22.82	210.47	24.10	-25.9	-25.7	19.6	0.00e+00	0	44	0	12591300608	23	14080
2026-01-21 20:07:23.79	210.72	24.25	-25.9	-25.8	19.5	0.00e+00	0	44	0	12700352512	23	14171
2026-01-21 20:07:24.76	210.98	24.41	-25.9	-25.7	19.5	0.00e+00	0	44	0	12817793024	23	14075
2026-01-21 20:07:25.73	211.24	24.56	-26.0	-25.9	19.4	0.00e+00	0	44	0	12918456320	23	14305
2026-01-21 20:07:26.69	211.51	24.72	-25.7	-25.6	19.6	0.00e+00	0	44	0	13027508224	23	13802
2026-01-21 20:07:27.66	211.77	24.87	-25.6	-25.4	19.3	0.00e+00	0	44	0	13144948736	23	13585
2026-01-21 20:07:28.63	212.04	25.03	-25.6	-25.4	19.4	0.00e+00	0	44	0	13245612032	23	13596
2026-01-21 20:07:29.61	212.32	25.18	-25.6	-25.4	19.2	0.00e+00	0	44	0	13354663936	23	13564
2026-01-21 20:07:30.58	212.59	25.34	-25.6	-25.4	19.3	0.00e+00	0	44	0	13463715840	23	13549
2026-01-21 20:07:31.55	212.87	25.50	-25.5	-25.3	19.4	0.00e+00	0	44	0	13581156352	22	14225
2026-01-21 20:07:32.53	213.16	25.66	-25.5	-25.4	19.4	0.00e+00	0	44	0	13681819648	22	14290
2026-01-21 20:07:33.50	213.44	25.82	-25.5	-25.3	19.4	0.00e+00	0	44	0	13790871552	22	14246
2026-01-21 20:07:34.47	213.73	25.97	-25.3	-25.1	19.4	0.00e+00	0	44	0	13908312064	22	13924
2026-01-21 20:07:35.44	214.02	26.13	-25.1	-24.9	19.2	0.00e+00	0	44	0	14017363968	22	13614
2026-01-21 20:07:36.41	214.31	26.29	-25.1	-25.0	19.1	0.00e+00	0	44	0	14118027264	22	13647
2026-01-21 20:07:37.39	214.61	26.45	-25.1	-24.9	19.1	0.00e+00	0	44	0	14235467776	22	13627
2026-01-21 20:07:38.36	214.92	26.61	-25.0	-24.8	19.3	0.00e+00	0	44	0	14344519680	22	13411
2026-01-21 20:07:39.33	215.22	26.77	-25.0	-24.8	19.4	0.00e+00	0	44	0	14445182976	21	14217
2026-01-21 20:07:40.30	215.53	26.93	-24.9	-24.8	19.3	0.00e+00	0	44	0	14554234880	21	14175
2026-01-21 20:07:41.27	215.84	27.09	-24.9	-24.8	19.2	0.00e+00	0	44	0	14671675392	21	14141
2026-01-21 20:07:42.24	216.15	27.25	-25.0	-24.8	19.4	0.00e+00	0	44	0	14780727296	21	14182
2026-01-21 20:07:43.21	216.47	27.42	-25.0	-24.8	19.6	0.00e+00	0	44	0	14881390592	21	14209
2026-01-21 20:07:44.18	216.79	27.58	-25.0	-24.9	19.5	0.00e+00	0	44	0	14998831104	21	14278
2026-01-21 20:07:45.15	217.11	27.74	-25.2	-25.0	19.6	0.00e+00	0	44	0	15107883008	21	14550
2026-01-21 20:07:46.12	217.44	27.90	-25.0	-24.9	19.7	0.00e+00	0	44	0	15208546304	21	14313
2026-01-21 20:07:47.09	217.77	28.06	-24.8	-24.7	19.6	0.00e+00	0	44	0	15325986816	21	13987
2026-01-21 20:07:48.06	218.10	28.23	-24.7	-24.5	19.7	0.00e+00	0	44	0	15435038720	21	13685
2026-01-21 20:07:49.03	218.44	28.39	-24.7	-24.5	19.7	0.00e+00	0	44	0	15535702016	21	13702
2026-01-21 20:07:50.01	218.78	28.55	-24.8	-24.6	19.6	0.00e+00	0	44	0	15653142528	21	13840
2026-01-21 20:07:50.98	219.13	28.71	-24.9	-24.7	19.9	0.00e+00	0	44	0	15762194432	21	14048
2026-01-21 20:07:51.95	219.48	28.88	-24.8	-24.6	19.8	0.00e+00	0	44	0	15871246336	21	13938
2026-01-21 20:07:52.92	219.83	29.04	-24.4	-24.2	19.8	0.00e+00	0	44	0	15971909632	20	14090
2026-01-21 20:07:53.89	220.19	29.20	-24.4	-24.2	19.6	0.00e+00	0	44	0	16089350144	20	14094
2026-01-21 20:07:54.86	220.55	29.36	-24.4	-24.3	19.5	0.00e+00	0	44	0	16198402048	20	14134
2026-01-21 20:07:55.83	220.91	29.53	-24.5	-24.3	19.5	0.00e+00	0	44	0	16299065344	20	14186
2026-01-21 20:07:56.80	221.28	29.69	-24.3	-24.2	19.8	0.00e+00	0	44	0	16416505856	20	14001
2026-01-21 20:07:57.77	221.65	29.85	-24.3	-24.1	19.8	0.00e+00	0	44	0	16525557760	20	13890
2026-01-21 20:07:58.74	222.03	30.01	-24.3	-24.1	19.8	0.00e+00	0	44	0	16626221056	20	13874
2026-01-21 20:07:59.72	222.41	30.17	-24.2	-24.0	19.3	0.00e+00	0	44	0	16743661568	20	13767
2026-01-21 20:08:00.68	222.79	30.33	-24.2	-24.0	19.4	0.00e+00	0	44	0	16852713472	20	13733
2026-01-21 20:08:01.65	223.18	30.49	-24.1	-24.0	19.8	0.00e+00	0	44	0	16961765376	20	13685
2026-01-21 20:08:02.62	223.57	30.66	-24.2	-24.0	19.5	0.00e+00	0	44	0	17070817280	20	13773
2026-01-21 20:08:03.60	223.97	30.82	-24.4	-24.2	19.8	0.00e+00	0	44	0	17179869184	20	14068
2026-01-21 20:08:04.57	224.37	30.98	-24.1	-23.9	19.6	0.00e+00	0	44	0	17288921088	20	13601
2026-01-21 20:08:05.54	224.77	31.14	-24.0	-23.9	19.3	0.00e+00	0	44	0	17389584384	20	13514
2026-01-21 20:08:06.51	225.18	31.30	-24.1	-24.0	19.5	0.00e+00	0	44	0	17507024896	20	13685
2026-01-21 20:08:07.47	225.59	31.45	-24.0	-23.9	19.7	0.00e+00	0	44	0	17616076800	20	13499
2026-01-21 20:08:08.44	226.01	31.61	-23.9	-23.8	19.3	0.00e+00	0	44	0	17733517312	19	14164
2026-01-21 20:08:09.41	226.43	31.77	-23.9	-23.7	19.0	0.00e+00	0	44	0	17834180608	19	14057
2026-01-21 20:08:10.38	226.85	31.92	-23.9	-23.8	19.1	0.00e+00	0	44	0	17943232512	19	14151
2026-01-21 20:08:11.35	227.28	32.08	-23.9	-23.7	19.3	0.00e+00	0	44	0	18060673024	19	14039
2026-01-21 20:08:12.32	227.72	32.23	-23.9	-23.7	18.9	0.00e+00	0	44	0	18161336320	19	14004
2026-01-21 20:08:13.29	228.16	32.39	-23.8	-23.7	18.8	0.00e+00	0	44	0	18270388224	19	13996
2026-01-21 20:08:14.26	228.60	32.54	-23.7	-23.6	18.8	0.00e+00	0	44	0	18379440128	19	13838
2026-01-21 20:08:15.24	229.05	32.70	-23.7	-23.5	18.7	0.00e+00	0	44	0	18488492032	19	13738
2026-01-21 20:08:16.21	229.50	32.85	-23.8	-23.6	18.6	0.00e+00	0	44	0	18597543936	19	13873
2026-01-21 20:08:17.18	229.96	33.00	-23.7	-23.5	18.4	0.00e+00	0	44	0	18706595840	19	13710
2026-01-21 20:08:18.15	230.42	33.15	-23.7	-23.5	18.5	0.00e+00	0	44	0	18824036352	19	13726
2026-01-21 20:08:19.12	230.88	33.30	-23.7	-23.5	18.4	0.00e+00	0	44	0	18924699648	19	13736
2026-01-21 20:08:20.09	231.35	33.44	-23.5	-23.4	18.5	0.00e+00	0	44	0	19033751552	19	13488
2026-01-21 20:08:21.06	231.82	33.59	-23.4	-23.2	18.2	0.00e+00	0	44	0	19151192064	18	14038
2026-01-21 20:08:22.03	232.30	33.73	-23.4	-23.2	18.1	0.00e+00	0	44	0	19251855360	18	14087
2026-01-21 20:08:23.00	232.78	33.88	-23.4	-23.2	18.1	0.00e+00	0	44	0	19360907264	18	14065
2026-01-21 20:08:23.97	233.27	34.02	-23.3	-23.1	17.7	0.00e+00	0	44	0	19478347776	18	13895
2026-01-21 20:08:24.93	233.76	34.16	-23.3	-23.1	17.9	0.00e+00	0	44	0	19579011072	18	13950
2026-01-21 20:08:25.90	234.25	34.30	-23.2	-23.1	17.9	0.00e+00	0	44	0	19688062976	18	13830
2026-01-21 20:08:26.87	234.75	34.43	-23.3	-23.1	18.1	0.00e+00	0	44	0	19797114880	18	13944
2026-01-21 20:08:27.84	235.26	34.57	-23.3	-23.1	17.4	0.00e+00	0	44	0	19914555392	18	13833
2026-01-21 20:08:28.81	235.76	34.70	-23.2	-23.1	18.1	0.00e+00	0	44	0	20015218688	18	13804
2026-01-21 20:08:29.78	236.28	34.83	-23.3	-23.1	17.5	0.00e+00	0	44	0	20124270592	18	13937
2026-01-21 20:08:30.75	236.79	34.96	-23.1	-23.0	17.3	0.00e+00	0	44	0	20241711104	18	13648
2026-01-21 20:08:31.73	237.32	35.09	-23.2	-23.0	18.0	0.00e+00	0	44	0	20342374400	18	13683
2026-01-21 20:08:32.70	237.85	35.22	-23.0	-22.9	17.5	0.00e+00	0	44	0	20451426304	18	13520
2026-01-21 20:08:33.67	238.38	35.34	-23.1	-23.0	17.5	0.00e+00	0	44	0	20568866816	18	13635
2026-01-21 20:08:34.65	238.91	35.47	-23.1	-22.9	17.3	0.00e+00	0	44	0	20677918720	18	13520
2026-01-21 20:08:35.62	239.45	35.59	-23.1	-23.0	17.0	0.00e+00	0	44	0	20778582016	18	13656
2026-01-21 20:08:36.59	239.99	35.71	-23.0	-22.8	17.2	0.00e+00	0	44	0	20896022528	17	14176
2026-01-21 20:08:37.55	240.54	35.82	-23.0	-22.8	17.2	0.00e+00	0	44	0	21005074432	17	14217
2026-01-21 20:08:38.52	241.09	35.93	-23.0	-22.8	17.3	0.00e+00	0	44	0	21105737728	17	14228
2026-01-21 20:08:39.49	241.64	36.05	-23.1	-23.0	17.3	0.00e+00	0	44	0	21214789632	17	14441
2026-01-21 20:08:40.46	242.20	36.15	-23.1	-22.9	17.5	0.00e+00	0	44	0	21332230144	17	14374
2026-01-21 20:08:41.44	242.76	36.26	-23.2	-23.0	17.3	0.00e+00	0	44	0	21432893440	17	14562
2026-01-21 20:08:42.41	243.33	36.36	-23.1	-22.9	17.6	0.00e+00	0	44	0	21541945344	17	14430
2026-01-21 20:08:43.38	243.90	36.47	-23.1	-22.9	17.2	0.00e+00	0	44	0	21659385856	17	14373
2026-01-21 20:08:44.35	244.47	36.56	-23.2	-23.0	17.7	0.00e+00	0	44	0	21768437760	17	14529
2026-01-21 20:08:45.32	245.05	36.66	-23.0	-22.9	17.9	0.00e+00	0	44	0	21869101056	17	14323
2026-01-21 20:08:46.29	245.63	36.75	-23.2	-23.0	17.3	0.00e+00	0	44	0	21986541568	17	14579
2026-01-21 20:08:47.26	246.21	36.84	-23.2	-23.0	18.0	0.00e+00	0	44	0	22095593472	17	14500
2026-01-21 20:08:48.23	246.80	36.93	-23.2	-23.0	18.0	0.00e+00	0	44	0	22196256768	17	14496
2026-01-21 20:08:49.20	247.39	37.01	-23.2	-23.1	18.2	0.00e+00	0	44	0	22313697280	17	14641
2026-01-21 20:08:50.16	247.97	37.09	-23.2	-23.0	18.0	0.00e+00	0	44	0	22422749184	17	14519
2026-01-21 20:08:51.14	248.57	37.17	-23.1	-23.0	18.4	0.00e+00	0	44	0	22523412480	17	14460
2026-01-21 20:08:52.11	249.17	37.24	-23.3	-23.1	18.2	0.00e+00	0	44	0	22632464384	17	14756
2026-01-21 20:08:53.08	249.77	37.32	-23.3	-23.1	17.9	0.00e+00	0	44	0	22749904896	17	14713
2026-01-21 20:08:54.05	250.38	37.38	-23.5	-23.3	17.8	0.00e+00	0	44	0	22858956800	17	15035
2026-01-21 20:08:55.02	250.98	37.45	-23.4	-23.2	18.2	0.00e+00	0	44	0	22959620096	17	14940
2026-01-21 20:08:55.99	251.59	37.51	-23.4	-23.2	18.5	0.00e+00	0	44	0	23077060608	17	14837
2026-01-21 20:08:56.96	252.20	37.57	-23.5	-23.3	18.4	0.00e+00	0	44	0	23186112512	17	15001
2026-01-21 20:08:57.93	252.81	37.62	-23.4	-23.2	18.7	0.00e+00	0	44	0	23286775808	17	14832
2026-01-21 20:08:58.90	253.43	37.68	-23.6	-23.4	19.0	0.00e+00	0	44	0	23404216320	17	15270
2026-01-21 20:08:59.87	254.05	37.72	-23.5	-23.3	19.0	0.00e+00	0	44	0	23513268224	17	15116
2026-01-21 20:09:00.84	254.66	37.77	-23.5	-23.4	18.5	0.00e+00	0	44	0	23622320128	17	15132
2026-01-21 20:09:01.81	255.29	37.81	-23.7	-23.5	18.6	0.00e+00	0	44	0	23731372032	18	14518
2026-01-21 20:09:02.78	255.91	37.85	-23.6	-23.4	18.9	0.00e+00	0	44	0	23840423936	18	14432
2026-01-21 20:09:03.75	256.53	37.88	-23.7	-23.6	19.2	0.00e+00	0	44	0	23949475840	18	14624
2026-01-21 20:09:04.72	257.15	37.91	-23.7	-23.6	19.3	0.00e+00	0	44	0	24050139136	18	14643
2026-01-21 20:09:05.69	257.78	37.94	-23.9	-23.8	19.0	0.00e+00	0	44	0	24167579648	18	14963
2026-01-21 20:09:06.66	258.41	37.96	-23.8	-23.7	19.3	0.00e+00	0	44	0	24276631552	18	14808
2026-01-21 20:09:07.63	259.03	37.98	-24.0	-23.8	19.3	0.00e+00	0	44	0	24377294848	18	15115
2026-01-21 20:09:08.61	259.67	38.00	-24.1	-23.9	19.2	0.00e+00	0	44	0	24494735360	18	15171
2026-01-21 20:09:09.58	260.30	38.01	-24.0	-23.8	19.7	0.00e+00	0	44	0	24603787264	18	15080
2026-01-21 20:09:10.55	260.93	38.02	-23.9	-23.8	19.6	0.00e+00	0	44	0	24721227776	18	14955
2026-01-21 20:09:11.52	261.56	38.02	-23.9	-23.8	20.0	0.00e+00	0	44	0	24821891072	18	14981
2026-01-21 20:09:12.50	262.19	38.02	-24.2	-24.0	19.6	0.00e+00	0	44	0	24930942976	18	15354
2026-01-21 20:09:13.47	262.82	38.02	-24.1	-24.0	19.4	0.00e+00	0	44	0	25039994880	19	14461
2026-01-21 20:09:14.43	263.44	38.01	-24.3	-24.1	19.6	0.00e+00	0	44	0	25140658176	19	14736
2026-01-21 20:09:15.40	264.07	38.00	-24.2	-24.0	19.5	0.00e+00	0	44	0	25258098688	19	14530
2026-01-21 20:09:16.37	264.70	37.99	-24.1	-23.9	19.5	0.00e+00	0	44	0	25367150592	19	14435
2026-01-21 20:09:17.34	265.33	37.97	-24.1	-23.9	19.5	0.00e+00	0	44	0	25484591104	19	14420
2026-01-21 20:09:18.32	265.96	37.95	-24.1	-23.9	19.9	0.00e+00	0	44	0	25585254400	19	14373
2026-01-21 20:09:19.29	266.59	37.93	-24.0	-23.8	20.0	0.00e+00	0	44	0	25694306304	19	14190
2026-01-21 20:09:20.26	267.21	37.90	-24.2	-24.0	19.7	0.00e+00	0	44	0	25811746816	19	14517
2026-01-21 20:09:21.23	267.83	37.87	-24.1	-23.9	19.8	0.00e+00	0	44	0	25912410112	19	14418
2026-01-21 20:09:22.21	268.46	37.83	-24.3	-24.2	19.7	0.00e+00	0	44	0	26021462016	19	14814
2026-01-21 20:09:23.18	269.08	37.79	-24.4	-24.2	19.6	0.00e+00	0	44	0	26130513920	19	14902
2026-01-21 20:09:24.15	269.70	37.75	-24.5	-24.3	19.5	0.00e+00	0	44	0	26247954432	19	15031
2026-01-21 20:09:25.12	270.32	37.70	-24.3	-24.2	19.8	0.00e+00	0	44	0	26348617728	19	14802
2026-01-21 20:09:26.09	270.93	37.65	-24.5	-24.3	19.7	0.00e+00	0	44	0	26457669632	19	15038
2026-01-21 20:09:27.07	271.55	37.60	-24.2	-24.1	19.8	0.00e+00	0	44	0	26575110144	19	14642
2026-01-21 20:09:28.05	272.17	37.54	-24.3	-24.1	19.7	0.00e+00	0	44	0	26684162048	19	14654
2026-01-21 20:09:29.02	272.78	37.48	-24.4	-24.3	19.5	0.00e+00	0	44	0	26784825344	19	14991
2026-01-21 20:09:29.99	273.38	37.42	-24.2	-24.1	20.0	0.00e+00	0	44	0	26902265856	19	14639
2026-01-21 20:09:30.96	273.99	37.35	-24.2	-24.0	19.6	0.00e+00	0	44	0	27011317760	19	14556
2026-01-21 20:09:31.93	274.59	37.28	-24.2	-24.0	19.7	0.00e+00	0	44	0	27111981056	19	14531
2026-01-21 20:09:32.90	275.19	37.21	-24.4	-24.2	19.8	0.00e+00	0	44	0	27229421568	19	14878
2026-01-21 20:09:33.86	275.78	37.13	-24.3	-24.1	20.2	0.00e+00	0	44	0	27338473472	19	14743
2026-01-21 20:09:34.84	276.38	37.05	-24.3	-24.1	20.1	0.00e+00	0	44	0	27439136768	19	14757
2026-01-21 20:09:35.80	276.96	36.97	-24.4	-24.2	19.9	0.00e+00	0	44	0	27548188672	19	14861
2026-01-21 20:09:36.77	277.55	36.89	-24.4	-24.2	19.6	0.00e+00	0	44	0	27665629184	19	14841
2026-01-21 20:09:37.74	278.13	36.80	-24.4	-24.2	19.6	0.00e+00	0	44	0	27774681088	19	14896
2026-01-21 20:09:38.72	278.71	36.71	-24.3	-24.1	19.9	0.00e+00	0	44	0	27875344384	19	14655
2026-01-21 20:09:39.69	279.29	36.62	-24.4	-24.3	19.8	0.00e+00	0	44	0	27992784896	19	14976
2026-01-21 20:09:40.65	279.86	36.52	-24.5	-24.3	19.5	0.00e+00	0	44	0	28101836800	19	15070
2026-01-21 20:09:41.63	280.43	36.42	-24.6	-24.4	19.2	0.00e+00	0	44	0	28202500096	19	15205
2026-01-21 20:09:42.60	281.00	36.32	-24.6	-24.4	19.2	0.00e+00	0	44	0	28319940608	19	15243
2026-01-21 20:09:43.57	281.56	36.21	-24.3	-24.1	19.5	0.00e+00	0	44	0	28428992512	19	14742
2026-01-21 20:09:44.54	282.12	36.11	-24.2	-24.1	19.7	0.00e+00	0	44	0	28529655808	19	14615
2026-01-21 20:09:45.51	282.67	36.00	-24.3	-24.1	19.4	0.00e+00	0	44	0	28647096320	19	14679
2026-01-21 20:09:46.48	283.22	35.89	-24.3	-24.1	19.5	0.00e+00	0	44	0	28756148224	19	14740
2026-01-21 20:09:47.46	283.77	35.77	-24.2	-24.0	19.8	0.00e+00	0	44	0	28865200128	19	14513
2026-01-21 20:09:48.43	284.32	35.66	-24.3	-24.1	19.7	0.00e+00	0	44	0	28965863424	19	14658
2026-01-21 20:09:49.40	284.85	35.54	-24.3	-24.1	19.8	0.00e+00	0	44	0	29083303936	19	14675
2026-01-21 20:09:50.37	285.39	35.42	-24.2	-24.0	19.7	0.00e+00	0	44	0	29192355840	19	14541
2026-01-21 20:09:51.34	285.92	35.29	-24.2	-24.1	20.0	0.00e+00	0	44	0	29309796352	19	14635
2026-01-21 20:09:52.31	286.44	35.17	-24.2	-24.0	20.0	0.00e+00	0	44	0	29410459648	19	14532
2026-01-21 20:09:53.28	286.96	35.04	-24.2	-24.1	19.8	0.00e+00	0	44	0	29519511552	19	14635
2026-01-21 20:09:54.25	287.48	34.91	-24.0	-23.8	20.1	0.00e+00	0	44	0	29636952064	19	14259
2026-01-21 20:09:55.22	287.99	34.78	-24.2	-24.1	20.0	0.00e+00	0	44	0	29737615360	19	14647
2026-01-21 20:09:56.19	288.50	34.65	-24.1	-23.9	20.1	0.00e+00	0	44	0	29846667264	19	14379
2026-01-21 20:09:57.16	289.01	34.52	-24.2	-24.0	20.1	0.00e+00	0	44	0	29955719168	19	14579
2026-01-21 20:09:58.13	289.51	34.38	-24.3	-24.1	20.2	0.00e+00	0	44	0	30064771072	19	14651
2026-01-21 20:09:59.10	290.00	34.25	-24.3	-24.1	20.1	0.00e+00	0	44	0	30173822976	19	14719
2026-01-21 20:10:00.08	290.50	34.11	-24.2	-24.0	20.5	0.00e+00	0	44	0	30282874880	19	14574
2026-01-21 20:10:01.05	290.99	33.97	-24.1	-23.9	20.4	0.00e+00	0	44	0	30400315392	19	14355
2026-01-21 20:10:02.02	291.47	33.82	-24.2	-24.0	20.2	0.00e+00	0	44	0	30500978688	19	14541
2026-01-21 20:10:02.99	291.95	33.68	-24.2	-24.0	20.3	0.00e+00	0	44	0	30610030592	19	14596
2026-01-21 20:10:03.97	292.42	33.54	-24.1	-24.0	20.3	0.00e+00	0	44	0	30727471104	19	14471
2026-01-21 20:10:04.93	292.89	33.39	-24.2	-24.1	20.3	0.00e+00	0	44	0	30828134400	19	14616
2026-01-21 20:10:05.91	293.36	33.24	-24.1	-23.9	20.3	0.00e+00	0	44	0	30937186304	19	14437
2026-01-21 20:10:06.87	293.81	33.10	-24.2	-24.1	20.4	0.00e+00	0	44	0	31054626816	19	14613
2026-01-21 20:10:07.84	294.27	32.95	-24.1	-24.0	20.4	0.00e+00	0	44	0	31163678720	19	14451
2026-01-21 20:10:08.81	294.72	32.80	-24.3	-24.1	20.4	0.00e+00	0	44	0	31264342016	19	14666
2026-01-21 20:10:09.79	295.17	32.65	-24.3	-24.1	20.4	0.00e+00	0	44	0	31373393920	19	14723
2026-01-21 20:10:10.75	295.61	32.50	-24.2	-24.0	20.4	0.00e+00	0	44	0	31490834432	19	14584
2026-01-21 20:10:11.72	296.05	32.34	-24.3	-24.1	20.4	0.00e+00	0	44	0	31591497728	19	14701
2026-01-21 20:10:12.69	296.48	32.19	-24.3	-24.2	20.4	0.00e+00	0	44	0	31700549632	19	14795
2026-01-21 20:10:13.66	296.91	32.04	-24.3	-24.2	20.6	0.00e+00	0	44	0	31817990144	19	14781
2026-01-21 20:10:14.63	297.34	31.88	-24.4	-24.2	20.4	0.00e+00	0	44	0	31918653440	19	14902
2026-01-21 20:10:15.60	297.76	31.72	-24.5	-24.3	20.4	0.00e+00	0	44	0	32027705344	19	14985
2026-01-21 20:10:16.57	298.18	31.57	-24.4	-24.3	20.4	0.00e+00	0	44	0	32145145856	19	14948
2026-01-21 20:10:17.54	298.59	31.41	-24.6	-24.4	20.2	0.00e+00	0	44	0	32254197760	19	15175
2026-01-21 20:10:18.51	299.00	31.25	-24.6	-24.4	20.4	0.00e+00	0	44	0	32354861056	19	15289
2026-01-21 20:10:19.48	299.40	31.10	-24.7	-24.5	20.3	0.00e+00	0	44	0	32472301568	19	15411
2026-01-21 20:10:20.46	299.81	30.94	-24.9	-24.7	20.1	0.00e+00	0	44	0	32581353472	20	14922
2026-01-21 20:10:21.43	300.20	30.78	-24.8	-24.6	20.3	0.00e+00	0	44	0	32682016768	20	14717
2026-01-21 20:10:22.40	300.60	30.62	-24.6	-24.4	20.3	0.00e+00	0	44	0	32791068672	20	14423
2026-01-21 20:10:23.37	300.98	30.46	-24.6	-24.4	20.1	0.00e+00	0	44	0	32908509184	20	14436
2026-01-21 20:10:24.34	301.37	30.30	-24.6	-24.5	20.1	0.00e+00	0	44	0	33009172480	20	14486
2026-01-21 20:10:25.31	301.75	30.14	-24.8	-24.6	20.2	0.00e+00	0	44	0	33118224384	20	14729
2026-01-21 20:10:26.28	302.12	29.98	-24.8	-24.7	20.0	0.00e+00	0	44	0	33235664896	20	14777
2026-01-21 20:10:27.25	302.49	29.82	-25.0	-24.8	19.7	0.00e+00	0	44	0	33344716800	20	15028
2026-01-21 20:10:28.22	302.86	29.66	-24.9	-24.7	19.7	0.00e+00	0	44	0	33445380096	20	14947
2026-01-21 20:10:29.19	303.23	29.50	-25.0	-24.8	19.7	0.00e+00	0	44	0	33562820608	20	15038
2026-01-21 20:10:30.17	303.59	29.33	-25.0	-24.8	19.4	0.00e+00	0	44	0	33671872512	20	15038
2026-01-21 20:10:31.14	303.95	29.17	-24.9	-24.8	19.4	0.00e+00	0	44	0	33772535808	20	14965
2026-01-21 20:10:32.11	304.30	29.01	-25.0	-24.8	19.7	0.00e+00	0	44	0	33881587712	20	15025
2026-01-21 20:10:33.08	304.65	28.85	-24.9	-24.8	19.7	0.00e+00	0	44	0	33999028224	20	14995
2026-01-21 20:10:34.04	304.99	28.69	-25.1	-24.9	19.4	0.00e+00	0	44	0	34108080128	20	15238
2026-01-21 20:10:35.02	305.34	28.53	-25.1	-24.9	19.7	0.00e+00	0	44	0	34208743424	20	15287
2026-01-21 20:10:35.98	305.67	28.37	-25.3	-25.1	19.6	0.00e+00	0	44	0	34326183936	21	14772
2026-01-21 20:10:36.95	306.01	28.21	-25.3	-25.1	19.3	0.00e+00	0	44	0	34435235840	21	14733
2026-01-21 20:10:37.92	306.34	28.05	-25.3	-25.1	19.3	0.00e+00	0	44	0	34535899136	21	14670
2026-01-21 20:10:38.89	306.66	27.89	-25.3	-25.1	19.2	0.00e+00	0	44	0	34653339648	21	14774
2026-01-21 20:10:39.86	306.99	27.73	-25.3	-25.2	19.3	0.00e+00	0	44	0	34762391552	21	14807
2026-01-21 20:10:40.83	307.31	27.57	-25.4	-25.3	19.3	0.00e+00	0	44	0	34863054848	21	14975
2026-01-21 20:10:41.80	307.62	27.41	-25.5	-25.4	18.9	0.00e+00	0	44	0	34980495360	21	15134
2026-01-21 20:10:42.77	307.94	27.25	-25.5	-25.3	19.5	0.00e+00	0	44	0	35089547264	21	15055
2026-01-21 20:10:43.75	308.25	27.09	-25.6	-25.4	19.3	0.00e+00	0	44	0	35198599168	21	15204
2026-01-21 20:10:44.72	308.56	26.93	-25.6	-25.4	19.0	0.00e+00	0	44	0	35299262464	21	15285
2026-01-21 20:10:45.69	308.86	26.77	-25.6	-25.5	18.9	0.00e+00	0	44	0	35416702976	21	15326
2026-01-21 20:10:46.66	309.16	26.61	-25.6	-25.5	18.8	0.00e+00	0	44	0	35525754880	21	15327
2026-01-21 20:10:47.63	309.46	26.45	-25.7	-25.5	19.0	0.00e+00	0	44	0	35626418176	21	15423
2026-01-21 20:10:48.60	309.76	26.29	-25.8	-25.7	19.1	0.00e+00	0	44	0	35743858688	22	14786
2026-01-21 20:10:49.57	310.05	26.14	-25.8	-25.7	18.9	0.00e+00	0	44	0	35852910592	22	14783
2026-01-21 20:10:50.55	310.34	25.98	-25.8	-25.7	18.8	0.00e+00	0	44	0	35970351104	22	14814
2026-01-21 20:10:51.52	310.62	25.82	-25.8	-25.6	18.6	0.00e+00	0	44	0	36071014400	22	14765
2026-01-21 20:10:52.49	310.90	25.66	-25.9	-25.8	18.5	0.00e+00	0	44	0	36180066304	22	14982
2026-01-21 20:10:53.46	311.18	25.51	-26.0	-25.8	18.2	0.00e+00	0	44	0	36289118208	22	15035
2026-01-21 20:10:54.43	311.46	25.35	-26.0	-25.8	17.8	0.00e+00	0	44	0	36398170112	22	15031
2026-01-21 20:10:55.40	311.73	25.20	-26.1	-25.9	17.8	0.00e+00	0	44	0	36507222016	22	15230
2026-01-21 20:10:56.38	312.01	25.04	-26.1	-26.0	18.2	0.00e+00	0	44	0	36616273920	22	15326
2026-01-21 20:10:57.35	312.27	24.89	-26.3	-26.1	18.0	0.00e+00	0	44	0	36733714432	23	14710
2026-01-21 20:10:58.31	312.54	24.73	-26.3	-26.1	17.8	0.00e+00	0	44	0	36834377728	23	14720
2026-01-21 20:10:59.28	312.80	24.58	-26.3	-26.1	18.1	0.00e+00	0	44	0	36943429632	23	14715
2026-01-21 20:11:00.25	313.06	24.43	-26.3	-26.1	18.1	0.00e+00	0	44	0	37060870144	23	14676
2026-01-21 20:11:01.22	313.31	24.28	-26.4	-26.2	17.9	0.00e+00	0	44	0	37161533440	23	14853
2026-01-21 20:11:02.19	313.57	24.12	-26.5	-26.3	18.1	0.00e+00	0	44	0	37270585344	23	15065
2026-01-21 20:11:03.16	313.82	23.97	-26.4	-26.3	18.0	0.00e+00	0	44	0	37388025856	23	14993
2026-01-21 20:11:04.13	314.07	23.82	-26.5	-26.4	18.0	0.00e+00	0	44	0	37488689152	23	15145
2026-01-21 20:11:05.10	314.31	23.67	-26.5	-26.3	18.0	0.00e+00	0	44	0	37597741056	23	15085
2026-01-21 20:11:06.08	314.56	23.52	-26.5	-26.3	17.9	0.00e+00	0	44	0	37706792960	23	15019
2026-01-21 20:11:07.05	314.80	23.37	-26.6	-26.4	18.2	0.00e+00	0	44	0	37824233472	23	15266
2026-01-21 20:11:08.02	315.04	23.22	-26.7	-26.6	18.2	0.00e+00	0	44	0	37924896768	23	15479
2026-01-21 20:11:08.99	315.27	23.08	-26.7	-26.5	18.0	0.00e+00	0	44	0	38033948672	24	14553
2026-01-21 20:11:09.96	315.51	22.93	-26.7	-26.6	17.9	0.00e+00	0	44	0	38151389184	24	14640
2026-01-21 20:11:10.93	315.74	22.78	-26.9	-26.7	17.9	0.00e+00	0	44	0	38252052480	24	14851
2026-01-21 20:11:11.90	315.97	22.63	-26.8	-26.6	18.3	0.00e+00	0	44	0	38361104384	24	14750
2026-01-21 20:11:12.87	316.20	22.49	-26.8	-26.6	18.3	0.00e+00	0	44	0	38478544896	24	14703
2026-01-21 20:11:13.85	316.42	22.34	-26.8	-26.7	18.4	0.00e+00	0	44	0	38587596800	24	14804
2026-01-21 20:11:14.82	316.64	22.20	-26.9	-26.7	18.5	0.00e+00	0	44	0	38688260096	24	14878
2026-01-21 20:11:15.79	316.86	22.05	-26.9	-26.7	18.3	0.00e+00	0	44	0	38805700608	24	14923
2026-01-21 20:11:16.77	317.08	21.91	-26.9	-26.7	18.2	0.00e+00	0	44	0	38914752512	24	14903
2026-01-21 20:11:17.74	317.30	21.77	-26.9	-26.8	18.0	0.00e+00	0	44	0	39015415808	24	15003
2026-01-21 20:11:18.71	317.51	21.62	-27.0	-26.9	17.8	0.00e+00	0	44	0	39124467712	24	15125
2026-01-21 20:11:19.68	317.72	21.48	-27.0	-26.8	17.8	0.00e+00	0	44	0	39241908224	24	15058
2026-01-21 20:11:20.65	317.93	21.34	-26.9	-26.8	17.9	0.00e+00	0	44	0	39350960128	24	15002
2026-01-21 20:11:21.62	318.14	21.20	-27.1	-26.9	17.9	0.00e+00	0	44	0	39451623424	24	15215
2026-01-21 20:11:22.60	318.35	21.06	-27.1	-26.9	17.8	0.00e+00	0	44	0	39569063936	24	15257
2026-01-21 20:11:23.57	318.55	20.92	-27.1	-26.9	17.7	0.00e+00	0	44	0	39678115840	24	15252
2026-01-21 20:11:24.54	318.75	20.78	-27.1	-27.0	17.7	0.00e+00	0	44	0	39795556352	24	15368
2026-01-21 20:11:25.51	318.95	20.64	-27.2	-27.0	17.3	0.00e+00	0	44	0	39896219648	25	14600
2026-01-21 20:11:26.48	319.15	20.51	-27.2	-27.1	17.8	0.00e+00	0	44	0	40005271552	25	14671
2026-01-21 20:11:27.45	319.34	20.37	-27.3	-27.2	17.2	0.00e+00	0	44	0	40114323456	25	14842
2026-01-21 20:11:28.42	319.54	20.23	-27.4	-27.3	17.5	0.00e+00	0	44	0	40223375360	25	14956
2026-01-21 20:11:29.40	319.73	20.10	-27.5	-27.3	17.1	0.00e+00	0	44	0	40332427264	25	15079
2026-01-21 20:11:30.37	319.92	19.96	-27.5	-27.3	17.2	1.90e-06	0	44	0	40441479168	25	15036
2026-01-21 20:11:31.34	320.11	19.83	-27.6	-27.4	17.4	1.90e-06	0	44	0	40558919680	25	15216
2026-01-21 20:11:32.31	320.29	19.69	-27.6	-27.4	16.9	0.00e+00	0	44	0	40659582976	25	15218
2026-01-21 20:11:33.28	320.48	19.56	-27.6	-27.4	17.0	3.80e-06	0	44	0	40768634880	25	15274
2026-01-21 20:11:34.25	320.66	19.43	-27.7	-27.6	17.2	0.00e+00	0	44	0	40886075392	25	15497
2026-01-21 20:11:35.22	320.84	19.30	-27.7	-27.6	17.1	0.00e+00	0	44	0	40986738688	26	14657
2026-01-21 20:11:36.19	321.02	19.16	-27.8	-27.7	16.9	0.00e+00	0	44	0	41095790592	26	14815
2026-01-21 20:11:37.16	321.20	19.03	-27.8	-27.7	16.9	0.00e+00	0	44	0	41213231104	26	14822
2026-01-21 20:11:38.13	321.38	18.90	-28.0	-27.8	16.9	0.00e+00	0	44	0	41313894400	26	15041
2026-01-21 20:11:39.10	321.55	18.77	-27.9	-27.8	17.1	0.00e+00	0	44	0	41422946304	26	15014
2026-01-21 20:11:40.08	321.72	18.64	-28.0	-27.8	17.1	0.00e+00	0	44	0	41531998208	26	15038
2026-01-21 20:11:41.05	321.89	18.52	-28.1	-27.9	17.1	0.00e+00	0	44	0	41649438720	26	15256
2026-01-21 20:11:42.02	322.06	18.39	-28.1	-27.9	17.2	0.00e+00	0	44	0	41750102016	26	15254
2026-01-21 20:11:42.99	322.23	18.26	-28.0	-27.8	17.3	0.00e+00	0	44	0	41859153920	26	15094
2026-01-21 20:11:43.96	322.40	18.13	-28.2	-28.0	17.4	0.00e+00	0	44	0	41976594432	26	15438
2026-01-21 20:11:44.93	322.56	18.01	-28.3	-28.2	17.6	1.90e-06	0	44	0	42077257728	27	14843
2026-01-21 20:11:45.90	322.73	17.88	-28.5	-28.3	17.7	1.90e-06	0	44	0	42186309632	27	15079
2026-01-21 20:11:46.87	322.89	17.76	-28.5	-28.3	17.5	0.00e+00	0	44	0	42303750144	27	15061
2026-01-21 20:11:47.84	323.05	17.63	-28.4	-28.3	17.3	0.00e+00	0	44	0	42404413440	27	15002
2026-01-21 20:11:48.82	323.21	17.51	-28.4	-28.2	17.6	0.00e+00	0	44	0	42513465344	27	14897
2026-01-21 20:11:49.79	323.37	17.39	-28.5	-28.4	17.3	0.00e+00	0	44	0	42630905856	27	15126
2026-01-21 20:11:50.76	323.52	17.26	-28.6	-28.4	17.4	1.90e-06	0	44	0	42739957760	27	15269
2026-01-21 20:11:51.73	323.68	17.14	-28.6	-28.5	17.5	0.00e+00	0	44	0	42840621056	27	15306
2026-01-21 20:11:52.70	323.83	17.02	-28.7	-28.5	17.2	0.00e+00	0	44	0	42949672960	27	15461
2026-01-21 20:11:53.67	323.98	16.90	-28.7	-28.6	17.5	1.90e-06	0	44	0	43067113472	28	14614
2026-01-21 20:11:54.64	324.13	16.78	-28.7	-28.6	17.2	0.00e+00	0	44	0	43167776768	28	14649
2026-01-21 20:11:55.61	324.28	16.66	-28.8	-28.6	17.3	1.90e-06	0	44	0	43276828672	28	14700
2026-01-21 20:11:56.58	324.43	16.54	-28.9	-28.7	17.6	1.90e-06	0	44	0	43394269184	28	14872
2026-01-21 20:11:57.55	324.58	16.42	-28.9	-28.8	17.4	0.00e+00	0	44	0	43503321088	28	14980
2026-01-21 20:11:58.52	324.72	16.30	-29.1	-29.0	17.4	0.00e+00	0	44	0	43603984384	28	15358
2026-01-21 20:11:59.49	324.87	16.19	-29.1	-29.0	17.6	0.00e+00	0	44	0	43721424896	28	15316
2026-01-21 20:12:00.46	325.01	16.07	-29.0	-28.8	17.6	0.00e+00	0	44	0	43830476800	28	15071
2026-01-21 20:12:01.43	325.15	15.95	-29.1	-28.9	17.3	0.00e+00	0	44	0	43931140096	28	15208
2026-01-21 20:12:02.40	325.29	15.84	-29.1	-29.0	17.4	0.00e+00	0	44	0	44040192000	28	15379
2026-01-21 20:12:03.37	325.43	15.72	-29.2	-29.1	17.4	0.00e+00	0	44	0	44157632512	28	15488
2026-01-21 20:12:04.34	325.57	15.61	-29.2	-29.0	17.5	1.90e-06	0	44	0	44266684416	29	14606
2026-01-21 20:12:05.32	325.71	15.49	-29.2	-29.1	17.6	0.00e+00	0	44	0	44367347712	29	14641
2026-01-21 20:12:06.29	325.84	15.38	-29.4	-29.2	17.5	0.00e+00	0	44	0	44484788224	29	14896
2026-01-21 20:12:07.26	325.98	15.26	-29.4	-29.3	17.5	3.80e-06	0	44	0	44593840128	29	14982
2026-01-21 20:12:08.22	326.11	15.15	-29.5	-29.3	17.6	1.90e-06	0	44	0	44694503424	29	15091
2026-01-21 20:12:09.19	326.24	15.04	-29.6	-29.4	17.5	5.70e-06	0	44	0	44811943936	29	15200
2026-01-21 20:12:10.17	326.38	14.93	-29.6	-29.4	17.7	0.00e+00	0	44	0	44920995840	29	15245
2026-01-21 20:12:11.14	326.51	14.82	-29.6	-29.5	17.6	0.00e+00	0	44	0	45030047744	30	14510
2026-01-21 20:12:12.11	326.64	14.71	-29.6	-29.5	17.7	1.90e-06	0	44	0	45139099648	30	14471
2026-01-21 20:12:13.08	326.76	14.60	-29.7	-29.6	17.6	1.90e-06	0	44	0	45248151552	30	14658
2026-01-21 20:12:14.05	326.89	14.49	-29.7	-29.6	17.8	3.80e-06	0	44	0	45357203456	30	14638
2026-01-21 20:12:15.02	327.02	14.38	-29.8	-29.6	17.7	1.90e-06	0	44	0	45457866752	30	14724
2026-01-21 20:12:15.99	327.14	14.27	-29.8	-29.7	17.6	0.00e+00	0	44	0	45575307264	30	14791
2026-01-21 20:12:16.96	327.27	14.16	-29.8	-29.7	17.7	1.90e-06	0	44	0	45684359168	30	14850
2026-01-21 20:12:17.93	327.39	14.05	-29.8	-29.7	17.6	0.00e+00	0	44	0	45785022464	30	14865
2026-01-21 20:12:18.90	327.51	13.95	-29.9	-29.8	17.7	3.80e-06	0	44	0	45902462976	30	15033
2026-01-21 20:12:19.87	327.63	13.84	-30.0	-29.9	17.4	0.00e+00	0	44	0	46011514880	30	15203
2026-01-21 20:12:20.84	327.75	13.73	-30.0	-29.9	17.5	5.70e-06	0	44	0	46128955392	30	15182
2026-01-21 20:12:21.81	327.87	13.63	-30.2	-30.0	17.5	3.80e-06	0	44	0	46229618688	30	15402
2026-01-21 20:12:22.78	327.99	13.52	-30.3	-30.1	17.4	1.90e-06	0	44	0	46338670592	31	14712
2026-01-21 20:12:23.74	328.11	13.42	-30.1	-29.9	17.6	3.80e-06	0	44	0	46447722496	31	14415
2026-01-21 20:12:24.72	328.22	13.31	-30.2	-30.0	17.4	3.80e-06	0	44	0	46556774400	31	14605
2026-01-21 20:12:25.69	328.34	13.21	-30.2	-30.0	17.3	0.00e+00	0	44	0	46665826304	31	14558
2026-01-21 20:12:26.66	328.45	13.11	-30.4	-30.2	17.2	5.70e-06	0	44	0	46774878208	31	14886
2026-01-21 20:12:27.64	328.57	13.00	-30.4	-30.3	17.5	1.90e-06	0	44	0	46875541504	31	14987
2026-01-21 20:12:28.61	328.68	12.90	-30.5	-30.3	17.4	3.80e-06	0	44	0	46992982016	31	15055
2026-01-21 20:12:29.58	328.79	12.80	-30.6	-30.5	17.3	7.60e-06	0	44	0	47102033920	31	15307
2026-01-21 20:12:30.55	328.90	12.70	-30.4	-30.3	17.5	0.00e+00	0	44	0	47219474432	31	15037
2026-01-21 20:12:31.53	329.01	12.59	-30.6	-30.4	17.2	5.70e-06	0	44	0	47320137728	31	15243
2026-01-21 20:12:32.50	329.12	12.49	-30.6	-30.4	17.2	5.70e-06	0	44	0	47429189632	31	15290
2026-01-21 20:12:33.47	329.23	12.39	-30.6	-30.4	17.3	1.52e-05	0	44	0	47546630144	31	15255
2026-01-21 20:12:34.44	329.34	12.29	-30.6	-30.4	17.2	5.70e-06	0	44	0	47647293440	31	15268
2026-01-21 20:12:35.41	329.45	12.19	-30.7	-30.6	17.2	5.70e-06	0	44	0	47756345344	31	15528
2026-01-21 20:12:36.38	329.55	12.09	-30.6	-30.5	16.9	1.33e-05	0	44	0	47865397248	32	14493
2026-01-21 20:12:37.35	329.66	12.00	-30.7	-30.6	17.0	9.50e-06	0	44	0	47982837760	32	14610
2026-01-21 20:12:38.32	329.76	11.90	-30.6	-30.5	17.0	1.33e-05	0	44	0	48083501056	32	14529
2026-01-21 20:12:39.30	329.87	11.80	-30.6	-30.5	17.1	5.70e-06	0	44	0	48192552960	32	14517
2026-01-21 20:12:40.27	329.97	11.70	-30.9	-30.7	16.7	1.52e-05	0	44	0	48309993472	32	14912
2026-01-21 20:12:41.24	330.07	11.61	-30.8	-30.7	16.8	7.60e-06	0	44	0	48410656768	32	14856
2026-01-21 20:12:42.21	330.17	11.51	-30.9	-30.7	16.9	9.50e-06	0	44	0	48519708672	32	14907
2026-01-21 20:12:43.19	330.28	11.41	-31.0	-30.9	16.7	1.33e-05	0	44	0	48637149184	32	15143
2026-01-21 20:12:44.17	330.38	11.32	-31.0	-30.8	16.8	1.52e-05	0	44	0	48746201088	32	15068
2026-01-21 20:12:45.14	330.48	11.22	-31.1	-31.0	16.8	1.33e-05	0	44	0	48855252992	32	15316
2026-01-21 20:12:46.12	330.58	11.12	-31.1	-30.9	16.7	1.52e-05	0	44	0	48964304896	32	15267
2026-01-21 20:12:47.10	330.67	11.03	-31.1	-31.0	16.7	2.67e-05	0	44	0	49073356800	32	15369
2026-01-21 20:12:48.08	330.77	10.93	-31.2	-31.1	16.6	2.67e-05	0	44	0	49182408704	32	15510
2026-01-21 20:12:49.06	330.87	10.84	-31.5	-31.3	16.3	3.62e-05	0	44	0	49299849216	33	15114
2026-01-21 20:12:50.03	330.97	10.75	-31.3	-31.2	16.6	3.81e-05	0	44	0	49400512512	33	14808
2026-01-21 20:12:51.00	331.06	10.65	-31.3	-31.2	16.6	2.09e-05	0	44	0	49509564416	33	14806
2026-01-21 20:12:51.98	331.16	10.56	-31.3	-31.2	16.5	2.86e-05	0	44	0	49627004928	33	14840
2026-01-21 20:12:52.95	331.25	10.47	-31.5	-31.4	16.4	3.05e-05	0	44	0	49736056832	33	15134
2026-01-21 20:12:53.93	331.34	10.38	-31.6	-31.5	16.3	4.76e-05	0	44	0	49836720128	33	15368
2026-01-21 20:12:54.91	331.44	10.28	-31.6	-31.4	16.2	4.19e-05	0	44	0	49954160640	33	15212
2026-01-21 20:12:55.89	331.53	10.19	-31.5	-31.3	16.1	4.00e-05	0	44	0	50063212544	33	15112
2026-01-21 20:12:56.87	331.62	10.10	-31.6	-31.4	16.1	4.19e-05	0	44	0	50172264448	33	15267
2026-01-21 20:12:57.86	331.71	10.01	-31.5	-31.3	16.2	5.72e-05	0	44	0	50289704960	33	15077
2026-01-21 20:12:58.86	331.81	9.92	-31.7	-31.6	17.2	5.70e-06	0	44	0	50398756864	34	14661
2026-01-21 20:12:59.85	331.90	9.82	-53.1	-55.5	6.2	0.00e+00	0	44	104	50440699904	76	20452
2026-01-21 20:13:00.85	331.99	9.73	-53.1	-55.4	6.2	0.00e+00	0	44	104	50440699904	76	20283
2026-01-21 20:13:01.85	332.08	9.64	-53.1	-55.3	6.2	0.00e+00	0	44	104	50440699904	76	20099
2026-01-21 20:13:02.86	332.17	9.55	-53.2	-55.4	6.2	0.00e+00	0	43	104	50440699904	76	20221
2026-01-21 20:13:03.87	332.26	9.46	-49.8	-50.8	6.7	0.00e+00	0	44	104	50440699904	71	15953
2026-01-21 20:13:04.87	332.35	9.37	-53.1	-55.1	6.2	0.00e+00	0	44	104	50440699904	76	19685
2026-01-21 20:13:05.87	332.44	9.28	-48.5	-49.4	7.0	0.00e+00	0	44	104	50440699904	68	16103
2026-01-21 20:13:06.86	332.52	9.19	-48.1	-48.9	7.2	0.00e+00	0	44	104	50440699904	67	16028
2026-01-21 20:13:07.86	332.61	9.10	-48.0	-48.8	7.2	0.00e+00	0	44	104	50440699904	67	15902
2026-01-21 20:13:08.86	332.70	9.01	-47.4	-48.1	7.3	0.00e+00	0	43	104	50440699904	66	15640
2026-01-21 20:13:09.86	332.78	8.92	-47.3	-48.1	7.4	0.00e+00	0	44	104	50440699904	66	15480
2026-01-21 20:13:10.85	332.87	8.83	-49.5	-50.5	6.8	0.00e+00	0	44	104	50440699904	69	17217
2026-01-21 20:13:11.85	332.95	8.75	-53.1	-55.3	6.2	0.00e+00	0	44	104	50440699904	76	20041
2026-01-21 20:13:12.83	333.03	8.66	-53.0	-55.1	6.2	0.00e+00	0	44	104	50440699904	76	19636
2026-01-21 20:13:13.83	333.12	8.57	-47.5	-48.1	7.3	0.00e+00	0	44	104	50440699904	66	15549
2026-01-21 20:13:14.83	333.20	8.49	-47.4	-48.0	7.4	0.00e+00	0	43	104	50440699904	66	15364
2026-01-21 20:13:15.82	333.28	8.40	-47.1	-47.7	7.5	0.00e+00	0	44	104	50440699904	66	14859
2026-01-21 20:13:16.82	333.36	8.31	-46.8	-47.4	7.6	0.00e+00	0	44	104	50440699904	65	15141
2026-01-21 20:13:17.83	333.44	8.23	-46.3	-46.8	7.7	0.00e+00	0	44	0	50440699904	64	15091
2026-01-21 20:13:18.83	333.52	8.14	-48.9	-49.7	7.0	0.00e+00	0	44	104	50440699904	68	16748
2026-01-21 20:13:19.82	333.60	8.06	-53.0	-55.2	6.2	0.00e+00	0	44	104	50440699904	76	19756
2026-01-21 20:13:20.82	333.68	7.97	-53.0	-55.0	6.2	0.00e+00	0	44	104	50440699904	76	19444
2026-01-21 20:13:21.82	333.76	7.89	-46.3	-46.8	7.7	0.00e+00	0	44	104	50440699904	64	15039
2026-01-21 20:13:22.83	333.84	7.80	-46.3	-46.8	7.7	0.00e+00	0	44	0	50440699904	64	14973
2026-01-21 20:13:23.83	333.92	7.72	-46.2	-46.7	7.7	0.00e+00	0	44	104	50440699904	64	14896
2026-01-21 20:13:24.84	334.00	7.64	-45.8	-46.2	7.8	0.00e+00	0	44	0	50440699904	63	14947
2026-01-21 20:13:25.85	334.08	7.55	-45.3	-45.8	7.9	0.00e+00	0	44	0	50440699904	62	15024
2026-01-21 20:13:26.85	334.15	7.47	-48.9	-49.8	6.9	0.00e+00	0	44	104	50440699904	68	16883
2026-01-21 20:13:27.86	334.23	7.38	-52.9	-55.0	6.2	0.00e+00	0	44	104	50440699904	76	19460
2026-01-21 20:13:28.87	334.31	7.30	-52.9	-55.0	6.2	0.00e+00	0	44	104	50440699904	76	19308
2026-01-21 20:13:29.88	334.38	7.22	-45.4	-45.8	8.0	0.00e+00	0	44	104	50440699904	62	15045
2026-01-21 20:13:30.89	334.46	7.14	-45.4	-45.8	8.0	0.00e+00	0	44	0	50440699904	62	15077
2026-01-21 20:13:31.90	334.53	7.05	-45.6	-46.1	7.9	0.00e+00	0	44	0	50440699904	62	15520
2026-01-21 20:13:32.91	334.61	6.97	-45.1	-45.5	8.1	0.00e+00	0	44	0	50440699904	62	14500
2026-01-21 20:13:33.91	334.68	6.89	-44.4	-44.8	8.2	0.00e+00	0	44	0	50440699904	60	14965
2026-01-21 20:13:34.92	334.75	6.81	-50.0	-51.2	6.7	0.00e+00	0	44	104	50440699904	70	17610
2026-01-21 20:13:35.93	334.83	6.73	-52.8	-54.9	6.2	0.00e+00	0	44	104	50440699904	76	19113
2026-01-21 20:13:36.94	334.90	6.65	-47.0	-47.5	7.5	0.00e+00	0	44	104	50440699904	66	14483
2026-01-21 20:13:37.95	334.97	6.57	-52.8	-54.9	6.2	0.00e+00	0	43	104	50440699904	76	19092
2026-01-21 20:13:38.95	335.04	6.49	-46.9	-47.4	7.5	0.00e+00	0	44	104	50440699904	65	15263
2026-01-21 20:13:39.96	335.11	6.41	-47.0	-47.5	7.5	0.00e+00	0	43	104	50440699904	65	15459
2026-01-21 20:13:40.97	335.18	6.33	-45.9	-46.4	7.8	0.00e+00	0	44	0	50440699904	63	15178
2026-01-21 20:13:41.98	335.25	6.25	-47.2	-47.8	7.5	0.00e+00	0	43	104	50440699904	65	15839
2026-01-21 20:13:42.99	335.32	6.17	-49.7	-50.7	6.7	0.00e+00	0	43	104	50440699904	69	17700
2026-01-21 20:13:43.99	335.39	6.09	-52.6	-54.7	6.2	0.00e+00	0	44	104	50440699904	75	19878
2026-01-21 20:13:45.00	335.46	6.01	-52.5	-54.5	6.2	0.00e+00	0	43	104	50440699904	75	19448
2026-01-21 20:13:46.01	335.53	5.93	-44.1	-44.4	8.3	0.00e+00	0	43	104	50440699904	60	14298
2026-01-21 20:13:47.02	335.60	5.86	-44.1	-44.5	8.3	0.00e+00	0	43	0	50440699904	60	14446
2026-01-21 20:13:48.03	335.67	5.78	-43.7	-44.1	8.4	0.00e+00	0	44	0	50440699904	59	14638
2026-01-21 20:13:49.03	335.73	5.70	-43.8	-44.1	8.3	0.00e+00	0	44	0	50440699904	59	14716
2026-01-21 20:13:50.04	335.80	5.62	-43.9	-44.3	8.3	0.00e+00	0	44	0	50440699904	59	15029
2026-01-21 20:13:51.05	335.87	5.55	-48.9	-49.8	6.9	0.00e+00	0	43	104	50440699904	68	16787
2026-01-21 20:13:52.06	335.93	5.47	-52.5	-54.5	6.2	0.00e+00	0	44	104	50440699904	75	19441
2026-01-21 20:13:53.07	336.00	5.39	-44.6	-44.9	8.2	0.00e+00	0	44	104	50440699904	60	15221
2026-01-21 20:13:54.08	336.06	5.32	-52.5	-54.6	6.2	0.00e+00	0	43	104	50440699904	75	19646
2026-01-21 20:13:55.09	336.13	5.24	-44.7	-45.0	8.1	0.00e+00	0	43	104	50440699904	61	14555
2026-01-21 20:13:56.10	336.19	5.17	-43.6	-44.0	8.4	0.00e+00	0	44	0	50440699904	59	14456
2026-01-21 20:13:57.11	336.26	5.09	-43.7	-44.0	8.3	0.00e+00	0	43	0	50440699904	59	14606
2026-01-21 20:13:58.11	336.32	5.02	-48.3	-49.1	7.1	0.00e+00	0	44	104	50440699904	67	16461
2026-01-21 20:13:59.12	336.39	4.94	-52.9	-55.2	6.2	0.00e+00	0	44	104	50440699904	76	19835
2026-01-21 20:14:00.13	336.45	4.87	-53.3	-55.5	6.2	0.00e+00	0	44	104	50440699904	77	19386
2026-01-21 20:14:01.14	336.51	4.79	-53.6	-55.7	6.2	0.00e+00	0	44	104	50440699904	77	19828
2026-01-21 20:14:02.15	336.57	4.72	-53.7	-55.9	6.2	0.00e+00	0	44	104	50440699904	77	20204
2026-01-21 20:14:03.16	336.64	4.64	-53.9	-56.0	6.2	0.00e+00	0	44	104	50440699904	78	19360
2026-01-21 20:14:04.17	336.70	4.57	-53.9	-56.0	6.2	0.00e+00	0	43	104	50440699904	78	19428
2026-01-21 20:14:05.18	336.76	4.50	-54.0	-56.1	6.2	0.00e+00	0	44	104	50440699904	78	19514
2026-01-21 20:14:06.18	336.82	4.42	-54.1	-56.2	6.2	0.00e+00	0	43	104	50440699904	78	19795
2026-01-21 20:14:07.19	336.88	4.35	-39.5	-39.7	6.1	0.00e+00	0	44	104	50440699904	51	13967
2026-01-21 20:14:08.20	336.94	4.28	-54.1	-56.2	6.2	0.00e+00	0	43	104	50440699904	78	19865
2026-01-21 20:14:09.21	337.00	4.21	-54.1	-56.2	6.2	0.00e+00	0	43	104	50440699904	78	19844
2026-01-21 20:14:10.21	337.06	4.13	-54.0	-56.2	6.2	0.00e+00	0	43	104	50440699904	78	19749
2026-01-21 20:14:11.22	337.12	4.06	-53.9	-56.0	6.2	0.00e+00	0	44	104	50440699904	78	19471
2026-01-21 20:14:12.23	337.18	3.99	-53.8	-56.0	6.2	0.00e+00	0	44	104	50440699904	78	19297
2026-01-21 20:14:13.24	337.24	3.92	-53.9	-56.0	6.2	0.00e+00	0	44	104	50440699904	78	19292
2026-01-21 20:14:14.25	337.30	3.85	-53.9	-56.1	6.2	0.00e+00	0	44	104	50440699904	78	19538
2026-01-21 20:14:15.25	337.35	3.78	-53.9	-56.1	6.2	0.00e+00	0	43	104	50440699904	78	19501
2026-01-21 20:14:16.26	337.41	3.70	-54.0	-56.1	6.2	0.00e+00	0	44	104	50440699904	78	19607
2026-01-21 20:14:17.27	337.47	3.63	-54.0	-56.1	6.2	0.00e+00	0	43	104	50440699904	78	19630
2026-01-21 20:14:18.28	337.53	3.56	-54.0	-56.1	6.2	0.00e+00	0	43	104	50440699904	78	19676
2026-01-21 20:14:19.29	337.58	3.49	-54.0	-56.1	6.2	0.00e+00	0	44	104	50440699904	78	19698
2026-01-21 20:14:20.30	337.64	3.42	-53.9	-56.0	6.2	0.00e+00	0	43	104	50440699904	78	19402
2026-01-21 20:14:21.31	337.70	3.35	-53.9	-56.1	6.2	0.00e+00	0	43	104	50440699904	78	19485
2026-01-21 20:14:22.31	337.75	3.28	-53.9	-56.0	6.2	0.00e+00	0	44	104	50440699904	78	19470
2026-01-21 20:14:23.32	337.81	3.21	-53.9	-56.0	6.2	0.00e+00	0	44	104	50440699904	78	19416
2026-01-21 20:14:24.33	337.86	3.14	-53.9	-56.0	6.2	0.00e+00	0	43	104	50440699904	78	19403
2026-01-21 20:14:25.34	337.92	3.08	-53.9	-56.0	6.2	0.00e+00	0	43	104	50440699904	78	19425
2026-01-21 20:14:26.35	337.97	3.01	-53.9	-56.0	6.2	0.00e+00	0	43	104	50440699904	78	19411
2026-01-21 20:14:27.35	338.03	2.94	-53.9	-56.0	6.2	0.00e+00	0	43	104	50440699904	78	19338
2026-01-21 20:14:28.36	338.08	2.87	-53.9	-56.0	6.2	0.00e+00	0	43	104	50440699904	78	19405
2026-01-21 20:14:29.37	338.14	2.80	-53.9	-56.0	6.2	0.00e+00	0	43	104	50440699904	78	19449
2026-01-21 20:14:30.38	338.19	2.73	-53.9	-56.0	6.2	0.00e+00	0	43	104	50440699904	78	19416
2026-01-21 20:14:31.38	338.24	2.67	-53.9	-56.0	6.2	0.00e+00	0	43	104	50440699904	78	19328
2026-01-21 20:14:32.39	338.30	2.60	-53.9	-56.0	6.2	0.00e+00	0	43	104	50440699904	78	19369
2026-01-21 20:14:33.40	338.35	2.53	-53.9	-56.0	6.2	0.00e+00	0	43	104	50440699904	78	19313
2026-01-21 20:14:34.41	338.40	2.46	-53.9	-56.0	6.2	0.00e+00	0	44	104	50440699904	78	19370
2026-01-21 20:14:35.42	338.45	2.39	-53.9	-56.0	6.2	0.00e+00	0	44	104	50440699904	78	19315
2026-01-21 20:14:36.43	338.51	2.33	-53.9	-56.0	6.2	0.00e+00	0	43	104	50440699904	78	19298
2026-01-21 20:14:37.43	338.56	2.26	-53.8	-56.0	6.2	0.00e+00	0	43	104	50440699904	78	19278
2026-01-21 20:14:38.44	338.61	2.19	-53.8	-55.9	6.2	0.00e+00	0	43	104	50440699904	78	19218
2026-01-21 20:14:39.45	338.66	2.13	-53.8	-56.0	6.2	0.00e+00	0	44	104	50440699904	78	19308
2026-01-21 20:14:40.46	338.71	2.06	-53.8	-56.0	6.2	0.00e+00	0	44	104	50440699904	78	19259
2026-01-21 20:14:41.47	338.76	2.00	-53.8	-55.9	6.2	0.00e+00	0	43	104	50440699904	78	19199
2026-01-21 20:14:42.48	338.81	1.93	-53.8	-55.9	6.2	0.00e+00	0	43	104	50440699904	78	19163

#Closed at: 2026-01-21 20:14:42
#Recorded file [50440 MB]: D:/lorett/data/31041_260121_230347.dat