passes_logs/2026/01/21/R3.2S_Murmansk/R3.2S_Murmansk__20260121_213724_JL1KF02B06_rec.log

#Pass ID: 20260121_213724_JL1KF02B06
#Satellite: JL1KF02B06
#Configuration: 01B_900M
#almurnet v.1.7.20251203
#Start time: 2026-01-21 21:37:26

#Version: 2.2.20231116
#Station: R3.2S_Murmansk
#Location: 33.079688 lon 68.888172 lat
#TLE: 1 61192U 24169D   26020.96389003  .00012626  00000+0  78796-3 0  9995
#TLE: 2 61192  97.5632 112.0641 0007112  86.8771 273.3272 15.09617171 73628

#Time	Az	El	Level	Level2	SNR	BER	BlckErr	Temp	State	Recorded	gain1	gain2
2026-01-21 21:37:26.68	207.52	2.11	-54.5	-56.7	6.3	0.00e+00	0	41	0	0	80	18638
2026-01-21 21:37:27.64	207.60	2.17	-54.9	-57.0	6.2	0.00e+00	0	41	104	0	81	18330
2026-01-21 21:37:28.61	207.69	2.23	-54.8	-57.0	6.2	0.00e+00	0	41	104	0	81	18233
2026-01-21 21:37:29.57	207.77	2.29	-54.8	-56.9	6.2	0.00e+00	0	41	104	0	81	18155
2026-01-21 21:37:30.54	207.85	2.35	-54.8	-56.9	6.2	0.00e+00	0	41	104	0	81	18056
2026-01-21 21:37:31.51	207.94	2.41	-54.7	-56.9	6.2	0.00e+00	0	41	104	0	81	17976
2026-01-21 21:37:32.48	208.03	2.47	-54.7	-56.8	6.2	0.00e+00	0	41	104	0	81	17908
2026-01-21 21:37:33.45	208.11	2.53	-54.7	-56.8	6.2	0.00e+00	0	41	104	0	81	17843
2026-01-21 21:37:34.42	208.20	2.59	-54.6	-56.8	6.2	0.00e+00	0	41	104	0	81	17780
2026-01-21 21:37:35.38	208.28	2.65	-54.6	-56.7	6.2	0.00e+00	0	41	104	0	81	17657
2026-01-21 21:37:36.35	208.37	2.71	-54.5	-56.6	6.2	0.00e+00	0	41	104	0	81	17551
2026-01-21 21:37:37.32	208.46	2.77	-54.5	-56.6	6.2	0.00e+00	0	42	104	0	81	17510
2026-01-21 21:37:38.28	208.55	2.83	-54.4	-56.6	6.2	0.00e+00	0	42	104	0	80	18397
2026-01-21 21:37:39.25	208.64	2.89	-54.4	-56.5	6.2	0.00e+00	0	42	104	0	80	18312
2026-01-21 21:37:40.22	208.73	2.95	-54.3	-56.4	6.2	0.00e+00	0	41	104	0	80	18073
2026-01-21 21:37:41.19	208.82	3.02	-54.2	-56.3	6.2	0.00e+00	0	42	104	0	80	17964
2026-01-21 21:37:42.16	208.91	3.08	-54.1	-56.3	6.2	0.00e+00	0	42	104	0	80	17773
2026-01-21 21:37:43.13	209.00	3.14	-54.0	-56.1	6.2	0.00e+00	0	42	104	0	80	17456
2026-01-21 21:37:44.10	209.09	3.20	-53.9	-56.0	6.2	0.00e+00	0	42	104	0	79	18372
2026-01-21 21:37:45.07	209.18	3.26	-53.7	-55.8	6.2	0.00e+00	0	42	104	0	79	17873
2026-01-21 21:37:46.05	209.27	3.32	-53.2	-55.3	6.2	0.00e+00	0	42	104	0	78	17901
2026-01-21 21:37:47.01	209.36	3.38	-53.0	-55.2	6.2	0.00e+00	0	42	104	0	78	17566
2026-01-21 21:37:47.98	209.46	3.45	-53.0	-55.2	6.2	0.00e+00	0	42	104	0	78	17575
2026-01-21 21:37:48.96	209.55	3.51	-53.0	-55.2	6.2	0.00e+00	0	42	104	0	78	17567
2026-01-21 21:37:49.93	209.65	3.57	-53.0	-55.2	6.2	0.00e+00	0	42	104	0	78	17577
2026-01-21 21:37:50.90	209.74	3.63	-53.0	-55.1	6.2	0.00e+00	0	42	104	0	78	17545
2026-01-21 21:37:51.87	209.83	3.70	-53.0	-55.2	6.2	0.00e+00	0	42	104	0	78	17582
2026-01-21 21:37:52.84	209.93	3.76	-53.0	-55.1	6.2	0.00e+00	0	42	104	0	78	17502
2026-01-21 21:37:53.81	210.03	3.82	-53.0	-55.1	6.2	0.00e+00	0	42	104	0	78	17541
2026-01-21 21:37:54.79	210.12	3.89	-53.0	-55.1	6.2	0.00e+00	0	42	104	0	78	17529
2026-01-21 21:37:55.75	210.22	3.95	-53.0	-55.1	6.2	0.00e+00	0	42	104	0	78	17539
2026-01-21 21:37:56.72	210.32	4.01	-53.0	-55.1	6.2	0.00e+00	0	42	104	0	78	17517
2026-01-21 21:37:57.69	210.41	4.07	-53.0	-55.1	6.2	0.00e+00	0	42	104	0	78	17549
2026-01-21 21:37:58.66	210.51	4.14	-53.0	-55.1	6.2	0.00e+00	0	42	104	0	78	17560
2026-01-21 21:37:59.62	210.61	4.20	-53.0	-55.1	6.2	0.00e+00	0	42	104	0	78	17478
2026-01-21 21:38:00.60	210.71	4.26	-53.0	-55.1	6.2	0.00e+00	0	42	104	0	78	17552
2026-01-21 21:38:01.56	210.81	4.33	-53.0	-55.1	6.2	0.00e+00	0	42	104	0	78	17529
2026-01-21 21:38:02.53	210.91	4.39	-53.0	-55.1	6.2	0.00e+00	0	42	104	0	78	17538
2026-01-21 21:38:03.50	211.01	4.46	-53.0	-55.1	6.2	0.00e+00	0	42	104	0	78	17466
2026-01-21 21:38:04.47	211.11	4.52	-53.0	-55.1	6.2	0.00e+00	0	42	104	0	78	17479
2026-01-21 21:38:05.44	211.21	4.58	-53.0	-55.1	6.2	0.00e+00	0	42	104	0	78	17485
2026-01-21 21:38:06.42	211.32	4.65	-53.0	-55.1	6.2	0.00e+00	0	42	104	0	78	17454
2026-01-21 21:38:07.39	211.42	4.71	-53.0	-55.1	6.2	0.00e+00	0	42	104	0	78	17521
2026-01-21 21:38:08.36	211.52	4.78	-52.9	-55.1	6.2	0.00e+00	0	42	104	0	77	18459
2026-01-21 21:38:09.33	211.63	4.84	-52.9	-55.1	6.2	0.00e+00	0	42	104	0	77	18394
2026-01-21 21:38:10.30	211.73	4.91	-52.9	-55.1	6.2	0.00e+00	0	42	104	0	77	18424
2026-01-21 21:38:11.27	211.84	4.97	-52.9	-55.1	6.2	0.00e+00	0	42	104	0	77	18428
2026-01-21 21:38:12.24	211.94	5.04	-52.9	-55.1	6.2	0.00e+00	0	42	104	0	77	18444
2026-01-21 21:38:13.21	212.05	5.10	-53.1	-55.2	6.2	0.00e+00	0	42	104	0	77	18734
2026-01-21 21:38:14.18	212.16	5.17	-52.9	-55.0	6.2	0.00e+00	0	42	104	0	77	18322
2026-01-21 21:38:15.14	212.26	5.24	-53.0	-55.2	6.2	0.00e+00	0	42	104	0	77	18636
2026-01-21 21:38:16.12	212.37	5.30	-53.0	-55.1	6.2	0.00e+00	0	42	104	0	77	18515
2026-01-21 21:38:17.09	212.48	5.37	-52.9	-55.0	6.2	0.00e+00	0	42	104	0	77	18376
2026-01-21 21:38:18.06	212.59	5.43	-52.9	-55.0	6.2	0.00e+00	0	42	104	0	77	18328
2026-01-21 21:38:19.03	212.70	5.50	-53.1	-55.2	6.2	0.00e+00	0	42	104	0	77	18702
2026-01-21 21:38:20.00	212.81	5.57	-53.0	-55.2	6.2	0.00e+00	0	42	104	0	77	18621
2026-01-21 21:38:20.97	212.92	5.63	-52.9	-55.1	6.2	0.00e+00	0	42	104	0	77	18461
2026-01-21 21:38:21.94	213.03	5.70	-52.9	-55.0	6.2	0.00e+00	0	42	104	0	77	18302
2026-01-21 21:38:22.90	213.14	5.77	-53.1	-55.2	6.2	0.00e+00	0	42	104	0	77	18805
2026-01-21 21:38:23.87	213.26	5.83	-53.0	-55.2	6.2	0.00e+00	0	42	104	0	77	18697
2026-01-21 21:38:24.84	213.37	5.90	-52.9	-55.1	6.2	0.00e+00	0	42	104	0	77	18500
2026-01-21 21:38:25.81	213.48	5.97	-52.9	-55.1	6.2	0.00e+00	0	42	104	0	77	18399
2026-01-21 21:38:26.78	213.60	6.03	-53.1	-55.2	6.2	0.00e+00	0	42	104	0	77	18759
2026-01-21 21:38:27.75	213.71	6.10	-53.1	-55.2	6.2	0.00e+00	0	42	104	0	77	18724
2026-01-21 21:38:28.72	213.83	6.17	-53.0	-55.1	6.2	0.00e+00	0	42	104	0	77	18546
2026-01-21 21:38:29.69	213.95	6.24	-52.9	-55.1	6.2	0.00e+00	0	42	104	0	77	18486
2026-01-21 21:38:30.66	214.06	6.31	-53.0	-55.2	6.2	0.00e+00	0	43	104	0	77	18733
2026-01-21 21:38:31.63	214.18	6.37	-53.1	-55.3	6.2	0.00e+00	0	42	104	0	77	18823
2026-01-21 21:38:32.59	214.30	6.44	-53.0	-55.2	6.2	0.00e+00	0	42	104	0	77	18686
2026-01-21 21:38:33.56	214.42	6.51	-53.0	-55.1	6.2	0.00e+00	0	42	104	0	77	18475
2026-01-21 21:38:34.53	214.54	6.58	-53.0	-55.2	6.2	0.00e+00	0	42	104	0	77	18707
2026-01-21 21:38:35.50	214.66	6.65	-53.1	-55.3	6.2	0.00e+00	0	43	104	0	77	18864
2026-01-21 21:38:36.47	214.78	6.72	-53.0	-55.2	6.2	0.00e+00	0	42	104	0	77	18732
2026-01-21 21:38:37.45	214.90	6.79	-53.0	-55.2	6.2	0.00e+00	0	42	104	0	77	18657
2026-01-21 21:38:38.42	215.02	6.85	-53.0	-55.2	6.2	0.00e+00	0	42	104	0	77	18647
2026-01-21 21:38:39.39	215.15	6.92	-53.2	-55.3	6.2	0.00e+00	0	43	104	0	77	18975
2026-01-21 21:38:40.37	215.27	6.99	-53.1	-55.2	6.2	0.00e+00	0	43	104	0	77	18806
2026-01-21 21:38:41.34	215.40	7.06	-53.1	-55.2	6.2	0.00e+00	0	42	104	0	77	18758
2026-01-21 21:38:42.31	215.52	7.13	-53.0	-55.2	6.2	0.00e+00	0	43	104	0	77	18767
2026-01-21 21:38:43.28	215.65	7.20	-53.2	-55.4	6.2	0.00e+00	0	42	104	0	77	19036
2026-01-21 21:38:44.25	215.77	7.27	-53.1	-55.3	6.2	0.00e+00	0	43	104	0	77	18890
2026-01-21 21:38:45.23	215.90	7.34	-53.1	-55.2	6.2	0.00e+00	0	43	104	0	77	18772
2026-01-21 21:38:46.19	216.03	7.41	-53.1	-55.2	6.2	0.00e+00	0	42	104	0	77	18762
2026-01-21 21:38:47.16	216.16	7.48	-53.2	-55.3	6.2	0.00e+00	0	42	104	0	77	19013
2026-01-21 21:38:48.13	216.29	7.55	-53.1	-55.3	6.2	0.00e+00	0	43	104	0	77	18903
2026-01-21 21:38:49.10	216.42	7.63	-53.1	-55.3	6.2	0.00e+00	0	43	104	0	77	18830
2026-01-21 21:38:50.07	216.55	7.70	-53.1	-55.2	6.2	0.00e+00	0	43	104	0	77	18781
2026-01-21 21:38:51.04	216.68	7.77	-53.3	-55.4	6.2	0.00e+00	0	43	104	0	77	19105
2026-01-21 21:38:52.01	216.81	7.84	-53.2	-55.3	6.2	0.00e+00	0	43	104	0	77	18974
2026-01-21 21:38:52.98	216.95	7.91	-53.1	-55.3	6.2	0.00e+00	0	43	104	0	77	18864
2026-01-21 21:38:53.95	217.08	7.98	-53.1	-55.3	6.2	0.00e+00	0	43	104	0	77	18828
2026-01-21 21:38:54.92	217.22	8.05	-53.3	-55.4	6.2	0.00e+00	0	43	104	0	77	19107
2026-01-21 21:38:55.89	217.35	8.12	-53.2	-55.4	6.2	0.00e+00	0	43	104	0	77	19056
2026-01-21 21:38:56.86	217.49	8.20	-53.1	-55.3	6.2	0.00e+00	0	43	104	0	77	18977
2026-01-21 21:38:57.83	217.62	8.27	-53.1	-55.2	6.2	0.00e+00	0	43	104	0	77	18807
2026-01-21 21:38:58.80	217.76	8.34	-53.3	-55.4	6.2	0.00e+00	0	43	104	0	77	19121
2026-01-21 21:38:59.77	217.90	8.41	-53.2	-55.4	6.2	0.00e+00	0	42	104	0	77	19150
2026-01-21 21:39:00.74	218.04	8.49	-53.1	-55.3	6.2	0.00e+00	0	43	104	0	77	18941
2026-01-21 21:39:01.71	218.18	8.56	-53.1	-55.3	6.2	0.00e+00	0	43	104	0	77	18924
2026-01-21 21:39:02.68	218.32	8.63	-53.2	-55.4	6.2	0.00e+00	0	43	104	0	77	19104
2026-01-21 21:39:03.65	218.46	8.70	-53.3	-55.4	6.2	0.00e+00	0	43	104	0	77	19183
2026-01-21 21:39:04.62	218.61	8.78	-52.2	-53.9	6.2	0.00e+00	0	42	104	0	76	17011
2026-01-21 21:39:05.59	218.75	8.85	-47.6	-48.0	7.0	0.00e+00	0	43	104	0	67	14492
2026-01-21 21:39:06.55	218.89	8.92	-47.1	-47.5	7.0	0.00e+00	0	43	104	0	66	14454
2026-01-21 21:39:07.52	219.04	9.00	-46.7	-47.1	7.1	0.00e+00	0	43	104	0	65	14696
2026-01-21 21:39:08.49	219.19	9.07	-46.5	-46.9	7.2	0.00e+00	0	43	104	0	65	14412
2026-01-21 21:39:09.46	219.33	9.14	-46.6	-47.0	7.2	0.00e+00	0	43	104	0	65	14594
2026-01-21 21:39:10.43	219.48	9.22	-47.2	-47.6	7.0	0.00e+00	0	43	104	0	66	14773
2026-01-21 21:39:11.39	219.63	9.29	-47.8	-48.3	7.0	0.00e+00	0	43	104	0	67	14984
2026-01-21 21:39:12.37	219.78	9.37	-47.6	-48.1	7.0	0.00e+00	0	43	104	0	67	14660
2026-01-21 21:39:13.34	219.93	9.44	-51.2	-52.4	6.4	0.00e+00	0	43	104	0	74	16131
2026-01-21 21:39:14.31	220.08	9.51	-48.1	-48.6	6.9	0.00e+00	0	43	104	0	67	15553
2026-01-21 21:39:15.28	220.23	9.59	-47.6	-48.1	7.0	0.00e+00	0	43	104	0	67	14709
2026-01-21 21:39:16.25	220.39	9.66	-47.1	-47.6	7.0	0.00e+00	0	43	104	0	66	14664
2026-01-21 21:39:17.22	220.54	9.74	-47.3	-47.7	7.0	0.00e+00	0	43	104	0	66	14900
2026-01-21 21:39:18.19	220.70	9.81	-48.2	-48.8	7.5	0.00e+00	0	43	104	0	68	14998
2026-01-21 21:39:19.16	220.85	9.89	-49.7	-50.5	6.9	0.00e+00	0	43	104	0	70	16329
2026-01-21 21:39:20.13	221.01	9.96	-50.4	-51.4	6.7	0.00e+00	0	43	104	0	71	17058
2026-01-21 21:39:21.10	221.17	10.04	-39.4	-39.3	13.4	1.37e-03	0	43	0	25165824	49	14973
2026-01-21 21:39:22.07	221.33	10.11	-33.4	-33.2	13.0	9.82e-04	0	43	0	134217728	38	14063
2026-01-21 21:39:23.04	221.49	10.19	-32.2	-32.0	13.2	7.25e-04	0	43	0	234881024	36	13744
2026-01-21 21:39:24.00	221.65	10.27	-29.0	-28.9	12.9	9.10e-04	0	43	0	352321536	30	13545
2026-01-21 21:39:24.97	221.81	10.34	-28.5	-28.4	13.0	8.62e-04	0	43	0	452984832	29	13537
2026-01-21 21:39:25.95	221.97	10.42	-28.1	-27.9	13.0	7.27e-04	0	43	0	562036736	28	13631
2026-01-21 21:39:26.92	222.14	10.49	-28.2	-28.0	13.0	7.38e-04	0	43	0	679477248	27	14543
2026-01-21 21:39:27.89	222.30	10.57	-28.1	-27.9	13.0	6.41e-04	0	43	0	788529152	27	14376
2026-01-21 21:39:28.86	222.47	10.65	-28.2	-28.0	13.0	6.94e-04	0	43	0	889192448	27	14529
2026-01-21 21:39:29.83	222.63	10.72	-28.1	-28.0	13.0	7.06e-04	0	43	0	998244352	27	14492
2026-01-21 21:39:30.80	222.80	10.80	-28.2	-28.0	13.0	7.78e-04	0	43	0	1115684864	27	14600
2026-01-21 21:39:31.77	222.97	10.88	-27.8	-27.6	13.1	6.37e-04	0	43	0	1216348160	27	13889
2026-01-21 21:39:32.74	223.14	10.95	-27.5	-27.3	13.2	5.38e-04	0	43	0	1325400064	27	13421
2026-01-21 21:39:33.71	223.31	11.03	-27.5	-27.3	13.2	5.45e-04	0	43	0	1442840576	26	14194
2026-01-21 21:39:34.68	223.48	11.11	-27.4	-27.3	13.2	4.96e-04	0	43	0	1551892480	26	14119
2026-01-21 21:39:35.65	223.66	11.18	-27.3	-27.1	13.2	4.81e-04	0	43	0	1652555776	26	13938
2026-01-21 21:39:36.61	223.83	11.26	-27.3	-27.1	13.2	5.00e-04	0	43	0	1769996288	26	13949
2026-01-21 21:39:37.58	224.00	11.34	-27.3	-27.2	13.2	5.05e-04	0	43	0	1879048192	26	13988
2026-01-21 21:39:38.55	224.18	11.42	-27.3	-27.1	13.2	5.15e-04	0	43	0	1979711488	26	13943
2026-01-21 21:39:39.52	224.36	11.49	-27.3	-27.1	13.2	4.77e-04	0	43	0	2088763392	26	13882
2026-01-21 21:39:40.49	224.54	11.57	-27.1	-27.0	13.2	4.44e-04	0	43	0	2206203904	26	13701
2026-01-21 21:39:41.46	224.71	11.65	-27.3	-27.2	13.2	4.56e-04	0	43	0	2306867200	26	13951
2026-01-21 21:39:42.43	224.90	11.73	-27.0	-26.8	13.2	3.81e-04	0	44	0	2415919104	26	13473
2026-01-21 21:39:43.40	225.08	11.80	-27.0	-26.8	13.2	4.04e-04	0	43	0	2533359616	26	13451
2026-01-21 21:39:44.37	225.26	11.88	-27.2	-27.0	13.2	4.52e-04	0	44	0	2642411520	26	13700
2026-01-21 21:39:45.34	225.44	11.96	-27.1	-26.9	13.2	4.20e-04	0	43	0	2743074816	26	13567
2026-01-21 21:39:46.31	225.63	12.04	-27.2	-27.0	13.2	4.25e-04	0	43	0	2860515328	26	13745
2026-01-21 21:39:47.27	225.81	12.12	-27.2	-27.0	13.2	4.39e-04	0	43	0	2969567232	26	13736
2026-01-21 21:39:48.24	226.00	12.19	-27.1	-27.0	13.2	3.43e-04	0	43	0	3070230528	26	13687
2026-01-21 21:39:49.21	226.19	12.27	-26.9	-26.7	13.2	3.78e-04	0	44	0	3187671040	25	14026
2026-01-21 21:39:50.18	226.38	12.35	-26.9	-26.7	13.2	4.84e-04	0	43	0	3296722944	25	14096
2026-01-21 21:39:51.15	226.57	12.43	-26.9	-26.7	13.2	4.39e-04	0	44	0	3397386240	25	14031
2026-01-21 21:39:52.12	226.76	12.51	-26.8	-26.6	13.2	4.33e-04	0	43	0	3506438144	25	13944
2026-01-21 21:39:53.08	226.95	12.59	-26.9	-26.7	13.2	4.18e-04	0	43	0	3623878656	25	14048
2026-01-21 21:39:54.05	227.15	12.66	-26.9	-26.7	13.2	4.54e-04	0	44	0	3724541952	25	14055
2026-01-21 21:39:55.03	227.34	12.74	-26.8	-26.6	13.2	3.72e-04	0	44	0	3833593856	25	13857
2026-01-21 21:39:56.00	227.54	12.82	-26.8	-26.7	13.2	3.55e-04	0	43	0	3951034368	25	13952
2026-01-21 21:39:56.97	227.74	12.90	-26.8	-26.7	13.2	4.18e-04	0	44	0	4051697664	25	13983
2026-01-21 21:39:57.94	227.94	12.98	-26.8	-26.6	13.2	4.58e-04	0	44	0	4160749568	25	13904
2026-01-21 21:39:58.91	228.14	13.06	-26.8	-26.6	13.2	3.89e-04	0	43	0	4278190080	25	13866
2026-01-21 21:39:59.88	228.34	13.14	-26.8	-26.6	13.2	4.42e-04	0	44	0	4387241984	25	13847
2026-01-21 21:40:00.84	228.54	13.22	-26.7	-26.5	13.2	4.20e-04	0	43	0	4487905280	25	13768
2026-01-21 21:40:01.81	228.74	13.30	-26.7	-26.5	13.1	4.35e-04	0	43	0	4605345792	25	13700
2026-01-21 21:40:02.78	228.95	13.38	-26.6	-26.4	13.2	4.02e-04	0	44	0	4714397696	25	13607
2026-01-21 21:40:03.75	229.16	13.46	-26.5	-26.3	13.1	4.48e-04	0	43	0	4815060992	25	13470
2026-01-21 21:40:04.72	229.36	13.53	-26.5	-26.3	13.1	4.77e-04	0	44	0	4924112896	24	14237
2026-01-21 21:40:05.69	229.57	13.61	-26.5	-26.3	13.1	4.21e-04	0	43	0	5041553408	24	14173
2026-01-21 21:40:06.66	229.78	13.69	-26.4	-26.2	13.1	3.91e-04	0	44	0	5142216704	24	14109
2026-01-21 21:40:07.63	229.99	13.77	-26.3	-26.2	13.1	4.20e-04	0	44	0	5251268608	24	13991
2026-01-21 21:40:08.60	230.21	13.85	-26.4	-26.3	13.1	4.56e-04	0	44	0	5368709120	24	14139
2026-01-21 21:40:09.57	230.42	13.93	-26.4	-26.3	13.1	4.69e-04	0	44	0	5469372416	24	14131
2026-01-21 21:40:10.54	230.64	14.01	-26.3	-26.1	13.1	4.71e-04	0	44	0	5578424320	24	13874
2026-01-21 21:40:11.51	230.85	14.09	-26.3	-26.1	13.1	4.56e-04	0	44	0	5695864832	24	13851
2026-01-21 21:40:12.48	231.07	14.17	-26.3	-26.1	13.1	4.79e-04	0	44	0	5804916736	24	13852
2026-01-21 21:40:13.45	231.29	14.25	-26.1	-26.0	13.1	5.17e-04	0	44	0	5905580032	24	13653
2026-01-21 21:40:14.42	231.51	14.33	-26.2	-26.0	13.1	4.25e-04	0	44	0	6023020544	24	13737
2026-01-21 21:40:15.39	231.73	14.41	-26.1	-26.0	13.1	5.09e-04	0	44	0	6132072448	24	13683
2026-01-21 21:40:16.36	231.96	14.48	-26.2	-26.0	13.1	4.63e-04	0	44	0	6232735744	24	13704
2026-01-21 21:40:17.33	232.18	14.56	-26.1	-26.0	13.1	4.63e-04	0	44	0	6341787648	24	13666
2026-01-21 21:40:18.30	232.41	14.64	-25.9	-25.8	13.1	4.42e-04	0	44	0	6459228160	23	14117
2026-01-21 21:40:19.27	232.64	14.72	-26.0	-25.8	13.1	4.44e-04	0	44	0	6559891456	23	14257
2026-01-21 21:40:20.24	232.87	14.80	-26.0	-25.8	13.1	5.11e-04	0	44	0	6668943360	23	14193
2026-01-21 21:40:21.21	233.10	14.88	-26.2	-26.0	13.1	5.02e-04	0	44	0	6786383872	23	14544
2026-01-21 21:40:22.18	233.33	14.96	-26.0	-25.9	13.1	4.94e-04	0	44	0	6895435776	23	14302
2026-01-21 21:40:23.15	233.56	15.04	-25.9	-25.7	13.2	4.58e-04	0	44	0	6996099072	23	14060
2026-01-21 21:40:24.12	233.80	15.12	-26.0	-25.8	13.1	4.25e-04	0	44	0	7113539584	23	14225
2026-01-21 21:40:25.09	234.03	15.19	-26.1	-25.9	13.1	5.05e-04	0	44	0	7222591488	23	14356
2026-01-21 21:40:26.06	234.27	15.27	-26.2	-26.0	13.1	5.02e-04	0	44	0	7323254784	23	14557
2026-01-21 21:40:27.03	234.51	15.35	-26.0	-25.8	13.1	4.56e-04	0	44	0	7440695296	23	14221
2026-01-21 21:40:28.00	234.75	15.43	-25.9	-25.8	13.1	5.13e-04	0	44	0	7549747200	23	14141
2026-01-21 21:40:28.97	234.99	15.51	-26.0	-25.8	13.1	5.55e-04	0	44	0	7650410496	23	14168
2026-01-21 21:40:29.94	235.23	15.59	-25.9	-25.8	13.0	5.21e-04	0	44	0	7759462400	23	14129
2026-01-21 21:40:30.91	235.48	15.66	-25.8	-25.7	13.1	5.36e-04	0	44	0	7876902912	23	13970
2026-01-21 21:40:31.88	235.72	15.74	-25.8	-25.6	13.1	5.43e-04	0	44	0	7985954816	23	13929
2026-01-21 21:40:32.85	235.97	15.82	-25.9	-25.7	13.1	5.32e-04	0	44	0	8086618112	23	14058
2026-01-21 21:40:33.82	236.22	15.90	-25.9	-25.8	13.0	6.73e-04	0	44	0	8204058624	23	14117
2026-01-21 21:40:34.79	236.47	15.97	-25.8	-25.7	13.0	5.63e-04	0	44	0	8313110528	23	13990
2026-01-21 21:40:35.76	236.72	16.05	-25.8	-25.6	13.1	4.94e-04	0	44	0	8413773824	23	13942
2026-01-21 21:40:36.72	236.97	16.13	-25.8	-25.6	13.0	5.55e-04	0	44	0	8531214336	23	13926
2026-01-21 21:40:37.69	237.23	16.20	-25.6	-25.4	13.1	4.69e-04	0	44	0	8640266240	23	13563
2026-01-21 21:40:38.66	237.48	16.28	-25.7	-25.5	13.1	5.36e-04	0	44	0	8740929536	23	13719
2026-01-21 21:40:39.64	237.74	16.36	-25.6	-25.4	13.1	5.65e-04	0	44	0	8858370048	23	13632
2026-01-21 21:40:40.61	238.00	16.43	-25.6	-25.4	13.0	5.25e-04	0	44	0	8967421952	23	13599
2026-01-21 21:40:41.58	238.26	16.51	-25.6	-25.4	13.1	5.49e-04	0	44	0	9076473856	23	13627
2026-01-21 21:40:42.55	238.52	16.59	-25.5	-25.4	13.0	6.08e-04	0	44	0	9177137152	23	13480
2026-01-21 21:40:43.53	238.79	16.66	-25.5	-25.4	13.0	5.55e-04	0	44	0	9294577664	22	14297
2026-01-21 21:40:44.50	239.06	16.74	-25.4	-25.2	13.0	5.85e-04	0	44	0	9403629568	22	14108
2026-01-21 21:40:45.47	239.32	16.81	-25.4	-25.2	13.0	5.53e-04	0	44	0	9521070080	22	14095
2026-01-21 21:40:46.44	239.59	16.89	-25.5	-25.4	13.0	6.26e-04	0	44	0	9621733376	22	14275
2026-01-21 21:40:47.41	239.86	16.96	-25.4	-25.3	13.0	6.54e-04	0	44	0	9730785280	22	14144
2026-01-21 21:40:48.38	240.13	17.04	-25.4	-25.3	13.0	5.40e-04	0	44	0	9848225792	22	14129
2026-01-21 21:40:49.35	240.40	17.11	-25.3	-25.2	13.0	6.14e-04	0	44	0	9948889088	22	13984
2026-01-21 21:40:50.32	240.68	17.19	-25.4	-25.3	12.9	6.66e-04	0	44	0	10057940992	22	14146
2026-01-21 21:40:51.29	240.95	17.26	-25.4	-25.3	12.9	6.79e-04	0	44	0	10166992896	22	14131
2026-01-21 21:40:52.26	241.23	17.33	-25.3	-25.2	13.0	6.48e-04	0	44	0	10267656192	22	13988
2026-01-21 21:40:53.23	241.51	17.41	-25.4	-25.2	12.9	6.31e-04	0	44	0	10385096704	22	14024
2026-01-21 21:40:54.20	241.79	17.48	-25.3	-25.2	13.0	6.01e-04	0	44	0	10494148608	22	13980
2026-01-21 21:40:55.17	242.07	17.55	-25.3	-25.1	12.9	7.91e-04	0	44	0	10594811904	22	13911
2026-01-21 21:40:56.14	242.35	17.62	-25.2	-25.0	12.8	7.11e-04	0	44	0	10712252416	22	13764
2026-01-21 21:40:57.10	242.63	17.69	-25.2	-25.0	12.9	7.02e-04	0	44	0	10821304320	22	13760
2026-01-21 21:40:58.07	242.92	17.76	-25.2	-25.0	12.9	7.02e-04	0	44	0	10938744832	22	13724
2026-01-21 21:40:59.04	243.21	17.84	-25.2	-25.0	12.8	7.04e-04	0	44	0	11039408128	22	13735
2026-01-21 21:41:00.01	243.50	17.91	-25.2	-25.1	12.8	7.63e-04	0	44	0	11148460032	22	13804
2026-01-21 21:41:00.98	243.79	17.98	-25.1	-25.0	12.9	7.91e-04	0	44	0	11265900544	22	13674
2026-01-21 21:41:01.95	244.08	18.05	-25.1	-24.9	12.9	7.63e-04	0	44	0	11366563840	22	13575
2026-01-21 21:41:02.93	244.38	18.12	-25.1	-24.9	12.8	8.03e-04	0	44	0	11475615744	22	13582
2026-01-21 21:41:03.90	244.67	18.18	-25.1	-24.9	12.8	8.03e-04	0	44	0	11584667648	22	13587
2026-01-21 21:41:04.87	244.97	18.25	-25.1	-24.9	12.8	8.49e-04	0	44	0	11702108160	22	13551
2026-01-21 21:41:05.84	245.27	18.32	-25.0	-24.8	12.8	8.52e-04	0	44	0	11802771456	22	13425
2026-01-21 21:41:06.81	245.56	18.39	-24.8	-24.7	12.7	9.65e-04	0	44	0	11911823360	21	13988
2026-01-21 21:41:07.77	245.86	18.45	-25.0	-24.8	12.7	9.17e-04	0	44	0	12029263872	21	14181
2026-01-21 21:41:08.74	246.17	18.52	-25.0	-24.8	12.6	9.96e-04	0	44	0	12129927168	21	14206
2026-01-21 21:41:09.71	246.47	18.59	-24.9	-24.7	12.8	9.06e-04	0	44	0	12238979072	21	13998
2026-01-21 21:41:10.68	246.77	18.65	-24.8	-24.6	12.6	9.73e-04	0	44	0	12356419584	21	13866
2026-01-21 21:41:11.65	247.08	18.72	-24.8	-24.6	12.7	1.10e-03	0	44	0	12457082880	21	13909
2026-01-21 21:41:12.62	247.39	18.78	-24.8	-24.7	12.6	9.86e-04	0	44	0	12566134784	21	13967
2026-01-21 21:41:13.59	247.70	18.85	-24.8	-24.7	12.7	9.92e-04	0	44	0	12675186688	21	13966
2026-01-21 21:41:14.56	248.01	18.91	-24.8	-24.6	12.6	1.10e-03	0	44	0	12784238592	21	13848
2026-01-21 21:41:15.53	248.32	18.97	-24.7	-24.5	12.7	1.02e-03	0	44	0	12893290496	21	13737
2026-01-21 21:41:16.50	248.64	19.03	-24.8	-24.7	12.8	1.06e-03	0	44	0	13002342400	21	13996
2026-01-21 21:41:17.47	248.95	19.10	-24.8	-24.6	12.6	1.16e-03	0	44	0	13103005696	21	13911
2026-01-21 21:41:18.44	249.27	19.16	-24.7	-24.5	12.6	1.17e-03	0	44	0	13220446208	21	13750
2026-01-21 21:41:19.40	249.58	19.22	-24.8	-24.6	12.6	1.30e-03	0	44	0	13329498112	21	13913
2026-01-21 21:41:20.37	249.90	19.28	-24.8	-24.6	12.5	1.27e-03	0	44	0	13446938624	21	13855
2026-01-21 21:41:21.34	250.22	19.34	-24.6	-24.4	12.6	1.25e-03	0	44	0	13547601920	21	13587
2026-01-21 21:41:22.32	250.55	19.40	-24.6	-24.4	12.4	1.34e-03	0	44	0	13656653824	21	13585
2026-01-21 21:41:23.29	250.87	19.45	-24.6	-24.4	12.4	1.35e-03	0	44	0	13774094336	21	13608
2026-01-21 21:41:24.26	251.20	19.51	-24.6	-24.4	12.5	1.39e-03	0	44	0	13874757632	21	13592
2026-01-21 21:41:25.23	251.53	19.57	-24.6	-24.4	12.4	1.30e-03	0	44	0	13983809536	21	13542
2026-01-21 21:41:26.20	251.85	19.62	-24.5	-24.3	12.4	1.54e-03	0	44	0	14092861440	21	13408
2026-01-21 21:41:27.18	252.19	19.68	-24.5	-24.4	12.5	1.50e-03	0	44	0	14210301952	21	13521
2026-01-21 21:41:28.14	252.51	19.73	-24.5	-24.4	12.4	1.45e-03	0	44	0	14310965248	21	13516
2026-01-21 21:41:29.11	252.84	19.79	-24.6	-24.4	12.3	1.62e-03	0	44	0	14420017152	21	13558
2026-01-21 21:41:30.08	253.18	19.84	-24.5	-24.4	12.3	1.56e-03	0	44	0	14537457664	21	13484
2026-01-21 21:41:31.05	253.51	19.89	-24.6	-24.5	12.4	1.64e-03	0	44	0	14638120960	21	13660
2026-01-21 21:41:32.01	253.84	19.94	-24.5	-24.4	12.3	1.64e-03	0	44	0	14747172864	21	13518
2026-01-21 21:41:32.99	254.18	19.99	-24.6	-24.4	12.3	1.62e-03	0	44	0	14864613376	21	13629
2026-01-21 21:41:33.95	254.52	20.04	-24.6	-24.4	12.4	1.70e-03	0	44	0	14965276672	21	13548
2026-01-21 21:41:34.93	254.86	20.09	-24.6	-24.4	12.4	1.55e-03	0	44	0	15074328576	21	13551
2026-01-21 21:41:35.90	255.20	20.14	-24.5	-24.3	12.4	1.61e-03	0	44	0	15191769088	21	13461
2026-01-21 21:41:36.87	255.54	20.19	-24.5	-24.3	12.4	1.58e-03	0	44	0	15292432384	21	13469
2026-01-21 21:41:37.84	255.89	20.24	-24.5	-24.4	12.5	1.62e-03	0	44	0	15401484288	21	13484
2026-01-21 21:41:38.80	256.23	20.28	-24.5	-24.3	12.5	1.47e-03	0	44	0	15510536192	21	13398
2026-01-21 21:41:39.77	256.57	20.33	-24.5	-24.4	12.6	1.37e-03	0	44	0	15627976704	21	13505
2026-01-21 21:41:40.74	256.92	20.37	-24.5	-24.3	12.3	1.48e-03	0	44	0	15728640000	21	13420
2026-01-21 21:41:41.71	257.26	20.42	-24.6	-24.4	12.3	1.64e-03	0	44	0	15837691904	20	14310
2026-01-21 21:41:42.68	257.61	20.46	-24.7	-24.5	12.4	1.56e-03	0	44	0	15955132416	20	14542
2026-01-21 21:41:43.65	257.96	20.50	-24.5	-24.3	12.5	1.43e-03	0	44	0	16055795712	20	14267
2026-01-21 21:41:44.62	258.31	20.54	-24.4	-24.2	12.5	1.34e-03	0	44	0	16164847616	20	14045
2026-01-21 21:41:45.59	258.66	20.58	-24.4	-24.2	12.6	1.33e-03	0	44	0	16282288128	20	14083
2026-01-21 21:41:46.57	259.02	20.62	-24.4	-24.3	12.5	1.30e-03	0	44	0	16382951424	20	14114
2026-01-21 21:41:47.54	259.37	20.66	-24.4	-24.2	12.5	1.61e-03	0	44	0	16492003328	20	14047
2026-01-21 21:41:48.50	259.72	20.70	-24.3	-24.1	12.5	1.31e-03	0	44	0	16609443840	20	13944
2026-01-21 21:41:49.47	260.08	20.73	-24.4	-24.2	12.5	1.19e-03	0	44	0	16718495744	20	14043
2026-01-21 21:41:50.44	260.43	20.77	-24.4	-24.2	12.6	1.42e-03	0	44	0	16819159040	20	14057
2026-01-21 21:41:51.41	260.79	20.80	-24.4	-24.2	12.5	1.35e-03	0	44	0	16928210944	20	14109
2026-01-21 21:41:52.38	261.15	20.83	-24.4	-24.3	12.5	1.29e-03	0	44	0	17045651456	20	14131
2026-01-21 21:41:53.35	261.51	20.87	-24.3	-24.1	12.7	1.26e-03	0	44	0	17146314752	20	13934
2026-01-21 21:41:54.32	261.87	20.90	-24.4	-24.2	12.6	1.23e-03	0	44	0	17255366656	20	14008
2026-01-21 21:41:55.29	262.23	20.93	-24.3	-24.1	12.7	1.19e-03	0	44	0	17372807168	20	13920
2026-01-21 21:41:56.26	262.59	20.96	-24.2	-24.1	12.7	1.37e-03	0	44	0	17473470464	20	13829
2026-01-21 21:41:57.23	262.95	20.99	-24.4	-24.2	12.8	9.19e-04	0	44	0	17582522368	20	14004
2026-01-21 21:41:58.20	263.31	21.01	-24.3	-24.1	12.7	7.86e-04	0	44	0	17699962880	20	13919
2026-01-21 21:41:59.16	263.67	21.04	-24.4	-24.2	12.6	1.17e-03	0	44	0	17800626176	20	14041
2026-01-21 21:42:00.13	264.03	21.07	-24.4	-24.2	12.7	1.22e-03	0	44	0	17909678080	20	14060
2026-01-21 21:42:01.10	264.40	21.09	-24.3	-24.1	12.8	1.02e-03	0	44	0	18027118592	20	13927
2026-01-21 21:42:02.07	264.76	21.11	-24.2	-24.1	12.8	9.80e-04	0	44	0	18136170496	20	13813
2026-01-21 21:42:03.04	265.13	21.14	-24.2	-24.1	12.8	8.47e-04	0	44	0	18236833792	20	13821
2026-01-21 21:42:04.01	265.49	21.16	-24.3	-24.1	12.8	8.93e-04	0	44	0	18345885696	20	13868
2026-01-21 21:42:04.98	265.86	21.18	-24.3	-24.1	12.8	6.26e-04	0	44	0	18463326208	20	13880
2026-01-21 21:42:05.95	266.23	21.20	-24.3	-24.1	12.9	8.43e-04	0	44	0	18563989504	20	13949
2026-01-21 21:42:06.91	266.59	21.21	-24.3	-24.1	12.9	6.18e-04	0	44	0	18673041408	20	13922
2026-01-21 21:42:07.88	266.96	21.23	-24.3	-24.1	12.9	5.28e-04	0	44	0	18790481920	20	13888
2026-01-21 21:42:08.85	267.33	21.25	-24.3	-24.1	13.0	6.71e-04	0	44	0	18891145216	20	13946
2026-01-21 21:42:09.82	267.70	21.26	-24.3	-24.2	13.0	5.65e-04	0	44	0	19000197120	20	13984
2026-01-21 21:42:10.79	268.07	21.27	-24.4	-24.3	13.1	4.31e-04	0	44	0	19117637632	20	14153
2026-01-21 21:42:11.76	268.44	21.29	-24.4	-24.2	13.1	3.70e-04	0	44	0	19218300928	20	14057
2026-01-21 21:42:12.73	268.81	21.30	-24.4	-24.2	13.0	4.82e-04	0	44	0	19327352832	20	14101
2026-01-21 21:42:13.70	269.18	21.31	-24.4	-24.2	13.2	3.70e-04	0	44	0	19436404736	20	14018
2026-01-21 21:42:14.67	269.55	21.32	-24.5	-24.3	13.2	3.68e-04	0	43	0	19545456640	20	14260
2026-01-21 21:42:15.63	269.91	21.33	-24.4	-24.2	13.2	3.47e-04	0	44	0	19654508544	20	14093
2026-01-21 21:42:16.60	270.28	21.33	-24.4	-24.3	13.2	2.92e-04	0	44	0	19763560448	20	14138
2026-01-21 21:42:17.57	270.65	21.34	-24.5	-24.3	13.2	2.50e-04	0	44	0	19881000960	20	14266
2026-01-21 21:42:18.54	271.03	21.34	-24.5	-24.3	13.3	2.55e-04	0	44	0	19981664256	20	14217
2026-01-21 21:42:19.52	271.40	21.35	-24.5	-24.3	13.2	2.29e-04	0	44	0	20090716160	20	14263
2026-01-21 21:42:20.49	271.77	21.35	-24.5	-24.3	13.3	2.40e-04	0	44	0	20208156672	20	14257
2026-01-21 21:42:21.46	272.14	21.35	-24.5	-24.3	13.3	1.93e-04	0	44	0	20308819968	20	14204
2026-01-21 21:42:22.43	272.51	21.35	-24.5	-24.3	13.4	1.94e-04	0	44	0	20417871872	20	14192
2026-01-21 21:42:23.40	272.89	21.35	-24.5	-24.3	13.4	1.79e-04	0	44	0	20535312384	20	14171
2026-01-21 21:42:24.37	273.26	21.35	-24.5	-24.4	13.4	1.94e-04	0	44	0	20644364288	20	14296
2026-01-21 21:42:25.35	273.63	21.35	-24.6	-24.4	13.4	1.45e-04	0	44	0	20745027584	20	14383
2026-01-21 21:42:26.32	274.00	21.34	-24.6	-24.5	13.4	1.28e-04	0	44	0	20854079488	20	14485
2026-01-21 21:42:27.29	274.37	21.34	-24.6	-24.4	13.4	1.22e-04	0	44	0	20971520000	20	14357
2026-01-21 21:42:28.27	274.75	21.33	-24.6	-24.4	13.4	1.43e-04	0	44	0	21072183296	20	14421
2026-01-21 21:42:29.24	275.12	21.32	-24.6	-24.4	13.4	1.45e-04	0	44	0	21181235200	20	14384
2026-01-21 21:42:30.21	275.49	21.32	-24.7	-24.5	13.5	1.07e-04	0	44	0	21298675712	20	14505
2026-01-21 21:42:31.18	275.86	21.31	-24.7	-24.5	13.5	9.15e-05	0	44	0	21407727616	20	14588
2026-01-21 21:42:32.15	276.23	21.30	-24.8	-24.6	13.5	2.42e-04	0	44	0	21508390912	20	14677
2026-01-21 21:42:33.12	276.60	21.28	-24.6	-24.4	13.5	1.49e-04	0	44	0	21625831424	20	14399
2026-01-21 21:42:34.09	276.97	21.27	-24.6	-24.4	13.6	9.15e-05	0	44	0	21734883328	20	14402
2026-01-21 21:42:35.06	277.34	21.26	-24.7	-24.6	13.6	7.82e-05	0	44	0	21835546624	20	14612
2026-01-21 21:42:36.02	277.70	21.24	-24.6	-24.4	13.6	6.29e-05	0	44	0	21952987136	20	14434
2026-01-21 21:42:36.99	278.07	21.23	-24.8	-24.6	13.6	8.20e-05	0	44	0	22062039040	20	14772
2026-01-21 21:42:37.96	278.44	21.21	-24.8	-24.6	13.5	4.95e-05	0	44	0	22162702336	20	14724
2026-01-21 21:42:38.94	278.81	21.19	-24.8	-24.6	13.5	1.32e-04	0	44	0	22271754240	20	14742
2026-01-21 21:42:39.90	279.17	21.17	-24.8	-24.6	13.5	9.53e-05	0	44	0	22389194752	20	14733
2026-01-21 21:42:40.87	279.54	21.15	-24.8	-24.6	13.5	1.11e-04	0	44	0	22489858048	20	14709
2026-01-21 21:42:41.84	279.90	21.13	-24.7	-24.5	13.5	9.34e-05	0	44	0	22598909952	20	14596
2026-01-21 21:42:42.81	280.27	21.11	-24.7	-24.6	13.5	9.53e-05	0	44	0	22716350464	20	14611
2026-01-21 21:42:43.78	280.63	21.08	-24.9	-24.7	13.4	1.85e-04	0	44	0	22825402368	20	14913
2026-01-21 21:42:44.75	281.00	21.06	-24.9	-24.7	13.4	1.51e-04	0	44	0	22926065664	20	14848
2026-01-21 21:42:45.72	281.36	21.03	-24.9	-24.7	13.4	1.56e-04	0	44	0	23043506176	20	14869
2026-01-21 21:42:46.69	281.72	21.01	-24.9	-24.7	13.4	1.70e-04	0	44	0	23152558080	20	14898
2026-01-21 21:42:47.66	282.08	20.98	-24.9	-24.7	13.4	1.75e-04	0	44	0	23253221376	20	14920
2026-01-21 21:42:48.63	282.44	20.95	-24.9	-24.7	13.4	1.52e-04	0	44	0	23370661888	20	14887
2026-01-21 21:42:49.60	282.80	20.92	-25.0	-24.8	13.4	1.60e-04	0	44	0	23479713792	20	15042
2026-01-21 21:42:50.58	283.17	20.89	-25.0	-24.8	13.4	1.56e-04	0	44	0	23588765696	20	15058
2026-01-21 21:42:51.55	283.53	20.86	-24.9	-24.7	13.4	1.70e-04	0	44	0	23689428992	20	14892
2026-01-21 21:42:52.52	283.88	20.83	-24.9	-24.7	13.4	2.19e-04	0	44	0	23806869504	20	14931
2026-01-21 21:42:53.49	284.24	20.79	-25.0	-24.8	13.4	2.10e-04	0	44	0	23915921408	20	15097
2026-01-21 21:42:54.46	284.60	20.76	-25.0	-24.9	13.4	2.06e-04	0	44	0	24016584704	20	15133
2026-01-21 21:42:55.43	284.95	20.72	-24.9	-24.7	13.4	2.06e-04	0	44	0	24134025216	20	14937
2026-01-21 21:42:56.40	285.31	20.69	-24.9	-24.8	13.4	1.85e-04	0	44	0	24243077120	20	14974
2026-01-21 21:42:57.37	285.66	20.65	-25.0	-24.9	13.5	1.64e-04	0	44	0	24360517632	20	15156
2026-01-21 21:42:58.34	286.01	20.61	-25.1	-24.9	13.4	1.68e-04	0	44	0	24461180928	20	15251
2026-01-21 21:42:59.31	286.36	20.57	-25.1	-25.0	13.3	2.67e-04	0	44	0	24570232832	20	15306
2026-01-21 21:43:00.28	286.71	20.53	-25.1	-24.9	13.4	1.72e-04	0	44	0	24679284736	20	15217
2026-01-21 21:43:01.25	287.06	20.49	-25.1	-24.9	13.4	2.14e-04	0	44	0	24788336640	20	15272
2026-01-21 21:43:02.22	287.41	20.45	-25.1	-25.0	13.4	2.10e-04	0	44	0	24897388544	20	15338
2026-01-21 21:43:03.19	287.76	20.41	-25.1	-24.9	13.4	2.17e-04	0	44	0	25006440448	20	15221
2026-01-21 21:43:04.16	288.10	20.36	-25.1	-24.9	13.3	2.75e-04	0	44	0	25107103744	20	15286
2026-01-21 21:43:05.14	288.45	20.32	-25.2	-25.0	13.4	2.31e-04	0	44	0	25224544256	20	15375
2026-01-21 21:43:06.10	288.79	20.27	-25.3	-25.1	13.4	2.33e-04	0	44	0	25333596160	21	14685
2026-01-21 21:43:07.07	289.13	20.23	-25.3	-25.1	13.4	1.79e-04	0	44	0	25451036672	21	14706
2026-01-21 21:43:08.05	289.48	20.18	-25.3	-25.1	13.3	2.19e-04	0	44	0	25551699968	21	14698
2026-01-21 21:43:09.02	289.82	20.13	-25.3	-25.1	13.4	2.42e-04	0	44	0	25660751872	21	14668
2026-01-21 21:43:09.99	290.16	20.08	-25.3	-25.2	13.3	2.52e-04	0	44	0	25778192384	21	14814
2026-01-21 21:43:10.96	290.50	20.03	-25.3	-25.1	13.3	2.44e-04	0	44	0	25878855680	21	14723
2026-01-21 21:43:11.93	290.83	19.98	-25.3	-25.1	13.3	2.42e-04	0	44	0	25987907584	21	14771
2026-01-21 21:43:12.90	291.17	19.93	-25.3	-25.1	13.3	2.86e-04	0	44	0	26096959488	21	14691
2026-01-21 21:43:13.87	291.50	19.88	-25.3	-25.2	13.3	3.18e-04	0	44	0	26197622784	21	14777
2026-01-21 21:43:14.84	291.84	19.83	-25.4	-25.2	13.3	2.38e-04	0	44	0	26315063296	21	14868
2026-01-21 21:43:15.81	292.17	19.78	-25.4	-25.2	13.3	2.63e-04	0	44	0	26424115200	21	14874
2026-01-21 21:43:16.78	292.50	19.72	-25.6	-25.4	13.3	3.24e-04	0	44	0	26541555712	21	15171
2026-01-21 21:43:17.75	292.83	19.67	-25.5	-25.3	13.3	2.48e-04	0	44	0	26642219008	21	15003
2026-01-21 21:43:18.71	293.15	19.61	-25.5	-25.4	13.3	2.71e-04	0	44	0	26751270912	21	15141
2026-01-21 21:43:19.68	293.48	19.56	-25.4	-25.3	13.3	3.03e-04	0	44	0	26868711424	21	14986
2026-01-21 21:43:20.65	293.80	19.50	-25.4	-25.2	13.3	2.86e-04	0	44	0	26969374720	21	14918
2026-01-21 21:43:21.61	294.12	19.44	-25.6	-25.4	13.3	2.59e-04	0	44	0	27078426624	21	15173
2026-01-21 21:43:22.58	294.45	19.39	-25.5	-25.3	13.3	2.48e-04	0	44	0	27195867136	21	15046
2026-01-21 21:43:23.55	294.77	19.33	-25.5	-25.3	13.2	3.07e-04	0	44	0	27296530432	21	15050
2026-01-21 21:43:24.52	295.09	19.27	-25.5	-25.3	13.3	2.75e-04	0	44	0	27405582336	21	15055
2026-01-21 21:43:25.49	295.41	19.21	-25.6	-25.4	13.3	2.67e-04	0	44	0	27514634240	21	15188
2026-01-21 21:43:26.46	295.72	19.15	-25.7	-25.5	13.3	2.61e-04	0	44	0	27615297536	21	15400
2026-01-21 21:43:27.43	296.04	19.09	-25.6	-25.4	13.3	2.71e-04	0	44	0	27732738048	21	15228
2026-01-21 21:43:28.41	296.36	19.02	-25.6	-25.4	13.3	2.76e-04	0	44	0	27841789952	21	15192
2026-01-21 21:43:29.38	296.67	18.96	-25.6	-25.4	13.2	2.71e-04	0	44	0	27959230464	21	15292
2026-01-21 21:43:30.34	296.98	18.90	-25.6	-25.4	13.3	2.71e-04	0	44	0	28059893760	21	15279
2026-01-21 21:43:31.32	297.29	18.84	-25.6	-25.4	13.3	2.27e-04	0	44	0	28168945664	21	15203
2026-01-21 21:43:32.28	297.59	18.77	-25.6	-25.5	13.3	2.48e-04	0	44	0	28286386176	21	15302
2026-01-21 21:43:33.25	297.90	18.71	-25.6	-25.4	13.3	1.94e-04	0	44	0	28387049472	21	15197
2026-01-21 21:43:34.22	298.21	18.64	-25.6	-25.5	13.3	2.25e-04	0	44	0	28496101376	21	15297
2026-01-21 21:43:35.19	298.51	18.58	-25.6	-25.4	13.4	1.64e-04	0	44	0	28605153280	21	15172
2026-01-21 21:43:36.16	298.81	18.51	-25.6	-25.4	13.4	2.33e-04	0	44	0	28714205184	21	15195
2026-01-21 21:43:37.13	299.11	18.45	-25.6	-25.4	13.4	1.79e-04	0	44	0	28823257088	21	15222
2026-01-21 21:43:38.10	299.41	18.38	-25.6	-25.4	13.4	2.12e-04	0	44	0	28932308992	21	15239
2026-01-21 21:43:39.07	299.71	18.31	-25.6	-25.4	13.4	2.29e-04	0	44	0	29032972288	21	15295
2026-01-21 21:43:40.04	300.01	18.25	-25.6	-25.4	13.4	1.79e-04	0	44	0	29150412800	21	15240
2026-01-21 21:43:41.01	300.30	18.18	-25.7	-25.5	13.4	1.81e-04	0	44	0	29259464704	21	15412
2026-01-21 21:43:41.98	300.60	18.11	-25.7	-25.5	13.4	1.87e-04	0	44	0	29376905216	22	14588
2026-01-21 21:43:42.95	300.89	18.04	-25.7	-25.5	13.4	2.08e-04	0	44	0	29477568512	22	14554
2026-01-21 21:43:43.91	301.18	17.97	-25.7	-25.5	13.4	2.02e-04	0	44	0	29586620416	22	14584
2026-01-21 21:43:44.88	301.47	17.90	-25.7	-25.6	13.4	1.73e-04	0	44	0	29704060928	22	14651
2026-01-21 21:43:45.85	301.75	17.83	-25.9	-25.7	13.4	2.06e-04	0	44	0	29804724224	22	14876
2026-01-21 21:43:46.82	302.04	17.76	-25.9	-25.7	13.4	2.04e-04	0	44	0	29913776128	22	14838
2026-01-21 21:43:47.79	302.32	17.69	-25.8	-25.6	13.4	1.96e-04	0	44	0	30022828032	22	14760
2026-01-21 21:43:48.75	302.60	17.62	-25.9	-25.7	13.4	1.30e-04	0	44	0	30131879936	22	14900
2026-01-21 21:43:49.72	302.89	17.55	-25.9	-25.7	13.4	1.94e-04	0	44	0	30240931840	22	14921
2026-01-21 21:43:50.69	303.17	17.48	-25.8	-25.7	13.4	2.15e-04	0	44	0	30349983744	22	14812
2026-01-21 21:43:51.66	303.44	17.40	-25.9	-25.7	13.3	1.73e-04	0	44	0	30450647040	22	14911
2026-01-21 21:43:52.63	303.72	17.33	-25.9	-25.8	13.3	2.00e-04	0	44	0	30568087552	22	14979
2026-01-21 21:43:53.60	304.00	17.26	-25.9	-25.8	13.3	2.61e-04	0	44	0	30677139456	22	14965
2026-01-21 21:43:54.57	304.27	17.18	-25.9	-25.7	13.3	2.67e-04	0	44	0	30794579968	22	14913
2026-01-21 21:43:55.54	304.54	17.11	-26.0	-25.9	13.3	2.12e-04	0	44	0	30895243264	22	15155
2026-01-21 21:43:56.51	304.82	17.04	-26.0	-25.8	13.3	2.65e-04	0	44	0	31004295168	22	15081
2026-01-21 21:43:57.48	305.09	16.96	-26.1	-25.9	13.2	3.15e-04	0	44	0	31121735680	22	15198
2026-01-21 21:43:58.45	305.35	16.89	-26.1	-25.9	13.2	3.38e-04	0	44	0	31222398976	22	15203
2026-01-21 21:43:59.42	305.62	16.81	-26.1	-25.9	13.2	3.17e-04	0	44	0	31331450880	22	15170
2026-01-21 21:44:00.39	305.89	16.74	-26.1	-25.9	13.2	4.20e-04	0	44	0	31440502784	22	15234
2026-01-21 21:44:01.36	306.15	16.66	-26.3	-26.1	13.2	4.16e-04	0	44	0	31549554688	23	14691
2026-01-21 21:44:02.33	306.41	16.59	-26.2	-26.1	13.2	3.80e-04	0	44	0	31658606592	23	14618
2026-01-21 21:44:03.30	306.67	16.51	-26.3	-26.1	13.2	3.72e-04	0	44	0	31767658496	23	14759
2026-01-21 21:44:04.27	306.93	16.44	-26.3	-26.1	13.1	5.51e-04	0	44	0	31885099008	23	14697
2026-01-21 21:44:05.24	307.19	16.36	-26.3	-26.2	13.1	4.92e-04	0	44	0	31985762304	23	14780
2026-01-21 21:44:06.21	307.45	16.29	-26.2	-26.1	13.1	4.40e-04	0	44	0	32094814208	23	14662
2026-01-21 21:44:07.18	307.70	16.21	-26.4	-26.2	13.1	4.18e-04	0	44	0	32212254720	23	14863
2026-01-21 21:44:08.15	307.95	16.13	-26.3	-26.2	13.2	3.97e-04	0	43	0	32312918016	23	14817
2026-01-21 21:44:09.12	308.21	16.06	-26.4	-26.3	13.2	4.27e-04	0	44	0	32421969920	23	14989
2026-01-21 21:44:10.08	308.45	15.98	-26.5	-26.4	13.1	4.37e-04	0	44	0	32539410432	23	15148
2026-01-21 21:44:11.05	308.70	15.90	-26.5	-26.3	13.1	3.72e-04	0	44	0	32640073728	23	15000
2026-01-21 21:44:12.02	308.95	15.83	-26.5	-26.3	13.1	3.51e-04	0	44	0	32749125632	23	15070
2026-01-21 21:44:13.00	309.20	15.75	-26.5	-26.3	13.1	3.81e-04	0	44	0	32858177536	23	15120
2026-01-21 21:44:13.97	309.44	15.67	-26.7	-26.5	13.1	4.25e-04	0	44	0	32958840832	23	15365
2026-01-21 21:44:14.94	309.69	15.59	-26.5	-26.3	13.1	4.40e-04	0	44	0	33076281344	23	15066
2026-01-21 21:44:15.91	309.93	15.52	-26.5	-26.4	13.1	4.35e-04	0	44	0	33185333248	23	15169
2026-01-21 21:44:16.87	310.17	15.44	-26.6	-26.4	13.1	5.19e-04	0	44	0	33302773760	23	15176
2026-01-21 21:44:17.84	310.41	15.36	-26.7	-26.5	13.1	5.07e-04	0	44	0	33403437056	23	15438
2026-01-21 21:44:18.81	310.64	15.28	-26.7	-26.5	13.1	4.84e-04	0	44	0	33512488960	24	14549
2026-01-21 21:44:19.79	310.88	15.21	-26.7	-26.5	13.1	4.23e-04	0	44	0	33629929472	24	14558
2026-01-21 21:44:20.76	311.12	15.13	-26.7	-26.5	13.0	4.44e-04	0	44	0	33730592768	24	14563
2026-01-21 21:44:21.73	311.35	15.05	-26.7	-26.6	13.0	5.43e-04	0	44	0	33839644672	24	14608
2026-01-21 21:44:22.70	311.58	14.97	-26.8	-26.6	13.1	5.03e-04	0	44	0	33948696576	24	14700
2026-01-21 21:44:23.67	311.81	14.89	-26.9	-26.7	13.0	6.24e-04	0	44	0	34057748480	24	14910
2026-01-21 21:44:24.64	312.04	14.81	-26.9	-26.8	13.0	6.20e-04	0	44	0	34166800384	24	14964
2026-01-21 21:44:25.60	312.27	14.74	-26.8	-26.6	13.0	5.74e-04	0	44	0	34275852288	24	14709
2026-01-21 21:44:26.57	312.49	14.66	-26.8	-26.6	13.1	5.09e-04	0	44	0	34393292800	24	14721
2026-01-21 21:44:27.54	312.72	14.58	-26.9	-26.7	13.1	4.08e-04	0	44	0	34493956096	24	14844
2026-01-21 21:44:28.51	312.94	14.50	-26.9	-26.8	13.1	4.81e-04	0	44	0	34603008000	24	14979
2026-01-21 21:44:29.48	313.16	14.42	-27.0	-26.8	13.1	4.54e-04	0	44	0	34720448512	24	15011
2026-01-21 21:44:30.45	313.39	14.34	-27.0	-26.8	13.1	5.00e-04	0	44	0	34821111808	24	15097
2026-01-21 21:44:31.42	313.61	14.26	-27.0	-26.8	13.1	4.81e-04	0	44	0	34930163712	24	15053
2026-01-21 21:44:32.39	313.82	14.19	-27.1	-26.9	13.1	4.86e-04	0	44	0	35047604224	24	15268
2026-01-21 21:44:33.36	314.04	14.11	-27.2	-27.0	13.1	4.96e-04	0	44	0	35148267520	24	15411
2026-01-21 21:44:34.33	314.26	14.03	-27.1	-26.9	13.1	4.67e-04	0	44	0	35257319424	25	14433
2026-01-21 21:44:35.29	314.47	13.95	-27.2	-27.0	13.1	4.48e-04	0	44	0	35366371328	25	14553
2026-01-21 21:44:36.26	314.68	13.87	-27.3	-27.2	13.0	5.76e-04	0	44	0	35475423232	25	14805
2026-01-21 21:44:37.24	314.90	13.79	-27.3	-27.1	13.0	6.39e-04	0	44	0	35584475136	25	14712
2026-01-21 21:44:38.21	315.11	13.71	-27.4	-27.2	13.0	6.10e-04	0	44	0	35693527040	25	14831
2026-01-21 21:44:39.18	315.32	13.64	-27.4	-27.2	13.1	5.32e-04	0	44	0	35810967552	25	14841
2026-01-21 21:44:40.15	315.52	13.56	-27.3	-27.2	13.0	5.68e-04	0	44	0	35911630848	25	14819
2026-01-21 21:44:41.12	315.73	13.48	-27.3	-27.1	13.0	5.65e-04	0	44	0	36020682752	25	14731
2026-01-21 21:44:42.09	315.94	13.40	-27.2	-27.1	13.0	6.85e-04	0	44	0	36138123264	25	14626
2026-01-21 21:44:43.06	316.14	13.32	-27.3	-27.1	13.0	7.00e-04	0	44	0	36238786560	25	14692
2026-01-21 21:44:44.03	316.34	13.24	-27.4	-27.2	13.0	6.90e-04	0	44	0	36347838464	25	14859
2026-01-21 21:44:45.00	316.55	13.16	-27.4	-27.2	13.0	7.00e-04	0	44	0	36465278976	25	14832
2026-01-21 21:44:45.97	316.75	13.08	-27.4	-27.2	13.0	7.06e-04	0	44	0	36565942272	25	14884
2026-01-21 21:44:46.93	316.94	13.01	-27.4	-27.3	13.0	6.83e-04	0	44	0	36674994176	25	14998
2026-01-21 21:44:47.90	317.14	12.93	-27.5	-27.3	12.9	6.79e-04	0	44	0	36784046080	25	15008
2026-01-21 21:44:48.87	317.34	12.85	-27.5	-27.4	13.0	7.17e-04	0	44	0	36901486592	25	15141
2026-01-21 21:44:49.84	317.53	12.77	-27.6	-27.4	13.0	6.12e-04	0	44	0	37002149888	25	15209
2026-01-21 21:44:50.82	317.73	12.69	-27.6	-27.5	13.0	6.10e-04	0	44	0	37111201792	25	15301
2026-01-21 21:44:51.79	317.92	12.61	-27.5	-27.4	13.0	5.89e-04	0	44	0	37228642304	25	15138
2026-01-21 21:44:52.77	318.12	12.54	-27.6	-27.5	13.0	5.76e-04	0	44	0	37329305600	25	15335
2026-01-21 21:44:53.74	318.31	12.46	-27.7	-27.5	13.0	5.66e-04	0	44	0	37438357504	25	15465
2026-01-21 21:44:54.71	318.50	12.38	-27.7	-27.6	13.0	5.80e-04	0	44	0	37555798016	26	14639
2026-01-21 21:44:55.68	318.69	12.30	-27.8	-27.6	13.1	5.82e-04	0	44	0	37664849920	26	14668
2026-01-21 21:44:56.64	318.87	12.22	-27.8	-27.6	13.0	5.61e-04	0	44	0	37765513216	26	14657
2026-01-21 21:44:57.61	319.06	12.15	-27.8	-27.6	13.0	6.68e-04	0	44	0	37882953728	26	14764
2026-01-21 21:44:58.58	319.25	12.07	-28.0	-27.8	13.0	6.45e-04	0	44	0	37992005632	26	15008
2026-01-21 21:44:59.55	319.43	11.99	-27.9	-27.8	13.0	7.09e-04	0	44	0	38092668928	26	14967
2026-01-21 21:45:00.52	319.61	11.91	-28.0	-27.9	12.9	6.77e-04	0	44	0	38201720832	26	15121
2026-01-21 21:45:01.49	319.79	11.84	-28.0	-27.8	13.0	7.49e-04	0	44	0	38319161344	26	15014
2026-01-21 21:45:02.46	319.98	11.76	-28.0	-27.8	12.9	7.32e-04	0	44	0	38419824640	26	15066
2026-01-21 21:45:03.43	320.15	11.68	-28.0	-27.9	12.9	7.74e-04	0	44	0	38528876544	26	15169
2026-01-21 21:45:04.40	320.33	11.60	-28.0	-27.9	12.9	8.45e-04	0	44	0	38646317056	26	15121
2026-01-21 21:45:05.37	320.51	11.53	-28.1	-27.9	12.9	8.85e-04	0	44	0	38746980352	26	15178
2026-01-21 21:45:06.34	320.69	11.45	-28.1	-27.9	12.8	9.31e-04	0	44	0	38856032256	26	15287
2026-01-21 21:45:07.31	320.86	11.37	-28.2	-28.0	12.8	8.75e-04	0	44	0	38973472768	26	15357
2026-01-21 21:45:08.28	321.04	11.30	-28.3	-28.1	12.8	9.33e-04	0	44	0	39082524672	27	14675
2026-01-21 21:45:09.25	321.21	11.22	-28.2	-28.1	12.8	8.28e-04	0	44	0	39183187968	27	14622
2026-01-21 21:45:10.22	321.38	11.14	-28.3	-28.1	12.9	8.32e-04	0	44	0	39300628480	27	14758
2026-01-21 21:45:11.19	321.55	11.07	-28.4	-28.2	12.9	8.64e-04	0	44	0	39409680384	27	14893
2026-01-21 21:45:12.17	321.73	10.99	-28.5	-28.3	12.9	8.05e-04	0	44	0	39510343680	27	15077
2026-01-21 21:45:13.14	321.90	10.91	-28.5	-28.4	12.9	7.42e-04	0	44	0	39619395584	27	15123
2026-01-21 21:45:14.11	322.06	10.84	-28.5	-28.3	13.0	7.90e-04	0	44	0	39736836096	27	15079
2026-01-21 21:45:15.07	322.23	10.76	-28.5	-28.4	12.9	7.27e-04	0	44	0	39845888000	27	15171
2026-01-21 21:45:16.04	322.39	10.69	-28.6	-28.4	12.9	7.78e-04	0	44	0	39946551296	27	15223
2026-01-21 21:45:17.01	322.56	10.61	-28.6	-28.4	13.0	7.70e-04	0	44	0	40063991808	28	14359
2026-01-21 21:45:17.97	322.72	10.54	-28.5	-28.3	13.0	7.21e-04	0	44	0	40173043712	28	14272
2026-01-21 21:45:18.95	322.89	10.46	-28.6	-28.4	13.0	7.42e-04	0	44	0	40273707008	28	14360
2026-01-21 21:45:19.92	323.05	10.38	-28.6	-28.5	12.9	8.47e-04	0	44	0	40391147520	28	14491
2026-01-21 21:45:20.89	323.21	10.31	-28.6	-28.4	13.0	6.87e-04	0	44	0	40500199424	28	14376
2026-01-21 21:45:21.86	323.37	10.23	-28.7	-28.5	13.0	7.82e-04	0	44	0	40600862720	28	14507
2026-01-21 21:45:22.83	323.53	10.16	-28.6	-28.4	12.9	7.46e-04	0	44	0	40709914624	28	14433
2026-01-21 21:45:23.80	323.69	10.08	-28.7	-28.5	13.0	8.91e-04	0	44	0	40827355136	28	14576
2026-01-21 21:45:24.77	323.85	10.01	-28.7	-28.6	13.3	2.94e-04	0	44	0	40936407040	28	14640
2026-01-21 21:45:25.74	324.00	9.93	-53.3	-55.7	6.2	0.00e+00	0	43	104	40995127296	77	19741
2026-01-21 21:45:26.71	324.16	9.86	-53.3	-55.6	6.2	0.00e+00	0	43	104	40995127296	77	19602
2026-01-21 21:45:27.68	324.31	9.78	-53.2	-55.5	6.2	0.00e+00	0	43	104	40995127296	77	19400
2026-01-21 21:45:28.65	324.47	9.71	-53.2	-55.5	6.2	0.00e+00	0	43	104	40995127296	77	19409
2026-01-21 21:45:29.62	324.62	9.64	-53.4	-55.5	6.2	0.00e+00	0	43	104	40995127296	77	19450
2026-01-21 21:45:30.58	324.77	9.56	-53.4	-55.5	6.2	0.00e+00	0	43	104	40995127296	77	19431
2026-01-21 21:45:31.55	324.92	9.49	-53.3	-55.5	6.2	0.00e+00	0	43	104	40995127296	77	19445
2026-01-21 21:45:32.52	325.07	9.41	-53.4	-55.5	6.2	0.00e+00	0	43	104	40995127296	77	19422
2026-01-21 21:45:33.50	325.22	9.34	-53.3	-55.5	6.2	0.00e+00	0	43	104	40995127296	77	19350
2026-01-21 21:45:34.46	325.37	9.27	-53.3	-55.5	6.2	0.00e+00	0	43	104	40995127296	77	19324
2026-01-21 21:45:35.44	325.52	9.19	-53.3	-55.5	6.2	0.00e+00	0	43	104	40995127296	77	19314
2026-01-21 21:45:36.41	325.66	9.12	-53.3	-55.5	6.2	0.00e+00	0	43	104	40995127296	77	19313
2026-01-21 21:45:37.39	325.81	9.05	-53.3	-55.5	6.2	0.00e+00	0	43	104	40995127296	77	19297
2026-01-21 21:45:38.36	325.96	8.97	-53.2	-55.5	6.2	0.00e+00	0	43	104	40995127296	77	19279
2026-01-21 21:45:39.33	326.10	8.90	-53.3	-55.4	6.2	0.00e+00	0	43	104	40995127296	77	19190
2026-01-21 21:45:40.30	326.24	8.83	-53.3	-55.4	6.2	0.00e+00	0	43	104	40995127296	77	19154
2026-01-21 21:45:41.27	326.39	8.76	-53.3	-55.4	6.2	0.00e+00	0	43	104	40995127296	77	19120
2026-01-21 21:45:42.24	326.53	8.68	-53.2	-55.4	6.2	0.00e+00	0	43	104	40995127296	77	19195
2026-01-21 21:45:43.21	326.67	8.61	-53.2	-55.4	6.2	0.00e+00	0	43	104	40995127296	77	19050
2026-01-21 21:45:44.18	326.81	8.54	-53.2	-55.4	6.2	0.00e+00	0	43	104	40995127296	77	19120
2026-01-21 21:45:45.15	326.95	8.47	-53.2	-55.3	6.2	0.00e+00	0	43	104	40995127296	77	19012
2026-01-21 21:45:46.12	327.09	8.39	-53.2	-55.4	6.2	0.00e+00	0	43	104	40995127296	77	19121
2026-01-21 21:45:47.09	327.22	8.32	-53.2	-55.3	6.2	0.00e+00	0	43	104	40995127296	77	18965
2026-01-21 21:45:48.06	327.36	8.25	-53.2	-55.3	6.2	0.00e+00	0	43	104	40995127296	77	19004
2026-01-21 21:45:49.03	327.50	8.18	-53.2	-55.3	6.2	0.00e+00	0	43	104	40995127296	77	18911
2026-01-21 21:45:50.00	327.63	8.11	-53.2	-55.4	6.2	0.00e+00	0	43	104	40995127296	77	19082
2026-01-21 21:45:50.97	327.77	8.04	-53.2	-55.3	6.2	0.00e+00	0	43	104	40995127296	77	18872
2026-01-21 21:45:51.94	327.90	7.97	-53.2	-55.3	6.2	0.00e+00	0	43	104	40995127296	77	18917
2026-01-21 21:45:52.91	328.03	7.90	-53.1	-55.2	6.2	0.00e+00	0	43	104	40995127296	77	18808
2026-01-21 21:45:53.87	328.16	7.83	-53.1	-55.3	6.2	0.00e+00	0	43	104	40995127296	77	19006
2026-01-21 21:45:54.84	328.29	7.75	-53.1	-55.3	6.2	0.00e+00	0	43	104	40995127296	77	18843
2026-01-21 21:45:55.81	328.43	7.68	-53.1	-55.3	6.2	0.00e+00	0	43	104	40995127296	77	18870
2026-01-21 21:45:56.78	328.56	7.61	-53.1	-55.2	6.2	0.00e+00	0	43	104	40995127296	77	18763
2026-01-21 21:45:57.75	328.68	7.54	-53.1	-55.3	6.2	0.00e+00	0	43	104	40995127296	77	18855
2026-01-21 21:45:58.72	328.81	7.47	-53.1	-55.2	6.2	0.00e+00	0	43	104	40995127296	77	18756
2026-01-21 21:45:59.69	328.94	7.40	-53.1	-55.2	6.2	0.00e+00	0	43	104	40995127296	77	18775
2026-01-21 21:46:00.66	329.07	7.33	-53.1	-55.2	6.2	0.00e+00	0	43	104	40995127296	77	18700
2026-01-21 21:46:01.63	329.19	7.26	-53.0	-55.2	6.2	0.00e+00	0	43	104	40995127296	77	18741
2026-01-21 21:46:02.60	329.32	7.20	-53.0	-55.2	6.2	0.00e+00	0	43	104	40995127296	77	18693
2026-01-21 21:46:03.56	329.44	7.13	-53.0	-55.2	6.2	0.00e+00	0	43	104	40995127296	77	18609
2026-01-21 21:46:04.53	329.57	7.06	-53.0	-55.1	6.2	0.00e+00	0	43	104	40995127296	77	18602
2026-01-21 21:46:05.50	329.69	6.99	-53.0	-55.2	6.2	0.00e+00	0	43	104	40995127296	77	18721
2026-01-21 21:46:06.47	329.81	6.92	-53.0	-55.2	6.2	0.00e+00	0	43	104	40995127296	77	18607
2026-01-21 21:46:07.44	329.94	6.85	-53.0	-55.2	6.2	0.00e+00	0	43	104	40995127296	77	18628
2026-01-21 21:46:08.41	330.06	6.78	-53.0	-55.1	6.2	0.00e+00	0	43	104	40995127296	77	18532
2026-01-21 21:46:09.39	330.18	6.71	-53.0	-55.1	6.2	0.00e+00	0	43	104	40995127296	77	18552
2026-01-21 21:46:10.36	330.30	6.65	-53.0	-55.1	6.2	0.00e+00	0	43	104	40995127296	77	18591
2026-01-21 21:46:11.33	330.42	6.58	-53.0	-55.1	6.2	0.00e+00	0	43	104	40995127296	77	18498
2026-01-21 21:46:12.30	330.54	6.51	-53.0	-55.1	6.2	0.00e+00	0	43	104	40995127296	77	18505
2026-01-21 21:46:13.27	330.66	6.44	-52.9	-55.0	6.2	0.00e+00	0	43	104	40995127296	77	18388
2026-01-21 21:46:14.24	330.77	6.37	-53.0	-55.2	6.2	0.00e+00	0	43	104	40995127296	77	18650
2026-01-21 21:46:15.20	330.89	6.31	-52.9	-55.0	6.2	0.00e+00	0	43	104	40995127296	77	18358
2026-01-21 21:46:16.17	331.01	6.24	-53.0	-55.1	6.2	0.00e+00	0	43	104	40995127296	77	18419
2026-01-21 21:46:17.14	331.12	6.17	-52.9	-55.0	6.2	0.00e+00	0	43	104	40995127296	77	18278
2026-01-21 21:46:18.11	331.24	6.11	-52.9	-55.1	6.2	0.00e+00	0	43	104	40995127296	77	18493
2026-01-21 21:46:19.08	331.35	6.04	-52.9	-55.0	6.2	0.00e+00	0	43	104	40995127296	77	18284
2026-01-21 21:46:20.05	331.47	5.97	-52.9	-55.1	6.2	0.00e+00	0	43	104	40995127296	77	18395
2026-01-21 21:46:21.02	331.58	5.90	-52.8	-55.0	6.2	0.00e+00	0	43	104	40995127296	77	18182
2026-01-21 21:46:21.99	331.69	5.84	-52.9	-55.1	6.2	0.00e+00	0	43	104	40995127296	77	18498
2026-01-21 21:46:22.95	331.80	5.77	-52.8	-55.0	6.2	0.00e+00	0	43	104	40995127296	77	18194
2026-01-21 21:46:23.92	331.91	5.71	-52.9	-55.0	6.2	0.00e+00	0	43	104	40995127296	77	18229
2026-01-21 21:46:24.89	332.02	5.64	-52.8	-54.9	6.2	0.00e+00	0	43	104	40995127296	77	18097
2026-01-21 21:46:25.86	332.14	5.57	-52.9	-55.1	6.2	0.00e+00	0	43	104	40995127296	77	18402
2026-01-21 21:46:26.83	332.24	5.51	-52.8	-55.0	6.2	0.00e+00	0	43	104	40995127296	77	18183
2026-01-21 21:46:27.80	332.35	5.44	-52.8	-55.0	6.2	0.00e+00	0	43	104	40995127296	77	18214
2026-01-21 21:46:28.77	332.46	5.38	-52.7	-54.9	6.2	0.00e+00	0	43	104	40995127296	77	18050
2026-01-21 21:46:29.74	332.57	5.31	-52.8	-55.0	6.2	0.00e+00	0	43	104	40995127296	77	18260
2026-01-21 21:46:30.72	332.68	5.25	-52.8	-54.9	6.2	0.00e+00	0	43	104	40995127296	77	18093
2026-01-21 21:46:31.69	332.79	5.18	-52.8	-54.9	6.2	0.00e+00	0	43	104	40995127296	77	18098
2026-01-21 21:46:32.65	332.89	5.12	-52.7	-54.8	6.2	0.00e+00	0	43	104	40995127296	77	17936
2026-01-21 21:46:33.62	333.00	5.05	-52.8	-54.9	6.2	0.00e+00	0	43	104	40995127296	77	18113
2026-01-21 21:46:34.59	333.10	4.99	-52.9	-55.0	6.2	0.00e+00	0	43	104	40995127296	77	18369
2026-01-21 21:46:35.56	333.21	4.92	-53.2	-55.3	6.2	0.00e+00	0	43	104	40995127296	77	19002
2026-01-21 21:46:36.53	333.31	4.86	-53.5	-55.6	6.2	0.00e+00	0	43	104	40995127296	77	19537
2026-01-21 21:46:37.50	333.41	4.79	-53.6	-55.7	6.2	0.00e+00	0	43	104	40995127296	77	19887
2026-01-21 21:46:38.48	333.52	4.73	-53.8	-55.9	6.2	0.00e+00	0	43	104	40995127296	78	19133
2026-01-21 21:46:39.44	333.62	4.66	-53.8	-56.0	6.2	0.00e+00	0	43	104	40995127296	78	19289
2026-01-21 21:46:40.41	333.72	4.60	-53.9	-56.1	6.2	0.00e+00	0	43	104	40995127296	78	19567
2026-01-21 21:46:41.38	333.82	4.54	-54.0	-56.1	6.2	0.00e+00	0	43	104	40995127296	78	19630
2026-01-21 21:46:42.35	333.92	4.47	-54.0	-56.1	6.2	0.00e+00	0	43	104	40995127296	78	19543
2026-01-21 21:46:43.32	334.02	4.41	-54.0	-56.1	6.2	0.00e+00	0	43	104	40995127296	78	19564
2026-01-21 21:46:44.29	334.12	4.35	-53.5	-55.9	6.2	0.00e+00	0	43	104	40995127296	78	19127
2026-01-21 21:46:45.26	334.22	4.28	-53.9	-56.0	6.2	0.00e+00	0	43	104	40995127296	78	19362
2026-01-21 21:46:46.23	334.32	4.22	-53.8	-55.9	6.2	0.00e+00	0	43	104	40995127296	78	19148
2026-01-21 21:46:47.20	334.42	4.16	-53.7	-55.9	6.2	0.00e+00	0	43	104	40995127296	78	19041
2026-01-21 21:46:48.17	334.52	4.09	-53.8	-55.9	6.2	0.00e+00	0	43	104	40995127296	78	19211
2026-01-21 21:46:49.14	334.62	4.03	-53.9	-56.0	6.2	0.00e+00	0	43	104	40995127296	78	19444
2026-01-21 21:46:50.11	334.71	3.97	-53.9	-56.0	6.2	0.00e+00	0	43	104	40995127296	78	19411
2026-01-21 21:46:51.07	334.81	3.91	-53.9	-56.0	6.2	0.00e+00	0	43	104	40995127296	78	19449
2026-01-21 21:46:52.05	334.90	3.84	-53.9	-56.1	6.2	0.00e+00	0	43	104	40995127296	78	19498
2026-01-21 21:46:53.02	335.00	3.78	-53.9	-56.1	6.2	0.00e+00	0	43	104	40995127296	78	19501
2026-01-21 21:46:53.99	335.09	3.72	-54.0	-56.1	6.2	0.00e+00	0	43	104	40995127296	78	19609
2026-01-21 21:46:54.96	335.19	3.66	-54.0	-56.1	6.2	0.00e+00	0	43	104	40995127296	78	19554
2026-01-21 21:46:55.93	335.28	3.60	-53.9	-56.1	6.2	0.00e+00	0	43	104	40995127296	78	19486
2026-01-21 21:46:56.90	335.38	3.53	-53.9	-56.0	6.2	0.00e+00	0	43	104	40995127296	78	19412
2026-01-21 21:46:57.86	335.47	3.47	-53.9	-56.0	6.2	0.00e+00	0	43	104	40995127296	78	19337
2026-01-21 21:46:58.83	335.56	3.41	-53.9	-56.0	6.2	0.00e+00	0	43	104	40995127296	78	19387
2026-01-21 21:46:59.80	335.65	3.35	-53.9	-56.0	6.2	0.00e+00	0	43	104	40995127296	78	19335
2026-01-21 21:47:00.78	335.75	3.29	-53.8	-56.0	6.2	0.00e+00	0	43	104	40995127296	78	19297
2026-01-21 21:47:01.74	335.84	3.23	-53.8	-56.0	6.2	0.00e+00	0	43	104	40995127296	78	19301
2026-01-21 21:47:02.71	335.93	3.17	-53.8	-55.9	6.2	0.00e+00	0	43	104	40995127296	78	19214
2026-01-21 21:47:03.68	336.02	3.11	-53.8	-56.0	6.2	0.00e+00	0	43	104	40995127296	78	19268
2026-01-21 21:47:04.65	336.11	3.05	-53.8	-56.0	6.2	0.00e+00	0	43	104	40995127296	78	19269
2026-01-21 21:47:05.62	336.20	2.98	-53.8	-55.9	6.2	0.00e+00	0	43	104	40995127296	78	19249
2026-01-21 21:47:06.59	336.29	2.92	-53.8	-55.9	6.2	0.00e+00	0	43	104	40995127296	78	19214
2026-01-21 21:47:07.56	336.38	2.86	-53.8	-55.9	6.2	0.00e+00	0	43	104	40995127296	78	19183
2026-01-21 21:47:08.53	336.46	2.80	-53.8	-55.9	6.2	0.00e+00	0	43	104	40995127296	78	19206
2026-01-21 21:47:09.50	336.55	2.74	-53.8	-55.9	6.2	0.00e+00	0	43	104	40995127296	78	19137
2026-01-21 21:47:10.47	336.64	2.68	-53.8	-55.9	6.2	0.00e+00	0	43	104	40995127296	78	19149
2026-01-21 21:47:11.44	336.73	2.62	-53.8	-55.9	6.2	0.00e+00	0	43	104	40995127296	78	19140
2026-01-21 21:47:12.41	336.81	2.56	-53.8	-55.9	6.2	0.00e+00	0	43	104	40995127296	78	19074
2026-01-21 21:47:13.38	336.90	2.50	-53.8	-55.9	6.2	0.00e+00	0	43	104	40995127296	78	19129
2026-01-21 21:47:14.36	336.99	2.44	-53.8	-55.9	6.2	0.00e+00	0	43	104	40995127296	78	19109
2026-01-21 21:47:15.33	337.07	2.38	-53.8	-55.9	6.2	0.00e+00	0	43	104	40995127296	78	19149
2026-01-21 21:47:16.30	337.16	2.33	-53.8	-55.9	6.2	0.00e+00	0	43	104	40995127296	78	19113
2026-01-21 21:47:17.27	337.24	2.27	-53.8	-55.9	6.2	0.00e+00	0	43	104	40995127296	78	19112
2026-01-21 21:47:18.23	337.32	2.21	-53.8	-55.9	6.2	0.00e+00	0	43	104	40995127296	78	19088
2026-01-21 21:47:19.21	337.41	2.15	-53.8	-55.9	6.2	0.00e+00	0	43	104	40995127296	78	19103
2026-01-21 21:47:20.18	337.49	2.09	-53.7	-55.8	6.2	0.00e+00	0	43	104	40995127296	78	19015
2026-01-21 21:47:21.14	337.57	2.03	-53.7	-55.9	6.2	0.00e+00	0	43	104	40995127296	78	19097
2026-01-21 21:47:22.12	337.66	1.97	-53.7	-55.9	6.2	0.00e+00	0	43	104	40995127296	78	19107

#Closed at: 2026-01-21 21:47:22
#Recorded file [40995 MB]: D:/lorett/data/31041_260122_003726.dat