passes_logs/2026/01/21/R3.2S_Murmansk/R3.2S_Murmansk__20260121_232023_NOAA_20_JPSS-1_rec.log

#Pass ID: 20260121_232023_NOAA 20 (JPSS-1)
#Satellite: NOAA 20 (JPSS-1)
#Configuration: NOAA 20
#almurnet v.1.7.20251203
#Start time: 2026-01-21 23:20:25

#Version: 2.2.20231116
#Station: R3.2S_Murmansk
#Location: 33.079688 lon 68.888172 lat
#TLE: 1 43013U 17073A   26021.46221703  .00000173  00000+0  10299-3 0  9999
#TLE: 2 43013  98.7644 322.3335 0001238  29.7597 330.3649 14.19538314423652

#Time	Az	El	Level	Level2	SNR	BER	BlckErr	Temp	State	Recorded	gain1	gain2
2026-01-21 23:20:25.18	20.54	2.08	-54.3	-69.3	3.8	1.49e+00	0	39	0	0	79	21130
2026-01-21 23:20:26.18	20.58	2.14	-54.4	-69.4	3.8	1.49e+00	0	39	104	0	79	21394
2026-01-21 23:20:27.19	20.62	2.20	-54.4	-69.4	3.8	1.49e+00	0	39	104	0	79	21424
2026-01-21 23:20:28.20	20.66	2.26	-54.4	-69.4	3.8	1.49e+00	0	39	104	0	79	21285
2026-01-21 23:20:29.21	20.71	2.32	-54.3	-69.3	3.8	1.49e+00	0	39	104	0	79	21246
2026-01-21 23:20:30.22	20.75	2.39	-54.3	-69.3	3.8	1.49e+00	0	39	104	0	79	21108
2026-01-21 23:20:31.23	20.79	2.45	-54.3	-69.3	3.8	1.49e+00	0	39	104	0	79	21113
2026-01-21 23:20:32.23	20.84	2.51	-54.3	-69.3	3.8	1.49e+00	0	39	104	0	79	21045
2026-01-21 23:20:33.24	20.88	2.57	-54.2	-69.2	3.8	1.49e+00	0	39	104	0	79	20991
2026-01-21 23:20:34.25	20.92	2.63	-54.2	-69.2	3.8	1.49e+00	0	39	104	0	79	20880
2026-01-21 23:20:35.26	20.96	2.70	-54.1	-69.1	3.8	1.49e+00	0	39	104	0	79	20700
2026-01-21 23:20:36.27	21.01	2.76	-54.0	-69.0	3.8	1.49e+00	0	39	104	0	79	20507
2026-01-21 23:20:37.28	21.05	2.82	-53.9	-69.0	3.8	1.49e+00	0	39	104	0	79	20350
2026-01-21 23:20:38.28	21.10	2.89	-53.8	-68.8	3.8	1.49e+00	0	39	104	0	79	20029
2026-01-21 23:20:39.29	21.14	2.95	-53.7	-68.8	3.8	1.49e+00	0	39	104	0	79	19849
2026-01-21 23:20:40.30	21.18	3.01	-53.6	-68.6	3.8	1.49e+00	0	39	104	0	79	19567
2026-01-21 23:20:41.31	21.23	3.08	-53.4	-68.4	3.8	1.49e+00	0	39	104	0	78	20264
2026-01-21 23:20:42.31	21.27	3.14	-53.2	-68.2	3.8	1.49e+00	0	39	104	0	78	19735
2026-01-21 23:20:43.32	21.32	3.20	-52.9	-67.9	3.8	1.49e+00	0	39	104	0	77	20076
2026-01-21 23:20:44.33	21.36	3.27	-52.4	-67.4	3.8	1.49e+00	0	39	104	0	76	20199
2026-01-21 23:20:45.34	21.41	3.33	-52.4	-66.9	3.8	1.49e+00	0	39	104	0	76	19130
2026-01-21 23:20:46.34	21.45	3.39	-52.3	-66.6	3.8	1.49e+00	0	39	104	0	76	18467
2026-01-21 23:20:47.35	21.50	3.46	-52.3	-66.5	3.8	1.49e+00	0	39	104	0	76	18275
2026-01-21 23:20:48.36	21.54	3.52	-52.3	-66.5	3.8	1.49e+00	0	39	104	0	76	18135
2026-01-21 23:20:49.37	21.59	3.59	-52.3	-66.4	3.8	1.49e+00	0	39	104	0	76	18050
2026-01-21 23:20:50.38	21.64	3.65	-52.3	-66.2	3.8	1.49e+00	0	39	104	0	76	17603
2026-01-21 23:20:51.39	21.68	3.72	-52.3	-66.0	3.8	1.49e+00	0	39	104	0	76	17159
2026-01-21 23:20:52.40	21.73	3.78	-52.2	-64.5	4.0	1.49e+00	0	39	104	0	76	14384
2026-01-21 23:20:53.41	21.78	3.85	-52.1	-63.4	4.3	1.42e+00	47	39	104	0	76	12715
2026-01-21 23:20:54.41	21.82	3.91	-51.9	-61.1	5.4	8.00e-01	0	39	0	1048576	75	10333
2026-01-21 23:20:55.42	21.87	3.98	-51.6	-59.5	6.6	3.53e-01	0	39	0	3145728	75	8598
2026-01-21 23:20:56.43	21.92	4.04	-51.3	-57.8	8.2	1.03e-01	0	39	0	5242880	74	7473
2026-01-21 23:20:57.44	21.96	4.11	-50.8	-56.3	9.7	1.98e-02	0	39	0	7340032	73	6657
2026-01-21 23:20:58.45	22.01	4.17	-50.5	-55.3	10.8	4.68e-03	0	39	0	8388608	73	5966
2026-01-21 23:20:59.45	22.06	4.24	-50.0	-54.1	12.1	1.66e-03	0	39	0	10485760	72	5474
2026-01-21 23:21:00.46	22.11	4.31	-49.7	-53.4	12.8	7.55e-05	0	39	0	12582912	71	5399
2026-01-21 23:21:01.47	22.15	4.37	-49.5	-52.9	13.4	2.13e-05	0	39	0	14680064	70	5359
2026-01-21 23:21:02.48	22.20	4.44	-49.4	-52.7	13.6	1.44e-05	0	39	0	16777216	70	5252
2026-01-21 23:21:03.49	22.25	4.51	-49.3	-52.5	13.8	7.00e-07	0	39	0	17825792	70	5144
2026-01-21 23:21:04.50	22.30	4.57	-49.2	-52.4	14.0	3.80e-06	0	39	0	19922944	70	5066
2026-01-21 23:21:05.51	22.35	4.64	-49.2	-52.5	13.9	7.60e-06	0	39	0	22020096	70	5105
2026-01-21 23:21:06.52	22.40	4.71	-49.7	-53.3	13.0	1.98e-05	0	39	0	24117248	70	5637
2026-01-21 23:21:07.53	22.45	4.77	-50.1	-54.3	12.0	2.30e-04	0	40	0	26214400	70	6284
2026-01-21 23:21:08.53	22.50	4.84	-50.5	-55.2	10.9	1.12e-03	0	39	0	27262976	71	6634
2026-01-21 23:21:09.54	22.55	4.91	-50.9	-56.5	9.6	8.19e-03	0	39	0	29360128	72	7223
2026-01-21 23:21:10.55	22.60	4.98	-51.1	-57.3	8.7	1.96e-02	0	40	0	31457280	72	7975
2026-01-21 23:21:11.56	22.65	5.04	-50.9	-56.6	9.3	1.03e-01	0	39	0	33554432	73	6892
2026-01-21 23:21:12.57	22.70	5.11	-52.0	-62.2	5.1	5.68e-03	0	40	0	35651584	74	12414
2026-01-21 23:21:13.57	22.75	5.18	-51.5	-58.7	6.6	1.49e+00	1	40	104	35651584	75	7856
2026-01-21 23:21:14.58	22.80	5.25	-48.6	-51.2	15.1	2.74e-05	0	40	0	36700160	69	4677
2026-01-21 23:21:15.59	22.85	5.32	-50.8	-56.0	10.7	1.67e-04	0	40	0	38797312	72	6829
2026-01-21 23:21:16.60	22.90	5.38	-49.5	-52.8	13.2	8.12e-01	0	40	0	39845888	71	5036
2026-01-21 23:21:17.60	22.95	5.45	-48.3	-50.7	15.8	0.00e+00	0	39	0	41943040	68	4673
2026-01-21 23:21:18.61	23.00	5.52	-48.2	-50.7	15.8	0.00e+00	0	40	0	44040192	68	4673
2026-01-21 23:21:19.62	23.05	5.59	-48.0	-50.3	16.2	0.00e+00	0	39	0	45088768	68	4493
2026-01-21 23:21:20.63	23.11	5.66	-47.8	-50.1	16.4	0.00e+00	0	40	0	47185920	67	4614
2026-01-21 23:21:21.64	23.16	5.73	-47.9	-50.2	16.2	0.00e+00	0	39	0	49283072	67	4695
2026-01-21 23:21:22.65	23.21	5.80	-47.8	-50.1	16.4	0.00e+00	0	40	0	51380224	67	4603
2026-01-21 23:21:23.66	23.26	5.87	-47.5	-49.6	16.9	0.00e+00	0	40	0	53477376	67	4368
2026-01-21 23:21:24.66	23.32	5.94	-47.7	-49.9	16.6	0.00e+00	0	39	0	54525952	67	4507
2026-01-21 23:21:25.67	23.37	6.01	-47.6	-49.8	16.7	0.00e+00	0	40	0	56623104	67	4458
2026-01-21 23:21:26.68	23.42	6.08	-47.6	-49.8	16.7	0.00e+00	0	40	0	58720256	67	4464
2026-01-21 23:21:27.69	23.48	6.15	-47.8	-50.0	16.5	0.00e+00	0	40	0	60817408	67	4561
2026-01-21 23:21:28.70	23.53	6.22	-47.5	-49.5	17.0	0.00e+00	0	40	0	62914560	67	4337
2026-01-21 23:21:29.70	23.58	6.29	-47.6	-49.7	16.8	0.00e+00	0	40	0	63963136	66	4680
2026-01-21 23:21:30.71	23.64	6.36	-47.5	-49.5	17.0	0.00e+00	0	40	0	66060288	66	4598
2026-01-21 23:21:31.72	23.69	6.43	-47.5	-49.6	17.0	0.00e+00	0	40	0	68157440	66	4603
2026-01-21 23:21:32.72	23.75	6.50	-47.5	-49.5	17.0	0.00e+00	0	40	0	70254592	66	4594
2026-01-21 23:21:33.73	23.80	6.57	-47.5	-49.6	17.0	0.00e+00	0	40	0	72351744	66	4611
2026-01-21 23:21:34.74	23.86	6.65	-47.5	-49.6	17.0	0.00e+00	0	40	0	73400320	66	4599
2026-01-21 23:21:35.75	23.91	6.72	-47.5	-49.6	17.0	0.00e+00	0	40	0	75497472	66	4615
2026-01-21 23:21:36.76	23.97	6.79	-47.4	-49.5	17.1	0.00e+00	0	40	0	77594624	66	4566
2026-01-21 23:21:37.77	24.02	6.86	-47.6	-49.6	17.0	0.00e+00	0	40	0	79691776	66	4648
2026-01-21 23:21:38.78	24.08	6.93	-47.4	-49.4	17.2	0.00e+00	0	40	0	81788928	66	4524
2026-01-21 23:21:39.78	24.14	7.01	-47.4	-49.4	17.2	0.00e+00	0	40	0	82837504	66	4513
2026-01-21 23:21:40.79	24.19	7.08	-47.5	-49.5	17.1	0.00e+00	0	40	0	84934656	66	4591
2026-01-21 23:21:41.80	24.25	7.15	-47.5	-49.5	17.1	0.00e+00	0	40	0	87031808	66	4569
2026-01-21 23:21:42.81	24.31	7.22	-47.5	-49.5	17.1	0.00e+00	0	40	0	89128960	66	4597
2026-01-21 23:21:43.82	24.37	7.30	-47.4	-49.4	17.2	0.00e+00	0	40	0	91226112	66	4531
2026-01-21 23:21:44.82	24.42	7.37	-47.4	-49.4	17.3	0.00e+00	0	40	0	92274688	66	4499
2026-01-21 23:21:45.83	24.48	7.44	-47.4	-49.5	17.2	0.00e+00	0	40	0	94371840	66	4547
2026-01-21 23:21:46.84	24.54	7.52	-47.5	-49.5	17.2	0.00e+00	0	40	0	96468992	66	4569
2026-01-21 23:21:47.85	24.60	7.59	-47.4	-49.4	17.3	0.00e+00	0	40	0	98566144	66	4523
2026-01-21 23:21:48.86	24.66	7.67	-47.5	-49.6	17.1	0.00e+00	0	40	0	100663296	66	4603
2026-01-21 23:21:49.86	24.72	7.74	-47.3	-49.2	17.4	0.00e+00	0	40	0	101711872	66	4426
2026-01-21 23:21:50.87	24.78	7.82	-47.3	-49.2	17.5	0.00e+00	0	40	0	103809024	66	4424
2026-01-21 23:21:51.88	24.84	7.89	-47.3	-49.2	17.5	0.00e+00	0	40	0	105906176	66	4422
2026-01-21 23:21:52.89	24.90	7.97	-47.4	-49.3	17.4	0.00e+00	0	40	0	108003328	66	4488
2026-01-21 23:21:53.90	24.96	8.04	-47.5	-49.5	17.2	0.00e+00	0	40	0	110100480	66	4592
2026-01-21 23:21:54.91	25.02	8.12	-47.4	-49.3	17.4	0.00e+00	0	40	0	112197632	66	4492
2026-01-21 23:21:55.91	25.08	8.19	-47.4	-49.4	17.4	0.00e+00	0	40	0	113246208	66	4507
2026-01-21 23:21:56.92	25.14	8.27	-47.5	-49.5	17.2	0.00e+00	0	40	0	115343360	66	4587
2026-01-21 23:21:57.93	25.20	8.34	-47.4	-49.4	17.4	0.00e+00	0	40	0	117440512	66	4512
2026-01-21 23:21:58.94	25.26	8.42	-47.5	-49.5	17.3	0.00e+00	0	40	0	119537664	66	4566
2026-01-21 23:21:59.95	25.33	8.50	-47.4	-49.3	17.5	0.00e+00	0	40	0	120586240	66	4474
2026-01-21 23:22:00.96	25.39	8.57	-47.4	-49.4	17.3	0.00e+00	0	40	0	122683392	66	4517
2026-01-21 23:22:01.97	25.45	8.65	-47.5	-49.5	17.3	0.00e+00	0	40	0	124780544	66	4583
2026-01-21 23:22:02.97	25.51	8.73	-47.3	-49.2	17.5	0.00e+00	0	40	0	126877696	66	4430
2026-01-21 23:22:03.98	25.58	8.80	-47.4	-49.3	17.5	0.00e+00	0	40	0	128974848	66	4482
2026-01-21 23:22:04.99	25.64	8.88	-47.3	-49.2	17.6	0.00e+00	0	40	0	131072000	66	4432
2026-01-21 23:22:06.00	25.70	8.96	-47.1	-49.0	17.8	0.00e+00	0	40	0	132120576	66	4314
2026-01-21 23:22:07.01	25.77	9.04	-47.2	-49.0	17.8	0.00e+00	0	40	0	134217728	66	4334
2026-01-21 23:22:08.01	25.83	9.11	-47.1	-49.0	17.8	0.00e+00	0	40	0	136314880	66	4311
2026-01-21 23:22:09.02	25.90	9.19	-47.1	-48.9	17.9	0.00e+00	0	40	0	138412032	66	4253
2026-01-21 23:22:10.03	25.96	9.27	-47.0	-48.8	18.0	0.00e+00	0	40	0	140509184	66	4236
2026-01-21 23:22:11.04	26.03	9.35	-47.0	-48.8	18.1	0.00e+00	0	40	0	141557760	66	4205
2026-01-21 23:22:12.05	26.09	9.43	-46.9	-48.7	18.1	0.00e+00	0	40	0	143654912	65	4421
2026-01-21 23:22:13.05	26.16	9.51	-46.9	-48.7	18.1	0.00e+00	0	40	0	145752064	65	4411
2026-01-21 23:22:14.06	26.23	9.59	-46.8	-48.5	18.3	0.00e+00	0	40	0	147849216	65	4321
2026-01-21 23:22:15.07	26.29	9.67	-46.8	-48.5	18.3	0.00e+00	0	40	0	148897792	65	4331
2026-01-21 23:22:16.08	26.36	9.75	-46.8	-48.4	18.4	0.00e+00	0	40	0	150994944	65	4286
2026-01-21 23:22:17.09	26.43	9.83	-46.6	-48.3	18.5	0.00e+00	0	40	0	153092096	65	4222
2026-01-21 23:22:18.10	26.50	9.91	-46.8	-48.5	18.4	0.00e+00	0	40	0	155189248	65	4294
2026-01-21 23:22:19.11	26.57	9.99	-46.7	-48.3	18.5	0.00e+00	0	40	0	157286400	65	4231
2026-01-21 23:22:20.12	26.63	10.07	-46.7	-48.4	18.5	0.00e+00	0	40	0	159383552	65	4264
2026-01-21 23:22:21.12	26.70	10.15	-46.6	-48.3	18.6	0.00e+00	0	40	0	160432128	65	4212
2026-01-21 23:22:22.13	26.77	10.23	-46.7	-48.3	18.5	0.00e+00	0	40	0	162529280	65	4240
2026-01-21 23:22:23.14	26.84	10.31	-46.5	-48.1	18.8	0.00e+00	0	40	0	164626432	65	4131
2026-01-21 23:22:24.15	26.91	10.39	-46.6	-48.2	18.7	0.00e+00	0	40	0	166723584	65	4167
2026-01-21 23:22:25.16	26.98	10.48	-46.7	-48.3	18.6	0.00e+00	0	40	0	168820736	65	4226
2026-01-21 23:22:26.16	27.05	10.56	-46.6	-48.2	18.7	0.00e+00	0	40	0	169869312	65	4188
2026-01-21 23:22:27.17	27.12	10.64	-46.4	-48.1	18.9	0.00e+00	0	40	0	171966464	64	4341
2026-01-21 23:22:28.18	27.20	10.72	-46.5	-48.1	18.8	0.00e+00	0	40	0	174063616	64	4358
2026-01-21 23:22:29.19	27.27	10.81	-46.4	-47.9	19.0	0.00e+00	0	40	0	176160768	64	4280
2026-01-21 23:22:30.19	27.34	10.89	-46.4	-48.0	18.9	0.00e+00	0	40	0	178257920	64	4309
2026-01-21 23:22:31.20	27.41	10.97	-46.3	-47.9	19.0	0.00e+00	0	40	0	179306496	64	4261
2026-01-21 23:22:32.21	27.48	11.06	-46.4	-48.0	19.0	0.00e+00	0	40	0	181403648	64	4314
2026-01-21 23:22:33.22	27.56	11.14	-46.3	-47.9	19.1	0.00e+00	0	40	0	183500800	64	4254
2026-01-21 23:22:34.23	27.63	11.22	-46.3	-47.8	19.2	0.00e+00	0	40	0	185597952	64	4211
2026-01-21 23:22:35.23	27.71	11.31	-46.3	-47.8	19.1	0.00e+00	0	40	0	187695104	64	4230
2026-01-21 23:22:36.24	27.78	11.39	-46.3	-47.8	19.1	0.00e+00	0	40	0	188743680	64	4235
2026-01-21 23:22:37.25	27.86	11.48	-46.2	-47.7	19.2	0.00e+00	0	40	0	190840832	64	4186
2026-01-21 23:22:38.26	27.93	11.56	-46.2	-47.7	19.3	0.00e+00	0	40	0	192937984	64	4148
2026-01-21 23:22:39.27	28.01	11.65	-46.2	-47.8	19.2	0.00e+00	0	40	0	195035136	64	4203
2026-01-21 23:22:40.28	28.08	11.73	-46.0	-47.5	19.5	0.00e+00	0	40	0	197132288	64	4061
2026-01-21 23:22:41.28	28.16	11.82	-46.2	-47.6	19.4	0.00e+00	0	40	0	198180864	63	4390
2026-01-21 23:22:42.29	28.24	11.91	-46.1	-47.5	19.5	0.00e+00	0	40	0	200278016	63	4330
2026-01-21 23:22:43.30	28.31	11.99	-46.0	-47.4	19.7	0.00e+00	0	40	0	202375168	63	4259
2026-01-21 23:22:44.31	28.39	12.08	-46.0	-47.4	19.7	0.00e+00	0	40	0	204472320	63	4261
2026-01-21 23:22:45.31	28.47	12.17	-46.0	-47.4	19.7	0.00e+00	0	40	0	206569472	63	4269
2026-01-21 23:22:46.32	28.55	12.25	-45.9	-47.4	19.7	0.00e+00	0	40	0	207618048	63	4256
2026-01-21 23:22:47.33	28.63	12.34	-45.9	-47.4	19.8	0.00e+00	0	40	0	209715200	63	4245
2026-01-21 23:22:48.34	28.71	12.43	-45.9	-47.3	19.8	0.00e+00	0	40	0	211812352	63	4239
2026-01-21 23:22:49.34	28.79	12.52	-46.0	-47.5	19.6	0.00e+00	0	40	0	213909504	63	4302
2026-01-21 23:22:50.35	28.87	12.60	-46.1	-47.6	19.6	0.00e+00	0	40	0	216006656	63	4346
2026-01-21 23:22:51.36	28.95	12.69	-46.0	-47.4	19.7	0.00e+00	0	40	0	217055232	63	4269
2026-01-21 23:22:52.37	29.03	12.78	-45.9	-47.4	19.7	0.00e+00	0	40	0	219152384	63	4246
2026-01-21 23:22:53.37	29.11	12.87	-46.0	-47.4	19.7	0.00e+00	0	40	0	221249536	63	4274
2026-01-21 23:22:54.38	29.20	12.96	-45.9	-47.3	19.8	0.00e+00	0	40	0	223346688	63	4214
2026-01-21 23:22:55.39	29.28	13.05	-45.8	-47.2	19.9	0.00e+00	0	40	0	225443840	63	4187
2026-01-21 23:22:56.40	29.36	13.14	-45.9	-47.3	19.8	0.00e+00	0	40	0	226492416	63	4211
2026-01-21 23:22:57.41	29.45	13.23	-45.9	-47.4	19.8	0.00e+00	0	40	0	228589568	63	4245
2026-01-21 23:22:58.41	29.53	13.32	-45.9	-47.3	19.8	0.00e+00	0	40	0	230686720	63	4221
2026-01-21 23:22:59.42	29.62	13.41	-45.9	-47.3	19.9	0.00e+00	0	40	0	232783872	63	4206
2026-01-21 23:23:00.43	29.70	13.50	-45.9	-47.3	19.9	0.00e+00	0	40	0	234881024	63	4197
2026-01-21 23:23:01.44	29.79	13.59	-45.9	-47.3	19.9	0.00e+00	0	40	0	235929600	63	4199
2026-01-21 23:23:02.44	29.87	13.68	-45.9	-47.3	19.9	0.00e+00	0	40	0	238026752	63	4194
2026-01-21 23:23:03.45	29.96	13.78	-45.8	-47.1	20.0	0.00e+00	0	40	0	240123904	63	4138
2026-01-21 23:23:04.46	30.05	13.87	-45.8	-47.2	20.0	0.00e+00	0	40	0	242221056	63	4153
2026-01-21 23:23:05.47	30.13	13.96	-45.9	-47.3	19.8	0.00e+00	0	40	0	244318208	63	4233
2026-01-21 23:23:06.48	30.22	14.05	-45.9	-47.3	19.8	0.00e+00	0	40	0	245366784	63	4240
2026-01-21 23:23:07.48	30.31	14.15	-45.8	-47.2	20.0	0.00e+00	0	40	0	247463936	63	4173
2026-01-21 23:23:08.49	30.40	14.24	-45.9	-47.3	19.9	0.00e+00	0	40	0	249561088	63	4209
2026-01-21 23:23:09.50	30.49	14.33	-45.9	-47.3	19.9	0.00e+00	0	40	0	251658240	63	4227
2026-01-21 23:23:10.50	30.58	14.43	-45.9	-47.3	19.9	0.00e+00	0	40	0	253755392	63	4223
2026-01-21 23:23:11.51	30.67	14.52	-45.9	-47.3	19.9	0.00e+00	0	40	0	254803968	63	4209
2026-01-21 23:23:12.52	30.76	14.62	-45.8	-47.2	20.0	0.00e+00	0	40	0	256901120	63	4176
2026-01-21 23:23:13.53	30.86	14.71	-45.8	-47.2	20.0	0.00e+00	0	40	0	258998272	63	4160
2026-01-21 23:23:14.53	30.95	14.81	-45.8	-47.2	20.0	0.00e+00	0	40	0	261095424	63	4163
2026-01-21 23:23:15.54	31.04	14.90	-45.8	-47.2	20.0	0.00e+00	0	40	0	263192576	63	4168
2026-01-21 23:23:16.55	31.14	15.00	-45.8	-47.2	19.9	0.00e+00	0	40	0	264241152	63	4168
2026-01-21 23:23:17.56	31.23	15.09	-45.8	-47.2	20.0	0.00e+00	0	40	0	266338304	63	4169
2026-01-21 23:23:18.57	31.33	15.19	-45.8	-47.1	20.1	0.00e+00	0	40	0	268435456	63	4130
2026-01-21 23:23:19.57	31.42	15.29	-45.8	-47.2	20.1	0.00e+00	0	40	0	270532608	63	4147
2026-01-21 23:23:20.58	31.52	15.38	-45.6	-46.9	20.3	0.00e+00	0	40	0	272629760	63	4038
2026-01-21 23:23:21.59	31.61	15.48	-45.4	-46.7	20.5	0.00e+00	0	40	0	274726912	62	4181
2026-01-21 23:23:22.60	31.71	15.58	-45.4	-46.6	20.6	0.00e+00	0	40	0	275775488	62	4140
2026-01-21 23:23:23.61	31.81	15.68	-45.3	-46.6	20.6	0.00e+00	0	40	0	277872640	62	4126
2026-01-21 23:23:24.61	31.91	15.78	-45.4	-46.7	20.5	0.00e+00	0	40	0	279969792	62	4185
2026-01-21 23:23:25.62	32.01	15.87	-45.3	-46.6	20.6	0.00e+00	0	40	0	282066944	62	4117
2026-01-21 23:23:26.63	32.11	15.97	-45.3	-46.6	20.6	0.00e+00	0	40	0	283115520	62	4130
2026-01-21 23:23:27.64	32.21	16.07	-45.4	-46.7	20.5	0.00e+00	0	40	0	285212672	62	4157
2026-01-21 23:23:28.65	32.31	16.17	-45.3	-46.6	20.6	0.00e+00	0	40	0	287309824	62	4120
2026-01-21 23:23:29.66	32.41	16.27	-45.4	-46.7	20.5	0.00e+00	0	40	0	289406976	62	4181
2026-01-21 23:23:30.67	32.51	16.37	-45.5	-46.8	20.5	0.00e+00	0	40	0	291504128	62	4221
2026-01-21 23:23:31.68	32.62	16.47	-45.6	-46.9	20.4	0.00e+00	0	40	0	292552704	62	4264
2026-01-21 23:23:32.68	32.72	16.58	-45.7	-47.0	20.3	0.00e+00	0	40	0	294649856	62	4332
2026-01-21 23:23:33.69	32.82	16.68	-45.8	-47.1	20.1	0.00e+00	0	40	0	296747008	62	4380
2026-01-21 23:23:34.70	32.93	16.78	-45.7	-47.0	20.2	0.00e+00	0	40	0	298844160	62	4338
2026-01-21 23:23:35.71	33.04	16.88	-45.8	-47.2	20.1	0.00e+00	0	40	0	300941312	62	4400
2026-01-21 23:23:36.72	33.14	16.98	-45.9	-47.2	20.1	0.00e+00	0	40	0	303038464	62	4430
2026-01-21 23:23:37.72	33.25	17.09	-45.9	-47.2	20.1	0.00e+00	0	40	0	304087040	62	4429
2026-01-21 23:23:38.73	33.36	17.19	-45.9	-47.2	20.1	0.00e+00	0	40	0	306184192	62	4440
2026-01-21 23:23:39.74	33.46	17.29	-45.9	-47.3	20.0	0.00e+00	0	40	0	308281344	62	4480
2026-01-21 23:23:40.75	33.57	17.40	-46.0	-47.4	19.9	0.00e+00	0	40	0	310378496	62	4522
2026-01-21 23:23:41.75	33.68	17.50	-45.9	-47.3	20.0	0.00e+00	0	40	0	311427072	62	4477
2026-01-21 23:23:42.76	33.79	17.60	-45.8	-47.1	20.2	0.00e+00	0	40	0	313524224	62	4386
2026-01-21 23:23:43.77	33.91	17.71	-45.9	-47.2	20.1	0.00e+00	0	40	0	315621376	62	4425
2026-01-21 23:23:44.78	34.02	17.81	-45.9	-47.3	20.0	0.00e+00	0	40	0	317718528	62	4481
2026-01-21 23:23:45.79	34.13	17.92	-46.0	-47.4	19.9	0.00e+00	0	40	0	319815680	62	4520
2026-01-21 23:23:46.79	34.24	18.02	-46.0	-47.4	20.0	0.00e+00	0	40	0	321912832	62	4502
2026-01-21 23:23:47.80	34.36	18.13	-45.9	-47.3	20.0	0.00e+00	0	40	0	322961408	62	4482
2026-01-21 23:23:48.81	34.47	18.24	-46.0	-47.3	20.0	0.00e+00	0	40	0	325058560	62	4486
2026-01-21 23:23:49.82	34.59	18.34	-46.0	-47.4	19.9	0.00e+00	0	40	0	327155712	62	4533
2026-01-21 23:23:50.83	34.71	18.45	-46.1	-47.5	19.8	0.00e+00	0	40	0	329252864	62	4577
2026-01-21 23:23:51.83	34.82	18.56	-46.1	-47.5	19.9	0.00e+00	0	40	0	331350016	62	4546
2026-01-21 23:23:52.84	34.94	18.67	-46.0	-47.4	20.0	0.00e+00	0	40	0	332398592	62	4509
2026-01-21 23:23:53.85	35.06	18.78	-46.2	-47.6	19.8	0.00e+00	0	40	0	334495744	62	4618
2026-01-21 23:23:54.86	35.18	18.88	-46.1	-47.5	19.9	0.00e+00	0	40	0	336592896	62	4575
2026-01-21 23:23:55.87	35.30	18.99	-46.1	-47.4	19.9	0.00e+00	0	40	0	338690048	62	4545
2026-01-21 23:23:56.87	35.42	19.10	-46.1	-47.5	19.9	0.00e+00	0	40	0	339738624	62	4580
2026-01-21 23:23:57.88	35.55	19.21	-46.1	-47.5	19.8	0.00e+00	0	40	0	341835776	62	4594
2026-01-21 23:23:58.89	35.67	19.32	-46.2	-47.6	19.8	0.00e+00	0	40	0	343932928	62	4616
2026-01-21 23:23:59.90	35.79	19.43	-46.2	-47.6	19.7	0.00e+00	0	40	0	346030080	63	4375
2026-01-21 23:24:00.91	35.92	19.54	-46.2	-47.6	19.7	0.00e+00	0	40	0	348127232	63	4375
2026-01-21 23:24:01.91	36.04	19.65	-46.2	-47.6	19.8	0.00e+00	0	40	0	350224384	63	4361
2026-01-21 23:24:02.92	36.17	19.77	-46.2	-47.6	19.8	0.00e+00	0	40	0	351272960	63	4391
2026-01-21 23:24:03.93	36.30	19.88	-46.2	-47.6	19.7	0.00e+00	0	40	0	353370112	63	4379
2026-01-21 23:24:04.94	36.43	19.99	-46.3	-47.7	19.7	0.00e+00	0	40	0	355467264	63	4405
2026-01-21 23:24:05.95	36.56	20.10	-46.2	-47.7	19.7	0.00e+00	0	40	0	357564416	63	4393
2026-01-21 23:24:06.95	36.69	20.22	-46.2	-47.6	19.7	0.00e+00	0	40	0	359661568	63	4381
2026-01-21 23:24:07.96	36.82	20.33	-46.4	-47.8	19.6	0.00e+00	0	40	0	360710144	63	4470
2026-01-21 23:24:08.97	36.95	20.44	-46.4	-47.9	19.5	0.00e+00	0	40	0	362807296	63	4513
2026-01-21 23:24:09.98	37.09	20.56	-46.4	-47.8	19.6	0.00e+00	0	40	0	364904448	63	4482
2026-01-21 23:24:10.99	37.22	20.67	-46.4	-47.8	19.6	0.00e+00	0	40	0	367001600	63	4470
2026-01-21 23:24:12.00	37.36	20.79	-46.3	-47.8	19.6	0.00e+00	0	40	0	369098752	63	4450
2026-01-21 23:24:13.01	37.49	20.90	-46.4	-47.8	19.6	0.00e+00	0	40	0	370147328	63	4469
2026-01-21 23:24:14.01	37.63	21.02	-46.3	-47.8	19.6	0.00e+00	0	40	0	372244480	63	4458
2026-01-21 23:24:15.02	37.77	21.13	-46.4	-47.8	19.6	0.00e+00	0	40	0	374341632	63	4493
2026-01-21 23:24:16.03	37.91	21.25	-46.6	-48.0	19.4	0.00e+00	0	40	0	376438784	63	4597
2026-01-21 23:24:17.04	38.05	21.37	-46.5	-47.9	19.5	0.00e+00	0	40	0	378535936	63	4542
2026-01-21 23:24:18.05	38.19	21.49	-46.4	-47.8	19.6	0.00e+00	0	40	0	379584512	63	4490
2026-01-21 23:24:19.06	38.33	21.60	-46.5	-48.0	19.5	0.00e+00	0	40	0	381681664	63	4565
2026-01-21 23:24:20.07	38.47	21.72	-46.5	-48.0	19.5	0.00e+00	0	40	0	383778816	63	4561
2026-01-21 23:24:21.08	38.62	21.84	-46.5	-48.0	19.4	0.00e+00	0	40	0	385875968	63	4568
2026-01-21 23:24:22.08	38.76	21.96	-46.5	-48.0	19.4	0.00e+00	0	40	0	387973120	63	4590
2026-01-21 23:24:23.09	38.91	22.08	-46.4	-47.9	19.5	0.00e+00	0	40	0	390070272	63	4519
2026-01-21 23:24:24.10	39.06	22.20	-46.5	-48.0	19.5	0.00e+00	0	40	0	391118848	63	4557
2026-01-21 23:24:25.11	39.21	22.32	-46.5	-48.0	19.4	0.00e+00	0	40	0	393216000	63	4551
2026-01-21 23:24:26.11	39.35	22.44	-46.3	-47.7	19.7	0.00e+00	0	40	0	395313152	63	4417
2026-01-21 23:24:27.12	39.51	22.56	-46.4	-47.8	19.6	0.00e+00	0	40	0	397410304	63	4466
2026-01-21 23:24:28.13	39.66	22.68	-46.3	-47.7	19.7	0.00e+00	0	40	0	398458880	63	4430
2026-01-21 23:24:29.14	39.81	22.80	-46.2	-47.6	19.9	0.00e+00	0	40	0	400556032	63	4341
2026-01-21 23:24:30.15	39.97	22.92	-46.2	-47.6	19.9	0.00e+00	0	40	0	402653184	63	4343
2026-01-21 23:24:31.15	40.12	23.04	-46.2	-47.6	19.9	0.00e+00	0	40	0	404750336	63	4341
2026-01-21 23:24:32.16	40.28	23.17	-46.1	-47.4	20.0	0.00e+00	0	40	0	406847488	63	4279
2026-01-21 23:24:33.17	40.44	23.29	-46.1	-47.5	20.0	0.00e+00	0	40	0	407896064	63	4313
2026-01-21 23:24:34.18	40.60	23.41	-46.1	-47.5	20.0	0.00e+00	0	40	0	409993216	63	4301
2026-01-21 23:24:35.19	40.76	23.54	-46.0	-47.3	20.1	0.00e+00	0	40	0	412090368	63	4239
2026-01-21 23:24:36.19	40.92	23.66	-45.9	-47.2	20.3	0.00e+00	0	40	0	414187520	63	4175
2026-01-21 23:24:37.20	41.08	23.78	-46.0	-47.3	20.2	0.00e+00	0	40	0	416284672	63	4217
2026-01-21 23:24:38.21	41.24	23.91	-45.8	-47.1	20.4	0.00e+00	0	40	0	418381824	63	4106
2026-01-21 23:24:39.22	41.41	24.03	-45.7	-47.0	20.5	0.00e+00	0	40	0	419430400	63	4063
2026-01-21 23:24:40.23	41.58	24.16	-45.7	-46.9	20.5	0.00e+00	0	40	0	421527552	63	4049
2026-01-21 23:24:41.24	41.74	24.29	-45.8	-47.1	20.4	0.00e+00	0	40	0	423624704	63	4124
2026-01-21 23:24:42.24	41.91	24.41	-45.9	-47.2	20.3	0.00e+00	0	40	0	425721856	63	4167
2026-01-21 23:24:43.25	42.08	24.54	-45.9	-47.2	20.2	0.00e+00	0	40	0	426770432	63	4186
2026-01-21 23:24:44.26	42.26	24.66	-45.9	-47.2	20.2	0.00e+00	0	40	0	428867584	63	4182
2026-01-21 23:24:45.27	42.43	24.79	-45.9	-47.2	20.3	0.00e+00	0	40	0	430964736	63	4176
2026-01-21 23:24:46.28	42.60	24.92	-45.9	-47.2	20.2	0.00e+00	0	40	0	433061888	63	4191
2026-01-21 23:24:47.28	42.78	25.05	-45.9	-47.3	20.2	0.00e+00	0	40	0	435159040	63	4204
2026-01-21 23:24:48.29	42.96	25.17	-45.8	-47.1	20.3	0.00e+00	0	40	0	437256192	63	4144
2026-01-21 23:24:49.30	43.14	25.30	-45.7	-47.0	20.5	0.00e+00	0	40	0	438304768	63	4081
2026-01-21 23:24:50.31	43.32	25.43	-45.7	-47.0	20.5	0.00e+00	0	40	0	440401920	63	4068
2026-01-21 23:24:51.32	43.50	25.56	-45.7	-47.0	20.5	0.00e+00	0	40	0	442499072	63	4061
2026-01-21 23:24:52.32	43.68	25.69	-45.8	-47.1	20.4	0.00e+00	0	40	0	444596224	63	4101
2026-01-21 23:24:53.33	43.87	25.82	-45.9	-47.2	20.3	0.00e+00	0	40	0	446693376	63	4164
2026-01-21 23:24:54.34	44.05	25.95	-46.0	-47.4	20.1	0.00e+00	0	40	0	447741952	63	4268
2026-01-21 23:24:55.35	44.24	26.08	-46.1	-47.4	20.1	0.00e+00	0	40	0	449839104	63	4286
2026-01-21 23:24:56.36	44.43	26.21	-46.3	-47.6	19.9	0.00e+00	0	40	0	451936256	63	4390
2026-01-21 23:24:57.37	44.62	26.34	-46.3	-47.7	19.9	0.00e+00	0	40	0	454033408	63	4409
2026-01-21 23:24:58.38	44.81	26.48	-46.4	-47.8	19.8	0.00e+00	0	40	0	455081984	63	4463
2026-01-21 23:24:59.38	45.00	26.61	-46.3	-47.7	19.8	0.00e+00	0	40	0	457179136	63	4409
2026-01-21 23:25:00.39	45.20	26.74	-46.4	-47.8	19.8	0.00e+00	0	40	0	459276288	63	4460
2026-01-21 23:25:01.40	45.40	26.87	-46.4	-47.9	19.7	0.00e+00	0	40	0	461373440	63	4501
2026-01-21 23:25:02.41	45.60	27.00	-46.0	-47.4	20.1	0.00e+00	0	40	0	463470592	63	4264
2026-01-21 23:25:03.41	45.79	27.14	-46.1	-47.4	20.2	0.00e+00	0	40	0	465567744	63	4265
2026-01-21 23:25:04.42	46.00	27.27	-46.0	-47.3	20.2	0.00e+00	0	40	0	466616320	63	4223
2026-01-21 23:25:05.43	46.20	27.40	-46.3	-47.7	19.9	0.00e+00	0	40	0	468713472	63	4398
2026-01-21 23:25:06.44	46.41	27.54	-46.5	-48.0	19.7	0.00e+00	0	40	0	470810624	63	4547
2026-01-21 23:25:07.45	46.61	27.67	-46.7	-48.2	19.3	0.00e+00	0	40	0	472907776	64	4430
2026-01-21 23:25:08.45	46.82	27.81	-46.9	-48.4	19.1	0.00e+00	0	40	0	475004928	64	4527
2026-01-21 23:25:09.46	47.03	27.94	-47.0	-48.6	19.0	0.00e+00	0	40	0	476053504	64	4603
2026-01-21 23:25:10.47	47.24	28.08	-46.7	-48.2	19.3	0.00e+00	0	40	0	478150656	64	4393
2026-01-21 23:25:11.48	47.46	28.21	-46.6	-48.1	19.4	0.00e+00	0	40	0	480247808	64	4363
2026-01-21 23:25:12.48	47.67	28.35	-46.6	-48.0	19.5	0.00e+00	0	40	0	482344960	64	4331
2026-01-21 23:25:13.49	47.89	28.48	-46.4	-47.8	19.7	0.00e+00	0	40	0	484442112	64	4222
2026-01-21 23:25:14.50	48.11	28.62	-46.3	-47.7	19.8	0.00e+00	0	40	0	485490688	64	4187
2026-01-21 23:25:15.51	48.33	28.75	-46.4	-47.8	19.6	0.00e+00	0	40	0	487587840	64	4241
2026-01-21 23:25:16.52	48.55	28.89	-46.6	-48.0	19.5	0.00e+00	0	40	0	489684992	64	4340
2026-01-21 23:25:17.53	48.78	29.03	-46.8	-48.3	19.2	0.00e+00	0	40	0	491782144	64	4481
2026-01-21 23:25:18.53	49.00	29.16	-47.1	-48.7	18.9	0.00e+00	0	40	0	493879296	64	4676
2026-01-21 23:25:19.54	49.23	29.30	-47.0	-48.6	18.9	0.00e+00	0	40	0	494927872	64	4650
2026-01-21 23:25:20.55	49.46	29.44	-46.8	-48.4	19.1	0.00e+00	0	40	0	497025024	64	4520
2026-01-21 23:25:21.56	49.69	29.57	-46.5	-48.1	19.4	0.00e+00	0	40	0	499122176	64	4354
2026-01-21 23:25:22.57	49.93	29.71	-46.5	-48.0	19.5	0.00e+00	0	40	0	501219328	64	4292
2026-01-21 23:25:23.58	50.16	29.85	-46.5	-48.0	19.5	0.00e+00	0	40	0	503316480	64	4304
2026-01-21 23:25:24.58	50.40	29.99	-46.7	-48.2	19.4	0.00e+00	0	40	0	504365056	64	4399
2026-01-21 23:25:25.59	50.64	30.13	-46.8	-48.4	19.2	0.00e+00	0	40	0	506462208	64	4502
2026-01-21 23:25:26.60	50.88	30.26	-46.9	-48.5	19.0	0.00e+00	0	40	0	508559360	64	4563
2026-01-21 23:25:27.61	51.13	30.40	-46.9	-48.4	19.1	0.00e+00	0	40	0	510656512	64	4530
2026-01-21 23:25:28.61	51.37	30.54	-46.9	-48.4	19.1	0.00e+00	0	40	0	512753664	64	4534
2026-01-21 23:25:29.62	51.62	30.68	-46.8	-48.3	19.2	0.00e+00	0	40	0	513802240	64	4480
2026-01-21 23:25:30.63	51.87	30.82	-46.7	-48.2	19.3	0.00e+00	0	40	0	515899392	64	4438
2026-01-21 23:25:31.64	52.12	30.95	-46.7	-48.2	19.3	0.00e+00	0	40	0	517996544	64	4416
2026-01-21 23:25:32.65	52.38	31.09	-46.6	-48.0	19.5	0.00e+00	0	40	0	520093696	64	4324
2026-01-21 23:25:33.66	52.64	31.23	-46.7	-48.2	19.4	0.00e+00	0	40	0	522190848	64	4437
2026-01-21 23:25:34.66	52.89	31.37	-46.8	-48.3	19.2	0.00e+00	0	40	0	523239424	64	4476
2026-01-21 23:25:35.67	53.16	31.51	-47.1	-48.6	18.9	0.00e+00	0	40	0	525336576	64	4643
2026-01-21 23:25:36.68	53.42	31.65	-47.3	-48.9	18.7	0.00e+00	0	40	0	527433728	65	4529
2026-01-21 23:25:37.69	53.68	31.79	-47.2	-48.9	18.7	0.00e+00	0	40	0	529530880	65	4511
2026-01-21 23:25:38.69	53.95	31.92	-47.2	-48.8	18.8	0.00e+00	0	40	0	531628032	65	4445
2026-01-21 23:25:39.70	54.22	32.06	-47.1	-48.6	19.0	0.00e+00	0	40	0	533725184	65	4380
2026-01-21 23:25:40.71	54.49	32.20	-47.2	-48.7	18.9	0.00e+00	0	40	0	534773760	65	4440
2026-01-21 23:25:41.72	54.77	32.34	-47.4	-49.1	18.6	0.00e+00	0	40	0	536870912	65	4616
2026-01-21 23:25:42.73	55.05	32.48	-47.6	-49.3	18.3	0.00e+00	0	40	0	538968064	65	4739
2026-01-21 23:25:43.73	55.32	32.62	-47.8	-49.5	18.1	0.00e+00	0	40	0	541065216	66	4583
2026-01-21 23:25:44.74	55.60	32.76	-48.0	-49.8	17.9	0.00e+00	0	40	0	542113792	66	4749
2026-01-21 23:25:45.75	55.89	32.89	-48.0	-49.9	17.8	0.00e+00	0	40	0	544210944	66	4764
2026-01-21 23:25:46.76	56.18	33.03	-48.0	-49.8	17.8	0.00e+00	0	40	0	546308096	66	4747
2026-01-21 23:25:47.77	56.47	33.17	-48.1	-49.9	17.7	0.00e+00	0	40	0	548405248	66	4808
2026-01-21 23:25:48.77	56.75	33.31	-47.9	-49.7	18.0	0.00e+00	0	40	0	550502400	66	4652
2026-01-21 23:25:49.78	57.05	33.44	-48.0	-49.8	17.9	0.00e+00	0	40	0	551550976	66	4724
2026-01-21 23:25:50.79	57.34	33.58	-47.9	-49.7	18.0	0.00e+00	0	40	0	553648128	66	4667
2026-01-21 23:25:51.80	57.64	33.72	-48.1	-49.9	17.8	0.00e+00	0	40	0	555745280	66	4806
2026-01-21 23:25:52.81	57.94	33.86	-48.3	-50.2	17.4	0.00e+00	0	40	0	557842432	67	4694
2026-01-21 23:25:53.82	58.25	33.99	-48.4	-50.4	17.3	0.00e+00	0	40	0	559939584	67	4792
2026-01-21 23:25:54.82	58.55	34.13	-48.4	-50.4	17.3	0.00e+00	0	40	0	562036736	67	4766
2026-01-21 23:25:55.83	58.86	34.27	-48.5	-50.6	17.1	0.00e+00	0	40	0	563085312	67	4883
2026-01-21 23:25:56.84	59.17	34.40	-48.5	-50.5	17.2	0.00e+00	0	40	0	565182464	67	4830
2026-01-21 23:25:57.85	59.49	34.54	-48.8	-51.0	16.8	0.00e+00	0	40	0	567279616	68	4835
2026-01-21 23:25:58.85	59.80	34.67	-48.9	-51.0	16.7	0.00e+00	0	40	0	569376768	68	4866
2026-01-21 23:25:59.86	60.12	34.81	-48.9	-51.1	16.7	0.00e+00	0	40	0	570425344	68	4877
2026-01-21 23:26:00.87	60.44	34.94	-48.9	-51.1	16.8	0.00e+00	0	40	0	572522496	68	4874
2026-01-21 23:26:01.88	60.77	35.07	-48.7	-50.7	17.1	0.00e+00	0	40	0	574619648	68	4703
2026-01-21 23:26:02.88	61.09	35.21	-48.6	-50.6	17.1	0.00e+00	0	40	0	576716800	68	4628
2026-01-21 23:26:03.89	61.42	35.34	-48.5	-50.6	17.3	0.00e+00	0	40	0	578813952	68	4600
2026-01-21 23:26:04.90	61.75	35.47	-48.4	-50.4	17.4	0.00e+00	0	40	0	580911104	68	4517
2026-01-21 23:26:05.91	62.09	35.61	-48.4	-50.4	17.5	0.00e+00	0	40	0	581959680	68	4509
2026-01-21 23:26:06.92	62.43	35.74	-48.6	-50.6	17.2	0.00e+00	0	40	0	584056832	68	4613
2026-01-21 23:26:07.93	62.77	35.87	-48.6	-50.7	17.1	0.00e+00	0	40	0	586153984	68	4676
2026-01-21 23:26:08.93	63.11	36.00	-48.8	-51.0	16.8	0.00e+00	0	40	0	588251136	68	4816
2026-01-21 23:26:09.94	63.45	36.13	-48.9	-51.0	16.7	0.00e+00	0	40	0	590348288	68	4868
2026-01-21 23:26:10.95	63.80	36.26	-48.9	-51.0	16.9	0.00e+00	0	40	0	591396864	68	4864
2026-01-21 23:26:11.95	64.15	36.38	-48.7	-50.8	17.0	0.00e+00	0	40	0	593494016	68	4719
2026-01-21 23:26:12.96	64.50	36.51	-48.6	-50.7	17.1	0.00e+00	0	40	0	595591168	68	4658
2026-01-21 23:26:13.97	64.86	36.64	-48.3	-50.3	17.5	0.00e+00	0	40	0	597688320	68	4455
2026-01-21 23:26:14.98	65.22	36.77	-48.0	-49.8	18.0	0.00e+00	0	40	0	598736896	68	4232
2026-01-21 23:26:15.99	65.58	36.89	-47.7	-49.5	18.3	0.00e+00	0	40	0	600834048	67	4299
2026-01-21 23:26:16.99	65.94	37.02	-47.9	-49.7	18.0	0.00e+00	0	40	0	602931200	67	4424
2026-01-21 23:26:18.00	66.31	37.14	-48.2	-50.1	17.7	0.00e+00	0	40	0	605028352	67	4639
2026-01-21 23:26:19.01	66.68	37.26	-48.7	-50.8	17.0	0.00e+00	0	40	0	607125504	67	5001
2026-01-21 23:26:20.02	67.05	37.39	-49.0	-51.2	16.7	0.00e+00	0	40	0	609222656	68	4948
2026-01-21 23:26:21.03	67.43	37.51	-49.1	-51.3	16.6	0.00e+00	0	40	0	610271232	68	4985
2026-01-21 23:26:22.03	67.80	37.63	-48.6	-50.6	17.3	0.00e+00	0	40	0	612368384	68	4622
2026-01-21 23:26:23.04	68.19	37.75	-48.3	-50.2	17.6	0.00e+00	0	40	0	614465536	68	4425
2026-01-21 23:26:24.05	68.57	37.87	-47.9	-49.6	18.1	0.00e+00	0	40	0	616562688	67	4366
2026-01-21 23:26:25.06	68.96	37.98	-47.1	-48.6	19.1	0.00e+00	0	40	0	618659840	66	4112
2026-01-21 23:26:26.07	69.35	38.10	-46.9	-48.4	19.4	0.00e+00	0	40	0	619708416	65	4257
2026-01-21 23:26:27.07	69.74	38.22	-47.3	-48.9	18.9	0.00e+00	0	40	0	621805568	65	4505
2026-01-21 23:26:28.08	70.13	38.33	-47.8	-49.5	18.2	0.00e+00	0	40	0	623902720	66	4593
2026-01-21 23:26:29.09	70.53	38.44	-48.3	-50.3	17.6	0.00e+00	0	40	0	625999872	67	4727
2026-01-21 23:26:30.10	70.93	38.56	-48.4	-50.4	17.4	0.00e+00	0	40	0	628097024	67	4790
2026-01-21 23:26:31.10	71.33	38.67	-48.1	-50.0	17.8	0.00e+00	0	40	0	629145600	67	4562
2026-01-21 23:26:32.11	71.74	38.78	-47.8	-49.5	18.3	0.00e+00	0	40	0	631242752	67	4308
2026-01-21 23:26:33.12	72.15	38.89	-47.7	-49.4	18.4	0.00e+00	0	40	0	633339904	67	4251
2026-01-21 23:26:34.13	72.56	38.99	-48.0	-49.8	18.0	0.00e+00	0	40	0	635437056	67	4462
2026-01-21 23:26:35.14	72.97	39.10	-48.4	-50.4	17.4	0.00e+00	0	40	0	637534208	67	4793
2026-01-21 23:26:36.15	73.39	39.20	-48.9	-51.1	16.8	0.00e+00	0	40	0	638582784	68	4908
2026-01-21 23:26:37.15	73.81	39.31	-49.1	-51.4	16.5	0.00e+00	0	40	0	640679936	68	5073
2026-01-21 23:26:38.16	74.23	39.41	-48.9	-51.1	16.7	0.00e+00	0	40	0	642777088	68	4894
2026-01-21 23:26:39.17	74.65	39.51	-48.6	-50.6	17.2	0.00e+00	0	40	0	644874240	68	4644
2026-01-21 23:26:40.18	75.08	39.61	-48.4	-50.4	17.5	0.00e+00	0	40	0	646971392	68	4500
2026-01-21 23:26:41.19	75.51	39.71	-48.4	-50.3	17.5	0.00e+00	0	40	0	648019968	68	4484
2026-01-21 23:26:42.19	75.94	39.80	-48.4	-50.3	17.6	0.00e+00	0	40	0	650117120	68	4458
2026-01-21 23:26:43.20	76.37	39.90	-48.4	-50.3	17.6	0.00e+00	0	40	0	652214272	68	4459
2026-01-21 23:26:44.21	76.81	39.99	-48.4	-50.4	17.5	0.00e+00	0	40	0	654311424	68	4510
2026-01-21 23:26:45.22	77.25	40.08	-48.4	-50.3	17.6	0.00e+00	0	40	0	656408576	68	4467
2026-01-21 23:26:46.22	77.69	40.17	-47.9	-49.7	18.0	0.00e+00	0	40	0	657457152	67	4409
2026-01-21 23:26:47.23	78.14	40.26	-47.4	-49.0	18.7	0.00e+00	0	40	0	659554304	66	4307
2026-01-21 23:26:48.24	78.58	40.34	-47.0	-48.6	19.1	0.00e+00	0	40	0	661651456	66	4107
2026-01-21 23:26:49.25	79.03	40.43	-46.9	-48.4	19.3	0.00e+00	0	40	0	663748608	65	4288
2026-01-21 23:26:50.26	79.49	40.51	-47.0	-48.5	19.2	0.00e+00	0	40	0	665845760	65	4340
2026-01-21 23:26:51.27	79.94	40.59	-47.1	-48.7	19.0	0.00e+00	0	40	0	666894336	65	4406
2026-01-21 23:26:52.28	80.40	40.67	-47.4	-49.1	18.6	0.00e+00	0	40	0	668991488	65	4602
2026-01-21 23:26:53.29	80.86	40.75	-47.4	-49.1	18.6	0.00e+00	0	40	0	671088640	65	4627
2026-01-21 23:26:54.30	81.32	40.83	-47.3	-49.0	18.8	0.00e+00	0	40	0	673185792	65	4554
2026-01-21 23:26:55.30	81.77	40.90	-47.3	-48.9	18.8	0.00e+00	0	40	0	675282944	65	4529
2026-01-21 23:26:56.31	82.24	40.97	-47.4	-49.0	18.8	0.00e+00	0	40	0	676331520	65	4579
2026-01-21 23:26:57.32	82.71	41.04	-47.7	-49.4	18.4	0.00e+00	0	40	0	678428672	66	4514
2026-01-21 23:26:58.33	83.18	41.11	-48.0	-49.8	18.0	0.00e+00	0	40	0	680525824	66	4722
2026-01-21 23:26:59.33	83.64	41.18	-48.0	-49.8	18.1	0.00e+00	0	40	0	682622976	66	4713
2026-01-21 23:27:00.34	84.12	41.24	-48.2	-50.1	17.7	0.00e+00	0	40	0	684720128	67	4624
2026-01-21 23:27:01.35	84.59	41.30	-48.1	-49.9	17.9	0.00e+00	0	40	0	685768704	67	4521
2026-01-21 23:27:02.36	85.07	41.36	-48.3	-50.3	17.6	0.00e+00	0	40	0	687865856	67	4712
2026-01-21 23:27:03.37	85.55	41.42	-48.6	-50.6	17.2	0.00e+00	0	40	0	689963008	67	4900
2026-01-21 23:27:04.38	86.03	41.48	-48.8	-50.8	17.1	0.00e+00	0	40	0	692060160	68	4735
2026-01-21 23:27:05.39	86.51	41.53	-48.8	-50.8	17.1	0.00e+00	0	40	0	694157312	68	4747
2026-01-21 23:27:06.39	86.99	41.58	-48.7	-50.7	17.3	0.00e+00	0	40	0	696254464	68	4682
2026-01-21 23:27:07.40	87.47	41.63	-48.5	-50.4	17.5	0.00e+00	0	40	0	697303040	68	4496
2026-01-21 23:27:08.41	87.96	41.68	-48.7	-50.8	17.2	0.00e+00	0	40	0	699400192	68	4720
2026-01-21 23:27:09.41	88.44	41.72	-48.7	-50.7	17.2	0.00e+00	0	40	0	701497344	68	4694
2026-01-21 23:27:10.42	88.93	41.77	-48.4	-50.3	17.5	0.00e+00	0	40	0	703594496	68	4485
2026-01-21 23:27:11.43	89.42	41.81	-48.4	-50.3	17.6	0.00e+00	0	40	0	704643072	68	4463
2026-01-21 23:27:12.44	89.91	41.84	-48.1	-49.9	18.0	0.00e+00	0	40	0	706740224	68	4289
2026-01-21 23:27:13.45	90.40	41.88	-47.8	-49.5	18.3	0.00e+00	0	40	0	708837376	67	4323
2026-01-21 23:27:14.45	90.89	41.91	-47.8	-49.5	18.3	0.00e+00	0	40	0	710934528	67	4324
2026-01-21 23:27:15.46	91.39	41.95	-47.9	-49.7	18.0	0.00e+00	0	40	0	713031680	67	4434
2026-01-21 23:27:16.47	91.88	41.97	-47.9	-49.7	18.1	0.00e+00	0	40	0	714080256	67	4399
2026-01-21 23:27:17.48	92.38	42.00	-47.7	-49.4	18.3	0.00e+00	0	40	0	716177408	67	4286
2026-01-21 23:27:18.49	92.88	42.03	-47.3	-48.8	18.9	0.00e+00	0	40	0	718274560	66	4241
2026-01-21 23:27:19.50	93.37	42.05	-46.9	-48.4	19.2	0.00e+00	0	40	0	720371712	65	4269
2026-01-21 23:27:20.51	93.87	42.07	-46.8	-48.3	19.4	0.00e+00	0	40	0	722468864	65	4205
2026-01-21 23:27:21.51	94.37	42.09	-47.1	-48.7	19.0	0.00e+00	0	40	0	724566016	65	4414
2026-01-21 23:27:22.52	94.87	42.10	-47.8	-49.5	18.3	0.00e+00	0	40	0	725614592	66	4583
2026-01-21 23:27:23.53	95.37	42.11	-48.1	-50.0	17.8	0.00e+00	0	40	0	727711744	66	4821
2026-01-21 23:27:24.54	95.87	42.12	-47.9	-49.6	18.2	0.00e+00	0	40	0	729808896	66	4651
2026-01-21 23:27:25.55	96.37	42.13	-47.4	-49.0	18.7	0.00e+00	0	40	0	731906048	66	4334
2026-01-21 23:27:26.55	96.86	42.14	-47.3	-48.8	18.9	0.00e+00	0	40	0	732954624	66	4235
2026-01-21 23:27:27.56	97.36	42.14	-46.5	-47.9	19.7	0.00e+00	0	40	0	735051776	65	4041
2026-01-21 23:27:28.57	97.86	42.14	-46.2	-47.5	20.2	0.00e+00	0	40	0	737148928	64	4086
2026-01-21 23:27:29.58	98.37	42.14	-46.1	-47.4	20.2	0.00e+00	0	40	0	739246080	64	4047
2026-01-21 23:27:30.58	98.86	42.14	-46.1	-47.4	20.4	0.00e+00	0	40	0	741343232	63	4252
2026-01-21 23:27:31.59	99.36	42.13	-45.7	-46.9	20.8	0.00e+00	0	40	0	743440384	63	4033
2026-01-21 23:27:32.60	99.86	42.12	-45.7	-46.9	20.8	0.00e+00	0	40	0	744488960	63	4039
2026-01-21 23:27:33.61	100.36	42.11	-45.8	-47.1	20.7	0.00e+00	0	40	0	746586112	63	4107
2026-01-21 23:27:34.62	100.86	42.10	-46.4	-47.8	20.1	0.00e+00	0	40	0	748683264	63	4454
2026-01-21 23:27:35.62	101.36	42.08	-46.5	-47.9	19.9	0.00e+00	0	41	0	750780416	63	4505
2026-01-21 23:27:36.63	101.86	42.06	-46.1	-47.4	20.4	0.00e+00	0	40	0	752877568	63	4274
2026-01-21 23:27:37.64	102.36	42.04	-46.0	-47.3	20.5	0.00e+00	0	40	0	753926144	63	4207
2026-01-21 23:27:38.64	102.85	42.02	-46.2	-47.6	20.2	0.00e+00	0	40	0	756023296	63	4352
2026-01-21 23:27:39.65	103.35	41.99	-46.9	-48.4	19.4	0.00e+00	0	41	0	758120448	64	4508
2026-01-21 23:27:40.66	103.84	41.96	-47.2	-48.8	18.9	0.00e+00	0	40	0	760217600	64	4709
2026-01-21 23:27:41.66	104.33	41.93	-47.2	-48.7	19.0	0.00e+00	0	40	0	761266176	65	4437
2026-01-21 23:27:42.67	104.83	41.90	-46.6	-48.0	19.6	0.00e+00	0	40	0	763363328	65	4085
2026-01-21 23:27:43.68	105.32	41.87	-46.7	-48.2	19.5	0.00e+00	0	40	0	765460480	65	4168
2026-01-21 23:27:44.69	105.81	41.83	-47.1	-48.7	19.1	0.00e+00	0	40	0	767557632	65	4396
2026-01-21 23:27:45.69	106.30	41.79	-47.6	-49.4	18.3	0.00e+00	0	41	0	769654784	65	4760
2026-01-21 23:27:46.70	106.79	41.75	-47.6	-49.2	18.5	0.00e+00	0	40	0	771751936	65	4692
2026-01-21 23:27:47.71	107.28	41.71	-47.2	-48.8	19.0	0.00e+00	0	40	0	772800512	65	4451
2026-01-21 23:27:48.72	107.77	41.66	-46.9	-48.4	19.3	0.00e+00	0	40	0	774897664	65	4268
2026-01-21 23:27:49.73	108.25	41.61	-47.2	-48.8	18.9	0.00e+00	0	40	0	776994816	65	4478
2026-01-21 23:27:50.74	108.74	41.56	-47.7	-49.4	18.3	0.00e+00	0	40	0	779091968	66	4526
2026-01-21 23:27:51.75	109.22	41.51	-48.3	-50.2	17.6	0.00e+00	0	41	0	781189120	67	4660
2026-01-21 23:27:52.76	109.70	41.46	-48.3	-50.2	17.6	0.00e+00	0	41	0	782237696	67	4671
2026-01-21 23:27:53.77	110.18	41.40	-47.8	-49.6	18.1	0.00e+00	0	41	0	784334848	67	4362
2026-01-21 23:27:54.77	110.65	41.34	-47.6	-49.3	18.5	0.00e+00	0	40	0	786432000	67	4201
2026-01-21 23:27:55.78	111.13	41.28	-47.6	-49.2	18.5	0.00e+00	0	40	0	788529152	66	4441
2026-01-21 23:27:56.79	111.61	41.22	-48.4	-50.4	17.4	0.00e+00	0	41	0	790626304	67	4804
2026-01-21 23:27:57.80	112.08	41.15	-48.4	-50.4	17.3	0.00e+00	0	41	0	791674880	67	4791
2026-01-21 23:27:58.81	112.55	41.08	-48.0	-49.8	17.9	0.00e+00	0	40	0	793772032	67	4472
2026-01-21 23:27:59.82	113.02	41.02	-47.1	-48.7	19.0	0.00e+00	0	40	0	795869184	66	4154
2026-01-21 23:28:00.83	113.49	40.94	-46.7	-48.2	19.6	0.00e+00	0	40	0	797966336	65	4146
2026-01-21 23:28:01.83	113.95	40.87	-46.9	-48.4	19.3	0.00e+00	0	40	0	800063488	65	4272
2026-01-21 23:28:02.84	114.41	40.80	-47.2	-48.8	18.9	0.00e+00	0	40	0	801112064	65	4455
2026-01-21 23:28:03.85	114.87	40.72	-46.9	-48.4	19.3	0.00e+00	0	40	0	803209216	65	4260
2026-01-21 23:28:04.86	115.33	40.64	-46.5	-47.9	19.7	0.00e+00	0	40	0	805306368	65	4033
2026-01-21 23:28:05.87	115.79	40.56	-46.5	-47.9	19.7	0.00e+00	0	40	0	807403520	64	4277
2026-01-21 23:28:06.87	116.24	40.48	-47.1	-48.7	19.0	0.00e+00	0	40	0	809500672	64	4666
2026-01-21 23:28:07.88	116.69	40.40	-47.7	-49.5	18.2	0.00e+00	0	40	0	810549248	66	4563
2026-01-21 23:28:08.89	117.14	40.31	-47.4	-49.0	18.6	0.00e+00	0	40	0	812646400	66	4324
2026-01-21 23:28:09.90	117.58	40.22	-46.3	-47.7	20.0	0.00e+00	0	40	0	814743552	64	4151
2026-01-21 23:28:10.90	118.02	40.14	-45.9	-47.2	20.5	0.00e+00	0	40	0	816840704	63	4178
2026-01-21 23:28:11.91	118.47	40.04	-45.7	-47.0	20.7	0.00e+00	0	40	0	818937856	63	4062
2026-01-21 23:28:12.92	118.91	39.95	-46.1	-47.4	20.3	0.00e+00	0	41	0	819986432	63	4271
2026-01-21 23:28:13.93	119.34	39.86	-46.2	-47.6	20.1	0.00e+00	0	40	0	822083584	63	4377
2026-01-21 23:28:14.93	119.78	39.76	-46.1	-47.4	20.3	0.00e+00	0	41	0	824180736	63	4284
2026-01-21 23:28:15.94	120.21	39.67	-45.7	-47.0	20.7	0.00e+00	0	40	0	826277888	63	4070
2026-01-21 23:28:16.95	120.64	39.57	-45.4	-46.6	21.1	0.00e+00	0	40	0	828375040	62	4102
2026-01-21 23:28:17.95	121.06	39.47	-45.1	-46.3	21.3	0.00e+00	0	41	0	829423616	62	3981
2026-01-21 23:28:18.96	121.49	39.37	-45.8	-47.1	20.6	0.00e+00	0	40	0	831520768	62	4386
2026-01-21 23:28:19.97	121.91	39.26	-46.0	-47.4	20.3	0.00e+00	0	40	0	833617920	62	4495
2026-01-21 23:28:20.98	122.33	39.16	-45.1	-46.3	21.3	0.00e+00	0	41	0	835715072	62	3992
2026-01-21 23:28:21.98	122.74	39.06	-44.3	-45.4	22.2	0.00e+00	0	40	0	837812224	60	4025
2026-01-21 23:28:22.99	123.15	38.95	-44.4	-45.5	22.1	0.00e+00	0	40	0	839909376	60	4053
2026-01-21 23:28:24.00	123.57	38.84	-44.7	-45.8	21.8	0.00e+00	0	40	0	840957952	60	4229
2026-01-21 23:28:25.01	123.98	38.73	-45.1	-46.3	21.3	0.00e+00	0	41	0	843055104	60	4460
2026-01-21 23:28:26.02	124.38	38.62	-45.0	-46.1	21.4	0.00e+00	0	40	0	845152256	60	4388
2026-01-21 23:28:27.03	124.79	38.51	-44.1	-45.1	22.4	0.00e+00	0	40	0	847249408	60	3910
2026-01-21 23:28:28.03	125.18	38.40	-44.2	-45.2	22.5	0.00e+00	0	40	0	848297984	59	4188
2026-01-21 23:28:29.04	125.58	38.28	-44.3	-45.3	22.4	0.00e+00	0	40	0	850395136	59	4217
2026-01-21 23:28:30.05	125.98	38.17	-44.5	-45.5	22.0	0.00e+00	0	41	0	852492288	60	4098
2026-01-21 23:28:31.06	126.37	38.05	-45.1	-46.3	21.3	0.00e+00	0	40	0	854589440	60	4450
2026-01-21 23:28:32.07	126.76	37.93	-45.0	-46.2	21.4	0.00e+00	0	40	0	856686592	60	4398
2026-01-21 23:28:33.07	127.14	37.81	-44.4	-45.5	22.0	0.00e+00	0	40	0	857735168	60	4060
2026-01-21 23:28:34.08	127.52	37.70	-44.2	-45.2	22.3	0.00e+00	0	40	0	859832320	60	3944
2026-01-21 23:28:35.09	127.91	37.57	-44.4	-45.4	22.1	0.00e+00	0	40	0	861929472	60	4041
2026-01-21 23:28:36.10	128.28	37.45	-44.8	-46.0	21.6	0.00e+00	0	40	0	864026624	60	4307
2026-01-21 23:28:37.10	128.66	37.33	-44.9	-46.0	21.6	0.00e+00	0	40	0	866123776	60	4312
2026-01-21 23:28:38.12	129.03	37.21	-44.7	-45.8	21.8	0.00e+00	0	40	0	868220928	60	4206
2026-01-21 23:28:39.12	129.40	37.08	-44.8	-45.9	21.6	0.00e+00	0	40	0	869269504	60	4260
2026-01-21 23:28:40.13	129.77	36.96	-44.6	-45.7	21.8	0.00e+00	0	40	0	871366656	60	4161
2026-01-21 23:28:41.14	130.13	36.83	-44.7	-45.8	21.7	0.00e+00	0	40	0	873463808	60	4239
2026-01-21 23:28:42.15	130.49	36.71	-44.9	-46.1	21.5	0.00e+00	0	40	0	875560960	60	4370
2026-01-21 23:28:43.15	130.85	36.58	-45.0	-46.2	21.4	0.00e+00	0	40	0	876609536	60	4402
2026-01-21 23:28:44.16	131.21	36.45	-45.1	-46.3	21.3	0.00e+00	0	40	0	878706688	60	4478
2026-01-21 23:28:45.17	131.56	36.32	-45.2	-46.4	21.1	0.00e+00	0	40	0	880803840	61	4283
2026-01-21 23:28:46.17	131.91	36.20	-45.5	-46.8	20.8	0.00e+00	0	40	0	882900992	61	4466
2026-01-21 23:28:47.18	132.26	36.07	-45.7	-47.0	20.6	0.00e+00	0	40	0	884998144	61	4557
2026-01-21 23:28:48.19	132.60	35.93	-45.7	-47.0	20.6	0.00e+00	0	40	0	887095296	62	4314
2026-01-21 23:28:49.19	132.94	35.80	-45.6	-46.9	20.7	0.00e+00	0	40	0	888143872	62	4261
2026-01-21 23:28:50.20	133.28	35.67	-45.5	-46.7	20.8	0.00e+00	0	40	0	890241024	62	4181
2026-01-21 23:28:51.21	133.62	35.54	-45.1	-46.3	21.3	0.00e+00	0	40	0	892338176	62	3990
2026-01-21 23:28:52.22	133.95	35.41	-45.0	-46.2	21.3	0.00e+00	0	40	0	894435328	61	4161
2026-01-21 23:28:53.23	134.29	35.27	-45.2	-46.4	21.1	0.00e+00	0	40	0	896532480	61	4263
2026-01-21 23:28:54.23	134.61	35.14	-45.1	-46.3	21.2	0.00e+00	0	40	0	897581056	61	4236
2026-01-21 23:28:55.24	134.94	35.01	-44.9	-46.1	21.4	0.00e+00	0	40	0	899678208	61	4115
2026-01-21 23:28:56.25	135.26	34.87	-44.7	-45.8	21.7	0.00e+00	0	40	0	901775360	61	3974
2026-01-21 23:28:57.26	135.59	34.74	-44.9	-46.1	21.4	0.00e+00	0	40	0	903872512	61	4111
2026-01-21 23:28:58.27	135.90	34.60	-45.5	-46.8	20.8	0.00e+00	0	40	0	904921088	61	4446
2026-01-21 23:28:59.28	136.22	34.47	-46.3	-47.7	19.9	0.00e+00	0	40	0	907018240	63	4433
2026-01-21 23:29:00.28	136.53	34.33	-46.4	-47.8	19.7	0.00e+00	0	40	0	909115392	63	4486
2026-01-21 23:29:01.29	136.84	34.19	-45.7	-47.0	20.5	0.00e+00	0	40	0	911212544	63	4077
2026-01-21 23:29:02.30	137.15	34.06	-45.3	-46.5	21.0	0.00e+00	0	40	0	913309696	62	4071
2026-01-21 23:29:03.30	137.46	33.92	-45.3	-46.5	21.0	0.00e+00	0	40	0	915406848	62	4080
2026-01-21 23:29:04.31	137.76	33.78	-46.1	-47.5	20.1	0.00e+00	0	41	0	916455424	62	4568
2026-01-21 23:29:05.32	138.06	33.64	-47.1	-48.7	18.8	0.00e+00	0	40	0	918552576	64	4705
2026-01-21 23:29:06.33	138.36	33.51	-48.0	-49.9	17.7	0.00e+00	0	40	0	920649728	66	4785
2026-01-21 23:29:07.33	138.65	33.37	-47.7	-49.5	18.0	0.00e+00	0	41	0	922746880	66	4585
2026-01-21 23:29:08.34	138.95	33.23	-46.8	-48.4	19.1	0.00e+00	0	40	0	924844032	65	4247
2026-01-21 23:29:09.35	139.24	33.09	-46.3	-47.7	19.7	0.00e+00	0	40	0	925892608	64	4172
2026-01-21 23:29:10.36	139.53	32.95	-46.1	-47.5	20.0	0.00e+00	0	40	0	927989760	64	4053
2026-01-21 23:29:11.37	139.81	32.81	-46.0	-47.3	20.2	0.00e+00	0	40	0	930086912	63	4221
2026-01-21 23:29:12.38	140.10	32.68	-46.5	-47.9	19.7	0.00e+00	0	40	0	932184064	63	4532
2026-01-21 23:29:13.38	140.38	32.54	-47.2	-48.9	18.6	0.00e+00	0	40	0	933232640	65	4528
2026-01-21 23:29:14.39	140.66	32.40	-47.4	-49.2	18.3	0.00e+00	0	40	0	935329792	65	4661
2026-01-21 23:29:15.40	140.93	32.26	-46.6	-48.1	19.4	0.00e+00	0	40	0	937426944	65	4114
2026-01-21 23:29:16.40	141.20	32.12	-45.7	-47.0	20.5	0.00e+00	0	40	0	939524096	63	4053
2026-01-21 23:29:17.42	141.48	31.98	-45.3	-46.5	20.9	0.00e+00	0	40	0	941621248	62	4081
2026-01-21 23:29:18.42	141.75	31.84	-45.5	-46.8	20.7	0.00e+00	0	40	0	943718400	62	4208
2026-01-21 23:29:19.43	142.01	31.70	-46.5	-47.9	19.7	0.00e+00	0	40	0	944766976	63	4518
2026-01-21 23:29:20.44	142.28	31.56	-47.8	-49.7	17.9	0.00e+00	0	40	0	946864128	66	4658
2026-01-21 23:29:21.45	142.54	31.42	-48.5	-50.7	16.8	0.00e+00	0	40	0	948961280	67	4941
2026-01-21 23:29:22.46	142.81	31.28	-47.7	-49.5	18.0	0.00e+00	0	40	0	951058432	67	4326
2026-01-21 23:29:23.47	143.06	31.14	-46.3	-47.7	19.7	0.00e+00	0	40	0	953155584	64	4175
2026-01-21 23:29:24.47	143.32	31.01	-45.2	-46.4	21.0	0.00e+00	0	40	0	954204160	62	4043
2026-01-21 23:29:25.48	143.57	30.87	-45.0	-46.1	21.3	0.00e+00	0	40	0	956301312	62	3898
2026-01-21 23:29:26.49	143.83	30.73	-44.7	-45.8	21.5	0.00e+00	0	40	0	958398464	61	4000
2026-01-21 23:29:27.50	144.08	30.59	-45.4	-46.6	20.8	0.00e+00	0	40	0	960495616	61	4382
2026-01-21 23:29:28.51	144.32	30.45	-46.5	-47.9	19.6	0.00e+00	0	40	0	962592768	63	4536
2026-01-21 23:29:29.51	144.57	30.31	-47.2	-48.9	18.5	0.00e+00	0	40	0	963641344	65	4541
2026-01-21 23:29:30.52	144.81	30.17	-47.3	-49.1	18.4	0.00e+00	0	40	0	965738496	65	4602
2026-01-21 23:29:31.53	145.05	30.03	-46.5	-48.0	19.3	0.00e+00	0	40	0	967835648	65	4097
2026-01-21 23:29:32.54	145.29	29.89	-45.7	-47.0	20.4	0.00e+00	0	40	0	969932800	63	4058
2026-01-21 23:29:33.55	145.53	29.76	-45.4	-46.6	20.8	0.00e+00	0	40	0	972029952	62	4115
2026-01-21 23:29:34.55	145.77	29.62	-45.2	-46.4	21.0	0.00e+00	0	40	0	973078528	62	4013
2026-01-21 23:29:35.56	146.00	29.48	-44.9	-46.0	21.3	0.00e+00	0	40	0	975175680	61	4075
2026-01-21 23:29:36.57	146.23	29.34	-45.5	-46.7	20.7	0.00e+00	0	40	0	977272832	61	4420
2026-01-21 23:29:37.58	146.46	29.20	-46.5	-48.0	19.6	0.00e+00	0	40	0	979369984	63	4549
2026-01-21 23:29:38.59	146.69	29.07	-46.9	-48.6	18.8	0.00e+00	0	40	0	981467136	64	4609
2026-01-21 23:29:39.60	146.92	28.93	-46.4	-48.0	19.4	0.00e+00	0	40	0	982515712	64	4293
2026-01-21 23:29:40.61	147.14	28.79	-45.8	-47.2	20.3	0.00e+00	0	40	0	984612864	63	4146
2026-01-21 23:29:41.62	147.37	28.66	-45.3	-46.5	20.9	0.00e+00	0	40	0	986710016	62	4058
2026-01-21 23:29:42.63	147.59	28.52	-44.6	-45.7	21.7	0.00e+00	0	40	0	988807168	61	3916
2026-01-21 23:29:43.64	147.81	28.38	-44.0	-45.0	22.3	0.00e+00	0	40	0	990904320	60	3846
2026-01-21 23:29:44.65	148.02	28.25	-44.5	-45.6	22.0	0.00e+00	0	40	0	991952896	59	4378
2026-01-21 23:29:45.65	148.24	28.11	-44.7	-45.8	21.5	0.00e+00	0	41	0	994050048	60	4220
2026-01-21 23:29:46.66	148.45	27.97	-45.6	-46.9	20.5	0.00e+00	0	40	0	996147200	61	4528
2026-01-21 23:29:47.67	148.66	27.84	-46.2	-47.6	19.8	0.00e+00	0	40	0	998244352	62	4639
2026-01-21 23:29:48.68	148.87	27.70	-46.2	-47.7	19.8	0.00e+00	0	40	0	1000341504	63	4394
2026-01-21 23:29:49.69	149.08	27.57	-45.7	-47.0	20.4	0.00e+00	0	40	0	1002438656	63	4088
2026-01-21 23:29:50.70	149.29	27.43	-45.2	-46.4	20.9	0.00e+00	0	40	0	1003487232	62	4046
2026-01-21 23:29:51.71	149.49	27.30	-44.9	-46.1	21.3	0.00e+00	0	40	0	1005584384	61	4105
2026-01-21 23:29:52.71	149.69	27.17	-44.7	-45.8	21.5	0.00e+00	0	40	0	1007681536	61	3984
2026-01-21 23:29:53.72	149.90	27.03	-44.5	-45.6	21.7	0.00e+00	0	40	0	1009778688	60	4125
2026-01-21 23:29:54.73	150.10	26.90	-44.8	-46.0	21.3	0.00e+00	0	40	0	1010827264	60	4306
2026-01-21 23:29:55.74	150.29	26.76	-45.1	-46.3	21.0	0.00e+00	0	40	0	1012924416	60	4489
2026-01-21 23:29:56.75	150.49	26.63	-45.6	-46.9	20.5	0.00e+00	0	40	0	1015021568	61	4512
2026-01-21 23:29:57.76	150.69	26.50	-45.8	-47.2	20.2	0.00e+00	0	40	0	1017118720	62	4419
2026-01-21 23:29:58.76	150.88	26.37	-45.7	-47.0	20.4	0.00e+00	0	40	0	1019215872	62	4324
2026-01-21 23:29:59.78	151.07	26.23	-45.5	-46.8	20.6	0.00e+00	0	40	0	1020264448	62	4199
2026-01-21 23:30:00.78	151.26	26.10	-45.3	-46.5	20.8	0.00e+00	0	40	0	1022361600	62	4079
2026-01-21 23:30:01.79	151.45	25.97	-45.2	-46.5	20.9	0.00e+00	0	40	0	1024458752	62	4062
2026-01-21 23:30:02.80	151.64	25.84	-45.0	-46.2	21.2	0.00e+00	0	40	0	1026555904	61	4146
2026-01-21 23:30:03.81	151.82	25.71	-44.5	-45.6	21.7	0.00e+00	0	40	0	1028653056	61	3895
2026-01-21 23:30:04.81	152.01	25.58	-44.2	-45.3	21.9	0.00e+00	0	40	0	1030750208	60	3985
2026-01-21 23:30:05.82	152.19	25.45	-44.5	-45.6	21.7	0.00e+00	0	41	0	1031798784	60	4113
2026-01-21 23:30:06.83	152.37	25.32	-44.8	-45.9	21.3	0.00e+00	0	41	0	1033895936	60	4279
2026-01-21 23:30:07.84	152.55	25.19	-44.9	-46.1	21.1	0.00e+00	0	40	0	1035993088	60	4388
2026-01-21 23:30:08.84	152.73	25.06	-45.3	-46.6	20.7	0.00e+00	0	40	0	1038090240	61	4376
2026-01-21 23:30:09.85	152.91	24.93	-45.5	-46.8	20.5	0.00e+00	0	40	0	1039138816	61	4476
2026-01-21 23:30:10.86	153.08	24.80	-45.6	-46.9	20.4	0.00e+00	0	40	0	1041235968	61	4526
2026-01-21 23:30:11.87	153.26	24.68	-45.8	-47.2	20.1	0.00e+00	0	40	0	1043333120	62	4403
2026-01-21 23:30:12.88	153.43	24.55	-45.8	-47.2	20.2	0.00e+00	0	40	0	1045430272	62	4397
2026-01-21 23:30:13.88	153.60	24.42	-45.9	-47.3	20.0	0.00e+00	0	40	0	1047527424	62	4446
2026-01-21 23:30:14.89	153.77	24.29	-45.7	-47.0	20.3	0.00e+00	0	40	0	1049624576	62	4331
2026-01-21 23:30:15.90	153.94	24.17	-45.3	-46.5	20.8	0.00e+00	0	40	0	1050673152	62	4079
2026-01-21 23:30:16.91	154.11	24.04	-44.8	-45.9	21.3	0.00e+00	0	40	0	1052770304	61	4038
2026-01-21 23:30:17.91	154.27	23.92	-44.5	-45.6	21.6	0.00e+00	0	40	0	1054867456	61	3910
2026-01-21 23:30:18.92	154.44	23.79	-44.4	-45.6	21.6	0.00e+00	0	40	0	1056964608	60	4110
2026-01-21 23:30:19.93	154.60	23.67	-44.6	-45.8	21.4	0.00e+00	0	40	0	1059061760	60	4214
2026-01-21 23:30:20.93	154.76	23.54	-44.6	-45.8	21.4	0.00e+00	0	40	0	1060110336	60	4211
2026-01-21 23:30:21.94	154.92	23.42	-44.7	-45.9	21.3	0.00e+00	0	40	0	1062207488	60	4271
2026-01-21 23:30:22.95	155.08	23.29	-44.9	-46.1	21.1	0.00e+00	0	40	0	1064304640	60	4367
2026-01-21 23:30:23.96	155.24	23.17	-45.0	-46.2	21.0	0.00e+00	0	40	0	1066401792	60	4436
2026-01-21 23:30:24.97	155.40	23.05	-45.1	-46.4	20.9	0.00e+00	0	40	0	1067450368	60	4510
2026-01-21 23:30:25.98	155.56	22.92	-45.1	-46.3	20.9	0.00e+00	0	40	0	1069547520	60	4465
2026-01-21 23:30:26.98	155.71	22.80	-45.1	-46.4	20.9	0.00e+00	0	40	0	1071644672	60	4507
2026-01-21 23:30:27.99	155.87	22.68	-45.2	-46.4	20.8	0.00e+00	0	40	0	1073741824	61	4280
2026-01-21 23:30:29.00	156.02	22.56	-45.2	-46.4	20.8	0.00e+00	0	40	0	1075838976	61	4267
2026-01-21 23:30:30.01	156.17	22.43	-45.2	-46.5	20.8	0.00e+00	0	40	0	1077936128	61	4302
2026-01-21 23:30:31.02	156.32	22.31	-45.1	-46.3	20.9	0.00e+00	0	40	0	1078984704	61	4207
2026-01-21 23:30:32.02	156.47	22.19	-45.1	-46.4	20.8	0.00e+00	0	40	0	1081081856	61	4254
2026-01-21 23:30:33.03	156.62	22.07	-45.0	-46.3	21.0	0.00e+00	0	40	0	1083179008	61	4200
2026-01-21 23:30:34.04	156.77	21.95	-45.2	-46.4	20.8	0.00e+00	0	40	0	1085276160	61	4263
2026-01-21 23:30:35.04	156.91	21.83	-45.1	-46.4	20.8	0.00e+00	0	40	0	1087373312	61	4252
2026-01-21 23:30:36.05	157.06	21.72	-45.2	-46.4	20.8	0.00e+00	0	40	0	1088421888	61	4273
2026-01-21 23:30:37.06	157.20	21.60	-45.4	-46.7	20.5	0.00e+00	0	40	0	1090519040	61	4434
2026-01-21 23:30:38.07	157.34	21.48	-45.4	-46.7	20.5	0.00e+00	0	41	0	1092616192	61	4436
2026-01-21 23:30:39.08	157.49	21.36	-45.6	-47.0	20.2	0.00e+00	0	40	0	1094713344	61	4563
2026-01-21 23:30:40.08	157.62	21.24	-45.8	-47.2	20.1	0.00e+00	0	40	0	1095761920	62	4408
2026-01-21 23:30:41.09	157.76	21.13	-45.9	-47.3	19.9	0.00e+00	0	41	0	1097859072	62	4476
2026-01-21 23:30:42.10	157.90	21.01	-46.0	-47.4	19.9	0.00e+00	0	41	0	1099956224	62	4525
2026-01-21 23:30:43.11	158.04	20.89	-46.0	-47.4	19.8	0.00e+00	0	41	0	1102053376	62	4541
2026-01-21 23:30:44.12	158.18	20.78	-46.0	-47.4	19.9	0.00e+00	0	41	0	1104150528	62	4497
2026-01-21 23:30:45.13	158.31	20.66	-45.9	-47.3	19.9	0.00e+00	0	41	0	1106247680	62	4488
2026-01-21 23:30:46.14	158.45	20.54	-45.7	-47.1	20.1	0.00e+00	0	41	0	1107296256	62	4344
2026-01-21 23:30:47.14	158.58	20.43	-45.7	-47.0	20.2	0.00e+00	0	41	0	1109393408	62	4313
2026-01-21 23:30:48.15	158.72	20.32	-45.7	-47.0	20.2	0.00e+00	0	41	0	1111490560	62	4326
2026-01-21 23:30:49.16	158.85	20.20	-45.5	-46.8	20.4	0.00e+00	0	41	0	1113587712	62	4216
2026-01-21 23:30:50.17	158.98	20.09	-45.6	-46.9	20.3	0.00e+00	0	40	0	1115684864	62	4280
2026-01-21 23:30:51.18	159.11	19.97	-45.6	-46.9	20.2	0.00e+00	0	41	0	1116733440	62	4282
2026-01-21 23:30:52.18	159.24	19.86	-45.5	-46.9	20.3	0.00e+00	0	41	0	1118830592	62	4245
2026-01-21 23:30:53.19	159.37	19.75	-45.6	-46.9	20.3	0.00e+00	0	41	0	1120927744	62	4270
2026-01-21 23:30:54.20	159.49	19.64	-45.6	-47.0	20.2	0.00e+00	0	41	0	1123024896	62	4302
2026-01-21 23:30:55.21	159.62	19.52	-45.7	-47.0	20.2	0.00e+00	0	40	0	1125122048	62	4314
2026-01-21 23:30:56.21	159.74	19.41	-45.8	-47.1	20.1	0.00e+00	0	40	0	1126170624	62	4374
2026-01-21 23:30:57.22	159.87	19.30	-45.8	-47.1	20.0	0.00e+00	0	41	0	1128267776	62	4377
2026-01-21 23:30:58.23	159.99	19.19	-45.8	-47.1	20.1	0.00e+00	0	40	0	1130364928	62	4378
2026-01-21 23:30:59.24	160.12	19.08	-45.8	-47.1	20.0	0.00e+00	0	41	0	1132462080	62	4390
2026-01-21 23:31:00.25	160.24	18.97	-45.9	-47.2	19.9	0.00e+00	0	40	0	1134559232	62	4440
2026-01-21 23:31:01.26	160.36	18.86	-45.6	-47.0	20.2	0.00e+00	0	41	0	1135607808	62	4306
2026-01-21 23:31:02.26	160.48	18.75	-45.4	-46.7	20.4	0.00e+00	0	41	0	1137704960	62	4165
2026-01-21 23:31:03.27	160.60	18.64	-45.3	-46.6	20.5	0.00e+00	0	40	0	1139802112	62	4136
2026-01-21 23:31:04.28	160.72	18.53	-45.2	-46.5	20.6	0.00e+00	0	41	0	1141899264	62	4072
2026-01-21 23:31:05.28	160.83	18.43	-45.3	-46.5	20.6	0.00e+00	0	41	0	1143996416	62	4088
2026-01-21 23:31:06.29	160.95	18.32	-45.3	-46.6	20.5	0.00e+00	0	40	0	1146093568	62	4117
2026-01-21 23:31:07.30	161.07	18.21	-45.2	-46.4	20.7	0.00e+00	0	41	0	1147142144	62	4040
2026-01-21 23:31:08.31	161.18	18.10	-45.3	-46.6	20.6	0.00e+00	0	40	0	1149239296	62	4107
2026-01-21 23:31:09.32	161.30	17.99	-45.3	-46.6	20.5	0.00e+00	0	40	0	1151336448	62	4126
2026-01-21 23:31:10.33	161.41	17.89	-45.5	-46.8	20.3	0.00e+00	0	40	0	1153433600	62	4237
2026-01-21 23:31:11.33	161.53	17.78	-45.7	-47.1	19.9	0.00e+00	0	41	0	1154482176	62	4348
2026-01-21 23:31:12.34	161.64	17.68	-45.9	-47.3	19.8	0.00e+00	0	40	0	1156579328	62	4467
2026-01-21 23:31:13.35	161.75	17.57	-46.0	-47.4	19.7	0.00e+00	0	41	0	1158676480	62	4533
2026-01-21 23:31:14.36	161.86	17.47	-46.1	-47.6	19.5	0.00e+00	0	40	0	1160773632	62	4613
2026-01-21 23:31:15.36	161.97	17.36	-46.2	-47.7	19.4	0.00e+00	0	40	0	1162870784	62	4678
2026-01-21 23:31:16.37	162.08	17.26	-46.3	-47.9	19.3	0.00e+00	0	40	0	1163919360	63	4503
2026-01-21 23:31:17.38	162.19	17.15	-46.2	-47.7	19.4	0.00e+00	0	40	0	1166016512	63	4431
2026-01-21 23:31:18.39	162.30	17.05	-46.3	-47.8	19.4	0.00e+00	0	40	0	1168113664	63	4442
2026-01-21 23:31:19.40	162.40	16.95	-46.3	-47.8	19.3	0.00e+00	0	41	0	1170210816	63	4460
2026-01-21 23:31:20.41	162.51	16.84	-46.4	-47.9	19.2	0.00e+00	0	41	0	1172307968	63	4523
2026-01-21 23:31:21.42	162.62	16.74	-46.3	-47.9	19.3	0.00e+00	0	40	0	1174405120	63	4500
2026-01-21 23:31:22.42	162.72	16.64	-46.2	-47.6	19.5	0.00e+00	0	40	0	1175453696	63	4382
2026-01-21 23:31:23.43	162.83	16.54	-46.2	-47.7	19.4	0.00e+00	0	41	0	1177550848	63	4424
2026-01-21 23:31:24.44	162.93	16.43	-46.2	-47.7	19.4	0.00e+00	0	40	0	1179648000	63	4426
2026-01-21 23:31:25.44	163.03	16.33	-46.1	-47.5	19.5	0.00e+00	0	40	0	1181745152	63	4332
2026-01-21 23:31:26.45	163.14	16.23	-46.1	-47.6	19.5	0.00e+00	0	41	0	1182793728	63	4354
2026-01-21 23:31:27.46	163.24	16.13	-46.0	-47.4	19.6	0.00e+00	0	41	0	1184890880	63	4288
2026-01-21 23:31:28.47	163.34	16.03	-46.0	-47.4	19.7	0.00e+00	0	41	0	1186988032	63	4257
2026-01-21 23:31:29.48	163.44	15.93	-46.0	-47.4	19.7	0.00e+00	0	41	0	1189085184	63	4286
2026-01-21 23:31:30.49	163.54	15.83	-45.8	-47.2	19.9	0.00e+00	0	40	0	1191182336	63	4166
2026-01-21 23:31:31.49	163.64	15.73	-45.8	-47.2	19.8	0.00e+00	0	41	0	1193279488	63	4186
2026-01-21 23:31:32.50	163.74	15.63	-45.9	-47.3	19.8	0.00e+00	0	40	0	1194328064	63	4203
2026-01-21 23:31:33.51	163.84	15.53	-45.8	-47.2	19.8	0.00e+00	0	40	0	1196425216	63	4192
2026-01-21 23:31:34.52	163.93	15.44	-45.9	-47.3	19.8	0.00e+00	0	40	0	1198522368	63	4205
2026-01-21 23:31:35.53	164.03	15.34	-45.8	-47.2	19.9	0.00e+00	0	40	0	1200619520	63	4166
2026-01-21 23:31:36.53	164.13	15.24	-45.9	-47.3	19.7	0.00e+00	0	40	0	1202716672	63	4230
2026-01-21 23:31:37.54	164.22	15.14	-45.9	-47.3	19.7	0.00e+00	0	41	0	1203765248	63	4239
2026-01-21 23:31:38.55	164.32	15.05	-45.9	-47.3	19.7	0.00e+00	0	41	0	1205862400	63	4221
2026-01-21 23:31:39.56	164.41	14.95	-45.9	-47.4	19.7	0.00e+00	0	40	0	1207959552	63	4246
2026-01-21 23:31:40.57	164.51	14.85	-46.0	-47.4	19.6	0.00e+00	0	40	0	1210056704	63	4289
2026-01-21 23:31:41.58	164.60	14.76	-45.9	-47.3	19.7	0.00e+00	0	41	0	1211105280	63	4242
2026-01-21 23:31:42.58	164.69	14.66	-46.0	-47.5	19.5	0.00e+00	0	40	0	1213202432	63	4310
2026-01-21 23:31:43.59	164.78	14.56	-46.0	-47.4	19.6	0.00e+00	0	41	0	1215299584	63	4273
2026-01-21 23:31:44.60	164.88	14.47	-46.1	-47.6	19.4	0.00e+00	0	40	0	1217396736	63	4371
2026-01-21 23:31:45.61	164.97	14.37	-46.1	-47.6	19.5	0.00e+00	0	41	0	1219493888	63	4346
2026-01-21 23:31:46.62	165.06	14.28	-46.2	-47.7	19.3	0.00e+00	0	41	0	1221591040	63	4424
2026-01-21 23:31:47.63	165.15	14.19	-46.1	-47.5	19.5	0.00e+00	0	41	0	1222639616	63	4328
2026-01-21 23:31:48.63	165.24	14.09	-46.1	-47.5	19.5	0.00e+00	0	41	0	1224736768	63	4320
2026-01-21 23:31:49.64	165.32	14.00	-46.1	-47.5	19.5	0.00e+00	0	40	0	1226833920	63	4329
2026-01-21 23:31:50.65	165.41	13.90	-46.2	-47.7	19.4	0.00e+00	0	40	0	1228931072	63	4392
2026-01-21 23:31:51.66	165.50	13.81	-46.2	-47.7	19.3	0.00e+00	0	40	0	1231028224	63	4412
2026-01-21 23:31:52.67	165.59	13.72	-46.3	-47.8	19.2	0.00e+00	0	40	0	1232076800	63	4467
2026-01-21 23:31:53.68	165.68	13.63	-46.3	-47.8	19.2	0.00e+00	0	41	0	1234173952	63	4462
2026-01-21 23:31:54.68	165.76	13.53	-46.3	-47.8	19.2	0.00e+00	0	41	0	1236271104	63	4455
2026-01-21 23:31:55.69	165.85	13.44	-46.4	-47.9	19.1	0.00e+00	0	41	0	1238368256	63	4533
2026-01-21 23:31:56.70	165.93	13.35	-46.5	-48.1	18.9	0.00e+00	0	41	0	1240465408	63	4611
2026-01-21 23:31:57.70	166.02	13.26	-46.5	-48.1	18.9	0.00e+00	0	41	0	1241513984	63	4619
2026-01-21 23:31:58.71	166.10	13.17	-46.6	-48.2	18.8	0.00e+00	0	40	0	1243611136	63	4679
2026-01-21 23:31:59.72	166.19	13.08	-46.7	-48.3	18.7	0.00e+00	0	41	0	1245708288	63	4753
2026-01-21 23:32:00.73	166.27	12.99	-46.6	-48.3	18.6	0.00e+00	0	40	0	1247805440	64	4466
