passes_logs/2026/01/21/R3.2S_Murmansk/R3.2S_Murmansk__20260121_025333_AQUA_rec.log

#Pass ID: 20260121_025333_AQUA
#Satellite: AQUA
#Configuration: AQUA
#almurnet v.1.7.20251203
#Start time: 2026-01-21 02:53:35

#Version: 2.2.20231116
#Station: R3.2S_Murmansk
#Location: 33.079688 lon 68.888172 lat
#TLE: 1 27424U 02022A   26020.30984080  .00001497  00000+0  30942-3 0  9998
#TLE: 2 27424  98.4092 346.8266 0001984  71.7888  69.0903 14.61835321261661

#Time	Az	El	Level	Level2	SNR	BER	BlckErr	Temp	State	Recorded	gain1	gain2
2026-01-21 02:53:35.55	25.22	2.15	-55.9	-73.7	3.8	7.46e-01	0	40	0	0	82	29489
2026-01-21 02:53:36.55	25.20	2.22	-55.8	-73.6	3.8	7.43e-01	0	40	104	0	82	29287
2026-01-21 02:53:37.56	25.19	2.28	-55.8	-73.6	3.8	7.44e-01	0	40	104	0	82	29132
2026-01-21 02:53:38.57	25.18	2.35	-55.8	-73.6	3.8	7.45e-01	0	40	104	0	82	29129
2026-01-21 02:53:39.58	25.16	2.42	-55.8	-73.6	3.8	7.46e-01	0	40	104	0	82	29266
2026-01-21 02:53:40.59	25.15	2.48	-55.8	-73.6	3.8	7.46e-01	0	40	104	0	82	29324
2026-01-21 02:53:41.60	25.13	2.55	-55.8	-73.6	3.8	7.46e-01	0	40	104	0	82	29257
2026-01-21 02:53:42.61	25.12	2.62	-55.8	-73.6	3.8	7.46e-01	0	39	104	0	82	29234
2026-01-21 02:53:43.62	25.10	2.69	-55.8	-73.6	3.8	7.46e-01	0	40	104	0	82	29231
2026-01-21 02:53:44.62	25.09	2.76	-55.8	-73.6	3.8	7.47e-01	0	39	104	0	82	29136
2026-01-21 02:53:45.63	25.07	2.83	-55.8	-73.6	3.8	7.46e-01	0	40	104	0	82	29149
2026-01-21 02:53:46.64	25.06	2.89	-55.8	-73.6	3.8	7.46e-01	0	40	104	0	82	29015
2026-01-21 02:53:47.65	25.04	2.96	-55.7	-73.6	3.8	7.49e-01	0	40	104	0	82	29123
2026-01-21 02:53:48.66	25.03	3.03	-55.8	-73.6	3.8	7.46e-01	0	40	104	0	82	29075
2026-01-21 02:53:49.67	25.01	3.10	-55.7	-73.6	3.8	7.45e-01	0	40	104	0	82	29030
2026-01-21 02:53:50.67	25.00	3.17	-55.7	-73.5	3.8	7.48e-01	0	40	104	0	82	28951
2026-01-21 02:53:51.68	24.98	3.24	-55.7	-73.5	3.8	7.47e-01	0	40	104	0	82	29000
2026-01-21 02:53:52.69	24.97	3.31	-55.7	-73.5	3.8	7.44e-01	0	40	104	0	82	28964
2026-01-21 02:53:53.70	24.95	3.38	-55.7	-73.5	3.8	7.46e-01	0	40	104	0	82	28931
2026-01-21 02:53:54.71	24.93	3.45	-55.7	-73.5	3.8	7.45e-01	0	40	104	0	82	28926
2026-01-21 02:53:55.72	24.92	3.52	-55.7	-73.5	3.8	7.46e-01	0	40	104	0	82	28873
2026-01-21 02:53:56.73	24.90	3.59	-55.7	-73.5	3.8	7.41e-01	0	40	104	0	82	28847
2026-01-21 02:53:57.73	24.89	3.66	-55.7	-73.5	3.8	7.48e-01	0	40	104	0	82	28833
2026-01-21 02:53:58.74	24.87	3.73	-55.7	-73.5	3.8	7.44e-01	0	40	104	0	82	28846
2026-01-21 02:53:59.75	24.85	3.80	-55.7	-73.5	3.8	7.43e-01	0	40	104	0	82	28822
2026-01-21 02:54:00.76	24.84	3.88	-55.7	-73.5	3.8	7.45e-01	0	40	104	0	82	28783
2026-01-21 02:54:01.77	24.82	3.95	-55.7	-73.5	3.8	7.47e-01	0	40	104	0	82	28903
2026-01-21 02:54:02.77	24.80	4.02	-55.7	-73.5	3.8	7.41e-01	0	40	104	0	82	28855
2026-01-21 02:54:03.78	24.79	4.09	-55.7	-73.5	3.8	7.45e-01	0	40	104	0	82	28769
2026-01-21 02:54:04.79	24.77	4.16	-55.7	-73.5	3.8	7.47e-01	0	40	104	0	82	28848
2026-01-21 02:54:05.80	24.75	4.24	-55.7	-73.5	3.8	7.45e-01	0	40	104	0	82	28717
2026-01-21 02:54:06.80	24.74	4.31	-55.7	-73.5	3.8	7.44e-01	0	40	104	0	82	28713
2026-01-21 02:54:07.81	24.72	4.38	-55.8	-73.6	3.8	7.43e-01	0	40	104	0	82	29067
2026-01-21 02:54:08.82	24.70	4.45	-55.8	-73.7	3.8	7.45e-01	0	40	104	0	82	29394
2026-01-21 02:54:09.83	24.68	4.53	-55.9	-73.7	3.8	7.47e-01	0	40	104	0	82	29436
2026-01-21 02:54:10.84	24.67	4.60	-55.9	-73.7	3.8	7.44e-01	0	40	104	0	82	29479
2026-01-21 02:54:11.85	24.65	4.67	-55.9	-73.7	3.8	7.43e-01	0	40	104	0	82	29502
2026-01-21 02:54:12.86	24.63	4.75	-55.9	-73.6	3.8	7.44e-01	0	40	104	0	82	29334
2026-01-21 02:54:13.87	24.61	4.82	-55.9	-73.7	3.8	7.45e-01	0	40	104	0	82	29441
2026-01-21 02:54:14.88	24.59	4.90	-55.8	-73.6	3.8	7.42e-01	0	40	104	0	82	29309
2026-01-21 02:54:15.89	24.58	4.97	-55.8	-73.6	3.8	7.45e-01	0	40	104	0	82	29193
2026-01-21 02:54:16.89	24.56	5.05	-55.8	-73.5	3.8	7.44e-01	0	40	104	0	82	28967
2026-01-21 02:54:17.90	24.54	5.12	-55.8	-73.6	3.8	7.44e-01	0	40	104	0	82	29116
2026-01-21 02:54:18.91	24.52	5.20	-55.8	-73.6	3.8	7.44e-01	0	40	104	0	82	29124
2026-01-21 02:54:19.92	24.50	5.27	-55.7	-73.4	3.8	7.42e-01	0	40	104	0	82	28593
2026-01-21 02:54:20.93	24.48	5.35	-55.7	-73.4	3.8	7.46e-01	0	40	104	0	82	28560
2026-01-21 02:54:21.93	24.46	5.42	-55.7	-73.5	3.8	7.44e-01	0	40	104	0	82	28836
2026-01-21 02:54:22.94	24.44	5.50	-55.6	-73.4	3.8	7.48e-01	0	40	104	0	82	28480
2026-01-21 02:54:23.95	24.43	5.58	-55.5	-73.3	3.8	7.48e-01	0	40	104	0	82	28195
2026-01-21 02:54:24.96	24.41	5.65	-55.4	-73.2	3.8	7.47e-01	0	40	104	0	82	27776
2026-01-21 02:54:25.97	24.39	5.73	-55.3	-73.0	3.8	7.46e-01	0	40	104	0	82	27356
2026-01-21 02:54:26.97	24.37	5.81	-55.1	-72.8	3.8	7.45e-01	0	40	104	0	82	26740
2026-01-21 02:54:27.98	24.35	5.89	-54.9	-72.7	3.8	7.47e-01	0	40	104	0	81	27816
2026-01-21 02:54:28.99	24.33	5.96	-54.6	-72.3	3.8	7.44e-01	0	40	104	0	81	26738
2026-01-21 02:54:30.00	24.31	6.04	-46.0	-47.3	22.4	5.99e-01	0	40	0	0	63	4215
2026-01-21 02:54:31.01	24.29	6.12	-47.3	-48.9	22.0	6.00e-01	0	40	0	2097152	65	4540
2026-01-21 02:54:32.02	24.27	6.20	-49.4	-51.9	19.4	5.99e-01	0	40	0	3670016	69	5065
2026-01-21 02:54:33.02	24.25	6.28	-46.9	-48.5	22.6	5.99e-01	0	39	0	5767168	65	4318
2026-01-21 02:54:34.03	24.22	6.36	-53.7	-63.8	7.7	6.59e-01	116	40	0	7340032	77	12662
2026-01-21 02:54:35.04	24.20	6.44	-46.5	-48.0	23.2	5.98e-01	0	40	0	9437184	64	4329
2026-01-21 02:54:36.04	24.18	6.51	-50.7	-53.9	17.5	6.00e-01	0	40	0	11534336	71	5661
2026-01-21 02:54:37.05	24.16	6.59	-45.8	-47.2	23.9	6.01e-01	0	40	0	13107200	63	4151
2026-01-21 02:54:38.06	24.14	6.67	-45.8	-47.2	23.9	6.02e-01	0	40	0	15204352	63	4187
2026-01-21 02:54:39.07	24.12	6.75	-46.1	-47.5	23.7	6.02e-01	0	40	0	17301504	63	4320
2026-01-21 02:54:40.07	24.10	6.83	-45.9	-47.3	23.8	6.01e-01	0	40	0	18874368	63	4214
2026-01-21 02:54:41.08	24.08	6.92	-45.6	-47.0	24.3	5.99e-01	0	40	0	20971520	63	4063
2026-01-21 02:54:42.09	24.05	7.00	-45.6	-47.0	24.2	6.01e-01	0	40	0	22544384	62	4295
2026-01-21 02:54:43.10	24.03	7.08	-45.4	-46.7	24.5	6.00e-01	0	40	0	24641536	62	4170
2026-01-21 02:54:44.11	24.01	7.16	-45.4	-46.7	24.6	5.98e-01	0	40	0	26214400	62	4164
2026-01-21 02:54:45.12	23.99	7.24	-45.2	-46.5	24.7	6.00e-01	0	40	0	28311552	62	4080
2026-01-21 02:54:46.13	23.96	7.33	-45.3	-46.6	24.5	6.02e-01	0	40	0	30408704	62	4109
2026-01-21 02:54:47.13	23.94	7.41	-45.4	-46.7	24.5	6.00e-01	0	40	0	31981568	62	4170
2026-01-21 02:54:48.14	23.92	7.49	-45.2	-46.5	24.8	6.00e-01	0	39	0	34078720	62	4072
2026-01-21 02:54:49.15	23.90	7.57	-45.1	-46.4	24.8	5.99e-01	0	39	0	36175872	62	4010
2026-01-21 02:54:50.16	23.87	7.66	-45.1	-46.4	24.9	5.98e-01	0	40	0	37748736	62	4033
2026-01-21 02:54:51.17	23.85	7.74	-45.0	-46.3	24.9	5.99e-01	0	40	0	39845888	61	4231
2026-01-21 02:54:52.17	23.83	7.83	-45.0	-46.2	24.9	6.00e-01	0	40	0	41418752	61	4192
2026-01-21 02:54:53.18	23.80	7.91	-45.0	-46.3	24.9	6.01e-01	0	40	0	43515904	61	4223
2026-01-21 02:54:54.19	23.78	7.99	-45.0	-46.2	25.0	6.01e-01	0	40	0	45613056	61	4193
2026-01-21 02:54:55.20	23.75	8.08	-45.0	-46.3	24.9	6.01e-01	0	39	0	47185920	61	4195
2026-01-21 02:54:56.20	23.73	8.16	-44.7	-46.0	25.2	6.01e-01	0	39	0	49283072	61	4061
2026-01-21 02:54:57.21	23.70	8.25	-44.8	-46.0	25.2	5.99e-01	0	40	0	50855936	61	4090
2026-01-21 02:54:58.22	23.68	8.34	-44.9	-46.1	25.1	6.00e-01	0	39	0	52953088	61	4143
2026-01-21 02:54:59.22	23.66	8.42	-44.8	-46.1	25.2	6.04e-01	0	40	0	54525952	61	4117
2026-01-21 02:55:00.23	23.63	8.51	-44.7	-46.0	25.3	6.00e-01	0	40	0	56623104	61	4057
2026-01-21 02:55:01.24	23.61	8.60	-44.9	-46.2	25.1	6.02e-01	0	40	0	58720256	61	4148
2026-01-21 02:55:02.25	23.58	8.68	-45.0	-46.3	24.9	6.00e-01	0	40	0	60817408	61	4227
2026-01-21 02:55:03.26	23.55	8.77	-44.9	-46.1	25.2	6.00e-01	0	39	0	62390272	61	4135
2026-01-21 02:55:04.27	23.53	8.86	-44.9	-46.1	25.2	5.99e-01	0	40	0	64487424	61	4133
2026-01-21 02:55:05.27	23.50	8.95	-44.9	-46.2	25.1	6.02e-01	0	40	0	66060288	61	4149
2026-01-21 02:55:06.28	23.48	9.04	-44.6	-45.9	25.5	6.01e-01	0	40	0	68157440	61	4008
2026-01-21 02:55:07.29	23.45	9.13	-44.7	-45.9	25.4	6.02e-01	0	40	0	69730304	61	4028
2026-01-21 02:55:08.30	23.42	9.22	-44.7	-45.9	25.4	6.01e-01	0	40	0	71827456	61	4022
2026-01-21 02:55:09.30	23.40	9.30	-44.6	-45.8	25.5	6.01e-01	0	39	0	73924608	61	3993
2026-01-21 02:55:10.31	23.37	9.39	-44.6	-45.8	25.6	6.00e-01	0	40	0	75497472	61	3976
2026-01-21 02:55:11.32	23.34	9.49	-44.7	-45.9	25.4	6.02e-01	0	40	0	77594624	61	4033
2026-01-21 02:55:12.33	23.31	9.58	-44.5	-45.7	25.6	6.01e-01	0	40	0	79167488	61	3941
2026-01-21 02:55:13.34	23.29	9.67	-44.4	-45.5	25.7	6.00e-01	0	40	0	81264640	60	4097
2026-01-21 02:55:14.34	23.26	9.76	-44.5	-45.7	25.7	6.02e-01	0	39	0	83361792	60	4180
2026-01-21 02:55:15.35	23.23	9.85	-44.5	-45.7	25.6	6.00e-01	0	40	0	84934656	60	4188
2026-01-21 02:55:16.36	23.20	9.94	-44.4	-45.6	25.6	6.01e-01	0	40	0	87031808	60	4141
2026-01-21 02:55:17.37	23.17	10.04	-44.5	-45.7	25.5	5.99e-01	0	39	0	89128960	60	4164
2026-01-21 02:55:18.38	23.15	10.13	-44.3	-45.5	25.2	6.02e-01	0	40	0	90701824	60	4070
2026-01-21 02:55:19.38	23.12	10.22	-44.3	-45.5	25.8	6.02e-01	0	40	0	92798976	60	4086
2026-01-21 02:55:20.39	23.09	10.32	-44.3	-45.5	25.7	6.02e-01	0	40	0	94371840	60	4085
2026-01-21 02:55:21.40	23.06	10.41	-44.2	-45.4	25.9	6.01e-01	0	40	0	96468992	60	4031
2026-01-21 02:55:22.40	23.03	10.50	-44.4	-45.5	25.8	6.02e-01	0	40	0	98041856	60	4094
2026-01-21 02:55:23.41	23.00	10.60	-44.4	-45.6	25.7	6.01e-01	0	40	0	100139008	60	4139
2026-01-21 02:55:24.42	22.97	10.69	-44.3	-45.5	25.9	5.99e-01	0	40	0	102236160	60	4061
2026-01-21 02:55:25.43	22.94	10.79	-44.2	-45.4	25.9	6.00e-01	0	40	0	103809024	60	4005
2026-01-21 02:55:26.44	22.91	10.89	-44.2	-45.4	26.0	6.03e-01	0	39	0	105906176	60	4013
2026-01-21 02:55:27.45	22.88	10.98	-44.3	-45.5	25.9	6.02e-01	0	40	0	108003328	60	4067
2026-01-21 02:55:28.46	22.84	11.08	-44.2	-45.4	26.0	6.02e-01	0	40	0	109576192	60	4030
2026-01-21 02:55:29.47	22.81	11.18	-44.2	-45.4	25.9	6.00e-01	0	39	0	111673344	60	4036
2026-01-21 02:55:30.48	22.78	11.28	-44.2	-45.3	25.9	6.00e-01	0	39	0	113246208	60	4000
2026-01-21 02:55:31.49	22.75	11.38	-44.2	-45.4	25.9	6.02e-01	0	39	0	115343360	60	4013
2026-01-21 02:55:32.49	22.72	11.47	-44.3	-45.5	25.9	6.01e-01	0	39	0	117440512	60	4087
2026-01-21 02:55:33.50	22.69	11.57	-44.3	-45.5	26.0	6.00e-01	0	40	0	119013376	60	4059
2026-01-21 02:55:34.51	22.65	11.67	-44.3	-45.5	24.6	6.02e-01	0	40	0	121110528	60	4052
2026-01-21 02:55:35.52	22.62	11.77	-44.2	-45.4	26.1	6.00e-01	0	40	0	122683392	60	4032
2026-01-21 02:55:36.52	22.59	11.87	-44.3	-45.5	26.0	6.02e-01	0	40	0	124780544	60	4057
2026-01-21 02:55:37.53	22.55	11.97	-44.2	-45.4	26.1	6.02e-01	0	39	0	126353408	60	4028
2026-01-21 02:55:38.54	22.52	12.07	-44.3	-45.5	26.0	6.00e-01	0	40	0	128450560	60	4067
2026-01-21 02:55:39.55	22.48	12.18	-44.2	-45.4	26.1	5.99e-01	0	39	0	130547712	60	4026
2026-01-21 02:55:40.56	22.45	12.28	-44.2	-45.4	26.2	6.02e-01	0	40	0	132120576	60	4006
2026-01-21 02:55:41.57	22.42	12.38	-44.1	-45.3	26.2	6.02e-01	0	40	0	134217728	60	3986
2026-01-21 02:55:42.58	22.38	12.49	-44.1	-45.2	26.2	6.01e-01	0	40	0	136314880	60	3941
2026-01-21 02:55:43.59	22.35	12.59	-44.0	-45.2	26.3	6.04e-01	0	39	0	137887744	60	3937
2026-01-21 02:55:44.59	22.31	12.69	-44.2	-45.3	26.2	6.02e-01	0	39	0	139984896	60	3992
2026-01-21 02:55:45.60	22.27	12.80	-44.0	-45.1	26.4	6.01e-01	0	40	0	141557760	60	3897
2026-01-21 02:55:46.61	22.24	12.90	-44.0	-45.2	26.2	6.03e-01	0	40	0	143654912	59	4159
2026-01-21 02:55:47.62	22.20	13.01	-44.2	-45.3	26.1	6.01e-01	0	40	0	145752064	59	4236
2026-01-21 02:55:48.63	22.16	13.12	-44.0	-45.1	26.3	6.01e-01	0	39	0	147324928	59	4134
2026-01-21 02:55:49.64	22.13	13.22	-44.0	-45.2	26.2	6.03e-01	0	39	0	149422080	59	4164
2026-01-21 02:55:50.65	22.09	13.33	-44.0	-45.1	26.3	6.03e-01	0	40	0	151519232	59	4130
2026-01-21 02:55:51.65	22.05	13.44	-44.0	-45.1	26.3	6.00e-01	0	39	0	153092096	59	4130
2026-01-21 02:55:52.66	22.01	13.55	-44.1	-45.2	26.3	6.04e-01	0	40	0	155189248	59	4181
2026-01-21 02:55:53.67	21.98	13.65	-43.8	-45.0	26.5	6.02e-01	0	39	0	156762112	59	4059
2026-01-21 02:55:54.68	21.94	13.76	-43.8	-45.0	26.4	6.00e-01	0	40	0	158859264	59	4062
2026-01-21 02:55:55.69	21.90	13.87	-43.8	-44.9	26.5	6.01e-01	0	40	0	160956416	59	4037
2026-01-21 02:55:56.69	21.86	13.98	-43.8	-44.9	26.5	6.00e-01	0	40	0	162529280	59	4022
2026-01-21 02:55:57.70	21.82	14.09	-43.8	-44.9	26.6	6.01e-01	0	40	0	164626432	59	4029
2026-01-21 02:55:58.71	21.78	14.21	-43.7	-44.9	26.6	6.01e-01	0	39	0	166199296	59	4009
2026-01-21 02:55:59.72	21.74	14.32	-43.7	-44.8	26.6	6.01e-01	0	39	0	168296448	59	3987
2026-01-21 02:56:00.70	21.70	14.43	-43.7	-44.8	26.7	6.03e-01	0	40	0	169869312	59	3978
2026-01-21 02:56:01.71	21.66	14.54	-43.8	-44.9	26.5	6.01e-01	0	39	0	171966464	59	4025
2026-01-21 02:56:02.72	21.62	14.66	-43.8	-44.9	26.6	6.00e-01	0	40	0	174063616	59	4028
2026-01-21 02:56:03.72	21.57	14.77	-43.7	-44.8	26.6	6.01e-01	0	40	0	175636480	59	3996
2026-01-21 02:56:04.73	21.53	14.88	-43.7	-44.9	26.6	6.00e-01	0	39	0	177733632	59	4012
2026-01-21 02:56:05.74	21.49	15.00	-43.7	-44.8	26.6	6.02e-01	0	39	0	179306496	59	4004
2026-01-21 02:56:06.75	21.45	15.12	-43.7	-44.8	26.6	5.98e-01	0	39	0	181403648	59	4001
2026-01-21 02:56:07.76	21.40	15.23	-43.8	-44.9	26.6	6.01e-01	0	40	0	183500800	59	4033
2026-01-21 02:56:08.77	21.36	15.35	-43.8	-45.0	26.5	6.00e-01	0	39	0	185073664	59	4060
2026-01-21 02:56:09.77	21.31	15.47	-43.9	-45.0	26.5	6.00e-01	0	40	0	187170816	59	4096
2026-01-21 02:56:10.78	21.27	15.59	-43.8	-45.0	26.5	6.03e-01	0	40	0	189267968	59	4054
2026-01-21 02:56:11.79	21.22	15.70	-43.8	-44.9	26.5	6.00e-01	0	39	0	190840832	59	4044
2026-01-21 02:56:12.80	21.18	15.82	-43.9	-45.1	26.4	6.03e-01	0	40	0	192937984	59	4099
2026-01-21 02:56:13.80	21.13	15.94	-43.8	-45.0	26.5	6.00e-01	0	40	0	194510848	59	4055
2026-01-21 02:56:14.81	21.09	16.06	-43.9	-45.0	26.5	6.01e-01	0	40	0	196608000	59	4076
2026-01-21 02:56:15.82	21.04	16.19	-44.0	-45.1	26.4	6.00e-01	0	40	0	198180864	59	4114
2026-01-21 02:56:16.83	20.99	16.31	-44.1	-45.2	26.4	6.00e-01	0	40	0	200278016	59	4167
2026-01-21 02:56:17.84	20.94	16.43	-44.0	-45.1	26.4	6.01e-01	0	40	0	202375168	59	4134
2026-01-21 02:56:18.84	20.90	16.56	-44.0	-45.1	26.4	6.02e-01	0	40	0	203948032	59	4123
2026-01-21 02:56:19.85	20.85	16.68	-44.0	-45.1	26.4	5.99e-01	0	40	0	206045184	59	4142
2026-01-21 02:56:20.86	20.80	16.80	-44.1	-45.2	26.3	6.03e-01	0	40	0	208142336	59	4172
2026-01-21 02:56:21.87	20.75	16.93	-44.1	-45.2	26.3	6.02e-01	0	40	0	209715200	59	4185
2026-01-21 02:56:22.88	20.70	17.06	-43.9	-45.1	26.4	6.01e-01	0	40	0	211812352	59	4110
2026-01-21 02:56:23.88	20.65	17.18	-44.0	-45.2	26.4	6.01e-01	0	40	0	213385216	59	4151
2026-01-21 02:56:24.89	20.60	17.31	-44.0	-45.2	26.4	6.00e-01	0	40	0	215482368	59	4149
2026-01-21 02:56:25.90	20.55	17.44	-44.1	-45.3	26.3	6.01e-01	0	40	0	217579520	59	4209
2026-01-21 02:56:26.91	20.49	17.57	-44.0	-45.2	26.4	6.00e-01	0	40	0	219152384	59	4153
2026-01-21 02:56:27.92	20.44	17.70	-44.1	-45.3	26.2	6.02e-01	0	39	0	221249536	59	4201
2026-01-21 02:56:28.93	20.39	17.83	-43.9	-45.0	26.5	6.01e-01	0	40	0	222822400	59	4070
2026-01-21 02:56:29.93	20.33	17.96	-43.8	-44.9	26.5	6.02e-01	0	40	0	224919552	59	4051
2026-01-21 02:56:30.94	20.28	18.09	-43.8	-44.9	26.6	6.01e-01	0	40	0	227016704	59	4028
2026-01-21 02:56:31.95	20.23	18.23	-43.7	-44.8	26.6	6.01e-01	0	40	0	228589568	59	3981
2026-01-21 02:56:32.96	20.17	18.36	-43.7	-44.9	26.6	6.02e-01	0	39	0	230686720	59	4006
2026-01-21 02:56:33.97	20.11	18.49	-43.9	-45.0	26.4	6.03e-01	0	40	0	232259584	59	4089
2026-01-21 02:56:34.97	20.06	18.63	-43.7	-44.8	26.7	6.03e-01	0	39	0	234356736	59	3990
2026-01-21 02:56:35.98	20.00	18.76	-43.5	-44.6	27.0	6.03e-01	0	40	0	236453888	59	3870
2026-01-21 02:56:36.99	19.94	18.90	-43.4	-44.5	27.0	5.99e-01	0	40	0	238026752	58	4080
2026-01-21 02:56:37.99	19.89	19.04	-43.4	-44.5	27.0	6.01e-01	0	40	0	240123904	58	4084
2026-01-21 02:56:39.00	19.83	19.18	-43.5	-44.6	26.9	6.00e-01	0	40	0	241696768	58	4109
2026-01-21 02:56:40.01	19.77	19.32	-43.5	-44.5	27.0	5.98e-01	0	40	0	243793920	58	4098
2026-01-21 02:56:41.02	19.71	19.46	-43.6	-44.7	26.9	6.02e-01	0	40	0	245891072	58	4148
2026-01-21 02:56:42.03	19.65	19.60	-43.6	-44.7	26.9	6.02e-01	0	39	0	247463936	58	4148
2026-01-21 02:56:43.04	19.59	19.74	-43.7	-44.8	26.8	6.02e-01	0	40	0	249561088	58	4213
2026-01-21 02:56:44.04	19.53	19.88	-43.8	-44.9	26.7	6.02e-01	0	40	0	251658240	58	4259
2026-01-21 02:56:45.05	19.46	20.02	-44.2	-54.9	3.9	7.38e-01	0	40	104	251658240	59	12671
2026-01-21 02:56:46.06	19.40	20.17	-44.3	-54.9	3.9	7.43e-01	0	40	104	251658240	59	12723
2026-01-21 02:56:47.07	19.34	20.31	-44.5	-55.1	3.9	7.41e-01	0	40	104	251658240	59	13084
2026-01-21 02:56:48.08	19.27	20.46	-46.5	-57.4	3.8	7.40e-01	0	40	104	251658240	63	13443
2026-01-21 02:56:49.09	19.21	20.61	-51.7	-64.4	3.8	7.42e-01	0	40	104	251658240	74	15958
2026-01-21 02:56:50.09	19.14	20.76	-46.9	-57.9	3.9	7.45e-01	0	40	104	251658240	64	13417
2026-01-21 02:56:51.10	19.07	20.90	-52.4	-65.3	4.0	7.43e-01	0	40	104	251658240	75	16843
2026-01-21 02:56:52.11	19.01	21.05	-44.8	-55.4	3.9	7.41e-01	0	40	104	251658240	61	12084
2026-01-21 02:56:53.11	18.94	21.20	-44.9	-55.6	3.9	7.41e-01	0	40	104	251658240	61	12254
2026-01-21 02:56:54.12	18.87	21.36	-44.8	-55.4	3.7	7.62e-01	0	40	104	251658240	61	11993
2026-01-21 02:56:55.13	18.80	21.51	-47.9	-58.8	4.1	7.35e-01	0	40	104	251658240	66	13341
2026-01-21 02:56:56.14	18.73	21.66	-46.6	-57.3	4.1	7.35e-01	0	40	104	251658240	64	12645
2026-01-21 02:56:57.14	18.66	21.82	-50.6	-62.5	3.8	7.46e-01	0	40	104	251658240	73	13679
2026-01-21 02:56:58.15	18.59	21.97	-46.1	-56.8	3.7	7.53e-01	0	39	104	251658240	64	11951
2026-01-21 02:56:59.16	18.52	22.13	-51.6	-64.1	3.8	7.46e-01	0	40	104	251658240	74	15448
2026-01-21 02:57:00.17	18.44	22.29	-44.8	-55.3	3.7	7.53e-01	0	40	104	251658240	61	11885
2026-01-21 02:57:01.18	18.37	22.44	-44.4	-55.0	3.8	7.48e-01	0	40	104	251658240	60	12170
2026-01-21 02:57:02.19	18.29	22.60	-44.4	-55.1	3.8	7.46e-01	0	39	104	251658240	60	12320
2026-01-21 02:57:03.19	18.22	22.76	-48.5	-59.8	3.9	7.45e-01	0	40	104	251658240	69	12602
2026-01-21 02:57:04.20	18.14	22.93	-45.9	-56.8	3.8	7.46e-01	0	40	104	251658240	64	11931
2026-01-21 02:57:05.21	18.06	23.09	-50.6	-62.6	3.9	7.46e-01	0	39	104	251658240	73	13846
2026-01-21 02:57:06.22	17.98	23.25	-46.0	-56.9	3.9	7.43e-01	0	40	104	251658240	64	12079
2026-01-21 02:57:07.23	17.90	23.42	-51.7	-64.3	3.8	7.42e-01	0	40	104	251658240	74	15789
2026-01-21 02:57:08.23	17.83	23.58	-44.8	-55.5	3.8	7.44e-01	0	40	104	251658240	61	12161
2026-01-21 02:57:09.24	17.74	23.75	-44.7	-55.4	3.8	7.46e-01	0	40	104	251658240	61	12057
2026-01-21 02:57:10.25	17.66	23.92	-44.8	-55.5	3.8	7.45e-01	0	40	104	251658240	61	12201
2026-01-21 02:57:11.26	17.58	24.09	-48.1	-59.3	3.9	7.43e-01	0	40	104	251658240	68	12655
2026-01-21 02:57:12.27	17.49	24.26	-45.6	-56.5	3.8	7.44e-01	0	40	104	251658240	63	12111
2026-01-21 02:57:13.27	17.41	24.43	-49.5	-61.2	3.8	7.45e-01	0	40	104	251658240	71	13120
2026-01-21 02:57:14.28	17.32	24.60	-45.6	-56.4	3.8	7.45e-01	0	40	104	251658240	63	12092
2026-01-21 02:57:15.29	17.23	24.78	-50.3	-62.0	3.9	7.44e-01	0	40	104	251658240	72	13661
2026-01-21 02:57:16.30	17.15	24.95	-44.8	-55.5	3.8	7.46e-01	0	40	104	251658240	61	12166
2026-01-21 02:57:17.30	17.06	25.13	-44.7	-55.4	3.8	7.43e-01	0	40	104	251658240	61	12001
2026-01-21 02:57:18.31	16.97	25.30	-44.6	-55.2	3.8	7.46e-01	0	40	104	251658240	60	12475
2026-01-21 02:57:19.32	16.88	25.48	-49.0	-60.5	3.8	7.47e-01	0	40	104	251658240	70	12814
2026-01-21 02:57:20.33	16.78	25.66	-45.3	-55.9	3.8	7.48e-01	0	40	104	251658240	62	12081
2026-01-21 02:57:21.34	16.69	25.84	-49.6	-61.2	3.8	7.45e-01	0	40	104	251658240	71	13251
2026-01-21 02:57:22.35	16.59	26.03	-44.6	-55.3	3.8	7.45e-01	0	39	104	251658240	61	11924
2026-01-21 02:57:23.36	16.50	26.21	-49.0	-60.4	3.8	7.45e-01	0	40	104	251658240	70	12809
2026-01-21 02:57:24.36	16.40	26.39	-44.6	-55.4	3.8	7.42e-01	0	40	104	251658240	61	12039
2026-01-21 02:57:25.37	16.30	26.58	-44.5	-55.3	3.8	7.45e-01	0	40	104	251658240	61	11894
2026-01-21 02:57:26.38	16.20	26.77	-44.9	-55.6	3.8	7.47e-01	0	40	104	251658240	60	13000
2026-01-21 02:57:27.39	16.10	26.96	-50.0	-61.4	3.8	7.43e-01	0	40	104	251658240	71	13553
2026-01-21 02:57:28.40	16.00	27.15	-44.6	-55.3	3.8	7.44e-01	0	40	104	251658240	61	11899
2026-01-21 02:57:29.40	15.89	27.34	-48.1	-59.3	3.9	7.41e-01	0	40	104	251658240	68	12525
2026-01-21 02:57:30.41	15.79	27.53	-44.3	-54.9	3.8	7.45e-01	0	40	104	251658240	60	12034
2026-01-21 02:57:31.42	15.68	27.72	-46.9	-58.0	3.8	7.45e-01	0	40	104	251658240	66	12195
2026-01-21 02:57:32.43	15.57	27.92	-44.0	-54.7	3.8	7.45e-01	0	39	104	251658240	59	12411
2026-01-21 02:57:33.44	15.46	28.12	-44.0	-54.6	3.8	7.45e-01	0	40	104	251658240	59	12369
2026-01-21 02:57:34.45	15.35	28.32	-45.6	-56.3	3.8	7.45e-01	0	40	104	251658240	61	13378
2026-01-21 02:57:35.46	15.24	28.52	-48.2	-59.4	3.8	7.45e-01	0	40	104	251658240	68	12781
2026-01-21 02:57:36.47	15.12	28.72	-44.5	-55.2	3.8	7.44e-01	0	40	104	251658240	60	12495
2026-01-21 02:57:37.47	15.01	28.92	-47.2	-58.2	3.8	7.43e-01	0	40	104	251658240	66	12478
2026-01-21 02:57:38.48	14.89	29.12	-44.6	-55.3	3.9	7.42e-01	0	40	104	251658240	61	11893
2026-01-21 02:57:39.49	14.77	29.33	-47.3	-58.2	3.8	7.40e-01	0	40	104	251658240	66	12490
2026-01-21 02:57:40.50	14.65	29.54	-44.6	-55.3	3.8	7.45e-01	0	40	104	251658240	61	11898
2026-01-21 02:57:41.51	14.53	29.74	-44.1	-54.7	3.8	7.46e-01	0	40	104	251658240	60	11809
2026-01-21 02:57:42.51	14.41	29.95	-44.2	-54.8	3.8	7.43e-01	0	40	104	251658240	59	12614
2026-01-21 02:57:43.52	14.28	30.16	-44.2	-54.9	3.8	7.43e-01	0	40	104	251658240	60	11987
2026-01-21 02:57:44.53	14.16	30.38	-44.2	-54.9	3.9	7.44e-01	0	40	104	251658240	59	12717
2026-01-21 02:57:45.54	14.03	30.59	-46.2	-57.1	3.8	7.44e-01	0	40	104	251658240	64	12320
2026-01-21 02:57:46.55	13.90	30.81	-45.4	-56.4	3.8	7.46e-01	0	40	104	251658240	61	13481
2026-01-21 02:57:47.56	13.76	31.03	-47.3	-58.2	3.8	7.43e-01	0	39	104	251658240	66	12476
2026-01-21 02:57:48.56	13.63	31.24	-45.6	-56.3	3.8	7.45e-01	0	40	104	251658240	62	12633
2026-01-21 02:57:49.57	13.49	31.47	-44.7	-55.4	3.8	7.43e-01	0	40	104	251658240	61	11961
2026-01-21 02:57:50.58	13.35	31.69	-44.2	-54.8	3.8	7.47e-01	0	40	104	251658240	59	12530
2026-01-21 02:57:51.59	13.21	31.91	-45.8	-56.5	3.9	7.47e-01	0	40	104	251658240	61	13689
2026-01-21 02:57:52.59	13.07	32.14	-44.1	-54.8	3.8	7.47e-01	0	40	104	251658240	60	11897
2026-01-21 02:57:53.60	12.93	32.36	-46.8	-57.7	3.8	7.43e-01	0	40	104	251658240	64	13259
2026-01-21 02:57:54.61	12.78	32.59	-45.5	-56.2	3.8	7.48e-01	0	40	104	251658240	61	13113
2026-01-21 02:57:55.62	12.63	32.82	-46.8	-57.7	3.8	7.40e-01	0	40	104	251658240	65	12380
2026-01-21 02:57:56.63	12.48	33.06	-45.5	-56.3	3.8	7.46e-01	0	40	104	251658240	62	12560
2026-01-21 02:57:57.63	12.33	33.29	-44.8	-55.5	3.8	7.43e-01	0	40	104	251658240	61	12142
2026-01-21 02:57:58.64	12.17	33.52	-46.8	-57.8	3.8	7.45e-01	0	40	104	251658240	64	13262
2026-01-21 02:57:59.65	12.01	33.76	-47.9	-59.1	3.8	7.44e-01	0	40	104	251658240	67	13068
2026-01-21 02:58:00.65	11.85	34.00	-47.5	-58.6	3.8	7.48e-01	0	40	104	251658240	65	13788
2026-01-21 02:58:01.66	11.69	34.24	-46.5	-57.4	3.8	7.46e-01	0	40	104	251658240	64	12683
2026-01-21 02:58:02.66	11.52	34.48	-47.5	-58.5	3.8	7.43e-01	0	40	104	251658240	65	13617
2026-01-21 02:58:03.67	11.35	34.73	-47.0	-57.9	3.8	7.44e-01	0	40	104	251658240	66	12028
2026-01-21 02:58:04.68	11.18	34.97	-45.7	-56.5	3.8	7.45e-01	0	39	104	251658240	63	12169
2026-01-21 02:58:05.69	11.01	35.22	-45.0	-55.7	3.8	7.42e-01	0	40	104	251658240	62	11760
2026-01-21 02:58:06.69	10.83	35.47	-45.3	-56.0	3.8	7.44e-01	0	40	104	251658240	61	12931
2026-01-21 02:58:07.70	10.65	35.72	-47.0	-58.0	3.9	7.49e-01	0	40	104	251658240	64	13638
2026-01-21 02:58:08.71	10.47	35.97	-48.3	-59.3	3.8	7.46e-01	0	40	104	251658240	66	14205
2026-01-21 02:58:09.72	10.28	36.23	-48.9	-60.1	3.8	7.44e-01	0	40	104	251658240	69	13088
2026-01-21 02:58:10.72	10.10	36.48	-49.6	-60.9	3.8	7.46e-01	0	40	104	251658240	69	14363
2026-01-21 02:58:11.73	9.91	36.74	-47.2	-58.1	3.8	7.46e-01	0	40	104	251658240	66	12374
2026-01-21 02:58:12.74	9.71	37.00	-46.2	-57.1	3.8	7.44e-01	0	40	104	251658240	64	12256
2026-01-21 02:58:13.75	9.51	37.27	-46.3	-57.2	3.8	7.44e-01	0	40	104	251658240	64	12455
2026-01-21 02:58:14.76	9.31	37.53	-50.2	-61.9	3.8	7.47e-01	0	40	104	251658240	70	15063
2026-01-21 02:58:15.77	9.10	37.80	-51.4	-63.6	3.8	7.45e-01	0	40	104	251658240	73	15430
2026-01-21 02:58:16.77	8.90	38.06	-47.7	-58.6	3.8	7.47e-01	0	39	104	251658240	65	13764
2026-01-21 02:58:17.78	8.69	38.33	-50.2	-61.8	3.9	7.46e-01	0	40	104	251658240	70	14909
2026-01-21 02:58:18.79	8.47	38.60	-50.0	-61.5	3.8	7.48e-01	0	40	104	251658240	70	14406
2026-01-21 02:58:19.80	8.25	38.88	-47.8	-58.8	3.8	7.45e-01	0	40	104	251658240	67	12604
2026-01-21 02:58:20.80	8.03	39.15	-47.5	-58.5	3.9	7.46e-01	0	40	104	251658240	66	12879
2026-01-21 02:58:21.81	7.80	39.43	-47.3	-58.3	3.8	7.41e-01	0	40	104	251658240	66	12555
2026-01-21 02:58:22.82	7.57	39.71	-48.2	-59.3	3.8	7.39e-01	0	40	104	251658240	66	14132
2026-01-21 02:58:23.83	7.33	39.99	-48.9	-60.2	3.8	7.49e-01	0	40	104	251658240	68	13983
2026-01-21 02:58:24.83	7.09	40.27	-50.1	-61.7	3.8	7.47e-01	0	40	104	251658240	70	14714
2026-01-21 02:58:25.84	6.85	40.55	-49.6	-60.9	3.8	7.45e-01	0	40	104	251658240	69	14356
2026-01-21 02:58:26.84	6.60	40.83	-52.4	-65.1	3.8	7.44e-01	0	40	104	251658240	75	16461
2026-01-21 02:58:27.85	6.35	41.12	-46.9	-57.9	3.8	7.43e-01	0	40	104	251658240	65	12700
2026-01-21 02:58:28.86	6.09	41.41	-46.8	-57.7	3.8	7.44e-01	0	40	104	251658240	65	12469
2026-01-21 02:58:29.87	5.83	41.70	-46.5	-57.3	3.8	7.47e-01	0	40	104	251658240	65	11909
2026-01-21 02:58:30.88	5.56	42.00	-54.4	-69.1	3.7	7.43e-01	0	40	104	251658240	79	20549
2026-01-21 02:58:31.89	5.29	42.29	-49.5	-60.9	3.8	7.47e-01	0	40	104	251658240	71	12794
2026-01-21 02:58:32.90	5.01	42.59	-50.8	-62.9	3.8	7.43e-01	0	40	104	251658240	72	15058
2026-01-21 02:58:33.90	4.73	42.88	-49.1	-60.3	3.8	7.41e-01	0	40	104	251658240	68	14081
2026-01-21 02:58:34.91	4.44	43.18	-51.8	-64.4	3.8	7.45e-01	0	40	104	251658240	74	16097
2026-01-21 02:58:35.92	4.14	43.49	-47.6	-58.6	3.8	7.46e-01	0	40	104	251658240	67	12363
2026-01-21 02:58:36.93	3.84	43.79	-47.0	-57.9	3.8	7.43e-01	0	40	104	251658240	66	12002
2026-01-21 02:58:37.93	3.54	44.09	-46.1	-56.9	3.9	7.44e-01	0	40	104	251658240	64	12055
2026-01-21 02:58:38.94	3.23	44.40	-45.9	-56.7	3.8	7.45e-01	0	40	104	251658240	62	13255
2026-01-21 02:58:39.95	2.91	44.71	-51.3	-63.5	3.8	7.41e-01	0	40	104	251658240	73	15248
2026-01-21 02:58:40.96	2.58	45.02	-48.7	-59.9	3.8	7.45e-01	0	40	104	251658240	67	14217
2026-01-21 02:58:41.97	2.25	45.33	-50.5	-62.3	3.8	7.40e-01	0	40	104	251658240	72	14206
2026-01-21 02:58:42.97	1.91	45.64	-51.7	-63.8	3.8	7.48e-01	0	40	104	251658240	73	15863
2026-01-21 02:58:43.98	1.57	45.95	-46.8	-57.7	3.8	7.45e-01	0	40	104	251658240	65	12492
2026-01-21 02:58:44.99	1.22	46.27	-46.6	-57.5	3.8	7.43e-01	0	40	104	251658240	65	12223
2026-01-21 02:58:46.00	0.86	46.59	-46.2	-57.1	3.8	7.43e-01	0	40	104	251658240	64	12246
2026-01-21 02:58:47.01	0.49	46.90	-51.0	-62.9	3.8	7.46e-01	0	39	104	251658240	72	15068
2026-01-21 02:58:48.01	0.12	47.22	-49.3	-60.8	3.8	7.45e-01	0	40	104	251658240	69	14116
2026-01-21 02:58:49.02	359.73	47.54	-50.9	-62.7	3.8	7.42e-01	0	40	104	251658240	72	14717
2026-01-21 02:58:50.03	359.34	47.86	-49.1	-60.2	3.8	7.43e-01	0	40	104	251658240	68	14040
2026-01-21 02:58:51.04	358.94	48.19	-52.9	-66.1	3.8	7.46e-01	0	40	104	251658240	76	17365
2026-01-21 02:58:52.04	358.54	48.51	-45.9	-56.7	3.8	7.42e-01	0	40	104	251658240	63	12483
2026-01-21 02:58:53.05	358.12	48.83	-45.9	-56.8	3.9	7.46e-01	0	40	104	251658240	63	12534
2026-01-21 02:58:54.06	357.69	49.16	-45.3	-56.1	3.8	7.39e-01	0	40	104	251658240	62	12312
2026-01-21 02:58:55.07	357.26	49.48	-51.3	-63.4	3.8	7.44e-01	0	40	104	251658240	74	14215
2026-01-21 02:58:56.08	356.81	49.81	-48.3	-59.3	3.8	7.45e-01	0	40	104	251658240	68	12621
2026-01-21 02:58:57.09	356.36	50.14	-51.8	-64.1	3.8	7.43e-01	0	40	104	251658240	74	15524
2026-01-21 02:58:58.09	355.90	50.46	-49.3	-60.8	3.9	7.43e-01	0	40	104	251658240	70	13316
2026-01-21 02:58:59.10	355.42	50.79	-52.2	-64.7	3.8	7.46e-01	0	40	104	251658240	75	15632
2026-01-21 02:59:00.11	354.93	51.12	-46.4	-57.2	3.8	7.44e-01	0	40	104	251658240	64	12485
2026-01-21 02:59:01.12	354.44	51.45	-46.2	-57.1	3.8	7.44e-01	0	40	104	251658240	64	12276
2026-01-21 02:59:02.13	353.93	51.78	-45.7	-56.4	3.8	7.43e-01	0	40	104	251658240	63	12073
2026-01-21 02:59:03.14	353.41	52.11	-46.2	-57.1	3.8	7.43e-01	0	40	104	251658240	63	12987
2026-01-21 02:59:04.15	352.88	52.44	-48.8	-59.7	3.9	7.44e-01	0	40	104	251658240	69	12509
2026-01-21 02:59:05.15	352.34	52.76	-48.5	-59.8	3.8	7.42e-01	0	40	104	251658240	68	13338
2026-01-21 02:59:06.16	351.78	53.09	-47.0	-58.1	3.8	7.44e-01	0	40	104	251658240	66	12240
2026-01-21 02:59:07.17	351.21	53.42	-50.6	-62.2	3.8	7.45e-01	0	40	104	251658240	72	13978
2026-01-21 02:59:08.18	350.63	53.74	-45.0	-55.7	3.8	7.45e-01	0	40	104	251658240	61	12411
2026-01-21 02:59:09.18	350.04	54.07	-44.7	-55.4	3.8	7.44e-01	0	40	104	251658240	61	12087
2026-01-21 02:59:10.19	349.43	54.39	-44.6	-55.3	3.8	7.43e-01	0	40	104	251658240	61	11824
2026-01-21 02:59:11.20	348.81	54.71	-49.8	-61.3	3.9	7.45e-01	0	40	104	251658240	71	13307
2026-01-21 02:59:12.21	348.17	55.04	-47.5	-58.7	3.9	7.48e-01	0	40	104	251658240	67	12411
2026-01-21 02:59:13.22	347.51	55.36	-49.9	-61.6	3.8	7.43e-01	0	40	104	251658240	72	13018
2026-01-21 02:59:14.23	346.85	55.68	-47.3	-58.2	3.8	7.45e-01	0	40	104	251658240	66	12443
2026-01-21 02:59:15.24	346.16	55.99	-52.0	-64.4	3.8	7.43e-01	0	40	104	251658240	75	15151
2026-01-21 02:59:16.25	345.46	56.31	-46.3	-57.1	3.8	7.40e-01	0	40	104	251658240	63	12978
2026-01-21 02:59:17.25	344.75	56.62	-46.3	-57.1	3.8	7.44e-01	0	40	104	251658240	63	13001
2026-01-21 02:59:18.26	344.02	56.93	-45.7	-56.5	3.8	7.44e-01	0	40	104	251658240	63	12127
2026-01-21 02:59:19.27	343.27	57.23	-48.7	-59.8	3.9	7.44e-01	0	40	104	251658240	69	12598
2026-01-21 02:59:20.28	342.50	57.54	-47.9	-58.9	3.8	7.47e-01	0	40	104	251658240	67	12666
2026-01-21 02:59:21.29	341.72	57.84	-49.4	-60.6	3.8	7.44e-01	0	40	104	251658240	70	12971
2026-01-21 02:59:22.30	340.92	58.14	-46.8	-57.5	3.9	7.45e-01	0	40	104	251658240	65	12100
2026-01-21 02:59:23.31	340.10	58.43	-50.8	-62.6	3.9	7.40e-01	0	40	104	251658240	73	13738
2026-01-21 02:59:24.31	339.27	58.72	-46.9	-58.1	3.8	7.42e-01	0	40	104	251658240	65	13108
2026-01-21 02:59:25.32	338.41	59.00	-46.7	-57.4	3.8	7.46e-01	0	40	104	251658240	65	12058
2026-01-21 02:59:26.33	337.54	59.28	-46.4	-57.2	3.8	7.47e-01	0	40	104	251658240	64	12484
2026-01-21 02:59:27.34	336.64	59.56	-46.1	-57.0	3.8	7.42e-01	0	40	104	251658240	64	12112
2026-01-21 02:59:28.35	335.73	59.83	-46.8	-57.5	3.8	7.43e-01	0	40	104	251658240	65	12140
2026-01-21 02:59:29.35	334.81	60.09	-48.6	-59.6	3.8	7.43e-01	0	40	104	251658240	69	12336
2026-01-21 02:59:30.36	333.85	60.35	-47.1	-58.2	3.8	7.42e-01	0	40	104	251658240	66	12409
2026-01-21 02:59:31.37	332.88	60.60	-49.1	-60.3	3.8	7.44e-01	0	40	104	251658240	70	12652
2026-01-21 02:59:32.38	331.89	60.85	-46.5	-57.3	3.8	7.46e-01	0	39	104	251658240	64	12524
2026-01-21 02:59:33.39	330.88	61.08	-46.8	-57.7	3.8	7.43e-01	0	40	104	251658240	64	13119
2026-01-21 02:59:34.39	329.86	61.31	-47.2	-58.1	3.8	7.45e-01	0	40	104	251658240	64	13833
2026-01-21 02:59:35.40	328.81	61.54	-49.4	-60.5	3.8	7.46e-01	0	40	104	251658240	70	12839
2026-01-21 02:59:36.41	327.75	61.76	-46.3	-57.1	3.8	7.47e-01	0	40	104	251658240	64	12348
2026-01-21 02:59:37.42	326.66	61.97	-50.4	-61.8	3.9	7.43e-01	0	40	104	251658240	72	13334
2026-01-21 02:59:38.43	325.55	62.17	-47.6	-58.5	3.9	7.42e-01	0	40	104	251658240	67	12133
2026-01-21 02:59:39.43	324.44	62.36	-50.3	-61.9	3.9	7.45e-01	0	40	104	251658240	72	13480
2026-01-21 02:59:40.44	323.30	62.54	-47.4	-58.3	3.8	7.45e-01	0	40	104	251658240	66	12554
2026-01-21 02:59:41.45	322.14	62.72	-47.3	-58.2	3.8	7.42e-01	0	40	104	251658240	66	12490
2026-01-21 02:59:42.46	320.97	62.88	-47.3	-58.1	3.8	7.43e-01	0	40	104	251658240	65	13038
2026-01-21 02:59:43.47	319.78	63.04	-49.4	-60.8	3.8	7.48e-01	0	40	104	251658240	69	14179
2026-01-21 02:59:44.48	318.57	63.18	-47.1	-58.2	3.8	7.45e-01	0	40	104	251658240	66	12377
2026-01-21 02:59:45.49	317.35	63.32	-50.4	-61.8	3.8	7.41e-01	0	40	104	251658240	72	13345
2026-01-21 02:59:46.49	316.13	63.44	-47.7	-58.8	3.8	7.46e-01	0	40	104	251658240	67	12569
2026-01-21 02:59:47.50	314.89	63.55	-49.8	-61.3	3.8	7.41e-01	0	40	104	251658240	71	13312
2026-01-21 02:59:48.51	313.63	63.65	-47.9	-58.8	3.8	7.43e-01	0	40	104	251658240	67	12583
2026-01-21 02:59:49.52	312.36	63.74	-47.9	-59.0	3.8	7.44e-01	0	40	104	251658240	67	12823
2026-01-21 02:59:50.53	311.08	63.82	-48.2	-59.2	3.8	7.43e-01	0	40	104	251658240	66	13934
2026-01-21 02:59:51.53	309.81	63.89	-50.2	-61.8	3.8	7.46e-01	0	40	104	251658240	71	14098
2026-01-21 02:59:52.54	308.52	63.95	-47.4	-58.2	3.9	7.46e-01	0	40	104	251658240	66	12433
2026-01-21 02:59:53.55	307.22	63.99	-51.3	-63.6	3.8	7.46e-01	0	40	104	251658240	73	15498
2026-01-21 02:59:54.56	305.92	64.02	-48.3	-59.2	3.8	7.45e-01	0	40	104	251658240	67	13111
2026-01-21 02:59:55.57	304.61	64.04	-49.1	-60.4	3.8	7.46e-01	0	40	104	251658240	70	12779
2026-01-21 02:59:56.57	303.32	64.05	-48.3	-59.4	3.8	7.45e-01	0	40	104	251658240	68	12808
2026-01-21 02:59:57.58	302.01	64.05	-48.6	-59.9	3.8	7.44e-01	0	40	104	251658240	68	13483
2026-01-21 02:59:58.59	300.70	64.03	-50.2	-61.5	3.8	7.44e-01	0	40	104	251658240	70	14411
2026-01-21 02:59:59.60	299.40	64.01	-50.9	-62.5	3.8	7.49e-01	0	40	104	251658240	73	13676
2026-01-21 03:00:00.61	298.10	63.97	-48.9	-60.3	3.8	7.45e-01	0	40	104	251658240	68	14054
2026-01-21 03:00:01.62	296.80	63.92	-52.1	-64.2	3.8	7.44e-01	0	40	104	251658240	74	15667
2026-01-21 03:00:02.63	295.51	63.85	-48.5	-59.5	3.8	7.43e-01	0	40	104	251658240	68	12889
2026-01-21 03:00:03.64	294.23	63.78	-49.4	-60.9	3.8	7.42e-01	0	40	104	251658240	71	12810
2026-01-21 03:00:04.64	292.97	63.69	-48.4	-59.4	3.8	7.44e-01	0	40	104	251658240	68	12790
2026-01-21 03:00:05.65	291.71	63.59	-48.0	-58.7	3.9	7.46e-01	0	40	104	251658240	67	12405
2026-01-21 03:00:06.66	290.46	63.49	-52.5	-65.4	3.8	7.45e-01	0	40	104	251658240	75	16952
2026-01-21 03:00:07.67	289.22	63.37	-52.3	-64.7	3.8	7.46e-01	0	40	104	251658240	75	15728
2026-01-21 03:00:08.68	287.99	63.24	-49.1	-60.2	3.8	7.44e-01	0	40	104	251658240	68	13947
2026-01-21 03:00:09.69	286.78	63.10	-52.7	-65.1	3.8	7.46e-01	0	40	104	251658240	75	16402
2026-01-21 03:00:10.69	285.59	62.95	-48.9	-60.1	3.8	7.41e-01	0	40	104	251658240	68	13779
2026-01-21 03:00:11.70	284.41	62.78	-48.1	-59.3	3.8	7.42e-01	0	40	104	251658240	68	12562
2026-01-21 03:00:12.71	283.25	62.61	-48.2	-59.1	3.9	7.44e-01	0	40	104	251658240	67	13088
2026-01-21 03:00:13.72	282.10	62.43	-47.8	-58.6	3.8	7.45e-01	0	40	104	251658240	67	12345
2026-01-21 03:00:14.72	280.98	62.25	-48.7	-60.4	3.9	7.45e-01	0	39	104	251658240	68	14231
2026-01-21 03:00:15.73	279.86	62.05	-48.7	-59.8	3.8	7.46e-01	0	40	104	251658240	67	14071
2026-01-21 03:00:16.74	278.77	61.84	-50.2	-61.6	3.8	7.45e-01	0	40	104	251658240	70	14629
2026-01-21 03:00:17.75	277.69	61.63	-52.5	-64.8	3.8	7.47e-01	0	40	104	251658240	75	15823
2026-01-21 03:00:18.76	276.63	61.41	-50.4	-62.0	3.8	7.44e-01	0	40	104	251658240	71	14385
2026-01-21 03:00:19.77	275.60	61.18	-48.3	-59.6	3.8	7.46e-01	0	40	104	251658240	68	12983
2026-01-21 03:00:20.78	274.58	60.94	-47.3	-58.1	3.8	7.44e-01	0	40	104	251658240	66	12355
2026-01-21 03:00:21.79	273.58	60.70	-46.8	-57.6	3.8	7.44e-01	0	39	104	251658240	65	12364
2026-01-21 03:00:22.79	272.61	60.45	-50.4	-61.8	3.8	7.42e-01	0	40	104	251658240	71	14131
2026-01-21 03:00:23.80	271.65	60.19	-50.8	-62.6	3.8	7.45e-01	0	40	104	251658240	72	14681
2026-01-21 03:00:24.81	270.71	59.93	-50.7	-62.5	3.8	7.45e-01	0	40	104	251658240	71	15372
2026-01-21 03:00:25.82	269.78	59.66	-52.8	-65.8	3.8	7.46e-01	0	40	104	251658240	76	16798
2026-01-21 03:00:26.82	268.89	59.39	-49.8	-60.8	3.8	7.46e-01	0	40	104	251658240	69	14117
2026-01-21 03:00:27.83	268.00	59.11	-48.1	-59.1	3.8	7.44e-01	0	40	104	251658240	68	12275
2026-01-21 03:00:28.84	267.14	58.83	-48.0	-59.1	3.8	7.47e-01	0	40	104	251658240	68	12314
2026-01-21 03:00:29.85	266.29	58.54	-48.0	-59.1	3.8	7.46e-01	0	40	104	251658240	67	13023
2026-01-21 03:00:30.86	265.47	58.25	-47.0	-58.2	3.8	7.47e-01	0	40	104	251658240	65	13162
2026-01-21 03:00:31.87	264.66	57.95	-49.0	-60.0	3.8	7.42e-01	0	40	104	251658240	68	13661
2026-01-21 03:00:32.87	263.87	57.66	-51.4	-63.1	3.8	7.44e-01	0	40	104	251658240	73	14650
2026-01-21 03:00:33.88	263.10	57.35	-52.1	-64.6	3.8	7.43e-01	0	40	104	251658240	74	16334
2026-01-21 03:00:34.89	262.34	57.05	-50.0	-61.4	3.8	7.44e-01	0	40	104	251658240	70	14241
2026-01-21 03:00:35.90	261.60	56.74	-46.2	-57.0	3.8	7.44e-01	0	40	104	251658240	64	12148
2026-01-21 03:00:36.91	260.88	56.42	-45.6	-56.4	3.8	7.43e-01	0	40	104	251658240	63	12068
2026-01-21 03:00:37.91	260.18	56.11	-45.1	-55.7	3.8	7.46e-01	0	40	104	251658240	62	11802
2026-01-21 03:00:38.92	259.48	55.80	-48.1	-59.3	3.8	7.44e-01	0	40	104	251658240	66	14054
2026-01-21 03:00:39.93	258.81	55.48	-48.8	-59.8	3.8	7.47e-01	0	40	104	251658240	68	13398
2026-01-21 03:00:40.94	258.15	55.16	-50.5	-62.0	3.8	7.43e-01	0	40	104	251658240	71	14385
2026-01-21 03:00:41.95	257.50	54.83	-51.4	-63.6	3.8	7.42e-01	0	40	104	251658240	74	14653
2026-01-21 03:00:42.95	256.88	54.51	-49.4	-60.7	3.8	7.47e-01	0	40	104	251658240	69	14044
2026-01-21 03:00:43.96	256.26	54.19	-46.4	-57.3	3.8	7.45e-01	0	40	104	251658240	64	12574
2026-01-21 03:00:44.97	255.66	53.86	-46.3	-56.9	3.8	7.42e-01	0	40	104	251658240	64	12059
2026-01-21 03:00:45.98	255.07	53.54	-45.6	-56.3	3.8	7.44e-01	0	40	104	251658240	63	11886
2026-01-21 03:00:46.98	254.50	53.21	-48.5	-60.1	3.8	7.45e-01	0	40	104	251658240	67	14554
2026-01-21 03:00:47.99	253.94	52.88	-48.4	-59.7	3.8	7.44e-01	0	40	104	251658240	67	13907
2026-01-21 03:00:49.00	253.39	52.55	-51.2	-63.1	3.8	7.49e-01	0	40	104	251658240	72	15435
2026-01-21 03:00:50.01	252.85	52.22	-50.9	-62.7	3.8	7.43e-01	0	40	104	251658240	72	14750
2026-01-21 03:00:51.02	252.33	51.89	-49.0	-60.2	3.8	7.43e-01	0	40	104	251658240	68	13986
2026-01-21 03:00:52.02	251.82	51.57	-45.2	-55.9	3.8	7.41e-01	0	40	104	251658240	62	11973
2026-01-21 03:00:53.03	251.31	51.24	-44.8	-55.5	3.8	7.43e-01	0	40	104	251658240	61	12181
2026-01-21 03:00:54.04	250.82	50.91	-44.3	-54.9	3.9	7.43e-01	0	40	104	251658240	60	12066
2026-01-21 03:00:55.05	250.34	50.58	-47.2	-58.2	3.8	7.42e-01	0	40	104	251658240	65	13177
2026-01-21 03:00:56.06	249.87	50.25	-47.4	-57.9	3.8	7.41e-01	0	40	104	251658240	66	12081
2026-01-21 03:00:57.07	249.41	49.92	-50.1	-61.8	3.8	7.44e-01	0	40	104	251658240	72	13354
2026-01-21 03:00:58.07	248.97	49.60	-50.4	-62.5	3.9	7.46e-01	0	40	104	251658240	73	13590
2026-01-21 03:00:59.08	248.53	49.27	-48.7	-59.8	3.8	7.45e-01	0	40	104	251658240	68	13370
2026-01-21 03:01:00.09	248.10	48.94	-45.4	-55.8	3.8	7.45e-01	0	40	104	251658240	61	12546
2026-01-21 03:01:01.10	247.67	48.62	-45.3	-56.3	3.8	7.44e-01	0	40	104	251658240	61	13319
2026-01-21 03:01:02.11	247.26	48.29	-45.3	-56.3	3.8	7.42e-01	0	40	104	251658240	61	13270
2026-01-21 03:01:03.11	246.86	47.97	-45.2	-56.0	3.8	7.43e-01	0	40	104	251658240	61	12824
2026-01-21 03:01:04.12	246.47	47.65	-48.7	-60.1	3.8	7.47e-01	0	40	104	251658240	67	14631
2026-01-21 03:01:05.13	246.08	47.33	-50.8	-62.6	3.8	7.42e-01	0	39	104	251658240	73	13771
2026-01-21 03:01:06.14	245.70	47.00	-50.3	-61.8	3.8	7.42e-01	0	40	104	251658240	72	13332
2026-01-21 03:01:07.14	245.33	46.69	-48.4	-59.1	3.8	7.41e-01	0	40	104	251658240	68	12365
2026-01-21 03:01:08.15	244.97	46.37	-45.7	-56.6	3.8	7.45e-01	0	40	104	251658240	63	12277
2026-01-21 03:01:09.16	244.61	46.05	-45.7	-56.9	3.8	7.42e-01	0	40	104	251658240	63	12731
2026-01-21 03:01:10.17	244.26	45.74	-45.9	-56.7	3.8	7.44e-01	0	40	104	251658240	63	12519
2026-01-21 03:01:11.18	243.92	45.42	-50.3	-62.3	3.8	7.45e-01	0	40	104	251658240	72	14106
2026-01-21 03:01:12.19	243.59	45.11	-49.0	-60.4	3.8	7.46e-01	0	40	104	251658240	70	12672
2026-01-21 03:01:13.19	243.26	44.80	-48.7	-59.5	3.8	7.46e-01	0	40	104	251658240	68	12911
2026-01-21 03:01:14.20	242.94	44.49	-49.9	-61.4	3.9	7.40e-01	0	40	104	251658240	72	12777
2026-01-21 03:01:15.21	242.62	44.18	-48.6	-59.8	3.8	7.41e-01	0	40	104	251658240	68	13366
2026-01-21 03:01:16.22	242.31	43.88	-46.2	-57.2	3.8	7.48e-01	0	40	104	251658240	64	12445
2026-01-21 03:01:17.22	242.01	43.57	-46.1	-57.0	3.8	7.45e-01	0	40	104	251658240	64	12106
2026-01-21 03:01:18.23	241.71	43.27	-45.6	-56.3	3.8	7.41e-01	0	40	104	251658240	63	11825
2026-01-21 03:01:19.24	241.42	42.97	-44.8	-55.4	3.8	7.43e-01	0	40	104	251658240	61	12073
2026-01-21 03:01:20.25	241.14	42.67	-45.9	-56.5	3.8	7.46e-01	0	40	104	251658240	63	12227
2026-01-21 03:01:21.26	240.85	42.37	-49.5	-60.7	3.8	7.45e-01	0	40	104	251658240	71	12515
2026-01-21 03:01:22.27	240.58	42.07	-47.9	-59.0	3.8	7.44e-01	0	40	104	251658240	68	12185
2026-01-21 03:01:23.27	240.31	41.78	-48.8	-60.0	3.8	7.45e-01	0	40	104	251658240	68	13685
2026-01-21 03:01:24.28	240.05	41.49	-46.4	-57.4	3.8	7.46e-01	0	39	104	251658240	64	12795
2026-01-21 03:01:25.29	239.78	41.20	-46.0	-57.1	3.8	7.44e-01	0	40	104	251658240	64	12337
2026-01-21 03:01:26.30	239.53	40.91	-45.8	-56.8	3.8	7.44e-01	0	40	104	251658240	63	12656
2026-01-21 03:01:27.31	239.28	40.62	-46.0	-56.9	3.8	7.39e-01	0	40	104	251658240	64	11968
2026-01-21 03:01:28.31	239.03	40.34	-47.0	-57.7	3.8	7.46e-01	0	39	104	251658240	66	11788
2026-01-21 03:01:29.32	238.79	40.05	-50.8	-62.4	3.8	7.46e-01	0	40	104	251658240	73	13537
2026-01-21 03:01:30.33	238.55	39.77	-48.3	-59.2	3.8	7.43e-01	0	40	104	251658240	68	12419
2026-01-21 03:01:31.34	238.32	39.49	-48.5	-59.6	3.8	7.42e-01	0	40	104	251658240	69	12349
2026-01-21 03:01:32.35	238.09	39.21	-46.5	-57.4	3.8	7.46e-01	0	40	104	251658240	64	12692
2026-01-21 03:01:33.35	237.87	38.94	-46.3	-57.2	3.8	7.45e-01	0	40	104	251658240	64	12455
2026-01-21 03:01:34.36	237.64	38.66	-46.5	-57.4	3.8	7.44e-01	0	40	104	251658240	64	12702
2026-01-21 03:01:35.37	237.43	38.39	-47.2	-58.1	3.9	7.45e-01	0	40	104	251658240	66	12315
2026-01-21 03:01:36.38	237.21	38.12	-46.5	-57.3	3.8	7.41e-01	0	40	104	251658240	65	11833
2026-01-21 03:01:37.39	237.00	37.85	-50.5	-62.0	3.8	7.42e-01	0	39	104	251658240	73	12912
2026-01-21 03:01:38.39	236.80	37.58	-47.1	-57.8	3.8	7.45e-01	0	40	104	251658240	66	11943
2026-01-21 03:01:39.40	236.59	37.32	-47.9	-58.7	3.9	7.44e-01	0	39	104	251658240	67	12504
2026-01-21 03:01:40.41	236.39	37.06	-46.4	-57.3	3.8	7.46e-01	0	39	104	251658240	64	12584
2026-01-21 03:01:41.42	236.19	36.79	-46.3	-57.5	3.8	7.44e-01	0	40	104	251658240	64	12921
2026-01-21 03:01:42.42	236.00	36.54	-46.5	-57.6	3.9	7.49e-01	0	39	104	251658240	64	13064
2026-01-21 03:01:43.43	235.81	36.28	-46.6	-57.6	3.8	7.46e-01	0	40	104	251658240	65	12354
2026-01-21 03:01:44.44	235.63	36.02	-46.1	-57.0	3.8	7.45e-01	0	40	104	251658240	64	12178
2026-01-21 03:01:45.45	235.44	35.77	-49.6	-61.0	3.8	7.47e-01	0	39	104	251658240	70	13614
2026-01-21 03:01:46.46	235.26	35.51	-45.9	-56.6	3.9	7.44e-01	0	40	104	251658240	63	12286
2026-01-21 03:01:47.47	235.08	35.26	-47.3	-58.4	3.9	7.44e-01	0	40	104	251658240	66	12743
2026-01-21 03:01:48.47	234.91	35.01	-45.9	-56.7	3.8	7.46e-01	0	39	104	251658240	63	12516
2026-01-21 03:01:49.48	234.73	34.77	-46.0	-56.9	3.8	7.46e-01	0	40	104	251658240	63	12772
2026-01-21 03:01:50.49	234.56	34.52	-45.3	-56.1	3.8	7.45e-01	0	39	104	251658240	62	12255
2026-01-21 03:01:51.50	234.40	34.28	-45.2	-55.9	3.8	7.44e-01	0	39	104	251658240	62	12042
2026-01-21 03:01:52.51	234.23	34.03	-45.6	-56.2	3.8	7.47e-01	0	39	104	251658240	62	12420
2026-01-21 03:01:53.51	234.07	33.80	-49.2	-60.5	3.8	7.43e-01	0	39	104	251658240	70	12874
2026-01-21 03:01:54.52	233.91	33.56	-45.1	-56.0	3.9	7.43e-01	0	40	104	251658240	62	12104
2026-01-21 03:01:55.53	233.75	33.32	-46.0	-57.0	3.8	7.42e-01	0	39	104	251658240	64	12106
2026-01-21 03:01:56.53	233.60	33.09	-45.0	-55.8	3.8	7.48e-01	0	39	104	251658240	61	12647
2026-01-21 03:01:57.54	233.45	32.85	-44.8	-55.4	3.8	7.43e-01	0	39	104	251658240	61	12012
2026-01-21 03:01:58.55	233.30	32.62	-44.7	-55.2	3.8	7.44e-01	0	40	104	251658240	61	11779
2026-01-21 03:01:59.56	233.15	32.39	-45.9	-56.6	3.8	7.45e-01	0	40	104	251658240	62	13027
2026-01-21 03:02:00.56	233.00	32.16	-45.9	-56.7	3.8	7.42e-01	0	39	104	251658240	62	13192
2026-01-21 03:02:01.57	232.86	31.94	-49.7	-60.9	3.8	7.45e-01	0	39	104	251658240	69	14262
2026-01-21 03:02:02.58	232.72	31.71	-44.3	-54.7	3.8	7.49e-01	0	39	104	251658240	60	11746
2026-01-21 03:02:03.59	232.58	31.49	-44.4	-54.7	3.8	7.46e-01	0	39	104	251658240	60	11741
2026-01-21 03:02:04.60	232.44	31.26	-44.2	-54.9	3.8	7.40e-01	0	39	104	251658240	60	12014
2026-01-21 03:02:05.61	232.30	31.04	-44.0	-54.7	3.8	7.43e-01	0	39	104	251658240	60	11811
2026-01-21 03:02:06.62	232.17	30.82	-44.9	-55.7	3.8	7.44e-01	0	39	104	251658240	60	13127
2026-01-21 03:02:07.63	232.04	30.61	-44.7	-55.3	3.8	7.43e-01	0	39	104	251658240	60	12644
2026-01-21 03:02:08.63	231.91	30.39	-46.7	-57.5	3.8	7.44e-01	0	39	104	251658240	63	13683
2026-01-21 03:02:09.64	231.78	30.18	-48.4	-59.6	3.8	7.44e-01	0	39	104	251658240	68	12960
2026-01-21 03:02:10.65	231.65	29.96	-45.8	-56.5	3.8	7.43e-01	0	39	104	251658240	61	13713
2026-01-21 03:02:11.66	231.53	29.75	-44.9	-55.8	3.8	7.47e-01	0	39	104	251658240	61	12547
2026-01-21 03:02:12.66	231.41	29.55	-44.3	-55.2	3.8	7.45e-01	0	39	104	251658240	60	12476
2026-01-21 03:02:13.67	231.28	29.34	-44.3	-55.1	3.8	7.44e-01	0	39	104	251658240	60	12249
2026-01-21 03:02:14.68	231.16	29.13	-45.1	-55.9	3.8	7.44e-01	0	39	104	251658240	60	13458
2026-01-21 03:02:15.69	231.05	28.92	-46.9	-57.9	3.8	7.44e-01	0	39	104	251658240	64	13415
2026-01-21 03:02:16.70	230.93	28.72	-47.1	-57.9	3.8	7.44e-01	0	39	104	251658240	64	13465
2026-01-21 03:02:17.71	230.81	28.52	-50.9	-62.9	3.8	7.48e-01	0	39	104	251658240	72	15090
2026-01-21 03:02:18.72	230.70	28.32	-44.9	-55.5	3.8	7.47e-01	0	39	104	251658240	60	12912
2026-01-21 03:02:19.73	230.59	28.12	-44.5	-55.2	3.8	7.46e-01	0	39	104	251658240	61	11810
2026-01-21 03:02:20.73	230.48	27.92	-44.9	-55.5	3.9	7.47e-01	0	39	104	251658240	61	12231
2026-01-21 03:02:21.74	230.37	27.72	-44.7	-55.4	3.8	7.46e-01	0	39	104	251658240	61	12030
2026-01-21 03:02:22.75	230.26	27.53	-45.0	-55.7	3.8	7.42e-01	0	39	104	251658240	60	13152
2026-01-21 03:02:23.76	230.16	27.34	-46.7	-57.4	3.8	7.42e-01	0	39	104	251658240	63	13484
2026-01-21 03:02:24.77	230.05	27.14	-51.3	-63.3	3.8	7.48e-01	0	39	104	251658240	72	15852
2026-01-21 03:02:25.78	229.95	26.95	-49.3	-61.0	3.8	7.47e-01	0	39	104	251658240	69	14532
2026-01-21 03:02:26.79	229.84	26.76	-47.1	-58.0	3.8	7.43e-01	0	39	104	251658240	64	13653
2026-01-21 03:02:27.80	229.74	26.57	-45.2	-55.9	3.9	7.42e-01	0	39	104	251658240	62	12039
2026-01-21 03:02:28.81	229.64	26.39	-44.8	-55.6	3.8	7.45e-01	0	39	104	251658240	61	12280
2026-01-21 03:02:29.81	229.55	26.20	-44.7	-55.4	3.8	7.46e-01	0	39	104	251658240	61	12005
2026-01-21 03:02:30.83	229.45	26.01	-45.0	-55.7	3.8	7.46e-01	0	39	104	251658240	61	12402
2026-01-21 03:02:31.83	229.35	25.83	-46.8	-57.7	3.8	7.42e-01	0	39	104	251658240	64	13171
2026-01-21 03:02:32.84	229.26	25.65	-52.3	-65.3	3.8	7.43e-01	0	39	104	251658240	75	16739
2026-01-21 03:02:33.85	229.16	25.47	-49.5	-60.8	3.8	7.46e-01	0	39	104	251658240	69	14150
2026-01-21 03:02:34.86	229.07	25.29	-48.0	-59.0	3.8	7.44e-01	0	39	104	251658240	66	13575
2026-01-21 03:02:35.87	228.98	25.11	-45.2	-55.9	3.8	7.43e-01	0	39	104	251658240	62	11966
2026-01-21 03:02:36.88	228.89	24.93	-44.9	-55.6	3.8	7.43e-01	0	39	104	251658240	61	12337
2026-01-21 03:02:37.89	228.80	24.76	-44.7	-55.5	3.8	7.49e-01	0	39	104	251658240	61	12127
2026-01-21 03:02:38.90	228.71	24.58	-46.4	-57.3	3.8	7.44e-01	0	39	104	251658240	63	13346
2026-01-21 03:02:39.91	228.63	24.41	-47.5	-58.5	3.8	7.46e-01	0	39	104	251658240	65	13709
2026-01-21 03:02:40.92	228.54	24.24	-52.4	-65.4	3.8	7.49e-01	0	39	104	251658240	75	16938
2026-01-21 03:02:41.93	228.45	24.06	-49.5	-61.0	3.8	7.44e-01	0	39	104	251658240	69	14383
2026-01-21 03:02:42.93	228.37	23.90	-48.1	-59.3	3.8	7.45e-01	0	39	104	251658240	66	14070
2026-01-21 03:02:43.94	228.29	23.73	-45.2	-56.0	3.8	7.43e-01	0	39	104	251658240	62	12224
2026-01-21 03:02:44.95	228.21	23.56	-45.4	-56.2	3.8	7.47e-01	0	39	104	251658240	62	12460
2026-01-21 03:02:45.96	228.12	23.39	-45.1	-55.9	3.8	7.46e-01	0	39	104	251658240	62	12082
2026-01-21 03:02:46.97	228.04	23.23	-45.1	-55.9	3.8	7.45e-01	0	39	104	251658240	61	12729
2026-01-21 03:02:47.98	227.96	23.06	-48.5	-59.7	3.8	7.46e-01	0	39	104	251658240	67	13927
2026-01-21 03:02:48.99	227.89	22.90	-49.8	-61.4	3.8	7.44e-01	0	39	104	251658240	70	14334
2026-01-21 03:02:49.99	227.81	22.74	-52.6	-65.7	3.8	7.45e-01	0	39	104	251658240	75	17545
2026-01-21 03:02:51.00	227.73	22.58	-47.9	-58.9	3.8	7.44e-01	0	39	104	251658240	66	13442
2026-01-21 03:02:52.01	227.66	22.41	-45.4	-56.1	3.8	7.43e-01	0	39	104	251658240	62	12301
2026-01-21 03:02:53.02	227.58	22.26	-45.2	-55.9	3.8	7.44e-01	0	39	104	251658240	62	12047
2026-01-21 03:02:54.03	227.51	22.10	-45.1	-55.8	3.8	7.47e-01	0	39	104	251658240	62	11887
2026-01-21 03:02:55.04	227.43	21.94	-45.9	-56.8	3.8	7.45e-01	0	39	104	251658240	62	13283
2026-01-21 03:02:56.04	227.36	21.78	-47.4	-58.6	3.8	7.42e-01	0	39	104	251658240	66	13015
2026-01-21 03:02:57.06	227.29	21.63	-52.1	-65.3	3.9	7.42e-01	0	39	104	251658240	76	15771
2026-01-21 03:02:58.06	227.22	21.47	-48.8	-60.4	3.8	7.44e-01	0	39	104	251658240	69	13424
2026-01-21 03:02:59.07	227.15	21.32	-48.0	-59.4	3.8	7.43e-01	0	39	104	251658240	67	13430
2026-01-21 03:03:00.08	227.08	21.17	-45.3	-56.2	3.8	7.44e-01	0	39	104	251658240	62	12453
2026-01-21 03:03:01.09	227.01	21.02	-45.0	-55.9	3.8	7.44e-01	0	39	104	251658240	62	11988
2026-01-21 03:03:02.10	226.94	20.87	-44.9	-55.6	3.8	7.47e-01	0	39	104	251658240	61	12355
2026-01-21 03:03:03.11	226.88	20.72	-46.2	-56.9	3.8	7.49e-01	0	39	104	251658240	63	12794
2026-01-21 03:03:04.11	226.81	20.57	-47.2	-58.2	3.8	7.43e-01	0	39	104	251658240	65	13216
2026-01-21 03:03:05.12	226.74	20.42	-52.1	-64.9	3.9	7.46e-01	0	39	104	251658240	76	15189
2026-01-21 03:03:06.13	226.68	20.27	-48.6	-59.8	3.8	7.46e-01	0	39	104	251658240	69	12546
2026-01-21 03:03:07.14	226.61	20.13	-47.9	-58.9	3.8	7.46e-01	0	39	104	251658240	67	12722
2026-01-21 03:03:08.15	226.55	19.98	-45.2	-55.8	3.8	7.45e-01	0	39	104	251658240	62	11890
2026-01-21 03:03:09.16	226.49	19.84	-45.1	-55.8	3.8	7.44e-01	0	39	104	251658240	62	11937
2026-01-21 03:03:10.16	226.43	19.70	-45.1	-55.9	3.8	7.45e-01	0	39	104	251658240	62	11977
2026-01-21 03:03:11.17	226.36	19.55	-45.3	-56.1	3.9	7.46e-01	0	39	104	251658240	62	12352
2026-01-21 03:03:12.18	226.30	19.41	-46.1	-57.1	3.9	7.47e-01	0	39	104	251658240	64	12262
2026-01-21 03:03:13.19	226.24	19.27	-51.3	-63.7	3.9	7.47e-01	0	39	104	251658240	74	14756
2026-01-21 03:03:14.20	226.18	19.13	-47.6	-58.6	3.9	7.45e-01	0	39	104	251658240	67	12361
2026-01-21 03:03:15.21	226.12	18.99	-47.4	-58.5	3.8	7.44e-01	0	39	104	251658240	66	12830
2026-01-21 03:03:16.22	226.06	18.85	-45.2	-55.9	3.8	7.47e-01	0	39	104	251658240	62	11981
2026-01-21 03:03:17.23	226.01	18.72	-45.1	-55.9	3.8	7.44e-01	0	39	104	251658240	62	12012
2026-01-21 03:03:18.24	225.95	18.58	-44.8	-55.5	3.8	7.45e-01	0	39	104	251658240	61	12211
2026-01-21 03:03:19.24	225.89	18.45	-44.9	-55.7	3.8	7.43e-01	0	39	104	251658240	61	12382
2026-01-21 03:03:20.25	225.84	18.31	-45.9	-56.6	3.8	7.46e-01	0	39	104	251658240	63	12343
2026-01-21 03:03:21.26	225.78	18.18	-48.2	-59.3	3.7	7.46e-01	0	39	104	251658240	68	12640
2026-01-21 03:03:22.27	225.72	18.04	-48.1	-59.3	3.8	7.45e-01	0	39	104	251658240	68	12638
2026-01-21 03:03:23.28	225.67	17.91	-46.4	-57.0	3.9	7.39e-01	0	39	104	251658240	64	12224
2026-01-21 03:03:24.28	225.62	17.78	-44.2	-45.3	16.3	6.02e-01	1	39	104	251658240	60	3971
2026-01-21 03:03:25.29	225.56	17.65	-44.2	-45.4	25.8	6.03e-01	0	39	0	252706816	60	4017
2026-01-21 03:03:26.30	225.51	17.52	-44.4	-45.5	26.0	6.02e-01	0	39	0	254803968	60	4081
2026-01-21 03:03:27.31	225.46	17.39	-44.3	-45.4	26.1	6.03e-01	0	39	0	256376832	60	4049
2026-01-21 03:03:28.32	225.40	17.26	-44.2	-45.3	26.3	6.04e-01	0	39	0	258473984	60	3998
2026-01-21 03:03:29.33	225.35	17.13	-44.3	-45.4	26.2	6.02e-01	0	39	0	260046848	60	4041
2026-01-21 03:03:30.34	225.30	17.00	-44.1	-45.2	26.4	6.02e-01	0	39	0	262144000	60	3955
2026-01-21 03:03:31.35	225.25	16.87	-44.1	-45.3	26.3	6.04e-01	0	39	0	264241152	60	3974
2026-01-21 03:03:32.36	225.20	16.75	-44.1	-45.3	26.3	6.00e-01	0	39	0	266338304	60	3974
2026-01-21 03:03:33.37	225.15	16.62	-44.2	-45.3	26.2	6.04e-01	0	39	0	267911168	60	3997
2026-01-21 03:03:34.38	225.10	16.50	-44.2	-45.3	26.2	6.05e-01	0	39	0	270008320	60	3995
2026-01-21 03:03:35.39	225.05	16.37	-44.2	-45.3	26.3	6.03e-01	0	39	0	271581184	60	3993
2026-01-21 03:03:36.39	225.00	16.25	-44.2	-45.4	26.2	6.02e-01	0	39	0	273678336	60	4017
2026-01-21 03:03:37.40	224.96	16.13	-44.2	-45.4	26.2	6.01e-01	0	39	0	275251200	60	4031
2026-01-21 03:03:38.41	224.91	16.01	-44.2	-45.3	26.3	6.03e-01	0	39	0	277348352	60	3982
2026-01-21 03:03:39.42	224.86	15.88	-44.2	-45.4	26.2	6.01e-01	0	39	0	279445504	60	4019
2026-01-21 03:03:40.43	224.82	15.76	-44.2	-45.4	26.2	6.03e-01	0	39	0	281018368	60	4027
2026-01-21 03:03:41.43	224.77	15.64	-44.3	-45.5	26.1	6.04e-01	0	39	0	283115520	60	4056
2026-01-21 03:03:42.44	224.72	15.52	-44.2	-45.4	26.2	6.05e-01	0	39	0	284688384	60	4025
2026-01-21 03:03:43.45	224.68	15.40	-44.3	-45.5	26.1	6.03e-01	0	39	0	286785536	60	4061
2026-01-21 03:03:44.46	224.63	15.29	-44.3	-45.5	26.1	6.05e-01	0	39	0	288882688	60	4073
2026-01-21 03:03:45.46	224.59	15.17	-44.4	-45.6	26.1	6.02e-01	0	39	0	290455552	60	4106
2026-01-21 03:03:46.47	224.55	15.05	-44.4	-45.5	26.1	6.02e-01	0	39	0	292552704	60	4087
2026-01-21 03:03:47.48	224.50	14.94	-44.4	-45.5	26.0	6.01e-01	0	39	0	294649856	60	4088
2026-01-21 03:03:48.49	224.46	14.82	-44.5	-45.7	25.9	6.02e-01	0	39	0	296222720	60	4146
2026-01-21 03:03:49.50	224.42	14.70	-44.4	-45.5	26.0	6.04e-01	0	39	0	298319872	60	4090
2026-01-21 03:03:50.51	224.37	14.59	-44.3	-45.4	26.1	6.03e-01	0	39	0	299892736	60	4032
2026-01-21 03:03:51.51	224.33	14.48	-44.3	-45.4	26.1	6.05e-01	0	39	0	301989888	60	4050
2026-01-21 03:03:52.52	224.29	14.36	-44.3	-45.4	26.1	6.05e-01	0	39	0	303562752	60	4032
2026-01-21 03:03:53.53	224.25	14.25	-44.3	-45.5	26.0	6.02e-01	0	39	0	305659904	60	4060
2026-01-21 03:03:54.53	224.21	14.14	-44.2	-45.4	26.1	6.03e-01	0	39	0	307757056	60	4030
2026-01-21 03:03:55.54	224.17	14.03	-44.3	-45.5	26.1	6.03e-01	0	39	0	309854208	60	4054
2026-01-21 03:03:56.55	224.13	13.91	-44.4	-45.6	25.9	6.03e-01	0	39	0	311427072	60	4122
2026-01-21 03:03:57.56	224.09	13.80	-44.4	-45.6	25.9	6.02e-01	0	39	0	313524224	60	4116
2026-01-21 03:03:58.56	224.05	13.69	-44.3	-45.5	26.0	6.05e-01	0	39	0	315097088	60	4069
2026-01-21 03:03:59.57	224.01	13.58	-44.4	-45.6	25.9	6.01e-01	0	39	0	317194240	60	4111
2026-01-21 03:04:00.58	223.97	13.48	-44.4	-45.6	25.9	6.04e-01	0	39	0	318767104	60	4106
2026-01-21 03:04:01.59	223.93	13.37	-44.5	-45.6	25.9	6.04e-01	0	39	0	320864256	60	4142
2026-01-21 03:04:02.59	223.89	13.26	-44.4	-45.6	25.9	6.03e-01	0	39	0	322961408	60	4115
2026-01-21 03:04:03.60	223.85	13.15	-44.4	-45.6	25.9	6.01e-01	0	39	0	324534272	60	4124
2026-01-21 03:04:04.61	223.82	13.04	-44.5	-45.6	25.8	6.04e-01	0	39	0	326631424	60	4142
2026-01-21 03:04:05.62	223.78	12.94	-44.4	-45.6	25.9	6.02e-01	0	39	0	328204288	60	4107
2026-01-21 03:04:06.63	223.74	12.83	-44.4	-45.6	25.9	6.03e-01	0	39	0	330301440	60	4109
2026-01-21 03:04:07.64	223.70	12.73	-44.4	-45.6	25.8	6.01e-01	0	39	0	331874304	60	4129
2026-01-21 03:04:08.65	223.67	12.62	-44.4	-45.6	25.8	6.03e-01	0	39	0	333971456	60	4109
2026-01-21 03:04:09.65	223.63	12.52	-44.4	-45.6	25.8	6.03e-01	0	39	0	336068608	60	4121
2026-01-21 03:04:10.66	223.60	12.41	-44.5	-45.7	25.8	6.04e-01	0	39	0	338165760	60	4147
2026-01-21 03:04:11.67	223.56	12.31	-44.4	-45.6	25.8	6.04e-01	0	39	0	339738624	60	4130
2026-01-21 03:04:12.68	223.52	12.21	-44.5	-45.7	25.7	6.03e-01	0	39	0	341835776	60	4169
2026-01-21 03:04:13.68	223.49	12.10	-44.4	-45.6	25.8	6.04e-01	0	39	0	343408640	60	4109
2026-01-21 03:04:14.69	223.46	12.00	-44.4	-45.6	25.9	6.02e-01	0	39	0	345505792	60	4123
2026-01-21 03:04:15.70	223.42	11.90	-44.4	-45.6	25.8	6.03e-01	0	39	0	347078656	60	4113
2026-01-21 03:04:16.71	223.39	11.80	-44.3	-45.4	26.0	6.02e-01	0	39	0	349175808	60	4043
2026-01-21 03:04:17.72	223.35	11.70	-44.4	-45.5	25.9	6.04e-01	0	39	0	351272960	60	4090
2026-01-21 03:04:18.73	223.32	11.60	-44.3	-45.5	25.9	6.03e-01	0	39	0	352845824	60	4052
2026-01-21 03:04:19.74	223.29	11.50	-44.5	-45.6	25.8	6.05e-01	0	39	0	354942976	60	4144
2026-01-21 03:04:20.74	223.25	11.40	-44.4	-45.6	25.8	6.03e-01	0	39	0	357040128	60	4134
2026-01-21 03:04:21.75	223.22	11.30	-44.4	-45.6	25.8	6.00e-01	0	39	0	358612992	60	4114
2026-01-21 03:04:22.76	223.19	11.20	-44.5	-45.7	25.8	6.03e-01	0	39	0	360710144	60	4162
2026-01-21 03:04:23.77	223.16	11.10	-44.4	-45.6	25.8	6.01e-01	0	39	0	362283008	60	4119
2026-01-21 03:04:24.78	223.12	11.00	-44.5	-45.7	25.7	6.03e-01	0	39	0	364380160	60	4173
2026-01-21 03:04:25.78	223.09	10.91	-44.5	-45.7	25.7	6.03e-01	0	39	0	366477312	60	4159
2026-01-21 03:04:26.79	223.06	10.81	-44.4	-45.6	25.8	6.01e-01	0	39	0	368050176	60	4129
2026-01-21 03:04:27.80	223.03	10.71	-44.5	-45.7	25.7	6.01e-01	0	39	0	370147328	60	4186
2026-01-21 03:04:28.80	223.00	10.62	-44.5	-45.6	25.7	6.04e-01	0	39	0	371720192	60	4145
2026-01-21 03:04:29.81	222.97	10.52	-44.7	-45.9	25.5	6.00e-01	0	39	0	373817344	60	4261
2026-01-21 03:04:30.82	222.94	10.43	-44.8	-46.0	25.4	6.02e-01	0	39	0	375390208	60	4331
2026-01-21 03:04:31.83	222.91	10.33	-44.6	-45.8	25.6	6.03e-01	0	39	0	377487360	60	4220
2026-01-21 03:04:32.84	222.88	10.24	-44.8	-46.0	25.4	6.04e-01	0	39	0	379584512	60	4327
2026-01-21 03:04:33.85	222.85	10.14	-45.0	-46.3	25.2	6.03e-01	0	39	0	381157376	60	4442
2026-01-21 03:04:34.86	222.82	10.05	-44.8	-46.0	25.4	6.01e-01	0	39	0	383254528	60	4323
2026-01-21 03:04:35.86	222.79	9.96	-44.7	-46.0	25.4	6.02e-01	0	39	0	385351680	60	4299
2026-01-21 03:04:36.87	222.76	9.86	-44.8	-46.0	25.4	6.04e-01	0	39	0	386924544	60	4307
2026-01-21 03:04:37.88	222.73	9.77	-44.8	-46.0	25.4	6.03e-01	0	39	0	389021696	60	4309
2026-01-21 03:04:38.88	222.70	9.68	-44.8	-46.1	25.3	6.03e-01	0	39	0	390594560	60	4360
2026-01-21 03:04:39.89	222.67	9.59	-44.8	-46.1	25.3	6.03e-01	0	39	0	392691712	60	4352
2026-01-21 03:04:40.90	222.64	9.50	-44.8	-46.1	25.3	6.02e-01	0	39	0	394788864	60	4361
2026-01-21 03:04:41.91	222.62	9.40	-44.9	-46.1	25.2	6.03e-01	0	39	0	396361728	60	4375
2026-01-21 03:04:42.92	222.59	9.31	-44.9	-46.2	25.2	6.04e-01	0	39	0	398458880	60	4396
2026-01-21 03:04:43.93	222.56	9.22	-44.8	-46.0	25.2	6.05e-01	0	39	0	400031744	60	4337
2026-01-21 03:04:44.93	222.53	9.13	-44.9	-46.1	25.2	6.02e-01	0	39	0	402128896	60	4377
2026-01-21 03:04:45.94	222.51	9.04	-44.9	-46.2	25.1	6.02e-01	0	39	0	403701760	60	4411
2026-01-21 03:04:46.95	222.48	8.95	-45.0	-46.2	25.1	6.01e-01	0	39	0	405798912	60	4439
2026-01-21 03:04:47.96	222.45	8.87	-45.1	-46.4	24.9	6.02e-01	0	39	0	407896064	60	4530
2026-01-21 03:04:48.96	222.43	8.78	-45.1	-46.4	24.9	6.04e-01	0	39	0	409468928	60	4509
2026-01-21 03:04:49.97	222.40	8.69	-45.1	-46.3	25.0	6.02e-01	0	39	0	411566080	61	4240
2026-01-21 03:04:50.98	222.37	8.60	-45.3	-46.6	24.8	6.04e-01	0	39	0	413663232	61	4352
2026-01-21 03:04:51.99	222.35	8.51	-45.0	-46.3	25.0	6.02e-01	0	39	0	415236096	61	4205
2026-01-21 03:04:53.00	222.32	8.43	-45.1	-46.4	24.9	6.03e-01	0	39	0	417333248	61	4243
2026-01-21 03:04:54.00	222.30	8.34	-45.1	-46.4	24.9	6.02e-01	0	39	0	418906112	61	4243
2026-01-21 03:04:55.01	222.27	8.25	-45.2	-46.5	24.8	6.02e-01	0	39	0	421003264	61	4317
2026-01-21 03:04:56.02	222.24	8.17	-45.1	-46.4	24.9	6.02e-01	0	39	0	423100416	61	4250
2026-01-21 03:04:57.03	222.22	8.08	-45.2	-46.5	24.8	6.04e-01	0	39	0	424673280	61	4307
2026-01-21 03:04:58.04	222.19	7.99	-45.3	-46.6	24.7	6.04e-01	0	39	0	426770432	61	4350
2026-01-21 03:04:59.04	222.17	7.91	-45.0	-46.3	25.0	6.01e-01	0	39	0	428867584	61	4223
2026-01-21 03:05:00.05	222.15	7.82	-45.1	-46.4	24.8	6.05e-01	0	39	0	430440448	61	4257
2026-01-21 03:05:01.06	222.12	7.74	-45.2	-46.5	24.7	6.04e-01	0	39	0	432537600	61	4321
2026-01-21 03:05:02.07	222.10	7.66	-45.2	-46.5	24.8	6.00e-01	0	39	0	434110464	61	4335
2026-01-21 03:05:03.08	222.07	7.57	-45.4	-46.7	24.5	6.05e-01	0	39	0	436207616	61	4424
2026-01-21 03:05:04.08	222.05	7.49	-45.4	-46.7	24.5	6.03e-01	0	39	0	437780480	61	4421
2026-01-21 03:05:05.09	222.03	7.40	-45.4	-46.8	24.5	6.04e-01	0	39	0	439877632	61	4442
