passes_logs/2026/01/21/R3.2S_Murmansk/R3.2S_Murmansk__20260121_100456_KANOPUS-V_5_rec.log

#Pass ID: 20260121_100456_KANOPUS-V 5
#Satellite: KANOPUS-V 5
#Configuration: KANOPUS-V_8320
#almurnet v.1.7.20251203
#Start time: 2026-01-21 10:04:57

#Version: 2.2.20231116
#Station: R3.2S_Murmansk
#Location: 33.079688 lon 68.888172 lat
#TLE: 1 43876U 18111A   26020.95068231  .00008875  00000+0  37477-3 0  9992
#TLE: 2 43876  97.3685 289.3573 0001812  87.5365 272.6080 15.23490286392370

#Time	Az	El	Level	Level2	SNR	BER	BlckErr	Temp	State	Recorded	gain1	gain2
2026-01-21 10:04:57.87	228.46	2.07	-55.3	-64.1	3.8	7.45e-01	0	38	0	0	81	10408
2026-01-21 10:04:58.88	228.58	2.13	-55.2	-64.1	3.8	7.45e-01	0	38	104	0	81	10404
2026-01-21 10:04:59.89	228.71	2.18	-55.2	-64.0	3.8	7.47e-01	0	38	104	0	81	10271
2026-01-21 10:05:00.90	228.83	2.23	-55.1	-64.0	3.8	7.45e-01	0	38	104	0	81	10248
2026-01-21 10:05:01.91	228.95	2.29	-55.1	-64.0	3.8	7.45e-01	0	39	104	0	81	10192
2026-01-21 10:05:02.91	229.08	2.34	-55.1	-63.9	3.8	7.45e-01	0	39	104	0	81	10131
2026-01-21 10:05:03.92	229.20	2.40	-55.0	-63.9	3.8	7.44e-01	0	38	104	0	81	10063
2026-01-21 10:05:04.93	229.33	2.45	-55.0	-63.8	3.8	7.46e-01	0	39	104	0	81	10054
2026-01-21 10:05:05.94	229.46	2.50	-54.9	-63.8	3.8	7.44e-01	0	39	104	0	81	9983
2026-01-21 10:05:06.95	229.59	2.56	-54.9	-63.7	3.8	7.44e-01	0	39	104	0	81	9912
2026-01-21 10:05:07.95	229.71	2.61	-54.8	-63.7	3.8	7.45e-01	0	39	104	0	81	9842
2026-01-21 10:05:08.96	229.84	2.67	-54.8	-63.6	3.8	7.45e-01	0	39	104	0	81	9747
2026-01-21 10:05:09.97	229.97	2.72	-54.7	-63.5	3.8	7.44e-01	0	39	104	0	81	9668
2026-01-21 10:05:10.98	230.10	2.78	-54.6	-63.4	3.8	7.47e-01	0	39	104	0	81	9593
2026-01-21 10:05:11.98	230.23	2.83	-54.5	-63.4	3.8	7.46e-01	0	39	104	0	81	9498
2026-01-21 10:05:12.99	230.36	2.89	-54.3	-63.1	3.8	7.45e-01	0	39	104	0	80	9810
2026-01-21 10:05:14.00	230.49	2.94	-54.0	-62.9	3.8	7.46e-01	0	39	104	0	80	9560
2026-01-21 10:05:15.01	230.63	3.00	-53.8	-62.6	3.8	7.45e-01	0	39	104	0	79	9798
2026-01-21 10:05:16.02	230.76	3.05	-53.7	-62.5	3.8	7.45e-01	0	39	104	0	79	9711
2026-01-21 10:05:17.02	230.89	3.10	-53.7	-62.5	3.8	7.45e-01	0	39	104	0	79	9673
2026-01-21 10:05:18.03	231.03	3.16	-53.7	-62.5	3.8	7.46e-01	0	39	104	0	79	9627
2026-01-21 10:05:19.04	231.16	3.21	-53.7	-62.5	3.8	7.45e-01	0	39	104	0	79	9648
2026-01-21 10:05:20.05	231.30	3.27	-53.7	-62.5	3.8	7.45e-01	0	39	104	0	79	9653
2026-01-21 10:05:21.06	231.43	3.32	-53.6	-62.5	3.8	7.46e-01	0	39	104	0	79	9659
2026-01-21 10:05:22.06	231.57	3.38	-53.7	-62.5	3.8	7.44e-01	0	39	104	0	79	9642
2026-01-21 10:05:23.07	231.71	3.43	-53.6	-62.5	3.8	7.44e-01	0	39	104	0	79	9658
2026-01-21 10:05:24.08	231.85	3.49	-53.6	-62.5	3.8	7.44e-01	0	39	104	0	79	9642
2026-01-21 10:05:25.09	231.98	3.54	-53.6	-62.5	3.8	7.45e-01	0	39	104	0	79	9630
2026-01-21 10:05:26.09	232.12	3.60	-53.6	-62.5	3.8	7.44e-01	0	39	104	0	79	9611
2026-01-21 10:05:27.10	232.26	3.65	-53.6	-62.4	3.8	7.46e-01	0	39	104	0	79	9548
2026-01-21 10:05:28.11	232.40	3.71	-53.6	-62.5	3.8	7.44e-01	0	39	104	0	79	9611
2026-01-21 10:05:29.12	232.54	3.76	-53.6	-62.4	3.8	7.43e-01	0	39	104	0	79	9584
2026-01-21 10:05:30.12	232.69	3.82	-53.6	-62.4	3.8	7.46e-01	0	39	104	0	79	9597
2026-01-21 10:05:31.13	232.83	3.87	-53.6	-62.5	3.8	7.46e-01	0	39	104	0	79	9620
2026-01-21 10:05:32.14	232.97	3.93	-53.6	-62.4	3.8	7.45e-01	0	39	104	0	79	9598
2026-01-21 10:05:33.15	233.12	3.98	-53.6	-62.5	3.8	7.45e-01	0	39	104	0	79	9619
2026-01-21 10:05:34.16	233.26	4.04	-53.6	-62.4	3.8	7.45e-01	0	39	104	0	79	9586
2026-01-21 10:05:35.17	233.41	4.10	-53.6	-62.4	3.8	7.45e-01	0	39	104	0	79	9560
2026-01-21 10:05:36.17	233.55	4.15	-53.6	-62.4	3.8	7.44e-01	0	39	104	0	79	9574
2026-01-21 10:05:37.18	233.70	4.21	-53.6	-62.4	3.8	7.45e-01	0	39	104	0	79	9585
2026-01-21 10:05:38.19	233.84	4.26	-53.6	-62.4	3.8	7.44e-01	0	39	104	0	79	9570
2026-01-21 10:05:39.20	233.99	4.32	-53.6	-62.4	3.8	7.46e-01	0	39	104	0	79	9535
2026-01-21 10:05:40.21	234.14	4.37	-53.6	-62.4	3.8	7.45e-01	0	39	104	0	79	9584
2026-01-21 10:05:41.21	234.29	4.43	-53.6	-62.4	3.8	7.45e-01	0	39	104	0	79	9570
2026-01-21 10:05:42.22	234.44	4.48	-53.6	-62.3	3.8	7.43e-01	0	39	104	0	79	9438
2026-01-21 10:05:43.23	234.59	4.54	-53.5	-62.0	3.8	7.46e-01	0	39	104	0	79	9148
2026-01-21 10:05:44.23	234.74	4.59	-53.4	-61.8	3.8	7.45e-01	0	39	104	0	78	9451
2026-01-21 10:05:45.24	234.89	4.65	-53.4	-61.7	3.8	7.45e-01	0	39	104	0	78	9289
2026-01-21 10:05:46.25	235.05	4.71	-52.9	-60.0	3.8	7.43e-01	0	39	104	0	77	8143
2026-01-21 10:05:47.26	235.20	4.76	-51.1	-55.8	5.7	6.86e-01	0	39	0	4194304	74	5928
2026-01-21 10:05:48.27	235.35	4.82	-49.0	-52.2	8.8	6.30e-01	0	39	0	20971520	70	4983
2026-01-21 10:05:49.28	235.51	4.87	-47.4	-50.2	11.0	6.10e-01	0	40	0	35651584	66	4968
2026-01-21 10:05:50.29	235.67	4.93	-46.0	-48.5	12.5	6.04e-01	0	40	0	52428800	64	4585
2026-01-21 10:05:51.29	235.82	4.98	-45.8	-48.3	12.8	6.01e-01	0	40	0	67108864	63	4729
2026-01-21 10:05:52.30	235.98	5.04	-45.8	-48.3	12.8	6.00e-01	0	39	0	81788928	63	4740
2026-01-21 10:05:53.31	236.14	5.09	-45.1	-47.6	13.5	5.99e-01	0	39	0	98566144	62	4606
2026-01-21 10:05:54.31	236.29	5.15	-45.7	-48.2	12.9	6.03e-01	0	40	0	113246208	63	4683
2026-01-21 10:05:55.32	236.45	5.21	-48.8	-52.0	9.0	6.23e-01	0	40	0	127926272	69	5112
2026-01-21 10:05:56.33	236.61	5.26	-44.9	-47.5	13.1	6.00e-01	0	40	0	144703488	62	4555
2026-01-21 10:05:57.34	236.78	5.32	-51.6	-56.5	5.2	7.03e-01	0	40	0	159383552	75	6124
2026-01-21 10:05:58.35	236.94	5.37	-45.6	-48.1	13.0	6.02e-01	0	40	0	174063616	63	4617
2026-01-21 10:05:59.35	237.10	5.43	-45.4	-47.8	13.2	6.02e-01	0	39	0	190840832	62	4758
2026-01-21 10:06:00.36	237.26	5.48	-45.2	-47.6	13.4	6.02e-01	0	40	0	205520896	62	4643
2026-01-21 10:06:01.37	237.43	5.54	-44.8	-47.2	13.8	6.04e-01	0	40	0	220200960	61	4702
2026-01-21 10:06:02.37	237.59	5.59	-44.7	-47.1	13.9	6.02e-01	0	40	0	236978176	61	4639
2026-01-21 10:06:03.38	237.76	5.65	-44.8	-47.2	13.8	6.04e-01	0	40	0	253755392	61	4694
2026-01-21 10:06:04.39	237.92	5.71	-44.5	-46.9	14.1	5.97e-01	0	40	0	268435456	61	4531
2026-01-21 10:06:05.40	238.09	5.76	-44.4	-46.8	14.1	6.00e-01	0	40	0	283115520	60	4741
2026-01-21 10:06:06.41	238.26	5.82	-44.4	-46.9	14.1	6.01e-01	0	40	0	299892736	60	4777
2026-01-21 10:06:07.42	238.43	5.87	-44.8	-47.3	13.7	6.00e-01	0	40	0	314572800	60	4994
2026-01-21 10:06:08.42	238.60	5.93	-45.0	-47.5	13.5	6.02e-01	0	40	0	329252864	60	5150
2026-01-21 10:06:09.43	238.77	5.98	-44.4	-46.9	14.1	6.00e-01	0	40	0	346030080	60	4814
2026-01-21 10:06:10.44	238.94	6.04	-44.7	-47.3	13.8	5.98e-01	0	40	0	360710144	60	4997
2026-01-21 10:06:11.45	239.11	6.09	-44.6	-47.2	13.9	5.98e-01	0	40	0	375390208	60	4942
2026-01-21 10:06:12.46	239.28	6.15	-44.6	-47.2	13.9	5.98e-01	0	40	0	392167424	60	4930
2026-01-21 10:06:13.46	239.45	6.20	-44.6	-47.3	13.8	5.97e-01	0	40	0	406847488	60	4989
2026-01-21 10:06:14.47	239.63	6.26	-44.5	-47.1	14.0	5.96e-01	0	40	0	423624704	60	4918
2026-01-21 10:06:15.48	239.80	6.32	-44.4	-47.0	14.0	6.00e-01	0	40	0	438304768	60	4857
2026-01-21 10:06:16.49	239.98	6.37	-44.5	-47.1	14.0	6.00e-01	0	40	0	455081984	60	4879
2026-01-21 10:06:17.50	240.16	6.43	-44.4	-46.9	14.1	5.98e-01	0	40	0	469762048	60	4800
2026-01-21 10:06:18.51	240.34	6.48	-44.2	-46.7	14.3	6.00e-01	0	40	0	484442112	60	4679
2026-01-21 10:06:19.52	240.51	6.54	-44.2	-46.7	14.3	6.02e-01	0	40	0	501219328	60	4695
2026-01-21 10:06:20.52	240.69	6.59	-44.2	-46.8	14.3	6.00e-01	0	40	0	515899392	60	4715
2026-01-21 10:06:21.54	240.87	6.65	-44.2	-46.8	14.3	5.99e-01	0	40	0	530579456	60	4714
2026-01-21 10:06:22.54	241.05	6.70	-44.5	-47.0	14.1	5.98e-01	0	40	0	547356672	60	4863
2026-01-21 10:06:23.55	241.24	6.76	-44.4	-47.0	14.2	6.00e-01	0	40	0	562036736	60	4824
2026-01-21 10:06:24.56	241.42	6.81	-44.3	-46.8	14.3	5.97e-01	0	40	0	576716800	60	4722
2026-01-21 10:06:25.57	241.60	6.87	-44.4	-46.9	14.2	6.00e-01	0	40	0	593494016	60	4781
2026-01-21 10:06:26.58	241.79	6.92	-44.5	-46.9	14.2	5.99e-01	0	40	0	610271232	60	4774
2026-01-21 10:06:27.59	241.97	6.98	-44.2	-46.7	14.5	5.98e-01	0	40	0	624951296	60	4662
2026-01-21 10:06:28.60	242.16	7.03	-44.2	-46.7	14.4	6.00e-01	0	40	0	639631360	60	4672
2026-01-21 10:06:29.61	242.35	7.09	-44.1	-46.6	14.5	6.00e-01	0	40	0	656408576	60	4625
2026-01-21 10:06:30.62	242.53	7.14	-44.4	-47.0	14.2	5.97e-01	0	40	0	671088640	60	4820
2026-01-21 10:06:31.63	242.72	7.20	-44.2	-46.7	14.5	5.97e-01	0	40	0	685768704	60	4672
2026-01-21 10:06:32.63	242.91	7.25	-44.3	-46.7	14.4	5.99e-01	0	40	0	702545920	60	4691
2026-01-21 10:06:33.64	243.10	7.30	-44.0	-46.4	14.7	6.01e-01	0	40	0	717225984	60	4537
2026-01-21 10:06:34.65	243.29	7.36	-44.0	-46.4	14.7	5.97e-01	0	40	0	731906048	59	4790
2026-01-21 10:06:35.66	243.48	7.41	-43.9	-46.3	14.8	5.97e-01	0	40	0	746586112	59	4719
2026-01-21 10:06:36.66	243.68	7.47	-43.8	-46.1	14.9	5.97e-01	0	40	0	763363328	59	4646
2026-01-21 10:06:37.67	243.87	7.52	-43.9	-46.2	14.8	5.96e-01	0	40	0	780140544	59	4695
2026-01-21 10:06:38.68	244.06	7.58	-43.7	-46.0	15.0	5.97e-01	0	40	0	794820608	59	4576
2026-01-21 10:06:39.69	244.26	7.63	-43.7	-46.0	15.0	6.00e-01	0	40	0	811597824	59	4591
2026-01-21 10:06:40.70	244.46	7.68	-43.9	-46.2	14.9	5.98e-01	0	40	0	826277888	59	4689
2026-01-21 10:06:41.70	244.65	7.74	-43.7	-46.1	15.0	5.99e-01	0	40	0	840957952	59	4610
2026-01-21 10:06:42.71	244.85	7.79	-43.5	-45.9	15.1	5.97e-01	0	40	0	857735168	59	4514
2026-01-21 10:06:43.72	245.05	7.84	-43.7	-46.0	15.1	5.96e-01	0	40	0	872415232	59	4559
2026-01-21 10:06:44.73	245.25	7.90	-43.3	-45.6	15.3	5.98e-01	0	40	0	887095296	58	4641
2026-01-21 10:06:45.74	245.45	7.95	-43.5	-45.8	15.2	6.01e-01	0	40	0	901775360	58	4750
2026-01-21 10:06:46.75	245.65	8.00	-43.7	-46.0	15.0	6.01e-01	0	40	0	918552576	58	4861
2026-01-21 10:06:47.75	245.85	8.06	-43.7	-46.1	15.0	6.02e-01	0	40	0	933232640	58	4873
2026-01-21 10:06:48.76	246.06	8.11	-43.7	-46.1	14.9	5.98e-01	0	40	0	947912704	58	4906
2026-01-21 10:06:49.77	246.26	8.16	-43.8	-46.3	14.8	6.01e-01	0	40	0	966787072	58	4986
2026-01-21 10:06:50.78	246.47	8.22	-43.6	-46.0	15.1	6.01e-01	0	40	0	981467136	58	4842
2026-01-21 10:06:51.78	246.67	8.27	-43.9	-46.3	14.8	6.02e-01	0	40	0	996147200	58	5028
2026-01-21 10:06:52.79	246.88	8.32	-43.7	-46.2	14.9	5.98e-01	0	40	0	1010827264	58	4953
2026-01-21 10:06:53.80	247.09	8.37	-43.5	-46.0	15.0	5.99e-01	0	40	0	1027604480	58	4838
2026-01-21 10:06:54.81	247.30	8.43	-43.7	-46.3	14.8	5.98e-01	0	40	0	1042284544	58	4995
2026-01-21 10:06:55.82	247.51	8.48	-43.6	-46.2	14.8	6.04e-01	0	40	0	1056964608	58	4970
2026-01-21 10:06:56.82	247.72	8.53	-43.6	-46.2	14.9	5.99e-01	0	40	0	1073741824	58	4946
2026-01-21 10:06:57.83	247.93	8.58	-43.7	-46.3	14.9	6.01e-01	0	40	0	1088421888	58	4991
2026-01-21 10:06:58.84	248.14	8.63	-43.7	-46.3	14.8	6.00e-01	0	40	0	1103101952	58	4996
2026-01-21 10:06:59.85	248.36	8.69	-43.5	-46.2	14.9	5.97e-01	0	40	0	1119879168	58	4938
2026-01-21 10:07:00.86	248.57	8.74	-43.7	-46.4	14.8	5.97e-01	0	40	0	1134559232	58	5049
2026-01-21 10:07:01.86	248.78	8.79	-43.6	-46.2	14.9	5.99e-01	0	40	0	1149239296	58	4975
2026-01-21 10:07:02.87	249.00	8.84	-43.5	-46.1	15.1	5.97e-01	0	40	0	1166016512	58	4874
2026-01-21 10:07:03.88	249.22	8.89	-43.5	-46.0	15.1	6.01e-01	0	40	0	1182793728	58	4850
2026-01-21 10:07:04.89	249.44	8.94	-43.5	-46.0	15.1	6.00e-01	0	40	0	1197473792	58	4848
2026-01-21 10:07:05.90	249.66	8.99	-43.5	-46.0	15.1	6.01e-01	0	40	0	1212153856	58	4868
2026-01-21 10:07:06.90	249.87	9.04	-43.5	-46.0	15.0	6.02e-01	0	40	0	1228931072	58	4870
2026-01-21 10:07:07.91	250.10	9.09	-43.5	-46.1	15.0	6.00e-01	0	40	0	1243611136	58	4872
2026-01-21 10:07:08.92	250.32	9.14	-43.3	-45.9	15.2	6.02e-01	0	40	0	1258291200	58	4769
2026-01-21 10:07:09.93	250.54	9.19	-43.6	-46.2	15.0	6.01e-01	0	40	0	1275068416	58	4935
2026-01-21 10:07:10.94	250.76	9.24	-43.6	-46.2	15.0	6.04e-01	0	40	0	1289748480	58	4946
2026-01-21 10:07:11.94	250.99	9.29	-43.8	-46.5	14.7	6.02e-01	0	40	0	1304428544	58	5136
2026-01-21 10:07:12.95	251.21	9.34	-43.5	-46.2	15.0	5.99e-01	0	40	0	1321205760	58	4928
2026-01-21 10:07:13.96	251.44	9.39	-43.6	-46.3	14.9	6.01e-01	0	40	0	1335885824	58	5017
2026-01-21 10:07:14.97	251.67	9.44	-43.4	-46.0	15.1	6.02e-01	0	40	0	1352663040	58	4825
2026-01-21 10:07:15.98	251.90	9.49	-43.1	-45.6	15.5	5.94e-01	0	40	0	1367343104	58	4607
2026-01-21 10:07:16.98	252.12	9.53	-43.1	-45.6	15.4	5.99e-01	0	40	0	1384120320	58	4618
2026-01-21 10:07:17.99	252.35	9.58	-43.0	-45.4	15.6	6.01e-01	0	40	0	1398800384	58	4517
2026-01-21 10:07:19.00	252.58	9.63	-43.0	-45.4	15.6	6.00e-01	0	40	0	1413480448	57	4794
2026-01-21 10:07:20.01	252.82	9.68	-42.9	-45.2	15.8	5.98e-01	0	40	0	1430257664	57	4671
2026-01-21 10:07:21.02	253.05	9.73	-43.0	-45.2	15.7	6.00e-01	0	40	0	1444937728	57	4671
2026-01-21 10:07:22.02	253.28	9.77	-42.9	-45.1	15.9	5.97e-01	0	40	0	1459617792	57	4622
2026-01-21 10:07:23.03	253.52	9.82	-42.8	-45.1	15.9	6.00e-01	0	40	0	1476395008	57	4629
2026-01-21 10:07:24.04	253.75	9.87	-42.9	-45.3	15.7	6.01e-01	0	40	0	1491075072	57	4728
2026-01-21 10:07:25.05	253.99	9.91	-43.0	-45.4	15.6	5.96e-01	0	40	0	1505755136	57	4796
2026-01-21 10:07:26.06	254.23	9.96	-42.8	-45.2	15.7	6.03e-01	0	40	0	1522532352	57	4703
2026-01-21 10:07:27.06	254.46	10.01	-43.1	-45.6	15.5	5.98e-01	0	40	0	1537212416	57	4876
2026-01-21 10:07:28.07	254.70	10.05	-43.1	-45.7	15.4	5.98e-01	0	40	0	1553989632	57	4938
2026-01-21 10:07:29.08	254.94	10.10	-43.3	-45.9	15.2	6.01e-01	0	40	0	1568669696	57	5081
2026-01-21 10:07:30.09	255.18	10.14	-43.2	-45.9	15.2	5.99e-01	0	40	0	1585446912	57	5071
2026-01-21 10:07:31.09	255.42	10.19	-43.3	-46.0	15.1	5.96e-01	0	40	0	1600126976	57	5123
2026-01-21 10:07:32.10	255.67	10.23	-43.1	-45.8	15.3	5.96e-01	0	40	0	1614807040	57	5010
2026-01-21 10:07:33.11	255.91	10.28	-43.0	-45.7	15.4	5.96e-01	0	41	0	1631584256	57	4966
2026-01-21 10:07:34.12	256.16	10.32	-43.2	-45.9	15.2	5.95e-01	0	40	0	1646264320	57	5078
2026-01-21 10:07:35.13	256.40	10.37	-43.1	-45.9	15.2	5.98e-01	0	40	0	1660944384	57	5081
2026-01-21 10:07:36.13	256.64	10.41	-43.1	-45.9	15.3	5.94e-01	0	40	0	1677721600	57	5049
2026-01-21 10:07:37.14	256.89	10.45	-43.1	-45.8	15.3	5.97e-01	0	40	0	1692401664	57	5030
2026-01-21 10:07:38.15	257.14	10.49	-43.2	-45.8	15.3	5.97e-01	0	40	0	1707081728	57	5009
2026-01-21 10:07:39.16	257.39	10.54	-43.2	-45.8	15.3	5.97e-01	0	40	0	1723858944	57	5006
2026-01-21 10:07:40.16	257.64	10.58	-43.3	-45.9	15.3	5.99e-01	0	40	0	1738539008	57	5055
2026-01-21 10:07:41.17	257.89	10.62	-43.2	-45.7	15.4	5.98e-01	0	40	0	1755316224	57	4962
2026-01-21 10:07:42.18	258.14	10.66	-43.1	-45.6	15.5	5.98e-01	0	40	0	1769996288	57	4888
2026-01-21 10:07:43.19	258.39	10.70	-43.1	-45.5	15.5	6.02e-01	0	40	0	1786773504	57	4855
2026-01-21 10:07:44.20	258.65	10.75	-42.9	-45.4	15.7	6.01e-01	0	40	0	1801453568	57	4763
2026-01-21 10:07:45.21	258.90	10.79	-42.9	-45.3	15.7	5.98e-01	0	40	0	1816133632	57	4755
2026-01-21 10:07:46.21	259.15	10.83	-43.0	-45.5	15.6	6.02e-01	0	40	0	1832910848	57	4828
2026-01-21 10:07:47.22	259.41	10.87	-42.9	-45.3	15.7	6.03e-01	0	40	0	1847590912	57	4744
2026-01-21 10:07:48.23	259.67	10.91	-43.0	-45.5	15.6	6.01e-01	0	40	0	1862270976	57	4841
2026-01-21 10:07:49.24	259.92	10.95	-42.9	-45.4	15.6	5.99e-01	0	40	0	1876951040	57	4792
2026-01-21 10:07:50.25	260.18	10.98	-43.0	-45.5	15.6	6.01e-01	0	40	0	1893728256	57	4824
2026-01-21 10:07:51.25	260.44	11.02	-43.0	-45.5	15.5	6.01e-01	0	40	0	1908408320	57	4846
2026-01-21 10:07:52.26	260.70	11.06	-43.1	-45.6	15.5	6.02e-01	0	40	0	1925185536	57	4877
2026-01-21 10:07:53.27	260.96	11.10	-43.1	-45.6	15.5	6.02e-01	0	40	0	1941962752	57	4923
2026-01-21 10:07:54.28	261.22	11.14	-43.3	-45.8	15.3	6.00e-01	0	40	0	1956642816	57	5012
2026-01-21 10:07:55.29	261.48	11.17	-43.3	-45.8	15.3	6.02e-01	0	40	0	1971322880	57	5036
2026-01-21 10:07:56.29	261.74	11.21	-43.3	-45.8	15.4	6.02e-01	0	40	0	1988100096	57	5005
2026-01-21 10:07:57.30	262.01	11.25	-43.2	-45.7	15.5	5.99e-01	0	40	0	2002780160	57	4940
2026-01-21 10:07:58.31	262.27	11.28	-43.2	-45.6	15.5	6.02e-01	0	40	0	2017460224	57	4880
2026-01-21 10:07:59.32	262.54	11.32	-43.0	-45.4	15.7	6.01e-01	0	40	0	2034237440	57	4786
2026-01-21 10:08:00.33	262.80	11.35	-43.0	-45.4	15.7	5.99e-01	0	40	0	2048917504	57	4782
2026-01-21 10:08:01.33	263.07	11.39	-43.0	-45.3	15.8	6.00e-01	0	40	0	2063597568	57	4731
2026-01-21 10:08:02.34	263.34	11.42	-43.0	-45.3	15.8	6.00e-01	0	40	0	2080374784	57	4740
2026-01-21 10:08:03.35	263.60	11.45	-43.0	-45.4	15.7	6.00e-01	0	40	0	2095054848	57	4793
2026-01-21 10:08:04.36	263.87	11.49	-43.1	-45.5	15.6	6.01e-01	0	40	0	2109734912	57	4869
2026-01-21 10:08:05.37	264.14	11.52	-43.1	-45.5	15.6	6.01e-01	0	40	0	2124414976	57	4842
2026-01-21 10:08:06.37	264.41	11.55	-43.1	-45.5	15.6	6.02e-01	0	40	0	2143289344	57	4825
2026-01-21 10:08:07.38	264.68	11.58	-43.3	-45.6	15.5	6.00e-01	0	40	0	2157969408	57	4915
2026-01-21 10:08:08.39	264.95	11.62	-42.9	-45.2	15.9	6.02e-01	0	40	0	2172649472	57	4676
2026-01-21 10:08:09.40	265.23	11.65	-42.8	-45.1	16.0	6.02e-01	0	40	0	2189426688	57	4606
2026-01-21 10:08:10.41	265.50	11.68	-42.7	-45.0	15.9	6.05e-01	0	40	0	2204106752	57	4595
2026-01-21 10:08:11.41	265.77	11.71	-42.7	-45.0	16.0	6.01e-01	0	40	0	2218786816	57	4580
2026-01-21 10:08:12.42	266.05	11.74	-42.9	-45.2	15.9	5.78e-01	0	40	0	2233466880	57	4687
2026-01-21 10:08:13.43	266.32	11.77	-42.9	-45.2	15.9	5.77e-01	0	40	0	2250244096	57	4689
2026-01-21 10:08:14.44	266.60	11.80	-42.7	-45.0	16.1	5.77e-01	0	40	0	2264924160	57	4589
2026-01-21 10:08:15.45	266.88	11.82	-42.8	-45.1	16.1	5.77e-01	0	40	0	2279604224	57	4600
2026-01-21 10:08:16.46	267.15	11.85	-42.8	-45.1	16.1	5.77e-01	0	40	0	2296381440	57	4605
2026-01-21 10:08:17.46	267.43	11.88	-42.7	-44.9	16.1	5.78e-01	0	40	0	2311061504	57	4529
2026-01-21 10:08:18.47	267.71	11.91	-42.7	-45.0	16.1	5.77e-01	0	40	0	2327838720	57	4558
2026-01-21 10:08:19.48	267.99	11.93	-42.8	-45.1	16.0	5.78e-01	0	40	0	2342518784	57	4630
2026-01-21 10:08:20.49	268.26	11.96	-42.7	-45.1	16.0	5.77e-01	0	40	0	2359296000	57	4634
2026-01-21 10:08:21.50	268.54	11.98	-42.8	-45.2	16.0	5.77e-01	0	40	0	2373976064	57	4653
2026-01-21 10:08:22.51	268.83	12.01	-42.6	-44.9	16.2	5.77e-01	0	40	0	2388656128	57	4505
2026-01-21 10:08:23.51	269.10	12.03	-44.1	-45.0	16.2	5.77e-01	0	40	0	2405433344	58	4306
2026-01-21 10:08:24.52	269.39	12.06	-54.1	-63.0	3.8	7.45e-01	0	40	104	2411724800	78	10882
2026-01-21 10:08:25.53	269.67	12.08	-54.1	-63.0	3.8	7.45e-01	0	40	104	2411724800	78	10846
2026-01-21 10:08:26.54	269.95	12.10	-54.1	-62.9	3.8	7.46e-01	0	40	104	2411724800	78	10776
2026-01-21 10:08:27.54	270.23	12.13	-54.2	-63.0	3.8	7.44e-01	0	40	104	2411724800	78	10882
2026-01-21 10:08:28.55	270.52	12.15	-54.2	-63.0	3.8	7.46e-01	0	40	104	2411724800	79	10271
2026-01-21 10:08:29.56	270.80	12.17	-54.2	-63.0	3.8	7.44e-01	0	40	104	2411724800	79	10282
2026-01-21 10:08:30.57	271.09	12.19	-54.2	-63.0	3.8	7.44e-01	0	40	104	2411724800	79	10269
2026-01-21 10:08:31.57	271.37	12.21	-54.2	-63.0	3.8	7.44e-01	0	40	104	2411724800	79	10260
2026-01-21 10:08:32.58	271.65	12.23	-54.2	-63.0	3.8	7.45e-01	0	40	104	2411724800	79	10245
2026-01-21 10:08:33.59	271.94	12.25	-54.1	-63.0	3.8	7.45e-01	0	40	104	2411724800	79	10194
2026-01-21 10:08:34.60	272.23	12.27	-54.1	-63.0	3.8	7.45e-01	0	40	104	2411724800	79	10213
2026-01-21 10:08:35.60	272.51	12.29	-54.2	-63.0	3.8	7.44e-01	0	40	104	2411724800	79	10245
2026-01-21 10:08:36.61	272.80	12.30	-54.2	-63.0	3.8	7.44e-01	0	40	104	2411724800	79	10253
2026-01-21 10:08:37.62	273.09	12.32	-54.1	-63.0	3.8	7.45e-01	0	40	104	2411724800	79	10210
2026-01-21 10:08:38.62	273.37	12.34	-54.1	-63.0	3.8	7.44e-01	0	41	104	2411724800	79	10202
2026-01-21 10:08:39.63	273.66	12.35	-54.2	-63.0	3.8	7.45e-01	0	40	104	2411724800	79	10246
2026-01-21 10:08:40.64	273.95	12.37	-54.2	-63.0	3.8	7.45e-01	0	40	104	2411724800	79	10248
2026-01-21 10:08:41.65	274.24	12.38	-54.1	-63.0	3.8	7.45e-01	0	40	104	2411724800	79	10222
2026-01-21 10:08:42.66	274.53	12.40	-54.1	-63.0	3.8	7.45e-01	0	40	104	2411724800	79	10185
2026-01-21 10:08:43.67	274.82	12.41	-54.2	-63.0	3.8	7.46e-01	0	40	104	2411724800	79	10257
2026-01-21 10:08:44.67	275.11	12.42	-54.2	-63.0	3.8	7.44e-01	0	40	104	2411724800	79	10224
2026-01-21 10:08:45.68	275.40	12.44	-54.1	-63.0	3.8	7.45e-01	0	41	104	2411724800	79	10186
2026-01-21 10:08:46.69	275.69	12.45	-54.1	-62.9	3.8	7.47e-01	0	40	104	2411724800	79	10152
2026-01-21 10:08:47.70	275.98	12.46	-54.2	-63.1	3.8	7.45e-01	0	40	104	2411724800	79	10306
2026-01-21 10:08:48.71	276.27	12.47	-54.2	-63.0	3.8	7.47e-01	0	40	104	2411724800	79	10233
2026-01-21 10:08:49.71	276.56	12.48	-54.2	-63.0	3.8	7.46e-01	0	40	104	2411724800	79	10241
2026-01-21 10:08:50.72	276.85	12.49	-54.1	-63.0	3.8	7.45e-01	0	40	104	2411724800	79	10224
2026-01-21 10:08:51.73	277.14	12.50	-54.2	-63.0	3.8	7.44e-01	0	40	104	2411724800	79	10293
2026-01-21 10:08:52.74	277.44	12.51	-54.2	-63.0	3.8	7.46e-01	0	40	104	2411724800	79	10243
2026-01-21 10:08:53.74	277.72	12.51	-54.2	-63.0	3.8	7.45e-01	0	40	104	2411724800	79	10277
2026-01-21 10:08:54.75	278.02	12.52	-54.1	-63.0	3.8	7.45e-01	0	40	104	2411724800	79	10235
2026-01-21 10:08:55.76	278.31	12.53	-54.3	-63.1	3.8	7.45e-01	0	40	104	2411724800	79	10356
2026-01-21 10:08:56.77	278.60	12.53	-54.2	-63.0	3.8	7.44e-01	0	41	104	2411724800	79	10263
2026-01-21 10:08:57.78	278.90	12.54	-54.2	-63.0	3.8	7.46e-01	0	40	104	2411724800	79	10290
2026-01-21 10:08:58.79	279.19	12.54	-54.2	-63.0	3.8	7.46e-01	0	40	104	2411724800	79	10256
2026-01-21 10:08:59.79	279.48	12.55	-54.3	-63.1	3.8	7.45e-01	0	40	104	2411724800	79	10406
2026-01-21 10:09:00.80	279.77	12.55	-54.3	-63.1	3.8	7.47e-01	0	40	104	2411724800	79	10345
2026-01-21 10:09:01.81	280.07	12.56	-54.3	-63.1	3.8	7.45e-01	0	40	104	2411724800	79	10352
2026-01-21 10:09:02.82	280.36	12.56	-54.2	-63.1	3.8	7.43e-01	0	40	104	2411724800	79	10301
2026-01-21 10:09:03.82	280.65	12.56	-54.3	-63.2	3.8	7.46e-01	0	40	104	2411724800	79	10453
2026-01-21 10:09:04.83	280.94	12.56	-54.3	-63.1	3.8	7.44e-01	0	40	104	2411724800	79	10395
2026-01-21 10:09:05.84	281.24	12.56	-54.3	-63.1	3.8	7.47e-01	0	40	104	2411724800	79	10368
2026-01-21 10:09:06.85	281.53	12.56	-54.2	-63.1	3.8	7.45e-01	0	40	104	2411724800	79	10328
2026-01-21 10:09:07.86	281.82	12.56	-54.4	-63.2	3.8	7.44e-01	0	40	104	2411724800	79	10431
2026-01-21 10:09:08.87	282.12	12.56	-54.3	-63.1	3.8	7.45e-01	0	40	104	2411724800	79	10362
2026-01-21 10:09:09.87	282.41	12.56	-54.3	-63.1	3.8	7.45e-01	0	40	104	2411724800	79	10400
2026-01-21 10:09:10.88	282.70	12.56	-54.2	-63.1	3.8	7.44e-01	0	40	104	2411724800	79	10327
2026-01-21 10:09:11.89	283.00	12.55	-54.4	-63.2	3.8	7.45e-01	0	40	104	2411724800	79	10525
2026-01-21 10:09:12.90	283.29	12.55	-54.3	-63.2	3.8	7.45e-01	0	40	104	2411724800	79	10432
2026-01-21 10:09:13.91	283.58	12.55	-54.3	-63.2	3.8	7.45e-01	0	40	104	2411724800	79	10431
2026-01-21 10:09:14.92	283.88	12.54	-54.2	-63.1	3.8	7.46e-01	0	40	104	2411724800	79	10351
2026-01-21 10:09:15.92	284.17	12.54	-54.4	-63.3	3.8	7.44e-01	0	40	104	2411724800	79	10585
2026-01-21 10:09:16.93	284.46	12.53	-54.4	-63.2	3.8	7.43e-01	0	40	104	2411724800	79	10507
2026-01-21 10:09:17.94	284.75	12.52	-54.4	-63.2	3.8	7.44e-01	0	40	104	2411724800	79	10467
2026-01-21 10:09:18.95	285.04	12.52	-54.3	-63.1	3.8	7.44e-01	0	41	104	2411724800	79	10389
2026-01-21 10:09:19.96	285.34	12.51	-54.4	-63.3	3.8	7.44e-01	0	40	104	2411724800	79	10548
2026-01-21 10:09:20.97	285.63	12.50	-54.4	-63.2	3.8	7.46e-01	0	40	104	2411724800	79	10522
2026-01-21 10:09:21.97	285.92	12.49	-54.4	-63.2	3.8	7.44e-01	0	40	104	2411724800	79	10522
2026-01-21 10:09:22.98	286.21	12.48	-54.3	-63.2	3.8	7.46e-01	0	40	104	2411724800	79	10441
2026-01-21 10:09:23.99	286.50	12.47	-54.4	-63.3	3.8	7.45e-01	0	40	104	2411724800	79	10604
2026-01-21 10:09:25.00	286.79	12.46	-54.4	-63.3	3.8	7.45e-01	0	40	104	2411724800	79	10601
2026-01-21 10:09:26.01	287.08	12.45	-54.4	-63.3	3.8	7.46e-01	0	40	104	2411724800	79	10559
2026-01-21 10:09:27.02	287.37	12.44	-54.4	-63.2	3.8	7.46e-01	0	40	104	2411724800	79	10507
2026-01-21 10:09:28.02	287.66	12.43	-54.5	-63.3	3.8	7.44e-01	0	40	104	2411724800	79	10590
2026-01-21 10:09:29.03	287.95	12.42	-54.5	-63.3	3.8	7.46e-01	0	40	104	2411724800	79	10584
2026-01-21 10:09:30.04	288.24	12.40	-54.5	-63.3	3.8	7.44e-01	0	40	104	2411724800	79	10570
2026-01-21 10:09:31.05	288.53	12.39	-54.4	-63.2	3.8	7.45e-01	0	40	104	2411724800	79	10514
2026-01-21 10:09:32.06	288.82	12.38	-54.5	-63.3	3.8	7.46e-01	0	40	104	2411724800	79	10651
2026-01-21 10:09:33.07	289.11	12.36	-54.5	-63.3	3.8	7.45e-01	0	40	104	2411724800	79	10589
2026-01-21 10:09:34.07	289.39	12.34	-54.5	-63.3	3.8	7.45e-01	0	40	104	2411724800	79	10615
2026-01-21 10:09:35.08	289.68	12.33	-54.4	-63.3	3.8	7.46e-01	0	40	104	2411724800	79	10601
2026-01-21 10:09:36.09	289.97	12.31	-54.5	-63.3	3.8	7.46e-01	0	40	104	2411724800	79	10641
2026-01-21 10:09:37.10	290.26	12.29	-54.5	-63.4	3.8	7.46e-01	0	40	104	2411724800	79	10663
2026-01-21 10:09:38.11	290.54	12.28	-54.5	-63.3	3.8	7.45e-01	0	40	104	2411724800	79	10643
2026-01-21 10:09:39.11	290.83	12.26	-54.5	-63.3	3.8	7.45e-01	0	40	104	2411724800	79	10582
2026-01-21 10:09:40.12	291.11	12.24	-54.5	-63.3	3.8	7.46e-01	0	40	104	2411724800	79	10641
2026-01-21 10:09:41.13	291.40	12.22	-54.5	-63.4	3.8	7.44e-01	0	40	104	2411724800	79	10668
2026-01-21 10:09:42.14	291.68	12.20	-54.5	-63.3	3.8	7.45e-01	0	40	104	2411724800	79	10635
2026-01-21 10:09:43.15	291.97	12.18	-54.5	-63.3	3.8	7.47e-01	0	40	104	2411724800	79	10601
2026-01-21 10:09:44.15	292.25	12.16	-54.5	-63.4	3.8	7.46e-01	0	40	104	2411724800	79	10686
2026-01-21 10:09:45.16	292.53	12.14	-54.5	-63.3	3.8	7.47e-01	0	40	104	2411724800	79	10625
2026-01-21 10:09:46.17	292.81	12.12	-54.5	-63.3	3.8	7.44e-01	0	40	104	2411724800	79	10630
2026-01-21 10:09:47.17	293.09	12.09	-54.5	-63.3	3.8	7.45e-01	0	40	104	2411724800	79	10571
2026-01-21 10:09:48.18	293.38	12.07	-54.5	-63.4	3.8	7.43e-01	0	40	104	2411724800	79	10679
2026-01-21 10:09:49.19	293.66	12.05	-54.5	-63.3	3.8	7.44e-01	0	40	104	2411724800	79	10593
2026-01-21 10:09:50.20	293.94	12.02	-54.5	-63.3	3.8	7.44e-01	0	40	104	2411724800	79	10621
2026-01-21 10:09:51.21	294.22	12.00	-54.4	-63.3	3.8	7.45e-01	0	40	104	2411724800	79	10540
2026-01-21 10:09:52.22	294.50	11.97	-54.5	-63.4	3.8	7.44e-01	0	41	104	2411724800	79	10662
2026-01-21 10:09:53.22	294.78	11.95	-54.5	-63.3	3.8	7.45e-01	0	40	104	2411724800	79	10573
2026-01-21 10:09:54.23	295.05	11.92	-54.5	-63.3	3.8	7.45e-01	0	41	104	2411724800	79	10618
2026-01-21 10:09:55.24	295.33	11.90	-54.4	-63.3	3.8	7.45e-01	0	40	104	2411724800	79	10550
2026-01-21 10:09:56.25	295.61	11.87	-54.5	-63.3	3.8	7.45e-01	0	40	104	2411724800	79	10596
2026-01-21 10:09:57.25	295.88	11.84	-54.4	-63.3	3.8	7.45e-01	0	40	104	2411724800	79	10585
2026-01-21 10:09:58.26	296.16	11.81	-54.4	-63.3	3.8	7.45e-01	0	40	104	2411724800	79	10557
2026-01-21 10:09:59.27	296.44	11.78	-54.4	-63.3	3.8	7.45e-01	0	40	104	2411724800	79	10542
2026-01-21 10:10:00.27	296.71	11.76	-54.4	-63.3	3.8	7.46e-01	0	40	104	2411724800	79	10564
2026-01-21 10:10:01.28	296.98	11.73	-54.4	-63.2	3.8	7.45e-01	0	40	104	2411724800	79	10529
2026-01-21 10:10:02.29	297.26	11.70	-54.4	-63.2	3.8	7.45e-01	0	40	104	2411724800	79	10497
2026-01-21 10:10:03.30	297.53	11.67	-54.4	-63.2	3.8	7.46e-01	0	40	104	2411724800	79	10497
2026-01-21 10:10:04.31	297.80	11.64	-54.4	-63.2	3.8	7.46e-01	0	40	104	2411724800	79	10491
2026-01-21 10:10:05.32	298.07	11.60	-54.4	-63.2	3.8	7.46e-01	0	40	104	2411724800	79	10533
2026-01-21 10:10:06.32	298.34	11.57	-54.4	-63.2	3.8	7.45e-01	0	41	104	2411724800	79	10493
2026-01-21 10:10:07.33	298.61	11.54	-54.4	-63.2	3.8	7.47e-01	0	40	104	2411724800	79	10428
2026-01-21 10:10:08.34	298.88	11.51	-54.4	-63.2	3.8	7.45e-01	0	40	104	2411724800	79	10498
2026-01-21 10:10:09.35	299.15	11.48	-54.4	-63.2	3.8	7.46e-01	0	41	104	2411724800	79	10431
2026-01-21 10:10:10.36	299.42	11.44	-54.3	-63.2	3.8	7.44e-01	0	40	104	2411724800	79	10419
2026-01-21 10:10:11.37	299.68	11.41	-54.3	-63.2	3.8	7.44e-01	0	41	104	2411724800	79	10431
2026-01-21 10:10:12.38	299.95	11.37	-54.3	-63.2	3.8	7.44e-01	0	40	104	2411724800	79	10454
2026-01-21 10:10:13.38	300.21	11.34	-54.3	-63.2	3.8	7.47e-01	0	40	104	2411724800	79	10450
2026-01-21 10:10:14.39	300.48	11.30	-54.3	-63.2	3.8	7.44e-01	0	40	104	2411724800	79	10419
2026-01-21 10:10:15.40	300.74	11.27	-54.3	-63.2	3.8	7.45e-01	0	40	104	2411724800	79	10415
2026-01-21 10:10:16.41	301.01	11.23	-54.3	-63.2	3.8	7.45e-01	0	41	104	2411724800	79	10413
2026-01-21 10:10:17.42	301.27	11.20	-54.3	-63.2	3.8	7.46e-01	0	40	104	2411724800	79	10435
2026-01-21 10:10:18.43	301.53	11.16	-54.3	-63.1	3.8	7.47e-01	0	40	104	2411724800	79	10356
2026-01-21 10:10:19.43	301.79	11.12	-54.3	-63.1	3.8	7.45e-01	0	40	104	2411724800	79	10389
2026-01-21 10:10:20.44	302.05	11.09	-54.3	-63.1	3.8	7.45e-01	0	40	104	2411724800	79	10383
2026-01-21 10:10:21.45	302.31	11.05	-54.3	-63.1	3.8	7.46e-01	0	40	104	2411724800	79	10411
2026-01-21 10:10:22.46	302.57	11.01	-54.3	-63.1	3.8	7.45e-01	0	41	104	2411724800	79	10346
2026-01-21 10:10:23.46	302.82	10.97	-54.3	-63.1	3.8	7.46e-01	0	41	104	2411724800	79	10362
2026-01-21 10:10:24.47	303.08	10.93	-54.3	-63.1	3.8	7.45e-01	0	40	104	2411724800	79	10361
2026-01-21 10:10:25.48	303.34	10.89	-54.3	-63.1	3.8	7.46e-01	0	40	104	2411724800	79	10381
2026-01-21 10:10:26.49	303.59	10.85	-54.3	-63.1	3.8	7.45e-01	0	40	104	2411724800	79	10362
2026-01-21 10:10:27.49	303.84	10.81	-54.3	-63.2	3.8	7.44e-01	0	40	104	2411724800	79	10415
2026-01-21 10:10:28.50	304.10	10.77	-54.3	-63.1	3.8	7.45e-01	0	40	104	2411724800	79	10356
2026-01-21 10:10:29.51	304.35	10.73	-54.3	-63.1	3.8	7.45e-01	0	40	104	2411724800	79	10357
2026-01-21 10:10:30.52	304.60	10.69	-54.2	-63.1	3.8	7.47e-01	0	40	104	2411724800	79	10331
2026-01-21 10:10:31.52	304.85	10.65	-54.3	-63.1	3.8	7.47e-01	0	41	104	2411724800	79	10369
2026-01-21 10:10:32.53	305.10	10.61	-54.3	-63.1	3.8	7.45e-01	0	41	104	2411724800	79	10327
2026-01-21 10:10:33.54	305.35	10.57	-54.2	-63.1	3.8	7.47e-01	0	40	104	2411724800	79	10320
2026-01-21 10:10:34.55	305.60	10.53	-54.2	-63.1	3.8	7.45e-01	0	40	104	2411724800	79	10314
2026-01-21 10:10:35.56	305.85	10.48	-54.2	-63.0	3.8	7.45e-01	0	40	104	2411724800	79	10284
2026-01-21 10:10:36.57	306.09	10.44	-54.2	-63.1	3.8	7.45e-01	0	40	104	2411724800	79	10336
2026-01-21 10:10:37.57	306.34	10.40	-54.2	-63.0	3.8	7.46e-01	0	40	104	2411724800	79	10272
2026-01-21 10:10:38.58	306.58	10.35	-54.2	-63.1	3.8	7.44e-01	0	40	104	2411724800	79	10300
2026-01-21 10:10:39.59	306.83	10.31	-54.2	-63.1	3.8	7.45e-01	0	40	104	2411724800	79	10342
2026-01-21 10:10:40.60	307.07	10.27	-54.2	-63.0	3.8	7.46e-01	0	40	104	2411724800	79	10275
2026-01-21 10:10:41.61	307.31	10.22	-54.2	-63.0	3.8	7.45e-01	0	40	104	2411724800	79	10223
2026-01-21 10:10:42.61	307.55	10.18	-54.2	-63.0	3.8	7.44e-01	0	41	104	2411724800	79	10226
2026-01-21 10:10:43.62	307.79	10.13	-54.2	-63.0	3.8	7.47e-01	0	41	104	2411724800	79	10272
2026-01-21 10:10:44.63	308.03	10.09	-54.2	-63.0	3.8	7.43e-01	0	40	104	2411724800	79	10253
2026-01-21 10:10:45.64	308.27	10.04	-54.1	-63.0	3.8	7.45e-01	0	40	104	2411724800	79	10230
2026-01-21 10:10:46.64	308.50	10.00	-54.1	-63.0	3.8	7.46e-01	0	40	104	2411724800	79	10185
2026-01-21 10:10:47.65	308.74	9.95	-54.2	-63.0	3.8	7.45e-01	0	40	104	2411724800	79	10222
2026-01-21 10:10:48.66	308.98	9.90	-54.1	-63.0	3.8	7.44e-01	0	40	104	2411724800	79	10213
2026-01-21 10:10:49.67	309.21	9.86	-54.1	-62.9	3.8	7.47e-01	0	40	104	2411724800	79	10148
2026-01-21 10:10:50.68	309.45	9.81	-54.1	-62.9	3.8	7.45e-01	0	40	104	2411724800	79	10109
2026-01-21 10:10:51.68	309.68	9.77	-54.1	-63.0	3.8	7.45e-01	0	40	104	2411724800	79	10238
2026-01-21 10:10:52.69	309.91	9.72	-54.1	-62.9	3.8	7.45e-01	0	40	104	2411724800	79	10157
2026-01-21 10:10:53.70	310.14	9.67	-54.1	-62.9	3.8	7.46e-01	0	41	104	2411724800	79	10106
2026-01-21 10:10:54.71	310.37	9.62	-54.0	-62.9	3.8	7.47e-01	0	40	104	2411724800	79	10088
2026-01-21 10:10:55.72	310.60	9.57	-54.1	-63.0	3.8	7.45e-01	0	40	104	2411724800	79	10198
2026-01-21 10:10:56.72	310.83	9.53	-54.1	-62.9	3.8	7.45e-01	0	40	104	2411724800	79	10087
2026-01-21 10:10:57.73	311.06	9.48	-54.0	-62.9	3.8	7.46e-01	0	40	104	2411724800	79	10084
2026-01-21 10:10:58.74	311.28	9.43	-54.0	-62.8	3.8	7.45e-01	0	40	104	2411724800	79	10057
2026-01-21 10:10:59.75	311.51	9.38	-54.1	-62.9	3.8	7.45e-01	0	41	104	2411724800	79	10159
2026-01-21 10:11:00.76	311.74	9.33	-54.0	-62.9	3.8	7.47e-01	0	40	104	2411724800	79	10080
2026-01-21 10:11:01.77	311.96	9.28	-54.0	-62.9	3.8	7.44e-01	0	40	104	2411724800	79	10068
2026-01-21 10:11:02.77	312.18	9.24	-54.0	-62.8	3.8	7.45e-01	0	40	104	2411724800	79	10028
2026-01-21 10:11:03.78	312.40	9.19	-54.1	-62.9	3.8	7.43e-01	0	40	104	2411724800	79	10094
2026-01-21 10:11:04.79	312.63	9.14	-54.0	-62.9	3.8	7.45e-01	0	41	104	2411724800	79	10076
2026-01-21 10:11:05.80	312.85	9.09	-54.0	-62.8	3.8	7.46e-01	0	40	104	2411724800	79	10022
2026-01-21 10:11:06.81	313.07	9.04	-54.0	-62.8	3.8	7.45e-01	0	40	104	2411724800	79	9977
2026-01-21 10:11:07.82	313.28	8.99	-54.0	-62.9	3.8	7.46e-01	0	40	104	2411724800	79	10079
2026-01-21 10:11:08.83	313.50	8.94	-54.0	-62.8	3.8	7.45e-01	0	41	104	2411724800	79	9996
2026-01-21 10:11:09.83	313.72	8.89	-53.9	-62.8	3.8	7.44e-01	0	41	104	2411724800	79	9954
2026-01-21 10:11:10.84	313.93	8.83	-53.9	-62.8	3.8	7.46e-01	0	40	104	2411724800	79	9974
2026-01-21 10:11:11.85	314.15	8.78	-54.0	-62.9	3.8	7.45e-01	0	40	104	2411724800	79	10062
2026-01-21 10:11:12.86	314.36	8.73	-53.9	-62.8	3.8	7.46e-01	0	40	104	2411724800	79	9987
2026-01-21 10:11:13.86	314.57	8.68	-53.9	-62.8	3.8	7.44e-01	0	40	104	2411724800	79	9989
2026-01-21 10:11:14.87	314.79	8.63	-53.9	-62.7	3.8	7.44e-01	0	40	104	2411724800	79	9907
2026-01-21 10:11:15.88	315.00	8.58	-54.0	-62.8	3.8	7.46e-01	0	40	104	2411724800	79	10025
2026-01-21 10:11:16.89	315.21	8.53	-53.9	-62.7	3.8	7.45e-01	0	40	104	2411724800	79	9933
2026-01-21 10:11:17.89	315.42	8.48	-53.9	-62.7	3.8	7.46e-01	0	40	104	2411724800	79	9904
2026-01-21 10:11:18.90	315.62	8.42	-53.9	-62.7	3.8	7.46e-01	0	40	104	2411724800	79	9887
2026-01-21 10:11:19.91	315.83	8.37	-53.9	-62.8	3.8	7.45e-01	0	40	104	2411724800	79	9968
2026-01-21 10:11:20.92	316.04	8.32	-53.9	-62.7	3.8	7.43e-01	0	40	104	2411724800	79	9917
2026-01-21 10:11:21.92	316.24	8.27	-53.9	-62.7	3.8	7.45e-01	0	40	104	2411724800	79	9885
2026-01-21 10:11:22.93	316.45	8.22	-53.8	-62.7	3.8	7.44e-01	0	40	104	2411724800	79	9856
2026-01-21 10:11:23.94	316.65	8.16	-53.9	-62.8	3.8	7.47e-01	0	40	104	2411724800	79	9970
2026-01-21 10:11:24.95	316.86	8.11	-53.8	-62.7	3.8	7.46e-01	0	40	104	2411724800	79	9895
2026-01-21 10:11:25.96	317.06	8.06	-53.8	-62.7	3.8	7.45e-01	0	41	104	2411724800	79	9850
2026-01-21 10:11:26.96	317.26	8.01	-53.8	-62.6	3.8	7.45e-01	0	40	104	2411724800	79	9800
2026-01-21 10:11:27.97	317.46	7.95	-53.9	-62.7	3.8	7.46e-01	0	40	104	2411724800	79	9940
2026-01-21 10:11:28.98	317.66	7.90	-53.8	-62.6	3.8	7.45e-01	0	41	104	2411724800	79	9822
2026-01-21 10:11:29.99	317.86	7.85	-53.8	-62.6	3.8	7.46e-01	0	40	104	2411724800	79	9818
2026-01-21 10:11:31.00	318.05	7.79	-53.7	-62.6	3.8	7.45e-01	0	41	104	2411724800	79	9747
2026-01-21 10:11:32.01	318.25	7.74	-53.9	-62.7	3.8	7.45e-01	0	40	104	2411724800	79	9876
2026-01-21 10:11:33.01	318.45	7.69	-53.8	-62.6	3.8	7.46e-01	0	40	104	2411724800	79	9789
2026-01-21 10:11:34.02	318.64	7.63	-53.8	-62.6	3.8	7.47e-01	0	40	104	2411724800	79	9778
2026-01-21 10:11:35.03	318.84	7.58	-53.7	-62.6	3.8	7.46e-01	0	41	104	2411724800	79	9726
2026-01-21 10:11:36.03	319.03	7.53	-53.8	-62.7	3.8	7.46e-01	0	40	104	2411724800	79	9864
2026-01-21 10:11:37.04	319.22	7.47	-53.7	-62.6	3.8	7.46e-01	0	40	104	2411724800	79	9752
2026-01-21 10:11:38.05	319.41	7.42	-53.7	-62.6	3.8	7.44e-01	0	40	104	2411724800	79	9779
2026-01-21 10:11:39.06	319.60	7.36	-53.7	-62.5	3.8	7.46e-01	0	40	104	2411724800	79	9699
2026-01-21 10:11:40.06	319.79	7.31	-53.8	-62.7	3.8	7.46e-01	0	40	104	2411724800	79	9842
2026-01-21 10:11:41.07	319.98	7.26	-53.7	-62.6	3.8	7.45e-01	0	40	104	2411724800	79	9727
2026-01-21 10:11:42.08	320.17	7.20	-53.7	-62.5	3.8	7.46e-01	0	40	104	2411724800	79	9699
2026-01-21 10:11:43.09	320.36	7.15	-53.7	-62.5	3.8	7.46e-01	0	41	104	2411724800	79	9640
2026-01-21 10:11:44.10	320.54	7.09	-53.8	-62.6	3.8	7.46e-01	0	40	104	2411724800	79	9787
2026-01-21 10:11:45.11	320.73	7.04	-53.7	-62.5	3.8	7.45e-01	0	40	104	2411724800	79	9636
2026-01-21 10:11:46.11	320.91	6.99	-53.7	-62.5	3.8	7.46e-01	0	40	104	2411724800	79	9644
2026-01-21 10:11:47.12	321.10	6.93	-53.6	-62.4	3.8	7.44e-01	0	40	104	2411724800	79	9576
2026-01-21 10:11:48.13	321.28	6.88	-53.7	-62.6	3.8	7.43e-01	0	40	104	2411724800	79	9748
2026-01-21 10:11:49.14	321.46	6.82	-53.6	-62.5	3.8	7.45e-01	0	40	104	2411724800	79	9649
2026-01-21 10:11:50.15	321.64	6.77	-53.6	-62.5	3.8	7.45e-01	0	40	104	2411724800	79	9620
2026-01-21 10:11:51.15	321.82	6.71	-53.6	-62.4	3.8	7.43e-01	0	40	104	2411724800	79	9587
2026-01-21 10:11:52.16	322.00	6.66	-53.7	-62.5	3.8	7.47e-01	0	40	104	2411724800	79	9702
2026-01-21 10:11:53.17	322.18	6.60	-53.6	-62.4	3.8	7.45e-01	0	41	104	2411724800	79	9604
2026-01-21 10:11:54.18	322.36	6.55	-53.6	-62.5	3.8	7.45e-01	0	40	104	2411724800	79	9608
2026-01-21 10:11:55.18	322.54	6.49	-53.6	-62.4	3.8	7.46e-01	0	40	104	2411724800	79	9529
2026-01-21 10:11:56.19	322.71	6.44	-53.7	-62.5	3.8	7.44e-01	0	40	104	2411724800	79	9661
2026-01-21 10:11:57.20	322.89	6.39	-53.6	-62.5	3.8	7.44e-01	0	40	104	2411724800	79	9610
2026-01-21 10:11:58.21	323.06	6.33	-53.6	-62.4	3.8	7.47e-01	0	41	104	2411724800	79	9553
2026-01-21 10:11:59.22	323.24	6.28	-53.5	-62.4	3.8	7.45e-01	0	41	104	2411724800	79	9524
2026-01-21 10:12:00.22	323.41	6.22	-53.6	-62.4	3.8	7.45e-01	0	40	104	2411724800	79	9603
2026-01-21 10:12:01.23	323.58	6.17	-53.5	-62.4	3.8	7.44e-01	0	41	104	2411724800	79	9508
2026-01-21 10:12:02.24	323.75	6.11	-53.5	-62.4	3.8	7.45e-01	0	40	104	2411724800	79	9502
2026-01-21 10:12:03.25	323.92	6.06	-53.5	-62.3	3.8	7.45e-01	0	40	104	2411724800	78	10008
2026-01-21 10:12:04.26	324.09	6.00	-53.6	-62.4	3.8	7.44e-01	0	41	104	2411724800	78	10131
2026-01-21 10:12:05.26	324.26	5.95	-53.5	-62.3	3.8	7.46e-01	0	41	104	2411724800	78	9985
2026-01-21 10:12:06.27	324.43	5.89	-53.5	-62.3	3.8	7.45e-01	0	41	104	2411724800	78	9995
2026-01-21 10:12:07.28	324.60	5.84	-53.4	-62.3	3.8	7.46e-01	0	41	104	2411724800	78	9977
2026-01-21 10:12:08.29	324.77	5.78	-53.5	-62.4	3.8	7.45e-01	0	40	104	2411724800	78	10086
2026-01-21 10:12:09.29	324.93	5.73	-53.4	-62.3	3.8	7.44e-01	0	40	104	2411724800	78	9997
2026-01-21 10:12:10.30	325.10	5.67	-53.4	-62.2	3.8	7.45e-01	0	40	104	2411724800	78	9939
2026-01-21 10:12:11.31	325.26	5.61	-53.4	-62.2	3.8	7.46e-01	0	40	104	2411724800	78	9924
2026-01-21 10:12:12.32	325.42	5.56	-53.5	-62.3	3.8	7.46e-01	0	40	104	2411724800	78	10045
2026-01-21 10:12:13.33	325.59	5.50	-53.4	-62.2	3.8	7.46e-01	0	40	104	2411724800	78	9939
2026-01-21 10:12:14.34	325.75	5.45	-53.4	-62.2	3.8	7.45e-01	0	40	104	2411724800	78	9931
2026-01-21 10:12:15.35	325.91	5.39	-53.3	-62.2	3.8	7.46e-01	0	41	104	2411724800	78	9847
2026-01-21 10:12:16.35	326.07	5.34	-53.5	-62.3	3.8	7.45e-01	0	40	104	2411724800	78	10001
2026-01-21 10:12:17.36	326.23	5.28	-53.4	-62.2	3.8	7.46e-01	0	40	104	2411724800	78	9843
2026-01-21 10:12:18.37	326.39	5.23	-53.3	-62.2	3.8	7.45e-01	0	40	104	2411724800	78	9832
2026-01-21 10:12:19.38	326.55	5.17	-53.3	-62.2	3.8	7.45e-01	0	41	104	2411724800	78	9868
2026-01-21 10:12:20.39	326.71	5.12	-53.4	-62.2	3.8	7.45e-01	0	41	104	2411724800	78	9926
2026-01-21 10:12:21.39	326.86	5.06	-53.3	-62.2	3.8	7.45e-01	0	41	104	2411724800	78	9835
2026-01-21 10:12:22.40	327.02	5.01	-53.4	-62.2	3.8	7.47e-01	0	40	104	2411724800	78	9875
2026-01-21 10:12:23.41	327.18	4.95	-53.7	-62.5	3.8	7.46e-01	0	40	104	2411724800	78	10235
2026-01-21 10:12:24.42	327.33	4.90	-53.9	-62.7	3.8	7.46e-01	0	41	104	2411724800	78	10521
2026-01-21 10:12:25.42	327.48	4.84	-54.0	-62.8	3.8	7.45e-01	0	40	104	2411724800	78	10640
2026-01-21 10:12:26.43	327.64	4.79	-54.1	-62.9	3.8	7.47e-01	0	40	104	2411724800	78	10776
2026-01-21 10:12:27.44	327.79	4.73	-54.2	-63.0	3.8	7.46e-01	0	40	104	2411724800	78	10879
2026-01-21 10:12:28.45	327.94	4.68	-54.3	-63.1	3.8	7.45e-01	0	40	104	2411724800	79	10405
2026-01-21 10:12:29.46	328.09	4.62	-54.3	-63.1	3.8	7.45e-01	0	40	104	2411724800	79	10386
2026-01-21 10:12:30.47	328.25	4.57	-54.3	-63.1	3.8	7.46e-01	0	40	104	2411724800	79	10386
2026-01-21 10:12:31.47	328.39	4.51	-54.2	-63.1	3.8	7.45e-01	0	40	104	2411724800	79	10303
2026-01-21 10:12:32.48	328.54	4.46	-54.2	-63.0	3.8	7.46e-01	0	40	104	2411724800	79	10232
2026-01-21 10:12:33.49	328.69	4.40	-54.2	-63.0	3.8	7.45e-01	0	40	104	2411724800	79	10236
2026-01-21 10:12:34.49	328.84	4.35	-54.2	-63.1	3.8	7.45e-01	0	40	104	2411724800	79	10351
2026-01-21 10:12:35.50	328.99	4.29	-54.3	-63.1	3.8	7.45e-01	0	40	104	2411724800	79	10398
2026-01-21 10:12:36.51	329.13	4.24	-54.4	-63.2	3.8	7.45e-01	0	40	104	2411724800	79	10511
2026-01-21 10:12:37.52	329.28	4.18	-54.4	-63.2	3.8	7.43e-01	0	40	104	2411724800	79	10500
2026-01-21 10:12:38.52	329.42	4.13	-54.4	-63.2	3.8	7.45e-01	0	40	104	2411724800	79	10527
2026-01-21 10:12:39.53	329.57	4.07	-54.4	-63.3	3.8	7.44e-01	0	41	104	2411724800	79	10574
2026-01-21 10:12:40.54	329.71	4.02	-54.5	-63.3	3.8	7.44e-01	0	40	104	2411724800	79	10605
2026-01-21 10:12:41.55	329.85	3.96	-54.5	-63.3	3.8	7.46e-01	0	41	104	2411724800	79	10634
2026-01-21 10:12:42.56	330.00	3.91	-54.5	-63.3	3.8	7.45e-01	0	40	104	2411724800	79	10623
2026-01-21 10:12:43.56	330.14	3.85	-54.5	-63.4	3.8	7.46e-01	0	40	104	2411724800	79	10687
2026-01-21 10:12:44.57	330.28	3.80	-54.5	-63.3	3.8	7.46e-01	0	40	104	2411724800	79	10649
2026-01-21 10:12:45.58	330.42	3.74	-54.5	-63.3	3.8	7.47e-01	0	41	104	2411724800	79	10603
2026-01-21 10:12:46.59	330.56	3.69	-54.5	-63.3	3.8	7.46e-01	0	40	104	2411724800	79	10615
2026-01-21 10:12:47.60	330.70	3.64	-54.4	-63.3	3.8	7.46e-01	0	40	104	2411724800	79	10597
2026-01-21 10:12:48.61	330.84	3.58	-54.4	-63.3	3.8	7.45e-01	0	40	104	2411724800	79	10574
2026-01-21 10:12:49.61	330.97	3.53	-54.4	-63.3	3.8	7.46e-01	0	40	104	2411724800	79	10567
2026-01-21 10:12:50.62	331.11	3.47	-54.4	-63.3	3.8	7.45e-01	0	40	104	2411724800	79	10568
2026-01-21 10:12:51.63	331.25	3.42	-54.4	-63.3	3.8	7.44e-01	0	41	104	2411724800	79	10566
2026-01-21 10:12:52.64	331.38	3.36	-54.4	-63.2	3.8	7.44e-01	0	40	104	2411724800	79	10508
2026-01-21 10:12:53.64	331.52	3.31	-54.4	-63.2	3.8	7.46e-01	0	41	104	2411724800	79	10524
2026-01-21 10:12:54.65	331.65	3.25	-54.4	-63.3	3.8	7.44e-01	0	40	104	2411724800	79	10559
2026-01-21 10:12:55.66	331.79	3.20	-54.4	-63.2	3.8	7.46e-01	0	40	104	2411724800	79	10531
2026-01-21 10:12:56.66	331.92	3.15	-54.4	-63.3	3.8	7.45e-01	0	40	104	2411724800	79	10543
2026-01-21 10:12:57.67	332.05	3.09	-54.4	-63.3	3.8	7.44e-01	0	40	104	2411724800	79	10541
2026-01-21 10:12:58.68	332.19	3.04	-54.4	-63.2	3.8	7.46e-01	0	40	104	2411724800	79	10498
2026-01-21 10:12:59.69	332.32	2.98	-54.4	-63.2	3.8	7.46e-01	0	40	104	2411724800	79	10515
2026-01-21 10:13:00.70	332.45	2.93	-54.4	-63.2	3.8	7.45e-01	0	40	104	2411724800	79	10521
2026-01-21 10:13:01.71	332.58	2.87	-54.4	-63.2	3.8	7.45e-01	0	40	104	2411724800	79	10493
2026-01-21 10:13:02.71	332.71	2.82	-54.4	-63.2	3.8	7.46e-01	0	41	104	2411724800	79	10491
2026-01-21 10:13:03.72	332.84	2.77	-54.4	-63.2	3.8	7.45e-01	0	40	104	2411724800	79	10469
2026-01-21 10:13:04.73	332.97	2.71	-54.4	-63.2	3.8	7.46e-01	0	40	104	2411724800	79	10462
2026-01-21 10:13:05.74	333.10	2.66	-54.4	-63.2	3.8	7.46e-01	0	40	104	2411724800	79	10475
2026-01-21 10:13:06.74	333.22	2.60	-54.4	-63.2	3.8	7.45e-01	0	40	104	2411724800	79	10489
2026-01-21 10:13:07.75	333.35	2.55	-54.4	-63.2	3.8	7.46e-01	0	41	104	2411724800	79	10510
2026-01-21 10:13:08.76	333.48	2.50	-54.4	-63.2	3.8	7.45e-01	0	40	104	2411724800	79	10480
2026-01-21 10:13:09.77	333.60	2.44	-54.3	-63.2	3.8	7.45e-01	0	40	104	2411724800	79	10450
2026-01-21 10:13:10.78	333.73	2.39	-54.4	-63.2	3.8	7.43e-01	0	41	104	2411724800	79	10474
2026-01-21 10:13:11.78	333.85	2.34	-54.3	-63.2	3.8	7.45e-01	0	40	104	2411724800	79	10442
2026-01-21 10:13:12.79	333.98	2.28	-54.3	-63.2	3.8	7.45e-01	0	41	104	2411724800	79	10462
2026-01-21 10:13:13.80	334.10	2.23	-54.3	-63.2	3.8	7.44e-01	0	41	104	2411724800	79	10449
2026-01-21 10:13:14.81	334.22	2.17	-54.3	-63.2	3.8	7.45e-01	0	40	104	2411724800	79	10446
2026-01-21 10:13:15.82	334.35	2.12	-54.3	-63.2	3.8	7.44e-01	0	40	104	2411724800	79	10461
2026-01-21 10:13:16.82	334.47	2.07	-54.3	-63.2	3.8	7.44e-01	0	41	104	2411724800	79	10468
2026-01-21 10:13:17.83	334.59	2.01	-54.3	-63.1	3.8	7.47e-01	0	40	104	2411724800	79	10410
2026-01-21 10:13:18.84	334.71	1.96	-54.3	-63.2	3.8	7.44e-01	0	40	104	2411724800	79	10457
2026-01-21 10:13:19.85	334.83	1.91	-54.3	-63.1	3.8	7.44e-01	0	40	104	2411724800	79	10412

#Closed at: 2026-01-21 10:13:20
#Recorded file [2411 MB]: D:/lorett/data/31041_260121_130457.dat