passes_logs/2026/01/21/R3.2S_Murmansk/R3.2S_Murmansk__20260121_225057_KANOPUS-V_5_rec.log

#Pass ID: 20260121_225057_KANOPUS-V 5
#Satellite: KANOPUS-V 5
#Configuration: KANOPUS-V_8320
#almurnet v.1.7.20251203
#Start time: 2026-01-21 22:50:56

#Version: 2.2.20231116
#Station: R3.2S_Murmansk
#Location: 33.079688 lon 68.888172 lat
#TLE: 1 43876U 18111A   26021.54180787  .00007275  00000+0  30771-3 0  9992
#TLE: 2 43876  97.3683 289.9378 0001818  88.0577 272.0869 15.23499060392462

#Time	Az	El	Level	Level2	SNR	BER	BlckErr	Temp	State	Recorded	gain1	gain2
2026-01-21 22:50:56.55	21.06	1.97	-54.8	-63.7	3.8	7.45e-01	0	39	0	0	80	10420
2026-01-21 22:50:57.55	21.03	2.03	-54.9	-63.8	3.8	7.44e-01	0	39	104	0	80	10542
2026-01-21 22:50:58.55	21.01	2.10	-55.0	-63.9	3.8	7.45e-01	0	39	104	0	80	10698
2026-01-21 22:50:59.56	20.99	2.17	-55.0	-63.9	3.8	7.46e-01	0	39	104	0	80	10743
2026-01-21 22:51:00.57	20.97	2.25	-55.1	-63.9	3.8	7.44e-01	0	39	104	0	80	10720
2026-01-21 22:51:01.58	20.94	2.32	-55.1	-63.9	3.8	7.46e-01	0	39	104	0	80	10778
2026-01-21 22:51:02.59	20.92	2.39	-55.1	-63.9	3.8	7.45e-01	0	39	104	0	80	10701
2026-01-21 22:51:03.60	20.90	2.46	-55.1	-63.9	3.8	7.46e-01	0	39	104	0	80	10698
2026-01-21 22:51:04.61	20.87	2.53	-55.0	-63.9	3.8	7.45e-01	0	39	104	0	80	10672
2026-01-21 22:51:05.62	20.85	2.60	-55.1	-63.9	3.8	7.45e-01	0	39	104	0	80	10678
2026-01-21 22:51:06.62	20.83	2.67	-55.0	-63.8	3.8	7.45e-01	0	39	104	0	80	10609
2026-01-21 22:51:07.63	20.80	2.75	-54.9	-63.8	3.8	7.45e-01	0	39	104	0	80	10564
2026-01-21 22:51:08.64	20.78	2.82	-54.9	-63.7	3.8	7.45e-01	0	39	104	0	80	10527
2026-01-21 22:51:09.65	20.75	2.89	-54.9	-63.8	3.8	7.47e-01	0	40	104	0	80	10541
2026-01-21 22:51:10.66	20.73	2.96	-54.9	-63.7	3.8	7.45e-01	0	40	104	0	80	10462
2026-01-21 22:51:11.67	20.70	3.04	-54.8	-63.6	3.8	7.45e-01	0	40	104	0	80	10377
2026-01-21 22:51:12.68	20.68	3.11	-54.7	-63.6	3.8	7.45e-01	0	40	104	0	80	10303
2026-01-21 22:51:13.69	20.65	3.18	-54.6	-63.4	3.8	7.46e-01	0	40	104	0	80	10151
2026-01-21 22:51:14.70	20.63	3.26	-54.6	-63.4	3.8	7.43e-01	0	40	104	0	80	10111
2026-01-21 22:51:15.70	20.60	3.33	-54.4	-63.3	3.8	7.44e-01	0	40	104	0	80	9948
2026-01-21 22:51:16.71	20.58	3.41	-54.3	-63.2	3.8	7.46e-01	0	40	104	0	80	9833
2026-01-21 22:51:17.72	20.55	3.48	-54.1	-63.0	3.8	7.46e-01	0	40	104	0	80	9647
2026-01-21 22:51:18.73	20.52	3.56	-54.0	-62.8	3.8	7.45e-01	0	40	104	0	79	10003
2026-01-21 22:51:19.74	20.50	3.63	-53.6	-62.4	3.8	7.44e-01	0	40	104	0	79	9586
2026-01-21 22:51:20.75	20.47	3.71	-53.3	-62.1	3.8	7.46e-01	0	40	104	0	78	9757
2026-01-21 22:51:21.75	20.44	3.78	-53.3	-62.1	3.8	7.46e-01	0	40	104	0	78	9769
2026-01-21 22:51:22.76	20.42	3.86	-53.3	-62.1	3.8	7.47e-01	0	40	104	0	78	9792
2026-01-21 22:51:23.77	20.39	3.93	-53.3	-62.1	3.8	7.45e-01	0	40	104	0	78	9762
2026-01-21 22:51:24.78	20.36	4.01	-53.3	-62.1	3.8	7.45e-01	0	40	104	0	78	9790
2026-01-21 22:51:25.79	20.34	4.09	-53.3	-62.1	3.8	7.44e-01	0	40	104	0	78	9774
2026-01-21 22:51:26.79	20.31	4.16	-53.3	-62.1	3.8	7.45e-01	0	40	104	0	78	9751
2026-01-21 22:51:27.80	20.28	4.24	-53.3	-62.1	3.8	7.45e-01	0	40	104	0	78	9763
2026-01-21 22:51:28.81	20.25	4.32	-53.3	-62.1	3.8	7.46e-01	0	40	104	0	78	9763
2026-01-21 22:51:29.82	20.22	4.40	-53.3	-62.1	3.8	7.46e-01	0	40	104	0	78	9811
2026-01-21 22:51:30.82	20.19	4.48	-53.3	-62.1	3.8	7.45e-01	0	40	104	0	78	9760
2026-01-21 22:51:31.83	20.17	4.55	-53.3	-62.0	3.8	7.45e-01	0	40	104	0	78	9700
2026-01-21 22:51:32.84	20.14	4.63	-53.3	-62.1	3.8	7.47e-01	0	40	104	0	78	9763
2026-01-21 22:51:33.85	20.11	4.71	-53.3	-62.1	3.8	7.45e-01	0	40	104	0	78	9764
2026-01-21 22:51:34.86	20.08	4.79	-53.2	-62.1	3.8	7.45e-01	0	40	104	0	78	9731
2026-01-21 22:51:35.87	20.05	4.87	-53.3	-62.0	3.8	7.45e-01	0	40	104	0	78	9694
2026-01-21 22:51:36.88	20.02	4.95	-53.2	-62.1	3.8	7.45e-01	0	40	104	0	78	9751
2026-01-21 22:51:37.89	19.99	5.03	-53.2	-62.1	3.8	7.45e-01	0	40	104	0	78	9745
2026-01-21 22:51:38.90	19.96	5.11	-53.3	-62.1	3.8	7.46e-01	0	40	104	0	78	9788
2026-01-21 22:51:39.90	19.93	5.19	-53.3	-62.1	3.8	7.46e-01	0	40	104	0	78	9800
2026-01-21 22:51:40.91	19.89	5.28	-53.3	-62.1	3.8	7.45e-01	0	40	104	0	78	9769
2026-01-21 22:51:41.92	19.86	5.36	-53.4	-62.2	3.8	7.46e-01	0	40	104	0	78	9853
2026-01-21 22:51:42.93	19.83	5.44	-53.2	-62.1	3.8	7.45e-01	0	40	104	0	78	9733
2026-01-21 22:51:43.93	19.80	5.52	-53.3	-62.2	3.8	7.45e-01	0	40	104	0	78	9841
2026-01-21 22:51:44.94	19.77	5.60	-53.3	-62.1	3.8	7.44e-01	0	40	104	0	78	9773
2026-01-21 22:51:45.95	19.73	5.69	-53.4	-62.2	3.8	7.45e-01	0	40	104	0	78	9904
2026-01-21 22:51:46.96	19.70	5.77	-53.3	-62.1	3.8	7.44e-01	0	40	104	0	78	9765
2026-01-21 22:51:47.97	19.67	5.86	-53.4	-62.2	3.8	7.45e-01	0	40	104	0	78	9900
2026-01-21 22:51:48.98	19.64	5.94	-53.3	-62.1	3.8	7.46e-01	0	40	104	0	78	9776
2026-01-21 22:51:49.98	19.60	6.02	-53.4	-62.3	3.8	7.46e-01	0	40	104	0	78	9957
2026-01-21 22:51:50.99	19.57	6.11	-53.3	-62.1	3.8	7.47e-01	0	40	104	0	78	9776
2026-01-21 22:51:52.00	19.53	6.19	-53.4	-62.2	3.8	7.45e-01	0	40	104	0	78	9903
2026-01-21 22:51:53.01	19.50	6.28	-53.3	-62.2	3.8	7.46e-01	0	41	104	0	78	9835
2026-01-21 22:51:54.01	19.47	6.37	-53.4	-62.3	3.8	7.45e-01	0	40	104	0	78	9947
2026-01-21 22:51:55.02	19.43	6.45	-53.3	-62.1	3.8	7.46e-01	0	40	104	0	78	9830
2026-01-21 22:51:56.03	19.40	6.54	-53.4	-62.3	3.8	7.45e-01	0	40	104	0	78	9961
2026-01-21 22:51:57.04	19.36	6.63	-53.4	-62.2	3.8	7.46e-01	0	40	104	0	78	9888
2026-01-21 22:51:58.05	19.32	6.71	-53.5	-62.3	3.8	7.46e-01	0	40	104	0	78	10004
2026-01-21 22:51:59.06	19.29	6.80	-53.4	-62.2	3.8	7.45e-01	0	40	104	0	78	9846
2026-01-21 22:52:00.07	19.25	6.89	-53.5	-62.3	3.8	7.44e-01	0	40	104	0	78	9965
2026-01-21 22:52:01.08	19.22	6.98	-53.4	-62.2	3.8	7.46e-01	0	40	104	0	78	9913
2026-01-21 22:52:02.09	19.18	7.07	-53.5	-62.3	3.8	7.45e-01	0	40	104	0	78	10045
2026-01-21 22:52:03.10	19.14	7.16	-53.4	-62.2	3.8	7.45e-01	0	40	104	0	78	9899
2026-01-21 22:52:04.11	19.10	7.25	-53.5	-62.3	3.8	7.46e-01	0	41	104	0	78	10028
2026-01-21 22:52:05.12	19.07	7.34	-53.4	-62.3	3.8	7.44e-01	0	40	104	0	78	9971
2026-01-21 22:52:06.13	19.03	7.43	-53.6	-62.4	3.8	7.45e-01	0	40	104	0	78	10109
2026-01-21 22:52:07.13	18.99	7.52	-53.4	-62.3	3.8	7.46e-01	0	40	104	0	78	9970
2026-01-21 22:52:08.14	18.95	7.61	-53.5	-62.4	3.8	7.46e-01	0	41	104	0	78	10075
2026-01-21 22:52:09.15	18.91	7.70	-53.5	-62.3	3.8	7.48e-01	0	41	104	0	78	9978
2026-01-21 22:52:10.16	18.87	7.80	-53.6	-62.4	3.8	7.46e-01	0	41	104	0	78	10128
2026-01-21 22:52:11.16	18.83	7.89	-53.5	-62.3	3.8	7.46e-01	0	41	104	0	78	9984
2026-01-21 22:52:12.17	18.79	7.98	-53.6	-62.4	3.8	7.45e-01	0	40	104	0	78	10134
2026-01-21 22:52:13.18	18.75	8.08	-53.5	-62.3	3.8	7.44e-01	0	41	104	0	78	10024
2026-01-21 22:52:14.19	18.71	8.17	-53.6	-62.4	3.8	7.46e-01	0	41	104	0	78	10115
2026-01-21 22:52:15.19	18.67	8.27	-53.5	-62.3	3.8	7.44e-01	0	40	104	0	78	10041
2026-01-21 22:52:16.20	18.63	8.36	-53.6	-62.4	3.8	7.46e-01	0	40	104	0	78	10143
2026-01-21 22:52:17.21	18.58	8.46	-53.5	-62.4	3.8	7.46e-01	0	41	104	0	78	10072
2026-01-21 22:52:18.22	18.54	8.55	-53.6	-62.4	3.8	7.45e-01	0	41	104	0	78	10169
2026-01-21 22:52:19.23	18.50	8.65	-53.5	-62.4	3.8	7.45e-01	0	40	104	0	78	10081
2026-01-21 22:52:20.24	18.45	8.75	-53.6	-62.5	3.8	7.47e-01	0	41	104	0	78	10178
2026-01-21 22:52:21.25	18.41	8.84	-53.6	-62.4	3.8	7.46e-01	0	41	104	0	78	10112
2026-01-21 22:52:22.26	18.37	8.94	-53.7	-62.5	3.8	7.44e-01	0	41	104	0	78	10204
2026-01-21 22:52:23.27	18.32	9.04	-53.6	-62.4	3.8	7.44e-01	0	41	104	0	78	10113
2026-01-21 22:52:24.28	18.28	9.14	-53.6	-62.5	3.8	7.43e-01	0	41	104	0	78	10201
2026-01-21 22:52:25.29	18.23	9.24	-53.6	-62.4	3.8	7.44e-01	0	41	104	0	78	10115
2026-01-21 22:52:26.29	18.19	9.34	-53.7	-62.5	3.8	7.45e-01	0	41	104	0	78	10263
2026-01-21 22:52:27.30	18.14	9.44	-53.6	-62.5	3.8	7.45e-01	0	41	104	0	78	10191
2026-01-21 22:52:28.31	18.09	9.54	-53.7	-62.5	3.8	7.44e-01	0	41	104	0	78	10225
2026-01-21 22:52:29.32	18.05	9.64	-53.7	-62.5	3.8	7.45e-01	0	41	104	0	78	10212
2026-01-21 22:52:30.33	18.00	9.75	-53.8	-62.6	3.8	7.45e-01	0	41	104	0	78	10312
2026-01-21 22:52:31.34	17.95	9.85	-53.7	-62.5	3.8	7.46e-01	0	41	104	0	78	10268
2026-01-21 22:52:32.35	17.90	9.95	-53.7	-62.5	3.8	7.46e-01	0	41	104	0	78	10271
2026-01-21 22:52:33.35	17.85	10.06	-53.7	-62.5	3.8	7.47e-01	0	41	104	0	78	10278
2026-01-21 22:52:34.36	17.80	10.16	-53.7	-62.6	3.8	7.46e-01	0	41	104	0	78	10308
2026-01-21 22:52:35.37	17.75	10.27	-53.7	-62.5	3.8	7.47e-01	0	41	104	0	78	10243
2026-01-21 22:52:36.38	17.70	10.37	-53.7	-62.6	3.8	7.47e-01	0	41	104	0	78	10342
2026-01-21 22:52:37.39	17.65	10.48	-53.7	-62.6	3.8	7.46e-01	0	41	104	0	78	10323
2026-01-21 22:52:38.39	17.60	10.59	-53.8	-62.6	3.8	7.44e-01	0	41	104	0	78	10334
2026-01-21 22:52:39.40	17.55	10.69	-53.7	-62.6	3.8	7.46e-01	0	41	104	0	78	10310
2026-01-21 22:52:40.41	17.50	10.80	-53.8	-62.6	3.8	7.46e-01	0	41	104	0	78	10355
2026-01-21 22:52:41.41	17.44	10.91	-53.7	-62.5	3.8	7.45e-01	0	41	104	0	78	10281
2026-01-21 22:52:42.42	17.39	11.02	-53.8	-62.6	3.8	7.45e-01	0	41	104	0	78	10365
2026-01-21 22:52:43.43	17.34	11.13	-53.7	-62.5	3.8	7.45e-01	0	41	104	0	78	10275
2026-01-21 22:52:44.44	17.28	11.24	-53.8	-62.6	3.8	7.46e-01	0	41	104	0	78	10349
2026-01-21 22:52:45.45	17.23	11.35	-53.7	-62.6	3.8	7.44e-01	0	41	104	0	78	10310
2026-01-21 22:52:46.45	17.17	11.46	-53.8	-62.6	3.8	7.47e-01	0	41	104	0	78	10352
2026-01-21 22:52:47.46	17.12	11.58	-53.8	-62.6	3.8	7.45e-01	0	41	104	0	78	10355
2026-01-21 22:52:48.47	17.06	11.69	-53.8	-62.6	3.8	7.46e-01	0	41	104	0	78	10373
2026-01-21 22:52:49.48	17.00	11.80	-53.8	-62.6	3.8	7.46e-01	0	41	104	0	78	10362
2026-01-21 22:52:50.49	16.94	11.92	-53.8	-62.6	3.8	7.44e-01	0	41	104	0	78	10387
2026-01-21 22:52:51.50	16.89	12.03	-53.8	-62.6	3.8	7.44e-01	0	41	104	0	78	10388
2026-01-21 22:52:52.50	16.83	12.15	-53.8	-62.6	3.8	7.46e-01	0	41	104	0	78	10412
2026-01-21 22:52:53.51	16.77	12.27	-53.8	-62.7	3.8	7.46e-01	0	41	104	0	78	10414
2026-01-21 22:52:54.52	16.71	12.38	-53.8	-62.7	3.8	7.45e-01	0	41	104	0	78	10420
2026-01-21 22:52:55.53	16.65	12.50	-53.8	-62.7	3.8	7.45e-01	0	41	104	0	78	10417
2026-01-21 22:52:56.53	16.58	12.62	-53.9	-62.7	3.8	7.46e-01	0	41	104	0	78	10451
2026-01-21 22:52:57.54	16.52	12.74	-53.9	-62.7	3.8	7.45e-01	0	41	104	0	78	10449
2026-01-21 22:52:58.55	16.46	12.86	-53.9	-62.7	3.8	7.45e-01	0	41	104	0	78	10439
2026-01-21 22:52:59.56	16.40	12.98	-53.9	-62.7	3.8	7.45e-01	0	41	104	0	78	10458
2026-01-21 22:53:00.56	16.33	13.10	-53.9	-62.7	3.8	7.46e-01	0	41	104	0	78	10469
2026-01-21 22:53:01.57	16.27	13.23	-54.0	-62.8	3.8	7.45e-01	0	41	104	0	78	10584
2026-01-21 22:53:02.58	16.20	13.35	-53.9	-62.8	3.8	7.45e-01	0	41	104	0	78	10545
2026-01-21 22:53:03.59	16.14	13.47	-53.9	-62.7	3.8	7.45e-01	0	41	104	0	78	10507
2026-01-21 22:53:04.60	16.07	13.60	-53.9	-62.7	3.8	7.46e-01	0	41	104	0	78	10510
2026-01-21 22:53:05.61	16.00	13.73	-53.9	-62.8	3.8	7.45e-01	0	41	104	0	78	10542
2026-01-21 22:53:06.62	15.93	13.85	-53.9	-62.7	3.8	7.44e-01	0	41	104	0	78	10522
2026-01-21 22:53:07.63	15.86	13.98	-53.9	-62.8	3.8	7.44e-01	0	41	104	0	78	10541
2026-01-21 22:53:08.63	15.79	14.11	-53.9	-62.8	3.8	7.46e-01	0	41	104	0	78	10542
2026-01-21 22:53:09.64	15.72	14.24	-54.0	-62.8	3.8	7.44e-01	0	41	104	0	78	10587
2026-01-21 22:53:10.65	15.65	14.37	-53.9	-62.8	3.8	7.44e-01	0	41	104	0	78	10574
2026-01-21 22:53:11.66	15.58	14.50	-54.0	-62.8	3.8	7.46e-01	0	41	104	0	78	10551
2026-01-21 22:53:12.67	15.51	14.63	-54.0	-62.8	3.8	7.45e-01	0	41	104	0	78	10583
2026-01-21 22:53:13.68	15.43	14.76	-54.0	-62.8	3.8	7.46e-01	0	41	104	0	78	10592
2026-01-21 22:53:14.68	15.36	14.90	-54.0	-62.8	3.8	7.46e-01	0	41	104	0	78	10615
2026-01-21 22:53:15.69	15.28	15.03	-54.0	-62.8	3.8	7.45e-01	0	41	104	0	78	10618
2026-01-21 22:53:16.70	15.21	15.17	-54.0	-62.8	3.8	7.45e-01	0	41	104	0	78	10596
2026-01-21 22:53:17.71	15.13	15.31	-54.0	-62.8	3.8	7.45e-01	0	41	104	0	78	10650
2026-01-21 22:53:18.71	15.05	15.44	-54.0	-62.8	3.8	7.45e-01	0	41	104	0	78	10597
2026-01-21 22:53:19.72	14.97	15.58	-54.0	-62.8	3.8	7.45e-01	0	41	104	0	78	10626
2026-01-21 22:53:20.73	14.89	15.72	-54.0	-62.8	3.8	7.45e-01	0	41	104	0	78	10602
2026-01-21 22:53:21.74	14.81	15.86	-54.0	-62.8	3.8	7.46e-01	0	41	104	0	78	10653
2026-01-21 22:53:22.75	14.73	16.00	-54.0	-62.8	3.8	7.45e-01	0	41	104	0	78	10579
2026-01-21 22:53:23.75	14.65	16.14	-54.0	-62.9	3.8	7.45e-01	0	41	104	0	78	10671
2026-01-21 22:53:24.76	14.56	16.29	-54.0	-62.8	3.8	7.45e-01	0	41	104	0	78	10619
2026-01-21 22:53:25.77	14.48	16.43	-54.1	-62.9	3.8	7.44e-01	0	41	104	0	78	10658
2026-01-21 22:53:26.78	14.39	16.58	-54.1	-62.8	3.8	7.44e-01	0	41	104	0	78	10647
2026-01-21 22:53:27.78	14.30	16.72	-54.1	-62.9	3.8	7.46e-01	0	41	104	0	78	10681
2026-01-21 22:53:28.79	14.22	16.87	-54.1	-62.9	3.8	7.45e-01	0	41	104	0	78	10679
2026-01-21 22:53:29.80	14.13	17.02	-54.1	-62.9	3.8	7.43e-01	0	41	104	0	78	10721
2026-01-21 22:53:30.80	14.04	17.17	-54.0	-62.8	3.8	7.45e-01	0	41	104	0	78	10633
2026-01-21 22:53:31.82	13.95	17.32	-54.1	-62.9	3.8	7.44e-01	0	41	104	0	78	10711
2026-01-21 22:53:32.83	13.85	17.48	-54.1	-62.9	3.8	7.44e-01	0	41	104	0	78	10683
2026-01-21 22:53:33.83	13.76	17.63	-54.1	-62.9	3.8	7.45e-01	0	41	104	0	78	10751
2026-01-21 22:53:34.84	13.67	17.78	-54.1	-62.9	3.8	7.44e-01	0	41	104	0	78	10727
2026-01-21 22:53:35.85	13.57	17.94	-54.1	-62.9	3.8	7.46e-01	0	41	104	0	78	10767
2026-01-21 22:53:36.86	13.47	18.10	-54.1	-62.9	3.8	7.45e-01	0	41	104	0	78	10739
2026-01-21 22:53:37.87	13.37	18.26	-54.1	-63.0	3.8	7.45e-01	0	41	104	0	78	10779
2026-01-21 22:53:38.87	13.28	18.41	-54.1	-62.9	3.8	7.46e-01	0	41	104	0	78	10739
2026-01-21 22:53:39.88	13.17	18.57	-54.1	-62.9	3.8	7.44e-01	0	41	104	0	78	10750
2026-01-21 22:53:40.89	13.07	18.74	-54.1	-62.9	3.8	7.45e-01	0	41	104	0	78	10732
2026-01-21 22:53:41.90	12.97	18.90	-54.1	-62.9	3.8	7.46e-01	0	41	104	0	78	10736
2026-01-21 22:53:42.91	12.86	19.07	-54.1	-62.9	3.8	7.45e-01	0	41	104	0	78	10755
2026-01-21 22:53:43.91	12.76	19.23	-54.2	-63.0	3.8	7.45e-01	0	41	104	0	78	10847
2026-01-21 22:53:44.92	12.65	19.40	-54.1	-62.9	3.8	7.45e-01	0	41	104	0	78	10765
2026-01-21 22:53:45.93	12.54	19.57	-54.2	-63.0	3.8	7.44e-01	0	41	104	0	78	10851
2026-01-21 22:53:46.94	12.43	19.74	-54.1	-63.0	3.8	7.45e-01	0	41	104	0	78	10800
2026-01-21 22:53:47.95	12.32	19.91	-54.2	-63.0	3.8	7.46e-01	0	41	104	0	78	10795
2026-01-21 22:53:48.95	12.21	20.08	-54.2	-63.0	3.8	7.46e-01	0	41	104	0	78	10796
2026-01-21 22:53:49.96	12.09	20.25	-54.2	-63.0	3.8	7.45e-01	0	41	104	0	78	10849
2026-01-21 22:53:50.97	11.98	20.43	-54.2	-63.0	3.8	7.46e-01	0	41	104	0	78	10818
2026-01-21 22:53:51.98	11.86	20.61	-54.2	-63.0	3.8	7.44e-01	0	41	104	0	78	10837
2026-01-21 22:53:52.99	11.74	20.79	-54.2	-63.0	3.8	7.47e-01	0	41	104	0	78	10796
2026-01-21 22:53:54.00	11.62	20.97	-54.2	-63.0	3.8	7.46e-01	0	41	104	0	78	10822
2026-01-21 22:53:55.01	11.49	21.15	-54.2	-63.0	3.8	7.46e-01	0	41	104	0	78	10804
2026-01-21 22:53:56.02	11.37	21.33	-54.2	-63.0	3.8	7.44e-01	0	41	104	0	78	10889
2026-01-21 22:53:57.03	11.24	21.52	-54.2	-63.0	3.8	7.43e-01	0	41	104	0	78	10817
2026-01-21 22:53:58.03	11.12	21.70	-54.2	-63.1	3.8	7.45e-01	0	41	104	0	79	10311
2026-01-21 22:53:59.04	10.99	21.89	-54.2	-63.0	3.8	7.46e-01	0	41	104	0	79	10273
2026-01-21 22:54:00.05	10.85	22.08	-54.2	-63.0	3.8	7.44e-01	0	41	104	0	79	10272
2026-01-21 22:54:01.06	10.72	22.27	-54.2	-63.0	3.8	7.45e-01	0	41	104	0	79	10257
2026-01-21 22:54:02.07	10.58	22.46	-54.2	-63.1	3.8	7.44e-01	0	41	104	0	79	10312
2026-01-21 22:54:03.08	10.45	22.66	-54.2	-63.0	3.8	7.45e-01	0	41	104	0	79	10273
2026-01-21 22:54:04.09	10.31	22.85	-54.3	-63.1	3.8	7.45e-01	0	41	104	0	79	10343
2026-01-21 22:54:05.10	10.16	23.05	-54.3	-63.1	3.8	7.47e-01	0	41	104	0	79	10330
2026-01-21 22:54:06.10	10.02	23.25	-54.3	-63.1	3.8	7.46e-01	0	41	104	0	79	10371
2026-01-21 22:54:07.11	9.87	23.45	-54.3	-63.1	3.8	7.44e-01	0	41	104	0	79	10335
2026-01-21 22:54:08.12	9.73	23.65	-54.3	-63.1	3.8	7.44e-01	0	41	104	0	79	10349
2026-01-21 22:54:09.13	9.58	23.86	-54.3	-63.1	3.8	7.45e-01	0	41	104	0	79	10357
2026-01-21 22:54:10.14	9.42	24.06	-54.3	-63.2	3.8	7.45e-01	0	41	104	0	79	10416
2026-01-21 22:54:11.14	9.27	24.27	-54.3	-63.1	3.8	7.46e-01	0	41	104	0	79	10358
2026-01-21 22:54:12.15	9.11	24.48	-54.3	-63.1	3.8	7.46e-01	0	41	104	0	79	10369
2026-01-21 22:54:13.16	8.95	24.69	-54.3	-63.1	3.8	7.44e-01	0	41	104	0	79	10376
2026-01-21 22:54:14.17	8.79	24.91	-54.3	-63.2	3.8	7.46e-01	0	41	104	0	79	10415
2026-01-21 22:54:15.17	8.63	25.12	-54.3	-63.1	3.8	7.45e-01	0	41	104	0	79	10334
2026-01-21 22:54:16.18	8.46	25.34	-54.3	-63.1	3.8	7.45e-01	0	41	104	0	79	10395
2026-01-21 22:54:17.19	8.29	25.56	-54.3	-63.1	3.8	7.46e-01	0	41	104	0	79	10353
2026-01-21 22:54:18.20	8.12	25.78	-54.3	-63.2	3.8	7.44e-01	0	41	104	0	79	10416
2026-01-21 22:54:19.21	7.94	26.01	-54.3	-63.1	3.8	7.43e-01	0	41	104	0	79	10363
2026-01-21 22:54:20.21	7.76	26.23	-52.6	-62.8	3.8	7.46e-01	0	41	104	0	77	11272
2026-01-21 22:54:21.22	7.58	26.46	-54.0	-63.1	3.8	7.45e-01	0	41	104	0	78	10961
2026-01-21 22:54:22.23	7.40	26.69	-54.4	-63.2	3.8	7.45e-01	0	41	104	0	79	10468
2026-01-21 22:54:23.24	7.21	26.92	-54.0	-63.2	3.8	7.46e-01	0	41	104	0	79	10424
2026-01-21 22:54:24.25	7.02	27.15	-54.4	-63.2	3.8	7.44e-01	0	41	104	0	79	10485
2026-01-21 22:54:25.26	6.82	27.39	-54.3	-63.1	3.8	7.45e-01	0	41	104	0	79	10400
2026-01-21 22:54:26.27	6.63	27.63	-54.4	-63.2	3.8	7.46e-01	0	41	104	0	79	10497
2026-01-21 22:54:27.28	6.43	27.87	-54.3	-63.2	3.8	7.46e-01	0	41	104	0	79	10440
2026-01-21 22:54:28.28	6.23	28.11	-54.4	-63.2	3.8	7.45e-01	0	41	104	0	79	10479
2026-01-21 22:54:29.29	6.02	28.36	-54.4	-63.2	3.8	7.45e-01	0	41	104	0	79	10478
2026-01-21 22:54:30.30	5.81	28.60	-54.4	-63.2	3.8	7.45e-01	0	41	104	0	79	10512
2026-01-21 22:54:31.31	5.59	28.85	-54.4	-63.2	3.8	7.45e-01	0	41	104	0	79	10491
2026-01-21 22:54:32.32	5.37	29.10	-54.4	-63.3	3.8	7.46e-01	0	41	104	0	79	10571
2026-01-21 22:54:33.32	5.16	29.36	-54.4	-63.2	3.8	7.45e-01	0	41	104	0	79	10488
2026-01-21 22:54:34.33	4.93	29.61	-54.4	-63.3	3.8	7.45e-01	0	41	104	0	79	10540
2026-01-21 22:54:35.34	4.70	29.87	-54.4	-63.2	3.8	7.45e-01	0	41	104	0	79	10503
2026-01-21 22:54:36.35	4.47	30.13	-54.4	-63.3	3.8	7.45e-01	0	41	104	0	79	10554
2026-01-21 22:54:37.36	4.23	30.40	-54.5	-63.3	3.8	7.44e-01	0	41	104	0	79	10564
2026-01-21 22:54:38.37	3.98	30.66	-54.5	-63.3	3.8	7.45e-01	0	41	104	0	79	10598
2026-01-21 22:54:39.38	3.74	30.93	-54.5	-63.3	3.8	7.45e-01	0	41	104	0	79	10567
2026-01-21 22:54:40.38	3.49	31.20	-54.5	-63.3	3.8	7.44e-01	0	41	104	0	79	10574
2026-01-21 22:54:41.39	3.23	31.47	-54.5	-63.3	3.8	7.46e-01	0	41	104	0	79	10624
2026-01-21 22:54:42.40	2.97	31.75	-54.5	-63.3	3.8	7.44e-01	0	41	104	0	79	10620
2026-01-21 22:54:43.41	2.70	32.02	-54.5	-63.3	3.8	7.45e-01	0	41	104	0	79	10626
2026-01-21 22:54:44.41	2.44	32.30	-54.5	-63.3	3.8	7.45e-01	0	41	104	0	79	10634
2026-01-21 22:54:45.42	2.16	32.58	-54.5	-63.3	3.8	7.45e-01	0	41	104	0	79	10643
2026-01-21 22:54:46.43	1.88	32.87	-54.5	-63.3	3.8	7.45e-01	0	41	104	0	79	10646
2026-01-21 22:54:47.44	1.59	33.16	-54.5	-63.3	3.8	7.45e-01	0	41	104	0	79	10654
2026-01-21 22:54:48.45	1.30	33.45	-54.6	-63.4	3.8	7.44e-01	0	41	104	0	79	10696
2026-01-21 22:54:49.46	1.00	33.74	-54.6	-63.4	3.8	7.46e-01	0	41	104	0	79	10736
2026-01-21 22:54:50.47	0.70	34.03	-54.6	-63.4	3.8	7.46e-01	0	41	104	0	79	10688
2026-01-21 22:54:51.48	0.39	34.33	-54.6	-63.4	3.8	7.46e-01	0	41	104	0	79	10704
2026-01-21 22:54:52.49	0.07	34.63	-54.6	-63.4	3.8	7.45e-01	0	41	104	0	79	10769
2026-01-21 22:54:53.50	359.75	34.93	-54.6	-63.4	3.8	7.46e-01	0	41	104	0	79	10695
2026-01-21 22:54:54.50	359.42	35.23	-54.6	-63.4	3.8	7.45e-01	0	41	104	0	79	10721
2026-01-21 22:54:55.51	359.09	35.54	-54.6	-63.4	3.8	7.45e-01	0	41	104	0	79	10708
2026-01-21 22:54:56.52	358.74	35.85	-54.6	-63.4	3.8	7.47e-01	0	41	104	0	79	10754
2026-01-21 22:54:57.53	358.39	36.16	-54.6	-63.4	3.8	7.44e-01	0	41	104	0	79	10767
2026-01-21 22:54:58.54	358.04	36.47	-54.6	-63.4	3.8	7.44e-01	0	41	104	0	79	10762
2026-01-21 22:54:59.55	357.67	36.79	-54.6	-63.4	3.8	7.45e-01	0	41	104	0	79	10709
2026-01-21 22:55:00.55	357.30	37.10	-54.7	-63.5	3.8	7.46e-01	0	41	104	0	79	10797
2026-01-21 22:55:01.56	356.93	37.42	-54.7	-63.5	3.8	7.45e-01	0	41	104	0	79	10867
2026-01-21 22:55:02.57	356.54	37.75	-54.6	-63.5	3.8	7.46e-01	0	41	104	0	79	10807
2026-01-21 22:55:03.58	356.14	38.07	-54.7	-63.5	3.8	7.44e-01	0	41	104	0	79	10820
2026-01-21 22:55:04.59	355.74	38.40	-54.7	-63.5	3.8	7.45e-01	0	41	104	0	79	10825
2026-01-21 22:55:05.60	355.32	38.73	-54.7	-63.5	3.8	7.46e-01	0	41	104	0	79	10873
2026-01-21 22:55:06.60	354.90	39.06	-54.7	-63.5	3.8	7.45e-01	0	41	104	0	79	10814
2026-01-21 22:55:07.61	354.47	39.39	-54.7	-63.5	3.8	7.44e-01	0	41	104	0	79	10865
2026-01-21 22:55:08.62	354.03	39.72	-54.7	-63.5	3.8	7.43e-01	0	41	104	0	79	10886
2026-01-21 22:55:09.62	353.59	40.06	-54.7	-63.6	3.8	7.45e-01	0	41	104	0	79	10908
2026-01-21 22:55:10.63	353.12	40.40	-54.7	-63.5	3.8	7.46e-01	0	41	104	0	80	10215
2026-01-21 22:55:11.64	352.65	40.73	-54.6	-63.5	3.8	7.47e-01	0	41	104	0	80	10180
2026-01-21 22:55:12.65	352.17	41.08	-54.7	-63.5	3.8	7.45e-01	0	41	104	0	80	10225
2026-01-21 22:55:13.66	351.68	41.42	-54.7	-63.5	3.8	7.45e-01	0	41	104	0	80	10265
2026-01-21 22:55:14.66	351.18	41.76	-54.7	-63.5	3.8	7.47e-01	0	41	104	0	80	10255
2026-01-21 22:55:15.67	350.67	42.11	-54.7	-63.5	3.8	7.45e-01	0	41	104	0	80	10237
2026-01-21 22:55:16.68	350.14	42.45	-54.7	-63.5	3.8	7.45e-01	0	41	104	0	80	10223
2026-01-21 22:55:17.69	349.60	42.80	-54.7	-63.6	3.8	7.45e-01	0	41	104	0	80	10318
2026-01-21 22:55:18.70	349.05	43.15	-54.7	-63.5	3.8	7.45e-01	0	41	104	0	80	10221
2026-01-21 22:55:19.71	348.49	43.50	-54.7	-63.5	3.8	7.46e-01	0	41	104	0	80	10293
2026-01-21 22:55:20.72	347.91	43.85	-54.7	-63.5	3.8	7.44e-01	0	41	104	0	80	10285
2026-01-21 22:55:21.72	347.32	44.19	-54.8	-63.6	3.8	7.46e-01	0	41	104	0	80	10365
2026-01-21 22:55:22.73	346.72	44.54	-54.8	-63.6	3.8	7.44e-01	0	41	104	0	80	10353
2026-01-21 22:55:23.74	346.10	44.89	-54.8	-63.6	3.8	7.45e-01	0	41	104	0	80	10374
2026-01-21 22:55:24.75	345.47	45.24	-54.8	-63.6	3.8	7.44e-01	0	41	104	0	80	10367
2026-01-21 22:55:25.76	344.82	45.59	-54.8	-63.6	3.8	7.44e-01	0	41	104	0	80	10377
2026-01-21 22:55:26.77	344.16	45.94	-54.8	-63.6	3.8	7.46e-01	0	41	104	0	80	10367
2026-01-21 22:55:27.78	343.49	46.29	-54.8	-63.6	3.8	7.46e-01	0	41	104	0	80	10397
2026-01-21 22:55:28.79	342.79	46.63	-54.8	-63.7	3.8	7.43e-01	0	41	104	0	80	10420
2026-01-21 22:55:29.79	342.09	46.98	-54.8	-63.6	3.8	7.45e-01	0	41	104	0	80	10396
2026-01-21 22:55:30.80	341.36	47.32	-54.8	-63.6	3.8	7.45e-01	0	41	104	0	80	10327
2026-01-21 22:55:31.81	340.62	47.66	-54.8	-63.6	3.8	7.46e-01	0	41	104	0	80	10410
2026-01-21 22:55:32.82	339.86	48.00	-54.8	-63.6	3.8	7.46e-01	0	41	104	0	80	10399
2026-01-21 22:55:33.83	339.09	48.34	-54.9	-63.7	3.8	7.45e-01	0	41	104	0	80	10451
2026-01-21 22:55:34.83	338.30	48.67	-54.8	-63.6	3.8	7.47e-01	0	41	104	0	80	10406
2026-01-21 22:55:35.84	337.49	49.00	-54.8	-63.7	3.8	7.46e-01	0	41	104	0	80	10435
2026-01-21 22:55:36.85	336.66	49.33	-54.9	-63.7	3.8	7.44e-01	0	41	104	0	80	10449
2026-01-21 22:55:37.86	335.81	49.65	-54.9	-63.7	3.8	7.45e-01	0	41	104	0	80	10454
2026-01-21 22:55:38.87	334.94	49.97	-54.9	-63.7	3.8	7.45e-01	0	41	104	0	80	10447
2026-01-21 22:55:39.88	334.06	50.29	-54.9	-63.8	3.8	7.45e-01	0	41	104	0	80	10536
2026-01-21 22:55:40.89	333.15	50.60	-54.9	-63.7	3.8	7.46e-01	0	41	104	0	80	10478
2026-01-21 22:55:41.89	332.24	50.90	-54.9	-63.7	3.8	7.43e-01	0	41	104	0	80	10517
2026-01-21 22:55:42.90	331.29	51.20	-54.9	-63.7	3.8	7.45e-01	0	41	104	0	80	10475
2026-01-21 22:55:43.91	330.33	51.50	-54.9	-63.8	3.8	7.44e-01	0	41	104	0	80	10546
2026-01-21 22:55:44.92	329.35	51.78	-54.9	-63.8	3.8	7.46e-01	0	41	104	0	80	10549
2026-01-21 22:55:45.93	328.35	52.07	-55.0	-63.8	3.8	7.44e-01	0	41	104	0	80	10602
2026-01-21 22:55:46.94	327.33	52.34	-54.9	-63.8	3.8	7.45e-01	0	41	104	0	80	10549
2026-01-21 22:55:47.94	326.29	52.60	-55.0	-63.8	3.8	7.45e-01	0	41	104	0	80	10572
2026-01-21 22:55:48.95	325.23	52.86	-55.0	-63.8	3.8	7.46e-01	0	41	104	0	80	10607
2026-01-21 22:55:49.96	324.16	53.11	-55.0	-63.8	3.8	7.45e-01	0	41	104	0	80	10596
2026-01-21 22:55:50.97	323.06	53.35	-54.9	-63.8	3.8	7.45e-01	0	41	104	0	80	10583
2026-01-21 22:55:51.97	321.95	53.57	-55.0	-63.8	3.8	7.44e-01	0	41	104	0	80	10612
2026-01-21 22:55:52.98	320.82	53.79	-55.0	-63.8	3.8	7.45e-01	0	41	104	0	80	10598
2026-01-21 22:55:53.99	319.67	54.00	-55.0	-63.8	3.8	7.44e-01	0	41	104	0	80	10597
2026-01-21 22:55:55.00	318.50	54.20	-54.9	-63.8	3.8	7.44e-01	0	41	104	0	80	10546
2026-01-21 22:55:56.01	317.32	54.39	-55.0	-63.8	3.8	7.45e-01	0	41	104	0	80	10601
2026-01-21 22:55:57.01	316.13	54.57	-55.0	-63.8	3.8	7.46e-01	0	41	104	0	80	10654
2026-01-21 22:55:58.02	314.92	54.73	-55.0	-63.8	3.8	7.45e-01	0	41	104	0	80	10650
2026-01-21 22:55:59.03	313.69	54.88	-55.0	-63.8	3.8	7.45e-01	0	41	104	0	80	10625
2026-01-21 22:56:00.04	312.45	55.02	-55.0	-63.8	3.8	7.44e-01	0	41	104	0	80	10640
2026-01-21 22:56:01.05	311.19	55.15	-55.0	-63.8	3.8	7.45e-01	0	41	104	0	80	10600
2026-01-21 22:56:02.06	309.93	55.27	-55.0	-63.9	3.8	7.45e-01	0	41	104	0	80	10659
2026-01-21 22:56:03.06	308.67	55.37	-55.0	-63.8	3.8	7.44e-01	0	41	104	0	80	10614
2026-01-21 22:56:04.07	307.39	55.45	-55.0	-63.9	3.8	7.48e-01	0	41	104	0	80	10698
2026-01-21 22:56:05.08	306.10	55.53	-55.0	-63.9	3.8	7.45e-01	0	41	104	0	80	10696
2026-01-21 22:56:06.09	304.80	55.59	-55.0	-63.9	3.8	7.47e-01	0	41	104	0	80	10656
2026-01-21 22:56:07.09	303.51	55.63	-55.0	-63.9	3.8	7.46e-01	0	41	104	0	80	10669
2026-01-21 22:56:08.10	302.21	55.66	-55.0	-63.9	3.8	7.46e-01	0	41	104	0	80	10676
2026-01-21 22:56:09.11	300.90	55.68	-55.0	-63.9	3.8	7.45e-01	0	41	104	0	80	10662
2026-01-21 22:56:10.11	299.60	55.68	-55.1	-63.9	3.8	7.45e-01	0	41	104	0	80	10678
2026-01-21 22:56:11.12	298.30	55.67	-55.0	-63.9	3.8	7.46e-01	0	41	104	0	80	10682
2026-01-21 22:56:12.13	296.99	55.64	-55.0	-63.9	3.8	7.46e-01	0	41	104	0	80	10734
2026-01-21 22:56:13.14	295.69	55.60	-55.0	-63.9	3.8	7.44e-01	0	41	104	0	80	10730
2026-01-21 22:56:14.15	294.39	55.54	-55.1	-63.9	3.8	7.46e-01	0	41	104	0	80	10710
2026-01-21 22:56:15.16	293.10	55.47	-55.0	-63.8	3.8	7.45e-01	0	41	104	0	80	10653
2026-01-21 22:56:16.16	291.82	55.39	-55.1	-63.9	3.8	7.44e-01	0	41	104	0	80	10696
2026-01-21 22:56:17.17	290.55	55.30	-55.1	-63.9	3.8	7.45e-01	0	41	104	0	80	10712
2026-01-21 22:56:18.18	289.28	55.18	-55.0	-63.9	3.8	7.45e-01	0	41	104	0	80	10712
2026-01-21 22:56:19.19	288.02	55.06	-55.0	-63.8	3.8	7.45e-01	0	41	104	0	80	10652
2026-01-21 22:56:20.20	286.78	54.92	-55.1	-63.9	3.8	7.46e-01	0	41	104	0	80	10704
2026-01-21 22:56:21.20	285.56	54.78	-55.1	-63.9	3.8	7.44e-01	0	41	104	0	80	10682
2026-01-21 22:56:22.21	284.34	54.61	-55.1	-63.9	3.8	7.46e-01	0	41	104	0	80	10669
2026-01-21 22:56:23.22	283.13	54.44	-55.0	-63.8	3.8	7.44e-01	0	41	104	0	80	10612
2026-01-21 22:56:24.23	281.94	54.26	-55.1	-63.9	3.8	7.46e-01	0	41	104	0	80	10704
2026-01-21 22:56:25.24	280.77	54.06	-55.1	-63.9	3.8	7.45e-01	0	41	104	0	80	10689
2026-01-21 22:56:26.24	279.63	53.85	-55.0	-63.9	3.8	7.46e-01	0	41	104	0	80	10688
2026-01-21 22:56:27.25	278.49	53.64	-55.0	-63.8	3.8	7.45e-01	0	41	104	0	80	10619
2026-01-21 22:56:28.26	277.36	53.41	-55.0	-63.9	3.8	7.46e-01	0	41	104	0	80	10664
2026-01-21 22:56:29.27	276.26	53.17	-55.0	-63.8	3.8	7.44e-01	0	41	104	0	80	10649
2026-01-21 22:56:30.27	275.19	52.93	-55.0	-63.8	3.8	7.46e-01	0	41	104	0	80	10639
2026-01-21 22:56:31.28	274.12	52.67	-55.0	-63.8	3.8	7.45e-01	0	41	104	0	80	10594
2026-01-21 22:56:32.29	273.07	52.41	-55.0	-63.9	3.8	7.45e-01	0	41	104	0	80	10668
2026-01-21 22:56:33.30	272.04	52.14	-55.0	-63.9	3.8	7.45e-01	0	41	104	0	80	10675
2026-01-21 22:56:34.30	271.04	51.86	-55.0	-63.9	3.8	7.45e-01	0	41	104	0	80	10663
2026-01-21 22:56:35.31	270.06	51.57	-55.0	-63.8	3.8	7.45e-01	0	41	104	0	80	10578
2026-01-21 22:56:36.32	269.09	51.28	-55.0	-63.8	3.8	7.45e-01	0	41	104	0	80	10651
2026-01-21 22:56:37.33	268.13	50.98	-55.0	-63.9	3.8	7.46e-01	0	41	104	0	80	10661
2026-01-21 22:56:38.34	267.20	50.68	-55.0	-63.8	3.8	7.45e-01	0	41	104	0	80	10599
2026-01-21 22:56:39.34	266.30	50.37	-54.9	-63.8	3.8	7.45e-01	0	41	104	0	80	10556
2026-01-21 22:56:40.35	265.41	50.06	-55.0	-63.8	3.8	7.46e-01	0	41	104	0	80	10617
2026-01-21 22:56:41.36	264.53	49.74	-55.0	-63.8	3.8	7.46e-01	0	41	104	0	80	10642
2026-01-21 22:56:42.37	263.68	49.41	-54.9	-63.8	3.8	7.45e-01	0	41	104	0	80	10560
2026-01-21 22:56:43.37	262.85	49.09	-54.9	-63.8	3.8	7.43e-01	0	41	104	0	80	10562
2026-01-21 22:56:44.38	262.03	48.76	-54.9	-63.8	3.8	7.46e-01	0	41	104	0	80	10572
2026-01-21 22:56:45.39	261.23	48.42	-54.9	-63.8	3.8	7.45e-01	0	41	104	0	80	10584
2026-01-21 22:56:46.40	260.45	48.09	-54.9	-63.7	3.8	7.46e-01	0	41	104	0	80	10516
2026-01-21 22:56:47.41	259.68	47.75	-54.9	-63.7	3.8	7.47e-01	0	41	104	0	80	10480
2026-01-21 22:56:48.41	258.94	47.41	-54.9	-63.7	3.8	7.46e-01	0	41	104	0	80	10504
2026-01-21 22:56:49.42	258.21	47.06	-54.9	-63.8	3.8	7.44e-01	0	41	104	0	80	10540
2026-01-21 22:56:50.43	257.50	46.72	-54.9	-63.7	3.8	7.45e-01	0	41	104	0	80	10503
2026-01-21 22:56:51.44	256.80	46.37	-54.8	-63.7	3.8	7.46e-01	0	41	104	0	80	10450
2026-01-21 22:56:52.45	256.12	46.02	-54.9	-63.7	3.8	7.45e-01	0	41	104	0	80	10495
2026-01-21 22:56:53.45	255.46	45.67	-54.9	-63.7	3.8	7.45e-01	0	41	104	0	80	10513
2026-01-21 22:56:54.46	254.80	45.32	-54.8	-63.7	3.8	7.45e-01	0	41	104	0	80	10445
2026-01-21 22:56:55.47	254.17	44.97	-54.8	-63.7	3.8	7.47e-01	0	41	104	0	80	10448
2026-01-21 22:56:56.48	253.54	44.62	-54.9	-63.7	3.8	7.44e-01	0	41	104	0	80	10476
2026-01-21 22:56:57.49	252.93	44.27	-54.9	-63.7	3.8	7.45e-01	0	41	104	0	80	10473
2026-01-21 22:56:58.49	252.34	43.92	-54.8	-63.7	3.8	7.45e-01	0	41	104	0	80	10443
2026-01-21 22:56:59.50	251.76	43.57	-54.8	-63.6	3.8	7.46e-01	0	41	104	0	80	10390
2026-01-21 22:57:00.51	251.19	43.22	-54.8	-63.7	3.8	7.45e-01	0	41	104	0	80	10458
2026-01-21 22:57:01.52	250.64	42.87	-54.8	-63.7	3.8	7.44e-01	0	41	104	0	80	10445
2026-01-21 22:57:02.53	250.09	42.52	-54.8	-63.7	3.8	7.46e-01	0	41	104	0	80	10418
2026-01-21 22:57:03.53	249.57	42.18	-54.8	-63.6	3.8	7.44e-01	0	41	104	0	80	10408
2026-01-21 22:57:04.54	249.05	41.83	-54.8	-63.7	3.8	7.45e-01	0	41	104	0	80	10458
2026-01-21 22:57:05.55	248.54	41.49	-54.8	-63.7	3.8	7.45e-01	0	41	104	0	80	10424
2026-01-21 22:57:06.56	248.05	41.14	-54.8	-63.6	3.8	7.46e-01	0	41	104	0	80	10370
2026-01-21 22:57:07.57	247.56	40.80	-54.7	-63.6	3.8	7.46e-01	0	41	104	0	80	10313
2026-01-21 22:57:08.57	247.09	40.46	-54.8	-63.6	3.8	7.45e-01	0	41	104	0	80	10368
2026-01-21 22:57:09.58	246.62	40.12	-54.8	-63.6	3.8	7.44e-01	0	41	104	0	80	10361
2026-01-21 22:57:10.59	246.17	39.78	-54.7	-63.6	3.8	7.46e-01	0	41	104	0	80	10333
2026-01-21 22:57:11.60	245.73	39.45	-54.7	-63.6	3.8	7.45e-01	0	41	104	0	80	10302
2026-01-21 22:57:12.60	245.29	39.12	-54.8	-63.6	3.8	7.43e-01	0	41	104	0	80	10341
2026-01-21 22:57:13.61	244.87	38.78	-54.7	-63.6	3.8	7.45e-01	0	41	104	0	80	10336
2026-01-21 22:57:14.62	244.45	38.45	-54.7	-63.6	3.8	7.45e-01	0	41	104	0	80	10312
2026-01-21 22:57:15.63	244.04	38.12	-54.7	-63.5	3.8	7.45e-01	0	41	104	0	80	10283
2026-01-21 22:57:16.63	243.65	37.80	-54.7	-63.6	3.8	7.46e-01	0	41	104	0	80	10316
2026-01-21 22:57:17.64	243.26	37.48	-54.7	-63.5	3.8	7.46e-01	0	41	104	0	80	10253
2026-01-21 22:57:18.65	242.87	37.15	-54.7	-63.5	3.8	7.45e-01	0	41	104	0	80	10262
2026-01-21 22:57:19.66	242.50	36.83	-54.7	-63.5	3.8	7.46e-01	0	41	104	0	80	10193
2026-01-21 22:57:20.67	242.13	36.52	-54.7	-63.5	3.8	7.45e-01	0	41	104	0	80	10234
2026-01-21 22:57:21.67	241.78	36.20	-54.7	-63.5	3.8	7.44e-01	0	41	104	0	80	10196
2026-01-21 22:57:22.68	241.42	35.89	-54.7	-63.5	3.8	7.44e-01	0	41	104	0	80	10259
2026-01-21 22:57:23.69	241.08	35.58	-54.6	-63.5	3.8	7.43e-01	0	41	104	0	80	10191
2026-01-21 22:57:24.70	240.74	35.27	-54.7	-63.5	3.8	7.45e-01	0	41	104	0	80	10183
2026-01-21 22:57:25.71	240.41	34.97	-54.6	-63.5	3.8	7.48e-01	0	41	104	0	80	10188
2026-01-21 22:57:26.71	240.09	34.67	-54.6	-63.5	3.8	7.45e-01	0	41	104	0	80	10182
2026-01-21 22:57:27.72	239.77	34.36	-54.6	-63.4	3.8	7.47e-01	0	41	104	0	80	10165
2026-01-21 22:57:28.73	239.45	34.07	-54.6	-63.5	3.8	7.45e-01	0	41	104	0	80	10181
2026-01-21 22:57:29.74	239.15	33.77	-54.6	-63.5	3.8	7.45e-01	0	41	104	0	80	10196
2026-01-21 22:57:30.75	238.85	33.48	-54.6	-63.4	3.8	7.46e-01	0	41	104	0	80	10143
2026-01-21 22:57:31.76	238.55	33.18	-54.6	-63.4	3.8	7.47e-01	0	41	104	0	80	10130
2026-01-21 22:57:32.76	238.27	32.90	-54.6	-63.4	3.8	7.46e-01	0	41	104	0	80	10138
2026-01-21 22:57:33.77	237.98	32.61	-54.6	-63.4	3.8	7.45e-01	0	41	104	0	80	10139
2026-01-21 22:57:34.78	237.70	32.33	-54.6	-63.4	3.8	7.46e-01	0	41	104	0	80	10159
2026-01-21 22:57:35.79	237.43	32.05	-54.5	-63.4	3.8	7.44e-01	0	41	104	0	80	10073
2026-01-21 22:57:36.80	237.16	31.77	-54.6	-63.4	3.8	7.45e-01	0	41	104	0	80	10099
2026-01-21 22:57:37.80	236.90	31.49	-54.5	-63.4	3.8	7.46e-01	0	41	104	0	80	10096
2026-01-21 22:57:38.81	236.64	31.22	-54.5	-63.4	3.8	7.46e-01	0	41	104	0	80	10080
2026-01-21 22:57:39.82	236.39	30.95	-54.5	-63.4	3.8	7.46e-01	0	41	104	0	80	10069
2026-01-21 22:57:40.83	236.14	30.68	-54.5	-63.4	3.8	7.46e-01	0	41	104	0	80	10091
2026-01-21 22:57:41.83	235.90	30.41	-54.5	-63.4	3.8	7.45e-01	0	41	104	0	80	10078
2026-01-21 22:57:42.84	235.66	30.15	-54.5	-63.3	3.8	7.45e-01	0	41	104	0	80	10055
2026-01-21 22:57:43.85	235.42	29.88	-54.5	-63.3	3.8	7.47e-01	0	41	104	0	80	10039
2026-01-21 22:57:44.86	235.19	29.62	-54.5	-63.4	3.8	7.44e-01	0	41	104	0	80	10064
2026-01-21 22:57:45.87	234.96	29.37	-54.5	-63.3	3.8	7.46e-01	0	41	104	0	80	10037
2026-01-21 22:57:46.88	234.74	29.11	-54.5	-63.3	3.8	7.45e-01	0	41	104	0	80	10024
2026-01-21 22:57:47.88	234.52	28.86	-54.5	-63.3	3.8	7.44e-01	0	41	104	0	80	10000
2026-01-21 22:57:48.89	234.31	28.61	-54.5	-63.3	3.8	7.44e-01	0	41	104	0	80	9990
2026-01-21 22:57:49.90	234.09	28.36	-54.5	-63.3	3.8	7.44e-01	0	41	104	0	80	10048
2026-01-21 22:57:50.91	233.89	28.11	-54.5	-63.3	3.8	7.46e-01	0	41	104	0	80	10006
2026-01-21 22:57:51.92	233.68	27.87	-54.4	-63.3	3.8	7.47e-01	0	41	104	0	80	9953
2026-01-21 22:57:52.93	233.48	27.63	-54.4	-63.3	3.8	7.45e-01	0	41	104	0	80	9977
2026-01-21 22:57:53.93	233.28	27.39	-54.4	-63.3	3.8	7.47e-01	0	41	104	0	80	9983
2026-01-21 22:57:54.94	233.09	27.15	-54.4	-63.2	3.8	7.43e-01	0	41	104	0	80	9920
2026-01-21 22:57:55.95	232.90	26.92	-54.4	-63.3	3.8	7.46e-01	0	41	104	0	80	9968
2026-01-21 22:57:56.96	232.71	26.68	-54.4	-63.3	3.8	7.45e-01	0	41	104	0	80	9945
2026-01-21 22:57:57.97	232.52	26.45	-54.4	-63.2	3.8	7.44e-01	0	41	104	0	80	9940
2026-01-21 22:57:58.98	232.34	26.22	-54.4	-63.2	3.8	7.46e-01	0	41	104	0	80	9928
2026-01-21 22:57:59.98	232.16	26.00	-54.4	-63.2	3.8	7.45e-01	0	41	104	0	80	9938
2026-01-21 22:58:00.99	231.98	25.77	-54.4	-63.2	3.8	7.46e-01	0	41	104	0	80	9915
2026-01-21 22:58:02.00	231.81	25.55	-54.4	-63.2	3.8	7.44e-01	0	41	104	0	80	9875
2026-01-21 22:58:03.01	231.64	25.33	-54.3	-63.2	3.8	7.44e-01	0	41	104	0	80	9879
2026-01-21 22:58:04.02	231.47	25.11	-54.3	-63.2	3.8	7.43e-01	0	41	104	0	80	9866
2026-01-21 22:58:05.03	231.30	24.89	-54.3	-63.2	3.8	7.44e-01	0	41	104	0	80	9861
2026-01-21 22:58:06.03	231.14	24.68	-54.3	-63.2	3.8	7.44e-01	0	41	104	0	80	9871
2026-01-21 22:58:07.04	230.98	24.46	-54.3	-63.2	3.8	7.45e-01	0	41	104	0	80	9845
2026-01-21 22:58:08.05	230.82	24.25	-54.3	-63.1	3.8	7.46e-01	0	41	104	0	80	9810
2026-01-21 22:58:09.06	230.66	24.04	-54.3	-63.1	3.8	7.47e-01	0	41	104	0	80	9824
2026-01-21 22:58:10.07	230.51	23.83	-54.3	-63.2	3.8	7.44e-01	0	41	104	0	80	9848
2026-01-21 22:58:11.07	230.36	23.63	-54.3	-63.2	3.8	7.47e-01	0	41	104	0	80	9836
2026-01-21 22:58:12.08	230.21	23.43	-54.3	-63.1	3.8	7.46e-01	0	41	104	0	80	9802
2026-01-21 22:58:13.09	230.06	23.22	-54.3	-63.1	3.8	7.46e-01	0	41	104	0	80	9760
2026-01-21 22:58:14.10	229.92	23.02	-54.3	-63.2	3.8	7.47e-01	0	41	104	0	80	9851
2026-01-21 22:58:15.11	229.77	22.82	-54.3	-63.1	3.8	7.46e-01	0	41	104	0	80	9812
2026-01-21 22:58:16.11	229.64	22.63	-54.3	-63.1	3.8	7.45e-01	0	42	104	0	80	9778
2026-01-21 22:58:17.12	229.50	22.43	-54.3	-63.1	3.8	7.46e-01	0	41	104	0	80	9772
2026-01-21 22:58:18.13	229.36	22.24	-54.3	-63.1	3.8	7.45e-01	0	41	104	0	80	9800
2026-01-21 22:58:19.14	229.22	22.05	-54.3	-63.1	3.8	7.45e-01	0	41	104	0	80	9769
2026-01-21 22:58:20.15	229.09	21.86	-54.3	-63.1	3.8	7.47e-01	0	41	104	0	80	9790
2026-01-21 22:58:21.15	228.96	21.67	-54.3	-63.1	3.8	7.45e-01	0	41	104	0	80	9761
2026-01-21 22:58:22.16	228.83	21.48	-54.2	-63.1	3.8	7.46e-01	0	41	104	0	80	9739
2026-01-21 22:58:23.17	228.70	21.29	-54.2	-63.1	3.8	7.45e-01	0	42	104	0	80	9731
2026-01-21 22:58:24.18	228.58	21.11	-54.2	-63.1	3.8	7.46e-01	0	41	104	0	80	9742
2026-01-21 22:58:25.19	228.46	20.93	-54.2	-63.1	3.8	7.47e-01	0	42	104	0	80	9742
2026-01-21 22:58:26.19	228.33	20.75	-54.2	-63.0	3.8	7.44e-01	0	41	104	0	80	9693
2026-01-21 22:58:27.20	228.21	20.57	-54.2	-63.0	3.8	7.44e-01	0	42	104	0	80	9703
2026-01-21 22:58:28.21	228.09	20.39	-54.2	-63.0	3.8	7.46e-01	0	41	104	0	80	9699
2026-01-21 22:58:29.22	227.98	20.21	-54.2	-63.0	3.8	7.45e-01	0	41	104	0	80	9686
2026-01-21 22:58:30.23	227.86	20.04	-54.2	-63.0	3.8	7.46e-01	0	41	104	0	80	9716
2026-01-21 22:58:31.24	227.75	19.86	-54.2	-63.0	3.8	7.46e-01	0	41	104	0	80	9660
2026-01-21 22:58:32.25	227.63	19.69	-54.2	-63.0	3.8	7.45e-01	0	41	104	0	80	9703
2026-01-21 22:58:33.26	227.52	19.52	-54.2	-63.0	3.8	7.45e-01	0	42	104	0	80	9666
2026-01-21 22:58:34.26	227.41	19.35	-54.2	-63.0	3.8	7.44e-01	0	41	104	0	80	9666
2026-01-21 22:58:35.27	227.31	19.18	-54.2	-63.0	3.8	7.47e-01	0	41	104	0	80	9670
2026-01-21 22:58:36.28	227.20	19.02	-54.1	-63.0	3.8	7.46e-01	0	41	104	0	80	9612
2026-01-21 22:58:37.29	227.09	18.85	-54.2	-63.0	3.8	7.45e-01	0	41	104	0	80	9640
2026-01-21 22:58:38.30	226.99	18.69	-54.1	-62.9	3.8	7.47e-01	0	41	104	0	80	9605
2026-01-21 22:58:39.30	226.89	18.53	-54.1	-63.0	3.8	7.45e-01	0	41	104	0	80	9650
2026-01-21 22:58:40.32	226.78	18.36	-54.1	-63.0	3.8	7.44e-01	0	41	104	0	80	9627
2026-01-21 22:58:41.32	226.68	18.20	-54.1	-63.0	3.8	7.47e-01	0	41	104	0	80	9614
2026-01-21 22:58:42.33	226.58	18.04	-54.1	-62.9	3.8	7.45e-01	0	41	104	0	80	9589
2026-01-21 22:58:43.34	226.49	17.89	-54.1	-62.9	3.8	7.46e-01	0	41	104	0	80	9598
2026-01-21 22:58:44.35	226.39	17.73	-54.1	-62.9	3.8	7.43e-01	0	42	104	0	80	9592
2026-01-21 22:58:45.35	226.30	17.58	-54.1	-62.9	3.8	7.45e-01	0	41	104	0	80	9588
2026-01-21 22:58:46.36	226.20	17.42	-54.1	-63.0	3.8	7.46e-01	0	41	104	0	80	9609
2026-01-21 22:58:47.37	226.11	17.27	-54.1	-62.9	3.8	7.45e-01	0	41	104	0	80	9601
2026-01-21 22:58:48.38	226.02	17.12	-54.1	-62.9	3.8	7.44e-01	0	41	104	0	80	9578
2026-01-21 22:58:49.39	225.93	16.96	-54.1	-62.9	3.8	7.44e-01	0	41	104	0	80	9532
2026-01-21 22:58:50.39	225.84	16.82	-54.1	-62.9	3.8	7.46e-01	0	41	104	0	80	9543
2026-01-21 22:58:51.40	225.75	16.67	-54.1	-62.9	3.8	7.44e-01	0	41	104	0	80	9549
2026-01-21 22:58:52.41	225.66	16.52	-54.0	-62.9	3.8	7.44e-01	0	42	104	0	80	9552
2026-01-21 22:58:53.42	225.57	16.37	-54.0	-62.9	3.8	7.44e-01	0	41	104	0	80	9539
2026-01-21 22:58:54.43	225.49	16.23	-54.0	-62.9	3.8	7.44e-01	0	41	104	0	80	9500
2026-01-21 22:58:55.43	225.40	16.08	-54.0	-62.8	3.8	7.46e-01	0	41	104	0	80	9473
2026-01-21 22:58:56.44	225.32	15.94	-54.0	-62.8	3.8	7.46e-01	0	42	104	0	80	9468
2026-01-21 22:58:57.45	225.24	15.80	-54.0	-62.8	3.8	7.45e-01	0	42	104	0	80	9491
2026-01-21 22:58:58.46	225.16	15.66	-54.0	-62.8	3.8	7.47e-01	0	41	104	0	80	9461
2026-01-21 22:58:59.47	225.07	15.52	-54.0	-62.8	3.8	7.45e-01	0	41	104	0	80	9427
2026-01-21 22:59:00.47	225.00	15.38	-54.0	-62.8	3.8	7.46e-01	0	41	104	0	80	9480
2026-01-21 22:59:01.48	224.92	15.24	-54.0	-62.8	3.8	7.47e-01	0	42	104	0	80	9398
2026-01-21 22:59:02.49	224.84	15.10	-54.0	-62.8	3.8	7.44e-01	0	41	104	0	79	10042
2026-01-21 22:59:03.50	224.76	14.97	-54.0	-62.9	3.8	7.45e-01	0	41	104	0	79	10120
2026-01-21 22:59:04.51	224.68	14.83	-54.0	-62.8	3.8	7.46e-01	0	42	104	0	79	10048
2026-01-21 22:59:05.51	224.61	14.70	-54.0	-62.8	3.8	7.43e-01	0	42	104	0	79	10036
2026-01-21 22:59:06.52	224.54	14.56	-54.0	-62.8	3.8	7.46e-01	0	41	104	0	79	10056
2026-01-21 22:59:07.53	224.46	14.43	-54.0	-62.8	3.8	7.45e-01	0	41	104	0	79	10016
2026-01-21 22:59:08.54	224.39	14.30	-54.0	-62.8	3.8	7.45e-01	0	41	104	0	79	10002
2026-01-21 22:59:09.55	224.32	14.17	-54.0	-62.8	3.8	7.46e-01	0	41	104	0	79	10013
2026-01-21 22:59:10.55	224.25	14.04	-54.0	-62.8	3.8	7.46e-01	0	41	104	0	79	10004
2026-01-21 22:59:11.56	224.17	13.91	-54.0	-62.8	3.8	7.45e-01	0	41	104	0	79	10020
2026-01-21 22:59:12.57	224.10	13.78	-53.9	-62.8	3.8	7.44e-01	0	41	104	0	79	9984
2026-01-21 22:59:13.58	224.04	13.65	-54.0	-62.8	3.8	7.45e-01	0	41	104	0	79	10038
2026-01-21 22:59:14.59	223.97	13.53	-54.0	-62.8	3.8	7.44e-01	0	41	104	0	79	9950
2026-01-21 22:59:15.60	223.90	13.40	-54.0	-62.8	3.8	7.46e-01	0	41	104	0	79	9988
2026-01-21 22:59:16.60	223.83	13.28	-53.9	-62.8	3.8	7.44e-01	0	41	104	0	79	9951
2026-01-21 22:59:17.61	223.77	13.15	-53.9	-62.8	3.8	7.46e-01	0	41	104	0	79	9948
2026-01-21 22:59:18.62	223.70	13.03	-53.9	-62.8	3.8	7.44e-01	0	41	104	0	79	9960
2026-01-21 22:59:19.63	223.64	12.91	-53.9	-62.8	3.8	7.46e-01	0	42	104	0	79	9968
2026-01-21 22:59:20.63	223.57	12.79	-53.9	-62.7	3.8	7.45e-01	0	42	104	0	79	9899
2026-01-21 22:59:21.64	223.51	12.67	-53.9	-62.7	3.8	7.46e-01	0	42	104	0	79	9879
2026-01-21 22:59:22.65	223.45	12.55	-53.9	-62.7	3.8	7.45e-01	0	42	104	0	79	9934
2026-01-21 22:59:23.66	223.38	12.43	-53.9	-62.7	3.8	7.46e-01	0	42	104	0	79	9878
2026-01-21 22:59:24.67	223.32	12.31	-53.8	-62.7	3.8	7.45e-01	0	42	104	0	79	9841
2026-01-21 22:59:25.67	223.26	12.19	-53.8	-62.7	3.8	7.44e-01	0	42	104	0	79	9849
2026-01-21 22:59:26.68	223.20	12.07	-53.9	-62.7	3.8	7.45e-01	0	41	104	0	79	9843
2026-01-21 22:59:27.69	223.14	11.96	-53.9	-62.7	3.8	7.45e-01	0	42	104	0	79	9873
2026-01-21 22:59:28.70	223.08	11.84	-53.8	-62.6	3.8	7.45e-01	0	41	104	0	79	9823
2026-01-21 22:59:29.71	223.02	11.72	-53.8	-62.7	3.8	7.45e-01	0	41	104	0	79	9843
2026-01-21 22:59:30.71	222.97	11.61	-53.8	-62.6	3.8	7.44e-01	0	41	104	0	79	9811
2026-01-21 22:59:31.72	222.91	11.50	-53.8	-62.7	3.8	7.45e-01	0	42	104	0	79	9845
2026-01-21 22:59:32.73	222.85	11.38	-53.8	-62.6	3.8	7.45e-01	0	42	104	0	79	9782
2026-01-21 22:59:33.74	222.80	11.27	-53.8	-62.6	3.8	7.45e-01	0	42	104	0	79	9770
2026-01-21 22:59:34.75	222.74	11.16	-53.8	-62.6	3.8	7.45e-01	0	41	104	0	79	9810
2026-01-21 22:59:35.75	222.69	11.05	-53.8	-62.6	3.8	7.44e-01	0	42	104	0	79	9802
2026-01-21 22:59:36.76	222.63	10.94	-53.7	-62.6	3.8	7.44e-01	0	42	104	0	79	9754
2026-01-21 22:59:37.77	222.58	10.83	-53.7	-62.6	3.8	7.45e-01	0	41	104	0	79	9736
2026-01-21 22:59:38.78	222.52	10.72	-53.8	-62.6	3.8	7.46e-01	0	41	104	0	79	9779
2026-01-21 22:59:39.79	222.47	10.61	-53.8	-62.6	3.8	7.45e-01	0	41	104	0	79	9745
2026-01-21 22:59:40.79	222.42	10.50	-53.7	-62.5	3.8	7.45e-01	0	41	104	0	79	9703
2026-01-21 22:59:41.80	222.37	10.40	-53.7	-62.5	3.8	7.45e-01	0	41	104	0	79	9640
2026-01-21 22:59:42.81	222.32	10.29	-53.7	-62.6	3.8	7.45e-01	0	41	104	0	79	9745
2026-01-21 22:59:43.82	222.26	10.18	-53.7	-62.6	3.8	7.43e-01	0	41	104	0	79	9748
2026-01-21 22:59:44.83	222.21	10.08	-53.7	-62.5	3.8	7.44e-01	0	42	104	0	79	9653
2026-01-21 22:59:45.83	222.16	9.97	-53.6	-62.5	3.8	7.45e-01	0	42	104	0	79	9637
2026-01-21 22:59:46.84	222.11	9.87	-53.7	-62.5	3.8	7.45e-01	0	41	104	0	79	9700
2026-01-21 22:59:47.85	222.07	9.76	-53.7	-62.5	3.8	7.45e-01	0	41	104	0	79	9663
2026-01-21 22:59:48.86	222.02	9.66	-53.6	-62.5	3.8	7.46e-01	0	41	104	0	79	9626
2026-01-21 22:59:49.87	221.97	9.56	-53.6	-62.4	3.8	7.44e-01	0	41	104	0	79	9579
2026-01-21 22:59:50.87	221.92	9.46	-53.7	-62.5	3.8	7.45e-01	0	41	104	0	79	9656
2026-01-21 22:59:51.88	221.87	9.36	-53.6	-62.4	3.8	7.45e-01	0	42	104	0	79	9604
2026-01-21 22:59:52.89	221.83	9.25	-53.6	-62.4	3.8	7.47e-01	0	42	104	0	79	9544
2026-01-21 22:59:53.90	221.78	9.15	-53.5	-62.4	3.8	7.45e-01	0	41	104	0	79	9517
2026-01-21 22:59:54.91	221.73	9.05	-53.6	-62.5	3.8	7.45e-01	0	42	104	0	79	9613
2026-01-21 22:59:55.91	221.69	8.95	-53.6	-62.4	3.8	7.44e-01	0	41	104	0	79	9577
2026-01-21 22:59:56.92	221.64	8.86	-53.5	-62.3	3.8	7.45e-01	0	41	104	0	79	9486
2026-01-21 22:59:57.93	221.60	8.76	-53.5	-62.3	3.8	7.45e-01	0	41	104	0	79	9440
2026-01-21 22:59:58.94	221.55	8.66	-53.6	-62.4	3.8	7.45e-01	0	41	104	0	79	9569
2026-01-21 22:59:59.95	221.51	8.56	-53.6	-62.4	3.8	7.44e-01	0	41	104	0	79	9512
2026-01-21 23:00:00.96	221.47	8.46	-53.5	-62.3	3.8	7.45e-01	0	41	104	0	79	9439
2026-01-21 23:00:01.97	221.42	8.37	-53.4	-62.3	3.8	7.46e-01	0	42	104	0	78	9958
2026-01-21 23:00:02.98	221.38	8.27	-53.5	-62.3	3.8	7.44e-01	0	42	104	0	78	10035
2026-01-21 23:00:03.99	221.34	8.18	-53.5	-62.3	3.8	7.47e-01	0	42	104	0	78	10018
2026-01-21 23:00:05.00	221.30	8.08	-53.4	-62.3	3.8	7.45e-01	0	41	104	0	78	9952
2026-01-21 23:00:06.00	221.26	7.99	-53.4	-62.2	3.8	7.42e-01	0	42	104	0	78	9903
2026-01-21 23:00:07.01	221.21	7.89	-53.5	-62.3	3.8	7.46e-01	0	42	104	0	78	9994
2026-01-21 23:00:08.02	221.17	7.80	-53.4	-62.3	3.8	7.44e-01	0	41	104	0	78	9957
2026-01-21 23:00:09.03	221.13	7.70	-53.4	-62.2	3.8	7.47e-01	0	42	104	0	78	9838
2026-01-21 23:00:10.04	221.09	7.61	-53.3	-62.2	3.8	7.46e-01	0	42	104	0	78	9857
2026-01-21 23:00:11.05	221.05	7.52	-53.4	-62.2	3.8	7.45e-01	0	42	104	0	78	9939
2026-01-21 23:00:12.05	221.01	7.43	-53.4	-62.2	3.8	7.45e-01	0	41	104	0	78	9937
2026-01-21 23:00:13.06	220.97	7.34	-53.3	-62.1	3.8	7.47e-01	0	41	104	0	78	9828
2026-01-21 23:00:14.07	220.93	7.25	-53.3	-62.1	3.8	7.44e-01	0	42	104	0	78	9800
2026-01-21 23:00:15.08	220.90	7.15	-53.4	-62.2	3.8	7.44e-01	0	41	104	0	78	9850
2026-01-21 23:00:16.09	220.86	7.06	-53.3	-62.1	3.8	7.45e-01	0	42	104	0	78	9798
2026-01-21 23:00:17.09	220.82	6.97	-53.3	-62.1	3.8	7.45e-01	0	42	104	0	78	9769
2026-01-21 23:00:18.10	220.78	6.89	-53.2	-62.1	3.8	7.46e-01	0	41	104	0	78	9753
2026-01-21 23:00:19.11	220.74	6.80	-53.3	-62.2	3.8	7.45e-01	0	41	104	0	78	9881
2026-01-21 23:00:20.12	220.71	6.71	-53.3	-62.1	3.8	7.44e-01	0	41	104	0	78	9817
2026-01-21 23:00:21.13	220.67	6.62	-53.2	-62.1	3.8	7.45e-01	0	41	104	0	78	9730
2026-01-21 23:00:22.14	220.63	6.53	-53.2	-62.0	3.8	7.47e-01	0	41	104	0	78	9645
2026-01-21 23:00:23.15	220.60	6.44	-53.3	-62.1	3.8	7.44e-01	0	42	104	0	78	9790
2026-01-21 23:00:24.16	220.56	6.36	-53.2	-62.1	3.8	7.43e-01	0	41	104	0	78	9746
2026-01-21 23:00:25.17	220.53	6.27	-53.2	-62.0	3.8	7.46e-01	0	41	104	0	78	9651
2026-01-21 23:00:26.18	220.49	6.18	-53.1	-62.0	3.8	7.47e-01	0	41	104	0	78	9658
2026-01-21 23:00:27.18	220.46	6.10	-53.2	-62.1	3.8	7.46e-01	0	41	104	0	78	9729
2026-01-21 23:00:28.20	220.42	6.01	-53.2	-62.0	3.8	7.44e-01	0	41	104	0	78	9682
2026-01-21 23:00:29.20	220.39	5.93	-53.1	-61.9	3.8	7.45e-01	0	41	104	0	78	9554
2026-01-21 23:00:30.21	220.35	5.84	-53.1	-61.9	3.8	7.46e-01	0	42	104	0	78	9563
2026-01-21 23:00:31.22	220.32	5.76	-53.2	-62.0	3.8	7.45e-01	0	41	104	0	78	9705
2026-01-21 23:00:32.23	220.29	5.67	-53.1	-62.0	3.8	7.47e-01	0	42	104	0	78	9633
2026-01-21 23:00:33.24	220.25	5.59	-53.0	-61.8	3.8	7.46e-01	0	41	104	0	78	9481
2026-01-21 23:00:34.25	220.22	5.51	-53.0	-61.8	3.8	7.44e-01	0	42	104	0	78	9483
2026-01-21 23:00:35.25	220.19	5.42	-53.1	-62.0	3.8	7.45e-01	0	42	104	0	78	9644
2026-01-21 23:00:36.26	220.16	5.34	-53.1	-61.9	3.8	7.45e-01	0	41	104	0	78	9535
2026-01-21 23:00:37.27	220.12	5.26	-52.9	-61.8	3.8	7.44e-01	0	41	104	0	77	9968
2026-01-21 23:00:38.28	220.09	5.18	-52.9	-61.7	3.8	7.44e-01	0	41	104	0	77	9929
2026-01-21 23:00:39.29	220.06	5.09	-53.1	-61.9	3.8	7.46e-01	0	41	104	0	77	10074
2026-01-21 23:00:40.30	220.03	5.01	-53.0	-61.8	3.8	7.45e-01	0	41	104	0	77	10040
2026-01-21 23:00:41.31	220.00	4.93	-53.4	-62.2	3.8	7.46e-01	0	42	104	0	77	10527
2026-01-21 23:00:42.32	219.97	4.85	-53.8	-62.6	3.8	7.47e-01	0	41	104	0	78	10408
2026-01-21 23:00:43.32	219.93	4.77	-54.0	-62.9	3.8	7.47e-01	0	41	104	0	78	10698
2026-01-21 23:00:44.33	219.90	4.69	-54.2	-63.0	3.9	7.46e-01	0	41	104	0	79	10272
2026-01-21 23:00:45.34	219.87	4.61	-54.3	-63.2	3.8	7.46e-01	0	41	104	0	79	10419
2026-01-21 23:00:46.35	219.84	4.53	-54.4	-63.3	3.8	7.46e-01	0	41	104	0	79	10543
2026-01-21 23:00:47.36	219.81	4.45	-54.5	-63.3	3.8	7.45e-01	0	41	104	0	79	10628
2026-01-21 23:00:48.37	219.78	4.37	-54.5	-63.4	3.8	7.45e-01	0	41	104	0	79	10686
2026-01-21 23:00:49.38	219.76	4.30	-54.6	-63.4	3.8	7.45e-01	0	41	104	0	79	10718
2026-01-21 23:00:50.38	219.73	4.22	-54.6	-63.4	3.8	7.45e-01	0	41	104	0	79	10752
2026-01-21 23:00:51.39	219.70	4.14	-54.6	-63.5	3.8	7.45e-01	0	41	104	0	79	10795
2026-01-21 23:00:52.40	219.67	4.06	-54.6	-63.5	3.8	7.45e-01	0	42	104	0	79	10809
2026-01-21 23:00:53.41	219.64	3.98	-54.7	-63.5	3.8	7.44e-01	0	41	104	0	79	10857
2026-01-21 23:00:54.42	219.61	3.91	-54.7	-63.5	3.8	7.46e-01	0	42	104	0	79	10847
2026-01-21 23:00:55.43	219.58	3.83	-54.7	-63.5	3.8	7.46e-01	0	42	104	0	79	10809
2026-01-21 23:00:56.44	219.56	3.75	-54.7	-63.5	3.8	7.46e-01	0	41	104	0	79	10816
2026-01-21 23:00:57.45	219.53	3.68	-54.6	-63.5	3.8	7.45e-01	0	41	104	0	79	10789
2026-01-21 23:00:58.45	219.50	3.60	-54.6	-63.4	3.8	7.45e-01	0	41	104	0	79	10769
2026-01-21 23:00:59.46	219.47	3.53	-54.6	-63.4	3.8	7.45e-01	0	41	104	0	79	10724
2026-01-21 23:01:00.47	219.45	3.45	-54.5	-63.3	3.8	7.45e-01	0	41	104	0	79	10651
2026-01-21 23:01:01.48	219.42	3.38	-54.4	-63.2	3.8	7.44e-01	0	42	104	0	79	10531
2026-01-21 23:01:02.49	219.39	3.30	-54.3	-63.2	3.8	7.45e-01	0	41	104	0	79	10423
2026-01-21 23:01:03.49	219.37	3.23	-54.3	-63.2	3.8	7.45e-01	0	42	104	0	79	10421
2026-01-21 23:01:04.50	219.34	3.15	-54.3	-63.1	3.8	7.46e-01	0	42	104	0	79	10386
2026-01-21 23:01:05.51	219.31	3.08	-54.3	-63.1	3.8	7.46e-01	0	41	104	0	79	10375
2026-01-21 23:01:06.52	219.29	3.00	-54.3	-63.1	3.8	7.45e-01	0	41	104	0	79	10373
2026-01-21 23:01:07.53	219.26	2.93	-54.3	-63.1	3.8	7.45e-01	0	41	104	0	79	10363
2026-01-21 23:01:08.54	219.24	2.86	-54.3	-63.1	3.8	7.44e-01	0	41	104	0	79	10349
2026-01-21 23:01:09.55	219.21	2.78	-54.3	-63.1	3.8	7.45e-01	0	41	104	0	79	10405
2026-01-21 23:01:10.56	219.19	2.71	-54.3	-63.1	3.8	7.45e-01	0	42	104	0	79	10332
2026-01-21 23:01:11.57	219.16	2.64	-54.3	-63.1	3.8	7.47e-01	0	42	104	0	79	10339
2026-01-21 23:01:12.57	219.14	2.57	-54.3	-63.1	3.8	7.45e-01	0	41	104	0	79	10369
2026-01-21 23:01:13.58	219.11	2.49	-54.3	-63.1	3.8	7.44e-01	0	41	104	0	79	10295
2026-01-21 23:01:14.59	219.09	2.42	-54.2	-63.1	3.8	7.45e-01	0	41	104	0	79	10297
2026-01-21 23:01:15.60	219.06	2.35	-54.3	-63.1	3.8	7.45e-01	0	41	104	0	79	10319
2026-01-21 23:01:16.61	219.04	2.28	-54.3	-63.1	3.8	7.45e-01	0	42	104	0	79	10346
2026-01-21 23:01:17.61	219.02	2.21	-54.2	-63.0	3.8	7.45e-01	0	41	104	0	79	10290
2026-01-21 23:01:18.62	218.99	2.14	-54.2	-63.1	3.8	7.46e-01	0	42	104	0	79	10328
2026-01-21 23:01:19.63	218.97	2.07	-54.2	-63.1	3.8	7.45e-01	0	42	104	0	79	10294
2026-01-21 23:01:20.64	218.95	2.00	-54.2	-63.0	3.8	7.45e-01	0	41	104	0	79	10262
2026-01-21 23:01:21.65	218.92	1.93	-54.2	-63.1	3.8	7.45e-01	0	41	104	0	79	10325

#Closed at: 2026-01-21 23:01:22
#Recorded file [0 MB]: D:/lorett/data/31041_260122_015056.dat