passes_logs/2026/01/21/R3.2S_Murmansk/R3.2S_Murmansk__20260121_101432_FENGYUN_3D_rec.log

#Pass ID: 20260121_101432_FENGYUN 3D
#Satellite: FENGYUN 3D
#Configuration: FENGYUN 3D
#almurnet v.1.7.20251203
#Start time: 2026-01-21 10:14:31

#Version: 2.2.20231116
#Station: R3.2S_Murmansk
#Location: 33.079688 lon 68.888172 lat
#TLE: 1 43010U 17072A   26020.92362722 -.00000077  00000+0 -14488-4 0  9992
#TLE: 2 43010  98.9946 352.8312 0002486  99.3651 260.7806 14.19696535424099

#Time	Az	El	Level	Level2	SNR	BER	BlckErr	Temp	State	Recorded	gain1	gain2
2026-01-21 10:14:31.36	120.59	1.96	-54.3	-66.3	3.8	8.47e-01	0	40	0	0	79	15008
2026-01-21 10:14:32.37	120.56	2.02	-54.5	-66.5	3.8	8.46e-01	0	40	104	0	79	15371
2026-01-21 10:14:33.38	120.53	2.09	-54.5	-66.5	3.8	8.46e-01	0	40	104	0	79	15392
2026-01-21 10:14:34.39	120.50	2.15	-54.6	-66.6	3.8	8.45e-01	0	40	104	0	79	15411
2026-01-21 10:14:35.39	120.47	2.21	-54.5	-66.5	3.8	8.47e-01	0	40	104	0	79	15344
2026-01-21 10:14:36.40	120.44	2.28	-54.5	-66.5	3.8	8.46e-01	0	40	104	0	79	15316
2026-01-21 10:14:37.41	120.41	2.34	-54.5	-66.5	3.8	8.45e-01	0	40	104	0	79	15253
2026-01-21 10:14:38.42	120.38	2.41	-54.4	-66.4	3.8	8.45e-01	0	40	104	0	79	15160
2026-01-21 10:14:39.43	120.35	2.47	-54.4	-66.4	3.8	8.45e-01	0	40	104	0	79	15084
2026-01-21 10:14:40.43	120.32	2.53	-54.4	-66.3	3.8	8.47e-01	0	40	104	0	79	15044
2026-01-21 10:14:41.44	120.29	2.60	-54.3	-66.3	3.8	8.46e-01	0	40	104	0	79	14970
2026-01-21 10:14:42.45	120.26	2.66	-54.3	-66.2	3.8	8.46e-01	0	40	104	0	79	14871
2026-01-21 10:14:43.46	120.23	2.73	-54.2	-66.2	3.8	8.46e-01	0	40	104	0	79	14768
2026-01-21 10:14:44.46	120.20	2.79	-54.1	-66.1	3.8	8.46e-01	0	40	104	0	79	14606
2026-01-21 10:14:45.47	120.17	2.86	-54.1	-66.0	3.8	8.46e-01	0	40	104	0	79	14481
2026-01-21 10:14:46.48	120.14	2.92	-54.0	-65.9	3.8	8.46e-01	0	40	104	0	79	14359
2026-01-21 10:14:47.49	120.11	2.99	-53.8	-65.8	3.8	8.47e-01	0	40	104	0	79	14095
2026-01-21 10:14:48.50	120.08	3.05	-53.8	-65.8	3.8	8.46e-01	0	40	104	0	79	14062
2026-01-21 10:14:49.51	120.05	3.12	-53.7	-65.7	3.8	8.47e-01	0	40	104	0	79	13948
2026-01-21 10:14:50.52	120.01	3.19	-53.6	-65.6	3.8	8.47e-01	0	40	104	0	79	13835
2026-01-21 10:14:51.53	119.98	3.25	-53.6	-65.5	3.8	8.46e-01	0	40	104	0	79	13714
2026-01-21 10:14:52.53	119.95	3.32	-53.5	-65.5	3.8	8.46e-01	0	40	104	0	79	13573
2026-01-21 10:14:53.54	119.92	3.38	-53.4	-65.4	3.8	8.47e-01	0	40	104	0	78	14229
2026-01-21 10:14:54.55	119.89	3.45	-53.3	-65.3	3.8	8.46e-01	0	40	104	0	78	14070
2026-01-21 10:14:55.56	119.85	3.52	-53.2	-65.2	3.8	8.46e-01	0	40	104	0	78	13919
2026-01-21 10:14:56.56	119.82	3.58	-53.1	-65.1	3.8	8.46e-01	0	40	104	0	78	13727
2026-01-21 10:14:57.57	119.79	3.65	-52.9	-64.8	3.8	8.45e-01	0	40	104	0	77	14115
2026-01-21 10:14:58.58	119.76	3.72	-52.7	-64.6	3.8	8.46e-01	0	40	104	0	77	13883
2026-01-21 10:14:59.59	119.72	3.78	-52.4	-62.9	3.8	8.46e-01	0	40	104	0	76	12029
2026-01-21 10:15:00.60	119.69	3.85	-52.3	-63.4	3.8	8.47e-01	0	40	104	0	76	12776
2026-01-21 10:15:01.60	119.66	3.92	-52.3	-63.6	3.8	8.46e-01	0	40	104	0	76	12989
2026-01-21 10:15:02.61	119.62	3.99	-52.3	-63.5	3.8	8.47e-01	0	40	104	0	76	12895
2026-01-21 10:15:03.62	119.59	4.05	-52.2	-62.5	3.8	8.47e-01	0	40	104	0	76	11518
2026-01-21 10:15:04.63	119.56	4.12	-52.1	-61.2	4.1	8.44e-01	0	40	104	0	76	9904
2026-01-21 10:15:05.64	119.52	4.19	-51.4	-57.8	5.6	7.29e-01	0	40	0	0	74	7510
2026-01-21 10:15:06.65	119.49	4.26	-50.9	-56.0	7.1	2.39e-01	0	40	0	5242880	73	6439
2026-01-21 10:15:07.65	119.45	4.33	-50.3	-54.5	8.5	6.24e-02	0	40	0	10485760	72	5748
2026-01-21 10:15:08.66	119.42	4.40	-49.2	-52.2	11.0	6.73e-03	0	40	0	16777216	70	4941
2026-01-21 10:15:09.67	119.38	4.46	-48.2	-50.6	12.7	3.84e-04	0	40	0	22020096	68	4610
2026-01-21 10:15:10.68	119.35	4.53	-47.2	-49.2	14.0	7.32e-05	0	40	0	28311552	66	4425
2026-01-21 10:15:11.69	119.31	4.60	-46.6	-48.4	14.9	0.00e+00	0	40	0	33554432	65	4248
2026-01-21 10:15:12.69	119.28	4.67	-45.9	-47.5	15.9	0.00e+00	0	40	0	38797312	63	4303
2026-01-21 10:15:13.70	119.24	4.74	-45.2	-46.7	16.7	0.00e+00	0	40	0	45088768	62	4154
2026-01-21 10:15:14.71	119.21	4.81	-45.3	-46.7	16.6	0.00e+00	0	40	0	50331648	62	4184
2026-01-21 10:15:15.72	119.17	4.88	-44.9	-46.3	17.0	0.00e+00	0	40	0	55574528	61	4229
2026-01-21 10:15:16.73	119.14	4.95	-44.9	-46.3	17.0	0.00e+00	0	40	0	61865984	61	4225
2026-01-21 10:15:17.74	119.10	5.02	-45.1	-46.6	16.8	0.00e+00	0	40	0	67108864	61	4355
2026-01-21 10:15:18.75	119.06	5.09	-44.0	-45.1	18.5	0.00e+00	0	40	0	73400320	59	4145
2026-01-21 10:15:19.75	119.03	5.16	-45.2	-46.6	17.1	0.00e+00	0	40	0	78643200	60	4628
2026-01-21 10:15:20.76	118.99	5.23	-48.4	-50.9	12.4	0.00e+00	0	40	0	84934656	67	5096
2026-01-21 10:15:21.77	118.95	5.30	-43.3	-44.3	19.4	4.80e-05	0	40	0	90177536	58	3988
2026-01-21 10:15:22.78	118.92	5.37	-49.8	-53.4	9.9	1.02e-05	0	40	0	96468992	70	5708
2026-01-21 10:15:23.79	118.88	5.45	-43.6	-44.8	18.9	1.58e-03	0	40	0	101711872	59	3959
2026-01-21 10:15:24.79	118.84	5.52	-43.1	-44.2	19.5	0.00e+00	0	40	0	106954752	58	3932
2026-01-21 10:15:25.80	118.80	5.59	-43.1	-44.2	19.5	0.00e+00	0	40	0	113246208	58	3916
2026-01-21 10:15:26.81	118.76	5.66	-43.3	-44.4	19.4	0.00e+00	0	40	0	118489088	58	4013
2026-01-21 10:15:27.82	118.73	5.73	-43.0	-44.1	19.6	0.00e+00	0	40	0	123731968	58	3878
2026-01-21 10:15:28.82	118.69	5.80	-43.2	-44.3	19.4	0.00e+00	0	40	0	130023424	57	4216
2026-01-21 10:15:29.83	118.65	5.88	-43.0	-44.1	19.7	0.00e+00	0	40	0	135266304	57	4112
2026-01-21 10:15:30.84	118.61	5.95	-43.2	-44.2	19.5	0.00e+00	0	40	0	140509184	57	4191
2026-01-21 10:15:31.85	118.57	6.02	-43.1	-44.1	19.6	0.00e+00	0	40	0	146800640	57	4128
2026-01-21 10:15:32.86	118.53	6.09	-43.2	-44.3	19.5	0.00e+00	0	40	0	153092096	57	4221
2026-01-21 10:15:33.87	118.49	6.17	-43.1	-44.2	19.6	0.00e+00	0	40	0	158334976	57	4155
2026-01-21 10:15:34.87	118.45	6.24	-42.9	-43.9	19.9	0.00e+00	0	40	0	163577856	57	4036
2026-01-21 10:15:35.88	118.41	6.31	-43.0	-44.0	19.8	0.00e+00	0	40	0	169869312	57	4097
2026-01-21 10:15:36.89	118.37	6.39	-42.8	-43.8	20.0	0.00e+00	0	40	0	175112192	57	3972
2026-01-21 10:15:37.90	118.33	6.46	-43.2	-44.2	19.6	0.00e+00	0	40	0	181403648	57	4189
2026-01-21 10:15:38.91	118.29	6.53	-42.7	-43.7	20.1	0.00e+00	0	40	0	186646528	57	3953
2026-01-21 10:15:39.91	118.25	6.61	-43.2	-44.3	19.6	0.00e+00	0	40	0	191889408	57	4206
2026-01-21 10:15:40.92	118.21	6.68	-43.0	-44.0	19.9	0.00e+00	0	40	0	198180864	57	4068
2026-01-21 10:15:41.93	118.17	6.76	-42.9	-44.0	19.9	0.00e+00	0	40	0	203423744	57	4067
2026-01-21 10:15:42.94	118.13	6.83	-42.7	-43.7	20.2	0.00e+00	0	40	0	208666624	57	3919
2026-01-21 10:15:43.95	118.09	6.91	-42.7	-43.7	20.2	0.00e+00	0	40	0	214958080	57	3928
2026-01-21 10:15:44.95	118.04	6.98	-42.7	-43.7	20.2	0.00e+00	0	40	0	220200960	57	3941
2026-01-21 10:15:45.96	118.00	7.06	-42.5	-43.5	20.3	0.00e+00	0	40	0	226492416	57	3854
2026-01-21 10:15:46.97	117.96	7.13	-42.6	-43.6	20.3	0.00e+00	0	40	0	231735296	57	3891
2026-01-21 10:15:47.98	117.92	7.21	-42.6	-43.5	20.4	0.00e+00	0	40	0	238026752	57	3863
2026-01-21 10:15:48.98	117.88	7.28	-42.6	-43.6	20.3	0.00e+00	0	40	0	243269632	57	3902
2026-01-21 10:15:49.99	117.83	7.36	-42.9	-43.9	20.0	0.00e+00	0	40	0	248512512	57	4050
2026-01-21 10:15:51.00	117.79	7.44	-42.6	-43.6	20.3	0.00e+00	0	40	0	254803968	57	3894
2026-01-21 10:15:52.01	117.74	7.51	-42.8	-43.8	20.2	0.00e+00	0	40	0	260046848	56	4203
2026-01-21 10:15:53.02	117.70	7.59	-42.6	-43.6	20.4	0.00e+00	0	40	0	266338304	56	4102
2026-01-21 10:15:54.02	117.66	7.67	-42.3	-43.2	20.7	0.00e+00	0	40	0	271581184	56	3958
2026-01-21 10:15:55.03	117.61	7.75	-42.5	-43.5	20.4	0.00e+00	0	40	0	276824064	56	4077
2026-01-21 10:15:56.04	117.57	7.82	-42.6	-43.6	20.3	0.00e+00	0	40	0	283115520	56	4144
2026-01-21 10:15:57.05	117.52	7.90	-42.5	-43.5	20.5	0.00e+00	0	40	0	288358400	56	4055
2026-01-21 10:15:58.06	117.48	7.98	-42.6	-43.5	20.4	0.00e+00	0	40	0	294649856	56	4098
2026-01-21 10:15:59.07	117.43	8.06	-42.4	-43.4	20.6	0.00e+00	0	40	0	299892736	56	4017
2026-01-21 10:16:00.07	117.39	8.13	-42.4	-43.4	20.6	0.00e+00	0	40	0	306184192	56	4026
2026-01-21 10:16:01.08	117.34	8.21	-42.5	-43.5	20.5	0.00e+00	0	40	0	311427072	56	4089
2026-01-21 10:16:02.09	117.30	8.29	-42.5	-43.5	20.6	0.00e+00	0	40	0	316669952	56	4052
2026-01-21 10:16:03.10	117.25	8.37	-42.5	-43.5	20.5	0.00e+00	0	40	0	322961408	56	4066
2026-01-21 10:16:04.11	117.20	8.45	-42.6	-43.5	20.5	0.00e+00	0	40	0	328204288	56	4096
2026-01-21 10:16:05.11	117.16	8.53	-42.4	-43.4	20.6	0.00e+00	0	40	0	333447168	56	4010
2026-01-21 10:16:06.12	117.11	8.61	-42.5	-43.5	20.5	0.00e+00	0	40	0	339738624	56	4090
2026-01-21 10:16:07.13	117.06	8.69	-42.6	-43.6	20.5	0.00e+00	0	40	0	344981504	56	4107
2026-01-21 10:16:08.14	117.01	8.77	-42.6	-43.6	20.5	0.00e+00	0	40	0	351272960	56	4107
2026-01-21 10:16:09.15	116.96	8.85	-42.3	-43.2	20.8	0.00e+00	0	40	0	356515840	56	3958
2026-01-21 10:16:10.15	116.92	8.93	-42.6	-43.6	20.5	0.00e+00	0	40	0	361758720	56	4138
2026-01-21 10:16:11.16	116.87	9.01	-42.5	-43.5	20.6	0.00e+00	0	40	0	368050176	56	4065
2026-01-21 10:16:12.17	116.82	9.09	-42.5	-43.5	20.7	0.00e+00	0	40	0	374341632	56	4054
2026-01-21 10:16:13.17	116.77	9.17	-42.2	-43.2	20.9	0.00e+00	0	40	0	379584512	56	3918
2026-01-21 10:16:14.18	116.72	9.26	-42.6	-43.6	20.6	0.00e+00	0	40	0	384827392	56	4099
2026-01-21 10:16:15.19	116.67	9.34	-42.4	-43.4	20.7	0.00e+00	0	40	0	391118848	56	4022
2026-01-21 10:16:16.20	116.62	9.42	-42.4	-43.4	20.7	0.00e+00	0	40	0	396361728	56	4039
2026-01-21 10:16:17.21	116.57	9.50	-42.3	-43.3	20.9	0.00e+00	0	40	0	401604608	56	3976
2026-01-21 10:16:18.21	116.52	9.59	-42.4	-43.4	20.7	0.00e+00	0	40	0	407896064	56	4026
2026-01-21 10:16:19.22	116.47	9.67	-42.4	-43.4	20.8	0.00e+00	0	40	0	413138944	56	4008
2026-01-21 10:16:20.23	116.42	9.75	-42.3	-43.3	20.8	0.00e+00	0	40	0	418381824	56	3971
2026-01-21 10:16:21.24	116.37	9.84	-42.2	-43.2	21.0	0.00e+00	0	40	0	424673280	56	3918
2026-01-21 10:16:22.24	116.31	9.92	-42.5	-43.5	20.6	0.00e+00	0	40	0	429916160	56	4090
2026-01-21 10:16:23.25	116.26	10.00	-42.4	-43.4	20.8	0.00e+00	0	40	0	436207616	56	4021
2026-01-21 10:16:24.26	116.21	10.09	-42.4	-43.3	20.8	0.00e+00	0	40	0	441450496	56	3992
2026-01-21 10:16:25.27	116.16	10.17	-42.3	-43.3	20.9	0.00e+00	0	40	0	447741952	56	3973
2026-01-21 10:16:26.28	116.10	10.26	-42.0	-43.0	21.2	0.00e+00	0	40	0	452984832	56	3843
2026-01-21 10:16:27.29	116.05	10.34	-42.1	-43.1	21.1	0.00e+00	0	40	0	459276288	56	3895
2026-01-21 10:16:28.30	115.99	10.43	-42.3	-43.2	20.9	0.00e+00	0	40	0	464519168	56	3944
2026-01-21 10:16:29.31	115.94	10.51	-42.3	-43.3	20.9	0.00e+00	0	40	0	469762048	56	3964
2026-01-21 10:16:30.32	115.89	10.60	-42.1	-43.1	21.1	0.00e+00	0	40	0	476053504	56	3883
2026-01-21 10:16:31.33	115.83	10.69	-42.2	-43.1	21.0	0.00e+00	0	40	0	481296384	56	3911
2026-01-21 10:16:32.34	115.78	10.77	-42.3	-43.3	20.9	0.00e+00	0	40	0	486539264	56	3961
2026-01-21 10:16:33.35	115.72	10.86	-42.2	-43.2	21.1	0.00e+00	0	40	0	492830720	56	3918
2026-01-21 10:16:34.35	115.66	10.94	-42.2	-43.2	21.0	0.00e+00	0	40	0	498073600	56	3930
2026-01-21 10:16:35.36	115.61	11.03	-42.2	-43.1	21.1	0.00e+00	0	40	0	504365056	56	3895
2026-01-21 10:16:36.37	115.55	11.12	-41.9	-42.8	21.4	0.00e+00	0	40	0	509607936	55	3965
2026-01-21 10:16:37.38	115.49	11.21	-42.0	-42.9	21.2	0.00e+00	0	40	0	515899392	55	4034
2026-01-21 10:16:38.39	115.44	11.30	-41.7	-42.6	21.5	0.00e+00	0	40	0	521142272	55	3888
2026-01-21 10:16:39.39	115.38	11.38	-41.7	-42.6	21.5	0.00e+00	0	40	0	526385152	55	3896
2026-01-21 10:16:40.40	115.32	11.47	-41.8	-42.7	21.5	0.00e+00	0	40	0	532676608	55	3947
2026-01-21 10:16:41.41	115.26	11.56	-42.0	-42.9	21.3	0.00e+00	0	40	0	537919488	55	4043
2026-01-21 10:16:42.42	115.20	11.65	-42.0	-42.9	21.3	0.00e+00	0	40	0	544210944	55	4039
2026-01-21 10:16:43.42	115.14	11.74	-41.7	-42.6	21.6	0.00e+00	0	40	0	549453824	55	3883
2026-01-21 10:16:44.43	115.09	11.83	-41.6	-42.5	21.7	0.00e+00	0	40	0	554696704	55	3851
2026-01-21 10:16:45.44	115.03	11.92	-41.6	-42.5	21.7	0.00e+00	0	40	0	560988160	55	3842
2026-01-21 10:16:46.45	114.96	12.01	-41.6	-42.5	21.7	0.00e+00	0	40	0	566231040	55	3831
2026-01-21 10:16:47.45	114.90	12.10	-41.6	-42.5	21.7	0.00e+00	0	40	0	571473920	55	3840
2026-01-21 10:16:48.46	114.84	12.19	-41.6	-42.5	21.7	0.00e+00	0	40	0	577765376	55	3834
2026-01-21 10:16:49.46	114.78	12.28	-41.6	-42.5	21.7	0.00e+00	0	40	0	584056832	55	3839
2026-01-21 10:16:50.48	114.72	12.37	-41.7	-42.6	21.7	0.00e+00	0	40	0	589299712	55	3875
2026-01-21 10:16:51.49	114.66	12.47	-41.5	-42.4	21.8	0.00e+00	0	40	0	594542592	55	3796
2026-01-21 10:16:52.49	114.59	12.56	-41.3	-42.2	22.0	0.00e+00	0	40	0	600834048	54	3946
2026-01-21 10:16:53.50	114.53	12.65	-41.5	-42.4	21.9	0.00e+00	0	40	0	606076928	54	4006
2026-01-21 10:16:54.51	114.47	12.74	-41.4	-42.3	21.9	0.00e+00	0	40	0	611319808	54	3988
2026-01-21 10:16:55.52	114.40	12.84	-41.3	-42.2	22.0	0.00e+00	0	40	0	617611264	54	3914
2026-01-21 10:16:56.53	114.34	12.93	-41.4	-42.3	21.9	0.00e+00	0	40	0	622854144	54	3968
2026-01-21 10:16:57.54	114.27	13.03	-41.3	-42.2	22.0	0.00e+00	0	40	0	629145600	54	3931
2026-01-21 10:16:58.55	114.21	13.12	-41.3	-42.1	22.1	0.00e+00	0	40	0	634388480	54	3909
2026-01-21 10:16:59.55	114.14	13.21	-41.3	-42.2	22.0	0.00e+00	0	40	0	639631360	54	3924
2026-01-21 10:17:00.56	114.08	13.31	-41.2	-42.1	22.1	0.00e+00	0	40	0	645922816	54	3872
2026-01-21 10:17:01.57	114.01	13.40	-41.1	-42.0	22.2	0.00e+00	0	40	0	652214272	54	3825
2026-01-21 10:17:02.58	113.94	13.50	-41.1	-41.9	22.2	0.00e+00	0	40	0	657457152	54	3818
2026-01-21 10:17:03.58	113.88	13.59	-41.1	-42.0	22.2	0.00e+00	0	40	0	662700032	54	3847
2026-01-21 10:17:04.59	113.81	13.69	-41.2	-42.1	22.1	0.00e+00	0	40	0	668991488	54	3872
2026-01-21 10:17:05.60	113.74	13.79	-41.0	-41.9	22.3	0.00e+00	0	40	0	674234368	54	3797
2026-01-21 10:17:06.61	113.67	13.88	-41.1	-41.9	22.3	0.00e+00	0	40	0	679477248	54	3814
2026-01-21 10:17:07.61	113.60	13.98	-41.1	-41.9	22.3	0.00e+00	0	40	0	685768704	54	3811
2026-01-21 10:17:08.62	113.53	14.08	-41.0	-41.9	22.3	0.00e+00	0	40	0	691011584	54	3792
2026-01-21 10:17:09.63	113.46	14.18	-40.9	-41.8	22.4	0.00e+00	0	40	0	696254464	53	3959
2026-01-21 10:17:10.64	113.39	14.28	-41.1	-41.9	22.2	0.00e+00	0	40	0	702545920	53	4037
2026-01-21 10:17:11.65	113.32	14.37	-40.9	-41.8	22.4	0.00e+00	0	40	0	707788800	53	3960
2026-01-21 10:17:12.66	113.25	14.47	-41.0	-41.9	22.3	0.00e+00	0	40	0	714080256	53	4020
2026-01-21 10:17:13.66	113.17	14.57	-41.0	-41.8	22.3	0.00e+00	0	40	0	719323136	53	4002
2026-01-21 10:17:14.67	113.10	14.67	-41.0	-41.9	22.3	0.00e+00	0	40	0	725614592	53	4011
2026-01-21 10:17:15.68	113.03	14.77	-40.7	-41.6	22.6	0.00e+00	0	40	0	730857472	53	3875
2026-01-21 10:17:16.69	112.95	14.87	-40.8	-41.6	22.6	0.00e+00	0	40	0	737148928	53	3883
2026-01-21 10:17:17.69	112.88	14.97	-40.8	-41.6	22.5	0.00e+00	0	40	0	742391808	53	3886
2026-01-21 10:17:18.70	112.80	15.07	-40.8	-41.6	22.5	0.00e+00	0	40	0	747634688	53	3902
2026-01-21 10:17:19.71	112.73	15.18	-40.7	-41.5	22.6	0.00e+00	0	40	0	753926144	53	3857
2026-01-21 10:17:20.72	112.65	15.28	-40.7	-41.6	22.6	0.00e+00	0	40	0	759169024	53	3882
2026-01-21 10:17:21.73	112.58	15.38	-40.8	-41.7	22.5	0.00e+00	0	40	0	764411904	53	3933
2026-01-21 10:17:22.73	112.50	15.48	-40.7	-41.5	22.7	0.00e+00	0	40	0	770703360	53	3857
2026-01-21 10:17:23.74	112.42	15.58	-40.7	-41.5	22.7	0.00e+00	0	40	0	775946240	53	3849
2026-01-21 10:17:24.75	112.34	15.69	-40.8	-41.6	22.6	0.00e+00	0	40	0	781189120	53	3912
2026-01-21 10:17:25.76	112.26	15.79	-40.7	-41.5	22.7	0.00e+00	0	40	0	787480576	53	3846
2026-01-21 10:17:26.77	112.18	15.90	-40.6	-41.4	22.7	0.00e+00	0	40	0	793772032	53	3820
2026-01-21 10:17:27.78	112.10	16.00	-40.6	-41.4	22.8	0.00e+00	0	40	0	799014912	53	3809
2026-01-21 10:17:28.79	112.02	16.11	-40.5	-41.4	22.8	0.00e+00	0	40	0	804257792	53	3787
2026-01-21 10:17:29.80	111.94	16.21	-40.5	-41.3	22.9	0.00e+00	0	40	0	810549248	52	3993
2026-01-21 10:17:30.81	111.86	16.32	-40.5	-41.3	22.9	0.00e+00	0	40	0	815792128	52	3999
2026-01-21 10:17:31.81	111.78	16.42	-40.3	-41.1	23.1	0.00e+00	0	40	0	822083584	52	3890
2026-01-21 10:17:32.82	111.70	16.53	-40.3	-41.1	23.1	0.00e+00	0	40	0	827326464	52	3880
2026-01-21 10:17:33.83	111.61	16.64	-40.2	-41.0	23.1	0.00e+00	0	40	0	832569344	52	3864
2026-01-21 10:17:34.84	111.53	16.74	-40.2	-41.0	23.2	0.00e+00	0	40	0	838860800	52	3847
2026-01-21 10:17:35.85	111.44	16.85	-40.2	-41.0	23.2	0.00e+00	0	40	0	844103680	52	3849
2026-01-21 10:17:36.86	111.36	16.96	-40.2	-41.0	23.2	0.00e+00	0	40	0	850395136	52	3850
2026-01-21 10:17:37.86	111.27	17.07	-40.0	-40.8	23.4	0.00e+00	0	40	0	855638016	52	3742
2026-01-21 10:17:38.87	111.19	17.18	-40.0	-40.8	23.4	0.00e+00	0	40	0	861929472	51	3975
2026-01-21 10:17:39.88	111.10	17.29	-40.1	-40.9	23.4	0.00e+00	0	40	0	867172352	51	4011
2026-01-21 10:17:40.89	111.01	17.40	-40.1	-40.8	23.4	0.00e+00	0	40	0	872415232	51	4004
2026-01-21 10:17:41.90	110.92	17.51	-40.0	-40.8	23.4	0.00e+00	0	40	0	878706688	51	3991
2026-01-21 10:17:42.91	110.83	17.62	-40.1	-40.9	23.3	0.00e+00	0	40	0	883949568	51	4045
2026-01-21 10:17:43.91	110.74	17.73	-40.1	-40.9	23.4	0.00e+00	0	40	0	889192448	51	4012
2026-01-21 10:17:44.92	110.65	17.84	-40.1	-40.9	23.3	0.00e+00	0	40	0	895483904	51	4013
2026-01-21 10:17:45.93	110.56	17.95	-40.1	-40.9	23.4	0.00e+00	0	40	0	900726784	51	4020
2026-01-21 10:17:46.94	110.47	18.06	-40.1	-40.9	23.3	0.00e+00	0	40	0	907018240	51	4039
2026-01-21 10:17:47.94	110.38	18.18	-40.2	-41.0	23.2	0.00e+00	0	40	0	912261120	51	4070
2026-01-21 10:17:48.95	110.28	18.29	-40.3	-41.1	23.1	0.00e+00	0	40	0	917504000	51	4127
2026-01-21 10:17:49.96	110.19	18.40	-40.2	-41.0	23.3	0.00e+00	0	40	0	923795456	51	4069
2026-01-21 10:17:50.97	110.09	18.52	-40.2	-41.0	23.2	0.00e+00	0	40	0	930086912	51	4087
2026-01-21 10:17:51.97	110.00	18.63	-40.1	-40.9	23.3	0.00e+00	0	40	0	935329792	51	4048
2026-01-21 10:17:52.98	109.90	18.75	-39.9	-40.7	23.6	0.00e+00	0	40	0	940572672	51	3923
2026-01-21 10:17:53.99	109.80	18.86	-39.9	-40.7	23.5	0.00e+00	0	40	0	946864128	51	3949
2026-01-21 10:17:55.00	109.71	18.98	-39.9	-40.7	23.5	0.00e+00	0	40	0	952107008	51	3949
2026-01-21 10:17:56.01	109.61	19.10	-39.8	-40.5	23.9	0.00e+00	0	40	0	957349888	51	3866
2026-01-21 10:17:57.02	109.51	19.21	-39.9	-40.6	23.9	0.00e+00	0	40	0	963641344	51	3897
2026-01-21 10:17:58.02	109.41	19.33	-39.8	-40.5	24.0	0.00e+00	0	40	0	968884224	51	3851
2026-01-21 10:17:59.03	109.31	19.45	-39.7	-40.4	24.1	0.00e+00	0	40	0	974127104	51	3800
2026-01-21 10:18:00.04	109.20	19.56	-39.6	-40.3	24.2	0.00e+00	0	40	0	980418560	51	3755
2026-01-21 10:18:01.05	109.10	19.68	-39.7	-40.4	24.1	0.00e+00	0	40	0	985661440	51	3800
2026-01-21 10:18:02.06	109.00	19.80	-39.6	-40.3	24.2	0.00e+00	0	40	0	991952896	51	3771
2026-01-21 10:18:03.07	108.89	19.92	-39.5	-40.2	24.3	0.00e+00	0	40	0	997195776	50	3929
2026-01-21 10:18:04.07	108.79	20.04	-39.5	-40.3	24.2	0.00e+00	0	40	0	1003487232	50	3969
2026-01-21 10:18:05.08	108.68	20.16	-39.6	-40.3	24.2	0.00e+00	0	40	0	1008730112	50	3978
2026-01-21 10:18:06.09	108.57	20.28	-39.7	-40.4	24.1	0.00e+00	0	40	0	1015021568	50	4031
2026-01-21 10:18:07.10	108.47	20.41	-39.6	-40.4	24.1	0.00e+00	0	40	0	1020264448	50	4005
2026-01-21 10:18:08.10	108.36	20.53	-39.6	-40.4	24.2	0.00e+00	0	40	0	1025507328	50	4008
2026-01-21 10:18:09.11	108.25	20.65	-39.7	-40.5	24.1	0.00e+00	0	40	0	1031798784	50	4059
2026-01-21 10:18:10.12	108.14	20.77	-39.5	-40.3	24.2	0.00e+00	0	40	0	1037041664	50	3981
2026-01-21 10:18:11.13	108.03	20.90	-39.6	-40.3	24.1	0.00e+00	0	40	0	1042284544	50	3998
2026-01-21 10:18:12.14	107.91	21.02	-39.6	-40.3	24.2	0.00e+00	0	40	0	1048576000	50	3979
2026-01-21 10:18:13.15	107.80	21.14	-39.3	-40.1	24.4	0.00e+00	0	40	0	1053818880	50	3871
2026-01-21 10:18:14.15	107.69	21.27	-39.2	-39.9	24.6	0.00e+00	0	40	0	1060110336	50	3799
2026-01-21 10:18:15.16	107.57	21.39	-39.3	-40.0	24.5	0.00e+00	0	40	0	1065353216	50	3831
2026-01-21 10:18:16.17	107.46	21.52	-39.3	-40.0	24.4	0.00e+00	0	40	0	1071644672	50	3864
2026-01-21 10:18:17.18	107.34	21.65	-39.1	-39.8	24.7	0.00e+00	0	40	0	1076887552	50	3755
2026-01-21 10:18:18.18	107.22	21.77	-38.9	-39.6	24.7	0.00e+00	0	40	0	1082130432	49	3913
2026-01-21 10:18:19.19	107.10	21.90	-39.1	-39.8	24.7	0.00e+00	0	40	0	1088421888	49	3963
2026-01-21 10:18:20.20	106.98	22.03	-39.1	-39.8	24.6	0.00e+00	0	40	0	1093664768	49	3997
2026-01-21 10:18:21.21	106.86	22.16	-39.0	-39.7	24.8	0.00e+00	0	40	0	1099956224	49	3923
2026-01-21 10:18:22.22	106.74	22.29	-38.9	-39.6	24.8	0.00e+00	0	40	0	1105199104	49	3892
2026-01-21 10:18:23.23	106.61	22.42	-38.9	-39.6	24.8	0.00e+00	0	40	0	1110441984	49	3908
2026-01-21 10:18:24.23	106.49	22.54	-38.9	-39.7	24.7	0.00e+00	0	40	0	1116733440	49	3915
2026-01-21 10:18:25.24	106.37	22.68	-39.1	-39.8	24.6	0.00e+00	0	40	0	1121976320	49	3998
2026-01-21 10:18:26.25	106.24	22.81	-39.0	-39.7	24.7	0.00e+00	0	40	0	1127219200	49	3947
2026-01-21 10:18:27.25	106.11	22.94	-39.0	-39.8	24.7	0.00e+00	0	40	0	1133510656	49	3962
2026-01-21 10:18:28.26	105.98	23.07	-38.9	-39.6	24.8	0.00e+00	0	40	0	1139802112	49	3897
2026-01-21 10:18:29.27	105.85	23.20	-38.9	-39.7	24.8	0.00e+00	0	40	0	1145044992	49	3916
2026-01-21 10:18:30.28	105.72	23.34	-39.0	-39.7	24.7	0.00e+00	0	40	0	1150287872	49	3958
2026-01-21 10:18:31.29	105.59	23.47	-38.9	-39.6	24.8	0.00e+00	0	40	0	1156579328	49	3882
2026-01-21 10:18:32.29	105.46	23.60	-38.8	-39.5	24.9	0.00e+00	0	40	0	1161822208	49	3865
2026-01-21 10:18:33.30	105.32	23.74	-38.6	-39.3	25.1	0.00e+00	0	40	0	1168113664	49	3769
2026-01-21 10:18:34.31	105.19	23.87	-38.5	-39.2	25.2	0.00e+00	0	40	0	1173356544	49	3718
2026-01-21 10:18:35.32	105.05	24.01	-38.5	-39.2	25.2	0.00e+00	0	40	0	1178599424	48	3918
2026-01-21 10:18:36.33	104.91	24.14	-38.6	-39.3	25.1	0.00e+00	0	40	0	1184890880	48	3995
2026-01-21 10:18:37.33	104.78	24.28	-38.6	-39.3	25.1	0.00e+00	0	40	0	1190133760	48	3990
2026-01-21 10:18:38.34	104.63	24.42	-38.6	-39.3	25.0	0.00e+00	0	40	0	1195376640	48	4000
2026-01-21 10:18:39.35	104.49	24.56	-38.7	-39.4	25.0	0.00e+00	0	40	0	1201668096	48	4020
2026-01-21 10:18:40.36	104.35	24.69	-38.7	-39.4	25.0	0.00e+00	0	40	0	1207959552	48	4026
2026-01-21 10:18:41.36	104.21	24.83	-38.7	-39.4	25.0	0.00e+00	0	40	0	1213202432	48	4043
2026-01-21 10:18:42.37	104.06	24.97	-38.7	-39.4	25.0	0.00e+00	0	40	0	1218445312	48	4040
2026-01-21 10:18:43.38	103.91	25.11	-38.7	-39.4	25.0	0.00e+00	0	40	0	1224736768	48	4024
2026-01-21 10:18:44.39	103.77	25.25	-38.6	-39.3	25.1	0.00e+00	0	40	0	1229979648	48	3993
2026-01-21 10:18:45.40	103.62	25.39	-38.4	-39.1	25.2	0.00e+00	0	40	0	1235222528	48	3902
2026-01-21 10:18:46.41	103.46	25.53	-38.2	-38.8	25.5	0.00e+00	0	40	0	1241513984	48	3774
2026-01-21 10:18:47.42	103.31	25.68	-38.2	-38.9	25.5	0.00e+00	0	40	0	1246756864	48	3795
2026-01-21 10:18:48.43	103.16	25.82	-38.1	-38.8	25.5	0.00e+00	0	40	0	1253048320	48	3762
2026-01-21 10:18:49.43	103.00	25.96	-38.2	-38.9	25.5	0.00e+00	0	40	0	1258291200	48	3795
2026-01-21 10:18:50.44	102.85	26.11	-38.1	-38.8	25.5	0.00e+00	0	40	0	1263534080	48	3764
2026-01-21 10:18:51.45	102.69	26.25	-38.1	-38.8	25.5	0.00e+00	0	40	0	1269825536	48	3759
2026-01-21 10:18:52.46	102.53	26.39	-38.2	-38.8	25.5	0.00e+00	0	40	0	1276116992	48	3778
2026-01-21 10:18:53.46	102.37	26.54	-38.2	-39.0	25.4	0.00e+00	0	40	0	1281359872	48	3827
2026-01-21 10:18:54.48	102.21	26.69	-38.3	-39.0	25.4	0.00e+00	0	40	0	1286602752	48	3834
2026-01-21 10:18:55.49	102.04	26.83	-38.4	-39.1	25.2	0.00e+00	0	40	0	1292894208	48	3910
2026-01-21 10:18:56.49	101.88	26.98	-38.3	-39.0	25.4	0.00e+00	0	40	0	1298137088	48	3835
2026-01-21 10:18:57.50	101.71	27.13	-38.3	-39.0	25.4	0.00e+00	0	40	0	1303379968	48	3847
2026-01-21 10:18:58.51	101.54	27.27	-38.4	-39.1	25.3	0.00e+00	0	40	0	1309671424	48	3894
2026-01-21 10:18:59.52	101.37	27.42	-38.3	-39.0	25.4	0.00e+00	0	40	0	1314914304	48	3854
2026-01-21 10:19:00.53	101.20	27.57	-38.1	-38.8	25.5	0.00e+00	0	40	0	1320157184	48	3758
2026-01-21 10:19:01.54	101.03	27.72	-38.1	-38.8	25.6	0.00e+00	0	40	0	1326448640	48	3742
2026-01-21 10:19:02.55	100.85	27.87	-38.0	-38.7	25.7	0.00e+00	0	40	0	1331691520	48	3700
2026-01-21 10:19:03.55	100.67	28.02	-37.7	-38.4	25.4	0.00e+00	0	40	0	1337982976	47	3791
2026-01-21 10:19:04.56	100.50	28.17	-37.7	-38.4	25.4	0.00e+00	0	40	0	1343225856	47	3815
2026-01-21 10:19:05.57	100.32	28.32	-37.9	-38.6	25.3	0.00e+00	0	40	0	1349517312	47	3884
2026-01-21 10:19:06.58	100.13	28.48	-37.9	-38.6	25.2	0.00e+00	0	40	0	1354760192	47	3894
2026-01-21 10:19:07.58	99.95	28.63	-38.0	-38.8	25.1	0.00e+00	0	40	0	1361051648	47	3968
2026-01-21 10:19:08.59	99.77	28.78	-38.1	-38.8	25.0	0.00e+00	0	40	0	1366294528	47	3995
2026-01-21 10:19:09.60	99.58	28.93	-38.1	-38.8	25.1	0.00e+00	0	40	0	1371537408	47	3986
2026-01-21 10:19:10.61	99.39	29.09	-38.1	-38.8	25.0	0.00e+00	0	40	0	1377828864	47	4002
2026-01-21 10:19:11.62	99.20	29.24	-38.0	-38.7	25.2	0.00e+00	0	40	0	1383071744	47	3929
2026-01-21 10:19:12.63	99.00	29.40	-37.9	-38.7	25.2	0.00e+00	0	40	0	1388314624	47	3922
2026-01-21 10:19:13.64	98.81	29.55	-38.0	-38.8	25.1	0.00e+00	0	40	0	1394606080	47	3964
2026-01-21 10:19:14.65	98.61	29.71	-38.0	-38.7	25.1	0.00e+00	0	40	0	1399848960	47	3950
2026-01-21 10:19:15.65	98.42	29.86	-37.8	-38.5	25.3	0.00e+00	0	40	0	1405091840	47	3836
2026-01-21 10:19:16.66	98.21	30.02	-37.9	-38.6	25.3	0.00e+00	0	40	0	1411383296	47	3884
2026-01-21 10:19:17.67	98.01	30.18	-38.0	-38.7	25.2	0.00e+00	0	40	0	1417674752	47	3928
2026-01-21 10:19:18.68	97.81	30.34	-38.0	-38.7	25.2	0.00e+00	0	40	0	1422917632	47	3932
2026-01-21 10:19:19.68	97.60	30.49	-38.0	-38.7	25.2	0.00e+00	0	40	0	1428160512	47	3935
2026-01-21 10:19:20.69	97.39	30.65	-37.9	-38.6	25.3	0.00e+00	0	40	0	1434451968	47	3897
2026-01-21 10:19:21.70	97.18	30.81	-37.9	-38.6	25.2	0.00e+00	0	40	0	1439694848	47	3912
2026-01-21 10:19:22.71	96.97	30.97	-37.7	-38.4	25.5	0.00e+00	0	40	0	1445986304	47	3781
2026-01-21 10:19:23.72	96.75	31.13	-37.5	-38.2	25.6	0.00e+00	0	40	0	1451229184	47	3727
2026-01-21 10:19:24.73	96.54	31.29	-37.5	-38.2	25.6	0.00e+00	0	40	0	1456472064	47	3703
2026-01-21 10:19:25.73	96.32	31.45	-37.6	-38.3	25.5	0.00e+00	0	40	0	1462763520	46	3971
2026-01-21 10:19:26.74	96.10	31.61	-37.5	-38.2	25.6	0.00e+00	0	40	0	1468006400	46	3947
2026-01-21 10:19:27.75	95.87	31.77	-37.5	-38.2	25.6	0.00e+00	0	40	0	1473249280	46	3938
2026-01-21 10:19:28.76	95.65	31.94	-37.4	-38.2	25.6	0.00e+00	0	40	0	1479540736	46	3918
2026-01-21 10:19:29.77	95.42	32.10	-37.5	-38.2	25.6	0.00e+00	0	40	0	1485832192	46	3952
2026-01-21 10:19:30.77	95.19	32.26	-37.3	-38.0	25.8	0.00e+00	0	40	0	1491075072	46	3862
2026-01-21 10:19:31.78	94.96	32.42	-37.2	-37.9	25.9	0.00e+00	0	40	0	1496317952	46	3792
2026-01-21 10:19:32.79	94.72	32.59	-37.2	-37.8	25.9	0.00e+00	0	40	0	1502609408	46	3780
2026-01-21 10:19:33.80	94.48	32.75	-37.1	-37.8	25.9	0.00e+00	0	40	0	1507852288	46	3764
2026-01-21 10:19:34.81	94.24	32.91	-37.3	-38.0	25.8	0.00e+00	0	40	0	1513095168	46	3852
2026-01-21 10:19:35.81	94.00	33.08	-37.4	-38.1	25.7	0.00e+00	0	40	0	1519386624	46	3901
2026-01-21 10:19:36.82	93.76	33.24	-37.5	-38.2	25.7	0.00e+00	0	40	0	1524629504	46	3920
2026-01-21 10:19:37.83	93.51	33.41	-37.3	-38.0	25.8	0.00e+00	0	40	0	1530920960	46	3864
2026-01-21 10:19:38.84	93.26	33.57	-37.3	-38.0	25.8	0.00e+00	0	40	0	1536163840	46	3858
2026-01-21 10:19:39.85	93.00	33.74	-37.5	-38.2	25.6	0.00e+00	0	40	0	1541406720	46	3937
2026-01-21 10:19:40.85	92.75	33.90	-37.5	-38.2	25.6	0.00e+00	0	40	0	1547698176	46	3954
2026-01-21 10:19:41.87	92.49	34.07	-37.6	-38.3	25.6	0.00e+00	0	40	0	1553989632	46	3961
2026-01-21 10:19:42.87	92.23	34.23	-37.6	-38.3	25.6	0.00e+00	0	40	0	1559232512	46	3965
2026-01-21 10:19:43.88	91.97	34.40	-37.5	-38.2	25.6	0.00e+00	0	40	0	1564475392	46	3945
2026-01-21 10:19:44.89	91.70	34.57	-37.4	-38.2	25.7	0.00e+00	0	40	0	1570766848	46	3915
2026-01-21 10:19:45.90	91.43	34.73	-37.3	-38.0	25.8	0.00e+00	0	40	0	1576009728	46	3847
2026-01-21 10:19:46.90	91.16	34.90	-37.3	-38.0	25.8	0.00e+00	0	40	0	1581252608	46	3856
2026-01-21 10:19:47.91	90.89	35.06	-37.3	-38.0	25.8	0.00e+00	0	40	0	1587544064	46	3838
2026-01-21 10:19:48.92	90.61	35.23	-37.2	-37.9	25.9	0.00e+00	0	40	0	1592786944	46	3797
2026-01-21 10:19:49.93	90.33	35.40	-37.2	-37.9	25.9	0.00e+00	0	40	0	1598029824	46	3788
2026-01-21 10:19:50.94	90.05	35.57	-37.4	-38.1	25.8	0.00e+00	0	40	0	1604321280	46	3871
2026-01-21 10:19:51.95	89.76	35.73	-37.5	-38.2	25.6	0.00e+00	0	40	0	1609564160	46	3947
2026-01-21 10:19:52.95	89.47	35.90	-37.5	-38.2	25.7	0.00e+00	0	40	0	1615855616	46	3921
2026-01-21 10:19:53.96	89.18	36.07	-37.3	-38.0	25.8	0.00e+00	0	40	0	1621098496	46	3842
2026-01-21 10:19:54.97	88.88	36.23	-37.1	-37.7	26.1	0.00e+00	0	40	0	1627389952	46	3729
2026-01-21 10:19:55.98	88.59	36.40	-37.1	-37.8	26.0	0.00e+00	0	40	0	1632632832	46	3749
2026-01-21 10:19:56.99	88.28	36.57	-37.2	-37.9	25.9	0.00e+00	0	40	0	1638924288	46	3792
2026-01-21 10:19:57.99	87.98	36.74	-37.4	-38.1	25.8	0.00e+00	0	40	0	1644167168	46	3872
2026-01-21 10:19:59.00	87.68	36.90	-37.4	-38.1	25.7	0.00e+00	0	40	0	1649410048	46	3911
2026-01-21 10:20:00.01	87.36	37.07	-37.4	-38.1	25.7	0.00e+00	0	40	0	1655701504	46	3902
2026-01-21 10:20:01.01	87.05	37.24	-37.4	-38.0	25.8	0.00e+00	0	40	0	1660944384	46	3867
2026-01-21 10:20:02.02	86.74	37.40	-37.4	-38.1	25.8	0.00e+00	0	40	0	1666187264	46	3876
2026-01-21 10:20:03.03	86.41	37.57	-37.4	-38.1	25.7	0.00e+00	0	40	0	1672478720	46	3896
2026-01-21 10:20:04.04	86.09	37.74	-37.5	-38.2	25.7	0.00e+00	0	40	0	1677721600	46	3938
2026-01-21 10:20:05.05	85.76	37.90	-37.5	-38.2	25.7	0.00e+00	0	40	0	1682964480	46	3926
2026-01-21 10:20:06.06	85.43	38.07	-37.5	-38.2	25.7	0.00e+00	0	40	0	1689255936	46	3929
2026-01-21 10:20:07.06	85.10	38.23	-37.7	-38.4	25.5	0.00e+00	0	40	0	1695547392	46	4036
2026-01-21 10:20:08.07	84.76	38.40	-37.8	-38.5	25.4	0.00e+00	0	40	0	1700790272	46	4074
2026-01-21 10:20:09.08	84.42	38.56	-37.8	-38.5	25.4	0.00e+00	0	40	0	1706033152	46	4069
2026-01-21 10:20:10.09	84.08	38.73	-37.7	-38.4	25.5	0.00e+00	0	40	0	1712324608	46	4032
2026-01-21 10:20:11.10	83.73	38.89	-37.6	-38.3	25.5	0.00e+00	0	40	0	1717567488	46	3998
2026-01-21 10:20:12.11	83.38	39.06	-37.6	-38.3	25.5	0.00e+00	0	40	0	1723858944	46	3987
2026-01-21 10:20:13.11	83.03	39.22	-37.6	-38.3	25.6	0.00e+00	0	40	0	1729101824	46	3987
2026-01-21 10:20:14.12	82.67	39.38	-37.5	-38.2	25.7	0.00e+00	0	40	0	1734344704	46	3930
2026-01-21 10:20:15.13	82.30	39.54	-37.5	-38.2	25.7	0.00e+00	0	40	0	1740636160	46	3939
2026-01-21 10:20:16.14	81.94	39.70	-37.5	-38.2	25.6	0.00e+00	0	40	0	1745879040	46	3950
2026-01-21 10:20:17.14	81.57	39.86	-37.6	-38.3	25.6	0.00e+00	0	40	0	1751121920	46	3982
2026-01-21 10:20:18.15	81.20	40.02	-37.7	-38.4	25.5	0.00e+00	0	40	0	1757413376	46	4014
2026-01-21 10:20:19.16	80.82	40.18	-37.5	-38.2	25.6	0.00e+00	0	40	0	1763704832	46	3947
2026-01-21 10:20:20.17	80.44	40.34	-37.6	-38.2	25.6	0.00e+00	0	40	0	1768947712	46	3957
2026-01-21 10:20:21.18	80.05	40.50	-37.6	-38.3	25.6	0.00e+00	0	40	0	1774190592	46	3972
2026-01-21 10:20:22.19	79.67	40.66	-37.2	-37.9	26.0	0.00e+00	0	40	0	1780482048	46	3792
2026-01-21 10:20:23.19	79.28	40.81	-37.1	-37.8	26.0	0.00e+00	0	40	0	1785724928	46	3766
2026-01-21 10:20:24.20	78.88	40.97	-37.2	-37.9	26.0	0.00e+00	0	40	0	1790967808	46	3788
2026-01-21 10:20:25.21	78.48	41.12	-37.2	-37.9	26.0	0.00e+00	0	40	0	1797259264	46	3785
2026-01-21 10:20:26.22	78.08	41.28	-37.3	-38.0	25.9	0.00e+00	0	40	0	1802502144	46	3825
2026-01-21 10:20:27.22	77.67	41.43	-37.3	-38.0	25.9	0.00e+00	0	40	0	1808793600	46	3839
2026-01-21 10:20:28.23	77.26	41.58	-37.6	-38.3	25.6	0.00e+00	0	40	0	1814036480	46	3979
2026-01-21 10:20:29.24	76.85	41.73	-37.7	-38.4	25.5	0.00e+00	0	40	0	1819279360	46	4006
2026-01-21 10:20:30.25	76.43	41.88	-37.6	-38.3	25.6	0.00e+00	0	40	0	1825570816	46	3980
2026-01-21 10:20:31.25	76.01	42.03	-37.6	-38.3	25.6	0.00e+00	0	40	0	1830813696	46	3963
2026-01-21 10:20:32.26	75.58	42.18	-37.6	-38.3	25.7	0.00e+00	0	40	0	1837105152	46	3963
2026-01-21 10:20:33.27	75.15	42.32	-37.4	-38.0	25.8	0.00e+00	0	40	0	1842348032	46	3866
2026-01-21 10:20:34.28	74.72	42.47	-37.5	-38.2	25.8	0.00e+00	0	40	0	1848639488	46	3923
2026-01-21 10:20:35.29	74.28	42.61	-37.4	-38.1	25.8	0.00e+00	0	40	0	1853882368	46	3888
2026-01-21 10:20:36.29	73.84	42.75	-37.4	-38.1	25.8	0.00e+00	0	40	0	1859125248	46	3892
2026-01-21 10:20:37.30	73.39	42.89	-37.3	-38.0	25.9	0.00e+00	0	40	0	1865416704	46	3859
2026-01-21 10:20:38.31	72.94	43.03	-37.2	-37.8	26.0	0.00e+00	0	40	0	1870659584	46	3778
2026-01-21 10:20:39.32	72.49	43.17	-37.4	-38.1	25.8	0.00e+00	0	40	0	1875902464	46	3907
2026-01-21 10:20:40.33	72.03	43.31	-37.3	-38.0	25.8	0.00e+00	0	40	0	1882193920	46	3857
2026-01-21 10:20:41.33	71.57	43.44	-37.4	-38.0	25.9	0.00e+00	0	40	0	1887436800	46	3862
2026-01-21 10:20:42.34	71.10	43.57	-37.2	-37.9	26.0	0.00e+00	0	40	0	1893728256	46	3785
2026-01-21 10:20:43.35	70.63	43.71	-37.1	-37.8	26.0	0.00e+00	0	40	0	1898971136	46	3771
2026-01-21 10:20:44.36	70.16	43.84	-37.3	-38.0	25.9	0.00e+00	0	40	0	1905262592	46	3862
2026-01-21 10:20:45.36	69.68	43.96	-37.5	-38.2	25.8	0.00e+00	0	40	0	1910505472	46	3918
2026-01-21 10:20:46.37	69.20	44.09	-37.4	-38.1	25.8	0.00e+00	0	40	0	1916796928	46	3891
2026-01-21 10:20:47.38	68.72	44.21	-37.4	-38.1	25.8	0.00e+00	0	40	0	1922039808	46	3907
2026-01-21 10:20:48.38	68.23	44.33	-37.5	-38.2	25.7	0.00e+00	0	40	0	1927282688	46	3955
2026-01-21 10:20:49.39	67.74	44.45	-37.5	-38.2	25.8	0.00e+00	0	40	0	1933574144	46	3937
2026-01-21 10:20:50.40	67.24	44.57	-37.5	-38.2	25.7	0.00e+00	0	40	0	1938817024	46	3947
2026-01-21 10:20:51.41	66.74	44.69	-37.6	-38.3	25.7	0.00e+00	0	40	0	1944059904	46	3971
2026-01-21 10:20:52.42	66.24	44.80	-37.4	-38.1	25.8	0.00e+00	0	40	0	1950351360	46	3892
2026-01-21 10:20:53.43	65.73	44.91	-37.4	-38.1	25.8	0.00e+00	0	40	0	1955594240	46	3908
2026-01-21 10:20:54.43	65.22	45.02	-37.4	-38.1	25.9	0.00e+00	0	40	0	1960837120	46	3882
2026-01-21 10:20:55.44	64.71	45.13	-37.5	-38.2	25.7	0.00e+00	0	40	0	1967128576	46	3954
2026-01-21 10:20:56.45	64.19	45.24	-37.5	-38.2	25.7	0.00e+00	0	40	0	1972371456	46	3941
2026-01-21 10:20:57.46	63.67	45.34	-37.7	-38.4	25.6	0.00e+00	0	40	0	1978662912	46	4010
2026-01-21 10:20:58.47	63.14	45.44	-37.6	-38.3	25.7	0.00e+00	0	40	0	1983905792	46	3989
2026-01-21 10:20:59.47	62.62	45.54	-37.5	-38.2	25.7	0.00e+00	0	40	0	1990197248	46	3936
2026-01-21 10:21:00.48	62.09	45.63	-37.3	-38.0	25.9	0.00e+00	0	40	0	1995440128	46	3863
2026-01-21 10:21:01.49	61.55	45.72	-37.3	-38.0	25.9	0.00e+00	0	40	0	2001731584	46	3863
2026-01-21 10:21:02.50	61.02	45.81	-37.4	-38.1	25.8	0.00e+00	0	40	0	2006974464	46	3889
2026-01-21 10:21:03.50	60.48	45.90	-37.6	-38.3	25.7	0.00e+00	0	40	0	2012217344	46	3978
2026-01-21 10:21:04.51	59.94	45.99	-37.6	-38.3	25.6	0.00e+00	0	40	0	2018508800	46	3994
2026-01-21 10:21:05.52	59.39	46.07	-37.6	-38.3	25.6	0.00e+00	0	40	0	2023751680	46	3999
2026-01-21 10:21:06.53	58.84	46.15	-37.6	-38.3	25.7	0.00e+00	0	40	0	2028994560	46	3972
2026-01-21 10:21:07.54	58.29	46.23	-37.6	-38.3	25.7	0.00e+00	0	40	0	2035286016	46	3985
2026-01-21 10:21:08.54	57.74	46.30	-37.6	-38.4	25.6	0.00e+00	0	40	0	2040528896	46	4007
2026-01-21 10:21:09.55	57.18	46.37	-37.6	-38.3	25.6	0.00e+00	0	40	0	2045771776	46	4002
2026-01-21 10:21:10.56	56.62	46.44	-37.6	-38.3	25.6	0.00e+00	0	40	0	2052063232	46	3992
2026-01-21 10:21:11.56	56.06	46.50	-37.5	-38.2	25.7	0.00e+00	0	40	0	2058354688	46	3952
2026-01-21 10:21:12.58	55.49	46.57	-37.3	-38.0	25.9	0.00e+00	0	40	0	2063597568	46	3860
2026-01-21 10:21:13.59	54.93	46.63	-37.3	-38.0	25.9	0.00e+00	0	40	0	2068840448	46	3831
2026-01-21 10:21:14.59	54.36	46.68	-37.3	-37.9	26.0	0.00e+00	0	40	0	2075131904	46	3819
2026-01-21 10:21:15.60	53.79	46.73	-37.2	-37.9	26.0	0.00e+00	0	40	0	2080374784	46	3783
2026-01-21 10:21:16.61	53.22	46.79	-37.3	-38.0	25.9	0.00e+00	0	40	0	2086666240	46	3860
2026-01-21 10:21:17.62	52.64	46.83	-37.4	-38.1	25.8	0.00e+00	0	40	0	2091909120	46	3897
2026-01-21 10:21:18.63	52.07	46.88	-37.5	-38.2	25.7	0.00e+00	0	40	0	2097152000	46	3935
2026-01-21 10:21:19.63	51.50	46.92	-37.6	-38.2	25.7	0.00e+00	0	40	0	2103443456	46	3956
2026-01-21 10:21:20.64	50.92	46.95	-37.6	-38.2	25.7	0.00e+00	0	40	0	2108686336	46	3956
2026-01-21 10:21:21.65	50.34	46.99	-37.5	-38.2	25.7	0.00e+00	0	40	0	2113929216	46	3914
2026-01-21 10:21:22.66	49.75	47.02	-37.5	-38.2	25.7	0.00e+00	0	40	0	2120220672	46	3949
2026-01-21 10:21:23.66	49.18	47.05	-37.4	-38.1	25.8	0.00e+00	0	40	0	2126512128	46	3901
2026-01-21 10:21:24.67	48.59	47.07	-37.5	-38.2	25.8	0.00e+00	0	40	0	2131755008	46	3915
2026-01-21 10:21:25.68	48.01	47.10	-37.3	-38.0	25.9	0.00e+00	0	40	0	2136997888	46	3835
2026-01-21 10:21:26.69	47.42	47.11	-37.2	-37.9	26.0	0.00e+00	0	40	0	2143289344	46	3815
2026-01-21 10:21:27.69	46.84	47.13	-37.1	-37.8	26.1	0.00e+00	0	40	0	2148532224	46	3773
2026-01-21 10:21:28.70	46.25	47.14	-37.0	-37.7	26.2	0.00e+00	0	40	0	2153775104	46	3728
2026-01-21 10:21:29.71	45.67	47.15	-37.1	-37.8	26.1	0.00e+00	0	40	0	2160066560	46	3774
2026-01-21 10:21:30.72	45.08	47.15	-37.1	-37.8	26.1	0.00e+00	0	40	0	2165309440	46	3766
2026-01-21 10:21:31.73	44.49	47.16	-37.2	-37.9	26.0	0.00e+00	0	40	0	2171600896	46	3796
2026-01-21 10:21:32.73	43.91	47.16	-37.4	-38.1	25.9	0.00e+00	0	40	0	2176843776	46	3870
2026-01-21 10:21:33.74	43.32	47.15	-37.5	-38.2	25.8	0.00e+00	0	40	0	2182086656	46	3924
2026-01-21 10:21:34.75	42.74	47.14	-37.6	-38.3	25.7	0.00e+00	0	40	0	2188378112	46	3961
2026-01-21 10:21:35.76	42.15	47.13	-37.6	-38.3	25.7	0.00e+00	0	40	0	2194669568	46	3980
2026-01-21 10:21:36.77	41.56	47.12	-37.6	-38.3	25.7	0.00e+00	0	40	0	2199912448	46	3991
2026-01-21 10:21:37.77	40.98	47.10	-37.5	-38.2	25.7	0.00e+00	0	40	0	2205155328	46	3942
2026-01-21 10:21:38.78	40.40	47.08	-37.5	-38.2	25.8	0.00e+00	0	40	0	2211446784	46	3953
2026-01-21 10:21:39.79	39.81	47.05	-37.4	-38.1	25.8	0.00e+00	0	40	0	2216689664	46	3899
2026-01-21 10:21:40.80	39.23	47.03	-37.3	-38.0	26.0	0.00e+00	0	40	0	2221932544	46	3827
2026-01-21 10:21:41.81	38.65	47.00	-37.3	-38.0	25.9	0.00e+00	0	40	0	2228224000	46	3843
2026-01-21 10:21:42.82	38.07	46.96	-37.3	-38.0	25.9	0.00e+00	0	40	0	2233466880	46	3838
2026-01-21 10:21:43.83	37.49	46.93	-37.4	-38.1	25.9	0.00e+00	0	40	0	2238709760	46	3871
2026-01-21 10:21:44.83	36.92	46.89	-37.4	-38.1	25.8	0.00e+00	0	40	0	2245001216	46	3898
2026-01-21 10:21:45.84	36.34	46.84	-37.4	-38.1	25.8	0.00e+00	0	40	0	2250244096	46	3898
2026-01-21 10:21:46.85	35.76	46.80	-37.6	-38.3	25.7	0.00e+00	0	40	0	2256535552	46	3975
2026-01-21 10:21:47.86	35.19	46.75	-37.7	-38.4	25.6	0.00e+00	0	40	0	2261778432	46	4029
2026-01-21 10:21:48.86	34.63	46.69	-37.7	-38.4	25.6	0.00e+00	0	40	0	2268069888	46	4009
2026-01-21 10:21:49.87	34.06	46.64	-37.7	-38.4	25.6	0.00e+00	0	40	0	2273312768	46	4029
2026-01-21 10:21:50.88	33.49	46.58	-37.6	-38.3	25.7	0.00e+00	0	40	0	2279604224	46	3997
2026-01-21 10:21:51.89	32.92	46.52	-37.5	-38.2	25.8	0.00e+00	0	40	0	2284847104	46	3944
2026-01-21 10:21:52.90	32.36	46.45	-37.5	-38.2	25.8	0.00e+00	0	40	0	2290089984	46	3924
2026-01-21 10:21:53.91	31.80	46.39	-37.2	-37.9	26.1	0.00e+00	0	40	0	2296381440	46	3784
2026-01-21 10:21:54.91	31.25	46.32	-37.0	-37.7	26.2	0.00e+00	0	40	0	2301624320	46	3705
2026-01-21 10:21:55.92	30.69	46.24	-37.2	-37.8	26.1	0.00e+00	0	40	0	2306867200	46	3770
2026-01-21 10:21:56.93	30.14	46.17	-37.2	-37.9	26.0	0.00e+00	0	40	0	2313158656	46	3812
2026-01-21 10:21:57.94	29.59	46.09	-37.2	-37.9	26.0	0.00e+00	0	40	0	2318401536	46	3812
2026-01-21 10:21:58.95	29.04	46.01	-37.2	-37.9	26.0	0.00e+00	0	40	0	2323644416	46	3808
2026-01-21 10:21:59.95	28.51	45.92	-37.2	-37.9	26.1	0.00e+00	0	40	0	2329935872	46	3791
2026-01-21 10:22:00.96	27.96	45.83	-37.2	-37.8	26.1	0.00e+00	0	40	0	2336227328	46	3778
2026-01-21 10:22:01.97	27.43	45.75	-37.3	-38.0	25.9	0.00e+00	0	40	0	2341470208	46	3858
2026-01-21 10:22:02.98	26.89	45.65	-37.3	-38.0	25.9	0.00e+00	0	40	0	2346713088	46	3853
2026-01-21 10:22:03.99	26.36	45.56	-37.4	-38.1	25.9	0.00e+00	0	40	0	2353004544	46	3874
2026-01-21 10:22:04.99	25.84	45.46	-37.3	-38.0	25.9	0.00e+00	0	40	0	2358247424	46	3851
2026-01-21 10:22:06.00	25.31	45.36	-37.3	-38.0	26.0	0.00e+00	0	40	0	2364538880	46	3850
2026-01-21 10:22:07.01	24.79	45.26	-37.3	-38.0	26.0	0.00e+00	0	40	0	2369781760	46	3846
2026-01-21 10:22:08.02	24.27	45.16	-37.2	-37.9	26.0	0.00e+00	0	40	0	2375024640	46	3817
2026-01-21 10:22:09.02	23.76	45.05	-37.2	-37.9	26.0	0.00e+00	0	40	0	2381316096	46	3820
2026-01-21 10:22:10.03	23.25	44.94	-37.3	-38.0	26.0	0.00e+00	0	40	0	2386558976	46	3833
2026-01-21 10:22:11.04	22.74	44.83	-37.1	-37.8	26.1	0.00e+00	0	40	0	2391801856	46	3763
2026-01-21 10:22:12.05	22.24	44.72	-37.2	-37.9	26.1	0.00e+00	0	40	0	2398093312	46	3788
2026-01-21 10:22:13.06	21.74	44.60	-37.0	-37.7	26.2	0.00e+00	0	40	0	2404384768	46	3718
2026-01-21 10:22:14.07	21.24	44.48	-36.9	-37.6	26.3	0.00e+00	0	40	0	2409627648	45	3899
2026-01-21 10:22:15.07	20.75	44.36	-36.9	-37.6	26.3	0.00e+00	0	40	0	2414870528	45	3880
2026-01-21 10:22:16.08	20.26	44.24	-36.8	-37.5	26.4	0.00e+00	0	40	0	2421161984	45	3854
2026-01-21 10:22:17.09	19.77	44.12	-36.8	-37.4	26.4	0.00e+00	0	40	0	2426404864	45	3810
2026-01-21 10:22:18.10	19.29	43.99	-36.9	-37.6	26.3	0.00e+00	0	40	0	2431647744	45	3891
2026-01-21 10:22:19.11	18.81	43.87	-36.9	-37.6	26.2	0.00e+00	0	40	0	2437939200	45	3903
2026-01-21 10:22:20.12	18.34	43.74	-37.0	-37.7	26.2	0.00e+00	0	40	0	2443182080	45	3945
2026-01-21 10:22:21.12	17.87	43.61	-37.2	-37.9	26.1	0.00e+00	0	40	0	2449473536	45	4008
2026-01-21 10:22:22.13	17.41	43.48	-37.1	-37.8	26.1	0.00e+00	0	40	0	2454716416	45	3981
2026-01-21 10:22:23.14	16.94	43.34	-37.2	-37.9	26.1	0.00e+00	0	40	0	2459959296	45	4011
2026-01-21 10:22:24.15	16.49	43.21	-37.1	-37.8	26.1	0.00e+00	0	40	0	2466250752	45	3968
2026-01-21 10:22:25.15	16.04	43.07	-37.2	-37.8	26.1	0.00e+00	0	40	0	2471493632	45	3997
2026-01-21 10:22:26.16	15.58	42.93	-37.0	-37.7	26.2	0.00e+00	0	40	0	2477785088	45	3938
2026-01-21 10:22:27.17	15.14	42.79	-36.8	-37.5	26.3	0.00e+00	0	40	0	2483027968	45	3856
2026-01-21 10:22:28.18	14.69	42.65	-36.7	-37.4	26.5	0.00e+00	0	40	0	2489319424	45	3785
2026-01-21 10:22:29.19	14.25	42.51	-36.6	-37.3	26.6	0.00e+00	0	40	0	2494562304	45	3742
2026-01-21 10:22:30.19	13.82	42.36	-36.6	-37.3	26.5	0.00e+00	0	40	0	2499805184	45	3744
2026-01-21 10:22:31.20	13.39	42.22	-36.7	-37.3	26.5	0.00e+00	0	40	0	2506096640	45	3769
2026-01-21 10:22:32.21	12.96	42.07	-36.9	-37.5	26.3	0.00e+00	0	40	0	2511339520	45	3866
2026-01-21 10:22:33.22	12.54	41.92	-37.0	-37.6	26.2	0.00e+00	0	40	0	2516582400	45	3911
2026-01-21 10:22:34.23	12.12	41.77	-37.0	-37.6	26.2	0.00e+00	0	40	0	2522873856	45	3913
2026-01-21 10:22:35.23	11.71	41.62	-36.9	-37.5	26.3	0.00e+00	0	40	0	2528116736	45	3856
2026-01-21 10:22:36.24	11.30	41.47	-36.7	-37.4	26.5	0.00e+00	0	40	0	2534408192	45	3783
2026-01-21 10:22:37.25	10.89	41.32	-36.9	-37.5	26.3	0.00e+00	0	40	0	2539651072	45	3867
2026-01-21 10:22:38.26	10.49	41.17	-36.8	-37.5	26.3	0.00e+00	0	40	0	2544893952	45	3848
2026-01-21 10:22:39.26	10.09	41.01	-36.9	-37.5	26.3	0.00e+00	0	40	0	2551185408	45	3862
2026-01-21 10:22:40.27	9.69	40.86	-36.9	-37.6	26.3	0.00e+00	0	40	0	2557476864	45	3889
2026-01-21 10:22:41.28	9.30	40.70	-37.1	-37.7	26.2	0.00e+00	0	40	0	2562719744	45	3955
2026-01-21 10:22:42.29	8.91	40.54	-37.1	-37.8	26.1	0.00e+00	0	40	0	2567962624	45	3969
2026-01-21 10:22:43.30	8.53	40.39	-37.3	-38.0	25.9	0.00e+00	0	40	0	2574254080	45	4081
2026-01-21 10:22:44.31	8.15	40.23	-37.3	-38.0	25.9	0.00e+00	0	40	0	2579496960	45	4091
2026-01-21 10:22:45.32	7.77	40.07	-37.4	-38.1	25.8	0.00e+00	0	40	0	2584739840	45	4118
2026-01-21 10:22:46.33	7.39	39.91	-37.4	-38.1	25.8	0.00e+00	0	40	0	2591031296	45	4129
2026-01-21 10:22:47.33	7.03	39.75	-37.3	-37.9	26.0	0.00e+00	0	40	0	2596274176	45	4047
2026-01-21 10:22:48.34	6.66	39.59	-37.3	-38.0	25.9	0.00e+00	0	40	0	2601517056	45	4056
2026-01-21 10:22:49.35	6.30	39.43	-37.1	-37.7	26.1	0.00e+00	0	40	0	2607808512	45	3955
2026-01-21 10:22:50.36	5.94	39.26	-37.0	-37.7	26.2	0.00e+00	0	40	0	2614099968	45	3919
2026-01-21 10:22:51.36	5.59	39.10	-37.0	-37.7	26.2	0.00e+00	0	40	0	2619342848	45	3923
2026-01-21 10:22:52.37	5.24	38.94	-37.0	-37.7	26.2	0.00e+00	0	40	0	2624585728	45	3929
2026-01-21 10:22:53.38	4.89	38.78	-37.0	-37.7	26.1	0.00e+00	0	40	0	2630877184	45	3951
2026-01-21 10:22:54.39	4.54	38.61	-37.1	-37.7	26.1	0.00e+00	0	40	0	2636120064	45	3954
2026-01-21 10:22:55.40	4.20	38.45	-37.1	-37.7	26.1	0.00e+00	0	40	0	2642411520	45	3953
2026-01-21 10:22:56.41	3.86	38.28	-36.9	-37.6	26.2	0.00e+00	0	40	0	2647654400	45	3900
2026-01-21 10:22:57.42	3.53	38.12	-36.9	-37.6	26.2	0.00e+00	0	40	0	2652897280	45	3894
2026-01-21 10:22:58.42	3.20	37.95	-36.9	-37.6	26.3	0.00e+00	0	40	0	2659188736	45	3897
2026-01-21 10:22:59.43	2.87	37.79	-37.0	-37.6	26.2	0.00e+00	0	40	0	2664431616	45	3908
2026-01-21 10:23:00.44	2.55	37.62	-36.9	-37.6	26.2	0.00e+00	0	40	0	2669674496	45	3897
2026-01-21 10:23:01.45	2.23	37.45	-36.9	-37.5	26.3	0.00e+00	0	40	0	2675965952	45	3868
2026-01-21 10:23:02.46	1.91	37.29	-36.8	-37.5	26.3	0.00e+00	0	40	0	2681208832	45	3834
2026-01-21 10:23:03.47	1.60	37.12	-36.6	-37.2	26.5	0.00e+00	0	40	0	2687500288	45	3736
2026-01-21 10:23:04.47	1.29	36.96	-36.6	-37.3	26.5	0.00e+00	0	40	0	2692743168	45	3774
2026-01-21 10:23:05.48	0.98	36.79	-36.7	-37.4	26.4	0.00e+00	0	40	0	2699034624	45	3793
2026-01-21 10:23:06.49	0.68	36.62	-36.5	-37.2	26.6	0.00e+00	0	40	0	2704277504	45	3723
2026-01-21 10:23:07.50	0.37	36.45	-36.6	-37.2	26.6	0.00e+00	0	40	0	2709520384	45	3724
2026-01-21 10:23:08.50	0.08	36.29	-36.6	-37.2	26.6	0.00e+00	0	40	0	2715811840	45	3727
2026-01-21 10:23:09.51	359.78	36.12	-36.5	-37.2	26.6	0.00e+00	0	40	0	2721054720	45	3706
2026-01-21 10:23:10.52	359.49	35.96	-36.7	-37.3	26.5	0.00e+00	0	40	0	2727346176	45	3767
2026-01-21 10:23:11.53	359.20	35.79	-36.7	-37.4	26.4	0.00e+00	0	40	0	2732589056	45	3807
2026-01-21 10:23:12.54	358.91	35.62	-36.9	-37.6	26.3	0.00e+00	0	40	0	2737831936	45	3871
2026-01-21 10:23:13.54	358.63	35.46	-36.9	-37.6	26.2	0.00e+00	0	40	0	2744123392	45	3889
2026-01-21 10:23:14.55	358.35	35.29	-36.9	-37.6	26.2	0.00e+00	0	40	0	2749366272	45	3890
2026-01-21 10:23:15.56	358.08	35.12	-37.0	-37.7	26.1	0.00e+00	0	40	0	2755657728	45	3915
2026-01-21 10:23:16.57	357.80	34.96	-36.9	-37.6	26.2	0.00e+00	0	40	0	2760900608	45	3874
2026-01-21 10:23:17.58	357.53	34.79	-36.8	-37.4	26.3	0.00e+00	0	40	0	2767192064	45	3822
2026-01-21 10:23:18.59	357.26	34.62	-36.9	-37.6	26.2	0.00e+00	0	40	0	2772434944	45	3886
2026-01-21 10:23:19.60	356.99	34.46	-37.0	-37.7	26.1	0.00e+00	0	40	0	2777677824	45	3949
2026-01-21 10:23:20.61	356.73	34.29	-36.8	-37.5	26.3	0.00e+00	0	40	0	2783969280	45	3856
2026-01-21 10:23:21.61	356.47	34.13	-36.9	-37.6	26.2	0.00e+00	0	40	0	2789212160	45	3884
2026-01-21 10:23:22.62	356.21	33.96	-36.9	-37.6	26.2	0.00e+00	0	40	0	2794455040	45	3885
2026-01-21 10:23:23.63	355.96	33.80	-36.9	-37.6	26.2	0.00e+00	0	40	0	2800746496	45	3899
2026-01-21 10:23:24.64	355.70	33.63	-36.9	-37.6	26.2	0.00e+00	0	40	0	2805989376	45	3893
2026-01-21 10:23:25.65	355.45	33.46	-36.9	-37.6	26.2	0.00e+00	0	40	0	2812280832	45	3884
2026-01-21 10:23:26.66	355.20	33.30	-36.8	-37.4	26.3	0.00e+00	0	40	0	2817523712	45	3822
2026-01-21 10:23:27.66	354.96	33.14	-36.7	-37.4	26.4	0.00e+00	0	40	0	2823815168	45	3783
2026-01-21 10:23:28.67	354.72	32.97	-36.8	-37.4	26.3	0.00e+00	0	40	0	2829058048	45	3813
2026-01-21 10:23:29.68	354.48	32.81	-36.8	-37.5	26.3	0.00e+00	0	40	0	2835349504	45	3848
2026-01-21 10:23:30.69	354.24	32.65	-36.9	-37.6	26.2	0.00e+00	0	40	0	2840592384	45	3878
2026-01-21 10:23:31.69	354.01	32.48	-37.0	-37.7	26.1	0.00e+00	0	40	0	2845835264	45	3935
2026-01-21 10:23:32.70	353.77	32.32	-37.0	-37.7	26.1	0.00e+00	0	40	0	2852126720	45	3956
2026-01-21 10:23:33.71	353.54	32.16	-36.9	-37.6	26.2	0.00e+00	0	40	0	2857369600	45	3893
2026-01-21 10:23:34.72	353.31	32.00	-36.9	-37.6	26.2	0.00e+00	0	40	0	2862612480	45	3887
2026-01-21 10:23:35.73	353.09	31.84	-37.0	-37.7	26.1	0.00e+00	0	40	0	2868903936	45	3946
2026-01-21 10:23:36.73	352.87	31.68	-37.0	-37.7	26.1	0.00e+00	0	40	0	2874146816	45	3918
2026-01-21 10:23:37.74	352.64	31.52	-36.9	-37.6	26.2	0.00e+00	0	40	0	2879389696	45	3900
2026-01-21 10:23:38.75	352.42	31.35	-37.0	-37.6	26.2	0.00e+00	0	40	0	2885681152	45	3908
2026-01-21 10:23:39.76	352.21	31.19	-37.0	-37.7	26.1	0.00e+00	0	40	0	2891972608	45	3924
2026-01-21 10:23:40.76	351.99	31.04	-37.0	-37.7	26.1	0.00e+00	0	40	0	2897215488	45	3951
2026-01-21 10:23:41.77	351.78	30.88	-37.0	-37.7	26.1	0.00e+00	0	40	0	2902458368	45	3938
2026-01-21 10:23:42.78	351.57	30.72	-37.2	-37.8	26.0	0.00e+00	0	40	0	2908749824	45	3996
2026-01-21 10:23:43.79	351.36	30.56	-37.1	-37.8	26.0	0.00e+00	0	40	0	2913992704	45	3991
2026-01-21 10:23:44.80	351.15	30.40	-37.2	-37.8	26.0	0.00e+00	0	40	0	2920284160	45	4002
2026-01-21 10:23:45.80	350.95	30.25	-37.3	-38.0	25.8	0.00e+00	0	40	0	2925527040	45	4088
2026-01-21 10:23:46.81	350.75	30.09	-37.5	-38.2	25.7	0.00e+00	0	40	0	2930769920	45	4158
2026-01-21 10:23:47.82	350.55	29.93	-37.6	-38.3	25.6	0.00e+00	0	40	0	2937061376	45	4203
2026-01-21 10:23:48.83	350.35	29.78	-37.5	-38.2	25.6	0.00e+00	0	40	0	2942304256	45	4193
2026-01-21 10:23:49.84	350.15	29.62	-37.5	-38.2	25.6	0.00e+00	0	40	0	2947547136	45	4176
2026-01-21 10:23:50.85	349.96	29.46	-37.4	-38.1	25.7	0.00e+00	0	40	0	2953838592	45	4123
2026-01-21 10:23:51.85	349.77	29.31	-37.4	-38.1	25.7	0.00e+00	0	40	0	2959081472	45	4114
2026-01-21 10:23:52.86	349.57	29.16	-37.4	-38.1	25.8	0.00e+00	0	40	0	2965372928	45	4100
2026-01-21 10:23:53.87	349.38	29.00	-37.5	-38.2	25.6	0.00e+00	0	40	0	2970615808	45	4154
2026-01-21 10:23:54.88	349.20	28.85	-37.3	-38.0	25.8	0.00e+00	0	40	0	2976907264	45	4087
2026-01-21 10:23:55.89	349.01	28.70	-37.3	-38.0	25.8	0.00e+00	0	40	0	2982150144	45	4097
2026-01-21 10:23:56.90	348.83	28.54	-37.3	-38.0	25.8	0.00e+00	0	40	0	2987393024	45	4071
2026-01-21 10:23:57.90	348.65	28.39	-37.2	-37.9	25.9	0.00e+00	0	40	0	2993684480	45	4030
2026-01-21 10:23:58.91	348.47	28.24	-37.2	-37.9	25.9	0.00e+00	0	40	0	2998927360	45	4035
2026-01-21 10:23:59.92	348.29	28.09	-37.2	-37.9	25.9	0.00e+00	0	40	0	3005218816	45	4016
2026-01-21 10:24:00.92	348.11	27.94	-37.3	-38.0	25.8	0.00e+00	0	40	0	3010461696	45	4057
2026-01-21 10:24:01.93	347.94	27.79	-37.3	-38.0	25.8	0.00e+00	0	40	0	3015704576	45	4084
2026-01-21 10:24:02.94	347.76	27.64	-37.4	-38.1	25.7	0.00e+00	0	40	0	3021996032	45	4116
2026-01-21 10:24:03.95	347.59	27.49	-37.5	-38.2	25.6	0.00e+00	0	40	0	3027238912	45	4184
2026-01-21 10:24:04.96	347.42	27.35	-37.6	-38.3	25.5	0.00e+00	0	40	0	3033530368	45	4202
2026-01-21 10:24:05.96	347.25	27.20	-37.7	-38.4	25.5	0.00e+00	0	40	0	3038773248	45	4249
2026-01-21 10:24:06.97	347.09	27.05	-37.7	-38.5	25.4	0.00e+00	0	40	0	3045064704	46	4055
2026-01-21 10:24:07.98	346.92	26.91	-37.7	-38.4	25.5	0.00e+00	0	40	0	3050307584	46	4020
2026-01-21 10:24:08.99	346.76	26.76	-37.6	-38.3	25.5	0.00e+00	0	40	0	3055550464	46	3986
2026-01-21 10:24:10.00	346.60	26.61	-37.6	-38.3	25.6	0.00e+00	0	40	0	3061841920	46	3962
2026-01-21 10:24:11.01	346.43	26.47	-37.4	-38.1	25.7	0.00e+00	0	40	0	3067084800	46	3894
2026-01-21 10:24:12.01	346.28	26.33	-37.5	-38.2	25.6	0.00e+00	0	40	0	3072327680	46	3925
2026-01-21 10:24:13.02	346.12	26.18	-37.4	-38.1	25.7	0.00e+00	0	40	0	3078619136	46	3901
2026-01-21 10:24:14.03	345.96	26.04	-37.4	-38.1	25.7	0.00e+00	0	40	0	3083862016	46	3884
2026-01-21 10:24:15.04	345.81	25.89	-37.4	-38.1	25.7	0.00e+00	0	40	0	3090153472	46	3901
2026-01-21 10:24:16.05	345.65	25.75	-37.5	-38.2	25.6	0.00e+00	0	40	0	3095396352	46	3924
2026-01-21 10:24:17.05	345.50	25.61	-37.4	-38.1	25.7	0.00e+00	0	40	0	3100639232	46	3905
2026-01-21 10:24:18.06	345.35	25.47	-37.4	-38.1	25.6	0.00e+00	0	40	0	3106930688	46	3904
2026-01-21 10:24:19.07	345.20	25.33	-37.4	-38.1	25.7	0.00e+00	0	40	0	3113222144	46	3903
2026-01-21 10:24:20.08	345.05	25.19	-37.4	-38.1	25.7	0.00e+00	0	40	0	3118465024	46	3884
2026-01-21 10:24:21.09	344.91	25.05	-37.4	-38.1	25.7	0.00e+00	0	40	0	3123707904	46	3869
2026-01-21 10:24:22.09	344.76	24.91	-37.2	-37.9	25.9	0.00e+00	0	40	0	3129999360	46	3799
2026-01-21 10:24:23.10	344.62	24.77	-37.3	-38.0	25.8	0.00e+00	0	40	0	3135242240	46	3841
2026-01-21 10:24:24.11	344.47	24.63	-37.3	-37.9	25.8	0.00e+00	0	40	0	3140485120	46	3819
2026-01-21 10:24:25.12	344.33	24.50	-37.4	-38.1	25.7	0.00e+00	0	40	0	3146776576	46	3872
2026-01-21 10:24:26.13	344.19	24.36	-37.4	-38.1	25.6	0.00e+00	0	40	0	3152019456	46	3900
2026-01-21 10:24:27.14	344.05	24.22	-37.6	-38.3	25.5	0.00e+00	0	40	0	3157262336	46	3983
2026-01-21 10:24:28.15	343.92	24.09	-37.6	-38.3	25.5	0.00e+00	0	40	0	3163553792	46	3992
2026-01-21 10:24:29.15	343.78	23.95	-37.6	-38.3	25.5	0.00e+00	0	40	0	3168796672	46	3979
2026-01-21 10:24:30.16	343.64	23.82	-37.5	-38.2	25.6	0.00e+00	0	40	0	3175088128	46	3944
2026-01-21 10:24:31.17	343.51	23.68	-37.6	-38.3	25.5	0.00e+00	0	40	0	3180331008	46	3967
2026-01-21 10:24:32.18	343.38	23.55	-37.5	-38.2	25.5	0.00e+00	0	40	0	3186622464	46	3946
2026-01-21 10:24:33.19	343.24	23.41	-37.5	-38.2	25.5	0.00e+00	0	40	0	3191865344	46	3951
2026-01-21 10:24:34.19	343.12	23.28	-37.7	-38.4	25.4	0.00e+00	0	40	0	3198156800	46	4015
2026-01-21 10:24:35.20	342.99	23.15	-37.6	-38.4	25.4	0.00e+00	0	40	0	3203399680	46	4005
2026-01-21 10:24:36.21	342.86	23.02	-37.7	-38.4	25.4	0.00e+00	0	40	0	3208642560	46	4025
2026-01-21 10:24:37.21	342.73	22.89	-37.8	-38.5	25.3	0.00e+00	0	40	0	3214934016	46	4054
2026-01-21 10:24:38.22	342.60	22.76	-37.8	-38.5	25.3	0.00e+00	0	40	0	3220176896	46	4059
2026-01-21 10:24:39.23	342.48	22.63	-37.9	-38.6	25.2	0.00e+00	0	40	0	3225419776	46	4120
2026-01-21 10:24:40.24	342.35	22.50	-37.9	-38.6	25.2	0.00e+00	0	40	0	3231711232	46	4136
2026-01-21 10:24:41.25	342.23	22.37	-37.9	-38.6	25.2	0.00e+00	0	40	0	3236954112	46	4112
2026-01-21 10:24:42.25	342.11	22.24	-37.9	-38.6	25.1	0.00e+00	0	40	0	3242196992	46	4141
2026-01-21 10:24:43.26	341.99	22.11	-38.0	-38.7	25.1	0.00e+00	0	40	0	3248488448	46	4178
2026-01-21 10:24:44.27	341.87	21.98	-38.0	-38.8	25.0	0.00e+00	0	40	0	3254779904	46	4201
2026-01-21 10:24:45.28	341.75	21.85	-38.1	-38.8	25.0	0.00e+00	0	40	0	3260022784	46	4239
2026-01-21 10:24:46.29	341.63	21.73	-38.0	-38.7	25.1	0.00e+00	0	40	0	3265265664	46	4177
2026-01-21 10:24:47.29	341.52	21.60	-38.0	-38.8	25.0	0.00e+00	0	40	0	3271557120	46	4195
2026-01-21 10:24:48.30	341.40	21.48	-37.9	-38.6	25.1	0.00e+00	0	40	0	3276800000	46	4135
2026-01-21 10:24:49.31	341.28	21.35	-37.9	-38.6	25.1	0.00e+00	0	40	0	3283091456	46	4134
2026-01-21 10:24:50.32	341.17	21.23	-38.0	-38.7	25.1	0.00e+00	0	40	0	3288334336	46	4151
2026-01-21 10:24:51.32	341.06	21.10	-38.1	-38.8	25.0	0.00e+00	0	40	0	3293577216	46	4205
2026-01-21 10:24:52.33	340.95	20.98	-38.0	-38.7	25.1	0.00e+00	0	40	0	3299868672	46	4171
2026-01-21 10:24:53.34	340.83	20.86	-38.0	-38.7	25.0	0.00e+00	0	40	0	3305111552	46	4173
2026-01-21 10:24:54.35	340.72	20.73	-38.0	-38.7	25.1	0.00e+00	0	40	0	3310354432	46	4151
2026-01-21 10:24:55.36	340.61	20.61	-38.0	-38.7	25.1	0.00e+00	0	40	0	3316645888	46	4167
2026-01-21 10:24:56.37	340.51	20.49	-38.1	-38.8	25.0	0.00e+00	0	40	0	3322937344	46	4221
2026-01-21 10:24:57.37	340.40	20.37	-38.2	-38.9	24.9	0.00e+00	0	40	0	3328180224	46	4277
2026-01-21 10:24:58.38	340.29	20.25	-38.2	-38.9	24.9	0.00e+00	0	40	0	3333423104	47	4025
2026-01-21 10:24:59.39	340.19	20.13	-38.2	-39.0	24.8	0.00e+00	0	40	0	3339714560	47	4063
2026-01-21 10:25:00.40	340.08	20.01	-38.3	-39.0	24.8	0.00e+00	0	40	0	3344957440	47	4088
2026-01-21 10:25:01.41	339.98	19.89	-38.3	-39.0	24.8	0.00e+00	0	40	0	3350200320	47	4091
2026-01-21 10:25:02.41	339.87	19.77	-38.4	-39.1	24.6	0.00e+00	0	40	0	3356491776	47	4145
2026-01-21 10:25:03.42	339.77	19.65	-38.5	-39.2	24.6	0.00e+00	0	40	0	3361734656	47	4172
2026-01-21 10:25:04.43	339.67	19.53	-38.6	-39.3	24.4	0.00e+00	0	40	0	3368026112	47	4241
2026-01-21 10:25:05.44	339.57	19.41	-38.6	-39.4	24.4	0.00e+00	0	40	0	3373268992	47	4249
2026-01-21 10:25:06.45	339.47	19.30	-38.7	-39.5	24.4	0.00e+00	0	40	0	3378511872	47	4303
2026-01-21 10:25:07.45	339.37	19.18	-39.1	-39.9	24.5	0.00e+00	0	40	0	3384803328	48	4260
2026-01-21 10:25:08.46	339.27	19.06	-39.2	-40.0	24.4	0.00e+00	0	40	0	3391094784	49	4074
2026-01-21 10:25:09.47	339.17	18.95	-39.3	-40.0	24.3	0.00e+00	0	40	0	3396337664	49	4096
2026-01-21 10:25:10.48	339.08	18.83	-39.3	-40.1	24.3	0.00e+00	0	40	0	3401580544	49	4103
2026-01-21 10:25:11.48	338.98	18.72	-39.3	-40.0	24.3	0.00e+00	0	40	0	3407872000	49	4094
2026-01-21 10:25:12.49	338.89	18.60	-39.4	-40.2	24.2	0.00e+00	0	40	0	3413114880	49	4150
2026-01-21 10:25:13.50	338.79	18.49	-39.3	-40.1	24.3	0.00e+00	0	40	0	3418357760	49	4122
2026-01-21 10:25:14.50	338.70	18.38	-39.4	-40.1	24.2	0.00e+00	0	40	0	3424649216	49	4136
2026-01-21 10:25:15.51	338.60	18.26	-39.4	-40.1	24.3	0.00e+00	0	40	0	3429892096	49	4120
2026-01-21 10:25:16.52	338.51	18.15	-39.2	-39.9	24.4	0.00e+00	0	40	0	3435134976	49	4033
2026-01-21 10:25:17.53	338.42	18.04	-39.2	-39.9	24.4	0.00e+00	0	40	0	3441426432	49	4050
2026-01-21 10:25:18.54	338.33	17.93	-39.2	-39.9	24.4	0.00e+00	0	40	0	3446669312	49	4032
2026-01-21 10:25:19.55	338.24	17.81	-39.2	-39.9	24.4	0.00e+00	0	40	0	3452960768	49	4030
2026-01-21 10:25:20.55	338.15	17.70	-39.3	-40.0	24.3	0.00e+00	0	40	0	3458203648	49	4076
2026-01-21 10:25:21.56	338.06	17.59	-39.2	-40.0	24.4	0.00e+00	0	40	0	3464495104	49	4053
2026-01-21 10:25:22.57	337.97	17.48	-39.3	-40.1	24.3	0.00e+00	0	40	0	3469737984	49	4101
2026-01-21 10:25:23.58	337.88	17.37	-39.3	-40.0	24.3	0.00e+00	0	40	0	3476029440	49	4079
2026-01-21 10:25:24.58	337.80	17.27	-39.4	-40.1	24.2	0.00e+00	0	40	0	3481272320	49	4141
2026-01-21 10:25:25.59	337.71	17.16	-39.4	-40.2	24.2	1.10e-06	0	40	0	3486515200	49	4147
2026-01-21 10:25:26.60	337.62	17.05	-39.5	-40.2	24.1	0.00e+00	0	40	0	3492806656	49	4163
2026-01-21 10:25:27.61	337.54	16.94	-39.5	-40.2	24.1	0.00e+00	0	40	0	3498049536	49	4184
2026-01-21 10:25:28.62	337.45	16.83	-39.5	-40.2	24.1	0.00e+00	0	40	0	3503292416	49	4177
2026-01-21 10:25:29.63	337.37	16.72	-39.5	-40.2	24.1	0.00e+00	0	40	0	3509583872	49	4180
2026-01-21 10:25:30.63	337.29	16.62	-39.6	-40.4	24.0	0.00e+00	0	40	0	3514826752	49	4243
2026-01-21 10:25:31.64	337.20	16.51	-39.5	-40.3	24.1	0.00e+00	0	40	0	3520069632	49	4202
2026-01-21 10:25:32.65	337.12	16.41	-39.5	-40.3	24.1	5.70e-06	0	40	0	3526361088	49	4200
2026-01-21 10:25:33.65	337.04	16.30	-39.6	-40.3	24.0	0.00e+00	0	40	0	3531603968	49	4227
2026-01-21 10:25:34.66	336.96	16.20	-39.6	-40.4	23.9	5.70e-06	0	40	0	3537895424	49	4243
2026-01-21 10:25:35.67	336.88	16.09	-39.7	-40.5	23.9	0.00e+00	0	40	0	3543138304	50	4065
2026-01-21 10:25:36.68	336.80	15.99	-39.7	-40.5	23.8	0.00e+00	0	40	0	3549429760	50	4069
2026-01-21 10:25:37.69	336.72	15.88	-39.9	-40.7	23.7	0.00e+00	0	40	0	3554672640	50	4152
2026-01-21 10:25:38.70	336.64	15.78	-39.9	-40.6	23.7	0.00e+00	0	40	0	3560964096	50	4126
2026-01-21 10:25:39.71	336.56	15.67	-39.9	-40.7	23.7	0.00e+00	0	40	0	3566206976	50	4164
2026-01-21 10:25:40.72	336.49	15.57	-40.0	-40.8	23.6	0.00e+00	0	40	0	3571449856	50	4205
2026-01-21 10:25:41.73	336.41	15.47	-40.1	-40.8	23.5	0.00e+00	0	40	0	3577741312	50	4242
2026-01-21 10:25:42.73	336.33	15.37	-40.1	-40.9	23.4	0.00e+00	0	40	0	3582984192	50	4275
2026-01-21 10:25:43.74	336.26	15.27	-40.2	-40.9	23.4	0.00e+00	0	40	0	3588227072	50	4290
2026-01-21 10:25:44.75	336.18	15.16	-40.3	-41.1	23.3	0.00e+00	0	40	0	3594518528	51	4107
2026-01-21 10:25:45.76	336.11	15.06	-40.3	-41.1	23.3	0.00e+00	0	40	0	3600809984	51	4129
2026-01-21 10:25:46.77	336.03	14.96	-40.3	-41.1	23.3	0.00e+00	0	40	0	3606052864	51	4140
2026-01-21 10:25:47.77	335.96	14.86	-40.4	-41.2	23.1	0.00e+00	0	40	0	3611295744	51	4190
2026-01-21 10:25:48.78	335.89	14.76	-40.4	-41.2	23.2	0.00e+00	0	40	0	3617587200	51	4152
2026-01-21 10:25:49.78	335.82	14.66	-40.5	-41.3	23.0	0.00e+00	0	40	0	3622830080	51	4241
2026-01-21 10:25:50.79	335.74	14.56	-40.4	-41.2	23.2	0.00e+00	0	40	0	3628072960	51	4161
2026-01-21 10:25:51.80	335.67	14.47	-40.4	-41.2	23.1	0.00e+00	0	40	0	3634364416	51	4186
2026-01-21 10:25:52.80	335.60	14.37	-40.5	-41.3	23.0	0.00e+00	0	40	0	3639607296	51	4236
2026-01-21 10:25:53.81	335.53	14.27	-40.3	-41.1	23.3	0.00e+00	0	40	0	3645898752	51	4114
2026-01-21 10:25:54.82	335.46	14.17	-40.4	-41.1	23.2	0.00e+00	0	40	0	3651141632	51	4145
2026-01-21 10:25:55.83	335.39	14.07	-40.5	-41.3	23.1	0.00e+00	0	40	0	3656384512	51	4198
2026-01-21 10:25:56.84	335.32	13.98	-40.3	-41.1	23.3	0.00e+00	0	40	0	3662675968	51	4101
2026-01-21 10:25:57.85	335.25	13.88	-40.3	-41.1	23.2	0.00e+00	0	40	0	3667918848	51	4122
2026-01-21 10:25:58.85	335.19	13.78	-40.3	-41.1	23.2	0.00e+00	0	40	0	3673161728	51	4116
2026-01-21 10:25:59.86	335.12	13.69	-40.4	-41.1	23.2	0.00e+00	0	40	0	3679453184	51	4144
2026-01-21 10:26:00.87	335.05	13.59	-40.2	-41.0	23.3	0.00e+00	0	40	0	3685744640	51	4072
2026-01-21 10:26:01.88	334.98	13.50	-40.4	-41.1	23.2	0.00e+00	0	40	0	3690987520	51	4142
