passes_logs/2026/01/21/R3.2S_Murmansk/R3.2S_Murmansk__20260121_235731_FENGYUN_3D_rec.log

#Pass ID: 20260121_235731_FENGYUN 3D
#Satellite: FENGYUN 3D
#Configuration: FENGYUN 3D
#almurnet v.1.7.20251203
#Start time: 2026-01-21 23:57:31

#Version: 2.2.20231116
#Station: R3.2S_Murmansk
#Location: 33.079688 lon 68.888172 lat
#TLE: 1 43010U 17072A   26021.48744220  .00000253  00000+0  14133-3 0  9991
#TLE: 2 43010  98.9948 353.4037 0002485  97.2578 262.8880 14.19697766424177

#Time	Az	El	Level	Level2	SNR	BER	BlckErr	Temp	State	Recorded	gain1	gain2
2026-01-21 23:57:31.68	19.17	2.02	-54.1	-66.1	3.8	8.47e-01	0	39	0	0	79	14661
2026-01-21 23:57:32.68	19.25	2.07	-54.3	-66.3	3.8	8.47e-01	0	39	104	0	79	14959
2026-01-21 23:57:33.68	19.34	2.12	-54.4	-66.4	3.8	8.46e-01	0	39	104	0	79	15120
2026-01-21 23:57:34.69	19.42	2.17	-54.4	-66.4	3.8	8.47e-01	0	39	104	0	79	15087
2026-01-21 23:57:35.70	19.51	2.22	-54.4	-66.4	3.8	8.46e-01	0	39	104	0	79	15091
2026-01-21 23:57:36.71	19.59	2.27	-54.4	-66.4	3.8	8.45e-01	0	39	104	0	79	15054
2026-01-21 23:57:37.71	19.68	2.32	-54.4	-66.4	3.8	8.46e-01	0	39	104	0	79	15079
2026-01-21 23:57:38.72	19.76	2.37	-54.4	-66.3	3.8	8.47e-01	0	39	104	0	79	15045
2026-01-21 23:57:39.73	19.85	2.43	-54.4	-66.4	3.8	8.46e-01	0	39	104	0	79	15059
2026-01-21 23:57:40.74	19.94	2.48	-54.3	-66.3	3.8	8.45e-01	0	39	104	0	79	14927
2026-01-21 23:57:41.75	20.02	2.53	-54.3	-66.3	3.8	8.46e-01	0	39	104	0	79	14959
2026-01-21 23:57:42.76	20.11	2.58	-54.3	-66.2	3.8	8.46e-01	0	39	104	0	79	14863
2026-01-21 23:57:43.77	20.20	2.63	-54.2	-66.2	3.8	8.47e-01	0	39	104	0	79	14808
2026-01-21 23:57:44.78	20.29	2.68	-54.2	-66.2	3.8	8.46e-01	0	39	104	0	79	14817
2026-01-21 23:57:45.79	20.37	2.73	-54.1	-66.1	3.8	8.47e-01	0	39	104	0	79	14662
2026-01-21 23:57:46.80	20.46	2.79	-54.1	-66.1	3.8	8.45e-01	0	39	104	0	79	14543
2026-01-21 23:57:47.80	20.55	2.84	-54.0	-66.0	3.8	8.47e-01	0	39	104	0	79	14374
2026-01-21 23:57:48.81	20.64	2.89	-53.9	-65.9	3.8	8.46e-01	0	39	104	0	79	14277
2026-01-21 23:57:49.82	20.73	2.94	-53.8	-65.8	3.8	8.46e-01	0	39	104	0	79	14110
2026-01-21 23:57:50.83	20.82	2.99	-53.7	-65.7	3.8	8.46e-01	0	39	104	0	79	13895
2026-01-21 23:57:51.83	20.91	3.04	-53.6	-65.6	3.8	8.45e-01	0	39	104	0	79	13734
2026-01-21 23:57:52.84	21.00	3.10	-53.4	-65.4	3.8	8.47e-01	0	39	104	0	78	14217
2026-01-21 23:57:53.85	21.09	3.15	-53.1	-65.1	3.8	8.47e-01	0	39	104	0	78	13831
2026-01-21 23:57:54.86	21.18	3.20	-52.6	-64.6	3.8	8.47e-01	0	39	104	0	77	13752
2026-01-21 23:57:55.87	21.27	3.25	-52.4	-64.3	3.8	8.47e-01	0	39	104	0	76	14105
2026-01-21 23:57:56.88	21.36	3.30	-52.4	-64.3	3.8	8.46e-01	0	39	104	0	76	14102
2026-01-21 23:57:57.88	21.45	3.36	-52.3	-64.3	3.8	8.46e-01	0	39	104	0	76	14048
2026-01-21 23:57:58.89	21.55	3.41	-52.3	-64.2	3.8	8.46e-01	0	39	104	0	76	13923
2026-01-21 23:57:59.90	21.64	3.46	-52.3	-64.2	3.8	8.46e-01	0	39	104	0	76	13896
2026-01-21 23:58:00.91	21.73	3.51	-52.3	-64.1	3.8	8.45e-01	0	39	104	0	76	13804
2026-01-21 23:58:01.92	21.82	3.56	-52.3	-64.0	3.8	8.46e-01	0	39	104	0	76	13705
2026-01-21 23:58:02.93	21.92	3.62	-52.3	-64.2	3.8	8.46e-01	0	39	104	0	76	13914
2026-01-21 23:58:03.94	22.01	3.67	-52.3	-64.2	3.8	8.47e-01	0	39	104	0	76	13957
2026-01-21 23:58:04.94	22.10	3.72	-52.3	-64.3	3.8	8.47e-01	0	40	104	0	76	14095
2026-01-21 23:58:05.95	22.20	3.77	-52.3	-64.2	3.8	8.46e-01	0	39	104	0	76	14026
2026-01-21 23:58:06.96	22.29	3.82	-52.3	-64.2	3.8	8.47e-01	0	39	104	0	76	13888
2026-01-21 23:58:07.97	22.39	3.88	-52.3	-64.1	3.8	8.47e-01	0	39	104	0	76	13776
2026-01-21 23:58:08.98	22.48	3.93	-52.3	-64.1	3.8	8.46e-01	0	39	104	0	76	13879
2026-01-21 23:58:09.99	22.58	3.98	-52.3	-64.2	3.8	8.46e-01	0	40	104	0	76	13944
2026-01-21 23:58:11.00	22.67	4.03	-52.3	-64.2	3.8	8.46e-01	0	39	104	0	76	14037
2026-01-21 23:58:12.01	22.77	4.09	-52.3	-64.1	3.8	8.46e-01	0	40	104	0	76	13775
2026-01-21 23:58:13.01	22.87	4.14	-52.3	-63.7	3.8	8.46e-01	0	40	104	0	76	13116
2026-01-21 23:58:14.02	22.96	4.19	-52.2	-63.0	3.8	8.46e-01	0	40	104	0	76	12175
2026-01-21 23:58:15.03	23.06	4.25	-52.2	-62.6	3.8	8.45e-01	0	40	104	0	76	11568
2026-01-21 23:58:16.04	23.16	4.30	-52.1	-62.2	3.8	8.45e-01	0	40	104	0	76	11063
2026-01-21 23:58:17.05	23.26	4.35	-52.0	-61.6	3.9	8.45e-01	0	40	104	0	76	10353
2026-01-21 23:58:18.05	23.35	4.40	-51.8	-59.9	4.4	8.37e-01	0	39	0	0	75	8995
2026-01-21 23:58:19.06	23.45	4.46	-51.3	-57.6	5.7	7.18e-01	0	40	0	0	74	7299
2026-01-21 23:58:20.07	23.55	4.51	-50.5	-55.1	7.9	1.68e-01	0	40	0	5242880	73	5791
2026-01-21 23:58:21.08	23.65	4.56	-49.5	-52.7	10.3	1.01e-02	0	40	0	11534336	71	4979
2026-01-21 23:58:22.09	23.75	4.61	-48.2	-50.7	12.5	9.22e-04	0	40	0	16777216	68	4658
2026-01-21 23:58:23.10	23.85	4.67	-47.4	-49.5	13.7	1.14e-05	0	40	0	23068672	66	4578
2026-01-21 23:58:24.11	23.95	4.72	-46.7	-48.5	14.6	1.10e-06	0	40	0	28311552	65	4337
2026-01-21 23:58:25.12	24.05	4.77	-46.5	-48.2	15.0	0.00e+00	0	40	0	34603008	64	4424
2026-01-21 23:58:26.12	24.15	4.83	-46.4	-48.2	15.0	0.00e+00	0	40	0	39845888	64	4407
2026-01-21 23:58:27.13	24.25	4.88	-47.0	-49.0	14.2	2.20e-06	0	40	0	45088768	64	4851
2026-01-21 23:58:28.14	24.35	4.93	-47.5	-49.6	13.5	5.70e-06	0	40	0	51380224	65	4925
2026-01-21 23:58:29.15	24.46	4.99	-48.7	-51.4	11.7	2.22e-04	0	40	0	56623104	67	5370
2026-01-21 23:58:30.16	24.56	5.04	-49.8	-53.5	9.6	9.14e-03	0	40	0	61865984	70	5757
2026-01-21 23:58:31.17	24.66	5.09	-44.1	-45.2	18.5	0.00e+00	0	40	0	68157440	59	4169
2026-01-21 23:58:32.17	24.76	5.15	-52.0	-63.2	3.8	8.46e-01	0	40	104	70254592	74	14040
2026-01-21 23:58:33.18	24.87	5.20	-44.5	-45.7	17.6	0.00e+00	0	40	0	71303168	61	3939
2026-01-21 23:58:34.19	24.97	5.25	-43.0	-44.0	19.7	0.00e+00	0	40	0	77594624	58	3864
2026-01-21 23:58:35.20	25.07	5.31	-50.1	-53.9	9.2	5.35e-03	0	40	0	82837504	71	5696
2026-01-21 23:58:36.21	25.18	5.36	-43.3	-44.3	19.4	0.00e+00	0	40	0	88080384	58	3979
2026-01-21 23:58:37.21	25.28	5.41	-43.1	-44.1	19.7	0.00e+00	0	40	0	94371840	58	3889
2026-01-21 23:58:38.22	25.39	5.47	-43.2	-44.3	19.5	0.00e+00	0	40	0	99614720	58	3959
2026-01-21 23:58:39.23	25.49	5.52	-43.0	-44.1	19.7	0.00e+00	0	40	0	105906176	57	4111
2026-01-21 23:58:40.24	25.60	5.57	-43.1	-44.2	19.6	0.00e+00	0	40	0	111149056	57	4158
2026-01-21 23:58:41.25	25.71	5.63	-43.2	-44.2	19.5	0.00e+00	0	40	0	116391936	57	4181
2026-01-21 23:58:42.26	25.81	5.68	-43.1	-44.2	19.6	0.00e+00	0	40	0	122683392	57	4156
2026-01-21 23:58:43.27	25.92	5.73	-42.8	-43.8	20.0	0.00e+00	0	40	0	127926272	57	3987
2026-01-21 23:58:44.27	26.03	5.79	-42.8	-43.8	20.0	0.00e+00	0	40	0	133169152	57	3960
2026-01-21 23:58:45.28	26.13	5.84	-42.8	-43.8	20.0	0.00e+00	0	40	0	139460608	57	3976
2026-01-21 23:58:46.29	26.24	5.89	-42.8	-43.8	20.1	0.00e+00	0	40	0	145752064	57	3961
2026-01-21 23:58:47.30	26.35	5.95	-42.6	-43.6	20.3	0.00e+00	0	40	0	150994944	57	3880
2026-01-21 23:58:48.31	26.46	6.00	-42.7	-43.7	20.1	0.00e+00	0	40	0	156237824	57	3950
2026-01-21 23:58:49.31	26.57	6.06	-42.7	-43.6	20.2	0.00e+00	0	40	0	162529280	57	3907
2026-01-21 23:58:50.32	26.68	6.11	-42.8	-43.8	20.1	0.00e+00	0	40	0	167772160	57	3968
2026-01-21 23:58:51.33	26.79	6.16	-42.6	-43.6	20.3	0.00e+00	0	40	0	173015040	57	3886
2026-01-21 23:58:52.34	26.90	6.22	-42.7	-43.6	20.2	0.00e+00	0	40	0	179306496	57	3911
2026-01-21 23:58:53.35	27.01	6.27	-42.4	-43.4	20.5	0.00e+00	0	40	0	184549376	56	4018
2026-01-21 23:58:54.36	27.12	6.33	-42.6	-43.5	20.4	0.00e+00	0	40	0	190840832	56	4087
2026-01-21 23:58:55.37	27.23	6.38	-42.5	-43.5	20.4	0.00e+00	0	40	0	196083712	56	4054
2026-01-21 23:58:56.38	27.34	6.43	-42.5	-43.5	20.4	0.00e+00	0	40	0	201326592	56	4064
2026-01-21 23:58:57.38	27.46	6.49	-42.6	-43.6	20.3	0.00e+00	0	40	0	207618048	56	4118
2026-01-21 23:58:58.39	27.57	6.54	-42.6	-43.6	20.3	0.00e+00	0	40	0	213909504	56	4131
2026-01-21 23:58:59.40	27.68	6.60	-42.7	-43.7	20.2	0.00e+00	0	40	0	219152384	56	4175
2026-01-21 23:59:00.41	27.80	6.65	-42.8	-43.8	20.2	0.00e+00	0	40	0	224395264	56	4196
2026-01-21 23:59:01.42	27.91	6.70	-42.7	-43.7	20.3	0.00e+00	0	40	0	230686720	56	4173
2026-01-21 23:59:02.43	28.02	6.76	-42.7	-43.7	20.3	0.00e+00	0	40	0	235929600	56	4148
2026-01-21 23:59:03.43	28.14	6.81	-42.6	-43.6	20.4	0.00e+00	0	40	0	241172480	56	4101
2026-01-21 23:59:04.44	28.25	6.87	-42.5	-43.5	20.5	0.00e+00	0	40	0	247463936	56	4056
2026-01-21 23:59:05.45	28.37	6.92	-42.6	-43.6	20.3	0.00e+00	0	40	0	252706816	56	4127
2026-01-21 23:59:06.46	28.48	6.97	-42.4	-43.3	20.6	0.00e+00	0	40	0	257949696	56	4002
2026-01-21 23:59:07.47	28.60	7.03	-42.4	-43.4	20.6	0.00e+00	0	40	0	264241152	56	4011
2026-01-21 23:59:08.47	28.72	7.08	-42.5	-43.4	20.6	0.00e+00	0	40	0	269484032	56	4024
2026-01-21 23:59:09.48	28.83	7.14	-42.3	-43.2	20.7	0.00e+00	0	40	0	275775488	56	3938
2026-01-21 23:59:10.49	28.95	7.19	-42.4	-43.3	20.6	0.00e+00	0	40	0	281018368	56	3990
2026-01-21 23:59:11.50	29.07	7.25	-42.3	-43.2	20.8	0.00e+00	0	40	0	287309824	56	3932
2026-01-21 23:59:12.51	29.19	7.30	-42.5	-43.5	20.6	0.00e+00	0	40	0	292552704	56	4052
2026-01-21 23:59:13.51	29.31	7.35	-42.4	-43.3	20.7	0.00e+00	0	40	0	298844160	56	3981
2026-01-21 23:59:14.52	29.43	7.41	-42.4	-43.3	20.7	0.00e+00	0	40	0	304087040	56	3995
2026-01-21 23:59:15.53	29.55	7.46	-42.3	-43.2	20.8	0.00e+00	0	40	0	309329920	56	3953
2026-01-21 23:59:16.54	29.67	7.52	-42.2	-43.1	20.9	0.00e+00	0	40	0	315621376	56	3902
2026-01-21 23:59:17.55	29.79	7.57	-42.1	-43.0	21.0	0.00e+00	0	40	0	320864256	56	3847
2026-01-21 23:59:18.55	29.91	7.62	-42.2	-43.1	20.9	0.00e+00	0	40	0	326107136	56	3901
2026-01-21 23:59:19.56	30.03	7.68	-42.3	-43.2	20.8	0.00e+00	0	40	0	332398592	56	3927
2026-01-21 23:59:20.57	30.15	7.73	-42.2	-43.2	20.9	0.00e+00	0	40	0	337641472	56	3917
2026-01-21 23:59:21.58	30.27	7.79	-42.1	-43.0	21.0	0.00e+00	0	40	0	343932928	56	3851
2026-01-21 23:59:22.59	30.40	7.84	-42.1	-43.0	21.1	0.00e+00	0	40	0	349175808	56	3830
2026-01-21 23:59:23.60	30.52	7.90	-42.0	-43.0	21.1	0.00e+00	0	40	0	355467264	56	3826
2026-01-21 23:59:24.60	30.64	7.95	-42.2	-43.1	20.9	0.00e+00	0	40	0	360710144	56	3911
2026-01-21 23:59:25.61	30.77	8.01	-42.3	-43.2	20.8	0.00e+00	0	40	0	365953024	56	3931
2026-01-21 23:59:26.62	30.89	8.06	-42.1	-43.0	21.0	0.00e+00	0	40	0	372244480	56	3867
2026-01-21 23:59:27.63	31.02	8.11	-42.1	-43.0	21.0	0.00e+00	0	40	0	377487360	56	3863
2026-01-21 23:59:28.63	31.14	8.17	-42.0	-42.9	21.1	0.00e+00	0	40	0	383778816	56	3821
2026-01-21 23:59:29.64	31.27	8.22	-42.0	-42.9	21.2	0.00e+00	0	40	0	389021696	56	3811
2026-01-21 23:59:30.65	31.39	8.28	-42.0	-42.9	21.2	0.00e+00	0	40	0	394264576	56	3815
2026-01-21 23:59:31.66	31.52	8.33	-42.0	-42.9	21.2	0.00e+00	0	40	0	400556032	56	3791
2026-01-21 23:59:32.67	31.65	8.39	-41.8	-42.6	21.3	0.00e+00	0	40	0	405798912	55	3913
2026-01-21 23:59:33.67	31.78	8.44	-41.6	-42.5	21.5	0.00e+00	0	40	0	411041792	55	3850
2026-01-21 23:59:34.68	31.90	8.50	-41.6	-42.5	21.5	0.00e+00	0	40	0	417333248	55	3850
2026-01-21 23:59:35.69	32.03	8.55	-41.5	-42.4	21.6	0.00e+00	0	40	0	423624704	55	3807
2026-01-21 23:59:36.70	32.16	8.60	-41.5	-42.3	21.7	0.00e+00	0	40	0	428867584	54	3996
2026-01-21 23:59:37.70	32.29	8.66	-41.4	-42.3	21.7	0.00e+00	0	40	0	434110464	54	3965
2026-01-21 23:59:38.71	32.42	8.71	-41.4	-42.3	21.7	0.00e+00	0	40	0	440401920	54	3972
2026-01-21 23:59:39.72	32.55	8.77	-41.4	-42.3	21.7	0.00e+00	0	40	0	445644800	54	3980
2026-01-21 23:59:40.73	32.68	8.82	-41.5	-42.3	21.7	0.00e+00	0	40	0	450887680	54	4001
2026-01-21 23:59:41.74	32.81	8.88	-41.5	-42.4	21.6	0.00e+00	0	40	0	457179136	54	4027
2026-01-21 23:59:42.74	32.94	8.93	-41.6	-42.5	21.5	0.00e+00	0	40	0	462422016	54	4074
2026-01-21 23:59:43.75	33.08	8.98	-41.7	-42.6	21.5	0.00e+00	0	40	0	468713472	54	4112
2026-01-21 23:59:44.76	33.21	9.04	-41.6	-42.5	21.6	0.00e+00	0	40	0	473956352	54	4055
2026-01-21 23:59:45.77	33.34	9.09	-41.7	-42.6	21.4	0.00e+00	0	40	0	479199232	54	4116
2026-01-21 23:59:46.77	33.48	9.15	-41.5	-42.4	21.6	0.00e+00	0	40	0	485490688	54	4033
2026-01-21 23:59:47.78	33.61	9.20	-41.6	-42.5	21.6	0.00e+00	0	40	0	491782144	54	4068
2026-01-21 23:59:48.79	33.75	9.26	-41.6	-42.5	21.5	0.00e+00	0	40	0	497025024	54	4082
2026-01-21 23:59:49.80	33.88	9.31	-41.9	-42.8	21.3	0.00e+00	0	40	0	502267904	54	4211
2026-01-21 23:59:50.81	34.02	9.36	-41.8	-42.7	21.4	0.00e+00	0	40	0	508559360	54	4151
2026-01-21 23:59:51.82	34.15	9.42	-41.6	-42.4	21.6	0.00e+00	0	40	0	513802240	54	4047
2026-01-21 23:59:52.83	34.29	9.47	-41.6	-42.5	21.6	0.00e+00	0	40	0	519045120	54	4063
2026-01-21 23:59:53.83	34.43	9.53	-41.5	-42.4	21.7	0.00e+00	0	40	0	525336576	54	4032
2026-01-21 23:59:54.84	34.56	9.58	-41.5	-42.4	21.7	0.00e+00	0	40	0	530579456	54	4025
2026-01-21 23:59:55.85	34.70	9.64	-41.6	-42.5	21.6	0.00e+00	0	40	0	535822336	54	4073
2026-01-21 23:59:56.86	34.84	9.69	-41.5	-42.4	21.7	0.00e+00	0	40	0	542113792	54	4036
2026-01-21 23:59:57.87	34.98	9.74	-41.4	-42.2	21.8	0.00e+00	0	40	0	547356672	54	3942
2026-01-21 23:59:58.88	35.12	9.80	-41.5	-42.3	21.7	0.00e+00	0	40	0	553648128	54	3997
2026-01-21 23:59:59.89	35.26	9.85	-41.4	-42.2	21.9	0.00e+00	0	40	0	558891008	54	3940
2026-01-22 00:00:00.90	35.40	9.91	-41.3	-42.1	22.0	0.00e+00	0	40	0	565182464	54	3891
2026-01-22 00:00:01.91	35.54	9.96	-41.3	-42.1	22.0	0.00e+00	0	40	0	570425344	54	3908
2026-01-22 00:00:02.91	35.68	10.01	-41.4	-42.2	21.9	0.00e+00	0	40	0	576716800	54	3941
2026-01-22 00:00:03.92	35.83	10.07	-41.5	-42.3	21.8	0.00e+00	0	40	0	581959680	54	3990
2026-01-22 00:00:04.93	35.97	10.12	-41.4	-42.3	21.8	0.00e+00	0	40	0	587202560	54	3982
2026-01-22 00:00:05.94	36.11	10.18	-41.3	-42.1	21.9	0.00e+00	0	40	0	593494016	54	3912
2026-01-22 00:00:06.95	36.26	10.23	-41.4	-42.2	21.9	0.00e+00	0	40	0	598736896	54	3942
2026-01-22 00:00:07.96	36.40	10.28	-41.4	-42.3	21.8	0.00e+00	0	40	0	603979776	54	3978
2026-01-22 00:00:08.97	36.55	10.34	-41.5	-42.4	21.7	0.00e+00	0	40	0	610271232	54	4010
2026-01-22 00:00:09.98	36.69	10.39	-41.2	-42.1	22.1	0.00e+00	0	40	0	615514112	54	3873
2026-01-22 00:00:10.98	36.84	10.44	-41.3	-42.1	22.1	0.00e+00	0	40	0	621805568	54	3883
2026-01-22 00:00:11.99	36.98	10.50	-41.0	-41.9	22.3	0.00e+00	0	40	0	627048448	54	3783
2026-01-22 00:00:13.00	37.13	10.55	-40.9	-41.7	22.4	0.00e+00	0	40	0	633339904	53	3940
2026-01-22 00:00:14.01	37.28	10.61	-41.0	-41.8	22.3	0.00e+00	0	40	0	638582784	53	3998
2026-01-22 00:00:15.02	37.43	10.66	-41.1	-41.9	22.2	0.00e+00	0	40	0	643825664	53	4043
2026-01-22 00:00:16.03	37.57	10.71	-41.1	-42.0	22.2	0.00e+00	0	40	0	650117120	53	4062
2026-01-22 00:00:17.03	37.72	10.77	-41.0	-41.8	22.3	0.00e+00	0	40	0	655360000	53	3990
2026-01-22 00:00:18.04	37.87	10.82	-41.1	-41.9	22.2	0.00e+00	0	40	0	661651456	53	4026
2026-01-22 00:00:19.05	38.02	10.87	-41.1	-41.9	22.2	0.00e+00	0	40	0	666894336	53	4051
2026-01-22 00:00:20.06	38.17	10.93	-41.0	-41.9	22.3	0.00e+00	0	40	0	672137216	53	4013
2026-01-22 00:00:21.07	38.32	10.98	-41.0	-41.8	22.3	0.00e+00	0	40	0	678428672	53	3991
2026-01-22 00:00:22.07	38.47	11.03	-40.9	-41.7	22.4	0.00e+00	0	40	0	683671552	53	3949
2026-01-22 00:00:23.08	38.63	11.09	-40.9	-41.8	22.4	0.00e+00	0	40	0	689963008	53	3964
2026-01-22 00:00:24.09	38.78	11.14	-41.0	-41.8	22.3	0.00e+00	0	40	0	695205888	53	3977
2026-01-22 00:00:25.10	38.93	11.19	-41.1	-41.9	22.2	0.00e+00	0	40	0	701497344	53	4021
2026-01-22 00:00:26.10	39.09	11.24	-41.0	-41.9	22.3	0.00e+00	0	40	0	706740224	53	4022
2026-01-22 00:00:27.11	39.24	11.30	-41.0	-41.8	22.4	0.00e+00	0	40	0	711983104	53	3973
2026-01-22 00:00:28.12	39.39	11.35	-41.1	-41.9	22.2	0.00e+00	0	40	0	718274560	53	4026
2026-01-22 00:00:29.13	39.55	11.40	-41.1	-41.9	22.2	0.00e+00	0	40	0	723517440	53	4041
2026-01-22 00:00:30.14	39.71	11.45	-41.1	-41.9	22.2	0.00e+00	0	40	0	728760320	53	4029
2026-01-22 00:00:31.15	39.86	11.51	-40.8	-41.6	22.5	0.00e+00	0	40	0	735051776	53	3900
2026-01-22 00:00:32.16	40.02	11.56	-40.8	-41.6	22.5	0.00e+00	0	40	0	740294656	53	3897
2026-01-22 00:00:33.17	40.18	11.61	-40.8	-41.6	22.5	0.00e+00	0	40	0	746586112	53	3892
2026-01-22 00:00:34.18	40.34	11.66	-40.7	-41.5	22.6	0.00e+00	0	40	0	751828992	53	3849
2026-01-22 00:00:35.19	40.49	11.72	-40.7	-41.5	22.6	0.00e+00	0	40	0	758120448	53	3855
2026-01-22 00:00:36.20	40.65	11.77	-40.7	-41.5	22.7	0.00e+00	0	40	0	763363328	53	3837
2026-01-22 00:00:37.21	40.81	11.82	-40.7	-41.5	22.6	0.00e+00	0	40	0	769654784	53	3849
2026-01-22 00:00:38.21	40.97	11.87	-40.8	-41.6	22.5	0.00e+00	0	40	0	774897664	53	3899
2026-01-22 00:00:39.22	41.13	11.92	-40.8	-41.6	22.6	0.00e+00	0	40	0	780140544	53	3874
2026-01-22 00:00:40.23	41.30	11.98	-40.9	-41.7	22.5	0.00e+00	0	40	0	786432000	53	3927
2026-01-22 00:00:41.24	41.46	12.03	-40.8	-41.6	22.5	0.00e+00	0	40	0	791674880	53	3906
2026-01-22 00:00:42.25	41.62	12.08	-40.8	-41.6	22.5	0.00e+00	0	40	0	796917760	53	3912
2026-01-22 00:00:43.25	41.78	12.13	-40.6	-41.4	22.7	0.00e+00	0	40	0	803209216	53	3824
2026-01-22 00:00:44.26	41.95	12.18	-40.6	-41.4	22.8	0.00e+00	0	40	0	808452096	53	3784
2026-01-22 00:00:45.27	42.11	12.23	-40.6	-41.4	22.7	0.00e+00	0	40	0	813694976	53	3817
2026-01-22 00:00:46.28	42.27	12.29	-40.7	-41.5	22.6	0.00e+00	0	40	0	819986432	53	3851
2026-01-22 00:00:47.28	42.44	12.34	-40.6	-41.4	22.8	0.00e+00	0	40	0	826277888	53	3804
2026-01-22 00:00:48.29	42.60	12.39	-40.6	-41.4	22.7	0.00e+00	0	40	0	831520768	53	3809
2026-01-22 00:00:49.30	42.77	12.44	-40.6	-41.4	22.7	0.00e+00	0	40	0	836763648	53	3814
2026-01-22 00:00:50.31	42.94	12.49	-40.6	-41.5	22.7	0.00e+00	0	40	0	843055104	53	3825
2026-01-22 00:00:51.32	43.11	12.54	-40.7	-41.5	22.7	0.00e+00	0	40	0	848297984	53	3836
2026-01-22 00:00:52.33	43.27	12.59	-40.6	-41.5	22.7	0.00e+00	0	40	0	854589440	53	3825
2026-01-22 00:00:53.34	43.44	12.64	-40.5	-41.3	22.9	0.00e+00	0	40	0	859832320	52	3976
2026-01-22 00:00:54.35	43.61	12.69	-40.6	-41.4	22.8	0.00e+00	0	41	0	865075200	52	4011
2026-01-22 00:00:55.36	43.78	12.74	-40.6	-41.4	22.8	0.00e+00	0	40	0	871366656	52	4031
2026-01-22 00:00:56.37	43.95	12.79	-40.5	-41.3	22.9	0.00e+00	0	41	0	876609536	52	3966
2026-01-22 00:00:57.38	44.12	12.84	-40.5	-41.3	22.8	0.00e+00	0	40	0	881852416	52	3991
2026-01-22 00:00:58.39	44.29	12.89	-40.4	-41.2	22.9	0.00e+00	0	40	0	888143872	52	3952
2026-01-22 00:00:59.40	44.47	12.94	-40.5	-41.3	22.8	0.00e+00	0	40	0	894435328	52	3999
2026-01-22 00:01:00.40	44.64	12.99	-40.5	-41.3	22.8	0.00e+00	0	40	0	899678208	52	3984
2026-01-22 00:01:01.41	44.81	13.04	-40.4	-41.2	22.9	0.00e+00	0	40	0	904921088	52	3941
2026-01-22 00:01:02.42	44.99	13.09	-40.4	-41.2	23.0	0.00e+00	0	40	0	911212544	52	3942
2026-01-22 00:01:03.43	45.16	13.14	-40.4	-41.2	23.0	0.00e+00	0	40	0	916455424	52	3920
2026-01-22 00:01:04.44	45.33	13.19	-40.4	-41.2	22.9	0.00e+00	0	40	0	921698304	52	3944
2026-01-22 00:01:05.45	45.51	13.24	-40.4	-41.2	22.9	0.00e+00	0	40	0	927989760	52	3948
2026-01-22 00:01:06.46	45.69	13.28	-40.4	-41.2	23.0	0.00e+00	0	40	0	933232640	52	3918
2026-01-22 00:01:07.47	45.86	13.33	-40.3	-41.1	23.1	0.00e+00	0	40	0	939524096	52	3882
2026-01-22 00:01:08.48	46.04	13.38	-40.4	-41.2	23.0	0.00e+00	0	40	0	944766976	52	3919
2026-01-22 00:01:09.48	46.22	13.43	-40.3	-41.1	23.1	0.00e+00	0	40	0	951058432	52	3880
2026-01-22 00:01:10.50	46.40	13.48	-40.3	-41.1	23.1	0.00e+00	0	40	0	956301312	52	3885
2026-01-22 00:01:11.50	46.57	13.53	-40.4	-41.2	23.0	0.00e+00	0	40	0	962592768	52	3915
2026-01-22 00:01:12.51	46.75	13.57	-40.1	-40.9	23.2	0.00e+00	0	40	0	967835648	52	3810
2026-01-22 00:01:13.52	46.93	13.62	-40.1	-40.8	23.3	0.00e+00	0	41	0	973078528	52	3773
2026-01-22 00:01:14.53	47.11	13.67	-40.1	-40.8	23.3	0.00e+00	0	40	0	979369984	52	3777
2026-01-22 00:01:15.53	47.29	13.72	-40.0	-40.8	23.4	0.00e+00	0	40	0	984612864	52	3747
2026-01-22 00:01:16.54	47.47	13.76	-40.1	-40.8	23.3	0.00e+00	0	40	0	989855744	52	3771
2026-01-22 00:01:17.55	47.66	13.81	-40.1	-40.9	23.3	0.00e+00	0	40	0	996147200	52	3788
2026-01-22 00:01:18.56	47.84	13.86	-40.0	-40.8	23.4	0.00e+00	0	40	0	1001390080	52	3741
2026-01-22 00:01:19.57	48.02	13.90	-40.1	-40.9	23.4	0.00e+00	0	40	0	1006632960	51	4020
2026-01-22 00:01:20.58	48.21	13.95	-40.2	-41.0	23.3	0.00e+00	0	40	0	1012924416	51	4060
2026-01-22 00:01:21.59	48.39	14.00	-40.2	-41.0	23.3	0.00e+00	0	40	0	1019215872	51	4071
2026-01-22 00:01:22.60	48.58	14.04	-40.3	-41.1	23.2	0.00e+00	0	40	0	1024458752	51	4114
2026-01-22 00:01:23.60	48.76	14.09	-40.4	-41.2	23.1	0.00e+00	0	40	0	1029701632	51	4175
2026-01-22 00:01:24.61	48.95	14.13	-40.3	-41.1	23.2	0.00e+00	0	40	0	1035993088	51	4099
2026-01-22 00:01:25.62	49.13	14.18	-40.3	-41.1	23.2	0.00e+00	0	40	0	1041235968	51	4123
2026-01-22 00:01:26.63	49.32	14.23	-40.2	-40.9	23.3	0.00e+00	0	40	0	1047527424	51	4041
2026-01-22 00:01:27.64	49.51	14.27	-40.1	-40.8	23.4	0.00e+00	0	40	0	1052770304	51	3983
2026-01-22 00:01:28.65	49.70	14.32	-40.1	-40.9	23.4	0.00e+00	0	40	0	1058013184	51	4023
2026-01-22 00:01:29.66	49.89	14.36	-40.2	-41.0	23.3	0.00e+00	0	40	0	1064304640	51	4056
2026-01-22 00:01:30.67	50.08	14.41	-40.0	-40.8	23.4	0.00e+00	0	40	0	1069547520	51	3982
2026-01-22 00:01:31.68	50.27	14.45	-40.0	-40.7	23.5	0.00e+00	0	40	0	1074790400	51	3957
2026-01-22 00:01:32.69	50.46	14.49	-40.1	-40.9	23.4	0.00e+00	0	40	0	1081081856	51	4019
2026-01-22 00:01:33.70	50.65	14.54	-40.1	-40.9	23.4	0.00e+00	0	40	0	1087373312	51	4020
2026-01-22 00:01:34.70	50.84	14.58	-40.3	-41.1	23.2	0.00e+00	0	40	0	1092616192	51	4105
2026-01-22 00:01:35.71	51.03	14.62	-40.3	-41.0	23.2	0.00e+00	0	40	0	1097859072	51	4091
2026-01-22 00:01:36.72	51.22	14.67	-40.2	-41.0	23.3	0.00e+00	0	40	0	1104150528	51	4084
2026-01-22 00:01:37.73	51.42	14.71	-40.3	-41.1	23.2	0.00e+00	0	40	0	1109393408	51	4102
2026-01-22 00:01:38.74	51.61	14.75	-40.2	-41.0	23.3	0.00e+00	0	41	0	1114636288	51	4066
2026-01-22 00:01:39.75	51.81	14.80	-40.2	-41.0	23.3	0.00e+00	0	40	0	1120927744	51	4084
2026-01-22 00:01:40.75	52.00	14.84	-40.2	-41.0	23.3	0.00e+00	0	40	0	1126170624	51	4061
2026-01-22 00:01:41.76	52.19	14.88	-40.0	-40.8	23.4	0.00e+00	0	40	0	1132462080	51	3980
2026-01-22 00:01:42.77	52.39	14.92	-39.9	-40.6	23.6	0.00e+00	0	40	0	1137704960	51	3908
2026-01-22 00:01:43.78	52.59	14.96	-39.8	-40.6	23.7	0.00e+00	0	40	0	1143996416	51	3879
2026-01-22 00:01:44.79	52.78	15.01	-39.9	-40.6	23.6	0.00e+00	0	40	0	1149239296	51	3913
2026-01-22 00:01:45.80	52.98	15.05	-40.0	-40.7	23.5	0.00e+00	0	40	0	1155530752	51	3939
2026-01-22 00:01:46.81	53.18	15.09	-39.9	-40.6	23.6	0.00e+00	0	41	0	1160773632	51	3913
2026-01-22 00:01:47.81	53.38	15.13	-39.9	-40.7	23.6	0.00e+00	0	40	0	1166016512	51	3932
2026-01-22 00:01:48.82	53.58	15.17	-40.1	-40.8	23.4	0.00e+00	0	40	0	1172307968	51	3999
2026-01-22 00:01:49.83	53.78	15.21	-40.0	-40.7	23.5	0.00e+00	0	41	0	1177550848	51	3958
2026-01-22 00:01:50.84	53.98	15.25	-39.9	-40.7	23.6	0.00e+00	0	40	0	1182793728	51	3922
2026-01-22 00:01:51.85	54.18	15.29	-39.9	-40.7	23.6	0.00e+00	0	40	0	1189085184	51	3916
2026-01-22 00:01:52.85	54.38	15.33	-39.9	-40.6	23.6	0.00e+00	0	40	0	1194328064	51	3909
2026-01-22 00:01:53.86	54.58	15.37	-39.7	-40.5	23.8	0.00e+00	0	41	0	1199570944	51	3835
2026-01-22 00:01:54.87	54.78	15.41	-39.8	-40.5	23.8	0.00e+00	0	41	0	1205862400	51	3849
2026-01-22 00:01:55.88	54.98	15.45	-39.8	-40.5	23.8	0.00e+00	0	41	0	1211105280	51	3850
2026-01-22 00:01:56.88	55.19	15.48	-39.7	-40.5	23.8	0.00e+00	0	41	0	1217396736	51	3825
2026-01-22 00:01:57.89	55.39	15.52	-39.8	-40.5	23.7	0.00e+00	0	40	0	1222639616	51	3849
2026-01-22 00:01:58.90	55.59	15.56	-39.8	-40.6	23.6	0.00e+00	0	40	0	1228931072	51	3890
2026-01-22 00:01:59.91	55.80	15.60	-39.7	-40.4	23.8	0.00e+00	0	40	0	1234173952	51	3820
2026-01-22 00:02:00.92	56.00	15.63	-39.6	-40.3	23.9	0.00e+00	0	40	0	1240465408	51	3779
2026-01-22 00:02:01.92	56.21	15.67	-39.6	-40.3	23.9	0.00e+00	0	41	0	1245708288	51	3780
2026-01-22 00:02:02.93	56.42	15.71	-39.7	-40.4	23.8	0.00e+00	0	40	0	1250951168	51	3818
2026-01-22 00:02:03.94	56.62	15.74	-39.6	-40.4	23.9	0.00e+00	0	40	0	1257242624	51	3790
2026-01-22 00:02:04.95	56.83	15.78	-39.7	-40.4	23.8	0.00e+00	0	41	0	1262485504	51	3823
2026-01-22 00:02:05.96	57.04	15.82	-39.8	-40.6	23.7	0.00e+00	0	41	0	1267728384	51	3872
2026-01-22 00:02:06.97	57.25	15.85	-39.7	-40.5	23.8	0.00e+00	0	41	0	1274019840	51	3839
2026-01-22 00:02:07.98	57.46	15.89	-39.8	-40.6	23.7	0.00e+00	0	40	0	1279262720	51	3882
2026-01-22 00:02:08.98	57.66	15.92	-39.7	-40.5	23.8	0.00e+00	0	40	0	1285554176	51	3827
2026-01-22 00:02:09.99	57.87	15.96	-39.7	-40.4	23.8	0.00e+00	0	40	0	1290797056	51	3814
2026-01-22 00:02:11.00	58.08	15.99	-39.6	-40.4	23.9	0.00e+00	0	41	0	1297088512	51	3791
2026-01-22 00:02:12.01	58.29	16.02	-39.7	-40.5	23.8	0.00e+00	0	40	0	1302331392	51	3836
2026-01-22 00:02:13.02	58.51	16.06	-39.8	-40.5	23.7	0.00e+00	0	40	0	1307574272	51	3858
2026-01-22 00:02:14.02	58.71	16.09	-39.7	-40.5	23.8	0.00e+00	0	40	0	1313865728	51	3827
2026-01-22 00:02:15.03	58.93	16.12	-39.8	-40.5	23.7	0.00e+00	0	40	0	1319108608	51	3855
2026-01-22 00:02:16.04	59.14	16.16	-39.9	-40.6	23.6	0.00e+00	0	41	0	1325400064	51	3913
2026-01-22 00:02:17.05	59.35	16.19	-39.9	-40.7	23.6	0.00e+00	0	41	0	1330642944	51	3915
2026-01-22 00:02:18.06	59.57	16.22	-39.8	-40.6	23.7	0.00e+00	0	40	0	1335885824	51	3900
2026-01-22 00:02:19.06	59.78	16.25	-39.9	-40.6	23.6	0.00e+00	0	40	0	1342177280	51	3912
2026-01-22 00:02:20.07	59.99	16.28	-39.8	-40.6	23.7	0.00e+00	0	40	0	1347420160	51	3874
2026-01-22 00:02:21.08	60.21	16.31	-39.9	-40.7	23.6	0.00e+00	0	40	0	1353711616	51	3921
2026-01-22 00:02:22.09	60.42	16.34	-39.7	-40.5	23.8	0.00e+00	0	41	0	1358954496	51	3826
2026-01-22 00:02:23.09	60.64	16.37	-39.8	-40.6	23.7	0.00e+00	0	40	0	1365245952	51	3884
2026-01-22 00:02:24.10	60.85	16.40	-39.8	-40.5	23.8	0.00e+00	0	40	0	1370488832	51	3855
2026-01-22 00:02:25.11	61.07	16.43	-39.8	-40.6	23.7	0.00e+00	0	40	0	1375731712	51	3870
2026-01-22 00:02:26.12	61.29	16.46	-39.8	-40.5	23.8	0.00e+00	0	40	0	1382023168	51	3855
2026-01-22 00:02:27.13	61.50	16.49	-39.8	-40.5	23.8	0.00e+00	0	40	0	1387266048	51	3857
2026-01-22 00:02:28.14	61.72	16.52	-39.8	-40.6	23.7	0.00e+00	0	40	0	1392508928	51	3870
2026-01-22 00:02:29.14	61.94	16.55	-39.8	-40.6	23.7	0.00e+00	0	40	0	1398800384	51	3899
2026-01-22 00:02:30.15	62.16	16.58	-39.7	-40.5	23.8	0.00e+00	0	40	0	1404043264	51	3826
2026-01-22 00:02:31.16	62.38	16.60	-39.7	-40.4	23.8	0.00e+00	0	40	0	1410334720	51	3822
2026-01-22 00:02:32.17	62.60	16.63	-39.6	-40.4	23.9	0.00e+00	0	40	0	1415577600	51	3796
2026-01-22 00:02:33.18	62.82	16.66	-39.6	-40.4	23.8	0.00e+00	0	40	0	1421869056	51	3809
2026-01-22 00:02:34.19	63.04	16.68	-39.6	-40.4	23.9	0.00e+00	0	41	0	1427111936	51	3794
2026-01-22 00:02:35.20	63.26	16.71	-39.7	-40.5	23.8	0.00e+00	0	41	0	1433403392	51	3835
2026-01-22 00:02:36.21	63.48	16.74	-39.5	-40.3	24.0	0.00e+00	0	40	0	1438646272	51	3740
2026-01-22 00:02:37.22	63.70	16.76	-39.4	-40.1	24.1	0.00e+00	0	40	0	1443889152	50	3881
2026-01-22 00:02:38.22	63.92	16.79	-39.4	-40.2	24.1	0.00e+00	0	40	0	1450180608	50	3928
2026-01-22 00:02:39.23	64.14	16.81	-39.5	-40.3	24.0	0.00e+00	0	41	0	1455423488	50	3970
2026-01-22 00:02:40.24	64.36	16.83	-39.7	-40.4	23.9	0.00e+00	0	41	0	1460666368	50	4034
2026-01-22 00:02:41.25	64.59	16.86	-39.8	-40.5	23.8	0.00e+00	0	40	0	1466957824	50	4081
2026-01-22 00:02:42.25	64.81	16.88	-39.8	-40.6	23.7	0.00e+00	0	40	0	1472200704	50	4128
2026-01-22 00:02:43.26	65.03	16.90	-39.9	-40.6	23.7	0.00e+00	0	40	0	1477443584	50	4141
2026-01-22 00:02:44.27	65.25	16.93	-39.8	-40.5	23.8	0.00e+00	0	40	0	1483735040	50	4074
2026-01-22 00:02:45.28	65.48	16.95	-39.6	-40.3	23.9	0.00e+00	0	40	0	1490026496	50	3992
2026-01-22 00:02:46.28	65.70	16.97	-39.7	-40.4	23.9	0.00e+00	0	40	0	1495269376	50	4029
2026-01-22 00:02:47.29	65.92	16.99	-39.7	-40.5	23.8	0.00e+00	0	40	0	1500512256	50	4060
2026-01-22 00:02:48.30	66.15	17.01	-39.6	-40.3	24.0	0.00e+00	0	40	0	1506803712	50	3989
2026-01-22 00:02:49.31	66.38	17.03	-39.6	-40.3	24.0	0.00e+00	0	40	0	1512046592	50	3988
2026-01-22 00:02:50.32	66.60	17.05	-39.5	-40.2	24.0	0.00e+00	0	40	0	1518338048	50	3954
2026-01-22 00:02:51.32	66.82	17.07	-39.5	-40.2	24.0	0.00e+00	0	40	0	1523580928	50	3946
2026-01-22 00:02:52.33	67.05	17.09	-39.4	-40.1	24.1	0.00e+00	0	40	0	1528823808	50	3902
2026-01-22 00:02:53.34	67.28	17.11	-39.4	-40.1	24.2	0.00e+00	0	41	0	1535115264	50	3881
2026-01-22 00:02:54.35	67.50	17.13	-39.4	-40.2	24.1	0.00e+00	0	40	0	1540358144	50	3925
2026-01-22 00:02:55.36	67.73	17.15	-39.5	-40.2	24.0	0.00e+00	0	41	0	1545601024	50	3947
2026-01-22 00:02:56.36	67.96	17.17	-39.4	-40.1	24.2	0.00e+00	0	40	0	1551892480	50	3905
2026-01-22 00:02:57.37	68.18	17.18	-39.3	-40.1	24.2	0.00e+00	0	40	0	1557135360	50	3874
2026-01-22 00:02:58.38	68.41	17.20	-39.4	-40.1	24.1	0.00e+00	0	40	0	1563426816	50	3900
2026-01-22 00:02:59.39	68.64	17.22	-39.5	-40.2	24.0	0.00e+00	0	41	0	1568669696	50	3953
2026-01-22 00:03:00.40	68.87	17.23	-39.6	-40.4	23.9	0.00e+00	0	40	0	1574961152	50	4024
2026-01-22 00:03:01.40	69.09	17.25	-39.6	-40.3	24.0	0.00e+00	0	40	0	1580204032	50	3991
2026-01-22 00:03:02.41	69.32	17.26	-39.6	-40.4	23.9	0.00e+00	0	40	0	1585446912	50	4013
2026-01-22 00:03:03.42	69.55	17.28	-39.4	-40.1	24.1	0.00e+00	0	40	0	1591738368	50	3909
2026-01-22 00:03:04.43	69.78	17.29	-39.3	-40.1	24.2	0.00e+00	0	40	0	1596981248	50	3885
2026-01-22 00:03:05.43	70.01	17.31	-39.5	-40.2	24.1	0.00e+00	0	41	0	1603272704	50	3931
2026-01-22 00:03:06.44	70.24	17.32	-39.4	-40.1	24.2	0.00e+00	0	41	0	1608515584	50	3889
2026-01-22 00:03:07.45	70.47	17.33	-39.4	-40.1	24.1	0.00e+00	0	40	0	1613758464	50	3913
2026-01-22 00:03:08.46	70.70	17.35	-39.4	-40.1	24.1	0.00e+00	0	40	0	1620049920	50	3903
2026-01-22 00:03:09.46	70.93	17.36	-39.4	-40.2	24.1	0.00e+00	0	40	0	1625292800	50	3935
2026-01-22 00:03:10.47	71.16	17.37	-39.5	-40.2	24.1	0.00e+00	0	40	0	1630535680	50	3938
2026-01-22 00:03:11.48	71.39	17.38	-39.4	-40.1	24.1	0.00e+00	0	41	0	1636827136	50	3895
2026-01-22 00:03:12.49	71.62	17.39	-39.4	-40.1	24.1	0.00e+00	0	40	0	1643118592	50	3907
2026-01-22 00:03:13.49	71.85	17.40	-39.3	-40.1	24.2	0.00e+00	0	40	0	1648361472	50	3873
2026-01-22 00:03:14.50	72.08	17.41	-39.5	-40.2	24.0	0.00e+00	0	40	0	1653604352	50	3954
2026-01-22 00:03:15.51	72.31	17.42	-39.5	-40.3	24.0	0.00e+00	0	40	0	1659895808	50	3964
2026-01-22 00:03:16.52	72.54	17.43	-39.5	-40.3	24.0	0.00e+00	0	40	0	1665138688	50	3966
2026-01-22 00:03:17.53	72.77	17.44	-39.5	-40.3	24.0	0.00e+00	0	41	0	1670381568	50	3965
2026-01-22 00:03:18.53	73.00	17.45	-39.5	-40.3	24.0	0.00e+00	0	40	0	1676673024	50	3960
2026-01-22 00:03:19.54	73.23	17.45	-39.5	-40.2	24.1	0.00e+00	0	40	0	1681915904	50	3929
2026-01-22 00:03:20.55	73.47	17.46	-39.5	-40.2	24.1	0.00e+00	0	41	0	1688207360	50	3944
2026-01-22 00:03:21.56	73.70	17.47	-39.5	-40.3	24.0	0.00e+00	0	40	0	1693450240	50	3970
2026-01-22 00:03:22.57	73.93	17.48	-39.4	-40.1	24.1	0.00e+00	0	40	0	1698693120	50	3894
2026-01-22 00:03:23.58	74.16	17.48	-39.4	-40.1	24.1	0.00e+00	0	41	0	1704984576	50	3889
2026-01-22 00:03:24.58	74.39	17.49	-39.4	-40.1	24.1	0.00e+00	0	41	0	1711276032	50	3912
2026-01-22 00:03:25.59	74.62	17.49	-39.5	-40.2	24.0	0.00e+00	0	40	0	1716518912	50	3950
2026-01-22 00:03:26.60	74.86	17.50	-39.6	-40.3	23.9	0.00e+00	0	40	0	1721761792	50	3997
2026-01-22 00:03:27.61	75.09	17.50	-39.6	-40.3	23.9	0.00e+00	0	40	0	1728053248	50	3984
2026-01-22 00:03:28.62	75.32	17.50	-39.6	-40.4	23.9	0.00e+00	0	40	0	1733296128	50	4008
2026-01-22 00:03:29.63	75.56	17.51	-39.5	-40.2	24.0	0.00e+00	0	40	0	1738539008	50	3951
2026-01-22 00:03:30.63	75.79	17.51	-39.5	-40.2	24.0	0.00e+00	0	41	0	1744830464	50	3942
2026-01-22 00:03:31.64	76.02	17.51	-39.5	-40.3	24.0	0.00e+00	0	41	0	1750073344	50	3961
2026-01-22 00:03:32.65	76.25	17.52	-39.5	-40.2	24.0	0.00e+00	0	40	0	1755316224	50	3952
2026-01-22 00:03:33.66	76.48	17.52	-39.5	-40.3	24.0	0.00e+00	0	40	0	1761607680	50	3981
2026-01-22 00:03:34.67	76.72	17.52	-39.6	-40.3	23.9	0.00e+00	0	40	0	1766850560	50	3995
2026-01-22 00:03:35.68	76.95	17.52	-39.6	-40.3	23.9	0.00e+00	0	41	0	1773142016	50	4001
2026-01-22 00:03:36.68	77.18	17.52	-39.7	-40.5	23.8	0.00e+00	0	41	0	1778384896	50	4072
2026-01-22 00:03:37.69	77.41	17.52	-39.7	-40.5	23.8	0.00e+00	0	40	0	1784676352	50	4059
2026-01-22 00:03:38.70	77.65	17.52	-39.6	-40.4	23.9	0.00e+00	0	41	0	1789919232	50	4017
2026-01-22 00:03:39.70	77.88	17.52	-39.7	-40.4	23.8	0.00e+00	0	40	0	1796210688	50	4039
2026-01-22 00:03:40.71	78.11	17.51	-39.7	-40.4	23.9	0.00e+00	0	40	0	1801453568	50	4026
2026-01-22 00:03:41.72	78.34	17.51	-39.7	-40.4	23.8	0.00e+00	0	40	0	1806696448	50	4036
2026-01-22 00:03:42.73	78.58	17.51	-39.6	-40.4	23.9	0.00e+00	0	40	0	1812987904	50	4021
2026-01-22 00:03:43.74	78.81	17.51	-39.7	-40.4	23.8	0.00e+00	0	40	0	1818230784	50	4049
2026-01-22 00:03:44.75	79.04	17.50	-39.7	-40.5	23.8	0.00e+00	0	40	0	1823473664	50	4055
2026-01-22 00:03:45.75	79.27	17.50	-39.6	-40.3	23.9	0.00e+00	0	41	0	1829765120	50	3997
2026-01-22 00:03:46.76	79.50	17.49	-39.5	-40.3	23.9	0.00e+00	0	41	0	1835008000	50	3981
2026-01-22 00:03:47.77	79.74	17.49	-39.6	-40.3	23.9	0.00e+00	0	40	0	1840250880	50	3983
2026-01-22 00:03:48.78	79.97	17.48	-39.6	-40.4	23.9	0.00e+00	0	41	0	1846542336	50	4007
2026-01-22 00:03:49.79	80.20	17.48	-39.4	-40.1	24.1	0.00e+00	0	40	0	1852833792	50	3912
2026-01-22 00:03:50.80	80.43	17.47	-39.4	-40.1	24.1	0.00e+00	0	40	0	1858076672	50	3897
2026-01-22 00:03:51.81	80.67	17.47	-39.5	-40.3	24.0	0.00e+00	0	40	0	1863319552	50	3962
2026-01-22 00:03:52.82	80.90	17.46	-39.6	-40.4	23.9	0.00e+00	0	40	0	1869611008	50	4009
2026-01-22 00:03:53.83	81.13	17.45	-39.4	-40.2	24.1	0.00e+00	0	41	0	1874853888	50	3918
2026-01-22 00:03:54.83	81.36	17.44	-39.5	-40.2	24.0	0.00e+00	0	40	0	1881145344	50	3957
2026-01-22 00:03:55.84	81.59	17.44	-39.5	-40.3	24.0	0.00e+00	0	40	0	1886388224	50	3964
2026-01-22 00:03:56.85	81.82	17.43	-39.6	-40.3	23.9	0.00e+00	0	41	0	1891631104	50	3989
2026-01-22 00:03:57.86	82.05	17.42	-39.6	-40.3	23.9	0.00e+00	0	41	0	1897922560	50	4000
2026-01-22 00:03:58.87	82.29	17.41	-39.5	-40.3	24.0	0.00e+00	0	41	0	1903165440	50	3964
2026-01-22 00:03:59.88	82.52	17.40	-39.6	-40.4	23.9	0.00e+00	0	40	0	1908408320	50	4010
2026-01-22 00:04:00.88	82.75	17.39	-39.6	-40.4	23.9	0.00e+00	0	40	0	1914699776	50	4018
2026-01-22 00:04:01.89	82.98	17.38	-39.8	-40.5	23.7	0.00e+00	0	41	0	1920991232	50	4080
2026-01-22 00:04:02.90	83.21	17.36	-39.8	-40.5	23.7	0.00e+00	0	40	0	1926234112	50	4078
2026-01-22 00:04:03.91	83.44	17.35	-39.8	-40.6	23.7	0.00e+00	0	41	0	1931476992	50	4107
2026-01-22 00:04:04.91	83.67	17.34	-39.7	-40.5	23.8	0.00e+00	0	40	0	1937768448	50	4074
2026-01-22 00:04:05.92	83.90	17.33	-39.7	-40.5	23.8	0.00e+00	0	41	0	1943011328	50	4069
2026-01-22 00:04:06.93	84.13	17.31	-39.8	-40.6	23.7	0.00e+00	0	40	0	1948254208	50	4109
2026-01-22 00:04:07.94	84.36	17.30	-39.7	-40.5	23.8	0.00e+00	0	41	0	1954545664	50	4068
2026-01-22 00:04:08.95	84.59	17.29	-39.7	-40.5	23.7	0.00e+00	0	40	0	1959788544	50	4061
2026-01-22 00:04:09.95	84.81	17.27	-39.9	-40.6	23.6	0.00e+00	0	40	0	1966080000	50	4133
2026-01-22 00:04:10.96	85.04	17.26	-39.9	-40.6	23.6	0.00e+00	0	40	0	1971322880	50	4136
2026-01-22 00:04:11.97	85.27	17.24	-39.9	-40.7	23.5	0.00e+00	0	41	0	1976565760	50	4183
2026-01-22 00:04:12.98	85.50	17.23	-40.0	-40.8	23.4	0.00e+00	0	40	0	1982857216	50	4242
2026-01-22 00:04:13.99	85.73	17.21	-40.0	-40.8	23.4	0.00e+00	0	40	0	1989148672	50	4221
2026-01-22 00:04:14.99	85.96	17.19	-39.9	-40.7	23.5	0.00e+00	0	40	0	1994391552	50	4175
2026-01-22 00:04:16.00	86.18	17.18	-40.0	-40.7	23.5	0.00e+00	0	40	0	1999634432	50	4188
2026-01-22 00:04:17.01	86.41	17.16	-39.9	-40.7	23.5	0.00e+00	0	40	0	2005925888	50	4168
2026-01-22 00:04:18.02	86.64	17.14	-39.9	-40.7	23.6	0.00e+00	0	40	0	2011168768	50	4161
2026-01-22 00:04:19.03	86.87	17.12	-39.7	-40.5	23.8	0.00e+00	0	40	0	2016411648	50	4054
2026-01-22 00:04:20.03	87.09	17.10	-39.7	-40.5	23.7	0.00e+00	0	40	0	2022703104	50	4077
2026-01-22 00:04:21.04	87.32	17.08	-39.8	-40.6	23.6	0.00e+00	0	40	0	2027945984	50	4123
2026-01-22 00:04:22.05	87.54	17.06	-39.8	-40.6	23.7	0.00e+00	0	41	0	2033188864	50	4106
2026-01-22 00:04:23.06	87.77	17.04	-39.7	-40.5	23.7	0.00e+00	0	41	0	2039480320	50	4070
2026-01-22 00:04:24.07	88.00	17.02	-39.7	-40.5	23.8	0.00e+00	0	41	0	2044723200	50	4057
2026-01-22 00:04:25.08	88.22	17.00	-39.7	-40.4	23.8	0.00e+00	0	40	0	2051014656	50	4036
2026-01-22 00:04:26.09	88.45	16.98	-39.7	-40.5	23.7	0.00e+00	0	40	0	2056257536	50	4062
2026-01-22 00:04:27.09	88.67	16.96	-39.8	-40.6	23.7	0.00e+00	0	41	0	2062548992	50	4112
2026-01-22 00:04:28.10	88.89	16.94	-39.8	-40.6	23.6	0.00e+00	0	41	0	2067791872	50	4111
2026-01-22 00:04:29.11	89.12	16.92	-40.0	-40.7	23.5	0.00e+00	0	40	0	2074083328	50	4187
2026-01-22 00:04:30.12	89.34	16.89	-40.0	-40.8	23.5	0.00e+00	0	40	0	2079326208	50	4194
2026-01-22 00:04:31.13	89.57	16.87	-40.0	-40.7	23.5	0.00e+00	0	41	0	2084569088	50	4187
2026-01-22 00:04:32.13	89.79	16.85	-40.0	-40.8	23.4	0.00e+00	0	40	0	2090860544	50	4209
2026-01-22 00:04:33.14	90.01	16.82	-39.9	-40.7	23.5	0.00e+00	0	40	0	2096103424	50	4175
2026-01-22 00:04:34.15	90.23	16.80	-40.0	-40.7	23.5	0.00e+00	0	41	0	2101346304	50	4193
2026-01-22 00:04:35.16	90.46	16.77	-39.9	-40.6	23.6	0.00e+00	0	40	0	2107637760	50	4144
2026-01-22 00:04:36.17	90.68	16.75	-39.8	-40.6	23.6	0.00e+00	0	40	0	2112880640	50	4124
2026-01-22 00:04:37.17	90.90	16.72	-39.9	-40.6	23.6	0.00e+00	0	40	0	2118123520	50	4145
2026-01-22 00:04:38.18	91.12	16.70	-39.9	-40.7	23.5	0.00e+00	0	40	0	2124414976	50	4164
2026-01-22 00:04:39.19	91.34	16.67	-39.8	-40.6	23.6	0.00e+00	0	41	0	2130706432	50	4117
2026-01-22 00:04:40.20	91.56	16.64	-39.9	-40.7	23.5	0.00e+00	0	41	0	2135949312	50	4155
2026-01-22 00:04:41.21	91.78	16.62	-39.8	-40.6	23.6	0.00e+00	0	40	0	2141192192	50	4103
2026-01-22 00:04:42.21	92.00	16.59	-39.8	-40.5	23.6	0.00e+00	0	41	0	2147483648	50	4090
2026-01-22 00:04:43.22	92.22	16.56	-39.9	-40.6	23.6	0.00e+00	0	40	0	2152726528	50	4120
2026-01-22 00:04:44.23	92.44	16.53	-39.9	-40.6	23.6	0.00e+00	0	41	0	2159017984	50	4129
2026-01-22 00:04:45.24	92.65	16.51	-39.9	-40.7	23.5	0.00e+00	0	41	0	2164260864	50	4163
2026-01-22 00:04:46.25	92.87	16.48	-39.9	-40.7	23.5	0.00e+00	0	40	0	2169503744	50	4177
2026-01-22 00:04:47.25	93.09	16.45	-39.9	-40.7	23.5	0.00e+00	0	40	0	2175795200	50	4173
2026-01-22 00:04:48.26	93.31	16.42	-40.0	-40.8	23.4	0.00e+00	0	40	0	2181038080	50	4196
2026-01-22 00:04:49.27	93.52	16.39	-39.9	-40.7	23.5	0.00e+00	0	40	0	2186280960	50	4165
2026-01-22 00:04:50.28	93.74	16.36	-39.9	-40.7	23.5	0.00e+00	0	41	0	2192572416	50	4159
2026-01-22 00:04:51.29	93.96	16.33	-40.0	-40.7	23.4	0.00e+00	0	41	0	2198863872	50	4189
2026-01-22 00:04:52.30	94.17	16.30	-39.9	-40.6	23.6	0.00e+00	0	41	0	2204106752	50	4138
2026-01-22 00:04:53.30	94.38	16.27	-39.8	-40.6	23.6	0.00e+00	0	40	0	2209349632	50	4120
2026-01-22 00:04:54.31	94.60	16.23	-39.9	-40.6	23.5	0.00e+00	0	40	0	2215641088	50	4145
2026-01-22 00:04:55.32	94.81	16.20	-39.9	-40.7	23.5	0.00e+00	0	40	0	2220883968	50	4152
2026-01-22 00:04:56.33	95.03	16.17	-40.0	-40.8	23.4	0.00e+00	0	40	0	2226126848	50	4199
2026-01-22 00:04:57.33	95.24	16.14	-40.0	-40.8	23.4	0.00e+00	0	41	0	2232418304	50	4214
2026-01-22 00:04:58.34	95.45	16.11	-40.0	-40.7	23.4	0.00e+00	0	40	0	2237661184	50	4188
2026-01-22 00:04:59.35	95.66	16.07	-40.1	-40.9	23.3	0.00e+00	0	40	0	2243952640	50	4266
2026-01-22 00:05:00.36	95.88	16.04	-40.2	-40.9	23.3	0.00e+00	0	41	0	2249195520	50	4290
2026-01-22 00:05:01.37	96.09	16.00	-40.1	-40.9	23.3	0.00e+00	0	41	0	2254438400	50	4244
2026-01-22 00:05:02.37	96.30	15.97	-40.2	-40.9	23.3	0.00e+00	0	40	0	2260729856	50	4285
2026-01-22 00:05:03.38	96.51	15.94	-40.2	-41.0	22.9	0.00e+00	0	40	0	2267021312	50	4329
2026-01-22 00:05:04.39	96.72	15.90	-40.2	-41.0	22.9	0.00e+00	0	40	0	2272264192	50	4308
2026-01-22 00:05:05.40	96.93	15.87	-40.3	-41.1	22.8	0.00e+00	0	40	0	2277507072	51	4139
2026-01-22 00:05:06.41	97.14	15.83	-40.3	-41.1	22.8	0.00e+00	0	40	0	2283798528	51	4139
2026-01-22 00:05:07.41	97.34	15.79	-40.3	-41.2	22.8	0.00e+00	0	41	0	2289041408	51	4152
2026-01-22 00:05:08.42	97.55	15.76	-40.3	-41.1	22.8	0.00e+00	0	41	0	2294284288	51	4134
2026-01-22 00:05:09.43	97.76	15.72	-40.3	-41.1	22.8	0.00e+00	0	41	0	2300575744	51	4125
2026-01-22 00:05:10.44	97.97	15.69	-40.2	-41.1	22.9	0.00e+00	0	40	0	2305818624	51	4115
2026-01-22 00:05:11.45	98.18	15.65	-40.2	-41.1	22.8	0.00e+00	0	40	0	2311061504	51	4110
2026-01-22 00:05:12.45	98.38	15.61	-40.2	-41.1	22.9	0.00e+00	0	40	0	2317352960	51	4107
2026-01-22 00:05:13.46	98.59	15.57	-40.1	-40.9	23.0	0.00e+00	0	40	0	2322595840	51	4029
2026-01-22 00:05:14.47	98.79	15.54	-40.2	-41.0	23.0	0.00e+00	0	41	0	2328887296	51	4066
2026-01-22 00:05:15.48	99.00	15.50	-40.3	-41.1	22.8	0.00e+00	0	41	0	2334130176	51	4137
2026-01-22 00:05:16.49	99.20	15.46	-40.4	-41.2	22.7	0.00e+00	0	40	0	2340421632	51	4189
2026-01-22 00:05:17.49	99.40	15.42	-40.3	-41.2	22.8	0.00e+00	0	41	0	2345664512	51	4169
2026-01-22 00:05:18.50	99.61	15.38	-40.3	-41.2	22.8	0.00e+00	0	41	0	2351955968	51	4171
2026-01-22 00:05:19.51	99.81	15.34	-40.4	-41.2	22.7	0.00e+00	0	40	0	2357198848	51	4185
2026-01-22 00:05:20.52	100.01	15.30	-40.3	-41.2	22.7	0.00e+00	0	40	0	2362441728	51	4166
2026-01-22 00:05:21.53	100.21	15.26	-40.3	-41.2	22.7	0.00e+00	0	41	0	2368733184	51	4165
2026-01-22 00:05:22.54	100.41	15.22	-40.3	-41.1	22.8	0.00e+00	0	40	0	2373976064	51	4141
2026-01-22 00:05:23.54	100.61	15.18	-40.2	-41.1	22.8	0.00e+00	0	40	0	2379218944	51	4103
2026-01-22 00:05:24.55	100.81	15.14	-40.3	-41.1	22.8	0.00e+00	0	40	0	2385510400	51	4144
2026-01-22 00:05:25.56	101.01	15.10	-40.3	-41.1	22.8	0.00e+00	0	41	0	2390753280	51	4120
2026-01-22 00:05:26.57	101.21	15.06	-40.2	-41.1	22.8	0.00e+00	0	40	0	2395996160	51	4115
2026-01-22 00:05:27.58	101.41	15.02	-40.3	-41.2	22.8	0.00e+00	0	40	0	2402287616	51	4148
2026-01-22 00:05:28.58	101.61	14.98	-40.4	-41.2	22.7	0.00e+00	0	40	0	2408579072	51	4192
2026-01-22 00:05:29.59	101.80	14.94	-40.3	-41.1	22.8	0.00e+00	0	41	0	2413821952	51	4145
2026-01-22 00:05:30.60	102.00	14.90	-40.2	-41.0	22.9	0.00e+00	0	40	0	2419064832	51	4094
2026-01-22 00:05:31.61	102.20	14.85	-40.2	-41.0	22.8	0.00e+00	0	40	0	2425356288	51	4096
2026-01-22 00:05:32.61	102.39	14.81	-40.3	-41.1	22.9	0.00e+00	0	40	0	2430599168	51	4113
2026-01-22 00:05:33.62	102.59	14.77	-40.4	-41.2	22.8	0.00e+00	0	40	0	2436890624	51	4162
2026-01-22 00:05:34.63	102.78	14.72	-40.4	-41.2	22.7	0.00e+00	0	40	0	2442133504	51	4189
2026-01-22 00:05:35.64	102.98	14.68	-40.5	-41.3	22.7	0.00e+00	0	41	0	2447376384	51	4216
2026-01-22 00:05:36.65	103.17	14.64	-40.4	-41.2	22.8	0.00e+00	0	41	0	2453667840	51	4177
2026-01-22 00:05:37.65	103.36	14.59	-40.5	-41.4	22.6	0.00e+00	0	41	0	2458910720	51	4246
2026-01-22 00:05:38.66	103.55	14.55	-40.4	-41.2	22.7	0.00e+00	0	40	0	2464153600	51	4178
2026-01-22 00:05:39.67	103.75	14.51	-40.4	-41.2	22.7	0.00e+00	0	40	0	2470445056	51	4174
2026-01-22 00:05:40.68	103.94	14.46	-40.5	-41.3	22.7	0.00e+00	0	41	0	2476736512	51	4218
2026-01-22 00:05:41.69	104.13	14.42	-40.6	-41.4	22.6	0.00e+00	0	40	0	2481979392	51	4257
2026-01-22 00:05:42.70	104.32	14.37	-40.6	-41.4	22.5	0.00e+00	0	40	0	2487222272	51	4286
2026-01-22 00:05:43.71	104.51	14.33	-40.7	-41.5	22.4	0.00e+00	0	40	0	2493513728	51	4332
2026-01-22 00:05:44.72	104.70	14.28	-40.7	-41.5	22.4	0.00e+00	0	41	0	2498756608	52	4091
2026-01-22 00:05:45.72	104.89	14.24	-40.6	-41.5	22.4	0.00e+00	0	41	0	2503999488	52	4080
2026-01-22 00:05:46.73	105.07	14.19	-40.7	-41.5	22.4	0.00e+00	0	41	0	2510290944	52	4093
2026-01-22 00:05:47.74	105.26	14.15	-40.7	-41.5	22.3	0.00e+00	0	40	0	2515533824	52	4098
2026-01-22 00:05:48.75	105.45	14.10	-40.8	-41.7	22.2	0.00e+00	0	40	0	2521825280	52	4152
2026-01-22 00:05:49.76	105.64	14.05	-40.7	-41.6	22.3	0.00e+00	0	41	0	2527068160	52	4117
2026-01-22 00:05:50.77	105.82	14.01	-40.7	-41.5	22.3	0.00e+00	0	40	0	2532311040	52	4093
2026-01-22 00:05:51.78	106.01	13.96	-40.7	-41.6	22.3	0.00e+00	0	41	0	2538602496	52	4103
2026-01-22 00:05:52.78	106.19	13.92	-40.7	-41.5	22.3	0.00e+00	0	41	0	2544893952	52	4082
2026-01-22 00:05:53.79	106.37	13.87	-40.7	-41.5	22.3	0.00e+00	0	40	0	2550136832	52	4088
2026-01-22 00:05:54.80	106.56	13.82	-40.7	-41.6	22.3	0.00e+00	0	41	0	2555379712	52	4125
2026-01-22 00:05:55.81	106.74	13.77	-40.7	-41.6	22.3	0.00e+00	0	40	0	2561671168	52	4115
2026-01-22 00:05:56.82	106.92	13.73	-40.8	-41.6	22.2	0.00e+00	0	40	0	2566914048	52	4140
2026-01-22 00:05:57.83	107.11	13.68	-40.6	-41.5	22.4	0.00e+00	0	41	0	2572156928	52	4079
2026-01-22 00:05:58.83	107.29	13.63	-40.8	-41.6	22.2	0.00e+00	0	41	0	2578448384	52	4136
2026-01-22 00:05:59.84	107.47	13.58	-40.8	-41.6	22.2	0.00e+00	0	40	0	2583691264	52	4138
2026-01-22 00:06:00.85	107.65	13.54	-40.8	-41.7	22.2	0.00e+00	0	41	0	2588934144	52	4156
2026-01-22 00:06:01.86	107.83	13.49	-40.8	-41.7	22.2	0.00e+00	0	41	0	2595225600	52	4181
2026-01-22 00:06:02.87	108.01	13.44	-41.0	-41.8	22.1	0.00e+00	0	41	0	2600468480	52	4242
2026-01-22 00:06:03.88	108.19	13.39	-40.9	-41.8	22.1	0.00e+00	0	40	0	2606759936	52	4198
2026-01-22 00:06:04.89	108.36	13.34	-40.9	-41.8	22.1	0.00e+00	0	40	0	2612002816	52	4210
2026-01-22 00:06:05.90	108.54	13.29	-40.9	-41.8	22.1	0.00e+00	0	41	0	2618294272	52	4198
2026-01-22 00:06:06.90	108.72	13.24	-41.0	-41.8	22.0	0.00e+00	0	41	0	2623537152	52	4239
2026-01-22 00:06:07.91	108.89	13.20	-40.9	-41.8	22.1	0.00e+00	0	40	0	2629828608	52	4206
2026-01-22 00:06:08.92	109.07	13.15	-41.0	-41.9	22.0	0.00e+00	0	41	0	2635071488	52	4245
2026-01-22 00:06:09.93	109.24	13.10	-40.9	-41.8	22.0	0.00e+00	0	41	0	2640314368	52	4227
2026-01-22 00:06:10.94	109.42	13.05	-41.0	-41.9	22.0	0.00e+00	0	41	0	2646605824	52	4264
2026-01-22 00:06:11.94	109.59	13.00	-41.1	-42.0	21.9	0.00e+00	0	41	0	2651848704	52	4297
2026-01-22 00:06:12.95	109.76	12.95	-41.1	-42.0	21.9	0.00e+00	0	41	0	2657091584	52	4304
2026-01-22 00:06:13.96	109.94	12.90	-41.1	-42.0	21.9	0.00e+00	0	41	0	2663383040	52	4292
2026-01-22 00:06:14.97	110.11	12.85	-41.2	-42.1	21.7	0.00e+00	0	41	0	2668625920	52	4374
2026-01-22 00:06:15.97	110.28	12.80	-41.2	-42.2	21.7	0.00e+00	0	41	0	2673868800	53	4146
2026-01-22 00:06:16.98	110.45	12.75	-41.1	-42.0	21.9	0.00e+00	0	41	0	2680160256	53	4072
2026-01-22 00:06:17.99	110.62	12.70	-41.0	-41.9	21.9	0.00e+00	0	41	0	2686451712	53	4046
2026-01-22 00:06:19.00	110.79	12.65	-41.1	-42.0	21.9	0.00e+00	0	41	0	2691694592	53	4068
2026-01-22 00:06:20.01	110.96	12.60	-40.9	-41.8	22.1	0.00e+00	0	41	0	2696937472	53	3981
2026-01-22 00:06:21.02	111.13	12.54	-41.0	-41.9	22.0	0.00e+00	0	41	0	2703228928	53	4013
2026-01-22 00:06:22.03	111.30	12.49	-41.1	-42.0	21.9	0.00e+00	0	40	0	2708471808	53	4057
2026-01-22 00:06:23.03	111.47	12.44	-40.9	-41.8	22.0	0.00e+00	0	41	0	2714763264	53	3989
2026-01-22 00:06:24.04	111.63	12.39	-40.9	-41.8	22.1	0.00e+00	0	41	0	2720006144	53	3968
2026-01-22 00:06:25.05	111.80	12.34	-40.9	-41.8	22.0	0.00e+00	0	41	0	2725249024	53	3984
2026-01-22 00:06:26.06	111.97	12.29	-41.0	-41.9	22.0	0.00e+00	0	41	0	2731540480	53	4027
2026-01-22 00:06:27.07	112.13	12.24	-41.0	-41.9	21.9	0.00e+00	0	41	0	2736783360	53	4047
2026-01-22 00:06:28.08	112.30	12.19	-41.0	-41.9	22.0	0.00e+00	0	40	0	2742026240	53	4029
2026-01-22 00:06:29.08	112.46	12.13	-41.1	-42.0	21.9	0.00e+00	0	41	0	2748317696	53	4062
2026-01-22 00:06:30.09	112.62	12.08	-41.0	-41.9	21.9	0.00e+00	0	41	0	2754609152	53	4046
2026-01-22 00:06:31.10	112.79	12.03	-41.1	-42.0	21.9	0.00e+00	0	41	0	2759852032	53	4062
2026-01-22 00:06:32.10	112.95	11.98	-41.1	-42.0	21.9	0.00e+00	0	41	0	2765094912	53	4060
2026-01-22 00:06:33.11	113.11	11.93	-41.1	-42.0	21.8	0.00e+00	0	41	0	2771386368	53	4077
2026-01-22 00:06:34.12	113.27	11.87	-41.2	-42.1	21.8	0.00e+00	0	40	0	2776629248	53	4110
2026-01-22 00:06:35.13	113.43	11.82	-41.1	-42.0	21.8	0.00e+00	0	41	0	2781872128	53	4088
2026-01-22 00:06:36.14	113.60	11.77	-41.2	-42.0	21.8	0.00e+00	0	41	0	2788163584	53	4095
2026-01-22 00:06:37.14	113.75	11.72	-41.1	-42.0	21.8	0.00e+00	0	41	0	2793406464	53	4073
2026-01-22 00:06:38.15	113.91	11.66	-41.2	-42.0	21.8	0.00e+00	0	41	0	2799697920	53	4085
2026-01-22 00:06:39.16	114.07	11.61	-41.2	-42.0	21.8	0.00e+00	0	41	0	2804940800	53	4090
2026-01-22 00:06:40.17	114.23	11.56	-41.2	-42.1	21.7	0.00e+00	0	41	0	2810183680	53	4133
2026-01-22 00:06:41.18	114.39	11.51	-41.3	-42.2	21.7	0.00e+00	0	41	0	2816475136	53	4155
2026-01-22 00:06:42.18	114.54	11.45	-41.5	-42.4	21.4	0.00e+00	0	41	0	2822766592	53	4269
2026-01-22 00:06:43.19	114.70	11.40	-41.5	-42.4	21.4	0.00e+00	0	41	0	2828009472	53	4279
2026-01-22 00:06:44.20	114.86	11.35	-41.6	-42.5	21.3	0.00e+00	0	41	0	2833252352	53	4326
2026-01-22 00:06:45.21	115.01	11.29	-41.6	-42.6	21.3	0.00e+00	0	41	0	2839543808	53	4342
2026-01-22 00:06:46.21	115.17	11.24	-41.5	-42.4	21.4	0.00e+00	0	41	0	2844786688	53	4279
2026-01-22 00:06:47.22	115.32	11.19	-41.5	-42.4	21.4	0.00e+00	0	41	0	2850029568	53	4271
2026-01-22 00:06:48.23	115.48	11.14	-41.5	-42.4	21.4	0.00e+00	0	41	0	2856321024	53	4281
2026-01-22 00:06:49.24	115.63	11.08	-41.6	-42.5	21.3	0.00e+00	0	41	0	2861563904	53	4309
2026-01-22 00:06:50.25	115.78	11.03	-41.6	-42.6	21.3	0.00e+00	0	41	0	2866806784	53	4344
2026-01-22 00:06:51.25	115.93	10.98	-41.5	-42.4	21.4	0.00e+00	0	41	0	2873098240	53	4267
2026-01-22 00:06:52.26	116.09	10.92	-41.6	-42.5	21.3	0.00e+00	0	41	0	2878341120	53	4333
2026-01-22 00:06:53.27	116.24	10.87	-41.6	-42.5	21.3	0.00e+00	0	41	0	2884632576	53	4322
2026-01-22 00:06:54.28	116.39	10.81	-41.6	-42.6	21.2	0.00e+00	0	41	0	2889875456	53	4354
2026-01-22 00:06:55.29	116.54	10.76	-41.6	-42.5	21.3	0.00e+00	0	41	0	2896166912	54	4082
2026-01-22 00:06:56.29	116.69	10.71	-41.5	-42.4	21.4	0.00e+00	0	41	0	2901409792	54	4027
2026-01-22 00:06:57.30	116.84	10.65	-41.6	-42.5	21.3	0.00e+00	0	41	0	2907701248	54	4073
2026-01-22 00:06:58.31	116.99	10.60	-41.4	-42.3	21.4	0.00e+00	0	41	0	2912944128	54	4002
2026-01-22 00:06:59.32	117.13	10.55	-41.6	-42.5	21.3	0.00e+00	0	41	0	2918187008	54	4069
2026-01-22 00:07:00.33	117.28	10.49	-41.4	-42.3	21.4	0.00e+00	0	41	0	2924478464	54	3976
2026-01-22 00:07:01.33	117.43	10.44	-41.4	-42.4	21.4	0.00e+00	0	41	0	2929721344	54	4008
2026-01-22 00:07:02.34	117.57	10.38	-41.5	-42.4	21.3	0.00e+00	0	41	0	2934964224	54	4030
2026-01-22 00:07:03.35	117.72	10.33	-41.5	-42.4	21.3	0.00e+00	0	41	0	2941255680	54	4037
2026-01-22 00:07:04.35	117.86	10.28	-41.5	-42.5	21.2	0.00e+00	0	41	0	2946498560	54	4066
2026-01-22 00:07:05.36	118.01	10.22	-41.6	-42.5	21.2	0.00e+00	0	40	0	2951741440	54	4080
2026-01-22 00:07:06.37	118.15	10.17	-41.4	-42.3	21.4	0.00e+00	0	41	0	2958032896	54	3995
2026-01-22 00:07:07.38	118.30	10.11	-41.5	-42.4	21.3	0.00e+00	0	41	0	2964324352	54	4026
2026-01-22 00:07:08.39	118.44	10.06	-41.5	-42.4	21.3	0.00e+00	0	41	0	2969567232	54	4042
2026-01-22 00:07:09.40	118.58	10.00	-41.5	-42.4	21.2	0.00e+00	0	41	0	2974810112	54	4040
2026-01-22 00:07:10.41	118.73	9.95	-41.3	-42.2	21.5	0.00e+00	0	41	0	2981101568	54	3920
2026-01-22 00:07:11.42	118.87	9.89	-41.6	-42.5	21.1	0.00e+00	0	41	0	2986344448	54	4092
2026-01-22 00:07:12.43	119.01	9.84	-41.5	-42.4	21.3	0.00e+00	0	41	0	2992635904	54	4027
2026-01-22 00:07:13.44	119.15	9.79	-41.6	-42.5	21.2	0.00e+00	0	41	0	2997878784	54	4066
2026-01-22 00:07:14.45	119.29	9.73	-41.5	-42.4	21.2	0.00e+00	0	41	0	3003121664	54	4040
2026-01-22 00:07:15.45	119.43	9.68	-41.6	-42.6	21.1	0.00e+00	0	41	0	3009413120	54	4102
2026-01-22 00:07:16.46	119.57	9.62	-41.5	-42.5	21.2	0.00e+00	0	41	0	3014656000	54	4052
2026-01-22 00:07:17.47	119.71	9.57	-41.6	-42.6	21.1	0.00e+00	0	41	0	3019898880	54	4105
2026-01-22 00:07:18.48	119.85	9.51	-41.7	-42.7	21.0	0.00e+00	0	41	0	3026190336	54	4159
2026-01-22 00:07:19.49	119.99	9.46	-41.8	-42.7	20.9	0.00e+00	0	41	0	3032481792	54	4188
2026-01-22 00:07:20.50	120.12	9.40	-41.9	-42.9	20.8	0.00e+00	0	41	0	3037724672	54	4243
2026-01-22 00:07:21.50	120.26	9.35	-42.0	-43.0	20.7	0.00e+00	0	41	0	3042967552	54	4296
2026-01-22 00:07:22.51	120.40	9.29	-41.9	-42.9	20.7	0.00e+00	0	41	0	3049259008	54	4274
2026-01-22 00:07:23.52	120.53	9.24	-42.0	-43.0	20.6	0.00e+00	0	41	0	3054501888	54	4323
2026-01-22 00:07:24.53	120.67	9.19	-42.2	-43.2	20.4	0.00e+00	0	41	0	3059744768	54	4399
2026-01-22 00:07:25.54	120.80	9.13	-42.1	-43.1	20.5	0.00e+00	0	41	0	3066036224	54	4358
2026-01-22 00:07:26.55	120.94	9.08	-42.1	-43.1	20.5	0.00e+00	0	41	0	3071279104	54	4378
2026-01-22 00:07:27.56	121.07	9.02	-42.1	-43.1	20.4	0.00e+00	0	41	0	3077570560	54	4389
2026-01-22 00:07:28.57	121.20	8.97	-42.1	-43.1	20.5	0.00e+00	0	41	0	3082813440	54	4382
2026-01-22 00:07:29.58	121.34	8.91	-42.3	-43.3	20.3	0.00e+00	0	41	0	3089104896	55	4206
2026-01-22 00:07:30.59	121.47	8.86	-42.1	-43.1	20.5	0.00e+00	0	40	0	3094347776	55	4121
2026-01-22 00:07:31.60	121.60	8.80	-42.3	-43.3	20.3	0.00e+00	0	41	0	3100639232	55	4216
2026-01-22 00:07:32.61	121.73	8.75	-42.2	-43.2	20.4	0.00e+00	0	41	0	3105882112	55	4179
2026-01-22 00:07:33.61	121.86	8.69	-42.2	-43.2	20.4	0.00e+00	0	41	0	3111124992	55	4164
2026-01-22 00:07:34.62	122.00	8.64	-42.1	-43.1	20.5	0.00e+00	0	41	0	3117416448	55	4109
2026-01-22 00:07:35.63	122.13	8.58	-41.9	-42.9	20.6	0.00e+00	0	41	0	3122659328	55	4020
2026-01-22 00:07:36.64	122.26	8.53	-42.0	-43.0	20.5	0.00e+00	0	41	0	3127902208	55	4075
2026-01-22 00:07:37.65	122.38	8.47	-42.1	-43.1	20.4	0.00e+00	0	41	0	3134193664	55	4117
2026-01-22 00:07:38.65	122.51	8.42	-42.1	-43.1	20.4	0.00e+00	0	41	0	3139436544	55	4105
2026-01-22 00:07:39.66	122.64	8.36	-42.0	-43.0	20.5	0.00e+00	0	41	0	3144679424	55	4083
2026-01-22 00:07:40.67	122.77	8.31	-42.1	-43.1	20.4	0.00e+00	0	41	0	3150970880	55	4123
2026-01-22 00:07:41.68	122.90	8.25	-42.1	-43.1	20.4	0.00e+00	0	41	0	3157262336	55	4117
2026-01-22 00:07:42.69	123.02	8.20	-42.1	-43.1	20.4	0.00e+00	0	41	0	3162505216	55	4140
2026-01-22 00:07:43.70	123.15	8.14	-42.1	-43.2	20.3	0.00e+00	0	41	0	3167748096	55	4154
2026-01-22 00:07:44.71	123.28	8.09	-42.2	-43.3	20.3	0.00e+00	0	41	0	3174039552	55	4196
2026-01-22 00:07:45.71	123.40	8.03	-42.4	-43.5	20.0	0.00e+00	0	41	0	3179282432	55	4309
2026-01-22 00:07:46.72	123.53	7.98	-42.5	-43.6	19.9	0.00e+00	0	41	0	3185573888	55	4366
2026-01-22 00:07:47.73	123.65	7.92	-42.5	-43.6	19.9	0.00e+00	0	41	0	3190816768	55	4374
2026-01-22 00:07:48.74	123.77	7.87	-42.4	-43.4	20.0	0.00e+00	0	41	0	3196059648	55	4289
2026-01-22 00:07:49.75	123.90	7.81	-42.3	-43.3	20.1	0.00e+00	0	41	0	3202351104	55	4229
2026-01-22 00:07:50.75	124.02	7.76	-42.4	-43.4	20.0	0.00e+00	0	41	0	3207593984	55	4272
2026-01-22 00:07:51.76	124.14	7.70	-42.5	-43.5	20.0	0.00e+00	0	41	0	3212836864	55	4318
2026-01-22 00:07:52.77	124.27	7.65	-42.3	-43.3	20.1	0.00e+00	0	41	0	3219128320	55	4240
2026-01-22 00:07:53.78	124.39	7.59	-42.2	-43.3	20.2	0.00e+00	0	41	0	3225419776	55	4195
2026-01-22 00:07:54.79	124.51	7.54	-42.2	-43.2	20.2	0.00e+00	0	41	0	3230662656	55	4171
2026-01-22 00:07:55.80	124.63	7.49	-42.2	-43.2	20.2	0.00e+00	0	41	0	3235905536	55	4167
2026-01-22 00:07:56.81	124.75	7.43	-42.2	-43.3	20.2	0.00e+00	0	41	0	3242196992	55	4195
2026-01-22 00:07:57.81	124.87	7.38	-42.4	-43.4	20.0	0.00e+00	0	41	0	3247439872	55	4277
2026-01-22 00:07:58.82	124.99	7.32	-42.4	-43.4	20.0	0.00e+00	0	41	0	3252682752	55	4263
2026-01-22 00:07:59.83	125.11	7.27	-42.3	-43.3	20.1	0.00e+00	0	41	0	3258974208	55	4229
2026-01-22 00:08:00.84	125.23	7.21	-42.4	-43.4	20.0	0.00e+00	0	41	0	3264217088	55	4265
2026-01-22 00:08:01.85	125.35	7.16	-42.5	-43.6	19.8	0.00e+00	0	41	0	3270508544	55	4358
2026-01-22 00:08:02.86	125.47	7.10	-42.5	-43.5	19.8	0.00e+00	0	41	0	3275751424	55	4340
2026-01-22 00:08:03.86	125.58	7.05	-42.4	-43.4	20.0	0.00e+00	0	41	0	3280994304	55	4273
2026-01-22 00:08:04.87	125.70	6.99	-42.4	-43.5	19.9	0.00e+00	0	41	0	3287285760	55	4313
2026-01-22 00:08:05.88	125.82	6.94	-42.5	-43.5	19.8	0.00e+00	0	41	0	3293577216	55	4330
2026-01-22 00:08:06.89	125.93	6.88	-42.5	-43.6	19.8	0.00e+00	0	41	0	3298820096	55	4354
2026-01-22 00:08:07.90	126.05	6.83	-42.6	-43.7	19.7	0.00e+00	0	41	0	3304062976	55	4398
2026-01-22 00:08:08.91	126.16	6.77	-42.5	-43.5	19.8	0.00e+00	0	41	0	3310354432	55	4320
2026-01-22 00:08:09.91	126.28	6.72	-42.8	-43.9	19.5	0.00e+00	0	41	0	3315597312	56	4272
2026-01-22 00:08:10.92	126.39	6.67	-42.6	-43.7	19.7	0.00e+00	0	41	0	3320840192	56	4170
2026-01-22 00:08:11.93	126.51	6.61	-42.5	-43.5	19.9	0.00e+00	0	41	0	3327131648	56	4079
2026-01-22 00:08:12.94	126.62	6.56	-42.9	-44.0	19.4	0.00e+00	0	41	0	3332374528	56	4305
2026-01-22 00:08:13.95	126.74	6.50	-42.7	-43.8	19.7	0.00e+00	0	41	0	3337617408	56	4194
2026-01-22 00:08:14.96	126.85	6.45	-42.8	-43.8	19.6	0.00e+00	0	41	0	3343908864	56	4234
2026-01-22 00:08:15.97	126.96	6.39	-42.7	-43.8	19.6	0.00e+00	0	41	0	3349151744	56	4205
2026-01-22 00:08:16.97	127.07	6.34	-42.6	-43.6	19.8	0.00e+00	0	41	0	3355443200	56	4132
2026-01-22 00:08:17.98	127.18	6.28	-42.5	-43.5	19.8	0.00e+00	0	41	0	3360686080	56	4094
2026-01-22 00:08:18.99	127.30	6.23	-42.8	-43.9	19.5	0.00e+00	0	41	0	3366977536	56	4247
2026-01-22 00:08:20.00	127.41	6.18	-42.8	-43.9	19.5	0.00e+00	0	41	0	3372220416	56	4249
2026-01-22 00:08:21.01	127.52	6.12	-42.9	-44.0	19.4	0.00e+00	0	41	0	3378511872	56	4312
2026-01-22 00:08:22.01	127.63	6.07	-42.7	-43.8	19.5	0.00e+00	0	41	0	3383754752	56	4215
2026-01-22 00:08:23.02	127.74	6.01	-42.9	-44.0	19.4	0.00e+00	0	41	0	3388997632	56	4316
2026-01-22 00:08:24.03	127.85	5.96	-42.8	-43.9	19.4	0.00e+00	0	41	0	3395289088	56	4267
2026-01-22 00:08:25.04	127.96	5.90	-42.9	-44.0	19.4	0.00e+00	0	41	0	3400531968	56	4298
2026-01-22 00:08:26.04	128.06	5.85	-42.7	-43.8	19.5	0.00e+00	0	41	0	3405774848	56	4235
2026-01-22 00:08:27.05	128.17	5.80	-42.9	-44.0	19.3	0.00e+00	0	41	0	3412066304	56	4316
2026-01-22 00:08:28.06	128.28	5.74	-43.3	-44.4	19.0	0.00e+00	0	41	0	3417309184	57	4276
2026-01-22 00:08:29.07	128.39	5.69	-42.9	-44.0	19.3	0.00e+00	0	41	0	3422552064	57	4065
2026-01-22 00:08:30.08	128.50	5.63	-43.2	-44.3	19.0	0.00e+00	0	41	0	3428843520	57	4240
2026-01-22 00:08:31.09	128.60	5.58	-43.3	-44.4	18.9	0.00e+00	0	41	0	3435134976	57	4274
2026-01-22 00:08:32.09	128.71	5.53	-43.3	-44.5	18.8	0.00e+00	0	41	0	3440377856	57	4316
2026-01-22 00:08:33.10	128.81	5.47	-43.1	-44.2	19.1	0.00e+00	0	41	0	3445620736	57	4190
2026-01-22 00:08:34.11	128.92	5.42	-43.3	-44.5	18.8	0.00e+00	0	41	0	3451912192	57	4328
2026-01-22 00:08:35.12	129.03	5.36	-42.8	-43.9	19.4	0.00e+00	0	41	0	3457155072	57	4007
2026-01-22 00:08:36.12	129.13	5.31	-42.7	-43.8	19.5	0.00e+00	0	41	0	3463446528	57	3965
2026-01-22 00:08:37.13	129.23	5.26	-43.1	-44.2	19.1	0.00e+00	0	41	0	3468689408	57	4163
2026-01-22 00:08:38.14	129.34	5.20	-42.7	-43.7	19.5	0.00e+00	0	41	0	3473932288	57	3958
2026-01-22 00:08:39.15	129.44	5.15	-43.0	-44.1	19.1	0.00e+00	0	41	0	3480223744	57	4121
2026-01-22 00:08:40.15	129.54	5.10	-43.0	-44.1	19.1	0.00e+00	0	41	0	3485466624	57	4121
2026-01-22 00:08:41.16	129.65	5.04	-42.8	-43.9	19.3	0.00e+00	0	41	0	3490709504	57	4030
2026-01-22 00:08:42.17	129.75	4.99	-52.3	-64.3	3.8	4.92e-01	0	41	104	3494903808	75	14913
2026-01-22 00:08:43.18	129.85	4.93	-52.7	-64.7	3.8	8.46e-01	0	41	104	3494903808	75	15631
2026-01-22 00:08:44.19	129.96	4.88	-52.9	-64.9	3.8	8.46e-01	0	41	104	3494903808	76	15111
2026-01-22 00:08:45.19	130.06	4.83	-53.1	-65.1	3.8	8.46e-01	0	41	104	3494903808	76	15445
2026-01-22 00:08:46.20	130.16	4.77	-53.3	-65.2	3.8	8.46e-01	0	41	104	3494903808	77	14856
2026-01-22 00:08:47.21	130.26	4.72	-53.4	-65.4	3.8	8.46e-01	0	41	104	3494903808	77	15076
2026-01-22 00:08:48.22	130.36	4.67	-53.5	-65.5	3.8	8.46e-01	0	41	104	3494903808	77	15298
2026-01-22 00:08:49.23	130.46	4.61	-53.6	-65.6	3.8	8.48e-01	0	41	104	3494903808	77	15436
2026-01-22 00:08:50.23	130.56	4.56	-53.7	-65.7	3.8	8.46e-01	0	41	104	3494903808	77	15597
2026-01-22 00:08:51.24	130.66	4.51	-53.8	-65.8	3.8	8.47e-01	0	41	104	3494903808	78	14926
2026-01-22 00:08:52.25	130.76	4.45	-53.9	-65.8	3.8	8.47e-01	0	41	104	3494903808	78	15023
2026-01-22 00:08:53.26	130.86	4.40	-53.9	-65.9	3.8	8.46e-01	0	41	104	3494903808	78	15142
2026-01-22 00:08:54.27	130.96	4.35	-54.0	-66.0	3.8	8.47e-01	0	41	104	3494903808	78	15283
2026-01-22 00:08:55.28	131.05	4.29	-54.1	-66.0	3.8	8.46e-01	0	41	104	3494903808	78	15398
2026-01-22 00:08:56.28	131.15	4.24	-54.1	-66.1	3.8	8.46e-01	0	41	104	3494903808	78	15470
2026-01-22 00:08:57.29	131.25	4.19	-54.2	-66.1	3.8	8.46e-01	0	41	104	3494903808	78	15574
2026-01-22 00:08:58.30	131.35	4.13	-54.2	-66.2	3.8	8.46e-01	0	41	104	3494903808	78	15647
2026-01-22 00:08:59.31	131.44	4.08	-54.3	-66.2	3.8	8.46e-01	0	41	104	3494903808	79	14877
2026-01-22 00:09:00.32	131.54	4.03	-54.3	-66.3	3.8	8.47e-01	0	41	104	3494903808	79	14912
2026-01-22 00:09:01.32	131.63	3.98	-54.3	-66.3	3.8	8.46e-01	0	41	104	3494903808	79	14934
2026-01-22 00:09:02.33	131.73	3.92	-54.3	-66.3	3.8	8.46e-01	0	41	104	3494903808	79	14955
2026-01-22 00:09:03.34	131.83	3.87	-54.4	-66.3	3.8	8.47e-01	0	41	104	3494903808	79	15026
2026-01-22 00:09:04.34	131.92	3.82	-54.4	-66.4	3.8	8.45e-01	0	41	104	3494903808	79	15093
2026-01-22 00:09:05.35	132.02	3.76	-54.4	-66.4	3.8	8.45e-01	0	41	104	3494903808	79	15068
2026-01-22 00:09:06.36	132.11	3.71	-54.4	-66.4	3.8	8.46e-01	0	41	104	3494903808	79	15132
