passes_logs/2026/01/21/R3.2S_Murmansk/R3.2S_Murmansk__20260121_205535_JL1KF02B01_rec.log

#Pass ID: 20260121_205535_JL1KF02B01
#Satellite: JL1KF02B01
#Configuration: 01B_900M
#almurnet v.1.7.20251203
#Start time: 2026-01-21 20:55:36

#Version: 2.2.20231116
#Station: R3.2S_Murmansk
#Location: 33.079688 lon 68.888172 lat
#TLE: 1 61191U 24169C   26020.93503993  .00012980  00000+0  80904-3 0  9994
#TLE: 2 61191  97.5705 112.4167 0014537 105.0491 255.2348 15.09590380 73611

#Time	Az	El	Level	Level2	SNR	BER	BlckErr	Temp	State	Recorded	gain1	gain2
2026-01-21 20:55:36.68	186.36	2.09	-54.5	-56.7	6.2	0.00e+00	0	41	0	0	80	18652
2026-01-21 20:55:37.69	186.41	2.16	-54.5	-56.7	6.2	0.00e+00	0	41	104	0	80	18685
2026-01-21 20:55:38.70	186.47	2.23	-54.5	-56.6	6.2	0.00e+00	0	41	104	0	80	18554
2026-01-21 20:55:39.71	186.52	2.30	-54.5	-56.6	6.2	0.00e+00	0	41	104	0	80	18520
2026-01-21 20:55:40.72	186.58	2.36	-54.6	-56.7	6.2	0.00e+00	0	41	104	0	80	18811
2026-01-21 20:55:41.73	186.63	2.43	-54.7	-56.8	6.2	0.00e+00	0	41	104	0	80	18978
2026-01-21 20:55:42.73	186.69	2.50	-54.7	-56.9	6.2	0.00e+00	0	41	104	0	80	19081
2026-01-21 20:55:43.74	186.74	2.57	-54.7	-56.8	6.2	0.00e+00	0	41	104	0	80	19014
2026-01-21 20:55:44.75	186.80	2.64	-54.7	-56.9	6.2	0.00e+00	0	41	104	0	80	19045
2026-01-21 20:55:45.76	186.85	2.71	-54.7	-56.9	6.2	0.00e+00	0	41	104	0	80	19043
2026-01-21 20:55:46.77	186.91	2.78	-54.7	-56.8	6.2	0.00e+00	0	41	104	0	80	18989
2026-01-21 20:55:47.78	186.97	2.84	-54.7	-56.8	6.2	0.00e+00	0	41	104	0	80	18927
2026-01-21 20:55:48.78	187.02	2.91	-54.7	-56.8	6.2	0.00e+00	0	41	104	0	80	18880
2026-01-21 20:55:49.79	187.08	2.98	-54.6	-56.8	6.2	0.00e+00	0	41	104	0	80	18871
2026-01-21 20:55:50.80	187.14	3.05	-54.6	-56.7	6.2	0.00e+00	0	41	104	0	80	18818
2026-01-21 20:55:51.81	187.20	3.12	-54.6	-56.7	6.2	0.00e+00	0	41	104	0	80	18711
2026-01-21 20:55:52.82	187.26	3.19	-54.5	-56.7	6.2	0.00e+00	0	41	104	0	80	18662
2026-01-21 20:55:53.83	187.32	3.26	-54.5	-56.6	6.2	0.00e+00	0	41	104	0	80	18554
2026-01-21 20:55:54.84	187.37	3.33	-54.4	-56.6	6.2	0.00e+00	0	41	104	0	80	18443
2026-01-21 20:55:55.84	187.43	3.40	-54.4	-56.5	6.2	0.00e+00	0	41	104	0	80	18290
2026-01-21 20:55:56.85	187.49	3.48	-54.3	-56.4	6.2	0.00e+00	0	41	104	0	80	18168
2026-01-21 20:55:57.86	187.55	3.55	-54.2	-56.4	6.2	0.00e+00	0	42	104	0	80	18070
2026-01-21 20:55:58.87	187.61	3.62	-54.2	-56.3	6.2	0.00e+00	0	41	104	0	80	17824
2026-01-21 20:55:59.87	187.67	3.69	-54.0	-56.2	6.2	0.00e+00	0	41	104	0	80	17583
2026-01-21 20:56:00.88	187.73	3.76	-53.9	-56.1	6.2	0.00e+00	0	41	104	0	79	18454
2026-01-21 20:56:01.89	187.80	3.83	-53.7	-55.8	6.2	0.00e+00	0	42	104	0	79	17886
2026-01-21 20:56:02.90	187.86	3.91	-53.3	-55.4	6.2	0.00e+00	0	41	104	0	78	18080
2026-01-21 20:56:03.91	187.92	3.98	-53.1	-55.2	6.2	0.00e+00	0	41	104	0	78	17680
2026-01-21 20:56:04.92	187.98	4.05	-53.1	-55.2	6.2	0.00e+00	0	41	104	0	78	17657
2026-01-21 20:56:05.92	188.04	4.12	-53.1	-55.2	6.2	0.00e+00	0	42	104	0	78	17631
2026-01-21 20:56:06.93	188.11	4.20	-53.1	-55.2	6.2	0.00e+00	0	41	104	0	78	17643
2026-01-21 20:56:07.94	188.17	4.27	-53.0	-55.2	6.2	0.00e+00	0	42	104	0	78	17585
2026-01-21 20:56:08.95	188.24	4.35	-53.0	-55.2	6.2	0.00e+00	0	42	104	0	78	17580
2026-01-21 20:56:09.96	188.30	4.42	-53.0	-55.2	6.2	0.00e+00	0	42	104	0	78	17568
2026-01-21 20:56:10.97	188.36	4.49	-53.0	-55.2	6.2	0.00e+00	0	42	104	0	78	17628
2026-01-21 20:56:11.98	188.43	4.57	-53.0	-55.2	6.2	0.00e+00	0	42	104	0	78	17594
2026-01-21 20:56:12.99	188.50	4.64	-53.0	-55.2	6.2	0.00e+00	0	42	104	0	78	17613
2026-01-21 20:56:13.99	188.56	4.72	-53.0	-55.2	6.2	0.00e+00	0	42	104	0	78	17593
2026-01-21 20:56:15.00	188.63	4.79	-53.0	-55.1	6.2	0.00e+00	0	42	104	0	78	17542
2026-01-21 20:56:16.01	188.69	4.87	-53.0	-55.2	6.2	0.00e+00	0	42	104	0	78	17571
2026-01-21 20:56:17.02	188.76	4.94	-53.0	-55.1	6.2	0.00e+00	0	42	104	0	78	17501
2026-01-21 20:56:18.03	188.83	5.02	-52.9	-55.1	6.2	0.00e+00	0	42	104	0	77	18504
2026-01-21 20:56:19.03	188.90	5.10	-53.2	-55.3	6.2	0.00e+00	0	42	104	0	77	18936
2026-01-21 20:56:20.04	188.96	5.17	-52.9	-55.1	6.2	0.00e+00	0	42	104	0	77	18500
2026-01-21 20:56:21.05	189.03	5.25	-53.1	-55.2	6.2	0.00e+00	0	42	104	0	77	18703
2026-01-21 20:56:22.06	189.10	5.33	-53.1	-55.2	6.2	0.00e+00	0	42	104	0	77	18730
2026-01-21 20:56:23.07	189.17	5.40	-52.9	-55.1	6.2	0.00e+00	0	42	104	0	77	18469
2026-01-21 20:56:24.08	189.24	5.48	-52.9	-55.1	6.2	0.00e+00	0	42	104	0	77	18414
2026-01-21 20:56:25.09	189.31	5.56	-53.1	-55.2	6.2	0.00e+00	0	42	104	0	77	18753
2026-01-21 20:56:26.09	189.38	5.64	-53.1	-55.2	6.2	0.00e+00	0	42	104	0	77	18710
2026-01-21 20:56:27.10	189.45	5.72	-52.9	-55.1	6.2	0.00e+00	0	42	104	0	77	18510
2026-01-21 20:56:28.11	189.53	5.79	-52.9	-55.1	6.2	0.00e+00	0	42	104	0	77	18489
2026-01-21 20:56:29.12	189.60	5.87	-53.1	-55.2	6.2	0.00e+00	0	42	104	0	77	18757
2026-01-21 20:56:30.13	189.67	5.95	-53.1	-55.3	6.2	0.00e+00	0	42	104	0	77	18843
2026-01-21 20:56:31.14	189.74	6.03	-53.0	-55.1	6.2	0.00e+00	0	42	104	0	77	18473
2026-01-21 20:56:32.14	189.82	6.11	-53.0	-55.1	6.2	0.00e+00	0	42	104	0	77	18457
2026-01-21 20:56:33.15	189.89	6.19	-53.1	-55.2	6.2	0.00e+00	0	42	104	0	77	18800
2026-01-21 20:56:34.16	189.97	6.27	-53.1	-55.3	6.2	0.00e+00	0	42	104	0	77	18826
2026-01-21 20:56:35.17	190.04	6.35	-53.0	-55.1	6.2	0.00e+00	0	42	104	0	77	18573
2026-01-21 20:56:36.17	190.12	6.43	-53.0	-55.1	6.2	0.00e+00	0	42	104	0	77	18532
2026-01-21 20:56:37.18	190.19	6.51	-53.1	-55.3	6.2	0.00e+00	0	42	104	0	77	18888
2026-01-21 20:56:38.19	190.27	6.60	-53.1	-55.3	6.2	0.00e+00	0	42	104	0	77	18896
2026-01-21 20:56:39.20	190.35	6.68	-53.0	-55.2	6.2	0.00e+00	0	42	104	0	77	18620
2026-01-21 20:56:40.21	190.42	6.76	-53.0	-55.2	6.2	0.00e+00	0	42	104	0	77	18615
2026-01-21 20:56:41.22	190.50	6.84	-53.2	-55.3	6.2	0.00e+00	0	42	104	0	77	18880
2026-01-21 20:56:42.23	190.58	6.92	-53.1	-55.3	6.2	0.00e+00	0	42	104	0	77	18943
2026-01-21 20:56:43.24	190.66	7.01	-53.0	-55.2	6.2	0.00e+00	0	42	104	0	77	18680
2026-01-21 20:56:44.24	190.74	7.09	-53.0	-55.2	6.2	0.00e+00	0	42	104	0	77	18669
2026-01-21 20:56:45.25	190.82	7.17	-53.2	-55.3	6.2	0.00e+00	0	42	104	0	77	18951
2026-01-21 20:56:46.26	190.90	7.26	-53.1	-55.3	6.2	0.00e+00	0	42	104	0	77	18930
2026-01-21 20:56:47.27	190.98	7.34	-53.1	-55.2	6.2	0.00e+00	0	42	104	0	77	18737
2026-01-21 20:56:48.28	191.06	7.43	-53.1	-55.2	6.2	0.00e+00	0	42	104	0	77	18692
2026-01-21 20:56:49.28	191.14	7.51	-53.2	-55.3	6.2	0.00e+00	0	42	104	0	77	18985
2026-01-21 20:56:50.29	191.23	7.60	-53.2	-55.3	6.2	0.00e+00	0	42	104	0	77	18975
2026-01-21 20:56:51.30	191.31	7.68	-53.1	-55.2	6.2	0.00e+00	0	42	104	0	77	18811
2026-01-21 20:56:52.31	191.39	7.77	-53.1	-55.3	6.2	0.00e+00	0	42	104	0	77	18834
2026-01-21 20:56:53.31	191.48	7.85	-53.2	-55.4	6.2	0.00e+00	0	42	104	0	77	19096
2026-01-21 20:56:54.32	191.56	7.94	-53.2	-55.3	6.2	0.00e+00	0	42	104	0	77	19020
2026-01-21 20:56:55.33	191.65	8.03	-53.1	-55.3	6.2	0.00e+00	0	42	104	0	77	18868
2026-01-21 20:56:56.34	191.73	8.12	-53.1	-55.3	6.2	0.00e+00	0	42	104	0	77	18852
2026-01-21 20:56:57.35	191.82	8.20	-53.2	-55.4	6.2	0.00e+00	0	42	104	0	77	19083
2026-01-21 20:56:58.35	191.91	8.29	-53.2	-55.4	6.2	0.00e+00	0	42	104	0	77	19072
2026-01-21 20:56:59.36	192.00	8.38	-48.2	-48.7	6.3	0.00e+00	0	42	104	0	77	8816
2026-01-21 20:57:00.37	192.09	8.47	-46.7	-47.0	6.5	0.00e+00	0	42	104	0	67	12965
2026-01-21 20:57:01.38	192.18	8.56	-49.3	-50.1	6.4	0.00e+00	0	42	104	0	70	15544
2026-01-21 20:57:02.39	192.27	8.65	-46.8	-47.3	6.4	0.00e+00	0	42	104	0	65	14974
2026-01-21 20:57:03.40	192.36	8.74	-47.0	-47.4	6.4	0.00e+00	0	42	104	0	65	15281
2026-01-21 20:57:04.40	192.45	8.83	-46.0	-46.4	6.3	0.00e+00	0	42	104	0	63	15184
2026-01-21 20:57:05.41	192.54	8.92	-45.8	-46.2	6.4	0.00e+00	0	42	104	0	63	14893
2026-01-21 20:57:06.42	192.63	9.01	-45.8	-46.1	6.3	0.00e+00	0	42	104	0	63	14737
2026-01-21 20:57:07.43	192.72	9.10	-45.8	-46.2	6.4	0.00e+00	0	42	104	0	62	15819
2026-01-21 20:57:08.43	192.82	9.19	-45.1	-45.4	6.4	0.00e+00	0	42	104	0	62	14393
2026-01-21 20:57:09.44	192.91	9.28	-47.0	-47.5	6.3	0.00e+00	0	42	104	0	66	14525
2026-01-21 20:57:10.45	193.01	9.37	-45.5	-46.0	6.3	0.00e+00	0	42	104	0	63	14509
2026-01-21 20:57:11.46	193.10	9.47	-49.1	-50.0	6.4	0.00e+00	0	42	104	0	70	15302
2026-01-21 20:57:12.47	193.20	9.56	-45.8	-46.3	6.4	0.00e+00	0	42	104	0	63	15091
2026-01-21 20:57:13.48	193.30	9.65	-45.1	-45.5	6.3	0.00e+00	0	42	104	0	62	14525
2026-01-21 20:57:14.49	193.40	9.75	-46.7	-47.3	6.3	0.00e+00	0	42	104	0	64	16002
2026-01-21 20:57:15.50	193.50	9.84	-36.4	-36.3	13.7	7.06e-03	0	42	104	0	44	14140
2026-01-21 20:57:16.50	193.59	9.94	-28.4	-28.2	16.8	1.90e-06	0	43	0	75497472	28	14008
2026-01-21 20:57:17.51	193.70	10.03	-31.8	-31.7	14.9	1.43e-04	0	43	0	192937984	34	14892
2026-01-21 20:57:18.52	193.80	10.13	-28.8	-28.7	16.5	1.52e-05	0	43	0	301989888	29	13980
2026-01-21 20:57:19.53	193.90	10.22	-33.3	-33.1	16.5	2.09e-05	0	43	0	419430400	38	13876
2026-01-21 20:57:20.54	194.00	10.32	-29.2	-29.0	16.3	1.33e-05	0	43	0	528482304	30	13699
2026-01-21 20:57:21.55	194.10	10.42	-28.9	-28.8	16.5	1.90e-06	0	43	0	637534208	29	14145
2026-01-21 20:57:22.56	194.21	10.51	-28.4	-28.2	16.8	1.90e-06	0	43	0	754974720	28	14060
2026-01-21 20:57:23.57	194.31	10.61	-28.2	-28.0	16.8	1.90e-06	0	43	0	864026624	28	13749
2026-01-21 20:57:24.57	194.42	10.71	-28.3	-28.2	16.6	0.00e+00	0	43	0	989855744	28	13978
2026-01-21 20:57:25.58	194.53	10.81	-28.0	-27.8	17.0	0.00e+00	0	43	0	1098907648	27	14177
2026-01-21 20:57:26.59	194.63	10.91	-27.9	-27.7	17.2	0.00e+00	0	43	0	1216348160	27	14061
2026-01-21 20:57:27.60	194.74	11.01	-27.8	-27.6	17.1	0.00e+00	0	43	0	1325400064	27	13893
2026-01-21 20:57:28.61	194.85	11.11	-27.8	-27.7	17.2	0.00e+00	0	43	0	1442840576	27	13972
2026-01-21 20:57:29.62	194.96	11.21	-27.8	-27.7	17.2	0.00e+00	0	43	0	1551892480	27	13975
2026-01-21 20:57:30.63	195.07	11.31	-27.7	-27.5	17.2	1.90e-06	0	43	0	1669332992	27	13778
2026-01-21 20:57:31.64	195.19	11.41	-27.6	-27.5	17.2	0.00e+00	0	43	0	1778384896	27	13658
2026-01-21 20:57:32.64	195.30	11.51	-27.6	-27.4	17.2	0.00e+00	0	43	0	1887436800	27	13603
2026-01-21 20:57:33.65	195.41	11.61	-27.8	-27.7	17.2	0.00e+00	0	43	0	2004877312	27	13954
2026-01-21 20:57:34.66	195.53	11.71	-27.6	-27.4	17.3	0.00e+00	0	43	0	2113929216	27	13615
2026-01-21 20:57:35.67	195.64	11.82	-27.4	-27.2	17.4	0.00e+00	0	43	0	2231369728	26	14106
2026-01-21 20:57:36.68	195.76	11.92	-27.3	-27.2	17.5	0.00e+00	0	43	0	2348810240	26	13954
2026-01-21 20:57:37.68	195.87	12.02	-27.3	-27.2	17.5	0.00e+00	0	43	0	2466250752	26	13952
2026-01-21 20:57:38.69	195.99	12.13	-27.3	-27.1	17.7	0.00e+00	0	43	0	2575302656	26	13896
2026-01-21 20:57:39.70	196.11	12.23	-27.2	-27.1	17.6	0.00e+00	0	43	0	2692743168	26	13829
2026-01-21 20:57:40.71	196.23	12.34	-27.2	-27.0	17.5	0.00e+00	0	43	0	2801795072	26	13688
2026-01-21 20:57:41.71	196.35	12.44	-27.3	-27.1	17.6	1.90e-06	0	43	0	2910846976	26	13889
2026-01-21 20:57:42.72	196.47	12.55	-27.1	-27.0	17.6	0.00e+00	0	43	0	3028287488	26	13681
2026-01-21 20:57:43.73	196.60	12.66	-27.1	-27.0	17.4	0.00e+00	0	43	0	3137339392	26	13670
2026-01-21 20:57:44.73	196.72	12.76	-27.0	-26.9	17.4	0.00e+00	0	43	0	3254779904	26	13480
2026-01-21 20:57:45.74	196.85	12.87	-27.0	-26.9	17.4	0.00e+00	0	43	0	3363831808	26	13498
2026-01-21 20:57:46.75	196.97	12.98	-26.9	-26.7	17.5	0.00e+00	0	43	0	3472883712	25	14017
2026-01-21 20:57:47.76	197.10	13.09	-26.9	-26.8	17.6	0.00e+00	0	43	0	3590324224	25	14121
2026-01-21 20:57:48.77	197.23	13.20	-26.8	-26.7	17.9	0.00e+00	0	43	0	3699376128	25	13967
2026-01-21 20:57:49.78	197.36	13.31	-26.8	-26.7	17.5	0.00e+00	0	43	0	3825205248	25	13973
2026-01-21 20:57:50.78	197.49	13.42	-26.9	-26.7	17.7	0.00e+00	0	43	0	3934257152	25	14082
2026-01-21 20:57:51.79	197.62	13.53	-26.8	-26.6	17.7	0.00e+00	0	43	0	4051697664	25	13934
2026-01-21 20:57:52.80	197.75	13.64	-26.6	-26.5	17.8	0.00e+00	0	43	0	4160749568	25	13665
2026-01-21 20:57:53.81	197.89	13.75	-26.7	-26.5	17.8	0.00e+00	0	43	0	4278190080	25	13788
2026-01-21 20:57:54.82	198.02	13.87	-26.6	-26.5	17.9	0.00e+00	0	43	0	4387241984	25	13685
2026-01-21 20:57:55.82	198.16	13.98	-26.5	-26.4	17.9	0.00e+00	0	43	0	4496293888	25	13486
2026-01-21 20:57:56.83	198.30	14.09	-26.7	-26.5	17.8	0.00e+00	0	43	0	4613734400	25	13756
2026-01-21 20:57:57.84	198.43	14.21	-26.5	-26.3	17.9	0.00e+00	0	43	0	4722786304	25	13444
2026-01-21 20:57:58.85	198.57	14.32	-26.6	-26.4	18.0	0.00e+00	0	43	0	4840226816	25	13507
2026-01-21 20:57:59.85	198.71	14.43	-26.3	-26.2	18.1	0.00e+00	0	43	0	4949278720	24	13978
2026-01-21 20:58:00.86	198.86	14.55	-26.4	-26.2	18.1	0.00e+00	0	43	0	5066719232	24	14028
2026-01-21 20:58:01.87	199.00	14.67	-26.4	-26.2	18.1	0.00e+00	0	43	0	5175771136	24	14076
2026-01-21 20:58:02.88	199.15	14.78	-26.2	-26.0	18.2	0.00e+00	0	43	0	5301600256	24	13782
2026-01-21 20:58:03.89	199.29	14.90	-26.3	-26.1	18.2	0.00e+00	0	43	0	5410652160	24	13845
2026-01-21 20:58:04.90	199.44	15.02	-26.4	-26.2	17.9	0.00e+00	0	43	0	5528092672	24	14011
2026-01-21 20:58:05.90	199.59	15.14	-26.2	-26.0	18.0	0.00e+00	0	43	0	5637144576	24	13717
2026-01-21 20:58:06.91	199.74	15.26	-26.3	-26.1	18.0	0.00e+00	0	43	0	5746196480	24	13889
2026-01-21 20:58:07.92	199.89	15.38	-26.1	-25.9	18.0	0.00e+00	0	43	0	5863636992	24	13616
2026-01-21 20:58:08.93	200.04	15.50	-26.3	-26.1	18.1	0.00e+00	0	43	0	5972688896	24	13935
2026-01-21 20:58:09.94	200.20	15.62	-26.1	-25.9	18.0	0.00e+00	0	43	0	6090129408	24	13591
2026-01-21 20:58:10.94	200.35	15.74	-26.0	-25.8	18.3	0.00e+00	0	43	0	6199181312	24	13460
2026-01-21 20:58:11.95	200.51	15.86	-25.9	-25.7	18.2	0.00e+00	0	43	0	6308233216	23	14091
2026-01-21 20:58:12.96	200.67	15.98	-25.8	-25.6	18.1	0.00e+00	0	43	0	6425673728	23	13943
2026-01-21 20:58:13.97	200.83	16.11	-25.9	-25.7	18.1	0.00e+00	0	43	0	6534725632	23	14045
2026-01-21 20:58:14.98	200.99	16.23	-25.9	-25.7	18.1	0.00e+00	0	43	0	6660554752	23	14002
2026-01-21 20:58:15.98	201.15	16.36	-25.6	-25.5	18.3	0.00e+00	0	43	0	6769606656	23	13661
2026-01-21 20:58:16.99	201.32	16.48	-25.7	-25.5	18.3	0.00e+00	0	43	0	6887047168	23	13705
2026-01-21 20:58:18.00	201.48	16.61	-25.7	-25.5	18.1	0.00e+00	0	43	0	6996099072	23	13682
2026-01-21 20:58:19.01	201.65	16.73	-25.7	-25.5	18.2	0.00e+00	0	43	0	7113539584	23	13751
2026-01-21 20:58:20.02	201.82	16.86	-25.6	-25.4	18.3	0.00e+00	0	43	0	7222591488	23	13598
2026-01-21 20:58:21.02	201.99	16.99	-25.5	-25.3	18.4	0.00e+00	0	43	0	7331643392	23	13415
2026-01-21 20:58:22.03	202.16	17.11	-25.4	-25.2	18.7	0.00e+00	0	43	0	7449083904	22	14016
2026-01-21 20:58:23.04	202.34	17.24	-25.5	-25.3	18.6	0.00e+00	0	43	0	7558135808	22	14221
2026-01-21 20:58:24.05	202.51	17.37	-25.5	-25.3	18.5	0.00e+00	0	43	0	7675576320	22	14181
2026-01-21 20:58:25.05	202.69	17.50	-25.3	-25.2	18.6	0.00e+00	0	43	0	7784628224	22	13953
2026-01-21 20:58:26.06	202.87	17.63	-25.2	-25.0	18.9	0.00e+00	0	43	0	7902068736	22	13724
2026-01-21 20:58:27.07	203.05	17.76	-25.2	-25.0	18.9	0.00e+00	0	43	0	8019509248	22	13719
2026-01-21 20:58:28.08	203.23	17.90	-25.0	-24.8	18.8	0.00e+00	0	43	0	8136949760	22	13428
2026-01-21 20:58:29.09	203.42	18.03	-25.1	-24.9	19.1	0.00e+00	0	43	0	8246001664	22	13509
2026-01-21 20:58:30.10	203.60	18.16	-25.0	-24.8	18.8	0.00e+00	0	43	0	8363442176	21	14204
2026-01-21 20:58:31.11	203.79	18.30	-25.1	-24.9	18.9	0.00e+00	0	43	0	8472494080	21	14372
2026-01-21 20:58:32.12	203.98	18.43	-24.9	-24.7	18.9	0.00e+00	0	43	0	8581545984	21	14015
2026-01-21 20:58:33.13	204.18	18.57	-24.9	-24.7	18.9	0.00e+00	0	43	0	8698986496	21	14058
2026-01-21 20:58:34.13	204.37	18.70	-25.0	-24.8	19.0	0.00e+00	0	43	0	8808038400	21	14226
2026-01-21 20:58:35.14	204.56	18.84	-24.6	-24.5	19.1	0.00e+00	0	43	0	8925478912	21	13640
2026-01-21 20:58:36.15	204.76	18.97	-24.6	-24.4	19.0	0.00e+00	0	43	0	9034530816	21	13574
2026-01-21 20:58:37.16	204.96	19.11	-24.6	-24.5	19.0	0.00e+00	0	43	0	9143582720	21	13639
2026-01-21 20:58:38.17	205.16	19.25	-24.6	-24.4	19.0	0.00e+00	0	43	0	9261023232	21	13575
2026-01-21 20:58:39.18	205.37	19.39	-24.5	-24.3	19.1	0.00e+00	0	43	0	9386852352	21	13377
2026-01-21 20:58:40.19	205.57	19.53	-24.4	-24.2	19.1	0.00e+00	0	43	0	9495904256	20	14023
2026-01-21 20:58:41.20	205.78	19.67	-24.4	-24.3	19.2	0.00e+00	0	43	0	9604956160	20	14125
2026-01-21 20:58:42.21	205.99	19.81	-24.3	-24.1	19.2	0.00e+00	0	43	0	9722396672	20	13940
2026-01-21 20:58:43.21	206.20	19.95	-24.4	-24.2	19.2	0.00e+00	0	44	0	9831448576	20	13995
2026-01-21 20:58:44.22	206.42	20.09	-24.2	-24.0	19.2	0.00e+00	0	43	0	9948889088	20	13779
2026-01-21 20:58:45.23	206.63	20.24	-24.2	-24.0	19.2	0.00e+00	0	43	0	10057940992	20	13767
2026-01-21 20:58:46.24	206.85	20.38	-24.1	-24.0	19.2	0.00e+00	0	43	0	10166992896	20	13665
2026-01-21 20:58:47.25	207.07	20.52	-24.2	-24.0	19.2	0.00e+00	0	44	0	10284433408	20	13680
2026-01-21 20:58:48.25	207.30	20.67	-24.2	-24.1	19.2	0.00e+00	0	43	0	10393485312	20	13829
2026-01-21 20:58:49.26	207.52	20.81	-24.1	-23.9	19.2	0.00e+00	0	43	0	10510925824	20	13542
2026-01-21 20:58:50.27	207.75	20.96	-24.1	-24.0	19.4	0.00e+00	0	43	0	10619977728	20	13680
2026-01-21 20:58:51.28	207.98	21.11	-24.0	-23.8	19.4	0.00e+00	0	43	0	10745806848	20	13420
2026-01-21 20:58:52.29	208.21	21.25	-24.1	-23.9	19.4	0.00e+00	0	44	0	10854858752	19	14360
2026-01-21 20:58:53.30	208.45	21.40	-24.2	-24.0	19.4	0.00e+00	0	43	0	10972299264	19	14528
2026-01-21 20:58:54.31	208.69	21.55	-24.1	-23.9	19.4	0.00e+00	0	44	0	11081351168	19	14330
2026-01-21 20:58:55.31	208.93	21.70	-24.2	-24.0	19.3	0.00e+00	0	43	0	11190403072	19	14478
2026-01-21 20:58:56.32	209.17	21.85	-24.0	-23.8	19.2	0.00e+00	0	43	0	11307843584	19	14247
2026-01-21 20:58:57.33	209.42	22.00	-24.0	-23.8	19.5	0.00e+00	0	44	0	11416895488	19	14196
2026-01-21 20:58:58.34	209.66	22.15	-23.9	-23.7	19.4	0.00e+00	0	44	0	11534336000	19	14099
2026-01-21 20:58:59.35	209.91	22.30	-23.8	-23.6	19.5	0.00e+00	0	43	0	11643387904	19	13826
2026-01-21 20:59:00.35	210.17	22.45	-23.8	-23.6	19.6	0.00e+00	0	43	0	11760828416	19	13852
2026-01-21 20:59:01.36	210.42	22.60	-23.6	-23.5	19.6	0.00e+00	0	43	0	11869880320	19	13655
2026-01-21 20:59:02.37	210.68	22.76	-23.6	-23.4	19.5	0.00e+00	0	43	0	11978932224	19	13576
2026-01-21 20:59:03.38	210.94	22.91	-23.6	-23.4	19.7	0.00e+00	0	43	0	12104761344	19	13544
2026-01-21 20:59:04.39	211.21	23.07	-23.5	-23.3	19.6	0.00e+00	0	43	0	12222201856	18	14234
2026-01-21 20:59:05.40	211.48	23.22	-23.6	-23.4	19.6	0.00e+00	0	44	0	12331253760	18	14302
2026-01-21 20:59:06.41	211.75	23.38	-23.4	-23.3	19.6	0.00e+00	0	43	0	12440305664	18	14117
2026-01-21 20:59:07.41	212.02	23.53	-23.3	-23.1	19.6	0.00e+00	0	43	0	12557746176	18	13886
2026-01-21 20:59:08.42	212.29	23.69	-23.3	-23.1	19.6	0.00e+00	0	43	0	12666798080	18	13860
2026-01-21 20:59:09.43	212.57	23.84	-23.3	-23.1	19.6	0.00e+00	0	43	0	12784238592	18	13926
2026-01-21 20:59:10.44	212.86	24.00	-23.3	-23.1	19.6	0.00e+00	0	43	0	12893290496	18	13812
2026-01-21 20:59:11.45	213.14	24.16	-23.3	-23.1	19.5	0.00e+00	0	44	0	13002342400	18	13938
2026-01-21 20:59:12.46	213.43	24.32	-23.2	-23.0	19.6	0.00e+00	0	43	0	13119782912	18	13756
2026-01-21 20:59:13.47	213.72	24.48	-23.1	-22.9	19.7	0.00e+00	0	43	0	13228834816	18	13569
2026-01-21 20:59:14.47	214.01	24.64	-23.2	-23.0	19.7	0.00e+00	0	43	0	13354663936	18	13712
2026-01-21 20:59:15.48	214.31	24.80	-23.2	-23.0	19.5	0.00e+00	0	43	0	13463715840	18	13711
2026-01-21 20:59:16.49	214.61	24.96	-22.9	-22.7	19.5	0.00e+00	0	44	0	13581156352	17	14080
2026-01-21 20:59:17.50	214.92	25.12	-22.7	-22.5	19.5	0.00e+00	0	43	0	13690208256	17	13789
2026-01-21 20:59:18.51	215.23	25.28	-22.8	-22.6	19.5	0.00e+00	0	44	0	13807648768	17	13868
2026-01-21 20:59:19.51	215.54	25.44	-22.8	-22.6	19.4	0.00e+00	0	44	0	13916700672	17	13841
2026-01-21 20:59:20.52	215.85	25.60	-22.7	-22.5	19.5	0.00e+00	0	44	0	14025752576	17	13756
2026-01-21 20:59:21.53	216.17	25.76	-22.6	-22.4	19.5	0.00e+00	0	43	0	14143193088	17	13611
2026-01-21 20:59:22.54	216.49	25.92	-22.6	-22.4	19.3	0.00e+00	0	44	0	14252244992	17	13622
2026-01-21 20:59:23.55	216.82	26.09	-22.5	-22.3	19.3	0.00e+00	0	44	0	14369685504	16	14168
2026-01-21 20:59:24.56	217.15	26.25	-22.3	-22.2	19.4	0.00e+00	0	43	0	14478737408	16	13952
2026-01-21 20:59:25.57	217.48	26.41	-22.3	-22.2	19.5	0.00e+00	0	44	0	14587789312	16	13962
2026-01-21 20:59:26.58	217.82	26.58	-22.4	-22.2	19.4	0.00e+00	0	43	0	14713618432	16	14065
2026-01-21 20:59:27.59	218.16	26.74	-22.3	-22.1	19.5	0.00e+00	0	44	0	14831058944	16	13831
2026-01-21 20:59:28.60	218.50	26.90	-22.3	-22.1	19.4	0.00e+00	0	44	0	14940110848	16	13916
2026-01-21 20:59:29.61	218.85	27.07	-22.1	-21.9	19.5	0.00e+00	0	43	0	15049162752	16	13618
2026-01-21 20:59:30.62	219.20	27.23	-22.0	-21.9	19.4	0.00e+00	0	44	0	15166603264	16	13494
2026-01-21 20:59:31.62	219.55	27.39	-22.2	-22.0	19.4	0.00e+00	0	44	0	15275655168	16	13672
2026-01-21 20:59:32.63	219.91	27.56	-22.1	-21.9	19.4	0.00e+00	0	44	0	15393095680	16	13544
2026-01-21 20:59:33.64	220.28	27.72	-22.1	-22.0	19.4	0.00e+00	0	44	0	15502147584	16	13638
2026-01-21 20:59:34.65	220.65	27.88	-22.1	-21.9	19.3	0.00e+00	0	43	0	15619588096	16	13514
2026-01-21 20:59:35.66	221.02	28.05	-22.1	-21.9	19.3	0.00e+00	0	43	0	15728640000	16	13520
2026-01-21 20:59:36.67	221.39	28.21	-22.2	-22.0	19.2	0.00e+00	0	44	0	15837691904	16	13672
2026-01-21 20:59:37.68	221.77	28.38	-22.0	-21.8	19.3	0.00e+00	0	44	0	15963521024	16	13438
2026-01-21 20:59:38.68	222.15	28.54	-21.8	-21.6	19.2	0.00e+00	0	44	0	16080961536	15	13927
2026-01-21 20:59:39.69	222.54	28.70	-21.8	-21.6	19.0	0.00e+00	0	44	0	16190013440	15	13902
2026-01-21 20:59:40.70	222.93	28.87	-21.7	-21.6	19.0	0.00e+00	0	44	0	16299065344	15	13804
2026-01-21 20:59:41.71	223.33	29.03	-21.7	-21.6	19.1	0.00e+00	0	44	0	16416505856	15	13803
2026-01-21 20:59:42.72	223.73	29.19	-21.7	-21.5	19.0	0.00e+00	0	44	0	16525557760	15	13662
2026-01-21 20:59:43.72	224.13	29.35	-21.6	-21.4	19.0	0.00e+00	0	44	0	16642998272	15	13549
2026-01-21 20:59:44.73	224.54	29.51	-21.6	-21.4	19.0	0.00e+00	0	44	0	16752050176	15	13568
2026-01-21 20:59:45.74	224.96	29.68	-21.6	-21.4	18.9	0.00e+00	0	43	0	16861102080	15	13614
2026-01-21 20:59:46.75	225.38	29.84	-21.5	-21.3	18.7	0.00e+00	0	44	0	16978542592	15	13391
2026-01-21 20:59:47.75	225.80	30.00	-21.4	-21.2	18.7	0.00e+00	0	44	0	17087594496	14	14060
2026-01-21 20:59:48.76	226.22	30.16	-21.3	-21.2	18.8	0.00e+00	0	44	0	17205035008	14	13958
2026-01-21 20:59:49.77	226.65	30.32	-21.2	-21.1	18.7	0.00e+00	0	44	0	17314086912	14	13806
2026-01-21 20:59:50.78	227.09	30.48	-21.3	-21.1	18.6	0.00e+00	0	44	0	17439916032	14	13925
2026-01-21 20:59:51.79	227.53	30.63	-21.1	-20.9	18.7	0.00e+00	0	44	0	17548967936	14	13614
2026-01-21 20:59:52.79	227.97	30.79	-21.1	-20.9	18.5	0.00e+00	0	44	0	17666408448	14	13564
2026-01-21 20:59:53.80	228.42	30.95	-21.1	-20.9	18.3	0.00e+00	0	43	0	17775460352	14	13492
2026-01-21 20:59:54.81	228.88	31.10	-21.0	-20.9	18.3	0.00e+00	0	43	0	17884512256	14	13486
2026-01-21 20:59:55.82	229.34	31.26	-20.9	-20.7	18.3	0.00e+00	0	44	0	18001952768	13	14035
2026-01-21 20:59:56.83	229.80	31.41	-20.9	-20.7	18.2	0.00e+00	0	44	0	18111004672	13	14070
2026-01-21 20:59:57.83	230.27	31.56	-20.9	-20.8	18.1	0.00e+00	0	44	0	18228445184	13	14118
2026-01-21 20:59:58.84	230.74	31.71	-20.9	-20.8	17.9	0.00e+00	0	44	0	18337497088	13	14130
2026-01-21 20:59:59.85	231.22	31.86	-20.8	-20.7	18.0	0.00e+00	0	44	0	18446548992	13	13983
2026-01-21 21:00:00.86	231.70	32.01	-20.9	-20.7	17.9	0.00e+00	0	44	0	18563989504	13	13968
2026-01-21 21:00:01.87	232.19	32.16	-20.8	-20.6	17.7	0.00e+00	0	43	0	18673041408	13	13925
2026-01-21 21:00:02.88	232.68	32.31	-20.7	-20.5	17.7	0.00e+00	0	44	0	18798870528	13	13749
2026-01-21 21:00:03.88	233.17	32.45	-20.7	-20.5	17.5	0.00e+00	0	44	0	18907922432	13	13754
2026-01-21 21:00:04.90	233.68	32.60	-20.7	-20.5	17.3	0.00e+00	0	44	0	19025362944	13	13672
2026-01-21 21:00:05.90	234.18	32.74	-20.8	-20.6	17.5	0.00e+00	0	44	0	19134414848	13	13880
2026-01-21 21:00:06.91	234.69	32.88	-20.8	-20.6	17.3	0.00e+00	0	44	0	19251855360	13	13877
2026-01-21 21:00:07.92	235.21	33.02	-20.7	-20.5	17.1	0.00e+00	0	44	0	19360907264	13	13753
2026-01-21 21:00:08.93	235.73	33.16	-20.6	-20.5	17.1	0.00e+00	0	44	0	19478347776	13	13635
2026-01-21 21:00:09.94	236.25	33.29	-20.6	-20.4	16.9	0.00e+00	0	44	0	19587399680	13	13573
2026-01-21 21:00:10.95	236.78	33.43	-20.5	-20.3	17.1	0.00e+00	0	44	0	19696451584	13	13397
2026-01-21 21:00:11.95	237.31	33.56	-20.4	-20.2	16.9	0.00e+00	0	44	0	19813892096	12	14055
2026-01-21 21:00:12.96	237.85	33.69	-20.4	-20.2	16.8	0.00e+00	0	44	0	19922944000	12	14025
2026-01-21 21:00:13.97	238.39	33.82	-20.4	-20.2	16.8	0.00e+00	0	44	0	20040384512	12	14003
2026-01-21 21:00:14.98	238.94	33.94	-20.3	-20.1	16.8	0.00e+00	0	44	0	20157825024	12	13942
2026-01-21 21:00:15.99	239.49	34.07	-20.4	-20.2	17.0	0.00e+00	0	44	0	20275265536	12	14010
2026-01-21 21:00:17.00	240.05	34.19	-20.2	-20.1	16.9	0.00e+00	0	44	0	20384317440	12	13809
2026-01-21 21:00:18.00	240.60	34.31	-20.3	-20.1	16.7	0.00e+00	0	44	0	20501757952	12	13838
2026-01-21 21:00:19.02	241.17	34.42	-20.2	-20.0	16.7	0.00e+00	0	44	0	20610809856	12	13748
2026-01-21 21:00:20.02	241.73	34.54	-20.3	-20.1	16.9	0.00e+00	0	44	0	20719861760	12	13876
2026-01-21 21:00:21.03	242.31	34.65	-20.1	-20.0	17.1	0.00e+00	0	44	0	20837302272	12	13667
2026-01-21 21:00:22.04	242.89	34.76	-20.2	-20.0	17.2	0.00e+00	0	44	0	20946354176	12	13730
2026-01-21 21:00:23.05	243.47	34.87	-20.2	-20.1	17.3	0.00e+00	0	44	0	21063794688	12	13807
2026-01-21 21:00:24.06	244.05	34.97	-20.2	-20.1	17.2	0.00e+00	0	44	0	21172846592	12	13797
2026-01-21 21:00:25.07	244.64	35.07	-20.2	-20.0	17.1	0.00e+00	0	44	0	21281898496	12	13749
2026-01-21 21:00:26.08	245.23	35.17	-20.1	-19.9	17.3	0.00e+00	0	44	0	21407727616	12	13628
2026-01-21 21:00:27.09	245.83	35.26	-20.2	-20.0	17.6	0.00e+00	0	44	0	21525168128	12	13670
2026-01-21 21:00:28.10	246.43	35.36	-20.2	-20.0	17.3	0.00e+00	0	44	0	21634220032	12	13694
2026-01-21 21:00:29.10	247.03	35.45	-20.1	-20.0	17.4	0.00e+00	0	44	0	21743271936	12	13650
2026-01-21 21:00:30.11	247.63	35.53	-20.3	-20.1	17.5	0.00e+00	0	44	0	21860712448	12	13832
2026-01-21 21:00:31.12	248.24	35.61	-20.3	-20.1	17.3	0.00e+00	0	44	0	21969764352	12	13835
2026-01-21 21:00:32.13	248.86	35.69	-20.2	-20.0	17.8	0.00e+00	0	44	0	22087204864	12	13698
2026-01-21 21:00:33.14	249.47	35.77	-20.2	-20.0	17.4	0.00e+00	0	44	0	22196256768	12	13693
2026-01-21 21:00:34.15	250.09	35.84	-20.1	-19.9	17.7	0.00e+00	0	44	0	22305308672	12	13604
2026-01-21 21:00:35.15	250.71	35.91	-20.2	-20.0	17.4	0.00e+00	0	44	0	22422749184	12	13718
2026-01-21 21:00:36.16	251.33	35.98	-20.1	-19.9	17.8	0.00e+00	0	44	0	22531801088	12	13622
2026-01-21 21:00:37.17	251.96	36.04	-20.0	-19.8	17.7	0.00e+00	0	44	0	22649241600	12	13445
2026-01-21 21:00:38.18	252.59	36.10	-20.0	-19.8	17.9	0.00e+00	0	44	0	22766682112	12	13460
2026-01-21 21:00:39.19	253.22	36.16	-20.1	-19.9	17.9	0.00e+00	0	44	0	22884122624	12	13547
2026-01-21 21:00:40.19	253.85	36.21	-20.2	-20.0	17.6	0.00e+00	0	44	0	22993174528	12	13713
2026-01-21 21:00:41.20	254.49	36.26	-20.2	-20.0	17.8	0.00e+00	0	44	0	23110615040	12	13705
2026-01-21 21:00:42.21	255.13	36.30	-20.2	-20.0	17.8	0.00e+00	0	44	0	23219666944	12	13764
2026-01-21 21:00:43.22	255.77	36.35	-20.1	-19.9	17.8	0.00e+00	0	44	0	23337107456	12	13562
2026-01-21 21:00:44.23	256.41	36.38	-20.2	-20.0	18.2	0.00e+00	0	44	0	23446159360	11	14559
2026-01-21 21:00:45.24	257.05	36.42	-20.3	-20.1	18.4	0.00e+00	0	44	0	23555211264	11	14668
2026-01-21 21:00:46.25	257.70	36.45	-20.3	-20.2	18.6	0.00e+00	0	44	0	23672651776	11	14797
2026-01-21 21:00:47.26	258.34	36.47	-20.4	-20.2	18.6	0.00e+00	0	44	0	23781703680	11	14825
2026-01-21 21:00:48.27	258.99	36.50	-20.4	-20.2	18.6	0.00e+00	0	44	0	23899144192	11	14838
2026-01-21 21:00:49.28	259.64	36.51	-20.4	-20.3	18.7	0.00e+00	0	44	0	24016584704	11	14961
2026-01-21 21:00:50.28	260.28	36.53	-20.4	-20.3	18.9	0.00e+00	0	44	0	24134025216	11	14956
2026-01-21 21:00:51.29	260.93	36.54	-20.4	-20.2	19.0	0.00e+00	0	44	0	24243077120	11	14937
2026-01-21 21:00:52.30	261.58	36.55	-20.5	-20.3	19.2	0.00e+00	0	44	0	24360517632	11	14979
2026-01-21 21:00:53.31	262.22	36.55	-20.5	-20.3	19.2	0.00e+00	0	44	0	24469569536	11	15054
2026-01-21 21:00:54.31	262.87	36.55	-20.5	-20.3	19.3	0.00e+00	0	44	0	24578621440	11	15050
2026-01-21 21:00:55.32	263.52	36.54	-20.5	-20.3	19.5	0.00e+00	0	44	0	24696061952	11	15072
2026-01-21 21:00:56.33	264.17	36.53	-20.6	-20.4	19.6	0.00e+00	0	44	0	24805113856	11	15262
2026-01-21 21:00:57.34	264.81	36.52	-20.6	-20.4	19.6	0.00e+00	0	44	0	24922554368	11	15276
2026-01-21 21:00:58.35	265.46	36.51	-20.5	-20.4	19.6	0.00e+00	0	44	0	25031606272	11	15140
2026-01-21 21:00:59.36	266.11	36.49	-20.6	-20.4	19.4	0.00e+00	0	44	0	25140658176	11	15159
2026-01-21 21:01:00.37	266.75	36.46	-20.5	-20.3	19.7	0.00e+00	0	44	0	25258098688	11	15061
2026-01-21 21:01:01.38	267.40	36.43	-20.5	-20.4	19.7	0.00e+00	0	44	0	25383927808	11	15139
2026-01-21 21:01:02.39	268.04	36.40	-20.6	-20.5	19.7	0.00e+00	0	44	0	25492979712	11	15307
2026-01-21 21:01:03.40	268.69	36.37	-20.5	-20.3	19.7	0.00e+00	0	44	0	25602031616	11	15119
2026-01-21 21:01:04.40	269.32	36.33	-20.6	-20.4	19.8	0.00e+00	0	44	0	25719472128	11	15242
2026-01-21 21:01:05.41	269.96	36.28	-20.6	-20.4	19.8	0.00e+00	0	43	0	25828524032	11	15209
2026-01-21 21:01:06.42	270.60	36.24	-20.7	-20.5	19.7	0.00e+00	0	44	0	25945964544	11	15323
2026-01-21 21:01:07.43	271.23	36.19	-20.6	-20.4	20.0	0.00e+00	0	44	0	26055016448	12	14341
2026-01-21 21:01:08.44	271.87	36.13	-20.6	-20.4	19.9	0.00e+00	0	44	0	26164068352	12	14382
2026-01-21 21:01:09.45	272.50	36.07	-20.5	-20.3	19.9	0.00e+00	0	44	0	26281508864	12	14184
2026-01-21 21:01:10.46	273.12	36.01	-20.5	-20.4	19.8	0.00e+00	0	44	0	26390560768	12	14296
2026-01-21 21:01:11.47	273.75	35.95	-20.5	-20.3	19.8	0.00e+00	0	44	0	26508001280	12	14214
2026-01-21 21:01:12.47	274.37	35.88	-20.5	-20.3	19.9	0.00e+00	0	44	0	26625441792	12	14240
2026-01-21 21:01:13.48	274.99	35.81	-20.5	-20.4	19.9	0.00e+00	0	44	0	26742882304	12	14284
2026-01-21 21:01:14.49	275.61	35.74	-20.6	-20.4	19.6	0.00e+00	0	44	0	26851934208	12	14323
2026-01-21 21:01:15.50	276.22	35.66	-20.6	-20.4	19.8	0.00e+00	0	44	0	26969374720	12	14384
2026-01-21 21:01:16.51	276.83	35.58	-20.6	-20.4	19.9	0.00e+00	0	44	0	27078426624	12	14345
2026-01-21 21:01:17.51	277.43	35.49	-20.6	-20.5	19.7	0.00e+00	0	44	0	27195867136	12	14444
2026-01-21 21:01:18.52	278.04	35.40	-20.6	-20.4	19.6	0.00e+00	0	44	0	27304919040	12	14433
2026-01-21 21:01:19.53	278.64	35.31	-20.6	-20.4	19.8	0.00e+00	0	44	0	27413970944	12	14418
2026-01-21 21:01:20.54	279.24	35.22	-20.7	-20.5	19.7	0.00e+00	0	44	0	27531411456	12	14477
2026-01-21 21:01:21.55	279.83	35.12	-20.7	-20.5	19.6	0.00e+00	0	44	0	27640463360	12	14469
2026-01-21 21:01:22.56	280.42	35.02	-20.7	-20.5	19.4	0.00e+00	0	44	0	27757903872	12	14585
2026-01-21 21:01:23.56	281.00	34.92	-20.7	-20.5	19.5	0.00e+00	0	44	0	27866955776	12	14569
2026-01-21 21:01:24.57	281.59	34.82	-20.7	-20.5	19.6	0.00e+00	0	44	0	27992784896	12	14592
2026-01-21 21:01:25.59	282.17	34.71	-20.7	-20.5	19.5	0.00e+00	0	44	0	28101836800	12	14604
2026-01-21 21:01:26.60	282.74	34.60	-20.8	-20.6	19.4	0.00e+00	0	44	0	28219277312	12	14668
2026-01-21 21:01:27.60	283.31	34.49	-20.8	-20.6	19.4	0.00e+00	0	44	0	28328329216	12	14690
2026-01-21 21:01:28.61	283.88	34.37	-20.8	-20.6	19.4	0.00e+00	0	44	0	28437381120	12	14709
2026-01-21 21:01:29.62	284.44	34.25	-20.8	-20.6	19.4	0.00e+00	0	44	0	28554821632	12	14716
2026-01-21 21:01:30.63	285.00	34.13	-20.9	-20.8	19.3	0.00e+00	0	44	0	28663873536	12	14962
2026-01-21 21:01:31.64	285.55	34.01	-20.9	-20.7	19.4	0.00e+00	0	44	0	28781314048	12	14811
2026-01-21 21:01:32.65	286.10	33.89	-20.9	-20.8	19.5	0.00e+00	0	44	0	28890365952	12	14951
2026-01-21 21:01:33.66	286.64	33.76	-20.9	-20.7	19.5	0.00e+00	0	44	0	28999417856	12	14846
2026-01-21 21:01:34.67	287.18	33.63	-21.0	-20.8	19.5	0.00e+00	0	44	0	29116858368	12	15083
2026-01-21 21:01:35.68	287.72	33.50	-20.9	-20.8	19.5	0.00e+00	0	44	0	29242687488	12	14957
2026-01-21 21:01:36.69	288.25	33.37	-21.0	-20.9	19.5	0.00e+00	0	44	0	29351739392	12	15134
2026-01-21 21:01:37.69	288.77	33.23	-21.1	-20.9	19.5	0.00e+00	0	44	0	29460791296	12	15264
2026-01-21 21:01:38.70	289.29	33.10	-21.1	-20.9	19.7	0.00e+00	0	44	0	29578231808	12	15189
2026-01-21 21:01:39.71	289.81	32.96	-21.1	-20.9	19.7	0.00e+00	0	44	0	29687283712	12	15274
2026-01-21 21:01:40.72	290.32	32.82	-21.3	-21.1	19.8	0.00e+00	0	44	0	29804724224	13	14722
2026-01-21 21:01:41.73	290.83	32.68	-21.2	-21.1	19.9	0.00e+00	0	44	0	29913776128	13	14623
2026-01-21 21:01:42.74	291.34	32.53	-21.3	-21.2	19.9	0.00e+00	0	44	0	30022828032	13	14795
2026-01-21 21:01:43.75	291.83	32.39	-21.3	-21.1	20.0	0.00e+00	0	44	0	30140268544	13	14774
2026-01-21 21:01:44.76	292.33	32.24	-21.4	-21.2	19.9	0.00e+00	0	44	0	30249320448	13	14839
2026-01-21 21:01:45.77	292.82	32.10	-21.4	-21.2	20.1	0.00e+00	0	44	0	30366760960	13	14882
2026-01-21 21:01:46.78	293.30	31.95	-21.4	-21.2	20.0	0.00e+00	0	44	0	30484201472	13	14916
2026-01-21 21:01:47.78	293.78	31.80	-21.6	-21.4	20.1	0.00e+00	0	44	0	30601641984	13	15153
2026-01-21 21:01:48.79	294.25	31.65	-21.5	-21.3	20.0	0.00e+00	0	44	0	30710693888	13	15026
2026-01-21 21:01:49.80	294.72	31.50	-21.6	-21.4	20.2	0.00e+00	0	44	0	30828134400	13	15192
2026-01-21 21:01:50.81	295.19	31.34	-21.7	-21.5	20.0	0.00e+00	0	44	0	30937186304	13	15363
2026-01-21 21:01:51.82	295.65	31.19	-21.7	-21.5	20.1	0.00e+00	0	44	0	31046238208	14	14589
2026-01-21 21:01:52.83	296.11	31.03	-21.6	-21.4	20.1	0.00e+00	0	44	0	31163678720	14	14399
2026-01-21 21:01:53.84	296.56	30.88	-21.7	-21.5	20.0	0.00e+00	0	44	0	31272730624	14	14526
2026-01-21 21:01:54.84	297.00	30.72	-21.7	-21.5	20.0	0.00e+00	0	44	0	31390171136	14	14606
2026-01-21 21:01:55.85	297.44	30.57	-21.8	-21.6	20.1	0.00e+00	0	44	0	31499223040	14	14710
2026-01-21 21:01:56.86	297.88	30.41	-21.8	-21.6	19.9	0.00e+00	0	44	0	31616663552	14	14767
2026-01-21 21:01:57.87	298.32	30.25	-21.8	-21.6	20.0	0.00e+00	0	44	0	31725715456	14	14753
2026-01-21 21:01:58.88	298.75	30.09	-21.9	-21.7	19.9	0.00e+00	0	44	0	31851544576	14	14859
2026-01-21 21:01:59.89	299.17	29.93	-21.9	-21.8	20.0	0.00e+00	0	44	0	31960596480	14	14963
2026-01-21 21:02:00.90	299.59	29.77	-21.9	-21.7	19.9	0.00e+00	0	44	0	32078036992	14	14933
2026-01-21 21:02:01.91	300.01	29.61	-22.0	-21.8	19.9	0.00e+00	0	44	0	32187088896	14	15112
2026-01-21 21:02:02.91	300.41	29.45	-21.9	-21.7	19.7	0.00e+00	0	44	0	32296140800	14	14844
2026-01-21 21:02:03.92	300.82	29.29	-22.0	-21.8	19.6	0.00e+00	0	44	0	32413581312	14	15010
2026-01-21 21:02:04.93	301.22	29.12	-22.0	-21.8	19.5	0.00e+00	0	44	0	32522633216	14	15068
2026-01-21 21:02:05.94	301.62	28.96	-22.0	-21.8	19.6	0.00e+00	0	44	0	32640073728	14	15061
2026-01-21 21:02:06.95	302.02	28.80	-22.1	-21.9	19.6	0.00e+00	0	44	0	32749125632	14	15250
2026-01-21 21:02:07.96	302.41	28.63	-22.1	-21.9	19.5	0.00e+00	0	44	0	32858177536	14	15233
2026-01-21 21:02:08.97	302.79	28.47	-22.1	-21.9	19.5	0.00e+00	0	44	0	32975618048	14	15290
2026-01-21 21:02:09.98	303.17	28.31	-22.2	-22.0	19.5	0.00e+00	0	44	0	33101447168	14	15384
2026-01-21 21:02:10.99	303.55	28.14	-22.3	-22.2	19.4	0.00e+00	0	44	0	33210499072	15	14794
2026-01-21 21:02:12.00	303.93	27.98	-22.4	-22.2	19.3	0.00e+00	0	44	0	33319550976	15	14898
2026-01-21 21:02:13.00	304.29	27.82	-22.5	-22.3	19.3	0.00e+00	0	44	0	33436991488	15	15037
2026-01-21 21:02:14.01	304.66	27.66	-22.5	-22.3	19.4	0.00e+00	0	44	0	33546043392	15	14988
2026-01-21 21:02:15.02	305.02	27.49	-22.5	-22.3	19.4	0.00e+00	0	44	0	33663483904	15	14994
2026-01-21 21:02:16.03	305.37	27.33	-22.6	-22.4	19.4	0.00e+00	0	44	0	33772535808	15	15175
2026-01-21 21:02:17.04	305.73	27.16	-22.6	-22.4	19.1	0.00e+00	0	44	0	33881587712	15	15258
2026-01-21 21:02:18.05	306.08	27.00	-22.7	-22.5	19.2	0.00e+00	0	44	0	33999028224	15	15354
2026-01-21 21:02:19.06	306.42	26.84	-22.7	-22.5	19.3	0.00e+00	0	44	0	34108080128	15	15349
2026-01-21 21:02:20.07	306.77	26.67	-22.8	-22.7	19.2	0.00e+00	0	44	0	34225520640	16	14781
2026-01-21 21:02:21.08	307.10	26.51	-22.9	-22.7	19.2	0.00e+00	0	44	0	34342961152	16	14924
2026-01-21 21:02:22.09	307.44	26.35	-23.0	-22.8	19.2	0.00e+00	0	44	0	34460401664	16	15019
2026-01-21 21:02:23.10	307.77	26.19	-23.0	-22.8	19.4	0.00e+00	0	44	0	34569453568	16	15066
2026-01-21 21:02:24.11	308.10	26.02	-23.0	-22.8	18.9	0.00e+00	0	44	0	34686894080	16	15099
2026-01-21 21:02:25.11	308.42	25.86	-23.1	-23.0	19.2	0.00e+00	0	44	0	34795945984	16	15316
2026-01-21 21:02:26.12	308.74	25.70	-23.2	-23.1	18.9	0.00e+00	0	44	0	34913386496	17	14629
2026-01-21 21:02:27.13	309.05	25.54	-23.3	-23.1	19.0	0.00e+00	0	44	0	35022438400	17	14692
2026-01-21 21:02:28.14	309.37	25.38	-23.3	-23.2	18.5	0.00e+00	0	44	0	35131490304	17	14789
2026-01-21 21:02:29.15	309.68	25.22	-23.4	-23.2	18.4	0.00e+00	0	44	0	35248930816	17	14840
2026-01-21 21:02:30.16	309.98	25.06	-23.4	-23.3	18.7	0.00e+00	0	44	0	35357982720	17	14973
2026-01-21 21:02:31.16	310.28	24.90	-23.4	-23.2	18.3	0.00e+00	0	44	0	35475423232	17	14939
2026-01-21 21:02:32.17	310.58	24.74	-23.4	-23.3	18.0	0.00e+00	0	44	0	35584475136	17	14979
2026-01-21 21:02:33.18	310.88	24.58	-23.5	-23.3	18.0	0.00e+00	0	44	0	35710304256	17	15045
2026-01-21 21:02:34.19	311.17	24.42	-23.6	-23.4	18.3	0.00e+00	0	44	0	35819356160	17	15232
2026-01-21 21:02:35.20	311.46	24.26	-23.6	-23.5	18.4	0.00e+00	0	44	0	35936796672	17	15318
2026-01-21 21:02:36.20	311.75	24.11	-23.6	-23.4	18.2	0.00e+00	0	44	0	36045848576	17	15291
2026-01-21 21:02:37.21	312.03	23.95	-23.7	-23.5	18.0	0.00e+00	0	44	0	36154900480	18	14574
2026-01-21 21:02:38.22	312.31	23.79	-23.7	-23.6	17.9	0.00e+00	0	44	0	36272340992	18	14620
2026-01-21 21:02:39.22	312.59	23.64	-23.8	-23.6	18.0	0.00e+00	0	44	0	36381392896	18	14743
2026-01-21 21:02:40.23	312.86	23.48	-23.8	-23.6	17.9	0.00e+00	0	44	0	36498833408	18	14758
2026-01-21 21:02:41.24	313.13	23.33	-23.9	-23.7	17.9	0.00e+00	0	44	0	36607885312	18	14817
2026-01-21 21:02:42.25	313.40	23.17	-23.9	-23.7	17.9	0.00e+00	0	44	0	36716937216	18	14939
2026-01-21 21:02:43.26	313.67	23.02	-24.0	-23.8	17.8	0.00e+00	0	44	0	36834377728	18	15056
2026-01-21 21:02:44.26	313.93	22.87	-24.1	-23.9	17.7	0.00e+00	0	44	0	36943429632	18	15237
2026-01-21 21:02:45.27	314.19	22.71	-24.1	-23.9	18.0	0.00e+00	0	44	0	37060870144	18	15201
2026-01-21 21:02:46.28	314.45	22.56	-24.1	-23.9	18.2	0.00e+00	0	44	0	37178310656	18	15196
2026-01-21 21:02:47.29	314.70	22.41	-24.2	-24.0	18.0	0.00e+00	0	44	0	37295751168	18	15375
2026-01-21 21:02:48.30	314.95	22.26	-24.1	-24.0	17.7	0.00e+00	0	44	0	37404803072	18	15327
2026-01-21 21:02:49.30	315.20	22.11	-24.1	-23.9	17.9	0.00e+00	0	44	0	37522243584	18	15272
2026-01-21 21:02:50.31	315.45	21.96	-24.3	-24.1	18.1	0.00e+00	0	44	0	37631295488	19	14667
2026-01-21 21:02:51.32	315.69	21.81	-24.4	-24.2	18.1	0.00e+00	0	44	0	37740347392	19	14841
2026-01-21 21:02:52.33	315.93	21.66	-24.3	-24.2	18.0	0.00e+00	0	44	0	37857787904	19	14780
2026-01-21 21:02:53.33	316.17	21.51	-24.3	-24.2	17.9	0.00e+00	0	44	0	37966839808	19	14779
2026-01-21 21:02:54.34	316.41	21.36	-24.3	-24.1	18.2	0.00e+00	0	44	0	38084280320	19	14757
2026-01-21 21:02:55.35	316.64	21.22	-24.4	-24.3	17.8	0.00e+00	0	44	0	38193332224	19	14973
2026-01-21 21:02:56.36	316.87	21.07	-24.5	-24.3	17.9	0.00e+00	0	44	0	38310772736	19	15038
2026-01-21 21:02:57.37	317.10	20.92	-24.6	-24.4	17.9	0.00e+00	0	44	0	38419824640	19	15263
2026-01-21 21:02:58.37	317.33	20.78	-24.7	-24.5	18.0	0.00e+00	0	44	0	38545653760	19	15346
2026-01-21 21:02:59.38	317.55	20.63	-24.8	-24.6	17.5	0.00e+00	0	44	0	38654705664	20	14694
2026-01-21 21:03:00.39	317.78	20.49	-24.6	-24.4	17.8	0.00e+00	0	44	0	38772146176	20	14400
2026-01-21 21:03:01.40	318.00	20.35	-24.7	-24.5	17.5	0.00e+00	0	44	0	38881198080	20	14574
2026-01-21 21:03:02.41	318.21	20.20	-24.7	-24.6	17.6	0.00e+00	0	44	0	38990249984	20	14640
2026-01-21 21:03:03.41	318.43	20.06	-24.8	-24.7	17.4	0.00e+00	0	44	0	39107690496	20	14805
2026-01-21 21:03:04.42	318.64	19.92	-24.9	-24.7	17.4	0.00e+00	0	44	0	39216742400	20	14844
2026-01-21 21:03:05.43	318.85	19.78	-24.9	-24.7	17.5	0.00e+00	0	44	0	39334182912	20	14822
2026-01-21 21:03:06.43	319.06	19.64	-24.9	-24.7	17.3	0.00e+00	0	44	0	39443234816	20	14920
2026-01-21 21:03:07.44	319.27	19.50	-25.1	-24.9	17.4	0.00e+00	0	44	0	39552286720	20	15195
2026-01-21 21:03:08.45	319.47	19.36	-25.1	-24.9	17.6	0.00e+00	0	44	0	39669727232	20	15220
2026-01-21 21:03:09.46	319.68	19.22	-25.1	-24.9	17.4	0.00e+00	0	44	0	39778779136	20	15279
2026-01-21 21:03:10.47	319.88	19.09	-25.2	-25.1	17.3	0.00e+00	0	44	0	39896219648	21	14641
2026-01-21 21:03:11.48	320.08	18.95	-25.3	-25.1	17.4	0.00e+00	0	44	0	40013660160	21	14674
2026-01-21 21:03:12.49	320.27	18.81	-25.2	-25.0	17.3	0.00e+00	0	44	0	40131100672	21	14587
2026-01-21 21:03:13.50	320.47	18.68	-25.3	-25.2	17.3	0.00e+00	0	44	0	40240152576	21	14783
2026-01-21 21:03:14.50	320.66	18.54	-25.3	-25.1	17.5	0.00e+00	0	44	0	40357593088	21	14750
2026-01-21 21:03:15.51	320.85	18.41	-25.4	-25.2	17.6	0.00e+00	0	44	0	40466644992	21	14888
2026-01-21 21:03:16.52	321.04	18.27	-25.4	-25.3	17.8	0.00e+00	0	44	0	40575696896	21	14963
2026-01-21 21:03:17.53	321.23	18.14	-25.5	-25.3	17.8	0.00e+00	0	44	0	40693137408	21	15063
2026-01-21 21:03:18.54	321.41	18.01	-25.5	-25.3	17.9	0.00e+00	0	44	0	40802189312	21	15080
2026-01-21 21:03:19.55	321.60	17.87	-25.5	-25.3	18.0	0.00e+00	0	44	0	40919629824	21	15097
2026-01-21 21:03:20.55	321.78	17.74	-25.7	-25.5	18.0	0.00e+00	0	44	0	41028681728	21	15431
2026-01-21 21:03:21.56	321.96	17.61	-25.8	-25.6	17.8	0.00e+00	0	44	0	41137733632	22	14686
2026-01-21 21:03:22.57	322.14	17.48	-25.8	-25.6	17.8	0.00e+00	0	44	0	41255174144	22	14755
2026-01-21 21:03:23.58	322.31	17.35	-25.8	-25.6	18.2	0.00e+00	0	44	0	41381003264	22	14716
2026-01-21 21:03:24.58	322.49	17.23	-25.9	-25.7	18.2	0.00e+00	0	44	0	41490055168	22	14842
2026-01-21 21:03:25.59	322.66	17.10	-26.0	-25.8	18.0	0.00e+00	0	44	0	41599107072	22	14993
2026-01-21 21:03:26.60	322.83	16.97	-26.0	-25.8	17.8	0.00e+00	0	44	0	41716547584	22	15113
2026-01-21 21:03:27.61	323.00	16.84	-26.0	-25.8	18.0	0.00e+00	0	44	0	41825599488	22	15071
2026-01-21 21:03:28.62	323.17	16.72	-26.1	-26.0	18.2	0.00e+00	0	44	0	41943040000	22	15339
2026-01-21 21:03:29.63	323.34	16.59	-26.1	-25.9	18.0	0.00e+00	0	44	0	42052091904	22	15202
2026-01-21 21:03:30.64	323.51	16.47	-26.1	-25.9	17.9	0.00e+00	0	44	0	42169532416	22	15290
2026-01-21 21:03:31.65	323.67	16.34	-26.2	-26.1	18.2	0.00e+00	0	44	0	42278584320	23	14608
2026-01-21 21:03:32.65	323.83	16.22	-26.3	-26.1	18.1	0.00e+00	0	44	0	42387636224	23	14719
2026-01-21 21:03:33.66	323.99	16.09	-26.5	-26.3	18.1	0.00e+00	0	44	0	42505076736	23	15054
2026-01-21 21:03:34.67	324.15	15.97	-26.4	-26.3	18.2	0.00e+00	0	44	0	42614128640	23	14986
2026-01-21 21:03:35.68	324.31	15.85	-26.5	-26.3	18.2	0.00e+00	0	44	0	42739957760	23	15043
2026-01-21 21:03:36.69	324.47	15.73	-26.5	-26.3	18.0	0.00e+00	0	44	0	42849009664	23	15118
2026-01-21 21:03:37.70	324.62	15.61	-26.6	-26.5	18.1	0.00e+00	0	44	0	42966450176	23	15306
2026-01-21 21:03:38.70	324.78	15.49	-26.6	-26.4	18.1	0.00e+00	0	44	0	43075502080	23	15192
2026-01-21 21:03:39.71	324.93	15.37	-26.7	-26.5	18.1	0.00e+00	0	44	0	43192942592	24	14589
2026-01-21 21:03:40.72	325.08	15.25	-26.6	-26.4	18.3	0.00e+00	0	44	0	43301994496	24	14428
2026-01-21 21:03:41.73	325.23	15.13	-26.8	-26.6	18.1	0.00e+00	0	44	0	43411046400	24	14692
2026-01-21 21:03:42.74	325.38	15.01	-27.0	-26.8	18.1	0.00e+00	0	44	0	43528486912	24	15021
2026-01-21 21:03:43.75	325.53	14.89	-26.8	-26.6	18.3	0.00e+00	0	44	0	43637538816	24	14746
2026-01-21 21:03:44.76	325.67	14.78	-27.0	-26.8	18.2	0.00e+00	0	44	0	43754979328	24	15020
2026-01-21 21:03:45.77	325.82	14.66	-26.9	-26.7	18.2	0.00e+00	0	44	0	43864031232	24	14895
2026-01-21 21:03:46.78	325.96	14.54	-27.0	-26.8	18.3	0.00e+00	0	44	0	43989860352	24	15037
2026-01-21 21:03:47.79	326.10	14.43	-27.0	-26.8	18.3	0.00e+00	0	44	0	44098912256	24	15120
2026-01-21 21:03:48.79	326.24	14.31	-27.0	-26.9	18.3	0.00e+00	0	44	0	44216352768	24	15138
2026-01-21 21:03:49.80	326.38	14.20	-27.2	-27.0	18.4	0.00e+00	0	44	0	44325404672	24	15387
2026-01-21 21:03:50.81	326.52	14.09	-27.1	-27.0	18.4	0.00e+00	0	44	0	44434456576	24	15326
2026-01-21 21:03:51.82	326.66	13.97	-27.1	-26.9	18.3	0.00e+00	0	44	0	44551897088	24	15272
2026-01-21 21:03:52.83	326.79	13.86	-27.2	-27.1	18.3	0.00e+00	0	44	0	44660948992	25	14646
2026-01-21 21:03:53.84	326.93	13.75	-27.3	-27.1	18.2	0.00e+00	0	44	0	44778389504	25	14691
2026-01-21 21:03:54.84	327.06	13.64	-27.5	-27.3	18.2	0.00e+00	0	44	0	44887441408	25	15027
2026-01-21 21:03:55.85	327.19	13.53	-27.5	-27.3	18.3	1.90e-06	0	44	0	44996493312	25	15014
2026-01-21 21:03:56.86	327.32	13.42	-27.5	-27.3	19.1	0.00e+00	0	44	0	45113933824	25	15030
2026-01-21 21:03:57.87	327.46	13.31	-53.5	-55.9	6.2	0.00e+00	0	44	104	45164265472	77	20247
2026-01-21 21:03:58.87	327.58	13.20	-53.5	-55.8	6.2	0.00e+00	0	44	104	45164265472	77	20026
2026-01-21 21:03:59.88	327.71	13.09	-53.5	-55.7	6.2	0.00e+00	0	43	104	45164265472	77	19879
2026-01-21 21:04:00.89	327.84	12.98	-53.4	-55.7	6.2	0.00e+00	0	44	104	45164265472	77	19818
2026-01-21 21:04:01.90	327.96	12.87	-53.7	-55.8	6.2	0.00e+00	0	44	104	45164265472	77	19966
2026-01-21 21:04:02.91	328.09	12.77	-53.6	-55.7	6.2	0.00e+00	0	44	104	45164265472	77	19912
2026-01-21 21:04:03.92	328.21	12.66	-53.6	-55.8	6.2	0.00e+00	0	44	104	45164265472	77	19990
2026-01-21 21:04:04.93	328.34	12.55	-53.6	-55.7	6.2	0.00e+00	0	44	104	45164265472	77	19924
2026-01-21 21:04:05.93	328.46	12.45	-53.5	-55.7	6.2	0.00e+00	0	44	104	45164265472	77	19837
2026-01-21 21:04:06.94	328.58	12.34	-53.6	-55.7	6.2	0.00e+00	0	43	104	45164265472	77	19929
2026-01-21 21:04:07.95	328.70	12.24	-53.6	-55.7	6.2	0.00e+00	0	44	104	45164265472	77	19906
2026-01-21 21:04:08.96	328.82	12.13	-53.6	-55.7	6.2	0.00e+00	0	44	104	45164265472	77	19812
2026-01-21 21:04:09.97	328.94	12.03	-53.4	-55.6	6.2	0.00e+00	0	44	104	45164265472	77	19686
2026-01-21 21:04:10.98	329.05	11.92	-53.5	-55.7	6.2	0.00e+00	0	44	104	45164265472	77	19728
2026-01-21 21:04:11.99	329.17	11.82	-53.5	-55.7	6.2	0.00e+00	0	44	104	45164265472	77	19706
2026-01-21 21:04:12.99	329.28	11.72	-53.5	-55.7	6.2	0.00e+00	0	44	104	45164265472	77	19711
2026-01-21 21:04:14.00	329.40	11.62	-53.4	-55.6	6.2	0.00e+00	0	44	104	45164265472	77	19654
2026-01-21 21:04:15.01	329.51	11.51	-53.5	-55.6	6.2	0.00e+00	0	43	104	45164265472	77	19675
2026-01-21 21:04:16.02	329.63	11.41	-53.5	-55.6	6.2	0.00e+00	0	43	104	45164265472	77	19666
2026-01-21 21:04:17.03	329.74	11.31	-53.5	-55.6	6.2	0.00e+00	0	44	104	45164265472	77	19537
2026-01-21 21:04:18.04	329.85	11.21	-53.3	-55.6	6.2	0.00e+00	0	44	104	45164265472	77	19559
2026-01-21 21:04:19.05	329.96	11.11	-53.5	-55.6	6.2	0.00e+00	0	43	104	45164265472	77	19561
2026-01-21 21:04:20.05	330.07	11.01	-53.5	-55.6	6.2	0.00e+00	0	43	104	45164265472	77	19589
2026-01-21 21:04:21.06	330.18	10.91	-53.4	-55.6	6.2	0.00e+00	0	43	104	45164265472	77	19547
2026-01-21 21:04:22.07	330.28	10.82	-53.3	-55.5	6.2	0.00e+00	0	43	104	45164265472	77	19452
2026-01-21 21:04:23.08	330.39	10.72	-53.4	-55.5	6.2	0.00e+00	0	43	104	45164265472	77	19470
2026-01-21 21:04:24.09	330.50	10.62	-53.4	-55.6	6.2	0.00e+00	0	43	104	45164265472	77	19512
2026-01-21 21:04:25.09	330.60	10.52	-53.4	-55.5	6.2	0.00e+00	0	43	104	45164265472	77	19401
2026-01-21 21:04:26.10	330.70	10.43	-53.3	-55.5	6.2	0.00e+00	0	43	104	45164265472	77	19429
2026-01-21 21:04:27.11	330.81	10.33	-53.4	-55.5	6.2	0.00e+00	0	43	104	45164265472	77	19440
2026-01-21 21:04:28.12	330.91	10.23	-53.4	-55.5	6.2	0.00e+00	0	43	104	45164265472	77	19412
2026-01-21 21:04:29.13	331.01	10.14	-53.3	-55.5	6.2	0.00e+00	0	43	104	45164265472	77	19391
2026-01-21 21:04:30.14	331.11	10.04	-53.2	-55.5	6.2	0.00e+00	0	44	104	45164265472	77	19350
2026-01-21 21:04:31.15	331.21	9.95	-53.3	-55.5	6.2	0.00e+00	0	43	104	45164265472	77	19288
2026-01-21 21:04:32.16	331.31	9.85	-53.3	-55.5	6.2	0.00e+00	0	43	104	45164265472	77	19335
2026-01-21 21:04:33.17	331.41	9.76	-53.3	-55.5	6.2	0.00e+00	0	43	104	45164265472	77	19259
2026-01-21 21:04:34.18	331.51	9.67	-53.2	-55.4	6.2	0.00e+00	0	43	104	45164265472	77	19230
2026-01-21 21:04:35.19	331.61	9.57	-53.3	-55.4	6.2	0.00e+00	0	43	104	45164265472	77	19232
2026-01-21 21:04:36.20	331.71	9.48	-53.3	-55.4	6.2	0.00e+00	0	43	104	45164265472	77	19210
2026-01-21 21:04:37.20	331.80	9.39	-53.3	-55.4	6.2	0.00e+00	0	43	104	45164265472	77	19129
2026-01-21 21:04:38.21	331.90	9.30	-53.2	-55.4	6.2	0.00e+00	0	43	104	45164265472	77	19155
2026-01-21 21:04:39.22	331.99	9.21	-53.3	-55.4	6.2	0.00e+00	0	43	104	45164265472	77	19123
2026-01-21 21:04:40.23	332.09	9.11	-53.3	-55.4	6.2	0.00e+00	0	43	104	45164265472	77	19157
2026-01-21 21:04:41.23	332.18	9.02	-53.2	-55.4	6.2	0.00e+00	0	43	104	45164265472	77	19041
2026-01-21 21:04:42.24	332.27	8.93	-53.1	-55.3	6.2	0.00e+00	0	43	104	45164265472	77	18950
2026-01-21 21:04:43.24	332.36	8.84	-53.2	-55.4	6.2	0.00e+00	0	43	104	45164265472	77	19040
2026-01-21 21:04:44.26	332.45	8.75	-53.2	-55.3	6.2	0.00e+00	0	43	104	45164265472	77	19015
2026-01-21 21:04:45.26	332.54	8.66	-53.2	-55.3	6.2	0.00e+00	0	43	104	45164265472	77	18944
2026-01-21 21:04:46.27	332.63	8.58	-53.1	-55.3	6.2	0.00e+00	0	43	104	45164265472	77	19012
2026-01-21 21:04:47.28	332.72	8.49	-53.1	-55.3	6.2	0.00e+00	0	43	104	45164265472	77	18890
2026-01-21 21:04:48.29	332.81	8.40	-53.2	-55.3	6.2	0.00e+00	0	43	104	45164265472	77	18942
2026-01-21 21:04:49.29	332.90	8.31	-53.2	-55.3	6.2	0.00e+00	0	43	104	45164265472	77	18874
2026-01-21 21:04:50.30	332.99	8.22	-53.2	-55.3	6.2	0.00e+00	0	43	104	45164265472	77	18969
2026-01-21 21:04:51.31	333.08	8.14	-53.1	-55.3	6.2	0.00e+00	0	43	104	45164265472	77	18898
2026-01-21 21:04:52.31	333.16	8.05	-53.1	-55.3	6.2	0.00e+00	0	43	104	45164265472	77	18834
2026-01-21 21:04:53.32	333.25	7.96	-53.1	-55.3	6.2	0.00e+00	0	43	104	45164265472	77	18835
2026-01-21 21:04:54.33	333.33	7.88	-53.1	-55.3	6.2	0.00e+00	0	43	104	45164265472	77	18939
2026-01-21 21:04:55.34	333.42	7.79	-53.1	-55.2	6.2	0.00e+00	0	43	104	45164265472	77	18797
2026-01-21 21:04:56.35	333.50	7.70	-53.1	-55.2	6.2	0.00e+00	0	43	104	45164265472	77	18802
2026-01-21 21:04:57.36	333.59	7.62	-53.1	-55.2	6.2	0.00e+00	0	43	104	45164265472	77	18750
2026-01-21 21:04:58.37	333.67	7.53	-53.0	-55.2	6.2	0.00e+00	0	43	104	45164265472	77	18682
2026-01-21 21:04:59.38	333.75	7.45	-53.1	-55.2	6.2	0.00e+00	0	43	104	45164265472	77	18720
2026-01-21 21:05:00.38	333.83	7.37	-53.1	-55.2	6.2	0.00e+00	0	43	104	45164265472	77	18629
2026-01-21 21:05:01.39	333.91	7.28	-53.1	-55.2	6.2	0.00e+00	0	43	104	45164265472	77	18727
2026-01-21 21:05:02.40	333.99	7.20	-53.0	-55.2	6.2	0.00e+00	0	43	104	45164265472	77	18683
2026-01-21 21:05:03.41	334.08	7.12	-53.0	-55.2	6.2	0.00e+00	0	43	104	45164265472	77	18620
2026-01-21 21:05:04.42	334.15	7.03	-53.0	-55.2	6.2	0.00e+00	0	43	104	45164265472	77	18623
2026-01-21 21:05:05.43	334.23	6.95	-53.0	-55.2	6.2	0.00e+00	0	43	104	45164265472	77	18614
2026-01-21 21:05:06.43	334.31	6.87	-53.0	-55.2	6.2	0.00e+00	0	43	104	45164265472	77	18662
2026-01-21 21:05:07.44	334.39	6.79	-53.0	-55.2	6.2	0.00e+00	0	43	104	45164265472	77	18626
2026-01-21 21:05:08.45	334.47	6.70	-53.0	-55.1	6.2	0.00e+00	0	43	104	45164265472	77	18512
2026-01-21 21:05:09.46	334.55	6.62	-53.0	-55.1	6.2	0.00e+00	0	43	104	45164265472	77	18437
2026-01-21 21:05:10.47	334.62	6.54	-53.0	-55.1	6.2	0.00e+00	0	43	104	45164265472	77	18515
2026-01-21 21:05:11.48	334.70	6.46	-52.9	-55.1	6.2	0.00e+00	0	43	104	45164265472	77	18477
2026-01-21 21:05:12.49	334.77	6.38	-52.9	-55.0	6.2	0.00e+00	0	43	104	45164265472	77	18332
2026-01-21 21:05:13.50	334.85	6.30	-52.9	-55.1	6.2	0.00e+00	0	43	104	45164265472	77	18411
2026-01-21 21:05:14.51	334.92	6.22	-52.9	-55.0	6.2	0.00e+00	0	43	104	45164265472	77	18303
2026-01-21 21:05:15.51	335.00	6.14	-52.9	-55.0	6.2	0.00e+00	0	43	104	45164265472	77	18325
2026-01-21 21:05:16.52	335.07	6.06	-52.7	-54.8	6.2	0.00e+00	0	43	104	45164265472	77	17886
2026-01-21 21:05:17.53	335.15	5.98	-52.9	-55.0	6.2	0.00e+00	0	43	104	45164265472	76	19341
2026-01-21 21:05:18.54	335.22	5.90	-52.7	-54.8	6.2	0.00e+00	0	43	104	45164265472	76	18972
2026-01-21 21:05:19.55	335.29	5.82	-52.1	-54.2	6.2	0.00e+00	0	43	104	45164265472	76	17703
2026-01-21 21:05:20.56	335.36	5.74	-52.1	-54.2	6.2	0.00e+00	0	43	104	45164265472	76	17675
2026-01-21 21:05:21.56	335.43	5.67	-52.2	-54.3	6.2	0.00e+00	0	43	104	45164265472	76	17915
2026-01-21 21:05:22.57	335.51	5.59	-52.3	-54.4	6.2	0.00e+00	0	43	104	45164265472	76	18090
2026-01-21 21:05:23.58	335.58	5.51	-52.6	-54.7	6.2	0.00e+00	0	43	104	45164265472	76	18729
2026-01-21 21:05:24.59	335.65	5.43	-52.5	-54.7	6.2	0.00e+00	0	43	104	45164265472	76	18626
2026-01-21 21:05:25.60	335.72	5.36	-52.8	-54.9	6.2	0.00e+00	0	43	104	45164265472	76	19216
2026-01-21 21:05:26.60	335.79	5.28	-52.7	-54.8	6.2	0.00e+00	0	43	104	45164265472	76	18982
2026-01-21 21:05:27.61	335.86	5.20	-52.7	-54.8	6.2	0.00e+00	0	43	104	45164265472	76	18985
2026-01-21 21:05:28.62	335.92	5.13	-52.6	-54.7	6.2	0.00e+00	0	43	104	45164265472	76	18736
2026-01-21 21:05:29.63	335.99	5.05	-52.7	-54.8	6.2	0.00e+00	0	43	104	45164265472	76	19014
2026-01-21 21:05:30.63	336.06	4.98	-52.8	-54.9	6.2	0.00e+00	0	43	104	45164265472	76	19255
2026-01-21 21:05:31.64	336.13	4.90	-53.2	-55.2	6.2	0.00e+00	0	43	104	45164265472	76	19887
2026-01-21 21:05:32.65	336.19	4.83	-53.5	-55.6	6.2	0.00e+00	0	43	104	45164265472	77	19521
2026-01-21 21:05:33.66	336.26	4.75	-53.7	-55.8	6.2	0.00e+00	0	43	104	45164265472	77	19983
2026-01-21 21:05:34.67	336.33	4.68	-53.8	-55.9	6.2	0.00e+00	0	43	104	45164265472	78	19226
2026-01-21 21:05:35.67	336.39	4.60	-53.9	-56.0	6.2	0.00e+00	0	43	104	45164265472	78	19434
2026-01-21 21:05:36.68	336.46	4.53	-54.1	-56.2	6.2	0.00e+00	0	43	104	45164265472	78	19764
2026-01-21 21:05:37.69	336.52	4.45	-54.1	-56.2	6.2	0.00e+00	0	43	104	45164265472	78	19807
2026-01-21 21:05:38.70	336.59	4.38	-54.1	-56.2	6.2	0.00e+00	0	43	104	45164265472	78	19849
2026-01-21 21:05:39.71	336.65	4.31	-54.1	-56.2	6.2	0.00e+00	0	43	104	45164265472	78	19875
2026-01-21 21:05:40.72	336.72	4.23	-54.1	-56.2	6.2	0.00e+00	0	43	104	45164265472	78	19835
2026-01-21 21:05:41.73	336.78	4.16	-54.0	-56.1	6.2	0.00e+00	0	43	104	45164265472	78	19666
2026-01-21 21:05:42.73	336.84	4.09	-53.9	-56.1	6.2	0.00e+00	0	43	104	45164265472	78	19524
2026-01-21 21:05:43.74	336.91	4.02	-53.8	-56.0	6.2	0.00e+00	0	43	104	45164265472	78	19330
2026-01-21 21:05:44.75	336.97	3.94	-53.9	-56.0	6.2	0.00e+00	0	43	104	45164265472	78	19321
2026-01-21 21:05:45.76	337.03	3.87	-53.9	-56.1	6.2	0.00e+00	0	43	104	45164265472	78	19520
2026-01-21 21:05:46.76	337.09	3.80	-53.9	-56.1	6.2	0.00e+00	0	43	104	45164265472	78	19584
2026-01-21 21:05:47.77	337.15	3.73	-54.0	-56.1	6.2	0.00e+00	0	43	104	45164265472	78	19532
2026-01-21 21:05:48.78	337.21	3.66	-54.0	-56.1	6.2	0.00e+00	0	43	104	45164265472	78	19583
2026-01-21 21:05:49.79	337.28	3.58	-54.0	-56.1	6.2	0.00e+00	0	43	104	45164265472	78	19604
2026-01-21 21:05:50.80	337.34	3.51	-54.0	-56.1	6.2	0.00e+00	0	43	104	45164265472	78	19634
2026-01-21 21:05:51.81	337.40	3.44	-54.0	-56.1	6.2	0.00e+00	0	43	104	45164265472	78	19556
2026-01-21 21:05:52.82	337.46	3.37	-53.9	-56.0	6.2	0.00e+00	0	43	104	45164265472	78	19449
2026-01-21 21:05:53.82	337.51	3.30	-53.9	-56.0	6.2	0.00e+00	0	43	104	45164265472	78	19432
2026-01-21 21:05:54.83	337.57	3.23	-53.9	-56.0	6.2	0.00e+00	0	43	104	45164265472	78	19374
2026-01-21 21:05:55.84	337.63	3.16	-53.9	-56.0	6.2	0.00e+00	0	43	104	45164265472	78	19382
2026-01-21 21:05:56.85	337.69	3.09	-53.9	-56.0	6.2	0.00e+00	0	43	104	45164265472	78	19280
2026-01-21 21:05:57.85	337.75	3.02	-53.8	-56.0	6.2	0.00e+00	0	43	104	45164265472	78	19350
2026-01-21 21:05:58.86	337.81	2.95	-53.7	-56.0	6.2	0.00e+00	0	43	104	45164265472	78	19261
2026-01-21 21:05:59.88	337.87	2.88	-53.6	-55.8	6.2	0.00e+00	0	43	104	45164265472	78	19007
2026-01-21 21:06:00.88	337.92	2.82	-53.5	-55.8	6.2	0.00e+00	0	43	104	45164265472	78	19033
2026-01-21 21:06:01.89	337.98	2.75	-53.6	-55.9	6.2	0.00e+00	0	43	104	45164265472	78	19078
2026-01-21 21:06:02.90	338.04	2.68	-53.7	-55.9	6.2	0.00e+00	0	43	104	45164265472	78	19158
2026-01-21 21:06:03.91	338.09	2.61	-53.8	-55.9	6.2	0.00e+00	0	43	104	45164265472	78	19242
2026-01-21 21:06:04.92	338.15	2.54	-53.8	-55.9	6.2	0.00e+00	0	43	104	45164265472	78	19138
2026-01-21 21:06:05.93	338.20	2.47	-53.8	-55.9	6.2	0.00e+00	0	43	104	45164265472	78	19190
2026-01-21 21:06:06.93	338.26	2.41	-53.8	-55.9	6.2	0.00e+00	0	43	104	45164265472	78	19208
2026-01-21 21:06:07.94	338.31	2.34	-53.8	-55.9	6.2	0.00e+00	0	43	104	45164265472	78	19226
2026-01-21 21:06:08.95	338.37	2.27	-53.8	-55.9	6.2	0.00e+00	0	43	104	45164265472	78	19210
2026-01-21 21:06:09.96	338.42	2.20	-53.8	-55.9	6.2	0.00e+00	0	43	104	45164265472	78	19186
2026-01-21 21:06:10.97	338.48	2.14	-53.8	-55.9	6.2	0.00e+00	0	43	104	45164265472	78	19186
2026-01-21 21:06:11.98	338.53	2.07	-53.8	-55.9	6.2	0.00e+00	0	43	104	45164265472	78	19208
2026-01-21 21:06:12.99	338.59	2.00	-53.8	-55.9	6.2	0.00e+00	0	43	104	45164265472	78	19171
2026-01-21 21:06:13.99	338.64	1.94	-53.8	-55.9	6.2	0.00e+00	0	43	104	45164265472	78	19111

#Closed at: 2026-01-21 21:06:14
#Recorded file [45164 MB]: D:/lorett/data/31041_260121_235536.dat