passes_logs/2026/01/21/R3.2S_Murmansk/R3.2S_Murmansk__20260121_070723_NOAA_21_JPSS-2_rec.log

#Pass ID: 20260121_070723_NOAA 21 (JPSS-2)
#Satellite: NOAA 21 (JPSS-2)
#Configuration: NOAA-21
#almurnet v.1.7.20251203
#Start time: 2026-01-21 07:07:23

#Version: 2.2.20231116
#Station: R3.2S_Murmansk
#Location: 33.079688 lon 68.888172 lat
#TLE: 1 54234U 22150A   26020.29910383  .00000141  00000+0  87571-4 0  9990
#TLE: 2 54234  98.7506 321.1348 0000615 250.8428 109.2682 14.19536295165564

#Time	Az	El	Level	Level2	SNR	BER	BlckErr	Temp	State	Recorded	gain1	gain2
2026-01-21 07:07:23.54	97.51	2.00	-54.3	-67.0	3.8	1.49e+00	0	39	0	0	79	16288
2026-01-21 07:07:24.54	97.46	2.06	-54.2	-67.0	3.8	1.49e+00	0	39	104	0	79	16267
2026-01-21 07:07:25.55	97.41	2.12	-54.2	-67.0	3.8	1.49e+00	0	40	104	0	79	16215
2026-01-21 07:07:26.56	97.36	2.18	-54.2	-67.0	3.8	1.49e+00	0	39	104	0	79	16224
2026-01-21 07:07:27.57	97.31	2.24	-54.2	-67.0	3.8	1.49e+00	0	40	104	0	79	16215
2026-01-21 07:07:28.58	97.26	2.30	-54.2	-67.0	3.8	1.49e+00	0	39	104	0	79	16210
2026-01-21 07:07:29.59	97.21	2.36	-54.3	-67.1	3.8	1.49e+00	0	40	104	0	79	16343
2026-01-21 07:07:30.59	97.16	2.43	-54.4	-67.2	3.8	1.49e+00	0	39	104	0	79	16614
2026-01-21 07:07:31.60	97.11	2.49	-54.4	-67.2	3.8	1.49e+00	0	40	104	0	79	16666
2026-01-21 07:07:32.61	97.06	2.55	-54.5	-67.3	3.8	1.49e+00	0	39	104	0	79	16716
2026-01-21 07:07:33.61	97.00	2.61	-54.5	-67.2	3.8	1.49e+00	0	40	104	0	79	16664
2026-01-21 07:07:34.62	96.95	2.67	-54.4	-67.2	3.8	1.49e+00	0	39	104	0	79	16665
2026-01-21 07:07:35.63	96.90	2.73	-54.4	-67.2	3.8	1.49e+00	0	40	104	0	79	16558
2026-01-21 07:07:36.64	96.85	2.79	-54.4	-67.2	3.8	1.49e+00	0	40	104	0	79	16506
2026-01-21 07:07:37.65	96.80	2.86	-54.3	-67.1	3.8	1.49e+00	0	40	104	0	79	16482
2026-01-21 07:07:38.66	96.74	2.92	-54.3	-67.1	3.8	1.49e+00	0	40	104	0	79	16368
2026-01-21 07:07:39.67	96.69	2.98	-54.2	-67.0	3.8	1.49e+00	0	40	104	0	79	16271
2026-01-21 07:07:40.67	96.64	3.04	-54.2	-67.0	3.8	1.49e+00	0	40	104	0	79	16139
2026-01-21 07:07:41.68	96.59	3.10	-54.1	-66.9	3.8	1.49e+00	0	40	104	0	79	15982
2026-01-21 07:07:42.69	96.53	3.17	-54.0	-66.8	3.8	1.49e+00	0	40	104	0	79	15889
2026-01-21 07:07:43.70	96.48	3.23	-53.9	-66.7	3.8	1.49e+00	0	40	104	0	79	15720
2026-01-21 07:07:44.71	96.42	3.29	-53.8	-66.6	3.8	1.49e+00	0	39	104	0	79	15485
2026-01-21 07:07:45.72	96.37	3.36	-53.7	-66.5	3.8	1.49e+00	0	40	104	0	79	15233
2026-01-21 07:07:46.73	96.32	3.42	-53.6	-66.3	3.8	1.49e+00	0	40	104	0	79	15032
2026-01-21 07:07:47.73	96.26	3.48	-53.4	-66.1	3.8	1.49e+00	0	40	104	0	78	15540
2026-01-21 07:07:48.74	96.21	3.54	-53.2	-66.0	3.8	1.49e+00	0	39	104	0	78	15234
2026-01-21 07:07:49.75	96.15	3.61	-53.1	-65.9	3.8	1.49e+00	0	40	104	0	78	15142
2026-01-21 07:07:50.76	96.10	3.67	-53.1	-65.8	3.8	1.49e+00	0	40	104	0	78	15011
2026-01-21 07:07:51.76	96.04	3.73	-53.0	-65.7	3.8	1.49e+00	0	40	104	0	78	14843
2026-01-21 07:07:52.77	95.99	3.80	-52.9	-65.6	3.8	1.49e+00	0	40	104	0	77	15511
2026-01-21 07:07:53.78	95.93	3.86	-52.7	-65.5	3.8	1.49e+00	0	40	104	0	77	15325
2026-01-21 07:07:54.79	95.87	3.93	-52.6	-65.3	3.8	1.49e+00	0	40	104	0	77	14891
2026-01-21 07:07:55.80	95.82	3.99	-52.4	-65.1	3.8	1.49e+00	0	40	104	0	76	15505
2026-01-21 07:07:56.80	95.76	4.05	-52.3	-64.4	3.8	1.49e+00	0	40	104	0	76	14229
2026-01-21 07:07:57.81	95.70	4.12	-52.3	-63.8	3.8	1.49e+00	0	40	104	0	76	13342
2026-01-21 07:07:58.82	95.64	4.18	-52.1	-61.8	4.1	1.46e+00	0	40	104	0	76	10613
2026-01-21 07:07:59.83	95.59	4.25	-51.8	-60.7	4.0	1.37e+00	2	40	104	0	75	9907
2026-01-21 07:08:00.84	95.53	4.31	-51.3	-57.5	6.4	2.96e-01	0	40	0	2097152	74	7218
2026-01-21 07:08:01.84	95.47	4.38	-50.6	-55.3	8.5	6.00e-02	0	40	0	5242880	73	5969
2026-01-21 07:08:02.85	95.41	4.44	-49.9	-53.6	10.3	1.06e-02	0	40	0	8388608	71	5469
2026-01-21 07:08:03.86	95.35	4.51	-48.9	-51.7	12.3	3.11e-04	0	40	0	11534336	69	4954
2026-01-21 07:08:04.87	95.29	4.57	-48.4	-50.9	13.2	4.95e-05	0	40	0	14680064	68	4776
2026-01-21 07:08:05.88	95.24	4.64	-47.6	-49.7	14.3	7.00e-07	0	40	0	17825792	67	4413
2026-01-21 07:08:06.89	95.18	4.70	-47.1	-48.9	15.0	0.00e+00	0	40	0	20971520	66	4291
2026-01-21 07:08:07.89	95.12	4.77	-47.0	-48.9	15.0	7.00e-07	0	40	0	24117248	65	4529
2026-01-21 07:08:08.90	95.06	4.83	-46.7	-48.5	15.5	0.00e+00	0	40	0	27262976	65	4318
2026-01-21 07:08:09.91	95.00	4.90	-46.7	-48.5	15.5	0.00e+00	0	40	0	30408704	64	4564
2026-01-21 07:08:10.92	94.93	4.96	-46.8	-48.6	15.3	0.00e+00	0	40	0	33554432	64	4641
2026-01-21 07:08:11.93	94.87	5.03	-47.3	-49.3	14.6	7.00e-07	0	40	0	35651584	65	4757
2026-01-21 07:08:12.93	94.81	5.10	-46.5	-48.1	15.9	0.00e+00	0	40	0	39845888	64	4368
2026-01-21 07:08:13.94	94.75	5.16	-47.2	-49.2	14.9	7.00e-07	0	40	0	42991616	65	4665
2026-01-21 07:08:14.95	94.69	5.23	-51.2	-57.3	6.8	7.78e-04	0	40	0	46137344	72	7929
2026-01-21 07:08:15.96	94.63	5.29	-45.1	-46.3	17.9	0.00e+00	0	40	0	49283072	61	4236
2026-01-21 07:08:16.97	94.56	5.36	-52.1	-61.8	4.3	1.08e-01	4	40	0	52428800	74	11858
2026-01-21 07:08:17.97	94.50	5.43	-44.6	-45.8	18.2	0.00e+00	0	40	0	53477376	61	3971
2026-01-21 07:08:18.98	94.44	5.50	-44.6	-45.8	18.2	0.00e+00	0	40	0	56623104	61	3990
2026-01-21 07:08:19.98	94.38	5.56	-44.6	-45.8	18.3	0.00e+00	0	40	0	58720256	61	3987
2026-01-21 07:08:20.99	94.31	5.63	-44.6	-45.8	18.3	0.00e+00	0	40	0	61865984	61	3995
2026-01-21 07:08:22.00	94.25	5.70	-44.7	-45.9	18.2	0.00e+00	0	40	0	65011712	61	4042
2026-01-21 07:08:23.01	94.18	5.76	-44.5	-45.7	18.4	0.00e+00	0	40	0	68157440	61	3941
2026-01-21 07:08:24.01	94.12	5.83	-44.9	-46.1	18.1	0.00e+00	0	40	0	71303168	61	4133
2026-01-21 07:08:25.02	94.05	5.90	-44.8	-46.0	18.2	0.00e+00	0	40	0	74448896	61	4069
2026-01-21 07:08:26.03	93.99	5.97	-44.7	-46.0	18.2	0.00e+00	0	40	0	77594624	61	4055
2026-01-21 07:08:27.03	93.92	6.03	-44.3	-45.5	18.6	0.00e+00	0	40	0	81788928	60	4078
2026-01-21 07:08:28.05	93.86	6.10	-44.5	-45.7	18.5	0.00e+00	0	40	0	84934656	60	4156
2026-01-21 07:08:29.05	93.79	6.17	-44.7	-45.9	18.3	0.00e+00	0	40	0	88080384	60	4273
2026-01-21 07:08:30.06	93.72	6.24	-44.5	-45.7	18.5	0.00e+00	0	40	0	91226112	60	4187
2026-01-21 07:08:31.07	93.66	6.31	-44.7	-45.9	18.3	0.00e+00	0	40	0	94371840	60	4280
2026-01-21 07:08:32.08	93.59	6.38	-44.5	-45.7	18.5	0.00e+00	0	40	0	97517568	60	4166
2026-01-21 07:08:33.08	93.52	6.45	-44.4	-45.6	18.6	0.00e+00	0	40	0	100663296	60	4122
2026-01-21 07:08:34.09	93.45	6.51	-44.2	-45.4	18.8	0.00e+00	0	40	0	103809024	60	4016
2026-01-21 07:08:35.10	93.39	6.58	-44.3	-45.5	18.8	0.00e+00	0	40	0	105906176	60	4059
2026-01-21 07:08:36.11	93.32	6.65	-44.2	-45.3	19.0	0.00e+00	0	40	0	109051904	60	3974
2026-01-21 07:08:37.11	93.25	6.72	-44.3	-45.4	19.1	0.00e+00	0	40	0	112197632	59	4289
2026-01-21 07:08:38.12	93.18	6.79	-44.3	-45.4	19.1	0.00e+00	0	40	0	115343360	59	4284
2026-01-21 07:08:39.13	93.11	6.86	-44.2	-45.3	19.2	0.00e+00	0	40	0	118489088	59	4232
2026-01-21 07:08:40.14	93.04	6.93	-44.3	-45.4	19.1	0.00e+00	0	40	0	122683392	59	4278
2026-01-21 07:08:41.14	92.97	7.00	-44.2	-45.3	19.2	0.00e+00	0	40	0	125829120	59	4227
2026-01-21 07:08:42.15	92.90	7.07	-44.3	-45.5	19.1	0.00e+00	0	40	0	128974848	59	4296
2026-01-21 07:08:43.16	92.83	7.14	-44.2	-45.3	19.3	0.00e+00	0	40	0	132120576	59	4214
2026-01-21 07:08:44.17	92.76	7.21	-44.3	-45.4	19.2	0.00e+00	0	40	0	135266304	59	4245
2026-01-21 07:08:45.18	92.68	7.28	-44.3	-45.3	19.2	0.00e+00	0	40	0	138412032	59	4237
2026-01-21 07:08:46.19	92.61	7.36	-44.1	-45.2	19.4	0.00e+00	0	40	0	141557760	59	4150
2026-01-21 07:08:47.19	92.54	7.43	-44.1	-45.2	19.3	0.00e+00	0	40	0	144703488	59	4169
2026-01-21 07:08:48.20	92.47	7.50	-44.2	-45.2	19.3	0.00e+00	0	40	0	147849216	59	4185
2026-01-21 07:08:49.21	92.39	7.57	-44.1	-45.2	19.4	0.00e+00	0	40	0	150994944	59	4146
2026-01-21 07:08:50.22	92.32	7.64	-44.1	-45.1	19.4	0.00e+00	0	40	0	153092096	59	4141
2026-01-21 07:08:51.22	92.25	7.71	-44.0	-45.1	19.4	0.00e+00	0	40	0	156237824	59	4111
2026-01-21 07:08:52.23	92.17	7.78	-44.1	-45.1	19.4	0.00e+00	0	40	0	159383552	59	4130
2026-01-21 07:08:53.24	92.10	7.85	-43.9	-44.9	19.6	0.00e+00	0	40	0	163577856	59	4033
2026-01-21 07:08:54.25	92.02	7.93	-44.0	-45.1	19.5	0.00e+00	0	40	0	166723584	59	4099
2026-01-21 07:08:55.26	91.95	8.00	-44.0	-45.0	19.5	0.00e+00	0	40	0	169869312	59	4082
2026-01-21 07:08:56.26	91.87	8.07	-44.0	-45.1	19.5	0.00e+00	0	40	0	173015040	59	4118
2026-01-21 07:08:57.27	91.80	8.14	-44.0	-45.1	19.5	0.00e+00	0	40	0	176160768	59	4112
2026-01-21 07:08:58.28	91.72	8.22	-44.1	-45.2	19.4	0.00e+00	0	40	0	179306496	59	4164
2026-01-21 07:08:59.29	91.64	8.29	-44.2	-45.3	19.3	0.00e+00	0	40	0	182452224	59	4205
2026-01-21 07:09:00.29	91.56	8.36	-44.3	-45.3	19.3	0.00e+00	0	40	0	185597952	59	4239
2026-01-21 07:09:01.31	91.49	8.44	-44.6	-45.7	18.9	0.00e+00	0	40	0	188743680	59	4427
2026-01-21 07:09:02.31	91.41	8.51	-44.3	-45.4	19.2	0.00e+00	0	40	0	191889408	59	4271
2026-01-21 07:09:03.32	91.33	8.58	-44.1	-45.2	19.5	0.00e+00	0	40	0	195035136	59	4159
2026-01-21 07:09:04.33	91.25	8.66	-44.1	-45.1	19.6	0.00e+00	0	40	0	198180864	59	4127
2026-01-21 07:09:05.34	91.17	8.73	-43.7	-44.7	20.0	0.00e+00	0	40	0	201326592	59	3918
2026-01-21 07:09:06.35	91.09	8.80	-43.9	-44.9	19.8	0.00e+00	0	40	0	204472320	59	4036
2026-01-21 07:09:07.36	91.01	8.88	-43.5	-44.5	20.1	0.00e+00	0	40	0	207618048	59	3857
2026-01-21 07:09:08.36	90.93	8.95	-43.8	-44.9	19.8	0.00e+00	0	40	0	210763776	58	4247
2026-01-21 07:09:09.37	90.85	9.03	-43.6	-44.6	20.1	0.00e+00	0	40	0	213909504	58	4112
2026-01-21 07:09:10.39	90.77	9.10	-43.6	-44.6	20.1	0.00e+00	0	40	0	217055232	58	4102
2026-01-21 07:09:11.39	90.68	9.18	-43.7	-44.7	20.0	0.00e+00	0	40	0	220200960	58	4163
2026-01-21 07:09:12.40	90.60	9.25	-43.5	-44.5	20.1	0.00e+00	0	40	0	223346688	58	4091
2026-01-21 07:09:13.41	90.52	9.33	-43.6	-44.6	20.1	0.00e+00	0	40	0	226492416	58	4105
2026-01-21 07:09:14.42	90.43	9.40	-43.5	-44.5	20.1	0.00e+00	0	40	0	229638144	58	4079
2026-01-21 07:09:15.43	90.35	9.48	-43.5	-44.5	20.1	0.00e+00	0	40	0	232783872	58	4056
2026-01-21 07:09:16.43	90.27	9.55	-43.6	-44.6	20.0	0.00e+00	0	40	0	235929600	58	4134
2026-01-21 07:09:17.44	90.18	9.63	-43.5	-44.5	20.1	0.00e+00	0	40	0	239075328	58	4072
2026-01-21 07:09:18.45	90.10	9.70	-43.7	-44.7	20.0	0.00e+00	0	40	0	242221056	58	4158
2026-01-21 07:09:19.46	90.01	9.78	-43.4	-44.4	20.2	0.00e+00	0	40	0	245366784	58	4038
2026-01-21 07:09:20.47	89.92	9.86	-43.5	-44.5	20.2	0.00e+00	0	40	0	248512512	58	4071
2026-01-21 07:09:21.47	89.84	9.93	-43.4	-44.3	20.3	0.00e+00	0	40	0	251658240	58	3995
2026-01-21 07:09:22.48	89.75	10.01	-43.2	-44.2	20.5	0.00e+00	0	40	0	254803968	58	3933
2026-01-21 07:09:23.49	89.66	10.09	-43.5	-44.5	20.2	0.00e+00	0	40	0	257949696	58	4056
2026-01-21 07:09:24.50	89.58	10.16	-43.4	-44.4	20.2	0.00e+00	0	40	0	261095424	58	4040
2026-01-21 07:09:25.51	89.49	10.24	-43.4	-44.4	20.3	0.00e+00	0	40	0	264241152	58	4015
2026-01-21 07:09:26.51	89.40	10.32	-43.3	-44.2	20.5	0.00e+00	0	40	0	267386880	58	3948
2026-01-21 07:09:27.52	89.31	10.40	-43.3	-44.2	20.5	0.00e+00	0	40	0	270532608	58	3936
2026-01-21 07:09:28.53	89.22	10.47	-43.2	-44.1	20.5	0.00e+00	0	40	0	273678336	58	3911
2026-01-21 07:09:29.54	89.13	10.55	-43.2	-44.1	20.5	0.00e+00	0	40	0	276824064	58	3910
2026-01-21 07:09:30.54	89.04	10.63	-43.2	-44.1	20.6	0.00e+00	0	40	0	279969792	58	3887
2026-01-21 07:09:31.55	88.95	10.71	-43.0	-44.0	20.7	0.00e+00	0	40	0	283115520	58	3837
2026-01-21 07:09:32.56	88.85	10.79	-43.2	-44.1	20.6	0.00e+00	0	40	0	286261248	58	3885
2026-01-21 07:09:33.57	88.76	10.86	-43.2	-44.1	20.6	0.00e+00	0	40	0	289406976	58	3897
2026-01-21 07:09:34.57	88.67	10.94	-43.1	-44.0	20.7	0.00e+00	0	40	0	292552704	58	3851
2026-01-21 07:09:35.58	88.57	11.02	-43.0	-43.9	20.7	0.00e+00	0	39	0	295698432	58	3824
2026-01-21 07:09:36.59	88.48	11.10	-43.1	-44.0	20.7	0.00e+00	0	40	0	298844160	58	3836
2026-01-21 07:09:37.60	88.39	11.18	-43.1	-44.0	20.7	0.00e+00	0	40	0	301989888	58	3844
2026-01-21 07:09:38.61	88.29	11.26	-43.1	-44.0	20.6	0.00e+00	0	40	0	305135616	58	3861
2026-01-21 07:09:39.62	88.19	11.34	-43.0	-44.0	20.7	0.00e+00	0	40	0	308281344	58	3833
2026-01-21 07:09:40.63	88.10	11.42	-43.0	-43.9	20.7	0.00e+00	0	40	0	311427072	58	3812
2026-01-21 07:09:41.63	88.00	11.50	-43.1	-44.0	20.7	0.00e+00	0	39	0	314572800	57	4098
2026-01-21 07:09:42.64	87.91	11.58	-43.0	-43.9	20.8	0.00e+00	0	40	0	317718528	57	4038
2026-01-21 07:09:43.65	87.81	11.66	-42.9	-43.8	20.8	0.00e+00	0	40	0	320864256	57	3992
2026-01-21 07:09:44.66	87.71	11.74	-43.0	-43.9	20.8	0.00e+00	0	40	0	324009984	57	4040
2026-01-21 07:09:45.66	87.61	11.82	-43.1	-44.0	20.7	0.00e+00	0	40	0	327155712	57	4065
2026-01-21 07:09:46.67	87.51	11.90	-42.8	-43.8	20.9	0.00e+00	0	40	0	330301440	57	3960
2026-01-21 07:09:47.68	87.41	11.98	-42.9	-43.8	20.9	0.00e+00	0	40	0	333447168	57	3985
2026-01-21 07:09:48.69	87.31	12.06	-42.8	-43.7	20.9	0.00e+00	0	40	0	336592896	57	3950
2026-01-21 07:09:49.69	87.21	12.14	-42.9	-43.8	20.9	0.00e+00	0	40	0	339738624	57	3969
2026-01-21 07:09:50.70	87.11	12.23	-42.9	-43.8	20.9	0.00e+00	0	40	0	342884352	57	3965
2026-01-21 07:09:51.71	87.00	12.31	-42.9	-43.8	20.9	0.00e+00	0	40	0	346030080	57	3973
2026-01-21 07:09:52.71	86.90	12.39	-42.9	-43.8	20.9	0.00e+00	0	40	0	349175808	57	3993
2026-01-21 07:09:53.72	86.80	12.47	-42.9	-43.8	20.8	0.00e+00	0	40	0	352321536	57	3993
2026-01-21 07:09:54.73	86.69	12.55	-43.0	-43.9	20.8	0.00e+00	0	40	0	355467264	57	4020
2026-01-21 07:09:55.74	86.59	12.64	-43.0	-43.9	20.8	0.00e+00	0	40	0	358612992	57	4044
2026-01-21 07:09:56.74	86.49	12.72	-42.8	-43.7	21.0	0.00e+00	0	39	0	361758720	57	3948
2026-01-21 07:09:57.75	86.38	12.80	-42.9	-43.8	20.9	0.00e+00	0	40	0	364904448	57	3972
2026-01-21 07:09:58.76	86.27	12.88	-42.8	-43.7	21.0	0.00e+00	0	40	0	368050176	57	3951
2026-01-21 07:09:59.77	86.17	12.97	-42.7	-43.6	21.1	0.00e+00	0	40	0	371195904	57	3886
2026-01-21 07:10:00.77	86.06	13.05	-42.7	-43.6	21.1	0.00e+00	0	40	0	374341632	57	3887
2026-01-21 07:10:01.78	85.95	13.13	-42.8	-43.7	21.1	0.00e+00	0	40	0	377487360	57	3916
2026-01-21 07:10:02.79	85.84	13.22	-42.6	-43.5	21.2	0.00e+00	0	40	0	380633088	57	3848
2026-01-21 07:10:03.80	85.73	13.30	-42.5	-43.4	21.3	0.00e+00	0	40	0	383778816	57	3804
2026-01-21 07:10:04.81	85.62	13.39	-42.7	-43.5	21.2	0.00e+00	0	40	0	386924544	57	3863
2026-01-21 07:10:05.81	85.51	13.47	-42.6	-43.5	21.2	0.00e+00	0	40	0	390070272	57	3855
2026-01-21 07:10:06.82	85.40	13.55	-42.6	-43.5	21.2	0.00e+00	0	40	0	393216000	57	3834
2026-01-21 07:10:07.83	85.29	13.64	-42.8	-43.6	21.1	0.00e+00	0	40	0	396361728	57	3912
2026-01-21 07:10:08.84	85.17	13.72	-42.7	-43.6	21.1	0.00e+00	0	40	0	399507456	57	3908
2026-01-21 07:10:09.85	85.06	13.81	-42.7	-43.6	21.1	0.00e+00	0	40	0	402653184	57	3906
2026-01-21 07:10:10.85	84.95	13.89	-42.8	-43.7	21.1	0.00e+00	0	40	0	405798912	57	3915
2026-01-21 07:10:11.86	84.83	13.98	-42.8	-43.7	21.0	0.00e+00	0	40	0	408944640	57	3948
2026-01-21 07:10:12.87	84.71	14.07	-42.8	-43.7	21.1	0.00e+00	0	40	0	412090368	57	3916
2026-01-21 07:10:13.88	84.60	14.15	-42.7	-43.6	21.1	0.00e+00	0	40	0	415236096	57	3891
2026-01-21 07:10:14.89	84.48	14.24	-42.7	-43.6	21.1	0.00e+00	0	40	0	418381824	57	3902
2026-01-21 07:10:15.89	84.36	14.32	-42.7	-43.6	21.2	0.00e+00	0	40	0	421527552	57	3880
2026-01-21 07:10:16.90	84.25	14.41	-42.8	-43.7	21.1	0.00e+00	0	40	0	424673280	57	3923
2026-01-21 07:10:17.91	84.13	14.50	-42.7	-43.6	21.2	0.00e+00	0	40	0	427819008	57	3884
2026-01-21 07:10:18.91	84.01	14.58	-42.9	-43.8	21.0	0.00e+00	0	40	0	430964736	57	3983
2026-01-21 07:10:19.92	83.89	14.67	-42.8	-43.6	21.1	0.00e+00	0	40	0	434110464	57	3909
2026-01-21 07:10:20.93	83.77	14.76	-42.7	-43.6	21.2	0.00e+00	0	40	0	437256192	57	3896
2026-01-21 07:10:21.94	83.64	14.84	-42.8	-43.7	21.1	0.00e+00	0	40	0	440401920	57	3921
2026-01-21 07:10:22.94	83.52	14.93	-42.6	-43.5	21.3	0.00e+00	0	40	0	443547648	57	3831
2026-01-21 07:10:23.95	83.40	15.02	-42.7	-43.6	21.2	0.00e+00	0	40	0	446693376	57	3878
2026-01-21 07:10:24.96	83.27	15.11	-42.5	-43.4	21.4	0.00e+00	0	40	0	449839104	57	3793
2026-01-21 07:10:25.96	83.15	15.19	-42.6	-43.5	21.3	0.00e+00	0	40	0	452984832	57	3843
2026-01-21 07:10:26.97	83.02	15.28	-42.7	-43.6	21.2	0.00e+00	0	40	0	456130560	57	3878
2026-01-21 07:10:27.98	82.90	15.37	-42.6	-43.5	21.3	0.00e+00	0	40	0	459276288	57	3839
2026-01-21 07:10:28.98	82.77	15.46	-42.7	-43.5	21.3	0.00e+00	0	40	0	462422016	57	3866
2026-01-21 07:10:29.99	82.64	15.55	-42.8	-43.7	21.2	0.00e+00	0	40	0	465567744	57	3935
2026-01-21 07:10:31.00	82.51	15.63	-42.8	-43.7	21.2	0.00e+00	0	40	0	468713472	57	3935
2026-01-21 07:10:32.01	82.38	15.72	-42.7	-43.6	21.3	0.00e+00	0	40	0	471859200	57	3889
2026-01-21 07:10:33.01	82.25	15.81	-42.7	-43.6	21.2	0.00e+00	0	40	0	475004928	57	3894
2026-01-21 07:10:34.02	82.12	15.90	-42.7	-43.6	21.3	0.00e+00	0	40	0	478150656	57	3895
2026-01-21 07:10:35.02	81.99	15.99	-42.7	-43.6	21.3	0.00e+00	0	40	0	481296384	57	3896
2026-01-21 07:10:36.03	81.86	16.08	-42.8	-43.6	21.2	0.00e+00	0	40	0	484442112	57	3911
2026-01-21 07:10:37.04	81.73	16.17	-42.7	-43.5	21.3	0.00e+00	0	40	0	487587840	57	3861
2026-01-21 07:10:38.05	81.59	16.26	-42.8	-43.7	21.2	0.00e+00	0	40	0	490733568	57	3916
2026-01-21 07:10:39.05	81.46	16.35	-42.8	-43.7	21.2	0.00e+00	0	40	0	493879296	57	3932
2026-01-21 07:10:40.06	81.32	16.44	-42.7	-43.6	21.3	0.00e+00	0	40	0	497025024	57	3884
2026-01-21 07:10:41.07	81.18	16.53	-42.8	-43.7	21.2	0.00e+00	0	40	0	500170752	57	3917
2026-01-21 07:10:42.07	81.05	16.62	-42.7	-43.6	21.3	0.00e+00	0	40	0	503316480	57	3893
2026-01-21 07:10:43.08	80.91	16.71	-42.9	-43.8	21.1	0.00e+00	0	40	0	506462208	57	3981
2026-01-21 07:10:44.09	80.77	16.80	-42.9	-43.8	21.0	0.00e+00	0	40	0	509607936	57	4002
2026-01-21 07:10:45.10	80.63	16.89	-42.8	-43.7	21.2	0.00e+00	0	40	0	512753664	57	3929
2026-01-21 07:10:46.11	80.49	16.99	-42.9	-43.8	21.1	0.00e+00	0	40	0	515899392	57	3994
2026-01-21 07:10:47.11	80.35	17.08	-42.9	-43.8	21.2	0.00e+00	0	40	0	519045120	57	3962
2026-01-21 07:10:48.12	80.20	17.17	-42.8	-43.7	21.2	0.00e+00	0	40	0	522190848	57	3930
2026-01-21 07:10:49.13	80.06	17.26	-42.9	-43.8	21.1	0.00e+00	0	40	0	525336576	57	3988
2026-01-21 07:10:50.14	79.91	17.35	-42.9	-43.8	21.2	0.00e+00	0	40	0	528482304	57	3976
2026-01-21 07:10:51.15	79.77	17.44	-42.8	-43.6	21.3	0.00e+00	0	40	0	531628032	57	3904
2026-01-21 07:10:52.15	79.62	17.54	-42.8	-43.7	21.3	0.00e+00	0	40	0	534773760	57	3918
2026-01-21 07:10:53.16	79.48	17.63	-42.8	-43.6	21.3	0.00e+00	0	40	0	537919488	57	3908
2026-01-21 07:10:54.16	79.33	17.72	-42.6	-43.4	21.5	0.00e+00	0	40	0	541065216	57	3819
2026-01-21 07:10:55.17	79.18	17.81	-42.5	-43.3	21.5	0.00e+00	0	40	0	544210944	56	4003
2026-01-21 07:10:56.18	79.03	17.91	-42.6	-43.4	21.5	0.00e+00	0	40	0	547356672	56	4046
2026-01-21 07:10:57.19	78.88	18.00	-42.6	-43.5	21.4	0.00e+00	0	40	0	550502400	56	4063
2026-01-21 07:10:58.20	78.72	18.09	-42.6	-43.4	21.4	0.00e+00	0	40	0	553648128	56	4050
2026-01-21 07:10:59.21	78.57	18.19	-42.7	-43.5	21.4	0.00e+00	0	40	0	556793856	56	4097
2026-01-21 07:11:00.21	78.42	18.28	-42.6	-43.5	21.4	0.00e+00	0	40	0	559939584	56	4068
2026-01-21 07:11:01.22	78.26	18.37	-42.6	-43.4	21.4	0.00e+00	0	40	0	563085312	56	4037
2026-01-21 07:11:02.23	78.11	18.47	-42.6	-43.4	21.4	0.00e+00	0	40	0	566231040	56	4046
2026-01-21 07:11:03.24	77.95	18.56	-42.5	-43.3	21.6	0.00e+00	0	40	0	569376768	56	3997
2026-01-21 07:11:04.25	77.79	18.65	-42.4	-43.2	21.6	0.00e+00	0	40	0	572522496	56	3947
2026-01-21 07:11:05.25	77.63	18.75	-42.5	-43.3	21.6	0.00e+00	0	40	0	575668224	56	3985
2026-01-21 07:11:06.26	77.47	18.84	-42.4	-43.3	21.7	0.00e+00	0	40	0	578813952	56	3966
2026-01-21 07:11:07.27	77.31	18.94	-42.3	-43.2	21.7	0.00e+00	0	40	0	581959680	56	3924
2026-01-21 07:11:08.28	77.15	19.03	-42.4	-43.2	21.6	0.00e+00	0	40	0	585105408	56	3946
2026-01-21 07:11:09.28	76.99	19.12	-42.3	-43.1	21.7	0.00e+00	0	40	0	588251136	56	3904
2026-01-21 07:11:10.29	76.83	19.22	-42.2	-43.1	21.7	0.00e+00	0	40	0	591396864	56	3877
2026-01-21 07:11:11.30	76.66	19.31	-42.4	-43.2	21.6	0.00e+00	0	40	0	594542592	56	3936
2026-01-21 07:11:12.31	76.49	19.41	-42.4	-43.2	21.6	0.00e+00	0	40	0	597688320	56	3934
2026-01-21 07:11:13.31	76.33	19.50	-42.3	-43.1	21.7	0.00e+00	0	40	0	600834048	56	3905
2026-01-21 07:11:14.32	76.16	19.60	-42.4	-43.2	21.7	0.00e+00	0	40	0	603979776	56	3940
2026-01-21 07:11:15.33	75.99	19.69	-42.1	-43.0	21.9	0.00e+00	0	40	0	607125504	56	3830
2026-01-21 07:11:16.34	75.82	19.79	-42.1	-42.9	22.0	0.00e+00	0	40	0	610271232	56	3801
2026-01-21 07:11:17.35	75.65	19.88	-42.2	-43.0	21.9	0.00e+00	0	40	0	613416960	56	3861
2026-01-21 07:11:18.36	75.48	19.98	-42.0	-42.8	22.0	0.00e+00	0	40	0	616562688	56	3769
2026-01-21 07:11:19.37	75.30	20.08	-41.9	-42.7	22.1	0.00e+00	0	40	0	619708416	55	3923
2026-01-21 07:11:20.37	75.13	20.17	-41.9	-42.7	22.1	0.00e+00	0	40	0	622854144	55	3917
2026-01-21 07:11:21.38	74.95	20.27	-41.8	-42.6	22.2	0.00e+00	0	40	0	625999872	55	3887
2026-01-21 07:11:22.39	74.78	20.36	-41.8	-42.6	22.2	0.00e+00	0	40	0	629145600	55	3895
2026-01-21 07:11:23.40	74.60	20.46	-41.9	-42.7	22.1	0.00e+00	0	40	0	632291328	55	3919
2026-01-21 07:11:24.41	74.42	20.55	-41.7	-42.5	22.2	0.00e+00	0	40	0	635437056	55	3857
2026-01-21 07:11:25.41	74.24	20.65	-41.6	-42.4	22.4	0.00e+00	0	40	0	638582784	55	3781
2026-01-21 07:11:26.42	74.06	20.75	-41.6	-42.3	22.4	0.00e+00	0	40	0	641728512	55	3776
2026-01-21 07:11:27.43	73.88	20.84	-41.6	-42.4	22.3	0.00e+00	0	40	0	644874240	55	3816
2026-01-21 07:11:28.44	73.69	20.94	-41.6	-42.4	22.3	0.00e+00	0	40	0	648019968	55	3803
2026-01-21 07:11:29.45	73.51	21.03	-41.6	-42.4	22.4	0.00e+00	0	40	0	651165696	55	3787
2026-01-21 07:11:30.45	73.32	21.13	-41.7	-42.5	22.3	0.00e+00	0	40	0	654311424	55	3838
2026-01-21 07:11:31.46	73.13	21.23	-41.6	-42.4	22.4	0.00e+00	0	40	0	657457152	55	3803
2026-01-21 07:11:32.47	72.95	21.32	-41.6	-42.4	22.4	0.00e+00	0	40	0	660602880	55	3801
2026-01-21 07:11:33.48	72.76	21.42	-41.6	-42.4	22.4	0.00e+00	0	40	0	663748608	55	3817
2026-01-21 07:11:34.49	72.57	21.52	-41.7	-42.5	22.3	0.00e+00	0	40	0	666894336	55	3836
2026-01-21 07:11:35.49	72.37	21.61	-41.7	-42.5	22.3	0.00e+00	0	40	0	670040064	55	3853
2026-01-21 07:11:36.50	72.18	21.71	-41.8	-42.6	22.2	0.00e+00	0	40	0	673185792	55	3884
2026-01-21 07:11:37.51	71.99	21.80	-41.6	-42.4	22.4	0.00e+00	0	40	0	676331520	55	3781
2026-01-21 07:11:38.52	71.79	21.90	-41.7	-42.5	22.3	0.00e+00	0	40	0	679477248	55	3847
2026-01-21 07:11:39.52	71.60	22.00	-41.8	-42.6	22.2	0.00e+00	0	40	0	682622976	55	3882
2026-01-21 07:11:40.53	71.40	22.09	-41.8	-42.6	22.2	0.00e+00	0	40	0	685768704	55	3873
2026-01-21 07:11:41.54	71.20	22.19	-41.9	-42.7	22.1	0.00e+00	0	40	0	688914432	55	3942
2026-01-21 07:11:42.55	71.00	22.29	-41.9	-42.7	22.1	0.00e+00	0	40	0	692060160	55	3949
2026-01-21 07:11:43.55	70.80	22.38	-41.9	-42.7	22.2	0.00e+00	0	40	0	695205888	55	3928
2026-01-21 07:11:44.56	70.59	22.48	-41.9	-42.8	22.1	0.00e+00	0	40	0	698351616	55	3961
2026-01-21 07:11:45.57	70.39	22.58	-41.6	-42.4	22.4	0.00e+00	0	40	0	701497344	55	3810
2026-01-21 07:11:46.58	70.18	22.67	-41.5	-42.3	22.4	0.00e+00	0	40	0	704643072	55	3754
2026-01-21 07:11:47.59	69.98	22.77	-41.6	-42.4	22.4	0.00e+00	0	40	0	707788800	55	3781
2026-01-21 07:11:48.59	69.77	22.86	-41.7	-42.4	22.2	0.00e+00	0	40	0	710934528	55	3817
2026-01-21 07:11:49.60	69.56	22.96	-41.7	-42.5	22.2	0.00e+00	0	40	0	714080256	55	3826
2026-01-21 07:11:50.61	69.35	23.06	-41.8	-42.7	22.1	0.00e+00	0	40	0	717225984	55	3919
2026-01-21 07:11:51.62	69.14	23.15	-41.9	-42.7	22.2	0.00e+00	0	40	0	720371712	55	3922
2026-01-21 07:11:52.62	68.92	23.25	-41.9	-42.7	22.1	0.00e+00	0	40	0	723517440	55	3954
2026-01-21 07:11:53.63	68.71	23.34	-41.8	-42.6	22.3	0.00e+00	0	40	0	726663168	55	3893
2026-01-21 07:11:54.64	68.49	23.44	-41.7	-42.5	22.4	0.00e+00	0	40	0	729808896	55	3839
2026-01-21 07:11:55.65	68.27	23.54	-41.5	-42.2	22.6	0.00e+00	0	40	0	732954624	55	3734
2026-01-21 07:11:56.66	68.06	23.63	-41.5	-42.3	22.5	0.00e+00	0	40	0	736100352	54	3960
2026-01-21 07:11:57.67	67.83	23.73	-41.3	-42.1	22.7	0.00e+00	0	40	0	739246080	54	3873
2026-01-21 07:11:58.67	67.62	23.82	-41.3	-42.1	22.7	0.00e+00	0	40	0	742391808	54	3873
2026-01-21 07:11:59.68	67.39	23.92	-41.5	-42.2	22.5	0.00e+00	0	40	0	745537536	54	3957
2026-01-21 07:12:00.69	67.17	24.01	-41.4	-42.2	22.5	0.00e+00	0	40	0	748683264	54	3936
2026-01-21 07:12:01.70	66.94	24.11	-41.5	-42.3	22.5	0.00e+00	0	40	0	751828992	54	3980
2026-01-21 07:12:02.71	66.71	24.20	-41.6	-42.4	22.5	0.00e+00	0	40	0	754974720	54	4032
2026-01-21 07:12:03.71	66.49	24.30	-41.6	-42.4	22.4	0.00e+00	0	40	0	758120448	54	4050
2026-01-21 07:12:04.72	66.26	24.39	-41.5	-42.3	22.5	0.00e+00	0	40	0	761266176	54	3981
2026-01-21 07:12:05.73	66.03	24.49	-41.6	-42.4	22.3	0.00e+00	0	40	0	764411904	54	4039
2026-01-21 07:12:06.74	65.79	24.58	-41.7	-42.5	22.2	0.00e+00	0	40	0	767557632	54	4077
2026-01-21 07:12:07.75	65.56	24.67	-41.7	-42.5	22.2	0.00e+00	0	40	0	770703360	54	4094
2026-01-21 07:12:08.76	65.32	24.77	-41.8	-42.6	22.1	0.00e+00	0	40	0	773849088	54	4130
2026-01-21 07:12:09.76	65.09	24.86	-41.9	-42.7	22.1	0.00e+00	0	40	0	776994816	54	4167
2026-01-21 07:12:10.77	64.85	24.95	-42.0	-42.9	22.1	0.00e+00	0	40	0	780140544	54	4246
2026-01-21 07:12:11.78	64.61	25.05	-42.2	-43.1	21.9	0.00e+00	0	40	0	783286272	55	4114
2026-01-21 07:12:12.79	64.37	25.14	-42.3	-43.1	21.9	0.00e+00	0	40	0	786432000	55	4116
2026-01-21 07:12:13.80	64.12	25.23	-42.3	-43.2	21.8	0.00e+00	0	40	0	789577728	55	4154
2026-01-21 07:12:14.81	63.88	25.33	-42.2	-43.1	21.9	0.00e+00	0	40	0	792723456	55	4107
2026-01-21 07:12:15.81	63.64	25.42	-42.3	-43.1	21.9	0.00e+00	0	40	0	795869184	55	4109
2026-01-21 07:12:16.82	63.39	25.51	-42.3	-43.1	21.8	0.00e+00	0	40	0	799014912	55	4142
2026-01-21 07:12:17.83	63.14	25.60	-42.0	-42.9	22.1	0.00e+00	0	40	0	802160640	55	4008
2026-01-21 07:12:18.84	62.89	25.69	-42.0	-42.8	22.2	0.00e+00	0	40	0	805306368	55	3976
2026-01-21 07:12:19.85	62.64	25.79	-42.0	-42.8	22.2	0.00e+00	0	40	0	808452096	55	3974
2026-01-21 07:12:20.85	62.39	25.88	-41.8	-42.6	22.3	0.00e+00	0	40	0	811597824	55	3886
2026-01-21 07:12:21.86	62.13	25.97	-41.7	-42.5	22.4	0.00e+00	0	40	0	814743552	55	3861
2026-01-21 07:12:22.87	61.88	26.06	-41.8	-42.6	22.3	0.00e+00	0	40	0	817889280	55	3878
2026-01-21 07:12:23.88	61.62	26.15	-41.8	-42.6	22.3	0.00e+00	0	40	0	821035008	55	3880
2026-01-21 07:12:24.89	61.36	26.24	-41.9	-42.7	22.2	0.00e+00	0	40	0	824180736	55	3945
2026-01-21 07:12:25.89	61.10	26.32	-42.0	-42.8	22.0	0.00e+00	0	40	0	827326464	55	4001
2026-01-21 07:12:26.90	60.84	26.41	-42.1	-42.9	22.0	0.00e+00	0	40	0	830472192	55	4015
2026-01-21 07:12:27.91	60.58	26.50	-42.1	-43.0	21.9	0.00e+00	0	40	0	833617920	55	4054
2026-01-21 07:12:28.92	60.31	26.59	-42.2	-43.0	21.9	0.00e+00	0	40	0	836763648	55	4068
2026-01-21 07:12:29.93	60.05	26.68	-42.1	-43.0	22.0	0.00e+00	0	40	0	839909376	55	4053
2026-01-21 07:12:30.93	59.78	26.76	-42.1	-42.9	22.1	0.00e+00	0	40	0	844103680	55	4017
2026-01-21 07:12:31.94	59.51	26.85	-42.2	-43.0	21.9	0.00e+00	0	40	0	847249408	55	4097
2026-01-21 07:12:32.95	59.24	26.94	-42.4	-43.3	21.8	0.00e+00	0	40	0	849346560	55	4202
2026-01-21 07:12:33.96	58.97	27.02	-42.4	-43.2	21.8	0.00e+00	0	40	0	852492288	55	4169
2026-01-21 07:12:34.97	58.70	27.11	-42.4	-43.3	21.7	0.00e+00	0	40	0	855638016	55	4206
2026-01-21 07:12:35.97	58.42	27.19	-42.3	-43.1	21.9	0.00e+00	0	40	0	858783744	55	4111
2026-01-21 07:12:36.98	58.15	27.28	-42.1	-42.9	22.0	0.00e+00	0	40	0	861929472	55	4041
2026-01-21 07:12:37.99	57.87	27.36	-42.2	-43.1	21.9	0.00e+00	0	40	0	865075200	55	4100
2026-01-21 07:12:39.00	57.59	27.45	-42.1	-42.9	22.0	0.00e+00	0	40	0	868220928	55	4026
2026-01-21 07:12:40.00	57.31	27.53	-42.1	-43.0	22.0	0.00e+00	0	40	0	871366656	55	4053
2026-01-21 07:12:41.01	57.03	27.61	-42.1	-42.9	22.0	0.00e+00	0	40	0	874512384	55	4035
2026-01-21 07:12:42.02	56.75	27.69	-42.1	-42.9	22.1	0.00e+00	0	40	0	877658112	55	4026
2026-01-21 07:12:43.03	56.46	27.78	-42.1	-42.9	22.1	0.00e+00	0	40	0	880803840	55	4020
2026-01-21 07:12:44.04	56.17	27.86	-42.3	-43.1	21.9	0.00e+00	0	40	0	884998144	55	4116
2026-01-21 07:12:45.05	55.89	27.94	-42.1	-43.0	22.1	0.00e+00	0	40	0	888143872	55	4053
2026-01-21 07:12:46.06	55.60	28.02	-42.2	-43.0	22.1	0.00e+00	0	40	0	891289600	55	4069
2026-01-21 07:12:47.07	55.30	28.10	-42.2	-43.0	22.0	0.00e+00	0	40	0	894435328	55	4061
2026-01-21 07:12:48.07	55.01	28.17	-42.3	-43.2	21.9	0.00e+00	0	40	0	896532480	55	4152
2026-01-21 07:12:49.08	54.72	28.25	-42.4	-43.2	21.8	0.00e+00	0	39	0	899678208	55	4190
2026-01-21 07:12:50.09	54.42	28.33	-42.5	-43.3	21.7	0.00e+00	0	40	0	902823936	55	4218
2026-01-21 07:12:51.10	54.13	28.41	-42.5	-43.4	21.7	0.00e+00	0	40	0	905969664	55	4250
2026-01-21 07:12:52.11	53.83	28.48	-42.4	-43.3	21.8	0.00e+00	0	40	0	909115392	55	4200
2026-01-21 07:12:53.11	53.53	28.56	-42.3	-43.2	21.9	0.00e+00	0	40	0	912261120	55	4150
2026-01-21 07:12:54.12	53.23	28.63	-42.4	-43.2	21.8	0.00e+00	0	40	0	915406848	55	4170
2026-01-21 07:12:55.13	52.93	28.71	-42.4	-43.2	21.8	0.00e+00	0	40	0	918552576	55	4177
2026-01-21 07:12:56.14	52.62	28.78	-42.2	-43.0	21.9	0.00e+00	0	40	0	922746880	55	4080
2026-01-21 07:12:57.15	52.32	28.85	-42.4	-43.2	21.8	0.00e+00	0	40	0	925892608	55	4166
2026-01-21 07:12:58.15	52.01	28.92	-42.4	-43.3	21.8	0.00e+00	0	40	0	929038336	55	4207
2026-01-21 07:12:59.16	51.71	29.00	-42.5	-43.3	21.8	0.00e+00	0	40	0	932184064	55	4208
2026-01-21 07:13:00.17	51.40	29.07	-42.3	-43.1	21.9	0.00e+00	0	40	0	935329792	55	4126
2026-01-21 07:13:01.18	51.09	29.14	-42.2	-43.0	22.0	0.00e+00	0	40	0	938475520	55	4073
2026-01-21 07:13:02.18	50.78	29.20	-42.1	-42.9	22.1	0.00e+00	0	40	0	941621248	55	4037
2026-01-21 07:13:03.19	50.46	29.27	-42.2	-43.1	21.9	0.00e+00	0	40	0	943718400	55	4100
2026-01-21 07:13:04.20	50.15	29.34	-42.4	-43.2	21.8	0.00e+00	0	40	0	946864128	55	4179
2026-01-21 07:13:05.21	49.83	29.41	-42.5	-43.4	21.7	0.00e+00	0	40	0	950009856	55	4254
2026-01-21 07:13:06.22	49.51	29.47	-42.5	-43.3	21.7	0.00e+00	0	40	0	953155584	55	4230
2026-01-21 07:13:07.23	49.20	29.54	-42.5	-43.4	21.7	0.00e+00	0	40	0	956301312	55	4252
2026-01-21 07:13:08.23	48.88	29.60	-42.6	-43.4	21.7	0.00e+00	0	40	0	960495616	55	4268
2026-01-21 07:13:09.24	48.56	29.66	-42.6	-43.4	21.6	0.00e+00	0	40	0	963641344	55	4287
2026-01-21 07:13:10.25	48.23	29.73	-42.6	-43.5	21.6	0.00e+00	0	40	0	966787072	55	4315
2026-01-21 07:13:11.26	47.91	29.79	-42.9	-43.7	21.5	0.00e+00	0	40	0	969932800	56	4183
2026-01-21 07:13:12.27	47.59	29.85	-42.9	-43.8	21.5	0.00e+00	0	40	0	973078528	56	4205
2026-01-21 07:13:13.27	47.26	29.91	-42.7	-43.6	21.7	0.00e+00	0	40	0	976224256	56	4099
2026-01-21 07:13:14.28	46.93	29.97	-42.7	-43.5	21.7	0.00e+00	0	40	0	979369984	56	4073
2026-01-21 07:13:15.29	46.61	30.02	-42.8	-43.6	21.6	0.00e+00	0	40	0	982515712	56	4136
2026-01-21 07:13:16.30	46.28	30.08	-42.7	-43.6	21.7	0.00e+00	0	40	0	985661440	56	4106
2026-01-21 07:13:17.31	45.94	30.14	-43.0	-43.8	21.4	0.00e+00	0	40	0	988807168	56	4228
2026-01-21 07:13:18.31	45.62	30.19	-42.8	-43.6	21.6	0.00e+00	0	40	0	991952896	56	4136
2026-01-21 07:13:19.32	45.28	30.24	-42.9	-43.8	21.5	0.00e+00	0	40	0	994050048	56	4197
2026-01-21 07:13:20.33	44.95	30.30	-42.9	-43.8	21.4	0.00e+00	0	40	0	997195776	56	4208
2026-01-21 07:13:21.34	44.61	30.35	-43.0	-43.9	21.4	0.00e+00	0	40	0	1001390080	56	4246
2026-01-21 07:13:22.35	44.28	30.40	-42.8	-43.6	21.5	0.00e+00	0	40	0	1004535808	56	4142
2026-01-21 07:13:23.35	43.94	30.45	-42.6	-43.5	21.7	0.00e+00	0	40	0	1007681536	56	4067
2026-01-21 07:13:24.36	43.60	30.50	-42.8	-43.7	21.5	0.00e+00	0	40	0	1010827264	56	4161
2026-01-21 07:13:25.37	43.26	30.55	-42.8	-43.6	21.6	0.00e+00	0	40	0	1013972992	56	4122
2026-01-21 07:13:26.38	42.92	30.59	-42.7	-43.5	21.7	0.00e+00	0	40	0	1017118720	56	4084
2026-01-21 07:13:27.38	42.58	30.64	-42.7	-43.6	21.6	0.00e+00	0	40	0	1020264448	56	4116
2026-01-21 07:13:28.39	42.24	30.68	-43.0	-43.9	21.4	0.00e+00	0	40	0	1023410176	56	4253
2026-01-21 07:13:29.40	41.90	30.72	-43.0	-43.9	21.3	0.00e+00	0	40	0	1026555904	56	4264
2026-01-21 07:13:30.41	41.55	30.77	-43.1	-43.9	21.3	0.00e+00	0	40	0	1029701632	56	4289
2026-01-21 07:13:31.41	41.21	30.81	-43.2	-44.1	21.1	0.00e+00	0	40	0	1032847360	57	4137
2026-01-21 07:13:32.42	40.87	30.85	-43.2	-44.0	21.2	0.00e+00	0	40	0	1035993088	57	4097
2026-01-21 07:13:33.43	40.52	30.89	-42.9	-43.8	21.4	0.00e+00	0	40	0	1038090240	57	3975
2026-01-21 07:13:34.44	40.17	30.92	-43.0	-43.9	21.4	0.00e+00	0	40	0	1042284544	57	4011
2026-01-21 07:13:35.45	39.82	30.96	-43.1	-44.0	21.3	0.00e+00	0	40	0	1045430272	57	4070
2026-01-21 07:13:36.45	39.48	31.00	-43.0	-43.9	21.4	0.00e+00	0	40	0	1048576000	57	4005
2026-01-21 07:13:37.46	39.13	31.03	-43.2	-44.1	21.2	0.00e+00	0	40	0	1051721728	57	4108
2026-01-21 07:13:38.47	38.77	31.06	-42.9	-43.7	21.5	0.00e+00	0	40	0	1054867456	57	3957
2026-01-21 07:13:39.48	38.42	31.10	-42.8	-43.6	21.6	0.00e+00	0	40	0	1058013184	57	3895
2026-01-21 07:13:40.49	38.07	31.13	-42.9	-43.7	21.6	0.00e+00	0	40	0	1061158912	57	3937
2026-01-21 07:13:41.49	37.72	31.16	-42.7	-43.5	21.7	0.00e+00	0	40	0	1064304640	57	3864
2026-01-21 07:13:42.50	37.37	31.18	-42.6	-43.5	21.7	0.00e+00	0	40	0	1067450368	57	3834
2026-01-21 07:13:43.51	37.01	31.21	-42.6	-43.5	21.8	0.00e+00	0	40	0	1070596096	57	3833
2026-01-21 07:13:44.52	36.66	31.24	-42.7	-43.5	21.7	0.00e+00	0	40	0	1073741824	57	3856
2026-01-21 07:13:45.53	36.30	31.26	-42.7	-43.5	21.7	0.00e+00	0	40	0	1076887552	57	3856
2026-01-21 07:13:46.53	35.95	31.29	-42.8	-43.7	21.6	0.00e+00	0	40	0	1080033280	57	3922
2026-01-21 07:13:47.54	35.59	31.31	-42.9	-43.7	21.5	0.00e+00	0	40	0	1083179008	57	3957
2026-01-21 07:13:48.55	35.24	31.33	-43.1	-43.9	21.4	0.00e+00	0	40	0	1086324736	57	4051
2026-01-21 07:13:49.56	34.88	31.35	-43.0	-43.8	21.5	0.00e+00	0	40	0	1089470464	57	3997
2026-01-21 07:13:50.56	34.53	31.37	-43.0	-43.9	21.4	0.00e+00	0	40	0	1092616192	57	4015
2026-01-21 07:13:51.57	34.17	31.38	-43.1	-43.9	21.4	0.00e+00	0	40	0	1095761920	57	4046
2026-01-21 07:13:52.58	33.81	31.40	-43.0	-43.9	21.4	0.00e+00	0	40	0	1098907648	57	4029
2026-01-21 07:13:53.59	33.45	31.42	-43.1	-43.9	21.4	0.00e+00	0	40	0	1102053376	57	4041
2026-01-21 07:13:54.60	33.09	31.43	-43.1	-44.0	21.3	0.00e+00	0	40	0	1105199104	57	4079
2026-01-21 07:13:55.61	32.73	31.44	-43.3	-44.2	21.2	0.00e+00	0	40	0	1108344832	57	4190
2026-01-21 07:13:56.61	32.38	31.45	-43.4	-44.4	21.0	0.00e+00	0	40	0	1111490560	57	4253
2026-01-21 07:13:57.62	32.02	31.46	-43.4	-44.3	21.1	0.00e+00	0	40	0	1114636288	57	4204
2026-01-21 07:13:58.63	31.66	31.47	-43.3	-44.2	21.2	0.00e+00	0	40	0	1117782016	57	4168
2026-01-21 07:13:59.64	31.30	31.48	-43.3	-44.2	21.1	0.00e+00	0	40	0	1120927744	57	4180
2026-01-21 07:14:00.65	30.93	31.48	-43.3	-44.2	21.1	0.00e+00	0	40	0	1124073472	57	4177
2026-01-21 07:14:01.65	30.58	31.49	-43.0	-43.8	21.4	0.00e+00	0	40	0	1127219200	57	3990
2026-01-21 07:14:02.66	30.22	31.49	-42.9	-43.7	21.6	0.00e+00	0	40	0	1130364928	57	3951
2026-01-21 07:14:03.67	29.86	31.49	-43.1	-44.0	21.3	0.00e+00	0	40	0	1133510656	57	4081
2026-01-21 07:14:04.68	29.50	31.49	-43.1	-44.0	21.3	0.00e+00	0	40	0	1136656384	57	4079
2026-01-21 07:14:05.69	29.13	31.49	-43.2	-44.1	21.3	0.00e+00	0	40	0	1139802112	57	4115
2026-01-21 07:14:06.69	28.78	31.49	-43.2	-44.1	21.3	0.00e+00	0	40	0	1142947840	57	4118
2026-01-21 07:14:07.70	28.42	31.49	-43.3	-44.2	21.1	0.00e+00	0	40	0	1146093568	57	4172
2026-01-21 07:14:08.71	28.06	31.49	-43.3	-44.2	21.1	0.00e+00	0	40	0	1149239296	57	4159
2026-01-21 07:14:09.72	27.70	31.48	-43.3	-44.2	21.1	0.00e+00	0	40	0	1152385024	57	4151
2026-01-21 07:14:10.72	27.34	31.47	-43.1	-44.0	21.3	0.00e+00	0	40	0	1155530752	57	4089
2026-01-21 07:14:11.73	26.98	31.46	-42.9	-43.8	21.5	0.00e+00	0	40	0	1158676480	57	3969
2026-01-21 07:14:12.74	26.62	31.46	-42.9	-43.7	21.5	0.00e+00	0	40	0	1161822208	57	3957
2026-01-21 07:14:13.75	26.26	31.44	-42.9	-43.7	21.5	0.00e+00	0	40	0	1164967936	57	3936
2026-01-21 07:14:14.75	25.90	31.43	-42.7	-43.6	21.7	0.00e+00	0	40	0	1168113664	57	3873
2026-01-21 07:14:15.76	25.54	31.42	-42.5	-43.3	21.9	0.00e+00	0	40	0	1171259392	57	3756
2026-01-21 07:14:16.77	25.19	31.41	-42.4	-43.3	21.9	0.00e+00	0	40	0	1174405120	56	3959
2026-01-21 07:14:17.78	24.83	31.39	-42.3	-43.1	22.0	0.00e+00	0	40	0	1177550848	56	3894
2026-01-21 07:14:18.79	24.47	31.37	-42.5	-43.3	21.8	0.00e+00	0	40	0	1180696576	56	3990
2026-01-21 07:14:19.80	24.11	31.35	-42.7	-43.5	21.6	0.00e+00	0	40	0	1183842304	56	4095
2026-01-21 07:14:20.80	23.76	31.33	-42.8	-43.7	21.5	0.00e+00	0	40	0	1186988032	56	4156
2026-01-21 07:14:21.81	23.40	31.31	-42.8	-43.7	21.6	0.00e+00	0	40	0	1190133760	56	4158
2026-01-21 07:14:22.82	23.04	31.29	-42.7	-43.5	21.7	0.00e+00	0	40	0	1193279488	56	4095
2026-01-21 07:14:23.82	22.69	31.27	-42.3	-43.1	22.0	0.00e+00	0	40	0	1196425216	56	3900
2026-01-21 07:14:24.83	22.34	31.24	-42.2	-43.0	22.0	0.00e+00	0	40	0	1199570944	56	3860
2026-01-21 07:14:25.84	21.98	31.22	-42.5	-43.3	21.8	0.00e+00	0	40	0	1202716672	56	3981
2026-01-21 07:14:26.85	21.63	31.19	-42.6	-43.5	21.7	0.00e+00	0	40	0	1205862400	56	4061
2026-01-21 07:14:27.86	21.27	31.16	-42.7	-43.5	21.7	0.00e+00	0	40	0	1209008128	56	4078
2026-01-21 07:14:28.87	20.92	31.13	-42.8	-43.7	21.5	0.00e+00	0	40	0	1212153856	56	4163
2026-01-21 07:14:29.87	20.57	31.10	-42.8	-43.7	21.6	0.00e+00	0	40	0	1215299584	56	4158
2026-01-21 07:14:30.88	20.22	31.07	-42.7	-43.5	21.7	0.00e+00	0	40	0	1218445312	56	4096
2026-01-21 07:14:31.89	19.87	31.04	-42.7	-43.5	21.7	0.00e+00	0	40	0	1221591040	56	4090
2026-01-21 07:14:32.90	19.52	31.01	-42.5	-43.3	21.9	0.00e+00	0	40	0	1224736768	56	3995
2026-01-21 07:14:33.91	19.17	30.97	-42.6	-43.4	21.8	0.00e+00	0	40	0	1227882496	56	4023
2026-01-21 07:14:34.91	18.82	30.93	-42.7	-43.5	21.8	0.00e+00	0	40	0	1231028224	56	4064
2026-01-21 07:14:35.92	18.48	30.90	-42.8	-43.6	21.7	0.00e+00	0	40	0	1234173952	56	4127
2026-01-21 07:14:36.93	18.13	30.86	-42.9	-43.7	21.6	0.00e+00	0	40	0	1237319680	56	4187
2026-01-21 07:14:37.94	17.78	30.82	-43.1	-44.0	21.4	0.00e+00	0	40	0	1240465408	56	4292
2026-01-21 07:14:38.95	17.44	30.78	-43.1	-44.0	21.3	0.00e+00	0	40	0	1243611136	56	4311
2026-01-21 07:14:39.95	17.10	30.74	-43.3	-44.2	21.1	0.00e+00	0	40	0	1246756864	57	4183
2026-01-21 07:14:40.96	16.75	30.69	-43.5	-44.4	21.0	0.00e+00	0	40	0	1249902592	57	4257
2026-01-21 07:14:41.97	16.41	30.65	-43.3	-44.2	21.2	0.00e+00	0	40	0	1253048320	57	4157
2026-01-21 07:14:42.98	16.07	30.60	-43.2	-44.1	21.2	0.00e+00	0	40	0	1256194048	57	4132
2026-01-21 07:14:43.98	15.73	30.56	-43.2	-44.1	21.2	0.00e+00	0	40	0	1259339776	57	4122
2026-01-21 07:14:44.99	15.39	30.51	-43.0	-43.8	21.4	0.00e+00	0	40	0	1262485504	57	3997
2026-01-21 07:14:46.00	15.05	30.46	-42.9	-43.7	21.5	0.00e+00	0	40	0	1265631232	57	3944
2026-01-21 07:14:47.01	14.72	30.41	-42.5	-43.3	21.8	0.00e+00	0	40	0	1268776960	57	3765
2026-01-21 07:14:48.02	14.38	30.36	-42.5	-43.3	21.8	0.00e+00	0	40	0	1271922688	56	3980
2026-01-21 07:14:49.02	14.05	30.31	-42.3	-43.1	22.0	0.00e+00	0	40	0	1275068416	56	3910
2026-01-21 07:14:50.03	13.71	30.26	-42.4	-43.2	22.0	0.00e+00	0	40	0	1278214144	56	3933
2026-01-21 07:14:51.04	13.38	30.21	-42.5	-43.4	21.8	0.00e+00	0	40	0	1281359872	56	4017
2026-01-21 07:14:52.05	13.05	30.15	-42.4	-43.3	21.9	0.00e+00	0	40	0	1284505600	56	3968
2026-01-21 07:14:53.05	12.72	30.10	-42.6	-43.5	21.7	0.00e+00	0	40	0	1287651328	56	4053
2026-01-21 07:14:54.06	12.39	30.04	-42.7	-43.5	21.6	0.00e+00	0	40	0	1290797056	56	4092
2026-01-21 07:14:55.07	12.06	29.98	-42.7	-43.5	21.5	0.00e+00	0	40	0	1293942784	56	4097
2026-01-21 07:14:56.08	11.73	29.92	-42.6	-43.5	21.6	0.00e+00	0	40	0	1297088512	56	4073
2026-01-21 07:14:57.09	11.41	29.86	-42.6	-43.4	21.7	0.00e+00	0	40	0	1300234240	56	4049
2026-01-21 07:14:58.09	11.08	29.81	-42.6	-43.4	21.8	0.00e+00	0	40	0	1303379968	56	4030
2026-01-21 07:14:59.10	10.76	29.74	-42.5	-43.3	21.8	0.00e+00	0	40	0	1306525696	56	4003
2026-01-21 07:15:00.11	10.44	29.68	-42.5	-43.4	21.9	0.00e+00	0	40	0	1309671424	56	4007
2026-01-21 07:15:01.12	10.12	29.62	-42.7	-43.5	21.7	0.00e+00	0	40	0	1312817152	56	4081
2026-01-21 07:15:02.13	9.80	29.56	-42.8	-43.7	21.6	0.00e+00	0	40	0	1315962880	56	4152
2026-01-21 07:15:03.13	9.48	29.49	-42.8	-43.6	21.6	0.00e+00	0	40	0	1319108608	56	4134
2026-01-21 07:15:04.14	9.16	29.43	-42.7	-43.6	21.5	0.00e+00	0	40	0	1322254336	56	4125
2026-01-21 07:15:05.15	8.85	29.36	-42.7	-43.5	21.6	0.00e+00	0	40	0	1325400064	56	4086
2026-01-21 07:15:06.16	8.53	29.29	-42.3	-43.1	21.9	0.00e+00	0	40	0	1328545792	56	3912
2026-01-21 07:15:07.17	8.22	29.22	-42.1	-42.9	22.2	0.00e+00	0	40	0	1331691520	56	3820
2026-01-21 07:15:08.17	7.91	29.16	-42.1	-42.9	22.3	0.00e+00	0	40	0	1334837248	56	3782
2026-01-21 07:15:09.18	7.60	29.09	-42.1	-42.9	22.2	0.00e+00	0	40	0	1337982976	56	3808
2026-01-21 07:15:10.19	7.29	29.02	-42.4	-43.2	21.9	0.00e+00	0	40	0	1341128704	56	3942
2026-01-21 07:15:11.20	6.98	28.95	-42.5	-43.4	21.8	0.00e+00	0	40	0	1344274432	56	4013
2026-01-21 07:15:12.20	6.68	28.88	-42.5	-43.4	21.8	0.00e+00	0	40	0	1347420160	56	4015
2026-01-21 07:15:13.21	6.37	28.80	-42.5	-43.3	21.8	0.00e+00	0	40	0	1350565888	56	3989
2026-01-21 07:15:14.22	6.07	28.73	-42.4	-43.2	21.9	0.00e+00	0	40	0	1353711616	56	3954
2026-01-21 07:15:15.23	5.76	28.66	-42.3	-43.1	22.0	0.00e+00	0	40	0	1356857344	56	3880
2026-01-21 07:15:16.24	5.46	28.58	-42.1	-42.9	22.2	0.00e+00	0	40	0	1360003072	56	3811
2026-01-21 07:15:17.25	5.16	28.51	-41.8	-42.6	22.4	0.00e+00	0	40	0	1363148800	55	3877
2026-01-21 07:15:18.25	4.87	28.43	-41.8	-42.5	22.4	0.00e+00	0	40	0	1366294528	55	3866
2026-01-21 07:15:19.26	4.57	28.35	-41.7	-42.5	22.5	0.00e+00	0	40	0	1369440256	55	3850
2026-01-21 07:15:20.27	4.28	28.28	-42.0	-42.8	22.2	0.00e+00	0	40	0	1372585984	55	3983
2026-01-21 07:15:21.28	3.98	28.20	-42.1	-42.9	22.1	0.00e+00	0	40	0	1375731712	55	4025
2026-01-21 07:15:22.29	3.69	28.12	-42.2	-43.0	22.0	0.00e+00	0	40	0	1378877440	55	4065
2026-01-21 07:15:23.29	3.40	28.04	-42.0	-42.8	22.1	0.00e+00	0	40	0	1382023168	55	3990
2026-01-21 07:15:24.30	3.11	27.96	-41.9	-42.7	22.2	0.00e+00	0	40	0	1385168896	55	3949
2026-01-21 07:15:25.31	2.82	27.88	-42.0	-42.8	22.2	0.00e+00	0	40	0	1388314624	55	3982
2026-01-21 07:15:26.32	2.54	27.80	-42.0	-42.9	22.1	0.00e+00	0	40	0	1391460352	55	4006
2026-01-21 07:15:27.32	2.25	27.72	-42.2	-43.0	22.0	0.00e+00	0	40	0	1394606080	55	4084
2026-01-21 07:15:28.33	1.97	27.64	-42.4	-43.2	21.8	0.00e+00	0	40	0	1397751808	55	4176
2026-01-21 07:15:29.34	1.69	27.56	-42.6	-43.5	21.7	0.00e+00	0	40	0	1400897536	55	4302
2026-01-21 07:15:30.34	1.41	27.48	-42.6	-43.5	21.7	0.00e+00	0	40	0	1404043264	55	4314
2026-01-21 07:15:31.35	1.13	27.39	-42.5	-43.3	21.8	0.00e+00	0	40	0	1407188992	55	4238
2026-01-21 07:15:32.36	0.85	27.31	-42.5	-43.4	21.7	0.00e+00	0	40	0	1410334720	55	4247
2026-01-21 07:15:33.37	0.57	27.22	-42.0	-42.8	22.1	0.00e+00	0	40	0	1413480448	55	3975
2026-01-21 07:15:34.38	0.30	27.14	-41.8	-42.6	22.3	0.00e+00	0	40	0	1416626176	55	3893
2026-01-21 07:15:35.38	0.03	27.05	-41.5	-42.3	22.7	0.00e+00	0	40	0	1419771904	55	3750
2026-01-21 07:15:36.39	359.76	26.97	-41.5	-42.3	22.7	0.00e+00	0	40	0	1422917632	54	3969
2026-01-21 07:15:37.40	359.48	26.88	-41.6	-42.4	22.6	0.00e+00	0	40	0	1426063360	54	4009
2026-01-21 07:15:38.41	359.22	26.79	-41.7	-42.5	22.4	0.00e+00	0	40	0	1429209088	54	4081
2026-01-21 07:15:39.42	358.95	26.71	-41.8	-42.6	22.4	0.00e+00	0	40	0	1432354816	54	4099
2026-01-21 07:15:40.42	358.68	26.62	-41.8	-42.6	22.3	0.00e+00	0	40	0	1435500544	54	4106
2026-01-21 07:15:41.43	358.42	26.53	-41.5	-42.3	22.4	0.00e+00	0	40	0	1438646272	54	3974
2026-01-21 07:15:42.44	358.16	26.44	-41.3	-42.1	22.6	0.00e+00	0	40	0	1441792000	54	3881
2026-01-21 07:15:43.45	357.89	26.36	-41.2	-42.0	22.7	0.00e+00	0	40	0	1444937728	54	3828
2026-01-21 07:15:44.45	357.64	26.27	-41.3	-42.0	22.7	0.00e+00	0	40	0	1448083456	54	3850
2026-01-21 07:15:45.46	357.38	26.18	-41.5	-42.2	22.6	0.00e+00	0	40	0	1451229184	54	3947
2026-01-21 07:15:46.47	357.12	26.09	-41.7	-42.4	22.5	0.00e+00	0	40	0	1454374912	54	4047
2026-01-21 07:15:47.48	356.86	26.00	-41.9	-42.7	22.3	0.00e+00	0	40	0	1457520640	54	4151
2026-01-21 07:15:48.49	356.61	25.91	-42.0	-42.8	22.1	0.00e+00	0	40	0	1460666368	54	4234
2026-01-21 07:15:49.49	356.36	25.82	-42.2	-43.0	22.0	0.00e+00	0	40	0	1463812096	54	4306
2026-01-21 07:15:50.50	356.11	25.73	-42.1	-43.0	21.9	0.00e+00	0	40	0	1466957824	55	4053
2026-01-21 07:15:51.51	355.86	25.64	-42.1	-42.9	21.9	0.00e+00	0	40	0	1470103552	55	4038
2026-01-21 07:15:52.52	355.61	25.54	-42.1	-42.9	21.9	0.00e+00	0	40	0	1473249280	55	4037
2026-01-21 07:15:53.53	355.36	25.45	-42.0	-42.8	22.0	0.00e+00	0	40	0	1476395008	55	3992
2026-01-21 07:15:54.53	355.12	25.36	-41.9	-42.8	22.1	0.00e+00	0	40	0	1479540736	55	3961
2026-01-21 07:15:55.54	354.87	25.27	-42.0	-42.8	22.1	0.00e+00	0	40	0	1482686464	55	3965
2026-01-21 07:15:56.55	354.63	25.18	-42.2	-43.0	21.9	0.00e+00	0	40	0	1485832192	55	4066
2026-01-21 07:15:57.56	354.39	25.08	-42.3	-43.1	21.8	0.00e+00	0	40	0	1488977920	55	4126
2026-01-21 07:15:58.56	354.15	24.99	-42.4	-43.3	21.7	0.00e+00	0	40	0	1492123648	55	4211
2026-01-21 07:15:59.57	353.91	24.90	-42.5	-43.4	21.6	0.00e+00	0	40	0	1495269376	55	4244
2026-01-21 07:16:00.58	353.68	24.80	-42.5	-43.3	21.6	0.00e+00	0	40	0	1498415104	55	4226
2026-01-21 07:16:01.59	353.44	24.71	-42.5	-43.3	21.6	0.00e+00	0	40	0	1501560832	55	4227
2026-01-21 07:16:02.60	353.21	24.62	-42.4	-43.2	21.7	0.00e+00	0	40	0	1504706560	55	4188
2026-01-21 07:16:03.60	352.98	24.52	-42.3	-43.2	21.8	0.00e+00	0	40	0	1507852288	55	4154
2026-01-21 07:16:04.61	352.75	24.43	-41.9	-42.7	22.2	0.00e+00	0	40	0	1510998016	55	3954
2026-01-21 07:16:05.62	352.51	24.33	-42.1	-42.9	22.1	0.00e+00	0	40	0	1514143744	55	4010
2026-01-21 07:16:06.63	352.29	24.24	-42.0	-42.8	22.1	0.00e+00	0	40	0	1517289472	55	3994
2026-01-21 07:16:07.64	352.06	24.15	-41.9	-42.7	22.2	0.00e+00	0	40	0	1520435200	55	3915
2026-01-21 07:16:08.64	351.84	24.05	-41.9	-42.6	22.2	0.00e+00	0	40	0	1523580928	55	3910
2026-01-21 07:16:09.65	351.61	23.96	-42.0	-42.8	22.2	0.00e+00	0	40	0	1526726656	55	3967
2026-01-21 07:16:10.66	351.39	23.86	-42.1	-42.9	22.1	0.00e+00	0	40	0	1529872384	55	4014
2026-01-21 07:16:11.66	351.17	23.77	-42.0	-42.8	22.2	0.00e+00	0	40	0	1533018112	55	3967
2026-01-21 07:16:12.67	350.95	23.67	-42.1	-42.9	22.1	0.00e+00	0	40	0	1536163840	55	4030
2026-01-21 07:16:13.68	350.73	23.58	-42.1	-42.9	22.0	0.00e+00	0	40	0	1539309568	55	4038
2026-01-21 07:16:14.69	350.51	23.48	-42.1	-43.0	22.1	0.00e+00	0	40	0	1542455296	55	4053
2026-01-21 07:16:15.70	350.29	23.38	-42.2	-43.0	22.0	0.00e+00	0	40	0	1545601024	55	4064
2026-01-21 07:16:16.70	350.08	23.29	-42.3	-43.1	21.9	0.00e+00	0	40	0	1548746752	55	4123
2026-01-21 07:16:17.71	349.87	23.19	-42.3	-43.1	21.9	0.00e+00	0	40	0	1551892480	55	4140
2026-01-21 07:16:18.72	349.66	23.10	-42.3	-43.2	21.9	0.00e+00	0	40	0	1555038208	55	4150
2026-01-21 07:16:19.73	349.44	23.00	-42.2	-43.1	21.9	0.00e+00	0	40	0	1558183936	55	4108
2026-01-21 07:16:20.74	349.23	22.91	-42.2	-43.1	21.9	0.00e+00	0	40	0	1561329664	55	4112
2026-01-21 07:16:21.74	349.03	22.81	-42.2	-43.1	21.9	0.00e+00	0	40	0	1564475392	55	4110
2026-01-21 07:16:22.75	348.82	22.71	-42.1	-42.9	22.0	0.00e+00	0	40	0	1567621120	55	4036
2026-01-21 07:16:23.76	348.61	22.62	-42.0	-42.9	22.0	0.00e+00	0	40	0	1570766848	55	4009
2026-01-21 07:16:24.77	348.41	22.52	-42.2	-43.0	22.0	0.00e+00	0	40	0	1573912576	55	4064
2026-01-21 07:16:25.78	348.21	22.43	-42.2	-43.0	21.9	0.00e+00	0	40	0	1577058304	55	4084
2026-01-21 07:16:26.79	348.00	22.33	-42.2	-43.0	21.9	0.00e+00	0	40	0	1580204032	55	4068
2026-01-21 07:16:27.79	347.81	22.23	-42.3	-43.1	21.9	0.00e+00	0	40	0	1583349760	55	4125
2026-01-21 07:16:28.80	347.61	22.14	-42.2	-43.0	21.9	0.00e+00	0	40	0	1586495488	55	4097
2026-01-21 07:16:29.80	347.41	22.04	-42.0	-42.8	22.1	0.00e+00	0	40	0	1589641216	55	3992
2026-01-21 07:16:30.81	347.21	21.95	-41.9	-42.7	22.2	0.00e+00	0	40	0	1592786944	55	3923
2026-01-21 07:16:31.82	347.02	21.85	-42.0	-42.8	22.2	0.00e+00	0	40	0	1595932672	55	3977
2026-01-21 07:16:32.83	346.82	21.75	-42.0	-42.8	22.2	0.00e+00	0	40	0	1599078400	55	3972
2026-01-21 07:16:33.84	346.63	21.66	-41.9	-42.7	22.2	0.00e+00	0	40	0	1602224128	55	3926
2026-01-21 07:16:34.85	346.44	21.56	-42.0	-42.8	22.2	0.00e+00	0	40	0	1605369856	55	3973
2026-01-21 07:16:35.85	346.25	21.46	-41.9	-42.7	22.2	0.00e+00	0	40	0	1608515584	55	3948
2026-01-21 07:16:36.86	346.06	21.37	-41.9	-42.7	22.2	0.00e+00	0	40	0	1611661312	55	3949
2026-01-21 07:16:37.87	345.87	21.27	-41.9	-42.7	22.2	0.00e+00	0	40	0	1614807040	55	3926
2026-01-21 07:16:38.88	345.68	21.18	-41.7	-42.5	22.3	0.00e+00	0	40	0	1617952768	55	3850
2026-01-21 07:16:39.89	345.50	21.08	-41.7	-42.5	22.3	0.00e+00	0	40	0	1621098496	55	3854
2026-01-21 07:16:40.89	345.31	20.98	-41.7	-42.5	22.3	0.00e+00	0	40	0	1624244224	55	3826
2026-01-21 07:16:41.90	345.13	20.89	-41.6	-42.4	22.4	0.00e+00	0	40	0	1627389952	55	3806
2026-01-21 07:16:42.91	344.95	20.79	-41.8	-42.6	22.3	0.00e+00	0	40	0	1630535680	55	3893
2026-01-21 07:16:43.91	344.77	20.70	-41.7	-42.5	22.3	0.00e+00	0	40	0	1633681408	55	3857
2026-01-21 07:16:44.92	344.59	20.60	-41.8	-42.6	22.3	0.00e+00	0	40	0	1636827136	55	3885
2026-01-21 07:16:45.93	344.41	20.50	-41.9	-42.7	22.1	0.00e+00	0	40	0	1639972864	55	3954
2026-01-21 07:16:46.94	344.23	20.41	-42.0	-42.9	22.0	0.00e+00	0	40	0	1643118592	55	4006
2026-01-21 07:16:47.95	344.05	20.31	-41.9	-42.7	22.2	0.00e+00	0	40	0	1646264320	55	3942
2026-01-21 07:16:48.95	343.88	20.22	-42.0	-42.8	22.2	0.00e+00	0	40	0	1649410048	55	3965
2026-01-21 07:16:49.96	343.70	20.12	-41.9	-42.8	22.1	0.00e+00	0	40	0	1652555776	55	3959
2026-01-21 07:16:50.97	343.53	20.03	-42.1	-42.9	22.0	0.00e+00	0	40	0	1655701504	55	4031
2026-01-21 07:16:51.98	343.36	19.93	-42.1	-43.0	21.9	0.00e+00	0	40	0	1658847232	55	4060
2026-01-21 07:16:52.98	343.19	19.84	-42.2	-43.1	21.8	0.00e+00	0	40	0	1661992960	55	4107
2026-01-21 07:16:53.99	343.02	19.74	-42.0	-42.8	22.0	0.00e+00	0	40	0	1665138688	55	4004
2026-01-21 07:16:55.00	342.85	19.65	-42.0	-42.8	22.1	0.00e+00	0	40	0	1668284416	55	3981
2026-01-21 07:16:56.01	342.68	19.55	-41.8	-42.6	22.2	0.00e+00	0	40	0	1671430144	55	3910
2026-01-21 07:16:57.02	342.51	19.46	-41.8	-42.6	22.2	0.00e+00	0	40	0	1674575872	55	3906
2026-01-21 07:16:58.02	342.35	19.36	-41.7	-42.5	22.3	0.00e+00	0	40	0	1677721600	55	3845
2026-01-21 07:16:59.03	342.18	19.27	-41.7	-42.5	22.2	0.00e+00	0	40	0	1680867328	55	3860
2026-01-21 07:17:00.04	342.02	19.17	-41.9	-42.7	22.1	0.00e+00	0	40	0	1685061632	55	3938
2026-01-21 07:17:01.05	341.86	19.08	-42.1	-42.9	21.9	0.00e+00	0	40	0	1687158784	55	4019
2026-01-21 07:17:02.05	341.70	18.99	-42.2	-43.1	21.7	0.00e+00	0	40	0	1690304512	55	4110
2026-01-21 07:17:03.06	341.53	18.89	-42.4	-43.3	21.5	0.00e+00	0	40	0	1693450240	55	4214
2026-01-21 07:17:04.07	341.37	18.80	-42.5	-43.4	21.4	0.00e+00	0	40	0	1696595968	55	4267
2026-01-21 07:17:05.07	341.22	18.70	-42.5	-43.3	21.5	0.00e+00	0	40	0	1699741696	55	4229
2026-01-21 07:17:06.08	341.06	18.61	-42.3	-43.2	21.6	0.00e+00	0	40	0	1702887424	55	4149
2026-01-21 07:17:07.09	340.90	18.52	-42.2	-43.1	21.6	0.00e+00	0	40	0	1706033152	55	4109
2026-01-21 07:17:08.10	340.75	18.42	-42.2	-43.0	21.7	0.00e+00	0	40	0	1709178880	55	4079
2026-01-21 07:17:09.10	340.59	18.33	-42.2	-43.1	21.7	0.00e+00	0	40	0	1712324608	55	4101
2026-01-21 07:17:10.11	340.44	18.24	-42.3	-43.2	21.6	0.00e+00	0	40	0	1715470336	55	4150
2026-01-21 07:17:11.12	340.29	18.14	-42.3	-43.1	21.7	0.00e+00	0	40	0	1718616064	55	4130
2026-01-21 07:17:12.13	340.13	18.05	-42.3	-43.2	21.7	0.00e+00	0	40	0	1721761792	55	4148
2026-01-21 07:17:13.14	339.98	17.96	-42.2	-43.0	21.8	0.00e+00	0	40	0	1725956096	55	4098
2026-01-21 07:17:14.15	339.83	17.86	-42.3	-43.1	21.7	0.00e+00	0	40	0	1729101824	55	4123
2026-01-21 07:17:15.15	339.68	17.77	-42.3	-43.2	21.7	0.00e+00	0	40	0	1732247552	55	4159
2026-01-21 07:17:16.16	339.54	17.68	-42.4	-43.2	21.6	0.00e+00	0	40	0	1734344704	55	4183
2026-01-21 07:17:17.17	339.39	17.59	-42.3	-43.2	21.6	0.00e+00	0	40	0	1737490432	55	4168
2026-01-21 07:17:18.17	339.24	17.50	-42.5	-43.3	21.5	0.00e+00	0	40	0	1740636160	55	4225
2026-01-21 07:17:19.18	339.10	17.40	-42.5	-43.3	21.4	0.00e+00	0	40	0	1743781888	55	4226
2026-01-21 07:17:20.19	338.95	17.31	-42.4	-43.3	21.4	0.00e+00	0	40	0	1746927616	55	4215
2026-01-21 07:17:21.20	338.81	17.22	-42.4	-43.3	21.4	0.00e+00	0	40	0	1750073344	55	4223
2026-01-21 07:17:22.20	338.67	17.13	-42.4	-43.2	21.5	0.00e+00	0	40	0	1753219072	55	4187
2026-01-21 07:17:23.21	338.53	17.04	-42.4	-43.3	21.5	0.00e+00	0	40	0	1756364800	55	4205
2026-01-21 07:17:24.22	338.38	16.95	-42.3	-43.1	21.6	0.00e+00	0	40	0	1759510528	55	4137
2026-01-21 07:17:25.23	338.24	16.86	-42.2	-43.1	21.7	0.00e+00	0	40	0	1762656256	55	4102
2026-01-21 07:17:26.23	338.11	16.77	-42.1	-42.9	21.8	0.00e+00	0	40	0	1766850560	55	4050
2026-01-21 07:17:27.24	337.97	16.68	-42.1	-42.9	21.9	0.00e+00	0	40	0	1769996288	55	4019
2026-01-21 07:17:28.25	337.83	16.58	-42.2	-43.0	21.7	0.00e+00	0	40	0	1773142016	55	4097
2026-01-21 07:17:29.26	337.69	16.49	-42.1	-43.0	21.8	0.00e+00	0	40	0	1776287744	55	4065
2026-01-21 07:17:30.27	337.56	16.40	-42.3	-43.1	21.6	3.00e-06	0	40	0	1779433472	55	4131
2026-01-21 07:17:31.27	337.42	16.31	-42.3	-43.1	21.7	0.00e+00	0	40	0	1781530624	55	4133
2026-01-21 07:17:32.28	337.29	16.22	-42.4	-43.3	21.5	0.00e+00	0	40	0	1784676352	55	4219
2026-01-21 07:17:33.29	337.15	16.13	-42.5	-43.4	21.4	0.00e+00	0	40	0	1787822080	55	4258
2026-01-21 07:17:34.30	337.02	16.05	-42.6	-43.5	21.3	0.00e+00	0	40	0	1790967808	55	4304
2026-01-21 07:17:35.31	336.89	15.96	-42.7	-43.6	21.3	0.00e+00	0	40	0	1794113536	55	4345
2026-01-21 07:17:36.31	336.76	15.87	-42.6	-43.5	21.3	0.00e+00	0	40	0	1797259264	55	4324
2026-01-21 07:17:37.32	336.63	15.78	-42.6	-43.5	21.3	0.00e+00	0	40	0	1800404992	55	4319
2026-01-21 07:17:38.33	336.50	15.69	-42.5	-43.4	21.4	0.00e+00	0	40	0	1803550720	55	4252
2026-01-21 07:17:39.34	336.37	15.60	-42.6	-43.5	21.3	0.00e+00	0	40	0	1807745024	55	4293
2026-01-21 07:17:40.34	336.24	15.51	-42.4	-43.2	21.5	0.00e+00	0	40	0	1810890752	55	4187
2026-01-21 07:17:41.35	336.12	15.42	-42.3	-43.1	21.6	0.00e+00	0	40	0	1814036480	55	4138
2026-01-21 07:17:42.36	335.99	15.34	-42.3	-43.1	21.6	0.00e+00	0	40	0	1817182208	55	4124
2026-01-21 07:17:43.36	335.87	15.25	-42.2	-43.1	21.6	0.00e+00	0	40	0	1820327936	55	4105
2026-01-21 07:17:44.37	335.74	15.16	-42.2	-43.0	21.7	0.00e+00	0	40	0	1823473664	55	4095
2026-01-21 07:17:45.38	335.62	15.07	-42.2	-43.1	21.6	0.00e+00	0	40	0	1826619392	55	4115
2026-01-21 07:17:46.39	335.49	14.99	-42.4	-43.2	21.6	0.00e+00	0	40	0	1828716544	55	4174
2026-01-21 07:17:47.40	335.37	14.90	-42.4	-43.3	21.5	0.00e+00	0	40	0	1831862272	55	4194
2026-01-21 07:17:48.41	335.25	14.81	-42.5	-43.3	21.4	0.00e+00	0	40	0	1835008000	55	4237
2026-01-21 07:17:49.41	335.13	14.72	-42.5	-43.3	21.4	0.00e+00	0	40	0	1838153728	55	4237
2026-01-21 07:17:50.42	335.01	14.64	-42.7	-43.5	21.3	0.00e+00	0	40	0	1841299456	55	4327
2026-01-21 07:17:51.43	334.89	14.55	-42.7	-43.6	21.3	0.00e+00	0	40	0	1844445184	55	4348
2026-01-21 07:17:52.44	334.77	14.46	-42.7	-43.6	21.3	0.00e+00	0	40	0	1848639488	55	4356
2026-01-21 07:17:53.45	334.65	14.38	-42.8	-43.7	21.2	0.00e+00	0	40	0	1851785216	56	4175
2026-01-21 07:17:54.45	334.53	14.29	-42.9	-43.8	21.1	0.00e+00	0	40	0	1854930944	56	4212
2026-01-21 07:17:55.46	334.42	14.21	-43.0	-43.9	21.0	0.00e+00	0	40	0	1858076672	56	4249
2026-01-21 07:17:56.46	334.30	14.12	-42.9	-43.8	21.1	0.00e+00	0	40	0	1861222400	56	4204
2026-01-21 07:17:57.47	334.19	14.04	-43.0	-43.9	21.0	0.00e+00	0	40	0	1864368128	56	4250
2026-01-21 07:17:58.48	334.07	13.95	-42.7	-43.6	21.3	0.00e+00	0	40	0	1867513856	56	4113
2026-01-21 07:17:59.49	333.96	13.87	-42.9	-43.8	21.1	0.00e+00	0	40	0	1870659584	56	4203
2026-01-21 07:18:00.50	333.84	13.78	-42.8	-43.7	21.2	0.00e+00	0	40	0	1873805312	56	4156
2026-01-21 07:18:01.51	333.73	13.70	-43.0	-43.9	21.0	0.00e+00	0	40	0	1875902464	56	4252
2026-01-21 07:18:02.52	333.62	13.61	-42.8	-43.7	21.1	0.00e+00	0	40	0	1879048192	56	4174
2026-01-21 07:18:03.52	333.51	13.53	-42.9	-43.8	21.1	0.00e+00	0	40	0	1882193920	56	4201
2026-01-21 07:18:04.53	333.40	13.44	-42.9	-43.8	21.0	0.00e+00	0	40	0	1885339648	56	4232
2026-01-21 07:18:05.53	333.29	13.36	-43.0	-43.9	21.0	0.00e+00	0	40	0	1889533952	56	4255
2026-01-21 07:18:06.54	333.18	13.28	-43.0	-43.9	21.0	0.00e+00	0	40	0	1892679680	56	4263
2026-01-21 07:18:07.55	333.07	13.19	-43.1	-44.0	20.9	0.00e+00	0	40	0	1895825408	56	4308
2026-01-21 07:18:08.56	332.96	13.11	-43.1	-44.0	20.9	0.00e+00	0	40	0	1898971136	56	4310
2026-01-21 07:18:09.57	332.85	13.02	-43.2	-44.1	20.8	0.00e+00	0	40	0	1902116864	56	4359
2026-01-21 07:18:10.58	332.75	12.94	-43.3	-44.2	20.7	0.00e+00	0	40	0	1905262592	57	4161
2026-01-21 07:18:11.59	332.64	12.86	-43.5	-44.5	20.4	0.00e+00	0	40	0	1908408320	57	4311
2026-01-21 07:18:12.60	332.53	12.78	-43.5	-44.5	20.5	0.00e+00	0	40	0	1911554048	57	4292
2026-01-21 07:18:13.60	332.43	12.69	-43.6	-44.6	20.3	0.00e+00	0	40	0	1914699776	57	4346
2026-01-21 07:18:14.61	332.32	12.61	-43.4	-44.4	20.5	0.00e+00	0	40	0	1917845504	57	4267
2026-01-21 07:18:15.62	332.22	12.53	-43.5	-44.5	20.4	0.00e+00	0	40	0	1920991232	57	4322
2026-01-21 07:18:16.63	332.12	12.45	-43.6	-44.6	20.3	0.00e+00	0	40	0	1923088384	57	4377
2026-01-21 07:18:17.64	332.01	12.36	-43.7	-44.7	20.2	3.00e-06	0	40	0	1927282688	58	4165
2026-01-21 07:18:18.65	331.91	12.28	-43.8	-44.8	20.1	0.00e+00	0	40	0	1930428416	58	4236
2026-01-21 07:18:19.65	331.81	12.20	-43.8	-44.8	20.1	0.00e+00	0	40	0	1933574144	58	4215
2026-01-21 07:18:20.66	331.71	12.12	-43.9	-44.9	20.0	0.00e+00	0	40	0	1936719872	58	4254
2026-01-21 07:18:21.66	331.61	12.04	-44.0	-45.0	19.9	0.00e+00	0	40	0	1939865600	58	4338
2026-01-21 07:18:22.67	331.51	11.96	-43.9	-44.9	20.0	0.00e+00	0	40	0	1943011328	58	4268
2026-01-21 07:18:23.68	331.41	11.88	-43.9	-44.9	20.0	0.00e+00	0	40	0	1946157056	58	4282
2026-01-21 07:18:24.69	331.31	11.80	-43.9	-44.9	20.0	0.00e+00	0	40	0	1949302784	58	4257
2026-01-21 07:18:25.69	331.21	11.72	-43.9	-44.9	19.9	0.00e+00	0	40	0	1952448512	58	4273
2026-01-21 07:18:26.70	331.12	11.64	-43.8	-44.8	20.1	0.00e+00	0	40	0	1955594240	58	4203
2026-01-21 07:18:27.71	331.02	11.56	-43.6	-44.6	20.2	0.00e+00	0	40	0	1958739968	58	4122
2026-01-21 07:18:28.72	330.92	11.48	-43.6	-44.6	20.2	0.00e+00	0	40	0	1961885696	58	4141
2026-01-21 07:18:29.72	330.83	11.40	-43.6	-44.6	20.2	0.00e+00	0	40	0	1965031424	58	4137
2026-01-21 07:18:30.73	330.73	11.32	-43.4	-44.4	20.4	0.00e+00	0	40	0	1968177152	58	4026
2026-01-21 07:18:31.74	330.64	11.24	-43.4	-44.4	20.5	0.00e+00	0	40	0	1971322880	58	4013
2026-01-21 07:18:32.75	330.54	11.16	-43.5	-44.4	20.4	0.00e+00	0	40	0	1974468608	58	4048
2026-01-21 07:18:33.75	330.45	11.08	-43.5	-44.4	20.4	0.00e+00	0	40	0	1977614336	58	4040
2026-01-21 07:18:34.76	330.36	11.00	-43.6	-44.6	20.3	0.00e+00	0	40	0	1980760064	58	4108
2026-01-21 07:18:35.77	330.26	10.92	-43.7	-44.7	20.2	0.00e+00	0	40	0	1983905792	58	4175
2026-01-21 07:18:36.78	330.17	10.84	-43.9	-44.9	20.0	0.00e+00	0	40	0	1987051520	58	4256
2026-01-21 07:18:37.79	330.08	10.77	-44.0	-45.0	19.9	0.00e+00	0	40	0	1990197248	58	4332
2026-01-21 07:18:38.79	329.99	10.69	-44.0	-45.0	19.8	0.00e+00	0	40	0	1993342976	58	4329
2026-01-21 07:18:39.80	329.90	10.61	-44.1	-45.1	19.7	0.00e+00	0	40	0	1996488704	58	4388
2026-01-21 07:18:40.81	329.81	10.53	-44.2	-45.2	19.7	0.00e+00	0	40	0	1999634432	58	4429
2026-01-21 07:18:41.82	329.72	10.45	-44.2	-45.3	19.6	0.00e+00	0	40	0	2002780160	59	4200
2026-01-21 07:18:42.82	329.63	10.38	-44.3	-45.3	19.5	0.00e+00	0	40	0	2005925888	59	4236
2026-01-21 07:18:43.83	329.54	10.30	-44.3	-45.4	19.4	0.00e+00	0	40	0	2009071616	59	4280
2026-01-21 07:18:44.84	329.45	10.22	-44.3	-45.4	19.5	0.00e+00	0	40	0	2012217344	59	4258
2026-01-21 07:18:45.85	329.36	10.15	-44.4	-45.5	19.3	0.00e+00	0	40	0	2015363072	59	4328
2026-01-21 07:18:46.85	329.28	10.07	-44.3	-45.4	19.4	0.00e+00	0	40	0	2018508800	59	4267
2026-01-21 07:18:47.86	329.19	9.99	-44.4	-45.5	19.4	0.00e+00	0	39	0	2021654528	59	4297
2026-01-21 07:18:48.87	329.10	9.92	-44.4	-45.5	19.3	0.00e+00	0	39	0	2024800256	59	4324
2026-01-21 07:18:49.88	329.02	9.84	-44.1	-45.2	19.6	0.00e+00	0	40	0	2027945984	59	4155
2026-01-21 07:18:50.89	328.93	9.76	-44.2	-45.3	19.5	0.00e+00	0	40	0	2031091712	59	4207
2026-01-21 07:18:51.89	328.85	9.69	-44.1	-45.1	19.7	0.00e+00	0	40	0	2034237440	59	4130
2026-01-21 07:18:52.90	328.76	9.61	-44.2	-45.3	19.5	0.00e+00	0	40	0	2037383168	59	4223
2026-01-21 07:18:53.91	328.68	9.54	-44.0	-45.1	19.7	0.00e+00	0	40	0	2040528896	59	4101
2026-01-21 07:18:54.91	328.60	9.46	-44.1	-45.1	19.7	0.00e+00	0	40	0	2043674624	59	4133
2026-01-21 07:18:55.92	328.51	9.39	-44.0	-45.0	19.8	0.00e+00	0	40	0	2046820352	59	4064
2026-01-21 07:18:56.93	328.43	9.31	-43.9	-44.9	19.8	0.00e+00	0	40	0	2049966080	59	4044
2026-01-21 07:18:57.94	328.35	9.24	-43.8	-44.7	20.0	0.00e+00	0	40	0	2053111808	59	3958
