passes_logs/2026/01/21/R3.2S_Murmansk/R3.2S_Murmansk__20260121_082922_KANOPUS-V_5_rec.log

#Pass ID: 20260121_082922_KANOPUS-V 5
#Satellite: KANOPUS-V 5
#Configuration: KANOPUS-V_8320
#almurnet v.1.7.20251203
#Start time: 2026-01-21 08:29:22

#Version: 2.2.20231116
#Station: R3.2S_Murmansk
#Location: 33.079688 lon 68.888172 lat
#TLE: 1 43876U 18111A   26020.95068231  .00008875  00000+0  37477-3 0  9992
#TLE: 2 43876  97.3685 289.3573 0001812  87.5365 272.6080 15.23490286392370

#Time	Az	El	Level	Level2	SNR	BER	BlckErr	Temp	State	Recorded	gain1	gain2
2026-01-21 08:29:22.50	179.71	2.06	-54.7	-63.6	3.8	7.46e-01	0	38	0	0	80	10336
2026-01-21 08:29:23.50	179.76	2.12	-54.3	-63.2	3.8	7.46e-01	0	38	104	0	80	9908
2026-01-21 08:29:24.51	179.80	2.19	-54.2	-63.0	3.8	7.44e-01	0	38	104	0	80	9706
2026-01-21 08:29:25.52	179.84	2.26	-54.0	-62.8	3.8	7.43e-01	0	38	104	0	79	10018
2026-01-21 08:29:26.53	179.89	2.33	-53.6	-62.4	3.8	7.45e-01	0	38	104	0	79	9582
2026-01-21 08:29:27.54	179.93	2.40	-53.6	-62.4	3.8	7.45e-01	0	38	104	0	79	9572
2026-01-21 08:29:28.55	179.98	2.47	-53.6	-62.4	3.8	7.44e-01	0	38	104	0	79	9579
2026-01-21 08:29:29.55	180.02	2.54	-53.6	-62.4	3.8	7.45e-01	0	39	104	0	79	9546
2026-01-21 08:29:30.56	180.07	2.62	-53.6	-62.4	3.8	7.45e-01	0	39	104	0	79	9568
2026-01-21 08:29:31.57	180.12	2.69	-53.6	-62.4	3.8	7.44e-01	0	39	104	0	79	9569
2026-01-21 08:29:32.58	180.16	2.76	-53.6	-62.4	3.8	7.46e-01	0	38	104	0	79	9581
2026-01-21 08:29:33.59	180.21	2.83	-53.6	-62.4	3.8	7.44e-01	0	39	104	0	79	9543
2026-01-21 08:29:34.59	180.25	2.90	-53.6	-62.4	3.8	7.45e-01	0	39	104	0	79	9546
2026-01-21 08:29:35.60	180.30	2.97	-53.6	-62.4	3.8	7.45e-01	0	38	104	0	79	9577
2026-01-21 08:29:36.61	180.35	3.05	-53.6	-62.4	3.8	7.46e-01	0	39	104	0	79	9552
2026-01-21 08:29:37.62	180.40	3.12	-53.5	-62.4	3.8	7.44e-01	0	39	104	0	79	9526
2026-01-21 08:29:38.63	180.44	3.19	-53.5	-62.4	3.8	7.45e-01	0	39	104	0	79	9522
2026-01-21 08:29:39.64	180.49	3.26	-53.6	-62.4	3.8	7.45e-01	0	39	104	0	79	9530
2026-01-21 08:29:40.65	180.54	3.34	-53.5	-62.4	3.8	7.46e-01	0	39	104	0	79	9528
2026-01-21 08:29:41.65	180.59	3.41	-53.5	-62.3	3.8	7.46e-01	0	39	104	0	79	9479
2026-01-21 08:29:42.66	180.64	3.48	-53.5	-62.4	3.8	7.46e-01	0	39	104	0	79	9560
2026-01-21 08:29:43.67	180.69	3.56	-53.5	-62.4	3.8	7.45e-01	0	39	104	0	79	9522
2026-01-21 08:29:44.68	180.74	3.63	-53.5	-62.4	3.8	7.44e-01	0	39	104	0	79	9500
2026-01-21 08:29:45.69	180.79	3.71	-53.5	-62.4	3.8	7.46e-01	0	39	104	0	79	9499
2026-01-21 08:29:46.69	180.84	3.78	-53.5	-62.4	3.8	7.45e-01	0	39	104	0	79	9533
2026-01-21 08:29:47.70	180.89	3.86	-53.5	-62.3	3.8	7.46e-01	0	39	104	0	79	9489
2026-01-21 08:29:48.71	180.94	3.93	-53.5	-62.3	3.8	7.45e-01	0	39	104	0	79	9486
2026-01-21 08:29:49.72	180.99	4.01	-53.5	-62.4	3.8	7.45e-01	0	39	104	0	79	9499
2026-01-21 08:29:50.73	181.04	4.08	-53.5	-62.4	3.8	7.47e-01	0	39	104	0	79	9499
2026-01-21 08:29:51.73	181.09	4.16	-53.5	-62.3	3.8	7.44e-01	0	39	104	0	79	9493
2026-01-21 08:29:52.74	181.14	4.23	-53.5	-62.4	3.8	7.45e-01	0	39	104	0	79	9543
2026-01-21 08:29:53.75	181.20	4.31	-53.5	-62.4	3.8	7.45e-01	0	39	104	0	79	9501
2026-01-21 08:29:54.76	181.25	4.39	-53.5	-62.4	3.8	7.47e-01	0	39	104	0	79	9529
2026-01-21 08:29:55.76	181.30	4.46	-53.5	-62.4	3.8	7.46e-01	0	39	104	0	79	9525
2026-01-21 08:29:56.77	181.36	4.54	-52.6	-62.4	3.8	7.45e-01	0	39	104	0	77	10662
2026-01-21 08:29:57.78	181.41	4.62	-52.0	-62.3	3.8	7.47e-01	0	39	104	0	76	11181
2026-01-21 08:29:58.79	181.46	4.70	-48.1	-50.7	5.4	7.24e-01	0	39	104	0	68	4682
2026-01-21 08:29:59.80	181.52	4.78	-47.3	-49.7	11.3	6.16e-01	0	39	0	6291456	66	4677
2026-01-21 08:30:00.81	181.57	4.85	-46.2	-48.4	12.6	6.11e-01	0	39	0	20971520	64	4519
2026-01-21 08:30:01.81	181.63	4.93	-45.6	-47.7	13.2	6.11e-01	0	39	0	35651584	63	4438
2026-01-21 08:30:02.82	181.68	5.01	-45.5	-47.6	13.3	6.10e-01	0	39	0	52428800	62	4641
2026-01-21 08:30:03.83	181.74	5.09	-49.0	-51.9	9.2	6.31e-01	0	39	0	67108864	68	5372
2026-01-21 08:30:04.84	181.80	5.17	-49.2	-52.2	9.1	6.32e-01	0	39	0	81788928	69	5244
2026-01-21 08:30:05.85	181.85	5.25	-47.1	-49.6	11.6	6.15e-01	0	39	0	98566144	64	5162
2026-01-21 08:30:06.86	181.91	5.33	-47.4	-49.9	11.2	6.17e-01	0	39	0	113246208	66	4810
2026-01-21 08:30:07.86	181.97	5.41	-48.7	-51.6	9.6	6.27e-01	0	39	0	127926272	68	5164
2026-01-21 08:30:08.87	182.02	5.49	-46.4	-48.6	12.5	6.12e-01	0	39	0	144703488	64	4628
2026-01-21 08:30:09.88	182.08	5.58	-45.9	-48.1	13.0	6.10e-01	0	39	0	159383552	63	4617
2026-01-21 08:30:10.89	182.14	5.66	-45.4	-47.5	13.5	6.10e-01	0	39	0	174063616	62	4547
2026-01-21 08:30:11.89	182.20	5.74	-45.2	-47.3	13.7	6.10e-01	0	39	0	190840832	62	4469
2026-01-21 08:30:12.90	182.26	5.82	-44.9	-46.9	14.0	6.09e-01	0	39	0	207618048	61	4540
2026-01-21 08:30:13.91	182.32	5.90	-44.7	-46.7	14.2	6.09e-01	0	39	0	222298112	61	4434
2026-01-21 08:30:14.92	182.38	5.99	-45.4	-47.5	13.5	6.10e-01	0	39	0	236978176	61	4851
2026-01-21 08:30:15.93	182.44	6.07	-44.7	-46.7	14.2	6.09e-01	0	40	0	253755392	61	4435
2026-01-21 08:30:16.93	182.50	6.15	-44.9	-46.9	14.1	6.09e-01	0	40	0	268435456	61	4512
2026-01-21 08:30:17.94	182.56	6.24	-44.6	-46.6	14.3	6.09e-01	0	39	0	283115520	61	4390
2026-01-21 08:30:18.95	182.62	6.32	-44.9	-47.1	14.1	5.79e-01	0	40	0	299892736	61	4616
2026-01-21 08:30:19.96	182.68	6.41	-44.5	-46.7	14.4	5.78e-01	0	40	0	314572800	61	4430
2026-01-21 08:30:20.96	182.75	6.49	-44.6	-46.8	14.3	5.78e-01	0	40	0	329252864	60	4707
2026-01-21 08:30:21.97	182.81	6.58	-44.4	-46.5	14.6	5.78e-01	0	39	0	346030080	60	4596
2026-01-21 08:30:22.98	182.87	6.66	-44.5	-46.7	14.5	5.78e-01	0	40	0	360710144	60	4661
2026-01-21 08:30:23.99	182.94	6.75	-44.3	-46.5	14.6	5.77e-01	0	40	0	377487360	60	4568
2026-01-21 08:30:25.00	183.00	6.83	-44.2	-46.4	14.8	5.78e-01	0	40	0	392167424	60	4513
2026-01-21 08:30:26.01	183.07	6.92	-44.3	-46.5	14.6	5.79e-01	0	40	0	408944640	60	4563
2026-01-21 08:30:27.01	183.13	7.01	-44.2	-46.3	14.8	5.78e-01	0	40	0	423624704	60	4492
2026-01-21 08:30:28.02	183.20	7.10	-44.2	-46.3	14.8	5.77e-01	0	40	0	438304768	60	4489
2026-01-21 08:30:29.03	183.26	7.18	-44.2	-46.3	14.9	5.78e-01	0	40	0	455081984	60	4471
2026-01-21 08:30:30.04	183.33	7.27	-44.0	-46.1	15.1	5.78e-01	0	40	0	469762048	60	4362
2026-01-21 08:30:31.05	183.40	7.36	-44.1	-46.2	14.9	5.78e-01	0	40	0	484442112	59	4697
2026-01-21 08:30:32.05	183.46	7.45	-44.1	-46.2	14.9	5.77e-01	0	40	0	501219328	59	4690
2026-01-21 08:30:33.06	183.53	7.54	-44.0	-46.1	15.0	5.78e-01	0	40	0	515899392	59	4648
2026-01-21 08:30:34.07	183.60	7.63	-44.3	-46.4	14.8	5.77e-01	0	40	0	530579456	59	4775
2026-01-21 08:30:35.07	183.67	7.72	-44.0	-46.1	15.0	5.78e-01	0	40	0	547356672	59	4630
2026-01-21 08:30:36.08	183.74	7.81	-44.4	-46.5	14.8	5.77e-01	0	40	0	562036736	59	4815
2026-01-21 08:30:37.09	183.81	7.90	-44.0	-46.1	15.1	5.78e-01	0	40	0	576716800	59	4622
2026-01-21 08:30:38.10	183.88	7.99	-44.0	-46.0	15.1	5.77e-01	0	40	0	593494016	59	4570
2026-01-21 08:30:39.11	183.95	8.09	-43.9	-46.0	15.2	5.77e-01	0	40	0	610271232	59	4551
2026-01-21 08:30:40.11	184.02	8.18	-43.9	-45.9	15.2	5.76e-01	0	40	0	624951296	59	4522
2026-01-21 08:30:41.12	184.09	8.27	-43.8	-45.8	15.3	5.78e-01	0	40	0	639631360	59	4480
2026-01-21 08:30:42.13	184.17	8.36	-43.8	-45.8	15.4	5.78e-01	0	40	0	656408576	59	4446
2026-01-21 08:30:43.14	184.24	8.46	-43.7	-45.7	15.4	5.77e-01	0	40	0	671088640	59	4434
2026-01-21 08:30:44.15	184.31	8.55	-43.7	-45.7	15.4	5.77e-01	0	40	0	685768704	59	4405
2026-01-21 08:30:45.15	184.39	8.65	-43.6	-45.6	15.6	5.78e-01	0	40	0	702545920	59	4353
2026-01-21 08:30:46.16	184.46	8.74	-43.7	-45.7	15.3	6.05e-01	0	40	0	717225984	59	4411
2026-01-21 08:30:47.17	184.54	8.84	-43.5	-45.5	15.6	5.98e-01	0	40	0	731906048	59	4310
2026-01-21 08:30:48.18	184.61	8.93	-43.5	-45.5	15.5	6.00e-01	0	40	0	746586112	58	4552
2026-01-21 08:30:49.19	184.69	9.03	-43.4	-45.4	15.6	6.01e-01	0	40	0	763363328	58	4503
2026-01-21 08:30:50.20	184.77	9.13	-43.6	-45.5	15.5	5.98e-01	0	40	0	780140544	58	4588
2026-01-21 08:30:51.20	184.85	9.22	-43.6	-45.6	15.5	6.03e-01	0	40	0	794820608	58	4607
2026-01-21 08:30:52.21	184.92	9.32	-43.7	-45.7	15.4	6.01e-01	0	40	0	811597824	58	4658
2026-01-21 08:30:53.22	185.00	9.42	-43.6	-45.6	15.5	6.01e-01	0	40	0	826277888	58	4625
2026-01-21 08:30:54.23	185.08	9.52	-43.2	-45.2	15.9	6.00e-01	0	40	0	840957952	58	4392
2026-01-21 08:30:55.24	185.16	9.62	-43.3	-45.2	15.8	6.00e-01	0	40	0	857735168	58	4410
2026-01-21 08:30:56.24	185.24	9.72	-43.3	-45.2	15.8	6.05e-01	0	40	0	872415232	58	4411
2026-01-21 08:30:57.25	185.33	9.82	-43.2	-45.1	15.9	6.00e-01	0	40	0	887095296	58	4353
2026-01-21 08:30:58.27	185.41	9.92	-43.1	-45.0	16.0	6.01e-01	0	40	0	901775360	58	4334
2026-01-21 08:30:59.27	185.49	10.02	-43.0	-44.9	16.1	5.98e-01	0	40	0	918552576	58	4286
2026-01-21 08:31:00.28	185.58	10.12	-43.0	-44.9	16.1	6.01e-01	0	40	0	933232640	57	4515
2026-01-21 08:31:01.29	185.66	10.22	-42.9	-44.9	16.1	6.03e-01	0	40	0	947912704	57	4505
2026-01-21 08:31:02.30	185.75	10.33	-43.0	-44.9	16.0	6.01e-01	0	40	0	966787072	57	4513
2026-01-21 08:31:03.30	185.83	10.43	-43.0	-44.9	16.1	6.01e-01	0	40	0	981467136	57	4526
2026-01-21 08:31:04.31	185.92	10.53	-42.8	-44.7	16.2	6.02e-01	0	40	0	996147200	57	4427
2026-01-21 08:31:05.32	186.01	10.64	-42.8	-44.8	16.2	6.03e-01	0	40	0	1010827264	57	4452
2026-01-21 08:31:06.33	186.09	10.74	-42.7	-44.7	16.2	6.01e-01	0	40	0	1027604480	57	4400
2026-01-21 08:31:07.34	186.18	10.85	-42.8	-44.7	16.2	6.01e-01	0	40	0	1042284544	57	4441
2026-01-21 08:31:08.35	186.27	10.95	-42.7	-44.6	16.3	6.01e-01	0	40	0	1056964608	57	4375
2026-01-21 08:31:09.35	186.36	11.06	-42.7	-44.7	16.3	6.02e-01	0	40	0	1073741824	57	4421
2026-01-21 08:31:10.36	186.45	11.17	-42.6	-44.6	16.4	6.02e-01	0	40	0	1088421888	57	4361
2026-01-21 08:31:11.37	186.54	11.28	-42.7	-44.7	16.3	6.03e-01	0	40	0	1103101952	57	4419
2026-01-21 08:31:12.37	186.64	11.38	-42.6	-44.5	16.4	6.01e-01	0	40	0	1119879168	57	4332
2026-01-21 08:31:13.38	186.73	11.49	-42.5	-44.4	16.5	5.99e-01	0	40	0	1134559232	56	4539
2026-01-21 08:31:14.39	186.82	11.60	-42.6	-44.6	16.4	6.00e-01	0	40	0	1149239296	56	4610
2026-01-21 08:31:15.40	186.92	11.71	-42.4	-44.3	16.6	6.00e-01	0	40	0	1166016512	56	4487
2026-01-21 08:31:16.41	187.02	11.82	-42.4	-44.3	16.5	6.01e-01	0	40	0	1182793728	56	4491
2026-01-21 08:31:17.41	187.11	11.93	-42.4	-44.3	16.6	6.01e-01	0	40	0	1197473792	56	4488
2026-01-21 08:31:18.42	187.21	12.05	-42.3	-44.2	16.7	5.99e-01	0	40	0	1212153856	56	4435
2026-01-21 08:31:19.43	187.31	12.16	-42.3	-44.2	16.7	6.00e-01	0	40	0	1228931072	56	4427
2026-01-21 08:31:20.44	187.41	12.27	-42.2	-44.2	16.7	5.99e-01	0	40	0	1243611136	56	4392
2026-01-21 08:31:21.44	187.51	12.39	-42.1	-44.0	16.9	5.97e-01	0	40	0	1258291200	56	4323
2026-01-21 08:31:22.45	187.61	12.50	-42.2	-44.1	16.8	5.99e-01	0	40	0	1275068416	56	4378
2026-01-21 08:31:23.46	187.71	12.62	-42.2	-44.2	16.7	6.00e-01	0	40	0	1289748480	56	4393
2026-01-21 08:31:24.46	187.81	12.73	-42.1	-44.0	16.9	5.99e-01	0	40	0	1304428544	56	4312
2026-01-21 08:31:25.47	187.92	12.85	-42.2	-44.1	16.8	5.94e-01	0	40	0	1321205760	56	4377
2026-01-21 08:31:26.48	188.02	12.96	-42.1	-44.0	17.0	5.97e-01	0	40	0	1335885824	55	4580
2026-01-21 08:31:27.49	188.13	13.08	-42.1	-44.0	17.1	6.00e-01	0	40	0	1350565888	55	4550
2026-01-21 08:31:28.50	188.24	13.20	-42.0	-43.9	17.1	6.04e-01	0	40	0	1367343104	55	4516
2026-01-21 08:31:29.50	188.34	13.32	-41.9	-43.8	17.2	5.89e-01	0	40	0	1384120320	55	4480
2026-01-21 08:31:30.51	188.45	13.44	-42.0	-43.9	17.1	6.00e-01	0	40	0	1398800384	55	4534
2026-01-21 08:31:31.52	188.56	13.56	-42.0	-44.0	17.1	5.93e-01	0	40	0	1413480448	55	4554
2026-01-21 08:31:32.53	188.67	13.68	-41.9	-43.8	17.2	5.92e-01	0	40	0	1430257664	55	4470
2026-01-21 08:31:33.53	188.78	13.80	-42.0	-43.9	17.1	5.95e-01	0	40	0	1444937728	55	4526
2026-01-21 08:31:34.54	188.90	13.93	-42.1	-44.0	17.0	5.90e-01	0	40	0	1459617792	55	4589
2026-01-21 08:31:35.55	189.01	14.05	-42.0	-43.9	17.1	5.94e-01	0	40	0	1476395008	55	4524
2026-01-21 08:31:36.56	189.13	14.17	-41.8	-43.7	17.3	5.99e-01	0	40	0	1491075072	55	4424
2026-01-21 08:31:37.57	189.24	14.30	-41.8	-43.7	17.3	5.99e-01	0	40	0	1505755136	55	4433
2026-01-21 08:31:38.57	189.36	14.42	-41.8	-43.8	17.3	6.00e-01	0	40	0	1522532352	55	4450
2026-01-21 08:31:39.58	189.48	14.55	-41.6	-43.5	17.5	5.97e-01	0	40	0	1537212416	55	4332
2026-01-21 08:31:40.59	189.60	14.68	-41.6	-43.5	17.4	6.01e-01	0	40	0	1551892480	55	4318
2026-01-21 08:31:41.59	189.72	14.80	-41.6	-43.6	17.5	5.98e-01	0	40	0	1568669696	55	4343
2026-01-21 08:31:42.60	189.84	14.93	-41.5	-43.5	17.5	6.04e-01	0	40	0	1585446912	55	4294
2026-01-21 08:31:43.61	189.96	15.06	-41.5	-43.4	17.6	6.02e-01	0	40	0	1600126976	54	4500
2026-01-21 08:31:44.62	190.09	15.19	-41.4	-43.3	17.5	6.02e-01	0	40	0	1614807040	54	4487
2026-01-21 08:31:45.63	190.22	15.33	-41.6	-43.5	17.4	6.04e-01	0	40	0	1631584256	54	4568
2026-01-21 08:31:46.63	190.34	15.46	-41.3	-43.2	17.7	6.05e-01	0	40	0	1646264320	54	4404
2026-01-21 08:31:47.64	190.47	15.59	-41.2	-43.1	17.7	5.97e-01	0	40	0	1660944384	54	4384
2026-01-21 08:31:48.65	190.60	15.72	-41.3	-43.2	17.7	5.97e-01	0	40	0	1677721600	54	4423
2026-01-21 08:31:49.66	190.73	15.86	-41.2	-43.1	17.7	6.02e-01	0	40	0	1692401664	54	4365
2026-01-21 08:31:50.66	190.86	15.99	-41.1	-43.1	17.8	6.04e-01	0	40	0	1707081728	54	4343
2026-01-21 08:31:51.67	191.00	16.13	-41.0	-43.0	17.9	5.95e-01	0	40	0	1723858944	54	4295
2026-01-21 08:31:52.68	191.13	16.27	-41.0	-43.0	17.9	5.95e-01	0	40	0	1738539008	54	4311
2026-01-21 08:31:53.69	191.27	16.40	-41.1	-43.1	17.8	6.03e-01	0	40	0	1753219072	54	4348
2026-01-21 08:31:54.70	191.41	16.54	-41.0	-43.0	17.9	6.01e-01	0	40	0	1769996288	54	4306
2026-01-21 08:31:55.70	191.55	16.68	-41.0	-42.9	17.9	6.02e-01	0	40	0	1786773504	53	4535
2026-01-21 08:31:56.71	191.69	16.82	-41.0	-43.0	17.9	6.04e-01	0	40	0	1801453568	53	4546
2026-01-21 08:31:57.72	191.83	16.97	-40.9	-42.8	18.0	6.01e-01	0	40	0	1816133632	53	4487
2026-01-21 08:31:58.73	191.98	17.11	-40.9	-42.9	17.9	6.03e-01	0	40	0	1832910848	53	4513
2026-01-21 08:31:59.74	192.12	17.25	-40.9	-42.9	18.0	6.02e-01	0	40	0	1847590912	53	4495
2026-01-21 08:32:00.74	192.27	17.39	-40.8	-42.7	18.0	6.01e-01	0	40	0	1862270976	53	4436
2026-01-21 08:32:01.75	192.42	17.54	-40.8	-42.7	18.0	6.03e-01	0	40	0	1879048192	53	4435
2026-01-21 08:32:02.76	192.57	17.69	-40.9	-42.8	18.0	6.03e-01	0	40	0	1893728256	53	4462
2026-01-21 08:32:03.77	192.72	17.83	-40.8	-42.7	18.0	6.02e-01	0	40	0	1908408320	53	4399
2026-01-21 08:32:04.77	192.87	17.98	-40.7	-42.6	18.1	6.00e-01	0	40	0	1925185536	53	4390
2026-01-21 08:32:05.78	193.03	18.13	-40.7	-42.6	18.1	6.01e-01	0	40	0	1939865600	53	4390
2026-01-21 08:32:06.79	193.19	18.28	-40.6	-42.5	18.2	5.99e-01	0	40	0	1954545664	53	4320
2026-01-21 08:32:07.80	193.34	18.43	-40.6	-42.5	18.2	5.98e-01	0	40	0	1971322880	53	4293
2026-01-21 08:32:08.81	193.51	18.58	-40.5	-42.4	18.3	5.99e-01	0	40	0	1988100096	53	4248
2026-01-21 08:32:09.81	193.67	18.74	-40.6	-42.4	18.2	5.98e-01	0	40	0	2002780160	53	4287
2026-01-21 08:32:10.82	193.83	18.89	-40.7	-42.6	18.2	6.00e-01	0	40	0	2017460224	53	4356
2026-01-21 08:32:11.83	194.00	19.05	-40.6	-42.5	18.2	6.00e-01	0	40	0	2034237440	53	4330
2026-01-21 08:32:12.84	194.17	19.20	-40.4	-42.3	18.4	6.03e-01	0	40	0	2048917504	52	4476
2026-01-21 08:32:13.85	194.34	19.36	-40.5	-42.4	18.3	6.01e-01	0	40	0	2063597568	52	4518
2026-01-21 08:32:14.85	194.51	19.52	-40.5	-42.4	18.2	6.01e-01	0	40	0	2080374784	52	4532
2026-01-21 08:32:15.86	194.68	19.68	-40.6	-42.5	18.2	6.01e-01	0	40	0	2095054848	52	4559
2026-01-21 08:32:16.87	194.86	19.84	-40.5	-42.4	18.3	6.00e-01	0	40	0	2109734912	52	4535
2026-01-21 08:32:17.88	195.04	20.00	-40.5	-42.4	18.2	6.00e-01	0	40	0	2124414976	52	4517
2026-01-21 08:32:18.89	195.22	20.16	-40.5	-42.4	18.3	6.03e-01	0	40	0	2141192192	52	4498
2026-01-21 08:32:19.89	195.40	20.32	-40.5	-42.4	18.3	6.02e-01	0	40	0	2157969408	52	4506
2026-01-21 08:32:20.90	195.59	20.49	-40.4	-42.3	18.4	6.02e-01	0	40	0	2172649472	52	4481
2026-01-21 08:32:21.91	195.77	20.66	-40.5	-42.3	18.3	5.99e-01	0	40	0	2189426688	52	4483
2026-01-21 08:32:22.92	195.96	20.82	-40.4	-42.2	18.4	6.00e-01	0	40	0	2204106752	52	4427
2026-01-21 08:32:23.92	196.15	20.99	-40.4	-42.2	18.4	6.01e-01	0	40	0	2218786816	52	4407
2026-01-21 08:32:24.93	196.35	21.16	-40.4	-42.2	18.5	6.00e-01	0	40	0	2233466880	52	4408
2026-01-21 08:32:25.94	196.54	21.33	-40.2	-42.0	18.6	5.98e-01	0	40	0	2250244096	52	4302
2026-01-21 08:32:26.95	196.74	21.50	-40.3	-42.0	18.5	6.01e-01	0	40	0	2264924160	52	4330
2026-01-21 08:32:27.96	196.94	21.67	-40.4	-42.1	18.5	6.00e-01	0	40	0	2279604224	52	4348
2026-01-21 08:32:28.97	197.15	21.85	-40.3	-41.9	18.6	6.06e-01	0	40	0	2296381440	52	4288
2026-01-21 08:32:29.97	197.35	22.02	-40.3	-42.0	18.7	5.97e-01	0	40	0	2311061504	52	4299
2026-01-21 08:32:30.98	197.56	22.20	-40.4	-42.0	18.6	5.97e-01	0	40	0	2325741568	52	4333
2026-01-21 08:32:31.99	197.77	22.38	-40.5	-42.1	18.5	5.99e-01	0	40	0	2342518784	52	4368
2026-01-21 08:32:33.00	197.99	22.55	-40.5	-42.1	18.5	6.03e-01	0	40	0	2359296000	52	4375
2026-01-21 08:32:34.01	198.21	22.74	-40.6	-42.2	18.4	6.06e-01	0	40	0	2373976064	52	4420
2026-01-21 08:32:35.01	198.42	22.91	-40.6	-42.3	18.4	6.00e-01	0	40	0	2388656128	52	4466
2026-01-21 08:32:36.02	198.65	23.10	-40.6	-42.3	18.4	5.94e-01	0	40	0	2405433344	52	4477
2026-01-21 08:32:37.03	198.87	23.28	-40.6	-42.3	18.4	5.89e-01	0	40	0	2420113408	52	4478
2026-01-21 08:32:38.04	199.10	23.47	-40.7	-42.4	18.4	6.04e-01	0	40	0	2434793472	52	4514
2026-01-21 08:32:39.04	199.33	23.65	-40.8	-42.4	18.3	5.97e-01	0	40	0	2451570688	52	4520
2026-01-21 08:32:40.05	199.56	23.84	-40.8	-42.4	18.3	5.99e-01	0	40	0	2466250752	52	4518
2026-01-21 08:32:41.06	199.80	24.03	-40.7	-42.3	18.4	5.95e-01	0	40	0	2480930816	52	4485
2026-01-21 08:32:42.07	200.04	24.21	-40.8	-42.4	18.3	6.02e-01	0	40	0	2497708032	52	4505
2026-01-21 08:32:43.08	200.29	24.41	-40.7	-42.3	18.4	5.97e-01	0	40	0	2512388096	52	4454
2026-01-21 08:32:44.08	200.53	24.60	-40.8	-42.4	18.4	6.01e-01	0	40	0	2527068160	52	4516
2026-01-21 08:32:45.09	200.78	24.79	-40.8	-42.3	18.4	5.99e-01	0	40	0	2543845376	52	4479
2026-01-21 08:32:46.10	201.04	24.98	-40.8	-42.4	18.4	6.03e-01	0	40	0	2560622592	52	4498
2026-01-21 08:32:47.11	201.30	25.18	-40.7	-42.3	18.4	6.03e-01	0	40	0	2575302656	52	4453
2026-01-21 08:32:48.12	201.56	25.38	-40.9	-42.4	18.4	6.03e-01	0	40	0	2589982720	52	4513
2026-01-21 08:32:49.13	201.82	25.57	-40.8	-42.4	18.4	6.00e-01	0	40	0	2606759936	52	4499
2026-01-21 08:32:50.13	202.09	25.77	-40.8	-42.3	18.5	6.04e-01	0	40	0	2621440000	52	4465
2026-01-21 08:32:51.14	202.36	25.97	-40.8	-42.3	18.4	6.02e-01	0	40	0	2636120064	52	4486
2026-01-21 08:32:52.15	202.63	26.17	-40.8	-42.4	18.4	6.00e-01	0	40	0	2652897280	52	4496
2026-01-21 08:32:53.16	202.91	26.38	-40.7	-42.3	18.5	6.00e-01	0	40	0	2667577344	52	4466
2026-01-21 08:32:54.17	203.20	26.58	-40.7	-42.3	18.5	6.03e-01	0	40	0	2682257408	52	4450
2026-01-21 08:32:55.17	203.48	26.79	-40.7	-42.2	18.4	6.03e-01	0	40	0	2699034624	52	4434
2026-01-21 08:32:56.18	203.77	26.99	-40.6	-42.2	18.5	6.02e-01	0	40	0	2713714688	52	4420
2026-01-21 08:32:57.19	204.07	27.20	-40.5	-42.1	18.6	6.01e-01	0	40	0	2728394752	52	4378
2026-01-21 08:32:58.19	204.37	27.41	-40.6	-42.2	18.5	6.05e-01	0	40	0	2745171968	52	4423
2026-01-21 08:32:59.20	204.67	27.62	-40.6	-42.2	18.5	6.04e-01	0	40	0	2761949184	52	4441
2026-01-21 08:33:00.21	204.98	27.83	-40.6	-42.4	18.4	6.05e-01	0	40	0	2776629248	52	4515
2026-01-21 08:33:01.22	205.29	28.04	-40.6	-42.4	18.4	6.02e-01	0	40	0	2791309312	52	4513
2026-01-21 08:33:02.23	205.61	28.25	-40.6	-42.4	18.3	6.03e-01	0	41	0	2808086528	52	4542
2026-01-21 08:33:03.23	205.93	28.47	-40.5	-42.3	18.4	6.05e-01	0	40	0	2822766592	52	4474
2026-01-21 08:33:04.24	206.25	28.68	-40.4	-42.2	18.5	6.02e-01	0	40	0	2837446656	52	4401
2026-01-21 08:33:05.25	206.59	28.90	-40.5	-42.3	18.4	6.01e-01	0	40	0	2854223872	52	4472
2026-01-21 08:33:06.26	206.92	29.12	-40.5	-42.3	18.4	6.05e-01	0	40	0	2868903936	52	4477
2026-01-21 08:33:07.27	207.26	29.34	-40.5	-42.3	18.5	6.04e-01	0	40	0	2883584000	52	4469
2026-01-21 08:33:08.27	207.61	29.55	-40.4	-42.2	18.5	6.02e-01	0	40	0	2900361216	52	4438
2026-01-21 08:33:09.28	207.96	29.77	-40.4	-42.3	18.4	6.01e-01	0	40	0	2915041280	52	4447
2026-01-21 08:33:10.28	208.31	29.99	-40.3	-42.2	18.5	5.98e-01	0	40	0	2929721344	52	4433
2026-01-21 08:33:11.29	208.67	30.22	-40.3	-42.2	18.5	6.02e-01	0	40	0	2946498560	52	4399
2026-01-21 08:33:12.29	209.03	30.44	-40.3	-42.2	18.5	6.04e-01	0	40	0	2963275776	52	4409
2026-01-21 08:33:13.30	209.41	30.66	-40.2	-42.0	18.6	6.01e-01	0	40	0	2977955840	52	4327
2026-01-21 08:33:14.31	209.78	30.89	-40.1	-42.0	18.6	6.04e-01	0	40	0	2992635904	52	4324
2026-01-21 08:33:15.32	210.17	31.11	-40.1	-42.0	18.7	6.00e-01	0	40	0	3009413120	52	4323
2026-01-21 08:33:16.33	210.56	31.34	-40.0	-42.0	18.6	6.01e-01	0	40	0	3024093184	52	4309
2026-01-21 08:33:17.33	210.95	31.56	-40.0	-41.9	18.7	6.01e-01	0	40	0	3038773248	51	4544
2026-01-21 08:33:18.34	211.35	31.79	-39.9	-41.8	18.8	6.02e-01	0	40	0	3055550464	51	4490
2026-01-21 08:33:19.35	211.76	32.02	-39.7	-41.6	18.9	5.98e-01	0	40	0	3070230528	51	4383
2026-01-21 08:33:20.36	212.17	32.25	-39.8	-41.6	18.9	6.03e-01	0	40	0	3084910592	51	4385
2026-01-21 08:33:21.36	212.59	32.48	-39.7	-41.5	19.0	6.03e-01	0	40	0	3101687808	51	4336
2026-01-21 08:33:22.37	213.01	32.71	-39.6	-41.5	19.0	6.03e-01	0	40	0	3116367872	51	4319
2026-01-21 08:33:23.38	213.44	32.94	-39.5	-41.4	19.0	6.02e-01	0	40	0	3131047936	50	4526
2026-01-21 08:33:24.38	213.88	33.17	-39.3	-41.3	19.2	6.02e-01	0	40	0	3147825152	50	4445
2026-01-21 08:33:25.39	214.32	33.40	-39.2	-41.2	19.2	6.00e-01	0	40	0	3164602368	50	4400
2026-01-21 08:33:26.40	214.78	33.63	-39.3	-41.3	19.1	6.01e-01	0	40	0	3179282432	50	4490
2026-01-21 08:33:27.41	215.23	33.86	-39.1	-41.2	19.2	6.03e-01	0	40	0	3193962496	50	4416
2026-01-21 08:33:28.42	215.70	34.09	-39.2	-41.3	19.1	6.01e-01	0	40	0	3210739712	50	4446
2026-01-21 08:33:29.43	216.17	34.33	-38.9	-40.9	19.3	6.00e-01	0	40	0	3225419776	49	4536
2026-01-21 08:33:30.43	216.65	34.56	-38.7	-40.7	19.5	6.02e-01	0	40	0	3240099840	49	4427
2026-01-21 08:33:31.44	217.14	34.79	-38.7	-40.8	19.4	5.99e-01	0	40	0	3256877056	49	4468
2026-01-21 08:33:32.45	217.63	35.02	-38.7	-40.8	19.3	6.02e-01	0	40	0	3271557120	49	4491
2026-01-21 08:33:33.45	218.13	35.25	-38.7	-41.0	19.3	6.00e-01	0	40	0	3286237184	49	4557
2026-01-21 08:33:34.46	218.64	35.48	-38.6	-40.9	19.4	5.99e-01	0	41	0	3303014400	49	4526
2026-01-21 08:33:35.47	219.15	35.71	-38.5	-40.8	19.4	6.00e-01	0	40	0	3317694464	49	4472
2026-01-21 08:33:36.48	219.68	35.94	-38.5	-40.7	19.5	6.01e-01	0	40	0	3332374528	49	4417
2026-01-21 08:33:37.48	220.21	36.17	-38.5	-40.7	19.5	6.00e-01	0	40	0	3349151744	49	4421
2026-01-21 08:33:38.49	220.75	36.39	-38.2	-40.4	19.7	6.01e-01	0	40	0	3365928960	48	4520
2026-01-21 08:33:39.50	221.29	36.62	-38.0	-40.3	19.7	6.01e-01	0	40	0	3380609024	48	4451
2026-01-21 08:33:40.51	221.85	36.85	-38.2	-40.4	19.6	6.00e-01	0	40	0	3395289088	48	4523
2026-01-21 08:33:41.52	222.42	37.07	-36.9	-38.9	19.4	5.99e-01	0	40	0	3412066304	45	4540
2026-01-21 08:33:42.53	222.99	37.30	-36.8	-38.9	19.5	6.03e-01	0	41	0	3426746368	45	4508
2026-01-21 08:33:43.53	223.56	37.52	-37.0	-39.1	19.3	6.03e-01	0	40	0	3441426432	45	4612
2026-01-21 08:33:44.54	224.15	37.74	-37.0	-39.1	19.3	6.03e-01	0	40	0	3458203648	45	4637
2026-01-21 08:33:45.55	224.75	37.96	-37.0	-39.1	19.4	6.01e-01	0	40	0	3472883712	45	4642
2026-01-21 08:33:46.56	225.36	38.18	-37.0	-39.1	19.4	6.05e-01	0	40	0	3487563776	45	4608
2026-01-21 08:33:47.56	225.96	38.39	-37.1	-39.2	19.3	6.02e-01	0	40	0	3502243840	45	4678
2026-01-21 08:33:48.57	226.59	38.61	-37.1	-39.2	19.3	6.01e-01	0	40	0	3519021056	45	4664
2026-01-21 08:33:49.58	227.22	38.82	-37.1	-39.2	19.3	6.00e-01	0	40	0	3533701120	45	4653
2026-01-21 08:33:50.59	227.86	39.03	-37.0	-39.0	19.5	6.02e-01	0	40	0	3548381184	45	4590
2026-01-21 08:33:51.60	228.51	39.24	-37.0	-39.0	19.3	6.03e-01	0	40	0	3567255552	45	4568
2026-01-21 08:33:52.61	229.16	39.44	-37.0	-39.0	19.4	6.03e-01	0	41	0	3581935616	45	4597
2026-01-21 08:33:53.61	229.82	39.64	-37.1	-39.2	19.3	6.02e-01	0	40	0	3596615680	45	4652
2026-01-21 08:33:54.62	230.50	39.84	-37.1	-39.1	19.4	6.02e-01	0	40	0	3611295744	45	4622
2026-01-21 08:33:55.63	231.18	40.04	-37.3	-39.2	19.3	6.04e-01	0	40	0	3628072960	45	4653
2026-01-21 08:33:56.64	231.87	40.23	-37.1	-39.1	19.4	6.01e-01	0	40	0	3642753024	45	4603
2026-01-21 08:33:57.64	232.56	40.42	-36.7	-38.7	19.6	6.03e-01	0	40	0	3657433088	45	4392
2026-01-21 08:33:58.65	233.27	40.60	-36.7	-38.7	19.6	6.01e-01	0	40	0	3674210304	45	4401
2026-01-21 08:33:59.66	233.99	40.79	-36.9	-39.0	19.5	6.00e-01	0	40	0	3688890368	45	4548
2026-01-21 08:34:00.67	234.72	40.97	-37.1	-39.1	19.4	6.00e-01	0	40	0	3703570432	45	4645
2026-01-21 08:34:01.68	235.45	41.14	-37.1	-39.0	19.5	6.01e-01	0	40	0	3720347648	45	4548
2026-01-21 08:34:02.68	236.18	41.31	-37.1	-39.0	19.4	6.00e-01	0	40	0	3735027712	45	4583
2026-01-21 08:34:03.69	236.93	41.48	-37.0	-39.1	19.4	6.02e-01	0	40	0	3751804928	45	4612
2026-01-21 08:34:04.70	237.69	41.64	-37.1	-39.3	19.3	5.99e-01	0	40	0	3766484992	45	4735
2026-01-21 08:34:05.71	238.46	41.80	-37.2	-39.4	19.2	5.96e-01	0	40	0	3783262208	45	4762
2026-01-21 08:34:06.72	239.23	41.95	-37.2	-39.2	19.3	5.97e-01	0	40	0	3797942272	45	4675
2026-01-21 08:34:07.72	240.00	42.10	-37.4	-39.3	19.3	6.00e-01	0	40	0	3812622336	45	4714
2026-01-21 08:34:08.73	240.79	42.24	-37.3	-39.2	19.3	6.00e-01	0	40	0	3829399552	45	4664
2026-01-21 08:34:09.74	241.58	42.38	-36.9	-38.9	19.5	5.98e-01	0	40	0	3844079616	45	4523
2026-01-21 08:34:10.75	242.38	42.51	-36.9	-38.9	19.5	6.00e-01	0	41	0	3858759680	45	4545
2026-01-21 08:34:11.76	243.19	42.64	-37.0	-39.1	19.4	6.03e-01	0	41	0	3875536896	45	4630
2026-01-21 08:34:12.76	244.00	42.76	-37.1	-39.1	19.3	6.04e-01	0	40	0	3890216960	45	4638
2026-01-21 08:34:13.77	244.82	42.87	-37.3	-39.2	19.3	5.98e-01	0	40	0	3904897024	45	4666
2026-01-21 08:34:14.78	245.65	42.98	-37.2	-39.2	19.3	6.03e-01	0	41	0	3921674240	45	4658
2026-01-21 08:34:15.78	246.47	43.09	-37.4	-39.6	19.1	5.96e-01	0	40	0	3936354304	45	4879
2026-01-21 08:34:16.79	247.31	43.18	-37.1	-39.3	19.2	5.98e-01	0	40	0	3953131520	45	4738
2026-01-21 08:34:17.80	248.15	43.28	-37.2	-39.3	19.2	5.98e-01	0	40	0	3967811584	45	4749
2026-01-21 08:34:18.81	249.00	43.36	-37.3	-39.3	19.2	6.01e-01	0	40	0	3984588800	45	4741
2026-01-21 08:34:19.82	249.85	43.44	-37.4	-39.5	19.2	6.02e-01	0	41	0	3999268864	45	4831
2026-01-21 08:34:20.83	250.71	43.51	-37.4	-39.6	19.1	6.01e-01	0	40	0	4013948928	45	4908
2026-01-21 08:34:21.83	251.56	43.58	-37.4	-39.6	19.2	6.02e-01	0	40	0	4030726144	45	4883
2026-01-21 08:34:22.84	252.42	43.63	-37.3	-39.4	19.2	6.01e-01	0	40	0	4045406208	45	4771
2026-01-21 08:34:23.85	253.29	43.69	-37.2	-39.3	19.2	6.03e-01	0	41	0	4060086272	45	4706
2026-01-21 08:34:24.86	254.16	43.73	-37.2	-39.1	19.4	6.02e-01	0	41	0	4076863488	45	4624
2026-01-21 08:34:25.87	255.03	43.77	-37.3	-39.2	19.3	6.01e-01	0	40	0	4091543552	45	4660
2026-01-21 08:34:26.87	255.89	43.80	-37.4	-39.5	19.1	5.99e-01	0	41	0	4106223616	45	4846
2026-01-21 08:34:27.88	256.77	43.82	-37.5	-39.6	19.1	6.03e-01	0	40	0	4123000832	45	4881
2026-01-21 08:34:28.89	257.65	43.84	-37.3	-39.4	19.3	5.98e-01	0	40	0	4137680896	45	4779
2026-01-21 08:34:29.90	258.52	43.85	-37.2	-39.3	19.2	6.01e-01	0	41	0	4154458112	45	4726
2026-01-21 08:34:30.91	259.40	43.85	-37.3	-39.5	19.1	5.97e-01	0	41	0	4169138176	45	4828
2026-01-21 08:34:31.91	260.27	43.85	-37.3	-39.6	19.1	6.00e-01	0	40	0	4185915392	45	4880
2026-01-21 08:34:32.92	261.14	43.83	-37.3	-39.5	19.2	6.00e-01	0	40	0	4200595456	45	4863
2026-01-21 08:34:33.93	262.02	43.81	-37.3	-39.6	19.2	5.97e-01	0	40	0	4215275520	45	4874
2026-01-21 08:34:34.94	262.89	43.79	-37.4	-39.6	19.2	5.98e-01	0	40	0	4232052736	45	4871
2026-01-21 08:34:35.95	263.76	43.76	-37.4	-39.5	19.2	5.96e-01	0	40	0	4246732800	45	4835
2026-01-21 08:34:36.95	264.63	43.72	-37.2	-39.4	19.2	5.97e-01	0	40	0	4261412864	45	4780
2026-01-21 08:34:37.96	265.49	43.67	-37.1	-39.3	19.3	5.97e-01	0	40	0	4278190080	45	4756
2026-01-21 08:34:38.97	266.36	43.62	-37.2	-39.3	19.2	5.96e-01	0	40	0	4292870144	45	4753
2026-01-21 08:34:39.98	267.22	43.56	-37.2	-39.3	19.3	5.97e-01	0	40	0	4307550208	45	4725
2026-01-21 08:34:40.98	268.07	43.49	-37.4	-39.4	19.2	5.95e-01	0	40	0	4324327424	45	4784
2026-01-21 08:34:41.99	268.92	43.41	-37.2	-39.2	19.4	5.96e-01	0	40	0	4341104640	45	4675
2026-01-21 08:34:43.00	269.77	43.33	-37.2	-39.3	19.4	5.99e-01	0	40	0	4355784704	45	4722
2026-01-21 08:34:44.01	270.62	43.25	-37.2	-39.3	19.4	5.96e-01	0	40	0	4370464768	45	4713
2026-01-21 08:34:45.02	271.46	43.15	-37.2	-39.2	19.4	6.00e-01	0	40	0	4387241984	45	4670
2026-01-21 08:34:46.02	272.29	43.06	-37.4	-39.3	19.4	5.97e-01	0	40	0	4401922048	45	4733
2026-01-21 08:34:47.03	273.12	42.95	-37.5	-39.6	19.2	5.96e-01	0	40	0	4416602112	45	4876
2026-01-21 08:34:48.04	273.94	42.84	-37.3	-39.5	19.2	5.99e-01	0	40	0	4433379328	45	4825
2026-01-21 08:34:49.05	274.76	42.72	-37.4	-39.5	19.2	5.99e-01	0	40	0	4448059392	45	4866
2026-01-21 08:34:50.05	275.56	42.60	-37.4	-39.4	19.2	5.99e-01	0	40	0	4462739456	45	4796
2026-01-21 08:34:51.06	276.37	42.47	-37.3	-39.3	19.4	5.77e-01	0	41	0	4479516672	45	4727
2026-01-21 08:34:52.07	277.17	42.34	-37.1	-39.1	19.5	5.77e-01	0	40	0	4494196736	45	4613
2026-01-21 08:34:53.08	277.96	42.20	-37.0	-38.8	19.7	5.77e-01	0	40	0	4508876800	45	4490
2026-01-21 08:34:54.09	278.74	42.05	-36.9	-38.9	19.7	5.77e-01	0	40	0	4525654016	45	4497
2026-01-21 08:34:55.09	279.51	41.91	-37.0	-39.1	19.6	5.77e-01	0	40	0	4542431232	45	4616
2026-01-21 08:34:56.10	280.28	41.75	-37.1	-39.1	19.5	5.78e-01	0	40	0	4557111296	45	4630
2026-01-21 08:34:57.11	281.04	41.59	-37.1	-39.2	19.5	5.78e-01	0	40	0	4571791360	45	4692
2026-01-21 08:34:58.12	281.79	41.43	-37.1	-39.2	19.4	5.77e-01	0	40	0	4588568576	45	4659
2026-01-21 08:34:59.13	282.54	41.26	-37.1	-39.1	19.5	5.77e-01	0	40	0	4603248640	45	4619
2026-01-21 08:35:00.13	283.27	41.09	-37.0	-38.9	19.6	5.77e-01	0	41	0	4617928704	45	4543
2026-01-21 08:35:01.14	284.00	40.92	-36.7	-38.6	19.8	5.77e-01	0	40	0	4634705920	45	4383
2026-01-21 08:35:02.14	284.71	40.74	-36.8	-38.7	19.8	5.77e-01	0	41	0	4649385984	45	4436
2026-01-21 08:35:03.15	285.43	40.56	-36.8	-38.7	19.8	5.76e-01	0	40	0	4664066048	45	4441
2026-01-21 08:35:04.16	286.13	40.37	-36.7	-38.6	19.8	5.78e-01	0	40	0	4680843264	45	4370
2026-01-21 08:35:05.17	286.83	40.18	-36.7	-38.7	19.7	5.77e-01	0	41	0	4695523328	45	4423
2026-01-21 08:35:06.18	287.51	39.98	-36.8	-38.8	19.7	5.77e-01	0	40	0	4710203392	45	4491
2026-01-21 08:35:07.18	288.19	39.79	-36.8	-38.8	19.7	5.77e-01	0	40	0	4724883456	45	4469
2026-01-21 08:35:08.19	288.86	39.59	-36.8	-38.8	19.7	5.77e-01	0	41	0	4743757824	45	4474
2026-01-21 08:35:09.20	289.52	39.39	-36.8	-38.7	19.7	5.77e-01	0	41	0	4758437888	45	4433
2026-01-21 08:35:10.21	290.17	39.18	-36.7	-38.6	19.8	5.77e-01	0	40	0	4773117952	45	4385
2026-01-21 08:35:11.22	290.82	38.97	-36.9	-38.8	19.7	5.77e-01	0	40	0	4789895168	45	4468
2026-01-21 08:35:12.22	291.45	38.77	-37.0	-38.9	19.7	5.77e-01	0	40	0	4804575232	45	4519
2026-01-21 08:35:13.23	292.07	38.56	-36.9	-38.9	19.7	5.77e-01	0	40	0	4819255296	45	4502
2026-01-21 08:35:14.24	292.69	38.34	-36.9	-38.7	19.7	6.04e-01	0	41	0	4833935360	45	4426
2026-01-21 08:35:15.25	293.30	38.13	-36.9	-38.8	19.7	6.03e-01	0	40	0	4850712576	45	4451
2026-01-21 08:35:16.25	293.90	37.91	-36.9	-38.7	19.7	6.03e-01	0	41	0	4865392640	45	4416
2026-01-21 08:35:17.26	294.49	37.69	-36.9	-38.8	19.6	6.02e-01	0	41	0	4880072704	45	4455
2026-01-21 08:35:18.27	295.08	37.47	-37.1	-39.0	19.6	6.03e-01	0	40	0	4896849920	45	4554
2026-01-21 08:35:19.28	295.65	37.25	-37.1	-39.1	19.4	6.03e-01	0	40	0	4911529984	45	4628
2026-01-21 08:35:20.29	296.22	37.02	-37.2	-39.3	19.4	6.03e-01	0	40	0	4926210048	45	4720
2026-01-21 08:35:21.29	296.78	36.80	-37.3	-39.3	19.3	6.04e-01	0	41	0	4942987264	45	4751
2026-01-21 08:35:22.30	297.33	36.57	-37.3	-39.3	19.3	6.01e-01	0	41	0	4959764480	45	4718
2026-01-21 08:35:23.31	297.87	36.35	-37.3	-39.2	19.4	6.04e-01	0	41	0	4974444544	45	4681
2026-01-21 08:35:24.32	298.41	36.12	-37.4	-39.3	19.3	6.04e-01	0	41	0	4989124608	45	4721
2026-01-21 08:35:25.33	298.94	35.89	-37.3	-39.2	19.4	6.03e-01	0	40	0	5005901824	45	4702
2026-01-21 08:35:26.33	299.46	35.67	-37.4	-39.4	19.3	6.04e-01	0	40	0	5020581888	45	4774
2026-01-21 08:35:27.34	299.97	35.44	-37.5	-39.5	19.2	6.02e-01	0	41	0	5035261952	45	4834
2026-01-21 08:35:28.35	300.48	35.21	-37.6	-39.6	19.1	6.03e-01	0	41	0	5052039168	45	4908
2026-01-21 08:35:29.36	300.97	34.98	-37.8	-39.8	19.0	6.03e-01	0	40	0	5066719232	46	4744
2026-01-21 08:35:30.36	301.46	34.75	-37.9	-40.0	18.9	6.04e-01	0	40	0	5081399296	46	4834
2026-01-21 08:35:31.37	301.94	34.52	-38.0	-40.1	18.8	6.05e-01	0	40	0	5098176512	46	4882
2026-01-21 08:35:32.38	302.42	34.29	-38.0	-39.9	19.0	6.02e-01	0	40	0	5112856576	46	4813
2026-01-21 08:35:33.39	302.89	34.06	-38.1	-39.9	18.9	6.00e-01	0	40	0	5127536640	46	4801
2026-01-21 08:35:34.39	303.35	33.83	-38.1	-39.9	19.0	6.04e-01	0	41	0	5144313856	46	4769
2026-01-21 08:35:35.40	303.80	33.60	-38.1	-39.9	19.0	6.04e-01	0	40	0	5161091072	46	4768
2026-01-21 08:35:36.41	304.25	33.37	-38.3	-40.0	18.9	6.02e-01	0	40	0	5175771136	47	4591
2026-01-21 08:35:37.42	304.69	33.14	-38.4	-40.2	18.9	6.02e-01	0	40	0	5190451200	47	4685
2026-01-21 08:35:38.43	305.13	32.91	-38.5	-40.4	18.6	6.02e-01	0	40	0	5207228416	47	4760
2026-01-21 08:35:39.43	305.56	32.68	-38.5	-40.4	18.7	6.06e-01	0	40	0	5221908480	47	4762
2026-01-21 08:35:40.44	305.98	32.45	-38.7	-40.6	18.6	6.02e-01	0	40	0	5236588544	47	4878
2026-01-21 08:35:41.45	306.39	32.22	-39.7	-41.8	18.9	6.03e-01	0	40	0	5253365760	50	4709
2026-01-21 08:35:42.46	306.81	31.99	-39.9	-41.9	18.8	6.02e-01	0	40	0	5268045824	50	4787
2026-01-21 08:35:43.46	307.21	31.77	-39.8	-41.9	18.9	6.03e-01	0	40	0	5282725888	50	4768
2026-01-21 08:35:44.47	307.60	31.54	-39.8	-41.7	19.0	6.02e-01	0	40	0	5299503104	50	4700
2026-01-21 08:35:45.48	308.00	31.31	-39.8	-41.7	18.9	6.01e-01	0	40	0	5314183168	50	4695
2026-01-21 08:35:46.49	308.38	31.09	-39.8	-41.7	19.0	6.00e-01	0	41	0	5328863232	50	4695
2026-01-21 08:35:47.50	308.76	30.86	-40.0	-41.9	18.9	6.01e-01	0	41	0	5345640448	50	4774
2026-01-21 08:35:48.50	309.14	30.64	-40.2	-42.1	18.7	6.01e-01	0	41	0	5362417664	50	4872
2026-01-21 08:35:49.51	309.51	30.42	-40.4	-42.3	18.6	6.01e-01	0	41	0	5377097728	51	4744
2026-01-21 08:35:50.52	309.87	30.20	-40.6	-42.5	18.5	6.00e-01	0	40	0	5391777792	51	4850
2026-01-21 08:35:51.53	310.23	29.98	-40.7	-42.6	18.3	6.00e-01	0	41	0	5408555008	52	4651
2026-01-21 08:35:52.54	310.58	29.76	-40.7	-42.7	18.3	6.00e-01	0	41	0	5423235072	52	4667
2026-01-21 08:35:53.54	310.93	29.54	-40.9	-42.8	18.2	5.98e-01	0	41	0	5437915136	52	4759
2026-01-21 08:35:54.55	311.27	29.32	-40.9	-42.8	18.2	6.04e-01	0	40	0	5454692352	52	4727
2026-01-21 08:35:55.56	311.61	29.10	-40.9	-42.8	18.2	6.00e-01	0	41	0	5469372416	52	4720
2026-01-21 08:35:56.56	311.94	28.89	-40.8	-42.6	18.4	6.02e-01	0	40	0	5484052480	52	4642
2026-01-21 08:35:57.57	312.27	28.67	-40.8	-42.7	18.3	5.98e-01	0	41	0	5500829696	52	4652
2026-01-21 08:35:58.58	312.60	28.46	-40.8	-42.7	18.3	5.99e-01	0	40	0	5515509760	52	4658
2026-01-21 08:35:59.59	312.92	28.25	-40.9	-42.7	18.2	6.00e-01	0	41	0	5530189824	52	4702
2026-01-21 08:36:00.60	313.23	28.03	-40.9	-42.7	18.3	6.00e-01	0	40	0	5546967040	52	4677
2026-01-21 08:36:01.61	313.54	27.82	-41.0	-42.8	18.2	5.98e-01	0	40	0	5563744256	52	4719
2026-01-21 08:36:02.61	313.84	27.61	-41.1	-42.9	18.1	5.98e-01	0	40	0	5578424320	52	4788
2026-01-21 08:36:03.62	314.15	27.41	-41.1	-42.9	18.1	6.01e-01	0	41	0	5593104384	52	4777
2026-01-21 08:36:04.63	314.44	27.20	-41.2	-43.0	18.1	6.02e-01	0	40	0	5609881600	52	4870
2026-01-21 08:36:05.64	314.74	26.99	-41.1	-43.0	18.1	5.99e-01	0	40	0	5624561664	53	4578
2026-01-21 08:36:06.64	315.03	26.79	-41.3	-43.2	17.9	6.00e-01	0	40	0	5639241728	53	4680
2026-01-21 08:36:07.65	315.31	26.58	-41.2	-43.2	17.9	6.00e-01	0	40	0	5656018944	53	4656
2026-01-21 08:36:08.66	315.59	26.38	-41.2	-43.2	18.0	6.04e-01	0	41	0	5670699008	53	4671
2026-01-21 08:36:09.67	315.87	26.18	-41.2	-43.1	17.9	6.03e-01	0	41	0	5685379072	53	4639
2026-01-21 08:36:10.67	316.14	25.98	-41.3	-43.2	17.9	5.99e-01	0	40	0	5702156288	53	4662
2026-01-21 08:36:11.68	316.41	25.78	-41.3	-43.2	17.9	5.98e-01	0	41	0	5716836352	53	4673
2026-01-21 08:36:12.68	316.68	25.59	-41.2	-43.0	18.0	6.01e-01	0	40	0	5731516416	53	4582
2026-01-21 08:36:13.69	316.94	25.39	-41.0	-42.9	18.1	6.01e-01	0	40	0	5748293632	53	4513
2026-01-21 08:36:14.70	317.20	25.19	-41.0	-42.9	18.1	6.02e-01	0	41	0	5765070848	53	4520
2026-01-21 08:36:15.71	317.46	25.00	-41.1	-43.0	18.0	6.02e-01	0	41	0	5779750912	53	4546
2026-01-21 08:36:16.72	317.71	24.81	-41.0	-42.9	18.1	6.03e-01	0	41	0	5794430976	53	4511
2026-01-21 08:36:17.72	317.96	24.61	-41.0	-42.9	18.1	6.00e-01	0	40	0	5811208192	53	4516
2026-01-21 08:36:18.73	318.20	24.42	-41.0	-42.9	18.1	6.01e-01	0	41	0	5825888256	53	4500
2026-01-21 08:36:19.74	318.44	24.23	-41.0	-42.9	18.1	6.00e-01	0	40	0	5840568320	53	4538
2026-01-21 08:36:20.75	318.68	24.05	-41.1	-43.1	18.0	5.97e-01	0	40	0	5857345536	53	4611
2026-01-21 08:36:21.76	318.92	23.86	-40.9	-42.8	18.1	6.02e-01	0	40	0	5872025600	53	4462
2026-01-21 08:36:22.77	319.15	23.67	-41.0	-42.9	18.1	6.02e-01	0	40	0	5886705664	53	4529
2026-01-21 08:36:23.77	319.38	23.49	-40.9	-42.8	18.1	6.01e-01	0	40	0	5903482880	53	4470
2026-01-21 08:36:24.78	319.61	23.31	-40.8	-42.7	18.2	6.04e-01	0	40	0	5918162944	53	4435
2026-01-21 08:36:25.78	319.83	23.13	-40.9	-42.8	18.2	6.00e-01	0	40	0	5932843008	53	4460
2026-01-21 08:36:26.79	320.05	22.94	-40.7	-42.6	18.2	6.04e-01	0	41	0	5949620224	53	4390
2026-01-21 08:36:27.80	320.27	22.76	-40.8	-42.8	18.1	6.00e-01	0	41	0	5966397440	53	4448
2026-01-21 08:36:28.81	320.49	22.59	-40.8	-42.8	18.2	6.02e-01	0	41	0	5981077504	53	4445
2026-01-21 08:36:29.82	320.70	22.41	-40.8	-42.7	18.2	6.02e-01	0	41	0	5995757568	53	4426
2026-01-21 08:36:30.82	320.91	22.23	-40.8	-42.8	18.1	6.01e-01	0	41	0	6012534784	53	4465
2026-01-21 08:36:31.83	321.12	22.06	-40.8	-42.8	18.1	6.02e-01	0	41	0	6027214848	53	4468
2026-01-21 08:36:32.84	321.32	21.88	-40.8	-42.8	18.1	6.01e-01	0	41	0	6041894912	53	4483
2026-01-21 08:36:33.85	321.53	21.71	-40.8	-42.8	18.1	6.02e-01	0	41	0	6056574976	53	4471
2026-01-21 08:36:34.86	321.73	21.54	-40.8	-42.8	18.1	6.00e-01	0	40	0	6073352192	53	4485
2026-01-21 08:36:35.86	321.92	21.37	-40.9	-42.9	18.0	6.01e-01	0	40	0	6088032256	53	4515
2026-01-21 08:36:36.87	322.12	21.20	-40.8	-42.8	18.0	6.01e-01	0	41	0	6102712320	53	4476
2026-01-21 08:36:37.88	322.31	21.03	-40.9	-43.0	17.9	6.01e-01	0	40	0	6119489536	53	4547
2026-01-21 08:36:38.88	322.50	20.87	-40.8	-42.8	18.1	6.02e-01	0	41	0	6134169600	53	4480
2026-01-21 08:36:39.89	322.69	20.70	-41.0	-43.0	17.9	6.02e-01	0	40	0	6150946816	53	4563
2026-01-21 08:36:40.90	322.88	20.53	-40.9	-42.8	18.0	6.01e-01	0	40	0	6165626880	53	4470
2026-01-21 08:36:41.91	323.06	20.37	-40.8	-42.8	18.1	6.00e-01	0	41	0	6182404096	53	4446
2026-01-21 08:36:42.92	323.25	20.21	-40.9	-42.8	18.0	6.00e-01	0	40	0	6197084160	53	4455
2026-01-21 08:36:43.93	323.43	20.05	-40.8	-42.7	18.1	6.01e-01	0	40	0	6211764224	53	4422
2026-01-21 08:36:44.93	323.60	19.89	-40.9	-42.8	18.1	6.02e-01	0	40	0	6228541440	53	4449
2026-01-21 08:36:45.94	323.78	19.73	-40.8	-42.7	18.1	6.00e-01	0	41	0	6243221504	53	4437
2026-01-21 08:36:46.95	323.95	19.57	-40.8	-42.7	18.2	6.00e-01	0	40	0	6257901568	53	4425
2026-01-21 08:36:47.96	324.12	19.41	-40.9	-42.9	18.0	6.01e-01	0	41	0	6274678784	53	4504
2026-01-21 08:36:48.96	324.29	19.26	-40.9	-42.8	18.0	6.03e-01	0	40	0	6289358848	53	4472
2026-01-21 08:36:49.97	324.46	19.10	-40.9	-42.8	18.0	6.04e-01	0	41	0	6304038912	53	4488
2026-01-21 08:36:50.98	324.63	18.95	-40.8	-42.8	18.1	6.03e-01	0	41	0	6320816128	53	4455
2026-01-21 08:36:51.99	324.79	18.79	-40.9	-42.9	18.0	6.03e-01	0	41	0	6335496192	53	4515
2026-01-21 08:36:53.00	324.95	18.64	-41.0	-43.1	17.8	6.03e-01	0	41	0	6352273408	53	4599
2026-01-21 08:36:54.01	325.11	18.49	-41.0	-43.1	17.8	5.98e-01	0	41	0	6366953472	53	4601
2026-01-21 08:36:55.01	325.27	18.34	-41.1	-43.1	17.8	6.00e-01	0	41	0	6383730688	53	4636
2026-01-21 08:36:56.02	325.43	18.19	-40.9	-43.0	17.9	6.01e-01	0	41	0	6398410752	53	4567
2026-01-21 08:36:57.03	325.58	18.04	-41.0	-43.1	17.8	6.01e-01	0	41	0	6413090816	53	4611
2026-01-21 08:36:58.04	325.74	17.89	-41.1	-43.1	17.7	6.05e-01	0	41	0	6429868032	53	4640
2026-01-21 08:36:59.04	325.89	17.75	-41.0	-43.0	17.8	6.01e-01	0	41	0	6444548096	53	4586
2026-01-21 08:37:00.05	326.04	17.60	-41.1	-43.1	17.8	6.01e-01	0	41	0	6459228160	53	4614
2026-01-21 08:37:01.06	326.18	17.46	-41.2	-43.2	17.7	6.03e-01	0	40	0	6476005376	53	4703
2026-01-21 08:37:02.07	326.33	17.32	-41.1	-43.1	17.8	6.03e-01	0	40	0	6490685440	53	4619
2026-01-21 08:37:03.07	326.48	17.17	-41.1	-43.1	17.8	6.00e-01	0	41	0	6505365504	53	4601
2026-01-21 08:37:04.08	326.62	17.03	-41.1	-43.1	17.8	6.03e-01	0	41	0	6522142720	53	4623
2026-01-21 08:37:05.09	326.76	16.89	-41.3	-43.3	17.6	5.97e-01	0	41	0	6538919936	53	4729
2026-01-21 08:37:06.10	326.90	16.75	-41.1	-43.1	17.8	5.77e-01	0	40	0	6553600000	53	4612
2026-01-21 08:37:07.11	327.04	16.61	-41.2	-43.2	17.8	5.76e-01	0	40	0	6568280064	53	4661
2026-01-21 08:37:08.12	327.18	16.47	-41.2	-43.2	17.7	5.76e-01	0	40	0	6585057280	53	4697
2026-01-21 08:37:09.12	327.32	16.34	-41.1	-43.1	17.8	5.77e-01	0	40	0	6599737344	53	4643
2026-01-21 08:37:10.13	327.45	16.20	-41.2	-43.2	17.7	5.76e-01	0	41	0	6614417408	53	4668
2026-01-21 08:37:11.14	327.58	16.07	-41.2	-43.3	17.7	5.76e-01	0	40	0	6631194624	53	4708
2026-01-21 08:37:12.15	327.72	15.93	-41.3	-43.4	17.5	5.77e-01	0	41	0	6645874688	53	4764
2026-01-21 08:37:13.16	327.85	15.80	-41.4	-43.5	17.5	5.76e-01	0	41	0	6660554752	53	4821
2026-01-21 08:37:14.17	327.98	15.66	-41.4	-43.5	17.5	5.77e-01	0	41	0	6677331968	53	4831
2026-01-21 08:37:15.17	328.10	15.53	-41.5	-43.6	17.4	5.76e-01	0	41	0	6692012032	53	4883
2026-01-21 08:37:16.18	328.23	15.40	-41.4	-43.5	17.5	5.77e-01	0	40	0	6706692096	53	4827
2026-01-21 08:37:17.19	328.36	15.27	-42.8	-43.6	17.3	5.77e-01	0	40	0	6723469312	56	4125
2026-01-21 08:37:18.20	328.48	15.14	-54.2	-63.2	3.8	7.45e-01	0	40	104	6733955072	79	10444
2026-01-21 08:37:19.21	328.61	15.01	-54.2	-63.1	3.8	7.46e-01	0	41	104	6733955072	79	10358
2026-01-21 08:37:20.22	328.73	14.88	-54.2	-63.1	3.8	7.45e-01	0	41	104	6733955072	79	10317
2026-01-21 08:37:21.22	328.85	14.76	-54.2	-63.1	3.8	7.47e-01	0	40	104	6733955072	79	10301
2026-01-21 08:37:22.23	328.97	14.63	-54.2	-63.0	3.8	7.45e-01	0	40	104	6733955072	79	10288
2026-01-21 08:37:23.23	329.09	14.51	-54.2	-63.0	3.8	7.45e-01	0	41	104	6733955072	79	10251
2026-01-21 08:37:24.24	329.20	14.38	-54.2	-63.0	3.8	7.47e-01	0	40	104	6733955072	79	10283
2026-01-21 08:37:25.25	329.32	14.26	-54.2	-63.0	3.8	7.44e-01	0	40	104	6733955072	79	10210
2026-01-21 08:37:26.26	329.43	14.13	-54.2	-63.0	3.8	7.46e-01	0	40	104	6733955072	79	10265
2026-01-21 08:37:27.27	329.55	14.01	-54.2	-63.0	3.8	7.46e-01	0	41	104	6733955072	79	10182
2026-01-21 08:37:28.28	329.66	13.89	-54.2	-63.0	3.8	7.46e-01	0	40	104	6733955072	79	10260
2026-01-21 08:37:29.29	329.77	13.76	-54.1	-63.0	3.8	7.45e-01	0	41	104	6733955072	79	10216
2026-01-21 08:37:30.29	329.88	13.64	-54.1	-63.0	3.8	7.45e-01	0	41	104	6733955072	79	10224
2026-01-21 08:37:31.30	329.99	13.52	-54.1	-63.0	3.8	7.44e-01	0	41	104	6733955072	79	10180
2026-01-21 08:37:32.31	330.10	13.41	-54.1	-62.9	3.8	7.45e-01	0	40	104	6733955072	79	10164
2026-01-21 08:37:33.32	330.21	13.29	-54.1	-62.9	3.8	7.47e-01	0	40	104	6733955072	79	10166
2026-01-21 08:37:34.32	330.32	13.17	-54.1	-62.9	3.8	7.45e-01	0	40	104	6733955072	79	10145
2026-01-21 08:37:35.33	330.42	13.05	-54.1	-62.9	3.8	7.46e-01	0	40	104	6733955072	79	10138
2026-01-21 08:37:36.34	330.53	12.94	-54.1	-62.9	3.8	7.45e-01	0	41	104	6733955072	79	10139
2026-01-21 08:37:37.34	330.63	12.82	-54.1	-62.9	3.8	7.45e-01	0	41	104	6733955072	79	10116
2026-01-21 08:37:38.35	330.73	12.71	-54.1	-62.9	3.8	7.46e-01	0	41	104	6733955072	79	10096
2026-01-21 08:37:39.36	330.84	12.59	-54.0	-62.9	3.8	7.47e-01	0	40	104	6733955072	79	10084
2026-01-21 08:37:40.36	330.94	12.48	-54.0	-62.9	3.8	7.44e-01	0	41	104	6733955072	79	10072
2026-01-21 08:37:41.37	331.04	12.36	-54.0	-62.9	3.8	7.45e-01	0	41	104	6733955072	79	10069
2026-01-21 08:37:42.38	331.14	12.25	-54.0	-62.9	3.8	7.45e-01	0	40	104	6733955072	79	10093
2026-01-21 08:37:43.39	331.23	12.14	-54.0	-62.8	3.8	7.44e-01	0	40	104	6733955072	79	10023
2026-01-21 08:37:44.39	331.33	12.03	-54.0	-62.9	3.8	7.46e-01	0	40	104	6733955072	79	10061
2026-01-21 08:37:45.40	331.43	11.92	-54.0	-62.8	3.8	7.45e-01	0	41	104	6733955072	79	10016
2026-01-21 08:37:46.41	331.52	11.81	-54.0	-62.8	3.8	7.47e-01	0	40	104	6733955072	79	10019
2026-01-21 08:37:47.41	331.62	11.70	-54.0	-62.8	3.8	7.46e-01	0	41	104	6733955072	79	9985
2026-01-21 08:37:48.42	331.71	11.59	-53.9	-62.8	3.8	7.46e-01	0	41	104	6733955072	79	9985
2026-01-21 08:37:49.43	331.81	11.48	-53.9	-62.8	3.8	7.45e-01	0	40	104	6733955072	79	9980
2026-01-21 08:37:50.44	331.90	11.37	-53.9	-62.8	3.8	7.45e-01	0	41	104	6733955072	79	9998
2026-01-21 08:37:51.45	331.99	11.26	-53.9	-62.8	3.8	7.44e-01	0	41	104	6733955072	79	9964
2026-01-21 08:37:52.45	332.08	11.16	-53.9	-62.8	3.8	7.46e-01	0	41	104	6733955072	79	9961
2026-01-21 08:37:53.45	332.17	11.05	-53.9	-62.8	3.8	7.45e-01	0	40	104	6733955072	79	9951
2026-01-21 08:37:54.46	332.26	10.95	-53.9	-62.8	3.8	7.46e-01	0	41	104	6733955072	79	9959
2026-01-21 08:37:55.47	332.35	10.84	-53.9	-62.7	3.8	7.46e-01	0	41	104	6733955072	79	9927
2026-01-21 08:37:56.48	332.44	10.74	-53.9	-62.7	3.8	7.46e-01	0	40	104	6733955072	79	9876
2026-01-21 08:37:57.49	332.53	10.63	-53.9	-62.7	3.8	7.45e-01	0	41	104	6733955072	79	9908
2026-01-21 08:37:58.49	332.61	10.53	-53.9	-62.7	3.8	7.43e-01	0	41	104	6733955072	79	9882
2026-01-21 08:37:59.50	332.70	10.43	-53.9	-62.7	3.8	7.46e-01	0	41	104	6733955072	79	9864
2026-01-21 08:38:00.51	332.78	10.33	-53.8	-62.7	3.8	7.45e-01	0	41	104	6733955072	79	9845
2026-01-21 08:38:01.52	332.87	10.22	-53.8	-62.7	3.8	7.45e-01	0	41	104	6733955072	79	9858
2026-01-21 08:38:02.53	332.95	10.12	-53.8	-62.6	3.8	7.45e-01	0	41	104	6733955072	79	9813
2026-01-21 08:38:03.53	333.04	10.02	-53.8	-62.7	3.8	7.46e-01	0	40	104	6733955072	79	9856
2026-01-21 08:38:04.54	333.12	9.92	-53.8	-62.6	3.8	7.44e-01	0	40	104	6733955072	79	9800
2026-01-21 08:38:05.55	333.20	9.82	-53.8	-62.6	3.8	7.44e-01	0	40	104	6733955072	79	9764
2026-01-21 08:38:06.55	333.28	9.72	-53.8	-62.6	3.8	7.46e-01	0	41	104	6733955072	79	9792
2026-01-21 08:38:07.56	333.36	9.62	-53.8	-62.6	3.8	7.44e-01	0	41	104	6733955072	79	9799
2026-01-21 08:38:08.56	333.44	9.53	-53.8	-62.6	3.8	7.45e-01	0	41	104	6733955072	79	9721
2026-01-21 08:38:09.58	333.52	9.43	-53.8	-62.6	3.8	7.45e-01	0	41	104	6733955072	79	9783
2026-01-21 08:38:10.58	333.60	9.33	-53.8	-62.6	3.8	7.46e-01	0	41	104	6733955072	79	9738
2026-01-21 08:38:11.59	333.68	9.23	-53.8	-62.6	3.8	7.45e-01	0	40	104	6733955072	79	9760
2026-01-21 08:38:12.60	333.75	9.14	-53.7	-62.6	3.8	7.45e-01	0	41	104	6733955072	79	9719
2026-01-21 08:38:13.61	333.83	9.04	-53.7	-62.6	3.8	7.45e-01	0	41	104	6733955072	79	9758
2026-01-21 08:38:14.62	333.91	8.95	-53.7	-62.5	3.8	7.44e-01	0	41	104	6733955072	79	9692
2026-01-21 08:38:15.62	333.98	8.85	-53.7	-62.5	3.8	7.45e-01	0	41	104	6733955072	79	9705
2026-01-21 08:38:16.63	334.06	8.76	-53.7	-62.5	3.8	7.46e-01	0	41	104	6733955072	79	9643
2026-01-21 08:38:17.64	334.13	8.66	-53.7	-62.5	3.8	7.44e-01	0	41	104	6733955072	79	9704
2026-01-21 08:38:18.64	334.21	8.57	-53.7	-62.5	3.8	7.45e-01	0	41	104	6733955072	79	9645
2026-01-21 08:38:19.65	334.28	8.48	-53.7	-62.5	3.8	7.46e-01	0	41	104	6733955072	79	9671
2026-01-21 08:38:20.66	334.35	8.38	-53.6	-62.5	3.8	7.45e-01	0	41	104	6733955072	79	9609
2026-01-21 08:38:21.67	334.43	8.29	-53.7	-62.5	3.8	7.44e-01	0	41	104	6733955072	79	9654
2026-01-21 08:38:22.68	334.50	8.20	-53.6	-62.5	3.8	7.45e-01	0	40	104	6733955072	79	9616
2026-01-21 08:38:23.69	334.57	8.11	-53.6	-62.5	3.8	7.45e-01	0	40	104	6733955072	79	9650
2026-01-21 08:38:24.69	334.64	8.02	-53.6	-62.4	3.8	7.44e-01	0	41	104	6733955072	79	9588
2026-01-21 08:38:25.70	334.71	7.93	-53.6	-62.5	3.8	7.45e-01	0	41	104	6733955072	79	9629
2026-01-21 08:38:26.71	334.78	7.83	-53.6	-62.4	3.8	7.45e-01	0	41	104	6733955072	79	9561
2026-01-21 08:38:27.71	334.85	7.75	-53.6	-62.5	3.8	7.46e-01	0	41	104	6733955072	79	9612
2026-01-21 08:38:28.72	334.92	7.66	-53.5	-62.4	3.8	7.45e-01	0	41	104	6733955072	79	9500
2026-01-21 08:38:29.73	334.99	7.57	-53.6	-62.4	3.8	7.45e-01	0	41	104	6733955072	79	9580
2026-01-21 08:38:30.74	335.05	7.48	-53.5	-62.4	3.8	7.45e-01	0	41	104	6733955072	79	9507
2026-01-21 08:38:31.75	335.12	7.39	-53.6	-62.4	3.8	7.45e-01	0	41	104	6733955072	79	9556
2026-01-21 08:38:32.76	335.19	7.30	-53.5	-62.3	3.8	7.45e-01	0	41	104	6733955072	79	9482
2026-01-21 08:38:33.76	335.26	7.21	-53.6	-62.4	3.8	7.46e-01	0	40	104	6733955072	79	9526
2026-01-21 08:38:34.77	335.32	7.13	-53.5	-62.4	3.8	7.45e-01	0	41	104	6733955072	79	9524
2026-01-21 08:38:35.78	335.39	7.04	-53.5	-62.4	3.8	7.45e-01	0	41	104	6733955072	78	10104
2026-01-21 08:38:36.79	335.45	6.95	-53.4	-62.3	3.8	7.46e-01	0	40	104	6733955072	78	9963
2026-01-21 08:38:37.80	335.52	6.87	-53.5	-62.3	3.8	7.46e-01	0	41	104	6733955072	78	10031
2026-01-21 08:38:38.81	335.58	6.78	-53.4	-62.3	3.8	7.46e-01	0	41	104	6733955072	78	9950
2026-01-21 08:38:39.81	335.64	6.70	-53.5	-62.3	3.8	7.45e-01	0	41	104	6733955072	78	10009
2026-01-21 08:38:40.82	335.71	6.61	-53.4	-62.2	3.8	7.45e-01	0	40	104	6733955072	78	9874
2026-01-21 08:38:41.83	335.77	6.53	-53.5	-62.3	3.8	7.46e-01	0	40	104	6733955072	78	10007
2026-01-21 08:38:42.84	335.83	6.44	-53.4	-62.2	3.8	7.45e-01	0	41	104	6733955072	78	9895
2026-01-21 08:38:43.84	335.89	6.36	-53.4	-62.3	3.8	7.46e-01	0	40	104	6733955072	78	9967
2026-01-21 08:38:44.85	335.96	6.27	-53.3	-62.2	3.8	7.47e-01	0	40	104	6733955072	78	9835
2026-01-21 08:38:45.86	336.02	6.19	-53.4	-62.3	3.8	7.45e-01	0	40	104	6733955072	78	9964
2026-01-21 08:38:46.87	336.08	6.11	-53.3	-62.1	3.8	7.46e-01	0	41	104	6733955072	78	9821
2026-01-21 08:38:47.87	336.14	6.03	-53.4	-62.2	3.8	7.46e-01	0	40	104	6733955072	78	9939
2026-01-21 08:38:48.88	336.20	5.94	-53.3	-62.1	3.8	7.44e-01	0	40	104	6733955072	78	9785
2026-01-21 08:38:49.89	336.26	5.86	-53.4	-62.2	3.8	7.46e-01	0	40	104	6733955072	78	9915
2026-01-21 08:38:50.89	336.32	5.78	-53.2	-62.1	3.8	7.47e-01	0	41	104	6733955072	78	9758
2026-01-21 08:38:51.90	336.38	5.70	-53.3	-62.2	3.8	7.44e-01	0	40	104	6733955072	78	9872
2026-01-21 08:38:52.91	336.43	5.62	-53.2	-62.1	3.8	7.46e-01	0	41	104	6733955072	78	9749
2026-01-21 08:38:53.92	336.49	5.54	-53.3	-62.2	3.8	7.46e-01	0	40	104	6733955072	78	9865
2026-01-21 08:38:54.92	336.55	5.46	-53.2	-62.0	3.8	7.45e-01	0	41	104	6733955072	78	9672
2026-01-21 08:38:55.93	336.61	5.38	-53.3	-62.1	3.8	7.46e-01	0	40	104	6733955072	78	9817
2026-01-21 08:38:56.94	336.66	5.30	-53.1	-62.0	3.8	7.45e-01	0	40	104	6733955072	78	9619
2026-01-21 08:38:57.94	336.72	5.22	-53.3	-62.1	3.8	7.44e-01	0	40	104	6733955072	78	9760
2026-01-21 08:38:58.95	336.78	5.14	-53.1	-62.0	3.8	7.44e-01	0	40	104	6733955072	78	9631
2026-01-21 08:38:59.96	336.83	5.06	-53.2	-62.1	3.8	7.46e-01	0	40	104	6733955072	78	9751
2026-01-21 08:39:00.97	336.89	4.98	-53.4	-62.2	3.8	7.45e-01	0	40	104	6733955072	78	9936
2026-01-21 08:39:01.98	336.94	4.90	-53.7	-62.6	3.8	7.44e-01	0	41	104	6733955072	78	10367
2026-01-21 08:39:02.99	337.00	4.83	-54.0	-62.8	3.8	7.46e-01	0	41	104	6733955072	78	10575
2026-01-21 08:39:03.99	337.05	4.75	-54.1	-63.0	3.8	7.45e-01	0	40	104	6733955072	78	10821
2026-01-21 08:39:05.00	337.11	4.67	-54.3	-63.1	3.8	7.44e-01	0	41	104	6733955072	79	10331
2026-01-21 08:39:06.01	337.16	4.59	-54.3	-63.1	3.8	7.47e-01	0	41	104	6733955072	79	10367
2026-01-21 08:39:07.02	337.21	4.52	-54.4	-63.3	3.8	7.46e-01	0	41	104	6733955072	79	10575
2026-01-21 08:39:08.03	337.27	4.44	-54.5	-63.3	3.8	7.47e-01	0	41	104	6733955072	79	10573
2026-01-21 08:39:09.03	337.32	4.36	-54.4	-63.3	3.8	7.47e-01	0	40	104	6733955072	79	10575
2026-01-21 08:39:10.04	337.37	4.29	-54.4	-63.3	3.8	7.45e-01	0	40	104	6733955072	79	10554
2026-01-21 08:39:11.05	337.42	4.21	-54.4	-63.2	3.8	7.45e-01	0	40	104	6733955072	79	10527
2026-01-21 08:39:12.05	337.48	4.14	-54.3	-63.2	3.8	7.46e-01	0	40	104	6733955072	79	10475
2026-01-21 08:39:13.06	337.53	4.06	-54.3	-63.1	3.8	7.44e-01	0	40	104	6733955072	79	10352
2026-01-21 08:39:14.07	337.58	3.99	-54.2	-63.0	3.8	7.47e-01	0	41	104	6733955072	79	10255
2026-01-21 08:39:15.08	337.63	3.91	-54.2	-63.1	3.8	7.43e-01	0	41	104	6733955072	79	10301
2026-01-21 08:39:16.09	337.68	3.84	-54.3	-63.1	3.8	7.46e-01	0	41	104	6733955072	79	10316
2026-01-21 08:39:17.09	337.73	3.76	-54.3	-63.1	3.8	7.44e-01	0	41	104	6733955072	79	10358
2026-01-21 08:39:18.10	337.78	3.69	-54.3	-63.1	3.8	7.45e-01	0	41	104	6733955072	79	10354
2026-01-21 08:39:19.11	337.83	3.62	-54.3	-63.1	3.8	7.44e-01	0	41	104	6733955072	79	10403
2026-01-21 08:39:20.12	337.88	3.54	-54.3	-63.1	3.8	7.45e-01	0	40	104	6733955072	79	10407
2026-01-21 08:39:21.13	337.93	3.47	-54.3	-63.2	3.8	7.44e-01	0	41	104	6733955072	79	10453
2026-01-21 08:39:22.13	337.98	3.40	-54.3	-63.2	3.8	7.45e-01	0	41	104	6733955072	79	10443
2026-01-21 08:39:23.14	338.03	3.32	-54.3	-63.2	3.8	7.44e-01	0	41	104	6733955072	79	10416
2026-01-21 08:39:24.15	338.07	3.25	-54.3	-63.1	3.8	7.46e-01	0	41	104	6733955072	79	10394
2026-01-21 08:39:25.16	338.12	3.18	-54.3	-63.1	3.8	7.46e-01	0	41	104	6733955072	79	10337
2026-01-21 08:39:26.17	338.17	3.11	-54.3	-63.1	3.8	7.44e-01	0	41	104	6733955072	79	10354
2026-01-21 08:39:27.17	338.22	3.04	-54.3	-63.1	3.8	7.45e-01	0	40	104	6733955072	79	10343
2026-01-21 08:39:28.18	338.27	2.97	-54.3	-63.1	3.8	7.46e-01	0	40	104	6733955072	79	10389
2026-01-21 08:39:29.19	338.31	2.89	-54.3	-63.1	3.8	7.45e-01	0	41	104	6733955072	79	10341
2026-01-21 08:39:30.20	338.36	2.82	-54.3	-63.1	3.8	7.46e-01	0	40	104	6733955072	79	10361
2026-01-21 08:39:31.21	338.41	2.75	-54.2	-63.1	3.8	7.46e-01	0	41	104	6733955072	79	10364
2026-01-21 08:39:32.21	338.45	2.68	-54.2	-63.1	3.8	7.44e-01	0	40	104	6733955072	79	10342
2026-01-21 08:39:33.22	338.50	2.61	-54.2	-63.1	3.8	7.43e-01	0	40	104	6733955072	79	10336
2026-01-21 08:39:34.23	338.54	2.54	-54.2	-63.1	3.8	7.46e-01	0	41	104	6733955072	79	10301
2026-01-21 08:39:35.23	338.59	2.47	-54.2	-63.1	3.8	7.44e-01	0	40	104	6733955072	79	10330
2026-01-21 08:39:36.24	338.63	2.40	-54.2	-63.1	3.8	7.46e-01	0	41	104	6733955072	79	10315
2026-01-21 08:39:37.25	338.68	2.33	-54.2	-63.1	3.8	7.43e-01	0	40	104	6733955072	79	10357
2026-01-21 08:39:38.26	338.72	2.26	-54.2	-63.1	3.8	7.45e-01	0	40	104	6733955072	79	10334
2026-01-21 08:39:39.26	338.77	2.19	-54.2	-63.1	3.8	7.46e-01	0	41	104	6733955072	79	10310
2026-01-21 08:39:40.27	338.81	2.13	-54.2	-63.1	3.8	7.44e-01	0	41	104	6733955072	79	10296
2026-01-21 08:39:41.28	338.86	2.06	-54.2	-63.1	3.8	7.45e-01	0	41	104	6733955072	79	10303
2026-01-21 08:39:42.29	338.90	1.99	-54.2	-63.0	3.8	7.45e-01	0	41	104	6733955072	79	10261
2026-01-21 08:39:43.30	338.94	1.92	-54.2	-63.0	3.8	7.47e-01	0	41	104	6733955072	79	10288
2026-01-21 08:39:44.30	338.99	1.85	-54.2	-63.1	3.8	7.46e-01	0	41	104	6733955072	79	10319

#Closed at: 2026-01-21 08:39:45
#Recorded file [6733 MB]: D:/lorett/data/31041_260121_112922.dat