passes_logs/2026/01/21/R3.2S_Murmansk/R3.2S_Murmansk__20260121_194942_TY-42_rec.log

#Pass ID: 20260121_194942_TY-42
#Satellite: TY-42
#Configuration: TY-42_900M
#almurnet v.1.7.20251203
#Start time: 2026-01-21 19:49:43

#Version: 2.2.20231116
#Station: R3.2S_Murmansk
#Location: 33.079688 lon 68.888172 lat
#TLE: 1 64048U 25103A   26021.69263889  .00008011  00000-0  38191-3 0 09990
#TLE: 2 64048 097.4122 096.9841 0001655 091.0670 308.0136 15.19173465 37830

#Time	Az	El	Level	Level2	SNR	BER	BlckErr	Temp	State	Recorded	gain1	gain2
2026-01-21 19:49:43.05	185.74	2.00	-54.4	-56.5	6.2	0.00e+00	0	47	0	0	80	18206
2026-01-21 19:49:44.06	185.79	2.07	-54.6	-56.8	6.2	0.00e+00	0	46	104	0	80	18898
2026-01-21 19:49:45.07	185.84	2.13	-54.7	-56.8	6.2	0.00e+00	0	47	104	0	80	18945
2026-01-21 19:49:46.07	185.90	2.20	-54.7	-56.8	6.2	0.00e+00	0	47	104	0	80	18943
2026-01-21 19:49:47.08	185.95	2.27	-54.7	-56.8	6.2	0.00e+00	0	47	104	0	80	18994
2026-01-21 19:49:48.09	186.01	2.34	-54.7	-56.8	6.2	0.00e+00	0	47	104	0	80	18877
2026-01-21 19:49:49.10	186.06	2.41	-54.7	-56.8	6.2	0.00e+00	0	47	104	0	80	18838
2026-01-21 19:49:50.11	186.12	2.48	-54.6	-56.7	6.2	0.00e+00	0	47	104	0	80	18796
2026-01-21 19:49:51.12	186.17	2.55	-54.6	-56.7	6.2	0.00e+00	0	47	104	0	80	18809
2026-01-21 19:49:52.12	186.23	2.61	-54.6	-56.7	6.2	0.00e+00	0	47	104	0	80	18735
2026-01-21 19:49:53.13	186.28	2.68	-54.6	-56.7	6.2	0.00e+00	0	47	104	0	80	18664
2026-01-21 19:49:54.14	186.34	2.75	-54.6	-56.7	6.2	0.00e+00	0	47	104	0	80	18656
2026-01-21 19:49:55.15	186.40	2.82	-54.5	-56.6	6.2	0.00e+00	0	47	104	0	80	18525
2026-01-21 19:49:56.15	186.45	2.89	-54.5	-56.6	6.2	0.00e+00	0	47	104	0	80	18440
2026-01-21 19:49:57.16	186.51	2.96	-54.4	-56.5	6.2	0.00e+00	0	47	104	0	80	18371
2026-01-21 19:49:58.17	186.57	3.04	-54.4	-56.5	6.2	0.00e+00	0	47	104	0	80	18269
2026-01-21 19:49:59.18	186.63	3.11	-54.3	-56.5	6.2	0.00e+00	0	47	104	0	80	18206
2026-01-21 19:50:00.19	186.69	3.18	-54.3	-56.3	6.2	0.00e+00	0	48	104	0	80	17949
2026-01-21 19:50:01.20	186.74	3.25	-54.2	-56.3	6.2	0.00e+00	0	48	104	0	80	17836
2026-01-21 19:50:02.21	186.80	3.32	-54.1	-56.2	6.2	0.00e+00	0	48	104	0	80	17629
2026-01-21 19:50:03.21	186.86	3.39	-54.0	-56.1	6.2	0.00e+00	0	48	104	0	79	18512
2026-01-21 19:50:04.22	186.92	3.46	-53.8	-56.0	6.2	0.00e+00	0	48	104	0	79	18188
2026-01-21 19:50:05.23	186.98	3.54	-53.5	-55.7	6.2	0.00e+00	0	48	104	0	79	17564
2026-01-21 19:50:06.24	187.04	3.61	-53.1	-55.3	6.2	0.00e+00	0	48	104	0	78	17784
2026-01-21 19:50:07.25	187.10	3.68	-53.0	-55.1	6.2	0.00e+00	0	48	104	0	78	17562
2026-01-21 19:50:08.25	187.17	3.75	-53.0	-55.1	6.2	0.00e+00	0	48	104	0	78	17534
2026-01-21 19:50:09.26	187.23	3.83	-53.0	-55.2	6.2	0.00e+00	0	48	104	0	78	17577
2026-01-21 19:50:10.27	187.29	3.90	-53.0	-55.1	6.2	0.00e+00	0	48	104	0	78	17505
2026-01-21 19:50:11.28	187.35	3.97	-53.0	-55.1	6.2	0.00e+00	0	48	104	0	78	17528
2026-01-21 19:50:12.29	187.41	4.05	-53.0	-55.1	6.2	0.00e+00	0	48	104	0	78	17467
2026-01-21 19:50:13.30	187.48	4.12	-53.0	-55.1	6.2	0.00e+00	0	48	104	0	78	17481
2026-01-21 19:50:14.31	187.54	4.20	-53.0	-55.1	6.2	0.00e+00	0	48	104	0	78	17538
2026-01-21 19:50:15.31	187.60	4.27	-53.0	-55.1	6.2	0.00e+00	0	48	104	0	78	17480
2026-01-21 19:50:16.32	187.67	4.35	-53.0	-55.1	6.2	0.00e+00	0	48	104	0	78	17465
2026-01-21 19:50:17.33	187.73	4.42	-53.0	-55.1	6.2	0.00e+00	0	48	104	0	77	18482
2026-01-21 19:50:18.34	187.80	4.50	-53.0	-55.1	6.2	0.00e+00	0	48	104	0	77	18466
2026-01-21 19:50:19.35	187.86	4.57	-53.0	-55.1	6.2	0.00e+00	0	48	104	0	77	18446
2026-01-21 19:50:20.35	187.93	4.65	-53.0	-55.1	6.2	0.00e+00	0	48	104	0	77	18462
2026-01-21 19:50:21.36	188.00	4.72	-52.9	-55.1	6.2	0.00e+00	0	48	104	0	77	18409
2026-01-21 19:50:22.37	188.06	4.80	-52.9	-55.1	6.2	0.00e+00	0	48	104	0	77	18471
2026-01-21 19:50:23.38	188.13	4.88	-52.9	-55.1	6.2	0.00e+00	0	48	104	0	77	18400
2026-01-21 19:50:24.39	188.20	4.95	-53.0	-55.0	6.2	0.00e+00	0	48	104	0	77	18358
2026-01-21 19:50:25.39	188.26	5.03	-52.9	-55.0	6.2	0.00e+00	0	48	104	0	77	18388
2026-01-21 19:50:26.40	188.33	5.11	-53.0	-55.1	6.2	0.00e+00	0	48	104	0	77	18434
2026-01-21 19:50:27.41	188.40	5.19	-53.0	-55.1	6.2	0.00e+00	0	49	104	0	77	18557
2026-01-21 19:50:28.42	188.47	5.26	-53.0	-55.1	6.2	0.00e+00	0	49	104	0	77	18572
2026-01-21 19:50:29.43	188.54	5.34	-52.9	-55.0	6.2	0.00e+00	0	49	104	0	77	18344
2026-01-21 19:50:30.44	188.61	5.42	-52.9	-55.1	6.2	0.00e+00	0	49	104	0	77	18455
2026-01-21 19:50:31.44	188.68	5.50	-41.3	-41.2	12.2	0.00e+00	1618	51	0	8388608	54	14065
2026-01-21 19:50:32.45	188.75	5.58	-36.6	-36.5	13.9	5.75e-02	0	50	0	134217728	45	13751
2026-01-21 19:50:33.46	188.82	5.66	-36.4	-36.3	14.0	5.75e-02	0	50	0	251658240	44	14233
2026-01-21 19:50:34.47	188.90	5.74	-36.2	-36.1	14.1	3.48e-02	0	50	0	360710144	44	13912
2026-01-21 19:50:35.47	188.97	5.82	-36.1	-36.0	14.2	3.48e-02	0	51	0	469762048	43	14486
2026-01-21 19:50:36.48	189.04	5.90	-35.9	-35.8	14.3	3.48e-02	0	51	0	587202560	43	14154
2026-01-21 19:50:37.49	189.11	5.98	-36.2	-36.1	14.2	2.48e-02	0	51	0	696254464	43	14646
2026-01-21 19:50:38.49	189.19	6.06	-36.0	-35.9	14.3	2.48e-02	0	51	0	813694976	43	14321
2026-01-21 19:50:39.50	189.26	6.14	-36.5	-36.4	14.0	2.48e-02	0	51	0	922746880	43	15283
2026-01-21 19:50:40.51	189.34	6.22	-35.9	-35.8	14.3	2.60e-02	0	51	0	1031798784	43	14225
2026-01-21 19:50:41.52	189.41	6.30	-35.9	-35.8	14.3	2.60e-02	0	51	0	1149239296	43	14192
2026-01-21 19:50:42.53	189.49	6.38	-36.1	-36.0	14.2	2.60e-02	0	51	0	1258291200	43	14497
2026-01-21 19:50:43.53	189.56	6.47	-35.7	-35.7	14.4	2.34e-02	0	51	0	1375731712	43	13962
2026-01-21 19:50:44.54	189.64	6.55	-35.8	-35.7	14.4	2.34e-02	0	51	0	1484783616	43	13990
2026-01-21 19:50:45.55	189.72	6.63	-35.7	-35.7	14.4	2.16e-02	0	52	0	1610612736	43	13953
2026-01-21 19:50:46.55	189.79	6.72	-35.5	-35.4	14.5	2.16e-02	0	51	0	1719664640	43	13625
2026-01-21 19:50:47.56	189.87	6.80	-35.8	-35.7	14.4	2.16e-02	0	52	0	1837105152	43	14057
2026-01-21 19:50:48.57	189.95	6.88	-35.6	-35.5	14.4	1.98e-02	0	51	0	1946157056	43	13740
2026-01-21 19:50:49.58	190.03	6.97	-35.9	-35.8	14.2	1.98e-02	0	52	0	2055208960	43	14254
2026-01-21 19:50:50.58	190.11	7.05	-35.9	-35.8	14.3	1.84e-02	0	51	0	2172649472	43	14169
2026-01-21 19:50:51.59	190.19	7.14	-35.7	-35.6	14.4	1.84e-02	0	52	0	2281701376	43	13902
2026-01-21 19:50:52.60	190.27	7.22	-35.7	-35.6	14.4	1.84e-02	0	52	0	2399141888	43	13805
2026-01-21 19:50:53.61	190.36	7.31	-35.2	-35.1	14.6	1.59e-02	0	52	0	2508193792	42	13950
2026-01-21 19:50:54.62	190.44	7.39	-35.2	-35.1	14.6	1.59e-02	0	52	0	2625634304	42	13902
2026-01-21 19:50:55.63	190.52	7.48	-35.3	-35.2	14.6	1.59e-02	0	52	0	2734686208	42	14062
2026-01-21 19:50:56.64	190.60	7.57	-35.2	-35.1	14.7	1.23e-02	0	52	0	2843738112	42	13822
2026-01-21 19:50:57.64	190.69	7.65	-35.1	-35.0	14.7	1.23e-02	0	52	0	2969567232	42	13782
2026-01-21 19:50:58.65	190.77	7.74	-35.1	-35.0	14.7	1.23e-02	0	52	0	3087007744	42	13749
2026-01-21 19:50:59.66	190.86	7.83	-35.1	-35.0	14.7	1.19e-02	0	52	0	3196059648	42	13782
2026-01-21 19:51:00.67	190.94	7.92	-35.2	-35.1	14.6	1.19e-02	0	52	0	3305111552	42	13816
2026-01-21 19:51:01.67	191.03	8.01	-34.9	-34.8	14.8	1.17e-02	0	52	0	3422552064	41	14132
2026-01-21 19:51:02.68	191.12	8.09	-34.8	-34.7	14.8	1.17e-02	0	52	0	3531603968	41	14050
2026-01-21 19:51:03.69	191.20	8.18	-34.9	-34.8	14.8	1.17e-02	0	52	0	3649044480	41	14251
2026-01-21 19:51:04.70	191.29	8.27	-34.7	-34.6	14.9	9.10e-03	0	52	0	3758096384	41	13809
2026-01-21 19:51:05.70	191.38	8.36	-34.5	-34.4	15.0	9.10e-03	0	52	0	3867148288	40	14342
2026-01-21 19:51:06.71	191.47	8.45	-34.5	-34.4	15.0	7.86e-03	0	52	0	3984588800	40	14346
2026-01-21 19:51:07.72	191.56	8.54	-34.7	-34.6	14.9	7.86e-03	0	52	0	4093640704	40	14683
2026-01-21 19:51:08.73	191.65	8.64	-34.4	-34.2	15.0	7.86e-03	0	52	0	4211081216	40	14103
2026-01-21 19:51:09.74	191.74	8.73	-34.3	-34.2	15.1	6.93e-03	0	52	0	4320133120	40	13995
2026-01-21 19:51:10.75	191.84	8.82	-34.3	-34.2	15.1	6.93e-03	0	52	0	4445962240	40	14021
2026-01-21 19:51:11.75	191.93	8.91	-34.1	-34.0	15.1	6.93e-03	0	53	0	4555014144	40	13672
2026-01-21 19:51:12.76	192.02	9.00	-34.2	-34.1	15.1	5.66e-03	0	53	0	4672454656	40	13882
2026-01-21 19:51:13.77	192.12	9.10	-34.2	-34.1	15.1	5.66e-03	0	52	0	4781506560	40	13905
2026-01-21 19:51:14.78	192.21	9.19	-34.2	-34.1	15.1	5.66e-03	0	53	0	4890558464	40	13903
2026-01-21 19:51:15.79	192.31	9.28	-34.1	-34.0	15.1	5.49e-03	0	53	0	5007998976	40	13715
2026-01-21 19:51:16.80	192.40	9.38	-34.0	-33.9	15.2	5.49e-03	0	53	0	5117050880	39	14360
2026-01-21 19:51:17.80	192.50	9.47	-33.9	-33.8	15.3	5.49e-03	0	53	0	5234491392	39	14174
2026-01-21 19:51:18.81	192.60	9.57	-34.0	-33.9	15.2	4.21e-03	0	53	0	5343543296	39	14279
2026-01-21 19:51:19.82	192.70	9.66	-33.8	-33.6	15.3	4.21e-03	0	53	0	5452595200	39	13933
2026-01-21 19:51:20.83	192.80	9.76	-33.7	-33.6	15.3	3.82e-03	0	53	0	5570035712	39	13866
2026-01-21 19:51:21.83	192.90	9.86	-33.7	-33.6	15.3	3.82e-03	0	53	0	5679087616	39	13868
2026-01-21 19:51:22.84	193.00	9.95	-33.7	-33.6	15.4	3.52e-03	0	53	0	5796528128	39	13814
2026-01-21 19:51:23.85	193.10	10.05	-33.6	-33.5	15.4	3.52e-03	0	53	0	5913968640	39	13651
2026-01-21 19:51:24.86	193.20	10.15	-33.7	-33.6	15.4	3.52e-03	0	53	0	6031409152	39	13794
2026-01-21 19:51:25.87	193.31	10.25	-33.8	-33.6	15.3	3.02e-03	0	53	0	6140461056	39	13941
2026-01-21 19:51:26.87	193.41	10.35	-33.9	-33.8	15.3	3.02e-03	0	53	0	6257901568	39	14152
2026-01-21 19:51:27.88	193.51	10.44	-33.6	-33.4	15.4	3.02e-03	0	53	0	6366953472	39	13617
2026-01-21 19:51:28.89	193.62	10.54	-33.5	-33.3	15.4	3.42e-03	0	53	0	6484393984	38	14272
2026-01-21 19:51:29.90	193.73	10.64	-33.4	-33.3	15.5	3.42e-03	0	53	0	6593445888	38	14245
2026-01-21 19:51:30.91	193.84	10.75	-33.4	-33.3	15.5	2.71e-03	0	53	0	6702497792	38	14168
2026-01-21 19:51:31.91	193.94	10.85	-33.5	-33.4	15.4	2.71e-03	0	53	0	6819938304	38	14409
2026-01-21 19:51:32.92	194.05	10.95	-33.3	-33.2	15.5	2.71e-03	0	53	0	6928990208	38	14043
2026-01-21 19:51:33.93	194.16	11.05	-33.3	-33.2	15.5	2.71e-03	0	53	0	7046430720	38	14075
2026-01-21 19:51:34.93	194.27	11.15	-33.4	-33.3	15.5	2.74e-03	0	53	0	7155482624	38	14140
2026-01-21 19:51:35.94	194.39	11.25	-33.2	-33.1	15.6	2.74e-03	0	53	0	7281311744	38	13876
2026-01-21 19:51:36.95	194.50	11.36	-33.4	-33.3	15.5	2.31e-03	0	53	0	7390363648	38	14226
2026-01-21 19:51:37.96	194.61	11.46	-33.2	-33.1	15.6	2.31e-03	0	53	0	7507804160	38	13915
2026-01-21 19:51:38.97	194.73	11.57	-33.1	-33.0	15.6	2.31e-03	0	53	0	7616856064	38	13718
2026-01-21 19:51:39.98	194.84	11.67	-33.2	-33.0	15.7	2.29e-03	0	53	0	7725907968	38	13785
2026-01-21 19:51:40.98	194.96	11.77	-33.0	-32.9	15.8	2.29e-03	0	54	0	7843348480	38	13496
2026-01-21 19:51:41.99	195.08	11.88	-32.9	-32.8	15.8	2.29e-03	0	54	0	7952400384	37	14227
2026-01-21 19:51:43.00	195.20	11.99	-32.9	-32.8	15.8	4.82e-03	0	53	0	8069840896	37	14149
2026-01-21 19:51:44.01	195.32	12.09	-33.0	-32.9	15.8	4.82e-03	0	53	0	8178892800	37	14285
2026-01-21 19:51:45.02	195.44	12.20	-33.0	-32.8	15.7	4.82e-03	0	54	0	8287944704	37	14267
2026-01-21 19:51:46.02	195.56	12.31	-32.7	-32.6	15.8	3.50e-03	0	53	0	8405385216	37	13823
2026-01-21 19:51:47.03	195.68	12.42	-32.7	-32.6	15.8	3.50e-03	0	54	0	8514437120	37	13817
2026-01-21 19:51:48.04	195.81	12.53	-32.6	-32.5	15.8	1.58e-03	0	53	0	8631877632	37	13728
2026-01-21 19:51:49.05	195.93	12.64	-32.5	-32.4	15.9	1.58e-03	0	54	0	8749318144	37	13590
2026-01-21 19:51:50.05	196.06	12.75	-32.5	-32.4	15.9	1.58e-03	0	54	0	8866758656	37	13583
2026-01-21 19:51:51.06	196.18	12.86	-32.5	-32.3	15.9	1.27e-03	0	54	0	8975810560	36	14261
2026-01-21 19:51:52.07	196.31	12.97	-32.4	-32.3	15.9	1.27e-03	0	54	0	9093251072	36	14158
2026-01-21 19:51:53.08	196.44	13.08	-32.4	-32.3	15.9	1.02e-03	0	53	0	9202302976	36	14205
2026-01-21 19:51:54.09	196.57	13.19	-32.4	-32.3	15.9	1.02e-03	0	54	0	9319743488	36	14161
2026-01-21 19:51:55.09	196.70	13.30	-32.2	-32.1	16.0	1.02e-03	0	54	0	9428795392	36	13876
2026-01-21 19:51:56.10	196.84	13.42	-32.2	-32.1	16.0	8.96e-04	0	54	0	9537847296	36	13874
2026-01-21 19:51:57.11	196.97	13.53	-32.0	-31.9	16.0	8.96e-04	0	53	0	9655287808	36	13593
2026-01-21 19:51:58.12	197.10	13.65	-32.1	-31.9	16.0	1.80e-03	0	54	0	9764339712	36	13621
2026-01-21 19:51:59.13	197.24	13.76	-29.6	-29.5	15.7	1.80e-03	0	54	0	9881780224	31	13696
2026-01-21 19:52:00.14	197.38	13.88	-29.7	-29.6	15.6	1.80e-03	0	54	0	9990832128	31	13911
2026-01-21 19:52:01.14	197.52	13.99	-29.6	-29.5	15.7	2.06e-03	0	54	0	10116661248	31	13645
2026-01-21 19:52:02.15	197.66	14.11	-29.6	-29.5	15.7	2.06e-03	0	54	0	10225713152	31	13670
2026-01-21 19:52:03.16	197.80	14.23	-29.7	-29.6	15.6	2.06e-03	0	54	0	10343153664	31	13861
2026-01-21 19:52:04.17	197.94	14.35	-29.8	-29.6	15.6	2.71e-03	0	54	0	10452205568	31	13950
2026-01-21 19:52:05.17	198.08	14.46	-29.6	-29.5	15.7	2.71e-03	0	54	0	10561257472	31	13712
2026-01-21 19:52:06.18	198.23	14.58	-29.6	-29.4	15.7	2.71e-03	0	54	0	10678697984	31	13626
2026-01-21 19:52:07.19	198.38	14.70	-29.4	-29.3	15.7	2.63e-03	0	54	0	10787749888	30	14249
2026-01-21 19:52:08.20	198.53	14.82	-29.4	-29.3	15.7	2.63e-03	0	54	0	10905190400	30	14272
2026-01-21 19:52:09.21	198.67	14.95	-29.5	-29.4	15.7	2.70e-03	0	54	0	11014242304	30	14338
2026-01-21 19:52:10.21	198.82	15.07	-29.6	-29.5	15.6	2.70e-03	0	54	0	11123294208	30	14508
2026-01-21 19:52:11.22	198.98	15.19	-29.6	-29.5	15.7	2.70e-03	0	54	0	11240734720	30	14460
2026-01-21 19:52:12.23	199.13	15.31	-29.3	-29.2	15.7	2.69e-03	0	54	0	11349786624	30	14027
2026-01-21 19:52:13.24	199.29	15.44	-29.4	-29.3	15.7	2.69e-03	0	54	0	11467227136	30	14223
2026-01-21 19:52:14.25	199.44	15.56	-29.4	-29.3	15.7	2.69e-03	0	54	0	11584667648	30	14242
2026-01-21 19:52:15.26	199.60	15.68	-29.2	-29.1	15.8	2.20e-03	0	54	0	11702108160	30	13816
2026-01-21 19:52:16.26	199.76	15.81	-29.2	-29.0	15.8	2.20e-03	0	54	0	11811160064	30	13786
2026-01-21 19:52:17.27	199.92	15.94	-29.2	-29.0	15.8	1.84e-03	0	54	0	11928600576	30	13775
2026-01-21 19:52:18.28	200.08	16.06	-29.0	-28.9	15.8	1.84e-03	0	54	0	12037652480	30	13540
2026-01-21 19:52:19.29	200.25	16.19	-29.2	-29.1	15.8	1.84e-03	0	54	0	12146704384	30	13826
2026-01-21 19:52:20.29	200.41	16.32	-28.8	-28.7	15.9	2.27e-03	0	54	0	12264144896	29	14066
2026-01-21 19:52:21.30	200.58	16.45	-28.9	-28.7	15.9	2.27e-03	0	54	0	12373196800	29	14098
2026-01-21 19:52:22.31	200.75	16.58	-28.7	-28.5	16.0	2.27e-03	0	54	0	12490637312	29	13776
2026-01-21 19:52:23.32	200.92	16.71	-28.7	-28.6	16.0	3.01e-03	0	54	0	12599689216	29	13822
2026-01-21 19:52:24.33	201.09	16.84	-28.8	-28.6	15.9	3.01e-03	0	54	0	12717129728	29	13942
2026-01-21 19:52:25.34	201.27	16.97	-28.7	-28.6	15.9	1.42e-03	0	54	0	12826181632	29	13882
2026-01-21 19:52:26.35	201.44	17.10	-28.4	-28.3	16.0	1.42e-03	0	54	0	12952010752	28	14168
2026-01-21 19:52:27.36	201.62	17.24	-28.3	-28.2	16.0	8.96e-04	0	54	0	13061062656	28	14092
2026-01-21 19:52:28.36	201.80	17.37	-28.3	-28.2	16.0	8.96e-04	0	54	0	13178503168	28	14052
2026-01-21 19:52:29.37	201.98	17.50	-28.4	-28.3	16.0	8.96e-04	0	54	0	13287555072	28	14124
2026-01-21 19:52:30.38	202.16	17.64	-28.2	-28.0	16.1	9.73e-04	0	54	0	13396606976	28	13780
2026-01-21 19:52:31.39	202.35	17.77	-28.2	-28.1	16.1	9.73e-04	0	54	0	13514047488	28	13900
2026-01-21 19:52:32.39	202.53	17.91	-28.2	-28.1	16.1	9.73e-04	0	54	0	13623099392	28	13903
2026-01-21 19:52:33.40	202.72	18.05	-28.1	-28.0	16.1	9.77e-04	0	54	0	13740539904	28	13729
2026-01-21 19:52:34.41	202.91	18.18	-28.1	-28.0	16.1	9.77e-04	0	54	0	13849591808	28	13737
2026-01-21 19:52:35.41	203.11	18.32	-28.2	-28.1	16.1	8.06e-04	0	54	0	13958643712	28	13804
2026-01-21 19:52:36.42	203.30	18.46	-28.0	-27.9	16.1	8.06e-04	0	54	0	14076084224	28	13538
2026-01-21 19:52:37.43	203.50	18.60	-27.9	-27.8	16.2	8.06e-04	0	54	0	14185136128	27	14235
2026-01-21 19:52:38.44	203.70	18.74	-27.9	-27.8	16.2	8.06e-04	0	54	0	14302576640	27	14231
2026-01-21 19:52:39.45	203.90	18.88	-27.9	-27.8	16.2	6.68e-04	0	54	0	14420017152	27	14209
2026-01-21 19:52:40.46	204.10	19.03	-27.9	-27.8	16.2	6.68e-04	0	54	0	14537457664	27	14112
2026-01-21 19:52:41.46	204.30	19.17	-27.9	-27.7	16.2	6.53e-04	0	54	0	14646509568	27	14104
2026-01-21 19:52:42.47	204.51	19.31	-27.8	-27.7	16.2	6.53e-04	0	54	0	14763950080	27	14086
2026-01-21 19:52:43.48	204.72	19.45	-27.7	-27.6	16.2	6.53e-04	0	54	0	14873001984	27	13890
2026-01-21 19:52:44.49	204.93	19.60	-27.7	-27.6	16.3	7.06e-04	0	54	0	14982053888	27	13848
2026-01-21 19:52:45.50	205.15	19.75	-27.7	-27.6	16.2	7.06e-04	0	54	0	15099494400	27	13879
2026-01-21 19:52:46.50	205.36	19.89	-27.8	-27.7	16.2	7.06e-04	0	54	0	15208546304	27	13957
2026-01-21 19:52:47.51	205.58	20.04	-27.5	-27.4	16.3	4.39e-04	0	54	0	15325986816	27	13626
2026-01-21 19:52:48.52	205.80	20.19	-27.5	-27.4	16.3	4.39e-04	0	54	0	15435038720	27	13611
2026-01-21 19:52:49.53	206.02	20.33	-27.4	-27.3	16.3	4.39e-04	0	54	0	15544090624	26	14222
2026-01-21 19:52:50.54	206.25	20.48	-27.3	-27.2	16.3	4.34e-04	0	54	0	15661531136	26	13976
2026-01-21 19:52:51.54	206.47	20.63	-27.4	-27.3	16.3	4.34e-04	0	54	0	15770583040	26	14149
2026-01-21 19:52:52.55	206.71	20.78	-27.5	-27.4	16.3	3.53e-04	0	54	0	15896412160	26	14342
2026-01-21 19:52:53.56	206.94	20.94	-27.1	-27.0	16.4	3.53e-04	0	54	0	16005464064	26	13723
2026-01-21 19:52:54.57	207.17	21.09	-27.1	-27.0	16.4	3.53e-04	0	54	0	16122904576	26	13676
2026-01-21 19:52:55.58	207.41	21.24	-26.9	-26.8	16.5	3.24e-04	0	54	0	16231956480	25	14239
2026-01-21 19:52:56.58	207.65	21.39	-26.8	-26.7	16.5	3.24e-04	0	54	0	16349396992	25	14092
2026-01-21 19:52:57.59	207.90	21.55	-26.8	-26.7	16.5	3.24e-04	0	54	0	16458448896	25	14071
2026-01-21 19:52:58.60	208.14	21.70	-26.8	-26.7	16.5	2.53e-04	0	54	0	16575889408	25	14041
2026-01-21 19:52:59.61	208.39	21.86	-26.9	-26.8	16.5	2.53e-04	0	54	0	16684941312	25	14123
2026-01-21 19:53:00.62	208.64	22.01	-26.8	-26.7	16.5	2.53e-04	0	54	0	16793993216	25	13964
2026-01-21 19:53:01.62	208.89	22.17	-26.8	-26.6	16.5	2.29e-04	0	54	0	16911433728	25	13942
2026-01-21 19:53:02.63	209.15	22.33	-26.6	-26.5	16.5	2.29e-04	0	54	0	17020485632	25	13705
2026-01-21 19:53:03.64	209.41	22.49	-26.4	-26.3	16.5	3.29e-04	0	55	0	17137926144	24	14227
2026-01-21 19:53:04.65	209.68	22.65	-26.5	-26.4	16.5	3.29e-04	0	54	0	17255366656	24	14339
2026-01-21 19:53:05.65	209.94	22.80	-26.3	-26.2	16.6	3.29e-04	0	54	0	17372807168	24	14033
2026-01-21 19:53:06.66	210.21	22.96	-26.3	-26.2	16.6	3.29e-04	0	54	0	17481859072	24	14069
2026-01-21 19:53:07.67	210.48	23.12	-26.2	-26.1	16.6	2.72e-04	0	54	0	17599299584	24	13802
2026-01-21 19:53:08.68	210.76	23.29	-26.1	-26.0	16.6	2.72e-04	0	54	0	17708351488	24	13772
2026-01-21 19:53:09.69	211.04	23.45	-26.2	-26.1	16.6	1.19e-04	0	55	0	17817403392	24	13798
2026-01-21 19:53:10.70	211.32	23.61	-26.0	-25.9	16.6	1.19e-04	0	54	0	17934843904	24	13540
2026-01-21 19:53:11.70	211.60	23.77	-25.9	-25.8	16.7	1.19e-04	0	55	0	18043895808	23	14170
2026-01-21 19:53:12.71	211.89	23.94	-25.8	-25.7	16.7	5.24e-05	0	54	0	18161336320	23	14093
2026-01-21 19:53:13.72	212.18	24.10	-25.8	-25.7	16.7	5.24e-05	0	54	0	18270388224	23	14003
2026-01-21 19:53:14.73	212.47	24.27	-25.8	-25.7	16.7	5.24e-05	0	55	0	18379440128	23	13976
2026-01-21 19:53:15.73	212.77	24.43	-25.7	-25.6	16.7	5.24e-05	0	55	0	18496880640	23	13819
2026-01-21 19:53:16.74	213.07	24.60	-25.7	-25.6	16.7	5.24e-05	0	54	0	18622709760	23	13828
2026-01-21 19:53:17.75	213.38	24.76	-25.8	-25.6	16.7	7.62e-05	0	54	0	18731761664	23	13933
2026-01-21 19:53:18.76	213.69	24.93	-25.5	-25.4	16.8	7.62e-05	0	54	0	18840813568	23	13597
2026-01-21 19:53:19.77	214.00	25.10	-25.5	-25.4	16.8	6.67e-05	0	54	0	18958254080	23	13584
2026-01-21 19:53:20.78	214.31	25.27	-25.4	-25.3	16.8	6.67e-05	0	54	0	19067305984	22	14189
2026-01-21 19:53:21.78	214.63	25.43	-25.3	-25.2	16.8	6.67e-05	0	54	0	19184746496	22	14105
2026-01-21 19:53:22.79	214.95	25.60	-25.1	-25.0	16.8	4.76e-05	0	54	0	19293798400	22	13711
2026-01-21 19:53:23.80	215.28	25.77	-25.2	-25.1	16.8	4.76e-05	0	54	0	19402850304	22	13814
2026-01-21 19:53:24.81	215.61	25.94	-25.1	-25.0	16.8	4.76e-05	0	54	0	19520290816	22	13772
2026-01-21 19:53:25.82	215.95	26.11	-25.0	-24.9	16.8	1.90e-05	0	54	0	19629342720	22	13536
2026-01-21 19:53:26.82	216.28	26.28	-25.0	-24.8	16.8	1.90e-05	0	55	0	19746783232	21	14265
2026-01-21 19:53:27.83	216.62	26.45	-24.9	-24.8	16.8	1.90e-05	0	54	0	19855835136	21	14154
2026-01-21 19:53:28.84	216.97	26.62	-24.9	-24.8	16.8	1.90e-05	0	55	0	19973275648	21	14196
2026-01-21 19:53:29.85	217.32	26.80	-24.7	-24.6	16.9	9.50e-06	0	55	0	20090716160	21	13862
2026-01-21 19:53:30.85	217.67	26.97	-24.8	-24.6	16.9	9.50e-06	0	54	0	20208156672	21	13949
2026-01-21 19:53:31.86	218.03	27.14	-24.6	-24.5	16.9	9.50e-06	0	54	0	20317208576	21	13646
2026-01-21 19:53:32.87	218.40	27.31	-24.6	-24.5	16.9	0.00e+00	0	55	0	20434649088	21	13706
2026-01-21 19:53:33.88	218.76	27.48	-24.5	-24.4	16.9	0.00e+00	0	54	0	20543700992	21	13578
2026-01-21 19:53:34.89	219.13	27.66	-24.4	-24.3	16.9	0.00e+00	0	54	0	20652752896	20	14231
2026-01-21 19:53:35.89	219.51	27.83	-24.4	-24.3	16.8	4.70e-06	0	54	0	20770193408	20	14222
2026-01-21 19:53:36.90	219.89	28.00	-24.3	-24.2	16.9	4.70e-06	0	54	0	20879245312	20	14002
2026-01-21 19:53:37.91	220.27	28.17	-24.4	-24.3	16.9	4.70e-06	0	54	0	20996685824	20	14218
2026-01-21 19:53:38.92	220.66	28.34	-24.2	-24.1	17.0	4.70e-06	0	54	0	21105737728	20	13901
2026-01-21 19:53:39.93	221.06	28.52	-24.0	-23.9	17.0	4.70e-06	0	54	0	21214789632	20	13587
2026-01-21 19:53:40.93	221.45	28.69	-24.1	-23.9	16.9	1.43e-05	0	54	0	21332230144	20	13632
2026-01-21 19:53:41.94	221.85	28.86	-24.0	-23.9	17.0	1.43e-05	0	54	0	21441282048	19	14366
2026-01-21 19:53:42.95	222.26	29.03	-24.0	-23.9	17.0	1.43e-05	0	54	0	21567111168	19	14286
2026-01-21 19:53:43.96	222.67	29.20	-24.0	-23.9	17.0	1.43e-05	0	54	0	21676163072	19	14288
2026-01-21 19:53:44.96	223.09	29.37	-23.9	-23.8	17.0	4.70e-06	0	54	0	21793603584	19	14254
2026-01-21 19:53:45.97	223.51	29.54	-23.9	-23.8	17.0	4.70e-06	0	54	0	21902655488	19	14144
2026-01-21 19:53:46.98	223.93	29.71	-24.0	-23.9	17.0	4.70e-06	0	54	0	22020096000	19	14319
2026-01-21 19:53:47.99	224.36	29.89	-23.8	-23.7	17.0	1.90e-05	0	54	0	22129147904	19	14074
2026-01-21 19:53:48.99	224.80	30.05	-23.9	-23.7	17.0	1.90e-05	0	54	0	22238199808	19	14102
2026-01-21 19:53:50.00	225.24	30.22	-23.7	-23.5	17.0	0.00e+00	0	54	0	22355640320	19	13778
2026-01-21 19:53:51.01	225.68	30.39	-23.7	-23.6	17.0	0.00e+00	0	54	0	22464692224	19	13887
2026-01-21 19:53:52.02	226.13	30.56	-23.7	-23.6	17.1	0.00e+00	0	54	0	22582132736	19	13840
2026-01-21 19:53:53.03	226.59	30.73	-23.7	-23.6	17.1	4.70e-06	0	54	0	22691184640	19	13839
2026-01-21 19:53:54.03	227.05	30.89	-23.5	-23.4	17.1	4.70e-06	0	54	0	22808625152	19	13556
2026-01-21 19:53:55.04	227.51	31.06	-23.6	-23.5	17.1	4.70e-06	0	54	0	22926065664	19	13659
2026-01-21 19:53:56.05	227.98	31.22	-23.4	-23.3	17.1	2.38e-05	0	54	0	23043506176	18	14150
2026-01-21 19:53:57.06	228.46	31.39	-23.4	-23.3	17.1	2.38e-05	0	54	0	23152558080	18	14157
2026-01-21 19:53:58.07	228.94	31.55	-23.2	-23.1	17.1	2.38e-05	0	54	0	23261609984	18	13864
2026-01-21 19:53:59.07	229.42	31.71	-23.3	-23.2	17.1	4.70e-06	0	54	0	23379050496	18	13986
2026-01-21 19:54:00.08	229.92	31.87	-23.3	-23.2	17.2	4.70e-06	0	54	0	23488102400	18	13986
2026-01-21 19:54:01.09	230.41	32.03	-23.2	-23.1	17.1	4.70e-06	0	54	0	23605542912	18	13809
2026-01-21 19:54:02.10	230.91	32.19	-23.0	-22.9	17.2	4.70e-06	0	54	0	23714594816	18	13616
2026-01-21 19:54:03.11	231.42	32.35	-23.1	-23.0	17.1	4.70e-06	0	54	0	23832035328	18	13664
2026-01-21 19:54:04.11	231.93	32.51	-23.2	-23.0	17.2	0.00e+00	0	54	0	23941087232	18	13789
2026-01-21 19:54:05.12	232.45	32.66	-23.0	-22.9	17.2	0.00e+00	0	54	0	24050139136	18	13561
2026-01-21 19:54:06.13	232.97	32.81	-23.0	-22.9	17.1	0.00e+00	0	54	0	24167579648	17	14318
2026-01-21 19:54:07.14	233.50	32.96	-23.0	-22.9	17.2	4.70e-06	0	54	0	24276631552	17	14375
2026-01-21 19:54:08.15	234.03	33.11	-22.9	-22.8	17.2	4.70e-06	0	54	0	24402460672	17	14243
2026-01-21 19:54:09.15	234.56	33.26	-23.0	-22.9	17.2	0.00e+00	0	54	0	24511512576	17	14277
2026-01-21 19:54:10.16	235.11	33.41	-22.8	-22.7	17.2	0.00e+00	0	54	0	24628953088	17	14043
2026-01-21 19:54:11.17	235.66	33.55	-22.9	-22.8	17.2	0.00e+00	0	54	0	24738004992	17	14148
2026-01-21 19:54:12.18	236.21	33.69	-22.8	-22.7	17.2	0.00e+00	0	54	0	24855445504	17	13960
2026-01-21 19:54:13.19	236.77	33.83	-22.9	-22.8	17.1	0.00e+00	0	54	0	24964497408	17	14166
2026-01-21 19:54:14.19	237.33	33.97	-22.8	-22.7	17.1	4.70e-06	0	54	0	25073549312	17	14035
2026-01-21 19:54:15.20	237.90	34.11	-22.7	-22.6	17.2	4.70e-06	0	54	0	25190989824	17	13822
2026-01-21 19:54:16.21	238.47	34.24	-22.8	-22.7	17.1	4.70e-06	0	54	0	25300041728	17	14029
2026-01-21 19:54:17.22	239.05	34.37	-22.8	-22.7	17.2	0.00e+00	0	54	0	25417482240	17	14010
2026-01-21 19:54:18.23	239.63	34.50	-22.6	-22.5	17.2	0.00e+00	0	54	0	25526534144	17	13689
2026-01-21 19:54:19.23	240.21	34.63	-22.7	-22.6	17.2	0.00e+00	0	54	0	25635586048	17	13867
2026-01-21 19:54:20.24	240.81	34.75	-22.6	-22.5	17.2	0.00e+00	0	54	0	25753026560	17	13758
2026-01-21 19:54:21.25	241.40	34.87	-22.7	-22.6	17.1	0.00e+00	0	54	0	25878855680	17	13800
2026-01-21 19:54:22.26	242.01	34.99	-22.5	-22.4	17.2	9.50e-06	0	54	0	25987907584	17	13521
2026-01-21 19:54:23.27	242.61	35.10	-22.5	-22.4	17.1	9.50e-06	0	54	0	26096959488	17	13572
2026-01-21 19:54:24.27	243.22	35.22	-22.3	-22.1	17.2	9.50e-06	0	54	0	26214400000	16	13935
2026-01-21 19:54:25.28	243.83	35.33	-22.2	-22.1	17.2	0.00e+00	0	54	0	26323451904	16	13827
2026-01-21 19:54:26.29	244.45	35.43	-22.2	-22.1	17.2	0.00e+00	0	54	0	26440892416	16	13902
2026-01-21 19:54:27.30	245.08	35.54	-22.2	-22.1	17.2	0.00e+00	0	54	0	26549944320	16	13866
2026-01-21 19:54:28.31	245.71	35.64	-22.3	-22.2	17.2	0.00e+00	0	54	0	26667384832	16	13953
2026-01-21 19:54:29.31	246.33	35.73	-22.1	-22.0	17.2	0.00e+00	0	55	0	26776436736	16	13711
2026-01-21 19:54:30.32	246.97	35.82	-22.1	-22.0	17.2	0.00e+00	0	54	0	26885488640	16	13742
2026-01-21 19:54:31.33	247.61	35.91	-22.2	-22.1	17.2	0.00e+00	0	55	0	27002929152	16	13815
2026-01-21 19:54:32.34	248.25	36.00	-22.1	-22.0	17.2	0.00e+00	0	54	0	27111981056	16	13643
2026-01-21 19:54:33.35	248.90	36.08	-21.9	-21.8	17.2	0.00e+00	0	55	0	27237810176	15	14150
2026-01-21 19:54:34.36	249.55	36.16	-21.9	-21.7	17.2	0.00e+00	0	54	0	27346862080	15	14111
2026-01-21 19:54:35.36	250.20	36.24	-21.8	-21.7	17.2	0.00e+00	0	54	0	27464302592	15	14047
2026-01-21 19:54:36.37	250.85	36.31	-21.9	-21.8	17.2	4.70e-06	0	54	0	27573354496	15	14127
2026-01-21 19:54:37.38	251.51	36.38	-21.8	-21.7	17.2	4.70e-06	0	54	0	27690795008	15	14000
2026-01-21 19:54:38.39	252.17	36.44	-21.9	-21.8	17.2	4.70e-06	0	54	0	27799846912	15	14146
2026-01-21 19:54:39.39	252.83	36.50	-22.0	-21.9	17.1	0.00e+00	0	54	0	27908898816	15	14296
2026-01-21 19:54:40.40	253.50	36.56	-21.8	-21.7	17.2	0.00e+00	0	54	0	28026339328	15	14036
2026-01-21 19:54:41.41	254.17	36.61	-21.8	-21.7	17.1	0.00e+00	0	54	0	28135391232	15	14035
2026-01-21 19:54:42.42	254.84	36.66	-21.9	-21.8	17.1	0.00e+00	0	54	0	28252831744	15	14112
2026-01-21 19:54:43.43	255.51	36.70	-21.8	-21.7	17.1	0.00e+00	0	54	0	28361883648	15	13991
2026-01-21 19:54:44.43	256.18	36.74	-21.8	-21.7	17.1	0.00e+00	0	54	0	28470935552	15	14019
2026-01-21 19:54:45.44	256.86	36.78	-21.8	-21.7	17.1	0.00e+00	0	54	0	28596764672	15	14048
2026-01-21 19:54:46.45	257.54	36.81	-21.9	-21.7	17.1	0.00e+00	0	54	0	28714205184	15	14092
2026-01-21 19:54:47.46	258.22	36.83	-21.9	-21.7	17.0	0.00e+00	0	54	0	28823257088	15	14096
2026-01-21 19:54:48.47	258.90	36.86	-21.9	-21.7	17.0	0.00e+00	0	54	0	28932308992	15	14110
2026-01-21 19:54:49.47	259.57	36.88	-21.8	-21.7	17.0	0.00e+00	0	54	0	29049749504	15	14028
2026-01-21 19:54:50.48	260.26	36.89	-21.9	-21.8	17.0	0.00e+00	0	55	0	29158801408	15	14181
2026-01-21 19:54:51.49	260.94	36.90	-22.0	-21.9	17.0	0.00e+00	0	54	0	29276241920	15	14365
2026-01-21 19:54:52.50	261.62	36.91	-22.0	-21.9	17.0	0.00e+00	0	55	0	29385293824	15	14306
2026-01-21 19:54:53.51	262.31	36.91	-21.9	-21.8	17.0	4.70e-06	0	54	0	29494345728	15	14139
2026-01-21 19:54:54.52	262.99	36.91	-22.0	-21.8	17.0	4.70e-06	0	54	0	29611786240	15	14273
2026-01-21 19:54:55.52	263.66	36.90	-22.0	-21.8	17.0	0.00e+00	0	54	0	29720838144	15	14255
2026-01-21 19:54:56.53	264.35	36.89	-21.9	-21.8	17.0	0.00e+00	0	54	0	29838278656	15	14176
2026-01-21 19:54:57.54	265.03	36.87	-21.9	-21.8	17.0	0.00e+00	0	54	0	29947330560	15	14175
2026-01-21 19:54:58.55	265.71	36.85	-21.9	-21.8	17.0	4.70e-06	0	54	0	30073159680	15	14159
2026-01-21 19:54:59.55	266.38	36.83	-21.9	-21.8	17.0	4.70e-06	0	54	0	30182211584	15	14150
2026-01-21 19:55:00.56	267.06	36.80	-22.1	-21.9	17.0	4.70e-06	0	54	0	30299652096	15	14412
2026-01-21 19:55:01.57	267.74	36.77	-22.0	-21.8	17.0	0.00e+00	0	54	0	30408704000	15	14269
2026-01-21 19:55:02.58	268.42	36.73	-22.0	-21.8	17.0	0.00e+00	0	54	0	30526144512	15	14258
2026-01-21 19:55:03.59	269.09	36.69	-22.1	-21.9	17.0	0.00e+00	0	54	0	30635196416	15	14413
2026-01-21 19:55:04.60	269.76	36.64	-22.0	-21.9	17.0	0.00e+00	0	54	0	30744248320	15	14365
2026-01-21 19:55:05.60	270.43	36.59	-22.1	-22.0	17.0	0.00e+00	0	54	0	30861688832	15	14448
2026-01-21 19:55:06.61	271.10	36.54	-22.1	-22.0	17.0	0.00e+00	0	54	0	30970740736	15	14451
2026-01-21 19:55:07.62	271.76	36.48	-22.1	-21.9	17.0	0.00e+00	0	55	0	31088181248	15	14412
2026-01-21 19:55:08.63	272.42	36.42	-22.0	-21.9	17.1	0.00e+00	0	54	0	31197233152	15	14302
2026-01-21 19:55:09.63	273.08	36.36	-22.1	-22.0	17.0	0.00e+00	0	54	0	31306285056	15	14531
2026-01-21 19:55:10.64	273.74	36.29	-22.1	-22.0	17.1	0.00e+00	0	54	0	31423725568	15	14516
2026-01-21 19:55:11.65	274.39	36.22	-22.0	-21.9	17.1	4.70e-06	0	54	0	31549554688	15	14391
2026-01-21 19:55:12.66	275.04	36.14	-22.1	-22.0	17.1	4.70e-06	0	54	0	31658606592	15	14551
2026-01-21 19:55:13.66	275.69	36.06	-22.2	-22.1	17.1	4.70e-06	0	54	0	31767658496	15	14644
2026-01-21 19:55:14.67	276.33	35.98	-22.2	-22.1	17.1	0.00e+00	0	54	0	31885099008	15	14650
2026-01-21 19:55:15.68	276.97	35.89	-22.2	-22.1	17.1	0.00e+00	0	55	0	31994150912	15	14710
2026-01-21 19:55:16.69	277.61	35.80	-22.3	-22.2	17.1	0.00e+00	0	54	0	32111591424	15	14783
2026-01-21 19:55:17.69	278.24	35.71	-22.4	-22.2	17.1	0.00e+00	0	54	0	32220643328	15	14927
2026-01-21 19:55:18.70	278.87	35.61	-22.5	-22.3	17.0	0.00e+00	0	54	0	32329695232	15	15100
2026-01-21 19:55:19.71	279.49	35.51	-22.4	-22.3	17.1	0.00e+00	0	55	0	32447135744	15	14975
2026-01-21 19:55:20.72	280.11	35.41	-22.4	-22.3	17.1	0.00e+00	0	54	0	32556187648	15	15007
2026-01-21 19:55:21.73	280.73	35.30	-22.6	-22.5	17.0	0.00e+00	0	54	0	32673628160	15	15345
2026-01-21 19:55:22.73	281.34	35.19	-22.6	-22.5	17.1	0.00e+00	0	54	0	32782680064	15	15296
2026-01-21 19:55:23.74	281.95	35.08	-22.6	-22.5	17.0	0.00e+00	0	54	0	32908509184	15	15329
2026-01-21 19:55:24.75	282.55	34.96	-22.7	-22.6	17.0	0.00e+00	0	54	0	33017561088	15	15503
2026-01-21 19:55:25.76	283.15	34.84	-22.7	-22.6	17.1	0.00e+00	0	54	0	33135001600	16	14670
2026-01-21 19:55:26.77	283.75	34.72	-22.9	-22.8	17.1	0.00e+00	0	54	0	33244053504	16	14969
2026-01-21 19:55:27.77	284.33	34.60	-22.8	-22.7	17.1	0.00e+00	0	54	0	33353105408	16	14818
2026-01-21 19:55:28.78	284.92	34.47	-22.9	-22.8	17.1	0.00e+00	0	54	0	33470545920	16	14964
2026-01-21 19:55:29.79	285.50	34.34	-22.9	-22.8	17.1	0.00e+00	0	54	0	33579597824	16	14980
2026-01-21 19:55:30.80	286.08	34.21	-23.0	-22.8	17.1	0.00e+00	0	54	0	33697038336	16	15088
2026-01-21 19:55:31.81	286.65	34.08	-22.9	-22.8	17.1	0.00e+00	0	54	0	33806090240	16	14992
2026-01-21 19:55:32.81	287.21	33.94	-22.9	-22.7	17.2	0.00e+00	0	54	0	33923530752	16	14944
2026-01-21 19:55:33.82	287.77	33.80	-23.0	-22.9	17.2	0.00e+00	0	55	0	34032582656	16	15132
2026-01-21 19:55:34.83	288.32	33.66	-23.1	-22.9	17.2	0.00e+00	0	54	0	34141634560	16	15295
2026-01-21 19:55:35.84	288.87	33.52	-23.2	-23.0	17.1	0.00e+00	0	54	0	34259075072	16	15447
2026-01-21 19:55:36.85	289.42	33.38	-23.1	-22.9	17.2	0.00e+00	0	54	0	34376515584	16	15258
2026-01-21 19:55:37.85	289.96	33.23	-23.0	-22.8	17.3	4.70e-06	0	54	0	34493956096	16	15119
2026-01-21 19:55:38.86	290.49	33.08	-23.1	-23.0	17.2	4.70e-06	0	54	0	34603008000	16	15406
2026-01-21 19:55:39.87	291.02	32.93	-23.0	-22.9	17.3	4.70e-06	0	54	0	34720448512	16	15253
2026-01-21 19:55:40.88	291.55	32.78	-23.1	-22.9	17.3	4.70e-06	0	54	0	34829500416	16	15269
2026-01-21 19:55:41.89	292.07	32.63	-23.1	-22.9	17.3	4.70e-06	0	54	0	34946940928	16	15260
2026-01-21 19:55:42.89	292.58	32.48	-23.1	-23.0	17.3	4.70e-06	0	54	0	35055992832	16	15424
2026-01-21 19:55:43.90	293.09	32.32	-23.2	-23.1	17.4	0.00e+00	0	54	0	35165044736	17	14698
2026-01-21 19:55:44.91	293.59	32.16	-23.3	-23.2	17.3	0.00e+00	0	54	0	35282485248	17	14814
2026-01-21 19:55:45.92	294.09	32.01	-23.3	-23.2	17.3	0.00e+00	0	54	0	35391537152	17	14781
2026-01-21 19:55:46.93	294.58	31.85	-23.3	-23.2	17.3	0.00e+00	0	55	0	35508977664	17	14824
2026-01-21 19:55:47.94	295.07	31.69	-23.4	-23.3	17.3	0.00e+00	0	55	0	35618029568	17	15046
2026-01-21 19:55:48.94	295.55	31.53	-23.4	-23.3	17.3	4.70e-06	0	54	0	35743858688	17	15032
2026-01-21 19:55:49.95	296.03	31.36	-23.5	-23.4	17.3	4.70e-06	0	54	0	35852910592	17	15188
2026-01-21 19:55:50.96	296.50	31.20	-23.6	-23.4	17.3	4.70e-06	0	54	0	35970351104	17	15286
2026-01-21 19:55:51.97	296.97	31.03	-23.6	-23.5	17.3	0.00e+00	0	54	0	36079403008	17	15352
2026-01-21 19:55:52.98	297.44	30.87	-23.6	-23.5	17.3	0.00e+00	0	55	0	36188454912	17	15420
2026-01-21 19:55:53.99	297.89	30.70	-23.7	-23.6	17.3	0.00e+00	0	54	0	36305895424	17	15477
2026-01-21 19:55:54.99	298.34	30.54	-23.7	-23.6	17.3	0.00e+00	0	55	0	36414947328	18	14728
2026-01-21 19:55:56.00	298.79	30.37	-23.7	-23.6	17.3	0.00e+00	0	54	0	36532387840	18	14689
2026-01-21 19:55:57.01	299.24	30.20	-23.8	-23.7	17.3	0.00e+00	0	54	0	36641439744	18	14870
2026-01-21 19:55:58.02	299.67	30.03	-23.9	-23.8	17.3	0.00e+00	0	54	0	36750491648	18	15008
2026-01-21 19:55:59.03	300.11	29.86	-23.9	-23.8	17.3	0.00e+00	0	55	0	36867932160	18	15051
2026-01-21 19:56:00.03	300.53	29.69	-24.0	-23.9	17.2	1.43e-05	0	54	0	36976984064	18	15163
2026-01-21 19:56:01.04	300.96	29.52	-24.1	-24.0	17.2	1.43e-05	0	54	0	37102813184	18	15361
2026-01-21 19:56:02.05	301.37	29.35	-24.1	-24.0	17.2	1.43e-05	0	55	0	37211865088	18	15427
2026-01-21 19:56:03.06	301.79	29.18	-24.3	-24.2	17.2	4.70e-06	0	54	0	37329305600	19	14804
2026-01-21 19:56:04.06	302.19	29.01	-24.2	-24.1	17.2	4.70e-06	0	54	0	37438357504	19	14721
2026-01-21 19:56:05.07	302.60	28.84	-24.2	-24.1	17.2	4.70e-06	0	54	0	37555798016	19	14669
2026-01-21 19:56:06.08	303.00	28.67	-24.3	-24.1	17.2	1.90e-05	0	54	0	37664849920	19	14766
2026-01-21 19:56:07.09	303.40	28.50	-24.3	-24.2	17.2	1.90e-05	0	55	0	37782290432	19	14844
2026-01-21 19:56:08.09	303.78	28.33	-24.3	-24.1	17.2	1.43e-05	0	55	0	37891342336	19	14761
2026-01-21 19:56:09.10	304.17	28.16	-24.3	-24.1	17.2	1.43e-05	0	54	0	38000394240	19	14768
2026-01-21 19:56:10.11	304.55	27.99	-24.4	-24.3	17.1	1.43e-05	0	54	0	38117834752	19	15027
2026-01-21 19:56:11.12	304.93	27.81	-24.4	-24.3	17.1	1.43e-05	0	54	0	38226886656	19	14995
2026-01-21 19:56:12.13	305.30	27.64	-24.5	-24.4	17.1	9.50e-06	0	54	0	38344327168	19	15207
2026-01-21 19:56:13.13	305.67	27.47	-24.6	-24.5	17.1	9.50e-06	0	54	0	38453379072	19	15321
2026-01-21 19:56:14.14	306.04	27.30	-24.7	-24.5	17.0	9.50e-06	0	55	0	38579208192	19	15463
2026-01-21 19:56:15.15	306.40	27.13	-24.6	-24.5	17.0	1.43e-05	0	55	0	38688260096	19	15423
2026-01-21 19:56:16.16	306.75	26.96	-24.7	-24.5	17.0	1.43e-05	0	55	0	38805700608	19	15467
2026-01-21 19:56:17.17	307.11	26.79	-24.7	-24.6	17.0	1.43e-05	0	55	0	38914752512	20	14659
2026-01-21 19:56:18.18	307.45	26.62	-24.8	-24.7	17.0	4.70e-06	0	55	0	39023804416	20	14911
2026-01-21 19:56:19.19	307.80	26.45	-24.7	-24.6	17.0	4.70e-06	0	54	0	39141244928	20	14737
2026-01-21 19:56:20.19	308.14	26.28	-24.8	-24.7	17.0	1.43e-05	0	54	0	39250296832	20	14827
2026-01-21 19:56:21.20	308.47	26.11	-24.9	-24.8	16.9	1.43e-05	0	54	0	39367737344	20	15034
2026-01-21 19:56:22.21	308.81	25.94	-25.0	-24.8	16.9	1.43e-05	0	54	0	39476789248	20	15105
2026-01-21 19:56:23.22	309.14	25.77	-24.9	-24.8	16.9	1.43e-05	0	55	0	39585841152	20	15080
2026-01-21 19:56:24.23	309.46	25.60	-25.1	-24.9	16.9	1.90e-05	0	54	0	39703281664	20	15284
2026-01-21 19:56:25.23	309.78	25.44	-25.1	-25.0	16.9	1.90e-05	0	55	0	39812333568	20	15300
2026-01-21 19:56:26.24	310.10	25.27	-25.0	-24.9	16.9	1.90e-05	0	54	0	39929774080	20	15267
2026-01-21 19:56:27.25	310.41	25.10	-25.1	-25.0	16.8	2.38e-05	0	55	0	40047214592	20	15423
2026-01-21 19:56:28.26	310.72	24.94	-25.2	-25.1	16.8	2.38e-05	0	55	0	40164655104	20	15514
2026-01-21 19:56:29.27	311.03	24.77	-25.3	-25.2	16.8	2.38e-05	0	54	0	40273707008	21	14787
2026-01-21 19:56:30.27	311.33	24.61	-25.3	-25.2	16.8	9.50e-06	0	54	0	40391147520	21	14814
2026-01-21 19:56:31.28	311.63	24.44	-25.5	-25.4	16.8	9.50e-06	0	55	0	40500199424	21	15161
2026-01-21 19:56:32.29	311.93	24.28	-25.5	-25.4	16.8	9.50e-06	0	54	0	40609251328	21	15136
2026-01-21 19:56:33.30	312.22	24.11	-25.5	-25.3	16.8	3.81e-05	0	54	0	40726691840	21	15102
2026-01-21 19:56:34.31	312.51	23.95	-25.5	-25.4	16.8	3.81e-05	0	55	0	40835743744	21	15188
2026-01-21 19:56:35.31	312.79	23.79	-25.6	-25.5	16.7	3.81e-05	0	55	0	40953184256	21	15355
2026-01-21 19:56:36.32	313.08	23.62	-25.7	-25.6	16.7	2.86e-05	0	55	0	41062236160	21	15505
2026-01-21 19:56:37.33	313.36	23.46	-25.7	-25.6	16.7	2.86e-05	0	55	0	41179676672	21	15508
2026-01-21 19:56:38.34	313.63	23.30	-25.9	-25.8	16.7	2.86e-05	0	55	0	41288728576	22	14978
2026-01-21 19:56:39.35	313.91	23.14	-25.9	-25.8	16.7	2.86e-05	0	55	0	41414557696	22	15072
2026-01-21 19:56:40.36	314.18	22.98	-26.0	-25.9	16.7	6.19e-05	0	54	0	41523609600	22	15251
2026-01-21 19:56:41.37	314.45	22.82	-26.1	-26.0	16.7	6.19e-05	0	54	0	41632661504	22	15313
2026-01-21 19:56:42.38	314.71	22.66	-26.1	-26.0	16.6	6.19e-05	0	54	0	41750102016	22	15403
2026-01-21 19:56:43.39	314.97	22.50	-26.2	-26.1	16.6	6.67e-05	0	55	0	41859153920	22	15502
2026-01-21 19:56:44.39	315.23	22.35	-26.3	-26.1	16.6	6.67e-05	0	55	0	41976594432	23	14746
2026-01-21 19:56:45.40	315.49	22.19	-26.2	-26.1	16.6	6.67e-05	0	54	0	42085646336	23	14730
2026-01-21 19:56:46.41	315.74	22.04	-26.2	-26.1	16.6	1.38e-04	0	54	0	42203086848	23	14696
2026-01-21 19:56:47.42	315.99	21.88	-26.3	-26.2	16.6	1.38e-04	0	55	0	42312138752	23	14833
2026-01-21 19:56:48.43	316.24	21.73	-26.3	-26.1	16.6	1.38e-04	0	55	0	42421190656	23	14750
2026-01-21 19:56:49.44	316.48	21.57	-26.4	-26.3	16.6	7.15e-05	0	55	0	42538631168	23	15019
2026-01-21 19:56:50.44	316.72	21.42	-26.5	-26.4	16.5	7.15e-05	0	55	0	42647683072	23	15126
2026-01-21 19:56:51.45	316.96	21.27	-26.6	-26.4	16.5	2.19e-04	0	54	0	42773512192	23	15264
2026-01-21 19:56:52.45	317.20	21.12	-26.4	-26.3	16.5	2.19e-04	0	55	0	42882564096	23	15067
2026-01-21 19:56:53.46	317.43	20.96	-26.5	-26.4	16.5	2.19e-04	0	55	0	43000004608	23	15180
2026-01-21 19:56:54.47	317.66	20.81	-26.5	-26.4	16.5	1.81e-04	0	55	0	43109056512	23	15127
2026-01-21 19:56:55.48	317.89	20.66	-26.5	-26.4	16.5	1.81e-04	0	55	0	43226497024	23	15257
2026-01-21 19:56:56.48	318.12	20.52	-26.5	-26.4	16.5	1.48e-04	0	55	0	43335548928	23	15191
2026-01-21 19:56:57.49	318.34	20.37	-26.5	-26.4	16.5	1.48e-04	0	55	0	43444600832	23	15231
2026-01-21 19:56:58.50	318.56	20.22	-26.6	-26.5	16.5	1.48e-04	0	54	0	43562041344	23	15376
2026-01-21 19:56:59.51	318.78	20.07	-26.6	-26.5	16.5	1.29e-04	0	55	0	43671093248	23	15320
2026-01-21 19:57:00.52	319.00	19.93	-26.6	-26.5	16.5	1.29e-04	0	55	0	43788533760	23	15410
2026-01-21 19:57:01.53	319.22	19.78	-26.7	-26.6	16.5	1.62e-04	0	55	0	43897585664	23	15524
2026-01-21 19:57:02.53	319.43	19.64	-26.7	-26.6	16.4	1.62e-04	0	55	0	44006637568	23	15551
2026-01-21 19:57:03.54	319.64	19.49	-26.8	-26.7	16.4	1.62e-04	0	55	0	44124078080	24	14884
2026-01-21 19:57:04.55	319.85	19.35	-26.9	-26.8	16.4	2.91e-04	0	55	0	44249907200	24	14953
2026-01-21 19:57:05.56	320.05	19.21	-26.9	-26.8	16.4	2.91e-04	0	55	0	44358959104	24	15066
2026-01-21 19:57:06.57	320.26	19.07	-27.0	-26.9	16.4	3.58e-04	0	55	0	44468011008	24	15231
2026-01-21 19:57:07.57	320.46	18.93	-27.1	-27.0	16.4	3.58e-04	0	55	0	44585451520	24	15400
2026-01-21 19:57:08.58	320.66	18.79	-27.1	-27.0	16.4	3.58e-04	0	55	0	44694503424	24	15434
2026-01-21 19:57:09.59	320.86	18.65	-27.2	-27.1	16.4	3.77e-04	0	55	0	44811943936	25	14677
2026-01-21 19:57:10.60	321.05	18.51	-27.3	-27.2	16.3	3.77e-04	0	55	0	44920995840	25	14796
2026-01-21 19:57:11.61	321.25	18.37	-27.3	-27.2	16.3	3.77e-04	0	55	0	45038436352	25	14863
2026-01-21 19:57:12.61	321.44	18.23	-27.4	-27.2	16.3	4.29e-04	0	55	0	45147488256	25	14943
2026-01-21 19:57:13.62	321.63	18.09	-27.4	-27.3	16.3	4.29e-04	0	55	0	45256540160	25	14949
2026-01-21 19:57:14.63	321.81	17.96	-27.6	-27.5	16.3	5.48e-04	0	55	0	45373980672	25	15347
2026-01-21 19:57:15.64	322.00	17.82	-27.4	-27.3	16.3	5.48e-04	0	55	0	45483032576	25	15026
2026-01-21 19:57:16.64	322.18	17.69	-27.5	-27.4	16.3	5.48e-04	0	55	0	45600473088	25	15205
2026-01-21 19:57:17.65	322.37	17.55	-27.6	-27.5	16.3	7.06e-04	0	55	0	45717913600	25	15311
2026-01-21 19:57:18.66	322.55	17.42	-27.6	-27.5	16.2	7.06e-04	0	55	0	45835354112	25	15401
2026-01-21 19:57:19.67	322.73	17.29	-27.6	-27.5	16.2	7.63e-04	0	55	0	45944406016	25	15394
2026-01-21 19:57:20.67	322.90	17.16	-27.7	-27.6	16.2	7.63e-04	0	55	0	46061846528	26	14680
2026-01-21 19:57:21.68	323.08	17.02	-27.8	-27.6	16.2	7.63e-04	0	55	0	46170898432	26	14757
2026-01-21 19:57:22.69	323.25	16.89	-27.8	-27.7	16.2	9.15e-04	0	55	0	46279950336	26	14814
2026-01-21 19:57:23.70	323.42	16.76	-27.9	-27.8	16.2	9.15e-04	0	55	0	46397390848	26	15077
2026-01-21 19:57:24.70	323.59	16.64	-27.9	-27.7	16.2	9.39e-04	0	55	0	46506442752	26	14938
2026-01-21 19:57:25.71	323.76	16.51	-28.0	-27.9	16.2	9.39e-04	0	55	0	46623883264	26	15219
2026-01-21 19:57:26.72	323.93	16.38	-28.1	-28.0	16.1	9.39e-04	0	55	0	46732935168	26	15439
2026-01-21 19:57:27.73	324.09	16.25	-28.1	-28.0	16.2	1.19e-03	0	55	0	46841987072	26	15312
2026-01-21 19:57:28.74	324.26	16.12	-28.2	-28.1	16.1	1.19e-03	0	55	0	46959427584	26	15487
2026-01-21 19:57:29.75	324.42	16.00	-28.2	-28.1	16.1	1.14e-03	0	55	0	47085256704	26	15552
2026-01-21 19:57:30.75	324.58	15.87	-28.3	-28.1	16.1	1.14e-03	0	55	0	47194308608	27	14762
2026-01-21 19:57:31.76	324.74	15.75	-28.4	-28.2	16.1	1.15e-03	0	55	0	47303360512	27	14945
2026-01-21 19:57:32.77	324.90	15.62	-28.3	-28.2	16.1	1.15e-03	0	55	0	47420801024	27	14800
2026-01-21 19:57:33.77	325.05	15.50	-28.3	-28.1	16.1	1.15e-03	0	55	0	47529852928	27	14763
2026-01-21 19:57:34.78	325.21	15.38	-28.3	-28.2	16.1	1.04e-03	0	55	0	47647293440	27	14820
2026-01-21 19:57:35.79	325.36	15.26	-28.3	-28.2	16.1	1.04e-03	0	55	0	47756345344	27	14811
2026-01-21 19:57:36.80	325.51	15.13	-28.2	-28.1	16.1	1.00e-03	0	55	0	47865397248	27	14726
2026-01-21 19:57:37.81	325.66	15.01	-28.3	-28.2	16.1	1.00e-03	0	55	0	47982837760	27	14784
2026-01-21 19:57:38.81	325.81	14.89	-28.4	-28.3	16.0	1.00e-03	0	55	0	48091889664	27	15059
2026-01-21 19:57:39.83	325.96	14.77	-28.4	-28.3	16.0	1.00e-03	0	55	0	48209330176	27	14959
2026-01-21 19:57:40.83	326.10	14.65	-28.3	-28.2	16.1	2.28e-03	0	55	0	48318382080	27	14823
2026-01-21 19:57:41.84	326.25	14.54	-28.3	-28.2	16.0	2.28e-03	0	55	0	48444211200	27	14842
2026-01-21 19:57:42.85	326.39	14.42	-28.4	-28.3	16.0	1.35e-03	0	55	0	48553263104	27	14952
2026-01-21 19:57:43.86	326.53	14.30	-28.4	-28.3	16.0	1.35e-03	0	55	0	48670703616	27	15034
2026-01-21 19:57:44.87	326.68	14.18	-28.6	-28.5	16.0	1.35e-03	0	55	0	48779755520	27	15314
2026-01-21 19:57:45.87	326.81	14.07	-28.5	-28.4	16.0	1.72e-03	0	55	0	48888807424	27	15155
2026-01-21 19:57:46.88	326.95	13.95	-28.6	-28.5	15.9	1.72e-03	0	55	0	49006247936	27	15434
2026-01-21 19:57:47.89	327.09	13.84	-28.6	-28.5	15.9	1.83e-03	0	55	0	49115299840	27	15472
2026-01-21 19:57:48.89	327.23	13.72	-28.7	-28.6	15.9	1.83e-03	0	55	0	49232740352	27	15526
2026-01-21 19:57:49.90	327.36	13.61	-28.8	-28.7	15.9	1.83e-03	0	55	0	49341792256	28	14795
2026-01-21 19:57:50.91	327.49	13.50	-28.9	-28.8	15.8	3.80e-03	0	55	0	49459232768	28	14977
2026-01-21 19:57:51.92	327.63	13.38	-28.8	-28.7	15.8	3.80e-03	0	55	0	49568284672	28	14925
2026-01-21 19:57:52.93	327.76	13.27	-28.9	-28.8	15.8	8.58e-03	0	55	0	49677336576	28	15048
2026-01-21 19:57:53.93	327.89	13.16	-29.0	-28.9	15.7	8.58e-03	0	55	0	49794777088	28	15170
2026-01-21 19:57:54.94	328.02	13.05	-29.0	-28.9	15.7	8.58e-03	0	55	0	49920606208	28	15254
2026-01-21 19:57:55.95	328.15	12.94	-29.1	-29.0	15.7	8.77e-03	0	55	0	50029658112	28	15412
2026-01-21 19:57:56.96	328.27	12.83	-29.2	-29.1	15.7	8.77e-03	0	55	0	50138710016	29	14615
2026-01-21 19:57:57.97	328.40	12.72	-29.3	-29.2	15.6	8.77e-03	0	55	0	50256150528	29	14925
2026-01-21 19:57:58.97	328.52	12.61	-29.2	-29.1	15.7	9.62e-03	0	55	0	50365202432	29	14743
2026-01-21 19:57:59.98	328.65	12.50	-29.3	-29.2	15.7	9.62e-03	0	55	0	50482642944	29	14779
2026-01-21 19:58:00.99	328.77	12.39	-29.3	-29.2	15.6	9.62e-03	0	55	0	50591694848	29	14794
2026-01-21 19:58:02.00	328.89	12.29	-29.3	-29.2	15.7	9.82e-03	0	55	0	50700746752	29	14798
2026-01-21 19:58:03.00	329.01	12.18	-29.2	-29.1	15.7	9.82e-03	0	55	0	50818187264	29	14761
2026-01-21 19:58:04.02	329.13	12.07	-29.2	-29.1	15.7	9.88e-03	0	55	0	50927239168	29	14761
2026-01-21 19:58:05.02	329.25	11.97	-29.3	-29.2	15.6	9.88e-03	0	55	0	51044679680	29	14863
2026-01-21 19:58:06.03	329.37	11.86	-29.4	-29.3	15.6	9.88e-03	0	55	0	51153731584	29	15026
2026-01-21 19:58:07.04	329.48	11.76	-29.4	-29.3	15.6	1.10e-02	0	55	0	51262783488	29	15052
2026-01-21 19:58:08.04	329.60	11.65	-29.4	-29.3	15.6	1.10e-02	0	55	0	51388612608	29	14982
2026-01-21 19:58:09.05	329.71	11.55	-29.5	-29.5	15.5	1.30e-02	0	55	0	51506053120	29	15302
2026-01-21 19:58:10.06	329.83	11.45	-29.6	-29.5	15.5	1.30e-02	0	55	0	51615105024	29	15430
2026-01-21 19:58:11.07	329.94	11.34	-29.6	-29.5	15.5	1.40e-02	0	55	0	51724156928	30	14541
2026-01-21 19:58:12.08	330.05	11.24	-29.6	-29.5	15.5	1.40e-02	0	55	0	51841597440	30	14603
2026-01-21 19:58:13.08	330.16	11.14	-29.8	-29.7	15.4	1.43e-02	0	55	0	51950649344	30	14859
2026-01-21 19:58:14.09	330.27	11.04	-29.9	-29.8	15.4	1.43e-02	0	55	0	52068089856	30	15076
2026-01-21 19:58:15.10	330.38	10.94	-30.0	-29.9	15.3	1.43e-02	0	55	0	52177141760	30	15287
2026-01-21 19:58:16.11	330.49	10.84	-30.0	-29.9	15.3	1.43e-02	0	55	0	52294582272	30	15239
2026-01-21 19:58:17.11	330.60	10.74	-30.2	-30.1	15.3	1.63e-02	0	55	0	52403634176	30	15614
2026-01-21 19:58:18.12	330.71	10.64	-30.0	-29.9	15.4	1.63e-02	0	55	0	52512686080	31	14365
2026-01-21 19:58:19.13	330.81	10.54	-30.3	-30.2	15.2	1.63e-02	0	55	0	52630126592	31	14893
2026-01-21 19:58:20.14	330.92	10.44	-30.3	-30.3	15.2	1.78e-02	0	55	0	52739178496	31	14966
2026-01-21 19:58:21.14	331.02	10.34	-30.4	-30.3	15.2	1.78e-02	0	55	0	52856619008	31	15097
2026-01-21 19:58:22.15	331.12	10.24	-30.6	-30.5	15.2	1.78e-02	0	55	0	52974059520	31	15356
2026-01-21 19:58:23.16	331.23	10.15	-30.5	-30.4	15.2	1.87e-02	0	55	0	53091500032	31	15292
2026-01-21 19:58:24.17	331.33	10.05	-30.5	-30.4	15.2	1.87e-02	0	55	0	53200551936	31	15214
2026-01-21 19:58:25.17	331.43	9.95	-30.6	-30.5	15.1	1.98e-02	0	55	0	53317992448	31	15410
2026-01-21 19:58:26.18	331.53	9.86	-30.4	-30.3	15.2	1.98e-02	0	55	0	53427044352	31	15076
2026-01-21 19:58:27.19	331.63	9.76	-30.4	-30.4	15.2	1.98e-02	0	55	0	53536096256	31	15125
2026-01-21 19:58:28.20	331.73	9.67	-30.6	-30.5	15.1	1.96e-02	0	55	0	53653536768	31	15366
2026-01-21 19:58:29.20	331.83	9.57	-30.4	-30.4	15.1	1.96e-02	0	55	0	53762588672	32	14277
2026-01-21 19:58:30.21	331.92	9.48	-30.4	-30.4	15.1	1.96e-02	0	55	0	53880029184	32	14296
2026-01-21 19:58:31.22	332.02	9.39	-30.5	-30.4	15.1	2.05e-02	0	55	0	53989081088	32	14377
2026-01-21 19:58:32.23	332.12	9.29	-30.6	-30.5	15.1	2.05e-02	0	55	0	54098132992	32	14501
2026-01-21 19:58:33.24	332.21	9.20	-30.6	-30.5	15.1	2.05e-02	0	55	0	54215573504	32	14508
2026-01-21 19:58:34.25	332.31	9.11	-30.7	-30.6	15.0	2.27e-02	0	55	0	54341402624	32	14766
2026-01-21 19:58:35.25	332.40	9.01	-30.6	-30.5	15.0	2.27e-02	0	55	0	54450454528	32	14535
2026-01-21 19:58:36.26	332.49	8.92	-30.8	-30.7	14.9	2.27e-02	0	55	0	54559506432	32	14850
2026-01-21 19:58:37.27	332.58	8.83	-31.0	-30.9	14.8	2.48e-02	0	55	0	54676946944	32	15216
2026-01-21 19:58:38.28	332.68	8.74	-30.7	-30.6	15.0	2.48e-02	0	55	0	54785998848	32	14708
2026-01-21 19:58:39.29	332.77	8.65	-30.9	-30.8	14.9	2.48e-02	0	55	0	54903439360	32	15027
2026-01-21 19:58:40.29	332.86	8.56	-30.6	-30.5	15.0	2.48e-02	0	55	0	55012491264	32	14562
2026-01-21 19:58:41.30	332.95	8.47	-30.8	-30.8	14.9	2.70e-02	0	55	0	55121543168	32	14982
2026-01-21 19:58:42.31	333.04	8.38	-30.9	-30.8	14.9	2.70e-02	0	55	0	55238983680	32	15021
2026-01-21 19:58:43.32	333.12	8.29	-30.9	-30.8	14.9	2.62e-02	0	55	0	55348035584	32	15052
2026-01-21 19:58:44.33	333.21	8.20	-30.8	-30.8	14.9	2.62e-02	0	55	0	55465476096	32	14951
2026-01-21 19:58:45.33	333.30	8.11	-31.2	-31.1	14.7	2.62e-02	0	55	0	55574528000	33	14717
2026-01-21 19:58:46.34	333.39	8.02	-31.2	-31.1	14.7	2.86e-02	0	55	0	55700357120	33	14687
2026-01-21 19:58:47.35	333.47	7.94	-31.4	-31.3	14.6	2.86e-02	0	55	0	55809409024	33	15074
2026-01-21 19:58:48.36	333.56	7.85	-31.4	-31.3	14.6	3.27e-02	0	55	0	55926849536	33	15029
2026-01-21 19:58:49.37	333.64	7.76	-31.2	-31.2	14.7	3.27e-02	0	55	0	56035901440	33	14806
2026-01-21 19:58:50.38	333.73	7.68	-31.3	-31.2	14.7	3.27e-02	0	55	0	56144953344	33	14864
2026-01-21 19:58:51.39	333.81	7.59	-31.3	-31.2	14.6	3.34e-02	0	55	0	56262393856	33	14892
2026-01-21 19:58:52.39	333.89	7.50	-31.3	-31.3	14.6	3.34e-02	0	55	0	56371445760	33	15014
2026-01-21 19:58:53.40	333.98	7.42	-31.3	-31.2	14.7	3.42e-02	0	55	0	56488886272	33	14840
2026-01-21 19:58:54.41	334.06	7.33	-31.2	-31.2	14.7	3.42e-02	0	55	0	56597938176	33	14777
2026-01-21 19:58:55.42	334.14	7.25	-31.5	-31.4	14.5	3.42e-02	0	55	0	56715378688	33	15283
2026-01-21 19:58:56.42	334.22	7.16	-31.4	-31.3	14.6	3.71e-02	0	55	0	56824430592	33	15012
2026-01-21 19:58:57.43	334.30	7.08	-31.6	-31.5	14.5	3.71e-02	0	55	0	56933482496	33	15410
2026-01-21 19:58:58.44	334.38	7.00	-31.5	-31.5	14.5	3.71e-02	0	55	0	57050923008	33	15352
2026-01-21 19:58:59.45	334.46	6.91	-31.7	-31.6	14.4	3.90e-02	0	56	0	57176752128	33	15642
2026-01-21 19:59:00.46	334.54	6.83	-32.0	-31.9	14.3	3.90e-02	0	55	0	57285804032	34	15237
2026-01-21 19:59:01.47	334.62	6.74	-32.3	-32.2	14.1	3.90e-02	0	55	0	57394855936	35	14882
2026-01-21 19:59:02.48	334.69	6.66	-31.9	-31.8	14.4	4.63e-02	0	55	0	57512296448	35	14207
2026-01-21 19:59:03.48	334.77	6.58	-31.8	-31.7	14.4	4.63e-02	0	56	0	57621348352	35	14069
2026-01-21 19:59:04.49	334.85	6.50	-32.0	-31.9	14.3	4.51e-02	0	55	0	57738788864	35	14359
2026-01-21 19:59:05.50	334.92	6.42	-31.9	-31.8	14.3	4.51e-02	0	55	0	57847840768	35	14170
2026-01-21 19:59:06.51	335.00	6.33	-31.9	-31.8	14.3	4.51e-02	0	56	0	57956892672	35	14238
2026-01-21 19:59:07.51	335.07	6.25	-31.9	-31.9	14.3	4.51e-02	0	56	0	58074333184	35	14313
2026-01-21 19:59:08.52	335.15	6.17	-32.0	-31.9	14.3	4.51e-02	0	56	0	58183385088	35	14373
2026-01-21 19:59:09.53	335.22	6.09	-32.0	-32.0	14.3	4.61e-02	0	55	0	58300825600	35	14461
2026-01-21 19:59:10.54	335.30	6.01	-32.1	-32.1	14.2	4.61e-02	0	55	0	58409877504	35	14657
2026-01-21 19:59:11.55	335.37	5.93	-32.1	-32.0	14.2	4.61e-02	0	55	0	58535706624	35	14565
2026-01-21 19:59:12.55	335.44	5.85	-32.2	-32.1	14.1	4.97e-02	0	56	0	58644758528	35	14714
2026-01-21 19:59:13.56	335.51	5.77	-32.1	-32.0	14.2	4.97e-02	0	55	0	58762199040	35	14607
2026-01-21 19:59:14.57	335.58	5.69	-32.0	-31.9	14.2	4.97e-02	0	55	0	58871250944	35	14400
2026-01-21 19:59:15.58	335.66	5.62	-31.7	-31.7	14.4	5.27e-02	0	56	0	58980302848	35	13985
2026-01-21 19:59:16.59	335.73	5.54	-32.2	-32.1	14.1	5.27e-02	0	56	0	59097743360	35	14730
2026-01-21 19:59:17.59	335.80	5.46	-32.1	-32.1	14.1	5.27e-02	0	55	0	59206795264	35	14643
2026-01-21 19:59:18.60	335.87	5.38	-32.3	-32.3	14.1	5.19e-02	0	56	0	59324235776	35	14952
2026-01-21 19:59:19.61	335.94	5.30	-32.1	-32.0	14.2	5.19e-02	0	55	0	59433287680	35	14604
2026-01-21 19:59:20.61	336.01	5.23	-32.2	-32.1	14.1	5.33e-02	0	55	0	59542339584	35	14716
2026-01-21 19:59:21.62	336.07	5.15	-32.4	-32.3	14.0	5.33e-02	0	55	0	59659780096	35	15083
2026-01-21 19:59:22.63	336.14	5.07	-32.2	-32.1	14.1	5.33e-02	0	55	0	59768832000	35	14763
2026-01-21 19:59:23.64	336.21	5.00	-44.3	-44.6	10.1	5.52e-02	4382	56	0	59886272512	58	16463
2026-01-21 19:59:24.65	336.28	4.92	-53.3	-55.5	6.2	5.52e-02	0	54	104	59886272512	77	19463
2026-01-21 19:59:25.66	336.35	4.84	-53.6	-55.7	6.2	5.52e-02	0	54	104	59886272512	77	19885
2026-01-21 19:59:26.66	336.41	4.77	-53.7	-55.8	6.2	5.52e-02	0	54	104	59886272512	77	20138
2026-01-21 19:59:27.67	336.48	4.69	-53.8	-56.0	6.2	5.52e-02	0	54	104	59886272512	78	19270
2026-01-21 19:59:28.68	336.54	4.62	-53.9	-56.0	6.2	5.52e-02	0	54	104	59886272512	78	19451
2026-01-21 19:59:29.69	336.61	4.54	-54.0	-56.1	6.2	5.52e-02	0	54	104	59886272512	78	19624
2026-01-21 19:59:30.70	336.67	4.47	-54.1	-56.2	6.2	5.52e-02	0	54	104	59886272512	78	19908
2026-01-21 19:59:31.70	336.74	4.39	-54.1	-56.2	6.2	5.52e-02	0	54	104	59886272512	78	19785
2026-01-21 19:59:32.71	336.80	4.32	-54.1	-56.2	6.2	5.52e-02	0	54	104	59886272512	78	19839
2026-01-21 19:59:33.72	336.87	4.25	-54.1	-56.2	6.2	6.77e-03	0	54	104	59886272512	78	19754
2026-01-21 19:59:34.73	336.93	4.17	-54.0	-56.1	6.2	6.77e-03	0	54	104	59886272512	78	19664
2026-01-21 19:59:35.74	336.99	4.10	-53.9	-56.0	6.2	6.77e-03	0	54	104	59886272512	78	19464
2026-01-21 19:59:36.75	337.06	4.02	-53.8	-56.0	6.2	6.77e-03	0	54	104	59886272512	78	19299
2026-01-21 19:59:37.76	337.12	3.95	-53.9	-56.0	6.2	6.77e-03	0	54	104	59886272512	78	19288
2026-01-21 19:59:38.76	337.18	3.88	-53.9	-56.1	6.2	6.77e-03	0	54	104	59886272512	78	19491
2026-01-21 19:59:39.77	337.24	3.81	-53.9	-56.1	6.2	6.77e-03	0	54	104	59886272512	78	19526
2026-01-21 19:59:40.78	337.30	3.73	-54.0	-56.1	6.2	6.77e-03	0	53	104	59886272512	78	19496
2026-01-21 19:59:41.79	337.36	3.66	-54.0	-56.1	6.2	6.77e-03	0	54	104	59886272512	78	19601
2026-01-21 19:59:42.80	337.43	3.59	-54.0	-56.1	6.2	6.77e-03	0	53	104	59886272512	78	19610
2026-01-21 19:59:43.80	337.48	3.52	-54.0	-56.1	6.2	6.77e-03	0	54	104	59886272512	78	19628
2026-01-21 19:59:44.81	337.54	3.45	-54.0	-56.1	6.2	0.00e+00	0	54	104	59886272512	78	19625
2026-01-21 19:59:45.82	337.60	3.38	-53.9	-56.1	6.2	0.00e+00	0	53	104	59886272512	78	19503
2026-01-21 19:59:46.83	337.66	3.30	-53.9	-56.0	6.2	0.00e+00	0	53	104	59886272512	78	19409
2026-01-21 19:59:47.84	337.72	3.23	-53.9	-56.0	6.2	0.00e+00	0	53	104	59886272512	78	19383
2026-01-21 19:59:48.84	337.78	3.16	-53.9	-56.0	6.2	0.00e+00	0	54	104	59886272512	78	19406
2026-01-21 19:59:49.85	337.84	3.09	-53.9	-56.0	6.2	0.00e+00	0	53	104	59886272512	78	19356
2026-01-21 19:59:50.85	337.90	3.02	-53.9	-56.0	6.2	0.00e+00	0	53	104	59886272512	78	19402
2026-01-21 19:59:51.86	337.95	2.95	-53.9	-56.0	6.2	0.00e+00	0	53	104	59886272512	78	19334
2026-01-21 19:59:52.87	338.01	2.88	-53.8	-56.0	6.2	0.00e+00	0	53	104	59886272512	78	19269
2026-01-21 19:59:53.88	338.07	2.81	-53.8	-56.0	6.2	0.00e+00	0	53	104	59886272512	78	19261
2026-01-21 19:59:54.89	338.13	2.75	-53.8	-55.9	6.2	0.00e+00	0	53	104	59886272512	78	19245
2026-01-21 19:59:55.90	338.18	2.68	-53.8	-56.0	6.2	0.00e+00	0	53	104	59886272512	78	19260
2026-01-21 19:59:56.91	338.24	2.61	-53.8	-56.0	6.2	0.00e+00	0	53	104	59886272512	78	19297
2026-01-21 19:59:57.91	338.29	2.54	-53.8	-55.9	6.2	0.00e+00	0	53	104	59886272512	78	19253
2026-01-21 19:59:58.92	338.35	2.47	-53.8	-55.9	6.2	0.00e+00	0	53	104	59886272512	78	19229
2026-01-21 19:59:59.93	338.40	2.40	-53.8	-55.9	6.2	0.00e+00	0	53	104	59886272512	78	19196
2026-01-21 20:00:00.94	338.46	2.33	-53.8	-55.9	6.2	0.00e+00	0	53	104	59886272512	78	19238
2026-01-21 20:00:01.95	338.51	2.27	-53.8	-55.9	6.2	0.00e+00	0	53	104	59886272512	78	19233
2026-01-21 20:00:02.95	338.57	2.20	-53.8	-55.9	6.2	0.00e+00	0	53	104	59886272512	78	19144
2026-01-21 20:00:03.96	338.62	2.13	-53.8	-55.9	6.2	0.00e+00	0	53	104	59886272512	78	19222
2026-01-21 20:00:04.97	338.68	2.06	-53.8	-55.9	6.2	0.00e+00	0	53	104	59886272512	78	19175

#Closed at: 2026-01-21 20:00:05
#Recorded file [59886 MB]: D:/lorett/data/31041_260121_224942.dat