passes_logs/2026/01/21/R3.2S_Murmansk/R3.2S_Murmansk__20260121_023917_SUOMI_NPP_rec.log

#Pass ID: 20260121_023917_SUOMI NPP
#Satellite: SUOMI NPP
#Configuration: NPP
#almurnet v.1.7.20251203
#Start time: 2026-01-21 02:39:19

#Version: 2.2.20231116
#Station: R3.2S_Murmansk
#Location: 33.079688 lon 68.888172 lat
#TLE: 1 37849U 11061A   26020.31993517  .00000142  00000+0  88240-4 0  9990
#TLE: 2 37849  98.7818 322.3228 0002330  54.3778 305.7615 14.19527005737466

#Time	Az	El	Level	Level2	SNR	BER	BlckErr	Temp	State	Recorded	gain1	gain2
2026-01-21 02:39:19.16	34.45	2.08	-53.6	-68.6	3.8	1.49e+00	0	38	0	0	78	20598
2026-01-21 02:39:20.16	34.41	2.15	-52.3	-67.3	3.8	1.49e+00	0	38	104	0	76	19940
2026-01-21 02:39:21.17	34.37	2.21	-52.3	-67.3	3.8	1.49e+00	0	38	104	0	76	19926
2026-01-21 02:39:22.18	34.33	2.27	-52.3	-67.3	3.8	1.49e+00	0	38	104	0	76	19878
2026-01-21 02:39:23.19	34.28	2.33	-52.3	-67.3	3.8	1.49e+00	0	38	104	0	76	19885
2026-01-21 02:39:24.20	34.24	2.39	-52.3	-67.3	3.8	1.49e+00	0	38	104	0	76	19873
2026-01-21 02:39:25.20	34.20	2.46	-52.3	-67.3	3.8	1.49e+00	0	38	104	0	76	19856
2026-01-21 02:39:26.21	34.16	2.52	-52.3	-67.2	3.8	1.49e+00	0	38	104	0	76	19813
2026-01-21 02:39:27.22	34.12	2.58	-52.3	-67.2	3.8	1.49e+00	0	38	104	0	76	19786
2026-01-21 02:39:28.23	34.08	2.64	-52.3	-67.2	3.8	1.49e+00	0	38	104	0	76	19797
2026-01-21 02:39:29.24	34.04	2.71	-52.3	-67.2	3.8	1.49e+00	0	38	104	0	76	19767
2026-01-21 02:39:30.25	33.99	2.77	-52.3	-67.2	3.8	1.49e+00	0	38	104	0	76	19742
2026-01-21 02:39:31.25	33.95	2.83	-52.3	-67.2	3.8	1.49e+00	0	38	104	0	76	19766
2026-01-21 02:39:32.26	33.91	2.90	-52.3	-67.2	3.8	1.49e+00	0	38	104	0	76	19711
2026-01-21 02:39:33.27	33.87	2.96	-52.3	-67.2	3.8	1.49e+00	0	38	104	0	76	19742
2026-01-21 02:39:34.28	33.83	3.02	-52.3	-67.2	3.8	1.49e+00	0	38	104	0	76	19723
2026-01-21 02:39:35.29	33.78	3.09	-52.3	-67.2	3.8	1.49e+00	0	38	104	0	76	19818
2026-01-21 02:39:36.29	33.74	3.15	-52.3	-67.2	3.8	1.49e+00	0	38	104	0	76	19801
2026-01-21 02:39:37.30	33.70	3.22	-52.3	-67.2	3.8	1.49e+00	0	39	104	0	76	19752
2026-01-21 02:39:38.31	33.65	3.28	-52.3	-67.1	3.8	1.49e+00	0	38	104	0	76	19595
2026-01-21 02:39:39.32	33.61	3.34	-52.3	-67.1	3.8	1.49e+00	0	39	104	0	76	19412
2026-01-21 02:39:40.33	33.56	3.41	-52.3	-66.9	3.8	1.49e+00	0	39	104	0	76	18967
2026-01-21 02:39:41.34	33.52	3.47	-52.2	-66.5	3.8	1.49e+00	0	39	104	0	76	18212
2026-01-21 02:39:42.35	33.48	3.54	-52.2	-66.2	3.8	1.49e+00	0	39	104	0	76	17626
2026-01-21 02:39:43.35	33.43	3.60	-52.2	-66.3	3.8	1.49e+00	0	39	104	0	76	17875
2026-01-21 02:39:44.36	33.39	3.67	-52.2	-66.5	3.8	1.49e+00	0	39	104	0	76	18198
2026-01-21 02:39:45.37	33.34	3.73	-52.2	-66.5	3.8	1.49e+00	0	39	104	0	76	18196
2026-01-21 02:39:46.38	33.30	3.80	-52.2	-66.4	3.8	1.49e+00	0	39	104	0	76	18081
2026-01-21 02:39:47.39	33.25	3.86	-52.2	-66.1	3.8	1.49e+00	0	39	104	0	76	17390
2026-01-21 02:39:48.40	33.20	3.93	-52.2	-65.2	3.9	1.49e+00	0	39	104	0	76	15581
2026-01-21 02:39:49.41	33.16	4.00	-52.1	-64.0	4.1	1.49e+00	0	39	104	0	76	13667
2026-01-21 02:39:50.41	33.11	4.06	-51.9	-62.4	4.7	1.02e+00	0	39	0	1048576	75	11970
2026-01-21 02:39:51.42	33.07	4.13	-51.8	-60.8	5.5	6.40e-01	0	39	0	2097152	75	9994
2026-01-21 02:39:52.43	33.02	4.19	-51.6	-59.7	6.3	3.24e-01	0	39	0	4194304	75	8782
2026-01-21 02:39:53.44	32.97	4.26	-51.4	-58.5	7.4	2.05e-01	0	39	0	6291456	74	8122
2026-01-21 02:39:54.45	32.93	4.33	-51.1	-57.5	8.4	7.81e-02	0	39	0	8388608	74	7212
2026-01-21 02:39:55.46	32.88	4.39	-50.9	-56.9	9.0	2.98e-02	0	39	0	10485760	73	7172
2026-01-21 02:39:56.47	32.83	4.46	-50.8	-56.5	9.4	1.93e-02	0	39	0	11534336	73	6824
2026-01-21 02:39:57.47	32.78	4.52	-50.8	-56.4	9.5	1.09e-02	0	39	0	13631488	73	6766
2026-01-21 02:39:58.48	32.73	4.59	-50.9	-56.7	9.2	1.55e-02	0	39	0	15728640	73	6981
2026-01-21 02:39:59.49	32.69	4.66	-50.9	-56.8	9.1	1.65e-02	0	39	0	17825792	73	7115
2026-01-21 02:40:00.50	32.64	4.73	-51.1	-57.5	8.4	3.79e-02	0	39	0	19922944	73	7658
2026-01-21 02:40:01.51	32.59	4.79	-51.3	-58.5	7.4	7.48e-02	0	39	0	20971520	73	8621
2026-01-21 02:40:02.51	32.54	4.86	-51.5	-59.4	6.6	1.44e-01	0	39	0	23068672	73	9504
2026-01-21 02:40:03.52	32.49	4.93	-51.7	-60.3	5.9	2.85e-01	0	39	0	25165824	73	10614
2026-01-21 02:40:04.54	32.44	5.00	-51.9	-61.6	5.0	5.36e-01	0	39	0	27262976	74	11660
2026-01-21 02:40:05.54	32.39	5.06	-51.2	-57.5	8.0	9.58e-01	0	39	0	29360128	74	7247
2026-01-21 02:40:06.55	32.34	5.13	-48.8	-51.8	14.4	3.80e-06	0	39	0	31457280	69	5040
2026-01-21 02:40:07.56	32.29	5.20	-52.1	-64.7	4.1	1.11e-03	33	39	0	32505856	74	16689
2026-01-21 02:40:08.57	32.24	5.27	-50.6	-55.5	5.4	1.49e+00	0	39	104	32505856	73	6130
2026-01-21 02:40:09.58	32.19	5.34	-50.2	-54.5	12.1	9.90e-06	0	39	0	32505856	70	6458
2026-01-21 02:40:10.58	32.14	5.41	-48.8	-51.7	14.2	6.74e-01	0	39	0	34603008	69	4966
2026-01-21 02:40:11.59	32.09	5.48	-47.6	-49.8	16.4	0.00e+00	0	39	0	36700160	67	4475
2026-01-21 02:40:12.60	32.04	5.54	-47.8	-50.1	16.2	0.00e+00	0	39	0	37748736	67	4631
2026-01-21 02:40:13.61	31.98	5.61	-47.9	-50.4	16.0	0.00e+00	0	39	0	39845888	67	4778
2026-01-21 02:40:14.62	31.93	5.68	-47.8	-50.1	16.2	0.00e+00	0	39	0	41943040	67	4645
2026-01-21 02:40:15.63	31.88	5.75	-47.6	-49.9	16.5	0.00e+00	0	39	0	44040192	66	4765
2026-01-21 02:40:16.63	31.83	5.82	-47.9	-50.3	16.1	0.00e+00	0	39	0	45088768	66	5004
2026-01-21 02:40:17.64	31.77	5.89	-48.0	-50.5	15.8	0.00e+00	0	39	0	47185920	66	5127
2026-01-21 02:40:18.65	31.72	5.96	-47.8	-50.1	16.2	0.00e+00	0	39	0	49283072	66	4921
2026-01-21 02:40:19.66	31.67	6.03	-47.6	-49.8	16.5	0.00e+00	0	39	0	51380224	66	4757
2026-01-21 02:40:20.66	31.61	6.10	-47.5	-49.8	16.6	0.00e+00	0	39	0	53477376	66	4726
2026-01-21 02:40:21.67	31.56	6.17	-47.5	-49.7	16.6	0.00e+00	0	39	0	55574528	66	4697
2026-01-21 02:40:22.68	31.51	6.24	-47.6	-49.8	16.6	0.00e+00	0	39	0	56623104	66	4737
2026-01-21 02:40:23.69	31.45	6.31	-47.3	-49.4	17.0	0.00e+00	0	39	0	58720256	66	4495
2026-01-21 02:40:24.70	31.40	6.39	-47.2	-49.3	17.1	0.00e+00	0	39	0	60817408	66	4478
2026-01-21 02:40:25.71	31.34	6.46	-47.2	-49.3	17.1	0.00e+00	0	39	0	62914560	66	4449
2026-01-21 02:40:26.71	31.29	6.53	-47.3	-49.4	17.0	0.00e+00	0	39	0	65011712	66	4497
2026-01-21 02:40:27.72	31.23	6.60	-47.2	-49.2	17.2	0.00e+00	0	39	0	66060288	66	4438
2026-01-21 02:40:28.73	31.17	6.67	-47.0	-49.1	17.3	0.00e+00	0	39	0	68157440	65	4605
2026-01-21 02:40:29.73	31.12	6.74	-46.9	-48.9	17.5	0.00e+00	0	39	0	70254592	65	4520
2026-01-21 02:40:30.74	31.06	6.81	-47.2	-49.3	17.1	0.00e+00	0	39	0	72351744	65	4736
2026-01-21 02:40:31.75	31.01	6.89	-47.3	-49.5	17.0	0.00e+00	0	39	0	74448896	65	4825
2026-01-21 02:40:32.76	30.95	6.96	-47.3	-49.5	17.0	0.00e+00	0	39	0	75497472	65	4818
2026-01-21 02:40:33.77	30.89	7.03	-47.3	-49.4	17.0	0.00e+00	0	39	0	77594624	65	4803
2026-01-21 02:40:34.78	30.83	7.10	-47.3	-49.5	16.9	0.00e+00	0	39	0	79691776	65	4826
2026-01-21 02:40:35.79	30.77	7.18	-47.3	-49.4	17.0	0.00e+00	0	39	0	81788928	65	4773
2026-01-21 02:40:36.80	30.72	7.25	-47.2	-49.3	17.2	0.00e+00	0	39	0	83886080	65	4716
2026-01-21 02:40:37.81	30.66	7.32	-47.3	-49.4	17.0	0.00e+00	0	40	0	84934656	65	4808
2026-01-21 02:40:38.82	30.60	7.40	-47.1	-49.2	17.3	0.00e+00	0	39	0	87031808	65	4661
2026-01-21 02:40:39.83	30.54	7.47	-47.3	-49.5	17.0	0.00e+00	0	39	0	89128960	65	4843
2026-01-21 02:40:40.84	30.48	7.55	-47.5	-49.7	16.8	0.00e+00	0	39	0	91226112	65	4943
2026-01-21 02:40:41.84	30.42	7.62	-47.1	-49.2	17.3	0.00e+00	0	39	0	93323264	65	4679
2026-01-21 02:40:42.85	30.36	7.69	-47.1	-49.2	17.3	0.00e+00	0	39	0	94371840	65	4671
2026-01-21 02:40:43.86	30.30	7.77	-47.4	-49.5	17.0	0.00e+00	0	40	0	96468992	65	4837
2026-01-21 02:40:44.87	30.24	7.84	-47.1	-49.1	17.4	0.00e+00	0	39	0	98566144	65	4642
2026-01-21 02:40:45.88	30.18	7.92	-47.2	-49.3	17.2	0.00e+00	0	39	0	100663296	65	4749
2026-01-21 02:40:46.89	30.11	7.99	-47.4	-49.6	16.9	0.00e+00	0	39	0	102760448	65	4888
2026-01-21 02:40:47.89	30.05	8.07	-47.3	-49.4	17.1	0.00e+00	0	39	0	103809024	65	4765
2026-01-21 02:40:48.90	29.99	8.14	-47.2	-49.3	17.2	0.00e+00	0	39	0	105906176	65	4736
2026-01-21 02:40:49.91	29.93	8.22	-47.2	-49.2	17.3	0.00e+00	0	40	0	108003328	65	4701
2026-01-21 02:40:50.92	29.86	8.29	-46.9	-48.9	17.6	0.00e+00	0	40	0	110100480	65	4516
2026-01-21 02:40:51.93	29.80	8.37	-46.9	-48.8	17.7	0.00e+00	0	39	0	112197632	65	4491
2026-01-21 02:40:52.94	29.74	8.45	-46.9	-48.8	17.7	0.00e+00	0	40	0	113246208	65	4493
2026-01-21 02:40:53.94	29.67	8.52	-47.2	-49.2	17.3	0.00e+00	0	39	0	115343360	65	4693
2026-01-21 02:40:54.95	29.61	8.60	-46.8	-48.8	17.7	0.00e+00	0	39	0	117440512	65	4453
2026-01-21 02:40:55.96	29.54	8.67	-47.1	-49.2	17.4	0.00e+00	0	39	0	119537664	65	4652
2026-01-21 02:40:56.97	29.48	8.75	-46.6	-48.5	18.0	0.00e+00	0	40	0	121634816	65	4304
2026-01-21 02:40:57.98	29.41	8.83	-46.7	-48.5	18.0	0.00e+00	0	39	0	122683392	65	4327
2026-01-21 02:40:58.99	29.35	8.91	-46.6	-48.5	18.1	0.00e+00	0	40	0	124780544	65	4296
2026-01-21 02:40:59.99	29.28	8.98	-46.7	-48.5	18.0	0.00e+00	0	39	0	126877696	65	4337
2026-01-21 02:41:01.00	29.21	9.06	-46.7	-48.5	18.0	0.00e+00	0	40	0	128974848	65	4315
2026-01-21 02:41:02.01	29.15	9.14	-46.4	-48.2	18.3	0.00e+00	0	40	0	131072000	64	4419
2026-01-21 02:41:03.02	29.08	9.22	-46.6	-48.4	18.1	0.00e+00	0	39	0	132120576	64	4543
2026-01-21 02:41:04.02	29.01	9.29	-46.7	-48.6	18.0	0.00e+00	0	40	0	134217728	64	4609
2026-01-21 02:41:05.03	28.94	9.37	-46.6	-48.4	18.2	0.00e+00	0	39	0	136314880	64	4511
2026-01-21 02:41:06.04	28.88	9.45	-46.5	-48.2	18.3	0.00e+00	0	40	0	138412032	64	4426
2026-01-21 02:41:07.05	28.81	9.53	-46.6	-48.4	18.2	0.00e+00	0	40	0	140509184	64	4526
2026-01-21 02:41:08.06	28.74	9.61	-46.4	-48.1	18.4	0.00e+00	0	40	0	142606336	64	4383
2026-01-21 02:41:09.06	28.67	9.69	-46.7	-48.5	18.1	0.00e+00	0	39	0	143654912	64	4594
2026-01-21 02:41:10.07	28.60	9.77	-46.3	-48.0	18.6	0.00e+00	0	40	0	145752064	64	4300
2026-01-21 02:41:11.08	28.53	9.85	-46.3	-48.0	18.6	0.00e+00	0	39	0	147849216	64	4337
2026-01-21 02:41:12.08	28.46	9.93	-46.3	-48.0	18.6	0.00e+00	0	40	0	149946368	64	4307
2026-01-21 02:41:13.09	28.39	10.01	-46.3	-48.0	18.7	0.00e+00	0	40	0	150994944	64	4304
2026-01-21 02:41:14.10	28.31	10.09	-46.3	-47.9	18.7	0.00e+00	0	40	0	153092096	64	4284
2026-01-21 02:41:15.11	28.24	10.17	-46.3	-48.0	18.6	0.00e+00	0	40	0	155189248	64	4339
2026-01-21 02:41:16.12	28.17	10.25	-46.4	-48.1	18.6	0.00e+00	0	40	0	157286400	64	4348
2026-01-21 02:41:17.12	28.10	10.33	-46.4	-48.1	18.6	0.00e+00	0	40	0	159383552	64	4368
2026-01-21 02:41:18.13	28.02	10.41	-46.3	-48.0	18.7	0.00e+00	0	39	0	160432128	64	4314
2026-01-21 02:41:19.14	27.95	10.49	-46.3	-48.0	18.7	0.00e+00	0	40	0	162529280	64	4313
2026-01-21 02:41:20.15	27.87	10.57	-46.3	-48.0	18.7	0.00e+00	0	39	0	164626432	64	4322
2026-01-21 02:41:21.16	27.80	10.66	-46.3	-47.9	18.7	0.00e+00	0	40	0	166723584	64	4285
2026-01-21 02:41:22.16	27.72	10.74	-46.3	-47.8	18.8	0.00e+00	0	40	0	168820736	64	4241
2026-01-21 02:41:23.17	27.65	10.82	-46.4	-48.1	18.6	0.00e+00	0	40	0	170917888	64	4352
2026-01-21 02:41:24.18	27.57	10.90	-46.4	-48.1	18.7	0.00e+00	0	40	0	171966464	64	4346
2026-01-21 02:41:25.19	27.50	10.99	-46.4	-48.1	18.7	0.00e+00	0	40	0	174063616	64	4349
2026-01-21 02:41:26.20	27.42	11.07	-46.2	-47.8	18.9	0.00e+00	0	40	0	176160768	64	4231
2026-01-21 02:41:27.21	27.34	11.15	-46.3	-47.9	18.8	0.00e+00	0	40	0	178257920	64	4272
2026-01-21 02:41:28.21	27.26	11.23	-46.5	-48.3	18.5	0.00e+00	0	40	0	179306496	64	4446
2026-01-21 02:41:29.22	27.19	11.32	-46.3	-47.9	18.8	0.00e+00	0	40	0	181403648	64	4282
2026-01-21 02:41:30.23	27.11	11.40	-46.4	-48.0	18.7	0.00e+00	0	40	0	183500800	64	4324
2026-01-21 02:41:31.24	27.03	11.49	-46.5	-48.2	18.6	0.00e+00	0	40	0	185597952	64	4396
2026-01-21 02:41:32.24	26.95	11.57	-46.4	-48.0	18.7	0.00e+00	0	40	0	187695104	64	4324
2026-01-21 02:41:33.25	26.87	11.65	-46.3	-47.9	18.9	0.00e+00	0	40	0	189792256	64	4266
2026-01-21 02:41:34.26	26.79	11.74	-46.3	-48.0	18.8	0.00e+00	0	40	0	190840832	64	4316
2026-01-21 02:41:35.27	26.71	11.82	-46.1	-47.8	18.9	0.00e+00	0	40	0	192937984	64	4196
2026-01-21 02:41:36.28	26.62	11.91	-46.4	-48.0	18.8	0.00e+00	0	40	0	195035136	63	4576
2026-01-21 02:41:37.29	26.54	12.00	-46.4	-48.1	18.8	0.00e+00	0	40	0	197132288	63	4616
2026-01-21 02:41:38.29	26.46	12.08	-46.3	-47.9	18.8	0.00e+00	0	40	0	199229440	63	4545
2026-01-21 02:41:39.30	26.38	12.17	-46.4	-48.0	18.8	0.00e+00	0	40	0	200278016	63	4594
2026-01-21 02:41:40.30	26.29	12.25	-46.2	-47.8	19.0	0.00e+00	0	40	0	202375168	63	4466
2026-01-21 02:41:41.31	26.21	12.34	-46.3	-48.0	18.9	0.00e+00	0	40	0	204472320	63	4549
2026-01-21 02:41:42.32	26.12	12.43	-46.4	-48.1	18.8	0.00e+00	0	40	0	206569472	63	4606
2026-01-21 02:41:43.33	26.04	12.51	-46.2	-47.8	19.0	0.00e+00	0	40	0	207618048	63	4486
2026-01-21 02:41:44.33	25.95	12.60	-46.5	-48.2	18.7	0.00e+00	0	40	0	209715200	63	4653
2026-01-21 02:41:45.34	25.87	12.69	-46.2	-47.8	19.0	0.00e+00	0	40	0	211812352	63	4487
2026-01-21 02:41:46.35	25.78	12.78	-45.8	-47.3	19.5	0.00e+00	0	40	0	213909504	63	4225
2026-01-21 02:41:47.36	25.69	12.86	-46.2	-47.7	19.1	0.00e+00	0	40	0	216006656	63	4440
2026-01-21 02:41:48.37	25.60	12.95	-46.1	-47.7	19.2	0.00e+00	0	40	0	218103808	63	4411
2026-01-21 02:41:49.38	25.51	13.04	-45.9	-47.4	19.4	0.00e+00	0	40	0	219152384	63	4288
2026-01-21 02:41:50.39	25.43	13.13	-46.2	-47.9	19.0	0.00e+00	0	40	0	221249536	63	4495
2026-01-21 02:41:51.39	25.34	13.22	-46.2	-47.8	19.1	0.00e+00	0	40	0	223346688	63	4455
2026-01-21 02:41:52.40	25.25	13.31	-46.2	-47.8	19.1	0.00e+00	0	40	0	225443840	63	4476
2026-01-21 02:41:53.41	25.15	13.40	-46.1	-47.7	19.3	0.00e+00	0	40	0	227540992	63	4400
2026-01-21 02:41:54.42	25.06	13.49	-45.8	-47.2	19.6	0.00e+00	0	40	0	228589568	63	4191
2026-01-21 02:41:55.42	24.97	13.58	-45.9	-47.4	19.5	0.00e+00	0	39	0	230686720	63	4260
2026-01-21 02:41:56.43	24.88	13.67	-46.1	-47.6	19.3	0.00e+00	0	40	0	232783872	63	4361
2026-01-21 02:41:57.44	24.79	13.76	-46.1	-47.6	19.3	0.00e+00	0	40	0	234881024	63	4363
2026-01-21 02:41:58.45	24.69	13.85	-46.1	-47.6	19.3	0.00e+00	0	40	0	235929600	63	4355
2026-01-21 02:41:59.46	24.60	13.94	-45.9	-47.4	19.5	0.00e+00	0	40	0	238026752	63	4286
2026-01-21 02:42:00.46	24.50	14.03	-46.2	-47.8	19.2	0.00e+00	0	40	0	240123904	63	4444
2026-01-21 02:42:01.47	24.41	14.12	-46.0	-47.5	19.4	0.00e+00	0	40	0	242221056	63	4340
2026-01-21 02:42:02.48	24.31	14.21	-45.4	-46.8	20.1	0.00e+00	0	40	0	244318208	62	4205
2026-01-21 02:42:03.49	24.21	14.30	-45.6	-47.0	19.9	0.00e+00	0	40	0	246415360	62	4320
2026-01-21 02:42:04.50	24.12	14.40	-45.7	-47.1	19.8	0.00e+00	0	40	0	247463936	62	4380
2026-01-21 02:42:05.51	24.02	14.49	-45.7	-47.2	19.8	0.00e+00	0	40	0	249561088	62	4401
2026-01-21 02:42:06.51	23.92	14.58	-45.5	-46.9	20.1	0.00e+00	0	40	0	251658240	62	4253
2026-01-21 02:42:07.52	23.82	14.68	-45.5	-46.9	20.0	0.00e+00	0	40	0	253755392	62	4249
2026-01-21 02:42:08.53	23.72	14.77	-45.8	-47.2	19.7	0.00e+00	0	40	0	255852544	62	4427
2026-01-21 02:42:09.54	23.62	14.86	-45.7	-47.1	19.8	0.00e+00	0	40	0	256901120	62	4372
2026-01-21 02:42:10.54	23.52	14.96	-45.4	-46.7	20.2	0.00e+00	0	40	0	258998272	62	4190
2026-01-21 02:42:11.55	23.42	15.05	-45.7	-47.2	19.8	0.00e+00	0	40	0	261095424	62	4402
2026-01-21 02:42:12.56	23.32	15.15	-45.8	-47.3	19.7	0.00e+00	0	40	0	263192576	62	4462
2026-01-21 02:42:13.57	23.21	15.24	-45.9	-47.3	19.6	0.00e+00	0	40	0	265289728	62	4490
2026-01-21 02:42:14.58	23.11	15.34	-45.8	-47.2	19.7	0.00e+00	0	40	0	266338304	62	4439
2026-01-21 02:42:15.58	23.00	15.43	-45.9	-47.4	19.6	0.00e+00	0	40	0	268435456	62	4498
2026-01-21 02:42:16.59	22.90	15.53	-46.1	-47.6	19.4	0.00e+00	0	40	0	270532608	62	4605
2026-01-21 02:42:17.60	22.79	15.62	-46.1	-47.6	19.5	0.00e+00	0	40	0	272629760	62	4612
2026-01-21 02:42:18.60	22.69	15.72	-46.0	-47.5	19.5	0.00e+00	0	40	0	274726912	62	4590
2026-01-21 02:42:19.61	22.58	15.81	-46.2	-47.8	19.3	0.00e+00	0	40	0	275775488	63	4468
2026-01-21 02:42:20.62	22.47	15.91	-46.2	-47.8	19.2	0.00e+00	0	40	0	277872640	63	4448
2026-01-21 02:42:21.62	22.36	16.01	-46.4	-48.0	19.0	0.00e+00	0	40	0	279969792	63	4593
2026-01-21 02:42:22.63	22.25	16.10	-46.3	-47.9	19.1	0.00e+00	0	40	0	282066944	63	4533
2026-01-21 02:42:23.64	22.14	16.20	-46.3	-47.9	19.2	0.00e+00	0	40	0	284164096	63	4519
2026-01-21 02:42:24.65	22.03	16.30	-46.6	-48.3	18.8	0.00e+00	0	40	0	285212672	63	4730
2026-01-21 02:42:25.66	21.92	16.40	-46.3	-47.8	19.2	0.00e+00	0	40	0	287309824	63	4485
2026-01-21 02:42:26.66	21.81	16.49	-46.2	-47.7	19.2	0.00e+00	0	40	0	289406976	63	4425
2026-01-21 02:42:27.67	21.69	16.59	-46.2	-47.7	19.4	0.00e+00	0	40	0	291504128	63	4416
2026-01-21 02:42:28.68	21.58	16.69	-46.0	-47.5	19.6	0.00e+00	0	40	0	293601280	63	4306
2026-01-21 02:42:29.69	21.47	16.79	-45.9	-47.4	19.7	0.00e+00	0	40	0	294649856	63	4243
2026-01-21 02:42:30.69	21.35	16.89	-46.0	-47.5	19.6	0.00e+00	0	40	0	296747008	63	4307
2026-01-21 02:42:31.70	21.23	16.99	-45.8	-47.2	19.9	0.00e+00	0	40	0	298844160	63	4161
2026-01-21 02:42:32.71	21.12	17.09	-46.0	-47.5	19.6	0.00e+00	0	40	0	300941312	63	4325
2026-01-21 02:42:33.72	21.00	17.19	-46.0	-47.5	19.6	0.00e+00	0	40	0	303038464	63	4319
2026-01-21 02:42:34.73	20.88	17.29	-45.8	-47.2	19.8	0.00e+00	0	40	0	304087040	63	4179
2026-01-21 02:42:35.74	20.76	17.39	-45.8	-47.2	19.9	0.00e+00	0	40	0	306184192	63	4153
2026-01-21 02:42:36.75	20.64	17.49	-45.7	-47.1	20.0	0.00e+00	0	40	0	308281344	63	4129
2026-01-21 02:42:37.75	20.52	17.59	-45.7	-47.0	20.0	0.00e+00	0	40	0	310378496	63	4079
2026-01-21 02:42:38.76	20.40	17.70	-45.4	-46.7	20.3	0.00e+00	0	40	0	312475648	62	4156
2026-01-21 02:42:39.77	20.27	17.80	-45.3	-46.5	20.5	0.00e+00	0	40	0	314572800	62	4086
2026-01-21 02:42:40.78	20.15	17.90	-45.4	-46.7	20.4	0.00e+00	0	40	0	315621376	62	4162
2026-01-21 02:42:41.78	20.02	18.00	-45.3	-46.5	20.5	0.00e+00	0	40	0	317718528	62	4086
2026-01-21 02:42:42.79	19.90	18.11	-45.4	-46.7	20.3	0.00e+00	0	40	0	319815680	62	4158
2026-01-21 02:42:43.80	19.77	18.21	-45.4	-46.7	20.3	0.00e+00	0	40	0	321912832	62	4183
2026-01-21 02:42:44.81	19.64	18.31	-45.5	-46.8	20.3	0.00e+00	0	40	0	322961408	62	4199
2026-01-21 02:42:45.82	19.52	18.42	-45.8	-47.1	20.0	0.00e+00	0	40	0	325058560	62	4384
2026-01-21 02:42:46.83	19.39	18.52	-45.8	-47.2	19.9	0.00e+00	0	40	0	327155712	62	4408
2026-01-21 02:42:47.83	19.26	18.62	-46.1	-47.6	19.6	0.00e+00	0	40	0	329252864	62	4623
2026-01-21 02:42:48.84	19.13	18.73	-46.1	-47.5	19.6	0.00e+00	0	40	0	331350016	62	4590
2026-01-21 02:42:49.85	18.99	18.83	-46.1	-47.6	19.6	0.00e+00	0	40	0	333447168	62	4601
2026-01-21 02:42:50.86	18.86	18.94	-46.1	-47.5	19.6	0.00e+00	0	40	0	334495744	63	4323
2026-01-21 02:42:51.87	18.73	19.04	-46.0	-47.4	19.7	0.00e+00	0	40	0	336592896	63	4278
2026-01-21 02:42:52.88	18.59	19.15	-45.9	-47.3	19.9	0.00e+00	0	40	0	338690048	63	4196
2026-01-21 02:42:53.88	18.46	19.26	-45.5	-46.8	20.2	0.00e+00	0	40	0	340787200	63	3983
2026-01-21 02:42:54.89	18.32	19.36	-45.6	-47.0	20.2	0.00e+00	0	40	0	342884352	62	4294
2026-01-21 02:42:55.90	18.18	19.47	-45.8	-47.2	19.9	0.00e+00	0	40	0	343932928	62	4424
2026-01-21 02:42:56.91	18.04	19.58	-45.6	-46.9	20.2	0.00e+00	0	40	0	346030080	62	4275
2026-01-21 02:42:57.92	17.90	19.68	-45.7	-47.1	20.0	0.00e+00	0	40	0	348127232	62	4370
2026-01-21 02:42:58.93	17.76	19.79	-45.9	-47.3	19.8	0.00e+00	0	40	0	350224384	62	4473
2026-01-21 02:42:59.94	17.62	19.90	-45.9	-47.3	19.8	0.00e+00	0	40	0	351272960	62	4449
2026-01-21 02:43:00.94	17.48	20.01	-46.0	-47.5	19.7	0.00e+00	0	40	0	353370112	62	4554
2026-01-21 02:43:01.95	17.34	20.11	-46.0	-47.4	19.7	0.00e+00	0	40	0	355467264	63	4285
2026-01-21 02:43:02.96	17.19	20.22	-45.9	-47.3	19.9	0.00e+00	0	40	0	357564416	63	4210
2026-01-21 02:43:03.97	17.04	20.33	-46.0	-47.4	19.8	0.00e+00	0	40	0	359661568	63	4262
2026-01-21 02:43:04.98	16.90	20.44	-45.8	-47.2	19.9	0.00e+00	0	40	0	361758720	63	4190
2026-01-21 02:43:05.99	16.75	20.55	-46.1	-47.5	19.6	0.00e+00	0	40	0	362807296	63	4340
2026-01-21 02:43:07.00	16.60	20.66	-46.1	-47.6	19.7	0.00e+00	0	40	0	364904448	63	4343
2026-01-21 02:43:08.01	16.45	20.77	-46.2	-47.7	19.5	0.00e+00	0	40	0	367001600	63	4423
2026-01-21 02:43:09.02	16.30	20.88	-46.5	-48.1	19.1	0.00e+00	0	40	0	369098752	63	4637
2026-01-21 02:43:10.02	16.15	20.99	-46.4	-47.9	19.3	0.00e+00	0	40	0	371195904	63	4543
2026-01-21 02:43:11.03	15.99	21.10	-46.6	-48.2	19.1	0.00e+00	0	40	0	372244480	63	4668
2026-01-21 02:43:12.04	15.84	21.21	-46.5	-48.1	19.0	0.00e+00	0	40	0	374341632	64	4375
2026-01-21 02:43:13.05	15.68	21.32	-46.4	-48.0	19.1	0.00e+00	0	40	0	376438784	64	4319
2026-01-21 02:43:14.06	15.52	21.43	-46.3	-47.8	19.3	0.00e+00	0	40	0	378535936	64	4224
2026-01-21 02:43:15.07	15.37	21.55	-46.3	-47.8	19.3	0.00e+00	0	40	0	380633088	64	4200
2026-01-21 02:43:16.07	15.21	21.66	-46.5	-48.1	19.1	0.00e+00	0	40	0	381681664	64	4353
2026-01-21 02:43:17.08	15.05	21.77	-46.9	-48.5	18.7	0.00e+00	0	40	0	383778816	64	4594
2026-01-21 02:43:18.09	14.89	21.88	-46.7	-48.3	18.9	0.00e+00	0	40	0	385875968	64	4462
2026-01-21 02:43:19.10	14.72	21.99	-46.6	-48.1	19.0	0.00e+00	0	40	0	387973120	64	4389
2026-01-21 02:43:20.11	14.56	22.11	-46.8	-48.5	18.7	0.00e+00	0	40	0	390070272	64	4562
2026-01-21 02:43:21.12	14.39	22.22	-46.6	-48.2	19.0	0.00e+00	0	40	0	391118848	64	4401
2026-01-21 02:43:22.13	14.23	22.33	-46.7	-48.3	18.9	0.00e+00	0	40	0	393216000	64	4454
2026-01-21 02:43:23.13	14.06	22.45	-46.3	-47.9	19.3	0.00e+00	0	40	0	395313152	64	4243
2026-01-21 02:43:24.14	13.89	22.56	-46.0	-47.5	19.6	0.00e+00	0	40	0	397410304	64	4068
2026-01-21 02:43:25.15	13.72	22.68	-45.9	-47.3	19.9	0.00e+00	0	40	0	399507456	63	4201
2026-01-21 02:43:26.16	13.55	22.79	-45.5	-46.7	20.3	0.00e+00	0	40	0	400556032	62	4155
2026-01-21 02:43:27.17	13.38	22.91	-45.4	-46.7	20.4	0.00e+00	0	40	0	402653184	62	4183
2026-01-21 02:43:28.17	13.20	23.02	-45.6	-47.0	20.2	0.00e+00	0	40	0	404750336	62	4308
2026-01-21 02:43:29.18	13.03	23.13	-45.7	-47.1	20.1	0.00e+00	0	40	0	406847488	62	4344
2026-01-21 02:43:30.19	12.85	23.25	-45.8	-47.2	19.8	0.00e+00	0	40	0	408944640	62	4430
2026-01-21 02:43:31.20	12.67	23.37	-45.9	-47.3	19.9	0.00e+00	0	40	0	409993216	62	4471
2026-01-21 02:43:32.21	12.49	23.48	-46.0	-47.5	19.8	0.00e+00	0	40	0	412090368	62	4558
2026-01-21 02:43:33.21	12.31	23.60	-45.7	-47.1	20.0	0.00e+00	0	40	0	414187520	62	4375
2026-01-21 02:43:34.22	12.13	23.71	-46.0	-47.4	19.8	0.00e+00	0	40	0	416284672	62	4528
2026-01-21 02:43:35.23	11.95	23.83	-45.5	-46.8	20.4	0.00e+00	0	40	0	418381824	62	4222
2026-01-21 02:43:36.24	11.76	23.95	-45.3	-46.6	20.5	0.00e+00	0	40	0	419430400	62	4124
2026-01-21 02:43:37.25	11.57	24.06	-45.3	-46.6	20.5	0.00e+00	0	40	0	421527552	62	4127
2026-01-21 02:43:38.25	11.39	24.18	-45.3	-46.6	20.6	0.00e+00	0	40	0	423624704	62	4140
2026-01-21 02:43:39.26	11.20	24.30	-45.6	-46.9	20.3	0.00e+00	0	40	0	425721856	62	4273
2026-01-21 02:43:40.27	11.01	24.41	-45.8	-47.1	20.1	0.00e+00	0	40	0	427819008	62	4386
2026-01-21 02:43:41.28	10.82	24.53	-46.0	-47.4	19.9	0.00e+00	0	40	0	428867584	62	4498
2026-01-21 02:43:42.29	10.62	24.65	-46.2	-47.6	19.6	0.00e+00	0	40	0	430964736	63	4382
2026-01-21 02:43:43.30	10.43	24.77	-46.3	-47.8	19.5	0.00e+00	0	40	0	433061888	63	4476
2026-01-21 02:43:44.30	10.23	24.88	-46.3	-47.8	19.6	0.00e+00	0	40	0	435159040	63	4454
2026-01-21 02:43:45.31	10.03	25.00	-46.2	-47.7	19.6	0.00e+00	0	40	0	437256192	63	4414
2026-01-21 02:43:46.32	9.83	25.12	-46.5	-48.0	19.3	0.00e+00	0	40	0	438304768	63	4581
2026-01-21 02:43:47.33	9.63	25.24	-46.6	-48.1	19.1	0.00e+00	0	40	0	440401920	64	4391
2026-01-21 02:43:48.34	9.43	25.36	-46.8	-48.5	18.8	0.00e+00	0	40	0	442499072	64	4566
2026-01-21 02:43:49.35	9.23	25.48	-47.2	-48.9	18.3	0.00e+00	0	40	0	444596224	65	4544
2026-01-21 02:43:50.35	9.02	25.59	-47.3	-49.1	18.2	0.00e+00	0	40	0	446693376	65	4606
2026-01-21 02:43:51.36	8.81	25.71	-47.2	-49.0	18.3	0.00e+00	0	40	0	448790528	65	4555
2026-01-21 02:43:52.37	8.60	25.83	-47.3	-49.1	18.2	0.00e+00	0	40	0	449839104	65	4612
2026-01-21 02:43:53.38	8.39	25.95	-47.2	-49.0	18.3	0.00e+00	0	40	0	451936256	65	4557
2026-01-21 02:43:54.39	8.18	26.07	-47.0	-48.7	18.5	0.00e+00	0	40	0	454033408	65	4393
2026-01-21 02:43:55.40	7.97	26.19	-47.2	-49.0	18.3	0.00e+00	0	40	0	456130560	65	4557
2026-01-21 02:43:56.41	7.75	26.31	-47.3	-49.1	18.2	0.00e+00	0	40	0	457179136	65	4615
2026-01-21 02:43:57.41	7.54	26.43	-47.7	-49.7	17.5	0.00e+00	0	40	0	459276288	65	4968
2026-01-21 02:43:58.42	7.32	26.55	-47.9	-50.0	17.3	0.00e+00	0	40	0	461373440	66	4834
2026-01-21 02:43:59.43	7.10	26.67	-47.8	-49.9	17.4	0.00e+00	0	40	0	463470592	66	4787
2026-01-21 02:44:00.44	6.88	26.79	-47.7	-49.7	17.7	0.00e+00	0	40	0	465567744	66	4657
2026-01-21 02:44:01.45	6.65	26.91	-47.3	-49.2	18.1	0.00e+00	0	40	0	466616320	66	4401
2026-01-21 02:44:02.45	6.43	27.02	-46.7	-48.3	19.0	0.00e+00	0	40	0	468713472	65	4217
2026-01-21 02:44:03.46	6.20	27.14	-46.7	-48.4	18.9	0.00e+00	0	40	0	470810624	65	4244
2026-01-21 02:44:04.47	5.97	27.26	-46.7	-48.4	18.9	0.00e+00	0	40	0	472907776	65	4256
2026-01-21 02:44:05.47	5.74	27.38	-46.6	-48.2	19.1	0.00e+00	0	40	0	475004928	64	4407
2026-01-21 02:44:06.48	5.51	27.50	-46.7	-48.3	18.8	0.00e+00	0	40	0	477102080	64	4488
2026-01-21 02:44:07.49	5.28	27.62	-46.5	-48.1	19.2	0.00e+00	0	40	0	478150656	64	4363
2026-01-21 02:44:08.50	5.04	27.74	-46.4	-47.9	19.3	0.00e+00	0	40	0	480247808	64	4287
2026-01-21 02:44:09.51	4.80	27.86	-46.4	-48.0	19.3	0.00e+00	0	40	0	482344960	64	4299
2026-01-21 02:44:10.51	4.56	27.98	-46.1	-47.5	19.7	0.00e+00	0	40	0	484442112	64	4072
2026-01-21 02:44:11.52	4.32	28.10	-46.4	-47.9	19.3	0.00e+00	0	40	0	485490688	64	4265
2026-01-21 02:44:12.53	4.08	28.22	-46.5	-48.0	19.2	0.00e+00	0	40	0	487587840	64	4329
2026-01-21 02:44:13.54	3.83	28.34	-46.8	-48.5	18.8	0.00e+00	0	40	0	489684992	64	4563
2026-01-21 02:44:14.55	3.59	28.46	-46.8	-48.5	18.8	0.00e+00	0	40	0	491782144	64	4552
2026-01-21 02:44:15.55	3.34	28.58	-46.7	-48.4	18.8	0.00e+00	0	40	0	493879296	64	4496
2026-01-21 02:44:16.56	3.09	28.70	-46.6	-48.2	19.1	0.00e+00	0	40	0	495976448	64	4420
2026-01-21 02:44:17.57	2.84	28.82	-46.6	-48.2	19.1	0.00e+00	0	40	0	497025024	64	4400
2026-01-21 02:44:18.58	2.58	28.94	-47.0	-48.8	18.6	0.00e+00	0	40	0	499122176	64	4707
2026-01-21 02:44:19.58	2.33	29.05	-46.8	-48.5	18.8	0.00e+00	0	40	0	501219328	64	4563
2026-01-21 02:44:20.59	2.07	29.17	-47.2	-49.0	18.4	0.00e+00	0	40	0	503316480	64	4816
2026-01-21 02:44:21.60	1.81	29.29	-47.6	-49.5	17.9	0.00e+00	0	40	0	505413632	65	4819
2026-01-21 02:44:22.61	1.55	29.41	-47.7	-49.6	17.8	0.00e+00	0	40	0	506462208	66	4627
2026-01-21 02:44:23.62	1.28	29.53	-47.8	-49.7	17.7	0.00e+00	0	40	0	508559360	66	4704
2026-01-21 02:44:24.63	1.02	29.65	-47.5	-49.3	18.1	0.00e+00	0	40	0	510656512	66	4484
2026-01-21 02:44:25.64	0.75	29.76	-47.5	-49.3	18.1	0.00e+00	0	40	0	512753664	66	4482
2026-01-21 02:44:26.64	0.48	29.88	-47.2	-48.9	18.4	0.00e+00	0	40	0	513802240	66	4286
2026-01-21 02:44:27.65	0.21	30.00	-47.1	-48.8	18.6	0.00e+00	0	40	0	515899392	65	4487
2026-01-21 02:44:28.66	359.93	30.12	-47.3	-49.1	18.3	0.00e+00	0	40	0	517996544	65	4642
2026-01-21 02:44:29.67	359.66	30.23	-47.5	-49.3	18.1	0.00e+00	0	40	0	520093696	65	4725
2026-01-21 02:44:30.68	359.38	30.35	-47.8	-49.7	17.8	0.00e+00	0	40	0	522190848	66	4702
2026-01-21 02:44:31.69	359.10	30.47	-47.6	-49.5	17.9	0.00e+00	0	40	0	524288000	66	4551
2026-01-21 02:44:32.69	358.82	30.58	-47.4	-49.3	18.2	0.00e+00	0	40	0	525336576	66	4448
2026-01-21 02:44:33.70	358.53	30.70	-47.1	-48.9	18.4	0.00e+00	0	40	0	527433728	66	4249
2026-01-21 02:44:34.71	358.25	30.81	-46.5	-48.1	19.3	0.00e+00	0	40	0	529530880	65	4128
2026-01-21 02:44:35.71	357.96	30.93	-46.9	-48.6	18.7	0.00e+00	0	40	0	531628032	65	4376
2026-01-21 02:44:36.72	357.67	31.04	-47.4	-49.3	18.1	0.00e+00	0	40	0	533725184	65	4736
2026-01-21 02:44:37.73	357.38	31.15	-47.8	-49.9	17.5	0.00e+00	0	40	0	534773760	66	4764
2026-01-21 02:44:38.74	357.08	31.27	-47.6	-49.6	17.8	0.00e+00	0	40	0	536870912	66	4637
2026-01-21 02:44:39.75	356.79	31.38	-47.9	-50.0	17.4	0.00e+00	0	40	0	538968064	66	4815
2026-01-21 02:44:40.75	356.49	31.49	-47.9	-50.0	17.3	0.00e+00	0	40	0	541065216	66	4843
2026-01-21 02:44:41.76	356.19	31.61	-48.2	-50.4	16.9	0.00e+00	0	40	0	543162368	67	4809
2026-01-21 02:44:42.77	355.89	31.72	-48.3	-50.7	16.6	0.00e+00	0	40	0	544210944	67	4945
2026-01-21 02:44:43.78	355.58	31.83	-48.5	-50.9	16.5	0.00e+00	0	40	0	546308096	67	5058
2026-01-21 02:44:44.79	355.27	31.94	-48.6	-51.2	16.1	0.00e+00	0	40	0	548405248	67	5249
2026-01-21 02:44:45.79	354.97	32.05	-48.8	-51.5	16.0	0.00e+00	0	40	0	550502400	68	5117
2026-01-21 02:44:46.80	354.66	32.16	-48.8	-51.4	16.0	0.00e+00	0	40	0	552599552	68	5063
2026-01-21 02:44:47.81	354.34	32.27	-48.2	-50.4	17.0	0.00e+00	0	40	0	553648128	68	4531
2026-01-21 02:44:48.82	354.03	32.38	-48.1	-50.3	17.0	0.00e+00	0	40	0	555745280	67	4752
2026-01-21 02:44:49.82	353.71	32.48	-48.1	-50.3	17.0	0.00e+00	0	40	0	557842432	67	4754
2026-01-21 02:44:50.83	353.39	32.59	-48.1	-50.3	17.0	0.00e+00	0	40	0	559939584	67	4707
2026-01-21 02:44:51.84	353.07	32.70	-48.7	-51.1	16.5	0.00e+00	0	40	0	562036736	68	4890
2026-01-21 02:44:52.85	352.74	32.81	-49.2	-51.9	15.6	0.00e+00	0	40	0	563085312	68	5393
2026-01-21 02:44:53.86	352.42	32.91	-49.7	-52.9	14.6	0.00e+00	0	40	0	565182464	69	5692
2026-01-21 02:44:54.87	352.09	33.02	-49.9	-53.3	14.3	7.00e-07	0	40	0	567279616	70	5594
2026-01-21 02:44:55.88	351.76	33.12	-50.0	-53.5	13.9	0.00e+00	0	40	0	569376768	70	5750
2026-01-21 02:44:56.89	351.42	33.22	-50.1	-53.5	14.0	7.00e-07	0	40	0	571473920	70	5770
2026-01-21 02:44:57.89	351.09	33.33	-50.2	-53.7	13.9	3.80e-06	0	40	0	572522496	70	5916
2026-01-21 02:44:58.90	350.76	33.43	-50.2	-53.7	13.7	3.35e-05	0	40	0	574619648	71	5584
2026-01-21 02:44:59.91	350.42	33.53	-49.6	-52.5	15.0	0.00e+00	0	40	0	576716800	71	4821
2026-01-21 02:45:00.92	350.07	33.63	-48.5	-50.8	16.4	0.00e+00	0	40	0	578813952	69	4477
2026-01-21 02:45:01.92	349.73	33.73	-48.2	-50.3	17.1	0.00e+00	0	40	0	580911104	68	4458
2026-01-21 02:45:02.93	349.39	33.83	-48.0	-50.2	17.2	0.00e+00	0	40	0	581959680	68	4411
2026-01-21 02:45:03.94	349.04	33.92	-48.4	-50.8	16.6	0.00e+00	0	40	0	584056832	68	4739
2026-01-21 02:45:04.95	348.69	34.02	-49.6	-52.7	14.7	0.00e+00	0	40	0	586153984	70	5273
2026-01-21 02:45:05.95	348.34	34.11	-49.5	-52.6	15.0	0.00e+00	0	40	0	588251136	70	5168
2026-01-21 02:45:06.96	347.99	34.21	-49.5	-52.6	14.9	0.00e+00	0	40	0	590348288	70	5173
2026-01-21 02:45:07.97	347.63	34.30	-49.3	-52.0	15.5	0.00e+00	0	40	0	592445440	70	4862
2026-01-21 02:45:08.98	347.27	34.40	-48.7	-51.2	16.4	0.00e+00	0	40	0	593494016	68	4931
2026-01-21 02:45:09.99	346.91	34.49	-48.4	-50.8	16.7	0.00e+00	0	40	0	595591168	68	4718
2026-01-21 02:45:10.99	346.55	34.58	-48.8	-51.5	16.0	0.00e+00	0	40	0	597688320	68	5107
2026-01-21 02:45:12.00	346.19	34.67	-49.8	-53.1	14.4	0.00e+00	0	40	0	599785472	70	5501
2026-01-21 02:45:13.01	345.82	34.76	-49.8	-53.3	14.2	0.00e+00	0	40	0	600834048	70	5601
2026-01-21 02:45:14.02	345.45	34.84	-49.7	-53.0	14.6	7.00e-07	0	40	0	602931200	70	5405
2026-01-21 02:45:15.02	345.09	34.93	-49.2	-52.0	15.6	0.00e+00	0	40	0	605028352	70	4815
2026-01-21 02:45:16.03	344.72	35.02	-48.4	-50.7	16.7	0.00e+00	0	40	0	607125504	68	4702
2026-01-21 02:45:17.04	344.34	35.10	-47.8	-49.8	17.5	0.00e+00	0	40	0	609222656	67	4472
2026-01-21 02:45:18.05	343.96	35.18	-47.9	-50.0	17.3	0.00e+00	0	40	0	610271232	67	4559
2026-01-21 02:45:19.06	343.59	35.27	-47.6	-49.6	17.5	0.00e+00	0	40	0	612368384	67	4363
2026-01-21 02:45:20.07	343.21	35.35	-47.7	-49.8	17.5	0.00e+00	0	40	0	614465536	66	4718
2026-01-21 02:45:21.07	342.83	35.42	-47.3	-49.3	17.9	0.00e+00	0	40	0	616562688	66	4457
2026-01-21 02:45:22.08	342.44	35.50	-47.0	-48.9	18.3	0.00e+00	0	40	0	618659840	66	4283
2026-01-21 02:45:23.09	342.06	35.58	-46.8	-48.6	18.6	0.00e+00	0	40	0	620756992	65	4352
2026-01-21 02:45:24.10	341.67	35.66	-46.7	-48.5	18.7	0.00e+00	0	40	0	621805568	65	4323
2026-01-21 02:45:25.10	341.29	35.73	-46.7	-48.4	18.9	0.00e+00	0	40	0	623902720	65	4275
2026-01-21 02:45:26.11	340.89	35.80	-47.1	-49.0	18.4	0.00e+00	0	40	0	625999872	65	4561
2026-01-21 02:45:27.12	340.50	35.87	-47.0	-48.9	18.4	0.00e+00	0	40	0	628097024	65	4494
2026-01-21 02:45:28.13	340.11	35.94	-46.9	-48.7	18.5	0.00e+00	0	40	0	629145600	65	4434
2026-01-21 02:45:29.14	339.71	36.01	-46.4	-48.1	19.1	0.00e+00	0	40	0	631242752	64	4387
2026-01-21 02:45:30.15	339.31	36.08	-46.3	-47.9	19.4	0.00e+00	0	40	0	633339904	64	4284
2026-01-21 02:45:31.15	338.92	36.14	-46.1	-47.7	19.6	0.00e+00	0	40	0	635437056	64	4178
2026-01-21 02:45:32.16	338.52	36.21	-46.2	-47.7	19.6	0.00e+00	0	40	0	637534208	63	4432
2026-01-21 02:45:33.17	338.11	36.27	-45.7	-47.1	20.2	0.00e+00	0	40	0	639631360	63	4132
2026-01-21 02:45:34.18	337.71	36.33	-45.0	-46.4	20.8	0.00e+00	0	40	0	640679936	62	4005
2026-01-21 02:45:35.19	337.30	36.39	-44.9	-46.2	21.0	0.00e+00	0	40	0	642777088	61	4171
2026-01-21 02:45:36.19	336.90	36.45	-45.0	-46.3	20.9	0.00e+00	0	40	0	644874240	61	4223
2026-01-21 02:45:37.20	336.49	36.51	-45.1	-46.4	20.8	0.00e+00	0	40	0	646971392	61	4259
2026-01-21 02:45:38.21	336.08	36.56	-45.3	-46.7	20.5	0.00e+00	0	40	0	649068544	61	4397
2026-01-21 02:45:39.21	335.67	36.62	-45.6	-47.0	20.3	0.00e+00	0	40	0	650117120	61	4556
2026-01-21 02:45:40.22	335.26	36.67	-45.6	-47.0	20.3	0.00e+00	0	40	0	652214272	62	4319
2026-01-21 02:45:41.23	334.85	36.72	-45.2	-46.4	20.8	0.00e+00	0	40	0	654311424	62	4050
2026-01-21 02:45:42.24	334.43	36.77	-44.2	-45.3	21.8	0.00e+00	0	40	0	656408576	60	3979
2026-01-21 02:45:43.25	334.01	36.82	-44.2	-45.3	22.0	0.00e+00	0	40	0	657457152	59	4239
2026-01-21 02:45:44.25	333.60	36.86	-44.6	-45.7	21.7	0.00e+00	0	40	0	659554304	59	4439
2026-01-21 02:45:45.26	333.18	36.90	-44.5	-45.7	21.6	0.00e+00	0	40	0	661651456	60	4153
2026-01-21 02:45:46.27	332.76	36.95	-44.4	-45.6	21.6	0.00e+00	0	40	0	663748608	60	4112
2026-01-21 02:45:47.28	332.34	36.99	-44.5	-45.7	21.6	0.00e+00	0	40	0	665845760	60	4171
2026-01-21 02:45:48.29	331.92	37.03	-44.6	-45.8	21.5	0.00e+00	0	40	0	667942912	60	4197
2026-01-21 02:45:49.29	331.50	37.06	-44.6	-45.8	21.5	0.00e+00	0	40	0	668991488	60	4222
2026-01-21 02:45:50.30	331.07	37.10	-45.3	-46.6	20.7	0.00e+00	0	40	0	671088640	61	4385
2026-01-21 02:45:51.31	330.65	37.13	-45.9	-47.4	20.0	0.00e+00	0	40	0	673185792	62	4530
2026-01-21 02:45:52.32	330.22	37.16	-46.1	-47.6	19.8	0.00e+00	0	40	0	675282944	63	4347
2026-01-21 02:45:53.33	329.80	37.19	-45.2	-46.5	20.8	0.00e+00	0	40	0	677380096	62	4074
2026-01-21 02:45:54.33	329.37	37.22	-44.6	-45.8	21.5	0.00e+00	0	40	0	678428672	60	4205
2026-01-21 02:45:55.34	328.94	37.25	-44.1	-45.2	22.0	0.00e+00	0	40	0	680525824	60	3941
2026-01-21 02:45:56.35	328.52	37.27	-44.3	-45.4	22.0	0.00e+00	0	40	0	682622976	59	4279
2026-01-21 02:45:57.36	328.09	37.29	-44.3	-45.4	22.1	0.00e+00	0	40	0	684720128	59	4268
2026-01-21 02:45:58.36	327.66	37.31	-44.5	-45.6	21.9	0.00e+00	0	40	0	686817280	59	4387
2026-01-21 02:45:59.37	327.23	37.33	-44.8	-46.0	21.4	0.00e+00	0	40	0	687865856	60	4314
2026-01-21 02:46:00.38	326.80	37.35	-45.0	-46.2	21.1	0.00e+00	0	40	0	689963008	60	4434
2026-01-21 02:46:01.39	326.37	37.37	-45.0	-46.3	21.1	0.00e+00	0	40	0	692060160	61	4199
2026-01-21 02:46:02.39	325.94	37.38	-45.1	-46.3	21.1	0.00e+00	0	40	0	694157312	61	4194
2026-01-21 02:46:03.40	325.51	37.39	-45.4	-46.7	20.8	0.00e+00	0	40	0	696254464	61	4405
2026-01-21 02:46:04.41	325.07	37.40	-45.6	-46.9	20.5	0.00e+00	0	40	0	697303040	62	4282
2026-01-21 02:46:05.42	324.64	37.41	-45.9	-47.3	20.1	0.00e+00	0	40	0	699400192	63	4229
2026-01-21 02:46:06.42	324.21	37.41	-46.1	-47.6	19.9	0.00e+00	0	40	0	701497344	63	4345
2026-01-21 02:46:07.43	323.78	37.42	-46.3	-47.8	19.7	0.00e+00	0	40	0	703594496	63	4442
2026-01-21 02:46:08.44	323.35	37.42	-46.6	-48.2	19.3	0.00e+00	0	40	0	705691648	64	4407
2026-01-21 02:46:09.45	322.91	37.42	-46.8	-48.5	19.0	0.00e+00	0	40	0	706740224	64	4555
2026-01-21 02:46:10.46	322.48	37.42	-46.6	-48.2	19.3	0.00e+00	0	40	0	708837376	64	4409
2026-01-21 02:46:11.47	322.05	37.42	-46.6	-48.2	19.3	0.00e+00	0	40	0	710934528	64	4396
2026-01-21 02:46:12.48	321.61	37.41	-46.4	-48.0	19.5	0.00e+00	0	40	0	713031680	64	4320
2026-01-21 02:46:13.49	321.18	37.41	-46.7	-48.4	19.2	0.00e+00	0	40	0	715128832	64	4500
2026-01-21 02:46:14.49	320.75	37.40	-46.9	-48.5	19.0	0.00e+00	0	40	0	716177408	64	4598
2026-01-21 02:46:15.50	320.32	37.39	-47.0	-48.8	19.0	0.00e+00	0	40	0	718274560	64	4717
2026-01-21 02:46:16.51	319.89	37.37	-46.6	-48.1	19.4	0.00e+00	0	40	0	720371712	64	4382
2026-01-21 02:46:17.51	319.46	37.36	-46.3	-47.8	19.7	0.00e+00	0	40	0	722468864	64	4200
2026-01-21 02:46:18.52	319.03	37.34	-46.2	-47.6	19.8	0.00e+00	0	40	0	724566016	63	4368
2026-01-21 02:46:19.53	318.60	37.32	-46.4	-47.9	19.6	0.00e+00	0	40	0	725614592	63	4506
2026-01-21 02:46:20.54	318.17	37.30	-46.7	-48.3	19.2	0.00e+00	0	40	0	727711744	64	4467
2026-01-21 02:46:21.54	317.74	37.28	-46.8	-48.5	19.0	0.00e+00	0	40	0	729808896	64	4569
2026-01-21 02:46:22.55	317.31	37.26	-46.6	-48.3	19.2	0.00e+00	0	40	0	731906048	64	4455
2026-01-21 02:46:23.56	316.88	37.23	-46.1	-47.6	19.6	0.00e+00	0	40	0	734003200	64	4130
2026-01-21 02:46:24.57	316.45	37.21	-46.9	-48.6	18.8	0.00e+00	0	40	0	735051776	64	4627
2026-01-21 02:46:25.58	316.03	37.18	-47.3	-49.2	18.3	0.00e+00	0	40	0	737148928	65	4693
2026-01-21 02:46:26.59	315.60	37.15	-48.3	-50.7	16.8	0.00e+00	0	40	0	739246080	67	4965
2026-01-21 02:46:27.60	315.17	37.11	-48.6	-51.1	16.4	0.00e+00	0	40	0	741343232	67	5166
2026-01-21 02:46:28.60	314.75	37.08	-48.0	-50.2	17.2	0.00e+00	0	40	0	743440384	67	4672
2026-01-21 02:46:29.61	314.33	37.04	-47.3	-49.1	18.2	0.00e+00	0	40	0	744488960	66	4368
2026-01-21 02:46:30.62	313.91	37.01	-47.2	-49.1	18.3	0.00e+00	0	40	0	746586112	66	4357
2026-01-21 02:46:31.63	313.48	36.97	-46.9	-48.6	18.7	0.00e+00	0	40	0	748683264	65	4374
2026-01-21 02:46:32.64	313.06	36.93	-47.2	-49.1	18.4	0.00e+00	0	40	0	750780416	65	4619
2026-01-21 02:46:33.64	312.65	36.88	-47.1	-49.0	18.3	0.00e+00	0	40	0	752877568	65	4585
2026-01-21 02:46:34.65	312.23	36.84	-47.2	-49.1	18.2	0.00e+00	0	40	0	754974720	65	4616
2026-01-21 02:46:35.66	311.81	36.79	-47.2	-49.1	18.2	0.00e+00	0	40	0	756023296	65	4627
2026-01-21 02:46:36.67	311.39	36.74	-47.4	-49.4	18.0	0.00e+00	0	40	0	758120448	65	4768
2026-01-21 02:46:37.68	310.98	36.69	-47.4	-49.3	18.1	0.00e+00	0	40	0	760217600	66	4457
2026-01-21 02:46:38.69	310.57	36.64	-47.4	-49.3	18.1	0.00e+00	0	40	0	762314752	66	4444
2026-01-21 02:46:39.69	310.16	36.59	-46.9	-48.5	18.7	0.00e+00	0	40	0	763363328	65	4338
2026-01-21 02:46:40.70	309.75	36.54	-46.8	-48.4	18.8	0.00e+00	0	40	0	765460480	65	4288
2026-01-21 02:46:41.71	309.34	36.48	-46.7	-48.4	18.9	0.00e+00	0	40	0	767557632	65	4279
2026-01-21 02:46:42.72	308.93	36.42	-46.5	-48.3	19.0	0.00e+00	0	40	0	769654784	64	4445
2026-01-21 02:46:43.72	308.52	36.36	-46.9	-48.7	18.5	0.00e+00	0	40	0	771751936	64	4685
2026-01-21 02:46:44.73	308.12	36.30	-47.2	-49.2	18.1	0.00e+00	0	40	0	772800512	65	4678
2026-01-21 02:46:45.74	307.72	36.24	-48.5	-51.2	16.3	0.00e+00	0	40	0	774897664	67	5220
2026-01-21 02:46:46.75	307.31	36.18	-49.2	-52.3	15.3	0.00e+00	0	40	0	776994816	68	5637
2026-01-21 02:46:47.75	306.92	36.11	-48.6	-51.2	16.0	0.00e+00	0	40	0	779091968	69	4693
2026-01-21 02:46:48.76	306.52	36.05	-48.4	-50.9	16.6	0.00e+00	0	40	0	781189120	68	4765
2026-01-21 02:46:49.77	306.12	35.98	-47.8	-50.1	17.2	0.00e+00	0	40	0	783286272	67	4608
2026-01-21 02:46:50.78	305.72	35.91	-46.8	-48.7	18.5	0.00e+00	0	40	0	784334848	65	4403
2026-01-21 02:46:51.79	305.33	35.84	-46.3	-47.9	19.2	0.00e+00	0	40	0	786432000	64	4284
2026-01-21 02:46:52.79	304.94	35.77	-45.9	-47.4	19.8	0.00e+00	0	40	0	788529152	63	4259
2026-01-21 02:46:53.80	304.55	35.69	-46.6	-48.3	19.0	0.00e+00	0	40	0	790626304	63	4717
2026-01-21 02:46:54.81	304.16	35.62	-47.2	-49.3	18.1	0.00e+00	0	40	0	791674880	64	4985
2026-01-21 02:46:55.81	303.78	35.54	-47.6	-49.7	17.6	0.00e+00	0	40	0	793772032	66	4672
2026-01-21 02:46:56.82	303.39	35.46	-47.6	-49.6	17.8	0.00e+00	0	40	0	795869184	66	4648
2026-01-21 02:46:57.83	303.01	35.39	-46.7	-48.4	18.9	0.00e+00	0	40	0	797966336	65	4271
2026-01-21 02:46:58.84	302.63	35.31	-46.1	-47.6	19.7	0.00e+00	0	40	0	800063488	63	4388
2026-01-21 02:46:59.85	302.25	35.22	-45.5	-46.9	20.5	0.00e+00	0	40	0	801112064	63	4020
2026-01-21 02:47:00.86	301.87	35.14	-45.2	-46.4	20.7	0.00e+00	0	40	0	803209216	62	4031
2026-01-21 02:47:01.87	301.50	35.06	-45.5	-46.9	20.5	0.00e+00	0	40	0	805306368	62	4244
2026-01-21 02:47:02.87	301.13	34.97	-46.1	-47.6	19.9	0.00e+00	0	40	0	807403520	62	4630
2026-01-21 02:47:03.88	300.75	34.89	-46.7	-48.4	19.1	0.00e+00	0	40	0	809500672	63	4810
2026-01-21 02:47:04.89	300.38	34.80	-47.0	-48.8	18.6	0.00e+00	0	40	0	811597824	64	4754
2026-01-21 02:47:05.90	300.02	34.71	-47.3	-49.2	18.2	0.00e+00	0	40	0	812646400	65	4677
2026-01-21 02:47:06.91	299.65	34.62	-47.8	-49.9	17.6	0.00e+00	0	40	0	814743552	66	4811
2026-01-21 02:47:07.91	299.29	34.53	-47.9	-50.1	17.3	0.00e+00	0	40	0	816840704	66	4891
2026-01-21 02:47:08.92	298.93	34.44	-47.4	-49.3	17.9	0.00e+00	0	40	0	818937856	66	4491
2026-01-21 02:47:09.93	298.57	34.35	-46.8	-48.5	18.9	0.00e+00	0	40	0	819986432	65	4322
2026-01-21 02:47:10.94	298.21	34.26	-46.4	-48.1	19.3	0.00e+00	0	40	0	822083584	64	4357
2026-01-21 02:47:11.95	297.86	34.16	-46.9	-48.7	18.6	0.00e+00	0	40	0	824180736	64	4697
2026-01-21 02:47:12.95	297.51	34.07	-46.8	-48.5	18.9	0.00e+00	0	40	0	826277888	64	4578
2026-01-21 02:47:13.96	297.15	33.97	-46.9	-48.7	18.7	0.00e+00	0	40	0	828375040	64	4662
2026-01-21 02:47:14.97	296.80	33.87	-47.6	-49.6	17.8	0.00e+00	0	40	0	830472192	65	4921
2026-01-21 02:47:15.98	296.46	33.77	-48.0	-50.2	17.3	0.00e+00	0	40	0	831520768	66	4975
2026-01-21 02:47:16.99	296.11	33.67	-48.0	-50.2	17.3	0.00e+00	0	40	0	833617920	66	4966
2026-01-21 02:47:17.99	295.77	33.58	-47.8	-49.9	17.5	0.00e+00	0	40	0	835715072	66	4794
2026-01-21 02:47:19.00	295.43	33.48	-47.4	-49.3	18.2	0.00e+00	0	40	0	837812224	66	4467
2026-01-21 02:47:20.01	295.09	33.37	-47.4	-49.3	18.1	0.00e+00	0	40	0	839909376	66	4490
2026-01-21 02:47:21.02	294.76	33.27	-47.2	-49.0	18.4	0.00e+00	0	40	0	840957952	66	4339
2026-01-21 02:47:22.03	294.42	33.17	-46.7	-48.3	19.1	0.00e+00	0	40	0	843055104	65	4213
2026-01-21 02:47:23.03	294.09	33.06	-46.3	-47.8	19.6	0.00e+00	0	40	0	845152256	64	4217
2026-01-21 02:47:24.04	293.76	32.96	-46.2	-47.7	19.6	0.00e+00	0	40	0	847249408	64	4153
2026-01-21 02:47:25.05	293.43	32.85	-46.7	-48.3	19.0	0.00e+00	0	40	0	848297984	64	4486
2026-01-21 02:47:26.06	293.11	32.75	-47.3	-49.2	18.2	0.00e+00	0	40	0	850395136	65	4655
2026-01-21 02:47:27.06	292.79	32.64	-47.4	-49.3	18.1	0.00e+00	0	40	0	852492288	66	4462
2026-01-21 02:47:28.07	292.46	32.54	-47.2	-48.9	18.4	0.00e+00	0	40	0	854589440	66	4290
2026-01-21 02:47:29.08	292.14	32.43	-46.3	-47.8	19.5	0.00e+00	0	40	0	856686592	64	4237
2026-01-21 02:47:30.09	291.83	32.32	-46.0	-47.4	19.9	0.00e+00	0	40	0	858783744	63	4254
2026-01-21 02:47:31.10	291.51	32.21	-45.9	-47.3	20.1	0.00e+00	0	40	0	859832320	63	4196
2026-01-21 02:47:32.11	291.20	32.10	-45.8	-47.2	20.2	0.00e+00	0	40	0	861929472	63	4163
2026-01-21 02:47:33.11	290.89	31.99	-46.0	-47.4	20.0	0.00e+00	0	40	0	864026624	63	4273
2026-01-21 02:47:34.12	290.58	31.88	-46.9	-48.5	18.8	0.00e+00	0	40	0	866123776	64	4595
2026-01-21 02:47:35.13	290.27	31.77	-47.6	-49.5	18.0	0.00e+00	0	40	0	868220928	65	4848
2026-01-21 02:47:36.14	289.97	31.66	-47.4	-49.3	18.2	0.00e+00	0	40	0	869269504	66	4458
2026-01-21 02:47:37.14	289.67	31.54	-46.9	-48.5	18.8	0.00e+00	0	40	0	871366656	65	4325
2026-01-21 02:47:38.15	289.37	31.43	-46.5	-48.1	19.3	0.00e+00	0	40	0	873463808	64	4368
2026-01-21 02:47:39.16	289.07	31.32	-46.7	-48.3	19.0	0.00e+00	0	40	0	875560960	64	4488
2026-01-21 02:47:40.17	288.77	31.20	-47.2	-48.9	18.5	0.00e+00	0	40	0	877658112	64	4803
2026-01-21 02:47:41.18	288.48	31.09	-47.2	-49.0	18.4	0.00e+00	0	40	0	878706688	65	4583
2026-01-21 02:47:42.19	288.19	30.98	-47.5	-49.4	17.8	0.00e+00	0	40	0	880803840	65	4766
2026-01-21 02:47:43.19	287.90	30.86	-47.7	-49.7	17.7	0.00e+00	0	40	0	882900992	66	4663
2026-01-21 02:47:44.20	287.61	30.75	-47.8	-49.8	17.7	0.00e+00	0	40	0	884998144	66	4716
2026-01-21 02:47:45.21	287.33	30.63	-48.5	-50.8	16.7	0.00e+00	0	40	0	887095296	67	4998
2026-01-21 02:47:46.22	287.04	30.52	-48.8	-51.2	16.3	0.00e+00	0	40	0	888143872	68	4959
2026-01-21 02:47:47.22	286.76	30.40	-48.8	-51.1	16.5	0.00e+00	0	40	0	890241024	69	4645
2026-01-21 02:47:48.23	286.48	30.28	-48.5	-50.7	16.9	0.00e+00	0	40	0	892338176	69	4431
2026-01-21 02:47:49.24	286.21	30.17	-48.2	-50.2	17.4	0.00e+00	0	40	0	894435328	68	4441
2026-01-21 02:47:50.24	285.93	30.05	-48.0	-50.0	17.5	0.00e+00	0	40	0	896532480	67	4575
2026-01-21 02:47:51.25	285.66	29.93	-48.1	-50.1	17.4	0.00e+00	0	40	0	898629632	67	4640
2026-01-21 02:47:52.26	285.39	29.81	-48.0	-50.0	17.5	0.00e+00	0	40	0	899678208	67	4557
2026-01-21 02:47:53.27	285.12	29.70	-48.1	-50.2	17.4	0.00e+00	0	40	0	901775360	67	4652
2026-01-21 02:47:54.28	284.85	29.58	-47.7	-49.5	18.0	0.00e+00	0	40	0	903872512	67	4319
2026-01-21 02:47:55.29	284.58	29.46	-47.4	-49.2	18.2	0.00e+00	0	40	0	905969664	66	4409
2026-01-21 02:47:56.29	284.32	29.34	-47.2	-48.9	18.5	0.00e+00	0	40	0	907018240	66	4288
2026-01-21 02:47:57.30	284.06	29.22	-46.8	-48.5	18.9	0.00e+00	0	40	0	909115392	65	4304
2026-01-21 02:47:58.31	283.80	29.10	-46.6	-48.1	19.3	0.00e+00	0	40	0	911212544	64	4377
2026-01-21 02:47:59.32	283.54	28.99	-45.9	-47.2	20.1	0.00e+00	0	40	0	913309696	63	4191
2026-01-21 02:48:00.32	283.29	28.87	-45.5	-46.7	20.6	0.00e+00	0	40	0	915406848	62	4191
2026-01-21 02:48:01.33	283.04	28.75	-45.2	-46.4	20.9	0.00e+00	0	40	0	916455424	62	4026
2026-01-21 02:48:02.34	282.78	28.63	-45.5	-46.8	20.6	0.00e+00	0	40	0	918552576	62	4213
2026-01-21 02:48:03.35	282.53	28.51	-45.7	-47.0	20.3	0.00e+00	0	40	0	920649728	62	4339
2026-01-21 02:48:04.36	282.28	28.39	-46.0	-47.5	20.0	0.00e+00	0	40	0	922746880	62	4550
2026-01-21 02:48:05.37	282.04	28.27	-46.4	-48.0	19.5	0.00e+00	0	40	0	924844032	63	4549
2026-01-21 02:48:06.38	281.79	28.15	-46.7	-48.2	19.3	0.00e+00	0	40	0	926941184	63	4697
2026-01-21 02:48:07.39	281.55	28.03	-46.6	-48.1	19.2	0.00e+00	0	40	0	927989760	64	4383
2026-01-21 02:48:08.39	281.31	27.91	-46.4	-47.9	19.5	0.00e+00	0	40	0	930086912	64	4255
2026-01-21 02:48:09.40	281.07	27.79	-46.0	-47.4	19.9	0.00e+00	0	40	0	932184064	64	4015
2026-01-21 02:48:10.41	280.83	27.67	-46.0	-47.4	19.9	0.00e+00	0	40	0	934281216	63	4272
2026-01-21 02:48:11.42	280.60	27.55	-45.8	-47.1	20.2	0.00e+00	0	40	0	935329792	63	4134
2026-01-21 02:48:12.43	280.36	27.43	-45.7	-47.0	20.3	0.00e+00	0	40	0	937426944	63	4093
2026-01-21 02:48:13.43	280.13	27.31	-45.7	-47.0	20.3	0.00e+00	0	40	0	939524096	63	4094
2026-01-21 02:48:14.44	279.90	27.19	-46.2	-47.7	19.8	0.00e+00	0	40	0	941621248	63	4392
2026-01-21 02:48:15.45	279.67	27.07	-46.5	-48.1	19.5	0.00e+00	0	40	0	943718400	63	4609
2026-01-21 02:48:16.46	279.45	26.95	-46.2	-47.7	19.7	0.00e+00	0	40	0	945815552	63	4408
2026-01-21 02:48:17.46	279.22	26.83	-45.9	-47.3	20.1	0.00e+00	0	40	0	946864128	63	4216
2026-01-21 02:48:18.47	279.00	26.71	-45.4	-46.7	20.6	0.00e+00	0	40	0	948961280	62	4178
2026-01-21 02:48:19.48	278.78	26.59	-45.0	-46.2	21.0	0.00e+00	0	40	0	951058432	62	3955
2026-01-21 02:48:20.49	278.56	26.47	-45.2	-46.4	20.9	0.00e+00	0	40	0	953155584	62	4037
2026-01-21 02:48:21.50	278.34	26.35	-45.0	-46.2	21.1	0.00e+00	0	40	0	955252736	62	3954
2026-01-21 02:48:22.50	278.13	26.23	-45.2	-46.5	20.8	0.00e+00	0	40	0	956301312	61	4308
2026-01-21 02:48:23.51	277.91	26.11	-45.0	-46.3	20.9	0.00e+00	0	40	0	958398464	61	4212
2026-01-21 02:48:24.52	277.70	25.99	-45.3	-46.6	20.6	0.00e+00	0	40	0	960495616	61	4391
2026-01-21 02:48:25.53	277.49	25.88	-45.4	-46.7	20.5	0.00e+00	0	40	0	962592768	61	4432
2026-01-21 02:48:26.54	277.27	25.76	-45.3	-46.6	20.6	0.00e+00	0	40	0	963641344	61	4372
2026-01-21 02:48:27.55	277.07	25.64	-45.7	-47.0	20.3	0.00e+00	0	40	0	965738496	61	4591
2026-01-21 02:48:28.55	276.86	25.52	-45.7	-47.1	20.2	0.00e+00	0	40	0	967835648	62	4366
2026-01-21 02:48:29.56	276.66	25.40	-45.8	-47.2	20.1	0.00e+00	0	40	0	969932800	62	4423
2026-01-21 02:48:30.57	276.45	25.28	-45.6	-46.9	20.4	0.00e+00	0	40	0	972029952	62	4270
2026-01-21 02:48:31.58	276.25	25.16	-45.4	-46.7	20.5	0.00e+00	0	40	0	974127104	62	4190
2026-01-21 02:48:32.58	276.05	25.04	-45.3	-46.5	20.7	0.00e+00	0	40	0	975175680	62	4098
2026-01-21 02:48:33.59	275.85	24.93	-45.0	-46.2	21.0	0.00e+00	0	40	0	977272832	62	3948
2026-01-21 02:48:34.60	275.65	24.81	-45.3	-46.6	20.5	0.00e+00	0	40	0	979369984	61	4368
2026-01-21 02:48:35.61	275.46	24.69	-45.4	-46.7	20.6	0.00e+00	0	40	0	981467136	61	4405
2026-01-21 02:48:36.62	275.26	24.57	-45.6	-46.9	20.3	0.00e+00	0	40	0	983564288	61	4534
2026-01-21 02:48:37.63	275.07	24.45	-45.4	-46.7	20.5	0.00e+00	0	40	0	984612864	61	4439
2026-01-21 02:48:38.64	274.88	24.34	-45.7	-47.1	20.2	0.00e+00	0	40	0	986710016	62	4358
2026-01-21 02:48:39.65	274.68	24.22	-45.9	-47.3	20.0	0.00e+00	0	40	0	988807168	62	4445
2026-01-21 02:48:40.65	274.50	24.10	-45.8	-47.2	20.1	0.00e+00	0	40	0	990904320	62	4425
2026-01-21 02:48:41.66	274.31	23.98	-45.5	-46.8	20.4	0.00e+00	0	40	0	993001472	62	4218
2026-01-21 02:48:42.67	274.12	23.87	-45.9	-47.3	20.0	0.00e+00	0	40	0	994050048	62	4477
2026-01-21 02:48:43.68	273.94	23.75	-45.7	-47.1	20.2	0.00e+00	0	40	0	996147200	62	4363
2026-01-21 02:48:44.69	273.75	23.63	-45.9	-47.3	20.1	0.00e+00	0	40	0	998244352	62	4456
2026-01-21 02:48:45.69	273.57	23.52	-46.3	-47.9	19.5	0.00e+00	0	40	0	1000341504	63	4499
2026-01-21 02:48:46.70	273.39	23.40	-46.3	-47.9	19.5	0.00e+00	0	40	0	1002438656	63	4495
2026-01-21 02:48:47.71	273.21	23.29	-46.4	-48.0	19.5	0.00e+00	0	40	0	1003487232	63	4547
2026-01-21 02:48:48.72	273.04	23.17	-46.6	-48.1	19.3	0.00e+00	0	40	0	1005584384	63	4627
2026-01-21 02:48:49.72	272.86	23.06	-46.5	-48.0	19.4	0.00e+00	0	40	0	1007681536	63	4562
2026-01-21 02:48:50.74	272.68	22.94	-46.2	-47.6	19.8	0.00e+00	0	40	0	1009778688	63	4364
2026-01-21 02:48:51.74	272.51	22.83	-46.2	-47.7	19.7	0.00e+00	0	40	0	1011875840	63	4409
2026-01-21 02:48:52.75	272.34	22.71	-46.3	-47.7	19.6	0.00e+00	0	40	0	1012924416	63	4425
2026-01-21 02:48:53.76	272.17	22.60	-46.4	-47.9	19.5	0.00e+00	0	40	0	1015021568	63	4498
2026-01-21 02:48:54.77	272.00	22.48	-46.6	-48.2	19.2	0.00e+00	0	40	0	1017118720	63	4687
2026-01-21 02:48:55.78	271.83	22.37	-46.5	-48.1	19.1	0.00e+00	0	40	0	1019215872	64	4377
2026-01-21 02:48:56.79	271.66	22.25	-46.7	-48.3	19.0	0.00e+00	0	40	0	1021313024	64	4459
2026-01-21 02:48:57.79	271.49	22.14	-46.8	-48.5	18.8	0.00e+00	0	40	0	1022361600	64	4554
2026-01-21 02:48:58.80	271.33	22.03	-47.0	-48.8	18.5	0.00e+00	0	40	0	1024458752	64	4724
2026-01-21 02:48:59.81	271.17	21.91	-47.4	-49.2	18.1	0.00e+00	0	40	0	1026555904	65	4695
2026-01-21 02:49:00.82	271.00	21.80	-47.5	-49.4	17.9	0.00e+00	0	40	0	1028653056	65	4782
2026-01-21 02:49:01.83	270.84	21.69	-47.6	-49.5	17.8	0.00e+00	0	40	0	1030750208	65	4831
2026-01-21 02:49:02.83	270.68	21.58	-47.6	-49.6	17.7	0.00e+00	0	40	0	1031798784	66	4618
2026-01-21 02:49:03.84	270.52	21.47	-47.3	-49.1	18.2	0.00e+00	0	40	0	1033895936	66	4387
2026-01-21 02:49:04.85	270.36	21.35	-46.8	-48.5	18.7	0.00e+00	0	40	0	1035993088	65	4313
2026-01-21 02:49:05.86	270.21	21.24	-46.5	-48.1	19.1	0.00e+00	0	40	0	1038090240	64	4381
2026-01-21 02:49:06.87	270.05	21.13	-46.2	-47.7	19.4	0.00e+00	0	40	0	1040187392	64	4173
2026-01-21 02:49:07.87	269.90	21.02	-45.6	-47.0	20.2	0.00e+00	0	40	0	1041235968	63	4068
2026-01-21 02:49:08.88	269.74	20.91	-45.6	-47.0	20.3	0.00e+00	0	40	0	1043333120	62	4305
2026-01-21 02:49:09.89	269.59	20.80	-45.6	-47.0	20.2	0.00e+00	0	40	0	1045430272	62	4301
2026-01-21 02:49:10.90	269.44	20.69	-45.7	-47.1	20.1	0.00e+00	0	40	0	1047527424	62	4359
2026-01-21 02:49:11.91	269.29	20.58	-46.0	-47.4	19.9	0.00e+00	0	40	0	1049624576	62	4509
2026-01-21 02:49:12.91	269.14	20.47	-46.2	-47.7	19.6	0.00e+00	0	40	0	1050673152	62	4657
2026-01-21 02:49:13.92	268.99	20.36	-46.6	-48.1	19.2	0.00e+00	0	40	0	1052770304	63	4635
2026-01-21 02:49:14.93	268.85	20.25	-46.3	-47.8	19.5	0.00e+00	0	40	0	1054867456	63	4483
2026-01-21 02:49:15.94	268.70	20.14	-46.5	-48.0	19.3	0.00e+00	0	40	0	1056964608	63	4562
2026-01-21 02:49:16.95	268.56	20.03	-46.3	-47.8	19.4	0.00e+00	0	40	0	1059061760	63	4466
2026-01-21 02:49:17.96	268.41	19.93	-45.8	-47.2	20.0	0.00e+00	0	40	0	1061158912	63	4153
2026-01-21 02:49:18.97	268.27	19.82	-45.3	-46.6	20.5	0.00e+00	0	40	0	1062207488	62	4129
2026-01-21 02:49:19.97	268.13	19.71	-44.9	-46.0	21.0	0.00e+00	0	40	0	1064304640	61	4098
2026-01-21 02:49:20.98	267.99	19.60	-44.9	-46.1	21.0	0.00e+00	0	40	0	1066401792	61	4118
2026-01-21 02:49:21.99	267.85	19.50	-45.0	-46.2	20.8	0.00e+00	0	40	0	1068498944	61	4187
2026-01-21 02:49:23.00	267.71	19.39	-45.1	-46.3	20.7	0.00e+00	0	40	0	1069547520	61	4240
2026-01-21 02:49:24.01	267.57	19.28	-45.2	-46.4	20.6	0.00e+00	0	40	0	1071644672	61	4282
2026-01-21 02:49:25.02	267.43	19.18	-45.8	-47.2	20.0	0.00e+00	0	40	0	1073741824	62	4416
2026-01-21 02:49:26.03	267.30	19.07	-46.0	-47.4	19.7	0.00e+00	0	40	0	1075838976	62	4544
2026-01-21 02:49:27.04	267.16	18.96	-46.4	-48.0	19.2	0.00e+00	0	40	0	1077936128	63	4570
2026-01-21 02:49:28.04	267.03	18.86	-46.9	-48.6	18.6	0.00e+00	0	40	0	1078984704	64	4605
2026-01-21 02:49:29.05	266.90	18.75	-47.4	-49.3	18.0	0.00e+00	0	40	0	1081081856	65	4727
2026-01-21 02:49:30.06	266.77	18.65	-48.0	-50.1	17.1	0.00e+00	0	40	0	1083179008	66	4903
2026-01-21 02:49:31.07	266.63	18.54	-48.2	-50.4	16.9	0.00e+00	0	40	0	1085276160	67	4775
2026-01-21 02:49:32.08	266.50	18.44	-48.7	-51.2	16.1	0.00e+00	0	40	0	1087373312	67	5235
2026-01-21 02:49:33.09	266.38	18.33	-48.9	-51.5	15.9	0.00e+00	0	40	0	1089470464	68	5118
2026-01-21 02:49:34.09	266.25	18.23	-48.7	-51.1	16.2	0.00e+00	0	40	0	1090519040	68	4913
2026-01-21 02:49:35.10	266.12	18.13	-48.3	-50.5	16.8	0.00e+00	0	40	0	1092616192	68	4572
2026-01-21 02:49:36.11	265.99	18.02	-47.7	-49.7	17.6	0.00e+00	0	40	0	1094713344	67	4434
2026-01-21 02:49:37.12	265.87	17.92	-47.2	-49.0	18.2	0.00e+00	0	40	0	1096810496	66	4304
2026-01-21 02:49:38.12	265.74	17.82	-46.6	-48.3	18.8	0.00e+00	0	40	0	1097859072	65	4211
2026-01-21 02:49:39.13	265.62	17.72	-46.6	-48.2	18.9	0.00e+00	0	40	0	1099956224	64	4428
2026-01-21 02:49:40.14	265.50	17.62	-46.2	-47.7	19.3	0.00e+00	0	40	0	1102053376	64	4177
2026-01-21 02:49:41.15	265.37	17.51	-46.1	-47.6	19.6	0.00e+00	0	40	0	1104150528	63	4356
2026-01-21 02:49:42.16	265.25	17.41	-46.2	-47.8	19.4	0.00e+00	0	40	0	1106247680	63	4453
2026-01-21 02:49:43.17	265.13	17.31	-46.5	-48.1	19.2	0.00e+00	0	40	0	1108344832	63	4628
2026-01-21 02:49:44.17	265.01	17.21	-46.6	-48.3	18.8	0.00e+00	0	40	0	1109393408	64	4450
2026-01-21 02:49:45.18	264.89	17.11	-47.1	-48.9	18.2	0.00e+00	0	40	0	1111490560	64	4800
2026-01-21 02:49:46.19	264.78	17.01	-47.3	-49.2	18.0	0.00e+00	0	40	0	1113587712	65	4663
2026-01-21 02:49:47.20	264.66	16.91	-47.3	-49.1	18.0	0.00e+00	0	40	0	1115684864	65	4636
2026-01-21 02:49:48.20	264.54	16.81	-47.3	-49.2	18.0	0.00e+00	0	40	0	1117782016	65	4659
2026-01-21 02:49:49.21	264.43	16.71	-47.1	-49.0	18.2	0.00e+00	0	40	0	1118830592	65	4554
2026-01-21 02:49:50.22	264.31	16.61	-46.9	-48.6	18.5	0.00e+00	0	40	0	1120927744	65	4382
2026-01-21 02:49:51.23	264.20	16.51	-46.6	-48.3	18.8	0.00e+00	0	40	0	1123024896	65	4197
2026-01-21 02:49:52.24	264.08	16.41	-46.3	-47.8	19.2	0.00e+00	0	40	0	1125122048	64	4242
2026-01-21 02:49:53.24	263.97	16.32	-46.0	-47.5	19.6	0.00e+00	0	40	0	1126170624	63	4333
2026-01-21 02:49:54.25	263.86	16.22	-46.1	-47.6	19.5	0.00e+00	0	40	0	1128267776	63	4346
2026-01-21 02:49:55.26	263.75	16.12	-46.1	-47.6	19.5	0.00e+00	0	40	0	1130364928	63	4387
2026-01-21 02:49:56.27	263.64	16.02	-46.0	-47.5	19.6	0.00e+00	0	40	0	1132462080	63	4305
2026-01-21 02:49:57.28	263.53	15.92	-46.2	-47.8	19.3	0.00e+00	0	40	0	1134559232	63	4467
2026-01-21 02:49:58.29	263.42	15.83	-46.3	-47.8	19.3	0.00e+00	0	40	0	1136656384	63	4474
2026-01-21 02:49:59.30	263.31	15.73	-46.4	-48.0	19.1	0.00e+00	0	40	0	1137704960	63	4596
2026-01-21 02:50:00.31	263.20	15.63	-46.4	-48.0	19.1	0.00e+00	0	40	0	1139802112	63	4585
2026-01-21 02:50:01.31	263.10	15.54	-46.6	-48.2	18.8	0.00e+00	0	40	0	1141899264	63	4702
2026-01-21 02:50:02.32	262.99	15.44	-46.6	-48.2	18.7	0.00e+00	0	40	0	1143996416	64	4430
2026-01-21 02:50:03.33	262.89	15.35	-46.6	-48.2	18.8	0.00e+00	0	40	0	1146093568	64	4431
2026-01-21 02:50:04.34	262.78	15.25	-46.7	-48.3	18.7	0.00e+00	0	40	0	1147142144	64	4473
2026-01-21 02:50:05.35	262.68	15.16	-46.7	-48.4	18.7	0.00e+00	0	40	0	1149239296	64	4500
2026-01-21 02:50:06.35	262.57	15.06	-46.7	-48.3	18.7	0.00e+00	0	40	0	1151336448	64	4472
2026-01-21 02:50:07.36	262.47	14.97	-46.7	-48.4	18.6	0.00e+00	0	40	0	1153433600	64	4509
2026-01-21 02:50:08.37	262.37	14.87	-46.9	-48.6	18.4	0.00e+00	0	40	0	1155530752	64	4619
2026-01-21 02:50:09.38	262.27	14.78	-46.8	-48.5	18.5	0.00e+00	0	40	0	1156579328	64	4579
2026-01-21 02:50:10.39	262.17	14.69	-46.9	-48.7	18.4	0.00e+00	0	40	0	1158676480	64	4670
2026-01-21 02:50:11.39	262.07	14.59	-46.9	-48.6	18.4	0.00e+00	0	40	0	1160773632	64	4639
2026-01-21 02:50:12.40	261.97	14.50	-46.9	-48.6	18.4	0.00e+00	0	40	0	1162870784	64	4640
2026-01-21 02:50:13.41	261.87	14.41	-46.8	-48.5	18.6	0.00e+00	0	40	0	1164967936	64	4547
2026-01-21 02:50:14.42	261.77	14.31	-46.6	-48.3	18.7	0.00e+00	0	40	0	1166016512	64	4446
2026-01-21 02:50:15.43	261.67	14.22	-46.6	-48.2	18.8	0.00e+00	0	40	0	1168113664	64	4395
2026-01-21 02:50:16.44	261.58	14.13	-46.4	-48.0	19.1	0.00e+00	0	40	0	1170210816	64	4296
2026-01-21 02:50:17.45	261.48	14.04	-46.2	-47.7	19.2	0.00e+00	0	40	0	1172307968	64	4178
2026-01-21 02:50:18.46	261.38	13.94	-46.3	-47.9	19.1	0.00e+00	0	40	0	1174405120	64	4248
2026-01-21 02:50:19.47	261.29	13.85	-46.2	-47.7	19.2	0.00e+00	0	40	0	1176502272	64	4188
2026-01-21 02:50:20.47	261.20	13.76	-46.3	-47.8	19.1	0.00e+00	0	40	0	1177550848	64	4213
2026-01-21 02:50:21.48	261.10	13.67	-46.5	-48.1	18.9	0.00e+00	0	40	0	1179648000	64	4346
2026-01-21 02:50:22.49	261.01	13.58	-46.7	-48.4	18.7	0.00e+00	0	40	0	1181745152	64	4497
2026-01-21 02:50:23.50	260.92	13.49	-46.7	-48.3	18.7	0.00e+00	0	40	0	1183842304	64	4479
2026-01-21 02:50:24.51	260.82	13.40	-47.0	-48.7	18.3	0.00e+00	0	40	0	1184890880	64	4700
2026-01-21 02:50:25.51	260.73	13.31	-47.3	-49.2	17.8	0.00e+00	0	40	0	1186988032	65	4689
2026-01-21 02:50:26.52	260.64	13.22	-47.6	-49.6	17.4	0.00e+00	0	40	0	1189085184	65	4917
2026-01-21 02:50:27.53	260.55	13.13	-47.8	-50.0	17.1	0.00e+00	0	40	0	1191182336	66	4817
2026-01-21 02:50:28.54	260.46	13.04	-48.1	-50.3	16.7	0.00e+00	0	40	0	1193279488	66	5024
2026-01-21 02:50:29.54	260.37	12.96	-48.3	-50.6	16.5	0.00e+00	0	40	0	1194328064	67	4876
2026-01-21 02:50:30.55	260.28	12.87	-48.3	-50.6	16.3	0.00e+00	0	40	0	1196425216	67	4900
2026-01-21 02:50:31.56	260.20	12.78	-48.1	-50.4	16.5	0.00e+00	0	40	0	1198522368	67	4796
2026-01-21 02:50:32.57	260.11	12.69	-48.0	-50.1	16.9	0.00e+00	0	40	0	1200619520	67	4650
2026-01-21 02:50:33.58	260.02	12.60	-47.8	-50.0	17.0	0.00e+00	0	40	0	1202716672	67	4552
2026-01-21 02:50:34.59	259.93	12.52	-47.7	-49.8	17.2	0.00e+00	0	40	0	1204813824	67	4477
2026-01-21 02:50:35.60	259.85	12.43	-47.6	-49.7	17.4	0.00e+00	0	40	0	1205862400	67	4406
2026-01-21 02:50:36.61	259.76	12.34	-47.5	-49.5	17.5	0.00e+00	0	40	0	1207959552	67	4311
2026-01-21 02:50:37.61	259.68	12.25	-47.2	-49.1	17.9	0.00e+00	0	40	0	1210056704	66	4341
2026-01-21 02:50:38.62	259.59	12.17	-46.9	-48.7	18.2	0.00e+00	0	40	0	1212153856	65	4394
2026-01-21 02:50:39.63	259.51	12.08	-46.8	-48.5	18.3	0.00e+00	0	40	0	1213202432	65	4308
2026-01-21 02:50:40.64	259.43	12.00	-46.7	-48.5	18.4	0.00e+00	0	40	0	1215299584	65	4294
2026-01-21 02:50:41.65	259.34	11.91	-46.7	-48.5	18.4	0.00e+00	0	40	0	1217396736	65	4301
2026-01-21 02:50:42.65	259.26	11.83	-46.5	-48.2	18.6	0.00e+00	0	40	0	1219493888	64	4407
2026-01-21 02:50:43.66	259.18	11.74	-46.4	-48.0	18.8	0.00e+00	0	40	0	1221591040	64	4324
2026-01-21 02:50:44.67	259.10	11.65	-46.4	-48.1	18.7	0.00e+00	0	40	0	1223688192	64	4359
2026-01-21 02:50:45.68	259.02	11.57	-46.4	-48.0	18.8	0.00e+00	0	40	0	1224736768	64	4322
2026-01-21 02:50:46.68	258.94	11.49	-46.5	-48.1	18.7	0.00e+00	0	40	0	1226833920	64	4387
2026-01-21 02:50:47.69	258.86	11.40	-46.5	-48.2	18.6	0.00e+00	0	40	0	1228931072	64	4403
2026-01-21 02:50:48.70	258.78	11.32	-46.4	-48.1	18.7	0.00e+00	0	40	0	1231028224	64	4358
2026-01-21 02:50:49.71	258.70	11.23	-46.6	-48.3	18.6	0.00e+00	0	40	0	1233125376	64	4453
2026-01-21 02:50:50.72	258.62	11.15	-46.5	-48.1	18.7	0.00e+00	0	40	0	1234173952	64	4382
2026-01-21 02:50:51.72	258.54	11.07	-46.4	-48.0	18.8	0.00e+00	0	40	0	1236271104	64	4315
2026-01-21 02:50:52.73	258.46	10.98	-46.3	-47.9	18.8	0.00e+00	0	40	0	1238368256	64	4289
2026-01-21 02:50:53.74	258.39	10.90	-46.5	-48.1	18.7	0.00e+00	0	40	0	1240465408	64	4368
2026-01-21 02:50:54.74	258.31	10.82	-46.5	-48.1	18.7	0.00e+00	0	40	0	1241513984	64	4366
