passes_logs/2026/01/21/R3.2S_Murmansk/R3.2S_Murmansk__20260121_073644_SUOMI_NPP_rec.log

#Pass ID: 20260121_073644_SUOMI NPP
#Satellite: SUOMI NPP
#Configuration: NPP
#almurnet v.1.7.20251203
#Start time: 2026-01-21 07:36:45

#Version: 2.2.20231116
#Station: R3.2S_Murmansk
#Location: 33.079688 lon 68.888172 lat
#TLE: 1 37849U 11061A   26020.31993517  .00000142  00000+0  88240-4 0  9990
#TLE: 2 37849  98.7818 322.3228 0002330  54.3778 305.7615 14.19527005737466

#Time	Az	El	Level	Level2	SNR	BER	BlckErr	Temp	State	Recorded	gain1	gain2
2026-01-21 07:36:45.74	106.15	2.09	-54.2	-69.2	3.8	1.49e+00	0	38	0	0	79	20899
2026-01-21 07:36:46.73	106.11	2.15	-54.4	-69.5	3.8	1.49e+00	0	38	104	0	79	21568
2026-01-21 07:36:47.74	106.06	2.21	-54.4	-69.5	3.8	1.49e+00	0	38	104	0	79	21511
2026-01-21 07:36:48.75	106.02	2.27	-54.4	-69.4	3.8	1.49e+00	0	38	104	0	79	21438
2026-01-21 07:36:49.76	105.98	2.33	-54.4	-69.4	3.8	1.49e+00	0	38	104	0	79	21364
2026-01-21 07:36:50.76	105.93	2.40	-54.3	-69.4	3.8	1.49e+00	0	38	104	0	79	21264
2026-01-21 07:36:51.78	105.89	2.46	-54.3	-69.3	3.8	1.49e+00	0	38	104	0	79	21177
2026-01-21 07:36:52.78	105.85	2.52	-54.2	-69.2	3.8	1.49e+00	0	38	104	0	79	21010
2026-01-21 07:36:53.79	105.80	2.58	-54.1	-69.2	3.8	1.49e+00	0	38	104	0	79	20799
2026-01-21 07:36:54.79	105.76	2.65	-54.1	-69.1	3.8	1.49e+00	0	38	104	0	79	20660
2026-01-21 07:36:55.80	105.71	2.71	-54.0	-69.0	3.8	1.49e+00	0	38	104	0	79	20461
2026-01-21 07:36:56.81	105.67	2.77	-54.0	-69.0	3.8	1.49e+00	0	38	104	0	79	20310
2026-01-21 07:36:57.82	105.62	2.84	-53.9	-68.9	3.8	1.49e+00	0	38	104	0	79	20198
2026-01-21 07:36:58.82	105.58	2.90	-53.8	-68.9	3.8	1.49e+00	0	38	104	0	79	20100
2026-01-21 07:36:59.83	105.53	2.96	-53.8	-68.8	3.8	1.49e+00	0	38	104	0	79	19959
2026-01-21 07:37:00.84	105.49	3.03	-53.7	-68.7	3.8	1.49e+00	0	38	104	0	79	19780
2026-01-21 07:37:01.85	105.44	3.09	-53.7	-68.7	3.8	1.49e+00	0	38	104	0	79	19655
2026-01-21 07:37:02.86	105.39	3.15	-53.6	-68.5	3.8	1.49e+00	0	38	104	0	79	19348
2026-01-21 07:37:03.87	105.35	3.22	-53.5	-68.5	3.8	1.49e+00	0	38	104	0	79	19290
2026-01-21 07:37:04.87	105.30	3.28	-53.5	-68.5	3.8	1.49e+00	0	38	104	0	78	20364
2026-01-21 07:37:05.88	105.26	3.34	-53.4	-68.3	3.8	1.49e+00	0	38	104	0	78	20068
2026-01-21 07:37:06.89	105.21	3.41	-53.3	-68.3	3.8	1.49e+00	0	39	104	0	78	19865
2026-01-21 07:37:07.90	105.16	3.47	-53.2	-68.2	3.8	1.49e+00	0	38	104	0	78	19660
2026-01-21 07:37:08.90	105.11	3.54	-53.1	-68.1	3.8	1.49e+00	0	39	104	0	78	19398
2026-01-21 07:37:09.91	105.07	3.60	-52.9	-67.9	3.8	1.49e+00	0	38	104	0	77	20190
2026-01-21 07:37:10.92	105.02	3.67	-52.7	-67.7	3.8	1.49e+00	0	39	104	0	77	19641
2026-01-21 07:37:11.93	104.97	3.73	-52.4	-67.3	3.8	1.49e+00	0	39	104	0	76	19982
2026-01-21 07:37:12.93	104.92	3.80	-52.4	-66.9	3.8	1.49e+00	0	38	104	0	76	19120
2026-01-21 07:37:13.95	104.87	3.86	-52.3	-66.8	3.8	1.49e+00	0	39	104	0	76	18890
2026-01-21 07:37:14.95	104.82	3.93	-52.3	-66.8	3.8	1.49e+00	0	39	104	0	76	18750
2026-01-21 07:37:15.96	104.78	3.99	-52.4	-66.7	3.8	1.49e+00	0	39	104	0	76	18530
2026-01-21 07:37:16.97	104.73	4.06	-52.3	-66.1	3.8	1.49e+00	0	39	104	0	76	17476
2026-01-21 07:37:17.98	104.68	4.12	-52.2	-65.2	3.8	1.49e+00	0	39	104	0	76	15655
2026-01-21 07:37:18.98	104.63	4.19	-52.1	-63.4	4.3	1.48e+00	0	39	104	0	76	12734
2026-01-21 07:37:19.99	104.58	4.26	-52.0	-62.2	4.7	1.02e+00	0	39	0	1048576	76	11134
2026-01-21 07:37:21.00	104.53	4.32	-51.6	-59.8	6.3	3.96e-01	0	39	0	3145728	75	8871
2026-01-21 07:37:22.00	104.48	4.39	-51.4	-58.5	7.4	1.50e-01	0	39	0	5242880	74	8126
2026-01-21 07:37:23.01	104.43	4.45	-51.0	-56.9	9.0	7.14e-02	0	39	0	7340032	74	6760
2026-01-21 07:37:24.02	104.38	4.52	-50.8	-56.2	9.8	1.09e-02	0	39	0	8388608	73	6592
2026-01-21 07:37:25.03	104.32	4.59	-50.4	-55.0	11.0	2.65e-03	0	39	0	10485760	72	6085
2026-01-21 07:37:26.04	104.27	4.66	-50.0	-54.2	11.9	7.39e-04	0	39	0	12582912	72	5543
2026-01-21 07:37:27.05	104.22	4.72	-49.9	-53.8	12.3	1.46e-04	0	39	0	14680064	71	5629
2026-01-21 07:37:28.05	104.17	4.79	-49.8	-53.6	12.7	9.00e-05	0	39	0	16777216	71	5471
2026-01-21 07:37:29.06	104.12	4.86	-49.7	-53.5	12.8	3.81e-05	0	39	0	17825792	71	5421
2026-01-21 07:37:30.07	104.06	4.92	-49.8	-53.7	12.5	5.95e-05	0	39	0	19922944	71	5563
2026-01-21 07:37:31.08	104.01	4.99	-50.0	-54.0	12.2	2.72e-04	0	39	0	22020096	71	5781
2026-01-21 07:37:32.09	103.96	5.06	-50.2	-54.5	11.6	2.75e-04	0	39	0	24117248	71	6126
2026-01-21 07:37:33.09	103.91	5.13	-48.8	-51.7	14.6	7.01e-05	0	39	0	26214400	69	4958
2026-01-21 07:37:34.10	103.85	5.20	-50.0	-53.8	12.5	1.83e-05	0	39	0	27262976	70	5979
2026-01-21 07:37:35.11	103.80	5.26	-52.0	-62.2	4.5	7.61e-02	0	39	0	29360128	74	12511
2026-01-21 07:37:36.12	103.74	5.33	-48.7	-51.4	14.9	4.15e-03	0	39	0	31457280	68	5064
2026-01-21 07:37:37.13	103.69	5.40	-52.2	-64.4	4.0	6.67e-01	0	39	0	32505856	75	15203
2026-01-21 07:37:38.13	103.64	5.47	-48.8	-51.5	15.0	2.29e-04	0	39	0	34603008	69	4850
2026-01-21 07:37:39.14	103.58	5.54	-48.7	-51.4	15.1	0.00e+00	0	39	0	36700160	68	5065
2026-01-21 07:37:40.15	103.53	5.61	-48.6	-51.4	15.1	0.00e+00	0	39	0	38797312	68	5047
2026-01-21 07:37:41.16	103.47	5.68	-48.4	-50.9	15.5	0.00e+00	0	39	0	40894464	68	4791
2026-01-21 07:37:42.17	103.41	5.75	-48.6	-51.3	15.2	0.00e+00	0	39	0	41943040	68	5014
2026-01-21 07:37:43.17	103.36	5.81	-48.5	-51.1	15.3	0.00e+00	0	39	0	44040192	68	4893
2026-01-21 07:37:44.18	103.30	5.88	-48.3	-50.8	15.6	0.00e+00	0	39	0	46137344	68	4754
2026-01-21 07:37:45.19	103.25	5.95	-48.1	-50.5	15.9	0.00e+00	0	39	0	48234496	68	4591
2026-01-21 07:37:46.20	103.19	6.02	-47.8	-50.1	16.2	0.00e+00	0	39	0	50331648	67	4626
2026-01-21 07:37:47.20	103.13	6.09	-48.2	-50.7	15.7	0.00e+00	0	39	0	51380224	67	4947
2026-01-21 07:37:48.21	103.08	6.16	-47.6	-49.8	16.5	0.00e+00	0	39	0	53477376	67	4460
2026-01-21 07:37:49.22	103.02	6.23	-47.6	-49.8	16.5	0.00e+00	0	39	0	55574528	66	4750
2026-01-21 07:37:50.23	102.96	6.31	-47.4	-49.5	16.9	0.00e+00	0	39	0	57671680	66	4557
2026-01-21 07:37:51.24	102.90	6.38	-47.5	-49.7	16.7	0.00e+00	0	39	0	59768832	66	4664
2026-01-21 07:37:52.25	102.84	6.45	-47.5	-49.6	16.8	0.00e+00	0	39	0	61865984	66	4644
2026-01-21 07:37:53.25	102.78	6.52	-47.7	-49.8	16.6	0.00e+00	0	39	0	62914560	66	4753
2026-01-21 07:37:54.26	102.73	6.59	-47.5	-49.6	16.8	0.00e+00	0	39	0	65011712	66	4624
2026-01-21 07:37:55.27	102.67	6.66	-47.5	-49.5	16.9	0.00e+00	0	39	0	67108864	66	4585
2026-01-21 07:37:56.28	102.61	6.73	-47.3	-49.3	17.1	0.00e+00	0	39	0	69206016	66	4442
2026-01-21 07:37:57.29	102.55	6.80	-47.3	-49.3	17.0	0.00e+00	0	39	0	70254592	66	4483
2026-01-21 07:37:58.29	102.49	6.87	-47.2	-49.2	17.2	0.00e+00	0	39	0	72351744	66	4426
2026-01-21 07:37:59.30	102.43	6.95	-47.4	-49.4	17.0	0.00e+00	0	39	0	74448896	66	4511
2026-01-21 07:38:00.31	102.36	7.02	-47.3	-49.3	17.1	0.00e+00	0	39	0	76546048	66	4466
2026-01-21 07:38:01.32	102.30	7.09	-47.2	-49.1	17.3	0.00e+00	0	39	0	78643200	66	4363
2026-01-21 07:38:02.33	102.24	7.16	-47.2	-49.1	17.2	0.00e+00	0	39	0	79691776	66	4379
2026-01-21 07:38:03.33	102.18	7.24	-47.0	-48.9	17.5	0.00e+00	0	39	0	81788928	66	4250
2026-01-21 07:38:04.34	102.12	7.31	-47.0	-48.9	17.4	0.00e+00	0	39	0	83886080	66	4291
2026-01-21 07:38:05.35	102.05	7.38	-47.0	-48.8	17.6	0.00e+00	0	39	0	85983232	65	4480
2026-01-21 07:38:06.36	101.99	7.46	-47.0	-48.9	17.5	0.00e+00	0	39	0	88080384	65	4542
2026-01-21 07:38:07.36	101.93	7.53	-47.2	-49.2	17.3	0.00e+00	0	39	0	90177536	65	4677
2026-01-21 07:38:08.37	101.86	7.60	-47.0	-48.9	17.5	0.00e+00	0	39	0	91226112	65	4522
2026-01-21 07:38:09.38	101.80	7.68	-47.1	-49.0	17.5	0.00e+00	0	39	0	93323264	65	4565
2026-01-21 07:38:10.39	101.74	7.75	-46.7	-48.4	18.0	0.00e+00	0	39	0	95420416	65	4288
2026-01-21 07:38:11.40	101.67	7.83	-46.8	-48.6	17.9	0.00e+00	0	39	0	97517568	65	4350
2026-01-21 07:38:12.40	101.61	7.90	-46.9	-48.7	17.7	0.00e+00	0	39	0	98566144	65	4430
2026-01-21 07:38:13.41	101.54	7.97	-46.8	-48.6	17.8	0.00e+00	0	39	0	100663296	65	4353
2026-01-21 07:38:14.42	101.48	8.05	-47.1	-49.0	17.5	0.00e+00	0	39	0	102760448	65	4556
2026-01-21 07:38:15.43	101.41	8.12	-46.8	-48.5	17.9	0.00e+00	0	39	0	104857600	65	4336
2026-01-21 07:38:16.43	101.34	8.20	-46.8	-48.6	17.9	0.00e+00	0	39	0	106954752	65	4357
2026-01-21 07:38:17.44	101.28	8.27	-46.9	-48.8	17.7	0.00e+00	0	39	0	109051904	65	4477
2026-01-21 07:38:18.45	101.21	8.35	-46.6	-48.4	18.0	0.00e+00	0	39	0	110100480	65	4277
2026-01-21 07:38:19.46	101.14	8.42	-46.9	-48.8	17.6	0.00e+00	0	39	0	112197632	65	4463
2026-01-21 07:38:20.46	101.07	8.50	-46.8	-48.7	17.7	0.00e+00	0	39	0	114294784	65	4397
2026-01-21 07:38:21.47	101.01	8.58	-46.8	-48.7	17.6	0.00e+00	0	39	0	116391936	65	4440
2026-01-21 07:38:22.48	100.94	8.65	-46.6	-48.5	18.0	0.00e+00	0	39	0	118489088	65	4299
2026-01-21 07:38:23.49	100.87	8.73	-46.7	-48.5	17.8	0.00e+00	0	40	0	119537664	65	4332
2026-01-21 07:38:24.50	100.80	8.81	-46.7	-48.6	17.8	0.00e+00	0	39	0	121634816	65	4378
2026-01-21 07:38:25.50	100.73	8.88	-46.8	-48.7	17.7	0.00e+00	0	39	0	123731968	65	4404
2026-01-21 07:38:26.51	100.66	8.96	-46.3	-48.1	18.3	0.00e+00	0	39	0	125829120	64	4365
2026-01-21 07:38:27.52	100.59	9.04	-46.8	-48.7	17.7	0.00e+00	0	40	0	126877696	64	4670
2026-01-21 07:38:28.53	100.52	9.11	-46.7	-48.6	17.7	0.00e+00	0	39	0	128974848	64	4641
2026-01-21 07:38:29.54	100.45	9.19	-46.7	-48.6	17.8	0.00e+00	0	39	0	131072000	64	4637
2026-01-21 07:38:30.55	100.37	9.27	-46.8	-48.8	17.6	0.00e+00	0	40	0	133169152	64	4751
2026-01-21 07:38:31.55	100.30	9.35	-47.0	-49.0	17.5	0.00e+00	0	39	0	135266304	64	4832
2026-01-21 07:38:32.56	100.23	9.42	-46.8	-48.7	17.7	0.00e+00	0	40	0	137363456	64	4705
2026-01-21 07:38:33.57	100.16	9.50	-46.6	-48.5	17.9	0.00e+00	0	39	0	138412032	64	4579
2026-01-21 07:38:34.58	100.08	9.58	-46.5	-48.3	18.1	0.00e+00	0	39	0	140509184	64	4490
2026-01-21 07:38:35.58	100.01	9.66	-46.4	-48.2	18.2	0.00e+00	0	39	0	142606336	64	4438
2026-01-21 07:38:36.59	99.94	9.74	-46.4	-48.2	18.3	0.00e+00	0	39	0	144703488	64	4404
2026-01-21 07:38:37.60	99.86	9.82	-46.5	-48.3	18.1	0.00e+00	0	40	0	146800640	64	4478
2026-01-21 07:38:38.61	99.79	9.90	-46.3	-48.1	18.3	0.00e+00	0	40	0	147849216	64	4370
2026-01-21 07:38:39.62	99.71	9.98	-46.2	-47.9	18.5	0.00e+00	0	39	0	149946368	64	4273
2026-01-21 07:38:40.62	99.64	10.06	-46.3	-48.2	18.3	0.00e+00	0	39	0	152043520	64	4393
2026-01-21 07:38:41.63	99.56	10.14	-46.4	-48.2	18.2	0.00e+00	0	40	0	154140672	64	4399
2026-01-21 07:38:42.64	99.48	10.22	-46.3	-48.1	18.4	0.00e+00	0	40	0	156237824	64	4352
2026-01-21 07:38:43.65	99.41	10.30	-46.5	-48.4	18.1	0.00e+00	0	39	0	157286400	64	4512
2026-01-21 07:38:44.66	99.33	10.38	-46.6	-48.4	18.1	0.00e+00	0	40	0	159383552	64	4539
2026-01-21 07:38:45.66	99.25	10.46	-46.5	-48.3	18.2	0.00e+00	0	39	0	161480704	64	4455
2026-01-21 07:38:46.67	99.17	10.54	-46.0	-47.7	18.8	0.00e+00	0	40	0	163577856	64	4151
2026-01-21 07:38:47.68	99.09	10.62	-46.0	-47.7	18.7	0.00e+00	0	40	0	165675008	64	4165
2026-01-21 07:38:48.69	99.01	10.70	-45.8	-47.4	19.2	0.00e+00	0	39	0	166723584	63	4246
2026-01-21 07:38:49.69	98.93	10.78	-45.7	-47.3	19.2	0.00e+00	0	40	0	168820736	63	4205
2026-01-21 07:38:50.70	98.85	10.87	-45.7	-47.2	19.3	0.00e+00	0	40	0	170917888	63	4171
2026-01-21 07:38:51.71	98.77	10.95	-45.6	-47.2	19.3	0.00e+00	0	39	0	173015040	63	4164
2026-01-21 07:38:52.72	98.69	11.03	-45.6	-47.1	19.4	0.00e+00	0	39	0	175112192	63	4141
2026-01-21 07:38:53.73	98.61	11.11	-45.7	-47.3	19.3	0.00e+00	0	39	0	176160768	63	4196
2026-01-21 07:38:54.73	98.53	11.20	-45.8	-47.4	19.2	0.00e+00	0	40	0	178257920	63	4260
2026-01-21 07:38:55.74	98.44	11.28	-45.8	-47.3	19.2	0.00e+00	0	40	0	180355072	63	4232
2026-01-21 07:38:56.75	98.36	11.36	-46.0	-47.7	18.9	0.00e+00	0	40	0	182452224	63	4393
2026-01-21 07:38:57.76	98.28	11.45	-45.9	-47.5	19.1	0.00e+00	0	40	0	184549376	63	4318
2026-01-21 07:38:58.76	98.19	11.53	-45.9	-47.5	19.1	0.00e+00	0	40	0	185597952	63	4326
2026-01-21 07:38:59.77	98.11	11.61	-45.8	-47.4	19.2	0.00e+00	0	40	0	187695104	63	4280
2026-01-21 07:39:00.78	98.02	11.70	-45.9	-47.4	19.2	0.00e+00	0	39	0	189792256	63	4289
2026-01-21 07:39:01.79	97.94	11.78	-45.7	-47.2	19.3	0.00e+00	0	40	0	191889408	63	4177
2026-01-21 07:39:02.80	97.85	11.87	-45.8	-47.4	19.2	0.00e+00	0	40	0	193986560	63	4257
2026-01-21 07:39:03.80	97.77	11.95	-45.7	-47.3	19.3	0.00e+00	0	40	0	195035136	63	4208
2026-01-21 07:39:04.81	97.68	12.03	-45.9	-47.4	19.2	0.00e+00	0	40	0	197132288	63	4282
2026-01-21 07:39:05.82	97.59	12.12	-46.0	-47.6	19.1	0.00e+00	0	40	0	199229440	63	4358
2026-01-21 07:39:06.82	97.50	12.20	-46.0	-47.6	18.9	0.00e+00	0	40	0	201326592	63	4349
2026-01-21 07:39:07.83	97.41	12.29	-46.2	-47.9	18.8	0.00e+00	0	40	0	203423744	63	4499
2026-01-21 07:39:08.84	97.32	12.38	-46.1	-47.8	18.8	0.00e+00	0	40	0	204472320	63	4465
2026-01-21 07:39:09.85	97.23	12.46	-46.0	-47.6	19.0	0.00e+00	0	39	0	206569472	63	4386
2026-01-21 07:39:10.86	97.14	12.55	-46.1	-47.7	19.0	0.00e+00	0	40	0	208666624	63	4402
2026-01-21 07:39:11.87	97.05	12.64	-46.2	-47.9	18.9	0.00e+00	0	40	0	210763776	63	4494
2026-01-21 07:39:12.87	96.96	12.72	-46.2	-47.8	18.9	0.00e+00	0	40	0	212860928	63	4460
2026-01-21 07:39:13.88	96.87	12.81	-45.9	-47.5	19.2	0.00e+00	0	40	0	213909504	63	4320
2026-01-21 07:39:14.89	96.78	12.90	-46.0	-47.6	19.1	0.00e+00	0	40	0	216006656	63	4358
2026-01-21 07:39:15.90	96.68	12.98	-45.9	-47.4	19.3	0.00e+00	0	40	0	218103808	63	4275
2026-01-21 07:39:16.90	96.59	13.07	-45.9	-47.5	19.2	0.00e+00	0	39	0	220200960	63	4295
2026-01-21 07:39:17.91	96.50	13.16	-46.0	-47.6	19.2	0.00e+00	0	40	0	222298112	63	4347
2026-01-21 07:39:18.92	96.40	13.25	-46.2	-47.8	18.9	0.00e+00	0	40	0	223346688	63	4467
2026-01-21 07:39:19.93	96.31	13.34	-46.1	-47.7	19.0	0.00e+00	0	40	0	225443840	63	4428
2026-01-21 07:39:20.94	96.21	13.43	-46.0	-47.6	19.1	0.00e+00	0	39	0	227540992	63	4376
2026-01-21 07:39:21.94	96.11	13.51	-46.1	-47.7	19.0	0.00e+00	0	40	0	229638144	63	4431
2026-01-21 07:39:22.95	96.02	13.60	-46.0	-47.6	19.2	0.00e+00	0	40	0	231735296	63	4341
2026-01-21 07:39:23.96	95.92	13.69	-46.0	-47.6	19.1	0.00e+00	0	40	0	232783872	63	4362
2026-01-21 07:39:24.97	95.82	13.78	-46.2	-47.8	18.9	0.00e+00	0	40	0	234881024	63	4474
2026-01-21 07:39:25.98	95.72	13.87	-45.9	-47.4	19.3	0.00e+00	0	40	0	236978176	63	4285
2026-01-21 07:39:26.99	95.62	13.96	-46.1	-47.8	19.0	0.00e+00	0	40	0	239075328	63	4458
2026-01-21 07:39:28.00	95.52	14.05	-45.9	-47.5	19.3	0.00e+00	0	40	0	241172480	63	4307
2026-01-21 07:39:29.01	95.42	14.14	-45.9	-47.5	19.3	0.00e+00	0	40	0	242221056	63	4294
2026-01-21 07:39:30.02	95.32	14.24	-45.9	-47.5	19.3	0.00e+00	0	40	0	244318208	63	4309
2026-01-21 07:39:31.03	95.21	14.33	-45.9	-47.4	19.4	0.00e+00	0	40	0	246415360	63	4268
2026-01-21 07:39:32.03	95.11	14.42	-45.9	-47.4	19.3	0.00e+00	0	40	0	248512512	63	4277
2026-01-21 07:39:33.04	95.01	14.51	-45.9	-47.4	19.4	0.00e+00	0	40	0	250609664	63	4270
2026-01-21 07:39:34.05	94.90	14.60	-45.9	-47.4	19.4	0.00e+00	0	40	0	252706816	63	4289
2026-01-21 07:39:35.06	94.80	14.69	-45.7	-47.2	19.6	0.00e+00	0	40	0	253755392	63	4155
2026-01-21 07:39:36.07	94.69	14.79	-45.5	-46.9	19.8	0.00e+00	0	40	0	255852544	63	4039
2026-01-21 07:39:37.07	94.59	14.88	-45.4	-46.8	19.9	0.00e+00	0	40	0	257949696	62	4219
2026-01-21 07:39:38.08	94.48	14.97	-45.3	-46.7	20.0	0.00e+00	0	40	0	260046848	62	4172
2026-01-21 07:39:39.09	94.37	15.07	-45.1	-46.4	20.3	0.00e+00	0	40	0	261095424	62	4036
2026-01-21 07:39:40.09	94.26	15.16	-45.4	-46.8	20.0	0.00e+00	0	40	0	263192576	62	4207
2026-01-21 07:39:41.10	94.16	15.25	-45.1	-46.5	20.3	0.00e+00	0	40	0	265289728	62	4065
2026-01-21 07:39:42.11	94.05	15.35	-45.0	-46.3	20.4	0.00e+00	0	40	0	267386880	61	4234
2026-01-21 07:39:43.12	93.93	15.44	-45.1	-46.5	20.2	0.00e+00	0	40	0	269484032	61	4297
2026-01-21 07:39:44.13	93.82	15.53	-45.0	-46.2	20.4	0.00e+00	0	40	0	270532608	61	4190
2026-01-21 07:39:45.14	93.71	15.63	-45.0	-46.3	20.4	0.00e+00	0	40	0	272629760	61	4241
2026-01-21 07:39:46.15	93.60	15.72	-44.7	-46.0	20.7	0.00e+00	0	40	0	274726912	61	4059
2026-01-21 07:39:47.15	93.49	15.82	-45.0	-46.2	20.5	0.00e+00	0	40	0	276824064	61	4186
2026-01-21 07:39:48.16	93.37	15.91	-45.0	-46.3	20.4	0.00e+00	0	40	0	278921216	61	4221
2026-01-21 07:39:49.16	93.26	16.01	-45.2	-46.5	20.2	0.00e+00	0	40	0	281018368	61	4333
2026-01-21 07:39:50.17	93.14	16.11	-45.4	-46.8	20.0	0.00e+00	0	40	0	282066944	61	4484
2026-01-21 07:39:51.18	93.02	16.20	-45.4	-46.7	20.1	0.00e+00	0	40	0	284164096	61	4435
2026-01-21 07:39:52.19	92.91	16.30	-45.1	-46.5	20.3	0.00e+00	0	40	0	286261248	61	4297
2026-01-21 07:39:53.20	92.79	16.40	-45.3	-46.7	20.1	0.00e+00	0	40	0	288358400	61	4427
2026-01-21 07:39:54.21	92.67	16.49	-45.4	-46.8	20.0	0.00e+00	0	40	0	289406976	61	4465
2026-01-21 07:39:55.21	92.55	16.59	-45.5	-46.9	19.9	0.00e+00	0	40	0	291504128	61	4516
2026-01-21 07:39:56.22	92.43	16.69	-45.5	-47.0	19.8	0.00e+00	0	40	0	293601280	61	4555
2026-01-21 07:39:57.23	92.31	16.79	-45.6	-47.1	19.7	0.00e+00	0	40	0	295698432	61	4620
2026-01-21 07:39:58.24	92.19	16.88	-45.7	-47.2	19.6	0.00e+00	0	40	0	297795584	62	4415
2026-01-21 07:39:59.24	92.07	16.98	-45.7	-47.2	19.6	0.00e+00	0	40	0	299892736	62	4396
2026-01-21 07:40:00.25	91.94	17.08	-45.6	-47.0	19.8	0.00e+00	0	40	0	300941312	62	4329
2026-01-21 07:40:01.26	91.82	17.18	-45.7	-47.1	19.7	0.00e+00	0	40	0	303038464	62	4380
2026-01-21 07:40:02.27	91.69	17.28	-45.6	-47.0	19.9	0.00e+00	0	40	0	305135616	62	4306
2026-01-21 07:40:03.28	91.57	17.38	-45.4	-46.7	20.1	0.00e+00	0	40	0	307232768	62	4189
2026-01-21 07:40:04.29	91.44	17.48	-45.3	-46.7	20.1	0.00e+00	0	40	0	309329920	62	4158
2026-01-21 07:40:05.29	91.31	17.58	-45.3	-46.7	20.1	0.00e+00	0	40	0	310378496	62	4176
2026-01-21 07:40:06.30	91.18	17.68	-45.4	-46.8	20.0	0.00e+00	0	40	0	312475648	62	4211
2026-01-21 07:40:07.31	91.05	17.78	-45.5	-46.9	19.9	0.00e+00	0	40	0	314572800	62	4272
2026-01-21 07:40:08.32	90.92	17.88	-45.6	-47.1	19.9	0.00e+00	0	40	0	316669952	62	4355
2026-01-21 07:40:09.33	90.79	17.98	-45.7	-47.2	19.7	0.00e+00	0	40	0	317718528	62	4398
2026-01-21 07:40:10.33	90.66	18.08	-45.7	-47.1	19.9	0.00e+00	0	40	0	319815680	62	4378
2026-01-21 07:40:11.34	90.53	18.18	-45.6	-47.0	19.8	0.00e+00	0	40	0	321912832	62	4324
2026-01-21 07:40:12.35	90.39	18.28	-45.6	-47.1	19.8	0.00e+00	0	40	0	324009984	62	4341
2026-01-21 07:40:13.36	90.26	18.38	-45.6	-47.0	19.8	0.00e+00	0	40	0	326107136	62	4339
2026-01-21 07:40:14.37	90.12	18.49	-45.9	-47.3	19.6	0.00e+00	0	40	0	328204288	62	4490
2026-01-21 07:40:15.37	89.99	18.59	-45.9	-47.4	19.6	0.00e+00	0	40	0	329252864	62	4504
2026-01-21 07:40:16.38	89.85	18.69	-46.2	-47.7	19.2	0.00e+00	0	40	0	331350016	63	4439
2026-01-21 07:40:17.39	89.71	18.79	-46.4	-48.0	19.0	0.00e+00	0	40	0	333447168	63	4564
2026-01-21 07:40:18.40	89.57	18.90	-46.6	-48.2	18.8	0.00e+00	0	40	0	335544320	63	4705
2026-01-21 07:40:19.40	89.43	19.00	-46.2	-47.7	19.3	0.00e+00	0	40	0	337641472	63	4441
2026-01-21 07:40:20.41	89.29	19.10	-46.2	-47.7	19.3	0.00e+00	0	40	0	338690048	63	4417
2026-01-21 07:40:21.42	89.15	19.21	-46.1	-47.6	19.4	0.00e+00	0	40	0	340787200	63	4354
2026-01-21 07:40:22.43	89.00	19.31	-46.3	-47.8	19.2	0.00e+00	0	40	0	342884352	63	4480
2026-01-21 07:40:23.44	88.86	19.42	-46.4	-48.0	19.1	0.00e+00	0	40	0	344981504	63	4562
2026-01-21 07:40:24.44	88.71	19.52	-46.5	-48.1	18.8	0.00e+00	0	40	0	347078656	64	4386
2026-01-21 07:40:25.45	88.57	19.63	-46.4	-48.0	19.0	0.00e+00	0	40	0	348127232	64	4306
2026-01-21 07:40:26.46	88.42	19.73	-46.9	-48.7	18.3	0.00e+00	0	40	0	350224384	64	4680
2026-01-21 07:40:27.47	88.27	19.84	-46.1	-47.6	19.2	0.00e+00	0	40	0	352321536	64	4139
2026-01-21 07:40:28.48	88.12	19.94	-46.1	-47.6	19.3	0.00e+00	0	40	0	354418688	63	4381
2026-01-21 07:40:29.48	87.97	20.05	-46.1	-47.6	19.4	0.00e+00	0	40	0	356515840	63	4351
2026-01-21 07:40:30.49	87.82	20.15	-46.2	-47.7	19.3	0.00e+00	0	40	0	357564416	63	4417
2026-01-21 07:40:31.50	87.66	20.26	-46.3	-47.9	19.2	0.00e+00	0	40	0	359661568	63	4496
2026-01-21 07:40:32.51	87.51	20.37	-46.3	-47.8	19.2	0.00e+00	0	40	0	361758720	63	4487
2026-01-21 07:40:33.52	87.36	20.47	-46.2	-47.7	19.3	0.00e+00	0	40	0	363855872	63	4433
2026-01-21 07:40:34.53	87.20	20.58	-46.5	-48.1	18.9	0.00e+00	0	40	0	365953024	63	4626
2026-01-21 07:40:35.53	87.04	20.69	-46.2	-47.7	19.3	0.00e+00	0	40	0	367001600	63	4416
2026-01-21 07:40:36.54	86.88	20.79	-45.9	-47.4	19.7	0.00e+00	0	40	0	369098752	63	4249
2026-01-21 07:40:37.55	86.72	20.90	-45.9	-47.4	19.6	0.00e+00	0	40	0	371195904	63	4258
2026-01-21 07:40:38.56	86.56	21.01	-45.9	-47.3	19.7	0.00e+00	0	40	0	373293056	63	4223
2026-01-21 07:40:39.56	86.40	21.12	-45.9	-47.4	19.6	0.00e+00	0	40	0	375390208	63	4261
2026-01-21 07:40:40.57	86.24	21.23	-46.0	-47.6	19.5	0.00e+00	0	40	0	376438784	63	4351
2026-01-21 07:40:41.58	86.08	21.33	-45.7	-47.2	19.8	0.00e+00	0	40	0	378535936	63	4148
2026-01-21 07:40:42.59	85.91	21.44	-45.5	-46.9	20.0	0.00e+00	0	40	0	380633088	63	4050
2026-01-21 07:40:43.60	85.74	21.55	-45.3	-46.6	20.3	0.00e+00	0	40	0	382730240	62	4127
2026-01-21 07:40:44.61	85.58	21.66	-45.2	-46.6	20.4	0.00e+00	0	40	0	384827392	62	4111
2026-01-21 07:40:45.61	85.41	21.77	-45.4	-46.8	20.2	0.00e+00	0	40	0	385875968	62	4238
2026-01-21 07:40:46.62	85.24	21.88	-45.6	-47.0	20.0	0.00e+00	0	40	0	387973120	62	4322
2026-01-21 07:40:47.63	85.07	21.99	-45.8	-47.2	19.8	0.00e+00	0	40	0	390070272	62	4438
2026-01-21 07:40:48.64	84.89	22.10	-45.7	-47.2	19.9	0.00e+00	0	40	0	392167424	62	4399
2026-01-21 07:40:49.64	84.72	22.21	-45.8	-47.3	19.7	0.00e+00	0	40	0	394264576	62	4466
2026-01-21 07:40:50.65	84.55	22.32	-45.7	-47.1	20.0	0.00e+00	0	40	0	396361728	62	4353
2026-01-21 07:40:51.66	84.37	22.43	-45.7	-47.1	19.9	0.00e+00	0	40	0	397410304	62	4376
2026-01-21 07:40:52.67	84.19	22.54	-45.7	-47.1	19.9	0.00e+00	0	40	0	399507456	62	4389
2026-01-21 07:40:53.68	84.01	22.65	-45.8	-47.2	19.8	0.00e+00	0	40	0	401604608	62	4435
2026-01-21 07:40:54.69	83.83	22.76	-46.1	-47.6	19.5	0.00e+00	0	40	0	403701760	62	4610
2026-01-21 07:40:55.70	83.65	22.88	-46.5	-48.1	19.1	0.00e+00	0	40	0	404750336	63	4622
2026-01-21 07:40:56.70	83.47	22.99	-46.3	-47.9	19.3	0.00e+00	0	40	0	406847488	63	4501
2026-01-21 07:40:57.71	83.28	23.10	-46.3	-47.8	19.3	0.00e+00	0	40	0	408944640	63	4487
2026-01-21 07:40:58.72	83.10	23.21	-46.0	-47.4	19.6	0.00e+00	0	40	0	411041792	63	4289
2026-01-21 07:40:59.73	82.91	23.32	-46.4	-47.9	19.2	0.00e+00	0	40	0	413138944	63	4541
2026-01-21 07:41:00.73	82.72	23.43	-46.4	-48.0	19.1	0.00e+00	0	39	0	414187520	63	4595
2026-01-21 07:41:01.74	82.54	23.55	-46.5	-48.2	18.8	0.00e+00	0	40	0	416284672	64	4403
2026-01-21 07:41:02.75	82.34	23.66	-46.7	-48.4	18.7	0.00e+00	0	40	0	418381824	64	4504
2026-01-21 07:41:03.75	82.15	23.77	-47.2	-49.1	18.0	0.00e+00	0	40	0	420478976	64	4881
2026-01-21 07:41:04.76	81.96	23.88	-47.1	-48.9	18.1	0.00e+00	0	39	0	422576128	64	4814
2026-01-21 07:41:05.77	81.76	23.99	-47.0	-48.8	18.3	0.00e+00	0	40	0	424673280	64	4725
2026-01-21 07:41:06.78	81.57	24.11	-47.1	-49.0	18.2	0.00e+00	0	40	0	425721856	65	4572
2026-01-21 07:41:07.79	81.37	24.22	-47.0	-48.9	18.2	0.00e+00	0	40	0	427819008	65	4531
2026-01-21 07:41:08.79	81.17	24.33	-46.8	-48.6	18.6	0.00e+00	0	40	0	429916160	65	4358
2026-01-21 07:41:09.80	80.97	24.45	-46.6	-48.3	18.8	0.00e+00	0	40	0	432013312	65	4225
2026-01-21 07:41:10.81	80.77	24.56	-46.4	-48.1	19.0	0.00e+00	0	40	0	433061888	64	4344
2026-01-21 07:41:11.82	80.56	24.67	-46.7	-48.4	18.6	0.00e+00	0	40	0	435159040	64	4533
2026-01-21 07:41:12.83	80.36	24.79	-46.5	-48.2	18.8	0.00e+00	0	40	0	437256192	64	4410
2026-01-21 07:41:13.83	80.15	24.90	-46.5	-48.2	18.9	0.00e+00	0	40	0	439353344	64	4401
2026-01-21 07:41:14.84	79.94	25.01	-46.5	-48.2	18.9	0.00e+00	0	40	0	441450496	64	4429
2026-01-21 07:41:15.85	79.73	25.13	-46.5	-48.1	18.9	0.00e+00	0	40	0	443547648	64	4386
2026-01-21 07:41:16.86	79.52	25.24	-46.5	-48.1	18.8	0.00e+00	0	40	0	444596224	64	4360
2026-01-21 07:41:17.86	79.31	25.35	-46.3	-47.9	19.1	0.00e+00	0	40	0	446693376	64	4283
2026-01-21 07:41:18.87	79.10	25.47	-46.4	-48.1	19.0	0.00e+00	0	40	0	448790528	64	4341
2026-01-21 07:41:19.88	78.88	25.58	-46.5	-48.1	19.0	0.00e+00	0	40	0	450887680	64	4378
2026-01-21 07:41:20.89	78.66	25.70	-46.4	-48.0	19.0	0.00e+00	0	40	0	452984832	64	4325
2026-01-21 07:41:21.89	78.44	25.81	-46.5	-48.2	19.0	0.00e+00	0	40	0	454033408	64	4411
2026-01-21 07:41:22.90	78.22	25.92	-46.5	-48.1	19.0	0.00e+00	0	40	0	456130560	64	4364
2026-01-21 07:41:23.91	78.00	26.04	-46.5	-48.2	19.0	0.00e+00	0	40	0	458227712	64	4394
2026-01-21 07:41:24.92	77.78	26.15	-46.6	-48.3	18.8	0.00e+00	0	40	0	460324864	64	4451
2026-01-21 07:41:25.93	77.55	26.27	-46.4	-48.0	19.1	0.00e+00	0	40	0	461373440	64	4295
2026-01-21 07:41:26.93	77.33	26.38	-46.5	-48.2	18.9	0.00e+00	0	40	0	463470592	64	4405
2026-01-21 07:41:27.94	77.10	26.49	-46.4	-48.1	19.1	0.00e+00	0	40	0	465567744	64	4344
2026-01-21 07:41:28.95	76.86	26.61	-46.3	-47.9	19.2	0.00e+00	0	40	0	467664896	64	4282
2026-01-21 07:41:29.95	76.63	26.72	-46.4	-47.9	19.2	0.00e+00	0	40	0	469762048	64	4281
2026-01-21 07:41:30.96	76.40	26.83	-46.4	-48.1	19.0	0.00e+00	0	40	0	471859200	64	4345
2026-01-21 07:41:31.97	76.16	26.95	-46.3	-47.8	19.3	0.00e+00	0	40	0	472907776	64	4235
2026-01-21 07:41:32.98	75.93	27.06	-46.0	-47.5	19.6	0.00e+00	0	40	0	475004928	63	4322
2026-01-21 07:41:33.99	75.69	27.17	-46.1	-47.6	19.5	0.00e+00	0	40	0	477102080	63	4386
2026-01-21 07:41:34.99	75.45	27.29	-46.3	-47.8	19.4	0.00e+00	0	40	0	479199232	63	4490
2026-01-21 07:41:36.00	75.21	27.40	-46.3	-47.8	19.4	0.00e+00	0	40	0	481296384	63	4464
2026-01-21 07:41:37.00	74.96	27.51	-46.1	-47.6	19.7	0.00e+00	0	40	0	482344960	63	4342
2026-01-21 07:41:38.01	74.72	27.63	-46.3	-47.9	19.3	0.00e+00	0	40	0	484442112	63	4520
2026-01-21 07:41:39.02	74.47	27.74	-46.8	-48.5	18.8	0.00e+00	0	40	0	486539264	64	4565
2026-01-21 07:41:40.03	74.22	27.85	-46.9	-48.6	18.6	0.00e+00	0	40	0	488636416	64	4626
2026-01-21 07:41:41.04	73.97	27.97	-46.9	-48.6	18.6	0.00e+00	0	40	0	489684992	64	4621
2026-01-21 07:41:42.05	73.71	28.08	-46.9	-48.6	18.6	0.00e+00	0	40	0	491782144	65	4365
2026-01-21 07:41:43.05	73.46	28.19	-46.6	-48.2	19.0	0.00e+00	0	40	0	493879296	65	4185
2026-01-21 07:41:44.06	73.20	28.30	-46.5	-48.0	19.0	0.00e+00	0	40	0	495976448	64	4337
2026-01-21 07:41:45.07	72.95	28.41	-46.1	-47.6	19.5	0.00e+00	0	40	0	498073600	64	4134
2026-01-21 07:41:46.07	72.69	28.53	-45.8	-47.2	20.0	0.00e+00	0	40	0	500170752	63	4146
2026-01-21 07:41:47.08	72.43	28.64	-45.5	-46.9	20.3	0.00e+00	0	40	0	501219328	62	4248
2026-01-21 07:41:48.09	72.16	28.75	-45.6	-46.9	20.2	0.00e+00	0	40	0	503316480	62	4272
2026-01-21 07:41:49.09	71.90	28.86	-45.5	-46.8	20.3	0.00e+00	0	40	0	505413632	62	4241
2026-01-21 07:41:50.10	71.63	28.97	-45.8	-47.3	19.8	0.00e+00	0	40	0	507510784	62	4464
2026-01-21 07:41:51.11	71.36	29.08	-46.2	-47.7	19.4	0.00e+00	0	40	0	509607936	62	4701
2026-01-21 07:41:52.12	71.09	29.19	-46.1	-47.7	19.5	0.00e+00	0	40	0	510656512	63	4399
2026-01-21 07:41:53.12	70.82	29.30	-46.2	-47.8	19.3	0.00e+00	0	40	0	512753664	63	4481
2026-01-21 07:41:54.13	70.54	29.41	-46.1	-47.7	19.5	0.00e+00	0	40	0	514850816	63	4403
2026-01-21 07:41:55.14	70.26	29.52	-46.1	-47.6	19.5	0.00e+00	0	40	0	516947968	63	4373
2026-01-21 07:41:56.15	69.98	29.63	-46.4	-48.0	19.2	0.00e+00	0	40	0	519045120	63	4547
2026-01-21 07:41:57.16	69.70	29.74	-46.4	-48.0	19.2	0.00e+00	0	40	0	520093696	63	4587
2026-01-21 07:41:58.16	69.42	29.85	-46.7	-48.4	18.7	0.00e+00	0	40	0	522190848	64	4508
2026-01-21 07:41:59.17	69.14	29.95	-47.3	-49.2	18.0	0.00e+00	0	40	0	524288000	65	4677
2026-01-21 07:42:00.18	68.85	30.06	-47.9	-50.0	17.2	0.00e+00	0	40	0	526385152	66	4842
2026-01-21 07:42:01.19	68.56	30.17	-48.0	-50.2	17.0	0.00e+00	0	40	0	528482304	67	4670
2026-01-21 07:42:02.20	68.27	30.28	-48.3	-50.6	16.7	0.00e+00	0	40	0	529530880	67	4922
2026-01-21 07:42:03.20	67.98	30.38	-47.6	-49.6	17.6	0.00e+00	0	40	0	531628032	67	4359
2026-01-21 07:42:04.21	67.69	30.49	-47.2	-49.1	18.1	0.00e+00	0	40	0	533725184	66	4366
2026-01-21 07:42:05.22	67.39	30.59	-47.2	-49.0	18.2	0.00e+00	0	40	0	535822336	66	4332
2026-01-21 07:42:06.23	67.09	30.70	-47.2	-49.1	18.2	0.00e+00	0	40	0	537919488	66	4341
2026-01-21 07:42:07.24	66.79	30.80	-47.4	-49.4	17.9	0.00e+00	0	40	0	538968064	66	4508
2026-01-21 07:42:08.24	66.49	30.90	-47.6	-49.6	17.5	0.00e+00	0	40	0	541065216	66	4643
2026-01-21 07:42:09.25	66.19	31.01	-48.0	-50.2	17.0	0.00e+00	0	40	0	543162368	66	4932
2026-01-21 07:42:10.26	65.88	31.11	-48.3	-50.6	16.6	0.00e+00	0	40	0	545259520	67	4897
2026-01-21 07:42:11.27	65.57	31.21	-48.2	-50.5	16.7	0.00e+00	0	40	0	547356672	67	4842
2026-01-21 07:42:12.27	65.26	31.31	-48.4	-50.9	16.3	0.00e+00	0	40	0	548405248	67	5044
2026-01-21 07:42:13.28	64.95	31.41	-48.5	-50.9	16.2	0.00e+00	0	40	0	550502400	67	5100
2026-01-21 07:42:14.29	64.64	31.52	-48.6	-51.1	16.0	0.00e+00	0	40	0	552599552	67	5216
2026-01-21 07:42:15.30	64.32	31.61	-49.0	-51.7	15.6	0.00e+00	0	40	0	554696704	68	5261
2026-01-21 07:42:16.31	64.00	31.71	-49.0	-51.7	15.6	0.00e+00	0	40	0	556793856	68	5240
2026-01-21 07:42:17.31	63.69	31.81	-49.2	-52.1	15.1	0.00e+00	0	40	0	557842432	69	5201
2026-01-21 07:42:18.32	63.36	31.91	-49.3	-52.3	15.1	0.00e+00	0	40	0	559939584	69	5307
2026-01-21 07:42:19.33	63.04	32.01	-49.1	-51.9	15.4	0.00e+00	0	40	0	562036736	69	5093
2026-01-21 07:42:20.34	62.71	32.10	-49.3	-52.3	15.0	0.00e+00	0	40	0	564133888	69	5307
2026-01-21 07:42:21.34	62.39	32.20	-49.1	-52.0	15.4	7.00e-07	0	40	0	566231040	69	5107
2026-01-21 07:42:22.35	62.06	32.29	-48.9	-51.6	15.6	0.00e+00	0	40	0	567279616	69	4924
2026-01-21 07:42:23.36	61.73	32.39	-48.7	-51.3	16.0	0.00e+00	0	40	0	569376768	69	4743
2026-01-21 07:42:24.37	61.39	32.48	-48.7	-51.4	15.9	0.00e+00	0	40	0	571473920	68	5047
2026-01-21 07:42:25.38	61.06	32.57	-48.5	-51.0	16.4	0.00e+00	0	40	0	573571072	68	4815
2026-01-21 07:42:26.38	60.72	32.66	-47.9	-50.1	17.0	0.00e+00	0	40	0	575668224	67	4643
2026-01-21 07:42:27.39	60.38	32.75	-48.0	-50.3	16.9	0.00e+00	0	40	0	576716800	67	4708
2026-01-21 07:42:28.40	60.04	32.84	-48.1	-50.4	16.8	0.00e+00	0	40	0	578813952	67	4767
2026-01-21 07:42:29.40	59.70	32.93	-48.1	-50.4	16.7	0.00e+00	0	40	0	580911104	67	4783
2026-01-21 07:42:30.41	59.36	33.02	-48.1	-50.3	16.9	0.00e+00	0	40	0	583008256	67	4757
2026-01-21 07:42:31.42	59.01	33.11	-48.0	-50.2	17.0	0.00e+00	0	40	0	585105408	67	4686
2026-01-21 07:42:32.43	58.66	33.19	-47.4	-49.4	17.7	0.00e+00	0	40	0	586153984	66	4530
2026-01-21 07:42:33.44	58.31	33.28	-47.6	-49.6	17.5	0.00e+00	0	40	0	588251136	66	4651
2026-01-21 07:42:34.44	57.96	33.36	-47.5	-49.6	17.5	0.00e+00	0	40	0	590348288	66	4599
2026-01-21 07:42:35.45	57.61	33.44	-47.7	-49.9	17.2	0.00e+00	0	40	0	592445440	66	4802
2026-01-21 07:42:36.46	57.25	33.53	-48.3	-50.9	16.3	0.00e+00	0	40	0	594542592	67	5082
2026-01-21 07:42:37.47	56.89	33.61	-48.7	-51.6	15.6	0.00e+00	0	40	0	595591168	67	5479
2026-01-21 07:42:38.48	56.53	33.69	-48.2	-50.8	16.3	0.00e+00	0	40	0	597688320	68	4714
2026-01-21 07:42:39.49	56.17	33.77	-47.7	-50.0	17.3	0.00e+00	0	40	0	599785472	66	4829
2026-01-21 07:42:40.49	55.81	33.84	-47.8	-50.0	17.0	0.00e+00	0	40	0	601882624	66	4870
2026-01-21 07:42:41.50	55.45	33.92	-47.8	-50.1	17.1	0.00e+00	0	40	0	603979776	66	4897
2026-01-21 07:42:42.51	55.08	34.00	-47.7	-49.9	17.2	0.00e+00	0	40	0	605028352	66	4792
2026-01-21 07:42:43.51	54.72	34.07	-48.1	-50.6	16.5	0.00e+00	0	40	0	607125504	66	5207
2026-01-21 07:42:44.52	54.35	34.14	-48.0	-50.4	16.7	0.00e+00	0	40	0	609222656	66	5047
2026-01-21 07:42:45.53	53.98	34.21	-47.3	-49.3	17.7	0.00e+00	0	40	0	611319808	66	4484
2026-01-21 07:42:46.54	53.60	34.29	-47.2	-49.2	18.0	0.00e+00	0	40	0	613416960	66	4394
2026-01-21 07:42:47.54	53.23	34.35	-46.6	-48.4	18.6	0.00e+00	0	40	0	615514112	65	4250
2026-01-21 07:42:48.55	52.85	34.42	-45.7	-47.1	20.0	0.00e+00	0	40	0	616562688	63	4103
2026-01-21 07:42:49.56	52.48	34.49	-44.7	-45.9	21.0	0.00e+00	0	40	0	618659840	61	4030
2026-01-21 07:42:50.57	52.10	34.56	-44.2	-45.3	21.4	0.00e+00	0	40	0	620756992	60	3997
2026-01-21 07:42:51.58	51.72	34.62	-44.3	-45.5	21.4	0.00e+00	0	40	0	622854144	60	4074
2026-01-21 07:42:52.59	51.33	34.68	-44.6	-45.9	21.1	0.00e+00	0	40	0	623902720	60	4243
2026-01-21 07:42:53.59	50.95	34.74	-44.6	-45.8	21.1	0.00e+00	0	40	0	625999872	60	4223
2026-01-21 07:42:54.60	50.57	34.80	-44.5	-45.7	21.2	0.00e+00	0	40	0	628097024	60	4172
2026-01-21 07:42:55.61	50.18	34.86	-44.5	-45.7	21.2	0.00e+00	0	40	0	630194176	60	4153
2026-01-21 07:42:56.61	49.80	34.92	-44.8	-46.0	21.0	0.00e+00	0	40	0	632291328	60	4340
2026-01-21 07:42:57.62	49.41	34.98	-45.3	-46.7	20.4	0.00e+00	0	40	0	633339904	61	4429
2026-01-21 07:42:58.63	49.02	35.03	-45.5	-47.0	20.0	0.00e+00	0	40	0	635437056	61	4555
2026-01-21 07:42:59.64	48.62	35.09	-45.9	-47.5	19.7	0.00e+00	0	40	0	637534208	62	4551
2026-01-21 07:43:00.65	48.23	35.14	-45.6	-47.0	20.1	0.00e+00	0	40	0	639631360	62	4331
2026-01-21 07:43:01.65	47.84	35.19	-45.3	-46.7	20.4	0.00e+00	0	40	0	641728512	62	4160
2026-01-21 07:43:02.66	47.44	35.24	-45.1	-46.4	20.7	0.00e+00	0	40	0	643825664	62	4041
2026-01-21 07:43:03.67	47.05	35.28	-44.9	-46.3	20.8	0.00e+00	0	40	0	644874240	61	4206
2026-01-21 07:43:04.67	46.65	35.33	-44.9	-46.2	20.9	0.00e+00	0	40	0	646971392	61	4160
2026-01-21 07:43:05.68	46.25	35.38	-45.3	-46.7	20.4	0.00e+00	0	40	0	649068544	61	4419
2026-01-21 07:43:06.69	45.85	35.42	-45.2	-46.6	20.5	0.00e+00	0	40	0	651165696	61	4364
2026-01-21 07:43:07.70	45.45	35.46	-44.9	-46.2	20.8	0.00e+00	0	40	0	652214272	61	4176
2026-01-21 07:43:08.70	45.05	35.50	-44.9	-46.2	20.8	0.00e+00	0	40	0	654311424	61	4188
2026-01-21 07:43:09.71	44.65	35.54	-45.5	-46.9	20.2	0.00e+00	0	40	0	656408576	61	4526
2026-01-21 07:43:10.72	44.24	35.57	-45.7	-47.1	20.0	0.00e+00	0	40	0	658505728	62	4372
2026-01-21 07:43:11.73	43.84	35.61	-45.7	-47.2	20.0	0.00e+00	0	40	0	660602880	62	4410
2026-01-21 07:43:12.74	43.43	35.64	-44.4	-45.5	21.4	0.00e+00	0	40	0	661651456	60	4091
2026-01-21 07:43:13.74	43.03	35.68	-44.3	-45.4	21.8	0.00e+00	0	40	0	663748608	59	4255
2026-01-21 07:43:14.75	42.62	35.71	-44.5	-45.6	21.6	0.00e+00	0	40	0	665845760	59	4391
2026-01-21 07:43:15.76	42.21	35.73	-44.5	-45.7	21.3	0.00e+00	0	40	0	667942912	60	4167
2026-01-21 07:43:16.77	41.80	35.76	-45.2	-46.5	20.7	0.00e+00	0	40	0	670040064	60	4574
2026-01-21 07:43:17.77	41.40	35.79	-45.6	-47.0	20.1	0.00e+00	0	40	0	672137216	61	4587
2026-01-21 07:43:18.78	40.99	35.81	-45.8	-47.3	19.9	0.00e+00	0	40	0	673185792	62	4466
2026-01-21 07:43:19.79	40.57	35.83	-45.9	-47.4	19.9	0.00e+00	0	40	0	675282944	62	4511
2026-01-21 07:43:20.79	40.17	35.85	-46.0	-47.5	19.7	0.00e+00	0	40	0	677380096	62	4558
2026-01-21 07:43:21.80	39.76	35.87	-46.1	-47.6	19.8	0.00e+00	0	40	0	679477248	62	4599
2026-01-21 07:43:22.81	39.34	35.89	-46.0	-47.5	19.8	0.00e+00	0	40	0	680525824	62	4582
2026-01-21 07:43:23.82	38.93	35.90	-45.7	-47.1	20.1	0.00e+00	0	40	0	682622976	62	4373
2026-01-21 07:43:24.82	38.52	35.92	-45.8	-47.2	20.1	0.00e+00	0	40	0	684720128	62	4421
2026-01-21 07:43:25.83	38.11	35.93	-46.1	-47.5	19.8	0.00e+00	0	40	0	686817280	62	4584
2026-01-21 07:43:26.84	37.69	35.94	-45.9	-47.4	19.9	0.00e+00	0	40	0	688914432	62	4501
2026-01-21 07:43:27.85	37.28	35.95	-46.0	-47.5	19.8	0.00e+00	0	40	0	691011584	63	4311
2026-01-21 07:43:28.86	36.86	35.96	-45.8	-47.2	20.1	0.00e+00	0	40	0	692060160	63	4149
2026-01-21 07:43:29.86	36.45	35.96	-46.0	-47.4	19.8	0.00e+00	0	40	0	694157312	63	4272
2026-01-21 07:43:30.87	36.04	35.97	-45.8	-47.2	20.1	0.00e+00	0	40	0	696254464	62	4396
2026-01-21 07:43:31.88	35.62	35.97	-45.6	-46.9	20.3	0.00e+00	0	40	0	698351616	62	4284
2026-01-21 07:43:32.89	35.21	35.97	-45.4	-46.7	20.5	0.00e+00	0	40	0	700448768	62	4185
2026-01-21 07:43:33.89	34.80	35.97	-46.1	-47.6	19.7	0.00e+00	0	40	0	701497344	62	4604
2026-01-21 07:43:34.90	34.38	35.96	-46.6	-48.3	19.1	0.00e+00	0	40	0	703594496	63	4711
2026-01-21 07:43:35.91	33.97	35.96	-46.4	-48.0	19.1	0.00e+00	0	40	0	705691648	64	4317
2026-01-21 07:43:36.92	33.56	35.95	-46.6	-48.2	19.0	0.00e+00	0	40	0	707788800	64	4425
2026-01-21 07:43:37.92	33.15	35.94	-46.8	-48.5	18.6	0.00e+00	0	40	0	708837376	64	4593
2026-01-21 07:43:38.93	32.73	35.93	-47.0	-48.9	18.3	0.00e+00	0	40	0	710934528	64	4776
2026-01-21 07:43:39.94	32.32	35.92	-46.8	-48.6	18.5	0.00e+00	0	40	0	713031680	64	4619
2026-01-21 07:43:40.95	31.90	35.91	-46.5	-48.2	18.9	0.00e+00	0	40	0	715128832	64	4430
2026-01-21 07:43:41.95	31.50	35.89	-46.2	-47.8	19.3	0.00e+00	0	40	0	717225984	64	4222
2026-01-21 07:43:42.96	31.08	35.88	-46.0	-47.6	19.6	0.00e+00	0	40	0	719323136	63	4343
2026-01-21 07:43:43.97	30.67	35.86	-45.9	-47.4	19.9	0.00e+00	0	40	0	720371712	63	4251
2026-01-21 07:43:44.98	30.26	35.84	-46.6	-48.3	18.9	0.00e+00	0	40	0	722468864	64	4460
2026-01-21 07:43:45.98	29.85	35.81	-47.4	-49.5	17.7	0.00e+00	0	40	0	724566016	65	4837
2026-01-21 07:43:46.99	29.44	35.79	-48.0	-50.4	16.9	0.00e+00	0	40	0	726663168	66	5080
2026-01-21 07:43:48.00	29.03	35.77	-47.4	-49.5	17.7	0.00e+00	0	40	0	728760320	66	4554
2026-01-21 07:43:49.01	28.62	35.74	-46.9	-48.7	18.3	0.00e+00	0	40	0	729808896	65	4426
2026-01-21 07:43:50.02	28.21	35.71	-46.1	-47.6	19.6	0.00e+00	0	40	0	731906048	63	4351
2026-01-21 07:43:51.03	27.81	35.68	-45.9	-47.4	19.8	0.00e+00	0	40	0	734003200	63	4263
2026-01-21 07:43:52.03	27.40	35.65	-45.9	-47.3	19.8	0.00e+00	0	40	0	736100352	63	4229
2026-01-21 07:43:53.04	27.00	35.62	-46.5	-48.1	19.1	0.00e+00	0	40	0	738197504	63	4649
2026-01-21 07:43:54.05	26.59	35.58	-46.7	-48.4	18.9	0.00e+00	0	40	0	739246080	63	4760
2026-01-21 07:43:55.06	26.19	35.54	-46.6	-48.3	18.8	0.00e+00	0	40	0	741343232	64	4461
2026-01-21 07:43:56.07	25.78	35.51	-46.8	-48.5	18.6	0.00e+00	0	40	0	743440384	64	4594
2026-01-21 07:43:57.08	25.38	35.47	-47.3	-49.3	17.8	0.00e+00	0	40	0	745537536	65	4748
2026-01-21 07:43:58.09	24.98	35.43	-47.0	-48.8	18.3	0.00e+00	0	40	0	747634688	66	4213
2026-01-21 07:43:59.09	24.58	35.38	-47.0	-48.8	18.1	0.00e+00	0	40	0	748683264	65	4463
2026-01-21 07:44:00.10	24.18	35.34	-46.7	-48.5	18.5	0.00e+00	0	40	0	750780416	65	4314
2026-01-21 07:44:01.11	23.79	35.29	-46.4	-48.1	18.9	0.00e+00	0	40	0	752877568	64	4361
2026-01-21 07:44:02.12	23.39	35.25	-46.2	-47.9	19.1	0.00e+00	0	40	0	754974720	64	4262
2026-01-21 07:44:03.13	22.99	35.20	-45.8	-47.3	19.7	0.00e+00	0	40	0	757071872	63	4194
2026-01-21 07:44:04.13	22.60	35.15	-46.0	-47.6	19.5	0.00e+00	0	40	0	758120448	63	4343
2026-01-21 07:44:05.14	22.21	35.10	-46.6	-48.4	18.7	0.00e+00	0	40	0	760217600	63	4783
2026-01-21 07:44:06.15	21.82	35.04	-46.5	-48.2	18.8	0.00e+00	0	40	0	762314752	63	4704
2026-01-21 07:44:07.16	21.43	34.99	-46.6	-48.4	18.6	0.00e+00	0	40	0	764411904	64	4543
2026-01-21 07:44:08.17	21.04	34.93	-46.7	-48.5	18.6	0.00e+00	0	40	0	766509056	64	4563
2026-01-21 07:44:09.18	20.65	34.87	-46.6	-48.3	18.7	0.00e+00	0	40	0	767557632	64	4493
2026-01-21 07:44:10.18	20.27	34.82	-46.3	-48.0	18.8	0.00e+00	0	40	0	769654784	64	4332
2026-01-21 07:44:11.19	19.88	34.76	-46.0	-47.6	19.6	0.00e+00	0	40	0	771751936	63	4356
2026-01-21 07:44:12.19	19.50	34.70	-45.5	-47.0	20.0	0.00e+00	0	40	0	773849088	63	4056
2026-01-21 07:44:13.20	19.12	34.63	-46.2	-47.8	19.3	0.00e+00	0	40	0	775946240	63	4470
2026-01-21 07:44:14.21	18.74	34.57	-46.3	-48.0	19.1	0.00e+00	0	40	0	776994816	63	4588
2026-01-21 07:44:15.22	18.36	34.50	-46.8	-48.8	18.3	0.00e+00	0	40	0	779091968	64	4720
2026-01-21 07:44:16.23	17.98	34.44	-47.6	-49.8	17.3	0.00e+00	0	40	0	781189120	65	5029
2026-01-21 07:44:17.23	17.61	34.37	-47.4	-49.6	17.5	0.00e+00	0	40	0	783286272	66	4608
2026-01-21 07:44:18.24	17.23	34.30	-47.0	-48.9	18.2	0.00e+00	0	40	0	785383424	65	4512
2026-01-21 07:44:19.25	16.86	34.23	-46.1	-47.6	19.4	0.00e+00	0	40	0	787480576	64	4143
2026-01-21 07:44:20.26	16.49	34.16	-45.6	-47.0	20.1	0.00e+00	0	40	0	788529152	63	4074
2026-01-21 07:44:21.26	16.12	34.08	-45.4	-46.8	20.2	0.00e+00	0	40	0	790626304	62	4223
2026-01-21 07:44:22.27	15.75	34.01	-45.9	-47.4	19.8	0.00e+00	0	40	0	792723456	62	4519
2026-01-21 07:44:23.28	15.39	33.94	-46.2	-47.7	19.5	0.00e+00	0	40	0	794820608	62	4701
2026-01-21 07:44:24.29	15.02	33.86	-46.6	-48.3	18.9	0.00e+00	0	40	0	795869184	64	4442
2026-01-21 07:44:25.29	14.66	33.78	-47.3	-49.3	17.9	0.00e+00	0	40	0	797966336	65	4707
2026-01-21 07:44:26.30	14.30	33.70	-48.3	-50.7	16.7	0.00e+00	0	40	0	800063488	67	4949
2026-01-21 07:44:27.31	13.94	33.62	-48.5	-51.1	16.3	0.00e+00	0	40	0	802160640	67	5160
2026-01-21 07:44:28.32	13.58	33.54	-47.8	-50.0	17.2	0.00e+00	0	40	0	804257792	67	4573
2026-01-21 07:44:29.32	13.23	33.46	-47.1	-49.1	18.1	0.00e+00	0	40	0	805306368	66	4342
2026-01-21 07:44:30.33	12.88	33.38	-46.9	-48.8	18.4	0.00e+00	0	40	0	807403520	65	4464
2026-01-21 07:44:31.34	12.53	33.30	-47.3	-49.3	17.9	0.00e+00	0	40	0	809500672	65	4737
2026-01-21 07:44:32.35	12.18	33.21	-47.6	-49.7	17.6	0.00e+00	0	40	0	811597824	65	4936
2026-01-21 07:44:33.35	11.83	33.13	-48.0	-50.3	17.0	0.00e+00	0	40	0	813694976	66	5029
2026-01-21 07:44:34.36	11.48	33.04	-48.5	-51.1	16.2	0.00e+00	0	40	0	815792128	67	5195
2026-01-21 07:44:35.37	11.14	32.95	-48.6	-51.3	16.1	0.00e+00	0	40	0	816840704	68	5013
2026-01-21 07:44:36.38	10.80	32.86	-48.3	-50.9	16.4	0.00e+00	0	40	0	818937856	68	4765
2026-01-21 07:44:37.38	10.46	32.77	-47.3	-49.2	17.8	0.00e+00	0	40	0	821035008	66	4430
2026-01-21 07:44:38.39	10.12	32.68	-47.3	-49.3	17.8	0.00e+00	0	40	0	823132160	66	4467
2026-01-21 07:44:39.40	9.78	32.59	-47.0	-48.8	18.3	0.00e+00	0	40	0	824180736	65	4476
2026-01-21 07:44:40.41	9.45	32.50	-47.0	-48.9	18.2	0.00e+00	0	40	0	826277888	65	4536
2026-01-21 07:44:41.41	9.12	32.41	-47.0	-48.9	18.3	0.00e+00	0	40	0	828375040	65	4519
2026-01-21 07:44:42.42	8.78	32.31	-47.1	-48.9	18.2	0.00e+00	0	40	0	830472192	65	4542
2026-01-21 07:44:43.43	8.45	32.22	-46.1	-47.7	19.3	0.00e+00	0	40	0	832569344	64	4170
2026-01-21 07:44:44.44	8.13	32.13	-46.2	-47.8	19.4	0.00e+00	0	40	0	833617920	63	4450
2026-01-21 07:44:45.44	7.80	32.03	-46.6	-48.3	18.9	0.00e+00	0	40	0	835715072	63	4723
2026-01-21 07:44:46.45	7.48	31.93	-47.4	-49.5	17.7	0.00e+00	0	40	0	837812224	65	4818
2026-01-21 07:44:47.46	7.16	31.84	-47.9	-50.2	17.1	0.00e+00	0	40	0	839909376	66	4941
2026-01-21 07:44:48.47	6.84	31.74	-47.6	-49.7	17.5	0.00e+00	0	40	0	842006528	66	4676
2026-01-21 07:44:49.48	6.52	31.64	-47.2	-49.0	18.1	0.00e+00	0	40	0	844103680	66	4334
2026-01-21 07:44:50.48	6.21	31.54	-46.5	-48.1	18.9	0.00e+00	0	40	0	845152256	64	4375
2026-01-21 07:44:51.49	5.89	31.44	-45.7	-47.1	20.0	0.00e+00	0	40	0	847249408	63	4101
2026-01-21 07:44:52.50	5.58	31.34	-45.4	-46.7	20.3	0.00e+00	0	40	0	849346560	62	4193
2026-01-21 07:44:53.51	5.27	31.24	-45.8	-47.2	20.0	0.00e+00	0	40	0	851443712	62	4416
2026-01-21 07:44:54.51	4.97	31.14	-46.7	-48.5	18.8	0.00e+00	0	40	0	852492288	64	4553
2026-01-21 07:44:55.52	4.66	31.03	-47.4	-49.3	18.0	0.00e+00	0	40	0	854589440	65	4745
2026-01-21 07:44:56.53	4.36	30.93	-47.3	-49.3	17.9	0.00e+00	0	40	0	856686592	65	4731
2026-01-21 07:44:57.54	4.05	30.83	-47.1	-48.9	18.3	0.00e+00	0	40	0	858783744	65	4529
2026-01-21 07:44:58.55	3.75	30.72	-46.9	-48.7	18.6	0.00e+00	0	40	0	860880896	65	4401
2026-01-21 07:44:59.55	3.46	30.62	-46.9	-48.7	18.4	0.00e+00	0	40	0	862978048	65	4420
2026-01-21 07:45:00.56	3.16	30.52	-47.0	-48.9	18.4	0.00e+00	0	40	0	864026624	65	4504
2026-01-21 07:45:01.57	2.87	30.41	-47.2	-49.1	18.1	0.00e+00	0	40	0	866123776	65	4632
2026-01-21 07:45:02.58	2.57	30.30	-47.1	-48.9	18.3	0.00e+00	0	40	0	868220928	65	4526
2026-01-21 07:45:03.58	2.29	30.20	-47.2	-49.1	18.3	0.00e+00	0	40	0	870318080	65	4620
2026-01-21 07:45:04.59	2.00	30.09	-47.4	-49.3	17.9	0.00e+00	0	40	0	872415232	65	4758
2026-01-21 07:45:05.60	1.71	29.98	-47.8	-50.0	17.3	0.00e+00	0	40	0	873463808	66	4819
2026-01-21 07:45:06.61	1.43	29.88	-47.9	-50.1	17.2	0.00e+00	0	40	0	875560960	66	4891
2026-01-21 07:45:07.62	1.14	29.77	-47.7	-49.7	17.5	0.00e+00	0	40	0	877658112	66	4698
2026-01-21 07:45:08.62	0.87	29.66	-47.5	-49.4	17.9	0.00e+00	0	40	0	879755264	66	4499
2026-01-21 07:45:09.63	0.59	29.55	-47.4	-49.3	18.0	0.00e+00	0	40	0	880803840	66	4446
2026-01-21 07:45:10.64	0.31	29.44	-47.2	-49.0	18.3	0.00e+00	0	40	0	882900992	66	4314
2026-01-21 07:45:11.65	0.03	29.33	-47.2	-48.9	18.2	0.00e+00	0	40	0	884998144	66	4287
2026-01-21 07:45:12.66	359.76	29.22	-47.5	-49.3	18.0	0.00e+00	0	40	0	887095296	66	4490
2026-01-21 07:45:13.66	359.49	29.11	-47.4	-49.2	18.0	0.00e+00	0	40	0	889192448	66	4408
2026-01-21 07:45:14.67	359.22	29.00	-47.0	-48.7	18.4	0.00e+00	0	40	0	891289600	66	4185
2026-01-21 07:45:15.68	358.95	28.89	-46.9	-48.6	18.6	0.00e+00	0	40	0	892338176	65	4342
2026-01-21 07:45:16.69	358.69	28.78	-46.8	-48.4	18.8	0.00e+00	0	40	0	894435328	65	4281
2026-01-21 07:45:17.70	358.42	28.67	-46.5	-48.1	19.0	0.00e+00	0	40	0	896532480	65	4115
2026-01-21 07:45:18.71	358.16	28.56	-45.9	-47.4	19.8	0.00e+00	0	40	0	898629632	63	4248
2026-01-21 07:45:19.71	357.90	28.45	-45.2	-46.5	20.6	0.00e+00	0	40	0	900726784	62	4060
2026-01-21 07:45:20.72	357.65	28.34	-44.9	-46.1	20.9	0.00e+00	0	40	0	901775360	61	4138
2026-01-21 07:45:21.73	357.39	28.23	-44.9	-46.1	21.0	0.00e+00	0	40	0	903872512	61	4119
2026-01-21 07:45:22.73	357.14	28.11	-44.9	-46.2	20.9	0.00e+00	0	40	0	905969664	61	4158
2026-01-21 07:45:23.74	356.88	28.00	-45.8	-47.2	20.0	0.00e+00	0	40	0	908066816	62	4407
2026-01-21 07:45:24.75	356.63	27.89	-46.1	-47.6	19.6	0.00e+00	0	40	0	910163968	62	4607
2026-01-21 07:45:25.76	356.38	27.78	-46.2	-47.7	19.5	0.00e+00	0	40	0	911212544	63	4419
2026-01-21 07:45:26.77	356.13	27.66	-46.4	-48.0	19.3	0.00e+00	0	40	0	913309696	63	4550
2026-01-21 07:45:27.77	355.89	27.55	-46.1	-47.6	19.6	0.00e+00	0	40	0	915406848	63	4375
2026-01-21 07:45:28.78	355.65	27.44	-46.1	-47.6	19.7	0.00e+00	0	40	0	917504000	63	4358
2026-01-21 07:45:29.79	355.40	27.33	-45.8	-47.2	20.1	0.00e+00	0	40	0	919601152	63	4146
2026-01-21 07:45:30.80	355.16	27.21	-45.5	-46.8	20.4	0.00e+00	0	40	0	920649728	62	4228
2026-01-21 07:45:31.81	354.92	27.10	-45.1	-46.4	20.7	0.00e+00	0	40	0	922746880	62	4020
2026-01-21 07:45:32.81	354.69	26.99	-45.1	-46.4	20.7	0.00e+00	0	40	0	924844032	62	4029
2026-01-21 07:45:33.82	354.45	26.87	-45.4	-46.8	20.4	0.00e+00	0	40	0	926941184	62	4219
2026-01-21 07:45:34.83	354.22	26.76	-45.9	-47.5	19.8	0.00e+00	0	40	0	929038336	62	4547
2026-01-21 07:45:35.84	353.99	26.65	-46.1	-47.6	19.6	0.00e+00	0	40	0	930086912	62	4630
2026-01-21 07:45:36.85	353.76	26.53	-46.2	-47.8	19.5	0.00e+00	0	40	0	932184064	63	4456
2026-01-21 07:45:37.85	353.53	26.42	-45.8	-47.3	19.9	0.00e+00	0	40	0	934281216	63	4218
2026-01-21 07:45:38.86	353.30	26.30	-45.3	-46.6	20.5	0.00e+00	0	40	0	936378368	62	4139
2026-01-21 07:45:39.87	353.08	26.19	-45.1	-46.4	20.7	0.00e+00	0	40	0	938475520	62	4033
2026-01-21 07:45:40.88	352.85	26.08	-45.3	-46.7	20.5	0.00e+00	0	40	0	939524096	62	4151
2026-01-21 07:45:41.89	352.63	25.96	-45.1	-46.5	20.7	0.00e+00	0	40	0	941621248	62	4058
2026-01-21 07:45:42.89	352.41	25.85	-45.2	-46.5	20.3	0.00e+00	0	40	0	943718400	62	4094
2026-01-21 07:45:43.90	352.19	25.74	-45.4	-46.7	20.4	0.00e+00	0	40	0	945815552	62	4190
2026-01-21 07:45:44.91	351.98	25.62	-45.1	-46.3	20.7	0.00e+00	0	40	0	947912704	62	4002
2026-01-21 07:45:45.92	351.76	25.51	-45.0	-46.3	20.7	0.00e+00	0	40	0	948961280	62	3983
2026-01-21 07:45:46.93	351.54	25.40	-44.9	-46.1	20.9	0.00e+00	0	40	0	951058432	61	4129
2026-01-21 07:45:47.93	351.33	25.28	-45.2	-46.5	20.6	0.00e+00	0	40	0	953155584	61	4301
2026-01-21 07:45:48.94	351.12	25.17	-45.3	-46.6	20.4	0.00e+00	0	40	0	955252736	61	4389
2026-01-21 07:45:49.95	350.91	25.06	-45.2	-46.6	20.4	0.00e+00	0	40	0	957349888	61	4360
2026-01-21 07:45:50.96	350.70	24.94	-45.3	-46.6	20.4	0.00e+00	0	40	0	958398464	61	4379
2026-01-21 07:45:51.96	350.50	24.83	-45.2	-46.6	20.5	0.00e+00	0	40	0	960495616	61	4348
2026-01-21 07:45:52.97	350.29	24.72	-45.0	-46.3	20.7	0.00e+00	0	40	0	962592768	61	4235
2026-01-21 07:45:53.98	350.09	24.60	-44.9	-46.2	20.8	0.00e+00	0	40	0	964689920	61	4173
2026-01-21 07:45:54.99	349.89	24.49	-45.1	-46.4	20.7	0.00e+00	0	40	0	966787072	61	4253
2026-01-21 07:45:56.00	349.69	24.38	-45.3	-46.6	20.5	0.00e+00	0	40	0	967835648	61	4362
2026-01-21 07:45:57.01	349.49	24.26	-45.1	-46.5	20.6	0.00e+00	0	40	0	969932800	61	4296
2026-01-21 07:45:58.01	349.29	24.15	-45.2	-46.6	20.6	0.00e+00	0	40	0	972029952	61	4346
2026-01-21 07:45:59.02	349.10	24.04	-45.1	-46.4	20.6	0.00e+00	0	40	0	974127104	61	4287
2026-01-21 07:46:00.03	348.90	23.93	-45.1	-46.4	20.7	0.00e+00	0	40	0	976224256	61	4251
2026-01-21 07:46:01.04	348.71	23.82	-45.0	-46.2	20.8	0.00e+00	0	40	0	977272832	61	4184
2026-01-21 07:46:02.05	348.51	23.70	-44.8	-46.0	21.0	0.00e+00	0	40	0	979369984	61	4079
2026-01-21 07:46:03.05	348.33	23.59	-45.2	-46.6	20.5	0.00e+00	0	40	0	981467136	61	4347
2026-01-21 07:46:04.06	348.14	23.48	-45.2	-46.5	20.6	0.00e+00	0	40	0	983564288	61	4320
2026-01-21 07:46:05.07	347.95	23.37	-45.5	-46.9	20.2	0.00e+00	0	40	0	985661440	61	4502
2026-01-21 07:46:06.08	347.76	23.26	-45.7	-47.1	20.1	0.00e+00	0	40	0	986710016	61	4609
2026-01-21 07:46:07.08	347.58	23.15	-45.7	-47.1	20.0	0.00e+00	0	40	0	988807168	62	4370
2026-01-21 07:46:08.09	347.39	23.03	-45.3	-46.7	20.4	0.00e+00	0	40	0	990904320	62	4150
2026-01-21 07:46:09.10	347.21	22.92	-45.4	-46.8	20.3	0.00e+00	0	40	0	993001472	62	4204
2026-01-21 07:46:10.11	347.03	22.81	-45.1	-46.4	20.7	0.00e+00	0	40	0	995098624	62	4011
2026-01-21 07:46:11.12	346.85	22.70	-45.0	-46.2	20.8	0.00e+00	0	40	0	996147200	61	4191
2026-01-21 07:46:12.13	346.67	22.59	-45.2	-46.4	20.6	0.00e+00	0	40	0	998244352	61	4288
2026-01-21 07:46:13.13	346.49	22.48	-45.0	-46.2	20.8	0.00e+00	0	40	0	1000341504	61	4181
2026-01-21 07:46:14.14	346.32	22.37	-45.3	-46.6	20.5	0.00e+00	0	40	0	1002438656	61	4358
2026-01-21 07:46:15.15	346.14	22.26	-45.7	-47.1	20.0	0.00e+00	0	40	0	1004535808	61	4628
2026-01-21 07:46:16.16	345.97	22.15	-46.2	-47.7	19.4	0.00e+00	0	40	0	1006632960	63	4424
2026-01-21 07:46:17.16	345.80	22.04	-46.1	-47.6	19.6	0.00e+00	0	40	0	1007681536	63	4371
2026-01-21 07:46:18.17	345.63	21.93	-46.4	-48.0	19.3	0.00e+00	0	40	0	1009778688	63	4560
2026-01-21 07:46:19.18	345.46	21.82	-46.4	-48.0	19.2	0.00e+00	0	40	0	1011875840	63	4561
2026-01-21 07:46:20.19	345.29	21.71	-46.7	-48.4	18.8	0.00e+00	0	40	0	1013972992	63	4795
2026-01-21 07:46:21.20	345.12	21.60	-46.5	-48.2	18.9	0.00e+00	0	40	0	1015021568	64	4396
2026-01-21 07:46:22.21	344.96	21.49	-46.8	-48.5	18.5	0.00e+00	0	40	0	1017118720	64	4592
2026-01-21 07:46:23.21	344.79	21.39	-46.7	-48.5	18.5	0.00e+00	0	40	0	1019215872	64	4549
2026-01-21 07:46:24.22	344.63	21.28	-46.2	-47.8	19.3	0.00e+00	0	40	0	1021313024	64	4201
2026-01-21 07:46:25.23	344.46	21.17	-45.9	-47.4	19.6	0.00e+00	0	40	0	1023410176	63	4281
2026-01-21 07:46:26.23	344.30	21.06	-45.9	-47.3	19.7	0.00e+00	0	40	0	1024458752	63	4226
2026-01-21 07:46:27.24	344.14	20.96	-45.3	-46.6	20.3	0.00e+00	0	40	0	1026555904	62	4137
2026-01-21 07:46:28.25	343.98	20.85	-44.8	-46.1	20.9	0.00e+00	0	40	0	1028653056	61	4102
2026-01-21 07:46:29.26	343.83	20.74	-44.9	-46.2	20.7	0.00e+00	0	40	0	1030750208	61	4178
2026-01-21 07:46:30.26	343.67	20.63	-44.8	-46.1	20.9	0.00e+00	0	40	0	1032847360	61	4104
2026-01-21 07:46:31.27	343.51	20.53	-45.0	-46.3	20.7	0.00e+00	0	40	0	1034944512	61	4221
2026-01-21 07:46:32.28	343.36	20.42	-45.2	-46.5	20.4	0.00e+00	0	40	0	1035993088	61	4311
2026-01-21 07:46:33.29	343.21	20.31	-45.5	-46.8	20.2	0.00e+00	0	40	0	1038090240	61	4485
2026-01-21 07:46:34.30	343.05	20.21	-45.5	-46.8	20.2	0.00e+00	0	40	0	1040187392	61	4488
2026-01-21 07:46:35.30	342.90	20.10	-45.4	-46.7	20.3	0.00e+00	0	40	0	1042284544	61	4441
2026-01-21 07:46:36.31	342.75	20.00	-45.4	-46.7	20.3	0.00e+00	0	40	0	1043333120	61	4407
2026-01-21 07:46:37.32	342.60	19.89	-45.1	-46.4	20.5	0.00e+00	0	40	0	1045430272	61	4270
2026-01-21 07:46:38.33	342.45	19.79	-44.9	-46.2	20.8	0.00e+00	0	40	0	1047527424	61	4159
2026-01-21 07:46:39.34	342.31	19.68	-44.9	-46.2	20.8	0.00e+00	0	40	0	1049624576	61	4159
2026-01-21 07:46:40.35	342.16	19.58	-44.9	-46.1	20.8	0.00e+00	0	40	0	1051721728	61	4125
2026-01-21 07:46:41.35	342.02	19.47	-44.7	-45.9	21.0	0.00e+00	0	40	0	1053818880	61	4032
2026-01-21 07:46:42.36	341.87	19.37	-44.9	-46.2	20.7	0.00e+00	0	40	0	1054867456	61	4162
2026-01-21 07:46:43.37	341.73	19.27	-45.1	-46.4	20.6	0.00e+00	0	40	0	1056964608	61	4268
2026-01-21 07:46:44.38	341.59	19.16	-45.4	-46.7	20.2	0.00e+00	0	40	0	1059061760	61	4432
2026-01-21 07:46:45.38	341.45	19.06	-45.8	-47.3	19.8	0.00e+00	0	40	0	1061158912	62	4467
2026-01-21 07:46:46.39	341.31	18.96	-46.2	-47.8	19.3	0.00e+00	0	40	0	1063256064	62	4714
2026-01-21 07:46:47.40	341.17	18.85	-46.7	-48.5	18.6	0.00e+00	0	40	0	1064304640	64	4550
2026-01-21 07:46:48.41	341.03	18.75	-47.1	-48.9	18.1	0.00e+00	0	40	0	1066401792	64	4810
2026-01-21 07:46:49.42	340.89	18.65	-47.8	-50.0	17.1	0.00e+00	0	40	0	1068498944	66	4826
2026-01-21 07:46:50.43	340.75	18.55	-48.1	-50.4	16.8	0.00e+00	0	40	0	1070596096	67	4767
2026-01-21 07:46:51.43	340.62	18.44	-48.5	-50.9	16.2	0.00e+00	0	40	0	1071644672	67	5100
2026-01-21 07:46:52.44	340.48	18.34	-48.5	-51.1	16.0	0.00e+00	0	40	0	1073741824	67	5162
2026-01-21 07:46:53.45	340.35	18.24	-48.0	-50.2	16.9	0.00e+00	0	40	0	1075838976	67	4678
2026-01-21 07:46:54.46	340.22	18.14	-47.4	-49.4	17.7	0.00e+00	0	40	0	1077936128	66	4498
2026-01-21 07:46:55.46	340.09	18.04	-47.0	-48.9	18.1	0.00e+00	0	40	0	1080033280	66	4253
2026-01-21 07:46:56.47	339.95	17.94	-46.5	-48.2	18.8	0.00e+00	0	40	0	1082130432	65	4159
2026-01-21 07:46:57.48	339.82	17.84	-46.0	-47.5	19.4	0.00e+00	0	40	0	1083179008	64	4086
2026-01-21 07:46:58.49	339.70	17.74	-45.9	-47.4	19.6	0.00e+00	0	40	0	1085276160	63	4268
2026-01-21 07:46:59.50	339.57	17.64	-45.8	-47.3	19.7	0.00e+00	0	40	0	1087373312	63	4213
2026-01-21 07:47:00.50	339.44	17.54	-45.8	-47.2	19.8	0.00e+00	0	40	0	1089470464	63	4182
2026-01-21 07:47:01.51	339.31	17.44	-46.0	-47.5	19.5	0.00e+00	0	40	0	1091567616	63	4321
2026-01-21 07:47:02.52	339.19	17.34	-46.3	-48.0	19.1	0.00e+00	0	40	0	1092616192	63	4549
2026-01-21 07:47:03.53	339.06	17.24	-46.5	-48.2	18.9	0.00e+00	0	40	0	1094713344	63	4670
2026-01-21 07:47:04.53	338.94	17.14	-46.6	-48.3	18.7	0.00e+00	0	40	0	1096810496	64	4469
2026-01-21 07:47:05.54	338.82	17.04	-46.7	-48.5	18.5	0.00e+00	0	40	0	1098907648	64	4559
2026-01-21 07:47:06.55	338.69	16.95	-46.5	-48.2	18.7	0.00e+00	0	40	0	1101004800	64	4407
2026-01-21 07:47:07.56	338.57	16.85	-46.3	-47.9	19.0	0.00e+00	0	40	0	1102053376	64	4269
2026-01-21 07:47:08.56	338.45	16.75	-46.0	-47.6	19.3	0.00e+00	0	40	0	1104150528	64	4118
2026-01-21 07:47:09.57	338.33	16.65	-45.9	-47.4	19.5	0.00e+00	0	40	0	1106247680	63	4275
2026-01-21 07:47:10.58	338.21	16.56	-45.4	-46.8	20.1	0.00e+00	0	40	0	1108344832	62	4233
2026-01-21 07:47:11.59	338.09	16.46	-45.2	-46.5	20.3	0.00e+00	0	40	0	1110441984	62	4086
2026-01-21 07:47:12.60	337.98	16.36	-45.0	-46.3	20.5	0.00e+00	0	40	0	1111490560	62	4002
2026-01-21 07:47:13.61	337.86	16.27	-45.0	-46.4	20.5	0.00e+00	0	40	0	1113587712	62	4006
2026-01-21 07:47:14.61	337.74	16.17	-45.2	-46.6	20.3	0.00e+00	0	40	0	1115684864	62	4120
2026-01-21 07:47:15.62	337.63	16.08	-45.2	-46.5	20.3	0.00e+00	0	40	0	1117782016	62	4098
2026-01-21 07:47:16.63	337.51	15.98	-45.4	-46.8	20.0	0.00e+00	0	40	0	1119879168	62	4236
2026-01-21 07:47:17.64	337.40	15.88	-45.6	-47.0	19.9	0.00e+00	0	40	0	1120927744	62	4304
2026-01-21 07:47:18.65	337.29	15.79	-45.6	-47.0	19.9	0.00e+00	0	40	0	1123024896	62	4317
2026-01-21 07:47:19.65	337.18	15.70	-45.7	-47.2	19.7	0.00e+00	0	40	0	1125122048	62	4417
2026-01-21 07:47:20.66	337.06	15.60	-45.8	-47.3	19.6	0.00e+00	0	40	0	1127219200	62	4447
2026-01-21 07:47:21.67	336.95	15.51	-45.8	-47.3	19.6	0.00e+00	0	40	0	1129316352	62	4443
2026-01-21 07:47:22.68	336.84	15.41	-45.9	-47.4	19.5	0.00e+00	0	40	0	1130364928	62	4508
2026-01-21 07:47:23.69	336.73	15.32	-45.9	-47.4	19.5	0.00e+00	0	40	0	1132462080	62	4505
2026-01-21 07:47:24.69	336.62	15.23	-46.0	-47.5	19.4	0.00e+00	0	40	0	1134559232	62	4571
2026-01-21 07:47:25.70	336.52	15.13	-46.2	-47.8	19.2	0.00e+00	0	40	0	1136656384	63	4455
2026-01-21 07:47:26.71	336.41	15.04	-46.2	-47.8	19.2	0.00e+00	0	40	0	1138753536	63	4442
2026-01-21 07:47:27.72	336.30	14.95	-46.4	-48.0	18.9	0.00e+00	0	40	0	1139802112	63	4574
2026-01-21 07:47:28.72	336.20	14.85	-46.4	-48.0	19.0	0.00e+00	0	40	0	1141899264	63	4546
2026-01-21 07:47:29.73	336.09	14.76	-46.3	-47.8	19.1	0.00e+00	0	40	0	1143996416	63	4475
2026-01-21 07:47:30.74	335.99	14.67	-46.2	-47.8	19.2	0.00e+00	0	40	0	1146093568	63	4442
2026-01-21 07:47:31.75	335.88	14.58	-46.3	-47.9	19.0	0.00e+00	0	40	0	1148190720	63	4500
2026-01-21 07:47:32.75	335.78	14.49	-46.1	-47.7	19.2	7.00e-07	0	40	0	1150287872	63	4392
2026-01-21 07:47:33.76	335.68	14.40	-46.0	-47.5	19.4	0.00e+00	0	40	0	1151336448	63	4301
2026-01-21 07:47:34.77	335.58	14.30	-45.8	-47.3	19.6	0.00e+00	0	40	0	1153433600	63	4202
2026-01-21 07:47:35.78	335.47	14.21	-45.8	-47.2	19.6	0.00e+00	0	40	0	1155530752	63	4184
2026-01-21 07:47:36.78	335.37	14.12	-45.9	-47.3	19.6	0.00e+00	0	40	0	1157627904	63	4226
2026-01-21 07:47:37.79	335.27	14.03	-46.0	-47.5	19.4	0.00e+00	0	40	0	1158676480	63	4317
2026-01-21 07:47:38.80	335.17	13.94	-46.1	-47.7	19.2	0.00e+00	0	40	0	1160773632	63	4399
2026-01-21 07:47:39.81	335.08	13.85	-46.3	-47.9	19.0	0.00e+00	0	40	0	1162870784	63	4536
2026-01-21 07:47:40.82	334.98	13.76	-46.7	-48.3	18.6	0.00e+00	0	40	0	1164967936	63	4754
2026-01-21 07:47:41.83	334.88	13.67	-46.8	-48.6	18.3	0.00e+00	0	40	0	1167065088	64	4628
2026-01-21 07:47:42.83	334.78	13.59	-47.2	-49.1	17.8	0.00e+00	0	40	0	1168113664	64	4876
2026-01-21 07:47:43.84	334.69	13.50	-47.5	-49.5	17.4	0.00e+00	0	40	0	1170210816	65	4869
2026-01-21 07:47:44.85	334.59	13.41	-47.6	-49.7	17.1	0.00e+00	0	40	0	1172307968	65	4968
2026-01-21 07:47:45.86	334.49	13.32	-47.9	-50.1	16.9	0.00e+00	0	40	0	1174405120	66	4891
2026-01-21 07:47:46.87	334.40	13.23	-48.2	-50.6	16.4	0.00e+00	0	40	0	1176502272	66	5169
2026-01-21 07:47:47.87	334.31	13.14	-47.9	-50.1	16.8	0.00e+00	0	40	0	1178599424	66	4923
2026-01-21 07:47:48.88	334.21	13.06	-48.0	-50.3	16.6	0.00e+00	0	40	0	1179648000	66	4998
2026-01-21 07:47:49.89	334.12	12.97	-47.6	-49.8	17.1	0.00e+00	0	40	0	1181745152	66	4708
2026-01-21 07:47:50.90	334.03	12.88	-47.5	-49.5	17.4	0.00e+00	0	40	0	1183842304	66	4562
2026-01-21 07:47:51.91	333.94	12.79	-47.1	-49.1	17.8	0.00e+00	0	40	0	1185939456	66	4343
2026-01-21 07:47:52.91	333.85	12.71	-47.1	-48.9	17.9	0.00e+00	0	40	0	1186988032	66	4282
2026-01-21 07:47:53.92	333.75	12.62	-46.8	-48.6	18.1	0.00e+00	0	40	0	1189085184	65	4382
2026-01-21 07:47:54.93	333.66	12.54	-46.4	-48.0	18.7	0.00e+00	0	40	0	1191182336	64	4339
2026-01-21 07:47:55.94	333.58	12.45	-46.4	-48.0	18.7	0.00e+00	0	40	0	1193279488	64	4320
2026-01-21 07:47:56.95	333.49	12.36	-46.1	-47.7	19.0	0.00e+00	0	40	0	1195376640	64	4182
2026-01-21 07:47:57.95	333.40	12.28	-46.1	-47.6	19.1	0.00e+00	0	40	0	1197473792	64	4131
2026-01-21 07:47:58.96	333.31	12.19	-46.1	-47.6	19.1	0.00e+00	0	40	0	1198522368	63	4374
2026-01-21 07:47:59.97	333.22	12.11	-46.1	-47.7	19.0	0.00e+00	0	40	0	1200619520	63	4409
2026-01-21 07:48:00.98	333.14	12.02	-46.0	-47.5	19.2	0.00e+00	0	40	0	1202716672	63	4316
2026-01-21 07:48:01.99	333.05	11.94	-45.7	-47.2	19.5	0.00e+00	0	40	0	1204813824	63	4157
2026-01-21 07:48:02.99	332.96	11.85	-45.9	-47.5	19.3	0.00e+00	0	40	0	1206910976	63	4298
2026-01-21 07:48:04.00	332.88	11.77	-45.9	-47.4	19.3	7.00e-07	0	40	0	1207959552	63	4272
2026-01-21 07:48:05.01	332.79	11.69	-45.9	-47.4	19.3	0.00e+00	0	40	0	1210056704	63	4263
2026-01-21 07:48:06.02	332.71	11.60	-45.8	-47.3	19.4	5.30e-06	0	40	0	1212153856	63	4222
2026-01-21 07:48:07.03	332.63	11.52	-45.8	-47.3	19.4	0.00e+00	0	40	0	1214251008	63	4213
2026-01-21 07:48:08.04	332.54	11.43	-46.0	-47.5	19.2	0.00e+00	0	40	0	1215299584	63	4319
2026-01-21 07:48:09.05	332.46	11.35	-46.0	-47.5	19.2	0.00e+00	0	40	0	1217396736	63	4321
2026-01-21 07:48:10.05	332.38	11.27	-46.1	-47.7	19.1	0.00e+00	0	40	0	1219493888	63	4402
2026-01-21 07:48:11.06	332.30	11.19	-46.0	-47.5	19.2	0.00e+00	0	40	0	1221591040	63	4336
2026-01-21 07:48:12.07	332.21	11.10	-46.1	-47.6	19.2	0.00e+00	0	40	0	1223688192	63	4356
2026-01-21 07:48:13.08	332.13	11.02	-46.1	-47.7	19.1	0.00e+00	0	40	0	1225785344	63	4410
2026-01-21 07:48:14.09	332.05	10.94	-46.3	-47.9	18.9	0.00e+00	0	40	0	1226833920	63	4506
2026-01-21 07:48:15.09	331.97	10.86	-46.1	-47.7	19.0	0.00e+00	0	40	0	1228931072	63	4420
2026-01-21 07:48:16.10	331.89	10.78	-46.5	-48.2	18.6	0.00e+00	0	40	0	1231028224	63	4668
2026-01-21 07:48:17.11	331.81	10.70	-46.5	-48.1	18.6	0.00e+00	0	40	0	1233125376	63	4629
2026-01-21 07:48:18.12	331.74	10.61	-46.6	-48.3	18.5	0.00e+00	0	40	0	1235222528	63	4721
2026-01-21 07:48:19.13	331.66	10.53	-46.5	-48.2	18.6	0.00e+00	0	40	0	1236271104	63	4657
2026-01-21 07:48:20.14	331.58	10.45	-46.7	-48.4	18.3	0.00e+00	0	40	0	1238368256	64	4532
2026-01-21 07:48:21.15	331.50	10.37	-46.6	-48.3	18.4	0.00e+00	0	40	0	1240465408	64	4481
2026-01-21 07:48:22.15	331.43	10.29	-46.7	-48.4	18.2	0.00e+00	0	40	0	1242562560	64	4540
