passes_logs/2026/01/21/R3.2S_Murmansk/R3.2S_Murmansk__20260121_133555_FENGYUN_3D_rec.log

#Pass ID: 20260121_133555_FENGYUN 3D
#Satellite: FENGYUN 3D
#Configuration: FENGYUN 3D
#almurnet v.1.7.20251203
#Start time: 2026-01-21 13:35:55

#Version: 2.2.20231116
#Station: R3.2S_Murmansk
#Location: 33.079688 lon 68.888172 lat
#TLE: 1 43010U 17072A   26020.92362722 -.00000077  00000+0 -14488-4 0  9992
#TLE: 2 43010  98.9946 352.8312 0002486  99.3651 260.7806 14.19696535424099

#Time	Az	El	Level	Level2	SNR	BER	BlckErr	Temp	State	Recorded	gain1	gain2
2026-01-21 13:35:55.97	202.26	2.02	-50.3	-62.2	3.8	8.46e-01	0	38	0	0	71	14811
2026-01-21 13:35:56.98	202.32	2.08	-50.3	-62.2	3.8	8.46e-01	0	38	104	0	71	14827
2026-01-21 13:35:57.98	202.38	2.14	-50.3	-62.2	3.8	8.46e-01	0	38	104	0	71	14784
2026-01-21 13:35:58.99	202.44	2.20	-50.3	-62.2	3.8	8.46e-01	0	38	104	0	71	14767
2026-01-21 13:36:00.01	202.50	2.26	-50.3	-62.2	3.8	8.46e-01	0	38	104	0	71	14768
2026-01-21 13:36:01.01	202.57	2.31	-50.3	-62.2	3.8	8.45e-01	0	38	104	0	71	14784
2026-01-21 13:36:02.02	202.63	2.37	-50.3	-62.2	3.8	8.47e-01	0	38	104	0	71	14782
2026-01-21 13:36:03.03	202.69	2.43	-50.3	-62.2	3.8	8.46e-01	0	38	104	0	71	14783
2026-01-21 13:36:04.04	202.75	2.49	-50.3	-62.2	3.8	8.46e-01	0	38	104	0	71	14772
2026-01-21 13:36:05.04	202.82	2.55	-50.3	-62.2	3.8	8.47e-01	0	38	104	0	71	14746
2026-01-21 13:36:06.05	202.88	2.61	-50.3	-62.2	3.8	8.46e-01	0	38	104	0	71	14776
2026-01-21 13:36:07.06	202.94	2.67	-50.3	-62.2	3.8	8.46e-01	0	38	104	0	71	14787
2026-01-21 13:36:08.07	203.01	2.73	-50.3	-62.2	3.8	8.47e-01	0	38	104	0	71	14745
2026-01-21 13:36:09.08	203.07	2.79	-50.3	-62.2	3.8	8.47e-01	0	39	104	0	71	14713
2026-01-21 13:36:10.08	203.14	2.85	-50.3	-62.2	3.8	8.45e-01	0	38	104	0	71	14787
2026-01-21 13:36:11.09	203.20	2.91	-50.3	-62.2	3.8	8.46e-01	0	38	104	0	71	14788
2026-01-21 13:36:12.10	203.27	2.96	-50.2	-62.2	3.8	8.46e-01	0	39	104	0	71	14734
2026-01-21 13:36:13.11	203.33	3.02	-50.3	-62.2	3.8	8.46e-01	0	38	104	0	71	14761
2026-01-21 13:36:14.12	203.40	3.08	-50.3	-62.2	3.8	8.46e-01	0	39	104	0	71	14789
2026-01-21 13:36:15.12	203.46	3.14	-50.3	-62.2	3.8	8.46e-01	0	39	104	0	71	14777
2026-01-21 13:36:16.13	203.53	3.20	-50.3	-62.2	3.8	8.46e-01	0	39	104	0	71	14757
2026-01-21 13:36:17.14	203.59	3.26	-50.3	-62.2	3.8	8.46e-01	0	39	104	0	71	14753
2026-01-21 13:36:18.15	203.66	3.33	-50.3	-62.2	3.8	8.45e-01	0	39	104	0	71	14771
2026-01-21 13:36:19.16	203.73	3.39	-50.3	-62.2	3.8	8.46e-01	0	38	104	0	71	14778
2026-01-21 13:36:20.17	203.80	3.45	-50.3	-62.2	3.8	8.46e-01	0	39	104	0	71	14763
2026-01-21 13:36:21.17	203.86	3.51	-50.3	-62.2	3.8	8.47e-01	0	39	104	0	71	14793
2026-01-21 13:36:22.18	203.93	3.57	-50.3	-62.2	3.8	8.45e-01	0	39	104	0	71	14752
2026-01-21 13:36:23.19	204.00	3.63	-50.3	-62.2	3.8	8.45e-01	0	39	104	0	71	14742
2026-01-21 13:36:24.19	204.06	3.69	-50.3	-62.2	3.8	8.46e-01	0	39	104	0	71	14736
2026-01-21 13:36:25.20	204.13	3.75	-50.3	-62.2	3.8	8.45e-01	0	39	104	0	71	14782
2026-01-21 13:36:26.21	204.20	3.81	-50.3	-62.2	3.8	8.46e-01	0	39	104	0	71	14782
2026-01-21 13:36:27.22	204.27	3.87	-50.3	-62.2	3.8	8.46e-01	0	39	104	0	71	14733
2026-01-21 13:36:28.22	204.34	3.93	-50.3	-62.2	3.8	8.45e-01	0	39	104	0	71	14821
2026-01-21 13:36:29.23	204.41	3.99	-50.3	-62.2	3.8	8.45e-01	0	39	104	0	71	14758
2026-01-21 13:36:30.24	204.48	4.06	-50.3	-62.2	3.8	8.47e-01	0	39	104	0	71	14790
2026-01-21 13:36:31.25	204.55	4.12	-50.3	-62.2	3.8	8.46e-01	0	39	104	0	71	14728
2026-01-21 13:36:32.26	204.62	4.18	-50.3	-62.2	3.8	8.46e-01	0	39	104	0	71	14764
2026-01-21 13:36:33.27	204.69	4.24	-50.3	-62.2	3.8	8.47e-01	0	39	104	0	71	14798
2026-01-21 13:36:34.28	204.76	4.30	-50.3	-62.2	3.8	8.46e-01	0	39	104	0	71	14754
2026-01-21 13:36:35.28	204.83	4.37	-50.3	-62.2	3.8	8.47e-01	0	39	104	0	71	14753
2026-01-21 13:36:36.29	204.90	4.43	-50.3	-62.2	3.8	8.45e-01	0	39	104	0	71	14775
2026-01-21 13:36:37.30	204.97	4.49	-50.3	-62.2	3.8	8.47e-01	0	39	104	0	71	14771
2026-01-21 13:36:38.31	205.05	4.55	-50.3	-62.2	3.8	8.47e-01	0	39	104	0	71	14774
2026-01-21 13:36:39.32	205.12	4.62	-50.3	-62.2	3.8	8.46e-01	0	39	104	0	71	14779
2026-01-21 13:36:40.33	205.19	4.68	-50.3	-62.2	3.8	8.46e-01	0	39	104	0	71	14751
2026-01-21 13:36:41.34	205.26	4.74	-50.3	-62.2	3.8	8.46e-01	0	39	104	0	71	14761
2026-01-21 13:36:42.34	205.34	4.80	-50.3	-62.2	3.8	8.46e-01	0	39	104	0	71	14770
2026-01-21 13:36:43.35	205.41	4.87	-50.3	-62.2	3.8	8.45e-01	0	39	104	0	71	14797
2026-01-21 13:36:44.36	205.48	4.93	-50.3	-62.2	3.8	8.45e-01	0	39	104	0	71	14777
2026-01-21 13:36:45.37	205.56	4.99	-50.3	-62.2	3.8	8.47e-01	0	39	104	0	71	14745
2026-01-21 13:36:46.38	205.63	5.06	-50.3	-62.2	3.8	8.47e-01	0	39	104	0	71	14783
2026-01-21 13:36:47.38	205.71	5.12	-50.3	-62.2	3.8	8.47e-01	0	39	104	0	71	14770
2026-01-21 13:36:48.39	205.78	5.18	-50.3	-62.2	3.8	8.46e-01	0	39	104	0	71	14761
2026-01-21 13:36:49.40	205.86	5.25	-50.3	-62.2	3.8	8.47e-01	0	39	104	0	71	14768
2026-01-21 13:36:50.41	205.93	5.31	-50.3	-62.2	3.8	8.47e-01	0	39	104	0	71	14770
2026-01-21 13:36:51.42	206.01	5.37	-50.3	-62.2	3.8	8.46e-01	0	39	104	0	71	14794
2026-01-21 13:36:52.43	206.08	5.44	-50.3	-62.2	3.8	8.46e-01	0	39	104	0	71	14756
2026-01-21 13:36:53.44	206.16	5.50	-50.3	-62.2	3.8	8.47e-01	0	39	104	0	71	14793
2026-01-21 13:36:54.45	206.24	5.57	-50.3	-62.2	3.8	8.45e-01	0	39	104	0	71	14765
2026-01-21 13:36:55.46	206.31	5.63	-50.3	-62.2	3.8	8.46e-01	0	39	104	0	71	14735
2026-01-21 13:36:56.46	206.39	5.70	-50.3	-62.2	3.8	8.47e-01	0	39	104	0	71	14791
2026-01-21 13:36:57.47	206.47	5.76	-50.3	-62.2	3.8	8.47e-01	0	39	104	0	71	14776
2026-01-21 13:36:58.48	206.55	5.82	-50.3	-62.2	3.8	8.46e-01	0	39	104	0	71	14781
2026-01-21 13:36:59.49	206.63	5.89	-50.3	-62.2	3.8	8.46e-01	0	39	104	0	71	14756
2026-01-21 13:37:00.50	206.70	5.95	-50.3	-62.2	3.8	8.46e-01	0	39	104	0	71	14790
2026-01-21 13:37:01.51	206.78	6.02	-50.3	-62.2	3.8	8.46e-01	0	39	104	0	71	14787
2026-01-21 13:37:02.51	206.86	6.08	-50.3	-62.1	3.8	8.46e-01	0	39	104	0	71	14706
2026-01-21 13:37:03.52	206.94	6.15	-50.3	-62.2	3.8	8.46e-01	0	40	104	0	71	14826
2026-01-21 13:37:04.53	207.02	6.22	-50.3	-62.2	3.8	8.45e-01	0	39	104	0	71	14755
2026-01-21 13:37:05.54	207.10	6.28	-50.3	-62.2	3.8	8.47e-01	0	39	104	0	71	14805
2026-01-21 13:37:06.54	207.18	6.35	-50.3	-62.2	3.8	8.46e-01	0	39	104	0	71	14756
2026-01-21 13:37:07.55	207.26	6.41	-50.3	-62.2	3.8	8.46e-01	0	40	104	0	71	14771
2026-01-21 13:37:08.56	207.35	6.48	-50.3	-62.2	3.8	8.47e-01	0	39	104	0	71	14769
2026-01-21 13:37:09.57	207.43	6.54	-50.3	-62.2	3.8	8.46e-01	0	39	104	0	71	14779
2026-01-21 13:37:10.58	207.51	6.61	-50.3	-62.2	3.8	8.46e-01	0	39	104	0	71	14759
2026-01-21 13:37:11.59	207.59	6.68	-50.3	-62.2	3.8	8.45e-01	0	39	104	0	71	14838
2026-01-21 13:37:12.60	207.68	6.74	-50.3	-62.2	3.8	8.47e-01	0	40	104	0	71	14785
2026-01-21 13:37:13.61	207.76	6.81	-50.3	-62.2	3.8	8.46e-01	0	40	104	0	71	14733
2026-01-21 13:37:14.62	207.84	6.88	-50.3	-62.2	3.8	8.46e-01	0	40	104	0	71	14747
2026-01-21 13:37:15.62	207.93	6.94	-50.3	-62.2	3.8	8.45e-01	0	39	104	0	71	14772
2026-01-21 13:37:16.63	208.01	7.01	-50.3	-62.2	3.8	8.46e-01	0	40	104	0	71	14759
2026-01-21 13:37:17.64	208.10	7.08	-50.3	-62.2	3.8	8.46e-01	0	40	104	0	71	14825
2026-01-21 13:37:18.65	208.18	7.14	-50.3	-62.2	3.8	8.45e-01	0	39	104	0	71	14780
2026-01-21 13:37:19.65	208.27	7.21	-50.3	-62.2	3.8	8.46e-01	0	40	104	0	71	14776
2026-01-21 13:37:20.66	208.35	7.28	-50.3	-62.2	3.8	8.47e-01	0	39	104	0	71	14745
2026-01-21 13:37:21.67	208.44	7.35	-50.3	-62.2	3.8	8.46e-01	0	40	104	0	71	14785
2026-01-21 13:37:22.68	208.52	7.41	-50.3	-62.2	3.8	8.48e-01	0	40	104	0	71	14811
2026-01-21 13:37:23.69	208.61	7.48	-50.3	-62.2	3.8	8.46e-01	0	40	104	0	71	14777
2026-01-21 13:37:24.70	208.70	7.55	-50.3	-62.2	3.8	8.47e-01	0	40	104	0	71	14777
2026-01-21 13:37:25.70	208.79	7.62	-50.3	-62.2	3.8	8.46e-01	0	40	104	0	71	14803
2026-01-21 13:37:26.71	208.87	7.69	-50.3	-62.2	3.8	8.47e-01	0	40	104	0	71	14741
2026-01-21 13:37:27.72	208.96	7.75	-50.3	-62.2	3.8	8.46e-01	0	40	104	0	71	14794
2026-01-21 13:37:28.73	209.05	7.82	-50.3	-62.2	3.8	8.46e-01	0	40	104	0	71	14826
2026-01-21 13:37:29.74	209.14	7.89	-50.3	-62.2	3.8	8.45e-01	0	40	104	0	71	14810
2026-01-21 13:37:30.75	209.23	7.96	-50.3	-62.2	3.8	8.46e-01	0	40	104	0	71	14762
2026-01-21 13:37:31.75	209.32	8.03	-50.3	-62.2	3.8	8.46e-01	0	40	104	0	71	14822
2026-01-21 13:37:32.76	209.41	8.10	-50.3	-62.2	3.8	8.46e-01	0	40	104	0	71	14757
2026-01-21 13:37:33.77	209.50	8.17	-50.3	-62.2	3.8	8.45e-01	0	40	104	0	71	14776
2026-01-21 13:37:34.78	209.59	8.24	-50.3	-62.2	3.8	8.47e-01	0	40	104	0	71	14750
2026-01-21 13:37:35.79	209.69	8.30	-50.3	-62.2	3.8	8.45e-01	0	40	104	0	71	14828
2026-01-21 13:37:36.80	209.78	8.37	-50.3	-62.2	3.8	8.47e-01	0	40	104	0	71	14827
2026-01-21 13:37:37.81	209.87	8.44	-50.3	-62.2	3.8	8.46e-01	0	40	104	0	71	14737
2026-01-21 13:37:38.81	209.96	8.51	-50.3	-62.2	3.8	8.47e-01	0	40	104	0	71	14750
2026-01-21 13:37:39.82	210.06	8.58	-50.3	-62.2	3.8	8.47e-01	0	40	104	0	71	14734
2026-01-21 13:37:40.83	210.15	8.65	-50.3	-62.2	3.8	8.46e-01	0	40	104	0	71	14786
2026-01-21 13:37:41.84	210.25	8.72	-50.3	-62.2	3.8	8.46e-01	0	40	104	0	71	14784
2026-01-21 13:37:42.85	210.34	8.79	-50.3	-62.2	3.8	8.46e-01	0	40	104	0	71	14768
2026-01-21 13:37:43.85	210.43	8.86	-50.3	-62.2	3.8	8.48e-01	0	40	104	0	71	14762
2026-01-21 13:37:44.86	210.53	8.93	-50.3	-62.2	3.8	8.46e-01	0	40	104	0	71	14795
2026-01-21 13:37:45.87	210.63	9.00	-50.3	-62.2	3.8	8.46e-01	0	40	104	0	71	14802
2026-01-21 13:37:46.88	210.72	9.08	-50.3	-62.2	3.8	8.46e-01	0	40	104	0	71	14761
2026-01-21 13:37:47.89	210.82	9.15	-50.3	-62.2	3.8	8.46e-01	0	40	104	0	71	14772
2026-01-21 13:37:48.90	210.92	9.22	-50.3	-62.2	3.8	8.46e-01	0	40	104	0	71	14762
2026-01-21 13:37:49.91	211.02	9.29	-50.3	-62.2	3.8	8.46e-01	0	40	104	0	71	14800
2026-01-21 13:37:50.92	211.11	9.36	-50.3	-62.2	3.8	8.46e-01	0	40	104	0	71	14776
2026-01-21 13:37:51.92	211.21	9.43	-50.3	-62.2	3.8	8.46e-01	0	40	104	0	71	14771
2026-01-21 13:37:52.93	211.31	9.50	-50.3	-62.2	3.8	8.46e-01	0	40	104	0	71	14730
2026-01-21 13:37:53.94	211.41	9.57	-50.3	-62.2	3.8	8.46e-01	0	40	104	0	71	14752
2026-01-21 13:37:54.95	211.51	9.65	-50.3	-62.2	3.8	8.46e-01	0	40	104	0	71	14769
2026-01-21 13:37:55.96	211.61	9.72	-50.3	-62.2	3.8	8.45e-01	0	40	104	0	71	14815
2026-01-21 13:37:56.97	211.71	9.79	-50.3	-62.2	3.8	8.46e-01	0	40	104	0	71	14805
2026-01-21 13:37:57.98	211.82	9.86	-50.3	-62.2	3.8	8.46e-01	0	40	104	0	71	14840
2026-01-21 13:37:58.99	211.92	9.94	-50.3	-62.2	3.8	8.47e-01	0	40	104	0	71	14780
2026-01-21 13:38:00.00	212.02	10.01	-50.3	-62.2	3.8	8.46e-01	0	40	104	0	71	14769
2026-01-21 13:38:01.01	212.12	10.08	-50.3	-62.2	3.8	8.46e-01	0	40	104	0	71	14817
2026-01-21 13:38:02.01	212.23	10.15	-50.3	-62.2	3.8	8.47e-01	0	40	104	0	71	14752
2026-01-21 13:38:03.02	212.33	10.23	-50.3	-62.2	3.8	8.47e-01	0	40	104	0	71	14800
2026-01-21 13:38:04.03	212.44	10.30	-50.3	-62.2	3.8	8.47e-01	0	40	104	0	71	14763
2026-01-21 13:38:05.04	212.54	10.37	-50.3	-62.2	3.8	8.46e-01	0	40	104	0	71	14791
2026-01-21 13:38:06.04	212.65	10.44	-50.3	-62.2	3.8	8.46e-01	0	40	104	0	71	14746
2026-01-21 13:38:07.05	212.75	10.52	-50.3	-62.2	3.8	8.47e-01	0	40	104	0	71	14806
2026-01-21 13:38:08.06	212.86	10.59	-50.3	-62.2	3.8	8.47e-01	0	40	104	0	71	14792
2026-01-21 13:38:09.07	212.97	10.67	-50.3	-62.2	3.8	8.45e-01	0	40	104	0	71	14757
2026-01-21 13:38:10.08	213.07	10.74	-50.3	-62.2	3.8	8.45e-01	0	40	104	0	71	14749
2026-01-21 13:38:11.09	213.18	10.81	-50.3	-62.2	3.8	8.45e-01	0	40	104	0	71	14752
2026-01-21 13:38:12.10	213.29	10.89	-50.3	-62.2	3.8	8.45e-01	0	40	104	0	71	14796
2026-01-21 13:38:13.11	213.40	10.96	-50.3	-62.2	3.8	8.46e-01	0	40	104	0	71	14814
2026-01-21 13:38:14.11	213.51	11.04	-50.3	-62.2	3.8	8.46e-01	0	40	104	0	71	14806
2026-01-21 13:38:15.12	213.62	11.11	-50.3	-62.2	3.8	8.45e-01	0	40	104	0	71	14793
2026-01-21 13:38:16.13	213.73	11.19	-50.3	-62.2	3.8	8.46e-01	0	40	104	0	71	14768
2026-01-21 13:38:17.14	213.84	11.26	-50.3	-62.2	3.8	8.46e-01	0	40	104	0	71	14803
2026-01-21 13:38:18.14	213.95	11.33	-50.3	-62.2	3.8	8.46e-01	0	40	104	0	71	14778
2026-01-21 13:38:19.15	214.07	11.41	-50.3	-62.2	3.8	8.47e-01	0	40	104	0	71	14782
2026-01-21 13:38:20.16	214.18	11.49	-50.3	-62.2	3.8	8.46e-01	0	40	104	0	71	14790
2026-01-21 13:38:21.17	214.29	11.56	-50.3	-62.2	3.8	8.46e-01	0	40	104	0	71	14806
2026-01-21 13:38:22.18	214.41	11.64	-50.3	-62.2	3.8	8.46e-01	0	40	104	0	71	14768
2026-01-21 13:38:23.18	214.52	11.71	-50.3	-62.2	3.8	8.47e-01	0	40	104	0	71	14782
2026-01-21 13:38:24.19	214.64	11.79	-50.3	-62.2	3.8	8.47e-01	0	40	104	0	71	14779
2026-01-21 13:38:25.20	214.75	11.86	-50.3	-62.2	3.8	8.47e-01	0	40	104	0	71	14783
2026-01-21 13:38:26.21	214.87	11.94	-50.3	-62.2	3.8	8.46e-01	0	40	104	0	71	14757
2026-01-21 13:38:27.22	214.99	12.02	-50.3	-62.2	3.8	8.46e-01	0	40	104	0	71	14788
2026-01-21 13:38:28.22	215.10	12.09	-50.3	-62.2	3.8	8.47e-01	0	40	104	0	71	14809
2026-01-21 13:38:29.23	215.22	12.17	-50.3	-62.2	3.8	8.46e-01	0	40	104	0	71	14782
2026-01-21 13:38:30.24	215.34	12.24	-50.3	-62.2	3.8	8.46e-01	0	40	104	0	71	14774
2026-01-21 13:38:31.25	215.46	12.32	-50.3	-62.2	3.8	8.46e-01	0	40	104	0	71	14772
2026-01-21 13:38:32.26	215.58	12.40	-50.3	-62.2	3.8	8.46e-01	0	40	104	0	71	14769
2026-01-21 13:38:33.26	215.70	12.47	-50.3	-62.2	3.8	8.46e-01	0	40	104	0	71	14771
2026-01-21 13:38:34.27	215.82	12.55	-50.3	-62.2	3.8	8.46e-01	0	40	104	0	71	14837
2026-01-21 13:38:35.28	215.94	12.63	-50.3	-62.2	3.8	8.46e-01	0	40	104	0	71	14809
2026-01-21 13:38:36.29	216.06	12.71	-50.3	-62.2	3.8	8.46e-01	0	40	104	0	71	14824
2026-01-21 13:38:37.30	216.19	12.78	-50.3	-62.2	3.8	8.47e-01	0	40	104	0	71	14798
2026-01-21 13:38:38.31	216.31	12.86	-50.3	-62.2	3.8	8.47e-01	0	40	104	0	71	14825
2026-01-21 13:38:39.32	216.44	12.94	-50.3	-62.2	3.8	8.45e-01	0	40	104	0	71	14787
2026-01-21 13:38:40.32	216.56	13.02	-50.3	-62.2	3.8	8.46e-01	0	40	104	0	71	14763
2026-01-21 13:38:41.33	216.68	13.09	-50.3	-62.2	3.8	8.47e-01	0	40	104	0	71	14781
2026-01-21 13:38:42.34	216.81	13.17	-50.3	-62.2	3.8	8.46e-01	0	40	104	0	71	14794
2026-01-21 13:38:43.35	216.94	13.25	-50.3	-62.2	3.8	8.47e-01	0	40	104	0	71	14782
2026-01-21 13:38:44.36	217.07	13.33	-50.3	-62.2	3.8	8.46e-01	0	40	104	0	71	14812
2026-01-21 13:38:45.37	217.19	13.41	-50.3	-62.2	3.8	8.45e-01	0	40	104	0	71	14816
2026-01-21 13:38:46.38	217.32	13.49	-50.3	-62.2	3.8	8.45e-01	0	40	104	0	71	14806
2026-01-21 13:38:47.39	217.45	13.56	-50.3	-62.2	3.8	8.47e-01	0	40	104	0	71	14740
2026-01-21 13:38:48.40	217.58	13.64	-50.3	-62.2	3.8	8.48e-01	0	40	104	0	71	14832
2026-01-21 13:38:49.41	217.71	13.72	-50.3	-62.2	3.8	8.47e-01	0	40	104	0	71	14775
2026-01-21 13:38:50.41	217.84	13.80	-50.3	-62.2	3.8	8.47e-01	0	40	104	0	71	14773
2026-01-21 13:38:51.42	217.98	13.88	-50.3	-62.2	3.8	8.47e-01	0	40	104	0	71	14815
2026-01-21 13:38:52.43	218.11	13.96	-50.3	-62.2	3.8	8.46e-01	0	40	104	0	71	14794
2026-01-21 13:38:53.44	218.24	14.04	-50.3	-62.2	3.8	8.45e-01	0	40	104	0	71	14745
2026-01-21 13:38:54.45	218.38	14.12	-50.3	-62.2	3.8	8.45e-01	0	40	104	0	71	14800
2026-01-21 13:38:55.46	218.51	14.20	-50.3	-62.2	3.8	8.45e-01	0	40	104	0	71	14810
2026-01-21 13:38:56.47	218.65	14.28	-50.3	-62.2	3.8	8.46e-01	0	40	104	0	71	14783
2026-01-21 13:38:57.48	218.78	14.36	-50.3	-62.2	3.8	8.46e-01	0	40	104	0	71	14798
2026-01-21 13:38:58.48	218.92	14.44	-50.3	-62.2	3.8	8.46e-01	0	40	104	0	71	14794
2026-01-21 13:38:59.49	219.06	14.52	-50.3	-62.2	3.8	8.48e-01	0	40	104	0	71	14796
2026-01-21 13:39:00.50	219.20	14.60	-50.3	-62.2	3.8	8.45e-01	0	40	104	0	71	14790
2026-01-21 13:39:01.51	219.34	14.68	-50.3	-62.2	3.8	8.45e-01	0	40	104	0	71	14767
2026-01-21 13:39:02.52	219.48	14.76	-50.3	-62.2	3.8	8.47e-01	0	40	104	0	71	14844
2026-01-21 13:39:03.53	219.62	14.84	-50.3	-62.2	3.8	8.45e-01	0	40	104	0	71	14751
2026-01-21 13:39:04.54	219.76	14.92	-50.3	-62.2	3.8	8.46e-01	0	40	104	0	71	14797
2026-01-21 13:39:05.55	219.90	15.00	-50.3	-62.2	3.8	8.47e-01	0	40	104	0	71	14761
2026-01-21 13:39:06.55	220.04	15.08	-50.3	-62.2	3.8	8.45e-01	0	40	104	0	71	14790
2026-01-21 13:39:07.56	220.19	15.16	-50.3	-62.2	3.8	8.46e-01	0	40	104	0	71	14746
2026-01-21 13:39:08.57	220.33	15.24	-50.3	-62.2	3.8	8.46e-01	0	40	104	0	71	14813
2026-01-21 13:39:09.58	220.48	15.33	-50.3	-62.2	3.8	8.46e-01	0	40	104	0	71	14754
2026-01-21 13:39:10.59	220.62	15.41	-50.3	-62.2	3.8	8.46e-01	0	40	104	0	71	14767
2026-01-21 13:39:11.60	220.77	15.49	-50.3	-62.2	3.8	8.47e-01	0	40	104	0	71	14765
2026-01-21 13:39:12.60	220.91	15.57	-50.3	-62.2	3.8	8.46e-01	0	40	104	0	71	14828
2026-01-21 13:39:13.61	221.06	15.65	-50.3	-62.2	3.8	8.45e-01	0	40	104	0	71	14802
2026-01-21 13:39:14.63	221.21	15.73	-50.3	-62.2	3.8	8.46e-01	0	40	104	0	71	14814
2026-01-21 13:39:15.63	221.36	15.81	-50.3	-62.2	3.8	8.47e-01	0	40	104	0	71	14757
2026-01-21 13:39:16.64	221.51	15.90	-50.3	-62.2	3.8	8.47e-01	0	40	104	0	71	14808
2026-01-21 13:39:17.65	221.66	15.98	-50.3	-62.2	3.8	8.46e-01	0	40	104	0	71	14761
2026-01-21 13:39:18.66	221.82	16.06	-50.3	-62.2	3.8	8.47e-01	0	40	104	0	71	14801
2026-01-21 13:39:19.67	221.97	16.14	-50.3	-62.2	3.8	8.44e-01	0	40	104	0	71	14804
2026-01-21 13:39:20.68	222.12	16.23	-50.3	-62.2	3.8	8.46e-01	0	40	104	0	71	14777
2026-01-21 13:39:21.68	222.28	16.31	-50.3	-62.2	3.8	8.47e-01	0	40	104	0	71	14773
2026-01-21 13:39:22.69	222.43	16.39	-50.3	-62.2	3.8	8.46e-01	0	40	104	0	71	14737
2026-01-21 13:39:23.70	222.59	16.47	-50.3	-62.2	3.8	8.46e-01	0	40	104	0	71	14763
2026-01-21 13:39:24.71	222.75	16.55	-50.3	-62.2	3.8	8.47e-01	0	40	104	0	71	14794
2026-01-21 13:39:25.72	222.90	16.64	-50.3	-62.2	3.8	8.45e-01	0	40	104	0	71	14809
2026-01-21 13:39:26.72	223.06	16.72	-50.3	-62.2	3.8	8.45e-01	0	40	104	0	71	14802
2026-01-21 13:39:27.73	223.22	16.80	-50.3	-62.2	3.8	8.46e-01	0	40	104	0	71	14806
2026-01-21 13:39:28.74	223.38	16.89	-50.3	-62.2	3.8	8.46e-01	0	40	104	0	71	14783
2026-01-21 13:39:29.75	223.54	16.97	-50.3	-62.2	3.8	8.46e-01	0	40	104	0	71	14866
2026-01-21 13:39:30.75	223.70	17.05	-50.3	-62.2	3.8	8.46e-01	0	40	104	0	71	14783
2026-01-21 13:39:31.76	223.87	17.13	-50.3	-62.2	3.8	8.46e-01	0	40	104	0	71	14768
2026-01-21 13:39:32.77	224.03	17.22	-50.3	-62.2	3.8	8.45e-01	0	40	104	0	71	14794
2026-01-21 13:39:33.78	224.20	17.30	-50.3	-62.2	3.8	8.45e-01	0	40	104	0	71	14820
2026-01-21 13:39:34.79	224.36	17.38	-50.3	-62.2	3.8	8.46e-01	0	40	104	0	71	14831
2026-01-21 13:39:35.80	224.53	17.47	-50.3	-62.2	3.8	8.46e-01	0	40	104	0	71	14759
2026-01-21 13:39:36.80	224.70	17.55	-50.3	-62.2	3.8	8.47e-01	0	40	104	0	71	14816
2026-01-21 13:39:37.81	224.86	17.63	-50.3	-62.2	3.8	8.46e-01	0	40	104	0	71	14767
2026-01-21 13:39:38.82	225.03	17.72	-50.3	-62.2	3.8	8.46e-01	0	40	104	0	71	14779
2026-01-21 13:39:39.83	225.20	17.80	-50.3	-62.2	3.8	8.46e-01	0	40	104	0	71	14750
2026-01-21 13:39:40.84	225.38	17.88	-50.3	-62.2	3.8	8.46e-01	0	40	104	0	71	14773
2026-01-21 13:39:41.85	225.55	17.97	-50.3	-62.2	3.8	8.47e-01	0	40	104	0	71	14834
2026-01-21 13:39:42.86	225.72	18.05	-50.3	-62.2	3.8	8.46e-01	0	40	104	0	71	14837
2026-01-21 13:39:43.87	225.89	18.13	-50.3	-62.2	3.8	8.45e-01	0	40	104	0	71	14799
2026-01-21 13:39:44.87	226.07	18.22	-50.3	-62.2	3.8	8.46e-01	0	40	104	0	71	14780
2026-01-21 13:39:45.88	226.24	18.30	-50.3	-62.2	3.8	8.46e-01	0	40	104	0	71	14775
2026-01-21 13:39:46.89	226.42	18.39	-50.3	-62.2	3.8	8.47e-01	0	40	104	0	71	14764
2026-01-21 13:39:47.90	226.60	18.47	-50.3	-62.2	3.8	8.46e-01	0	40	104	0	71	14800
2026-01-21 13:39:48.91	226.78	18.55	-50.3	-62.2	3.8	8.47e-01	0	40	104	0	71	14797
2026-01-21 13:39:49.91	226.96	18.64	-50.3	-62.2	3.8	8.46e-01	0	40	104	0	71	14753
2026-01-21 13:39:50.92	227.14	18.72	-50.3	-62.2	3.8	8.47e-01	0	40	104	0	71	14750
2026-01-21 13:39:51.93	227.32	18.80	-50.3	-62.2	3.8	8.45e-01	0	40	104	0	71	14781
2026-01-21 13:39:52.94	227.50	18.89	-50.3	-62.2	3.8	8.47e-01	0	40	104	0	71	14786
2026-01-21 13:39:53.95	227.68	18.97	-50.3	-62.2	3.8	8.45e-01	0	40	104	0	71	14792
2026-01-21 13:39:54.96	227.87	19.06	-50.3	-62.2	3.8	8.46e-01	0	40	104	0	71	14786
2026-01-21 13:39:55.96	228.05	19.14	-50.3	-62.2	3.8	8.46e-01	0	40	104	0	71	14785
2026-01-21 13:39:56.97	228.24	19.22	-50.3	-62.2	3.8	8.46e-01	0	40	104	0	71	14811
2026-01-21 13:39:57.98	228.43	19.31	-50.3	-62.2	3.8	8.46e-01	0	40	104	0	71	14770
2026-01-21 13:39:58.99	228.61	19.39	-50.3	-62.2	3.8	8.45e-01	0	40	104	0	71	14765
2026-01-21 13:40:00.00	228.80	19.47	-50.3	-62.2	3.8	8.45e-01	0	40	104	0	71	14788
2026-01-21 13:40:01.01	228.99	19.56	-50.3	-62.2	3.8	8.48e-01	0	40	104	0	71	14765
2026-01-21 13:40:02.02	229.19	19.64	-50.3	-62.2	3.8	8.45e-01	0	40	104	0	71	14824
2026-01-21 13:40:03.02	229.38	19.73	-50.3	-62.2	3.8	8.47e-01	0	40	104	0	71	14867
2026-01-21 13:40:04.03	229.57	19.81	-50.3	-62.2	3.8	8.46e-01	0	40	104	0	71	14794
2026-01-21 13:40:05.04	229.77	19.89	-50.3	-62.2	3.8	8.45e-01	0	40	104	0	71	14794
2026-01-21 13:40:06.05	229.96	19.98	-50.3	-62.2	3.8	8.46e-01	0	40	104	0	71	14776
2026-01-21 13:40:07.06	230.16	20.06	-50.3	-62.2	3.8	8.46e-01	0	40	104	0	71	14814
2026-01-21 13:40:08.07	230.36	20.14	-50.3	-62.2	3.8	8.47e-01	0	40	104	0	71	14811
2026-01-21 13:40:09.08	230.55	20.23	-50.3	-62.2	3.8	8.44e-01	0	40	104	0	71	14761
2026-01-21 13:40:10.08	230.75	20.31	-50.3	-62.2	3.8	8.45e-01	0	40	104	0	71	14789
2026-01-21 13:40:11.09	230.95	20.39	-50.3	-62.2	3.8	8.47e-01	0	40	104	0	71	14775
2026-01-21 13:40:12.10	231.16	20.48	-50.3	-62.2	3.8	8.46e-01	0	40	104	0	71	14787
2026-01-21 13:40:13.11	231.36	20.56	-50.3	-62.2	3.8	8.46e-01	0	40	104	0	71	14800
2026-01-21 13:40:14.12	231.56	20.64	-50.3	-62.2	3.8	8.47e-01	0	40	104	0	71	14839
2026-01-21 13:40:15.13	231.77	20.73	-50.3	-62.2	3.8	8.45e-01	0	40	104	0	71	14824
2026-01-21 13:40:16.14	231.97	20.81	-50.3	-62.2	3.8	8.47e-01	0	40	104	0	71	14821
2026-01-21 13:40:17.14	232.18	20.89	-50.3	-62.2	3.8	8.45e-01	0	40	104	0	71	14827
2026-01-21 13:40:18.15	232.39	20.97	-50.3	-62.2	3.8	8.47e-01	0	40	104	0	71	14814
2026-01-21 13:40:19.16	232.60	21.06	-50.3	-62.2	3.8	8.46e-01	0	40	104	0	71	14786
2026-01-21 13:40:20.17	232.81	21.14	-50.3	-62.2	3.8	8.46e-01	0	40	104	0	71	14794
2026-01-21 13:40:21.18	233.02	21.22	-50.3	-62.2	3.8	8.47e-01	0	40	104	0	71	14766
2026-01-21 13:40:22.19	233.23	21.30	-50.3	-62.2	3.8	8.46e-01	0	40	104	0	71	14804
2026-01-21 13:40:23.19	233.44	21.38	-50.3	-62.2	3.8	8.47e-01	0	40	104	0	71	14820
2026-01-21 13:40:24.20	233.66	21.47	-50.3	-62.2	3.8	8.45e-01	0	40	104	0	71	14776
2026-01-21 13:40:25.21	233.88	21.55	-50.3	-62.2	3.8	8.46e-01	0	40	104	0	71	14780
2026-01-21 13:40:26.22	234.09	21.63	-50.3	-62.2	3.8	8.47e-01	0	40	104	0	71	14828
2026-01-21 13:40:27.23	234.31	21.71	-50.3	-62.2	3.8	8.46e-01	0	40	104	0	71	14820
2026-01-21 13:40:28.24	234.53	21.79	-50.3	-62.2	3.8	8.47e-01	0	40	104	0	71	14760
2026-01-21 13:40:29.25	234.75	21.87	-50.3	-62.2	3.8	8.47e-01	0	40	104	0	71	14781
2026-01-21 13:40:30.26	234.97	21.96	-50.3	-62.2	3.8	8.46e-01	0	40	104	0	71	14812
2026-01-21 13:40:31.27	235.20	22.04	-50.3	-62.2	3.8	8.45e-01	0	40	104	0	71	14792
2026-01-21 13:40:32.28	235.42	22.12	-50.3	-62.2	3.8	8.45e-01	0	40	104	0	71	14822
2026-01-21 13:40:33.28	235.64	22.20	-50.3	-62.2	3.8	8.47e-01	0	40	104	0	71	14781
2026-01-21 13:40:34.29	235.87	22.28	-50.3	-62.2	3.8	8.47e-01	0	40	104	0	71	14783
2026-01-21 13:40:35.30	236.10	22.36	-50.3	-62.2	3.8	8.45e-01	0	40	104	0	71	14797
2026-01-21 13:40:36.31	236.32	22.44	-50.3	-62.2	3.8	8.46e-01	0	40	104	0	71	14783
2026-01-21 13:40:37.32	236.55	22.52	-50.3	-62.2	3.8	8.45e-01	0	40	104	0	71	14809
2026-01-21 13:40:38.33	236.79	22.60	-50.3	-62.2	3.8	8.46e-01	0	40	104	0	71	14815
2026-01-21 13:40:39.34	237.02	22.68	-50.3	-62.2	3.8	8.47e-01	0	40	104	0	71	14821
2026-01-21 13:40:40.35	237.25	22.76	-50.3	-62.2	3.8	8.46e-01	0	40	104	0	71	14777
2026-01-21 13:40:41.36	237.48	22.84	-50.3	-62.2	3.8	8.48e-01	0	40	104	0	71	14792
2026-01-21 13:40:42.36	237.72	22.91	-50.3	-62.2	3.8	8.45e-01	0	40	104	0	71	14746
2026-01-21 13:40:43.37	237.95	22.99	-50.3	-62.2	3.8	8.46e-01	0	40	104	0	71	14816
2026-01-21 13:40:44.38	238.19	23.07	-50.3	-62.2	3.8	8.45e-01	0	40	104	0	71	14807
2026-01-21 13:40:45.39	238.43	23.15	-50.3	-62.2	3.8	8.46e-01	0	40	104	0	71	14760
2026-01-21 13:40:46.40	238.67	23.22	-50.3	-62.2	3.8	8.46e-01	0	40	104	0	71	14796
2026-01-21 13:40:47.41	238.91	23.30	-50.3	-62.2	3.8	8.46e-01	0	40	104	0	71	14805
2026-01-21 13:40:48.41	239.15	23.38	-50.3	-62.2	3.8	8.47e-01	0	40	104	0	71	14793
2026-01-21 13:40:49.42	239.40	23.46	-50.3	-62.2	3.8	8.46e-01	0	40	104	0	71	14802
2026-01-21 13:40:50.43	239.64	23.53	-50.3	-62.2	3.8	8.45e-01	0	40	104	0	71	14768
2026-01-21 13:40:51.44	239.89	23.61	-50.3	-62.2	3.8	8.46e-01	0	40	104	0	71	14828
2026-01-21 13:40:52.44	240.13	23.68	-50.3	-62.2	3.8	8.46e-01	0	40	104	0	71	14818
2026-01-21 13:40:53.45	240.38	23.76	-50.3	-62.2	3.8	8.46e-01	0	40	104	0	71	14758
2026-01-21 13:40:54.46	240.63	23.83	-50.3	-62.2	3.8	8.46e-01	0	40	104	0	71	14790
2026-01-21 13:40:55.47	240.88	23.91	-50.3	-62.2	3.8	8.45e-01	0	40	104	0	71	14782
2026-01-21 13:40:56.48	241.13	23.98	-50.3	-62.2	3.8	8.47e-01	0	40	104	0	71	14783
2026-01-21 13:40:57.49	241.38	24.06	-50.3	-62.2	3.8	8.47e-01	0	40	104	0	71	14778
2026-01-21 13:40:58.50	241.64	24.13	-50.3	-62.2	3.8	8.46e-01	0	40	104	0	71	14758
2026-01-21 13:40:59.51	241.89	24.20	-50.3	-62.2	3.8	8.47e-01	0	40	104	0	71	14816
2026-01-21 13:41:00.52	242.15	24.28	-50.3	-62.2	3.8	8.46e-01	0	40	104	0	71	14830
2026-01-21 13:41:01.53	242.41	24.35	-50.3	-62.2	3.8	8.46e-01	0	40	104	0	71	14797
2026-01-21 13:41:02.53	242.66	24.42	-50.3	-62.2	3.8	8.45e-01	0	40	104	0	71	14761
2026-01-21 13:41:03.54	242.92	24.49	-50.3	-62.2	3.8	8.47e-01	0	40	104	0	71	14807
2026-01-21 13:41:04.55	243.18	24.56	-50.3	-62.2	3.8	8.46e-01	0	40	104	0	71	14759
2026-01-21 13:41:05.56	243.45	24.64	-50.3	-62.2	3.8	8.47e-01	0	40	104	0	71	14785
2026-01-21 13:41:06.56	243.71	24.71	-50.3	-62.2	3.8	8.47e-01	0	40	104	0	71	14818
2026-01-21 13:41:07.57	243.97	24.78	-50.3	-62.2	3.8	8.45e-01	0	40	104	0	71	14841
2026-01-21 13:41:08.58	244.24	24.84	-50.3	-62.2	3.8	8.46e-01	0	40	104	0	71	14791
2026-01-21 13:41:09.59	244.50	24.91	-50.3	-62.2	3.8	8.46e-01	0	40	104	0	71	14820
2026-01-21 13:41:10.60	244.77	24.98	-50.3	-62.2	3.8	8.47e-01	0	40	104	0	71	14796
2026-01-21 13:41:11.61	245.04	25.05	-50.3	-62.2	3.8	8.46e-01	0	40	104	0	71	14813
2026-01-21 13:41:12.62	245.31	25.12	-50.3	-62.2	3.8	8.46e-01	0	40	104	0	71	14783
2026-01-21 13:41:13.62	245.58	25.19	-50.3	-62.2	3.8	8.46e-01	0	40	104	0	71	14795
2026-01-21 13:41:14.63	245.85	25.25	-50.3	-62.2	3.8	8.45e-01	0	40	104	0	71	14776
2026-01-21 13:41:15.64	246.13	25.32	-50.3	-62.2	3.8	8.46e-01	0	40	104	0	71	14811
2026-01-21 13:41:16.65	246.40	25.38	-50.3	-62.2	3.8	8.47e-01	0	40	104	0	71	14786
2026-01-21 13:41:17.66	246.68	25.45	-50.3	-62.2	3.8	8.46e-01	0	40	104	0	71	14776
2026-01-21 13:41:18.67	246.95	25.51	-50.3	-62.2	3.8	8.45e-01	0	40	104	0	71	14819
2026-01-21 13:41:19.68	247.23	25.58	-50.3	-62.2	3.8	8.45e-01	0	40	104	0	71	14818
2026-01-21 13:41:20.68	247.51	25.64	-50.3	-62.2	3.8	8.47e-01	0	40	104	0	71	14772
2026-01-21 13:41:21.69	247.79	25.70	-50.3	-62.2	3.8	8.47e-01	0	40	104	0	71	14751
2026-01-21 13:41:22.70	248.07	25.77	-50.3	-62.2	3.8	8.45e-01	0	40	104	0	71	14827
2026-01-21 13:41:23.71	248.35	25.83	-50.3	-62.2	3.8	8.46e-01	0	40	104	0	71	14809
2026-01-21 13:41:24.72	248.63	25.89	-50.3	-62.2	3.8	8.45e-01	0	40	104	0	71	14786
2026-01-21 13:41:25.73	248.92	25.95	-50.3	-62.2	3.8	8.47e-01	0	40	104	0	71	14784
2026-01-21 13:41:26.74	249.20	26.01	-50.3	-62.2	3.8	8.47e-01	0	40	104	0	71	14809
2026-01-21 13:41:27.75	249.49	26.07	-50.3	-62.2	3.8	8.46e-01	0	40	104	0	71	14774
2026-01-21 13:41:28.75	249.78	26.13	-50.3	-62.2	3.8	8.45e-01	0	40	104	0	71	14840
2026-01-21 13:41:29.76	250.06	26.19	-50.3	-62.2	3.8	8.45e-01	0	40	104	0	71	14791
2026-01-21 13:41:30.77	250.35	26.25	-50.3	-62.2	3.8	8.46e-01	0	40	104	0	71	14807
2026-01-21 13:41:31.78	250.64	26.30	-50.3	-62.2	3.8	8.47e-01	0	40	104	0	71	14798
2026-01-21 13:41:32.79	250.94	26.36	-50.3	-62.2	3.8	8.46e-01	0	40	104	0	71	14811
2026-01-21 13:41:33.80	251.23	26.41	-50.3	-62.2	3.8	8.47e-01	0	40	104	0	71	14805
2026-01-21 13:41:34.81	251.52	26.47	-50.3	-62.2	3.8	8.46e-01	0	40	104	0	71	14771
2026-01-21 13:41:35.82	251.82	26.52	-50.3	-62.2	3.8	8.46e-01	0	40	104	0	71	14799
2026-01-21 13:41:36.82	252.11	26.58	-50.3	-62.2	3.8	8.46e-01	0	40	104	0	71	14793
2026-01-21 13:41:37.83	252.41	26.63	-50.3	-62.2	3.8	8.46e-01	0	40	104	0	71	14816
2026-01-21 13:41:38.84	252.70	26.68	-50.3	-62.2	3.8	8.46e-01	0	40	104	0	71	14808
2026-01-21 13:41:39.85	253.00	26.73	-50.3	-62.2	3.8	8.46e-01	0	40	104	0	71	14779
2026-01-21 13:41:40.86	253.30	26.78	-50.3	-62.2	3.8	8.47e-01	0	40	104	0	71	14796
2026-01-21 13:41:41.87	253.60	26.83	-50.3	-62.2	3.8	8.46e-01	0	40	104	0	71	14795
2026-01-21 13:41:42.87	253.90	26.88	-50.3	-62.2	3.8	8.46e-01	0	40	104	0	71	14793
2026-01-21 13:41:43.88	254.20	26.93	-50.3	-62.2	3.8	8.47e-01	0	40	104	0	71	14795
2026-01-21 13:41:44.89	254.51	26.98	-50.3	-62.2	3.8	8.46e-01	0	40	104	0	71	14833
2026-01-21 13:41:45.90	254.81	27.03	-50.3	-62.2	3.8	8.46e-01	0	40	104	0	71	14818
2026-01-21 13:41:46.90	255.11	27.07	-50.3	-62.2	3.8	8.46e-01	0	40	104	0	71	14791
2026-01-21 13:41:47.91	255.42	27.12	-50.3	-62.2	3.8	8.46e-01	0	40	104	0	71	14793
2026-01-21 13:41:48.92	255.72	27.16	-50.3	-62.2	3.8	8.46e-01	0	40	104	0	71	14793
2026-01-21 13:41:49.93	256.03	27.21	-50.3	-62.2	3.8	8.45e-01	0	40	104	0	71	14770
2026-01-21 13:41:50.94	256.34	27.25	-50.3	-62.2	3.8	8.46e-01	0	40	104	0	71	14797
2026-01-21 13:41:51.95	256.65	27.29	-50.3	-62.2	3.8	8.45e-01	0	40	104	0	71	14804
2026-01-21 13:41:52.95	256.96	27.33	-50.3	-62.2	3.8	8.46e-01	0	40	104	0	71	14791
2026-01-21 13:41:53.96	257.27	27.38	-50.3	-62.2	3.8	8.47e-01	0	40	104	0	71	14810
2026-01-21 13:41:54.97	257.58	27.42	-50.3	-62.2	3.8	8.45e-01	0	40	104	0	71	14830
2026-01-21 13:41:55.98	257.89	27.45	-50.3	-62.2	3.8	8.46e-01	0	40	104	0	71	14829
2026-01-21 13:41:56.99	258.20	27.49	-50.3	-62.2	3.8	8.46e-01	0	40	104	0	71	14809
2026-01-21 13:41:58.00	258.52	27.53	-50.3	-62.2	3.8	8.46e-01	0	40	104	0	71	14764
2026-01-21 13:41:59.01	258.83	27.57	-50.3	-62.2	3.8	8.46e-01	0	40	104	0	71	14733
2026-01-21 13:42:00.01	259.14	27.60	-50.3	-62.2	3.8	8.45e-01	0	40	104	0	71	14797
2026-01-21 13:42:01.02	259.46	27.64	-50.3	-62.2	3.8	8.45e-01	0	40	104	0	71	14789
2026-01-21 13:42:02.03	259.77	27.67	-50.3	-62.2	3.8	8.46e-01	0	40	104	0	71	14765
2026-01-21 13:42:03.04	260.09	27.70	-50.3	-62.2	3.8	8.46e-01	0	40	104	0	71	14803
2026-01-21 13:42:04.05	260.41	27.74	-50.3	-62.2	3.8	8.45e-01	0	40	104	0	71	14783
2026-01-21 13:42:05.05	260.72	27.77	-50.3	-62.2	3.8	8.48e-01	0	40	104	0	71	14806
2026-01-21 13:42:06.06	261.04	27.80	-50.3	-62.2	3.8	8.46e-01	0	40	104	0	71	14779
2026-01-21 13:42:07.07	261.36	27.83	-50.3	-62.2	3.8	8.46e-01	0	40	104	0	71	14794
2026-01-21 13:42:08.08	261.68	27.86	-50.3	-62.2	3.8	8.46e-01	0	40	104	0	71	14837
2026-01-21 13:42:09.09	262.00	27.88	-50.3	-62.2	3.8	8.47e-01	0	40	104	0	71	14768
2026-01-21 13:42:10.09	262.32	27.91	-50.3	-62.2	3.8	8.46e-01	0	40	104	0	71	14771
2026-01-21 13:42:11.10	262.64	27.93	-50.3	-62.2	3.8	8.44e-01	0	40	104	0	71	14793
2026-01-21 13:42:12.11	262.96	27.96	-50.3	-62.2	3.8	8.46e-01	0	40	104	0	71	14785
2026-01-21 13:42:13.12	263.29	27.98	-50.3	-62.2	3.8	8.46e-01	0	40	104	0	71	14787
2026-01-21 13:42:14.12	263.61	28.01	-50.3	-62.2	3.8	8.47e-01	0	40	104	0	71	14762
2026-01-21 13:42:15.13	263.93	28.03	-50.3	-62.2	3.8	8.45e-01	0	40	104	0	71	14757
2026-01-21 13:42:16.14	264.25	28.05	-50.3	-62.2	3.8	8.46e-01	0	40	104	0	71	14792
2026-01-21 13:42:17.15	264.58	28.07	-50.3	-62.2	3.8	8.48e-01	0	40	104	0	71	14784
2026-01-21 13:42:18.16	264.90	28.09	-50.3	-62.2	3.8	8.45e-01	0	40	104	0	71	14826
2026-01-21 13:42:19.17	265.23	28.11	-50.3	-62.2	3.8	8.47e-01	0	40	104	0	71	14778
2026-01-21 13:42:20.17	265.55	28.12	-50.3	-62.2	3.8	8.47e-01	0	40	104	0	71	14788
2026-01-21 13:42:21.18	265.87	28.14	-50.3	-62.2	3.8	8.47e-01	0	40	104	0	71	14798
2026-01-21 13:42:22.19	266.20	28.16	-50.3	-62.2	3.8	8.45e-01	0	40	104	0	71	14826
2026-01-21 13:42:23.20	266.53	28.17	-50.3	-62.2	3.8	8.47e-01	0	40	104	0	71	14814
2026-01-21 13:42:24.21	266.85	28.18	-50.3	-62.2	3.8	8.45e-01	0	40	104	0	71	14819
2026-01-21 13:42:25.21	267.18	28.20	-50.3	-62.2	3.8	8.47e-01	0	40	104	0	71	14814
2026-01-21 13:42:26.22	267.50	28.21	-50.3	-62.2	3.8	8.45e-01	0	40	104	0	71	14819
2026-01-21 13:42:27.23	267.83	28.22	-50.3	-62.2	3.8	8.46e-01	0	40	104	0	71	14805
2026-01-21 13:42:28.24	268.16	28.23	-50.3	-62.2	3.8	8.46e-01	0	40	104	0	71	14799
2026-01-21 13:42:29.25	268.49	28.24	-50.3	-62.2	3.8	8.47e-01	0	40	104	0	71	14791
2026-01-21 13:42:30.26	268.81	28.24	-50.3	-62.2	3.8	8.46e-01	0	40	104	0	71	14785
2026-01-21 13:42:31.27	269.14	28.25	-50.3	-62.2	3.8	8.47e-01	0	40	104	0	71	14803
2026-01-21 13:42:32.28	269.47	28.26	-50.3	-62.2	3.8	8.47e-01	0	40	104	0	71	14841
2026-01-21 13:42:33.28	269.79	28.26	-50.3	-62.2	3.8	8.46e-01	0	40	104	0	71	14779
2026-01-21 13:42:34.29	270.12	28.26	-50.3	-62.2	3.8	8.46e-01	0	40	104	0	71	14791
2026-01-21 13:42:35.30	270.45	28.27	-50.3	-62.2	3.8	8.47e-01	0	40	104	0	71	14810
2026-01-21 13:42:36.31	270.78	28.27	-50.3	-62.2	3.8	8.46e-01	0	40	104	0	71	14843
2026-01-21 13:42:37.32	271.11	28.27	-50.3	-62.2	3.8	8.46e-01	0	40	104	0	71	14766
2026-01-21 13:42:38.33	271.43	28.27	-50.3	-62.2	3.8	8.47e-01	0	40	104	0	71	14802
2026-01-21 13:42:39.34	271.76	28.27	-50.3	-62.2	3.8	8.45e-01	0	40	104	0	71	14798
2026-01-21 13:42:40.35	272.09	28.26	-50.3	-62.3	3.8	8.46e-01	0	40	104	0	71	14885
2026-01-21 13:42:41.36	272.42	28.26	-50.3	-62.2	3.8	8.47e-01	0	40	104	0	71	14858
2026-01-21 13:42:42.36	272.74	28.26	-50.3	-62.2	3.8	8.46e-01	0	40	104	0	71	14820
2026-01-21 13:42:43.37	273.07	28.25	-50.3	-62.2	3.8	8.45e-01	0	40	104	0	71	14835
2026-01-21 13:42:44.38	273.40	28.24	-50.3	-62.2	3.8	8.46e-01	0	40	104	0	71	14777
2026-01-21 13:42:45.39	273.73	28.24	-50.3	-62.2	3.8	8.46e-01	0	40	104	0	71	14783
2026-01-21 13:42:46.40	274.05	28.23	-50.3	-62.2	3.8	8.47e-01	0	40	104	0	71	14792
2026-01-21 13:42:47.41	274.38	28.22	-50.3	-62.2	3.8	8.47e-01	0	40	104	0	71	14769
2026-01-21 13:42:48.41	274.71	28.21	-50.3	-62.2	3.8	8.46e-01	0	40	104	0	71	14780
2026-01-21 13:42:49.42	275.03	28.20	-50.3	-62.2	3.8	8.45e-01	0	40	104	0	71	14812
2026-01-21 13:42:50.43	275.36	28.18	-50.3	-62.2	3.8	8.47e-01	0	40	104	0	71	14847
2026-01-21 13:42:51.44	275.69	28.17	-50.3	-62.2	3.8	8.47e-01	0	40	104	0	71	14846
2026-01-21 13:42:52.45	276.01	28.16	-50.3	-62.2	3.8	8.47e-01	0	40	104	0	71	14777
2026-01-21 13:42:53.45	276.33	28.14	-50.3	-62.2	3.8	8.47e-01	0	40	104	0	71	14815
2026-01-21 13:42:54.46	276.66	28.12	-50.3	-62.2	3.8	8.48e-01	0	40	104	0	71	14779
2026-01-21 13:42:55.47	276.98	28.11	-50.3	-62.2	3.8	8.47e-01	0	40	104	0	71	14794
2026-01-21 13:42:56.48	277.31	28.09	-50.3	-62.2	3.8	8.45e-01	0	40	104	0	71	14772
2026-01-21 13:42:57.49	277.63	28.07	-50.3	-62.2	3.8	8.46e-01	0	40	104	0	71	14797
2026-01-21 13:42:58.50	277.96	28.05	-50.3	-62.2	3.8	8.46e-01	0	40	104	0	71	14838
2026-01-21 13:42:59.51	278.28	28.03	-50.3	-62.2	3.8	8.47e-01	0	40	104	0	71	14762
2026-01-21 13:43:00.52	278.60	28.01	-50.3	-62.2	3.8	8.45e-01	0	40	104	0	71	14808
2026-01-21 13:43:01.53	278.93	27.98	-50.3	-62.2	3.8	8.46e-01	0	40	104	0	71	14796
2026-01-21 13:43:02.53	279.25	27.96	-50.3	-62.2	3.8	8.47e-01	0	40	104	0	71	14843
2026-01-21 13:43:03.54	279.57	27.94	-50.3	-62.2	3.8	8.46e-01	0	40	104	0	71	14813
2026-01-21 13:43:04.55	279.89	27.91	-50.3	-62.2	3.8	8.47e-01	0	40	104	0	71	14806
2026-01-21 13:43:05.56	280.21	27.88	-50.3	-62.2	3.8	8.46e-01	0	40	104	0	71	14775
2026-01-21 13:43:06.57	280.53	27.86	-50.3	-62.2	3.8	8.47e-01	0	40	104	0	71	14813
2026-01-21 13:43:07.58	280.85	27.83	-50.3	-62.2	3.8	8.45e-01	0	40	104	0	71	14769
2026-01-21 13:43:08.58	281.16	27.80	-50.3	-62.2	3.8	8.47e-01	0	40	104	0	71	14788
2026-01-21 13:43:09.59	281.48	27.77	-50.3	-62.2	3.8	8.45e-01	0	40	104	0	71	14780
2026-01-21 13:43:10.60	281.80	27.74	-50.3	-62.2	3.8	8.46e-01	0	40	104	0	71	14774
2026-01-21 13:43:11.61	282.12	27.70	-50.3	-62.2	3.8	8.45e-01	0	40	104	0	71	14776
2026-01-21 13:43:12.62	282.43	27.67	-50.3	-62.2	3.8	8.47e-01	0	40	104	0	71	14810
2026-01-21 13:43:13.62	282.75	27.64	-50.3	-62.2	3.8	8.47e-01	0	40	104	0	71	14823
2026-01-21 13:43:14.63	283.06	27.60	-50.3	-62.2	3.8	8.47e-01	0	40	104	0	71	14796
2026-01-21 13:43:15.64	283.38	27.57	-50.3	-62.2	3.8	8.47e-01	0	40	104	0	71	14818
2026-01-21 13:43:16.65	283.69	27.53	-50.3	-62.2	3.8	8.47e-01	0	40	104	0	71	14795
2026-01-21 13:43:17.66	284.00	27.49	-50.3	-62.2	3.8	8.47e-01	0	40	104	0	71	14804
2026-01-21 13:43:18.67	284.32	27.46	-50.3	-62.2	3.8	8.46e-01	0	40	104	0	71	14775
2026-01-21 13:43:19.68	284.63	27.42	-50.3	-62.2	3.8	8.46e-01	0	40	104	0	71	14809
2026-01-21 13:43:20.69	284.94	27.38	-50.3	-62.2	3.8	8.46e-01	0	40	104	0	71	14841
2026-01-21 13:43:21.70	285.25	27.34	-50.3	-62.2	3.8	8.46e-01	0	40	104	0	71	14812
2026-01-21 13:43:22.71	285.56	27.29	-50.3	-62.2	3.8	8.46e-01	0	40	104	0	71	14839
2026-01-21 13:43:23.72	285.87	27.25	-50.3	-62.2	3.8	8.46e-01	0	40	104	0	71	14800
2026-01-21 13:43:24.73	286.17	27.21	-50.3	-62.2	3.8	8.46e-01	0	40	104	0	71	14798
2026-01-21 13:43:25.74	286.48	27.17	-50.3	-62.2	3.8	8.47e-01	0	40	104	0	71	14802
2026-01-21 13:43:26.74	286.78	27.12	-50.3	-62.2	3.8	8.46e-01	0	40	104	0	71	14797
2026-01-21 13:43:27.75	287.09	27.08	-50.3	-62.2	3.8	8.46e-01	0	40	104	0	71	14811
2026-01-21 13:43:28.76	287.39	27.03	-50.3	-62.3	3.8	8.45e-01	0	40	104	0	71	14881
2026-01-21 13:43:29.77	287.70	26.98	-50.3	-62.2	3.8	8.46e-01	0	40	104	0	71	14801
2026-01-21 13:43:30.78	288.00	26.93	-50.3	-62.2	3.8	8.46e-01	0	40	104	0	71	14795
2026-01-21 13:43:31.78	288.30	26.89	-50.3	-62.2	3.8	8.46e-01	0	40	104	0	71	14815
2026-01-21 13:43:32.79	288.60	26.84	-50.3	-62.2	3.8	8.46e-01	0	40	104	0	71	14791
2026-01-21 13:43:33.80	288.90	26.79	-50.3	-62.2	3.8	8.46e-01	0	40	104	0	71	14833
2026-01-21 13:43:34.81	289.20	26.74	-50.3	-62.2	3.8	8.47e-01	0	40	104	0	71	14826
2026-01-21 13:43:35.82	289.50	26.69	-50.3	-62.2	3.8	8.46e-01	0	41	104	0	71	14859
2026-01-21 13:43:36.83	289.79	26.63	-50.3	-62.2	3.8	8.46e-01	0	40	104	0	71	14817
2026-01-21 13:43:37.84	290.09	26.58	-50.3	-62.2	3.8	8.47e-01	0	40	104	0	71	14767
2026-01-21 13:43:38.85	290.38	26.53	-50.3	-62.2	3.8	8.46e-01	0	40	104	0	71	14812
2026-01-21 13:43:39.86	290.68	26.47	-50.3	-62.2	3.8	8.47e-01	0	40	104	0	71	14786
2026-01-21 13:43:40.87	290.97	26.42	-50.3	-62.2	3.8	8.48e-01	0	40	104	0	71	14781
2026-01-21 13:43:41.88	291.26	26.36	-50.3	-62.2	3.8	8.46e-01	0	40	104	0	71	14820
2026-01-21 13:43:42.88	291.55	26.31	-50.3	-62.2	3.8	8.46e-01	0	40	104	0	71	14819
2026-01-21 13:43:43.89	291.84	26.25	-50.3	-62.2	3.8	8.46e-01	0	40	104	0	71	14786
2026-01-21 13:43:44.90	292.13	26.19	-50.3	-62.2	3.8	8.46e-01	0	40	104	0	71	14806
2026-01-21 13:43:45.91	292.42	26.13	-50.3	-62.2	3.8	8.46e-01	0	40	104	0	71	14821
2026-01-21 13:43:46.92	292.70	26.08	-50.3	-62.2	3.8	8.46e-01	0	40	104	0	71	14801
2026-01-21 13:43:47.92	292.99	26.02	-50.3	-62.2	3.8	8.46e-01	0	40	104	0	71	14791
2026-01-21 13:43:48.93	293.27	25.96	-50.3	-62.2	3.8	8.47e-01	0	40	104	0	71	14812
2026-01-21 13:43:49.94	293.56	25.90	-50.3	-62.2	3.8	8.46e-01	0	40	104	0	71	14795
2026-01-21 13:43:50.95	293.84	25.83	-50.3	-62.2	3.8	8.46e-01	0	40	104	0	71	14792
2026-01-21 13:43:51.96	294.12	25.77	-50.3	-62.2	3.8	8.46e-01	0	40	104	0	71	14819
2026-01-21 13:43:52.96	294.40	25.71	-50.3	-62.2	3.8	8.47e-01	0	40	104	0	71	14840
2026-01-21 13:43:53.97	294.68	25.65	-50.3	-62.2	3.8	8.46e-01	0	40	104	0	71	14831
2026-01-21 13:43:54.98	294.96	25.59	-50.3	-62.2	3.8	8.47e-01	0	41	104	0	71	14797
2026-01-21 13:43:55.99	295.23	25.52	-50.3	-62.2	3.8	8.46e-01	0	40	104	0	71	14783
2026-01-21 13:43:57.00	295.51	25.46	-50.3	-62.2	3.8	8.45e-01	0	40	104	0	71	14811
2026-01-21 13:43:58.01	295.78	25.39	-50.3	-62.2	3.8	8.45e-01	0	40	104	0	71	14808
2026-01-21 13:43:59.01	296.06	25.33	-50.3	-62.2	3.8	8.47e-01	0	40	104	0	71	14815
2026-01-21 13:44:00.02	296.33	25.26	-50.3	-62.2	3.8	8.47e-01	0	40	104	0	71	14816
2026-01-21 13:44:01.03	296.60	25.19	-50.3	-62.2	3.8	8.47e-01	0	40	104	0	71	14796
2026-01-21 13:44:02.04	296.87	25.13	-50.3	-62.2	3.8	8.47e-01	0	40	104	0	71	14800
2026-01-21 13:44:03.05	297.14	25.06	-50.3	-62.2	3.8	8.46e-01	0	40	104	0	71	14810
2026-01-21 13:44:04.06	297.41	24.99	-50.3	-62.2	3.8	8.45e-01	0	40	104	0	71	14818
2026-01-21 13:44:05.06	297.67	24.92	-50.3	-62.2	3.8	8.47e-01	0	40	104	0	71	14794
2026-01-21 13:44:06.07	297.94	24.86	-50.3	-62.2	3.8	8.46e-01	0	40	104	0	71	14793
2026-01-21 13:44:07.08	298.20	24.79	-50.3	-62.2	3.8	8.46e-01	0	40	104	0	71	14786
2026-01-21 13:44:08.09	298.47	24.72	-50.3	-62.2	3.8	8.46e-01	0	40	104	0	71	14825
2026-01-21 13:44:09.10	298.73	24.65	-50.3	-62.2	3.8	8.46e-01	0	40	104	0	71	14784
2026-01-21 13:44:10.10	298.99	24.58	-50.3	-62.2	3.8	8.46e-01	0	40	104	0	71	14839
2026-01-21 13:44:11.11	299.25	24.51	-50.3	-62.2	3.8	8.46e-01	0	40	104	0	71	14860
2026-01-21 13:44:12.12	299.51	24.43	-50.3	-62.2	3.8	8.47e-01	0	40	104	0	71	14802
2026-01-21 13:44:13.13	299.77	24.36	-50.3	-62.2	3.8	8.46e-01	0	40	104	0	71	14790
2026-01-21 13:44:14.14	300.02	24.29	-50.3	-62.2	3.8	8.45e-01	0	40	104	0	71	14822
2026-01-21 13:44:15.14	300.28	24.22	-50.3	-62.2	3.8	8.46e-01	0	41	104	0	71	14825
2026-01-21 13:44:16.15	300.53	24.14	-50.3	-62.2	3.8	8.47e-01	0	40	104	0	71	14851
2026-01-21 13:44:17.16	300.78	24.07	-50.3	-62.2	3.8	8.45e-01	0	40	104	0	71	14802
2026-01-21 13:44:18.17	301.04	24.00	-50.3	-62.2	3.8	8.46e-01	0	40	104	0	71	14793
2026-01-21 13:44:19.18	301.29	23.92	-50.3	-62.2	3.8	8.47e-01	0	40	104	0	71	14795
2026-01-21 13:44:20.19	301.54	23.85	-50.3	-62.2	3.8	8.47e-01	0	40	104	0	71	14772
2026-01-21 13:44:21.20	301.79	23.77	-50.3	-62.2	3.8	8.46e-01	0	40	104	0	71	14790
2026-01-21 13:44:22.21	302.03	23.70	-50.3	-62.2	3.8	8.47e-01	0	40	104	0	71	14851
2026-01-21 13:44:23.21	302.28	23.62	-50.3	-62.2	3.8	8.45e-01	0	40	104	0	71	14813
2026-01-21 13:44:24.22	302.52	23.55	-50.3	-62.2	3.8	8.47e-01	0	40	104	0	71	14801
2026-01-21 13:44:25.23	302.77	23.47	-50.3	-62.2	3.8	8.46e-01	0	40	104	0	71	14837
2026-01-21 13:44:26.24	303.01	23.40	-50.3	-62.2	3.8	8.47e-01	0	40	104	0	71	14824
2026-01-21 13:44:27.25	303.25	23.32	-50.3	-62.2	3.8	8.45e-01	0	40	104	0	71	14817
2026-01-21 13:44:28.26	303.49	23.24	-50.3	-62.2	3.8	8.47e-01	0	40	104	0	71	14830
2026-01-21 13:44:29.27	303.73	23.17	-50.3	-62.2	3.8	8.46e-01	0	41	104	0	71	14858
2026-01-21 13:44:30.28	303.97	23.09	-50.3	-62.2	3.8	8.46e-01	0	40	104	0	71	14825
2026-01-21 13:44:31.29	304.21	23.01	-50.3	-62.2	3.8	8.47e-01	0	40	104	0	71	14879
2026-01-21 13:44:32.30	304.44	22.93	-50.3	-62.2	3.8	8.46e-01	0	40	104	0	71	14795
2026-01-21 13:44:33.31	304.68	22.85	-50.3	-62.2	3.8	8.46e-01	0	40	104	0	71	14772
2026-01-21 13:44:34.31	304.91	22.78	-50.3	-62.2	3.8	8.46e-01	0	40	104	0	71	14804
2026-01-21 13:44:35.32	305.14	22.70	-50.3	-62.2	3.8	8.45e-01	0	40	104	0	71	14810
2026-01-21 13:44:36.33	305.37	22.62	-50.3	-62.2	3.8	8.47e-01	0	40	104	0	71	14810
2026-01-21 13:44:37.34	305.60	22.54	-50.3	-62.2	3.8	8.45e-01	0	40	104	0	71	14804
2026-01-21 13:44:38.35	305.83	22.46	-50.3	-62.2	3.8	8.46e-01	0	40	104	0	71	14840
2026-01-21 13:44:39.35	306.06	22.38	-50.3	-62.2	3.8	8.46e-01	0	40	104	0	71	14833
2026-01-21 13:44:40.36	306.29	22.30	-50.3	-62.2	3.8	8.45e-01	0	40	104	0	71	14787
2026-01-21 13:44:41.37	306.51	22.22	-50.3	-62.2	3.8	8.46e-01	0	40	104	0	71	14840
2026-01-21 13:44:42.38	306.74	22.14	-50.3	-62.2	3.8	8.45e-01	0	40	104	0	71	14819
2026-01-21 13:44:43.39	306.96	22.06	-50.3	-62.2	3.8	8.47e-01	0	41	104	0	71	14761
2026-01-21 13:44:44.40	307.18	21.98	-50.3	-62.2	3.8	8.47e-01	0	40	104	0	71	14759
2026-01-21 13:44:45.41	307.40	21.90	-50.3	-62.2	3.8	8.46e-01	0	40	104	0	71	14814
2026-01-21 13:44:46.41	307.62	21.82	-50.3	-62.2	3.8	8.47e-01	0	40	104	0	71	14848
2026-01-21 13:44:47.42	307.84	21.74	-50.3	-62.2	3.8	8.45e-01	0	40	104	0	71	14778
2026-01-21 13:44:48.43	308.06	21.66	-50.3	-62.2	3.8	8.46e-01	0	40	104	0	71	14766
2026-01-21 13:44:49.44	308.27	21.58	-50.3	-62.2	3.8	8.47e-01	0	40	104	0	71	14788
2026-01-21 13:44:50.45	308.49	21.50	-50.3	-62.2	3.8	8.46e-01	0	40	104	0	71	14786
2026-01-21 13:44:51.46	308.70	21.41	-50.3	-62.2	3.8	8.45e-01	0	40	104	0	71	14829
2026-01-21 13:44:52.47	308.92	21.33	-50.3	-62.2	3.8	8.46e-01	0	40	104	0	71	14817
2026-01-21 13:44:53.48	309.13	21.25	-50.3	-62.2	3.8	8.46e-01	0	40	104	0	71	14790
2026-01-21 13:44:54.49	309.34	21.17	-50.3	-62.2	3.8	8.45e-01	0	40	104	0	71	14851
2026-01-21 13:44:55.50	309.55	21.09	-50.3	-62.2	3.8	8.47e-01	0	40	104	0	71	14794
2026-01-21 13:44:56.50	309.76	21.00	-50.3	-62.2	3.8	8.45e-01	0	40	104	0	71	14806
2026-01-21 13:44:57.51	309.97	20.92	-50.3	-62.2	3.8	8.46e-01	0	40	104	0	71	14780
2026-01-21 13:44:58.52	310.17	20.84	-50.3	-62.2	3.8	8.46e-01	0	40	104	0	71	14797
2026-01-21 13:44:59.53	310.38	20.76	-50.3	-62.2	3.8	8.46e-01	0	40	104	0	71	14779
2026-01-21 13:45:00.54	310.58	20.68	-50.3	-62.2	3.8	8.47e-01	0	40	104	0	71	14817
2026-01-21 13:45:01.55	310.79	20.59	-50.3	-62.2	3.8	8.47e-01	0	40	104	0	71	14807
2026-01-21 13:45:02.55	310.99	20.51	-50.3	-62.2	3.8	8.46e-01	0	40	104	0	71	14830
2026-01-21 13:45:03.56	311.19	20.43	-50.3	-62.2	3.8	8.46e-01	0	40	104	0	71	14790
2026-01-21 13:45:04.57	311.39	20.35	-50.3	-62.2	3.8	8.46e-01	0	40	104	0	71	14856
2026-01-21 13:45:05.58	311.59	20.26	-50.3	-62.2	3.8	8.46e-01	0	40	104	0	71	14820
2026-01-21 13:45:06.58	311.78	20.18	-50.3	-62.2	3.8	8.45e-01	0	41	104	0	71	14779
2026-01-21 13:45:07.59	311.98	20.10	-50.3	-62.2	3.8	8.47e-01	0	40	104	0	71	14787
2026-01-21 13:45:08.60	312.18	20.01	-50.3	-62.2	3.8	8.45e-01	0	40	104	0	71	14838
2026-01-21 13:45:09.61	312.37	19.93	-50.3	-62.2	3.8	8.46e-01	0	40	104	0	71	14823
2026-01-21 13:45:10.62	312.57	19.85	-50.3	-62.2	3.8	8.46e-01	0	40	104	0	71	14789
2026-01-21 13:45:11.62	312.76	19.76	-50.3	-62.2	3.8	8.48e-01	0	41	104	0	71	14804
2026-01-21 13:45:12.63	312.95	19.68	-50.3	-62.2	3.8	8.47e-01	0	40	104	0	71	14823
2026-01-21 13:45:13.64	313.14	19.60	-50.3	-62.2	3.8	8.47e-01	0	40	104	0	71	14807
2026-01-21 13:45:14.65	313.33	19.52	-50.3	-62.2	3.8	8.45e-01	0	40	104	0	71	14820
2026-01-21 13:45:15.66	313.52	19.43	-50.3	-62.2	3.8	8.46e-01	0	40	104	0	71	14777
2026-01-21 13:45:16.67	313.71	19.35	-50.3	-62.2	3.8	8.47e-01	0	40	104	0	71	14774
2026-01-21 13:45:17.68	313.90	19.26	-50.3	-62.2	3.8	8.46e-01	0	41	104	0	71	14820
2026-01-21 13:45:18.68	314.08	19.18	-50.3	-62.2	3.8	8.46e-01	0	40	104	0	71	14804
2026-01-21 13:45:19.69	314.27	19.10	-50.3	-62.2	3.8	8.46e-01	0	40	104	0	71	14820
2026-01-21 13:45:20.71	314.45	19.01	-50.3	-62.2	3.8	8.46e-01	0	40	104	0	71	14788
2026-01-21 13:45:21.71	314.63	18.93	-50.3	-62.2	3.8	8.45e-01	0	40	104	0	71	14835
2026-01-21 13:45:22.72	314.82	18.85	-50.3	-62.2	3.8	8.46e-01	0	40	104	0	71	14776
2026-01-21 13:45:23.73	315.00	18.77	-50.3	-62.2	3.8	8.47e-01	0	40	104	0	71	14825
2026-01-21 13:45:24.74	315.18	18.68	-50.3	-62.2	3.8	8.47e-01	0	40	104	0	71	14820
2026-01-21 13:45:25.74	315.35	18.60	-50.3	-62.2	3.8	8.45e-01	0	40	104	0	71	14827
2026-01-21 13:45:26.75	315.53	18.52	-50.3	-62.2	3.8	8.47e-01	0	40	104	0	71	14800
2026-01-21 13:45:27.76	315.71	18.43	-50.3	-62.2	3.8	8.45e-01	0	40	104	0	71	14790
2026-01-21 13:45:28.77	315.89	18.35	-50.3	-62.2	3.8	8.46e-01	0	40	104	0	71	14860
2026-01-21 13:45:29.78	316.06	18.27	-50.3	-62.2	3.8	8.46e-01	0	40	104	0	71	14821
2026-01-21 13:45:30.79	316.24	18.18	-50.3	-62.2	3.8	8.46e-01	0	40	104	0	71	14759
2026-01-21 13:45:31.80	316.41	18.10	-50.3	-62.2	3.8	8.46e-01	0	40	104	0	71	14824
2026-01-21 13:45:32.81	316.58	18.02	-50.3	-62.2	3.8	8.46e-01	0	40	104	0	71	14773
2026-01-21 13:45:33.81	316.75	17.93	-50.3	-62.2	3.8	8.46e-01	0	40	104	0	71	14846
2026-01-21 13:45:34.82	316.92	17.85	-50.3	-62.2	3.8	8.47e-01	0	40	104	0	71	14748
2026-01-21 13:45:35.83	317.09	17.77	-50.3	-62.2	3.8	8.47e-01	0	40	104	0	71	14824
2026-01-21 13:45:36.84	317.26	17.68	-50.3	-62.2	3.8	8.45e-01	0	40	104	0	71	14811
2026-01-21 13:45:37.85	317.43	17.60	-50.3	-62.2	3.8	8.46e-01	0	40	104	0	71	14766
2026-01-21 13:45:38.86	317.60	17.52	-50.3	-62.2	3.8	8.46e-01	0	40	104	0	71	14797
2026-01-21 13:45:39.87	317.77	17.44	-50.3	-62.2	3.8	8.46e-01	0	40	104	0	71	14821
2026-01-21 13:45:40.88	317.93	17.35	-50.3	-62.2	3.8	8.47e-01	0	40	104	0	71	14790
2026-01-21 13:45:41.89	318.10	17.27	-50.3	-62.2	3.8	8.46e-01	0	40	104	0	71	14765
2026-01-21 13:45:42.90	318.26	17.19	-50.3	-62.2	3.8	8.46e-01	0	40	104	0	71	14791
2026-01-21 13:45:43.90	318.42	17.11	-50.3	-62.2	3.8	8.47e-01	0	40	104	0	71	14790
2026-01-21 13:45:44.91	318.58	17.02	-50.3	-62.2	3.8	8.46e-01	0	40	104	0	71	14777
2026-01-21 13:45:45.92	318.74	16.94	-50.3	-62.2	3.8	8.46e-01	0	40	104	0	71	14829
2026-01-21 13:45:46.93	318.90	16.86	-50.3	-62.2	3.8	8.46e-01	0	40	104	0	71	14739
2026-01-21 13:45:47.94	319.06	16.78	-50.3	-62.2	3.8	8.46e-01	0	40	104	0	71	14858
2026-01-21 13:45:48.94	319.22	16.69	-50.3	-62.2	3.8	8.47e-01	0	40	104	0	71	14787
2026-01-21 13:45:49.95	319.38	16.61	-50.3	-62.2	3.8	8.45e-01	0	40	104	0	71	14824
2026-01-21 13:45:50.96	319.54	16.53	-50.3	-62.2	3.8	8.47e-01	0	40	104	0	71	14798
2026-01-21 13:45:51.97	319.69	16.45	-50.3	-62.2	3.8	8.47e-01	0	40	104	0	71	14768
2026-01-21 13:45:52.98	319.85	16.37	-50.3	-62.2	3.8	8.46e-01	0	40	104	0	71	14799
2026-01-21 13:45:53.99	320.00	16.28	-50.3	-62.2	3.8	8.46e-01	0	40	104	0	71	14756
2026-01-21 13:45:54.99	320.15	16.20	-50.3	-62.2	3.8	8.46e-01	0	40	104	0	71	14790
2026-01-21 13:45:56.00	320.31	16.12	-50.3	-62.2	3.8	8.46e-01	0	40	104	0	71	14804
2026-01-21 13:45:57.01	320.46	16.04	-50.3	-62.2	3.8	8.47e-01	0	40	104	0	71	14786
2026-01-21 13:45:58.02	320.61	15.96	-50.3	-62.2	3.8	8.47e-01	0	40	104	0	71	14806
2026-01-21 13:45:59.02	320.76	15.88	-50.3	-62.2	3.8	8.45e-01	0	40	104	0	71	14830
2026-01-21 13:46:00.03	320.91	15.80	-50.3	-62.2	3.8	8.46e-01	0	40	104	0	71	14789
2026-01-21 13:46:01.04	321.06	15.71	-50.3	-62.2	3.8	8.45e-01	0	40	104	0	71	14797
2026-01-21 13:46:02.05	321.21	15.63	-50.3	-62.2	3.8	8.46e-01	0	40	104	0	71	14761
2026-01-21 13:46:03.06	321.35	15.55	-50.3	-62.2	3.8	8.46e-01	0	40	104	0	71	14791
2026-01-21 13:46:04.07	321.50	15.47	-50.3	-62.2	3.8	8.46e-01	0	40	104	0	71	14816
2026-01-21 13:46:05.08	321.65	15.39	-50.3	-62.2	3.8	8.47e-01	0	40	104	0	71	14785
2026-01-21 13:46:06.09	321.79	15.31	-50.3	-62.2	3.8	8.47e-01	0	41	104	0	71	14780
2026-01-21 13:46:07.09	321.93	15.23	-50.3	-62.2	3.8	8.46e-01	0	40	104	0	71	14806
2026-01-21 13:46:08.10	322.08	15.15	-50.3	-62.2	3.8	8.46e-01	0	40	104	0	71	14768
2026-01-21 13:46:09.11	322.22	15.07	-50.3	-62.2	3.8	8.45e-01	0	40	104	0	71	14763
2026-01-21 13:46:10.12	322.36	14.99	-50.3	-62.2	3.8	8.46e-01	0	40	104	0	71	14813
2026-01-21 13:46:11.12	322.50	14.91	-50.3	-62.2	3.8	8.46e-01	0	40	104	0	71	14779
2026-01-21 13:46:12.13	322.64	14.83	-50.3	-62.2	3.8	8.45e-01	0	40	104	0	71	14792
2026-01-21 13:46:13.14	322.78	14.75	-50.3	-62.2	3.8	8.47e-01	0	40	104	0	71	14831
2026-01-21 13:46:14.15	322.92	14.67	-50.3	-62.2	3.8	8.46e-01	0	40	104	0	71	14791
2026-01-21 13:46:15.16	323.06	14.59	-50.3	-62.2	3.8	8.46e-01	0	40	104	0	71	14753
2026-01-21 13:46:16.17	323.20	14.51	-50.3	-62.2	3.8	8.45e-01	0	40	104	0	71	14747
2026-01-21 13:46:17.17	323.34	14.43	-50.3	-62.2	3.8	8.47e-01	0	40	104	0	71	14797
2026-01-21 13:46:18.18	323.47	14.35	-50.3	-62.2	3.8	8.45e-01	0	40	104	0	71	14792
2026-01-21 13:46:19.19	323.61	14.27	-50.3	-62.2	3.8	8.47e-01	0	40	104	0	71	14826
2026-01-21 13:46:20.20	323.74	14.19	-50.3	-62.2	3.8	8.46e-01	0	40	104	0	71	14776
2026-01-21 13:46:21.20	323.88	14.11	-50.3	-62.2	3.8	8.45e-01	0	40	104	0	71	14802
2026-01-21 13:46:22.21	324.01	14.03	-50.3	-62.2	3.8	8.46e-01	0	40	104	0	71	14799
2026-01-21 13:46:23.22	324.14	13.96	-50.3	-62.2	3.8	8.46e-01	0	40	104	0	71	14785
2026-01-21 13:46:24.23	324.27	13.88	-50.3	-62.2	3.8	8.47e-01	0	40	104	0	71	14797
2026-01-21 13:46:25.24	324.41	13.80	-50.3	-62.2	3.8	8.46e-01	0	40	104	0	71	14743
2026-01-21 13:46:26.25	324.54	13.72	-50.3	-62.2	3.8	8.46e-01	0	40	104	0	71	14780
2026-01-21 13:46:27.26	324.67	13.64	-50.3	-62.2	3.8	8.45e-01	0	40	104	0	71	14796
2026-01-21 13:46:28.26	324.80	13.56	-50.3	-62.2	3.8	8.45e-01	0	40	104	0	71	14786
2026-01-21 13:46:29.27	324.92	13.49	-50.3	-62.2	3.8	8.46e-01	0	40	104	0	71	14803
2026-01-21 13:46:30.28	325.05	13.41	-50.3	-62.2	3.8	8.45e-01	0	40	104	0	71	14816
2026-01-21 13:46:31.29	325.18	13.33	-50.3	-62.2	3.8	8.46e-01	0	40	104	0	71	14836
2026-01-21 13:46:32.30	325.31	13.25	-50.3	-62.2	3.8	8.46e-01	0	40	104	0	71	14773
2026-01-21 13:46:33.31	325.43	13.17	-50.3	-62.2	3.8	8.46e-01	0	40	104	0	71	14786
2026-01-21 13:46:34.31	325.56	13.10	-50.3	-62.2	3.8	8.45e-01	0	40	104	0	71	14804
2026-01-21 13:46:35.32	325.68	13.02	-50.3	-62.2	3.8	8.46e-01	0	40	104	0	71	14752
2026-01-21 13:46:36.33	325.81	12.94	-50.3	-62.2	3.8	8.46e-01	0	40	104	0	71	14800
2026-01-21 13:46:37.34	325.93	12.87	-50.3	-62.2	3.8	8.47e-01	0	40	104	0	71	14826
2026-01-21 13:46:38.35	326.05	12.79	-50.3	-62.2	3.8	8.46e-01	0	40	104	0	71	14820
2026-01-21 13:46:39.35	326.18	12.71	-50.3	-62.2	3.8	8.46e-01	0	40	104	0	71	14759
2026-01-21 13:46:40.36	326.30	12.64	-50.3	-62.2	3.8	8.45e-01	0	40	104	0	71	14793
2026-01-21 13:46:41.37	326.42	12.56	-50.3	-62.2	3.8	8.46e-01	0	40	104	0	71	14789
2026-01-21 13:46:42.38	326.54	12.48	-50.3	-62.2	3.8	8.46e-01	0	40	104	0	71	14817
2026-01-21 13:46:43.38	326.66	12.41	-50.3	-62.2	3.8	8.45e-01	0	40	104	0	71	14836
2026-01-21 13:46:44.39	326.78	12.33	-50.3	-62.2	3.8	8.46e-01	0	40	104	0	71	14808
2026-01-21 13:46:45.40	326.90	12.25	-50.3	-62.2	3.8	8.47e-01	0	40	104	0	71	14800
2026-01-21 13:46:46.41	327.02	12.18	-50.3	-62.2	3.8	8.46e-01	0	40	104	0	71	14800
2026-01-21 13:46:47.42	327.13	12.10	-50.3	-62.2	3.8	8.47e-01	0	40	104	0	71	14808
2026-01-21 13:46:48.43	327.25	12.03	-50.3	-62.2	3.8	8.46e-01	0	40	104	0	71	14798
2026-01-21 13:46:49.44	327.37	11.95	-50.3	-62.2	3.8	8.46e-01	0	40	104	0	71	14806
2026-01-21 13:46:50.44	327.48	11.88	-50.3	-62.2	3.8	8.47e-01	0	40	104	0	71	14827
2026-01-21 13:46:51.45	327.60	11.80	-50.3	-62.2	3.8	8.45e-01	0	40	104	0	71	14809
2026-01-21 13:46:52.47	327.71	11.72	-50.3	-62.2	3.8	8.45e-01	0	40	104	0	71	14792
2026-01-21 13:46:53.47	327.83	11.65	-50.3	-62.2	3.8	8.46e-01	0	40	104	0	71	14785
2026-01-21 13:46:54.48	327.94	11.58	-50.3	-62.2	3.8	8.45e-01	0	40	104	0	71	14764
2026-01-21 13:46:55.49	328.05	11.50	-50.3	-62.2	3.8	8.47e-01	0	40	104	0	71	14788
2026-01-21 13:46:56.50	328.17	11.43	-50.3	-62.2	3.8	8.47e-01	0	40	104	0	71	14761
2026-01-21 13:46:57.50	328.28	11.35	-50.3	-62.2	3.8	8.47e-01	0	41	104	0	71	14765
2026-01-21 13:46:58.51	328.39	11.28	-50.3	-62.2	3.8	8.47e-01	0	40	104	0	71	14821
2026-01-21 13:46:59.52	328.50	11.20	-50.3	-62.2	3.8	8.47e-01	0	40	104	0	71	14778
2026-01-21 13:47:00.53	328.61	11.13	-50.3	-62.2	3.8	8.46e-01	0	40	104	0	71	14771
2026-01-21 13:47:01.54	328.72	11.06	-50.2	-62.2	3.8	8.46e-01	0	40	104	0	71	14734
2026-01-21 13:47:02.55	328.83	10.98	-50.3	-62.2	3.8	8.45e-01	0	40	104	0	71	14793
2026-01-21 13:47:03.56	328.94	10.91	-50.2	-62.2	3.8	8.46e-01	0	40	104	0	71	14766
2026-01-21 13:47:04.57	329.05	10.83	-50.2	-62.2	3.8	8.46e-01	0	40	104	0	71	14741
2026-01-21 13:47:05.58	329.16	10.76	-50.2	-62.2	3.8	8.46e-01	0	40	104	0	71	14746
2026-01-21 13:47:06.58	329.26	10.69	-50.0	-62.2	3.8	8.47e-01	0	40	104	0	71	14724
2026-01-21 13:47:07.59	329.37	10.61	-50.2	-62.1	3.8	8.47e-01	0	40	104	0	71	14704
2026-01-21 13:47:08.60	329.48	10.54	-50.2	-62.2	3.8	8.45e-01	0	40	104	0	71	14716
2026-01-21 13:47:09.61	329.58	10.47	-50.1	-62.2	3.8	8.46e-01	0	41	104	0	71	14746
2026-01-21 13:47:10.62	329.69	10.40	-50.1	-62.2	3.8	8.47e-01	0	40	104	0	71	14762
2026-01-21 13:47:11.63	329.79	10.32	-50.1	-62.2	3.8	8.45e-01	0	40	104	0	71	14781
2026-01-21 13:47:12.64	329.90	10.25	-50.1	-62.2	3.8	8.47e-01	0	40	104	0	71	14748
2026-01-21 13:47:13.65	330.00	10.18	-49.9	-62.2	3.8	8.45e-01	0	40	104	0	71	14747
2026-01-21 13:47:14.66	330.10	10.11	-50.0	-62.2	3.8	8.46e-01	0	40	104	0	71	14746
2026-01-21 13:47:15.67	330.21	10.03	-50.0	-62.2	3.8	8.46e-01	0	41	104	0	71	14738
2026-01-21 13:47:16.67	330.31	9.96	-50.1	-62.2	3.8	8.46e-01	0	40	104	0	71	14764
2026-01-21 13:47:17.68	330.41	9.89	-50.2	-62.1	3.8	8.47e-01	0	40	104	0	71	14686
2026-01-21 13:47:18.69	330.51	9.82	-50.2	-62.2	3.8	8.45e-01	0	40	104	0	71	14728
2026-01-21 13:47:19.70	330.61	9.75	-50.3	-62.2	3.8	8.44e-01	0	40	104	0	71	14720
2026-01-21 13:47:20.71	330.71	9.68	-50.3	-62.1	3.8	8.46e-01	0	40	104	0	71	14685
2026-01-21 13:47:21.72	330.81	9.60	-50.3	-62.1	3.8	8.46e-01	0	40	104	0	71	14698
2026-01-21 13:47:22.72	330.91	9.53	-50.2	-62.1	3.8	8.46e-01	0	40	104	0	71	14613
2026-01-21 13:47:23.73	331.01	9.46	-50.3	-62.1	3.8	8.46e-01	0	40	104	0	71	14654
2026-01-21 13:47:24.74	331.11	9.39	-50.3	-62.1	3.8	8.46e-01	0	40	104	0	71	14591
2026-01-21 13:47:25.75	331.21	9.32	-50.2	-62.1	3.8	8.46e-01	0	40	104	0	71	14559
2026-01-21 13:47:26.76	331.31	9.25	-50.2	-62.0	3.8	8.47e-01	0	40	104	0	71	14539
2026-01-21 13:47:27.77	331.40	9.18	-50.2	-62.1	3.8	8.45e-01	0	40	104	0	71	14582
2026-01-21 13:47:28.78	331.50	9.11	-50.3	-62.1	3.8	8.46e-01	0	40	104	0	71	14614
2026-01-21 13:47:29.79	331.60	9.04	-50.3	-62.0	3.8	8.46e-01	0	40	104	0	71	14539
2026-01-21 13:47:30.80	331.69	8.97	-50.3	-62.1	3.8	8.46e-01	0	40	104	0	71	14657
2026-01-21 13:47:31.81	331.79	8.90	-50.3	-62.1	3.8	8.45e-01	0	40	104	0	71	14678
2026-01-21 13:47:32.81	331.88	8.83	-50.3	-62.1	3.8	8.47e-01	0	40	104	0	71	14704
2026-01-21 13:47:33.82	331.98	8.76	-50.3	-62.2	3.8	8.45e-01	0	40	104	0	71	14769
2026-01-21 13:47:34.83	332.07	8.69	-50.3	-62.2	3.8	8.46e-01	0	40	104	0	71	14801
2026-01-21 13:47:35.84	332.17	8.62	-50.3	-62.2	3.8	8.47e-01	0	40	104	0	71	14757
2026-01-21 13:47:36.84	332.26	8.55	-50.3	-62.2	3.8	8.45e-01	0	40	104	0	71	14746
2026-01-21 13:47:37.85	332.35	8.48	-50.3	-62.2	3.8	8.46e-01	0	40	104	0	71	14758
2026-01-21 13:47:38.86	332.45	8.41	-50.3	-62.2	3.8	8.46e-01	0	40	104	0	71	14780
2026-01-21 13:47:39.87	332.54	8.34	-50.3	-62.2	3.8	8.46e-01	0	40	104	0	71	14785
2026-01-21 13:47:40.87	332.63	8.28	-50.3	-62.2	3.8	8.47e-01	0	40	104	0	71	14772
2026-01-21 13:47:41.88	332.72	8.21	-50.3	-62.2	3.8	8.45e-01	0	40	104	0	71	14758
2026-01-21 13:47:42.89	332.81	8.14	-50.3	-62.2	3.8	8.45e-01	0	40	104	0	71	14760
2026-01-21 13:47:43.90	332.90	8.07	-50.3	-62.2	3.8	8.46e-01	0	41	104	0	71	14728
2026-01-21 13:47:44.91	332.99	8.00	-50.3	-62.2	3.8	8.47e-01	0	40	104	0	71	14761
2026-01-21 13:47:45.91	333.08	7.93	-50.3	-62.2	3.8	8.46e-01	0	41	104	0	71	14744
2026-01-21 13:47:46.92	333.17	7.87	-50.3	-62.2	3.8	8.46e-01	0	40	104	0	71	14748
2026-01-21 13:47:47.93	333.26	7.80	-50.3	-62.2	3.8	8.46e-01	0	40	104	0	71	14752
2026-01-21 13:47:48.94	333.35	7.73	-50.3	-62.2	3.8	8.46e-01	0	40	104	0	71	14824
2026-01-21 13:47:49.95	333.44	7.66	-50.3	-62.2	3.8	8.46e-01	0	40	104	0	71	14790
2026-01-21 13:47:50.95	333.52	7.60	-50.3	-62.2	3.8	8.46e-01	0	40	104	0	71	14780
2026-01-21 13:47:51.96	333.61	7.53	-50.3	-62.2	3.8	8.46e-01	0	40	104	0	71	14786
2026-01-21 13:47:52.97	333.70	7.46	-50.3	-62.2	3.8	8.46e-01	0	40	104	0	71	14709
2026-01-21 13:47:53.98	333.78	7.39	-50.3	-62.1	3.8	8.46e-01	0	40	104	0	71	14688
2026-01-21 13:47:54.99	333.87	7.33	-50.3	-62.1	3.8	8.47e-01	0	40	104	0	71	14707
2026-01-21 13:47:56.00	333.96	7.26	-50.3	-62.2	3.8	8.46e-01	0	40	104	0	71	14742
2026-01-21 13:47:57.00	334.04	7.19	-50.3	-62.2	3.8	8.48e-01	0	40	104	0	71	14739
2026-01-21 13:47:58.01	334.13	7.13	-50.3	-62.2	3.8	8.45e-01	0	40	104	0	71	14747
2026-01-21 13:47:59.02	334.21	7.06	-50.3	-62.2	3.8	8.46e-01	0	40	104	0	71	14762
2026-01-21 13:48:00.03	334.30	6.99	-50.3	-62.2	3.8	8.47e-01	0	40	104	0	71	14716
2026-01-21 13:48:01.04	334.38	6.93	-50.3	-62.2	3.8	8.46e-01	0	40	104	0	71	14752
2026-01-21 13:48:02.05	334.46	6.86	-50.3	-62.2	3.8	8.46e-01	0	40	104	0	71	14747
2026-01-21 13:48:03.06	334.55	6.80	-50.3	-62.2	3.8	8.47e-01	0	40	104	0	71	14770
2026-01-21 13:48:04.07	334.63	6.73	-50.3	-62.2	3.8	8.44e-01	0	40	104	0	71	14773
2026-01-21 13:48:05.08	334.71	6.66	-50.3	-62.2	3.8	8.47e-01	0	40	104	0	71	14759
2026-01-21 13:48:06.09	334.80	6.60	-50.3	-62.1	3.8	8.46e-01	0	40	104	0	71	14692
2026-01-21 13:48:07.09	334.88	6.53	-50.3	-62.2	3.8	8.46e-01	0	40	104	0	71	14720
2026-01-21 13:48:08.10	334.96	6.47	-50.3	-62.2	3.8	8.46e-01	0	40	104	0	71	14720
2026-01-21 13:48:09.11	335.04	6.40	-50.3	-62.1	3.8	8.46e-01	0	40	104	0	71	14687
2026-01-21 13:48:10.12	335.12	6.34	-50.3	-62.2	3.8	8.47e-01	0	40	104	0	71	14742
2026-01-21 13:48:11.13	335.20	6.27	-50.3	-62.2	3.8	8.46e-01	0	40	104	0	71	14740
2026-01-21 13:48:12.13	335.28	6.21	-50.3	-62.2	3.8	8.46e-01	0	40	104	0	71	14725
2026-01-21 13:48:13.14	335.36	6.14	-50.3	-62.1	3.8	8.47e-01	0	40	104	0	71	14671
2026-01-21 13:48:14.15	335.44	6.08	-50.3	-62.1	3.8	8.45e-01	0	40	104	0	71	14695
2026-01-21 13:48:15.16	335.52	6.01	-50.3	-62.1	3.8	8.47e-01	0	40	104	0	71	14706
2026-01-21 13:48:16.17	335.60	5.95	-50.3	-62.1	3.8	8.47e-01	0	40	104	0	71	14661
2026-01-21 13:48:17.18	335.68	5.88	-50.3	-62.2	3.8	8.46e-01	0	40	104	0	71	14712
2026-01-21 13:48:18.18	335.75	5.82	-50.3	-62.2	3.8	8.46e-01	0	40	104	0	71	14775
