passes_logs/2026/01/21/R3.2S_Murmansk/R3.2S_Murmansk__20260121_002920_NOAA_21_JPSS-2_rec.log

#Pass ID: 20260121_002920_NOAA 21 (JPSS-2)
#Satellite: NOAA 21 (JPSS-2)
#Configuration: NOAA-21
#almurnet v.1.7.20251203
#Start time: 2026-01-21 00:29:22

#Version: 2.2.20231116
#Station: R3.2S_Murmansk
#Location: 33.079688 lon 68.888172 lat
#TLE: 1 54234U 22150A   26020.29910383  .00000141  00000+0  87571-4 0  9990
#TLE: 2 54234  98.7506 321.1348 0000615 250.8428 109.2682 14.19536295165564

#Time	Az	El	Level	Level2	SNR	BER	BlckErr	Temp	State	Recorded	gain1	gain2
2026-01-21 00:29:22.44	23.77	2.11	-54.4	-67.2	3.8	1.49e+00	0	38	0	0	79	16518
2026-01-21 00:29:23.44	23.78	2.18	-54.4	-67.2	3.8	1.49e+00	0	38	104	0	79	16649
2026-01-21 00:29:24.45	23.79	2.24	-54.4	-67.2	3.8	1.49e+00	0	38	104	0	79	16666
2026-01-21 00:29:25.46	23.80	2.31	-54.4	-67.2	3.8	1.49e+00	0	38	104	0	79	16524
2026-01-21 00:29:26.47	23.81	2.37	-54.4	-67.2	3.8	1.49e+00	0	38	104	0	79	16510
2026-01-21 00:29:27.47	23.82	2.44	-54.3	-67.1	3.8	1.49e+00	0	38	104	0	79	16474
2026-01-21 00:29:28.48	23.83	2.50	-54.3	-67.1	3.8	1.49e+00	0	38	104	0	79	16419
2026-01-21 00:29:29.49	23.84	2.57	-54.3	-67.1	3.8	1.49e+00	0	38	104	0	79	16422
2026-01-21 00:29:30.50	23.85	2.63	-54.3	-67.1	3.8	1.49e+00	0	38	104	0	79	16371
2026-01-21 00:29:31.51	23.86	2.70	-54.2	-67.0	3.8	1.49e+00	0	38	104	0	79	16182
2026-01-21 00:29:32.52	23.87	2.77	-54.2	-66.9	3.8	1.49e+00	0	38	104	0	79	16098
2026-01-21 00:29:33.53	23.87	2.83	-54.1	-66.9	3.8	1.49e+00	0	38	104	0	79	15951
2026-01-21 00:29:34.53	23.88	2.90	-54.0	-66.8	3.8	1.49e+00	0	38	104	0	79	15780
2026-01-21 00:29:35.54	23.89	2.96	-53.9	-66.7	3.8	1.49e+00	0	38	104	0	79	15616
2026-01-21 00:29:36.55	23.90	3.03	-53.8	-66.5	3.8	1.49e+00	0	38	104	0	79	15360
2026-01-21 00:29:37.56	23.91	3.10	-53.7	-66.4	3.8	1.49e+00	0	38	104	0	79	15190
2026-01-21 00:29:38.57	23.92	3.16	-53.5	-66.2	3.8	1.49e+00	0	38	104	0	78	15674
2026-01-21 00:29:39.58	23.93	3.23	-53.2	-66.0	3.8	1.49e+00	0	38	104	0	78	15310
2026-01-21 00:29:40.59	23.94	3.30	-52.8	-65.5	3.8	1.49e+00	0	38	104	0	77	15332
2026-01-21 00:29:41.59	23.95	3.36	-52.4	-65.1	3.8	1.49e+00	0	38	104	0	76	15459
2026-01-21 00:29:42.60	23.96	3.43	-52.4	-64.5	3.8	1.49e+00	0	38	104	0	76	14515
2026-01-21 00:29:43.61	23.97	3.50	-52.3	-63.8	3.8	1.49e+00	0	38	104	0	76	13323
2026-01-21 00:29:44.62	23.98	3.57	-52.1	-61.5	4.2	1.47e+00	0	38	104	0	76	10184
2026-01-21 00:29:45.63	23.99	3.64	-51.8	-59.4	5.1	1.14e+00	0	38	104	0	75	8476
2026-01-21 00:29:46.64	24.00	3.70	-51.2	-56.9	6.9	1.96e-01	0	38	0	2097152	74	6799
2026-01-21 00:29:47.64	24.01	3.77	-50.9	-56.1	7.8	1.14e-01	0	38	0	5242880	73	6505
2026-01-21 00:29:48.65	24.02	3.84	-50.0	-53.9	10.0	1.72e-02	0	38	0	8388608	72	5347
2026-01-21 00:29:49.66	24.03	3.91	-49.2	-52.1	11.9	6.56e-04	0	38	0	11534336	70	4920
2026-01-21 00:29:50.67	24.04	3.98	-48.6	-51.3	12.8	6.79e-05	0	39	0	14680064	69	4715
2026-01-21 00:29:51.68	24.05	4.05	-48.0	-50.2	13.8	5.30e-06	0	38	0	17825792	68	4440
2026-01-21 00:29:52.69	24.05	4.12	-46.9	-48.7	15.3	0.00e+00	0	38	0	20971520	65	4397
2026-01-21 00:29:53.69	24.06	4.19	-46.7	-48.5	15.5	0.00e+00	0	38	0	24117248	65	4300
2026-01-21 00:29:54.70	24.07	4.25	-46.0	-47.5	16.5	0.00e+00	0	39	0	27262976	64	4081
2026-01-21 00:29:55.71	24.08	4.32	-45.8	-47.3	16.8	0.00e+00	0	38	0	30408704	63	4198
2026-01-21 00:29:56.72	24.09	4.39	-45.8	-47.2	16.9	0.00e+00	0	39	0	33554432	63	4179
2026-01-21 00:29:57.73	24.10	4.46	-45.4	-46.8	17.2	0.00e+00	0	39	0	36700160	62	4234
2026-01-21 00:29:58.73	24.11	4.53	-45.2	-46.6	17.5	0.00e+00	0	39	0	39845888	62	4119
2026-01-21 00:29:59.74	24.12	4.60	-45.6	-47.1	17.0	0.00e+00	0	38	0	42991616	62	4343
2026-01-21 00:30:00.75	24.13	4.68	-45.7	-47.2	16.9	0.00e+00	0	38	0	46137344	62	4403
2026-01-21 00:30:01.76	24.14	4.75	-45.8	-47.3	16.8	0.00e+00	0	39	0	49283072	62	4478
2026-01-21 00:30:02.77	24.15	4.82	-46.5	-48.2	15.9	0.00e+00	0	39	0	52428800	63	4675
2026-01-21 00:30:03.78	24.16	4.89	-47.2	-49.2	14.8	0.00e+00	0	39	0	55574528	64	4937
2026-01-21 00:30:04.79	24.17	4.96	-47.8	-49.9	14.1	1.50e-06	0	39	0	58720256	66	4813
2026-01-21 00:30:05.80	24.18	5.03	-48.7	-51.4	12.6	1.98e-05	0	38	0	61865984	67	5357
2026-01-21 00:30:06.81	24.19	5.10	-45.9	-47.3	16.8	1.50e-06	0	39	0	65011712	63	4232
2026-01-21 00:30:07.82	24.20	5.18	-45.2	-46.5	17.6	0.00e+00	0	39	0	68157440	62	4081
2026-01-21 00:30:08.83	24.21	5.25	-52.1	-62.2	4.1	4.77e-02	4	39	0	71303168	74	12421
2026-01-21 00:30:09.84	24.22	5.32	-47.1	-49.0	14.8	7.69e-01	0	39	104	71303168	66	4294
2026-01-21 00:30:10.84	24.23	5.39	-46.7	-48.4	15.8	0.00e+00	0	39	0	73400320	63	4801
2026-01-21 00:30:11.85	24.24	5.46	-45.5	-46.8	17.3	0.00e+00	0	39	0	76546048	63	3997
2026-01-21 00:30:12.86	24.25	5.54	-45.3	-46.7	17.5	0.00e+00	0	39	0	79691776	62	4155
2026-01-21 00:30:13.87	24.26	5.61	-44.9	-46.2	17.9	0.00e+00	0	39	0	82837504	61	4166
2026-01-21 00:30:14.87	24.27	5.68	-45.0	-46.3	17.9	0.00e+00	0	39	0	85983232	61	4213
2026-01-21 00:30:15.88	24.28	5.76	-44.8	-46.1	18.1	0.00e+00	0	39	0	89128960	61	4104
2026-01-21 00:30:16.89	24.29	5.83	-44.8	-46.1	18.1	0.00e+00	0	39	0	92274688	61	4109
2026-01-21 00:30:17.90	24.30	5.91	-44.8	-46.1	18.1	0.00e+00	0	39	0	95420416	61	4110
2026-01-21 00:30:18.91	24.32	5.98	-44.8	-46.1	18.1	0.00e+00	0	39	0	98566144	61	4106
2026-01-21 00:30:19.92	24.33	6.05	-44.6	-45.8	18.3	0.00e+00	0	39	0	101711872	61	4002
2026-01-21 00:30:20.92	24.34	6.13	-45.0	-46.3	17.9	0.00e+00	0	39	0	104857600	61	4227
2026-01-21 00:30:21.93	24.35	6.20	-44.7	-45.9	18.3	0.00e+00	0	39	0	108003328	61	4042
2026-01-21 00:30:22.94	24.36	6.28	-44.8	-46.0	18.2	0.00e+00	0	39	0	111149056	61	4063
2026-01-21 00:30:23.95	24.37	6.35	-44.8	-46.1	18.1	0.00e+00	0	39	0	114294784	61	4109
2026-01-21 00:30:24.96	24.38	6.43	-44.7	-46.0	18.3	0.00e+00	0	39	0	117440512	61	4056
2026-01-21 00:30:25.96	24.39	6.50	-45.0	-46.3	18.0	0.00e+00	0	39	0	120586240	61	4200
2026-01-21 00:30:26.97	24.40	6.58	-45.0	-46.3	18.0	0.00e+00	0	39	0	123731968	61	4196
2026-01-21 00:30:27.98	24.41	6.66	-44.6	-45.8	18.4	0.00e+00	0	39	0	126877696	61	3963
2026-01-21 00:30:28.99	24.42	6.73	-44.5	-45.7	18.6	0.00e+00	0	39	0	130023424	60	4167
2026-01-21 00:30:29.99	24.43	6.81	-44.7	-45.9	18.3	0.00e+00	0	39	0	133169152	60	4284
2026-01-21 00:30:31.00	24.44	6.89	-44.6	-45.8	18.4	0.00e+00	0	39	0	136314880	60	4238
2026-01-21 00:30:32.01	24.45	6.96	-44.6	-45.8	18.5	0.00e+00	0	39	0	139460608	60	4208
2026-01-21 00:30:33.02	24.46	7.04	-44.4	-45.6	18.7	0.00e+00	0	39	0	142606336	60	4107
2026-01-21 00:30:34.03	24.47	7.12	-44.5	-45.7	18.6	0.00e+00	0	39	0	145752064	60	4178
2026-01-21 00:30:35.04	24.49	7.20	-44.5	-45.7	18.6	0.00e+00	0	39	0	148897792	60	4148
2026-01-21 00:30:36.05	24.50	7.27	-44.5	-45.6	18.7	0.00e+00	0	39	0	152043520	60	4142
2026-01-21 00:30:37.06	24.51	7.35	-44.6	-45.8	18.5	0.00e+00	0	39	0	155189248	60	4234
2026-01-21 00:30:38.06	24.52	7.43	-44.4	-45.6	18.7	0.00e+00	0	39	0	158334976	60	4110
2026-01-21 00:30:39.07	24.53	7.51	-44.4	-45.5	18.8	0.00e+00	0	39	0	161480704	60	4072
2026-01-21 00:30:40.08	24.54	7.59	-44.2	-45.4	19.0	0.00e+00	0	39	0	164626432	60	4008
2026-01-21 00:30:41.09	24.55	7.67	-44.3	-45.5	18.9	0.00e+00	0	39	0	167772160	60	4052
2026-01-21 00:30:42.10	24.56	7.75	-44.3	-45.4	18.9	0.00e+00	0	39	0	170917888	60	4046
2026-01-21 00:30:43.11	24.57	7.83	-44.2	-45.3	19.1	0.00e+00	0	39	0	174063616	60	3978
2026-01-21 00:30:44.12	24.58	7.91	-44.3	-45.4	19.0	0.00e+00	0	39	0	177209344	60	4024
2026-01-21 00:30:45.12	24.60	7.99	-44.2	-45.3	19.0	0.00e+00	0	39	0	180355072	60	3999
2026-01-21 00:30:46.13	24.61	8.07	-44.3	-45.4	18.9	0.00e+00	0	39	0	184549376	60	4046
2026-01-21 00:30:47.14	24.62	8.15	-44.0	-45.0	19.3	0.00e+00	0	39	0	186646528	60	3868
2026-01-21 00:30:48.15	24.63	8.23	-44.1	-45.2	19.2	0.00e+00	0	39	0	189792256	60	3932
2026-01-21 00:30:49.16	24.64	8.31	-44.5	-45.6	19.2	0.00e+00	0	39	0	192937984	59	4353
2026-01-21 00:30:50.16	24.65	8.39	-44.4	-45.5	19.2	0.00e+00	0	39	0	196083712	59	4321
2026-01-21 00:30:51.17	24.66	8.47	-44.4	-45.5	19.2	0.00e+00	0	39	0	199229440	59	4328
2026-01-21 00:30:52.18	24.68	8.55	-44.4	-45.5	19.2	0.00e+00	0	39	0	202375168	59	4313
2026-01-21 00:30:53.19	24.69	8.64	-44.3	-45.4	19.4	0.00e+00	0	39	0	205520896	59	4245
2026-01-21 00:30:54.19	24.70	8.72	-44.4	-45.4	19.3	0.00e+00	0	39	0	208666624	59	4289
2026-01-21 00:30:55.20	24.71	8.80	-44.2	-45.2	19.5	0.00e+00	0	39	0	211812352	59	4193
2026-01-21 00:30:56.21	24.72	8.88	-44.3	-45.4	19.4	0.00e+00	0	39	0	214958080	59	4254
2026-01-21 00:30:57.22	24.73	8.97	-44.2	-45.2	19.5	0.00e+00	0	39	0	218103808	59	4192
2026-01-21 00:30:58.23	24.75	9.05	-44.3	-45.4	19.4	0.00e+00	0	39	0	221249536	59	4245
2026-01-21 00:30:59.24	24.76	9.14	-44.0	-45.1	19.7	0.00e+00	0	39	0	225443840	59	4107
2026-01-21 00:31:00.24	24.77	9.22	-44.2	-45.3	19.5	0.00e+00	0	39	0	228589568	59	4203
2026-01-21 00:31:01.25	24.78	9.30	-44.1	-45.2	19.6	0.00e+00	0	39	0	231735296	59	4170
2026-01-21 00:31:02.26	24.79	9.39	-44.2	-45.2	19.6	0.00e+00	0	39	0	233832448	59	4183
2026-01-21 00:31:03.27	24.80	9.47	-44.0	-45.0	19.8	0.00e+00	0	39	0	236978176	59	4094
2026-01-21 00:31:04.27	24.82	9.56	-44.1	-45.2	19.7	0.00e+00	0	39	0	240123904	59	4158
2026-01-21 00:31:05.28	24.83	9.64	-43.9	-44.9	19.9	0.00e+00	0	39	0	243269632	59	4033
2026-01-21 00:31:06.29	24.84	9.73	-44.0	-45.1	19.7	0.00e+00	0	39	0	246415360	59	4106
2026-01-21 00:31:07.30	24.85	9.82	-43.9	-44.9	19.9	0.00e+00	0	39	0	249561088	59	4037
2026-01-21 00:31:08.31	24.86	9.90	-43.9	-44.9	19.9	0.00e+00	0	39	0	252706816	59	4042
2026-01-21 00:31:09.32	24.88	9.99	-43.9	-44.9	19.9	0.00e+00	0	39	0	255852544	59	4034
2026-01-21 00:31:10.32	24.89	10.08	-43.9	-44.9	19.9	0.00e+00	0	39	0	258998272	59	4042
2026-01-21 00:31:11.33	24.90	10.16	-43.8	-44.8	20.0	0.00e+00	0	39	0	262144000	59	3990
2026-01-21 00:31:12.33	24.91	10.25	-43.7	-44.7	20.2	0.00e+00	0	39	0	266338304	59	3930
2026-01-21 00:31:13.34	24.93	10.34	-43.7	-44.7	20.1	0.00e+00	0	39	0	269484032	59	3940
2026-01-21 00:31:14.35	24.94	10.43	-43.6	-44.6	20.3	0.00e+00	0	39	0	272629760	59	3898
2026-01-21 00:31:15.36	24.95	10.52	-43.6	-44.6	20.2	0.00e+00	0	39	0	275775488	59	3901
2026-01-21 00:31:16.37	24.96	10.61	-43.7	-44.7	20.2	0.00e+00	0	39	0	278921216	59	3936
2026-01-21 00:31:17.38	24.98	10.69	-43.6	-44.5	20.3	0.00e+00	0	39	0	281018368	59	3868
2026-01-21 00:31:18.38	24.99	10.78	-43.7	-44.7	20.2	0.00e+00	0	39	0	284164096	59	3919
2026-01-21 00:31:19.39	25.00	10.87	-43.6	-44.6	20.3	0.00e+00	0	39	0	287309824	59	3881
2026-01-21 00:31:20.40	25.01	10.96	-43.5	-44.5	20.4	0.00e+00	0	39	0	290455552	59	3845
2026-01-21 00:31:21.41	25.03	11.06	-43.6	-44.6	20.3	0.00e+00	0	39	0	293601280	59	3894
2026-01-21 00:31:22.42	25.04	11.15	-43.5	-44.5	20.4	0.00e+00	0	39	0	296747008	58	4075
2026-01-21 00:31:23.42	25.05	11.24	-43.4	-44.3	20.5	0.00e+00	0	39	0	299892736	58	4003
2026-01-21 00:31:24.43	25.07	11.33	-43.5	-44.5	20.4	0.00e+00	0	39	0	303038464	58	4076
2026-01-21 00:31:25.44	25.08	11.42	-43.3	-44.3	20.6	0.00e+00	0	39	0	307232768	58	3961
2026-01-21 00:31:26.45	25.09	11.51	-43.4	-44.4	20.5	0.00e+00	0	39	0	310378496	58	4027
2026-01-21 00:31:27.46	25.11	11.61	-43.4	-44.3	20.6	0.00e+00	0	39	0	313524224	58	3984
2026-01-21 00:31:28.46	25.12	11.70	-43.4	-44.3	20.6	0.00e+00	0	39	0	316669952	58	4004
2026-01-21 00:31:29.47	25.13	11.79	-43.3	-44.2	20.7	0.00e+00	0	39	0	319815680	58	3941
2026-01-21 00:31:30.48	25.14	11.89	-43.2	-44.2	20.7	0.00e+00	0	39	0	322961408	58	3927
2026-01-21 00:31:31.49	25.16	11.98	-43.1	-44.0	20.9	0.00e+00	0	39	0	326107136	58	3848
2026-01-21 00:31:32.49	25.17	12.07	-43.2	-44.1	20.8	0.00e+00	0	39	0	328204288	58	3890
2026-01-21 00:31:33.50	25.19	12.17	-43.2	-44.1	20.8	0.00e+00	0	39	0	331350016	58	3891
2026-01-21 00:31:34.51	25.20	12.26	-43.3	-44.2	20.7	0.00e+00	0	39	0	334495744	58	3937
2026-01-21 00:31:35.52	25.21	12.36	-43.0	-43.9	20.9	0.00e+00	0	39	0	337641472	58	3820
2026-01-21 00:31:36.53	25.23	12.46	-43.0	-43.9	21.0	0.00e+00	0	39	0	340787200	57	4013
2026-01-21 00:31:37.53	25.24	12.55	-43.0	-43.9	21.0	0.00e+00	0	39	0	344981504	57	4022
2026-01-21 00:31:38.54	25.25	12.65	-42.9	-43.8	21.0	0.00e+00	0	39	0	348127232	57	3989
2026-01-21 00:31:39.55	25.27	12.75	-42.9	-43.8	21.0	0.00e+00	0	39	0	351272960	57	4004
2026-01-21 00:31:40.56	25.28	12.84	-43.0	-43.9	21.0	0.00e+00	0	39	0	354418688	57	4031
2026-01-21 00:31:41.57	25.29	12.94	-42.9	-43.8	21.0	0.00e+00	0	39	0	357564416	57	3985
2026-01-21 00:31:42.57	25.31	13.04	-42.9	-43.8	21.0	0.00e+00	0	39	0	360710144	57	3982
2026-01-21 00:31:43.58	25.32	13.14	-42.9	-43.8	21.1	0.00e+00	0	39	0	363855872	57	3982
2026-01-21 00:31:44.59	25.34	13.24	-42.9	-43.8	21.0	0.00e+00	0	39	0	367001600	57	3999
2026-01-21 00:31:45.59	25.35	13.34	-42.9	-43.7	21.1	0.00e+00	0	39	0	370147328	57	3957
2026-01-21 00:31:46.60	25.37	13.44	-42.9	-43.7	21.1	0.00e+00	0	39	0	373293056	57	3952
2026-01-21 00:31:47.61	25.38	13.54	-42.7	-43.6	21.2	0.00e+00	0	39	0	376438784	57	3892
2026-01-21 00:31:48.62	25.39	13.64	-42.7	-43.6	21.2	0.00e+00	0	39	0	378535936	57	3893
2026-01-21 00:31:49.63	25.41	13.74	-42.8	-43.7	21.2	0.00e+00	0	39	0	381681664	57	3918
2026-01-21 00:31:50.64	25.42	13.84	-42.7	-43.6	21.3	0.00e+00	0	39	0	385875968	57	3880
2026-01-21 00:31:51.64	25.44	13.94	-42.7	-43.5	21.3	0.00e+00	0	39	0	389021696	57	3859
2026-01-21 00:31:52.65	25.45	14.04	-42.6	-43.4	21.4	0.00e+00	0	39	0	392167424	57	3820
2026-01-21 00:31:53.66	25.47	14.15	-42.6	-43.5	21.3	0.00e+00	0	39	0	395313152	57	3847
2026-01-21 00:31:54.67	25.48	14.25	-42.6	-43.4	21.4	0.00e+00	0	39	0	398458880	57	3812
2026-01-21 00:31:55.68	25.50	14.35	-42.4	-43.3	21.5	0.00e+00	0	39	0	401604608	56	3969
2026-01-21 00:31:56.68	25.51	14.46	-42.6	-43.5	21.4	0.00e+00	0	39	0	404750336	56	4061
2026-01-21 00:31:57.69	25.53	14.56	-42.5	-43.3	21.5	0.00e+00	0	39	0	407896064	56	4002
2026-01-21 00:31:58.70	25.54	14.67	-42.6	-43.4	21.5	0.00e+00	0	39	0	411041792	56	4035
2026-01-21 00:31:59.71	25.56	14.77	-42.5	-43.4	21.5	0.00e+00	0	39	0	414187520	56	4016
2026-01-21 00:32:00.71	25.57	14.88	-42.5	-43.3	21.5	0.00e+00	0	39	0	417333248	56	3994
2026-01-21 00:32:01.72	25.59	14.98	-42.5	-43.4	21.5	0.00e+00	0	39	0	420478976	56	4015
2026-01-21 00:32:02.73	25.60	15.09	-42.6	-43.4	21.5	0.00e+00	0	40	0	423624704	56	4038
2026-01-21 00:32:03.74	25.62	15.20	-42.5	-43.3	21.6	0.00e+00	0	39	0	426770432	56	3994
2026-01-21 00:32:04.75	25.63	15.31	-42.5	-43.3	21.6	0.00e+00	0	39	0	429916160	56	3990
2026-01-21 00:32:05.76	25.65	15.42	-42.6	-43.4	21.5	0.00e+00	0	39	0	433061888	56	4038
2026-01-21 00:32:06.77	25.67	15.52	-42.6	-43.4	21.5	0.00e+00	0	39	0	436207616	56	4050
2026-01-21 00:32:07.78	25.68	15.63	-42.6	-43.5	21.5	0.00e+00	0	39	0	439353344	56	4058
2026-01-21 00:32:08.78	25.70	15.74	-42.7	-43.6	21.3	0.00e+00	0	40	0	442499072	56	4121
2026-01-21 00:32:09.79	25.71	15.85	-42.7	-43.5	21.5	0.00e+00	0	39	0	445644800	56	4077
2026-01-21 00:32:10.80	25.73	15.96	-42.7	-43.5	21.4	0.00e+00	0	39	0	448790528	56	4097
2026-01-21 00:32:11.81	25.75	16.08	-42.7	-43.6	21.4	0.00e+00	0	39	0	451936256	56	4106
2026-01-21 00:32:12.81	25.76	16.19	-42.8	-43.6	21.4	0.00e+00	0	39	0	455081984	56	4136
2026-01-21 00:32:13.82	25.78	16.30	-42.8	-43.7	21.4	0.00e+00	0	39	0	458227712	56	4147
2026-01-21 00:32:14.83	25.79	16.41	-42.9	-43.8	21.3	0.00e+00	0	39	0	461373440	56	4194
2026-01-21 00:32:15.84	25.81	16.53	-42.8	-43.7	21.3	0.00e+00	0	39	0	464519168	56	4168
2026-01-21 00:32:16.85	25.83	16.64	-43.0	-43.9	21.2	0.00e+00	0	39	0	467664896	56	4255
2026-01-21 00:32:17.86	25.84	16.75	-42.9	-43.7	21.3	0.00e+00	0	40	0	470810624	56	4184
2026-01-21 00:32:18.87	25.86	16.87	-42.9	-43.8	21.2	0.00e+00	0	40	0	473956352	56	4210
2026-01-21 00:32:19.88	25.88	16.99	-42.9	-43.7	21.3	0.00e+00	0	40	0	477102080	56	4189
2026-01-21 00:32:20.89	25.90	17.10	-42.9	-43.8	21.3	0.00e+00	0	40	0	480247808	56	4198
2026-01-21 00:32:21.90	25.91	17.22	-42.9	-43.8	21.3	0.00e+00	0	39	0	483393536	56	4206
2026-01-21 00:32:22.91	25.93	17.34	-42.9	-43.8	21.2	0.00e+00	0	39	0	486539264	56	4225
2026-01-21 00:32:23.92	25.95	17.45	-42.8	-43.7	21.3	0.00e+00	0	39	0	489684992	56	4177
2026-01-21 00:32:24.92	25.96	17.57	-42.9	-43.7	21.3	0.00e+00	0	39	0	492830720	56	4191
2026-01-21 00:32:25.93	25.98	17.69	-42.9	-43.8	21.2	0.00e+00	0	39	0	495976448	56	4219
2026-01-21 00:32:26.94	26.00	17.81	-43.0	-43.9	21.1	0.00e+00	0	39	0	499122176	56	4263
2026-01-21 00:32:27.95	26.02	17.93	-42.8	-43.7	21.3	0.00e+00	0	40	0	502267904	56	4170
2026-01-21 00:32:28.95	26.03	18.05	-42.8	-43.7	21.4	0.00e+00	0	39	0	505413632	56	4161
2026-01-21 00:32:29.96	26.05	18.17	-42.8	-43.7	21.3	0.00e+00	0	40	0	508559360	56	4162
2026-01-21 00:32:30.97	26.07	18.29	-42.8	-43.7	21.4	0.00e+00	0	39	0	511705088	56	4161
2026-01-21 00:32:31.98	26.09	18.42	-42.8	-43.7	21.3	0.00e+00	0	39	0	514850816	56	4170
2026-01-21 00:32:32.99	26.11	18.54	-42.8	-43.7	21.3	0.00e+00	0	39	0	517996544	56	4164
2026-01-21 00:32:34.00	26.13	18.66	-42.8	-43.6	21.4	0.00e+00	0	40	0	521142272	56	4131
2026-01-21 00:32:35.01	26.14	18.79	-42.8	-43.7	21.4	0.00e+00	0	39	0	524288000	56	4150
2026-01-21 00:32:36.02	26.16	18.91	-42.8	-43.6	21.4	0.00e+00	0	40	0	527433728	56	4123
2026-01-21 00:32:37.02	26.18	19.04	-42.7	-43.6	21.5	0.00e+00	0	40	0	530579456	56	4113
2026-01-21 00:32:38.04	26.20	19.16	-42.7	-43.5	21.5	0.00e+00	0	39	0	533725184	56	4089
2026-01-21 00:32:39.04	26.22	19.29	-42.6	-43.4	21.6	0.00e+00	0	40	0	536870912	56	4048
2026-01-21 00:32:40.05	26.24	19.42	-42.6	-43.5	21.5	0.00e+00	0	40	0	540016640	56	4066
2026-01-21 00:32:41.06	26.26	19.55	-42.6	-43.4	21.6	0.00e+00	0	39	0	543162368	56	4039
2026-01-21 00:32:42.07	26.28	19.67	-42.5	-43.4	21.6	0.00e+00	0	39	0	546308096	56	4021
2026-01-21 00:32:43.07	26.30	19.80	-42.6	-43.4	21.6	0.00e+00	0	40	0	549453824	56	4033
2026-01-21 00:32:44.08	26.32	19.93	-42.3	-43.2	21.8	0.00e+00	0	39	0	552599552	56	3915
2026-01-21 00:32:45.09	26.34	20.06	-42.4	-43.2	21.8	0.00e+00	0	39	0	555745280	56	3948
2026-01-21 00:32:46.10	26.36	20.20	-42.4	-43.2	21.8	0.00e+00	0	40	0	558891008	56	3949
2026-01-21 00:32:47.11	26.38	20.33	-42.4	-43.2	21.8	0.00e+00	0	39	0	562036736	56	3938
2026-01-21 00:32:48.12	26.40	20.46	-42.3	-43.1	21.9	0.00e+00	0	39	0	565182464	56	3901
2026-01-21 00:32:49.13	26.42	20.60	-42.3	-43.2	21.9	0.00e+00	0	40	0	568328192	56	3915
2026-01-21 00:32:50.14	26.44	20.73	-42.2	-43.0	22.0	0.00e+00	0	39	0	571473920	56	3858
2026-01-21 00:32:51.14	26.46	20.86	-42.3	-43.1	21.9	0.00e+00	0	39	0	574619648	56	3898
2026-01-21 00:32:52.15	26.48	21.00	-42.3	-43.1	22.0	0.00e+00	0	39	0	577765376	56	3876
2026-01-21 00:32:53.16	26.50	21.14	-42.2	-43.1	21.9	0.00e+00	0	40	0	580911104	56	3870
2026-01-21 00:32:54.17	26.52	21.27	-42.3	-43.1	21.9	0.00e+00	0	40	0	584056832	56	3900
2026-01-21 00:32:55.18	26.54	21.41	-42.1	-42.9	22.1	0.00e+00	0	40	0	587202560	56	3793
2026-01-21 00:32:56.19	26.56	21.55	-42.1	-42.9	22.1	0.00e+00	0	39	0	590348288	56	3787
2026-01-21 00:32:57.19	26.58	21.69	-42.1	-42.9	22.1	0.00e+00	0	39	0	593494016	56	3789
2026-01-21 00:32:58.20	26.60	21.83	-41.8	-42.6	22.3	0.00e+00	0	40	0	596639744	55	3893
2026-01-21 00:32:59.21	26.63	21.97	-41.8	-42.6	22.3	0.00e+00	0	40	0	599785472	55	3871
2026-01-21 00:33:00.22	26.65	22.11	-41.7	-42.5	22.3	0.00e+00	0	39	0	602931200	55	3851
2026-01-21 00:33:01.22	26.67	22.25	-41.6	-42.4	22.4	0.00e+00	0	40	0	606076928	55	3791
2026-01-21 00:33:02.24	26.69	22.40	-41.6	-42.4	22.4	0.00e+00	0	40	0	609222656	55	3793
2026-01-21 00:33:03.24	26.72	22.54	-41.5	-42.3	22.5	0.00e+00	0	40	0	612368384	55	3765
2026-01-21 00:33:04.25	26.74	22.69	-41.5	-42.3	22.5	0.00e+00	0	40	0	615514112	55	3750
2026-01-21 00:33:05.26	26.76	22.83	-41.4	-42.2	22.6	0.00e+00	0	39	0	618659840	54	3931
2026-01-21 00:33:06.27	26.78	22.98	-41.4	-42.2	22.6	0.00e+00	0	40	0	621805568	54	3945
2026-01-21 00:33:07.27	26.81	23.13	-41.3	-42.0	22.7	0.00e+00	0	39	0	624951296	54	3866
2026-01-21 00:33:08.28	26.83	23.28	-41.4	-42.1	22.6	0.00e+00	0	39	0	628097024	54	3904
2026-01-21 00:33:09.29	26.85	23.43	-41.4	-42.1	22.6	0.00e+00	0	39	0	631242752	54	3902
2026-01-21 00:33:10.30	26.88	23.58	-41.4	-42.2	22.6	0.00e+00	0	40	0	634388480	54	3924
2026-01-21 00:33:11.31	26.90	23.73	-41.3	-42.1	22.7	0.00e+00	0	39	0	637534208	54	3895
2026-01-21 00:33:12.31	26.92	23.88	-41.4	-42.1	22.7	0.00e+00	0	40	0	640679936	54	3897
2026-01-21 00:33:13.32	26.95	24.03	-41.3	-42.1	22.7	0.00e+00	0	40	0	643825664	54	3891
2026-01-21 00:33:14.33	26.97	24.18	-41.4	-42.2	22.6	0.00e+00	0	40	0	646971392	54	3928
2026-01-21 00:33:15.34	27.00	24.34	-41.3	-42.1	22.7	0.00e+00	0	40	0	650117120	54	3894
2026-01-21 00:33:16.35	27.02	24.50	-41.4	-42.2	22.6	0.00e+00	0	39	0	653262848	54	3936
2026-01-21 00:33:17.36	27.05	24.65	-41.5	-42.3	22.6	0.00e+00	0	40	0	656408576	54	3960
2026-01-21 00:33:18.36	27.07	24.81	-41.6	-42.4	22.5	0.00e+00	0	40	0	659554304	54	4035
2026-01-21 00:33:19.37	27.10	24.97	-41.6	-42.4	22.5	0.00e+00	0	39	0	662700032	54	4020
2026-01-21 00:33:20.38	27.12	25.13	-41.6	-42.4	22.5	0.00e+00	0	40	0	665845760	54	4037
2026-01-21 00:33:21.39	27.15	25.29	-41.8	-42.6	22.4	0.00e+00	0	39	0	668991488	54	4103
2026-01-21 00:33:22.39	27.18	25.45	-41.8	-42.6	22.3	0.00e+00	0	40	0	672137216	54	4134
2026-01-21 00:33:23.40	27.20	25.61	-42.0	-42.8	22.2	0.00e+00	0	40	0	675282944	54	4199
2026-01-21 00:33:24.41	27.23	25.77	-42.0	-42.8	22.2	0.00e+00	0	39	0	678428672	54	4218
2026-01-21 00:33:25.42	27.25	25.94	-42.1	-42.9	22.1	0.00e+00	0	40	0	681574400	54	4274
2026-01-21 00:33:26.43	27.28	26.10	-42.2	-43.0	22.0	0.00e+00	0	39	0	684720128	54	4334
2026-01-21 00:33:27.43	27.31	26.27	-42.3	-43.2	21.9	0.00e+00	0	39	0	687865856	55	4155
2026-01-21 00:33:28.44	27.34	26.43	-42.3	-43.1	22.0	0.00e+00	0	39	0	691011584	55	4132
2026-01-21 00:33:29.45	27.36	26.60	-42.4	-43.3	21.8	0.00e+00	0	40	0	694157312	55	4214
2026-01-21 00:33:30.46	27.39	26.77	-42.4	-43.3	21.8	0.00e+00	0	40	0	697303040	55	4200
2026-01-21 00:33:31.47	27.42	26.94	-42.4	-43.2	21.8	0.00e+00	0	40	0	700448768	55	4177
2026-01-21 00:33:32.48	27.45	27.11	-42.5	-43.3	21.8	0.00e+00	0	39	0	703594496	55	4221
2026-01-21 00:33:33.48	27.48	27.29	-42.5	-43.3	21.8	0.00e+00	0	39	0	706740224	55	4219
2026-01-21 00:33:34.49	27.51	27.46	-42.5	-43.3	21.7	0.00e+00	0	39	0	709885952	55	4237
2026-01-21 00:33:35.50	27.54	27.63	-42.6	-43.4	21.7	0.00e+00	0	40	0	713031680	55	4263
2026-01-21 00:33:36.50	27.56	27.81	-42.7	-43.5	21.6	0.00e+00	0	40	0	716177408	55	4313
2026-01-21 00:33:37.51	27.59	27.99	-42.6	-43.5	21.7	0.00e+00	0	39	0	719323136	55	4304
2026-01-21 00:33:38.52	27.62	28.16	-42.8	-43.7	21.5	0.00e+00	0	39	0	722468864	56	4162
2026-01-21 00:33:39.53	27.66	28.34	-42.8	-43.6	21.6	0.00e+00	0	40	0	725614592	56	4124
2026-01-21 00:33:40.54	27.69	28.52	-42.8	-43.6	21.6	0.00e+00	0	39	0	728760320	56	4140
2026-01-21 00:33:41.54	27.72	28.70	-42.8	-43.6	21.6	0.00e+00	0	39	0	731906048	56	4138
2026-01-21 00:33:42.55	27.75	28.89	-42.9	-43.8	21.5	0.00e+00	0	40	0	735051776	56	4200
2026-01-21 00:33:43.56	27.78	29.07	-42.9	-43.8	21.5	0.00e+00	0	40	0	738197504	56	4211
2026-01-21 00:33:44.57	27.81	29.26	-42.9	-43.8	21.5	0.00e+00	0	40	0	741343232	56	4196
2026-01-21 00:33:45.58	27.84	29.44	-42.9	-43.8	21.5	0.00e+00	0	39	0	744488960	56	4208
2026-01-21 00:33:46.59	27.88	29.63	-42.9	-43.7	21.6	0.00e+00	0	39	0	747634688	56	4177
2026-01-21 00:33:47.59	27.91	29.82	-42.8	-43.7	21.6	0.00e+00	0	40	0	750780416	56	4168
2026-01-21 00:33:48.60	27.94	30.01	-42.9	-43.7	21.5	0.00e+00	0	40	0	753926144	56	4189
2026-01-21 00:33:49.61	27.98	30.20	-42.7	-43.6	21.7	0.00e+00	0	40	0	757071872	56	4117
2026-01-21 00:33:50.62	28.01	30.39	-42.8	-43.7	21.6	0.00e+00	0	39	0	760217600	56	4158
2026-01-21 00:33:51.63	28.04	30.59	-42.7	-43.5	21.7	0.00e+00	0	40	0	763363328	56	4084
2026-01-21 00:33:52.64	28.08	30.78	-42.6	-43.4	21.8	0.00e+00	0	39	0	766509056	56	4037
2026-01-21 00:33:53.64	28.11	30.98	-42.4	-43.3	22.0	0.00e+00	0	39	0	769654784	56	3960
2026-01-21 00:33:54.65	28.15	31.18	-42.3	-43.1	22.0	0.00e+00	0	39	0	772800512	56	3912
2026-01-21 00:33:55.66	28.18	31.38	-42.3	-43.1	22.1	0.00e+00	0	40	0	775946240	56	3884
2026-01-21 00:33:56.67	28.22	31.58	-42.2	-43.0	22.1	0.00e+00	0	40	0	779091968	56	3864
2026-01-21 00:33:57.68	28.26	31.78	-42.1	-42.9	22.3	0.00e+00	0	40	0	782237696	56	3807
2026-01-21 00:33:58.69	28.29	31.98	-42.2	-43.0	22.2	0.00e+00	0	39	0	785383424	56	3845
2026-01-21 00:33:59.69	28.33	32.19	-42.1	-42.9	22.3	0.00e+00	0	40	0	788529152	56	3787
2026-01-21 00:34:00.71	28.37	32.39	-42.1	-42.9	22.3	0.00e+00	0	39	0	791674880	56	3814
2026-01-21 00:34:01.71	28.41	32.60	-42.1	-42.9	22.3	0.00e+00	0	39	0	794820608	56	3795
2026-01-21 00:34:02.72	28.45	32.81	-42.2	-42.9	22.3	0.00e+00	0	40	0	797966336	56	3816
2026-01-21 00:34:03.73	28.49	33.02	-42.2	-43.0	22.2	0.00e+00	0	40	0	801112064	56	3846
2026-01-21 00:34:04.74	28.53	33.23	-42.4	-43.2	22.1	0.00e+00	0	40	0	804257792	56	3928
2026-01-21 00:34:05.75	28.57	33.45	-42.5	-43.3	22.0	0.00e+00	0	39	0	807403520	56	3973
2026-01-21 00:34:06.76	28.61	33.66	-42.7	-43.5	21.9	0.00e+00	0	40	0	810549248	56	4071
2026-01-21 00:34:07.76	28.65	33.88	-42.9	-43.7	21.7	0.00e+00	0	40	0	813694976	56	4191
2026-01-21 00:34:08.77	28.69	34.09	-43.1	-43.9	21.4	0.00e+00	0	39	0	816840704	56	4288
2026-01-21 00:34:09.78	28.73	34.31	-43.3	-44.2	21.3	0.00e+00	0	40	0	819986432	57	4150
2026-01-21 00:34:10.79	28.77	34.54	-43.5	-44.4	21.0	0.00e+00	0	39	0	823132160	57	4281
2026-01-21 00:34:11.79	28.82	34.76	-43.6	-44.5	20.9	0.00e+00	0	40	0	826277888	57	4322
2026-01-21 00:34:12.80	28.86	34.98	-43.9	-44.9	20.6	0.00e+00	0	40	0	829423616	58	4252
2026-01-21 00:34:13.81	28.90	35.21	-44.2	-45.1	20.4	0.00e+00	0	40	0	832569344	58	4369
2026-01-21 00:34:14.82	28.95	35.43	-44.3	-45.2	20.2	0.00e+00	0	39	0	835715072	59	4186
2026-01-21 00:34:15.82	28.99	35.66	-44.4	-45.4	20.1	0.00e+00	0	40	0	838860800	59	4257
2026-01-21 00:34:16.83	29.04	35.89	-44.3	-45.3	20.2	0.00e+00	0	40	0	842006528	59	4212
2026-01-21 00:34:17.84	29.08	36.12	-44.3	-45.3	20.2	0.00e+00	0	40	0	845152256	59	4204
2026-01-21 00:34:18.85	29.13	36.36	-44.3	-45.2	20.2	0.00e+00	0	39	0	848297984	59	4193
2026-01-21 00:34:19.86	29.18	36.60	-44.2	-45.2	20.3	0.00e+00	0	40	0	851443712	59	4156
2026-01-21 00:34:20.86	29.23	36.83	-44.4	-45.3	20.2	0.00e+00	0	40	0	854589440	59	4229
2026-01-21 00:34:21.87	29.28	37.07	-44.3	-45.3	20.2	0.00e+00	0	39	0	857735168	59	4209
2026-01-21 00:34:22.88	29.33	37.31	-44.3	-45.3	20.2	0.00e+00	0	40	0	860880896	59	4219
2026-01-21 00:34:23.89	29.38	37.55	-44.4	-45.3	20.2	0.00e+00	0	40	0	864026624	59	4233
2026-01-21 00:34:24.90	29.43	37.80	-44.3	-45.2	20.3	0.00e+00	0	40	0	867172352	59	4178
2026-01-21 00:34:25.91	29.48	38.04	-44.4	-45.3	20.2	0.00e+00	0	39	0	870318080	59	4230
2026-01-21 00:34:26.92	29.53	38.29	-44.5	-45.5	20.1	0.00e+00	0	40	0	873463808	59	4303
2026-01-21 00:34:27.93	29.58	38.54	-44.3	-45.3	20.3	0.00e+00	0	40	0	876609536	59	4206
2026-01-21 00:34:28.94	29.64	38.80	-44.4	-45.4	20.2	0.00e+00	0	40	0	880803840	59	4259
2026-01-21 00:34:29.94	29.69	39.05	-44.3	-45.3	20.3	0.00e+00	0	40	0	883949568	59	4195
2026-01-21 00:34:30.95	29.75	39.30	-44.3	-45.3	20.2	0.00e+00	0	40	0	886046720	59	4222
2026-01-21 00:34:31.96	29.80	39.56	-44.3	-45.3	20.4	0.00e+00	0	40	0	889192448	59	4197
2026-01-21 00:34:32.97	29.86	39.82	-44.4	-45.3	20.3	0.00e+00	0	39	0	892338176	59	4235
2026-01-21 00:34:33.98	29.92	40.08	-44.4	-45.4	20.3	0.00e+00	0	40	0	895483904	59	4245
2026-01-21 00:34:34.99	29.98	40.34	-44.5	-45.5	20.2	0.00e+00	0	39	0	898629632	59	4308
2026-01-21 00:34:36.00	30.04	40.61	-44.5	-45.5	20.2	0.00e+00	0	40	0	901775360	59	4306
2026-01-21 00:34:37.01	30.10	40.88	-44.4	-45.5	20.0	0.00e+00	0	40	0	904921088	60	4053
2026-01-21 00:34:38.02	30.16	41.14	-44.8	-45.9	19.6	0.00e+00	0	40	0	908066816	60	4271
2026-01-21 00:34:39.02	30.22	41.41	-45.2	-46.3	19.3	0.00e+00	0	40	0	911212544	60	4450
2026-01-21 00:34:40.03	30.29	41.69	-45.5	-46.6	18.9	0.00e+00	0	39	0	915406848	61	4379
2026-01-21 00:34:41.04	30.35	41.96	-45.7	-46.8	18.7	0.00e+00	0	40	0	918552576	61	4481
2026-01-21 00:34:42.05	30.42	42.24	-45.8	-47.0	18.5	0.00e+00	0	40	0	921698304	62	4336
2026-01-21 00:34:43.06	30.48	42.52	-45.9	-47.1	18.5	0.00e+00	0	40	0	924844032	62	4343
2026-01-21 00:34:44.07	30.55	42.80	-45.6	-46.7	18.7	0.00e+00	0	39	0	927989760	62	4181
2026-01-21 00:34:45.08	30.62	43.08	-45.6	-46.7	18.7	0.00e+00	0	39	0	931135488	62	4170
2026-01-21 00:34:46.09	30.69	43.37	-45.6	-46.8	18.7	0.00e+00	0	40	0	933232640	62	4195
2026-01-21 00:34:47.10	30.76	43.65	-45.8	-47.0	18.5	0.00e+00	0	40	0	936378368	62	4318
2026-01-21 00:34:48.11	30.83	43.94	-46.0	-47.2	18.3	0.00e+00	0	40	0	939524096	62	4411
2026-01-21 00:34:49.11	30.91	44.23	-45.8	-47.0	18.4	0.00e+00	0	39	0	942669824	62	4334
2026-01-21 00:34:50.12	30.98	44.53	-45.9	-47.1	18.4	0.00e+00	0	40	0	945815552	62	4361
2026-01-21 00:34:51.13	31.06	44.82	-45.9	-47.1	18.4	0.00e+00	0	40	0	950009856	62	4385
2026-01-21 00:34:52.14	31.14	45.12	-45.9	-47.1	18.4	0.00e+00	0	39	0	953155584	62	4377
2026-01-21 00:34:53.15	31.22	45.42	-45.8	-47.1	18.4	0.00e+00	0	40	0	956301312	62	4343
2026-01-21 00:34:54.16	31.30	45.72	-45.8	-47.1	18.5	0.00e+00	0	40	0	959447040	62	4342
2026-01-21 00:34:55.16	31.38	46.03	-45.8	-47.0	18.6	0.00e+00	0	40	0	962592768	62	4316
2026-01-21 00:34:56.17	31.46	46.33	-45.9	-47.1	18.5	0.00e+00	0	40	0	965738496	62	4352
2026-01-21 00:34:57.18	31.55	46.64	-45.6	-46.8	18.7	0.00e+00	0	40	0	968884224	62	4211
2026-01-21 00:34:58.19	31.63	46.95	-45.3	-46.4	19.1	0.00e+00	0	40	0	972029952	62	4018
2026-01-21 00:34:59.20	31.72	47.27	-45.1	-46.2	19.3	0.00e+00	0	40	0	975175680	62	3951
2026-01-21 00:35:00.20	31.81	47.58	-45.1	-46.2	19.3	0.00e+00	0	40	0	978321408	62	3925
2026-01-21 00:35:01.21	31.90	47.90	-45.1	-46.2	19.3	0.00e+00	0	40	0	980418560	62	3931
2026-01-21 00:35:02.22	32.00	48.22	-44.6	-45.6	19.9	0.00e+00	0	40	0	983564288	61	3882
2026-01-21 00:35:03.23	32.09	48.54	-44.3	-45.3	20.1	0.00e+00	0	40	0	986710016	60	3995
2026-01-21 00:35:04.23	32.19	48.87	-44.4	-45.4	20.1	0.00e+00	0	40	0	990904320	60	4008
2026-01-21 00:35:05.24	32.29	49.19	-44.4	-45.3	20.2	0.00e+00	0	40	0	994050048	60	4000
2026-01-21 00:35:06.25	32.39	49.52	-44.1	-45.1	20.4	0.00e+00	0	40	0	997195776	60	3878
2026-01-21 00:35:07.26	32.49	49.86	-44.3	-45.2	20.5	0.00e+00	0	40	0	1000341504	59	4190
2026-01-21 00:35:08.27	32.60	50.19	-44.2	-45.1	20.6	0.00e+00	0	40	0	1003487232	59	4135
2026-01-21 00:35:09.27	32.71	50.52	-44.1	-45.0	20.7	0.00e+00	0	40	0	1006632960	59	4075
2026-01-21 00:35:10.28	32.82	50.86	-43.8	-44.7	21.0	0.00e+00	0	40	0	1009778688	59	3923
2026-01-21 00:35:11.29	32.93	51.21	-43.8	-44.7	21.0	0.00e+00	0	40	0	1012924416	59	3930
2026-01-21 00:35:12.30	33.05	51.55	-44.0	-44.9	20.8	0.00e+00	0	40	0	1016070144	59	4037
2026-01-21 00:35:13.31	33.16	51.90	-44.3	-45.2	20.5	0.00e+00	0	40	0	1019215872	59	4169
2026-01-21 00:35:14.31	33.28	52.24	-44.4	-45.3	20.4	0.00e+00	0	40	0	1022361600	59	4241
2026-01-21 00:35:15.32	33.41	52.59	-44.2	-45.2	20.6	0.00e+00	0	40	0	1025507328	59	4147
2026-01-21 00:35:16.33	33.53	52.95	-44.1	-45.1	20.6	0.00e+00	0	40	0	1028653056	59	4101
2026-01-21 00:35:17.34	33.66	53.30	-43.9	-44.8	20.9	0.00e+00	0	40	0	1031798784	59	3967
2026-01-21 00:35:18.35	33.80	53.66	-43.7	-44.6	21.0	0.00e+00	0	40	0	1034944512	59	3909
2026-01-21 00:35:19.36	33.93	54.02	-43.6	-44.5	21.1	0.00e+00	0	40	0	1038090240	59	3857
2026-01-21 00:35:20.36	34.07	54.38	-43.4	-44.3	21.3	0.00e+00	0	40	0	1041235968	58	3999
2026-01-21 00:35:21.37	34.21	54.75	-43.1	-44.0	21.6	0.00e+00	0	40	0	1044381696	58	3831
2026-01-21 00:35:22.38	34.36	55.12	-42.5	-43.6	21.7	0.00e+00	0	40	0	1047527424	57	3909
2026-01-21 00:35:23.38	34.51	55.49	-42.6	-43.4	22.0	0.00e+00	0	40	0	1050673152	57	3811
2026-01-21 00:35:24.39	34.66	55.86	-42.6	-43.4	22.0	0.00e+00	0	40	0	1053818880	56	4035
2026-01-21 00:35:25.40	34.82	56.23	-42.7	-43.5	21.9	0.00e+00	0	40	0	1056964608	56	4087
2026-01-21 00:35:26.41	34.98	56.61	-43.1	-44.0	21.4	0.00e+00	0	40	0	1060110336	56	4325
2026-01-21 00:35:27.42	35.15	56.99	-43.3	-44.2	21.4	0.00e+00	0	40	0	1063256064	57	4167
2026-01-21 00:35:28.43	35.32	57.38	-43.3	-44.2	21.3	0.00e+00	0	40	0	1066401792	57	4191
2026-01-21 00:35:29.43	35.49	57.76	-43.0	-43.8	21.7	0.00e+00	0	40	0	1069547520	57	3991
2026-01-21 00:35:30.44	35.67	58.14	-42.7	-43.6	22.0	0.00e+00	0	40	0	1072693248	57	3873
2026-01-21 00:35:31.45	35.86	58.53	-42.5	-43.3	22.2	0.00e+00	0	40	0	1075838976	57	3750
2026-01-21 00:35:32.46	36.05	58.93	-42.1	-42.9	22.2	0.00e+00	0	40	0	1078984704	56	3806
2026-01-21 00:35:33.47	36.25	59.32	-42.3	-43.1	22.0	0.00e+00	0	40	0	1082130432	56	3889
2026-01-21 00:35:34.47	36.45	59.71	-41.9	-42.6	22.5	0.00e+00	0	40	0	1085276160	55	3908
2026-01-21 00:35:35.48	36.66	60.11	-41.7	-42.5	22.7	0.00e+00	0	40	0	1088421888	55	3834
2026-01-21 00:35:36.49	36.88	60.51	-41.4	-42.1	23.0	0.00e+00	0	40	0	1091567616	54	3904
2026-01-21 00:35:37.50	37.10	60.91	-41.4	-42.2	23.0	0.00e+00	0	40	0	1094713344	54	3925
2026-01-21 00:35:38.51	37.33	61.32	-41.6	-42.3	22.9	0.00e+00	0	40	0	1097859072	54	3982
2026-01-21 00:35:39.52	37.57	61.73	-41.5	-42.2	23.0	0.00e+00	0	40	0	1101004800	54	3939
2026-01-21 00:35:40.53	37.81	62.14	-41.6	-42.3	22.9	0.00e+00	0	40	0	1104150528	54	3978
2026-01-21 00:35:41.53	38.06	62.54	-41.4	-42.1	23.0	0.00e+00	0	40	0	1107296256	54	3901
2026-01-21 00:35:42.54	38.32	62.96	-41.4	-42.1	23.1	0.00e+00	0	40	0	1110441984	54	3903
2026-01-21 00:35:43.55	38.60	63.37	-41.3	-42.0	23.2	0.00e+00	0	40	0	1113587712	54	3865
2026-01-21 00:35:44.56	38.88	63.79	-41.0	-41.7	23.5	0.00e+00	0	40	0	1116733440	54	3723
2026-01-21 00:35:45.57	39.17	64.21	-40.9	-41.6	23.4	0.00e+00	0	40	0	1119879168	53	3870
2026-01-21 00:35:46.58	39.47	64.63	-40.9	-41.6	23.5	0.00e+00	0	40	0	1123024896	53	3882
2026-01-21 00:35:47.59	39.78	65.05	-40.5	-41.2	23.8	0.00e+00	0	40	0	1126170624	53	3714
2026-01-21 00:35:48.60	40.10	65.48	-40.5	-41.2	23.7	0.00e+00	0	40	0	1129316352	52	3950
2026-01-21 00:35:49.61	40.44	65.90	-41.0	-41.7	23.4	0.00e+00	0	40	0	1132462080	52	4168
2026-01-21 00:35:50.62	40.79	66.33	-41.2	-41.9	23.3	0.00e+00	0	40	0	1135607808	52	4266
2026-01-21 00:35:51.63	41.16	66.76	-41.2	-42.0	23.2	0.00e+00	0	40	0	1138753536	53	4065
2026-01-21 00:35:52.64	41.54	67.19	-41.3	-42.1	23.1	0.00e+00	0	40	0	1141899264	53	4103
2026-01-21 00:35:53.65	41.93	67.62	-41.0	-41.7	23.1	0.00e+00	0	40	0	1145044992	53	3945
2026-01-21 00:35:54.65	42.34	68.05	-41.1	-41.8	22.8	0.00e+00	0	40	0	1148190720	53	3971
2026-01-21 00:35:55.66	42.77	68.48	-41.3	-42.0	22.6	0.00e+00	0	40	0	1151336448	53	4071
2026-01-21 00:35:56.67	43.22	68.92	-41.1	-41.9	22.6	0.00e+00	0	40	0	1154482176	53	4014
2026-01-21 00:35:57.68	43.69	69.35	-40.9	-41.6	23.0	0.00e+00	0	40	0	1157627904	53	3901
2026-01-21 00:35:58.69	44.18	69.79	-40.8	-41.5	23.3	0.00e+00	0	40	0	1160773632	53	3837
2026-01-21 00:35:59.70	44.69	70.22	-40.5	-41.2	23.6	0.00e+00	0	40	0	1163919360	52	3941
2026-01-21 00:36:00.71	45.23	70.66	-40.6	-41.3	23.6	0.00e+00	0	40	0	1167065088	52	4000
2026-01-21 00:36:01.72	45.79	71.10	-40.9	-41.6	23.4	0.00e+00	0	40	0	1170210816	52	4101
2026-01-21 00:36:02.73	46.38	71.54	-41.2	-42.0	23.0	0.00e+00	0	40	0	1173356544	52	4303
2026-01-21 00:36:03.73	47.00	71.97	-41.1	-41.9	23.0	0.00e+00	0	40	0	1176502272	53	4025
2026-01-21 00:36:04.74	47.66	72.41	-41.2	-41.9	23.1	0.00e+00	0	40	0	1179648000	53	4044
2026-01-21 00:36:05.75	48.35	72.84	-41.1	-41.8	23.2	0.00e+00	0	40	0	1182793728	53	3993
2026-01-21 00:36:06.76	49.08	73.28	-40.8	-41.5	23.5	0.00e+00	0	40	0	1185939456	53	3846
2026-01-21 00:36:07.77	49.84	73.72	-40.6	-41.3	23.7	0.00e+00	0	40	0	1189085184	53	3774
2026-01-21 00:36:08.78	50.66	74.15	-40.5	-41.2	23.8	0.00e+00	0	40	0	1192230912	52	3937
2026-01-21 00:36:09.79	51.52	74.58	-40.4	-41.0	23.9	0.00e+00	0	40	0	1195376640	52	3866
2026-01-21 00:36:10.79	52.42	75.01	-40.6	-41.3	23.5	0.00e+00	0	40	0	1198522368	52	3965
2026-01-21 00:36:11.80	53.38	75.43	-40.4	-41.1	23.3	0.00e+00	0	40	0	1201668096	52	3888
2026-01-21 00:36:12.81	54.41	75.86	-40.6	-41.3	23.7	0.00e+00	0	40	0	1204813824	52	3963
2026-01-21 00:36:13.82	55.50	76.28	-41.0	-41.7	23.4	0.00e+00	0	40	0	1207959552	52	4159
2026-01-21 00:36:14.83	56.67	76.70	-41.3	-42.1	23.2	0.00e+00	0	40	0	1211105280	53	4113
2026-01-21 00:36:15.84	57.91	77.11	-41.5	-42.2	23.1	0.00e+00	0	39	0	1214251008	53	4177
2026-01-21 00:36:16.85	59.23	77.52	-41.6	-42.4	23.0	0.00e+00	0	40	0	1217396736	53	4249
2026-01-21 00:36:17.86	60.64	77.92	-41.4	-42.1	23.1	0.00e+00	0	40	0	1220542464	53	4140
2026-01-21 00:36:18.87	62.16	78.32	-40.9	-41.6	23.3	0.00e+00	0	40	0	1223688192	53	3874
2026-01-21 00:36:19.87	63.76	78.70	-40.6	-41.3	23.4	0.00e+00	0	40	0	1226833920	53	3744
2026-01-21 00:36:20.88	65.50	79.08	-40.5	-41.1	23.7	0.00e+00	0	40	0	1229979648	52	3909
2026-01-21 00:36:21.89	67.36	79.45	-40.1	-40.8	24.1	0.00e+00	0	40	0	1233125376	52	3740
2026-01-21 00:36:22.90	69.35	79.81	-40.2	-40.9	24.0	0.00e+00	0	40	0	1236271104	52	3796
2026-01-21 00:36:23.91	71.50	80.15	-40.5	-41.2	23.6	0.00e+00	0	40	0	1239416832	52	3930
2026-01-21 00:36:24.92	73.79	80.49	-40.9	-41.6	23.4	0.00e+00	0	40	0	1242562560	52	4116
2026-01-21 00:36:25.93	76.26	80.80	-41.3	-42.1	23.1	0.00e+00	0	40	0	1245708288	53	4112
2026-01-21 00:36:26.93	78.86	81.10	-41.4	-42.2	23.0	0.00e+00	0	40	0	1248854016	53	4166
2026-01-21 00:36:27.94	81.68	81.38	-41.3	-42.0	23.0	0.00e+00	0	40	0	1251999744	53	4085
2026-01-21 00:36:28.96	84.70	81.64	-41.2	-42.0	22.9	0.00e+00	0	40	0	1255145472	53	4056
2026-01-21 00:36:29.96	87.85	81.87	-40.7	-41.4	23.4	0.00e+00	0	40	0	1258291200	53	3807
2026-01-21 00:36:30.97	91.22	82.08	-40.6	-41.3	23.5	0.00e+00	0	40	0	1261436928	53	3753
2026-01-21 00:36:31.98	94.75	82.27	-40.5	-41.2	23.7	0.00e+00	0	40	0	1264582656	52	3923
2026-01-21 00:36:32.99	98.44	82.42	-40.3	-41.0	23.9	0.00e+00	0	40	0	1267728384	52	3843
2026-01-21 00:36:34.00	102.26	82.53	-40.5	-41.1	23.8	0.00e+00	0	40	0	1270874112	52	3911
2026-01-21 00:36:35.01	106.19	82.62	-40.9	-41.6	23.4	0.00e+00	0	40	0	1274019840	52	4127
2026-01-21 00:36:36.01	110.16	82.67	-41.5	-42.2	23.0	0.00e+00	0	40	0	1277165568	53	4191
2026-01-21 00:36:37.02	114.20	82.68	-41.6	-42.3	22.9	0.00e+00	0	40	0	1280311296	53	4223
2026-01-21 00:36:38.03	118.23	82.66	-41.8	-42.5	22.7	0.00e+00	0	40	0	1283457024	54	4094
2026-01-21 00:36:39.04	122.22	82.60	-42.2	-43.0	22.3	0.00e+00	0	40	0	1286602752	54	4311
2026-01-21 00:36:40.05	126.13	82.51	-42.2	-43.0	22.4	0.00e+00	0	40	0	1289748480	55	4089
2026-01-21 00:36:41.06	129.93	82.39	-41.8	-42.6	22.8	0.00e+00	0	40	0	1292894208	55	3872
2026-01-21 00:36:42.07	133.59	82.23	-41.9	-42.6	22.7	0.00e+00	0	40	0	1296039936	55	3909
2026-01-21 00:36:43.08	137.09	82.04	-41.4	-42.2	23.1	0.00e+00	0	40	0	1299185664	54	3932
2026-01-21 00:36:44.08	140.38	81.83	-40.9	-41.6	23.6	0.00e+00	0	40	0	1302331392	53	3876
2026-01-21 00:36:45.09	143.53	81.59	-40.8	-41.5	23.6	0.00e+00	0	40	0	1305477120	53	3867
2026-01-21 00:36:46.10	146.49	81.32	-41.4	-42.1	23.1	0.00e+00	0	40	0	1308622848	53	4127
2026-01-21 00:36:47.11	149.26	81.04	-41.2	-41.9	23.3	0.00e+00	0	40	0	1311768576	53	4026
2026-01-21 00:36:48.12	151.86	80.74	-40.9	-41.6	23.7	0.00e+00	0	40	0	1314914304	53	3869
2026-01-21 00:36:49.13	154.29	80.42	-41.0	-41.7	23.5	0.00e+00	0	40	0	1318060032	53	3935
2026-01-21 00:36:50.14	156.55	80.08	-41.4	-42.2	23.1	0.00e+00	0	40	0	1321205760	53	4160
2026-01-21 00:36:51.15	158.66	79.73	-41.2	-41.9	23.4	0.00e+00	0	40	0	1324351488	53	4043
2026-01-21 00:36:52.15	160.61	79.37	-41.1	-41.8	23.4	0.00e+00	0	40	0	1327497216	53	3988
2026-01-21 00:36:53.16	162.45	79.00	-41.6	-42.3	22.8	0.00e+00	0	40	0	1330642944	53	4221
2026-01-21 00:36:54.17	164.16	78.62	-41.5	-42.3	22.8	0.00e+00	0	40	0	1333788672	53	4212
2026-01-21 00:36:55.18	165.76	78.23	-40.9	-41.6	23.5	0.00e+00	0	40	0	1336934400	53	3884
2026-01-21 00:36:56.19	167.25	77.83	-41.1	-41.8	23.4	0.00e+00	0	40	0	1340080128	53	3964
2026-01-21 00:36:57.20	168.64	77.43	-42.1	-42.9	22.5	0.00e+00	0	40	0	1343225856	54	4267
2026-01-21 00:36:58.21	169.95	77.02	-41.7	-42.5	22.8	0.00e+00	0	40	0	1346371584	54	4060
2026-01-21 00:36:59.22	171.17	76.60	-41.0	-41.8	23.2	0.00e+00	0	40	0	1349517312	54	3743
2026-01-21 00:37:00.23	172.32	76.18	-41.2	-41.9	23.1	0.00e+00	0	40	0	1352663040	53	4032
2026-01-21 00:37:01.24	173.40	75.76	-41.0	-41.7	23.4	0.00e+00	0	40	0	1355808768	53	3922
2026-01-21 00:37:02.25	174.41	75.34	-40.7	-41.4	23.6	0.00e+00	0	40	0	1358954496	53	3808
2026-01-21 00:37:03.25	175.36	74.91	-40.9	-41.6	23.6	0.00e+00	0	40	0	1362100224	53	3872
2026-01-21 00:37:04.26	176.26	74.48	-41.6	-42.4	22.9	0.00e+00	0	40	0	1365245952	53	4255
2026-01-21 00:37:05.27	177.11	74.05	-41.7	-42.5	22.8	0.00e+00	0	40	0	1368391680	54	4079
2026-01-21 00:37:06.28	177.91	73.61	-41.1	-41.8	23.5	0.00e+00	0	40	0	1371537408	54	3741
2026-01-21 00:37:07.29	178.67	73.18	-41.2	-41.9	23.3	0.00e+00	0	40	0	1374683136	54	3807
2026-01-21 00:37:08.30	179.39	72.74	-41.3	-42.0	23.2	0.00e+00	0	40	0	1377828864	54	3846
2026-01-21 00:37:09.31	180.07	72.30	-41.2	-41.9	23.3	0.00e+00	0	39	0	1380974592	54	3792
2026-01-21 00:37:10.32	180.72	71.87	-41.3	-42.0	23.2	0.00e+00	0	40	0	1384120320	54	3867
2026-01-21 00:37:11.32	181.33	71.43	-41.7	-42.4	22.9	0.00e+00	0	39	0	1387266048	54	4033
2026-01-21 00:37:12.33	181.92	70.99	-41.3	-42.1	22.7	0.00e+00	0	40	0	1390411776	54	3887
2026-01-21 00:37:13.34	182.47	70.55	-41.0	-41.7	23.0	0.00e+00	0	40	0	1393557504	54	3737
2026-01-21 00:37:14.35	183.01	70.12	-40.6	-41.3	23.4	0.00e+00	0	40	0	1396703232	53	3761
2026-01-21 00:37:15.35	183.51	69.68	-40.7	-41.4	23.6	0.00e+00	0	40	0	1399848960	53	3784
2026-01-21 00:37:16.36	184.00	69.25	-41.7	-42.4	22.8	0.00e+00	0	40	0	1402994688	53	4280
2026-01-21 00:37:17.37	184.46	68.81	-42.5	-43.4	22.1	0.00e+00	0	40	0	1406140416	55	4258
2026-01-21 00:37:18.38	184.91	68.38	-42.6	-43.4	22.1	0.00e+00	0	40	0	1409286144	55	4278
2026-01-21 00:37:19.39	185.33	67.94	-42.2	-43.0	22.3	0.00e+00	0	40	0	1412431872	55	4078
2026-01-21 00:37:20.39	185.74	67.51	-41.1	-41.8	23.3	0.00e+00	0	40	0	1415577600	54	3766
2026-01-21 00:37:21.40	186.13	67.08	-40.4	-41.1	23.9	0.00e+00	0	40	0	1418723328	52	3886
2026-01-21 00:37:22.41	186.50	66.65	-40.3	-41.0	23.8	0.00e+00	0	40	0	1421869056	52	3847
2026-01-21 00:37:23.42	186.87	66.22	-40.6	-41.3	22.5	0.00e+00	0	40	0	1425014784	52	3991
2026-01-21 00:37:24.42	187.21	65.80	-41.4	-42.1	22.2	0.00e+00	0	40	0	1428160512	53	4112
2026-01-21 00:37:25.43	187.54	65.37	-42.1	-42.9	22.3	0.00e+00	0	40	0	1432354816	54	4287
2026-01-21 00:37:26.44	187.87	64.95	-41.8	-42.6	22.7	0.00e+00	0	40	0	1435500544	54	4118
2026-01-21 00:37:27.45	188.18	64.52	-41.4	-42.2	23.1	0.00e+00	0	40	0	1437597696	54	3929
2026-01-21 00:37:28.46	188.48	64.10	-41.5	-42.2	23.0	0.00e+00	0	40	0	1440743424	54	3951
2026-01-21 00:37:29.46	188.76	63.69	-41.1	-41.8	23.3	0.00e+00	0	40	0	1443889152	54	3749
2026-01-21 00:37:30.47	189.04	63.27	-40.8	-41.5	23.6	0.00e+00	0	40	0	1447034880	53	3846
2026-01-21 00:37:31.48	189.31	62.85	-41.5	-42.2	22.7	0.00e+00	0	40	0	1450180608	53	4189
2026-01-21 00:37:32.49	189.57	62.44	-42.6	-43.5	21.1	0.00e+00	0	40	0	1453326336	55	4303
2026-01-21 00:37:33.50	189.82	62.03	-43.8	-44.7	20.7	0.00e+00	0	40	0	1456472064	58	4178
2026-01-21 00:37:34.51	190.06	61.62	-43.7	-44.6	21.0	0.00e+00	0	40	0	1459617792	58	4121
2026-01-21 00:37:35.52	190.30	61.21	-42.6	-43.4	21.6	0.00e+00	0	40	0	1462763520	57	3812
2026-01-21 00:37:36.53	190.53	60.80	-42.1	-42.9	21.9	0.00e+00	0	40	0	1465909248	56	3802
2026-01-21 00:37:37.54	190.75	60.40	-41.8	-42.6	22.6	0.00e+00	0	40	0	1470103552	55	3880
2026-01-21 00:37:38.54	190.96	60.00	-41.4	-42.1	23.1	0.00e+00	0	40	0	1473249280	54	3913
2026-01-21 00:37:39.55	191.17	59.60	-41.6	-42.3	23.0	0.00e+00	0	40	0	1476395008	54	3988
2026-01-21 00:37:40.56	191.37	59.21	-41.7	-42.5	22.8	0.00e+00	0	40	0	1479540736	54	4062
2026-01-21 00:37:41.57	191.57	58.81	-41.9	-42.7	22.6	0.00e+00	0	40	0	1482686464	54	4150
2026-01-21 00:37:42.58	191.76	58.42	-42.2	-43.0	22.5	0.00e+00	0	40	0	1484783616	54	4295
2026-01-21 00:37:43.59	191.94	58.03	-42.2	-43.0	22.1	0.00e+00	0	40	0	1487929344	54	4306
2026-01-21 00:37:44.60	192.12	57.64	-42.3	-43.1	21.2	0.00e+00	0	40	0	1491075072	55	4119
2026-01-21 00:37:45.60	192.30	57.26	-42.2	-43.0	21.7	0.00e+00	0	40	0	1494220800	55	4062
2026-01-21 00:37:46.61	192.47	56.88	-42.0	-42.8	22.3	0.00e+00	0	40	0	1497366528	55	3985
2026-01-21 00:37:47.62	192.63	56.50	-42.1	-42.8	22.2	0.00e+00	0	39	0	1500512256	55	4003
2026-01-21 00:37:48.63	192.79	56.12	-42.0	-42.8	22.0	0.00e+00	0	40	0	1503657984	55	3978
2026-01-21 00:37:49.63	192.95	55.75	-42.4	-43.2	22.0	0.00e+00	0	40	0	1507852288	55	4172
2026-01-21 00:37:50.64	193.10	55.37	-43.1	-43.9	21.6	0.00e+00	0	40	0	1510998016	56	4280
2026-01-21 00:37:51.65	193.25	55.00	-43.5	-44.4	21.3	0.00e+00	0	40	0	1514143744	57	4265
2026-01-21 00:37:52.66	193.40	54.63	-44.0	-45.0	20.7	0.00e+00	0	40	0	1517289472	58	4302
2026-01-21 00:37:53.67	193.54	54.27	-44.1	-45.0	20.7	0.00e+00	0	40	0	1520435200	59	4095
2026-01-21 00:37:54.68	193.68	53.90	-43.9	-44.8	20.9	0.00e+00	0	40	0	1523580928	59	3982
2026-01-21 00:37:55.69	193.81	53.54	-43.8	-44.8	20.9	0.00e+00	0	40	0	1526726656	59	3962
2026-01-21 00:37:56.70	193.95	53.18	-43.5	-44.4	21.2	0.00e+00	0	39	0	1529872384	59	3804
2026-01-21 00:37:57.70	194.07	52.83	-43.1	-43.9	21.5	0.00e+00	0	40	0	1531969536	58	3821
2026-01-21 00:37:58.71	194.20	52.47	-43.3	-44.2	21.4	0.00e+00	0	40	0	1535115264	58	3928
2026-01-21 00:37:59.72	194.32	52.12	-43.8	-44.6	21.0	0.00e+00	0	40	0	1538260992	58	4136
2026-01-21 00:38:00.73	194.44	51.77	-44.7	-45.6	20.1	0.00e+00	0	40	0	1541406720	59	4391
2026-01-21 00:38:01.74	194.56	51.42	-45.4	-46.6	18.9	0.00e+00	0	40	0	1545601024	61	4368
2026-01-21 00:38:02.75	194.67	51.08	-46.0	-47.2	18.5	0.00e+00	0	40	0	1548746752	62	4424
2026-01-21 00:38:03.75	194.79	50.74	-45.3	-46.4	19.1	0.00e+00	0	40	0	1551892480	62	4038
2026-01-21 00:38:04.76	194.90	50.40	-44.7	-45.7	19.6	0.00e+00	0	40	0	1555038208	61	3941
2026-01-21 00:38:05.77	195.00	50.06	-44.3	-45.2	20.1	0.00e+00	0	40	0	1558183936	60	3943
2026-01-21 00:38:06.78	195.11	49.73	-44.0	-45.0	20.1	0.00e+00	0	40	0	1561329664	60	3831
2026-01-21 00:38:07.79	195.21	49.39	-44.6	-45.6	19.5	0.00e+00	0	40	0	1564475392	60	4125
2026-01-21 00:38:08.79	195.31	49.07	-44.9	-46.0	19.3	0.00e+00	0	40	0	1567621120	60	4322
2026-01-21 00:38:09.80	195.41	48.74	-44.7	-45.8	19.5	0.00e+00	0	40	0	1570766848	60	4207
2026-01-21 00:38:10.81	195.51	48.41	-44.4	-45.4	19.9	0.00e+00	0	40	0	1573912576	60	4041
2026-01-21 00:38:11.82	195.60	48.09	-44.2	-45.2	20.4	0.00e+00	0	40	0	1577058304	59	4156
2026-01-21 00:38:12.83	195.70	47.77	-43.9	-44.7	20.8	0.00e+00	0	40	0	1580204032	59	3958
2026-01-21 00:38:13.84	195.79	47.45	-43.9	-44.8	20.7	0.00e+00	0	40	0	1583349760	59	3991
2026-01-21 00:38:14.84	195.88	47.14	-44.6	-45.6	20.0	0.00e+00	0	40	0	1586495488	59	4376
2026-01-21 00:38:15.85	195.96	46.82	-45.0	-46.0	19.4	0.00e+00	0	40	0	1589641216	60	4336
2026-01-21 00:38:16.86	196.05	46.51	-45.8	-47.0	18.6	0.00e+00	0	40	0	1592786944	62	4293
2026-01-21 00:38:17.87	196.13	46.20	-46.3	-47.6	18.0	0.00e+00	0	40	0	1595932672	63	4374
2026-01-21 00:38:18.88	196.22	45.89	-46.0	-47.3	18.3	0.00e+00	0	40	0	1599078400	63	4213
2026-01-21 00:38:19.89	196.30	45.59	-45.4	-46.5	19.0	0.00e+00	0	40	0	1602224128	62	4059
2026-01-21 00:38:20.90	196.38	45.28	-45.2	-46.2	19.1	0.00e+00	0	40	0	1605369856	62	3954
2026-01-21 00:38:21.90	196.46	44.99	-45.0	-46.0	19.3	0.00e+00	0	39	0	1608515584	61	4071
2026-01-21 00:38:22.91	196.53	44.69	-45.1	-46.1	19.1	0.00e+00	0	40	0	1611661312	61	4132
2026-01-21 00:38:23.92	196.61	44.39	-45.6	-46.8	18.4	0.00e+00	0	40	0	1614807040	61	4451
2026-01-21 00:38:24.93	196.68	44.10	-46.0	-47.2	17.8	0.00e+00	0	40	0	1617952768	62	4441
2026-01-21 00:38:25.94	196.76	43.81	-46.3	-47.6	17.4	0.00e+00	0	40	0	1621098496	63	4391
2026-01-21 00:38:26.95	196.83	43.52	-46.1	-47.4	17.3	0.00e+00	0	40	0	1624244224	63	4273
2026-01-21 00:38:27.96	196.90	43.23	-45.8	-47.1	17.8	0.00e+00	0	40	0	1627389952	63	4114
2026-01-21 00:38:28.97	196.97	42.94	-45.6	-46.8	18.4	0.00e+00	0	40	0	1630535680	63	3964
2026-01-21 00:38:29.98	197.04	42.66	-45.3	-46.4	18.8	0.00e+00	0	40	0	1633681408	62	4010
2026-01-21 00:38:30.99	197.11	42.38	-44.8	-45.8	19.3	0.00e+00	0	40	0	1636827136	61	3988
2026-01-21 00:38:31.99	197.17	42.10	-44.6	-45.6	19.5	0.00e+00	0	40	0	1639972864	61	3911
2026-01-21 00:38:33.00	197.24	41.82	-44.5	-45.4	19.7	0.00e+00	0	40	0	1643118592	60	4048
2026-01-21 00:38:34.01	197.30	41.55	-44.7	-45.7	19.4	0.00e+00	0	40	0	1646264320	60	4188
2026-01-21 00:38:35.02	197.36	41.27	-44.9	-46.0	19.1	0.00e+00	0	40	0	1649410048	60	4309
2026-01-21 00:38:36.03	197.43	41.00	-45.1	-46.2	19.0	0.00e+00	0	40	0	1652555776	60	4433
2026-01-21 00:38:37.04	197.49	40.73	-45.3	-46.4	18.9	0.00e+00	0	40	0	1655701504	61	4256
2026-01-21 00:38:38.05	197.55	40.47	-45.2	-46.3	19.0	0.00e+00	0	40	0	1658847232	61	4229
2026-01-21 00:38:39.05	197.61	40.20	-44.9	-46.0	19.4	0.00e+00	0	40	0	1661992960	61	4075
2026-01-21 00:38:40.06	197.67	39.94	-44.7	-45.7	19.6	0.00e+00	0	40	0	1665138688	61	3940
2026-01-21 00:38:41.07	197.72	39.68	-44.7	-45.7	19.6	0.00e+00	0	40	0	1668284416	61	3936
2026-01-21 00:38:42.08	197.78	39.42	-44.7	-45.7	19.6	0.00e+00	0	40	0	1671430144	61	3948
2026-01-21 00:38:43.09	197.84	39.16	-44.5	-45.5	19.8	0.00e+00	0	40	0	1674575872	61	3846
2026-01-21 00:38:44.09	197.89	38.91	-44.7	-45.7	19.6	0.00e+00	0	40	0	1677721600	61	3938
2026-01-21 00:38:45.10	197.95	38.65	-44.6	-45.7	19.7	0.00e+00	0	40	0	1680867328	61	3918
2026-01-21 00:38:46.11	198.00	38.40	-44.6	-45.6	19.7	0.00e+00	0	40	0	1684013056	61	3900
2026-01-21 00:38:47.12	198.05	38.15	-44.2	-45.2	20.1	0.00e+00	0	40	0	1687158784	60	3928
2026-01-21 00:38:48.13	198.10	37.90	-44.3	-45.2	20.2	0.00e+00	0	40	0	1690304512	59	4186
2026-01-21 00:38:49.13	198.15	37.66	-44.1	-45.1	20.3	0.00e+00	0	40	0	1693450240	59	4114
2026-01-21 00:38:50.14	198.20	37.41	-44.1	-45.0	20.3	0.00e+00	0	40	0	1696595968	59	4090
2026-01-21 00:38:51.15	198.25	37.17	-43.7	-44.6	20.6	0.00e+00	0	40	0	1699741696	59	3901
2026-01-21 00:38:52.16	198.30	36.93	-43.3	-44.2	21.0	0.00e+00	0	40	0	1702887424	58	3921
2026-01-21 00:38:53.17	198.35	36.69	-43.0	-43.8	21.2	0.00e+00	0	40	0	1706033152	58	3764
2026-01-21 00:38:54.18	198.40	36.45	-43.1	-44.0	21.2	0.00e+00	0	40	0	1709178880	57	4056
2026-01-21 00:38:55.19	198.45	36.21	-43.1	-44.0	21.2	0.00e+00	0	40	0	1712324608	57	4081
2026-01-21 00:38:56.19	198.49	35.98	-43.3	-44.2	21.1	0.00e+00	0	40	0	1715470336	57	4174
2026-01-21 00:38:57.20	198.54	35.75	-43.5	-44.4	20.9	0.00e+00	0	40	0	1718616064	57	4284
2026-01-21 00:38:58.21	198.59	35.52	-43.6	-44.5	20.9	0.00e+00	0	40	0	1721761792	57	4311
2026-01-21 00:38:59.22	198.63	35.29	-43.6	-44.6	20.8	0.00e+00	0	40	0	1724907520	57	4344
2026-01-21 00:39:00.23	198.67	35.06	-43.8	-44.7	20.7	0.00e+00	0	40	0	1728053248	58	4164
2026-01-21 00:39:01.24	198.72	34.83	-43.8	-44.7	20.7	0.00e+00	0	40	0	1731198976	58	4173
2026-01-21 00:39:02.25	198.76	34.61	-43.9	-44.9	20.6	0.00e+00	0	40	0	1734344704	58	4256
2026-01-21 00:39:03.25	198.80	34.39	-44.0	-45.0	20.5	0.00e+00	0	40	0	1737490432	58	4306
2026-01-21 00:39:04.26	198.85	34.17	-44.1	-45.1	20.3	0.00e+00	0	40	0	1740636160	58	4377
2026-01-21 00:39:05.27	198.89	33.95	-44.0	-45.0	20.5	0.00e+00	0	40	0	1743781888	58	4303
2026-01-21 00:39:06.28	198.93	33.73	-44.0	-44.9	20.6	0.00e+00	0	40	0	1746927616	58	4276
2026-01-21 00:39:07.29	198.97	33.51	-43.8	-44.7	20.7	0.00e+00	0	40	0	1750073344	58	4173
2026-01-21 00:39:08.30	199.01	33.30	-43.7	-44.6	20.8	0.00e+00	0	40	0	1753219072	58	4139
2026-01-21 00:39:09.31	199.05	33.08	-43.7	-44.6	20.9	0.00e+00	0	40	0	1756364800	58	4105
2026-01-21 00:39:10.32	199.09	32.87	-43.5	-44.4	21.0	0.00e+00	0	40	0	1759510528	58	4034
2026-01-21 00:39:11.32	199.13	32.66	-43.4	-44.3	21.1	0.00e+00	0	40	0	1762656256	58	3983
2026-01-21 00:39:12.33	199.17	32.45	-43.3	-44.2	21.2	0.00e+00	0	40	0	1765801984	58	3948
2026-01-21 00:39:13.34	199.20	32.24	-43.2	-44.1	21.3	0.00e+00	0	40	0	1768947712	58	3875
2026-01-21 00:39:14.35	199.24	32.04	-43.1	-44.0	21.4	0.00e+00	0	40	0	1772093440	58	3849
2026-01-21 00:39:15.36	199.28	31.83	-43.0	-43.9	21.5	0.00e+00	0	40	0	1775239168	58	3801
2026-01-21 00:39:16.37	199.31	31.63	-42.8	-43.6	21.7	0.00e+00	0	40	0	1778384896	57	3891
2026-01-21 00:39:17.38	199.35	31.42	-42.8	-43.6	21.6	0.00e+00	0	40	0	1781530624	57	3911
2026-01-21 00:39:18.38	199.39	31.23	-42.7	-43.5	21.7	0.00e+00	0	40	0	1784676352	57	3864
2026-01-21 00:39:19.40	199.42	31.02	-42.7	-43.6	21.6	0.00e+00	0	40	0	1787822080	57	3874
2026-01-21 00:39:20.40	199.46	30.83	-42.9	-43.8	21.4	0.00e+00	0	40	0	1790967808	57	3993
2026-01-21 00:39:21.41	199.49	30.63	-43.2	-44.1	21.2	0.00e+00	0	40	0	1794113536	57	4116
2026-01-21 00:39:22.42	199.53	30.43	-43.2	-44.1	21.1	0.00e+00	0	40	0	1797259264	57	4143
2026-01-21 00:39:23.43	199.56	30.24	-43.3	-44.3	21.1	0.00e+00	0	40	0	1800404992	57	4194
2026-01-21 00:39:24.43	199.59	30.05	-43.3	-44.2	21.1	0.00e+00	0	40	0	1803550720	57	4175
2026-01-21 00:39:25.44	199.63	29.86	-43.3	-44.3	21.1	0.00e+00	0	40	0	1806696448	57	4201
2026-01-21 00:39:26.45	199.66	29.67	-43.2	-44.1	21.2	0.00e+00	0	40	0	1809842176	57	4141
2026-01-21 00:39:27.46	199.69	29.48	-43.3	-44.2	21.1	0.00e+00	0	40	0	1812987904	57	4157
2026-01-21 00:39:28.47	199.72	29.29	-43.1	-44.1	21.2	0.00e+00	0	40	0	1816133632	57	4099
2026-01-21 00:39:29.48	199.76	29.10	-43.0	-43.9	21.3	0.00e+00	0	40	0	1819279360	57	4050
2026-01-21 00:39:30.49	199.79	28.92	-43.1	-44.0	21.2	0.00e+00	0	40	0	1822425088	57	4056
2026-01-21 00:39:31.50	199.82	28.73	-43.1	-43.9	21.1	0.00e+00	0	40	0	1825570816	57	4051
2026-01-21 00:39:32.51	199.85	28.55	-43.1	-44.0	21.1	0.00e+00	0	40	0	1828716544	57	4063
2026-01-21 00:39:33.51	199.88	28.37	-43.1	-44.0	21.0	0.00e+00	0	40	0	1831862272	57	4080
2026-01-21 00:39:34.52	199.91	28.19	-43.1	-44.0	21.0	0.00e+00	0	40	0	1835008000	57	4070
2026-01-21 00:39:35.53	199.94	28.01	-43.1	-44.0	21.1	0.00e+00	0	40	0	1838153728	58	3827
2026-01-21 00:39:36.54	199.97	27.83	-42.9	-43.8	21.2	0.00e+00	0	40	0	1841299456	57	3986
2026-01-21 00:39:37.55	200.00	27.65	-42.6	-43.4	21.6	0.00e+00	0	40	0	1844445184	57	3812
2026-01-21 00:39:38.56	200.03	27.48	-42.3	-43.1	21.9	0.00e+00	0	40	0	1847590912	56	3901
2026-01-21 00:39:39.57	200.06	27.30	-42.3	-43.1	21.8	0.00e+00	0	40	0	1850736640	56	3906
2026-01-21 00:39:40.58	200.09	27.13	-42.1	-42.9	22.0	0.00e+00	0	40	0	1853882368	56	3824
2026-01-21 00:39:41.59	200.11	26.95	-42.0	-42.8	22.1	0.00e+00	0	40	0	1857028096	56	3741
2026-01-21 00:39:42.60	200.14	26.78	-41.8	-42.6	22.2	0.00e+00	0	40	0	1860173824	55	3874
2026-01-21 00:39:43.60	200.17	26.61	-41.8	-42.6	22.2	0.00e+00	0	40	0	1863319552	55	3882
2026-01-21 00:39:44.61	200.20	26.44	-41.7	-42.5	22.3	0.00e+00	0	40	0	1866465280	55	3845
2026-01-21 00:39:45.62	200.22	26.27	-41.7	-42.5	22.4	0.00e+00	0	40	0	1869611008	55	3826
2026-01-21 00:39:46.63	200.25	26.11	-41.6	-42.4	22.4	0.00e+00	0	40	0	1872756736	55	3816
2026-01-21 00:39:47.63	200.28	25.94	-41.6	-42.4	22.4	0.00e+00	0	40	0	1875902464	55	3805
2026-01-21 00:39:48.64	200.30	25.78	-41.5	-42.3	22.5	0.00e+00	0	40	0	1879048192	55	3768
2026-01-21 00:39:49.65	200.33	25.61	-41.6	-42.4	22.5	0.00e+00	0	40	0	1882193920	55	3792
2026-01-21 00:39:50.66	200.36	25.45	-41.6	-42.3	22.5	0.00e+00	0	40	0	1885339648	55	3776
2026-01-21 00:39:51.67	200.38	25.29	-41.6	-42.3	22.5	0.00e+00	0	40	0	1888485376	55	3779
2026-01-21 00:39:52.68	200.41	25.12	-41.7	-42.5	22.4	0.00e+00	0	40	0	1891631104	55	3827
2026-01-21 00:39:53.69	200.43	24.96	-41.9	-42.7	22.2	0.00e+00	0	40	0	1894776832	55	3920
2026-01-21 00:39:54.70	200.46	24.80	-41.8	-42.6	22.3	0.00e+00	0	40	0	1897922560	55	3888
2026-01-21 00:39:55.71	200.48	24.65	-42.0	-42.8	22.1	0.00e+00	0	40	0	1901068288	55	3980
2026-01-21 00:39:56.72	200.51	24.49	-42.0	-42.8	22.1	0.00e+00	0	40	0	1904214016	55	3987
2026-01-21 00:39:57.73	200.53	24.33	-42.0	-42.8	22.2	0.00e+00	0	40	0	1907359744	55	3981
2026-01-21 00:39:58.74	200.56	24.17	-42.0	-42.8	22.2	0.00e+00	0	40	0	1910505472	55	3971
2026-01-21 00:39:59.75	200.58	24.02	-41.9	-42.7	22.3	0.00e+00	0	40	0	1913651200	55	3920
2026-01-21 00:40:00.75	200.61	23.87	-41.9	-42.7	22.3	0.00e+00	0	40	0	1916796928	55	3916
2026-01-21 00:40:01.76	200.63	23.71	-41.9	-42.7	22.2	0.00e+00	0	40	0	1919942656	55	3949
2026-01-21 00:40:02.77	200.65	23.56	-41.9	-42.6	22.3	0.00e+00	0	40	0	1923088384	55	3905
2026-01-21 00:40:03.78	200.68	23.41	-41.7	-42.4	22.5	0.00e+00	0	40	0	1926234112	55	3813
2026-01-21 00:40:04.79	200.70	23.26	-41.8	-42.6	22.3	0.00e+00	0	40	0	1929379840	55	3888
2026-01-21 00:40:05.79	200.72	23.11	-41.8	-42.6	22.4	0.00e+00	0	40	0	1932525568	55	3873
2026-01-21 00:40:06.80	200.75	22.96	-41.8	-42.6	22.3	0.00e+00	0	40	0	1935671296	55	3894
2026-01-21 00:40:07.81	200.77	22.82	-42.0	-42.8	22.2	0.00e+00	0	40	0	1938817024	55	3959
2026-01-21 00:40:08.82	200.79	22.67	-42.0	-42.8	22.2	0.00e+00	0	40	0	1941962752	55	3981
2026-01-21 00:40:09.83	200.81	22.52	-42.0	-42.8	22.1	0.00e+00	0	40	0	1945108480	55	3999
2026-01-21 00:40:10.83	200.84	22.38	-42.2	-43.0	22.0	0.00e+00	0	40	0	1948254208	55	4065
2026-01-21 00:40:11.84	200.86	22.23	-42.2	-43.0	22.0	0.00e+00	0	40	0	1951399936	55	4069
2026-01-21 00:40:12.85	200.88	22.09	-42.1	-43.0	22.0	0.00e+00	0	40	0	1954545664	55	4053
2026-01-21 00:40:13.86	200.90	21.95	-42.3	-43.1	21.9	0.00e+00	0	40	0	1957691392	55	4116
2026-01-21 00:40:14.87	200.92	21.80	-42.2	-43.0	21.9	0.00e+00	0	40	0	1960837120	55	4098
2026-01-21 00:40:15.88	200.94	21.66	-42.2	-43.0	21.9	0.00e+00	0	40	0	1963982848	55	4084
2026-01-21 00:40:16.88	200.96	21.52	-42.3	-43.1	21.9	0.00e+00	0	40	0	1967128576	55	4121
2026-01-21 00:40:17.89	200.99	21.38	-42.3	-43.1	21.8	0.00e+00	0	40	0	1970274304	55	4137
2026-01-21 00:40:18.90	201.01	21.24	-42.3	-43.1	21.8	0.00e+00	0	40	0	1973420032	55	4139
2026-01-21 00:40:19.91	201.03	21.11	-42.4	-43.2	21.7	0.00e+00	0	40	0	1976565760	55	4179
2026-01-21 00:40:20.92	201.05	20.97	-42.3	-43.1	21.9	0.00e+00	0	40	0	1979711488	55	4112
2026-01-21 00:40:21.92	201.07	20.83	-42.4	-43.2	21.8	0.00e+00	0	40	0	1982857216	55	4168
2026-01-21 00:40:22.93	201.09	20.70	-42.4	-43.3	21.7	0.00e+00	0	40	0	1987051520	55	4207
2026-01-21 00:40:23.94	201.11	20.56	-42.4	-43.2	21.8	0.00e+00	0	40	0	1990197248	55	4181
2026-01-21 00:40:24.95	201.13	20.43	-42.3	-43.2	21.8	0.00e+00	0	40	0	1992294400	55	4157
2026-01-21 00:40:25.95	201.15	20.29	-42.3	-43.2	21.8	0.00e+00	0	40	0	1995440128	55	4148
2026-01-21 00:40:26.96	201.17	20.16	-42.2	-43.0	21.9	0.00e+00	0	40	0	1998585856	55	4092
2026-01-21 00:40:27.97	201.19	20.03	-42.3	-43.1	21.8	0.00e+00	0	40	0	2001731584	55	4132
2026-01-21 00:40:28.98	201.21	19.90	-42.3	-43.1	21.8	0.00e+00	0	40	0	2004877312	55	4118
2026-01-21 00:40:29.99	201.23	19.77	-42.3	-43.1	21.8	0.00e+00	0	40	0	2008023040	55	4121
2026-01-21 00:40:31.00	201.24	19.64	-42.3	-43.1	21.8	0.00e+00	0	40	0	2011168768	55	4138
2026-01-21 00:40:32.00	201.26	19.51	-42.2	-43.0	21.9	0.00e+00	0	40	0	2014314496	55	4092
2026-01-21 00:40:33.01	201.28	19.38	-42.2	-43.0	21.9	0.00e+00	0	40	0	2017460224	55	4085
2026-01-21 00:40:34.02	201.30	19.25	-42.2	-43.0	21.9	0.00e+00	0	40	0	2020605952	55	4093
2026-01-21 00:40:35.03	201.32	19.12	-42.2	-43.0	21.9	0.00e+00	0	40	0	2023751680	55	4064
2026-01-21 00:40:36.03	201.34	19.00	-42.3	-43.1	21.8	0.00e+00	0	40	0	2027945984	55	4119
2026-01-21 00:40:37.04	201.36	18.87	-42.3	-43.1	21.7	0.00e+00	0	40	0	2031091712	55	4133
2026-01-21 00:40:38.05	201.37	18.74	-42.3	-43.1	21.7	0.00e+00	0	40	0	2033188864	55	4123
2026-01-21 00:40:39.06	201.39	18.62	-42.3	-43.1	21.6	0.00e+00	0	40	0	2037383168	55	4145
2026-01-21 00:40:40.07	201.41	18.49	-42.4	-43.2	21.6	0.00e+00	0	40	0	2039480320	55	4166
2026-01-21 00:40:41.07	201.43	18.37	-42.5	-43.3	21.5	0.00e+00	0	40	0	2042626048	55	4226
2026-01-21 00:40:42.08	201.45	18.25	-42.5	-43.3	21.5	0.00e+00	0	40	0	2045771776	55	4240
2026-01-21 00:40:43.09	201.46	18.13	-42.6	-43.5	21.4	0.00e+00	0	40	0	2048917504	55	4292
2026-01-21 00:40:44.10	201.48	18.00	-42.7	-43.5	21.3	0.00e+00	0	40	0	2052063232	55	4334
2026-01-21 00:40:45.11	201.50	17.88	-42.7	-43.6	21.3	0.00e+00	0	40	0	2055208960	56	4113
2026-01-21 00:40:46.12	201.52	17.76	-42.8	-43.7	21.2	0.00e+00	0	40	0	2058354688	56	4181
2026-01-21 00:40:47.13	201.53	17.64	-42.9	-43.8	21.1	0.00e+00	0	40	0	2061500416	56	4230
2026-01-21 00:40:48.13	201.55	17.52	-43.0	-43.9	21.0	0.00e+00	0	40	0	2065694720	56	4263
2026-01-21 00:40:49.14	201.57	17.40	-43.1	-44.0	20.9	0.00e+00	0	40	0	2068840448	56	4311
2026-01-21 00:40:50.15	201.58	17.28	-43.0	-44.0	21.0	0.00e+00	0	40	0	2071986176	56	4297
2026-01-21 00:40:51.16	201.60	17.17	-43.0	-43.9	21.0	0.00e+00	0	40	0	2075131904	56	4287
2026-01-21 00:40:52.17	201.62	17.05	-43.2	-44.1	20.9	0.00e+00	0	40	0	2078277632	56	4351
2026-01-21 00:40:53.18	201.63	16.93	-43.1	-44.0	20.9	0.00e+00	0	40	0	2081423360	56	4315
2026-01-21 00:40:54.19	201.65	16.82	-43.1	-44.0	20.9	0.00e+00	0	40	0	2084569088	56	4321
2026-01-21 00:40:55.19	201.67	16.70	-43.1	-44.0	20.9	0.00e+00	0	40	0	2086666240	56	4308
