passes_logs/2026/01/21/R3.2S_Murmansk/R3.2S_Murmansk__20260121_043055_AQUA_rec.log

#Pass ID: 20260121_043055_AQUA
#Satellite: AQUA
#Configuration: AQUA
#almurnet v.1.7.20251203
#Start time: 2026-01-21 04:30:56

#Version: 2.2.20231116
#Station: R3.2S_Murmansk
#Location: 33.079688 lon 68.888172 lat
#TLE: 1 27424U 02022A   26020.30984080  .00001497  00000+0  30942-3 0  9998
#TLE: 2 27424  98.4092 346.8266 0001984  71.7888  69.0903 14.61835321261661

#Time	Az	El	Level	Level2	SNR	BER	BlckErr	Temp	State	Recorded	gain1	gain2
2026-01-21 04:30:56.64	33.14	2.10	-55.1	-72.9	3.8	7.42e-01	0	38	0	0	82	26779
2026-01-21 04:30:57.64	33.08	2.16	-53.8	-71.7	3.8	7.43e-01	0	38	104	0	79	27882
2026-01-21 04:30:58.66	33.03	2.22	-53.8	-71.6	3.8	7.44e-01	0	38	104	0	79	27678
2026-01-21 04:30:59.66	32.97	2.28	-53.8	-71.6	3.8	7.42e-01	0	38	104	0	79	27602
2026-01-21 04:31:00.67	32.91	2.35	-53.8	-71.6	3.8	7.46e-01	0	38	104	0	79	27678
2026-01-21 04:31:01.68	32.85	2.41	-53.8	-71.6	3.8	7.46e-01	0	38	104	0	79	27668
2026-01-21 04:31:02.69	32.80	2.47	-53.8	-71.6	3.8	7.44e-01	0	38	104	0	79	27640
2026-01-21 04:31:03.69	32.74	2.53	-53.8	-71.6	3.8	7.45e-01	0	38	104	0	79	27617
2026-01-21 04:31:04.70	32.68	2.60	-53.8	-71.6	3.8	7.41e-01	0	38	104	0	79	27540
2026-01-21 04:31:05.71	32.62	2.66	-53.8	-71.6	3.8	7.45e-01	0	38	104	0	79	27520
2026-01-21 04:31:06.72	32.56	2.72	-53.8	-71.5	3.8	7.41e-01	0	38	104	0	79	27385
2026-01-21 04:31:07.73	32.50	2.79	-53.8	-71.5	3.8	7.42e-01	0	39	104	0	79	27322
2026-01-21 04:31:08.74	32.44	2.85	-53.8	-71.5	3.8	7.45e-01	0	38	104	0	79	27182
2026-01-21 04:31:09.75	32.38	2.92	-53.8	-71.5	3.8	7.46e-01	0	38	104	0	79	27311
2026-01-21 04:31:10.76	32.32	2.98	-53.8	-71.5	3.8	7.46e-01	0	38	104	0	79	27271
2026-01-21 04:31:11.77	32.26	3.04	-53.8	-71.6	3.8	7.45e-01	0	39	104	0	79	27547
2026-01-21 04:31:12.77	32.20	3.11	-53.8	-71.5	3.8	7.41e-01	0	39	104	0	79	27380
2026-01-21 04:31:13.78	32.14	3.17	-53.8	-71.4	3.8	7.44e-01	0	39	104	0	79	26891
2026-01-21 04:31:14.79	32.07	3.24	-53.8	-71.2	3.8	7.47e-01	0	39	104	0	79	26309
2026-01-21 04:31:15.80	32.01	3.30	-53.8	-71.3	3.8	7.46e-01	0	39	104	0	79	26606
2026-01-21 04:31:16.81	31.95	3.37	-53.8	-71.3	3.8	7.45e-01	0	39	104	0	79	26553
2026-01-21 04:31:17.81	31.89	3.43	-53.8	-71.2	3.8	7.47e-01	0	39	104	0	79	26366
2026-01-21 04:31:18.82	31.82	3.50	-53.8	-71.1	3.8	7.44e-01	0	39	104	0	79	25990
2026-01-21 04:31:19.83	31.76	3.56	-53.8	-71.5	3.8	7.45e-01	0	39	104	0	79	27103
2026-01-21 04:31:20.84	31.70	3.63	-53.8	-71.5	3.8	7.43e-01	0	39	104	0	79	27295
2026-01-21 04:31:21.84	31.63	3.69	-53.8	-71.0	3.8	7.44e-01	0	39	104	0	79	25803
2026-01-21 04:31:22.85	31.57	3.76	-53.8	-70.2	3.8	7.43e-01	0	39	104	0	79	23553
2026-01-21 04:31:23.86	31.50	3.82	-53.7	-69.6	3.8	7.43e-01	0	39	104	0	79	21869
2026-01-21 04:31:24.87	31.44	3.89	-53.7	-68.8	4.0	7.39e-01	0	39	104	0	79	19937
2026-01-21 04:31:25.88	31.37	3.96	-53.7	-67.9	4.2	7.36e-01	0	39	104	0	79	18057
2026-01-21 04:31:26.89	31.31	4.02	-53.7	-68.0	4.2	7.32e-01	0	39	104	0	79	18107
2026-01-21 04:31:27.89	31.24	4.09	-53.7	-67.3	4.4	7.25e-01	0	39	104	0	79	16766
2026-01-21 04:31:28.90	31.18	4.16	-53.6	-65.5	5.3	7.01e-01	50	39	0	0	79	13717
2026-01-21 04:31:29.91	31.11	4.22	-53.3	-63.1	7.1	6.60e-01	182	39	0	1048576	78	10991
2026-01-21 04:31:30.92	31.04	4.29	-53.0	-60.9	9.4	6.26e-01	0	39	0	2621440	78	8478
2026-01-21 04:31:31.92	30.97	4.36	-52.4	-58.6	11.8	6.08e-01	0	39	0	4718592	76	7289
2026-01-21 04:31:32.93	30.91	4.42	-51.6	-56.1	14.2	6.01e-01	0	39	0	6815744	75	5838
2026-01-21 04:31:33.94	30.84	4.49	-51.0	-55.0	15.7	6.04e-01	0	39	0	8388608	73	5729
2026-01-21 04:31:34.95	30.77	4.56	-50.3	-53.6	17.0	6.03e-01	0	39	0	10485760	72	5171
2026-01-21 04:31:35.96	30.70	4.63	-49.8	-52.7	17.8	6.05e-01	0	39	0	12058624	71	4977
2026-01-21 04:31:36.97	30.63	4.69	-49.5	-52.2	18.4	6.01e-01	0	39	0	14155776	71	4703
2026-01-21 04:31:37.98	30.56	4.76	-49.8	-52.6	18.1	6.03e-01	0	39	0	16252928	70	5218
2026-01-21 04:31:38.98	30.49	4.83	-50.0	-53.0	17.7	6.01e-01	0	39	0	17825792	70	5405
2026-01-21 04:31:39.99	30.42	4.90	-50.5	-53.9	16.8	6.00e-01	0	39	0	19922944	71	5699
2026-01-21 04:31:41.00	30.35	4.97	-50.6	-54.2	16.5	6.01e-01	0	39	0	21495808	71	5869
2026-01-21 04:31:42.01	30.28	5.04	-51.5	-56.1	14.6	6.03e-01	0	39	0	23592960	73	6512
2026-01-21 04:31:43.01	30.21	5.10	-47.6	-49.4	21.4	6.00e-01	0	39	0	25165824	66	4529
2026-01-21 04:31:44.02	30.14	5.17	-49.8	-52.6	18.2	5.99e-01	0	39	0	27262976	70	5195
2026-01-21 04:31:45.03	30.06	5.24	-53.6	-66.7	4.9	7.18e-01	0	39	0	28835840	77	17524
2026-01-21 04:31:46.04	29.99	5.31	-46.1	-47.5	22.9	6.00e-01	0	39	0	29360128	63	4316
2026-01-21 04:31:47.05	29.92	5.38	-53.6	-65.8	5.2	7.06e-01	3	39	0	30932992	77	15878
2026-01-21 04:31:48.05	29.84	5.45	-46.0	-47.5	23.3	6.03e-01	0	39	0	32505856	64	4054
2026-01-21 04:31:49.06	29.77	5.52	-46.0	-47.5	23.4	6.05e-01	0	39	0	34078720	63	4315
2026-01-21 04:31:50.07	29.70	5.59	-45.9	-47.4	23.5	6.03e-01	0	39	0	36175872	63	4259
2026-01-21 04:31:51.08	29.62	5.66	-45.8	-47.3	23.7	6.03e-01	0	39	0	37748736	63	4195
2026-01-21 04:31:52.09	29.54	5.73	-45.7	-47.1	23.8	6.02e-01	0	39	0	39845888	63	4141
2026-01-21 04:31:53.10	29.47	5.80	-45.8	-47.2	23.8	6.03e-01	0	39	0	41943040	63	4179
2026-01-21 04:31:54.11	29.39	5.87	-45.8	-47.2	23.8	6.05e-01	0	39	0	43515904	63	4191
2026-01-21 04:31:55.11	29.32	5.94	-45.6	-47.0	23.9	6.03e-01	0	39	0	45613056	63	4094
2026-01-21 04:31:56.12	29.24	6.01	-45.9	-47.4	23.6	6.00e-01	0	39	0	47185920	63	4249
2026-01-21 04:31:57.13	29.16	6.08	-45.5	-46.9	24.0	6.02e-01	0	39	0	49283072	63	4020
2026-01-21 04:31:58.14	29.08	6.15	-45.5	-46.9	24.0	6.02e-01	0	39	0	51380224	62	4275
2026-01-21 04:31:59.14	29.01	6.22	-45.4	-46.8	24.1	6.01e-01	0	39	0	52953088	62	4230
2026-01-21 04:32:00.15	28.93	6.30	-45.6	-47.0	24.0	6.00e-01	0	39	0	55050240	62	4322
2026-01-21 04:32:01.16	28.85	6.37	-45.6	-47.0	24.1	6.03e-01	0	39	0	57147392	62	4306
2026-01-21 04:32:02.17	28.77	6.44	-45.5	-46.9	24.0	6.03e-01	0	39	0	58720256	62	4279
2026-01-21 04:32:03.18	28.69	6.51	-45.4	-46.8	24.1	6.04e-01	0	39	0	60817408	62	4225
2026-01-21 04:32:04.19	28.61	6.58	-45.3	-46.6	24.4	6.03e-01	0	39	0	62390272	62	4133
2026-01-21 04:32:05.19	28.53	6.65	-45.5	-46.9	24.1	6.03e-01	0	39	0	64487424	62	4278
2026-01-21 04:32:06.20	28.45	6.73	-45.4	-46.7	24.3	6.01e-01	0	39	0	66060288	62	4176
2026-01-21 04:32:07.21	28.37	6.80	-45.3	-46.6	24.6	6.03e-01	0	39	0	68157440	62	4138
2026-01-21 04:32:08.22	28.28	6.87	-45.5	-46.8	24.3	6.04e-01	0	39	0	70254592	61	4489
2026-01-21 04:32:09.22	28.20	6.95	-45.2	-46.5	24.5	6.04e-01	0	39	0	71827456	61	4330
2026-01-21 04:32:10.23	28.12	7.02	-45.0	-46.3	24.8	6.02e-01	0	39	0	73924608	61	4200
2026-01-21 04:32:11.24	28.03	7.09	-45.0	-46.3	24.8	6.03e-01	0	39	0	76021760	61	4213
2026-01-21 04:32:12.25	27.95	7.17	-44.9	-46.2	24.8	5.99e-01	0	39	0	77594624	61	4189
2026-01-21 04:32:13.26	27.86	7.24	-44.9	-46.1	24.9	6.02e-01	0	39	0	79691776	61	4142
2026-01-21 04:32:14.26	27.78	7.31	-44.8	-46.1	25.0	6.03e-01	0	39	0	81264640	61	4122
2026-01-21 04:32:15.27	27.69	7.39	-44.9	-46.2	24.9	6.03e-01	0	39	0	83361792	61	4181
2026-01-21 04:32:16.28	27.61	7.46	-45.1	-46.3	24.7	6.04e-01	0	39	0	85458944	61	4242
2026-01-21 04:32:17.29	27.52	7.54	-44.8	-46.1	25.0	6.01e-01	0	39	0	87031808	61	4115
2026-01-21 04:32:18.30	27.43	7.61	-45.1	-46.4	24.8	6.03e-01	0	39	0	89128960	61	4250
2026-01-21 04:32:19.30	27.35	7.69	-45.1	-46.5	24.7	6.03e-01	0	39	0	90701824	61	4300
2026-01-21 04:32:20.31	27.26	7.76	-45.0	-46.3	24.9	6.01e-01	0	39	0	92798976	61	4241
2026-01-21 04:32:21.32	27.17	7.84	-44.9	-46.2	25.0	6.02e-01	0	39	0	94371840	61	4149
2026-01-21 04:32:22.33	27.08	7.91	-45.1	-46.4	24.8	6.01e-01	0	39	0	96468992	61	4260
2026-01-21 04:32:23.34	26.99	7.99	-44.8	-46.1	25.0	6.01e-01	0	39	0	98566144	61	4129
2026-01-21 04:32:24.35	26.90	8.06	-44.7	-46.0	25.3	6.03e-01	0	39	0	100139008	61	4064
2026-01-21 04:32:25.35	26.81	8.14	-44.8	-46.1	25.2	6.02e-01	0	39	0	102236160	61	4117
2026-01-21 04:32:26.36	26.72	8.21	-44.7	-45.9	25.2	6.02e-01	0	39	0	104333312	61	4042
2026-01-21 04:32:27.37	26.63	8.29	-44.9	-46.2	25.0	6.03e-01	0	39	0	105906176	61	4147
2026-01-21 04:32:28.38	26.53	8.37	-44.9	-46.2	25.0	6.01e-01	0	39	0	108003328	61	4164
2026-01-21 04:32:29.38	26.44	8.44	-44.6	-45.9	25.3	6.02e-01	0	39	0	109576192	61	4023
2026-01-21 04:32:30.39	26.35	8.52	-44.8	-46.0	25.2	6.05e-01	0	40	0	111673344	61	4088
2026-01-21 04:32:31.40	26.25	8.60	-44.9	-46.1	25.1	6.01e-01	0	39	0	113770496	61	4135
2026-01-21 04:32:32.41	26.16	8.67	-44.7	-45.9	25.3	6.00e-01	0	39	0	115343360	61	4046
2026-01-21 04:32:33.41	26.07	8.75	-44.6	-45.9	25.3	6.03e-01	0	40	0	117440512	61	4024
2026-01-21 04:32:34.42	25.97	8.83	-44.7	-45.9	25.3	6.04e-01	0	39	0	119013376	61	4048
2026-01-21 04:32:35.43	25.87	8.91	-44.7	-45.9	25.2	6.01e-01	0	39	0	121110528	61	4049
2026-01-21 04:32:36.44	25.78	8.99	-44.7	-45.9	25.3	6.01e-01	0	39	0	123207680	61	4028
2026-01-21 04:32:37.44	25.68	9.06	-44.6	-45.9	25.3	6.06e-01	0	40	0	124780544	61	4011
2026-01-21 04:32:38.45	25.58	9.14	-44.7	-46.0	25.4	6.02e-01	0	39	0	126877696	61	4067
2026-01-21 04:32:39.46	25.48	9.22	-44.5	-45.7	25.5	6.02e-01	0	39	0	128450560	60	4166
2026-01-21 04:32:40.47	25.38	9.30	-44.4	-45.6	25.6	6.01e-01	0	39	0	130547712	60	4136
2026-01-21 04:32:41.48	25.28	9.38	-44.5	-45.8	25.4	6.01e-01	0	39	0	132644864	60	4205
2026-01-21 04:32:42.49	25.18	9.46	-44.5	-45.7	25.5	6.05e-01	0	39	0	134217728	60	4155
2026-01-21 04:32:43.50	25.08	9.54	-44.4	-45.6	25.6	6.02e-01	0	39	0	136314880	60	4125
2026-01-21 04:32:44.51	24.98	9.62	-44.3	-45.5	25.7	6.04e-01	0	39	0	137887744	60	4075
2026-01-21 04:32:45.51	24.88	9.70	-44.4	-45.6	25.6	6.00e-01	0	39	0	139984896	60	4129
2026-01-21 04:32:46.52	24.77	9.78	-44.4	-45.6	25.5	6.01e-01	0	40	0	142082048	60	4116
2026-01-21 04:32:47.52	24.67	9.86	-44.3	-45.5	25.8	6.02e-01	0	39	0	143654912	60	4064
2026-01-21 04:32:48.53	24.57	9.94	-44.2	-45.4	25.9	6.06e-01	0	39	0	145752064	60	4005
2026-01-21 04:32:49.54	24.46	10.02	-44.3	-45.4	25.8	6.00e-01	0	39	0	147849216	60	4049
2026-01-21 04:32:50.55	24.36	10.10	-44.2	-45.4	25.9	6.03e-01	0	39	0	149422080	60	4017
2026-01-21 04:32:51.56	24.25	10.18	-44.1	-45.3	25.9	6.01e-01	0	40	0	151519232	60	3982
2026-01-21 04:32:52.57	24.14	10.26	-44.1	-45.3	25.9	6.02e-01	0	39	0	153092096	60	3983
2026-01-21 04:32:53.57	24.04	10.34	-44.1	-45.3	26.0	6.01e-01	0	40	0	155189248	60	3985
2026-01-21 04:32:54.58	23.93	10.42	-44.1	-45.2	26.0	6.01e-01	0	39	0	156762112	60	3945
2026-01-21 04:32:55.59	23.82	10.50	-44.2	-45.4	25.8	6.01e-01	0	39	0	158859264	59	4270
2026-01-21 04:32:56.60	23.71	10.59	-44.3	-45.5	25.7	6.04e-01	0	40	0	160956416	59	4297
2026-01-21 04:32:57.60	23.60	10.67	-44.2	-45.4	25.8	6.04e-01	0	39	0	162529280	59	4261
2026-01-21 04:32:58.61	23.49	10.75	-44.4	-45.6	25.6	6.03e-01	0	39	0	164626432	59	4351
2026-01-21 04:32:59.62	23.38	10.83	-44.3	-45.4	25.8	6.01e-01	0	40	0	166199296	59	4290
2026-01-21 04:33:00.63	23.27	10.92	-44.4	-45.6	25.7	6.03e-01	0	40	0	168296448	59	4376
2026-01-21 04:33:01.64	23.15	11.00	-44.4	-45.6	25.7	6.02e-01	0	40	0	170393600	59	4343
2026-01-21 04:33:02.65	23.04	11.08	-44.2	-45.4	25.8	6.02e-01	0	39	0	171966464	59	4252
2026-01-21 04:33:03.66	22.92	11.17	-44.4	-45.6	25.7	6.02e-01	0	39	0	174063616	59	4341
2026-01-21 04:33:04.67	22.81	11.25	-44.2	-45.4	25.8	6.01e-01	0	40	0	176160768	59	4275
2026-01-21 04:33:05.67	22.69	11.33	-44.1	-45.3	26.0	6.03e-01	0	39	0	177733632	59	4222
2026-01-21 04:33:06.68	22.58	11.42	-44.2	-45.3	25.9	6.02e-01	0	40	0	179830784	59	4237
2026-01-21 04:33:07.69	22.46	11.50	-44.2	-45.4	25.9	6.01e-01	0	40	0	181403648	59	4267
2026-01-21 04:33:08.70	22.34	11.59	-44.0	-45.2	26.0	6.02e-01	0	40	0	183500800	59	4152
2026-01-21 04:33:09.71	22.22	11.67	-44.1	-45.2	26.1	5.99e-01	0	40	0	185597952	59	4180
2026-01-21 04:33:10.71	22.10	11.76	-44.0	-45.1	26.1	6.00e-01	0	39	0	187170816	59	4131
2026-01-21 04:33:11.72	21.98	11.84	-43.9	-45.1	26.1	6.03e-01	0	40	0	189267968	59	4113
2026-01-21 04:33:12.73	21.86	11.93	-43.9	-45.0	26.2	6.00e-01	0	40	0	190840832	59	4094
2026-01-21 04:33:13.74	21.74	12.01	-44.0	-45.1	26.2	6.00e-01	0	39	0	192937984	59	4128
2026-01-21 04:33:14.74	21.62	12.10	-43.8	-44.9	26.3	6.05e-01	0	40	0	195035136	59	4036
2026-01-21 04:33:15.75	21.49	12.18	-43.7	-44.8	26.3	6.02e-01	0	40	0	196608000	59	4003
2026-01-21 04:33:16.76	21.37	12.27	-43.9	-45.1	26.1	6.02e-01	0	40	0	198705152	59	4118
2026-01-21 04:33:17.77	21.24	12.36	-43.8	-44.9	26.3	6.02e-01	0	39	0	200278016	59	4037
2026-01-21 04:33:18.77	21.12	12.44	-43.8	-45.0	26.3	6.03e-01	0	40	0	202375168	59	4058
2026-01-21 04:33:19.78	20.99	12.53	-43.9	-45.0	26.2	6.04e-01	0	40	0	204472320	59	4077
2026-01-21 04:33:20.79	20.86	12.62	-43.9	-45.0	26.3	6.04e-01	0	39	0	206045184	59	4079
2026-01-21 04:33:21.80	20.73	12.70	-43.8	-44.9	26.4	6.02e-01	0	40	0	208142336	59	4032
2026-01-21 04:33:22.81	20.60	12.79	-43.9	-45.0	26.3	6.03e-01	0	39	0	209715200	59	4087
2026-01-21 04:33:23.82	20.47	12.88	-43.9	-45.1	26.2	6.01e-01	0	40	0	211812352	59	4107
2026-01-21 04:33:24.82	20.34	12.97	-43.7	-44.9	26.4	6.02e-01	0	40	0	213909504	59	4017
2026-01-21 04:33:25.83	20.21	13.06	-43.8	-45.0	26.3	6.00e-01	0	40	0	215482368	59	4065
2026-01-21 04:33:26.84	20.08	13.14	-44.2	-45.4	25.9	6.03e-01	0	40	0	217579520	59	4268
2026-01-21 04:33:27.85	19.95	13.23	-43.7	-44.9	26.4	6.00e-01	0	40	0	219676672	59	4012
2026-01-21 04:33:28.86	19.81	13.32	-43.8	-44.9	26.4	6.03e-01	0	40	0	221249536	59	4029
2026-01-21 04:33:29.87	19.68	13.41	-43.6	-44.8	26.5	6.02e-01	0	40	0	223346688	59	3966
2026-01-21 04:33:30.87	19.54	13.50	-43.6	-44.7	26.6	6.02e-01	0	40	0	224919552	59	3929
2026-01-21 04:33:31.88	19.40	13.59	-43.6	-44.7	26.6	5.98e-01	0	40	0	227016704	59	3945
2026-01-21 04:33:32.89	19.26	13.68	-43.6	-44.7	26.6	6.03e-01	0	40	0	228589568	59	3930
2026-01-21 04:33:33.90	19.12	13.77	-43.7	-44.8	26.5	6.03e-01	0	40	0	230686720	59	3994
2026-01-21 04:33:34.91	18.98	13.86	-43.6	-44.7	26.6	6.03e-01	0	40	0	232783872	59	3926
2026-01-21 04:33:35.92	18.84	13.95	-43.5	-44.6	26.7	6.02e-01	0	40	0	234356736	59	3903
2026-01-21 04:33:36.93	18.70	14.04	-43.7	-44.8	26.5	6.02e-01	0	40	0	236453888	59	3977
2026-01-21 04:33:37.93	18.56	14.13	-43.7	-44.8	26.5	6.03e-01	0	40	0	238551040	59	3991
2026-01-21 04:33:38.94	18.42	14.22	-43.7	-44.8	26.5	6.01e-01	0	40	0	240123904	59	3976
2026-01-21 04:33:39.95	18.27	14.31	-43.6	-44.8	26.6	6.02e-01	0	40	0	242221056	59	3963
2026-01-21 04:33:40.96	18.12	14.40	-43.6	-44.7	26.5	6.04e-01	0	40	0	243793920	59	3935
2026-01-21 04:33:41.97	17.98	14.49	-43.7	-44.8	26.6	6.03e-01	0	40	0	245891072	59	3967
2026-01-21 04:33:42.97	17.83	14.58	-43.7	-44.9	26.4	6.01e-01	0	40	0	247988224	59	4012
2026-01-21 04:33:43.98	17.68	14.68	-43.7	-44.8	26.5	5.99e-01	0	40	0	249561088	59	3974
2026-01-21 04:33:44.99	17.53	14.77	-43.6	-44.7	26.6	6.03e-01	0	40	0	251658240	59	3954
2026-01-21 04:33:46.00	17.38	14.86	-43.6	-44.7	26.6	6.02e-01	0	40	0	253231104	59	3935
2026-01-21 04:33:47.01	17.23	14.95	-43.7	-44.8	26.6	6.03e-01	0	40	0	255328256	59	3981
2026-01-21 04:33:48.01	17.08	15.04	-43.7	-44.8	26.6	6.00e-01	0	40	0	256901120	59	3977
2026-01-21 04:33:49.02	16.92	15.14	-43.7	-44.8	26.6	6.02e-01	0	40	0	258998272	59	3971
2026-01-21 04:33:50.03	16.77	15.23	-43.6	-44.7	26.7	6.00e-01	0	40	0	261095424	59	3934
2026-01-21 04:33:51.04	16.61	15.32	-43.5	-44.6	26.8	6.00e-01	0	40	0	263192576	58	4104
2026-01-21 04:33:52.05	16.46	15.42	-43.6	-44.7	26.7	6.02e-01	0	40	0	264765440	58	4166
2026-01-21 04:33:53.05	16.30	15.51	-43.4	-44.5	26.8	6.03e-01	0	40	0	266862592	58	4095
2026-01-21 04:33:54.06	16.14	15.60	-43.5	-44.6	26.8	6.00e-01	0	40	0	268435456	58	4113
2026-01-21 04:33:55.07	15.98	15.70	-43.5	-44.6	26.8	6.03e-01	0	40	0	270532608	58	4116
2026-01-21 04:33:56.07	15.82	15.79	-43.4	-44.5	26.7	6.03e-01	0	40	0	272105472	58	4088
2026-01-21 04:33:57.08	15.66	15.88	-43.5	-44.6	26.7	6.02e-01	0	40	0	274202624	58	4129
2026-01-21 04:33:58.09	15.49	15.98	-43.5	-44.6	26.7	6.03e-01	0	40	0	276299776	58	4138
2026-01-21 04:33:59.10	15.33	16.07	-43.6	-44.7	25.7	6.00e-01	0	40	0	277872640	58	4161
2026-01-21 04:34:00.11	15.16	16.17	-43.6	-44.7	26.6	6.02e-01	0	40	0	279969792	58	4168
2026-01-21 04:34:01.11	15.00	16.26	-43.6	-44.7	26.6	6.01e-01	0	40	0	281542656	58	4176
2026-01-21 04:34:02.12	14.83	16.36	-43.7	-44.8	26.6	6.05e-01	0	40	0	283639808	58	4231
2026-01-21 04:34:03.13	14.66	16.45	-43.7	-44.8	26.6	6.01e-01	0	40	0	285212672	58	4207
2026-01-21 04:34:04.14	14.49	16.55	-43.5	-44.6	26.8	6.02e-01	0	40	0	287309824	58	4131
2026-01-21 04:34:05.14	14.32	16.64	-43.5	-44.6	26.8	6.01e-01	0	40	0	289406976	58	4131
2026-01-21 04:34:06.15	14.15	16.74	-43.6	-44.7	26.7	6.01e-01	0	40	0	291504128	58	4191
2026-01-21 04:34:07.16	13.97	16.84	-43.6	-44.7	26.7	6.03e-01	0	40	0	293076992	58	4156
2026-01-21 04:34:08.17	13.80	16.93	-43.6	-44.8	26.7	6.01e-01	0	40	0	295174144	58	4194
2026-01-21 04:34:09.18	13.62	17.03	-43.6	-44.8	26.6	6.02e-01	0	40	0	296747008	58	4196
2026-01-21 04:34:10.19	13.44	17.12	-43.5	-44.6	26.8	6.02e-01	0	40	0	298844160	58	4129
2026-01-21 04:34:11.20	13.26	17.22	-43.4	-44.5	26.9	6.03e-01	0	40	0	300417024	58	4060
2026-01-21 04:34:12.20	13.08	17.32	-43.4	-44.5	26.9	6.02e-01	0	40	0	302514176	58	4091
2026-01-21 04:34:13.21	12.90	17.41	-43.4	-44.5	26.9	6.03e-01	0	40	0	304611328	58	4091
2026-01-21 04:34:14.22	12.72	17.51	-43.4	-44.5	26.9	6.01e-01	0	40	0	306184192	58	4082
2026-01-21 04:34:15.23	12.54	17.61	-43.5	-44.6	26.9	6.02e-01	0	40	0	308281344	58	4115
2026-01-21 04:34:16.23	12.35	17.70	-43.5	-44.6	26.9	6.03e-01	0	40	0	310378496	58	4109
2026-01-21 04:34:17.24	12.17	17.80	-43.5	-44.6	26.6	6.01e-01	0	40	0	311951360	58	4127
2026-01-21 04:34:18.25	11.98	17.90	-43.5	-44.6	26.8	6.02e-01	0	40	0	314048512	58	4143
2026-01-21 04:34:19.26	11.79	18.00	-43.6	-44.7	26.7	6.01e-01	0	40	0	315621376	58	4168
2026-01-21 04:34:20.27	11.60	18.09	-43.6	-44.7	26.7	6.03e-01	0	40	0	317718528	58	4174
2026-01-21 04:34:21.27	11.41	18.19	-43.6	-44.7	26.7	6.01e-01	0	40	0	319815680	58	4157
2026-01-21 04:34:22.28	11.21	18.29	-44.2	-54.8	3.8	7.38e-01	0	40	104	319815680	59	12549
2026-01-21 04:34:23.29	11.02	18.39	-44.0	-54.6	3.9	7.39e-01	0	40	104	319815680	59	12313
2026-01-21 04:34:24.30	10.82	18.49	-43.8	-54.4	3.9	7.40e-01	0	40	104	319815680	59	12035
2026-01-21 04:34:25.31	10.63	18.58	-44.6	-55.3	3.8	7.45e-01	0	40	104	319815680	59	13340
2026-01-21 04:34:26.31	10.43	18.68	-54.2	-70.2	3.8	7.43e-01	0	40	104	319815680	79	23457
2026-01-21 04:34:27.32	10.23	18.78	-44.5	-55.1	3.8	7.46e-01	0	40	104	319815680	61	11672
2026-01-21 04:34:28.33	10.03	18.88	-48.0	-59.2	3.9	7.46e-01	0	40	104	319815680	68	12452
2026-01-21 04:34:29.34	9.83	18.98	-44.0	-54.7	3.8	7.47e-01	0	40	104	319815680	59	12463
2026-01-21 04:34:30.34	9.62	19.07	-44.1	-54.9	3.8	7.47e-01	0	40	104	319815680	59	12708
2026-01-21 04:34:31.35	9.42	19.17	-45.3	-56.3	3.9	7.40e-01	0	40	104	319815680	61	13274
2026-01-21 04:34:32.36	9.21	19.27	-48.0	-59.3	3.8	7.46e-01	0	40	104	319815680	68	12593
2026-01-21 04:34:33.37	9.00	19.37	-45.5	-56.4	3.7	7.46e-01	0	40	104	319815680	61	13452
2026-01-21 04:34:34.37	8.79	19.47	-52.8	-66.3	3.9	7.40e-01	0	40	104	319815680	77	16763
2026-01-21 04:34:35.38	8.58	19.57	-44.0	-54.8	3.8	7.44e-01	0	40	104	319815680	60	11840
2026-01-21 04:34:36.39	8.37	19.67	-47.6	-58.6	3.9	7.42e-01	0	40	104	319815680	67	12340
2026-01-21 04:34:37.40	8.16	19.76	-44.0	-54.6	3.9	7.42e-01	0	40	104	319815680	60	11653
2026-01-21 04:34:38.41	7.94	19.86	-44.2	-54.7	3.7	7.61e-01	0	40	104	319815680	59	12484
2026-01-21 04:34:39.41	7.72	19.96	-44.3	-54.7	4.1	7.37e-01	0	40	104	319815680	59	12473
2026-01-21 04:34:40.42	7.51	20.06	-45.7	-56.5	3.7	7.43e-01	0	40	104	319815680	63	12134
2026-01-21 04:34:41.43	7.29	20.16	-45.5	-56.1	4.3	7.24e-01	0	40	104	319815680	61	13062
2026-01-21 04:34:42.44	7.06	20.26	-49.5	-61.1	3.8	7.50e-01	0	40	104	319815680	71	12977
2026-01-21 04:34:43.44	6.84	20.36	-44.2	-54.7	4.2	7.35e-01	0	40	104	319815680	60	11688
2026-01-21 04:34:44.45	6.62	20.46	-45.8	-56.5	3.8	7.46e-01	0	40	104	319815680	63	12209
2026-01-21 04:34:45.46	6.39	20.55	-44.1	-54.7	3.8	7.46e-01	0	40	104	319815680	60	11806
2026-01-21 04:34:46.47	6.16	20.65	-44.1	-54.8	3.8	7.46e-01	0	40	104	319815680	59	12530
2026-01-21 04:34:47.48	5.93	20.75	-45.1	-55.8	3.8	7.47e-01	0	40	104	319815680	60	13293
2026-01-21 04:34:48.49	5.70	20.85	-45.2	-55.9	3.8	7.42e-01	0	40	104	319815680	62	12084
2026-01-21 04:34:49.49	5.47	20.95	-47.2	-58.1	3.8	7.43e-01	0	40	104	319815680	64	13763
2026-01-21 04:34:50.50	5.24	21.05	-49.2	-60.5	3.9	7.46e-01	0	40	104	319815680	70	12861
2026-01-21 04:34:51.51	5.00	21.15	-44.2	-54.8	3.8	7.44e-01	0	40	104	319815680	59	12612
2026-01-21 04:34:52.52	4.76	21.24	-45.5	-56.4	3.8	7.49e-01	0	40	104	319815680	63	12042
2026-01-21 04:34:53.53	4.52	21.34	-44.1	-54.7	3.9	7.44e-01	0	40	104	319815680	60	11769
2026-01-21 04:34:54.53	4.29	21.44	-44.1	-54.8	3.8	7.49e-01	0	40	104	319815680	60	11838
2026-01-21 04:34:55.54	4.04	21.54	-46.8	-58.0	3.8	7.46e-01	0	40	104	319815680	64	13611
2026-01-21 04:34:56.55	3.80	21.64	-45.1	-55.9	3.8	7.44e-01	0	40	104	319815680	62	12035
2026-01-21 04:34:57.55	3.56	21.73	-50.7	-62.6	3.8	7.45e-01	0	40	104	319815680	71	15560
2026-01-21 04:34:58.56	3.31	21.83	-46.6	-57.5	3.8	7.45e-01	0	40	104	319815680	65	12205
2026-01-21 04:34:59.57	3.06	21.93	-44.8	-55.4	3.8	7.45e-01	0	40	104	319815680	60	12789
2026-01-21 04:35:00.58	2.81	22.03	-45.3	-56.0	3.8	7.46e-01	0	40	104	319815680	62	12157
2026-01-21 04:35:01.59	2.56	22.12	-44.2	-54.9	3.8	7.44e-01	0	40	104	319815680	60	12028
2026-01-21 04:35:02.59	2.31	22.22	-44.3	-54.9	3.9	7.45e-01	0	40	104	319815680	60	12078
2026-01-21 04:35:03.60	2.05	22.32	-45.6	-56.4	3.8	7.50e-01	0	40	104	319815680	61	13477
2026-01-21 04:35:04.61	1.79	22.41	-44.5	-55.2	3.8	7.45e-01	0	40	104	319815680	61	11750
2026-01-21 04:35:05.62	1.53	22.51	-50.4	-62.5	3.8	7.44e-01	0	40	104	319815680	71	15255
2026-01-21 04:35:06.62	1.28	22.61	-47.5	-58.6	3.9	7.42e-01	0	40	104	319815680	67	12283
2026-01-21 04:35:07.63	1.01	22.70	-46.1	-56.9	3.8	7.42e-01	0	40	104	319815680	62	13483
2026-01-21 04:35:08.64	0.75	22.80	-44.8	-55.5	3.9	7.46e-01	0	40	104	319815680	61	12225
2026-01-21 04:35:09.65	0.48	22.89	-44.2	-54.9	3.8	7.46e-01	0	40	104	319815680	60	12012
2026-01-21 04:35:10.66	0.21	22.99	-44.2	-54.9	3.8	7.44e-01	0	40	104	319815680	60	11997
2026-01-21 04:35:11.67	359.95	23.08	-47.6	-58.7	3.8	7.42e-01	0	40	104	319815680	65	13892
2026-01-21 04:35:12.67	359.68	23.18	-44.6	-55.3	3.8	7.46e-01	0	40	104	319815680	61	11822
2026-01-21 04:35:13.68	359.40	23.27	-53.3	-66.9	3.8	7.47e-01	0	40	104	319815680	76	18970
2026-01-21 04:35:14.69	359.13	23.37	-46.0	-56.7	3.8	7.44e-01	0	40	104	319815680	63	12470
2026-01-21 04:35:15.70	358.85	23.46	-45.9	-56.7	3.8	7.44e-01	0	40	104	319815680	62	13259
2026-01-21 04:35:16.70	358.58	23.55	-44.8	-55.5	3.9	7.43e-01	0	40	104	319815680	61	12183
2026-01-21 04:35:17.71	358.30	23.65	-44.3	-55.0	3.8	7.46e-01	0	40	104	319815680	60	12189
2026-01-21 04:35:18.72	358.02	23.74	-44.2	-54.8	3.8	7.42e-01	0	40	104	319815680	60	11896
2026-01-21 04:35:19.73	357.73	23.83	-48.0	-59.1	3.8	7.44e-01	0	40	104	319815680	66	13841
2026-01-21 04:35:20.73	357.45	23.92	-44.6	-55.3	3.8	7.43e-01	0	40	104	319815680	61	11885
2026-01-21 04:35:21.74	357.16	24.02	-54.4	-70.0	3.7	7.45e-01	0	40	104	319815680	79	22861
2026-01-21 04:35:22.75	356.87	24.11	-46.2	-57.0	3.9	7.42e-01	0	40	104	319815680	64	12167
2026-01-21 04:35:23.76	356.58	24.20	-47.2	-58.1	3.8	7.47e-01	0	40	104	319815680	64	13836
2026-01-21 04:35:24.77	356.29	24.29	-44.4	-54.8	3.9	7.45e-01	0	40	104	319815680	60	11894
2026-01-21 04:35:25.78	356.00	24.38	-44.2	-54.9	3.9	7.43e-01	0	40	104	319815680	60	11985
2026-01-21 04:35:26.78	355.70	24.47	-44.3	-54.9	3.9	7.46e-01	0	40	104	319815680	60	12071
2026-01-21 04:35:27.79	355.41	24.56	-47.7	-58.8	3.9	7.46e-01	0	40	104	319815680	65	14093
2026-01-21 04:35:28.80	355.11	24.65	-44.6	-55.4	3.8	7.43e-01	0	40	104	319815680	61	12019
2026-01-21 04:35:29.81	354.81	24.73	-54.3	-69.8	3.7	7.50e-01	0	40	104	319815680	79	22422
2026-01-21 04:35:30.81	354.51	24.82	-47.2	-58.1	3.8	7.41e-01	0	40	104	319815680	66	12293
2026-01-21 04:35:31.82	354.20	24.91	-47.8	-59.1	3.8	7.46e-01	0	40	104	319815680	66	13781
2026-01-21 04:35:32.83	353.90	25.00	-44.9	-55.3	3.9	7.45e-01	0	40	104	319815680	61	11898
2026-01-21 04:35:33.84	353.59	25.08	-44.7	-55.5	3.8	7.46e-01	0	40	104	319815680	61	12192
2026-01-21 04:35:34.85	353.28	25.17	-44.8	-55.5	3.8	7.44e-01	0	40	104	319815680	61	12149
2026-01-21 04:35:35.85	352.97	25.25	-48.7	-60.0	3.8	7.42e-01	0	40	104	319815680	67	14478
2026-01-21 04:35:36.86	352.66	25.33	-44.6	-55.3	3.9	7.42e-01	0	40	104	319815680	61	11921
2026-01-21 04:35:37.87	352.34	25.42	-54.6	-70.7	3.8	7.46e-01	0	40	104	319815680	79	24958
2026-01-21 04:35:38.88	352.02	25.50	-47.1	-58.0	3.8	7.46e-01	0	40	104	319815680	66	12145
2026-01-21 04:35:39.89	351.70	25.58	-48.9	-60.3	3.8	7.46e-01	0	40	104	319815680	68	14069
2026-01-21 04:35:40.89	351.39	25.66	-45.7	-56.5	3.8	7.45e-01	0	40	104	319815680	63	12116
2026-01-21 04:35:41.90	351.06	25.75	-45.3	-56.0	3.8	7.43e-01	0	40	104	319815680	62	12179
2026-01-21 04:35:42.91	350.74	25.83	-44.7	-55.4	3.8	7.41e-01	0	40	104	319815680	61	11971
2026-01-21 04:35:43.92	350.42	25.91	-46.6	-57.5	3.8	7.47e-01	0	40	104	319815680	63	13708
2026-01-21 04:35:44.93	350.09	25.98	-44.6	-55.4	3.8	7.44e-01	0	40	104	319815680	60	12695
2026-01-21 04:35:45.93	349.76	26.06	-54.7	-71.0	3.8	7.43e-01	0	40	104	319815680	79	25621
2026-01-21 04:35:46.94	349.43	26.14	-46.7	-57.6	3.8	7.44e-01	0	40	104	319815680	65	12271
2026-01-21 04:35:47.95	349.10	26.22	-49.5	-60.9	3.8	7.43e-01	0	40	104	319815680	69	14305
2026-01-21 04:35:48.96	348.76	26.29	-44.6	-55.3	3.8	7.44e-01	0	40	104	319815680	61	11910
2026-01-21 04:35:49.97	348.43	26.37	-44.4	-55.1	3.8	7.47e-01	0	40	104	319815680	60	12268
2026-01-21 04:35:50.97	348.09	26.44	-44.5	-55.1	3.8	7.44e-01	0	40	104	319815680	60	12352
2026-01-21 04:35:51.98	347.76	26.51	-48.4	-59.6	3.8	7.45e-01	0	40	104	319815680	67	13840
2026-01-21 04:35:52.99	347.41	26.58	-44.6	-55.3	3.8	7.43e-01	0	40	104	319815680	60	12638
2026-01-21 04:35:54.00	347.07	26.66	-54.7	-70.9	3.8	7.45e-01	0	40	104	319815680	79	25407
2026-01-21 04:35:55.01	346.73	26.73	-46.8	-57.7	3.8	7.43e-01	0	40	104	319815680	65	12478
2026-01-21 04:35:56.01	346.39	26.80	-49.5	-61.0	3.8	7.43e-01	0	40	104	319815680	69	14526
2026-01-21 04:35:57.02	346.04	26.86	-44.5	-55.2	3.8	7.46e-01	0	40	104	319815680	61	11706
2026-01-21 04:35:58.03	345.69	26.93	-44.2	-54.9	3.8	7.42e-01	0	40	104	319815680	60	11985
2026-01-21 04:35:59.04	345.34	27.00	-44.0	-54.7	3.8	7.47e-01	0	40	104	319815680	59	12462
2026-01-21 04:36:00.05	344.99	27.06	-47.8	-59.0	3.8	7.44e-01	0	40	104	319815680	67	12811
2026-01-21 04:36:01.05	344.64	27.13	-44.7	-55.4	3.8	7.44e-01	0	40	104	319815680	61	12023
2026-01-21 04:36:02.06	344.28	27.19	-54.6	-70.7	3.8	7.43e-01	0	40	104	319815680	79	24955
2026-01-21 04:36:03.07	343.93	27.26	-46.2	-57.1	3.8	7.46e-01	0	40	104	319815680	64	12262
2026-01-21 04:36:04.08	343.57	27.32	-49.8	-61.3	3.8	7.40e-01	0	40	104	319815680	70	14202
2026-01-21 04:36:05.09	343.21	27.38	-45.2	-55.9	3.8	7.47e-01	0	40	104	319815680	62	12052
2026-01-21 04:36:06.09	342.85	27.44	-45.0	-55.7	3.8	7.44e-01	0	40	104	319815680	62	11712
2026-01-21 04:36:07.10	342.49	27.50	-44.7	-55.5	3.8	7.45e-01	0	40	104	319815680	61	12118
2026-01-21 04:36:08.11	342.13	27.55	-45.1	-55.8	3.8	7.46e-01	0	40	104	319815680	61	12661
2026-01-21 04:36:09.12	341.76	27.61	-44.8	-55.5	3.8	7.40e-01	0	40	104	319815680	60	12884
2026-01-21 04:36:10.13	341.40	27.66	-54.6	-70.6	3.8	7.43e-01	0	40	104	319815680	80	23195
2026-01-21 04:36:11.14	341.03	27.72	-45.5	-56.3	3.8	7.44e-01	0	40	104	319815680	63	11902
2026-01-21 04:36:12.15	340.66	27.77	-49.2	-60.6	3.8	7.44e-01	0	40	104	319815680	69	13866
2026-01-21 04:36:13.15	340.30	27.82	-44.9	-55.6	3.8	7.44e-01	0	40	104	319815680	61	12347
2026-01-21 04:36:14.16	339.93	27.87	-44.4	-55.1	3.8	7.43e-01	0	40	104	319815680	60	12240
2026-01-21 04:36:15.17	339.55	27.92	-44.0	-54.7	3.8	7.44e-01	0	40	104	319815680	60	11771
2026-01-21 04:36:16.18	339.18	27.97	-46.2	-57.1	3.9	7.41e-01	0	40	104	319815680	64	12300
2026-01-21 04:36:17.19	338.81	28.02	-44.3	-55.1	3.8	7.44e-01	0	40	104	319815680	60	12238
2026-01-21 04:36:18.19	338.43	28.06	-54.3	-69.5	3.9	7.40e-01	0	40	104	319815680	79	21517
2026-01-21 04:36:19.20	338.06	28.11	-45.4	-55.8	3.8	7.43e-01	0	40	104	319815680	62	11883
2026-01-21 04:36:20.21	337.68	28.15	-49.2	-60.6	3.8	7.42e-01	0	40	104	319815680	69	13760
2026-01-21 04:36:21.22	337.30	28.19	-44.8	-55.5	3.8	7.44e-01	0	40	104	319815680	61	12198
2026-01-21 04:36:22.23	336.92	28.23	-44.6	-55.3	3.9	7.43e-01	0	40	104	319815680	61	11869
2026-01-21 04:36:23.24	336.54	28.27	-44.0	-54.7	3.9	7.44e-01	0	40	104	319815680	59	12398
2026-01-21 04:36:24.25	336.16	28.31	-44.8	-55.6	3.9	7.45e-01	0	40	104	319815680	61	12343
2026-01-21 04:36:25.25	335.78	28.35	-44.0	-54.7	3.8	7.42e-01	0	40	104	319815680	60	11794
2026-01-21 04:36:26.26	335.39	28.38	-52.9	-66.4	3.9	7.43e-01	0	40	104	319815680	78	16071
2026-01-21 04:36:27.27	335.01	28.42	-44.7	-55.3	3.8	7.47e-01	0	40	104	319815680	61	11944
2026-01-21 04:36:28.28	334.62	28.45	-48.4	-59.7	3.9	7.46e-01	0	40	104	319815680	68	13209
2026-01-21 04:36:29.29	334.24	28.48	-44.5	-55.2	3.8	7.45e-01	0	40	104	319815680	61	11752
2026-01-21 04:36:30.29	333.85	28.51	-44.5	-55.2	3.9	7.44e-01	0	40	104	319815680	60	12510
2026-01-21 04:36:31.30	333.47	28.54	-44.2	-54.9	3.8	7.43e-01	0	40	104	319815680	60	12003
2026-01-21 04:36:32.31	333.08	28.57	-45.1	-55.9	3.8	7.47e-01	0	40	104	319815680	62	11982
2026-01-21 04:36:33.32	332.69	28.59	-44.0	-54.6	3.8	7.41e-01	0	40	104	319815680	60	11640
2026-01-21 04:36:34.33	332.30	28.62	-52.6	-65.7	3.9	7.42e-01	0	40	104	319815680	77	15607
2026-01-21 04:36:35.33	331.91	28.64	-44.0	-54.7	3.8	7.45e-01	0	40	104	319815680	60	11809
2026-01-21 04:36:36.34	331.52	28.66	-46.9	-58.1	3.8	7.42e-01	0	40	104	319815680	66	12244
2026-01-21 04:36:37.35	331.13	28.68	-44.0	-54.6	3.8	7.39e-01	0	40	104	319815680	60	11574
2026-01-21 04:36:38.36	330.74	28.70	-44.1	-54.6	3.8	7.44e-01	0	40	104	319815680	59	12317
2026-01-21 04:36:39.36	330.35	28.72	-44.3	-54.9	3.8	7.39e-01	0	40	104	319815680	59	12701
2026-01-21 04:36:40.37	329.96	28.73	-46.0	-56.9	3.9	7.43e-01	0	40	104	319815680	64	12057
2026-01-21 04:36:41.38	329.56	28.75	-44.1	-54.7	3.8	7.46e-01	0	40	104	319815680	60	11781
2026-01-21 04:36:42.39	329.17	28.76	-51.6	-64.0	3.9	7.45e-01	0	40	104	319815680	75	14445
2026-01-21 04:36:43.40	328.77	28.77	-45.3	-56.0	3.9	7.46e-01	0	40	104	319815680	62	12160
2026-01-21 04:36:44.40	328.38	28.78	-48.8	-60.1	3.9	7.42e-01	0	40	104	319815680	69	13012
2026-01-21 04:36:45.41	327.99	28.79	-45.7	-56.5	3.8	7.45e-01	0	40	104	319815680	63	12110
2026-01-21 04:36:46.42	327.60	28.79	-45.3	-56.0	3.8	7.40e-01	0	40	104	319815680	62	12172
2026-01-21 04:36:47.43	327.20	28.80	-44.9	-55.5	3.9	7.43e-01	0	40	104	319815680	61	12178
2026-01-21 04:36:48.44	326.81	28.80	-44.7	-55.5	3.8	7.45e-01	0	40	104	319815680	61	12098
2026-01-21 04:36:49.45	326.41	28.81	-45.2	-55.8	3.8	7.45e-01	0	40	104	319815680	60	13280
2026-01-21 04:36:50.45	326.02	28.81	-49.6	-61.1	3.9	7.46e-01	0	40	104	319815680	71	13099
2026-01-21 04:36:51.46	325.62	28.81	-44.9	-55.5	3.8	7.42e-01	0	40	104	319815680	61	12195
2026-01-21 04:36:52.47	325.23	28.81	-47.5	-58.7	3.9	7.41e-01	0	40	104	319815680	67	12401
2026-01-21 04:36:53.48	324.83	28.80	-46.0	-56.8	3.8	7.43e-01	0	41	104	319815680	63	12659
2026-01-21 04:36:54.48	324.44	28.80	-45.2	-55.9	3.8	7.45e-01	0	40	104	319815680	62	12082
2026-01-21 04:36:55.49	324.05	28.79	-44.0	-54.6	3.9	7.45e-01	0	40	104	319815680	60	11589
2026-01-21 04:36:56.50	323.65	28.78	-44.7	-55.4	3.8	7.46e-01	0	40	104	319815680	60	12779
2026-01-21 04:36:57.51	323.26	28.77	-45.1	-55.7	3.8	7.45e-01	0	40	104	319815680	60	13174
2026-01-21 04:36:58.52	322.86	28.76	-49.6	-61.1	3.9	7.43e-01	0	40	104	319815680	71	13020
2026-01-21 04:36:59.53	322.47	28.75	-44.9	-55.6	3.9	7.41e-01	0	40	104	319815680	61	12283
2026-01-21 04:37:00.53	322.08	28.74	-45.9	-56.9	3.8	7.45e-01	0	40	104	319815680	64	11973
2026-01-21 04:37:01.54	321.69	28.72	-45.4	-56.1	3.8	7.45e-01	0	40	104	319815680	62	12305
2026-01-21 04:37:02.55	321.29	28.71	-45.4	-56.2	3.8	7.42e-01	0	40	104	319815680	62	12466
2026-01-21 04:37:03.56	320.90	28.69	-44.4	-55.0	3.9	7.45e-01	0	40	104	319815680	60	12216
2026-01-21 04:37:04.57	320.51	28.67	-45.6	-56.3	3.8	7.42e-01	0	40	104	319815680	61	13301
2026-01-21 04:37:05.58	320.12	28.65	-45.5	-56.1	3.9	7.46e-01	0	40	104	319815680	62	12295
2026-01-21 04:37:06.58	319.73	28.63	-46.2	-57.1	3.8	7.43e-01	0	40	104	319815680	63	13054
2026-01-21 04:37:07.59	319.34	28.60	-48.1	-59.4	3.9	7.47e-01	0	40	104	319815680	66	14219
2026-01-21 04:37:08.60	318.95	28.58	-48.0	-59.2	3.8	7.44e-01	0	40	104	319815680	68	12466
2026-01-21 04:37:09.61	318.56	28.55	-45.5	-56.1	3.8	7.45e-01	0	40	104	319815680	63	11655
2026-01-21 04:37:10.62	318.17	28.52	-45.5	-56.2	3.8	7.41e-01	0	40	104	319815680	62	12455
2026-01-21 04:37:11.63	317.79	28.49	-48.7	-59.9	3.8	7.45e-01	0	40	104	319815680	67	14254
2026-01-21 04:37:12.63	317.40	28.46	-49.0	-60.5	3.8	7.46e-01	0	40	104	319815680	70	12897
2026-01-21 04:37:13.64	317.02	28.43	-46.7	-57.7	3.8	7.42e-01	0	40	104	319815680	63	13965
2026-01-21 04:37:14.64	316.64	28.40	-46.4	-57.3	3.8	7.43e-01	0	40	104	319815680	64	12530
2026-01-21 04:37:15.65	316.25	28.36	-50.1	-61.5	3.9	7.43e-01	0	40	104	319815680	70	14418
2026-01-21 04:37:16.66	315.87	28.33	-46.5	-57.1	3.9	7.41e-01	0	40	104	319815680	65	11681
2026-01-21 04:37:17.67	315.49	28.29	-45.5	-56.2	3.8	7.45e-01	0	40	104	319815680	63	11783
2026-01-21 04:37:18.68	315.10	28.25	-45.3	-56.2	3.8	7.46e-01	0	40	104	319815680	62	12489
2026-01-21 04:37:19.69	314.72	28.21	-45.6	-56.8	3.8	7.46e-01	0	40	104	319815680	61	14060
2026-01-21 04:37:20.70	314.34	28.17	-46.8	-57.9	3.8	7.44e-01	0	40	104	319815680	64	13442
2026-01-21 04:37:21.71	313.96	28.13	-46.3	-56.6	3.8	7.44e-01	0	40	104	319815680	62	13014
2026-01-21 04:37:22.71	313.59	28.08	-46.8	-57.2	3.8	7.48e-01	0	40	104	319815680	64	12477
2026-01-21 04:37:23.72	313.21	28.04	-50.3	-61.8	3.8	7.46e-01	0	40	104	319815680	70	14890
2026-01-21 04:37:24.73	312.84	27.99	-47.2	-58.9	3.8	7.44e-01	0	40	104	319815680	66	13472
2026-01-21 04:37:25.74	312.46	27.95	-45.7	-57.3	3.8	7.46e-01	0	40	104	319815680	63	13314
2026-01-21 04:37:26.75	312.09	27.90	-46.0	-57.1	3.8	7.44e-01	0	40	104	319815680	63	13004
2026-01-21 04:37:27.76	311.72	27.85	-50.0	-61.1	3.8	7.47e-01	0	40	104	319815680	70	13783
2026-01-21 04:37:28.76	311.35	27.80	-48.8	-59.4	3.8	7.44e-01	0	40	104	319815680	69	12044
2026-01-21 04:37:29.77	310.98	27.74	-47.7	-58.6	3.8	7.48e-01	0	40	104	319815680	65	13821
2026-01-21 04:37:30.78	310.61	27.69	-47.3	-59.1	3.8	7.46e-01	0	40	104	319815680	65	14550
2026-01-21 04:37:31.79	310.25	27.63	-51.7	-64.6	3.8	7.45e-01	0	40	104	319815680	73	17367
2026-01-21 04:37:32.80	309.88	27.58	-46.0	-56.6	3.9	7.48e-01	0	40	104	319815680	63	12360
2026-01-21 04:37:33.80	309.52	27.52	-46.1	-56.3	3.8	7.43e-01	0	40	104	319815680	63	11833
2026-01-21 04:37:34.81	309.16	27.46	-45.9	-56.3	3.8	7.42e-01	0	40	104	319815680	63	11886
2026-01-21 04:37:35.82	308.80	27.41	-45.6	-56.2	3.8	7.44e-01	0	40	104	319815680	61	13248
2026-01-21 04:37:36.82	308.44	27.35	-47.9	-59.2	3.8	7.44e-01	0	40	104	319815680	66	13915
2026-01-21 04:37:37.83	308.08	27.28	-48.1	-59.1	3.9	7.44e-01	0	40	104	319815680	66	13737
2026-01-21 04:37:38.84	307.72	27.22	-47.2	-58.3	3.8	7.41e-01	0	40	104	319815680	64	14145
2026-01-21 04:37:39.85	307.37	27.16	-52.6	-66.0	3.8	7.44e-01	0	40	104	319815680	75	18194
2026-01-21 04:37:40.86	307.01	27.09	-45.4	-56.3	3.9	7.46e-01	0	40	104	319815680	62	12598
2026-01-21 04:37:41.86	306.66	27.03	-45.6	-56.1	3.8	7.46e-01	0	40	104	319815680	62	12375
2026-01-21 04:37:42.87	306.31	26.96	-45.3	-55.7	3.8	7.43e-01	0	40	104	319815680	62	11798
2026-01-21 04:37:43.88	305.96	26.90	-48.8	-60.1	3.8	7.46e-01	0	40	104	319815680	68	13744
2026-01-21 04:37:44.89	305.61	26.83	-48.6	-59.9	3.8	7.43e-01	0	40	104	319815680	68	13471
2026-01-21 04:37:45.89	305.27	26.76	-48.7	-59.8	3.8	7.43e-01	0	40	104	319815680	67	14203
2026-01-21 04:37:46.91	304.92	26.69	-48.2	-59.5	3.8	7.40e-01	0	40	104	319815680	66	14497
2026-01-21 04:37:47.91	304.58	26.62	-52.4	-65.5	3.8	7.44e-01	0	40	104	319815680	75	17203
2026-01-21 04:37:48.92	304.24	26.54	-45.7	-56.3	3.9	7.41e-01	0	40	104	319815680	63	11844
2026-01-21 04:37:49.93	303.90	26.47	-45.6	-55.8	3.9	7.47e-01	0	40	104	319815680	63	11169
2026-01-21 04:37:50.94	303.56	26.40	-45.4	-55.9	3.8	7.43e-01	0	40	104	319815680	62	12055
2026-01-21 04:37:51.95	303.22	26.32	-46.4	-57.7	3.8	7.42e-01	0	40	104	319815680	63	13929
2026-01-21 04:37:52.96	302.89	26.25	-49.6	-61.2	3.8	7.45e-01	0	40	104	319815680	69	14873
2026-01-21 04:37:53.96	302.56	26.17	-48.3	-59.6	3.9	7.45e-01	0	40	104	319815680	67	13773
2026-01-21 04:37:54.97	302.23	26.10	-48.0	-58.8	3.8	7.44e-01	0	40	104	319815680	66	13379
2026-01-21 04:37:55.98	301.90	26.02	-52.8	-65.6	3.8	7.45e-01	0	40	104	319815680	76	16360
2026-01-21 04:37:56.99	301.57	25.94	-45.2	-56.7	3.9	7.45e-01	0	40	104	319815680	62	13188
2026-01-21 04:37:58.00	301.24	25.86	-45.0	-56.0	3.8	7.43e-01	0	40	104	319815680	62	12182
2026-01-21 04:37:59.00	300.92	25.78	-45.0	-55.1	3.8	7.47e-01	0	40	104	319815680	62	11004
2026-01-21 04:38:00.01	300.60	25.70	-47.1	-57.7	3.9	7.43e-01	0	40	104	319815680	65	12402
2026-01-21 04:38:01.02	300.27	25.62	-48.3	-60.1	3.8	7.43e-01	0	40	104	319815680	66	15544
2026-01-21 04:38:02.03	299.95	25.54	-52.5	-65.3	3.8	7.45e-01	0	40	104	319815680	75	16820
2026-01-21 04:38:03.04	299.64	25.45	-49.1	-60.0	3.8	7.48e-01	0	40	104	319815680	70	12185
2026-01-21 04:38:04.04	299.32	25.37	-51.1	-62.9	3.8	7.44e-01	0	40	104	319815680	72	15095
2026-01-21 04:38:05.05	299.01	25.29	-47.0	-58.3	3.8	7.47e-01	0	40	104	319815680	65	13299
2026-01-21 04:38:06.06	298.69	25.20	-47.1	-58.3	3.8	7.43e-01	0	40	104	319815680	65	13263
2026-01-21 04:38:07.07	298.38	25.12	-46.9	-57.4	3.8	7.45e-01	0	40	104	319815680	65	11963
2026-01-21 04:38:08.07	298.08	25.03	-48.1	-59.1	3.9	7.43e-01	0	40	104	319815680	67	13030
2026-01-21 04:38:09.08	297.77	24.94	-51.9	-65.2	3.8	7.44e-01	0	40	104	319815680	75	16668
2026-01-21 04:38:10.09	297.46	24.86	-48.3	-58.9	3.8	7.44e-01	0	40	104	319815680	67	12734
2026-01-21 04:38:11.10	297.16	24.77	-47.9	-58.8	3.9	7.45e-01	0	40	104	319815680	67	12610
2026-01-21 04:38:12.10	296.86	24.68	-50.7	-63.0	3.8	7.44e-01	0	40	104	319815680	72	15321
2026-01-21 04:38:13.11	296.56	24.59	-46.4	-56.7	3.8	7.45e-01	0	40	104	319815680	64	11758
2026-01-21 04:38:14.12	296.26	24.51	-46.5	-57.8	3.8	7.42e-01	0	40	104	319815680	64	13315
2026-01-21 04:38:15.12	295.96	24.42	-46.0	-56.8	3.8	7.44e-01	0	40	104	319815680	64	11877
2026-01-21 04:38:16.13	295.67	24.33	-45.7	-56.4	3.9	7.46e-01	0	40	104	319815680	62	12724
2026-01-21 04:38:17.14	295.37	24.24	-47.2	-58.1	3.8	7.42e-01	0	40	104	319815680	66	12369
2026-01-21 04:38:18.15	295.08	24.14	-51.4	-63.8	3.8	7.44e-01	0	40	104	319815680	74	14890
2026-01-21 04:38:19.16	294.79	24.05	-48.0	-58.6	3.9	7.40e-01	0	40	104	319815680	67	12311
2026-01-21 04:38:20.16	294.51	23.96	-50.6	-62.4	3.8	7.45e-01	0	40	104	319815680	72	14286
2026-01-21 04:38:21.17	294.22	23.87	-46.8	-57.9	3.8	7.46e-01	0	40	104	319815680	65	12780
2026-01-21 04:38:22.18	293.94	23.78	-46.6	-57.2	3.8	7.41e-01	0	40	104	319815680	65	11687
2026-01-21 04:38:23.19	293.65	23.68	-46.2	-57.4	3.8	7.43e-01	0	40	104	319815680	64	12674
2026-01-21 04:38:24.20	293.37	23.59	-46.8	-57.4	3.8	7.45e-01	0	40	104	319815680	65	11968
2026-01-21 04:38:25.20	293.09	23.50	-48.4	-60.1	3.9	7.43e-01	0	40	104	319815680	69	13095
2026-01-21 04:38:26.21	292.82	23.40	-47.1	-57.8	3.8	7.44e-01	0	40	104	319815680	66	11930
2026-01-21 04:38:27.22	292.54	23.31	-47.2	-58.5	3.8	7.43e-01	0	40	104	319815680	66	12869
2026-01-21 04:38:28.23	292.27	23.22	-51.4	-63.1	3.8	7.44e-01	0	40	104	319815680	74	13810
2026-01-21 04:38:29.24	291.99	23.12	-46.0	-57.2	3.8	7.46e-01	0	40	104	319815680	63	13159
2026-01-21 04:38:30.25	291.72	23.03	-46.3	-56.9	3.8	7.46e-01	0	40	104	319815680	63	12752
2026-01-21 04:38:31.25	291.46	22.93	-47.1	-58.4	3.8	7.44e-01	0	40	104	319815680	64	14346
2026-01-21 04:38:32.26	291.19	22.83	-51.8	-63.7	3.8	7.44e-01	0	40	104	319815680	75	13979
2026-01-21 04:38:33.27	290.92	22.74	-45.8	-57.0	3.8	7.43e-01	0	40	104	319815680	63	12853
2026-01-21 04:38:34.28	290.66	22.64	-49.4	-60.8	3.8	7.45e-01	0	40	104	319815680	71	12584
2026-01-21 04:38:35.29	290.40	22.55	-47.3	-58.7	3.8	7.44e-01	0	40	104	319815680	66	13176
2026-01-21 04:38:36.29	290.14	22.45	-50.8	-62.4	3.8	7.43e-01	0	40	104	319815680	73	13415
2026-01-21 04:38:37.31	289.88	22.35	-46.8	-57.8	3.9	7.46e-01	0	40	104	319815680	65	12644
2026-01-21 04:38:38.31	289.62	22.26	-46.2	-56.9	3.8	7.44e-01	0	40	104	319815680	64	12007
2026-01-21 04:38:39.32	289.37	22.16	-46.2	-57.3	3.8	7.44e-01	0	40	104	319815680	64	12642
2026-01-21 04:38:40.33	289.12	22.06	-48.6	-59.7	3.8	7.44e-01	0	40	104	319815680	68	13194
2026-01-21 04:38:41.33	288.87	21.96	-47.9	-58.9	3.8	7.45e-01	0	40	104	319815680	67	12764
2026-01-21 04:38:42.34	288.62	21.87	-47.0	-58.1	3.8	7.42e-01	0	40	104	319815680	66	12348
2026-01-21 04:38:43.35	288.37	21.77	-45.2	-55.5	3.8	7.45e-01	0	40	104	319815680	62	11512
2026-01-21 04:38:44.36	288.12	21.67	-47.9	-59.4	3.8	7.43e-01	0	40	104	319815680	67	13458
2026-01-21 04:38:45.36	287.88	21.57	-45.2	-55.7	3.8	7.42e-01	0	40	104	319815680	62	11735
2026-01-21 04:38:46.37	287.63	21.47	-45.1	-55.9	3.8	7.43e-01	0	40	104	319815680	62	12017
2026-01-21 04:38:47.38	287.39	21.38	-45.4	-56.2	3.8	7.48e-01	0	40	104	319815680	62	12487
2026-01-21 04:38:48.39	287.15	21.28	-46.2	-56.9	3.8	7.48e-01	0	40	104	319815680	64	12018
2026-01-21 04:38:49.40	286.91	21.18	-45.5	-57.0	3.8	7.41e-01	0	40	104	319815680	63	12936
2026-01-21 04:38:50.41	286.67	21.08	-49.1	-59.9	3.8	7.42e-01	0	40	104	319815680	70	11970
2026-01-21 04:38:51.41	286.44	20.98	-45.5	-56.6	3.8	7.42e-01	0	40	104	319815680	63	12279
2026-01-21 04:38:52.42	286.21	20.88	-48.0	-59.6	3.8	7.44e-01	0	40	104	319815680	68	13039
2026-01-21 04:38:53.43	285.97	20.78	-45.9	-56.0	3.8	7.44e-01	0	40	104	319815680	63	11478
2026-01-21 04:38:54.44	285.74	20.68	-45.8	-57.5	3.8	7.44e-01	0	40	104	319815680	63	13707
2026-01-21 04:38:55.44	285.52	20.59	-45.4	-55.7	3.8	7.46e-01	0	40	104	319815680	62	11751
2026-01-21 04:38:56.45	285.29	20.49	-46.5	-57.2	3.8	7.44e-01	0	40	104	319815680	63	13232
2026-01-21 04:38:57.46	285.06	20.39	-45.0	-56.2	3.9	7.42e-01	0	40	104	319815680	62	12444
2026-01-21 04:38:58.47	284.84	20.29	-46.5	-57.0	3.9	7.47e-01	0	40	104	319815680	65	11467
2026-01-21 04:38:59.48	284.62	20.19	-45.4	-56.3	3.8	7.47e-01	0	40	104	319815680	62	12600
2026-01-21 04:39:00.49	284.39	20.09	-46.8	-58.0	3.8	7.45e-01	0	40	104	319815680	65	12956
2026-01-21 04:39:01.49	284.18	19.99	-45.3	-55.4	3.8	7.41e-01	0	40	104	319815680	62	11315
2026-01-21 04:39:02.50	283.96	19.89	-45.5	-56.1	3.8	7.43e-01	0	40	104	319815680	62	12306
2026-01-21 04:39:03.51	283.74	19.79	-45.3	-56.9	3.8	7.42e-01	0	40	104	319815680	62	13533
2026-01-21 04:39:04.52	283.52	19.70	-46.3	-56.7	3.8	7.46e-01	0	40	104	319815680	63	12398
2026-01-21 04:39:05.53	283.31	19.60	-45.1	-55.6	3.8	7.45e-01	0	40	104	319815680	62	11578
2026-01-21 04:39:06.54	283.10	19.50	-48.1	-60.1	3.9	7.48e-01	0	40	104	319815680	67	14580
2026-01-21 04:39:07.55	282.89	19.40	-46.6	-57.2	3.8	7.50e-01	0	40	104	319815680	63	13216
2026-01-21 04:39:08.55	282.68	19.30	-47.0	-57.4	3.9	7.44e-01	0	40	104	319815680	66	11359
2026-01-21 04:39:09.56	282.47	19.20	-46.2	-57.8	3.8	7.45e-01	0	40	104	319815680	64	13397
2026-01-21 04:39:10.57	282.26	19.10	-45.9	-57.1	3.8	7.42e-01	0	40	104	319815680	63	13033
2026-01-21 04:39:11.58	282.06	19.00	-46.1	-56.2	3.8	7.42e-01	0	40	104	319815680	62	12443
2026-01-21 04:39:12.58	281.86	18.91	-48.5	-59.5	3.8	7.41e-01	0	40	104	319815680	67	13588
2026-01-21 04:39:13.59	281.65	18.81	-45.6	-56.8	3.8	7.47e-01	0	40	104	319815680	61	14136
2026-01-21 04:39:14.60	281.45	18.71	-46.5	-57.5	3.8	7.46e-01	0	40	104	319815680	65	12164
2026-01-21 04:39:15.61	281.25	18.61	-46.7	-57.0	3.8	7.42e-01	0	40	104	319815680	63	12958
2026-01-21 04:39:16.62	281.05	18.51	-46.2	-57.1	3.8	7.42e-01	0	40	104	319815680	64	12365
2026-01-21 04:39:17.62	280.86	18.41	-45.5	-56.9	3.8	7.44e-01	0	40	104	319815680	62	13520
2026-01-21 04:39:18.63	280.66	18.32	-45.9	-56.7	3.8	7.45e-01	0	40	104	319815680	62	13131
2026-01-21 04:39:19.64	280.47	18.22	-46.4	-56.8	3.8	7.45e-01	0	40	104	319815680	63	12652
2026-01-21 04:39:20.65	280.28	18.12	-48.7	-59.9	3.9	7.46e-01	0	40	104	319815680	67	14356
2026-01-21 04:39:21.66	280.08	18.02	-47.1	-58.4	3.8	7.44e-01	0	40	104	319815680	64	14305
2026-01-21 04:39:22.67	279.89	17.92	-47.9	-59.0	3.8	7.45e-01	0	40	104	319815680	67	12841
2026-01-21 04:39:23.67	279.71	17.83	-47.6	-58.2	3.9	7.44e-01	0	40	104	319815680	65	13215
2026-01-21 04:39:24.68	279.52	17.73	-45.7	-56.3	3.8	7.44e-01	0	40	104	319815680	63	11909
2026-01-21 04:39:25.69	279.33	17.63	-45.3	-56.4	3.9	7.44e-01	0	40	104	319815680	62	12707
2026-01-21 04:39:26.70	279.15	17.53	-45.2	-56.3	3.9	7.42e-01	0	40	104	319815680	62	12526
2026-01-21 04:39:27.70	278.97	17.44	-47.5	-58.4	3.8	7.42e-01	0	40	104	319815680	65	13490
2026-01-21 04:39:28.71	278.78	17.34	-48.3	-59.3	3.9	7.46e-01	0	40	104	319815680	67	13402
2026-01-21 04:39:29.72	278.60	17.24	-47.1	-57.9	3.8	7.44e-01	0	40	104	319815680	64	13514
2026-01-21 04:39:30.73	278.42	17.15	-47.0	-58.3	3.8	7.42e-01	0	40	104	319815680	65	13307
2026-01-21 04:39:31.73	278.24	17.05	-49.5	-61.2	3.9	7.45e-01	0	40	104	319815680	69	14819
2026-01-21 04:39:32.74	278.07	16.95	-45.6	-56.4	3.8	7.44e-01	0	40	104	319815680	63	11979
2026-01-21 04:39:33.75	277.89	16.86	-45.9	-56.4	3.8	7.47e-01	0	40	104	319815680	63	11986
2026-01-21 04:39:34.76	277.72	16.76	-45.5	-56.2	3.8	7.43e-01	0	40	104	319815680	62	12431
2026-01-21 04:39:35.77	277.54	16.66	-47.0	-58.1	3.8	7.45e-01	0	40	104	319815680	64	13766
2026-01-21 04:39:36.77	277.37	16.57	-48.9	-60.3	3.9	7.42e-01	0	40	104	319815680	68	14109
2026-01-21 04:39:37.78	277.20	16.47	-48.0	-59.1	3.8	7.45e-01	0	40	104	319815680	66	13783
2026-01-21 04:39:38.79	277.03	16.38	-47.8	-58.8	3.8	7.46e-01	0	40	104	319815680	66	13271
2026-01-21 04:39:39.80	276.86	16.28	-48.7	-59.8	3.8	7.44e-01	0	40	104	319815680	67	14173
2026-01-21 04:39:40.80	276.69	16.19	-45.3	-56.0	3.8	7.47e-01	0	40	104	319815680	62	12209
2026-01-21 04:39:41.81	276.52	16.09	-45.3	-56.3	3.8	7.45e-01	0	40	104	319815680	62	12534
2026-01-21 04:39:42.82	276.36	16.00	-45.0	-55.8	3.8	7.41e-01	0	40	104	319815680	62	11926
2026-01-21 04:39:43.82	276.20	15.90	-49.1	-60.5	3.8	7.44e-01	0	40	104	319815680	68	14519
2026-01-21 04:39:44.83	276.03	15.81	-49.0	-60.4	3.8	7.44e-01	0	40	104	319815680	68	14267
2026-01-21 04:39:45.84	275.87	15.72	-50.1	-61.7	3.8	7.45e-01	0	40	104	319815680	70	14755
2026-01-21 04:39:46.85	275.71	15.62	-47.4	-58.6	3.8	7.42e-01	0	40	104	319815680	66	12990
2026-01-21 04:39:47.86	275.55	15.53	-50.7	-63.1	3.8	7.45e-01	0	40	104	319815680	72	15571
2026-01-21 04:39:48.87	275.39	15.43	-45.6	-56.5	3.8	7.43e-01	0	40	104	319815680	63	12228
2026-01-21 04:39:49.87	275.23	15.34	-45.5	-56.2	3.8	7.40e-01	0	40	104	319815680	63	11785
2026-01-21 04:39:50.88	275.08	15.25	-45.1	-55.8	3.8	7.42e-01	0	40	104	319815680	62	11882
2026-01-21 04:39:51.89	274.92	15.15	-47.9	-59.0	3.8	7.42e-01	0	40	104	319815680	66	13608
2026-01-21 04:39:52.90	274.76	15.06	-47.3	-58.4	3.8	7.45e-01	0	40	104	319815680	66	12721
2026-01-21 04:39:53.91	274.61	14.97	-49.9	-61.7	3.8	7.43e-01	0	40	104	319815680	70	14808
2026-01-21 04:39:54.92	274.46	14.87	-50.4	-62.3	3.8	7.44e-01	0	40	104	319815680	71	14898
2026-01-21 04:39:55.93	274.31	14.78	-48.7	-59.9	3.8	7.42e-01	0	40	104	319815680	67	14273
2026-01-21 04:39:56.93	274.16	14.69	-45.3	-56.1	3.8	7.48e-01	0	40	104	319815680	62	12305
2026-01-21 04:39:57.94	274.01	14.60	-45.3	-56.1	3.8	7.45e-01	0	40	104	319815680	62	12348
2026-01-21 04:39:58.95	273.86	14.51	-45.2	-56.0	3.8	7.47e-01	0	40	104	319815680	62	12163
2026-01-21 04:39:59.96	273.71	14.41	-48.4	-59.6	3.8	7.45e-01	0	40	104	319815680	67	13868
2026-01-21 04:40:00.97	273.56	14.32	-48.8	-60.0	3.8	7.47e-01	0	40	104	319815680	68	13674
2026-01-21 04:40:01.97	273.42	14.23	-51.3	-63.0	3.8	7.45e-01	0	40	104	319815680	72	15313
2026-01-21 04:40:02.98	273.27	14.14	-47.3	-58.2	3.9	7.48e-01	0	40	104	319815680	65	13248
2026-01-21 04:40:03.99	273.13	14.05	-50.4	-62.4	3.8	7.42e-01	0	40	104	319815680	71	15076
2026-01-21 04:40:05.00	272.99	13.96	-45.1	-55.9	3.8	7.44e-01	0	40	104	319815680	62	12011
2026-01-21 04:40:06.01	272.84	13.87	-45.1	-56.0	3.8	7.44e-01	0	40	104	319815680	62	12127
2026-01-21 04:40:07.01	272.70	13.78	-45.1	-56.0	3.8	7.42e-01	0	40	104	319815680	62	12210
2026-01-21 04:40:08.02	272.56	13.69	-47.3	-58.5	3.8	7.44e-01	0	40	104	319815680	65	13725
2026-01-21 04:40:09.03	272.43	13.60	-48.7	-60.0	3.8	7.41e-01	0	40	104	319815680	67	14497
2026-01-21 04:40:10.04	272.29	13.51	-50.4	-62.4	3.8	7.42e-01	0	40	104	319815680	72	14252
2026-01-21 04:40:11.05	272.15	13.42	-47.1	-58.0	3.8	7.43e-01	0	40	104	319815680	66	12173
2026-01-21 04:40:12.05	272.01	13.33	-51.3	-63.7	3.8	7.41e-01	0	40	104	319815680	73	15639
2026-01-21 04:40:13.06	271.88	13.24	-46.0	-56.8	3.8	7.44e-01	0	40	104	319815680	63	12520
2026-01-21 04:40:14.07	271.74	13.15	-45.9	-56.8	3.8	7.45e-01	0	40	104	319815680	63	12640
2026-01-21 04:40:15.08	271.61	13.07	-45.7	-56.6	3.8	7.43e-01	0	40	104	319815680	63	12326
2026-01-21 04:40:16.09	271.48	12.98	-46.6	-57.6	3.8	7.45e-01	0	40	104	319815680	64	13046
2026-01-21 04:40:17.09	271.35	12.89	-49.9	-62.2	3.9	7.45e-01	0	40	104	319815680	71	14767
2026-01-21 04:40:18.10	271.21	12.80	-48.4	-59.8	3.8	7.46e-01	0	40	104	319815680	67	14180
2026-01-21 04:40:19.11	271.08	12.71	-47.4	-58.6	3.8	7.42e-01	0	40	104	319815680	66	12998
2026-01-21 04:40:20.12	270.95	12.63	-49.7	-61.3	3.8	7.46e-01	0	40	104	319815680	70	14208
2026-01-21 04:40:21.13	270.83	12.54	-45.2	-56.0	3.8	7.46e-01	0	40	104	319815680	62	12173
2026-01-21 04:40:22.14	270.70	12.45	-45.3	-56.1	3.8	7.45e-01	0	40	104	319815680	62	12352
2026-01-21 04:40:23.14	270.57	12.37	-45.2	-56.0	3.8	7.46e-01	0	40	104	319815680	62	12155
2026-01-21 04:40:24.15	270.45	12.28	-47.0	-58.1	3.8	7.43e-01	0	40	104	319815680	66	12335
2026-01-21 04:40:25.16	270.32	12.19	-46.9	-58.0	3.8	7.43e-01	0	40	104	319815680	66	12227
2026-01-21 04:40:26.17	270.20	12.11	-50.0	-61.4	3.8	7.43e-01	0	40	104	319815680	71	13518
2026-01-21 04:40:27.18	270.07	12.02	-46.1	-57.0	3.9	7.45e-01	0	40	104	319815680	64	12147
2026-01-21 04:40:28.19	269.95	11.93	-49.6	-61.4	3.8	7.43e-01	0	40	104	319815680	71	13424
2026-01-21 04:40:29.20	269.83	11.85	-45.4	-56.2	3.8	7.46e-01	0	40	104	319815680	62	12409
2026-01-21 04:40:30.21	269.71	11.76	-45.4	-56.3	3.8	7.47e-01	0	40	104	319815680	62	12633
2026-01-21 04:40:31.22	269.59	11.68	-45.5	-56.4	3.8	7.44e-01	0	40	104	319815680	62	12788
2026-01-21 04:40:32.23	269.47	11.59	-49.5	-61.2	3.8	7.45e-01	0	40	104	319815680	70	13918
2026-01-21 04:40:33.24	269.35	11.51	-45.9	-56.8	3.8	7.44e-01	0	40	104	319815680	63	12609
2026-01-21 04:40:34.24	269.23	11.42	-49.9	-61.8	3.8	7.42e-01	0	40	104	319815680	71	14053
2026-01-21 04:40:35.25	269.11	11.34	-47.8	-59.0	3.9	7.45e-01	0	40	104	319815680	67	12832
2026-01-21 04:40:36.26	268.99	11.25	-47.3	-58.4	3.9	7.44e-01	0	40	104	319815680	66	12717
2026-01-21 04:40:37.27	268.88	11.17	-45.6	-56.4	3.8	7.44e-01	0	40	104	319815680	63	12021
2026-01-21 04:40:38.28	268.76	11.09	-45.6	-56.4	3.8	7.43e-01	0	40	104	319815680	63	12031
2026-01-21 04:40:39.29	268.65	11.00	-45.7	-56.6	3.9	7.43e-01	0	40	104	319815680	63	12287
2026-01-21 04:40:40.29	268.54	10.92	-47.5	-58.7	3.8	7.45e-01	0	40	104	319815680	65	13919
2026-01-21 04:40:41.30	268.42	10.84	-46.3	-57.3	3.8	7.41e-01	0	40	104	319815680	64	12643
2026-01-21 04:40:42.31	268.31	10.75	-49.5	-61.2	3.9	7.43e-01	0	40	104	319815680	71	13118
2026-01-21 04:40:43.32	268.20	10.67	-46.7	-57.8	3.8	7.46e-01	0	40	104	319815680	65	12577
2026-01-21 04:40:44.33	268.09	10.59	-49.3	-60.9	3.8	7.44e-01	0	40	104	319815680	70	13477
2026-01-21 04:40:45.34	267.98	10.51	-46.6	-57.5	3.8	7.43e-01	0	40	104	319815680	65	12199
2026-01-21 04:40:46.34	267.87	10.42	-46.6	-57.5	3.8	7.41e-01	0	40	104	319815680	65	12114
2026-01-21 04:40:47.35	267.76	10.34	-47.3	-58.3	3.8	7.45e-01	0	40	104	319815680	65	13378
2026-01-21 04:40:48.36	267.65	10.26	-50.2	-62.2	3.9	7.41e-01	0	40	104	319815680	70	15690
2026-01-21 04:40:49.37	267.54	10.18	-47.5	-58.8	3.8	7.45e-01	0	40	104	319815680	67	12643
2026-01-21 04:40:50.38	267.43	10.10	-48.1	-59.6	3.8	7.47e-01	0	40	104	319815680	68	13000
2026-01-21 04:40:51.39	267.33	10.02	-47.3	-58.6	3.8	7.42e-01	0	40	104	319815680	66	13017
2026-01-21 04:40:52.39	267.22	9.94	-48.6	-60.3	3.8	7.41e-01	0	40	104	319815680	69	13261
2026-01-21 04:40:53.40	267.12	9.86	-47.1	-58.3	3.8	7.41e-01	0	40	104	319815680	66	12637
2026-01-21 04:40:54.41	267.01	9.77	-47.1	-58.3	3.8	7.45e-01	0	40	104	319815680	66	12559
2026-01-21 04:40:55.42	266.91	9.69	-47.2	-58.2	3.8	7.40e-01	0	40	104	319815680	65	13185
2026-01-21 04:40:56.42	266.81	9.61	-48.5	-59.9	3.8	7.44e-01	0	40	104	319815680	67	14324
2026-01-21 04:40:57.43	266.71	9.53	-46.0	-48.0	5.3	7.03e-01	0	40	104	319815680	63	4554
2026-01-21 04:40:58.44	266.60	9.46	-50.8	-53.9	17.7	6.02e-01	0	40	0	320864256	72	5378
2026-01-21 04:40:59.45	266.50	9.38	-45.7	-47.0	23.6	6.02e-01	0	40	0	322961408	63	4083
2026-01-21 04:41:00.45	266.40	9.30	-46.2	-47.7	23.3	6.05e-01	0	40	0	324534272	64	4168
2026-01-21 04:41:01.46	266.30	9.22	-45.4	-46.8	24.4	6.05e-01	0	40	0	326631424	62	4195
2026-01-21 04:41:02.47	266.20	9.14	-45.6	-47.0	24.3	6.02e-01	0	40	0	328204288	62	4312
2026-01-21 04:41:03.48	266.10	9.06	-45.5	-46.8	24.5	6.03e-01	0	40	0	330301440	62	4211
2026-01-21 04:41:04.49	266.01	8.98	-45.4	-46.8	24.5	6.02e-01	0	40	0	332398592	62	4207
2026-01-21 04:41:05.49	265.91	8.90	-45.6	-46.9	24.4	6.01e-01	0	40	0	333971456	62	4286
2026-01-21 04:41:06.50	265.81	8.83	-45.5	-46.9	24.5	6.03e-01	0	40	0	336068608	62	4264
2026-01-21 04:41:07.51	265.71	8.75	-45.6	-46.9	24.4	6.04e-01	0	40	0	337641472	62	4279
2026-01-21 04:41:08.52	265.62	8.67	-45.7	-47.1	24.3	6.04e-01	0	40	0	339738624	62	4357
2026-01-21 04:41:09.53	265.52	8.59	-45.4	-46.8	24.5	6.02e-01	0	40	0	341311488	62	4207
2026-01-21 04:41:10.54	265.43	8.52	-45.5	-46.8	24.5	6.02e-01	0	40	0	343408640	62	4240
2026-01-21 04:41:11.55	265.33	8.44	-45.6	-46.9	24.4	6.04e-01	0	40	0	345505792	62	4279
2026-01-21 04:41:12.55	265.24	8.36	-45.5	-46.8	24.4	6.02e-01	0	40	0	347602944	62	4242
2026-01-21 04:41:13.56	265.15	8.28	-45.6	-46.9	24.4	6.03e-01	0	40	0	349175808	62	4286
2026-01-21 04:41:14.57	265.06	8.21	-45.7	-47.1	24.3	6.03e-01	0	40	0	351272960	62	4347
2026-01-21 04:41:15.58	264.96	8.13	-45.5	-46.9	24.4	6.03e-01	0	40	0	352845824	62	4266
2026-01-21 04:41:16.58	264.87	8.06	-45.6	-47.0	24.3	6.01e-01	0	40	0	354942976	62	4296
2026-01-21 04:41:17.59	264.78	7.98	-45.6	-46.9	24.4	6.03e-01	0	40	0	356515840	62	4290
2026-01-21 04:41:18.60	264.69	7.90	-45.7	-47.1	24.2	6.02e-01	0	40	0	358612992	62	4358
2026-01-21 04:41:19.61	264.60	7.83	-45.8	-47.2	24.1	6.04e-01	0	40	0	360710144	62	4439
2026-01-21 04:41:20.62	264.51	7.75	-45.7	-47.1	24.2	6.03e-01	0	40	0	362283008	62	4342
2026-01-21 04:41:21.63	264.42	7.68	-45.8	-47.1	24.1	6.04e-01	0	40	0	364380160	62	4387
2026-01-21 04:41:22.64	264.33	7.60	-45.7	-47.1	24.2	6.05e-01	0	40	0	366477312	62	4359
2026-01-21 04:41:23.65	264.25	7.53	-45.7	-47.1	24.1	6.03e-01	0	40	0	368050176	62	4355
2026-01-21 04:41:24.66	264.16	7.45	-45.7	-47.1	24.1	6.02e-01	0	40	0	370147328	62	4360
2026-01-21 04:41:25.67	264.07	7.38	-45.6	-47.0	24.3	6.04e-01	0	40	0	371720192	62	4293
2026-01-21 04:41:26.68	263.98	7.30	-45.7	-47.1	24.1	6.03e-01	0	40	0	373817344	62	4370
2026-01-21 04:41:27.68	263.90	7.23	-45.6	-47.0	24.2	6.03e-01	0	40	0	375914496	62	4299
2026-01-21 04:41:28.69	263.81	7.16	-45.8	-47.2	24.0	6.05e-01	0	40	0	377487360	62	4393
2026-01-21 04:41:29.70	263.73	7.08	-45.7	-47.1	24.0	6.02e-01	0	40	0	379584512	62	4378
2026-01-21 04:41:30.71	263.64	7.01	-46.0	-47.4	23.8	6.02e-01	0	40	0	381157376	62	4518
2026-01-21 04:41:31.71	263.56	6.94	-45.9	-47.4	23.8	6.01e-01	0	40	0	383254528	62	4504
2026-01-21 04:41:32.72	263.48	6.86	-45.9	-47.3	23.8	6.03e-01	0	40	0	384827392	62	4475
2026-01-21 04:41:33.73	263.40	6.79	-46.0	-47.4	23.8	6.04e-01	0	40	0	386924544	62	4531
2026-01-21 04:41:34.74	263.31	6.72	-46.1	-47.6	23.6	6.02e-01	0	40	0	389021696	62	4601
2026-01-21 04:41:35.75	263.23	6.64	-45.9	-47.3	23.8	6.02e-01	0	40	0	391118848	62	4493
2026-01-21 04:41:36.75	263.15	6.57	-45.9	-47.3	23.8	6.05e-01	0	40	0	392691712	62	4486
2026-01-21 04:41:37.76	263.07	6.50	-46.0	-47.4	23.7	6.03e-01	0	40	0	394788864	62	4545
2026-01-21 04:41:38.77	262.99	6.43	-46.2	-47.6	23.5	6.04e-01	0	40	0	396361728	62	4640
2026-01-21 04:41:39.78	262.91	6.36	-46.1	-47.6	23.6	6.02e-01	0	40	0	398458880	63	4351
2026-01-21 04:41:40.79	262.83	6.28	-46.0	-47.4	23.7	6.03e-01	0	40	0	400031744	63	4272
2026-01-21 04:41:41.79	262.75	6.21	-45.9	-47.3	23.9	6.04e-01	0	40	0	402128896	63	4215
2026-01-21 04:41:42.80	262.67	6.14	-46.0	-47.5	23.7	6.04e-01	0	40	0	404226048	63	4302
2026-01-21 04:41:43.81	262.59	6.07	-46.1	-47.6	23.5	6.04e-01	0	40	0	405798912	63	4356
2026-01-21 04:41:44.82	262.51	6.00	-46.3	-47.8	23.4	6.03e-01	0	40	0	407896064	63	4442
2026-01-21 04:41:45.82	262.44	5.93	-46.4	-47.9	23.2	6.03e-01	0	40	0	409468928	63	4542
2026-01-21 04:41:46.84	262.36	5.86	-46.2	-47.7	23.5	6.04e-01	0	40	0	411566080	63	4397
2026-01-21 04:41:47.84	262.28	5.79	-46.3	-47.9	23.2	6.01e-01	0	40	0	413663232	63	4498
2026-01-21 04:41:48.85	262.21	5.72	-46.0	-47.5	23.5	6.04e-01	0	40	0	415236096	63	4316
2026-01-21 04:41:49.86	262.13	5.65	-46.3	-47.8	23.2	6.05e-01	0	40	0	417333248	63	4468
2026-01-21 04:41:50.87	262.05	5.57	-46.3	-47.8	23.2	6.05e-01	0	40	0	419430400	63	4492
2026-01-21 04:41:51.88	261.98	5.50	-46.3	-47.8	23.2	6.03e-01	0	40	0	421003264	63	4469
2026-01-21 04:41:52.89	261.90	5.43	-46.1	-47.6	23.4	6.02e-01	0	40	0	423100416	63	4385
2026-01-21 04:41:53.89	261.83	5.37	-46.1	-47.6	23.4	6.03e-01	0	40	0	424673280	63	4359
2026-01-21 04:41:54.90	261.76	5.30	-46.2	-47.7	23.3	6.02e-01	0	40	0	426770432	63	4399
2026-01-21 04:41:55.91	261.68	5.23	-46.2	-47.7	23.3	6.02e-01	0	40	0	428343296	63	4394
2026-01-21 04:41:56.92	261.61	5.16	-46.1	-47.6	23.4	6.03e-01	0	40	0	430440448	63	4383
2026-01-21 04:41:57.93	261.54	5.09	-46.2	-47.7	23.1	6.03e-01	0	40	0	432537600	63	4414
2026-01-21 04:41:58.93	261.47	5.02	-46.2	-47.8	23.2	6.03e-01	0	40	0	434634752	63	4446
2026-01-21 04:41:59.94	261.39	4.95	-54.1	-70.4	3.8	7.48e-01	0	40	104	435683328	78	25313
2026-01-21 04:42:00.95	261.32	4.88	-54.3	-72.1	3.8	7.42e-01	0	40	104	435683328	79	29321
2026-01-21 04:42:01.96	261.25	4.81	-53.4	-71.3	3.8	7.47e-01	0	40	104	435683328	78	28090
2026-01-21 04:42:02.97	261.18	4.75	-54.5	-72.3	3.8	7.41e-01	0	40	104	435683328	79	29812
2026-01-21 04:42:03.97	261.11	4.68	-54.5	-72.3	3.8	7.46e-01	0	40	104	435683328	79	29695
2026-01-21 04:42:04.98	261.04	4.61	-54.4	-72.2	3.8	7.44e-01	0	40	104	435683328	79	29686
2026-01-21 04:42:05.99	260.97	4.54	-54.3	-72.1	3.8	7.45e-01	0	40	104	435683328	79	29320
2026-01-21 04:42:07.00	260.90	4.47	-54.4	-72.1	3.8	7.45e-01	0	40	104	435683328	79	29338
2026-01-21 04:42:08.01	260.83	4.41	-54.5	-72.3	3.8	7.46e-01	0	40	104	435683328	79	29764
2026-01-21 04:42:09.02	260.76	4.34	-54.5	-72.3	3.8	7.42e-01	0	40	104	435683328	79	29980
2026-01-21 04:42:10.03	260.70	4.27	-54.6	-72.4	3.8	7.44e-01	0	40	104	435683328	79	30236
2026-01-21 04:42:11.03	260.63	4.21	-54.6	-72.5	3.8	7.44e-01	0	40	104	435683328	79	30455
2026-01-21 04:42:12.04	260.56	4.14	-54.7	-72.5	3.8	7.47e-01	0	40	104	435683328	79	30653
2026-01-21 04:42:13.05	260.49	4.07	-54.7	-72.5	3.8	7.43e-01	0	40	104	435683328	80	28824
2026-01-21 04:42:14.06	260.43	4.01	-54.7	-72.5	3.8	7.44e-01	0	40	104	435683328	80	28868
2026-01-21 04:42:15.07	260.36	3.94	-54.8	-72.6	3.8	7.46e-01	0	40	104	435683328	80	29059
2026-01-21 04:42:16.07	260.29	3.87	-54.8	-72.6	3.8	7.46e-01	0	40	104	435683328	80	29037
2026-01-21 04:42:17.08	260.23	3.81	-54.8	-72.6	3.8	7.46e-01	0	40	104	435683328	80	29170
2026-01-21 04:42:18.09	260.16	3.74	-54.8	-72.6	3.8	7.42e-01	0	40	104	435683328	80	29056
2026-01-21 04:42:19.09	260.10	3.68	-54.8	-72.7	3.8	7.42e-01	0	40	104	435683328	80	29353
2026-01-21 04:42:20.10	260.03	3.61	-54.9	-72.7	3.8	7.45e-01	0	40	104	435683328	80	29414
2026-01-21 04:42:21.11	259.97	3.54	-54.8	-72.6	3.8	7.43e-01	0	40	104	435683328	80	29325
2026-01-21 04:42:22.12	259.91	3.48	-54.8	-72.6	3.8	7.49e-01	0	40	104	435683328	80	29193
2026-01-21 04:42:23.13	259.84	3.41	-54.8	-72.6	3.8	7.47e-01	0	40	104	435683328	80	29161
2026-01-21 04:42:24.13	259.78	3.35	-54.8	-72.6	3.8	7.48e-01	0	40	104	435683328	80	29135
