passes_logs/2026/01/21/R3.2S_Murmansk/R3.2S_Murmansk__20260121_130125_NOAA_20_JPSS-1_rec.log

#Pass ID: 20260121_130125_NOAA 20 (JPSS-1)
#Satellite: NOAA 20 (JPSS-1)
#Configuration: NOAA 20
#almurnet v.1.7.20251203
#Start time: 2026-01-21 13:01:26

#Version: 2.2.20231116
#Station: R3.2S_Murmansk
#Location: 33.079688 lon 68.888172 lat
#TLE: 1 43013U 17073A   26020.82785136  .00000155  00000+0  94366-4 0  9991
#TLE: 2 43013  98.7643 321.7058 0001260  30.3785 329.7464 14.19537992423566

#Time	Az	El	Level	Level2	SNR	BER	BlckErr	Temp	State	Recorded	gain1	gain2
2026-01-21 13:01:26.35	243.44	2.05	-50.3	-65.2	3.8	1.49e+00	0	38	0	0	71	20986
2026-01-21 13:01:27.36	243.54	2.10	-50.3	-65.2	3.8	1.49e+00	0	38	104	0	71	21017
2026-01-21 13:01:28.37	243.64	2.14	-50.3	-65.3	3.8	1.49e+00	0	38	104	0	71	21044
2026-01-21 13:01:29.38	243.74	2.19	-50.3	-65.2	3.8	1.49e+00	0	38	104	0	71	20995
2026-01-21 13:01:30.38	243.84	2.23	-50.3	-65.3	3.8	1.49e+00	0	38	104	0	71	21032
2026-01-21 13:01:31.39	243.94	2.28	-50.3	-65.2	3.8	1.49e+00	0	38	104	0	71	20997
2026-01-21 13:01:32.40	244.05	2.32	-50.3	-65.2	3.8	1.49e+00	0	38	104	0	71	20983
2026-01-21 13:01:33.41	244.15	2.37	-50.3	-65.2	3.8	1.49e+00	0	38	104	0	71	21011
2026-01-21 13:01:34.42	244.25	2.41	-50.3	-65.3	3.8	1.49e+00	0	38	104	0	71	21018
2026-01-21 13:01:35.43	244.35	2.46	-50.3	-65.2	3.8	1.49e+00	0	38	104	0	71	20955
2026-01-21 13:01:36.44	244.46	2.50	-50.3	-65.2	3.8	1.49e+00	0	38	104	0	71	20990
2026-01-21 13:01:37.45	244.56	2.55	-50.3	-65.2	3.8	1.49e+00	0	38	104	0	71	20971
2026-01-21 13:01:38.45	244.66	2.59	-50.3	-65.2	3.8	1.49e+00	0	38	104	0	71	21005
2026-01-21 13:01:39.46	244.77	2.64	-50.3	-65.2	3.8	1.49e+00	0	38	104	0	71	20978
2026-01-21 13:01:40.47	244.87	2.68	-50.3	-65.2	3.8	1.49e+00	0	38	104	0	71	20936
2026-01-21 13:01:41.48	244.98	2.72	-50.3	-65.2	3.8	1.49e+00	0	38	104	0	71	20964
2026-01-21 13:01:42.48	245.08	2.77	-50.3	-65.2	3.8	1.49e+00	0	38	104	0	71	21002
2026-01-21 13:01:43.49	245.19	2.81	-50.3	-65.2	3.8	1.49e+00	0	38	104	0	71	20940
2026-01-21 13:01:44.50	245.29	2.86	-50.3	-65.2	3.8	1.49e+00	0	38	104	0	71	20947
2026-01-21 13:01:45.51	245.40	2.90	-50.3	-65.2	3.8	1.49e+00	0	38	104	0	71	20962
2026-01-21 13:01:46.52	245.50	2.95	-50.3	-65.2	3.8	1.49e+00	0	38	104	0	71	21010
2026-01-21 13:01:47.53	245.61	2.99	-50.3	-65.2	3.8	1.49e+00	0	38	104	0	71	20977
2026-01-21 13:01:48.53	245.72	3.04	-50.3	-65.2	3.8	1.49e+00	0	38	104	0	71	20966
2026-01-21 13:01:49.54	245.82	3.08	-50.3	-65.2	3.8	1.49e+00	0	39	104	0	71	20904
2026-01-21 13:01:50.55	245.93	3.13	-50.3	-65.2	3.8	1.49e+00	0	38	104	0	71	20939
2026-01-21 13:01:51.56	246.04	3.17	-50.3	-65.2	3.8	1.49e+00	0	38	104	0	71	20931
2026-01-21 13:01:52.57	246.15	3.22	-50.3	-65.2	3.8	1.49e+00	0	39	104	0	71	20938
2026-01-21 13:01:53.58	246.26	3.26	-50.3	-65.2	3.8	1.49e+00	0	39	104	0	71	20977
2026-01-21 13:01:54.58	246.36	3.30	-50.3	-65.2	3.8	1.49e+00	0	39	104	0	71	20943
2026-01-21 13:01:55.59	246.47	3.35	-50.3	-65.2	3.8	1.49e+00	0	39	104	0	71	21006
2026-01-21 13:01:56.60	246.58	3.39	-50.3	-65.2	3.8	1.49e+00	0	39	104	0	71	20965
2026-01-21 13:01:57.61	246.69	3.44	-50.3	-65.2	3.8	1.49e+00	0	39	104	0	71	20941
2026-01-21 13:01:58.62	246.80	3.48	-50.3	-65.2	3.8	1.49e+00	0	39	104	0	71	20972
2026-01-21 13:01:59.63	246.91	3.53	-50.3	-65.2	3.8	1.49e+00	0	39	104	0	71	20932
2026-01-21 13:02:00.61	247.02	3.57	-50.3	-65.2	3.8	1.49e+00	0	39	104	0	71	20954
2026-01-21 13:02:01.61	247.13	3.61	-50.3	-65.2	3.8	1.49e+00	0	39	104	0	71	20965
2026-01-21 13:02:02.62	247.24	3.66	-50.3	-65.2	3.8	1.49e+00	0	39	104	0	71	20971
2026-01-21 13:02:03.63	247.35	3.70	-50.3	-65.2	3.8	1.49e+00	0	39	104	0	71	20926
2026-01-21 13:02:04.64	247.47	3.75	-50.3	-65.2	3.8	1.49e+00	0	39	104	0	71	20966
2026-01-21 13:02:05.65	247.58	3.79	-50.3	-65.2	3.8	1.49e+00	0	39	104	0	71	20928
2026-01-21 13:02:06.66	247.69	3.84	-50.3	-65.2	3.8	1.49e+00	0	39	104	0	71	20929
2026-01-21 13:02:07.66	247.80	3.88	-50.3	-65.2	3.8	1.49e+00	0	39	104	0	71	20952
2026-01-21 13:02:08.67	247.92	3.93	-50.3	-65.2	3.8	1.49e+00	0	39	104	0	71	20915
2026-01-21 13:02:09.68	248.03	3.97	-50.3	-65.2	3.8	1.49e+00	0	39	104	0	71	20935
2026-01-21 13:02:10.69	248.14	4.01	-50.3	-65.2	3.8	1.49e+00	0	39	104	0	71	20949
2026-01-21 13:02:11.70	248.26	4.06	-50.3	-65.2	3.8	1.49e+00	0	39	104	0	71	20957
2026-01-21 13:02:12.70	248.37	4.10	-50.3	-65.2	3.8	1.49e+00	0	39	104	0	71	20908
2026-01-21 13:02:13.71	248.49	4.15	-50.3	-65.2	3.8	1.49e+00	0	39	104	0	71	20911
2026-01-21 13:02:14.72	248.60	4.19	-50.3	-65.2	3.8	1.49e+00	0	39	104	0	71	20937
2026-01-21 13:02:15.73	248.72	4.24	-50.3	-65.2	3.8	1.49e+00	0	39	104	0	71	20917
2026-01-21 13:02:16.73	248.83	4.28	-50.3	-65.2	3.8	1.49e+00	0	39	104	0	71	20960
2026-01-21 13:02:17.74	248.95	4.32	-50.3	-65.2	3.8	1.49e+00	0	39	104	0	71	20955
2026-01-21 13:02:18.75	249.07	4.37	-50.3	-65.2	3.8	1.49e+00	0	39	104	0	71	20934
2026-01-21 13:02:19.76	249.18	4.41	-50.3	-65.2	3.8	1.49e+00	0	39	104	0	71	20937
2026-01-21 13:02:20.76	249.30	4.46	-50.3	-65.2	3.8	1.49e+00	0	39	104	0	71	20965
2026-01-21 13:02:21.77	249.42	4.50	-50.3	-65.2	3.8	1.49e+00	0	39	104	0	71	20965
2026-01-21 13:02:22.78	249.53	4.54	-50.3	-65.2	3.8	1.49e+00	0	39	104	0	71	20936
2026-01-21 13:02:23.79	249.65	4.59	-50.3	-65.2	3.8	1.49e+00	0	39	104	0	71	20894
2026-01-21 13:02:24.80	249.77	4.63	-50.3	-65.2	3.8	1.49e+00	0	39	104	0	71	20972
2026-01-21 13:02:25.80	249.89	4.68	-50.3	-65.2	3.8	1.49e+00	0	39	104	0	71	20964
2026-01-21 13:02:26.81	250.01	4.72	-50.3	-65.2	3.8	1.49e+00	0	39	104	0	71	20998
2026-01-21 13:02:27.82	250.13	4.76	-50.3	-65.2	3.8	1.49e+00	0	39	104	0	71	20918
2026-01-21 13:02:28.83	250.25	4.81	-50.3	-65.2	3.8	1.49e+00	0	39	104	0	71	20901
2026-01-21 13:02:29.83	250.37	4.85	-50.3	-65.2	3.8	1.49e+00	0	39	104	0	71	20956
2026-01-21 13:02:30.84	250.49	4.90	-50.3	-65.2	3.8	1.49e+00	0	39	104	0	71	20938
2026-01-21 13:02:31.85	250.61	4.94	-50.3	-65.2	3.8	1.49e+00	0	39	104	0	71	20914
2026-01-21 13:02:32.86	250.73	4.98	-50.3	-65.2	3.8	1.49e+00	0	39	104	0	71	20897
2026-01-21 13:02:33.87	250.85	5.03	-50.3	-65.2	3.8	1.49e+00	0	39	104	0	71	20880
2026-01-21 13:02:34.87	250.97	5.07	-50.3	-65.2	3.8	1.49e+00	0	39	104	0	71	20931
2026-01-21 13:02:35.88	251.10	5.11	-50.3	-65.2	3.8	1.49e+00	0	39	104	0	71	20996
2026-01-21 13:02:36.89	251.22	5.16	-50.3	-65.2	3.8	1.49e+00	0	39	104	0	71	20959
2026-01-21 13:02:37.90	251.34	5.20	-50.3	-65.2	3.8	1.49e+00	0	39	104	0	71	21007
2026-01-21 13:02:38.90	251.46	5.24	-50.3	-65.2	3.8	1.49e+00	0	39	104	0	71	20946
2026-01-21 13:02:39.91	251.59	5.29	-50.3	-65.2	3.8	1.49e+00	0	39	104	0	71	20976
2026-01-21 13:02:40.92	251.71	5.33	-50.3	-65.2	3.8	1.49e+00	0	39	104	0	71	20959
2026-01-21 13:02:41.93	251.84	5.38	-50.3	-65.2	3.8	1.49e+00	0	39	104	0	71	20912
2026-01-21 13:02:42.94	251.96	5.42	-50.3	-65.3	3.8	1.49e+00	0	39	104	0	71	21018
2026-01-21 13:02:43.94	252.09	5.46	-50.3	-65.2	3.8	1.49e+00	0	39	104	0	71	20956
2026-01-21 13:02:44.95	252.21	5.51	-50.3	-65.2	3.8	1.49e+00	0	39	104	0	71	20947
2026-01-21 13:02:45.96	252.34	5.55	-50.3	-65.2	3.8	1.49e+00	0	39	104	0	71	20974
2026-01-21 13:02:46.97	252.46	5.59	-50.3	-65.2	3.8	1.49e+00	0	39	104	0	71	20957
2026-01-21 13:02:47.98	252.59	5.63	-50.3	-65.2	3.8	1.49e+00	0	39	104	0	71	20903
2026-01-21 13:02:48.99	252.72	5.68	-50.3	-65.2	3.8	1.49e+00	0	39	104	0	71	20901
2026-01-21 13:02:50.00	252.84	5.72	-50.3	-65.2	3.8	1.49e+00	0	39	104	0	71	20994
2026-01-21 13:02:51.01	252.97	5.76	-50.3	-65.2	3.8	1.49e+00	0	39	104	0	71	20984
2026-01-21 13:02:52.02	253.10	5.81	-50.3	-65.2	3.8	1.49e+00	0	39	104	0	71	20993
2026-01-21 13:02:53.02	253.23	5.85	-50.3	-65.2	3.8	1.49e+00	0	39	104	0	71	20966
2026-01-21 13:02:54.03	253.36	5.89	-50.3	-65.2	3.8	1.49e+00	0	39	104	0	71	20976
2026-01-21 13:02:55.04	253.49	5.94	-50.3	-65.2	3.8	1.49e+00	0	39	104	0	71	20948
2026-01-21 13:02:56.05	253.62	5.98	-50.3	-65.2	3.8	1.49e+00	0	39	104	0	71	20969
2026-01-21 13:02:57.06	253.75	6.02	-50.3	-65.2	3.8	1.49e+00	0	39	104	0	71	20929
2026-01-21 13:02:58.07	253.88	6.06	-50.3	-65.2	3.8	1.49e+00	0	39	104	0	71	20930
2026-01-21 13:02:59.07	254.01	6.11	-50.3	-65.2	3.8	1.49e+00	0	39	104	0	71	20978
2026-01-21 13:03:00.08	254.14	6.15	-50.3	-65.2	3.8	1.49e+00	0	39	104	0	71	20952
2026-01-21 13:03:01.09	254.27	6.19	-50.3	-65.2	3.8	1.49e+00	0	39	104	0	71	20943
2026-01-21 13:03:02.10	254.40	6.23	-50.3	-65.2	3.8	1.49e+00	0	39	104	0	71	21007
2026-01-21 13:03:03.10	254.53	6.28	-50.3	-65.2	3.8	1.49e+00	0	39	104	0	71	20988
2026-01-21 13:03:04.11	254.66	6.32	-50.3	-65.2	3.8	1.49e+00	0	39	104	0	71	20974
2026-01-21 13:03:05.12	254.80	6.36	-50.3	-65.2	3.8	1.49e+00	0	39	104	0	71	20966
2026-01-21 13:03:06.13	254.93	6.40	-50.3	-65.2	3.8	1.49e+00	0	39	104	0	71	20976
2026-01-21 13:03:07.14	255.06	6.45	-50.3	-65.2	3.8	1.49e+00	0	39	104	0	71	20908
2026-01-21 13:03:08.15	255.20	6.49	-50.3	-65.2	3.8	1.49e+00	0	39	104	0	71	20986
2026-01-21 13:03:09.15	255.33	6.53	-50.3	-65.2	3.8	1.49e+00	0	39	104	0	71	20897
2026-01-21 13:03:10.16	255.46	6.57	-50.3	-65.2	3.8	1.49e+00	0	39	104	0	71	20943
2026-01-21 13:03:11.17	255.60	6.61	-50.3	-65.2	3.8	1.49e+00	0	39	104	0	71	20957
2026-01-21 13:03:12.18	255.74	6.66	-50.3	-65.2	3.8	1.49e+00	0	40	104	0	71	20952
2026-01-21 13:03:13.18	255.87	6.70	-50.3	-65.2	3.8	1.49e+00	0	39	104	0	71	20924
2026-01-21 13:03:14.19	256.01	6.74	-50.3	-65.2	3.8	1.49e+00	0	39	104	0	71	20973
2026-01-21 13:03:15.20	256.14	6.78	-50.3	-65.2	3.8	1.49e+00	0	39	104	0	71	20997
2026-01-21 13:03:16.21	256.28	6.82	-50.3	-65.2	3.8	1.49e+00	0	39	104	0	71	20965
2026-01-21 13:03:17.22	256.42	6.86	-50.3	-65.2	3.8	1.49e+00	0	39	104	0	71	20996
2026-01-21 13:03:18.22	256.55	6.91	-50.3	-65.2	3.8	1.49e+00	0	39	104	0	71	20946
2026-01-21 13:03:19.23	256.69	6.95	-50.3	-65.2	3.8	1.49e+00	0	39	104	0	71	20958
2026-01-21 13:03:20.24	256.83	6.99	-50.3	-65.2	3.8	1.49e+00	0	39	104	0	71	20945
2026-01-21 13:03:21.24	256.97	7.03	-50.3	-65.2	3.8	1.49e+00	0	40	104	0	71	20929
2026-01-21 13:03:22.25	257.11	7.07	-50.3	-65.2	3.8	1.49e+00	0	39	104	0	71	20986
2026-01-21 13:03:23.26	257.25	7.11	-50.3	-65.2	3.8	1.49e+00	0	40	104	0	71	20925
2026-01-21 13:03:24.27	257.39	7.15	-50.3	-65.2	3.8	1.49e+00	0	39	104	0	71	20982
2026-01-21 13:03:25.28	257.53	7.19	-50.3	-65.2	3.8	1.49e+00	0	40	104	0	71	21013
2026-01-21 13:03:26.29	257.67	7.24	-50.3	-65.2	3.8	1.49e+00	0	39	104	0	71	20972
2026-01-21 13:03:27.30	257.81	7.28	-50.3	-65.2	3.8	1.49e+00	0	39	104	0	71	20952
2026-01-21 13:03:28.31	257.95	7.32	-50.3	-65.2	3.8	1.49e+00	0	39	104	0	71	20935
2026-01-21 13:03:29.31	258.09	7.36	-50.3	-65.2	3.8	1.49e+00	0	40	104	0	71	20997
2026-01-21 13:03:30.32	258.23	7.40	-50.3	-65.2	3.8	1.49e+00	0	40	104	0	71	20965
2026-01-21 13:03:31.33	258.38	7.44	-50.3	-65.2	3.8	1.49e+00	0	40	104	0	71	20963
2026-01-21 13:03:32.34	258.52	7.48	-50.3	-65.2	3.8	1.49e+00	0	40	104	0	71	20935
2026-01-21 13:03:33.35	258.66	7.52	-50.3	-65.2	3.8	1.49e+00	0	39	104	0	71	20974
2026-01-21 13:03:34.35	258.81	7.56	-50.3	-65.2	3.8	1.49e+00	0	40	104	0	71	20961
2026-01-21 13:03:35.36	258.95	7.60	-50.3	-65.2	3.8	1.49e+00	0	40	104	0	71	20965
2026-01-21 13:03:36.37	259.09	7.64	-50.3	-65.2	3.8	1.49e+00	0	40	104	0	71	20930
2026-01-21 13:03:37.38	259.24	7.68	-50.3	-65.2	3.8	1.49e+00	0	40	104	0	71	20958
2026-01-21 13:03:38.38	259.38	7.72	-50.3	-65.2	3.8	1.49e+00	0	40	104	0	71	20959
2026-01-21 13:03:39.39	259.53	7.76	-50.3	-65.2	3.8	1.49e+00	0	40	104	0	71	20971
2026-01-21 13:03:40.40	259.68	7.80	-50.3	-65.2	3.8	1.49e+00	0	39	104	0	71	20942
2026-01-21 13:03:41.41	259.82	7.84	-50.3	-65.3	3.8	1.49e+00	0	39	104	0	71	21020
2026-01-21 13:03:42.42	259.97	7.88	-50.3	-65.2	3.8	1.49e+00	0	40	104	0	71	20942
2026-01-21 13:03:43.43	260.12	7.92	-50.3	-65.2	3.8	1.49e+00	0	40	104	0	71	20941
2026-01-21 13:03:44.44	260.26	7.96	-50.3	-65.2	3.8	1.49e+00	0	40	104	0	71	20917
2026-01-21 13:03:45.44	260.41	8.00	-50.3	-65.2	3.8	1.49e+00	0	40	104	0	71	20961
2026-01-21 13:03:46.45	260.56	8.03	-50.3	-65.2	3.8	1.49e+00	0	40	104	0	71	20983
2026-01-21 13:03:47.46	260.71	8.07	-50.3	-65.2	3.8	1.49e+00	0	40	104	0	71	20994
2026-01-21 13:03:48.47	260.86	8.11	-50.3	-65.2	3.8	1.49e+00	0	39	104	0	71	21010
2026-01-21 13:03:49.48	261.01	8.15	-50.3	-65.2	3.8	1.49e+00	0	40	104	0	71	20988
2026-01-21 13:03:50.48	261.15	8.19	-50.3	-65.2	3.8	1.49e+00	0	40	104	0	71	20984
2026-01-21 13:03:51.49	261.30	8.23	-50.3	-65.2	3.8	1.49e+00	0	40	104	0	71	20951
2026-01-21 13:03:52.50	261.46	8.27	-50.3	-65.2	3.8	1.49e+00	0	40	104	0	71	21002
2026-01-21 13:03:53.51	261.61	8.30	-50.3	-65.2	3.8	1.49e+00	0	40	104	0	71	20992
2026-01-21 13:03:54.52	261.76	8.34	-50.3	-65.2	3.8	1.49e+00	0	40	104	0	71	20964
2026-01-21 13:03:55.52	261.91	8.38	-50.3	-65.2	3.8	1.49e+00	0	40	104	0	71	20943
2026-01-21 13:03:56.53	262.06	8.42	-50.3	-65.2	3.8	1.49e+00	0	40	104	0	71	21001
2026-01-21 13:03:57.54	262.21	8.46	-50.3	-65.2	3.8	1.49e+00	0	40	104	0	71	20998
2026-01-21 13:03:58.55	262.37	8.49	-50.3	-65.2	3.8	1.49e+00	0	40	104	0	71	20992
2026-01-21 13:03:59.56	262.52	8.53	-50.3	-65.2	3.8	1.49e+00	0	40	104	0	71	21011
2026-01-21 13:04:00.56	262.67	8.57	-50.3	-65.2	3.8	1.49e+00	0	40	104	0	71	20954
2026-01-21 13:04:01.57	262.83	8.61	-50.3	-65.2	3.8	1.49e+00	0	40	104	0	71	20957
2026-01-21 13:04:02.58	262.98	8.64	-50.3	-65.2	3.8	1.49e+00	0	39	104	0	71	21003
2026-01-21 13:04:03.58	263.13	8.68	-50.3	-65.2	3.8	1.49e+00	0	39	104	0	71	21017
2026-01-21 13:04:04.59	263.29	8.72	-50.3	-65.2	3.8	1.49e+00	0	40	104	0	71	20981
2026-01-21 13:04:05.60	263.44	8.76	-50.3	-65.2	3.8	1.49e+00	0	40	104	0	71	20956
2026-01-21 13:04:06.61	263.60	8.79	-50.3	-65.3	3.8	1.49e+00	0	39	104	0	71	21055
2026-01-21 13:04:07.61	263.76	8.83	-50.3	-65.2	3.8	1.49e+00	0	40	104	0	71	20967
2026-01-21 13:04:08.62	263.91	8.86	-50.3	-65.2	3.8	1.49e+00	0	40	104	0	71	20897
2026-01-21 13:04:09.63	264.07	8.90	-50.3	-65.2	3.8	1.49e+00	0	40	104	0	71	20992
2026-01-21 13:04:10.64	264.23	8.94	-50.3	-65.2	3.8	1.49e+00	0	40	104	0	71	21002
2026-01-21 13:04:11.64	264.38	8.97	-50.3	-65.2	3.8	1.49e+00	0	40	104	0	71	20992
2026-01-21 13:04:12.65	264.54	9.01	-50.3	-65.2	3.8	1.49e+00	0	40	104	0	71	20961
2026-01-21 13:04:13.66	264.70	9.05	-50.3	-65.2	3.8	1.49e+00	0	40	104	0	71	20974
2026-01-21 13:04:14.67	264.86	9.08	-50.3	-65.2	3.8	1.49e+00	0	40	104	0	71	20988
2026-01-21 13:04:15.68	265.02	9.12	-50.3	-65.2	3.8	1.49e+00	0	40	104	0	71	20918
2026-01-21 13:04:16.68	265.18	9.15	-50.3	-65.2	3.8	1.49e+00	0	40	104	0	71	20952
2026-01-21 13:04:17.69	265.34	9.19	-50.3	-65.2	3.8	1.49e+00	0	40	104	0	71	20973
2026-01-21 13:04:18.70	265.50	9.22	-50.3	-65.2	3.8	1.49e+00	0	40	104	0	71	21004
2026-01-21 13:04:19.71	265.66	9.26	-50.3	-65.2	3.8	1.49e+00	0	40	104	0	71	20963
2026-01-21 13:04:20.72	265.82	9.29	-50.3	-65.2	3.8	1.49e+00	0	40	104	0	71	20974
2026-01-21 13:04:21.73	265.98	9.33	-50.3	-65.2	3.8	1.49e+00	0	40	104	0	71	20975
2026-01-21 13:04:22.74	266.14	9.36	-50.3	-65.3	3.8	1.49e+00	0	40	104	0	71	21031
2026-01-21 13:04:23.74	266.30	9.40	-50.3	-65.2	3.8	1.49e+00	0	40	104	0	71	20997
2026-01-21 13:04:24.75	266.47	9.43	-50.3	-65.2	3.8	1.49e+00	0	40	104	0	71	20997
2026-01-21 13:04:25.76	266.63	9.46	-50.3	-65.3	3.8	1.49e+00	0	40	104	0	71	21018
2026-01-21 13:04:26.77	266.79	9.50	-50.3	-65.2	3.8	1.49e+00	0	40	104	0	71	20973
2026-01-21 13:04:27.78	266.96	9.53	-50.3	-65.2	3.8	1.49e+00	0	40	104	0	71	20957
2026-01-21 13:04:28.78	267.12	9.57	-50.3	-65.3	3.8	1.49e+00	0	40	104	0	71	21031
2026-01-21 13:04:29.79	267.28	9.60	-50.3	-65.2	3.8	1.49e+00	0	40	104	0	71	21000
2026-01-21 13:04:30.80	267.45	9.63	-50.3	-65.2	3.8	1.49e+00	0	40	104	0	71	20991
2026-01-21 13:04:31.81	267.61	9.67	-50.3	-65.2	3.8	1.49e+00	0	40	104	0	71	21009
2026-01-21 13:04:32.82	267.78	9.70	-50.3	-65.3	3.8	1.49e+00	0	40	104	0	71	21019
2026-01-21 13:04:33.82	267.94	9.73	-50.3	-65.2	3.8	1.49e+00	0	40	104	0	71	20966
2026-01-21 13:04:34.83	268.11	9.76	-50.3	-65.3	3.8	1.49e+00	0	40	104	0	71	21037
2026-01-21 13:04:35.84	268.28	9.80	-50.3	-65.2	3.8	1.49e+00	0	40	104	0	71	20986
2026-01-21 13:04:36.85	268.44	9.83	-50.3	-65.3	3.8	1.49e+00	0	40	104	0	71	21022
2026-01-21 13:04:37.85	268.61	9.86	-50.3	-65.2	3.8	1.49e+00	0	40	104	0	71	20990
2026-01-21 13:04:38.86	268.78	9.89	-50.3	-65.2	3.8	1.49e+00	0	40	104	0	71	21000
2026-01-21 13:04:39.87	268.95	9.92	-50.3	-65.3	3.8	1.49e+00	0	40	104	0	71	21037
2026-01-21 13:04:40.88	269.12	9.96	-50.3	-65.2	3.8	1.49e+00	0	40	104	0	71	20978
2026-01-21 13:04:41.88	269.28	9.99	-50.3	-65.2	3.8	1.49e+00	0	40	104	0	71	20911
2026-01-21 13:04:42.89	269.45	10.02	-50.3	-65.2	3.8	1.49e+00	0	40	104	0	71	20968
2026-01-21 13:04:43.90	269.62	10.05	-50.3	-65.2	3.8	1.49e+00	0	40	104	0	71	20955
2026-01-21 13:04:44.91	269.79	10.08	-50.3	-65.2	3.8	1.49e+00	0	40	104	0	71	20980
2026-01-21 13:04:45.92	269.96	10.11	-50.3	-65.2	3.8	1.49e+00	0	40	104	0	71	20973
2026-01-21 13:04:46.93	270.13	10.14	-50.3	-65.2	3.8	1.49e+00	0	40	104	0	71	21017
2026-01-21 13:04:47.93	270.30	10.17	-50.3	-65.2	3.8	1.49e+00	0	40	104	0	71	20876
2026-01-21 13:04:48.94	270.47	10.20	-50.3	-65.2	3.8	1.49e+00	0	40	104	0	71	20987
2026-01-21 13:04:49.95	270.64	10.23	-50.3	-65.2	3.8	1.49e+00	0	40	104	0	71	21003
2026-01-21 13:04:50.96	270.82	10.26	-50.3	-65.2	3.8	1.49e+00	0	40	104	0	71	20927
2026-01-21 13:04:51.97	270.99	10.29	-50.3	-65.2	3.8	1.49e+00	0	40	104	0	71	20982
2026-01-21 13:04:52.97	271.16	10.32	-50.3	-65.3	3.8	1.49e+00	0	40	104	0	71	21037
2026-01-21 13:04:53.98	271.33	10.35	-50.3	-65.2	3.8	1.49e+00	0	40	104	0	71	20953
2026-01-21 13:04:54.99	271.50	10.38	-50.3	-65.2	3.8	1.49e+00	0	40	104	0	71	20961
2026-01-21 13:04:56.00	271.68	10.41	-50.3	-65.2	3.8	1.49e+00	0	40	104	0	71	21005
2026-01-21 13:04:57.00	271.85	10.44	-50.3	-65.2	3.8	1.49e+00	0	40	104	0	71	20982
2026-01-21 13:04:58.01	272.02	10.47	-50.3	-65.2	3.8	1.49e+00	0	40	104	0	71	20953
2026-01-21 13:04:59.02	272.20	10.49	-50.3	-65.2	3.8	1.49e+00	0	40	104	0	71	20939
2026-01-21 13:05:00.03	272.37	10.52	-50.3	-65.2	3.8	1.49e+00	0	40	104	0	71	20916
2026-01-21 13:05:01.04	272.55	10.55	-50.3	-65.3	3.8	1.49e+00	0	40	104	0	71	21048
2026-01-21 13:05:02.05	272.72	10.58	-50.3	-65.2	3.8	1.49e+00	0	40	104	0	71	20996
2026-01-21 13:05:03.05	272.90	10.60	-50.3	-65.2	3.8	1.49e+00	0	40	104	0	71	21013
2026-01-21 13:05:04.06	273.08	10.63	-50.3	-65.2	3.8	1.49e+00	0	40	104	0	71	20981
2026-01-21 13:05:05.07	273.25	10.66	-50.3	-65.2	3.8	1.49e+00	0	40	104	0	71	20953
2026-01-21 13:05:06.08	273.43	10.69	-50.3	-65.2	3.8	1.49e+00	0	40	104	0	71	20978
2026-01-21 13:05:07.09	273.61	10.71	-50.3	-65.3	3.8	1.49e+00	0	40	104	0	71	21037
2026-01-21 13:05:08.09	273.78	10.74	-50.3	-65.2	3.8	1.49e+00	0	40	104	0	71	20942
2026-01-21 13:05:09.10	273.96	10.76	-50.3	-65.2	3.8	1.49e+00	0	40	104	0	71	20997
2026-01-21 13:05:10.11	274.14	10.79	-50.3	-65.2	3.8	1.49e+00	0	40	104	0	71	20988
2026-01-21 13:05:11.12	274.32	10.82	-50.3	-65.2	3.8	1.49e+00	0	40	104	0	71	20910
2026-01-21 13:05:12.12	274.49	10.84	-50.3	-65.2	3.8	1.49e+00	0	40	104	0	71	20986
2026-01-21 13:05:13.13	274.67	10.87	-50.3	-65.3	3.8	1.49e+00	0	40	104	0	71	21026
2026-01-21 13:05:14.14	274.85	10.89	-50.3	-65.2	3.8	1.49e+00	0	40	104	0	71	21009
2026-01-21 13:05:15.15	275.03	10.92	-50.3	-65.2	3.8	1.49e+00	0	40	104	0	71	20953
2026-01-21 13:05:16.16	275.21	10.94	-50.3	-65.2	3.8	1.49e+00	0	40	104	0	71	20962
2026-01-21 13:05:17.16	275.39	10.97	-50.3	-65.2	3.8	1.49e+00	0	40	104	0	71	20950
2026-01-21 13:05:18.17	275.57	10.99	-50.3	-65.2	3.8	1.49e+00	0	40	104	0	71	20909
2026-01-21 13:05:19.18	275.75	11.01	-50.3	-65.2	3.8	1.49e+00	0	40	104	0	71	20958
2026-01-21 13:05:20.19	275.93	11.04	-50.3	-65.2	3.8	1.49e+00	0	40	104	0	71	20975
2026-01-21 13:05:21.20	276.11	11.06	-50.3	-65.2	3.8	1.49e+00	0	40	104	0	71	20973
2026-01-21 13:05:22.21	276.29	11.08	-50.3	-65.2	3.8	1.49e+00	0	40	104	0	71	20995
2026-01-21 13:05:23.21	276.47	11.11	-50.3	-65.2	3.8	1.49e+00	0	40	104	0	71	20953
2026-01-21 13:05:24.22	276.65	11.13	-50.3	-65.2	3.8	1.49e+00	0	40	104	0	71	20924
2026-01-21 13:05:25.23	276.84	11.15	-50.3	-65.2	3.8	1.49e+00	0	40	104	0	71	20958
2026-01-21 13:05:26.23	277.02	11.18	-50.3	-65.2	3.8	1.49e+00	0	40	104	0	71	20968
2026-01-21 13:05:27.24	277.20	11.20	-50.3	-65.2	3.8	1.49e+00	0	40	104	0	71	20953
2026-01-21 13:05:28.25	277.38	11.22	-50.3	-65.2	3.8	1.49e+00	0	40	104	0	71	20942
2026-01-21 13:05:29.26	277.57	11.24	-50.3	-65.2	3.8	1.49e+00	0	40	104	0	71	21012
2026-01-21 13:05:30.26	277.75	11.26	-50.3	-65.2	3.8	1.49e+00	0	40	104	0	71	20977
2026-01-21 13:05:31.27	277.93	11.28	-50.3	-65.2	3.8	1.49e+00	0	40	104	0	71	20962
2026-01-21 13:05:32.28	278.12	11.30	-50.3	-65.3	3.8	1.49e+00	0	40	104	0	71	21040
2026-01-21 13:05:33.29	278.30	11.33	-50.3	-65.2	3.8	1.49e+00	0	40	104	0	71	20933
2026-01-21 13:05:34.30	278.49	11.35	-50.3	-65.2	3.8	1.49e+00	0	40	104	0	71	20984
2026-01-21 13:05:35.30	278.67	11.37	-50.3	-65.2	3.8	1.49e+00	0	40	104	0	71	21009
2026-01-21 13:05:36.31	278.85	11.39	-50.3	-65.2	3.8	1.49e+00	0	40	104	0	71	20976
2026-01-21 13:05:37.32	279.04	11.41	-50.3	-65.3	3.8	1.49e+00	0	40	104	0	71	21020
2026-01-21 13:05:38.32	279.22	11.42	-50.3	-65.3	3.8	1.49e+00	0	40	104	0	71	21032
2026-01-21 13:05:39.33	279.41	11.44	-50.3	-65.2	3.8	1.49e+00	0	40	104	0	71	21011
2026-01-21 13:05:40.35	279.60	11.46	-50.3	-65.2	3.8	1.49e+00	0	40	104	0	71	20991
2026-01-21 13:05:41.35	279.78	11.48	-50.3	-65.2	3.8	1.49e+00	0	40	104	0	71	20945
2026-01-21 13:05:42.36	279.97	11.50	-50.3	-65.3	3.8	1.49e+00	0	40	104	0	71	21040
2026-01-21 13:05:43.37	280.15	11.52	-50.3	-65.2	3.8	1.49e+00	0	40	104	0	71	20976
2026-01-21 13:05:44.38	280.34	11.54	-50.3	-65.2	3.8	1.49e+00	0	40	104	0	71	21011
2026-01-21 13:05:45.38	280.53	11.55	-50.3	-65.2	3.8	1.49e+00	0	40	104	0	71	20941
2026-01-21 13:05:46.39	280.71	11.57	-50.3	-65.2	3.8	1.49e+00	0	40	104	0	71	20992
2026-01-21 13:05:47.40	280.90	11.59	-50.3	-65.2	3.8	1.49e+00	0	40	104	0	71	20979
2026-01-21 13:05:48.41	281.09	11.60	-50.3	-65.2	3.8	1.49e+00	0	40	104	0	71	20931
2026-01-21 13:05:49.42	281.28	11.62	-50.3	-65.2	3.8	1.49e+00	0	40	104	0	71	20958
2026-01-21 13:05:50.42	281.46	11.64	-50.3	-65.2	3.8	1.49e+00	0	40	104	0	71	20985
2026-01-21 13:05:51.43	281.65	11.65	-50.3	-65.2	3.8	1.49e+00	0	40	104	0	71	20976
2026-01-21 13:05:52.44	281.84	11.67	-50.3	-65.2	3.8	1.49e+00	0	40	104	0	71	20991
2026-01-21 13:05:53.44	282.03	11.68	-50.3	-65.2	3.8	1.49e+00	0	40	104	0	71	20973
2026-01-21 13:05:54.45	282.22	11.70	-50.3	-65.2	3.8	1.49e+00	0	40	104	0	71	20964
2026-01-21 13:05:55.46	282.40	11.71	-50.3	-65.2	3.8	1.49e+00	0	40	104	0	71	20934
2026-01-21 13:05:56.47	282.59	11.73	-50.3	-65.2	3.8	1.49e+00	0	40	104	0	71	20967
2026-01-21 13:05:57.48	282.78	11.74	-50.3	-65.2	3.8	1.49e+00	0	40	104	0	71	20979
2026-01-21 13:05:58.48	282.97	11.76	-50.3	-65.3	3.8	1.49e+00	0	40	104	0	71	21040
2026-01-21 13:05:59.49	283.16	11.77	-50.3	-65.2	3.8	1.49e+00	0	40	104	0	71	20969
2026-01-21 13:06:00.50	283.35	11.79	-50.3	-65.2	3.8	1.49e+00	0	40	104	0	71	20967
2026-01-21 13:06:01.51	283.54	11.80	-50.3	-65.2	3.8	1.49e+00	0	40	104	0	71	21015
2026-01-21 13:06:02.52	283.73	11.81	-50.3	-65.2	3.8	1.49e+00	0	40	104	0	71	20963
2026-01-21 13:06:03.53	283.92	11.83	-50.3	-65.2	3.8	1.49e+00	0	40	104	0	71	20967
2026-01-21 13:06:04.54	284.11	11.84	-50.3	-65.2	3.8	1.49e+00	0	40	104	0	71	20982
2026-01-21 13:06:05.54	284.30	11.85	-50.3	-65.2	3.8	1.49e+00	0	40	104	0	71	20975
2026-01-21 13:06:06.55	284.49	11.86	-50.3	-65.2	3.8	1.49e+00	0	40	104	0	71	20995
2026-01-21 13:06:07.56	284.68	11.87	-50.3	-65.2	3.8	1.49e+00	0	40	104	0	71	20973
2026-01-21 13:06:08.57	284.88	11.88	-50.3	-65.2	3.8	1.49e+00	0	40	104	0	71	20966
2026-01-21 13:06:09.58	285.07	11.90	-50.3	-65.2	3.8	1.49e+00	0	40	104	0	71	20972
2026-01-21 13:06:10.58	285.26	11.91	-50.3	-65.2	3.8	1.49e+00	0	40	104	0	71	20991
2026-01-21 13:06:11.59	285.45	11.92	-50.3	-65.2	3.8	1.49e+00	0	40	104	0	71	20969
2026-01-21 13:06:12.60	285.64	11.93	-50.3	-65.2	3.8	1.49e+00	0	40	104	0	71	20987
2026-01-21 13:06:13.61	285.83	11.94	-50.3	-65.2	3.8	1.49e+00	0	40	104	0	71	21001
2026-01-21 13:06:14.62	286.02	11.95	-50.3	-65.2	3.8	1.49e+00	0	40	104	0	71	20995
2026-01-21 13:06:15.62	286.21	11.96	-50.3	-65.2	3.8	1.49e+00	0	40	104	0	71	20939
2026-01-21 13:06:16.63	286.41	11.97	-50.3	-65.2	3.8	1.49e+00	0	40	104	0	71	20971
2026-01-21 13:06:17.64	286.60	11.98	-50.3	-65.2	3.8	1.49e+00	0	40	104	0	71	21008
2026-01-21 13:06:18.65	286.79	11.98	-50.3	-65.2	3.8	1.49e+00	0	40	104	0	71	20949
2026-01-21 13:06:19.66	286.98	11.99	-50.3	-65.2	3.8	1.49e+00	0	40	104	0	71	20972
2026-01-21 13:06:20.67	287.18	12.00	-50.3	-65.2	3.8	1.49e+00	0	40	104	0	71	20940
2026-01-21 13:06:21.67	287.37	12.01	-50.3	-65.2	3.8	1.49e+00	0	40	104	0	71	20959
2026-01-21 13:06:22.68	287.56	12.02	-50.3	-65.2	3.8	1.49e+00	0	40	104	0	71	21001
2026-01-21 13:06:23.69	287.75	12.02	-50.3	-65.2	3.8	1.49e+00	0	40	104	0	71	20935
2026-01-21 13:06:24.69	287.94	12.03	-50.3	-65.2	3.8	1.49e+00	0	40	104	0	71	20995
2026-01-21 13:06:25.70	288.14	12.04	-50.3	-65.2	3.8	1.49e+00	0	40	104	0	71	21010
2026-01-21 13:06:26.71	288.33	12.04	-50.3	-65.2	3.8	1.49e+00	0	40	104	0	71	20950
2026-01-21 13:06:27.72	288.52	12.05	-50.3	-65.2	3.8	1.49e+00	0	40	104	0	71	20976
2026-01-21 13:06:28.72	288.72	12.05	-50.3	-65.2	3.8	1.49e+00	0	40	104	0	71	20967
2026-01-21 13:06:29.73	288.91	12.06	-50.3	-65.2	3.8	1.49e+00	0	40	104	0	71	20978
2026-01-21 13:06:30.74	289.10	12.06	-50.3	-65.2	3.8	1.49e+00	0	40	104	0	71	20955
2026-01-21 13:06:31.75	289.30	12.07	-50.3	-65.2	3.8	1.49e+00	0	40	104	0	71	20927
2026-01-21 13:06:32.76	289.49	12.07	-50.3	-65.2	3.8	1.49e+00	0	40	104	0	71	21015
2026-01-21 13:06:33.76	289.68	12.08	-50.3	-65.2	3.8	1.49e+00	0	40	104	0	71	21002
2026-01-21 13:06:34.77	289.88	12.08	-50.3	-65.2	3.8	1.49e+00	0	40	104	0	71	20939
2026-01-21 13:06:35.78	290.07	12.09	-50.3	-65.2	3.8	1.49e+00	0	40	104	0	71	20956
2026-01-21 13:06:36.79	290.26	12.09	-50.3	-65.2	3.8	1.49e+00	0	40	104	0	71	20991
2026-01-21 13:06:37.80	290.46	12.09	-50.3	-65.3	3.8	1.49e+00	0	40	104	0	71	21053
2026-01-21 13:06:38.80	290.65	12.10	-50.3	-65.2	3.8	1.49e+00	0	40	104	0	71	21009
2026-01-21 13:06:39.81	290.84	12.10	-50.3	-65.2	3.8	1.49e+00	0	40	104	0	71	20995
2026-01-21 13:06:40.82	291.04	12.10	-50.3	-65.2	3.8	1.49e+00	0	40	104	0	71	20986
2026-01-21 13:06:41.82	291.23	12.10	-50.3	-65.2	3.8	1.49e+00	0	40	104	0	71	20990
2026-01-21 13:06:42.83	291.42	12.10	-50.3	-65.2	3.8	1.49e+00	0	40	104	0	71	20935
2026-01-21 13:06:43.84	291.62	12.10	-50.3	-65.2	3.8	1.49e+00	0	40	104	0	71	20968
2026-01-21 13:06:44.85	291.81	12.11	-50.3	-65.2	3.8	1.49e+00	0	40	104	0	71	20988
2026-01-21 13:06:45.86	292.00	12.11	-50.3	-65.2	3.8	1.49e+00	0	40	104	0	71	21001
2026-01-21 13:06:46.86	292.20	12.11	-50.3	-65.2	3.8	1.49e+00	0	40	104	0	71	21017
2026-01-21 13:06:47.87	292.39	12.11	-50.3	-65.2	3.8	1.49e+00	0	40	104	0	71	20965
2026-01-21 13:06:48.88	292.58	12.11	-50.3	-65.2	3.8	1.49e+00	0	40	104	0	71	21002
2026-01-21 13:06:49.89	292.78	12.11	-50.3	-65.2	3.8	1.49e+00	0	40	104	0	71	21004
2026-01-21 13:06:50.90	292.97	12.11	-50.3	-65.2	3.8	1.49e+00	0	40	104	0	71	20975
2026-01-21 13:06:51.90	293.16	12.10	-50.3	-65.2	3.8	1.49e+00	0	40	104	0	71	20962
2026-01-21 13:06:52.91	293.36	12.10	-50.3	-65.2	3.8	1.49e+00	0	40	104	0	71	20984
2026-01-21 13:06:53.92	293.55	12.10	-50.3	-65.2	3.8	1.49e+00	0	40	104	0	71	20940
2026-01-21 13:06:54.93	293.75	12.10	-50.3	-65.2	3.8	1.49e+00	0	40	104	0	71	21001
2026-01-21 13:06:55.94	293.94	12.10	-50.3	-65.2	3.8	1.49e+00	0	40	104	0	71	20943
2026-01-21 13:06:56.95	294.13	12.10	-50.3	-65.2	3.8	1.49e+00	0	40	104	0	71	21003
2026-01-21 13:06:57.96	294.33	12.09	-50.3	-65.2	3.8	1.49e+00	0	40	104	0	71	20983
2026-01-21 13:06:58.97	294.52	12.09	-50.3	-65.2	3.8	1.49e+00	0	40	104	0	71	20981
2026-01-21 13:06:59.97	294.71	12.09	-50.3	-65.2	3.8	1.49e+00	0	40	104	0	71	20962
2026-01-21 13:07:00.98	294.91	12.08	-50.3	-65.2	3.8	1.49e+00	0	40	104	0	71	21017
2026-01-21 13:07:01.98	295.10	12.08	-50.3	-65.2	3.8	1.49e+00	0	40	104	0	71	21001
2026-01-21 13:07:02.99	295.29	12.07	-50.3	-65.2	3.8	1.49e+00	0	40	104	0	71	20996
2026-01-21 13:07:04.00	295.49	12.07	-50.3	-65.2	3.8	1.49e+00	0	40	104	0	71	20958
2026-01-21 13:07:05.01	295.68	12.07	-50.3	-65.2	3.8	1.49e+00	0	40	104	0	71	20978
2026-01-21 13:07:06.02	295.87	12.06	-50.3	-65.2	3.8	1.49e+00	0	40	104	0	71	20984
2026-01-21 13:07:07.02	296.06	12.05	-50.3	-65.2	3.8	1.49e+00	0	40	104	0	71	20994
2026-01-21 13:07:08.03	296.26	12.05	-50.3	-65.3	3.8	1.49e+00	0	40	104	0	71	21028
2026-01-21 13:07:09.04	296.45	12.04	-50.3	-65.2	3.8	1.49e+00	0	40	104	0	71	20997
2026-01-21 13:07:10.05	296.64	12.04	-50.3	-65.2	3.8	1.49e+00	0	40	104	0	71	20957
2026-01-21 13:07:11.06	296.84	12.03	-50.3	-65.2	3.8	1.49e+00	0	40	104	0	71	20933
2026-01-21 13:07:12.06	297.03	12.02	-50.3	-65.2	3.8	1.49e+00	0	40	104	0	71	20957
2026-01-21 13:07:13.07	297.22	12.02	-50.3	-65.3	3.8	1.49e+00	0	40	104	0	71	21020
2026-01-21 13:07:14.08	297.41	12.01	-50.3	-65.2	3.8	1.49e+00	0	40	104	0	71	20982
2026-01-21 13:07:15.08	297.60	12.00	-50.3	-65.2	3.8	1.49e+00	0	40	104	0	71	20951
2026-01-21 13:07:16.09	297.80	11.99	-50.3	-65.2	3.8	1.49e+00	0	40	104	0	71	20973
2026-01-21 13:07:17.10	297.99	11.99	-50.3	-65.2	3.8	1.49e+00	0	40	104	0	71	20976
2026-01-21 13:07:18.11	298.18	11.98	-50.3	-65.2	3.8	1.49e+00	0	40	104	0	71	20991
2026-01-21 13:07:19.12	298.37	11.97	-50.3	-65.2	3.8	1.49e+00	0	40	104	0	71	20944
2026-01-21 13:07:20.13	298.57	11.96	-50.3	-65.2	3.8	1.49e+00	0	40	104	0	71	20996
2026-01-21 13:07:21.13	298.76	11.95	-50.3	-65.2	3.8	1.49e+00	0	40	104	0	71	21005
2026-01-21 13:07:22.14	298.95	11.94	-50.3	-65.2	3.8	1.49e+00	0	40	104	0	71	20962
2026-01-21 13:07:23.15	299.14	11.93	-50.3	-65.2	3.8	1.49e+00	0	40	104	0	71	20963
2026-01-21 13:07:24.16	299.33	11.92	-50.3	-65.3	3.8	1.49e+00	0	40	104	0	71	21022
2026-01-21 13:07:25.17	299.52	11.91	-50.3	-65.2	3.8	1.49e+00	0	40	104	0	71	20915
2026-01-21 13:07:26.18	299.71	11.90	-50.3	-65.2	3.8	1.49e+00	0	40	104	0	71	20993
2026-01-21 13:07:27.18	299.90	11.89	-50.3	-65.3	3.8	1.49e+00	0	40	104	0	71	21021
2026-01-21 13:07:28.19	300.09	11.88	-50.3	-65.2	3.8	1.49e+00	0	40	104	0	71	20940
2026-01-21 13:07:29.20	300.28	11.86	-50.3	-65.2	3.8	1.49e+00	0	40	104	0	71	21010
2026-01-21 13:07:30.21	300.48	11.85	-50.3	-65.2	3.8	1.49e+00	0	40	104	0	71	20951
2026-01-21 13:07:31.22	300.67	11.84	-50.3	-65.2	3.8	1.49e+00	0	40	104	0	71	20982
2026-01-21 13:07:32.22	300.85	11.83	-50.3	-65.2	3.8	1.49e+00	0	40	104	0	71	20988
2026-01-21 13:07:33.23	301.04	11.81	-50.3	-65.2	3.8	1.49e+00	0	40	104	0	71	20968
2026-01-21 13:07:34.24	301.23	11.80	-50.3	-65.2	3.8	1.49e+00	0	40	104	0	71	20972
2026-01-21 13:07:35.24	301.42	11.79	-50.3	-65.2	3.8	1.49e+00	0	40	104	0	71	20938
2026-01-21 13:07:36.25	301.61	11.77	-50.3	-65.2	3.8	1.49e+00	0	40	104	0	71	20950
2026-01-21 13:07:37.25	301.80	11.76	-50.3	-65.2	3.8	1.49e+00	0	40	104	0	71	20993
2026-01-21 13:07:38.26	301.99	11.75	-50.3	-65.2	3.8	1.49e+00	0	40	104	0	71	20979
2026-01-21 13:07:39.27	302.18	11.73	-50.3	-65.2	3.8	1.49e+00	0	40	104	0	71	20989
2026-01-21 13:07:40.27	302.37	11.72	-50.3	-65.2	3.8	1.49e+00	0	40	104	0	71	20985
2026-01-21 13:07:41.28	302.55	11.70	-50.3	-65.2	3.8	1.49e+00	0	40	104	0	71	20989
2026-01-21 13:07:42.29	302.74	11.69	-50.3	-65.2	3.8	1.49e+00	0	40	104	0	71	20961
2026-01-21 13:07:43.30	302.93	11.67	-50.3	-65.2	3.8	1.49e+00	0	40	104	0	71	20959
2026-01-21 13:07:44.30	303.12	11.66	-50.3	-65.2	3.8	1.49e+00	0	40	104	0	71	20986
2026-01-21 13:07:45.31	303.31	11.64	-50.3	-65.2	3.8	1.49e+00	0	40	104	0	71	20969
2026-01-21 13:07:46.32	303.49	11.62	-50.3	-65.2	3.8	1.49e+00	0	40	104	0	71	20982
2026-01-21 13:07:47.33	303.68	11.61	-50.3	-65.2	3.8	1.49e+00	0	40	104	0	71	20972
2026-01-21 13:07:48.33	303.87	11.59	-50.3	-65.2	3.8	1.49e+00	0	40	104	0	71	20971
2026-01-21 13:07:49.34	304.05	11.57	-50.3	-65.2	3.8	1.49e+00	0	40	104	0	71	20971
2026-01-21 13:07:50.35	304.24	11.56	-50.3	-65.2	3.8	1.49e+00	0	40	104	0	71	21017
2026-01-21 13:07:51.36	304.43	11.54	-50.3	-65.2	3.8	1.49e+00	0	40	104	0	71	21000
2026-01-21 13:07:52.37	304.62	11.52	-50.3	-65.2	3.8	1.49e+00	0	40	104	0	71	20952
2026-01-21 13:07:53.38	304.80	11.50	-50.3	-65.2	3.8	1.49e+00	0	40	104	0	71	20913
2026-01-21 13:07:54.39	304.99	11.49	-50.3	-65.2	3.8	1.49e+00	0	40	104	0	71	20992
2026-01-21 13:07:55.40	305.17	11.47	-50.3	-65.2	3.8	1.49e+00	0	40	104	0	71	20954
2026-01-21 13:07:56.41	305.36	11.45	-50.3	-65.2	3.8	1.49e+00	0	40	104	0	71	21011
2026-01-21 13:07:57.41	305.54	11.43	-50.3	-65.2	3.8	1.49e+00	0	40	104	0	71	20909
2026-01-21 13:07:58.42	305.73	11.41	-50.3	-65.2	3.8	1.49e+00	0	40	104	0	71	20978
2026-01-21 13:07:59.43	305.91	11.39	-50.3	-65.2	3.8	1.49e+00	0	40	104	0	71	21015
2026-01-21 13:08:00.44	306.10	11.37	-50.3	-65.2	3.8	1.49e+00	0	40	104	0	71	20954
2026-01-21 13:08:01.45	306.28	11.35	-50.3	-65.2	3.8	1.49e+00	0	40	104	0	71	20944
2026-01-21 13:08:02.45	306.46	11.33	-50.3	-65.2	3.8	1.49e+00	0	40	104	0	71	20898
2026-01-21 13:08:03.46	306.65	11.31	-50.3	-65.2	3.8	1.49e+00	0	40	104	0	71	20936
2026-01-21 13:08:04.47	306.83	11.29	-50.3	-65.2	3.8	1.49e+00	0	40	104	0	71	20964
2026-01-21 13:08:05.48	307.02	11.27	-50.3	-65.2	3.8	1.49e+00	0	40	104	0	71	20974
2026-01-21 13:08:06.48	307.20	11.25	-50.3	-65.2	3.8	1.49e+00	0	40	104	0	71	21013
2026-01-21 13:08:07.49	307.38	11.23	-50.3	-65.3	3.8	1.49e+00	0	40	104	0	71	21042
2026-01-21 13:08:08.50	307.56	11.20	-50.3	-65.2	3.8	1.49e+00	0	40	104	0	71	20978
2026-01-21 13:08:09.51	307.74	11.18	-50.3	-65.2	3.8	1.49e+00	0	40	104	0	71	20989
2026-01-21 13:08:10.52	307.93	11.16	-50.3	-65.2	3.8	1.49e+00	0	40	104	0	71	20979
2026-01-21 13:08:11.52	308.11	11.14	-50.3	-65.2	3.8	1.49e+00	0	40	104	0	71	20965
2026-01-21 13:08:12.53	308.29	11.11	-50.3	-65.2	3.8	1.49e+00	0	40	104	0	71	21005
2026-01-21 13:08:13.54	308.47	11.09	-50.3	-65.2	3.8	1.49e+00	0	40	104	0	71	20931
2026-01-21 13:08:14.55	308.65	11.07	-50.3	-65.2	3.8	1.49e+00	0	40	104	0	71	20937
2026-01-21 13:08:15.56	308.83	11.04	-50.3	-65.2	3.8	1.49e+00	0	40	104	0	71	20956
2026-01-21 13:08:16.57	309.01	11.02	-50.3	-65.2	3.8	1.49e+00	0	40	104	0	71	20947
2026-01-21 13:08:17.58	309.19	11.00	-50.3	-65.2	3.8	1.49e+00	0	40	104	0	71	20950
2026-01-21 13:08:18.58	309.37	10.97	-50.3	-65.2	3.8	1.49e+00	0	40	104	0	71	20978
2026-01-21 13:08:19.59	309.55	10.95	-50.3	-65.2	3.8	1.49e+00	0	40	104	0	71	20973
2026-01-21 13:08:20.60	309.73	10.92	-50.3	-65.2	3.8	1.49e+00	0	40	104	0	71	20946
2026-01-21 13:08:21.61	309.91	10.90	-50.3	-65.2	3.8	1.49e+00	0	40	104	0	71	20952
2026-01-21 13:08:22.62	310.09	10.87	-50.3	-65.2	3.8	1.49e+00	0	40	104	0	71	21014
2026-01-21 13:08:23.62	310.26	10.85	-50.3	-65.2	3.8	1.49e+00	0	40	104	0	71	20914
2026-01-21 13:08:24.63	310.44	10.82	-50.3	-65.2	3.8	1.49e+00	0	40	104	0	71	20970
2026-01-21 13:08:25.64	310.62	10.80	-50.3	-65.2	3.8	1.49e+00	0	40	104	0	71	20941
2026-01-21 13:08:26.65	310.80	10.77	-50.3	-65.2	3.8	1.49e+00	0	40	104	0	71	20967
2026-01-21 13:08:27.66	310.97	10.75	-50.3	-65.2	3.8	1.49e+00	0	40	104	0	71	20935
2026-01-21 13:08:28.67	311.15	10.72	-50.3	-65.2	3.8	1.49e+00	0	40	104	0	71	20902
2026-01-21 13:08:29.68	311.33	10.69	-50.3	-65.2	3.8	1.49e+00	0	40	104	0	71	20949
2026-01-21 13:08:30.68	311.50	10.67	-50.3	-65.2	3.8	1.49e+00	0	40	104	0	71	20932
2026-01-21 13:08:31.69	311.68	10.64	-50.3	-65.2	3.8	1.49e+00	0	40	104	0	71	20948
2026-01-21 13:08:32.70	311.85	10.61	-50.3	-65.2	3.8	1.49e+00	0	40	104	0	71	20981
2026-01-21 13:08:33.71	312.03	10.59	-50.3	-65.2	3.8	1.49e+00	0	40	104	0	71	20996
2026-01-21 13:08:34.72	312.20	10.56	-50.3	-65.2	3.8	1.49e+00	0	40	104	0	71	20942
2026-01-21 13:08:35.73	312.38	10.53	-50.3	-65.2	3.8	1.49e+00	0	40	104	0	71	20900
2026-01-21 13:08:36.74	312.55	10.50	-50.3	-65.2	3.8	1.49e+00	0	40	104	0	71	20935
2026-01-21 13:08:37.75	312.73	10.48	-50.3	-65.2	3.8	1.49e+00	0	40	104	0	71	20979
2026-01-21 13:08:38.75	312.90	10.45	-50.3	-65.2	3.8	1.49e+00	0	40	104	0	71	20919
2026-01-21 13:08:39.76	313.07	10.42	-50.3	-65.2	3.8	1.49e+00	0	40	104	0	71	20989
2026-01-21 13:08:40.77	313.25	10.39	-50.3	-65.2	3.8	1.49e+00	0	40	104	0	71	20899
2026-01-21 13:08:41.78	313.42	10.36	-50.3	-65.2	3.8	1.49e+00	0	40	104	0	71	20958
2026-01-21 13:08:42.79	313.59	10.33	-50.3	-65.2	3.8	1.49e+00	0	40	104	0	71	20924
2026-01-21 13:08:43.80	313.76	10.30	-50.3	-65.2	3.8	1.49e+00	0	40	104	0	71	20920
2026-01-21 13:08:44.80	313.93	10.27	-50.3	-65.2	3.8	1.49e+00	0	40	104	0	71	20982
2026-01-21 13:08:45.81	314.10	10.24	-50.3	-65.2	3.8	1.49e+00	0	40	104	0	71	20943
2026-01-21 13:08:46.82	314.28	10.21	-50.3	-65.2	3.8	1.49e+00	0	40	104	0	71	20898
2026-01-21 13:08:47.83	314.45	10.18	-50.3	-65.2	3.8	1.49e+00	0	40	104	0	71	20978
2026-01-21 13:08:48.84	314.62	10.15	-50.3	-65.2	3.8	1.49e+00	0	40	104	0	71	20959
2026-01-21 13:08:49.84	314.79	10.12	-50.3	-65.2	3.8	1.49e+00	0	40	104	0	71	20889
2026-01-21 13:08:50.85	314.96	10.09	-50.3	-65.2	3.8	1.49e+00	0	40	104	0	71	20956
2026-01-21 13:08:51.86	315.12	10.06	-50.3	-65.2	3.8	1.49e+00	0	40	104	0	71	20947
2026-01-21 13:08:52.87	315.29	10.03	-50.3	-65.2	3.8	1.49e+00	0	40	104	0	71	20960
2026-01-21 13:08:53.88	315.46	10.00	-50.3	-65.2	3.8	1.49e+00	0	40	104	0	71	21015
2026-01-21 13:08:54.88	315.63	9.97	-50.3	-65.2	3.8	1.49e+00	0	40	104	0	71	20946
2026-01-21 13:08:55.89	315.80	9.94	-50.3	-65.2	3.8	1.49e+00	0	40	104	0	71	20950
2026-01-21 13:08:56.90	315.96	9.91	-50.3	-65.2	3.8	1.49e+00	0	40	104	0	71	20938
2026-01-21 13:08:57.90	316.13	9.88	-50.3	-65.2	3.8	1.49e+00	0	40	104	0	71	20914
2026-01-21 13:08:58.91	316.30	9.84	-50.3	-65.2	3.8	1.49e+00	0	40	104	0	71	20929
2026-01-21 13:08:59.92	316.46	9.81	-50.3	-65.2	3.8	1.49e+00	0	40	104	0	71	20950
2026-01-21 13:09:00.93	316.63	9.78	-50.3	-65.2	3.8	1.49e+00	0	40	104	0	71	20987
2026-01-21 13:09:01.94	316.80	9.75	-50.3	-65.2	3.8	1.49e+00	0	40	104	0	71	20941
2026-01-21 13:09:02.94	316.96	9.71	-50.3	-65.2	3.8	1.49e+00	0	40	104	0	71	20958
2026-01-21 13:09:03.95	317.12	9.68	-50.3	-65.2	3.8	1.49e+00	0	40	104	0	71	20927
2026-01-21 13:09:04.96	317.29	9.65	-50.3	-65.2	3.8	1.49e+00	0	40	104	0	71	20939
2026-01-21 13:09:05.97	317.45	9.62	-50.3	-65.2	3.8	1.49e+00	0	40	104	0	71	20928
2026-01-21 13:09:06.98	317.62	9.58	-50.3	-65.2	3.8	1.49e+00	0	40	104	0	71	20966
2026-01-21 13:09:07.98	317.78	9.55	-50.3	-65.2	3.8	1.49e+00	0	40	104	0	71	20942
2026-01-21 13:09:08.99	317.94	9.52	-50.3	-65.2	3.8	1.49e+00	0	40	104	0	71	20948
2026-01-21 13:09:09.99	318.10	9.48	-50.3	-65.2	3.8	1.49e+00	0	40	104	0	71	20975
2026-01-21 13:09:11.00	318.27	9.45	-50.3	-65.2	3.8	1.49e+00	0	40	104	0	71	20891
2026-01-21 13:09:12.01	318.43	9.41	-50.3	-65.2	3.8	1.49e+00	0	40	104	0	71	20945
2026-01-21 13:09:13.02	318.59	9.38	-50.3	-65.2	3.8	1.49e+00	0	40	104	0	71	20949
2026-01-21 13:09:14.02	318.75	9.35	-50.3	-65.2	3.8	1.49e+00	0	40	104	0	71	20968
2026-01-21 13:09:15.03	318.91	9.31	-50.3	-65.2	3.8	1.49e+00	0	40	104	0	71	20968
2026-01-21 13:09:16.04	319.07	9.28	-50.3	-65.2	3.8	1.49e+00	0	40	104	0	71	20976
2026-01-21 13:09:17.05	319.23	9.24	-50.3	-65.2	3.8	1.49e+00	0	40	104	0	71	21006
2026-01-21 13:09:18.06	319.39	9.21	-50.3	-65.2	3.8	1.49e+00	0	40	104	0	71	20938
2026-01-21 13:09:19.06	319.55	9.17	-50.3	-65.2	3.8	1.49e+00	0	40	104	0	71	20973
2026-01-21 13:09:20.07	319.71	9.14	-50.3	-65.2	3.8	1.49e+00	0	40	104	0	71	20952
2026-01-21 13:09:21.08	319.87	9.10	-50.3	-65.2	3.8	1.49e+00	0	40	104	0	71	20963
2026-01-21 13:09:22.09	320.03	9.07	-50.3	-65.2	3.8	1.49e+00	0	40	104	0	71	20966
2026-01-21 13:09:23.10	320.19	9.03	-50.3	-65.2	3.8	1.49e+00	0	40	104	0	71	20918
2026-01-21 13:09:24.10	320.34	9.00	-50.3	-65.2	3.8	1.49e+00	0	40	104	0	71	20931
2026-01-21 13:09:25.11	320.50	8.96	-50.3	-65.2	3.8	1.49e+00	0	40	104	0	71	20910
2026-01-21 13:09:26.12	320.66	8.92	-50.3	-65.2	3.8	1.49e+00	0	40	104	0	71	20964
2026-01-21 13:09:27.12	320.81	8.89	-50.3	-65.2	3.8	1.49e+00	0	40	104	0	71	20959
2026-01-21 13:09:28.13	320.97	8.85	-50.3	-65.2	3.8	1.49e+00	0	40	104	0	71	20906
2026-01-21 13:09:29.14	321.12	8.81	-50.3	-65.2	3.8	1.49e+00	0	40	104	0	71	20949
2026-01-21 13:09:30.15	321.28	8.78	-50.3	-65.2	3.8	1.49e+00	0	40	104	0	71	20984
2026-01-21 13:09:31.16	321.43	8.74	-50.3	-65.2	3.8	1.49e+00	0	40	104	0	71	20965
2026-01-21 13:09:32.17	321.59	8.70	-50.3	-65.2	3.8	1.49e+00	0	40	104	0	71	20923
2026-01-21 13:09:33.17	321.74	8.67	-50.3	-65.2	3.8	1.49e+00	0	40	104	0	71	20936
2026-01-21 13:09:34.18	321.90	8.63	-50.3	-65.2	3.8	1.49e+00	0	40	104	0	71	20925
2026-01-21 13:09:35.19	322.05	8.59	-50.3	-65.2	3.8	1.49e+00	0	40	104	0	71	20921
2026-01-21 13:09:36.20	322.20	8.56	-50.3	-65.2	3.8	1.49e+00	0	40	104	0	71	20976
2026-01-21 13:09:37.21	322.36	8.52	-50.3	-65.2	3.8	1.49e+00	0	40	104	0	71	20964
2026-01-21 13:09:38.22	322.51	8.48	-50.3	-65.2	3.8	1.49e+00	0	40	104	0	71	20968
2026-01-21 13:09:39.22	322.66	8.44	-50.3	-65.2	3.8	1.49e+00	0	40	104	0	71	20951
2026-01-21 13:09:40.23	322.81	8.41	-50.3	-65.2	3.8	1.49e+00	0	40	104	0	71	20974
2026-01-21 13:09:41.24	322.96	8.37	-50.3	-65.2	3.8	1.49e+00	0	40	104	0	71	20964
2026-01-21 13:09:42.25	323.11	8.33	-50.3	-65.2	3.8	1.49e+00	0	40	104	0	71	20912
2026-01-21 13:09:43.26	323.26	8.29	-50.3	-65.2	3.8	1.49e+00	0	40	104	0	71	20924
2026-01-21 13:09:44.27	323.41	8.25	-50.3	-65.2	3.8	1.49e+00	0	40	104	0	71	20943
2026-01-21 13:09:45.28	323.56	8.22	-50.3	-65.2	3.8	1.49e+00	0	40	104	0	71	20978
2026-01-21 13:09:46.29	323.71	8.18	-50.3	-65.2	3.8	1.49e+00	0	40	104	0	71	20922
2026-01-21 13:09:47.30	323.86	8.14	-50.3	-65.2	3.8	1.49e+00	0	40	104	0	71	20942
2026-01-21 13:09:48.30	324.01	8.10	-50.3	-65.2	3.8	1.49e+00	0	40	104	0	71	20952
2026-01-21 13:09:49.31	324.16	8.06	-50.3	-65.2	3.8	1.49e+00	0	40	104	0	71	20919
2026-01-21 13:09:50.32	324.31	8.02	-50.3	-65.2	3.8	1.49e+00	0	40	104	0	71	20941
2026-01-21 13:09:51.33	324.45	7.99	-50.3	-65.2	3.8	1.49e+00	0	40	104	0	71	20920
2026-01-21 13:09:52.34	324.60	7.95	-50.3	-65.2	3.8	1.49e+00	0	40	104	0	71	20978
2026-01-21 13:09:53.35	324.75	7.91	-50.3	-65.2	3.8	1.49e+00	0	40	104	0	71	21005
2026-01-21 13:09:54.36	324.89	7.87	-50.3	-65.2	3.8	1.49e+00	0	40	104	0	71	20963
2026-01-21 13:09:55.37	325.04	7.83	-50.3	-65.2	3.8	1.49e+00	0	40	104	0	71	20987
2026-01-21 13:09:56.38	325.19	7.79	-50.3	-65.2	3.8	1.49e+00	0	40	104	0	71	20952
2026-01-21 13:09:57.38	325.33	7.75	-50.3	-65.2	3.8	1.49e+00	0	40	104	0	71	20990
2026-01-21 13:09:58.39	325.47	7.71	-50.3	-65.2	3.8	1.49e+00	0	40	104	0	71	20938
2026-01-21 13:09:59.40	325.62	7.67	-50.3	-65.2	3.8	1.49e+00	0	40	104	0	71	20962
2026-01-21 13:10:00.41	325.76	7.63	-50.3	-65.2	3.8	1.49e+00	0	40	104	0	71	20907
2026-01-21 13:10:01.42	325.91	7.59	-50.3	-65.2	3.8	1.49e+00	0	40	104	0	71	20929
2026-01-21 13:10:02.43	326.05	7.55	-50.3	-65.2	3.8	1.49e+00	0	40	104	0	71	20927
2026-01-21 13:10:03.44	326.19	7.51	-50.3	-65.2	3.8	1.49e+00	0	40	104	0	71	20965
2026-01-21 13:10:04.45	326.34	7.47	-50.3	-65.2	3.8	1.49e+00	0	40	104	0	71	20939
2026-01-21 13:10:05.46	326.48	7.43	-50.3	-65.2	3.8	1.49e+00	0	40	104	0	71	20988
2026-01-21 13:10:06.46	326.62	7.39	-50.3	-65.2	3.8	1.49e+00	0	40	104	0	71	20936
2026-01-21 13:10:07.47	326.76	7.35	-50.3	-65.2	3.8	1.49e+00	0	40	104	0	71	20935
2026-01-21 13:10:08.48	326.90	7.31	-50.3	-65.2	3.8	1.49e+00	0	40	104	0	71	20963
2026-01-21 13:10:09.49	327.04	7.27	-50.3	-65.2	3.8	1.49e+00	0	40	104	0	71	20941
2026-01-21 13:10:10.50	327.18	7.23	-50.3	-65.2	3.8	1.49e+00	0	40	104	0	71	21005
2026-01-21 13:10:11.50	327.32	7.19	-50.3	-65.2	3.8	1.49e+00	0	40	104	0	71	20992
2026-01-21 13:10:12.51	327.46	7.15	-50.3	-65.3	3.8	1.49e+00	0	40	104	0	71	21020
2026-01-21 13:10:13.52	327.60	7.11	-50.3	-65.3	3.8	1.49e+00	0	40	104	0	71	21024
2026-01-21 13:10:14.53	327.74	7.07	-50.3	-65.2	3.8	1.49e+00	0	40	104	0	71	20956
2026-01-21 13:10:15.54	327.88	7.03	-50.3	-65.2	3.8	1.49e+00	0	40	104	0	71	21017
2026-01-21 13:10:16.54	328.01	6.98	-50.3	-65.2	3.8	1.49e+00	0	40	104	0	71	20926
2026-01-21 13:10:17.55	328.15	6.94	-50.3	-65.2	3.8	1.49e+00	0	40	104	0	71	20928
2026-01-21 13:10:18.56	328.29	6.90	-50.3	-65.2	3.8	1.49e+00	0	40	104	0	71	20929
2026-01-21 13:10:19.57	328.43	6.86	-50.3	-65.2	3.8	1.49e+00	0	40	104	0	71	20930
2026-01-21 13:10:20.58	328.56	6.82	-50.3	-65.2	3.8	1.49e+00	0	40	104	0	71	20922
2026-01-21 13:10:21.59	328.70	6.78	-50.3	-65.2	3.8	1.49e+00	0	40	104	0	71	21000
2026-01-21 13:10:22.60	328.83	6.74	-50.3	-65.2	3.8	1.49e+00	0	40	104	0	71	20945
2026-01-21 13:10:23.60	328.97	6.70	-50.3	-65.2	3.8	1.49e+00	0	40	104	0	71	20973
2026-01-21 13:10:24.61	329.10	6.65	-50.3	-65.2	3.8	1.49e+00	0	40	104	0	71	21005
2026-01-21 13:10:25.62	329.24	6.61	-50.3	-65.2	3.8	1.49e+00	0	40	104	0	71	20995
2026-01-21 13:10:26.63	329.37	6.57	-50.3	-65.2	3.8	1.49e+00	0	40	104	0	71	20965
2026-01-21 13:10:27.64	329.51	6.53	-50.3	-65.2	3.8	1.49e+00	0	40	104	0	71	20991
2026-01-21 13:10:28.65	329.64	6.49	-50.3	-65.2	3.8	1.49e+00	0	40	104	0	71	20948
2026-01-21 13:10:29.66	329.77	6.45	-50.3	-65.2	3.8	1.49e+00	0	40	104	0	71	20960
2026-01-21 13:10:30.67	329.91	6.40	-50.3	-65.2	3.8	1.49e+00	0	40	104	0	71	20887
2026-01-21 13:10:31.67	330.04	6.36	-50.3	-65.2	3.8	1.49e+00	0	40	104	0	71	20925
2026-01-21 13:10:32.68	330.17	6.32	-50.3	-65.2	3.8	1.49e+00	0	40	104	0	71	20898
2026-01-21 13:10:33.69	330.30	6.28	-50.3	-65.2	3.8	1.49e+00	0	40	104	0	71	20940
2026-01-21 13:10:34.70	330.43	6.24	-50.3	-65.2	3.8	1.49e+00	0	40	104	0	71	20888
2026-01-21 13:10:35.70	330.56	6.19	-50.3	-65.2	3.8	1.49e+00	0	40	104	0	71	20860
2026-01-21 13:10:36.71	330.69	6.15	-50.3	-65.2	3.8	1.49e+00	0	40	104	0	71	20898
2026-01-21 13:10:37.72	330.82	6.11	-50.3	-65.2	3.8	1.49e+00	0	40	104	0	71	20883
2026-01-21 13:10:38.73	330.95	6.07	-50.3	-65.2	3.8	1.49e+00	0	40	104	0	71	20859
2026-01-21 13:10:39.74	331.08	6.02	-50.3	-65.2	3.8	1.49e+00	0	40	104	0	71	20851
2026-01-21 13:10:40.75	331.21	5.98	-50.3	-65.1	3.8	1.49e+00	0	40	104	0	71	20764
2026-01-21 13:10:41.76	331.34	5.94	-50.3	-65.2	3.8	1.49e+00	0	40	104	0	71	20835
2026-01-21 13:10:42.77	331.47	5.90	-50.3	-65.2	3.8	1.49e+00	0	40	104	0	71	20793
2026-01-21 13:10:43.78	331.60	5.85	-50.3	-65.2	3.8	1.49e+00	0	40	104	0	71	20839
2026-01-21 13:10:44.79	331.73	5.81	-50.3	-65.2	3.8	1.49e+00	0	40	104	0	71	20924
2026-01-21 13:10:45.79	331.85	5.77	-50.3	-65.2	3.8	1.49e+00	0	40	104	0	71	20893
2026-01-21 13:10:46.80	331.98	5.73	-50.3	-65.2	3.8	1.49e+00	0	40	104	0	71	20902
2026-01-21 13:10:47.81	332.11	5.68	-50.3	-65.2	3.8	1.49e+00	0	40	104	0	71	20953
2026-01-21 13:10:48.82	332.23	5.64	-50.3	-65.2	3.8	1.49e+00	0	40	104	0	71	20914
2026-01-21 13:10:49.83	332.36	5.60	-50.3	-65.2	3.8	1.49e+00	0	40	104	0	71	20941
2026-01-21 13:10:50.84	332.48	5.55	-50.3	-65.2	3.8	1.49e+00	0	40	104	0	71	20890
2026-01-21 13:10:51.85	332.61	5.51	-50.3	-65.2	3.8	1.49e+00	0	40	104	0	71	20887
2026-01-21 13:10:52.86	332.73	5.47	-50.3	-65.2	3.8	1.49e+00	0	40	104	0	71	20817
2026-01-21 13:10:53.86	332.86	5.43	-50.3	-65.2	3.8	1.49e+00	0	40	104	0	71	20839
2026-01-21 13:10:54.87	332.98	5.38	-50.3	-65.2	3.8	1.49e+00	0	40	104	0	71	20801
2026-01-21 13:10:55.88	333.11	5.34	-50.3	-65.2	3.8	1.49e+00	0	40	104	0	71	20824
2026-01-21 13:10:56.89	333.23	5.30	-50.3	-65.2	3.8	1.49e+00	0	40	104	0	71	20843
2026-01-21 13:10:57.90	333.35	5.25	-50.3	-65.2	3.8	1.49e+00	0	40	104	0	71	20813
2026-01-21 13:10:58.91	333.48	5.21	-50.3	-65.2	3.8	1.49e+00	0	40	104	0	71	20824
2026-01-21 13:10:59.91	333.60	5.17	-50.3	-65.2	3.8	1.49e+00	0	40	104	0	71	20841
2026-01-21 13:11:00.92	333.72	5.12	-50.3	-65.2	3.8	1.49e+00	0	40	104	0	71	20886
2026-01-21 13:11:01.93	333.84	5.08	-50.3	-65.2	3.8	1.49e+00	0	40	104	0	71	20823
2026-01-21 13:11:02.94	333.96	5.04	-50.3	-65.2	3.8	1.49e+00	0	40	104	0	71	20843
2026-01-21 13:11:03.94	334.08	4.99	-50.3	-65.2	3.8	1.49e+00	0	40	104	0	71	20852
2026-01-21 13:11:04.95	334.20	4.95	-50.3	-65.2	3.8	1.49e+00	0	40	104	0	71	20864
2026-01-21 13:11:05.96	334.32	4.91	-50.3	-65.2	3.8	1.49e+00	0	40	104	0	71	20951
2026-01-21 13:11:06.97	334.44	4.86	-50.3	-65.2	3.8	1.49e+00	0	40	104	0	71	20820
2026-01-21 13:11:07.98	334.56	4.82	-50.3	-65.2	3.8	1.49e+00	0	40	104	0	71	20874
2026-01-21 13:11:08.99	334.68	4.78	-50.3	-65.2	3.8	1.49e+00	0	40	104	0	71	20916
2026-01-21 13:11:09.99	334.80	4.73	-50.3	-65.2	3.8	1.49e+00	0	40	104	0	71	20933
2026-01-21 13:11:11.00	334.92	4.69	-50.3	-65.2	3.8	1.49e+00	0	40	104	0	71	20914
2026-01-21 13:11:12.01	335.04	4.65	-50.3	-65.2	3.8	1.49e+00	0	40	104	0	71	20909
2026-01-21 13:11:13.01	335.16	4.60	-50.3	-65.2	3.8	1.49e+00	0	40	104	0	71	20944
2026-01-21 13:11:14.02	335.27	4.56	-50.3	-65.2	3.8	1.49e+00	0	40	104	0	71	20902
2026-01-21 13:11:15.03	335.39	4.51	-50.3	-65.2	3.8	1.49e+00	0	40	104	0	71	20863
2026-01-21 13:11:16.04	335.51	4.47	-50.3	-65.2	3.8	1.49e+00	0	40	104	0	71	20871
2026-01-21 13:11:17.05	335.62	4.43	-50.3	-65.2	3.8	1.49e+00	0	40	104	0	71	20925
2026-01-21 13:11:18.06	335.74	4.38	-50.3	-65.2	3.8	1.49e+00	0	40	104	0	71	20939
2026-01-21 13:11:19.06	335.86	4.34	-50.3	-65.2	3.8	1.49e+00	0	40	104	0	71	21001
2026-01-21 13:11:20.07	335.97	4.30	-50.3	-65.2	3.8	1.49e+00	0	40	104	0	71	20980
2026-01-21 13:11:21.08	336.09	4.25	-50.3	-65.2	3.8	1.49e+00	0	40	104	0	71	20965
2026-01-21 13:11:22.09	336.20	4.21	-50.3	-65.2	3.8	1.49e+00	0	40	104	0	71	20927
2026-01-21 13:11:23.10	336.32	4.16	-50.3	-65.2	3.8	1.49e+00	0	40	104	0	71	20915
2026-01-21 13:11:24.11	336.43	4.12	-50.3	-65.2	3.8	1.49e+00	0	40	104	0	71	20953
2026-01-21 13:11:25.12	336.55	4.08	-50.3	-65.2	3.8	1.49e+00	0	40	104	0	71	20930
2026-01-21 13:11:26.12	336.66	4.03	-50.3	-65.2	3.8	1.49e+00	0	40	104	0	71	20920
2026-01-21 13:11:27.13	336.77	3.99	-50.3	-65.2	3.8	1.49e+00	0	40	104	0	71	20954
2026-01-21 13:11:28.14	336.88	3.94	-50.3	-65.2	3.8	1.49e+00	0	40	104	0	71	20892
2026-01-21 13:11:29.15	337.00	3.90	-50.3	-65.2	3.8	1.49e+00	0	40	104	0	71	20943
2026-01-21 13:11:30.16	337.11	3.86	-50.3	-65.2	3.8	1.49e+00	0	40	104	0	71	21001
2026-01-21 13:11:31.17	337.22	3.81	-50.3	-65.2	3.8	1.49e+00	0	40	104	0	71	20974
2026-01-21 13:11:32.18	337.33	3.77	-50.3	-65.2	3.8	1.49e+00	0	40	104	0	71	21014
2026-01-21 13:11:33.18	337.44	3.72	-50.3	-65.2	3.8	1.49e+00	0	40	104	0	71	20986
2026-01-21 13:11:34.19	337.56	3.68	-50.3	-65.2	3.8	1.49e+00	0	40	104	0	71	20985
2026-01-21 13:11:35.20	337.67	3.64	-50.3	-65.2	3.8	1.49e+00	0	40	104	0	71	20961
2026-01-21 13:11:36.21	337.78	3.59	-50.3	-65.2	3.8	1.49e+00	0	40	104	0	71	20954
2026-01-21 13:11:37.22	337.89	3.55	-50.3	-65.2	3.8	1.49e+00	0	40	104	0	71	21010
2026-01-21 13:11:38.23	338.00	3.50	-50.3	-65.2	3.8	1.49e+00	0	40	104	0	71	20993
2026-01-21 13:11:39.23	338.11	3.46	-50.3	-65.2	3.8	1.49e+00	0	40	104	0	71	20920
2026-01-21 13:11:40.24	338.22	3.42	-50.3	-65.2	3.8	1.49e+00	0	40	104	0	71	20996
2026-01-21 13:11:41.25	338.32	3.37	-50.3	-65.2	3.8	1.49e+00	0	40	104	0	71	20983
2026-01-21 13:11:42.26	338.43	3.33	-50.3	-65.2	3.8	1.49e+00	0	40	104	0	71	20948
2026-01-21 13:11:43.26	338.54	3.28	-50.3	-65.2	3.8	1.49e+00	0	40	104	0	71	20926
2026-01-21 13:11:44.27	338.65	3.24	-50.3	-65.2	3.8	1.49e+00	0	40	104	0	71	20902
2026-01-21 13:11:45.28	338.76	3.20	-50.3	-65.2	3.8	1.49e+00	0	40	104	0	71	20878
2026-01-21 13:11:46.29	338.86	3.15	-50.3	-65.2	3.8	1.49e+00	0	40	104	0	71	20899
2026-01-21 13:11:47.30	338.97	3.11	-50.3	-65.2	3.8	1.49e+00	0	40	104	0	71	20904
2026-01-21 13:11:48.30	339.08	3.06	-50.3	-65.2	3.8	1.49e+00	0	40	104	0	71	20907
2026-01-21 13:11:49.31	339.18	3.02	-50.3	-65.2	3.8	1.49e+00	0	40	104	0	71	20907
2026-01-21 13:11:50.32	339.29	2.97	-50.3	-65.2	3.8	1.49e+00	0	40	104	0	71	20968
2026-01-21 13:11:51.33	339.40	2.93	-50.3	-65.2	3.8	1.49e+00	0	40	104	0	71	20981
2026-01-21 13:11:52.34	339.50	2.89	-50.3	-65.2	3.8	1.49e+00	0	40	104	0	71	20912
2026-01-21 13:11:53.35	339.61	2.84	-50.3	-65.2	3.8	1.49e+00	0	40	104	0	71	20931
2026-01-21 13:11:54.36	339.71	2.80	-50.3	-65.2	3.8	1.49e+00	0	40	104	0	71	20856
2026-01-21 13:11:55.37	339.82	2.75	-50.3	-65.2	3.8	1.49e+00	0	40	104	0	71	20902
2026-01-21 13:11:56.38	339.92	2.71	-50.3	-65.2	3.8	1.49e+00	0	40	104	0	71	20933
2026-01-21 13:11:57.38	340.02	2.66	-50.3	-65.2	3.8	1.49e+00	0	40	104	0	71	20911
2026-01-21 13:11:58.39	340.13	2.62	-50.3	-65.2	3.8	1.49e+00	0	40	104	0	71	20938
2026-01-21 13:11:59.40	340.23	2.58	-50.3	-65.2	3.8	1.49e+00	0	40	104	0	71	20914
2026-01-21 13:12:00.41	340.33	2.53	-50.3	-65.2	3.8	1.49e+00	0	40	104	0	71	20924
2026-01-21 13:12:01.42	340.44	2.49	-50.3	-65.2	3.8	1.49e+00	0	40	104	0	71	20924
2026-01-21 13:12:02.42	340.54	2.44	-50.3	-65.2	3.8	1.49e+00	0	40	104	0	71	20959
2026-01-21 13:12:03.43	340.64	2.40	-50.3	-65.2	3.8	1.49e+00	0	40	104	0	71	20925
2026-01-21 13:12:04.44	340.74	2.35	-50.3	-65.2	3.8	1.49e+00	0	40	104	0	71	20993
2026-01-21 13:12:05.45	340.85	2.31	-50.3	-65.2	3.8	1.49e+00	0	40	104	0	71	20931
2026-01-21 13:12:06.46	340.95	2.27	-50.3	-65.2	3.8	1.49e+00	0	40	104	0	71	20946
2026-01-21 13:12:07.46	341.05	2.22	-50.3	-65.2	3.8	1.49e+00	0	40	104	0	71	20994
2026-01-21 13:12:08.47	341.15	2.18	-50.3	-65.2	3.8	1.49e+00	0	40	104	0	71	20970
2026-01-21 13:12:09.48	341.25	2.13	-50.3	-65.2	3.8	1.49e+00	0	40	104	0	71	20948
2026-01-21 13:12:10.49	341.35	2.09	-50.3	-65.2	3.8	1.49e+00	0	40	104	0	71	21004
2026-01-21 13:12:11.50	341.45	2.05	-50.3	-65.2	3.8	1.49e+00	0	40	104	0	71	21004
2026-01-21 13:12:12.50	341.55	2.00	-50.3	-65.2	3.8	1.49e+00	0	40	104	0	71	20968

#Closed at: 2026-01-21 13:12:13
#Recorded file [0 MB]: D:/lorett/data/31041_260121_160126.dat