passes_logs/2026/01/21/R3.2S_Murmansk/R3.2S_Murmansk__20260121_105623_AQUA_rec.log

#Pass ID: 20260121_105623_AQUA
#Satellite: AQUA
#Configuration: AQUA
#almurnet v.1.7.20251203
#Start time: 2026-01-21 10:56:24

#Version: 2.2.20231116
#Station: R3.2S_Murmansk
#Location: 33.079688 lon 68.888172 lat
#TLE: 1 27424U 02022A   26020.90316333  .00002787  00000+0  56766-3 0  9999
#TLE: 2 27424  98.4095 347.4297 0002000  71.6339 309.8236 14.61840001261750

#Time	Az	El	Level	Level2	SNR	BER	BlckErr	Temp	State	Recorded	gain1	gain2
2026-01-21 10:56:24.50	143.44	2.09	-55.8	-73.6	3.8	7.47e-01	0	38	0	0	82	29031
2026-01-21 10:56:25.50	143.43	2.16	-55.7	-73.6	3.8	7.44e-01	0	38	104	0	82	29204
2026-01-21 10:56:26.51	143.42	2.22	-55.7	-73.6	3.8	7.44e-01	0	38	104	0	82	29058
2026-01-21 10:56:27.52	143.41	2.29	-55.8	-73.6	3.8	7.46e-01	0	38	104	0	82	29173
2026-01-21 10:56:28.52	143.40	2.36	-55.9	-73.8	3.8	7.44e-01	0	38	104	0	82	29751
2026-01-21 10:56:29.53	143.39	2.43	-56.0	-73.8	3.8	7.45e-01	0	38	104	0	82	29812
2026-01-21 10:56:30.54	143.38	2.49	-56.0	-73.8	3.8	7.45e-01	0	38	104	0	82	29787
2026-01-21 10:56:31.55	143.37	2.56	-55.9	-73.8	3.8	7.47e-01	0	38	104	0	82	29714
2026-01-21 10:56:32.56	143.36	2.63	-55.9	-73.7	3.8	7.45e-01	0	38	104	0	82	29557
2026-01-21 10:56:33.57	143.35	2.70	-55.9	-73.7	3.8	7.47e-01	0	38	104	0	82	29512
2026-01-21 10:56:34.57	143.34	2.77	-55.9	-73.6	3.8	7.44e-01	0	38	104	0	82	29322
2026-01-21 10:56:35.58	143.33	2.84	-55.8	-73.6	3.8	7.48e-01	0	38	104	0	82	29256
2026-01-21 10:56:36.59	143.32	2.91	-55.8	-73.5	3.8	7.47e-01	0	38	104	0	82	28744
2026-01-21 10:56:37.60	143.31	2.98	-55.7	-73.4	3.8	7.43e-01	0	38	104	0	82	28542
2026-01-21 10:56:38.61	143.30	3.05	-55.7	-73.4	3.8	7.47e-01	0	38	104	0	82	28549
2026-01-21 10:56:39.61	143.29	3.12	-55.6	-73.4	3.8	7.44e-01	0	38	104	0	82	28609
2026-01-21 10:56:40.62	143.28	3.19	-55.6	-73.3	3.8	7.45e-01	0	38	104	0	82	28252
2026-01-21 10:56:41.63	143.27	3.26	-55.5	-73.2	3.8	7.47e-01	0	38	104	0	82	27881
2026-01-21 10:56:42.64	143.26	3.33	-55.4	-73.2	3.8	7.49e-01	0	38	104	0	82	27798
2026-01-21 10:56:43.64	143.25	3.40	-55.3	-73.1	3.8	7.47e-01	0	38	104	0	82	27509
2026-01-21 10:56:44.65	143.24	3.47	-55.1	-72.9	3.8	7.48e-01	0	38	104	0	82	27029
2026-01-21 10:56:45.66	143.23	3.54	-55.0	-72.8	3.8	7.44e-01	0	38	104	0	82	26563
2026-01-21 10:56:46.67	143.21	3.61	-54.8	-72.6	3.8	7.48e-01	0	38	104	0	81	27631
2026-01-21 10:56:47.67	143.20	3.68	-54.5	-72.1	3.8	7.42e-01	0	38	104	0	81	25916
2026-01-21 10:56:48.68	143.19	3.75	-54.2	-71.9	3.8	7.44e-01	0	39	104	0	80	26916
2026-01-21 10:56:49.69	143.18	3.83	-54.0	-68.4	4.2	7.32e-01	0	39	104	0	79	19115
2026-01-21 10:56:50.70	143.17	3.90	-54.0	-68.7	4.1	7.34e-01	0	38	104	0	79	19780
2026-01-21 10:56:51.71	143.16	3.97	-54.0	-68.9	4.1	7.35e-01	0	39	104	0	79	20118
2026-01-21 10:56:52.71	143.15	4.04	-54.0	-68.1	4.2	7.31e-01	0	39	104	0	79	18364
2026-01-21 10:56:53.72	143.13	4.12	-53.8	-65.3	5.5	6.94e-01	36	39	0	0	79	13321
2026-01-21 10:56:54.73	143.12	4.19	-53.5	-62.3	8.2	6.43e-01	120	39	0	0	79	9486
2026-01-21 10:56:55.74	143.11	4.26	-52.8	-59.1	11.5	6.16e-01	0	39	0	2097152	77	7367
2026-01-21 10:56:56.74	143.10	4.34	-52.2	-57.2	13.5	6.10e-01	0	39	0	3670016	76	6237
2026-01-21 10:56:57.75	143.09	4.41	-51.3	-55.2	15.6	6.08e-01	0	39	0	5767168	74	5575
2026-01-21 10:56:58.76	143.08	4.48	-50.0	-52.7	18.1	6.06e-01	0	39	0	7340032	71	4981
2026-01-21 10:56:59.76	143.06	4.56	-49.3	-51.7	19.2	6.05e-01	0	39	0	9437184	70	4705
2026-01-21 10:57:00.77	143.05	4.63	-48.9	-51.2	19.7	6.07e-01	0	39	0	11010048	69	4657
2026-01-21 10:57:01.78	143.04	4.71	-47.8	-49.7	21.2	6.09e-01	0	39	0	13107200	67	4428
2026-01-21 10:57:02.79	143.03	4.78	-47.3	-49.1	21.8	6.07e-01	0	39	0	15204352	66	4361
2026-01-21 10:57:03.80	143.01	4.86	-47.0	-48.7	22.2	6.07e-01	0	39	0	16777216	66	4162
2026-01-21 10:57:04.81	143.00	4.93	-46.8	-48.4	22.5	6.07e-01	0	39	0	18874368	65	4281
2026-01-21 10:57:05.81	142.99	5.01	-46.7	-48.4	22.6	6.07e-01	0	39	0	20971520	65	4249
2026-01-21 10:57:06.82	142.98	5.08	-49.0	-51.4	19.7	6.06e-01	0	39	0	22544384	68	5081
2026-01-21 10:57:07.83	142.96	5.16	-46.2	-47.7	23.3	6.06e-01	0	39	0	24641536	64	4164
2026-01-21 10:57:08.84	142.95	5.23	-50.0	-52.8	18.5	6.06e-01	0	39	0	26214400	70	5304
2026-01-21 10:57:09.85	142.94	5.31	-50.1	-52.9	18.5	6.06e-01	0	39	0	28311552	70	5355
2026-01-21 10:57:10.85	142.92	5.39	-49.0	-51.3	20.2	6.06e-01	0	39	0	30408704	68	5006
2026-01-21 10:57:11.86	142.91	5.46	-46.3	-47.9	22.9	6.04e-01	0	39	0	31981568	64	4258
2026-01-21 10:57:12.87	142.90	5.54	-46.1	-47.7	23.2	6.05e-01	0	39	0	34078720	64	4146
2026-01-21 10:57:13.88	142.88	5.62	-45.8	-47.2	23.8	6.05e-01	0	39	0	35651584	63	4189
2026-01-21 10:57:14.88	142.87	5.70	-45.8	-47.2	23.7	6.06e-01	0	39	0	37748736	63	4183
2026-01-21 10:57:15.89	142.86	5.77	-45.4	-46.8	24.2	6.06e-01	0	39	0	39321600	62	4230
2026-01-21 10:57:16.90	142.84	5.85	-45.8	-47.2	23.8	6.03e-01	0	39	0	41418752	62	4439
2026-01-21 10:57:17.91	142.83	5.93	-45.9	-47.3	23.7	6.05e-01	0	39	0	43515904	62	4487
2026-01-21 10:57:18.92	142.82	6.01	-45.3	-46.6	24.4	6.05e-01	0	39	0	45613056	62	4137
2026-01-21 10:57:19.93	142.80	6.09	-45.2	-46.5	24.5	6.05e-01	0	39	0	47185920	62	4070
2026-01-21 10:57:20.94	142.79	6.17	-45.7	-47.0	24.1	6.03e-01	0	39	0	49283072	62	4340
2026-01-21 10:57:21.95	142.77	6.25	-45.5	-46.9	24.2	6.07e-01	0	39	0	50855936	62	4255
2026-01-21 10:57:22.95	142.76	6.33	-45.4	-46.8	24.2	6.04e-01	0	39	0	52953088	62	4220
2026-01-21 10:57:23.96	142.75	6.41	-45.5	-46.8	24.2	6.05e-01	0	39	0	54525952	62	4237
2026-01-21 10:57:24.97	142.73	6.49	-45.5	-46.9	24.2	6.05e-01	0	39	0	56623104	62	4263
2026-01-21 10:57:25.98	142.72	6.57	-45.4	-46.7	24.3	6.03e-01	0	39	0	58720256	62	4186
2026-01-21 10:57:26.98	142.70	6.65	-45.5	-46.9	24.3	6.07e-01	0	39	0	60293120	62	4247
2026-01-21 10:57:27.99	142.69	6.73	-45.7	-47.1	24.0	6.05e-01	0	39	0	62390272	62	4359
2026-01-21 10:57:29.00	142.67	6.81	-45.6	-47.0	24.2	6.07e-01	0	39	0	63963136	62	4294
2026-01-21 10:57:30.01	142.66	6.89	-45.5	-46.8	24.3	6.05e-01	0	39	0	66060288	62	4227
2026-01-21 10:57:31.02	142.64	6.98	-45.4	-46.7	24.4	6.06e-01	0	39	0	68157440	62	4193
2026-01-21 10:57:32.02	142.63	7.06	-45.4	-46.7	24.4	6.07e-01	0	39	0	69730304	62	4189
2026-01-21 10:57:33.03	142.61	7.14	-45.2	-46.5	24.6	6.06e-01	0	39	0	71827456	62	4076
2026-01-21 10:57:34.04	142.60	7.22	-45.2	-46.5	24.7	6.04e-01	0	39	0	73924608	62	4098
2026-01-21 10:57:35.05	142.58	7.31	-45.3	-46.7	24.5	6.05e-01	0	39	0	75497472	62	4147
2026-01-21 10:57:36.06	142.56	7.39	-45.1	-46.3	24.9	6.06e-01	0	39	0	77594624	62	4003
2026-01-21 10:57:37.07	142.55	7.48	-45.5	-46.8	24.4	6.05e-01	0	39	0	79167488	62	4215
2026-01-21 10:57:38.07	142.53	7.56	-45.0	-46.2	24.9	6.05e-01	0	39	0	81264640	61	4189
2026-01-21 10:57:39.08	142.52	7.64	-45.2	-46.6	24.6	6.04e-01	0	39	0	82837504	61	4343
2026-01-21 10:57:40.09	142.50	7.73	-45.1	-46.4	24.7	6.07e-01	0	39	0	84934656	61	4290
2026-01-21 10:57:41.10	142.48	7.81	-44.9	-46.2	25.0	6.03e-01	0	39	0	87031808	61	4176
2026-01-21 10:57:42.10	142.47	7.90	-45.0	-46.3	24.9	6.05e-01	0	39	0	88604672	61	4217
2026-01-21 10:57:43.11	142.45	7.98	-45.0	-46.3	24.9	6.04e-01	0	39	0	90701824	61	4220
2026-01-21 10:57:44.12	142.43	8.07	-44.7	-45.9	25.2	6.05e-01	0	39	0	92798976	61	4044
2026-01-21 10:57:45.13	142.42	8.16	-44.7	-45.9	25.3	6.06e-01	0	39	0	94371840	61	4029
2026-01-21 10:57:46.14	142.40	8.24	-44.9	-46.1	25.1	6.07e-01	0	39	0	96468992	61	4128
2026-01-21 10:57:47.15	142.38	8.33	-44.8	-46.0	25.2	6.04e-01	0	39	0	98041856	61	4093
2026-01-21 10:57:48.15	142.37	8.42	-44.7	-46.0	25.2	6.07e-01	0	39	0	100139008	61	4054
2026-01-21 10:57:49.16	142.35	8.51	-44.9	-46.2	25.1	6.05e-01	0	39	0	102236160	61	4149
2026-01-21 10:57:50.17	142.33	8.59	-44.8	-46.0	25.2	6.07e-01	0	39	0	103809024	61	4096
2026-01-21 10:57:51.17	142.31	8.68	-44.9	-46.2	25.0	6.05e-01	0	39	0	105906176	61	4178
2026-01-21 10:57:52.18	142.30	8.77	-44.7	-45.9	25.4	6.05e-01	0	39	0	107479040	61	4031
2026-01-21 10:57:53.19	142.28	8.86	-44.7	-46.0	25.3	6.03e-01	0	39	0	109576192	61	4052
2026-01-21 10:57:54.20	142.26	8.95	-44.8	-46.1	25.2	6.05e-01	0	39	0	111149056	61	4102
2026-01-21 10:57:55.21	142.24	9.04	-44.6	-45.8	25.5	6.05e-01	0	39	0	113246208	61	3977
2026-01-21 10:57:56.21	142.22	9.13	-44.7	-45.9	25.4	6.06e-01	0	39	0	115343360	61	4019
2026-01-21 10:57:57.22	142.20	9.22	-44.6	-45.8	25.4	6.07e-01	0	39	0	117440512	61	3998
2026-01-21 10:57:58.23	142.19	9.31	-44.4	-45.6	25.6	6.04e-01	0	39	0	119013376	60	4142
2026-01-21 10:57:59.24	142.17	9.40	-44.5	-45.7	25.5	6.03e-01	0	39	0	121110528	60	4190
2026-01-21 10:58:00.25	142.15	9.49	-44.4	-45.7	25.6	6.08e-01	0	39	0	122683392	60	4154
2026-01-21 10:58:01.26	142.13	9.58	-44.5	-45.7	25.6	6.04e-01	0	39	0	124780544	60	4182
2026-01-21 10:58:02.26	142.11	9.68	-44.5	-45.7	25.6	6.02e-01	0	39	0	126353408	60	4171
2026-01-21 10:58:03.27	142.09	9.77	-44.5	-45.7	25.6	6.07e-01	0	39	0	128450560	60	4174
2026-01-21 10:58:04.28	142.07	9.86	-44.4	-45.6	25.7	6.07e-01	0	39	0	130547712	60	4130
2026-01-21 10:58:05.29	142.05	9.96	-44.6	-45.8	25.5	6.05e-01	0	39	0	132120576	60	4207
2026-01-21 10:58:06.30	142.03	10.05	-44.5	-45.7	25.7	6.06e-01	0	39	0	134217728	60	4152
2026-01-21 10:58:07.31	142.01	10.14	-44.4	-45.5	25.8	6.04e-01	0	39	0	136314880	60	4098
2026-01-21 10:58:08.31	141.99	10.24	-44.3	-45.5	25.8	6.05e-01	0	39	0	137887744	60	4085
2026-01-21 10:58:09.32	141.97	10.33	-44.3	-45.5	25.8	6.04e-01	0	39	0	139984896	60	4090
2026-01-21 10:58:10.33	141.95	10.43	-44.4	-45.6	25.8	6.05e-01	0	39	0	141557760	60	4108
2026-01-21 10:58:11.34	141.93	10.53	-44.3	-45.5	25.8	6.03e-01	0	39	0	143654912	60	4075
2026-01-21 10:58:12.35	141.91	10.62	-44.2	-45.4	26.0	6.05e-01	0	39	0	145752064	60	4023
2026-01-21 10:58:13.35	141.89	10.72	-44.3	-45.5	25.7	6.03e-01	0	39	0	147324928	60	4075
2026-01-21 10:58:14.36	141.86	10.82	-44.3	-45.5	25.8	6.04e-01	0	39	0	149422080	60	4084
2026-01-21 10:58:15.37	141.84	10.91	-44.4	-45.6	25.7	6.04e-01	0	39	0	150994944	60	4138
2026-01-21 10:58:16.38	141.82	11.01	-44.5	-45.7	25.7	6.05e-01	0	39	0	153092096	60	4146
2026-01-21 10:58:17.39	141.80	11.11	-44.4	-45.6	25.8	6.02e-01	0	39	0	154664960	60	4100
2026-01-21 10:58:18.39	141.78	11.21	-44.2	-45.4	26.0	6.04e-01	0	39	0	156762112	60	4006
2026-01-21 10:58:19.40	141.76	11.31	-44.2	-45.4	26.0	6.06e-01	0	39	0	158859264	60	4029
2026-01-21 10:58:20.41	141.73	11.41	-44.3	-45.5	25.9	6.06e-01	0	39	0	160432128	60	4073
2026-01-21 10:58:21.42	141.71	11.51	-44.2	-45.4	26.0	6.05e-01	0	39	0	162529280	60	4008
2026-01-21 10:58:22.42	141.69	11.61	-44.3	-45.5	25.9	6.04e-01	0	40	0	164626432	60	4057
2026-01-21 10:58:23.43	141.67	11.71	-44.3	-45.5	25.9	6.06e-01	0	39	0	166199296	60	4063
2026-01-21 10:58:24.44	141.64	11.81	-44.1	-45.3	26.1	6.06e-01	0	39	0	168296448	60	3982
2026-01-21 10:58:25.45	141.62	11.91	-44.1	-45.3	26.1	6.05e-01	0	39	0	169869312	60	3987
2026-01-21 10:58:26.46	141.60	12.02	-44.3	-45.4	26.0	6.04e-01	0	39	0	171966464	60	4040
2026-01-21 10:58:27.46	141.57	12.12	-44.1	-45.2	26.2	6.07e-01	0	39	0	174063616	60	3945
2026-01-21 10:58:28.47	141.55	12.22	-44.2	-45.3	26.1	6.05e-01	0	39	0	175636480	60	3988
2026-01-21 10:58:29.48	141.52	12.33	-44.1	-45.2	26.1	6.07e-01	0	39	0	177733632	60	3955
2026-01-21 10:58:30.49	141.50	12.43	-44.0	-45.2	26.2	6.06e-01	0	39	0	179306496	60	3931
2026-01-21 10:58:31.50	141.47	12.54	-44.0	-45.2	26.2	6.05e-01	0	40	0	181403648	60	3937
2026-01-21 10:58:32.50	141.45	12.64	-44.1	-45.2	26.1	6.05e-01	0	39	0	182976512	59	4187
2026-01-21 10:58:33.51	141.43	12.75	-43.9	-45.1	26.2	6.04e-01	0	39	0	185073664	59	4116
2026-01-21 10:58:34.52	141.40	12.85	-44.0	-45.1	26.2	6.07e-01	0	40	0	187170816	59	4126
2026-01-21 10:58:35.53	141.37	12.96	-44.0	-45.2	26.1	6.06e-01	0	39	0	189267968	59	4155
2026-01-21 10:58:36.54	141.35	13.07	-43.9	-45.0	26.3	6.06e-01	0	39	0	190840832	59	4087
2026-01-21 10:58:37.54	141.32	13.18	-43.9	-45.1	26.2	6.04e-01	0	39	0	192937984	59	4117
2026-01-21 10:58:38.55	141.30	13.28	-43.9	-45.0	26.3	6.05e-01	0	40	0	194510848	59	4086
2026-01-21 10:58:39.56	141.27	13.39	-44.0	-45.1	26.2	6.05e-01	0	39	0	196608000	59	4126
2026-01-21 10:58:40.57	141.24	13.50	-43.9	-45.0	26.3	6.06e-01	0	39	0	198180864	59	4081
2026-01-21 10:58:41.58	141.22	13.61	-43.9	-45.1	26.3	6.05e-01	0	39	0	200278016	59	4104
2026-01-21 10:58:42.58	141.19	13.72	-44.0	-45.1	26.2	6.07e-01	0	39	0	202375168	59	4130
2026-01-21 10:58:43.59	141.16	13.83	-44.0	-45.1	26.2	6.05e-01	0	40	0	203948032	59	4141
2026-01-21 10:58:44.60	141.13	13.95	-43.9	-45.0	26.3	6.05e-01	0	39	0	206045184	59	4090
2026-01-21 10:58:45.61	141.11	14.06	-43.9	-45.1	26.3	6.03e-01	0	39	0	208142336	59	4101
2026-01-21 10:58:46.62	141.08	14.17	-43.8	-44.9	26.4	6.05e-01	0	40	0	209715200	59	4040
2026-01-21 10:58:47.63	141.05	14.29	-43.8	-44.9	26.4	6.05e-01	0	39	0	211812352	59	4036
2026-01-21 10:58:48.63	141.02	14.40	-43.8	-44.9	26.4	6.04e-01	0	39	0	213385216	59	4050
2026-01-21 10:58:49.64	140.99	14.51	-43.7	-44.9	26.5	6.06e-01	0	39	0	215482368	59	4013
2026-01-21 10:58:50.65	140.96	14.63	-43.8	-45.0	26.4	6.06e-01	0	39	0	217579520	59	4055
2026-01-21 10:58:51.66	140.93	14.75	-44.0	-45.1	26.3	6.06e-01	0	39	0	219152384	59	4123
2026-01-21 10:58:52.66	140.91	14.86	-43.9	-45.1	26.3	6.06e-01	0	39	0	221249536	59	4111
2026-01-21 10:58:53.67	140.88	14.98	-43.8	-44.9	26.5	6.06e-01	0	39	0	222822400	59	4039
2026-01-21 10:58:54.68	140.84	15.10	-43.9	-45.0	26.4	6.04e-01	0	39	0	224919552	59	4072
2026-01-21 10:58:55.69	140.81	15.21	-43.8	-45.0	26.4	6.05e-01	0	39	0	226492416	59	4058
2026-01-21 10:58:56.70	140.78	15.33	-43.9	-45.0	26.4	6.04e-01	0	39	0	228589568	59	4074
2026-01-21 10:58:57.71	140.75	15.45	-43.9	-45.0	26.4	6.04e-01	0	39	0	230686720	59	4093
2026-01-21 10:58:58.71	140.72	15.57	-43.9	-45.0	26.4	6.05e-01	0	39	0	232259584	59	4070
2026-01-21 10:58:59.72	140.69	15.69	-43.9	-45.0	26.4	6.05e-01	0	39	0	234356736	59	4086
2026-01-21 10:59:00.73	140.66	15.82	-43.9	-45.0	26.4	6.05e-01	0	39	0	236453888	59	4074
2026-01-21 10:59:01.74	140.63	15.94	-43.9	-45.0	26.4	6.04e-01	0	40	0	238026752	59	4081
2026-01-21 10:59:02.74	140.59	16.06	-43.9	-45.1	26.4	6.03e-01	0	39	0	240123904	59	4112
2026-01-21 10:59:03.75	140.56	16.18	-44.0	-45.2	26.2	6.06e-01	0	39	0	241696768	59	4150
2026-01-21 10:59:04.76	140.53	16.31	-43.9	-45.0	26.4	6.05e-01	0	40	0	243793920	59	4095
2026-01-21 10:59:05.77	140.49	16.43	-44.0	-45.2	26.2	6.05e-01	0	39	0	245891072	59	4162
2026-01-21 10:59:06.78	140.46	16.56	-44.0	-45.1	26.3	6.04e-01	0	39	0	247463936	59	4124
2026-01-21 10:59:07.79	140.42	16.69	-44.1	-45.2	26.2	6.05e-01	0	39	0	249561088	59	4184
2026-01-21 10:59:08.79	140.39	16.81	-43.9	-45.1	26.4	6.06e-01	0	39	0	251133952	59	4107
2026-01-21 10:59:09.80	140.36	16.94	-44.0	-45.1	26.3	6.05e-01	0	39	0	253231104	59	4135
2026-01-21 10:59:10.81	140.32	17.07	-43.9	-45.0	26.4	6.05e-01	0	39	0	255328256	59	4062
2026-01-21 10:59:11.82	140.28	17.20	-43.9	-45.0	26.4	6.03e-01	0	39	0	256901120	59	4075
2026-01-21 10:59:12.82	140.25	17.33	-43.9	-45.0	26.4	6.05e-01	0	39	0	258998272	59	4079
2026-01-21 10:59:13.83	140.21	17.46	-43.9	-45.0	26.4	6.06e-01	0	39	0	260571136	59	4070
2026-01-21 10:59:14.84	140.18	17.59	-43.8	-44.9	26.5	6.05e-01	0	39	0	262668288	59	4042
2026-01-21 10:59:15.85	140.14	17.72	-43.8	-44.9	26.5	6.07e-01	0	39	0	264765440	59	4038
2026-01-21 10:59:16.86	140.10	17.86	-43.8	-44.9	26.5	6.05e-01	0	39	0	266338304	59	4041
2026-01-21 10:59:17.87	140.06	17.99	-43.8	-44.9	26.5	6.08e-01	0	40	0	268435456	59	4031
2026-01-21 10:59:18.87	140.03	18.12	-43.8	-44.9	24.4	6.06e-01	0	39	0	270008320	59	4038
2026-01-21 10:59:19.88	139.99	18.26	-43.7	-44.8	26.6	6.03e-01	0	40	0	272105472	59	4002
2026-01-21 10:59:20.89	139.95	18.40	-43.7	-44.8	26.6	6.03e-01	0	39	0	274202624	59	3973
2026-01-21 10:59:21.90	139.91	18.53	-43.8	-44.9	26.6	6.06e-01	0	39	0	275775488	59	4023
2026-01-21 10:59:22.91	139.87	18.67	-43.7	-44.8	26.7	6.06e-01	0	39	0	277872640	59	3973
2026-01-21 10:59:23.91	139.83	18.81	-43.8	-44.9	26.6	6.04e-01	0	39	0	279969792	59	4022
2026-01-21 10:59:24.92	139.79	18.95	-43.7	-44.8	26.6	6.07e-01	0	39	0	281542656	59	4001
2026-01-21 10:59:25.93	139.75	19.09	-43.8	-44.9	26.6	6.06e-01	0	39	0	283639808	59	4014
2026-01-21 10:59:26.94	139.70	19.23	-43.8	-45.0	26.5	6.04e-01	0	39	0	285212672	59	4060
2026-01-21 10:59:27.94	139.66	19.37	-43.9	-45.0	26.4	6.05e-01	0	39	0	287309824	59	4093
2026-01-21 10:59:28.95	139.62	19.51	-43.9	-45.0	26.5	6.03e-01	0	39	0	288882688	59	4093
2026-01-21 10:59:29.96	139.58	19.66	-44.0	-45.1	26.4	6.06e-01	0	39	0	290979840	59	4128
2026-01-21 10:59:30.97	139.53	19.80	-44.1	-45.2	26.3	6.05e-01	0	39	0	293076992	59	4179
2026-01-21 10:59:31.98	139.49	19.95	-44.0	-45.1	26.4	6.05e-01	0	39	0	294649856	59	4133
2026-01-21 10:59:32.99	139.45	20.10	-44.0	-45.2	26.3	6.07e-01	0	39	0	296747008	59	4157
2026-01-21 10:59:34.00	139.40	20.24	-44.1	-45.2	26.3	6.04e-01	0	39	0	298319872	59	4184
2026-01-21 10:59:35.01	139.36	20.39	-44.0	-45.2	26.4	6.04e-01	0	39	0	300417024	59	4153
2026-01-21 10:59:36.01	139.31	20.54	-44.0	-45.1	26.4	6.04e-01	0	39	0	302514176	59	4145
2026-01-21 10:59:37.02	139.26	20.69	-44.0	-45.1	26.4	6.07e-01	0	40	0	304087040	59	4118
2026-01-21 10:59:38.03	139.22	20.84	-44.1	-45.2	26.3	6.05e-01	0	40	0	306184192	59	4169
2026-01-21 10:59:39.04	139.17	21.00	-44.0	-45.1	26.4	6.05e-01	0	39	0	308281344	59	4117
2026-01-21 10:59:40.05	139.12	21.15	-43.9	-45.0	26.6	6.07e-01	0	39	0	309854208	59	4061
2026-01-21 10:59:41.06	139.07	21.30	-43.9	-45.0	26.5	6.05e-01	0	39	0	311951360	59	4088
2026-01-21 10:59:42.06	139.02	21.46	-43.9	-45.0	26.5	6.05e-01	0	39	0	313524224	59	4094
2026-01-21 10:59:43.07	138.98	21.62	-43.8	-44.9	26.6	6.06e-01	0	39	0	315621376	59	4050
2026-01-21 10:59:44.08	138.93	21.77	-43.8	-44.9	26.6	6.05e-01	0	39	0	317194240	59	4048
2026-01-21 10:59:45.09	138.87	21.93	-43.9	-45.0	26.6	6.04e-01	0	39	0	319291392	59	4066
2026-01-21 10:59:46.10	138.82	22.09	-43.8	-44.9	26.7	6.06e-01	0	40	0	321388544	59	4021
2026-01-21 10:59:47.10	138.77	22.25	-44.0	-45.1	26.5	6.04e-01	0	40	0	322961408	59	4110
2026-01-21 10:59:48.11	138.72	22.41	-43.9	-45.1	26.5	6.04e-01	0	39	0	325058560	59	4106
2026-01-21 10:59:49.12	138.67	22.58	-44.0	-45.1	26.5	6.08e-01	0	40	0	327155712	59	4143
2026-01-21 10:59:50.13	138.61	22.74	-44.0	-45.2	26.4	6.07e-01	0	39	0	328728576	59	4160
2026-01-21 10:59:51.14	138.56	22.91	-44.0	-45.1	26.4	6.03e-01	0	39	0	330825728	59	4138
2026-01-21 10:59:52.14	138.50	23.07	-44.1	-45.3	26.3	6.07e-01	0	39	0	332398592	59	4209
2026-01-21 10:59:53.15	138.45	23.24	-44.2	-45.4	26.3	6.04e-01	0	39	0	334495744	59	4247
2026-01-21 10:59:54.16	138.39	23.41	-44.3	-45.5	26.1	6.04e-01	0	40	0	336592896	59	4310
2026-01-21 10:59:55.17	138.33	23.58	-44.4	-45.5	26.1	6.06e-01	0	39	0	338165760	59	4340
2026-01-21 10:59:56.18	138.28	23.75	-44.3	-45.5	26.1	6.04e-01	0	39	0	340262912	59	4315
2026-01-21 10:59:57.18	138.22	23.92	-44.4	-45.5	26.1	6.07e-01	0	39	0	341835776	59	4320
2026-01-21 10:59:58.19	138.16	24.09	-44.3	-45.4	26.2	6.04e-01	0	40	0	343932928	59	4277
2026-01-21 10:59:59.20	138.10	24.27	-44.2	-45.3	26.3	6.06e-01	0	39	0	345505792	59	4222
2026-01-21 11:00:00.21	138.04	24.44	-44.0	-45.2	26.5	6.05e-01	0	40	0	347602944	59	4148
2026-01-21 11:00:01.22	137.98	24.62	-44.1	-45.2	26.4	6.05e-01	0	40	0	349700096	59	4186
2026-01-21 11:00:02.23	137.92	24.80	-44.1	-45.2	26.3	6.05e-01	0	39	0	351797248	59	4169
2026-01-21 11:00:03.23	137.85	24.98	-44.1	-45.3	26.4	6.06e-01	0	40	0	353370112	59	4206
2026-01-21 11:00:04.24	137.79	25.16	-44.1	-45.3	26.4	6.05e-01	0	40	0	355467264	59	4200
2026-01-21 11:00:05.25	137.73	25.34	-44.7	-55.4	3.8	7.47e-01	0	40	104	355467264	60	12793
2026-01-21 11:00:06.26	137.66	25.52	-44.6	-55.4	3.8	7.46e-01	0	40	104	355467264	60	12670
2026-01-21 11:00:07.27	137.59	25.71	-44.7	-55.3	3.9	7.39e-01	0	40	104	355467264	60	12640
2026-01-21 11:00:08.28	137.53	25.89	-44.7	-55.5	3.8	7.46e-01	0	40	104	355467264	61	12195
2026-01-21 11:00:09.28	137.46	26.08	-52.2	-65.0	3.9	7.43e-01	0	40	104	355467264	76	15362
2026-01-21 11:00:10.29	137.39	26.27	-50.0	-61.7	3.8	7.42e-01	0	40	104	355467264	72	13118
2026-01-21 11:00:11.30	137.32	26.46	-47.3	-58.3	3.9	7.40e-01	0	39	104	355467264	65	13276
2026-01-21 11:00:12.31	137.25	26.65	-44.4	-55.1	3.8	7.50e-01	0	40	104	355467264	60	12325
2026-01-21 11:00:13.32	137.18	26.84	-44.4	-55.1	3.9	7.40e-01	0	40	104	355467264	60	12248
2026-01-21 11:00:14.33	137.11	27.04	-44.2	-54.7	4.4	7.26e-01	0	40	104	355467264	60	11747
2026-01-21 11:00:15.33	137.04	27.23	-46.0	-56.8	3.8	7.48e-01	0	40	104	355467264	64	11906
2026-01-21 11:00:16.34	136.96	27.43	-44.3	-54.7	4.1	7.35e-01	0	40	104	355467264	60	11786
2026-01-21 11:00:17.35	136.89	27.63	-51.0	-63.0	3.8	7.45e-01	0	39	104	355467264	74	13661
2026-01-21 11:00:18.36	136.81	27.83	-47.5	-58.4	4.3	7.27e-01	0	39	104	355467264	67	11967
2026-01-21 11:00:19.36	136.73	28.03	-46.6	-57.4	3.8	7.44e-01	0	40	104	355467264	65	12045
2026-01-21 11:00:20.37	136.65	28.23	-44.1	-54.8	3.8	7.46e-01	0	40	104	355467264	60	11877
2026-01-21 11:00:21.38	136.57	28.44	-44.2	-54.9	3.9	7.39e-01	0	40	104	355467264	59	12758
2026-01-21 11:00:22.39	136.49	28.65	-44.1	-54.9	3.8	7.45e-01	0	40	104	355467264	59	12671
2026-01-21 11:00:23.40	136.41	28.85	-45.7	-56.5	3.8	7.44e-01	0	40	104	355467264	63	12231
2026-01-21 11:00:24.40	136.33	29.06	-44.2	-54.9	3.8	7.45e-01	0	40	104	355467264	60	12072
2026-01-21 11:00:25.41	136.25	29.27	-49.5	-61.0	3.9	7.46e-01	0	40	104	355467264	71	12926
2026-01-21 11:00:26.42	136.16	29.49	-45.1	-55.8	3.8	7.46e-01	0	40	104	355467264	62	11940
2026-01-21 11:00:27.43	136.07	29.70	-45.5	-56.3	3.9	7.44e-01	0	40	104	355467264	63	11856
2026-01-21 11:00:28.44	135.99	29.92	-43.9	-54.6	3.8	7.45e-01	0	40	104	355467264	59	12262
2026-01-21 11:00:29.45	135.90	30.14	-43.8	-54.4	3.8	7.46e-01	0	40	104	355467264	59	12052
2026-01-21 11:00:30.45	135.81	30.35	-43.8	-54.5	3.8	7.47e-01	0	39	104	355467264	59	12184
2026-01-21 11:00:31.46	135.72	30.58	-44.3	-55.0	3.8	7.44e-01	0	40	104	355467264	59	12886
2026-01-21 11:00:32.47	135.62	30.80	-45.0	-55.7	3.8	7.44e-01	0	40	104	355467264	60	13196
2026-01-21 11:00:33.48	135.53	31.03	-49.6	-61.1	3.8	7.45e-01	0	40	104	355467264	71	13025
2026-01-21 11:00:34.49	135.43	31.25	-45.2	-55.8	3.8	7.44e-01	0	40	104	355467264	62	11953
2026-01-21 11:00:35.49	135.34	31.48	-45.1	-55.8	3.8	7.45e-01	0	40	104	355467264	62	11914
2026-01-21 11:00:36.50	135.24	31.71	-43.9	-54.5	3.8	7.40e-01	0	40	104	355467264	59	12223
2026-01-21 11:00:37.51	135.14	31.94	-43.9	-54.6	3.8	7.43e-01	0	40	104	355467264	59	12311
2026-01-21 11:00:38.52	135.04	32.18	-45.9	-56.9	3.8	7.43e-01	0	40	104	355467264	62	13416
2026-01-21 11:00:39.52	134.93	32.41	-46.1	-57.0	3.9	7.45e-01	0	40	104	355467264	64	12193
2026-01-21 11:00:40.53	134.83	32.65	-47.1	-58.0	3.8	7.43e-01	0	40	104	355467264	64	13622
2026-01-21 11:00:41.54	134.72	32.89	-49.8	-61.3	3.9	7.45e-01	0	40	104	355467264	71	13321
2026-01-21 11:00:42.55	134.61	33.13	-44.1	-54.7	3.8	7.44e-01	0	40	104	355467264	60	11793
2026-01-21 11:00:43.56	134.50	33.37	-44.5	-55.2	3.9	7.43e-01	0	40	104	355467264	61	11794
2026-01-21 11:00:44.57	134.39	33.62	-44.1	-54.8	3.8	7.45e-01	0	40	104	355467264	60	11926
2026-01-21 11:00:45.58	134.28	33.87	-44.3	-55.0	3.8	7.47e-01	0	40	104	355467264	60	12190
2026-01-21 11:00:46.58	134.16	34.11	-45.9	-56.8	3.9	7.41e-01	0	40	104	355467264	62	13321
2026-01-21 11:00:47.59	134.05	34.37	-46.3	-57.2	3.9	7.46e-01	0	40	104	355467264	64	12407
2026-01-21 11:00:48.60	133.93	34.62	-48.3	-59.2	3.8	7.45e-01	0	39	104	355467264	66	14020
2026-01-21 11:00:49.61	133.81	34.88	-50.9	-62.8	3.9	7.48e-01	0	40	104	355467264	72	14944
2026-01-21 11:00:50.61	133.68	35.13	-44.5	-55.1	3.8	7.47e-01	0	40	104	355467264	60	12342
2026-01-21 11:00:51.62	133.56	35.39	-45.3	-56.1	3.9	7.46e-01	0	40	104	355467264	62	12256
2026-01-21 11:00:52.63	133.43	35.65	-45.5	-56.3	3.8	7.42e-01	0	40	104	355467264	62	12527
2026-01-21 11:00:53.64	133.30	35.92	-45.7	-56.6	3.8	7.44e-01	0	40	104	355467264	62	12999
2026-01-21 11:00:54.65	133.17	36.18	-46.4	-57.3	3.8	7.44e-01	0	40	104	355467264	63	13400
2026-01-21 11:00:55.66	133.04	36.45	-46.8	-57.7	3.8	7.46e-01	0	40	104	355467264	65	12512
2026-01-21 11:00:56.66	132.90	36.72	-51.4	-63.7	3.8	7.45e-01	0	40	104	355467264	73	15722
2026-01-21 11:00:57.67	132.76	36.99	-51.8	-64.3	3.8	7.46e-01	0	40	104	355467264	74	15872
2026-01-21 11:00:58.68	132.62	37.27	-45.5	-56.2	3.8	7.49e-01	0	40	104	355467264	62	12424
2026-01-21 11:00:59.69	132.48	37.55	-46.3	-57.2	3.9	7.43e-01	0	40	104	355467264	64	12392
2026-01-21 11:01:00.70	132.33	37.83	-46.5	-57.4	3.8	7.46e-01	0	40	104	355467264	64	12745
2026-01-21 11:01:01.71	132.18	38.11	-46.4	-57.4	3.8	7.49e-01	0	40	104	355467264	64	12781
2026-01-21 11:01:02.71	132.03	38.39	-46.8	-57.8	3.8	7.45e-01	0	40	104	355467264	64	13330
2026-01-21 11:01:03.72	131.88	38.68	-46.7	-57.6	3.8	7.42e-01	0	40	104	355467264	64	12978
2026-01-21 11:01:04.73	131.72	38.96	-53.4	-67.0	3.8	7.50e-01	0	40	104	355467264	77	18112
2026-01-21 11:01:05.74	131.56	39.26	-53.2	-66.5	3.8	7.47e-01	0	40	104	355467264	76	18247
2026-01-21 11:01:06.75	131.39	39.55	-46.8	-57.7	3.8	7.44e-01	0	40	104	355467264	64	13173
2026-01-21 11:01:07.76	131.23	39.85	-46.7	-57.7	3.8	7.47e-01	0	40	104	355467264	65	12479
2026-01-21 11:01:08.76	131.06	40.14	-46.7	-57.7	3.8	7.42e-01	0	40	104	355467264	65	12450
2026-01-21 11:01:09.77	130.89	40.44	-46.2	-57.0	3.8	7.47e-01	0	40	104	355467264	64	12178
2026-01-21 11:01:10.78	130.71	40.74	-46.6	-57.4	3.8	7.44e-01	0	40	104	355467264	63	13517
2026-01-21 11:01:11.79	130.53	41.05	-46.7	-57.6	3.8	7.42e-01	0	40	104	355467264	64	13012
2026-01-21 11:01:12.80	130.35	41.36	-53.7	-67.6	3.8	7.48e-01	0	40	104	355467264	77	19437
2026-01-21 11:01:13.81	130.16	41.67	-53.7	-67.8	3.9	7.48e-01	0	40	104	355467264	78	18946
2026-01-21 11:01:14.81	129.97	41.98	-46.7	-57.8	3.8	7.45e-01	0	40	104	355467264	64	13334
2026-01-21 11:01:15.82	129.78	42.29	-45.7	-56.4	3.8	7.45e-01	0	40	104	355467264	63	12070
2026-01-21 11:01:16.83	129.58	42.61	-45.1	-55.8	3.8	7.43e-01	0	40	104	355467264	62	11897
2026-01-21 11:01:17.84	129.38	42.93	-44.8	-55.5	3.8	7.43e-01	0	40	104	355467264	61	12221
2026-01-21 11:01:18.84	129.17	43.25	-49.8	-61.5	3.9	7.42e-01	0	40	104	355467264	70	14414
2026-01-21 11:01:19.85	128.96	43.57	-46.4	-57.2	3.9	7.43e-01	0	40	104	355467264	64	12482
2026-01-21 11:01:20.86	128.74	43.90	-54.5	-69.4	3.8	7.45e-01	0	40	104	355467264	79	21264
2026-01-21 11:01:21.86	128.53	44.23	-53.6	-67.4	3.8	7.41e-01	0	40	104	355467264	77	19078
2026-01-21 11:01:22.87	128.30	44.56	-46.0	-56.8	3.8	7.45e-01	0	40	104	355467264	62	13283
2026-01-21 11:01:23.88	128.07	44.89	-44.4	-55.2	3.8	7.43e-01	0	40	104	355467264	60	12408
2026-01-21 11:01:24.89	127.84	45.23	-44.8	-55.5	3.8	7.46e-01	0	40	104	355467264	60	12855
2026-01-21 11:01:25.90	127.60	45.57	-44.7	-55.3	3.8	7.44e-01	0	40	104	355467264	60	12644
2026-01-21 11:01:26.91	127.35	45.91	-50.4	-62.2	3.8	7.46e-01	0	40	104	355467264	71	14783
2026-01-21 11:01:27.91	127.10	46.25	-46.0	-56.5	3.9	7.42e-01	0	40	104	355467264	63	12165
2026-01-21 11:01:28.92	126.84	46.60	-54.8	-70.5	3.7	7.43e-01	0	40	104	355467264	80	22857
2026-01-21 11:01:29.93	126.58	46.95	-53.8	-67.8	3.9	7.46e-01	0	40	104	355467264	78	18805
2026-01-21 11:01:30.94	126.31	47.30	-46.9	-57.8	3.8	7.44e-01	0	40	104	355467264	64	13410
2026-01-21 11:01:31.94	126.04	47.65	-45.4	-56.2	3.8	7.44e-01	0	40	104	355467264	62	12376
2026-01-21 11:01:32.95	125.76	48.01	-45.3	-56.0	3.8	7.46e-01	0	40	104	355467264	62	12134
2026-01-21 11:01:33.96	125.47	48.36	-44.7	-55.4	3.8	7.45e-01	0	40	104	355467264	61	12072
2026-01-21 11:01:34.97	125.18	48.73	-48.4	-59.6	3.8	7.49e-01	0	40	104	355467264	67	13851
2026-01-21 11:01:35.98	124.87	49.09	-46.0	-56.9	3.8	7.45e-01	0	40	104	355467264	64	12001
2026-01-21 11:01:36.99	124.56	49.45	-54.8	-70.7	3.8	7.44e-01	0	40	104	355467264	80	23328
2026-01-21 11:01:37.99	124.25	49.82	-53.7	-67.5	3.9	7.44e-01	0	40	104	355467264	78	18271
2026-01-21 11:01:39.00	123.92	50.19	-46.3	-57.0	3.9	7.44e-01	0	40	104	355467264	62	13687
2026-01-21 11:01:40.01	123.59	50.56	-44.8	-55.6	3.8	7.47e-01	0	40	104	355467264	61	12284
2026-01-21 11:01:41.02	123.25	50.93	-44.4	-55.2	3.8	7.41e-01	0	40	104	355467264	60	12388
2026-01-21 11:01:42.03	122.90	51.31	-44.1	-54.7	3.9	7.44e-01	0	40	104	355467264	59	12422
2026-01-21 11:01:43.03	122.54	51.68	-50.4	-62.3	3.9	7.42e-01	0	40	104	355467264	72	14198
2026-01-21 11:01:44.04	122.17	52.06	-44.9	-55.5	3.8	7.44e-01	0	40	104	355467264	61	12124
2026-01-21 11:01:45.05	121.79	52.44	-54.8	-70.8	3.8	7.41e-01	0	40	104	355467264	80	23605
2026-01-21 11:01:46.06	121.40	52.83	-53.0	-66.4	3.8	7.42e-01	0	40	104	355467264	78	16006
2026-01-21 11:01:47.06	121.01	53.21	-46.2	-57.0	3.9	7.47e-01	0	40	104	355467264	62	13654
2026-01-21 11:01:48.07	120.60	53.59	-43.9	-54.6	3.8	7.45e-01	0	40	104	355467264	59	12326
2026-01-21 11:01:49.08	120.17	53.98	-44.1	-54.9	3.8	7.42e-01	0	40	104	355467264	59	12689
2026-01-21 11:01:50.09	119.74	54.37	-43.8	-54.5	3.8	7.43e-01	0	40	104	355467264	59	12125
2026-01-21 11:01:51.10	119.30	54.76	-49.5	-61.0	3.8	7.48e-01	0	40	104	355467264	70	13634
2026-01-21 11:01:52.10	118.84	55.15	-44.6	-55.4	3.8	7.48e-01	0	40	104	355467264	61	12004
2026-01-21 11:01:53.11	118.37	55.54	-54.8	-70.5	3.9	7.47e-01	0	40	104	355467264	80	22783
2026-01-21 11:01:54.12	117.89	55.94	-52.1	-64.6	3.9	7.44e-01	0	40	104	355467264	76	14604
2026-01-21 11:01:55.13	117.39	56.33	-46.7	-57.6	3.8	7.41e-01	0	40	104	355467264	64	13075
2026-01-21 11:01:56.14	116.87	56.73	-44.7	-55.5	3.8	7.43e-01	0	40	104	355467264	61	12184
2026-01-21 11:01:57.15	116.35	57.12	-44.4	-54.9	3.8	7.45e-01	0	40	104	355467264	60	12090
2026-01-21 11:01:58.16	115.80	57.52	-44.6	-55.4	3.8	7.45e-01	0	40	104	355467264	60	12730
2026-01-21 11:01:59.17	115.24	57.92	-47.0	-57.9	3.8	7.40e-01	0	40	104	355467264	66	12001
2026-01-21 11:02:00.17	114.67	58.31	-45.6	-56.4	3.8	7.46e-01	0	40	104	355467264	63	11995
2026-01-21 11:02:01.17	114.08	58.71	-55.0	-71.3	3.8	7.47e-01	0	40	104	355467264	80	25264
2026-01-21 11:02:02.18	113.47	59.10	-52.7	-65.5	3.8	7.39e-01	0	40	104	355467264	77	15394
2026-01-21 11:02:03.19	112.83	59.50	-47.5	-58.4	3.8	7.45e-01	0	40	104	355467264	65	13435
2026-01-21 11:02:04.20	112.18	59.90	-45.9	-56.7	3.8	7.46e-01	0	40	104	355467264	63	12516
2026-01-21 11:02:05.21	111.51	60.29	-45.2	-55.8	3.8	7.45e-01	0	40	104	355467264	62	11851
2026-01-21 11:02:06.21	110.82	60.68	-45.4	-56.1	3.8	7.45e-01	0	40	104	355467264	62	12351
2026-01-21 11:02:07.22	110.11	61.07	-49.7	-61.2	3.8	7.44e-01	0	40	104	355467264	71	13123
2026-01-21 11:02:08.23	109.37	61.46	-46.0	-56.9	3.8	7.42e-01	0	40	104	355467264	63	12721
2026-01-21 11:02:09.24	108.61	61.85	-54.8	-70.6	3.9	7.46e-01	0	40	104	355467264	81	21999
2026-01-21 11:02:10.25	107.82	62.24	-51.5	-63.7	3.9	7.43e-01	0	40	104	355467264	75	13938
2026-01-21 11:02:11.25	107.01	62.62	-47.8	-59.1	3.8	7.47e-01	0	40	104	355467264	66	13878
2026-01-21 11:02:12.26	106.17	63.00	-45.6	-56.1	3.8	7.44e-01	0	40	104	355467264	63	11636
2026-01-21 11:02:13.27	105.31	63.38	-46.4	-57.5	3.8	7.41e-01	0	40	104	355467264	63	13572
2026-01-21 11:02:14.28	104.41	63.76	-46.5	-57.2	3.8	7.44e-01	0	40	104	355467264	63	13161
2026-01-21 11:02:15.29	103.49	64.13	-51.5	-63.6	3.9	7.46e-01	0	40	104	355467264	75	13760
2026-01-21 11:02:16.30	102.54	64.49	-47.3	-58.2	3.9	7.44e-01	0	40	104	355467264	66	12497
2026-01-21 11:02:17.31	101.55	64.85	-54.8	-70.6	3.9	7.41e-01	0	40	104	355467264	81	21888
2026-01-21 11:02:18.32	100.53	65.21	-50.8	-62.4	3.9	7.46e-01	0	40	104	355467264	73	13492
2026-01-21 11:02:19.32	99.49	65.56	-48.8	-60.2	3.9	7.42e-01	0	40	104	355467264	69	13214
2026-01-21 11:02:20.33	98.41	65.90	-47.8	-58.9	3.8	7.42e-01	0	40	104	355467264	67	12677
2026-01-21 11:02:21.34	97.29	66.24	-47.7	-58.5	3.9	7.45e-01	0	40	104	355467264	67	12174
2026-01-21 11:02:22.35	96.14	66.57	-48.7	-59.8	3.8	7.42e-01	0	40	104	355467264	67	14077
2026-01-21 11:02:23.36	94.95	66.90	-52.0	-64.3	3.9	7.44e-01	0	40	104	355467264	76	14120
2026-01-21 11:02:24.36	93.74	67.21	-49.0	-60.2	3.8	7.45e-01	0	40	104	355467264	68	13961
2026-01-21 11:02:25.37	92.47	67.52	-55.0	-71.3	3.9	7.46e-01	0	40	104	355467264	81	23583
2026-01-21 11:02:26.38	91.17	67.82	-51.3	-63.2	3.9	7.41e-01	0	40	104	355467264	74	14031
2026-01-21 11:02:27.39	89.83	68.10	-49.2	-60.5	3.9	7.44e-01	0	40	104	355467264	69	13584
2026-01-21 11:02:28.40	88.45	68.38	-48.3	-59.5	3.8	7.44e-01	0	40	104	355467264	68	12846
2026-01-21 11:02:29.40	87.05	68.64	-48.1	-59.1	3.8	7.44e-01	0	40	104	355467264	68	12373
2026-01-21 11:02:30.41	85.60	68.90	-48.4	-59.5	3.8	7.45e-01	0	40	104	355467264	68	12918
2026-01-21 11:02:31.42	84.11	69.14	-49.4	-60.6	3.8	7.46e-01	0	40	104	355467264	70	12982
2026-01-21 11:02:32.42	82.59	69.37	-51.3	-63.1	3.8	7.44e-01	0	40	104	355467264	72	15439
2026-01-21 11:02:33.43	81.03	69.59	-55.0	-71.2	3.9	7.46e-01	0	40	104	355467264	81	23522
2026-01-21 11:02:34.44	79.43	69.79	-49.7	-60.9	3.8	7.46e-01	0	40	104	355467264	71	12750
2026-01-21 11:02:35.45	77.80	69.98	-49.1	-61.0	3.8	7.47e-01	0	40	104	355467264	70	13614
2026-01-21 11:02:36.46	76.14	70.15	-48.5	-59.5	3.9	7.47e-01	0	40	104	355467264	69	12202
2026-01-21 11:02:37.46	74.46	70.31	-48.3	-59.6	3.8	7.48e-01	0	40	104	355467264	68	13029
2026-01-21 11:02:38.47	72.74	70.45	-48.4	-59.4	3.9	7.43e-01	0	40	104	355467264	68	12780
2026-01-21 11:02:39.48	70.99	70.57	-50.2	-62.0	3.8	7.46e-01	0	40	104	355467264	72	13654
2026-01-21 11:02:40.49	69.22	70.68	-50.8	-62.1	3.8	7.47e-01	0	40	104	355467264	71	14571
2026-01-21 11:02:41.50	67.43	70.77	-55.2	-71.6	3.9	7.46e-01	0	40	104	355467264	81	24478
2026-01-21 11:02:42.50	65.65	70.84	-50.0	-61.6	3.8	7.44e-01	0	40	104	355467264	72	13079
2026-01-21 11:02:43.51	63.83	70.89	-48.2	-59.2	3.8	7.46e-01	0	40	104	355467264	68	12396
2026-01-21 11:02:44.52	62.00	70.93	-48.8	-60.0	3.8	7.44e-01	0	40	104	355467264	68	13694
2026-01-21 11:02:45.53	60.17	70.95	-48.3	-59.6	3.9	7.42e-01	0	40	104	355467264	68	12984
2026-01-21 11:02:46.54	58.34	70.95	-49.9	-61.5	3.8	7.46e-01	0	40	104	355467264	70	14377
2026-01-21 11:02:47.54	56.52	70.93	-51.2	-62.9	3.8	7.47e-01	0	40	104	355467264	74	13444
2026-01-21 11:02:48.55	54.70	70.89	-54.1	-68.0	3.8	7.49e-01	0	40	104	355467264	78	19385
2026-01-21 11:02:49.56	52.88	70.84	-55.1	-71.0	3.8	7.46e-01	0	40	104	355467264	81	22973
2026-01-21 11:02:50.57	51.08	70.76	-49.1	-60.6	3.8	7.47e-01	0	40	104	355467264	70	13029
2026-01-21 11:02:51.58	49.29	70.67	-48.7	-59.8	3.8	7.44e-01	0	40	104	355467264	69	12583
2026-01-21 11:02:52.58	47.54	70.57	-48.2	-59.2	3.8	7.45e-01	0	40	104	355467264	68	12513
2026-01-21 11:02:53.59	45.80	70.44	-48.4	-59.5	3.8	7.43e-01	0	40	104	355467264	68	12899
2026-01-21 11:02:54.60	44.08	70.30	-49.5	-61.1	3.8	7.44e-01	0	40	104	355467264	69	14556
2026-01-21 11:02:55.61	42.38	70.14	-51.0	-62.6	3.8	7.44e-01	0	40	104	355467264	72	14692
2026-01-21 11:02:56.62	40.72	69.97	-55.2	-71.5	3.7	7.50e-01	0	40	104	355467264	80	25623
2026-01-21 11:02:57.63	39.09	69.78	-55.4	-72.5	3.8	7.45e-01	0	40	104	355467264	81	27372
2026-01-21 11:02:58.63	37.51	69.58	-49.1	-60.0	3.9	7.43e-01	0	40	104	355467264	70	12212
2026-01-21 11:02:59.64	35.95	69.36	-49.0	-60.1	3.8	7.45e-01	0	40	104	355467264	70	12354
2026-01-21 11:03:00.65	34.43	69.13	-50.0	-61.9	3.8	7.43e-01	0	40	104	355467264	70	15067
2026-01-21 11:03:01.66	32.94	68.89	-49.2	-60.3	3.8	7.45e-01	0	40	104	355467264	70	12539
2026-01-21 11:03:02.66	31.50	68.64	-52.2	-64.3	3.8	7.45e-01	0	40	104	355467264	74	15887
2026-01-21 11:03:03.67	30.09	68.37	-52.3	-64.8	3.8	7.45e-01	0	40	104	355467264	76	14952
2026-01-21 11:03:04.68	28.71	68.09	-55.3	-72.1	3.7	7.48e-01	0	40	104	355467264	81	25873
2026-01-21 11:03:05.69	27.38	67.80	-55.5	-72.8	3.8	7.46e-01	0	40	104	355467264	81	28028
2026-01-21 11:03:06.69	26.09	67.51	-49.3	-60.4	3.8	7.44e-01	0	40	104	355467264	70	12725
2026-01-21 11:03:07.70	24.83	67.20	-49.4	-60.8	3.8	7.43e-01	0	40	104	355467264	70	13408
2026-01-21 11:03:08.71	23.60	66.89	-49.0	-60.4	3.8	7.42e-01	0	40	104	355467264	70	12677
2026-01-21 11:03:09.71	22.43	66.57	-49.2	-60.5	3.8	7.43e-01	0	40	104	355467264	70	12947
2026-01-21 11:03:10.72	21.28	66.24	-50.8	-62.6	3.8	7.45e-01	0	40	104	355467264	72	14625
2026-01-21 11:03:11.73	20.16	65.90	-50.6	-62.2	3.9	7.44e-01	0	40	104	355467264	71	14783
2026-01-21 11:03:12.74	19.08	65.55	-55.5	-73.0	3.8	7.45e-01	0	40	104	355467264	81	28858
2026-01-21 11:03:13.75	18.03	65.20	-50.0	-61.5	3.8	7.44e-01	0	40	104	355467264	72	12819
2026-01-21 11:03:14.76	17.02	64.85	-55.2	-71.5	3.8	7.49e-01	0	40	104	355467264	80	25732
2026-01-21 11:03:15.76	16.04	64.49	-49.1	-60.0	3.9	7.43e-01	0	40	104	355467264	70	12174
2026-01-21 11:03:16.77	15.09	64.12	-48.4	-60.2	3.9	7.45e-01	0	40	104	355467264	68	13963
2026-01-21 11:03:17.78	14.17	63.75	-47.7	-58.4	3.8	7.43e-01	0	40	104	355467264	67	12042
2026-01-21 11:03:18.79	13.28	63.38	-53.2	-66.1	3.8	7.45e-01	0	40	104	355467264	76	17287
2026-01-21 11:03:19.80	12.41	63.00	-50.4	-62.2	3.9	7.44e-01	0	40	104	355467264	73	13216
2026-01-21 11:03:20.81	11.58	62.62	-55.5	-73.0	3.8	7.46e-01	0	40	104	355467264	81	28986
2026-01-21 11:03:21.82	10.77	62.23	-55.3	-72.1	3.8	7.44e-01	0	40	104	355467264	81	25898
2026-01-21 11:03:22.83	9.98	61.85	-46.4	-57.0	3.8	7.44e-01	0	40	104	355467264	64	12197
2026-01-21 11:03:23.83	9.23	61.46	-46.4	-57.4	3.8	7.43e-01	0	40	104	355467264	64	12770
2026-01-21 11:03:24.84	8.49	61.07	-46.4	-57.3	3.8	7.43e-01	0	40	104	355467264	64	12613
2026-01-21 11:03:25.85	7.78	60.68	-46.0	-56.7	3.9	7.46e-01	0	40	104	355467264	64	11794
2026-01-21 11:03:26.86	7.08	60.29	-48.4	-59.5	3.9	7.44e-01	0	40	104	355467264	67	13619
2026-01-21 11:03:27.87	6.41	59.89	-48.2	-59.1	3.9	7.44e-01	0	40	104	355467264	66	13859
2026-01-21 11:03:28.87	5.77	59.50	-55.4	-72.6	3.8	7.45e-01	0	40	104	355467264	81	27524
2026-01-21 11:03:29.88	5.14	59.11	-46.0	-56.7	3.9	7.46e-01	0	40	104	355467264	64	11717
2026-01-21 11:03:30.89	4.53	58.71	-54.9	-70.3	3.7	7.44e-01	0	40	104	355467264	80	22484
2026-01-21 11:03:31.89	3.94	58.32	-45.6	-56.5	3.8	7.41e-01	0	40	104	355467264	63	12166
2026-01-21 11:03:32.90	3.36	57.92	-45.3	-56.0	3.8	7.45e-01	0	40	104	355467264	62	12162
2026-01-21 11:03:33.91	2.80	57.53	-45.2	-56.2	3.8	7.42e-01	0	40	104	355467264	62	12421
2026-01-21 11:03:34.92	2.26	57.13	-49.6	-61.1	3.9	7.44e-01	0	40	104	355467264	70	13860
2026-01-21 11:03:35.93	1.73	56.73	-47.4	-58.1	3.8	7.43e-01	0	40	104	355467264	65	13056
2026-01-21 11:03:36.93	1.22	56.34	-55.2	-71.8	3.8	7.46e-01	0	40	104	355467264	81	25134
2026-01-21 11:03:37.94	0.73	55.95	-44.6	-55.4	3.8	7.44e-01	0	40	104	355467264	61	11988
2026-01-21 11:03:38.95	0.24	55.56	-54.9	-70.6	3.8	7.47e-01	0	40	104	355467264	80	23183
2026-01-21 11:03:39.96	359.77	55.16	-43.9	-54.4	3.8	7.44e-01	0	40	104	355467264	59	11977
2026-01-21 11:03:40.97	359.31	54.77	-43.5	-54.1	3.8	7.45e-01	0	40	104	355467264	59	11592
2026-01-21 11:03:41.98	358.87	54.38	-43.5	-54.1	3.8	7.45e-01	0	40	104	355467264	58	12329
2026-01-21 11:03:42.99	358.44	53.99	-50.7	-62.6	3.9	7.45e-01	0	40	104	355467264	72	14674
2026-01-21 11:03:43.99	358.02	53.61	-46.1	-57.0	3.9	7.44e-01	0	40	104	355467264	62	13719
2026-01-21 11:03:45.00	357.61	53.23	-55.1	-71.4	3.8	7.45e-01	0	40	104	355467264	80	25294
2026-01-21 11:03:46.01	357.21	52.84	-43.9	-54.2	3.8	7.41e-01	0	40	104	355467264	59	11776
2026-01-21 11:03:47.02	356.82	52.46	-54.4	-69.4	3.8	7.44e-01	0	40	104	355467264	79	21456
2026-01-21 11:03:48.03	356.45	52.08	-43.7	-54.6	3.8	7.44e-01	0	40	104	355467264	59	12312
2026-01-21 11:03:49.03	356.08	51.70	-43.8	-54.7	3.8	7.45e-01	0	40	104	355467264	59	12384
2026-01-21 11:03:50.04	355.72	51.33	-43.8	-54.4	3.8	7.44e-01	0	40	104	355467264	59	12063
2026-01-21 11:03:51.05	355.37	50.95	-49.7	-61.2	3.8	7.40e-01	0	40	104	355467264	71	13234
2026-01-21 11:03:52.05	355.03	50.58	-46.3	-57.0	3.9	7.43e-01	0	40	104	355467264	64	12098
2026-01-21 11:03:53.06	354.70	50.21	-55.2	-71.5	3.8	7.38e-01	0	40	104	355467264	80	25762
2026-01-21 11:03:54.07	354.38	49.85	-54.9	-70.9	3.8	7.46e-01	0	40	104	355467264	80	23944
2026-01-21 11:03:55.08	354.06	49.48	-45.0	-56.2	3.8	7.45e-01	0	40	104	355467264	60	13956
2026-01-21 11:03:56.09	353.75	49.11	-44.6	-55.3	3.8	7.41e-01	0	40	104	355467264	60	12649
2026-01-21 11:03:57.09	353.45	48.76	-44.4	-55.0	3.8	7.43e-01	0	40	104	355467264	60	12120
2026-01-21 11:03:58.10	353.16	48.40	-44.1	-54.7	3.8	7.45e-01	0	40	104	355467264	60	11818
2026-01-21 11:03:59.11	352.87	48.04	-45.7	-56.7	3.8	7.43e-01	0	40	104	355467264	63	12385
2026-01-21 11:04:00.12	352.59	47.68	-46.2	-57.0	3.9	7.43e-01	0	40	104	355467264	63	12820
2026-01-21 11:04:01.12	352.32	47.33	-55.0	-71.3	3.8	7.47e-01	0	40	104	355467264	80	25036
2026-01-21 11:04:02.13	352.05	46.98	-44.5	-55.6	3.8	7.45e-01	0	40	104	355467264	61	12284
2026-01-21 11:04:03.14	351.78	46.64	-53.5	-67.3	3.9	7.43e-01	0	40	104	355467264	79	16782
2026-01-21 11:04:04.15	351.53	46.29	-44.0	-54.6	3.8	7.47e-01	0	40	104	355467264	60	11622
2026-01-21 11:04:05.15	351.28	45.95	-44.1	-54.6	3.8	7.43e-01	0	40	104	355467264	60	11550
2026-01-21 11:04:06.16	351.04	45.61	-44.1	-54.7	3.8	7.48e-01	0	40	104	355467264	60	11761
2026-01-21 11:04:07.17	350.80	45.27	-51.0	-63.0	3.9	7.44e-01	0	40	104	355467264	74	13683
2026-01-21 11:04:08.18	350.56	44.94	-46.6	-57.6	3.8	7.45e-01	0	40	104	355467264	65	12256
2026-01-21 11:04:09.19	350.33	44.60	-55.0	-71.1	3.9	7.43e-01	0	40	104	355467264	80	24532
2026-01-21 11:04:10.19	350.11	44.27	-54.7	-70.4	3.9	7.45e-01	0	40	104	355467264	80	22730
2026-01-21 11:04:11.20	349.89	43.95	-45.1	-55.6	3.8	7.45e-01	0	40	104	355467264	61	12375
2026-01-21 11:04:12.21	349.67	43.62	-44.9	-55.6	3.8	7.44e-01	0	40	104	355467264	61	12370
2026-01-21 11:04:13.22	349.46	43.30	-44.7	-55.6	3.8	7.43e-01	0	40	104	355467264	61	12263
2026-01-21 11:04:14.23	349.26	42.97	-44.8	-55.4	3.8	7.44e-01	0	40	104	355467264	61	12031
2026-01-21 11:04:15.23	349.06	42.66	-45.1	-55.7	3.8	7.44e-01	0	40	104	355467264	61	12407
2026-01-21 11:04:16.24	348.86	42.34	-46.3	-57.2	3.8	7.43e-01	0	40	104	355467264	64	12496
2026-01-21 11:04:17.25	348.66	42.03	-54.6	-70.2	3.9	7.43e-01	0	40	104	355467264	81	20995
2026-01-21 11:04:18.26	348.47	41.72	-45.7	-56.5	3.8	7.46e-01	0	40	104	355467264	63	12114
2026-01-21 11:04:19.27	348.29	41.41	-53.0	-66.4	3.9	7.44e-01	0	40	104	355467264	78	16093
2026-01-21 11:04:20.28	348.10	41.10	-46.2	-57.2	3.8	7.47e-01	0	40	104	355467264	64	12442
2026-01-21 11:04:21.29	347.92	40.80	-46.3	-57.0	3.8	7.47e-01	0	40	104	355467264	64	12184
2026-01-21 11:04:22.30	347.75	40.49	-46.6	-57.2	3.8	7.44e-01	0	40	104	355467264	64	12449
2026-01-21 11:04:23.31	347.58	40.19	-51.4	-63.2	3.8	7.48e-01	0	40	104	355467264	74	13930
2026-01-21 11:04:24.31	347.41	39.90	-48.1	-59.1	3.8	7.44e-01	0	40	104	355467264	67	13069
2026-01-21 11:04:25.32	347.24	39.60	-54.6	-69.7	3.9	7.46e-01	0	40	104	355467264	80	20875
2026-01-21 11:04:26.33	347.08	39.31	-51.9	-64.2	3.9	7.41e-01	0	40	104	355467264	76	13889
2026-01-21 11:04:27.34	346.92	39.02	-46.6	-57.3	3.8	7.48e-01	0	40	104	355467264	64	12606
2026-01-21 11:04:28.35	346.76	38.73	-46.4	-57.3	3.8	7.46e-01	0	40	104	355467264	64	12656
2026-01-21 11:04:29.35	346.61	38.45	-46.0	-57.1	3.8	7.46e-01	0	40	104	355467264	64	12329
2026-01-21 11:04:30.36	346.46	38.17	-46.2	-57.3	3.8	7.41e-01	0	40	104	355467264	63	13292
2026-01-21 11:04:31.37	346.31	37.89	-46.5	-57.4	3.8	7.45e-01	0	40	104	355467264	64	12761
2026-01-21 11:04:32.38	346.16	37.61	-47.0	-57.8	3.8	7.42e-01	0	40	104	355467264	65	12546
2026-01-21 11:04:33.38	346.02	37.33	-53.3	-66.6	3.9	7.44e-01	0	40	104	355467264	78	16346
2026-01-21 11:04:34.39	345.88	37.06	-46.1	-56.7	3.8	7.45e-01	0	40	104	355467264	64	11760
2026-01-21 11:04:35.40	345.74	36.79	-51.2	-63.1	3.9	7.47e-01	0	40	104	355467264	74	13856
2026-01-21 11:04:36.41	345.61	36.52	-46.2	-57.0	3.8	7.44e-01	0	40	104	355467264	64	12192
2026-01-21 11:04:37.42	345.47	36.25	-45.6	-56.5	3.8	7.42e-01	0	40	104	355467264	63	12161
2026-01-21 11:04:38.43	345.34	35.98	-46.1	-56.9	3.8	7.43e-01	0	40	104	355467264	62	13567
2026-01-21 11:04:39.44	345.21	35.72	-45.6	-56.4	3.8	7.44e-01	0	40	104	355467264	63	12018
2026-01-21 11:04:40.45	345.08	35.46	-48.5	-59.7	3.8	7.43e-01	0	40	104	355467264	67	13926
2026-01-21 11:04:41.45	344.96	35.20	-50.8	-62.4	3.9	7.47e-01	0	40	104	355467264	73	13450
2026-01-21 11:04:42.46	344.84	34.95	-46.3	-57.0	3.8	7.46e-01	0	40	104	355467264	62	13631
2026-01-21 11:04:43.47	344.72	34.69	-48.5	-59.8	3.8	7.44e-01	0	40	104	355467264	69	12655
2026-01-21 11:04:44.48	344.60	34.44	-45.2	-56.0	3.8	7.45e-01	0	40	104	355467264	62	12199
2026-01-21 11:04:45.48	344.48	34.19	-44.8	-55.6	3.8	7.47e-01	0	40	104	355467264	61	12368
2026-01-21 11:04:46.49	344.37	33.94	-45.6	-56.5	3.8	7.46e-01	0	40	104	355467264	61	13644
2026-01-21 11:04:47.50	344.25	33.69	-44.7	-55.5	3.8	7.46e-01	0	40	104	355467264	61	12168
2026-01-21 11:04:48.51	344.14	33.45	-51.3	-63.3	3.8	7.48e-01	0	40	104	355467264	72	15910
2026-01-21 11:04:49.52	344.03	33.20	-48.2	-59.4	3.9	7.45e-01	0	40	104	355467264	68	12711
2026-01-21 11:04:50.53	343.92	32.96	-47.4	-58.6	3.8	7.46e-01	0	40	104	355467264	65	13873
2026-01-21 11:04:51.54	343.82	32.72	-47.7	-58.7	3.8	7.45e-01	0	40	104	355467264	67	12391
2026-01-21 11:04:52.55	343.71	32.49	-45.4	-56.1	3.8	7.43e-01	0	40	104	355467264	62	12295
2026-01-21 11:04:53.55	343.61	32.25	-44.8	-55.3	3.8	7.44e-01	0	40	104	355467264	61	11909
2026-01-21 11:04:54.56	343.51	32.02	-45.0	-55.6	3.8	7.44e-01	0	40	104	355467264	60	13009
2026-01-21 11:04:55.57	343.41	31.79	-44.2	-55.0	3.8	7.47e-01	0	40	104	355467264	60	12119
2026-01-21 11:04:56.58	343.31	31.56	-51.3	-63.4	3.8	7.50e-01	0	40	104	355467264	72	16112
2026-01-21 11:04:57.59	343.21	31.33	-47.8	-59.0	3.9	7.46e-01	0	40	104	355467264	67	12916
2026-01-21 11:04:58.60	343.12	31.10	-47.0	-58.1	3.8	7.46e-01	0	40	104	355467264	64	13766
2026-01-21 11:04:59.61	343.02	30.88	-46.5	-57.5	3.8	7.47e-01	0	40	104	355467264	65	12193
2026-01-21 11:05:00.61	342.93	30.66	-44.8	-55.6	3.8	7.41e-01	0	40	104	355467264	61	12267
2026-01-21 11:05:01.62	342.84	30.44	-45.0	-55.7	3.8	7.46e-01	0	40	104	355467264	61	12388
2026-01-21 11:05:02.63	342.75	30.22	-47.3	-58.4	3.8	7.42e-01	0	40	104	355467264	65	13568
2026-01-21 11:05:03.64	342.66	30.00	-44.1	-54.9	3.8	7.46e-01	0	40	104	355467264	60	11979
2026-01-21 11:05:04.65	342.58	29.78	-54.1	-68.6	3.7	7.49e-01	0	40	104	355467264	78	20771
2026-01-21 11:05:05.65	342.49	29.57	-46.8	-57.8	3.8	7.45e-01	0	40	104	355467264	65	12555
2026-01-21 11:05:06.66	342.41	29.36	-49.0	-60.3	3.8	7.45e-01	0	40	104	355467264	68	14187
2026-01-21 11:05:07.67	342.32	29.15	-46.5	-57.5	3.8	7.43e-01	0	40	104	355467264	65	12126
2026-01-21 11:05:08.68	342.24	28.94	-44.9	-55.7	3.8	7.44e-01	0	40	104	355467264	61	12456
2026-01-21 11:05:09.69	342.16	28.73	-44.6	-55.5	3.8	7.46e-01	0	40	104	355467264	61	12128
2026-01-21 11:05:10.70	342.08	28.52	-46.7	-57.7	3.9	7.44e-01	0	40	104	355467264	63	14039
2026-01-21 11:05:11.71	342.00	28.32	-44.3	-54.9	3.8	7.45e-01	0	40	104	355467264	60	12085
2026-01-21 11:05:12.71	341.92	28.12	-54.9	-71.5	3.7	7.50e-01	0	40	104	355467264	80	25767
2026-01-21 11:05:13.72	341.84	27.92	-46.3	-56.9	3.9	7.45e-01	0	40	104	355467264	64	12061
2026-01-21 11:05:14.73	341.77	27.72	-50.7	-62.2	3.8	7.45e-01	0	40	104	355467264	71	14767
2026-01-21 11:05:15.74	341.69	27.52	-46.0	-56.6	3.8	7.44e-01	0	40	104	355467264	64	11569
2026-01-21 11:05:16.75	341.62	27.32	-45.3	-55.8	3.9	7.45e-01	0	40	104	355467264	62	11856
2026-01-21 11:05:17.76	341.55	27.13	-44.9	-55.5	3.8	7.45e-01	0	40	104	355467264	61	12104
2026-01-21 11:05:18.77	341.47	26.93	-50.1	-61.6	3.8	7.43e-01	0	40	104	355467264	70	14667
2026-01-21 11:05:19.78	341.40	26.74	-44.5	-55.1	3.8	7.42e-01	0	40	104	355467264	60	12278
2026-01-21 11:05:20.79	341.33	26.55	-54.9	-71.6	3.7	7.44e-01	0	40	104	355467264	80	26007
2026-01-21 11:05:21.79	341.26	26.36	-46.7	-57.5	3.9	7.41e-01	0	40	104	355467264	65	12104
2026-01-21 11:05:22.80	341.20	26.17	-50.5	-62.1	3.8	7.43e-01	0	40	104	355467264	71	14706
2026-01-21 11:05:23.81	341.13	25.98	-45.9	-56.7	3.9	7.46e-01	0	40	104	355467264	63	12393
2026-01-21 11:05:24.82	341.06	25.80	-45.6	-56.3	3.8	7.43e-01	0	40	104	355467264	63	11907
2026-01-21 11:05:25.82	341.00	25.62	-45.3	-56.0	3.8	7.43e-01	0	40	104	355467264	62	12196
2026-01-21 11:05:26.83	340.93	25.43	-48.4	-59.7	3.9	7.44e-01	0	40	104	355467264	67	13980
2026-01-21 11:05:27.84	340.87	25.25	-44.9	-55.8	3.8	7.44e-01	0	40	104	355467264	61	12537
2026-01-21 11:05:28.85	340.80	25.07	-55.0	-72.2	3.8	7.48e-01	0	40	104	355467264	80	27727
2026-01-21 11:05:29.85	340.74	24.89	-46.7	-57.7	3.8	7.43e-01	0	40	104	355467264	65	12493
2026-01-21 11:05:30.86	340.68	24.71	-51.5	-63.8	3.8	7.42e-01	0	40	104	355467264	73	15850
2026-01-21 11:05:31.87	340.62	24.54	-46.0	-56.8	3.8	7.45e-01	0	40	104	355467264	64	11952
2026-01-21 11:05:32.88	340.56	24.36	-45.4	-56.2	3.8	7.46e-01	0	40	104	355467264	62	12384
2026-01-21 11:05:33.89	340.50	24.19	-45.3	-55.9	3.8	7.42e-01	0	40	104	355467264	62	12064
2026-01-21 11:05:34.90	340.44	24.02	-49.6	-61.1	3.8	7.44e-01	0	40	104	355467264	69	14548
2026-01-21 11:05:35.91	340.38	23.84	-48.6	-59.7	3.8	7.44e-01	0	40	104	355467264	69	12513
2026-01-21 11:05:36.91	340.33	23.67	-53.8	-68.1	3.8	7.42e-01	0	40	104	355467264	78	19606
2026-01-21 11:05:37.92	340.27	23.51	-54.8	-71.6	3.8	7.43e-01	0	40	104	355467264	80	25863
2026-01-21 11:05:38.93	340.21	23.34	-45.0	-55.5	3.8	7.49e-01	0	40	104	355467264	61	12219
2026-01-21 11:05:39.94	340.16	23.17	-44.8	-55.5	3.8	7.49e-01	0	40	104	355467264	61	12174
2026-01-21 11:05:40.95	340.10	23.00	-44.8	-55.6	3.8	7.43e-01	0	40	104	355467264	61	12338
2026-01-21 11:05:41.95	340.05	22.84	-44.8	-55.6	3.8	7.41e-01	0	40	104	355467264	61	12358
2026-01-21 11:05:42.96	340.00	22.68	-44.7	-55.5	3.8	7.46e-01	0	40	104	355467264	61	12180
2026-01-21 11:05:43.97	339.95	22.51	-45.1	-55.9	3.8	7.47e-01	0	40	104	355467264	61	12780
2026-01-21 11:05:44.98	339.89	22.35	-54.9	-71.9	3.8	7.42e-01	0	40	104	355467264	80	27032
2026-01-21 11:05:45.99	339.84	22.19	-46.9	-57.9	3.8	7.44e-01	0	40	104	355467264	65	12810
2026-01-21 11:05:47.00	339.79	22.03	-51.4	-63.8	3.8	7.43e-01	0	40	104	355467264	73	15900
2026-01-21 11:05:48.01	339.74	21.87	-45.8	-56.7	3.9	7.43e-01	0	40	104	355467264	63	12411
2026-01-21 11:05:49.01	339.69	21.72	-45.3	-56.2	3.8	7.45e-01	0	40	104	355467264	62	12500
2026-01-21 11:05:50.02	339.64	21.56	-45.1	-56.0	3.8	7.42e-01	0	40	104	355467264	62	12226
2026-01-21 11:05:51.03	339.59	21.41	-46.3	-57.4	3.8	7.46e-01	0	40	104	355467264	63	13514
2026-01-21 11:05:52.04	339.55	21.25	-45.0	-56.0	3.8	7.45e-01	0	40	104	355467264	61	12818
2026-01-21 11:05:53.05	339.50	21.10	-54.8	-71.9	3.8	7.47e-01	0	40	104	355467264	80	26946
2026-01-21 11:05:54.06	339.45	20.95	-46.2	-57.3	3.8	7.44e-01	0	40	104	355467264	64	12558
2026-01-21 11:05:55.06	339.40	20.80	-50.0	-61.9	3.8	7.45e-01	0	40	104	355467264	71	14216
2026-01-21 11:05:56.07	339.36	20.65	-44.9	-55.7	3.8	7.48e-01	0	40	104	355467264	61	12446
2026-01-21 11:05:57.08	339.31	20.50	-44.6	-55.4	3.8	7.44e-01	0	40	104	355467264	61	12013
2026-01-21 11:05:58.09	339.27	20.35	-44.6	-55.4	3.8	7.43e-01	0	40	104	355467264	61	11976
2026-01-21 11:05:59.10	339.22	20.20	-46.6	-57.5	3.8	7.41e-01	0	40	104	355467264	63	13664
2026-01-21 11:06:00.10	339.18	20.06	-44.8	-55.6	3.8	7.44e-01	0	40	104	355467264	61	12343
2026-01-21 11:06:01.11	339.14	19.91	-54.7	-71.6	3.8	7.45e-01	0	40	104	355467264	80	25955
2026-01-21 11:06:02.12	339.09	19.77	-45.5	-56.3	3.8	7.43e-01	0	40	104	355467264	63	11921
2026-01-21 11:06:03.13	339.05	19.62	-49.3	-60.9	3.9	7.42e-01	0	40	104	355467264	70	13427
2026-01-21 11:06:04.14	339.01	19.48	-44.7	-55.5	3.8	7.48e-01	0	40	104	355467264	61	12167
2026-01-21 11:06:05.15	338.97	19.34	-44.6	-55.4	3.8	7.44e-01	0	40	104	355467264	61	11972
2026-01-21 11:06:06.15	338.93	19.20	-44.6	-55.5	3.8	7.45e-01	0	40	104	355467264	61	12103
2026-01-21 11:06:07.16	338.89	19.06	-45.1	-56.0	3.8	7.47e-01	0	40	104	355467264	61	12813
2026-01-21 11:06:08.17	338.85	18.92	-44.5	-55.3	3.8	7.46e-01	0	40	104	355467264	61	11900
2026-01-21 11:06:09.18	338.81	18.78	-54.6	-71.5	3.8	7.47e-01	0	40	104	355467264	80	25609
2026-01-21 11:06:10.19	338.77	18.64	-45.6	-56.3	3.8	7.46e-01	0	40	104	355467264	63	11942
2026-01-21 11:06:11.19	338.73	18.51	-49.0	-60.4	3.8	7.47e-01	0	40	104	355467264	70	12790
2026-01-21 11:06:12.20	338.69	18.37	-44.6	-55.3	3.8	7.45e-01	0	40	104	355467264	61	11852
2026-01-21 11:06:13.21	338.65	18.24	-44.7	-55.3	3.8	7.42e-01	0	40	104	355467264	61	11934
2026-01-21 11:06:14.22	338.61	18.10	-44.6	-55.2	3.8	7.47e-01	0	40	104	355467264	60	12462
2026-01-21 11:06:15.23	338.58	17.97	-45.7	-56.5	3.9	7.46e-01	0	40	104	355467264	63	12164
2026-01-21 11:06:16.23	338.54	17.84	-44.5	-55.2	3.8	7.46e-01	0	40	104	355467264	60	12378
2026-01-21 11:06:17.24	338.50	17.70	-54.0	-69.6	3.8	7.38e-01	0	40	104	355467264	80	20586
2026-01-21 11:06:18.25	338.47	17.57	-44.9	-55.4	3.8	7.44e-01	0	40	104	355467264	61	12004
2026-01-21 11:06:19.26	338.43	17.44	-47.9	-59.0	3.8	7.44e-01	0	40	104	355467264	67	12853
2026-01-21 11:06:20.27	338.39	17.31	-44.4	-55.1	3.8	7.45e-01	0	40	104	355467264	60	12237
2026-01-21 11:06:21.28	338.36	17.18	-44.3	-54.8	3.9	7.40e-01	0	40	104	355467264	60	11932
2026-01-21 11:06:22.29	338.32	17.05	-44.6	-55.2	3.8	7.44e-01	0	40	104	355467264	60	12458
2026-01-21 11:06:23.29	338.29	16.93	-45.7	-47.0	12.3	6.01e-01	1	40	104	355467264	63	4092
2026-01-21 11:06:24.30	338.26	16.80	-44.1	-45.3	25.8	6.04e-01	0	40	0	356515840	59	4194
2026-01-21 11:06:25.31	338.22	16.67	-51.9	-55.6	14.0	6.00e-01	0	40	0	358088704	76	5199
2026-01-21 11:06:26.32	338.19	16.55	-44.1	-45.1	26.2	6.01e-01	0	40	0	360185856	59	4107
2026-01-21 11:06:27.33	338.16	16.42	-46.5	-47.9	23.5	6.03e-01	0	40	0	361758720	65	4015
2026-01-21 11:06:28.33	338.12	16.30	-44.0	-45.1	26.4	6.03e-01	0	40	0	363855872	60	3893
2026-01-21 11:06:29.34	338.09	16.18	-44.2	-45.4	26.1	6.02e-01	0	40	0	365428736	59	4269
2026-01-21 11:06:30.35	338.06	16.05	-44.0	-45.2	23.6	6.03e-01	0	40	0	367525888	59	4151
2026-01-21 11:06:31.36	338.03	15.93	-44.1	-45.2	26.2	6.01e-01	0	40	0	369098752	59	4173
2026-01-21 11:06:32.37	337.99	15.81	-44.1	-45.3	26.2	6.02e-01	0	40	0	371195904	59	4199
2026-01-21 11:06:33.37	337.96	15.69	-44.0	-45.2	26.3	6.01e-01	0	40	0	373293056	59	4147
2026-01-21 11:06:34.38	337.93	15.57	-44.1	-45.3	26.1	6.05e-01	0	40	0	374865920	59	4214
2026-01-21 11:06:35.39	337.90	15.45	-44.1	-45.2	26.2	6.04e-01	0	40	0	376963072	59	4187
2026-01-21 11:06:36.40	337.87	15.33	-44.0	-45.1	26.3	6.01e-01	0	40	0	378535936	59	4140
2026-01-21 11:06:37.40	337.84	15.21	-44.1	-45.2	26.1	6.03e-01	0	40	0	380633088	59	4174
2026-01-21 11:06:38.41	337.81	15.10	-44.1	-45.2	26.2	6.03e-01	0	40	0	382730240	59	4174
2026-01-21 11:06:39.42	337.78	14.98	-44.1	-45.3	26.1	6.02e-01	0	40	0	384303104	59	4206
2026-01-21 11:06:40.42	337.75	14.86	-44.1	-45.3	26.1	6.02e-01	0	40	0	386400256	59	4205
2026-01-21 11:06:41.43	337.72	14.75	-44.1	-45.2	26.2	6.02e-01	0	40	0	388497408	59	4173
2026-01-21 11:06:42.44	337.70	14.63	-44.1	-45.3	26.1	6.02e-01	0	40	0	390070272	59	4215
2026-01-21 11:06:43.45	337.67	14.52	-44.2	-45.4	25.9	6.02e-01	0	40	0	392167424	59	4260
2026-01-21 11:06:44.46	337.64	14.40	-44.2	-45.3	26.0	6.02e-01	0	40	0	393740288	59	4241
2026-01-21 11:06:45.46	337.61	14.29	-44.2	-45.4	25.9	6.03e-01	0	40	0	395837440	59	4249
2026-01-21 11:06:46.47	337.58	14.18	-44.1	-45.2	26.0	6.02e-01	0	40	0	397410304	59	4192
2026-01-21 11:06:47.48	337.56	14.07	-44.2	-45.4	26.0	6.03e-01	0	40	0	399507456	59	4246
2026-01-21 11:06:48.49	337.53	13.95	-44.2	-45.3	26.0	6.02e-01	0	40	0	401604608	59	4231
2026-01-21 11:06:49.49	337.50	13.84	-44.1	-45.3	26.0	6.02e-01	0	40	0	403177472	59	4218
2026-01-21 11:06:50.50	337.48	13.73	-44.2	-45.4	25.9	6.04e-01	0	40	0	405274624	59	4260
2026-01-21 11:06:51.51	337.45	13.62	-44.1	-45.3	26.1	6.04e-01	0	40	0	407371776	59	4194
2026-01-21 11:06:52.52	337.42	13.51	-44.2	-45.3	25.9	6.00e-01	0	40	0	408944640	59	4242
2026-01-21 11:06:53.53	337.40	13.41	-44.0	-45.2	26.1	6.04e-01	0	40	0	411041792	59	4166
2026-01-21 11:06:54.54	337.37	13.30	-44.1	-45.2	26.1	6.02e-01	0	40	0	412614656	59	4187
2026-01-21 11:06:55.55	337.35	13.19	-44.1	-45.2	26.1	6.03e-01	0	40	0	414711808	59	4170
2026-01-21 11:06:56.55	337.32	13.08	-44.1	-45.3	26.1	6.02e-01	0	40	0	416808960	59	4199
2026-01-21 11:06:57.56	337.30	12.98	-44.0	-45.2	26.1	6.02e-01	0	40	0	418381824	59	4146
2026-01-21 11:06:58.56	337.27	12.87	-44.1	-45.3	26.0	6.03e-01	0	40	0	420478976	59	4209
2026-01-21 11:06:59.57	337.25	12.76	-44.1	-45.3	26.0	6.03e-01	0	40	0	422051840	59	4203
2026-01-21 11:07:00.58	337.22	12.66	-44.2	-45.3	26.0	6.03e-01	0	40	0	424148992	59	4239
2026-01-21 11:07:01.59	337.20	12.55	-44.1	-45.3	26.0	6.04e-01	0	40	0	425721856	59	4219
2026-01-21 11:07:02.60	337.17	12.45	-44.2	-45.4	25.9	6.02e-01	0	40	0	427819008	59	4282
2026-01-21 11:07:03.60	337.15	12.35	-44.2	-45.4	25.9	6.03e-01	0	40	0	429916160	59	4276
2026-01-21 11:07:04.61	337.13	12.24	-44.3	-45.5	25.9	6.04e-01	0	40	0	432013312	59	4297
2026-01-21 11:07:05.62	337.10	12.14	-44.3	-45.4	25.9	6.05e-01	0	40	0	433586176	59	4284
2026-01-21 11:07:06.63	337.08	12.04	-44.3	-45.5	25.8	6.04e-01	0	40	0	435683328	59	4319
2026-01-21 11:07:07.64	337.06	11.94	-44.4	-45.6	25.8	6.00e-01	0	40	0	437256192	59	4355
2026-01-21 11:07:08.65	337.04	11.83	-44.4	-45.7	25.7	6.03e-01	0	40	0	439353344	59	4397
2026-01-21 11:07:09.65	337.01	11.73	-44.5	-45.8	25.6	6.03e-01	0	40	0	440926208	59	4455
2026-01-21 11:07:10.66	336.99	11.63	-44.5	-45.7	25.6	6.04e-01	0	40	0	443023360	59	4417
2026-01-21 11:07:11.67	336.97	11.53	-44.6	-45.8	25.5	6.04e-01	0	40	0	445120512	59	4473
2026-01-21 11:07:12.68	336.95	11.43	-44.5	-45.7	25.6	6.02e-01	0	40	0	446693376	59	4430
2026-01-21 11:07:13.69	336.93	11.33	-44.5	-45.7	25.6	6.01e-01	0	40	0	448790528	59	4409
2026-01-21 11:07:14.69	336.90	11.24	-44.7	-45.9	25.4	6.03e-01	0	40	0	450363392	59	4529
2026-01-21 11:07:15.70	336.88	11.14	-44.6	-45.8	25.5	6.04e-01	0	40	0	452460544	59	4486
2026-01-21 11:07:16.71	336.86	11.04	-44.6	-45.8	25.4	6.02e-01	0	40	0	454557696	59	4491
2026-01-21 11:07:17.72	336.84	10.94	-44.6	-45.8	25.4	6.04e-01	0	40	0	456130560	59	4479
2026-01-21 11:07:18.72	336.82	10.85	-44.6	-45.9	25.4	6.00e-01	0	40	0	458227712	59	4500
2026-01-21 11:07:19.73	336.80	10.75	-44.7	-46.0	25.3	6.03e-01	0	40	0	460324864	59	4557
2026-01-21 11:07:20.74	336.78	10.65	-44.4	-45.6	25.7	6.03e-01	0	40	0	461897728	60	4139
2026-01-21 11:07:21.74	336.76	10.56	-44.6	-45.8	25.5	6.02e-01	0	40	0	463994880	60	4218
2026-01-21 11:07:22.75	336.74	10.46	-44.5	-45.8	25.6	6.02e-01	0	40	0	465567744	60	4200
2026-01-21 11:07:23.76	336.72	10.37	-44.5	-45.8	25.5	6.02e-01	0	40	0	467664896	60	4201
2026-01-21 11:07:24.77	336.70	10.27	-44.5	-45.7	25.6	6.05e-01	0	40	0	469237760	60	4159
2026-01-21 11:07:25.78	336.68	10.18	-44.6	-45.8	25.5	6.03e-01	0	40	0	471334912	60	4210
2026-01-21 11:07:26.79	336.66	10.08	-44.6	-45.9	25.5	6.03e-01	0	40	0	473432064	60	4251
2026-01-21 11:07:27.79	336.64	9.99	-44.7	-46.0	25.4	6.02e-01	0	40	0	475004928	60	4296
2026-01-21 11:07:28.80	336.62	9.90	-44.7	-45.9	25.3	6.01e-01	0	40	0	477102080	60	4290
2026-01-21 11:07:29.81	336.60	9.81	-44.7	-45.9	25.3	6.03e-01	0	40	0	479199232	60	4285
2026-01-21 11:07:30.82	336.58	9.71	-44.6	-45.8	25.4	6.04e-01	0	40	0	480772096	60	4233
2026-01-21 11:07:31.83	336.57	9.62	-44.7	-46.0	25.3	6.03e-01	0	40	0	482869248	60	4303
2026-01-21 11:07:32.84	336.55	9.53	-44.7	-46.0	25.3	6.03e-01	0	40	0	484442112	60	4293
2026-01-21 11:07:33.84	336.53	9.44	-44.5	-45.8	25.4	6.00e-01	0	40	0	486539264	60	4200
2026-01-21 11:07:34.85	336.51	9.35	-44.5	-45.7	25.5	6.03e-01	0	40	0	488636416	60	4171
2026-01-21 11:07:35.86	336.49	9.26	-44.4	-45.6	25.6	6.05e-01	0	40	0	490209280	60	4123
2026-01-21 11:07:36.87	336.48	9.17	-44.5	-45.7	25.5	6.05e-01	0	40	0	492306432	60	4184
2026-01-21 11:07:37.88	336.46	9.08	-44.6	-45.8	25.5	6.03e-01	0	40	0	493879296	60	4205
2026-01-21 11:07:38.89	336.44	8.99	-44.5	-45.7	25.5	6.03e-01	0	40	0	495976448	60	4175
2026-01-21 11:07:39.89	336.42	8.90	-44.6	-45.8	25.4	6.05e-01	0	40	0	497549312	60	4225
2026-01-21 11:07:40.90	336.41	8.81	-44.5	-45.8	25.5	6.05e-01	0	40	0	499646464	60	4199
2026-01-21 11:07:41.91	336.39	8.72	-44.6	-45.8	25.4	6.02e-01	0	40	0	501743616	60	4213
2026-01-21 11:07:42.92	336.37	8.64	-44.7	-45.9	25.3	6.03e-01	0	40	0	503840768	60	4291
2026-01-21 11:07:43.93	336.35	8.55	-44.6	-45.8	25.4	6.03e-01	0	40	0	505413632	60	4242
2026-01-21 11:07:44.93	336.34	8.46	-44.6	-45.8	25.4	6.01e-01	0	40	0	507510784	60	4214
2026-01-21 11:07:45.94	336.32	8.37	-44.7	-45.9	25.3	6.02e-01	0	40	0	509083648	60	4265
2026-01-21 11:07:46.95	336.31	8.29	-44.7	-45.9	25.3	6.05e-01	0	40	0	511180800	60	4256
2026-01-21 11:07:47.96	336.29	8.20	-44.6	-45.8	25.4	6.01e-01	0	40	0	512753664	60	4223
2026-01-21 11:07:48.97	336.27	8.11	-44.6	-45.8	25.3	6.03e-01	0	40	0	514850816	60	4229
2026-01-21 11:07:49.97	336.26	8.03	-44.6	-45.9	25.3	6.01e-01	0	40	0	516947968	60	4248
