passes_logs/2026/01/21/R3.2S_Murmansk/R3.2S_Murmansk__20260121_173139_JL1KF02B03_rec.log

#Pass ID: 20260121_173139_JL1KF02B03
#Satellite: JL1KF02B03
#Configuration: 01B_900M
#almurnet v.1.7.20251203
#Start time: 2026-01-21 17:31:40

#Version: 2.2.20231116
#Station: R3.2S_Murmansk
#Location: 33.079688 lon 68.888172 lat
#TLE: 1 61190U 24169B   26020.92389074  .00013543  00000+0  84686-3 0  9991
#TLE: 2 61190  97.5632 111.9682 0014586 162.1452 198.0293 15.09462956 73610

#Time	Az	El	Level	Level2	SNR	BER	BlckErr	Temp	State	Recorded	gain1	gain2
2026-01-21 17:31:40.56	97.22	2.14	-52.9	-55.0	6.3	0.00e+00	0	41	0	0	77	18279
2026-01-21 17:31:41.56	97.14	2.20	-52.7	-54.9	6.2	0.00e+00	0	40	104	0	76	19061
2026-01-21 17:31:42.57	97.05	2.27	-52.7	-54.8	6.2	0.00e+00	0	40	104	0	76	18992
2026-01-21 17:31:43.58	96.97	2.33	-52.7	-54.8	6.2	0.00e+00	0	41	104	0	76	19015
2026-01-21 17:31:44.59	96.89	2.39	-52.7	-54.8	6.2	0.00e+00	0	41	104	0	76	19001
2026-01-21 17:31:45.60	96.80	2.45	-52.7	-54.8	6.2	0.00e+00	0	41	104	0	76	18917
2026-01-21 17:31:46.61	96.72	2.52	-52.7	-54.8	6.2	0.00e+00	0	40	104	0	76	18906
2026-01-21 17:31:47.62	96.64	2.58	-52.7	-54.8	6.2	0.00e+00	0	41	104	0	76	18970
2026-01-21 17:31:48.62	96.55	2.64	-52.7	-54.8	6.2	0.00e+00	0	41	104	0	76	18891
2026-01-21 17:31:49.63	96.47	2.71	-52.7	-54.8	6.2	0.00e+00	0	41	104	0	76	18877
2026-01-21 17:31:50.64	96.38	2.77	-52.7	-54.8	6.2	0.00e+00	0	41	104	0	76	18978
2026-01-21 17:31:51.65	96.30	2.83	-52.7	-54.8	6.2	0.00e+00	0	41	104	0	76	18956
2026-01-21 17:31:52.66	96.21	2.90	-52.7	-54.8	6.2	0.00e+00	0	41	104	0	76	18878
2026-01-21 17:31:53.67	96.12	2.96	-52.7	-54.8	6.2	0.00e+00	0	41	104	0	76	18904
2026-01-21 17:31:54.68	96.03	3.03	-52.7	-54.8	6.2	0.00e+00	0	41	104	0	76	18891
2026-01-21 17:31:55.68	95.95	3.09	-52.7	-54.8	6.2	0.00e+00	0	41	104	0	76	18853
2026-01-21 17:31:56.69	95.86	3.16	-52.7	-54.8	6.2	0.00e+00	0	41	104	0	76	18901
2026-01-21 17:31:57.70	95.77	3.22	-52.7	-54.8	6.2	0.00e+00	0	41	104	0	76	18916
2026-01-21 17:31:58.71	95.68	3.28	-52.7	-54.8	6.2	0.00e+00	0	41	104	0	76	18925
2026-01-21 17:31:59.72	95.59	3.35	-52.7	-54.8	6.2	0.00e+00	0	41	104	0	76	18886
2026-01-21 17:32:00.73	95.50	3.41	-52.7	-54.8	6.2	0.00e+00	0	41	104	0	76	18888
2026-01-21 17:32:01.74	95.41	3.48	-52.7	-54.8	6.2	0.00e+00	0	41	104	0	76	18866
2026-01-21 17:32:02.75	95.31	3.54	-52.7	-54.8	6.2	0.00e+00	0	41	104	0	76	18943
2026-01-21 17:32:03.75	95.22	3.61	-52.7	-54.8	6.2	0.00e+00	0	41	104	0	76	18855
2026-01-21 17:32:04.76	95.13	3.67	-52.7	-54.8	6.2	0.00e+00	0	41	104	0	76	18906
2026-01-21 17:32:05.77	95.04	3.74	-52.6	-54.8	6.2	0.00e+00	0	41	104	0	76	18884
2026-01-21 17:32:06.78	94.94	3.81	-52.6	-54.8	6.2	0.00e+00	0	41	104	0	76	18892
2026-01-21 17:32:07.79	94.85	3.87	-52.7	-54.8	6.2	0.00e+00	0	41	104	0	76	18850
2026-01-21 17:32:08.80	94.75	3.94	-52.6	-54.8	6.2	0.00e+00	0	41	104	0	76	18854
2026-01-21 17:32:09.81	94.66	4.00	-52.7	-54.8	6.2	0.00e+00	0	41	104	0	76	18879
2026-01-21 17:32:10.81	94.56	4.07	-52.7	-54.8	6.2	0.00e+00	0	41	104	0	76	18864
2026-01-21 17:32:11.82	94.47	4.14	-52.6	-54.8	6.2	0.00e+00	0	41	104	0	76	18873
2026-01-21 17:32:12.83	94.37	4.20	-52.6	-54.8	6.2	0.00e+00	0	41	104	0	76	18836
2026-01-21 17:32:13.84	94.27	4.27	-52.6	-54.8	6.2	0.00e+00	0	41	104	0	76	18864
2026-01-21 17:32:14.85	94.17	4.34	-52.6	-54.8	6.2	0.00e+00	0	41	104	0	76	18842
2026-01-21 17:32:15.86	94.07	4.40	-52.6	-54.8	6.2	0.00e+00	0	41	104	0	76	18856
2026-01-21 17:32:16.86	93.97	4.47	-52.6	-54.8	6.2	0.00e+00	0	41	104	0	76	18829
2026-01-21 17:32:17.87	93.87	4.54	-52.6	-54.8	6.2	0.00e+00	0	41	104	0	76	18872
2026-01-21 17:32:18.88	93.77	4.61	-52.6	-54.8	6.2	0.00e+00	0	41	104	0	76	18897
2026-01-21 17:32:19.89	93.67	4.67	-52.6	-54.8	6.2	0.00e+00	0	41	104	0	76	18866
2026-01-21 17:32:20.90	93.57	4.74	-52.6	-54.8	6.2	0.00e+00	0	41	104	0	76	18872
2026-01-21 17:32:21.91	93.47	4.81	-52.6	-54.8	6.2	0.00e+00	0	41	104	0	76	18852
2026-01-21 17:32:22.91	93.37	4.88	-52.6	-54.8	6.2	0.00e+00	0	41	104	0	76	18838
2026-01-21 17:32:23.92	93.26	4.95	-52.6	-54.8	6.2	0.00e+00	0	41	104	0	76	18851
2026-01-21 17:32:24.93	93.16	5.01	-52.6	-54.7	6.2	0.00e+00	0	41	104	0	76	18811
2026-01-21 17:32:25.94	93.05	5.08	-52.7	-54.8	6.2	0.00e+00	0	42	104	0	76	18936
2026-01-21 17:32:26.94	92.95	5.15	-52.8	-54.9	6.2	0.00e+00	0	42	104	0	76	19233
2026-01-21 17:32:27.95	92.84	5.22	-52.6	-54.8	6.2	0.00e+00	0	42	104	0	76	18871
2026-01-21 17:32:28.96	92.74	5.29	-52.8	-54.9	6.2	0.00e+00	0	42	104	0	76	19175
2026-01-21 17:32:29.97	92.63	5.36	-52.7	-54.8	6.2	0.00e+00	0	41	104	0	76	18904
2026-01-21 17:32:30.98	92.52	5.43	-52.8	-55.0	6.2	0.00e+00	0	42	104	0	76	19326
2026-01-21 17:32:31.98	92.41	5.50	-52.7	-54.8	6.2	0.00e+00	0	42	104	0	76	19025
2026-01-21 17:32:32.99	92.30	5.56	-52.8	-54.9	6.2	0.00e+00	0	42	104	0	76	19194
2026-01-21 17:32:34.00	92.19	5.63	-52.7	-54.8	6.2	0.00e+00	0	42	104	0	76	18991
2026-01-21 17:32:35.01	92.08	5.70	-52.8	-55.0	6.2	0.00e+00	0	42	104	0	76	19384
2026-01-21 17:32:36.02	91.97	5.77	-52.7	-54.9	6.2	0.00e+00	0	42	104	0	76	19050
2026-01-21 17:32:37.02	91.86	5.84	-52.8	-55.0	6.2	0.00e+00	0	42	104	0	76	19298
2026-01-21 17:32:38.03	91.75	5.91	-52.7	-54.9	6.2	0.00e+00	0	42	104	0	76	19075
2026-01-21 17:32:39.04	91.64	5.98	-52.9	-55.1	6.2	0.00e+00	0	42	104	0	76	19503
2026-01-21 17:32:40.05	91.52	6.06	-52.7	-54.9	6.2	0.00e+00	0	42	104	0	76	19074
2026-01-21 17:32:41.06	91.41	6.13	-52.9	-55.0	6.2	0.00e+00	0	42	104	0	76	19408
2026-01-21 17:32:42.06	91.29	6.20	-52.8	-54.9	6.2	0.00e+00	0	42	104	0	76	19164
2026-01-21 17:32:43.07	91.18	6.27	-52.9	-55.0	6.2	0.00e+00	0	42	104	0	76	19476
2026-01-21 17:32:44.08	91.06	6.34	-52.8	-54.9	6.2	0.00e+00	0	41	104	0	76	19132
2026-01-21 17:32:45.09	90.94	6.41	-52.9	-55.0	6.2	0.00e+00	0	42	104	0	76	19386
2026-01-21 17:32:46.10	90.82	6.48	-52.8	-54.9	6.2	0.00e+00	0	42	104	0	76	19179
2026-01-21 17:32:47.11	90.70	6.55	-52.9	-55.1	6.2	0.00e+00	0	42	104	0	76	19531
2026-01-21 17:32:48.11	90.59	6.63	-52.8	-54.9	6.2	0.00e+00	0	42	104	0	76	19159
2026-01-21 17:32:49.12	90.46	6.70	-52.9	-55.1	6.2	0.00e+00	0	42	104	0	76	19483
2026-01-21 17:32:50.13	90.34	6.77	-52.8	-55.0	6.2	0.00e+00	0	42	104	0	76	19366
2026-01-21 17:32:51.14	90.22	6.84	-52.9	-55.1	6.2	0.00e+00	0	42	104	0	76	19517
2026-01-21 17:32:52.15	90.10	6.91	-52.8	-55.0	6.2	0.00e+00	0	42	104	0	76	19307
2026-01-21 17:32:53.16	89.98	6.99	-52.9	-55.0	6.2	0.00e+00	0	42	104	0	76	19411
2026-01-21 17:32:54.16	89.85	7.06	-52.9	-55.0	6.2	0.00e+00	0	42	104	0	76	19361
2026-01-21 17:32:55.17	89.73	7.13	-52.9	-55.1	6.2	0.00e+00	0	42	104	0	76	19527
2026-01-21 17:32:56.18	89.60	7.21	-52.9	-55.0	6.2	0.00e+00	0	42	104	0	76	19418
2026-01-21 17:32:57.19	89.47	7.28	-52.9	-55.1	6.2	0.00e+00	0	42	104	0	76	19513
2026-01-21 17:32:58.20	89.35	7.35	-52.9	-55.0	6.2	0.00e+00	0	42	104	0	76	19366
2026-01-21 17:32:59.21	89.22	7.43	-52.9	-55.1	6.2	0.00e+00	0	42	104	0	76	19639
2026-01-21 17:33:00.21	89.09	7.50	-52.9	-55.0	6.2	0.00e+00	0	42	104	0	76	19446
2026-01-21 17:33:01.22	88.96	7.57	-53.0	-55.1	6.2	0.00e+00	0	42	104	0	76	19559
2026-01-21 17:33:02.23	88.83	7.65	-52.9	-55.1	6.2	0.00e+00	0	42	104	0	76	19507
2026-01-21 17:33:03.24	88.70	7.72	-53.0	-55.2	6.2	0.00e+00	0	42	104	0	76	19717
2026-01-21 17:33:04.25	88.57	7.80	-52.9	-55.0	6.2	0.00e+00	0	42	104	0	76	19457
2026-01-21 17:33:05.25	88.43	7.87	-53.0	-55.1	6.2	0.00e+00	0	42	104	0	76	19663
2026-01-21 17:33:06.26	88.30	7.94	-53.0	-55.1	6.2	0.00e+00	0	42	104	0	76	19609
2026-01-21 17:33:07.27	88.17	8.02	-53.0	-55.1	6.2	0.00e+00	0	42	104	0	76	19653
2026-01-21 17:33:08.27	88.03	8.09	-53.0	-55.1	6.2	0.00e+00	0	42	104	0	76	19517
2026-01-21 17:33:09.28	87.89	8.17	-53.0	-55.1	6.2	0.00e+00	0	42	104	0	76	19679
2026-01-21 17:33:10.29	87.76	8.24	-53.0	-55.1	6.2	0.00e+00	0	42	104	0	76	19578
2026-01-21 17:33:11.30	87.62	8.32	-53.0	-55.2	6.2	0.00e+00	0	42	104	0	76	19776
2026-01-21 17:33:12.30	87.48	8.39	-53.0	-55.1	6.2	0.00e+00	0	42	104	0	76	19592
2026-01-21 17:33:13.31	87.34	8.47	-53.0	-55.2	6.2	0.00e+00	0	42	104	0	76	19717
2026-01-21 17:33:14.32	87.20	8.55	-53.0	-55.1	6.2	0.00e+00	0	42	104	0	76	19690
2026-01-21 17:33:15.33	87.06	8.62	-53.0	-55.2	6.2	0.00e+00	0	42	104	0	76	19823
2026-01-21 17:33:16.33	86.92	8.70	-53.0	-55.2	6.2	0.00e+00	0	42	104	0	76	19744
2026-01-21 17:33:17.34	86.77	8.77	-53.0	-55.2	6.2	0.00e+00	0	42	104	0	76	19772
2026-01-21 17:33:18.35	86.63	8.85	-53.1	-55.2	6.2	0.00e+00	0	42	104	0	76	19811
2026-01-21 17:33:19.36	86.48	8.93	-53.1	-55.2	6.2	0.00e+00	0	42	104	0	76	19797
2026-01-21 17:33:20.37	86.34	9.00	-53.1	-55.2	6.2	0.00e+00	0	42	104	0	76	19774
2026-01-21 17:33:21.38	86.19	9.08	-53.1	-55.2	6.2	0.00e+00	0	42	104	0	76	19790
2026-01-21 17:33:22.38	86.04	9.16	-53.1	-55.2	6.2	0.00e+00	0	42	104	0	76	19881
2026-01-21 17:33:23.39	85.89	9.23	-53.1	-55.2	6.2	0.00e+00	0	42	104	0	76	19855
2026-01-21 17:33:24.40	85.74	9.31	-53.1	-55.2	6.2	0.00e+00	0	42	104	0	76	19782
2026-01-21 17:33:25.41	85.59	9.39	-53.1	-55.2	6.2	0.00e+00	0	42	104	0	76	19831
2026-01-21 17:33:26.42	85.44	9.47	-53.1	-55.2	6.2	0.00e+00	0	42	104	0	76	19855
2026-01-21 17:33:27.43	85.28	9.54	-53.1	-55.2	6.2	0.00e+00	0	42	104	0	76	19898
2026-01-21 17:33:28.44	85.13	9.62	-53.1	-55.2	6.2	0.00e+00	0	42	104	0	76	19852
2026-01-21 17:33:29.45	84.97	9.70	-53.1	-55.2	6.2	0.00e+00	0	42	104	0	76	19920
2026-01-21 17:33:30.45	84.82	9.78	-53.1	-55.2	6.2	0.00e+00	0	42	104	0	76	19912
2026-01-21 17:33:31.46	84.66	9.86	-53.1	-55.3	6.2	0.00e+00	0	42	104	0	76	19985
2026-01-21 17:33:32.47	84.50	9.93	-53.1	-55.2	6.2	0.00e+00	0	42	104	0	76	19922
2026-01-21 17:33:33.48	84.34	10.01	-53.1	-55.3	6.2	0.00e+00	0	42	104	0	76	19961
2026-01-21 17:33:34.48	84.19	10.09	-53.1	-55.3	6.2	0.00e+00	0	42	104	0	76	19982
2026-01-21 17:33:35.49	84.02	10.17	-53.2	-55.3	6.2	0.00e+00	0	42	104	0	76	20036
2026-01-21 17:33:36.50	83.86	10.25	-53.1	-55.2	6.2	0.00e+00	0	42	104	0	76	19915
2026-01-21 17:33:37.51	83.70	10.33	-53.1	-55.3	6.2	0.00e+00	0	42	104	0	76	20002
2026-01-21 17:33:38.52	83.53	10.41	-53.2	-55.3	6.2	0.00e+00	0	42	104	0	76	20078
2026-01-21 17:33:39.53	83.37	10.49	-53.2	-55.3	6.2	0.00e+00	0	42	104	0	76	20065
2026-01-21 17:33:40.54	83.20	10.57	-53.2	-55.3	6.2	0.00e+00	0	42	104	0	76	20038
2026-01-21 17:33:41.55	83.03	10.64	-53.2	-55.3	6.2	0.00e+00	0	42	104	0	76	20041
2026-01-21 17:33:42.56	82.86	10.72	-53.2	-55.3	6.2	0.00e+00	0	42	104	0	76	20048
2026-01-21 17:33:43.56	82.69	10.80	-53.2	-55.3	6.2	0.00e+00	0	42	104	0	76	20015
2026-01-21 17:33:44.57	82.52	10.88	-53.2	-55.3	6.2	0.00e+00	0	42	104	0	76	20080
2026-01-21 17:33:45.58	82.35	10.96	-53.2	-55.3	6.2	0.00e+00	0	43	104	0	76	20042
2026-01-21 17:33:46.59	82.18	11.04	-53.2	-55.3	6.2	0.00e+00	0	42	104	0	76	20155
2026-01-21 17:33:47.60	82.00	11.12	-53.2	-55.3	6.2	0.00e+00	0	42	104	0	77	19005
2026-01-21 17:33:48.61	81.82	11.20	-53.2	-55.3	6.2	0.00e+00	0	42	104	0	77	18975
2026-01-21 17:33:49.62	81.65	11.29	-53.2	-55.3	6.2	0.00e+00	0	42	104	0	77	18982
2026-01-21 17:33:50.63	81.47	11.37	-53.2	-55.4	6.2	0.00e+00	0	42	104	0	77	19110
2026-01-21 17:33:51.64	81.29	11.45	-53.2	-55.3	6.2	0.00e+00	0	42	104	0	77	19013
2026-01-21 17:33:52.64	81.11	11.53	-53.2	-55.4	6.2	0.00e+00	0	42	104	0	77	19059
2026-01-21 17:33:53.65	80.93	11.61	-53.2	-55.3	6.2	0.00e+00	0	42	104	0	77	18993
2026-01-21 17:33:54.66	80.75	11.69	-53.3	-55.4	6.2	0.00e+00	0	42	104	0	77	19153
2026-01-21 17:33:55.67	80.56	11.77	-53.2	-55.4	6.2	0.00e+00	0	42	104	0	77	19062
2026-01-21 17:33:56.68	80.38	11.85	-53.2	-55.4	6.2	0.00e+00	0	42	104	0	77	19064
2026-01-21 17:33:57.68	80.19	11.93	-53.2	-55.4	6.2	0.00e+00	0	42	104	0	77	19093
2026-01-21 17:33:58.69	80.00	12.01	-53.3	-55.4	6.2	0.00e+00	0	42	104	0	77	19146
2026-01-21 17:33:59.70	79.81	12.09	-53.2	-55.4	6.2	0.00e+00	0	42	104	0	77	19071
2026-01-21 17:34:00.71	79.62	12.17	-53.3	-55.4	6.2	0.00e+00	0	42	104	0	77	19123
2026-01-21 17:34:01.72	79.43	12.26	-53.3	-55.4	6.2	0.00e+00	0	42	104	0	77	19071
2026-01-21 17:34:02.73	79.24	12.34	-53.3	-55.4	6.2	0.00e+00	0	42	104	0	77	19186
2026-01-21 17:34:03.74	79.04	12.42	-53.3	-55.4	6.2	0.00e+00	0	42	104	0	77	19070
2026-01-21 17:34:04.74	78.85	12.50	-53.3	-55.4	6.2	0.00e+00	0	42	104	0	77	19139
2026-01-21 17:34:05.75	78.65	12.58	-53.3	-55.4	6.2	0.00e+00	0	42	104	0	77	19093
2026-01-21 17:34:06.76	78.45	12.66	-53.3	-55.5	6.2	0.00e+00	0	42	104	0	77	19268
2026-01-21 17:34:07.77	78.25	12.75	-53.3	-55.4	6.2	0.00e+00	0	42	104	0	77	19123
2026-01-21 17:34:08.78	78.05	12.83	-53.3	-55.4	6.2	0.00e+00	0	42	104	0	77	19183
2026-01-21 17:34:09.79	77.85	12.91	-53.3	-55.4	6.2	0.00e+00	0	42	104	0	77	19116
2026-01-21 17:34:10.80	77.65	12.99	-53.3	-55.5	6.2	0.00e+00	0	42	104	0	77	19268
2026-01-21 17:34:11.80	77.45	13.07	-53.3	-55.4	6.2	0.00e+00	0	42	104	0	77	19167
2026-01-21 17:34:12.81	77.24	13.16	-53.3	-55.5	6.2	0.00e+00	0	42	104	0	77	19259
2026-01-21 17:34:13.82	77.03	13.24	-53.3	-55.4	6.2	0.00e+00	0	42	104	0	77	19162
2026-01-21 17:34:14.83	76.82	13.32	-53.3	-55.5	6.2	0.00e+00	0	42	104	0	77	19312
2026-01-21 17:34:15.84	76.61	13.40	-53.3	-55.4	6.2	0.00e+00	0	42	104	0	77	19176
2026-01-21 17:34:16.85	76.40	13.48	-53.3	-55.5	6.2	0.00e+00	0	42	104	0	77	19300
2026-01-21 17:34:17.85	76.19	13.57	-53.3	-55.4	6.2	0.00e+00	0	42	104	0	77	19214
2026-01-21 17:34:18.86	75.97	13.65	-53.3	-55.5	6.2	0.00e+00	0	42	104	0	77	19315
2026-01-21 17:34:19.87	75.76	13.73	-53.3	-55.5	6.2	0.00e+00	0	42	104	0	77	19266
2026-01-21 17:34:20.88	75.54	13.81	-53.3	-55.5	6.2	0.00e+00	0	42	104	0	77	19347
2026-01-21 17:34:21.89	75.32	13.89	-53.3	-55.4	6.2	0.00e+00	0	42	104	0	77	19252
2026-01-21 17:34:22.90	75.10	13.98	-53.3	-55.5	6.2	0.00e+00	0	42	104	0	77	19320
2026-01-21 17:34:23.91	74.88	14.06	-53.3	-55.5	6.2	0.00e+00	0	42	104	0	77	19270
2026-01-21 17:34:24.91	74.66	14.14	-53.3	-55.5	6.2	0.00e+00	0	42	104	0	77	19301
2026-01-21 17:34:25.92	74.43	14.22	-53.3	-55.5	6.2	0.00e+00	0	42	104	0	77	19264
2026-01-21 17:34:26.93	74.21	14.30	-53.3	-55.5	6.2	0.00e+00	0	42	104	0	77	19404
2026-01-21 17:34:27.94	73.98	14.38	-53.4	-55.5	6.2	0.00e+00	0	42	104	0	77	19322
2026-01-21 17:34:28.95	73.75	14.47	-53.4	-55.5	6.2	0.00e+00	0	42	104	0	77	19348
2026-01-21 17:34:29.96	73.52	14.55	-53.4	-55.5	6.2	0.00e+00	0	42	104	0	77	19258
2026-01-21 17:34:30.97	73.29	14.63	-53.3	-55.5	6.2	0.00e+00	0	42	104	0	77	19370
2026-01-21 17:34:31.97	73.06	14.71	-53.4	-55.5	6.2	0.00e+00	0	42	104	0	77	19389
2026-01-21 17:34:32.98	72.82	14.79	-53.4	-55.5	6.2	0.00e+00	0	42	104	0	77	19378
2026-01-21 17:34:33.99	72.59	14.87	-53.4	-55.5	6.2	0.00e+00	0	42	104	0	77	19349
2026-01-21 17:34:35.00	72.35	14.96	-53.3	-55.5	6.2	0.00e+00	0	42	104	0	77	19381
2026-01-21 17:34:36.00	72.11	15.04	-53.4	-55.5	6.2	0.00e+00	0	42	104	0	77	19387
2026-01-21 17:34:37.01	71.87	15.12	-53.4	-55.5	6.2	0.00e+00	0	42	104	0	77	19415
2026-01-21 17:34:38.02	71.63	15.20	-53.4	-55.5	6.2	0.00e+00	0	42	104	0	77	19365
2026-01-21 17:34:39.03	71.38	15.28	-53.3	-55.5	6.2	0.00e+00	0	42	104	0	77	19450
2026-01-21 17:34:40.03	71.14	15.36	-53.4	-55.5	6.2	0.00e+00	0	42	104	0	77	19432
2026-01-21 17:34:41.04	70.89	15.44	-53.4	-55.6	6.2	0.00e+00	0	42	104	0	77	19494
2026-01-21 17:34:42.05	70.64	15.52	-53.4	-55.5	6.2	0.00e+00	0	43	104	0	77	19332
2026-01-21 17:34:43.06	70.39	15.60	-53.3	-55.5	6.2	0.00e+00	0	42	104	0	77	19440
2026-01-21 17:34:44.07	70.14	15.68	-53.4	-55.6	6.2	0.00e+00	0	42	104	0	77	19506
2026-01-21 17:34:45.08	69.89	15.76	-53.4	-55.6	6.2	0.00e+00	0	42	104	0	77	19480
2026-01-21 17:34:46.08	69.63	15.84	-53.4	-55.5	6.2	0.00e+00	0	43	104	0	77	19465
2026-01-21 17:34:47.09	69.38	15.92	-53.3	-55.5	6.2	0.00e+00	0	42	104	0	77	19465
2026-01-21 17:34:48.10	69.12	16.00	-53.4	-55.6	6.2	0.00e+00	0	42	104	0	77	19510
2026-01-21 17:34:49.11	68.86	16.08	-53.4	-55.6	6.2	0.00e+00	0	42	104	0	77	19531
2026-01-21 17:34:50.12	68.60	16.16	-53.4	-55.5	6.2	0.00e+00	0	42	104	0	77	19473
2026-01-21 17:34:51.12	68.34	16.24	-53.4	-55.6	6.2	0.00e+00	0	42	104	0	77	19491
2026-01-21 17:34:52.13	68.07	16.31	-53.5	-55.6	6.2	0.00e+00	0	42	104	0	77	19602
2026-01-21 17:34:53.14	67.81	16.39	-53.5	-55.6	6.2	0.00e+00	0	42	104	0	77	19587
2026-01-21 17:34:54.15	67.54	16.47	-53.4	-55.6	6.2	0.00e+00	0	42	104	0	77	19510
2026-01-21 17:34:55.16	67.27	16.55	-53.3	-55.6	6.2	0.00e+00	0	42	104	0	77	19510
2026-01-21 17:34:56.17	67.00	16.63	-53.5	-55.6	6.2	0.00e+00	0	42	104	0	77	19590
2026-01-21 17:34:57.17	66.73	16.70	-53.5	-55.6	6.2	0.00e+00	0	42	104	0	77	19573
2026-01-21 17:34:58.18	66.45	16.78	-53.4	-55.6	6.2	0.00e+00	0	42	104	0	77	19540
2026-01-21 17:34:59.19	66.18	16.86	-53.3	-55.6	6.2	0.00e+00	0	42	104	0	77	19534
2026-01-21 17:35:00.20	65.90	16.93	-53.5	-55.6	6.2	0.00e+00	0	42	104	0	77	19606
2026-01-21 17:35:01.21	65.62	17.01	-53.5	-55.6	6.2	0.00e+00	0	42	104	0	77	19602
2026-01-21 17:35:02.22	65.34	17.08	-53.5	-55.6	6.2	0.00e+00	0	42	104	0	77	19562
2026-01-21 17:35:03.22	65.06	17.16	-53.3	-55.6	6.2	0.00e+00	0	42	104	0	77	19544
2026-01-21 17:35:04.23	64.77	17.23	-53.5	-55.6	6.2	0.00e+00	0	42	104	0	77	19571
2026-01-21 17:35:05.24	64.49	17.31	-53.5	-55.6	6.2	0.00e+00	0	42	104	0	77	19605
2026-01-21 17:35:06.25	64.20	17.38	-53.4	-55.6	6.2	0.00e+00	0	42	104	0	77	19557
2026-01-21 17:35:07.26	63.91	17.46	-53.4	-55.6	6.2	0.00e+00	0	43	104	0	77	19572
2026-01-21 17:35:08.27	63.62	17.53	-53.5	-55.6	6.2	0.00e+00	0	42	104	0	77	19576
2026-01-21 17:35:09.28	63.33	17.60	-53.5	-55.6	6.2	0.00e+00	0	42	104	0	77	19544
2026-01-21 17:35:10.28	63.04	17.67	-53.5	-55.6	6.2	0.00e+00	0	42	104	0	77	19658
2026-01-21 17:35:11.29	62.74	17.75	-53.4	-55.6	6.2	0.00e+00	0	42	104	0	77	19578
2026-01-21 17:35:12.30	62.44	17.82	-53.5	-55.6	6.2	0.00e+00	0	43	104	0	77	19598
2026-01-21 17:35:13.31	62.15	17.89	-53.5	-55.6	6.2	0.00e+00	0	42	104	0	77	19619
2026-01-21 17:35:14.32	61.85	17.96	-53.5	-55.6	6.2	0.00e+00	0	43	104	0	77	19582
2026-01-21 17:35:15.33	61.54	18.03	-53.4	-55.6	6.2	0.00e+00	0	43	104	0	77	19536
2026-01-21 17:35:16.34	61.24	18.10	-53.5	-55.6	6.2	0.00e+00	0	42	104	0	77	19663
2026-01-21 17:35:17.34	60.94	18.17	-53.5	-55.6	6.2	0.00e+00	0	42	104	0	77	19649
2026-01-21 17:35:18.35	60.63	18.24	-53.4	-55.6	6.2	0.00e+00	0	43	104	0	77	19627
2026-01-21 17:35:19.36	60.32	18.31	-53.4	-55.6	6.2	0.00e+00	0	43	104	0	77	19607
2026-01-21 17:35:20.37	60.01	18.37	-53.5	-55.6	6.2	0.00e+00	0	42	104	0	77	19662
2026-01-21 17:35:21.38	59.70	18.44	-53.5	-55.6	6.2	0.00e+00	0	42	104	0	77	19656
2026-01-21 17:35:22.38	59.39	18.51	-53.4	-55.6	6.2	0.00e+00	0	42	104	0	77	19568
2026-01-21 17:35:23.39	59.08	18.57	-53.4	-55.6	6.2	0.00e+00	0	42	104	0	77	19597
2026-01-21 17:35:24.40	58.76	18.64	-53.5	-55.6	6.2	0.00e+00	0	42	104	0	77	19660
2026-01-21 17:35:25.41	58.44	18.70	-53.5	-55.6	6.2	0.00e+00	0	42	104	0	77	19664
2026-01-21 17:35:26.42	58.12	18.77	-53.5	-55.6	6.2	0.00e+00	0	42	104	0	77	19632
2026-01-21 17:35:27.43	57.80	18.83	-53.4	-55.6	6.2	0.00e+00	0	43	104	0	77	19564
2026-01-21 17:35:28.43	57.48	18.89	-53.5	-55.6	6.2	0.00e+00	0	43	104	0	77	19693
2026-01-21 17:35:29.44	57.16	18.96	-53.5	-55.6	6.2	0.00e+00	0	43	104	0	77	19677
2026-01-21 17:35:30.45	56.83	19.02	-53.5	-55.6	6.2	0.00e+00	0	42	104	0	77	19652
2026-01-21 17:35:31.46	56.50	19.08	-53.5	-55.7	6.2	0.00e+00	0	43	104	0	77	19706
2026-01-21 17:35:32.46	56.18	19.14	-53.5	-55.7	6.2	0.00e+00	0	42	104	0	77	19734
2026-01-21 17:35:33.47	55.85	19.20	-53.5	-55.7	6.2	0.00e+00	0	43	104	0	77	19752
2026-01-21 17:35:34.48	55.52	19.26	-53.4	-55.6	6.2	0.00e+00	0	42	104	0	77	19643
2026-01-21 17:35:35.49	55.19	19.31	-53.5	-55.7	6.2	0.00e+00	0	42	104	0	77	19771
2026-01-21 17:35:36.50	54.85	19.37	-53.6	-55.7	6.2	0.00e+00	0	42	104	0	77	19797
2026-01-21 17:35:37.51	54.52	19.43	-53.5	-55.7	6.2	0.00e+00	0	42	104	0	77	19738
2026-01-21 17:35:38.52	54.18	19.48	-53.4	-55.7	6.2	0.00e+00	0	42	104	0	77	19754
2026-01-21 17:35:39.52	53.84	19.54	-53.5	-55.7	6.2	0.00e+00	0	43	104	0	77	19785
2026-01-21 17:35:40.53	53.50	19.59	-53.5	-55.7	6.2	0.00e+00	0	43	104	0	77	19815
2026-01-21 17:35:41.54	53.16	19.65	-53.5	-55.7	6.2	0.00e+00	0	42	104	0	77	19803
2026-01-21 17:35:42.55	52.82	19.70	-53.5	-55.7	6.2	0.00e+00	0	42	104	0	77	19721
2026-01-21 17:35:43.56	52.48	19.75	-53.6	-55.7	6.2	0.00e+00	0	43	104	0	77	19747
2026-01-21 17:35:44.56	52.13	19.80	-53.6	-55.7	6.2	0.00e+00	0	42	104	0	77	19794
2026-01-21 17:35:45.57	51.79	19.85	-53.5	-55.7	6.2	0.00e+00	0	43	104	0	77	19759
2026-01-21 17:35:46.57	51.44	19.90	-53.4	-55.7	6.2	0.00e+00	0	42	104	0	77	19755
2026-01-21 17:35:47.58	51.09	19.95	-53.6	-55.7	6.2	0.00e+00	0	42	104	0	77	19765
2026-01-21 17:35:48.59	50.74	19.99	-53.6	-55.7	6.2	0.00e+00	0	42	104	0	77	19837
2026-01-21 17:35:49.60	50.39	20.04	-53.5	-55.7	6.2	0.00e+00	0	43	104	0	77	19802
2026-01-21 17:35:50.61	50.04	20.09	-53.5	-55.7	6.2	0.00e+00	0	43	104	0	77	19733
2026-01-21 17:35:51.62	49.69	20.13	-53.6	-55.7	6.2	0.00e+00	0	42	104	0	77	19776
2026-01-21 17:35:52.62	49.33	20.17	-53.6	-55.7	6.2	0.00e+00	0	42	104	0	77	19840
2026-01-21 17:35:53.63	48.98	20.22	-53.6	-55.7	6.2	0.00e+00	0	42	104	0	77	19796
2026-01-21 17:35:54.64	48.62	20.26	-53.4	-55.7	6.2	0.00e+00	0	42	104	0	77	19726
2026-01-21 17:35:55.65	48.26	20.30	-53.6	-55.7	6.2	0.00e+00	0	42	104	0	77	19842
2026-01-21 17:35:56.65	47.91	20.34	-53.6	-55.7	6.2	0.00e+00	0	43	104	0	77	19890
2026-01-21 17:35:57.66	47.55	20.38	-53.6	-55.7	6.2	0.00e+00	0	42	104	0	77	19771
2026-01-21 17:35:58.67	47.18	20.42	-53.4	-55.7	6.2	0.00e+00	0	43	104	0	77	19776
2026-01-21 17:35:59.68	46.82	20.45	-53.6	-55.7	6.2	0.00e+00	0	43	104	0	77	19830
2026-01-21 17:36:00.68	46.46	20.49	-53.6	-55.7	6.2	0.00e+00	0	43	104	0	77	19820
2026-01-21 17:36:01.69	46.10	20.52	-53.6	-55.7	6.2	0.00e+00	0	43	104	0	77	19833
2026-01-21 17:36:02.69	45.74	20.56	-53.4	-55.7	6.2	0.00e+00	0	43	104	0	77	19757
2026-01-21 17:36:03.70	45.37	20.59	-53.6	-55.7	6.2	0.00e+00	0	42	104	0	77	19852
2026-01-21 17:36:04.71	45.00	20.62	-53.6	-55.7	6.2	0.00e+00	0	43	104	0	77	19800
2026-01-21 17:36:05.72	44.63	20.65	-53.5	-55.7	6.2	0.00e+00	0	43	104	0	77	19824
2026-01-21 17:36:06.72	44.27	20.68	-53.4	-55.7	6.2	0.00e+00	0	42	104	0	77	19785
2026-01-21 17:36:07.73	43.90	20.71	-53.6	-55.7	6.2	0.00e+00	0	42	104	0	77	19856
2026-01-21 17:36:08.74	43.53	20.73	-53.6	-55.7	6.2	0.00e+00	0	43	104	0	77	19809
2026-01-21 17:36:09.74	43.16	20.76	-53.6	-55.7	6.2	0.00e+00	0	42	104	0	77	19841
2026-01-21 17:36:10.75	42.79	20.78	-53.4	-55.7	6.2	0.00e+00	0	42	104	0	77	19761
2026-01-21 17:36:11.76	42.42	20.81	-53.6	-55.7	6.2	0.00e+00	0	42	104	0	77	19882
2026-01-21 17:36:12.76	42.05	20.83	-53.6	-55.7	6.2	0.00e+00	0	43	104	0	77	19886
2026-01-21 17:36:13.77	41.68	20.85	-53.6	-55.7	6.2	0.00e+00	0	43	104	0	77	19834
2026-01-21 17:36:14.78	41.30	20.87	-53.4	-55.6	6.2	0.00e+00	0	42	104	0	77	19685
2026-01-21 17:36:15.79	40.93	20.89	-53.6	-55.7	6.2	0.00e+00	0	42	104	0	77	19922
2026-01-21 17:36:16.79	40.56	20.91	-53.6	-55.7	6.2	0.00e+00	0	43	104	0	77	19858
2026-01-21 17:36:17.80	40.18	20.93	-53.6	-55.7	6.2	0.00e+00	0	42	104	0	77	19855
2026-01-21 17:36:18.81	39.80	20.94	-53.4	-55.7	6.2	0.00e+00	0	43	104	0	77	19770
2026-01-21 17:36:19.81	39.43	20.96	-53.6	-55.8	6.2	0.00e+00	0	43	104	0	77	19942
2026-01-21 17:36:20.82	39.05	20.97	-53.6	-55.7	6.2	0.00e+00	0	43	104	0	77	19885
2026-01-21 17:36:21.83	38.68	20.98	-53.6	-55.7	6.2	0.00e+00	0	43	104	0	77	19790
2026-01-21 17:36:22.84	38.30	20.99	-53.5	-55.7	6.2	0.00e+00	0	42	104	0	77	19815
2026-01-21 17:36:23.85	37.92	21.00	-53.6	-55.7	6.2	0.00e+00	0	43	104	0	77	19900
2026-01-21 17:36:24.85	37.55	21.01	-53.6	-55.8	6.2	0.00e+00	0	42	104	0	77	19956
2026-01-21 17:36:25.86	37.17	21.02	-53.6	-55.7	6.2	0.00e+00	0	42	104	0	77	19930
2026-01-21 17:36:26.87	36.79	21.02	-53.5	-55.7	6.2	0.00e+00	0	43	104	0	77	19854
2026-01-21 17:36:27.88	36.41	21.03	-53.6	-55.7	6.2	0.00e+00	0	43	104	0	77	19907
2026-01-21 17:36:28.88	36.04	21.03	-53.6	-55.8	6.2	0.00e+00	0	43	104	0	77	19959
2026-01-21 17:36:29.89	35.66	21.04	-53.6	-55.7	6.2	0.00e+00	0	43	104	0	77	19853
2026-01-21 17:36:30.90	35.28	21.04	-53.5	-55.7	6.2	0.00e+00	0	42	104	0	77	19742
2026-01-21 17:36:31.91	34.90	21.04	-53.6	-55.7	6.2	0.00e+00	0	43	104	0	77	19895
2026-01-21 17:36:32.92	34.52	21.04	-53.6	-55.7	6.2	0.00e+00	0	43	104	0	77	19920
2026-01-21 17:36:33.93	34.14	21.03	-53.6	-55.7	6.2	0.00e+00	0	43	104	0	77	19881
2026-01-21 17:36:34.94	33.76	21.03	-53.4	-55.7	6.2	0.00e+00	0	43	104	0	77	19765
2026-01-21 17:36:35.95	33.38	21.03	-53.6	-55.7	6.2	0.00e+00	0	43	104	0	77	19903
2026-01-21 17:36:36.96	33.01	21.02	-53.6	-55.7	6.2	0.00e+00	0	42	104	0	77	19861
2026-01-21 17:36:37.96	32.63	21.01	-53.6	-55.7	6.2	0.00e+00	0	42	104	0	77	19850
2026-01-21 17:36:38.97	32.25	21.00	-53.5	-55.7	6.2	0.00e+00	0	43	104	0	77	19817
2026-01-21 17:36:39.98	31.87	21.00	-53.6	-55.7	6.2	0.00e+00	0	42	104	0	77	19884
2026-01-21 17:36:40.99	31.50	20.98	-53.6	-55.7	6.2	0.00e+00	0	42	104	0	77	19928
2026-01-21 17:36:42.00	31.12	20.97	-53.6	-55.7	6.2	0.00e+00	0	43	104	0	77	19898
2026-01-21 17:36:43.00	30.75	20.96	-53.5	-55.7	6.2	0.00e+00	0	43	104	0	77	19827
2026-01-21 17:36:44.01	30.37	20.95	-53.6	-55.7	6.2	0.00e+00	0	42	104	0	77	19926
2026-01-21 17:36:45.02	29.99	20.93	-53.6	-55.8	6.2	0.00e+00	0	43	104	0	77	19984
2026-01-21 17:36:46.03	29.62	20.91	-53.6	-55.7	6.2	0.00e+00	0	43	104	0	77	19842
2026-01-21 17:36:47.04	29.24	20.90	-53.5	-55.7	6.2	0.00e+00	0	43	104	0	77	19887
2026-01-21 17:36:48.05	28.87	20.88	-53.6	-55.7	6.2	0.00e+00	0	42	104	0	77	19912
2026-01-21 17:36:49.06	28.49	20.86	-53.6	-55.8	6.2	0.00e+00	0	43	104	0	77	19941
2026-01-21 17:36:50.07	28.12	20.84	-53.6	-55.7	6.2	0.00e+00	0	43	104	0	77	19873
2026-01-21 17:36:51.07	27.75	20.81	-53.5	-55.7	6.2	0.00e+00	0	42	104	0	77	19812
2026-01-21 17:36:52.08	27.38	20.79	-53.6	-55.7	6.2	0.00e+00	0	42	104	0	77	19889
2026-01-21 17:36:53.09	27.00	20.77	-53.6	-55.7	6.2	0.00e+00	0	42	104	0	77	19847
2026-01-21 17:36:54.10	26.63	20.74	-53.6	-55.7	6.2	0.00e+00	0	43	104	0	77	19867
2026-01-21 17:36:55.11	26.26	20.71	-53.4	-55.7	6.2	0.00e+00	0	43	104	0	77	19783
2026-01-21 17:36:56.11	25.90	20.69	-53.6	-55.7	6.2	0.00e+00	0	43	104	0	77	19873
2026-01-21 17:36:57.12	25.53	20.66	-53.6	-55.7	6.2	0.00e+00	0	43	104	0	77	19890
2026-01-21 17:36:58.13	25.16	20.63	-53.6	-55.7	6.2	0.00e+00	0	42	104	0	77	19902
2026-01-21 17:36:59.14	24.79	20.60	-53.5	-55.7	6.2	0.00e+00	0	42	104	0	77	19835
2026-01-21 17:37:00.14	24.43	20.56	-53.6	-55.7	6.2	0.00e+00	0	43	104	0	77	19835
2026-01-21 17:37:01.15	24.06	20.53	-53.6	-55.7	6.2	0.00e+00	0	43	104	0	77	19842
2026-01-21 17:37:02.16	23.70	20.50	-53.6	-55.7	6.2	0.00e+00	0	42	104	0	77	19825
2026-01-21 17:37:03.17	23.33	20.46	-53.5	-55.7	6.2	0.00e+00	0	43	104	0	77	19749
2026-01-21 17:37:04.18	22.97	20.42	-53.6	-55.8	6.2	0.00e+00	0	43	104	0	77	19934
2026-01-21 17:37:05.18	22.61	20.39	-53.6	-55.7	6.2	0.00e+00	0	42	104	0	77	19878
2026-01-21 17:37:06.19	22.25	20.35	-53.6	-55.7	6.2	0.00e+00	0	43	104	0	77	19837
2026-01-21 17:37:07.19	21.89	20.31	-53.5	-55.7	6.2	0.00e+00	0	43	104	0	77	19850
2026-01-21 17:37:08.20	21.53	20.27	-53.6	-55.7	6.2	0.00e+00	0	43	104	0	77	19904
2026-01-21 17:37:09.21	21.18	20.23	-53.6	-55.7	6.2	0.00e+00	0	43	104	0	77	19890
2026-01-21 17:37:10.22	20.82	20.19	-53.6	-55.7	6.2	0.00e+00	0	43	104	0	77	19875
2026-01-21 17:37:11.23	20.46	20.14	-53.5	-55.7	6.2	0.00e+00	0	43	104	0	77	19905
2026-01-21 17:37:12.24	20.11	20.10	-53.6	-55.7	6.2	0.00e+00	0	43	104	0	77	19855
2026-01-21 17:37:13.24	19.76	20.05	-53.6	-55.7	6.2	0.00e+00	0	43	104	0	77	19909
2026-01-21 17:37:14.25	19.41	20.01	-53.6	-55.7	6.2	0.00e+00	0	43	104	0	77	19898
2026-01-21 17:37:15.26	19.06	19.96	-53.5	-55.7	6.2	0.00e+00	0	43	104	0	77	19778
2026-01-21 17:37:16.27	18.71	19.91	-53.6	-55.7	6.2	0.00e+00	0	43	104	0	77	19829
2026-01-21 17:37:17.27	18.36	19.86	-53.6	-55.7	6.2	0.00e+00	0	43	104	0	77	19851
2026-01-21 17:37:18.28	18.01	19.81	-53.5	-55.7	6.2	0.00e+00	0	43	104	0	77	19814
2026-01-21 17:37:19.29	17.67	19.76	-53.5	-55.7	6.2	0.00e+00	0	43	104	0	77	19787
2026-01-21 17:37:20.30	17.32	19.71	-53.6	-55.7	6.2	0.00e+00	0	43	104	0	77	19824
2026-01-21 17:37:21.31	16.98	19.66	-53.6	-55.7	6.2	0.00e+00	0	43	104	0	77	19912
2026-01-21 17:37:22.31	16.64	19.61	-53.5	-55.7	6.2	0.00e+00	0	43	104	0	77	19792
2026-01-21 17:37:23.32	16.30	19.55	-53.5	-55.7	6.2	0.00e+00	0	43	104	0	77	19762
2026-01-21 17:37:24.33	15.96	19.50	-53.6	-55.7	6.2	0.00e+00	0	43	104	0	77	19833
2026-01-21 17:37:25.34	15.62	19.44	-53.6	-55.7	6.2	0.00e+00	0	43	104	0	77	19833
2026-01-21 17:37:26.34	15.29	19.38	-53.5	-55.7	6.2	0.00e+00	0	43	104	0	77	19792
2026-01-21 17:37:27.35	14.95	19.33	-53.4	-55.6	6.2	0.00e+00	0	42	104	0	77	19702
2026-01-21 17:37:28.36	14.62	19.27	-53.6	-55.7	6.2	0.00e+00	0	43	104	0	77	19791
2026-01-21 17:37:29.37	14.29	19.21	-53.5	-55.7	6.2	0.00e+00	0	43	104	0	77	19804
2026-01-21 17:37:30.38	13.96	19.15	-53.5	-55.7	6.2	0.00e+00	0	43	104	0	77	19709
2026-01-21 17:37:31.38	13.63	19.09	-53.5	-55.7	6.2	0.00e+00	0	43	104	0	77	19783
2026-01-21 17:37:32.39	13.30	19.03	-53.6	-55.7	6.2	0.00e+00	0	42	104	0	77	19784
2026-01-21 17:37:33.40	12.98	18.97	-53.5	-55.7	6.2	0.00e+00	0	43	104	0	77	19808
2026-01-21 17:37:34.41	12.65	18.91	-53.5	-55.7	6.2	0.00e+00	0	43	104	0	77	19801
2026-01-21 17:37:35.42	12.33	18.84	-53.5	-55.7	6.2	0.00e+00	0	43	104	0	77	19710
2026-01-21 17:37:36.42	12.01	18.78	-53.6	-55.7	6.2	0.00e+00	0	43	104	0	77	19749
2026-01-21 17:37:37.43	11.69	18.72	-53.5	-55.7	6.2	0.00e+00	0	42	104	0	77	19793
2026-01-21 17:37:38.44	11.37	18.65	-53.5	-55.7	6.2	0.00e+00	0	43	104	0	77	19706
2026-01-21 17:37:39.45	11.05	18.59	-53.5	-55.7	6.2	0.00e+00	0	43	104	0	77	19741
2026-01-21 17:37:40.46	10.74	18.52	-53.6	-55.7	6.2	0.00e+00	0	43	104	0	77	19797
2026-01-21 17:37:41.46	10.43	18.45	-53.5	-55.7	6.2	0.00e+00	0	43	104	0	77	19732
2026-01-21 17:37:42.47	10.11	18.39	-53.4	-55.6	6.2	0.00e+00	0	42	104	0	77	19647
2026-01-21 17:37:43.48	9.80	18.32	-53.5	-55.7	6.2	0.00e+00	0	43	104	0	77	19736
2026-01-21 17:37:44.49	9.49	18.25	-53.5	-55.6	6.2	0.00e+00	0	43	104	0	77	19679
2026-01-21 17:37:45.50	9.19	18.18	-53.5	-55.6	6.2	0.00e+00	0	43	104	0	77	19677
2026-01-21 17:37:46.50	8.88	18.11	-53.4	-55.6	6.2	0.00e+00	0	43	104	0	77	19690
2026-01-21 17:37:47.51	8.58	18.04	-53.5	-55.6	6.2	0.00e+00	0	43	104	0	77	19690
2026-01-21 17:37:48.52	8.27	17.97	-53.5	-55.7	6.2	0.00e+00	0	43	104	0	77	19705
2026-01-21 17:37:49.52	7.98	17.90	-53.5	-55.6	6.2	0.00e+00	0	43	104	0	77	19632
2026-01-21 17:37:50.53	7.68	17.83	-53.4	-55.7	6.2	0.00e+00	0	42	104	0	77	19711
2026-01-21 17:37:51.54	7.38	17.76	-53.5	-55.6	6.2	0.00e+00	0	43	104	0	77	19665
2026-01-21 17:37:52.55	7.08	17.69	-53.5	-55.6	6.2	0.00e+00	0	43	104	0	77	19661
2026-01-21 17:37:53.56	6.79	17.62	-53.5	-55.7	6.2	0.00e+00	0	43	104	0	77	19716
2026-01-21 17:37:54.57	6.49	17.54	-53.4	-55.6	6.2	0.00e+00	0	42	104	0	77	19658
2026-01-21 17:37:55.58	6.20	17.47	-53.5	-55.6	6.2	0.00e+00	0	42	104	0	77	19691
2026-01-21 17:37:56.58	5.91	17.40	-53.5	-55.6	6.2	0.00e+00	0	43	104	0	77	19698
2026-01-21 17:37:57.59	5.63	17.32	-53.5	-55.7	6.2	0.00e+00	0	43	104	0	77	19708
2026-01-21 17:37:58.60	5.34	17.25	-53.4	-55.6	6.2	0.00e+00	0	43	104	0	77	19699
2026-01-21 17:37:59.61	5.05	17.17	-53.5	-55.6	6.2	0.00e+00	0	43	104	0	77	19641
2026-01-21 17:38:00.62	4.77	17.10	-53.5	-55.6	6.2	0.00e+00	0	43	104	0	77	19634
2026-01-21 17:38:01.63	4.49	17.02	-53.5	-55.6	6.2	0.00e+00	0	43	104	0	77	19628
2026-01-21 17:38:02.63	4.21	16.94	-53.4	-55.6	6.2	0.00e+00	0	43	104	0	77	19626
2026-01-21 17:38:03.64	3.93	16.87	-53.5	-55.6	6.2	0.00e+00	0	43	104	0	77	19601
2026-01-21 17:38:04.65	3.66	16.79	-53.5	-55.6	6.2	0.00e+00	0	43	104	0	77	19605
2026-01-21 17:38:05.66	3.38	16.71	-53.5	-55.6	6.2	0.00e+00	0	43	104	0	77	19588
2026-01-21 17:38:06.66	3.11	16.64	-53.4	-55.6	6.2	0.00e+00	0	43	104	0	77	19580
2026-01-21 17:38:07.67	2.84	16.56	-53.5	-55.6	6.2	0.00e+00	0	43	104	0	77	19652
2026-01-21 17:38:08.68	2.57	16.48	-53.5	-55.6	6.2	0.00e+00	0	43	104	0	77	19604
2026-01-21 17:38:09.69	2.30	16.40	-53.5	-55.6	6.2	0.00e+00	0	43	104	0	77	19515
2026-01-21 17:38:10.70	2.03	16.33	-53.4	-55.6	6.2	0.00e+00	0	43	104	0	77	19514
2026-01-21 17:38:11.71	1.76	16.25	-53.5	-55.6	6.2	0.00e+00	0	43	104	0	77	19570
2026-01-21 17:38:12.71	1.50	16.17	-53.5	-55.6	6.2	0.00e+00	0	43	104	0	77	19523
2026-01-21 17:38:13.72	1.24	16.09	-53.4	-55.6	6.2	0.00e+00	0	43	104	0	77	19568
2026-01-21 17:38:14.73	0.98	16.01	-53.4	-55.5	6.2	0.00e+00	0	43	104	0	77	19448
2026-01-21 17:38:15.73	0.72	15.93	-53.5	-55.6	6.2	0.00e+00	0	43	104	0	77	19495
2026-01-21 17:38:16.74	0.46	15.85	-53.5	-55.6	6.2	0.00e+00	0	43	104	0	77	19561
2026-01-21 17:38:17.75	0.21	15.77	-53.4	-55.6	6.2	0.00e+00	0	43	104	0	77	19498
2026-01-21 17:38:18.76	359.95	15.69	-53.4	-55.6	6.2	0.00e+00	0	43	104	0	77	19521
2026-01-21 17:38:19.76	359.70	15.61	-53.4	-55.6	6.2	0.00e+00	0	43	104	0	77	19515
2026-01-21 17:38:20.77	359.45	15.53	-53.4	-55.6	6.2	0.00e+00	0	43	104	0	77	19562
2026-01-21 17:38:21.78	359.20	15.45	-53.4	-55.5	6.2	0.00e+00	0	43	104	0	77	19469
2026-01-21 17:38:22.79	358.95	15.37	-53.4	-55.6	6.2	0.00e+00	0	43	104	0	77	19508
2026-01-21 17:38:23.80	358.71	15.29	-53.4	-55.5	6.2	0.00e+00	0	43	104	0	77	19470
2026-01-21 17:38:24.81	358.46	15.21	-53.4	-55.5	6.2	0.00e+00	0	43	104	0	77	19427
2026-01-21 17:38:25.82	358.22	15.13	-53.4	-55.5	6.2	0.00e+00	0	43	104	0	77	19472
2026-01-21 17:38:26.83	357.98	15.04	-53.4	-55.5	6.2	0.00e+00	0	43	104	0	77	19410
2026-01-21 17:38:27.84	357.74	14.96	-53.4	-55.5	6.2	0.00e+00	0	43	104	0	77	19380
2026-01-21 17:38:28.85	357.50	14.88	-53.4	-55.5	6.2	0.00e+00	0	43	104	0	77	19422
2026-01-21 17:38:29.85	357.26	14.80	-53.4	-55.5	6.2	0.00e+00	0	43	104	0	77	19424
2026-01-21 17:38:30.86	357.03	14.72	-53.4	-55.5	6.2	0.00e+00	0	43	104	0	77	19447
2026-01-21 17:38:31.87	356.79	14.64	-53.4	-55.5	6.2	0.00e+00	0	43	104	0	77	19436
2026-01-21 17:38:32.88	356.56	14.55	-53.4	-55.5	6.2	0.00e+00	0	43	104	0	77	19362
2026-01-21 17:38:33.89	356.33	14.47	-53.4	-55.5	6.2	0.00e+00	0	43	104	0	77	19349
2026-01-21 17:38:34.90	356.10	14.39	-53.4	-55.5	6.2	0.00e+00	0	43	104	0	77	19403
2026-01-21 17:38:35.90	355.87	14.31	-53.4	-55.5	6.2	0.00e+00	0	43	104	0	77	19319
2026-01-21 17:38:36.91	355.64	14.23	-53.4	-55.5	6.2	0.00e+00	0	43	104	0	77	19284
2026-01-21 17:38:37.92	355.42	14.14	-53.3	-55.5	6.2	0.00e+00	0	43	104	0	77	19310
2026-01-21 17:38:38.93	355.19	14.06	-53.3	-55.5	6.2	0.00e+00	0	43	104	0	77	19422
2026-01-21 17:38:39.94	354.97	13.98	-53.3	-55.5	6.2	0.00e+00	0	43	104	0	77	19272
2026-01-21 17:38:40.94	354.75	13.90	-53.4	-55.5	6.2	0.00e+00	0	43	104	0	77	19303
2026-01-21 17:38:41.95	354.53	13.82	-53.3	-55.5	6.2	0.00e+00	0	43	104	0	77	19319
2026-01-21 17:38:42.96	354.32	13.73	-53.3	-55.5	6.2	0.00e+00	0	43	104	0	77	19328
2026-01-21 17:38:43.97	354.10	13.65	-53.3	-55.4	6.2	0.00e+00	0	43	104	0	77	19249
2026-01-21 17:38:44.98	353.88	13.57	-53.3	-55.4	6.2	0.00e+00	0	43	104	0	77	19214
2026-01-21 17:38:45.99	353.67	13.49	-53.3	-55.5	6.2	0.00e+00	0	42	104	0	77	19280
2026-01-21 17:38:46.99	353.46	13.40	-53.3	-55.5	6.2	0.00e+00	0	43	104	0	77	19299
2026-01-21 17:38:48.00	353.25	13.32	-53.3	-55.4	6.2	0.00e+00	0	43	104	0	77	19247
2026-01-21 17:38:49.01	353.04	13.24	-53.3	-55.4	6.2	0.00e+00	0	43	104	0	77	19244
2026-01-21 17:38:50.02	352.83	13.16	-53.3	-55.4	6.2	0.00e+00	0	43	104	0	77	19209
2026-01-21 17:38:51.02	352.62	13.08	-53.3	-55.5	6.2	0.00e+00	0	43	104	0	77	19277
2026-01-21 17:38:52.03	352.42	12.99	-53.3	-55.4	6.2	0.00e+00	0	43	104	0	77	19219
2026-01-21 17:38:53.04	352.21	12.91	-53.3	-55.4	6.2	0.00e+00	0	43	104	0	77	19218
2026-01-21 17:38:54.05	352.01	12.83	-53.3	-55.4	6.2	0.00e+00	0	43	104	0	77	19204
2026-01-21 17:38:55.06	351.81	12.75	-53.3	-55.4	6.2	0.00e+00	0	43	104	0	77	19200
2026-01-21 17:38:56.06	351.61	12.67	-53.3	-55.4	6.2	0.00e+00	0	43	104	0	77	19163
2026-01-21 17:38:57.07	351.41	12.58	-53.3	-55.4	6.2	0.00e+00	0	43	104	0	77	19157
2026-01-21 17:38:58.08	351.21	12.50	-53.3	-55.4	6.2	0.00e+00	0	43	104	0	77	19156
2026-01-21 17:38:59.09	351.02	12.42	-53.2	-55.4	6.2	0.00e+00	0	43	104	0	77	19196
2026-01-21 17:39:00.10	350.82	12.34	-53.3	-55.4	6.2	0.00e+00	0	43	104	0	77	19089
2026-01-21 17:39:01.11	350.63	12.26	-53.3	-55.4	6.2	0.00e+00	0	43	104	0	77	19131
2026-01-21 17:39:02.12	350.44	12.17	-53.2	-55.4	6.2	0.00e+00	0	43	104	0	77	19128
2026-01-21 17:39:03.12	350.25	12.09	-53.2	-55.4	6.2	0.00e+00	0	43	104	0	77	19162
2026-01-21 17:39:04.13	350.06	12.01	-53.2	-55.4	6.2	0.00e+00	0	43	104	0	77	19078
2026-01-21 17:39:05.14	349.87	11.93	-53.2	-55.4	6.2	0.00e+00	0	43	104	0	77	19059
2026-01-21 17:39:06.15	349.68	11.85	-53.2	-55.4	6.2	0.00e+00	0	43	104	0	77	19116
2026-01-21 17:39:07.16	349.49	11.77	-53.2	-55.4	6.2	0.00e+00	0	43	104	0	77	19091
2026-01-21 17:39:08.16	349.31	11.69	-53.2	-55.3	6.2	0.00e+00	0	43	104	0	77	18934
2026-01-21 17:39:09.17	349.13	11.60	-53.2	-55.3	6.2	0.00e+00	0	43	104	0	77	19018
2026-01-21 17:39:10.18	348.95	11.52	-53.2	-55.3	6.2	0.00e+00	0	43	104	0	77	19014
2026-01-21 17:39:11.19	348.76	11.44	-53.2	-55.3	6.2	0.00e+00	0	43	104	0	77	19026
2026-01-21 17:39:12.20	348.58	11.36	-53.2	-55.3	6.2	0.00e+00	0	43	104	0	77	18990
2026-01-21 17:39:13.21	348.40	11.28	-53.2	-55.3	6.2	0.00e+00	0	43	104	0	77	19000
2026-01-21 17:39:14.21	348.23	11.20	-53.2	-55.3	6.2	0.00e+00	0	43	104	0	77	18969
2026-01-21 17:39:15.22	348.05	11.12	-53.2	-55.3	6.2	0.00e+00	0	43	104	0	77	19025
2026-01-21 17:39:16.23	347.88	11.04	-53.2	-55.3	6.2	0.00e+00	0	43	104	0	77	18912
2026-01-21 17:39:17.24	347.70	10.96	-53.2	-55.3	6.2	0.00e+00	0	43	104	0	77	18867
2026-01-21 17:39:18.24	347.53	10.88	-53.2	-55.3	6.2	0.00e+00	0	43	104	0	77	18916
2026-01-21 17:39:19.25	347.36	10.80	-53.2	-55.3	6.2	0.00e+00	0	43	104	0	77	18917
2026-01-21 17:39:20.26	347.19	10.72	-53.1	-55.3	6.2	0.00e+00	0	43	104	0	77	18867
2026-01-21 17:39:21.27	347.02	10.64	-53.2	-55.3	6.2	0.00e+00	0	43	104	0	77	18870
2026-01-21 17:39:22.28	346.85	10.56	-53.1	-55.2	6.2	0.00e+00	0	43	104	0	77	18800
2026-01-21 17:39:23.28	346.68	10.48	-53.1	-55.3	6.2	0.00e+00	0	43	104	0	77	18897
2026-01-21 17:39:24.29	346.52	10.40	-53.1	-55.2	6.2	0.00e+00	0	43	104	0	77	18761
2026-01-21 17:39:25.30	346.35	10.32	-53.1	-55.3	6.2	0.00e+00	0	43	104	0	77	18830
2026-01-21 17:39:26.31	346.19	10.24	-53.1	-55.2	6.2	0.00e+00	0	43	104	0	77	18800
2026-01-21 17:39:27.32	346.02	10.16	-53.1	-55.2	6.2	0.00e+00	0	43	104	0	77	18772
2026-01-21 17:39:28.32	345.86	10.08	-53.1	-55.2	6.2	0.00e+00	0	43	104	0	77	18816
2026-01-21 17:39:29.33	345.70	10.01	-53.1	-55.2	6.2	0.00e+00	0	43	104	0	77	18802
2026-01-21 17:39:30.34	345.54	9.93	-53.1	-55.2	6.2	0.00e+00	0	43	104	0	77	18758
2026-01-21 17:39:31.35	345.38	9.85	-53.1	-55.2	6.2	0.00e+00	0	43	104	0	77	18773
2026-01-21 17:39:32.36	345.23	9.77	-53.1	-55.2	6.2	0.00e+00	0	43	104	0	77	18756
2026-01-21 17:39:33.37	345.07	9.69	-53.1	-55.2	6.2	0.00e+00	0	43	104	0	77	18708
2026-01-21 17:39:34.37	344.92	9.61	-53.0	-55.2	6.2	0.00e+00	0	43	104	0	77	18734
2026-01-21 17:39:35.38	344.76	9.53	-53.0	-55.2	6.2	0.00e+00	0	43	104	0	77	18712
2026-01-21 17:39:36.39	344.61	9.46	-53.1	-55.2	6.2	0.00e+00	0	43	104	0	77	18630
2026-01-21 17:39:37.40	344.45	9.38	-53.1	-55.2	6.2	0.00e+00	0	43	104	0	77	18681
2026-01-21 17:39:38.40	344.30	9.30	-53.0	-55.2	6.2	0.00e+00	0	43	104	0	77	18704
2026-01-21 17:39:39.41	344.15	9.22	-53.0	-55.2	6.2	0.00e+00	0	43	104	0	77	18708
2026-01-21 17:39:40.42	344.00	9.15	-53.0	-55.2	6.2	0.00e+00	0	43	104	0	77	18654
2026-01-21 17:39:41.43	343.85	9.07	-53.0	-55.2	6.2	0.00e+00	0	43	104	0	77	18678
2026-01-21 17:39:42.44	343.71	8.99	-53.0	-55.2	6.2	0.00e+00	0	43	104	0	77	18673
2026-01-21 17:39:43.44	343.56	8.92	-53.0	-55.2	6.2	0.00e+00	0	43	104	0	77	18632
2026-01-21 17:39:44.45	343.41	8.84	-53.0	-55.2	6.2	0.00e+00	0	43	104	0	77	18607
2026-01-21 17:39:45.46	343.27	8.76	-53.0	-55.1	6.2	0.00e+00	0	43	104	0	77	18533
2026-01-21 17:39:46.47	343.12	8.69	-53.0	-55.1	6.2	0.00e+00	0	43	104	0	77	18545
2026-01-21 17:39:47.47	342.98	8.61	-53.0	-55.1	6.2	0.00e+00	0	43	104	0	77	18531
2026-01-21 17:39:48.48	342.84	8.53	-53.0	-55.1	6.2	0.00e+00	0	43	104	0	77	18529
2026-01-21 17:39:49.49	342.70	8.46	-53.0	-55.1	6.2	0.00e+00	0	43	104	0	77	18550
2026-01-21 17:39:50.50	342.56	8.38	-52.9	-55.1	6.2	0.00e+00	0	43	104	0	77	18513
2026-01-21 17:39:51.50	342.42	8.31	-53.0	-55.1	6.2	0.00e+00	0	43	104	0	77	18504
2026-01-21 17:39:52.51	342.28	8.23	-52.9	-55.0	6.2	0.00e+00	0	43	104	0	77	18364
2026-01-21 17:39:53.52	342.14	8.15	-52.9	-55.1	6.2	0.00e+00	0	43	104	0	77	18492
2026-01-21 17:39:54.53	342.01	8.08	-52.9	-55.1	6.2	0.00e+00	0	43	104	0	77	18516
2026-01-21 17:39:55.54	341.87	8.00	-52.9	-55.1	6.2	0.00e+00	0	43	104	0	77	18462
2026-01-21 17:39:56.54	341.74	7.93	-52.9	-55.1	6.2	0.00e+00	0	43	104	0	77	18408
2026-01-21 17:39:57.55	341.60	7.85	-52.9	-55.0	6.2	0.00e+00	0	43	104	0	77	18379
2026-01-21 17:39:58.56	341.47	7.78	-52.9	-55.1	6.2	0.00e+00	0	43	104	0	77	18413
2026-01-21 17:39:59.57	341.34	7.71	-52.9	-55.0	6.2	0.00e+00	0	43	104	0	77	18307
2026-01-21 17:40:00.58	341.20	7.63	-52.9	-55.0	6.2	0.00e+00	0	43	104	0	77	18224
2026-01-21 17:40:01.58	341.07	7.56	-52.9	-55.0	6.2	0.00e+00	0	43	104	0	77	18257
2026-01-21 17:40:02.59	340.94	7.48	-52.9	-55.0	6.2	0.00e+00	0	43	104	0	77	18342
2026-01-21 17:40:03.60	340.82	7.41	-52.9	-55.0	6.2	0.00e+00	0	43	104	0	77	18233
2026-01-21 17:40:04.61	340.69	7.33	-52.8	-55.0	6.2	0.00e+00	0	43	104	0	77	18182
2026-01-21 17:40:05.62	340.56	7.26	-52.8	-55.0	6.2	0.00e+00	0	43	104	0	77	18240
2026-01-21 17:40:06.63	340.43	7.19	-52.8	-55.0	6.2	0.00e+00	0	43	104	0	77	18329
2026-01-21 17:40:07.63	340.31	7.11	-52.8	-55.0	6.2	0.00e+00	0	43	104	0	77	18208
2026-01-21 17:40:08.64	340.18	7.04	-52.8	-54.9	6.2	0.00e+00	0	43	104	0	77	18042
2026-01-21 17:40:09.65	340.06	6.97	-52.8	-55.0	6.2	0.00e+00	0	43	104	0	77	18208
2026-01-21 17:40:10.66	339.93	6.90	-52.8	-55.0	6.2	0.00e+00	0	43	104	0	77	18286
2026-01-21 17:40:11.66	339.81	6.82	-52.8	-54.8	6.2	0.00e+00	0	43	104	0	77	17908
2026-01-21 17:40:12.67	339.69	6.75	-52.7	-54.9	6.2	0.00e+00	0	43	104	0	77	18009
2026-01-21 17:40:13.68	339.57	6.68	-52.8	-54.9	6.2	0.00e+00	0	43	104	0	77	18071
2026-01-21 17:40:14.69	339.45	6.61	-52.8	-54.9	6.2	0.00e+00	0	43	104	0	77	18171
2026-01-21 17:40:15.70	339.33	6.53	-52.7	-54.8	6.2	0.00e+00	0	43	104	0	77	17905
2026-01-21 17:40:16.71	339.21	6.46	-52.7	-54.8	6.2	0.00e+00	0	43	104	0	77	17835
2026-01-21 17:40:17.71	339.09	6.39	-52.7	-54.9	6.2	0.00e+00	0	43	104	0	77	17985
2026-01-21 17:40:18.72	338.97	6.32	-52.8	-54.9	6.2	0.00e+00	0	43	104	0	77	18091
2026-01-21 17:40:19.73	338.86	6.25	-52.7	-54.7	6.2	0.00e+00	0	43	104	0	77	17754
2026-01-21 17:40:20.74	338.74	6.18	-52.7	-54.7	6.2	0.00e+00	0	43	104	0	77	17751
2026-01-21 17:40:21.74	338.62	6.11	-52.7	-54.8	6.2	0.00e+00	0	43	104	0	77	17867
2026-01-21 17:40:22.75	338.51	6.03	-52.7	-54.9	6.2	0.00e+00	0	43	104	0	77	18075
2026-01-21 17:40:23.76	338.40	5.96	-52.6	-54.7	6.2	0.00e+00	0	43	104	0	77	17704
2026-01-21 17:40:24.77	338.28	5.89	-52.6	-54.8	6.2	0.00e+00	0	43	104	0	77	17858
2026-01-21 17:40:25.78	338.17	5.82	-52.7	-54.8	6.2	0.00e+00	0	43	104	0	77	17913
2026-01-21 17:40:26.78	338.06	5.75	-52.7	-54.8	6.2	0.00e+00	0	43	104	0	77	17950
2026-01-21 17:40:27.79	337.95	5.68	-52.6	-54.7	6.2	0.00e+00	0	43	104	0	77	17715
2026-01-21 17:40:28.80	337.84	5.61	-52.6	-54.8	6.2	0.00e+00	0	43	104	0	77	17779
2026-01-21 17:40:29.81	337.73	5.54	-52.6	-54.8	6.2	0.00e+00	0	43	104	0	77	17882
2026-01-21 17:40:30.82	337.62	5.47	-52.7	-54.8	6.2	0.00e+00	0	43	104	0	77	17907
2026-01-21 17:40:31.82	337.51	5.40	-52.5	-54.6	6.2	0.00e+00	0	43	104	0	77	17491
2026-01-21 17:40:32.83	337.40	5.33	-52.5	-54.7	6.2	0.00e+00	0	43	104	0	77	17645
2026-01-21 17:40:33.84	337.29	5.26	-52.6	-54.7	6.2	0.00e+00	0	43	104	0	77	17720
2026-01-21 17:40:34.85	337.19	5.19	-52.6	-54.8	6.2	0.00e+00	0	43	104	0	77	17793
2026-01-21 17:40:35.86	337.08	5.13	-52.4	-54.6	6.2	0.00e+00	0	43	104	0	76	18417
2026-01-21 17:40:36.86	336.97	5.06	-52.5	-54.6	6.2	0.00e+00	0	43	104	0	76	18477
2026-01-21 17:40:37.87	336.87	4.99	-52.6	-54.8	6.2	0.00e+00	0	43	104	0	76	18847
2026-01-21 17:40:38.88	336.76	4.92	-53.1	-55.2	6.2	0.00e+00	0	43	104	0	76	19779
2026-01-21 17:40:39.89	336.66	4.85	-53.3	-55.5	6.2	0.00e+00	0	43	104	0	77	19299
2026-01-21 17:40:40.90	336.56	4.78	-53.5	-55.6	6.2	0.00e+00	0	43	104	0	77	19682
2026-01-21 17:40:41.91	336.46	4.72	-53.6	-55.8	6.2	0.00e+00	0	43	104	0	77	19966
2026-01-21 17:40:42.91	336.35	4.65	-53.8	-55.9	6.2	0.00e+00	0	43	104	0	78	19165
2026-01-21 17:40:43.92	336.25	4.58	-53.9	-56.0	6.2	0.00e+00	0	43	104	0	78	19431
2026-01-21 17:40:44.93	336.15	4.51	-54.0	-56.1	6.2	0.00e+00	0	43	104	0	78	19492
2026-01-21 17:40:45.94	336.05	4.44	-54.0	-56.1	6.2	0.00e+00	0	43	104	0	78	19571
2026-01-21 17:40:46.95	335.95	4.38	-54.0	-56.1	6.2	0.00e+00	0	43	104	0	78	19637
2026-01-21 17:40:47.96	335.85	4.31	-54.0	-56.1	6.2	0.00e+00	0	43	104	0	78	19602
2026-01-21 17:40:48.96	335.76	4.24	-53.9	-56.0	6.2	0.00e+00	0	43	104	0	78	19306
2026-01-21 17:40:49.97	335.66	4.18	-53.7	-55.9	6.2	0.00e+00	0	43	104	0	78	19146
2026-01-21 17:40:50.98	335.56	4.11	-53.7	-55.8	6.2	0.00e+00	0	43	104	0	78	18913
2026-01-21 17:40:51.99	335.46	4.04	-53.7	-55.8	6.2	0.00e+00	0	43	104	0	78	18931
2026-01-21 17:40:53.00	335.37	3.98	-53.8	-55.9	6.2	0.00e+00	0	43	104	0	78	19140
2026-01-21 17:40:54.01	335.27	3.91	-53.8	-55.9	6.2	0.00e+00	0	43	104	0	78	19222
2026-01-21 17:40:55.01	335.18	3.84	-53.8	-55.9	6.2	0.00e+00	0	43	104	0	78	19229
2026-01-21 17:40:56.02	335.08	3.78	-53.8	-56.0	6.2	0.00e+00	0	43	104	0	78	19302
2026-01-21 17:40:57.03	334.99	3.71	-53.8	-56.0	6.2	0.00e+00	0	43	104	0	78	19261
2026-01-21 17:40:58.04	334.90	3.65	-53.8	-55.9	6.2	0.00e+00	0	43	104	0	78	19186
2026-01-21 17:40:59.05	334.80	3.58	-53.8	-55.9	6.2	0.00e+00	0	43	104	0	78	19207
2026-01-21 17:41:00.06	334.71	3.51	-53.8	-55.9	6.2	0.00e+00	0	43	104	0	78	19109
2026-01-21 17:41:01.06	334.62	3.45	-53.8	-55.9	6.2	0.00e+00	0	43	104	0	78	19109
2026-01-21 17:41:02.07	334.53	3.38	-53.8	-55.9	6.2	0.00e+00	0	43	104	0	78	19115
2026-01-21 17:41:03.08	334.44	3.32	-53.7	-55.9	6.2	0.00e+00	0	43	104	0	78	19078
2026-01-21 17:41:04.09	334.35	3.25	-53.7	-55.9	6.2	0.00e+00	0	43	104	0	78	19091
2026-01-21 17:41:05.10	334.26	3.19	-53.7	-55.9	6.2	0.00e+00	0	43	104	0	78	19092
2026-01-21 17:41:06.11	334.17	3.12	-53.7	-55.8	6.2	0.00e+00	0	43	104	0	78	19034
2026-01-21 17:41:07.11	334.08	3.06	-53.7	-55.9	6.2	0.00e+00	0	43	104	0	78	19072
2026-01-21 17:41:08.12	333.99	3.00	-53.7	-55.8	6.2	0.00e+00	0	43	104	0	78	19024
2026-01-21 17:41:09.13	333.91	2.93	-53.7	-55.9	6.2	0.00e+00	0	43	104	0	78	19041
2026-01-21 17:41:10.14	333.82	2.87	-53.7	-55.8	6.2	0.00e+00	0	42	104	0	78	19031
2026-01-21 17:41:11.14	333.73	2.80	-53.7	-55.8	6.2	0.00e+00	0	43	104	0	78	19017
2026-01-21 17:41:12.15	333.65	2.74	-53.7	-55.8	6.2	0.00e+00	0	42	104	0	78	19016
2026-01-21 17:41:13.16	333.56	2.68	-53.7	-55.8	6.2	0.00e+00	0	43	104	0	78	18991
2026-01-21 17:41:14.17	333.47	2.61	-53.7	-55.8	6.2	0.00e+00	0	43	104	0	78	19002
2026-01-21 17:41:15.18	333.39	2.55	-53.7	-55.8	6.2	0.00e+00	0	43	104	0	78	19022
2026-01-21 17:41:16.19	333.31	2.48	-53.7	-55.8	6.2	0.00e+00	0	43	104	0	78	18990
2026-01-21 17:41:17.20	333.22	2.42	-53.7	-55.8	6.2	0.00e+00	0	43	104	0	78	18993
2026-01-21 17:41:18.20	333.14	2.36	-53.7	-55.9	6.2	0.00e+00	0	43	104	0	78	19036
2026-01-21 17:41:19.21	333.06	2.30	-53.7	-55.8	6.2	0.00e+00	0	43	104	0	78	19021
2026-01-21 17:41:20.22	332.97	2.23	-53.7	-55.8	6.2	0.00e+00	0	43	104	0	78	18970
2026-01-21 17:41:21.23	332.89	2.17	-53.7	-55.8	6.2	0.00e+00	0	43	104	0	78	18952
2026-01-21 17:41:22.24	332.81	2.11	-53.7	-55.8	6.2	0.00e+00	0	43	104	0	78	19007
2026-01-21 17:41:23.25	332.73	2.05	-53.7	-55.8	6.2	0.00e+00	0	43	104	0	78	18957
2026-01-21 17:41:24.26	332.65	1.98	-53.7	-55.8	6.2	0.00e+00	0	43	104	0	78	18993
2026-01-21 17:41:25.26	332.57	1.92	-53.7	-55.8	6.2	0.00e+00	0	43	104	0	78	18948
2026-01-21 17:41:26.27	332.49	1.86	-53.7	-55.8	6.2	0.00e+00	0	43	104	0	78	18968
2026-01-21 17:41:27.28	332.41	1.80	-53.7	-55.8	6.2	0.00e+00	0	43	104	0	78	18932

#Closed at: 2026-01-21 17:41:27
#Recorded file [0 MB]: D:/lorett/data/31041_260121_203140.dat