passes_logs/2026/01/21/R3.2S_Murmansk/R3.2S_Murmansk__20260121_091608_SUOMI_NPP_rec.log

#Pass ID: 20260121_091608_SUOMI NPP
#Satellite: SUOMI NPP
#Configuration: NPP
#almurnet v.1.7.20251203
#Start time: 2026-01-21 09:16:09

#Version: 2.2.20231116
#Station: R3.2S_Murmansk
#Location: 33.079688 lon 68.888172 lat
#TLE: 1 37849U 11061A   26020.95430537  .00000198  00000+0  11470-3 0  9999
#TLE: 2 37849  98.7819 322.9518 0002315  53.3069 306.8320 14.19527555737555

#Time	Az	El	Level	Level2	SNR	BER	BlckErr	Temp	State	Recorded	gain1	gain2
2026-01-21 09:16:09.17	143.78	2.05	-54.3	-69.3	3.8	1.49e+00	0	38	0	0	79	21129
2026-01-21 09:16:10.13	143.78	2.12	-54.3	-69.3	3.8	1.49e+00	0	38	104	0	79	21158
2026-01-21 09:16:11.10	143.77	2.18	-54.3	-69.3	3.8	1.49e+00	0	38	104	0	79	21053
2026-01-21 09:16:12.08	143.77	2.24	-54.4	-69.4	3.8	1.49e+00	0	38	104	0	79	21471
2026-01-21 09:16:13.05	143.76	2.31	-54.5	-69.5	3.8	1.49e+00	0	38	104	0	79	21576
2026-01-21 09:16:14.02	143.76	2.37	-54.5	-69.5	3.8	1.49e+00	0	38	104	0	79	21547
2026-01-21 09:16:14.99	143.75	2.43	-54.4	-69.5	3.8	1.49e+00	0	38	104	0	79	21513
2026-01-21 09:16:15.96	143.74	2.50	-54.4	-69.4	3.8	1.49e+00	0	38	104	0	79	21505
2026-01-21 09:16:16.93	143.74	2.56	-54.4	-69.4	3.8	1.49e+00	0	38	104	0	79	21380
2026-01-21 09:16:17.90	143.73	2.62	-54.3	-69.4	3.8	1.49e+00	0	38	104	0	79	21273
2026-01-21 09:16:18.87	143.73	2.69	-54.3	-69.3	3.8	1.49e+00	0	38	104	0	79	21213
2026-01-21 09:16:19.85	143.72	2.75	-54.3	-69.3	3.8	1.49e+00	0	38	104	0	79	21121
2026-01-21 09:16:20.81	143.71	2.81	-54.2	-69.2	3.8	1.49e+00	0	39	104	0	79	20994
2026-01-21 09:16:21.78	143.71	2.88	-54.2	-69.2	3.8	1.49e+00	0	39	104	0	79	20859
2026-01-21 09:16:22.76	143.70	2.94	-54.1	-69.1	3.8	1.49e+00	0	39	104	0	79	20749
2026-01-21 09:16:23.73	143.70	3.01	-54.0	-69.0	3.8	1.49e+00	0	38	104	0	79	20508
2026-01-21 09:16:24.70	143.69	3.07	-54.0	-69.0	3.8	1.49e+00	0	38	104	0	79	20369
2026-01-21 09:16:25.67	143.68	3.14	-53.9	-68.9	3.8	1.49e+00	0	39	104	0	79	20164
2026-01-21 09:16:26.65	143.68	3.20	-53.8	-68.8	3.8	1.49e+00	0	38	104	0	79	19949
2026-01-21 09:16:27.62	143.67	3.27	-53.7	-68.7	3.8	1.49e+00	0	39	104	0	79	19662
2026-01-21 09:16:28.59	143.66	3.33	-53.6	-68.6	3.8	1.49e+00	0	39	104	0	79	19446
2026-01-21 09:16:29.56	143.66	3.40	-53.4	-68.4	3.8	1.49e+00	0	39	104	0	78	20233
2026-01-21 09:16:30.53	143.65	3.46	-53.3	-68.3	3.8	1.49e+00	0	39	104	0	78	19935
2026-01-21 09:16:31.50	143.64	3.53	-53.1	-68.0	3.8	1.49e+00	0	39	104	0	78	19280
2026-01-21 09:16:32.47	143.64	3.59	-52.8	-67.7	3.8	1.49e+00	0	39	104	0	77	19782
2026-01-21 09:16:33.44	143.63	3.66	-52.5	-67.1	3.8	1.49e+00	0	39	104	0	77	18473
2026-01-21 09:16:34.41	143.62	3.73	-52.4	-66.7	3.8	1.49e+00	0	39	104	0	76	18590
2026-01-21 09:16:35.38	143.62	3.79	-52.4	-65.7	3.8	1.49e+00	0	39	104	0	76	16641
2026-01-21 09:16:36.35	143.61	3.86	-52.3	-64.5	4.0	1.49e+00	0	39	104	0	76	14403
2026-01-21 09:16:37.31	143.60	3.93	-52.1	-62.6	4.7	1.28e+00	0	39	0	1048576	76	11606
2026-01-21 09:16:38.28	143.60	3.99	-51.9	-60.4	5.9	6.30e-01	0	39	0	2097152	75	9515
2026-01-21 09:16:39.26	143.59	4.06	-51.7	-59.3	6.9	1.72e-01	0	39	0	4194304	75	8434
2026-01-21 09:16:40.23	143.58	4.13	-51.0	-56.5	9.7	6.72e-02	0	39	0	6291456	73	6814
2026-01-21 09:16:41.20	143.58	4.19	-50.7	-55.6	10.5	1.95e-02	0	39	0	8388608	73	6150
2026-01-21 09:16:42.17	143.57	4.26	-50.3	-54.6	11.6	5.16e-04	0	39	0	9437184	72	5829
2026-01-21 09:16:43.14	143.56	4.33	-50.0	-53.9	12.4	2.49e-04	0	39	0	11534336	71	5696
2026-01-21 09:16:44.11	143.56	4.40	-49.1	-52.2	14.1	3.89e-05	0	39	0	13631488	70	4955
2026-01-21 09:16:45.08	143.55	4.47	-49.1	-52.2	14.1	3.00e-06	0	39	0	14680064	70	4961
2026-01-21 09:16:46.06	143.54	4.53	-48.8	-51.6	14.8	7.00e-07	0	39	0	16777216	69	4891
2026-01-21 09:16:47.04	143.53	4.60	-48.4	-51.0	15.3	0.00e+00	0	39	0	18874368	68	4870
2026-01-21 09:16:48.01	143.53	4.67	-48.3	-50.8	15.6	0.00e+00	0	39	0	20971520	68	4709
2026-01-21 09:16:48.99	143.52	4.74	-48.1	-50.5	15.9	0.00e+00	0	39	0	22020096	68	4547
2026-01-21 09:16:49.96	143.51	4.81	-48.1	-50.6	15.7	0.00e+00	0	39	0	24117248	68	4608
2026-01-21 09:16:50.93	143.51	4.88	-48.5	-51.2	15.0	0.00e+00	0	39	0	26214400	67	5229
2026-01-21 09:16:51.90	143.50	4.95	-48.5	-51.2	15.0	0.00e+00	0	39	0	28311552	67	5273
2026-01-21 09:16:52.88	143.49	5.02	-48.5	-51.2	15.1	0.00e+00	0	39	0	29360128	67	5228
2026-01-21 09:16:53.85	143.48	5.09	-47.6	-49.8	16.5	0.00e+00	0	39	0	31457280	67	4450
2026-01-21 09:16:54.82	143.47	5.16	-48.0	-50.4	15.9	0.00e+00	0	39	0	33554432	66	5091
2026-01-21 09:16:55.79	143.47	5.23	-50.9	-56.3	10.2	1.29e-05	0	39	0	35651584	72	7076
2026-01-21 09:16:56.76	143.46	5.30	-47.9	-50.2	16.2	1.12e-02	0	39	0	36700160	67	4662
2026-01-21 09:16:57.72	143.45	5.37	-50.5	-55.2	11.7	0.00e+00	0	39	0	38797312	71	6609
2026-01-21 09:16:58.70	143.44	5.44	-47.8	-50.0	16.0	5.53e-01	0	39	0	40894464	67	4598
2026-01-21 09:16:59.67	143.44	5.51	-47.5	-49.6	16.7	0.00e+00	0	39	0	42991616	66	4621
2026-01-21 09:17:00.65	143.43	5.58	-47.2	-49.2	17.1	0.00e+00	0	39	0	44040192	66	4431
2026-01-21 09:17:01.62	143.42	5.65	-47.2	-49.2	17.1	0.00e+00	0	39	0	46137344	66	4419
2026-01-21 09:17:02.59	143.41	5.72	-47.1	-49.0	17.3	0.00e+00	0	39	0	48234496	66	4308
2026-01-21 09:17:03.56	143.40	5.79	-47.2	-49.1	17.1	0.00e+00	0	39	0	50331648	66	4389
2026-01-21 09:17:04.53	143.40	5.87	-46.9	-48.8	17.5	0.00e+00	0	39	0	51380224	65	4482
2026-01-21 09:17:05.50	143.39	5.94	-47.2	-49.1	17.2	0.00e+00	0	39	0	53477376	65	4644
2026-01-21 09:17:06.47	143.38	6.01	-47.3	-49.4	17.0	0.00e+00	0	39	0	55574528	65	4783
2026-01-21 09:17:07.45	143.37	6.08	-47.3	-49.2	17.2	0.00e+00	0	39	0	56623104	65	4689
2026-01-21 09:17:08.42	143.36	6.16	-47.0	-48.9	17.5	0.00e+00	0	39	0	58720256	65	4509
2026-01-21 09:17:09.39	143.35	6.23	-47.0	-48.9	17.4	0.00e+00	0	39	0	60817408	65	4541
2026-01-21 09:17:10.37	143.35	6.30	-47.0	-48.8	17.6	0.00e+00	0	39	0	62914560	65	4477
2026-01-21 09:17:11.34	143.34	6.37	-46.9	-48.8	17.6	0.00e+00	0	39	0	63963136	65	4446
2026-01-21 09:17:12.31	143.33	6.45	-46.8	-48.6	17.8	0.00e+00	0	39	0	66060288	65	4388
2026-01-21 09:17:13.29	143.32	6.52	-47.1	-49.0	17.5	0.00e+00	0	39	0	68157440	65	4559
2026-01-21 09:17:14.26	143.31	6.60	-46.8	-48.6	17.9	0.00e+00	0	39	0	70254592	65	4353
2026-01-21 09:17:15.23	143.30	6.67	-46.9	-48.8	17.7	0.00e+00	0	39	0	71303168	65	4455
2026-01-21 09:17:16.20	143.29	6.74	-47.1	-48.9	17.6	0.00e+00	0	40	0	73400320	65	4525
2026-01-21 09:17:17.17	143.28	6.82	-47.0	-48.8	17.7	0.00e+00	0	39	0	75497472	65	4466
2026-01-21 09:17:18.14	143.27	6.89	-46.7	-48.5	18.0	0.00e+00	0	39	0	77594624	65	4294
2026-01-21 09:17:19.12	143.27	6.97	-46.7	-48.5	18.0	0.00e+00	0	39	0	78643200	65	4307
2026-01-21 09:17:20.08	143.26	7.04	-47.0	-48.8	17.7	0.00e+00	0	39	0	80740352	65	4492
2026-01-21 09:17:21.05	143.25	7.12	-46.9	-48.7	17.9	0.00e+00	0	39	0	82837504	65	4397
2026-01-21 09:17:22.03	143.24	7.19	-46.8	-48.5	18.0	0.00e+00	0	39	0	83886080	65	4324
2026-01-21 09:17:23.00	143.23	7.27	-46.5	-48.2	18.2	0.00e+00	0	39	0	85983232	65	4184
2026-01-21 09:17:23.97	143.22	7.35	-46.9	-48.6	17.9	0.00e+00	0	40	0	88080384	64	4651
2026-01-21 09:17:24.94	143.21	7.42	-46.5	-48.2	18.2	0.00e+00	0	39	0	90177536	64	4436
2026-01-21 09:17:25.91	143.20	7.50	-46.8	-48.5	18.0	0.00e+00	0	40	0	91226112	64	4586
2026-01-21 09:17:26.88	143.19	7.57	-46.9	-48.7	17.9	0.00e+00	0	39	0	93323264	64	4652
2026-01-21 09:17:27.85	143.18	7.65	-46.9	-48.7	17.8	0.00e+00	0	39	0	95420416	64	4692
2026-01-21 09:17:28.82	143.17	7.73	-46.7	-48.4	18.1	0.00e+00	0	39	0	97517568	64	4534
2026-01-21 09:17:29.80	143.16	7.81	-46.6	-48.4	18.2	0.00e+00	0	39	0	98566144	64	4498
2026-01-21 09:17:30.77	143.15	7.88	-46.5	-48.2	18.4	0.00e+00	0	40	0	100663296	64	4392
2026-01-21 09:17:31.74	143.14	7.96	-46.5	-48.2	18.4	0.00e+00	0	40	0	102760448	64	4415
2026-01-21 09:17:32.71	143.13	8.04	-46.5	-48.2	18.4	0.00e+00	0	39	0	104857600	64	4421
2026-01-21 09:17:33.68	143.12	8.12	-46.6	-48.2	18.3	0.00e+00	0	40	0	105906176	64	4440
2026-01-21 09:17:34.65	143.11	8.20	-46.3	-47.9	18.7	0.00e+00	0	39	0	108003328	64	4280
2026-01-21 09:17:35.63	143.10	8.27	-46.5	-48.1	18.4	0.00e+00	0	39	0	110100480	64	4378
2026-01-21 09:17:36.59	143.09	8.35	-46.3	-48.0	18.6	0.00e+00	0	40	0	112197632	64	4295
2026-01-21 09:17:37.57	143.08	8.43	-46.3	-47.9	18.7	0.00e+00	0	40	0	113246208	64	4285
2026-01-21 09:17:38.55	143.07	8.51	-46.6	-48.2	18.4	0.00e+00	0	40	0	115343360	64	4431
2026-01-21 09:17:39.52	143.06	8.59	-46.3	-47.9	18.7	0.00e+00	0	39	0	117440512	64	4280
2026-01-21 09:17:40.49	143.05	8.67	-46.3	-47.9	18.7	0.00e+00	0	40	0	119537664	64	4271
2026-01-21 09:17:41.46	143.04	8.75	-46.4	-48.0	18.7	0.00e+00	0	39	0	120586240	64	4300
2026-01-21 09:17:42.43	143.03	8.83	-46.1	-47.7	19.0	0.00e+00	0	40	0	122683392	64	4165
2026-01-21 09:17:43.40	143.02	8.91	-46.2	-47.8	18.9	0.00e+00	0	39	0	124780544	64	4199
2026-01-21 09:17:44.37	143.01	8.99	-46.0	-47.5	19.1	0.00e+00	0	39	0	126877696	64	4095
2026-01-21 09:17:45.34	143.00	9.08	-46.2	-47.8	18.9	0.00e+00	0	39	0	127926272	64	4214
2026-01-21 09:17:46.31	142.98	9.16	-46.2	-47.7	18.9	0.00e+00	0	40	0	130023424	64	4181
2026-01-21 09:17:47.29	142.97	9.24	-46.2	-47.7	18.9	0.00e+00	0	39	0	132120576	64	4171
2026-01-21 09:17:48.26	142.96	9.32	-46.3	-47.8	18.8	0.00e+00	0	40	0	133169152	64	4230
2026-01-21 09:17:49.23	142.95	9.40	-46.4	-48.0	18.7	0.00e+00	0	40	0	135266304	64	4292
2026-01-21 09:17:50.20	142.94	9.49	-46.2	-47.8	18.9	0.00e+00	0	40	0	137363456	64	4195
2026-01-21 09:17:51.18	142.93	9.57	-46.4	-48.0	18.7	0.00e+00	0	40	0	139460608	64	4316
2026-01-21 09:17:52.15	142.92	9.65	-46.1	-47.6	19.0	0.00e+00	0	40	0	140509184	64	4126
2026-01-21 09:17:53.12	142.90	9.74	-46.2	-47.8	18.9	0.00e+00	0	40	0	142606336	64	4218
2026-01-21 09:17:54.08	142.89	9.82	-46.2	-47.8	18.9	0.00e+00	0	40	0	144703488	64	4200
2026-01-21 09:17:55.05	142.88	9.90	-46.0	-47.6	19.1	0.00e+00	0	40	0	145752064	64	4107
2026-01-21 09:17:56.02	142.87	9.99	-46.1	-47.6	19.1	0.00e+00	0	40	0	147849216	64	4120
2026-01-21 09:17:56.99	142.86	10.07	-46.1	-47.6	19.1	0.00e+00	0	40	0	149946368	64	4128
2026-01-21 09:17:57.96	142.85	10.16	-46.1	-47.6	19.1	0.00e+00	0	40	0	152043520	64	4138
2026-01-21 09:17:58.93	142.83	10.24	-46.1	-47.6	19.1	0.00e+00	0	40	0	153092096	64	4130
2026-01-21 09:17:59.90	142.82	10.33	-46.2	-47.8	19.0	0.00e+00	0	40	0	155189248	64	4211
2026-01-21 09:18:00.87	142.81	10.41	-46.0	-47.5	19.2	0.00e+00	0	39	0	157286400	64	4071
2026-01-21 09:18:01.85	142.80	10.50	-46.1	-47.5	19.3	0.00e+00	0	40	0	159383552	63	4334
2026-01-21 09:18:02.82	142.78	10.59	-46.1	-47.6	19.2	0.00e+00	0	40	0	160432128	63	4371
2026-01-21 09:18:03.79	142.77	10.67	-45.9	-47.3	19.5	0.00e+00	0	40	0	162529280	63	4228
2026-01-21 09:18:04.76	142.76	10.76	-46.0	-47.4	19.4	0.00e+00	0	40	0	164626432	63	4290
2026-01-21 09:18:05.73	142.75	10.85	-46.0	-47.5	19.3	0.00e+00	0	40	0	166723584	63	4331
2026-01-21 09:18:06.70	142.73	10.93	-46.0	-47.5	19.3	0.00e+00	0	40	0	167772160	63	4324
2026-01-21 09:18:07.66	142.72	11.02	-46.0	-47.5	19.3	0.00e+00	0	40	0	169869312	63	4315
2026-01-21 09:18:08.64	142.71	11.11	-46.3	-47.9	19.0	0.00e+00	0	40	0	171966464	63	4510
2026-01-21 09:18:09.61	142.69	11.20	-46.1	-47.5	19.3	0.00e+00	0	40	0	174063616	63	4338
2026-01-21 09:18:10.58	142.68	11.29	-45.9	-47.3	19.6	0.00e+00	0	40	0	175112192	63	4215
2026-01-21 09:18:11.55	142.67	11.38	-46.0	-47.4	19.4	0.00e+00	0	39	0	177209344	63	4274
2026-01-21 09:18:12.52	142.65	11.47	-45.8	-47.2	19.6	0.00e+00	0	40	0	179306496	63	4178
2026-01-21 09:18:13.49	142.64	11.56	-46.0	-47.5	19.4	0.00e+00	0	40	0	181403648	63	4300
2026-01-21 09:18:14.47	142.63	11.65	-46.1	-47.5	19.3	0.00e+00	0	40	0	182452224	63	4337
2026-01-21 09:18:15.44	142.61	11.74	-45.9	-47.4	19.5	0.00e+00	0	40	0	184549376	63	4244
2026-01-21 09:18:16.41	142.60	11.83	-46.1	-47.6	19.3	0.00e+00	0	40	0	186646528	63	4368
2026-01-21 09:18:17.38	142.58	11.92	-46.0	-47.4	19.4	0.00e+00	0	40	0	188743680	63	4286
2026-01-21 09:18:18.35	142.57	12.01	-45.6	-47.0	19.8	0.00e+00	0	40	0	189792256	63	4091
2026-01-21 09:18:19.32	142.56	12.10	-45.8	-47.2	19.7	0.00e+00	0	40	0	191889408	63	4172
2026-01-21 09:18:20.29	142.54	12.19	-45.7	-47.1	19.7	0.00e+00	0	40	0	193986560	63	4127
2026-01-21 09:18:21.26	142.53	12.29	-45.9	-47.4	19.5	0.00e+00	0	40	0	195035136	63	4280
2026-01-21 09:18:22.23	142.51	12.38	-45.7	-47.2	19.7	0.00e+00	0	40	0	197132288	63	4152
2026-01-21 09:18:23.20	142.50	12.47	-45.7	-47.1	19.8	0.00e+00	0	40	0	199229440	63	4124
2026-01-21 09:18:24.17	142.48	12.57	-45.7	-47.2	19.7	0.00e+00	0	40	0	201326592	63	4148
2026-01-21 09:18:25.14	142.47	12.66	-45.7	-47.1	19.8	0.00e+00	0	40	0	202375168	63	4132
2026-01-21 09:18:26.11	142.45	12.75	-45.6	-47.0	19.8	0.00e+00	0	40	0	204472320	63	4080
2026-01-21 09:18:27.08	142.44	12.85	-45.7	-47.1	19.8	0.00e+00	0	40	0	206569472	63	4126
2026-01-21 09:18:28.05	142.42	12.94	-45.8	-47.2	19.7	0.00e+00	0	40	0	208666624	63	4163
2026-01-21 09:18:29.02	142.41	13.04	-45.7	-47.0	19.9	0.00e+00	0	40	0	209715200	63	4098
2026-01-21 09:18:29.99	142.39	13.13	-45.7	-47.1	19.8	0.00e+00	0	40	0	211812352	63	4105
2026-01-21 09:18:30.96	142.38	13.23	-45.5	-46.9	20.0	0.00e+00	0	40	0	213909504	63	4005
2026-01-21 09:18:31.93	142.36	13.33	-45.6	-47.0	19.9	0.00e+00	0	40	0	214958080	62	4324
2026-01-21 09:18:32.91	142.34	13.42	-45.4	-46.8	20.1	0.00e+00	0	40	0	217055232	62	4218
2026-01-21 09:18:33.88	142.33	13.52	-45.3	-46.7	20.2	0.00e+00	0	40	0	219152384	62	4146
2026-01-21 09:18:34.85	142.31	13.62	-45.3	-46.7	20.2	0.00e+00	0	40	0	221249536	62	4147
2026-01-21 09:18:35.82	142.30	13.72	-45.3	-46.6	20.2	0.00e+00	0	40	0	222298112	62	4135
2026-01-21 09:18:36.80	142.28	13.82	-45.3	-46.6	20.3	0.00e+00	0	40	0	224395264	62	4107
2026-01-21 09:18:37.77	142.26	13.92	-45.5	-46.9	20.0	0.00e+00	0	40	0	226492416	62	4247
2026-01-21 09:18:38.74	142.25	14.01	-45.4	-46.7	20.1	0.00e+00	0	40	0	228589568	62	4191
2026-01-21 09:18:39.71	142.23	14.11	-45.7	-47.0	19.9	0.00e+00	0	40	0	229638144	62	4340
2026-01-21 09:18:40.68	142.21	14.21	-45.6	-47.0	20.0	0.00e+00	0	40	0	231735296	62	4302
2026-01-21 09:18:41.65	142.20	14.31	-45.6	-47.0	20.0	0.00e+00	0	40	0	233832448	62	4305
2026-01-21 09:18:42.62	142.18	14.42	-45.5	-46.8	20.1	0.00e+00	0	40	0	235929600	62	4236
2026-01-21 09:18:43.59	142.16	14.52	-45.4	-46.7	20.2	0.00e+00	0	40	0	236978176	62	4179
2026-01-21 09:18:44.56	142.14	14.62	-45.4	-46.7	20.2	0.00e+00	0	40	0	239075328	62	4172
2026-01-21 09:18:45.54	142.13	14.72	-45.3	-46.8	20.0	0.00e+00	0	40	0	241172480	62	4209
2026-01-21 09:18:46.51	142.11	14.82	-45.2	-46.7	20.0	0.00e+00	0	40	0	243269632	62	4169
2026-01-21 09:18:47.48	142.09	14.93	-45.1	-46.6	20.2	0.00e+00	0	40	0	244318208	62	4100
2026-01-21 09:18:48.45	142.07	15.03	-45.0	-46.4	20.3	0.00e+00	0	40	0	246415360	62	4032
2026-01-21 09:18:49.42	142.05	15.13	-45.0	-46.4	20.4	0.00e+00	0	40	0	248512512	61	4245
2026-01-21 09:18:50.40	142.04	15.24	-44.9	-46.3	20.4	0.00e+00	0	40	0	250609664	61	4232
2026-01-21 09:18:51.37	142.02	15.34	-44.9	-46.2	20.5	0.00e+00	0	40	0	251658240	61	4181
2026-01-21 09:18:52.34	142.00	15.45	-44.9	-46.3	20.4	0.00e+00	0	40	0	253755392	61	4218
2026-01-21 09:18:53.31	141.98	15.55	-44.8	-46.2	20.5	0.00e+00	0	40	0	255852544	61	4171
2026-01-21 09:18:54.28	141.96	15.66	-44.7	-46.1	20.6	0.00e+00	0	40	0	257949696	61	4110
2026-01-21 09:18:55.25	141.94	15.77	-44.7	-46.0	20.7	0.00e+00	0	40	0	258998272	61	4072
2026-01-21 09:18:56.23	141.92	15.88	-44.6	-45.9	20.8	0.00e+00	0	40	0	261095424	61	4027
2026-01-21 09:18:57.20	141.90	15.98	-44.6	-46.0	20.8	0.00e+00	0	40	0	263192576	61	4056
2026-01-21 09:18:58.17	141.88	16.09	-44.5	-45.8	20.9	0.00e+00	0	40	0	265289728	60	4216
2026-01-21 09:18:59.14	141.86	16.20	-44.4	-45.6	21.0	0.00e+00	0	40	0	266338304	60	4136
2026-01-21 09:19:00.11	141.84	16.31	-44.4	-45.7	21.0	0.00e+00	0	40	0	268435456	60	4167
2026-01-21 09:19:01.09	141.82	16.42	-44.4	-45.7	21.0	0.00e+00	0	40	0	270532608	60	4165
2026-01-21 09:19:02.06	141.80	16.53	-44.3	-45.5	21.2	0.00e+00	0	40	0	271581184	60	4086
2026-01-21 09:19:03.03	141.78	16.64	-44.3	-45.6	21.0	0.00e+00	0	40	0	273678336	60	4107
2026-01-21 09:19:04.01	141.76	16.75	-44.4	-45.7	21.0	0.00e+00	0	40	0	275775488	60	4148
2026-01-21 09:19:04.97	141.74	16.86	-44.3	-45.5	21.1	0.00e+00	0	40	0	277872640	60	4083
2026-01-21 09:19:05.94	141.72	16.97	-44.3	-45.6	21.1	0.00e+00	0	40	0	278921216	60	4114
2026-01-21 09:19:06.91	141.70	17.08	-44.3	-45.5	21.2	0.00e+00	0	40	0	281018368	60	4097
2026-01-21 09:19:07.88	141.68	17.20	-44.2	-45.5	21.2	0.00e+00	0	40	0	283115520	60	4056
2026-01-21 09:19:08.86	141.66	17.31	-44.3	-45.5	21.2	0.00e+00	0	40	0	284164096	60	4067
2026-01-21 09:19:09.83	141.63	17.43	-44.4	-45.7	21.0	0.00e+00	0	40	0	286261248	60	4178
2026-01-21 09:19:10.80	141.61	17.54	-44.4	-45.6	21.1	0.00e+00	0	40	0	288358400	60	4129
2026-01-21 09:19:11.76	141.59	17.65	-44.4	-45.7	21.1	0.00e+00	0	40	0	290455552	60	4170
2026-01-21 09:19:12.74	141.57	17.77	-44.4	-45.6	21.1	0.00e+00	0	40	0	291504128	60	4137
2026-01-21 09:19:13.71	141.55	17.89	-44.4	-45.7	21.0	0.00e+00	0	40	0	293601280	60	4176
2026-01-21 09:19:14.69	141.52	18.00	-44.7	-46.0	20.8	0.00e+00	0	40	0	295698432	60	4330
2026-01-21 09:19:15.66	141.50	18.12	-44.5	-45.8	20.9	0.00e+00	0	40	0	297795584	60	4220
2026-01-21 09:19:16.63	141.48	18.24	-44.6	-45.9	20.9	0.00e+00	0	40	0	298844160	60	4262
2026-01-21 09:19:17.60	141.45	18.36	-44.4	-45.7	21.0	0.00e+00	0	40	0	300941312	60	4175
2026-01-21 09:19:18.57	141.43	18.48	-44.4	-45.6	21.1	0.00e+00	0	40	0	303038464	60	4140
2026-01-21 09:19:19.54	141.41	18.60	-44.3	-45.5	21.2	0.00e+00	0	40	0	305135616	60	4079
2026-01-21 09:19:20.51	141.38	18.72	-44.3	-45.5	21.2	0.00e+00	0	40	0	306184192	60	4085
2026-01-21 09:19:21.48	141.36	18.84	-44.3	-45.5	21.2	0.00e+00	0	40	0	308281344	60	4090
2026-01-21 09:19:22.45	141.33	18.96	-44.2	-45.4	21.4	0.00e+00	0	40	0	310378496	60	4015
2026-01-21 09:19:23.42	141.31	19.08	-44.3	-45.5	21.3	0.00e+00	0	40	0	312475648	60	4058
2026-01-21 09:19:24.39	141.28	19.20	-44.4	-45.6	21.2	0.00e+00	0	40	0	313524224	60	4130
2026-01-21 09:19:25.36	141.26	19.32	-44.3	-45.5	21.2	0.00e+00	0	40	0	315621376	60	4098
2026-01-21 09:19:26.33	141.23	19.45	-44.4	-45.6	21.2	0.00e+00	0	40	0	317718528	60	4125
2026-01-21 09:19:27.30	141.21	19.57	-44.4	-45.7	21.1	0.00e+00	0	40	0	319815680	60	4154
2026-01-21 09:19:28.27	141.18	19.70	-44.4	-45.6	21.2	0.00e+00	0	40	0	320864256	60	4117
2026-01-21 09:19:29.24	141.16	19.82	-44.4	-45.6	21.2	0.00e+00	0	40	0	322961408	60	4114
2026-01-21 09:19:30.21	141.13	19.95	-44.3	-45.6	21.2	0.00e+00	0	40	0	325058560	60	4112
2026-01-21 09:19:31.19	141.10	20.08	-44.5	-45.7	21.1	0.00e+00	0	40	0	327155712	60	4193
2026-01-21 09:19:32.16	141.08	20.20	-44.4	-45.7	21.1	0.00e+00	0	40	0	328204288	60	4149
2026-01-21 09:19:33.13	141.05	20.33	-44.4	-45.6	21.2	0.00e+00	0	40	0	330301440	60	4139
2026-01-21 09:19:34.10	141.02	20.46	-44.5	-45.7	21.1	0.00e+00	0	40	0	332398592	60	4189
2026-01-21 09:19:35.07	141.00	20.59	-44.3	-45.6	21.2	0.00e+00	0	40	0	333447168	60	4114
2026-01-21 09:19:36.04	140.97	20.72	-44.4	-45.7	21.1	0.00e+00	0	40	0	335544320	60	4149
2026-01-21 09:19:37.01	140.94	20.85	-44.4	-45.6	21.1	0.00e+00	0	40	0	337641472	60	4145
2026-01-21 09:19:37.98	140.91	20.98	-44.4	-45.6	21.2	0.00e+00	0	40	0	339738624	60	4121
2026-01-21 09:19:38.95	140.88	21.11	-44.5	-45.7	21.1	0.00e+00	0	40	0	340787200	60	4176
2026-01-21 09:19:39.92	140.85	21.24	-44.4	-45.6	21.2	0.00e+00	0	40	0	342884352	60	4110
2026-01-21 09:19:40.89	140.83	21.38	-44.2	-45.4	21.4	0.00e+00	0	40	0	344981504	60	4034
2026-01-21 09:19:41.87	140.80	21.51	-44.2	-45.4	21.4	0.00e+00	0	40	0	347078656	60	4014
2026-01-21 09:19:42.84	140.77	21.65	-44.2	-45.4	21.4	0.00e+00	0	40	0	348127232	60	4015
2026-01-21 09:19:43.81	140.74	21.78	-44.4	-45.6	21.2	0.00e+00	0	40	0	350224384	60	4120
2026-01-21 09:19:44.78	140.71	21.92	-44.5	-45.7	21.1	0.00e+00	0	40	0	352321536	60	4170
2026-01-21 09:19:45.76	140.68	22.06	-44.3	-45.5	21.3	0.00e+00	0	40	0	353370112	60	4064
2026-01-21 09:19:46.73	140.64	22.19	-44.5	-45.7	21.1	0.00e+00	0	40	0	355467264	60	4177
2026-01-21 09:19:47.70	140.61	22.33	-44.4	-45.6	21.3	0.00e+00	0	40	0	357564416	60	4114
2026-01-21 09:19:48.67	140.58	22.47	-44.4	-45.6	21.2	0.00e+00	0	40	0	359661568	60	4120
2026-01-21 09:19:49.64	140.55	22.61	-44.4	-45.6	21.3	0.00e+00	0	40	0	360710144	60	4108
2026-01-21 09:19:50.61	140.52	22.75	-44.4	-45.6	21.2	0.00e+00	0	40	0	362807296	60	4115
2026-01-21 09:19:51.58	140.49	22.89	-44.2	-45.4	21.4	0.00e+00	0	40	0	364904448	60	4031
2026-01-21 09:19:52.55	140.45	23.04	-44.4	-45.7	21.2	0.00e+00	0	40	0	367001600	60	4154
2026-01-21 09:19:53.51	140.42	23.18	-44.4	-45.7	21.2	0.00e+00	0	40	0	368050176	60	4146
2026-01-21 09:19:54.49	140.39	23.32	-44.6	-45.8	21.1	0.00e+00	0	40	0	370147328	60	4234
2026-01-21 09:19:55.45	140.35	23.47	-44.4	-45.6	21.3	0.00e+00	0	40	0	372244480	60	4113
2026-01-21 09:19:56.43	140.32	23.61	-44.2	-45.4	21.4	0.00e+00	0	40	0	374341632	60	4024
2026-01-21 09:19:57.40	140.29	23.76	-44.3	-45.5	21.3	0.00e+00	0	40	0	375390208	60	4078
2026-01-21 09:19:58.37	140.25	23.90	-44.2	-45.4	21.4	0.00e+00	0	40	0	377487360	60	4037
2026-01-21 09:19:59.34	140.22	24.05	-44.2	-45.3	21.5	0.00e+00	0	40	0	379584512	60	3987
2026-01-21 09:20:00.31	140.18	24.20	-44.1	-45.3	21.5	0.00e+00	0	40	0	381681664	60	3991
2026-01-21 09:20:01.29	140.14	24.35	-44.4	-45.6	21.3	0.00e+00	0	40	0	382730240	60	4111
2026-01-21 09:20:02.26	140.11	24.50	-44.5	-45.7	21.2	0.00e+00	0	40	0	384827392	60	4185
2026-01-21 09:20:03.24	140.07	24.65	-44.6	-45.8	21.1	0.00e+00	0	40	0	386924544	60	4226
2026-01-21 09:20:04.21	140.03	24.81	-44.8	-46.0	20.9	0.00e+00	0	40	0	389021696	60	4326
2026-01-21 09:20:05.18	140.00	24.96	-45.0	-46.3	20.7	0.00e+00	0	40	0	390070272	60	4473
2026-01-21 09:20:06.16	139.96	25.11	-45.0	-46.4	20.6	0.00e+00	0	40	0	392167424	60	4497
2026-01-21 09:20:07.13	139.92	25.27	-45.0	-46.3	20.7	0.00e+00	0	40	0	394264576	60	4473
2026-01-21 09:20:08.10	139.88	25.42	-45.4	-46.8	20.2	0.00e+00	0	40	0	395313152	61	4464
2026-01-21 09:20:09.07	139.84	25.58	-45.2	-46.5	20.5	0.00e+00	0	40	0	397410304	61	4326
2026-01-21 09:20:10.05	139.80	25.74	-45.2	-46.5	20.5	0.00e+00	0	40	0	399507456	61	4331
2026-01-21 09:20:11.01	139.76	25.90	-45.1	-46.4	20.6	0.00e+00	0	40	0	401604608	61	4257
2026-01-21 09:20:11.98	139.72	26.05	-44.9	-46.1	20.9	0.00e+00	0	40	0	402653184	61	4135
2026-01-21 09:20:12.95	139.68	26.21	-44.5	-45.7	21.3	0.00e+00	0	40	0	404750336	60	4156
2026-01-21 09:20:13.92	139.64	26.38	-44.5	-45.7	21.3	0.00e+00	0	40	0	406847488	60	4163
2026-01-21 09:20:14.89	139.60	26.54	-44.5	-45.7	21.3	0.00e+00	0	40	0	408944640	60	4154
2026-01-21 09:20:15.87	139.56	26.70	-44.8	-46.0	21.0	0.00e+00	0	40	0	409993216	60	4340
2026-01-21 09:20:16.84	139.51	26.87	-44.4	-45.5	21.4	0.00e+00	0	40	0	412090368	60	4092
2026-01-21 09:20:17.81	139.47	27.03	-44.5	-45.7	21.3	0.00e+00	0	40	0	414187520	60	4152
2026-01-21 09:20:18.78	139.43	27.20	-45.1	-46.4	20.6	0.00e+00	0	40	0	416284672	61	4262
2026-01-21 09:20:19.75	139.38	27.36	-45.1	-46.4	20.7	0.00e+00	0	40	0	417333248	61	4260
2026-01-21 09:20:20.73	139.34	27.53	-45.3	-46.6	20.4	0.00e+00	0	40	0	419430400	61	4368
2026-01-21 09:20:21.70	139.29	27.70	-45.2	-46.5	20.6	0.00e+00	0	40	0	421527552	62	4090
2026-01-21 09:20:22.67	139.25	27.87	-45.4	-46.7	20.4	0.00e+00	0	40	0	423624704	62	4162
2026-01-21 09:20:23.64	139.20	28.04	-45.4	-46.8	20.4	0.00e+00	0	40	0	424673280	62	4194
2026-01-21 09:20:24.62	139.16	28.22	-45.4	-46.7	20.4	0.00e+00	0	40	0	426770432	62	4186
2026-01-21 09:20:25.59	139.11	28.39	-45.1	-46.3	20.8	0.00e+00	0	40	0	428867584	62	4001
2026-01-21 09:20:26.56	139.06	28.56	-45.3	-46.6	20.5	0.00e+00	0	40	0	429916160	61	4382
2026-01-21 09:20:27.52	139.01	28.74	-44.9	-46.1	20.9	0.00e+00	0	40	0	432013312	61	4134
2026-01-21 09:20:28.49	138.96	28.91	-44.8	-46.0	21.0	0.00e+00	0	40	0	434110464	61	4092
2026-01-21 09:20:29.46	138.92	29.09	-45.3	-46.7	20.5	0.00e+00	0	40	0	436207616	61	4394
2026-01-21 09:20:30.43	138.87	29.27	-45.2	-46.5	20.6	0.00e+00	0	40	0	437256192	61	4318
2026-01-21 09:20:31.40	138.81	29.45	-45.3	-46.6	20.6	0.00e+00	0	40	0	439353344	61	4360
2026-01-21 09:20:32.37	138.76	29.63	-45.5	-46.8	20.3	0.00e+00	0	40	0	441450496	62	4229
2026-01-21 09:20:33.35	138.71	29.81	-45.9	-47.4	19.8	0.00e+00	0	40	0	443547648	62	4518
2026-01-21 09:20:34.32	138.66	29.99	-46.0	-47.5	19.7	0.00e+00	0	40	0	444596224	62	4582
2026-01-21 09:20:35.29	138.61	30.18	-46.0	-47.4	19.8	0.00e+00	0	40	0	446693376	63	4280
2026-01-21 09:20:36.26	138.55	30.36	-46.0	-47.5	19.7	0.00e+00	0	40	0	448790528	63	4299
2026-01-21 09:20:37.23	138.50	30.55	-46.1	-47.6	19.6	0.00e+00	0	40	0	450887680	63	4375
2026-01-21 09:20:38.20	138.44	30.74	-46.0	-47.5	19.7	0.00e+00	0	40	0	451936256	63	4316
2026-01-21 09:20:39.17	138.39	30.92	-45.9	-47.3	19.9	0.00e+00	0	40	0	454033408	63	4213
2026-01-21 09:20:40.15	138.33	31.12	-46.2	-47.7	19.5	0.00e+00	0	40	0	456130560	63	4437
2026-01-21 09:20:41.12	138.27	31.31	-46.0	-47.4	19.9	0.00e+00	0	40	0	458227712	63	4269
2026-01-21 09:20:42.09	138.22	31.50	-46.0	-47.5	19.8	0.00e+00	0	40	0	459276288	63	4295
2026-01-21 09:20:43.06	138.16	31.69	-46.3	-47.8	19.5	0.00e+00	0	40	0	461373440	63	4449
2026-01-21 09:20:44.02	138.10	31.88	-46.6	-48.2	19.0	0.00e+00	0	40	0	463470592	64	4436
2026-01-21 09:20:44.99	138.04	32.08	-46.9	-48.6	18.6	0.00e+00	0	40	0	464519168	64	4631
2026-01-21 09:20:45.96	137.98	32.28	-47.3	-49.2	18.1	0.00e+00	0	40	0	466616320	65	4652
2026-01-21 09:20:46.94	137.92	32.48	-47.8	-49.8	17.5	0.00e+00	0	40	0	468713472	66	4723
2026-01-21 09:20:47.91	137.85	32.68	-47.7	-49.7	17.7	0.00e+00	0	40	0	470810624	66	4667
2026-01-21 09:20:48.87	137.79	32.88	-47.6	-49.4	17.9	0.00e+00	0	40	0	471859200	66	4545
2026-01-21 09:20:49.84	137.73	33.08	-47.8	-49.8	17.5	0.00e+00	0	40	0	473956352	66	4757
2026-01-21 09:20:50.81	137.66	33.28	-48.0	-50.1	17.2	0.00e+00	0	40	0	476053504	66	4905
2026-01-21 09:20:51.79	137.60	33.49	-47.7	-49.7	17.7	0.00e+00	0	40	0	478150656	66	4652
2026-01-21 09:20:52.75	137.53	33.69	-47.8	-49.8	17.6	0.00e+00	0	40	0	479199232	66	4720
2026-01-21 09:20:53.73	137.46	33.90	-47.8	-49.8	17.5	0.00e+00	0	40	0	481296384	66	4732
2026-01-21 09:20:54.70	137.39	34.11	-47.9	-50.0	17.3	0.00e+00	0	40	0	483393536	66	4824
2026-01-21 09:20:55.67	137.32	34.32	-47.9	-50.1	17.3	0.00e+00	0	40	0	485490688	66	4872
2026-01-21 09:20:56.64	137.25	34.54	-47.8	-49.9	17.4	0.00e+00	0	40	0	486539264	67	4531
2026-01-21 09:20:57.61	137.18	34.75	-47.6	-49.6	17.7	0.00e+00	0	40	0	488636416	67	4365
2026-01-21 09:20:58.59	137.11	34.97	-47.6	-49.6	17.7	0.00e+00	0	40	0	490733568	66	4641
2026-01-21 09:20:59.56	137.04	35.18	-47.2	-49.0	18.3	0.00e+00	0	40	0	491782144	66	4314
2026-01-21 09:21:00.53	136.96	35.40	-47.0	-48.8	18.6	0.00e+00	0	40	0	493879296	65	4462
2026-01-21 09:21:01.49	136.89	35.62	-46.9	-48.7	18.6	0.00e+00	0	40	0	495976448	65	4419
2026-01-21 09:21:02.46	136.81	35.84	-46.9	-48.8	18.6	0.00e+00	0	40	0	498073600	65	4443
2026-01-21 09:21:03.43	136.73	36.06	-47.0	-48.9	18.4	0.00e+00	0	40	0	499122176	65	4508
2026-01-21 09:21:04.40	136.66	36.28	-47.2	-49.1	18.1	0.00e+00	0	40	0	501219328	65	4650
2026-01-21 09:21:05.37	136.58	36.51	-47.4	-49.5	17.7	0.00e+00	0	40	0	503316480	66	4553
2026-01-21 09:21:06.34	136.50	36.73	-47.8	-50.0	17.3	0.00e+00	0	40	0	505413632	66	4836
2026-01-21 09:21:07.31	136.41	36.96	-47.7	-49.9	17.5	0.00e+00	0	40	0	506462208	66	4789
2026-01-21 09:21:08.28	136.33	37.19	-47.5	-49.5	17.8	0.00e+00	0	40	0	508559360	66	4584
2026-01-21 09:21:09.25	136.25	37.42	-46.5	-48.2	18.9	0.00e+00	0	40	0	510656512	65	4174
2026-01-21 09:21:10.22	136.16	37.65	-46.3	-47.9	19.3	0.00e+00	0	40	0	512753664	64	4248
2026-01-21 09:21:11.19	136.07	37.88	-45.8	-47.3	20.0	0.00e+00	0	40	0	513802240	63	4206
2026-01-21 09:21:12.16	135.99	38.12	-45.3	-46.6	20.6	0.00e+00	0	40	0	515899392	61	4366
2026-01-21 09:21:13.13	135.90	38.36	-45.5	-46.9	20.3	0.00e+00	0	40	0	517996544	61	4510
2026-01-21 09:21:14.10	135.81	38.60	-45.6	-47.1	20.1	0.00e+00	0	40	0	520093696	62	4341
2026-01-21 09:21:15.07	135.71	38.84	-45.9	-47.4	19.9	0.00e+00	0	40	0	521142272	62	4503
2026-01-21 09:21:16.05	135.62	39.08	-46.0	-47.5	19.8	0.00e+00	0	40	0	523239424	62	4549
2026-01-21 09:21:17.02	135.52	39.32	-46.4	-48.0	19.3	0.00e+00	0	40	0	525336576	63	4580
2026-01-21 09:21:17.99	135.43	39.57	-46.4	-48.1	19.2	0.00e+00	0	40	0	526385152	64	4341
2026-01-21 09:21:18.96	135.33	39.81	-46.5	-48.1	19.1	0.00e+00	0	40	0	528482304	64	4362
2026-01-21 09:21:19.93	135.23	40.06	-46.4	-48.0	19.2	0.00e+00	0	40	0	530579456	64	4318
2026-01-21 09:21:20.90	135.13	40.31	-46.1	-47.6	19.6	0.00e+00	0	40	0	532676608	64	4128
2026-01-21 09:21:21.87	135.02	40.56	-46.1	-47.6	19.6	0.00e+00	0	40	0	533725184	64	4126
2026-01-21 09:21:22.85	134.92	40.82	-46.5	-48.1	19.1	0.00e+00	0	40	0	535822336	63	4643
2026-01-21 09:21:23.82	134.81	41.08	-46.2	-47.7	19.5	0.00e+00	0	40	0	537919488	63	4440
2026-01-21 09:21:24.79	134.70	41.33	-46.2	-47.8	19.2	0.00e+00	0	40	0	540016640	63	4482
2026-01-21 09:21:25.76	134.59	41.59	-46.5	-48.2	19.0	0.00e+00	0	40	0	541065216	64	4437
2026-01-21 09:21:26.73	134.48	41.85	-46.3	-47.9	19.2	0.00e+00	0	40	0	543162368	64	4288
2026-01-21 09:21:27.70	134.37	42.11	-46.1	-47.6	19.5	0.00e+00	0	40	0	545259520	64	4136
2026-01-21 09:21:28.67	134.25	42.38	-46.7	-48.5	18.7	0.00e+00	0	40	0	547356672	64	4568
2026-01-21 09:21:29.64	134.14	42.64	-46.8	-48.7	18.5	0.00e+00	0	40	0	548405248	64	4682
2026-01-21 09:21:30.61	134.02	42.91	-47.5	-49.7	17.7	0.00e+00	0	40	0	550502400	65	4961
2026-01-21 09:21:31.58	133.89	43.18	-47.6	-49.9	17.5	0.00e+00	0	40	0	552599552	65	5047
2026-01-21 09:21:32.55	133.77	43.45	-47.8	-50.2	17.1	0.00e+00	0	40	0	553648128	66	4966
2026-01-21 09:21:33.52	133.64	43.72	-47.8	-50.3	17.0	0.00e+00	0	40	0	555745280	66	4992
2026-01-21 09:21:34.49	133.52	43.99	-47.7	-50.1	17.1	0.00e+00	0	40	0	557842432	66	4913
2026-01-21 09:21:35.46	133.39	44.27	-47.8	-50.3	17.1	0.00e+00	0	40	0	559939584	66	4985
2026-01-21 09:21:36.44	133.25	44.55	-47.3	-49.6	17.6	0.00e+00	0	40	0	560988160	66	4629
2026-01-21 09:21:37.40	133.12	44.83	-47.1	-49.2	18.0	0.00e+00	0	40	0	563085312	65	4684
2026-01-21 09:21:38.38	132.98	45.11	-46.6	-48.5	18.7	0.00e+00	0	40	0	565182464	64	4574
2026-01-21 09:21:39.35	132.84	45.39	-45.7	-47.2	20.0	0.00e+00	0	40	0	567279616	63	4159
2026-01-21 09:21:40.32	132.70	45.68	-45.2	-46.6	20.5	0.00e+00	0	40	0	568328192	62	4142
2026-01-21 09:21:41.29	132.55	45.96	-45.1	-46.5	20.6	0.00e+00	0	40	0	570425344	62	4064
2026-01-21 09:21:42.26	132.40	46.25	-45.9	-47.6	19.7	0.00e+00	0	40	0	572522496	62	4609
2026-01-21 09:21:43.24	132.25	46.55	-46.4	-48.1	19.3	0.00e+00	0	40	0	574619648	63	4612
2026-01-21 09:21:44.21	132.10	46.84	-46.5	-48.3	19.0	0.00e+00	0	40	0	575668224	64	4466
2026-01-21 09:21:45.18	131.94	47.13	-46.8	-48.6	18.6	0.00e+00	0	40	0	577765376	64	4649
2026-01-21 09:21:46.15	131.78	47.43	-46.3	-48.0	19.3	0.00e+00	0	40	0	579862528	64	4300
2026-01-21 09:21:47.12	131.62	47.72	-46.0	-47.6	19.7	0.00e+00	0	40	0	581959680	63	4362
2026-01-21 09:21:48.09	131.45	48.02	-46.0	-47.6	19.7	0.00e+00	0	40	0	583008256	63	4361
2026-01-21 09:21:49.06	131.28	48.32	-45.9	-47.4	19.9	0.00e+00	0	40	0	585105408	63	4269
2026-01-21 09:21:50.03	131.11	48.63	-46.2	-47.8	19.5	0.00e+00	0	40	0	587202560	63	4458
2026-01-21 09:21:51.00	130.93	48.93	-46.0	-47.5	19.9	0.00e+00	0	40	0	588251136	63	4321
2026-01-21 09:21:51.98	130.75	49.24	-46.2	-47.7	19.7	0.00e+00	0	40	0	590348288	63	4416
2026-01-21 09:21:52.95	130.57	49.55	-45.2	-46.5	20.7	0.00e+00	0	40	0	592445440	62	4059
2026-01-21 09:21:53.93	130.38	49.86	-45.2	-46.4	20.9	0.00e+00	0	40	0	594542592	62	4049
2026-01-21 09:21:54.89	130.19	50.17	-45.4	-46.7	20.5	0.00e+00	0	40	0	595591168	62	4189
2026-01-21 09:21:55.86	129.99	50.49	-45.6	-46.9	20.4	0.00e+00	0	40	0	597688320	62	4280
2026-01-21 09:21:56.83	129.79	50.80	-45.7	-47.2	20.1	0.00e+00	0	40	0	599785472	62	4393
2026-01-21 09:21:57.80	129.59	51.12	-45.4	-46.8	20.5	0.00e+00	0	40	0	601882624	62	4217
2026-01-21 09:21:58.77	129.38	51.44	-44.9	-46.2	21.0	0.00e+00	0	40	0	602931200	61	4164
2026-01-21 09:21:59.74	129.17	51.76	-45.2	-46.6	20.7	0.00e+00	0	40	0	605028352	61	4347
2026-01-21 09:22:00.72	128.95	52.08	-45.4	-46.8	20.5	0.00e+00	0	40	0	607125504	61	4478
2026-01-21 09:22:01.69	128.72	52.41	-46.1	-47.7	19.7	0.00e+00	0	40	0	609222656	62	4678
2026-01-21 09:22:02.66	128.50	52.73	-46.2	-47.9	19.6	0.00e+00	0	40	0	610271232	63	4499
2026-01-21 09:22:03.63	128.26	53.06	-46.2	-47.9	19.5	0.00e+00	0	40	0	612368384	63	4499
2026-01-21 09:22:04.60	128.03	53.39	-46.0	-47.6	19.9	0.00e+00	0	40	0	614465536	63	4347
2026-01-21 09:22:05.58	127.78	53.72	-45.8	-47.2	20.1	0.00e+00	0	40	0	616562688	62	4428
2026-01-21 09:22:06.55	127.53	54.06	-45.5	-46.9	20.3	0.00e+00	0	40	0	617611264	62	4272
2026-01-21 09:22:07.52	127.27	54.39	-45.6	-47.1	20.3	0.00e+00	0	40	0	619708416	62	4352
2026-01-21 09:22:08.49	127.01	54.73	-46.4	-48.1	19.2	0.00e+00	0	40	0	621805568	63	4630
2026-01-21 09:22:09.46	126.74	55.06	-46.4	-48.1	19.1	0.00e+00	0	40	0	623902720	63	4644
2026-01-21 09:22:10.44	126.47	55.40	-46.0	-47.7	19.5	0.00e+00	0	40	0	624951296	63	4421
2026-01-21 09:22:11.41	126.19	55.74	-45.3	-46.7	20.5	0.00e+00	0	40	0	627048448	62	4158
2026-01-21 09:22:12.39	125.89	56.09	-44.7	-45.9	21.2	0.00e+00	0	40	0	629145600	61	4044
2026-01-21 09:22:13.36	125.60	56.43	-44.3	-45.5	21.6	0.00e+00	0	40	0	630194176	60	4052
2026-01-21 09:22:14.33	125.30	56.78	-44.4	-45.6	21.5	0.00e+00	0	40	0	632291328	60	4107
2026-01-21 09:22:15.31	124.98	57.12	-44.4	-45.7	21.4	0.00e+00	0	40	0	634388480	60	4149
2026-01-21 09:22:16.28	124.66	57.47	-45.0	-46.3	20.8	0.00e+00	0	40	0	636485632	60	4461
2026-01-21 09:22:17.25	124.33	57.82	-45.2	-46.6	20.6	0.00e+00	0	40	0	637534208	60	4617
2026-01-21 09:22:18.23	124.00	58.17	-45.3	-46.7	20.3	0.00e+00	0	40	0	639631360	61	4419
2026-01-21 09:22:19.20	123.65	58.52	-45.1	-46.5	20.7	0.00e+00	0	40	0	641728512	61	4313
2026-01-21 09:22:20.18	123.29	58.88	-45.3	-46.6	20.6	0.00e+00	0	40	0	643825664	61	4391
2026-01-21 09:22:21.15	122.93	59.23	-45.4	-46.8	20.6	0.00e+00	0	40	0	644874240	61	4462
2026-01-21 09:22:22.12	122.55	59.58	-46.0	-47.6	19.9	0.00e+00	0	40	0	646971392	62	4600
2026-01-21 09:22:23.09	122.17	59.94	-46.6	-48.2	19.4	0.00e+00	0	40	0	649068544	63	4671
2026-01-21 09:22:24.06	121.77	60.29	-46.1	-47.7	19.7	0.00e+00	0	40	0	651165696	64	4160
2026-01-21 09:22:25.02	121.37	60.64	-45.9	-47.4	20.0	0.00e+00	0	40	0	652214272	63	4252
2026-01-21 09:22:26.00	120.95	61.00	-45.7	-47.0	20.4	0.00e+00	0	40	0	654311424	63	4094
2026-01-21 09:22:26.97	120.52	61.36	-45.4	-46.8	20.6	0.00e+00	0	40	0	656408576	62	4201
2026-01-21 09:22:27.94	120.07	61.72	-45.3	-46.6	20.7	0.00e+00	0	40	0	657457152	62	4143
2026-01-21 09:22:28.92	119.61	62.08	-45.1	-46.4	20.9	0.00e+00	0	40	0	659554304	62	4024
2026-01-21 09:22:29.89	119.14	62.44	-44.2	-45.3	21.9	0.00e+00	0	40	0	661651456	60	3992
2026-01-21 09:22:30.86	118.66	62.79	-43.9	-44.9	22.4	0.00e+00	0	40	0	663748608	59	4018
2026-01-21 09:22:31.83	118.16	63.15	-43.5	-44.4	22.8	0.00e+00	0	40	0	664797184	58	4036
2026-01-21 09:22:32.80	117.65	63.51	-44.1	-45.2	22.2	0.00e+00	0	40	0	666894336	58	4400
2026-01-21 09:22:33.77	117.12	63.87	-44.5	-45.7	21.5	0.00e+00	0	40	0	668991488	60	4156
2026-01-21 09:22:34.74	116.57	64.22	-44.6	-45.8	21.3	0.00e+00	0	40	0	671088640	60	4240
2026-01-21 09:22:35.71	116.00	64.58	-44.0	-45.1	22.3	0.00e+00	0	40	0	672137216	59	4132
2026-01-21 09:22:36.68	115.42	64.94	-43.9	-45.0	22.4	0.00e+00	0	40	0	674234368	59	4066
2026-01-21 09:22:37.65	114.82	65.29	-44.7	-45.9	21.5	0.00e+00	0	40	0	676331520	59	4511
2026-01-21 09:22:38.62	114.20	65.65	-45.7	-47.2	20.3	0.00e+00	0	40	0	678428672	61	4674
2026-01-21 09:22:39.59	113.56	66.00	-46.9	-48.7	18.8	0.00e+00	0	40	0	679477248	64	4699
2026-01-21 09:22:40.56	112.90	66.35	-46.3	-47.9	19.4	0.00e+00	0	40	0	681574400	64	4265
2026-01-21 09:22:41.53	112.21	66.70	-45.9	-47.2	20.1	0.00e+00	0	40	0	683671552	63	4191
2026-01-21 09:22:42.50	111.50	67.05	-46.0	-47.3	20.1	0.00e+00	0	40	0	685768704	62	4487
2026-01-21 09:22:43.48	110.77	67.40	-46.0	-47.4	20.1	0.00e+00	0	40	0	686817280	62	4535
2026-01-21 09:22:44.45	110.01	67.75	-46.1	-47.6	20.1	0.00e+00	0	40	0	688914432	63	4362
2026-01-21 09:22:45.43	109.22	68.10	-46.3	-47.8	19.8	0.00e+00	0	40	0	691011584	63	4477
2026-01-21 09:22:46.41	108.40	68.44	-46.8	-48.4	19.2	0.00e+00	0	40	0	693108736	64	4506
2026-01-21 09:22:47.38	107.56	68.78	-47.3	-49.0	18.6	0.00e+00	0	40	0	694157312	65	4559
2026-01-21 09:22:48.36	106.69	69.11	-47.7	-49.6	17.9	0.00e+00	0	40	0	696254464	66	4610
2026-01-21 09:22:49.33	105.79	69.44	-48.9	-51.3	16.4	0.00e+00	0	40	0	698351616	68	5031
2026-01-21 09:22:50.31	104.85	69.77	-48.6	-51.0	16.3	0.00e+00	0	40	0	700448768	69	4570
2026-01-21 09:22:51.29	103.88	70.10	-47.9	-49.9	17.6	0.00e+00	0	40	0	701497344	67	4517
2026-01-21 09:22:52.26	102.88	70.42	-46.9	-48.5	18.9	0.00e+00	0	40	0	703594496	65	4303
2026-01-21 09:22:53.25	101.83	70.74	-47.0	-48.7	18.7	0.00e+00	0	40	0	705691648	65	4427
2026-01-21 09:22:54.24	100.73	71.05	-46.7	-48.3	19.1	0.00e+00	0	40	0	707788800	65	4214
2026-01-21 09:22:55.23	99.60	71.36	-46.2	-47.7	19.7	0.00e+00	0	40	0	708837376	64	4163
2026-01-21 09:22:56.23	98.42	71.67	-46.4	-47.8	19.7	0.00e+00	0	40	0	710934528	63	4466
2026-01-21 09:22:57.23	97.20	71.96	-46.2	-47.7	19.9	0.00e+00	0	40	0	713031680	63	4394
2026-01-21 09:22:58.23	95.93	72.26	-45.7	-47.0	20.4	0.00e+00	0	40	0	715128832	63	4057
2026-01-21 09:22:59.22	94.63	72.54	-44.8	-45.9	21.4	0.00e+00	0	40	0	716177408	61	4022
2026-01-21 09:23:00.21	93.29	72.81	-44.2	-45.2	22.0	0.00e+00	0	40	0	718274560	60	3939
2026-01-21 09:23:01.22	91.88	73.08	-44.4	-45.5	21.9	0.00e+00	0	40	0	720371712	60	4069
2026-01-21 09:23:02.21	90.44	73.33	-44.3	-45.4	21.8	0.00e+00	0	40	0	722468864	60	4028
2026-01-21 09:23:03.21	88.95	73.58	-44.3	-45.4	21.8	0.00e+00	0	40	0	724566016	60	4018
2026-01-21 09:23:04.21	87.41	73.82	-44.5	-45.6	21.8	0.00e+00	0	40	0	725614592	60	4119
2026-01-21 09:23:05.21	85.82	74.04	-45.7	-47.0	20.5	0.00e+00	0	40	0	727711744	62	4337
2026-01-21 09:23:06.20	84.20	74.25	-46.6	-48.2	19.4	0.00e+00	0	40	0	729808896	64	4425
2026-01-21 09:23:07.19	82.54	74.45	-46.2	-47.6	19.9	0.00e+00	0	40	0	731906048	64	4131
2026-01-21 09:23:08.18	80.83	74.64	-45.7	-46.9	20.5	0.00e+00	0	40	0	734003200	63	4048
2026-01-21 09:23:09.19	79.05	74.82	-46.0	-47.3	20.4	0.00e+00	0	40	0	735051776	62	4479
2026-01-21 09:23:10.19	77.24	74.98	-46.7	-48.2	19.3	0.00e+00	0	40	0	737148928	64	4427
2026-01-21 09:23:11.19	75.40	75.12	-47.7	-49.4	18.4	0.00e+00	0	40	0	739246080	66	4523
2026-01-21 09:23:12.19	73.51	75.25	-48.4	-50.5	17.4	0.00e+00	0	40	0	741343232	67	4818
2026-01-21 09:23:13.19	71.60	75.37	-48.5	-50.5	17.3	0.00e+00	0	40	0	742391808	67	4861
2026-01-21 09:23:14.18	69.67	75.47	-50.1	-53.2	15.1	0.00e+00	0	40	0	744488960	70	5582
2026-01-21 09:23:15.17	67.72	75.55	-49.9	-52.9	14.9	0.00e+00	0	40	0	746586112	71	5094
2026-01-21 09:23:16.16	65.75	75.62	-48.0	-49.9	17.7	0.00e+00	0	40	0	748683264	68	4263
2026-01-21 09:23:17.15	63.76	75.67	-46.8	-48.4	19.3	0.00e+00	0	40	0	749731840	65	4249
2026-01-21 09:23:18.14	61.76	75.70	-46.1	-47.5	20.2	0.00e+00	0	40	0	751828992	63	4301
2026-01-21 09:23:19.12	59.77	75.72	-46.0	-47.3	20.3	0.00e+00	0	40	0	753926144	63	4214
2026-01-21 09:23:20.10	57.79	75.72	-47.0	-48.7	19.0	0.00e+00	0	40	0	756023296	64	4669
2026-01-21 09:23:21.08	55.80	75.70	-47.6	-49.4	18.3	0.00e+00	0	40	0	758120448	66	4536
2026-01-21 09:23:22.07	53.80	75.67	-47.2	-49.0	18.8	0.00e+00	0	40	0	759169024	66	4315
2026-01-21 09:23:23.06	51.81	75.61	-47.1	-48.8	18.7	0.00e+00	0	40	0	761266176	65	4493
2026-01-21 09:23:24.04	49.86	75.55	-46.2	-47.7	19.6	0.00e+00	0	40	0	763363328	64	4183
2026-01-21 09:23:25.02	47.93	75.46	-45.0	-46.2	21.2	0.00e+00	0	40	0	765460480	61	4178
2026-01-21 09:23:26.01	46.01	75.36	-45.9	-47.2	20.5	0.00e+00	0	40	0	766509056	62	4414
2026-01-21 09:23:27.00	44.12	75.25	-46.4	-47.8	20.0	0.00e+00	0	40	0	768606208	63	4448
2026-01-21 09:23:28.00	42.24	75.12	-46.6	-48.0	19.6	0.00e+00	0	40	0	770703360	64	4331
2026-01-21 09:23:29.00	40.39	74.97	-47.1	-48.8	18.9	0.00e+00	0	40	0	772800512	65	4456
2026-01-21 09:23:30.01	38.57	74.81	-46.2	-47.6	19.9	0.00e+00	0	40	0	774897664	64	4114
2026-01-21 09:23:31.02	36.79	74.63	-44.9	-46.1	21.4	0.00e+00	0	40	0	775946240	61	4101
2026-01-21 09:23:32.02	35.07	74.44	-44.7	-45.7	21.7	0.00e+00	0	40	0	778043392	61	3947
2026-01-21 09:23:33.02	33.39	74.24	-45.0	-46.1	21.5	0.00e+00	0	40	0	780140544	61	4106
2026-01-21 09:23:34.01	31.78	74.03	-46.8	-48.3	19.4	0.00e+00	0	40	0	782237696	64	4454
2026-01-21 09:23:35.01	30.20	73.80	-48.0	-49.9	17.9	0.00e+00	0	40	0	783286272	66	4770
2026-01-21 09:23:36.00	28.68	73.56	-48.9	-51.1	17.0	0.00e+00	0	40	0	785383424	68	4916
2026-01-21 09:23:37.00	27.19	73.32	-47.9	-49.7	18.0	0.00e+00	0	40	0	787480576	67	4433
2026-01-21 09:23:38.00	25.74	73.06	-47.5	-49.1	18.7	0.00e+00	0	40	0	789577728	66	4367
2026-01-21 09:23:38.99	24.36	72.80	-47.4	-49.0	18.7	0.00e+00	0	40	0	791674880	65	4565
2026-01-21 09:23:39.99	23.01	72.52	-48.4	-50.5	17.3	0.00e+00	0	40	0	792723456	67	4838
2026-01-21 09:23:40.99	21.70	72.24	-49.1	-51.6	16.4	0.00e+00	0	40	0	794820608	69	4876
2026-01-21 09:23:42.00	20.42	71.94	-48.6	-50.7	17.1	0.00e+00	0	40	0	796917760	68	4695
2026-01-21 09:23:42.99	19.22	71.65	-47.3	-49.0	18.8	0.00e+00	0	40	0	799014912	66	4295
2026-01-21 09:23:43.99	18.04	71.34	-47.6	-49.5	18.2	0.00e+00	0	40	0	801112064	67	4294
2026-01-21 09:23:44.99	16.90	71.03	-48.1	-50.0	17.5	0.00e+00	0	40	0	802160640	67	4593
2026-01-21 09:23:45.98	15.81	70.72	-47.2	-48.8	18.8	0.00e+00	0	40	0	804257792	66	4218
2026-01-21 09:23:46.98	14.75	70.39	-47.5	-49.3	18.5	0.00e+00	0	40	0	806354944	66	4445
2026-01-21 09:23:47.98	13.73	70.06	-46.8	-48.3	19.3	0.00e+00	0	40	0	808452096	65	4206
2026-01-21 09:23:48.97	12.75	69.73	-47.4	-49.1	18.5	0.00e+00	0	40	0	809500672	65	4612
2026-01-21 09:23:49.97	11.80	69.40	-48.7	-50.9	17.0	0.00e+00	0	40	0	811597824	67	5095
2026-01-21 09:23:50.96	10.89	69.06	-48.6	-50.7	17.2	0.00e+00	0	40	0	813694976	69	4392
2026-01-21 09:23:51.97	9.99	68.71	-46.6	-48.0	19.5	0.00e+00	0	40	0	815792128	65	4090
2026-01-21 09:23:52.98	9.13	68.36	-46.5	-48.0	19.4	0.00e+00	0	40	0	817889280	64	4326
2026-01-21 09:23:53.99	8.29	68.01	-46.3	-47.8	19.7	0.00e+00	0	40	0	818937856	64	4222
2026-01-21 09:23:54.99	7.49	67.65	-45.9	-47.4	20.2	0.00e+00	0	40	0	821035008	63	4246
2026-01-21 09:23:56.00	6.71	67.29	-46.5	-48.0	19.6	0.00e+00	0	40	0	823132160	63	4574
2026-01-21 09:23:57.01	5.96	66.93	-47.0	-48.7	18.8	0.00e+00	0	40	0	825229312	65	4403
2026-01-21 09:23:58.02	5.24	66.57	-46.4	-47.9	19.6	0.00e+00	0	40	0	827326464	64	4275
2026-01-21 09:23:59.03	4.53	66.20	-46.3	-47.8	19.8	0.00e+00	0	40	0	828375040	63	4460
2026-01-21 09:24:00.03	3.86	65.84	-46.2	-47.7	19.8	0.00e+00	0	40	0	830472192	64	4165
2026-01-21 09:24:01.04	3.21	65.47	-44.8	-45.9	21.5	0.00e+00	0	40	0	832569344	61	4033
2026-01-21 09:24:02.05	2.57	65.10	-44.5	-45.6	22.0	0.00e+00	0	40	0	834666496	59	4343
2026-01-21 09:24:03.06	1.96	64.73	-44.6	-45.7	21.5	0.00e+00	0	40	0	836763648	60	4174
2026-01-21 09:24:04.06	1.37	64.37	-44.3	-45.5	21.7	0.00e+00	0	40	0	837812224	60	4057
2026-01-21 09:24:05.07	0.79	64.00	-43.7	-44.8	22.6	0.00e+00	0	40	0	839909376	59	3959
2026-01-21 09:24:06.08	0.24	63.62	-43.4	-44.4	22.9	0.00e+00	0	40	0	842006528	58	4044
2026-01-21 09:24:07.09	359.70	63.25	-43.5	-44.5	22.8	0.00e+00	0	40	0	844103680	58	4084
2026-01-21 09:24:08.10	359.18	62.88	-44.6	-45.8	21.6	0.00e+00	0	40	0	846200832	60	4198
2026-01-21 09:24:09.11	358.67	62.51	-44.7	-45.9	21.3	0.00e+00	0	40	0	847249408	60	4265
2026-01-21 09:24:10.11	358.18	62.14	-44.1	-45.1	22.1	0.00e+00	0	40	0	849346560	60	3901
2026-01-21 09:24:11.12	357.71	61.77	-44.2	-45.3	22.0	0.00e+00	0	40	0	851443712	60	3980
2026-01-21 09:24:12.13	357.25	61.40	-45.2	-46.5	21.0	0.00e+00	0	40	0	853540864	61	4296
2026-01-21 09:24:13.14	356.80	61.03	-45.5	-46.8	20.8	0.00e+00	0	40	0	855638016	62	4213
2026-01-21 09:24:14.15	356.36	60.66	-46.7	-48.3	19.4	0.00e+00	0	40	0	856686592	64	4455
2026-01-21 09:24:15.16	355.94	60.29	-47.0	-48.6	19.1	0.00e+00	0	40	0	858783744	64	4625
2026-01-21 09:24:16.17	355.53	59.92	-47.3	-48.9	18.6	0.00e+00	0	40	0	860880896	66	4288
2026-01-21 09:24:17.18	355.13	59.55	-48.4	-50.5	17.1	0.00e+00	0	40	0	862978048	67	4868
2026-01-21 09:24:18.18	354.75	59.19	-50.2	-53.6	14.8	0.00e+00	0	40	0	865075200	70	5803
2026-01-21 09:24:19.19	354.37	58.82	-48.4	-50.5	17.2	0.00e+00	0	40	0	867172352	68	4558
2026-01-21 09:24:20.19	354.01	58.46	-46.0	-47.4	20.1	0.00e+00	0	40	0	868220928	63	4248
2026-01-21 09:24:21.20	353.65	58.10	-45.8	-47.2	20.3	0.00e+00	0	40	0	870318080	62	4392
2026-01-21 09:24:22.21	353.30	57.74	-45.2	-46.4	21.1	0.00e+00	0	40	0	872415232	62	4010
2026-01-21 09:24:23.21	352.97	57.38	-45.4	-46.7	20.7	0.00e+00	0	40	0	874512384	62	4154
2026-01-21 09:24:24.22	352.64	57.02	-45.6	-47.0	20.5	0.00e+00	0	40	0	875560960	62	4312
2026-01-21 09:24:25.23	352.32	56.66	-46.0	-47.5	20.0	0.00e+00	0	40	0	877658112	62	4579
2026-01-21 09:24:26.24	352.01	56.30	-45.8	-47.2	20.2	0.00e+00	0	40	0	879755264	62	4430
2026-01-21 09:24:27.25	351.70	55.95	-45.8	-47.2	20.1	0.00e+00	0	40	0	881852416	62	4420
2026-01-21 09:24:28.25	351.41	55.60	-45.7	-47.2	20.2	0.00e+00	0	40	0	883949568	62	4396
2026-01-21 09:24:29.26	351.12	55.25	-45.3	-46.6	20.8	0.00e+00	0	40	0	884998144	61	4369
2026-01-21 09:24:30.27	350.84	54.90	-44.9	-46.2	21.0	0.00e+00	0	40	0	887095296	61	4170
2026-01-21 09:24:31.28	350.57	54.55	-44.6	-45.8	21.5	0.00e+00	0	40	0	889192448	60	4215
2026-01-21 09:24:32.29	350.30	54.20	-45.0	-46.4	20.9	0.00e+00	0	40	0	891289600	60	4500
2026-01-21 09:24:33.29	350.04	53.86	-45.8	-47.3	20.2	0.00e+00	0	40	0	893386752	62	4474
2026-01-21 09:24:34.30	349.78	53.51	-45.2	-46.5	20.8	0.00e+00	0	40	0	895483904	62	4075
2026-01-21 09:24:35.31	349.54	53.17	-44.5	-45.8	21.5	0.00e+00	0	40	0	896532480	61	3970
2026-01-21 09:24:36.32	349.29	52.83	-44.9	-46.3	21.0	0.00e+00	0	40	0	898629632	61	4206
2026-01-21 09:24:37.33	349.05	52.49	-45.5	-47.0	20.3	0.00e+00	0	40	0	900726784	61	4581
2026-01-21 09:24:38.33	348.82	52.16	-46.0	-47.5	19.9	0.00e+00	0	40	0	902823936	62	4583
2026-01-21 09:24:39.34	348.60	51.82	-46.3	-47.9	19.5	0.00e+00	0	40	0	903872512	63	4521
2026-01-21 09:24:40.35	348.38	51.49	-47.3	-49.3	18.1	0.00e+00	0	40	0	905969664	65	4749
2026-01-21 09:24:41.36	348.16	51.16	-48.0	-50.3	17.2	0.00e+00	0	40	0	908066816	66	4997
2026-01-21 09:24:42.36	347.95	50.83	-47.7	-49.7	17.6	0.00e+00	0	40	0	910163968	67	4438
2026-01-21 09:24:43.37	347.74	50.51	-47.2	-49.0	18.5	0.00e+00	0	40	0	912261120	66	4317
2026-01-21 09:24:44.38	347.54	50.18	-46.5	-48.0	19.3	0.00e+00	0	40	0	914358272	65	4096
2026-01-21 09:24:45.38	347.34	49.86	-45.9	-47.3	20.2	0.00e+00	0	40	0	915406848	63	4216
2026-01-21 09:24:46.39	347.15	49.54	-46.2	-47.7	19.8	0.00e+00	0	40	0	917504000	63	4405
2026-01-21 09:24:47.40	346.96	49.22	-46.7	-48.3	19.3	0.00e+00	0	40	0	919601152	63	4747
2026-01-21 09:24:48.41	346.77	48.90	-46.8	-48.6	19.0	0.00e+00	0	40	0	921698304	64	4600
2026-01-21 09:24:49.42	346.59	48.59	-46.3	-47.8	19.6	0.00e+00	0	40	0	923795456	64	4236
2026-01-21 09:24:50.42	346.41	48.27	-46.0	-47.4	20.0	0.00e+00	0	40	0	924844032	63	4270
2026-01-21 09:24:51.43	346.24	47.96	-46.6	-48.2	19.3	0.00e+00	0	40	0	926941184	63	4693
2026-01-21 09:24:52.44	346.07	47.65	-47.5	-49.4	18.1	0.00e+00	0	40	0	929038336	65	4768
2026-01-21 09:24:53.45	345.90	47.34	-47.2	-49.0	18.4	0.00e+00	0	40	0	931135488	65	4560
2026-01-21 09:24:54.46	345.73	47.04	-47.1	-48.8	18.5	0.00e+00	0	40	0	932184064	65	4486
2026-01-21 09:24:55.46	345.57	46.74	-47.4	-49.2	18.4	0.00e+00	0	40	0	934281216	65	4668
2026-01-21 09:24:56.47	345.41	46.44	-48.0	-50.0	17.5	0.00e+00	0	40	0	936378368	67	4578
2026-01-21 09:24:57.48	345.26	46.13	-48.3	-50.5	17.2	0.00e+00	0	40	0	938475520	67	4827
2026-01-21 09:24:58.48	345.11	45.84	-47.6	-49.5	18.1	0.00e+00	0	40	0	940572672	67	4292
2026-01-21 09:24:59.49	344.96	45.54	-46.6	-48.2	19.3	0.00e+00	0	40	0	942669824	65	4154
2026-01-21 09:25:00.50	344.81	45.25	-45.8	-47.1	20.3	0.00e+00	0	40	0	943718400	63	4122
2026-01-21 09:25:01.51	344.67	44.96	-45.2	-46.4	21.0	0.00e+00	0	40	0	945815552	62	4043
2026-01-21 09:25:02.51	344.53	44.67	-46.6	-48.2	19.4	0.00e+00	0	40	0	947912704	63	4663
2026-01-21 09:25:03.52	344.39	44.38	-47.4	-49.3	18.4	0.00e+00	0	40	0	950009856	65	4720
2026-01-21 09:25:04.53	344.26	44.09	-48.0	-50.1	17.5	0.00e+00	0	40	0	952107008	66	4897
2026-01-21 09:25:05.54	344.12	43.81	-48.0	-50.0	17.6	0.00e+00	0	40	0	953155584	66	4838
2026-01-21 09:25:06.55	343.99	43.53	-47.7	-49.6	18.0	0.00e+00	0	40	0	955252736	66	4604
2026-01-21 09:25:07.55	343.86	43.25	-47.5	-49.3	18.2	0.00e+00	0	40	0	957349888	66	4491
2026-01-21 09:25:08.56	343.74	42.97	-47.4	-49.1	18.3	0.00e+00	0	40	0	959447040	66	4376
2026-01-21 09:25:09.57	343.61	42.69	-46.5	-48.0	19.3	0.00e+00	0	40	0	961544192	65	4090
2026-01-21 09:25:10.58	343.49	42.42	-46.8	-48.5	19.1	0.00e+00	0	40	0	962592768	65	4301
2026-01-21 09:25:11.59	343.37	42.14	-46.6	-48.3	19.3	0.00e+00	0	40	0	964689920	65	4210
2026-01-21 09:25:12.60	343.25	41.87	-48.6	-51.1	16.7	0.00e+00	0	40	0	966787072	67	5166
2026-01-21 09:25:13.61	343.14	41.60	-49.6	-52.7	15.1	0.00e+00	0	40	0	968884224	69	5581
2026-01-21 09:25:14.61	343.03	41.34	-49.1	-51.7	15.8	0.00e+00	0	40	0	970981376	69	4932
2026-01-21 09:25:15.62	342.91	41.07	-47.3	-49.1	18.5	0.00e+00	0	40	0	972029952	66	4350
2026-01-21 09:25:16.63	342.80	40.81	-46.7	-48.3	19.2	0.00e+00	0	40	0	974127104	65	4210
2026-01-21 09:25:17.63	342.70	40.55	-45.9	-47.4	20.1	0.00e+00	0	40	0	976224256	63	4256
2026-01-21 09:25:18.64	342.59	40.29	-46.4	-47.9	19.6	0.00e+00	0	40	0	978321408	63	4543
2026-01-21 09:25:19.65	342.49	40.03	-46.2	-47.7	19.6	0.00e+00	0	40	0	980418560	63	4431
2026-01-21 09:25:20.66	342.38	39.77	-46.8	-48.5	19.0	0.00e+00	0	40	0	981467136	64	4575
2026-01-21 09:25:21.67	342.28	39.52	-47.3	-49.1	18.4	0.00e+00	0	40	0	983564288	65	4637
2026-01-21 09:25:22.68	342.18	39.26	-47.4	-49.3	18.1	0.00e+00	0	40	0	985661440	65	4734
2026-01-21 09:25:23.69	342.08	39.01	-47.7	-49.8	17.8	0.00e+00	0	40	0	987758592	65	4998
2026-01-21 09:25:24.69	341.99	38.76	-47.8	-49.9	17.7	0.00e+00	0	40	0	989855744	66	4800
2026-01-21 09:25:25.70	341.89	38.51	-47.5	-49.4	18.1	0.00e+00	0	40	0	990904320	66	4529
2026-01-21 09:25:26.71	341.80	38.27	-46.9	-48.6	18.8	0.00e+00	0	40	0	993001472	65	4375
2026-01-21 09:25:27.72	341.71	38.02	-46.8	-48.4	19.1	0.00e+00	0	40	0	995098624	64	4539
2026-01-21 09:25:28.73	341.62	37.78	-46.4	-48.0	19.5	0.00e+00	0	40	0	997195776	64	4298
2026-01-21 09:25:29.73	341.53	37.54	-46.4	-48.0	19.5	0.00e+00	0	40	0	999292928	64	4294
2026-01-21 09:25:30.74	341.44	37.30	-46.2	-47.8	19.6	0.00e+00	0	40	0	1000341504	64	4194
2026-01-21 09:25:31.75	341.36	37.06	-46.6	-48.3	19.1	0.00e+00	0	40	0	1002438656	64	4470
2026-01-21 09:25:32.76	341.27	36.83	-46.7	-48.4	18.9	0.00e+00	0	40	0	1004535808	64	4502
2026-01-21 09:25:33.76	341.19	36.59	-46.5	-48.1	19.3	0.00e+00	0	40	0	1006632960	64	4360
2026-01-21 09:25:34.77	341.10	36.36	-46.9	-48.6	18.7	0.00e+00	0	40	0	1008730112	64	4610
2026-01-21 09:25:35.78	341.02	36.13	-47.3	-49.2	18.2	0.00e+00	0	40	0	1009778688	66	4418
2026-01-21 09:25:36.79	340.94	35.90	-47.4	-49.3	18.0	0.00e+00	0	40	0	1011875840	65	4741
2026-01-21 09:25:37.79	340.86	35.67	-47.3	-49.2	18.1	0.00e+00	0	40	0	1013972992	65	4693
2026-01-21 09:25:38.80	340.79	35.45	-47.8	-49.8	17.5	0.00e+00	0	40	0	1016070144	66	4728
2026-01-21 09:25:39.81	340.71	35.22	-47.7	-49.8	17.6	0.00e+00	0	40	0	1018167296	66	4716
2026-01-21 09:25:40.82	340.63	35.00	-47.9	-50.0	17.4	0.00e+00	0	40	0	1019215872	66	4826
2026-01-21 09:25:41.83	340.56	34.77	-47.6	-49.5	17.9	0.00e+00	0	40	0	1021313024	66	4579
2026-01-21 09:25:42.83	340.49	34.55	-46.9	-48.7	18.7	0.00e+00	0	40	0	1023410176	65	4400
2026-01-21 09:25:43.84	340.41	34.34	-46.5	-48.1	19.3	0.00e+00	0	40	0	1025507328	64	4346
2026-01-21 09:25:44.85	340.34	34.12	-46.4	-47.9	19.4	0.00e+00	0	40	0	1027604480	64	4262
2026-01-21 09:25:45.86	340.27	33.90	-46.4	-47.9	19.4	0.00e+00	0	40	0	1028653056	64	4262
2026-01-21 09:25:46.86	340.20	33.69	-46.2	-47.7	19.6	0.00e+00	0	40	0	1030750208	64	4171
2026-01-21 09:25:47.87	340.14	33.47	-46.4	-47.9	19.5	0.00e+00	0	40	0	1032847360	64	4269
2026-01-21 09:25:48.88	340.07	33.26	-47.3	-49.1	18.6	0.00e+00	0	40	0	1034944512	65	4609
2026-01-21 09:25:49.89	340.00	33.05	-46.9	-48.5	18.9	0.00e+00	0	40	0	1037041664	65	4328
2026-01-21 09:25:50.90	339.94	32.84	-46.7	-48.2	19.2	0.00e+00	0	40	0	1038090240	65	4169
2026-01-21 09:25:51.91	339.87	32.63	-47.1	-48.8	18.7	0.00e+00	0	40	0	1040187392	65	4445
2026-01-21 09:25:52.91	339.81	32.43	-47.1	-48.7	18.7	0.00e+00	0	40	0	1042284544	65	4431
2026-01-21 09:25:53.92	339.74	32.22	-47.1	-48.7	18.8	0.00e+00	0	40	0	1044381696	65	4410
2026-01-21 09:25:54.93	339.68	32.02	-47.3	-49.0	18.5	0.00e+00	0	40	0	1046478848	65	4554
2026-01-21 09:25:55.94	339.62	31.82	-47.1	-48.8	18.7	0.00e+00	0	40	0	1047527424	65	4472
2026-01-21 09:25:56.95	339.56	31.62	-46.8	-48.3	18.8	0.00e+00	0	40	0	1049624576	65	4223
2026-01-21 09:25:57.95	339.50	31.42	-47.3	-49.0	18.5	0.00e+00	0	40	0	1051721728	65	4556
2026-01-21 09:25:58.96	339.44	31.22	-47.1	-48.8	18.7	0.00e+00	0	40	0	1053818880	65	4460
2026-01-21 09:25:59.97	339.38	31.02	-47.0	-48.7	18.8	0.00e+00	0	40	0	1055916032	65	4421
2026-01-21 09:26:00.98	339.32	30.83	-47.2	-48.9	18.5	0.00e+00	0	40	0	1058013184	65	4523
2026-01-21 09:26:01.99	339.27	30.63	-47.2	-48.9	18.5	0.00e+00	0	40	0	1059061760	65	4523
2026-01-21 09:26:02.99	339.21	30.44	-47.0	-48.7	18.7	0.00e+00	0	40	0	1061158912	65	4413
2026-01-21 09:26:04.00	339.16	30.25	-47.0	-48.7	18.6	0.00e+00	0	40	0	1063256064	65	4441
2026-01-21 09:26:05.01	339.10	30.06	-47.1	-48.8	18.6	0.00e+00	0	40	0	1065353216	66	4221
2026-01-21 09:26:06.02	339.05	29.87	-47.3	-49.1	18.3	0.00e+00	0	40	0	1066401792	65	4607
2026-01-21 09:26:07.02	339.00	29.68	-47.5	-49.4	18.0	0.00e+00	0	40	0	1068498944	65	4787
2026-01-21 09:26:08.03	338.94	29.50	-47.5	-49.4	18.0	0.00e+00	0	40	0	1070596096	65	4766
2026-01-21 09:26:09.04	338.89	29.31	-47.4	-49.3	18.0	0.00e+00	0	40	0	1072693248	65	4730
2026-01-21 09:26:10.05	338.84	29.13	-47.3	-49.0	18.3	0.00e+00	0	40	0	1074790400	65	4590
2026-01-21 09:26:11.05	338.79	28.94	-46.9	-48.6	18.7	0.00e+00	0	40	0	1075838976	65	4380
2026-01-21 09:26:12.06	338.74	28.76	-46.8	-48.4	18.9	0.00e+00	0	40	0	1077936128	65	4265
2026-01-21 09:26:13.07	338.69	28.58	-46.5	-48.1	19.2	0.00e+00	0	40	0	1080033280	64	4348
2026-01-21 09:26:14.08	338.64	28.40	-45.9	-47.3	20.0	0.00e+00	0	40	0	1082130432	63	4231
2026-01-21 09:26:15.09	338.59	28.22	-46.1	-47.5	19.8	0.00e+00	0	40	0	1084227584	63	4336
2026-01-21 09:26:16.09	338.54	28.05	-46.1	-47.5	19.8	0.00e+00	0	40	0	1086324736	63	4333
2026-01-21 09:26:17.10	338.50	27.87	-46.1	-47.5	19.9	0.00e+00	0	40	0	1087373312	63	4311
2026-01-21 09:26:18.11	338.45	27.69	-46.1	-47.5	19.8	0.00e+00	0	40	0	1089470464	63	4338
2026-01-21 09:26:19.12	338.40	27.52	-46.6	-48.1	19.3	0.00e+00	0	40	0	1091567616	63	4622
2026-01-21 09:26:20.12	338.36	27.35	-46.3	-47.8	19.6	0.00e+00	0	40	0	1093664768	63	4448
2026-01-21 09:26:21.13	338.31	27.17	-46.3	-47.8	19.6	0.00e+00	0	40	0	1094713344	64	4195
2026-01-21 09:26:22.14	338.27	27.00	-46.3	-47.8	19.4	0.00e+00	0	40	0	1096810496	64	4216
2026-01-21 09:26:23.15	338.23	26.83	-46.3	-47.8	19.5	0.00e+00	0	40	0	1098907648	64	4210
2026-01-21 09:26:24.16	338.18	26.66	-46.1	-47.6	19.7	0.00e+00	0	40	0	1101004800	64	4121
2026-01-21 09:26:25.16	338.14	26.50	-45.9	-47.3	20.0	0.00e+00	0	40	0	1103101952	63	4200
2026-01-21 09:26:26.17	338.10	26.33	-45.5	-46.8	20.4	0.00e+00	0	40	0	1105199104	62	4234
2026-01-21 09:26:27.18	338.06	26.16	-45.4	-46.7	20.5	0.00e+00	0	40	0	1106247680	62	4165
2026-01-21 09:26:28.19	338.01	26.00	-45.5	-46.8	20.4	0.00e+00	0	40	0	1108344832	62	4233
2026-01-21 09:26:29.20	337.97	25.83	-45.5	-46.8	20.4	0.00e+00	0	40	0	1110441984	62	4234
2026-01-21 09:26:30.21	337.93	25.67	-45.6	-46.9	20.3	0.00e+00	0	40	0	1112539136	62	4275
2026-01-21 09:26:31.21	337.89	25.51	-45.4	-46.7	20.5	0.00e+00	0	40	0	1114636288	62	4189
2026-01-21 09:26:32.22	337.85	25.35	-45.3	-46.6	20.6	0.00e+00	0	40	0	1115684864	62	4116
2026-01-21 09:26:33.23	337.81	25.19	-45.5	-46.8	20.4	0.00e+00	0	40	0	1117782016	62	4239
2026-01-21 09:26:34.24	337.77	25.03	-45.7	-47.0	20.2	0.00e+00	0	40	0	1119879168	62	4330
2026-01-21 09:26:35.24	337.74	24.87	-45.7	-47.1	20.1	0.00e+00	0	40	0	1121976320	62	4347
2026-01-21 09:26:36.25	337.70	24.71	-45.7	-47.1	20.1	0.00e+00	0	40	0	1123024896	62	4380
2026-01-21 09:26:37.26	337.66	24.56	-46.0	-47.5	19.8	0.00e+00	0	40	0	1125122048	62	4550
2026-01-21 09:26:38.27	337.62	24.40	-46.1	-47.6	19.7	0.00e+00	0	40	0	1127219200	62	4612
2026-01-21 09:26:39.28	337.59	24.25	-46.2	-47.7	19.6	0.00e+00	0	40	0	1129316352	63	4431
2026-01-21 09:26:40.29	337.55	24.09	-46.5	-48.1	19.2	0.00e+00	0	40	0	1131413504	63	4613
2026-01-21 09:26:41.29	337.51	23.94	-46.6	-48.2	19.1	0.00e+00	0	40	0	1133510656	63	4688
2026-01-21 09:26:42.30	337.48	23.79	-47.0	-48.7	18.6	0.00e+00	0	40	0	1134559232	64	4677
2026-01-21 09:26:43.31	337.44	23.64	-47.0	-48.8	18.4	0.00e+00	0	40	0	1136656384	64	4725
2026-01-21 09:26:44.32	337.41	23.49	-47.0	-48.8	18.5	0.00e+00	0	40	0	1138753536	64	4708
2026-01-21 09:26:45.33	337.37	23.34	-47.4	-49.3	17.9	0.00e+00	0	40	0	1140850688	65	4737
2026-01-21 09:26:46.33	337.34	23.19	-47.2	-49.0	18.2	0.00e+00	0	40	0	1142947840	65	4598
2026-01-21 09:26:47.34	337.31	23.04	-47.2	-49.0	18.2	0.00e+00	0	40	0	1143996416	65	4591
2026-01-21 09:26:48.35	337.27	22.90	-47.1	-49.0	18.3	0.00e+00	0	40	0	1146093568	65	4554
2026-01-21 09:26:49.35	337.24	22.75	-46.9	-48.7	18.5	0.00e+00	0	40	0	1148190720	65	4413
2026-01-21 09:26:50.36	337.21	22.61	-46.7	-48.3	18.8	0.00e+00	0	40	0	1150287872	65	4232
2026-01-21 09:26:51.37	337.18	22.46	-46.5	-48.1	19.0	0.00e+00	0	40	0	1152385024	64	4377
2026-01-21 09:26:52.38	337.14	22.32	-46.2	-47.7	19.4	0.00e+00	0	40	0	1153433600	64	4180
2026-01-21 09:26:53.39	337.11	22.18	-45.6	-47.0	20.1	0.00e+00	0	40	0	1155530752	63	4085
2026-01-21 09:26:54.39	337.08	22.04	-45.4	-46.7	20.4	0.00e+00	0	40	0	1157627904	62	4162
2026-01-21 09:26:55.40	337.05	21.89	-45.3	-46.6	20.5	0.00e+00	0	40	0	1159725056	62	4131
2026-01-21 09:26:56.41	337.02	21.75	-44.9	-46.2	20.9	0.00e+00	0	40	0	1161822208	61	4151
2026-01-21 09:26:57.42	336.99	21.61	-44.8	-46.1	20.9	0.00e+00	0	40	0	1162870784	61	4110
2026-01-21 09:26:58.43	336.96	21.47	-45.0	-46.2	20.8	0.00e+00	0	40	0	1164967936	61	4190
2026-01-21 09:26:59.43	336.93	21.34	-44.8	-46.0	21.0	0.00e+00	0	40	0	1167065088	61	4059
2026-01-21 09:27:00.44	336.90	21.20	-44.9	-46.2	20.8	0.00e+00	0	40	0	1169162240	61	4168
2026-01-21 09:27:01.45	336.87	21.06	-45.1	-46.4	20.7	0.00e+00	0	40	0	1171259392	61	4249
2026-01-21 09:27:02.46	336.84	20.93	-45.1	-46.4	20.6	0.00e+00	0	40	0	1172307968	61	4289
2026-01-21 09:27:03.46	336.81	20.79	-45.2	-46.5	20.6	0.00e+00	0	40	0	1174405120	61	4304
2026-01-21 09:27:04.47	336.79	20.66	-45.3	-46.6	20.5	0.00e+00	0	40	0	1176502272	61	4363
2026-01-21 09:27:05.48	336.76	20.52	-45.2	-46.5	20.5	0.00e+00	0	40	0	1178599424	61	4306
2026-01-21 09:27:06.49	336.73	20.39	-45.2	-46.5	20.5	0.00e+00	0	40	0	1180696576	61	4334
2026-01-21 09:27:07.50	336.70	20.26	-45.3	-46.6	20.4	0.00e+00	0	40	0	1181745152	61	4376
2026-01-21 09:27:08.50	336.68	20.13	-45.0	-46.3	20.7	0.00e+00	0	40	0	1183842304	61	4234
2026-01-21 09:27:09.51	336.65	20.00	-45.2	-46.6	20.4	0.00e+00	0	40	0	1185939456	61	4360
2026-01-21 09:27:10.52	336.62	19.87	-44.9	-46.1	20.8	0.00e+00	0	40	0	1188036608	61	4128
2026-01-21 09:27:11.53	336.60	19.74	-44.7	-46.0	21.0	0.00e+00	0	40	0	1190133760	61	4065
2026-01-21 09:27:12.54	336.57	19.61	-44.9	-46.2	20.8	0.00e+00	0	40	0	1191182336	61	4164
2026-01-21 09:27:13.55	336.54	19.48	-44.7	-46.0	21.0	0.00e+00	0	40	0	1193279488	61	4065
2026-01-21 09:27:14.56	336.52	19.35	-44.6	-45.9	21.1	0.00e+00	0	40	0	1195376640	61	4018
2026-01-21 09:27:15.56	336.49	19.23	-44.8	-46.0	20.9	0.00e+00	0	40	0	1197473792	61	4092
2026-01-21 09:27:16.57	336.47	19.10	-44.6	-45.9	21.0	0.00e+00	0	40	0	1199570944	61	4018
2026-01-21 09:27:17.58	336.44	18.97	-45.0	-46.3	20.7	0.00e+00	0	40	0	1200619520	61	4235
2026-01-21 09:27:18.58	336.42	18.85	-44.9	-46.2	20.7	0.00e+00	0	40	0	1202716672	61	4186
2026-01-21 09:27:19.59	336.39	18.72	-45.1	-46.5	20.4	0.00e+00	0	40	0	1204813824	61	4304
2026-01-21 09:27:20.60	336.37	18.60	-45.5	-46.9	20.1	0.00e+00	0	40	0	1206910976	61	4496
2026-01-21 09:27:21.61	336.34	18.48	-45.7	-47.2	19.9	0.00e+00	0	40	0	1209008128	62	4393
2026-01-21 09:27:22.62	336.32	18.35	-46.1	-47.6	19.4	0.00e+00	0	40	0	1210056704	62	4648
2026-01-21 09:27:23.62	336.30	18.23	-46.4	-48.0	19.1	0.00e+00	0	40	0	1212153856	63	4570
2026-01-21 09:27:24.63	336.27	18.11	-46.6	-48.3	18.8	0.00e+00	0	40	0	1214251008	63	4731
2026-01-21 09:27:25.64	336.25	17.99	-46.8	-48.6	18.5	0.00e+00	0	40	0	1216348160	64	4609
