passes_logs/2026/01/21/R3.2S_Murmansk/R3.2S_Murmansk__20260121_211703_JL1KF02B02_rec.log

#Pass ID: 20260121_211703_JL1KF02B02
#Satellite: JL1KF02B02
#Configuration: 01B_900M
#almurnet v.1.7.20251203
#Start time: 2026-01-21 21:17:03

#Version: 2.2.20231116
#Station: R3.2S_Murmansk
#Location: 33.079688 lon 68.888172 lat
#TLE: 1 61193U 24169E   26020.94997262  .00012006  00000+0  74603-3 0  9991
#TLE: 2 61193  97.5735 112.7460 0013713 115.5489 244.7159 15.09733748 73624

#Time	Az	El	Level	Level2	SNR	BER	BlckErr	Temp	State	Recorded	gain1	gain2
2026-01-21 21:17:03.51	195.98	1.99	-54.6	-56.7	6.2	0.00e+00	0	41	0	0	80	18706
2026-01-21 21:17:04.48	196.05	2.05	-54.8	-57.0	6.2	0.00e+00	0	41	104	0	80	19261
2026-01-21 21:17:05.45	196.11	2.12	-54.8	-56.9	6.2	0.00e+00	0	41	104	0	80	19241
2026-01-21 21:17:06.42	196.18	2.18	-54.8	-56.9	6.2	0.00e+00	0	41	104	0	80	19180
2026-01-21 21:17:07.39	196.25	2.24	-54.8	-56.9	6.2	0.00e+00	0	41	104	0	80	19191
2026-01-21 21:17:08.36	196.31	2.30	-54.8	-57.0	6.2	0.00e+00	0	41	104	0	80	19264
2026-01-21 21:17:09.32	196.38	2.37	-54.8	-57.0	6.2	0.00e+00	0	41	104	0	80	19263
2026-01-21 21:17:10.29	196.45	2.43	-54.8	-56.9	6.2	0.00e+00	0	41	104	0	80	19214
2026-01-21 21:17:11.26	196.52	2.49	-54.7	-56.9	6.2	0.00e+00	0	41	104	0	80	19067
2026-01-21 21:17:12.23	196.59	2.56	-54.7	-56.8	6.2	0.00e+00	0	41	104	0	80	18978
2026-01-21 21:17:13.21	196.66	2.62	-54.7	-56.8	6.2	0.00e+00	0	41	104	0	80	18911
2026-01-21 21:17:14.17	196.73	2.68	-54.7	-56.8	6.2	0.00e+00	0	41	104	0	80	18915
2026-01-21 21:17:15.14	196.80	2.75	-54.6	-56.7	6.2	0.00e+00	0	42	104	0	80	18796
2026-01-21 21:17:16.11	196.87	2.81	-54.6	-56.7	6.2	0.00e+00	0	41	104	0	80	18679
2026-01-21 21:17:17.08	196.94	2.88	-54.5	-56.6	6.2	0.00e+00	0	41	104	0	80	18570
2026-01-21 21:17:18.05	197.01	2.94	-54.4	-56.6	6.2	0.00e+00	0	42	104	0	80	18479
2026-01-21 21:17:19.02	197.08	3.01	-54.4	-56.5	6.2	0.00e+00	0	42	104	0	80	18255
2026-01-21 21:17:19.99	197.15	3.07	-54.3	-56.4	6.2	0.00e+00	0	42	104	0	80	18160
2026-01-21 21:17:20.96	197.22	3.13	-54.2	-56.4	6.2	0.00e+00	0	42	104	0	80	18039
2026-01-21 21:17:21.92	197.29	3.20	-54.2	-56.3	6.2	0.00e+00	0	42	104	0	80	17889
2026-01-21 21:17:22.90	197.37	3.26	-54.1	-56.2	6.2	0.00e+00	0	42	104	0	80	17646
2026-01-21 21:17:23.87	197.44	3.33	-54.0	-56.1	6.2	0.00e+00	0	42	104	0	79	18546
2026-01-21 21:17:24.84	197.52	3.40	-53.8	-55.9	6.2	0.00e+00	0	42	104	0	79	18057
2026-01-21 21:17:25.81	197.59	3.46	-53.4	-55.5	6.2	0.00e+00	0	42	104	0	78	18282
2026-01-21 21:17:26.77	197.66	3.53	-53.2	-55.3	6.2	0.00e+00	0	42	104	0	78	17790
2026-01-21 21:17:27.75	197.74	3.59	-53.1	-55.3	6.2	0.00e+00	0	42	104	0	78	17831
2026-01-21 21:17:28.72	197.81	3.66	-53.1	-55.3	6.2	0.00e+00	0	42	104	0	78	17819
2026-01-21 21:17:29.69	197.89	3.73	-53.1	-55.3	6.2	0.00e+00	0	42	104	0	78	17804
2026-01-21 21:17:30.65	197.97	3.79	-53.1	-55.3	6.2	0.00e+00	0	42	104	0	78	17823
2026-01-21 21:17:31.62	198.04	3.86	-53.1	-55.3	6.2	0.00e+00	0	42	104	0	78	17775
2026-01-21 21:17:32.59	198.12	3.93	-53.1	-55.3	6.2	0.00e+00	0	42	104	0	78	17798
2026-01-21 21:17:33.56	198.20	3.99	-53.1	-55.2	6.2	0.00e+00	0	42	104	0	78	17749
2026-01-21 21:17:34.53	198.27	4.06	-53.1	-55.3	6.2	0.00e+00	0	42	104	0	78	17780
2026-01-21 21:17:35.50	198.35	4.13	-53.1	-55.2	6.2	0.00e+00	0	42	104	0	78	17740
2026-01-21 21:17:36.47	198.43	4.19	-53.1	-55.3	6.2	0.00e+00	0	42	104	0	78	17778
2026-01-21 21:17:37.44	198.51	4.26	-53.1	-55.2	6.2	0.00e+00	0	42	104	0	78	17743
2026-01-21 21:17:38.41	198.59	4.33	-53.1	-55.3	6.2	0.00e+00	0	42	104	0	78	17776
2026-01-21 21:17:39.38	198.67	4.40	-53.1	-55.2	6.2	0.00e+00	0	42	104	0	78	17706
2026-01-21 21:17:40.36	198.75	4.47	-53.1	-55.2	6.2	0.00e+00	0	42	104	0	78	17740
2026-01-21 21:17:41.32	198.83	4.54	-53.1	-55.2	6.2	0.00e+00	0	42	104	0	78	17729
2026-01-21 21:17:42.29	198.91	4.60	-53.1	-55.2	6.2	0.00e+00	0	42	104	0	78	17724
2026-01-21 21:17:43.26	198.99	4.67	-53.1	-55.2	6.2	0.00e+00	0	42	104	0	78	17711
2026-01-21 21:17:44.24	199.08	4.74	-53.1	-55.2	6.2	0.00e+00	0	42	104	0	78	17739
2026-01-21 21:17:45.21	199.16	4.81	-53.1	-55.2	6.2	0.00e+00	0	42	104	0	78	17693
2026-01-21 21:17:46.18	199.24	4.88	-53.1	-55.2	6.2	0.00e+00	0	42	104	0	78	17696
2026-01-21 21:17:47.14	199.32	4.95	-53.0	-55.2	6.2	0.00e+00	0	42	104	0	78	17651
2026-01-21 21:17:48.11	199.41	5.02	-53.0	-55.2	6.2	0.00e+00	0	42	104	0	78	17642
2026-01-21 21:17:49.08	199.49	5.09	-53.2	-55.3	6.2	0.00e+00	0	42	104	0	78	17944
2026-01-21 21:17:50.05	199.58	5.16	-53.0	-55.2	6.2	0.00e+00	0	42	104	0	78	17571
2026-01-21 21:17:51.02	199.66	5.23	-53.2	-55.3	6.2	0.00e+00	0	42	104	0	78	17882
2026-01-21 21:17:51.99	199.75	5.30	-53.2	-55.3	6.2	0.00e+00	0	42	104	0	78	17926
2026-01-21 21:17:52.95	199.83	5.37	-53.0	-55.2	6.2	0.00e+00	0	42	104	0	78	17592
2026-01-21 21:17:53.92	199.92	5.44	-53.0	-55.2	6.2	0.00e+00	0	42	104	0	78	17573
2026-01-21 21:17:54.89	200.01	5.52	-53.2	-55.3	6.2	0.00e+00	0	42	104	0	78	17906
2026-01-21 21:17:55.86	200.10	5.59	-53.1	-55.3	6.2	0.00e+00	0	42	104	0	78	17877
2026-01-21 21:17:56.83	200.19	5.66	-53.0	-55.2	6.2	0.00e+00	0	42	104	0	78	17628
2026-01-21 21:17:57.80	200.27	5.73	-53.0	-55.2	6.2	0.00e+00	0	42	104	0	78	17582
2026-01-21 21:17:58.78	200.36	5.80	-53.1	-55.3	6.2	0.00e+00	0	42	104	0	78	17821
2026-01-21 21:17:59.74	200.45	5.87	-53.2	-55.3	6.2	0.00e+00	0	42	104	0	78	17882
2026-01-21 21:18:00.71	200.54	5.95	-53.0	-55.2	6.2	0.00e+00	0	42	104	0	78	17748
2026-01-21 21:18:01.69	200.64	6.02	-53.0	-55.2	6.2	0.00e+00	0	42	104	0	78	17629
2026-01-21 21:18:02.66	200.73	6.09	-53.1	-55.2	6.2	0.00e+00	0	42	104	0	78	17759
2026-01-21 21:18:03.62	200.82	6.17	-53.2	-55.3	6.2	0.00e+00	0	42	104	0	78	17850
2026-01-21 21:18:04.60	200.91	6.24	-53.1	-55.3	6.2	0.00e+00	0	42	104	0	78	17770
2026-01-21 21:18:05.56	201.00	6.31	-53.0	-55.2	6.2	0.00e+00	0	42	104	0	78	17620
2026-01-21 21:18:06.53	201.10	6.39	-53.1	-55.2	6.2	0.00e+00	0	42	104	0	78	17750
2026-01-21 21:18:07.51	201.19	6.46	-53.2	-55.3	6.2	0.00e+00	0	42	104	0	78	17946
2026-01-21 21:18:08.47	201.29	6.53	-53.1	-55.3	6.2	0.00e+00	0	43	104	0	78	17817
2026-01-21 21:18:09.44	201.38	6.61	-53.1	-55.2	6.2	0.00e+00	0	43	104	0	78	17710
2026-01-21 21:18:10.41	201.48	6.68	-53.1	-55.3	6.2	0.00e+00	0	43	104	0	78	17770
2026-01-21 21:18:11.38	201.58	6.76	-53.2	-55.4	6.2	0.00e+00	0	43	104	0	78	17976
2026-01-21 21:18:12.35	201.67	6.83	-53.2	-55.3	6.2	0.00e+00	0	42	104	0	78	17950
2026-01-21 21:18:13.32	201.77	6.91	-53.1	-55.3	6.2	0.00e+00	0	42	104	0	78	17811
2026-01-21 21:18:14.29	201.87	6.99	-53.1	-55.3	6.2	0.00e+00	0	43	104	0	78	17775
2026-01-21 21:18:15.26	201.97	7.06	-53.2	-55.4	6.2	0.00e+00	0	43	104	0	78	18034
2026-01-21 21:18:16.23	202.07	7.14	-53.2	-55.4	6.2	0.00e+00	0	43	104	0	78	18009
2026-01-21 21:18:17.20	202.17	7.21	-53.2	-55.3	6.2	0.00e+00	0	42	104	0	78	17924
2026-01-21 21:18:18.18	202.27	7.29	-53.1	-55.3	6.2	0.00e+00	0	42	104	0	78	17831
2026-01-21 21:18:19.15	202.37	7.37	-53.3	-55.4	6.2	0.00e+00	0	42	104	0	78	18073
2026-01-21 21:18:20.12	202.47	7.44	-53.2	-55.4	6.2	0.00e+00	0	43	104	0	78	18096
2026-01-21 21:18:21.09	202.58	7.52	-53.2	-55.3	6.2	0.00e+00	0	43	104	0	78	17968
2026-01-21 21:18:22.06	202.68	7.60	-53.2	-55.3	6.2	0.00e+00	0	43	104	0	78	17940
2026-01-21 21:18:23.02	202.78	7.68	-53.3	-55.4	6.2	0.00e+00	0	42	104	0	78	18165
2026-01-21 21:18:23.99	202.89	7.75	-53.3	-55.4	6.2	0.00e+00	0	43	104	0	78	18113
2026-01-21 21:18:24.97	202.99	7.83	-53.2	-55.4	6.2	0.00e+00	0	43	104	0	78	17998
2026-01-21 21:18:25.94	203.10	7.91	-53.2	-55.4	6.2	0.00e+00	0	43	104	0	78	18040
2026-01-21 21:18:26.91	203.21	7.99	-53.3	-55.5	6.2	0.00e+00	0	43	104	0	78	18218
2026-01-21 21:18:27.88	203.31	8.07	-53.3	-55.4	6.2	0.00e+00	0	43	104	0	78	18147
2026-01-21 21:18:28.86	203.42	8.15	-53.2	-55.4	6.2	0.00e+00	0	42	104	0	78	18046
2026-01-21 21:18:29.83	203.53	8.23	-53.2	-55.4	6.2	0.00e+00	0	43	104	0	78	18016
2026-01-21 21:18:30.79	203.64	8.31	-53.3	-55.5	6.2	0.00e+00	0	43	104	0	78	18186
2026-01-21 21:18:31.76	203.75	8.39	-53.3	-55.4	6.2	0.00e+00	0	43	104	0	78	18148
2026-01-21 21:18:32.73	203.86	8.47	-53.2	-55.4	6.2	0.00e+00	0	43	104	0	78	18056
2026-01-21 21:18:33.70	203.97	8.55	-53.2	-55.4	6.2	0.00e+00	0	43	104	0	78	18055
2026-01-21 21:18:34.67	204.08	8.63	-49.8	-50.6	6.8	0.00e+00	0	43	104	0	70	16494
2026-01-21 21:18:35.63	204.20	8.71	-48.4	-49.0	6.4	0.00e+00	0	43	104	0	68	15453
2026-01-21 21:18:36.60	204.31	8.79	-45.4	-45.8	6.4	0.00e+00	0	43	104	0	62	15043
2026-01-21 21:18:37.57	204.42	8.87	-45.9	-46.4	6.5	0.00e+00	0	43	104	0	63	15168
2026-01-21 21:18:38.54	204.54	8.95	-45.1	-45.5	6.4	0.00e+00	0	43	104	0	62	14457
2026-01-21 21:18:39.51	204.66	9.03	-44.8	-45.2	6.5	0.00e+00	0	43	104	0	61	14786
2026-01-21 21:18:40.48	204.77	9.12	-44.8	-45.2	6.4	0.00e+00	0	43	104	0	61	14791
2026-01-21 21:18:41.45	204.89	9.20	-45.5	-45.9	6.4	0.00e+00	0	43	104	0	61	16100
2026-01-21 21:18:42.42	205.01	9.28	-44.9	-45.3	6.5	0.00e+00	0	43	104	0	62	14191
2026-01-21 21:18:43.40	205.13	9.37	-46.5	-47.1	6.5	0.00e+00	0	43	104	0	65	14624
2026-01-21 21:18:44.37	205.25	9.45	-45.2	-45.5	6.5	0.00e+00	0	43	104	0	62	14490
2026-01-21 21:18:45.34	205.37	9.53	-49.7	-50.6	6.4	0.00e+00	0	43	104	0	71	15590
2026-01-21 21:18:46.31	205.49	9.62	-44.8	-45.1	6.4	0.00e+00	0	43	104	0	61	14727
2026-01-21 21:18:47.28	205.61	9.70	-44.7	-45.0	6.4	0.00e+00	0	43	104	0	61	14507
2026-01-21 21:18:48.25	205.73	9.78	-44.3	-44.5	6.7	0.00e+00	0	43	104	0	60	14453
2026-01-21 21:18:49.22	205.86	9.87	-44.2	-44.5	6.8	0.00e+00	0	43	104	0	60	14529
2026-01-21 21:18:50.20	205.98	9.96	-47.2	-47.7	6.6	0.00e+00	0	43	104	0	66	14885
2026-01-21 21:18:51.17	206.11	10.04	-33.7	-33.5	11.5	5.54e-03	0	43	104	0	38	14533
2026-01-21 21:18:52.13	206.24	10.12	-40.2	-40.2	11.9	9.52e-03	0	43	0	58720256	52	13960
2026-01-21 21:18:53.10	206.36	10.21	-40.0	-39.9	13.8	1.48e-03	0	43	0	167772160	51	14427
2026-01-21 21:18:54.08	206.49	10.30	-34.1	-34.0	15.9	3.05e-05	0	43	0	268435456	39	14462
2026-01-21 21:18:55.05	206.62	10.38	-33.7	-33.6	15.9	2.67e-05	0	43	0	385875968	39	13833
2026-01-21 21:18:56.02	206.75	10.47	-32.4	-32.3	16.8	1.90e-06	0	43	0	494927872	36	14127
2026-01-21 21:18:56.99	206.88	10.56	-29.3	-29.2	16.5	1.90e-06	0	43	0	595591168	30	13954
2026-01-21 21:18:57.96	207.01	10.64	-28.9	-28.8	16.8	3.80e-06	0	43	0	713031680	29	14128
2026-01-21 21:18:58.93	207.15	10.73	-28.6	-28.5	16.7	3.80e-06	0	43	0	822083584	29	13710
2026-01-21 21:18:59.90	207.28	10.82	-28.2	-28.0	17.0	0.00e+00	0	43	0	922746880	28	13761
2026-01-21 21:19:00.87	207.41	10.91	-27.9	-27.8	17.1	1.90e-06	0	43	0	1031798784	27	14154
2026-01-21 21:19:01.84	207.55	11.00	-27.5	-27.4	17.2	0.00e+00	0	43	0	1149239296	27	13534
2026-01-21 21:19:02.81	207.69	11.08	-27.4	-27.3	17.3	0.00e+00	0	43	0	1258291200	26	14134
2026-01-21 21:19:03.77	207.82	11.17	-27.3	-27.1	17.5	1.90e-06	0	43	0	1358954496	26	13949
2026-01-21 21:19:04.74	207.96	11.26	-27.3	-27.1	17.6	0.00e+00	0	43	0	1476395008	26	13926
2026-01-21 21:19:05.71	208.10	11.35	-27.1	-27.0	17.6	0.00e+00	0	43	0	1585446912	26	13659
2026-01-21 21:19:06.68	208.24	11.44	-27.0	-26.9	17.6	0.00e+00	0	43	0	1686110208	26	13521
2026-01-21 21:19:07.65	208.38	11.53	-26.9	-26.8	17.7	0.00e+00	0	43	0	1803550720	25	14130
2026-01-21 21:19:08.62	208.52	11.62	-27.0	-26.8	17.7	0.00e+00	0	43	0	1912602624	25	14230
2026-01-21 21:19:09.59	208.67	11.71	-27.0	-26.8	17.6	0.00e+00	0	43	0	2013265920	25	14261
2026-01-21 21:19:10.56	208.81	11.80	-26.9	-26.7	17.7	0.00e+00	0	43	0	2130706432	25	14043
2026-01-21 21:19:11.53	208.96	11.89	-26.8	-26.7	17.8	0.00e+00	0	43	0	2239758336	25	13962
2026-01-21 21:19:12.50	209.10	11.98	-26.8	-26.7	17.8	0.00e+00	0	43	0	2340421632	25	14014
2026-01-21 21:19:13.47	209.25	12.08	-26.8	-26.6	17.9	0.00e+00	0	43	0	2449473536	25	13908
2026-01-21 21:19:14.44	209.40	12.17	-26.7	-26.5	17.6	0.00e+00	0	43	0	2566914048	25	13781
2026-01-21 21:19:15.41	209.55	12.26	-26.6	-26.4	17.8	0.00e+00	0	43	0	2675965952	25	13556
2026-01-21 21:19:16.38	209.70	12.35	-26.7	-26.5	17.8	0.00e+00	0	43	0	2776629248	25	13753
2026-01-21 21:19:17.35	209.85	12.45	-26.7	-26.5	17.8	0.00e+00	0	43	0	2894069760	25	13720
2026-01-21 21:19:18.31	210.00	12.54	-26.5	-26.3	17.9	0.00e+00	0	44	0	3003121664	25	13435
2026-01-21 21:19:19.28	210.16	12.63	-26.5	-26.4	17.9	0.00e+00	0	43	0	3103784960	25	13495
2026-01-21 21:19:20.25	210.31	12.73	-26.6	-26.4	17.9	0.00e+00	0	43	0	3221225472	25	13577
2026-01-21 21:19:21.22	210.47	12.82	-26.5	-26.3	18.0	0.00e+00	0	44	0	3330277376	25	13444
2026-01-21 21:19:22.19	210.62	12.91	-26.5	-26.3	18.0	0.00e+00	0	44	0	3430940672	24	14191
2026-01-21 21:19:23.17	210.78	13.01	-26.4	-26.2	17.9	0.00e+00	0	44	0	3548381184	24	14108
2026-01-21 21:19:24.13	210.94	13.10	-26.4	-26.2	18.1	0.00e+00	0	44	0	3657433088	24	14013
2026-01-21 21:19:25.11	211.10	13.20	-26.2	-26.0	18.2	0.00e+00	0	44	0	3766484992	24	13771
2026-01-21 21:19:26.08	211.27	13.29	-26.2	-26.0	18.2	0.00e+00	0	44	0	3867148288	24	13733
2026-01-21 21:19:27.05	211.43	13.39	-26.3	-26.2	18.2	0.00e+00	0	43	0	3984588800	24	14004
2026-01-21 21:19:28.03	211.60	13.49	-26.2	-26.0	18.2	0.00e+00	0	44	0	4093640704	24	13722
2026-01-21 21:19:29.00	211.76	13.58	-26.1	-25.9	18.2	0.00e+00	0	44	0	4194304000	24	13564
2026-01-21 21:19:29.97	211.93	13.68	-26.2	-26.0	18.2	0.00e+00	0	43	0	4311744512	24	13701
2026-01-21 21:19:30.94	212.10	13.78	-26.1	-26.0	18.2	0.00e+00	0	43	0	4420796416	24	13640
2026-01-21 21:19:31.90	212.26	13.87	-26.1	-25.9	18.3	0.00e+00	0	43	0	4538236928	24	13587
2026-01-21 21:19:32.87	212.43	13.97	-26.1	-26.0	18.2	0.00e+00	0	44	0	4638900224	24	13671
2026-01-21 21:19:33.84	212.61	14.07	-26.1	-25.9	18.3	0.00e+00	0	44	0	4747952128	24	13594
2026-01-21 21:19:34.81	212.78	14.17	-25.8	-25.6	18.3	0.00e+00	0	44	0	4857004032	23	13861
2026-01-21 21:19:35.78	212.95	14.27	-25.8	-25.7	18.3	0.00e+00	0	44	0	4957667328	23	13992
2026-01-21 21:19:36.75	213.13	14.36	-25.9	-25.8	18.3	0.00e+00	0	43	0	5075107840	23	14129
2026-01-21 21:19:37.72	213.31	14.46	-25.7	-25.5	18.4	0.00e+00	0	44	0	5184159744	23	13765
2026-01-21 21:19:38.69	213.49	14.56	-25.7	-25.6	18.2	0.00e+00	0	44	0	5284823040	23	13816
2026-01-21 21:19:39.66	213.67	14.66	-25.8	-25.7	18.2	0.00e+00	0	43	0	5402263552	23	13963
2026-01-21 21:19:40.63	213.85	14.76	-25.8	-25.6	18.2	0.00e+00	0	44	0	5511315456	23	13927
2026-01-21 21:19:41.60	214.03	14.86	-25.7	-25.5	18.4	0.00e+00	0	44	0	5628755968	23	13773
2026-01-21 21:19:42.57	214.21	14.96	-25.8	-25.6	18.4	0.00e+00	0	43	0	5729419264	23	13903
2026-01-21 21:19:43.54	214.40	15.06	-25.6	-25.4	18.5	0.00e+00	0	44	0	5838471168	23	13612
2026-01-21 21:19:44.50	214.58	15.16	-25.5	-25.4	18.5	0.00e+00	0	44	0	5955911680	23	13486
2026-01-21 21:19:45.48	214.78	15.27	-25.6	-25.4	18.5	0.00e+00	0	44	0	6056574976	22	14372
2026-01-21 21:19:46.45	214.97	15.37	-25.6	-25.4	18.5	0.00e+00	0	44	0	6165626880	22	14342
2026-01-21 21:19:47.41	215.15	15.47	-25.6	-25.4	18.3	0.00e+00	0	44	0	6274678784	22	14407
2026-01-21 21:19:48.39	215.35	15.57	-25.3	-25.2	18.4	0.00e+00	0	44	0	6375342080	22	13999
2026-01-21 21:19:49.36	215.54	15.67	-25.3	-25.1	18.6	0.00e+00	0	44	0	6492782592	22	13885
2026-01-21 21:19:50.33	215.74	15.78	-25.4	-25.2	18.5	0.00e+00	0	44	0	6601834496	22	14026
2026-01-21 21:19:51.30	215.94	15.88	-25.4	-25.2	18.5	0.00e+00	0	44	0	6719275008	22	14058
2026-01-21 21:19:52.27	216.14	15.98	-25.3	-25.2	18.5	0.00e+00	0	44	0	6819938304	22	13963
2026-01-21 21:19:53.24	216.34	16.09	-25.3	-25.2	18.6	0.00e+00	0	44	0	6928990208	22	13960
2026-01-21 21:19:54.21	216.54	16.19	-25.1	-25.0	18.6	0.00e+00	0	44	0	7046430720	22	13697
2026-01-21 21:19:55.18	216.74	16.29	-25.2	-25.0	18.6	0.00e+00	0	44	0	7147094016	22	13750
2026-01-21 21:19:56.15	216.95	16.40	-25.1	-24.9	18.6	0.00e+00	0	44	0	7256145920	22	13616
2026-01-21 21:19:57.12	217.15	16.50	-25.0	-24.9	18.6	0.00e+00	0	44	0	7373586432	22	13519
2026-01-21 21:19:58.08	217.36	16.61	-25.1	-24.9	18.7	0.00e+00	0	44	0	7474249728	22	13596
2026-01-21 21:19:59.05	217.57	16.71	-24.9	-24.7	18.6	0.00e+00	0	44	0	7583301632	21	14100
2026-01-21 21:20:00.02	217.78	16.82	-24.8	-24.7	18.6	0.00e+00	0	44	0	7692353536	21	14008
2026-01-21 21:20:01.00	218.00	16.92	-24.8	-24.7	18.6	0.00e+00	0	44	0	7793016832	21	14003
2026-01-21 21:20:01.97	218.21	17.03	-25.0	-24.8	18.6	0.00e+00	0	44	0	7910457344	21	14263
2026-01-21 21:20:02.93	218.43	17.13	-24.8	-24.7	18.7	0.00e+00	0	44	0	8019509248	21	14009
2026-01-21 21:20:03.90	218.64	17.24	-24.7	-24.6	18.8	0.00e+00	0	44	0	8136949760	21	13843
2026-01-21 21:20:04.87	218.86	17.34	-24.8	-24.7	18.8	0.00e+00	0	44	0	8237613056	21	13975
2026-01-21 21:20:05.85	219.09	17.45	-24.9	-24.7	18.8	0.00e+00	0	44	0	8346664960	21	14055
2026-01-21 21:20:06.82	219.31	17.56	-24.7	-24.5	18.8	0.00e+00	0	44	0	8464105472	21	13729
2026-01-21 21:20:07.79	219.54	17.67	-24.6	-24.5	18.8	0.00e+00	0	44	0	8564768768	21	13666
2026-01-21 21:20:08.75	219.76	17.77	-24.6	-24.4	18.8	0.00e+00	0	44	0	8673820672	21	13604
2026-01-21 21:20:09.72	219.99	17.88	-24.4	-24.3	18.9	0.00e+00	0	44	0	8782872576	20	14154
2026-01-21 21:20:10.69	220.22	17.99	-24.4	-24.3	18.8	0.00e+00	0	44	0	8891924480	20	14176
2026-01-21 21:20:11.66	220.46	18.09	-24.4	-24.3	18.8	0.00e+00	0	44	0	9000976384	20	14135
2026-01-21 21:20:12.63	220.69	18.20	-24.4	-24.2	18.7	0.00e+00	0	44	0	9110028288	20	14100
2026-01-21 21:20:13.60	220.93	18.31	-24.3	-24.1	18.8	0.00e+00	0	44	0	9227468800	20	13868
2026-01-21 21:20:14.58	221.17	18.42	-24.1	-23.9	18.9	0.00e+00	0	44	0	9328132096	20	13598
2026-01-21 21:20:15.55	221.41	18.53	-24.3	-24.1	18.8	0.00e+00	0	44	0	9437184000	20	13894
2026-01-21 21:20:16.52	221.65	18.63	-24.4	-24.2	18.9	0.00e+00	0	44	0	9554624512	20	14020
2026-01-21 21:20:17.49	221.89	18.74	-24.4	-24.2	18.8	0.00e+00	0	44	0	9655287808	20	14066
2026-01-21 21:20:18.46	222.14	18.85	-24.4	-24.2	18.8	0.00e+00	0	44	0	9764339712	20	14043
2026-01-21 21:20:19.43	222.39	18.96	-24.2	-24.0	18.8	0.00e+00	0	44	0	9881780224	20	13774
2026-01-21 21:20:20.40	222.64	19.07	-24.0	-23.8	18.8	0.00e+00	0	44	0	9982443520	20	13465
2026-01-21 21:20:21.37	222.89	19.18	-24.1	-23.9	18.8	0.00e+00	0	44	0	10091495424	20	13527
2026-01-21 21:20:22.34	223.14	19.29	-24.0	-23.8	18.9	0.00e+00	0	44	0	10200547328	20	13442
2026-01-21 21:20:23.31	223.40	19.40	-24.0	-23.8	18.9	0.00e+00	0	44	0	10317987840	19	14240
2026-01-21 21:20:24.28	223.66	19.51	-24.0	-23.9	18.9	0.00e+00	0	44	0	10418651136	19	14322
2026-01-21 21:20:25.25	223.92	19.62	-24.1	-24.0	18.9	0.00e+00	0	44	0	10527703040	19	14443
2026-01-21 21:20:26.21	224.18	19.72	-24.2	-24.0	18.9	0.00e+00	0	44	0	10645143552	19	14523
2026-01-21 21:20:27.19	224.44	19.83	-24.2	-24.1	18.9	0.00e+00	0	44	0	10745806848	19	14615
2026-01-21 21:20:28.16	224.71	19.94	-24.0	-23.8	18.9	0.00e+00	0	44	0	10854858752	19	14191
2026-01-21 21:20:29.13	224.98	20.05	-23.9	-23.8	18.8	0.00e+00	0	44	0	10972299264	19	14137
2026-01-21 21:20:30.09	225.25	20.16	-23.8	-23.6	18.9	0.00e+00	0	44	0	11072962560	19	13901
2026-01-21 21:20:31.06	225.52	20.27	-23.8	-23.6	18.9	0.00e+00	0	44	0	11182014464	19	13860
2026-01-21 21:20:32.03	225.79	20.38	-23.8	-23.7	19.0	0.00e+00	0	44	0	11299454976	19	13954
2026-01-21 21:20:33.00	226.07	20.49	-23.9	-23.8	18.9	0.00e+00	0	44	0	11400118272	19	14162
2026-01-21 21:20:33.97	226.35	20.60	-23.7	-23.5	18.9	0.00e+00	0	44	0	11509170176	19	13753
2026-01-21 21:20:34.94	226.63	20.71	-23.7	-23.5	18.9	0.00e+00	0	44	0	11618222080	19	13750
2026-01-21 21:20:35.91	226.91	20.82	-23.7	-23.5	18.8	0.00e+00	0	44	0	11735662592	19	13742
2026-01-21 21:20:36.88	227.20	20.93	-23.6	-23.4	18.9	0.00e+00	0	44	0	11836325888	19	13572
2026-01-21 21:20:37.85	227.49	21.04	-23.7	-23.5	18.8	0.00e+00	0	44	0	11945377792	19	13713
2026-01-21 21:20:38.82	227.78	21.15	-23.7	-23.6	18.8	0.00e+00	0	44	0	12062818304	19	13808
2026-01-21 21:20:39.79	228.07	21.25	-23.6	-23.5	18.8	0.00e+00	0	44	0	12163481600	19	13637
2026-01-21 21:20:40.76	228.37	21.36	-23.4	-23.2	18.8	0.00e+00	0	44	0	12272533504	18	14050
2026-01-21 21:20:41.73	228.66	21.47	-23.4	-23.3	18.7	0.00e+00	0	44	0	12389974016	18	14113
2026-01-21 21:20:42.70	228.96	21.58	-23.4	-23.2	18.7	0.00e+00	0	44	0	12499025920	18	14086
2026-01-21 21:20:43.67	229.26	21.69	-23.4	-23.2	18.7	0.00e+00	0	44	0	12599689216	18	14081
2026-01-21 21:20:44.65	229.57	21.80	-23.3	-23.2	18.7	0.00e+00	0	44	0	12717129728	18	13979
2026-01-21 21:20:45.62	229.88	21.91	-23.5	-23.3	18.6	0.00e+00	0	44	0	12826181632	18	14221
2026-01-21 21:20:46.59	230.19	22.01	-23.4	-23.2	18.7	0.00e+00	0	44	0	12926844928	18	14008
2026-01-21 21:20:47.56	230.50	22.12	-23.4	-23.2	18.8	0.00e+00	0	44	0	13035896832	18	14085
2026-01-21 21:20:48.52	230.81	22.23	-23.4	-23.2	18.6	0.00e+00	0	44	0	13153337344	18	14009
2026-01-21 21:20:49.50	231.13	22.34	-23.3	-23.2	18.6	0.00e+00	0	44	0	13254000640	18	13952
2026-01-21 21:20:50.47	231.44	22.44	-23.4	-23.2	18.7	0.00e+00	0	44	0	13363052544	18	14009
2026-01-21 21:20:51.44	231.77	22.55	-23.2	-23.0	18.5	0.00e+00	0	44	0	13480493056	18	13778
2026-01-21 21:20:52.40	232.09	22.66	-23.2	-23.0	18.3	0.00e+00	0	44	0	13589544960	18	13710
2026-01-21 21:20:53.38	232.41	22.76	-23.2	-23.0	18.3	0.00e+00	0	44	0	13690208256	18	13756
2026-01-21 21:20:54.35	232.74	22.87	-23.1	-22.9	18.3	0.00e+00	0	44	0	13807648768	18	13549
2026-01-21 21:20:55.32	233.07	22.97	-23.1	-22.9	18.2	0.00e+00	0	44	0	13916700672	18	13630
2026-01-21 21:20:56.30	233.41	23.08	-23.1	-22.9	18.1	0.00e+00	0	44	0	14017363968	18	13594
2026-01-21 21:20:57.26	233.74	23.18	-23.0	-22.9	18.2	0.00e+00	0	44	0	14126415872	18	13490
2026-01-21 21:20:58.23	234.08	23.29	-23.1	-22.9	18.3	0.00e+00	0	44	0	14243856384	18	13617
2026-01-21 21:20:59.21	234.42	23.39	-23.0	-22.8	18.2	0.00e+00	0	44	0	14352908288	18	13400
2026-01-21 21:21:00.17	234.76	23.49	-22.8	-22.6	18.2	0.00e+00	0	44	0	14453571584	17	13945
2026-01-21 21:21:01.15	235.11	23.60	-22.8	-22.6	18.2	0.00e+00	0	44	0	14571012096	17	13940
2026-01-21 21:21:02.11	235.45	23.70	-22.8	-22.7	17.9	0.00e+00	0	44	0	14680064000	17	13987
2026-01-21 21:21:03.08	235.80	23.80	-22.8	-22.6	18.1	0.00e+00	0	44	0	14780727296	17	13901
2026-01-21 21:21:04.05	236.16	23.90	-22.8	-22.7	18.0	0.00e+00	0	44	0	14898167808	17	13959
2026-01-21 21:21:05.02	236.51	24.00	-22.7	-22.6	17.8	0.00e+00	0	44	0	15007219712	17	13807
2026-01-21 21:21:05.99	236.87	24.10	-22.8	-22.7	17.5	0.00e+00	0	44	0	15107883008	17	13990
2026-01-21 21:21:06.97	237.23	24.20	-22.8	-22.6	17.5	0.00e+00	0	44	0	15225323520	17	13904
2026-01-21 21:21:07.93	237.59	24.30	-22.6	-22.5	17.6	0.00e+00	0	44	0	15334375424	17	13643
2026-01-21 21:21:08.90	237.95	24.40	-22.6	-22.4	17.7	0.00e+00	0	44	0	15443427328	17	13564
2026-01-21 21:21:09.88	238.32	24.50	-22.7	-22.5	17.6	0.00e+00	0	44	0	15544090624	17	13770
2026-01-21 21:21:10.84	238.69	24.59	-22.6	-22.4	17.4	0.00e+00	0	44	0	15661531136	17	13543
2026-01-21 21:21:11.81	239.06	24.69	-22.5	-22.3	17.4	0.00e+00	0	44	0	15770583040	17	13458
2026-01-21 21:21:12.78	239.44	24.78	-22.5	-22.3	17.5	0.00e+00	0	44	0	15871246336	16	14178
2026-01-21 21:21:13.75	239.81	24.88	-22.5	-22.3	17.2	0.00e+00	0	44	0	15988686848	16	14172
2026-01-21 21:21:14.72	240.19	24.97	-22.4	-22.2	17.1	0.00e+00	0	44	0	16097738752	16	14010
2026-01-21 21:21:15.69	240.58	25.06	-22.4	-22.2	17.4	0.00e+00	0	44	0	16198402048	16	14105
2026-01-21 21:21:16.66	240.96	25.15	-22.4	-22.2	17.2	0.00e+00	0	44	0	16315842560	16	14025
2026-01-21 21:21:17.63	241.35	25.24	-22.4	-22.2	16.9	0.00e+00	0	44	0	16424894464	16	14089
2026-01-21 21:21:18.60	241.74	25.33	-22.3	-22.1	16.9	0.00e+00	0	44	0	16533946368	16	13936
2026-01-21 21:21:19.58	242.13	25.42	-22.2	-22.1	16.9	0.00e+00	0	44	0	16642998272	16	13811
2026-01-21 21:21:20.55	242.53	25.51	-22.2	-22.0	16.9	0.00e+00	0	44	0	16752050176	16	13782
2026-01-21 21:21:21.52	242.92	25.60	-22.2	-22.0	17.1	0.00e+00	0	44	0	16861102080	16	13783
2026-01-21 21:21:22.49	243.32	25.69	-22.2	-22.0	16.8	0.00e+00	0	44	0	16961765376	16	13723
2026-01-21 21:21:23.45	243.72	25.77	-22.1	-21.9	17.2	0.00e+00	0	44	0	17079205888	16	13615
2026-01-21 21:21:24.42	244.12	25.85	-22.1	-22.0	17.0	0.00e+00	0	44	0	17188257792	16	13642
2026-01-21 21:21:25.39	244.53	25.94	-22.1	-21.9	17.1	0.00e+00	0	44	0	17288921088	16	13594
2026-01-21 21:21:26.36	244.93	26.02	-22.1	-21.9	17.0	0.00e+00	0	44	0	17406361600	16	13571
2026-01-21 21:21:27.34	245.35	26.10	-22.1	-21.9	16.7	0.00e+00	0	44	0	17515413504	16	13537
2026-01-21 21:21:28.31	245.76	26.18	-22.1	-22.0	16.9	0.00e+00	0	44	0	17632854016	16	13655
2026-01-21 21:21:29.28	246.17	26.26	-22.1	-21.9	16.7	0.00e+00	0	44	0	17733517312	16	13626
2026-01-21 21:21:30.25	246.59	26.34	-22.0	-21.9	16.8	0.00e+00	0	44	0	17842569216	16	13488
2026-01-21 21:21:31.22	247.01	26.41	-21.8	-21.7	16.7	0.00e+00	0	44	0	17951621120	15	13983
2026-01-21 21:21:32.20	247.44	26.49	-21.9	-21.8	16.6	0.00e+00	0	44	0	18060673024	15	14137
2026-01-21 21:21:33.17	247.86	26.56	-21.9	-21.8	17.0	0.00e+00	0	44	0	18169724928	15	14125
2026-01-21 21:21:34.14	248.28	26.63	-21.9	-21.7	16.9	0.00e+00	0	44	0	18278776832	15	14111
2026-01-21 21:21:35.11	248.71	26.70	-21.9	-21.8	17.0	0.00e+00	0	44	0	18396217344	15	14148
2026-01-21 21:21:36.08	249.14	26.77	-21.8	-21.7	16.9	0.00e+00	0	44	0	18496880640	15	13996
2026-01-21 21:21:37.05	249.57	26.84	-22.0	-21.8	16.6	0.00e+00	0	44	0	18605932544	15	14207
2026-01-21 21:21:38.02	250.00	26.91	-22.0	-21.9	17.0	0.00e+00	0	44	0	18723373056	15	14316
2026-01-21 21:21:38.99	250.44	26.97	-21.9	-21.7	17.1	0.00e+00	0	44	0	18824036352	15	14071
2026-01-21 21:21:39.96	250.88	27.04	-21.9	-21.7	17.2	0.00e+00	0	44	0	18933088256	15	13984
2026-01-21 21:21:40.93	251.32	27.10	-21.9	-21.7	17.5	0.00e+00	0	44	0	19050528768	15	14036
2026-01-21 21:21:41.90	251.76	27.16	-21.9	-21.7	17.4	0.00e+00	0	44	0	19151192064	15	14040
2026-01-21 21:21:42.87	252.20	27.22	-21.8	-21.6	16.9	0.00e+00	0	44	0	19260243968	15	13850
2026-01-21 21:21:43.84	252.64	27.28	-21.8	-21.6	17.2	0.00e+00	0	44	0	19369295872	15	13855
2026-01-21 21:21:44.81	253.09	27.33	-21.7	-21.5	17.3	0.00e+00	0	44	0	19486736384	15	13719
2026-01-21 21:21:45.78	253.54	27.39	-21.7	-21.5	17.3	0.00e+00	0	44	0	19587399680	15	13779
2026-01-21 21:21:46.75	253.99	27.44	-21.7	-21.5	17.1	0.00e+00	0	44	0	19696451584	15	13754
2026-01-21 21:21:47.73	254.44	27.49	-21.7	-21.6	17.3	0.00e+00	0	44	0	19813892096	15	13799
2026-01-21 21:21:48.70	254.89	27.54	-21.7	-21.5	17.3	0.00e+00	0	44	0	19914555392	15	13715
2026-01-21 21:21:49.67	255.35	27.59	-21.7	-21.5	17.4	0.00e+00	0	44	0	20023607296	15	13722
2026-01-21 21:21:50.63	255.80	27.63	-21.7	-21.5	17.1	0.00e+00	0	44	0	20141047808	15	13766
2026-01-21 21:21:51.60	256.25	27.68	-21.7	-21.5	17.2	0.00e+00	0	44	0	20250099712	15	13770
2026-01-21 21:21:52.58	256.72	27.72	-21.6	-21.5	17.3	0.00e+00	0	44	0	20350763008	15	13637
2026-01-21 21:21:53.55	257.18	27.76	-21.7	-21.5	17.5	0.00e+00	0	44	0	20468203520	15	13692
2026-01-21 21:21:54.52	257.64	27.80	-21.7	-21.5	17.5	0.00e+00	0	44	0	20577255424	15	13759
2026-01-21 21:21:55.49	258.10	27.84	-21.5	-21.4	17.6	0.00e+00	0	44	0	20677918720	15	13504
2026-01-21 21:21:56.45	258.56	27.87	-21.6	-21.5	17.8	0.00e+00	0	44	0	20786970624	15	13646
2026-01-21 21:21:57.42	259.02	27.91	-21.6	-21.4	17.4	0.00e+00	0	44	0	20904411136	15	13596
2026-01-21 21:21:58.39	259.48	27.94	-21.6	-21.4	17.6	0.00e+00	0	44	0	21005074432	15	13629
2026-01-21 21:21:59.36	259.95	27.97	-21.5	-21.4	17.6	0.00e+00	0	44	0	21114126336	15	13539
2026-01-21 21:22:00.33	260.42	28.00	-21.6	-21.4	17.7	0.00e+00	0	44	0	21231566848	15	13586
2026-01-21 21:22:01.30	260.88	28.02	-21.5	-21.4	17.7	0.00e+00	0	44	0	21332230144	15	13517
2026-01-21 21:22:02.27	261.35	28.05	-21.6	-21.4	17.8	0.00e+00	0	44	0	21441282048	15	13601
2026-01-21 21:22:03.24	261.82	28.07	-21.6	-21.5	17.9	0.00e+00	0	44	0	21558722560	15	13642
2026-01-21 21:22:04.21	262.29	28.09	-21.6	-21.5	17.9	0.00e+00	0	44	0	21667774464	15	13682
2026-01-21 21:22:05.18	262.76	28.11	-21.6	-21.4	18.1	0.00e+00	0	44	0	21768437760	15	13618
2026-01-21 21:22:06.15	263.23	28.12	-21.7	-21.5	18.2	0.00e+00	0	44	0	21885878272	15	13733
2026-01-21 21:22:07.12	263.70	28.14	-21.7	-21.6	18.3	0.00e+00	0	44	0	21994930176	15	13799
2026-01-21 21:22:08.09	264.18	28.15	-21.6	-21.5	18.4	0.00e+00	0	44	0	22095593472	15	13685
2026-01-21 21:22:09.06	264.65	28.16	-21.7	-21.5	18.5	0.00e+00	0	44	0	22204645376	15	13766
2026-01-21 21:22:10.03	265.12	28.17	-21.7	-21.5	18.7	0.00e+00	0	44	0	22322085888	15	13722
2026-01-21 21:22:10.99	265.59	28.18	-21.7	-21.5	18.6	0.00e+00	0	44	0	22422749184	15	13785
2026-01-21 21:22:11.96	266.06	28.18	-21.8	-21.6	18.8	0.00e+00	0	44	0	22531801088	15	13887
2026-01-21 21:22:12.93	266.53	28.19	-21.9	-21.7	18.7	0.00e+00	0	44	0	22649241600	15	14059
2026-01-21 21:22:13.90	267.01	28.19	-21.7	-21.6	18.8	0.00e+00	0	44	0	22749904896	15	13826
2026-01-21 21:22:14.87	267.48	28.19	-21.8	-21.7	18.9	0.00e+00	0	44	0	22858956800	15	13997
2026-01-21 21:22:15.84	267.95	28.18	-21.8	-21.6	19.2	0.00e+00	0	44	0	22976397312	15	13845
2026-01-21 21:22:16.81	268.43	28.18	-21.8	-21.6	19.3	0.00e+00	0	44	0	23085449216	15	13912
2026-01-21 21:22:17.78	268.90	28.17	-21.8	-21.6	19.1	0.00e+00	0	44	0	23186112512	15	13906
2026-01-21 21:22:18.75	269.37	28.16	-21.8	-21.7	19.2	0.00e+00	0	44	0	23303553024	15	13966
2026-01-21 21:22:19.73	269.85	28.15	-21.9	-21.7	19.2	0.00e+00	0	44	0	23412604928	15	14015
2026-01-21 21:22:20.70	270.32	28.14	-21.9	-21.8	19.3	0.00e+00	0	44	0	23521656832	15	14167
2026-01-21 21:22:21.68	270.79	28.13	-21.9	-21.7	19.3	0.00e+00	0	44	0	23622320128	15	14087
2026-01-21 21:22:22.65	271.27	28.11	-21.9	-21.8	19.1	0.00e+00	0	44	0	23739760640	15	14123
2026-01-21 21:22:23.61	271.73	28.09	-21.9	-21.8	19.3	0.00e+00	0	44	0	23848812544	15	14145
2026-01-21 21:22:24.58	272.20	28.07	-22.0	-21.9	19.2	0.00e+00	0	44	0	23949475840	15	14281
2026-01-21 21:22:25.55	272.67	28.05	-22.0	-21.8	19.2	0.00e+00	0	44	0	24066916352	15	14164
2026-01-21 21:22:26.52	273.14	28.03	-22.1	-21.9	19.3	0.00e+00	0	44	0	24175968256	15	14344
2026-01-21 21:22:27.49	273.61	28.00	-22.0	-21.9	19.2	0.00e+00	0	44	0	24276631552	15	14309
2026-01-21 21:22:28.46	274.07	27.97	-22.0	-21.8	19.2	0.00e+00	0	44	0	24394072064	15	14201
2026-01-21 21:22:29.43	274.54	27.94	-22.1	-21.9	19.4	0.00e+00	0	44	0	24503123968	15	14379
2026-01-21 21:22:30.40	275.00	27.91	-22.1	-21.9	19.4	0.00e+00	0	44	0	24612175872	15	14345
2026-01-21 21:22:31.38	275.47	27.88	-22.1	-21.9	19.2	0.00e+00	0	44	0	24712839168	15	14344
2026-01-21 21:22:32.35	275.93	27.84	-22.1	-21.9	19.3	0.00e+00	0	44	0	24830279680	15	14401
2026-01-21 21:22:33.32	276.39	27.80	-22.1	-21.9	19.3	0.00e+00	0	44	0	24939331584	15	14396
2026-01-21 21:22:34.28	276.85	27.77	-22.1	-21.9	19.4	0.00e+00	0	44	0	25039994880	15	14351
2026-01-21 21:22:35.25	277.31	27.73	-22.1	-21.9	19.3	0.00e+00	0	44	0	25157435392	15	14372
2026-01-21 21:22:36.22	277.77	27.68	-22.1	-22.0	19.2	0.00e+00	0	44	0	25266487296	15	14448
2026-01-21 21:22:37.19	278.22	27.64	-22.2	-22.1	19.2	0.00e+00	0	44	0	25367150592	15	14655
2026-01-21 21:22:38.16	278.68	27.59	-22.2	-22.1	19.1	0.00e+00	0	44	0	25484591104	15	14625
2026-01-21 21:22:39.13	279.13	27.55	-22.2	-22.0	19.2	0.00e+00	0	44	0	25593643008	15	14601
2026-01-21 21:22:40.09	279.58	27.50	-22.2	-22.0	19.2	0.00e+00	0	44	0	25694306304	15	14506
2026-01-21 21:22:41.06	280.03	27.45	-22.2	-22.0	19.3	0.00e+00	0	44	0	25811746816	15	14601
2026-01-21 21:22:42.03	280.48	27.39	-22.2	-22.0	19.1	0.00e+00	0	44	0	25920798720	15	14513
2026-01-21 21:22:43.01	280.93	27.34	-22.2	-22.0	19.2	0.00e+00	0	44	0	26029850624	15	14596
2026-01-21 21:22:43.98	281.38	27.28	-22.2	-22.0	19.2	0.00e+00	0	44	0	26130513920	15	14540
2026-01-21 21:22:44.95	281.82	27.23	-22.2	-22.1	19.3	0.00e+00	0	44	0	26247954432	15	14621
2026-01-21 21:22:45.91	282.26	27.17	-22.2	-22.0	19.2	0.00e+00	0	44	0	26357006336	15	14590
2026-01-21 21:22:46.88	282.70	27.11	-22.2	-22.1	19.2	0.00e+00	0	44	0	26457669632	15	14658
2026-01-21 21:22:47.85	283.14	27.05	-22.3	-22.1	19.3	0.00e+00	0	44	0	26575110144	15	14750
2026-01-21 21:22:48.82	283.58	26.98	-22.3	-22.1	19.2	0.00e+00	0	44	0	26684162048	15	14768
2026-01-21 21:22:49.79	284.01	26.92	-22.3	-22.1	19.3	0.00e+00	0	44	0	26784825344	15	14762
2026-01-21 21:22:50.76	284.45	26.85	-22.3	-22.2	19.2	0.00e+00	0	44	0	26902265856	15	14829
2026-01-21 21:22:51.73	284.88	26.78	-22.4	-22.2	19.2	0.00e+00	0	44	0	27011317760	15	14905
2026-01-21 21:22:52.70	285.31	26.71	-22.4	-22.3	19.3	0.00e+00	0	44	0	27111981056	15	15012
2026-01-21 21:22:53.66	285.73	26.65	-22.4	-22.2	19.3	0.00e+00	0	44	0	27229421568	15	14836
2026-01-21 21:22:54.63	286.15	26.57	-22.4	-22.2	19.3	0.00e+00	0	44	0	27338473472	15	14892
2026-01-21 21:22:55.61	286.58	26.50	-22.4	-22.2	19.4	0.00e+00	0	44	0	27447525376	15	14873
2026-01-21 21:22:56.57	287.00	26.43	-22.4	-22.2	19.4	0.00e+00	0	44	0	27548188672	15	14939
2026-01-21 21:22:57.54	287.42	26.35	-22.4	-22.3	19.3	0.00e+00	0	44	0	27665629184	15	14962
2026-01-21 21:22:58.51	287.83	26.27	-22.5	-22.3	19.5	0.00e+00	0	44	0	27774681088	15	15016
2026-01-21 21:22:59.48	288.25	26.20	-22.5	-22.3	19.6	0.00e+00	0	44	0	27875344384	15	15016
2026-01-21 21:23:00.45	288.66	26.12	-22.4	-22.2	19.4	0.00e+00	0	44	0	27992784896	15	14893
2026-01-21 21:23:01.42	289.07	26.04	-22.5	-22.3	19.5	0.00e+00	0	44	0	28101836800	15	15064
2026-01-21 21:23:02.39	289.48	25.95	-22.6	-22.4	19.6	0.00e+00	0	44	0	28202500096	15	15236
2026-01-21 21:23:03.36	289.88	25.87	-22.6	-22.4	19.6	0.00e+00	0	44	0	28319940608	15	15259
2026-01-21 21:23:04.32	290.28	25.79	-22.5	-22.3	19.5	0.00e+00	0	44	0	28428992512	15	15097
2026-01-21 21:23:05.30	290.69	25.70	-22.6	-22.4	19.5	0.00e+00	0	44	0	28529655808	15	15229
2026-01-21 21:23:06.26	291.08	25.62	-22.7	-22.5	19.5	0.00e+00	0	44	0	28647096320	15	15425
2026-01-21 21:23:07.23	291.48	25.53	-22.8	-22.6	19.6	0.00e+00	0	44	0	28756148224	16	14695
2026-01-21 21:23:08.21	291.88	25.44	-22.8	-22.6	19.5	0.00e+00	0	44	0	28865200128	16	14759
2026-01-21 21:23:09.18	292.27	25.35	-22.8	-22.6	19.6	0.00e+00	0	44	0	28965863424	16	14689
2026-01-21 21:23:10.15	292.66	25.26	-22.8	-22.6	19.6	0.00e+00	0	44	0	29083303936	16	14772
2026-01-21 21:23:11.12	293.04	25.17	-22.9	-22.7	19.4	0.00e+00	0	44	0	29192355840	16	14857
2026-01-21 21:23:12.09	293.43	25.08	-22.9	-22.7	19.4	0.00e+00	0	44	0	29293019136	16	14924
2026-01-21 21:23:13.06	293.81	24.99	-22.9	-22.7	19.5	0.00e+00	0	44	0	29410459648	16	14860
2026-01-21 21:23:14.03	294.19	24.90	-22.9	-22.8	19.6	0.00e+00	0	44	0	29519511552	16	14985
2026-01-21 21:23:14.99	294.56	24.80	-23.0	-22.8	19.6	0.00e+00	0	44	0	29620174848	16	15037
2026-01-21 21:23:15.97	294.94	24.71	-23.0	-22.9	19.5	0.00e+00	0	44	0	29737615360	16	15152
2026-01-21 21:23:16.93	295.31	24.61	-23.0	-22.8	19.6	0.00e+00	0	44	0	29846667264	16	15082
2026-01-21 21:23:17.91	295.68	24.52	-23.0	-22.8	19.7	0.00e+00	0	44	0	29955719168	16	15097
2026-01-21 21:23:18.88	296.05	24.42	-23.0	-22.9	19.6	0.00e+00	0	44	0	30056382464	16	15155
2026-01-21 21:23:19.86	296.42	24.32	-23.2	-23.0	19.6	0.00e+00	0	44	0	30173822976	16	15356
2026-01-21 21:23:20.83	296.78	24.22	-23.0	-22.8	19.6	0.00e+00	0	44	0	30282874880	16	15051
2026-01-21 21:23:21.80	297.14	24.12	-23.1	-23.0	19.5	0.00e+00	0	44	0	30400315392	16	15313
2026-01-21 21:23:22.77	297.50	24.02	-23.1	-22.9	19.6	0.00e+00	0	44	0	30500978688	16	15235
2026-01-21 21:23:23.74	297.85	23.92	-23.2	-23.0	19.6	0.00e+00	0	44	0	30610030592	16	15405
2026-01-21 21:23:24.71	298.21	23.82	-23.2	-23.1	19.5	0.00e+00	0	44	0	30727471104	17	14618
2026-01-21 21:23:25.68	298.56	23.72	-23.2	-23.1	19.5	0.00e+00	0	44	0	30828134400	17	14626
2026-01-21 21:23:26.66	298.91	23.62	-23.4	-23.2	19.5	0.00e+00	0	44	0	30937186304	17	14914
2026-01-21 21:23:27.62	299.25	23.52	-23.3	-23.1	19.5	0.00e+00	0	44	0	31054626816	17	14761
2026-01-21 21:23:28.59	299.59	23.41	-23.3	-23.1	19.4	0.00e+00	0	44	0	31155290112	17	14764
2026-01-21 21:23:29.56	299.93	23.31	-23.4	-23.3	19.4	0.00e+00	0	44	0	31264342016	17	14989
2026-01-21 21:23:30.53	300.27	23.21	-23.3	-23.2	19.2	0.00e+00	0	44	0	31373393920	17	14814
2026-01-21 21:23:31.51	300.61	23.10	-23.4	-23.2	19.2	0.00e+00	0	44	0	31490834432	17	14858
2026-01-21 21:23:32.47	300.94	23.00	-23.5	-23.3	19.1	0.00e+00	0	44	0	31591497728	17	15119
2026-01-21 21:23:33.44	301.27	22.89	-23.5	-23.3	19.1	0.00e+00	0	44	0	31700549632	17	15025
2026-01-21 21:23:34.42	301.60	22.79	-23.5	-23.3	19.0	0.00e+00	0	44	0	31817990144	17	15043
2026-01-21 21:23:35.39	301.92	22.68	-23.5	-23.3	19.1	0.00e+00	0	44	0	31918653440	17	15113
2026-01-21 21:23:36.36	302.25	22.58	-23.5	-23.3	19.0	0.00e+00	0	44	0	32027705344	17	15103
2026-01-21 21:23:37.33	302.57	22.47	-23.6	-23.4	19.0	0.00e+00	0	44	0	32145145856	17	15211
2026-01-21 21:23:38.30	302.89	22.36	-23.7	-23.5	18.8	0.00e+00	0	44	0	32245809152	17	15391
2026-01-21 21:23:39.26	303.20	22.26	-23.7	-23.6	18.8	0.00e+00	0	44	0	32354861056	18	14635
2026-01-21 21:23:40.23	303.51	22.15	-23.7	-23.6	18.8	0.00e+00	0	44	0	32463912960	18	14640
2026-01-21 21:23:41.20	303.82	22.04	-23.7	-23.6	18.8	0.00e+00	0	44	0	32581353472	18	14649
2026-01-21 21:23:42.17	304.13	21.94	-23.8	-23.6	18.5	0.00e+00	0	44	0	32682016768	18	14743
2026-01-21 21:23:43.14	304.44	21.83	-23.8	-23.6	18.6	0.00e+00	0	44	0	32791068672	18	14681
2026-01-21 21:23:44.11	304.74	21.72	-23.8	-23.7	18.8	0.00e+00	0	44	0	32908509184	18	14799
2026-01-21 21:23:45.08	305.04	21.61	-23.8	-23.7	18.6	0.00e+00	0	44	0	33009172480	18	14787
2026-01-21 21:23:46.05	305.34	21.50	-23.9	-23.8	18.7	0.00e+00	0	44	0	33118224384	18	14954
2026-01-21 21:23:47.02	305.64	21.39	-23.9	-23.7	18.7	0.00e+00	0	44	0	33235664896	18	14895
2026-01-21 21:23:47.99	305.94	21.29	-23.9	-23.7	18.4	0.00e+00	0	44	0	33336328192	18	14926
2026-01-21 21:23:48.96	306.23	21.18	-24.0	-23.9	18.4	0.00e+00	0	44	0	33445380096	18	15171
2026-01-21 21:23:49.93	306.52	21.07	-24.0	-23.8	18.6	0.00e+00	0	44	0	33562820608	18	15060
2026-01-21 21:23:50.90	306.81	20.96	-24.1	-23.9	18.4	0.00e+00	0	44	0	33663483904	18	15201
2026-01-21 21:23:51.87	307.09	20.85	-24.1	-23.9	18.3	0.00e+00	0	44	0	33772535808	18	15273
2026-01-21 21:23:52.84	307.38	20.74	-24.1	-23.9	18.4	0.00e+00	0	44	0	33881587712	18	15289
2026-01-21 21:23:53.81	307.66	20.63	-24.3	-24.1	18.3	0.00e+00	0	44	0	33999028224	19	14692
2026-01-21 21:23:54.78	307.94	20.52	-24.3	-24.1	18.5	0.00e+00	0	44	0	34099691520	19	14750
2026-01-21 21:23:55.75	308.21	20.41	-24.3	-24.1	18.3	0.00e+00	0	44	0	34208743424	19	14708
2026-01-21 21:23:56.72	308.49	20.30	-24.4	-24.2	18.1	0.00e+00	0	44	0	34326183936	19	14858
2026-01-21 21:23:57.69	308.76	20.20	-24.4	-24.2	18.3	0.00e+00	0	44	0	34426847232	19	14902
2026-01-21 21:23:58.66	309.03	20.09	-24.4	-24.2	18.2	0.00e+00	0	44	0	34535899136	19	14834
2026-01-21 21:23:59.62	309.30	19.98	-24.4	-24.2	18.4	0.00e+00	0	44	0	34653339648	19	14932
2026-01-21 21:24:00.60	309.57	19.87	-24.4	-24.3	18.2	0.00e+00	0	44	0	34754002944	19	14990
2026-01-21 21:24:01.57	309.83	19.76	-24.6	-24.4	18.3	0.00e+00	0	44	0	34863054848	19	15284
2026-01-21 21:24:02.54	310.09	19.65	-24.6	-24.4	18.0	0.00e+00	0	44	0	34980495360	19	15280
2026-01-21 21:24:03.51	310.36	19.54	-24.6	-24.4	18.2	0.00e+00	0	44	0	35089547264	19	15283
2026-01-21 21:24:04.48	310.61	19.43	-24.5	-24.4	17.9	0.00e+00	0	44	0	35190210560	19	15129
2026-01-21 21:24:05.45	310.87	19.32	-24.6	-24.4	18.0	0.00e+00	0	44	0	35299262464	19	15201
2026-01-21 21:24:06.42	311.12	19.21	-24.7	-24.5	17.7	0.00e+00	0	44	0	35416702976	19	15404
2026-01-21 21:24:07.39	311.38	19.11	-24.7	-24.5	17.9	0.00e+00	0	44	0	35517366272	19	15381
2026-01-21 21:24:08.35	311.62	19.00	-24.6	-24.4	17.6	0.00e+00	0	44	0	35626418176	20	14408
2026-01-21 21:24:09.33	311.87	18.89	-24.6	-24.4	17.5	0.00e+00	0	44	0	35743858688	20	14359
2026-01-21 21:24:10.30	312.12	18.78	-24.6	-24.5	17.6	0.00e+00	0	44	0	35844521984	20	14445
2026-01-21 21:24:11.27	312.36	18.67	-24.7	-24.5	17.2	0.00e+00	0	44	0	35953573888	20	14607
2026-01-21 21:24:12.24	312.61	18.56	-24.7	-24.6	17.5	0.00e+00	0	44	0	36071014400	20	14611
2026-01-21 21:24:13.21	312.85	18.46	-24.8	-24.6	17.1	0.00e+00	0	44	0	36180066304	20	14769
2026-01-21 21:24:14.18	313.09	18.35	-24.8	-24.6	17.3	0.00e+00	0	44	0	36280729600	20	14776
2026-01-21 21:24:15.15	313.32	18.24	-24.8	-24.7	17.4	0.00e+00	0	44	0	36398170112	20	14835
2026-01-21 21:24:16.11	313.55	18.13	-24.9	-24.7	17.2	0.00e+00	0	44	0	36507222016	20	14889
2026-01-21 21:24:17.08	313.79	18.03	-24.9	-24.7	17.3	0.00e+00	0	44	0	36607885312	20	14932
2026-01-21 21:24:18.05	314.02	17.92	-25.0	-24.8	17.6	0.00e+00	0	44	0	36716937216	20	15075
2026-01-21 21:24:19.03	314.25	17.81	-25.0	-24.8	17.4	0.00e+00	0	44	0	36834377728	20	15114
2026-01-21 21:24:20.00	314.48	17.70	-25.1	-25.0	17.5	0.00e+00	0	44	0	36943429632	20	15312
2026-01-21 21:24:20.97	314.70	17.60	-25.1	-24.9	17.6	0.00e+00	0	44	0	37044092928	20	15259
2026-01-21 21:24:21.94	314.93	17.49	-25.1	-24.9	17.5	0.00e+00	0	44	0	37161533440	20	15256
2026-01-21 21:24:22.90	315.15	17.39	-25.1	-25.0	17.4	0.00e+00	0	44	0	37270585344	20	15340
2026-01-21 21:24:23.87	315.37	17.28	-25.2	-25.0	17.4	0.00e+00	0	44	0	37371248640	20	15436
2026-01-21 21:24:24.84	315.59	17.17	-25.3	-25.1	17.6	0.00e+00	0	44	0	37488689152	21	14773
2026-01-21 21:24:25.81	315.80	17.07	-25.3	-25.1	19.5	0.00e+00	0	44	0	37597741056	21	14723
2026-01-21 21:24:26.78	316.02	16.96	-53.8	-56.2	6.2	0.00e+00	0	44	104	37648072704	78	19726
2026-01-21 21:24:27.75	316.23	16.86	-53.8	-56.1	6.2	0.00e+00	0	44	104	37648072704	78	19541
2026-01-21 21:24:28.72	316.44	16.75	-53.8	-56.0	6.2	0.00e+00	0	44	104	37648072704	78	19444
2026-01-21 21:24:29.69	316.65	16.65	-53.8	-56.1	6.2	0.00e+00	0	44	104	37648072704	78	19518
2026-01-21 21:24:30.66	316.86	16.54	-54.0	-56.1	6.2	0.00e+00	0	43	104	37648072704	78	19617
2026-01-21 21:24:31.63	317.07	16.44	-53.9	-56.1	6.2	0.00e+00	0	44	104	37648072704	78	19588
2026-01-21 21:24:32.61	317.28	16.34	-53.9	-56.1	6.2	0.00e+00	0	44	104	37648072704	78	19513
2026-01-21 21:24:33.58	317.48	16.23	-53.9	-56.1	6.2	0.00e+00	0	44	104	37648072704	78	19497
2026-01-21 21:24:34.55	317.68	16.13	-53.8	-56.0	6.2	0.00e+00	0	44	104	37648072704	78	19406
2026-01-21 21:24:35.52	317.88	16.03	-53.8	-56.0	6.2	0.00e+00	0	43	104	37648072704	78	19389
2026-01-21 21:24:36.49	318.08	15.92	-53.8	-56.0	6.2	0.00e+00	0	43	104	37648072704	78	19375
2026-01-21 21:24:37.46	318.28	15.82	-53.9	-56.0	6.2	0.00e+00	0	44	104	37648072704	78	19392
2026-01-21 21:24:38.42	318.47	15.72	-53.8	-56.0	6.2	0.00e+00	0	44	104	37648072704	78	19345
2026-01-21 21:24:39.40	318.67	15.62	-53.7	-55.9	6.2	0.00e+00	0	43	104	37648072704	78	19236
2026-01-21 21:24:40.37	318.86	15.51	-53.8	-56.0	6.2	0.00e+00	0	44	104	37648072704	78	19267
2026-01-21 21:24:41.33	319.05	15.41	-53.8	-55.9	6.2	0.00e+00	0	44	104	37648072704	78	19237
2026-01-21 21:24:42.30	319.24	15.31	-53.8	-55.9	6.2	0.00e+00	0	44	104	37648072704	78	19144
2026-01-21 21:24:43.27	319.43	15.21	-53.6	-55.9	6.2	0.00e+00	0	44	104	37648072704	78	19167
2026-01-21 21:24:44.24	319.62	15.11	-53.8	-55.9	6.2	0.00e+00	0	44	104	37648072704	78	19221
2026-01-21 21:24:45.21	319.81	15.01	-53.8	-55.9	6.2	0.00e+00	0	44	104	37648072704	78	19200
2026-01-21 21:24:46.18	319.99	14.91	-53.8	-55.9	6.2	0.00e+00	0	44	104	37648072704	78	19206
2026-01-21 21:24:47.15	320.17	14.81	-53.7	-55.9	6.2	0.00e+00	0	43	104	37648072704	78	19102
2026-01-21 21:24:48.12	320.35	14.71	-53.7	-55.9	6.2	0.00e+00	0	44	104	37648072704	78	19198
2026-01-21 21:24:49.08	320.53	14.61	-53.7	-55.9	6.2	0.00e+00	0	44	104	37648072704	78	19112
2026-01-21 21:24:50.06	320.71	14.51	-53.8	-55.9	6.2	0.00e+00	0	44	104	37648072704	78	19131
2026-01-21 21:24:51.02	320.89	14.41	-53.7	-55.9	6.2	0.00e+00	0	43	104	37648072704	78	19082
2026-01-21 21:24:51.99	321.07	14.31	-53.7	-55.9	6.2	0.00e+00	0	44	104	37648072704	78	19120
2026-01-21 21:24:52.96	321.24	14.22	-53.7	-55.9	6.2	0.00e+00	0	44	104	37648072704	78	19092
2026-01-21 21:24:53.93	321.41	14.12	-53.7	-55.9	6.2	0.00e+00	0	43	104	37648072704	78	19040
2026-01-21 21:24:54.90	321.59	14.02	-53.6	-55.8	6.2	0.00e+00	0	44	104	37648072704	78	19027
2026-01-21 21:24:55.87	321.76	13.92	-53.7	-55.8	6.2	0.00e+00	0	44	104	37648072704	78	19014
2026-01-21 21:24:56.85	321.93	13.82	-53.7	-55.8	6.2	0.00e+00	0	44	104	37648072704	78	18994
2026-01-21 21:24:57.82	322.10	13.73	-53.7	-55.9	6.2	0.00e+00	0	44	104	37648072704	78	19052
2026-01-21 21:24:58.79	322.26	13.63	-53.6	-55.8	6.2	0.00e+00	0	44	104	37648072704	78	18935
2026-01-21 21:24:59.75	322.43	13.54	-53.7	-55.8	6.2	0.00e+00	0	44	104	37648072704	78	19011
2026-01-21 21:25:00.72	322.59	13.44	-53.6	-55.8	6.2	0.00e+00	0	43	104	37648072704	78	18885
2026-01-21 21:25:01.69	322.76	13.34	-53.7	-55.8	6.2	0.00e+00	0	43	104	37648072704	78	18940
2026-01-21 21:25:02.66	322.92	13.25	-53.5	-55.8	6.2	0.00e+00	0	43	104	37648072704	78	18889
2026-01-21 21:25:03.63	323.08	13.15	-53.6	-55.8	6.2	0.00e+00	0	43	104	37648072704	78	18937
2026-01-21 21:25:04.59	323.24	13.06	-53.6	-55.8	6.2	0.00e+00	0	43	104	37648072704	78	18829
2026-01-21 21:25:05.57	323.40	12.97	-53.6	-55.8	6.2	0.00e+00	0	43	104	37648072704	78	18878
2026-01-21 21:25:06.54	323.56	12.87	-53.5	-55.7	6.2	0.00e+00	0	43	104	37648072704	78	18795
2026-01-21 21:25:07.51	323.71	12.78	-53.5	-55.7	6.2	0.00e+00	0	43	104	37648072704	78	18790
2026-01-21 21:25:08.48	323.87	12.68	-53.6	-55.7	6.2	0.00e+00	0	43	104	37648072704	78	18799
2026-01-21 21:25:09.45	324.02	12.59	-53.6	-55.7	6.2	0.00e+00	0	43	104	37648072704	78	18769
2026-01-21 21:25:10.42	324.18	12.50	-53.6	-55.7	6.2	0.00e+00	0	44	104	37648072704	78	18751
2026-01-21 21:25:11.39	324.33	12.40	-53.5	-55.7	6.2	0.00e+00	0	44	104	37648072704	78	18694
2026-01-21 21:25:12.36	324.48	12.31	-53.6	-55.7	6.2	0.00e+00	0	43	104	37648072704	78	18719
2026-01-21 21:25:13.32	324.63	12.22	-53.6	-55.7	6.2	0.00e+00	0	44	104	37648072704	78	18682
2026-01-21 21:25:14.30	324.78	12.13	-53.6	-55.7	6.2	0.00e+00	0	44	104	37648072704	78	18740
2026-01-21 21:25:15.27	324.93	12.04	-53.5	-55.7	6.2	0.00e+00	0	43	104	37648072704	78	18716
2026-01-21 21:25:16.25	325.07	11.94	-53.5	-55.7	6.2	0.00e+00	0	44	104	37648072704	78	18706
2026-01-21 21:25:17.22	325.22	11.85	-53.5	-55.7	6.2	0.00e+00	0	44	104	37648072704	78	18677
2026-01-21 21:25:18.19	325.36	11.76	-53.6	-55.7	6.2	0.00e+00	0	44	104	37648072704	78	18658
2026-01-21 21:25:19.16	325.51	11.67	-53.5	-55.7	6.2	0.00e+00	0	43	104	37648072704	78	18654
2026-01-21 21:25:20.14	325.65	11.58	-53.5	-55.7	6.2	0.00e+00	0	43	104	37648072704	78	18672
2026-01-21 21:25:21.11	325.79	11.49	-53.5	-55.7	6.2	0.00e+00	0	44	104	37648072704	78	18640
2026-01-21 21:25:22.08	325.93	11.40	-53.5	-55.7	6.2	0.00e+00	0	43	104	37648072704	78	18650
2026-01-21 21:25:23.05	326.07	11.31	-53.5	-55.7	6.2	0.00e+00	0	43	104	37648072704	78	18652
2026-01-21 21:25:24.02	326.21	11.22	-53.5	-55.7	6.2	0.00e+00	0	43	104	37648072704	78	18619
2026-01-21 21:25:24.99	326.35	11.14	-53.5	-55.7	6.2	0.00e+00	0	44	104	37648072704	78	18625
2026-01-21 21:25:25.96	326.49	11.05	-53.5	-55.6	6.2	0.00e+00	0	43	104	37648072704	78	18543
2026-01-21 21:25:26.93	326.62	10.96	-53.5	-55.7	6.2	0.00e+00	0	43	104	37648072704	78	18627
2026-01-21 21:25:27.90	326.76	10.87	-53.5	-55.6	6.2	0.00e+00	0	43	104	37648072704	78	18507
2026-01-21 21:25:28.87	326.89	10.78	-53.4	-55.6	6.2	0.00e+00	0	43	104	37648072704	78	18510
2026-01-21 21:25:29.84	327.02	10.70	-53.5	-55.6	6.2	0.00e+00	0	43	104	37648072704	78	18479
2026-01-21 21:25:30.81	327.16	10.61	-53.5	-55.6	6.2	0.00e+00	0	43	104	37648072704	78	18578
2026-01-21 21:25:31.78	327.29	10.52	-53.5	-55.6	6.2	0.00e+00	0	43	104	37648072704	78	18451
2026-01-21 21:25:32.75	327.42	10.44	-53.4	-55.6	6.2	0.00e+00	0	43	104	37648072704	78	18401
2026-01-21 21:25:33.72	327.55	10.35	-53.4	-55.6	6.2	0.00e+00	0	43	104	37648072704	78	18408
2026-01-21 21:25:34.69	327.68	10.26	-53.4	-55.6	6.2	0.00e+00	0	44	104	37648072704	78	18470
2026-01-21 21:25:35.66	327.80	10.18	-53.4	-55.6	6.2	0.00e+00	0	43	104	37648072704	78	18420
2026-01-21 21:25:36.63	327.93	10.09	-53.4	-55.5	6.2	0.00e+00	0	43	104	37648072704	78	18333
2026-01-21 21:25:37.61	328.06	10.01	-53.4	-55.6	6.2	0.00e+00	0	43	104	37648072704	78	18402
2026-01-21 21:25:38.57	328.18	9.92	-53.4	-55.5	6.2	0.00e+00	0	43	104	37648072704	78	18387
2026-01-21 21:25:39.54	328.31	9.84	-53.4	-55.5	6.2	0.00e+00	0	44	104	37648072704	78	18334
2026-01-21 21:25:40.51	328.43	9.76	-53.4	-55.5	6.2	0.00e+00	0	43	104	37648072704	78	18342
2026-01-21 21:25:41.49	328.55	9.67	-53.4	-55.5	6.2	0.00e+00	0	43	104	37648072704	78	18292
2026-01-21 21:25:42.45	328.67	9.59	-53.4	-55.5	6.2	0.00e+00	0	43	104	37648072704	78	18308
2026-01-21 21:25:43.42	328.79	9.50	-53.4	-55.5	6.2	0.00e+00	0	44	104	37648072704	78	18285
2026-01-21 21:25:44.40	328.92	9.42	-53.4	-55.5	6.2	0.00e+00	0	43	104	37648072704	78	18244
2026-01-21 21:25:45.37	329.04	9.34	-53.3	-55.5	6.2	0.00e+00	0	43	104	37648072704	78	18212
2026-01-21 21:25:46.34	329.15	9.25	-53.3	-55.5	6.2	0.00e+00	0	43	104	37648072704	78	18229
2026-01-21 21:25:47.31	329.27	9.17	-53.3	-55.5	6.2	0.00e+00	0	43	104	37648072704	78	18210
2026-01-21 21:25:48.28	329.39	9.09	-53.3	-55.4	6.2	0.00e+00	0	44	104	37648072704	78	18121
2026-01-21 21:25:49.25	329.51	9.01	-53.3	-55.4	6.2	0.00e+00	0	43	104	37648072704	78	18100
2026-01-21 21:25:50.22	329.62	8.93	-53.3	-55.4	6.2	0.00e+00	0	43	104	37648072704	78	18147
2026-01-21 21:25:51.19	329.74	8.85	-53.3	-55.5	6.2	0.00e+00	0	44	104	37648072704	78	18206
2026-01-21 21:25:52.16	329.85	8.76	-53.3	-55.4	6.2	0.00e+00	0	43	104	37648072704	78	18144
2026-01-21 21:25:53.13	329.96	8.68	-53.3	-55.4	6.2	0.00e+00	0	44	104	37648072704	78	18115
2026-01-21 21:25:54.10	330.08	8.60	-53.3	-55.4	6.2	0.00e+00	0	43	104	37648072704	78	18073
2026-01-21 21:25:55.07	330.19	8.52	-53.3	-55.5	6.2	0.00e+00	0	43	104	37648072704	78	18218
2026-01-21 21:25:56.04	330.30	8.44	-53.3	-55.4	6.2	0.00e+00	0	43	104	37648072704	78	18073
2026-01-21 21:25:57.01	330.41	8.36	-53.3	-55.4	6.2	0.00e+00	0	43	104	37648072704	78	18112
2026-01-21 21:25:57.98	330.52	8.28	-53.2	-55.4	6.2	0.00e+00	0	44	104	37648072704	78	17977
2026-01-21 21:25:58.95	330.63	8.20	-53.2	-55.4	6.2	0.00e+00	0	44	104	37648072704	78	18067
2026-01-21 21:25:59.92	330.74	8.13	-53.2	-55.4	6.2	0.00e+00	0	43	104	37648072704	78	17997
2026-01-21 21:26:00.89	330.85	8.05	-53.2	-55.4	6.2	0.00e+00	0	43	104	37648072704	78	18053
2026-01-21 21:26:01.87	330.95	7.97	-53.2	-55.3	6.2	0.00e+00	0	43	104	37648072704	78	17939
2026-01-21 21:26:02.84	331.06	7.89	-53.2	-55.4	6.2	0.00e+00	0	43	104	37648072704	78	18043
2026-01-21 21:26:03.81	331.17	7.81	-53.2	-55.3	6.2	0.00e+00	0	43	104	37648072704	78	17875
2026-01-21 21:26:04.77	331.27	7.73	-53.2	-55.3	6.2	0.00e+00	0	43	104	37648072704	78	17958
2026-01-21 21:26:05.74	331.37	7.66	-53.2	-55.3	6.2	0.00e+00	0	44	104	37648072704	78	17813
2026-01-21 21:26:06.72	331.48	7.58	-53.2	-55.4	6.2	0.00e+00	0	44	104	37648072704	78	17980
2026-01-21 21:26:07.68	331.58	7.50	-53.2	-55.3	6.2	0.00e+00	0	43	104	37648072704	78	17843
2026-01-21 21:26:08.65	331.68	7.43	-53.2	-55.3	6.2	0.00e+00	0	43	104	37648072704	78	17893
2026-01-21 21:26:09.62	331.79	7.35	-53.1	-55.2	6.2	0.00e+00	0	43	104	37648072704	78	17760
2026-01-21 21:26:10.59	331.89	7.27	-53.2	-55.3	6.2	0.00e+00	0	43	104	37648072704	78	17866
2026-01-21 21:26:11.56	331.99	7.20	-53.1	-55.2	6.2	0.00e+00	0	44	104	37648072704	78	17759
2026-01-21 21:26:12.53	332.09	7.12	-53.1	-55.3	6.2	0.00e+00	0	43	104	37648072704	78	17823
2026-01-21 21:26:13.50	332.19	7.04	-53.1	-55.2	6.2	0.00e+00	0	43	104	37648072704	78	17730
2026-01-21 21:26:14.47	332.29	6.97	-53.1	-55.2	6.2	0.00e+00	0	44	104	37648072704	78	17718
2026-01-21 21:26:15.44	332.38	6.89	-53.1	-55.3	6.2	0.00e+00	0	43	104	37648072704	78	17782
2026-01-21 21:26:16.41	332.48	6.82	-53.1	-55.2	6.2	0.00e+00	0	43	104	37648072704	78	17667
2026-01-21 21:26:17.38	332.58	6.74	-53.1	-55.2	6.2	0.00e+00	0	43	104	37648072704	78	17677
2026-01-21 21:26:18.35	332.68	6.67	-53.1	-55.2	6.2	0.00e+00	0	43	104	37648072704	78	17685
2026-01-21 21:26:19.32	332.77	6.60	-53.1	-55.2	6.2	0.00e+00	0	43	104	37648072704	78	17742
2026-01-21 21:26:20.29	332.87	6.52	-53.0	-55.2	6.2	0.00e+00	0	43	104	37648072704	78	17663
2026-01-21 21:26:21.26	332.96	6.45	-53.1	-55.2	6.2	0.00e+00	0	43	104	37648072704	78	17683
2026-01-21 21:26:22.23	333.06	6.37	-53.0	-55.1	6.2	0.00e+00	0	43	104	37648072704	77	18550
2026-01-21 21:26:23.20	333.15	6.30	-53.0	-55.2	6.2	0.00e+00	0	43	104	37648072704	77	18668
2026-01-21 21:26:24.17	333.24	6.23	-53.0	-55.1	6.2	0.00e+00	0	43	104	37648072704	77	18493
2026-01-21 21:26:25.14	333.34	6.15	-53.0	-55.1	6.2	0.00e+00	0	44	104	37648072704	77	18576
2026-01-21 21:26:26.11	333.43	6.08	-52.9	-55.0	6.2	0.00e+00	0	43	104	37648072704	77	18330
2026-01-21 21:26:27.08	333.52	6.01	-53.0	-55.1	6.2	0.00e+00	0	43	104	37648072704	77	18579
2026-01-21 21:26:28.05	333.61	5.94	-52.8	-55.0	6.2	0.00e+00	0	44	104	37648072704	77	18224
2026-01-21 21:26:29.02	333.70	5.86	-53.0	-55.1	6.2	0.00e+00	0	43	104	37648072704	77	18440
2026-01-21 21:26:29.99	333.79	5.79	-52.8	-54.9	6.2	0.00e+00	0	43	104	37648072704	77	18132
2026-01-21 21:26:30.96	333.88	5.72	-52.9	-55.1	6.2	0.00e+00	0	44	104	37648072704	77	18519
2026-01-21 21:26:31.93	333.97	5.65	-52.0	-54.1	6.2	0.00e+00	0	43	104	37648072704	75	18544
2026-01-21 21:26:32.91	334.06	5.58	-52.9	-55.0	6.2	0.00e+00	0	44	104	37648072704	76	19346
2026-01-21 21:26:33.88	334.15	5.51	-51.6	-53.7	6.2	0.00e+00	0	43	104	37648072704	75	17705
2026-01-21 21:26:34.84	334.23	5.44	-51.2	-53.3	6.2	0.00e+00	0	43	104	37648072704	74	17934
2026-01-21 21:26:35.82	334.32	5.36	-51.2	-53.4	6.2	0.00e+00	0	43	104	37648072704	74	17999
2026-01-21 21:26:36.79	334.41	5.29	-52.3	-54.5	6.2	0.00e+00	0	43	104	37648072704	75	19271
2026-01-21 21:26:37.76	334.49	5.22	-51.4	-53.6	6.2	0.00e+00	0	44	104	37648072704	74	18435
2026-01-21 21:26:38.73	334.58	5.15	-52.0	-54.1	6.2	0.00e+00	0	43	104	37648072704	74	19635
2026-01-21 21:26:39.70	334.66	5.08	-51.0	-53.2	6.2	0.00e+00	0	43	104	37648072704	74	17619
2026-01-21 21:26:40.67	334.75	5.01	-52.3	-54.5	6.2	0.00e+00	0	43	104	37648072704	75	19341
2026-01-21 21:26:41.64	334.83	4.94	-53.2	-55.3	6.2	0.00e+00	0	43	104	37648072704	76	19974
2026-01-21 21:26:42.61	334.92	4.87	-53.4	-55.6	6.2	0.00e+00	0	44	104	37648072704	77	19497
2026-01-21 21:26:43.59	335.00	4.80	-53.6	-55.7	6.2	0.00e+00	0	44	104	37648072704	77	19822
2026-01-21 21:26:44.56	335.08	4.74	-53.7	-55.8	6.2	0.00e+00	0	43	104	37648072704	77	20142
2026-01-21 21:26:45.52	335.16	4.67	-53.8	-55.9	6.2	0.00e+00	0	43	104	37648072704	78	19186
2026-01-21 21:26:46.49	335.25	4.60	-53.9	-56.0	6.2	0.00e+00	0	43	104	37648072704	78	19404
2026-01-21 21:26:47.46	335.33	4.53	-54.0	-56.1	6.2	0.00e+00	0	43	104	37648072704	78	19702
2026-01-21 21:26:48.43	335.41	4.46	-54.0	-56.2	6.2	0.00e+00	0	43	104	37648072704	78	19753
2026-01-21 21:26:49.40	335.49	4.39	-54.0	-56.1	6.2	0.00e+00	0	43	104	37648072704	78	19675
2026-01-21 21:26:50.37	335.57	4.33	-54.0	-56.1	6.2	0.00e+00	0	43	104	37648072704	78	19643
2026-01-21 21:26:51.34	335.65	4.26	-54.0	-56.1	6.2	0.00e+00	0	43	104	37648072704	78	19594
2026-01-21 21:26:52.31	335.73	4.19	-53.9	-56.0	6.2	0.00e+00	0	43	104	37648072704	78	19351
2026-01-21 21:26:53.28	335.81	4.12	-53.8	-55.9	6.2	0.00e+00	0	43	104	37648072704	78	19192
2026-01-21 21:26:54.25	335.88	4.06	-53.8	-56.0	6.2	0.00e+00	0	43	104	37648072704	78	19270
2026-01-21 21:26:55.22	335.96	3.99	-53.9	-56.0	6.2	0.00e+00	0	43	104	37648072704	78	19390
2026-01-21 21:26:56.19	336.04	3.92	-54.0	-56.1	6.2	0.00e+00	0	43	104	37648072704	78	19516
2026-01-21 21:26:57.16	336.12	3.86	-53.9	-56.1	6.2	0.00e+00	0	43	104	37648072704	78	19497
2026-01-21 21:26:58.12	336.19	3.79	-54.0	-56.1	6.2	0.00e+00	0	43	104	37648072704	78	19584
2026-01-21 21:26:59.09	336.27	3.72	-54.0	-56.1	6.2	0.00e+00	0	44	104	37648072704	78	19640
2026-01-21 21:27:00.06	336.35	3.66	-54.0	-56.1	6.2	0.00e+00	0	44	104	37648072704	78	19604
2026-01-21 21:27:01.04	336.42	3.59	-54.0	-56.1	6.2	0.00e+00	0	43	104	37648072704	78	19618
2026-01-21 21:27:02.01	336.50	3.53	-54.0	-56.1	6.2	0.00e+00	0	44	104	37648072704	78	19655
2026-01-21 21:27:02.97	336.57	3.46	-53.9	-56.1	6.2	0.00e+00	0	43	104	37648072704	78	19555
2026-01-21 21:27:03.94	336.64	3.40	-53.9	-56.0	6.2	0.00e+00	0	43	104	37648072704	78	19416
2026-01-21 21:27:04.91	336.72	3.33	-53.9	-56.0	6.2	0.00e+00	0	43	104	37648072704	78	19434
2026-01-21 21:27:05.88	336.79	3.26	-53.9	-56.0	6.2	0.00e+00	0	43	104	37648072704	78	19364
2026-01-21 21:27:06.85	336.87	3.20	-53.9	-56.0	6.2	0.00e+00	0	43	104	37648072704	78	19406
2026-01-21 21:27:07.83	336.94	3.13	-53.9	-56.0	6.2	0.00e+00	0	43	104	37648072704	78	19312
2026-01-21 21:27:08.80	337.01	3.07	-53.9	-56.0	6.2	0.00e+00	0	43	104	37648072704	78	19356
2026-01-21 21:27:09.77	337.08	3.01	-53.9	-56.0	6.2	0.00e+00	0	43	104	37648072704	78	19323
2026-01-21 21:27:10.73	337.15	2.94	-53.9	-56.0	6.2	0.00e+00	0	43	104	37648072704	78	19336
2026-01-21 21:27:11.70	337.23	2.88	-53.9	-56.0	6.2	0.00e+00	0	43	104	37648072704	78	19265
2026-01-21 21:27:12.67	337.30	2.81	-53.8	-56.0	6.2	0.00e+00	0	43	104	37648072704	78	19321
2026-01-21 21:27:13.64	337.37	2.75	-53.8	-56.0	6.2	0.00e+00	0	43	104	37648072704	78	19290
2026-01-21 21:27:14.61	337.44	2.69	-53.8	-56.0	6.2	0.00e+00	0	44	104	37648072704	78	19350
2026-01-21 21:27:15.58	337.51	2.62	-53.8	-56.0	6.2	0.00e+00	0	43	104	37648072704	78	19269
2026-01-21 21:27:16.56	337.58	2.56	-53.8	-56.0	6.2	0.00e+00	0	43	104	37648072704	78	19267
2026-01-21 21:27:17.52	337.65	2.50	-53.8	-56.0	6.2	0.00e+00	0	43	104	37648072704	78	19263
2026-01-21 21:27:18.49	337.72	2.43	-53.8	-56.0	6.2	0.00e+00	0	43	104	37648072704	78	19287
2026-01-21 21:27:19.47	337.78	2.37	-53.8	-55.9	6.2	0.00e+00	0	43	104	37648072704	78	19249
2026-01-21 21:27:20.44	337.85	2.31	-53.8	-55.9	6.2	0.00e+00	0	44	104	37648072704	78	19247
2026-01-21 21:27:21.41	337.92	2.25	-53.8	-55.9	6.2	0.00e+00	0	43	104	37648072704	78	19233
2026-01-21 21:27:22.38	337.99	2.18	-53.8	-55.9	6.2	0.00e+00	0	43	104	37648072704	78	19217
2026-01-21 21:27:23.35	338.06	2.12	-53.8	-55.9	6.2	0.00e+00	0	44	104	37648072704	78	19220
2026-01-21 21:27:24.32	338.12	2.06	-53.8	-55.9	6.2	0.00e+00	0	44	104	37648072704	78	19222
2026-01-21 21:27:25.29	338.19	2.00	-53.8	-55.9	6.2	0.00e+00	0	43	104	37648072704	78	19182

#Closed at: 2026-01-21 21:27:26
#Recorded file [37648 MB]: D:/lorett/data/31041_260122_001703.dat