passes_logs/2026/01/21/R3.2S_Murmansk/R3.2S_Murmansk__20260121_011941_NOAA_20_JPSS-1_rec.log

#Pass ID: 20260121_011941_NOAA 20 (JPSS-1)
#Satellite: NOAA 20 (JPSS-1)
#Configuration: NOAA 20
#almurnet v.1.7.20251203
#Start time: 2026-01-21 01:19:43

#Version: 2.2.20231116
#Station: R3.2S_Murmansk
#Location: 33.079688 lon 68.888172 lat
#TLE: 1 43013U 17073A   26020.26397077  .00000127  00000+0  80954-4 0  9999
#TLE: 2 43013  98.7643 321.1479 0001288  31.3158 328.8095 14.19537595423482

#Time	Az	El	Level	Level2	SNR	BER	BlckErr	Temp	State	Recorded	gain1	gain2
2026-01-21 01:19:43.59	27.19	2.11	-54.2	-69.2	3.8	1.49e+00	0	38	0	0	79	20941
2026-01-21 01:19:44.60	27.18	2.17	-54.2	-69.2	3.8	1.49e+00	0	38	104	0	78	22134
2026-01-21 01:19:45.60	27.17	2.24	-54.2	-69.2	3.8	1.49e+00	0	38	104	0	78	22038
2026-01-21 01:19:46.61	27.15	2.30	-54.2	-69.2	3.8	1.49e+00	0	38	104	0	79	20988
2026-01-21 01:19:47.62	27.14	2.37	-54.4	-69.4	3.8	1.49e+00	0	38	104	0	79	21286
2026-01-21 01:19:48.63	27.13	2.43	-54.4	-69.4	3.8	1.49e+00	0	38	104	0	79	21309
2026-01-21 01:19:49.64	27.11	2.50	-54.4	-69.4	3.8	1.49e+00	0	38	104	0	79	21291
2026-01-21 01:19:50.65	27.10	2.56	-54.4	-69.3	3.8	1.49e+00	0	38	104	0	79	21258
2026-01-21 01:19:51.66	27.09	2.63	-54.4	-69.4	3.8	1.49e+00	0	38	104	0	79	21292
2026-01-21 01:19:52.67	27.07	2.70	-54.3	-69.4	3.8	1.49e+00	0	38	104	0	79	21298
2026-01-21 01:19:53.67	27.06	2.76	-54.3	-69.3	3.8	1.49e+00	0	38	104	0	79	21228
2026-01-21 01:19:54.68	27.05	2.83	-54.3	-69.3	3.8	1.49e+00	0	38	104	0	79	21141
2026-01-21 01:19:55.69	27.03	2.89	-54.3	-69.3	3.8	1.49e+00	0	38	104	0	79	21184
2026-01-21 01:19:56.70	27.02	2.96	-54.3	-69.3	3.8	1.49e+00	0	38	104	0	79	21176
2026-01-21 01:19:57.71	27.00	3.03	-54.3	-69.3	3.8	1.49e+00	0	38	104	0	79	21068
2026-01-21 01:19:58.71	26.99	3.09	-54.2	-69.2	3.8	1.49e+00	0	38	104	0	79	21003
2026-01-21 01:19:59.72	26.98	3.16	-54.2	-69.2	3.8	1.49e+00	0	38	104	0	79	20829
2026-01-21 01:20:00.73	26.96	3.23	-54.1	-69.1	3.8	1.49e+00	0	39	104	0	79	20743
2026-01-21 01:20:01.74	26.95	3.29	-54.0	-69.0	3.8	1.49e+00	0	38	104	0	79	20487
2026-01-21 01:20:02.75	26.93	3.36	-54.0	-69.0	3.8	1.49e+00	0	39	104	0	79	20338
2026-01-21 01:20:03.75	26.92	3.43	-53.9	-68.8	3.8	1.49e+00	0	38	104	0	79	20051
2026-01-21 01:20:04.76	26.90	3.49	-53.8	-68.8	3.8	1.49e+00	0	39	104	0	79	19870
2026-01-21 01:20:05.77	26.89	3.56	-53.6	-68.6	3.8	1.49e+00	0	39	104	0	79	19537
2026-01-21 01:20:06.78	26.88	3.63	-53.4	-68.4	3.8	1.49e+00	0	38	104	0	78	20236
2026-01-21 01:20:07.79	26.86	3.70	-53.2	-68.1	3.8	1.49e+00	0	39	104	0	78	19592
2026-01-21 01:20:08.79	26.85	3.76	-52.7	-67.7	3.8	1.49e+00	0	38	104	0	77	19740
2026-01-21 01:20:09.80	26.83	3.83	-51.9	-61.4	5.2	1.48e+00	0	39	104	0	75	10662
2026-01-21 01:20:10.81	26.82	3.90	-51.6	-59.3	6.8	3.98e-01	0	38	0	1048576	75	8396
2026-01-21 01:20:11.82	26.80	3.97	-51.2	-57.4	8.5	7.17e-02	0	39	0	3145728	74	7204
2026-01-21 01:20:12.83	26.79	4.04	-50.6	-55.6	10.5	1.02e-02	0	39	0	5242880	73	6135
2026-01-21 01:20:13.84	26.77	4.11	-50.2	-54.5	11.6	4.69e-03	0	39	0	7340032	72	5737
2026-01-21 01:20:14.84	26.76	4.18	-49.9	-53.9	12.4	5.41e-05	0	39	0	8388608	71	5665
2026-01-21 01:20:15.86	26.74	4.25	-49.5	-53.0	13.2	4.65e-05	0	39	0	10485760	71	5148
2026-01-21 01:20:16.87	26.72	4.32	-49.1	-52.1	14.1	1.22e-05	0	39	0	12582912	70	4916
2026-01-21 01:20:17.87	26.71	4.39	-48.7	-51.6	14.7	0.00e+00	0	39	0	14680064	69	4891
2026-01-21 01:20:18.88	26.69	4.46	-48.7	-51.5	14.8	0.00e+00	0	39	0	16777216	69	4864
2026-01-21 01:20:19.89	26.68	4.53	-48.3	-50.9	15.4	1.50e-06	0	39	0	17825792	68	4803
2026-01-21 01:20:20.89	26.66	4.60	-48.2	-50.7	15.6	0.00e+00	0	39	0	19922944	68	4695
2026-01-21 01:20:21.90	26.65	4.67	-48.6	-51.4	14.9	0.00e+00	0	39	0	22020096	68	5060
2026-01-21 01:20:22.91	26.63	4.74	-48.7	-51.5	14.8	0.00e+00	0	39	0	24117248	68	5133
2026-01-21 01:20:23.92	26.61	4.81	-49.0	-52.1	14.2	0.00e+00	0	39	0	26214400	68	5502
2026-01-21 01:20:24.93	26.60	4.88	-49.2	-52.5	13.8	2.20e-06	0	39	0	27262976	68	5752
2026-01-21 01:20:25.94	26.58	4.95	-49.7	-53.5	12.8	1.90e-05	0	39	0	29360128	69	6084
2026-01-21 01:20:26.94	26.56	5.02	-50.2	-54.5	11.8	1.80e-04	0	39	0	31457280	70	6440
2026-01-21 01:20:27.95	26.55	5.09	-48.1	-50.5	16.0	0.00e+00	0	39	0	33554432	68	4554
2026-01-21 01:20:28.96	26.53	5.16	-49.0	-52.0	14.5	0.00e+00	0	39	0	35651584	68	5418
2026-01-21 01:20:29.97	26.51	5.24	-52.1	-63.0	4.6	1.85e-03	4	39	0	36700160	74	13573
2026-01-21 01:20:30.98	26.50	5.31	-47.8	-50.0	16.5	4.66e-01	0	39	0	38797312	66	4831
2026-01-21 01:20:31.99	26.48	5.38	-52.1	-64.5	4.0	4.44e-02	0	39	0	40894464	74	16208
2026-01-21 01:20:32.99	26.46	5.45	-48.0	-50.3	16.0	4.06e-01	0	39	0	40894464	68	4481
2026-01-21 01:20:34.00	26.45	5.52	-47.9	-50.2	16.2	0.00e+00	0	39	0	42991616	67	4689
2026-01-21 01:20:35.01	26.43	5.60	-48.1	-50.4	16.1	0.00e+00	0	39	0	45088768	67	4796
2026-01-21 01:20:36.02	26.41	5.67	-47.9	-50.2	16.3	0.00e+00	0	39	0	46137344	67	4692
2026-01-21 01:20:37.02	26.39	5.74	-47.7	-49.8	16.7	0.00e+00	0	39	0	48234496	67	4462
2026-01-21 01:20:38.03	26.38	5.82	-47.5	-49.5	17.0	0.00e+00	0	39	0	50331648	66	4578
2026-01-21 01:20:39.04	26.36	5.89	-47.5	-49.6	16.9	0.00e+00	0	39	0	52428800	66	4616
2026-01-21 01:20:40.05	26.34	5.96	-47.6	-49.7	16.9	0.00e+00	0	39	0	54525952	66	4660
2026-01-21 01:20:41.05	26.32	6.04	-47.8	-50.0	16.5	0.00e+00	0	39	0	55574528	66	4840
2026-01-21 01:20:42.06	26.30	6.11	-47.3	-49.3	17.2	0.00e+00	0	39	0	57671680	66	4469
2026-01-21 01:20:43.06	26.29	6.19	-47.3	-49.3	17.3	0.00e+00	0	39	0	59768832	66	4448
2026-01-21 01:20:44.07	26.27	6.26	-47.3	-49.3	17.3	0.00e+00	0	39	0	61865984	66	4449
2026-01-21 01:20:45.08	26.25	6.34	-47.2	-49.2	17.4	0.00e+00	0	39	0	63963136	66	4396
2026-01-21 01:20:46.09	26.23	6.41	-47.3	-49.2	17.4	0.00e+00	0	39	0	66060288	66	4432
2026-01-21 01:20:47.10	26.21	6.49	-47.3	-49.3	17.3	0.00e+00	0	39	0	67108864	66	4455
2026-01-21 01:20:48.11	26.19	6.56	-47.3	-49.2	17.4	0.00e+00	0	39	0	69206016	66	4440
2026-01-21 01:20:49.11	26.17	6.64	-47.3	-49.3	17.4	0.00e+00	0	39	0	71303168	66	4463
2026-01-21 01:20:50.11	26.15	6.71	-47.1	-49.0	17.6	0.00e+00	0	39	0	73400320	66	4315
2026-01-21 01:20:51.12	26.14	6.79	-47.1	-49.0	17.7	0.00e+00	0	39	0	74448896	66	4294
2026-01-21 01:20:52.13	26.12	6.87	-47.1	-49.0	17.7	0.00e+00	0	39	0	76546048	66	4312
2026-01-21 01:20:53.14	26.10	6.94	-47.2	-49.0	17.6	0.00e+00	0	39	0	78643200	66	4338
2026-01-21 01:20:54.14	26.08	7.02	-46.9	-48.8	17.9	0.00e+00	0	39	0	80740352	65	4442
2026-01-21 01:20:55.15	26.06	7.10	-46.8	-48.6	18.0	0.00e+00	0	39	0	82837504	65	4364
2026-01-21 01:20:56.16	26.04	7.17	-46.9	-48.8	17.9	0.00e+00	0	39	0	83886080	65	4444
2026-01-21 01:20:57.17	26.02	7.25	-46.8	-48.6	18.1	0.00e+00	0	39	0	85983232	65	4347
2026-01-21 01:20:58.18	26.00	7.33	-46.8	-48.6	18.1	0.00e+00	0	39	0	88080384	65	4356
2026-01-21 01:20:59.19	25.98	7.41	-46.9	-48.6	18.0	0.00e+00	0	39	0	90177536	65	4389
2026-01-21 01:21:00.19	25.96	7.48	-46.9	-48.7	18.0	0.00e+00	0	39	0	92274688	65	4395
2026-01-21 01:21:01.20	25.94	7.56	-46.7	-48.4	18.3	0.00e+00	0	39	0	94371840	65	4262
2026-01-21 01:21:02.21	25.92	7.64	-46.6	-48.3	18.4	0.00e+00	0	39	0	95420416	65	4220
2026-01-21 01:21:03.22	25.90	7.72	-46.7	-48.4	18.4	0.00e+00	0	39	0	97517568	65	4245
2026-01-21 01:21:04.23	25.87	7.80	-46.7	-48.4	18.3	0.00e+00	0	39	0	99614720	65	4285
2026-01-21 01:21:05.23	25.85	7.88	-46.7	-48.5	18.3	0.00e+00	0	39	0	101711872	65	4293
2026-01-21 01:21:06.24	25.83	7.96	-46.6	-48.3	18.4	0.00e+00	0	39	0	102760448	65	4219
2026-01-21 01:21:07.25	25.81	8.04	-46.7	-48.4	18.4	0.00e+00	0	39	0	104857600	65	4253
2026-01-21 01:21:08.26	25.79	8.12	-46.6	-48.3	18.5	0.00e+00	0	39	0	106954752	65	4198
2026-01-21 01:21:09.26	25.77	8.20	-46.5	-48.1	18.6	0.00e+00	0	39	0	109051904	64	4386
2026-01-21 01:21:10.27	25.75	8.28	-46.6	-48.2	18.6	0.00e+00	0	39	0	111149056	64	4420
2026-01-21 01:21:11.28	25.72	8.36	-46.4	-48.1	18.7	0.00e+00	0	39	0	112197632	64	4349
2026-01-21 01:21:12.29	25.70	8.44	-46.4	-48.1	18.7	0.00e+00	0	39	0	114294784	64	4341
2026-01-21 01:21:13.30	25.68	8.52	-46.4	-48.0	18.8	0.00e+00	0	39	0	116391936	64	4317
2026-01-21 01:21:14.31	25.66	8.61	-46.5	-48.1	18.8	0.00e+00	0	39	0	118489088	64	4351
2026-01-21 01:21:15.31	25.64	8.69	-46.4	-48.0	18.8	0.00e+00	0	39	0	120586240	64	4317
2026-01-21 01:21:16.32	25.61	8.77	-46.5	-48.1	18.8	0.00e+00	0	39	0	122683392	64	4366
2026-01-21 01:21:17.33	25.59	8.85	-46.3	-47.9	18.9	0.00e+00	0	39	0	123731968	64	4266
2026-01-21 01:21:18.34	25.57	8.93	-46.2	-47.7	19.1	0.00e+00	0	39	0	125829120	64	4185
2026-01-21 01:21:19.34	25.54	9.02	-46.2	-47.7	19.1	0.00e+00	0	39	0	127926272	64	4191
2026-01-21 01:21:20.35	25.52	9.10	-46.2	-47.7	19.1	0.00e+00	0	39	0	130023424	64	4184
2026-01-21 01:21:21.36	25.50	9.18	-46.2	-47.7	19.1	0.00e+00	0	39	0	131072000	64	4173
2026-01-21 01:21:22.37	25.47	9.27	-46.2	-47.8	19.1	0.00e+00	0	39	0	133169152	64	4214
2026-01-21 01:21:23.38	25.45	9.35	-46.3	-47.8	19.0	0.00e+00	0	39	0	135266304	64	4220
2026-01-21 01:21:24.38	25.43	9.44	-46.1	-47.6	19.3	0.00e+00	0	39	0	137363456	64	4118
2026-01-21 01:21:25.39	25.40	9.52	-46.2	-47.7	19.1	0.00e+00	0	39	0	139460608	64	4180
2026-01-21 01:21:26.40	25.38	9.61	-46.2	-47.7	19.2	0.00e+00	0	39	0	141557760	64	4169
2026-01-21 01:21:27.41	25.35	9.69	-46.3	-47.8	19.1	0.00e+00	0	39	0	142606336	64	4229
2026-01-21 01:21:28.41	25.33	9.78	-46.0	-47.5	19.5	0.00e+00	0	40	0	144703488	63	4298
2026-01-21 01:21:29.42	25.30	9.86	-46.0	-47.4	19.6	0.00e+00	0	39	0	146800640	63	4283
2026-01-21 01:21:30.42	25.28	9.95	-46.0	-47.5	19.5	0.00e+00	0	39	0	148897792	63	4300
2026-01-21 01:21:31.43	25.26	10.03	-45.9	-47.4	19.6	0.00e+00	0	39	0	150994944	63	4266
2026-01-21 01:21:32.44	25.23	10.12	-45.9	-47.3	19.7	0.00e+00	0	39	0	152043520	63	4221
2026-01-21 01:21:33.45	25.20	10.21	-45.9	-47.4	19.6	0.00e+00	0	40	0	154140672	63	4244
2026-01-21 01:21:34.46	25.18	10.30	-45.8	-47.2	19.8	0.00e+00	0	39	0	156237824	63	4149
2026-01-21 01:21:35.47	25.15	10.38	-45.9	-47.3	19.7	0.00e+00	0	39	0	158334976	63	4202
2026-01-21 01:21:36.47	25.13	10.47	-45.9	-47.3	19.7	0.00e+00	0	39	0	159383552	63	4216
2026-01-21 01:21:37.48	25.10	10.56	-46.0	-47.5	19.5	0.00e+00	0	39	0	161480704	63	4294
2026-01-21 01:21:38.49	25.08	10.65	-45.8	-47.2	19.9	0.00e+00	0	39	0	163577856	63	4147
2026-01-21 01:21:39.50	25.05	10.74	-45.8	-47.2	19.8	0.00e+00	0	39	0	165675008	63	4160
2026-01-21 01:21:40.50	25.02	10.83	-45.8	-47.2	19.8	0.00e+00	0	39	0	167772160	63	4172
2026-01-21 01:21:41.52	25.00	10.92	-45.8	-47.2	19.8	0.00e+00	0	39	0	169869312	63	4168
2026-01-21 01:21:42.52	24.97	11.00	-45.6	-46.9	20.1	0.00e+00	0	39	0	170917888	63	4039
2026-01-21 01:21:43.53	24.94	11.09	-45.5	-46.9	20.2	0.00e+00	0	39	0	173015040	63	4011
2026-01-21 01:21:44.54	24.91	11.19	-45.5	-46.9	20.2	0.00e+00	0	39	0	175112192	63	4024
2026-01-21 01:21:45.54	24.89	11.28	-45.6	-46.9	20.2	0.00e+00	0	39	0	177209344	63	4027
2026-01-21 01:21:46.55	24.86	11.37	-45.6	-46.9	20.1	0.00e+00	0	39	0	179306496	63	4033
2026-01-21 01:21:47.56	24.83	11.46	-45.5	-46.9	20.2	0.00e+00	0	39	0	180355072	63	4009
2026-01-21 01:21:48.57	24.80	11.55	-45.5	-46.8	20.3	0.00e+00	0	39	0	182452224	63	3995
2026-01-21 01:21:49.58	24.77	11.64	-45.5	-46.9	20.2	0.00e+00	0	39	0	184549376	63	4010
2026-01-21 01:21:50.58	24.75	11.73	-45.5	-46.8	20.3	0.00e+00	0	39	0	186646528	63	3985
2026-01-21 01:21:51.59	24.72	11.83	-45.4	-46.8	20.3	0.00e+00	0	39	0	188743680	62	4198
2026-01-21 01:21:52.60	24.69	11.92	-45.4	-46.7	20.4	0.00e+00	0	39	0	189792256	62	4183
2026-01-21 01:21:53.61	24.66	12.01	-45.4	-46.7	20.4	0.00e+00	0	39	0	191889408	62	4171
2026-01-21 01:21:54.62	24.63	12.11	-45.5	-46.8	20.3	0.00e+00	0	39	0	193986560	62	4215
2026-01-21 01:21:55.62	24.60	12.20	-45.5	-46.8	20.3	0.00e+00	0	39	0	196083712	62	4209
2026-01-21 01:21:56.63	24.57	12.30	-45.4	-46.7	20.4	0.00e+00	0	39	0	198180864	62	4174
2026-01-21 01:21:57.64	24.54	12.39	-45.4	-46.7	20.4	0.00e+00	0	39	0	199229440	62	4189
2026-01-21 01:21:58.64	24.51	12.49	-45.3	-46.6	20.5	0.00e+00	0	39	0	201326592	62	4139
2026-01-21 01:21:59.65	24.48	12.58	-45.4	-46.6	20.5	0.00e+00	0	39	0	203423744	62	4142
2026-01-21 01:22:00.66	24.45	12.68	-45.3	-46.6	20.5	0.00e+00	0	40	0	205520896	62	4114
2026-01-21 01:22:01.67	24.42	12.77	-45.4	-46.7	20.5	0.00e+00	0	40	0	207618048	62	4156
2026-01-21 01:22:02.68	24.39	12.87	-45.2	-46.5	20.6	0.00e+00	0	39	0	208666624	62	4070
2026-01-21 01:22:03.69	24.35	12.97	-45.2	-46.4	20.7	0.00e+00	0	39	0	210763776	62	4039
2026-01-21 01:22:04.69	24.32	13.06	-45.2	-46.4	20.7	0.00e+00	0	39	0	212860928	62	4044
2026-01-21 01:22:05.70	24.29	13.16	-45.2	-46.5	20.7	0.00e+00	0	40	0	214958080	62	4075
2026-01-21 01:22:06.71	24.26	13.26	-45.1	-46.4	20.8	0.00e+00	0	39	0	217055232	62	4007
2026-01-21 01:22:07.72	24.23	13.36	-45.2	-46.4	20.8	0.00e+00	0	39	0	218103808	62	4033
2026-01-21 01:22:08.72	24.19	13.46	-45.2	-46.4	20.7	0.00e+00	0	40	0	220200960	62	4039
2026-01-21 01:22:09.73	24.16	13.56	-45.1	-46.4	20.8	0.00e+00	0	40	0	222298112	62	4023
2026-01-21 01:22:10.74	24.13	13.66	-45.2	-46.4	20.7	0.00e+00	0	39	0	224395264	62	4044
2026-01-21 01:22:11.75	24.09	13.76	-45.0	-46.2	20.9	0.00e+00	0	39	0	226492416	62	3948
2026-01-21 01:22:12.76	24.06	13.86	-45.0	-46.2	20.9	0.00e+00	0	39	0	227540992	61	4191
2026-01-21 01:22:13.76	24.03	13.96	-45.1	-46.3	20.8	0.00e+00	0	40	0	229638144	61	4225
2026-01-21 01:22:14.77	23.99	14.06	-45.0	-46.3	20.9	0.00e+00	0	39	0	231735296	61	4197
2026-01-21 01:22:15.78	23.96	14.16	-44.9	-46.1	21.0	0.00e+00	0	39	0	233832448	61	4117
2026-01-21 01:22:16.79	23.92	14.26	-44.9	-46.1	21.1	0.00e+00	0	39	0	235929600	61	4103
2026-01-21 01:22:17.80	23.89	14.37	-44.9	-46.1	21.1	0.00e+00	0	40	0	238026752	61	4100
2026-01-21 01:22:18.80	23.85	14.47	-45.0	-46.2	21.0	0.00e+00	0	39	0	239075328	61	4156
2026-01-21 01:22:19.81	23.82	14.57	-44.9	-46.1	21.1	0.00e+00	0	39	0	241172480	61	4109
2026-01-21 01:22:20.82	23.78	14.68	-45.0	-46.2	21.0	0.00e+00	0	39	0	243269632	61	4159
2026-01-21 01:22:21.83	23.75	14.78	-44.8	-46.0	21.2	0.00e+00	0	39	0	245366784	61	4082
2026-01-21 01:22:22.84	23.71	14.89	-44.8	-46.0	21.2	0.00e+00	0	40	0	246415360	61	4077
2026-01-21 01:22:23.85	23.67	14.99	-44.8	-46.0	21.1	0.00e+00	0	39	0	248512512	61	4091
2026-01-21 01:22:24.85	23.64	15.10	-44.8	-46.0	21.2	0.00e+00	0	39	0	250609664	61	4068
2026-01-21 01:22:25.86	23.60	15.20	-44.9	-46.0	21.2	0.00e+00	0	40	0	252706816	61	4096
2026-01-21 01:22:26.87	23.56	15.31	-44.7	-45.9	21.4	0.00e+00	0	40	0	254803968	61	4028
2026-01-21 01:22:27.88	23.52	15.42	-44.8	-46.0	21.3	0.00e+00	0	39	0	255852544	61	4053
2026-01-21 01:22:28.89	23.48	15.53	-44.8	-45.9	21.3	0.00e+00	0	39	0	257949696	61	4041
2026-01-21 01:22:29.89	23.45	15.63	-44.8	-46.0	21.2	0.00e+00	0	40	0	260046848	61	4058
2026-01-21 01:22:30.90	23.41	15.74	-44.7	-45.9	21.3	0.00e+00	0	39	0	262144000	61	4034
2026-01-21 01:22:31.91	23.37	15.85	-44.7	-45.9	21.3	0.00e+00	0	39	0	264241152	61	4036
2026-01-21 01:22:32.92	23.33	15.96	-44.6	-45.8	21.5	0.00e+00	0	39	0	266338304	61	3969
2026-01-21 01:22:33.93	23.29	16.07	-44.6	-45.8	21.5	0.00e+00	0	40	0	267386880	61	3974
2026-01-21 01:22:34.93	23.25	16.18	-44.7	-45.9	21.4	0.00e+00	0	40	0	269484032	61	4006
2026-01-21 01:22:35.94	23.21	16.29	-44.6	-45.7	21.5	0.00e+00	0	39	0	271581184	61	3946
2026-01-21 01:22:36.95	23.17	16.40	-44.6	-45.7	21.5	0.00e+00	0	39	0	273678336	61	3930
2026-01-21 01:22:37.96	23.13	16.51	-44.6	-45.8	21.5	0.00e+00	0	39	0	274726912	61	3971
2026-01-21 01:22:38.97	23.09	16.63	-44.5	-45.6	21.6	0.00e+00	0	39	0	276824064	61	3902
2026-01-21 01:22:39.97	23.05	16.74	-44.5	-45.6	21.5	0.00e+00	0	39	0	278921216	60	4123
2026-01-21 01:22:40.98	23.00	16.85	-44.5	-45.6	21.6	0.00e+00	0	40	0	281018368	60	4135
2026-01-21 01:22:41.99	22.96	16.97	-44.4	-45.5	21.7	0.00e+00	0	39	0	283115520	60	4069
2026-01-21 01:22:43.00	22.92	17.08	-44.4	-45.5	21.7	0.00e+00	0	40	0	285212672	60	4095
2026-01-21 01:22:44.01	22.87	17.19	-44.4	-45.5	21.7	0.00e+00	0	39	0	286261248	60	4088
2026-01-21 01:22:45.01	22.83	17.31	-44.4	-45.5	21.7	0.00e+00	0	39	0	288358400	60	4095
2026-01-21 01:22:46.02	22.79	17.43	-44.4	-45.5	21.7	0.00e+00	0	39	0	290455552	60	4070
2026-01-21 01:22:47.03	22.74	17.54	-44.4	-45.6	21.7	0.00e+00	0	40	0	292552704	60	4102
2026-01-21 01:22:48.04	22.70	17.66	-44.4	-45.5	21.8	0.00e+00	0	39	0	294649856	60	4071
2026-01-21 01:22:49.05	22.65	17.78	-44.3	-45.4	21.9	0.00e+00	0	40	0	295698432	60	4024
2026-01-21 01:22:50.05	22.61	17.89	-44.3	-45.5	21.8	0.00e+00	0	40	0	297795584	60	4052
2026-01-21 01:22:51.06	22.56	18.01	-44.3	-45.4	21.9	0.00e+00	0	40	0	299892736	60	4009
2026-01-21 01:22:52.07	22.52	18.13	-44.3	-45.4	21.9	0.00e+00	0	40	0	301989888	60	4012
2026-01-21 01:22:53.08	22.47	18.25	-44.3	-45.4	21.8	0.00e+00	0	39	0	304087040	60	4036
2026-01-21 01:22:54.09	22.42	18.37	-44.3	-45.4	21.8	0.00e+00	0	40	0	305135616	60	4048
2026-01-21 01:22:55.10	22.38	18.49	-44.3	-45.4	21.9	0.00e+00	0	39	0	307232768	60	4029
2026-01-21 01:22:56.11	22.33	18.61	-44.4	-45.5	21.8	0.00e+00	0	40	0	309329920	60	4058
2026-01-21 01:22:57.11	22.28	18.74	-44.3	-45.4	21.9	0.00e+00	0	39	0	311427072	60	4009
2026-01-21 01:22:58.12	22.23	18.86	-44.3	-45.4	21.9	0.00e+00	0	39	0	313524224	60	4046
2026-01-21 01:22:59.13	22.18	18.98	-44.3	-45.4	21.9	0.00e+00	0	39	0	314572800	60	4008
2026-01-21 01:23:00.14	22.13	19.11	-44.3	-45.4	21.9	0.00e+00	0	40	0	316669952	60	4023
2026-01-21 01:23:01.15	22.08	19.23	-44.4	-45.6	21.7	0.00e+00	0	39	0	318767104	60	4104
2026-01-21 01:23:02.16	22.03	19.36	-44.4	-45.5	21.8	0.00e+00	0	40	0	320864256	60	4063
2026-01-21 01:23:03.17	21.98	19.48	-44.3	-45.4	21.9	0.00e+00	0	39	0	322961408	60	4027
2026-01-21 01:23:04.17	21.93	19.61	-44.2	-45.3	22.0	0.00e+00	0	40	0	324009984	60	4001
2026-01-21 01:23:05.18	21.88	19.73	-44.2	-45.3	21.9	0.00e+00	0	39	0	326107136	60	4000
2026-01-21 01:23:06.19	21.83	19.86	-44.1	-45.2	22.0	0.00e+00	0	40	0	328204288	60	3942
2026-01-21 01:23:07.20	21.78	19.99	-44.2	-45.3	22.0	0.00e+00	0	39	0	330301440	60	3962
2026-01-21 01:23:08.21	21.72	20.12	-44.3	-45.4	21.9	0.00e+00	0	40	0	332398592	60	4009
2026-01-21 01:23:09.21	21.67	20.25	-44.2	-45.3	22.0	0.00e+00	0	39	0	333447168	60	3964
2026-01-21 01:23:10.22	21.62	20.38	-44.2	-45.2	22.1	0.00e+00	0	40	0	335544320	60	3948
2026-01-21 01:23:11.23	21.56	20.51	-44.2	-45.3	22.0	0.00e+00	0	40	0	337641472	60	3972
2026-01-21 01:23:12.24	21.51	20.64	-44.3	-45.4	22.2	0.00e+00	0	40	0	339738624	59	4273
2026-01-21 01:23:13.24	21.45	20.77	-44.5	-45.6	22.0	0.00e+00	0	40	0	341835776	59	4365
2026-01-21 01:23:14.25	21.40	20.90	-44.5	-45.6	22.1	0.00e+00	0	39	0	342884352	59	4347
2026-01-21 01:23:15.26	21.34	21.04	-44.4	-45.5	22.1	0.00e+00	0	40	0	344981504	59	4319
2026-01-21 01:23:16.27	21.28	21.17	-44.3	-45.4	22.2	0.00e+00	0	40	0	347078656	59	4266
2026-01-21 01:23:17.28	21.22	21.30	-44.4	-45.5	22.1	0.00e+00	0	40	0	349175808	59	4324
2026-01-21 01:23:18.29	21.17	21.44	-44.4	-45.4	22.2	0.00e+00	0	40	0	351272960	59	4280
2026-01-21 01:23:19.29	21.11	21.58	-44.4	-45.5	22.2	0.00e+00	0	40	0	352321536	59	4303
2026-01-21 01:23:20.30	21.05	21.71	-44.5	-45.6	22.0	0.00e+00	0	40	0	354418688	59	4378
2026-01-21 01:23:21.31	20.99	21.85	-44.4	-45.4	22.2	0.00e+00	0	40	0	356515840	59	4286
2026-01-21 01:23:22.32	20.93	21.99	-44.4	-45.4	22.2	0.00e+00	0	40	0	358612992	59	4289
2026-01-21 01:23:23.33	20.87	22.13	-44.5	-45.5	22.1	0.00e+00	0	40	0	360710144	59	4338
2026-01-21 01:23:24.33	20.81	22.27	-44.4	-45.5	22.2	0.00e+00	0	40	0	361758720	59	4305
2026-01-21 01:23:25.34	20.74	22.41	-44.4	-45.5	22.2	0.00e+00	0	40	0	363855872	59	4312
2026-01-21 01:23:26.35	20.68	22.55	-44.4	-45.4	22.1	0.00e+00	0	40	0	365953024	59	4291
2026-01-21 01:23:27.36	20.62	22.69	-44.4	-45.5	22.2	0.00e+00	0	40	0	368050176	59	4297
2026-01-21 01:23:28.37	20.55	22.83	-44.5	-45.5	22.1	0.00e+00	0	39	0	370147328	59	4338
2026-01-21 01:23:29.38	20.49	22.98	-44.4	-45.5	22.2	0.00e+00	0	40	0	371195904	59	4327
2026-01-21 01:23:30.39	20.42	23.12	-44.4	-45.5	22.2	0.00e+00	0	40	0	373293056	59	4308
2026-01-21 01:23:31.39	20.36	23.26	-44.5	-45.6	22.1	0.00e+00	0	40	0	375390208	59	4354
2026-01-21 01:23:32.40	20.29	23.41	-44.5	-45.6	22.1	0.00e+00	0	40	0	377487360	59	4383
2026-01-21 01:23:33.41	20.23	23.56	-44.6	-45.7	22.1	0.00e+00	0	40	0	379584512	59	4410
2026-01-21 01:23:34.42	20.16	23.70	-44.6	-45.7	22.0	0.00e+00	0	40	0	380633088	59	4420
2026-01-21 01:23:35.42	20.09	23.85	-44.7	-45.8	21.9	0.00e+00	0	40	0	382730240	59	4489
2026-01-21 01:23:36.43	20.02	24.00	-44.5	-45.6	21.9	0.00e+00	0	40	0	384827392	60	4101
2026-01-21 01:23:37.44	19.95	24.15	-44.6	-45.7	21.7	0.00e+00	0	40	0	386924544	60	4173
2026-01-21 01:23:38.45	19.88	24.30	-44.6	-45.7	21.7	0.00e+00	0	40	0	389021696	60	4181
2026-01-21 01:23:39.46	19.81	24.45	-44.6	-45.7	21.8	0.00e+00	0	40	0	390070272	60	4161
2026-01-21 01:23:40.47	19.74	24.60	-44.6	-45.7	21.8	0.00e+00	0	40	0	392167424	60	4184
2026-01-21 01:23:41.48	19.66	24.76	-44.7	-45.8	21.7	0.00e+00	0	40	0	394264576	60	4214
2026-01-21 01:23:42.48	19.59	24.91	-44.8	-46.0	21.5	0.00e+00	0	40	0	396361728	60	4295
2026-01-21 01:23:43.49	19.52	25.06	-44.8	-46.0	21.5	0.00e+00	0	40	0	398458880	60	4310
2026-01-21 01:23:44.50	19.44	25.22	-45.0	-46.1	21.4	0.00e+00	0	40	0	400556032	60	4382
2026-01-21 01:23:45.51	19.37	25.37	-45.0	-46.2	21.3	0.00e+00	0	40	0	401604608	60	4401
2026-01-21 01:23:46.52	19.29	25.53	-45.1	-46.3	21.2	0.00e+00	0	40	0	403701760	60	4469
2026-01-21 01:23:47.52	19.21	25.69	-45.2	-46.4	21.1	0.00e+00	0	40	0	405798912	61	4283
2026-01-21 01:23:48.53	19.13	25.85	-45.4	-46.6	21.0	0.00e+00	0	40	0	407896064	61	4353
2026-01-21 01:23:49.54	19.05	26.01	-45.4	-46.6	20.9	0.00e+00	0	40	0	408944640	61	4383
2026-01-21 01:23:50.55	18.97	26.17	-45.4	-46.7	20.8	0.00e+00	0	40	0	411041792	61	4399
2026-01-21 01:23:51.56	18.89	26.33	-45.5	-46.7	20.8	0.00e+00	0	40	0	413138944	61	4430
2026-01-21 01:23:52.56	18.81	26.49	-45.7	-46.9	20.6	0.00e+00	0	40	0	415236096	61	4537
2026-01-21 01:23:53.57	18.73	26.65	-45.8	-47.0	20.6	0.00e+00	0	40	0	417333248	62	4339
2026-01-21 01:23:54.58	18.65	26.82	-45.9	-47.2	20.4	0.00e+00	0	40	0	419430400	62	4436
2026-01-21 01:23:55.59	18.56	26.98	-45.9	-47.3	20.3	0.00e+00	0	40	0	420478976	62	4443
2026-01-21 01:23:56.60	18.48	27.15	-46.2	-47.6	20.0	0.00e+00	0	39	0	422576128	62	4604
2026-01-21 01:23:57.61	18.39	27.32	-46.4	-47.7	19.9	0.00e+00	0	40	0	424673280	63	4439
2026-01-21 01:23:58.61	18.31	27.48	-46.5	-48.0	19.7	0.00e+00	0	40	0	426770432	63	4555
2026-01-21 01:23:59.63	18.22	27.66	-46.7	-48.2	19.5	0.00e+00	0	40	0	428867584	63	4652
2026-01-21 01:24:00.63	18.13	27.82	-46.9	-48.4	19.2	0.00e+00	0	40	0	429916160	64	4532
2026-01-21 01:24:01.64	18.04	27.99	-47.0	-48.5	19.1	0.00e+00	0	40	0	432013312	64	4581
2026-01-21 01:24:02.65	17.95	28.17	-47.1	-48.7	18.9	0.00e+00	0	40	0	434110464	64	4687
2026-01-21 01:24:03.66	17.85	28.34	-47.2	-48.8	18.8	0.00e+00	0	40	0	436207616	64	4721
2026-01-21 01:24:04.67	17.76	28.51	-47.3	-49.0	18.6	0.00e+00	0	40	0	437256192	65	4561
2026-01-21 01:24:05.67	17.67	28.69	-47.4	-49.1	18.5	0.00e+00	0	40	0	439353344	65	4618
2026-01-21 01:24:06.68	17.57	28.86	-47.5	-49.2	18.4	0.00e+00	0	40	0	441450496	65	4656
2026-01-21 01:24:07.69	17.48	29.04	-47.4	-49.1	18.5	0.00e+00	0	40	0	443547648	65	4633
2026-01-21 01:24:08.70	17.38	29.22	-47.5	-49.1	18.5	0.00e+00	0	40	0	445644800	65	4638
2026-01-21 01:24:09.71	17.28	29.40	-47.4	-49.0	18.6	0.00e+00	0	40	0	447741952	65	4570
2026-01-21 01:24:10.72	17.18	29.58	-47.3	-49.0	18.6	0.00e+00	0	40	0	448790528	65	4554
2026-01-21 01:24:11.73	17.08	29.76	-47.3	-49.0	18.7	0.00e+00	0	40	0	450887680	65	4547
2026-01-21 01:24:12.74	16.98	29.94	-47.4	-49.0	18.7	0.00e+00	0	40	0	452984832	65	4580
2026-01-21 01:24:13.75	16.87	30.13	-47.4	-49.0	18.7	0.00e+00	0	40	0	455081984	65	4569
2026-01-21 01:24:14.76	16.77	30.31	-47.5	-49.2	18.5	0.00e+00	0	40	0	457179136	65	4660
2026-01-21 01:24:15.77	16.66	30.50	-47.5	-49.2	18.4	0.00e+00	0	40	0	458227712	65	4703
2026-01-21 01:24:16.77	16.56	30.68	-47.6	-49.3	18.3	0.00e+00	0	40	0	460324864	65	4742
2026-01-21 01:24:17.78	16.45	30.87	-47.8	-49.6	18.1	0.00e+00	0	40	0	462422016	66	4640
2026-01-21 01:24:18.79	16.34	31.06	-47.9	-49.7	18.0	0.00e+00	0	40	0	464519168	66	4683
2026-01-21 01:24:19.80	16.23	31.25	-48.0	-49.9	17.8	0.00e+00	0	40	0	466616320	66	4763
2026-01-21 01:24:20.81	16.12	31.44	-48.1	-49.9	17.7	0.00e+00	0	40	0	467664896	66	4802
2026-01-21 01:24:21.82	16.00	31.63	-48.2	-50.1	17.6	0.00e+00	0	40	0	469762048	66	4885
2026-01-21 01:24:22.82	15.89	31.82	-48.3	-50.2	17.5	0.00e+00	0	40	0	471859200	67	4681
2026-01-21 01:24:23.83	15.77	32.02	-48.4	-50.4	17.3	0.00e+00	0	40	0	473956352	67	4774
2026-01-21 01:24:24.84	15.65	32.21	-48.6	-50.6	17.1	0.00e+00	0	40	0	476053504	67	4896
2026-01-21 01:24:25.85	15.53	32.41	-48.7	-50.8	17.0	0.00e+00	0	40	0	477102080	67	4984
2026-01-21 01:24:26.86	15.41	32.61	-48.7	-50.8	17.0	0.00e+00	0	40	0	479199232	67	4991
2026-01-21 01:24:27.87	15.29	32.81	-48.8	-50.9	16.9	0.00e+00	0	40	0	481296384	68	4804
2026-01-21 01:24:28.87	15.17	33.00	-48.8	-51.0	16.9	0.00e+00	0	40	0	483393536	68	4819
2026-01-21 01:24:29.88	15.04	33.20	-48.9	-51.0	16.8	0.00e+00	0	40	0	485490688	68	4846
2026-01-21 01:24:30.89	14.91	33.41	-48.8	-50.9	16.9	0.00e+00	0	40	0	487587840	68	4803
2026-01-21 01:24:31.90	14.79	33.61	-48.8	-50.9	16.9	0.00e+00	0	40	0	488636416	68	4796
2026-01-21 01:24:32.91	14.66	33.82	-48.7	-50.8	17.0	0.00e+00	0	40	0	490733568	68	4716
2026-01-21 01:24:33.92	14.52	34.02	-48.8	-50.9	16.9	0.00e+00	0	40	0	492830720	68	4803
2026-01-21 01:24:34.93	14.39	34.23	-48.7	-50.8	17.1	0.00e+00	0	40	0	494927872	68	4730
2026-01-21 01:24:35.93	14.25	34.44	-48.6	-50.6	17.2	0.00e+00	0	40	0	495976448	68	4639
2026-01-21 01:24:36.94	14.12	34.65	-48.5	-50.4	17.4	0.00e+00	0	40	0	498073600	68	4538
2026-01-21 01:24:37.96	13.98	34.86	-48.6	-50.6	17.2	0.00e+00	0	40	0	500170752	68	4643
2026-01-21 01:24:38.96	13.84	35.07	-48.6	-50.6	17.3	0.00e+00	0	40	0	502267904	68	4626
2026-01-21 01:24:39.97	13.69	35.28	-48.7	-50.7	17.2	0.00e+00	0	40	0	504365056	68	4666
2026-01-21 01:24:40.98	13.55	35.50	-48.8	-50.8	17.0	0.00e+00	0	40	0	505413632	68	4751
2026-01-21 01:24:41.99	13.40	35.71	-49.0	-51.1	16.8	0.00e+00	0	40	0	507510784	68	4881
2026-01-21 01:24:42.99	13.25	35.93	-49.1	-51.3	16.6	0.00e+00	0	40	0	509607936	68	5030
2026-01-21 01:24:44.00	13.10	36.15	-49.2	-51.4	16.5	0.00e+00	0	40	0	511705088	69	4799
2026-01-21 01:24:45.01	12.95	36.37	-49.2	-51.5	16.4	0.00e+00	0	40	0	513802240	69	4834
2026-01-21 01:24:46.01	12.79	36.58	-49.3	-51.6	16.3	0.00e+00	0	40	0	515899392	69	4880
2026-01-21 01:24:47.02	12.64	36.81	-49.0	-51.1	16.7	0.00e+00	0	40	0	516947968	69	4650
2026-01-21 01:24:48.03	12.48	37.03	-49.1	-51.2	16.6	0.00e+00	0	40	0	519045120	69	4696
2026-01-21 01:24:49.04	12.32	37.25	-49.0	-51.1	16.8	0.00e+00	0	40	0	521142272	69	4635
2026-01-21 01:24:50.05	12.15	37.48	-49.1	-51.3	16.7	0.00e+00	0	40	0	523239424	69	4713
2026-01-21 01:24:51.05	11.99	37.71	-48.9	-50.9	17.0	0.00e+00	0	40	0	524288000	69	4523
2026-01-21 01:24:52.06	11.82	37.93	-48.8	-50.8	17.1	0.00e+00	0	40	0	526385152	69	4469
2026-01-21 01:24:53.07	11.65	38.16	-48.5	-50.5	17.4	0.00e+00	0	40	0	528482304	69	4314
2026-01-21 01:24:54.08	11.47	38.39	-48.6	-50.6	17.3	0.00e+00	0	40	0	530579456	69	4367
2026-01-21 01:24:55.09	11.29	38.63	-48.6	-50.5	17.4	0.00e+00	0	40	0	532676608	69	4329
2026-01-21 01:24:56.09	11.12	38.86	-48.4	-50.2	17.7	0.00e+00	0	40	0	534773760	68	4433
2026-01-21 01:24:57.10	10.94	39.09	-48.2	-50.0	17.9	0.00e+00	0	40	0	535822336	68	4333
2026-01-21 01:24:58.11	10.75	39.33	-48.1	-49.9	18.0	0.00e+00	0	40	0	537919488	68	4265
2026-01-21 01:24:59.12	10.56	39.57	-48.2	-50.1	17.9	0.00e+00	0	40	0	540016640	68	4358
2026-01-21 01:25:00.13	10.37	39.80	-47.8	-49.5	18.3	0.00e+00	0	40	0	542113792	67	4337
2026-01-21 01:25:01.13	10.18	40.04	-47.8	-49.5	18.3	0.00e+00	0	40	0	544210944	67	4337
2026-01-21 01:25:02.14	9.99	40.28	-47.7	-49.4	18.4	0.00e+00	0	40	0	545259520	67	4272
2026-01-21 01:25:03.15	9.79	40.53	-47.6	-49.2	18.6	0.00e+00	0	40	0	547356672	67	4182
2026-01-21 01:25:04.16	9.59	40.77	-47.3	-48.9	18.9	0.00e+00	0	40	0	549453824	66	4252
2026-01-21 01:25:05.17	9.38	41.01	-47.2	-48.7	19.1	0.00e+00	0	40	0	551550976	66	4155
2026-01-21 01:25:06.18	9.17	41.26	-47.2	-48.7	19.1	0.00e+00	0	40	0	552599552	66	4181
2026-01-21 01:25:07.18	8.96	41.50	-47.1	-48.6	19.3	0.00e+00	0	40	0	554696704	66	4140
2026-01-21 01:25:08.19	8.75	41.75	-47.2	-48.7	19.2	0.00e+00	0	40	0	556793856	66	4167
2026-01-21 01:25:09.20	8.53	42.00	-46.8	-48.3	19.6	0.00e+00	0	40	0	558891008	65	4205
2026-01-21 01:25:10.21	8.31	42.25	-46.7	-48.1	19.7	0.00e+00	0	40	0	560988160	65	4131
2026-01-21 01:25:11.22	8.08	42.51	-46.6	-48.0	19.8	0.00e+00	0	40	0	563085312	65	4086
2026-01-21 01:25:12.22	7.86	42.76	-46.6	-48.1	19.8	0.00e+00	0	40	0	564133888	65	4108
2026-01-21 01:25:13.23	7.63	43.01	-46.7	-48.1	19.7	0.00e+00	0	40	0	566231040	65	4120
2026-01-21 01:25:14.24	7.39	43.27	-46.5	-47.9	20.0	0.00e+00	0	40	0	568328192	64	4255
2026-01-21 01:25:15.24	7.15	43.52	-46.2	-47.6	20.3	0.00e+00	0	40	0	570425344	64	4099
2026-01-21 01:25:16.25	6.91	43.78	-46.1	-47.4	20.4	0.00e+00	0	40	0	572522496	64	4027
2026-01-21 01:25:17.26	6.66	44.04	-46.3	-47.6	20.2	0.00e+00	0	40	0	573571072	64	4118
2026-01-21 01:25:18.27	6.41	44.30	-46.3	-47.6	20.2	0.00e+00	0	40	0	575668224	64	4145
2026-01-21 01:25:19.28	6.15	44.56	-46.3	-47.6	20.2	0.00e+00	0	40	0	577765376	64	4139
2026-01-21 01:25:20.29	5.89	44.82	-46.3	-47.6	20.3	0.00e+00	0	40	0	579862528	64	4113
2026-01-21 01:25:21.29	5.63	45.08	-46.1	-47.4	20.4	0.00e+00	0	40	0	581959680	64	4045
2026-01-21 01:25:22.30	5.36	45.35	-46.0	-47.3	20.5	0.00e+00	0	40	0	583008256	64	3994
2026-01-21 01:25:23.31	5.08	45.61	-46.2	-47.5	20.5	0.00e+00	0	40	0	585105408	63	4301
2026-01-21 01:25:24.32	4.81	45.88	-46.0	-47.2	20.7	0.00e+00	0	40	0	587202560	63	4169
2026-01-21 01:25:25.33	4.52	46.15	-45.8	-47.0	20.9	0.00e+00	0	40	0	589299712	63	4094
2026-01-21 01:25:26.33	4.24	46.41	-45.8	-47.0	20.9	0.00e+00	0	40	0	591396864	63	4088
2026-01-21 01:25:27.34	3.94	46.68	-45.9	-47.1	20.8	0.00e+00	0	40	0	592445440	63	4130
2026-01-21 01:25:28.35	3.64	46.95	-45.8	-47.1	20.9	0.00e+00	0	40	0	594542592	63	4111
2026-01-21 01:25:29.36	3.34	47.23	-46.0	-47.3	20.7	0.00e+00	0	40	0	596639744	63	4209
2026-01-21 01:25:30.36	3.03	47.49	-46.1	-47.4	20.5	0.00e+00	0	40	0	598736896	63	4274
2026-01-21 01:25:31.37	2.72	47.77	-46.1	-47.3	20.6	0.00e+00	0	40	0	600834048	63	4229
2026-01-21 01:25:32.38	2.40	48.04	-45.8	-47.0	20.9	0.00e+00	0	40	0	601882624	63	4084
2026-01-21 01:25:33.39	2.07	48.32	-46.0	-47.2	20.7	0.00e+00	0	40	0	603979776	63	4182
2026-01-21 01:25:34.40	1.74	48.59	-46.1	-47.4	20.6	0.00e+00	0	40	0	606076928	63	4267
2026-01-21 01:25:35.40	1.40	48.86	-46.1	-47.4	20.5	0.00e+00	0	40	0	608174080	63	4247
2026-01-21 01:25:36.41	1.06	49.14	-45.9	-47.2	20.8	0.00e+00	0	40	0	610271232	63	4162
2026-01-21 01:25:37.42	0.71	49.42	-45.8	-47.0	20.9	0.00e+00	0	40	0	611319808	63	4066
2026-01-21 01:25:38.43	0.35	49.69	-45.9	-47.1	20.9	0.00e+00	0	40	0	613416960	63	4121
2026-01-21 01:25:39.44	359.99	49.97	-45.8	-47.0	20.7	0.00e+00	0	40	0	615514112	63	4080
2026-01-21 01:25:40.45	359.62	50.25	-45.9	-47.2	20.8	0.00e+00	0	40	0	617611264	63	4147
2026-01-21 01:25:41.46	359.24	50.53	-45.6	-46.8	21.1	0.00e+00	0	40	0	619708416	63	3960
2026-01-21 01:25:42.47	358.85	50.81	-45.5	-46.7	21.2	0.00e+00	0	40	0	620756992	63	3948
2026-01-21 01:25:43.47	358.46	51.09	-45.4	-46.6	21.3	0.00e+00	0	40	0	622854144	62	4107
2026-01-21 01:25:44.48	358.07	51.37	-45.4	-46.5	21.3	0.00e+00	0	40	0	624951296	62	4097
2026-01-21 01:25:45.49	357.66	51.65	-45.5	-46.7	21.3	0.00e+00	0	40	0	627048448	62	4146
2026-01-21 01:25:46.50	357.24	51.93	-45.5	-46.6	21.3	0.00e+00	0	40	0	629145600	62	4144
2026-01-21 01:25:47.50	356.82	52.20	-45.4	-46.5	21.4	0.00e+00	0	40	0	630194176	62	4098
2026-01-21 01:25:48.51	356.39	52.48	-45.2	-46.3	21.6	0.00e+00	0	40	0	632291328	62	3991
2026-01-21 01:25:49.52	355.95	52.76	-45.3	-46.4	21.6	0.00e+00	0	40	0	634388480	62	4030
2026-01-21 01:25:50.53	355.51	53.04	-45.1	-46.2	21.7	0.00e+00	0	40	0	636485632	62	3955
2026-01-21 01:25:51.54	355.05	53.32	-45.1	-46.2	21.7	0.00e+00	0	40	0	638582784	62	3929
2026-01-21 01:25:52.55	354.58	53.60	-44.9	-46.0	21.9	0.00e+00	0	40	0	639631360	61	4061
2026-01-21 01:25:53.56	354.11	53.88	-45.0	-46.1	21.8	0.00e+00	0	40	0	641728512	61	4138
2026-01-21 01:25:54.56	353.63	54.15	-45.1	-46.2	21.7	0.00e+00	0	40	0	643825664	61	4193
2026-01-21 01:25:55.57	353.14	54.43	-44.9	-46.0	21.9	0.00e+00	0	40	0	645922816	61	4074
2026-01-21 01:25:56.58	352.63	54.71	-45.1	-46.3	21.7	0.00e+00	0	40	0	648019968	61	4199
2026-01-21 01:25:57.59	352.12	54.98	-45.6	-46.8	21.2	0.00e+00	0	40	0	650117120	61	4480
2026-01-21 01:25:58.60	351.60	55.26	-46.2	-47.5	20.6	0.00e+00	0	40	0	651165696	62	4550
2026-01-21 01:25:59.61	351.07	55.53	-46.5	-47.9	20.2	0.00e+00	0	40	0	653262848	63	4511
2026-01-21 01:26:00.61	350.53	55.80	-46.7	-48.1	19.9	0.00e+00	0	40	0	655360000	64	4353
2026-01-21 01:26:01.62	349.97	56.07	-47.0	-48.4	19.6	0.00e+00	0	40	0	657457152	64	4526
2026-01-21 01:26:02.63	349.41	56.34	-47.3	-48.8	19.2	0.00e+00	0	40	0	658505728	65	4463
2026-01-21 01:26:03.64	348.83	56.61	-47.4	-49.0	19.0	0.00e+00	0	40	0	660602880	65	4583
2026-01-21 01:26:04.65	348.24	56.88	-47.1	-48.6	19.3	0.00e+00	0	40	0	662700032	65	4388
2026-01-21 01:26:05.65	347.65	57.14	-47.1	-48.5	19.4	0.00e+00	0	40	0	664797184	65	4337
2026-01-21 01:26:06.66	347.04	57.41	-47.1	-48.6	19.4	0.00e+00	0	40	0	666894336	65	4349
2026-01-21 01:26:07.67	346.41	57.67	-46.9	-48.4	19.7	0.00e+00	0	40	0	667942912	65	4256
2026-01-21 01:26:08.67	345.79	57.92	-46.6	-48.0	20.0	0.00e+00	0	40	0	670040064	65	4068
2026-01-21 01:26:09.68	345.14	58.18	-46.8	-48.3	19.7	0.00e+00	0	40	0	672137216	65	4197
2026-01-21 01:26:10.69	344.48	58.44	-46.9	-48.3	19.7	0.00e+00	0	40	0	674234368	65	4234
2026-01-21 01:26:11.70	343.80	58.69	-46.8	-48.2	19.8	0.00e+00	0	40	0	676331520	65	4157
2026-01-21 01:26:12.70	343.12	58.94	-46.9	-48.3	19.6	0.00e+00	0	40	0	678428672	65	4223
2026-01-21 01:26:13.71	342.43	59.18	-46.8	-48.2	19.8	0.00e+00	0	40	0	679477248	65	4176
2026-01-21 01:26:14.72	341.71	59.43	-46.5	-47.9	20.0	0.00e+00	0	40	0	681574400	65	4042
2026-01-21 01:26:15.73	340.99	59.67	-46.0	-47.2	20.8	0.00e+00	0	40	0	683671552	63	4178
2026-01-21 01:26:16.74	340.25	59.90	-45.3	-46.5	21.5	0.00e+00	0	40	0	685768704	62	4061
2026-01-21 01:26:17.74	339.50	60.14	-45.3	-46.4	21.6	0.00e+00	0	40	0	687865856	62	4024
2026-01-21 01:26:18.75	338.74	60.37	-45.3	-46.4	21.6	0.00e+00	0	40	0	688914432	62	4035
2026-01-21 01:26:19.76	337.96	60.59	-45.6	-46.8	21.2	0.00e+00	0	40	0	691011584	62	4202
2026-01-21 01:26:20.77	337.16	60.81	-45.6	-46.8	21.2	0.00e+00	0	40	0	693108736	62	4229
2026-01-21 01:26:21.78	336.35	61.03	-45.4	-46.6	21.4	0.00e+00	0	40	0	695205888	62	4126
2026-01-21 01:26:22.79	335.53	61.25	-45.2	-46.3	21.6	0.00e+00	0	40	0	697303040	62	3984
2026-01-21 01:26:23.79	334.70	61.45	-44.8	-45.9	22.1	0.00e+00	0	40	0	698351616	61	4014
2026-01-21 01:26:24.80	333.85	61.66	-44.6	-45.6	22.3	0.00e+00	0	40	0	700448768	61	3900
2026-01-21 01:26:25.81	332.98	61.86	-44.2	-45.2	22.6	0.00e+00	0	40	0	702545920	60	3957
2026-01-21 01:26:26.82	332.11	62.05	-44.2	-45.2	22.9	0.00e+00	0	40	0	704643072	59	4148
2026-01-21 01:26:27.83	331.21	62.24	-43.9	-44.9	23.3	0.00e+00	0	40	0	706740224	59	4016
2026-01-21 01:26:28.83	330.31	62.42	-43.7	-44.6	23.5	0.00e+00	0	40	0	707788800	59	3894
2026-01-21 01:26:29.84	329.39	62.60	-43.8	-44.7	23.3	0.00e+00	0	40	0	709885952	59	3945
2026-01-21 01:26:30.85	328.46	62.77	-43.7	-44.7	23.5	0.00e+00	0	40	0	711983104	59	3919
2026-01-21 01:26:31.86	327.51	62.94	-43.7	-44.6	23.5	0.00e+00	0	40	0	714080256	59	3894
2026-01-21 01:26:32.86	326.56	63.09	-43.9	-44.8	23.3	0.00e+00	0	40	0	716177408	59	3988
2026-01-21 01:26:33.87	325.59	63.25	-43.8	-44.8	23.4	0.00e+00	0	40	0	717225984	59	3962
2026-01-21 01:26:34.88	324.61	63.39	-44.2	-45.2	23.0	0.00e+00	0	40	0	719323136	59	4148
2026-01-21 01:26:35.88	323.62	63.53	-44.3	-45.3	22.9	0.00e+00	0	40	0	721420288	59	4220
2026-01-21 01:26:36.89	322.61	63.66	-44.5	-45.6	22.6	0.00e+00	0	40	0	723517440	59	4361
2026-01-21 01:26:37.90	321.59	63.79	-44.4	-45.5	22.4	0.00e+00	0	40	0	725614592	60	4074
2026-01-21 01:26:38.91	320.56	63.91	-44.4	-45.5	22.5	0.00e+00	0	40	0	726663168	60	4054
2026-01-21 01:26:39.92	319.52	64.02	-44.1	-45.2	22.8	0.00e+00	0	40	0	728760320	60	3915
2026-01-21 01:26:40.92	318.48	64.12	-44.1	-45.1	22.8	0.00e+00	0	40	0	730857472	60	3878
2026-01-21 01:26:41.93	317.42	64.22	-44.3	-45.3	22.6	0.00e+00	0	40	0	732954624	60	3975
2026-01-21 01:26:42.94	316.35	64.30	-44.1	-45.1	22.8	0.00e+00	0	40	0	735051776	60	3883
2026-01-21 01:26:43.95	315.27	64.38	-44.2	-45.2	22.7	0.00e+00	0	40	0	736100352	60	3928
2026-01-21 01:26:44.96	314.19	64.45	-44.1	-45.0	22.8	0.00e+00	0	40	0	738197504	60	3865
2026-01-21 01:26:45.97	313.10	64.52	-44.1	-45.1	23.0	0.00e+00	0	40	0	740294656	59	4122
2026-01-21 01:26:46.98	312.00	64.57	-44.0	-44.9	23.2	0.00e+00	0	40	0	742391808	59	4050
2026-01-21 01:26:47.98	310.92	64.62	-43.7	-44.6	23.5	0.00e+00	0	40	0	744488960	59	3887
2026-01-21 01:26:48.99	309.81	64.66	-43.7	-44.6	23.5	0.00e+00	0	40	0	745537536	59	3886
2026-01-21 01:26:50.00	308.70	64.69	-43.8	-44.7	23.4	0.00e+00	0	40	0	747634688	59	3942
2026-01-21 01:26:51.01	307.59	64.71	-44.5	-45.6	22.6	0.00e+00	0	40	0	749731840	59	4359
2026-01-21 01:26:52.02	306.48	64.72	-44.4	-45.5	22.7	0.00e+00	0	40	0	751828992	59	4309
2026-01-21 01:26:53.02	305.38	64.72	-44.2	-45.2	23.0	0.00e+00	0	40	0	753926144	59	4146
2026-01-21 01:26:54.03	304.27	64.72	-43.3	-44.2	23.8	0.00e+00	0	40	0	754974720	58	3953
2026-01-21 01:26:55.04	303.15	64.71	-42.9	-43.7	24.3	0.00e+00	0	40	0	757071872	57	3950
2026-01-21 01:26:56.05	302.04	64.69	-43.3	-44.3	23.8	0.00e+00	0	40	0	759169024	57	4197
2026-01-21 01:26:57.06	300.94	64.66	-43.6	-44.5	23.4	0.00e+00	0	40	0	761266176	57	4314
2026-01-21 01:26:58.07	299.83	64.62	-43.8	-44.8	23.3	0.00e+00	0	40	0	763363328	58	4217
2026-01-21 01:26:59.07	298.74	64.57	-44.0	-44.9	23.2	0.00e+00	0	40	0	764411904	58	4286
2026-01-21 01:27:00.08	297.65	64.51	-44.4	-45.4	22.8	0.00e+00	0	40	0	766509056	59	4253
2026-01-21 01:27:01.09	296.56	64.45	-44.5	-45.5	22.7	0.00e+00	0	40	0	768606208	59	4323
2026-01-21 01:27:02.10	295.47	64.38	-44.3	-45.3	22.8	0.00e+00	0	40	0	770703360	59	4235
2026-01-21 01:27:03.11	294.40	64.30	-44.3	-45.3	22.9	0.00e+00	0	40	0	772800512	59	4216
2026-01-21 01:27:04.11	293.34	64.21	-44.2	-45.2	22.9	0.00e+00	0	40	0	773849088	59	4185
2026-01-21 01:27:05.12	292.28	64.12	-44.5	-45.5	22.7	0.00e+00	0	40	0	775946240	59	4331
2026-01-21 01:27:06.13	291.23	64.01	-44.4	-45.5	22.5	0.00e+00	0	40	0	778043392	60	4060
2026-01-21 01:27:07.14	290.19	63.90	-44.4	-45.4	22.5	0.00e+00	0	40	0	780140544	60	4016
2026-01-21 01:27:08.15	289.16	63.78	-44.1	-45.1	22.8	0.00e+00	0	40	0	782237696	60	3878
2026-01-21 01:27:09.16	288.14	63.66	-44.3	-45.2	23.0	0.00e+00	0	40	0	783286272	59	4193
2026-01-21 01:27:10.16	287.14	63.53	-44.1	-45.1	23.1	0.00e+00	0	40	0	785383424	59	4118
2026-01-21 01:27:11.17	286.14	63.39	-43.9	-44.9	23.3	0.00e+00	0	40	0	787480576	59	4017
2026-01-21 01:27:12.18	285.16	63.24	-43.8	-44.8	23.3	0.00e+00	0	40	0	789577728	59	3982
2026-01-21 01:27:13.19	284.18	63.09	-43.7	-44.7	23.5	0.00e+00	0	40	0	791674880	59	3917
2026-01-21 01:27:14.20	283.22	62.93	-43.7	-44.7	23.5	0.00e+00	0	40	0	793772032	59	3928
2026-01-21 01:27:15.21	282.28	62.76	-43.9	-44.9	23.2	0.00e+00	0	40	0	794820608	59	4026
2026-01-21 01:27:16.22	281.34	62.59	-43.7	-44.7	23.5	0.00e+00	0	40	0	796917760	59	3925
2026-01-21 01:27:17.23	280.42	62.41	-43.5	-44.4	23.7	0.00e+00	0	40	0	799014912	58	4021
2026-01-21 01:27:18.23	279.53	62.23	-43.6	-44.6	23.6	0.00e+00	0	40	0	801112064	58	4116
2026-01-21 01:27:19.24	278.63	62.04	-43.8	-44.7	23.4	0.00e+00	0	40	0	802160640	58	4186
2026-01-21 01:27:20.25	277.75	61.84	-44.1	-45.1	23.1	0.00e+00	0	40	0	804257792	58	4354
2026-01-21 01:27:21.26	276.89	61.64	-44.4	-45.4	22.8	0.00e+00	0	40	0	806354944	59	4274
2026-01-21 01:27:22.27	276.04	61.44	-44.6	-45.6	22.6	0.00e+00	0	40	0	808452096	59	4384
2026-01-21 01:27:23.28	275.20	61.23	-44.5	-45.6	22.4	0.00e+00	0	40	0	810549248	60	4099
2026-01-21 01:27:24.29	274.38	61.02	-45.2	-46.4	21.6	0.00e+00	0	40	0	812646400	61	4249
2026-01-21 01:27:25.30	273.57	60.80	-45.7	-46.8	21.2	0.00e+00	0	40	0	813694976	61	4486
2026-01-21 01:27:26.30	272.78	60.58	-45.9	-47.1	20.9	0.00e+00	0	40	0	815792128	62	4390
2026-01-21 01:27:27.31	272.00	60.35	-46.2	-47.4	20.6	0.00e+00	0	40	0	817889280	62	4541
2026-01-21 01:27:28.32	271.24	60.12	-46.5	-47.8	20.2	0.00e+00	0	40	0	819986432	63	4475
2026-01-21 01:27:29.33	270.48	59.88	-46.9	-48.3	19.7	0.00e+00	0	40	0	822083584	64	4481
2026-01-21 01:27:30.34	269.74	59.65	-47.6	-49.2	18.9	0.00e+00	0	40	0	823132160	65	4664
2026-01-21 01:27:31.35	269.02	59.41	-48.4	-50.3	17.9	0.00e+00	0	40	0	825229312	67	4716
2026-01-21 01:27:32.35	268.31	59.16	-48.8	-50.8	17.3	0.00e+00	0	40	0	827326464	68	4739
2026-01-21 01:27:33.36	267.62	58.92	-48.7	-50.6	17.5	0.00e+00	0	40	0	829423616	68	4616
2026-01-21 01:27:34.37	266.93	58.67	-48.5	-50.3	17.9	0.00e+00	0	40	0	830472192	68	4481
2026-01-21 01:27:35.38	266.26	58.41	-48.5	-50.4	17.7	0.00e+00	0	40	0	832569344	68	4528
2026-01-21 01:27:36.39	265.60	58.16	-48.3	-50.1	18.1	0.00e+00	0	40	0	834666496	68	4373
2026-01-21 01:27:37.40	264.95	57.90	-48.4	-50.2	18.0	0.00e+00	0	40	0	836763648	68	4424
2026-01-21 01:27:38.41	264.31	57.64	-48.6	-50.6	17.6	0.00e+00	0	40	0	838860800	68	4600
2026-01-21 01:27:39.42	263.69	57.38	-48.6	-50.6	17.5	0.00e+00	0	40	0	840957952	68	4613
2026-01-21 01:27:40.42	263.09	57.12	-47.6	-49.2	18.7	0.00e+00	0	40	0	842006528	67	4186
2026-01-21 01:27:41.43	262.49	56.85	-47.1	-48.6	19.4	0.00e+00	0	40	0	844103680	66	4111
2026-01-21 01:27:42.44	261.90	56.58	-46.6	-47.9	20.1	0.00e+00	0	39	0	846200832	65	4033
2026-01-21 01:27:43.45	261.32	56.31	-46.3	-47.5	20.4	0.00e+00	0	40	0	848297984	64	4098
2026-01-21 01:27:44.46	260.76	56.04	-46.2	-47.5	20.5	0.00e+00	0	40	0	850395136	64	4072
2026-01-21 01:27:45.46	260.21	55.77	-46.3	-47.6	20.4	0.00e+00	0	40	0	851443712	64	4112
2026-01-21 01:27:46.47	259.66	55.50	-46.1	-47.4	20.7	0.00e+00	0	40	0	853540864	63	4245
2026-01-21 01:27:47.48	259.13	55.22	-46.1	-47.4	20.6	0.00e+00	0	40	0	855638016	63	4272
2026-01-21 01:27:48.49	258.61	54.95	-46.1	-47.4	20.7	0.00e+00	0	40	0	857735168	63	4262
2026-01-21 01:27:49.50	258.10	54.67	-46.0	-47.3	20.7	0.00e+00	0	40	0	859832320	63	4223
2026-01-21 01:27:50.51	257.59	54.39	-45.7	-46.9	21.1	0.00e+00	0	40	0	860880896	63	4008
2026-01-21 01:27:51.52	257.10	54.12	-45.6	-46.8	21.2	0.00e+00	0	40	0	862978048	63	3979
2026-01-21 01:27:52.53	256.62	53.84	-45.5	-46.7	21.3	0.00e+00	0	40	0	865075200	62	4175
2026-01-21 01:27:53.53	256.15	53.56	-45.6	-46.8	21.2	0.00e+00	0	40	0	867172352	62	4214
2026-01-21 01:27:54.54	255.68	53.28	-46.0	-47.3	20.7	0.00e+00	0	40	0	869269504	62	4460
2026-01-21 01:27:55.55	255.23	53.00	-46.4	-47.8	20.2	0.00e+00	0	40	0	870318080	63	4460
2026-01-21 01:27:56.56	254.78	52.72	-46.6	-47.9	20.1	0.00e+00	0	40	0	872415232	63	4539
2026-01-21 01:27:57.57	254.34	52.44	-46.5	-47.9	20.0	0.00e+00	0	40	0	874512384	64	4272
2026-01-21 01:27:58.57	253.91	52.16	-46.8	-48.3	19.7	0.00e+00	0	40	0	876609536	64	4443
2026-01-21 01:27:59.58	253.49	51.88	-46.9	-48.3	19.6	0.00e+00	0	40	0	878706688	64	4475
2026-01-21 01:28:00.59	253.07	51.60	-46.9	-48.3	19.6	0.00e+00	0	40	0	880803840	64	4476
2026-01-21 01:28:01.60	252.67	51.32	-47.2	-48.8	19.2	0.00e+00	0	40	0	881852416	65	4457
2026-01-21 01:28:02.61	252.27	51.04	-47.7	-49.3	18.7	0.00e+00	0	40	0	883949568	65	4748
2026-01-21 01:28:03.61	251.88	50.77	-47.9	-49.6	18.5	0.00e+00	0	40	0	886046720	66	4610
2026-01-21 01:28:04.62	251.50	50.49	-47.7	-49.4	18.6	0.00e+00	0	40	0	888143872	66	4510
2026-01-21 01:28:05.63	251.12	50.21	-47.9	-49.6	18.5	0.00e+00	0	40	0	889192448	66	4599
2026-01-21 01:28:06.64	250.75	49.93	-47.8	-49.4	18.5	0.00e+00	0	40	0	891289600	66	4543
2026-01-21 01:28:07.65	250.38	49.65	-47.7	-49.3	18.6	0.00e+00	0	40	0	893386752	66	4472
2026-01-21 01:28:08.65	250.03	49.37	-47.5	-49.2	18.8	0.00e+00	0	40	0	895483904	66	4393
2026-01-21 01:28:09.66	249.68	49.10	-47.3	-48.9	19.0	0.00e+00	0	40	0	897581056	66	4260
2026-01-21 01:28:10.67	249.33	48.82	-47.0	-48.5	19.5	0.00e+00	0	40	0	898629632	66	4053
2026-01-21 01:28:11.68	249.00	48.54	-47.1	-48.6	19.4	0.00e+00	0	40	0	900726784	65	4341
2026-01-21 01:28:12.69	248.66	48.27	-47.0	-48.5	19.4	0.00e+00	0	40	0	902823936	65	4300
2026-01-21 01:28:13.70	248.34	47.99	-47.0	-48.5	19.5	0.00e+00	0	40	0	904921088	65	4301
2026-01-21 01:28:14.71	248.02	47.72	-46.7	-48.1	19.8	0.00e+00	0	40	0	907018240	65	4115
2026-01-21 01:28:15.72	247.70	47.44	-46.6	-47.9	20.0	0.00e+00	0	40	0	909115392	65	4049
2026-01-21 01:28:16.72	247.39	47.17	-46.7	-48.1	19.8	0.00e+00	0	40	0	910163968	64	4369
2026-01-21 01:28:17.73	247.09	46.90	-46.4	-47.8	20.0	0.00e+00	0	40	0	912261120	64	4221
2026-01-21 01:28:18.74	246.79	46.63	-46.4	-47.7	20.1	0.00e+00	0	40	0	914358272	64	4178
2026-01-21 01:28:19.75	246.50	46.36	-46.6	-47.9	19.9	0.00e+00	0	40	0	916455424	64	4288
2026-01-21 01:28:20.76	246.21	46.09	-46.8	-48.2	19.7	0.00e+00	0	40	0	917504000	64	4415
2026-01-21 01:28:21.77	245.93	45.82	-46.9	-48.3	19.5	0.00e+00	0	40	0	919601152	64	4476
2026-01-21 01:28:22.77	245.65	45.56	-46.6	-48.0	19.8	0.00e+00	0	40	0	921698304	64	4330
2026-01-21 01:28:23.78	245.38	45.29	-46.5	-47.8	20.0	0.00e+00	0	40	0	923795456	64	4229
2026-01-21 01:28:24.79	245.11	45.03	-46.5	-47.8	20.0	0.00e+00	0	40	0	925892608	64	4239
2026-01-21 01:28:25.80	244.84	44.76	-46.4	-47.7	20.1	0.00e+00	0	40	0	927989760	64	4183
2026-01-21 01:28:26.81	244.58	44.50	-46.5	-47.9	19.9	0.00e+00	0	40	0	929038336	64	4272
2026-01-21 01:28:27.81	244.33	44.24	-46.8	-48.2	19.7	0.00e+00	0	40	0	931135488	64	4417
2026-01-21 01:28:28.82	244.07	43.98	-47.3	-48.9	19.0	0.00e+00	0	40	0	933232640	65	4497
2026-01-21 01:28:29.83	243.83	43.72	-47.7	-49.4	18.5	0.00e+00	0	40	0	935329792	65	4782
2026-01-21 01:28:30.84	243.58	43.46	-48.1	-49.9	18.0	0.00e+00	0	40	0	937426944	66	4811
2026-01-21 01:28:31.85	243.34	43.21	-48.3	-50.2	17.7	0.00e+00	0	40	0	938475520	67	4691
2026-01-21 01:28:32.85	243.11	42.95	-48.2	-50.1	17.9	0.00e+00	0	40	0	940572672	67	4606
2026-01-21 01:28:33.86	242.88	42.70	-48.0	-49.8	18.1	0.00e+00	0	40	0	942669824	67	4468
2026-01-21 01:28:34.87	242.65	42.44	-47.9	-49.6	18.2	0.00e+00	0	40	0	944766976	67	4347
2026-01-21 01:28:35.88	242.42	42.19	-48.0	-49.7	18.2	0.00e+00	0	40	0	945815552	67	4433
2026-01-21 01:28:36.88	242.20	41.94	-48.0	-49.7	18.2	0.00e+00	0	40	0	947912704	67	4410
2026-01-21 01:28:37.89	241.98	41.69	-48.1	-49.9	18.0	0.00e+00	0	40	0	950009856	67	4509
2026-01-21 01:28:38.90	241.77	41.44	-48.6	-50.6	17.4	0.00e+00	0	40	0	952107008	67	4890
2026-01-21 01:28:39.91	241.56	41.19	-49.1	-51.2	16.8	0.00e+00	0	40	0	954204160	68	4982
2026-01-21 01:28:40.92	241.35	40.95	-49.3	-51.5	16.5	0.00e+00	0	40	0	956301312	69	4855
2026-01-21 01:28:41.93	241.14	40.70	-49.5	-51.8	16.2	0.00e+00	0	40	0	957349888	69	5036
2026-01-21 01:28:42.93	240.94	40.46	-49.8	-52.4	15.6	0.00e+00	0	40	0	959447040	70	5060
2026-01-21 01:28:43.94	240.75	40.22	-49.9	-52.4	15.5	0.00e+00	0	40	0	961544192	70	5077
2026-01-21 01:28:44.95	240.55	39.98	-50.1	-52.8	15.2	0.00e+00	0	40	0	963641344	70	5330
2026-01-21 01:28:45.96	240.36	39.74	-50.2	-53.0	15.0	7.00e-07	0	40	0	965738496	71	5108
2026-01-21 01:28:46.97	240.17	39.50	-50.4	-53.3	14.7	0.00e+00	0	40	0	966787072	71	5320
2026-01-21 01:28:47.98	239.98	39.26	-50.3	-53.2	14.7	7.00e-07	0	40	0	968884224	71	5260
2026-01-21 01:28:48.99	239.79	39.02	-50.1	-52.9	15.1	0.00e+00	0	40	0	970981376	71	5042
2026-01-21 01:28:49.99	239.61	38.79	-50.0	-52.6	15.3	0.00e+00	0	40	0	973078528	71	4912
2026-01-21 01:28:51.00	239.44	38.56	-49.6	-51.9	16.0	0.00e+00	0	40	0	975175680	71	4537
2026-01-21 01:28:52.01	239.26	38.32	-49.5	-51.9	16.1	0.00e+00	0	40	0	976224256	70	4771
2026-01-21 01:28:53.02	239.08	38.09	-49.3	-51.5	16.4	0.00e+00	0	40	0	978321408	70	4591
2026-01-21 01:28:54.02	238.91	37.86	-49.1	-51.3	16.7	0.00e+00	0	40	0	980418560	70	4476
2026-01-21 01:28:55.03	238.75	37.64	-48.8	-50.8	17.1	0.00e+00	0	40	0	982515712	69	4490
2026-01-21 01:28:56.04	238.58	37.41	-48.5	-50.5	17.5	0.00e+00	0	40	0	984612864	69	4306
2026-01-21 01:28:57.05	238.41	37.18	-48.3	-50.1	17.8	0.00e+00	0	40	0	985661440	68	4385
2026-01-21 01:28:58.05	238.25	36.96	-48.2	-50.0	18.0	0.00e+00	0	40	0	987758592	68	4310
2026-01-21 01:28:59.06	238.09	36.73	-47.9	-49.6	18.2	0.00e+00	0	40	0	989855744	67	4356
2026-01-21 01:29:00.07	237.94	36.51	-47.9	-49.6	18.2	0.00e+00	0	40	0	991952896	67	4354
2026-01-21 01:29:01.08	237.78	36.29	-47.8	-49.5	18.4	0.00e+00	0	40	0	994050048	67	4297
2026-01-21 01:29:02.08	237.63	36.07	-47.3	-48.9	18.9	0.00e+00	0	40	0	995098624	66	4267
2026-01-21 01:29:03.09	237.48	35.85	-47.0	-48.5	19.2	0.00e+00	0	40	0	997195776	66	4064
2026-01-21 01:29:04.10	237.33	35.64	-46.9	-48.4	19.4	0.00e+00	0	40	0	999292928	65	4244
2026-01-21 01:29:05.11	237.18	35.42	-46.8	-48.2	19.5	0.00e+00	0	40	0	1001390080	65	4160
2026-01-21 01:29:06.12	237.04	35.21	-46.9	-48.4	19.4	0.00e+00	0	40	0	1003487232	65	4267
2026-01-21 01:29:07.13	236.89	34.99	-47.1	-48.7	19.1	0.00e+00	0	40	0	1004535808	65	4398
2026-01-21 01:29:08.13	236.75	34.78	-47.5	-49.1	18.7	0.00e+00	0	40	0	1006632960	65	4616
2026-01-21 01:29:09.14	236.61	34.57	-47.6	-49.3	18.5	0.00e+00	0	40	0	1008730112	65	4731
2026-01-21 01:29:10.15	236.47	34.36	-47.6	-49.2	18.6	0.00e+00	0	40	0	1010827264	66	4422
2026-01-21 01:29:11.16	236.34	34.15	-47.6	-49.3	18.5	0.00e+00	0	40	0	1012924416	66	4481
2026-01-21 01:29:12.16	236.21	33.95	-47.5	-49.1	18.6	0.00e+00	0	40	0	1013972992	66	4384
2026-01-21 01:29:13.17	236.07	33.74	-47.5	-49.1	18.7	0.00e+00	0	40	0	1016070144	66	4367
2026-01-21 01:29:14.18	235.94	33.53	-47.2	-48.7	19.0	0.00e+00	0	40	0	1018167296	66	4193
2026-01-21 01:29:15.19	235.81	33.33	-47.2	-48.8	18.9	0.00e+00	0	40	0	1020264448	66	4231
2026-01-21 01:29:16.20	235.69	33.13	-47.3	-48.9	18.9	0.00e+00	0	40	0	1022361600	66	4248
2026-01-21 01:29:17.20	235.56	32.93	-47.4	-49.1	18.7	0.00e+00	0	40	0	1023410176	66	4360
2026-01-21 01:29:18.21	235.44	32.73	-47.7	-49.4	18.3	0.00e+00	0	40	0	1025507328	66	4541
2026-01-21 01:29:19.22	235.31	32.53	-47.9	-49.7	18.1	0.00e+00	0	40	0	1027604480	66	4669
2026-01-21 01:29:20.23	235.19	32.33	-48.1	-49.9	17.8	0.00e+00	0	40	0	1029701632	66	4786
2026-01-21 01:29:21.24	235.07	32.13	-48.2	-50.2	17.6	0.00e+00	0	40	0	1031798784	67	4659
2026-01-21 01:29:22.24	234.96	31.94	-48.3	-50.2	17.5	0.00e+00	0	40	0	1032847360	67	4666
2026-01-21 01:29:23.25	234.84	31.74	-48.3	-50.2	17.5	0.00e+00	0	40	0	1034944512	67	4702
2026-01-21 01:29:24.26	234.72	31.55	-48.2	-50.1	17.6	0.00e+00	0	40	0	1037041664	67	4626
2026-01-21 01:29:25.27	234.61	31.36	-48.1	-50.0	17.8	0.00e+00	0	40	0	1039138816	67	4546
2026-01-21 01:29:26.28	234.50	31.17	-48.0	-49.8	17.9	0.00e+00	0	40	0	1041235968	67	4490
2026-01-21 01:29:27.29	234.39	30.97	-47.8	-49.6	18.2	0.00e+00	0	40	0	1043333120	67	4356
2026-01-21 01:29:28.29	234.28	30.79	-47.8	-49.5	18.2	0.00e+00	0	40	0	1044381696	67	4313
2026-01-21 01:29:29.30	234.17	30.60	-47.6	-49.3	18.4	0.00e+00	0	40	0	1046478848	67	4201
2026-01-21 01:29:30.31	234.06	30.41	-47.5	-49.2	18.5	0.00e+00	0	40	0	1048576000	67	4160
2026-01-21 01:29:31.32	233.96	30.23	-47.5	-49.1	18.5	0.00e+00	0	40	0	1050673152	67	4140
2026-01-21 01:29:32.33	233.85	30.04	-47.6	-49.3	18.4	0.00e+00	0	40	0	1051721728	67	4226
2026-01-21 01:29:33.33	233.75	29.86	-47.8	-49.5	18.2	0.00e+00	0	40	0	1053818880	67	4319
2026-01-21 01:29:34.34	233.65	29.68	-47.9	-49.6	18.0	0.00e+00	0	40	0	1055916032	67	4387
2026-01-21 01:29:35.35	233.54	29.50	-48.1	-49.9	17.8	0.00e+00	0	40	0	1058013184	67	4527
2026-01-21 01:29:36.36	233.44	29.32	-48.1	-50.0	17.7	0.00e+00	0	40	0	1060110336	67	4566
2026-01-21 01:29:37.36	233.35	29.14	-48.4	-50.3	17.2	0.00e+00	0	40	0	1061158912	67	4741
2026-01-21 01:29:38.37	233.25	28.96	-48.3	-50.3	17.4	0.00e+00	0	40	0	1063256064	67	4727
2026-01-21 01:29:39.38	233.15	28.78	-48.4	-50.4	17.2	0.00e+00	0	40	0	1065353216	67	4807
2026-01-21 01:29:40.39	233.06	28.60	-48.5	-50.5	17.2	0.00e+00	0	40	0	1067450368	67	4820
2026-01-21 01:29:41.40	232.96	28.43	-48.5	-50.5	17.2	0.00e+00	0	40	0	1069547520	67	4822
2026-01-21 01:29:42.41	232.87	28.26	-48.3	-50.2	17.5	0.00e+00	0	40	0	1071644672	67	4669
2026-01-21 01:29:43.41	232.78	28.08	-48.2	-50.0	17.6	0.00e+00	0	40	0	1072693248	67	4589
2026-01-21 01:29:44.42	232.69	27.91	-48.0	-49.8	17.9	0.00e+00	0	40	0	1074790400	67	4451
2026-01-21 01:29:45.43	232.60	27.74	-47.7	-49.5	18.2	0.00e+00	0	40	0	1076887552	67	4310
2026-01-21 01:29:46.44	232.51	27.57	-47.5	-49.2	18.4	0.00e+00	0	40	0	1078984704	67	4170
2026-01-21 01:29:47.44	232.42	27.40	-47.4	-49.0	18.6	0.00e+00	0	40	0	1080033280	66	4331
2026-01-21 01:29:48.45	232.33	27.23	-47.3	-49.0	18.7	0.00e+00	0	40	0	1082130432	66	4294
2026-01-21 01:29:49.46	232.24	27.06	-47.2	-48.9	18.8	0.00e+00	0	40	0	1084227584	66	4244
2026-01-21 01:29:50.47	232.16	26.90	-47.3	-48.9	18.7	0.00e+00	0	40	0	1086324736	66	4275
2026-01-21 01:29:51.48	232.07	26.73	-47.3	-49.0	18.7	0.00e+00	0	40	0	1088421888	66	4293
2026-01-21 01:29:52.49	231.99	26.57	-47.4	-49.1	18.5	0.00e+00	0	40	0	1090519040	66	4372
2026-01-21 01:29:53.49	231.91	26.41	-47.5	-49.1	18.5	0.00e+00	0	40	0	1091567616	66	4391
2026-01-21 01:29:54.50	231.83	26.24	-47.5	-49.2	18.4	0.00e+00	0	40	0	1093664768	66	4429
2026-01-21 01:29:55.51	231.75	26.08	-47.6	-49.3	18.3	0.00e+00	0	40	0	1095761920	66	4472
2026-01-21 01:29:56.52	231.67	25.92	-47.6	-49.3	18.3	0.00e+00	0	40	0	1097859072	66	4463
2026-01-21 01:29:57.52	231.59	25.76	-47.4	-49.1	18.5	0.00e+00	0	40	0	1099956224	66	4357
2026-01-21 01:29:58.53	231.51	25.60	-47.4	-49.1	18.5	0.00e+00	0	40	0	1101004800	66	4344
2026-01-21 01:29:59.54	231.43	25.44	-47.4	-49.0	18.6	0.00e+00	0	40	0	1103101952	66	4321
2026-01-21 01:30:00.55	231.35	25.29	-47.3	-48.9	18.7	0.00e+00	0	40	0	1105199104	66	4256
2026-01-21 01:30:01.55	231.28	25.13	-47.2	-48.9	18.7	0.00e+00	0	40	0	1107296256	66	4251
2026-01-21 01:30:02.56	231.20	24.97	-47.1	-48.7	18.9	0.00e+00	0	40	0	1108344832	66	4165
2026-01-21 01:30:03.57	231.13	24.82	-47.1	-48.6	19.0	0.00e+00	0	40	0	1110441984	66	4125
2026-01-21 01:30:04.58	231.05	24.67	-47.1	-48.7	18.8	0.00e+00	0	40	0	1112539136	66	4186
2026-01-21 01:30:05.59	230.98	24.51	-47.1	-48.6	18.9	0.00e+00	0	40	0	1114636288	66	4145
2026-01-21 01:30:06.60	230.91	24.36	-47.1	-48.7	18.8	0.00e+00	0	40	0	1116733440	66	4188
2026-01-21 01:30:07.60	230.84	24.21	-47.2	-48.8	18.8	0.00e+00	0	40	0	1118830592	66	4200
2026-01-21 01:30:08.61	230.77	24.06	-47.2	-48.8	18.7	0.00e+00	0	40	0	1119879168	66	4227
2026-01-21 01:30:09.62	230.70	23.91	-47.2	-48.8	18.8	0.00e+00	0	40	0	1121976320	66	4197
2026-01-21 01:30:10.63	230.63	23.76	-47.1	-48.7	18.8	0.00e+00	0	40	0	1124073472	66	4191
2026-01-21 01:30:11.63	230.56	23.61	-47.2	-48.8	18.7	0.00e+00	0	40	0	1126170624	66	4230
2026-01-21 01:30:12.64	230.49	23.47	-47.1	-48.7	18.8	0.00e+00	0	40	0	1128267776	66	4165
2026-01-21 01:30:13.65	230.42	23.32	-47.0	-48.6	18.9	0.00e+00	0	40	0	1129316352	65	4379
2026-01-21 01:30:14.66	230.36	23.17	-46.7	-48.2	19.3	0.00e+00	0	40	0	1131413504	65	4178
2026-01-21 01:30:15.66	230.29	23.03	-46.7	-48.2	19.3	0.00e+00	0	40	0	1133510656	65	4146
2026-01-21 01:30:16.67	230.22	22.88	-46.6	-48.0	19.4	0.00e+00	0	40	0	1135607808	65	4084
2026-01-21 01:30:17.68	230.16	22.74	-46.5	-48.0	19.5	0.00e+00	0	40	0	1136656384	65	4068
2026-01-21 01:30:18.69	230.10	22.60	-46.4	-47.8	19.7	0.00e+00	0	40	0	1138753536	64	4214
2026-01-21 01:30:19.69	230.03	22.46	-46.2	-47.6	19.8	0.00e+00	0	40	0	1140850688	64	4129
2026-01-21 01:30:20.70	229.97	22.32	-46.2	-47.6	19.9	0.00e+00	0	40	0	1142947840	64	4102
2026-01-21 01:30:21.71	229.91	22.17	-46.1	-47.5	19.9	0.00e+00	0	40	0	1145044992	64	4076
2026-01-21 01:30:22.71	229.85	22.04	-46.0	-47.4	20.1	0.00e+00	0	40	0	1147142144	64	4018
2026-01-21 01:30:23.72	229.78	21.90	-46.1	-47.4	20.0	0.00e+00	0	40	0	1148190720	64	4036
2026-01-21 01:30:24.73	229.72	21.76	-46.0	-47.4	20.0	0.00e+00	0	40	0	1150287872	64	4026
2026-01-21 01:30:25.73	229.66	21.62	-46.1	-47.4	20.1	0.00e+00	0	40	0	1152385024	63	4271
2026-01-21 01:30:26.74	229.60	21.48	-46.1	-47.4	20.1	0.00e+00	0	40	0	1154482176	63	4271
2026-01-21 01:30:27.75	229.54	21.35	-46.2	-47.5	20.0	0.00e+00	0	40	0	1156579328	63	4325
2026-01-21 01:30:28.76	229.49	21.21	-46.2	-47.5	20.0	0.00e+00	0	40	0	1157627904	63	4339
2026-01-21 01:30:29.77	229.43	21.08	-46.2	-47.6	19.9	0.00e+00	0	40	0	1159725056	63	4377
2026-01-21 01:30:30.77	229.37	20.94	-46.2	-47.6	19.9	0.00e+00	0	40	0	1161822208	63	4345
2026-01-21 01:30:31.78	229.31	20.81	-46.2	-47.6	19.9	0.00e+00	0	40	0	1163919360	63	4361
2026-01-21 01:30:32.79	229.26	20.68	-46.3	-47.7	19.8	0.00e+00	0	40	0	1166016512	63	4401
2026-01-21 01:30:33.80	229.20	20.55	-46.3	-47.6	19.8	0.00e+00	0	40	0	1167065088	63	4390
2026-01-21 01:30:34.81	229.15	20.41	-46.3	-47.7	19.8	0.00e+00	0	40	0	1169162240	63	4421
2026-01-21 01:30:35.81	229.09	20.28	-46.4	-47.8	19.7	0.00e+00	0	40	0	1171259392	63	4477
2026-01-21 01:30:36.82	229.04	20.15	-46.4	-47.9	19.6	0.00e+00	0	40	0	1173356544	63	4497
2026-01-21 01:30:37.83	228.98	20.02	-46.3	-47.7	19.8	0.00e+00	0	40	0	1175453696	63	4426
2026-01-21 01:30:38.83	228.93	19.90	-46.5	-47.9	19.6	0.00e+00	0	40	0	1176502272	63	4522
2026-01-21 01:30:39.84	228.88	19.77	-46.4	-47.9	19.6	0.00e+00	0	40	0	1178599424	63	4494
2026-01-21 01:30:40.85	228.83	19.64	-46.3	-47.7	19.8	0.00e+00	0	40	0	1180696576	63	4413
2026-01-21 01:30:41.86	228.77	19.51	-46.4	-47.8	19.7	0.00e+00	0	40	0	1182793728	63	4476
2026-01-21 01:30:42.87	228.72	19.39	-46.4	-47.8	19.7	0.00e+00	0	40	0	1184890880	63	4457
2026-01-21 01:30:43.87	228.67	19.26	-46.3	-47.7	19.8	0.00e+00	0	39	0	1185939456	63	4435
2026-01-21 01:30:44.88	228.62	19.14	-46.5	-47.9	19.6	0.00e+00	0	40	0	1188036608	63	4535
2026-01-21 01:30:45.89	228.57	19.01	-46.4	-47.9	19.6	0.00e+00	0	40	0	1190133760	63	4520
2026-01-21 01:30:46.90	228.52	18.89	-46.5	-48.0	19.5	0.00e+00	0	40	0	1192230912	63	4569
2026-01-21 01:30:47.91	228.47	18.76	-46.6	-48.2	19.3	0.00e+00	0	40	0	1194328064	63	4655
2026-01-21 01:30:48.92	228.42	18.64	-46.5	-48.0	19.5	0.00e+00	0	40	0	1195376640	63	4579
2026-01-21 01:30:49.93	228.37	18.52	-46.7	-48.2	19.3	0.00e+00	0	40	0	1197473792	63	4666
2026-01-21 01:30:50.93	228.33	18.40	-46.6	-48.1	19.4	0.00e+00	0	40	0	1199570944	63	4625
2026-01-21 01:30:51.94	228.28	18.28	-46.7	-48.2	19.3	0.00e+00	0	40	0	1201668096	63	4670
2026-01-21 01:30:52.95	228.23	18.16	-46.7	-48.2	19.3	0.00e+00	0	40	0	1203765248	63	4669
2026-01-21 01:30:53.96	228.18	18.04	-46.6	-48.1	19.4	0.00e+00	0	40	0	1204813824	63	4603
2026-01-21 01:30:54.97	228.14	17.92	-46.5	-48.0	19.5	0.00e+00	0	40	0	1206910976	63	4550
2026-01-21 01:30:55.97	228.09	17.80	-46.5	-48.0	19.4	0.00e+00	0	40	0	1209008128	63	4567
2026-01-21 01:30:56.98	228.05	17.68	-46.4	-47.8	19.6	0.00e+00	0	40	0	1211105280	63	4493
2026-01-21 01:30:57.99	228.00	17.56	-46.4	-47.8	19.6	0.00e+00	0	40	0	1213202432	63	4477
2026-01-21 01:30:59.00	227.95	17.44	-46.4	-47.9	19.5	0.00e+00	0	40	0	1215299584	63	4513
2026-01-21 01:31:00.01	227.91	17.33	-46.2	-47.6	19.8	0.00e+00	0	40	0	1216348160	63	4365
2026-01-21 01:31:01.01	227.87	17.21	-46.1	-47.5	19.9	0.00e+00	0	40	0	1218445312	63	4327
2026-01-21 01:31:02.02	227.82	17.10	-46.1	-47.5	19.9	0.00e+00	0	40	0	1220542464	63	4334
2026-01-21 01:31:03.03	227.78	16.98	-46.1	-47.5	19.9	0.00e+00	0	40	0	1222639616	63	4312
2026-01-21 01:31:04.04	227.74	16.87	-46.0	-47.4	20.0	0.00e+00	0	40	0	1223688192	63	4275
2026-01-21 01:31:05.04	227.69	16.75	-46.1	-47.5	19.9	0.00e+00	0	40	0	1225785344	63	4301
2026-01-21 01:31:06.05	227.65	16.64	-46.2	-47.6	19.7	0.00e+00	0	40	0	1227882496	63	4381
2026-01-21 01:31:07.06	227.61	16.53	-46.3	-47.7	19.6	0.00e+00	0	40	0	1229979648	63	4441
2026-01-21 01:31:08.07	227.57	16.41	-46.2	-47.6	19.8	0.00e+00	0	40	0	1232076800	63	4369
2026-01-21 01:31:09.07	227.53	16.30	-46.3	-47.8	19.6	0.00e+00	0	40	0	1233125376	63	4466
2026-01-21 01:31:10.08	227.48	16.19	-46.5	-48.0	19.4	0.00e+00	0	40	0	1235222528	63	4547
2026-01-21 01:31:11.09	227.44	16.08	-46.5	-48.0	19.4	0.00e+00	0	40	0	1237319680	63	4561
2026-01-21 01:31:12.10	227.40	15.97	-46.6	-48.1	19.3	0.00e+00	0	40	0	1239416832	63	4623
2026-01-21 01:31:13.11	227.36	15.86	-46.7	-48.2	19.2	0.00e+00	0	40	0	1241513984	63	4688
2026-01-21 01:31:14.11	227.32	15.75	-46.7	-48.2	19.2	0.00e+00	0	40	0	1243611136	63	4683
2026-01-21 01:31:15.12	227.28	15.64	-46.6	-48.2	19.1	0.00e+00	0	40	0	1244659712	64	4416
2026-01-21 01:31:16.13	227.24	15.53	-46.7	-48.2	19.0	0.00e+00	0	40	0	1246756864	64	4437
2026-01-21 01:31:17.14	227.21	15.42	-46.8	-48.4	18.9	0.00e+00	0	40	0	1248854016	64	4495
2026-01-21 01:31:18.14	227.17	15.32	-46.7	-48.2	19.0	0.00e+00	0	40	0	1250951168	64	4440
2026-01-21 01:31:19.15	227.13	15.21	-46.8	-48.4	18.9	0.00e+00	0	40	0	1251999744	64	4494
