passes_logs/2026/01/21/R3.2S_Murmansk/R3.2S_Murmansk__20260121_061810_NOAA_20_JPSS-1_rec.log

#Pass ID: 20260121_061810_NOAA 20 (JPSS-1)
#Satellite: NOAA 20 (JPSS-1)
#Configuration: NOAA 20
#almurnet v.1.7.20251203
#Start time: 2026-01-21 06:18:10

#Version: 2.2.20231116
#Station: R3.2S_Murmansk
#Location: 33.079688 lon 68.888172 lat
#TLE: 1 43013U 17073A   26020.26397077  .00000127  00000+0  80954-4 0  9999
#TLE: 2 43013  98.7643 321.1479 0001288  31.3158 328.8095 14.19537595423482

#Time	Az	El	Level	Level2	SNR	BER	BlckErr	Temp	State	Recorded	gain1	gain2
2026-01-21 06:18:10.88	81.30	2.00	-52.5	-67.5	3.8	1.49e+00	0	38	0	0	77	19283
2026-01-21 06:18:11.89	81.24	2.06	-52.3	-67.3	3.8	1.49e+00	0	38	104	0	75	21032
2026-01-21 06:18:12.90	81.18	2.12	-52.3	-67.2	3.8	1.49e+00	0	38	104	0	75	20961
2026-01-21 06:18:13.91	81.12	2.18	-52.3	-67.2	3.8	1.49e+00	0	38	104	0	75	20914
2026-01-21 06:18:14.91	81.06	2.24	-52.2	-67.2	3.8	1.49e+00	0	38	104	0	75	20948
2026-01-21 06:18:15.92	81.00	2.30	-52.2	-67.2	3.8	1.49e+00	0	38	104	0	75	20936
2026-01-21 06:18:16.93	80.94	2.36	-52.2	-67.2	3.8	1.49e+00	0	38	104	0	75	20930
2026-01-21 06:18:17.94	80.88	2.41	-52.2	-67.2	3.8	1.49e+00	0	38	104	0	75	20884
2026-01-21 06:18:18.94	80.82	2.47	-52.2	-67.2	3.8	1.49e+00	0	38	104	0	75	20862
2026-01-21 06:18:19.96	80.76	2.53	-52.2	-67.2	3.8	1.49e+00	0	38	104	0	75	20954
2026-01-21 06:18:20.96	80.70	2.59	-52.2	-67.2	3.8	1.49e+00	0	38	104	0	75	20925
2026-01-21 06:18:21.97	80.63	2.65	-52.2	-67.2	3.8	1.49e+00	0	38	104	0	75	20917
2026-01-21 06:18:22.98	80.57	2.71	-52.2	-67.2	3.8	1.49e+00	0	38	104	0	75	20883
2026-01-21 06:18:23.99	80.51	2.77	-52.2	-67.2	3.8	1.49e+00	0	38	104	0	75	20909
2026-01-21 06:18:24.99	80.45	2.83	-52.2	-67.2	3.8	1.49e+00	0	38	104	0	75	20976
2026-01-21 06:18:26.00	80.38	2.89	-52.2	-67.2	3.8	1.49e+00	0	38	104	0	75	20941
2026-01-21 06:18:27.01	80.32	2.95	-52.2	-67.2	3.8	1.49e+00	0	38	104	0	75	20881
2026-01-21 06:18:28.02	80.26	3.01	-52.2	-67.2	3.8	1.49e+00	0	38	104	0	75	20852
2026-01-21 06:18:29.03	80.19	3.07	-52.2	-67.2	3.8	1.49e+00	0	38	104	0	75	20851
2026-01-21 06:18:30.04	80.13	3.13	-52.2	-67.2	3.8	1.49e+00	0	38	104	0	75	20857
2026-01-21 06:18:31.05	80.07	3.19	-52.2	-67.2	3.8	1.49e+00	0	38	104	0	75	20846
2026-01-21 06:18:32.05	80.00	3.25	-52.2	-67.2	3.8	1.49e+00	0	38	104	0	75	20846
2026-01-21 06:18:33.06	79.94	3.31	-52.2	-67.2	3.8	1.49e+00	0	38	104	0	75	20839
2026-01-21 06:18:34.07	79.87	3.37	-52.2	-67.1	3.8	1.49e+00	0	38	104	0	75	20726
2026-01-21 06:18:35.08	79.81	3.43	-52.2	-67.1	3.8	1.49e+00	0	38	104	0	75	20768
2026-01-21 06:18:36.09	79.74	3.49	-52.2	-67.1	3.8	1.49e+00	0	38	104	0	75	20755
2026-01-21 06:18:37.10	79.67	3.55	-52.2	-67.1	3.8	1.49e+00	0	39	104	0	75	20754
2026-01-21 06:18:38.11	79.61	3.61	-52.2	-67.2	3.8	1.49e+00	0	38	104	0	75	20790
2026-01-21 06:18:39.12	79.54	3.67	-52.2	-67.2	3.8	1.49e+00	0	39	104	0	75	20875
2026-01-21 06:18:40.13	79.48	3.74	-52.2	-67.2	3.8	1.49e+00	0	38	104	0	75	20896
2026-01-21 06:18:41.14	79.41	3.80	-52.2	-67.2	3.8	1.49e+00	0	39	104	0	75	20821
2026-01-21 06:18:42.14	79.34	3.86	-52.2	-67.1	3.8	1.49e+00	0	38	104	0	75	20647
2026-01-21 06:18:43.15	79.27	3.92	-52.2	-67.0	3.8	1.49e+00	0	38	104	0	75	20345
2026-01-21 06:18:44.16	79.21	3.98	-52.2	-66.8	3.8	1.49e+00	0	38	104	0	75	19925
2026-01-21 06:18:45.17	79.14	4.04	-52.2	-66.7	3.8	1.49e+00	0	38	104	0	75	19644
2026-01-21 06:18:46.17	79.07	4.10	-52.2	-66.5	3.8	1.49e+00	0	38	104	0	75	19337
2026-01-21 06:18:47.18	79.00	4.17	-52.2	-66.6	3.8	1.49e+00	0	39	104	0	75	19440
2026-01-21 06:18:48.19	78.93	4.23	-52.2	-66.5	3.8	1.49e+00	0	39	104	0	75	19320
2026-01-21 06:18:49.20	78.86	4.29	-52.2	-66.0	3.8	1.49e+00	0	39	104	0	75	18212
2026-01-21 06:18:50.21	78.79	4.35	-52.1	-65.0	3.8	1.49e+00	0	39	104	0	75	16180
2026-01-21 06:18:51.22	78.72	4.41	-51.9	-62.6	4.5	1.42e+00	11	39	0	0	75	12282
2026-01-21 06:18:52.23	78.65	4.48	-51.7	-60.5	5.7	5.60e-01	0	39	0	2097152	75	9648
2026-01-21 06:18:53.23	78.58	4.54	-51.4	-58.5	7.3	1.89e-01	0	39	0	4194304	74	8175
2026-01-21 06:18:54.24	78.51	4.60	-50.9	-56.8	9.0	6.84e-02	0	39	0	5242880	73	7083
2026-01-21 06:18:55.25	78.44	4.66	-50.4	-55.3	10.6	6.28e-03	0	39	0	7340032	72	6331
2026-01-21 06:18:56.26	78.37	4.73	-50.0	-54.3	11.7	8.82e-04	0	39	0	9437184	72	5612
2026-01-21 06:18:57.27	78.29	4.79	-49.8	-53.6	12.5	2.67e-04	0	39	0	11534336	71	5514
2026-01-21 06:18:58.27	78.22	4.85	-49.6	-53.3	12.8	9.53e-05	0	39	0	12582912	71	5325
2026-01-21 06:18:59.28	78.15	4.91	-49.3	-52.7	13.5	2.82e-05	0	39	0	14680064	70	5260
2026-01-21 06:19:00.29	78.08	4.98	-49.5	-53.0	13.2	1.37e-05	0	39	0	16777216	70	5449
2026-01-21 06:19:01.30	78.00	5.04	-49.7	-53.5	12.6	5.18e-05	0	39	0	18874368	70	5772
2026-01-21 06:19:02.30	77.93	5.10	-49.8	-53.5	12.4	2.26e-03	0	39	0	20971520	71	5464
2026-01-21 06:19:03.31	77.86	5.17	-48.0	-50.4	15.9	0.00e+00	0	39	0	23068672	67	4786
2026-01-21 06:19:04.32	77.78	5.23	-51.9	-63.4	3.9	5.91e-01	0	39	104	24117248	74	14334
2026-01-21 06:19:05.33	77.71	5.29	-48.5	-51.1	15.1	1.67e-05	0	39	0	24117248	69	4614
2026-01-21 06:19:06.34	77.63	5.36	-50.4	-55.3	10.6	2.83e-03	0	39	0	26214400	72	6303
2026-01-21 06:19:07.34	77.56	5.42	-49.1	-52.2	14.1	2.36e-05	0	39	0	28311552	70	4930
2026-01-21 06:19:08.35	77.48	5.49	-49.1	-52.2	14.0	7.00e-07	0	39	0	29360128	70	4976
2026-01-21 06:19:09.36	77.41	5.55	-49.0	-52.0	14.3	6.10e-06	0	39	0	31457280	69	5142
2026-01-21 06:19:10.37	77.33	5.61	-48.6	-51.3	15.0	7.00e-07	0	39	0	33554432	69	4723
2026-01-21 06:19:11.38	77.25	5.68	-48.1	-50.5	15.9	0.00e+00	0	39	0	35651584	68	4565
2026-01-21 06:19:12.38	77.18	5.74	-48.1	-50.5	15.9	0.00e+00	0	39	0	37748736	68	4590
2026-01-21 06:19:13.39	77.10	5.81	-48.0	-50.4	16.1	0.00e+00	0	39	0	38797312	68	4500
2026-01-21 06:19:14.40	77.02	5.87	-47.7	-49.9	16.5	0.00e+00	0	39	0	40894464	67	4508
2026-01-21 06:19:15.41	76.94	5.94	-47.7	-49.9	16.4	0.00e+00	0	39	0	42991616	67	4531
2026-01-21 06:19:16.42	76.86	6.00	-47.7	-49.9	16.5	0.00e+00	0	39	0	45088768	67	4522
2026-01-21 06:19:17.43	76.79	6.07	-47.8	-50.0	16.4	0.00e+00	0	39	0	47185920	67	4567
2026-01-21 06:19:18.44	76.71	6.13	-47.8	-50.1	16.3	0.00e+00	0	39	0	48234496	67	4600
2026-01-21 06:19:19.44	76.63	6.20	-47.8	-50.0	16.4	0.00e+00	0	39	0	50331648	67	4585
2026-01-21 06:19:20.45	76.55	6.26	-47.7	-49.9	16.6	0.00e+00	0	39	0	52428800	67	4512
2026-01-21 06:19:21.46	76.47	6.33	-47.7	-49.9	16.6	0.00e+00	0	39	0	54525952	67	4508
2026-01-21 06:19:22.47	76.39	6.39	-47.7	-49.9	16.6	0.00e+00	0	39	0	56623104	67	4500
2026-01-21 06:19:23.48	76.31	6.46	-47.6	-49.8	16.7	0.00e+00	0	39	0	57671680	67	4465
2026-01-21 06:19:24.48	76.22	6.52	-47.7	-49.9	16.6	0.00e+00	0	39	0	59768832	67	4505
2026-01-21 06:19:25.49	76.14	6.59	-47.5	-49.6	16.9	0.00e+00	0	39	0	61865984	67	4384
2026-01-21 06:19:26.50	76.06	6.66	-47.6	-49.8	16.7	0.00e+00	0	39	0	63963136	66	4720
2026-01-21 06:19:27.51	75.98	6.72	-47.6	-49.7	16.8	0.00e+00	0	39	0	66060288	66	4660
2026-01-21 06:19:28.52	75.89	6.79	-47.7	-49.8	16.7	0.00e+00	0	39	0	67108864	66	4736
2026-01-21 06:19:29.52	75.81	6.85	-47.6	-49.8	16.8	0.00e+00	0	39	0	69206016	66	4719
2026-01-21 06:19:30.53	75.73	6.92	-47.6	-49.7	16.9	0.00e+00	0	39	0	71303168	66	4654
2026-01-21 06:19:31.54	75.64	6.99	-47.7	-49.9	16.6	0.00e+00	0	39	0	73400320	66	4800
2026-01-21 06:19:32.55	75.56	7.05	-47.7	-49.8	16.7	0.00e+00	0	39	0	75497472	66	4730
2026-01-21 06:19:33.56	75.47	7.12	-47.7	-49.8	16.7	0.00e+00	0	39	0	76546048	66	4757
2026-01-21 06:19:34.56	75.39	7.19	-47.7	-49.8	16.7	0.00e+00	0	39	0	78643200	66	4745
2026-01-21 06:19:35.57	75.30	7.25	-47.4	-49.5	17.1	0.00e+00	0	39	0	80740352	66	4559
2026-01-21 06:19:36.58	75.22	7.32	-47.6	-49.8	16.9	0.00e+00	0	39	0	82837504	66	4710
2026-01-21 06:19:37.59	75.13	7.39	-47.6	-49.7	16.9	0.00e+00	0	39	0	84934656	66	4654
2026-01-21 06:19:38.60	75.04	7.45	-47.5	-49.6	17.0	0.00e+00	0	39	0	85983232	66	4622
2026-01-21 06:19:39.60	74.96	7.52	-47.6	-49.6	17.0	0.00e+00	0	39	0	88080384	66	4644
2026-01-21 06:19:40.61	74.87	7.59	-47.6	-49.6	17.0	0.00e+00	0	39	0	90177536	66	4633
2026-01-21 06:19:41.62	74.78	7.66	-47.6	-49.6	17.0	0.00e+00	0	39	0	92274688	66	4630
2026-01-21 06:19:42.63	74.69	7.72	-47.6	-49.6	17.0	0.00e+00	0	39	0	94371840	66	4644
2026-01-21 06:19:43.63	74.60	7.79	-47.4	-49.4	17.3	0.00e+00	0	39	0	95420416	66	4520
2026-01-21 06:19:44.64	74.51	7.86	-47.6	-49.6	17.1	0.00e+00	0	39	0	97517568	66	4619
2026-01-21 06:19:45.65	74.42	7.93	-47.6	-49.6	17.0	0.00e+00	0	39	0	99614720	66	4651
2026-01-21 06:19:46.66	74.33	8.00	-47.5	-49.6	17.1	0.00e+00	0	39	0	101711872	66	4611
2026-01-21 06:19:47.67	74.24	8.06	-47.5	-49.5	17.2	0.00e+00	0	39	0	103809024	66	4565
2026-01-21 06:19:48.68	74.15	8.13	-47.5	-49.5	17.2	0.00e+00	0	39	0	104857600	66	4589
2026-01-21 06:19:49.68	74.06	8.20	-47.4	-49.4	17.3	0.00e+00	0	39	0	106954752	66	4507
2026-01-21 06:19:50.69	73.97	8.27	-47.3	-49.3	17.4	0.00e+00	0	39	0	109051904	66	4446
2026-01-21 06:19:51.70	73.87	8.34	-47.5	-49.5	17.1	0.00e+00	0	39	0	111149056	66	4582
2026-01-21 06:19:52.71	73.78	8.41	-47.3	-49.3	17.4	0.00e+00	0	39	0	113246208	66	4465
2026-01-21 06:19:53.72	73.69	8.48	-47.4	-49.3	17.4	0.00e+00	0	39	0	114294784	66	4487
2026-01-21 06:19:54.73	73.59	8.55	-47.4	-49.3	17.4	0.00e+00	0	39	0	116391936	66	4491
2026-01-21 06:19:55.73	73.50	8.61	-47.4	-49.4	17.3	0.00e+00	0	39	0	118489088	66	4528
2026-01-21 06:19:56.74	73.40	8.68	-47.4	-49.4	17.3	0.00e+00	0	39	0	120586240	66	4519
2026-01-21 06:19:57.75	73.31	8.75	-47.5	-49.4	17.3	0.00e+00	0	39	0	122683392	66	4543
2026-01-21 06:19:58.76	73.21	8.82	-47.4	-49.3	17.4	0.00e+00	0	39	0	123731968	66	4471
2026-01-21 06:19:59.77	73.12	8.89	-47.3	-49.2	17.5	0.00e+00	0	39	0	125829120	66	4416
2026-01-21 06:20:00.78	73.02	8.96	-47.4	-49.3	17.4	0.00e+00	0	39	0	127926272	66	4474
2026-01-21 06:20:01.78	72.92	9.03	-47.4	-49.3	17.5	0.00e+00	0	39	0	130023424	66	4461
2026-01-21 06:20:02.79	72.82	9.10	-47.3	-49.2	17.6	0.00e+00	0	39	0	132120576	66	4398
2026-01-21 06:20:03.80	72.73	9.17	-47.4	-49.3	17.5	0.00e+00	0	39	0	134217728	66	4458
2026-01-21 06:20:04.81	72.63	9.24	-47.4	-49.3	17.5	0.00e+00	0	39	0	135266304	66	4484
2026-01-21 06:20:05.82	72.53	9.31	-47.3	-49.2	17.6	0.00e+00	0	39	0	137363456	66	4415
2026-01-21 06:20:06.83	72.43	9.38	-47.4	-49.4	17.4	0.00e+00	0	39	0	139460608	66	4497
2026-01-21 06:20:07.83	72.33	9.45	-47.5	-49.4	17.4	0.00e+00	0	39	0	141557760	66	4538
2026-01-21 06:20:08.84	72.23	9.52	-47.5	-49.4	17.4	0.00e+00	0	39	0	142606336	66	4528
2026-01-21 06:20:09.84	72.13	9.59	-47.5	-49.5	17.3	0.00e+00	0	39	0	144703488	66	4582
2026-01-21 06:20:10.85	72.03	9.66	-47.6	-49.6	17.2	0.00e+00	0	40	0	146800640	66	4633
2026-01-21 06:20:11.86	71.92	9.74	-47.6	-49.6	17.3	0.00e+00	0	39	0	148897792	66	4600
2026-01-21 06:20:12.87	71.82	9.81	-47.4	-49.3	17.5	0.00e+00	0	39	0	150994944	66	4483
2026-01-21 06:20:13.88	71.72	9.88	-47.3	-49.2	17.6	0.00e+00	0	39	0	152043520	66	4412
2026-01-21 06:20:14.88	71.61	9.95	-47.3	-49.2	17.6	0.00e+00	0	39	0	154140672	66	4428
2026-01-21 06:20:15.89	71.51	10.02	-47.3	-49.2	17.7	0.00e+00	0	39	0	156237824	66	4404
2026-01-21 06:20:16.90	71.40	10.09	-47.2	-49.1	17.8	0.00e+00	0	39	0	158334976	66	4342
2026-01-21 06:20:17.91	71.30	10.16	-47.3	-49.1	17.7	0.00e+00	0	39	0	160432128	66	4371
2026-01-21 06:20:18.92	71.19	10.24	-47.1	-48.9	17.9	0.00e+00	0	39	0	162529280	66	4260
2026-01-21 06:20:19.93	71.09	10.31	-47.0	-48.8	18.0	0.00e+00	0	39	0	163577856	66	4224
2026-01-21 06:20:20.93	70.98	10.38	-47.0	-48.7	18.1	0.00e+00	0	39	0	165675008	66	4181
2026-01-21 06:20:21.94	70.87	10.45	-46.9	-48.6	18.2	0.00e+00	0	39	0	167772160	65	4370
2026-01-21 06:20:22.95	70.76	10.52	-46.9	-48.6	18.3	0.00e+00	0	39	0	169869312	65	4345
2026-01-21 06:20:23.95	70.66	10.60	-46.9	-48.6	18.3	0.00e+00	0	39	0	170917888	65	4363
2026-01-21 06:20:24.96	70.55	10.67	-46.9	-48.7	18.2	0.00e+00	0	39	0	173015040	65	4407
2026-01-21 06:20:25.97	70.44	10.74	-46.8	-48.5	18.3	0.00e+00	0	39	0	175112192	65	4335
2026-01-21 06:20:26.98	70.33	10.81	-46.9	-48.6	18.3	0.00e+00	0	39	0	177209344	65	4344
2026-01-21 06:20:27.99	70.22	10.89	-46.9	-48.6	18.3	0.00e+00	0	39	0	179306496	65	4354
2026-01-21 06:20:28.99	70.11	10.96	-46.9	-48.6	18.4	0.00e+00	0	39	0	181403648	65	4345
2026-01-21 06:20:30.00	69.99	11.03	-46.8	-48.5	18.4	0.00e+00	0	39	0	182452224	65	4306
2026-01-21 06:20:31.01	69.88	11.11	-46.9	-48.6	18.3	0.00e+00	0	39	0	184549376	65	4356
2026-01-21 06:20:32.02	69.77	11.18	-46.9	-48.6	18.3	0.00e+00	0	39	0	186646528	65	4347
2026-01-21 06:20:33.03	69.65	11.25	-46.9	-48.7	18.3	0.00e+00	0	39	0	188743680	65	4392
2026-01-21 06:20:34.04	69.54	11.33	-46.9	-48.6	18.3	0.00e+00	0	39	0	190840832	65	4356
2026-01-21 06:20:35.05	69.42	11.40	-46.9	-48.6	18.3	0.00e+00	0	39	0	191889408	65	4386
2026-01-21 06:20:36.05	69.31	11.47	-46.9	-48.6	18.3	0.00e+00	0	39	0	193986560	65	4377
2026-01-21 06:20:37.06	69.19	11.55	-46.9	-48.7	18.3	0.00e+00	0	39	0	196083712	65	4404
2026-01-21 06:20:38.07	69.08	11.62	-47.0	-48.8	18.2	0.00e+00	0	39	0	198180864	65	4443
2026-01-21 06:20:39.08	68.96	11.69	-46.9	-48.6	18.3	0.00e+00	0	39	0	199229440	65	4383
2026-01-21 06:20:40.09	68.84	11.77	-46.9	-48.6	18.3	0.00e+00	0	39	0	201326592	65	4381
2026-01-21 06:20:41.09	68.72	11.84	-46.9	-48.6	18.4	0.00e+00	0	39	0	203423744	65	4345
2026-01-21 06:20:42.10	68.60	11.92	-46.9	-48.6	18.4	0.00e+00	0	39	0	205520896	65	4350
2026-01-21 06:20:43.11	68.48	11.99	-46.8	-48.5	18.5	0.00e+00	0	39	0	207618048	65	4304
2026-01-21 06:20:44.11	68.36	12.06	-46.8	-48.5	18.4	0.00e+00	0	39	0	209715200	65	4337
2026-01-21 06:20:45.12	68.24	12.14	-46.9	-48.5	18.4	0.00e+00	0	39	0	210763776	65	4339
2026-01-21 06:20:46.13	68.12	12.21	-46.9	-48.6	18.4	0.00e+00	0	39	0	212860928	65	4364
2026-01-21 06:20:47.14	68.00	12.29	-46.7	-48.3	18.7	0.00e+00	0	39	0	214958080	65	4222
2026-01-21 06:20:48.15	67.88	12.36	-46.7	-48.3	18.7	0.00e+00	0	39	0	217055232	65	4211
2026-01-21 06:20:49.15	67.75	12.44	-46.7	-48.3	18.7	0.00e+00	0	39	0	219152384	65	4220
2026-01-21 06:20:50.16	67.63	12.51	-46.6	-48.2	18.8	0.00e+00	0	39	0	220200960	65	4166
2026-01-21 06:20:51.17	67.50	12.59	-46.6	-48.1	18.9	0.00e+00	0	39	0	222298112	65	4141
2026-01-21 06:20:52.18	67.38	12.66	-46.5	-48.1	18.9	0.00e+00	0	39	0	224395264	65	4130
2026-01-21 06:20:53.18	67.25	12.74	-46.7	-48.3	18.7	0.00e+00	0	39	0	226492416	65	4229
2026-01-21 06:20:54.19	67.13	12.81	-46.6	-48.2	18.8	0.00e+00	0	39	0	228589568	65	4177
2026-01-21 06:20:55.20	67.00	12.89	-46.5	-48.1	18.8	0.00e+00	0	39	0	229638144	65	4141
2026-01-21 06:20:56.21	66.87	12.97	-46.6	-48.2	18.8	0.00e+00	0	39	0	231735296	65	4167
2026-01-21 06:20:57.21	66.74	13.04	-46.5	-48.1	18.9	0.00e+00	0	39	0	233832448	65	4116
2026-01-21 06:20:58.22	66.61	13.12	-46.6	-48.2	18.8	0.00e+00	0	39	0	235929600	64	4413
2026-01-21 06:20:59.23	66.48	13.19	-46.6	-48.3	18.7	0.00e+00	0	39	0	238026752	64	4456
2026-01-21 06:21:00.24	66.35	13.27	-46.5	-48.1	18.8	0.00e+00	0	39	0	239075328	64	4373
2026-01-21 06:21:01.25	66.22	13.34	-46.5	-48.1	18.9	0.00e+00	0	39	0	241172480	64	4368
2026-01-21 06:21:02.26	66.09	13.42	-46.6	-48.1	18.9	0.00e+00	0	39	0	243269632	64	4391
2026-01-21 06:21:03.27	65.95	13.50	-46.4	-47.9	19.1	0.00e+00	0	39	0	245366784	64	4260
2026-01-21 06:21:04.28	65.82	13.57	-46.3	-47.8	19.2	0.00e+00	0	39	0	247463936	64	4213
2026-01-21 06:21:05.28	65.69	13.65	-46.2	-47.8	19.3	0.00e+00	0	39	0	249561088	64	4195
2026-01-21 06:21:06.29	65.55	13.73	-46.3	-47.8	19.2	0.00e+00	0	40	0	250609664	64	4207
2026-01-21 06:21:07.30	65.42	13.80	-46.3	-47.8	19.2	0.00e+00	0	39	0	252706816	64	4222
2026-01-21 06:21:08.31	65.28	13.88	-46.4	-47.9	19.1	0.00e+00	0	39	0	254803968	64	4276
2026-01-21 06:21:09.32	65.14	13.96	-46.3	-47.8	19.2	0.00e+00	0	40	0	256901120	64	4210
2026-01-21 06:21:10.32	65.01	14.03	-46.3	-47.8	19.3	0.00e+00	0	39	0	257949696	64	4214
2026-01-21 06:21:11.33	64.87	14.11	-46.3	-47.8	19.2	0.00e+00	0	39	0	260046848	64	4238
2026-01-21 06:21:12.34	64.73	14.19	-46.3	-47.9	19.2	0.00e+00	0	39	0	262144000	64	4247
2026-01-21 06:21:13.35	64.59	14.26	-46.4	-47.9	19.1	0.00e+00	0	40	0	264241152	64	4288
2026-01-21 06:21:14.36	64.45	14.34	-46.2	-47.7	19.3	0.00e+00	0	39	0	266338304	64	4190
2026-01-21 06:21:15.37	64.30	14.42	-46.3	-47.8	19.3	0.00e+00	0	39	0	267386880	64	4198
2026-01-21 06:21:16.38	64.16	14.50	-46.2	-47.7	19.3	0.00e+00	0	39	0	269484032	64	4188
2026-01-21 06:21:17.39	64.02	14.57	-46.3	-47.8	19.3	0.00e+00	0	39	0	271581184	64	4201
2026-01-21 06:21:18.39	63.88	14.65	-46.3	-47.8	19.3	0.00e+00	0	39	0	273678336	64	4221
2026-01-21 06:21:19.40	63.73	14.73	-46.2	-47.7	19.4	0.00e+00	0	39	0	275775488	64	4161
2026-01-21 06:21:20.41	63.59	14.80	-46.2	-47.7	19.4	0.00e+00	0	39	0	277872640	64	4173
2026-01-21 06:21:21.42	63.44	14.88	-46.2	-47.7	19.4	0.00e+00	0	40	0	278921216	64	4177
2026-01-21 06:21:22.42	63.29	14.96	-46.1	-47.5	19.6	0.00e+00	0	39	0	281018368	64	4082
2026-01-21 06:21:23.43	63.15	15.04	-46.0	-47.5	19.7	0.00e+00	0	40	0	283115520	63	4293
2026-01-21 06:21:24.44	63.00	15.11	-46.1	-47.5	19.7	0.00e+00	0	40	0	285212672	63	4313
2026-01-21 06:21:25.44	62.85	15.19	-46.1	-47.5	19.6	0.00e+00	0	39	0	286261248	63	4337
2026-01-21 06:21:26.45	62.70	15.27	-46.1	-47.5	19.6	0.00e+00	0	39	0	288358400	63	4328
2026-01-21 06:21:27.46	62.55	15.35	-46.0	-47.4	19.7	0.00e+00	0	40	0	290455552	63	4291
2026-01-21 06:21:28.47	62.40	15.43	-45.9	-47.4	19.8	0.00e+00	0	39	0	292552704	63	4245
2026-01-21 06:21:29.48	62.24	15.50	-46.0	-47.5	19.7	0.00e+00	0	39	0	294649856	63	4295
2026-01-21 06:21:30.49	62.09	15.58	-46.0	-47.4	19.8	0.00e+00	0	39	0	296747008	63	4250
2026-01-21 06:21:31.49	61.94	15.66	-46.1	-47.5	19.7	0.00e+00	0	39	0	297795584	63	4337
2026-01-21 06:21:32.50	61.78	15.74	-46.3	-47.7	19.5	0.00e+00	0	39	0	299892736	63	4424
2026-01-21 06:21:33.51	61.63	15.81	-46.1	-47.6	19.6	0.00e+00	0	40	0	301989888	63	4345
2026-01-21 06:21:34.52	61.47	15.89	-46.2	-47.6	19.6	0.00e+00	0	39	0	304087040	63	4356
2026-01-21 06:21:35.53	61.31	15.97	-46.3	-47.8	19.4	0.00e+00	0	40	0	306184192	63	4466
2026-01-21 06:21:36.53	61.15	16.05	-46.3	-47.8	19.5	0.00e+00	0	39	0	307232768	63	4443
2026-01-21 06:21:37.54	60.99	16.13	-46.3	-47.8	19.4	0.00e+00	0	39	0	309329920	63	4443
2026-01-21 06:21:38.55	60.83	16.21	-46.3	-47.8	19.4	0.00e+00	0	39	0	311427072	63	4461
2026-01-21 06:21:39.56	60.67	16.28	-46.3	-47.8	19.5	0.00e+00	0	39	0	313524224	63	4462
2026-01-21 06:21:40.56	60.51	16.36	-46.4	-47.8	19.4	0.00e+00	0	39	0	314572800	63	4491
2026-01-21 06:21:41.57	60.35	16.44	-46.2	-47.7	19.5	0.00e+00	0	39	0	316669952	63	4408
2026-01-21 06:21:42.58	60.19	16.52	-46.2	-47.7	19.6	0.00e+00	0	39	0	318767104	63	4399
2026-01-21 06:21:43.59	60.02	16.60	-46.3	-47.7	19.5	0.00e+00	0	39	0	320864256	63	4441
2026-01-21 06:21:44.60	59.86	16.67	-46.3	-47.8	19.4	0.00e+00	0	40	0	322961408	63	4479
2026-01-21 06:21:45.60	59.69	16.75	-46.3	-47.8	19.5	0.00e+00	0	39	0	325058560	63	4452
2026-01-21 06:21:46.61	59.53	16.83	-46.4	-47.8	19.4	0.00e+00	0	39	0	326107136	63	4482
2026-01-21 06:21:47.62	59.36	16.91	-46.3	-47.8	19.5	0.00e+00	0	39	0	328204288	63	4455
2026-01-21 06:21:48.63	59.19	16.99	-46.3	-47.8	19.5	0.00e+00	0	39	0	330301440	63	4446
2026-01-21 06:21:49.64	59.02	17.07	-46.4	-47.8	19.4	0.00e+00	0	40	0	332398592	63	4492
2026-01-21 06:21:50.64	58.85	17.14	-46.3	-47.8	19.4	0.00e+00	0	39	0	334495744	63	4480
2026-01-21 06:21:51.65	58.68	17.22	-46.4	-47.9	19.3	0.00e+00	0	40	0	335544320	63	4527
2026-01-21 06:21:52.66	58.51	17.30	-46.4	-47.9	19.3	0.00e+00	0	39	0	337641472	63	4526
2026-01-21 06:21:53.67	58.33	17.38	-46.4	-47.9	19.4	0.00e+00	0	39	0	339738624	63	4514
2026-01-21 06:21:54.68	58.16	17.46	-46.4	-47.8	19.4	0.00e+00	0	39	0	341835776	63	4487
2026-01-21 06:21:55.69	57.98	17.53	-46.3	-47.7	19.5	0.00e+00	0	40	0	343932928	63	4433
2026-01-21 06:21:56.70	57.81	17.61	-46.3	-47.7	19.5	0.00e+00	0	39	0	344981504	63	4438
2026-01-21 06:21:57.71	57.63	17.69	-46.3	-47.7	19.5	0.00e+00	0	39	0	347078656	63	4434
2026-01-21 06:21:58.71	57.45	17.77	-46.4	-47.9	19.4	0.00e+00	0	39	0	349175808	63	4515
2026-01-21 06:21:59.72	57.27	17.85	-46.5	-48.0	19.2	0.00e+00	0	39	0	351272960	63	4597
2026-01-21 06:22:00.73	57.09	17.92	-46.6	-48.1	19.2	0.00e+00	0	39	0	353370112	63	4643
2026-01-21 06:22:01.74	56.91	18.00	-46.6	-48.2	19.1	0.00e+00	0	39	0	354418688	63	4665
2026-01-21 06:22:02.75	56.73	18.08	-46.6	-48.1	19.2	0.00e+00	0	40	0	356515840	63	4622
2026-01-21 06:22:03.75	56.55	18.16	-46.6	-48.1	19.1	0.00e+00	0	39	0	358612992	64	4390
2026-01-21 06:22:04.76	56.37	18.24	-46.6	-48.2	19.0	0.00e+00	0	40	0	360710144	64	4392
2026-01-21 06:22:05.77	56.18	18.31	-46.5	-48.0	19.2	0.00e+00	0	40	0	362807296	64	4330
2026-01-21 06:22:06.77	56.00	18.39	-46.5	-48.1	19.2	0.00e+00	0	40	0	363855872	64	4341
2026-01-21 06:22:07.78	55.81	18.47	-46.3	-47.8	19.4	0.00e+00	0	39	0	365953024	64	4205
2026-01-21 06:22:08.79	55.63	18.54	-46.3	-47.8	19.4	0.00e+00	0	40	0	368050176	64	4221
2026-01-21 06:22:09.80	55.44	18.62	-46.3	-47.8	19.5	0.00e+00	0	39	0	370147328	64	4199
2026-01-21 06:22:10.81	55.25	18.70	-46.2	-47.7	19.5	0.00e+00	0	39	0	372244480	64	4162
2026-01-21 06:22:11.81	55.06	18.78	-46.1	-47.6	19.6	0.00e+00	0	39	0	373293056	64	4107
2026-01-21 06:22:12.82	54.87	18.85	-46.2	-47.6	19.6	0.00e+00	0	40	0	375390208	64	4138
2026-01-21 06:22:13.83	54.68	18.93	-46.1	-47.6	19.6	0.00e+00	0	40	0	377487360	64	4115
2026-01-21 06:22:14.84	54.48	19.01	-46.0	-47.4	19.8	0.00e+00	0	40	0	379584512	64	4046
2026-01-21 06:22:15.84	54.29	19.08	-46.1	-47.5	19.7	0.00e+00	0	39	0	381681664	64	4071
2026-01-21 06:22:16.85	54.10	19.16	-46.1	-47.6	19.7	0.00e+00	0	39	0	382730240	64	4108
2026-01-21 06:22:17.86	53.90	19.24	-46.0	-47.4	19.9	0.00e+00	0	40	0	384827392	63	4279
2026-01-21 06:22:18.87	53.70	19.31	-46.1	-47.5	19.8	0.00e+00	0	39	0	386924544	63	4311
2026-01-21 06:22:19.88	53.50	19.39	-46.1	-47.5	19.8	0.00e+00	0	40	0	389021696	63	4293
2026-01-21 06:22:20.88	53.31	19.47	-45.8	-47.2	20.1	0.00e+00	0	40	0	391118848	63	4158
2026-01-21 06:22:21.89	53.11	19.54	-45.8	-47.2	20.1	0.00e+00	0	39	0	392167424	63	4166
2026-01-21 06:22:22.90	52.90	19.62	-45.8	-47.1	20.2	0.00e+00	0	39	0	394264576	63	4138
2026-01-21 06:22:23.91	52.70	19.69	-45.8	-47.1	20.2	0.00e+00	0	40	0	396361728	63	4125
2026-01-21 06:22:24.92	52.50	19.77	-45.7	-47.0	20.3	0.00e+00	0	39	0	398458880	63	4083
2026-01-21 06:22:25.93	52.29	19.85	-45.8	-47.1	20.2	0.00e+00	0	40	0	400556032	63	4124
2026-01-21 06:22:26.93	52.09	19.92	-45.7	-47.1	20.2	0.00e+00	0	39	0	401604608	63	4108
2026-01-21 06:22:27.94	51.88	20.00	-45.5	-46.7	20.5	0.00e+00	0	39	0	403701760	62	4185
2026-01-21 06:22:28.95	51.68	20.07	-45.3	-46.6	20.7	0.00e+00	0	39	0	405798912	62	4121
2026-01-21 06:22:29.96	51.47	20.15	-45.3	-46.6	20.7	0.00e+00	0	40	0	407896064	62	4119
2026-01-21 06:22:30.96	51.26	20.22	-45.3	-46.6	20.7	0.00e+00	0	39	0	409993216	62	4106
2026-01-21 06:22:31.97	51.05	20.29	-45.0	-46.2	21.0	0.00e+00	0	40	0	411041792	62	3952
2026-01-21 06:22:32.98	50.84	20.37	-44.8	-46.0	21.3	0.00e+00	0	39	0	413138944	61	4061
2026-01-21 06:22:33.99	50.63	20.44	-44.7	-45.8	21.4	0.00e+00	0	39	0	415236096	61	4004
2026-01-21 06:22:35.00	50.41	20.52	-44.7	-45.8	21.4	0.00e+00	0	40	0	417333248	61	3983
2026-01-21 06:22:36.01	50.20	20.59	-44.6	-45.8	21.5	0.00e+00	0	40	0	419430400	61	3961
2026-01-21 06:22:37.01	49.99	20.66	-44.5	-45.6	21.6	0.00e+00	0	39	0	420478976	60	4107
2026-01-21 06:22:38.02	49.77	20.74	-44.4	-45.5	21.7	0.00e+00	0	39	0	422576128	60	4070
2026-01-21 06:22:39.03	49.55	20.81	-44.4	-45.5	21.7	0.00e+00	0	39	0	424673280	60	4054
2026-01-21 06:22:40.04	49.33	20.88	-44.4	-45.6	21.7	0.00e+00	0	39	0	426770432	60	4101
2026-01-21 06:22:41.04	49.11	20.95	-44.4	-45.5	21.7	0.00e+00	0	39	0	428867584	60	4088
2026-01-21 06:22:42.05	48.89	21.03	-44.4	-45.5	21.7	0.00e+00	0	39	0	429916160	60	4098
2026-01-21 06:22:43.06	48.67	21.10	-44.3	-45.4	21.8	0.00e+00	0	39	0	432013312	60	4049
2026-01-21 06:22:44.07	48.45	21.17	-44.3	-45.5	21.7	0.00e+00	0	39	0	434110464	60	4053
2026-01-21 06:22:45.07	48.23	21.24	-44.5	-45.6	21.6	0.00e+00	0	39	0	436207616	60	4115
2026-01-21 06:22:46.08	48.00	21.31	-44.3	-45.5	21.8	0.00e+00	0	39	0	438304768	60	4052
2026-01-21 06:22:47.09	47.78	21.38	-44.4	-45.6	21.7	0.00e+00	0	39	0	440401920	60	4103
2026-01-21 06:22:48.10	47.55	21.46	-44.3	-45.4	21.8	0.00e+00	0	39	0	441450496	60	4042
2026-01-21 06:22:49.11	47.32	21.53	-44.3	-45.5	21.8	0.00e+00	0	39	0	443547648	60	4052
2026-01-21 06:22:50.12	47.09	21.60	-44.3	-45.4	21.9	0.00e+00	0	39	0	445644800	60	4005
2026-01-21 06:22:51.13	46.86	21.67	-44.1	-45.1	22.1	0.00e+00	0	39	0	447741952	60	3902
2026-01-21 06:22:52.13	46.63	21.74	-44.1	-45.2	22.0	0.00e+00	0	39	0	448790528	60	3943
2026-01-21 06:22:53.14	46.40	21.80	-44.2	-45.3	21.9	0.00e+00	0	40	0	450887680	60	3978
2026-01-21 06:22:54.15	46.17	21.87	-44.2	-45.3	22.0	0.00e+00	0	40	0	452984832	60	3964
2026-01-21 06:22:55.16	45.93	21.94	-44.2	-45.2	22.0	0.00e+00	0	39	0	455081984	60	3954
2026-01-21 06:22:56.17	45.70	22.01	-44.1	-45.1	22.1	0.00e+00	0	39	0	457179136	60	3902
2026-01-21 06:22:57.17	45.46	22.08	-44.0	-45.1	22.1	0.00e+00	0	39	0	458227712	60	3887
2026-01-21 06:22:58.18	45.22	22.15	-44.0	-45.1	22.1	0.00e+00	0	39	0	460324864	60	3885
2026-01-21 06:22:59.19	44.99	22.21	-44.1	-45.1	22.2	0.00e+00	0	40	0	462422016	60	3898
2026-01-21 06:23:00.20	44.75	22.28	-44.0	-45.0	22.2	0.00e+00	0	39	0	464519168	60	3867
2026-01-21 06:23:01.21	44.51	22.35	-44.3	-45.4	22.2	0.00e+00	0	40	0	466616320	59	4254
2026-01-21 06:23:02.21	44.27	22.41	-44.4	-45.5	22.1	0.00e+00	0	39	0	468713472	59	4308
2026-01-21 06:23:03.22	44.02	22.48	-44.5	-45.6	22.0	0.00e+00	0	40	0	469762048	59	4375
2026-01-21 06:23:04.23	43.78	22.54	-44.6	-45.8	21.8	0.00e+00	0	39	0	471859200	59	4456
2026-01-21 06:23:05.24	43.54	22.61	-44.5	-45.6	21.7	0.00e+00	0	40	0	473956352	60	4132
2026-01-21 06:23:06.24	43.29	22.67	-44.5	-45.6	21.7	0.00e+00	0	39	0	476053504	60	4135
2026-01-21 06:23:07.25	43.04	22.74	-44.5	-45.6	21.7	0.00e+00	0	39	0	477102080	60	4133
2026-01-21 06:23:08.26	42.80	22.80	-44.3	-45.4	21.9	0.00e+00	0	40	0	479199232	60	4024
2026-01-21 06:23:09.27	42.55	22.86	-44.4	-45.5	21.8	0.00e+00	0	40	0	481296384	60	4070
2026-01-21 06:23:10.27	42.30	22.93	-44.5	-45.6	21.7	0.00e+00	0	39	0	483393536	60	4107
2026-01-21 06:23:11.28	42.05	22.99	-44.5	-45.6	21.7	0.00e+00	0	39	0	485490688	60	4111
2026-01-21 06:23:12.29	41.80	23.05	-44.4	-45.5	21.7	0.00e+00	0	40	0	487587840	60	4095
2026-01-21 06:23:13.30	41.54	23.11	-44.4	-45.6	21.7	0.00e+00	0	39	0	488636416	60	4101
2026-01-21 06:23:14.31	41.29	23.17	-44.5	-45.6	21.7	0.00e+00	0	40	0	490733568	60	4133
2026-01-21 06:23:15.31	41.04	23.23	-44.5	-45.6	21.6	0.00e+00	0	39	0	492830720	60	4138
2026-01-21 06:23:16.32	40.78	23.29	-44.5	-45.6	21.7	0.00e+00	0	39	0	494927872	60	4140
2026-01-21 06:23:17.33	40.53	23.35	-44.4	-45.5	21.8	0.00e+00	0	39	0	497025024	60	4078
2026-01-21 06:23:18.34	40.27	23.41	-44.4	-45.5	21.8	0.00e+00	0	39	0	498073600	60	4071
2026-01-21 06:23:19.35	40.01	23.47	-44.4	-45.6	21.8	0.00e+00	0	40	0	500170752	60	4100
2026-01-21 06:23:20.35	39.75	23.53	-44.4	-45.5	21.8	0.00e+00	0	39	0	502267904	60	4069
2026-01-21 06:23:21.36	39.49	23.59	-44.5	-45.6	21.7	0.00e+00	0	39	0	504365056	60	4134
2026-01-21 06:23:22.37	39.23	23.64	-44.5	-45.6	21.7	0.00e+00	0	40	0	505413632	60	4137
2026-01-21 06:23:23.38	38.97	23.70	-44.3	-45.4	21.9	0.00e+00	0	39	0	507510784	60	4019
2026-01-21 06:23:24.39	38.70	23.76	-44.3	-45.4	21.9	0.00e+00	0	40	0	509607936	60	4030
2026-01-21 06:23:25.40	38.44	23.81	-44.1	-45.2	22.1	0.00e+00	0	40	0	511705088	60	3924
2026-01-21 06:23:26.41	38.17	23.87	-44.1	-45.2	22.1	0.00e+00	0	40	0	513802240	60	3926
2026-01-21 06:23:27.42	37.90	23.92	-44.0	-45.1	22.2	0.00e+00	0	40	0	515899392	60	3888
2026-01-21 06:23:28.42	37.64	23.98	-44.0	-45.1	22.1	0.00e+00	0	40	0	516947968	60	3886
2026-01-21 06:23:29.43	37.37	24.03	-44.1	-45.2	22.4	0.00e+00	0	40	0	519045120	59	4168
2026-01-21 06:23:30.44	37.10	24.08	-44.2	-45.2	22.4	0.00e+00	0	39	0	521142272	59	4190
2026-01-21 06:23:31.45	36.83	24.14	-44.1	-45.2	22.4	0.00e+00	0	40	0	523239424	59	4159
2026-01-21 06:23:32.46	36.56	24.19	-44.1	-45.2	22.4	0.00e+00	0	39	0	525336576	59	4158
2026-01-21 06:23:33.47	36.29	24.24	-44.1	-45.1	22.5	0.00e+00	0	40	0	526385152	59	4128
2026-01-21 06:23:34.47	36.02	24.29	-44.0	-45.0	22.5	0.00e+00	0	39	0	528482304	59	4093
2026-01-21 06:23:35.48	35.74	24.34	-44.1	-45.1	22.5	0.00e+00	0	39	0	530579456	59	4129
2026-01-21 06:23:36.49	35.47	24.39	-44.2	-45.3	22.3	0.00e+00	0	39	0	532676608	59	4205
2026-01-21 06:23:37.50	35.19	24.44	-44.4	-45.5	22.1	0.00e+00	0	40	0	534773760	59	4314
2026-01-21 06:23:38.50	34.92	24.48	-44.5	-45.6	22.0	0.00e+00	0	40	0	535822336	59	4354
2026-01-21 06:23:39.51	34.64	24.53	-44.5	-45.6	22.1	0.00e+00	0	39	0	537919488	59	4343
2026-01-21 06:23:40.52	34.37	24.58	-44.5	-45.7	22.0	0.00e+00	0	40	0	540016640	59	4396
2026-01-21 06:23:41.53	34.09	24.62	-44.6	-45.7	21.9	0.00e+00	0	40	0	542113792	59	4401
2026-01-21 06:23:42.53	33.81	24.67	-44.7	-45.8	21.8	0.00e+00	0	40	0	544210944	59	4478
2026-01-21 06:23:43.54	33.53	24.71	-44.3	-45.4	21.9	0.00e+00	0	40	0	545259520	60	4036
2026-01-21 06:23:44.55	33.25	24.76	-44.4	-45.5	21.8	0.00e+00	0	39	0	547356672	60	4062
2026-01-21 06:23:45.56	32.97	24.80	-44.3	-45.4	21.9	0.00e+00	0	39	0	549453824	60	4019
2026-01-21 06:23:46.57	32.68	24.84	-44.4	-45.5	21.9	0.00e+00	0	39	0	551550976	60	4062
2026-01-21 06:23:47.57	32.40	24.88	-44.5	-45.6	21.7	0.00e+00	0	40	0	553648128	60	4124
2026-01-21 06:23:48.58	32.12	24.93	-44.7	-45.8	21.5	0.00e+00	0	40	0	555745280	60	4231
2026-01-21 06:23:49.59	31.83	24.97	-44.8	-46.0	21.3	0.00e+00	0	39	0	556793856	60	4323
2026-01-21 06:23:50.60	31.55	25.01	-44.9	-46.1	21.2	0.00e+00	0	39	0	558891008	60	4353
2026-01-21 06:23:51.60	31.26	25.04	-44.9	-46.1	21.3	0.00e+00	0	39	0	560988160	60	4354
2026-01-21 06:23:52.61	30.98	25.08	-45.0	-46.1	21.3	0.00e+00	0	40	0	563085312	60	4387
2026-01-21 06:23:53.62	30.69	25.12	-45.1	-46.3	21.1	0.00e+00	0	39	0	564133888	60	4460
2026-01-21 06:23:54.63	30.40	25.16	-45.2	-46.4	21.0	0.00e+00	0	40	0	566231040	60	4523
2026-01-21 06:23:55.64	30.11	25.19	-45.4	-46.6	20.8	0.00e+00	0	39	0	568328192	61	4369
2026-01-21 06:23:56.65	29.82	25.23	-45.4	-46.7	20.7	0.00e+00	0	39	0	570425344	61	4416
2026-01-21 06:23:57.65	29.53	25.26	-45.5	-46.8	20.6	0.00e+00	0	39	0	572522496	61	4465
2026-01-21 06:23:58.66	29.24	25.30	-45.4	-46.6	20.7	0.00e+00	0	39	0	573571072	61	4388
2026-01-21 06:23:59.67	28.95	25.33	-45.6	-46.9	20.6	0.00e+00	0	39	0	575668224	61	4507
2026-01-21 06:24:00.68	28.66	25.36	-45.6	-46.9	20.5	0.00e+00	0	40	0	577765376	61	4529
2026-01-21 06:24:01.68	28.37	25.39	-45.7	-47.0	20.4	0.00e+00	0	40	0	579862528	61	4549
2026-01-21 06:24:02.69	28.07	25.42	-45.6	-46.9	20.5	0.00e+00	0	39	0	581959680	61	4531
2026-01-21 06:24:03.70	27.78	25.45	-45.6	-46.9	20.5	0.00e+00	0	39	0	584056832	61	4515
2026-01-21 06:24:04.71	27.48	25.48	-45.6	-46.9	20.5	0.00e+00	0	39	0	585105408	61	4533
2026-01-21 06:24:05.72	27.19	25.51	-45.7	-47.0	20.5	0.00e+00	0	39	0	587202560	62	4309
2026-01-21 06:24:06.72	26.90	25.54	-45.8	-47.1	20.4	0.00e+00	0	40	0	589299712	62	4359
2026-01-21 06:24:07.73	26.60	25.57	-45.8	-47.1	20.4	0.00e+00	0	39	0	591396864	62	4341
2026-01-21 06:24:08.74	26.30	25.59	-45.6	-46.9	20.5	0.00e+00	0	39	0	592445440	62	4270
2026-01-21 06:24:09.75	26.01	25.62	-45.8	-47.1	20.4	0.00e+00	0	40	0	594542592	62	4360
2026-01-21 06:24:10.76	25.71	25.64	-45.9	-47.2	20.3	0.00e+00	0	40	0	596639744	62	4424
2026-01-21 06:24:11.77	25.41	25.67	-45.9	-47.2	20.3	0.00e+00	0	39	0	598736896	62	4421
2026-01-21 06:24:12.77	25.11	25.69	-45.9	-47.3	20.2	0.00e+00	0	39	0	600834048	62	4461
2026-01-21 06:24:13.78	24.82	25.71	-46.1	-47.4	20.1	0.00e+00	0	39	0	602931200	62	4528
2026-01-21 06:24:14.79	24.52	25.73	-46.0	-47.4	20.1	0.00e+00	0	40	0	603979776	62	4509
2026-01-21 06:24:15.80	24.22	25.75	-46.1	-47.5	20.0	0.00e+00	0	40	0	606076928	62	4550
2026-01-21 06:24:16.81	23.92	25.77	-46.1	-47.5	20.0	0.00e+00	0	39	0	608174080	62	4574
2026-01-21 06:24:17.81	23.62	25.79	-46.1	-47.4	20.1	0.00e+00	0	40	0	610271232	62	4536
2026-01-21 06:24:18.82	23.32	25.81	-46.1	-47.4	20.0	0.00e+00	0	39	0	612368384	62	4535
2026-01-21 06:24:19.83	23.02	25.82	-46.0	-47.3	20.1	0.00e+00	0	39	0	613416960	62	4482
2026-01-21 06:24:20.84	22.71	25.84	-46.0	-47.4	20.1	0.00e+00	0	39	0	615514112	62	4513
2026-01-21 06:24:21.85	22.41	25.85	-46.1	-47.4	20.1	0.00e+00	0	39	0	617611264	62	4533
2026-01-21 06:24:22.85	22.11	25.87	-46.0	-47.4	20.1	0.00e+00	0	40	0	619708416	62	4510
2026-01-21 06:24:23.86	21.81	25.88	-46.1	-47.5	20.0	0.00e+00	0	40	0	620756992	62	4580
2026-01-21 06:24:24.87	21.51	25.89	-46.2	-47.6	19.8	0.00e+00	0	40	0	622854144	63	4385
2026-01-21 06:24:25.88	21.21	25.90	-46.3	-47.7	19.9	0.00e+00	0	40	0	624951296	63	4399
2026-01-21 06:24:26.89	20.90	25.92	-46.3	-47.7	19.8	0.00e+00	0	39	0	627048448	63	4426
2026-01-21 06:24:27.90	20.60	25.93	-46.3	-47.7	19.8	0.00e+00	0	40	0	629145600	63	4423
2026-01-21 06:24:28.90	20.30	25.93	-46.3	-47.7	19.8	0.00e+00	0	40	0	631242752	63	4439
2026-01-21 06:24:29.91	20.00	25.94	-46.2	-47.5	20.0	0.00e+00	0	39	0	632291328	63	4326
2026-01-21 06:24:30.92	19.69	25.95	-46.1	-47.4	20.1	0.00e+00	0	40	0	634388480	63	4291
2026-01-21 06:24:31.93	19.39	25.96	-45.9	-47.2	20.3	0.00e+00	0	40	0	636485632	63	4159
2026-01-21 06:24:32.94	19.08	25.96	-45.7	-47.0	20.5	0.00e+00	0	40	0	638582784	63	4076
2026-01-21 06:24:33.94	18.78	25.97	-45.6	-46.9	20.6	0.00e+00	0	40	0	640679936	63	4021
2026-01-21 06:24:34.95	18.48	25.97	-45.7	-46.9	20.5	0.00e+00	0	39	0	641728512	63	4047
2026-01-21 06:24:35.96	18.17	25.97	-45.8	-47.1	20.4	0.00e+00	0	40	0	643825664	63	4109
2026-01-21 06:24:36.97	17.87	25.97	-45.8	-47.1	20.4	0.00e+00	0	40	0	645922816	63	4140
2026-01-21 06:24:37.98	17.57	25.97	-45.7	-47.0	20.5	0.00e+00	0	40	0	648019968	63	4079
2026-01-21 06:24:38.99	17.26	25.97	-45.5	-46.7	20.7	0.00e+00	0	39	0	650117120	63	3957
2026-01-21 06:24:39.99	16.96	25.97	-45.4	-46.6	20.8	0.00e+00	0	40	0	651165696	62	4141
2026-01-21 06:24:41.00	16.66	25.97	-45.1	-46.3	21.1	0.00e+00	0	40	0	653262848	62	3995
2026-01-21 06:24:42.01	16.35	25.97	-45.1	-46.3	21.1	0.00e+00	0	40	0	655360000	62	3983
2026-01-21 06:24:43.01	16.05	25.97	-45.0	-46.2	21.3	0.00e+00	0	40	0	657457152	62	3925
2026-01-21 06:24:44.02	15.75	25.96	-44.9	-46.1	21.3	0.00e+00	0	40	0	659554304	61	4106
2026-01-21 06:24:45.03	15.44	25.96	-44.9	-46.1	21.3	0.00e+00	0	40	0	660602880	61	4103
2026-01-21 06:24:46.04	15.14	25.95	-44.8	-46.0	21.4	0.00e+00	0	39	0	662700032	61	4062
2026-01-21 06:24:47.04	14.84	25.94	-44.6	-45.7	21.7	0.00e+00	0	40	0	664797184	61	3952
2026-01-21 06:24:48.05	14.54	25.93	-44.6	-45.7	21.7	0.00e+00	0	40	0	666894336	61	3957
2026-01-21 06:24:49.06	14.23	25.93	-44.5	-45.6	21.8	0.00e+00	0	39	0	668991488	61	3893
2026-01-21 06:24:50.07	13.93	25.92	-44.6	-45.7	21.7	0.00e+00	0	39	0	670040064	61	3916
2026-01-21 06:24:51.08	13.63	25.91	-44.6	-45.8	21.7	0.00e+00	0	39	0	672137216	61	3963
2026-01-21 06:24:52.09	13.32	25.89	-44.6	-45.8	21.7	0.00e+00	0	40	0	674234368	61	3967
2026-01-21 06:24:53.09	13.02	25.88	-44.4	-45.5	21.9	0.00e+00	0	39	0	676331520	60	4082
2026-01-21 06:24:54.10	12.72	25.87	-44.4	-45.4	21.9	0.00e+00	0	40	0	678428672	60	4045
2026-01-21 06:24:55.11	12.42	25.85	-44.1	-45.1	22.3	0.00e+00	0	39	0	679477248	60	3897
2026-01-21 06:24:56.12	12.12	25.84	-44.2	-45.3	22.4	0.00e+00	0	40	0	681574400	59	4212
2026-01-21 06:24:57.12	11.82	25.82	-44.3	-45.3	22.3	0.00e+00	0	40	0	683671552	59	4240
2026-01-21 06:24:58.13	11.52	25.81	-44.3	-45.3	22.3	0.00e+00	0	39	0	685768704	59	4226
2026-01-21 06:24:59.14	11.22	25.79	-44.4	-45.5	22.2	0.00e+00	0	39	0	687865856	59	4302
2026-01-21 06:25:00.15	10.92	25.77	-44.4	-45.4	22.2	0.00e+00	0	39	0	688914432	59	4291
2026-01-21 06:25:01.16	10.62	25.75	-44.4	-45.5	22.2	0.00e+00	0	39	0	691011584	59	4315
2026-01-21 06:25:02.16	10.32	25.73	-44.6	-45.7	22.1	0.00e+00	0	39	0	693108736	59	4392
2026-01-21 06:25:03.17	10.02	25.71	-44.2	-45.3	22.4	0.00e+00	0	39	0	695205888	59	4216
2026-01-21 06:25:04.18	9.72	25.69	-44.1	-45.2	22.5	0.00e+00	0	40	0	697303040	59	4154
2026-01-21 06:25:05.19	9.42	25.67	-44.1	-45.1	22.5	0.00e+00	0	39	0	698351616	59	4139
2026-01-21 06:25:06.20	9.12	25.64	-44.2	-45.3	22.4	0.00e+00	0	40	0	700448768	59	4217
2026-01-21 06:25:07.21	8.83	25.62	-44.3	-45.4	22.3	0.00e+00	0	39	0	702545920	59	4272
2026-01-21 06:25:08.21	8.53	25.60	-44.2	-45.3	22.4	0.00e+00	0	40	0	704643072	59	4219
2026-01-21 06:25:09.22	8.24	25.57	-44.3	-45.4	22.3	0.00e+00	0	40	0	706740224	59	4269
2026-01-21 06:25:10.23	7.94	25.54	-44.3	-45.4	22.3	0.00e+00	0	40	0	707788800	59	4245
2026-01-21 06:25:11.24	7.64	25.52	-44.4	-45.5	22.2	0.00e+00	0	39	0	709885952	59	4316
2026-01-21 06:25:12.24	7.35	25.49	-44.4	-45.4	22.2	0.00e+00	0	39	0	711983104	59	4289
2026-01-21 06:25:13.25	7.06	25.46	-44.5	-45.6	22.1	0.00e+00	0	40	0	714080256	59	4383
2026-01-21 06:25:14.26	6.76	25.43	-44.7	-45.8	21.9	0.00e+00	0	39	0	716177408	59	4464
2026-01-21 06:25:15.27	6.47	25.40	-44.4	-45.5	21.9	0.00e+00	0	40	0	717225984	60	4084
2026-01-21 06:25:16.28	6.18	25.37	-44.4	-45.6	21.8	0.00e+00	0	40	0	719323136	60	4103
2026-01-21 06:25:17.29	5.88	25.33	-44.3	-45.4	22.0	0.00e+00	0	40	0	721420288	60	4009
2026-01-21 06:25:18.29	5.60	25.30	-44.2	-45.3	22.1	0.00e+00	0	40	0	723517440	60	3966
2026-01-21 06:25:19.30	5.30	25.27	-44.2	-45.3	22.1	0.00e+00	0	39	0	725614592	60	3974
2026-01-21 06:25:20.31	5.01	25.23	-44.3	-45.3	22.0	0.00e+00	0	39	0	726663168	60	4004
2026-01-21 06:25:21.32	4.72	25.20	-44.3	-45.4	22.0	0.00e+00	0	40	0	728760320	60	4039
2026-01-21 06:25:22.33	4.43	25.16	-44.4	-45.5	21.9	0.00e+00	0	40	0	730857472	60	4064
2026-01-21 06:25:23.33	4.15	25.13	-44.4	-45.5	21.9	0.00e+00	0	39	0	732954624	60	4059
2026-01-21 06:25:24.34	3.86	25.09	-44.5	-45.6	21.8	0.00e+00	0	40	0	735051776	60	4126
2026-01-21 06:25:25.35	3.57	25.05	-44.7	-45.8	21.6	0.00e+00	0	40	0	736100352	60	4225
2026-01-21 06:25:26.36	3.29	25.01	-44.7	-45.9	21.5	0.00e+00	0	40	0	738197504	60	4245
2026-01-21 06:25:27.36	3.00	24.97	-44.8	-45.9	21.5	0.00e+00	0	40	0	740294656	60	4259
2026-01-21 06:25:28.37	2.72	24.93	-44.9	-46.0	21.4	0.00e+00	0	40	0	742391808	60	4325
2026-01-21 06:25:29.38	2.44	24.89	-44.8	-46.0	21.4	0.00e+00	0	40	0	744488960	60	4310
2026-01-21 06:25:30.39	2.15	24.85	-44.9	-46.0	21.4	0.00e+00	0	39	0	746586112	60	4325
2026-01-21 06:25:31.40	1.87	24.81	-44.8	-45.9	21.5	0.00e+00	0	39	0	747634688	60	4271
2026-01-21 06:25:32.40	1.59	24.76	-44.9	-46.1	21.3	0.00e+00	0	39	0	749731840	60	4351
2026-01-21 06:25:33.41	1.31	24.72	-45.1	-46.3	21.1	0.00e+00	0	40	0	751828992	60	4466
2026-01-21 06:25:34.42	1.03	24.67	-45.2	-46.4	21.0	0.00e+00	0	40	0	753926144	60	4531
2026-01-21 06:25:35.43	0.75	24.63	-45.4	-46.7	20.8	0.00e+00	0	40	0	754974720	61	4396
2026-01-21 06:25:36.44	0.47	24.58	-45.5	-46.8	20.6	0.00e+00	0	39	0	757071872	61	4463
2026-01-21 06:25:37.44	0.20	24.54	-45.6	-46.9	20.5	0.00e+00	0	40	0	759169024	61	4526
2026-01-21 06:25:38.45	359.92	24.49	-45.6	-46.9	20.6	0.00e+00	0	39	0	761266176	61	4494
2026-01-21 06:25:39.46	359.64	24.44	-45.5	-46.8	20.6	0.00e+00	0	40	0	763363328	61	4477
2026-01-21 06:25:40.47	359.37	24.39	-45.6	-46.9	20.6	0.00e+00	0	40	0	764411904	61	4505
2026-01-21 06:25:41.48	359.09	24.34	-45.5	-46.8	20.7	0.00e+00	0	40	0	766509056	61	4461
2026-01-21 06:25:42.48	358.82	24.29	-45.6	-46.9	20.6	0.00e+00	0	40	0	768606208	61	4495
2026-01-21 06:25:43.49	358.55	24.24	-45.5	-46.8	20.6	0.00e+00	0	40	0	770703360	61	4477
2026-01-21 06:25:44.50	358.28	24.19	-45.6	-46.9	20.5	0.00e+00	0	40	0	772800512	61	4509
2026-01-21 06:25:45.51	358.01	24.14	-45.7	-47.0	20.4	0.00e+00	0	39	0	774897664	61	4576
2026-01-21 06:25:46.52	357.74	24.09	-45.8	-47.1	20.3	0.00e+00	0	40	0	775946240	62	4388
2026-01-21 06:25:47.52	357.47	24.04	-46.0	-47.3	20.1	0.00e+00	0	39	0	778043392	62	4472
2026-01-21 06:25:48.53	357.20	23.98	-46.1	-47.5	20.0	0.00e+00	0	40	0	780140544	62	4550
2026-01-21 06:25:49.54	356.93	23.93	-46.0	-47.3	20.1	0.00e+00	0	40	0	782237696	62	4484
2026-01-21 06:25:50.55	356.67	23.88	-45.9	-47.2	20.2	0.00e+00	0	40	0	783286272	62	4418
2026-01-21 06:25:51.56	356.40	23.82	-45.9	-47.2	20.3	0.00e+00	0	39	0	785383424	62	4399
2026-01-21 06:25:52.57	356.14	23.77	-45.8	-47.1	20.4	0.00e+00	0	40	0	787480576	62	4347
2026-01-21 06:25:53.57	355.88	23.71	-45.6	-46.9	20.6	0.00e+00	0	40	0	789577728	62	4250
2026-01-21 06:25:54.58	355.61	23.65	-45.6	-46.9	20.6	0.00e+00	0	39	0	791674880	62	4251
2026-01-21 06:25:55.59	355.35	23.60	-45.6	-46.9	20.5	0.00e+00	0	40	0	793772032	62	4255
2026-01-21 06:25:56.60	355.09	23.54	-45.6	-46.9	20.5	0.00e+00	0	40	0	794820608	62	4277
2026-01-21 06:25:57.61	354.83	23.48	-45.7	-47.0	20.4	0.00e+00	0	40	0	796917760	62	4313
2026-01-21 06:25:58.61	354.58	23.42	-46.0	-47.4	20.1	0.00e+00	0	40	0	799014912	62	4494
2026-01-21 06:25:59.62	354.32	23.36	-46.1	-47.5	20.0	0.00e+00	0	40	0	801112064	62	4554
2026-01-21 06:26:00.63	354.06	23.30	-46.2	-47.6	19.9	0.00e+00	0	40	0	803209216	62	4630
2026-01-21 06:26:01.64	353.81	23.24	-46.2	-47.6	19.9	0.00e+00	0	40	0	804257792	63	4363
2026-01-21 06:26:02.64	353.55	23.18	-46.1	-47.5	19.9	0.00e+00	0	40	0	806354944	63	4331
2026-01-21 06:26:03.65	353.30	23.12	-46.1	-47.5	20.0	0.00e+00	0	39	0	808452096	63	4315
2026-01-21 06:26:04.66	353.05	23.06	-46.0	-47.4	20.0	0.00e+00	0	40	0	810549248	63	4274
2026-01-21 06:26:05.67	352.79	23.00	-45.9	-47.2	20.2	0.00e+00	0	39	0	812646400	63	4192
2026-01-21 06:26:06.67	352.55	22.94	-46.0	-47.3	20.1	0.00e+00	0	40	0	813694976	63	4238
2026-01-21 06:26:07.68	352.30	22.87	-46.0	-47.4	20.0	0.00e+00	0	40	0	815792128	63	4273
2026-01-21 06:26:08.69	352.05	22.81	-45.9	-47.3	20.1	0.00e+00	0	39	0	817889280	63	4216
2026-01-21 06:26:09.70	351.80	22.75	-46.0	-47.4	20.1	0.00e+00	0	40	0	819986432	63	4246
2026-01-21 06:26:10.71	351.55	22.68	-45.9	-47.2	20.3	0.00e+00	0	40	0	822083584	63	4160
2026-01-21 06:26:11.71	351.31	22.62	-45.8	-47.1	20.4	0.00e+00	0	39	0	823132160	63	4104
2026-01-21 06:26:12.72	351.07	22.55	-45.6	-46.9	20.6	0.00e+00	0	40	0	825229312	63	4008
2026-01-21 06:26:13.73	350.82	22.49	-45.6	-46.9	20.5	0.00e+00	0	40	0	827326464	63	4038
2026-01-21 06:26:14.74	350.58	22.42	-45.5	-46.8	20.6	0.00e+00	0	40	0	829423616	63	3972
2026-01-21 06:26:15.74	350.34	22.36	-45.4	-46.7	20.7	0.00e+00	0	39	0	831520768	62	4165
2026-01-21 06:26:16.75	350.10	22.29	-45.4	-46.7	20.7	0.00e+00	0	39	0	832569344	62	4156
2026-01-21 06:26:17.76	349.86	22.22	-45.4	-46.6	20.8	0.00e+00	0	40	0	834666496	62	4122
2026-01-21 06:26:18.77	349.62	22.16	-45.3	-46.5	20.8	0.00e+00	0	40	0	836763648	62	4092
2026-01-21 06:26:19.78	349.38	22.09	-45.2	-46.4	21.0	0.00e+00	0	40	0	838860800	62	4020
2026-01-21 06:26:20.79	349.15	22.02	-45.1	-46.3	21.1	0.00e+00	0	39	0	840957952	62	3968
2026-01-21 06:26:21.79	348.92	21.95	-45.0	-46.2	21.2	0.00e+00	0	40	0	842006528	62	3947
2026-01-21 06:26:22.80	348.68	21.89	-45.0	-46.2	21.2	0.00e+00	0	40	0	844103680	62	3915
2026-01-21 06:26:23.80	348.45	21.82	-44.8	-46.0	21.3	0.00e+00	0	39	0	846200832	61	4066
2026-01-21 06:26:24.81	348.22	21.75	-44.7	-45.9	21.4	0.00e+00	0	40	0	848297984	61	4018
2026-01-21 06:26:25.82	347.99	21.68	-44.7	-45.8	21.5	0.00e+00	0	39	0	850395136	61	3985
2026-01-21 06:26:26.83	347.76	21.61	-44.7	-45.8	21.5	0.00e+00	0	40	0	851443712	61	3997
2026-01-21 06:26:27.84	347.53	21.54	-44.7	-45.8	21.5	0.00e+00	0	40	0	853540864	61	3992
2026-01-21 06:26:28.85	347.30	21.47	-44.8	-45.9	21.4	0.00e+00	0	40	0	855638016	61	4042
2026-01-21 06:26:29.85	347.08	21.40	-44.7	-45.8	21.5	0.00e+00	0	39	0	857735168	61	3996
2026-01-21 06:26:30.86	346.85	21.33	-44.7	-45.8	21.5	0.00e+00	0	40	0	859832320	61	4001
2026-01-21 06:26:31.87	346.62	21.26	-44.7	-45.9	21.4	0.00e+00	0	40	0	860880896	61	4009
2026-01-21 06:26:32.88	346.40	21.18	-44.7	-45.9	21.4	0.00e+00	0	40	0	862978048	61	4007
2026-01-21 06:26:33.89	346.18	21.11	-44.7	-45.9	21.4	0.00e+00	0	40	0	865075200	61	4027
2026-01-21 06:26:34.89	345.96	21.04	-44.8	-46.0	21.3	0.00e+00	0	40	0	867172352	61	4085
2026-01-21 06:26:35.90	345.74	20.97	-44.8	-45.9	21.4	0.00e+00	0	40	0	869269504	61	4035
2026-01-21 06:26:36.91	345.52	20.90	-44.8	-46.0	21.3	0.00e+00	0	39	0	870318080	61	4058
2026-01-21 06:26:37.92	345.30	20.82	-44.8	-46.0	21.3	0.00e+00	0	40	0	872415232	61	4062
2026-01-21 06:26:38.92	345.08	20.75	-44.9	-46.1	21.3	0.00e+00	0	39	0	874512384	61	4103
2026-01-21 06:26:39.93	344.87	20.68	-44.9	-46.1	21.2	0.00e+00	0	40	0	876609536	61	4119
2026-01-21 06:26:40.94	344.65	20.60	-44.9	-46.1	21.2	0.00e+00	0	40	0	878706688	61	4138
2026-01-21 06:26:41.95	344.44	20.53	-44.9	-46.1	21.2	0.00e+00	0	40	0	879755264	61	4109
2026-01-21 06:26:42.96	344.22	20.46	-44.9	-46.0	21.2	0.00e+00	0	40	0	881852416	61	4090
2026-01-21 06:26:43.97	344.01	20.38	-44.8	-45.9	21.3	0.00e+00	0	40	0	883949568	61	4044
2026-01-21 06:26:44.97	343.80	20.31	-44.7	-45.8	21.5	0.00e+00	0	39	0	886046720	61	3999
2026-01-21 06:26:45.98	343.59	20.24	-44.6	-45.8	21.5	0.00e+00	0	39	0	888143872	61	3973
2026-01-21 06:26:46.99	343.38	20.16	-44.5	-45.7	21.6	0.00e+00	0	39	0	890241024	61	3916
2026-01-21 06:26:48.00	343.18	20.09	-44.5	-45.6	21.7	0.00e+00	0	40	0	891289600	60	4109
2026-01-21 06:26:49.01	342.97	20.01	-44.5	-45.7	21.6	0.00e+00	0	40	0	893386752	60	4154
2026-01-21 06:26:50.02	342.76	19.94	-44.5	-45.6	21.6	0.00e+00	0	39	0	895483904	60	4131
2026-01-21 06:26:51.03	342.56	19.86	-44.4	-45.5	21.8	0.00e+00	0	39	0	897581056	60	4073
2026-01-21 06:26:52.04	342.35	19.79	-44.2	-45.3	21.9	0.00e+00	0	40	0	898629632	60	3988
2026-01-21 06:26:53.04	342.15	19.71	-44.3	-45.4	21.8	0.00e+00	0	39	0	900726784	60	4033
2026-01-21 06:26:54.05	341.95	19.63	-44.3	-45.4	21.8	0.00e+00	0	40	0	902823936	60	4033
2026-01-21 06:26:55.06	341.75	19.56	-44.2	-45.3	21.9	0.00e+00	0	40	0	904921088	60	3989
2026-01-21 06:26:56.07	341.55	19.48	-44.2	-45.2	22.0	0.00e+00	0	39	0	907018240	60	3956
2026-01-21 06:26:57.08	341.35	19.41	-44.1	-45.2	22.1	0.00e+00	0	40	0	908066816	60	3918
2026-01-21 06:26:58.09	341.15	19.33	-44.1	-45.1	22.1	0.00e+00	0	40	0	910163968	60	3911
2026-01-21 06:26:59.09	340.96	19.25	-44.0	-45.1	22.1	0.00e+00	0	40	0	912261120	60	3885
2026-01-21 06:27:00.10	340.76	19.18	-44.1	-45.2	22.0	0.00e+00	0	40	0	914358272	60	3914
2026-01-21 06:27:01.11	340.57	19.10	-44.0	-45.0	22.1	0.00e+00	0	39	0	916455424	60	3864
2026-01-21 06:27:02.12	340.37	19.02	-44.3	-45.4	22.1	0.00e+00	0	40	0	918552576	59	4278
2026-01-21 06:27:03.12	340.18	18.95	-44.1	-45.2	22.3	0.00e+00	0	39	0	919601152	59	4170
2026-01-21 06:27:04.13	339.99	18.87	-44.1	-45.2	22.3	0.00e+00	0	39	0	921698304	59	4169
2026-01-21 06:27:05.14	339.80	18.79	-44.2	-45.2	22.3	0.00e+00	0	39	0	923795456	59	4180
2026-01-21 06:27:06.15	339.61	18.72	-44.1	-45.2	22.3	0.00e+00	0	39	0	925892608	59	4158
2026-01-21 06:27:07.16	339.42	18.64	-44.1	-45.1	22.4	0.00e+00	0	40	0	926941184	59	4123
2026-01-21 06:27:08.17	339.23	18.56	-44.2	-45.3	22.2	0.00e+00	0	40	0	929038336	59	4209
2026-01-21 06:27:09.17	339.04	18.49	-44.1	-45.2	22.3	0.00e+00	0	39	0	931135488	59	4176
2026-01-21 06:27:10.18	338.86	18.41	-44.1	-45.1	22.3	0.00e+00	0	40	0	933232640	59	4137
2026-01-21 06:27:11.19	338.67	18.33	-44.2	-45.2	22.2	0.00e+00	0	40	0	935329792	59	4185
2026-01-21 06:27:12.20	338.49	18.25	-44.2	-45.3	22.2	0.00e+00	0	39	0	937426944	59	4230
2026-01-21 06:27:13.20	338.31	18.18	-44.2	-45.3	22.2	0.00e+00	0	40	0	938475520	59	4229
2026-01-21 06:27:14.21	338.12	18.10	-44.1	-45.2	22.3	0.00e+00	0	39	0	940572672	59	4161
2026-01-21 06:27:15.22	337.94	18.02	-44.1	-45.1	22.3	0.00e+00	0	40	0	942669824	59	4145
2026-01-21 06:27:16.23	337.76	17.94	-44.1	-45.2	22.3	0.00e+00	0	40	0	944766976	59	4148
2026-01-21 06:27:17.24	337.58	17.86	-44.0	-45.1	22.4	0.00e+00	0	40	0	946864128	59	4109
2026-01-21 06:27:18.25	337.40	17.79	-44.0	-45.1	22.4	0.00e+00	0	39	0	947912704	59	4111
2026-01-21 06:27:19.26	337.23	17.71	-43.9	-45.0	22.4	0.00e+00	0	39	0	950009856	59	4068
2026-01-21 06:27:20.27	337.05	17.63	-44.1	-45.1	22.3	0.00e+00	0	40	0	952107008	59	4138
2026-01-21 06:27:21.28	336.87	17.55	-44.1	-45.1	22.3	0.00e+00	0	40	0	954204160	59	4123
2026-01-21 06:27:22.29	336.70	17.47	-44.3	-45.3	22.1	0.00e+00	0	40	0	956301312	59	4235
2026-01-21 06:27:23.29	336.53	17.40	-44.3	-45.4	22.1	0.00e+00	0	39	0	957349888	59	4249
2026-01-21 06:27:24.30	336.35	17.32	-44.4	-45.5	22.0	0.00e+00	0	40	0	959447040	59	4315
2026-01-21 06:27:25.31	336.18	17.24	-44.3	-45.4	22.0	0.00e+00	0	40	0	961544192	59	4281
2026-01-21 06:27:26.31	336.01	17.16	-44.2	-45.2	22.2	0.00e+00	0	39	0	963641344	59	4191
2026-01-21 06:27:27.32	335.84	17.09	-44.2	-45.3	22.1	0.00e+00	0	39	0	965738496	59	4232
2026-01-21 06:27:28.33	335.67	17.01	-44.3	-45.4	22.1	0.00e+00	0	40	0	966787072	59	4249
2026-01-21 06:27:29.34	335.50	16.93	-44.3	-45.4	22.1	0.00e+00	0	40	0	968884224	59	4253
2026-01-21 06:27:30.34	335.34	16.85	-44.4	-45.5	22.0	0.00e+00	0	40	0	970981376	59	4315
2026-01-21 06:27:31.35	335.17	16.77	-44.5	-45.6	21.9	0.00e+00	0	39	0	973078528	59	4358
2026-01-21 06:27:32.36	335.00	16.70	-44.4	-45.5	21.9	0.00e+00	0	40	0	975175680	59	4318
2026-01-21 06:27:33.37	334.84	16.62	-44.5	-45.6	21.9	0.00e+00	0	39	0	976224256	59	4350
2026-01-21 06:27:34.37	334.68	16.54	-44.4	-45.5	21.9	0.00e+00	0	40	0	978321408	59	4329
2026-01-21 06:27:35.38	334.51	16.46	-44.4	-45.5	21.9	0.00e+00	0	40	0	980418560	59	4329
2026-01-21 06:27:36.39	334.35	16.38	-44.4	-45.5	22.0	0.00e+00	0	39	0	982515712	59	4305
2026-01-21 06:27:37.40	334.19	16.30	-44.5	-45.6	21.8	0.00e+00	0	40	0	984612864	59	4365
2026-01-21 06:27:38.40	334.03	16.23	-44.6	-45.7	21.7	0.00e+00	0	39	0	985661440	59	4417
2026-01-21 06:27:39.41	333.87	16.15	-44.6	-45.8	21.7	0.00e+00	0	40	0	987758592	59	4451
2026-01-21 06:27:40.42	333.71	16.07	-44.5	-45.6	21.5	0.00e+00	0	39	0	989855744	60	4128
2026-01-21 06:27:41.43	333.55	15.99	-44.6	-45.7	21.4	0.00e+00	0	40	0	991952896	60	4193
2026-01-21 06:27:42.43	333.40	15.92	-44.7	-45.8	21.3	0.00e+00	0	39	0	994050048	60	4238
2026-01-21 06:27:43.44	333.24	15.84	-44.7	-45.9	21.2	0.00e+00	0	40	0	995098624	60	4271
2026-01-21 06:27:44.45	333.09	15.76	-44.8	-45.9	21.2	0.00e+00	0	40	0	997195776	60	4283
2026-01-21 06:27:45.46	332.93	15.68	-44.9	-46.1	21.1	0.00e+00	0	39	0	999292928	60	4341
2026-01-21 06:27:46.46	332.78	15.60	-44.9	-46.1	21.0	0.00e+00	0	40	0	1001390080	60	4385
2026-01-21 06:27:47.47	332.62	15.53	-45.0	-46.2	20.9	0.00e+00	0	39	0	1003487232	60	4435
2026-01-21 06:27:48.48	332.47	15.45	-45.0	-46.2	21.0	0.00e+00	0	40	0	1005584384	60	4402
2026-01-21 06:27:49.49	332.32	15.37	-45.0	-46.2	20.9	0.00e+00	0	39	0	1006632960	60	4428
2026-01-21 06:27:50.50	332.17	15.29	-45.0	-46.2	20.9	0.00e+00	0	40	0	1008730112	60	4422
2026-01-21 06:27:51.51	332.02	15.22	-44.9	-46.2	21.0	0.00e+00	0	40	0	1010827264	60	4395
2026-01-21 06:27:52.51	331.87	15.14	-45.0	-46.2	20.9	0.00e+00	0	40	0	1012924416	60	4435
2026-01-21 06:27:53.52	331.72	15.06	-45.0	-46.2	20.9	0.00e+00	0	39	0	1013972992	60	4431
2026-01-21 06:27:54.53	331.58	14.98	-45.0	-46.2	20.9	0.00e+00	0	39	0	1016070144	60	4408
2026-01-21 06:27:55.53	331.43	14.91	-45.1	-46.3	20.8	0.00e+00	0	40	0	1018167296	60	4460
2026-01-21 06:27:56.54	331.28	14.83	-45.1	-46.4	20.7	0.00e+00	0	39	0	1020264448	60	4526
2026-01-21 06:27:57.55	331.14	14.75	-45.1	-46.4	20.7	0.00e+00	0	40	0	1022361600	60	4507
2026-01-21 06:27:58.56	330.99	14.67	-45.2	-46.5	20.7	0.00e+00	0	39	0	1023410176	60	4546
2026-01-21 06:27:59.57	330.85	14.60	-45.2	-46.5	20.6	0.00e+00	0	39	0	1025507328	61	4316
2026-01-21 06:28:00.57	330.71	14.52	-45.2	-46.4	20.7	0.00e+00	0	39	0	1027604480	61	4284
2026-01-21 06:28:01.58	330.57	14.44	-45.1	-46.4	20.8	0.00e+00	0	40	0	1029701632	61	4259
2026-01-21 06:28:02.59	330.42	14.37	-45.2	-46.5	20.6	0.00e+00	0	40	0	1031798784	61	4307
2026-01-21 06:28:03.59	330.28	14.29	-45.2	-46.5	20.7	0.00e+00	0	39	0	1033895936	61	4299
2026-01-21 06:28:04.60	330.14	14.21	-45.2	-46.5	20.6	0.00e+00	0	40	0	1034944512	61	4310
2026-01-21 06:28:05.61	330.01	14.14	-45.2	-46.4	20.7	0.00e+00	0	40	0	1037041664	61	4281
2026-01-21 06:28:06.62	329.87	14.06	-45.3	-46.5	20.6	0.00e+00	0	40	0	1039138816	61	4337
2026-01-21 06:28:07.63	329.73	13.98	-45.3	-46.6	20.5	0.00e+00	0	39	0	1041235968	61	4389
2026-01-21 06:28:08.64	329.59	13.91	-45.4	-46.6	20.5	0.00e+00	0	40	0	1042284544	61	4391
2026-01-21 06:28:09.65	329.46	13.83	-45.4	-46.8	20.4	0.00e+00	0	39	0	1044381696	61	4453
2026-01-21 06:28:10.65	329.32	13.75	-45.5	-46.8	20.3	0.00e+00	0	40	0	1046478848	61	4461
2026-01-21 06:28:11.66	329.19	13.68	-45.5	-46.9	20.3	0.00e+00	0	40	0	1048576000	61	4495
2026-01-21 06:28:12.67	329.05	13.60	-45.5	-46.8	20.3	0.00e+00	0	40	0	1050673152	61	4457
2026-01-21 06:28:13.68	328.92	13.52	-45.5	-46.9	20.2	0.00e+00	0	40	0	1052770304	61	4500
2026-01-21 06:28:14.69	328.79	13.45	-45.5	-46.8	20.3	0.00e+00	0	40	0	1053818880	61	4458
2026-01-21 06:28:15.69	328.65	13.37	-45.5	-46.8	20.3	0.00e+00	0	40	0	1055916032	61	4451
2026-01-21 06:28:16.70	328.52	13.30	-45.5	-46.8	20.3	0.00e+00	0	40	0	1058013184	61	4487
2026-01-21 06:28:17.71	328.39	13.22	-45.6	-46.9	20.2	0.00e+00	0	39	0	1060110336	61	4526
2026-01-21 06:28:18.72	328.26	13.14	-45.7	-47.0	20.1	0.00e+00	0	39	0	1062207488	61	4589
2026-01-21 06:28:19.73	328.13	13.07	-45.7	-47.1	20.0	0.00e+00	0	40	0	1063256064	62	4345
2026-01-21 06:28:20.74	328.00	12.99	-45.8	-47.1	20.0	0.00e+00	0	40	0	1065353216	62	4384
2026-01-21 06:28:21.75	327.88	12.92	-45.8	-47.2	19.9	0.00e+00	0	40	0	1067450368	62	4402
2026-01-21 06:28:22.76	327.75	12.84	-45.9	-47.3	19.8	0.00e+00	0	40	0	1069547520	62	4455
2026-01-21 06:28:23.77	327.62	12.77	-45.8	-47.2	19.9	0.00e+00	0	39	0	1070596096	62	4429
2026-01-21 06:28:24.78	327.50	12.69	-45.9	-47.3	19.8	0.00e+00	0	39	0	1072693248	62	4465
2026-01-21 06:28:25.78	327.37	12.62	-45.9	-47.3	19.8	0.00e+00	0	40	0	1074790400	62	4464
2026-01-21 06:28:26.79	327.25	12.54	-45.7	-47.1	19.9	0.00e+00	0	40	0	1076887552	62	4373
2026-01-21 06:28:27.80	327.12	12.47	-45.8	-47.2	19.9	0.00e+00	0	40	0	1078984704	62	4427
2026-01-21 06:28:28.81	327.00	12.39	-45.8	-47.2	19.8	0.00e+00	0	39	0	1081081856	62	4422
2026-01-21 06:28:29.82	326.88	12.32	-45.9	-47.3	19.8	0.00e+00	0	40	0	1082130432	62	4452
2026-01-21 06:28:30.82	326.76	12.24	-45.9	-47.3	19.8	0.00e+00	0	40	0	1084227584	62	4457
2026-01-21 06:28:31.83	326.63	12.17	-45.9	-47.4	19.7	0.00e+00	0	40	0	1086324736	62	4499
2026-01-21 06:28:32.84	326.51	12.09	-46.1	-47.6	19.5	0.00e+00	0	40	0	1088421888	62	4601
2026-01-21 06:28:33.85	326.39	12.02	-45.9	-47.4	19.7	0.00e+00	0	40	0	1090519040	62	4504
2026-01-21 06:28:34.86	326.27	11.94	-46.0	-47.4	19.6	0.00e+00	0	40	0	1091567616	62	4531
2026-01-21 06:28:35.87	326.15	11.87	-46.1	-47.6	19.5	0.00e+00	0	40	0	1093664768	62	4603
2026-01-21 06:28:36.87	326.04	11.80	-46.1	-47.6	19.5	0.00e+00	0	40	0	1095761920	62	4607
2026-01-21 06:28:37.88	325.92	11.72	-46.2	-47.7	19.4	0.00e+00	0	39	0	1097859072	62	4679
2026-01-21 06:28:38.88	325.80	11.65	-46.3	-47.8	19.2	0.00e+00	0	40	0	1099956224	63	4483
2026-01-21 06:28:39.89	325.69	11.58	-46.3	-47.8	19.3	0.00e+00	0	40	0	1101004800	63	4465
2026-01-21 06:28:40.90	325.57	11.50	-46.4	-48.0	19.1	0.00e+00	0	40	0	1103101952	63	4554
2026-01-21 06:28:41.91	325.45	11.43	-46.4	-48.0	19.0	0.00e+00	0	40	0	1105199104	63	4579
2026-01-21 06:28:42.92	325.34	11.35	-46.4	-48.0	19.0	0.00e+00	0	40	0	1107296256	63	4575
2026-01-21 06:28:43.92	325.23	11.28	-46.5	-48.0	19.0	0.00e+00	0	40	0	1109393408	63	4594
2026-01-21 06:28:44.93	325.11	11.21	-46.6	-48.2	18.9	0.00e+00	0	40	0	1110441984	63	4662
2026-01-21 06:28:45.94	325.00	11.14	-46.6	-48.2	18.9	0.00e+00	0	40	0	1112539136	63	4654
2026-01-21 06:28:46.95	324.89	11.06	-46.7	-48.4	18.7	0.00e+00	0	40	0	1114636288	63	4760
2026-01-21 06:28:47.96	324.78	10.99	-46.6	-48.2	18.9	0.00e+00	0	40	0	1116733440	63	4664
2026-01-21 06:28:48.96	324.67	10.92	-46.7	-48.3	18.7	0.00e+00	0	40	0	1118830592	63	4754
2026-01-21 06:28:49.97	324.55	10.84	-46.6	-48.2	18.8	0.00e+00	0	40	0	1119879168	64	4402
2026-01-21 06:28:50.98	324.44	10.77	-46.5	-48.1	18.7	0.00e+00	0	40	0	1121976320	64	4391
2026-01-21 06:28:51.98	324.34	10.70	-46.6	-48.3	18.7	0.00e+00	0	40	0	1124073472	64	4448
2026-01-21 06:28:52.99	324.23	10.63	-46.7	-48.3	18.6	0.00e+00	0	40	0	1126170624	64	4488
2026-01-21 06:28:54.00	324.12	10.56	-46.8	-48.5	18.4	0.00e+00	0	40	0	1128267776	64	4549
2026-01-21 06:28:55.00	324.01	10.48	-46.8	-48.5	18.4	0.00e+00	0	40	0	1129316352	64	4547
2026-01-21 06:28:56.01	323.90	10.41	-46.8	-48.5	18.5	0.00e+00	0	39	0	1131413504	64	4547
2026-01-21 06:28:57.02	323.80	10.34	-46.8	-48.4	18.4	0.00e+00	0	40	0	1133510656	64	4534
2026-01-21 06:28:58.02	323.69	10.27	-46.8	-48.6	18.3	0.00e+00	0	39	0	1135607808	64	4609
2026-01-21 06:28:59.03	323.59	10.20	-46.8	-48.4	18.4	0.00e+00	0	40	0	1137704960	64	4533
2026-01-21 06:29:00.04	323.48	10.12	-46.8	-48.5	18.4	0.00e+00	0	40	0	1138753536	64	4579
2026-01-21 06:29:01.05	323.38	10.05	-46.8	-48.5	18.3	0.00e+00	0	40	0	1140850688	64	4592
2026-01-21 06:29:02.05	323.27	9.98	-46.9	-48.7	18.2	0.00e+00	0	40	0	1142947840	64	4659
2026-01-21 06:29:03.06	323.17	9.91	-46.8	-48.5	18.4	0.00e+00	0	40	0	1145044992	64	4556
2026-01-21 06:29:04.07	323.07	9.84	-46.7	-48.4	18.5	0.00e+00	0	39	0	1147142144	64	4505
2026-01-21 06:29:05.08	322.96	9.77	-46.8	-48.5	18.4	0.00e+00	0	40	0	1148190720	64	4554
2026-01-21 06:29:06.08	322.86	9.70	-46.7	-48.4	18.4	0.00e+00	0	40	0	1150287872	64	4536
2026-01-21 06:29:07.09	322.76	9.63	-46.7	-48.4	18.5	0.00e+00	0	40	0	1152385024	64	4511
2026-01-21 06:29:08.10	322.66	9.56	-46.8	-48.5	18.3	0.00e+00	0	39	0	1154482176	64	4596
2026-01-21 06:29:09.11	322.56	9.49	-46.7	-48.4	18.5	0.00e+00	0	40	0	1156579328	64	4502
2026-01-21 06:29:10.11	322.46	9.42	-46.7	-48.4	18.5	0.00e+00	0	40	0	1157627904	64	4504
2026-01-21 06:29:11.12	322.36	9.35	-46.7	-48.4	18.5	0.00e+00	0	40	0	1159725056	64	4505
2026-01-21 06:29:12.13	322.26	9.28	-46.8	-48.5	18.4	0.00e+00	0	40	0	1161822208	64	4561
2026-01-21 06:29:13.14	322.16	9.21	-46.7	-48.4	18.5	0.00e+00	0	40	0	1163919360	64	4505
2026-01-21 06:29:14.15	322.06	9.13	-46.8	-48.5	18.3	0.00e+00	0	40	0	1166016512	64	4564
2026-01-21 06:29:15.16	321.97	9.06	-46.8	-48.5	18.3	0.00e+00	0	40	0	1167065088	64	4549
2026-01-21 06:29:16.16	321.87	9.00	-46.8	-48.5	18.3	0.00e+00	0	40	0	1169162240	64	4550
2026-01-21 06:29:17.17	321.77	8.93	-46.8	-48.6	18.2	0.00e+00	0	40	0	1171259392	64	4600
2026-01-21 06:29:18.18	321.68	8.86	-46.8	-48.5	18.3	0.00e+00	0	40	0	1173356544	64	4591
2026-01-21 06:29:19.18	321.58	8.79	-46.9	-48.7	18.0	0.00e+00	0	40	0	1175453696	64	4686
2026-01-21 06:29:20.19	321.49	8.72	-47.0	-48.7	18.0	0.00e+00	0	40	0	1176502272	64	4702
2026-01-21 06:29:21.20	321.39	8.65	-47.2	-49.0	17.8	0.00e+00	0	40	0	1178599424	64	4841
2026-01-21 06:29:22.21	321.30	8.58	-47.1	-48.9	17.8	0.00e+00	0	40	0	1180696576	64	4812
2026-01-21 06:29:23.21	321.20	8.51	-47.2	-49.0	17.8	0.00e+00	0	40	0	1182793728	64	4850
2026-01-21 06:29:24.23	321.11	8.44	-47.2	-49.1	17.7	0.00e+00	0	40	0	1184890880	65	4608
2026-01-21 06:29:25.23	321.02	8.37	-47.3	-49.3	17.5	0.00e+00	0	40	0	1185939456	65	4718
2026-01-21 06:29:26.24	320.93	8.30	-47.3	-49.2	17.6	0.00e+00	0	40	0	1188036608	65	4666
2026-01-21 06:29:27.25	320.83	8.24	-47.2	-49.1	17.6	0.00e+00	0	39	0	1190133760	65	4639
2026-01-21 06:29:28.26	320.74	8.17	-47.2	-49.1	17.7	0.00e+00	0	40	0	1192230912	65	4610
2026-01-21 06:29:29.27	320.65	8.10	-47.3	-49.2	17.4	0.00e+00	0	40	0	1194328064	65	4671
2026-01-21 06:29:30.27	320.56	8.03	-47.4	-49.3	17.4	0.00e+00	0	40	0	1195376640	65	4729
2026-01-21 06:29:31.28	320.47	7.96	-47.4	-49.4	17.3	0.00e+00	0	40	0	1197473792	65	4801
2026-01-21 06:29:32.28	320.38	7.90	-47.4	-49.4	17.4	0.00e+00	0	40	0	1199570944	65	4764
2026-01-21 06:29:33.29	320.29	7.83	-47.4	-49.4	17.3	0.00e+00	0	40	0	1201668096	65	4804
2026-01-21 06:29:34.30	320.20	7.76	-47.5	-49.6	17.1	0.00e+00	0	40	0	1203765248	65	4879
2026-01-21 06:29:35.31	320.11	7.69	-47.5	-49.6	17.1	0.00e+00	0	40	0	1204813824	65	4887
2026-01-21 06:29:36.31	320.03	7.63	-47.5	-49.5	17.2	0.00e+00	0	40	0	1206910976	65	4854
2026-01-21 06:29:37.32	319.94	7.56	-47.6	-49.7	17.0	0.00e+00	0	40	0	1209008128	65	4936
2026-01-21 06:29:38.33	319.85	7.49	-47.7	-49.9	16.8	0.00e+00	0	40	0	1211105280	66	4769
2026-01-21 06:29:39.34	319.76	7.42	-47.8	-49.9	16.8	0.00e+00	0	40	0	1213202432	66	4784
2026-01-21 06:29:40.35	319.68	7.36	-47.8	-50.0	16.7	0.00e+00	0	40	0	1214251008	66	4854
2026-01-21 06:29:41.36	319.59	7.29	-47.7	-49.8	16.9	0.00e+00	0	40	0	1216348160	66	4731
2026-01-21 06:29:42.36	319.51	7.22	-47.8	-50.0	16.7	0.00e+00	0	40	0	1218445312	66	4815
2026-01-21 06:29:43.37	319.42	7.16	-47.8	-50.0	16.6	0.00e+00	0	40	0	1220542464	66	4846
2026-01-21 06:29:44.38	319.34	7.09	-47.8	-50.0	16.6	0.00e+00	0	40	0	1222639616	66	4840
2026-01-21 06:29:45.39	319.25	7.02	-47.7	-49.8	16.8	0.00e+00	0	40	0	1224736768	66	4736
2026-01-21 06:29:46.40	319.17	6.96	-47.7	-49.8	16.8	0.00e+00	0	40	0	1225785344	66	4742
2026-01-21 06:29:47.41	319.09	6.89	-47.7	-49.9	16.7	0.00e+00	0	39	0	1227882496	66	4771
2026-01-21 06:29:48.41	319.00	6.82	-47.6	-49.6	17.0	0.00e+00	0	40	0	1229979648	66	4651
