passes_logs/2026/01/21/R3.2S_Murmansk/R3.2S_Murmansk__20260121_004541_KANOPUS-V_5_rec.log

#Pass ID: 20260121_004541_KANOPUS-V 5
#Satellite: KANOPUS-V 5
#Configuration: KANOPUS-V_8320
#almurnet v.1.7.20251203
#Start time: 2026-01-21 00:45:42

#Version: 2.2.20231116
#Station: R3.2S_Murmansk
#Location: 33.079688 lon 68.888172 lat
#TLE: 1 43876U 18111A   26020.16250899  .00005594  00000+0  23751-3 0  9993
#TLE: 2 43876  97.3687 288.5833 0001817  87.9007 272.2438 15.23474018392259

#Time	Az	El	Level	Level2	SNR	BER	BlckErr	Temp	State	Recorded	gain1	gain2
2026-01-21 00:45:42.41	26.16	2.04	-53.9	-62.8	3.8	7.45e-01	0	39	0	0	79	9966
2026-01-21 00:45:43.42	26.07	2.10	-53.3	-62.2	3.8	7.42e-01	0	39	104	0	77	10469
2026-01-21 00:45:44.43	25.97	2.16	-53.3	-62.2	3.8	7.44e-01	0	39	104	0	77	10460
2026-01-21 00:45:45.44	25.88	2.22	-53.3	-62.2	3.8	7.45e-01	0	39	104	0	77	10450
2026-01-21 00:45:46.45	25.78	2.28	-53.3	-62.1	3.8	7.44e-01	0	39	104	0	77	10389
2026-01-21 00:45:47.45	25.69	2.34	-53.3	-62.2	3.8	7.45e-01	0	39	104	0	77	10419
2026-01-21 00:45:48.46	25.59	2.41	-53.3	-62.1	3.8	7.45e-01	0	39	104	0	77	10407
2026-01-21 00:45:49.47	25.49	2.47	-53.3	-62.1	3.8	7.45e-01	0	39	104	0	77	10406
2026-01-21 00:45:50.48	25.40	2.53	-53.3	-62.1	3.8	7.46e-01	0	39	104	0	77	10378
2026-01-21 00:45:51.49	25.30	2.59	-53.3	-62.2	3.8	7.46e-01	0	39	104	0	77	10419
2026-01-21 00:45:52.49	25.20	2.65	-53.3	-62.1	3.8	7.45e-01	0	39	104	0	77	10412
2026-01-21 00:45:53.50	25.10	2.71	-53.3	-62.1	3.8	7.46e-01	0	39	104	0	77	10385
2026-01-21 00:45:54.51	25.00	2.78	-53.3	-62.2	3.8	7.44e-01	0	40	104	0	77	10416
2026-01-21 00:45:55.52	24.90	2.84	-53.3	-62.1	3.8	7.44e-01	0	40	104	0	77	10404
2026-01-21 00:45:56.53	24.80	2.90	-53.3	-62.1	3.8	7.46e-01	0	40	104	0	77	10396
2026-01-21 00:45:57.54	24.69	2.96	-53.3	-62.1	3.8	7.44e-01	0	40	104	0	77	10411
2026-01-21 00:45:58.54	24.59	3.03	-53.3	-62.1	3.8	7.47e-01	0	40	104	0	77	10392
2026-01-21 00:45:59.55	24.49	3.09	-53.3	-62.1	3.8	7.45e-01	0	39	104	0	77	10368
2026-01-21 00:46:00.56	24.39	3.15	-53.3	-62.1	3.8	7.45e-01	0	39	104	0	77	10408
2026-01-21 00:46:01.57	24.28	3.22	-53.3	-62.1	3.8	7.45e-01	0	40	104	0	77	10400
2026-01-21 00:46:02.57	24.18	3.28	-53.3	-62.1	3.8	7.48e-01	0	40	104	0	77	10395
2026-01-21 00:46:03.58	24.07	3.34	-53.3	-62.2	3.8	7.46e-01	0	40	104	0	77	10423
2026-01-21 00:46:04.59	23.97	3.41	-53.3	-62.1	3.8	7.45e-01	0	40	104	0	77	10385
2026-01-21 00:46:05.60	23.86	3.47	-53.3	-62.1	3.8	7.47e-01	0	40	104	0	77	10405
2026-01-21 00:46:06.60	23.75	3.53	-53.3	-62.2	3.8	7.46e-01	0	40	104	0	77	10416
2026-01-21 00:46:07.61	23.65	3.60	-53.3	-62.1	3.8	7.45e-01	0	40	104	0	77	10355
2026-01-21 00:46:08.62	23.54	3.66	-53.3	-62.2	3.8	7.45e-01	0	40	104	0	77	10418
2026-01-21 00:46:09.63	23.43	3.72	-53.3	-62.1	3.8	7.45e-01	0	40	104	0	77	10336
2026-01-21 00:46:10.64	23.32	3.79	-53.3	-62.1	3.8	7.46e-01	0	39	104	0	77	10388
2026-01-21 00:46:11.65	23.21	3.85	-53.3	-62.1	3.8	7.46e-01	0	40	104	0	77	10355
2026-01-21 00:46:12.66	23.10	3.92	-53.3	-62.1	3.8	7.45e-01	0	40	104	0	77	10377
2026-01-21 00:46:13.66	22.98	3.98	-53.3	-62.1	3.8	7.46e-01	0	40	104	0	77	10382
2026-01-21 00:46:14.67	22.87	4.05	-53.3	-62.1	3.8	7.48e-01	0	40	104	0	77	10400
2026-01-21 00:46:15.68	22.76	4.11	-53.3	-62.1	3.8	7.45e-01	0	40	104	0	77	10404
2026-01-21 00:46:16.69	22.65	4.18	-53.3	-62.1	3.8	7.46e-01	0	39	104	0	77	10390
2026-01-21 00:46:17.70	22.53	4.24	-53.3	-62.1	3.8	7.45e-01	0	40	104	0	77	10377
2026-01-21 00:46:18.71	22.42	4.31	-53.3	-62.1	3.8	7.44e-01	0	40	104	0	77	10340
2026-01-21 00:46:19.72	22.30	4.37	-53.3	-62.1	3.8	7.45e-01	0	40	104	0	77	10344
2026-01-21 00:46:20.73	22.18	4.44	-53.3	-62.1	3.8	7.45e-01	0	40	104	0	77	10382
2026-01-21 00:46:21.73	22.07	4.50	-53.3	-62.1	3.8	7.46e-01	0	40	104	0	77	10374
2026-01-21 00:46:22.74	21.95	4.57	-53.3	-62.1	3.8	7.43e-01	0	40	104	0	77	10412
2026-01-21 00:46:23.75	21.83	4.63	-53.3	-62.1	3.8	7.44e-01	0	40	104	0	77	10332
2026-01-21 00:46:24.76	21.71	4.70	-53.3	-62.1	3.8	7.44e-01	0	40	104	0	77	10389
2026-01-21 00:46:25.77	21.59	4.77	-53.3	-62.1	3.8	7.44e-01	0	40	104	0	77	10378
2026-01-21 00:46:26.78	21.47	4.83	-53.3	-62.1	3.8	7.45e-01	0	40	104	0	77	10359
2026-01-21 00:46:27.79	21.35	4.90	-53.3	-62.1	3.8	7.47e-01	0	40	104	0	77	10364
2026-01-21 00:46:28.79	21.23	4.96	-53.3	-62.1	3.8	7.46e-01	0	40	104	0	77	10363
2026-01-21 00:46:29.80	21.11	5.03	-53.3	-62.1	3.8	7.46e-01	0	40	104	0	77	10383
2026-01-21 00:46:30.75	20.99	5.09	-53.3	-62.1	3.8	7.45e-01	0	40	104	0	77	10398
2026-01-21 00:46:31.75	20.87	5.16	-53.3	-62.1	3.8	7.45e-01	0	40	104	0	77	10398
2026-01-21 00:46:32.76	20.74	5.23	-53.3	-62.1	3.8	7.46e-01	0	40	104	0	77	10362
2026-01-21 00:46:33.77	20.62	5.29	-53.4	-62.2	3.8	7.45e-01	0	40	104	0	77	10529
2026-01-21 00:46:34.78	20.49	5.36	-53.3	-62.1	3.8	7.44e-01	0	40	104	0	77	10339
2026-01-21 00:46:35.79	20.36	5.43	-53.4	-62.2	3.8	7.47e-01	0	40	104	0	77	10481
2026-01-21 00:46:36.79	20.24	5.49	-53.3	-62.2	3.8	7.46e-01	0	40	104	0	77	10426
2026-01-21 00:46:37.80	20.11	5.56	-53.5	-62.3	3.8	7.46e-01	0	40	104	0	77	10537
2026-01-21 00:46:38.81	19.98	5.63	-53.3	-62.1	3.8	7.44e-01	0	40	104	0	77	10374
2026-01-21 00:46:39.82	19.85	5.70	-53.4	-62.2	3.8	7.43e-01	0	40	104	0	77	10508
2026-01-21 00:46:40.83	19.71	5.76	-53.3	-62.2	3.8	7.46e-01	0	40	104	0	77	10444
2026-01-21 00:46:41.83	19.58	5.83	-53.5	-62.3	3.8	7.45e-01	0	40	104	0	77	10615
2026-01-21 00:46:42.84	19.45	5.90	-53.3	-62.2	3.8	7.45e-01	0	40	104	0	77	10464
2026-01-21 00:46:43.85	19.32	5.97	-53.4	-62.2	3.8	7.46e-01	0	40	104	0	77	10518
2026-01-21 00:46:44.86	19.18	6.04	-53.4	-62.2	3.8	7.45e-01	0	40	104	0	77	10457
2026-01-21 00:46:45.87	19.05	6.10	-53.5	-62.3	3.8	7.45e-01	0	40	104	0	77	10572
2026-01-21 00:46:46.87	18.91	6.17	-53.3	-62.2	3.8	7.45e-01	0	40	104	0	77	10425
2026-01-21 00:46:47.88	18.78	6.24	-53.4	-62.3	3.8	7.45e-01	0	40	104	0	77	10584
2026-01-21 00:46:48.89	18.64	6.31	-53.4	-62.2	3.8	7.46e-01	0	40	104	0	77	10518
2026-01-21 00:46:49.90	18.50	6.38	-53.5	-62.3	3.8	7.46e-01	0	40	104	0	77	10637
2026-01-21 00:46:50.90	18.36	6.45	-53.4	-62.2	3.8	7.43e-01	0	40	104	0	77	10486
2026-01-21 00:46:51.91	18.22	6.52	-53.5	-62.3	3.8	7.45e-01	0	40	104	0	77	10564
2026-01-21 00:46:52.92	18.08	6.58	-53.4	-62.3	3.8	7.44e-01	0	40	104	0	77	10551
2026-01-21 00:46:53.93	17.94	6.65	-53.5	-62.4	3.8	7.44e-01	0	40	104	0	77	10680
2026-01-21 00:46:54.94	17.80	6.72	-53.4	-62.2	3.8	7.45e-01	0	40	104	0	77	10465
2026-01-21 00:46:55.95	17.65	6.79	-53.5	-62.3	3.8	7.47e-01	0	40	104	0	77	10636
2026-01-21 00:46:56.95	17.51	6.86	-53.4	-62.3	3.8	7.46e-01	0	40	104	0	77	10583
2026-01-21 00:46:57.96	17.36	6.93	-53.6	-62.4	3.8	7.46e-01	0	40	104	0	77	10674
2026-01-21 00:46:58.97	17.22	7.00	-53.4	-62.2	3.8	7.45e-01	0	40	104	0	77	10505
2026-01-21 00:46:59.97	17.07	7.07	-53.5	-62.3	3.8	7.44e-01	0	40	104	0	77	10645
2026-01-21 00:47:00.98	16.92	7.14	-53.5	-62.3	3.8	7.44e-01	0	40	104	0	77	10598
2026-01-21 00:47:01.99	16.77	7.21	-53.6	-62.4	3.8	7.45e-01	0	40	104	0	77	10729
2026-01-21 00:47:03.00	16.62	7.28	-53.4	-62.3	3.8	7.44e-01	0	40	104	0	77	10585
2026-01-21 00:47:04.01	16.47	7.35	-53.5	-62.4	3.8	7.44e-01	0	40	104	0	77	10681
2026-01-21 00:47:05.01	16.32	7.42	-53.5	-62.3	3.8	7.44e-01	0	40	104	0	77	10655
2026-01-21 00:47:06.02	16.17	7.49	-53.6	-62.4	3.8	7.46e-01	0	40	104	0	77	10777
2026-01-21 00:47:07.03	16.01	7.56	-53.5	-62.3	3.8	7.47e-01	0	40	104	0	77	10581
2026-01-21 00:47:08.04	15.86	7.63	-53.6	-62.4	3.8	7.46e-01	0	40	104	0	77	10748
2026-01-21 00:47:09.05	15.70	7.70	-53.5	-62.4	3.8	7.46e-01	0	40	104	0	77	10680
2026-01-21 00:47:10.06	15.55	7.77	-53.7	-62.5	3.8	7.46e-01	0	40	104	0	77	10835
2026-01-21 00:47:11.07	15.39	7.85	-53.5	-62.3	3.8	7.46e-01	0	40	104	0	77	10645
2026-01-21 00:47:12.07	15.23	7.92	-53.6	-62.4	3.8	7.45e-01	0	40	104	0	77	10773
2026-01-21 00:47:13.08	15.07	7.99	-53.6	-62.4	3.8	7.46e-01	0	40	104	0	77	10696
2026-01-21 00:47:14.09	14.91	8.06	-53.7	-62.5	3.8	7.44e-01	0	40	104	0	77	10852
2026-01-21 00:47:15.10	14.75	8.13	-53.6	-62.4	3.8	7.47e-01	0	40	104	0	77	10671
2026-01-21 00:47:16.10	14.59	8.20	-53.7	-62.5	3.8	7.48e-01	0	40	104	0	77	10783
2026-01-21 00:47:17.12	14.42	8.27	-53.6	-62.4	3.8	7.46e-01	0	40	104	0	77	10760
2026-01-21 00:47:18.12	14.26	8.34	-53.7	-62.5	3.8	7.45e-01	0	40	104	0	77	10902
2026-01-21 00:47:19.13	14.09	8.42	-53.6	-62.4	3.8	7.46e-01	0	40	104	0	77	10740
2026-01-21 00:47:20.14	13.93	8.49	-53.7	-62.5	3.8	7.45e-01	0	40	104	0	77	10862
2026-01-21 00:47:21.15	13.76	8.56	-53.7	-62.5	3.8	7.44e-01	0	40	104	0	77	10783
2026-01-21 00:47:22.16	13.59	8.63	-53.8	-62.6	3.8	7.45e-01	0	40	104	0	78	10318
2026-01-21 00:47:23.17	13.42	8.70	-53.7	-62.5	3.8	7.46e-01	0	40	104	0	78	10260
2026-01-21 00:47:24.18	13.25	8.78	-53.7	-62.6	3.8	7.45e-01	0	40	104	0	78	10312
2026-01-21 00:47:25.19	13.08	8.85	-53.7	-62.5	3.8	7.46e-01	0	40	104	0	78	10288
2026-01-21 00:47:26.19	12.90	8.92	-53.8	-62.6	3.8	7.46e-01	0	40	104	0	78	10351
2026-01-21 00:47:27.20	12.73	8.99	-53.7	-62.5	3.8	7.46e-01	0	40	104	0	78	10237
2026-01-21 00:47:28.21	12.56	9.06	-53.8	-62.6	3.8	7.46e-01	0	40	104	0	78	10322
2026-01-21 00:47:29.22	12.38	9.14	-53.7	-62.6	3.8	7.47e-01	0	40	104	0	78	10304
2026-01-21 00:47:30.23	12.20	9.21	-53.8	-62.7	3.8	7.44e-01	0	40	104	0	78	10418
2026-01-21 00:47:31.24	12.02	9.28	-53.7	-62.5	3.8	7.43e-01	0	40	104	0	78	10265
2026-01-21 00:47:32.25	11.84	9.35	-53.8	-62.6	3.8	7.43e-01	0	40	104	0	78	10371
2026-01-21 00:47:33.26	11.66	9.43	-53.8	-62.6	3.8	7.45e-01	0	40	104	0	78	10349
2026-01-21 00:47:34.27	11.48	9.50	-53.8	-62.6	3.8	7.45e-01	0	40	104	0	78	10398
2026-01-21 00:47:35.27	11.30	9.57	-53.7	-62.5	3.8	7.45e-01	0	40	104	0	78	10277
2026-01-21 00:47:36.28	11.11	9.64	-53.8	-62.6	3.8	7.43e-01	0	40	104	0	78	10338
2026-01-21 00:47:37.29	10.93	9.72	-53.8	-62.6	3.8	7.47e-01	0	40	104	0	78	10366
2026-01-21 00:47:38.30	10.74	9.79	-53.8	-62.6	3.8	7.44e-01	0	40	104	0	78	10388
2026-01-21 00:47:39.31	10.55	9.86	-53.8	-62.6	3.8	7.47e-01	0	40	104	0	78	10374
2026-01-21 00:47:40.32	10.36	9.94	-53.8	-62.6	3.8	7.45e-01	0	40	104	0	78	10375
2026-01-21 00:47:41.32	10.17	10.01	-53.8	-62.6	3.8	7.45e-01	0	40	104	0	78	10377
2026-01-21 00:47:42.33	9.98	10.08	-53.8	-62.6	3.8	7.44e-01	0	40	104	0	78	10404
2026-01-21 00:47:43.34	9.79	10.15	-53.8	-62.6	3.8	7.44e-01	0	40	104	0	78	10392
2026-01-21 00:47:44.35	9.60	10.23	-53.8	-62.7	3.8	7.44e-01	0	40	104	0	78	10440
2026-01-21 00:47:45.36	9.40	10.30	-53.8	-62.7	3.8	7.44e-01	0	40	104	0	78	10416
2026-01-21 00:47:46.36	9.21	10.37	-53.9	-62.7	3.8	7.44e-01	0	40	104	0	78	10419
2026-01-21 00:47:47.37	9.01	10.45	-53.8	-62.6	3.8	7.45e-01	0	40	104	0	78	10378
2026-01-21 00:47:48.38	8.81	10.52	-53.8	-62.7	3.8	7.44e-01	0	40	104	0	78	10436
2026-01-21 00:47:49.39	8.61	10.59	-53.9	-62.7	3.8	7.45e-01	0	40	104	0	78	10448
2026-01-21 00:47:50.40	8.41	10.67	-53.9	-62.7	3.8	7.46e-01	0	40	104	0	78	10466
2026-01-21 00:47:51.41	8.20	10.74	-53.8	-62.7	3.8	7.45e-01	0	40	104	0	78	10442
2026-01-21 00:47:52.41	8.00	10.81	-53.9	-62.7	3.8	7.44e-01	0	40	104	0	78	10447
2026-01-21 00:47:53.42	7.80	10.88	-53.9	-62.7	3.8	7.45e-01	0	40	104	0	78	10457
2026-01-21 00:47:54.43	7.59	10.96	-53.9	-62.7	3.8	7.44e-01	0	40	104	0	78	10484
2026-01-21 00:47:55.44	7.38	11.03	-53.9	-62.7	3.8	7.46e-01	0	40	104	0	78	10441
2026-01-21 00:47:56.45	7.17	11.10	-53.9	-62.7	3.8	7.45e-01	0	40	104	0	78	10507
2026-01-21 00:47:57.45	6.97	11.18	-53.9	-62.7	3.8	7.45e-01	0	40	104	0	78	10530
2026-01-21 00:47:58.46	6.75	11.25	-53.9	-62.7	3.8	7.46e-01	0	40	104	0	78	10488
2026-01-21 00:47:59.47	6.54	11.32	-53.9	-62.7	3.8	7.46e-01	0	40	104	0	78	10500
2026-01-21 00:48:00.48	6.33	11.39	-53.9	-62.7	3.8	7.44e-01	0	40	104	0	78	10505
2026-01-21 00:48:01.49	6.11	11.47	-53.9	-62.7	3.8	7.45e-01	0	40	104	0	78	10528
2026-01-21 00:48:02.50	5.89	11.54	-53.9	-62.8	3.8	7.46e-01	0	40	104	0	78	10564
2026-01-21 00:48:03.50	5.68	11.61	-53.9	-62.7	3.8	7.47e-01	0	40	104	0	78	10460
2026-01-21 00:48:04.51	5.46	11.69	-53.9	-62.7	3.8	7.45e-01	0	40	104	0	78	10456
2026-01-21 00:48:05.52	5.24	11.76	-53.9	-62.7	3.8	7.46e-01	0	40	104	0	78	10529
2026-01-21 00:48:06.53	5.02	11.83	-53.9	-62.7	3.8	7.46e-01	0	40	104	0	78	10515
2026-01-21 00:48:07.54	4.79	11.90	-53.9	-62.7	3.8	7.47e-01	0	40	104	0	78	10482
2026-01-21 00:48:08.55	4.57	11.98	-53.9	-62.7	3.8	7.44e-01	0	40	104	0	78	10481
2026-01-21 00:48:09.55	4.34	12.05	-53.9	-62.8	3.8	7.45e-01	0	40	104	0	78	10546
2026-01-21 00:48:10.56	4.11	12.12	-53.9	-62.7	3.8	7.44e-01	0	40	104	0	78	10525
2026-01-21 00:48:11.57	3.89	12.19	-53.9	-62.8	3.8	7.45e-01	0	40	104	0	78	10540
2026-01-21 00:48:12.57	3.66	12.26	-53.9	-62.7	3.8	7.46e-01	0	40	104	0	78	10532
2026-01-21 00:48:13.59	3.42	12.34	-54.0	-62.8	3.8	7.45e-01	0	40	104	0	78	10580
2026-01-21 00:48:14.59	3.19	12.41	-53.9	-62.8	3.8	7.45e-01	0	40	104	0	78	10548
2026-01-21 00:48:15.60	2.96	12.48	-53.9	-62.8	3.8	7.45e-01	0	40	104	0	78	10545
2026-01-21 00:48:16.61	2.72	12.55	-53.9	-62.7	3.8	7.47e-01	0	40	104	0	78	10524
2026-01-21 00:48:17.62	2.48	12.62	-54.0	-62.8	3.8	7.45e-01	0	40	104	0	78	10600
2026-01-21 00:48:18.63	2.24	12.69	-53.9	-62.8	3.8	7.46e-01	0	40	104	0	78	10540
2026-01-21 00:48:19.63	2.01	12.76	-54.0	-62.8	3.8	7.45e-01	0	40	104	0	78	10555
2026-01-21 00:48:20.64	1.76	12.83	-53.9	-62.8	3.8	7.44e-01	0	40	104	0	78	10550
2026-01-21 00:48:21.65	1.52	12.90	-54.0	-62.8	3.8	7.46e-01	0	40	104	0	78	10604
2026-01-21 00:48:22.66	1.28	12.98	-53.9	-62.8	3.8	7.47e-01	0	40	104	0	78	10545
2026-01-21 00:48:23.67	1.03	13.05	-54.0	-62.8	3.8	7.45e-01	0	40	104	0	78	10584
2026-01-21 00:48:24.67	0.79	13.12	-54.0	-62.8	3.8	7.45e-01	0	40	104	0	78	10609
2026-01-21 00:48:25.68	0.54	13.19	-54.0	-62.8	3.8	7.46e-01	0	40	104	0	78	10622
2026-01-21 00:48:26.69	0.29	13.26	-53.9	-62.8	3.8	7.45e-01	0	40	104	0	78	10608
2026-01-21 00:48:27.70	0.03	13.32	-54.0	-62.8	3.8	7.44e-01	0	40	104	0	78	10583
2026-01-21 00:48:28.71	359.78	13.39	-54.0	-62.8	3.8	7.44e-01	0	40	104	0	78	10541
2026-01-21 00:48:29.71	359.53	13.46	-54.0	-62.8	3.8	7.43e-01	0	40	104	0	78	10652
2026-01-21 00:48:30.72	359.27	13.53	-54.0	-62.8	3.8	7.45e-01	0	40	104	0	78	10544
2026-01-21 00:48:31.73	359.02	13.60	-54.0	-62.8	3.8	7.45e-01	0	40	104	0	78	10588
2026-01-21 00:48:32.74	358.76	13.67	-54.0	-62.8	3.8	7.45e-01	0	40	104	0	78	10596
2026-01-21 00:48:33.74	358.50	13.74	-54.0	-62.9	3.8	7.44e-01	0	40	104	0	78	10667
2026-01-21 00:48:34.75	358.24	13.81	-54.0	-62.8	3.8	7.45e-01	0	40	104	0	78	10562
2026-01-21 00:48:35.76	357.97	13.87	-54.0	-62.8	3.8	7.45e-01	0	40	104	0	78	10643
2026-01-21 00:48:36.77	357.71	13.94	-54.0	-62.8	3.8	7.44e-01	0	40	104	0	78	10634
2026-01-21 00:48:37.78	357.44	14.01	-54.0	-62.9	3.8	7.46e-01	0	40	104	0	78	10677
2026-01-21 00:48:38.79	357.17	14.07	-54.0	-62.9	3.8	7.46e-01	0	40	104	0	78	10657
2026-01-21 00:48:39.79	356.91	14.14	-54.0	-62.8	3.8	7.46e-01	0	40	104	0	78	10646
2026-01-21 00:48:40.80	356.64	14.21	-54.0	-62.9	3.8	7.43e-01	0	40	104	0	78	10660
2026-01-21 00:48:41.81	356.36	14.27	-54.1	-62.9	3.8	7.45e-01	0	40	104	0	78	10725
2026-01-21 00:48:42.82	356.09	14.34	-54.0	-62.9	3.8	7.45e-01	0	40	104	0	78	10678
2026-01-21 00:48:43.83	355.82	14.40	-54.1	-62.9	3.8	7.45e-01	0	40	104	0	78	10683
2026-01-21 00:48:44.83	355.54	14.47	-54.0	-62.9	3.8	7.47e-01	0	40	104	0	78	10675
2026-01-21 00:48:45.84	355.26	14.53	-54.1	-62.9	3.8	7.44e-01	0	40	104	0	78	10748
2026-01-21 00:48:46.85	354.98	14.60	-54.1	-62.9	3.8	7.45e-01	0	40	104	0	78	10682
2026-01-21 00:48:47.86	354.70	14.66	-54.1	-62.9	3.8	7.46e-01	0	40	104	0	78	10690
2026-01-21 00:48:48.87	354.42	14.73	-54.1	-62.9	3.8	7.46e-01	0	40	104	0	78	10687
2026-01-21 00:48:49.87	354.14	14.79	-54.1	-62.9	3.8	7.45e-01	0	40	104	0	78	10765
2026-01-21 00:48:50.88	353.85	14.85	-54.1	-62.9	3.8	7.46e-01	0	41	104	0	78	10713
2026-01-21 00:48:51.89	353.57	14.91	-54.1	-62.9	3.8	7.45e-01	0	40	104	0	78	10721
2026-01-21 00:48:52.90	353.28	14.97	-54.1	-62.9	3.8	7.47e-01	0	40	104	0	78	10730
2026-01-21 00:48:53.91	352.99	15.04	-54.1	-62.9	3.8	7.46e-01	0	40	104	0	78	10721
2026-01-21 00:48:54.92	352.70	15.10	-54.1	-62.9	3.8	7.47e-01	0	40	104	0	78	10758
2026-01-21 00:48:55.92	352.41	15.16	-54.1	-62.9	3.8	7.46e-01	0	40	104	0	78	10733
2026-01-21 00:48:56.93	352.11	15.22	-54.1	-62.9	3.8	7.46e-01	0	40	104	0	78	10705
2026-01-21 00:48:57.94	351.82	15.28	-54.1	-63.0	3.8	7.46e-01	0	40	104	0	78	10810
2026-01-21 00:48:58.95	351.52	15.34	-54.1	-62.9	3.8	7.46e-01	0	41	104	0	78	10735
2026-01-21 00:48:59.96	351.22	15.40	-54.1	-62.9	3.8	7.45e-01	0	40	104	0	78	10761
2026-01-21 00:49:00.96	350.93	15.45	-54.1	-62.9	3.8	7.45e-01	0	40	104	0	78	10720
2026-01-21 00:49:01.97	350.63	15.51	-54.2	-63.0	3.8	7.45e-01	0	40	104	0	78	10800
2026-01-21 00:49:02.98	350.32	15.57	-54.1	-62.9	3.8	7.46e-01	0	40	104	0	78	10755
2026-01-21 00:49:03.99	350.02	15.62	-54.1	-63.0	3.8	7.46e-01	0	40	104	0	78	10814
2026-01-21 00:49:05.00	349.72	15.68	-54.1	-62.9	3.8	7.45e-01	0	41	104	0	78	10734
2026-01-21 00:49:06.01	349.41	15.74	-54.1	-63.0	3.8	7.44e-01	0	40	104	0	78	10790
2026-01-21 00:49:07.02	349.10	15.79	-54.1	-62.9	3.8	7.44e-01	0	40	104	0	78	10778
2026-01-21 00:49:08.02	348.79	15.85	-54.1	-62.9	3.8	7.46e-01	0	41	104	0	78	10764
2026-01-21 00:49:09.03	348.48	15.90	-54.1	-62.9	3.8	7.45e-01	0	40	104	0	78	10771
2026-01-21 00:49:10.04	348.17	15.95	-54.2	-63.0	3.8	7.44e-01	0	40	104	0	78	10826
2026-01-21 00:49:11.05	347.86	16.01	-54.1	-63.0	3.8	7.48e-01	0	40	104	0	78	10791
2026-01-21 00:49:12.06	347.54	16.06	-54.2	-63.0	3.8	7.46e-01	0	40	104	0	78	10844
2026-01-21 00:49:13.07	347.23	16.11	-54.1	-63.0	3.8	7.44e-01	0	40	104	0	78	10790
2026-01-21 00:49:14.08	346.91	16.16	-54.2	-63.0	3.8	7.46e-01	0	40	104	0	78	10807
2026-01-21 00:49:15.08	346.60	16.21	-54.1	-63.0	3.8	7.46e-01	0	40	104	0	78	10786
2026-01-21 00:49:16.09	346.28	16.26	-54.2	-63.0	3.8	7.46e-01	0	40	104	0	78	10798
2026-01-21 00:49:17.10	345.96	16.31	-54.1	-63.0	3.8	7.46e-01	0	40	104	0	78	10817
2026-01-21 00:49:18.11	345.63	16.36	-54.2	-63.0	3.8	7.47e-01	0	40	104	0	78	10855
2026-01-21 00:49:19.12	345.31	16.40	-54.2	-63.0	3.8	7.45e-01	0	40	104	0	78	10828
2026-01-21 00:49:20.13	344.99	16.45	-54.2	-63.0	3.8	7.43e-01	0	40	104	0	78	10819
2026-01-21 00:49:21.14	344.66	16.50	-54.1	-62.9	3.8	7.45e-01	0	40	104	0	78	10771
2026-01-21 00:49:22.14	344.34	16.54	-54.2	-63.0	3.8	7.46e-01	0	40	104	0	78	10862
2026-01-21 00:49:23.15	344.01	16.59	-54.1	-63.0	3.8	7.44e-01	0	40	104	0	78	10809
2026-01-21 00:49:24.16	343.68	16.63	-54.2	-63.0	3.8	7.45e-01	0	40	104	0	78	10787
2026-01-21 00:49:25.17	343.35	16.67	-54.2	-63.0	3.8	7.46e-01	0	40	104	0	78	10805
2026-01-21 00:49:26.18	343.02	16.72	-54.2	-63.0	3.8	7.46e-01	0	40	104	0	78	10833
2026-01-21 00:49:27.19	342.68	16.76	-54.1	-62.9	3.8	7.44e-01	0	40	104	0	78	10772
2026-01-21 00:49:28.20	342.35	16.80	-54.2	-63.0	3.8	7.46e-01	0	40	104	0	78	10829
2026-01-21 00:49:29.21	342.02	16.84	-54.1	-62.9	3.8	7.45e-01	0	40	104	0	78	10771
2026-01-21 00:49:30.21	341.68	16.88	-54.2	-63.0	3.8	7.44e-01	0	40	104	0	78	10831
2026-01-21 00:49:31.22	341.35	16.92	-54.1	-63.0	3.8	7.44e-01	0	40	104	0	78	10781
2026-01-21 00:49:32.23	341.01	16.95	-54.2	-63.0	3.8	7.46e-01	0	40	104	0	78	10794
2026-01-21 00:49:33.24	340.67	16.99	-54.1	-62.9	3.8	7.44e-01	0	40	104	0	78	10772
2026-01-21 00:49:34.25	340.33	17.03	-54.2	-63.0	3.8	7.45e-01	0	40	104	0	78	10811
2026-01-21 00:49:35.25	339.99	17.06	-54.1	-63.0	3.8	7.45e-01	0	40	104	0	78	10791
2026-01-21 00:49:36.26	339.65	17.10	-54.2	-63.0	3.8	7.46e-01	0	40	104	0	78	10835
2026-01-21 00:49:37.27	339.31	17.13	-54.2	-63.0	3.8	7.45e-01	0	41	104	0	78	10834
2026-01-21 00:49:38.28	338.97	17.16	-54.2	-63.0	3.8	7.45e-01	0	40	104	0	78	10819
2026-01-21 00:49:39.29	338.62	17.20	-54.2	-63.0	3.8	7.46e-01	0	41	104	0	78	10847
2026-01-21 00:49:40.30	338.28	17.23	-54.2	-63.0	3.8	7.45e-01	0	40	104	0	78	10825
2026-01-21 00:49:41.31	337.93	17.26	-54.2	-63.0	3.8	7.45e-01	0	40	104	0	78	10815
2026-01-21 00:49:42.31	337.59	17.29	-54.2	-63.1	3.8	7.45e-01	0	41	104	0	79	10301
2026-01-21 00:49:43.32	337.24	17.31	-54.2	-63.0	3.8	7.45e-01	0	40	104	0	79	10260
2026-01-21 00:49:44.33	336.89	17.34	-54.2	-63.0	3.8	7.45e-01	0	41	104	0	79	10266
2026-01-21 00:49:45.34	336.54	17.37	-54.2	-63.0	3.8	7.45e-01	0	40	104	0	79	10244
2026-01-21 00:49:46.34	336.19	17.39	-54.2	-63.0	3.8	7.45e-01	0	40	104	0	79	10267
2026-01-21 00:49:47.35	335.84	17.42	-54.2	-63.0	3.8	7.45e-01	0	40	104	0	79	10260
2026-01-21 00:49:48.36	335.49	17.44	-54.2	-63.0	3.8	7.46e-01	0	40	104	0	79	10286
2026-01-21 00:49:49.37	335.14	17.46	-54.2	-63.0	3.8	7.44e-01	0	40	104	0	79	10278
2026-01-21 00:49:50.38	334.79	17.49	-54.2	-63.0	3.8	7.44e-01	0	40	104	0	79	10263
2026-01-21 00:49:51.38	334.44	17.51	-54.2	-63.0	3.8	7.47e-01	0	40	104	0	79	10277
2026-01-21 00:49:52.39	334.09	17.53	-54.2	-63.0	3.8	7.45e-01	0	40	104	0	79	10287
2026-01-21 00:49:53.40	333.73	17.55	-54.2	-63.1	3.8	7.46e-01	0	40	104	0	79	10298
2026-01-21 00:49:54.41	333.38	17.56	-54.2	-63.1	3.8	7.45e-01	0	40	104	0	79	10304
2026-01-21 00:49:55.42	333.02	17.58	-54.2	-63.0	3.8	7.46e-01	0	40	104	0	79	10289
2026-01-21 00:49:56.42	332.67	17.60	-54.2	-63.1	3.8	7.45e-01	0	40	104	0	79	10311
2026-01-21 00:49:57.43	332.31	17.61	-54.3	-63.1	3.8	7.44e-01	0	40	104	0	79	10318
2026-01-21 00:49:58.44	331.96	17.63	-54.3	-63.1	3.8	7.44e-01	0	40	104	0	79	10333
2026-01-21 00:49:59.45	331.60	17.64	-54.2	-63.1	3.8	7.45e-01	0	40	104	0	79	10299
2026-01-21 00:50:00.46	331.24	17.65	-54.2	-63.0	3.8	7.46e-01	0	40	104	0	79	10288
2026-01-21 00:50:01.46	330.89	17.66	-54.3	-63.0	3.8	7.44e-01	0	40	104	0	79	10275
2026-01-21 00:50:02.47	330.53	17.67	-54.3	-63.1	3.8	7.44e-01	0	40	104	0	79	10319
2026-01-21 00:50:03.48	330.17	17.68	-54.2	-63.0	3.8	7.46e-01	0	40	104	0	79	10286
2026-01-21 00:50:04.49	329.81	17.69	-54.2	-63.0	3.8	7.45e-01	0	40	104	0	79	10279
2026-01-21 00:50:05.50	329.46	17.70	-54.3	-63.1	3.8	7.46e-01	0	40	104	0	79	10324
2026-01-21 00:50:06.51	329.10	17.70	-54.3	-63.1	3.8	7.45e-01	0	40	104	0	79	10329
2026-01-21 00:50:07.52	328.74	17.71	-54.2	-63.0	3.8	7.46e-01	0	40	104	0	79	10284
2026-01-21 00:50:08.52	328.38	17.71	-54.2	-63.1	3.8	7.47e-01	0	40	104	0	79	10364
2026-01-21 00:50:09.53	328.02	17.71	-54.3	-63.1	3.8	7.45e-01	0	40	104	0	79	10341
2026-01-21 00:50:10.54	327.66	17.72	-54.3	-63.1	3.8	7.45e-01	0	40	104	0	79	10333
2026-01-21 00:50:11.55	327.31	17.72	-54.3	-63.1	3.8	7.46e-01	0	41	104	0	79	10341
2026-01-21 00:50:12.56	326.95	17.72	-54.3	-63.1	3.8	7.45e-01	0	40	104	0	79	10327
2026-01-21 00:50:13.57	326.59	17.72	-54.3	-63.1	3.8	7.44e-01	0	40	104	0	79	10375
2026-01-21 00:50:14.57	326.23	17.71	-54.3	-63.1	3.8	7.46e-01	0	40	104	0	79	10323
2026-01-21 00:50:15.58	325.87	17.71	-54.3	-63.1	3.8	7.45e-01	0	40	104	0	79	10336
2026-01-21 00:50:16.59	325.51	17.71	-54.3	-63.1	3.8	7.45e-01	0	40	104	0	79	10357
2026-01-21 00:50:17.60	325.15	17.70	-54.3	-63.2	3.8	7.44e-01	0	40	104	0	79	10419
2026-01-21 00:50:18.61	324.79	17.70	-54.3	-63.1	3.8	7.46e-01	0	40	104	0	79	10349
2026-01-21 00:50:19.61	324.44	17.69	-54.3	-63.1	3.8	7.45e-01	0	40	104	0	79	10322
2026-01-21 00:50:20.62	324.08	17.68	-54.3	-63.1	3.8	7.46e-01	0	40	104	0	79	10341
2026-01-21 00:50:21.63	323.72	17.67	-54.3	-63.1	3.8	7.46e-01	0	40	104	0	79	10382
2026-01-21 00:50:22.64	323.37	17.66	-54.3	-63.1	3.8	7.44e-01	0	40	104	0	79	10376
2026-01-21 00:50:23.64	323.01	17.65	-54.3	-63.1	3.8	7.46e-01	0	40	104	0	79	10370
2026-01-21 00:50:24.65	322.65	17.64	-54.3	-63.1	3.8	7.44e-01	0	40	104	0	79	10394
2026-01-21 00:50:25.66	322.30	17.63	-54.3	-63.2	3.8	7.46e-01	0	40	104	0	79	10448
2026-01-21 00:50:26.67	321.94	17.61	-54.3	-63.1	3.8	7.45e-01	0	40	104	0	79	10365
2026-01-21 00:50:27.68	321.58	17.60	-54.3	-63.1	3.8	7.45e-01	0	41	104	0	79	10399
2026-01-21 00:50:28.69	321.23	17.58	-54.3	-63.1	3.8	7.45e-01	0	40	104	0	79	10404
2026-01-21 00:50:29.69	320.88	17.56	-54.4	-63.1	3.8	7.44e-01	0	40	104	0	79	10407
2026-01-21 00:50:30.70	320.52	17.55	-54.3	-63.1	3.8	7.46e-01	0	40	104	0	79	10412
2026-01-21 00:50:31.71	320.17	17.53	-54.3	-63.1	3.8	7.45e-01	0	40	104	0	79	10402
2026-01-21 00:50:32.72	319.81	17.51	-54.3	-63.1	3.8	7.45e-01	0	40	104	0	79	10348
2026-01-21 00:50:33.73	319.46	17.49	-54.4	-63.2	3.8	7.45e-01	0	40	104	0	79	10435
2026-01-21 00:50:34.74	319.11	17.46	-54.3	-63.1	3.8	7.45e-01	0	40	104	0	79	10409
2026-01-21 00:50:35.74	318.76	17.44	-54.3	-63.2	3.8	7.44e-01	0	40	104	0	79	10429
2026-01-21 00:50:36.75	318.41	17.42	-54.3	-63.1	3.8	7.44e-01	0	40	104	0	79	10396
2026-01-21 00:50:37.76	318.06	17.39	-54.4	-63.2	3.8	7.44e-01	0	40	104	0	79	10465
2026-01-21 00:50:38.77	317.71	17.37	-54.3	-63.1	3.8	7.45e-01	0	40	104	0	79	10411
2026-01-21 00:50:39.77	317.36	17.34	-54.3	-63.2	3.8	7.46e-01	0	40	104	0	79	10429
2026-01-21 00:50:40.78	317.01	17.31	-54.3	-63.2	3.8	7.46e-01	0	40	104	0	79	10431
2026-01-21 00:50:41.79	316.66	17.29	-54.4	-63.2	3.8	7.45e-01	0	40	104	0	79	10471
2026-01-21 00:50:42.80	316.32	17.26	-54.3	-63.1	3.8	7.46e-01	0	40	104	0	79	10393
2026-01-21 00:50:43.80	315.97	17.23	-54.4	-63.2	3.8	7.45e-01	0	40	104	0	79	10429
2026-01-21 00:50:44.82	315.62	17.19	-54.3	-63.1	3.8	7.46e-01	0	40	104	0	79	10381
2026-01-21 00:50:45.82	315.28	17.16	-54.4	-63.2	3.8	7.44e-01	0	40	104	0	79	10488
2026-01-21 00:50:46.83	314.94	17.13	-54.3	-63.1	3.8	7.45e-01	0	40	104	0	79	10376
2026-01-21 00:50:47.84	314.60	17.10	-54.4	-63.2	3.8	7.46e-01	0	40	104	0	79	10464
2026-01-21 00:50:48.85	314.25	17.06	-54.3	-63.2	3.8	7.45e-01	0	40	104	0	79	10424
2026-01-21 00:50:49.85	313.92	17.03	-54.4	-63.2	3.8	7.46e-01	0	40	104	0	79	10474
2026-01-21 00:50:50.85	313.58	16.99	-54.3	-63.1	3.8	7.44e-01	0	40	104	0	79	10408
2026-01-21 00:50:51.86	313.24	16.95	-54.4	-63.2	3.8	7.46e-01	0	41	104	0	79	10488
2026-01-21 00:50:52.87	312.90	16.92	-54.4	-63.2	3.8	7.47e-01	0	40	104	0	79	10466
2026-01-21 00:50:53.87	312.57	16.88	-54.4	-63.2	3.8	7.46e-01	0	40	104	0	79	10533
2026-01-21 00:50:54.88	312.23	16.84	-54.4	-63.2	3.8	7.47e-01	0	41	104	0	79	10466
2026-01-21 00:50:55.89	311.90	16.80	-54.4	-63.2	3.8	7.46e-01	0	40	104	0	79	10492
2026-01-21 00:50:56.90	311.56	16.76	-54.4	-63.2	3.8	7.45e-01	0	40	104	0	79	10459
2026-01-21 00:50:57.91	311.23	16.72	-54.4	-63.2	3.8	7.47e-01	0	41	104	0	79	10494
2026-01-21 00:50:58.92	310.90	16.67	-54.4	-63.2	3.8	7.44e-01	0	40	104	0	79	10516
2026-01-21 00:50:59.93	310.56	16.63	-54.4	-63.2	3.8	7.45e-01	0	41	104	0	79	10475
2026-01-21 00:51:00.93	310.24	16.59	-54.4	-63.2	3.8	7.43e-01	0	40	104	0	79	10476
2026-01-21 00:51:01.94	309.91	16.54	-54.4	-63.2	3.8	7.45e-01	0	40	104	0	79	10508
2026-01-21 00:51:02.95	309.58	16.50	-54.4	-63.2	3.8	7.45e-01	0	40	104	0	79	10490
2026-01-21 00:51:03.96	309.26	16.45	-54.4	-63.2	3.8	7.44e-01	0	40	104	0	79	10489
2026-01-21 00:51:04.97	308.93	16.40	-54.4	-63.2	3.8	7.45e-01	0	40	104	0	79	10476
2026-01-21 00:51:05.98	308.61	16.36	-54.4	-63.2	3.8	7.45e-01	0	40	104	0	79	10492
2026-01-21 00:51:06.98	308.29	16.31	-54.4	-63.2	3.8	7.44e-01	0	40	104	0	79	10495
2026-01-21 00:51:07.98	307.97	16.26	-54.4	-63.2	3.8	7.46e-01	0	40	104	0	79	10464
2026-01-21 00:51:08.99	307.65	16.21	-54.4	-63.2	3.8	7.44e-01	0	40	104	0	79	10456
2026-01-21 00:51:10.00	307.33	16.16	-54.4	-63.2	3.8	7.44e-01	0	40	104	0	79	10515
2026-01-21 00:51:11.01	307.01	16.11	-54.4	-63.2	3.8	7.46e-01	0	40	104	0	79	10512
2026-01-21 00:51:12.02	306.70	16.06	-54.4	-63.2	3.8	7.46e-01	0	40	104	0	79	10465
2026-01-21 00:51:13.03	306.38	16.00	-54.4	-63.2	3.8	7.46e-01	0	41	104	0	79	10447
2026-01-21 00:51:14.04	306.07	15.95	-54.4	-63.2	3.8	7.44e-01	0	40	104	0	79	10506
2026-01-21 00:51:15.04	305.76	15.90	-54.3	-63.2	3.8	7.46e-01	0	41	104	0	79	10454
2026-01-21 00:51:16.05	305.45	15.84	-54.3	-63.2	3.8	7.47e-01	0	41	104	0	79	10457
2026-01-21 00:51:17.06	305.14	15.79	-54.3	-63.1	3.8	7.44e-01	0	40	104	0	79	10403
2026-01-21 00:51:18.07	304.83	15.74	-54.4	-63.2	3.8	7.45e-01	0	40	104	0	79	10466
2026-01-21 00:51:19.08	304.52	15.68	-54.3	-63.1	3.8	7.45e-01	0	40	104	0	79	10373
2026-01-21 00:51:20.09	304.21	15.62	-54.3	-63.2	3.8	7.45e-01	0	40	104	0	79	10464
2026-01-21 00:51:21.10	303.91	15.57	-54.3	-63.2	3.8	7.45e-01	0	40	104	0	79	10417
2026-01-21 00:51:22.10	303.61	15.51	-54.4	-63.2	3.8	7.45e-01	0	41	104	0	79	10433
2026-01-21 00:51:23.11	303.31	15.45	-54.3	-63.1	3.8	7.46e-01	0	40	104	0	79	10398
2026-01-21 00:51:24.12	303.01	15.39	-54.3	-63.2	3.8	7.45e-01	0	41	104	0	79	10435
2026-01-21 00:51:25.13	302.71	15.33	-54.3	-63.2	3.8	7.46e-01	0	41	104	0	79	10421
2026-01-21 00:51:26.14	302.41	15.28	-54.4	-63.2	3.8	7.46e-01	0	40	104	0	79	10430
2026-01-21 00:51:27.15	302.12	15.22	-54.3	-63.2	3.8	7.43e-01	0	40	104	0	79	10427
2026-01-21 00:51:28.15	301.82	15.16	-54.3	-63.1	3.8	7.45e-01	0	40	104	0	79	10409
2026-01-21 00:51:29.16	301.53	15.09	-54.3	-63.1	3.8	7.44e-01	0	40	104	0	79	10396
2026-01-21 00:51:30.17	301.24	15.03	-54.4	-63.2	3.8	7.45e-01	0	40	104	0	79	10444
2026-01-21 00:51:31.18	300.95	14.97	-54.3	-63.1	3.8	7.46e-01	0	40	104	0	79	10401
2026-01-21 00:51:32.19	300.66	14.91	-54.3	-63.2	3.8	7.45e-01	0	40	104	0	79	10422
2026-01-21 00:51:33.20	300.37	14.85	-54.3	-63.1	3.8	7.45e-01	0	40	104	0	79	10393
2026-01-21 00:51:34.21	300.09	14.78	-54.4	-63.2	3.8	7.46e-01	0	40	104	0	79	10449
2026-01-21 00:51:35.21	299.80	14.72	-54.3	-63.1	3.8	7.46e-01	0	41	104	0	79	10389
2026-01-21 00:51:36.22	299.52	14.66	-54.4	-63.2	3.8	7.46e-01	0	41	104	0	79	10436
2026-01-21 00:51:37.23	299.24	14.59	-54.3	-63.2	3.8	7.45e-01	0	41	104	0	79	10433
2026-01-21 00:51:38.24	298.96	14.53	-54.4	-63.2	3.8	7.45e-01	0	40	104	0	79	10422
2026-01-21 00:51:39.25	298.68	14.46	-54.3	-63.1	3.8	7.43e-01	0	41	104	0	79	10406
2026-01-21 00:51:40.25	298.41	14.40	-54.4	-63.2	3.8	7.46e-01	0	40	104	0	79	10488
2026-01-21 00:51:41.26	298.13	14.33	-54.3	-63.2	3.8	7.47e-01	0	40	104	0	79	10416
2026-01-21 00:51:42.27	297.85	14.27	-54.4	-63.2	3.8	7.45e-01	0	41	104	0	79	10498
2026-01-21 00:51:43.28	297.58	14.20	-54.3	-63.2	3.8	7.45e-01	0	41	104	0	79	10449
2026-01-21 00:51:44.29	297.31	14.14	-54.4	-63.2	3.8	7.44e-01	0	41	104	0	79	10476
2026-01-21 00:51:45.29	297.04	14.07	-54.4	-63.2	3.8	7.45e-01	0	40	104	0	79	10474
2026-01-21 00:51:46.30	296.77	14.00	-54.4	-63.2	3.8	7.46e-01	0	40	104	0	79	10488
2026-01-21 00:51:47.31	296.51	13.94	-54.3	-63.1	3.8	7.44e-01	0	41	104	0	79	10407
2026-01-21 00:51:48.32	296.24	13.87	-54.4	-63.2	3.8	7.45e-01	0	41	104	0	79	10448
2026-01-21 00:51:49.32	295.98	13.80	-54.4	-63.2	3.8	7.45e-01	0	40	104	0	79	10510
2026-01-21 00:51:50.33	295.72	13.73	-54.4	-63.2	3.8	7.45e-01	0	40	104	0	79	10437
2026-01-21 00:51:51.34	295.46	13.66	-54.3	-63.1	3.8	7.44e-01	0	40	104	0	79	10408
2026-01-21 00:51:52.35	295.20	13.59	-54.4	-63.2	3.8	7.45e-01	0	40	104	0	79	10450
2026-01-21 00:51:53.36	294.94	13.53	-54.4	-63.2	3.8	7.46e-01	0	41	104	0	79	10487
2026-01-21 00:51:54.37	294.68	13.46	-54.4	-63.2	3.8	7.46e-01	0	40	104	0	79	10487
2026-01-21 00:51:55.37	294.43	13.39	-54.4	-63.2	3.8	7.47e-01	0	40	104	0	79	10463
2026-01-21 00:51:56.38	294.17	13.32	-54.4	-63.2	3.8	7.45e-01	0	40	104	0	79	10512
2026-01-21 00:51:57.39	293.92	13.25	-54.4	-63.2	3.8	7.45e-01	0	41	104	0	79	10528
2026-01-21 00:51:58.40	293.67	13.18	-54.4	-63.2	3.8	7.46e-01	0	40	104	0	79	10484
2026-01-21 00:51:59.41	293.42	13.11	-54.4	-63.2	3.8	7.45e-01	0	41	104	0	79	10470
2026-01-21 00:52:00.42	293.17	13.04	-54.4	-63.2	3.8	7.46e-01	0	41	104	0	79	10504
2026-01-21 00:52:01.42	292.93	12.97	-54.4	-63.3	3.8	7.44e-01	0	41	104	0	79	10567
2026-01-21 00:52:02.43	292.68	12.90	-54.4	-63.2	3.8	7.45e-01	0	40	104	0	79	10481
2026-01-21 00:52:03.44	292.44	12.83	-54.4	-63.2	3.8	7.46e-01	0	40	104	0	79	10453
2026-01-21 00:52:04.45	292.20	12.75	-54.4	-63.3	3.8	7.47e-01	0	40	104	0	79	10569
2026-01-21 00:52:05.46	291.95	12.68	-54.4	-63.3	3.8	7.46e-01	0	40	104	0	79	10544
2026-01-21 00:52:06.46	291.72	12.61	-54.4	-63.2	3.8	7.46e-01	0	40	104	0	79	10465
2026-01-21 00:52:07.47	291.48	12.54	-54.4	-63.2	3.8	7.45e-01	0	41	104	0	79	10474
2026-01-21 00:52:08.48	291.24	12.47	-54.5	-63.3	3.8	7.44e-01	0	41	104	0	79	10587
2026-01-21 00:52:09.49	291.01	12.40	-54.4	-63.3	3.8	7.45e-01	0	41	104	0	79	10566
2026-01-21 00:52:10.50	290.77	12.32	-54.4	-63.2	3.8	7.43e-01	0	40	104	0	79	10493
2026-01-21 00:52:11.50	290.54	12.25	-54.4	-63.2	3.8	7.45e-01	0	40	104	0	79	10497
2026-01-21 00:52:12.51	290.31	12.18	-54.5	-63.3	3.8	7.45e-01	0	40	104	0	79	10567
2026-01-21 00:52:13.52	290.08	12.11	-54.4	-63.3	3.8	7.45e-01	0	41	104	0	79	10535
2026-01-21 00:52:14.53	289.85	12.04	-54.4	-63.2	3.8	7.44e-01	0	41	104	0	79	10480
2026-01-21 00:52:15.54	289.62	11.96	-54.4	-63.2	3.8	7.48e-01	0	41	104	0	79	10450
2026-01-21 00:52:16.55	289.40	11.89	-54.4	-63.3	3.8	7.46e-01	0	41	104	0	79	10537
2026-01-21 00:52:17.55	289.18	11.82	-54.4	-63.2	3.8	7.45e-01	0	41	104	0	79	10489
2026-01-21 00:52:18.56	288.95	11.75	-54.3	-63.2	3.8	7.46e-01	0	40	104	0	79	10433
2026-01-21 00:52:19.57	288.73	11.67	-54.3	-63.1	3.8	7.46e-01	0	41	104	0	79	10409
2026-01-21 00:52:20.58	288.51	11.60	-54.4	-63.2	3.8	7.44e-01	0	40	104	0	79	10529
2026-01-21 00:52:21.59	288.29	11.53	-54.4	-63.2	3.8	7.44e-01	0	41	104	0	79	10427
2026-01-21 00:52:22.59	288.08	11.45	-54.3	-63.1	3.8	7.44e-01	0	41	104	0	79	10369
2026-01-21 00:52:23.60	287.86	11.38	-54.3	-63.1	3.8	7.45e-01	0	41	104	0	79	10347
2026-01-21 00:52:24.61	287.65	11.31	-54.4	-63.2	3.8	7.46e-01	0	40	104	0	79	10460
2026-01-21 00:52:25.62	287.43	11.24	-54.3	-63.2	3.8	7.46e-01	0	40	104	0	79	10417
2026-01-21 00:52:26.63	287.22	11.16	-54.2	-63.1	3.8	7.45e-01	0	41	104	0	79	10317
2026-01-21 00:52:27.64	287.01	11.09	-54.2	-63.1	3.8	7.44e-01	0	41	104	0	79	10324
2026-01-21 00:52:28.65	286.80	11.02	-54.3	-63.1	3.8	7.45e-01	0	41	104	0	79	10353
2026-01-21 00:52:29.66	286.59	10.94	-54.3	-63.1	3.8	7.46e-01	0	41	104	0	79	10351
2026-01-21 00:52:30.67	286.38	10.87	-54.2	-63.0	3.8	7.46e-01	0	41	104	0	79	10267
2026-01-21 00:52:31.67	286.18	10.80	-54.2	-63.0	3.8	7.45e-01	0	41	104	0	79	10262
2026-01-21 00:52:32.68	285.97	10.72	-54.3	-63.1	3.8	7.45e-01	0	41	104	0	79	10348
2026-01-21 00:52:33.69	285.77	10.65	-54.2	-63.0	3.8	7.47e-01	0	41	104	0	79	10285
2026-01-21 00:52:34.70	285.57	10.58	-54.2	-63.0	3.8	7.45e-01	0	41	104	0	79	10212
2026-01-21 00:52:35.71	285.37	10.50	-54.2	-63.0	3.8	7.46e-01	0	41	104	0	79	10237
2026-01-21 00:52:36.71	285.17	10.43	-54.2	-63.0	3.8	7.47e-01	0	41	104	0	79	10244
2026-01-21 00:52:37.72	284.97	10.36	-54.2	-63.0	3.8	7.47e-01	0	41	104	0	79	10244
2026-01-21 00:52:38.73	284.77	10.28	-54.1	-62.9	3.8	7.45e-01	0	41	104	0	79	10165
2026-01-21 00:52:39.74	284.58	10.21	-54.1	-63.0	3.8	7.44e-01	0	41	104	0	79	10180
2026-01-21 00:52:40.74	284.39	10.14	-54.2	-63.0	3.8	7.45e-01	0	41	104	0	79	10219
2026-01-21 00:52:41.75	284.19	10.06	-54.2	-63.0	3.8	7.44e-01	0	40	104	0	79	10222
2026-01-21 00:52:42.76	284.00	9.99	-54.1	-62.9	3.8	7.45e-01	0	40	104	0	79	10111
2026-01-21 00:52:43.77	283.81	9.92	-54.1	-62.9	3.8	7.46e-01	0	41	104	0	79	10130
2026-01-21 00:52:44.78	283.62	9.85	-54.1	-63.0	3.8	7.46e-01	0	40	104	0	79	10198
2026-01-21 00:52:45.78	283.43	9.77	-54.1	-62.9	3.8	7.46e-01	0	40	104	0	79	10153
2026-01-21 00:52:46.79	283.24	9.70	-54.0	-62.9	3.8	7.47e-01	0	41	104	0	79	10090
2026-01-21 00:52:47.80	283.06	9.63	-54.1	-62.9	3.8	7.44e-01	0	40	104	0	79	10119
2026-01-21 00:52:48.81	282.87	9.55	-54.1	-62.9	3.8	7.46e-01	0	41	104	0	79	10132
2026-01-21 00:52:49.82	282.69	9.48	-54.1	-62.9	3.8	7.45e-01	0	41	104	0	79	10097
2026-01-21 00:52:50.82	282.51	9.41	-54.0	-62.9	3.8	7.45e-01	0	40	104	0	79	10061
2026-01-21 00:52:51.83	282.33	9.34	-54.0	-62.9	3.8	7.45e-01	0	40	104	0	79	10093
2026-01-21 00:52:52.84	282.14	9.26	-54.1	-62.9	3.8	7.47e-01	0	40	104	0	79	10107
2026-01-21 00:52:53.85	281.96	9.19	-54.1	-62.9	3.8	7.44e-01	0	41	104	0	79	10088
2026-01-21 00:52:54.85	281.79	9.12	-54.0	-62.8	3.8	7.45e-01	0	40	104	0	79	10016
2026-01-21 00:52:55.86	281.61	9.04	-54.0	-62.9	3.8	7.47e-01	0	40	104	0	79	10073
2026-01-21 00:52:56.87	281.43	8.97	-54.0	-62.9	3.8	7.45e-01	0	41	104	0	79	10092
2026-01-21 00:52:57.88	281.26	8.90	-54.0	-62.9	3.8	7.44e-01	0	40	104	0	79	10073
2026-01-21 00:52:58.89	281.09	8.83	-53.9	-62.7	3.8	7.46e-01	0	41	104	0	79	9943
2026-01-21 00:52:59.89	280.91	8.76	-54.0	-62.8	3.8	7.46e-01	0	41	104	0	79	10029
2026-01-21 00:53:00.90	280.74	8.68	-54.0	-62.8	3.8	7.46e-01	0	40	104	0	79	10045
2026-01-21 00:53:01.91	280.57	8.61	-54.0	-62.8	3.8	7.46e-01	0	40	104	0	79	9988
2026-01-21 00:53:02.92	280.40	8.54	-53.9	-62.7	3.8	7.46e-01	0	40	104	0	79	9905
2026-01-21 00:53:03.92	280.24	8.47	-53.9	-62.7	3.8	7.46e-01	0	41	104	0	79	9935
2026-01-21 00:53:04.93	280.07	8.40	-54.0	-62.8	3.8	7.46e-01	0	40	104	0	79	10004
2026-01-21 00:53:05.94	279.90	8.32	-53.9	-62.8	3.8	7.44e-01	0	40	104	0	79	9984
2026-01-21 00:53:06.95	279.74	8.25	-53.8	-62.7	3.8	7.46e-01	0	40	104	0	79	9874
2026-01-21 00:53:07.96	279.57	8.18	-53.9	-62.7	3.8	7.45e-01	0	41	104	0	79	9899
2026-01-21 00:53:08.97	279.41	8.11	-53.9	-62.7	3.8	7.46e-01	0	41	104	0	79	9933
2026-01-21 00:53:09.97	279.25	8.04	-53.9	-62.7	3.8	7.46e-01	0	41	104	0	79	9926
2026-01-21 00:53:10.98	279.09	7.97	-53.8	-62.6	3.8	7.44e-01	0	41	104	0	79	9813
2026-01-21 00:53:11.99	278.92	7.89	-53.8	-62.6	3.8	7.45e-01	0	41	104	0	79	9825
2026-01-21 00:53:13.00	278.77	7.82	-53.8	-62.7	3.8	7.45e-01	0	40	104	0	79	9846
2026-01-21 00:53:14.01	278.61	7.75	-53.8	-62.7	3.8	7.45e-01	0	40	104	0	79	9864
2026-01-21 00:53:15.02	278.45	7.68	-53.7	-62.6	3.8	7.44e-01	0	41	104	0	79	9729
2026-01-21 00:53:16.03	278.29	7.61	-53.7	-62.6	3.8	7.46e-01	0	41	104	0	79	9729
2026-01-21 00:53:17.03	278.14	7.54	-53.8	-62.6	3.8	7.44e-01	0	41	104	0	79	9820
2026-01-21 00:53:18.04	277.98	7.47	-53.8	-62.6	3.8	7.47e-01	0	40	104	0	79	9809
2026-01-21 00:53:19.05	277.83	7.40	-53.7	-62.5	3.8	7.44e-01	0	40	104	0	79	9683
2026-01-21 00:53:20.06	277.68	7.33	-53.7	-62.6	3.8	7.44e-01	0	41	104	0	79	9732
2026-01-21 00:53:21.07	277.53	7.26	-53.7	-62.6	3.8	7.45e-01	0	41	104	0	79	9736
2026-01-21 00:53:22.07	277.38	7.19	-53.8	-62.6	3.8	7.46e-01	0	40	104	0	79	9801
2026-01-21 00:53:23.08	277.23	7.12	-53.6	-62.5	3.8	7.45e-01	0	40	104	0	79	9630
2026-01-21 00:53:24.09	277.08	7.05	-53.7	-62.5	3.8	7.46e-01	0	40	104	0	79	9697
2026-01-21 00:53:25.10	276.93	6.98	-53.7	-62.5	3.8	7.44e-01	0	41	104	0	79	9692
2026-01-21 00:53:26.11	276.78	6.91	-53.7	-62.6	3.8	7.45e-01	0	40	104	0	79	9745
2026-01-21 00:53:27.12	276.64	6.84	-53.6	-62.4	3.8	7.46e-01	0	41	104	0	79	9588
2026-01-21 00:53:28.13	276.49	6.77	-53.6	-62.5	3.8	7.46e-01	0	40	104	0	79	9614
2026-01-21 00:53:29.13	276.35	6.70	-53.7	-62.5	3.8	7.45e-01	0	40	104	0	79	9670
2026-01-21 00:53:30.14	276.20	6.63	-53.7	-62.5	3.8	7.44e-01	0	41	104	0	79	9689
2026-01-21 00:53:31.15	276.06	6.56	-53.6	-62.4	3.8	7.47e-01	0	41	104	0	79	9526
2026-01-21 00:53:32.16	275.92	6.49	-53.6	-62.4	3.8	7.45e-01	0	40	104	0	79	9562
2026-01-21 00:53:33.17	275.78	6.42	-53.6	-62.5	3.8	7.45e-01	0	41	104	0	79	9614
2026-01-21 00:53:34.17	275.64	6.35	-53.6	-62.5	3.8	7.46e-01	0	41	104	0	79	9617
2026-01-21 00:53:35.18	275.50	6.28	-53.5	-62.4	3.8	7.45e-01	0	40	104	0	79	9513
2026-01-21 00:53:36.19	275.36	6.21	-53.6	-62.4	3.8	7.45e-01	0	40	104	0	79	9534
2026-01-21 00:53:37.20	275.23	6.14	-53.6	-62.4	3.8	7.43e-01	0	41	104	0	79	9579
2026-01-21 00:53:38.21	275.09	6.08	-53.6	-62.4	3.8	7.45e-01	0	40	104	0	79	9556
2026-01-21 00:53:39.22	274.95	6.01	-53.5	-62.3	3.8	7.45e-01	0	41	104	0	79	9450
2026-01-21 00:53:40.23	274.82	5.94	-53.5	-62.4	3.8	7.46e-01	0	40	104	0	79	9526
2026-01-21 00:53:41.23	274.68	5.87	-53.6	-62.4	3.8	7.45e-01	0	41	104	0	79	9555
2026-01-21 00:53:42.24	274.55	5.80	-53.6	-62.4	3.8	7.46e-01	0	40	104	0	79	9538
2026-01-21 00:53:43.25	274.42	5.74	-53.4	-62.3	3.8	7.46e-01	0	40	104	0	78	9965
2026-01-21 00:53:44.26	274.29	5.67	-53.5	-62.3	3.8	7.44e-01	0	41	104	0	78	10016
2026-01-21 00:53:45.27	274.16	5.60	-53.5	-62.4	3.8	7.46e-01	0	40	104	0	78	10063
2026-01-21 00:53:46.27	274.03	5.53	-53.5	-62.3	3.8	7.44e-01	0	40	104	0	78	10048
2026-01-21 00:53:47.28	273.90	5.46	-53.4	-62.2	3.8	7.44e-01	0	41	104	0	78	9910
2026-01-21 00:53:48.29	273.77	5.40	-53.5	-62.3	3.8	7.44e-01	0	40	104	0	78	9974
2026-01-21 00:53:49.30	273.64	5.33	-53.5	-62.3	3.8	7.46e-01	0	41	104	0	78	10008
2026-01-21 00:53:50.31	273.51	5.26	-53.5	-62.3	3.8	7.45e-01	0	40	104	0	78	9949
2026-01-21 00:53:51.31	273.39	5.20	-53.4	-62.2	3.8	7.45e-01	0	40	104	0	78	9842
2026-01-21 00:53:52.32	273.26	5.13	-53.4	-62.2	3.8	7.45e-01	0	41	104	0	78	9926
2026-01-21 00:53:53.33	273.14	5.06	-53.4	-62.3	3.8	7.47e-01	0	41	104	0	78	9965
2026-01-21 00:53:54.34	273.01	5.00	-53.5	-62.3	3.8	7.46e-01	0	41	104	0	78	10016
2026-01-21 00:53:55.35	272.89	4.93	-53.5	-62.3	3.8	7.46e-01	0	41	104	0	78	10027
2026-01-21 00:53:56.36	272.77	4.86	-53.5	-62.3	3.8	7.46e-01	0	40	104	0	78	9986
2026-01-21 00:53:57.37	272.65	4.80	-53.4	-62.3	3.8	7.45e-01	0	40	104	0	78	9968
2026-01-21 00:53:58.37	272.53	4.73	-53.6	-62.4	3.8	7.45e-01	0	40	104	0	78	10079
2026-01-21 00:53:59.38	272.41	4.66	-53.7	-62.5	3.8	7.45e-01	0	41	104	0	78	10257
2026-01-21 00:54:00.37	272.29	4.60	-53.8	-62.6	3.8	7.45e-01	0	40	104	0	78	10376
2026-01-21 00:54:01.38	272.17	4.53	-53.8	-62.6	3.8	7.46e-01	0	41	104	0	78	10408
2026-01-21 00:54:02.39	272.05	4.47	-53.9	-62.7	3.8	7.45e-01	0	40	104	0	78	10470
2026-01-21 00:54:03.40	271.93	4.40	-53.9	-62.8	3.8	7.45e-01	0	40	104	0	78	10541
2026-01-21 00:54:04.40	271.82	4.34	-54.0	-62.8	3.8	7.47e-01	0	40	104	0	78	10636
2026-01-21 00:54:05.41	271.70	4.27	-54.1	-62.9	3.8	7.46e-01	0	41	104	0	78	10701
2026-01-21 00:54:06.42	271.58	4.21	-54.1	-62.9	3.8	7.45e-01	0	40	104	0	78	10722
2026-01-21 00:54:07.43	271.47	4.14	-54.1	-63.0	3.8	7.46e-01	0	40	104	0	78	10799
2026-01-21 00:54:08.44	271.35	4.08	-54.1	-63.0	3.8	7.45e-01	0	41	104	0	78	10818
2026-01-21 00:54:09.45	271.24	4.01	-54.2	-63.0	3.8	7.46e-01	0	40	104	0	78	10834
2026-01-21 00:54:10.46	271.13	3.95	-54.2	-63.0	3.8	7.47e-01	0	40	104	0	78	10891
2026-01-21 00:54:11.46	271.02	3.88	-54.3	-63.1	3.8	7.45e-01	0	40	104	0	79	10302
2026-01-21 00:54:12.47	270.91	3.82	-54.3	-63.1	3.8	7.44e-01	0	41	104	0	79	10335
2026-01-21 00:54:13.48	270.79	3.75	-54.3	-63.1	3.8	7.45e-01	0	40	104	0	79	10375
2026-01-21 00:54:14.49	270.68	3.69	-54.2	-63.1	3.8	7.43e-01	0	41	104	0	79	10355
2026-01-21 00:54:15.50	270.57	3.62	-54.2	-63.1	3.8	7.45e-01	0	40	104	0	79	10317
2026-01-21 00:54:16.51	270.46	3.56	-54.2	-63.1	3.8	7.46e-01	0	40	104	0	79	10303
2026-01-21 00:54:17.51	270.36	3.50	-54.2	-63.1	3.8	7.46e-01	0	41	104	0	79	10306
2026-01-21 00:54:18.52	270.25	3.43	-54.2	-63.0	3.8	7.45e-01	0	40	104	0	79	10291
2026-01-21 00:54:19.53	270.14	3.37	-54.2	-63.1	3.8	7.47e-01	0	40	104	0	79	10298
2026-01-21 00:54:20.54	270.04	3.31	-54.2	-63.1	3.8	7.46e-01	0	40	104	0	79	10305
2026-01-21 00:54:21.55	269.93	3.24	-54.2	-63.0	3.8	7.44e-01	0	40	104	0	79	10284
2026-01-21 00:54:22.56	269.82	3.18	-54.2	-63.0	3.8	7.46e-01	0	40	104	0	79	10268
2026-01-21 00:54:23.57	269.72	3.12	-54.2	-63.0	3.8	7.44e-01	0	40	104	0	79	10242
2026-01-21 00:54:24.57	269.62	3.05	-54.2	-63.0	3.8	7.46e-01	0	40	104	0	79	10265
2026-01-21 00:54:25.58	269.51	2.99	-54.2	-63.0	3.8	7.46e-01	0	40	104	0	79	10267
2026-01-21 00:54:26.59	269.41	2.93	-54.2	-63.0	3.8	7.47e-01	0	40	104	0	79	10246
2026-01-21 00:54:27.60	269.31	2.86	-54.2	-63.0	3.8	7.45e-01	0	40	104	0	79	10284
2026-01-21 00:54:28.61	269.20	2.80	-54.2	-63.0	3.8	7.44e-01	0	40	104	0	79	10243
2026-01-21 00:54:29.61	269.10	2.74	-54.2	-63.0	3.8	7.47e-01	0	41	104	0	79	10231
2026-01-21 00:54:30.62	269.00	2.68	-54.2	-63.0	3.8	7.45e-01	0	40	104	0	79	10256
2026-01-21 00:54:31.63	268.90	2.61	-54.2	-63.0	3.8	7.44e-01	0	40	104	0	79	10265
2026-01-21 00:54:32.64	268.80	2.55	-54.2	-63.0	3.8	7.45e-01	0	41	104	0	79	10250
2026-01-21 00:54:33.64	268.70	2.49	-54.2	-63.0	3.8	7.44e-01	0	40	104	0	79	10249
2026-01-21 00:54:34.65	268.61	2.43	-54.2	-63.0	3.8	7.45e-01	0	40	104	0	79	10252
2026-01-21 00:54:35.66	268.51	2.37	-54.2	-63.0	3.8	7.45e-01	0	40	104	0	79	10232
2026-01-21 00:54:36.67	268.41	2.30	-54.2	-63.0	3.8	7.46e-01	0	40	104	0	79	10251
2026-01-21 00:54:37.68	268.31	2.24	-54.2	-63.0	3.8	7.44e-01	0	40	104	0	79	10234
2026-01-21 00:54:38.69	268.22	2.18	-54.2	-63.0	3.8	7.46e-01	0	40	104	0	79	10203
2026-01-21 00:54:39.70	268.12	2.12	-54.2	-63.0	3.8	7.45e-01	0	40	104	0	79	10218
2026-01-21 00:54:40.71	268.03	2.06	-54.2	-63.0	3.8	7.46e-01	0	41	104	0	79	10269
2026-01-21 00:54:41.71	267.93	2.00	-54.2	-63.0	3.8	7.46e-01	0	41	104	0	79	10217
2026-01-21 00:54:42.72	267.84	1.94	-54.2	-63.0	3.8	7.45e-01	0	40	104	0	79	10204
2026-01-21 00:54:43.73	267.74	1.88	-54.2	-63.0	3.8	7.45e-01	0	40	104	0	79	10183

#Closed at: 2026-01-21 00:54:44
#Recorded file [0 MB]: D:/lorett/data/31041_260121_034542.dat