passes_logs/2026/01/21/R3.2S_Murmansk/R3.2S_Murmansk__20260121_084510_JL1KF02B02_rec.log

#Pass ID: 20260121_084510_JL1KF02B02
#Satellite: JL1KF02B02
#Configuration: 01B_900M
#almurnet v.1.7.20251203
#Start time: 2026-01-21 08:45:12

#Version: 2.2.20231116
#Station: R3.2S_Murmansk
#Location: 33.079688 lon 68.888172 lat
#TLE: 1 61193U 24169E   26020.02206547  .00006304  00000+0  39418-3 0  9998
#TLE: 2 61193  97.5740 111.8291 0013774 118.2213 242.0409 15.09703468 73483

#Time	Az	El	Level	Level2	SNR	BER	BlckErr	Temp	State	Recorded	gain1	gain2
2026-01-21 08:45:12.04	22.68	2.11	-54.5	-56.6	6.2	0.00e+00	0	41	0	0	80	18466
2026-01-21 08:45:13.05	22.77	2.17	-54.7	-56.9	6.2	0.00e+00	0	41	104	0	81	17988
2026-01-21 08:45:14.06	22.85	2.23	-54.7	-56.8	6.2	0.00e+00	0	41	104	0	81	17934
2026-01-21 08:45:15.07	22.94	2.29	-54.7	-56.8	6.2	0.00e+00	0	41	104	0	81	17878
2026-01-21 08:45:16.08	23.03	2.36	-54.6	-56.8	6.2	0.00e+00	0	41	104	0	81	17849
2026-01-21 08:45:17.09	23.12	2.42	-54.6	-56.7	6.2	0.00e+00	0	41	104	0	81	17754
2026-01-21 08:45:18.10	23.21	2.48	-54.6	-56.7	6.2	0.00e+00	0	41	104	0	81	17716
2026-01-21 08:45:19.10	23.30	2.54	-54.6	-56.7	6.2	0.00e+00	0	41	104	0	81	17581
2026-01-21 08:45:20.11	23.39	2.60	-54.5	-56.6	6.2	0.00e+00	0	41	104	0	81	17532
2026-01-21 08:45:21.12	23.48	2.67	-54.5	-56.6	6.2	0.00e+00	0	41	104	0	81	17498
2026-01-21 08:45:22.13	23.57	2.73	-54.5	-56.6	6.2	0.00e+00	0	41	104	0	80	18431
2026-01-21 08:45:23.14	23.66	2.79	-54.4	-56.5	6.2	0.00e+00	0	41	104	0	80	18352
2026-01-21 08:45:24.14	23.75	2.85	-54.3	-56.5	6.2	0.00e+00	0	41	104	0	80	18190
2026-01-21 08:45:25.15	23.85	2.92	-54.2	-56.4	6.2	0.00e+00	0	41	104	0	80	18008
2026-01-21 08:45:26.16	23.94	2.98	-54.1	-56.3	6.2	0.00e+00	0	41	104	0	80	17856
2026-01-21 08:45:27.17	24.03	3.04	-54.0	-56.2	6.2	0.00e+00	0	41	104	0	80	17579
2026-01-21 08:45:28.17	24.13	3.10	-54.0	-56.1	6.2	0.00e+00	0	41	104	0	79	18502
2026-01-21 08:45:29.18	24.22	3.17	-53.8	-56.0	6.2	0.00e+00	0	41	104	0	79	18183
2026-01-21 08:45:30.19	24.32	3.23	-53.6	-55.8	6.2	0.00e+00	0	41	104	0	79	17808
2026-01-21 08:45:31.20	24.41	3.30	-53.3	-55.5	6.2	0.00e+00	0	41	104	0	78	18222
2026-01-21 08:45:32.21	24.51	3.36	-52.8	-54.9	6.2	0.00e+00	0	41	104	0	77	18174
2026-01-21 08:45:33.21	24.60	3.42	-52.7	-54.8	6.2	0.00e+00	0	41	104	0	77	17948
2026-01-21 08:45:34.22	24.70	3.49	-52.7	-54.8	6.2	0.00e+00	0	41	104	0	77	17925
2026-01-21 08:45:35.23	24.80	3.55	-52.7	-54.8	6.2	0.00e+00	0	41	104	0	77	17896
2026-01-21 08:45:36.24	24.90	3.62	-52.7	-54.8	6.2	0.00e+00	0	41	104	0	77	17930
2026-01-21 08:45:37.25	25.00	3.68	-52.7	-54.8	6.2	0.00e+00	0	41	104	0	77	17910
2026-01-21 08:45:38.25	25.09	3.74	-52.7	-54.8	6.2	0.00e+00	0	41	104	0	77	17925
2026-01-21 08:45:39.26	25.19	3.81	-52.7	-54.8	6.2	0.00e+00	0	41	104	0	77	17885
2026-01-21 08:45:40.27	25.29	3.87	-52.7	-54.8	6.2	0.00e+00	0	41	104	0	77	17915
2026-01-21 08:45:41.28	25.39	3.94	-52.7	-54.8	6.2	0.00e+00	0	41	104	0	77	17872
2026-01-21 08:45:42.28	25.49	4.00	-52.7	-54.8	6.2	0.00e+00	0	41	104	0	77	17905
2026-01-21 08:45:43.29	25.60	4.07	-52.7	-54.8	6.2	0.00e+00	0	41	104	0	77	17828
2026-01-21 08:45:44.30	25.70	4.13	-52.7	-54.8	6.2	0.00e+00	0	41	104	0	77	17912
2026-01-21 08:45:45.31	25.80	4.20	-52.7	-54.8	6.2	0.00e+00	0	41	104	0	77	17884
2026-01-21 08:45:46.32	25.90	4.27	-52.7	-54.8	6.2	0.00e+00	0	41	104	0	77	17947
2026-01-21 08:45:47.33	26.01	4.33	-52.7	-54.8	6.2	0.00e+00	0	42	104	0	77	17931
2026-01-21 08:45:48.33	26.11	4.40	-52.7	-54.8	6.2	0.00e+00	0	41	104	0	77	17805
2026-01-21 08:45:49.34	26.22	4.46	-52.7	-54.8	6.2	0.00e+00	0	41	104	0	77	17873
2026-01-21 08:45:50.35	26.32	4.53	-52.7	-54.8	6.2	0.00e+00	0	42	104	0	77	17884
2026-01-21 08:45:51.35	26.43	4.59	-52.6	-54.8	6.2	0.00e+00	0	42	104	0	77	17882
2026-01-21 08:45:52.36	26.53	4.66	-52.6	-54.8	6.2	0.00e+00	0	42	104	0	77	17851
2026-01-21 08:45:53.37	26.64	4.73	-52.6	-54.8	6.2	0.00e+00	0	41	104	0	77	17847
2026-01-21 08:45:54.38	26.75	4.80	-52.6	-54.8	6.2	0.00e+00	0	42	104	0	77	17803
2026-01-21 08:45:55.39	26.86	4.86	-52.6	-54.8	6.2	0.00e+00	0	42	104	0	77	17818
2026-01-21 08:45:56.39	26.97	4.93	-52.7	-54.8	6.2	0.00e+00	0	41	104	0	77	17869
2026-01-21 08:45:57.40	27.07	5.00	-52.7	-54.8	6.2	0.00e+00	0	41	104	0	77	17824
2026-01-21 08:45:58.41	27.19	5.06	-52.7	-54.9	6.2	0.00e+00	0	41	104	0	77	17972
2026-01-21 08:45:59.42	27.30	5.13	-52.7	-54.9	6.2	0.00e+00	0	42	104	0	77	18113
2026-01-21 08:46:00.43	27.41	5.20	-52.7	-54.8	6.2	0.00e+00	0	42	104	0	77	17917
2026-01-21 08:46:01.43	27.52	5.27	-52.6	-54.8	6.2	0.00e+00	0	42	104	0	77	17828
2026-01-21 08:46:02.44	27.63	5.33	-52.7	-54.8	6.2	0.00e+00	0	42	104	0	77	17853
2026-01-21 08:46:03.45	27.74	5.40	-52.8	-54.9	6.2	0.00e+00	0	42	104	0	77	18149
2026-01-21 08:46:04.46	27.86	5.47	-52.8	-54.9	6.2	0.00e+00	0	42	104	0	77	17996
2026-01-21 08:46:05.46	27.97	5.54	-52.7	-54.8	6.2	0.00e+00	0	42	104	0	77	17901
2026-01-21 08:46:06.47	28.09	5.61	-52.7	-54.8	6.2	0.00e+00	0	42	104	0	77	17952
2026-01-21 08:46:07.48	28.20	5.68	-52.8	-54.9	6.2	0.00e+00	0	42	104	0	77	18177
2026-01-21 08:46:08.49	28.32	5.75	-52.8	-54.9	6.2	0.00e+00	0	42	104	0	77	18111
2026-01-21 08:46:09.49	28.44	5.81	-52.7	-54.9	6.2	0.00e+00	0	42	104	0	77	18034
2026-01-21 08:46:10.50	28.55	5.88	-52.8	-54.9	6.2	0.00e+00	0	42	104	0	77	18062
2026-01-21 08:46:11.51	28.67	5.95	-52.8	-55.0	6.2	0.00e+00	0	42	104	0	77	18266
2026-01-21 08:46:12.52	28.79	6.02	-52.8	-54.9	6.2	0.00e+00	0	42	104	0	77	18123
2026-01-21 08:46:13.53	28.91	6.09	-52.7	-54.9	6.2	0.00e+00	0	42	104	0	77	17988
2026-01-21 08:46:14.53	29.03	6.16	-52.8	-54.9	6.2	0.00e+00	0	42	104	0	77	18084
2026-01-21 08:46:15.54	29.15	6.23	-52.8	-55.0	6.2	0.00e+00	0	42	104	0	77	18315
2026-01-21 08:46:16.55	29.27	6.30	-52.8	-55.0	6.2	0.00e+00	0	42	104	0	77	18230
2026-01-21 08:46:17.56	29.39	6.37	-52.8	-54.9	6.2	0.00e+00	0	42	104	0	77	18123
2026-01-21 08:46:18.56	29.52	6.44	-52.8	-55.0	6.2	0.00e+00	0	42	104	0	77	18259
2026-01-21 08:46:19.57	29.64	6.51	-52.9	-55.0	6.2	0.00e+00	0	42	104	0	77	18376
2026-01-21 08:46:20.58	29.77	6.58	-52.9	-55.0	6.2	0.00e+00	0	42	104	0	77	18336
2026-01-21 08:46:21.59	29.89	6.66	-52.8	-55.0	6.2	0.00e+00	0	42	104	0	77	18191
2026-01-21 08:46:22.59	30.02	6.73	-52.9	-55.0	6.2	0.00e+00	0	42	104	0	77	18377
2026-01-21 08:46:23.60	30.14	6.80	-52.9	-55.1	6.2	0.00e+00	0	42	104	0	77	18438
2026-01-21 08:46:24.61	30.27	6.87	-52.9	-55.1	6.2	0.00e+00	0	42	104	0	77	18414
2026-01-21 08:46:25.62	30.40	6.94	-52.9	-55.0	6.2	0.00e+00	0	42	104	0	77	18203
2026-01-21 08:46:26.63	30.53	7.01	-52.9	-55.1	6.2	0.00e+00	0	42	104	0	77	18393
2026-01-21 08:46:27.63	30.66	7.08	-53.0	-55.1	6.2	0.00e+00	0	42	104	0	77	18488
2026-01-21 08:46:28.64	30.79	7.16	-52.9	-55.1	6.2	0.00e+00	0	42	104	0	77	18505
2026-01-21 08:46:29.65	30.92	7.23	-52.9	-55.0	6.2	0.00e+00	0	42	104	0	77	18322
2026-01-21 08:46:30.66	31.05	7.30	-53.0	-55.2	6.2	0.00e+00	0	42	104	0	77	18603
2026-01-21 08:46:31.67	31.18	7.37	-53.0	-55.1	6.2	0.00e+00	0	42	104	0	77	18565
2026-01-21 08:46:32.67	31.32	7.44	-53.0	-55.1	6.2	0.00e+00	0	42	104	0	77	18540
2026-01-21 08:46:33.68	31.45	7.52	-52.9	-55.1	6.2	0.00e+00	0	42	104	0	77	18438
2026-01-21 08:46:34.69	31.58	7.59	-53.0	-55.2	6.2	0.00e+00	0	42	104	0	77	18658
2026-01-21 08:46:35.70	31.72	7.66	-53.0	-55.2	6.2	0.00e+00	0	42	104	0	77	18666
2026-01-21 08:46:36.71	31.86	7.74	-53.0	-55.1	6.2	0.00e+00	0	42	104	0	77	18545
2026-01-21 08:46:37.71	31.99	7.81	-53.0	-55.1	6.2	0.00e+00	0	42	104	0	77	18487
2026-01-21 08:46:38.72	32.13	7.88	-53.0	-55.2	6.2	0.00e+00	0	42	104	0	77	18619
2026-01-21 08:46:39.73	32.27	7.96	-53.0	-55.2	6.2	0.00e+00	0	42	104	0	77	18689
2026-01-21 08:46:40.73	32.41	8.03	-53.0	-55.2	6.2	0.00e+00	0	42	104	0	77	18642
2026-01-21 08:46:41.74	32.55	8.11	-52.9	-55.1	6.2	0.00e+00	0	42	104	0	77	18517
2026-01-21 08:46:42.75	32.69	8.18	-53.1	-55.2	6.2	0.00e+00	0	42	104	0	77	18816
2026-01-21 08:46:43.76	32.84	8.25	-52.9	-55.2	6.2	0.00e+00	0	42	104	0	77	18704
2026-01-21 08:46:44.76	32.98	8.33	-53.0	-55.1	6.2	0.00e+00	0	42	104	0	77	18596
2026-01-21 08:46:45.77	33.12	8.40	-52.9	-55.1	6.2	0.00e+00	0	42	104	0	77	18558
2026-01-21 08:46:46.78	33.27	8.48	-53.1	-55.3	6.2	0.00e+00	0	42	104	0	77	18820
2026-01-21 08:46:47.79	33.41	8.55	-52.5	-54.5	6.2	0.00e+00	0	42	104	0	77	17270
2026-01-21 08:46:48.80	33.56	8.63	-53.0	-55.1	6.2	0.00e+00	0	42	104	0	76	19613
2026-01-21 08:46:49.80	33.71	8.70	-51.1	-52.5	6.3	0.00e+00	0	42	104	0	74	16359
2026-01-21 08:46:50.81	33.86	8.78	-47.2	-47.9	6.3	0.00e+00	0	42	104	0	64	17056
2026-01-21 08:46:51.82	34.01	8.85	-39.9	-40.2	6.2	0.00e+00	0	42	104	0	51	14906
2026-01-21 08:46:52.83	34.16	8.93	-39.2	-39.6	6.2	0.00e+00	0	42	104	0	50	14623
2026-01-21 08:46:53.83	34.31	9.00	-40.9	-41.3	6.2	0.00e+00	0	42	104	0	52	15854
2026-01-21 08:46:54.84	34.46	9.08	-51.5	-53.2	6.3	0.00e+00	0	42	104	0	73	18782
2026-01-21 08:46:55.85	34.61	9.16	-51.5	-53.2	6.2	0.00e+00	0	42	104	0	73	18697
2026-01-21 08:46:56.86	34.77	9.23	-44.9	-45.4	6.3	0.00e+00	0	42	104	0	61	15216
2026-01-21 08:46:57.86	34.92	9.31	-52.7	-54.8	6.2	0.00e+00	0	42	104	0	75	20085
2026-01-21 08:46:58.87	35.08	9.39	-51.2	-52.6	6.3	0.00e+00	0	42	104	0	73	17392
2026-01-21 08:46:59.88	35.23	9.46	-52.3	-54.1	6.2	0.00e+00	0	42	104	0	75	18391
2026-01-21 08:47:00.89	35.39	9.54	-53.1	-55.2	6.2	0.00e+00	0	42	104	0	76	19909
2026-01-21 08:47:01.89	35.55	9.62	-53.2	-55.3	6.2	0.00e+00	0	42	104	0	76	19970
2026-01-21 08:47:02.90	35.71	9.69	-53.3	-55.4	6.2	0.00e+00	0	42	104	0	77	19117
2026-01-21 08:47:03.91	35.87	9.77	-53.2	-55.3	6.2	0.00e+00	0	42	104	0	77	18835
2026-01-21 08:47:04.92	36.03	9.85	-53.2	-55.3	6.2	0.00e+00	0	42	104	0	77	18986
2026-01-21 08:47:05.93	36.20	9.93	-53.1	-55.2	6.2	0.00e+00	0	42	104	0	77	18683
2026-01-21 08:47:06.93	36.36	10.00	-53.2	-55.4	6.2	0.00e+00	0	42	104	0	77	19098
2026-01-21 08:47:07.94	36.52	10.08	-52.9	-55.3	6.2	0.00e+00	0	42	104	0	77	18996
2026-01-21 08:47:08.95	36.69	10.16	-53.0	-55.2	6.2	0.00e+00	0	42	104	0	77	18746
2026-01-21 08:47:09.96	36.86	10.24	-52.9	-55.3	6.2	0.00e+00	0	42	104	0	77	18867
2026-01-21 08:47:10.96	37.02	10.32	-53.1	-55.4	6.2	0.00e+00	0	42	104	0	77	19101
2026-01-21 08:47:11.97	37.19	10.40	-53.1	-55.4	6.2	0.00e+00	0	42	104	0	77	19095
2026-01-21 08:47:12.98	37.36	10.47	-53.1	-55.4	6.2	0.00e+00	0	42	104	0	77	19062
2026-01-21 08:47:13.98	37.53	10.55	-53.0	-55.3	6.2	0.00e+00	0	42	104	0	77	18927
2026-01-21 08:47:14.99	37.71	10.63	-53.2	-55.4	6.2	0.00e+00	0	42	104	0	77	19174
2026-01-21 08:47:16.00	37.88	10.71	-53.1	-55.4	6.2	0.00e+00	0	42	104	0	77	19068
2026-01-21 08:47:17.01	38.05	10.79	-53.1	-55.4	6.2	0.00e+00	0	42	104	0	77	19106
2026-01-21 08:47:18.02	38.23	10.87	-53.1	-55.3	6.2	0.00e+00	0	42	104	0	77	19028
2026-01-21 08:47:19.03	38.41	10.95	-53.2	-55.4	6.2	0.00e+00	0	42	104	0	77	19201
2026-01-21 08:47:20.03	38.58	11.03	-53.1	-55.4	6.2	0.00e+00	0	42	104	0	77	19167
2026-01-21 08:47:21.04	38.76	11.11	-53.1	-55.4	6.2	0.00e+00	0	42	104	0	77	19092
2026-01-21 08:47:22.05	38.94	11.19	-53.2	-55.3	6.2	0.00e+00	0	42	104	0	77	18920
2026-01-21 08:47:23.06	39.12	11.27	-53.2	-55.5	6.2	0.00e+00	0	42	104	0	77	19359
2026-01-21 08:47:24.07	39.31	11.35	-53.3	-55.5	6.2	0.00e+00	0	42	104	0	77	19275
2026-01-21 08:47:25.07	39.49	11.43	-53.3	-55.4	6.2	0.00e+00	0	42	104	0	77	19170
2026-01-21 08:47:26.08	39.67	11.51	-53.3	-55.4	6.2	0.00e+00	0	42	104	0	77	19145
2026-01-21 08:47:27.09	39.86	11.59	-53.3	-55.5	6.2	0.00e+00	0	42	104	0	77	19322
2026-01-21 08:47:28.10	40.05	11.67	-53.2	-55.4	6.2	0.00e+00	0	42	104	0	77	19191
2026-01-21 08:47:29.11	40.24	11.75	-53.3	-55.4	6.2	0.00e+00	0	42	104	0	77	19208
2026-01-21 08:47:30.11	40.42	11.83	-53.2	-55.4	6.2	0.00e+00	0	42	104	0	77	19136
2026-01-21 08:47:31.12	40.62	11.91	-53.3	-55.5	6.2	0.00e+00	0	42	104	0	77	19292
2026-01-21 08:47:32.13	40.81	11.99	-53.2	-55.4	6.2	0.00e+00	0	42	104	0	77	19210
2026-01-21 08:47:33.14	41.00	12.07	-53.3	-55.4	6.2	0.00e+00	0	42	104	0	77	19245
2026-01-21 08:47:34.15	41.20	12.15	-53.3	-55.4	6.2	0.00e+00	0	42	104	0	77	19235
2026-01-21 08:47:35.15	41.39	12.23	-53.3	-55.5	6.2	0.00e+00	0	42	104	0	77	19321
2026-01-21 08:47:36.16	41.59	12.31	-53.3	-55.5	6.2	0.00e+00	0	42	104	0	77	19346
2026-01-21 08:47:37.17	41.79	12.39	-53.3	-55.5	6.2	0.00e+00	0	42	104	0	77	19378
2026-01-21 08:47:38.18	41.99	12.48	-53.3	-55.4	6.2	0.00e+00	0	42	104	0	77	19204
2026-01-21 08:47:39.18	42.18	12.56	-53.4	-55.5	6.2	0.00e+00	0	42	104	0	77	19434
2026-01-21 08:47:40.19	42.39	12.64	-53.4	-55.5	6.2	0.00e+00	0	42	104	0	77	19426
2026-01-21 08:47:41.20	42.59	12.72	-53.3	-55.5	6.2	0.00e+00	0	42	104	0	77	19384
2026-01-21 08:47:42.21	42.79	12.80	-53.4	-55.5	6.2	0.00e+00	0	42	104	0	77	19294
2026-01-21 08:47:43.22	43.00	12.88	-53.4	-55.6	6.2	0.00e+00	0	43	104	0	77	19490
2026-01-21 08:47:44.22	43.21	12.96	-53.4	-55.5	6.2	0.00e+00	0	42	104	0	77	19432
2026-01-21 08:47:45.23	43.42	13.05	-53.4	-55.5	6.2	0.00e+00	0	43	104	0	77	19416
2026-01-21 08:47:46.24	43.63	13.13	-53.4	-55.5	6.2	0.00e+00	0	42	104	0	77	19392
2026-01-21 08:47:47.25	43.84	13.21	-53.4	-55.6	6.2	0.00e+00	0	42	104	0	77	19574
2026-01-21 08:47:48.26	44.05	13.29	-53.4	-55.6	6.2	0.00e+00	0	43	104	0	77	19538
2026-01-21 08:47:49.26	44.26	13.37	-53.4	-55.6	6.2	0.00e+00	0	43	104	0	77	19481
2026-01-21 08:47:50.27	44.48	13.45	-53.4	-55.5	6.2	0.00e+00	0	42	104	0	77	19425
2026-01-21 08:47:51.28	44.69	13.54	-53.4	-55.6	6.2	0.00e+00	0	42	104	0	77	19572
2026-01-21 08:47:52.29	44.91	13.62	-53.4	-55.6	6.2	0.00e+00	0	42	104	0	77	19497
2026-01-21 08:47:53.30	45.13	13.70	-53.4	-55.5	6.2	0.00e+00	0	42	104	0	77	19464
2026-01-21 08:47:54.31	45.35	13.78	-53.4	-55.5	6.2	0.00e+00	0	42	104	0	77	19470
2026-01-21 08:47:55.31	45.57	13.86	-53.5	-55.6	6.2	0.00e+00	0	43	104	0	77	19589
2026-01-21 08:47:56.32	45.80	13.95	-53.5	-55.6	6.2	0.00e+00	0	43	104	0	77	19583
2026-01-21 08:47:57.33	46.02	14.03	-53.5	-55.5	6.2	0.00e+00	0	43	104	0	77	19474
2026-01-21 08:47:58.34	46.25	14.11	-53.4	-55.6	6.2	0.00e+00	0	42	104	0	77	19550
2026-01-21 08:47:59.35	46.48	14.19	-53.5	-55.6	6.2	0.00e+00	0	43	104	0	77	19613
2026-01-21 08:48:00.35	46.71	14.27	-53.5	-55.6	6.2	0.00e+00	0	43	104	0	77	19631
2026-01-21 08:48:01.36	46.94	14.36	-53.4	-55.6	6.2	0.00e+00	0	42	104	0	77	19498
2026-01-21 08:48:02.37	47.17	14.44	-53.5	-55.6	6.2	0.00e+00	0	42	104	0	77	19591
2026-01-21 08:48:03.38	47.40	14.52	-53.5	-55.6	6.2	0.00e+00	0	42	104	0	77	19637
2026-01-21 08:48:04.39	47.64	14.60	-53.5	-55.6	6.2	0.00e+00	0	42	104	0	77	19624
2026-01-21 08:48:05.39	47.87	14.68	-53.5	-55.6	6.2	0.00e+00	0	43	104	0	77	19582
2026-01-21 08:48:06.40	48.11	14.76	-53.5	-55.6	6.2	0.00e+00	0	43	104	0	77	19613
2026-01-21 08:48:07.41	48.35	14.85	-53.5	-55.6	6.2	0.00e+00	0	42	104	0	77	19618
2026-01-21 08:48:08.42	48.59	14.93	-53.5	-55.6	6.2	0.00e+00	0	42	104	0	77	19620
2026-01-21 08:48:09.43	48.84	15.01	-53.5	-55.6	6.2	0.00e+00	0	42	104	0	77	19652
2026-01-21 08:48:10.43	49.08	15.09	-53.5	-55.6	6.2	0.00e+00	0	43	104	0	77	19522
2026-01-21 08:48:11.44	49.33	15.17	-53.5	-55.6	6.2	0.00e+00	0	43	104	0	77	19680
2026-01-21 08:48:12.44	49.57	15.25	-53.5	-55.6	6.2	0.00e+00	0	42	104	0	77	19695
2026-01-21 08:48:13.45	49.82	15.33	-53.5	-55.6	6.2	0.00e+00	0	43	104	0	77	19605
2026-01-21 08:48:14.46	50.07	15.41	-53.5	-55.6	6.2	0.00e+00	0	43	104	0	77	19698
2026-01-21 08:48:15.47	50.32	15.49	-53.5	-55.7	6.2	0.00e+00	0	43	104	0	77	19747
2026-01-21 08:48:16.48	50.58	15.58	-53.5	-55.6	6.2	0.00e+00	0	43	104	0	77	19687
2026-01-21 08:48:17.49	50.83	15.66	-53.5	-55.7	6.2	0.00e+00	0	43	104	0	77	19710
2026-01-21 08:48:18.49	51.09	15.74	-53.5	-55.7	6.2	0.00e+00	0	43	104	0	77	19746
2026-01-21 08:48:19.50	51.35	15.82	-53.5	-55.7	6.2	0.00e+00	0	42	104	0	77	19738
2026-01-21 08:48:20.51	51.61	15.90	-53.5	-55.7	6.2	0.00e+00	0	43	104	0	77	19798
2026-01-21 08:48:21.52	51.87	15.98	-53.5	-55.7	6.2	0.00e+00	0	43	104	0	77	19731
2026-01-21 08:48:22.53	52.13	16.06	-53.5	-55.7	6.2	0.00e+00	0	42	104	0	77	19706
2026-01-21 08:48:23.53	52.39	16.14	-53.5	-55.7	6.2	0.00e+00	0	42	104	0	77	19781
2026-01-21 08:48:24.54	52.66	16.21	-53.6	-55.7	6.2	0.00e+00	0	43	104	0	77	19834
2026-01-21 08:48:25.55	52.93	16.29	-53.5	-55.7	6.2	0.00e+00	0	43	104	0	77	19738
2026-01-21 08:48:26.56	53.20	16.37	-53.6	-55.7	6.2	0.00e+00	0	43	104	0	77	19778
2026-01-21 08:48:27.57	53.47	16.45	-53.5	-55.7	6.2	0.00e+00	0	43	104	0	77	19778
2026-01-21 08:48:28.58	53.74	16.53	-53.6	-55.7	6.2	0.00e+00	0	42	104	0	77	19794
2026-01-21 08:48:29.58	54.01	16.61	-53.6	-55.7	6.2	0.00e+00	0	42	104	0	77	19797
2026-01-21 08:48:30.59	54.29	16.69	-53.6	-55.7	6.2	0.00e+00	0	43	104	0	77	19871
2026-01-21 08:48:31.60	54.57	16.76	-53.6	-55.7	6.2	0.00e+00	0	43	104	0	77	19843
2026-01-21 08:48:32.61	54.85	16.84	-53.6	-55.7	6.2	0.00e+00	0	43	104	0	77	19848
2026-01-21 08:48:33.62	55.13	16.92	-53.6	-55.7	6.2	0.00e+00	0	43	104	0	77	19743
2026-01-21 08:48:34.62	55.41	17.00	-53.6	-55.7	6.2	0.00e+00	0	42	104	0	77	19831
2026-01-21 08:48:35.63	55.69	17.07	-53.5	-55.7	6.2	0.00e+00	0	42	104	0	77	19864
2026-01-21 08:48:36.64	55.98	17.15	-53.6	-55.7	6.2	0.00e+00	0	43	104	0	77	19894
2026-01-21 08:48:37.65	56.27	17.23	-53.6	-55.7	6.2	0.00e+00	0	43	104	0	77	19817
2026-01-21 08:48:38.65	56.55	17.30	-53.6	-55.8	6.2	0.00e+00	0	43	104	0	77	19962
2026-01-21 08:48:39.66	56.84	17.38	-53.6	-55.7	6.2	0.00e+00	0	42	104	0	77	19907
2026-01-21 08:48:40.67	57.14	17.45	-53.6	-55.7	6.2	0.00e+00	0	43	104	0	77	19902
2026-01-21 08:48:41.68	57.43	17.53	-53.6	-55.7	6.2	0.00e+00	0	42	104	0	77	19780
2026-01-21 08:48:42.69	57.73	17.60	-53.6	-55.8	6.2	0.00e+00	0	43	104	0	77	19954
2026-01-21 08:48:43.70	58.02	17.67	-53.6	-55.8	6.2	0.00e+00	0	43	104	0	77	19944
2026-01-21 08:48:44.70	58.32	17.75	-53.6	-55.8	6.2	0.00e+00	0	42	104	0	77	19975
2026-01-21 08:48:45.71	58.62	17.82	-53.6	-55.7	6.2	0.00e+00	0	43	104	0	77	19894
2026-01-21 08:48:46.72	58.92	17.89	-53.6	-55.8	6.2	0.00e+00	0	43	104	0	77	19992
2026-01-21 08:48:47.73	59.23	17.97	-53.5	-55.7	6.2	0.00e+00	0	42	104	0	77	19870
2026-01-21 08:48:48.73	59.53	18.04	-53.6	-55.7	6.2	0.00e+00	0	43	104	0	77	19911
2026-01-21 08:48:49.74	59.84	18.11	-53.6	-55.7	6.2	0.00e+00	0	42	104	0	77	19871
2026-01-21 08:48:50.75	60.15	18.18	-53.6	-55.8	6.2	0.00e+00	0	43	104	0	77	20012
2026-01-21 08:48:51.75	60.46	18.25	-53.6	-55.7	6.2	0.00e+00	0	43	104	0	77	19926
2026-01-21 08:48:52.76	60.77	18.32	-53.6	-55.7	6.2	0.00e+00	0	43	104	0	77	19928
2026-01-21 08:48:53.77	61.08	18.39	-53.6	-55.8	6.2	0.00e+00	0	42	104	0	77	19964
2026-01-21 08:48:54.77	61.39	18.46	-53.6	-55.8	6.2	0.00e+00	0	43	104	0	77	19963
2026-01-21 08:48:55.78	61.71	18.52	-53.6	-55.7	6.2	0.00e+00	0	43	104	0	77	19904
2026-01-21 08:48:56.78	62.03	18.59	-53.6	-55.7	6.2	0.00e+00	0	43	104	0	77	19909
2026-01-21 08:48:57.79	62.35	18.66	-53.6	-55.7	6.2	0.00e+00	0	43	104	0	77	19920
2026-01-21 08:48:58.80	62.67	18.73	-53.7	-55.8	6.2	0.00e+00	0	43	104	0	77	20023
2026-01-21 08:48:59.80	62.99	18.79	-53.6	-55.8	6.2	0.00e+00	0	43	104	0	77	19955
2026-01-21 08:49:00.81	63.31	18.86	-53.7	-55.8	6.2	0.00e+00	0	43	104	0	77	20002
2026-01-21 08:49:01.82	63.64	18.92	-53.6	-55.7	6.2	0.00e+00	0	43	104	0	77	19922
2026-01-21 08:49:02.83	63.97	18.99	-53.6	-55.8	6.2	0.00e+00	0	43	104	0	77	20054
2026-01-21 08:49:03.84	64.30	19.05	-53.6	-55.7	6.2	0.00e+00	0	43	104	0	77	19928
2026-01-21 08:49:04.84	64.63	19.11	-53.7	-55.8	6.2	0.00e+00	0	43	104	0	77	20006
2026-01-21 08:49:05.85	64.96	19.18	-53.6	-55.8	6.2	0.00e+00	0	42	104	0	77	19984
2026-01-21 08:49:06.86	65.29	19.24	-53.7	-55.8	6.2	0.00e+00	0	43	104	0	77	20126
2026-01-21 08:49:07.87	65.63	19.30	-53.6	-55.8	6.2	0.00e+00	0	43	104	0	77	20062
2026-01-21 08:49:08.88	65.97	19.36	-53.7	-55.8	6.2	0.00e+00	0	43	104	0	77	20052
2026-01-21 08:49:09.89	66.31	19.42	-53.6	-55.7	6.2	0.00e+00	0	43	104	0	77	19922
2026-01-21 08:49:10.90	66.65	19.48	-53.7	-55.8	6.2	0.00e+00	0	42	104	0	77	20150
2026-01-21 08:49:11.90	66.98	19.54	-53.6	-55.8	6.2	0.00e+00	0	43	104	0	77	20017
2026-01-21 08:49:12.91	67.33	19.59	-53.7	-55.8	6.2	0.00e+00	0	43	104	0	77	20123
2026-01-21 08:49:13.92	67.67	19.65	-53.7	-55.8	6.2	0.00e+00	0	43	104	0	77	20048
2026-01-21 08:49:14.93	68.02	19.71	-53.7	-55.8	6.2	0.00e+00	0	43	104	0	77	20159
2026-01-21 08:49:15.94	68.37	19.76	-53.6	-55.8	6.2	0.00e+00	0	42	104	0	77	20035
2026-01-21 08:49:16.94	68.71	19.82	-53.7	-55.8	6.2	0.00e+00	0	43	104	0	77	20088
2026-01-21 08:49:17.95	69.06	19.87	-53.7	-55.8	6.2	0.00e+00	0	43	104	0	77	20011
2026-01-21 08:49:18.96	69.41	19.92	-53.7	-55.8	6.2	0.00e+00	0	42	104	0	77	20128
2026-01-21 08:49:19.97	69.77	19.97	-53.6	-55.8	6.2	0.00e+00	0	42	104	0	77	20076
2026-01-21 08:49:20.98	70.12	20.02	-53.7	-55.8	6.2	0.00e+00	0	43	104	0	77	20107
2026-01-21 08:49:21.98	70.47	20.07	-53.7	-55.8	6.2	0.00e+00	0	43	104	0	77	20061
2026-01-21 08:49:22.99	70.83	20.12	-53.7	-55.9	6.2	0.00e+00	0	42	104	0	77	20186
2026-01-21 08:49:24.00	71.19	20.17	-53.6	-55.8	6.2	0.00e+00	0	43	104	0	77	20059
2026-01-21 08:49:25.01	71.55	20.22	-53.7	-55.9	6.2	0.00e+00	0	43	104	0	78	19064
2026-01-21 08:49:26.02	71.91	20.27	-53.7	-55.8	6.2	0.00e+00	0	43	104	0	78	19014
2026-01-21 08:49:27.03	72.27	20.31	-53.7	-55.9	6.2	0.00e+00	0	43	104	0	78	19186
2026-01-21 08:49:28.03	72.63	20.36	-53.6	-55.8	6.2	0.00e+00	0	43	104	0	78	19031
2026-01-21 08:49:29.04	72.99	20.40	-53.7	-55.9	6.2	0.00e+00	0	43	104	0	78	19076
2026-01-21 08:49:30.05	73.36	20.44	-53.7	-55.8	6.2	0.00e+00	0	43	104	0	78	18918
2026-01-21 08:49:31.06	73.73	20.48	-53.8	-55.9	6.2	0.00e+00	0	43	104	0	78	19122
2026-01-21 08:49:32.06	74.09	20.53	-53.7	-55.8	6.2	0.00e+00	0	43	104	0	78	19026
2026-01-21 08:49:33.07	74.46	20.57	-53.7	-55.9	6.2	0.00e+00	0	43	104	0	78	19048
2026-01-21 08:49:34.08	74.83	20.60	-53.7	-55.8	6.2	0.00e+00	0	43	104	0	78	19003
2026-01-21 08:49:35.09	75.20	20.64	-53.8	-55.9	6.2	0.00e+00	0	43	104	0	78	19205
2026-01-21 08:49:36.09	75.57	20.68	-53.6	-55.9	6.2	0.00e+00	0	43	104	0	78	19066
2026-01-21 08:49:37.10	75.94	20.71	-53.8	-55.9	6.2	0.00e+00	0	43	104	0	78	19069
2026-01-21 08:49:38.11	76.31	20.75	-53.7	-55.9	6.2	0.00e+00	0	43	104	0	78	19051
2026-01-21 08:49:39.12	76.69	20.78	-53.8	-56.0	6.2	0.00e+00	0	42	104	0	78	19258
2026-01-21 08:49:40.12	77.06	20.81	-53.7	-55.9	6.2	0.00e+00	0	42	104	0	78	19100
2026-01-21 08:49:41.13	77.44	20.85	-53.8	-55.9	6.2	0.00e+00	0	43	104	0	78	19075
2026-01-21 08:49:42.14	77.81	20.88	-53.8	-55.8	6.2	0.00e+00	0	43	104	0	78	19030
2026-01-21 08:49:43.15	78.19	20.91	-53.8	-55.9	6.2	0.00e+00	0	43	104	0	78	19233
2026-01-21 08:49:44.16	78.57	20.93	-53.7	-55.9	6.2	0.00e+00	0	43	104	0	78	19074
2026-01-21 08:49:45.17	78.95	20.96	-53.8	-55.9	6.2	0.00e+00	0	43	104	0	78	19204
2026-01-21 08:49:46.17	79.33	20.99	-53.8	-55.9	6.2	0.00e+00	0	43	104	0	78	19158
2026-01-21 08:49:47.18	79.71	21.01	-53.8	-55.9	6.2	0.00e+00	0	43	104	0	78	19249
2026-01-21 08:49:48.19	80.09	21.04	-53.7	-55.9	6.2	0.00e+00	0	43	104	0	78	19148
2026-01-21 08:49:49.20	80.47	21.06	-53.8	-55.9	6.2	0.00e+00	0	43	104	0	78	19178
2026-01-21 08:49:50.21	80.86	21.08	-53.8	-55.9	6.2	0.00e+00	0	43	104	0	78	19155
2026-01-21 08:49:51.21	81.24	21.10	-53.8	-56.0	6.2	0.00e+00	0	43	104	0	78	19270
2026-01-21 08:49:52.22	81.62	21.12	-53.7	-55.9	6.2	0.00e+00	0	43	104	0	78	19105
2026-01-21 08:49:53.23	82.01	21.14	-53.8	-55.9	6.2	0.00e+00	0	43	104	0	78	19172
2026-01-21 08:49:54.23	82.39	21.15	-53.8	-55.9	6.2	0.00e+00	0	43	104	0	78	19175
2026-01-21 08:49:55.24	82.77	21.17	-53.8	-55.9	6.2	0.00e+00	0	43	104	0	78	19243
2026-01-21 08:49:56.25	83.16	21.18	-53.7	-55.9	6.2	0.00e+00	0	43	104	0	78	19144
2026-01-21 08:49:57.26	83.55	21.20	-53.8	-55.9	6.2	0.00e+00	0	43	104	0	78	19197
2026-01-21 08:49:58.27	83.93	21.21	-53.8	-55.9	6.2	0.00e+00	0	43	104	0	78	19213
2026-01-21 08:49:59.27	84.32	21.22	-53.8	-56.0	6.2	0.00e+00	0	43	104	0	78	19325
2026-01-21 08:50:00.28	84.70	21.23	-53.7	-55.9	6.2	0.00e+00	0	43	104	0	78	19162
2026-01-21 08:50:01.29	85.09	21.24	-53.8	-55.9	6.2	0.00e+00	0	43	104	0	78	19207
2026-01-21 08:50:02.30	85.48	21.25	-53.8	-55.9	6.2	0.00e+00	0	43	104	0	78	19211
2026-01-21 08:50:03.31	85.87	21.25	-53.8	-56.0	6.2	0.00e+00	0	43	104	0	78	19261
2026-01-21 08:50:04.31	86.25	21.26	-53.7	-55.9	6.2	0.00e+00	0	43	104	0	78	19181
2026-01-21 08:50:05.32	86.64	21.26	-53.8	-55.9	6.2	0.00e+00	0	43	104	0	78	19231
2026-01-21 08:50:06.32	87.03	21.26	-53.8	-55.9	6.2	0.00e+00	0	43	104	0	78	19236
2026-01-21 08:50:07.33	87.41	21.27	-53.8	-55.9	6.2	0.00e+00	0	43	104	0	78	19206
2026-01-21 08:50:08.34	87.80	21.27	-53.7	-56.0	6.2	0.00e+00	0	43	104	0	78	19262
2026-01-21 08:50:09.35	88.19	21.26	-53.8	-55.9	6.2	0.00e+00	0	43	104	0	78	19152
2026-01-21 08:50:10.36	88.58	21.26	-53.8	-55.9	6.2	0.00e+00	0	43	104	0	78	19228
2026-01-21 08:50:11.36	88.97	21.26	-53.7	-55.9	6.2	0.00e+00	0	43	104	0	78	19131
2026-01-21 08:50:12.37	89.35	21.25	-53.7	-55.9	6.2	0.00e+00	0	43	104	0	78	19156
2026-01-21 08:50:13.38	89.74	21.25	-53.8	-55.9	6.2	0.00e+00	0	43	104	0	78	19158
2026-01-21 08:50:14.39	90.13	21.24	-53.8	-55.9	6.2	0.00e+00	0	43	104	0	78	19135
2026-01-21 08:50:15.40	90.52	21.23	-53.7	-55.9	6.2	0.00e+00	0	43	104	0	78	19144
2026-01-21 08:50:16.41	90.91	21.22	-53.8	-55.9	6.2	0.00e+00	0	43	104	0	78	19134
2026-01-21 08:50:17.41	91.29	21.21	-53.8	-55.9	6.2	0.00e+00	0	43	104	0	78	19145
2026-01-21 08:50:18.42	91.68	21.20	-53.8	-55.9	6.2	0.00e+00	0	43	104	0	78	19168
2026-01-21 08:50:19.43	92.06	21.19	-53.7	-55.9	6.2	0.00e+00	0	43	104	0	78	19238
2026-01-21 08:50:20.43	92.45	21.17	-53.7	-55.9	6.2	0.00e+00	0	43	104	0	78	19248
2026-01-21 08:50:21.44	92.83	21.16	-53.8	-55.9	6.2	0.00e+00	0	43	104	0	78	19175
2026-01-21 08:50:22.45	93.22	21.14	-53.8	-55.9	6.2	0.00e+00	0	43	104	0	78	19216
2026-01-21 08:50:23.46	93.60	21.12	-53.7	-55.9	6.2	0.00e+00	0	43	104	0	78	19165
2026-01-21 08:50:24.47	93.99	21.10	-53.8	-55.9	6.2	0.00e+00	0	43	104	0	78	19088
2026-01-21 08:50:25.47	94.37	21.08	-53.7	-55.9	6.2	0.00e+00	0	43	104	0	78	19036
2026-01-21 08:50:26.48	94.75	21.06	-53.8	-55.9	6.2	0.00e+00	0	43	104	0	78	19179
2026-01-21 08:50:27.49	95.14	21.04	-53.7	-55.9	6.2	0.00e+00	0	43	104	0	78	19182
2026-01-21 08:50:28.50	95.52	21.02	-53.8	-55.9	6.2	0.00e+00	0	43	104	0	78	19242
2026-01-21 08:50:29.51	95.90	20.99	-53.8	-55.9	6.2	0.00e+00	0	42	104	0	78	19194
2026-01-21 08:50:30.51	96.28	20.96	-53.8	-55.9	6.2	0.00e+00	0	43	104	0	78	19253
2026-01-21 08:50:31.52	96.66	20.94	-53.7	-55.9	6.2	0.00e+00	0	43	104	0	78	19131
2026-01-21 08:50:32.53	97.04	20.91	-53.8	-56.0	6.2	0.00e+00	0	43	104	0	78	19263
2026-01-21 08:50:33.54	97.42	20.88	-53.8	-55.9	6.2	0.00e+00	0	43	104	0	78	19240
2026-01-21 08:50:34.55	97.79	20.85	-53.8	-56.0	6.2	0.00e+00	0	43	104	0	78	19299
2026-01-21 08:50:35.56	98.17	20.82	-53.6	-55.9	6.2	0.00e+00	0	43	104	0	78	19078
2026-01-21 08:50:36.57	98.55	20.79	-53.8	-56.0	6.2	0.00e+00	0	43	104	0	78	19257
2026-01-21 08:50:37.57	98.92	20.75	-53.8	-55.9	6.2	0.00e+00	0	43	104	0	78	19230
2026-01-21 08:50:38.58	99.29	20.72	-53.8	-56.0	6.2	0.00e+00	0	43	104	0	78	19271
2026-01-21 08:50:39.59	99.67	20.68	-53.6	-55.9	6.2	0.00e+00	0	43	104	0	78	19066
2026-01-21 08:50:40.60	100.04	20.64	-53.8	-56.0	6.2	0.00e+00	0	43	104	0	78	19281
2026-01-21 08:50:41.61	100.41	20.61	-53.8	-55.9	6.2	0.00e+00	0	43	104	0	78	19244
2026-01-21 08:50:42.61	100.78	20.57	-53.8	-56.0	6.2	0.00e+00	0	43	104	0	78	19259
2026-01-21 08:50:43.62	101.15	20.53	-53.6	-55.9	6.2	0.00e+00	0	43	104	0	78	19134
2026-01-21 08:50:44.63	101.52	20.49	-53.8	-56.0	6.2	0.00e+00	0	43	104	0	78	19291
2026-01-21 08:50:45.64	101.89	20.45	-53.8	-55.9	6.2	0.00e+00	0	43	104	0	78	19208
2026-01-21 08:50:46.65	102.25	20.40	-53.8	-55.9	6.2	0.00e+00	0	43	104	0	78	19244
2026-01-21 08:50:47.66	102.62	20.36	-53.6	-55.9	6.2	0.00e+00	0	43	104	0	78	19094
2026-01-21 08:50:48.66	102.98	20.31	-53.8	-56.0	6.2	0.00e+00	0	43	104	0	78	19258
2026-01-21 08:50:49.67	103.34	20.27	-53.8	-55.9	6.2	0.00e+00	0	43	104	0	78	19215
2026-01-21 08:50:50.67	103.70	20.22	-53.8	-55.9	6.2	0.00e+00	0	43	104	0	78	19207
2026-01-21 08:50:51.68	104.06	20.17	-53.6	-55.9	6.2	0.00e+00	0	43	104	0	78	19110
2026-01-21 08:50:52.69	104.42	20.13	-53.8	-56.0	6.2	0.00e+00	0	43	104	0	78	19292
2026-01-21 08:50:53.69	104.77	20.08	-53.8	-55.9	6.2	0.00e+00	0	43	104	0	78	19192
2026-01-21 08:50:54.70	105.13	20.03	-53.8	-55.9	6.2	0.00e+00	0	43	104	0	78	19172
2026-01-21 08:50:55.71	105.49	19.98	-53.6	-55.8	6.2	0.00e+00	0	43	104	0	78	18978
2026-01-21 08:50:56.72	105.84	19.92	-53.8	-55.9	6.2	0.00e+00	0	43	104	0	78	19202
2026-01-21 08:50:57.73	106.19	19.87	-53.8	-55.9	6.2	0.00e+00	0	43	104	0	78	19169
2026-01-21 08:50:58.73	106.54	19.82	-53.7	-55.9	6.2	0.00e+00	0	43	104	0	78	19069
2026-01-21 08:50:59.74	106.89	19.76	-53.5	-55.8	6.2	0.00e+00	0	43	104	0	78	19019
2026-01-21 08:51:00.75	107.24	19.71	-53.8	-55.9	6.2	0.00e+00	0	43	104	0	78	19200
2026-01-21 08:51:01.76	107.59	19.65	-53.8	-55.9	6.2	0.00e+00	0	43	104	0	78	19194
2026-01-21 08:51:02.77	107.93	19.59	-53.8	-55.9	6.2	0.00e+00	0	43	104	0	78	19184
2026-01-21 08:51:03.77	108.28	19.54	-53.5	-55.8	6.2	0.00e+00	0	43	104	0	78	18983
2026-01-21 08:51:04.78	108.62	19.48	-53.8	-56.0	6.2	0.00e+00	0	43	104	0	78	19285
2026-01-21 08:51:05.79	108.96	19.42	-53.8	-55.9	6.2	0.00e+00	0	43	104	0	78	19094
2026-01-21 08:51:06.80	109.30	19.36	-53.8	-55.9	6.2	0.00e+00	0	43	104	0	78	19162
2026-01-21 08:51:07.80	109.64	19.30	-53.5	-55.8	6.2	0.00e+00	0	43	104	0	78	18942
2026-01-21 08:51:08.81	109.97	19.24	-53.8	-55.9	6.2	0.00e+00	0	43	104	0	78	19254
2026-01-21 08:51:09.82	110.31	19.18	-53.8	-55.9	6.2	0.00e+00	0	43	104	0	78	19152
2026-01-21 08:51:10.83	110.64	19.11	-53.8	-55.9	6.2	0.00e+00	0	43	104	0	78	19210
2026-01-21 08:51:11.84	110.98	19.05	-53.6	-55.8	6.2	0.00e+00	0	43	104	0	78	18988
2026-01-21 08:51:12.85	111.31	18.99	-53.8	-55.9	6.2	0.00e+00	0	43	104	0	78	19209
2026-01-21 08:51:13.86	111.64	18.92	-53.8	-55.9	6.2	0.00e+00	0	43	104	0	78	19112
2026-01-21 08:51:14.86	111.96	18.86	-53.8	-55.9	6.2	0.00e+00	0	43	104	0	78	19165
2026-01-21 08:51:15.87	112.29	18.79	-53.6	-55.8	6.2	0.00e+00	0	43	104	0	78	18971
2026-01-21 08:51:16.88	112.61	18.72	-53.8	-55.9	6.2	0.00e+00	0	43	104	0	78	19205
2026-01-21 08:51:17.89	112.94	18.66	-53.8	-55.9	6.2	0.00e+00	0	43	104	0	78	19097
2026-01-21 08:51:18.89	113.25	18.59	-53.8	-55.9	6.2	0.00e+00	0	43	104	0	78	19198
2026-01-21 08:51:19.90	113.57	18.52	-53.6	-55.8	6.2	0.00e+00	0	43	104	0	78	18969
2026-01-21 08:51:20.91	113.89	18.45	-53.8	-55.9	6.2	0.00e+00	0	43	104	0	78	19199
2026-01-21 08:51:21.92	114.21	18.38	-53.8	-55.9	6.2	0.00e+00	0	43	104	0	78	19133
2026-01-21 08:51:22.92	114.52	18.31	-53.7	-55.9	6.2	0.00e+00	0	43	104	0	78	19098
2026-01-21 08:51:23.93	114.84	18.24	-53.5	-55.8	6.2	0.00e+00	0	43	104	0	78	18888
2026-01-21 08:51:24.93	115.14	18.17	-53.8	-55.9	6.2	0.00e+00	0	43	104	0	78	19156
2026-01-21 08:51:25.94	115.45	18.10	-53.7	-55.8	6.2	0.00e+00	0	43	104	0	78	19021
2026-01-21 08:51:26.95	115.76	18.03	-53.7	-55.9	6.2	0.00e+00	0	43	104	0	78	19071
2026-01-21 08:51:27.96	116.07	17.96	-53.4	-55.7	6.2	0.00e+00	0	43	104	0	78	18805
2026-01-21 08:51:28.97	116.38	17.89	-53.8	-55.9	6.2	0.00e+00	0	43	104	0	78	19137
2026-01-21 08:51:29.97	116.68	17.81	-53.7	-55.9	6.2	0.00e+00	0	43	104	0	78	19045
2026-01-21 08:51:30.98	116.98	17.74	-53.7	-55.8	6.2	0.00e+00	0	43	104	0	78	19014
2026-01-21 08:51:31.99	117.28	17.66	-53.4	-55.8	6.2	0.00e+00	0	43	104	0	78	18822
2026-01-21 08:51:33.00	117.58	17.59	-53.8	-55.9	6.2	0.00e+00	0	43	104	0	78	19090
2026-01-21 08:51:34.00	117.87	17.52	-53.7	-55.9	6.2	0.00e+00	0	43	104	0	78	19043
2026-01-21 08:51:35.01	118.17	17.44	-53.7	-55.8	6.2	0.00e+00	0	43	104	0	78	19003
2026-01-21 08:51:36.02	118.46	17.37	-53.5	-55.7	6.2	0.00e+00	0	43	104	0	78	18766
2026-01-21 08:51:37.03	118.76	17.29	-53.7	-55.9	6.2	0.00e+00	0	43	104	0	78	19061
2026-01-21 08:51:38.04	119.05	17.21	-53.7	-55.8	6.2	0.00e+00	0	43	104	0	78	19003
2026-01-21 08:51:39.05	119.34	17.14	-53.7	-55.8	6.2	0.00e+00	0	43	104	0	78	18985
2026-01-21 08:51:40.05	119.62	17.06	-53.5	-55.7	6.2	0.00e+00	0	43	104	0	78	18801
2026-01-21 08:51:41.06	119.91	16.98	-53.7	-55.8	6.2	0.00e+00	0	43	104	0	78	19014
2026-01-21 08:51:42.07	120.19	16.91	-53.7	-55.8	6.2	0.00e+00	0	43	104	0	78	18943
2026-01-21 08:51:43.08	120.47	16.83	-53.7	-55.8	6.2	0.00e+00	0	43	104	0	78	18985
2026-01-21 08:51:44.09	120.75	16.75	-53.4	-55.7	6.2	0.00e+00	0	43	104	0	78	18730
2026-01-21 08:51:45.09	121.03	16.67	-53.7	-55.8	6.2	0.00e+00	0	43	104	0	78	18948
2026-01-21 08:51:46.10	121.31	16.59	-53.6	-55.7	6.2	0.00e+00	0	43	104	0	78	18730
2026-01-21 08:51:47.11	121.58	16.51	-53.6	-55.7	6.2	0.00e+00	0	43	104	0	78	18805
2026-01-21 08:51:48.12	121.86	16.44	-53.4	-55.6	6.2	0.00e+00	0	43	104	0	78	18565
2026-01-21 08:51:49.12	122.13	16.36	-53.6	-55.7	6.2	0.00e+00	0	43	104	0	78	18790
2026-01-21 08:51:50.13	122.40	16.28	-53.6	-55.7	6.2	0.00e+00	0	42	104	0	78	18677
2026-01-21 08:51:51.14	122.67	16.20	-53.6	-55.7	6.2	0.00e+00	0	43	104	0	78	18720
2026-01-21 08:51:52.15	122.94	16.12	-53.4	-55.6	6.2	0.00e+00	0	43	104	0	78	18486
2026-01-21 08:51:53.15	123.20	16.04	-53.5	-55.7	6.2	0.00e+00	0	43	104	0	78	18629
2026-01-21 08:51:54.16	123.47	15.96	-53.5	-55.6	6.2	0.00e+00	0	43	104	0	78	18597
2026-01-21 08:51:55.17	123.73	15.88	-53.5	-55.7	6.2	0.00e+00	0	43	104	0	78	18604
2026-01-21 08:51:56.18	123.99	15.80	-53.3	-55.6	6.2	0.00e+00	0	43	104	0	78	18398
2026-01-21 08:51:57.19	124.25	15.71	-53.5	-55.6	6.2	0.00e+00	0	43	104	0	78	18544
2026-01-21 08:51:58.19	124.51	15.63	-53.5	-55.6	6.2	0.00e+00	0	43	104	0	78	18483
2026-01-21 08:51:59.20	124.76	15.55	-53.5	-55.7	6.2	0.00e+00	0	43	104	0	78	18616
2026-01-21 08:52:00.21	125.02	15.47	-53.3	-55.6	6.2	0.00e+00	0	43	104	0	78	18512
2026-01-21 08:52:01.22	125.27	15.39	-53.5	-55.6	6.2	0.00e+00	0	43	104	0	78	18546
2026-01-21 08:52:02.23	125.52	15.31	-53.5	-55.7	6.2	0.00e+00	0	43	104	0	78	18715
2026-01-21 08:52:03.23	125.77	15.23	-53.5	-55.7	6.2	0.00e+00	0	43	104	0	78	18656
2026-01-21 08:52:04.24	126.02	15.15	-53.3	-55.6	6.2	0.00e+00	0	43	104	0	78	18396
2026-01-21 08:52:05.25	126.27	15.06	-53.5	-55.6	6.2	0.00e+00	0	43	104	0	78	18572
2026-01-21 08:52:06.25	126.51	14.98	-53.4	-55.6	6.2	0.00e+00	0	43	104	0	78	18397
2026-01-21 08:52:07.26	126.76	14.90	-53.4	-55.6	6.2	0.00e+00	0	43	104	0	78	18485
2026-01-21 08:52:08.27	127.00	14.82	-53.3	-55.5	6.2	0.00e+00	0	43	104	0	78	18319
2026-01-21 08:52:09.27	127.24	14.74	-53.4	-55.6	6.2	0.00e+00	0	43	104	0	78	18415
2026-01-21 08:52:10.28	127.48	14.65	-53.4	-55.6	6.2	0.00e+00	0	43	104	0	78	18405
2026-01-21 08:52:11.29	127.72	14.57	-53.4	-55.6	6.2	0.00e+00	0	43	104	0	78	18412
2026-01-21 08:52:12.29	127.95	14.49	-52.6	-55.3	6.2	0.00e+00	0	43	104	0	77	18908
2026-01-21 08:52:13.30	128.19	14.41	-53.0	-55.3	6.2	0.00e+00	0	43	104	0	77	18994
2026-01-21 08:52:14.31	128.42	14.32	-52.6	-55.3	6.2	0.00e+00	0	43	104	0	77	18924
2026-01-21 08:52:15.32	128.65	14.24	-53.2	-55.4	6.2	0.00e+00	0	43	104	0	77	19223
2026-01-21 08:52:16.33	128.88	14.16	-53.0	-55.4	6.2	0.00e+00	0	43	104	0	77	19099
2026-01-21 08:52:17.33	129.11	14.08	-52.7	-55.2	6.2	0.00e+00	0	43	104	0	77	18662
2026-01-21 08:52:18.34	129.34	13.99	-53.0	-55.3	6.2	0.00e+00	0	43	104	0	77	19005
2026-01-21 08:52:19.35	129.57	13.91	-53.2	-55.4	6.2	0.00e+00	0	43	104	0	77	19234
2026-01-21 08:52:20.36	129.79	13.83	-53.2	-55.4	6.2	0.00e+00	0	43	104	0	77	19139
2026-01-21 08:52:21.37	130.01	13.75	-53.1	-55.3	6.2	0.00e+00	0	43	104	0	77	19014
2026-01-21 08:52:22.37	130.23	13.67	-53.2	-55.4	6.2	0.00e+00	0	43	104	0	77	19144
2026-01-21 08:52:23.38	130.45	13.58	-53.2	-55.4	6.2	0.00e+00	0	43	104	0	77	19233
2026-01-21 08:52:24.39	130.67	13.50	-53.2	-55.4	6.2	0.00e+00	0	43	104	0	77	19097
2026-01-21 08:52:25.40	130.89	13.42	-53.2	-55.4	6.2	0.00e+00	0	43	104	0	77	19114
2026-01-21 08:52:26.41	131.11	13.33	-53.2	-55.4	6.2	0.00e+00	0	43	104	0	77	19116
2026-01-21 08:52:27.41	131.32	13.25	-53.2	-55.4	6.2	0.00e+00	0	43	104	0	77	19170
2026-01-21 08:52:28.42	131.54	13.17	-53.2	-55.4	6.2	0.00e+00	0	43	104	0	77	19041
2026-01-21 08:52:29.43	131.75	13.09	-53.3	-55.4	6.2	0.00e+00	0	43	104	0	77	19097
2026-01-21 08:52:30.44	131.96	13.01	-53.2	-55.4	6.2	0.00e+00	0	43	104	0	77	19081
2026-01-21 08:52:31.44	132.17	12.92	-53.2	-55.3	6.2	0.00e+00	0	43	104	0	77	19033
2026-01-21 08:52:32.45	132.38	12.84	-53.2	-55.4	6.2	0.00e+00	0	43	104	0	77	19120
2026-01-21 08:52:33.46	132.58	12.76	-53.2	-55.4	6.2	0.00e+00	0	43	104	0	77	19082
2026-01-21 08:52:34.47	132.79	12.68	-53.2	-55.3	6.2	0.00e+00	0	43	104	0	77	19018
2026-01-21 08:52:35.48	132.99	12.59	-53.1	-55.3	6.2	0.00e+00	0	43	104	0	77	18987
2026-01-21 08:52:36.48	133.19	12.51	-53.2	-55.3	6.2	0.00e+00	0	43	104	0	77	18989
2026-01-21 08:52:37.49	133.40	12.43	-53.2	-55.3	6.2	0.00e+00	0	43	104	0	77	18986
2026-01-21 08:52:38.50	133.60	12.35	-53.1	-55.3	6.2	0.00e+00	0	43	104	0	77	18942
2026-01-21 08:52:39.51	133.80	12.27	-53.1	-55.3	6.2	0.00e+00	0	43	104	0	77	18954
2026-01-21 08:52:40.52	133.99	12.18	-53.1	-55.3	6.2	0.00e+00	0	43	104	0	77	18933
2026-01-21 08:52:41.53	134.19	12.10	-53.2	-55.3	6.2	0.00e+00	0	43	104	0	77	18946
2026-01-21 08:52:42.54	134.39	12.02	-53.1	-55.3	6.2	0.00e+00	0	43	104	0	77	18914
2026-01-21 08:52:43.55	134.58	11.94	-53.1	-55.3	6.2	0.00e+00	0	43	104	0	77	18881
2026-01-21 08:52:44.55	134.77	11.86	-53.2	-55.3	6.2	0.00e+00	0	43	104	0	77	18947
2026-01-21 08:52:45.56	134.96	11.78	-53.2	-55.3	6.2	0.00e+00	0	43	104	0	77	18879
2026-01-21 08:52:46.57	135.16	11.70	-53.1	-55.3	6.2	0.00e+00	0	43	104	0	77	18916
2026-01-21 08:52:47.58	135.34	11.62	-53.1	-55.3	6.2	0.00e+00	0	43	104	0	77	18826
2026-01-21 08:52:48.58	135.53	11.53	-53.1	-55.3	6.2	0.00e+00	0	43	104	0	77	18855
2026-01-21 08:52:49.59	135.72	11.45	-53.1	-55.2	6.2	0.00e+00	0	43	104	0	77	18813
2026-01-21 08:52:50.60	135.90	11.37	-53.1	-55.3	6.2	0.00e+00	0	43	104	0	77	18862
2026-01-21 08:52:51.61	136.09	11.29	-53.0	-55.2	6.2	0.00e+00	0	43	104	0	77	18723
2026-01-21 08:52:52.62	136.27	11.21	-53.1	-55.2	6.2	0.00e+00	0	43	104	0	77	18814
2026-01-21 08:52:53.62	136.45	11.13	-53.1	-55.2	6.2	0.00e+00	0	43	104	0	77	18805
2026-01-21 08:52:54.63	136.63	11.05	-53.1	-55.2	6.2	0.00e+00	0	43	104	0	77	18771
2026-01-21 08:52:55.64	136.81	10.97	-52.9	-55.2	6.2	0.00e+00	0	43	104	0	77	18630
2026-01-21 08:52:56.65	136.99	10.89	-53.1	-55.2	6.2	0.00e+00	0	43	104	0	77	18788
2026-01-21 08:52:57.66	137.17	10.81	-53.1	-55.2	6.2	0.00e+00	0	43	104	0	77	18811
2026-01-21 08:52:58.66	137.35	10.73	-53.1	-55.2	6.2	0.00e+00	0	43	104	0	77	18790
2026-01-21 08:52:59.67	137.52	10.65	-53.0	-55.2	6.2	0.00e+00	0	43	104	0	77	18652
2026-01-21 08:53:00.68	137.70	10.57	-53.1	-55.2	6.2	0.00e+00	0	43	104	0	77	18788
2026-01-21 08:53:01.69	137.87	10.49	-53.1	-55.2	6.2	0.00e+00	0	43	104	0	77	18716
2026-01-21 08:53:02.70	138.04	10.41	-53.1	-55.2	6.2	0.00e+00	0	43	104	0	77	18818
2026-01-21 08:53:03.71	138.21	10.33	-53.0	-55.2	6.2	0.00e+00	0	43	104	0	77	18702
2026-01-21 08:53:04.72	138.38	10.25	-53.1	-55.2	6.2	0.00e+00	0	43	104	0	77	18774
2026-01-21 08:53:05.73	138.55	10.18	-53.1	-55.2	6.2	0.00e+00	0	43	104	0	77	18665
2026-01-21 08:53:06.74	138.72	10.10	-53.1	-55.2	6.2	0.00e+00	0	43	104	0	77	18749
2026-01-21 08:53:07.74	138.88	10.02	-52.9	-55.2	6.2	0.00e+00	0	43	104	0	77	18629
2026-01-21 08:53:08.75	139.05	9.94	-53.1	-55.2	6.2	0.00e+00	0	43	104	0	77	18744
2026-01-21 08:53:09.76	139.21	9.86	-53.0	-55.2	6.2	0.00e+00	0	43	104	0	77	18693
2026-01-21 08:53:10.77	139.38	9.78	-53.1	-55.2	6.2	0.00e+00	0	43	104	0	77	18756
2026-01-21 08:53:11.78	139.54	9.70	-52.9	-55.1	6.2	0.00e+00	0	43	104	0	77	18488
2026-01-21 08:53:12.78	139.70	9.63	-53.1	-55.2	6.2	0.00e+00	0	43	104	0	77	18656
2026-01-21 08:53:13.79	139.86	9.55	-53.0	-55.2	6.2	0.00e+00	0	43	104	0	77	18609
2026-01-21 08:53:14.80	140.02	9.47	-53.1	-55.2	6.2	0.00e+00	0	43	104	0	77	18779
2026-01-21 08:53:15.81	140.18	9.39	-52.9	-55.1	6.2	0.00e+00	0	43	104	0	77	18541
2026-01-21 08:53:16.81	140.34	9.32	-53.0	-55.2	6.2	0.00e+00	0	43	104	0	77	18630
2026-01-21 08:53:17.82	140.49	9.24	-53.0	-55.1	6.2	0.00e+00	0	43	104	0	77	18520
2026-01-21 08:53:18.83	140.65	9.16	-53.0	-55.2	6.2	0.00e+00	0	43	104	0	77	18614
2026-01-21 08:53:19.84	140.80	9.09	-52.9	-55.1	6.2	0.00e+00	0	43	104	0	77	18554
2026-01-21 08:53:20.85	140.96	9.01	-53.0	-55.1	6.2	0.00e+00	0	43	104	0	77	18583
2026-01-21 08:53:21.85	141.11	8.93	-53.0	-55.1	6.2	0.00e+00	0	43	104	0	77	18481
2026-01-21 08:53:22.86	141.26	8.86	-53.0	-55.2	6.2	0.00e+00	0	43	104	0	77	18631
2026-01-21 08:53:23.87	141.41	8.78	-52.9	-55.1	6.2	0.00e+00	0	43	104	0	77	18464
2026-01-21 08:53:24.88	141.56	8.70	-53.0	-55.1	6.2	0.00e+00	0	43	104	0	77	18514
2026-01-21 08:53:25.89	141.71	8.63	-52.9	-55.1	6.2	0.00e+00	0	43	104	0	77	18403
2026-01-21 08:53:26.89	141.86	8.55	-53.0	-55.1	6.2	0.00e+00	0	43	104	0	77	18564
2026-01-21 08:53:27.90	142.01	8.48	-52.8	-55.0	6.2	0.00e+00	0	43	104	0	77	18327
2026-01-21 08:53:28.91	142.15	8.40	-52.9	-55.1	6.2	0.00e+00	0	43	104	0	77	18455
2026-01-21 08:53:29.92	142.30	8.32	-52.9	-55.0	6.2	0.00e+00	0	43	104	0	77	18324
2026-01-21 08:53:30.93	142.44	8.25	-53.0	-55.1	6.2	0.00e+00	0	43	104	0	77	18559
2026-01-21 08:53:31.94	142.59	8.17	-52.8	-55.0	6.2	0.00e+00	0	43	104	0	77	18273
2026-01-21 08:53:32.94	142.73	8.10	-52.9	-55.0	6.2	0.00e+00	0	43	104	0	77	18370
2026-01-21 08:53:33.95	142.87	8.03	-52.9	-55.0	6.2	0.00e+00	0	43	104	0	77	18267
2026-01-21 08:53:34.96	143.01	7.95	-53.0	-55.1	6.2	0.00e+00	0	43	104	0	77	18487
2026-01-21 08:53:35.97	143.15	7.88	-52.8	-55.0	6.2	0.00e+00	0	43	104	0	77	18246
2026-01-21 08:53:36.97	143.29	7.80	-52.9	-55.0	6.2	0.00e+00	0	43	104	0	77	18293
2026-01-21 08:53:37.98	143.43	7.73	-52.8	-55.0	6.2	0.00e+00	0	43	104	0	77	18203
2026-01-21 08:53:38.99	143.57	7.65	-52.9	-55.1	6.2	0.00e+00	0	43	104	0	77	18421
2026-01-21 08:53:39.99	143.70	7.58	-52.8	-55.0	6.2	0.00e+00	0	43	104	0	77	18197
2026-01-21 08:53:41.00	143.84	7.51	-52.9	-55.0	6.2	0.00e+00	0	43	104	0	77	18272
2026-01-21 08:53:42.01	143.98	7.43	-52.8	-54.9	6.2	0.00e+00	0	43	104	0	77	18106
2026-01-21 08:53:43.02	144.11	7.36	-52.9	-55.0	6.2	0.00e+00	0	43	104	0	77	18347
2026-01-21 08:53:44.03	144.24	7.29	-52.7	-54.9	6.2	0.00e+00	0	43	104	0	77	18122
2026-01-21 08:53:45.03	144.38	7.21	-52.9	-55.0	6.2	0.00e+00	0	43	104	0	77	18201
2026-01-21 08:53:46.04	144.51	7.14	-52.8	-54.9	6.2	0.00e+00	0	43	104	0	77	18088
2026-01-21 08:53:47.05	144.64	7.07	-52.9	-55.0	6.2	0.00e+00	0	43	104	0	77	18274
2026-01-21 08:53:48.06	144.77	7.00	-52.7	-54.9	6.2	0.00e+00	0	43	104	0	77	17999
2026-01-21 08:53:49.07	144.90	6.92	-52.8	-54.9	6.2	0.00e+00	0	43	104	0	77	18081
2026-01-21 08:53:50.07	145.03	6.85	-52.7	-54.9	6.2	0.00e+00	0	43	104	0	77	18025
2026-01-21 08:53:51.08	145.16	6.78	-52.8	-55.0	6.2	0.00e+00	0	42	104	0	77	18237
2026-01-21 08:53:52.09	145.28	6.71	-52.7	-54.8	6.2	0.00e+00	0	43	104	0	77	17966
2026-01-21 08:53:53.10	145.41	6.64	-52.8	-54.9	6.2	0.00e+00	0	43	104	0	77	18127
2026-01-21 08:53:54.10	145.54	6.56	-52.7	-54.8	6.2	0.00e+00	0	43	104	0	77	17915
2026-01-21 08:53:55.11	145.66	6.49	-52.8	-55.0	6.2	0.00e+00	0	43	104	0	77	18193
2026-01-21 08:53:56.12	145.79	6.42	-52.7	-54.8	6.2	0.00e+00	0	43	104	0	77	17903
2026-01-21 08:53:57.13	145.91	6.35	-52.7	-54.9	6.2	0.00e+00	0	43	104	0	77	18010
2026-01-21 08:53:58.14	146.04	6.28	-52.6	-54.8	6.2	0.00e+00	0	43	104	0	77	17770
2026-01-21 08:53:59.15	146.16	6.21	-52.8	-54.9	6.2	0.00e+00	0	43	104	0	77	18092
2026-01-21 08:54:00.15	146.28	6.14	-52.6	-54.7	6.2	0.00e+00	0	43	104	0	77	17713
2026-01-21 08:54:01.16	146.40	6.07	-52.7	-54.8	6.2	0.00e+00	0	43	104	0	77	17906
2026-01-21 08:54:02.17	146.52	6.00	-52.6	-54.7	6.2	0.00e+00	0	43	104	0	77	17703
2026-01-21 08:54:03.18	146.64	5.93	-52.7	-54.9	6.2	0.00e+00	0	43	104	0	77	17980
2026-01-21 08:54:04.19	146.76	5.86	-52.5	-54.7	6.2	0.00e+00	0	43	104	0	77	17625
2026-01-21 08:54:05.19	146.88	5.79	-52.6	-54.8	6.2	0.00e+00	0	43	104	0	77	17792
2026-01-21 08:54:06.20	146.99	5.72	-52.5	-54.6	6.2	0.00e+00	0	43	104	0	77	17544
2026-01-21 08:54:07.21	147.11	5.65	-52.6	-54.8	6.2	0.00e+00	0	43	104	0	77	17858
2026-01-21 08:54:08.22	147.23	5.58	-52.5	-54.6	6.2	0.00e+00	0	43	104	0	76	18512
2026-01-21 08:54:09.22	147.34	5.51	-52.6	-54.7	6.2	0.00e+00	0	43	104	0	76	18728
2026-01-21 08:54:10.23	147.46	5.44	-52.4	-54.5	6.2	0.00e+00	0	43	104	0	76	18256
2026-01-21 08:54:11.24	147.57	5.37	-52.6	-54.7	6.2	0.00e+00	0	43	104	0	76	18705
2026-01-21 08:54:12.25	147.69	5.30	-52.4	-54.5	6.2	0.00e+00	0	43	104	0	76	18349
2026-01-21 08:54:13.26	147.80	5.23	-52.5	-54.6	6.2	0.00e+00	0	43	104	0	76	18498
2026-01-21 08:54:14.26	147.91	5.17	-52.3	-54.4	6.2	0.00e+00	0	43	104	0	76	18061
2026-01-21 08:54:15.27	148.02	5.10	-52.5	-54.6	6.2	0.00e+00	0	43	104	0	76	18579
2026-01-21 08:54:16.28	148.14	5.03	-51.9	-54.1	6.2	0.00e+00	0	43	104	0	75	18426
2026-01-21 08:54:17.29	148.25	4.96	-52.7	-54.9	6.2	0.00e+00	0	43	104	0	75	20223
2026-01-21 08:54:18.30	148.36	4.89	-53.1	-55.3	6.2	0.00e+00	0	43	104	0	76	19961
2026-01-21 08:54:19.31	148.47	4.83	-53.4	-55.5	6.2	0.00e+00	0	43	104	0	77	19408
2026-01-21 08:54:20.31	148.57	4.76	-53.6	-55.7	6.2	0.00e+00	0	43	104	0	77	19789
2026-01-21 08:54:21.32	148.68	4.69	-53.7	-55.8	6.2	0.00e+00	0	43	104	0	77	20120
2026-01-21 08:54:22.33	148.79	4.62	-53.9	-56.0	6.2	0.00e+00	0	43	104	0	78	19311
2026-01-21 08:54:23.34	148.90	4.56	-54.0	-56.1	6.2	0.00e+00	0	43	104	0	78	19626
2026-01-21 08:54:24.35	149.00	4.49	-54.1	-56.2	6.2	0.00e+00	0	43	104	0	78	19834
2026-01-21 08:54:25.35	149.11	4.42	-54.1	-56.3	6.2	0.00e+00	0	43	104	0	78	19985
2026-01-21 08:54:26.36	149.22	4.36	-54.2	-56.4	6.2	0.00e+00	0	43	104	0	78	20170
2026-01-21 08:54:27.37	149.32	4.29	-54.3	-56.4	6.2	0.00e+00	0	43	104	0	79	19182
2026-01-21 08:54:28.38	149.42	4.22	-54.4	-56.5	6.2	0.00e+00	0	43	104	0	79	19314
2026-01-21 08:54:29.39	149.53	4.16	-54.4	-56.5	6.2	0.00e+00	0	43	104	0	79	19422
2026-01-21 08:54:30.40	149.63	4.09	-54.5	-56.6	6.2	0.00e+00	0	42	104	0	79	19562
2026-01-21 08:54:31.40	149.73	4.02	-54.5	-56.6	6.2	0.00e+00	0	43	104	0	79	19660
2026-01-21 08:54:32.41	149.84	3.96	-54.6	-56.7	6.2	0.00e+00	0	43	104	0	79	19815
2026-01-21 08:54:33.42	149.94	3.89	-54.6	-56.7	6.2	0.00e+00	0	43	104	0	79	19847
2026-01-21 08:54:34.43	150.04	3.83	-54.6	-56.8	6.2	0.00e+00	0	43	104	0	79	19995
2026-01-21 08:54:35.44	150.14	3.76	-54.7	-56.8	6.2	0.00e+00	0	43	104	0	79	20049
2026-01-21 08:54:36.45	150.24	3.70	-54.7	-56.8	6.2	0.00e+00	0	43	104	0	79	20095
2026-01-21 08:54:37.45	150.34	3.63	-54.7	-56.8	6.2	0.00e+00	0	43	104	0	79	20145
2026-01-21 08:54:38.46	150.44	3.57	-54.7	-56.8	6.2	0.00e+00	0	43	104	0	80	18927
2026-01-21 08:54:39.47	150.53	3.50	-54.7	-56.8	6.2	0.00e+00	0	43	104	0	80	18992
2026-01-21 08:54:40.48	150.63	3.44	-54.8	-56.9	6.2	0.00e+00	0	43	104	0	80	19146
2026-01-21 08:54:41.49	150.73	3.37	-54.8	-56.9	6.2	0.00e+00	0	43	104	0	80	19222
2026-01-21 08:54:42.49	150.83	3.31	-54.8	-56.9	6.2	0.00e+00	0	43	104	0	80	19220
2026-01-21 08:54:43.50	150.92	3.24	-54.8	-56.9	6.2	0.00e+00	0	43	104	0	80	19178
2026-01-21 08:54:44.51	151.02	3.18	-54.8	-57.0	6.2	0.00e+00	0	43	104	0	80	19278
2026-01-21 08:54:45.52	151.11	3.12	-54.8	-56.9	6.2	0.00e+00	0	43	104	0	80	19213
2026-01-21 08:54:46.52	151.21	3.05	-54.8	-56.9	6.2	0.00e+00	0	43	104	0	80	19188
2026-01-21 08:54:47.53	151.30	2.99	-54.8	-56.9	6.2	0.00e+00	0	43	104	0	80	19132
2026-01-21 08:54:48.54	151.40	2.93	-54.8	-56.9	6.2	0.00e+00	0	42	104	0	80	19065
2026-01-21 08:54:49.54	151.49	2.86	-54.7	-56.9	6.2	0.00e+00	0	43	104	0	80	19046
2026-01-21 08:54:50.55	151.58	2.80	-54.7	-56.8	6.2	0.00e+00	0	43	104	0	80	18995
2026-01-21 08:54:51.56	151.67	2.74	-54.7	-56.8	6.2	0.00e+00	0	43	104	0	80	18922
2026-01-21 08:54:52.57	151.77	2.67	-54.6	-56.8	6.2	0.00e+00	0	43	104	0	80	18856
2026-01-21 08:54:53.58	151.86	2.61	-54.6	-56.7	6.2	0.00e+00	0	43	104	0	80	18785
2026-01-21 08:54:54.58	151.95	2.55	-54.6	-56.7	6.2	0.00e+00	0	43	104	0	80	18665
2026-01-21 08:54:55.59	152.04	2.48	-54.5	-56.7	6.2	0.00e+00	0	43	104	0	80	18653
2026-01-21 08:54:56.60	152.13	2.42	-54.5	-56.6	6.2	0.00e+00	0	43	104	0	80	18518
2026-01-21 08:54:57.61	152.22	2.36	-54.4	-56.6	6.2	0.00e+00	0	43	104	0	80	18396
2026-01-21 08:54:58.61	152.31	2.30	-54.4	-56.5	6.2	0.00e+00	0	43	104	0	80	18200
2026-01-21 08:54:59.62	152.40	2.24	-54.3	-56.4	6.2	0.00e+00	0	43	104	0	80	18106
2026-01-21 08:55:00.63	152.48	2.17	-54.2	-56.4	6.2	0.00e+00	0	43	104	0	80	17987
2026-01-21 08:55:01.64	152.57	2.11	-54.1	-56.2	6.2	0.00e+00	0	43	104	0	80	17606
2026-01-21 08:55:02.64	152.66	2.05	-54.0	-56.1	6.2	0.00e+00	0	43	104	0	80	17471
2026-01-21 08:55:03.65	152.75	1.99	-53.9	-55.9	6.2	0.00e+00	0	43	104	0	79	18176
2026-01-21 08:55:04.66	152.83	1.93	-53.8	-55.9	6.2	0.00e+00	0	43	104	0	79	18171

#Closed at: 2026-01-21 08:55:04
#Recorded file [0 MB]: D:/lorett/data/31041_260121_114511.dat