passes_logs/2026/01/21/R3.2S_Murmansk/R3.2S_Murmansk__20260121_111758_NOAA_20_JPSS-1_rec.log

#Pass ID: 20260121_111758_NOAA 20 (JPSS-1)
#Satellite: NOAA 20 (JPSS-1)
#Configuration: NOAA 20
#almurnet v.1.7.20251203
#Start time: 2026-01-21 11:18:00

#Version: 2.2.20231116
#Station: R3.2S_Murmansk
#Location: 33.079688 lon 68.888172 lat
#TLE: 1 43013U 17073A   26020.82785136  .00000155  00000+0  94366-4 0  9991
#TLE: 2 43013  98.7643 321.7058 0001260  30.3785 329.7464 14.19537992423566

#Time	Az	El	Level	Level2	SNR	BER	BlckErr	Temp	State	Recorded	gain1	gain2
2026-01-21 11:18:00.32	195.94	2.12	-54.5	-69.5	3.8	1.49e+00	0	38	0	0	79	21690
2026-01-21 11:18:01.33	195.99	2.18	-54.4	-69.4	3.8	1.49e+00	0	38	104	0	79	21416
2026-01-21 11:18:02.34	196.05	2.24	-54.4	-69.4	3.8	1.49e+00	0	38	104	0	79	21340
2026-01-21 11:18:03.34	196.10	2.30	-54.3	-69.3	3.8	1.49e+00	0	38	104	0	79	21215
2026-01-21 11:18:04.35	196.15	2.36	-54.3	-69.3	3.8	1.49e+00	0	38	104	0	79	21164
2026-01-21 11:18:05.36	196.21	2.42	-54.2	-69.2	3.8	1.49e+00	0	38	104	0	79	20980
2026-01-21 11:18:06.37	196.26	2.48	-54.2	-69.2	3.8	1.49e+00	0	38	104	0	79	20837
2026-01-21 11:18:07.38	196.32	2.55	-54.1	-69.1	3.8	1.49e+00	0	38	104	0	79	20666
2026-01-21 11:18:08.38	196.37	2.61	-54.1	-69.0	3.8	1.49e+00	0	38	104	0	79	20485
2026-01-21 11:18:09.39	196.43	2.67	-54.0	-69.0	3.8	1.49e+00	0	38	104	0	79	20311
2026-01-21 11:18:10.40	196.49	2.73	-53.9	-68.9	3.8	1.49e+00	0	38	104	0	79	20077
2026-01-21 11:18:11.41	196.54	2.79	-53.8	-68.8	3.8	1.49e+00	0	38	104	0	79	19880
2026-01-21 11:18:12.42	196.60	2.85	-53.6	-68.6	3.8	1.49e+00	0	38	104	0	79	19491
2026-01-21 11:18:13.42	196.65	2.91	-53.3	-68.3	3.8	1.49e+00	0	39	104	0	78	19891
2026-01-21 11:18:14.43	196.71	2.97	-52.8	-67.8	3.8	1.49e+00	0	38	104	0	77	19996
2026-01-21 11:18:15.44	196.77	3.03	-52.8	-67.8	3.8	1.49e+00	0	38	104	0	77	19895
2026-01-21 11:18:16.45	196.83	3.10	-52.8	-67.8	3.8	1.49e+00	0	39	104	0	77	19972
2026-01-21 11:18:17.46	196.88	3.16	-52.8	-67.8	3.8	1.49e+00	0	38	104	0	77	19898
2026-01-21 11:18:18.47	196.94	3.22	-52.8	-67.8	3.8	1.49e+00	0	38	104	0	77	19955
2026-01-21 11:18:19.48	197.00	3.28	-52.8	-67.7	3.8	1.49e+00	0	38	104	0	77	19837
2026-01-21 11:18:20.49	197.06	3.35	-52.8	-67.7	3.8	1.49e+00	0	39	104	0	77	19835
2026-01-21 11:18:21.49	197.11	3.41	-52.8	-67.8	3.8	1.49e+00	0	39	104	0	77	19858
2026-01-21 11:18:22.50	197.17	3.47	-52.8	-67.8	3.8	1.49e+00	0	39	104	0	77	19894
2026-01-21 11:18:23.51	197.23	3.53	-52.8	-67.8	3.8	1.49e+00	0	38	104	0	77	19888
2026-01-21 11:18:24.52	197.29	3.60	-52.8	-67.7	3.8	1.49e+00	0	39	104	0	77	19812
2026-01-21 11:18:25.53	197.35	3.66	-52.8	-67.6	3.8	1.49e+00	0	39	104	0	77	19580
2026-01-21 11:18:26.53	197.41	3.72	-52.7	-67.5	3.8	1.49e+00	0	39	104	0	77	19261
2026-01-21 11:18:27.54	197.47	3.78	-52.7	-67.2	3.8	1.49e+00	0	39	104	0	77	18684
2026-01-21 11:18:28.55	197.53	3.85	-52.7	-67.1	3.8	1.49e+00	0	39	104	0	77	18510
2026-01-21 11:18:29.55	197.59	3.91	-52.7	-67.2	3.8	1.49e+00	0	39	104	0	77	18678
2026-01-21 11:18:30.56	197.65	3.97	-52.7	-67.3	3.8	1.49e+00	0	39	104	0	77	18906
2026-01-21 11:18:31.57	197.71	4.04	-52.7	-67.4	3.8	1.49e+00	0	39	104	0	77	19153
2026-01-21 11:18:32.58	197.77	4.10	-52.7	-67.1	3.8	1.49e+00	0	39	104	0	77	18470
2026-01-21 11:18:33.59	197.83	4.16	-52.6	-65.8	3.8	1.49e+00	0	39	104	0	77	15919
2026-01-21 11:18:34.59	197.89	4.23	-52.5	-63.4	4.4	1.46e+00	79	39	0	0	76	12807
2026-01-21 11:18:35.60	197.95	4.29	-52.2	-60.8	5.9	5.69e-01	0	39	0	1048576	76	9420
2026-01-21 11:18:36.61	198.02	4.36	-51.8	-58.9	7.5	1.79e-01	0	39	0	3145728	75	8054
2026-01-21 11:18:37.62	198.08	4.42	-51.3	-56.9	9.5	3.44e-02	0	39	0	5242880	74	6743
2026-01-21 11:18:38.63	198.14	4.49	-50.7	-55.3	11.3	1.68e-03	0	39	0	7340032	73	5930
2026-01-21 11:18:39.64	198.20	4.55	-50.2	-54.0	12.5	7.07e-04	0	39	0	9437184	72	5447
2026-01-21 11:18:40.65	198.27	4.61	-49.7	-53.0	13.7	3.12e-05	0	39	0	10485760	71	5134
2026-01-21 11:18:41.66	198.33	4.68	-49.4	-52.4	14.3	1.50e-06	0	39	0	12582912	70	5096
2026-01-21 11:18:42.66	198.39	4.74	-49.2	-52.2	14.6	7.00e-07	0	39	0	14680064	70	4931
2026-01-21 11:18:43.67	198.46	4.81	-49.1	-51.9	14.9	0.00e+00	0	39	0	16777216	70	4791
2026-01-21 11:18:44.68	198.52	4.87	-49.1	-52.0	14.8	7.00e-07	0	39	0	18874368	70	4828
2026-01-21 11:18:45.69	198.59	4.94	-49.5	-52.7	14.1	7.00e-07	0	39	0	19922944	70	5219
2026-01-21 11:18:46.70	198.65	5.01	-49.7	-53.0	13.7	5.30e-06	0	39	0	22020096	70	5444
2026-01-21 11:18:47.71	198.71	5.07	-48.9	-51.6	15.1	6.80e-06	0	39	0	24117248	69	4904
2026-01-21 11:18:48.71	198.78	5.14	-49.1	-51.9	15.0	0.00e+00	0	39	0	26214400	69	5084
2026-01-21 11:18:49.72	198.84	5.20	-51.4	-57.4	9.5	0.00e+00	0	39	0	28311552	73	7604
2026-01-21 11:18:50.73	198.91	5.27	-50.6	-54.9	11.6	2.37e-02	0	39	0	30408704	73	5662
2026-01-21 11:18:51.74	198.98	5.34	-50.7	-54.9	12.2	1.44e-05	0	39	0	31457280	71	6385
2026-01-21 11:18:52.75	199.04	5.40	-49.3	-52.1	14.6	1.29e-02	0	39	0	33554432	70	4919
2026-01-21 11:18:53.76	199.11	5.47	-49.0	-51.7	15.1	0.00e+00	0	39	0	35651584	69	4934
2026-01-21 11:18:54.76	199.18	5.53	-49.0	-51.8	15.1	0.00e+00	0	39	0	37748736	69	4988
2026-01-21 11:18:55.77	199.24	5.60	-48.8	-51.5	15.3	0.00e+00	0	39	0	38797312	69	4819
2026-01-21 11:18:56.78	199.31	5.67	-48.8	-51.4	15.4	0.00e+00	0	39	0	40894464	69	4794
2026-01-21 11:18:57.79	199.38	5.73	-48.7	-51.1	15.7	0.00e+00	0	39	0	42991616	69	4647
2026-01-21 11:18:58.80	199.45	5.80	-48.8	-51.3	15.6	0.00e+00	0	39	0	45088768	69	4731
2026-01-21 11:18:59.81	199.51	5.87	-48.9	-51.4	15.4	0.00e+00	0	39	0	47185920	69	4802
2026-01-21 11:19:00.81	199.58	5.94	-48.4	-50.8	16.1	0.00e+00	0	39	0	48234496	68	4714
2026-01-21 11:19:01.82	199.65	6.00	-48.6	-50.9	16.0	0.00e+00	0	39	0	50331648	68	4813
2026-01-21 11:19:02.83	199.72	6.07	-48.5	-50.9	16.1	0.00e+00	0	39	0	52428800	68	4763
2026-01-21 11:19:03.83	199.79	6.14	-48.4	-50.8	16.1	0.00e+00	0	39	0	54525952	68	4710
2026-01-21 11:19:04.84	199.86	6.21	-48.4	-50.8	16.3	0.00e+00	0	39	0	56623104	68	4710
2026-01-21 11:19:05.85	199.93	6.28	-52.6	-64.8	4.3	1.19e+00	17	39	104	56623104	76	14975
2026-01-21 11:19:06.85	200.00	6.34	-52.5	-63.8	4.3	1.47e+00	18	39	0	56623104	76	13325
2026-01-21 11:19:07.86	200.07	6.41	-52.5	-63.4	4.5	1.21e+00	7	39	0	57671680	76	12718
2026-01-21 11:19:08.87	200.14	6.48	-52.5	-63.0	4.6	1.28e+00	68	39	0	58720256	76	12183
2026-01-21 11:19:09.88	200.21	6.55	-52.2	-60.7	6.0	6.89e-01	0	39	0	60817408	76	9311
2026-01-21 11:19:10.89	200.28	6.62	-52.1	-59.8	6.8	1.60e-01	0	39	0	62914560	75	8952
2026-01-21 11:19:11.89	200.35	6.69	-50.4	-54.2	12.5	3.76e-02	0	39	0	65011712	72	5545
2026-01-21 11:19:12.90	200.43	6.76	-51.4	-56.9	9.7	6.13e-04	0	39	0	66060288	73	7202
2026-01-21 11:19:13.91	200.50	6.83	-52.7	-67.3	3.8	3.78e-01	0	39	104	68157440	76	19863
2026-01-21 11:19:14.92	200.57	6.89	-52.8	-67.4	3.8	1.49e+00	0	39	104	68157440	76	20072
2026-01-21 11:19:15.92	200.65	6.96	-48.8	-51.2	15.3	1.48e+00	0	39	104	68157440	69	4672
2026-01-21 11:19:16.93	200.72	7.03	-48.8	-51.3	15.6	0.00e+00	0	39	0	69206016	69	4715
2026-01-21 11:19:17.94	200.79	7.10	-48.6	-51.0	15.9	0.00e+00	0	39	0	71303168	69	4582
2026-01-21 11:19:18.95	200.87	7.17	-48.2	-50.4	16.6	0.00e+00	0	39	0	73400320	68	4512
2026-01-21 11:19:19.95	200.94	7.24	-47.8	-49.8	17.1	0.00e+00	0	39	0	74448896	67	4486
2026-01-21 11:19:20.96	201.02	7.31	-47.7	-49.7	17.2	0.00e+00	0	40	0	76546048	67	4402
2026-01-21 11:19:21.97	201.09	7.38	-47.7	-49.6	17.3	0.00e+00	0	39	0	78643200	67	4381
2026-01-21 11:19:22.98	201.17	7.46	-47.6	-49.5	17.4	0.00e+00	0	39	0	80740352	67	4340
2026-01-21 11:19:23.99	201.24	7.53	-47.6	-49.6	17.4	0.00e+00	0	39	0	82837504	67	4343
2026-01-21 11:19:25.00	201.32	7.60	-47.5	-49.4	17.5	0.00e+00	0	39	0	83886080	67	4289
2026-01-21 11:19:26.01	201.40	7.67	-47.6	-49.5	17.5	0.00e+00	0	39	0	85983232	67	4318
2026-01-21 11:19:27.01	201.47	7.74	-47.4	-49.3	17.7	0.00e+00	0	40	0	88080384	66	4476
2026-01-21 11:19:28.02	201.55	7.81	-47.4	-49.2	17.8	0.00e+00	0	39	0	90177536	66	4415
2026-01-21 11:19:29.03	201.63	7.88	-47.4	-49.2	17.8	0.00e+00	0	39	0	92274688	66	4436
2026-01-21 11:19:30.04	201.71	7.95	-47.3	-49.1	17.9	0.00e+00	0	39	0	93323264	66	4383
2026-01-21 11:19:31.05	201.78	8.03	-47.3	-49.1	17.9	0.00e+00	0	40	0	95420416	66	4351
2026-01-21 11:19:32.05	201.86	8.10	-47.2	-49.0	18.0	0.00e+00	0	39	0	97517568	66	4317
2026-01-21 11:19:33.06	201.94	8.17	-47.3	-49.1	17.9	0.00e+00	0	39	0	99614720	66	4365
2026-01-21 11:19:34.07	202.02	8.24	-47.2	-49.0	18.0	0.00e+00	0	39	0	101711872	66	4328
2026-01-21 11:19:35.08	202.10	8.32	-47.1	-48.8	18.2	0.00e+00	0	40	0	102760448	66	4242
2026-01-21 11:19:36.08	202.18	8.39	-47.1	-48.9	18.1	0.00e+00	0	39	0	104857600	66	4257
2026-01-21 11:19:37.09	202.26	8.46	-47.2	-49.0	18.0	0.00e+00	0	39	0	106954752	66	4306
2026-01-21 11:19:38.10	202.34	8.53	-46.9	-48.6	18.4	0.00e+00	0	39	0	109051904	65	4372
2026-01-21 11:19:39.11	202.43	8.61	-46.9	-48.6	18.5	0.00e+00	0	39	0	111149056	65	4353
2026-01-21 11:19:40.11	202.51	8.68	-46.9	-48.6	18.5	0.00e+00	0	39	0	112197632	65	4345
2026-01-21 11:19:41.12	202.59	8.75	-47.0	-48.8	18.3	0.00e+00	0	39	0	114294784	65	4444
2026-01-21 11:19:42.13	202.67	8.83	-46.9	-48.6	18.4	0.00e+00	0	39	0	116391936	65	4379
2026-01-21 11:19:43.14	202.75	8.90	-46.9	-48.6	18.4	0.00e+00	0	39	0	118489088	65	4377
2026-01-21 11:19:44.15	202.84	8.98	-46.7	-48.4	18.7	0.00e+00	0	39	0	120586240	65	4244
2026-01-21 11:19:45.15	202.92	9.05	-46.8	-48.5	18.6	0.00e+00	0	39	0	121634816	65	4301
2026-01-21 11:19:46.16	203.01	9.12	-46.8	-48.5	18.6	0.00e+00	0	40	0	123731968	65	4305
2026-01-21 11:19:47.17	203.09	9.20	-47.1	-48.8	18.3	0.00e+00	0	40	0	125829120	65	4473
2026-01-21 11:19:48.18	203.18	9.27	-47.1	-48.8	18.3	0.00e+00	0	40	0	127926272	65	4470
2026-01-21 11:19:49.19	203.26	9.35	-47.1	-48.8	18.3	0.00e+00	0	39	0	130023424	65	4490
2026-01-21 11:19:50.20	203.35	9.42	-47.0	-48.7	18.4	0.00e+00	0	39	0	131072000	65	4426
2026-01-21 11:19:51.21	203.43	9.50	-47.1	-48.8	18.3	0.00e+00	0	40	0	133169152	65	4460
2026-01-21 11:19:52.22	203.52	9.58	-46.9	-48.5	18.6	0.00e+00	0	40	0	135266304	65	4322
2026-01-21 11:19:53.23	203.61	9.65	-46.8	-48.4	18.7	0.00e+00	0	39	0	137363456	65	4274
2026-01-21 11:19:54.23	203.69	9.73	-46.8	-48.5	18.7	0.00e+00	0	39	0	139460608	65	4294
2026-01-21 11:19:55.24	203.78	9.80	-46.7	-48.3	18.8	0.00e+00	0	39	0	140509184	65	4212
2026-01-21 11:19:56.25	203.87	9.88	-46.7	-48.3	18.9	0.00e+00	0	40	0	142606336	65	4204
2026-01-21 11:19:57.26	203.96	9.96	-46.8	-48.4	18.7	0.00e+00	0	39	0	144703488	65	4274
2026-01-21 11:19:58.27	204.05	10.03	-46.6	-48.2	18.9	0.00e+00	0	40	0	146800640	65	4183
2026-01-21 11:19:59.27	204.14	10.11	-46.7	-48.2	18.9	0.00e+00	0	39	0	148897792	65	4193
2026-01-21 11:20:00.28	204.23	10.19	-46.5	-48.0	19.1	0.00e+00	0	39	0	149946368	64	4318
2026-01-21 11:20:01.29	204.32	10.26	-46.7	-48.2	18.9	0.00e+00	0	39	0	152043520	64	4433
2026-01-21 11:20:02.30	204.41	10.34	-46.5	-48.1	19.0	0.00e+00	0	39	0	154140672	64	4366
2026-01-21 11:20:03.30	204.50	10.42	-46.4	-47.9	19.2	0.00e+00	0	40	0	156237824	64	4279
2026-01-21 11:20:04.31	204.59	10.49	-46.5	-48.0	19.1	0.00e+00	0	40	0	158334976	64	4326
2026-01-21 11:20:05.32	204.69	10.57	-46.5	-48.1	19.1	0.00e+00	0	39	0	160432128	64	4356
2026-01-21 11:20:06.33	204.78	10.65	-46.4	-47.8	19.3	0.00e+00	0	40	0	161480704	64	4242
2026-01-21 11:20:07.34	204.87	10.73	-46.1	-47.5	19.6	0.00e+00	0	39	0	163577856	64	4080
2026-01-21 11:20:08.35	204.97	10.81	-46.0	-47.4	19.8	0.00e+00	0	40	0	165675008	63	4289
2026-01-21 11:20:09.35	205.06	10.88	-46.1	-47.5	19.8	0.00e+00	0	39	0	167772160	63	4326
2026-01-21 11:20:10.36	205.16	10.96	-46.0	-47.3	19.9	0.00e+00	0	40	0	168820736	63	4239
2026-01-21 11:20:11.37	205.25	11.04	-45.9	-47.3	19.9	0.00e+00	0	40	0	170917888	63	4225
2026-01-21 11:20:12.37	205.35	11.12	-45.8	-47.2	20.1	0.00e+00	0	40	0	173015040	63	4147
2026-01-21 11:20:13.38	205.44	11.20	-45.8	-47.1	20.1	0.00e+00	0	40	0	175112192	63	4141
2026-01-21 11:20:14.39	205.54	11.28	-45.9	-47.2	20.0	0.00e+00	0	40	0	177209344	63	4193
2026-01-21 11:20:15.40	205.64	11.36	-45.8	-47.1	20.2	0.00e+00	0	40	0	178257920	63	4116
2026-01-21 11:20:16.41	205.74	11.44	-45.6	-46.9	20.3	0.00e+00	0	40	0	180355072	63	4041
2026-01-21 11:20:17.41	205.83	11.52	-45.6	-46.9	20.3	0.00e+00	0	40	0	182452224	63	4051
2026-01-21 11:20:18.42	205.93	11.60	-45.6	-46.9	20.4	0.00e+00	0	39	0	184549376	63	4044
2026-01-21 11:20:19.43	206.03	11.68	-45.6	-46.9	20.3	0.00e+00	0	39	0	186646528	63	4048
2026-01-21 11:20:20.44	206.13	11.76	-45.6	-46.9	20.4	0.00e+00	0	40	0	188743680	63	4031
2026-01-21 11:20:21.44	206.23	11.84	-45.5	-46.8	20.5	0.00e+00	0	40	0	189792256	63	3981
2026-01-21 11:20:22.45	206.33	11.92	-45.6	-46.9	20.3	0.00e+00	0	39	0	191889408	63	4047
2026-01-21 11:20:23.46	206.44	12.00	-45.5	-46.8	20.4	0.00e+00	0	40	0	193986560	63	4000
2026-01-21 11:20:24.47	206.54	12.08	-45.6	-46.9	20.4	0.00e+00	0	39	0	196083712	63	4016
2026-01-21 11:20:25.47	206.64	12.17	-45.5	-46.8	20.5	0.00e+00	0	40	0	197132288	62	4219
2026-01-21 11:20:26.48	206.74	12.25	-45.5	-46.8	20.5	0.00e+00	0	40	0	199229440	62	4194
2026-01-21 11:20:27.49	206.85	12.33	-45.6	-46.9	20.4	0.00e+00	0	39	0	201326592	62	4287
2026-01-21 11:20:28.50	206.95	12.41	-45.6	-47.0	20.3	0.00e+00	0	40	0	203423744	62	4299
2026-01-21 11:20:29.51	207.06	12.49	-45.6	-46.9	20.4	0.00e+00	0	40	0	205520896	62	4265
2026-01-21 11:20:30.51	207.16	12.58	-45.6	-46.9	20.4	0.00e+00	0	40	0	206569472	62	4258
2026-01-21 11:20:31.52	207.27	12.66	-45.6	-46.9	20.4	0.00e+00	0	39	0	208666624	62	4248
2026-01-21 11:20:32.53	207.37	12.74	-45.6	-46.9	20.4	0.00e+00	0	40	0	210763776	62	4252
2026-01-21 11:20:33.54	207.48	12.82	-45.6	-46.9	20.5	0.00e+00	0	40	0	212860928	62	4244
2026-01-21 11:20:34.55	207.59	12.91	-45.7	-47.0	20.4	0.00e+00	0	40	0	214958080	62	4299
2026-01-21 11:20:35.55	207.70	12.99	-45.6	-46.9	20.4	0.00e+00	0	39	0	217055232	62	4279
2026-01-21 11:20:36.56	207.81	13.07	-45.7	-47.0	20.3	0.00e+00	0	40	0	218103808	62	4327
2026-01-21 11:20:37.57	207.92	13.16	-45.6	-46.9	20.4	0.00e+00	0	40	0	220200960	62	4266
2026-01-21 11:20:38.58	208.03	13.24	-45.5	-46.8	20.6	0.00e+00	0	40	0	222298112	62	4205
2026-01-21 11:20:39.59	208.14	13.33	-45.6	-46.9	20.5	0.00e+00	0	40	0	224395264	62	4247
2026-01-21 11:20:40.59	208.25	13.41	-45.5	-46.8	20.6	0.00e+00	0	40	0	225443840	62	4211
2026-01-21 11:20:41.60	208.36	13.50	-45.6	-46.9	20.5	0.00e+00	0	40	0	227540992	62	4256
2026-01-21 11:20:42.61	208.47	13.58	-45.5	-46.7	20.6	0.00e+00	0	39	0	229638144	62	4189
2026-01-21 11:20:43.62	208.58	13.67	-45.6	-46.9	20.5	0.00e+00	0	39	0	231735296	62	4259
2026-01-21 11:20:44.63	208.70	13.75	-45.4	-46.7	20.6	0.00e+00	0	39	0	233832448	62	4176
2026-01-21 11:20:45.63	208.81	13.84	-45.4	-46.7	20.6	0.00e+00	0	40	0	235929600	62	4180
2026-01-21 11:20:46.64	208.93	13.92	-45.5	-46.8	20.6	0.00e+00	0	40	0	236978176	62	4194
2026-01-21 11:20:47.65	209.04	14.01	-45.5	-46.8	20.6	0.00e+00	0	39	0	239075328	62	4230
2026-01-21 11:20:48.66	209.16	14.09	-45.4	-46.6	20.7	0.00e+00	0	40	0	241172480	62	4126
2026-01-21 11:20:49.66	209.28	14.18	-45.4	-46.6	20.7	0.00e+00	0	40	0	243269632	62	4136
2026-01-21 11:20:50.67	209.39	14.27	-45.5	-46.7	20.5	0.00e+00	0	39	0	245366784	62	4192
2026-01-21 11:20:51.68	209.51	14.35	-45.4	-46.7	20.5	0.00e+00	0	39	0	246415360	62	4170
2026-01-21 11:20:52.69	209.63	14.44	-45.5	-46.8	20.5	0.00e+00	0	40	0	248512512	62	4201
2026-01-21 11:20:53.70	209.75	14.53	-45.3	-46.5	20.7	0.00e+00	0	40	0	250609664	62	4093
2026-01-21 11:20:54.71	209.87	14.61	-45.5	-46.7	20.5	0.00e+00	0	39	0	252706816	62	4188
2026-01-21 11:20:55.71	209.99	14.70	-45.4	-46.6	20.7	0.00e+00	0	40	0	253755392	62	4135
2026-01-21 11:20:56.72	210.11	14.79	-45.4	-46.6	20.7	0.00e+00	0	40	0	255852544	62	4129
2026-01-21 11:20:57.73	210.24	14.88	-45.6	-46.9	20.4	0.00e+00	0	39	0	257949696	62	4277
2026-01-21 11:20:58.74	210.36	14.97	-45.5	-46.7	20.5	0.00e+00	0	39	0	260046848	62	4190
2026-01-21 11:20:59.75	210.48	15.05	-45.6	-46.9	20.4	0.00e+00	0	40	0	262144000	62	4275
2026-01-21 11:21:00.75	210.61	15.14	-45.7	-47.0	20.3	0.00e+00	0	40	0	264241152	62	4321
2026-01-21 11:21:01.76	210.73	15.23	-45.7	-47.0	20.4	0.00e+00	0	40	0	265289728	62	4328
2026-01-21 11:21:02.77	210.86	15.32	-45.8	-47.1	20.3	0.00e+00	0	40	0	267386880	62	4384
2026-01-21 11:21:03.78	210.98	15.41	-45.8	-47.2	20.3	0.00e+00	0	39	0	269484032	62	4394
2026-01-21 11:21:04.79	211.11	15.50	-45.9	-47.2	20.2	0.00e+00	0	40	0	271581184	62	4429
2026-01-21 11:21:05.79	211.24	15.59	-45.9	-47.2	20.2	0.00e+00	0	40	0	273678336	62	4435
2026-01-21 11:21:06.80	211.37	15.68	-46.0	-47.4	20.1	0.00e+00	0	40	0	274726912	62	4509
2026-01-21 11:21:07.81	211.50	15.77	-46.0	-47.4	20.1	0.00e+00	0	40	0	276824064	62	4510
2026-01-21 11:21:08.82	211.63	15.86	-46.2	-47.6	19.9	0.00e+00	0	40	0	278921216	62	4613
2026-01-21 11:21:09.83	211.76	15.95	-46.2	-47.6	19.9	0.00e+00	0	39	0	281018368	63	4344
2026-01-21 11:21:10.83	211.89	16.04	-46.3	-47.7	19.7	0.00e+00	0	40	0	283115520	63	4419
2026-01-21 11:21:11.84	212.02	16.13	-46.3	-47.7	19.7	0.00e+00	0	39	0	284164096	63	4437
2026-01-21 11:21:12.85	212.16	16.22	-46.4	-47.8	19.7	0.00e+00	0	40	0	286261248	63	4492
2026-01-21 11:21:13.86	212.29	16.31	-46.4	-47.8	19.7	0.00e+00	0	40	0	288358400	63	4469
2026-01-21 11:21:14.87	212.43	16.40	-46.5	-48.0	19.5	0.00e+00	0	39	0	290455552	63	4559
2026-01-21 11:21:15.88	212.56	16.49	-46.5	-48.0	19.6	0.00e+00	0	40	0	292552704	63	4556
2026-01-21 11:21:16.88	212.70	16.58	-46.4	-47.8	19.7	0.00e+00	0	40	0	293601280	63	4482
2026-01-21 11:21:17.89	212.83	16.67	-46.5	-47.9	19.6	0.00e+00	0	40	0	295698432	63	4518
2026-01-21 11:21:18.90	212.97	16.77	-46.4	-47.8	19.7	0.00e+00	0	40	0	297795584	63	4454
2026-01-21 11:21:19.91	213.11	16.86	-46.3	-47.7	19.8	0.00e+00	0	40	0	299892736	63	4409
2026-01-21 11:21:20.92	213.25	16.95	-46.3	-47.7	19.8	0.00e+00	0	40	0	301989888	63	4409
2026-01-21 11:21:21.92	213.39	17.04	-46.3	-47.7	19.8	0.00e+00	0	40	0	304087040	63	4403
2026-01-21 11:21:22.93	213.53	17.14	-46.3	-47.7	19.8	0.00e+00	0	40	0	305135616	63	4423
2026-01-21 11:21:23.94	213.67	17.23	-46.2	-47.6	19.9	0.00e+00	0	40	0	307232768	63	4362
2026-01-21 11:21:24.95	213.82	17.32	-46.3	-47.7	19.8	0.00e+00	0	40	0	309329920	63	4399
2026-01-21 11:21:25.95	213.96	17.41	-46.4	-47.8	19.7	0.00e+00	0	40	0	311427072	63	4491
2026-01-21 11:21:26.96	214.11	17.51	-46.4	-47.8	19.7	0.00e+00	0	40	0	312475648	63	4479
2026-01-21 11:21:27.97	214.25	17.60	-46.5	-47.9	19.6	0.00e+00	0	40	0	314572800	63	4516
2026-01-21 11:21:28.98	214.40	17.70	-46.4	-47.8	19.7	0.00e+00	0	40	0	316669952	63	4483
2026-01-21 11:21:29.98	214.54	17.79	-46.4	-47.8	19.7	0.00e+00	0	40	0	318767104	63	4476
2026-01-21 11:21:30.99	214.69	17.88	-46.4	-47.8	19.7	0.00e+00	0	39	0	320864256	63	4468
2026-01-21 11:21:32.00	214.84	17.98	-46.4	-47.8	19.7	0.00e+00	0	40	0	321912832	63	4474
2026-01-21 11:21:33.01	214.99	18.07	-46.4	-47.8	19.7	0.00e+00	0	40	0	324009984	63	4467
2026-01-21 11:21:34.01	215.14	18.17	-46.4	-47.8	19.7	0.00e+00	0	40	0	326107136	63	4482
2026-01-21 11:21:35.02	215.30	18.26	-46.4	-47.8	19.7	0.00e+00	0	40	0	328204288	63	4490
2026-01-21 11:21:36.03	215.45	18.36	-46.5	-47.9	19.7	0.00e+00	0	40	0	330301440	63	4513
2026-01-21 11:21:37.04	215.60	18.45	-46.5	-47.9	19.6	0.00e+00	0	40	0	332398592	63	4521
2026-01-21 11:21:38.05	215.76	18.55	-46.5	-48.0	19.6	0.00e+00	0	40	0	333447168	63	4569
2026-01-21 11:21:39.05	215.91	18.64	-46.5	-48.0	19.5	0.00e+00	0	40	0	335544320	63	4578
2026-01-21 11:21:40.06	216.07	18.74	-46.5	-47.9	19.6	0.00e+00	0	40	0	337641472	63	4527
2026-01-21 11:21:41.07	216.23	18.83	-46.4	-47.9	19.7	0.00e+00	0	40	0	339738624	63	4508
2026-01-21 11:21:42.08	216.39	18.93	-46.4	-47.8	19.7	0.00e+00	0	39	0	340787200	63	4478
2026-01-21 11:21:43.09	216.54	19.03	-46.3	-47.7	19.8	0.00e+00	0	40	0	342884352	63	4426
2026-01-21 11:21:44.09	216.70	19.12	-46.4	-47.8	19.7	0.00e+00	0	40	0	344981504	63	4485
2026-01-21 11:21:45.10	216.87	19.22	-46.4	-47.8	19.8	0.00e+00	0	40	0	347078656	63	4454
2026-01-21 11:21:46.11	217.03	19.32	-46.1	-47.5	20.1	0.00e+00	0	40	0	349175808	63	4295
2026-01-21 11:21:47.12	217.19	19.41	-46.0	-47.3	20.2	0.00e+00	0	39	0	351272960	63	4215
2026-01-21 11:21:48.12	217.36	19.51	-46.0	-47.4	20.2	0.00e+00	0	40	0	352321536	63	4248
2026-01-21 11:21:49.13	217.52	19.61	-46.1	-47.5	20.1	0.00e+00	0	40	0	354418688	63	4300
2026-01-21 11:21:50.14	217.69	19.70	-46.0	-47.3	20.2	0.00e+00	0	40	0	356515840	63	4223
2026-01-21 11:21:51.15	217.86	19.80	-46.0	-47.3	20.3	0.00e+00	0	40	0	358612992	63	4218
2026-01-21 11:21:52.16	218.02	19.90	-46.0	-47.3	20.2	0.00e+00	0	40	0	360710144	63	4229
2026-01-21 11:21:53.16	218.19	20.00	-46.0	-47.4	20.2	0.00e+00	0	40	0	361758720	63	4244
2026-01-21 11:21:54.17	218.36	20.09	-46.0	-47.3	20.3	0.00e+00	0	40	0	363855872	63	4214
2026-01-21 11:21:55.18	218.54	20.19	-45.9	-47.2	20.4	0.00e+00	0	40	0	365953024	63	4158
2026-01-21 11:21:56.19	218.71	20.29	-45.8	-47.1	20.4	0.00e+00	0	40	0	368050176	63	4136
2026-01-21 11:21:57.20	218.88	20.39	-45.8	-47.1	20.5	0.00e+00	0	40	0	369098752	63	4102
2026-01-21 11:21:58.21	219.06	20.49	-45.7	-47.0	20.5	0.00e+00	0	40	0	371195904	63	4090
2026-01-21 11:21:59.21	219.23	20.58	-45.7	-47.0	20.6	0.00e+00	0	40	0	373293056	63	4073
2026-01-21 11:22:00.22	219.41	20.68	-45.7	-47.0	20.6	0.00e+00	0	40	0	375390208	63	4052
2026-01-21 11:22:01.23	219.59	20.78	-45.5	-46.8	20.8	0.00e+00	0	40	0	377487360	63	3973
2026-01-21 11:22:02.24	219.77	20.88	-45.6	-46.8	20.7	0.00e+00	0	40	0	379584512	63	3988
2026-01-21 11:22:03.24	219.95	20.98	-45.5	-46.7	20.8	0.00e+00	0	40	0	380633088	62	4186
2026-01-21 11:22:04.25	220.13	21.08	-45.5	-46.7	20.9	0.00e+00	0	40	0	382730240	62	4165
2026-01-21 11:22:05.26	220.31	21.18	-45.4	-46.7	20.9	0.00e+00	0	40	0	384827392	62	4161
2026-01-21 11:22:06.27	220.50	21.28	-45.3	-46.5	21.0	0.00e+00	0	40	0	386924544	62	4072
2026-01-21 11:22:07.28	220.68	21.38	-45.2	-46.4	21.1	0.00e+00	0	40	0	389021696	62	4048
2026-01-21 11:22:08.29	220.87	21.48	-45.3	-46.5	21.1	0.00e+00	0	40	0	390070272	62	4076
2026-01-21 11:22:09.29	221.05	21.57	-45.2	-46.4	21.1	0.00e+00	0	40	0	392167424	62	4028
2026-01-21 11:22:10.30	221.24	21.67	-45.2	-46.4	21.2	0.00e+00	0	40	0	394264576	62	4017
2026-01-21 11:22:11.31	221.43	21.77	-44.9	-46.1	21.4	0.00e+00	0	40	0	396361728	61	4119
2026-01-21 11:22:12.32	221.62	21.87	-44.9	-46.1	21.4	0.00e+00	0	40	0	397410304	61	4102
2026-01-21 11:22:13.32	221.81	21.97	-44.8	-45.9	21.6	0.00e+00	0	40	0	399507456	61	4035
2026-01-21 11:22:14.33	222.01	22.07	-44.8	-45.9	21.6	0.00e+00	0	40	0	401604608	61	4023
2026-01-21 11:22:15.34	222.20	22.17	-44.8	-46.0	21.5	0.00e+00	0	40	0	403701760	61	4070
2026-01-21 11:22:16.35	222.40	22.27	-44.8	-46.0	21.5	0.00e+00	0	40	0	405798912	61	4067
2026-01-21 11:22:17.35	222.59	22.37	-44.8	-45.9	21.6	0.00e+00	0	40	0	407896064	61	4023
2026-01-21 11:22:18.36	222.79	22.47	-44.5	-45.6	21.9	0.00e+00	0	40	0	408944640	61	3888
2026-01-21 11:22:19.37	222.99	22.57	-44.4	-45.5	22.0	0.00e+00	0	40	0	411041792	60	4055
2026-01-21 11:22:20.38	223.19	22.67	-44.3	-45.4	22.1	0.00e+00	0	40	0	413138944	60	4031
2026-01-21 11:22:21.38	223.39	22.77	-44.3	-45.4	22.1	0.00e+00	0	40	0	415236096	60	4011
2026-01-21 11:22:22.39	223.60	22.87	-44.2	-45.2	22.3	0.00e+00	0	40	0	417333248	60	3938
2026-01-21 11:22:23.40	223.80	22.97	-44.3	-45.4	22.4	0.00e+00	0	40	0	418381824	59	4246
2026-01-21 11:22:24.41	224.01	23.07	-44.3	-45.4	22.3	0.00e+00	0	40	0	420478976	59	4270
2026-01-21 11:22:25.42	224.21	23.17	-44.2	-45.2	22.5	0.00e+00	0	40	0	422576128	59	4181
2026-01-21 11:22:26.43	224.42	23.28	-44.2	-45.2	22.5	0.00e+00	0	40	0	424673280	59	4186
2026-01-21 11:22:27.43	224.63	23.37	-44.0	-45.0	22.7	0.00e+00	0	40	0	426770432	59	4065
2026-01-21 11:22:28.44	224.84	23.48	-43.9	-44.9	22.8	0.00e+00	0	40	0	427819008	59	4038
2026-01-21 11:22:29.45	225.05	23.58	-43.7	-44.7	23.0	0.00e+00	0	40	0	429916160	59	3946
2026-01-21 11:22:30.46	225.27	23.68	-43.8	-44.8	22.9	0.00e+00	0	39	0	432013312	59	3977
2026-01-21 11:22:31.46	225.48	23.78	-43.7	-44.7	23.0	0.00e+00	0	40	0	434110464	59	3937
2026-01-21 11:22:32.47	225.70	23.88	-43.7	-44.7	23.0	0.00e+00	0	40	0	436207616	59	3939
2026-01-21 11:22:33.48	225.92	23.98	-43.8	-44.8	22.9	0.00e+00	0	40	0	437256192	59	3995
2026-01-21 11:22:34.49	226.14	24.08	-43.9	-44.9	22.8	0.00e+00	0	40	0	439353344	59	4051
2026-01-21 11:22:35.49	226.35	24.18	-44.1	-45.1	22.7	0.00e+00	0	40	0	441450496	59	4118
2026-01-21 11:22:36.50	226.58	24.28	-44.2	-45.2	22.6	0.00e+00	0	40	0	443547648	59	4180
2026-01-21 11:22:37.51	226.80	24.38	-44.3	-45.3	22.5	0.00e+00	0	40	0	445644800	59	4219
2026-01-21 11:22:38.52	227.02	24.48	-44.3	-45.3	22.4	0.00e+00	0	40	0	447741952	59	4237
2026-01-21 11:22:39.53	227.25	24.58	-44.2	-45.2	22.6	0.00e+00	0	40	0	448790528	59	4156
2026-01-21 11:22:40.54	227.48	24.68	-44.2	-45.3	22.5	0.00e+00	0	40	0	450887680	59	4212
2026-01-21 11:22:41.55	227.71	24.78	-44.2	-45.2	22.5	0.00e+00	0	40	0	452984832	59	4191
2026-01-21 11:22:42.55	227.94	24.88	-44.4	-45.5	22.3	0.00e+00	0	40	0	455081984	59	4308
2026-01-21 11:22:43.56	228.17	24.98	-44.5	-45.6	22.2	0.00e+00	0	40	0	456130560	59	4342
2026-01-21 11:22:44.56	228.40	25.07	-44.7	-45.8	22.0	0.00e+00	0	40	0	458227712	59	4461
2026-01-21 11:22:45.57	228.63	25.17	-44.4	-45.5	22.0	0.00e+00	0	40	0	460324864	60	4070
2026-01-21 11:22:46.58	228.87	25.27	-44.4	-45.5	22.1	0.00e+00	0	40	0	462422016	60	4056
2026-01-21 11:22:47.59	229.11	25.37	-44.4	-45.5	22.0	0.00e+00	0	40	0	464519168	60	4069
2026-01-21 11:22:48.60	229.35	25.47	-44.4	-45.5	22.1	0.00e+00	0	40	0	465567744	60	4056
2026-01-21 11:22:49.60	229.58	25.57	-44.5	-45.6	21.9	0.00e+00	0	40	0	467664896	60	4119
2026-01-21 11:22:50.61	229.83	25.67	-44.7	-45.8	21.8	0.00e+00	0	40	0	469762048	60	4214
2026-01-21 11:22:51.62	230.07	25.77	-44.8	-46.0	21.6	0.00e+00	0	40	0	471859200	60	4300
2026-01-21 11:22:52.63	230.31	25.87	-44.9	-46.1	21.5	0.00e+00	0	40	0	473956352	60	4352
2026-01-21 11:22:53.64	230.56	25.96	-45.0	-46.2	21.4	0.00e+00	0	40	0	476053504	60	4409
2026-01-21 11:22:54.64	230.81	26.06	-45.1	-46.3	21.3	0.00e+00	0	40	0	477102080	60	4443
2026-01-21 11:22:55.65	231.06	26.16	-45.1	-46.3	21.3	0.00e+00	0	40	0	479199232	60	4446
2026-01-21 11:22:56.66	231.31	26.26	-45.1	-46.3	21.3	0.00e+00	0	40	0	481296384	60	4468
2026-01-21 11:22:57.67	231.56	26.35	-45.2	-46.4	21.2	0.00e+00	0	40	0	483393536	61	4248
2026-01-21 11:22:58.68	231.81	26.45	-45.2	-46.4	21.2	0.00e+00	0	40	0	484442112	61	4262
2026-01-21 11:22:59.68	232.07	26.55	-45.4	-46.7	20.9	0.00e+00	0	40	0	486539264	61	4407
2026-01-21 11:23:00.69	232.32	26.64	-45.5	-46.7	20.9	0.00e+00	0	40	0	488636416	61	4441
2026-01-21 11:23:01.70	232.58	26.74	-45.8	-47.1	20.6	0.00e+00	0	40	0	490733568	62	4342
2026-01-21 11:23:02.71	232.84	26.84	-46.0	-47.3	20.4	0.00e+00	0	40	0	492830720	62	4477
2026-01-21 11:23:03.71	233.10	26.93	-46.3	-47.7	20.0	0.00e+00	0	40	0	493879296	63	4405
2026-01-21 11:23:04.72	233.36	27.03	-46.3	-47.7	20.0	0.00e+00	0	40	0	495976448	63	4415
2026-01-21 11:23:05.73	233.63	27.12	-46.2	-47.6	20.1	0.00e+00	0	40	0	498073600	63	4369
2026-01-21 11:23:06.74	233.89	27.22	-46.2	-47.6	20.1	0.00e+00	0	40	0	500170752	63	4356
2026-01-21 11:23:07.74	234.16	27.31	-46.2	-47.5	20.2	0.00e+00	0	40	0	502267904	63	4337
2026-01-21 11:23:08.75	234.43	27.41	-46.1	-47.4	20.3	0.00e+00	0	40	0	504365056	63	4264
2026-01-21 11:23:09.76	234.70	27.50	-45.9	-47.2	20.5	0.00e+00	0	40	0	505413632	63	4167
2026-01-21 11:23:10.77	234.97	27.59	-45.9	-47.2	20.4	0.00e+00	0	40	0	507510784	63	4188
2026-01-21 11:23:11.78	235.25	27.69	-46.0	-47.4	20.3	0.00e+00	0	40	0	509607936	63	4244
2026-01-21 11:23:12.79	235.52	27.78	-46.2	-47.5	20.2	0.00e+00	0	40	0	511705088	63	4314
2026-01-21 11:23:13.79	235.80	27.87	-46.3	-47.7	20.0	0.00e+00	0	40	0	512753664	63	4413
2026-01-21 11:23:14.80	236.07	27.96	-46.4	-47.8	19.9	0.00e+00	0	40	0	514850816	63	4483
2026-01-21 11:23:15.81	236.35	28.05	-46.7	-48.2	19.6	0.00e+00	0	40	0	516947968	63	4653
2026-01-21 11:23:16.82	236.64	28.15	-46.9	-48.5	19.2	0.00e+00	0	40	0	519045120	64	4548
2026-01-21 11:23:17.82	236.92	28.24	-47.2	-48.8	18.9	0.00e+00	0	40	0	521142272	65	4487
2026-01-21 11:23:18.83	237.20	28.33	-47.4	-49.0	18.6	0.00e+00	0	40	0	523239424	65	4575
2026-01-21 11:23:19.84	237.49	28.42	-47.5	-49.2	18.4	0.00e+00	0	40	0	524288000	65	4685
2026-01-21 11:23:20.85	237.78	28.51	-47.7	-49.4	18.3	0.00e+00	0	40	0	526385152	65	4780
2026-01-21 11:23:21.86	238.07	28.59	-47.7	-49.5	18.2	0.00e+00	0	40	0	528482304	66	4549
2026-01-21 11:23:22.87	238.36	28.68	-48.0	-49.8	18.0	0.00e+00	0	40	0	530579456	66	4724
2026-01-21 11:23:23.87	238.65	28.77	-48.1	-50.0	17.7	0.00e+00	0	40	0	532676608	66	4829
2026-01-21 11:23:24.88	238.94	28.86	-48.3	-50.3	17.4	0.00e+00	0	40	0	533725184	67	4724
2026-01-21 11:23:25.89	239.24	28.94	-48.6	-50.7	17.1	0.00e+00	0	40	0	535822336	67	4930
2026-01-21 11:23:26.90	239.53	29.03	-48.6	-50.7	17.0	0.00e+00	0	40	0	537919488	67	4975
2026-01-21 11:23:27.90	239.83	29.12	-48.9	-51.0	16.8	0.00e+00	0	40	0	540016640	68	4846
2026-01-21 11:23:28.91	240.13	29.20	-48.9	-51.0	16.8	0.00e+00	0	40	0	541065216	68	4856
2026-01-21 11:23:29.92	240.43	29.28	-48.8	-51.0	16.8	0.00e+00	0	40	0	543162368	68	4832
2026-01-21 11:23:30.93	240.74	29.37	-48.6	-50.6	17.3	0.00e+00	0	40	0	545259520	68	4610
2026-01-21 11:23:31.93	241.04	29.45	-48.6	-50.6	17.2	0.00e+00	0	40	0	547356672	68	4608
2026-01-21 11:23:32.94	241.35	29.53	-48.4	-50.4	17.4	0.00e+00	0	40	0	549453824	68	4519
2026-01-21 11:23:33.95	241.65	29.62	-48.7	-50.8	17.1	0.00e+00	0	40	0	551550976	68	4731
2026-01-21 11:23:34.96	241.96	29.70	-48.8	-50.9	16.8	0.00e+00	0	40	0	552599552	68	4812
2026-01-21 11:23:35.97	242.27	29.78	-49.1	-51.3	16.5	0.00e+00	0	40	0	554696704	68	5027
2026-01-21 11:23:36.97	242.58	29.86	-49.0	-51.1	16.7	0.00e+00	0	40	0	556793856	68	4917
2026-01-21 11:23:37.98	242.90	29.94	-48.9	-51.0	16.8	0.00e+00	0	40	0	558891008	68	4840
2026-01-21 11:23:38.99	243.21	30.02	-48.6	-50.6	17.2	0.00e+00	0	40	0	560988160	68	4630
2026-01-21 11:23:40.00	243.53	30.09	-48.4	-50.4	17.4	0.00e+00	0	40	0	562036736	68	4504
2026-01-21 11:23:41.01	243.85	30.17	-48.2	-50.0	17.8	0.00e+00	0	40	0	564133888	68	4332
2026-01-21 11:23:42.01	244.17	30.25	-47.8	-49.5	18.2	0.00e+00	0	40	0	566231040	67	4323
2026-01-21 11:23:43.02	244.49	30.32	-47.6	-49.2	18.4	0.00e+00	0	40	0	568328192	67	4186
2026-01-21 11:23:44.03	244.81	30.40	-47.4	-49.0	18.7	0.00e+00	0	40	0	570425344	66	4318
2026-01-21 11:23:45.04	245.14	30.47	-47.2	-48.8	18.9	0.00e+00	0	40	0	571473920	66	4204
2026-01-21 11:23:46.05	245.46	30.55	-47.2	-48.7	19.0	0.00e+00	0	40	0	573571072	66	4190
2026-01-21 11:23:47.05	245.79	30.62	-47.3	-48.9	18.8	0.00e+00	0	40	0	575668224	66	4270
2026-01-21 11:23:48.06	246.12	30.69	-47.4	-49.0	18.7	0.00e+00	0	40	0	577765376	66	4316
2026-01-21 11:23:49.07	246.45	30.76	-47.5	-49.2	18.5	0.00e+00	0	40	0	579862528	66	4419
2026-01-21 11:23:50.08	246.78	30.83	-47.6	-49.2	18.5	0.00e+00	0	40	0	580911104	66	4440
2026-01-21 11:23:51.09	247.11	30.90	-47.4	-49.1	18.7	0.00e+00	0	40	0	583008256	66	4344
2026-01-21 11:23:52.09	247.44	30.97	-47.2	-48.8	18.9	0.00e+00	0	40	0	585105408	66	4211
2026-01-21 11:23:53.10	247.78	31.03	-46.9	-48.4	19.3	0.00e+00	0	40	0	587202560	65	4257
2026-01-21 11:23:54.11	248.12	31.10	-46.8	-48.2	19.5	0.00e+00	0	40	0	589299712	65	4183
2026-01-21 11:23:55.12	248.46	31.17	-46.8	-48.3	19.4	0.00e+00	0	40	0	590348288	65	4197
2026-01-21 11:23:56.13	248.80	31.23	-47.0	-48.5	19.2	0.00e+00	0	40	0	592445440	65	4316
2026-01-21 11:23:57.13	249.13	31.29	-47.4	-49.1	18.6	0.00e+00	0	40	0	594542592	65	4613
2026-01-21 11:23:58.14	249.48	31.36	-48.0	-49.8	17.9	0.00e+00	0	40	0	596639744	66	4740
2026-01-21 11:23:59.15	249.82	31.42	-48.4	-50.4	17.3	0.00e+00	0	40	0	598736896	67	4810
2026-01-21 11:24:00.16	250.17	31.48	-48.5	-50.5	17.2	0.00e+00	0	40	0	599785472	67	4855
2026-01-21 11:24:01.17	250.51	31.54	-48.3	-50.2	17.5	0.00e+00	0	40	0	601882624	67	4686
2026-01-21 11:24:02.17	250.86	31.60	-48.1	-49.9	17.9	0.00e+00	0	40	0	603979776	67	4524
2026-01-21 11:24:03.18	251.21	31.65	-47.7	-49.5	18.3	0.00e+00	0	40	0	606076928	67	4302
2026-01-21 11:24:04.19	251.56	31.71	-47.4	-49.0	18.7	0.00e+00	0	40	0	608174080	66	4315
2026-01-21 11:24:05.20	251.91	31.77	-47.4	-49.0	18.7	0.00e+00	0	40	0	609222656	66	4316
2026-01-21 11:24:06.21	252.26	31.82	-47.4	-49.1	18.7	0.00e+00	0	40	0	611319808	66	4355
2026-01-21 11:24:07.21	252.61	31.87	-47.4	-49.1	18.7	0.00e+00	0	40	0	613416960	66	4350
2026-01-21 11:24:08.22	252.96	31.93	-47.4	-49.1	18.6	0.00e+00	0	40	0	615514112	66	4358
2026-01-21 11:24:09.23	253.32	31.98	-47.5	-49.2	18.6	0.00e+00	0	40	0	617611264	66	4421
2026-01-21 11:24:10.24	253.68	32.03	-47.7	-49.4	18.3	0.00e+00	0	40	0	618659840	66	4506
2026-01-21 11:24:11.25	254.04	32.08	-47.8	-49.6	18.1	0.00e+00	0	40	0	620756992	66	4607
2026-01-21 11:24:12.26	254.39	32.12	-47.7	-49.5	18.3	0.00e+00	0	40	0	622854144	66	4550
2026-01-21 11:24:13.26	254.75	32.17	-47.7	-49.5	18.3	0.00e+00	0	40	0	624951296	66	4563
2026-01-21 11:24:14.27	255.11	32.22	-47.6	-49.3	18.5	0.00e+00	0	40	0	627048448	66	4444
2026-01-21 11:24:15.28	255.47	32.26	-47.4	-49.0	18.7	0.00e+00	0	40	0	628097024	66	4317
2026-01-21 11:24:16.29	255.84	32.30	-47.5	-49.1	18.6	0.00e+00	0	40	0	630194176	66	4380
2026-01-21 11:24:17.30	256.20	32.34	-47.7	-49.5	18.3	0.00e+00	0	40	0	632291328	66	4555
2026-01-21 11:24:18.31	256.57	32.39	-47.8	-49.6	18.2	0.00e+00	0	40	0	634388480	66	4611
2026-01-21 11:24:19.31	256.93	32.42	-48.0	-49.8	18.0	0.00e+00	0	40	0	636485632	66	4724
2026-01-21 11:24:20.32	257.29	32.46	-47.9	-49.7	18.1	0.00e+00	0	40	0	638582784	66	4675
2026-01-21 11:24:21.33	257.66	32.50	-47.9	-49.7	18.0	0.00e+00	0	40	0	639631360	66	4700
2026-01-21 11:24:22.34	258.03	32.54	-47.8	-49.6	18.2	0.00e+00	0	40	0	641728512	66	4615
2026-01-21 11:24:23.35	258.40	32.57	-47.7	-49.3	18.4	0.00e+00	0	40	0	643825664	66	4492
2026-01-21 11:24:24.35	258.76	32.60	-47.6	-49.3	18.4	0.00e+00	0	40	0	645922816	66	4460
2026-01-21 11:24:25.36	259.14	32.64	-47.4	-49.1	18.7	0.00e+00	0	40	0	646971392	66	4351
2026-01-21 11:24:26.37	259.51	32.67	-47.3	-48.8	18.9	0.00e+00	0	40	0	649068544	66	4240
2026-01-21 11:24:27.38	259.88	32.70	-47.3	-48.8	18.9	0.00e+00	0	40	0	651165696	66	4237
2026-01-21 11:24:28.38	260.25	32.72	-47.1	-48.6	19.1	0.00e+00	0	40	0	653262848	66	4124
2026-01-21 11:24:29.39	260.62	32.75	-47.4	-49.0	18.7	0.00e+00	0	40	0	655360000	66	4332
2026-01-21 11:24:30.40	260.99	32.78	-47.5	-49.2	18.5	0.00e+00	0	40	0	656408576	66	4421
2026-01-21 11:24:31.41	261.37	32.80	-47.7	-49.4	18.4	0.00e+00	0	40	0	658505728	66	4505
2026-01-21 11:24:32.42	261.74	32.82	-47.8	-49.5	18.3	0.00e+00	0	40	0	660602880	66	4579
2026-01-21 11:24:33.43	262.12	32.85	-47.8	-49.5	18.3	0.00e+00	0	40	0	662700032	66	4571
2026-01-21 11:24:34.44	262.49	32.87	-47.6	-49.3	18.5	0.00e+00	0	40	0	664797184	66	4474
2026-01-21 11:24:35.45	262.87	32.89	-47.7	-49.4	18.3	0.00e+00	0	40	0	666894336	66	4534
2026-01-21 11:24:36.45	263.24	32.90	-47.8	-49.5	18.3	0.00e+00	0	40	0	667942912	66	4589
2026-01-21 11:24:37.46	263.62	32.92	-48.1	-49.9	17.9	0.00e+00	0	40	0	670040064	66	4798
2026-01-21 11:24:38.46	263.99	32.94	-48.2	-50.1	17.7	0.00e+00	0	40	0	672137216	67	4601
2026-01-21 11:24:39.47	264.37	32.95	-48.1	-50.0	17.8	0.00e+00	0	40	0	674234368	67	4555
2026-01-21 11:24:40.48	264.75	32.96	-48.2	-50.1	17.7	0.00e+00	0	40	0	675282944	67	4611
2026-01-21 11:24:41.49	265.13	32.97	-48.0	-49.8	17.9	0.00e+00	0	40	0	677380096	67	4493
2026-01-21 11:24:42.50	265.51	32.98	-47.9	-49.6	18.1	0.00e+00	0	40	0	679477248	67	4387
2026-01-21 11:24:43.51	265.88	32.99	-47.8	-49.5	18.3	0.00e+00	0	40	0	681574400	67	4322
2026-01-21 11:24:44.51	266.26	33.00	-47.7	-49.4	18.3	0.00e+00	0	40	0	683671552	67	4288
2026-01-21 11:24:45.52	266.64	33.00	-47.6	-49.3	18.5	0.00e+00	0	40	0	685768704	67	4196
2026-01-21 11:24:46.53	267.02	33.01	-47.7	-49.4	18.4	0.00e+00	0	40	0	686817280	67	4246
2026-01-21 11:24:47.54	267.40	33.01	-47.7	-49.5	18.4	0.00e+00	0	40	0	688914432	67	4294
2026-01-21 11:24:48.55	267.78	33.01	-47.7	-49.4	18.3	0.00e+00	0	40	0	691011584	67	4290
2026-01-21 11:24:49.56	268.15	33.01	-47.6	-49.3	18.5	0.00e+00	0	40	0	693108736	67	4202
2026-01-21 11:24:50.57	268.53	33.01	-47.6	-49.3	18.5	0.00e+00	0	40	0	695205888	67	4224
2026-01-21 11:24:51.57	268.91	33.01	-47.4	-49.0	18.8	0.00e+00	0	40	0	696254464	66	4318
2026-01-21 11:24:52.58	269.29	33.00	-47.2	-48.8	19.0	0.00e+00	0	40	0	698351616	66	4202
2026-01-21 11:24:53.59	269.67	33.00	-47.1	-48.7	19.1	0.00e+00	0	40	0	700448768	66	4154
2026-01-21 11:24:54.60	270.05	32.99	-47.3	-48.9	18.9	0.00e+00	0	40	0	702545920	66	4254
2026-01-21 11:24:55.61	270.42	32.99	-47.6	-49.3	18.5	0.00e+00	0	40	0	703594496	66	4473
2026-01-21 11:24:56.61	270.80	32.98	-48.0	-49.8	18.0	0.00e+00	0	40	0	705691648	66	4710
2026-01-21 11:24:57.62	271.18	32.97	-48.1	-49.9	17.9	0.00e+00	0	40	0	707788800	66	4768
2026-01-21 11:24:58.63	271.55	32.95	-48.0	-49.8	18.0	0.00e+00	0	40	0	709885952	66	4735
2026-01-21 11:24:59.64	271.93	32.94	-47.9	-49.6	18.2	0.00e+00	0	40	0	711983104	66	4631
2026-01-21 11:25:00.64	272.31	32.93	-47.7	-49.4	18.3	0.00e+00	0	40	0	714080256	66	4538
2026-01-21 11:25:01.65	272.68	32.91	-47.3	-48.9	18.9	0.00e+00	0	40	0	715128832	66	4257
2026-01-21 11:25:02.66	273.06	32.89	-47.0	-48.5	19.3	0.00e+00	0	40	0	717225984	65	4297
2026-01-21 11:25:03.66	273.43	32.87	-46.7	-48.1	19.6	0.00e+00	0	40	0	719323136	65	4143
2026-01-21 11:25:04.67	273.81	32.85	-46.6	-48.0	19.7	0.00e+00	0	40	0	721420288	65	4094
2026-01-21 11:25:05.68	274.18	32.83	-46.8	-48.3	19.5	0.00e+00	0	40	0	723517440	65	4217
2026-01-21 11:25:06.69	274.56	32.81	-47.3	-48.9	18.9	0.00e+00	0	40	0	724566016	65	4518
2026-01-21 11:25:07.70	274.93	32.79	-47.8	-49.5	18.3	0.00e+00	0	40	0	726663168	66	4562
2026-01-21 11:25:08.71	275.30	32.76	-47.9	-49.7	18.1	0.00e+00	0	40	0	728760320	66	4680
2026-01-21 11:25:09.71	275.67	32.73	-48.2	-50.0	17.9	0.00e+00	0	40	0	730857472	66	4838
2026-01-21 11:25:10.72	276.05	32.71	-48.0	-49.8	18.0	0.00e+00	0	40	0	732954624	66	4732
2026-01-21 11:25:11.73	276.42	32.68	-48.3	-50.2	17.6	0.00e+00	0	40	0	734003200	67	4684
2026-01-21 11:25:12.74	276.79	32.65	-48.3	-50.2	17.6	0.00e+00	0	40	0	736100352	67	4665
2026-01-21 11:25:13.74	277.15	32.62	-48.3	-50.2	17.6	0.00e+00	0	40	0	738197504	67	4683
2026-01-21 11:25:14.75	277.52	32.58	-48.2	-50.0	17.9	0.00e+00	0	40	0	740294656	67	4592
2026-01-21 11:25:15.76	277.89	32.55	-48.2	-50.1	17.7	0.00e+00	0	40	0	742391808	67	4621
2026-01-21 11:25:16.77	278.26	32.51	-48.3	-50.2	17.7	0.00e+00	0	40	0	743440384	67	4652
2026-01-21 11:25:17.78	278.63	32.48	-48.4	-50.4	17.5	0.00e+00	0	40	0	745537536	67	4763
2026-01-21 11:25:18.79	278.99	32.44	-48.4	-50.3	17.6	0.00e+00	0	40	0	747634688	67	4711
2026-01-21 11:25:19.79	279.36	32.40	-48.4	-50.3	17.5	0.00e+00	0	40	0	749731840	67	4741
2026-01-21 11:25:20.80	279.72	32.36	-48.5	-50.5	17.4	0.00e+00	0	40	0	751828992	67	4831
2026-01-21 11:25:21.81	280.09	32.32	-48.5	-50.5	17.4	0.00e+00	0	40	0	752877568	67	4832
2026-01-21 11:25:22.82	280.45	32.27	-48.4	-50.3	17.5	0.00e+00	0	40	0	754974720	67	4732
2026-01-21 11:25:23.82	280.81	32.23	-48.5	-50.4	17.4	0.00e+00	0	40	0	757071872	67	4809
2026-01-21 11:25:24.83	281.17	32.19	-48.6	-50.6	17.2	0.00e+00	0	40	0	759169024	67	4920
2026-01-21 11:25:25.84	281.53	32.14	-48.8	-50.9	17.1	0.00e+00	0	40	0	761266176	68	4778
2026-01-21 11:25:26.85	281.89	32.09	-49.0	-51.1	16.9	0.00e+00	0	40	0	762314752	68	4900
2026-01-21 11:25:27.85	282.24	32.04	-49.1	-51.3	16.7	0.00e+00	0	40	0	764411904	68	4997
2026-01-21 11:25:28.87	282.60	31.99	-49.2	-51.4	16.6	0.00e+00	0	40	0	766509056	68	5072
2026-01-21 11:25:29.87	282.95	31.94	-49.2	-51.4	16.6	0.00e+00	0	40	0	768606208	69	4799
2026-01-21 11:25:30.88	283.31	31.89	-49.1	-51.2	16.8	0.00e+00	0	40	0	770703360	69	4691
2026-01-21 11:25:31.89	283.66	31.84	-48.7	-50.8	17.2	0.00e+00	0	40	0	771751936	69	4449
2026-01-21 11:25:32.90	284.01	31.79	-48.6	-50.5	17.4	0.00e+00	0	40	0	773849088	69	4331
2026-01-21 11:25:33.91	284.36	31.73	-48.2	-50.0	17.9	0.00e+00	0	40	0	775946240	68	4300
2026-01-21 11:25:34.91	284.71	31.68	-47.7	-49.3	18.5	0.00e+00	0	40	0	778043392	67	4239
2026-01-21 11:25:35.92	285.06	31.62	-47.6	-49.3	18.6	0.00e+00	0	40	0	780140544	67	4197
2026-01-21 11:25:36.93	285.41	31.56	-47.2	-48.8	19.1	0.00e+00	0	40	0	782237696	66	4214
2026-01-21 11:25:37.94	285.75	31.50	-47.3	-48.8	19.0	0.00e+00	0	40	0	783286272	66	4228
2026-01-21 11:25:38.95	286.10	31.44	-47.3	-48.9	19.0	0.00e+00	0	40	0	785383424	66	4243
2026-01-21 11:25:39.95	286.44	31.38	-47.6	-49.2	18.7	0.00e+00	0	40	0	787480576	66	4421
2026-01-21 11:25:40.96	286.78	31.32	-47.5	-49.2	18.7	0.00e+00	0	40	0	789577728	66	4392
2026-01-21 11:25:41.97	287.12	31.25	-47.8	-49.4	18.5	0.00e+00	0	40	0	790626304	66	4542
2026-01-21 11:25:42.98	287.46	31.19	-47.8	-49.6	18.3	0.00e+00	0	40	0	792723456	66	4607
2026-01-21 11:25:43.99	287.80	31.13	-47.9	-49.7	18.2	0.00e+00	0	40	0	794820608	66	4672
2026-01-21 11:25:44.99	288.13	31.06	-47.8	-49.5	18.3	0.00e+00	0	40	0	796917760	66	4593
2026-01-21 11:25:46.00	288.47	30.99	-47.8	-49.5	18.4	0.00e+00	0	40	0	799014912	66	4554
2026-01-21 11:25:47.01	288.80	30.93	-47.8	-49.4	18.4	0.00e+00	0	40	0	800063488	66	4544
2026-01-21 11:25:48.02	289.13	30.86	-47.6	-49.3	18.6	0.00e+00	0	40	0	802160640	66	4467
2026-01-21 11:25:49.02	289.46	30.79	-47.5	-49.1	18.7	0.00e+00	0	40	0	804257792	66	4382
2026-01-21 11:25:50.03	289.79	30.72	-47.5	-49.0	18.8	0.00e+00	0	40	0	806354944	66	4339
2026-01-21 11:25:51.04	290.12	30.65	-47.4	-49.0	18.9	0.00e+00	0	40	0	808452096	66	4315
2026-01-21 11:25:52.05	290.45	30.58	-47.4	-49.0	18.9	0.00e+00	0	40	0	810549248	66	4295
2026-01-21 11:25:53.05	290.77	30.50	-47.3	-48.9	19.0	0.00e+00	0	40	0	811597824	66	4252
2026-01-21 11:25:54.06	291.10	30.43	-47.4	-48.9	18.9	0.00e+00	0	40	0	813694976	66	4288
2026-01-21 11:25:55.07	291.42	30.36	-47.7	-49.3	18.6	0.00e+00	0	40	0	815792128	66	4474
2026-01-21 11:25:56.08	291.74	30.28	-47.9	-49.7	18.2	0.00e+00	0	40	0	817889280	66	4659
2026-01-21 11:25:57.09	292.06	30.20	-48.3	-50.1	17.8	0.00e+00	0	40	0	818937856	67	4627
2026-01-21 11:25:58.09	292.38	30.13	-48.5	-50.5	17.4	0.00e+00	0	40	0	821035008	67	4828
2026-01-21 11:25:59.10	292.69	30.05	-48.6	-50.5	17.4	0.00e+00	0	40	0	823132160	67	4857
2026-01-21 11:26:00.11	293.01	29.97	-48.4	-50.3	17.6	0.00e+00	0	40	0	825229312	67	4749
2026-01-21 11:26:01.12	293.32	29.89	-48.2	-50.0	17.9	0.00e+00	0	40	0	827326464	67	4572
2026-01-21 11:26:02.12	293.63	29.82	-48.0	-49.8	18.2	0.00e+00	0	40	0	829423616	67	4469
2026-01-21 11:26:03.13	293.94	29.73	-47.7	-49.3	18.5	0.00e+00	0	40	0	830472192	67	4234
2026-01-21 11:26:04.14	294.25	29.65	-47.7	-49.4	18.6	0.00e+00	0	40	0	832569344	67	4255
2026-01-21 11:26:05.15	294.56	29.57	-47.7	-49.3	18.6	0.00e+00	0	40	0	834666496	67	4224
2026-01-21 11:26:06.15	294.86	29.49	-47.5	-49.1	18.8	0.00e+00	0	40	0	836763648	67	4143
2026-01-21 11:26:07.16	295.17	29.41	-47.6	-49.2	18.7	0.00e+00	0	40	0	838860800	67	4186
2026-01-21 11:26:08.17	295.47	29.33	-47.8	-49.5	18.5	0.00e+00	0	40	0	839909376	67	4308
2026-01-21 11:26:09.18	295.77	29.24	-48.0	-49.7	18.2	0.00e+00	0	40	0	842006528	67	4430
2026-01-21 11:26:10.19	296.07	29.16	-48.0	-49.8	18.1	0.00e+00	0	40	0	844103680	67	4472
2026-01-21 11:26:11.19	296.37	29.07	-48.0	-49.8	18.1	0.00e+00	0	40	0	846200832	67	4463
2026-01-21 11:26:12.20	296.67	28.99	-48.1	-49.9	18.0	0.00e+00	0	40	0	847249408	67	4523
2026-01-21 11:26:13.21	296.96	28.90	-48.3	-50.1	17.8	0.00e+00	0	40	0	849346560	67	4646
2026-01-21 11:26:14.22	297.26	28.81	-48.4	-50.3	17.6	0.00e+00	0	40	0	851443712	67	4729
2026-01-21 11:26:15.23	297.55	28.73	-48.4	-50.4	17.6	0.00e+00	0	40	0	853540864	67	4762
2026-01-21 11:26:16.24	297.84	28.64	-48.2	-50.1	17.8	0.00e+00	0	40	0	855638016	67	4618
2026-01-21 11:26:17.25	298.13	28.55	-48.1	-49.9	18.0	0.00e+00	0	40	0	857735168	67	4509
2026-01-21 11:26:18.25	298.41	28.46	-47.9	-49.7	18.2	0.00e+00	0	40	0	858783744	67	4399
2026-01-21 11:26:19.26	298.70	28.37	-47.9	-49.6	18.3	0.00e+00	0	40	0	860880896	67	4359
2026-01-21 11:26:20.27	298.98	28.28	-47.6	-49.2	18.6	0.00e+00	0	40	0	862978048	67	4189
2026-01-21 11:26:21.28	299.27	28.19	-47.3	-48.8	19.0	0.00e+00	0	40	0	865075200	66	4226
2026-01-21 11:26:22.29	299.55	28.10	-47.1	-48.7	19.2	0.00e+00	0	40	0	867172352	66	4151
2026-01-21 11:26:23.30	299.83	28.01	-46.9	-48.4	19.5	0.00e+00	0	40	0	868220928	65	4259
2026-01-21 11:26:24.31	300.11	27.92	-46.9	-48.4	19.4	0.00e+00	0	40	0	870318080	65	4272
2026-01-21 11:26:25.31	300.38	27.83	-46.6	-48.0	19.8	0.00e+00	0	40	0	872415232	65	4080
2026-01-21 11:26:26.32	300.66	27.74	-46.4	-47.8	19.9	0.00e+00	0	40	0	874512384	64	4237
2026-01-21 11:26:27.33	300.93	27.64	-46.3	-47.6	20.1	0.00e+00	0	40	0	876609536	64	4139
2026-01-21 11:26:28.34	301.20	27.55	-46.5	-47.9	19.9	0.00e+00	0	40	0	877658112	64	4265
2026-01-21 11:26:29.35	301.47	27.46	-46.7	-48.2	19.6	0.00e+00	0	40	0	879755264	64	4402
2026-01-21 11:26:30.35	301.74	27.36	-46.9	-48.4	19.4	0.00e+00	0	40	0	881852416	64	4528
2026-01-21 11:26:31.36	302.01	27.27	-47.1	-48.6	19.2	0.00e+00	0	40	0	883949568	64	4611
2026-01-21 11:26:32.37	302.27	27.18	-47.3	-48.8	19.0	0.00e+00	0	40	0	886046720	65	4490
2026-01-21 11:26:33.38	302.54	27.08	-47.4	-49.1	18.7	0.00e+00	0	40	0	887095296	65	4601
2026-01-21 11:26:34.38	302.80	26.99	-47.6	-49.3	18.6	0.00e+00	0	40	0	889192448	65	4714
2026-01-21 11:26:35.39	303.06	26.89	-47.5	-49.2	18.6	0.00e+00	0	40	0	891289600	65	4662
2026-01-21 11:26:36.40	303.32	26.80	-47.3	-48.9	18.9	0.00e+00	0	40	0	893386752	65	4517
2026-01-21 11:26:37.41	303.58	26.70	-47.1	-48.7	19.1	0.00e+00	0	40	0	895483904	65	4393
2026-01-21 11:26:38.41	303.83	26.61	-46.8	-48.3	19.5	0.00e+00	0	40	0	896532480	65	4196
2026-01-21 11:26:39.42	304.08	26.51	-46.0	-47.3	20.4	0.00e+00	0	40	0	898629632	64	3991
2026-01-21 11:26:40.43	304.34	26.41	-46.1	-47.4	20.5	0.00e+00	0	40	0	900726784	63	4260
2026-01-21 11:26:41.44	304.59	26.32	-46.4	-47.7	20.1	0.00e+00	0	40	0	902823936	63	4436
2026-01-21 11:26:42.45	304.84	26.22	-46.6	-48.0	19.8	0.00e+00	0	40	0	904921088	63	4565
2026-01-21 11:26:43.45	305.09	26.12	-46.5	-47.9	19.8	0.00e+00	0	40	0	905969664	64	4250
2026-01-21 11:26:44.46	305.34	26.03	-46.2	-47.5	20.2	0.00e+00	0	40	0	908066816	64	4088
2026-01-21 11:26:45.47	305.58	25.93	-46.1	-47.4	20.3	0.00e+00	0	40	0	910163968	64	4034
2026-01-21 11:26:46.48	305.83	25.83	-45.9	-47.2	20.6	0.00e+00	0	40	0	912261120	63	4161
2026-01-21 11:26:47.49	306.07	25.73	-45.9	-47.2	20.6	0.00e+00	0	40	0	914358272	63	4170
2026-01-21 11:26:48.49	306.31	25.64	-46.6	-48.0	19.9	0.00e+00	0	40	0	915406848	63	4579
2026-01-21 11:26:49.50	306.55	25.54	-47.3	-48.9	18.9	0.00e+00	0	40	0	917504000	65	4540
2026-01-21 11:26:50.51	306.79	25.44	-48.1	-50.0	17.9	0.00e+00	0	40	0	919601152	66	4821
2026-01-21 11:26:51.51	307.02	25.34	-48.2	-50.1	17.7	0.00e+00	0	40	0	921698304	67	4614
2026-01-21 11:26:52.52	307.26	25.24	-48.0	-49.8	18.0	0.00e+00	0	40	0	923795456	67	4452
2026-01-21 11:26:53.53	307.49	25.14	-47.7	-49.4	18.3	0.00e+00	0	40	0	924844032	67	4287
2026-01-21 11:26:54.54	307.73	25.04	-47.6	-49.3	18.5	0.00e+00	0	40	0	926941184	67	4210
2026-01-21 11:26:55.55	307.96	24.95	-47.4	-49.0	18.7	0.00e+00	0	40	0	929038336	66	4314
2026-01-21 11:26:56.55	308.19	24.85	-46.9	-48.4	19.3	0.00e+00	0	40	0	931135488	65	4255
2026-01-21 11:26:57.56	308.42	24.75	-47.0	-48.5	19.2	0.00e+00	0	40	0	933232640	65	4325
2026-01-21 11:26:58.57	308.64	24.65	-47.4	-49.0	18.8	0.00e+00	0	40	0	934281216	65	4582
2026-01-21 11:26:59.58	308.87	24.55	-47.1	-48.6	19.1	0.00e+00	0	40	0	936378368	65	4387
2026-01-21 11:27:00.58	309.09	24.45	-46.4	-47.8	19.9	0.00e+00	0	40	0	938475520	64	4218
2026-01-21 11:27:01.59	309.31	24.35	-45.8	-47.1	20.6	0.00e+00	0	40	0	940572672	63	4105
2026-01-21 11:27:02.60	309.54	24.25	-45.7	-46.9	20.8	0.00e+00	0	40	0	942669824	63	4044
2026-01-21 11:27:03.61	309.76	24.15	-45.6	-46.9	20.8	0.00e+00	0	40	0	943718400	63	4013
2026-01-21 11:27:04.61	309.97	24.05	-45.7	-46.9	20.9	0.00e+00	0	40	0	945815552	63	4031
2026-01-21 11:27:05.62	310.19	23.95	-46.3	-47.6	20.2	0.00e+00	0	40	0	947912704	63	4391
2026-01-21 11:27:06.63	310.41	23.85	-46.7	-48.1	19.7	0.00e+00	0	40	0	950009856	63	4635
2026-01-21 11:27:07.64	310.62	23.75	-46.7	-48.1	19.6	0.00e+00	0	40	0	952107008	64	4380
2026-01-21 11:27:08.64	310.84	23.65	-46.6	-48.0	19.7	0.00e+00	0	40	0	953155584	64	4309
2026-01-21 11:27:09.65	311.05	23.55	-46.0	-47.3	20.4	0.00e+00	0	40	0	955252736	63	4228
2026-01-21 11:27:10.66	311.26	23.45	-45.8	-47.0	20.8	0.00e+00	0	40	0	957349888	63	4079
2026-01-21 11:27:11.67	311.47	23.35	-45.6	-46.9	20.9	0.00e+00	0	40	0	959447040	63	4013
2026-01-21 11:27:12.68	311.68	23.25	-45.8	-47.0	20.7	0.00e+00	0	40	0	961544192	63	4083
2026-01-21 11:27:13.68	311.88	23.16	-46.2	-47.5	20.3	0.00e+00	0	40	0	962592768	63	4308
2026-01-21 11:27:14.69	312.09	23.06	-46.6	-48.0	19.7	0.00e+00	0	40	0	964689920	63	4592
2026-01-21 11:27:15.70	312.29	22.96	-46.7	-48.2	19.5	0.00e+00	0	40	0	966787072	64	4423
2026-01-21 11:27:16.71	312.50	22.86	-46.7	-48.2	19.5	0.00e+00	0	40	0	968884224	64	4416
2026-01-21 11:27:17.72	312.70	22.76	-46.6	-48.0	19.6	0.00e+00	0	40	0	970981376	64	4318
2026-01-21 11:27:18.73	312.90	22.66	-46.3	-47.7	19.9	0.00e+00	0	40	0	973078528	64	4176
2026-01-21 11:27:19.73	313.10	22.56	-45.8	-47.1	20.6	0.00e+00	0	40	0	974127104	63	4112
2026-01-21 11:27:20.74	313.30	22.46	-45.3	-46.5	21.2	0.00e+00	0	40	0	976224256	62	4074
2026-01-21 11:27:21.75	313.49	22.36	-45.3	-46.5	21.2	0.00e+00	0	40	0	978321408	62	4072
2026-01-21 11:27:22.76	313.69	22.26	-45.4	-46.7	21.0	0.00e+00	0	40	0	980418560	62	4150
2026-01-21 11:27:23.76	313.88	22.16	-45.6	-46.8	20.9	0.00e+00	0	40	0	981467136	62	4224
2026-01-21 11:27:24.77	314.08	22.06	-45.6	-46.9	20.8	0.00e+00	0	40	0	983564288	62	4255
2026-01-21 11:27:25.78	314.27	21.96	-45.5	-46.7	21.0	0.00e+00	0	40	0	985661440	62	4176
2026-01-21 11:27:26.79	314.46	21.86	-45.5	-46.7	21.0	0.00e+00	0	40	0	987758592	62	4175
2026-01-21 11:27:27.80	314.65	21.76	-45.2	-46.4	21.3	0.00e+00	0	40	0	989855744	62	4041
2026-01-21 11:27:28.81	314.84	21.66	-45.0	-46.2	21.5	0.00e+00	0	40	0	990904320	62	3928
2026-01-21 11:27:29.81	315.02	21.57	-45.0	-46.2	21.5	0.00e+00	0	40	0	993001472	61	4147
2026-01-21 11:27:30.82	315.21	21.47	-45.2	-46.3	21.3	0.00e+00	0	40	0	995098624	61	4234
2026-01-21 11:27:31.83	315.39	21.37	-45.5	-46.7	21.0	0.00e+00	0	40	0	997195776	61	4409
2026-01-21 11:27:32.84	315.58	21.27	-45.6	-46.9	20.8	0.00e+00	0	40	0	999292928	61	4502
2026-01-21 11:27:33.85	315.76	21.17	-45.7	-47.0	20.6	0.00e+00	0	40	0	1001390080	62	4326
2026-01-21 11:27:34.85	315.94	21.07	-45.8	-47.1	20.6	0.00e+00	0	40	0	1002438656	62	4358
2026-01-21 11:27:35.86	316.12	20.97	-45.8	-47.1	20.6	0.00e+00	0	40	0	1004535808	62	4367
2026-01-21 11:27:36.87	316.30	20.88	-45.4	-46.6	20.9	0.00e+00	0	40	0	1006632960	62	4145
2026-01-21 11:27:37.87	316.48	20.78	-45.1	-46.3	21.3	7.00e-07	0	40	0	1008730112	62	3967
2026-01-21 11:27:38.88	316.66	20.68	-44.7	-45.9	21.7	0.00e+00	0	40	0	1009778688	61	4007
2026-01-21 11:27:39.89	316.83	20.58	-44.7	-45.8	21.8	0.00e+00	0	40	0	1011875840	61	3982
2026-01-21 11:27:40.90	317.01	20.48	-44.9	-46.0	21.6	0.00e+00	0	40	0	1013972992	61	4075
2026-01-21 11:27:41.91	317.18	20.39	-44.6	-45.7	21.8	0.00e+00	0	40	0	1016070144	61	3930
2026-01-21 11:27:42.91	317.35	20.29	-44.7	-45.9	21.7	0.00e+00	0	40	0	1018167296	61	4013
2026-01-21 11:27:43.92	317.53	20.19	-44.6	-45.7	21.9	0.00e+00	0	40	0	1020264448	61	3914
2026-01-21 11:27:44.93	317.70	20.10	-44.6	-45.7	21.8	0.00e+00	0	40	0	1021313024	61	3918
2026-01-21 11:27:45.94	317.87	20.00	-44.4	-45.5	22.0	0.00e+00	0	40	0	1023410176	60	4089
2026-01-21 11:27:46.95	318.03	19.90	-44.4	-45.5	21.9	0.00e+00	0	40	0	1025507328	60	4055
2026-01-21 11:27:47.95	318.20	19.80	-44.2	-45.3	22.2	0.00e+00	0	40	0	1027604480	60	3978
2026-01-21 11:27:48.96	318.37	19.71	-44.3	-45.4	22.1	0.00e+00	0	40	0	1029701632	60	4020
2026-01-21 11:27:49.97	318.53	19.61	-44.2	-45.3	22.2	0.00e+00	0	40	0	1030750208	60	3966
2026-01-21 11:27:50.98	318.70	19.51	-44.3	-45.4	22.1	0.00e+00	0	40	0	1032847360	60	4029
2026-01-21 11:27:51.99	318.86	19.42	-44.4	-45.5	21.9	0.00e+00	0	40	0	1034944512	60	4056
2026-01-21 11:27:52.99	319.02	19.32	-44.4	-45.5	22.0	0.00e+00	0	40	0	1037041664	60	4064
2026-01-21 11:27:54.00	319.19	19.23	-44.5	-45.6	21.8	0.00e+00	0	40	0	1038090240	60	4129
2026-01-21 11:27:55.01	319.35	19.13	-44.7	-45.8	21.7	0.00e+00	0	40	0	1040187392	60	4206
2026-01-21 11:27:56.02	319.51	19.04	-44.8	-45.9	21.6	0.00e+00	0	40	0	1042284544	60	4263
2026-01-21 11:27:57.02	319.66	18.94	-44.9	-46.0	21.4	0.00e+00	0	40	0	1044381696	60	4337
2026-01-21 11:27:58.03	319.82	18.85	-45.0	-46.2	21.3	0.00e+00	0	40	0	1046478848	60	4404
2026-01-21 11:27:59.04	319.98	18.75	-45.0	-46.1	21.4	0.00e+00	0	40	0	1048576000	60	4380
2026-01-21 11:28:00.05	320.13	18.65	-45.0	-46.2	21.3	0.00e+00	0	40	0	1049624576	60	4412
2026-01-21 11:28:01.05	320.29	18.56	-44.8	-46.0	21.5	0.00e+00	0	40	0	1051721728	60	4293
2026-01-21 11:28:02.06	320.44	18.47	-44.8	-46.0	21.5	0.00e+00	0	40	0	1053818880	60	4294
2026-01-21 11:28:03.07	320.60	18.37	-44.7	-45.9	21.6	0.00e+00	0	40	0	1055916032	60	4243
2026-01-21 11:28:04.08	320.75	18.28	-44.7	-45.9	21.6	0.00e+00	0	40	0	1058013184	60	4259
2026-01-21 11:28:05.09	320.90	18.18	-44.6	-45.7	21.8	0.00e+00	0	40	0	1059061760	60	4150
2026-01-21 11:28:06.09	321.05	18.09	-44.5	-45.6	21.8	0.00e+00	0	40	0	1061158912	60	4114
2026-01-21 11:28:07.10	321.20	18.00	-44.7	-45.8	21.6	0.00e+00	0	40	0	1063256064	60	4206
2026-01-21 11:28:08.11	321.35	17.90	-44.6	-45.7	21.7	0.00e+00	0	40	0	1065353216	60	4191
2026-01-21 11:28:09.12	321.49	17.81	-44.8	-45.9	21.5	0.00e+00	0	40	0	1067450368	60	4285
2026-01-21 11:28:10.13	321.64	17.71	-44.9	-46.1	21.4	0.00e+00	0	40	0	1068498944	60	4367
2026-01-21 11:28:11.13	321.79	17.62	-45.1	-46.3	21.2	1.50e-06	0	40	0	1070596096	60	4464
2026-01-21 11:28:12.14	321.93	17.53	-45.2	-46.3	21.1	0.00e+00	0	40	0	1072693248	61	4242
2026-01-21 11:28:13.15	322.07	17.44	-45.2	-46.4	21.1	0.00e+00	0	40	0	1074790400	61	4255
2026-01-21 11:28:14.16	322.22	17.34	-45.3	-46.5	21.0	0.00e+00	0	40	0	1076887552	61	4324
2026-01-21 11:28:15.16	322.36	17.25	-45.4	-46.6	20.8	0.00e+00	0	40	0	1077936128	61	4368
2026-01-21 11:28:16.17	322.50	17.16	-45.2	-46.4	21.0	0.00e+00	0	40	0	1080033280	61	4265
2026-01-21 11:28:17.18	322.64	17.07	-45.2	-46.4	21.1	0.00e+00	0	40	0	1082130432	61	4243
2026-01-21 11:28:18.19	322.78	16.98	-45.0	-46.2	21.2	0.00e+00	0	40	0	1084227584	61	4177
2026-01-21 11:28:19.20	322.92	16.88	-45.1	-46.3	21.1	0.00e+00	0	40	0	1086324736	61	4223
2026-01-21 11:28:20.20	323.06	16.79	-45.2	-46.4	21.0	0.00e+00	0	40	0	1087373312	61	4263
2026-01-21 11:28:21.21	323.20	16.70	-45.3	-46.5	20.9	0.00e+00	0	40	0	1089470464	61	4309
2026-01-21 11:28:22.22	323.33	16.61	-45.4	-46.7	20.7	0.00e+00	0	40	0	1091567616	61	4407
2026-01-21 11:28:23.23	323.47	16.52	-45.4	-46.6	20.8	0.00e+00	0	40	0	1093664768	61	4385
2026-01-21 11:28:24.24	323.61	16.43	-45.4	-46.7	20.8	0.00e+00	0	40	0	1095761920	61	4410
2026-01-21 11:28:25.24	323.74	16.34	-45.5	-46.7	20.6	0.00e+00	0	40	0	1096810496	61	4441
2026-01-21 11:28:26.25	323.87	16.25	-45.4	-46.7	20.7	0.00e+00	0	40	0	1098907648	61	4407
2026-01-21 11:28:27.26	324.01	16.16	-45.6	-46.9	20.5	0.00e+00	0	40	0	1101004800	61	4513
2026-01-21 11:28:28.27	324.14	16.07	-45.6	-46.9	20.5	0.00e+00	0	40	0	1103101952	61	4516
2026-01-21 11:28:29.28	324.27	15.98	-45.7	-47.0	20.4	0.00e+00	0	40	0	1105199104	61	4575
2026-01-21 11:28:30.28	324.40	15.89	-45.6	-46.9	20.5	0.00e+00	0	40	0	1106247680	61	4511
2026-01-21 11:28:31.29	324.53	15.80	-45.7	-47.0	20.4	0.00e+00	0	40	0	1108344832	61	4571
2026-01-21 11:28:32.30	324.66	15.71	-45.8	-47.1	20.3	0.00e+00	0	40	0	1110441984	62	4384
2026-01-21 11:28:33.31	324.79	15.62	-46.1	-47.5	19.9	0.00e+00	0	40	0	1112539136	62	4556
2026-01-21 11:28:34.32	324.91	15.53	-46.0	-47.4	20.0	0.00e+00	0	40	0	1114636288	62	4531
2026-01-21 11:28:35.33	325.04	15.44	-46.1	-47.6	19.8	0.00e+00	0	40	0	1116733440	62	4606
2026-01-21 11:28:36.34	325.17	15.36	-46.3	-47.8	19.7	0.00e+00	0	40	0	1117782016	63	4450
2026-01-21 11:28:37.35	325.29	15.27	-46.3	-47.8	19.6	0.00e+00	0	40	0	1119879168	63	4463
2026-01-21 11:28:38.35	325.42	15.18	-46.5	-48.0	19.5	0.00e+00	0	40	0	1121976320	63	4546
2026-01-21 11:28:39.36	325.54	15.09	-46.5	-48.0	19.4	0.00e+00	0	40	0	1124073472	63	4562
2026-01-21 11:28:40.37	325.66	15.01	-46.6	-48.2	19.2	0.00e+00	0	40	0	1125122048	63	4665
2026-01-21 11:28:41.38	325.79	14.92	-46.6	-48.1	19.3	0.00e+00	0	40	0	1127219200	63	4607
2026-01-21 11:28:42.38	325.91	14.83	-46.5	-48.0	19.4	0.00e+00	0	40	0	1129316352	63	4576
2026-01-21 11:28:43.39	326.03	14.74	-46.6	-48.2	19.2	0.00e+00	0	40	0	1131413504	63	4671
2026-01-21 11:28:44.40	326.15	14.66	-46.6	-48.2	19.1	0.00e+00	0	40	0	1133510656	63	4672
2026-01-21 11:28:45.41	326.27	14.57	-46.6	-48.1	19.2	0.00e+00	0	40	0	1134559232	64	4380
2026-01-21 11:28:46.42	326.39	14.48	-46.5	-48.0	19.2	0.00e+00	0	40	0	1136656384	64	4331
2026-01-21 11:28:47.43	326.51	14.40	-46.2	-47.7	19.6	0.00e+00	0	40	0	1138753536	64	4175
2026-01-21 11:28:48.44	326.63	14.31	-46.2	-47.7	19.6	0.00e+00	0	40	0	1140850688	64	4159
2026-01-21 11:28:49.44	326.74	14.23	-46.2	-47.7	19.6	0.00e+00	0	40	0	1142947840	64	4157
2026-01-21 11:28:50.45	326.86	14.14	-46.1	-47.5	19.9	0.00e+00	0	40	0	1145044992	63	4294
2026-01-21 11:28:51.46	326.97	14.06	-46.0	-47.3	20.0	0.00e+00	0	40	0	1146093568	63	4241
2026-01-21 11:28:52.47	327.09	13.97	-45.9	-47.2	20.1	0.00e+00	0	40	0	1148190720	63	4179
2026-01-21 11:28:53.47	327.20	13.89	-45.7	-47.0	20.2	0.00e+00	0	40	0	1150287872	63	4098
2026-01-21 11:28:54.48	327.32	13.80	-45.9	-47.2	20.1	0.00e+00	0	40	0	1152385024	63	4178
2026-01-21 11:28:55.49	327.43	13.72	-45.9	-47.3	20.0	0.00e+00	0	40	0	1153433600	63	4211
2026-01-21 11:28:56.50	327.55	13.63	-45.9	-47.3	20.0	0.00e+00	0	40	0	1155530752	63	4207
2026-01-21 11:28:57.50	327.66	13.55	-46.2	-47.6	19.7	0.00e+00	0	40	0	1157627904	63	4350
2026-01-21 11:28:58.51	327.77	13.46	-46.2	-47.6	19.7	0.00e+00	0	40	0	1159725056	63	4367
2026-01-21 11:28:59.52	327.88	13.38	-46.4	-47.8	19.5	0.00e+00	0	40	0	1161822208	63	4485
2026-01-21 11:29:00.53	327.99	13.30	-46.3	-47.8	19.5	0.00e+00	0	40	0	1163919360	63	4469
2026-01-21 11:29:01.54	328.10	13.21	-46.4	-47.9	19.4	0.00e+00	0	40	0	1164967936	63	4526
2026-01-21 11:29:02.55	328.21	13.13	-46.5	-48.0	19.3	0.00e+00	0	40	0	1167065088	63	4578
2026-01-21 11:29:03.55	328.32	13.05	-46.5	-48.0	19.3	0.00e+00	0	40	0	1169162240	63	4559
2026-01-21 11:29:04.56	328.43	12.96	-46.4	-47.9	19.4	0.00e+00	0	40	0	1171259392	63	4513
2026-01-21 11:29:05.56	328.53	12.88	-46.4	-47.9	19.4	0.00e+00	0	40	0	1173356544	63	4503
2026-01-21 11:29:06.57	328.64	12.80	-46.4	-47.8	19.4	0.00e+00	0	40	0	1174405120	63	4486
2026-01-21 11:29:07.58	328.75	12.72	-46.1	-47.6	19.7	0.00e+00	0	40	0	1176502272	63	4347
2026-01-21 11:29:08.59	328.85	12.64	-45.9	-47.3	19.9	0.00e+00	0	40	0	1178599424	63	4223
2026-01-21 11:29:09.60	328.96	12.55	-45.9	-47.2	20.0	0.00e+00	0	40	0	1180696576	63	4193
2026-01-21 11:29:10.60	329.06	12.47	-45.8	-47.2	20.1	0.00e+00	0	40	0	1181745152	63	4152
2026-01-21 11:29:11.61	329.16	12.39	-45.7	-47.1	20.1	0.00e+00	0	40	0	1183842304	63	4116
2026-01-21 11:29:12.62	329.27	12.31	-45.9	-47.2	20.0	0.00e+00	0	40	0	1185939456	63	4188
2026-01-21 11:29:13.63	329.37	12.23	-45.7	-47.0	20.2	0.00e+00	0	40	0	1188036608	63	4091
2026-01-21 11:29:14.64	329.47	12.15	-45.7	-47.1	20.2	0.00e+00	0	40	0	1190133760	63	4099
2026-01-21 11:29:15.65	329.58	12.07	-45.9	-47.3	19.9	0.00e+00	0	40	0	1192230912	63	4224
2026-01-21 11:29:16.65	329.68	11.99	-46.0	-47.4	19.8	0.00e+00	0	40	0	1193279488	63	4288
2026-01-21 11:29:17.66	329.78	11.91	-46.1	-47.5	19.7	0.00e+00	0	40	0	1195376640	63	4319
2026-01-21 11:29:18.67	329.88	11.83	-46.2	-47.6	19.6	0.00e+00	0	40	0	1197473792	63	4388
2026-01-21 11:29:19.68	329.98	11.75	-46.3	-47.8	19.4	0.00e+00	0	40	0	1199570944	63	4443
2026-01-21 11:29:20.68	330.08	11.67	-46.3	-47.8	19.4	0.00e+00	0	40	0	1201668096	63	4482
2026-01-21 11:29:21.69	330.18	11.59	-46.2	-47.7	19.5	0.00e+00	0	40	0	1202716672	63	4439
2026-01-21 11:29:22.70	330.27	11.51	-46.4	-48.0	19.2	0.00e+00	0	40	0	1204813824	63	4546
2026-01-21 11:29:23.71	330.37	11.43	-46.4	-47.9	19.3	0.00e+00	0	40	0	1206910976	63	4509
2026-01-21 11:29:24.72	330.47	11.35	-46.4	-47.9	19.3	0.00e+00	0	40	0	1209008128	63	4506
2026-01-21 11:29:25.73	330.57	11.27	-46.3	-47.8	19.4	0.00e+00	0	40	0	1211105280	63	4448
2026-01-21 11:29:26.74	330.66	11.19	-46.2	-47.7	19.5	0.00e+00	0	40	0	1212153856	63	4426
2026-01-21 11:29:27.74	330.76	11.11	-46.2	-47.6	19.5	0.00e+00	0	40	0	1214251008	63	4377
2026-01-21 11:29:28.75	330.85	11.03	-46.0	-47.4	19.7	0.00e+00	0	40	0	1216348160	63	4276
2026-01-21 11:29:29.76	330.95	10.96	-45.9	-47.3	19.9	0.00e+00	0	40	0	1218445312	63	4201
2026-01-21 11:29:30.77	331.04	10.88	-45.8	-47.2	20.0	0.00e+00	0	40	0	1220542464	63	4149
2026-01-21 11:29:31.78	331.14	10.80	-45.8	-47.2	19.9	0.00e+00	0	40	0	1221591040	63	4170
