passes_logs/2026/01/21/R3.2S_Murmansk/R3.2S_Murmansk__20260121_005904_SUOMI_NPP_rec.log

#Pass ID: 20260121_005904_SUOMI NPP
#Satellite: SUOMI NPP
#Configuration: NPP
#almurnet v.1.7.20251203
#Start time: 2026-01-21 00:59:04

#Version: 2.2.20231116
#Station: R3.2S_Murmansk
#Location: 33.079688 lon 68.888172 lat
#TLE: 1 37849U 11061A   26020.31993517  .00000142  00000+0  88240-4 0  9990
#TLE: 2 37849  98.7818 322.3228 0002330  54.3778 305.7615 14.19527005737466

#Time	Az	El	Level	Level2	SNR	BER	BlckErr	Temp	State	Recorded	gain1	gain2
2026-01-21 00:59:04.83	25.42	2.01	-52.8	-67.8	3.8	1.49e+00	0	38	0	0	77	19893
2026-01-21 00:59:05.84	25.42	2.08	-52.3	-67.3	3.8	1.49e+00	0	38	104	0	75	21191
2026-01-21 00:59:06.85	25.41	2.14	-52.3	-67.3	3.8	1.49e+00	0	38	104	0	75	21132
2026-01-21 00:59:07.86	25.41	2.20	-52.3	-67.3	3.8	1.49e+00	0	38	104	0	75	21115
2026-01-21 00:59:08.87	25.41	2.27	-52.3	-67.3	3.8	1.49e+00	0	38	104	0	75	21093
2026-01-21 00:59:09.87	25.41	2.33	-52.3	-67.3	3.8	1.49e+00	0	38	104	0	75	21084
2026-01-21 00:59:10.88	25.41	2.40	-52.3	-67.3	3.8	1.49e+00	0	38	104	0	75	21146
2026-01-21 00:59:11.89	25.40	2.46	-52.3	-67.3	3.8	1.49e+00	0	38	104	0	75	21085
2026-01-21 00:59:12.90	25.40	2.53	-52.3	-67.3	3.8	1.49e+00	0	38	104	0	75	21072
2026-01-21 00:59:13.91	25.40	2.60	-52.3	-67.3	3.8	1.49e+00	0	38	104	0	75	21088
2026-01-21 00:59:14.91	25.40	2.66	-52.3	-67.3	3.8	1.49e+00	0	38	104	0	75	21078
2026-01-21 00:59:15.92	25.39	2.73	-52.3	-67.3	3.8	1.49e+00	0	38	104	0	75	21086
2026-01-21 00:59:16.93	25.39	2.79	-52.3	-67.3	3.8	1.49e+00	0	38	104	0	75	21076
2026-01-21 00:59:17.94	25.39	2.86	-52.3	-67.3	3.8	1.49e+00	0	38	104	0	75	21075
2026-01-21 00:59:18.95	25.39	2.93	-52.3	-67.3	3.8	1.49e+00	0	38	104	0	75	21026
2026-01-21 00:59:19.95	25.39	2.99	-52.3	-67.3	3.8	1.49e+00	0	38	104	0	75	21038
2026-01-21 00:59:20.96	25.38	3.06	-52.3	-67.3	3.8	1.49e+00	0	38	104	0	75	21050
2026-01-21 00:59:21.97	25.38	3.13	-52.3	-67.3	3.8	1.49e+00	0	38	104	0	75	21048
2026-01-21 00:59:22.98	25.38	3.19	-52.3	-67.3	3.8	1.49e+00	0	38	104	0	75	21038
2026-01-21 00:59:23.99	25.38	3.26	-52.3	-67.2	3.8	1.49e+00	0	38	104	0	75	20995
2026-01-21 00:59:24.99	25.37	3.33	-52.3	-67.2	3.8	1.49e+00	0	38	104	0	75	20968
2026-01-21 00:59:26.00	25.37	3.40	-52.3	-67.1	3.8	1.49e+00	0	39	104	0	75	20749
2026-01-21 00:59:27.01	25.37	3.46	-52.3	-66.8	3.8	1.49e+00	0	38	104	0	75	20056
2026-01-21 00:59:28.02	25.36	3.53	-52.2	-66.2	3.8	1.49e+00	0	38	104	0	75	18625
2026-01-21 00:59:29.03	25.36	3.60	-52.2	-65.6	3.8	1.49e+00	0	39	104	0	75	17365
2026-01-21 00:59:30.04	25.36	3.67	-52.1	-64.2	4.1	1.48e+00	0	39	104	0	75	14832
2026-01-21 00:59:31.05	25.36	3.74	-52.0	-62.5	4.6	1.36e+00	0	39	0	0	75	12143
2026-01-21 00:59:32.06	25.35	3.80	-51.9	-61.6	5.1	8.42e-01	0	39	0	2097152	75	10984
2026-01-21 00:59:33.07	25.35	3.87	-51.6	-59.4	6.6	3.00e-01	0	39	0	4194304	75	8535
2026-01-21 00:59:34.08	25.35	3.94	-51.3	-58.2	7.7	9.62e-02	0	39	0	6291456	74	7890
2026-01-21 00:59:35.08	25.34	4.01	-50.9	-56.5	9.4	4.92e-02	0	39	0	7340032	73	6838
2026-01-21 00:59:36.09	25.34	4.08	-50.5	-55.3	10.6	3.28e-03	0	38	0	9437184	72	6343
2026-01-21 00:59:37.10	25.34	4.15	-50.2	-54.7	11.3	1.56e-03	0	38	0	11534336	72	5883
2026-01-21 00:59:38.11	25.34	4.22	-49.8	-53.7	12.4	2.61e-04	0	39	0	13631488	71	5558
2026-01-21 00:59:39.12	25.33	4.29	-49.8	-53.5	12.6	1.15e-04	0	39	0	15728640	71	5460
2026-01-21 00:59:40.13	25.33	4.36	-49.5	-53.1	13.1	2.21e-05	0	39	0	16777216	70	5467
2026-01-21 00:59:41.13	25.33	4.43	-49.4	-52.8	13.4	1.44e-05	0	39	0	18874368	70	5289
2026-01-21 00:59:42.15	25.32	4.50	-49.4	-52.9	13.3	2.13e-05	0	39	0	20971520	70	5348
2026-01-21 00:59:43.15	25.32	4.57	-49.1	-52.3	13.9	7.00e-07	0	39	0	23068672	70	5007
2026-01-21 00:59:44.16	25.32	4.64	-49.5	-53.0	13.2	7.60e-06	0	39	0	25165824	70	5420
2026-01-21 00:59:45.17	25.31	4.71	-49.6	-53.2	13.0	2.13e-05	0	39	0	26214400	70	5540
2026-01-21 00:59:46.18	25.31	4.78	-49.7	-53.4	12.7	7.93e-05	0	39	0	28311552	70	5713
2026-01-21 00:59:47.19	25.31	4.85	-50.0	-54.1	12.0	1.84e-04	0	39	0	30408704	70	6199
2026-01-21 00:59:48.19	25.30	4.93	-50.4	-55.2	10.9	5.19e-04	0	39	0	32505856	71	6580
2026-01-21 00:59:49.21	25.30	5.00	-50.6	-55.6	10.5	3.93e-03	0	39	0	34603008	71	6925
2026-01-21 00:59:50.21	25.30	5.07	-50.9	-56.8	9.2	1.42e-02	0	39	0	35651584	72	7475
2026-01-21 00:59:51.22	25.29	5.14	-51.5	-58.6	7.2	8.90e-02	0	39	0	37748736	73	8748
2026-01-21 00:59:52.23	25.29	5.21	-51.1	-57.3	8.6	4.01e-02	0	39	0	39845888	73	7475
2026-01-21 00:59:53.24	25.29	5.29	-51.6	-59.4	6.4	3.07e-01	0	39	0	41943040	74	9022
2026-01-21 00:59:54.25	25.28	5.36	-48.9	-51.8	14.6	9.91e-05	0	39	0	44040192	69	5022
2026-01-21 00:59:55.26	25.28	5.43	-52.2	-66.7	3.8	1.49e+00	0	39	104	44040192	74	20895
2026-01-21 00:59:56.27	25.28	5.51	-49.4	-52.6	13.7	4.80e-05	0	39	0	44040192	70	5160
2026-01-21 00:59:57.27	25.27	5.58	-49.4	-52.7	13.7	3.00e-06	0	39	0	46137344	70	5230
2026-01-21 00:59:58.28	25.27	5.65	-49.3	-52.5	14.0	6.10e-06	0	39	0	48234496	70	5103
2026-01-21 00:59:59.29	25.26	5.73	-48.9	-51.7	14.7	3.00e-06	0	39	0	49283072	69	4958
2026-01-21 01:00:00.30	25.26	5.80	-49.1	-52.1	14.3	0.00e+00	0	39	0	51380224	69	5185
2026-01-21 01:00:01.31	25.26	5.87	-48.8	-51.6	14.8	7.00e-07	0	39	0	53477376	69	4925
2026-01-21 01:00:02.32	25.25	5.95	-48.9	-51.8	14.7	7.00e-07	0	39	0	55574528	69	5005
2026-01-21 01:00:03.33	25.25	6.02	-48.9	-51.7	14.8	0.00e+00	0	39	0	57671680	69	4933
2026-01-21 01:00:04.33	25.24	6.10	-48.8	-51.5	15.0	0.00e+00	0	39	0	59768832	69	4869
2026-01-21 01:00:05.34	25.24	6.17	-48.9	-51.7	14.8	0.00e+00	0	39	0	60817408	69	4941
2026-01-21 01:00:06.35	25.24	6.25	-48.8	-51.5	15.0	0.00e+00	0	39	0	62914560	69	4860
2026-01-21 01:00:07.36	25.23	6.32	-48.7	-51.4	15.1	0.00e+00	0	39	0	65011712	69	4808
2026-01-21 01:00:08.37	25.23	6.40	-48.8	-51.5	15.0	0.00e+00	0	39	0	67108864	69	4867
2026-01-21 01:00:09.37	25.22	6.47	-48.8	-51.6	14.9	0.00e+00	0	39	0	69206016	69	4902
2026-01-21 01:00:10.38	25.22	6.55	-48.7	-51.4	15.1	0.00e+00	0	39	0	70254592	69	4798
2026-01-21 01:00:11.39	25.21	6.63	-48.8	-51.5	15.1	0.00e+00	0	39	0	72351744	69	4821
2026-01-21 01:00:12.40	25.21	6.70	-48.5	-51.1	15.5	0.00e+00	0	39	0	74448896	69	4610
2026-01-21 01:00:13.41	25.21	6.78	-48.6	-51.2	15.3	0.00e+00	0	39	0	76546048	68	4977
2026-01-21 01:00:14.41	25.20	6.86	-48.6	-51.2	15.4	0.00e+00	0	39	0	77594624	68	4954
2026-01-21 01:00:15.43	25.20	6.93	-48.7	-51.3	15.3	0.00e+00	0	39	0	79691776	68	5038
2026-01-21 01:00:16.43	25.19	7.01	-48.6	-51.2	15.4	0.00e+00	0	39	0	81788928	68	4939
2026-01-21 01:00:17.44	25.19	7.09	-48.6	-51.1	15.5	0.00e+00	0	39	0	83886080	68	4908
2026-01-21 01:00:18.45	25.18	7.17	-48.6	-51.1	15.5	0.00e+00	0	39	0	85983232	68	4909
2026-01-21 01:00:19.46	25.18	7.24	-48.5	-51.1	15.5	0.00e+00	0	39	0	88080384	68	4879
2026-01-21 01:00:20.47	25.17	7.32	-48.6	-51.1	15.5	0.00e+00	0	39	0	89128960	68	4915
2026-01-21 01:00:21.47	25.17	7.40	-48.6	-51.1	15.6	0.00e+00	0	39	0	91226112	68	4885
2026-01-21 01:00:22.48	25.16	7.48	-48.6	-51.2	15.4	0.00e+00	0	39	0	93323264	68	4944
2026-01-21 01:00:23.49	25.16	7.56	-48.5	-51.0	15.6	0.00e+00	0	39	0	95420416	68	4851
2026-01-21 01:00:24.50	25.15	7.64	-48.5	-50.9	15.7	0.00e+00	0	39	0	97517568	68	4802
2026-01-21 01:00:25.51	25.15	7.72	-48.4	-50.9	15.8	0.00e+00	0	39	0	98566144	68	4762
2026-01-21 01:00:26.51	25.14	7.80	-48.5	-50.9	15.8	0.00e+00	0	39	0	100663296	68	4799
2026-01-21 01:00:27.52	25.14	7.88	-48.3	-50.7	16.0	0.00e+00	0	39	0	102760448	68	4661
2026-01-21 01:00:28.53	25.13	7.96	-48.3	-50.7	16.0	0.00e+00	0	39	0	104857600	68	4673
2026-01-21 01:00:29.54	25.13	8.04	-48.2	-50.5	16.2	0.00e+00	0	39	0	106954752	68	4595
2026-01-21 01:00:30.55	25.12	8.12	-48.2	-50.5	16.3	0.00e+00	0	39	0	108003328	68	4553
2026-01-21 01:00:31.55	25.12	8.20	-48.3	-50.6	16.1	0.00e+00	0	39	0	110100480	68	4632
2026-01-21 01:00:32.56	25.11	8.28	-48.2	-50.4	16.3	0.00e+00	0	40	0	112197632	68	4543
2026-01-21 01:00:33.57	25.11	8.36	-48.1	-50.4	16.4	0.00e+00	0	39	0	114294784	68	4508
2026-01-21 01:00:34.58	25.10	8.44	-48.2	-50.5	16.3	0.00e+00	0	39	0	116391936	68	4573
2026-01-21 01:00:35.59	25.10	8.53	-48.2	-50.5	16.2	0.00e+00	0	39	0	117440512	68	4583
2026-01-21 01:00:36.60	25.09	8.61	-48.2	-50.4	16.4	0.00e+00	0	39	0	119537664	68	4512
2026-01-21 01:00:37.60	25.08	8.69	-48.1	-50.4	16.4	0.00e+00	0	39	0	121634816	68	4502
2026-01-21 01:00:38.61	25.08	8.77	-48.1	-50.3	16.5	0.00e+00	0	39	0	123731968	68	4479
2026-01-21 01:00:39.62	25.07	8.86	-48.0	-50.2	16.5	0.00e+00	0	39	0	125829120	67	4664
2026-01-21 01:00:40.63	25.07	8.94	-47.9	-50.1	16.6	0.00e+00	0	39	0	127926272	67	4620
2026-01-21 01:00:41.64	25.06	9.03	-48.0	-50.1	16.6	0.00e+00	0	39	0	128974848	67	4643
2026-01-21 01:00:42.64	25.05	9.11	-48.0	-50.2	16.5	0.00e+00	0	39	0	131072000	67	4691
2026-01-21 01:00:43.65	25.05	9.19	-47.9	-50.1	16.6	0.00e+00	0	39	0	133169152	67	4613
2026-01-21 01:00:44.66	25.04	9.28	-48.1	-50.2	16.5	0.00e+00	0	39	0	135266304	67	4703
2026-01-21 01:00:45.67	25.04	9.36	-47.9	-50.0	16.7	0.00e+00	0	40	0	136314880	67	4568
2026-01-21 01:00:46.68	25.03	9.45	-47.9	-49.9	16.8	0.00e+00	0	39	0	138412032	67	4540
2026-01-21 01:00:47.68	25.02	9.53	-47.8	-49.9	16.9	0.00e+00	0	39	0	140509184	67	4523
2026-01-21 01:00:48.69	25.02	9.62	-47.9	-50.1	16.7	0.00e+00	0	39	0	142606336	67	4604
2026-01-21 01:00:49.70	25.01	9.71	-47.9	-50.0	16.8	0.00e+00	0	39	0	144703488	67	4548
2026-01-21 01:00:50.71	25.00	9.79	-47.7	-49.8	17.0	0.00e+00	0	39	0	145752064	67	4459
2026-01-21 01:00:51.71	25.00	9.88	-47.9	-50.0	16.8	0.00e+00	0	39	0	147849216	67	4573
2026-01-21 01:00:52.72	24.99	9.96	-48.0	-50.2	16.6	0.00e+00	0	39	0	149946368	67	4670
2026-01-21 01:00:53.73	24.98	10.05	-47.6	-49.5	17.3	0.00e+00	0	39	0	152043520	67	4324
2026-01-21 01:00:54.74	24.98	10.14	-47.7	-49.7	17.0	0.00e+00	0	39	0	154140672	67	4431
2026-01-21 01:00:55.75	24.97	10.23	-47.7	-49.7	17.1	0.00e+00	0	39	0	156237824	67	4424
2026-01-21 01:00:56.75	24.96	10.32	-47.5	-49.5	17.3	0.00e+00	0	39	0	157286400	67	4300
2026-01-21 01:00:57.76	24.96	10.40	-47.7	-49.7	17.1	0.00e+00	0	39	0	159383552	67	4422
2026-01-21 01:00:58.77	24.95	10.49	-47.6	-49.5	17.3	0.00e+00	0	39	0	161480704	67	4313
2026-01-21 01:00:59.78	24.94	10.58	-47.6	-49.5	17.3	0.00e+00	0	39	0	163577856	67	4314
2026-01-21 01:01:00.78	24.94	10.67	-47.5	-49.4	17.4	0.00e+00	0	39	0	164626432	67	4266
2026-01-21 01:01:01.79	24.93	10.76	-47.4	-49.2	17.6	0.00e+00	0	39	0	166723584	66	4435
2026-01-21 01:01:02.80	24.92	10.85	-47.4	-49.3	17.5	0.00e+00	0	39	0	168820736	66	4473
2026-01-21 01:01:03.81	24.91	10.94	-47.4	-49.2	17.6	0.00e+00	0	39	0	170917888	66	4438
2026-01-21 01:01:04.81	24.91	11.03	-47.4	-49.3	17.5	0.00e+00	0	39	0	173015040	66	4474
2026-01-21 01:01:05.82	24.90	11.12	-47.4	-49.2	17.6	0.00e+00	0	40	0	174063616	66	4441
2026-01-21 01:01:06.83	24.89	11.22	-47.2	-49.1	17.8	0.00e+00	0	39	0	176160768	66	4344
2026-01-21 01:01:07.84	24.88	11.31	-47.2	-49.0	17.9	0.00e+00	0	39	0	178257920	66	4293
2026-01-21 01:01:08.85	24.88	11.40	-47.2	-49.0	17.8	0.00e+00	0	40	0	180355072	66	4295
2026-01-21 01:01:09.86	24.87	11.49	-46.9	-48.6	18.3	0.00e+00	0	39	0	182452224	65	4342
2026-01-21 01:01:10.87	24.86	11.59	-46.8	-48.4	18.4	0.00e+00	0	39	0	184549376	65	4278
2026-01-21 01:01:11.87	24.85	11.68	-46.9	-48.7	18.2	0.00e+00	0	39	0	185597952	65	4401
2026-01-21 01:01:12.88	24.84	11.77	-46.9	-48.6	18.3	0.00e+00	0	39	0	187695104	65	4347
2026-01-21 01:01:13.89	24.84	11.87	-46.8	-48.4	18.4	0.00e+00	0	39	0	189792256	65	4285
2026-01-21 01:01:14.90	24.83	11.96	-46.9	-48.6	18.2	0.00e+00	0	39	0	191889408	65	4389
2026-01-21 01:01:15.91	24.82	12.05	-46.9	-48.5	18.4	0.00e+00	0	39	0	192937984	65	4328
2026-01-21 01:01:16.92	24.81	12.15	-46.8	-48.5	18.3	0.00e+00	0	39	0	195035136	65	4321
2026-01-21 01:01:17.93	24.80	12.25	-46.8	-48.4	18.5	0.00e+00	0	40	0	197132288	65	4263
2026-01-21 01:01:18.93	24.79	12.34	-46.8	-48.5	18.4	0.00e+00	0	40	0	199229440	65	4313
2026-01-21 01:01:19.94	24.79	12.44	-46.6	-48.2	18.7	0.00e+00	0	39	0	201326592	65	4161
2026-01-21 01:01:20.95	24.78	12.53	-46.6	-48.2	18.7	0.00e+00	0	39	0	203423744	65	4174
2026-01-21 01:01:21.96	24.77	12.63	-46.7	-48.4	18.5	0.00e+00	0	39	0	204472320	65	4252
2026-01-21 01:01:22.97	24.76	12.73	-46.6	-48.2	18.7	0.00e+00	0	39	0	206569472	65	4170
2026-01-21 01:01:23.98	24.75	12.83	-46.5	-48.1	18.8	0.00e+00	0	39	0	208666624	65	4131
2026-01-21 01:01:24.98	24.74	12.92	-46.8	-48.5	18.4	0.00e+00	0	39	0	210763776	65	4310
2026-01-21 01:01:25.99	24.73	13.02	-46.7	-48.4	18.6	0.00e+00	0	39	0	212860928	65	4245
2026-01-21 01:01:27.00	24.72	13.12	-46.5	-48.0	18.9	0.00e+00	0	39	0	213909504	64	4329
2026-01-21 01:01:28.01	24.71	13.22	-46.5	-48.1	18.8	0.00e+00	0	39	0	216006656	64	4358
2026-01-21 01:01:29.02	24.71	13.32	-46.5	-48.1	18.8	0.00e+00	0	39	0	218103808	64	4379
2026-01-21 01:01:30.03	24.70	13.42	-46.4	-47.9	19.0	0.00e+00	0	39	0	220200960	64	4281
2026-01-21 01:01:31.03	24.69	13.52	-46.5	-48.1	18.9	0.00e+00	0	39	0	222298112	64	4342
2026-01-21 01:01:32.04	24.68	13.62	-46.6	-48.2	18.8	0.00e+00	0	39	0	223346688	64	4394
2026-01-21 01:01:33.05	24.67	13.72	-46.3	-47.8	19.1	0.00e+00	0	39	0	225443840	64	4242
2026-01-21 01:01:34.06	24.66	13.82	-46.3	-47.8	19.1	0.00e+00	0	39	0	227540992	64	4227
2026-01-21 01:01:35.07	24.65	13.93	-46.4	-48.0	19.0	0.00e+00	0	39	0	229638144	64	4306
2026-01-21 01:01:36.07	24.64	14.03	-46.5	-48.0	18.9	0.00e+00	0	39	0	231735296	64	4331
2026-01-21 01:01:37.08	24.63	14.13	-46.4	-47.9	19.0	0.00e+00	0	39	0	232783872	64	4264
2026-01-21 01:01:38.09	24.62	14.24	-46.3	-47.8	19.1	0.00e+00	0	39	0	234881024	64	4231
2026-01-21 01:01:39.10	24.61	14.34	-46.1	-47.6	19.3	0.00e+00	0	39	0	236978176	64	4106
2026-01-21 01:01:40.11	24.60	14.44	-46.0	-47.5	19.6	0.00e+00	0	39	0	239075328	63	4299
2026-01-21 01:01:41.12	24.58	14.55	-46.1	-47.5	19.5	0.00e+00	0	39	0	241172480	63	4329
2026-01-21 01:01:42.12	24.57	14.65	-46.0	-47.4	19.6	0.00e+00	0	39	0	242221056	63	4287
2026-01-21 01:01:43.13	24.56	14.76	-45.9	-47.3	19.7	0.00e+00	0	39	0	244318208	63	4214
2026-01-21 01:01:44.14	24.55	14.87	-46.0	-47.4	19.6	0.00e+00	0	39	0	246415360	63	4291
2026-01-21 01:01:45.15	24.54	14.97	-45.9	-47.3	19.7	0.00e+00	0	39	0	248512512	63	4235
2026-01-21 01:01:46.16	24.53	15.08	-45.7	-47.1	19.9	0.00e+00	0	39	0	250609664	63	4109
2026-01-21 01:01:47.17	24.52	15.19	-45.8	-47.1	19.9	0.00e+00	0	39	0	251658240	63	4131
2026-01-21 01:01:48.18	24.51	15.30	-45.9	-47.3	19.7	0.00e+00	0	39	0	253755392	63	4235
2026-01-21 01:01:49.19	24.50	15.41	-46.0	-47.5	19.6	0.00e+00	0	39	0	255852544	63	4294
2026-01-21 01:01:50.19	24.49	15.51	-45.6	-46.9	20.1	0.00e+00	0	39	0	257949696	63	4035
2026-01-21 01:01:51.20	24.47	15.62	-45.8	-47.2	19.9	0.00e+00	0	39	0	260046848	63	4152
2026-01-21 01:01:52.21	24.46	15.73	-45.8	-47.2	19.9	0.00e+00	0	39	0	261095424	63	4150
2026-01-21 01:01:53.22	24.45	15.84	-45.6	-46.9	20.2	0.00e+00	0	40	0	263192576	63	4018
2026-01-21 01:01:54.23	24.44	15.96	-45.5	-46.8	20.2	0.00e+00	0	40	0	265289728	62	4230
2026-01-21 01:01:55.23	24.43	16.07	-45.5	-46.8	20.2	0.00e+00	0	39	0	267386880	62	4222
2026-01-21 01:01:56.24	24.41	16.18	-45.6	-46.9	20.2	0.00e+00	0	39	0	269484032	62	4263
2026-01-21 01:01:57.25	24.40	16.29	-45.7	-47.1	20.0	0.00e+00	0	39	0	270532608	62	4346
2026-01-21 01:01:58.26	24.39	16.40	-45.9	-47.2	19.8	0.00e+00	0	39	0	272629760	62	4428
2026-01-21 01:01:59.27	24.38	16.52	-45.6	-46.9	20.2	0.00e+00	0	39	0	274726912	62	4251
2026-01-21 01:02:00.28	24.36	16.63	-45.4	-46.7	20.4	0.00e+00	0	39	0	276824064	62	4150
2026-01-21 01:02:01.29	24.35	16.75	-45.5	-46.8	20.2	0.00e+00	0	39	0	278921216	62	4218
2026-01-21 01:02:02.29	24.34	16.86	-45.6	-46.9	20.1	0.00e+00	0	39	0	279969792	62	4281
2026-01-21 01:02:03.30	24.32	16.98	-45.5	-46.8	20.3	0.00e+00	0	39	0	282066944	62	4208
2026-01-21 01:02:04.31	24.31	17.09	-45.7	-47.0	20.1	0.00e+00	0	40	0	284164096	62	4334
2026-01-21 01:02:05.32	24.30	17.21	-45.7	-47.1	20.1	0.00e+00	0	39	0	286261248	62	4351
2026-01-21 01:02:06.33	24.28	17.33	-45.5	-46.8	20.2	0.00e+00	0	40	0	288358400	62	4239
2026-01-21 01:02:07.33	24.27	17.45	-45.6	-46.9	20.2	0.00e+00	0	40	0	290455552	62	4261
2026-01-21 01:02:08.34	24.26	17.56	-45.5	-46.8	20.3	0.00e+00	0	39	0	291504128	62	4201
2026-01-21 01:02:09.35	24.24	17.68	-45.5	-46.8	20.3	0.00e+00	0	39	0	293601280	62	4228
2026-01-21 01:02:10.36	24.23	17.80	-45.7	-47.1	20.0	0.00e+00	0	40	0	295698432	62	4351
2026-01-21 01:02:11.36	24.21	17.92	-45.6	-46.9	20.2	0.00e+00	0	39	0	297795584	62	4283
2026-01-21 01:02:12.37	24.20	18.04	-45.6	-46.9	20.2	0.00e+00	0	39	0	298844160	62	4288
2026-01-21 01:02:13.38	24.18	18.17	-45.4	-46.6	20.5	0.00e+00	0	40	0	300941312	62	4131
2026-01-21 01:02:14.39	24.17	18.29	-45.4	-46.6	20.5	0.00e+00	0	39	0	303038464	62	4140
2026-01-21 01:02:15.39	24.16	18.41	-45.4	-46.7	20.4	0.00e+00	0	39	0	305135616	62	4176
2026-01-21 01:02:16.40	24.14	18.53	-45.5	-46.8	20.3	0.00e+00	0	39	0	307232768	62	4207
2026-01-21 01:02:17.41	24.12	18.66	-45.4	-46.7	20.4	0.00e+00	0	39	0	308281344	62	4178
2026-01-21 01:02:18.42	24.11	18.78	-45.3	-46.6	20.5	0.00e+00	0	39	0	310378496	62	4131
2026-01-21 01:02:19.43	24.09	18.91	-45.3	-46.6	20.5	0.00e+00	0	39	0	312475648	62	4133
2026-01-21 01:02:20.43	24.08	19.03	-45.3	-46.6	20.5	0.00e+00	0	39	0	314572800	62	4104
2026-01-21 01:02:21.44	24.06	19.16	-45.1	-46.4	20.7	0.00e+00	0	39	0	316669952	62	4012
2026-01-21 01:02:22.45	24.05	19.29	-45.3	-46.6	20.5	0.00e+00	0	39	0	318767104	62	4129
2026-01-21 01:02:23.45	24.03	19.41	-45.3	-46.6	20.5	0.00e+00	0	39	0	319815680	62	4108
2026-01-21 01:02:24.46	24.01	19.54	-45.4	-46.7	20.5	0.00e+00	0	40	0	321912832	62	4154
2026-01-21 01:02:25.47	24.00	19.67	-45.6	-46.9	20.2	0.00e+00	0	39	0	324009984	62	4289
2026-01-21 01:02:26.48	23.98	19.80	-45.5	-46.8	20.3	0.00e+00	0	40	0	326107136	62	4224
2026-01-21 01:02:27.49	23.96	19.93	-45.6	-46.9	20.3	0.00e+00	0	39	0	327155712	62	4249
2026-01-21 01:02:28.49	23.95	20.06	-45.6	-46.9	20.2	0.00e+00	0	39	0	329252864	62	4289
2026-01-21 01:02:29.50	23.93	20.19	-45.8	-47.1	20.1	0.00e+00	0	39	0	331350016	62	4371
2026-01-21 01:02:30.51	23.91	20.33	-45.8	-47.2	20.0	0.00e+00	0	39	0	333447168	62	4414
2026-01-21 01:02:31.51	23.89	20.46	-45.6	-47.0	20.2	0.00e+00	0	40	0	335544320	62	4293
2026-01-21 01:02:32.52	23.88	20.59	-45.9	-47.3	19.9	0.00e+00	0	39	0	336592896	62	4451
2026-01-21 01:02:33.53	23.86	20.73	-45.7	-47.0	20.1	0.00e+00	0	40	0	338690048	62	4340
2026-01-21 01:02:34.54	23.84	20.86	-45.6	-46.9	20.2	0.00e+00	0	39	0	340787200	62	4280
2026-01-21 01:02:35.55	23.82	21.00	-45.8	-47.1	20.1	0.00e+00	0	40	0	342884352	62	4381
2026-01-21 01:02:36.55	23.80	21.13	-45.9	-47.3	19.9	0.00e+00	0	39	0	344981504	62	4487
2026-01-21 01:02:37.56	23.79	21.27	-45.8	-47.2	20.0	0.00e+00	0	40	0	347078656	62	4410
2026-01-21 01:02:38.57	23.77	21.41	-45.9	-47.2	20.0	0.00e+00	0	40	0	348127232	62	4430
2026-01-21 01:02:39.58	23.75	21.55	-45.6	-47.0	20.3	0.00e+00	0	39	0	350224384	62	4292
2026-01-21 01:02:40.58	23.73	21.69	-45.6	-47.0	20.3	0.00e+00	0	40	0	352321536	62	4297
2026-01-21 01:02:41.59	23.71	21.83	-45.7	-47.0	20.2	0.00e+00	0	39	0	354418688	62	4310
2026-01-21 01:02:42.60	23.69	21.97	-45.9	-47.2	20.0	0.00e+00	0	39	0	355467264	62	4424
2026-01-21 01:02:43.61	23.67	22.11	-45.8	-47.2	20.1	0.00e+00	0	40	0	357564416	62	4406
2026-01-21 01:02:44.62	23.65	22.26	-45.8	-47.2	20.0	0.00e+00	0	39	0	359661568	62	4414
2026-01-21 01:02:45.62	23.63	22.40	-46.1	-47.5	19.8	0.00e+00	0	40	0	361758720	62	4592
2026-01-21 01:02:46.63	23.61	22.54	-46.2	-47.6	19.7	0.00e+00	0	39	0	363855872	62	4619
2026-01-21 01:02:47.64	23.59	22.69	-46.1	-47.5	19.8	0.00e+00	0	39	0	365953024	62	4562
2026-01-21 01:02:48.65	23.56	22.84	-46.1	-47.5	19.8	0.00e+00	0	40	0	367001600	62	4582
2026-01-21 01:02:49.65	23.54	22.98	-46.0	-47.4	19.9	0.00e+00	0	40	0	369098752	63	4283
2026-01-21 01:02:50.66	23.52	23.13	-45.5	-46.8	20.5	0.00e+00	0	39	0	371195904	63	3959
2026-01-21 01:02:51.67	23.50	23.28	-45.4	-46.7	20.6	0.00e+00	0	40	0	373293056	62	4160
2026-01-21 01:02:52.68	23.48	23.43	-45.5	-46.8	20.4	0.00e+00	0	39	0	375390208	62	4223
2026-01-21 01:02:53.69	23.45	23.58	-45.4	-46.7	20.6	0.00e+00	0	40	0	376438784	62	4172
2026-01-21 01:02:54.69	23.43	23.73	-45.4	-46.6	20.5	0.00e+00	0	40	0	378535936	62	4145
2026-01-21 01:02:55.70	23.41	23.88	-45.4	-46.7	20.5	0.00e+00	0	40	0	380633088	62	4164
2026-01-21 01:02:56.71	23.39	24.04	-45.3	-46.5	20.7	0.00e+00	0	39	0	382730240	62	4083
2026-01-21 01:02:57.72	23.36	24.19	-45.1	-46.3	20.9	0.00e+00	0	39	0	383778816	62	3979
2026-01-21 01:02:58.73	23.34	24.35	-45.5	-46.7	20.5	0.00e+00	0	39	0	385875968	62	4190
2026-01-21 01:02:59.73	23.32	24.50	-45.7	-47.0	20.3	0.00e+00	0	39	0	387973120	62	4325
2026-01-21 01:03:00.74	23.29	24.66	-45.6	-46.8	20.5	0.00e+00	0	39	0	390070272	62	4236
2026-01-21 01:03:01.75	23.27	24.81	-45.6	-46.9	20.4	0.00e+00	0	39	0	392167424	62	4260
2026-01-21 01:03:02.76	23.24	24.97	-45.4	-46.6	20.7	0.00e+00	0	39	0	394264576	62	4135
2026-01-21 01:03:03.77	23.22	25.13	-45.1	-46.3	20.8	0.00e+00	0	40	0	395313152	62	3992
2026-01-21 01:03:04.77	23.19	25.29	-45.1	-46.3	21.0	0.00e+00	0	40	0	397410304	62	3972
2026-01-21 01:03:05.78	23.16	25.45	-45.4	-46.6	20.6	0.00e+00	0	40	0	399507456	62	4142
2026-01-21 01:03:06.79	23.14	25.62	-45.5	-46.8	20.6	0.00e+00	0	40	0	401604608	62	4200
2026-01-21 01:03:07.80	23.11	25.78	-45.4	-46.6	20.6	0.00e+00	0	39	0	403701760	62	4139
2026-01-21 01:03:08.81	23.09	25.95	-45.4	-46.6	20.7	0.00e+00	0	39	0	404750336	62	4120
2026-01-21 01:03:09.81	23.06	26.11	-45.1	-46.3	21.0	0.00e+00	0	40	0	406847488	61	4196
2026-01-21 01:03:10.82	23.03	26.28	-44.5	-45.5	21.6	0.00e+00	0	40	0	408944640	60	4096
2026-01-21 01:03:11.83	23.00	26.44	-44.8	-45.9	21.2	0.00e+00	0	39	0	411041792	60	4280
2026-01-21 01:03:12.84	22.98	26.61	-45.3	-46.5	20.8	0.00e+00	0	40	0	413138944	61	4298
2026-01-21 01:03:13.84	22.95	26.78	-45.4	-46.6	20.7	0.00e+00	0	39	0	414187520	61	4365
2026-01-21 01:03:14.85	22.92	26.95	-45.6	-46.8	20.5	0.00e+00	0	40	0	416284672	61	4480
2026-01-21 01:03:15.86	22.89	27.12	-45.6	-46.8	20.5	0.00e+00	0	40	0	418381824	62	4228
2026-01-21 01:03:16.87	22.86	27.30	-45.7	-47.0	20.3	0.00e+00	0	40	0	420478976	62	4318
2026-01-21 01:03:17.88	22.83	27.47	-45.8	-47.1	20.3	0.00e+00	0	40	0	422576128	62	4341
2026-01-21 01:03:18.89	22.80	27.65	-45.9	-47.2	20.1	0.00e+00	0	39	0	423624704	62	4433
2026-01-21 01:03:19.89	22.77	27.82	-46.2	-47.6	19.8	0.00e+00	0	40	0	425721856	63	4354
2026-01-21 01:03:20.90	22.74	28.00	-46.3	-47.7	19.7	0.00e+00	0	39	0	427819008	63	4428
2026-01-21 01:03:21.91	22.71	28.18	-46.3	-47.7	19.7	0.00e+00	0	40	0	429916160	63	4419
2026-01-21 01:03:22.92	22.68	28.36	-45.8	-47.2	20.2	0.00e+00	0	40	0	432013312	62	4392
2026-01-21 01:03:23.93	22.64	28.54	-46.0	-47.4	20.0	0.00e+00	0	40	0	433061888	62	4522
2026-01-21 01:03:24.93	22.61	28.72	-46.2	-47.6	19.8	0.00e+00	0	40	0	435159040	63	4387
2026-01-21 01:03:25.94	22.58	28.90	-46.2	-47.6	19.9	0.00e+00	0	39	0	437256192	63	4341
2026-01-21 01:03:26.95	22.54	29.09	-46.5	-48.0	19.4	0.00e+00	0	40	0	439353344	63	4571
2026-01-21 01:03:27.96	22.51	29.27	-46.4	-47.8	19.5	0.00e+00	0	40	0	441450496	64	4240
2026-01-21 01:03:28.96	22.48	29.46	-46.9	-48.4	18.9	0.00e+00	0	40	0	442499072	64	4544
2026-01-21 01:03:29.97	22.44	29.65	-47.4	-49.1	18.4	0.00e+00	0	39	0	444596224	65	4616
2026-01-21 01:03:30.98	22.41	29.84	-47.7	-49.4	18.1	0.00e+00	0	40	0	446693376	66	4539
2026-01-21 01:03:31.99	22.37	30.03	-47.3	-48.9	18.5	0.00e+00	0	40	0	448790528	66	4280
2026-01-21 01:03:32.99	22.34	30.22	-47.3	-49.0	18.5	0.00e+00	0	39	0	450887680	66	4306
2026-01-21 01:03:34.00	22.30	30.41	-47.0	-48.6	18.9	0.00e+00	0	40	0	451936256	65	4346
2026-01-21 01:03:35.01	22.26	30.60	-47.1	-48.7	18.7	0.00e+00	0	40	0	454033408	65	4431
2026-01-21 01:03:36.02	22.22	30.80	-47.0	-48.5	18.9	0.00e+00	0	40	0	456130560	65	4323
2026-01-21 01:03:37.02	22.19	30.99	-47.8	-49.6	17.9	0.00e+00	0	40	0	458227712	66	4649
2026-01-21 01:03:38.03	22.15	31.19	-47.6	-49.3	18.2	0.00e+00	0	40	0	460324864	66	4458
2026-01-21 01:03:39.04	22.11	31.39	-47.5	-49.1	18.4	0.00e+00	0	40	0	462422016	66	4385
2026-01-21 01:03:40.05	22.07	31.59	-47.5	-49.2	18.3	0.00e+00	0	40	0	463470592	66	4433
2026-01-21 01:03:41.06	22.03	31.80	-47.9	-49.8	17.8	0.00e+00	0	40	0	465567744	66	4710
2026-01-21 01:03:42.06	21.99	32.00	-48.4	-50.5	17.1	0.00e+00	0	40	0	467664896	67	4835
2026-01-21 01:03:43.07	21.95	32.20	-48.6	-50.7	16.9	0.00e+00	0	40	0	469762048	68	4691
2026-01-21 01:03:44.08	21.91	32.41	-48.7	-50.7	17.0	0.00e+00	0	40	0	470810624	68	4693
2026-01-21 01:03:45.09	21.86	32.62	-48.7	-50.8	16.9	0.00e+00	0	40	0	472907776	68	4744
2026-01-21 01:03:46.09	21.82	32.83	-47.9	-49.7	17.9	0.00e+00	0	40	0	475004928	67	4408
2026-01-21 01:03:47.10	21.78	33.04	-48.0	-49.9	17.8	0.00e+00	0	40	0	477102080	67	4517
2026-01-21 01:03:48.11	21.73	33.25	-47.5	-49.1	18.4	0.00e+00	0	40	0	479199232	67	4145
2026-01-21 01:03:49.12	21.69	33.46	-48.2	-50.1	17.5	0.00e+00	0	40	0	480247808	67	4616
2026-01-21 01:03:50.13	21.64	33.68	-47.9	-49.7	17.9	0.00e+00	0	40	0	482344960	67	4433
2026-01-21 01:03:51.13	21.60	33.89	-47.6	-49.3	18.3	0.00e+00	0	40	0	484442112	67	4225
2026-01-21 01:03:52.14	21.55	34.11	-47.7	-49.4	18.1	0.00e+00	0	40	0	486539264	67	4289
2026-01-21 01:03:53.15	21.50	34.33	-47.6	-49.4	18.2	0.00e+00	0	40	0	488636416	66	4510
2026-01-21 01:03:54.16	21.45	34.55	-47.2	-48.8	18.7	0.00e+00	0	40	0	490733568	66	4210
2026-01-21 01:03:55.17	21.40	34.78	-46.5	-47.9	19.6	0.00e+00	0	40	0	491782144	64	4261
2026-01-21 01:03:56.17	21.35	35.00	-45.9	-47.2	20.3	0.00e+00	0	40	0	493879296	63	4179
2026-01-21 01:03:57.18	21.30	35.23	-45.6	-46.8	20.6	0.00e+00	0	39	0	495976448	63	4001
2026-01-21 01:03:58.19	21.25	35.45	-45.7	-46.9	20.6	0.00e+00	0	40	0	498073600	62	4263
2026-01-21 01:03:59.20	21.20	35.68	-45.1	-46.2	21.2	0.00e+00	0	40	0	499122176	62	3956
2026-01-21 01:04:00.20	21.15	35.91	-45.3	-46.4	21.0	0.00e+00	0	40	0	501219328	62	4042
2026-01-21 01:04:01.21	21.09	36.14	-45.2	-46.4	21.0	0.00e+00	0	40	0	503316480	62	4033
2026-01-21 01:04:02.22	21.04	36.38	-45.5	-46.7	20.8	0.00e+00	0	40	0	505413632	61	4402
2026-01-21 01:04:03.23	20.98	36.61	-44.9	-46.1	21.3	0.00e+00	0	39	0	507510784	61	4106
2026-01-21 01:04:04.24	20.93	36.85	-44.7	-45.8	21.6	0.00e+00	0	40	0	509607936	61	3970
2026-01-21 01:04:05.25	20.87	37.09	-44.6	-45.7	21.6	0.00e+00	0	40	0	510656512	61	3949
2026-01-21 01:04:06.25	20.81	37.33	-44.4	-45.5	21.8	0.00e+00	0	40	0	512753664	60	4058
2026-01-21 01:04:07.26	20.75	37.57	-44.1	-45.1	22.1	0.00e+00	0	40	0	514850816	60	3907
2026-01-21 01:04:08.27	20.69	37.82	-44.3	-45.4	21.9	0.00e+00	0	40	0	516947968	60	4028
2026-01-21 01:04:09.28	20.63	38.06	-44.5	-45.6	22.0	0.00e+00	0	40	0	519045120	59	4360
2026-01-21 01:04:10.29	20.57	38.31	-44.8	-46.0	21.5	0.00e+00	0	40	0	520093696	60	4298
2026-01-21 01:04:11.29	20.51	38.56	-44.5	-45.6	21.7	0.00e+00	0	40	0	522190848	61	3894
2026-01-21 01:04:12.30	20.45	38.81	-45.3	-46.6	20.9	0.00e+00	0	40	0	524288000	61	4350
2026-01-21 01:04:13.31	20.38	39.06	-45.5	-46.8	20.7	0.00e+00	0	40	0	526385152	61	4477
2026-01-21 01:04:14.32	20.31	39.32	-45.3	-46.4	21.0	0.00e+00	0	40	0	527433728	61	4288
2026-01-21 01:04:15.32	20.25	39.57	-45.0	-46.2	21.2	0.00e+00	0	40	0	529530880	61	4155
2026-01-21 01:04:16.33	20.18	39.83	-45.8	-47.1	20.5	0.00e+00	0	40	0	531628032	62	4342
2026-01-21 01:04:17.34	20.11	40.09	-45.9	-47.1	20.4	0.00e+00	0	40	0	533725184	62	4388
2026-01-21 01:04:18.35	20.04	40.36	-45.2	-46.4	21.1	0.00e+00	0	40	0	535822336	62	4013
2026-01-21 01:04:19.36	19.97	40.62	-45.8	-47.0	20.6	0.00e+00	0	40	0	537919488	62	4317
2026-01-21 01:04:20.37	19.89	40.89	-46.5	-47.9	19.7	0.00e+00	0	40	0	538968064	63	4502
2026-01-21 01:04:21.37	19.82	41.15	-46.0	-47.3	20.2	0.00e+00	0	40	0	541065216	63	4211
2026-01-21 01:04:22.38	19.74	41.43	-46.7	-48.1	19.6	0.00e+00	0	40	0	543162368	63	4637
2026-01-21 01:04:23.39	19.67	41.70	-46.5	-47.9	19.6	0.00e+00	0	40	0	545259520	64	4272
2026-01-21 01:04:24.40	19.59	41.97	-47.2	-48.7	18.9	0.00e+00	0	40	0	547356672	64	4703
2026-01-21 01:04:25.41	19.51	42.25	-47.0	-48.5	19.1	0.00e+00	0	40	0	548405248	65	4337
2026-01-21 01:04:26.42	19.43	42.53	-47.2	-48.7	18.9	0.00e+00	0	40	0	550502400	65	4438
2026-01-21 01:04:27.43	19.35	42.81	-47.2	-48.7	18.9	0.00e+00	0	39	0	552599552	65	4434
2026-01-21 01:04:28.43	19.26	43.09	-48.1	-49.9	17.9	0.00e+00	0	40	0	554696704	66	4785
2026-01-21 01:04:29.44	19.18	43.37	-47.5	-49.2	18.5	0.00e+00	0	40	0	556793856	66	4409
2026-01-21 01:04:30.45	19.09	43.66	-47.7	-49.5	18.3	0.00e+00	0	40	0	557842432	66	4546
2026-01-21 01:04:31.46	19.00	43.95	-48.6	-50.7	17.1	0.00e+00	0	40	0	559939584	67	4949
2026-01-21 01:04:32.46	18.91	44.24	-47.1	-48.6	19.1	0.00e+00	0	40	0	562036736	65	4368
2026-01-21 01:04:33.47	18.82	44.53	-46.7	-48.1	19.6	0.00e+00	0	40	0	564133888	64	4376
2026-01-21 01:04:34.48	18.72	44.82	-46.8	-48.2	19.3	0.00e+00	0	40	0	566231040	64	4414
2026-01-21 01:04:35.49	18.63	45.12	-46.2	-47.4	20.1	0.00e+00	0	40	0	567279616	64	4047
2026-01-21 01:04:36.50	18.53	45.42	-45.4	-46.6	20.9	0.00e+00	0	40	0	569376768	62	4102
2026-01-21 01:04:37.50	18.43	45.72	-45.7	-47.0	20.6	0.00e+00	0	40	0	571473920	62	4299
2026-01-21 01:04:38.51	18.33	46.02	-45.9	-47.1	20.5	0.00e+00	0	40	0	573571072	62	4381
2026-01-21 01:04:39.52	18.22	46.33	-46.7	-48.1	19.6	0.00e+00	0	40	0	575668224	64	4377
2026-01-21 01:04:40.53	18.12	46.64	-47.1	-48.7	18.9	0.00e+00	0	40	0	576716800	65	4400
2026-01-21 01:04:41.54	18.01	46.95	-47.1	-48.6	19.1	0.00e+00	0	40	0	578813952	66	4138
2026-01-21 01:04:42.54	17.90	47.26	-47.8	-49.5	18.3	0.00e+00	0	40	0	580911104	66	4584
2026-01-21 01:04:43.55	17.78	47.57	-47.2	-48.8	18.9	0.00e+00	0	40	0	583008256	66	4217
2026-01-21 01:04:44.56	17.67	47.89	-47.0	-48.5	19.1	0.00e+00	0	40	0	585105408	66	4073
2026-01-21 01:04:45.57	17.55	48.21	-47.5	-49.1	18.6	0.00e+00	0	40	0	586153984	65	4622
2026-01-21 01:04:46.58	17.43	48.53	-48.1	-49.9	17.9	0.00e+00	0	40	0	588251136	66	4774
2026-01-21 01:04:47.59	17.31	48.85	-47.9	-49.6	17.9	0.00e+00	0	39	0	590348288	67	4372
2026-01-21 01:04:48.59	17.18	49.17	-48.7	-50.7	17.2	0.00e+00	0	40	0	592445440	68	4681
2026-01-21 01:04:49.60	17.05	49.50	-47.2	-48.8	18.9	0.00e+00	0	40	0	594542592	66	4205
2026-01-21 01:04:50.61	16.92	49.83	-46.3	-47.6	20.0	0.00e+00	0	40	0	595591168	64	4113
2026-01-21 01:04:51.62	16.79	50.16	-46.6	-48.1	19.5	0.00e+00	0	40	0	597688320	65	4113
2026-01-21 01:04:52.63	16.65	50.50	-45.9	-47.1	20.6	0.00e+00	0	40	0	599785472	63	4128
2026-01-21 01:04:53.63	16.51	50.83	-45.6	-46.8	20.7	0.00e+00	0	39	0	601882624	63	3999
2026-01-21 01:04:54.64	16.37	51.17	-45.8	-47.1	20.5	0.00e+00	0	40	0	603979776	62	4387
2026-01-21 01:04:55.65	16.22	51.51	-45.0	-46.2	21.3	0.00e+00	0	40	0	605028352	61	4159
2026-01-21 01:04:56.66	16.07	51.86	-45.4	-46.6	21.0	0.00e+00	0	40	0	607125504	61	4349
2026-01-21 01:04:57.66	15.92	52.20	-44.1	-45.0	22.6	0.00e+00	0	40	0	609222656	59	4092
2026-01-21 01:04:58.67	15.76	52.55	-44.7	-45.8	21.7	0.00e+00	0	40	0	611319808	60	4219
2026-01-21 01:04:59.68	15.59	52.90	-44.9	-46.0	21.6	0.00e+00	0	40	0	613416960	60	4301
2026-01-21 01:05:00.69	15.43	53.25	-45.4	-46.6	21.1	0.00e+00	0	40	0	614465536	61	4351
2026-01-21 01:05:01.70	15.26	53.60	-44.7	-45.8	21.7	0.00e+00	0	40	0	616562688	61	3984
2026-01-21 01:05:02.71	15.08	53.96	-45.1	-46.2	21.3	0.00e+00	0	40	0	618659840	62	3955
2026-01-21 01:05:03.71	14.91	54.32	-45.3	-46.5	21.2	0.00e+00	0	40	0	620756992	61	4309
2026-01-21 01:05:04.72	14.72	54.68	-45.4	-46.6	21.0	0.00e+00	0	40	0	622854144	62	4119
2026-01-21 01:05:05.73	14.53	55.04	-46.0	-47.3	20.4	0.00e+00	0	40	0	624951296	62	4477
2026-01-21 01:05:06.74	14.34	55.41	-45.8	-47.1	20.6	0.00e+00	0	40	0	625999872	62	4368
2026-01-21 01:05:07.74	14.14	55.77	-45.4	-46.6	21.0	0.00e+00	0	40	0	628097024	62	4135
2026-01-21 01:05:08.75	13.94	56.14	-45.5	-46.7	20.9	0.00e+00	0	39	0	630194176	63	3932
2026-01-21 01:05:09.76	13.73	56.51	-45.6	-46.8	20.9	0.00e+00	0	40	0	632291328	62	4218
2026-01-21 01:05:10.77	13.51	56.89	-45.9	-47.2	20.6	0.00e+00	0	39	0	633339904	62	4393
2026-01-21 01:05:11.78	13.29	57.27	-45.9	-47.2	20.5	0.00e+00	0	40	0	635437056	63	4148
2026-01-21 01:05:12.79	13.06	57.64	-46.1	-47.3	20.3	0.00e+00	0	40	0	637534208	63	4224
2026-01-21 01:05:13.79	12.83	58.02	-45.2	-46.3	21.3	0.00e+00	0	40	0	639631360	62	3979
2026-01-21 01:05:14.80	12.59	58.40	-45.2	-46.3	21.3	0.00e+00	0	40	0	641728512	62	3992
2026-01-21 01:05:15.81	12.34	58.79	-47.2	-48.9	18.9	0.00e+00	0	40	0	642777088	65	4526
2026-01-21 01:05:16.82	12.08	59.18	-47.2	-48.7	19.0	0.00e+00	0	40	0	644874240	65	4433
2026-01-21 01:05:17.82	11.82	59.56	-45.8	-47.0	20.6	0.00e+00	0	40	0	646971392	63	4084
2026-01-21 01:05:18.83	11.55	59.95	-44.8	-45.8	21.7	0.00e+00	0	40	0	649068544	61	3987
2026-01-21 01:05:19.84	11.27	60.34	-44.4	-45.5	21.8	0.00e+00	0	39	0	651165696	60	4061
2026-01-21 01:05:20.85	10.98	60.74	-45.8	-47.1	20.6	0.00e+00	0	40	0	653262848	62	4375
2026-01-21 01:05:21.85	10.68	61.13	-46.2	-47.5	20.2	0.00e+00	0	39	0	654311424	63	4340
2026-01-21 01:05:22.86	10.38	61.53	-44.6	-45.7	21.8	0.00e+00	0	40	0	656408576	60	4172
2026-01-21 01:05:23.87	10.06	61.92	-45.4	-46.6	21.0	0.00e+00	0	40	0	658505728	61	4383
2026-01-21 01:05:24.87	9.73	62.32	-44.8	-45.9	21.6	0.00e+00	0	40	0	660602880	61	4045
2026-01-21 01:05:25.88	9.39	62.72	-45.3	-46.5	21.1	0.00e+00	0	40	0	661651456	61	4331
2026-01-21 01:05:26.89	9.04	63.13	-44.1	-45.1	22.3	0.00e+00	0	40	0	663748608	60	3873
2026-01-21 01:05:27.90	8.67	63.53	-44.1	-45.1	22.6	0.00e+00	0	40	0	665845760	59	4128
2026-01-21 01:05:28.90	8.30	63.93	-44.7	-45.8	21.8	0.00e+00	0	40	0	667942912	60	4201
2026-01-21 01:05:29.91	7.91	64.34	-44.5	-45.6	21.9	0.00e+00	0	40	0	670040064	60	4140
2026-01-21 01:05:30.92	7.50	64.75	-44.0	-45.0	22.7	0.00e+00	0	39	0	671088640	59	4058
2026-01-21 01:05:31.93	7.08	65.16	-44.4	-45.4	22.0	0.00e+00	0	40	0	673185792	60	4044
2026-01-21 01:05:32.94	6.65	65.57	-45.1	-46.2	21.4	0.00e+00	0	40	0	675282944	60	4432
2026-01-21 01:05:33.94	6.20	65.98	-45.8	-47.0	20.7	0.00e+00	0	40	0	677380096	62	4331
2026-01-21 01:05:34.95	5.73	66.39	-46.4	-47.7	20.0	0.00e+00	0	40	0	679477248	64	4177
2026-01-21 01:05:35.96	5.24	66.80	-46.3	-47.6	20.1	0.00e+00	0	39	0	681574400	64	4105
2026-01-21 01:05:36.97	4.73	67.22	-46.6	-48.0	19.7	0.00e+00	0	40	0	682622976	64	4313
2026-01-21 01:05:37.98	4.20	67.63	-45.6	-46.8	20.9	0.00e+00	0	40	0	684720128	63	3964
2026-01-21 01:05:38.99	3.65	68.04	-46.1	-47.4	20.4	0.00e+00	0	40	0	686817280	63	4260
2026-01-21 01:05:39.99	3.08	68.45	-46.1	-47.4	20.4	0.00e+00	0	40	0	688914432	63	4271
2026-01-21 01:05:41.00	2.49	68.86	-46.1	-47.4	20.4	0.00e+00	0	40	0	689963008	63	4269
2026-01-21 01:05:42.01	1.86	69.28	-45.8	-47.0	20.7	0.00e+00	0	40	0	692060160	62	4338
2026-01-21 01:05:43.02	1.21	69.69	-46.0	-47.3	20.6	0.00e+00	0	40	0	694157312	62	4446
2026-01-21 01:05:44.03	0.53	70.10	-46.2	-47.5	20.3	0.00e+00	0	39	0	696254464	63	4325
2026-01-21 01:05:45.03	359.82	70.51	-45.3	-46.4	21.1	0.00e+00	0	39	0	698351616	62	4050
2026-01-21 01:05:46.04	359.08	70.92	-44.6	-45.6	22.0	0.00e+00	0	40	0	700448768	61	3891
2026-01-21 01:05:47.05	358.30	71.32	-45.0	-46.1	21.5	0.00e+00	0	40	0	701497344	61	4119
2026-01-21 01:05:48.06	357.48	71.73	-44.5	-45.5	22.0	0.00e+00	0	40	0	703594496	60	4094
2026-01-21 01:05:49.06	356.64	72.13	-44.2	-45.2	22.2	0.00e+00	0	40	0	705691648	60	3945
2026-01-21 01:05:50.07	355.74	72.53	-44.5	-45.5	22.3	0.00e+00	0	40	0	707788800	59	4312
2026-01-21 01:05:51.08	354.80	72.93	-44.7	-45.8	21.8	0.00e+00	0	40	0	709885952	60	4199
2026-01-21 01:05:52.09	353.81	73.32	-44.5	-45.6	21.9	0.00e+00	0	40	0	710934528	60	4114
2026-01-21 01:05:53.10	352.77	73.72	-44.8	-45.8	21.7	0.00e+00	0	40	0	713031680	61	3998
2026-01-21 01:05:54.11	351.67	74.10	-46.1	-47.4	20.5	0.00e+00	0	40	0	715128832	62	4511
2026-01-21 01:05:55.11	350.54	74.48	-47.2	-48.8	19.1	0.00e+00	0	40	0	717225984	64	4712
2026-01-21 01:05:56.12	349.33	74.86	-47.2	-48.7	19.2	0.00e+00	0	40	0	718274560	65	4398
2026-01-21 01:05:57.13	348.05	75.23	-47.2	-48.7	19.1	0.00e+00	0	40	0	720371712	64	4683
2026-01-21 01:05:58.14	346.71	75.60	-48.1	-49.9	17.9	0.00e+00	0	40	0	722468864	67	4524
2026-01-21 01:05:59.15	345.30	75.96	-49.1	-51.4	16.4	0.00e+00	0	40	0	724566016	69	4769
2026-01-21 01:06:00.15	343.82	76.30	-48.2	-50.0	17.9	0.00e+00	0	40	0	726663168	68	4317
2026-01-21 01:06:01.16	342.25	76.64	-49.3	-51.5	16.5	0.00e+00	0	40	0	728760320	69	4839
2026-01-21 01:06:02.17	340.60	76.98	-48.4	-50.3	17.8	0.00e+00	0	40	0	729808896	68	4449
2026-01-21 01:06:03.18	338.86	77.30	-47.4	-48.9	18.8	0.00e+00	0	40	0	731906048	66	4291
2026-01-21 01:06:04.18	337.05	77.61	-46.9	-48.3	19.4	0.00e+00	0	40	0	734003200	65	4218
2026-01-21 01:06:05.19	335.12	77.90	-47.4	-49.0	18.9	0.00e+00	0	40	0	736100352	65	4566
2026-01-21 01:06:06.20	333.10	78.19	-47.3	-48.8	19.1	0.00e+00	0	40	0	738197504	66	4194
2026-01-21 01:06:07.21	330.97	78.46	-46.4	-47.7	20.1	0.00e+00	0	40	0	739246080	64	4162
2026-01-21 01:06:08.22	328.75	78.71	-47.8	-49.5	18.4	0.00e+00	0	40	0	741343232	66	4558
2026-01-21 01:06:09.23	326.42	78.95	-47.8	-49.5	18.5	0.00e+00	0	40	0	743440384	66	4549
2026-01-21 01:06:10.23	324.02	79.17	-48.5	-50.4	17.6	0.00e+00	0	40	0	745537536	67	4782
2026-01-21 01:06:11.24	321.50	79.36	-49.2	-51.4	16.6	0.00e+00	0	40	0	747634688	69	4802
2026-01-21 01:06:12.25	318.88	79.54	-49.5	-51.8	16.2	0.00e+00	0	40	0	748683264	69	5001
2026-01-21 01:06:13.26	316.18	79.70	-49.3	-51.4	16.7	0.00e+00	0	40	0	750780416	70	4524
2026-01-21 01:06:14.27	313.40	79.83	-50.0	-52.5	15.7	0.00e+00	0	40	0	752877568	70	5116
2026-01-21 01:06:15.27	310.58	79.94	-50.6	-53.5	14.7	0.00e+00	0	40	0	754974720	71	5437
2026-01-21 01:06:16.28	307.67	80.02	-50.8	-54.0	14.1	1.06e-05	0	40	0	757071872	73	5137
2026-01-21 01:06:17.29	304.72	80.08	-49.8	-52.3	15.8	0.00e+00	0	40	0	758120448	71	4715
2026-01-21 01:06:18.30	301.75	80.11	-49.5	-51.8	16.5	0.00e+00	0	40	0	760217600	70	4712
2026-01-21 01:06:19.31	298.76	80.12	-50.8	-53.9	14.2	0.00e+00	0	40	0	762314752	72	5356
2026-01-21 01:06:20.31	295.81	80.10	-50.9	-54.1	13.9	5.30e-06	0	40	0	764411904	72	5527
2026-01-21 01:06:21.32	292.84	80.05	-50.1	-52.7	15.4	0.00e+00	0	40	0	766509056	72	4661
2026-01-21 01:06:22.33	289.92	79.98	-48.9	-50.9	17.0	0.00e+00	0	40	0	768606208	69	4529
2026-01-21 01:06:23.34	287.04	79.88	-48.5	-50.4	17.6	0.00e+00	0	40	0	769654784	68	4532
2026-01-21 01:06:24.34	284.25	79.76	-49.4	-51.6	16.4	0.00e+00	0	40	0	771751936	69	4917
2026-01-21 01:06:25.35	281.51	79.62	-48.7	-50.6	17.4	0.00e+00	0	40	0	773849088	69	4378
2026-01-21 01:06:26.36	278.86	79.45	-48.3	-50.1	17.9	0.00e+00	0	40	0	775946240	67	4613
2026-01-21 01:06:27.37	276.29	79.26	-49.3	-51.4	16.7	0.00e+00	0	40	0	776994816	69	4798
2026-01-21 01:06:28.38	273.82	79.05	-48.1	-49.8	18.2	0.00e+00	0	40	0	779091968	68	4226
2026-01-21 01:06:29.39	271.45	78.82	-47.4	-48.9	19.0	0.00e+00	0	40	0	781189120	65	4515
2026-01-21 01:06:30.39	269.20	78.58	-49.2	-51.3	17.0	0.00e+00	0	40	0	783286272	68	5007
2026-01-21 01:06:31.40	267.03	78.31	-48.4	-50.1	17.8	0.00e+00	0	40	0	785383424	68	4372
2026-01-21 01:06:32.41	264.96	78.03	-47.6	-49.2	18.7	0.00e+00	0	40	0	786432000	65	4684
2026-01-21 01:06:33.42	262.98	77.74	-49.0	-51.0	17.2	0.00e+00	0	40	0	788529152	68	4833
2026-01-21 01:06:34.42	261.13	77.44	-49.1	-51.3	16.7	0.00e+00	0	40	0	790626304	69	4731
2026-01-21 01:06:35.43	259.34	77.12	-49.5	-51.8	16.4	0.00e+00	0	40	0	792723456	70	4728
2026-01-21 01:06:36.44	257.65	76.80	-50.9	-54.1	14.2	0.00e+00	0	40	0	794820608	72	5493
2026-01-21 01:06:37.45	256.04	76.46	-50.8	-54.0	13.9	1.14e-05	0	40	0	796917760	73	5147
2026-01-21 01:06:38.46	254.52	76.11	-50.2	-52.9	15.0	1.06e-05	0	40	0	797966336	72	4779
2026-01-21 01:06:39.47	253.07	75.76	-48.3	-50.0	18.0	0.00e+00	0	40	0	800063488	68	4312
2026-01-21 01:06:40.48	251.70	75.39	-47.5	-49.0	19.0	0.00e+00	0	40	0	802160640	66	4305
2026-01-21 01:06:41.49	250.39	75.02	-47.0	-48.5	19.4	0.00e+00	0	40	0	804257792	65	4296
2026-01-21 01:06:42.49	249.17	74.65	-46.0	-47.2	20.5	0.00e+00	0	40	0	805306368	63	4179
2026-01-21 01:06:43.50	247.99	74.27	-45.8	-47.0	20.8	0.00e+00	0	40	0	807403520	63	4086
2026-01-21 01:06:44.51	246.87	73.89	-46.3	-47.6	20.3	0.00e+00	0	40	0	809500672	63	4344
2026-01-21 01:06:45.52	245.81	73.50	-45.3	-46.4	21.3	0.00e+00	0	40	0	811597824	62	4048
2026-01-21 01:06:46.53	244.79	73.10	-44.2	-45.2	22.5	0.00e+00	0	40	0	813694976	59	4157
2026-01-21 01:06:47.54	243.83	72.70	-43.9	-44.8	23.0	0.00e+00	0	40	0	815792128	59	3983
2026-01-21 01:06:48.54	242.92	72.31	-44.7	-45.7	22.0	0.00e+00	0	40	0	816840704	60	4182
2026-01-21 01:06:49.55	242.05	71.91	-45.6	-46.8	20.9	0.00e+00	0	39	0	818937856	61	4455
2026-01-21 01:06:50.56	241.21	71.50	-45.0	-46.0	21.6	0.00e+00	0	40	0	821035008	61	4086
2026-01-21 01:06:51.57	240.42	71.09	-44.5	-45.5	22.0	0.00e+00	0	40	0	823132160	61	3857
2026-01-21 01:06:52.58	239.66	70.68	-44.3	-45.3	22.5	0.00e+00	0	40	0	825229312	59	4222
2026-01-21 01:06:53.58	238.94	70.28	-45.1	-46.3	21.5	0.00e+00	0	40	0	826277888	61	4202
2026-01-21 01:06:54.59	238.24	69.87	-46.3	-47.6	20.2	0.00e+00	0	40	0	828375040	63	4380
2026-01-21 01:06:55.60	237.58	69.45	-45.6	-46.8	20.9	0.00e+00	0	40	0	830472192	63	3961
2026-01-21 01:06:56.61	236.94	69.04	-45.6	-46.8	21.0	0.00e+00	0	40	0	832569344	62	4228
2026-01-21 01:06:57.62	236.33	68.63	-46.7	-48.1	19.9	0.00e+00	0	40	0	833617920	63	4604
2026-01-21 01:06:58.63	235.75	68.21	-46.7	-48.2	19.7	0.00e+00	0	40	0	835715072	64	4398
2026-01-21 01:06:59.64	235.19	67.80	-46.9	-48.3	19.6	0.00e+00	0	40	0	837812224	65	4224
2026-01-21 01:07:00.65	234.65	67.38	-45.9	-47.1	20.7	0.00e+00	0	40	0	839909376	63	4107
2026-01-21 01:07:01.66	234.13	66.97	-45.1	-46.2	21.4	0.00e+00	0	40	0	842006528	62	3954
2026-01-21 01:07:02.67	233.63	66.56	-44.6	-45.7	21.9	0.00e+00	0	40	0	844103680	61	3939
2026-01-21 01:07:03.67	233.16	66.15	-45.7	-46.9	20.9	0.00e+00	0	40	0	845152256	62	4248
2026-01-21 01:07:04.68	232.70	65.74	-46.3	-47.6	20.2	0.00e+00	0	40	0	847249408	63	4381
2026-01-21 01:07:05.69	232.25	65.32	-45.9	-47.2	20.6	0.00e+00	0	40	0	849346560	63	4156
2026-01-21 01:07:06.70	231.83	64.91	-46.3	-47.6	20.2	0.00e+00	0	40	0	851443712	64	4132
2026-01-21 01:07:07.71	231.41	64.50	-46.4	-47.7	19.9	0.00e+00	0	40	0	853540864	64	4172
2026-01-21 01:07:08.72	231.02	64.10	-45.9	-47.1	20.7	0.00e+00	0	40	0	854589440	63	4139
2026-01-21 01:07:09.72	230.64	63.69	-47.1	-48.6	19.3	0.00e+00	0	40	0	856686592	64	4616
2026-01-21 01:07:10.73	230.27	63.29	-48.5	-50.5	17.5	0.00e+00	0	40	0	858783744	68	4587
2026-01-21 01:07:11.74	229.91	62.88	-48.4	-50.3	17.7	0.00e+00	0	40	0	860880896	68	4491
2026-01-21 01:07:12.75	229.56	62.48	-48.7	-50.8	17.2	0.00e+00	0	40	0	862978048	67	4998
2026-01-21 01:07:13.76	229.23	62.08	-49.3	-51.8	16.0	0.00e+00	0	40	0	864026624	69	4984
2026-01-21 01:07:14.77	228.91	61.68	-47.5	-49.1	18.8	0.00e+00	0	40	0	866123776	67	4107
2026-01-21 01:07:15.78	228.59	61.28	-45.6	-46.7	20.8	0.00e+00	0	40	0	868220928	63	3954
2026-01-21 01:07:16.78	228.29	60.88	-45.1	-46.2	21.4	0.00e+00	0	40	0	870318080	61	4178
2026-01-21 01:07:17.79	228.00	60.49	-44.2	-45.2	22.3	0.00e+00	0	40	0	872415232	60	3927
2026-01-21 01:07:18.80	227.71	60.09	-44.2	-45.2	22.5	0.00e+00	0	40	0	873463808	59	4189
2026-01-21 01:07:19.81	227.44	59.70	-44.3	-45.3	22.5	0.00e+00	0	40	0	875560960	59	4215
2026-01-21 01:07:20.82	227.17	59.31	-44.5	-45.5	22.0	0.00e+00	0	40	0	877658112	60	4088
2026-01-21 01:07:21.83	226.91	58.92	-44.5	-45.5	21.9	0.00e+00	0	40	0	879755264	60	4098
2026-01-21 01:07:22.84	226.66	58.54	-45.6	-46.8	20.9	0.00e+00	0	40	0	881852416	62	4230
2026-01-21 01:07:23.84	226.42	58.16	-45.3	-46.4	21.3	0.00e+00	0	40	0	882900992	62	4029
2026-01-21 01:07:24.85	226.18	57.78	-44.8	-45.9	21.7	0.00e+00	0	40	0	884998144	61	4031
2026-01-21 01:07:25.86	225.95	57.40	-44.5	-45.5	22.1	0.00e+00	0	40	0	887095296	60	4058
2026-01-21 01:07:26.87	225.72	57.02	-45.1	-46.2	21.5	0.00e+00	0	40	0	889192448	60	4413
2026-01-21 01:07:27.88	225.50	56.64	-46.1	-47.4	20.3	0.00e+00	0	40	0	891289600	62	4520
2026-01-21 01:07:28.89	225.29	56.27	-46.9	-48.4	19.5	0.00e+00	0	39	0	892338176	64	4524
2026-01-21 01:07:29.89	225.09	55.90	-46.8	-48.2	19.6	0.00e+00	0	40	0	894435328	65	4156
2026-01-21 01:07:30.90	224.89	55.53	-47.3	-48.9	18.9	0.00e+00	0	40	0	896532480	65	4545
2026-01-21 01:07:31.91	224.69	55.16	-47.0	-48.6	19.2	0.00e+00	0	39	0	898629632	65	4356
2026-01-21 01:07:32.92	224.50	54.80	-45.8	-47.0	20.6	0.00e+00	0	40	0	900726784	63	4058
2026-01-21 01:07:33.93	224.31	54.43	-45.4	-46.6	21.1	0.00e+00	0	40	0	901775360	62	4120
2026-01-21 01:07:34.93	224.13	54.08	-45.7	-47.0	20.7	0.00e+00	0	40	0	903872512	62	4320
2026-01-21 01:07:35.94	223.96	53.72	-45.1	-46.3	21.3	0.00e+00	0	40	0	905969664	62	3969
2026-01-21 01:07:36.95	223.78	53.36	-44.7	-45.7	21.8	0.00e+00	0	40	0	908066816	61	3955
2026-01-21 01:07:37.96	223.62	53.01	-45.5	-46.7	21.1	0.00e+00	0	40	0	910163968	61	4394
2026-01-21 01:07:38.97	223.45	52.65	-45.1	-46.2	21.3	0.00e+00	0	40	0	911212544	61	4190
2026-01-21 01:07:39.98	223.29	52.30	-44.6	-45.7	21.8	0.00e+00	0	40	0	913309696	60	4157
2026-01-21 01:07:40.99	223.14	51.96	-44.7	-45.8	21.6	0.00e+00	0	40	0	915406848	60	4219
2026-01-21 01:07:41.99	222.99	51.62	-45.5	-46.7	20.9	0.00e+00	0	40	0	917504000	61	4427
2026-01-21 01:07:43.00	222.84	51.27	-46.2	-47.5	20.2	0.00e+00	0	40	0	919601152	63	4334
2026-01-21 01:07:44.01	222.69	50.93	-46.2	-47.5	20.1	0.00e+00	0	40	0	920649728	64	4092
2026-01-21 01:07:45.02	222.55	50.59	-46.4	-47.7	20.1	0.00e+00	0	40	0	922746880	63	4438
2026-01-21 01:07:46.03	222.41	50.26	-47.3	-48.9	18.9	0.00e+00	0	40	0	924844032	65	4503
2026-01-21 01:07:47.03	222.27	49.93	-47.8	-49.6	18.3	0.00e+00	0	40	0	926941184	66	4604
2026-01-21 01:07:48.04	222.14	49.59	-47.6	-49.2	18.5	0.00e+00	0	40	0	929038336	66	4434
2026-01-21 01:07:49.05	222.01	49.27	-47.5	-49.2	18.6	0.00e+00	0	40	0	931135488	65	4654
2026-01-21 01:07:50.06	221.88	48.94	-47.1	-48.5	19.1	0.00e+00	0	40	0	932184064	65	4339
2026-01-21 01:07:51.07	221.76	48.61	-47.8	-49.5	18.3	0.00e+00	0	40	0	934281216	66	4583
2026-01-21 01:07:52.08	221.64	48.29	-48.9	-51.0	16.9	0.00e+00	0	40	0	936378368	68	4822
2026-01-21 01:07:53.09	221.52	47.97	-49.3	-51.6	16.3	0.00e+00	0	40	0	938475520	69	4895
2026-01-21 01:07:54.09	221.40	47.65	-48.9	-51.0	16.9	0.00e+00	0	40	0	939524096	69	4558
2026-01-21 01:07:55.10	221.29	47.34	-47.9	-49.6	18.1	0.00e+00	0	40	0	941621248	67	4377
2026-01-21 01:07:56.11	221.18	47.02	-48.0	-49.7	18.0	0.00e+00	0	40	0	943718400	67	4440
2026-01-21 01:07:57.12	221.07	46.71	-47.9	-49.6	18.1	0.00e+00	0	40	0	945815552	66	4649
2026-01-21 01:07:58.12	220.96	46.41	-47.5	-49.1	18.6	0.00e+00	0	40	0	947912704	66	4368
2026-01-21 01:07:59.13	220.86	46.10	-46.5	-47.9	19.7	0.00e+00	0	40	0	950009856	64	4278
2026-01-21 01:08:00.14	220.75	45.79	-46.8	-48.2	19.5	0.00e+00	0	40	0	951058432	64	4437
2026-01-21 01:08:01.15	220.65	45.49	-46.1	-47.4	20.2	0.00e+00	0	40	0	953155584	64	4010
2026-01-21 01:08:02.16	220.55	45.19	-46.6	-48.0	19.7	0.00e+00	0	40	0	955252736	64	4292
2026-01-21 01:08:03.16	220.46	44.89	-46.5	-47.9	19.6	0.00e+00	0	40	0	957349888	64	4268
2026-01-21 01:08:04.17	220.36	44.60	-47.4	-48.9	18.8	0.00e+00	0	40	0	959447040	65	4517
2026-01-21 01:08:05.18	220.27	44.30	-47.3	-48.8	18.9	0.00e+00	0	40	0	960495616	66	4200
2026-01-21 01:08:06.19	220.18	44.01	-48.0	-49.8	18.0	0.00e+00	0	40	0	962592768	66	4716
2026-01-21 01:08:07.20	220.09	43.72	-48.0	-49.7	18.0	0.00e+00	0	40	0	964689920	67	4433
2026-01-21 01:08:08.20	220.00	43.44	-48.1	-49.9	17.9	0.00e+00	0	39	0	966787072	67	4510
2026-01-21 01:08:09.21	219.91	43.15	-48.2	-50.1	17.6	0.00e+00	0	40	0	967835648	67	4622
2026-01-21 01:08:10.22	219.83	42.87	-49.1	-51.4	15.9	0.00e+00	0	40	0	969932800	69	4791
2026-01-21 01:08:11.23	219.74	42.58	-50.8	-54.2	13.6	3.00e-06	0	40	0	972029952	72	5551
2026-01-21 01:08:12.24	219.66	42.30	-50.1	-52.9	14.7	5.30e-06	0	40	0	974127104	72	4810
2026-01-21 01:08:13.25	219.58	42.03	-48.7	-50.7	17.1	0.00e+00	0	40	0	976224256	69	4411
2026-01-21 01:08:14.26	219.50	41.75	-47.8	-49.5	18.1	0.00e+00	0	40	0	978321408	67	4301
2026-01-21 01:08:15.26	219.42	41.48	-47.3	-48.9	18.7	0.00e+00	0	40	0	979369984	66	4279
2026-01-21 01:08:16.27	219.35	41.21	-47.1	-48.7	19.0	0.00e+00	0	40	0	981467136	65	4396
2026-01-21 01:08:17.29	219.27	40.93	-48.2	-50.0	17.7	0.00e+00	0	40	0	983564288	66	4855
2026-01-21 01:08:18.29	219.20	40.67	-48.1	-50.0	17.6	0.00e+00	0	40	0	985661440	67	4578
2026-01-21 01:08:19.30	219.12	40.40	-48.1	-50.0	17.8	0.00e+00	0	40	0	987758592	67	4582
2026-01-21 01:08:20.31	219.05	40.14	-47.9	-49.6	18.0	0.00e+00	0	40	0	988807168	67	4385
2026-01-21 01:08:21.32	218.98	39.88	-48.6	-50.7	17.1	0.00e+00	0	40	0	990904320	67	4933
2026-01-21 01:08:22.33	218.91	39.62	-49.0	-51.3	16.6	0.00e+00	0	40	0	993001472	68	4995
2026-01-21 01:08:23.33	218.85	39.36	-49.0	-51.2	16.6	0.00e+00	0	40	0	995098624	68	4938
2026-01-21 01:08:24.34	218.78	39.10	-48.3	-50.1	17.6	0.00e+00	0	40	0	997195776	68	4380
2026-01-21 01:08:25.35	218.71	38.85	-46.7	-48.2	19.3	0.00e+00	0	40	0	998244352	65	4158
2026-01-21 01:08:26.36	218.65	38.60	-45.7	-46.9	20.6	0.00e+00	0	40	0	1000341504	63	4031
2026-01-21 01:08:27.37	218.59	38.34	-45.4	-46.6	20.9	0.00e+00	0	40	0	1002438656	62	4125
2026-01-21 01:08:28.38	218.52	38.09	-45.8	-47.0	20.5	0.00e+00	0	40	0	1004535808	62	4339
2026-01-21 01:08:29.38	218.46	37.85	-46.0	-47.3	20.3	0.00e+00	0	40	0	1006632960	63	4239
2026-01-21 01:08:30.39	218.40	37.60	-47.1	-48.6	19.0	0.00e+00	0	40	0	1007681536	64	4631
2026-01-21 01:08:31.40	218.34	37.36	-47.8	-49.6	18.1	0.00e+00	0	40	0	1009778688	66	4608
2026-01-21 01:08:32.41	218.28	37.12	-47.9	-49.7	18.0	0.00e+00	0	40	0	1011875840	67	4410
2026-01-21 01:08:33.42	218.23	36.88	-47.6	-49.3	18.3	0.00e+00	0	40	0	1013972992	67	4225
2026-01-21 01:08:34.42	218.17	36.64	-48.0	-49.8	17.8	0.00e+00	0	40	0	1016070144	66	4736
2026-01-21 01:08:35.43	218.11	36.40	-47.9	-49.7	17.9	0.00e+00	0	40	0	1018167296	66	4687
2026-01-21 01:08:36.44	218.06	36.17	-48.0	-49.9	17.7	0.00e+00	0	40	0	1019215872	66	4797
2026-01-21 01:08:37.45	218.00	35.93	-48.7	-50.7	17.0	0.00e+00	0	40	0	1021313024	68	4700
2026-01-21 01:08:38.46	217.95	35.70	-49.0	-51.3	16.5	0.00e+00	0	40	0	1023410176	68	4996
2026-01-21 01:08:39.46	217.90	35.47	-49.3	-51.6	16.1	0.00e+00	0	40	0	1025507328	69	4901
2026-01-21 01:08:40.47	217.85	35.24	-48.4	-50.4	17.3	0.00e+00	0	40	0	1026555904	68	4523
2026-01-21 01:08:41.48	217.80	35.02	-48.2	-50.1	17.6	0.00e+00	0	40	0	1028653056	68	4355
2026-01-21 01:08:42.49	217.75	34.79	-47.4	-49.0	18.6	0.00e+00	0	40	0	1030750208	66	4333
2026-01-21 01:08:43.49	217.70	34.57	-46.8	-48.3	19.2	0.00e+00	0	40	0	1032847360	65	4195
2026-01-21 01:08:44.50	217.65	34.35	-46.6	-48.0	19.5	0.00e+00	0	40	0	1034944512	65	4073
2026-01-21 01:08:45.51	217.60	34.13	-46.7	-48.2	19.3	0.00e+00	0	40	0	1035993088	65	4159
2026-01-21 01:08:46.52	217.55	33.91	-46.9	-48.4	19.1	0.00e+00	0	40	0	1038090240	65	4268
2026-01-21 01:08:47.53	217.50	33.69	-47.6	-49.2	18.3	0.00e+00	0	40	0	1040187392	65	4698
2026-01-21 01:08:48.54	217.46	33.47	-47.2	-48.8	18.7	0.00e+00	0	40	0	1042284544	65	4469
2026-01-21 01:08:49.54	217.41	33.26	-47.1	-48.6	18.9	0.00e+00	0	40	0	1044381696	65	4388
2026-01-21 01:08:50.55	217.37	33.05	-47.3	-48.9	18.4	0.00e+00	0	40	0	1046478848	65	4527
2026-01-21 01:08:51.56	217.32	32.83	-47.1	-48.7	18.8	0.00e+00	0	40	0	1047527424	65	4408
2026-01-21 01:08:52.57	217.28	32.62	-47.3	-48.9	18.6	0.00e+00	0	40	0	1049624576	65	4542
2026-01-21 01:08:53.58	217.24	32.41	-47.5	-49.2	18.3	0.00e+00	0	40	0	1051721728	65	4667
2026-01-21 01:08:54.58	217.20	32.21	-47.5	-49.2	18.4	0.00e+00	0	40	0	1053818880	65	4661
2026-01-21 01:08:55.59	217.15	32.00	-47.3	-48.9	18.7	0.00e+00	0	40	0	1054867456	65	4545
2026-01-21 01:08:56.60	217.11	31.80	-47.7	-49.5	18.1	0.00e+00	0	40	0	1056964608	65	4815
2026-01-21 01:08:57.60	217.07	31.60	-47.8	-49.5	18.1	0.00e+00	0	40	0	1059061760	66	4590
2026-01-21 01:08:58.61	217.03	31.39	-47.8	-49.6	17.9	0.00e+00	0	40	0	1061158912	66	4621
2026-01-21 01:08:59.62	216.99	31.19	-48.0	-49.9	17.6	0.00e+00	0	40	0	1063256064	66	4774
2026-01-21 01:09:00.63	216.95	30.99	-47.6	-49.4	18.1	0.00e+00	0	40	0	1064304640	66	4495
2026-01-21 01:09:01.64	216.91	30.80	-47.6	-49.3	18.2	0.00e+00	0	40	0	1066401792	66	4488
2026-01-21 01:09:02.64	216.88	30.60	-47.6	-49.3	18.2	0.00e+00	0	40	0	1068498944	66	4471
2026-01-21 01:09:03.65	216.84	30.41	-47.3	-49.0	18.5	0.00e+00	0	40	0	1070596096	66	4314
2026-01-21 01:09:04.66	216.80	30.21	-47.4	-49.1	18.4	0.00e+00	0	40	0	1072693248	66	4383
2026-01-21 01:09:05.67	216.77	30.02	-47.6	-49.4	18.1	0.00e+00	0	40	0	1074790400	66	4515
2026-01-21 01:09:06.67	216.73	29.83	-47.7	-49.5	18.0	0.00e+00	0	40	0	1075838976	66	4561
2026-01-21 01:09:07.68	216.69	29.64	-47.8	-49.6	17.9	0.00e+00	0	40	0	1077936128	66	4626
2026-01-21 01:09:08.69	216.66	29.45	-47.6	-49.3	18.1	0.00e+00	0	40	0	1080033280	66	4482
2026-01-21 01:09:09.70	216.62	29.26	-47.3	-49.0	18.5	0.00e+00	0	40	0	1082130432	66	4310
2026-01-21 01:09:10.70	216.59	29.08	-47.4	-49.0	18.4	0.00e+00	0	40	0	1083179008	66	4340
2026-01-21 01:09:11.71	216.56	28.89	-46.6	-48.1	19.3	0.00e+00	0	40	0	1085276160	64	4375
2026-01-21 01:09:12.72	216.52	28.71	-46.1	-47.4	19.9	0.00e+00	0	40	0	1087373312	64	4027
2026-01-21 01:09:13.73	216.49	28.52	-46.0	-47.3	20.0	0.00e+00	0	40	0	1089470464	63	4216
2026-01-21 01:09:14.74	216.46	28.34	-45.9	-47.2	20.2	0.00e+00	0	40	0	1091567616	63	4168
2026-01-21 01:09:15.74	216.42	28.16	-45.6	-46.9	20.5	0.00e+00	0	40	0	1093664768	63	4018
2026-01-21 01:09:16.75	216.39	27.98	-45.9	-47.2	20.2	0.00e+00	0	40	0	1094713344	63	4179
2026-01-21 01:09:17.76	216.36	27.81	-46.1	-47.5	19.9	0.00e+00	0	40	0	1096810496	63	4319
2026-01-21 01:09:18.77	216.33	27.63	-46.0	-47.3	20.1	0.00e+00	0	40	0	1098907648	63	4215
2026-01-21 01:09:19.78	216.30	27.45	-46.1	-47.5	19.9	0.00e+00	0	40	0	1101004800	63	4308
2026-01-21 01:09:20.79	216.27	27.28	-46.2	-47.6	19.8	0.00e+00	0	40	0	1103101952	63	4354
2026-01-21 01:09:21.79	216.24	27.11	-46.2	-47.6	19.8	0.00e+00	0	40	0	1104150528	63	4365
2026-01-21 01:09:22.80	216.21	26.93	-46.0	-47.4	20.0	0.00e+00	0	40	0	1106247680	63	4254
2026-01-21 01:09:23.81	216.18	26.76	-46.0	-47.3	20.1	0.00e+00	0	40	0	1108344832	63	4216
2026-01-21 01:09:24.81	216.15	26.59	-45.9	-47.3	20.1	0.00e+00	0	40	0	1110441984	63	4213
2026-01-21 01:09:25.82	216.12	26.42	-45.7	-47.0	20.4	0.00e+00	0	40	0	1111490560	63	4056
2026-01-21 01:09:26.83	216.10	26.25	-45.5	-46.8	20.6	0.00e+00	0	40	0	1113587712	63	3969
2026-01-21 01:09:27.84	216.07	26.09	-45.6	-46.9	20.5	0.00e+00	0	39	0	1115684864	62	4249
2026-01-21 01:09:28.85	216.04	25.92	-45.3	-46.5	20.7	0.00e+00	0	40	0	1117782016	62	4085
2026-01-21 01:09:29.86	216.01	25.75	-45.5	-46.8	20.5	0.00e+00	0	39	0	1119879168	62	4209
2026-01-21 01:09:30.87	215.99	25.59	-45.4	-46.7	20.6	0.00e+00	0	40	0	1121976320	62	4169
2026-01-21 01:09:31.87	215.96	25.43	-45.4	-46.7	20.6	0.00e+00	0	40	0	1123024896	62	4170
2026-01-21 01:09:32.88	215.93	25.27	-45.2	-46.4	20.7	0.00e+00	0	40	0	1125122048	62	4046
2026-01-21 01:09:33.89	215.91	25.10	-45.5	-46.8	20.5	0.00e+00	0	40	0	1127219200	62	4211
2026-01-21 01:09:34.90	215.88	24.94	-45.7	-47.0	20.3	0.00e+00	0	39	0	1129316352	62	4336
2026-01-21 01:09:35.91	215.86	24.78	-45.8	-47.1	20.2	0.00e+00	0	40	0	1131413504	62	4341
2026-01-21 01:09:36.92	215.83	24.63	-45.8	-47.1	20.2	0.00e+00	0	40	0	1132462080	62	4375
2026-01-21 01:09:37.92	215.81	24.47	-45.9	-47.3	20.1	0.00e+00	0	40	0	1134559232	62	4453
2026-01-21 01:09:38.93	215.78	24.31	-46.1	-47.4	19.9	0.00e+00	0	39	0	1136656384	62	4534
2026-01-21 01:09:39.94	215.76	24.16	-46.3	-47.7	19.7	0.00e+00	0	40	0	1138753536	63	4405
2026-01-21 01:09:40.95	215.73	24.00	-46.5	-48.0	19.4	0.00e+00	0	39	0	1140850688	63	4554
2026-01-21 01:09:41.96	215.71	23.85	-46.6	-48.1	19.2	0.00e+00	0	40	0	1141899264	64	4344
2026-01-21 01:09:42.97	215.69	23.70	-46.4	-47.8	19.4	0.00e+00	0	40	0	1143996416	64	4234
2026-01-21 01:09:43.97	215.66	23.54	-46.7	-48.3	19.0	0.00e+00	0	40	0	1146093568	64	4471
2026-01-21 01:09:44.98	215.64	23.39	-47.1	-48.8	18.5	0.00e+00	0	40	0	1148190720	64	4736
2026-01-21 01:09:45.99	215.62	23.24	-47.2	-48.8	18.4	0.00e+00	0	40	0	1150287872	64	4759
2026-01-21 01:09:47.00	215.60	23.09	-47.6	-49.5	17.9	0.00e+00	0	40	0	1151336448	65	4817
2026-01-21 01:09:48.01	215.57	22.94	-47.2	-48.9	18.4	0.00e+00	0	39	0	1153433600	65	4510
2026-01-21 01:09:49.01	215.55	22.80	-47.2	-48.9	18.5	0.00e+00	0	40	0	1155530752	65	4511
2026-01-21 01:09:50.02	215.53	22.65	-46.8	-48.3	19.0	0.00e+00	0	40	0	1157627904	65	4225
2026-01-21 01:09:51.03	215.51	22.51	-46.3	-47.8	19.4	0.00e+00	0	39	0	1159725056	64	4199
2026-01-21 01:09:52.04	215.49	22.36	-46.1	-47.5	19.7	0.00e+00	0	40	0	1160773632	64	4071
2026-01-21 01:09:53.04	215.47	22.22	-46.2	-47.6	19.7	0.00e+00	0	40	0	1162870784	63	4351
2026-01-21 01:09:54.05	215.45	22.07	-45.7	-47.0	20.2	0.00e+00	0	40	0	1164967936	63	4069
2026-01-21 01:09:55.06	215.42	21.93	-45.3	-46.5	20.7	0.00e+00	0	40	0	1167065088	62	4069
2026-01-21 01:09:56.07	215.40	21.79	-45.5	-46.8	20.4	0.00e+00	0	40	0	1169162240	62	4203
2026-01-21 01:09:57.08	215.38	21.65	-45.3	-46.6	20.6	0.00e+00	0	40	0	1170210816	62	4106
2026-01-21 01:09:58.09	215.36	21.51	-45.1	-46.3	20.8	0.00e+00	0	40	0	1172307968	62	3973
2026-01-21 01:09:59.10	215.34	21.37	-45.2	-46.4	20.7	0.00e+00	0	40	0	1174405120	62	4042
2026-01-21 01:10:00.11	215.33	21.23	-45.3	-46.5	20.7	0.00e+00	0	40	0	1176502272	62	4068
2026-01-21 01:10:01.11	215.31	21.09	-45.5	-46.7	20.5	0.00e+00	0	40	0	1178599424	62	4184
2026-01-21 01:10:02.12	215.29	20.95	-45.6	-46.9	20.3	0.00e+00	0	40	0	1179648000	62	4270
2026-01-21 01:10:03.13	215.27	20.82	-45.8	-47.1	20.1	0.00e+00	0	40	0	1181745152	62	4386
2026-01-21 01:10:04.14	215.25	20.68	-45.7	-47.0	20.2	0.00e+00	0	40	0	1183842304	62	4330
2026-01-21 01:10:05.14	215.23	20.55	-45.7	-47.0	20.2	0.00e+00	0	40	0	1185939456	62	4334
2026-01-21 01:10:06.15	215.21	20.41	-45.6	-46.8	20.4	0.00e+00	0	40	0	1188036608	62	4229
2026-01-21 01:10:07.16	215.19	20.28	-45.6	-46.9	20.3	0.00e+00	0	40	0	1189085184	62	4243
2026-01-21 01:10:08.17	215.18	20.14	-45.7	-47.0	20.2	0.00e+00	0	40	0	1191182336	62	4306
2026-01-21 01:10:09.18	215.16	20.01	-45.6	-46.9	20.3	0.00e+00	0	40	0	1193279488	62	4248
2026-01-21 01:10:10.19	215.14	19.88	-45.4	-46.6	20.5	0.00e+00	0	40	0	1195376640	62	4145
2026-01-21 01:10:11.19	215.12	19.75	-45.6	-46.9	20.3	0.00e+00	0	40	0	1197473792	62	4272
2026-01-21 01:10:12.20	215.11	19.62	-45.1	-46.3	20.8	0.00e+00	0	39	0	1198522368	62	3984
2026-01-21 01:10:13.21	215.09	19.49	-44.7	-45.9	21.2	0.00e+00	0	40	0	1200619520	61	4022
2026-01-21 01:10:14.22	215.07	19.36	-44.9	-46.0	21.0	0.00e+00	0	40	0	1202716672	61	4095
2026-01-21 01:10:15.23	215.06	19.23	-44.9	-46.1	21.0	0.00e+00	0	40	0	1204813824	61	4132
2026-01-21 01:10:16.24	215.04	19.10	-45.3	-46.5	20.6	0.00e+00	0	40	0	1206910976	61	4309
2026-01-21 01:10:17.25	215.02	18.98	-45.0	-46.2	20.8	0.00e+00	0	40	0	1209008128	61	4186
2026-01-21 01:10:18.25	215.01	18.85	-45.2	-46.5	20.6	0.00e+00	0	40	0	1210056704	61	4294
2026-01-21 01:10:19.26	214.99	18.73	-45.3	-46.5	20.6	0.00e+00	0	40	0	1212153856	61	4315
2026-01-21 01:10:20.27	214.98	18.60	-45.4	-46.6	20.5	0.00e+00	0	40	0	1214251008	61	4372
2026-01-21 01:10:21.28	214.96	18.48	-45.8	-47.2	20.0	0.00e+00	0	39	0	1216348160	62	4409
2026-01-21 01:10:22.29	214.94	18.35	-46.2	-47.6	19.6	0.00e+00	0	39	0	1217396736	62	4624
2026-01-21 01:10:23.30	214.93	18.23	-46.3	-47.7	19.5	0.00e+00	0	40	0	1219493888	63	4431
2026-01-21 01:10:24.31	214.91	18.11	-46.7	-48.3	18.9	0.00e+00	0	40	0	1221591040	64	4466
2026-01-21 01:10:25.31	214.90	17.99	-47.0	-48.6	18.5	0.00e+00	0	40	0	1223688192	64	4638
2026-01-21 01:10:26.32	214.88	17.86	-46.9	-48.5	18.6	0.00e+00	0	40	0	1225785344	64	4588
2026-01-21 01:10:27.33	214.87	17.74	-47.4	-49.2	18.0	0.00e+00	0	40	0	1227882496	65	4671
2026-01-21 01:10:28.34	214.85	17.62	-47.7	-49.6	17.7	0.00e+00	0	40	0	1228931072	65	4884
2026-01-21 01:10:29.35	214.84	17.50	-47.6	-49.5	17.7	0.00e+00	0	39	0	1231028224	66	4555
2026-01-21 01:10:30.36	214.83	17.38	-47.8	-49.8	17.5	0.00e+00	0	40	0	1233125376	66	4709
2026-01-21 01:10:31.37	214.81	17.27	-48.1	-50.2	17.1	0.00e+00	0	40	0	1235222528	66	4928
2026-01-21 01:10:32.38	214.80	17.15	-48.0	-50.0	17.2	0.00e+00	0	40	0	1237319680	67	4565
2026-01-21 01:10:33.39	214.78	17.03	-48.1	-50.1	17.1	0.00e+00	0	40	0	1238368256	67	4632
2026-01-21 01:10:34.39	214.77	16.91	-47.9	-49.8	17.4	0.00e+00	0	39	0	1240465408	67	4469
2026-01-21 01:10:35.40	214.76	16.80	-47.9	-49.8	17.4	0.00e+00	0	40	0	1242562560	67	4490
2026-01-21 01:10:36.41	214.74	16.68	-48.0	-50.0	17.2	0.00e+00	0	40	0	1244659712	67	4573
2026-01-21 01:10:37.42	214.73	16.57	-47.7	-49.5	17.6	0.00e+00	0	40	0	1245708288	67	4339
2026-01-21 01:10:38.43	214.72	16.45	-47.9	-49.8	17.4	0.00e+00	0	40	0	1247805440	67	4475
2026-01-21 01:10:39.44	214.70	16.34	-47.9	-49.9	17.3	0.00e+00	0	40	0	1249902592	67	4512
2026-01-21 01:10:40.45	214.69	16.22	-47.7	-49.6	17.6	0.00e+00	0	40	0	1251999744	67	4359
