passes_logs/2026/01/21/R3.2S_Murmansk/R3.2S_Murmansk__20260121_222957_NOAA_21_JPSS-2_rec.log

#Pass ID: 20260121_222957_NOAA 21 (JPSS-2)
#Satellite: NOAA 21 (JPSS-2)
#Configuration: NOAA-21
#almurnet v.1.7.20251203
#Start time: 2026-01-21 22:29:59

#Version: 2.2.20231116
#Station: R3.2S_Murmansk
#Location: 33.079688 lon 68.888172 lat
#TLE: 1 54234U 22150A   26021.42686626  .00000211  00000+0  12107-3 0  9996
#TLE: 2 54234  98.7506 322.2490 0000636 241.9299 118.1812 14.19537149165725

#Time	Az	El	Level	Level2	SNR	BER	BlckErr	Temp	State	Recorded	gain1	gain2
2026-01-21 22:29:59.56	19.05	2.09	-54.1	-66.9	3.8	1.49e+00	0	39	0	0	79	16106
2026-01-21 22:30:00.55	19.12	2.15	-54.1	-67.0	3.8	1.49e+00	0	39	104	0	78	17127
2026-01-21 22:30:01.56	19.19	2.21	-54.1	-66.9	3.8	1.49e+00	0	39	104	0	78	17007
2026-01-21 22:30:02.57	19.25	2.26	-54.1	-66.9	3.8	1.49e+00	0	39	104	0	78	16993
2026-01-21 22:30:03.58	19.32	2.32	-54.2	-67.0	3.8	1.49e+00	0	39	104	0	78	17227
2026-01-21 22:30:04.59	19.39	2.38	-54.3	-67.1	3.8	1.49e+00	0	39	104	0	79	16474
2026-01-21 22:30:05.59	19.45	2.43	-54.3	-67.1	3.8	1.49e+00	0	39	104	0	79	16482
2026-01-21 22:30:06.60	19.52	2.49	-54.4	-67.2	3.8	1.49e+00	0	39	104	0	79	16507
2026-01-21 22:30:07.61	19.59	2.55	-54.4	-67.2	3.8	1.49e+00	0	39	104	0	79	16508
2026-01-21 22:30:08.62	19.66	2.61	-54.4	-67.1	3.8	1.49e+00	0	39	104	0	79	16467
2026-01-21 22:30:09.63	19.73	2.66	-54.3	-67.2	3.8	1.49e+00	0	40	104	0	79	16508
2026-01-21 22:30:10.64	19.79	2.72	-54.3	-67.1	3.8	1.49e+00	0	39	104	0	79	16458
2026-01-21 22:30:11.65	19.86	2.78	-54.3	-67.1	3.8	1.49e+00	0	39	104	0	79	16403
2026-01-21 22:30:12.66	19.93	2.84	-54.3	-67.0	3.8	1.49e+00	0	39	104	0	79	16302
2026-01-21 22:30:13.67	20.00	2.89	-54.2	-67.0	3.8	1.49e+00	0	40	104	0	79	16233
2026-01-21 22:30:14.68	20.07	2.95	-54.2	-66.9	3.8	1.49e+00	0	39	104	0	79	16111
2026-01-21 22:30:15.68	20.14	3.01	-54.2	-67.0	3.8	1.49e+00	0	39	104	0	79	16131
2026-01-21 22:30:16.69	20.21	3.07	-54.1	-66.9	3.8	1.49e+00	0	39	104	0	79	16095
2026-01-21 22:30:17.70	20.28	3.13	-54.0	-66.9	3.8	1.49e+00	0	40	104	0	79	15944
2026-01-21 22:30:18.71	20.35	3.18	-54.0	-66.7	3.8	1.49e+00	0	40	104	0	79	15735
2026-01-21 22:30:19.72	20.42	3.24	-53.9	-66.7	3.8	1.49e+00	0	40	104	0	79	15630
2026-01-21 22:30:20.73	20.49	3.30	-53.8	-66.6	3.8	1.49e+00	0	40	104	0	79	15434
2026-01-21 22:30:21.74	20.57	3.36	-53.7	-66.5	3.8	1.49e+00	0	40	104	0	79	15268
2026-01-21 22:30:22.75	20.64	3.42	-53.6	-66.3	3.8	1.49e+00	0	40	104	0	79	15025
2026-01-21 22:30:23.75	20.71	3.48	-53.4	-66.2	3.8	1.49e+00	0	40	104	0	78	15602
2026-01-21 22:30:24.76	20.78	3.54	-53.1	-65.9	3.8	1.49e+00	0	40	104	0	78	15116
2026-01-21 22:30:25.77	20.85	3.59	-52.7	-65.4	3.8	1.49e+00	0	40	104	0	77	15172
2026-01-21 22:30:26.78	20.93	3.65	-52.4	-65.2	3.8	1.49e+00	0	40	104	0	76	15650
2026-01-21 22:30:27.79	21.00	3.71	-52.4	-65.2	3.8	1.49e+00	0	40	104	0	76	15625
2026-01-21 22:30:28.80	21.07	3.77	-52.4	-65.2	3.8	1.49e+00	0	40	104	0	76	15610
2026-01-21 22:30:29.80	21.14	3.83	-52.4	-65.2	3.8	1.49e+00	0	40	104	0	76	15581
2026-01-21 22:30:30.81	21.22	3.89	-52.4	-65.0	3.8	1.49e+00	0	40	104	0	76	15302
2026-01-21 22:30:31.82	21.29	3.95	-52.4	-64.8	3.8	1.49e+00	0	40	104	0	76	14890
2026-01-21 22:30:32.83	21.37	4.01	-52.3	-64.4	3.8	1.49e+00	0	40	104	0	76	14269
2026-01-21 22:30:33.84	21.44	4.07	-52.3	-64.2	3.8	1.49e+00	0	40	104	0	76	13957
2026-01-21 22:30:34.85	21.52	4.13	-52.3	-63.7	3.8	1.49e+00	0	40	104	0	76	13208
2026-01-21 22:30:35.85	21.59	4.19	-52.3	-63.6	3.8	1.49e+00	0	40	104	0	76	13096
2026-01-21 22:30:36.86	21.67	4.25	-52.2	-63.3	3.8	1.49e+00	0	40	104	0	76	12661
2026-01-21 22:30:37.87	21.74	4.31	-52.2	-62.9	4.0	1.48e+00	0	40	104	0	76	12007
2026-01-21 22:30:38.88	21.82	4.37	-52.0	-60.9	4.4	1.46e+00	0	40	104	0	76	9566
2026-01-21 22:30:39.89	21.90	4.43	-51.6	-58.8	5.4	7.83e-01	0	40	104	0	75	7983
2026-01-21 22:30:40.90	21.97	4.49	-51.1	-56.8	7.0	1.95e-01	0	40	0	3145728	74	6708
2026-01-21 22:30:41.90	22.05	4.55	-50.4	-54.7	9.1	3.49e-02	0	40	0	6291456	72	5907
2026-01-21 22:30:42.91	22.13	4.61	-49.4	-52.6	11.3	3.44e-03	0	40	0	9437184	70	5218
2026-01-21 22:30:43.92	22.20	4.67	-48.8	-51.6	12.5	3.07e-04	0	40	0	12582912	69	4874
2026-01-21 22:30:44.93	22.28	4.73	-47.8	-50.0	14.0	1.37e-05	0	40	0	15728640	67	4587
2026-01-21 22:30:45.93	22.36	4.79	-47.3	-49.3	14.7	0.00e+00	0	40	0	18874368	66	4443
2026-01-21 22:30:46.94	22.44	4.85	-46.9	-48.8	15.3	0.00e+00	0	40	0	20971520	65	4442
2026-01-21 22:30:47.95	22.52	4.91	-46.9	-48.8	15.1	0.00e+00	0	40	0	24117248	65	4478
2026-01-21 22:30:48.96	22.60	4.97	-46.8	-48.6	15.4	0.00e+00	0	40	0	28311552	65	4364
2026-01-21 22:30:49.97	22.68	5.03	-47.1	-49.1	14.9	7.00e-07	0	40	0	31457280	65	4605
2026-01-21 22:30:50.98	22.75	5.10	-49.4	-52.4	11.7	2.20e-06	0	40	0	34603008	69	5402
2026-01-21 22:30:51.98	22.83	5.16	-52.1	-63.3	3.8	1.02e-01	0	40	104	36700160	74	14199
2026-01-21 22:30:52.99	22.91	5.22	-45.4	-46.7	17.4	0.00e+00	0	40	0	37748736	62	4156
2026-01-21 22:30:54.00	23.00	5.28	-46.4	-48.0	16.2	0.00e+00	0	40	0	40894464	63	4595
2026-01-21 22:30:55.01	23.08	5.34	-48.0	-50.3	13.9	7.00e-07	0	40	0	44040192	66	5001
2026-01-21 22:30:56.02	23.16	5.40	-44.9	-46.2	17.9	0.00e+00	0	40	0	47185920	61	4164
2026-01-21 22:30:57.03	23.24	5.47	-44.8	-46.0	18.1	0.00e+00	0	40	0	50331648	61	4086
2026-01-21 22:30:58.04	23.32	5.53	-44.8	-46.0	18.1	0.00e+00	0	40	0	53477376	61	4085
2026-01-21 22:30:59.04	23.40	5.59	-44.6	-45.8	18.4	0.00e+00	0	40	0	56623104	61	3979
2026-01-21 22:31:00.05	23.49	5.65	-44.7	-45.9	18.2	0.00e+00	0	40	0	59768832	61	4035
2026-01-21 22:31:01.06	23.57	5.71	-44.7	-46.0	18.2	0.00e+00	0	40	0	62914560	61	4053
2026-01-21 22:31:02.07	23.65	5.78	-44.7	-46.0	18.2	0.00e+00	0	40	0	66060288	61	4070
2026-01-21 22:31:03.08	23.74	5.84	-44.9	-46.2	18.0	0.00e+00	0	40	0	69206016	61	4149
2026-01-21 22:31:04.08	23.82	5.90	-44.9	-46.2	18.0	0.00e+00	0	40	0	72351744	61	4162
2026-01-21 22:31:05.09	23.90	5.96	-44.7	-46.0	18.3	0.00e+00	0	40	0	75497472	61	4053
2026-01-21 22:31:06.10	23.99	6.03	-44.3	-45.4	18.7	0.00e+00	0	40	0	78643200	60	4047
2026-01-21 22:31:07.11	24.07	6.09	-44.4	-45.6	18.6	0.00e+00	0	40	0	81788928	60	4107
2026-01-21 22:31:08.12	24.16	6.15	-44.3	-45.5	18.7	0.00e+00	0	40	0	84934656	60	4073
2026-01-21 22:31:09.13	24.24	6.21	-44.2	-45.3	18.9	0.00e+00	0	40	0	88080384	60	4001
2026-01-21 22:31:10.14	24.33	6.28	-44.1	-45.2	19.0	0.00e+00	0	40	0	91226112	60	3942
2026-01-21 22:31:11.15	24.42	6.34	-44.4	-45.6	18.6	0.00e+00	0	40	0	94371840	60	4137
2026-01-21 22:31:12.15	24.50	6.40	-44.3	-45.4	18.8	0.00e+00	0	40	0	97517568	60	4035
2026-01-21 22:31:13.16	24.59	6.47	-44.2	-45.3	18.9	0.00e+00	0	40	0	100663296	60	3975
2026-01-21 22:31:14.17	24.68	6.53	-44.0	-45.1	19.1	0.00e+00	0	40	0	103809024	60	3900
2026-01-21 22:31:15.18	24.76	6.59	-44.3	-45.4	19.1	0.00e+00	0	40	0	106954752	59	4278
2026-01-21 22:31:16.19	24.85	6.66	-44.6	-45.8	18.7	0.00e+00	0	40	0	110100480	59	4476
2026-01-21 22:31:17.19	24.94	6.72	-44.6	-45.8	18.8	0.00e+00	0	40	0	113246208	59	4454
2026-01-21 22:31:18.20	25.03	6.79	-44.5	-45.7	18.9	0.00e+00	0	40	0	116391936	59	4394
2026-01-21 22:31:19.21	25.12	6.85	-44.5	-45.7	18.9	0.00e+00	0	40	0	119537664	59	4403
2026-01-21 22:31:20.22	25.21	6.91	-44.5	-45.7	18.9	0.00e+00	0	41	0	122683392	59	4417
2026-01-21 22:31:21.23	25.30	6.98	-44.6	-45.8	18.8	0.00e+00	0	40	0	125829120	59	4450
2026-01-21 22:31:22.23	25.39	7.04	-44.5	-45.7	18.9	0.00e+00	0	40	0	128974848	59	4411
2026-01-21 22:31:23.24	25.48	7.11	-44.2	-45.3	19.2	0.00e+00	0	41	0	132120576	59	4226
2026-01-21 22:31:24.25	25.57	7.17	-44.1	-45.2	19.4	0.00e+00	0	40	0	135266304	59	4150
2026-01-21 22:31:25.26	25.66	7.24	-44.1	-45.2	19.4	0.00e+00	0	40	0	138412032	59	4148
2026-01-21 22:31:26.27	25.75	7.30	-44.0	-45.1	19.5	0.00e+00	0	41	0	141557760	59	4127
2026-01-21 22:31:27.28	25.85	7.37	-44.1	-45.2	19.4	0.00e+00	0	40	0	144703488	59	4158
2026-01-21 22:31:28.29	25.94	7.43	-44.0	-45.1	19.5	0.00e+00	0	41	0	147849216	59	4118
2026-01-21 22:31:29.30	26.03	7.50	-44.1	-45.2	19.4	0.00e+00	0	40	0	150994944	59	4175
2026-01-21 22:31:30.30	26.12	7.56	-44.0	-45.0	19.6	0.00e+00	0	40	0	154140672	59	4077
2026-01-21 22:31:31.31	26.22	7.63	-44.0	-45.1	19.5	0.00e+00	0	41	0	157286400	59	4118
2026-01-21 22:31:32.32	26.31	7.69	-44.1	-45.1	19.5	0.00e+00	0	40	0	160432128	59	4142
2026-01-21 22:31:33.33	26.41	7.76	-44.1	-45.1	19.5	0.00e+00	0	41	0	163577856	59	4137
2026-01-21 22:31:34.34	26.50	7.82	-44.0	-45.1	19.6	0.00e+00	0	40	0	166723584	59	4125
2026-01-21 22:31:35.34	26.60	7.89	-44.0	-45.0	19.6	0.00e+00	0	41	0	169869312	59	4098
2026-01-21 22:31:36.35	26.69	7.95	-44.0	-45.0	19.6	0.00e+00	0	40	0	173015040	59	4090
2026-01-21 22:31:37.36	26.79	8.02	-44.0	-45.1	19.6	0.00e+00	0	40	0	176160768	59	4112
2026-01-21 22:31:38.37	26.89	8.09	-44.0	-45.1	19.6	0.00e+00	0	40	0	179306496	59	4118
2026-01-21 22:31:39.38	26.98	8.15	-43.9	-45.0	19.7	0.00e+00	0	40	0	182452224	59	4076
2026-01-21 22:31:40.39	27.08	8.22	-43.9	-45.0	19.7	0.00e+00	0	40	0	185597952	59	4066
2026-01-21 22:31:41.39	27.18	8.28	-43.8	-44.8	19.8	0.00e+00	0	40	0	188743680	59	3997
2026-01-21 22:31:42.40	27.28	8.35	-43.9	-44.9	19.8	0.00e+00	0	40	0	191889408	59	4037
2026-01-21 22:31:43.41	27.37	8.42	-43.8	-44.9	19.8	0.00e+00	0	41	0	195035136	59	4015
2026-01-21 22:31:44.42	27.47	8.48	-43.8	-44.8	19.8	0.00e+00	0	41	0	198180864	59	4001
2026-01-21 22:31:45.43	27.57	8.55	-43.9	-44.9	19.8	0.00e+00	0	41	0	201326592	59	4030
2026-01-21 22:31:46.44	27.67	8.62	-44.0	-45.0	19.7	0.00e+00	0	40	0	204472320	59	4095
2026-01-21 22:31:47.44	27.77	8.68	-43.7	-44.8	19.9	0.00e+00	0	40	0	207618048	59	3967
2026-01-21 22:31:48.45	27.87	8.75	-43.8	-44.8	19.9	0.00e+00	0	40	0	210763776	59	3985
2026-01-21 22:31:49.46	27.98	8.82	-43.8	-44.8	19.9	0.00e+00	0	41	0	213909504	59	3978
2026-01-21 22:31:50.47	28.08	8.89	-43.8	-44.8	19.9	0.00e+00	0	40	0	217055232	59	3990
2026-01-21 22:31:51.48	28.18	8.95	-43.7	-44.7	19.9	0.00e+00	0	41	0	220200960	59	3953
2026-01-21 22:31:52.48	28.28	9.02	-43.6	-44.7	20.0	0.00e+00	0	41	0	223346688	59	3916
2026-01-21 22:31:53.49	28.39	9.09	-43.6	-44.7	20.1	0.00e+00	0	41	0	226492416	59	3914
2026-01-21 22:31:54.50	28.49	9.16	-43.6	-44.6	20.1	0.00e+00	0	40	0	229638144	59	3900
2026-01-21 22:31:55.51	28.59	9.22	-43.6	-44.5	20.1	0.00e+00	0	41	0	232783872	58	4094
2026-01-21 22:31:56.52	28.70	9.29	-43.7	-44.7	20.0	0.00e+00	0	40	0	235929600	58	4162
2026-01-21 22:31:57.53	28.80	9.36	-43.8	-44.8	20.0	0.00e+00	0	41	0	239075328	58	4197
2026-01-21 22:31:58.53	28.91	9.43	-43.8	-44.8	19.9	0.00e+00	0	41	0	242221056	58	4215
2026-01-21 22:31:59.54	29.01	9.50	-43.7	-44.7	20.1	0.00e+00	0	41	0	245366784	58	4159
2026-01-21 22:32:00.55	29.12	9.57	-43.4	-44.4	20.3	0.00e+00	0	41	0	248512512	58	4034
2026-01-21 22:32:01.56	29.23	9.63	-43.4	-44.4	20.3	0.00e+00	0	41	0	251658240	58	4040
2026-01-21 22:32:02.57	29.33	9.70	-43.4	-44.4	20.3	0.00e+00	0	41	0	254803968	58	4023
2026-01-21 22:32:03.58	29.44	9.77	-43.6	-44.5	20.2	0.00e+00	0	41	0	257949696	58	4096
2026-01-21 22:32:04.58	29.55	9.84	-43.4	-44.4	20.3	0.00e+00	0	40	0	261095424	58	4029
2026-01-21 22:32:05.59	29.66	9.91	-43.4	-44.4	20.3	0.00e+00	0	41	0	264241152	58	4040
2026-01-21 22:32:06.60	29.77	9.98	-43.4	-44.4	20.3	0.00e+00	0	41	0	267386880	58	4023
2026-01-21 22:32:07.61	29.88	10.05	-43.4	-44.3	20.4	0.00e+00	0	41	0	270532608	58	3998
2026-01-21 22:32:08.61	29.99	10.12	-43.2	-44.2	20.5	0.00e+00	0	41	0	273678336	58	3917
2026-01-21 22:32:09.62	30.10	10.19	-43.4	-44.3	20.4	0.00e+00	0	41	0	276824064	58	3994
2026-01-21 22:32:10.63	30.21	10.25	-43.5	-44.5	20.2	0.00e+00	0	41	0	279969792	58	4062
2026-01-21 22:32:11.64	30.32	10.32	-43.4	-44.4	20.3	0.00e+00	0	41	0	283115520	58	4014
2026-01-21 22:32:12.65	30.43	10.39	-43.2	-44.1	20.6	0.00e+00	0	41	0	286261248	58	3899
2026-01-21 22:32:13.65	30.55	10.46	-43.2	-44.1	20.6	0.00e+00	0	41	0	289406976	58	3893
2026-01-21 22:32:14.66	30.66	10.53	-43.3	-44.3	20.5	0.00e+00	0	41	0	292552704	58	3963
2026-01-21 22:32:15.67	30.77	10.60	-43.2	-44.1	20.7	0.00e+00	0	40	0	295698432	58	3887
2026-01-21 22:32:16.68	30.89	10.67	-43.1	-44.0	20.7	0.00e+00	0	41	0	298844160	58	3852
2026-01-21 22:32:17.69	31.00	10.74	-43.2	-44.1	20.6	0.00e+00	0	41	0	301989888	58	3890
2026-01-21 22:32:18.70	31.12	10.81	-43.0	-44.0	20.8	0.00e+00	0	41	0	305135616	58	3827
2026-01-21 22:32:19.70	31.23	10.88	-43.0	-44.0	20.7	0.00e+00	0	41	0	308281344	58	3836
2026-01-21 22:32:20.71	31.35	10.95	-43.3	-44.2	20.6	0.00e+00	0	40	0	311427072	58	3938
2026-01-21 22:32:21.72	31.47	11.02	-43.0	-43.9	20.8	0.00e+00	0	40	0	314572800	58	3824
2026-01-21 22:32:22.73	31.59	11.10	-42.9	-43.8	20.9	0.00e+00	0	41	0	317718528	57	4002
2026-01-21 22:32:23.73	31.70	11.17	-42.9	-43.9	20.9	0.00e+00	0	41	0	320864256	57	4006
2026-01-21 22:32:24.74	31.82	11.24	-43.0	-43.9	20.8	0.00e+00	0	41	0	324009984	57	4031
2026-01-21 22:32:25.75	31.94	11.31	-43.0	-43.9	20.8	0.00e+00	0	40	0	327155712	57	4037
2026-01-21 22:32:26.76	32.06	11.38	-43.0	-43.9	20.9	0.00e+00	0	41	0	330301440	57	4022
2026-01-21 22:32:27.77	32.18	11.45	-43.0	-43.9	20.8	0.00e+00	0	41	0	333447168	57	4038
2026-01-21 22:32:28.77	32.30	11.52	-42.9	-43.8	21.0	0.00e+00	0	41	0	336592896	57	3977
2026-01-21 22:32:29.78	32.42	11.59	-42.8	-43.8	21.0	0.00e+00	0	41	0	339738624	57	3959
2026-01-21 22:32:30.79	32.54	11.66	-42.9	-43.8	20.9	0.00e+00	0	41	0	342884352	57	3989
2026-01-21 22:32:31.80	32.67	11.74	-42.7	-43.6	21.1	0.00e+00	0	41	0	346030080	57	3910
2026-01-21 22:32:32.81	32.79	11.81	-42.7	-43.6	21.1	0.00e+00	0	40	0	349175808	57	3873
2026-01-21 22:32:33.81	32.91	11.88	-42.8	-43.7	21.0	0.00e+00	0	41	0	352321536	57	3938
2026-01-21 22:32:34.82	33.04	11.95	-42.8	-43.8	21.0	0.00e+00	0	41	0	355467264	57	3960
2026-01-21 22:32:35.83	33.16	12.02	-42.7	-43.5	21.2	0.00e+00	0	41	0	358612992	57	3868
2026-01-21 22:32:36.84	33.29	12.09	-42.6	-43.4	21.3	0.00e+00	0	41	0	361758720	57	3819
2026-01-21 22:32:37.85	33.41	12.17	-42.6	-43.5	21.3	0.00e+00	0	41	0	364904448	57	3828
2026-01-21 22:32:38.85	33.54	12.24	-42.6	-43.4	21.3	0.00e+00	0	41	0	368050176	57	3819
2026-01-21 22:32:39.86	33.67	12.31	-42.6	-43.5	21.2	0.00e+00	0	40	0	371195904	57	3863
2026-01-21 22:32:40.87	33.79	12.38	-42.5	-43.4	21.3	0.00e+00	0	41	0	374341632	57	3814
2026-01-21 22:32:41.88	33.92	12.46	-42.7	-43.6	21.2	0.00e+00	0	41	0	377487360	57	3869
2026-01-21 22:32:42.89	34.05	12.53	-42.7	-43.7	21.1	0.00e+00	0	41	0	380633088	57	3916
2026-01-21 22:32:43.89	34.18	12.60	-42.6	-43.5	21.2	0.00e+00	0	41	0	383778816	57	3863
2026-01-21 22:32:44.90	34.31	12.67	-42.7	-43.6	21.2	0.00e+00	0	41	0	386924544	57	3900
2026-01-21 22:32:45.91	34.44	12.75	-42.6	-43.5	21.3	0.00e+00	0	41	0	390070272	57	3831
2026-01-21 22:32:46.92	34.57	12.82	-42.7	-43.6	21.2	0.00e+00	0	41	0	393216000	57	3870
2026-01-21 22:32:47.93	34.71	12.89	-42.6	-43.5	21.3	0.00e+00	0	41	0	396361728	57	3856
2026-01-21 22:32:48.93	34.84	12.96	-42.6	-43.4	21.3	0.00e+00	0	41	0	399507456	57	3824
2026-01-21 22:32:49.94	34.97	13.04	-42.5	-43.4	21.4	0.00e+00	0	41	0	402653184	57	3809
2026-01-21 22:32:50.95	35.11	13.11	-42.4	-43.3	21.5	0.00e+00	0	41	0	405798912	56	3983
2026-01-21 22:32:51.96	35.24	13.18	-42.4	-43.3	21.4	0.00e+00	0	41	0	408944640	56	3984
2026-01-21 22:32:52.97	35.38	13.26	-42.3	-43.1	21.6	0.00e+00	0	41	0	412090368	56	3908
2026-01-21 22:32:53.98	35.51	13.33	-42.3	-43.1	21.6	0.00e+00	0	41	0	415236096	56	3912
2026-01-21 22:32:54.98	35.65	13.40	-42.3	-43.1	21.6	0.00e+00	0	41	0	418381824	56	3910
2026-01-21 22:32:55.99	35.79	13.48	-42.3	-43.1	21.6	0.00e+00	0	41	0	421527552	56	3911
2026-01-21 22:32:57.00	35.92	13.55	-42.3	-43.1	21.6	0.00e+00	0	41	0	424673280	56	3899
2026-01-21 22:32:58.01	36.06	13.63	-42.4	-43.3	21.5	0.00e+00	0	41	0	427819008	56	3971
2026-01-21 22:32:59.01	36.20	13.70	-42.5	-43.3	21.5	0.00e+00	0	41	0	430964736	56	3990
2026-01-21 22:33:00.02	36.34	13.77	-42.5	-43.4	21.4	0.00e+00	0	41	0	434110464	56	4026
2026-01-21 22:33:01.03	36.48	13.85	-42.7	-43.6	21.3	0.00e+00	0	41	0	437256192	56	4100
2026-01-21 22:33:02.04	36.62	13.92	-42.7	-43.6	21.2	0.00e+00	0	41	0	440401920	56	4129
2026-01-21 22:33:03.05	36.77	14.00	-42.6	-43.5	21.3	0.00e+00	0	41	0	443547648	56	4086
2026-01-21 22:33:04.05	36.91	14.07	-42.6	-43.5	21.3	0.00e+00	0	41	0	446693376	56	4084
2026-01-21 22:33:05.06	37.05	14.14	-42.7	-43.6	21.2	0.00e+00	0	41	0	450887680	56	4117
2026-01-21 22:33:06.07	37.19	14.22	-42.5	-43.5	21.3	0.00e+00	0	41	0	452984832	56	4054
2026-01-21 22:33:07.08	37.34	14.29	-42.0	-43.4	21.3	0.00e+00	0	41	0	456130560	56	4034
2026-01-21 22:33:08.09	37.49	14.37	-42.2	-43.4	21.3	0.00e+00	0	41	0	459276288	55	4262
2026-01-21 22:33:09.09	37.63	14.44	-42.3	-43.2	21.4	0.00e+00	0	41	0	462422016	55	4182
2026-01-21 22:33:10.10	37.78	14.52	-42.4	-43.3	21.4	0.00e+00	0	41	0	465567744	55	4194
2026-01-21 22:33:11.11	37.92	14.59	-42.5	-43.4	21.3	0.00e+00	0	41	0	468713472	55	4266
2026-01-21 22:33:12.12	38.07	14.67	-42.6	-43.5	21.3	0.00e+00	0	41	0	471859200	55	4302
2026-01-21 22:33:13.13	38.22	14.74	-42.6	-43.5	21.3	0.00e+00	0	41	0	475004928	55	4322
2026-01-21 22:33:14.14	38.37	14.82	-42.7	-43.5	21.2	0.00e+00	0	41	0	478150656	55	4338
2026-01-21 22:33:15.14	38.52	14.89	-42.6	-43.4	21.3	0.00e+00	0	41	0	481296384	55	4288
2026-01-21 22:33:16.15	38.67	14.96	-42.6	-43.5	21.3	0.00e+00	0	41	0	484442112	55	4313
2026-01-21 22:33:17.16	38.83	15.04	-42.6	-43.4	21.3	0.00e+00	0	41	0	488636416	55	4284
2026-01-21 22:33:18.17	38.98	15.11	-42.6	-43.4	21.4	0.00e+00	0	41	0	491782144	55	4281
2026-01-21 22:33:19.17	39.13	15.19	-42.6	-43.5	21.3	0.00e+00	0	41	0	494927872	55	4302
2026-01-21 22:33:20.18	39.28	15.26	-42.5	-43.4	21.4	0.00e+00	0	41	0	498073600	55	4246
2026-01-21 22:33:21.19	39.44	15.34	-42.4	-43.3	21.5	0.00e+00	0	41	0	500170752	55	4198
2026-01-21 22:33:22.20	39.60	15.41	-42.4	-43.2	21.5	0.00e+00	0	41	0	503316480	55	4170
2026-01-21 22:33:23.21	39.75	15.49	-42.4	-43.3	21.5	0.00e+00	0	41	0	506462208	55	4198
2026-01-21 22:33:24.21	39.91	15.56	-42.5	-43.3	21.5	0.00e+00	0	41	0	509607936	55	4220
2026-01-21 22:33:25.22	40.07	15.64	-42.4	-43.3	21.5	0.00e+00	0	41	0	512753664	55	4209
2026-01-21 22:33:26.23	40.23	15.72	-42.4	-43.3	21.5	0.00e+00	0	41	0	515899392	55	4207
2026-01-21 22:33:27.24	40.38	15.79	-42.6	-43.4	21.3	0.00e+00	0	41	0	519045120	55	4283
2026-01-21 22:33:28.25	40.55	15.87	-42.8	-43.7	21.2	0.00e+00	0	41	0	522190848	56	4185
2026-01-21 22:33:29.25	40.70	15.94	-42.7	-43.6	21.3	0.00e+00	0	41	0	525336576	56	4136
2026-01-21 22:33:30.26	40.87	16.02	-42.9	-43.8	21.2	0.00e+00	0	41	0	529530880	56	4199
2026-01-21 22:33:31.27	41.03	16.09	-42.9	-43.9	21.1	0.00e+00	0	41	0	532676608	56	4243
2026-01-21 22:33:32.28	41.19	16.17	-42.9	-43.8	21.1	0.00e+00	0	41	0	535822336	56	4200
2026-01-21 22:33:33.29	41.36	16.24	-42.9	-43.8	21.1	0.00e+00	0	41	0	538968064	56	4222
2026-01-21 22:33:34.30	41.52	16.32	-42.9	-43.8	21.1	0.00e+00	0	41	0	542113792	56	4229
2026-01-21 22:33:35.30	41.69	16.39	-42.9	-43.8	21.1	0.00e+00	0	41	0	545259520	56	4242
2026-01-21 22:33:36.31	41.85	16.47	-42.8	-43.7	21.2	0.00e+00	0	41	0	547356672	56	4166
2026-01-21 22:33:37.32	42.02	16.55	-42.9	-43.8	21.1	0.00e+00	0	41	0	550502400	56	4222
2026-01-21 22:33:38.33	42.19	16.62	-42.8	-43.6	21.3	0.00e+00	0	41	0	553648128	56	4129
2026-01-21 22:33:39.34	42.36	16.70	-42.8	-43.7	21.2	0.00e+00	0	41	0	556793856	56	4151
2026-01-21 22:33:40.35	42.53	16.77	-43.0	-43.8	21.1	0.00e+00	0	41	0	559939584	56	4242
2026-01-21 22:33:41.35	42.70	16.85	-43.0	-43.9	21.1	0.00e+00	0	41	0	563085312	56	4257
2026-01-21 22:33:42.36	42.87	16.92	-43.2	-44.1	20.9	0.00e+00	0	41	0	567279616	56	4354
2026-01-21 22:33:43.37	43.04	17.00	-43.0	-43.9	21.1	0.00e+00	0	41	0	570425344	56	4272
2026-01-21 22:33:44.38	43.22	17.07	-43.0	-43.9	21.0	0.00e+00	0	41	0	573571072	56	4262
2026-01-21 22:33:45.39	43.39	17.15	-43.0	-43.9	21.0	0.00e+00	0	41	0	576716800	56	4280
2026-01-21 22:33:46.40	43.57	17.23	-42.8	-43.7	21.2	0.00e+00	0	41	0	579862528	56	4181
2026-01-21 22:33:47.40	43.74	17.30	-42.6	-43.5	21.4	0.00e+00	0	41	0	583008256	56	4080
2026-01-21 22:33:48.41	43.92	17.38	-42.7	-43.5	21.3	0.00e+00	0	41	0	586153984	56	4090
2026-01-21 22:33:49.42	44.10	17.45	-42.7	-43.6	21.3	0.00e+00	0	41	0	589299712	56	4122
2026-01-21 22:33:50.43	44.27	17.53	-42.6	-43.4	21.5	0.00e+00	0	41	0	592445440	56	4048
2026-01-21 22:33:51.43	44.45	17.60	-42.6	-43.5	21.5	0.00e+00	0	41	0	595591168	56	4058
2026-01-21 22:33:52.44	44.63	17.68	-42.7	-43.6	21.3	0.00e+00	0	41	0	597688320	56	4121
2026-01-21 22:33:53.45	44.81	17.75	-42.8	-43.7	21.3	0.00e+00	0	41	0	600834048	56	4157
2026-01-21 22:33:54.46	45.00	17.83	-42.7	-43.6	21.4	0.00e+00	0	41	0	605028352	56	4125
2026-01-21 22:33:55.47	45.18	17.90	-42.8	-43.7	21.3	0.00e+00	0	41	0	608174080	56	4182
2026-01-21 22:33:56.47	45.36	17.98	-42.7	-43.6	21.3	0.00e+00	0	41	0	611319808	56	4130
2026-01-21 22:33:57.48	45.55	18.05	-42.7	-43.5	21.4	0.00e+00	0	41	0	614465536	56	4092
2026-01-21 22:33:58.49	45.73	18.13	-42.7	-43.5	21.4	0.00e+00	0	41	0	617611264	56	4091
2026-01-21 22:33:59.50	45.92	18.20	-42.6	-43.4	21.5	0.00e+00	0	41	0	620756992	56	4045
2026-01-21 22:34:00.51	46.11	18.28	-42.5	-43.3	21.6	0.00e+00	0	41	0	623902720	56	3999
2026-01-21 22:34:01.52	46.29	18.35	-42.5	-43.3	21.6	0.00e+00	0	41	0	627048448	56	3992
2026-01-21 22:34:02.53	46.48	18.43	-42.6	-43.4	21.5	0.00e+00	0	41	0	630194176	56	4029
2026-01-21 22:34:03.53	46.67	18.50	-42.6	-43.4	21.5	0.00e+00	0	41	0	633339904	56	4033
2026-01-21 22:34:04.54	46.86	18.58	-42.4	-43.2	21.7	0.00e+00	0	41	0	636485632	56	3954
2026-01-21 22:34:05.55	47.05	18.65	-42.4	-43.2	21.7	0.00e+00	0	41	0	639631360	56	3949
2026-01-21 22:34:06.56	47.25	18.73	-42.4	-43.2	21.7	0.00e+00	0	41	0	642777088	56	3949
2026-01-21 22:34:07.57	47.44	18.80	-42.5	-43.4	21.6	0.00e+00	0	41	0	645922816	56	4020
2026-01-21 22:34:08.58	47.64	18.87	-42.4	-43.2	21.7	0.00e+00	0	41	0	649068544	56	3951
2026-01-21 22:34:09.59	47.83	18.95	-42.4	-43.2	21.7	0.00e+00	0	41	0	652214272	56	3956
2026-01-21 22:34:10.60	48.03	19.02	-42.4	-43.3	21.7	0.00e+00	0	41	0	655360000	56	3966
2026-01-21 22:34:11.60	48.22	19.10	-42.4	-43.2	21.7	0.00e+00	0	41	0	658505728	56	3933
2026-01-21 22:34:12.61	48.42	19.17	-42.3	-43.2	21.8	0.00e+00	0	41	0	661651456	56	3916
2026-01-21 22:34:13.62	48.62	19.24	-42.3	-43.2	21.8	0.00e+00	0	41	0	664797184	56	3928
2026-01-21 22:34:14.63	48.82	19.32	-42.5	-43.3	21.6	0.00e+00	0	41	0	667942912	56	3987
2026-01-21 22:34:15.64	49.02	19.39	-42.3	-43.2	21.8	0.00e+00	0	41	0	671088640	56	3919
2026-01-21 22:34:16.65	49.23	19.47	-42.3	-43.2	21.8	0.00e+00	0	41	0	674234368	56	3926
2026-01-21 22:34:17.66	49.43	19.54	-42.4	-43.2	21.7	0.00e+00	0	41	0	677380096	56	3951
2026-01-21 22:34:18.67	49.63	19.61	-42.6	-43.4	21.6	0.00e+00	0	41	0	680525824	56	4038
2026-01-21 22:34:19.68	49.84	19.69	-42.5	-43.3	21.7	0.00e+00	0	41	0	683671552	56	3981
2026-01-21 22:34:20.68	50.04	19.76	-42.4	-43.2	21.7	0.00e+00	0	41	0	686817280	56	3951
2026-01-21 22:34:21.69	50.25	19.83	-42.5	-43.3	21.6	0.00e+00	0	41	0	689963008	56	4001
2026-01-21 22:34:22.70	50.46	19.90	-42.5	-43.3	21.7	0.00e+00	0	41	0	693108736	56	4001
2026-01-21 22:34:23.71	50.67	19.98	-42.6	-43.5	21.5	0.00e+00	0	41	0	696254464	56	4055
2026-01-21 22:34:24.72	50.88	20.05	-42.5	-43.4	21.6	0.00e+00	0	41	0	699400192	56	4019
2026-01-21 22:34:25.73	51.09	20.12	-42.5	-43.3	21.6	0.00e+00	0	41	0	702545920	56	3996
2026-01-21 22:34:26.74	51.30	20.19	-42.5	-43.3	21.7	0.00e+00	0	41	0	705691648	56	3984
2026-01-21 22:34:27.74	51.51	20.26	-42.5	-43.4	21.6	0.00e+00	0	41	0	708837376	56	4014
2026-01-21 22:34:28.76	51.73	20.34	-42.6	-43.5	21.5	0.00e+00	0	41	0	711983104	56	4056
2026-01-21 22:34:29.76	51.94	20.41	-42.6	-43.4	21.6	0.00e+00	0	41	0	715128832	56	4038
2026-01-21 22:34:30.77	52.15	20.48	-42.6	-43.5	21.5	0.00e+00	0	41	0	718274560	56	4060
2026-01-21 22:34:31.78	52.37	20.55	-42.5	-43.4	21.7	0.00e+00	0	41	0	721420288	56	4009
2026-01-21 22:34:32.79	52.59	20.62	-42.5	-43.3	21.7	0.00e+00	0	41	0	724566016	56	4002
2026-01-21 22:34:33.80	52.81	20.69	-42.4	-43.2	21.8	0.00e+00	0	41	0	727711744	56	3947
2026-01-21 22:34:34.81	53.03	20.76	-42.3	-43.2	21.8	0.00e+00	0	41	0	730857472	56	3924
2026-01-21 22:34:35.82	53.25	20.83	-42.3	-43.1	21.9	0.00e+00	0	41	0	734003200	56	3909
2026-01-21 22:34:36.83	53.47	20.90	-42.3	-43.2	21.8	0.00e+00	0	41	0	737148928	56	3931
2026-01-21 22:34:37.84	53.69	20.97	-42.5	-43.3	21.6	0.00e+00	0	41	0	740294656	56	4003
2026-01-21 22:34:38.85	53.92	21.04	-42.5	-43.4	21.6	0.00e+00	0	41	0	743440384	56	4018
2026-01-21 22:34:39.86	54.14	21.11	-42.3	-43.1	21.8	0.00e+00	0	41	0	746586112	56	3888
2026-01-21 22:34:40.87	54.37	21.18	-42.3	-43.2	21.7	0.00e+00	0	41	0	749731840	56	3920
2026-01-21 22:34:41.88	54.59	21.25	-42.2	-43.0	21.8	0.00e+00	0	41	0	752877568	56	3867
2026-01-21 22:34:42.89	54.82	21.32	-42.3	-43.1	21.7	0.00e+00	0	41	0	756023296	56	3911
2026-01-21 22:34:43.89	55.05	21.38	-42.3	-43.1	21.8	0.00e+00	0	41	0	759169024	56	3890
2026-01-21 22:34:44.90	55.28	21.45	-42.3	-43.1	21.8	0.00e+00	0	41	0	762314752	56	3893
2026-01-21 22:34:45.91	55.51	21.52	-42.2	-43.0	21.9	0.00e+00	0	41	0	765460480	56	3862
2026-01-21 22:34:46.92	55.74	21.59	-42.3	-43.1	21.8	0.00e+00	0	41	0	768606208	56	3912
2026-01-21 22:34:47.93	55.97	21.65	-42.1	-42.9	22.0	0.00e+00	0	41	0	771751936	56	3819
2026-01-21 22:34:48.94	56.20	21.72	-42.0	-42.8	22.1	0.00e+00	0	41	0	774897664	56	3772
2026-01-21 22:34:49.95	56.44	21.79	-41.8	-42.6	22.1	0.00e+00	0	41	0	778043392	55	3896
2026-01-21 22:34:50.95	56.67	21.85	-41.7	-42.5	22.1	0.00e+00	0	41	0	781189120	55	3849
2026-01-21 22:34:51.96	56.91	21.92	-41.7	-42.4	22.2	0.00e+00	0	41	0	784334848	55	3824
2026-01-21 22:34:52.97	57.15	21.98	-41.5	-42.3	22.4	0.00e+00	0	41	0	787480576	55	3738
2026-01-21 22:34:53.98	57.38	22.05	-41.4	-42.2	22.4	0.00e+00	0	41	0	790626304	54	3930
2026-01-21 22:34:54.98	57.62	22.11	-41.5	-42.2	22.4	0.00e+00	0	41	0	793772032	54	3957
2026-01-21 22:34:55.99	57.86	22.18	-41.5	-42.3	22.4	0.00e+00	0	41	0	796917760	54	3991
2026-01-21 22:34:57.00	58.10	22.24	-41.7	-42.5	22.2	0.00e+00	0	41	0	800063488	54	4087
2026-01-21 22:34:58.01	58.35	22.31	-41.9	-42.7	22.1	0.00e+00	0	41	0	803209216	54	4152
2026-01-21 22:34:59.02	58.59	22.37	-41.8	-42.6	22.2	0.00e+00	0	41	0	806354944	54	4142
2026-01-21 22:35:00.03	58.83	22.43	-41.9	-42.7	22.2	0.00e+00	0	41	0	809500672	54	4160
2026-01-21 22:35:01.04	59.08	22.50	-41.9	-42.7	22.1	0.00e+00	0	41	0	812646400	54	4184
2026-01-21 22:35:02.05	59.32	22.56	-41.9	-42.7	22.1	0.00e+00	0	41	0	815792128	54	4172
2026-01-21 22:35:03.05	59.57	22.62	-41.9	-42.7	22.1	0.00e+00	0	41	0	818937856	54	4168
2026-01-21 22:35:04.06	59.82	22.68	-41.9	-42.7	22.0	0.00e+00	0	41	0	822083584	54	4175
2026-01-21 22:35:05.07	60.07	22.74	-41.9	-42.7	22.1	0.00e+00	0	41	0	825229312	54	4152
2026-01-21 22:35:06.08	60.32	22.80	-41.9	-42.8	22.1	0.00e+00	0	41	0	828375040	54	4195
2026-01-21 22:35:07.09	60.57	22.86	-42.0	-42.8	22.1	0.00e+00	0	41	0	831520768	54	4202
2026-01-21 22:35:08.10	60.82	22.92	-41.8	-42.6	22.2	0.00e+00	0	41	0	834666496	54	4122
2026-01-21 22:35:09.11	61.07	22.98	-41.8	-42.6	22.2	0.00e+00	0	41	0	837812224	54	4136
2026-01-21 22:35:10.12	61.33	23.04	-41.9	-42.7	22.2	0.00e+00	0	41	0	840957952	54	4150
2026-01-21 22:35:11.13	61.58	23.10	-41.9	-42.7	22.1	0.00e+00	0	41	0	844103680	54	4168
2026-01-21 22:35:12.13	61.83	23.16	-42.0	-42.8	22.1	0.00e+00	0	41	0	847249408	54	4201
2026-01-21 22:35:13.14	62.09	23.22	-41.9	-42.7	22.1	0.00e+00	0	41	0	850395136	54	4174
2026-01-21 22:35:14.15	62.35	23.28	-42.0	-42.8	22.0	0.00e+00	0	41	0	853540864	54	4235
2026-01-21 22:35:15.16	62.61	23.33	-42.0	-42.8	22.0	0.00e+00	0	41	0	856686592	54	4233
2026-01-21 22:35:16.17	62.87	23.39	-42.0	-42.8	22.1	0.00e+00	0	41	0	859832320	54	4230
2026-01-21 22:35:17.18	63.13	23.45	-41.9	-42.7	22.1	0.00e+00	0	41	0	862978048	54	4173
2026-01-21 22:35:18.19	63.39	23.50	-41.9	-42.7	22.2	0.00e+00	0	41	0	866123776	54	4162
2026-01-21 22:35:19.20	63.65	23.56	-41.9	-42.7	22.2	0.00e+00	0	41	0	869269504	54	4175
2026-01-21 22:35:20.20	63.91	23.61	-41.9	-42.7	22.2	0.00e+00	0	41	0	872415232	54	4165
2026-01-21 22:35:21.21	64.18	23.66	-41.9	-42.7	22.2	0.00e+00	0	41	0	875560960	54	4152
2026-01-21 22:35:22.22	64.44	23.72	-41.9	-42.7	22.1	0.00e+00	0	41	0	878706688	54	4192
2026-01-21 22:35:23.23	64.71	23.77	-41.9	-42.7	22.1	0.00e+00	0	41	0	881852416	54	4183
2026-01-21 22:35:24.24	64.97	23.82	-42.1	-42.9	22.0	0.00e+00	0	41	0	884998144	54	4269
2026-01-21 22:35:25.25	65.24	23.88	-42.2	-43.0	21.9	0.00e+00	0	41	0	888143872	54	4310
2026-01-21 22:35:26.26	65.51	23.93	-42.2	-43.1	21.9	0.00e+00	0	41	0	891289600	54	4348
2026-01-21 22:35:27.26	65.78	23.98	-42.2	-43.0	21.9	0.00e+00	0	41	0	894435328	55	4096
2026-01-21 22:35:28.28	66.05	24.03	-42.2	-43.1	21.9	0.00e+00	0	41	0	897581056	55	4105
2026-01-21 22:35:29.28	66.32	24.08	-42.1	-42.9	22.0	0.00e+00	0	41	0	900726784	55	4039
2026-01-21 22:35:30.29	66.59	24.13	-42.0	-42.8	22.1	0.00e+00	0	41	0	903872512	55	3998
2026-01-21 22:35:31.30	66.86	24.18	-42.0	-42.8	22.1	0.00e+00	0	41	0	907018240	55	3971
2026-01-21 22:35:32.31	67.13	24.22	-42.0	-42.8	22.1	0.00e+00	0	41	0	910163968	55	3979
2026-01-21 22:35:33.32	67.41	24.27	-42.1	-42.9	22.0	0.00e+00	0	41	0	913309696	55	4035
2026-01-21 22:35:34.33	67.68	24.32	-42.1	-42.9	22.0	0.00e+00	0	41	0	916455424	55	4015
2026-01-21 22:35:35.34	67.96	24.36	-42.1	-42.9	22.0	0.00e+00	0	41	0	919601152	55	4023
2026-01-21 22:35:36.35	68.24	24.41	-42.1	-42.9	22.0	0.00e+00	0	41	0	922746880	55	4016
2026-01-21 22:35:37.35	68.51	24.45	-41.9	-42.7	22.2	0.00e+00	0	41	0	925892608	55	3938
2026-01-21 22:35:38.36	68.79	24.50	-41.8	-42.6	22.3	0.00e+00	0	41	0	929038336	55	3906
2026-01-21 22:35:39.37	69.07	24.54	-41.9	-42.7	22.2	0.00e+00	0	41	0	932184064	55	3920
2026-01-21 22:35:40.38	69.35	24.59	-41.9	-42.7	22.1	0.00e+00	0	41	0	935329792	55	3922
2026-01-21 22:35:41.39	69.63	24.63	-41.9	-42.7	22.0	0.00e+00	0	41	0	938475520	55	3948
2026-01-21 22:35:42.40	69.91	24.67	-41.9	-42.7	22.1	0.00e+00	0	41	0	941621248	55	3941
2026-01-21 22:35:43.40	70.19	24.71	-41.9	-42.7	22.1	0.00e+00	0	41	0	944766976	55	3934
2026-01-21 22:35:44.41	70.47	24.75	-41.9	-42.7	22.2	0.00e+00	0	41	0	947912704	55	3937
2026-01-21 22:35:45.42	70.76	24.79	-41.9	-42.7	22.2	0.00e+00	0	41	0	951058432	55	3935
2026-01-21 22:35:46.44	71.04	24.83	-41.9	-42.7	22.1	0.00e+00	0	41	0	954204160	55	3946
2026-01-21 22:35:47.44	71.32	24.87	-41.9	-42.7	22.2	0.00e+00	0	41	0	957349888	55	3925
2026-01-21 22:35:48.45	71.61	24.91	-42.0	-42.8	22.1	0.00e+00	0	41	0	960495616	55	3976
2026-01-21 22:35:49.46	71.90	24.95	-42.1	-42.9	22.0	0.00e+00	0	41	0	963641344	55	4035
2026-01-21 22:35:50.47	72.18	24.98	-42.0	-42.8	22.1	0.00e+00	0	41	0	966787072	55	3986
2026-01-21 22:35:51.48	72.47	25.02	-42.1	-42.9	22.1	0.00e+00	0	41	0	969932800	55	4023
2026-01-21 22:35:52.48	72.76	25.05	-41.9	-42.7	22.2	0.00e+00	0	41	0	973078528	55	3927
2026-01-21 22:35:53.49	73.05	25.09	-41.8	-42.6	22.3	0.00e+00	0	41	0	976224256	55	3891
2026-01-21 22:35:54.50	73.34	25.12	-41.8	-42.6	22.3	0.00e+00	0	41	0	979369984	55	3884
2026-01-21 22:35:55.51	73.63	25.16	-41.9	-42.7	22.2	0.00e+00	0	41	0	982515712	55	3939
2026-01-21 22:35:56.52	73.92	25.19	-41.8	-42.6	22.2	0.00e+00	0	41	0	985661440	55	3909
2026-01-21 22:35:57.53	74.21	25.22	-41.8	-42.6	22.3	0.00e+00	0	41	0	988807168	55	3882
2026-01-21 22:35:58.54	74.50	25.25	-41.8	-42.6	22.3	0.00e+00	0	41	0	991952896	55	3884
2026-01-21 22:35:59.55	74.79	25.28	-41.6	-42.4	22.5	0.00e+00	0	41	0	995098624	55	3799
2026-01-21 22:36:00.55	75.08	25.31	-41.5	-42.2	22.6	0.00e+00	0	41	0	998244352	54	3951
2026-01-21 22:36:01.56	75.37	25.34	-41.5	-42.3	22.5	0.00e+00	0	41	0	1002438656	54	3988
2026-01-21 22:36:02.57	75.67	25.37	-41.6	-42.4	22.5	0.00e+00	0	41	0	1005584384	54	4009
2026-01-21 22:36:03.58	75.96	25.39	-41.5	-42.3	22.6	0.00e+00	0	41	0	1007681536	54	3971
2026-01-21 22:36:04.59	76.26	25.42	-41.6	-42.3	22.5	0.00e+00	0	41	0	1010827264	54	3999
2026-01-21 22:36:05.59	76.55	25.45	-41.6	-42.4	22.5	0.00e+00	0	41	0	1013972992	54	4032
2026-01-21 22:36:06.60	76.85	25.47	-41.6	-42.4	22.4	0.00e+00	0	41	0	1017118720	54	4038
2026-01-21 22:36:07.61	77.14	25.50	-41.5	-42.2	22.5	0.00e+00	0	41	0	1020264448	54	3949
2026-01-21 22:36:08.62	77.44	25.52	-41.4	-42.1	22.6	0.00e+00	0	41	0	1023410176	54	3913
2026-01-21 22:36:09.63	77.74	25.54	-41.5	-42.2	22.6	0.00e+00	0	41	0	1026555904	54	3951
2026-01-21 22:36:10.63	78.03	25.56	-41.5	-42.3	22.5	0.00e+00	0	41	0	1029701632	54	3965
2026-01-21 22:36:11.64	78.33	25.58	-41.6	-42.4	22.5	0.00e+00	0	41	0	1032847360	54	4005
2026-01-21 22:36:12.65	78.63	25.60	-41.4	-42.2	22.6	0.00e+00	0	41	0	1035993088	54	3933
2026-01-21 22:36:13.66	78.93	25.62	-41.4	-42.2	22.6	0.00e+00	0	41	0	1039138816	54	3917
2026-01-21 22:36:14.66	79.22	25.64	-41.4	-42.1	22.6	0.00e+00	0	41	0	1043333120	54	3901
2026-01-21 22:36:15.67	79.52	25.66	-41.4	-42.2	22.6	0.00e+00	0	41	0	1046478848	54	3915
2026-01-21 22:36:16.68	79.82	25.68	-41.4	-42.2	22.5	0.00e+00	0	41	0	1049624576	54	3933
2026-01-21 22:36:17.69	80.12	25.69	-41.5	-42.3	22.5	0.00e+00	0	41	0	1052770304	54	3973
2026-01-21 22:36:18.70	80.42	25.71	-41.6	-42.4	22.4	0.00e+00	0	41	0	1054867456	54	4007
2026-01-21 22:36:19.71	80.73	25.72	-41.4	-42.2	22.6	0.00e+00	0	41	0	1058013184	54	3925
2026-01-21 22:36:20.71	81.02	25.74	-41.5	-42.3	22.5	0.00e+00	0	41	0	1061158912	54	3969
2026-01-21 22:36:21.72	81.32	25.75	-41.4	-42.2	22.6	0.00e+00	0	41	0	1064304640	54	3946
2026-01-21 22:36:22.73	81.63	25.76	-41.5	-42.3	22.5	0.00e+00	0	41	0	1067450368	54	3968
2026-01-21 22:36:23.74	81.93	25.77	-41.6	-42.3	22.5	0.00e+00	0	41	0	1070596096	54	4003
2026-01-21 22:36:24.75	82.23	25.79	-41.6	-42.4	22.4	0.00e+00	0	41	0	1073741824	54	4015
2026-01-21 22:36:25.76	82.53	25.80	-41.5	-42.3	22.5	0.00e+00	0	41	0	1077936128	54	3971
2026-01-21 22:36:26.77	82.83	25.80	-41.4	-42.2	22.6	0.00e+00	0	41	0	1081081856	54	3941
2026-01-21 22:36:27.78	83.14	25.81	-41.4	-42.1	22.7	0.00e+00	0	41	0	1084227584	54	3896
2026-01-21 22:36:28.79	83.44	25.82	-41.4	-42.1	22.6	0.00e+00	0	41	0	1087373312	54	3910
2026-01-21 22:36:29.79	83.74	25.83	-41.3	-42.1	22.7	0.00e+00	0	41	0	1090519040	54	3886
2026-01-21 22:36:30.80	84.04	25.83	-41.3	-42.1	22.8	0.00e+00	0	41	0	1093664768	54	3871
2026-01-21 22:36:31.81	84.35	25.84	-41.4	-42.2	22.6	0.00e+00	0	41	0	1096810496	54	3940
2026-01-21 22:36:32.82	84.65	25.84	-41.5	-42.3	22.5	0.00e+00	0	41	0	1099956224	54	3985
2026-01-21 22:36:33.83	84.95	25.84	-41.6	-42.4	22.5	0.00e+00	0	41	0	1102053376	54	4009
2026-01-21 22:36:34.84	85.26	25.85	-41.6	-42.4	22.4	0.00e+00	0	41	0	1105199104	54	4030
2026-01-21 22:36:35.85	85.56	25.85	-41.6	-42.4	22.4	0.00e+00	0	41	0	1108344832	54	4043
2026-01-21 22:36:36.86	85.86	25.85	-41.5	-42.2	22.5	0.00e+00	0	41	0	1112539136	54	3948
2026-01-21 22:36:37.87	86.17	25.85	-41.5	-42.3	22.5	0.00e+00	0	41	0	1115684864	54	3962
2026-01-21 22:36:38.88	86.47	25.85	-41.3	-42.1	22.7	0.00e+00	0	41	0	1118830592	54	3893
2026-01-21 22:36:39.88	86.77	25.84	-41.3	-42.0	22.7	0.00e+00	0	41	0	1121976320	54	3868
2026-01-21 22:36:40.89	87.07	25.84	-41.2	-42.0	22.8	0.00e+00	0	41	0	1125122048	54	3839
2026-01-21 22:36:41.90	87.38	25.84	-41.3	-42.1	22.7	0.00e+00	0	41	0	1128267776	54	3873
2026-01-21 22:36:42.91	87.68	25.83	-41.2	-42.0	22.8	0.00e+00	0	41	0	1131413504	54	3839
2026-01-21 22:36:43.91	87.98	25.83	-41.3	-42.1	22.7	0.00e+00	0	41	0	1134559232	54	3887
2026-01-21 22:36:44.92	88.28	25.82	-41.4	-42.1	22.7	0.00e+00	0	41	0	1137704960	54	3907
2026-01-21 22:36:45.93	88.59	25.82	-41.4	-42.2	22.7	0.00e+00	0	41	0	1140850688	54	3916
2026-01-21 22:36:46.94	88.89	25.81	-41.4	-42.2	22.7	0.00e+00	0	41	0	1143996416	54	3915
2026-01-21 22:36:47.95	89.19	25.80	-41.4	-42.1	22.7	0.00e+00	0	41	0	1147142144	54	3899
2026-01-21 22:36:48.95	89.49	25.79	-41.3	-42.0	22.7	0.00e+00	0	41	0	1149239296	54	3863
2026-01-21 22:36:49.96	89.79	25.78	-41.3	-42.0	22.7	0.00e+00	0	41	0	1153433600	54	3862
2026-01-21 22:36:50.97	90.09	25.77	-41.4	-42.2	22.6	0.00e+00	0	41	0	1156579328	54	3937
2026-01-21 22:36:51.98	90.40	25.76	-41.6	-42.4	22.5	0.00e+00	0	41	0	1159725056	54	4018
2026-01-21 22:36:52.99	90.70	25.74	-41.6	-42.4	22.5	0.00e+00	0	41	0	1162870784	54	4008
2026-01-21 22:36:54.00	91.00	25.73	-41.6	-42.3	22.5	0.00e+00	0	41	0	1166016512	54	4002
2026-01-21 22:36:55.01	91.30	25.72	-41.6	-42.4	22.5	0.00e+00	0	41	0	1169162240	54	4015
2026-01-21 22:36:56.01	91.60	25.70	-41.6	-42.3	22.4	0.00e+00	0	41	0	1172307968	54	4000
2026-01-21 22:36:57.02	91.90	25.69	-41.5	-42.3	22.4	0.00e+00	0	41	0	1175453696	54	3998
2026-01-21 22:36:58.03	92.20	25.67	-41.7	-42.5	22.3	0.00e+00	0	41	0	1178599424	54	4086
2026-01-21 22:36:59.04	92.50	25.65	-41.5	-42.3	22.5	0.00e+00	0	41	0	1181745152	54	3994
2026-01-21 22:37:00.05	92.80	25.63	-41.4	-42.2	22.6	0.00e+00	0	41	0	1184890880	54	3933
2026-01-21 22:37:01.06	93.10	25.61	-41.4	-42.2	22.6	0.00e+00	0	41	0	1188036608	54	3914
2026-01-21 22:37:02.07	93.40	25.59	-41.2	-42.0	22.7	0.00e+00	0	41	0	1191182336	54	3837
2026-01-21 22:37:03.08	93.70	25.57	-41.2	-41.9	22.8	0.00e+00	0	41	0	1194328064	54	3824
2026-01-21 22:37:04.08	93.99	25.55	-41.2	-42.0	22.7	0.00e+00	0	41	0	1197473792	54	3852
2026-01-21 22:37:05.09	94.29	25.53	-41.4	-42.2	22.6	0.00e+00	0	41	0	1200619520	54	3918
2026-01-21 22:37:06.10	94.59	25.51	-41.4	-42.1	22.6	0.00e+00	0	41	0	1203765248	54	3912
2026-01-21 22:37:07.11	94.88	25.48	-41.5	-42.2	22.5	0.00e+00	0	41	0	1206910976	54	3958
2026-01-21 22:37:08.11	95.18	25.46	-41.5	-42.3	22.5	0.00e+00	0	41	0	1210056704	54	3987
2026-01-21 22:37:09.12	95.47	25.43	-41.5	-42.3	22.5	0.00e+00	0	41	0	1213202432	54	3960
2026-01-21 22:37:10.13	95.77	25.41	-41.6	-42.3	22.5	0.00e+00	0	41	0	1216348160	54	3995
2026-01-21 22:37:11.14	96.07	25.38	-41.5	-42.2	22.5	0.00e+00	0	40	0	1219493888	54	3956
2026-01-21 22:37:12.15	96.36	25.35	-41.4	-42.2	22.6	0.00e+00	0	41	0	1222639616	54	3928
2026-01-21 22:37:13.16	96.65	25.32	-41.5	-42.3	22.5	0.00e+00	0	41	0	1225785344	54	3976
2026-01-21 22:37:14.17	96.95	25.29	-41.6	-42.4	22.5	0.00e+00	0	41	0	1228931072	54	4011
2026-01-21 22:37:15.17	97.24	25.27	-41.4	-42.2	22.6	0.00e+00	0	41	0	1232076800	54	3919
2026-01-21 22:37:16.18	97.53	25.23	-41.5	-42.3	22.5	0.00e+00	0	41	0	1235222528	54	3983
2026-01-21 22:37:17.19	97.82	25.20	-41.6	-42.4	22.4	0.00e+00	0	41	0	1238368256	54	4006
2026-01-21 22:37:18.20	98.11	25.17	-41.7	-42.5	22.3	0.00e+00	0	41	0	1241513984	54	4058
2026-01-21 22:37:19.21	98.40	25.14	-41.7	-42.5	22.3	0.00e+00	0	41	0	1244659712	54	4077
2026-01-21 22:37:20.21	98.69	25.10	-41.7	-42.5	22.3	0.00e+00	0	41	0	1247805440	54	4060
2026-01-21 22:37:21.22	98.98	25.07	-41.7	-42.5	22.3	0.00e+00	0	41	0	1250951168	54	4079
2026-01-21 22:37:22.23	99.27	25.04	-41.7	-42.5	22.3	0.00e+00	0	41	0	1254096896	54	4077
2026-01-21 22:37:23.24	99.56	25.00	-41.6	-42.4	22.4	0.00e+00	0	41	0	1257242624	54	4031
2026-01-21 22:37:24.25	99.85	24.96	-41.6	-42.4	22.4	0.00e+00	0	41	0	1260388352	54	4038
2026-01-21 22:37:25.26	100.13	24.93	-41.7	-42.5	22.4	0.00e+00	0	41	0	1263534080	54	4066
2026-01-21 22:37:26.27	100.42	24.89	-41.7	-42.5	22.4	0.00e+00	0	41	0	1266679808	54	4059
2026-01-21 22:37:27.28	100.71	24.85	-41.7	-42.5	22.3	0.00e+00	0	41	0	1269825536	54	4075
2026-01-21 22:37:28.28	100.99	24.81	-41.8	-42.6	22.3	0.00e+00	0	41	0	1272971264	54	4110
2026-01-21 22:37:29.29	101.27	24.77	-41.8	-42.6	22.3	0.00e+00	0	41	0	1276116992	54	4110
2026-01-21 22:37:30.30	101.56	24.73	-41.9	-42.7	22.1	0.00e+00	0	41	0	1279262720	54	4184
2026-01-21 22:37:31.31	101.84	24.69	-42.0	-42.8	22.1	0.00e+00	0	41	0	1282408448	54	4204
2026-01-21 22:37:32.32	102.12	24.65	-41.8	-42.6	22.2	0.00e+00	0	40	0	1285554176	54	4136
2026-01-21 22:37:33.32	102.40	24.61	-41.9	-42.7	22.2	0.00e+00	0	41	0	1288699904	54	4159
2026-01-21 22:37:34.33	102.68	24.56	-41.9	-42.7	22.2	0.00e+00	0	41	0	1291845632	54	4172
2026-01-21 22:37:35.34	102.96	24.52	-41.9	-42.7	22.1	0.00e+00	0	41	0	1294991360	54	4184
2026-01-21 22:37:36.35	103.24	24.47	-41.8	-42.6	22.3	0.00e+00	0	41	0	1298137088	54	4131
2026-01-21 22:37:37.36	103.52	24.43	-41.8	-42.6	22.3	0.00e+00	0	41	0	1301282816	54	4127
2026-01-21 22:37:38.37	103.80	24.38	-41.8	-42.6	22.2	0.00e+00	0	41	0	1304428544	54	4144
2026-01-21 22:37:39.38	104.08	24.34	-41.9	-42.7	22.2	0.00e+00	0	40	0	1307574272	54	4177
2026-01-21 22:37:40.38	104.35	24.29	-41.8	-42.6	22.3	0.00e+00	0	41	0	1310720000	54	4106
2026-01-21 22:37:41.39	104.62	24.24	-41.6	-42.4	22.4	0.00e+00	0	41	0	1313865728	54	4030
2026-01-21 22:37:42.40	104.90	24.20	-41.6	-42.4	22.4	0.00e+00	0	41	0	1317011456	54	4043
2026-01-21 22:37:43.41	105.17	24.15	-41.6	-42.4	22.4	0.00e+00	0	41	0	1320157184	54	4032
2026-01-21 22:37:44.42	105.45	24.10	-41.7	-42.5	22.3	0.00e+00	0	41	0	1323302912	54	4057
2026-01-21 22:37:45.43	105.72	24.05	-41.6	-42.4	22.4	0.00e+00	0	41	0	1326448640	54	4041
2026-01-21 22:37:46.44	105.99	24.00	-41.8	-42.6	22.3	0.00e+00	0	41	0	1329594368	54	4102
2026-01-21 22:37:47.45	106.26	23.95	-41.7	-42.5	22.3	0.00e+00	0	41	0	1332740096	54	4079
2026-01-21 22:37:48.45	106.53	23.90	-41.8	-42.6	22.2	0.00e+00	0	41	0	1335885824	54	4128
2026-01-21 22:37:49.46	106.79	23.84	-41.8	-42.6	22.2	0.00e+00	0	41	0	1339031552	54	4134
2026-01-21 22:37:50.47	107.06	23.79	-42.0	-42.8	22.0	0.00e+00	0	41	0	1342177280	54	4204
2026-01-21 22:37:51.48	107.33	23.74	-41.9	-42.7	22.1	0.00e+00	0	41	0	1345323008	54	4153
2026-01-21 22:37:52.49	107.60	23.68	-41.9	-42.7	22.1	0.00e+00	0	41	0	1348468736	54	4192
2026-01-21 22:37:53.50	107.86	23.63	-41.9	-42.7	22.1	0.00e+00	0	41	0	1351614464	54	4188
2026-01-21 22:37:54.51	108.13	23.58	-41.8	-42.6	22.2	0.00e+00	0	41	0	1354760192	54	4118
2026-01-21 22:37:55.52	108.39	23.52	-41.8	-42.6	22.1	0.00e+00	0	41	0	1357905920	54	4123
2026-01-21 22:37:56.53	108.65	23.47	-41.8	-42.6	22.1	0.00e+00	0	41	0	1361051648	54	4137
2026-01-21 22:37:57.54	108.91	23.41	-41.7	-42.5	22.2	0.00e+00	0	41	0	1364197376	54	4057
2026-01-21 22:37:58.55	109.17	23.35	-41.6	-42.4	22.3	0.00e+00	0	41	0	1367343104	54	4034
2026-01-21 22:37:59.55	109.43	23.30	-41.6	-42.3	22.3	0.00e+00	0	41	0	1370488832	54	4003
2026-01-21 22:38:00.56	109.69	23.24	-41.5	-42.2	22.4	0.00e+00	0	41	0	1373634560	54	3958
2026-01-21 22:38:01.57	109.95	23.18	-41.4	-42.2	22.5	0.00e+00	0	41	0	1376780288	54	3916
2026-01-21 22:38:02.58	110.20	23.12	-41.5	-42.3	22.4	0.00e+00	0	41	0	1379926016	54	3963
2026-01-21 22:38:03.58	110.46	23.06	-41.5	-42.2	22.4	0.00e+00	0	41	0	1383071744	54	3949
2026-01-21 22:38:04.59	110.71	23.00	-41.4	-42.2	22.5	0.00e+00	0	40	0	1386217472	54	3941
2026-01-21 22:38:05.60	110.97	22.94	-41.5	-42.3	22.4	0.00e+00	0	41	0	1389363200	54	3991
2026-01-21 22:38:06.61	111.22	22.88	-41.7	-42.5	22.3	0.00e+00	0	41	0	1392508928	54	4056
2026-01-21 22:38:07.62	111.47	22.82	-41.8	-42.6	22.2	0.00e+00	0	41	0	1395654656	54	4106
2026-01-21 22:38:08.63	111.72	22.76	-41.8	-42.6	22.2	0.00e+00	0	41	0	1398800384	54	4106
2026-01-21 22:38:09.64	111.97	22.70	-41.9	-42.7	22.1	0.00e+00	0	41	0	1401946112	54	4175
2026-01-21 22:38:10.64	112.22	22.64	-41.9	-42.7	22.0	0.00e+00	0	41	0	1405091840	54	4179
2026-01-21 22:38:11.65	112.47	22.58	-41.9	-42.8	22.0	0.00e+00	0	41	0	1408237568	54	4196
2026-01-21 22:38:12.66	112.72	22.52	-41.9	-42.7	22.1	0.00e+00	0	40	0	1411383296	54	4158
2026-01-21 22:38:13.67	112.96	22.45	-41.8	-42.6	22.1	0.00e+00	0	41	0	1414529024	54	4140
2026-01-21 22:38:14.68	113.21	22.39	-41.7	-42.5	22.2	0.00e+00	0	41	0	1417674752	54	4083
2026-01-21 22:38:15.68	113.45	22.33	-41.8	-42.6	22.2	0.00e+00	0	41	0	1420820480	54	4105
2026-01-21 22:38:16.69	113.69	22.26	-41.8	-42.6	22.1	0.00e+00	0	41	0	1423966208	54	4138
2026-01-21 22:38:17.70	113.94	22.20	-41.7	-42.5	22.2	0.00e+00	0	41	0	1427111936	54	4080
2026-01-21 22:38:18.71	114.18	22.13	-41.6	-42.4	22.3	0.00e+00	0	41	0	1430257664	54	4027
2026-01-21 22:38:19.72	114.42	22.07	-41.7	-42.5	22.2	0.00e+00	0	41	0	1433403392	54	4080
2026-01-21 22:38:20.73	114.66	22.00	-41.8	-42.6	22.1	0.00e+00	0	41	0	1436549120	54	4135
2026-01-21 22:38:21.74	114.90	21.94	-41.9	-42.7	22.0	0.00e+00	0	41	0	1439694848	54	4187
2026-01-21 22:38:22.74	115.13	21.87	-42.0	-42.8	22.0	0.00e+00	0	41	0	1442840576	54	4229
2026-01-21 22:38:23.75	115.37	21.80	-42.0	-42.8	21.9	0.00e+00	0	41	0	1445986304	54	4240
2026-01-21 22:38:24.76	115.61	21.74	-42.1	-42.9	21.9	0.00e+00	0	41	0	1449132032	54	4252
2026-01-21 22:38:25.77	115.84	21.67	-42.0	-42.8	22.0	0.00e+00	0	41	0	1452277760	54	4202
2026-01-21 22:38:26.78	116.07	21.60	-41.9	-42.7	22.0	0.00e+00	0	41	0	1455423488	54	4178
2026-01-21 22:38:27.78	116.30	21.54	-42.0	-42.9	21.9	0.00e+00	0	41	0	1458569216	54	4247
2026-01-21 22:38:28.79	116.54	21.47	-41.8	-42.6	22.1	0.00e+00	0	41	0	1461714944	54	4133
2026-01-21 22:38:29.80	116.77	21.40	-41.8	-42.6	22.2	0.00e+00	0	41	0	1464860672	54	4099
2026-01-21 22:38:30.81	117.00	21.33	-41.6	-42.4	22.3	0.00e+00	0	41	0	1468006400	54	4006
2026-01-21 22:38:31.82	117.23	21.26	-41.7	-42.5	22.2	0.00e+00	0	41	0	1471152128	54	4058
2026-01-21 22:38:32.83	117.45	21.19	-41.8	-42.5	22.1	0.00e+00	0	41	0	1474297856	54	4097
2026-01-21 22:38:33.84	117.68	21.12	-41.8	-42.6	22.1	0.00e+00	0	41	0	1477443584	54	4114
2026-01-21 22:38:34.85	117.91	21.05	-41.7	-42.5	22.2	0.00e+00	0	41	0	1480589312	54	4073
2026-01-21 22:38:35.85	118.13	20.98	-41.8	-42.6	22.1	0.00e+00	0	41	0	1483735040	54	4144
2026-01-21 22:38:36.86	118.35	20.91	-41.9	-42.7	22.1	0.00e+00	0	41	0	1486880768	54	4160
2026-01-21 22:38:37.87	118.58	20.84	-41.8	-42.7	22.1	0.00e+00	0	41	0	1490026496	54	4146
2026-01-21 22:38:38.88	118.80	20.77	-41.9	-42.7	22.0	0.00e+00	0	41	0	1493172224	54	4193
2026-01-21 22:38:39.89	119.02	20.70	-42.0	-42.8	22.0	0.00e+00	0	41	0	1496317952	54	4215
2026-01-21 22:38:40.90	119.24	20.63	-42.0	-42.8	22.0	0.00e+00	0	41	0	1499463680	54	4221
2026-01-21 22:38:41.91	119.46	20.56	-41.9	-42.7	22.1	0.00e+00	0	41	0	1502609408	54	4172
2026-01-21 22:38:42.91	119.67	20.49	-41.9	-42.8	22.0	0.00e+00	0	41	0	1505755136	54	4194
2026-01-21 22:38:43.92	119.89	20.42	-41.8	-42.7	22.1	0.00e+00	0	41	0	1508900864	54	4152
2026-01-21 22:38:44.93	120.11	20.35	-41.9	-42.7	22.1	0.00e+00	0	41	0	1512046592	54	4172
2026-01-21 22:38:45.94	120.32	20.27	-42.0	-42.9	21.9	0.00e+00	0	41	0	1515192320	54	4251
2026-01-21 22:38:46.95	120.54	20.20	-42.1	-42.9	21.9	0.00e+00	0	41	0	1518338048	54	4286
2026-01-21 22:38:47.96	120.75	20.13	-42.0	-42.9	21.9	0.00e+00	0	40	0	1521483776	54	4259
2026-01-21 22:38:48.96	120.96	20.06	-42.2	-43.0	21.8	0.00e+00	0	41	0	1524629504	54	4314
2026-01-21 22:38:49.97	121.17	19.99	-42.0	-42.9	21.9	0.00e+00	0	40	0	1527775232	54	4243
2026-01-21 22:38:50.98	121.38	19.91	-41.9	-42.6	22.1	0.00e+00	0	41	0	1530920960	54	4145
2026-01-21 22:38:51.99	121.59	19.84	-41.9	-42.7	22.1	0.00e+00	0	41	0	1534066688	54	4148
2026-01-21 22:38:53.00	121.80	19.77	-41.8	-42.6	22.1	0.00e+00	0	41	0	1537212416	54	4119
2026-01-21 22:38:54.01	122.00	19.69	-41.8	-42.6	22.1	0.00e+00	0	41	0	1540358144	54	4121
2026-01-21 22:38:55.02	122.21	19.62	-41.8	-42.6	22.1	0.00e+00	0	41	0	1543503872	54	4141
2026-01-21 22:38:56.03	122.42	19.55	-41.8	-42.6	22.1	0.00e+00	0	41	0	1546649600	54	4145
2026-01-21 22:38:57.04	122.62	19.47	-41.9	-42.7	22.0	0.00e+00	0	41	0	1549795328	54	4180
2026-01-21 22:38:58.04	122.82	19.40	-41.9	-42.7	22.0	0.00e+00	0	41	0	1552941056	54	4177
2026-01-21 22:38:59.05	123.02	19.32	-42.0	-42.9	21.9	0.00e+00	0	41	0	1556086784	54	4247
2026-01-21 22:39:00.06	123.23	19.25	-42.0	-42.8	21.9	0.00e+00	0	41	0	1560281088	54	4221
2026-01-21 22:39:01.07	123.43	19.18	-42.0	-42.8	21.9	0.00e+00	0	41	0	1562378240	54	4211
2026-01-21 22:39:02.08	123.63	19.10	-41.9	-42.8	21.9	0.00e+00	0	41	0	1565523968	54	4198
2026-01-21 22:39:03.09	123.82	19.03	-41.9	-42.7	21.9	0.00e+00	0	41	0	1568669696	54	4180
2026-01-21 22:39:04.09	124.02	18.95	-41.9	-42.8	21.9	0.00e+00	0	41	0	1571815424	54	4201
2026-01-21 22:39:05.10	124.22	18.88	-41.9	-42.7	21.9	0.00e+00	0	41	0	1574961152	54	4176
2026-01-21 22:39:06.11	124.41	18.80	-42.0	-42.8	21.9	0.00e+00	0	41	0	1578106880	54	4205
2026-01-21 22:39:07.12	124.61	18.73	-41.8	-42.6	22.0	0.00e+00	0	41	0	1581252608	54	4122
2026-01-21 22:39:08.13	124.80	18.65	-41.9	-42.8	21.8	0.00e+00	0	41	0	1584398336	54	4194
2026-01-21 22:39:09.14	125.00	18.58	-41.9	-42.7	21.9	0.00e+00	0	40	0	1587544064	54	4191
2026-01-21 22:39:10.15	125.19	18.50	-42.0	-42.8	21.8	0.00e+00	0	41	0	1590689792	54	4240
2026-01-21 22:39:11.16	125.38	18.43	-42.0	-42.9	21.8	0.00e+00	0	41	0	1593835520	54	4248
2026-01-21 22:39:12.16	125.57	18.35	-42.0	-42.9	21.8	0.00e+00	0	41	0	1598029824	54	4244
2026-01-21 22:39:13.17	125.76	18.28	-42.0	-42.8	21.8	0.00e+00	0	41	0	1601175552	54	4237
2026-01-21 22:39:14.18	125.95	18.20	-42.1	-43.0	21.6	0.00e+00	0	41	0	1604321280	54	4304
2026-01-21 22:39:15.19	126.13	18.13	-42.1	-43.0	21.7	0.00e+00	0	41	0	1607467008	54	4298
2026-01-21 22:39:16.20	126.32	18.05	-42.2	-43.1	21.6	0.00e+00	0	41	0	1609564160	55	4105
2026-01-21 22:39:17.20	126.50	17.98	-42.2	-43.1	21.6	0.00e+00	0	41	0	1612709888	55	4109
2026-01-21 22:39:18.21	126.69	17.90	-42.1	-42.9	21.8	0.00e+00	0	41	0	1615855616	55	4015
2026-01-21 22:39:19.22	126.87	17.82	-42.1	-42.9	21.7	0.00e+00	0	41	0	1619001344	55	4022
2026-01-21 22:39:20.23	127.06	17.75	-42.1	-43.0	21.7	0.00e+00	0	41	0	1622147072	55	4054
2026-01-21 22:39:21.23	127.24	17.67	-42.3	-43.2	21.4	0.00e+00	0	41	0	1625292800	55	4161
2026-01-21 22:39:22.24	127.42	17.60	-42.3	-43.1	21.5	0.00e+00	0	41	0	1628438528	55	4135
2026-01-21 22:39:23.25	127.60	17.52	-42.3	-43.2	21.5	0.00e+00	0	41	0	1631584256	55	4159
2026-01-21 22:39:24.26	127.78	17.45	-42.4	-43.3	21.4	0.00e+00	0	41	0	1635778560	55	4201
2026-01-21 22:39:25.27	127.96	17.37	-42.4	-43.3	21.4	0.00e+00	0	41	0	1638924288	55	4212
2026-01-21 22:39:26.27	128.13	17.29	-42.5	-43.4	21.2	0.00e+00	0	41	0	1642070016	55	4274
2026-01-21 22:39:27.28	128.31	17.22	-42.4	-43.3	21.4	0.00e+00	0	41	0	1645215744	55	4195
2026-01-21 22:39:28.29	128.49	17.14	-42.4	-43.2	21.4	0.00e+00	0	41	0	1648361472	55	4188
2026-01-21 22:39:29.30	128.66	17.07	-42.4	-43.2	21.4	0.00e+00	0	41	0	1651507200	55	4188
2026-01-21 22:39:30.31	128.84	16.99	-42.5	-43.4	21.2	0.00e+00	0	41	0	1654652928	55	4257
2026-01-21 22:39:31.32	129.01	16.91	-42.5	-43.3	21.3	0.00e+00	0	41	0	1656750080	55	4232
2026-01-21 22:39:32.32	129.18	16.84	-42.5	-43.3	21.3	0.00e+00	0	41	0	1659895808	55	4239
2026-01-21 22:39:33.33	129.35	16.76	-42.5	-43.4	21.3	0.00e+00	0	41	0	1663041536	55	4248
2026-01-21 22:39:34.34	129.52	16.69	-42.4	-43.2	21.4	0.00e+00	0	41	0	1666187264	55	4191
2026-01-21 22:39:35.35	129.69	16.61	-42.4	-43.2	21.3	0.00e+00	0	41	0	1669332992	55	4190
2026-01-21 22:39:36.35	129.86	16.53	-42.5	-43.4	21.2	0.00e+00	0	41	0	1672478720	55	4260
2026-01-21 22:39:37.36	130.03	16.46	-42.6	-43.5	21.1	0.00e+00	0	41	0	1676673024	55	4314
2026-01-21 22:39:38.37	130.20	16.38	-42.6	-43.5	21.1	0.00e+00	0	41	0	1679818752	55	4327
2026-01-21 22:39:39.38	130.36	16.31	-42.6	-43.5	21.1	0.00e+00	0	41	0	1682964480	55	4299
2026-01-21 22:39:40.39	130.53	16.23	-42.5	-43.4	21.2	0.00e+00	0	41	0	1686110208	55	4279
2026-01-21 22:39:41.40	130.70	16.15	-42.4	-43.3	21.3	0.00e+00	0	41	0	1689255936	55	4214
2026-01-21 22:39:42.40	130.86	16.08	-42.2	-43.1	21.5	0.00e+00	0	41	0	1692401664	55	4107
2026-01-21 22:39:43.41	131.02	16.00	-42.2	-43.1	21.5	0.00e+00	0	41	0	1695547392	55	4105
2026-01-21 22:39:44.42	131.18	15.93	-42.3	-43.2	21.4	0.00e+00	0	41	0	1698693120	55	4157
2026-01-21 22:39:45.43	131.35	15.85	-42.4	-43.3	21.3	0.00e+00	0	41	0	1701838848	55	4206
2026-01-21 22:39:46.44	131.51	15.77	-42.6	-43.5	21.1	0.00e+00	0	41	0	1703936000	55	4300
2026-01-21 22:39:47.45	131.67	15.70	-42.6	-43.5	21.1	0.00e+00	0	41	0	1707081728	55	4312
2026-01-21 22:39:48.45	131.83	15.62	-42.6	-43.5	21.0	0.00e+00	0	41	0	1710227456	55	4308
2026-01-21 22:39:49.46	131.99	15.55	-42.6	-43.5	21.0	0.00e+00	0	41	0	1714421760	55	4327
2026-01-21 22:39:50.47	132.14	15.47	-42.7	-43.6	21.0	0.00e+00	0	41	0	1717567488	55	4358
2026-01-21 22:39:51.48	132.30	15.39	-43.0	-43.9	20.8	0.00e+00	0	41	0	1720713216	56	4265
2026-01-21 22:39:52.49	132.46	15.32	-43.0	-43.9	20.7	0.00e+00	0	41	0	1723858944	56	4265
2026-01-21 22:39:53.49	132.61	15.24	-43.0	-43.9	20.8	0.00e+00	0	41	0	1727004672	56	4265
2026-01-21 22:39:54.50	132.77	15.17	-43.1	-44.1	20.6	0.00e+00	0	41	0	1730150400	56	4348
2026-01-21 22:39:55.51	132.92	15.09	-42.7	-43.6	21.0	0.00e+00	0	41	0	1733296128	56	4134
2026-01-21 22:39:56.52	133.08	15.02	-42.7	-43.6	21.0	0.00e+00	0	41	0	1736441856	56	4128
2026-01-21 22:39:57.53	133.23	14.94	-42.7	-43.6	21.0	0.00e+00	0	41	0	1739587584	56	4131
2026-01-21 22:39:58.54	133.38	14.87	-42.8	-43.8	20.9	0.00e+00	0	40	0	1742733312	56	4200
2026-01-21 22:39:59.54	133.53	14.79	-42.7	-43.5	21.1	0.00e+00	0	41	0	1745879040	56	4095
2026-01-21 22:40:00.55	133.68	14.72	-42.6	-43.5	21.1	0.00e+00	0	41	0	1749024768	56	4061
2026-01-21 22:40:01.56	133.83	14.64	-42.6	-43.5	21.1	0.00e+00	0	41	0	1752170496	56	4086
2026-01-21 22:40:02.57	133.98	14.56	-42.6	-43.5	21.1	0.00e+00	0	41	0	1755316224	56	4081
2026-01-21 22:40:03.58	134.13	14.49	-42.8	-43.7	21.0	0.00e+00	0	41	0	1758461952	56	4152
2026-01-21 22:40:04.58	134.27	14.41	-42.8	-43.7	20.9	0.00e+00	0	41	0	1761607680	56	4185
2026-01-21 22:40:05.59	134.42	14.34	-42.8	-43.7	20.9	0.00e+00	0	41	0	1764753408	56	4193
2026-01-21 22:40:06.60	134.57	14.26	-43.0	-43.9	20.8	0.00e+00	0	41	0	1767899136	56	4256
2026-01-21 22:40:07.61	134.71	14.19	-42.9	-43.8	20.9	0.00e+00	0	41	0	1771044864	56	4227
2026-01-21 22:40:08.62	134.86	14.11	-43.1	-44.0	20.7	0.00e+00	0	40	0	1774190592	56	4312
2026-01-21 22:40:09.63	135.00	14.04	-43.1	-44.0	20.6	0.00e+00	0	41	0	1777336320	56	4337
2026-01-21 22:40:10.63	135.14	13.97	-43.1	-44.1	20.6	0.00e+00	0	41	0	1780482048	56	4364
2026-01-21 22:40:11.64	135.29	13.89	-43.1	-44.0	20.6	0.00e+00	0	41	0	1783627776	56	4336
2026-01-21 22:40:12.65	135.43	13.82	-43.1	-44.0	20.7	0.00e+00	0	41	0	1786773504	56	4325
2026-01-21 22:40:13.66	135.57	13.74	-43.1	-44.1	20.6	0.00e+00	0	41	0	1789919232	56	4348
2026-01-21 22:40:14.67	135.71	13.67	-43.3	-44.3	20.4	0.00e+00	0	41	0	1793064960	57	4199
2026-01-21 22:40:15.68	135.85	13.59	-43.2	-44.1	20.5	0.00e+00	0	41	0	1796210688	57	4136
2026-01-21 22:40:16.68	135.99	13.52	-43.2	-44.2	20.5	0.00e+00	0	41	0	1799356416	57	4159
2026-01-21 22:40:17.69	136.13	13.44	-43.3	-44.2	20.4	0.00e+00	0	41	0	1802502144	57	4181
2026-01-21 22:40:18.70	136.27	13.37	-43.1	-44.0	20.6	0.00e+00	0	41	0	1805647872	57	4089
2026-01-21 22:40:19.71	136.40	13.30	-43.2	-44.1	20.5	0.00e+00	0	41	0	1808793600	57	4143
2026-01-21 22:40:20.71	136.54	13.22	-43.1	-44.0	20.5	0.00e+00	0	40	0	1811939328	57	4096
2026-01-21 22:40:21.72	136.67	13.15	-43.0	-44.0	20.6	0.00e+00	0	41	0	1815085056	57	4066
2026-01-21 22:40:22.73	136.81	13.07	-43.2	-44.2	20.4	0.00e+00	0	41	0	1818230784	57	4168
2026-01-21 22:40:23.74	136.94	13.00	-43.1	-44.1	20.5	0.00e+00	0	41	0	1821376512	57	4120
2026-01-21 22:40:24.75	137.08	12.93	-43.2	-44.1	20.4	0.00e+00	0	41	0	1824522240	57	4134
2026-01-21 22:40:25.75	137.21	12.85	-43.2	-44.2	20.4	0.00e+00	0	41	0	1827667968	57	4149
2026-01-21 22:40:26.76	137.34	12.78	-43.3	-44.2	20.4	0.00e+00	0	40	0	1830813696	57	4193
2026-01-21 22:40:27.77	137.48	12.71	-43.3	-44.3	20.3	0.00e+00	0	41	0	1833959424	57	4199
2026-01-21 22:40:28.78	137.61	12.63	-43.3	-44.3	20.3	0.00e+00	0	41	0	1837105152	57	4194
2026-01-21 22:40:29.79	137.74	12.56	-43.2	-44.2	20.4	0.00e+00	0	41	0	1840250880	57	4166
2026-01-21 22:40:30.80	137.87	12.49	-43.4	-44.4	20.2	0.00e+00	0	41	0	1843396608	57	4251
2026-01-21 22:40:31.80	138.00	12.41	-43.2	-44.1	20.5	0.00e+00	0	40	0	1846542336	57	4128
2026-01-21 22:40:32.81	138.13	12.34	-43.3	-44.3	20.3	0.00e+00	0	41	0	1849688064	57	4215
2026-01-21 22:40:33.82	138.25	12.27	-43.4	-44.4	20.2	0.00e+00	0	41	0	1852833792	57	4244
2026-01-21 22:40:34.83	138.38	12.19	-43.4	-44.4	20.2	0.00e+00	0	41	0	1855979520	57	4254
2026-01-21 22:40:35.84	138.51	12.12	-43.3	-44.3	20.3	0.00e+00	0	41	0	1859125248	57	4230
2026-01-21 22:40:36.84	138.63	12.05	-43.3	-44.3	20.3	0.00e+00	0	41	0	1862270976	57	4212
2026-01-21 22:40:37.85	138.76	11.98	-43.4	-44.4	20.2	0.00e+00	0	41	0	1865416704	57	4246
2026-01-21 22:40:38.86	138.89	11.90	-43.4	-44.3	20.3	0.00e+00	0	41	0	1868562432	57	4237
2026-01-21 22:40:39.87	139.01	11.83	-43.4	-44.4	20.2	0.00e+00	0	40	0	1871708160	57	4281
2026-01-21 22:40:40.88	139.14	11.76	-43.5	-44.4	20.1	0.00e+00	0	41	0	1874853888	57	4287
2026-01-21 22:40:41.88	139.26	11.69	-43.3	-44.3	20.3	0.00e+00	0	41	0	1877999616	57	4218
2026-01-21 22:40:42.89	139.38	11.61	-43.4	-44.3	20.3	0.00e+00	0	41	0	1881145344	57	4235
2026-01-21 22:40:43.90	139.50	11.54	-43.3	-44.3	20.3	0.00e+00	0	41	0	1884291072	57	4214
2026-01-21 22:40:44.91	139.63	11.47	-43.3	-44.3	20.3	0.00e+00	0	41	0	1887436800	57	4197
2026-01-21 22:40:45.92	139.75	11.40	-43.3	-44.2	20.4	0.00e+00	0	41	0	1890582528	57	4186
2026-01-21 22:40:46.92	139.87	11.33	-43.4	-44.4	20.3	0.00e+00	0	41	0	1893728256	57	4245
2026-01-21 22:40:47.93	139.99	11.26	-43.4	-44.4	20.2	0.00e+00	0	41	0	1896873984	57	4248
2026-01-21 22:40:48.94	140.11	11.18	-43.4	-44.4	20.2	0.00e+00	0	41	0	1900019712	57	4248
2026-01-21 22:40:49.95	140.22	11.11	-43.4	-44.4	20.2	0.00e+00	0	40	0	1903165440	57	4263
2026-01-21 22:40:50.96	140.34	11.04	-43.5	-44.5	20.1	0.00e+00	0	41	0	1906311168	57	4301
2026-01-21 22:40:51.96	140.46	10.97	-43.6	-44.6	20.0	0.00e+00	0	41	0	1909456896	57	4373
2026-01-21 22:40:52.97	140.58	10.90	-43.6	-44.6	20.0	0.00e+00	0	41	0	1912602624	57	4368
2026-01-21 22:40:53.98	140.69	10.83	-43.7	-44.8	19.8	0.00e+00	0	41	0	1915748352	57	4443
2026-01-21 22:40:54.99	140.81	10.76	-43.8	-44.9	19.7	0.00e+00	0	41	0	1918894080	58	4255
2026-01-21 22:40:56.00	140.93	10.69	-43.7	-44.7	19.8	0.00e+00	0	40	0	1922039808	58	4191
2026-01-21 22:40:57.00	141.04	10.62	-43.7	-44.7	19.8	0.00e+00	0	41	0	1925185536	58	4193
2026-01-21 22:40:58.01	141.16	10.55	-43.8	-44.8	19.7	0.00e+00	0	41	0	1928331264	58	4235
2026-01-21 22:40:59.02	141.27	10.48	-43.8	-44.8	19.7	0.00e+00	0	41	0	1931476992	58	4234
2026-01-21 22:41:00.03	141.38	10.40	-43.7	-44.8	19.8	0.00e+00	0	41	0	1934622720	58	4211
2026-01-21 22:41:01.03	141.50	10.34	-43.8	-44.9	19.7	0.00e+00	0	41	0	1937768448	58	4248
2026-01-21 22:41:02.04	141.61	10.26	-43.7	-44.7	19.8	0.00e+00	0	41	0	1940914176	58	4187
2026-01-21 22:41:03.05	141.72	10.19	-43.8	-44.8	19.8	0.00e+00	0	41	0	1944059904	58	4213
2026-01-21 22:41:04.06	141.83	10.12	-43.8	-44.8	19.8	0.00e+00	0	41	0	1947205632	58	4215
2026-01-21 22:41:05.07	141.94	10.05	-43.7	-44.7	19.8	0.00e+00	0	41	0	1950351360	58	4177
2026-01-21 22:41:06.08	142.05	9.98	-43.8	-44.8	19.7	0.00e+00	0	41	0	1953497088	58	4217
2026-01-21 22:41:07.08	142.16	9.92	-43.8	-44.8	19.7	0.00e+00	0	41	0	1956642816	58	4224
2026-01-21 22:41:08.09	142.27	9.85	-43.7	-44.8	19.8	0.00e+00	0	41	0	1959788544	58	4197
2026-01-21 22:41:09.09	142.38	9.78	-43.8	-44.8	19.7	0.00e+00	0	41	0	1962934272	58	4224
2026-01-21 22:41:10.10	142.49	9.71	-43.8	-44.8	19.7	0.00e+00	0	41	0	1966080000	58	4216
2026-01-21 22:41:11.11	142.60	9.64	-43.8	-44.9	19.6	0.00e+00	0	41	0	1969225728	58	4253
2026-01-21 22:41:12.12	142.70	9.57	-44.0	-45.0	19.5	0.00e+00	0	41	0	1972371456	58	4334
2026-01-21 22:41:13.13	142.81	9.50	-43.9	-44.9	19.6	0.00e+00	0	41	0	1975517184	58	4272
2026-01-21 22:41:14.14	142.92	9.43	-43.9	-45.0	19.6	0.00e+00	0	40	0	1978662912	58	4295
2026-01-21 22:41:15.14	143.02	9.36	-44.0	-45.0	19.5	0.00e+00	0	41	0	1981808640	58	4330
2026-01-21 22:41:16.15	143.13	9.29	-43.9	-45.0	19.5	0.00e+00	0	41	0	1984954368	58	4323
2026-01-21 22:41:17.16	143.23	9.23	-43.9	-45.0	19.5	0.00e+00	0	41	0	1988100096	58	4317
2026-01-21 22:41:18.17	143.34	9.16	-44.2	-45.3	19.3	0.00e+00	0	41	0	1991245824	58	4458
2026-01-21 22:41:19.18	143.44	9.09	-44.1	-45.3	19.3	0.00e+00	0	41	0	1994391552	59	4194
2026-01-21 22:41:20.18	143.55	9.02	-44.2	-45.3	19.3	0.00e+00	0	40	0	1997537280	59	4194
2026-01-21 22:41:21.19	143.65	8.95	-44.2	-45.4	19.2	0.00e+00	0	41	0	2000683008	59	4248
2026-01-21 22:41:22.20	143.75	8.88	-44.2	-45.3	19.3	0.00e+00	0	41	0	2003828736	59	4201
2026-01-21 22:41:23.21	143.86	8.82	-44.2	-45.3	19.2	0.00e+00	0	41	0	2006974464	59	4230
2026-01-21 22:41:24.22	143.96	8.75	-44.2	-45.3	19.2	0.00e+00	0	41	0	2010120192	59	4241
2026-01-21 22:41:25.23	144.06	8.68	-44.2	-45.3	19.2	0.00e+00	0	41	0	2013265920	59	4198
2026-01-21 22:41:26.24	144.16	8.61	-44.1	-45.2	19.3	0.00e+00	0	40	0	2016411648	59	4166
2026-01-21 22:41:27.24	144.26	8.55	-44.2	-45.4	19.1	0.00e+00	0	41	0	2019557376	59	4249
2026-01-21 22:41:28.25	144.36	8.48	-44.2	-45.3	19.1	0.00e+00	0	41	0	2022703104	59	4229
2026-01-21 22:41:29.26	144.46	8.41	-44.3	-45.4	19.1	0.00e+00	0	41	0	2025848832	59	4272
2026-01-21 22:41:30.27	144.56	8.34	-44.3	-45.5	19.0	0.00e+00	0	41	0	2028994560	59	4293
2026-01-21 22:41:31.27	144.66	8.28	-44.0	-45.1	19.3	0.00e+00	0	41	0	2032140288	59	4141
2026-01-21 22:41:32.28	144.76	8.21	-44.1	-45.2	19.2	0.00e+00	0	41	0	2035286016	59	4170
2026-01-21 22:41:33.29	144.85	8.14	-44.2	-45.3	19.1	0.00e+00	0	41	0	2038431744	59	4226
2026-01-21 22:41:34.30	144.95	8.08	-44.3	-45.4	18.9	0.00e+00	0	41	0	2041577472	59	4280
