passes_logs/2026/01/21/R3.2S_Murmansk/R3.2S_Murmansk__20260121_093642_NOAA_20_JPSS-1_rec.log

#Pass ID: 20260121_093642_NOAA 20 (JPSS-1)
#Satellite: NOAA 20 (JPSS-1)
#Configuration: NOAA 20
#almurnet v.1.7.20251203
#Start time: 2026-01-21 09:36:41

#Version: 2.2.20231116
#Station: R3.2S_Murmansk
#Location: 33.079688 lon 68.888172 lat
#TLE: 1 43013U 17073A   26020.82785136  .00000155  00000+0  94366-4 0  9991
#TLE: 2 43013  98.7643 321.7058 0001260  30.3785 329.7464 14.19537992423566

#Time	Az	El	Level	Level2	SNR	BER	BlckErr	Temp	State	Recorded	gain1	gain2
2026-01-21 09:36:41.79	153.72	1.96	-52.7	-67.7	3.8	1.49e+00	0	38	0	0	77	19717
2026-01-21 09:36:42.80	153.73	2.02	-52.5	-67.5	3.8	1.49e+00	0	38	104	0	75	21735
2026-01-21 09:36:43.81	153.73	2.09	-52.5	-67.6	3.8	1.49e+00	0	38	104	0	75	21757
2026-01-21 09:36:44.81	153.74	2.15	-52.5	-67.5	3.8	1.49e+00	0	38	104	0	75	21654
2026-01-21 09:36:45.83	153.74	2.22	-52.5	-67.5	3.8	1.49e+00	0	38	104	0	75	21651
2026-01-21 09:36:46.83	153.75	2.28	-52.5	-67.5	3.8	1.49e+00	0	38	104	0	75	21639
2026-01-21 09:36:47.84	153.76	2.35	-52.5	-67.5	3.8	1.49e+00	0	38	104	0	75	21672
2026-01-21 09:36:48.85	153.76	2.42	-52.5	-67.5	3.8	1.49e+00	0	38	104	0	75	21618
2026-01-21 09:36:49.85	153.77	2.48	-52.5	-67.5	3.8	1.49e+00	0	38	104	0	75	21645
2026-01-21 09:36:50.86	153.77	2.55	-52.5	-67.5	3.8	1.49e+00	0	38	104	0	75	21601
2026-01-21 09:36:51.87	153.78	2.61	-52.5	-67.5	3.8	1.49e+00	0	38	104	0	75	21573
2026-01-21 09:36:52.88	153.78	2.68	-52.5	-67.5	3.8	1.49e+00	0	38	104	0	75	21587
2026-01-21 09:36:53.89	153.79	2.75	-52.5	-67.5	3.8	1.49e+00	0	38	104	0	75	21534
2026-01-21 09:36:54.89	153.79	2.81	-52.5	-67.4	3.8	1.49e+00	0	38	104	0	75	21488
2026-01-21 09:36:55.90	153.80	2.88	-52.5	-67.4	3.8	1.49e+00	0	38	104	0	75	21479
2026-01-21 09:36:56.91	153.80	2.95	-52.5	-67.4	3.8	1.49e+00	0	38	104	0	75	21370
2026-01-21 09:36:57.92	153.81	3.01	-52.5	-67.3	3.8	1.49e+00	0	38	104	0	75	21251
2026-01-21 09:36:58.93	153.81	3.08	-52.5	-67.2	3.8	1.49e+00	0	38	104	0	75	21010
2026-01-21 09:36:59.94	153.82	3.15	-52.5	-67.2	3.8	1.49e+00	0	38	104	0	75	20866
2026-01-21 09:37:00.94	153.82	3.21	-52.5	-67.1	3.8	1.49e+00	0	38	104	0	75	20551
2026-01-21 09:37:01.95	153.83	3.28	-52.5	-67.0	3.8	1.49e+00	0	38	104	0	75	20393
2026-01-21 09:37:02.96	153.84	3.35	-52.5	-66.9	3.8	1.49e+00	0	39	104	0	75	20216
2026-01-21 09:37:03.97	153.84	3.42	-52.5	-66.8	3.8	1.49e+00	0	39	104	0	75	20004
2026-01-21 09:37:04.98	153.85	3.49	-52.5	-66.9	3.8	1.49e+00	0	39	104	0	75	20220
2026-01-21 09:37:05.99	153.85	3.55	-52.5	-67.1	3.8	1.49e+00	0	39	104	0	75	20667
2026-01-21 09:37:06.99	153.86	3.62	-52.5	-66.9	3.8	1.49e+00	0	39	104	0	75	20296
2026-01-21 09:37:08.00	153.86	3.69	-52.4	-66.4	3.8	1.49e+00	0	39	104	0	75	18956
2026-01-21 09:37:09.01	153.87	3.76	-52.4	-64.7	4.0	1.49e+00	0	39	104	0	75	15682
2026-01-21 09:37:10.02	153.87	3.83	-52.3	-63.6	4.3	1.38e+00	34	39	0	0	75	13808
2026-01-21 09:37:11.02	153.88	3.90	-52.0	-61.3	5.4	6.65e-01	0	39	0	1048576	75	10561
2026-01-21 09:37:12.03	153.88	3.97	-51.7	-59.1	7.0	5.18e-01	0	39	0	3145728	75	8258
2026-01-21 09:37:13.04	153.89	4.04	-51.6	-58.7	7.5	1.05e-01	0	39	0	5242880	75	7832
2026-01-21 09:37:14.05	153.90	4.11	-50.9	-56.1	10.1	2.79e-02	0	39	0	6291456	73	6530
2026-01-21 09:37:15.06	153.90	4.18	-50.7	-55.7	10.5	8.63e-03	0	39	0	8388608	73	6209
2026-01-21 09:37:16.06	153.91	4.25	-50.3	-54.6	11.7	1.11e-03	0	39	0	10485760	72	5830
2026-01-21 09:37:17.07	153.91	4.32	-50.1	-54.1	12.3	1.14e-04	0	39	0	12582912	71	5807
2026-01-21 09:37:18.08	153.92	4.39	-49.6	-53.1	13.4	4.80e-05	0	39	0	14680064	71	5169
2026-01-21 09:37:19.09	153.92	4.46	-49.3	-52.4	14.0	5.30e-06	0	39	0	16777216	70	5089
2026-01-21 09:37:20.10	153.93	4.53	-48.9	-51.8	14.7	7.00e-07	0	39	0	17825792	69	5022
2026-01-21 09:37:21.11	153.93	4.60	-48.7	-51.4	15.1	0.00e+00	0	39	0	19922944	69	4787
2026-01-21 09:37:22.12	153.94	4.67	-49.1	-52.0	14.4	0.00e+00	0	39	0	22020096	69	5150
2026-01-21 09:37:23.13	153.95	4.74	-48.9	-51.8	14.7	0.00e+00	0	39	0	24117248	69	4997
2026-01-21 09:37:24.14	153.95	4.82	-49.1	-52.1	14.3	0.00e+00	0	39	0	25165824	69	5217
2026-01-21 09:37:25.14	153.96	4.89	-49.2	-52.3	14.2	1.50e-06	0	39	0	27262976	69	5306
2026-01-21 09:37:26.15	153.96	4.96	-49.7	-53.2	13.2	2.13e-05	0	39	0	29360128	70	5546
2026-01-21 09:37:27.16	153.97	5.03	-50.0	-53.8	12.7	2.59e-05	0	39	0	31457280	70	5936
2026-01-21 09:37:28.17	153.97	5.10	-50.0	-53.8	12.8	1.44e-05	0	39	0	33554432	71	5604
2026-01-21 09:37:29.18	153.98	5.18	-49.3	-52.4	14.3	3.80e-06	0	39	0	34603008	70	5051
2026-01-21 09:37:30.19	153.99	5.25	-52.3	-64.6	3.9	8.46e-01	0	39	104	36700160	75	15528
2026-01-21 09:37:31.19	153.99	5.32	-49.1	-52.1	14.3	6.13e-03	0	39	0	36700160	70	4891
2026-01-21 09:37:32.20	154.00	5.40	-50.7	-55.3	10.9	2.52e-03	0	39	0	38797312	72	6337
2026-01-21 09:37:33.21	154.00	5.47	-48.8	-51.6	15.0	7.00e-07	0	39	0	40894464	69	4887
2026-01-21 09:37:34.22	154.01	5.54	-48.7	-51.3	15.2	0.00e+00	0	39	0	42991616	69	4756
2026-01-21 09:37:35.23	154.01	5.62	-48.7	-51.4	15.2	7.00e-07	0	39	0	45088768	69	4790
2026-01-21 09:37:36.23	154.02	5.69	-48.6	-51.2	15.5	0.00e+00	0	39	0	46137344	69	4653
2026-01-21 09:37:37.24	154.03	5.76	-48.5	-51.0	15.7	0.00e+00	0	39	0	48234496	69	4576
2026-01-21 09:37:38.25	154.03	5.84	-48.5	-51.1	15.6	0.00e+00	0	39	0	50331648	69	4600
2026-01-21 09:37:39.26	154.04	5.91	-48.7	-51.3	15.4	0.00e+00	0	39	0	52428800	69	4750
2026-01-21 09:37:40.26	154.04	5.99	-48.5	-51.1	15.6	0.00e+00	0	39	0	54525952	69	4599
2026-01-21 09:37:41.27	154.05	6.06	-48.7	-51.3	15.4	0.00e+00	0	39	0	55574528	69	4742
2026-01-21 09:37:42.28	154.06	6.14	-48.7	-51.2	15.5	0.00e+00	0	39	0	57671680	69	4689
2026-01-21 09:37:43.28	154.06	6.21	-49.0	-51.8	14.9	0.00e+00	0	39	0	59768832	69	5031
2026-01-21 09:37:44.29	154.07	6.29	-48.6	-51.1	15.6	0.00e+00	0	39	0	61865984	69	4629
2026-01-21 09:37:45.30	154.07	6.37	-48.5	-50.9	15.9	0.00e+00	0	39	0	63963136	68	4787
2026-01-21 09:37:46.31	154.08	6.44	-48.5	-50.9	15.8	0.00e+00	0	39	0	65011712	68	4797
2026-01-21 09:37:47.32	154.08	6.52	-48.5	-50.9	15.8	0.00e+00	0	39	0	67108864	68	4795
2026-01-21 09:37:48.33	154.09	6.60	-48.5	-50.9	15.8	0.00e+00	0	39	0	69206016	68	4799
2026-01-21 09:37:49.33	154.10	6.67	-48.5	-51.0	15.8	0.00e+00	0	39	0	71303168	68	4831
2026-01-21 09:37:50.34	154.10	6.75	-48.4	-50.8	16.0	0.00e+00	0	39	0	73400320	68	4738
2026-01-21 09:37:51.35	154.11	6.83	-48.7	-51.3	15.5	0.00e+00	0	40	0	74448896	68	5003
2026-01-21 09:37:52.36	154.11	6.90	-48.2	-50.5	16.3	0.00e+00	0	39	0	76546048	68	4556
2026-01-21 09:37:53.37	154.12	6.98	-48.3	-50.6	16.2	0.00e+00	0	39	0	78643200	68	4616
2026-01-21 09:37:54.37	154.13	7.06	-48.1	-50.3	16.5	0.00e+00	0	39	0	80740352	68	4481
2026-01-21 09:37:55.38	154.13	7.14	-48.3	-50.6	16.2	0.00e+00	0	39	0	82837504	68	4636
2026-01-21 09:37:56.39	154.14	7.22	-48.4	-50.7	16.2	0.00e+00	0	39	0	84934656	68	4671
2026-01-21 09:37:57.40	154.14	7.29	-48.3	-50.6	16.3	0.00e+00	0	39	0	85983232	68	4604
2026-01-21 09:37:58.41	154.15	7.37	-48.1	-50.3	16.5	0.00e+00	0	40	0	88080384	68	4492
2026-01-21 09:37:59.41	154.16	7.45	-48.1	-50.3	16.5	0.00e+00	0	39	0	90177536	68	4489
2026-01-21 09:38:00.42	154.16	7.53	-48.1	-50.4	16.6	0.00e+00	0	39	0	92274688	68	4496
2026-01-21 09:38:01.43	154.17	7.61	-48.1	-50.3	16.6	0.00e+00	0	40	0	93323264	68	4481
2026-01-21 09:38:02.44	154.18	7.69	-48.3	-50.5	16.4	0.00e+00	0	39	0	95420416	68	4593
2026-01-21 09:38:03.44	154.18	7.77	-48.2	-50.3	16.6	0.00e+00	0	39	0	97517568	68	4493
2026-01-21 09:38:04.45	154.19	7.85	-48.2	-50.4	16.5	0.00e+00	0	39	0	99614720	68	4530
2026-01-21 09:38:05.46	154.19	7.93	-48.2	-50.4	16.5	0.00e+00	0	39	0	101711872	68	4523
2026-01-21 09:38:06.46	154.20	8.01	-48.3	-50.5	16.4	0.00e+00	0	39	0	102760448	68	4576
2026-01-21 09:38:07.47	154.21	8.10	-48.2	-50.3	16.6	0.00e+00	0	39	0	104857600	68	4489
2026-01-21 09:38:08.48	154.21	8.18	-48.2	-50.4	16.5	0.00e+00	0	39	0	106954752	68	4535
2026-01-21 09:38:09.49	154.22	8.26	-48.1	-50.2	16.8	0.00e+00	0	39	0	109051904	68	4405
2026-01-21 09:38:10.50	154.22	8.34	-48.1	-50.2	16.8	0.00e+00	0	39	0	111149056	68	4420
2026-01-21 09:38:11.51	154.23	8.42	-48.1	-50.2	16.8	0.00e+00	0	39	0	113246208	68	4433
2026-01-21 09:38:12.51	154.24	8.51	-48.0	-50.1	16.9	0.00e+00	0	39	0	114294784	68	4343
2026-01-21 09:38:13.52	154.24	8.59	-47.9	-50.0	16.9	0.00e+00	0	39	0	116391936	67	4585
2026-01-21 09:38:14.53	154.25	8.67	-47.9	-50.0	16.9	0.00e+00	0	39	0	118489088	67	4557
2026-01-21 09:38:15.54	154.26	8.76	-47.9	-49.9	17.0	0.00e+00	0	39	0	120586240	67	4537
2026-01-21 09:38:16.55	154.26	8.84	-47.8	-49.9	17.0	0.00e+00	0	39	0	121634816	67	4507
2026-01-21 09:38:17.55	154.27	8.92	-47.9	-50.0	16.9	0.00e+00	0	39	0	123731968	67	4561
2026-01-21 09:38:18.56	154.28	9.01	-48.0	-50.2	16.7	0.00e+00	0	39	0	125829120	67	4666
2026-01-21 09:38:19.57	154.28	9.09	-48.0	-50.2	16.8	0.00e+00	0	40	0	127926272	67	4667
2026-01-21 09:38:20.58	154.29	9.18	-47.7	-49.7	17.3	0.00e+00	0	39	0	130023424	67	4392
2026-01-21 09:38:21.59	154.29	9.26	-47.8	-49.9	17.1	0.00e+00	0	39	0	132120576	67	4494
2026-01-21 09:38:22.59	154.30	9.35	-47.7	-49.7	17.3	0.00e+00	0	39	0	133169152	67	4419
2026-01-21 09:38:23.60	154.31	9.43	-47.8	-49.8	17.1	0.00e+00	0	40	0	135266304	67	4485
2026-01-21 09:38:24.61	154.31	9.52	-47.7	-49.6	17.3	0.00e+00	0	39	0	137363456	67	4390
2026-01-21 09:38:25.62	154.32	9.61	-47.7	-49.6	17.3	0.00e+00	0	39	0	139460608	67	4382
2026-01-21 09:38:26.63	154.33	9.69	-47.8	-49.8	17.2	0.00e+00	0	40	0	141557760	67	4450
2026-01-21 09:38:27.63	154.33	9.78	-47.6	-49.5	17.5	0.00e+00	0	40	0	142606336	67	4334
2026-01-21 09:38:28.64	154.34	9.87	-47.6	-49.5	17.5	0.00e+00	0	39	0	144703488	67	4308
2026-01-21 09:38:29.65	154.35	9.95	-47.6	-49.4	17.6	0.00e+00	0	39	0	146800640	67	4291
2026-01-21 09:38:30.66	154.35	10.04	-47.6	-49.5	17.5	0.00e+00	0	39	0	148897792	67	4340
2026-01-21 09:38:31.67	154.36	10.13	-47.6	-49.6	17.4	0.00e+00	0	39	0	149946368	67	4343
2026-01-21 09:38:32.68	154.37	10.22	-47.6	-49.5	17.5	0.00e+00	0	39	0	152043520	67	4314
2026-01-21 09:38:33.69	154.37	10.31	-47.5	-49.4	17.6	0.00e+00	0	40	0	154140672	67	4261
2026-01-21 09:38:34.69	154.38	10.40	-47.6	-49.5	17.5	0.00e+00	0	39	0	156237824	67	4318
2026-01-21 09:38:35.70	154.39	10.49	-47.5	-49.4	17.6	0.00e+00	0	40	0	158334976	67	4268
2026-01-21 09:38:36.71	154.39	10.58	-47.5	-49.4	17.6	0.00e+00	0	40	0	160432128	67	4260
2026-01-21 09:38:37.72	154.40	10.67	-47.4	-49.2	17.8	0.00e+00	0	40	0	161480704	66	4437
2026-01-21 09:38:38.73	154.41	10.76	-47.3	-49.2	17.9	0.00e+00	0	40	0	163577856	66	4395
2026-01-21 09:38:39.74	154.41	10.85	-47.3	-49.1	18.0	0.00e+00	0	39	0	165675008	66	4353
2026-01-21 09:38:40.74	154.42	10.94	-47.3	-49.1	18.0	0.00e+00	0	39	0	167772160	66	4346
2026-01-21 09:38:41.75	154.43	11.03	-47.2	-49.0	18.0	0.00e+00	0	40	0	169869312	66	4324
2026-01-21 09:38:42.76	154.43	11.12	-47.2	-49.0	18.1	0.00e+00	0	39	0	170917888	66	4298
2026-01-21 09:38:43.77	154.44	11.21	-47.1	-48.9	18.2	0.00e+00	0	39	0	173015040	66	4243
2026-01-21 09:38:44.78	154.45	11.31	-47.3	-49.2	17.9	0.00e+00	0	40	0	175112192	66	4395
2026-01-21 09:38:45.78	154.46	11.40	-47.3	-49.1	18.0	0.00e+00	0	39	0	177209344	66	4357
2026-01-21 09:38:46.79	154.46	11.49	-47.3	-49.0	18.0	0.00e+00	0	39	0	179306496	66	4338
2026-01-21 09:38:47.80	154.47	11.59	-47.1	-48.9	18.2	0.00e+00	0	40	0	180355072	66	4263
2026-01-21 09:38:48.81	154.48	11.68	-47.2	-48.9	18.2	0.00e+00	0	39	0	182452224	66	4284
2026-01-21 09:38:49.82	154.48	11.77	-47.1	-48.8	18.3	0.00e+00	0	39	0	184549376	66	4236
2026-01-21 09:38:50.82	154.49	11.87	-47.1	-48.8	18.3	0.00e+00	0	40	0	186646528	66	4205
2026-01-21 09:38:51.83	154.50	11.96	-47.0	-48.7	18.4	0.00e+00	0	39	0	188743680	66	4190
2026-01-21 09:38:52.84	154.50	12.06	-46.9	-48.6	18.5	0.00e+00	0	40	0	189792256	65	4342
2026-01-21 09:38:53.84	154.51	12.15	-47.0	-48.7	18.4	0.00e+00	0	39	0	191889408	65	4404
2026-01-21 09:38:54.85	154.52	12.25	-47.0	-48.7	18.4	0.00e+00	0	40	0	193986560	65	4427
2026-01-21 09:38:55.86	154.53	12.35	-46.9	-48.6	18.5	0.00e+00	0	40	0	196083712	65	4359
2026-01-21 09:38:56.86	154.53	12.44	-46.9	-48.6	18.6	0.00e+00	0	40	0	198180864	65	4344
2026-01-21 09:38:57.87	154.54	12.54	-46.9	-48.5	18.6	0.00e+00	0	39	0	199229440	65	4331
2026-01-21 09:38:58.88	154.55	12.64	-46.8	-48.5	18.6	0.00e+00	0	40	0	201326592	65	4312
2026-01-21 09:38:59.89	154.55	12.74	-46.7	-48.3	18.8	0.00e+00	0	39	0	203423744	65	4228
2026-01-21 09:39:00.90	154.56	12.83	-46.7	-48.3	18.9	0.00e+00	0	40	0	205520896	65	4203
2026-01-21 09:39:01.91	154.57	12.93	-46.7	-48.3	18.8	0.00e+00	0	39	0	207618048	65	4213
2026-01-21 09:39:02.91	154.58	13.03	-46.6	-48.2	18.9	0.00e+00	0	39	0	208666624	65	4158
2026-01-21 09:39:03.92	154.58	13.13	-46.6	-48.1	19.0	0.00e+00	0	40	0	210763776	65	4138
2026-01-21 09:39:04.93	154.59	13.23	-46.5	-48.1	19.0	0.00e+00	0	40	0	212860928	65	4115
2026-01-21 09:39:05.93	154.60	13.33	-46.6	-48.2	18.9	0.00e+00	0	40	0	214958080	65	4174
2026-01-21 09:39:06.94	154.61	13.43	-46.5	-48.1	19.1	0.00e+00	0	40	0	217055232	65	4104
2026-01-21 09:39:07.95	154.61	13.53	-46.4	-47.9	19.2	0.00e+00	0	39	0	218103808	64	4278
2026-01-21 09:39:08.95	154.62	13.63	-46.5	-48.0	19.1	0.00e+00	0	40	0	220200960	64	4330
2026-01-21 09:39:09.95	154.63	13.74	-46.5	-48.0	19.1	0.00e+00	0	39	0	222298112	64	4326
2026-01-21 09:39:10.96	154.64	13.84	-46.5	-48.0	19.1	0.00e+00	0	39	0	224395264	64	4331
2026-01-21 09:39:11.97	154.64	13.94	-46.4	-48.0	19.2	0.00e+00	0	40	0	226492416	64	4303
2026-01-21 09:39:12.98	154.65	14.05	-46.4	-48.0	19.2	0.00e+00	0	40	0	227540992	64	4297
2026-01-21 09:39:13.99	154.66	14.15	-46.4	-47.9	19.3	0.00e+00	0	40	0	229638144	64	4257
2026-01-21 09:39:14.99	154.67	14.25	-46.4	-47.9	19.3	0.00e+00	0	40	0	231735296	64	4257
2026-01-21 09:39:16.00	154.67	14.36	-46.3	-47.8	19.4	0.00e+00	0	40	0	233832448	64	4214
2026-01-21 09:39:17.01	154.68	14.46	-46.2	-47.7	19.4	0.00e+00	0	39	0	235929600	64	4181
2026-01-21 09:39:18.02	154.69	14.57	-46.3	-47.8	19.4	0.00e+00	0	40	0	236978176	64	4202
2026-01-21 09:39:19.03	154.70	14.68	-46.2	-47.7	19.5	0.00e+00	0	40	0	239075328	64	4147
2026-01-21 09:39:20.03	154.70	14.78	-46.2	-47.6	19.6	0.00e+00	0	40	0	241172480	64	4125
2026-01-21 09:39:21.04	154.71	14.89	-46.2	-47.6	19.6	0.00e+00	0	39	0	243269632	64	4125
2026-01-21 09:39:22.05	154.72	15.00	-46.1	-47.5	19.6	0.00e+00	0	39	0	245366784	64	4089
2026-01-21 09:39:23.06	154.73	15.11	-46.1	-47.5	19.7	0.00e+00	0	40	0	246415360	64	4074
2026-01-21 09:39:24.07	154.74	15.21	-46.1	-47.5	19.6	0.00e+00	0	40	0	248512512	64	4090
2026-01-21 09:39:25.07	154.74	15.32	-46.0	-47.4	19.8	0.00e+00	0	39	0	250609664	63	4281
2026-01-21 09:39:26.08	154.75	15.43	-45.9	-47.3	20.0	0.00e+00	0	40	0	252706816	63	4228
2026-01-21 09:39:27.09	154.76	15.54	-46.0	-47.4	19.8	0.00e+00	0	40	0	254803968	63	4281
2026-01-21 09:39:28.10	154.77	15.65	-45.9	-47.3	20.0	0.00e+00	0	40	0	256901120	63	4223
2026-01-21 09:39:29.11	154.78	15.76	-45.9	-47.2	20.0	0.00e+00	0	40	0	257949696	63	4186
2026-01-21 09:39:30.11	154.78	15.87	-45.8	-47.2	20.1	0.00e+00	0	40	0	260046848	63	4160
2026-01-21 09:39:31.12	154.79	15.99	-45.9	-47.3	20.0	0.00e+00	0	40	0	262144000	63	4202
2026-01-21 09:39:32.13	154.80	16.10	-45.9	-47.3	20.0	0.00e+00	0	40	0	264241152	63	4201
2026-01-21 09:39:33.14	154.81	16.21	-45.7	-47.1	20.2	0.00e+00	0	40	0	265289728	63	4102
2026-01-21 09:39:34.14	154.82	16.33	-45.8	-47.1	20.2	0.00e+00	0	40	0	267386880	63	4120
2026-01-21 09:39:35.15	154.82	16.44	-45.8	-47.2	20.1	0.00e+00	0	40	0	269484032	63	4164
2026-01-21 09:39:36.16	154.83	16.55	-45.8	-47.1	20.2	0.00e+00	0	40	0	271581184	63	4135
2026-01-21 09:39:37.17	154.84	16.67	-45.7	-47.0	20.3	0.00e+00	0	40	0	273678336	63	4080
2026-01-21 09:39:38.17	154.85	16.78	-45.7	-47.0	20.3	0.00e+00	0	40	0	274726912	63	4081
2026-01-21 09:39:39.18	154.86	16.90	-45.7	-47.1	20.3	0.00e+00	0	40	0	276824064	63	4109
2026-01-21 09:39:40.19	154.87	17.02	-45.6	-47.0	20.4	0.00e+00	0	40	0	278921216	63	4054
2026-01-21 09:39:41.20	154.87	17.14	-45.6	-46.9	20.4	0.00e+00	0	39	0	281018368	63	4018
2026-01-21 09:39:42.21	154.88	17.25	-45.6	-46.9	20.4	0.00e+00	0	39	0	283115520	63	4041
2026-01-21 09:39:43.21	154.89	17.37	-45.7	-47.0	20.3	0.00e+00	0	40	0	285212672	63	4081
2026-01-21 09:39:44.22	154.90	17.49	-45.6	-46.9	20.4	0.00e+00	0	39	0	286261248	63	4030
2026-01-21 09:39:45.23	154.91	17.61	-45.6	-46.9	20.4	0.00e+00	0	40	0	288358400	63	4050
2026-01-21 09:39:46.24	154.92	17.73	-45.6	-46.9	20.5	0.00e+00	0	40	0	290455552	63	4021
2026-01-21 09:39:47.24	154.93	17.85	-45.6	-47.0	20.4	0.00e+00	0	39	0	292552704	63	4053
2026-01-21 09:39:48.25	154.94	17.97	-45.6	-46.9	20.4	0.00e+00	0	40	0	293601280	63	4021
2026-01-21 09:39:49.26	154.94	18.10	-45.5	-46.8	20.5	0.00e+00	0	40	0	295698432	63	3962
2026-01-21 09:39:50.26	154.95	18.22	-45.4	-46.7	20.6	0.00e+00	0	40	0	297795584	62	4179
2026-01-21 09:39:51.27	154.96	18.34	-45.4	-46.7	20.6	0.00e+00	0	40	0	299892736	62	4178
2026-01-21 09:39:52.28	154.97	18.46	-45.5	-46.8	20.5	0.00e+00	0	39	0	301989888	62	4231
2026-01-21 09:39:53.29	154.98	18.59	-45.5	-46.8	20.5	0.00e+00	0	39	0	304087040	62	4225
2026-01-21 09:39:54.30	154.99	18.72	-45.6	-46.9	20.5	0.00e+00	0	40	0	305135616	62	4243
2026-01-21 09:39:55.30	155.00	18.84	-45.4	-46.6	20.7	0.00e+00	0	40	0	307232768	62	4130
2026-01-21 09:39:56.31	155.01	18.97	-45.3	-46.6	20.8	0.00e+00	0	40	0	309329920	62	4101
2026-01-21 09:39:57.32	155.02	19.09	-45.3	-46.5	20.8	0.00e+00	0	40	0	311427072	62	4095
2026-01-21 09:39:58.33	155.03	19.22	-45.3	-46.5	20.8	0.00e+00	0	40	0	313524224	62	4094
2026-01-21 09:39:59.34	155.03	19.35	-45.2	-46.5	20.9	0.00e+00	0	40	0	314572800	62	4058
2026-01-21 09:40:00.35	155.04	19.48	-45.4	-46.6	20.7	0.00e+00	0	40	0	316669952	62	4134
2026-01-21 09:40:01.35	155.05	19.61	-45.3	-46.5	20.8	0.00e+00	0	40	0	318767104	62	4073
2026-01-21 09:40:02.36	155.06	19.74	-45.3	-46.5	20.8	0.00e+00	0	40	0	320864256	62	4093
2026-01-21 09:40:03.37	155.07	19.87	-45.2	-46.5	20.9	0.00e+00	0	40	0	321912832	62	4064
2026-01-21 09:40:04.38	155.08	20.00	-45.2	-46.4	21.0	0.00e+00	0	40	0	324009984	62	4014
2026-01-21 09:40:05.38	155.09	20.13	-45.2	-46.4	20.9	0.00e+00	0	40	0	326107136	62	4037
2026-01-21 09:40:06.39	155.10	20.27	-45.1	-46.3	21.0	0.00e+00	0	40	0	328204288	62	4004
2026-01-21 09:40:07.40	155.11	20.40	-45.1	-46.3	21.0	0.00e+00	0	40	0	330301440	62	3998
2026-01-21 09:40:08.41	155.12	20.54	-45.2	-46.4	20.9	0.00e+00	0	40	0	332398592	62	4037
2026-01-21 09:40:09.41	155.13	20.67	-45.1	-46.3	21.0	0.00e+00	0	39	0	333447168	62	3996
2026-01-21 09:40:10.42	155.14	20.81	-45.1	-46.3	21.0	0.00e+00	0	39	0	335544320	62	4002
2026-01-21 09:40:11.43	155.15	20.94	-45.1	-46.3	21.1	0.00e+00	0	39	0	337641472	62	3961
2026-01-21 09:40:12.44	155.16	21.08	-45.1	-46.3	21.1	0.00e+00	0	40	0	339738624	62	3995
2026-01-21 09:40:13.45	155.17	21.22	-45.1	-46.3	21.1	0.00e+00	0	40	0	341835776	62	3975
2026-01-21 09:40:14.46	155.18	21.36	-45.1	-46.4	21.0	0.00e+00	0	40	0	342884352	62	4009
2026-01-21 09:40:15.46	155.19	21.50	-45.1	-46.4	21.0	0.00e+00	0	40	0	344981504	62	4006
2026-01-21 09:40:16.47	155.20	21.64	-45.0	-46.2	21.2	0.00e+00	0	40	0	347078656	61	4156
2026-01-21 09:40:17.48	155.21	21.78	-45.0	-46.2	21.1	0.00e+00	0	40	0	349175808	61	4168
2026-01-21 09:40:18.49	155.22	21.92	-45.1	-46.3	21.0	0.00e+00	0	40	0	351272960	61	4235
2026-01-21 09:40:19.50	155.23	22.07	-45.1	-46.3	21.1	0.00e+00	0	40	0	352321536	61	4209
2026-01-21 09:40:20.50	155.24	22.21	-45.1	-46.3	21.1	0.00e+00	0	39	0	354418688	61	4200
2026-01-21 09:40:21.51	155.25	22.36	-44.9	-46.1	21.3	0.00e+00	0	40	0	356515840	61	4121
2026-01-21 09:40:22.52	155.26	22.50	-45.0	-46.2	21.1	0.00e+00	0	40	0	358612992	61	4184
2026-01-21 09:40:23.53	155.27	22.65	-45.0	-46.2	21.2	0.00e+00	0	40	0	360710144	61	4159
2026-01-21 09:40:24.54	155.28	22.80	-45.0	-46.2	21.2	0.00e+00	0	40	0	361758720	61	4168
2026-01-21 09:40:25.55	155.29	22.94	-45.0	-46.2	21.2	0.00e+00	0	40	0	363855872	61	4181
2026-01-21 09:40:26.55	155.30	23.09	-45.0	-46.2	21.2	0.00e+00	0	40	0	365953024	61	4182
2026-01-21 09:40:27.56	155.32	23.24	-45.0	-46.2	21.2	0.00e+00	0	40	0	368050176	61	4155
2026-01-21 09:40:28.57	155.33	23.39	-45.1	-46.3	21.1	0.00e+00	0	39	0	370147328	61	4215
2026-01-21 09:40:29.58	155.34	23.54	-45.2	-46.4	21.0	0.00e+00	0	40	0	371195904	61	4244
2026-01-21 09:40:30.58	155.35	23.70	-45.3	-46.5	20.9	0.00e+00	0	40	0	373293056	61	4331
2026-01-21 09:40:31.59	155.36	23.85	-45.2	-46.4	21.0	0.00e+00	0	40	0	375390208	61	4272
2026-01-21 09:40:32.60	155.37	24.00	-45.3	-46.6	20.9	0.00e+00	0	40	0	377487360	61	4346
2026-01-21 09:40:33.61	155.38	24.16	-45.3	-46.5	20.9	0.00e+00	0	40	0	379584512	61	4313
2026-01-21 09:40:34.62	155.39	24.32	-45.1	-46.3	21.2	0.00e+00	0	40	0	380633088	61	4199
2026-01-21 09:40:35.62	155.40	24.47	-45.1	-46.2	21.2	0.00e+00	0	40	0	382730240	61	4184
2026-01-21 09:40:36.63	155.42	24.63	-45.1	-46.3	21.1	0.00e+00	0	39	0	384827392	61	4230
2026-01-21 09:40:37.64	155.43	24.79	-45.2	-46.4	21.1	0.00e+00	0	40	0	386924544	61	4246
2026-01-21 09:40:38.65	155.44	24.95	-45.2	-46.4	21.0	0.00e+00	0	40	0	389021696	61	4267
2026-01-21 09:40:39.65	155.45	25.11	-45.1	-46.3	21.1	0.00e+00	0	40	0	390070272	61	4230
2026-01-21 09:40:40.66	155.46	25.27	-45.1	-46.3	21.1	0.00e+00	0	40	0	392167424	61	4230
2026-01-21 09:40:41.67	155.47	25.43	-45.2	-46.4	21.0	0.00e+00	0	40	0	394264576	61	4287
2026-01-21 09:40:42.68	155.49	25.60	-45.4	-46.6	20.9	0.00e+00	0	40	0	396361728	61	4371
2026-01-21 09:40:43.69	155.50	25.76	-45.4	-46.6	20.9	0.00e+00	0	40	0	398458880	61	4355
2026-01-21 09:40:44.69	155.51	25.93	-45.4	-46.6	20.8	0.00e+00	0	39	0	399507456	61	4388
2026-01-21 09:40:45.70	155.52	26.09	-45.5	-46.7	20.8	0.00e+00	0	39	0	401604608	61	4417
2026-01-21 09:40:46.71	155.54	26.26	-45.6	-46.9	20.6	0.00e+00	0	40	0	403701760	61	4500
2026-01-21 09:40:47.72	155.55	26.43	-45.6	-46.9	20.6	0.00e+00	0	40	0	405798912	61	4519
2026-01-21 09:40:48.72	155.56	26.60	-45.6	-46.9	20.6	0.00e+00	0	40	0	407896064	61	4505
2026-01-21 09:40:49.73	155.57	26.77	-45.8	-47.1	20.4	0.00e+00	0	40	0	408944640	62	4362
2026-01-21 09:40:50.74	155.59	26.94	-45.8	-47.1	20.4	0.00e+00	0	40	0	411041792	62	4376
2026-01-21 09:40:51.75	155.60	27.12	-46.0	-47.4	20.2	0.00e+00	0	40	0	413138944	62	4506
2026-01-21 09:40:52.76	155.61	27.29	-46.1	-47.4	20.1	0.00e+00	0	40	0	415236096	62	4540
2026-01-21 09:40:53.77	155.62	27.47	-46.3	-47.7	19.9	0.00e+00	0	40	0	417333248	63	4400
2026-01-21 09:40:54.77	155.64	27.64	-46.4	-47.8	19.8	0.00e+00	0	40	0	418381824	63	4477
2026-01-21 09:40:55.78	155.65	27.82	-46.5	-47.9	19.7	0.00e+00	0	40	0	420478976	63	4518
2026-01-21 09:40:56.79	155.66	28.00	-46.7	-48.3	19.2	0.00e+00	0	40	0	422576128	64	4445
2026-01-21 09:40:57.80	155.68	28.18	-46.8	-48.4	19.2	0.00e+00	0	39	0	424673280	64	4497
2026-01-21 09:40:58.81	155.69	28.36	-47.0	-48.6	19.0	0.00e+00	0	40	0	426770432	64	4615
2026-01-21 09:40:59.81	155.70	28.54	-47.2	-48.8	18.7	0.00e+00	0	40	0	427819008	65	4465
2026-01-21 09:41:00.82	155.72	28.73	-47.3	-49.0	18.5	0.00e+00	0	40	0	429916160	65	4579
2026-01-21 09:41:01.83	155.73	28.91	-47.6	-49.3	18.3	0.00e+00	0	40	0	432013312	65	4752
2026-01-21 09:41:02.84	155.75	29.10	-47.7	-49.5	18.1	0.00e+00	0	40	0	434110464	66	4566
2026-01-21 09:41:03.84	155.76	29.29	-47.8	-49.6	18.0	0.00e+00	0	40	0	436207616	66	4614
2026-01-21 09:41:04.85	155.78	29.47	-47.9	-49.8	17.8	0.00e+00	0	40	0	437256192	66	4729
2026-01-21 09:41:05.86	155.79	29.66	-48.0	-49.8	17.8	0.00e+00	0	40	0	439353344	66	4758
2026-01-21 09:41:06.86	155.80	29.85	-48.0	-49.9	17.7	0.00e+00	0	40	0	441450496	66	4785
2026-01-21 09:41:07.87	155.82	30.05	-48.1	-50.1	17.5	0.00e+00	0	40	0	443547648	66	4874
2026-01-21 09:41:08.88	155.83	30.24	-48.1	-50.1	17.5	0.00e+00	0	40	0	445644800	66	4879
2026-01-21 09:41:09.89	155.85	30.44	-48.2	-50.2	17.4	0.00e+00	0	40	0	447741952	66	4940
2026-01-21 09:41:10.90	155.86	30.63	-48.3	-50.3	17.3	0.00e+00	0	40	0	448790528	67	4751
2026-01-21 09:41:11.91	155.88	30.83	-48.4	-50.4	17.2	0.00e+00	0	40	0	450887680	67	4799
2026-01-21 09:41:12.92	155.89	31.03	-48.4	-50.4	17.2	0.00e+00	0	40	0	452984832	67	4784
2026-01-21 09:41:13.93	155.91	31.23	-48.3	-50.3	17.3	0.00e+00	0	40	0	455081984	67	4757
2026-01-21 09:41:14.93	155.92	31.43	-48.1	-50.0	17.5	0.00e+00	0	40	0	456130560	67	4591
2026-01-21 09:41:15.94	155.94	31.64	-48.2	-50.1	17.5	0.00e+00	0	40	0	458227712	67	4640
2026-01-21 09:41:16.95	155.96	31.84	-48.3	-50.2	17.4	0.00e+00	0	40	0	460324864	67	4705
2026-01-21 09:41:17.96	155.97	32.05	-48.1	-50.0	17.6	0.00e+00	0	40	0	462422016	67	4583
2026-01-21 09:41:18.97	155.99	32.25	-48.2	-50.1	17.5	0.00e+00	0	40	0	464519168	67	4621
2026-01-21 09:41:19.97	156.01	32.46	-48.1	-50.0	17.7	0.00e+00	0	40	0	465567744	67	4548
2026-01-21 09:41:20.98	156.02	32.67	-48.0	-49.9	17.7	0.00e+00	0	40	0	467664896	67	4528
2026-01-21 09:41:21.99	156.04	32.88	-47.8	-49.7	18.0	0.00e+00	0	40	0	469762048	67	4394
2026-01-21 09:41:23.00	156.06	33.10	-47.6	-49.3	18.3	0.00e+00	0	40	0	471859200	67	4227
2026-01-21 09:41:24.01	156.07	33.31	-47.4	-49.1	18.5	0.00e+00	0	40	0	473956352	66	4369
2026-01-21 09:41:25.02	156.09	33.53	-47.4	-49.1	18.5	0.00e+00	0	40	0	476053504	66	4368
2026-01-21 09:41:26.03	156.11	33.75	-46.9	-48.5	19.1	0.00e+00	0	40	0	477102080	65	4300
2026-01-21 09:41:27.04	156.13	33.97	-46.7	-48.1	19.4	0.00e+00	0	40	0	479199232	65	4134
2026-01-21 09:41:28.04	156.14	34.19	-46.2	-47.5	20.0	0.00e+00	0	40	0	481296384	64	4090
2026-01-21 09:41:29.05	156.16	34.41	-45.9	-47.2	20.4	0.00e+00	0	40	0	483393536	63	4193
2026-01-21 09:41:30.06	156.18	34.64	-45.6	-46.8	20.8	0.00e+00	0	40	0	484442112	63	3981
2026-01-21 09:41:31.07	156.20	34.86	-45.4	-46.6	20.9	0.00e+00	0	40	0	486539264	62	4144
2026-01-21 09:41:32.08	156.22	35.09	-45.1	-46.3	21.3	0.00e+00	0	40	0	488636416	62	3984
2026-01-21 09:41:33.09	156.23	35.32	-45.0	-46.1	21.4	0.00e+00	0	40	0	490733568	62	3913
2026-01-21 09:41:34.10	156.25	35.55	-44.9	-46.1	21.5	0.00e+00	0	40	0	492830720	61	4120
2026-01-21 09:41:35.11	156.27	35.78	-45.0	-46.2	21.4	0.00e+00	0	40	0	494927872	61	4148
2026-01-21 09:41:36.11	156.29	36.02	-45.0	-46.2	21.4	0.00e+00	0	40	0	495976448	61	4158
2026-01-21 09:41:37.12	156.31	36.25	-44.9	-46.1	21.4	0.00e+00	0	40	0	498073600	61	4115
2026-01-21 09:41:38.13	156.33	36.49	-44.9	-46.1	21.5	0.00e+00	0	40	0	500170752	61	4100
2026-01-21 09:41:39.14	156.35	36.73	-44.8	-46.0	21.6	0.00e+00	0	40	0	502267904	61	4060
2026-01-21 09:41:40.15	156.37	36.97	-44.7	-45.8	21.7	0.00e+00	0	40	0	504365056	61	3997
2026-01-21 09:41:41.15	156.39	37.21	-44.4	-45.5	22.1	0.00e+00	0	40	0	505413632	60	4066
2026-01-21 09:41:42.16	156.41	37.46	-44.4	-45.5	22.1	0.00e+00	0	40	0	507510784	60	4070
2026-01-21 09:41:43.17	156.44	37.70	-44.3	-45.4	22.2	0.00e+00	0	40	0	509607936	60	4008
2026-01-21 09:41:44.18	156.46	37.95	-44.3	-45.4	22.5	0.00e+00	0	40	0	511705088	59	4246
2026-01-21 09:41:45.19	156.48	38.20	-44.3	-45.3	22.5	0.00e+00	0	40	0	513802240	59	4238
2026-01-21 09:41:46.19	156.50	38.45	-44.2	-45.3	22.5	0.00e+00	0	40	0	514850816	59	4200
2026-01-21 09:41:47.20	156.52	38.71	-44.2	-45.2	22.6	0.00e+00	0	40	0	516947968	59	4166
2026-01-21 09:41:48.21	156.55	38.96	-44.4	-45.4	22.4	0.00e+00	0	40	0	519045120	59	4275
2026-01-21 09:41:49.22	156.57	39.22	-44.4	-45.5	22.4	0.00e+00	0	40	0	521142272	59	4299
2026-01-21 09:41:50.23	156.59	39.48	-44.5	-45.5	22.3	0.00e+00	0	40	0	523239424	59	4322
2026-01-21 09:41:51.23	156.61	39.74	-44.4	-45.4	22.4	0.00e+00	0	40	0	524288000	59	4282
2026-01-21 09:41:52.24	156.64	40.01	-44.3	-45.4	22.5	0.00e+00	0	40	0	526385152	59	4257
2026-01-21 09:41:53.25	156.66	40.27	-44.3	-45.3	22.5	0.00e+00	0	40	0	528482304	59	4240
2026-01-21 09:41:54.26	156.69	40.54	-44.3	-45.3	22.6	0.00e+00	0	40	0	530579456	59	4217
2026-01-21 09:41:55.27	156.71	40.81	-44.3	-45.3	22.5	0.00e+00	0	39	0	532676608	59	4230
2026-01-21 09:41:56.27	156.74	41.08	-44.3	-45.3	22.5	0.00e+00	0	40	0	533725184	59	4242
2026-01-21 09:41:57.28	156.76	41.35	-44.3	-45.3	22.5	0.00e+00	0	40	0	535822336	59	4229
2026-01-21 09:41:58.29	156.79	41.63	-44.1	-45.2	22.7	0.00e+00	0	40	0	537919488	59	4146
2026-01-21 09:41:59.30	156.81	41.91	-44.3	-45.4	22.5	0.00e+00	0	40	0	540016640	59	4248
2026-01-21 09:42:00.31	156.84	42.19	-44.4	-45.5	22.4	0.00e+00	0	40	0	542113792	59	4296
2026-01-21 09:42:01.31	156.87	42.47	-44.6	-45.7	22.2	0.00e+00	0	40	0	543162368	59	4407
2026-01-21 09:42:02.32	156.90	42.75	-44.4	-45.5	22.1	0.00e+00	0	40	0	545259520	60	4078
2026-01-21 09:42:03.33	156.92	43.04	-44.6	-45.7	22.0	0.00e+00	0	40	0	547356672	60	4161
2026-01-21 09:42:04.34	156.95	43.33	-44.7	-45.8	21.8	0.00e+00	0	40	0	549453824	60	4213
2026-01-21 09:42:05.35	156.98	43.62	-45.1	-46.2	21.4	0.00e+00	0	40	0	551550976	60	4437
2026-01-21 09:42:06.36	157.01	43.91	-45.4	-46.6	21.1	0.00e+00	0	39	0	552599552	61	4379
2026-01-21 09:42:07.37	157.04	44.21	-45.7	-46.9	20.8	0.00e+00	0	40	0	554696704	61	4533
2026-01-21 09:42:08.38	157.07	44.51	-45.8	-47.0	20.7	0.00e+00	0	40	0	556793856	62	4333
2026-01-21 09:42:09.38	157.10	44.81	-45.9	-47.2	20.6	0.00e+00	0	40	0	558891008	62	4419
2026-01-21 09:42:10.39	157.13	45.11	-46.2	-47.5	20.2	0.00e+00	0	40	0	560988160	62	4564
2026-01-21 09:42:11.40	157.16	45.41	-46.4	-47.7	20.0	0.00e+00	0	40	0	563085312	63	4435
2026-01-21 09:42:12.41	157.20	45.72	-46.6	-48.1	19.7	0.00e+00	0	40	0	564133888	64	4345
2026-01-21 09:42:13.41	157.23	46.03	-47.0	-48.5	19.3	0.00e+00	0	40	0	566231040	64	4559
2026-01-21 09:42:14.42	157.26	46.34	-47.4	-49.0	18.7	0.00e+00	0	40	0	568328192	65	4597
2026-01-21 09:42:15.43	157.30	46.65	-47.3	-49.0	18.8	0.00e+00	0	40	0	570425344	65	4554
2026-01-21 09:42:16.44	157.33	46.97	-47.4	-49.1	18.7	0.00e+00	0	40	0	571473920	65	4627
2026-01-21 09:42:17.45	157.37	47.29	-47.3	-49.0	18.7	0.00e+00	0	40	0	573571072	65	4570
2026-01-21 09:42:18.46	157.40	47.61	-47.2	-48.7	19.0	0.00e+00	0	40	0	575668224	65	4428
2026-01-21 09:42:19.47	157.44	47.93	-47.0	-48.6	19.2	0.00e+00	0	40	0	577765376	65	4350
2026-01-21 09:42:20.47	157.48	48.25	-47.3	-48.9	18.9	0.00e+00	0	40	0	579862528	65	4528
2026-01-21 09:42:21.48	157.51	48.58	-47.2	-48.8	18.9	0.00e+00	0	40	0	580911104	65	4478
2026-01-21 09:42:22.49	157.55	48.91	-47.6	-49.3	18.5	0.00e+00	0	40	0	583008256	65	4740
2026-01-21 09:42:23.50	157.59	49.25	-47.8	-49.5	18.3	0.00e+00	0	40	0	585105408	66	4576
2026-01-21 09:42:24.50	157.63	49.58	-47.7	-49.4	18.3	0.00e+00	0	40	0	587202560	66	4531
2026-01-21 09:42:25.51	157.67	49.92	-47.7	-49.4	18.4	0.00e+00	0	40	0	589299712	66	4508
2026-01-21 09:42:26.52	157.71	50.26	-47.3	-48.9	18.9	0.00e+00	0	40	0	591396864	66	4250
2026-01-21 09:42:27.53	157.76	50.60	-46.8	-48.3	19.4	0.00e+00	0	40	0	592445440	65	4222
2026-01-21 09:42:28.54	157.80	50.95	-45.9	-47.1	20.6	0.00e+00	0	40	0	594542592	63	4145
2026-01-21 09:42:29.55	157.85	51.30	-45.2	-46.3	21.5	0.00e+00	0	40	0	596639744	62	3990
2026-01-21 09:42:30.55	157.89	51.65	-44.8	-45.9	21.8	0.00e+00	0	40	0	598736896	61	4027
2026-01-21 09:42:31.56	157.94	52.00	-44.6	-45.7	22.0	0.00e+00	0	40	0	599785472	61	3947
2026-01-21 09:42:32.57	157.98	52.36	-44.3	-45.4	22.6	0.00e+00	0	40	0	601882624	59	4254
2026-01-21 09:42:33.58	158.03	52.72	-43.9	-44.9	23.0	0.00e+00	0	40	0	603979776	59	4018
2026-01-21 09:42:34.58	158.08	53.07	-43.9	-44.9	23.1	0.00e+00	0	40	0	606076928	59	4015
2026-01-21 09:42:35.59	158.13	53.44	-43.7	-44.6	23.2	0.00e+00	0	40	0	608174080	59	3908
2026-01-21 09:42:36.60	158.19	53.80	-43.5	-44.4	23.4	0.00e+00	0	40	0	610271232	58	4040
2026-01-21 09:42:37.61	158.24	54.17	-43.7	-44.6	23.3	0.00e+00	0	40	0	611319808	58	4134
2026-01-21 09:42:38.62	158.29	54.55	-43.6	-44.6	23.3	0.00e+00	0	40	0	613416960	58	4121
2026-01-21 09:42:39.63	158.35	54.92	-44.0	-45.0	22.9	0.00e+00	0	40	0	615514112	58	4324
2026-01-21 09:42:40.63	158.41	55.29	-44.4	-45.4	22.6	0.00e+00	0	40	0	617611264	59	4283
2026-01-21 09:42:41.64	158.47	55.67	-44.6	-45.7	22.3	0.00e+00	0	40	0	619708416	59	4417
2026-01-21 09:42:42.65	158.53	56.06	-44.6	-45.6	22.0	0.00e+00	0	40	0	620756992	60	4142
2026-01-21 09:42:43.65	158.59	56.44	-44.9	-46.0	21.8	0.00e+00	0	40	0	622854144	60	4302
2026-01-21 09:42:44.66	158.65	56.83	-45.1	-46.3	21.5	0.00e+00	0	40	0	624951296	60	4452
2026-01-21 09:42:45.67	158.72	57.22	-45.4	-46.6	21.1	0.00e+00	0	40	0	627048448	61	4385
2026-01-21 09:42:46.68	158.78	57.61	-45.8	-47.1	20.8	0.00e+00	0	40	0	628097024	62	4356
2026-01-21 09:42:47.68	158.85	58.00	-45.9	-47.2	20.6	0.00e+00	0	40	0	630194176	62	4433
2026-01-21 09:42:48.69	158.92	58.40	-45.9	-47.2	20.7	0.00e+00	0	40	0	632291328	62	4420
2026-01-21 09:42:49.70	159.00	58.80	-45.9	-47.2	20.7	0.00e+00	0	40	0	634388480	62	4393
2026-01-21 09:42:50.71	159.07	59.20	-45.6	-46.8	21.0	0.00e+00	0	40	0	636485632	62	4226
2026-01-21 09:42:51.72	159.15	59.61	-45.1	-46.2	21.6	0.00e+00	0	40	0	638582784	62	3958
2026-01-21 09:42:52.73	159.23	60.02	-44.4	-45.5	22.2	0.00e+00	0	40	0	639631360	60	4069
2026-01-21 09:42:53.74	159.31	60.43	-44.0	-44.9	22.7	0.00e+00	0	39	0	641728512	60	3823
2026-01-21 09:42:54.74	159.39	60.84	-43.8	-44.8	23.2	0.00e+00	0	40	0	643825664	59	3991
2026-01-21 09:42:55.75	159.48	61.26	-43.7	-44.6	23.3	0.00e+00	0	40	0	645922816	59	3907
2026-01-21 09:42:56.76	159.57	61.68	-43.7	-44.6	23.3	0.00e+00	0	40	0	648019968	59	3904
2026-01-21 09:42:57.77	159.66	62.10	-43.6	-44.5	23.5	0.00e+00	0	40	0	649068544	59	3858
2026-01-21 09:42:58.78	159.76	62.52	-43.2	-44.1	23.8	0.00e+00	0	40	0	651165696	58	3908
2026-01-21 09:42:59.79	159.86	62.95	-43.0	-43.9	24.0	0.00e+00	0	39	0	653262848	57	4022
2026-01-21 09:43:00.79	159.96	63.38	-43.1	-44.0	23.9	0.00e+00	0	40	0	655360000	57	4061
2026-01-21 09:43:01.80	160.07	63.81	-43.6	-44.6	23.4	0.00e+00	0	40	0	657457152	57	4354
2026-01-21 09:43:02.81	160.18	64.24	-44.4	-45.5	22.6	0.00e+00	0	40	0	658505728	59	4306
2026-01-21 09:43:03.82	160.29	64.68	-44.9	-46.0	21.8	0.00e+00	0	40	0	660602880	60	4320
2026-01-21 09:43:04.83	160.41	65.12	-45.4	-46.6	21.3	0.00e+00	0	40	0	662700032	61	4347
2026-01-21 09:43:05.83	160.53	65.56	-45.5	-46.7	21.2	0.00e+00	0	40	0	664797184	61	4402
2026-01-21 09:43:06.84	160.66	66.00	-45.6	-46.8	21.1	0.00e+00	0	40	0	666894336	61	4446
2026-01-21 09:43:07.85	160.80	66.45	-45.7	-47.0	20.9	0.00e+00	0	40	0	667942912	62	4309
2026-01-21 09:43:08.86	160.94	66.90	-45.7	-46.9	21.0	0.00e+00	0	40	0	670040064	62	4283
2026-01-21 09:43:09.86	161.08	67.35	-46.0	-47.3	20.7	0.00e+00	0	40	0	672137216	62	4443
2026-01-21 09:43:10.87	161.23	67.80	-46.3	-47.6	20.3	0.00e+00	0	40	0	674234368	63	4371
2026-01-21 09:43:11.88	161.39	68.26	-46.7	-48.1	19.8	0.00e+00	0	40	0	676331520	64	4373
2026-01-21 09:43:12.89	161.56	68.71	-46.9	-48.4	19.4	0.00e+00	0	40	0	677380096	64	4499
2026-01-21 09:43:13.90	161.73	69.17	-46.7	-48.1	19.7	0.00e+00	0	40	0	679477248	64	4389
2026-01-21 09:43:14.90	161.91	69.63	-46.2	-47.5	20.3	0.00e+00	0	40	0	681574400	64	4074
2026-01-21 09:43:15.91	162.10	70.10	-45.6	-46.8	21.0	0.00e+00	0	40	0	683671552	63	4002
2026-01-21 09:43:16.92	162.30	70.56	-45.2	-46.4	21.5	0.00e+00	0	39	0	685768704	62	4020
2026-01-21 09:43:17.92	162.51	71.03	-45.5	-46.6	21.3	0.00e+00	0	40	0	686817280	62	4130
2026-01-21 09:43:18.93	162.73	71.50	-45.8	-47.0	20.9	0.00e+00	0	40	0	688914432	62	4334
2026-01-21 09:43:19.94	162.96	71.97	-46.5	-47.9	20.1	0.00e+00	0	40	0	691011584	63	4496
2026-01-21 09:43:20.95	163.21	72.44	-46.5	-47.8	20.2	0.00e+00	0	40	0	693108736	63	4463
2026-01-21 09:43:21.96	163.47	72.92	-46.3	-47.6	20.3	0.00e+00	0	40	0	695205888	63	4365
2026-01-21 09:43:22.96	163.74	73.39	-46.2	-47.5	20.4	0.00e+00	0	40	0	696254464	63	4334
2026-01-21 09:43:23.97	164.03	73.87	-46.8	-48.3	19.7	0.00e+00	0	40	0	698351616	64	4454
2026-01-21 09:43:24.98	164.34	74.35	-47.5	-49.0	18.9	0.00e+00	0	40	0	700448768	65	4598
2026-01-21 09:43:25.99	164.67	74.83	-47.9	-49.7	18.3	0.00e+00	0	40	0	702545920	66	4660
2026-01-21 09:43:27.00	165.03	75.31	-47.5	-49.1	18.8	0.00e+00	0	40	0	704643072	66	4369
2026-01-21 09:43:28.01	165.41	75.80	-47.0	-48.4	19.5	0.00e+00	0	40	0	705691648	66	4047
2026-01-21 09:43:29.02	165.81	76.28	-46.7	-48.1	19.8	0.00e+00	0	40	0	707788800	65	4108
2026-01-21 09:43:30.03	166.25	76.77	-46.6	-48.0	20.0	0.00e+00	0	40	0	709885952	65	4084
2026-01-21 09:43:31.03	166.71	77.25	-46.5	-47.8	20.1	0.00e+00	0	40	0	711983104	64	4232
2026-01-21 09:43:32.04	167.22	77.74	-46.5	-47.8	20.1	0.00e+00	0	40	0	714080256	64	4240
2026-01-21 09:43:33.05	167.77	78.23	-46.0	-47.3	20.6	0.00e+00	0	40	0	715128832	64	3973
2026-01-21 09:43:34.06	168.37	78.72	-45.7	-46.9	21.0	0.00e+00	0	40	0	717225984	63	4029
2026-01-21 09:43:35.07	169.02	79.20	-45.2	-46.3	21.6	0.00e+00	0	40	0	719323136	62	3992
2026-01-21 09:43:36.07	169.73	79.69	-44.8	-45.9	22.0	0.00e+00	0	40	0	721420288	61	4020
2026-01-21 09:43:37.08	170.52	80.18	-44.6	-45.7	22.2	0.00e+00	0	40	0	723517440	61	3936
2026-01-21 09:43:38.09	171.40	80.66	-44.8	-45.9	21.9	0.00e+00	0	40	0	725614592	61	4046
2026-01-21 09:43:39.10	172.36	81.15	-45.4	-46.6	21.4	0.00e+00	0	40	0	726663168	61	4347
2026-01-21 09:43:40.10	173.44	81.63	-46.6	-48.0	20.0	0.00e+00	0	40	0	728760320	63	4587
2026-01-21 09:43:41.11	174.65	82.11	-48.6	-50.6	17.4	0.00e+00	0	40	0	730857472	67	4893
2026-01-21 09:43:42.12	176.02	82.59	-49.2	-51.4	16.8	0.00e+00	0	40	0	732954624	69	4775
2026-01-21 09:43:43.13	177.59	83.06	-48.6	-50.5	17.7	0.00e+00	0	40	0	734003200	69	4304
2026-01-21 09:43:44.14	179.38	83.53	-47.8	-49.4	18.5	0.00e+00	0	40	0	736100352	67	4288
2026-01-21 09:43:45.15	181.45	84.00	-46.9	-48.4	19.6	0.00e+00	0	40	0	738197504	65	4264
2026-01-21 09:43:46.15	183.84	84.45	-46.4	-47.8	20.2	0.00e+00	0	40	0	740294656	64	4210
2026-01-21 09:43:47.16	186.68	84.89	-46.2	-47.5	20.4	0.00e+00	0	40	0	742391808	64	4095
2026-01-21 09:43:48.17	190.06	85.32	-46.2	-47.5	20.4	0.00e+00	0	40	0	743440384	64	4094
2026-01-21 09:43:49.18	194.09	85.73	-45.8	-47.0	21.0	0.00e+00	0	40	0	745537536	63	4075
2026-01-21 09:43:50.18	198.91	86.11	-46.3	-47.6	20.4	0.00e+00	0	40	0	747634688	63	4374
2026-01-21 09:43:51.19	204.79	86.46	-46.7	-48.1	19.9	0.00e+00	0	40	0	749731840	63	4602
2026-01-21 09:43:52.20	211.88	86.77	-46.7	-48.1	19.9	0.00e+00	0	40	0	751828992	64	4353
2026-01-21 09:43:53.21	220.29	87.02	-47.0	-48.5	19.5	0.00e+00	0	39	0	753926144	64	4575
2026-01-21 09:43:54.22	229.99	87.19	-46.7	-48.1	19.8	0.00e+00	0	40	0	754974720	64	4376
2026-01-21 09:43:55.23	240.62	87.28	-46.3	-47.6	20.3	0.00e+00	0	40	0	757071872	64	4125
2026-01-21 09:43:56.24	251.53	87.26	-46.5	-47.9	20.1	0.00e+00	0	40	0	759169024	64	4257
2026-01-21 09:43:57.25	261.97	87.16	-46.3	-47.6	20.3	0.00e+00	0	40	0	761266176	64	4145
2026-01-21 09:43:58.25	271.27	86.96	-46.0	-47.2	20.6	0.00e+00	0	40	0	762314752	64	3941
2026-01-21 09:43:59.26	279.35	86.70	-46.5	-47.9	20.2	0.00e+00	0	40	0	764411904	63	4505
2026-01-21 09:44:00.27	286.12	86.38	-46.7	-48.2	19.9	0.00e+00	0	40	0	766509056	64	4392
2026-01-21 09:44:01.28	291.73	86.02	-45.8	-47.0	21.0	0.00e+00	0	40	0	768606208	63	4075
2026-01-21 09:44:02.29	296.37	85.63	-45.5	-46.7	21.3	0.00e+00	0	40	0	770703360	63	3940
2026-01-21 09:44:03.29	300.18	85.21	-45.2	-46.4	21.6	0.00e+00	0	40	0	772800512	62	4012
2026-01-21 09:44:04.30	303.41	84.78	-44.5	-45.5	22.4	0.00e+00	0	40	0	773849088	60	4084
2026-01-21 09:44:05.30	306.11	84.34	-44.9	-46.0	21.9	0.00e+00	0	40	0	775946240	60	4327
2026-01-21 09:44:06.31	308.44	83.88	-46.3	-47.7	20.4	0.00e+00	0	40	0	778043392	63	4393
2026-01-21 09:44:07.32	310.43	83.42	-47.2	-48.7	19.3	0.00e+00	0	40	0	780140544	64	4692
2026-01-21 09:44:08.33	312.16	82.95	-48.2	-50.0	18.0	0.00e+00	0	40	0	782237696	67	4567
2026-01-21 09:44:09.34	313.68	82.47	-48.8	-50.7	17.4	0.00e+00	0	40	0	783286272	68	4697
2026-01-21 09:44:10.35	315.01	81.99	-48.2	-49.9	18.2	0.00e+00	0	40	0	785383424	68	4288
2026-01-21 09:44:11.35	316.18	81.51	-47.5	-49.1	18.9	0.00e+00	0	40	0	787480576	67	4128
2026-01-21 09:44:12.36	317.23	81.03	-46.2	-47.5	20.4	0.00e+00	0	40	0	789577728	64	4084
2026-01-21 09:44:13.37	318.17	80.55	-45.9	-47.1	20.9	0.00e+00	0	40	0	790626304	63	4132
2026-01-21 09:44:14.38	319.02	80.06	-45.4	-46.5	21.4	0.00e+00	0	40	0	792723456	62	4087
2026-01-21 09:44:15.38	319.78	79.58	-44.6	-45.7	22.3	0.00e+00	0	40	0	794820608	61	3918
2026-01-21 09:44:16.39	320.49	79.09	-45.6	-46.8	21.3	0.00e+00	0	40	0	796917760	61	4459
2026-01-21 09:44:17.40	321.13	78.60	-46.8	-48.2	19.9	0.00e+00	0	40	0	799014912	64	4404
2026-01-21 09:44:18.41	321.71	78.11	-47.0	-48.5	19.6	0.00e+00	0	40	0	801112064	64	4568
2026-01-21 09:44:19.42	322.25	77.62	-48.0	-49.7	18.4	0.00e+00	0	40	0	802160640	66	4687
2026-01-21 09:44:20.43	322.75	77.14	-49.6	-51.9	16.2	0.00e+00	0	40	0	804257792	69	5083
2026-01-21 09:44:21.44	323.21	76.65	-49.5	-51.8	16.5	0.00e+00	0	40	0	806354944	70	4710
2026-01-21 09:44:22.45	323.64	76.17	-49.3	-51.4	16.8	0.00e+00	0	40	0	808452096	70	4540
2026-01-21 09:44:23.45	324.03	75.69	-48.4	-50.2	18.1	0.00e+00	0	40	0	810549248	68	4409
2026-01-21 09:44:24.46	324.41	75.20	-48.6	-50.6	17.6	0.00e+00	0	40	0	811597824	68	4600
2026-01-21 09:44:25.47	324.75	74.72	-49.5	-51.8	16.6	0.00e+00	0	40	0	813694976	69	4984
2026-01-21 09:44:26.47	325.08	74.25	-48.4	-50.2	18.0	0.00e+00	0	40	0	815792128	68	4413
2026-01-21 09:44:27.48	325.38	73.77	-47.0	-48.4	19.7	0.00e+00	0	40	0	817889280	65	4260
2026-01-21 09:44:28.49	325.67	73.29	-46.4	-47.7	20.3	0.00e+00	0	40	0	819986432	64	4175
2026-01-21 09:44:29.50	325.94	72.81	-46.0	-47.3	20.8	0.00e+00	0	40	0	821035008	64	3972
2026-01-21 09:44:30.50	326.20	72.34	-46.2	-47.5	20.6	0.00e+00	0	40	0	823132160	63	4324
2026-01-21 09:44:31.51	326.44	71.87	-45.3	-46.4	21.7	0.00e+00	0	40	0	825229312	62	4013
2026-01-21 09:44:32.52	326.67	71.40	-44.6	-45.6	22.4	0.00e+00	0	40	0	827326464	61	3881
2026-01-21 09:44:33.53	326.89	70.93	-44.6	-45.7	22.3	0.00e+00	0	40	0	829423616	60	4160
2026-01-21 09:44:34.54	327.10	70.46	-45.7	-46.9	21.1	0.00e+00	0	40	0	830472192	61	4533
2026-01-21 09:44:35.54	327.29	70.00	-46.9	-48.4	19.7	0.00e+00	0	40	0	832569344	64	4525
2026-01-21 09:44:36.55	327.48	69.54	-46.4	-47.7	20.4	0.00e+00	0	40	0	834666496	64	4156
2026-01-21 09:44:37.56	327.66	69.08	-46.2	-47.5	20.5	0.00e+00	0	40	0	836763648	64	4071
2026-01-21 09:44:38.57	327.83	68.62	-47.8	-49.5	18.7	0.00e+00	0	40	0	838860800	66	4557
2026-01-21 09:44:39.58	327.99	68.16	-49.8	-52.2	16.1	0.00e+00	0	40	0	839909376	70	4963
2026-01-21 09:44:40.59	328.15	67.71	-49.6	-51.8	16.3	0.00e+00	0	40	0	842006528	70	4735
2026-01-21 09:44:41.60	328.30	67.26	-48.3	-50.1	18.1	0.00e+00	0	40	0	844103680	68	4367
2026-01-21 09:44:42.61	328.44	66.81	-47.8	-49.4	18.6	0.00e+00	0	40	0	846200832	67	4261
2026-01-21 09:44:43.61	328.58	66.36	-47.2	-48.7	19.3	0.00e+00	0	40	0	848297984	66	4174
2026-01-21 09:44:44.62	328.71	65.92	-47.4	-49.0	19.2	0.00e+00	0	40	0	849346560	66	4292
2026-01-21 09:44:45.63	328.84	65.47	-48.5	-50.4	17.7	0.00e+00	0	40	0	851443712	67	4808
2026-01-21 09:44:46.63	328.96	65.04	-47.6	-49.2	18.8	0.00e+00	0	40	0	853540864	67	4182
2026-01-21 09:44:47.64	329.08	64.60	-46.4	-47.7	20.3	0.00e+00	0	40	0	855638016	64	4174
2026-01-21 09:44:48.65	329.19	64.16	-46.0	-47.3	20.8	0.00e+00	0	40	0	857735168	63	4196
2026-01-21 09:44:49.66	329.30	63.73	-44.8	-45.9	22.1	0.00e+00	0	40	0	858783744	61	4032
2026-01-21 09:44:50.67	329.41	63.30	-44.3	-45.3	22.9	0.00e+00	0	40	0	860880896	59	4196
2026-01-21 09:44:51.68	329.51	62.87	-44.4	-45.4	22.8	0.00e+00	0	40	0	862978048	59	4275
2026-01-21 09:44:52.69	329.61	62.45	-44.3	-45.3	23.0	0.00e+00	0	40	0	865075200	59	4198
2026-01-21 09:44:53.70	329.71	62.02	-44.2	-45.2	23.0	0.00e+00	0	40	0	867172352	59	4182
2026-01-21 09:44:54.70	329.80	61.61	-44.0	-45.0	23.3	0.00e+00	0	40	0	869269504	59	4054
2026-01-21 09:44:55.71	329.89	61.19	-44.9	-46.0	22.0	0.00e+00	0	40	0	870318080	60	4294
2026-01-21 09:44:56.72	329.97	60.77	-46.7	-48.1	20.1	0.00e+00	0	40	0	872415232	63	4617
2026-01-21 09:44:57.73	330.06	60.36	-47.7	-49.3	18.7	0.00e+00	0	40	0	874512384	65	4742
2026-01-21 09:44:58.74	330.14	59.95	-46.7	-48.1	19.9	0.00e+00	0	40	0	876609536	65	4099
2026-01-21 09:44:59.74	330.22	59.55	-46.2	-47.4	20.6	0.00e+00	0	40	0	877658112	64	4037
2026-01-21 09:45:00.75	330.29	59.14	-46.4	-47.8	20.3	0.00e+00	0	40	0	879755264	64	4197
2026-01-21 09:45:01.76	330.37	58.74	-47.3	-48.8	19.3	0.00e+00	0	40	0	881852416	65	4456
2026-01-21 09:45:02.77	330.44	58.34	-47.8	-49.5	18.7	0.00e+00	0	40	0	883949568	66	4558
2026-01-21 09:45:03.78	330.51	57.94	-48.2	-49.9	18.1	0.00e+00	0	40	0	886046720	67	4532
2026-01-21 09:45:04.79	330.58	57.55	-48.7	-50.6	17.6	0.00e+00	0	40	0	888143872	68	4624
2026-01-21 09:45:05.79	330.65	57.16	-47.9	-49.5	18.6	0.00e+00	0	40	0	889192448	67	4329
2026-01-21 09:45:06.80	330.71	56.77	-46.6	-47.9	20.1	0.00e+00	0	39	0	891289600	65	4018
2026-01-21 09:45:07.81	330.77	56.39	-46.0	-47.2	20.8	0.00e+00	0	40	0	893386752	63	4192
2026-01-21 09:45:08.82	330.84	56.00	-46.0	-47.2	20.8	0.00e+00	0	40	0	895483904	63	4188
2026-01-21 09:45:09.83	330.90	55.62	-45.9	-47.1	20.9	0.00e+00	0	40	0	897581056	63	4132
2026-01-21 09:45:10.84	330.95	55.25	-44.9	-46.4	21.4	0.00e+00	0	40	0	898629632	62	4030
2026-01-21 09:45:11.85	331.01	54.87	-44.8	-45.9	22.1	0.00e+00	0	40	0	900726784	61	4020
2026-01-21 09:45:12.85	331.07	54.50	-45.1	-46.2	21.8	0.00e+00	0	40	0	902823936	61	4183
2026-01-21 09:45:13.86	331.12	54.13	-45.7	-46.9	21.2	0.00e+00	0	40	0	904921088	61	4532
2026-01-21 09:45:14.87	331.17	53.76	-45.8	-47.1	20.9	0.00e+00	0	40	0	905969664	62	4365
2026-01-21 09:45:15.88	331.23	53.40	-45.1	-46.3	21.7	0.00e+00	0	40	0	908066816	62	3968
2026-01-21 09:45:16.89	331.28	53.03	-44.7	-45.8	22.2	0.00e+00	0	40	0	910163968	61	3981
2026-01-21 09:45:17.89	331.33	52.68	-44.9	-46.0	22.0	0.00e+00	0	40	0	912261120	61	4063
2026-01-21 09:45:18.90	331.38	52.32	-45.5	-46.7	21.3	0.00e+00	0	40	0	914358272	61	4413
2026-01-21 09:45:19.91	331.42	51.97	-46.4	-47.7	20.4	0.00e+00	0	40	0	916455424	63	4424
2026-01-21 09:45:20.92	331.47	51.61	-47.1	-48.7	19.4	0.00e+00	0	40	0	917504000	64	4657
2026-01-21 09:45:21.93	331.51	51.26	-47.7	-49.3	18.8	0.00e+00	0	40	0	919601152	65	4737
2026-01-21 09:45:22.93	331.56	50.92	-48.1	-49.9	18.2	0.00e+00	0	40	0	921698304	66	4780
2026-01-21 09:45:23.94	331.60	50.58	-48.5	-50.4	17.7	0.00e+00	0	40	0	923795456	67	4764
2026-01-21 09:45:24.95	331.65	50.23	-48.3	-50.1	17.9	0.00e+00	0	40	0	925892608	67	4647
2026-01-21 09:45:25.96	331.69	49.89	-48.0	-49.7	18.4	0.00e+00	0	40	0	926941184	67	4400
2026-01-21 09:45:26.97	331.73	49.56	-47.5	-49.0	19.0	0.00e+00	0	40	0	929038336	67	4089
2026-01-21 09:45:27.98	331.77	49.22	-47.9	-49.5	18.5	0.00e+00	0	40	0	931135488	66	4587
2026-01-21 09:45:28.98	331.81	48.89	-49.7	-52.2	16.0	0.00e+00	0	40	0	933232640	69	5237
2026-01-21 09:45:29.99	331.85	48.56	-52.1	-57.1	10.9	2.51e-05	0	40	0	935329792	74	6935
2026-01-21 09:45:31.00	331.88	48.24	-52.0	-57.0	10.4	1.57e-02	0	40	0	936378368	75	6429
2026-01-21 09:45:32.01	331.92	47.91	-49.6	-52.1	15.7	3.00e-06	0	40	0	938475520	71	4605
2026-01-21 09:45:33.02	331.96	47.59	-47.5	-49.1	18.6	0.00e+00	0	40	0	940572672	67	4139
2026-01-21 09:45:34.03	331.99	47.27	-46.0	-47.2	20.6	0.00e+00	0	40	0	942669824	64	3942
2026-01-21 09:45:35.04	332.03	46.95	-45.7	-46.8	21.1	0.00e+00	0	40	0	944766976	63	4003
2026-01-21 09:45:36.04	332.06	46.64	-45.7	-46.8	21.2	0.00e+00	0	39	0	945815552	63	3997
2026-01-21 09:45:37.05	332.10	46.33	-46.2	-47.4	20.6	0.00e+00	0	40	0	947912704	63	4280
2026-01-21 09:45:38.06	332.13	46.02	-46.7	-48.1	20.0	0.00e+00	0	40	0	950009856	63	4614
2026-01-21 09:45:39.07	332.16	45.71	-47.1	-48.6	19.3	0.00e+00	0	40	0	952107008	64	4647
2026-01-21 09:45:40.08	332.20	45.41	-47.4	-49.0	18.9	0.00e+00	0	40	0	954204160	65	4579
2026-01-21 09:45:41.09	332.23	45.10	-47.1	-48.7	19.3	0.00e+00	0	40	0	955252736	65	4395
2026-01-21 09:45:42.09	332.26	44.80	-46.5	-48.0	19.9	0.00e+00	0	39	0	957349888	65	4067
2026-01-21 09:45:43.10	332.29	44.51	-45.9	-47.2	20.8	0.00e+00	0	40	0	959447040	63	4152
2026-01-21 09:45:44.11	332.32	44.21	-45.5	-46.7	21.2	0.00e+00	0	40	0	961544192	62	4148
2026-01-21 09:45:45.12	332.35	43.91	-45.3	-46.5	21.4	0.00e+00	0	40	0	963641344	62	4068
2026-01-21 09:45:46.12	332.38	43.63	-44.9	-45.9	21.9	0.00e+00	0	40	0	964689920	61	4051
2026-01-21 09:45:47.13	332.41	43.34	-44.0	-44.9	22.8	0.00e+00	0	40	0	966787072	60	3807
2026-01-21 09:45:48.14	332.44	43.05	-44.3	-45.3	22.7	0.00e+00	0	40	0	968884224	59	4228
2026-01-21 09:45:49.15	332.46	42.76	-44.5	-45.5	22.2	0.00e+00	0	40	0	970981376	60	4097
2026-01-21 09:45:50.16	332.49	42.48	-45.8	-47.1	20.9	0.00e+00	0	40	0	973078528	62	4341
2026-01-21 09:45:51.16	332.52	42.20	-46.5	-47.9	20.1	0.00e+00	0	40	0	974127104	63	4521
2026-01-21 09:45:52.17	332.55	41.92	-47.2	-48.8	19.1	0.00e+00	0	40	0	976224256	65	4482
2026-01-21 09:45:53.18	332.57	41.64	-47.0	-48.6	19.3	0.00e+00	0	40	0	978321408	65	4353
2026-01-21 09:45:54.19	332.60	41.37	-46.5	-47.9	19.9	0.00e+00	0	40	0	980418560	65	4007
2026-01-21 09:45:55.20	332.62	41.10	-46.0	-47.3	20.5	0.00e+00	0	40	0	982515712	64	3994
2026-01-21 09:45:56.21	332.65	40.83	-46.0	-47.2	20.7	0.00e+00	0	40	0	983564288	63	4178
2026-01-21 09:45:57.21	332.67	40.56	-45.3	-46.4	21.4	0.00e+00	0	40	0	985661440	62	4049
2026-01-21 09:45:58.22	332.70	40.29	-44.9	-46.0	21.8	0.00e+00	0	40	0	987758592	61	4086
2026-01-21 09:45:59.23	332.72	40.03	-44.9	-46.0	21.9	0.00e+00	0	39	0	989855744	61	4072
2026-01-21 09:46:00.24	332.75	39.77	-45.2	-46.3	21.5	0.00e+00	0	40	0	991952896	61	4227
2026-01-21 09:46:01.25	332.77	39.50	-45.9	-47.1	20.8	0.00e+00	0	40	0	993001472	62	4357
2026-01-21 09:46:02.25	332.79	39.25	-46.7	-48.1	19.8	0.00e+00	0	40	0	995098624	63	4630
2026-01-21 09:46:03.26	332.82	38.99	-47.7	-49.4	18.4	0.00e+00	0	40	0	997195776	66	4528
2026-01-21 09:46:04.26	332.84	38.74	-48.7	-50.8	17.1	0.00e+00	0	39	0	999292928	67	5001
2026-01-21 09:46:05.27	332.86	38.49	-49.7	-52.2	15.8	0.00e+00	0	40	0	1001390080	69	5254
2026-01-21 09:46:06.28	332.88	38.23	-50.1	-52.9	15.1	0.00e+00	0	40	0	1002438656	70	5393
2026-01-21 09:46:07.29	332.91	37.98	-50.0	-52.7	15.3	0.00e+00	0	40	0	1004535808	70	5242
2026-01-21 09:46:08.30	332.93	37.74	-49.7	-52.2	15.8	0.00e+00	0	39	0	1006632960	70	4971
2026-01-21 09:46:09.30	332.95	37.49	-49.1	-51.4	16.6	0.00e+00	0	40	0	1008730112	70	4507
2026-01-21 09:46:10.31	332.97	37.25	-48.5	-50.4	17.5	0.00e+00	0	40	0	1010827264	69	4279
2026-01-21 09:46:11.32	332.99	37.01	-47.3	-48.9	18.9	0.00e+00	0	40	0	1011875840	66	4276
2026-01-21 09:46:12.33	333.01	36.77	-47.0	-48.4	19.4	0.00e+00	0	40	0	1013972992	65	4285
2026-01-21 09:46:13.34	333.03	36.53	-46.9	-48.4	19.4	0.00e+00	0	40	0	1016070144	65	4265
2026-01-21 09:46:14.35	333.05	36.29	-46.9	-48.4	19.4	0.00e+00	0	40	0	1018167296	65	4267
2026-01-21 09:46:15.35	333.07	36.06	-47.0	-48.5	19.3	0.00e+00	0	40	0	1020264448	65	4327
2026-01-21 09:46:16.36	333.09	35.82	-47.1	-48.6	19.3	0.00e+00	0	40	0	1021313024	65	4345
2026-01-21 09:46:17.37	333.11	35.59	-47.1	-48.6	19.2	0.00e+00	0	40	0	1023410176	65	4374
2026-01-21 09:46:18.38	333.13	35.36	-47.3	-48.8	19.0	0.00e+00	0	40	0	1025507328	65	4491
2026-01-21 09:46:19.39	333.15	35.13	-48.0	-49.7	18.1	0.00e+00	0	40	0	1027604480	66	4693
2026-01-21 09:46:20.39	333.17	34.91	-48.9	-51.0	17.0	0.00e+00	0	40	0	1029701632	68	4829
2026-01-21 09:46:21.40	333.19	34.68	-49.9	-52.5	15.5	0.00e+00	0	40	0	1031798784	70	5103
2026-01-21 09:46:22.41	333.21	34.46	-50.7	-53.9	14.1	0.00e+00	0	40	0	1032847360	71	5661
2026-01-21 09:46:23.42	333.22	34.24	-51.1	-54.8	13.0	5.30e-06	0	40	0	1034944512	72	5958
2026-01-21 09:46:24.43	333.24	34.02	-51.3	-55.2	12.7	9.46e-05	0	40	0	1037041664	73	5857
2026-01-21 09:46:25.43	333.26	33.80	-51.2	-54.9	12.9	1.04e-04	0	40	0	1039138816	73	5709
2026-01-21 09:46:26.44	333.28	33.58	-51.0	-54.6	13.2	4.65e-05	0	40	0	1040187392	73	5476
2026-01-21 09:46:27.45	333.29	33.37	-50.8	-54.2	13.5	3.80e-06	0	40	0	1042284544	73	5240
2026-01-21 09:46:28.46	333.31	33.15	-50.2	-53.1	14.7	0.00e+00	0	40	0	1044381696	72	4881
2026-01-21 09:46:29.47	333.33	32.94	-49.7	-52.1	15.8	0.00e+00	0	40	0	1046478848	71	4640
2026-01-21 09:46:30.47	333.35	32.73	-49.2	-51.4	16.5	0.00e+00	0	40	0	1048576000	70	4516
2026-01-21 09:46:31.48	333.36	32.52	-48.9	-51.0	16.9	0.00e+00	0	40	0	1049624576	69	4567
2026-01-21 09:46:32.49	333.38	32.31	-48.6	-50.5	17.4	0.00e+00	0	40	0	1051721728	69	4330
2026-01-21 09:46:33.50	333.40	32.11	-48.4	-50.3	17.6	0.00e+00	0	40	0	1053818880	68	4463
2026-01-21 09:46:34.51	333.41	31.90	-48.3	-50.1	17.8	0.00e+00	0	40	0	1055916032	68	4368
2026-01-21 09:46:35.51	333.43	31.70	-48.3	-50.2	17.7	0.00e+00	0	40	0	1058013184	68	4403
2026-01-21 09:46:36.52	333.44	31.50	-48.4	-50.3	17.6	0.00e+00	0	40	0	1060110336	68	4470
2026-01-21 09:46:37.53	333.46	31.29	-48.5	-50.4	17.6	0.00e+00	0	40	0	1061158912	68	4514
2026-01-21 09:46:38.54	333.48	31.09	-48.6	-50.6	17.3	0.00e+00	0	40	0	1063256064	68	4611
2026-01-21 09:46:39.54	333.49	30.90	-48.7	-50.8	17.2	0.00e+00	0	40	0	1065353216	68	4711
2026-01-21 09:46:40.55	333.51	30.70	-48.8	-50.9	17.0	0.00e+00	0	40	0	1067450368	68	4789
2026-01-21 09:46:41.56	333.52	30.50	-48.9	-51.0	16.9	0.00e+00	0	40	0	1068498944	68	4861
2026-01-21 09:46:42.57	333.54	30.31	-49.0	-51.2	16.7	0.00e+00	0	40	0	1070596096	68	4938
2026-01-21 09:46:43.58	333.55	30.12	-48.9	-51.1	16.8	0.00e+00	0	40	0	1072693248	68	4884
2026-01-21 09:46:44.58	333.57	29.93	-49.0	-51.2	16.7	0.00e+00	0	40	0	1074790400	68	4938
2026-01-21 09:46:45.59	333.58	29.74	-48.9	-51.1	16.7	0.00e+00	0	40	0	1076887552	68	4891
2026-01-21 09:46:46.60	333.60	29.55	-48.8	-51.0	16.9	0.00e+00	0	40	0	1078984704	68	4815
2026-01-21 09:46:47.61	333.61	29.36	-48.5	-50.5	17.4	0.00e+00	0	40	0	1080033280	68	4549
2026-01-21 09:46:48.61	333.63	29.17	-48.4	-50.3	17.6	0.00e+00	0	40	0	1082130432	68	4474
2026-01-21 09:46:49.62	333.64	28.99	-48.3	-50.2	17.7	0.00e+00	0	40	0	1084227584	68	4408
2026-01-21 09:46:50.63	333.65	28.80	-48.1	-50.0	17.8	0.00e+00	0	40	0	1086324736	68	4310
2026-01-21 09:46:51.64	333.67	28.62	-48.1	-50.0	17.9	0.00e+00	0	40	0	1088421888	68	4304
2026-01-21 09:46:52.65	333.68	28.44	-47.6	-49.3	18.5	0.00e+00	0	40	0	1089470464	67	4199
2026-01-21 09:46:53.65	333.70	28.26	-47.5	-49.2	18.6	0.00e+00	0	40	0	1091567616	66	4416
2026-01-21 09:46:54.66	333.71	28.08	-47.1	-48.6	19.1	0.00e+00	0	40	0	1093664768	66	4122
2026-01-21 09:46:55.67	333.72	27.90	-46.6	-48.0	19.6	0.00e+00	0	40	0	1095761920	65	4088
2026-01-21 09:46:56.68	333.74	27.72	-46.4	-47.7	19.9	0.00e+00	0	40	0	1096810496	64	4181
2026-01-21 09:46:57.69	333.75	27.55	-46.2	-47.5	20.2	0.00e+00	0	40	0	1098907648	64	4076
2026-01-21 09:46:58.69	333.76	27.37	-46.1	-47.5	20.2	0.00e+00	0	40	0	1101004800	64	4059
2026-01-21 09:46:59.70	333.78	27.20	-46.1	-47.3	20.4	0.00e+00	0	40	0	1103101952	63	4235
2026-01-21 09:47:00.71	333.79	27.03	-46.0	-47.2	20.5	0.00e+00	0	40	0	1105199104	63	4189
2026-01-21 09:47:01.72	333.80	26.85	-45.9	-47.1	20.6	0.00e+00	0	40	0	1107296256	63	4139
2026-01-21 09:47:02.73	333.82	26.68	-45.9	-47.2	20.5	0.00e+00	0	40	0	1108344832	63	4178
2026-01-21 09:47:03.73	333.83	26.52	-45.9	-47.2	20.6	0.00e+00	0	40	0	1110441984	63	4155
2026-01-21 09:47:04.74	333.84	26.35	-46.0	-47.2	20.5	0.00e+00	0	40	0	1112539136	63	4193
2026-01-21 09:47:05.75	333.85	26.18	-45.9	-47.2	20.5	0.00e+00	0	40	0	1114636288	63	4191
2026-01-21 09:47:06.76	333.87	26.01	-46.1	-47.4	20.3	0.00e+00	0	40	0	1116733440	63	4261
2026-01-21 09:47:07.77	333.88	25.85	-46.1	-47.4	20.3	0.00e+00	0	40	0	1117782016	63	4257
2026-01-21 09:47:08.78	333.89	25.68	-46.0	-47.4	20.3	0.00e+00	0	40	0	1119879168	63	4247
2026-01-21 09:47:09.79	333.90	25.52	-46.1	-47.4	20.3	0.00e+00	0	40	0	1121976320	63	4268
2026-01-21 09:47:10.79	333.92	25.36	-46.2	-47.5	20.2	0.00e+00	0	40	0	1124073472	63	4332
2026-01-21 09:47:11.80	333.93	25.20	-46.0	-47.4	20.3	0.00e+00	0	40	0	1126170624	63	4248
2026-01-21 09:47:12.81	333.94	25.04	-46.0	-47.3	20.3	0.00e+00	0	40	0	1127219200	63	4235
2026-01-21 09:47:13.82	333.95	24.88	-45.9	-47.2	20.4	0.00e+00	0	40	0	1129316352	63	4188
2026-01-21 09:47:14.83	333.97	24.72	-45.9	-47.2	20.4	0.00e+00	0	40	0	1131413504	63	4156
2026-01-21 09:47:15.83	333.98	24.56	-46.0	-47.3	20.4	0.00e+00	0	40	0	1133510656	63	4203
2026-01-21 09:47:16.84	333.99	24.41	-45.5	-46.7	20.9	0.00e+00	0	40	0	1135607808	63	3955
2026-01-21 09:47:17.85	334.00	24.25	-45.3	-46.4	21.2	0.00e+00	0	40	0	1136656384	62	4046
2026-01-21 09:47:18.86	334.01	24.10	-45.3	-46.5	21.1	0.00e+00	0	40	0	1138753536	62	4095
2026-01-21 09:47:19.87	334.02	23.94	-45.1	-46.3	21.3	0.00e+00	0	40	0	1140850688	62	3966
2026-01-21 09:47:20.87	334.04	23.79	-45.0	-46.1	21.4	0.00e+00	0	40	0	1142947840	61	4138
2026-01-21 09:47:21.88	334.05	23.64	-44.7	-45.8	21.8	0.00e+00	0	40	0	1145044992	61	3964
2026-01-21 09:47:22.89	334.06	23.49	-44.6	-45.7	21.9	0.00e+00	0	40	0	1147142144	61	3930
2026-01-21 09:47:23.90	334.07	23.34	-44.4	-45.5	21.9	0.00e+00	0	40	0	1148190720	60	4090
2026-01-21 09:47:24.90	334.08	23.19	-44.4	-45.5	22.0	0.00e+00	0	40	0	1150287872	60	4058
2026-01-21 09:47:25.91	334.09	23.04	-44.4	-45.5	21.9	0.00e+00	0	40	0	1152385024	60	4067
2026-01-21 09:47:26.92	334.10	22.89	-44.3	-45.4	22.0	0.00e+00	0	40	0	1154482176	60	4037
2026-01-21 09:47:27.93	334.11	22.74	-44.3	-45.4	22.0	0.00e+00	0	40	0	1155530752	60	4037
2026-01-21 09:47:28.93	334.12	22.60	-44.3	-45.3	22.1	0.00e+00	0	40	0	1157627904	60	4000
2026-01-21 09:47:29.94	334.14	22.45	-44.3	-45.4	22.1	0.00e+00	0	40	0	1159725056	60	4011
2026-01-21 09:47:30.95	334.15	22.31	-44.4	-45.5	22.0	0.00e+00	0	40	0	1161822208	60	4059
2026-01-21 09:47:31.96	334.16	22.17	-44.5	-45.6	21.9	0.00e+00	0	40	0	1163919360	60	4100
2026-01-21 09:47:32.97	334.17	22.02	-44.5	-45.6	21.9	0.00e+00	0	40	0	1164967936	60	4106
2026-01-21 09:47:33.98	334.18	21.88	-44.5	-45.6	21.9	0.00e+00	0	40	0	1167065088	60	4113
2026-01-21 09:47:34.99	334.19	21.74	-44.6	-45.7	21.8	0.00e+00	0	40	0	1169162240	60	4166
2026-01-21 09:47:35.99	334.20	21.60	-44.7	-45.8	21.6	0.00e+00	0	40	0	1171259392	60	4229
2026-01-21 09:47:37.00	334.21	21.46	-44.7	-45.9	21.6	0.00e+00	0	40	0	1173356544	60	4252
2026-01-21 09:47:38.01	334.22	21.32	-44.8	-46.0	21.5	0.00e+00	0	40	0	1175453696	60	4314
2026-01-21 09:47:39.02	334.23	21.18	-44.7	-45.9	21.6	0.00e+00	0	40	0	1176502272	60	4248
2026-01-21 09:47:40.03	334.24	21.05	-44.9	-46.0	21.5	0.00e+00	0	40	0	1178599424	60	4323
2026-01-21 09:47:41.03	334.25	20.91	-45.0	-46.1	21.3	0.00e+00	0	40	0	1180696576	60	4379
2026-01-21 09:47:42.04	334.26	20.78	-45.0	-46.2	21.2	0.00e+00	0	40	0	1182793728	60	4398
2026-01-21 09:47:43.05	334.27	20.64	-45.1	-46.3	21.2	0.00e+00	0	40	0	1183842304	60	4444
2026-01-21 09:47:44.06	334.28	20.51	-45.1	-46.3	21.2	0.00e+00	0	40	0	1185939456	60	4472
2026-01-21 09:47:45.07	334.29	20.37	-45.1	-46.3	21.1	0.00e+00	0	40	0	1188036608	60	4492
2026-01-21 09:47:46.08	334.30	20.24	-45.1	-46.4	21.1	0.00e+00	0	40	0	1190133760	61	4244
2026-01-21 09:47:47.08	334.31	20.11	-45.2	-46.4	21.0	0.00e+00	0	40	0	1192230912	61	4290
2026-01-21 09:47:48.09	334.32	19.98	-45.3	-46.5	20.9	0.00e+00	0	40	0	1194328064	61	4331
2026-01-21 09:47:49.10	334.33	19.85	-45.2	-46.4	21.0	0.00e+00	0	40	0	1195376640	61	4265
2026-01-21 09:47:50.11	334.34	19.72	-45.1	-46.3	21.1	0.00e+00	0	40	0	1197473792	61	4239
2026-01-21 09:47:51.12	334.35	19.59	-45.1	-46.3	21.1	0.00e+00	0	40	0	1199570944	61	4239
2026-01-21 09:47:52.13	334.36	19.46	-45.3	-46.5	20.9	0.00e+00	0	40	0	1201668096	61	4337
2026-01-21 09:47:53.13	334.37	19.33	-45.2	-46.4	21.1	0.00e+00	0	40	0	1203765248	61	4258
2026-01-21 09:47:54.14	334.38	19.20	-45.2	-46.5	21.0	7.00e-07	0	40	0	1204813824	61	4295
2026-01-21 09:47:55.15	334.39	19.08	-45.3	-46.6	20.8	0.00e+00	0	40	0	1206910976	61	4367
2026-01-21 09:47:56.16	334.40	18.95	-45.3	-46.6	20.8	0.00e+00	0	40	0	1209008128	61	4357
2026-01-21 09:47:57.17	334.41	18.82	-45.4	-46.7	20.7	0.00e+00	0	40	0	1211105280	61	4401
2026-01-21 09:47:58.17	334.42	18.70	-45.4	-46.6	20.8	0.00e+00	0	40	0	1212153856	61	4390
2026-01-21 09:47:59.18	334.43	18.58	-45.4	-46.6	20.8	7.00e-07	0	40	0	1214251008	61	4389
2026-01-21 09:48:00.19	334.44	18.45	-45.5	-46.8	20.6	0.00e+00	0	40	0	1216348160	61	4461
2026-01-21 09:48:01.20	334.45	18.33	-45.6	-46.8	20.6	0.00e+00	0	40	0	1218445312	61	4488
2026-01-21 09:48:02.21	334.46	18.21	-45.6	-46.9	20.5	0.00e+00	0	40	0	1220542464	61	4494
2026-01-21 09:48:03.22	334.47	18.08	-45.6	-46.9	20.5	0.00e+00	0	40	0	1222639616	61	4498
2026-01-21 09:48:04.23	334.48	17.96	-45.6	-46.9	20.5	0.00e+00	0	40	0	1223688192	61	4536
2026-01-21 09:48:05.23	334.48	17.84	-45.6	-46.9	20.5	0.00e+00	0	40	0	1225785344	61	4540
2026-01-21 09:48:06.24	334.49	17.72	-45.6	-46.9	20.4	6.10e-06	0	40	0	1227882496	61	4544
2026-01-21 09:48:07.25	334.50	17.60	-45.6	-46.9	20.5	0.00e+00	0	40	0	1229979648	61	4522
2026-01-21 09:48:08.25	334.51	17.49	-45.7	-47.0	20.3	0.00e+00	0	40	0	1232076800	61	4586
2026-01-21 09:48:09.26	334.52	17.37	-45.7	-47.1	20.3	0.00e+00	0	40	0	1233125376	62	4352
2026-01-21 09:48:10.27	334.53	17.25	-45.7	-47.0	20.3	0.00e+00	0	40	0	1235222528	62	4337
2026-01-21 09:48:11.28	334.54	17.13	-45.8	-47.1	20.3	0.00e+00	0	40	0	1237319680	62	4359
2026-01-21 09:48:12.28	334.55	17.02	-45.8	-47.1	20.3	0.00e+00	0	40	0	1239416832	62	4382
