passes_logs/2026/01/21/R3.2S_Murmansk/R3.2S_Murmansk__20260121_115423_FENGYUN_3D_rec.log

#Pass ID: 20260121_115423_FENGYUN 3D
#Satellite: FENGYUN 3D
#Configuration: FENGYUN 3D
#almurnet v.1.7.20251203
#Start time: 2026-01-21 11:54:23

#Version: 2.2.20231116
#Station: R3.2S_Murmansk
#Location: 33.079688 lon 68.888172 lat
#TLE: 1 43010U 17072A   26020.92362722 -.00000077  00000+0 -14488-4 0  9992
#TLE: 2 43010  98.9946 352.8312 0002486  99.3651 260.7806 14.19696535424099

#Time	Az	El	Level	Level2	SNR	BER	BlckErr	Temp	State	Recorded	gain1	gain2
2026-01-21 11:54:23.85	159.54	1.99	-50.4	-62.3	3.8	8.46e-01	0	38	0	0	71	14943
2026-01-21 11:54:24.86	159.55	2.06	-50.4	-62.3	3.8	8.46e-01	0	38	104	0	71	15046
2026-01-21 11:54:25.87	159.56	2.12	-50.4	-62.3	3.8	8.46e-01	0	38	104	0	71	14966
2026-01-21 11:54:26.88	159.58	2.19	-50.4	-62.3	3.8	8.46e-01	0	38	104	0	71	14978
2026-01-21 11:54:27.89	159.59	2.25	-50.4	-62.3	3.8	8.47e-01	0	38	104	0	71	15008
2026-01-21 11:54:28.89	159.60	2.32	-50.4	-62.3	3.8	8.45e-01	0	38	104	0	71	14960
2026-01-21 11:54:29.90	159.61	2.38	-50.4	-62.3	3.8	8.46e-01	0	38	104	0	71	14952
2026-01-21 11:54:30.91	159.63	2.45	-50.4	-62.3	3.8	8.46e-01	0	38	104	0	71	14971
2026-01-21 11:54:31.92	159.64	2.51	-50.4	-62.3	3.8	8.46e-01	0	39	104	0	71	14966
2026-01-21 11:54:32.93	159.65	2.58	-50.4	-62.3	3.8	8.46e-01	0	38	104	0	71	14946
2026-01-21 11:54:33.93	159.67	2.65	-50.4	-62.3	3.8	8.46e-01	0	38	104	0	71	14956
2026-01-21 11:54:34.95	159.68	2.71	-50.4	-62.3	3.8	8.46e-01	0	38	104	0	71	14961
2026-01-21 11:54:35.95	159.69	2.78	-50.4	-62.3	3.8	8.46e-01	0	38	104	0	71	14999
2026-01-21 11:54:36.96	159.71	2.84	-50.4	-62.3	3.8	8.47e-01	0	38	104	0	71	14924
2026-01-21 11:54:37.97	159.72	2.91	-50.4	-62.3	3.8	8.45e-01	0	38	104	0	71	14919
2026-01-21 11:54:38.98	159.73	2.98	-50.4	-62.3	3.8	8.46e-01	0	38	104	0	71	14969
2026-01-21 11:54:39.98	159.75	3.04	-50.4	-62.3	3.8	8.47e-01	0	39	104	0	71	14965
2026-01-21 11:54:40.99	159.76	3.11	-50.4	-62.3	3.8	8.45e-01	0	39	104	0	71	14965
2026-01-21 11:54:42.00	159.77	3.18	-50.4	-62.3	3.8	8.47e-01	0	39	104	0	71	14964
2026-01-21 11:54:43.01	159.79	3.25	-50.4	-62.3	3.8	8.45e-01	0	39	104	0	71	14945
2026-01-21 11:54:44.02	159.80	3.31	-50.4	-62.3	3.8	8.45e-01	0	39	104	0	71	14964
2026-01-21 11:54:45.02	159.81	3.38	-50.4	-62.3	3.8	8.45e-01	0	39	104	0	71	14970
2026-01-21 11:54:46.03	159.83	3.45	-50.4	-62.3	3.8	8.46e-01	0	39	104	0	71	14980
2026-01-21 11:54:47.04	159.84	3.52	-50.4	-62.3	3.8	8.45e-01	0	39	104	0	71	14960
2026-01-21 11:54:48.05	159.85	3.59	-50.4	-62.3	3.8	8.44e-01	0	39	104	0	71	14939
2026-01-21 11:54:49.05	159.87	3.65	-50.4	-62.3	3.8	8.47e-01	0	39	104	0	71	14925
2026-01-21 11:54:50.06	159.88	3.72	-50.4	-62.3	3.8	8.46e-01	0	39	104	0	71	15026
2026-01-21 11:54:51.07	159.89	3.79	-50.4	-62.3	3.8	8.47e-01	0	39	104	0	71	14987
2026-01-21 11:54:52.08	159.91	3.86	-50.4	-62.3	3.8	8.46e-01	0	39	104	0	71	15005
2026-01-21 11:54:53.09	159.92	3.93	-50.4	-62.3	3.8	8.46e-01	0	39	104	0	71	15000
2026-01-21 11:54:54.09	159.94	4.00	-50.4	-62.3	3.8	8.45e-01	0	39	104	0	71	15013
2026-01-21 11:54:55.11	159.95	4.07	-50.4	-62.3	3.8	8.45e-01	0	39	104	0	71	14982
2026-01-21 11:54:56.11	159.96	4.14	-50.4	-62.3	3.8	8.45e-01	0	39	104	0	71	14972
2026-01-21 11:54:57.12	159.98	4.21	-50.4	-62.3	3.8	8.46e-01	0	39	104	0	71	14953
2026-01-21 11:54:58.13	159.99	4.28	-50.4	-62.3	3.8	8.47e-01	0	39	104	0	71	14975
2026-01-21 11:54:59.14	160.01	4.35	-50.4	-62.3	3.8	8.46e-01	0	39	104	0	71	14933
2026-01-21 11:55:00.15	160.02	4.42	-50.4	-62.3	3.8	8.45e-01	0	39	104	0	71	15013
2026-01-21 11:55:01.16	160.04	4.49	-50.4	-62.3	3.8	8.46e-01	0	39	104	0	71	14966
2026-01-21 11:55:02.17	160.05	4.56	-50.4	-62.3	3.8	8.45e-01	0	39	104	0	71	14979
2026-01-21 11:55:03.17	160.06	4.63	-50.4	-62.3	3.8	8.47e-01	0	39	104	0	71	14984
2026-01-21 11:55:04.18	160.08	4.70	-50.4	-62.3	3.8	8.45e-01	0	39	104	0	71	14986
2026-01-21 11:55:05.19	160.09	4.77	-50.4	-62.3	3.8	8.46e-01	0	39	104	0	71	14992
2026-01-21 11:55:06.20	160.11	4.84	-50.4	-62.3	3.8	8.46e-01	0	39	104	0	71	15006
2026-01-21 11:55:07.21	160.12	4.92	-50.4	-62.3	3.8	8.47e-01	0	39	104	0	71	14994
2026-01-21 11:55:08.21	160.14	4.99	-50.4	-62.3	3.8	8.45e-01	0	39	104	0	71	14961
2026-01-21 11:55:09.22	160.15	5.06	-50.4	-62.3	3.8	8.47e-01	0	39	104	0	71	14965
2026-01-21 11:55:10.23	160.17	5.13	-50.4	-62.3	3.8	8.45e-01	0	39	104	0	71	14972
2026-01-21 11:55:11.24	160.18	5.20	-50.4	-62.3	3.8	8.47e-01	0	39	104	0	71	14969
2026-01-21 11:55:12.24	160.20	5.28	-50.4	-62.3	3.8	8.47e-01	0	39	104	0	71	14934
2026-01-21 11:55:13.25	160.21	5.35	-50.4	-62.3	3.8	8.45e-01	0	39	104	0	71	14977
2026-01-21 11:55:14.26	160.23	5.42	-50.4	-62.3	3.8	8.47e-01	0	39	104	0	71	14974
2026-01-21 11:55:15.26	160.24	5.49	-50.4	-62.3	3.8	8.46e-01	0	39	104	0	71	14942
2026-01-21 11:55:16.27	160.26	5.57	-50.4	-62.3	3.8	8.45e-01	0	39	104	0	71	14948
2026-01-21 11:55:17.28	160.27	5.64	-50.4	-62.3	3.8	8.45e-01	0	39	104	0	71	14999
2026-01-21 11:55:18.29	160.29	5.72	-50.4	-62.3	3.8	8.45e-01	0	39	104	0	71	15033
2026-01-21 11:55:19.30	160.30	5.79	-50.4	-62.3	3.8	8.46e-01	0	39	104	0	71	14956
2026-01-21 11:55:20.31	160.32	5.86	-50.4	-62.3	3.8	8.46e-01	0	39	104	0	71	14985
2026-01-21 11:55:21.31	160.33	5.94	-50.4	-62.3	3.8	8.44e-01	0	39	104	0	71	14982
2026-01-21 11:55:22.32	160.35	6.01	-50.4	-62.3	3.8	8.46e-01	0	39	104	0	71	14933
2026-01-21 11:55:23.32	160.36	6.09	-50.4	-62.3	3.8	8.46e-01	0	39	104	0	71	14977
2026-01-21 11:55:24.33	160.38	6.16	-50.4	-62.3	3.8	8.46e-01	0	39	104	0	71	14954
2026-01-21 11:55:25.34	160.40	6.24	-50.4	-62.3	3.8	8.47e-01	0	39	104	0	71	14983
2026-01-21 11:55:26.35	160.41	6.31	-50.4	-62.3	3.8	8.47e-01	0	39	104	0	71	14992
2026-01-21 11:55:27.36	160.43	6.39	-50.4	-62.3	3.8	8.46e-01	0	39	104	0	71	14996
2026-01-21 11:55:28.37	160.44	6.46	-50.4	-62.3	3.8	8.47e-01	0	39	104	0	71	14997
2026-01-21 11:55:29.37	160.46	6.54	-50.4	-62.3	3.8	8.46e-01	0	39	104	0	71	15011
2026-01-21 11:55:30.38	160.48	6.62	-50.4	-62.3	3.8	8.46e-01	0	39	104	0	71	14937
2026-01-21 11:55:31.39	160.49	6.69	-50.4	-62.3	3.8	8.45e-01	0	39	104	0	71	14965
2026-01-21 11:55:32.39	160.51	6.77	-50.4	-62.3	3.8	8.46e-01	0	39	104	0	71	14955
2026-01-21 11:55:33.40	160.52	6.85	-50.4	-62.3	3.8	8.45e-01	0	39	104	0	71	15002
2026-01-21 11:55:34.41	160.54	6.92	-50.4	-62.3	3.8	8.46e-01	0	39	104	0	71	14969
2026-01-21 11:55:35.42	160.56	7.00	-50.4	-62.3	3.8	8.48e-01	0	39	104	0	71	14964
2026-01-21 11:55:36.42	160.57	7.08	-50.4	-62.3	3.8	8.45e-01	0	39	104	0	71	14914
2026-01-21 11:55:37.43	160.59	7.16	-50.4	-62.3	3.8	8.46e-01	0	39	104	0	71	15026
2026-01-21 11:55:38.44	160.61	7.24	-50.4	-62.3	3.8	8.47e-01	0	40	104	0	71	14985
2026-01-21 11:55:39.45	160.62	7.31	-50.4	-62.3	3.8	8.46e-01	0	40	104	0	71	15002
2026-01-21 11:55:40.46	160.64	7.39	-50.4	-62.3	3.8	8.47e-01	0	39	104	0	71	15003
2026-01-21 11:55:41.46	160.66	7.47	-50.4	-62.3	3.8	8.46e-01	0	40	104	0	71	15002
2026-01-21 11:55:42.47	160.67	7.55	-50.4	-62.3	3.8	8.45e-01	0	39	104	0	71	14990
2026-01-21 11:55:43.48	160.69	7.63	-50.4	-62.3	3.8	8.46e-01	0	40	104	0	71	14970
2026-01-21 11:55:44.49	160.71	7.71	-50.4	-62.3	3.8	8.46e-01	0	40	104	0	71	14976
2026-01-21 11:55:45.50	160.72	7.79	-50.4	-62.3	3.8	8.44e-01	0	40	104	0	71	15009
2026-01-21 11:55:46.51	160.74	7.87	-50.4	-62.3	3.8	8.46e-01	0	39	104	0	71	14977
2026-01-21 11:55:47.52	160.76	7.95	-50.4	-62.3	3.8	8.45e-01	0	40	104	0	71	14945
2026-01-21 11:55:48.53	160.78	8.03	-50.4	-62.3	3.8	8.47e-01	0	40	104	0	71	14976
2026-01-21 11:55:49.53	160.79	8.11	-50.4	-62.3	3.8	8.46e-01	0	39	104	0	71	14993
2026-01-21 11:55:50.54	160.81	8.19	-50.4	-62.3	3.8	8.48e-01	0	40	104	0	71	14991
2026-01-21 11:55:51.55	160.83	8.28	-50.4	-62.3	3.8	8.47e-01	0	40	104	0	71	14994
2026-01-21 11:55:52.56	160.85	8.36	-50.4	-62.3	3.8	8.45e-01	0	40	104	0	71	15012
2026-01-21 11:55:53.56	160.86	8.44	-50.4	-62.3	3.8	8.45e-01	0	40	104	0	71	14970
2026-01-21 11:55:54.57	160.88	8.52	-50.4	-62.3	3.8	8.46e-01	0	40	104	0	71	15002
2026-01-21 11:55:55.58	160.90	8.60	-50.4	-62.3	3.8	8.46e-01	0	40	104	0	71	14976
2026-01-21 11:55:56.59	160.92	8.69	-50.4	-62.3	3.8	8.46e-01	0	40	104	0	71	14933
2026-01-21 11:55:57.60	160.93	8.77	-50.4	-62.3	3.8	8.47e-01	0	40	104	0	71	15007
2026-01-21 11:55:58.60	160.95	8.85	-50.4	-62.3	3.8	8.45e-01	0	40	104	0	71	15025
2026-01-21 11:55:59.61	160.97	8.94	-50.4	-62.4	3.8	8.46e-01	0	39	104	0	71	15054
2026-01-21 11:56:00.62	160.99	9.02	-50.4	-62.3	3.8	8.46e-01	0	40	104	0	71	15042
2026-01-21 11:56:01.63	161.01	9.11	-50.4	-62.3	3.8	8.47e-01	0	40	104	0	71	14969
2026-01-21 11:56:02.63	161.03	9.19	-50.4	-62.3	3.8	8.46e-01	0	40	104	0	71	15012
2026-01-21 11:56:03.64	161.04	9.27	-50.4	-62.3	3.8	8.46e-01	0	40	104	0	71	15011
2026-01-21 11:56:04.65	161.06	9.36	-50.4	-62.3	3.8	8.46e-01	0	40	104	0	71	14966
2026-01-21 11:56:05.66	161.08	9.45	-50.4	-62.3	3.8	8.46e-01	0	40	104	0	71	14998
2026-01-21 11:56:06.67	161.10	9.53	-50.4	-62.3	3.8	8.45e-01	0	40	104	0	71	14998
2026-01-21 11:56:07.67	161.12	9.62	-50.4	-62.3	3.8	8.46e-01	0	40	104	0	71	14942
2026-01-21 11:56:08.68	161.14	9.70	-50.4	-62.3	3.8	8.47e-01	0	40	104	0	71	14971
2026-01-21 11:56:09.69	161.16	9.79	-50.4	-62.3	3.8	8.46e-01	0	40	104	0	71	14940
2026-01-21 11:56:10.70	161.18	9.88	-50.4	-62.3	3.8	8.46e-01	0	40	104	0	71	14959
2026-01-21 11:56:11.70	161.20	9.96	-50.4	-62.3	3.8	8.46e-01	0	40	104	0	71	14997
2026-01-21 11:56:12.71	161.22	10.05	-50.4	-62.3	3.8	8.48e-01	0	40	104	0	71	14979
2026-01-21 11:56:13.72	161.23	10.14	-50.4	-62.3	3.8	8.45e-01	0	40	104	0	71	15014
2026-01-21 11:56:14.73	161.25	10.23	-50.4	-62.3	3.8	8.45e-01	0	40	104	0	71	14997
2026-01-21 11:56:15.74	161.27	10.32	-50.4	-62.3	3.8	8.46e-01	0	40	104	0	71	14973
2026-01-21 11:56:16.74	161.29	10.40	-50.4	-62.3	3.8	8.46e-01	0	40	104	0	71	14996
2026-01-21 11:56:17.75	161.31	10.49	-50.4	-62.3	3.8	8.46e-01	0	40	104	0	71	14998
2026-01-21 11:56:18.76	161.33	10.58	-50.4	-62.3	3.8	8.47e-01	0	40	104	0	71	15004
2026-01-21 11:56:19.76	161.35	10.67	-50.4	-62.3	3.8	8.46e-01	0	40	104	0	71	15023
2026-01-21 11:56:20.77	161.37	10.76	-50.4	-62.3	3.8	8.48e-01	0	40	104	0	71	14990
2026-01-21 11:56:21.78	161.39	10.85	-50.4	-62.3	3.8	8.47e-01	0	40	104	0	71	15011
2026-01-21 11:56:22.79	161.41	10.94	-50.4	-62.3	3.8	8.45e-01	0	40	104	0	71	15034
2026-01-21 11:56:23.80	161.43	11.03	-50.4	-62.3	3.8	8.47e-01	0	40	104	0	71	15024
2026-01-21 11:56:24.81	161.45	11.13	-50.4	-62.3	3.8	8.47e-01	0	40	104	0	71	14983
2026-01-21 11:56:25.81	161.48	11.22	-50.4	-62.4	3.8	8.46e-01	0	40	104	0	71	15063
2026-01-21 11:56:26.82	161.50	11.31	-50.4	-62.3	3.8	8.46e-01	0	40	104	0	71	14989
2026-01-21 11:56:27.83	161.52	11.40	-50.4	-62.3	3.8	8.47e-01	0	40	104	0	71	15002
2026-01-21 11:56:28.84	161.54	11.49	-50.4	-62.3	3.8	8.46e-01	0	40	104	0	71	14990
2026-01-21 11:56:29.85	161.56	11.59	-50.4	-62.3	3.8	8.46e-01	0	40	104	0	71	14995
2026-01-21 11:56:30.85	161.58	11.68	-50.4	-62.3	3.8	8.45e-01	0	40	104	0	71	15034
2026-01-21 11:56:31.86	161.60	11.77	-50.4	-62.3	3.8	8.45e-01	0	40	104	0	71	14942
2026-01-21 11:56:32.87	161.62	11.87	-50.4	-62.3	3.8	8.47e-01	0	40	104	0	71	14971
2026-01-21 11:56:33.88	161.64	11.96	-50.4	-62.3	3.8	8.46e-01	0	40	104	0	71	15021
2026-01-21 11:56:34.88	161.67	12.06	-50.4	-62.3	3.8	8.46e-01	0	40	104	0	71	14949
2026-01-21 11:56:35.89	161.69	12.15	-50.4	-62.3	3.8	8.46e-01	0	40	104	0	71	14987
2026-01-21 11:56:36.90	161.71	12.25	-50.4	-62.3	3.8	8.47e-01	0	40	104	0	71	15015
2026-01-21 11:56:37.91	161.73	12.34	-50.4	-62.3	3.8	8.45e-01	0	40	104	0	71	15022
2026-01-21 11:56:38.92	161.75	12.44	-50.4	-62.3	3.8	8.46e-01	0	40	104	0	71	15011
2026-01-21 11:56:39.93	161.78	12.54	-50.4	-62.3	3.8	8.47e-01	0	40	104	0	71	14986
2026-01-21 11:56:40.93	161.80	12.63	-50.4	-62.3	3.8	8.46e-01	0	40	104	0	71	14950
2026-01-21 11:56:41.94	161.82	12.73	-50.4	-62.3	3.8	8.46e-01	0	40	104	0	71	15020
2026-01-21 11:56:42.95	161.84	12.83	-50.4	-62.3	3.8	8.46e-01	0	40	104	0	71	14987
2026-01-21 11:56:43.95	161.87	12.93	-50.4	-62.3	3.8	8.45e-01	0	40	104	0	71	14999
2026-01-21 11:56:44.96	161.89	13.03	-50.4	-62.3	3.8	8.46e-01	0	40	104	0	71	15017
2026-01-21 11:56:45.97	161.91	13.13	-50.4	-62.3	3.8	8.48e-01	0	40	104	0	71	14982
2026-01-21 11:56:46.98	161.94	13.23	-50.4	-62.3	3.8	8.45e-01	0	40	104	0	71	15004
2026-01-21 11:56:47.99	161.96	13.33	-50.4	-62.3	3.8	8.47e-01	0	40	104	0	71	15003
2026-01-21 11:56:48.99	161.98	13.43	-50.4	-62.3	3.8	8.47e-01	0	40	104	0	71	14995
2026-01-21 11:56:50.00	162.01	13.53	-50.4	-62.3	3.8	8.45e-01	0	40	104	0	71	15002
2026-01-21 11:56:51.01	162.03	13.63	-50.4	-62.3	3.8	8.46e-01	0	40	104	0	71	15009
2026-01-21 11:56:52.02	162.05	13.73	-50.4	-62.3	3.8	8.46e-01	0	40	104	0	71	14976
2026-01-21 11:56:53.03	162.08	13.83	-50.4	-62.3	3.8	8.46e-01	0	40	104	0	71	15027
2026-01-21 11:56:54.03	162.10	13.93	-50.4	-62.3	3.8	8.45e-01	0	40	104	0	71	14982
2026-01-21 11:56:55.04	162.13	14.04	-50.4	-62.3	3.8	8.45e-01	0	40	104	0	71	14988
2026-01-21 11:56:56.05	162.15	14.14	-50.4	-62.3	3.8	8.45e-01	0	40	104	0	71	15010
2026-01-21 11:56:57.05	162.17	14.24	-50.4	-62.3	3.8	8.46e-01	0	40	104	0	71	14996
2026-01-21 11:56:58.06	162.20	14.35	-50.4	-62.3	3.8	8.46e-01	0	40	104	0	71	14984
2026-01-21 11:56:59.07	162.22	14.45	-50.4	-62.3	3.8	8.45e-01	0	40	104	0	71	14989
2026-01-21 11:57:00.08	162.25	14.56	-50.4	-62.3	3.8	8.48e-01	0	40	104	0	71	15001
2026-01-21 11:57:01.09	162.27	14.66	-50.4	-62.3	3.8	8.47e-01	0	40	104	0	71	14986
2026-01-21 11:57:02.10	162.30	14.77	-50.4	-62.3	3.8	8.47e-01	0	40	104	0	71	15014
2026-01-21 11:57:03.11	162.32	14.88	-50.4	-62.3	3.8	8.47e-01	0	40	104	0	71	15032
2026-01-21 11:57:04.11	162.35	14.98	-50.4	-62.3	3.8	8.47e-01	0	40	104	0	71	14996
2026-01-21 11:57:05.12	162.38	15.09	-50.4	-62.3	3.8	8.46e-01	0	40	104	0	71	15023
2026-01-21 11:57:06.13	162.40	15.20	-50.4	-62.3	3.8	8.46e-01	0	40	104	0	71	14966
2026-01-21 11:57:07.14	162.43	15.31	-50.4	-62.3	3.8	8.46e-01	0	40	104	0	71	15006
2026-01-21 11:57:08.15	162.45	15.41	-50.4	-62.3	3.8	8.45e-01	0	40	104	0	71	15003
2026-01-21 11:57:09.15	162.48	15.52	-50.4	-62.3	3.8	8.47e-01	0	40	104	0	71	15007
2026-01-21 11:57:10.16	162.51	15.63	-50.4	-62.3	3.8	8.47e-01	0	40	104	0	71	14978
2026-01-21 11:57:11.17	162.53	15.74	-50.4	-62.3	3.8	8.47e-01	0	40	104	0	71	14999
2026-01-21 11:57:12.18	162.56	15.85	-50.4	-62.3	3.8	8.45e-01	0	40	104	0	71	14995
2026-01-21 11:57:13.18	162.59	15.96	-50.4	-62.3	3.8	8.46e-01	0	40	104	0	71	15028
2026-01-21 11:57:14.19	162.61	16.08	-50.4	-62.3	3.8	8.45e-01	0	40	104	0	71	15049
2026-01-21 11:57:15.20	162.64	16.19	-50.4	-62.3	3.8	8.45e-01	0	40	104	0	71	15038
2026-01-21 11:57:16.21	162.67	16.30	-50.4	-62.3	3.8	8.46e-01	0	40	104	0	71	15035
2026-01-21 11:57:17.22	162.70	16.42	-50.4	-62.3	3.8	8.46e-01	0	40	104	0	71	15039
2026-01-21 11:57:18.23	162.73	16.53	-50.4	-62.3	3.8	8.46e-01	0	40	104	0	71	15007
2026-01-21 11:57:19.23	162.75	16.64	-50.4	-62.3	3.8	8.46e-01	0	40	104	0	71	15013
2026-01-21 11:57:20.24	162.78	16.76	-50.4	-62.3	3.8	8.46e-01	0	40	104	0	71	15009
2026-01-21 11:57:21.25	162.81	16.87	-50.4	-62.3	3.8	8.46e-01	0	40	104	0	71	15014
2026-01-21 11:57:22.26	162.84	16.99	-50.4	-62.3	3.8	8.46e-01	0	40	104	0	71	15026
2026-01-21 11:57:23.26	162.87	17.11	-50.4	-62.3	3.8	8.46e-01	0	40	104	0	71	15049
2026-01-21 11:57:24.27	162.90	17.22	-50.4	-62.3	3.8	8.47e-01	0	40	104	0	71	15008
2026-01-21 11:57:25.28	162.93	17.34	-50.4	-62.3	3.8	8.46e-01	0	40	104	0	71	15019
2026-01-21 11:57:26.29	162.96	17.46	-50.4	-62.3	3.8	8.45e-01	0	40	104	0	71	15001
2026-01-21 11:57:27.30	162.99	17.58	-50.4	-62.3	3.8	8.46e-01	0	40	104	0	71	15006
2026-01-21 11:57:28.30	163.02	17.70	-50.4	-62.3	3.8	8.46e-01	0	40	104	0	71	15022
2026-01-21 11:57:29.31	163.05	17.82	-50.4	-62.3	3.8	8.45e-01	0	40	104	0	71	15027
2026-01-21 11:57:30.32	163.08	17.94	-50.4	-62.3	3.8	8.46e-01	0	40	104	0	71	14975
2026-01-21 11:57:31.33	163.11	18.06	-50.4	-62.3	3.8	8.47e-01	0	40	104	0	71	15040
2026-01-21 11:57:32.33	163.14	18.18	-50.4	-62.3	3.8	8.46e-01	0	40	104	0	71	15014
2026-01-21 11:57:33.34	163.17	18.30	-50.4	-62.3	3.8	8.45e-01	0	40	104	0	71	15030
2026-01-21 11:57:34.35	163.20	18.42	-50.4	-62.3	3.8	8.46e-01	0	40	104	0	71	15020
2026-01-21 11:57:35.36	163.23	18.55	-50.4	-62.3	3.8	8.46e-01	0	40	104	0	71	14997
2026-01-21 11:57:36.36	163.26	18.67	-50.4	-62.3	3.8	8.46e-01	0	40	104	0	71	14975
2026-01-21 11:57:37.37	163.29	18.80	-50.4	-62.3	3.8	8.45e-01	0	40	104	0	71	14999
2026-01-21 11:57:38.38	163.33	18.92	-50.4	-62.3	3.8	8.45e-01	0	40	104	0	71	14972
2026-01-21 11:57:39.39	163.36	19.05	-50.4	-62.3	3.8	8.46e-01	0	40	104	0	71	14963
2026-01-21 11:57:40.40	163.39	19.17	-50.4	-62.3	3.8	8.44e-01	0	40	104	0	71	15034
2026-01-21 11:57:41.41	163.42	19.30	-50.4	-62.3	3.8	8.44e-01	0	40	104	0	71	15001
2026-01-21 11:57:42.41	163.46	19.43	-50.4	-62.3	3.8	8.46e-01	0	40	104	0	71	15006
2026-01-21 11:57:43.42	163.49	19.56	-50.4	-62.3	3.8	8.45e-01	0	40	104	0	71	15030
2026-01-21 11:57:44.43	163.52	19.69	-50.4	-62.4	3.8	8.47e-01	0	40	104	0	71	15059
2026-01-21 11:57:45.44	163.56	19.82	-50.4	-62.3	3.8	8.47e-01	0	40	104	0	71	14971
2026-01-21 11:57:46.44	163.59	19.95	-50.4	-62.3	3.8	8.46e-01	0	40	104	0	71	15000
2026-01-21 11:57:47.45	163.63	20.08	-50.4	-62.3	3.8	8.46e-01	0	40	104	0	71	14989
2026-01-21 11:57:48.46	163.66	20.21	-50.4	-62.3	3.8	8.46e-01	0	40	104	0	71	15006
2026-01-21 11:57:49.47	163.70	20.34	-50.4	-62.3	3.8	8.46e-01	0	40	104	0	71	14961
2026-01-21 11:57:50.48	163.73	20.48	-50.4	-62.3	3.8	8.46e-01	0	40	104	0	71	15041
2026-01-21 11:57:51.49	163.77	20.61	-50.4	-62.3	3.8	8.47e-01	0	40	104	0	71	15033
2026-01-21 11:57:52.49	163.80	20.75	-50.4	-62.3	3.8	8.46e-01	0	40	104	0	71	14983
2026-01-21 11:57:53.50	163.84	20.88	-50.4	-62.3	3.8	8.47e-01	0	40	104	0	71	15008
2026-01-21 11:57:54.51	163.87	21.02	-50.4	-62.3	3.8	8.46e-01	0	40	104	0	71	15040
2026-01-21 11:57:55.52	163.91	21.15	-50.4	-62.3	3.8	8.45e-01	0	40	104	0	71	15008
2026-01-21 11:57:56.53	163.95	21.29	-50.4	-62.4	3.8	8.47e-01	0	40	104	0	71	15061
2026-01-21 11:57:57.53	163.98	21.43	-50.4	-62.4	3.8	8.45e-01	0	40	104	0	71	15087
2026-01-21 11:57:58.54	164.02	21.57	-50.4	-62.4	3.8	8.46e-01	0	40	104	0	71	15072
2026-01-21 11:57:59.55	164.06	21.71	-50.4	-62.3	3.8	8.46e-01	0	40	104	0	71	15020
2026-01-21 11:58:00.56	164.10	21.85	-50.4	-62.3	3.8	8.47e-01	0	40	104	0	71	15027
2026-01-21 11:58:01.56	164.13	21.99	-50.4	-62.3	3.8	8.46e-01	0	40	104	0	71	15016
2026-01-21 11:58:02.57	164.17	22.13	-50.4	-62.3	3.8	8.47e-01	0	40	104	0	71	14986
2026-01-21 11:58:03.58	164.21	22.28	-50.4	-62.3	3.8	8.48e-01	0	40	104	0	71	15025
2026-01-21 11:58:04.59	164.25	22.42	-50.4	-62.3	3.8	8.46e-01	0	40	104	0	71	15004
2026-01-21 11:58:05.60	164.29	22.57	-50.4	-62.3	3.8	8.44e-01	0	40	104	0	71	15051
2026-01-21 11:58:06.61	164.33	22.71	-50.4	-62.3	3.8	8.47e-01	0	40	104	0	71	15035
2026-01-21 11:58:07.61	164.37	22.86	-50.4	-62.3	3.8	8.46e-01	0	40	104	0	71	15025
2026-01-21 11:58:08.62	164.41	23.00	-50.4	-62.3	3.8	8.47e-01	0	40	104	0	71	15020
2026-01-21 11:58:09.63	164.45	23.15	-50.4	-62.3	3.8	8.46e-01	0	40	104	0	71	15037
2026-01-21 11:58:10.64	164.49	23.30	-50.4	-62.3	3.8	8.45e-01	0	40	104	0	71	14987
2026-01-21 11:58:11.65	164.54	23.45	-50.4	-62.3	3.8	8.46e-01	0	40	104	0	71	15023
2026-01-21 11:58:12.65	164.58	23.60	-50.4	-62.3	3.8	8.46e-01	0	40	104	0	71	15036
2026-01-21 11:58:13.66	164.62	23.75	-50.4	-62.3	3.8	8.46e-01	0	40	104	0	71	15027
2026-01-21 11:58:14.67	164.66	23.90	-50.4	-62.3	3.8	8.46e-01	0	40	104	0	71	15051
2026-01-21 11:58:15.68	164.71	24.06	-50.4	-62.3	3.8	8.45e-01	0	40	104	0	71	15005
2026-01-21 11:58:16.68	164.75	24.21	-50.4	-62.3	3.8	8.47e-01	0	40	104	0	71	15031
2026-01-21 11:58:17.69	164.79	24.36	-50.4	-62.3	3.8	8.47e-01	0	40	104	0	71	14994
2026-01-21 11:58:18.70	164.84	24.52	-50.4	-62.3	3.8	8.46e-01	0	40	104	0	71	14992
2026-01-21 11:58:19.71	164.88	24.68	-50.4	-62.4	3.8	8.46e-01	0	40	104	0	71	15067
2026-01-21 11:58:20.72	164.93	24.84	-50.4	-62.3	3.8	8.47e-01	0	40	104	0	71	15011
2026-01-21 11:58:21.72	164.97	24.99	-50.4	-62.4	3.8	8.45e-01	0	40	104	0	71	15082
2026-01-21 11:58:22.73	165.02	25.15	-50.4	-62.3	3.8	8.46e-01	0	40	104	0	71	14982
2026-01-21 11:58:23.74	165.07	25.31	-50.4	-62.3	3.8	8.45e-01	0	40	104	0	71	15025
2026-01-21 11:58:24.75	165.11	25.47	-50.4	-62.3	3.8	8.46e-01	0	40	104	0	71	15001
2026-01-21 11:58:25.76	165.16	25.64	-50.4	-62.3	3.8	8.45e-01	0	40	104	0	71	15046
2026-01-21 11:58:26.77	165.21	25.80	-50.4	-62.3	3.8	8.46e-01	0	40	104	0	71	14996
2026-01-21 11:58:27.77	165.26	25.96	-50.4	-62.3	3.8	8.47e-01	0	40	104	0	71	15043
2026-01-21 11:58:28.78	165.31	26.13	-50.4	-62.3	3.8	8.46e-01	0	40	104	0	71	15008
2026-01-21 11:58:29.79	165.35	26.30	-50.4	-62.3	3.8	8.46e-01	0	40	104	0	71	15001
2026-01-21 11:58:30.80	165.40	26.46	-50.4	-62.4	3.8	8.46e-01	0	40	104	0	71	15054
2026-01-21 11:58:31.81	165.45	26.63	-50.4	-62.3	3.8	8.45e-01	0	40	104	0	71	15021
2026-01-21 11:58:32.81	165.50	26.80	-50.4	-62.3	3.8	8.47e-01	0	40	104	0	71	15003
2026-01-21 11:58:33.82	165.56	26.97	-50.4	-62.3	3.8	8.46e-01	0	40	104	0	71	15012
2026-01-21 11:58:34.83	165.61	27.14	-50.4	-62.3	3.8	8.46e-01	0	40	104	0	71	15036
2026-01-21 11:58:35.84	165.66	27.32	-50.4	-62.3	3.8	8.46e-01	0	40	104	0	71	15029
2026-01-21 11:58:36.84	165.71	27.49	-50.4	-62.3	3.8	8.45e-01	0	40	104	0	71	15023
2026-01-21 11:58:37.85	165.77	27.66	-50.4	-62.3	3.8	8.46e-01	0	40	104	0	71	15032
2026-01-21 11:58:38.86	165.82	27.84	-50.4	-62.3	3.8	8.47e-01	0	40	104	0	71	15021
2026-01-21 11:58:39.87	165.87	28.02	-50.4	-62.4	3.8	8.47e-01	0	40	104	0	71	15053
2026-01-21 11:58:40.87	165.93	28.19	-50.4	-62.3	3.8	8.45e-01	0	40	104	0	71	15004
2026-01-21 11:58:41.88	165.98	28.37	-50.4	-62.3	3.8	8.47e-01	0	40	104	0	71	15021
2026-01-21 11:58:42.89	166.04	28.55	-50.4	-62.3	3.8	8.47e-01	0	40	104	0	71	15009
2026-01-21 11:58:43.90	166.10	28.74	-50.4	-62.3	3.8	8.46e-01	0	40	104	0	71	14974
2026-01-21 11:58:44.91	166.15	28.92	-50.4	-62.3	3.8	8.45e-01	0	40	104	0	71	15040
2026-01-21 11:58:45.91	166.21	29.10	-50.4	-62.3	3.8	8.47e-01	0	40	104	0	71	14973
2026-01-21 11:58:46.92	166.27	29.29	-50.4	-62.3	3.8	8.46e-01	0	40	104	0	71	15031
2026-01-21 11:58:47.93	166.33	29.47	-50.4	-62.3	3.8	8.46e-01	0	40	104	0	71	15041
2026-01-21 11:58:48.94	166.39	29.66	-50.4	-62.3	3.8	8.47e-01	0	40	104	0	71	15003
2026-01-21 11:58:49.95	166.45	29.85	-50.4	-62.3	3.8	8.46e-01	0	40	104	0	71	14954
2026-01-21 11:58:50.95	166.51	30.04	-50.4	-62.3	3.8	8.47e-01	0	40	104	0	71	15047
2026-01-21 11:58:51.96	166.57	30.23	-50.4	-62.3	3.8	8.47e-01	0	40	104	0	71	15001
2026-01-21 11:58:52.97	166.63	30.42	-50.4	-62.3	3.8	8.46e-01	0	40	104	0	71	15020
2026-01-21 11:58:53.98	166.70	30.61	-50.4	-62.3	3.8	8.47e-01	0	40	104	0	71	15007
2026-01-21 11:58:54.99	166.76	30.81	-50.4	-62.3	3.8	8.46e-01	0	40	104	0	71	15041
2026-01-21 11:58:55.99	166.82	31.00	-50.4	-62.3	3.8	8.46e-01	0	40	104	0	71	15037
2026-01-21 11:58:57.00	166.89	31.20	-50.4	-62.4	3.8	8.45e-01	0	40	104	0	71	15063
2026-01-21 11:58:58.01	166.96	31.40	-50.4	-62.3	3.8	8.45e-01	0	40	104	0	71	15036
2026-01-21 11:58:59.02	167.02	31.60	-50.4	-62.3	3.8	8.46e-01	0	40	104	0	71	15021
2026-01-21 11:59:00.03	167.09	31.80	-50.4	-62.4	3.8	8.47e-01	0	40	104	0	71	15065
2026-01-21 11:59:01.03	167.16	32.00	-50.4	-62.3	3.8	8.44e-01	0	40	104	0	71	15025
2026-01-21 11:59:02.04	167.23	32.21	-50.4	-62.4	3.8	8.47e-01	0	40	104	0	71	15052
2026-01-21 11:59:03.05	167.30	32.41	-50.4	-62.3	3.8	8.46e-01	0	40	104	0	71	15026
2026-01-21 11:59:04.06	167.37	32.62	-50.4	-62.3	3.8	8.44e-01	0	40	104	0	71	14999
2026-01-21 11:59:05.06	167.44	32.83	-50.4	-62.3	3.8	8.46e-01	0	40	104	0	71	14975
2026-01-21 11:59:06.07	167.51	33.04	-50.4	-62.3	3.8	8.46e-01	0	40	104	0	71	15013
2026-01-21 11:59:07.08	167.59	33.25	-50.4	-62.3	3.8	8.46e-01	0	40	104	0	71	15016
2026-01-21 11:59:08.09	167.66	33.46	-50.4	-62.3	3.8	8.46e-01	0	40	104	0	71	15020
2026-01-21 11:59:09.10	167.74	33.68	-50.4	-62.3	3.8	8.47e-01	0	40	104	0	71	15042
2026-01-21 11:59:10.11	167.81	33.89	-50.4	-62.3	3.8	8.46e-01	0	40	104	0	71	15003
2026-01-21 11:59:11.11	167.89	34.11	-50.4	-62.3	3.8	8.46e-01	0	40	104	0	71	15030
2026-01-21 11:59:12.12	167.97	34.32	-50.4	-62.3	3.8	8.46e-01	0	40	104	0	71	14965
2026-01-21 11:59:13.13	168.05	34.54	-50.4	-62.3	3.8	8.47e-01	0	40	104	0	71	14990
2026-01-21 11:59:14.14	168.13	34.77	-50.4	-62.3	3.8	8.45e-01	0	40	104	0	71	15001
2026-01-21 11:59:15.15	168.21	34.99	-50.4	-62.3	3.8	8.46e-01	0	40	104	0	71	15048
2026-01-21 11:59:16.15	168.29	35.21	-50.4	-62.3	3.8	8.45e-01	0	40	104	0	71	15009
2026-01-21 11:59:17.16	168.37	35.44	-50.4	-62.4	3.8	8.46e-01	0	40	104	0	71	15052
2026-01-21 11:59:18.17	168.46	35.67	-50.4	-62.3	3.8	8.46e-01	0	40	104	0	71	15005
2026-01-21 11:59:19.18	168.54	35.90	-50.4	-62.3	3.8	8.46e-01	0	40	104	0	71	15019
2026-01-21 11:59:20.19	168.63	36.13	-50.4	-62.3	3.8	8.46e-01	0	40	104	0	71	14994
2026-01-21 11:59:21.19	168.72	36.36	-50.4	-62.3	3.8	8.46e-01	0	40	104	0	71	15028
2026-01-21 11:59:22.20	168.81	36.59	-50.4	-62.3	3.8	8.47e-01	0	40	104	0	71	15005
2026-01-21 11:59:23.21	168.90	36.83	-50.4	-62.3	3.8	8.45e-01	0	40	104	0	71	15043
2026-01-21 11:59:24.22	168.99	37.06	-50.4	-62.3	3.8	8.47e-01	0	40	104	0	71	15030
2026-01-21 11:59:25.23	169.08	37.30	-50.4	-62.3	3.8	8.47e-01	0	40	104	0	71	15023
2026-01-21 11:59:26.23	169.18	37.54	-50.4	-62.3	3.8	8.47e-01	0	40	104	0	71	15050
2026-01-21 11:59:27.24	169.27	37.78	-50.4	-62.3	3.8	8.47e-01	0	40	104	0	71	15012
2026-01-21 11:59:28.25	169.37	38.03	-50.4	-62.3	3.8	8.46e-01	0	40	104	0	71	15027
2026-01-21 11:59:29.26	169.47	38.27	-50.4	-62.3	3.8	8.46e-01	0	40	104	0	71	15014
2026-01-21 11:59:30.27	169.57	38.52	-50.4	-62.3	3.8	8.46e-01	0	40	104	0	71	14991
2026-01-21 11:59:31.27	169.67	38.77	-50.4	-62.3	3.8	8.46e-01	0	40	104	0	71	15008
2026-01-21 11:59:32.28	169.77	39.02	-50.4	-62.3	3.8	8.46e-01	0	40	104	0	71	14990
2026-01-21 11:59:33.29	169.88	39.27	-50.4	-62.3	3.8	8.45e-01	0	40	104	0	71	14985
2026-01-21 11:59:34.30	169.98	39.52	-50.4	-62.3	3.8	8.45e-01	0	40	104	0	71	15025
2026-01-21 11:59:35.30	170.09	39.78	-50.4	-62.3	3.8	8.46e-01	0	40	104	0	71	15021
2026-01-21 11:59:36.31	170.20	40.03	-50.4	-62.3	3.8	8.46e-01	0	40	104	0	71	14983
2026-01-21 11:59:37.32	170.31	40.29	-50.4	-62.3	3.8	8.47e-01	0	40	104	0	71	15023
2026-01-21 11:59:38.33	170.42	40.56	-50.4	-62.3	3.8	8.46e-01	0	40	104	0	71	15017
2026-01-21 11:59:39.33	170.53	40.82	-50.4	-62.3	3.8	8.45e-01	0	40	104	0	71	15003
2026-01-21 11:59:40.34	170.65	41.08	-50.4	-62.3	3.8	8.47e-01	0	40	104	0	71	15043
2026-01-21 11:59:41.35	170.77	41.35	-50.4	-62.3	3.8	8.47e-01	0	40	104	0	71	15010
2026-01-21 11:59:42.36	170.89	41.62	-50.4	-62.3	3.8	8.45e-01	0	40	104	0	71	15046
2026-01-21 11:59:43.36	171.01	41.88	-50.4	-62.3	3.8	8.46e-01	0	40	104	0	71	14978
2026-01-21 11:59:44.37	171.13	42.16	-50.4	-62.3	3.8	8.47e-01	0	40	104	0	71	15044
2026-01-21 11:59:45.38	171.26	42.43	-50.4	-62.3	3.8	8.46e-01	0	40	104	0	71	15028
2026-01-21 11:59:46.39	171.39	42.71	-50.4	-62.3	3.8	8.45e-01	0	40	104	0	71	15004
2026-01-21 11:59:47.40	171.52	42.99	-50.4	-62.3	3.8	8.46e-01	0	40	104	0	71	14975
2026-01-21 11:59:48.40	171.65	43.26	-50.4	-62.3	3.8	8.46e-01	0	40	104	0	71	15035
2026-01-21 11:59:49.41	171.78	43.54	-50.4	-62.3	3.8	8.46e-01	0	40	104	0	71	14992
2026-01-21 11:59:50.42	171.92	43.83	-50.4	-62.3	3.8	8.47e-01	0	40	104	0	71	15049
2026-01-21 11:59:51.43	172.06	44.11	-50.4	-62.4	3.8	8.46e-01	0	40	104	0	71	15081
2026-01-21 11:59:52.44	172.20	44.40	-50.4	-62.3	3.8	8.46e-01	0	40	104	0	71	15010
2026-01-21 11:59:53.44	172.35	44.69	-50.4	-62.3	3.8	8.46e-01	0	40	104	0	71	15012
2026-01-21 11:59:54.45	172.49	44.98	-50.4	-62.4	3.8	8.45e-01	0	40	104	0	71	15052
2026-01-21 11:59:55.46	172.64	45.27	-50.4	-62.3	3.8	8.46e-01	0	40	104	0	71	15027
2026-01-21 11:59:56.47	172.79	45.57	-50.4	-62.4	3.8	8.46e-01	0	40	104	0	71	15052
2026-01-21 11:59:57.48	172.95	45.86	-50.4	-62.3	3.8	8.46e-01	0	40	104	0	71	15013
2026-01-21 11:59:58.49	173.11	46.16	-50.4	-62.4	3.8	8.46e-01	0	40	104	0	71	15056
2026-01-21 11:59:59.50	173.27	46.47	-50.4	-62.3	3.8	8.46e-01	0	40	104	0	71	15010
2026-01-21 12:00:00.50	173.43	46.77	-50.4	-62.3	3.8	8.46e-01	0	40	104	0	71	15008
2026-01-21 12:00:01.51	173.60	47.07	-50.4	-62.3	3.8	8.46e-01	0	40	104	0	71	15032
2026-01-21 12:00:02.52	173.77	47.38	-50.4	-62.3	3.8	8.46e-01	0	40	104	0	71	15005
2026-01-21 12:00:03.53	173.94	47.69	-50.4	-62.3	3.8	8.46e-01	0	40	104	0	71	14990
2026-01-21 12:00:04.54	174.12	48.00	-50.4	-62.3	3.8	8.45e-01	0	40	104	0	71	14971
2026-01-21 12:00:05.54	174.30	48.31	-50.4	-62.3	3.8	8.46e-01	0	40	104	0	71	15026
2026-01-21 12:00:06.55	174.48	48.62	-50.4	-62.3	3.8	8.46e-01	0	40	104	0	71	15009
2026-01-21 12:00:07.56	174.67	48.94	-50.4	-62.3	3.8	8.45e-01	0	40	104	0	71	14964
2026-01-21 12:00:08.57	174.86	49.26	-50.4	-62.3	3.8	8.47e-01	0	40	104	0	71	14985
2026-01-21 12:00:09.58	175.06	49.58	-50.4	-62.3	3.8	8.46e-01	0	40	104	0	71	15023
2026-01-21 12:00:10.59	175.26	49.90	-50.4	-62.3	3.8	8.46e-01	0	40	104	0	71	15019
2026-01-21 12:00:11.59	175.46	50.22	-50.4	-62.3	3.8	8.46e-01	0	40	104	0	71	15031
2026-01-21 12:00:12.60	175.67	50.55	-50.4	-62.3	3.8	8.46e-01	0	40	104	0	71	15026
2026-01-21 12:00:13.61	175.88	50.88	-50.4	-62.3	3.8	8.47e-01	0	40	104	0	71	15038
2026-01-21 12:00:14.61	176.10	51.21	-50.4	-62.3	3.8	8.46e-01	0	40	104	0	71	14959
2026-01-21 12:00:15.62	176.32	51.54	-50.4	-62.3	3.8	8.46e-01	0	40	104	0	71	14994
2026-01-21 12:00:16.63	176.54	51.87	-50.4	-62.3	3.8	8.45e-01	0	40	104	0	71	14990
2026-01-21 12:00:17.64	176.78	52.21	-50.4	-62.3	3.8	8.48e-01	0	40	104	0	71	15051
2026-01-21 12:00:18.65	177.01	52.55	-50.4	-62.3	3.8	8.47e-01	0	40	104	0	71	14966
2026-01-21 12:00:19.66	177.26	52.89	-50.4	-62.3	3.8	8.45e-01	0	40	104	0	71	15050
2026-01-21 12:00:20.67	177.50	53.23	-50.4	-62.3	3.8	8.47e-01	0	40	104	0	71	15038
2026-01-21 12:00:21.67	177.76	53.57	-50.4	-62.3	3.8	8.47e-01	0	40	104	0	71	14989
2026-01-21 12:00:22.68	178.02	53.91	-50.4	-62.3	3.8	8.47e-01	0	40	104	0	71	15017
2026-01-21 12:00:23.69	178.28	54.26	-50.4	-62.4	3.8	8.47e-01	0	40	104	0	71	15060
2026-01-21 12:00:24.69	178.55	54.61	-50.4	-62.3	3.8	8.45e-01	0	40	104	0	71	15031
2026-01-21 12:00:25.70	178.83	54.96	-50.4	-62.3	3.8	8.47e-01	0	40	104	0	71	15019
2026-01-21 12:00:26.71	179.12	55.31	-50.4	-62.3	3.8	8.45e-01	0	40	104	0	71	15008
2026-01-21 12:00:27.72	179.41	55.66	-50.4	-62.3	3.8	8.46e-01	0	40	104	0	71	15008
2026-01-21 12:00:28.73	179.71	56.02	-50.4	-62.3	3.8	8.47e-01	0	40	104	0	71	15050
2026-01-21 12:00:29.73	180.02	56.37	-50.4	-62.3	3.8	8.46e-01	0	40	104	0	71	15005
2026-01-21 12:00:30.74	180.33	56.73	-50.4	-62.3	3.8	8.47e-01	0	40	104	0	71	14978
2026-01-21 12:00:31.75	180.66	57.09	-50.4	-62.3	3.8	8.45e-01	0	40	104	0	71	15025
2026-01-21 12:00:32.76	180.99	57.45	-50.4	-62.3	3.8	8.46e-01	0	40	104	0	71	15002
2026-01-21 12:00:33.77	181.33	57.81	-50.4	-62.3	3.8	8.46e-01	0	40	104	0	71	15002
2026-01-21 12:00:34.78	181.68	58.17	-50.4	-62.3	3.8	8.46e-01	0	40	104	0	71	15021
2026-01-21 12:00:35.79	182.05	58.54	-50.4	-62.3	3.8	8.46e-01	0	40	104	0	71	15018
2026-01-21 12:00:36.79	182.41	58.90	-50.4	-62.3	3.8	8.47e-01	0	40	104	0	71	15034
2026-01-21 12:00:37.80	182.79	59.27	-50.4	-62.3	3.8	8.46e-01	0	40	104	0	71	15019
2026-01-21 12:00:38.81	183.18	59.64	-50.4	-62.4	3.8	8.46e-01	0	40	104	0	71	15052
2026-01-21 12:00:39.82	183.59	60.01	-50.4	-62.3	3.8	8.47e-01	0	40	104	0	71	15007
2026-01-21 12:00:40.83	184.00	60.38	-50.4	-62.3	3.8	8.46e-01	0	40	104	0	71	15013
2026-01-21 12:00:41.83	184.42	60.74	-50.4	-62.3	3.8	8.45e-01	0	40	104	0	71	15010
2026-01-21 12:00:42.84	184.86	61.12	-50.4	-62.3	3.8	8.46e-01	0	40	104	0	71	15045
2026-01-21 12:00:43.85	185.31	61.49	-50.4	-62.3	3.8	8.46e-01	0	40	104	0	71	15000
2026-01-21 12:00:44.86	185.78	61.86	-50.4	-62.3	3.8	8.46e-01	0	40	104	0	71	15015
2026-01-21 12:00:45.86	186.26	62.23	-50.4	-62.3	3.8	8.46e-01	0	40	104	0	71	15051
2026-01-21 12:00:46.87	186.75	62.60	-50.4	-62.3	3.8	8.46e-01	0	40	104	0	71	15016
2026-01-21 12:00:47.88	187.26	62.98	-50.4	-62.4	3.8	8.46e-01	0	40	104	0	71	15065
2026-01-21 12:00:48.89	187.79	63.35	-50.4	-62.3	3.8	8.46e-01	0	40	104	0	71	15015
2026-01-21 12:00:49.90	188.33	63.73	-50.4	-62.3	3.8	8.46e-01	0	40	104	0	71	15021
2026-01-21 12:00:50.91	188.89	64.10	-50.4	-62.3	3.8	8.45e-01	0	40	104	0	71	15008
2026-01-21 12:00:51.92	189.47	64.47	-50.4	-62.3	3.8	8.46e-01	0	40	104	0	71	15040
2026-01-21 12:00:52.93	190.06	64.85	-50.4	-62.3	3.8	8.47e-01	0	40	104	0	71	14997
2026-01-21 12:00:53.93	190.68	65.21	-50.4	-62.3	3.8	8.46e-01	0	40	104	0	71	14982
2026-01-21 12:00:54.94	191.31	65.58	-50.4	-62.3	3.8	8.47e-01	0	40	104	0	71	15006
2026-01-21 12:00:55.95	191.97	65.95	-50.4	-62.4	3.8	8.46e-01	0	40	104	0	71	15066
2026-01-21 12:00:56.96	192.66	66.32	-50.4	-62.3	3.8	8.46e-01	0	41	104	0	71	15035
2026-01-21 12:00:57.97	193.36	66.69	-50.4	-62.3	3.8	8.47e-01	0	40	104	0	71	15020
2026-01-21 12:00:58.97	194.08	67.05	-50.4	-62.4	3.8	8.46e-01	0	40	104	0	71	15057
2026-01-21 12:00:59.98	194.84	67.42	-50.4	-62.3	3.8	8.46e-01	0	40	104	0	71	15044
2026-01-21 12:01:00.99	195.62	67.78	-50.4	-62.3	3.8	8.47e-01	0	40	104	0	71	14995
2026-01-21 12:01:02.00	196.43	68.14	-50.4	-62.3	3.8	8.45e-01	0	40	104	0	71	15042
2026-01-21 12:01:03.01	197.27	68.50	-50.4	-62.3	3.8	8.46e-01	0	40	104	0	71	15021
2026-01-21 12:01:04.02	198.14	68.85	-50.4	-62.3	3.8	8.47e-01	0	40	104	0	71	15048
2026-01-21 12:01:05.03	199.05	69.20	-50.4	-62.3	3.8	8.46e-01	0	40	104	0	71	14993
2026-01-21 12:01:06.03	199.97	69.54	-50.4	-62.4	3.8	8.46e-01	0	40	104	0	71	15058
2026-01-21 12:01:07.04	200.94	69.89	-50.4	-62.3	3.8	8.46e-01	0	40	104	0	71	15028
2026-01-21 12:01:08.05	201.94	70.22	-50.4	-62.3	3.8	8.48e-01	0	40	104	0	71	15039
2026-01-21 12:01:09.06	202.98	70.56	-50.4	-62.3	3.8	8.45e-01	0	40	104	0	71	15034
2026-01-21 12:01:10.06	204.05	70.88	-50.4	-62.3	3.8	8.46e-01	0	40	104	0	71	15008
2026-01-21 12:01:11.07	205.17	71.21	-50.4	-62.3	3.8	8.46e-01	0	40	104	0	71	15038
2026-01-21 12:01:12.08	206.33	71.52	-50.4	-62.3	3.8	8.47e-01	0	40	104	0	71	15022
2026-01-21 12:01:13.09	207.53	71.83	-50.4	-62.3	3.8	8.45e-01	0	40	104	0	71	15019
2026-01-21 12:01:14.10	208.78	72.14	-50.4	-62.3	3.8	8.45e-01	0	40	104	0	71	15047
2026-01-21 12:01:15.11	210.07	72.44	-50.4	-62.3	3.8	8.46e-01	0	40	104	0	71	14985
2026-01-21 12:01:16.11	211.39	72.72	-50.4	-62.4	3.8	8.47e-01	0	40	104	0	71	15059
2026-01-21 12:01:17.12	212.78	73.00	-50.4	-62.4	3.8	8.47e-01	0	40	104	0	71	15055
2026-01-21 12:01:18.13	214.21	73.27	-50.4	-62.3	3.8	8.46e-01	0	40	104	0	71	14991
2026-01-21 12:01:19.14	215.69	73.53	-50.4	-62.3	3.8	8.46e-01	0	40	104	0	71	15046
2026-01-21 12:01:20.15	217.22	73.79	-50.4	-62.3	3.8	8.46e-01	0	40	104	0	71	15017
2026-01-21 12:01:21.15	218.78	74.02	-50.4	-62.3	3.8	8.46e-01	0	40	104	0	71	14987
2026-01-21 12:01:22.16	220.40	74.25	-50.4	-62.3	3.8	8.46e-01	0	40	104	0	71	14979
2026-01-21 12:01:23.17	222.08	74.47	-50.4	-62.3	3.8	8.45e-01	0	40	104	0	71	14990
2026-01-21 12:01:24.18	223.80	74.68	-50.4	-62.3	3.8	8.46e-01	0	40	104	0	71	15012
2026-01-21 12:01:25.18	225.55	74.86	-50.4	-62.3	3.8	8.46e-01	0	40	104	0	71	15025
2026-01-21 12:01:26.19	227.37	75.04	-50.4	-62.3	3.8	8.46e-01	0	40	104	0	71	14978
2026-01-21 12:01:27.20	229.22	75.21	-50.4	-62.3	3.8	8.47e-01	0	40	104	0	71	15019
2026-01-21 12:01:28.21	231.12	75.35	-50.4	-62.3	3.8	8.47e-01	0	40	104	0	71	14983
2026-01-21 12:01:29.22	233.06	75.49	-50.4	-62.3	3.8	8.45e-01	0	40	104	0	71	15011
2026-01-21 12:01:30.23	235.03	75.60	-50.4	-62.4	3.8	8.47e-01	0	40	104	0	71	15052
2026-01-21 12:01:31.24	237.03	75.70	-50.4	-62.3	3.8	8.45e-01	0	40	104	0	71	14996
2026-01-21 12:01:32.25	239.06	75.78	-50.4	-62.3	3.8	8.46e-01	0	40	104	0	71	15032
2026-01-21 12:01:33.25	241.09	75.85	-50.4	-62.4	3.8	8.47e-01	0	40	104	0	71	15055
2026-01-21 12:01:34.26	243.15	75.90	-50.4	-62.3	3.8	8.46e-01	0	40	104	0	71	14968
2026-01-21 12:01:35.27	245.23	75.93	-50.4	-62.3	3.8	8.46e-01	0	40	104	0	71	15020
2026-01-21 12:01:36.28	247.32	75.94	-50.4	-62.3	3.8	8.46e-01	0	40	104	0	71	15035
2026-01-21 12:01:37.29	249.40	75.93	-50.4	-62.3	3.8	8.45e-01	0	40	104	0	71	15025
2026-01-21 12:01:38.30	251.48	75.91	-50.4	-62.3	3.8	8.46e-01	0	40	104	0	71	15042
2026-01-21 12:01:39.31	253.55	75.87	-50.4	-62.3	3.8	8.47e-01	0	40	104	0	71	15025
2026-01-21 12:01:40.31	255.59	75.81	-50.4	-62.3	3.8	8.47e-01	0	40	104	0	71	14990
2026-01-21 12:01:41.32	257.63	75.74	-50.4	-62.3	3.8	8.47e-01	0	40	104	0	71	14983
2026-01-21 12:01:42.33	259.64	75.64	-50.4	-62.3	3.8	8.45e-01	0	40	104	0	71	14990
2026-01-21 12:01:43.34	261.62	75.53	-50.4	-62.3	3.8	8.46e-01	0	40	104	0	71	15035
2026-01-21 12:01:44.35	263.57	75.41	-50.4	-62.3	3.8	8.46e-01	0	40	104	0	71	14994
2026-01-21 12:01:45.35	265.46	75.27	-50.4	-62.3	3.8	8.46e-01	0	40	104	0	71	15009
2026-01-21 12:01:46.36	267.34	75.11	-50.4	-62.3	3.8	8.47e-01	0	40	104	0	71	14970
2026-01-21 12:01:47.37	269.17	74.94	-50.4	-62.3	3.8	8.46e-01	0	40	104	0	71	14999
2026-01-21 12:01:48.38	270.95	74.75	-50.4	-62.4	3.8	8.46e-01	0	40	104	0	71	15061
2026-01-21 12:01:49.38	272.68	74.55	-50.4	-62.4	3.8	8.46e-01	0	40	104	0	71	15066
2026-01-21 12:01:50.39	274.37	74.34	-50.4	-62.3	3.8	8.46e-01	0	40	104	0	71	14990
2026-01-21 12:01:51.40	276.01	74.12	-50.4	-62.3	3.8	8.46e-01	0	40	104	0	71	15045
2026-01-21 12:01:52.41	277.61	73.88	-50.4	-62.3	3.8	8.46e-01	0	40	104	0	71	15042
2026-01-21 12:01:53.42	279.16	73.63	-50.4	-62.3	3.8	8.48e-01	0	40	104	0	71	15012
2026-01-21 12:01:54.42	280.64	73.38	-50.4	-62.4	3.8	8.47e-01	0	40	104	0	71	15052
2026-01-21 12:01:55.43	282.09	73.11	-50.4	-62.3	3.8	8.48e-01	0	40	104	0	71	15035
2026-01-21 12:01:56.44	283.49	72.83	-50.4	-62.3	3.8	8.44e-01	0	40	104	0	71	15003
2026-01-21 12:01:57.45	284.84	72.55	-50.4	-62.3	3.8	8.46e-01	0	40	104	0	71	14988
2026-01-21 12:01:58.46	286.15	72.26	-50.4	-62.3	3.8	8.47e-01	0	40	104	0	71	14995
2026-01-21 12:01:59.47	287.41	71.96	-50.4	-62.3	3.8	8.46e-01	0	40	104	0	71	15026
2026-01-21 12:02:00.45	288.59	71.66	-50.4	-62.3	3.8	8.47e-01	0	40	104	0	71	15012
2026-01-21 12:02:01.46	289.77	71.34	-50.4	-62.3	3.8	8.45e-01	0	40	104	0	71	15010
2026-01-21 12:02:02.47	290.91	71.02	-50.4	-62.3	3.8	8.47e-01	0	40	104	0	71	15004
2026-01-21 12:02:03.48	292.00	70.70	-50.4	-62.4	3.8	8.46e-01	0	40	104	0	71	15066
2026-01-21 12:02:04.49	293.06	70.36	-50.4	-62.3	3.8	8.47e-01	0	40	104	0	71	15024
2026-01-21 12:02:05.50	294.08	70.03	-50.4	-62.3	3.8	8.47e-01	0	40	104	0	71	15026
2026-01-21 12:02:06.50	295.05	69.69	-50.4	-62.3	3.8	8.46e-01	0	40	104	0	71	15011
2026-01-21 12:02:07.51	296.00	69.35	-50.4	-62.3	3.8	8.46e-01	0	41	104	0	71	15007
2026-01-21 12:02:08.52	296.91	69.00	-50.4	-62.3	3.8	8.46e-01	0	40	104	0	71	15017
2026-01-21 12:02:09.53	297.79	68.65	-50.4	-62.3	3.8	8.47e-01	0	40	104	0	71	15040
2026-01-21 12:02:10.54	298.64	68.29	-50.4	-62.3	3.8	8.47e-01	0	40	104	0	71	15014
2026-01-21 12:02:11.55	299.47	67.93	-50.4	-62.3	3.8	8.46e-01	0	40	104	0	71	15001
2026-01-21 12:02:12.55	300.25	67.58	-50.4	-62.3	3.8	8.47e-01	0	40	104	0	71	15037
2026-01-21 12:02:13.56	301.02	67.21	-50.4	-62.3	3.8	8.47e-01	0	40	104	0	71	14971
2026-01-21 12:02:14.57	301.76	66.85	-50.4	-62.3	3.8	8.47e-01	0	40	104	0	71	15026
2026-01-21 12:02:15.58	302.47	66.48	-50.4	-62.3	3.8	8.47e-01	0	40	104	0	71	14999
2026-01-21 12:02:16.58	303.16	66.12	-50.4	-62.3	3.8	8.46e-01	0	40	104	0	71	15042
2026-01-21 12:02:17.59	303.83	65.75	-50.4	-62.3	3.8	8.45e-01	0	40	104	0	71	14989
2026-01-21 12:02:18.60	304.47	65.38	-50.4	-62.3	3.8	8.46e-01	0	40	104	0	71	15018
2026-01-21 12:02:19.61	305.10	65.01	-50.4	-62.3	3.8	8.46e-01	0	40	104	0	71	15007
2026-01-21 12:02:20.62	305.70	64.64	-50.4	-62.3	3.8	8.45e-01	0	40	104	0	71	15048
2026-01-21 12:02:21.63	306.29	64.27	-50.4	-62.3	3.8	8.47e-01	0	40	104	0	71	15029
2026-01-21 12:02:22.63	306.85	63.90	-50.4	-62.3	3.8	8.46e-01	0	40	104	0	71	14984
2026-01-21 12:02:23.64	307.40	63.52	-50.4	-62.3	3.8	8.45e-01	0	40	104	0	71	14997
2026-01-21 12:02:24.65	307.93	63.15	-50.4	-62.3	3.8	8.46e-01	0	40	104	0	71	14991
2026-01-21 12:02:25.66	308.45	62.78	-50.4	-62.4	3.8	8.46e-01	0	40	104	0	71	15052
2026-01-21 12:02:26.67	308.95	62.40	-50.4	-62.3	3.8	8.46e-01	0	40	104	0	71	15000
2026-01-21 12:02:27.67	309.43	62.04	-50.4	-62.3	3.8	8.47e-01	0	40	104	0	71	14989
2026-01-21 12:02:28.68	309.90	61.66	-50.4	-62.3	3.8	8.45e-01	0	40	104	0	71	14995
2026-01-21 12:02:29.69	310.36	61.29	-50.4	-62.3	3.8	8.47e-01	0	40	104	0	71	15004
2026-01-21 12:02:30.70	310.80	60.92	-50.4	-62.3	3.8	8.46e-01	0	40	104	0	71	15016
2026-01-21 12:02:31.71	311.24	60.55	-50.4	-62.3	3.8	8.46e-01	0	40	104	0	71	14996
2026-01-21 12:02:32.71	311.65	60.18	-50.4	-62.3	3.8	8.46e-01	0	40	104	0	71	15040
2026-01-21 12:02:33.72	312.06	59.81	-50.4	-62.3	3.8	8.45e-01	0	40	104	0	71	15026
2026-01-21 12:02:34.73	312.45	59.45	-50.4	-62.3	3.8	8.47e-01	0	40	104	0	71	15031
2026-01-21 12:02:35.74	312.84	59.08	-50.4	-62.3	3.8	8.46e-01	0	40	104	0	71	15010
2026-01-21 12:02:36.75	313.21	58.71	-50.4	-62.3	3.8	8.47e-01	0	40	104	0	71	15021
2026-01-21 12:02:37.75	313.58	58.35	-50.4	-62.3	3.8	8.47e-01	0	40	104	0	71	15011
2026-01-21 12:02:38.76	313.93	57.99	-50.4	-62.3	3.8	8.44e-01	0	40	104	0	71	15037
2026-01-21 12:02:39.77	314.28	57.63	-50.4	-62.3	3.8	8.47e-01	0	40	104	0	71	14953
2026-01-21 12:02:40.78	314.61	57.27	-50.4	-62.3	3.8	8.46e-01	0	40	104	0	71	14983
2026-01-21 12:02:41.79	314.94	56.91	-50.4	-62.3	3.8	8.48e-01	0	40	104	0	71	14996
2026-01-21 12:02:42.79	315.26	56.55	-50.4	-62.3	3.8	8.46e-01	0	40	104	0	71	15014
2026-01-21 12:02:43.80	315.57	56.20	-50.4	-62.3	3.8	8.46e-01	0	40	104	0	71	15006
2026-01-21 12:02:44.81	315.87	55.84	-50.4	-62.3	3.8	8.46e-01	0	40	104	0	71	14970
2026-01-21 12:02:45.82	316.17	55.49	-50.4	-62.3	3.8	8.46e-01	0	40	104	0	71	15043
2026-01-21 12:02:46.83	316.46	55.14	-50.4	-62.3	3.8	8.47e-01	0	40	104	0	71	15046
2026-01-21 12:02:47.83	316.74	54.79	-50.4	-62.3	3.8	8.46e-01	0	40	104	0	71	15021
2026-01-21 12:02:48.84	317.01	54.44	-50.4	-62.3	3.8	8.46e-01	0	40	104	0	71	15040
2026-01-21 12:02:49.85	317.28	54.09	-50.4	-62.3	3.8	8.47e-01	0	40	104	0	71	15032
2026-01-21 12:02:50.86	317.54	53.75	-50.4	-62.3	3.8	8.48e-01	0	40	104	0	71	15001
2026-01-21 12:02:51.87	317.80	53.41	-50.4	-62.3	3.8	8.45e-01	0	40	104	0	71	15010
2026-01-21 12:02:52.87	318.05	53.07	-50.4	-62.3	3.8	8.46e-01	0	40	104	0	71	15004
2026-01-21 12:02:53.88	318.29	52.73	-50.4	-62.3	3.8	8.47e-01	0	40	104	0	71	15023
2026-01-21 12:02:54.89	318.53	52.39	-50.4	-62.3	3.8	8.46e-01	0	40	104	0	71	15022
2026-01-21 12:02:55.90	318.77	52.05	-50.4	-62.3	3.8	8.46e-01	0	40	104	0	71	15029
2026-01-21 12:02:56.91	319.00	51.72	-50.4	-62.3	3.8	8.46e-01	0	40	104	0	71	15034
2026-01-21 12:02:57.92	319.22	51.39	-50.4	-62.3	3.8	8.46e-01	0	40	104	0	71	15008
2026-01-21 12:02:58.93	319.44	51.06	-50.4	-62.4	3.8	8.46e-01	0	40	104	0	71	15062
2026-01-21 12:02:59.93	319.65	50.73	-50.4	-62.3	3.8	8.47e-01	0	40	104	0	71	14914
2026-01-21 12:03:00.94	319.86	50.41	-50.4	-62.3	3.8	8.46e-01	0	40	104	0	71	14977
2026-01-21 12:03:01.95	320.07	50.08	-50.4	-62.3	3.8	8.47e-01	0	40	104	0	71	14960
2026-01-21 12:03:02.95	320.27	49.76	-50.4	-62.3	3.8	8.48e-01	0	40	104	0	71	14983
2026-01-21 12:03:03.96	320.47	49.44	-50.4	-62.3	3.8	8.45e-01	0	40	104	0	71	14988
2026-01-21 12:03:04.97	320.66	49.12	-50.4	-62.3	3.8	8.46e-01	0	40	104	0	71	14998
2026-01-21 12:03:05.98	320.85	48.80	-50.4	-62.3	3.8	8.47e-01	0	40	104	0	71	14990
2026-01-21 12:03:06.99	321.04	48.49	-50.4	-62.3	3.8	8.46e-01	0	40	104	0	71	15002
2026-01-21 12:03:07.99	321.22	48.18	-50.4	-62.3	3.8	8.46e-01	0	40	104	0	71	15027
2026-01-21 12:03:09.00	321.39	47.87	-50.4	-62.3	3.8	8.46e-01	0	40	104	0	71	15015
2026-01-21 12:03:10.01	321.57	47.56	-50.4	-62.3	3.8	8.45e-01	0	40	104	0	71	14971
2026-01-21 12:03:11.02	321.74	47.25	-50.4	-62.3	3.8	8.46e-01	0	40	104	0	71	14953
2026-01-21 12:03:12.03	321.91	46.95	-50.4	-62.3	3.8	8.46e-01	0	40	104	0	71	14971
2026-01-21 12:03:13.03	322.07	46.65	-50.4	-62.3	3.8	8.47e-01	0	40	104	0	71	15014
2026-01-21 12:03:14.04	322.24	46.35	-50.4	-62.3	3.8	8.46e-01	0	40	104	0	71	14966
2026-01-21 12:03:15.05	322.40	46.05	-50.4	-62.3	3.8	8.45e-01	0	40	104	0	71	14941
2026-01-21 12:03:16.06	322.55	45.75	-50.4	-62.3	3.8	8.47e-01	0	40	104	0	71	14988
2026-01-21 12:03:17.06	322.70	45.46	-50.4	-62.3	3.8	8.47e-01	0	40	104	0	71	14966
2026-01-21 12:03:18.07	322.86	45.16	-50.4	-62.3	3.8	8.46e-01	0	40	104	0	71	14940
2026-01-21 12:03:19.08	323.00	44.87	-50.4	-62.3	3.8	8.47e-01	0	40	104	0	71	14977
2026-01-21 12:03:20.09	323.15	44.58	-50.4	-62.3	3.8	8.46e-01	0	40	104	0	71	15009
2026-01-21 12:03:21.10	323.29	44.29	-50.4	-62.3	3.8	8.47e-01	0	40	104	0	71	14989
2026-01-21 12:03:22.10	323.43	44.01	-50.4	-62.3	3.8	8.46e-01	0	40	104	0	71	14986
2026-01-21 12:03:23.11	323.57	43.73	-50.4	-62.3	3.8	8.47e-01	0	40	104	0	71	15000
2026-01-21 12:03:24.12	323.71	43.45	-50.4	-62.3	3.8	8.46e-01	0	40	104	0	71	14974
2026-01-21 12:03:25.13	323.84	43.17	-50.4	-62.3	3.8	8.47e-01	0	40	104	0	71	14957
2026-01-21 12:03:26.13	323.97	42.89	-50.4	-62.3	3.8	8.46e-01	0	40	104	0	71	14980
2026-01-21 12:03:27.14	324.10	42.61	-50.4	-62.3	3.8	8.45e-01	0	40	104	0	71	15024
2026-01-21 12:03:28.15	324.23	42.34	-50.4	-62.3	3.8	8.45e-01	0	40	104	0	71	14992
2026-01-21 12:03:29.16	324.35	42.07	-50.4	-62.3	3.8	8.46e-01	0	40	104	0	71	15007
2026-01-21 12:03:30.16	324.47	41.80	-50.4	-62.3	3.8	8.46e-01	0	40	104	0	71	14977
2026-01-21 12:03:31.17	324.59	41.53	-50.4	-62.3	3.8	8.46e-01	0	40	104	0	71	14955
2026-01-21 12:03:32.18	324.71	41.26	-50.4	-62.3	3.8	8.47e-01	0	40	104	0	71	14986
2026-01-21 12:03:33.19	324.83	41.00	-50.4	-62.3	3.8	8.46e-01	0	40	104	0	71	15015
2026-01-21 12:03:34.20	324.95	40.74	-50.4	-62.3	3.8	8.46e-01	0	40	104	0	71	14964
2026-01-21 12:03:35.20	325.06	40.48	-50.4	-62.3	3.8	8.45e-01	0	40	104	0	71	14975
2026-01-21 12:03:36.21	325.17	40.22	-50.4	-62.3	3.8	8.46e-01	0	40	104	0	71	14966
2026-01-21 12:03:37.22	325.28	39.96	-50.4	-62.3	3.8	8.45e-01	0	40	104	0	71	14993
2026-01-21 12:03:38.23	325.39	39.70	-50.4	-62.3	3.8	8.45e-01	0	40	104	0	71	15051
2026-01-21 12:03:39.24	325.50	39.45	-50.4	-62.3	3.8	8.46e-01	0	40	104	0	71	15042
2026-01-21 12:03:40.25	325.60	39.20	-50.4	-62.3	3.8	8.46e-01	0	40	104	0	71	15044
2026-01-21 12:03:41.25	325.70	38.95	-50.4	-62.3	3.8	8.47e-01	0	40	104	0	71	15038
2026-01-21 12:03:42.26	325.81	38.70	-50.4	-62.3	3.8	8.46e-01	0	40	104	0	71	15011
2026-01-21 12:03:43.27	325.91	38.45	-50.4	-62.3	3.8	8.46e-01	0	40	104	0	71	14978
2026-01-21 12:03:44.28	326.01	38.21	-50.4	-62.3	3.8	8.46e-01	0	40	104	0	71	14997
2026-01-21 12:03:45.28	326.10	37.96	-50.4	-62.3	3.8	8.45e-01	0	40	104	0	71	14991
2026-01-21 12:03:46.29	326.20	37.72	-50.4	-62.4	3.8	8.46e-01	0	40	104	0	71	15053
2026-01-21 12:03:47.30	326.29	37.48	-50.4	-62.3	3.8	8.46e-01	0	40	104	0	71	15008
2026-01-21 12:03:48.31	326.39	37.24	-50.4	-62.3	3.8	8.46e-01	0	40	104	0	71	14995
2026-01-21 12:03:49.32	326.48	37.01	-50.4	-62.3	3.8	8.46e-01	0	40	104	0	71	15027
2026-01-21 12:03:50.33	326.57	36.77	-50.4	-62.3	3.8	8.46e-01	0	40	104	0	71	14976
2026-01-21 12:03:51.34	326.66	36.54	-50.4	-62.3	3.8	8.47e-01	0	40	104	0	71	15023
2026-01-21 12:03:52.34	326.75	36.31	-50.4	-62.3	3.8	8.45e-01	0	40	104	0	71	14969
2026-01-21 12:03:53.35	326.84	36.07	-50.4	-62.3	3.8	8.47e-01	0	40	104	0	71	14968
2026-01-21 12:03:54.36	326.92	35.85	-50.4	-62.3	3.8	8.46e-01	0	40	104	0	71	14995
2026-01-21 12:03:55.37	327.01	35.62	-50.4	-62.3	3.8	8.45e-01	0	40	104	0	71	14967
2026-01-21 12:03:56.37	327.09	35.39	-50.4	-62.3	3.8	8.48e-01	0	40	104	0	71	15039
2026-01-21 12:03:57.38	327.18	35.17	-50.4	-62.3	3.8	8.46e-01	0	40	104	0	71	15012
2026-01-21 12:03:58.39	327.26	34.95	-50.4	-62.3	3.8	8.46e-01	0	40	104	0	71	14965
2026-01-21 12:03:59.40	327.34	34.72	-50.4	-62.3	3.8	8.46e-01	0	40	104	0	71	15001
2026-01-21 12:04:00.40	327.42	34.51	-50.4	-62.3	3.8	8.46e-01	0	40	104	0	71	15021
2026-01-21 12:04:01.41	327.50	34.29	-50.4	-62.3	3.8	8.47e-01	0	40	104	0	71	15043
2026-01-21 12:04:02.42	327.58	34.07	-50.4	-62.3	3.8	8.45e-01	0	40	104	0	71	15011
2026-01-21 12:04:03.42	327.65	33.86	-50.4	-62.3	3.8	8.46e-01	0	40	104	0	71	14928
2026-01-21 12:04:04.43	327.73	33.64	-50.4	-62.3	3.8	8.46e-01	0	40	104	0	71	15038
2026-01-21 12:04:05.44	327.80	33.43	-50.4	-62.3	3.8	8.46e-01	0	40	104	0	71	15023
2026-01-21 12:04:06.45	327.88	33.22	-50.4	-62.3	3.8	8.46e-01	0	40	104	0	71	15032
2026-01-21 12:04:07.46	327.95	33.01	-50.4	-62.3	3.8	8.46e-01	0	40	104	0	71	15012
2026-01-21 12:04:08.47	328.02	32.80	-50.4	-62.3	3.8	8.46e-01	0	40	104	0	71	14987
2026-01-21 12:04:09.47	328.09	32.59	-50.4	-62.3	3.8	8.47e-01	0	40	104	0	71	14987
2026-01-21 12:04:10.48	328.17	32.39	-50.4	-62.3	3.8	8.46e-01	0	40	104	0	71	14984
2026-01-21 12:04:11.49	328.23	32.18	-50.4	-62.3	3.8	8.47e-01	0	40	104	0	71	15000
2026-01-21 12:04:12.50	328.30	31.98	-50.4	-62.3	3.8	8.48e-01	0	40	104	0	71	14978
2026-01-21 12:04:13.50	328.37	31.78	-50.4	-62.3	3.8	8.46e-01	0	40	104	0	71	14970
2026-01-21 12:04:14.51	328.44	31.58	-50.4	-62.3	3.8	8.46e-01	0	40	104	0	71	15013
2026-01-21 12:04:15.52	328.51	31.38	-50.4	-62.3	3.8	8.46e-01	0	40	104	0	71	14986
2026-01-21 12:04:16.53	328.57	31.18	-50.4	-62.3	3.8	8.47e-01	0	40	104	0	71	14991
2026-01-21 12:04:17.54	328.64	30.99	-50.4	-62.3	3.8	8.47e-01	0	40	104	0	71	15043
2026-01-21 12:04:18.54	328.70	30.79	-50.4	-62.3	3.8	8.46e-01	0	40	104	0	71	14991
2026-01-21 12:04:19.55	328.76	30.60	-50.4	-62.3	3.8	8.47e-01	0	40	104	0	71	15017
2026-01-21 12:04:20.56	328.83	30.41	-50.4	-62.3	3.8	8.46e-01	0	40	104	0	71	15045
2026-01-21 12:04:21.57	328.89	30.22	-50.4	-62.3	3.8	8.46e-01	0	40	104	0	71	15048
2026-01-21 12:04:22.58	328.95	30.03	-50.4	-62.3	3.8	8.46e-01	0	40	104	0	71	14989
2026-01-21 12:04:23.58	329.01	29.84	-50.4	-62.3	3.8	8.46e-01	0	40	104	0	71	15036
2026-01-21 12:04:24.59	329.07	29.65	-50.4	-62.3	3.8	8.46e-01	0	40	104	0	71	15027
2026-01-21 12:04:25.60	329.13	29.46	-50.4	-62.3	3.8	8.45e-01	0	40	104	0	71	14959
2026-01-21 12:04:26.61	329.19	29.28	-50.4	-62.3	3.8	8.46e-01	0	40	104	0	71	15003
2026-01-21 12:04:27.62	329.25	29.10	-50.4	-62.3	3.8	8.46e-01	0	40	104	0	71	15000
2026-01-21 12:04:28.63	329.31	28.91	-50.4	-62.3	3.8	8.46e-01	0	40	104	0	71	15036
2026-01-21 12:04:29.63	329.36	28.73	-50.4	-62.3	3.8	8.46e-01	0	40	104	0	71	15039
2026-01-21 12:04:30.64	329.42	28.55	-50.4	-62.3	3.8	8.47e-01	0	40	104	0	71	15042
2026-01-21 12:04:31.65	329.48	28.37	-50.4	-62.3	3.8	8.46e-01	0	40	104	0	71	15025
2026-01-21 12:04:32.66	329.53	28.19	-50.4	-62.3	3.8	8.47e-01	0	40	104	0	71	15018
2026-01-21 12:04:33.67	329.59	28.02	-50.4	-62.3	3.8	8.47e-01	0	40	104	0	71	15026
2026-01-21 12:04:34.67	329.64	27.84	-50.4	-62.3	3.8	8.46e-01	0	40	104	0	71	15033
2026-01-21 12:04:35.68	329.70	27.67	-50.4	-62.3	3.8	8.47e-01	0	40	104	0	71	15041
2026-01-21 12:04:36.69	329.75	27.49	-50.4	-62.3	3.8	8.47e-01	0	40	104	0	71	14963
2026-01-21 12:04:37.70	329.80	27.32	-50.4	-62.4	3.8	8.47e-01	0	40	104	0	71	15052
2026-01-21 12:04:38.71	329.85	27.15	-50.4	-62.3	3.8	8.46e-01	0	40	104	0	71	14974
2026-01-21 12:04:39.71	329.91	26.98	-50.4	-62.3	3.8	8.46e-01	0	40	104	0	71	15022
2026-01-21 12:04:40.72	329.96	26.81	-50.4	-62.3	3.8	8.46e-01	0	40	104	0	71	14932
2026-01-21 12:04:41.73	330.01	26.64	-50.4	-62.3	3.8	8.46e-01	0	40	104	0	71	15000
2026-01-21 12:04:42.74	330.06	26.47	-50.4	-62.3	3.8	8.46e-01	0	40	104	0	71	15007
2026-01-21 12:04:43.75	330.11	26.31	-50.4	-62.3	3.8	8.45e-01	0	40	104	0	71	14988
2026-01-21 12:04:44.75	330.16	26.14	-50.4	-62.3	3.8	8.47e-01	0	40	104	0	71	15018
2026-01-21 12:04:45.76	330.20	25.98	-50.4	-62.3	3.8	8.46e-01	0	40	104	0	71	14966
2026-01-21 12:04:46.77	330.25	25.81	-50.4	-62.3	3.8	8.46e-01	0	40	104	0	71	14973
2026-01-21 12:04:47.78	330.30	25.65	-50.4	-62.3	3.8	8.47e-01	0	40	104	0	71	15034
2026-01-21 12:04:48.79	330.35	25.49	-50.4	-62.3	3.8	8.46e-01	0	40	104	0	71	14990
2026-01-21 12:04:49.79	330.40	25.33	-50.4	-62.3	3.8	8.47e-01	0	40	104	0	71	15051
2026-01-21 12:04:50.80	330.44	25.17	-50.4	-62.3	3.8	8.46e-01	0	40	104	0	71	14989
2026-01-21 12:04:51.81	330.49	25.01	-50.4	-62.3	3.8	8.46e-01	0	40	104	0	71	15027
2026-01-21 12:04:52.82	330.53	24.85	-50.4	-62.3	3.8	8.47e-01	0	40	104	0	71	14969
2026-01-21 12:04:53.82	330.58	24.70	-50.4	-62.3	3.8	8.47e-01	0	40	104	0	71	15042
2026-01-21 12:04:54.83	330.62	24.54	-50.4	-62.3	3.8	8.46e-01	0	40	104	0	71	14990
2026-01-21 12:04:55.84	330.67	24.39	-50.4	-62.3	3.8	8.46e-01	0	40	104	0	71	15016
2026-01-21 12:04:56.85	330.71	24.23	-50.4	-62.3	3.8	8.46e-01	0	40	104	0	71	15051
2026-01-21 12:04:57.86	330.76	24.08	-50.4	-62.3	3.8	8.46e-01	0	40	104	0	71	15001
2026-01-21 12:04:58.86	330.80	23.93	-50.4	-62.3	3.8	8.46e-01	0	40	104	0	71	14985
2026-01-21 12:04:59.87	330.84	23.78	-50.4	-62.4	3.8	8.46e-01	0	40	104	0	71	15076
2026-01-21 12:05:00.88	330.89	23.63	-50.4	-62.3	3.8	8.45e-01	0	40	104	0	71	15016
2026-01-21 12:05:01.89	330.93	23.48	-50.4	-62.3	3.8	8.46e-01	0	40	104	0	71	15015
2026-01-21 12:05:02.90	330.97	23.33	-50.4	-62.3	3.8	8.45e-01	0	40	104	0	71	15024
2026-01-21 12:05:03.90	331.01	23.18	-50.4	-62.3	3.8	8.46e-01	0	40	104	0	71	15025
2026-01-21 12:05:04.91	331.05	23.03	-50.4	-62.3	3.8	8.47e-01	0	40	104	0	71	15016
2026-01-21 12:05:05.92	331.09	22.89	-50.4	-62.3	3.8	8.46e-01	0	40	104	0	71	14987
2026-01-21 12:05:06.93	331.13	22.74	-50.4	-62.3	3.8	8.46e-01	0	40	104	0	71	15015
2026-01-21 12:05:07.94	331.17	22.60	-50.4	-62.3	3.8	8.46e-01	0	40	104	0	71	15013
2026-01-21 12:05:08.95	331.21	22.45	-50.4	-62.3	3.8	8.47e-01	0	40	104	0	71	14986
2026-01-21 12:05:09.95	331.25	22.31	-50.4	-62.3	3.8	8.47e-01	0	40	104	0	71	15019
2026-01-21 12:05:10.96	331.29	22.17	-50.4	-62.3	3.8	8.46e-01	0	40	104	0	71	14995
2026-01-21 12:05:11.97	331.33	22.03	-50.4	-62.3	3.8	8.45e-01	0	40	104	0	71	15016
2026-01-21 12:05:12.98	331.37	21.88	-50.4	-62.3	3.8	8.47e-01	0	40	104	0	71	15005
2026-01-21 12:05:13.98	331.41	21.75	-50.4	-62.3	3.8	8.47e-01	0	40	104	0	71	15003
2026-01-21 12:05:14.99	331.45	21.61	-50.4	-62.3	3.8	8.46e-01	0	40	104	0	71	15014
2026-01-21 12:05:16.00	331.48	21.47	-50.4	-62.3	3.8	8.45e-01	0	40	104	0	71	15009
2026-01-21 12:05:17.01	331.52	21.33	-50.4	-62.3	3.8	8.46e-01	0	40	104	0	71	15033
2026-01-21 12:05:18.01	331.56	21.19	-50.4	-62.3	3.8	8.46e-01	0	40	104	0	71	14988
2026-01-21 12:05:19.02	331.59	21.06	-50.4	-62.3	3.8	8.47e-01	0	40	104	0	71	14997
2026-01-21 12:05:20.03	331.63	20.92	-50.4	-62.3	3.8	8.46e-01	0	40	104	0	71	14971
2026-01-21 12:05:21.04	331.67	20.79	-50.4	-62.3	3.8	8.46e-01	0	40	104	0	71	15017
2026-01-21 12:05:22.04	331.70	20.65	-50.4	-62.3	3.8	8.46e-01	0	40	104	0	71	14989
2026-01-21 12:05:23.05	331.74	20.52	-50.4	-62.3	3.8	8.45e-01	0	40	104	0	71	15003
2026-01-21 12:05:24.06	331.77	20.39	-50.4	-62.3	3.8	8.45e-01	0	40	104	0	71	15016
2026-01-21 12:05:25.07	331.81	20.26	-50.4	-62.4	3.8	8.46e-01	0	40	104	0	71	15072
2026-01-21 12:05:26.07	331.84	20.13	-50.4	-62.4	3.8	8.46e-01	0	40	104	0	71	15059
2026-01-21 12:05:27.08	331.88	19.99	-50.4	-62.3	3.8	8.45e-01	0	40	104	0	71	15026
2026-01-21 12:05:28.09	331.91	19.86	-50.4	-62.3	3.8	8.45e-01	0	40	104	0	71	15040
2026-01-21 12:05:29.10	331.95	19.73	-50.4	-62.3	3.8	8.45e-01	0	40	104	0	71	14969
2026-01-21 12:05:30.11	331.98	19.61	-50.4	-62.3	3.8	8.47e-01	0	40	104	0	71	14989
2026-01-21 12:05:31.12	332.01	19.48	-50.4	-62.3	3.8	8.45e-01	0	40	104	0	71	15021
2026-01-21 12:05:32.13	332.05	19.35	-50.4	-62.3	3.8	8.47e-01	0	40	104	0	71	14993
2026-01-21 12:05:33.13	332.08	19.22	-50.4	-62.3	3.8	8.47e-01	0	40	104	0	71	14999
2026-01-21 12:05:34.14	332.11	19.10	-50.4	-62.3	3.8	8.46e-01	0	40	104	0	71	14969
2026-01-21 12:05:35.15	332.15	18.97	-50.4	-62.3	3.8	8.46e-01	0	40	104	0	71	15006
2026-01-21 12:05:36.15	332.18	18.85	-50.4	-62.3	3.8	8.46e-01	0	40	104	0	71	14975
2026-01-21 12:05:37.16	332.21	18.72	-50.4	-62.3	3.8	8.47e-01	0	40	104	0	71	15032
2026-01-21 12:05:38.17	332.24	18.60	-50.4	-62.3	3.8	8.47e-01	0	40	104	0	71	14984
2026-01-21 12:05:39.18	332.27	18.48	-50.4	-62.3	3.8	8.47e-01	0	40	104	0	71	15031
2026-01-21 12:05:40.19	332.31	18.36	-50.4	-62.3	3.8	8.46e-01	0	40	104	0	71	14983
2026-01-21 12:05:41.19	332.34	18.23	-50.4	-62.3	3.8	8.46e-01	0	40	104	0	71	15046
2026-01-21 12:05:42.20	332.37	18.11	-50.4	-62.3	3.8	8.48e-01	0	40	104	0	71	14995
2026-01-21 12:05:43.21	332.40	17.99	-50.4	-62.3	3.8	8.45e-01	0	40	104	0	71	15018
2026-01-21 12:05:44.22	332.43	17.87	-50.4	-62.3	3.8	8.46e-01	0	40	104	0	71	14987
2026-01-21 12:05:45.22	332.46	17.75	-50.4	-62.3	3.8	8.46e-01	0	40	104	0	71	14993
2026-01-21 12:05:46.23	332.49	17.64	-50.4	-62.3	3.8	8.46e-01	0	40	104	0	71	15040
2026-01-21 12:05:47.24	332.52	17.52	-50.4	-62.3	3.8	8.45e-01	0	40	104	0	71	15015
2026-01-21 12:05:48.25	332.55	17.40	-50.4	-62.3	3.8	8.46e-01	0	40	104	0	71	15003
2026-01-21 12:05:49.26	332.58	17.28	-50.4	-62.3	3.8	8.47e-01	0	40	104	0	71	15044
2026-01-21 12:05:50.26	332.61	17.17	-50.4	-62.3	3.8	8.47e-01	0	40	104	0	71	15017
2026-01-21 12:05:51.27	332.64	17.05	-50.4	-62.3	3.8	8.46e-01	0	40	104	0	71	14966
2026-01-21 12:05:52.28	332.67	16.93	-50.4	-62.3	3.8	8.45e-01	0	40	104	0	71	15011
2026-01-21 12:05:53.29	332.70	16.82	-50.4	-62.3	3.8	8.46e-01	0	40	104	0	71	15011
2026-01-21 12:05:54.30	332.73	16.70	-50.4	-62.3	3.8	8.46e-01	0	40	104	0	71	15025
2026-01-21 12:05:55.31	332.75	16.59	-50.4	-62.3	3.8	8.46e-01	0	40	104	0	71	14956
2026-01-21 12:05:56.31	332.78	16.48	-50.4	-62.3	3.8	8.45e-01	0	40	104	0	71	14993
2026-01-21 12:05:57.32	332.81	16.37	-50.4	-62.3	3.8	8.46e-01	0	40	104	0	71	15006
2026-01-21 12:05:58.33	332.84	16.25	-50.4	-62.3	3.8	8.46e-01	0	40	104	0	71	15008
2026-01-21 12:05:59.33	332.87	16.14	-50.4	-62.3	3.8	8.46e-01	0	40	104	0	71	14981
2026-01-21 12:06:00.34	332.89	16.03	-50.4	-62.3	3.8	8.46e-01	0	40	104	0	71	14996
2026-01-21 12:06:01.35	332.92	15.92	-50.4	-62.3	3.8	8.45e-01	0	40	104	0	71	15001
2026-01-21 12:06:02.36	332.95	15.81	-50.4	-62.3	3.8	8.46e-01	0	40	104	0	71	14972
2026-01-21 12:06:03.36	332.98	15.70	-50.4	-62.3	3.8	8.46e-01	0	40	104	0	71	15006
2026-01-21 12:06:04.37	333.00	15.59	-50.4	-62.3	3.8	8.45e-01	0	40	104	0	71	15012
2026-01-21 12:06:05.38	333.03	15.48	-50.4	-62.3	3.8	8.46e-01	0	40	104	0	71	15035
2026-01-21 12:06:06.39	333.06	15.37	-50.4	-62.3	3.8	8.46e-01	0	40	104	0	71	14998
2026-01-21 12:06:07.40	333.08	15.27	-50.4	-62.3	3.8	8.46e-01	0	40	104	0	71	14965
2026-01-21 12:06:08.41	333.11	15.16	-50.4	-62.3	3.8	8.46e-01	0	40	104	0	71	15032
2026-01-21 12:06:09.42	333.14	15.05	-50.4	-62.3	3.8	8.46e-01	0	40	104	0	71	14977
2026-01-21 12:06:10.42	333.16	14.95	-50.4	-62.3	3.8	8.46e-01	0	40	104	0	71	14969
2026-01-21 12:06:11.43	333.19	14.84	-50.4	-62.3	3.8	8.46e-01	0	40	104	0	71	14954
2026-01-21 12:06:12.44	333.21	14.73	-50.4	-62.3	3.8	8.47e-01	0	40	104	0	71	14987
2026-01-21 12:06:13.45	333.24	14.63	-50.4	-62.3	3.8	8.46e-01	0	40	104	0	71	14975
2026-01-21 12:06:14.45	333.26	14.52	-50.4	-62.3	3.8	8.47e-01	0	40	104	0	71	14994
2026-01-21 12:06:15.46	333.29	14.42	-50.4	-62.3	3.8	8.46e-01	0	40	104	0	71	14934
2026-01-21 12:06:16.47	333.31	14.32	-50.4	-62.3	3.8	8.45e-01	0	40	104	0	71	14960
2026-01-21 12:06:17.48	333.34	14.21	-50.4	-62.3	3.8	8.46e-01	0	40	104	0	71	14952
2026-01-21 12:06:18.48	333.36	14.11	-50.4	-62.3	3.8	8.46e-01	0	40	104	0	71	14996
2026-01-21 12:06:19.49	333.39	14.01	-50.4	-62.3	3.8	8.47e-01	0	40	104	0	71	14977
2026-01-21 12:06:20.50	333.41	13.91	-50.4	-62.3	3.8	8.46e-01	0	40	104	0	71	15027
2026-01-21 12:06:21.51	333.44	13.80	-50.4	-62.3	3.8	8.46e-01	0	40	104	0	71	14977
2026-01-21 12:06:22.51	333.46	13.70	-50.4	-62.3	3.8	8.47e-01	0	40	104	0	71	15046
2026-01-21 12:06:23.52	333.49	13.60	-50.4	-62.3	3.8	8.45e-01	0	40	104	0	71	14951
2026-01-21 12:06:24.53	333.51	13.50	-50.4	-62.3	3.8	8.46e-01	0	40	104	0	71	14985
2026-01-21 12:06:25.54	333.53	13.40	-50.4	-62.3	3.8	8.45e-01	0	40	104	0	71	14988
2026-01-21 12:06:26.55	333.56	13.30	-50.4	-62.3	3.8	8.45e-01	0	40	104	0	71	14999
2026-01-21 12:06:27.55	333.58	13.20	-50.4	-62.3	3.8	8.46e-01	0	40	104	0	71	14957
2026-01-21 12:06:28.56	333.61	13.11	-50.4	-62.3	3.8	8.47e-01	0	40	104	0	71	15020
2026-01-21 12:06:29.57	333.63	13.01	-50.4	-62.3	3.8	8.47e-01	0	40	104	0	71	14956
2026-01-21 12:06:30.58	333.65	12.91	-50.4	-62.3	3.8	8.46e-01	0	40	104	0	71	14958
2026-01-21 12:06:31.58	333.67	12.81	-50.4	-62.3	3.8	8.46e-01	0	40	104	0	71	14969
2026-01-21 12:06:32.59	333.70	12.72	-50.4	-62.3	3.8	8.47e-01	0	40	104	0	71	14984
2026-01-21 12:06:33.60	333.72	12.62	-50.4	-62.3	3.8	8.45e-01	0	40	104	0	71	14970
2026-01-21 12:06:34.61	333.74	12.52	-50.4	-62.3	3.8	8.47e-01	0	40	104	0	71	14913
2026-01-21 12:06:35.62	333.77	12.43	-50.4	-62.3	3.8	8.47e-01	0	40	104	0	71	14954
2026-01-21 12:06:36.63	333.79	12.33	-50.4	-62.3	3.8	8.45e-01	0	40	104	0	71	14948
2026-01-21 12:06:37.64	333.81	12.23	-50.4	-62.3	3.8	8.46e-01	0	40	104	0	71	14959
2026-01-21 12:06:38.65	333.83	12.14	-50.4	-62.3	3.8	8.47e-01	0	40	104	0	71	14977
2026-01-21 12:06:39.65	333.86	12.05	-50.4	-62.3	3.8	8.46e-01	0	40	104	0	71	14971
2026-01-21 12:06:40.66	333.88	11.95	-50.4	-62.2	3.8	8.46e-01	0	40	104	0	71	14879
2026-01-21 12:06:41.67	333.90	11.86	-50.4	-62.2	3.8	8.46e-01	0	40	104	0	71	14867
2026-01-21 12:06:42.68	333.92	11.76	-50.4	-62.2	3.8	8.46e-01	0	40	104	0	71	14849
2026-01-21 12:06:43.69	333.94	11.67	-50.4	-62.3	3.8	8.45e-01	0	40	104	0	71	14904
2026-01-21 12:06:44.70	333.96	11.58	-50.4	-62.2	3.8	8.44e-01	0	40	104	0	71	14809
