passes_logs/2026/01/21/R3.2S_Murmansk/R3.2S_Murmansk__20260121_123418_AQUA_rec.log

#Pass ID: 20260121_123418_AQUA
#Satellite: AQUA
#Configuration: AQUA
#almurnet v.1.7.20251203
#Start time: 2026-01-21 12:34:19

#Version: 2.2.20231116
#Station: R3.2S_Murmansk
#Location: 33.079688 lon 68.888172 lat
#TLE: 1 27424U 02022A   26020.90316333  .00002787  00000+0  56766-3 0  9999
#TLE: 2 27424  98.4095 347.4297 0002000  71.6339 309.8236 14.61840001261750

#Time	Az	El	Level	Level2	SNR	BER	BlckErr	Temp	State	Recorded	gain1	gain2
2026-01-21 12:34:19.71	185.38	2.09	-51.8	-69.6	3.8	7.48e-01	0	38	0	0	74	29267
2026-01-21 12:34:20.72	185.43	2.15	-51.8	-69.7	3.8	7.46e-01	0	38	104	0	74	29415
2026-01-21 12:34:21.73	185.48	2.22	-51.8	-69.6	3.8	7.45e-01	0	38	104	0	74	29271
2026-01-21 12:34:22.74	185.52	2.28	-51.8	-69.6	3.8	7.43e-01	0	38	104	0	74	29288
2026-01-21 12:34:23.75	185.57	2.35	-51.8	-69.6	3.8	7.47e-01	0	38	104	0	74	29235
2026-01-21 12:34:24.75	185.62	2.41	-51.8	-69.6	3.8	7.44e-01	0	38	104	0	74	29336
2026-01-21 12:34:25.76	185.67	2.48	-51.8	-69.6	3.8	7.44e-01	0	38	104	0	74	29288
2026-01-21 12:34:26.77	185.71	2.54	-51.8	-69.6	3.8	7.44e-01	0	38	104	0	74	29300
2026-01-21 12:34:27.78	185.76	2.61	-51.8	-69.6	3.8	7.44e-01	0	38	104	0	74	29253
2026-01-21 12:34:28.79	185.81	2.67	-51.8	-69.6	3.8	7.42e-01	0	38	104	0	74	29307
2026-01-21 12:34:29.80	185.86	2.74	-51.8	-69.6	3.8	7.48e-01	0	38	104	0	74	29252
2026-01-21 12:34:30.81	185.91	2.81	-51.8	-69.6	3.8	7.44e-01	0	38	104	0	74	29285
2026-01-21 12:34:31.81	185.96	2.87	-51.8	-69.6	3.8	7.44e-01	0	38	104	0	74	29343
2026-01-21 12:34:32.82	186.01	2.94	-51.8	-69.6	3.8	7.46e-01	0	38	104	0	74	29324
2026-01-21 12:34:33.83	186.06	3.00	-51.8	-69.6	3.8	7.45e-01	0	38	104	0	74	29284
2026-01-21 12:34:34.84	186.10	3.07	-51.8	-69.6	3.8	7.47e-01	0	39	104	0	74	29273
2026-01-21 12:34:35.85	186.15	3.14	-51.8	-69.6	3.8	7.46e-01	0	38	104	0	74	29266
2026-01-21 12:34:36.85	186.20	3.20	-51.8	-69.6	3.8	7.47e-01	0	38	104	0	74	29290
2026-01-21 12:34:37.86	186.25	3.27	-51.8	-69.6	3.8	7.44e-01	0	39	104	0	74	29315
2026-01-21 12:34:38.87	186.31	3.34	-51.8	-69.6	3.8	7.43e-01	0	38	104	0	74	29262
2026-01-21 12:34:39.88	186.36	3.41	-51.8	-69.6	3.8	7.46e-01	0	38	104	0	74	29255
2026-01-21 12:34:40.89	186.41	3.47	-51.8	-69.6	3.8	7.45e-01	0	39	104	0	74	29295
2026-01-21 12:34:41.89	186.46	3.54	-51.8	-69.6	3.8	7.47e-01	0	38	104	0	74	29297
2026-01-21 12:34:42.90	186.51	3.61	-51.8	-69.6	3.8	7.44e-01	0	39	104	0	74	29307
2026-01-21 12:34:43.91	186.56	3.68	-51.8	-69.6	3.8	7.43e-01	0	38	104	0	74	29277
2026-01-21 12:34:44.92	186.61	3.75	-51.8	-69.6	3.8	7.45e-01	0	38	104	0	74	29277
2026-01-21 12:34:45.92	186.67	3.81	-51.8	-69.6	3.8	7.44e-01	0	39	104	0	74	29251
2026-01-21 12:34:46.93	186.72	3.88	-51.8	-69.6	3.8	7.43e-01	0	39	104	0	74	29323
2026-01-21 12:34:47.94	186.77	3.95	-51.8	-69.6	3.8	7.45e-01	0	39	104	0	74	29233
2026-01-21 12:34:48.95	186.82	4.02	-51.8	-69.6	3.8	7.47e-01	0	39	104	0	74	29278
2026-01-21 12:34:49.96	186.88	4.09	-51.8	-69.6	3.8	7.43e-01	0	39	104	0	74	29234
2026-01-21 12:34:50.96	186.93	4.16	-51.8	-69.6	3.8	7.48e-01	0	39	104	0	74	29275
2026-01-21 12:34:51.97	186.98	4.23	-51.8	-69.6	3.8	7.47e-01	0	39	104	0	74	29261
2026-01-21 12:34:52.98	187.04	4.30	-51.8	-69.6	3.8	7.45e-01	0	39	104	0	74	29249
2026-01-21 12:34:53.99	187.09	4.37	-51.8	-69.6	3.8	7.43e-01	0	39	104	0	74	29264
2026-01-21 12:34:55.00	187.15	4.44	-51.8	-69.6	3.8	7.42e-01	0	39	104	0	74	29270
2026-01-21 12:34:56.00	187.20	4.51	-51.8	-69.6	3.8	7.46e-01	0	38	104	0	74	29317
2026-01-21 12:34:57.01	187.26	4.58	-51.8	-69.6	3.8	7.45e-01	0	39	104	0	74	29288
2026-01-21 12:34:58.02	187.31	4.65	-51.8	-69.6	3.8	7.44e-01	0	39	104	0	74	29325
2026-01-21 12:34:59.03	187.37	4.72	-51.8	-69.6	3.8	7.42e-01	0	39	104	0	74	29252
2026-01-21 12:35:00.04	187.42	4.79	-51.8	-69.6	3.8	7.43e-01	0	39	104	0	74	29298
2026-01-21 12:35:01.05	187.48	4.86	-51.8	-69.6	3.8	7.47e-01	0	39	104	0	74	29302
2026-01-21 12:35:02.05	187.54	4.93	-51.8	-69.6	3.8	7.44e-01	0	39	104	0	74	29333
2026-01-21 12:35:03.06	187.59	5.00	-51.8	-69.7	3.8	7.45e-01	0	39	104	0	74	29349
2026-01-21 12:35:04.07	187.65	5.08	-51.8	-69.7	3.8	7.43e-01	0	39	104	0	74	29362
2026-01-21 12:35:05.08	187.71	5.15	-51.8	-69.6	3.8	7.48e-01	0	39	104	0	74	29316
2026-01-21 12:35:06.08	187.76	5.22	-51.8	-69.7	3.8	7.47e-01	0	39	104	0	74	29382
2026-01-21 12:35:07.09	187.82	5.29	-51.8	-69.6	3.8	7.47e-01	0	39	104	0	74	29332
2026-01-21 12:35:08.10	187.88	5.36	-51.8	-69.6	3.8	7.47e-01	0	39	104	0	74	29319
2026-01-21 12:35:09.11	187.94	5.44	-51.8	-69.6	3.8	7.48e-01	0	39	104	0	74	29324
2026-01-21 12:35:10.11	188.00	5.51	-51.8	-69.6	3.8	7.44e-01	0	39	104	0	74	29290
2026-01-21 12:35:11.12	188.06	5.58	-51.8	-69.6	3.8	7.47e-01	0	39	104	0	74	29313
2026-01-21 12:35:12.13	188.12	5.66	-51.8	-69.6	3.8	7.47e-01	0	39	104	0	74	29338
2026-01-21 12:35:13.14	188.17	5.73	-51.8	-69.6	3.8	7.43e-01	0	39	104	0	74	29347
2026-01-21 12:35:14.14	188.23	5.80	-51.8	-69.6	3.8	7.44e-01	0	39	104	0	74	29287
2026-01-21 12:35:15.15	188.29	5.88	-51.8	-69.6	3.8	7.44e-01	0	39	104	0	74	29340
2026-01-21 12:35:16.16	188.36	5.95	-51.8	-69.6	3.8	7.47e-01	0	39	104	0	74	29253
2026-01-21 12:35:17.17	188.42	6.03	-51.8	-69.6	3.8	7.48e-01	0	39	104	0	74	29326
2026-01-21 12:35:18.18	188.48	6.10	-51.8	-69.6	3.8	7.48e-01	0	39	104	0	74	29255
2026-01-21 12:35:19.18	188.54	6.18	-51.8	-69.6	3.8	7.45e-01	0	39	104	0	74	29273
2026-01-21 12:35:20.19	188.60	6.25	-51.8	-69.7	3.8	7.42e-01	0	39	104	0	74	29364
2026-01-21 12:35:21.20	188.66	6.33	-51.8	-69.7	3.8	7.46e-01	0	39	104	0	74	29391
2026-01-21 12:35:22.21	188.73	6.40	-51.8	-69.6	3.8	7.45e-01	0	39	104	0	74	29345
2026-01-21 12:35:23.22	188.79	6.48	-51.8	-69.6	3.8	7.43e-01	0	39	104	0	74	29322
2026-01-21 12:35:24.22	188.85	6.55	-51.8	-69.7	3.8	7.47e-01	0	39	104	0	74	29406
2026-01-21 12:35:25.23	188.91	6.63	-51.8	-69.6	3.8	7.46e-01	0	39	104	0	74	29347
2026-01-21 12:35:26.24	188.98	6.71	-51.8	-69.6	3.8	7.43e-01	0	39	104	0	74	29309
2026-01-21 12:35:27.25	189.04	6.78	-51.8	-69.6	3.8	7.45e-01	0	39	104	0	74	29331
2026-01-21 12:35:28.26	189.11	6.86	-51.8	-69.7	3.8	7.43e-01	0	39	104	0	74	29366
2026-01-21 12:35:29.26	189.17	6.94	-51.8	-69.7	3.8	7.47e-01	0	39	104	0	74	29367
2026-01-21 12:35:30.27	189.24	7.01	-51.8	-69.7	3.8	7.45e-01	0	39	104	0	74	29372
2026-01-21 12:35:31.28	189.30	7.09	-51.8	-69.6	3.8	7.42e-01	0	39	104	0	74	29306
2026-01-21 12:35:32.29	189.37	7.17	-51.8	-69.6	3.8	7.48e-01	0	39	104	0	74	29333
2026-01-21 12:35:33.30	189.44	7.25	-51.8	-69.7	3.8	7.43e-01	0	39	104	0	74	29355
2026-01-21 12:35:34.31	189.50	7.33	-51.8	-69.6	3.8	7.43e-01	0	39	104	0	74	29322
2026-01-21 12:35:35.32	189.57	7.40	-51.8	-69.7	3.8	7.49e-01	0	39	104	0	74	29393
2026-01-21 12:35:36.33	189.64	7.48	-51.8	-69.6	3.8	7.44e-01	0	39	104	0	74	29296
2026-01-21 12:35:37.33	189.70	7.56	-51.8	-69.6	3.8	7.48e-01	0	39	104	0	74	29210
2026-01-21 12:35:38.34	189.77	7.64	-51.8	-69.6	3.8	7.45e-01	0	39	104	0	74	29281
2026-01-21 12:35:39.35	189.84	7.72	-51.8	-69.6	3.8	7.44e-01	0	39	104	0	74	29332
2026-01-21 12:35:40.36	189.91	7.80	-51.8	-69.7	3.8	7.49e-01	0	39	104	0	74	29391
2026-01-21 12:35:41.37	189.98	7.88	-51.8	-69.7	3.8	7.43e-01	0	39	104	0	74	29388
2026-01-21 12:35:42.37	190.05	7.96	-51.8	-69.7	3.8	7.47e-01	0	39	104	0	74	29372
2026-01-21 12:35:43.38	190.12	8.04	-51.8	-69.6	3.8	7.45e-01	0	39	104	0	74	29275
2026-01-21 12:35:44.39	190.19	8.12	-51.8	-69.6	3.8	7.50e-01	0	39	104	0	74	29325
2026-01-21 12:35:45.40	190.26	8.20	-51.8	-69.6	3.8	7.45e-01	0	39	104	0	74	29295
2026-01-21 12:35:46.41	190.33	8.28	-51.8	-69.6	3.8	7.43e-01	0	39	104	0	74	29287
2026-01-21 12:35:47.42	190.40	8.36	-51.8	-69.6	3.8	7.42e-01	0	39	104	0	74	29278
2026-01-21 12:35:48.43	190.48	8.45	-51.8	-69.7	3.8	7.47e-01	0	39	104	0	74	29355
2026-01-21 12:35:49.43	190.55	8.53	-51.8	-69.6	3.8	7.42e-01	0	39	104	0	74	29304
2026-01-21 12:35:50.44	190.62	8.61	-51.8	-69.7	3.8	7.44e-01	0	39	104	0	74	29358
2026-01-21 12:35:51.45	190.70	8.69	-51.8	-69.6	3.8	7.44e-01	0	39	104	0	74	29276
2026-01-21 12:35:52.46	190.77	8.78	-51.8	-69.6	3.8	7.42e-01	0	39	104	0	74	29300
2026-01-21 12:35:53.46	190.84	8.86	-51.8	-69.6	3.8	7.43e-01	0	39	104	0	74	29331
2026-01-21 12:35:54.47	190.92	8.94	-51.8	-69.6	3.8	7.46e-01	0	39	104	0	74	29335
2026-01-21 12:35:55.48	190.99	9.03	-51.8	-69.6	3.8	7.45e-01	0	39	104	0	74	29282
2026-01-21 12:35:56.49	191.07	9.11	-51.8	-69.6	3.8	7.47e-01	0	39	104	0	74	29331
2026-01-21 12:35:57.50	191.15	9.19	-51.8	-69.6	3.8	7.44e-01	0	39	104	0	74	29319
2026-01-21 12:35:58.50	191.22	9.28	-51.8	-69.7	3.8	7.44e-01	0	39	104	0	74	29366
2026-01-21 12:35:59.51	191.30	9.36	-51.8	-69.7	3.8	7.44e-01	0	39	104	0	74	29387
2026-01-21 12:36:00.52	191.38	9.45	-51.8	-69.6	3.8	7.46e-01	0	39	104	0	74	29342
2026-01-21 12:36:01.53	191.45	9.53	-51.8	-69.6	3.8	7.46e-01	0	39	104	0	74	29330
2026-01-21 12:36:02.54	191.53	9.62	-51.8	-69.7	3.8	7.45e-01	0	39	104	0	74	29385
2026-01-21 12:36:03.54	191.61	9.70	-51.8	-69.7	3.8	7.45e-01	0	39	104	0	74	29375
2026-01-21 12:36:04.55	191.69	9.79	-51.8	-69.6	3.8	7.45e-01	0	39	104	0	74	29332
2026-01-21 12:36:05.56	191.77	9.88	-51.8	-69.7	3.8	7.42e-01	0	39	104	0	74	29365
2026-01-21 12:36:06.57	191.85	9.96	-51.8	-69.6	3.8	7.44e-01	0	39	104	0	74	29310
2026-01-21 12:36:07.58	191.93	10.05	-51.8	-69.6	3.8	7.45e-01	0	39	104	0	74	29327
2026-01-21 12:36:08.59	192.01	10.14	-51.8	-69.6	3.8	7.44e-01	0	39	104	0	74	29325
2026-01-21 12:36:09.60	192.09	10.23	-51.8	-69.7	3.8	7.45e-01	0	39	104	0	74	29378
2026-01-21 12:36:10.61	192.18	10.31	-51.8	-69.7	3.8	7.45e-01	0	39	104	0	74	29360
2026-01-21 12:36:11.61	192.26	10.40	-51.8	-69.6	3.8	7.45e-01	0	39	104	0	74	29316
2026-01-21 12:36:12.62	192.34	10.49	-51.8	-69.6	3.8	7.47e-01	0	39	104	0	74	29327
2026-01-21 12:36:13.63	192.43	10.58	-51.8	-69.7	3.8	7.46e-01	0	39	104	0	74	29387
2026-01-21 12:36:14.64	192.51	10.67	-51.8	-69.7	3.8	7.47e-01	0	39	104	0	74	29418
2026-01-21 12:36:15.65	192.60	10.76	-51.8	-69.7	3.8	7.46e-01	0	39	104	0	74	29354
2026-01-21 12:36:16.65	192.68	10.85	-51.8	-69.6	3.8	7.45e-01	0	40	104	0	74	29344
2026-01-21 12:36:17.66	192.77	10.94	-51.8	-69.7	3.8	7.42e-01	0	40	104	0	74	29358
2026-01-21 12:36:18.67	192.85	11.03	-51.8	-69.7	3.8	7.48e-01	0	39	104	0	74	29355
2026-01-21 12:36:19.68	192.94	11.12	-51.8	-69.7	3.8	7.45e-01	0	39	104	0	74	29373
2026-01-21 12:36:20.69	193.03	11.21	-51.8	-69.7	3.8	7.43e-01	0	39	104	0	74	29354
2026-01-21 12:36:21.69	193.12	11.30	-51.8	-69.6	3.8	7.44e-01	0	40	104	0	74	29323
2026-01-21 12:36:22.70	193.20	11.39	-51.8	-69.6	3.8	7.42e-01	0	40	104	0	74	29327
2026-01-21 12:36:23.71	193.29	11.48	-51.8	-69.7	3.8	7.48e-01	0	40	104	0	74	29397
2026-01-21 12:36:24.71	193.38	11.58	-51.8	-69.7	3.8	7.45e-01	0	40	104	0	74	29381
2026-01-21 12:36:25.72	193.47	11.67	-51.8	-69.7	3.8	7.47e-01	0	39	104	0	74	29349
2026-01-21 12:36:26.73	193.56	11.76	-51.8	-69.7	3.8	7.42e-01	0	39	104	0	74	29359
2026-01-21 12:36:27.74	193.66	11.86	-51.8	-69.7	3.8	7.45e-01	0	40	104	0	74	29402
2026-01-21 12:36:28.74	193.75	11.95	-51.8	-69.6	3.8	7.43e-01	0	40	104	0	74	29333
2026-01-21 12:36:29.75	193.84	12.04	-51.8	-69.6	3.8	7.44e-01	0	40	104	0	74	29340
2026-01-21 12:36:30.76	193.93	12.14	-51.8	-69.7	3.8	7.47e-01	0	39	104	0	74	29388
2026-01-21 12:36:31.77	194.03	12.23	-51.8	-69.7	3.8	7.47e-01	0	40	104	0	74	29369
2026-01-21 12:36:32.78	194.12	12.33	-51.8	-69.7	3.8	7.45e-01	0	40	104	0	74	29350
2026-01-21 12:36:33.79	194.22	12.42	-51.8	-69.7	3.8	7.46e-01	0	40	104	0	74	29377
2026-01-21 12:36:34.79	194.31	12.52	-51.8	-69.6	3.8	7.46e-01	0	39	104	0	74	29304
2026-01-21 12:36:35.80	194.41	12.61	-51.8	-69.7	3.8	7.46e-01	0	39	104	0	74	29384
2026-01-21 12:36:36.81	194.51	12.71	-51.8	-69.7	3.8	7.43e-01	0	40	104	0	74	29381
2026-01-21 12:36:37.82	194.61	12.81	-51.8	-69.7	3.8	7.48e-01	0	40	104	0	74	29370
2026-01-21 12:36:38.83	194.70	12.91	-51.8	-69.7	3.8	7.45e-01	0	40	104	0	74	29367
2026-01-21 12:36:39.83	194.80	13.00	-51.8	-69.6	3.8	7.46e-01	0	39	104	0	74	29326
2026-01-21 12:36:40.84	194.90	13.10	-51.8	-69.7	3.8	7.46e-01	0	40	104	0	74	29392
2026-01-21 12:36:41.85	195.00	13.20	-51.8	-69.7	3.8	7.46e-01	0	40	104	0	74	29364
2026-01-21 12:36:42.86	195.11	13.30	-51.8	-69.7	3.8	7.47e-01	0	40	104	0	74	29414
2026-01-21 12:36:43.86	195.21	13.40	-51.8	-69.6	3.8	7.49e-01	0	40	104	0	74	29293
2026-01-21 12:36:44.87	195.31	13.50	-51.8	-69.7	3.8	7.47e-01	0	40	104	0	74	29361
2026-01-21 12:36:45.88	195.41	13.60	-51.8	-69.7	3.8	7.44e-01	0	40	104	0	74	29355
2026-01-21 12:36:46.89	195.52	13.70	-51.8	-69.7	3.8	7.47e-01	0	40	104	0	74	29368
2026-01-21 12:36:47.90	195.62	13.80	-51.8	-69.7	3.8	7.47e-01	0	40	104	0	74	29371
2026-01-21 12:36:48.91	195.73	13.90	-51.8	-69.6	3.8	7.44e-01	0	40	104	0	74	29340
2026-01-21 12:36:49.91	195.83	14.00	-51.8	-69.7	3.8	7.44e-01	0	40	104	0	74	29372
2026-01-21 12:36:50.92	195.94	14.10	-51.8	-69.7	3.8	7.42e-01	0	40	104	0	74	29398
2026-01-21 12:36:51.93	196.05	14.20	-51.8	-69.7	3.8	7.47e-01	0	39	104	0	74	29370
2026-01-21 12:36:52.94	196.16	14.30	-51.8	-69.6	3.8	7.46e-01	0	40	104	0	74	29341
2026-01-21 12:36:53.95	196.27	14.41	-51.8	-69.7	3.8	7.46e-01	0	40	104	0	74	29366
2026-01-21 12:36:54.95	196.38	14.51	-51.8	-69.7	3.8	7.44e-01	0	40	104	0	74	29375
2026-01-21 12:36:55.96	196.49	14.61	-51.8	-69.6	3.8	7.44e-01	0	40	104	0	74	29271
2026-01-21 12:36:56.97	196.60	14.72	-51.8	-69.7	3.8	7.47e-01	0	40	104	0	74	29407
2026-01-21 12:36:57.98	196.71	14.82	-51.8	-69.6	3.8	7.44e-01	0	40	104	0	74	29330
2026-01-21 12:36:58.99	196.82	14.93	-51.8	-69.6	3.8	7.44e-01	0	40	104	0	74	29298
2026-01-21 12:36:59.99	196.94	15.03	-51.8	-69.6	3.8	7.46e-01	0	40	104	0	74	29331
2026-01-21 12:37:01.00	197.05	15.14	-51.8	-69.7	3.8	7.39e-01	0	40	104	0	74	29409
2026-01-21 12:37:02.01	197.17	15.24	-51.8	-69.7	3.8	7.45e-01	0	40	104	0	74	29376
2026-01-21 12:37:03.01	197.28	15.35	-51.8	-69.6	3.8	7.44e-01	0	40	104	0	74	29332
2026-01-21 12:37:04.02	197.40	15.46	-51.8	-69.7	3.8	7.47e-01	0	40	104	0	74	29375
2026-01-21 12:37:05.03	197.52	15.56	-51.8	-69.6	3.8	7.47e-01	0	40	104	0	74	29263
2026-01-21 12:37:06.04	197.64	15.67	-51.8	-69.7	3.8	7.42e-01	0	40	104	0	74	29353
2026-01-21 12:37:07.05	197.76	15.78	-51.8	-69.6	3.8	7.46e-01	0	40	104	0	74	29324
2026-01-21 12:37:08.06	197.88	15.89	-51.8	-69.6	3.8	7.46e-01	0	40	104	0	74	29308
2026-01-21 12:37:09.07	198.00	16.00	-51.8	-69.6	3.8	7.47e-01	0	40	104	0	74	29317
2026-01-21 12:37:10.07	198.13	16.11	-51.8	-69.6	3.8	7.46e-01	0	40	104	0	74	29317
2026-01-21 12:37:11.08	198.25	16.22	-51.8	-69.6	3.8	7.48e-01	0	40	104	0	74	29300
2026-01-21 12:37:12.09	198.38	16.33	-51.8	-69.6	3.8	7.46e-01	0	40	104	0	74	29329
2026-01-21 12:37:13.10	198.50	16.44	-51.8	-69.6	3.8	7.44e-01	0	40	104	0	74	29286
2026-01-21 12:37:14.10	198.63	16.55	-51.8	-69.6	3.8	7.47e-01	0	40	104	0	74	29257
2026-01-21 12:37:15.11	198.75	16.66	-51.8	-69.6	3.8	7.47e-01	0	40	104	0	74	29302
2026-01-21 12:37:16.12	198.88	16.77	-51.8	-69.6	3.8	7.47e-01	0	40	104	0	74	29295
2026-01-21 12:37:17.13	199.01	16.88	-51.8	-69.6	3.8	7.45e-01	0	40	104	0	74	29343
2026-01-21 12:37:18.14	199.14	17.00	-51.8	-69.6	3.8	7.46e-01	0	40	104	0	74	29313
2026-01-21 12:37:19.14	199.27	17.11	-51.8	-69.7	3.8	7.47e-01	0	40	104	0	74	29348
2026-01-21 12:37:20.15	199.41	17.22	-51.8	-69.6	3.8	7.46e-01	0	40	104	0	74	29347
2026-01-21 12:37:21.16	199.54	17.34	-51.8	-69.6	3.8	7.41e-01	0	40	104	0	74	29343
2026-01-21 12:37:22.17	199.68	17.45	-51.8	-69.7	3.8	7.45e-01	0	40	104	0	74	29368
2026-01-21 12:37:23.18	199.81	17.57	-51.8	-69.7	3.8	7.45e-01	0	40	104	0	74	29401
2026-01-21 12:37:24.19	199.95	17.68	-51.8	-69.6	3.8	7.43e-01	0	39	104	0	74	29307
2026-01-21 12:37:25.19	200.08	17.80	-51.8	-69.6	3.8	7.50e-01	0	40	104	0	74	29330
2026-01-21 12:37:26.20	200.22	17.92	-51.8	-69.7	3.8	7.47e-01	0	40	104	0	74	29395
2026-01-21 12:37:27.21	200.36	18.03	-51.8	-69.6	3.8	7.47e-01	0	40	104	0	74	29312
2026-01-21 12:37:28.22	200.51	18.15	-51.8	-69.7	3.8	7.46e-01	0	40	104	0	74	29401
2026-01-21 12:37:29.23	200.65	18.27	-51.8	-69.6	3.8	7.45e-01	0	40	104	0	74	29328
2026-01-21 12:37:30.23	200.79	18.39	-51.8	-69.6	3.8	7.44e-01	0	40	104	0	74	29331
2026-01-21 12:37:31.24	200.93	18.50	-51.8	-69.6	3.8	7.44e-01	0	40	104	0	74	29314
2026-01-21 12:37:32.25	201.08	18.62	-51.8	-69.6	3.8	7.47e-01	0	40	104	0	74	29310
2026-01-21 12:37:33.26	201.23	18.74	-51.8	-69.6	3.8	7.47e-01	0	40	104	0	74	29313
2026-01-21 12:37:34.27	201.38	18.86	-51.8	-69.7	3.8	7.46e-01	0	40	104	0	74	29353
2026-01-21 12:37:35.27	201.52	18.98	-51.8	-69.7	3.8	7.46e-01	0	40	104	0	74	29359
2026-01-21 12:37:36.28	201.67	19.10	-51.8	-69.7	3.8	7.45e-01	0	40	104	0	74	29394
2026-01-21 12:37:37.29	201.83	19.23	-51.8	-69.6	3.8	7.46e-01	0	40	104	0	74	29342
2026-01-21 12:37:38.30	201.98	19.35	-51.8	-69.7	3.8	7.50e-01	0	40	104	0	74	29396
2026-01-21 12:37:39.31	202.13	19.47	-51.8	-69.7	3.8	7.45e-01	0	40	104	0	74	29379
2026-01-21 12:37:40.31	202.29	19.59	-51.8	-69.6	3.8	7.46e-01	0	40	104	0	74	29306
2026-01-21 12:37:41.32	202.45	19.72	-51.8	-69.6	3.8	7.45e-01	0	40	104	0	74	29342
2026-01-21 12:37:42.33	202.60	19.84	-51.8	-69.7	3.8	7.43e-01	0	40	104	0	74	29408
2026-01-21 12:37:43.33	202.76	19.96	-51.8	-69.7	3.8	7.44e-01	0	40	104	0	74	29376
2026-01-21 12:37:44.34	202.92	20.09	-51.8	-69.7	3.8	7.45e-01	0	40	104	0	74	29391
2026-01-21 12:37:45.35	203.08	20.21	-51.8	-69.6	3.8	7.45e-01	0	40	104	0	74	29304
2026-01-21 12:37:46.36	203.25	20.34	-51.8	-69.6	3.8	7.41e-01	0	40	104	0	74	29315
2026-01-21 12:37:47.36	203.41	20.47	-51.8	-69.6	3.8	7.46e-01	0	40	104	0	74	29327
2026-01-21 12:37:48.37	203.58	20.59	-51.8	-69.6	3.8	7.43e-01	0	40	104	0	74	29288
2026-01-21 12:37:49.38	203.75	20.72	-51.8	-69.6	3.8	7.46e-01	0	40	104	0	74	29308
2026-01-21 12:37:50.39	203.92	20.85	-51.8	-69.6	3.8	7.46e-01	0	40	104	0	74	29340
2026-01-21 12:37:51.40	204.09	20.98	-51.8	-69.6	3.8	7.49e-01	0	40	104	0	74	29307
2026-01-21 12:37:52.41	204.26	21.10	-51.8	-69.6	3.8	7.47e-01	0	40	104	0	74	29295
2026-01-21 12:37:53.41	204.43	21.23	-51.8	-69.6	3.8	7.43e-01	0	40	104	0	74	29310
2026-01-21 12:37:54.42	204.61	21.36	-51.8	-69.7	3.8	7.42e-01	0	40	104	0	74	29371
2026-01-21 12:37:55.43	204.78	21.49	-51.8	-69.6	3.8	7.44e-01	0	40	104	0	74	29337
2026-01-21 12:37:56.44	204.96	21.62	-51.8	-69.6	3.8	7.45e-01	0	40	104	0	74	29325
2026-01-21 12:37:57.44	205.14	21.75	-51.8	-69.7	3.8	7.46e-01	0	40	104	0	74	29356
2026-01-21 12:37:58.45	205.32	21.88	-51.8	-69.6	3.8	7.45e-01	0	40	104	0	74	29337
2026-01-21 12:37:59.46	205.50	22.02	-51.8	-69.6	3.8	7.46e-01	0	40	104	0	74	29287
2026-01-21 12:38:00.47	205.69	22.15	-51.8	-69.7	3.8	7.45e-01	0	40	104	0	74	29355
2026-01-21 12:38:01.48	205.87	22.28	-51.8	-69.6	3.8	7.46e-01	0	40	104	0	74	29334
2026-01-21 12:38:02.49	206.06	22.42	-51.8	-69.6	3.8	7.45e-01	0	40	104	0	74	29340
2026-01-21 12:38:03.49	206.25	22.55	-51.8	-69.6	3.8	7.44e-01	0	40	104	0	74	29337
2026-01-21 12:38:04.50	206.44	22.68	-51.8	-69.6	3.8	7.47e-01	0	40	104	0	74	29340
2026-01-21 12:38:05.51	206.63	22.82	-51.8	-69.7	3.8	7.43e-01	0	40	104	0	74	29398
2026-01-21 12:38:06.52	206.82	22.95	-51.8	-69.6	3.8	7.45e-01	0	40	104	0	74	29310
2026-01-21 12:38:07.52	207.02	23.09	-51.8	-69.7	3.8	7.44e-01	0	40	104	0	74	29356
2026-01-21 12:38:08.53	207.22	23.22	-51.8	-69.7	3.8	7.47e-01	0	40	104	0	74	29374
2026-01-21 12:38:09.54	207.42	23.36	-51.8	-69.6	3.8	7.45e-01	0	40	104	0	74	29305
2026-01-21 12:38:10.55	207.62	23.50	-51.8	-69.7	3.8	7.46e-01	0	40	104	0	74	29377
2026-01-21 12:38:11.56	207.82	23.64	-51.8	-69.6	3.8	7.46e-01	0	40	104	0	74	29276
2026-01-21 12:38:12.56	208.02	23.77	-51.8	-69.6	3.8	7.43e-01	0	40	104	0	74	29330
2026-01-21 12:38:13.57	208.23	23.91	-51.8	-69.6	3.8	7.45e-01	0	40	104	0	74	29324
2026-01-21 12:38:14.58	208.44	24.05	-51.8	-69.6	3.8	7.44e-01	0	40	104	0	74	29316
2026-01-21 12:38:15.59	208.65	24.19	-51.8	-69.6	3.8	7.46e-01	0	40	104	0	74	29305
2026-01-21 12:38:16.60	208.86	24.33	-51.8	-69.6	3.8	7.43e-01	0	40	104	0	74	29264
2026-01-21 12:38:17.60	209.07	24.47	-51.8	-69.6	3.8	7.45e-01	0	40	104	0	74	29290
2026-01-21 12:38:18.61	209.29	24.61	-51.8	-69.6	3.8	7.42e-01	0	40	104	0	74	29282
2026-01-21 12:38:19.62	209.51	24.75	-51.8	-69.6	3.8	7.44e-01	0	40	104	0	74	29331
2026-01-21 12:38:20.63	209.73	24.89	-51.8	-69.7	3.8	7.41e-01	0	40	104	0	74	29351
2026-01-21 12:38:21.64	209.95	25.03	-51.8	-69.6	3.8	7.42e-01	0	40	104	0	74	29297
2026-01-21 12:38:22.65	210.18	25.17	-51.8	-69.6	3.8	7.50e-01	0	40	104	0	74	29345
2026-01-21 12:38:23.66	210.40	25.32	-51.8	-69.6	3.8	7.47e-01	0	40	104	0	74	29343
2026-01-21 12:38:24.66	210.63	25.46	-51.8	-69.6	3.8	7.47e-01	0	40	104	0	74	29294
2026-01-21 12:38:25.67	210.86	25.60	-51.8	-69.6	3.8	7.49e-01	0	40	104	0	74	29319
2026-01-21 12:38:26.68	211.09	25.74	-51.8	-69.6	3.8	7.45e-01	0	40	104	0	74	29315
2026-01-21 12:38:27.69	211.33	25.89	-51.8	-69.6	3.8	7.47e-01	0	40	104	0	74	29320
2026-01-21 12:38:28.70	211.56	26.03	-51.8	-69.7	3.8	7.46e-01	0	40	104	0	74	29371
2026-01-21 12:38:29.71	211.80	26.18	-51.8	-69.7	3.8	7.45e-01	0	40	104	0	74	29385
2026-01-21 12:38:30.71	212.04	26.32	-51.8	-69.6	3.8	7.42e-01	0	40	104	0	74	29322
2026-01-21 12:38:31.73	212.29	26.47	-51.8	-69.6	3.8	7.43e-01	0	40	104	0	74	29317
2026-01-21 12:38:32.73	212.53	26.61	-51.8	-69.7	3.8	7.44e-01	0	40	104	0	74	29378
2026-01-21 12:38:33.74	212.78	26.76	-51.8	-69.6	3.8	7.43e-01	0	40	104	0	74	29347
2026-01-21 12:38:34.75	213.03	26.90	-51.8	-69.6	3.8	7.45e-01	0	40	104	0	74	29341
2026-01-21 12:38:35.76	213.28	27.05	-51.8	-69.6	3.8	7.42e-01	0	40	104	0	74	29347
2026-01-21 12:38:36.77	213.54	27.20	-51.8	-69.7	3.8	7.49e-01	0	40	104	0	74	29365
2026-01-21 12:38:37.77	213.80	27.34	-51.8	-69.6	3.8	7.46e-01	0	40	104	0	74	29338
2026-01-21 12:38:38.78	214.06	27.49	-51.8	-69.7	3.8	7.48e-01	0	40	104	0	74	29382
2026-01-21 12:38:39.79	214.32	27.64	-51.8	-69.7	3.8	7.47e-01	0	40	104	0	74	29402
2026-01-21 12:38:40.80	214.58	27.79	-51.8	-69.7	3.8	7.43e-01	0	40	104	0	74	29356
2026-01-21 12:38:41.80	214.85	27.93	-51.8	-69.6	3.8	7.48e-01	0	40	104	0	74	29336
2026-01-21 12:38:42.81	215.12	28.08	-51.8	-69.7	3.8	7.45e-01	0	40	104	0	74	29383
2026-01-21 12:38:43.82	215.39	28.23	-51.8	-69.6	3.8	7.46e-01	0	40	104	0	74	29286
2026-01-21 12:38:44.83	215.67	28.38	-51.8	-69.6	3.8	7.43e-01	0	40	104	0	74	29335
2026-01-21 12:38:45.84	215.94	28.53	-51.8	-69.6	3.8	7.47e-01	0	40	104	0	74	29307
2026-01-21 12:38:46.85	216.22	28.68	-51.8	-69.6	3.8	7.47e-01	0	40	104	0	74	29322
2026-01-21 12:38:47.85	216.50	28.82	-51.8	-69.6	3.8	7.44e-01	0	40	104	0	74	29336
2026-01-21 12:38:48.86	216.79	28.97	-51.8	-69.7	3.8	7.45e-01	0	40	104	0	74	29365
2026-01-21 12:38:49.87	217.08	29.12	-51.8	-69.6	3.8	7.44e-01	0	40	104	0	74	29253
2026-01-21 12:38:50.88	217.37	29.27	-51.8	-69.6	3.8	7.46e-01	0	40	104	0	74	29300
2026-01-21 12:38:51.89	217.66	29.42	-51.8	-69.7	3.8	7.48e-01	0	40	104	0	74	29359
2026-01-21 12:38:52.89	217.96	29.57	-51.8	-69.6	3.8	7.44e-01	0	40	104	0	74	29223
2026-01-21 12:38:53.91	218.26	29.72	-51.8	-69.6	3.8	7.43e-01	0	40	104	0	74	29309
2026-01-21 12:38:54.91	218.56	29.87	-51.8	-69.7	3.8	7.43e-01	0	40	104	0	74	29348
2026-01-21 12:38:55.92	218.87	30.02	-51.8	-69.6	3.8	7.44e-01	0	40	104	0	74	29332
2026-01-21 12:38:56.93	219.17	30.17	-51.8	-69.6	3.8	7.49e-01	0	40	104	0	74	29313
2026-01-21 12:38:57.94	219.48	30.32	-51.8	-69.6	3.8	7.47e-01	0	40	104	0	74	29333
2026-01-21 12:38:58.95	219.80	30.46	-51.8	-69.6	3.8	7.46e-01	0	40	104	0	74	29335
2026-01-21 12:38:59.96	220.12	30.61	-51.8	-69.6	3.8	7.42e-01	0	40	104	0	74	29237
2026-01-21 12:39:00.97	220.43	30.76	-51.8	-69.6	3.8	7.47e-01	0	40	104	0	74	29207
2026-01-21 12:39:01.97	220.75	30.91	-51.8	-69.6	3.8	7.47e-01	0	40	104	0	74	29324
2026-01-21 12:39:02.98	221.08	31.06	-51.8	-69.6	3.8	7.42e-01	0	40	104	0	74	29238
2026-01-21 12:39:03.99	221.41	31.21	-51.8	-69.6	3.8	7.47e-01	0	40	104	0	74	29331
2026-01-21 12:39:05.00	221.74	31.36	-51.8	-69.6	3.8	7.49e-01	0	40	104	0	74	29321
2026-01-21 12:39:06.00	222.07	31.50	-51.8	-69.6	3.8	7.48e-01	0	40	104	0	74	29318
2026-01-21 12:39:07.01	222.41	31.65	-51.8	-69.6	3.8	7.45e-01	0	40	104	0	74	29201
2026-01-21 12:39:08.02	222.75	31.80	-51.8	-69.7	3.8	7.48e-01	0	40	104	0	74	29374
2026-01-21 12:39:09.03	223.10	31.95	-51.8	-69.6	3.8	7.46e-01	0	40	104	0	74	29279
2026-01-21 12:39:10.04	223.44	32.09	-51.8	-69.6	3.8	7.46e-01	0	40	104	0	74	29234
2026-01-21 12:39:11.05	223.80	32.24	-51.8	-69.6	3.8	7.46e-01	0	40	104	0	74	29231
2026-01-21 12:39:12.05	224.15	32.39	-51.8	-69.6	3.8	7.41e-01	0	40	104	0	74	29266
2026-01-21 12:39:13.06	224.50	32.53	-51.8	-69.6	3.8	7.45e-01	0	40	104	0	74	29281
2026-01-21 12:39:14.07	224.86	32.68	-51.8	-69.7	3.8	7.48e-01	0	40	104	0	74	29361
2026-01-21 12:39:15.08	225.23	32.82	-51.8	-69.6	3.8	7.44e-01	0	40	104	0	74	29284
2026-01-21 12:39:16.09	225.59	32.97	-51.8	-69.6	3.8	7.50e-01	0	40	104	0	74	29281
2026-01-21 12:39:17.09	225.96	33.11	-51.8	-69.6	3.8	7.47e-01	0	40	104	0	74	29280
2026-01-21 12:39:18.10	226.33	33.25	-51.8	-69.6	3.8	7.45e-01	0	40	104	0	74	29253
2026-01-21 12:39:19.11	226.71	33.40	-51.8	-69.6	3.8	7.44e-01	0	40	104	0	74	29315
2026-01-21 12:39:20.12	227.09	33.54	-51.8	-69.6	3.8	7.45e-01	0	40	104	0	74	29301
2026-01-21 12:39:21.13	227.48	33.68	-51.8	-69.6	3.8	7.44e-01	0	40	104	0	74	29283
2026-01-21 12:39:22.13	227.86	33.82	-51.8	-69.6	3.8	7.43e-01	0	40	104	0	74	29279
2026-01-21 12:39:23.14	228.25	33.96	-51.8	-69.6	3.8	7.44e-01	0	40	104	0	74	29262
2026-01-21 12:39:24.15	228.64	34.10	-51.8	-69.6	3.8	7.45e-01	0	40	104	0	74	29341
2026-01-21 12:39:25.15	229.04	34.24	-51.8	-69.6	3.8	7.46e-01	0	40	104	0	74	29310
2026-01-21 12:39:26.16	229.44	34.38	-51.8	-69.6	3.8	7.43e-01	0	40	104	0	74	29322
2026-01-21 12:39:27.17	229.84	34.51	-51.8	-69.6	3.8	7.46e-01	0	40	104	0	74	29331
2026-01-21 12:39:28.18	230.25	34.65	-51.8	-69.6	3.8	7.44e-01	0	40	104	0	74	29302
2026-01-21 12:39:29.19	230.66	34.78	-51.8	-69.6	3.8	7.45e-01	0	40	104	0	74	29309
2026-01-21 12:39:30.20	231.07	34.92	-51.8	-69.7	3.8	7.48e-01	0	40	104	0	74	29373
2026-01-21 12:39:31.21	231.49	35.05	-51.8	-69.6	3.8	7.49e-01	0	40	104	0	74	29306
2026-01-21 12:39:32.21	231.91	35.18	-51.8	-69.6	3.8	7.46e-01	0	40	104	0	74	29302
2026-01-21 12:39:33.22	232.33	35.31	-51.8	-69.6	3.8	7.48e-01	0	40	104	0	74	29204
2026-01-21 12:39:34.23	232.76	35.44	-51.8	-69.6	3.8	7.44e-01	0	40	104	0	74	29216
2026-01-21 12:39:35.24	233.19	35.57	-51.8	-69.6	3.8	7.45e-01	0	40	104	0	74	29260
2026-01-21 12:39:36.24	233.62	35.70	-51.8	-69.6	3.8	7.47e-01	0	40	104	0	74	29235
2026-01-21 12:39:37.25	234.06	35.82	-51.8	-69.6	3.8	7.42e-01	0	40	104	0	74	29257
2026-01-21 12:39:38.26	234.50	35.95	-51.8	-69.6	3.8	7.47e-01	0	40	104	0	74	29189
2026-01-21 12:39:39.27	234.95	36.07	-51.8	-69.6	3.8	7.46e-01	0	40	104	0	74	29282
2026-01-21 12:39:40.28	235.40	36.19	-51.8	-69.6	3.8	7.45e-01	0	40	104	0	74	29211
2026-01-21 12:39:41.29	235.85	36.32	-51.8	-69.6	3.8	7.47e-01	0	40	104	0	74	29240
2026-01-21 12:39:42.29	236.30	36.43	-51.8	-69.6	3.8	7.48e-01	0	40	104	0	74	29341
2026-01-21 12:39:43.30	236.76	36.55	-51.8	-69.6	3.8	7.46e-01	0	40	104	0	74	29267
2026-01-21 12:39:44.31	237.22	36.67	-51.8	-69.6	3.8	7.46e-01	0	40	104	0	74	29219
2026-01-21 12:39:45.32	237.69	36.78	-51.8	-69.7	3.8	7.45e-01	0	40	104	0	74	29383
2026-01-21 12:39:46.33	238.16	36.90	-51.8	-69.7	3.8	7.45e-01	0	40	104	0	74	29357
2026-01-21 12:39:47.33	238.62	37.01	-51.8	-69.7	3.8	7.42e-01	0	40	104	0	74	29349
2026-01-21 12:39:48.34	239.10	37.11	-51.8	-69.6	3.8	7.42e-01	0	40	104	0	74	29205
2026-01-21 12:39:49.35	239.58	37.22	-51.8	-69.6	3.8	7.48e-01	0	40	104	0	74	29254
2026-01-21 12:39:50.36	240.06	37.33	-51.8	-69.6	3.8	7.46e-01	0	40	104	0	74	29227
2026-01-21 12:39:51.37	240.54	37.43	-51.8	-69.6	3.8	7.45e-01	0	40	104	0	74	29266
2026-01-21 12:39:52.38	241.03	37.54	-51.8	-69.6	3.8	7.46e-01	0	40	104	0	74	29261
2026-01-21 12:39:53.39	241.52	37.64	-51.8	-69.6	3.8	7.44e-01	0	40	104	0	74	29298
2026-01-21 12:39:54.39	242.01	37.73	-51.8	-69.6	3.8	7.44e-01	0	40	104	0	74	29298
2026-01-21 12:39:55.40	242.51	37.83	-51.8	-69.6	3.8	7.45e-01	0	40	104	0	74	29341
2026-01-21 12:39:56.41	243.01	37.92	-51.8	-69.6	3.8	7.46e-01	0	40	104	0	74	29257
2026-01-21 12:39:57.42	243.51	38.02	-51.8	-69.6	3.8	7.45e-01	0	40	104	0	74	29300
2026-01-21 12:39:58.42	244.01	38.10	-51.8	-69.6	3.8	7.43e-01	0	40	104	0	74	29220
2026-01-21 12:39:59.43	244.52	38.19	-51.8	-69.6	3.8	7.43e-01	0	40	104	0	74	29275
2026-01-21 12:40:00.44	245.03	38.28	-51.8	-69.6	3.8	7.45e-01	0	40	104	0	74	29261
2026-01-21 12:40:01.45	245.54	38.36	-51.8	-69.6	3.8	7.48e-01	0	40	104	0	74	29261
2026-01-21 12:40:02.46	246.06	38.44	-51.8	-69.7	3.8	7.49e-01	0	40	104	0	74	29375
2026-01-21 12:40:03.47	246.58	38.52	-51.8	-69.6	3.8	7.49e-01	0	40	104	0	74	29291
2026-01-21 12:40:04.47	247.09	38.60	-51.8	-69.6	3.8	7.46e-01	0	40	104	0	74	29263
2026-01-21 12:40:05.48	247.61	38.67	-51.8	-69.6	3.8	7.44e-01	0	40	104	0	74	29226
2026-01-21 12:40:06.49	248.14	38.74	-51.8	-69.6	3.8	7.50e-01	0	40	104	0	74	29266
2026-01-21 12:40:07.50	248.67	38.81	-51.8	-69.6	3.8	7.49e-01	0	40	104	0	74	29247
2026-01-21 12:40:08.50	249.19	38.88	-51.8	-69.6	3.8	7.47e-01	0	40	104	0	74	29312
2026-01-21 12:40:09.51	249.73	38.94	-51.8	-69.6	3.8	7.44e-01	0	40	104	0	74	29278
2026-01-21 12:40:10.52	250.26	39.00	-51.8	-69.6	3.8	7.46e-01	0	40	104	0	74	29292
2026-01-21 12:40:11.53	250.80	39.06	-51.8	-69.6	3.8	7.47e-01	0	40	104	0	74	29263
2026-01-21 12:40:12.54	251.34	39.12	-51.8	-69.6	3.8	7.43e-01	0	40	104	0	74	29323
2026-01-21 12:40:13.55	251.88	39.17	-51.8	-69.6	3.8	7.43e-01	0	40	104	0	74	29228
2026-01-21 12:40:14.55	252.41	39.22	-51.8	-69.6	3.8	7.48e-01	0	40	104	0	74	29269
2026-01-21 12:40:15.56	252.96	39.27	-51.8	-69.6	3.8	7.46e-01	0	40	104	0	74	29243
2026-01-21 12:40:16.57	253.50	39.31	-51.8	-69.6	3.8	7.46e-01	0	40	104	0	74	29204
2026-01-21 12:40:17.58	254.05	39.36	-51.8	-69.6	3.8	7.47e-01	0	40	104	0	74	29243
2026-01-21 12:40:18.58	254.59	39.40	-51.8	-69.6	3.8	7.44e-01	0	40	104	0	74	29309
2026-01-21 12:40:19.59	255.14	39.43	-51.8	-69.6	3.8	7.46e-01	0	40	104	0	74	29230
2026-01-21 12:40:20.60	255.69	39.47	-51.8	-69.6	3.8	7.46e-01	0	40	104	0	74	29282
2026-01-21 12:40:21.61	256.24	39.50	-51.8	-69.6	3.8	7.44e-01	0	40	104	0	74	29224
2026-01-21 12:40:22.62	256.79	39.53	-51.8	-69.6	3.8	7.42e-01	0	40	104	0	74	29201
2026-01-21 12:40:23.63	257.35	39.55	-51.8	-69.6	3.8	7.48e-01	0	40	104	0	74	29093
2026-01-21 12:40:24.63	257.90	39.58	-51.8	-69.6	3.8	7.44e-01	0	40	104	0	74	29168
2026-01-21 12:40:25.64	258.45	39.60	-51.8	-69.6	3.8	7.43e-01	0	40	104	0	74	29230
2026-01-21 12:40:26.65	259.01	39.61	-51.8	-69.6	3.8	7.46e-01	0	40	104	0	74	29283
2026-01-21 12:40:27.65	259.56	39.63	-51.8	-69.6	3.8	7.45e-01	0	40	104	0	74	29316
2026-01-21 12:40:28.66	260.11	39.64	-51.8	-69.6	3.8	7.45e-01	0	40	104	0	74	29343
2026-01-21 12:40:29.67	260.67	39.65	-51.8	-69.6	3.8	7.45e-01	0	40	104	0	74	29321
2026-01-21 12:40:30.68	261.23	39.65	-51.8	-69.6	3.8	7.46e-01	0	40	104	0	74	29283
2026-01-21 12:40:31.69	261.79	39.65	-51.8	-69.6	3.8	7.44e-01	0	40	104	0	74	29185
2026-01-21 12:40:32.69	262.34	39.65	-51.8	-69.6	3.8	7.44e-01	0	40	104	0	74	29139
2026-01-21 12:40:33.70	262.89	39.65	-51.8	-69.5	3.8	7.42e-01	0	40	104	0	74	28953
2026-01-21 12:40:34.71	263.45	39.64	-51.8	-69.6	3.8	7.48e-01	0	40	104	0	74	29042
2026-01-21 12:40:35.72	264.01	39.63	-51.8	-69.5	3.8	7.48e-01	0	40	104	0	74	28997
2026-01-21 12:40:36.72	264.56	39.62	-51.8	-69.5	3.8	7.46e-01	0	40	104	0	74	28981
2026-01-21 12:40:37.73	265.11	39.60	-51.8	-69.6	3.8	7.44e-01	0	40	104	0	74	29161
2026-01-21 12:40:38.74	265.67	39.59	-51.8	-69.6	3.8	7.45e-01	0	40	104	0	74	29262
2026-01-21 12:40:39.75	266.22	39.57	-51.8	-69.6	3.8	7.46e-01	0	40	104	0	74	29288
2026-01-21 12:40:40.76	266.78	39.54	-51.8	-69.6	3.8	7.47e-01	0	40	104	0	74	29282
2026-01-21 12:40:41.77	267.33	39.51	-51.8	-69.6	3.8	7.45e-01	0	40	104	0	74	29251
2026-01-21 12:40:42.77	267.88	39.49	-51.8	-69.6	3.8	7.44e-01	0	40	104	0	74	29187
2026-01-21 12:40:43.78	268.43	39.45	-51.8	-69.6	3.8	7.45e-01	0	40	104	0	74	29113
2026-01-21 12:40:44.79	268.98	39.42	-51.8	-69.6	3.8	7.46e-01	0	40	104	0	74	29177
2026-01-21 12:40:45.80	269.53	39.38	-51.8	-69.6	3.8	7.48e-01	0	40	104	0	74	29086
2026-01-21 12:40:46.81	270.07	39.34	-51.8	-69.6	3.8	7.48e-01	0	40	104	0	74	29053
2026-01-21 12:40:47.82	270.62	39.29	-51.8	-69.6	3.8	7.44e-01	0	40	104	0	74	29119
2026-01-21 12:40:48.83	271.16	39.25	-51.8	-69.6	3.8	7.44e-01	0	40	104	0	74	29125
2026-01-21 12:40:49.83	271.70	39.20	-51.8	-69.6	3.8	7.44e-01	0	40	104	0	74	29269
2026-01-21 12:40:50.84	272.24	39.15	-51.8	-69.6	3.8	7.44e-01	0	40	104	0	74	29244
2026-01-21 12:40:51.85	272.78	39.09	-51.8	-69.6	3.8	7.45e-01	0	40	104	0	74	29283
2026-01-21 12:40:52.86	273.32	39.03	-51.8	-69.6	3.8	7.41e-01	0	40	104	0	74	29330
2026-01-21 12:40:53.87	273.85	38.98	-51.8	-69.6	3.8	7.47e-01	0	40	104	0	74	29330
2026-01-21 12:40:54.87	274.38	38.91	-51.8	-69.7	3.8	7.46e-01	0	40	104	0	74	29386
2026-01-21 12:40:55.88	274.91	38.85	-51.8	-69.6	3.8	7.45e-01	0	40	104	0	74	29330
2026-01-21 12:40:56.89	275.44	38.78	-51.8	-69.6	3.8	7.43e-01	0	40	104	0	74	29301
2026-01-21 12:40:57.90	275.96	38.71	-51.8	-69.6	3.8	7.46e-01	0	40	104	0	74	29337
2026-01-21 12:40:58.90	276.48	38.64	-51.8	-69.6	3.8	7.47e-01	0	40	104	0	74	29235
2026-01-21 12:40:59.91	277.00	38.56	-51.8	-69.6	3.8	7.44e-01	0	40	104	0	74	29301
2026-01-21 12:41:00.92	277.52	38.49	-51.8	-69.6	3.8	7.45e-01	0	40	104	0	74	29272
2026-01-21 12:41:01.93	278.04	38.41	-51.8	-69.6	3.8	7.43e-01	0	40	104	0	74	29337
2026-01-21 12:41:02.93	278.55	38.33	-51.8	-69.7	3.8	7.45e-01	0	40	104	0	74	29363
2026-01-21 12:41:03.94	279.06	38.24	-51.8	-69.6	3.8	7.43e-01	0	40	104	0	74	29284
2026-01-21 12:41:04.95	279.57	38.16	-51.8	-69.6	3.8	7.45e-01	0	40	104	0	74	29163
2026-01-21 12:41:05.96	280.08	38.07	-51.8	-69.6	3.8	7.44e-01	0	40	104	0	74	29230
2026-01-21 12:41:06.96	280.57	37.98	-51.8	-69.6	3.8	7.46e-01	0	40	104	0	74	29238
2026-01-21 12:41:07.97	281.07	37.88	-51.8	-69.7	3.8	7.42e-01	0	40	104	0	74	29356
2026-01-21 12:41:08.98	281.57	37.79	-51.8	-69.7	3.8	7.45e-01	0	40	104	0	74	29366
2026-01-21 12:41:09.99	282.07	37.69	-51.8	-69.6	3.8	7.45e-01	0	40	104	0	74	29320
2026-01-21 12:41:10.99	282.55	37.59	-51.8	-69.6	3.8	7.42e-01	0	40	104	0	74	29257
2026-01-21 12:41:12.00	283.04	37.49	-51.8	-69.6	3.8	7.45e-01	0	40	104	0	74	29160
2026-01-21 12:41:13.01	283.53	37.39	-51.8	-69.6	3.8	7.46e-01	0	40	104	0	74	29165
2026-01-21 12:41:14.02	284.01	37.29	-51.8	-69.5	3.8	7.48e-01	0	40	104	0	74	28899
2026-01-21 12:41:15.03	284.49	37.18	-51.8	-69.4	3.8	7.44e-01	0	40	104	0	74	28642
2026-01-21 12:41:16.04	284.96	37.07	-51.8	-69.4	3.8	7.48e-01	0	40	104	0	74	28624
2026-01-21 12:41:17.05	285.44	36.96	-51.8	-69.3	3.8	7.43e-01	0	40	104	0	74	28254
2026-01-21 12:41:18.05	285.90	36.85	-51.8	-69.3	3.8	7.46e-01	0	40	104	0	74	28294
2026-01-21 12:41:19.06	286.37	36.74	-51.8	-69.2	3.8	7.43e-01	0	40	104	0	74	28021
2026-01-21 12:41:20.07	286.83	36.62	-51.8	-69.2	3.8	7.49e-01	0	40	104	0	74	27972
2026-01-21 12:41:21.08	287.29	36.51	-51.8	-69.4	3.8	7.47e-01	0	40	104	0	74	28418
2026-01-21 12:41:22.09	287.74	36.39	-51.8	-69.5	3.8	7.46e-01	0	40	104	0	74	28752
2026-01-21 12:41:23.09	288.19	36.27	-51.8	-69.5	3.8	7.46e-01	0	40	104	0	74	28997
2026-01-21 12:41:24.10	288.64	36.15	-51.8	-69.5	3.8	7.46e-01	0	40	104	0	74	28829
2026-01-21 12:41:25.11	289.09	36.03	-51.8	-69.6	3.8	7.46e-01	0	40	104	0	74	29189
2026-01-21 12:41:26.12	289.53	35.90	-51.8	-69.6	3.8	7.50e-01	0	40	104	0	74	29109
2026-01-21 12:41:27.12	289.97	35.78	-51.8	-69.5	3.8	7.42e-01	0	40	104	0	74	28936
2026-01-21 12:41:28.13	290.40	35.65	-51.8	-69.6	3.8	7.45e-01	0	40	104	0	74	29143
2026-01-21 12:41:29.14	290.83	35.53	-51.8	-69.6	3.8	7.47e-01	0	40	104	0	74	29209
2026-01-21 12:41:30.15	291.26	35.40	-51.8	-69.6	3.8	7.46e-01	0	40	104	0	74	29225
2026-01-21 12:41:31.16	291.69	35.27	-51.8	-69.6	3.8	7.44e-01	0	40	104	0	74	29137
2026-01-21 12:41:32.17	292.11	35.14	-51.8	-69.5	3.8	7.45e-01	0	40	104	0	74	28928
2026-01-21 12:41:33.17	292.53	35.01	-51.8	-69.6	3.8	7.42e-01	0	40	104	0	74	29103
2026-01-21 12:41:34.18	292.94	34.87	-51.8	-69.5	3.8	7.45e-01	0	40	104	0	74	28918
2026-01-21 12:41:35.19	293.35	34.74	-51.8	-69.6	3.8	7.46e-01	0	40	104	0	74	29071
2026-01-21 12:41:36.20	293.76	34.60	-51.8	-69.6	3.8	7.47e-01	0	40	104	0	74	29039
2026-01-21 12:41:37.21	294.17	34.47	-51.8	-69.5	3.8	7.45e-01	0	40	104	0	74	28913
2026-01-21 12:41:38.21	294.56	34.33	-51.8	-69.6	3.8	7.45e-01	0	40	104	0	74	29285
2026-01-21 12:41:39.22	294.96	34.20	-51.8	-69.6	3.8	7.42e-01	0	40	104	0	74	29220
2026-01-21 12:41:40.23	295.36	34.06	-51.8	-69.6	3.8	7.45e-01	0	40	104	0	74	29242
2026-01-21 12:41:41.23	295.74	33.92	-51.8	-69.6	3.8	7.47e-01	0	40	104	0	74	29320
2026-01-21 12:41:42.24	296.13	33.78	-51.8	-69.6	3.8	7.44e-01	0	40	104	0	74	29302
2026-01-21 12:41:43.25	296.52	33.64	-51.8	-69.6	3.8	7.46e-01	0	40	104	0	74	29306
2026-01-21 12:41:44.26	296.90	33.50	-51.8	-69.6	3.8	7.45e-01	0	40	104	0	74	29146
2026-01-21 12:41:45.27	297.28	33.35	-51.8	-69.6	3.8	7.46e-01	0	40	104	0	74	29245
2026-01-21 12:41:46.27	297.65	33.21	-51.8	-69.6	3.8	7.44e-01	0	40	104	0	74	29078
2026-01-21 12:41:47.28	298.02	33.07	-51.8	-69.6	3.8	7.45e-01	0	40	104	0	74	29015
2026-01-21 12:41:48.29	298.39	32.93	-51.8	-69.6	3.8	7.43e-01	0	40	104	0	74	29059
2026-01-21 12:41:49.30	298.75	32.78	-51.8	-69.6	3.8	7.46e-01	0	40	104	0	74	29054
2026-01-21 12:41:50.31	299.11	32.64	-51.8	-69.6	3.8	7.44e-01	0	40	104	0	74	29071
2026-01-21 12:41:51.31	299.47	32.49	-51.8	-69.6	3.8	7.48e-01	0	40	104	0	74	29214
2026-01-21 12:41:52.32	299.82	32.35	-51.8	-69.6	3.8	7.43e-01	0	40	104	0	74	29331
2026-01-21 12:41:53.33	300.17	32.20	-51.8	-69.6	3.8	7.45e-01	0	40	104	0	74	29338
2026-01-21 12:41:54.34	300.52	32.06	-51.8	-69.6	3.8	7.48e-01	0	40	104	0	74	29337
2026-01-21 12:41:55.35	300.87	31.91	-51.8	-69.6	3.8	7.46e-01	0	40	104	0	74	29248
2026-01-21 12:41:56.35	301.21	31.76	-51.8	-69.5	3.8	7.43e-01	0	40	104	0	74	28923
2026-01-21 12:41:57.36	301.55	31.62	-51.8	-69.6	3.8	7.46e-01	0	40	104	0	74	29083
2026-01-21 12:41:58.37	301.88	31.47	-51.8	-69.5	3.8	7.45e-01	0	40	104	0	74	28993
2026-01-21 12:41:59.38	302.21	31.32	-51.8	-69.5	3.8	7.47e-01	0	40	104	0	74	28968
2026-01-21 12:42:00.39	302.54	31.17	-51.8	-69.5	3.8	7.44e-01	0	40	104	0	74	28998
2026-01-21 12:42:01.39	302.87	31.03	-51.8	-69.5	3.8	7.45e-01	0	40	104	0	74	29001
2026-01-21 12:42:02.40	303.19	30.88	-51.8	-69.5	3.8	7.43e-01	0	40	104	0	74	28973
2026-01-21 12:42:03.41	303.51	30.73	-51.8	-69.6	3.8	7.43e-01	0	40	104	0	74	29058
2026-01-21 12:42:04.41	303.83	30.58	-51.8	-69.6	3.8	7.46e-01	0	40	104	0	74	29021
2026-01-21 12:42:05.42	304.14	30.44	-51.8	-69.6	3.8	7.44e-01	0	40	104	0	74	29052
2026-01-21 12:42:06.43	304.45	30.29	-51.8	-69.6	3.8	7.45e-01	0	40	104	0	74	29096
2026-01-21 12:42:07.44	304.76	30.14	-51.8	-69.6	3.8	7.47e-01	0	40	104	0	74	29124
2026-01-21 12:42:08.45	305.07	29.99	-51.8	-69.6	3.8	7.44e-01	0	40	104	0	74	29021
2026-01-21 12:42:09.45	305.37	29.84	-51.8	-69.5	3.8	7.46e-01	0	40	104	0	74	28970
2026-01-21 12:42:10.46	305.67	29.69	-51.8	-69.5	3.8	7.47e-01	0	40	104	0	74	28978
2026-01-21 12:42:11.47	305.97	29.54	-51.8	-69.5	3.8	7.48e-01	0	40	104	0	74	28969
2026-01-21 12:42:12.48	306.26	29.40	-51.8	-69.5	3.8	7.45e-01	0	40	104	0	74	28767
2026-01-21 12:42:13.49	306.55	29.25	-51.8	-69.6	3.8	7.45e-01	0	40	104	0	74	29059
2026-01-21 12:42:14.49	306.84	29.10	-51.8	-69.5	3.8	7.50e-01	0	40	104	0	74	28935
2026-01-21 12:42:15.50	307.13	28.95	-51.8	-69.6	3.8	7.44e-01	0	40	104	0	74	29218
2026-01-21 12:42:16.51	307.41	28.80	-51.8	-69.6	3.8	7.47e-01	0	40	104	0	74	29187
2026-01-21 12:42:17.52	307.69	28.65	-51.8	-69.6	3.8	7.48e-01	0	40	104	0	74	29347
2026-01-21 12:42:18.53	307.97	28.51	-51.8	-69.7	3.8	7.45e-01	0	40	104	0	74	29374
2026-01-21 12:42:19.53	308.24	28.36	-51.8	-69.7	3.8	7.46e-01	0	40	104	0	74	29353
2026-01-21 12:42:20.54	308.52	28.21	-51.8	-69.6	3.8	7.47e-01	0	40	104	0	74	29343
2026-01-21 12:42:21.55	308.79	28.06	-51.8	-69.6	3.8	7.47e-01	0	40	104	0	74	29259
2026-01-21 12:42:22.55	309.05	27.92	-51.8	-69.6	3.8	7.45e-01	0	40	104	0	74	29320
2026-01-21 12:42:23.56	309.32	27.77	-51.8	-69.6	3.8	7.45e-01	0	40	104	0	74	29222
2026-01-21 12:42:24.57	309.58	27.62	-51.8	-69.6	3.8	7.46e-01	0	40	104	0	74	29166
2026-01-21 12:42:25.58	309.84	27.48	-51.8	-69.6	3.8	7.48e-01	0	40	104	0	74	29202
2026-01-21 12:42:26.59	310.10	27.33	-51.8	-69.6	3.8	7.45e-01	0	40	104	0	74	29145
2026-01-21 12:42:27.60	310.36	27.19	-51.8	-69.5	3.8	7.47e-01	0	40	104	0	74	28965
2026-01-21 12:42:28.60	310.61	27.04	-51.8	-69.6	3.8	7.43e-01	0	40	104	0	74	29204
2026-01-21 12:42:29.61	310.86	26.90	-51.8	-69.6	3.8	7.45e-01	0	40	104	0	74	29052
2026-01-21 12:42:30.62	311.11	26.75	-51.8	-69.5	3.8	7.41e-01	0	40	104	0	74	29002
2026-01-21 12:42:31.63	311.36	26.61	-51.8	-69.5	3.8	7.43e-01	0	40	104	0	74	28765
2026-01-21 12:42:32.64	311.60	26.46	-51.8	-69.4	3.8	7.41e-01	0	40	104	0	74	28530
2026-01-21 12:42:33.65	311.85	26.32	-51.8	-69.5	3.8	7.47e-01	0	40	104	0	74	28770
2026-01-21 12:42:34.65	312.08	26.17	-51.8	-69.4	3.8	7.43e-01	0	40	104	0	74	28666
2026-01-21 12:42:35.66	312.32	26.03	-51.8	-69.4	3.8	7.44e-01	0	40	104	0	74	28616
2026-01-21 12:42:36.67	312.56	25.89	-51.8	-69.4	3.8	7.41e-01	0	40	104	0	74	28499
2026-01-21 12:42:37.68	312.79	25.74	-51.8	-69.4	3.8	7.46e-01	0	40	104	0	74	28598
2026-01-21 12:42:38.69	313.02	25.60	-51.8	-69.5	3.8	7.45e-01	0	40	104	0	74	28830
2026-01-21 12:42:39.69	313.25	25.46	-51.8	-69.5	3.8	7.43e-01	0	40	104	0	74	28868
2026-01-21 12:42:40.70	313.48	25.32	-51.8	-69.5	3.8	7.44e-01	0	40	104	0	74	28961
2026-01-21 12:42:41.71	313.70	25.18	-51.8	-69.5	3.8	7.46e-01	0	40	104	0	74	28941
2026-01-21 12:42:42.72	313.92	25.03	-51.8	-69.6	3.8	7.45e-01	0	40	104	0	74	29265
2026-01-21 12:42:43.73	314.15	24.89	-51.8	-69.6	3.8	7.45e-01	0	40	104	0	74	29314
2026-01-21 12:42:44.73	314.36	24.75	-51.8	-69.6	3.8	7.45e-01	0	40	104	0	74	29328
2026-01-21 12:42:45.74	314.58	24.61	-51.8	-69.7	3.8	7.45e-01	0	40	104	0	74	29399
2026-01-21 12:42:46.75	314.79	24.48	-51.8	-69.7	3.8	7.42e-01	0	40	104	0	74	29349
2026-01-21 12:42:47.76	315.01	24.34	-51.8	-69.6	3.8	7.42e-01	0	40	104	0	74	29267
2026-01-21 12:42:48.77	315.22	24.20	-51.8	-69.6	3.8	7.47e-01	0	40	104	0	74	29288
2026-01-21 12:42:49.77	315.43	24.06	-51.8	-69.6	3.8	7.45e-01	0	40	104	0	74	29227
2026-01-21 12:42:50.78	315.63	23.92	-51.8	-69.6	3.8	7.47e-01	0	40	104	0	74	29218
2026-01-21 12:42:51.79	315.84	23.78	-51.8	-69.6	3.8	7.48e-01	0	40	104	0	74	29135
2026-01-21 12:42:52.80	316.04	23.65	-51.8	-69.5	3.8	7.48e-01	0	40	104	0	74	28946
2026-01-21 12:42:53.81	316.25	23.51	-51.8	-69.7	3.8	7.44e-01	0	40	104	0	74	29359
2026-01-21 12:42:54.81	316.44	23.38	-51.8	-69.6	3.8	7.48e-01	0	40	104	0	74	29280
2026-01-21 12:42:55.82	316.64	23.24	-51.8	-69.6	3.8	7.46e-01	0	40	104	0	74	29260
2026-01-21 12:42:56.83	316.84	23.11	-51.8	-69.5	3.8	7.44e-01	0	40	104	0	74	28820
2026-01-21 12:42:57.84	317.03	22.97	-51.8	-69.6	3.8	7.46e-01	0	40	104	0	74	29249
2026-01-21 12:42:58.84	317.23	22.84	-51.8	-69.6	3.8	7.47e-01	0	40	104	0	74	29305
2026-01-21 12:42:59.85	317.42	22.70	-51.8	-69.6	3.8	7.46e-01	0	40	104	0	74	29050
2026-01-21 12:43:00.86	317.61	22.57	-51.8	-69.6	3.8	7.45e-01	0	40	104	0	74	29119
2026-01-21 12:43:01.87	317.80	22.44	-51.8	-69.6	3.8	7.47e-01	0	40	104	0	74	29151
2026-01-21 12:43:02.87	317.98	22.31	-51.8	-69.5	3.8	7.46e-01	0	40	104	0	74	28806
2026-01-21 12:43:03.88	318.17	22.17	-51.8	-69.6	3.8	7.45e-01	0	40	104	0	74	29238
2026-01-21 12:43:04.89	318.35	22.04	-51.8	-69.6	3.8	7.45e-01	0	40	104	0	74	29048
2026-01-21 12:43:05.90	318.53	21.91	-51.8	-69.6	3.8	7.43e-01	0	40	104	0	74	29256
2026-01-21 12:43:06.90	318.71	21.78	-51.8	-69.5	3.8	7.45e-01	0	40	104	0	74	28841
2026-01-21 12:43:07.91	318.89	21.65	-51.8	-69.6	3.8	7.45e-01	0	40	104	0	74	29040
2026-01-21 12:43:08.92	319.07	21.52	-51.8	-69.6	3.8	7.44e-01	0	40	104	0	74	29242
2026-01-21 12:43:09.93	319.24	21.39	-51.8	-69.3	3.8	7.47e-01	0	40	104	0	74	28274
2026-01-21 12:43:10.93	319.41	21.26	-51.8	-69.6	3.8	7.44e-01	0	40	104	0	74	29266
2026-01-21 12:43:11.94	319.59	21.14	-51.8	-69.5	3.8	7.42e-01	0	40	104	0	74	28931
2026-01-21 12:43:12.95	319.76	21.01	-51.8	-69.6	3.8	7.45e-01	0	40	104	0	74	29054
2026-01-21 12:43:13.96	319.93	20.88	-51.8	-69.5	3.8	7.41e-01	0	40	104	0	74	28842
2026-01-21 12:43:14.96	320.10	20.75	-51.8	-69.6	3.8	7.43e-01	0	40	104	0	74	29211
2026-01-21 12:43:15.97	320.26	20.63	-51.8	-69.6	3.8	7.50e-01	0	40	104	0	74	29225
2026-01-21 12:43:16.98	320.43	20.50	-51.8	-69.6	3.8	7.44e-01	0	40	104	0	74	29221
2026-01-21 12:43:17.99	320.59	20.38	-51.8	-69.6	3.8	7.45e-01	0	40	104	0	74	29184
2026-01-21 12:43:19.00	320.76	20.25	-51.8	-69.6	3.8	7.45e-01	0	40	104	0	74	29278
2026-01-21 12:43:20.01	320.92	20.13	-51.8	-69.6	3.8	7.49e-01	0	40	104	0	74	29279
2026-01-21 12:43:21.01	321.08	20.00	-51.8	-69.6	3.8	7.46e-01	0	40	104	0	74	29222
2026-01-21 12:43:22.02	321.23	19.88	-51.8	-69.6	3.8	7.46e-01	0	40	104	0	74	29235
2026-01-21 12:43:23.03	321.39	19.76	-51.8	-69.6	3.8	7.44e-01	0	40	104	0	74	29310
2026-01-21 12:43:24.04	321.55	19.63	-51.8	-69.6	3.8	7.45e-01	0	40	104	0	74	29332
2026-01-21 12:43:25.05	321.70	19.51	-51.8	-69.7	3.8	7.45e-01	0	40	104	0	74	29390
2026-01-21 12:43:26.05	321.86	19.39	-51.8	-69.7	3.8	7.44e-01	0	40	104	0	74	29369
2026-01-21 12:43:27.07	322.01	19.27	-51.8	-69.6	3.8	7.46e-01	0	40	104	0	74	29324
2026-01-21 12:43:28.07	322.16	19.15	-51.8	-69.6	3.8	7.47e-01	0	40	104	0	74	29328
2026-01-21 12:43:29.08	322.31	19.03	-51.8	-69.6	3.8	7.47e-01	0	40	104	0	74	29289
2026-01-21 12:43:30.09	322.46	18.91	-51.8	-69.6	3.8	7.45e-01	0	40	104	0	74	29346
2026-01-21 12:43:31.10	322.61	18.79	-51.8	-69.7	3.8	7.45e-01	0	40	104	0	74	29351
2026-01-21 12:43:32.11	322.75	18.67	-51.8	-69.7	3.8	7.46e-01	0	40	104	0	74	29410
2026-01-21 12:43:33.11	322.90	18.55	-51.8	-69.6	3.8	7.47e-01	0	40	104	0	74	29314
2026-01-21 12:43:34.12	323.04	18.43	-51.8	-69.7	3.8	7.44e-01	0	40	104	0	74	29423
2026-01-21 12:43:35.13	323.18	18.32	-51.8	-69.7	3.8	7.45e-01	0	40	104	0	74	29360
2026-01-21 12:43:36.14	323.33	18.20	-51.8	-69.6	3.8	7.46e-01	0	40	104	0	74	29312
2026-01-21 12:43:37.15	323.47	18.08	-51.8	-69.6	3.8	7.49e-01	0	40	104	0	74	29330
2026-01-21 12:43:38.15	323.61	17.97	-51.8	-69.6	3.8	7.45e-01	0	40	104	0	74	29332
2026-01-21 12:43:39.16	323.74	17.85	-51.8	-69.7	3.8	7.47e-01	0	40	104	0	74	29349
2026-01-21 12:43:40.17	323.88	17.74	-51.8	-69.7	3.8	7.51e-01	0	40	104	0	74	29360
2026-01-21 12:43:41.18	324.02	17.62	-51.8	-69.6	3.8	7.47e-01	0	40	104	0	74	29307
2026-01-21 12:43:42.19	324.15	17.51	-51.8	-69.7	3.8	7.43e-01	0	40	104	0	74	29414
2026-01-21 12:43:43.19	324.29	17.39	-51.8	-69.6	3.8	7.41e-01	0	40	104	0	74	29330
2026-01-21 12:43:44.20	324.42	17.28	-51.8	-69.6	3.8	7.46e-01	0	40	104	0	74	29335
2026-01-21 12:43:45.21	324.55	17.17	-51.8	-69.6	3.8	7.49e-01	0	40	104	0	74	29293
2026-01-21 12:43:46.22	324.69	17.05	-51.8	-69.6	3.8	7.46e-01	0	40	104	0	74	29340
2026-01-21 12:43:47.23	324.82	16.94	-51.8	-69.7	3.8	7.45e-01	0	40	104	0	74	29351
2026-01-21 12:43:48.23	324.94	16.83	-51.8	-69.6	3.8	7.44e-01	0	40	104	0	74	29315
2026-01-21 12:43:49.24	325.07	16.72	-51.8	-69.6	3.8	7.48e-01	0	40	104	0	74	29291
2026-01-21 12:43:50.24	325.20	16.61	-51.8	-69.6	3.8	7.48e-01	0	40	104	0	74	29328
2026-01-21 12:43:51.25	325.32	16.50	-51.8	-69.6	3.8	7.49e-01	0	40	104	0	74	29313
2026-01-21 12:43:52.26	325.45	16.39	-51.8	-69.6	3.8	7.46e-01	0	40	104	0	74	29278
2026-01-21 12:43:53.27	325.57	16.28	-51.8	-69.6	3.8	7.43e-01	0	40	104	0	74	29286
2026-01-21 12:43:54.28	325.70	16.17	-51.8	-69.6	3.8	7.43e-01	0	40	104	0	74	29323
2026-01-21 12:43:55.29	325.82	16.06	-51.8	-69.6	3.8	7.47e-01	0	40	104	0	74	29338
2026-01-21 12:43:56.30	325.94	15.95	-51.8	-69.6	3.8	7.44e-01	0	40	104	0	74	29280
2026-01-21 12:43:57.30	326.06	15.85	-51.8	-69.6	3.8	7.47e-01	0	40	104	0	74	29224
2026-01-21 12:43:58.31	326.18	15.74	-51.8	-69.6	3.8	7.43e-01	0	40	104	0	74	29267
2026-01-21 12:43:59.32	326.30	15.63	-51.8	-69.6	3.8	7.44e-01	0	40	104	0	74	29253
2026-01-21 12:44:00.33	326.42	15.52	-51.8	-69.6	3.8	7.45e-01	0	40	104	0	74	29294
2026-01-21 12:44:01.34	326.54	15.42	-51.8	-69.7	3.8	7.45e-01	0	40	104	0	74	29360
2026-01-21 12:44:02.35	326.66	15.31	-51.8	-69.6	3.8	7.43e-01	0	40	104	0	74	29296
2026-01-21 12:44:03.35	326.77	15.21	-51.8	-69.6	3.8	7.46e-01	0	40	104	0	74	29255
2026-01-21 12:44:04.36	326.88	15.10	-51.8	-69.6	3.8	7.44e-01	0	40	104	0	74	29256
2026-01-21 12:44:05.37	327.00	15.00	-51.8	-69.6	3.8	7.45e-01	0	40	104	0	74	29256
2026-01-21 12:44:06.38	327.11	14.89	-51.8	-69.6	3.8	7.43e-01	0	40	104	0	74	29218
2026-01-21 12:44:07.39	327.22	14.79	-51.8	-69.6	3.8	7.42e-01	0	40	104	0	74	29200
2026-01-21 12:44:08.39	327.34	14.69	-51.8	-69.6	3.8	7.46e-01	0	40	104	0	74	29249
2026-01-21 12:44:09.40	327.45	14.58	-51.8	-69.6	3.8	7.44e-01	0	40	104	0	74	29258
2026-01-21 12:44:10.41	327.56	14.48	-51.8	-69.6	3.8	7.47e-01	0	40	104	0	74	29288
2026-01-21 12:44:11.42	327.67	14.38	-51.8	-69.6	3.8	7.47e-01	0	40	104	0	74	29237
2026-01-21 12:44:12.43	327.77	14.28	-51.8	-69.6	3.8	7.47e-01	0	40	104	0	74	29319
2026-01-21 12:44:13.43	327.88	14.18	-51.8	-69.6	3.8	7.46e-01	0	40	104	0	74	29324
2026-01-21 12:44:14.44	327.99	14.07	-51.8	-69.6	3.8	7.47e-01	0	40	104	0	74	29295
2026-01-21 12:44:15.45	328.09	13.97	-51.8	-69.6	3.8	7.44e-01	0	40	104	0	74	29272
2026-01-21 12:44:16.46	328.20	13.87	-51.8	-69.6	3.8	7.47e-01	0	40	104	0	74	29308
2026-01-21 12:44:17.46	328.30	13.77	-51.8	-69.6	3.8	7.41e-01	0	40	104	0	74	29284
2026-01-21 12:44:18.47	328.41	13.67	-51.8	-69.6	3.8	7.47e-01	0	40	104	0	74	29296
2026-01-21 12:44:19.48	328.51	13.57	-51.8	-69.7	3.8	7.46e-01	0	40	104	0	74	29368
2026-01-21 12:44:20.49	328.61	13.48	-51.8	-69.6	3.8	7.47e-01	0	40	104	0	74	29332
2026-01-21 12:44:21.49	328.72	13.38	-51.8	-69.6	3.8	7.46e-01	0	40	104	0	74	29307
2026-01-21 12:44:22.50	328.82	13.28	-51.8	-69.7	3.8	7.44e-01	0	40	104	0	74	29360
2026-01-21 12:44:23.51	328.92	13.18	-51.8	-69.6	3.8	7.47e-01	0	40	104	0	74	29302
2026-01-21 12:44:24.52	329.02	13.08	-51.8	-69.6	3.8	7.45e-01	0	40	104	0	74	29288
2026-01-21 12:44:25.53	329.12	12.99	-51.8	-69.6	3.8	7.47e-01	0	40	104	0	74	29280
2026-01-21 12:44:26.53	329.22	12.89	-51.8	-69.7	3.8	7.43e-01	0	40	104	0	74	29348
2026-01-21 12:44:27.54	329.31	12.80	-51.8	-69.6	3.8	7.41e-01	0	40	104	0	74	29297
2026-01-21 12:44:28.55	329.41	12.70	-51.8	-69.6	3.8	7.45e-01	0	40	104	0	74	29341
2026-01-21 12:44:29.56	329.51	12.60	-51.8	-69.6	3.8	7.46e-01	0	40	104	0	74	29305
2026-01-21 12:44:30.57	329.60	12.51	-51.8	-69.6	3.8	7.47e-01	0	40	104	0	74	29217
2026-01-21 12:44:31.57	329.70	12.41	-51.8	-69.6	3.8	7.45e-01	0	40	104	0	74	29065
2026-01-21 12:44:32.58	329.79	12.32	-51.8	-69.5	3.8	7.43e-01	0	40	104	0	74	28966
2026-01-21 12:44:33.59	329.89	12.22	-51.8	-69.5	3.8	7.44e-01	0	40	104	0	74	28860
2026-01-21 12:44:34.60	329.98	12.13	-51.8	-69.5	3.8	7.47e-01	0	40	104	0	74	28891
2026-01-21 12:44:35.61	330.07	12.04	-51.8	-69.5	3.8	7.46e-01	0	40	104	0	74	28808
2026-01-21 12:44:36.61	330.17	11.94	-51.8	-69.5	3.8	7.46e-01	0	40	104	0	74	28787
2026-01-21 12:44:37.62	330.26	11.85	-51.8	-69.5	3.8	7.44e-01	0	40	104	0	74	28919
2026-01-21 12:44:38.63	330.35	11.76	-51.8	-69.5	3.8	7.45e-01	0	40	104	0	74	28855
2026-01-21 12:44:39.64	330.44	11.67	-51.8	-69.5	3.8	7.43e-01	0	40	104	0	74	28881
2026-01-21 12:44:40.65	330.53	11.57	-51.8	-69.5	3.8	7.41e-01	0	40	104	0	74	28705
2026-01-21 12:44:41.65	330.62	11.48	-51.8	-69.4	3.8	7.44e-01	0	40	104	0	74	28582
2026-01-21 12:44:42.66	330.71	11.39	-51.8	-69.4	3.8	7.46e-01	0	40	104	0	74	28531
2026-01-21 12:44:43.66	330.79	11.30	-51.8	-69.4	3.8	7.45e-01	0	40	104	0	74	28562
2026-01-21 12:44:44.67	330.88	11.21	-51.8	-69.4	3.8	7.45e-01	0	40	104	0	74	28573
2026-01-21 12:44:45.68	330.97	11.12	-51.8	-69.4	3.8	7.45e-01	0	40	104	0	74	28636
2026-01-21 12:44:46.69	331.06	11.03	-51.8	-69.5	3.8	7.44e-01	0	40	104	0	74	28749
2026-01-21 12:44:47.70	331.14	10.94	-51.8	-69.5	3.8	7.47e-01	0	40	104	0	74	28861
2026-01-21 12:44:48.71	331.23	10.85	-51.8	-69.6	3.8	7.44e-01	0	40	104	0	74	29067
2026-01-21 12:44:49.71	331.31	10.76	-51.8	-69.6	3.8	7.46e-01	0	40	104	0	74	29015
2026-01-21 12:44:50.72	331.40	10.68	-51.8	-69.6	3.8	7.46e-01	0	40	104	0	74	29206
2026-01-21 12:44:51.73	331.48	10.59	-51.8	-69.6	3.8	7.41e-01	0	40	104	0	74	29156
2026-01-21 12:44:52.74	331.57	10.50	-51.8	-69.6	3.8	7.46e-01	0	40	104	0	74	29156
2026-01-21 12:44:53.75	331.65	10.41	-51.8	-69.6	3.8	7.44e-01	0	40	104	0	74	29182
2026-01-21 12:44:54.75	331.73	10.32	-51.8	-69.6	3.8	7.48e-01	0	40	104	0	74	29172
2026-01-21 12:44:55.76	331.81	10.24	-51.8	-69.6	3.8	7.44e-01	0	40	104	0	74	29188
2026-01-21 12:44:56.77	331.89	10.15	-51.8	-69.6	3.8	7.45e-01	0	40	104	0	74	29136
2026-01-21 12:44:57.77	331.97	10.06	-51.8	-69.6	3.8	7.45e-01	0	40	104	0	74	29311
2026-01-21 12:44:58.78	332.05	9.98	-51.8	-69.6	3.8	7.46e-01	0	40	104	0	74	29169
2026-01-21 12:44:59.79	332.13	9.89	-51.8	-69.6	3.8	7.45e-01	0	40	104	0	74	29159
2026-01-21 12:45:00.80	332.21	9.81	-51.8	-69.6	3.8	7.46e-01	0	40	104	0	74	29221
2026-01-21 12:45:01.81	332.29	9.72	-51.8	-69.6	3.8	7.45e-01	0	40	104	0	74	29069
2026-01-21 12:45:02.82	332.37	9.63	-51.8	-69.5	3.8	7.46e-01	0	40	104	0	74	28968
2026-01-21 12:45:03.83	332.45	9.55	-51.8	-69.5	3.8	7.47e-01	0	40	104	0	74	29003
2026-01-21 12:45:04.84	332.53	9.47	-51.8	-69.5	3.8	7.45e-01	0	40	104	0	74	28904
2026-01-21 12:45:05.85	332.61	9.38	-51.8	-69.5	3.8	7.45e-01	0	40	104	0	74	28815
2026-01-21 12:45:06.85	332.68	9.30	-51.8	-69.4	3.8	7.40e-01	0	40	104	0	74	28454
2026-01-21 12:45:07.86	332.76	9.21	-51.8	-69.4	3.8	7.47e-01	0	40	104	0	74	28550
2026-01-21 12:45:08.87	332.83	9.13	-51.8	-69.5	3.8	7.48e-01	0	40	104	0	74	28846
2026-01-21 12:45:09.88	332.91	9.05	-51.8	-69.4	3.8	7.47e-01	0	40	104	0	74	28498
2026-01-21 12:45:10.89	332.98	8.96	-51.8	-69.6	3.8	7.42e-01	0	40	104	0	74	29054
2026-01-21 12:45:11.89	333.06	8.88	-51.8	-69.6	3.8	7.45e-01	0	40	104	0	74	29078
2026-01-21 12:45:12.90	333.13	8.80	-51.8	-69.6	3.8	7.43e-01	0	40	104	0	74	29257
2026-01-21 12:45:13.91	333.21	8.72	-51.8	-69.6	3.8	7.45e-01	0	40	104	0	74	29304
2026-01-21 12:45:14.92	333.28	8.64	-51.8	-69.7	3.8	7.47e-01	0	40	104	0	74	29374
2026-01-21 12:45:15.93	333.35	8.55	-51.8	-69.6	3.8	7.44e-01	0	40	104	0	74	29201
2026-01-21 12:45:16.93	333.43	8.47	-51.8	-69.6	3.8	7.42e-01	0	40	104	0	74	29169
2026-01-21 12:45:17.94	333.50	8.39	-51.8	-69.6	3.8	7.45e-01	0	40	104	0	74	29110
2026-01-21 12:45:18.95	333.57	8.31	-51.8	-69.6	3.8	7.44e-01	0	40	104	0	74	29246
2026-01-21 12:45:19.96	333.64	8.23	-51.8	-69.6	3.8	7.45e-01	0	40	104	0	74	29253
2026-01-21 12:45:20.96	333.71	8.15	-51.8	-69.6	3.8	7.48e-01	0	40	104	0	74	29332
2026-01-21 12:45:21.97	333.78	8.07	-51.8	-69.6	3.8	7.45e-01	0	40	104	0	74	29308
2026-01-21 12:45:22.98	333.85	7.99	-51.8	-69.6	3.8	7.45e-01	0	40	104	0	74	29248
2026-01-21 12:45:23.99	333.92	7.91	-51.8	-69.6	3.8	7.48e-01	0	40	104	0	74	29318
2026-01-21 12:45:25.00	333.99	7.83	-51.8	-69.6	3.8	7.44e-01	0	40	104	0	74	29292
2026-01-21 12:45:26.01	334.06	7.75	-51.8	-69.6	3.8	7.47e-01	0	40	104	0	74	29259
2026-01-21 12:45:27.02	334.13	7.67	-51.8	-69.6	3.8	7.45e-01	0	40	104	0	74	29213
2026-01-21 12:45:28.03	334.20	7.59	-51.8	-69.6	3.8	7.43e-01	0	40	104	0	74	29263
2026-01-21 12:45:29.03	334.26	7.52	-51.8	-69.6	3.8	7.45e-01	0	40	104	0	74	29061
2026-01-21 12:45:30.04	334.33	7.44	-51.8	-69.6	3.8	7.43e-01	0	40	104	0	74	29232
2026-01-21 12:45:31.05	334.40	7.36	-51.8	-69.5	3.8	7.46e-01	0	40	104	0	74	28939
2026-01-21 12:45:32.06	334.47	7.28	-51.8	-69.5	3.8	7.44e-01	0	40	104	0	74	28943
2026-01-21 12:45:33.06	334.53	7.21	-51.8	-69.5	3.8	7.46e-01	0	40	104	0	74	29011
2026-01-21 12:45:34.07	334.60	7.13	-51.8	-69.6	3.8	7.45e-01	0	40	104	0	74	29232
2026-01-21 12:45:35.09	334.66	7.05	-51.8	-69.6	3.8	7.43e-01	0	40	104	0	74	29089
2026-01-21 12:45:36.09	334.73	6.98	-51.8	-69.6	3.8	7.45e-01	0	40	104	0	74	29171
2026-01-21 12:45:37.10	334.79	6.90	-51.8	-69.6	3.8	7.45e-01	0	40	104	0	74	29225
2026-01-21 12:45:38.11	334.86	6.82	-51.8	-69.6	3.8	7.45e-01	0	40	104	0	74	29207
2026-01-21 12:45:39.12	334.92	6.75	-51.8	-69.6	3.8	7.45e-01	0	40	104	0	74	29031
2026-01-21 12:45:40.13	334.99	6.67	-51.8	-69.6	3.8	7.48e-01	0	40	104	0	74	29079
2026-01-21 12:45:41.13	335.05	6.60	-51.8	-69.6	3.8	7.48e-01	0	40	104	0	74	29071
2026-01-21 12:45:42.14	335.11	6.52	-51.8	-69.6	3.8	7.47e-01	0	40	104	0	74	29197
2026-01-21 12:45:43.15	335.18	6.44	-51.8	-69.6	3.8	7.47e-01	0	40	104	0	74	29216
2026-01-21 12:45:44.15	335.24	6.37	-51.8	-69.6	3.8	7.45e-01	0	40	104	0	74	29174
2026-01-21 12:45:45.16	335.30	6.30	-51.8	-69.6	3.8	7.46e-01	0	40	104	0	74	29031
2026-01-21 12:45:46.17	335.36	6.22	-51.8	-69.5	3.8	7.45e-01	0	40	104	0	74	28776
2026-01-21 12:45:47.18	335.42	6.15	-51.8	-69.5	3.8	7.42e-01	0	40	104	0	74	28812
2026-01-21 12:45:48.19	335.49	6.07	-51.8	-69.4	3.8	7.46e-01	0	40	104	0	74	28600
2026-01-21 12:45:49.20	335.55	6.00	-51.8	-69.5	3.8	7.45e-01	0	40	104	0	74	28726
2026-01-21 12:45:50.21	335.61	5.92	-51.8	-69.5	3.8	7.44e-01	0	40	104	0	74	28829
2026-01-21 12:45:51.21	335.67	5.85	-51.8	-69.5	3.8	7.44e-01	0	40	104	0	74	28983
2026-01-21 12:45:52.22	335.73	5.78	-51.8	-69.5	3.8	7.44e-01	0	40	104	0	74	28997
2026-01-21 12:45:53.23	335.79	5.71	-51.8	-69.6	3.8	7.46e-01	0	40	104	0	74	29172
2026-01-21 12:45:54.24	335.85	5.63	-51.8	-69.6	3.8	7.46e-01	0	40	104	0	74	29139
2026-01-21 12:45:55.25	335.91	5.56	-51.8	-69.6	3.8	7.43e-01	0	40	104	0	74	29170
2026-01-21 12:45:56.26	335.97	5.49	-51.8	-69.6	3.8	7.43e-01	0	40	104	0	74	29170
2026-01-21 12:45:57.26	336.02	5.42	-51.8	-69.6	3.8	7.44e-01	0	40	104	0	74	29186
2026-01-21 12:45:58.27	336.08	5.34	-51.8	-69.5	3.8	7.48e-01	0	40	104	0	74	29002
2026-01-21 12:45:59.28	336.14	5.27	-51.8	-69.6	3.8	7.45e-01	0	40	104	0	74	29123
2026-01-21 12:46:00.29	336.20	5.20	-51.8	-69.6	3.8	7.43e-01	0	40	104	0	74	29126
2026-01-21 12:46:01.30	336.26	5.13	-51.8	-69.6	3.8	7.44e-01	0	40	104	0	74	29156
2026-01-21 12:46:02.30	336.31	5.06	-51.8	-69.6	3.8	7.46e-01	0	40	104	0	74	29254
2026-01-21 12:46:03.31	336.37	4.99	-51.8	-69.6	3.8	7.52e-01	0	40	104	0	74	29169
2026-01-21 12:46:04.32	336.43	4.92	-51.8	-69.6	3.8	7.44e-01	0	40	104	0	74	29251
2026-01-21 12:46:05.33	336.48	4.85	-51.8	-69.6	3.8	7.49e-01	0	40	104	0	74	29217
2026-01-21 12:46:06.34	336.54	4.77	-51.8	-69.6	3.8	7.46e-01	0	40	104	0	74	29332
2026-01-21 12:46:07.34	336.59	4.70	-51.8	-69.6	3.8	7.44e-01	0	40	104	0	74	29271
2026-01-21 12:46:08.35	336.65	4.63	-51.8	-69.6	3.8	7.45e-01	0	40	104	0	74	29231
2026-01-21 12:46:09.36	336.71	4.56	-51.8	-69.6	3.8	7.44e-01	0	40	104	0	74	29233
2026-01-21 12:46:10.37	336.76	4.49	-51.8	-69.6	3.8	7.46e-01	0	40	104	0	74	29243
2026-01-21 12:46:11.38	336.82	4.43	-51.8	-69.6	3.8	7.44e-01	0	40	104	0	74	29276
2026-01-21 12:46:12.38	336.87	4.36	-51.8	-69.6	3.8	7.45e-01	0	40	104	0	74	29168
2026-01-21 12:46:13.39	336.92	4.29	-51.8	-69.6	3.8	7.50e-01	0	40	104	0	74	29074
2026-01-21 12:46:14.40	336.98	4.22	-51.8	-69.6	3.8	7.44e-01	0	40	104	0	74	29190
2026-01-21 12:46:15.41	337.03	4.15	-51.8	-69.6	3.8	7.43e-01	0	40	104	0	74	29081
2026-01-21 12:46:16.42	337.09	4.08	-51.8	-69.6	3.8	7.44e-01	0	40	104	0	74	29143
2026-01-21 12:46:17.42	337.14	4.01	-51.8	-69.6	3.8	7.45e-01	0	40	104	0	74	29185
2026-01-21 12:46:18.43	337.19	3.94	-51.8	-69.6	3.8	7.44e-01	0	40	104	0	74	29244
2026-01-21 12:46:19.44	337.24	3.88	-51.8	-69.6	3.8	7.46e-01	0	40	104	0	74	29206
2026-01-21 12:46:20.45	337.30	3.81	-51.8	-69.6	3.8	7.44e-01	0	40	104	0	74	29252
2026-01-21 12:46:21.46	337.35	3.74	-51.8	-69.6	3.8	7.45e-01	0	40	104	0	74	29321
2026-01-21 12:46:22.47	337.40	3.67	-51.8	-69.6	3.8	7.43e-01	0	40	104	0	74	29280
2026-01-21 12:46:23.47	337.45	3.61	-51.8	-69.6	3.8	7.44e-01	0	40	104	0	74	29303
2026-01-21 12:46:24.48	337.50	3.54	-51.8	-69.6	3.8	7.46e-01	0	40	104	0	74	29274
2026-01-21 12:46:25.49	337.56	3.47	-51.8	-69.6	3.8	7.48e-01	0	40	104	0	74	29248
2026-01-21 12:46:26.50	337.61	3.40	-51.8	-69.6	3.8	7.46e-01	0	40	104	0	74	29278
2026-01-21 12:46:27.50	337.66	3.34	-51.8	-69.6	3.8	7.45e-01	0	40	104	0	74	29255
2026-01-21 12:46:28.51	337.71	3.27	-51.8	-69.6	3.8	7.45e-01	0	40	104	0	74	29155
2026-01-21 12:46:29.52	337.76	3.20	-51.8	-69.6	3.8	7.44e-01	0	40	104	0	74	29214
2026-01-21 12:46:30.46	337.81	3.14	-51.8	-69.6	3.8	7.47e-01	0	40	104	0	74	29248
2026-01-21 12:46:31.47	337.86	3.08	-51.8	-69.6	3.8	7.46e-01	0	40	104	0	74	29125
2026-01-21 12:46:32.48	337.91	3.01	-51.8	-69.6	3.8	7.46e-01	0	40	104	0	74	29093
2026-01-21 12:46:33.49	337.96	2.94	-51.8	-69.6	3.8	7.44e-01	0	40	104	0	74	29169
2026-01-21 12:46:34.50	338.00	2.88	-51.8	-69.5	3.8	7.50e-01	0	40	104	0	74	28930
2026-01-21 12:46:35.50	338.05	2.81	-51.8	-69.5	3.8	7.45e-01	0	40	104	0	74	28939
2026-01-21 12:46:36.51	338.10	2.75	-51.8	-69.5	3.8	7.49e-01	0	40	104	0	74	28999
2026-01-21 12:46:37.52	338.15	2.68	-51.8	-69.5	3.8	7.46e-01	0	40	104	0	74	28733
2026-01-21 12:46:38.53	338.20	2.62	-51.8	-69.5	3.8	7.45e-01	0	40	104	0	74	28784
2026-01-21 12:46:39.53	338.25	2.55	-51.8	-69.4	3.8	7.47e-01	0	40	104	0	74	28489
2026-01-21 12:46:40.54	338.30	2.49	-51.8	-69.2	3.8	7.42e-01	0	40	104	0	74	28002
2026-01-21 12:46:41.55	338.34	2.42	-51.8	-69.4	3.8	7.42e-01	0	40	104	0	74	28640
