passes_logs/2026/01/21/R3.2S_Murmansk/R3.2S_Murmansk__20260121_065536_KANOPUS-V_5_rec.log

#Pass ID: 20260121_065536_KANOPUS-V 5
#Satellite: KANOPUS-V 5
#Configuration: KANOPUS-V_8320
#almurnet v.1.7.20251203
#Start time: 2026-01-21 06:55:37

#Version: 2.2.20231116
#Station: R3.2S_Murmansk
#Location: 33.079688 lon 68.888172 lat
#TLE: 1 43876U 18111A   26020.16250899  .00005594  00000+0  23751-3 0  9993
#TLE: 2 43876  97.3687 288.5833 0001817  87.9007 272.2438 15.23474018392259

#Time	Az	El	Level	Level2	SNR	BER	BlckErr	Temp	State	Recorded	gain1	gain2
2026-01-21 06:55:37.72	136.23	2.07	-54.8	-63.7	3.8	7.44e-01	0	38	0	0	80	10454
2026-01-21 06:55:38.72	136.20	2.14	-55.0	-63.9	3.8	7.47e-01	0	38	104	0	81	10136
2026-01-21 06:55:39.73	136.16	2.21	-55.0	-63.9	3.8	7.46e-01	0	38	104	0	81	10078
2026-01-21 06:55:40.73	136.13	2.28	-55.0	-63.8	3.8	7.44e-01	0	38	104	0	81	10055
2026-01-21 06:55:41.74	136.10	2.35	-54.9	-63.8	3.8	7.44e-01	0	39	104	0	81	9956
2026-01-21 06:55:42.75	136.07	2.42	-54.9	-63.8	3.8	7.46e-01	0	39	104	0	81	9959
2026-01-21 06:55:43.75	136.04	2.49	-54.9	-63.7	3.8	7.46e-01	0	39	104	0	81	9937
2026-01-21 06:55:44.76	136.00	2.56	-54.8	-63.7	3.8	7.47e-01	0	39	104	0	81	9893
2026-01-21 06:55:45.77	135.97	2.63	-54.8	-63.6	3.8	7.45e-01	0	39	104	0	81	9791
2026-01-21 06:55:46.78	135.94	2.71	-54.7	-63.6	3.8	7.46e-01	0	39	104	0	81	9735
2026-01-21 06:55:47.79	135.90	2.78	-54.7	-63.5	3.8	7.45e-01	0	39	104	0	81	9695
2026-01-21 06:55:48.80	135.87	2.85	-54.6	-63.5	3.8	7.46e-01	0	39	104	0	81	9660
2026-01-21 06:55:49.81	135.84	2.92	-54.6	-63.4	3.8	7.44e-01	0	39	104	0	81	9536
2026-01-21 06:55:50.81	135.80	3.00	-54.4	-63.3	3.8	7.45e-01	0	39	104	0	80	9974
2026-01-21 06:55:51.82	135.77	3.07	-54.3	-63.2	3.8	7.46e-01	0	39	104	0	80	9848
2026-01-21 06:55:52.83	135.73	3.14	-54.2	-63.0	3.8	7.46e-01	0	39	104	0	80	9701
2026-01-21 06:55:53.84	135.70	3.22	-54.1	-62.9	3.8	7.45e-01	0	39	104	0	80	9584
2026-01-21 06:55:54.85	135.66	3.29	-54.0	-62.8	3.8	7.46e-01	0	39	104	0	79	10052
2026-01-21 06:55:55.85	135.63	3.37	-53.7	-62.6	3.8	7.45e-01	0	39	104	0	79	9719
2026-01-21 06:55:56.86	135.59	3.44	-53.4	-62.3	3.8	7.44e-01	0	39	104	0	78	9948
2026-01-21 06:55:57.87	135.55	3.52	-53.3	-62.1	3.8	7.45e-01	0	39	104	0	78	9773
2026-01-21 06:55:58.87	135.52	3.59	-53.0	-61.7	3.8	7.44e-01	0	39	104	0	78	9384
2026-01-21 06:55:59.88	135.48	3.67	-52.9	-61.6	3.8	7.48e-01	0	39	104	0	77	9726
2026-01-21 06:56:00.89	135.44	3.74	-52.9	-61.4	3.8	7.45e-01	0	39	104	0	77	9556
2026-01-21 06:56:01.90	135.41	3.82	-52.8	-61.3	3.8	7.45e-01	0	39	104	0	77	9409
2026-01-21 06:56:02.91	135.37	3.89	-52.9	-61.5	3.8	7.45e-01	0	39	104	0	77	9624
2026-01-21 06:56:03.91	135.33	3.97	-52.9	-61.7	3.8	7.44e-01	0	39	104	0	77	9905
2026-01-21 06:56:04.92	135.30	4.05	-52.9	-61.7	3.8	7.47e-01	0	39	104	0	77	9875
2026-01-21 06:56:05.93	135.26	4.12	-52.8	-61.0	3.8	7.46e-01	0	39	104	0	77	9170
2026-01-21 06:56:06.93	135.22	4.20	-52.3	-59.4	3.8	7.44e-01	0	39	104	0	76	8028
2026-01-21 06:56:07.94	135.18	4.28	-51.6	-57.3	4.4	7.25e-01	0	39	0	6291456	75	6667
2026-01-21 06:56:08.95	135.14	4.36	-50.8	-55.5	5.4	6.94e-01	0	39	0	23068672	73	6102
2026-01-21 06:56:09.96	135.10	4.43	-49.8	-53.6	7.0	6.52e-01	0	39	0	37748736	71	5495
2026-01-21 06:56:10.97	135.06	4.51	-48.7	-52.0	8.4	6.32e-01	0	39	0	52428800	69	5142
2026-01-21 06:56:11.97	135.02	4.59	-47.6	-50.5	10.0	6.13e-01	0	39	0	69206016	67	4840
2026-01-21 06:56:12.98	134.98	4.67	-46.6	-49.1	11.3	6.07e-01	0	39	0	83886080	65	4649
2026-01-21 06:56:13.99	134.94	4.75	-45.8	-48.1	12.3	6.02e-01	0	39	0	98566144	63	4642
2026-01-21 06:56:15.00	134.90	4.83	-45.4	-47.7	12.8	6.03e-01	0	39	0	115343360	62	4662
2026-01-21 06:56:16.01	134.86	4.91	-45.6	-48.0	12.5	6.02e-01	0	39	0	130023424	62	4845
2026-01-21 06:56:17.01	134.82	4.99	-45.7	-48.1	12.4	6.05e-01	0	39	0	146800640	62	4900
2026-01-21 06:56:18.02	134.78	5.07	-45.9	-48.4	12.1	6.02e-01	0	39	0	161480704	62	5052
2026-01-21 06:56:19.03	134.73	5.15	-47.7	-50.5	10.1	6.14e-01	0	39	0	178257920	65	5431
2026-01-21 06:56:20.04	134.69	5.23	-45.3	-47.5	13.2	6.00e-01	0	39	0	192937984	61	4868
2026-01-21 06:56:21.05	134.65	5.31	-50.9	-55.8	5.2	6.98e-01	0	39	0	207618048	72	6718
2026-01-21 06:56:22.05	134.61	5.39	-47.7	-50.5	10.4	6.07e-01	0	40	0	224395264	65	5419
2026-01-21 06:56:23.07	134.56	5.48	-50.4	-54.6	6.2	6.68e-01	0	39	0	239075328	71	6174
2026-01-21 06:56:24.07	134.52	5.56	-44.5	-46.7	13.9	6.01e-01	0	39	0	253755392	61	4402
2026-01-21 06:56:25.08	134.48	5.64	-44.5	-46.7	13.9	5.97e-01	0	39	0	270532608	60	4662
2026-01-21 06:56:26.09	134.43	5.72	-44.7	-46.8	13.7	5.99e-01	0	39	0	285212672	60	4751
2026-01-21 06:56:27.09	134.39	5.81	-44.2	-46.3	14.3	5.98e-01	0	39	0	299892736	60	4451
2026-01-21 06:56:28.10	134.34	5.89	-44.0	-46.1	14.4	5.98e-01	0	40	0	316669952	60	4371
2026-01-21 06:56:29.11	134.30	5.98	-44.1	-46.2	14.4	5.95e-01	0	39	0	331350016	60	4428
2026-01-21 06:56:30.12	134.25	6.06	-44.3	-46.4	14.2	6.03e-01	0	40	0	348127232	60	4508
2026-01-21 06:56:31.12	134.20	6.14	-44.1	-46.2	14.3	6.03e-01	0	39	0	362807296	59	4686
2026-01-21 06:56:32.13	134.16	6.23	-44.4	-46.4	14.2	6.04e-01	0	40	0	379584512	59	4814
2026-01-21 06:56:33.14	134.11	6.32	-43.9	-46.0	14.6	5.99e-01	0	40	0	394264576	59	4571
2026-01-21 06:56:34.15	134.06	6.40	-44.3	-46.4	14.3	6.04e-01	0	40	0	408944640	59	4771
2026-01-21 06:56:35.16	134.02	6.49	-44.4	-46.5	14.2	6.03e-01	0	39	0	425721856	59	4836
2026-01-21 06:56:36.16	133.97	6.57	-44.5	-46.6	14.1	5.98e-01	0	40	0	440401920	59	4889
2026-01-21 06:56:37.17	133.92	6.66	-44.3	-46.4	14.3	5.99e-01	0	40	0	455081984	59	4760
2026-01-21 06:56:38.18	133.87	6.75	-44.2	-46.2	14.4	5.97e-01	0	40	0	471859200	59	4702
2026-01-21 06:56:39.19	133.82	6.84	-44.2	-46.3	14.4	6.01e-01	0	40	0	486539264	59	4730
2026-01-21 06:56:40.19	133.77	6.92	-44.1	-46.2	14.5	6.01e-01	0	40	0	501219328	59	4674
2026-01-21 06:56:41.20	133.72	7.01	-44.1	-46.1	14.6	6.01e-01	0	40	0	517996544	59	4639
2026-01-21 06:56:42.21	133.67	7.10	-44.1	-46.1	14.6	5.98e-01	0	40	0	532676608	59	4625
2026-01-21 06:56:43.22	133.62	7.19	-44.0	-46.1	14.7	5.98e-01	0	40	0	549453824	59	4599
2026-01-21 06:56:44.23	133.57	7.28	-44.0	-46.1	14.6	5.98e-01	0	40	0	564133888	59	4626
2026-01-21 06:56:45.23	133.52	7.37	-44.1	-46.1	14.6	6.00e-01	0	40	0	580911104	59	4639
2026-01-21 06:56:46.24	133.47	7.46	-44.2	-46.2	14.5	6.00e-01	0	40	0	595591168	59	4700
2026-01-21 06:56:47.25	133.41	7.55	-44.4	-46.4	14.3	6.04e-01	0	40	0	610271232	59	4804
2026-01-21 06:56:48.26	133.36	7.65	-44.1	-46.1	14.7	5.98e-01	0	40	0	627048448	59	4628
2026-01-21 06:56:49.27	133.31	7.74	-43.7	-45.7	15.0	6.04e-01	0	40	0	641728512	59	4423
2026-01-21 06:56:50.27	133.25	7.83	-43.7	-45.7	15.0	6.03e-01	0	40	0	656408576	59	4437
2026-01-21 06:56:51.28	133.20	7.92	-43.9	-45.9	14.8	6.02e-01	0	40	0	673185792	59	4543
2026-01-21 06:56:52.29	133.15	8.02	-44.0	-46.0	14.8	6.04e-01	0	39	0	687865856	59	4584
2026-01-21 06:56:53.30	133.09	8.11	-43.8	-45.8	15.0	6.04e-01	0	40	0	702545920	59	4465
2026-01-21 06:56:54.31	133.03	8.20	-43.8	-45.8	14.9	6.02e-01	0	40	0	719323136	59	4485
2026-01-21 06:56:55.32	132.98	8.30	-43.7	-45.7	15.1	6.02e-01	0	40	0	736100352	59	4415
2026-01-21 06:56:56.32	132.92	8.39	-43.9	-46.0	14.9	6.01e-01	0	40	0	750780416	59	4566
2026-01-21 06:56:57.33	132.86	8.49	-43.8	-45.9	14.9	6.02e-01	0	40	0	765460480	59	4537
2026-01-21 06:56:58.34	132.81	8.58	-44.1	-46.3	14.6	6.03e-01	0	40	0	782237696	59	4722
2026-01-21 06:56:59.35	132.75	8.68	-43.9	-46.1	14.8	6.04e-01	0	40	0	796917760	59	4619
2026-01-21 06:57:00.36	132.69	8.78	-44.1	-46.2	14.7	6.03e-01	0	40	0	811597824	59	4691
2026-01-21 06:57:01.36	132.63	8.87	-43.8	-46.0	14.9	6.04e-01	0	40	0	828375040	59	4551
2026-01-21 06:57:02.37	132.57	8.97	-43.8	-46.0	14.9	6.01e-01	0	40	0	843055104	59	4569
2026-01-21 06:57:03.38	132.51	9.07	-43.8	-46.0	14.9	6.01e-01	0	40	0	857735168	59	4572
2026-01-21 06:57:04.39	132.45	9.17	-43.5	-45.7	15.2	6.01e-01	0	40	0	874512384	59	4400
2026-01-21 06:57:05.39	132.39	9.27	-43.5	-45.6	15.2	6.02e-01	0	40	0	889192448	58	4630
2026-01-21 06:57:06.40	132.33	9.37	-43.2	-45.3	15.5	6.02e-01	0	40	0	903872512	58	4475
2026-01-21 06:57:07.41	132.27	9.47	-43.2	-45.3	15.4	6.05e-01	0	40	0	920649728	58	4483
2026-01-21 06:57:08.42	132.20	9.57	-43.2	-45.3	15.5	6.00e-01	0	40	0	937426944	58	4492
2026-01-21 06:57:09.42	132.14	9.67	-43.3	-45.5	15.4	6.04e-01	0	40	0	952107008	58	4547
2026-01-21 06:57:10.43	132.08	9.77	-43.0	-45.1	15.6	6.00e-01	0	40	0	966787072	58	4381
2026-01-21 06:57:11.44	132.01	9.88	-43.1	-45.3	15.5	6.05e-01	0	40	0	983564288	58	4456
2026-01-21 06:57:12.45	131.94	9.98	-42.9	-45.0	15.7	5.97e-01	0	40	0	998244352	57	4595
2026-01-21 06:57:13.46	131.88	10.08	-43.0	-45.2	15.6	6.01e-01	0	40	0	1012924416	57	4676
2026-01-21 06:57:14.46	131.81	10.19	-42.9	-45.0	15.8	6.02e-01	0	40	0	1029701632	57	4570
2026-01-21 06:57:15.47	131.75	10.29	-42.8	-44.9	15.8	6.03e-01	0	40	0	1044381696	57	4527
2026-01-21 06:57:16.48	131.68	10.40	-42.8	-44.9	15.8	6.04e-01	0	40	0	1059061760	57	4504
2026-01-21 06:57:17.49	131.61	10.50	-42.7	-44.8	15.9	6.02e-01	0	40	0	1075838976	57	4481
2026-01-21 06:57:18.50	131.54	10.61	-42.7	-44.8	16.0	6.01e-01	0	40	0	1090519040	57	4457
2026-01-21 06:57:19.50	131.47	10.71	-42.7	-44.8	16.0	6.00e-01	0	40	0	1105199104	57	4475
2026-01-21 06:57:20.51	131.40	10.82	-42.5	-44.5	16.2	6.03e-01	0	40	0	1121976320	57	4334
2026-01-21 06:57:21.52	131.33	10.93	-42.7	-44.7	16.0	6.00e-01	0	40	0	1138753536	56	4678
2026-01-21 06:57:22.53	131.26	11.04	-42.4	-44.4	16.3	5.98e-01	0	40	0	1153433600	56	4521
2026-01-21 06:57:23.53	131.19	11.15	-42.5	-44.5	16.2	6.00e-01	0	40	0	1168113664	56	4551
2026-01-21 06:57:24.54	131.11	11.26	-42.4	-44.4	16.3	6.06e-01	0	40	0	1184890880	56	4521
2026-01-21 06:57:25.55	131.04	11.37	-42.2	-44.2	16.5	6.00e-01	0	40	0	1199570944	56	4396
2026-01-21 06:57:26.56	130.96	11.48	-42.1	-44.0	16.6	5.99e-01	0	40	0	1214251008	56	4338
2026-01-21 06:57:27.56	130.89	11.59	-42.2	-44.1	16.6	5.97e-01	0	40	0	1228931072	56	4359
2026-01-21 06:57:28.57	130.81	11.70	-42.2	-44.1	16.7	6.00e-01	0	40	0	1245708288	55	4624
2026-01-21 06:57:29.58	130.74	11.82	-42.2	-44.1	16.7	5.96e-01	0	40	0	1260388352	55	4614
2026-01-21 06:57:30.59	130.66	11.93	-42.0	-43.9	16.9	5.96e-01	0	40	0	1275068416	55	4508
2026-01-21 06:57:31.60	130.58	12.05	-42.0	-43.9	16.9	5.98e-01	0	40	0	1291845632	55	4504
2026-01-21 06:57:32.60	130.50	12.16	-41.9	-43.8	17.0	5.96e-01	0	40	0	1306525696	55	4469
2026-01-21 06:57:33.61	130.42	12.28	-41.8	-43.6	17.1	5.99e-01	0	40	0	1321205760	55	4365
2026-01-21 06:57:34.62	130.34	12.39	-41.8	-43.6	17.1	5.99e-01	0	40	0	1337982976	55	4379
2026-01-21 06:57:35.62	130.26	12.51	-41.8	-43.6	17.1	6.00e-01	0	40	0	1354760192	55	4386
2026-01-21 06:57:36.63	130.18	12.63	-41.6	-43.4	17.3	5.98e-01	0	40	0	1369440256	55	4266
2026-01-21 06:57:37.64	130.10	12.75	-41.6	-43.4	17.3	5.99e-01	0	40	0	1384120320	55	4273
2026-01-21 06:57:38.65	130.01	12.86	-41.5	-43.3	17.4	5.97e-01	0	40	0	1400897536	55	4219
2026-01-21 06:57:39.66	129.93	12.99	-41.5	-43.3	17.5	5.97e-01	0	40	0	1415577600	55	4196
2026-01-21 06:57:40.67	129.84	13.11	-41.4	-43.1	17.5	6.01e-01	0	40	0	1430257664	54	4372
2026-01-21 06:57:41.67	129.76	13.23	-41.3	-43.1	17.5	6.01e-01	0	40	0	1447034880	54	4364
2026-01-21 06:57:42.68	129.67	13.35	-41.3	-43.0	17.6	5.97e-01	0	40	0	1461714944	54	4318
2026-01-21 06:57:43.69	129.58	13.47	-41.2	-42.9	17.6	5.97e-01	0	40	0	1476395008	54	4290
2026-01-21 06:57:44.70	129.49	13.60	-41.2	-42.9	17.7	6.01e-01	0	40	0	1493172224	54	4288
2026-01-21 06:57:45.71	129.40	13.72	-41.1	-42.9	17.7	5.94e-01	0	40	0	1507852288	54	4266
2026-01-21 06:57:46.71	129.31	13.84	-41.0	-42.8	17.8	5.92e-01	0	40	0	1524629504	54	4198
2026-01-21 06:57:47.72	129.22	13.97	-41.1	-42.8	17.7	5.95e-01	0	40	0	1539309568	54	4238
2026-01-21 06:57:48.73	129.13	14.10	-41.0	-42.8	17.8	5.94e-01	0	40	0	1556086784	53	4446
2026-01-21 06:57:49.73	129.03	14.22	-41.0	-42.8	17.7	5.98e-01	0	40	0	1570766848	53	4464
2026-01-21 06:57:50.74	128.94	14.35	-40.9	-42.7	17.8	5.97e-01	0	40	0	1585446912	53	4409
2026-01-21 06:57:51.75	128.84	14.48	-40.9	-42.7	17.8	5.93e-01	0	40	0	1602224128	53	4416
2026-01-21 06:57:52.76	128.75	14.61	-40.9	-42.7	17.8	5.95e-01	0	40	0	1616904192	53	4439
2026-01-21 06:57:53.77	128.65	14.74	-40.8	-42.6	17.9	5.98e-01	0	40	0	1631584256	53	4391
2026-01-21 06:57:54.77	128.55	14.88	-40.8	-42.6	17.9	6.01e-01	0	40	0	1648361472	53	4349
2026-01-21 06:57:55.78	128.45	15.01	-40.8	-42.6	17.9	5.96e-01	0	40	0	1663041536	53	4366
2026-01-21 06:57:56.79	128.35	15.14	-40.8	-42.6	18.0	6.01e-01	0	40	0	1677721600	53	4365
2026-01-21 06:57:57.80	128.24	15.28	-40.8	-42.7	17.9	5.97e-01	0	40	0	1694498816	53	4392
2026-01-21 06:57:58.80	128.14	15.41	-40.7	-42.5	17.9	5.99e-01	0	40	0	1709178880	53	4340
2026-01-21 06:57:59.81	128.04	15.55	-40.8	-42.6	17.9	5.98e-01	0	40	0	1723858944	53	4368
2026-01-21 06:58:00.81	127.93	15.68	-40.8	-42.6	17.9	5.97e-01	0	40	0	1740636160	53	4364
2026-01-21 06:58:01.82	127.82	15.82	-40.9	-42.7	17.9	5.93e-01	0	40	0	1757413376	53	4398
2026-01-21 06:58:02.83	127.72	15.96	-40.9	-42.7	17.9	5.94e-01	0	40	0	1772093440	53	4410
2026-01-21 06:58:03.84	127.61	16.10	-40.8	-42.6	17.9	5.95e-01	0	40	0	1786773504	53	4375
2026-01-21 06:58:04.85	127.50	16.24	-40.8	-42.6	17.9	5.97e-01	0	40	0	1803550720	53	4371
2026-01-21 06:58:05.85	127.38	16.38	-40.9	-42.6	17.9	5.96e-01	0	40	0	1818230784	53	4388
2026-01-21 06:58:06.86	127.27	16.53	-40.8	-42.6	18.0	5.96e-01	0	40	0	1832910848	53	4385
2026-01-21 06:58:07.87	127.16	16.67	-40.9	-42.6	17.9	5.97e-01	0	40	0	1849688064	53	4389
2026-01-21 06:58:08.88	127.04	16.81	-40.9	-42.7	17.9	5.97e-01	0	40	0	1864368128	53	4395
2026-01-21 06:58:09.89	126.92	16.96	-41.0	-42.8	17.8	5.98e-01	0	40	0	1879048192	53	4470
2026-01-21 06:58:10.89	126.81	17.11	-40.8	-42.6	17.9	6.01e-01	0	40	0	1895825408	53	4388
2026-01-21 06:58:11.90	126.69	17.25	-40.9	-42.8	17.9	5.98e-01	0	40	0	1910505472	53	4446
2026-01-21 06:58:12.91	126.56	17.40	-41.1	-43.0	17.7	6.00e-01	0	40	0	1925185536	53	4547
2026-01-21 06:58:13.92	126.44	17.55	-40.8	-42.7	17.9	6.01e-01	0	40	0	1941962752	53	4416
2026-01-21 06:58:14.92	126.32	17.70	-40.9	-42.7	17.9	6.00e-01	0	40	0	1958739968	53	4440
2026-01-21 06:58:15.93	126.19	17.86	-40.9	-42.8	17.8	5.98e-01	0	40	0	1973420032	53	4464
2026-01-21 06:58:16.94	126.06	18.01	-40.8	-42.7	17.8	5.99e-01	0	40	0	1988100096	53	4407
2026-01-21 06:58:17.95	125.93	18.16	-40.6	-42.5	18.0	6.01e-01	0	40	0	2004877312	53	4314
2026-01-21 06:58:18.95	125.80	18.32	-40.6	-42.5	18.0	6.01e-01	0	40	0	2019557376	53	4336
2026-01-21 06:58:19.96	125.67	18.47	-40.6	-42.5	18.0	6.03e-01	0	40	0	2034237440	53	4308
2026-01-21 06:58:20.97	125.54	18.63	-40.5	-42.5	18.1	6.01e-01	0	40	0	2051014656	53	4299
2026-01-21 06:58:21.98	125.40	18.79	-40.6	-42.5	18.1	6.02e-01	0	40	0	2065694720	53	4309
2026-01-21 06:58:22.98	125.27	18.95	-40.6	-42.6	18.1	6.01e-01	0	40	0	2080374784	53	4348
2026-01-21 06:58:23.99	125.13	19.11	-40.5	-42.5	18.1	6.00e-01	0	40	0	2097152000	53	4302
2026-01-21 06:58:25.00	124.99	19.27	-40.5	-42.4	18.1	5.98e-01	0	40	0	2111832064	53	4290
2026-01-21 06:58:26.01	124.84	19.44	-40.4	-42.4	18.2	6.02e-01	0	40	0	2126512128	52	4506
2026-01-21 06:58:27.01	124.70	19.60	-40.4	-42.2	18.2	5.95e-01	0	40	0	2143289344	52	4433
2026-01-21 06:58:28.02	124.56	19.77	-40.3	-42.2	18.3	6.02e-01	0	40	0	2160066560	52	4417
2026-01-21 06:58:29.03	124.41	19.93	-40.3	-42.2	18.3	6.00e-01	0	40	0	2174746624	52	4415
2026-01-21 06:58:30.04	124.26	20.10	-40.3	-42.1	18.4	6.00e-01	0	40	0	2189426688	52	4368
2026-01-21 06:58:31.05	124.11	20.27	-40.3	-42.2	18.3	6.02e-01	0	40	0	2206203904	52	4395
2026-01-21 06:58:32.06	123.95	20.44	-40.3	-42.0	18.4	6.01e-01	0	40	0	2220883968	52	4335
2026-01-21 06:58:33.06	123.80	20.61	-40.3	-42.0	18.5	6.01e-01	0	40	0	2235564032	52	4313
2026-01-21 06:58:34.07	123.64	20.79	-40.4	-42.1	18.4	6.00e-01	0	40	0	2252341248	52	4352
2026-01-21 06:58:35.08	123.48	20.96	-40.3	-42.0	18.5	6.01e-01	0	40	0	2267021312	52	4315
2026-01-21 06:58:36.08	123.32	21.14	-40.3	-41.9	18.5	6.01e-01	0	40	0	2281701376	52	4289
2026-01-21 06:58:37.09	123.16	21.32	-40.3	-41.9	18.5	6.01e-01	0	40	0	2298478592	52	4278
2026-01-21 06:58:38.10	122.99	21.49	-40.1	-41.8	18.6	6.03e-01	0	40	0	2313158656	52	4210
2026-01-21 06:58:39.11	122.82	21.67	-40.2	-41.9	18.6	6.01e-01	0	40	0	2327838720	52	4260
2026-01-21 06:58:40.12	122.65	21.86	-40.1	-41.9	18.6	6.01e-01	0	40	0	2344615936	52	4243
2026-01-21 06:58:41.13	122.48	22.04	-40.2	-42.0	18.6	6.01e-01	0	40	0	2361393152	52	4292
2026-01-21 06:58:42.14	122.30	22.22	-40.1	-41.9	18.6	5.95e-01	0	40	0	2376073216	52	4267
2026-01-21 06:58:43.15	122.12	22.41	-40.1	-42.0	18.5	6.01e-01	0	40	0	2390753280	52	4301
2026-01-21 06:58:44.15	121.94	22.60	-40.2	-42.1	18.5	6.01e-01	0	40	0	2407530496	52	4360
2026-01-21 06:58:45.16	121.76	22.78	-40.2	-42.0	18.5	6.02e-01	0	40	0	2422210560	52	4329
2026-01-21 06:58:46.17	121.57	22.97	-40.2	-42.0	18.5	6.02e-01	0	40	0	2436890624	52	4340
2026-01-21 06:58:47.17	121.39	23.16	-40.2	-42.0	18.5	6.02e-01	0	40	0	2451570688	52	4337
2026-01-21 06:58:48.18	121.20	23.36	-40.3	-42.2	18.5	6.01e-01	0	40	0	2468347904	52	4393
2026-01-21 06:58:49.19	121.00	23.55	-40.3	-42.2	18.4	6.03e-01	0	40	0	2483027968	52	4412
2026-01-21 06:58:50.20	120.81	23.75	-40.4	-42.3	18.4	6.02e-01	0	40	0	2497708032	52	4447
2026-01-21 06:58:51.21	120.61	23.95	-40.4	-42.2	18.4	6.02e-01	0	40	0	2514485248	52	4422
2026-01-21 06:58:52.21	120.41	24.14	-40.4	-42.2	18.4	6.02e-01	0	40	0	2531262464	52	4437
2026-01-21 06:58:53.22	120.20	24.34	-40.4	-42.2	18.4	6.03e-01	0	40	0	2545942528	52	4409
2026-01-21 06:58:54.23	120.00	24.55	-40.4	-42.1	18.4	6.03e-01	0	40	0	2562719744	52	4388
2026-01-21 06:58:55.24	119.78	24.75	-40.4	-42.1	18.4	6.03e-01	0	40	0	2577399808	52	4386
2026-01-21 06:58:56.24	119.57	24.95	-40.4	-42.1	18.5	6.01e-01	0	40	0	2592079872	52	4373
2026-01-21 06:58:57.25	119.35	25.16	-40.4	-42.2	18.5	6.01e-01	0	40	0	2606759936	52	4395
2026-01-21 06:58:58.26	119.13	25.37	-40.5	-42.3	18.3	6.03e-01	0	40	0	2623537152	52	4465
2026-01-21 06:58:59.27	118.91	25.58	-40.5	-42.3	18.4	6.01e-01	0	40	0	2638217216	52	4475
2026-01-21 06:59:00.26	118.69	25.78	-40.5	-42.4	18.4	6.02e-01	0	40	0	2652897280	52	4504
2026-01-21 06:59:01.24	118.46	25.99	-40.4	-42.3	18.4	6.01e-01	0	40	0	2669674496	52	4470
2026-01-21 06:59:02.25	118.23	26.21	-40.5	-42.4	18.3	6.00e-01	0	40	0	2684354560	52	4517
2026-01-21 06:59:03.26	117.99	26.42	-40.4	-42.4	18.3	6.04e-01	0	40	0	2699034624	52	4494
2026-01-21 06:59:04.26	117.75	26.64	-40.4	-42.3	18.4	6.03e-01	0	40	0	2715811840	52	4466
2026-01-21 06:59:05.26	117.51	26.85	-40.4	-42.3	18.4	5.80e-01	0	40	0	2730491904	52	4492
2026-01-21 06:59:06.27	117.26	27.08	-40.4	-42.3	18.5	5.79e-01	0	40	0	2745171968	52	4477
2026-01-21 06:59:07.28	117.01	27.30	-40.5	-42.4	18.4	5.79e-01	0	40	0	2761949184	52	4503
2026-01-21 06:59:08.29	116.75	27.52	-40.6	-42.6	18.2	5.79e-01	0	40	0	2776629248	52	4630
2026-01-21 06:59:09.29	116.50	27.75	-40.7	-42.7	18.2	5.79e-01	0	40	0	2791309312	52	4675
2026-01-21 06:59:10.30	116.23	27.97	-40.8	-42.8	18.1	5.80e-01	0	40	0	2808086528	52	4721
2026-01-21 06:59:11.31	115.96	28.20	-40.8	-42.8	18.1	5.79e-01	0	40	0	2822766592	52	4741
2026-01-21 06:59:12.31	115.69	28.43	-40.8	-42.8	18.1	5.79e-01	0	40	0	2839543808	52	4751
2026-01-21 06:59:13.32	115.42	28.66	-40.7	-42.7	18.2	5.80e-01	0	40	0	2854223872	52	4695
2026-01-21 06:59:14.33	115.13	28.90	-40.6	-42.5	18.3	5.79e-01	0	40	0	2871001088	52	4596
2026-01-21 06:59:15.34	114.85	29.13	-40.4	-42.4	18.4	5.79e-01	0	40	0	2885681152	52	4522
2026-01-21 06:59:16.35	114.56	29.37	-40.4	-42.4	18.4	5.79e-01	0	41	0	2900361216	52	4522
2026-01-21 06:59:17.35	114.26	29.61	-40.3	-42.4	18.4	5.80e-01	0	40	0	2917138432	52	4510
2026-01-21 06:59:18.36	113.96	29.85	-40.3	-42.4	18.4	5.79e-01	0	40	0	2931818496	52	4542
2026-01-21 06:59:19.37	113.66	30.09	-40.4	-42.6	18.3	5.79e-01	0	40	0	2946498560	52	4622
2026-01-21 06:59:20.38	113.35	30.33	-40.5	-42.8	18.1	5.79e-01	0	40	0	2963275776	52	4708
2026-01-21 06:59:21.38	113.03	30.57	-40.5	-42.7	18.1	5.80e-01	0	40	0	2977955840	52	4702
2026-01-21 06:59:22.39	112.71	30.82	-40.5	-42.7	18.2	5.78e-01	0	40	0	2992635904	52	4665
2026-01-21 06:59:23.40	112.39	31.07	-40.6	-42.7	18.3	5.79e-01	0	40	0	3009413120	52	4657
2026-01-21 06:59:24.41	112.06	31.32	-40.5	-42.5	18.3	5.79e-01	0	40	0	3024093184	52	4583
2026-01-21 06:59:25.41	111.72	31.57	-40.3	-42.3	18.4	6.03e-01	0	40	0	3040870400	52	4491
2026-01-21 06:59:26.42	111.38	31.82	-40.3	-42.3	18.4	6.07e-01	0	40	0	3055550464	52	4484
2026-01-21 06:59:27.43	111.03	32.07	-40.0	-42.2	18.6	6.00e-01	0	40	0	3072327680	52	4400
2026-01-21 06:59:28.44	110.67	32.33	-39.8	-42.0	18.7	6.04e-01	0	40	0	3087007744	51	4584
2026-01-21 06:59:29.45	110.31	32.58	-39.8	-42.0	18.6	6.01e-01	0	40	0	3101687808	51	4581
2026-01-21 06:59:30.45	109.95	32.84	-39.8	-42.0	18.7	6.03e-01	0	40	0	3118465024	51	4547
2026-01-21 06:59:31.46	109.58	33.10	-39.7	-41.8	18.8	6.02e-01	0	40	0	3133145088	51	4450
2026-01-21 06:59:32.47	109.20	33.36	-39.6	-41.7	18.8	6.01e-01	0	40	0	3147825152	51	4421
2026-01-21 06:59:33.47	108.81	33.62	-39.4	-41.7	18.9	6.00e-01	0	40	0	3164602368	50	4655
2026-01-21 06:59:34.48	108.42	33.88	-39.4	-41.7	18.8	6.01e-01	0	40	0	3179282432	50	4680
2026-01-21 06:59:35.49	108.02	34.15	-39.4	-41.7	18.8	6.01e-01	0	40	0	3193962496	50	4677
2026-01-21 06:59:36.50	107.61	34.41	-39.4	-41.7	18.9	6.01e-01	0	40	0	3210739712	50	4678
2026-01-21 06:59:37.51	107.20	34.68	-39.3	-41.6	18.9	6.02e-01	0	40	0	3225419776	50	4602
2026-01-21 06:59:38.51	106.78	34.94	-39.2	-41.4	19.0	6.02e-01	0	40	0	3242196992	50	4533
2026-01-21 06:59:39.52	106.35	35.21	-39.0	-41.2	19.2	6.03e-01	0	40	0	3256877056	50	4437
2026-01-21 06:59:40.53	105.91	35.48	-38.7	-40.8	19.3	6.01e-01	0	40	0	3273654272	49	4490
2026-01-21 06:59:41.54	105.47	35.75	-38.6	-40.8	19.4	6.02e-01	0	40	0	3288334336	49	4464
2026-01-21 06:59:42.54	105.02	36.02	-38.5	-40.7	19.4	6.02e-01	0	41	0	3303014400	49	4422
2026-01-21 06:59:43.55	104.56	36.29	-38.5	-40.9	19.3	6.02e-01	0	40	0	3319791616	48	4767
2026-01-21 06:59:44.56	104.09	36.56	-38.5	-40.8	19.3	6.01e-01	0	41	0	3334471680	48	4726
2026-01-21 06:59:45.57	103.61	36.83	-38.5	-40.7	19.4	6.01e-01	0	40	0	3349151744	48	4673
2026-01-21 06:59:46.57	103.13	37.10	-38.2	-40.3	19.7	6.02e-01	0	40	0	3365928960	48	4450
2026-01-21 06:59:47.58	102.64	37.38	-38.1	-40.1	19.8	6.00e-01	0	40	0	3380609024	48	4388
2026-01-21 06:59:48.59	102.13	37.65	-36.9	-38.8	19.5	6.00e-01	0	40	0	3395289088	45	4487
2026-01-21 06:59:49.60	101.62	37.92	-36.8	-38.9	19.4	6.03e-01	0	40	0	3412066304	45	4515
2026-01-21 06:59:50.61	101.10	38.20	-36.8	-38.9	19.4	5.92e-01	0	40	0	3426746368	45	4525
2026-01-21 06:59:51.61	100.57	38.47	-36.9	-38.9	19.5	6.00e-01	0	41	0	3443523584	45	4525
2026-01-21 06:59:52.62	100.03	38.74	-36.8	-38.7	19.6	6.02e-01	0	40	0	3458203648	45	4439
2026-01-21 06:59:53.63	99.48	39.02	-36.7	-38.7	19.6	5.95e-01	0	40	0	3474980864	45	4393
2026-01-21 06:59:54.63	98.93	39.28	-36.7	-38.7	19.5	6.03e-01	0	41	0	3489660928	45	4439
2026-01-21 06:59:55.64	98.36	39.56	-36.7	-38.8	19.4	6.00e-01	0	40	0	3504340992	45	4476
2026-01-21 06:59:56.65	97.78	39.83	-36.6	-38.7	19.6	6.00e-01	0	40	0	3521118208	45	4436
2026-01-21 06:59:57.65	97.20	40.10	-36.4	-38.5	19.7	5.93e-01	0	40	0	3535798272	44	4579
2026-01-21 06:59:58.66	96.60	40.36	-36.3	-38.3	19.7	6.01e-01	0	40	0	3550478336	44	4491
2026-01-21 06:59:59.67	95.98	40.63	-36.4	-38.5	19.6	6.00e-01	0	40	0	3567255552	44	4598
2026-01-21 07:00:00.68	95.36	40.90	-36.7	-38.9	19.3	6.02e-01	0	40	0	3581935616	44	4789
2026-01-21 07:00:01.69	94.73	41.17	-36.6	-38.9	19.4	6.01e-01	0	40	0	3596615680	44	4775
2026-01-21 07:00:02.69	94.09	41.43	-36.5	-38.7	19.5	6.02e-01	0	41	0	3611295744	44	4680
2026-01-21 07:00:03.70	93.44	41.69	-36.6	-38.7	19.5	6.02e-01	0	40	0	3628072960	44	4656
2026-01-21 07:00:04.71	92.77	41.95	-36.6	-38.7	19.5	6.01e-01	0	41	0	3644850176	44	4665
2026-01-21 07:00:05.72	92.10	42.20	-36.5	-38.6	19.6	6.00e-01	0	40	0	3659530240	44	4636
2026-01-21 07:00:06.73	91.41	42.46	-36.6	-38.7	19.5	6.01e-01	0	40	0	3676307456	44	4687
2026-01-21 07:00:07.74	90.71	42.71	-36.6	-38.8	19.6	6.01e-01	0	40	0	3690987520	44	4757
2026-01-21 07:00:08.75	90.00	42.96	-36.6	-38.7	19.6	5.98e-01	0	40	0	3705667584	44	4655
2026-01-21 07:00:09.75	89.29	43.21	-36.8	-38.8	19.5	6.05e-01	0	40	0	3720347648	44	4726
2026-01-21 07:00:10.76	88.55	43.45	-36.7	-38.6	19.6	6.02e-01	0	40	0	3737124864	44	4639
2026-01-21 07:00:11.77	87.81	43.69	-36.4	-38.4	19.7	6.03e-01	0	41	0	3751804928	44	4516
2026-01-21 07:00:12.78	87.05	43.93	-36.5	-38.5	19.7	6.02e-01	0	41	0	3766484992	44	4569
2026-01-21 07:00:13.79	86.28	44.16	-36.6	-38.7	19.6	6.03e-01	0	40	0	3783262208	44	4663
2026-01-21 07:00:14.79	85.51	44.38	-36.8	-39.0	19.3	6.02e-01	0	41	0	3797942272	44	4847
2026-01-21 07:00:15.80	84.72	44.61	-36.9	-39.0	19.4	6.01e-01	0	40	0	3812622336	44	4853
2026-01-21 07:00:16.81	83.91	44.83	-36.9	-38.9	19.5	6.02e-01	0	40	0	3829399552	44	4792
2026-01-21 07:00:17.82	83.10	45.04	-36.7	-38.8	19.6	6.01e-01	0	41	0	3846176768	44	4709
2026-01-21 07:00:18.83	82.27	45.25	-36.8	-38.8	19.5	6.01e-01	0	41	0	3860856832	44	4756
2026-01-21 07:00:19.83	81.44	45.45	-37.0	-39.2	19.3	6.01e-01	0	40	0	3875536896	44	4956
2026-01-21 07:00:20.84	80.59	45.65	-37.0	-39.2	19.3	6.02e-01	0	40	0	3892314112	44	4958
2026-01-21 07:00:21.85	79.73	45.85	-37.3	-39.3	19.2	6.03e-01	0	40	0	3906994176	45	4759
2026-01-21 07:00:22.86	78.86	46.03	-37.0	-39.1	19.4	6.04e-01	0	40	0	3921674240	45	4599
2026-01-21 07:00:23.86	77.99	46.21	-37.1	-39.0	19.4	6.03e-01	0	40	0	3938451456	45	4595
2026-01-21 07:00:24.87	77.10	46.39	-37.1	-39.1	19.4	6.03e-01	0	41	0	3953131520	45	4611
2026-01-21 07:00:25.88	76.20	46.55	-37.4	-39.4	19.2	5.99e-01	0	40	0	3967811584	45	4783
2026-01-21 07:00:26.89	75.29	46.71	-37.6	-39.8	19.0	6.03e-01	0	40	0	3984588800	45	5002
2026-01-21 07:00:27.89	74.38	46.87	-37.5	-39.7	19.0	6.03e-01	0	40	0	3999268864	45	4951
2026-01-21 07:00:28.90	73.45	47.01	-37.6	-39.6	19.1	6.02e-01	0	40	0	4013948928	45	4874
2026-01-21 07:00:29.91	72.51	47.15	-37.9	-39.8	18.9	5.99e-01	0	41	0	4030726144	46	4719
2026-01-21 07:00:30.92	71.57	47.28	-38.3	-40.5	18.6	6.00e-01	0	41	0	4047503360	47	4835
2026-01-21 07:00:31.93	70.61	47.41	-38.4	-40.7	18.4	5.98e-01	0	41	0	4062183424	47	4941
2026-01-21 07:00:32.93	69.66	47.52	-37.9	-40.1	18.8	5.99e-01	0	40	0	4076863488	47	4620
2026-01-21 07:00:33.94	68.69	47.63	-37.6	-39.6	19.1	6.03e-01	0	41	0	4093640704	47	4345
2026-01-21 07:00:34.95	67.71	47.72	-37.7	-39.6	19.1	6.01e-01	0	41	0	4108320768	47	4370
2026-01-21 07:00:35.96	66.73	47.81	-37.9	-40.0	18.8	6.02e-01	0	40	0	4123000832	47	4588
2026-01-21 07:00:36.96	65.75	47.89	-38.0	-40.1	18.8	5.93e-01	0	40	0	4139778048	47	4611
2026-01-21 07:00:37.97	64.76	47.97	-38.1	-40.1	18.8	5.94e-01	0	40	0	4154458112	47	4642
2026-01-21 07:00:38.98	63.77	48.03	-38.0	-39.9	18.9	5.96e-01	0	40	0	4169138176	47	4536
2026-01-21 07:00:39.99	62.77	48.08	-37.6	-39.5	19.2	5.97e-01	0	40	0	4185915392	47	4295
2026-01-21 07:00:41.00	61.76	48.13	-37.6	-39.4	19.2	6.00e-01	0	41	0	4200595456	47	4287
2026-01-21 07:00:42.01	60.76	48.16	-37.8	-39.8	19.0	5.99e-01	0	41	0	4215275520	47	4451
2026-01-21 07:00:43.01	59.76	48.19	-38.2	-40.2	18.8	5.95e-01	0	41	0	4232052736	47	4678
2026-01-21 07:00:44.02	58.75	48.21	-38.1	-40.1	18.8	6.01e-01	0	40	0	4248829952	47	4639
2026-01-21 07:00:45.03	57.74	48.21	-37.9	-39.8	18.9	5.99e-01	0	40	0	4263510016	47	4481
2026-01-21 07:00:46.03	56.74	48.21	-37.8	-39.8	19.0	5.92e-01	0	40	0	4278190080	47	4480
2026-01-21 07:00:47.04	55.73	48.20	-37.9	-39.9	19.0	5.95e-01	0	40	0	4294967296	47	4494
2026-01-21 07:00:48.05	54.72	48.18	-37.9	-39.9	18.9	5.93e-01	0	40	0	4309647360	47	4507
2026-01-21 07:00:49.06	53.71	48.15	-38.0	-40.0	18.8	5.97e-01	0	40	0	4324327424	47	4575
2026-01-21 07:00:50.06	52.72	48.11	-37.9	-39.9	18.9	5.96e-01	0	40	0	4341104640	47	4517
2026-01-21 07:00:51.07	51.71	48.06	-38.0	-40.0	18.8	5.92e-01	0	40	0	4355784704	47	4561
2026-01-21 07:00:52.08	50.71	48.00	-38.1	-40.2	18.7	5.97e-01	0	40	0	4370464768	47	4666
2026-01-21 07:00:53.09	49.72	47.94	-38.2	-40.2	18.7	5.99e-01	0	40	0	4387241984	47	4693
2026-01-21 07:00:54.10	48.73	47.86	-38.1	-40.1	18.8	5.95e-01	0	40	0	4401922048	47	4627
2026-01-21 07:00:55.11	47.75	47.78	-38.0	-40.0	18.8	5.98e-01	0	40	0	4416602112	47	4576
2026-01-21 07:00:56.12	46.77	47.69	-37.9	-40.0	18.8	5.96e-01	0	40	0	4433379328	47	4572
2026-01-21 07:00:57.12	45.81	47.58	-37.9	-40.0	18.9	5.98e-01	0	40	0	4450156544	47	4576
2026-01-21 07:00:58.13	44.84	47.48	-37.9	-39.8	18.9	5.96e-01	0	40	0	4464836608	47	4487
2026-01-21 07:00:59.14	43.88	47.36	-37.6	-39.6	19.1	5.99e-01	0	40	0	4479516672	47	4351
2026-01-21 07:01:00.15	42.93	47.23	-37.6	-39.6	19.1	5.95e-01	0	40	0	4496293888	47	4380
2026-01-21 07:01:01.15	42.00	47.10	-37.6	-39.7	19.1	5.97e-01	0	41	0	4510973952	47	4396
2026-01-21 07:01:02.16	41.06	46.96	-37.6	-39.6	19.1	5.97e-01	0	41	0	4525654016	47	4384
2026-01-21 07:01:03.17	40.14	46.81	-37.4	-39.4	19.2	5.97e-01	0	41	0	4542431232	46	4524
2026-01-21 07:01:04.18	39.22	46.65	-37.3	-39.3	19.4	5.96e-01	0	40	0	4557111296	46	4455
2026-01-21 07:01:05.19	38.32	46.49	-37.4	-39.4	19.2	5.96e-01	0	40	0	4571791360	46	4528
2026-01-21 07:01:06.20	37.42	46.32	-37.5	-39.5	19.2	5.95e-01	0	40	0	4588568576	46	4593
2026-01-21 07:01:07.21	36.54	46.14	-37.5	-39.5	19.2	5.96e-01	0	40	0	4603248640	46	4556
2026-01-21 07:01:08.21	35.67	45.96	-37.2	-39.1	19.4	5.97e-01	0	41	0	4620025856	46	4382
2026-01-21 07:01:09.22	34.81	45.77	-37.2	-39.1	19.4	5.97e-01	0	40	0	4634705920	46	4356
2026-01-21 07:01:10.23	33.95	45.58	-37.4	-39.3	19.3	6.01e-01	0	40	0	4651483136	46	4445
2026-01-21 07:01:11.24	33.11	45.38	-37.3	-39.1	19.4	5.99e-01	0	41	0	4666163200	46	4364
2026-01-21 07:01:12.25	32.28	45.17	-37.4	-39.2	19.4	5.95e-01	0	41	0	4680843264	46	4401
2026-01-21 07:01:13.25	31.47	44.96	-37.1	-38.8	19.6	5.98e-01	0	40	0	4697620480	46	4214
2026-01-21 07:01:14.26	30.66	44.75	-37.1	-38.8	19.6	5.98e-01	0	40	0	4712300544	46	4231
2026-01-21 07:01:15.27	29.86	44.52	-36.9	-38.7	19.6	5.96e-01	0	40	0	4726980608	45	4431
2026-01-21 07:01:16.27	29.08	44.30	-37.0	-38.9	19.5	5.98e-01	0	40	0	4743757824	45	4512
2026-01-21 07:01:17.28	28.31	44.07	-36.9	-38.8	19.6	6.00e-01	0	41	0	4758437888	45	4459
2026-01-21 07:01:18.29	27.54	43.84	-36.9	-38.8	19.6	5.95e-01	0	40	0	4773117952	45	4466
2026-01-21 07:01:19.29	26.80	43.60	-37.0	-38.8	19.6	5.96e-01	0	41	0	4789895168	45	4490
2026-01-21 07:01:20.30	26.06	43.36	-36.7	-38.6	19.7	5.96e-01	0	40	0	4804575232	45	4342
2026-01-21 07:01:21.31	25.33	43.12	-36.6	-38.5	19.9	5.94e-01	0	40	0	4819255296	45	4296
2026-01-21 07:01:22.32	24.62	42.87	-36.6	-38.6	19.7	5.95e-01	0	40	0	4836032512	45	4341
2026-01-21 07:01:23.33	23.91	42.62	-36.6	-38.6	19.7	5.95e-01	0	41	0	4852809728	45	4373
2026-01-21 07:01:24.33	23.23	42.37	-36.7	-38.7	19.6	6.00e-01	0	41	0	4867489792	45	4436
2026-01-21 07:01:25.34	22.54	42.12	-36.8	-38.7	19.5	5.99e-01	0	41	0	4882169856	45	4424
2026-01-21 07:01:26.35	21.87	41.86	-36.9	-38.9	19.5	6.01e-01	0	41	0	4898947072	45	4513
2026-01-21 07:01:27.35	21.22	41.60	-37.0	-39.0	19.4	6.02e-01	0	40	0	4913627136	45	4552
2026-01-21 07:01:28.36	20.57	41.34	-36.9	-38.8	19.6	5.96e-01	0	41	0	4928307200	45	4443
2026-01-21 07:01:29.37	19.93	41.08	-36.9	-38.7	19.6	6.01e-01	0	41	0	4942987264	45	4423
2026-01-21 07:01:30.38	19.31	40.81	-36.8	-38.7	19.6	6.00e-01	0	41	0	4959764480	45	4395
2026-01-21 07:01:31.39	18.69	40.54	-36.7	-38.6	19.7	5.98e-01	0	40	0	4974444544	45	4387
2026-01-21 07:01:32.39	18.09	40.28	-36.8	-38.8	19.5	5.97e-01	0	40	0	4989124608	45	4482
2026-01-21 07:01:33.40	17.50	40.01	-36.7	-38.8	19.5	5.91e-01	0	41	0	5005901824	45	4468
2026-01-21 07:01:34.41	16.91	39.74	-36.9	-39.0	19.3	5.91e-01	0	40	0	5020581888	45	4563
2026-01-21 07:01:35.42	16.34	39.47	-37.0	-39.1	19.3	5.96e-01	0	40	0	5037359104	45	4634
2026-01-21 07:01:36.43	15.77	39.20	-37.1	-39.3	19.3	5.95e-01	0	41	0	5052039168	45	4728
2026-01-21 07:01:37.43	15.22	38.93	-37.2	-39.3	19.2	5.99e-01	0	41	0	5068816384	45	4756
2026-01-21 07:01:38.44	14.68	38.66	-37.2	-39.4	19.2	5.97e-01	0	41	0	5083496448	45	4766
2026-01-21 07:01:39.45	14.14	38.39	-37.1	-39.2	19.3	5.95e-01	0	40	0	5098176512	45	4687
2026-01-21 07:01:40.46	13.62	38.11	-37.1	-39.1	19.4	5.96e-01	0	40	0	5114953728	45	4637
2026-01-21 07:01:41.47	13.10	37.84	-37.2	-39.3	19.3	6.00e-01	0	40	0	5129633792	45	4725
2026-01-21 07:01:42.47	12.60	37.57	-37.3	-39.4	19.2	5.99e-01	0	41	0	5144313856	45	4787
2026-01-21 07:01:43.48	12.10	37.30	-37.4	-39.4	19.2	5.96e-01	0	41	0	5161091072	45	4805
2026-01-21 07:01:44.49	11.61	37.03	-37.2	-39.3	19.2	5.98e-01	0	40	0	5175771136	45	4713
2026-01-21 07:01:45.49	11.13	36.76	-37.2	-39.2	19.3	6.00e-01	0	40	0	5190451200	45	4687
2026-01-21 07:01:46.50	10.66	36.49	-37.3	-39.2	19.3	6.00e-01	0	40	0	5207228416	45	4691
2026-01-21 07:01:47.51	10.19	36.21	-37.3	-39.3	19.2	5.98e-01	0	41	0	5221908480	45	4727
2026-01-21 07:01:48.52	9.74	35.94	-37.4	-39.5	19.1	5.98e-01	0	41	0	5238685696	45	4851
2026-01-21 07:01:49.53	9.29	35.68	-37.6	-39.7	19.0	5.95e-01	0	40	0	5253365760	45	4947
2026-01-21 07:01:50.53	8.85	35.41	-37.8	-39.8	18.9	5.98e-01	0	41	0	5270142976	46	4754
2026-01-21 07:01:51.54	8.42	35.14	-37.9	-39.9	18.9	6.00e-01	0	41	0	5284823040	46	4803
2026-01-21 07:01:52.55	7.99	34.87	-37.9	-39.9	18.8	6.03e-01	0	40	0	5299503104	46	4796
2026-01-21 07:01:53.56	7.58	34.61	-38.0	-40.0	18.8	6.01e-01	0	41	0	5316280320	46	4828
2026-01-21 07:01:54.57	7.17	34.34	-38.2	-40.1	18.8	6.01e-01	0	41	0	5330960384	46	4886
2026-01-21 07:01:55.57	6.77	34.08	-38.2	-40.1	18.7	6.00e-01	0	41	0	5345640448	47	4623
2026-01-21 07:01:56.58	6.37	33.82	-38.3	-40.1	18.7	6.03e-01	0	41	0	5362417664	47	4650
2026-01-21 07:01:57.59	5.98	33.56	-38.3	-40.2	18.7	6.02e-01	0	40	0	5377097728	47	4691
2026-01-21 07:01:58.60	5.60	33.30	-38.4	-40.3	18.6	6.03e-01	0	41	0	5391777792	47	4730
2026-01-21 07:01:59.61	5.22	33.04	-38.5	-40.5	18.5	6.01e-01	0	40	0	5408555008	47	4827
2026-01-21 07:02:00.61	4.85	32.78	-38.7	-40.7	18.3	6.02e-01	0	40	0	5425332224	47	4937
2026-01-21 07:02:01.62	4.49	32.53	-38.7	-40.7	18.4	6.01e-01	0	40	0	5440012288	47	4929
2026-01-21 07:02:02.63	4.13	32.27	-39.9	-41.9	18.7	5.99e-01	0	41	0	5454692352	50	4764
2026-01-21 07:02:03.64	3.78	32.02	-39.9	-41.8	18.8	6.02e-01	0	40	0	5471469568	50	4738
2026-01-21 07:02:04.65	3.43	31.76	-40.0	-41.8	18.8	6.03e-01	0	40	0	5486149632	50	4749
2026-01-21 07:02:05.65	3.10	31.52	-40.1	-41.9	18.7	6.02e-01	0	40	0	5500829696	50	4771
2026-01-21 07:02:06.66	2.76	31.27	-40.2	-42.0	18.6	6.00e-01	0	40	0	5517606912	51	4551
2026-01-21 07:02:07.67	2.43	31.02	-40.3	-42.0	18.7	6.01e-01	0	41	0	5532286976	51	4550
2026-01-21 07:02:08.68	2.11	30.77	-40.4	-42.0	18.6	6.01e-01	0	40	0	5546967040	51	4589
2026-01-21 07:02:09.69	1.79	30.53	-40.5	-42.1	18.5	6.01e-01	0	40	0	5563744256	51	4645
2026-01-21 07:02:10.70	1.48	30.28	-40.5	-42.1	18.5	6.02e-01	0	41	0	5578424320	51	4646
2026-01-21 07:02:11.71	1.17	30.04	-40.6	-42.3	18.5	6.02e-01	0	41	0	5593104384	51	4722
2026-01-21 07:02:12.71	0.87	29.80	-40.7	-42.4	18.4	6.01e-01	0	40	0	5609881600	51	4791
2026-01-21 07:02:13.72	0.57	29.56	-40.8	-42.5	18.3	6.01e-01	0	40	0	5626658816	52	4586
2026-01-21 07:02:14.73	0.28	29.33	-40.7	-42.4	18.4	6.00e-01	0	40	0	5641338880	52	4544
2026-01-21 07:02:15.74	359.99	29.09	-40.7	-42.4	18.4	6.00e-01	0	41	0	5656018944	52	4517
2026-01-21 07:02:16.75	359.71	28.86	-40.7	-42.4	18.4	6.00e-01	0	40	0	5672796160	52	4506
2026-01-21 07:02:17.75	359.43	28.63	-40.6	-42.3	18.4	6.01e-01	0	40	0	5687476224	52	4473
2026-01-21 07:02:18.76	359.16	28.40	-40.7	-42.3	18.3	6.01e-01	0	40	0	5702156288	52	4491
2026-01-21 07:02:19.77	358.89	28.17	-40.7	-42.4	18.3	6.04e-01	0	41	0	5718933504	52	4508
2026-01-21 07:02:20.78	358.62	27.94	-40.8	-42.5	18.2	6.02e-01	0	40	0	5733613568	52	4554
2026-01-21 07:02:21.79	358.36	27.71	-40.8	-42.5	18.3	6.02e-01	0	41	0	5748293632	52	4571
2026-01-21 07:02:22.79	358.10	27.49	-40.9	-42.6	18.1	6.00e-01	0	40	0	5765070848	52	4616
2026-01-21 07:02:23.80	357.85	27.27	-41.0	-42.7	18.2	6.02e-01	0	40	0	5779750912	52	4654
2026-01-21 07:02:24.81	357.60	27.05	-41.1	-42.8	18.1	6.01e-01	0	41	0	5794430976	52	4709
2026-01-21 07:02:25.82	357.35	26.83	-41.1	-42.8	18.0	6.00e-01	0	40	0	5811208192	52	4737
2026-01-21 07:02:26.82	357.11	26.61	-41.1	-42.9	18.0	6.03e-01	0	40	0	5827985408	52	4773
2026-01-21 07:02:27.83	356.87	26.40	-41.2	-42.9	18.0	6.01e-01	0	40	0	5842665472	53	4514
2026-01-21 07:02:28.84	356.64	26.18	-41.1	-42.9	17.9	6.01e-01	0	40	0	5857345536	53	4505
2026-01-21 07:02:29.85	356.40	25.97	-41.1	-42.9	18.0	6.00e-01	0	41	0	5874122752	53	4512
2026-01-21 07:02:30.86	356.18	25.76	-41.1	-42.9	18.0	6.01e-01	0	40	0	5888802816	53	4534
2026-01-21 07:02:31.87	355.95	25.55	-41.0	-42.8	18.0	6.01e-01	0	40	0	5903482880	53	4461
2026-01-21 07:02:32.87	355.73	25.34	-41.1	-42.9	18.0	6.02e-01	0	41	0	5920260096	53	4498
2026-01-21 07:02:33.88	355.51	25.13	-41.1	-42.8	18.1	6.02e-01	0	40	0	5934940160	53	4470
2026-01-21 07:02:34.89	355.30	24.93	-41.0	-42.8	18.0	6.03e-01	0	40	0	5949620224	53	4465
2026-01-21 07:02:35.90	355.09	24.72	-41.0	-42.7	18.0	6.02e-01	0	40	0	5966397440	53	4438
2026-01-21 07:02:36.90	354.88	24.52	-41.0	-42.7	18.1	5.99e-01	0	41	0	5981077504	53	4400
2026-01-21 07:02:37.91	354.67	24.32	-41.1	-42.8	18.0	5.98e-01	0	41	0	5997854720	53	4462
2026-01-21 07:02:38.92	354.47	24.12	-41.0	-42.7	18.1	5.98e-01	0	40	0	6012534784	53	4431
2026-01-21 07:02:39.93	354.27	23.93	-41.0	-42.7	18.1	5.98e-01	0	41	0	6029312000	53	4428
2026-01-21 07:02:40.93	354.07	23.73	-41.0	-42.7	18.0	5.99e-01	0	41	0	6043992064	53	4428
2026-01-21 07:02:41.94	353.88	23.54	-41.0	-42.8	18.0	6.00e-01	0	40	0	6058672128	53	4455
2026-01-21 07:02:42.95	353.69	23.34	-41.1	-42.8	18.0	5.96e-01	0	40	0	6075449344	53	4491
2026-01-21 07:02:43.95	353.50	23.15	-40.9	-42.7	18.0	5.98e-01	0	41	0	6090129408	53	4402
2026-01-21 07:02:44.96	353.31	22.96	-41.0	-42.8	18.0	5.99e-01	0	40	0	6104809472	53	4460
2026-01-21 07:02:45.97	353.13	22.77	-40.8	-42.7	18.1	5.99e-01	0	40	0	6121586688	53	4394
2026-01-21 07:02:46.98	352.95	22.59	-40.8	-42.6	18.1	6.00e-01	0	41	0	6136266752	53	4381
2026-01-21 07:02:47.98	352.77	22.40	-40.8	-42.6	18.1	5.99e-01	0	40	0	6150946816	53	4377
2026-01-21 07:02:48.99	352.59	22.22	-40.7	-42.5	18.1	5.99e-01	0	40	0	6165626880	53	4334
2026-01-21 07:02:50.00	352.42	22.04	-40.7	-42.6	18.1	5.98e-01	0	40	0	6182404096	53	4357
2026-01-21 07:02:51.01	352.25	21.85	-40.6	-42.4	18.2	5.92e-01	0	40	0	6197084160	53	4288
2026-01-21 07:02:52.02	352.08	21.67	-40.6	-42.4	18.2	5.98e-01	0	41	0	6213861376	53	4289
2026-01-21 07:02:53.03	351.91	21.49	-40.6	-42.4	18.2	5.94e-01	0	40	0	6230638592	53	4291
2026-01-21 07:02:54.03	351.75	21.32	-40.6	-42.4	18.3	5.97e-01	0	40	0	6245318656	53	4276
2026-01-21 07:02:55.04	351.59	21.14	-40.7	-42.5	18.2	5.98e-01	0	41	0	6259998720	53	4302
2026-01-21 07:02:56.05	351.43	20.97	-40.7	-42.5	18.2	5.99e-01	0	40	0	6274678784	53	4295
2026-01-21 07:02:57.05	351.27	20.79	-40.6	-42.4	18.2	5.99e-01	0	40	0	6291456000	53	4278
2026-01-21 07:02:58.06	351.11	20.62	-40.6	-42.4	18.2	5.98e-01	0	41	0	6306136064	53	4273
2026-01-21 07:02:59.07	350.96	20.45	-40.7	-42.5	18.1	6.02e-01	0	40	0	6320816128	53	4304
2026-01-21 07:03:00.08	350.81	20.28	-40.8	-42.6	18.1	6.02e-01	0	40	0	6337593344	53	4351
2026-01-21 07:03:01.09	350.65	20.11	-40.7	-42.4	18.2	5.97e-01	0	40	0	6352273408	53	4284
2026-01-21 07:03:02.09	350.51	19.94	-40.8	-42.6	18.1	6.02e-01	0	41	0	6366953472	53	4366
2026-01-21 07:03:03.10	350.36	19.78	-40.8	-42.6	18.0	5.94e-01	0	40	0	6383730688	53	4385
2026-01-21 07:03:04.11	350.22	19.61	-40.9	-42.7	18.0	5.99e-01	0	41	0	6398410752	53	4428
2026-01-21 07:03:05.12	350.07	19.45	-40.8	-42.7	18.0	5.79e-01	0	40	0	6415187968	53	4412
2026-01-21 07:03:06.13	349.93	19.29	-40.8	-42.7	18.0	5.80e-01	0	41	0	6429868032	53	4436
2026-01-21 07:03:07.13	349.79	19.13	-40.9	-42.8	17.9	5.79e-01	0	40	0	6446645248	53	4475
2026-01-21 07:03:08.14	349.66	18.97	-41.0	-42.9	17.9	5.79e-01	0	40	0	6461325312	53	4532
2026-01-21 07:03:09.15	349.52	18.81	-41.0	-43.0	17.8	5.79e-01	0	40	0	6476005376	53	4556
2026-01-21 07:03:10.16	349.39	18.65	-41.0	-43.0	17.8	5.80e-01	0	40	0	6492782592	53	4586
2026-01-21 07:03:11.17	349.25	18.49	-40.9	-42.9	17.9	5.79e-01	0	40	0	6507462656	53	4535
2026-01-21 07:03:12.17	349.12	18.34	-41.0	-43.0	17.8	5.79e-01	0	40	0	6522142720	53	4550
2026-01-21 07:03:13.18	348.99	18.18	-41.1	-43.1	17.7	5.79e-01	0	40	0	6538919936	53	4615
2026-01-21 07:03:14.19	348.87	18.03	-41.0	-43.0	17.8	5.79e-01	0	40	0	6553600000	53	4562
2026-01-21 07:03:15.20	348.74	17.88	-40.9	-42.9	17.8	5.79e-01	0	40	0	6568280064	53	4536
2026-01-21 07:03:16.21	348.61	17.73	-41.0	-43.1	17.7	5.80e-01	0	41	0	6585057280	53	4599
2026-01-21 07:03:17.21	348.49	17.58	-41.1	-43.2	17.6	5.79e-01	0	40	0	6601834496	53	4662
2026-01-21 07:03:18.22	348.37	17.43	-42.5	-43.3	17.7	5.80e-01	0	40	0	6616514560	55	4202
2026-01-21 07:03:19.23	348.25	17.28	-54.2	-63.1	3.8	7.43e-01	0	40	104	6624903168	78	10937
2026-01-21 07:03:20.24	348.13	17.13	-54.1	-63.0	3.8	7.46e-01	0	41	104	6624903168	78	10841
2026-01-21 07:03:21.25	348.01	16.99	-54.1	-63.0	3.8	7.45e-01	0	41	104	6624903168	78	10827
2026-01-21 07:03:22.25	347.90	16.84	-54.1	-63.0	3.8	7.47e-01	0	41	104	6624903168	78	10779
2026-01-21 07:03:23.26	347.78	16.70	-54.1	-63.0	3.8	7.46e-01	0	40	104	6624903168	78	10798
2026-01-21 07:03:24.27	347.67	16.56	-54.1	-62.9	3.8	7.45e-01	0	40	104	6624903168	78	10771
2026-01-21 07:03:25.28	347.56	16.41	-54.1	-62.9	3.8	7.45e-01	0	41	104	6624903168	78	10752
2026-01-21 07:03:26.29	347.45	16.27	-54.1	-62.9	3.8	7.45e-01	0	40	104	6624903168	78	10759
2026-01-21 07:03:27.29	347.34	16.13	-54.1	-62.9	3.8	7.44e-01	0	40	104	6624903168	78	10713
2026-01-21 07:03:28.30	347.23	15.99	-54.1	-62.9	3.8	7.45e-01	0	40	104	6624903168	78	10757
2026-01-21 07:03:29.31	347.12	15.86	-54.1	-62.9	3.8	7.43e-01	0	40	104	6624903168	78	10695
2026-01-21 07:03:30.32	347.01	15.72	-54.1	-62.9	3.8	7.45e-01	0	40	104	6624903168	78	10729
2026-01-21 07:03:31.33	346.91	15.58	-54.1	-62.9	3.8	7.45e-01	0	41	104	6624903168	78	10719
2026-01-21 07:03:32.33	346.81	15.45	-54.0	-62.9	3.8	7.46e-01	0	41	104	6624903168	78	10700
2026-01-21 07:03:33.34	346.70	15.31	-54.0	-62.9	3.8	7.46e-01	0	41	104	6624903168	78	10662
2026-01-21 07:03:34.35	346.60	15.18	-54.0	-62.9	3.8	7.46e-01	0	41	104	6624903168	78	10678
2026-01-21 07:03:35.36	346.50	15.05	-54.0	-62.9	3.8	7.47e-01	0	41	104	6624903168	78	10677
2026-01-21 07:03:36.37	346.40	14.91	-54.0	-62.9	3.8	7.45e-01	0	40	104	6624903168	78	10671
2026-01-21 07:03:37.37	346.30	14.78	-54.0	-62.8	3.8	7.45e-01	0	41	104	6624903168	78	10633
2026-01-21 07:03:38.38	346.21	14.65	-54.0	-62.8	3.8	7.44e-01	0	41	104	6624903168	78	10632
2026-01-21 07:03:39.39	346.11	14.52	-54.0	-62.8	3.8	7.46e-01	0	40	104	6624903168	78	10638
2026-01-21 07:03:40.40	346.02	14.39	-54.0	-62.8	3.8	7.45e-01	0	41	104	6624903168	78	10604
2026-01-21 07:03:41.41	345.92	14.27	-54.0	-62.8	3.8	7.45e-01	0	40	104	6624903168	78	10564
2026-01-21 07:03:42.41	345.83	14.14	-54.0	-62.8	3.8	7.46e-01	0	40	104	6624903168	78	10602
2026-01-21 07:03:43.42	345.74	14.01	-54.0	-62.8	3.8	7.44e-01	0	41	104	6624903168	78	10598
2026-01-21 07:03:44.43	345.65	13.89	-53.9	-62.8	3.8	7.44e-01	0	40	104	6624903168	78	10548
2026-01-21 07:03:45.44	345.56	13.76	-53.9	-62.8	3.8	7.44e-01	0	41	104	6624903168	78	10561
2026-01-21 07:03:46.45	345.47	13.64	-53.9	-62.8	3.8	7.46e-01	0	41	104	6624903168	78	10537
2026-01-21 07:03:47.45	345.38	13.52	-54.0	-62.8	3.8	7.46e-01	0	41	104	6624903168	78	10579
2026-01-21 07:03:48.46	345.29	13.39	-53.9	-62.8	3.8	7.46e-01	0	41	104	6624903168	78	10549
2026-01-21 07:03:49.47	345.21	13.27	-53.9	-62.8	3.8	7.45e-01	0	40	104	6624903168	78	10568
2026-01-21 07:03:50.48	345.12	13.15	-53.9	-62.7	3.8	7.45e-01	0	40	104	6624903168	78	10507
2026-01-21 07:03:51.49	345.04	13.03	-53.9	-62.7	3.8	7.45e-01	0	40	104	6624903168	78	10512
2026-01-21 07:03:52.49	344.95	12.91	-53.9	-62.7	3.8	7.46e-01	0	41	104	6624903168	78	10505
2026-01-21 07:03:53.50	344.87	12.79	-53.9	-62.7	3.8	7.45e-01	0	41	104	6624903168	78	10482
2026-01-21 07:03:54.51	344.79	12.68	-53.9	-62.7	3.8	7.44e-01	0	40	104	6624903168	78	10459
2026-01-21 07:03:55.51	344.71	12.56	-53.9	-62.7	3.8	7.45e-01	0	41	104	6624903168	78	10470
2026-01-21 07:03:56.52	344.63	12.44	-53.9	-62.7	3.8	7.46e-01	0	41	104	6624903168	78	10461
2026-01-21 07:03:57.53	344.55	12.33	-53.9	-62.7	3.8	7.44e-01	0	40	104	6624903168	78	10463
2026-01-21 07:03:58.54	344.47	12.21	-53.9	-62.7	3.8	7.46e-01	0	41	104	6624903168	78	10425
2026-01-21 07:03:59.55	344.39	12.10	-53.9	-62.7	3.8	7.45e-01	0	40	104	6624903168	78	10471
2026-01-21 07:04:00.55	344.31	11.98	-53.8	-62.7	3.8	7.45e-01	0	40	104	6624903168	78	10437
2026-01-21 07:04:01.56	344.24	11.87	-53.8	-62.7	3.8	7.47e-01	0	41	104	6624903168	78	10417
2026-01-21 07:04:02.57	344.16	11.76	-53.8	-62.7	3.8	7.45e-01	0	41	104	6624903168	78	10449
2026-01-21 07:04:03.58	344.08	11.65	-53.8	-62.7	3.8	7.44e-01	0	41	104	6624903168	78	10450
2026-01-21 07:04:04.59	344.01	11.53	-53.8	-62.6	3.8	7.45e-01	0	40	104	6624903168	78	10336
2026-01-21 07:04:05.60	343.94	11.42	-53.8	-62.6	3.8	7.44e-01	0	40	104	6624903168	78	10392
2026-01-21 07:04:06.61	343.86	11.31	-53.8	-62.7	3.8	7.45e-01	0	40	104	6624903168	78	10427
2026-01-21 07:04:07.61	343.79	11.20	-53.8	-62.7	3.8	7.45e-01	0	40	104	6624903168	78	10423
2026-01-21 07:04:08.62	343.72	11.10	-53.8	-62.6	3.8	7.45e-01	0	40	104	6624903168	78	10383
2026-01-21 07:04:09.63	343.65	10.99	-53.8	-62.6	3.8	7.45e-01	0	40	104	6624903168	78	10358
2026-01-21 07:04:10.64	343.58	10.88	-53.8	-62.6	3.8	7.46e-01	0	41	104	6624903168	78	10394
2026-01-21 07:04:11.65	343.51	10.77	-53.8	-62.6	3.8	7.46e-01	0	41	104	6624903168	78	10356
2026-01-21 07:04:12.65	343.44	10.67	-53.8	-62.6	3.8	7.46e-01	0	40	104	6624903168	78	10312
2026-01-21 07:04:13.66	343.37	10.56	-53.7	-62.6	3.8	7.46e-01	0	40	104	6624903168	78	10341
2026-01-21 07:04:14.67	343.30	10.46	-53.8	-62.6	3.8	7.46e-01	0	40	104	6624903168	78	10335
2026-01-21 07:04:15.68	343.24	10.35	-53.8	-62.6	3.8	7.45e-01	0	40	104	6624903168	78	10356
2026-01-21 07:04:16.68	343.17	10.25	-53.7	-62.6	3.8	7.43e-01	0	40	104	6624903168	78	10300
2026-01-21 07:04:17.69	343.11	10.14	-53.7	-62.5	3.8	7.46e-01	0	40	104	6624903168	78	10231
2026-01-21 07:04:18.70	343.04	10.04	-53.7	-62.6	3.8	7.46e-01	0	40	104	6624903168	78	10304
2026-01-21 07:04:19.71	342.98	9.94	-53.7	-62.6	3.8	7.46e-01	0	40	104	6624903168	78	10302
2026-01-21 07:04:20.71	342.91	9.84	-53.7	-62.5	3.8	7.44e-01	0	40	104	6624903168	78	10255
2026-01-21 07:04:21.72	342.85	9.73	-53.7	-62.5	3.8	7.45e-01	0	40	104	6624903168	78	10242
2026-01-21 07:04:22.73	342.79	9.63	-53.7	-62.6	3.8	7.45e-01	0	41	104	6624903168	78	10314
2026-01-21 07:04:23.74	342.72	9.53	-53.7	-62.5	3.8	7.46e-01	0	41	104	6624903168	78	10280
2026-01-21 07:04:24.75	342.66	9.43	-53.6	-62.5	3.8	7.45e-01	0	40	104	6624903168	78	10197
2026-01-21 07:04:25.75	342.60	9.33	-53.6	-62.4	3.8	7.45e-01	0	40	104	6624903168	78	10149
2026-01-21 07:04:26.76	342.54	9.23	-53.7	-62.5	3.8	7.45e-01	0	40	104	6624903168	78	10257
2026-01-21 07:04:27.76	342.48	9.14	-53.7	-62.5	3.8	7.45e-01	0	40	104	6624903168	78	10244
2026-01-21 07:04:28.77	342.42	9.04	-53.6	-62.4	3.8	7.46e-01	0	40	104	6624903168	78	10152
2026-01-21 07:04:29.78	342.36	8.94	-53.6	-62.4	3.8	7.45e-01	0	41	104	6624903168	78	10143
2026-01-21 07:04:30.79	342.30	8.84	-53.6	-62.4	3.8	7.47e-01	0	40	104	6624903168	78	10173
2026-01-21 07:04:31.80	342.25	8.75	-53.6	-62.5	3.8	7.44e-01	0	40	104	6624903168	78	10196
2026-01-21 07:04:32.81	342.19	8.65	-53.6	-62.4	3.8	7.45e-01	0	40	104	6624903168	78	10088
2026-01-21 07:04:33.81	342.13	8.56	-53.5	-62.4	3.8	7.44e-01	0	41	104	6624903168	78	10101
2026-01-21 07:04:34.82	342.08	8.46	-53.6	-62.4	3.8	7.44e-01	0	40	104	6624903168	78	10166
2026-01-21 07:04:35.83	342.02	8.37	-53.6	-62.4	3.8	7.45e-01	0	40	104	6624903168	78	10161
2026-01-21 07:04:36.84	341.96	8.27	-53.5	-62.3	3.8	7.45e-01	0	40	104	6624903168	78	10044
2026-01-21 07:04:37.85	341.91	8.18	-53.5	-62.3	3.8	7.44e-01	0	40	104	6624903168	78	9981
2026-01-21 07:04:38.85	341.86	8.09	-53.6	-62.4	3.8	7.45e-01	0	41	104	6624903168	78	10109
2026-01-21 07:04:39.86	341.80	7.99	-53.6	-62.4	3.8	7.45e-01	0	41	104	6624903168	78	10129
2026-01-21 07:04:40.87	341.75	7.90	-53.5	-62.3	3.8	7.46e-01	0	40	104	6624903168	78	9994
2026-01-21 07:04:41.88	341.69	7.81	-53.5	-62.3	3.8	7.44e-01	0	40	104	6624903168	78	9977
2026-01-21 07:04:42.88	341.64	7.72	-53.5	-62.4	3.8	7.46e-01	0	40	104	6624903168	78	10096
2026-01-21 07:04:43.89	341.59	7.63	-53.5	-62.3	3.8	7.44e-01	0	40	104	6624903168	78	10029
2026-01-21 07:04:44.90	341.54	7.54	-53.4	-62.3	3.8	7.45e-01	0	40	104	6624903168	78	9991
2026-01-21 07:04:45.91	341.49	7.44	-53.4	-62.3	3.8	7.45e-01	0	41	104	6624903168	78	9992
2026-01-21 07:04:46.92	341.44	7.35	-53.5	-62.4	3.8	7.44e-01	0	41	104	6624903168	78	10064
2026-01-21 07:04:47.93	341.38	7.27	-53.5	-62.3	3.8	7.46e-01	0	40	104	6624903168	78	10008
2026-01-21 07:04:48.93	341.34	7.18	-53.4	-62.2	3.8	7.45e-01	0	41	104	6624903168	78	9931
2026-01-21 07:04:49.94	341.29	7.09	-53.4	-62.2	3.8	7.45e-01	0	41	104	6624903168	78	9915
2026-01-21 07:04:50.95	341.24	7.00	-53.5	-62.3	3.8	7.47e-01	0	41	104	6624903168	78	9974
2026-01-21 07:04:51.96	341.19	6.91	-53.4	-62.3	3.8	7.46e-01	0	40	104	6624903168	78	9980
2026-01-21 07:04:52.97	341.14	6.82	-53.4	-62.2	3.8	7.45e-01	0	40	104	6624903168	78	9893
2026-01-21 07:04:53.98	341.09	6.74	-53.3	-62.2	3.8	7.44e-01	0	41	104	6624903168	78	9853
2026-01-21 07:04:54.98	341.04	6.65	-53.4	-62.2	3.8	7.45e-01	0	41	104	6624903168	78	9934
2026-01-21 07:04:55.99	341.00	6.56	-53.4	-62.2	3.8	7.44e-01	0	41	104	6624903168	78	9889
2026-01-21 07:04:57.00	340.95	6.48	-53.3	-62.1	3.8	7.45e-01	0	40	104	6624903168	78	9807
2026-01-21 07:04:58.01	340.90	6.39	-53.3	-62.1	3.8	7.44e-01	0	40	104	6624903168	78	9795
2026-01-21 07:04:59.02	340.86	6.31	-53.4	-62.2	3.8	7.45e-01	0	40	104	6624903168	78	9908
2026-01-21 07:05:00.02	340.81	6.22	-53.3	-62.2	3.8	7.45e-01	0	41	104	6624903168	78	9879
2026-01-21 07:05:01.03	340.77	6.14	-53.3	-62.1	3.8	7.43e-01	0	41	104	6624903168	78	9737
2026-01-21 07:05:02.04	340.72	6.05	-53.2	-62.1	3.8	7.45e-01	0	40	104	6624903168	78	9733
2026-01-21 07:05:03.05	340.68	5.97	-53.3	-62.2	3.8	7.47e-01	0	41	104	6624903168	78	9875
2026-01-21 07:05:04.06	340.63	5.89	-53.3	-62.1	3.8	7.45e-01	0	40	104	6624903168	78	9823
2026-01-21 07:05:05.06	340.59	5.80	-53.2	-62.1	3.8	7.45e-01	0	40	104	6624903168	78	9720
2026-01-21 07:05:06.07	340.54	5.72	-53.2	-62.0	3.8	7.46e-01	0	40	104	6624903168	78	9678
2026-01-21 07:05:07.08	340.50	5.64	-53.3	-62.1	3.8	7.45e-01	0	40	104	6624903168	78	9784
2026-01-21 07:05:08.09	340.46	5.55	-53.3	-62.1	3.8	7.44e-01	0	40	104	6624903168	78	9766
2026-01-21 07:05:09.09	340.41	5.47	-53.2	-62.0	3.8	7.46e-01	0	41	104	6624903168	78	9678
2026-01-21 07:05:10.10	340.37	5.39	-53.1	-62.0	3.8	7.44e-01	0	41	104	6624903168	78	9630
2026-01-21 07:05:11.11	340.33	5.31	-53.3	-62.1	3.8	7.45e-01	0	40	104	6624903168	78	9764
2026-01-21 07:05:12.12	340.29	5.23	-53.2	-62.0	3.8	7.45e-01	0	40	104	6624903168	78	9706
2026-01-21 07:05:13.12	340.25	5.15	-53.1	-61.9	3.8	7.46e-01	0	40	104	6624903168	78	9593
2026-01-21 07:05:14.13	340.21	5.07	-53.1	-61.9	3.8	7.45e-01	0	40	104	6624903168	78	9565
2026-01-21 07:05:15.14	340.17	4.99	-53.2	-62.0	3.8	7.45e-01	0	41	104	6624903168	78	9674
2026-01-21 07:05:16.15	340.13	4.91	-53.5	-62.3	3.8	7.46e-01	0	40	104	6624903168	78	10006
2026-01-21 07:05:17.16	340.09	4.83	-53.8	-62.6	3.8	7.45e-01	0	40	104	6624903168	78	10369
2026-01-21 07:05:18.17	340.05	4.75	-54.0	-62.8	3.8	7.45e-01	0	40	104	6624903168	78	10620
2026-01-21 07:05:19.17	340.01	4.67	-54.1	-63.0	3.8	7.47e-01	0	40	104	6624903168	78	10803
2026-01-21 07:05:20.18	339.97	4.59	-54.3	-63.1	3.8	7.45e-01	0	40	104	6624903168	79	10407
2026-01-21 07:05:21.19	339.93	4.52	-54.4	-63.2	3.8	7.45e-01	0	40	104	6624903168	79	10461
2026-01-21 07:05:22.20	339.89	4.44	-54.5	-63.3	3.8	7.46e-01	0	41	104	6624903168	79	10591
2026-01-21 07:05:23.20	339.85	4.36	-54.5	-63.3	3.8	7.45e-01	0	40	104	6624903168	79	10639
2026-01-21 07:05:24.21	339.81	4.28	-54.5	-63.4	3.8	7.46e-01	0	40	104	6624903168	79	10722
2026-01-21 07:05:25.22	339.78	4.21	-54.5	-63.3	3.8	7.47e-01	0	40	104	6624903168	79	10647
2026-01-21 07:05:26.23	339.74	4.13	-54.5	-63.3	3.8	7.46e-01	0	40	104	6624903168	79	10631
2026-01-21 07:05:27.23	339.70	4.05	-54.5	-63.3	3.8	7.45e-01	0	40	104	6624903168	79	10581
2026-01-21 07:05:28.24	339.66	3.98	-54.4	-63.2	3.8	7.45e-01	0	40	104	6624903168	79	10491
2026-01-21 07:05:29.25	339.63	3.90	-54.3	-63.1	3.8	7.45e-01	0	40	104	6624903168	79	10345
2026-01-21 07:05:30.26	339.59	3.83	-54.2	-63.1	3.8	7.45e-01	0	40	104	6624903168	79	10315
2026-01-21 07:05:31.27	339.56	3.75	-54.2	-63.1	3.8	7.46e-01	0	40	104	6624903168	79	10294
2026-01-21 07:05:32.27	339.52	3.68	-54.2	-63.1	3.8	7.44e-01	0	40	104	6624903168	79	10297
2026-01-21 07:05:33.28	339.48	3.60	-54.3	-63.1	3.8	7.46e-01	0	40	104	6624903168	79	10297
2026-01-21 07:05:34.29	339.45	3.53	-54.3	-63.1	3.8	7.45e-01	0	41	104	6624903168	79	10347
2026-01-21 07:05:35.30	339.41	3.45	-54.3	-63.1	3.8	7.47e-01	0	40	104	6624903168	79	10359
2026-01-21 07:05:36.31	339.38	3.38	-54.3	-63.2	3.8	7.47e-01	0	40	104	6624903168	79	10413
2026-01-21 07:05:37.31	339.34	3.30	-54.3	-63.1	3.8	7.45e-01	0	40	104	6624903168	79	10371
2026-01-21 07:05:38.32	339.31	3.23	-54.2	-63.1	3.8	7.44e-01	0	40	104	6624903168	79	10351
2026-01-21 07:05:39.33	339.28	3.16	-54.2	-63.1	3.8	7.44e-01	0	40	104	6624903168	79	10304
2026-01-21 07:05:40.34	339.24	3.08	-54.2	-63.1	3.8	7.45e-01	0	40	104	6624903168	79	10296
2026-01-21 07:05:41.34	339.21	3.01	-54.2	-63.1	3.8	7.45e-01	0	40	104	6624903168	79	10300
2026-01-21 07:05:42.35	339.18	2.94	-54.2	-63.1	3.8	7.46e-01	0	41	104	6624903168	79	10294
2026-01-21 07:05:43.36	339.14	2.87	-54.2	-63.1	3.8	7.45e-01	0	41	104	6624903168	79	10308
2026-01-21 07:05:44.37	339.11	2.80	-54.2	-63.1	3.8	7.46e-01	0	40	104	6624903168	79	10300
2026-01-21 07:05:45.37	339.08	2.72	-54.2	-63.1	3.8	7.44e-01	0	40	104	6624903168	79	10322
2026-01-21 07:05:46.38	339.04	2.65	-54.2	-63.0	3.8	7.45e-01	0	41	104	6624903168	79	10234
2026-01-21 07:05:47.39	339.01	2.58	-54.2	-63.0	3.8	7.43e-01	0	40	104	6624903168	79	10291
2026-01-21 07:05:48.40	338.98	2.51	-54.2	-63.0	3.8	7.45e-01	0	40	104	6624903168	79	10252
2026-01-21 07:05:49.41	338.95	2.44	-54.2	-63.0	3.8	7.45e-01	0	40	104	6624903168	79	10265
2026-01-21 07:05:50.41	338.92	2.37	-54.2	-63.0	3.8	7.44e-01	0	40	104	6624903168	79	10293
2026-01-21 07:05:51.42	338.89	2.30	-54.2	-63.0	3.8	7.47e-01	0	40	104	6624903168	79	10248
2026-01-21 07:05:52.43	338.85	2.23	-54.2	-63.0	3.8	7.46e-01	0	41	104	6624903168	79	10225
2026-01-21 07:05:53.44	338.82	2.16	-54.2	-63.0	3.8	7.45e-01	0	40	104	6624903168	79	10220
2026-01-21 07:05:54.45	338.79	2.09	-54.2	-63.0	3.8	7.45e-01	0	41	104	6624903168	79	10212
2026-01-21 07:05:55.45	338.76	2.02	-54.2	-63.0	3.8	7.45e-01	0	40	104	6624903168	79	10256
2026-01-21 07:05:56.46	338.73	1.95	-54.2	-63.0	3.8	7.45e-01	0	40	104	6624903168	79	10233

#Closed at: 2026-01-21 07:05:57
#Recorded file [6624 MB]: D:/lorett/data/31041_260121_095537.dat