passes_logs/2026/01/21/R3.2S_Murmansk/R3.2S_Murmansk__20260121_141411_AQUA_rec.log

#Pass ID: 20260121_141411_AQUA
#Satellite: AQUA
#Configuration: AQUA
#almurnet v.1.7.20251203
#Start time: 2026-01-21 14:14:11

#Version: 2.2.20231116
#Station: R3.2S_Murmansk
#Location: 33.079688 lon 68.888172 lat
#TLE: 1 27424U 02022A   26020.90316333  .00002787  00000+0  56766-3 0  9999
#TLE: 2 27424  98.4095 347.4297 0002000  71.6339 309.8236 14.61840001261750

#Time	Az	El	Level	Level2	SNR	BER	BlckErr	Temp	State	Recorded	gain1	gain2
2026-01-21 14:14:11.76	232.30	2.03	-51.7	-69.6	3.8	7.45e-01	0	38	0	0	74	29037
2026-01-21 14:14:12.77	232.40	2.08	-51.7	-69.6	3.8	7.48e-01	0	38	104	0	74	29219
2026-01-21 14:14:13.78	232.51	2.13	-51.7	-69.6	3.8	7.46e-01	0	38	104	0	74	29101
2026-01-21 14:14:14.79	232.61	2.18	-51.7	-69.6	3.8	7.47e-01	0	38	104	0	74	29043
2026-01-21 14:14:15.80	232.72	2.23	-51.7	-69.6	3.8	7.44e-01	0	38	104	0	74	29022
2026-01-21 14:14:16.81	232.82	2.28	-51.7	-69.6	3.8	7.46e-01	0	38	104	0	74	29081
2026-01-21 14:14:17.82	232.93	2.33	-51.7	-69.6	3.8	7.44e-01	0	38	104	0	74	29042
2026-01-21 14:14:18.83	233.03	2.38	-51.8	-69.6	3.8	7.44e-01	0	38	104	0	74	29041
2026-01-21 14:14:19.83	233.14	2.43	-51.7	-69.6	3.8	7.43e-01	0	38	104	0	74	29049
2026-01-21 14:14:20.84	233.24	2.48	-51.7	-69.6	3.8	7.43e-01	0	38	104	0	74	29120
2026-01-21 14:14:21.85	233.35	2.53	-51.7	-69.6	3.8	7.47e-01	0	38	104	0	74	29023
2026-01-21 14:14:22.86	233.46	2.58	-51.8	-69.6	3.8	7.48e-01	0	38	104	0	74	29059
2026-01-21 14:14:23.87	233.57	2.63	-51.7	-69.6	3.8	7.47e-01	0	38	104	0	74	29099
2026-01-21 14:14:24.88	233.68	2.68	-51.7	-69.6	3.8	7.47e-01	0	38	104	0	74	29082
2026-01-21 14:14:25.88	233.78	2.73	-51.8	-69.6	3.8	7.44e-01	0	38	104	0	74	29119
2026-01-21 14:14:26.89	233.89	2.79	-51.7	-69.6	3.8	7.45e-01	0	38	104	0	74	29052
2026-01-21 14:14:27.90	234.00	2.84	-51.7	-69.6	3.8	7.41e-01	0	38	104	0	74	29046
2026-01-21 14:14:28.91	234.11	2.89	-51.7	-69.6	3.8	7.47e-01	0	38	104	0	74	29101
2026-01-21 14:14:29.92	234.22	2.94	-51.7	-69.6	3.8	7.49e-01	0	38	104	0	74	29073
2026-01-21 14:14:30.93	234.33	2.99	-51.8	-69.6	3.8	7.46e-01	0	38	104	0	74	29068
2026-01-21 14:14:31.94	234.44	3.04	-51.8	-69.6	3.8	7.48e-01	0	38	104	0	74	29064
2026-01-21 14:14:32.95	234.55	3.09	-51.8	-69.6	3.8	7.46e-01	0	38	104	0	74	29048
2026-01-21 14:14:33.96	234.67	3.14	-51.7	-69.6	3.8	7.47e-01	0	38	104	0	74	29092
2026-01-21 14:14:34.96	234.78	3.19	-51.7	-69.6	3.8	7.46e-01	0	38	104	0	74	29027
2026-01-21 14:14:35.97	234.89	3.24	-51.7	-69.6	3.8	7.44e-01	0	38	104	0	74	29102
2026-01-21 14:14:36.98	235.00	3.29	-51.7	-69.6	3.8	7.48e-01	0	38	104	0	74	29063
2026-01-21 14:14:37.99	235.12	3.34	-51.7	-69.5	3.8	7.44e-01	0	39	104	0	74	29007
2026-01-21 14:14:39.00	235.23	3.39	-51.7	-69.6	3.8	7.45e-01	0	39	104	0	74	29048
2026-01-21 14:14:40.01	235.34	3.44	-51.7	-69.6	3.8	7.46e-01	0	39	104	0	74	29012
2026-01-21 14:14:41.01	235.46	3.49	-51.7	-69.6	3.8	7.43e-01	0	38	104	0	74	29045
2026-01-21 14:14:42.02	235.57	3.54	-51.7	-69.6	3.8	7.45e-01	0	39	104	0	74	29105
2026-01-21 14:14:43.03	235.69	3.60	-51.8	-69.6	3.8	7.45e-01	0	39	104	0	74	29101
2026-01-21 14:14:44.04	235.80	3.65	-51.8	-69.6	3.8	7.43e-01	0	39	104	0	74	29098
2026-01-21 14:14:45.05	235.92	3.70	-51.7	-69.6	3.8	7.46e-01	0	39	104	0	74	29100
2026-01-21 14:14:46.06	236.04	3.75	-51.7	-69.6	3.8	7.46e-01	0	39	104	0	74	29020
2026-01-21 14:14:47.06	236.15	3.80	-51.8	-69.6	3.8	7.45e-01	0	39	104	0	74	29067
2026-01-21 14:14:48.07	236.27	3.85	-51.7	-69.6	3.8	7.43e-01	0	38	104	0	74	29075
2026-01-21 14:14:49.08	236.39	3.90	-51.7	-69.6	3.8	7.46e-01	0	38	104	0	74	29123
2026-01-21 14:14:50.09	236.51	3.95	-51.8	-69.6	3.8	7.44e-01	0	39	104	0	74	29030
2026-01-21 14:14:51.10	236.63	4.00	-51.8	-69.6	3.8	7.44e-01	0	39	104	0	74	29087
2026-01-21 14:14:52.11	236.74	4.05	-51.8	-69.6	3.8	7.45e-01	0	39	104	0	74	29040
2026-01-21 14:14:53.11	236.86	4.10	-51.8	-69.6	3.8	7.46e-01	0	39	104	0	74	29111
2026-01-21 14:14:54.12	236.98	4.16	-51.7	-69.6	3.8	7.44e-01	0	39	104	0	74	29070
2026-01-21 14:14:55.13	237.10	4.21	-51.8	-69.6	3.8	7.47e-01	0	39	104	0	74	29076
2026-01-21 14:14:56.14	237.23	4.26	-51.7	-69.6	3.8	7.44e-01	0	39	104	0	74	29028
2026-01-21 14:14:57.14	237.35	4.31	-51.7	-69.6	3.8	7.44e-01	0	39	104	0	74	29048
2026-01-21 14:14:58.15	237.47	4.36	-51.7	-69.6	3.8	7.43e-01	0	39	104	0	74	29030
2026-01-21 14:14:59.16	237.59	4.41	-51.7	-69.6	3.8	7.45e-01	0	39	104	0	74	29044
2026-01-21 14:15:00.17	237.71	4.46	-51.7	-69.6	3.8	7.44e-01	0	39	104	0	74	29066
2026-01-21 14:15:01.18	237.84	4.51	-51.7	-69.6	3.8	7.45e-01	0	39	104	0	74	29024
2026-01-21 14:15:02.18	237.96	4.56	-51.7	-69.6	3.8	7.45e-01	0	39	104	0	74	29095
2026-01-21 14:15:03.19	238.08	4.61	-51.7	-69.6	3.8	7.45e-01	0	39	104	0	74	29118
2026-01-21 14:15:04.20	238.21	4.66	-51.7	-69.6	3.8	7.47e-01	0	39	104	0	74	29103
2026-01-21 14:15:05.21	238.33	4.72	-51.8	-69.6	3.8	7.46e-01	0	39	104	0	74	29036
2026-01-21 14:15:06.21	238.46	4.77	-51.7	-69.6	3.8	7.45e-01	0	39	104	0	74	29110
2026-01-21 14:15:07.23	238.58	4.82	-51.8	-69.6	3.8	7.43e-01	0	39	104	0	74	29067
2026-01-21 14:15:08.23	238.71	4.87	-51.8	-69.6	3.8	7.44e-01	0	39	104	0	74	29092
2026-01-21 14:15:09.24	238.84	4.92	-51.8	-69.6	3.8	7.47e-01	0	39	104	0	74	29107
2026-01-21 14:15:10.25	238.96	4.97	-51.8	-69.6	3.8	7.47e-01	0	39	104	0	74	29069
2026-01-21 14:15:11.26	239.09	5.02	-51.8	-69.6	3.8	7.45e-01	0	39	104	0	74	29037
2026-01-21 14:15:12.27	239.22	5.07	-51.8	-69.6	3.8	7.46e-01	0	39	104	0	74	29112
2026-01-21 14:15:13.28	239.35	5.12	-51.7	-69.6	3.8	7.47e-01	0	39	104	0	74	29081
2026-01-21 14:15:14.29	239.48	5.18	-51.7	-69.6	3.8	7.43e-01	0	39	104	0	74	29066
2026-01-21 14:15:15.30	239.61	5.23	-51.8	-69.6	3.8	7.47e-01	0	39	104	0	74	29107
2026-01-21 14:15:16.31	239.74	5.28	-51.8	-69.6	3.8	7.45e-01	0	39	104	0	74	29043
2026-01-21 14:15:17.32	239.87	5.33	-51.7	-69.6	3.8	7.42e-01	0	39	104	0	74	29117
2026-01-21 14:15:18.33	240.00	5.38	-51.8	-69.6	3.8	7.46e-01	0	39	104	0	74	29073
2026-01-21 14:15:19.33	240.13	5.43	-51.8	-69.6	3.8	7.44e-01	0	39	104	0	74	29120
2026-01-21 14:15:20.34	240.26	5.48	-51.7	-69.6	3.8	7.48e-01	0	39	104	0	74	29049
2026-01-21 14:15:21.35	240.40	5.53	-51.7	-69.6	3.8	7.47e-01	0	39	104	0	74	29068
2026-01-21 14:15:22.36	240.53	5.58	-51.8	-69.6	3.8	7.43e-01	0	39	104	0	74	29075
2026-01-21 14:15:23.37	240.66	5.63	-51.8	-69.6	3.8	7.48e-01	0	39	104	0	74	29102
2026-01-21 14:15:24.38	240.80	5.69	-51.8	-69.6	3.8	7.44e-01	0	39	104	0	74	29055
2026-01-21 14:15:25.39	240.93	5.74	-51.8	-69.6	3.8	7.48e-01	0	39	104	0	74	29080
2026-01-21 14:15:26.40	241.07	5.79	-51.8	-69.6	3.8	7.46e-01	0	39	104	0	74	29131
2026-01-21 14:15:27.40	241.20	5.84	-51.7	-69.6	3.8	7.47e-01	0	39	104	0	74	29178
2026-01-21 14:15:28.41	241.34	5.89	-51.7	-69.6	3.8	7.45e-01	0	39	104	0	74	29094
2026-01-21 14:15:29.42	241.47	5.94	-51.8	-69.6	3.8	7.41e-01	0	39	104	0	74	29076
2026-01-21 14:15:30.43	241.61	5.99	-51.7	-69.6	3.8	7.49e-01	0	39	104	0	74	29093
2026-01-21 14:15:31.43	241.75	6.04	-51.7	-69.6	3.8	7.45e-01	0	39	104	0	74	29080
2026-01-21 14:15:32.44	241.89	6.09	-51.8	-69.6	3.8	7.47e-01	0	39	104	0	74	29113
2026-01-21 14:15:33.45	242.02	6.14	-51.7	-69.6	3.8	7.47e-01	0	39	104	0	74	29109
2026-01-21 14:15:34.47	242.16	6.19	-51.7	-69.6	3.8	7.45e-01	0	39	104	0	74	29055
2026-01-21 14:15:35.47	242.30	6.24	-51.7	-69.6	3.8	7.43e-01	0	39	104	0	74	29021
2026-01-21 14:15:36.48	242.44	6.30	-51.7	-69.6	3.8	7.46e-01	0	39	104	0	74	29064
2026-01-21 14:15:37.49	242.58	6.35	-51.7	-69.6	3.8	7.45e-01	0	40	104	0	74	29110
2026-01-21 14:15:38.50	242.73	6.40	-51.7	-69.6	3.8	7.46e-01	0	39	104	0	74	29091
2026-01-21 14:15:39.50	242.87	6.45	-51.7	-69.6	3.8	7.47e-01	0	39	104	0	74	29052
2026-01-21 14:15:40.51	243.01	6.50	-51.8	-69.6	3.8	7.46e-01	0	40	104	0	74	29130
2026-01-21 14:15:41.52	243.15	6.55	-51.7	-69.6	3.8	7.45e-01	0	40	104	0	74	29094
2026-01-21 14:15:42.53	243.29	6.60	-51.8	-69.6	3.8	7.46e-01	0	39	104	0	74	29058
2026-01-21 14:15:43.54	243.44	6.65	-51.8	-69.6	3.8	7.45e-01	0	39	104	0	74	29093
2026-01-21 14:15:44.55	243.58	6.70	-51.7	-69.6	3.8	7.45e-01	0	39	104	0	74	29121
2026-01-21 14:15:45.56	243.73	6.75	-51.7	-69.6	3.8	7.47e-01	0	40	104	0	74	29101
2026-01-21 14:15:46.57	243.87	6.80	-51.8	-69.6	3.8	7.43e-01	0	39	104	0	74	29102
2026-01-21 14:15:47.58	244.02	6.85	-51.8	-69.6	3.8	7.46e-01	0	40	104	0	74	29100
2026-01-21 14:15:48.58	244.16	6.90	-51.7	-69.6	3.8	7.46e-01	0	39	104	0	74	29128
2026-01-21 14:15:49.59	244.31	6.95	-51.8	-69.6	3.8	7.44e-01	0	40	104	0	74	29087
2026-01-21 14:15:50.60	244.46	7.00	-51.8	-69.6	3.8	7.45e-01	0	40	104	0	74	29086
2026-01-21 14:15:51.61	244.61	7.05	-51.7	-69.6	3.8	7.47e-01	0	39	104	0	74	29129
2026-01-21 14:15:52.62	244.75	7.10	-51.8	-69.6	3.8	7.43e-01	0	40	104	0	74	29068
2026-01-21 14:15:53.63	244.90	7.15	-51.7	-69.6	3.8	7.43e-01	0	39	104	0	74	29088
2026-01-21 14:15:54.64	245.05	7.20	-51.7	-69.6	3.8	7.45e-01	0	40	104	0	74	29105
2026-01-21 14:15:55.65	245.20	7.25	-51.8	-69.6	3.8	7.43e-01	0	39	104	0	74	29091
2026-01-21 14:15:56.65	245.35	7.30	-51.8	-69.6	3.8	7.44e-01	0	40	104	0	74	29128
2026-01-21 14:15:57.66	245.50	7.35	-51.8	-69.6	3.8	7.47e-01	0	40	104	0	74	29125
2026-01-21 14:15:58.67	245.66	7.40	-51.8	-69.6	3.8	7.46e-01	0	39	104	0	74	29085
2026-01-21 14:15:59.68	245.81	7.45	-51.8	-69.6	3.8	7.45e-01	0	39	104	0	74	29096
2026-01-21 14:16:00.68	245.96	7.50	-51.8	-69.6	3.8	7.46e-01	0	40	104	0	74	29072
2026-01-21 14:16:01.69	246.11	7.55	-51.8	-69.6	3.8	7.45e-01	0	39	104	0	74	29053
2026-01-21 14:16:02.71	246.27	7.60	-51.8	-69.6	3.8	7.46e-01	0	40	104	0	74	29159
2026-01-21 14:16:03.71	246.42	7.65	-51.8	-69.6	3.8	7.46e-01	0	40	104	0	74	29152
2026-01-21 14:16:04.72	246.58	7.70	-51.8	-69.6	3.8	7.45e-01	0	40	104	0	74	29123
2026-01-21 14:16:05.73	246.73	7.75	-51.8	-69.6	3.8	7.46e-01	0	40	104	0	74	29147
2026-01-21 14:16:06.74	246.89	7.80	-51.8	-69.6	3.8	7.42e-01	0	40	104	0	74	29068
2026-01-21 14:16:07.74	247.04	7.85	-51.8	-69.6	3.8	7.46e-01	0	40	104	0	74	29106
2026-01-21 14:16:08.75	247.20	7.90	-51.8	-69.6	3.8	7.46e-01	0	39	104	0	74	29100
2026-01-21 14:16:09.76	247.36	7.95	-51.8	-69.6	3.8	7.43e-01	0	40	104	0	74	29078
2026-01-21 14:16:10.77	247.52	8.00	-51.8	-69.6	3.8	7.45e-01	0	39	104	0	74	29123
2026-01-21 14:16:11.78	247.68	8.05	-51.7	-69.6	3.8	7.46e-01	0	40	104	0	74	29108
2026-01-21 14:16:12.78	247.84	8.10	-51.7	-69.6	3.8	7.44e-01	0	40	104	0	74	29114
2026-01-21 14:16:13.79	248.00	8.15	-51.7	-69.6	3.8	7.46e-01	0	39	104	0	74	29042
2026-01-21 14:16:14.80	248.16	8.19	-51.8	-69.6	3.8	7.43e-01	0	40	104	0	74	29135
2026-01-21 14:16:15.81	248.32	8.24	-51.8	-69.6	3.8	7.44e-01	0	40	104	0	74	29077
2026-01-21 14:16:16.82	248.48	8.29	-51.8	-69.6	3.8	7.49e-01	0	39	104	0	74	29101
2026-01-21 14:16:17.83	248.64	8.34	-51.8	-69.6	3.8	7.44e-01	0	39	104	0	74	29056
2026-01-21 14:16:18.83	248.80	8.39	-51.8	-69.6	3.8	7.42e-01	0	40	104	0	74	29109
2026-01-21 14:16:19.84	248.97	8.44	-51.8	-69.6	3.8	7.44e-01	0	40	104	0	74	29162
2026-01-21 14:16:20.85	249.13	8.49	-51.8	-69.6	3.8	7.45e-01	0	40	104	0	74	29116
2026-01-21 14:16:21.86	249.30	8.53	-51.8	-69.6	3.8	7.45e-01	0	40	104	0	74	29080
2026-01-21 14:16:22.86	249.46	8.58	-51.7	-69.6	3.8	7.47e-01	0	40	104	0	74	29153
2026-01-21 14:16:23.87	249.62	8.63	-51.8	-69.6	3.8	7.45e-01	0	39	104	0	74	29095
2026-01-21 14:16:24.88	249.79	8.68	-51.8	-69.6	3.8	7.44e-01	0	40	104	0	74	29143
2026-01-21 14:16:25.89	249.96	8.73	-51.8	-69.6	3.8	7.45e-01	0	40	104	0	74	29174
2026-01-21 14:16:26.90	250.13	8.77	-51.8	-69.6	3.8	7.44e-01	0	40	104	0	74	29118
2026-01-21 14:16:27.90	250.29	8.82	-51.8	-69.6	3.8	7.44e-01	0	40	104	0	74	29169
2026-01-21 14:16:28.91	250.46	8.87	-51.8	-69.6	3.8	7.45e-01	0	40	104	0	74	29152
2026-01-21 14:16:29.92	250.63	8.92	-51.8	-69.6	3.8	7.46e-01	0	40	104	0	74	29106
2026-01-21 14:16:30.93	250.80	8.97	-51.8	-69.6	3.8	7.46e-01	0	40	104	0	74	29121
2026-01-21 14:16:31.94	250.97	9.01	-51.8	-69.6	3.8	7.46e-01	0	40	104	0	74	29124
2026-01-21 14:16:32.95	251.14	9.06	-51.8	-69.6	3.8	7.46e-01	0	40	104	0	74	29141
2026-01-21 14:16:33.96	251.31	9.11	-51.8	-69.6	3.8	7.42e-01	0	40	104	0	74	29151
2026-01-21 14:16:34.97	251.49	9.15	-51.8	-69.6	3.8	7.45e-01	0	40	104	0	74	29108
2026-01-21 14:16:35.98	251.66	9.20	-51.8	-69.6	3.8	7.41e-01	0	40	104	0	74	29110
2026-01-21 14:16:36.98	251.83	9.25	-51.8	-69.6	3.8	7.43e-01	0	40	104	0	74	29142
2026-01-21 14:16:37.99	252.00	9.29	-51.8	-69.6	3.8	7.49e-01	0	40	104	0	74	29119
2026-01-21 14:16:39.00	252.18	9.34	-51.8	-69.6	3.8	7.43e-01	0	40	104	0	74	29172
2026-01-21 14:16:40.01	252.35	9.39	-51.8	-69.6	3.8	7.48e-01	0	40	104	0	74	29228
2026-01-21 14:16:41.02	252.53	9.43	-51.8	-69.6	3.8	7.46e-01	0	40	104	0	74	29208
2026-01-21 14:16:42.03	252.71	9.48	-51.8	-69.6	3.8	7.46e-01	0	40	104	0	74	29062
2026-01-21 14:16:43.03	252.88	9.53	-51.8	-69.6	3.8	7.47e-01	0	40	104	0	74	29177
2026-01-21 14:16:44.04	253.06	9.57	-51.8	-69.6	3.8	7.44e-01	0	40	104	0	74	29191
2026-01-21 14:16:45.05	253.24	9.62	-51.8	-69.6	3.8	7.45e-01	0	40	104	0	74	29121
2026-01-21 14:16:46.06	253.42	9.66	-51.8	-69.6	3.8	7.46e-01	0	40	104	0	74	29167
2026-01-21 14:16:47.06	253.59	9.71	-51.8	-69.6	3.8	7.45e-01	0	40	104	0	74	29162
2026-01-21 14:16:48.07	253.77	9.75	-51.8	-69.6	3.8	7.46e-01	0	40	104	0	74	29221
2026-01-21 14:16:49.08	253.95	9.80	-51.8	-69.6	3.8	7.44e-01	0	40	104	0	74	29185
2026-01-21 14:16:50.09	254.13	9.84	-51.8	-69.6	3.8	7.46e-01	0	40	104	0	74	29193
2026-01-21 14:16:51.10	254.32	9.89	-51.8	-69.6	3.8	7.45e-01	0	40	104	0	74	29198
2026-01-21 14:16:52.10	254.50	9.93	-51.8	-69.6	3.8	7.44e-01	0	40	104	0	74	29214
2026-01-21 14:16:53.11	254.68	9.98	-51.8	-69.6	3.8	7.47e-01	0	40	104	0	74	29209
2026-01-21 14:16:54.12	254.86	10.02	-51.8	-69.6	3.8	7.45e-01	0	40	104	0	74	29171
2026-01-21 14:16:55.13	255.05	10.07	-51.8	-69.6	3.8	7.45e-01	0	40	104	0	74	29191
2026-01-21 14:16:56.14	255.23	10.11	-51.8	-69.6	3.8	7.44e-01	0	40	104	0	74	29185
2026-01-21 14:16:57.14	255.41	10.16	-51.8	-69.6	3.8	7.42e-01	0	40	104	0	74	29133
2026-01-21 14:16:58.15	255.60	10.20	-51.8	-69.6	3.8	7.47e-01	0	40	104	0	74	29145
2026-01-21 14:16:59.16	255.78	10.24	-51.8	-69.6	3.8	7.49e-01	0	40	104	0	74	29134
2026-01-21 14:17:00.17	255.97	10.29	-51.8	-69.6	3.8	7.46e-01	0	40	104	0	74	29167
2026-01-21 14:17:01.18	256.16	10.33	-51.8	-69.6	3.8	7.47e-01	0	40	104	0	74	29181
2026-01-21 14:17:02.18	256.35	10.37	-51.8	-69.6	3.8	7.48e-01	0	40	104	0	74	29105
2026-01-21 14:17:03.19	256.53	10.42	-51.8	-69.6	3.8	7.51e-01	0	40	104	0	74	29170
2026-01-21 14:17:04.20	256.72	10.46	-51.8	-69.6	3.8	7.46e-01	0	40	104	0	74	29228
2026-01-21 14:17:05.21	256.91	10.50	-51.8	-69.6	3.8	7.45e-01	0	40	104	0	74	29178
2026-01-21 14:17:06.22	257.10	10.54	-51.8	-69.6	3.8	7.45e-01	0	40	104	0	74	29210
2026-01-21 14:17:07.22	257.29	10.59	-51.8	-69.6	3.8	7.47e-01	0	40	104	0	74	29145
2026-01-21 14:17:08.23	257.48	10.63	-51.8	-69.6	3.8	7.44e-01	0	40	104	0	74	29148
2026-01-21 14:17:09.24	257.67	10.67	-51.8	-69.6	3.8	7.42e-01	0	40	104	0	74	29081
2026-01-21 14:17:10.25	257.87	10.71	-51.8	-69.6	3.8	7.46e-01	0	40	104	0	74	29120
2026-01-21 14:17:11.26	258.06	10.75	-51.8	-69.6	3.8	7.45e-01	0	40	104	0	74	29097
2026-01-21 14:17:12.27	258.25	10.80	-51.8	-69.6	3.8	7.46e-01	0	40	104	0	74	29140
2026-01-21 14:17:13.28	258.45	10.84	-51.8	-69.6	3.8	7.49e-01	0	40	104	0	74	29163
2026-01-21 14:17:14.29	258.64	10.88	-51.8	-69.6	3.8	7.46e-01	0	40	104	0	74	29098
2026-01-21 14:17:15.30	258.84	10.92	-51.8	-69.6	3.8	7.49e-01	0	40	104	0	74	29191
2026-01-21 14:17:16.31	259.03	10.96	-51.8	-69.6	3.8	7.43e-01	0	40	104	0	74	29197
2026-01-21 14:17:17.31	259.23	11.00	-51.8	-69.6	3.8	7.43e-01	0	40	104	0	74	29190
2026-01-21 14:17:18.32	259.43	11.04	-51.8	-69.6	3.8	7.47e-01	0	40	104	0	74	29164
2026-01-21 14:17:19.33	259.62	11.08	-51.8	-69.6	3.8	7.43e-01	0	40	104	0	74	29168
2026-01-21 14:17:20.34	259.82	11.12	-51.8	-69.6	3.8	7.45e-01	0	40	104	0	74	29163
2026-01-21 14:17:21.35	260.02	11.16	-51.8	-69.6	3.8	7.48e-01	0	40	104	0	74	29197
2026-01-21 14:17:22.36	260.22	11.20	-51.8	-69.6	3.8	7.48e-01	0	40	104	0	74	29201
2026-01-21 14:17:23.37	260.42	11.24	-51.8	-69.6	3.8	7.45e-01	0	40	104	0	74	29155
2026-01-21 14:17:24.38	260.62	11.28	-51.8	-69.6	3.8	7.43e-01	0	40	104	0	74	29189
2026-01-21 14:17:25.39	260.82	11.32	-51.8	-69.6	3.8	7.45e-01	0	40	104	0	74	29193
2026-01-21 14:17:26.39	261.02	11.35	-51.8	-69.6	3.8	7.50e-01	0	40	104	0	74	29148
2026-01-21 14:17:27.40	261.22	11.39	-51.8	-69.6	3.8	7.47e-01	0	40	104	0	74	29161
2026-01-21 14:17:28.41	261.43	11.43	-51.8	-69.6	3.8	7.44e-01	0	40	104	0	74	29170
2026-01-21 14:17:29.42	261.63	11.47	-51.8	-69.6	3.8	7.46e-01	0	40	104	0	74	29152
2026-01-21 14:17:30.42	261.83	11.50	-51.8	-69.6	3.8	7.46e-01	0	40	104	0	74	29135
2026-01-21 14:17:31.43	262.04	11.54	-51.8	-69.6	3.8	7.43e-01	0	40	104	0	74	29192
2026-01-21 14:17:32.44	262.24	11.58	-51.8	-69.6	3.8	7.43e-01	0	40	104	0	74	29182
2026-01-21 14:17:33.45	262.45	11.62	-51.8	-69.6	3.8	7.48e-01	0	40	104	0	74	29170
2026-01-21 14:17:34.46	262.65	11.65	-51.8	-69.6	3.8	7.48e-01	0	40	104	0	74	29156
2026-01-21 14:17:35.47	262.86	11.69	-51.8	-69.6	3.8	7.47e-01	0	40	104	0	74	29180
2026-01-21 14:17:36.47	263.06	11.72	-51.8	-69.6	3.8	7.43e-01	0	40	104	0	74	29185
2026-01-21 14:17:37.48	263.27	11.76	-51.8	-69.6	3.8	7.44e-01	0	40	104	0	74	29173
2026-01-21 14:17:38.49	263.48	11.79	-51.8	-69.6	3.8	7.44e-01	0	40	104	0	74	29199
2026-01-21 14:17:39.50	263.69	11.83	-51.8	-69.6	3.8	7.43e-01	0	40	104	0	74	29175
2026-01-21 14:17:40.51	263.90	11.86	-51.8	-69.6	3.8	7.44e-01	0	40	104	0	74	29119
2026-01-21 14:17:41.51	264.10	11.90	-51.8	-69.6	3.8	7.45e-01	0	40	104	0	74	29224
2026-01-21 14:17:42.52	264.31	11.93	-51.8	-69.6	3.8	7.41e-01	0	40	104	0	74	29225
2026-01-21 14:17:43.53	264.52	11.97	-51.8	-69.6	3.8	7.44e-01	0	40	104	0	74	29166
2026-01-21 14:17:44.54	264.73	12.00	-51.8	-69.6	3.8	7.48e-01	0	40	104	0	74	29179
2026-01-21 14:17:45.54	264.94	12.03	-51.8	-69.6	3.8	7.46e-01	0	40	104	0	74	29225
2026-01-21 14:17:46.55	265.16	12.07	-51.8	-69.6	3.8	7.46e-01	0	40	104	0	74	29163
2026-01-21 14:17:47.56	265.37	12.10	-51.8	-69.6	3.8	7.45e-01	0	40	104	0	74	29104
2026-01-21 14:17:48.57	265.58	12.13	-51.8	-69.6	3.8	7.44e-01	0	40	104	0	74	29234
2026-01-21 14:17:49.58	265.80	12.17	-51.8	-69.6	3.8	7.45e-01	0	40	104	0	74	29172
2026-01-21 14:17:50.58	266.01	12.20	-51.8	-69.6	3.8	7.46e-01	0	40	104	0	74	29256
2026-01-21 14:17:51.59	266.22	12.23	-51.8	-69.6	3.8	7.46e-01	0	40	104	0	74	29209
2026-01-21 14:17:52.60	266.44	12.26	-51.8	-69.6	3.8	7.47e-01	0	40	104	0	74	29162
2026-01-21 14:17:53.61	266.65	12.29	-51.8	-69.6	3.8	7.43e-01	0	40	104	0	74	29180
2026-01-21 14:17:54.62	266.87	12.32	-51.8	-69.6	3.8	7.47e-01	0	40	104	0	74	29126
2026-01-21 14:17:55.63	267.08	12.35	-51.8	-69.6	3.8	7.44e-01	0	40	104	0	74	29097
2026-01-21 14:17:56.64	267.30	12.38	-51.8	-69.6	3.8	7.47e-01	0	40	104	0	74	29152
2026-01-21 14:17:57.65	267.52	12.41	-51.8	-69.6	3.8	7.44e-01	0	40	104	0	74	29208
2026-01-21 14:17:58.66	267.74	12.44	-51.8	-69.6	3.8	7.45e-01	0	40	104	0	74	29162
2026-01-21 14:17:59.66	267.95	12.47	-51.8	-69.6	3.8	7.44e-01	0	40	104	0	74	29115
2026-01-21 14:18:00.67	268.17	12.50	-51.8	-69.6	3.8	7.47e-01	0	40	104	0	74	29193
2026-01-21 14:18:01.68	268.39	12.53	-51.8	-69.6	3.8	7.44e-01	0	40	104	0	74	29167
2026-01-21 14:18:02.69	268.61	12.56	-51.8	-69.6	3.8	7.44e-01	0	40	104	0	74	29173
2026-01-21 14:18:03.70	268.83	12.59	-51.8	-69.6	3.8	7.45e-01	0	40	104	0	74	29211
2026-01-21 14:18:04.71	269.05	12.61	-51.8	-69.6	3.8	7.44e-01	0	40	104	0	74	29194
2026-01-21 14:18:05.72	269.27	12.64	-51.8	-69.6	3.8	7.42e-01	0	40	104	0	74	29190
2026-01-21 14:18:06.73	269.49	12.67	-51.8	-69.6	3.8	7.46e-01	0	40	104	0	74	29221
2026-01-21 14:18:07.74	269.71	12.69	-51.8	-69.6	3.8	7.48e-01	0	40	104	0	74	29200
2026-01-21 14:18:08.74	269.93	12.72	-51.8	-69.6	3.8	7.47e-01	0	40	104	0	74	29156
2026-01-21 14:18:09.75	270.16	12.75	-51.8	-69.6	3.8	7.47e-01	0	40	104	0	74	29175
2026-01-21 14:18:10.76	270.38	12.77	-51.8	-69.6	3.8	7.45e-01	0	40	104	0	74	29166
2026-01-21 14:18:11.77	270.60	12.80	-51.8	-69.6	3.8	7.44e-01	0	40	104	0	74	29113
2026-01-21 14:18:12.78	270.83	12.82	-51.8	-69.6	3.8	7.45e-01	0	40	104	0	74	29156
2026-01-21 14:18:13.79	271.05	12.85	-51.8	-69.6	3.8	7.47e-01	0	40	104	0	74	29133
2026-01-21 14:18:14.80	271.27	12.87	-51.8	-69.6	3.8	7.45e-01	0	40	104	0	74	29222
2026-01-21 14:18:15.81	271.50	12.90	-51.8	-69.6	3.8	7.45e-01	0	40	104	0	74	29211
2026-01-21 14:18:16.82	271.72	12.92	-51.8	-69.6	3.8	7.47e-01	0	40	104	0	74	29204
2026-01-21 14:18:17.83	271.95	12.94	-51.8	-69.6	3.8	7.44e-01	0	40	104	0	74	29141
2026-01-21 14:18:18.83	272.17	12.97	-51.8	-69.6	3.8	7.46e-01	0	40	104	0	74	29149
2026-01-21 14:18:19.84	272.40	12.99	-51.8	-69.6	3.8	7.46e-01	0	40	104	0	74	29153
2026-01-21 14:18:20.85	272.63	13.01	-51.8	-69.6	3.8	7.43e-01	0	40	104	0	74	29090
2026-01-21 14:18:21.86	272.85	13.03	-51.8	-69.6	3.8	7.43e-01	0	40	104	0	74	29242
2026-01-21 14:18:22.86	273.08	13.05	-51.8	-69.6	3.8	7.45e-01	0	40	104	0	74	29166
2026-01-21 14:18:23.87	273.31	13.07	-51.8	-69.6	3.8	7.45e-01	0	40	104	0	74	29250
2026-01-21 14:18:24.88	273.53	13.09	-51.8	-69.6	3.8	7.45e-01	0	40	104	0	74	29189
2026-01-21 14:18:25.89	273.76	13.11	-51.8	-69.6	3.8	7.44e-01	0	40	104	0	74	29192
2026-01-21 14:18:26.90	273.99	13.13	-51.8	-69.6	3.8	7.44e-01	0	40	104	0	74	29177
2026-01-21 14:18:27.90	274.22	13.15	-51.8	-69.6	3.8	7.46e-01	0	40	104	0	74	29185
2026-01-21 14:18:28.91	274.45	13.17	-51.8	-69.6	3.8	7.44e-01	0	40	104	0	74	29178
2026-01-21 14:18:29.92	274.68	13.19	-51.8	-69.6	3.8	7.44e-01	0	40	104	0	74	29151
2026-01-21 14:18:30.93	274.91	13.21	-51.8	-69.6	3.8	7.44e-01	0	40	104	0	74	29155
2026-01-21 14:18:31.94	275.14	13.23	-51.8	-69.6	3.8	7.46e-01	0	40	104	0	74	29200
2026-01-21 14:18:32.95	275.37	13.25	-51.8	-69.6	3.8	7.47e-01	0	40	104	0	74	29121
2026-01-21 14:18:33.95	275.60	13.26	-51.8	-69.6	3.8	7.42e-01	0	40	104	0	74	29080
2026-01-21 14:18:34.96	275.83	13.28	-51.8	-69.6	3.8	7.45e-01	0	40	104	0	74	29051
2026-01-21 14:18:35.97	276.06	13.30	-51.8	-69.6	3.8	7.46e-01	0	40	104	0	74	29135
2026-01-21 14:18:36.98	276.29	13.31	-51.8	-69.6	3.8	7.43e-01	0	40	104	0	74	29194
2026-01-21 14:18:37.99	276.52	13.33	-51.8	-69.6	3.8	7.45e-01	0	40	104	0	74	29190
2026-01-21 14:18:39.00	276.75	13.34	-51.8	-69.6	3.8	7.45e-01	0	40	104	0	74	29198
2026-01-21 14:18:40.01	276.99	13.36	-51.8	-69.6	3.8	7.45e-01	0	40	104	0	74	29168
2026-01-21 14:18:41.02	277.22	13.37	-51.8	-69.6	3.8	7.46e-01	0	40	104	0	74	29190
2026-01-21 14:18:42.03	277.45	13.39	-51.8	-69.6	3.8	7.46e-01	0	40	104	0	74	29225
2026-01-21 14:18:43.03	277.68	13.40	-51.8	-69.6	3.8	7.45e-01	0	40	104	0	74	29151
2026-01-21 14:18:44.04	277.92	13.41	-51.8	-69.6	3.8	7.44e-01	0	40	104	0	74	29059
2026-01-21 14:18:45.05	278.15	13.43	-51.8	-69.6	3.8	7.44e-01	0	40	104	0	74	29054
2026-01-21 14:18:46.06	278.38	13.44	-51.8	-69.6	3.8	7.43e-01	0	40	104	0	74	29089
2026-01-21 14:18:47.07	278.62	13.45	-51.8	-69.6	3.8	7.46e-01	0	40	104	0	74	29139
2026-01-21 14:18:48.08	278.85	13.46	-51.8	-69.6	3.8	7.46e-01	0	40	104	0	74	29174
2026-01-21 14:18:49.09	279.08	13.47	-51.8	-69.6	3.8	7.44e-01	0	40	104	0	74	29255
2026-01-21 14:18:50.10	279.32	13.48	-51.8	-69.6	3.8	7.46e-01	0	40	104	0	74	29161
2026-01-21 14:18:51.11	279.55	13.49	-51.8	-69.6	3.8	7.46e-01	0	40	104	0	74	29093
2026-01-21 14:18:52.11	279.79	13.50	-51.8	-69.6	3.8	7.44e-01	0	40	104	0	74	29125
2026-01-21 14:18:53.12	280.02	13.51	-51.8	-69.6	3.8	7.43e-01	0	40	104	0	74	29107
2026-01-21 14:18:54.13	280.26	13.52	-51.8	-69.6	3.8	7.45e-01	0	40	104	0	74	29038
2026-01-21 14:18:55.14	280.49	13.53	-51.8	-69.6	3.8	7.48e-01	0	40	104	0	74	29041
2026-01-21 14:18:56.15	280.73	13.54	-51.8	-69.6	3.8	7.44e-01	0	40	104	0	74	29114
2026-01-21 14:18:57.16	280.96	13.55	-51.8	-69.6	3.8	7.46e-01	0	40	104	0	74	29104
2026-01-21 14:18:58.16	281.19	13.55	-51.8	-69.6	3.8	7.46e-01	0	40	104	0	74	29027
2026-01-21 14:18:59.17	281.43	13.56	-51.8	-69.6	3.8	7.47e-01	0	40	104	0	74	29055
2026-01-21 14:19:00.18	281.67	13.57	-51.8	-69.5	3.8	7.46e-01	0	40	104	0	74	28911
2026-01-21 14:19:01.19	281.90	13.57	-51.8	-69.6	3.8	7.45e-01	0	40	104	0	74	29172
2026-01-21 14:19:02.20	282.14	13.58	-51.8	-69.6	3.8	7.45e-01	0	40	104	0	74	29187
2026-01-21 14:19:03.21	282.37	13.59	-51.8	-69.6	3.8	7.43e-01	0	40	104	0	74	29186
2026-01-21 14:19:04.22	282.61	13.59	-51.8	-69.6	3.8	7.44e-01	0	40	104	0	74	29146
2026-01-21 14:19:05.23	282.85	13.59	-51.8	-69.6	3.8	7.49e-01	0	40	104	0	74	29076
2026-01-21 14:19:06.23	283.08	13.60	-51.8	-69.6	3.8	7.42e-01	0	40	104	0	74	29077
2026-01-21 14:19:07.24	283.32	13.60	-51.8	-69.6	3.8	7.45e-01	0	40	104	0	74	29077
2026-01-21 14:19:08.25	283.55	13.61	-51.8	-69.6	3.8	7.47e-01	0	40	104	0	74	29046
2026-01-21 14:19:09.26	283.79	13.61	-51.8	-69.6	3.8	7.43e-01	0	40	104	0	74	29206
2026-01-21 14:19:10.27	284.02	13.61	-51.8	-69.6	3.8	7.42e-01	0	40	104	0	74	29256
2026-01-21 14:19:11.28	284.26	13.61	-51.8	-69.6	3.8	7.42e-01	0	40	104	0	74	29170
2026-01-21 14:19:12.29	284.50	13.61	-51.8	-69.6	3.8	7.45e-01	0	40	104	0	74	29114
2026-01-21 14:19:13.30	284.73	13.62	-51.8	-69.5	3.8	7.44e-01	0	40	104	0	74	28956
2026-01-21 14:19:14.30	284.97	13.62	-51.8	-69.5	3.8	7.47e-01	0	40	104	0	74	28692
2026-01-21 14:19:15.31	285.20	13.62	-51.8	-69.5	3.8	7.44e-01	0	40	104	0	74	28776
2026-01-21 14:19:16.32	285.44	13.62	-51.8	-69.5	3.8	7.47e-01	0	40	104	0	74	28685
2026-01-21 14:19:17.33	285.68	13.62	-51.8	-69.4	3.8	7.44e-01	0	40	104	0	74	28635
2026-01-21 14:19:18.34	285.91	13.61	-51.8	-69.4	3.8	7.45e-01	0	40	104	0	74	28444
2026-01-21 14:19:19.35	286.15	13.61	-51.8	-69.4	3.8	7.44e-01	0	40	104	0	74	28382
2026-01-21 14:19:20.36	286.39	13.61	-51.8	-69.4	3.8	7.44e-01	0	40	104	0	74	28496
2026-01-21 14:19:21.36	286.62	13.61	-51.8	-69.4	3.8	7.42e-01	0	40	104	0	74	28580
2026-01-21 14:19:22.37	286.86	13.61	-51.8	-69.4	3.8	7.46e-01	0	40	104	0	74	28650
2026-01-21 14:19:23.38	287.09	13.60	-51.8	-69.5	3.8	7.43e-01	0	40	104	0	74	28982
2026-01-21 14:19:24.39	287.33	13.60	-51.8	-69.6	3.8	7.44e-01	0	40	104	0	74	29103
2026-01-21 14:19:25.40	287.57	13.59	-51.8	-69.6	3.8	7.43e-01	0	40	104	0	74	29202
2026-01-21 14:19:26.41	287.80	13.59	-51.8	-69.6	3.8	7.47e-01	0	40	104	0	74	29241
2026-01-21 14:19:27.42	288.04	13.59	-51.8	-69.6	3.8	7.46e-01	0	40	104	0	74	29226
2026-01-21 14:19:28.42	288.27	13.58	-51.8	-69.6	3.8	7.44e-01	0	40	104	0	74	29278
2026-01-21 14:19:29.43	288.51	13.57	-51.8	-69.6	3.8	7.44e-01	0	40	104	0	74	29176
2026-01-21 14:19:30.44	288.74	13.57	-51.8	-69.6	3.8	7.48e-01	0	40	104	0	74	29052
2026-01-21 14:19:31.45	288.98	13.56	-51.8	-69.6	3.8	7.46e-01	0	40	104	0	74	29054
2026-01-21 14:19:32.46	289.21	13.55	-51.8	-69.5	3.8	7.46e-01	0	40	104	0	74	28953
2026-01-21 14:19:33.46	289.45	13.55	-51.8	-69.4	3.8	7.47e-01	0	40	104	0	74	28605
2026-01-21 14:19:34.47	289.68	13.54	-51.8	-69.5	3.8	7.47e-01	0	40	104	0	74	28911
2026-01-21 14:19:35.48	289.92	13.53	-51.8	-69.5	3.8	7.46e-01	0	40	104	0	74	28942
2026-01-21 14:19:36.49	290.15	13.52	-51.8	-69.5	3.8	7.44e-01	0	40	104	0	74	28842
2026-01-21 14:19:37.50	290.39	13.51	-51.8	-69.5	3.8	7.46e-01	0	40	104	0	74	28875
2026-01-21 14:19:38.50	290.62	13.50	-51.8	-69.5	3.8	7.50e-01	0	40	104	0	74	28776
2026-01-21 14:19:39.51	290.85	13.49	-51.8	-69.3	3.8	7.45e-01	0	40	104	0	74	28338
2026-01-21 14:19:40.52	291.09	13.48	-51.8	-69.4	3.8	7.44e-01	0	40	104	0	74	28557
2026-01-21 14:19:41.53	291.32	13.47	-51.8	-69.4	3.8	7.43e-01	0	40	104	0	74	28421
2026-01-21 14:19:42.54	291.56	13.46	-51.8	-69.5	3.8	7.50e-01	0	40	104	0	74	28988
2026-01-21 14:19:43.55	291.79	13.45	-51.8	-69.5	3.8	7.47e-01	0	40	104	0	74	28866
2026-01-21 14:19:44.56	292.02	13.44	-51.8	-69.6	3.8	7.44e-01	0	40	104	0	74	29028
2026-01-21 14:19:45.57	292.26	13.43	-51.8	-69.4	3.8	7.48e-01	0	40	104	0	74	28472
2026-01-21 14:19:46.57	292.49	13.41	-51.8	-69.6	3.8	7.46e-01	0	40	104	0	74	29064
2026-01-21 14:19:47.58	292.72	13.40	-51.8	-69.2	3.8	7.46e-01	0	40	104	0	74	27934
2026-01-21 14:19:48.59	292.95	13.39	-51.8	-69.5	3.8	7.46e-01	0	40	104	0	74	28765
2026-01-21 14:19:49.60	293.19	13.37	-51.8	-69.5	3.8	7.45e-01	0	40	104	0	74	28685
2026-01-21 14:19:50.61	293.42	13.36	-51.8	-68.9	3.8	7.45e-01	0	40	104	0	74	26915
2026-01-21 14:19:51.61	293.65	13.34	-51.8	-69.4	3.8	7.46e-01	0	40	104	0	74	28583
2026-01-21 14:19:52.62	293.88	13.33	-51.8	-69.5	3.8	7.43e-01	0	40	104	0	74	28858
2026-01-21 14:19:53.63	294.11	13.31	-51.8	-69.6	3.8	7.45e-01	0	40	104	0	74	29056
2026-01-21 14:19:54.64	294.34	13.30	-51.8	-69.6	3.8	7.42e-01	0	40	104	0	74	29226
2026-01-21 14:19:55.65	294.57	13.28	-51.8	-69.5	3.8	7.43e-01	0	40	104	0	74	28907
2026-01-21 14:19:56.66	294.80	13.26	-51.8	-69.5	3.8	7.48e-01	0	40	104	0	74	28903
2026-01-21 14:19:57.66	295.03	13.25	-51.8	-69.4	3.8	7.46e-01	0	40	104	0	74	28567
2026-01-21 14:19:58.67	295.26	13.23	-51.8	-69.6	3.8	7.45e-01	0	40	104	0	74	29012
2026-01-21 14:19:59.68	295.49	13.21	-51.8	-69.6	3.8	7.46e-01	0	40	104	0	74	29026
2026-01-21 14:20:00.69	295.72	13.19	-51.8	-69.4	3.8	7.45e-01	0	40	104	0	74	28524
2026-01-21 14:20:01.70	295.95	13.18	-51.8	-69.4	3.8	7.46e-01	0	40	104	0	74	28436
2026-01-21 14:20:02.71	296.18	13.16	-51.8	-69.3	3.8	7.44e-01	0	40	104	0	74	28066
2026-01-21 14:20:03.71	296.40	13.14	-51.8	-69.5	3.8	7.44e-01	0	40	104	0	74	28688
2026-01-21 14:20:04.72	296.63	13.12	-51.8	-69.5	3.8	7.45e-01	0	40	104	0	74	28870
2026-01-21 14:20:05.73	296.86	13.10	-51.8	-69.4	3.8	7.46e-01	0	40	104	0	74	28628
2026-01-21 14:20:06.74	297.09	13.08	-51.8	-69.4	3.8	7.48e-01	0	40	104	0	74	28602
2026-01-21 14:20:07.75	297.32	13.06	-51.8	-69.2	3.8	7.48e-01	0	40	104	0	74	27800
2026-01-21 14:20:08.75	297.54	13.03	-51.8	-69.3	3.8	7.48e-01	0	40	104	0	74	28170
2026-01-21 14:20:09.76	297.77	13.01	-51.8	-69.4	3.8	7.48e-01	0	40	104	0	74	28546
2026-01-21 14:20:10.77	297.99	12.99	-51.8	-69.5	3.8	7.45e-01	0	40	104	0	74	28708
2026-01-21 14:20:11.78	298.22	12.97	-51.8	-69.4	3.8	7.48e-01	0	40	104	0	74	28627
2026-01-21 14:20:12.79	298.44	12.95	-51.8	-69.5	3.8	7.43e-01	0	40	104	0	74	28999
2026-01-21 14:20:13.80	298.67	12.92	-51.8	-69.6	3.8	7.43e-01	0	40	104	0	74	29138
2026-01-21 14:20:14.81	298.89	12.90	-51.8	-69.6	3.8	7.46e-01	0	40	104	0	74	29236
2026-01-21 14:20:15.82	299.12	12.88	-51.8	-69.6	3.8	7.48e-01	0	40	104	0	74	29200
2026-01-21 14:20:16.83	299.34	12.85	-51.8	-69.6	3.8	7.45e-01	0	40	104	0	74	29136
2026-01-21 14:20:17.83	299.56	12.83	-51.8	-69.5	3.8	7.45e-01	0	40	104	0	74	28891
2026-01-21 14:20:18.84	299.79	12.80	-51.8	-69.6	3.8	7.46e-01	0	40	104	0	74	29035
2026-01-21 14:20:19.85	300.01	12.78	-51.8	-69.6	3.8	7.43e-01	0	40	104	0	74	29020
2026-01-21 14:20:20.86	300.23	12.75	-51.8	-69.4	3.8	7.48e-01	0	40	104	0	74	28624
2026-01-21 14:20:21.87	300.45	12.73	-51.8	-69.4	3.8	7.43e-01	0	40	104	0	74	28632
2026-01-21 14:20:22.87	300.67	12.70	-51.8	-69.5	3.8	7.46e-01	0	40	104	0	74	28962
2026-01-21 14:20:23.88	300.89	12.67	-51.8	-69.4	3.9	7.42e-01	0	40	104	0	74	28437
2026-01-21 14:20:24.89	301.11	12.65	-51.8	-69.5	3.8	7.46e-01	0	40	104	0	74	28810
2026-01-21 14:20:25.90	301.34	12.62	-51.8	-69.4	3.8	7.45e-01	0	40	104	0	74	28399
2026-01-21 14:20:26.91	301.55	12.59	-51.8	-69.5	3.8	7.46e-01	0	40	104	0	74	28901
2026-01-21 14:20:27.91	301.77	12.56	-51.8	-69.6	3.8	7.47e-01	0	40	104	0	74	29140
2026-01-21 14:20:28.92	301.99	12.54	-51.8	-69.6	3.8	7.41e-01	0	40	104	0	74	29194
2026-01-21 14:20:29.93	302.21	12.51	-51.8	-69.6	3.8	7.45e-01	0	40	104	0	74	29201
2026-01-21 14:20:30.94	302.43	12.48	-51.8	-69.6	3.8	7.47e-01	0	40	104	0	74	29100
2026-01-21 14:20:31.94	302.64	12.45	-51.8	-69.6	3.8	7.45e-01	0	40	104	0	74	29214
2026-01-21 14:20:32.95	302.86	12.42	-51.8	-69.6	3.8	7.46e-01	0	40	104	0	74	29276
2026-01-21 14:20:33.96	303.08	12.39	-51.8	-69.5	3.8	7.45e-01	0	40	104	0	74	29008
2026-01-21 14:20:34.97	303.29	12.36	-51.8	-69.5	3.8	7.47e-01	0	40	104	0	74	28863
2026-01-21 14:20:35.98	303.51	12.33	-51.8	-69.4	3.8	7.46e-01	0	40	104	0	74	28583
2026-01-21 14:20:36.99	303.72	12.30	-51.8	-69.5	3.8	7.49e-01	0	40	104	0	74	28878
2026-01-21 14:20:38.00	303.94	12.27	-51.8	-69.4	3.7	7.45e-01	0	40	104	0	74	28395
2026-01-21 14:20:39.01	304.15	12.24	-51.8	-69.6	3.8	7.43e-01	0	40	104	0	74	29040
2026-01-21 14:20:40.01	304.37	12.20	-51.8	-69.5	3.8	7.44e-01	0	40	104	0	74	28912
2026-01-21 14:20:41.03	304.58	12.17	-51.8	-69.3	3.8	7.46e-01	0	40	104	0	74	28141
2026-01-21 14:20:42.03	304.79	12.14	-51.8	-69.4	3.8	7.47e-01	0	40	104	0	74	28528
2026-01-21 14:20:43.04	305.00	12.11	-51.8	-69.6	3.8	7.49e-01	0	40	104	0	74	29100
2026-01-21 14:20:44.05	305.22	12.08	-51.8	-69.5	3.8	7.43e-01	0	40	104	0	74	29005
2026-01-21 14:20:45.06	305.43	12.04	-51.8	-69.5	3.8	7.49e-01	0	40	104	0	74	28863
2026-01-21 14:20:46.07	305.64	12.01	-51.8	-69.5	3.8	7.45e-01	0	40	104	0	74	28932
2026-01-21 14:20:47.07	305.85	11.98	-51.8	-69.5	3.8	7.45e-01	0	40	104	0	74	28703
2026-01-21 14:20:48.08	306.06	11.94	-51.8	-69.6	3.8	7.47e-01	0	40	104	0	74	29172
2026-01-21 14:20:49.09	306.27	11.91	-51.8	-69.5	3.8	7.47e-01	0	40	104	0	74	28816
2026-01-21 14:20:50.10	306.47	11.87	-51.8	-69.5	3.8	7.45e-01	0	40	104	0	74	28956
2026-01-21 14:20:51.11	306.68	11.84	-51.8	-69.6	3.8	7.44e-01	0	40	104	0	74	29069
2026-01-21 14:20:52.12	306.89	11.80	-51.8	-69.5	3.8	7.48e-01	0	40	104	0	74	28899
2026-01-21 14:20:53.13	307.10	11.77	-51.8	-69.6	3.8	7.47e-01	0	40	104	0	74	29129
2026-01-21 14:20:54.13	307.30	11.73	-51.8	-69.6	3.8	7.45e-01	0	40	104	0	74	29228
2026-01-21 14:20:55.14	307.51	11.70	-51.8	-69.5	3.8	7.44e-01	0	40	104	0	74	28857
2026-01-21 14:20:56.15	307.71	11.66	-51.8	-69.6	3.8	7.45e-01	0	40	104	0	74	29175
2026-01-21 14:20:57.16	307.92	11.63	-51.8	-69.6	3.8	7.42e-01	0	40	104	0	74	29168
2026-01-21 14:20:58.17	308.12	11.59	-51.8	-69.6	3.8	7.41e-01	0	40	104	0	74	29187
2026-01-21 14:20:59.18	308.33	11.55	-51.8	-69.6	3.8	7.47e-01	0	40	104	0	74	29194
2026-01-21 14:21:00.19	308.53	11.52	-51.8	-69.6	3.8	7.46e-01	0	40	104	0	74	29216
2026-01-21 14:21:01.19	308.73	11.48	-51.8	-69.6	3.8	7.48e-01	0	40	104	0	74	29172
2026-01-21 14:21:02.20	308.94	11.44	-51.8	-69.6	3.8	7.43e-01	0	40	104	0	74	29194
2026-01-21 14:21:03.21	309.14	11.40	-51.8	-69.6	3.8	7.44e-01	0	40	104	0	74	29254
2026-01-21 14:21:04.22	309.34	11.37	-51.8	-69.6	3.8	7.49e-01	0	40	104	0	74	29230
2026-01-21 14:21:05.22	309.54	11.33	-51.8	-69.6	3.8	7.46e-01	0	40	104	0	74	29211
2026-01-21 14:21:06.23	309.74	11.29	-51.8	-69.6	3.8	7.44e-01	0	40	104	0	74	29174
2026-01-21 14:21:07.24	309.94	11.25	-51.8	-69.6	3.8	7.48e-01	0	40	104	0	74	29183
2026-01-21 14:21:08.25	310.14	11.21	-51.8	-69.6	3.8	7.42e-01	0	40	104	0	74	29136
2026-01-21 14:21:09.26	310.34	11.17	-51.8	-69.6	3.8	7.45e-01	0	40	104	0	74	29216
2026-01-21 14:21:10.27	310.53	11.13	-51.8	-69.6	3.8	7.46e-01	0	40	104	0	74	29234
2026-01-21 14:21:11.27	310.73	11.09	-51.8	-69.6	3.8	7.48e-01	0	40	104	0	74	29253
2026-01-21 14:21:12.28	310.93	11.05	-51.8	-69.6	3.8	7.45e-01	0	40	104	0	74	29304
2026-01-21 14:21:13.29	311.12	11.01	-51.8	-69.6	3.8	7.46e-01	0	40	104	0	74	29277
2026-01-21 14:21:14.30	311.32	10.97	-51.8	-69.6	3.8	7.45e-01	0	40	104	0	74	29268
2026-01-21 14:21:15.30	311.51	10.93	-51.8	-69.6	3.8	7.46e-01	0	40	104	0	74	29235
2026-01-21 14:21:16.31	311.71	10.89	-51.8	-69.6	3.8	7.46e-01	0	40	104	0	74	29271
2026-01-21 14:21:17.32	311.90	10.85	-51.8	-69.6	3.8	7.44e-01	0	40	104	0	74	29276
2026-01-21 14:21:18.33	312.09	10.81	-51.8	-69.6	3.8	7.42e-01	0	40	104	0	74	29285
2026-01-21 14:21:19.34	312.29	10.77	-51.8	-69.6	3.8	7.46e-01	0	40	104	0	74	29262
2026-01-21 14:21:20.35	312.48	10.73	-51.8	-69.6	3.8	7.47e-01	0	40	104	0	74	29241
2026-01-21 14:21:21.35	312.67	10.69	-51.8	-69.7	3.8	7.43e-01	0	40	104	0	74	29351
2026-01-21 14:21:22.36	312.86	10.65	-51.8	-69.6	3.8	7.46e-01	0	40	104	0	74	29242
2026-01-21 14:21:23.37	313.05	10.60	-51.8	-69.6	3.8	7.45e-01	0	40	104	0	74	29229
2026-01-21 14:21:24.38	313.24	10.56	-51.8	-69.6	3.8	7.44e-01	0	40	104	0	74	29176
2026-01-21 14:21:25.38	313.43	10.52	-51.8	-69.6	3.8	7.48e-01	0	40	104	0	74	29205
2026-01-21 14:21:26.39	313.62	10.48	-51.8	-69.6	3.8	7.48e-01	0	40	104	0	74	29160
2026-01-21 14:21:27.40	313.81	10.44	-51.8	-69.6	3.8	7.47e-01	0	40	104	0	74	29210
2026-01-21 14:21:28.41	313.99	10.39	-51.8	-69.6	3.8	7.44e-01	0	40	104	0	74	29127
2026-01-21 14:21:29.42	314.18	10.35	-51.8	-69.6	3.8	7.47e-01	0	40	104	0	74	29190
2026-01-21 14:21:30.42	314.37	10.31	-51.8	-69.6	3.8	7.44e-01	0	40	104	0	74	29204
2026-01-21 14:21:31.43	314.55	10.26	-51.8	-69.6	3.8	7.44e-01	0	40	104	0	74	29181
2026-01-21 14:21:32.44	314.74	10.22	-51.8	-69.6	3.8	7.47e-01	0	40	104	0	74	29272
2026-01-21 14:21:33.45	314.92	10.18	-51.8	-69.6	3.8	7.46e-01	0	40	104	0	74	29312
2026-01-21 14:21:34.46	315.11	10.13	-51.8	-69.6	3.8	7.44e-01	0	40	104	0	74	29242
2026-01-21 14:21:35.47	315.29	10.09	-51.8	-69.6	3.8	7.44e-01	0	40	104	0	74	29224
2026-01-21 14:21:36.47	315.47	10.05	-51.8	-69.6	3.8	7.47e-01	0	40	104	0	74	29233
2026-01-21 14:21:37.48	315.66	10.00	-51.8	-69.6	3.8	7.47e-01	0	40	104	0	74	29242
2026-01-21 14:21:38.49	315.84	9.96	-51.8	-69.6	3.8	7.46e-01	0	40	104	0	74	29223
2026-01-21 14:21:39.50	316.02	9.91	-51.8	-69.6	3.8	7.46e-01	0	40	104	0	74	29251
2026-01-21 14:21:40.50	316.20	9.87	-51.8	-69.6	3.8	7.45e-01	0	40	104	0	74	29243
2026-01-21 14:21:41.51	316.38	9.82	-51.8	-69.6	3.8	7.45e-01	0	40	104	0	74	29223
2026-01-21 14:21:42.52	316.56	9.78	-51.8	-69.6	3.8	7.47e-01	0	40	104	0	74	29192
2026-01-21 14:21:43.53	316.74	9.73	-51.8	-69.6	3.8	7.48e-01	0	40	104	0	74	29292
2026-01-21 14:21:44.54	316.92	9.69	-51.8	-69.6	3.8	7.46e-01	0	40	104	0	74	29258
2026-01-21 14:21:45.55	317.09	9.64	-51.8	-69.6	3.8	7.45e-01	0	40	104	0	74	29286
2026-01-21 14:21:46.55	317.27	9.60	-51.8	-69.6	3.8	7.48e-01	0	40	104	0	74	29269
2026-01-21 14:21:47.56	317.45	9.55	-51.8	-69.6	3.8	7.46e-01	0	40	104	0	74	29231
2026-01-21 14:21:48.57	317.62	9.51	-51.8	-69.6	3.8	7.45e-01	0	40	104	0	74	29238
2026-01-21 14:21:49.58	317.80	9.46	-51.8	-69.6	3.8	7.46e-01	0	40	104	0	74	29176
2026-01-21 14:21:50.58	317.97	9.41	-51.8	-69.6	3.8	7.46e-01	0	40	104	0	74	29197
2026-01-21 14:21:51.59	318.15	9.37	-51.8	-69.6	3.8	7.47e-01	0	40	104	0	74	29128
2026-01-21 14:21:52.60	318.32	9.32	-51.8	-69.6	3.8	7.47e-01	0	40	104	0	74	29151
2026-01-21 14:21:53.61	318.49	9.28	-51.8	-69.6	3.8	7.44e-01	0	40	104	0	74	29141
2026-01-21 14:21:54.62	318.67	9.23	-51.8	-69.6	3.8	7.43e-01	0	40	104	0	74	29144
2026-01-21 14:21:55.63	318.84	9.18	-51.8	-69.6	3.8	7.45e-01	0	40	104	0	74	29296
2026-01-21 14:21:56.64	319.01	9.14	-51.8	-69.6	3.8	7.45e-01	0	40	104	0	74	29259
2026-01-21 14:21:57.65	319.18	9.09	-51.8	-69.6	3.8	7.45e-01	0	40	104	0	74	29299
2026-01-21 14:21:58.66	319.35	9.04	-51.8	-69.6	3.8	7.47e-01	0	40	104	0	74	29267
2026-01-21 14:21:59.66	319.52	9.00	-51.8	-69.6	3.8	7.43e-01	0	40	104	0	74	29313
2026-01-21 14:22:00.67	319.69	8.95	-51.8	-69.6	3.8	7.44e-01	0	40	104	0	74	29246
2026-01-21 14:22:01.68	319.86	8.90	-51.8	-69.6	3.8	7.47e-01	0	40	104	0	74	29145
2026-01-21 14:22:02.69	320.02	8.85	-51.8	-69.6	3.8	7.46e-01	0	40	104	0	74	29243
2026-01-21 14:22:03.70	320.19	8.81	-51.8	-69.6	3.8	7.42e-01	0	40	104	0	74	29186
2026-01-21 14:22:04.71	320.36	8.76	-51.8	-69.6	3.8	7.48e-01	0	40	104	0	74	29185
2026-01-21 14:22:05.71	320.52	8.71	-51.8	-69.6	3.8	7.45e-01	0	40	104	0	74	29227
2026-01-21 14:22:06.72	320.69	8.66	-51.8	-69.6	3.8	7.47e-01	0	40	104	0	74	29262
2026-01-21 14:22:07.73	320.86	8.62	-51.8	-69.6	3.8	7.48e-01	0	40	104	0	74	29198
2026-01-21 14:22:08.74	321.02	8.57	-51.8	-69.6	3.8	7.48e-01	0	40	104	0	74	29265
2026-01-21 14:22:09.74	321.18	8.52	-51.8	-69.6	3.8	7.45e-01	0	40	104	0	74	29276
2026-01-21 14:22:10.75	321.35	8.47	-51.8	-69.6	3.8	7.47e-01	0	40	104	0	74	29236
2026-01-21 14:22:11.76	321.51	8.42	-51.8	-69.6	3.8	7.46e-01	0	40	104	0	74	29182
2026-01-21 14:22:12.77	321.67	8.38	-51.8	-69.6	3.8	7.45e-01	0	40	104	0	74	29209
2026-01-21 14:22:13.78	321.83	8.33	-51.8	-69.6	3.8	7.45e-01	0	40	104	0	74	29254
2026-01-21 14:22:14.79	321.99	8.28	-51.8	-69.6	3.8	7.47e-01	0	40	104	0	74	29208
2026-01-21 14:22:15.80	322.16	8.23	-51.8	-69.6	3.8	7.43e-01	0	40	104	0	74	29161
2026-01-21 14:22:16.81	322.32	8.18	-51.8	-69.6	3.8	7.46e-01	0	40	104	0	74	29219
2026-01-21 14:22:17.81	322.47	8.13	-51.8	-69.6	3.8	7.43e-01	0	40	104	0	74	29154
2026-01-21 14:22:18.82	322.63	8.08	-51.8	-69.6	3.8	7.47e-01	0	40	104	0	74	29288
2026-01-21 14:22:19.83	322.79	8.04	-51.8	-69.6	3.8	7.47e-01	0	40	104	0	74	29226
2026-01-21 14:22:20.84	322.95	7.99	-51.8	-69.6	3.8	7.47e-01	0	40	104	0	74	29238
2026-01-21 14:22:21.84	323.10	7.94	-51.8	-69.6	3.8	7.47e-01	0	40	104	0	74	29195
2026-01-21 14:22:22.85	323.26	7.89	-51.8	-69.6	3.8	7.45e-01	0	40	104	0	74	29307
2026-01-21 14:22:23.86	323.42	7.84	-51.8	-69.6	3.8	7.43e-01	0	40	104	0	74	29321
2026-01-21 14:22:24.87	323.57	7.79	-51.8	-69.6	3.8	7.46e-01	0	40	104	0	74	29272
2026-01-21 14:22:25.88	323.73	7.74	-51.8	-69.6	3.8	7.46e-01	0	40	104	0	74	29187
2026-01-21 14:22:26.88	323.88	7.69	-51.8	-69.6	3.8	7.43e-01	0	40	104	0	74	29166
2026-01-21 14:22:27.89	324.04	7.64	-51.8	-69.6	3.8	7.40e-01	0	40	104	0	74	29124
2026-01-21 14:22:28.90	324.19	7.59	-51.8	-69.6	3.8	7.43e-01	0	40	104	0	74	29129
2026-01-21 14:22:29.91	324.34	7.55	-51.8	-69.6	3.8	7.44e-01	0	40	104	0	74	29236
2026-01-21 14:22:30.92	324.49	7.50	-51.8	-69.6	3.8	7.47e-01	0	40	104	0	74	29253
2026-01-21 14:22:31.93	324.65	7.45	-51.8	-69.6	3.8	7.48e-01	0	40	104	0	74	29297
2026-01-21 14:22:32.94	324.80	7.40	-51.8	-69.6	3.8	7.45e-01	0	40	104	0	74	29300
2026-01-21 14:22:33.95	324.95	7.35	-51.8	-69.6	3.8	7.46e-01	0	40	104	0	74	29323
2026-01-21 14:22:34.96	325.10	7.30	-51.8	-69.6	3.8	7.46e-01	0	40	104	0	74	29258
2026-01-21 14:22:35.96	325.25	7.25	-51.8	-69.6	3.8	7.47e-01	0	40	104	0	74	29265
2026-01-21 14:22:36.97	325.40	7.20	-51.8	-69.6	3.8	7.48e-01	0	40	104	0	74	29263
2026-01-21 14:22:37.98	325.55	7.15	-51.8	-69.6	3.8	7.47e-01	0	40	104	0	74	29293
2026-01-21 14:22:38.99	325.69	7.10	-51.8	-69.6	3.8	7.45e-01	0	40	104	0	74	29168
2026-01-21 14:22:40.00	325.84	7.05	-51.8	-69.6	3.8	7.47e-01	0	40	104	0	74	29235
2026-01-21 14:22:41.01	325.99	7.00	-51.8	-69.6	3.8	7.43e-01	0	40	104	0	74	29281
2026-01-21 14:22:42.01	326.13	6.95	-51.8	-69.6	3.8	7.45e-01	0	40	104	0	74	29281
2026-01-21 14:22:43.02	326.28	6.90	-51.8	-69.6	3.8	7.44e-01	0	40	104	0	74	29254
2026-01-21 14:22:44.03	326.42	6.85	-51.8	-69.6	3.8	7.43e-01	0	40	104	0	74	29249
2026-01-21 14:22:45.04	326.57	6.80	-51.8	-69.6	3.8	7.47e-01	0	40	104	0	74	29232
2026-01-21 14:22:46.05	326.71	6.75	-51.8	-69.6	3.8	7.46e-01	0	40	104	0	74	29137
2026-01-21 14:22:47.06	326.86	6.70	-51.8	-69.6	3.8	7.45e-01	0	40	104	0	74	29183
2026-01-21 14:22:48.07	327.00	6.65	-51.8	-69.6	3.8	7.46e-01	0	40	104	0	74	29118
2026-01-21 14:22:49.07	327.14	6.60	-51.8	-69.6	3.8	7.47e-01	0	40	104	0	74	29075
2026-01-21 14:22:50.08	327.29	6.55	-51.8	-69.6	3.8	7.46e-01	0	40	104	0	74	29076
2026-01-21 14:22:51.09	327.43	6.50	-51.8	-69.6	3.8	7.45e-01	0	40	104	0	74	29222
2026-01-21 14:22:52.10	327.57	6.45	-51.8	-69.6	3.8	7.41e-01	0	40	104	0	74	29211
2026-01-21 14:22:53.11	327.71	6.40	-51.8	-69.6	3.8	7.45e-01	0	40	104	0	74	29129
2026-01-21 14:22:54.11	327.85	6.35	-51.8	-69.5	3.8	7.46e-01	0	40	104	0	74	28999
2026-01-21 14:22:55.12	327.99	6.30	-51.8	-69.5	3.8	7.46e-01	0	40	104	0	74	28898
2026-01-21 14:22:56.13	328.13	6.25	-51.8	-69.5	3.8	7.43e-01	0	40	104	0	74	28954
2026-01-21 14:22:57.14	328.27	6.20	-51.8	-69.6	3.8	7.45e-01	0	40	104	0	74	29060
2026-01-21 14:22:58.15	328.40	6.15	-51.8	-69.6	3.8	7.49e-01	0	40	104	0	74	29200
2026-01-21 14:22:59.16	328.54	6.10	-51.8	-69.6	3.8	7.46e-01	0	40	104	0	74	29214
2026-01-21 14:23:00.17	328.68	6.04	-51.8	-69.6	3.8	7.48e-01	0	40	104	0	74	29275
2026-01-21 14:23:01.18	328.82	5.99	-51.8	-69.6	3.8	7.42e-01	0	40	104	0	74	29209
2026-01-21 14:23:02.19	328.95	5.94	-51.8	-69.6	3.8	7.41e-01	0	40	104	0	74	29143
2026-01-21 14:23:03.19	329.09	5.89	-51.8	-69.6	3.8	7.44e-01	0	40	104	0	74	29148
2026-01-21 14:23:04.20	329.22	5.84	-51.8	-69.6	3.8	7.47e-01	0	40	104	0	74	29130
2026-01-21 14:23:05.21	329.36	5.79	-51.8	-69.6	3.8	7.47e-01	0	40	104	0	74	29153
2026-01-21 14:23:06.22	329.49	5.74	-51.8	-69.6	3.8	7.45e-01	0	40	104	0	74	29145
2026-01-21 14:23:07.23	329.63	5.69	-51.8	-69.6	3.8	7.45e-01	0	40	104	0	74	29176
2026-01-21 14:23:08.24	329.76	5.64	-51.8	-69.6	3.8	7.45e-01	0	40	104	0	74	29239
2026-01-21 14:23:09.24	329.89	5.59	-51.8	-69.6	3.8	7.47e-01	0	40	104	0	74	29217
2026-01-21 14:23:10.25	330.02	5.54	-51.8	-69.6	3.8	7.49e-01	0	40	104	0	74	29104
2026-01-21 14:23:11.26	330.15	5.49	-51.8	-69.6	3.8	7.47e-01	0	40	104	0	74	29078
2026-01-21 14:23:12.27	330.29	5.44	-51.8	-69.5	3.8	7.46e-01	0	40	104	0	74	28930
2026-01-21 14:23:13.28	330.42	5.39	-51.8	-69.6	3.8	7.46e-01	0	40	104	0	74	29028
2026-01-21 14:23:14.29	330.55	5.34	-51.8	-69.6	3.8	7.40e-01	0	40	104	0	74	29039
2026-01-21 14:23:15.30	330.68	5.29	-51.8	-69.6	3.8	7.47e-01	0	40	104	0	74	29178
2026-01-21 14:23:16.31	330.81	5.24	-51.8	-69.6	3.8	7.46e-01	0	40	104	0	74	29279
2026-01-21 14:23:17.32	330.94	5.19	-51.8	-69.6	3.8	7.45e-01	0	40	104	0	74	29246
2026-01-21 14:23:18.32	331.06	5.14	-51.8	-69.6	3.8	7.45e-01	0	40	104	0	74	29312
2026-01-21 14:23:19.33	331.19	5.08	-51.8	-69.6	3.8	7.46e-01	0	40	104	0	74	29247
2026-01-21 14:23:20.34	331.32	5.03	-51.8	-69.6	3.8	7.48e-01	0	40	104	0	74	29140
2026-01-21 14:23:21.35	331.45	4.98	-51.8	-69.6	3.8	7.48e-01	0	40	104	0	74	29144
2026-01-21 14:23:22.36	331.57	4.93	-51.8	-69.6	3.8	7.45e-01	0	40	104	0	74	29226
2026-01-21 14:23:23.37	331.70	4.88	-51.8	-69.6	3.8	7.49e-01	0	40	104	0	74	29252
2026-01-21 14:23:24.38	331.82	4.83	-51.8	-69.6	3.8	7.45e-01	0	40	104	0	74	29228
2026-01-21 14:23:25.39	331.95	4.78	-51.8	-69.6	3.8	7.46e-01	0	40	104	0	74	29102
2026-01-21 14:23:26.40	332.07	4.73	-51.8	-69.5	3.8	7.46e-01	0	40	104	0	74	28835
2026-01-21 14:23:27.41	332.20	4.68	-51.8	-69.5	3.8	7.42e-01	0	40	104	0	74	28789
2026-01-21 14:23:28.41	332.32	4.63	-51.8	-69.4	3.8	7.45e-01	0	40	104	0	74	28484
2026-01-21 14:23:29.42	332.45	4.58	-51.8	-69.5	3.8	7.46e-01	0	40	104	0	74	28804
2026-01-21 14:23:30.43	332.57	4.53	-51.8	-69.5	3.8	7.45e-01	0	40	104	0	74	28700
2026-01-21 14:23:31.44	332.69	4.48	-51.8	-69.5	3.8	7.45e-01	0	40	104	0	74	28868
2026-01-21 14:23:32.45	332.81	4.43	-51.8	-69.6	3.8	7.42e-01	0	40	104	0	74	29049
2026-01-21 14:23:33.46	332.94	4.38	-51.8	-69.5	3.8	7.42e-01	0	40	104	0	74	29002
2026-01-21 14:23:34.47	333.06	4.33	-51.8	-69.6	3.8	7.47e-01	0	40	104	0	74	29215
2026-01-21 14:23:35.48	333.18	4.27	-51.8	-69.6	3.8	7.47e-01	0	40	104	0	74	29101
2026-01-21 14:23:36.48	333.30	4.22	-51.8	-69.6	3.8	7.46e-01	0	40	104	0	74	29137
2026-01-21 14:23:37.49	333.42	4.17	-51.8	-69.6	3.8	7.42e-01	0	40	104	0	74	29157
2026-01-21 14:23:38.50	333.54	4.12	-51.8	-69.6	3.8	7.45e-01	0	40	104	0	74	29174
2026-01-21 14:23:39.51	333.66	4.07	-51.8	-69.6	3.8	7.44e-01	0	40	104	0	74	29168
2026-01-21 14:23:40.52	333.77	4.02	-51.8	-69.6	3.8	7.45e-01	0	40	104	0	74	29196
2026-01-21 14:23:41.53	333.89	3.97	-51.8	-69.5	3.8	7.46e-01	0	40	104	0	74	28931
2026-01-21 14:23:42.54	334.01	3.92	-51.8	-69.5	3.8	7.43e-01	0	40	104	0	74	28986
2026-01-21 14:23:43.55	334.13	3.87	-51.8	-69.6	3.8	7.46e-01	0	40	104	0	74	29164
2026-01-21 14:23:44.55	334.24	3.82	-51.8	-69.6	3.8	7.44e-01	0	40	104	0	74	29133
2026-01-21 14:23:45.56	334.36	3.77	-51.8	-69.6	3.8	7.47e-01	0	40	104	0	74	29225
2026-01-21 14:23:46.56	334.48	3.72	-51.8	-69.6	3.8	7.45e-01	0	40	104	0	74	29151
2026-01-21 14:23:47.57	334.59	3.67	-51.8	-69.6	3.8	7.43e-01	0	40	104	0	74	29143
2026-01-21 14:23:48.58	334.71	3.62	-51.8	-69.4	3.8	7.49e-01	0	40	104	0	74	28665
2026-01-21 14:23:49.59	334.82	3.57	-51.8	-69.3	3.8	7.42e-01	0	40	104	0	74	28266
2026-01-21 14:23:50.60	334.94	3.52	-51.8	-69.0	3.8	7.46e-01	0	40	104	0	74	27349
2026-01-21 14:23:51.61	335.05	3.47	-51.8	-69.1	3.8	7.46e-01	0	40	104	0	74	27458
2026-01-21 14:23:52.62	335.16	3.42	-51.8	-68.7	3.8	7.47e-01	0	40	104	0	74	26425
2026-01-21 14:23:53.62	335.28	3.37	-51.8	-68.9	3.8	7.47e-01	0	40	104	0	74	27058
2026-01-21 14:23:54.63	335.39	3.32	-51.8	-68.8	3.8	7.43e-01	0	40	104	0	74	26734
2026-01-21 14:23:55.64	335.50	3.27	-51.8	-69.0	3.8	7.42e-01	0	40	104	0	74	27262
2026-01-21 14:23:56.65	335.61	3.22	-51.8	-69.1	3.8	7.43e-01	0	40	104	0	74	27522
2026-01-21 14:23:57.66	335.73	3.17	-51.8	-69.2	3.8	7.47e-01	0	40	104	0	74	28020
2026-01-21 14:23:58.66	335.84	3.12	-51.8	-69.4	3.8	7.43e-01	0	40	104	0	74	28483
2026-01-21 14:23:59.67	335.95	3.07	-51.8	-69.5	3.8	7.43e-01	0	40	104	0	74	28806
2026-01-21 14:24:00.68	336.06	3.02	-51.8	-69.6	3.8	7.47e-01	0	40	104	0	74	29207
2026-01-21 14:24:01.69	336.17	2.97	-51.8	-69.6	3.8	7.42e-01	0	40	104	0	74	29130
2026-01-21 14:24:02.70	336.28	2.92	-51.8	-69.6	3.8	7.44e-01	0	40	104	0	74	29228
2026-01-21 14:24:03.71	336.39	2.87	-51.8	-69.6	3.8	7.47e-01	0	40	104	0	74	29248
2026-01-21 14:24:04.71	336.49	2.82	-51.8	-69.6	3.8	7.46e-01	0	40	104	0	74	29269
2026-01-21 14:24:05.73	336.60	2.77	-51.8	-69.6	3.8	7.48e-01	0	40	104	0	74	29199
2026-01-21 14:24:06.73	336.71	2.72	-51.8	-69.6	3.8	7.40e-01	0	40	104	0	74	29232
2026-01-21 14:24:07.74	336.82	2.67	-51.8	-69.6	3.8	7.46e-01	0	40	104	0	74	29239
2026-01-21 14:24:08.75	336.93	2.62	-51.8	-69.5	3.8	7.44e-01	0	40	104	0	74	28768
2026-01-21 14:24:09.76	337.03	2.57	-51.8	-69.5	3.8	7.45e-01	0	40	104	0	74	28880
2026-01-21 14:24:10.77	337.14	2.52	-51.8	-69.4	3.8	7.48e-01	0	40	104	0	74	28414
2026-01-21 14:24:11.78	337.25	2.47	-51.8	-69.4	3.8	7.46e-01	0	40	104	0	74	28488
2026-01-21 14:24:12.78	337.35	2.42	-51.8	-69.3	3.8	7.43e-01	0	40	104	0	74	28126
2026-01-21 14:24:13.79	337.46	2.37	-51.8	-69.4	3.8	7.45e-01	0	40	104	0	74	28421
2026-01-21 14:24:14.80	337.56	2.32	-51.8	-69.5	3.8	7.47e-01	0	40	104	0	74	28753
2026-01-21 14:24:15.81	337.67	2.27	-51.8	-69.4	3.8	7.46e-01	0	40	104	0	74	28667
2026-01-21 14:24:16.82	337.77	2.22	-51.8	-69.4	3.8	7.47e-01	0	40	104	0	74	28569
2026-01-21 14:24:17.82	337.87	2.17	-51.8	-69.5	3.8	7.46e-01	0	40	104	0	74	28877
2026-01-21 14:24:18.83	337.98	2.12	-51.8	-69.6	3.8	7.44e-01	0	40	104	0	74	29073
2026-01-21 14:24:19.84	338.08	2.07	-51.8	-69.4	3.8	7.44e-01	0	40	104	0	74	28525
2026-01-21 14:24:20.85	338.18	2.02	-51.8	-69.5	3.8	7.42e-01	0	40	104	0	74	28741
2026-01-21 14:24:21.86	338.29	1.97	-51.8	-69.6	3.8	7.45e-01	0	40	104	0	74	29108

#Closed at: 2026-01-21 14:24:22
#Recorded file [0 MB]: D:/lorett/data/31041_260121_171411.dat