passes_logs/2026/01/21/R3.2S_Murmansk/R3.2S_Murmansk__20260121_120913_NOAA_21_JPSS-2_rec.log

#Pass ID: 20260121_120913_NOAA 21 (JPSS-2)
#Satellite: NOAA 21 (JPSS-2)
#Configuration: NOAA-21
#almurnet v.1.7.20251203
#Start time: 2026-01-21 12:09:13

#Version: 2.2.20231116
#Station: R3.2S_Murmansk
#Location: 33.079688 lon 68.888172 lat
#TLE: 1 54234U 22150A   26020.93347024  .00000206  00000+0  11859-3 0  9994
#TLE: 2 54234  98.7506 321.7615 0000627 245.8100 114.3011 14.19536899165654

#Time	Az	El	Level	Level2	SNR	BER	BlckErr	Temp	State	Recorded	gain1	gain2
2026-01-21 12:09:13.20	218.62	2.00	-50.4	-63.0	3.8	1.49e+00	0	40	0	0	71	16213
2026-01-21 12:09:14.20	218.69	2.05	-50.4	-63.1	3.8	1.49e+00	0	40	104	0	71	16430
2026-01-21 12:09:15.21	218.77	2.10	-50.4	-63.2	3.8	1.49e+00	0	40	104	0	71	16528
2026-01-21 12:09:16.22	218.85	2.16	-50.4	-63.1	3.8	1.49e+00	0	40	104	0	71	16445
2026-01-21 12:09:17.23	218.93	2.21	-50.4	-63.1	3.8	1.49e+00	0	40	104	0	71	16379
2026-01-21 12:09:18.24	219.01	2.27	-50.4	-63.1	3.8	1.49e+00	0	40	104	0	71	16488
2026-01-21 12:09:19.25	219.09	2.32	-50.4	-63.1	3.8	1.49e+00	0	40	104	0	71	16447
2026-01-21 12:09:20.25	219.16	2.37	-50.4	-63.1	3.8	1.49e+00	0	40	104	0	71	16370
2026-01-21 12:09:21.26	219.24	2.43	-50.4	-63.1	3.8	1.49e+00	0	40	104	0	71	16353
2026-01-21 12:09:22.27	219.32	2.48	-50.4	-63.1	3.8	1.49e+00	0	40	104	0	71	16440
2026-01-21 12:09:23.28	219.40	2.54	-50.4	-63.1	3.8	1.49e+00	0	40	104	0	71	16450
2026-01-21 12:09:24.29	219.48	2.59	-50.4	-63.1	3.8	1.49e+00	0	40	104	0	71	16454
2026-01-21 12:09:25.29	219.56	2.65	-50.4	-63.1	3.8	1.49e+00	0	40	104	0	71	16445
2026-01-21 12:09:26.30	219.64	2.70	-50.4	-63.1	3.8	1.49e+00	0	40	104	0	71	16465
2026-01-21 12:09:27.30	219.73	2.75	-50.4	-63.1	3.8	1.49e+00	0	40	104	0	71	16501
2026-01-21 12:09:28.31	219.81	2.81	-50.4	-63.1	3.8	1.49e+00	0	40	104	0	71	16498
2026-01-21 12:09:29.32	219.89	2.86	-50.4	-63.1	3.8	1.49e+00	0	40	104	0	71	16490
2026-01-21 12:09:30.33	219.97	2.92	-50.4	-63.2	3.8	1.49e+00	0	40	104	0	71	16521
2026-01-21 12:09:31.34	220.05	2.97	-50.4	-63.1	3.8	1.49e+00	0	40	104	0	71	16485
2026-01-21 12:09:32.35	220.14	3.03	-50.4	-63.1	3.8	1.49e+00	0	40	104	0	71	16503
2026-01-21 12:09:33.35	220.22	3.08	-50.4	-63.1	3.8	1.49e+00	0	40	104	0	71	16469
2026-01-21 12:09:34.36	220.30	3.14	-50.4	-63.2	3.8	1.49e+00	0	40	104	0	71	16537
2026-01-21 12:09:35.37	220.38	3.19	-50.4	-63.2	3.8	1.49e+00	0	40	104	0	71	16538
2026-01-21 12:09:36.38	220.47	3.25	-50.4	-63.2	3.8	1.49e+00	0	40	104	0	71	16515
2026-01-21 12:09:37.39	220.55	3.30	-50.4	-63.1	3.8	1.49e+00	0	40	104	0	71	16487
2026-01-21 12:09:38.39	220.64	3.36	-50.4	-63.2	3.8	1.49e+00	0	40	104	0	71	16543
2026-01-21 12:09:39.40	220.72	3.41	-50.4	-63.2	3.8	1.49e+00	0	40	104	0	71	16520
2026-01-21 12:09:40.41	220.81	3.47	-50.4	-63.2	3.8	1.49e+00	0	40	104	0	71	16555
2026-01-21 12:09:41.42	220.89	3.52	-50.4	-63.1	3.8	1.49e+00	0	40	104	0	71	16477
2026-01-21 12:09:42.42	220.98	3.58	-50.4	-63.1	3.8	1.49e+00	0	40	104	0	71	16501
2026-01-21 12:09:43.43	221.06	3.63	-50.4	-63.2	3.8	1.49e+00	0	40	104	0	71	16520
2026-01-21 12:09:44.44	221.15	3.69	-50.4	-63.2	3.8	1.49e+00	0	40	104	0	71	16541
2026-01-21 12:09:45.45	221.23	3.75	-50.4	-63.2	3.8	1.49e+00	0	40	104	0	71	16509
2026-01-21 12:09:46.45	221.32	3.80	-50.4	-63.2	3.8	1.49e+00	0	40	104	0	71	16525
2026-01-21 12:09:47.46	221.41	3.86	-50.4	-63.2	3.8	1.49e+00	0	40	104	0	71	16508
2026-01-21 12:09:48.47	221.49	3.91	-50.4	-63.1	3.8	1.49e+00	0	40	104	0	71	16470
2026-01-21 12:09:49.48	221.58	3.97	-50.4	-63.2	3.8	1.49e+00	0	40	104	0	71	16523
2026-01-21 12:09:50.48	221.67	4.02	-50.4	-63.1	3.8	1.49e+00	0	40	104	0	71	16450
2026-01-21 12:09:51.49	221.76	4.08	-50.4	-63.1	3.8	1.49e+00	0	40	104	0	71	16477
2026-01-21 12:09:52.50	221.85	4.14	-50.4	-63.2	3.8	1.49e+00	0	40	104	0	71	16528
2026-01-21 12:09:53.51	221.94	4.19	-50.4	-63.1	3.8	1.49e+00	0	40	104	0	71	16468
2026-01-21 12:09:54.52	222.03	4.25	-50.4	-63.1	3.8	1.49e+00	0	40	104	0	71	16491
2026-01-21 12:09:55.52	222.11	4.30	-50.4	-63.1	3.8	1.49e+00	0	40	104	0	71	16484
2026-01-21 12:09:56.53	222.20	4.36	-50.4	-63.2	3.8	1.49e+00	0	40	104	0	71	16542
2026-01-21 12:09:57.54	222.29	4.42	-50.4	-63.2	3.8	1.49e+00	0	40	104	0	71	16540
2026-01-21 12:09:58.55	222.39	4.47	-50.4	-63.1	3.8	1.49e+00	0	40	104	0	71	16464
2026-01-21 12:09:59.56	222.48	4.53	-50.4	-63.2	3.8	1.49e+00	0	40	104	0	71	16537
2026-01-21 12:10:00.56	222.57	4.59	-50.4	-63.1	3.8	1.49e+00	0	40	104	0	71	16461
2026-01-21 12:10:01.58	222.66	4.64	-50.4	-63.1	3.8	1.49e+00	0	40	104	0	71	16502
2026-01-21 12:10:02.58	222.75	4.70	-50.4	-63.1	3.8	1.49e+00	0	40	104	0	71	16480
2026-01-21 12:10:03.59	222.84	4.76	-50.4	-63.1	3.8	1.49e+00	0	40	104	0	71	16502
2026-01-21 12:10:04.60	222.94	4.81	-50.4	-63.1	3.8	1.49e+00	0	40	104	0	71	16477
2026-01-21 12:10:05.61	223.03	4.87	-50.4	-63.1	3.8	1.49e+00	0	40	104	0	71	16496
2026-01-21 12:10:06.62	223.12	4.93	-50.4	-63.1	3.8	1.49e+00	0	40	104	0	71	16478
2026-01-21 12:10:07.62	223.22	4.98	-50.4	-63.2	3.8	1.49e+00	0	40	104	0	71	16566
2026-01-21 12:10:08.63	223.31	5.04	-50.4	-63.2	3.8	1.49e+00	0	40	104	0	71	16510
2026-01-21 12:10:09.64	223.40	5.10	-50.4	-63.1	3.8	1.49e+00	0	40	104	0	71	16457
2026-01-21 12:10:10.65	223.50	5.15	-50.4	-63.1	3.8	1.49e+00	0	40	104	0	71	16482
2026-01-21 12:10:11.66	223.59	5.21	-50.4	-63.2	3.8	1.49e+00	0	40	104	0	71	16556
2026-01-21 12:10:12.66	223.69	5.27	-50.4	-63.1	3.8	1.49e+00	0	40	104	0	71	16490
2026-01-21 12:10:13.67	223.78	5.33	-50.4	-63.2	3.8	1.49e+00	0	40	104	0	71	16516
2026-01-21 12:10:14.68	223.88	5.38	-50.4	-63.2	3.8	1.49e+00	0	40	104	0	71	16512
2026-01-21 12:10:15.69	223.98	5.44	-50.4	-63.2	3.8	1.49e+00	0	40	104	0	71	16521
2026-01-21 12:10:16.70	224.07	5.50	-50.4	-63.2	3.8	1.49e+00	0	40	104	0	71	16535
2026-01-21 12:10:17.70	224.17	5.56	-50.4	-63.1	3.8	1.49e+00	0	40	104	0	71	16497
2026-01-21 12:10:18.71	224.27	5.61	-50.4	-63.1	3.8	1.49e+00	0	40	104	0	71	16469
2026-01-21 12:10:19.72	224.37	5.67	-50.4	-63.1	3.8	1.49e+00	0	40	104	0	71	16465
2026-01-21 12:10:20.73	224.46	5.73	-50.4	-63.1	3.8	1.49e+00	0	40	104	0	71	16479
2026-01-21 12:10:21.74	224.56	5.79	-50.4	-63.1	3.8	1.49e+00	0	40	104	0	71	16472
2026-01-21 12:10:22.75	224.66	5.84	-50.4	-63.1	3.8	1.49e+00	0	40	104	0	71	16494
2026-01-21 12:10:23.75	224.76	5.90	-50.4	-63.2	3.8	1.49e+00	0	40	104	0	71	16561
2026-01-21 12:10:24.76	224.86	5.96	-50.4	-63.1	3.8	1.49e+00	0	40	104	0	71	16463
2026-01-21 12:10:25.77	224.96	6.02	-50.4	-63.1	3.8	1.49e+00	0	40	104	0	71	16500
2026-01-21 12:10:26.78	225.06	6.08	-50.4	-63.2	3.8	1.49e+00	0	40	104	0	71	16528
2026-01-21 12:10:27.78	225.16	6.13	-50.4	-63.1	3.8	1.49e+00	0	40	104	0	71	16488
2026-01-21 12:10:28.79	225.26	6.19	-50.4	-63.1	3.8	1.49e+00	0	40	104	0	71	16467
2026-01-21 12:10:29.80	225.37	6.25	-50.4	-63.2	3.8	1.49e+00	0	40	104	0	71	16549
2026-01-21 12:10:30.81	225.47	6.31	-50.4	-63.2	3.8	1.49e+00	0	40	104	0	71	16523
2026-01-21 12:10:31.81	225.57	6.37	-50.4	-63.1	3.8	1.49e+00	0	40	104	0	71	16494
2026-01-21 12:10:32.82	225.67	6.43	-50.4	-63.1	3.8	1.49e+00	0	40	104	0	71	16487
2026-01-21 12:10:33.83	225.78	6.48	-50.4	-63.1	3.8	1.49e+00	0	40	104	0	71	16476
2026-01-21 12:10:34.84	225.88	6.54	-50.4	-63.1	3.8	1.49e+00	0	40	104	0	71	16411
2026-01-21 12:10:35.85	225.98	6.60	-50.4	-63.1	3.8	1.49e+00	0	40	104	0	71	16498
2026-01-21 12:10:36.85	226.09	6.66	-50.4	-63.1	3.8	1.49e+00	0	40	104	0	71	16493
2026-01-21 12:10:37.86	226.19	6.72	-50.4	-63.1	3.8	1.49e+00	0	40	104	0	71	16470
2026-01-21 12:10:38.87	226.30	6.78	-50.4	-63.1	3.8	1.49e+00	0	40	104	0	71	16483
2026-01-21 12:10:39.88	226.40	6.84	-50.4	-63.1	3.8	1.49e+00	0	40	104	0	71	16488
2026-01-21 12:10:40.89	226.51	6.89	-50.4	-63.1	3.8	1.49e+00	0	40	104	0	71	16454
2026-01-21 12:10:41.89	226.62	6.95	-50.4	-63.1	3.8	1.49e+00	0	40	104	0	71	16495
2026-01-21 12:10:42.90	226.72	7.01	-50.4	-63.2	3.8	1.49e+00	0	40	104	0	71	16518
2026-01-21 12:10:43.91	226.83	7.07	-50.4	-63.2	3.8	1.49e+00	0	40	104	0	71	16514
2026-01-21 12:10:44.92	226.94	7.13	-50.4	-63.1	3.8	1.49e+00	0	40	104	0	71	16502
2026-01-21 12:10:45.92	227.05	7.19	-50.4	-63.2	3.8	1.49e+00	0	40	104	0	71	16516
2026-01-21 12:10:46.93	227.15	7.25	-50.4	-63.1	3.8	1.49e+00	0	40	104	0	71	16496
2026-01-21 12:10:47.94	227.26	7.31	-50.4	-63.2	3.8	1.49e+00	0	40	104	0	71	16508
2026-01-21 12:10:48.95	227.37	7.37	-50.4	-63.1	3.8	1.49e+00	0	40	104	0	71	16475
2026-01-21 12:10:49.96	227.48	7.43	-50.4	-63.1	3.8	1.49e+00	0	40	104	0	71	16463
2026-01-21 12:10:50.96	227.59	7.48	-50.4	-63.1	3.8	1.49e+00	0	40	104	0	71	16423
2026-01-21 12:10:51.97	227.70	7.54	-50.4	-63.2	3.8	1.49e+00	0	40	104	0	71	16521
2026-01-21 12:10:52.98	227.81	7.60	-50.4	-63.2	3.8	1.49e+00	0	40	104	0	71	16513
2026-01-21 12:10:53.99	227.93	7.66	-50.4	-63.1	3.8	1.49e+00	0	40	104	0	71	16496
2026-01-21 12:10:54.99	228.04	7.72	-50.4	-63.1	3.8	1.49e+00	0	40	104	0	71	16497
2026-01-21 12:10:56.00	228.15	7.78	-50.4	-63.1	3.8	1.49e+00	0	40	104	0	71	16448
2026-01-21 12:10:57.01	228.26	7.84	-50.4	-63.1	3.8	1.49e+00	0	40	104	0	71	16496
2026-01-21 12:10:58.02	228.38	7.90	-50.4	-63.2	3.8	1.49e+00	0	40	104	0	71	16518
2026-01-21 12:10:59.02	228.49	7.96	-50.4	-63.2	3.8	1.49e+00	0	40	104	0	71	16532
2026-01-21 12:11:00.03	228.60	8.02	-50.4	-63.2	3.8	1.49e+00	0	40	104	0	71	16544
2026-01-21 12:11:01.04	228.72	8.08	-50.4	-63.2	3.8	1.49e+00	0	40	104	0	71	16504
2026-01-21 12:11:02.05	228.83	8.14	-50.4	-63.1	3.8	1.49e+00	0	40	104	0	71	16465
2026-01-21 12:11:03.06	228.95	8.20	-50.4	-63.1	3.8	1.49e+00	0	40	104	0	71	16477
2026-01-21 12:11:04.07	229.07	8.26	-50.4	-63.1	3.8	1.49e+00	0	40	104	0	71	16503
2026-01-21 12:11:05.08	229.18	8.32	-50.4	-63.2	3.8	1.49e+00	0	40	104	0	71	16507
2026-01-21 12:11:06.09	229.30	8.38	-50.4	-63.1	3.8	1.49e+00	0	40	104	0	71	16463
2026-01-21 12:11:07.10	229.42	8.44	-50.4	-63.1	3.8	1.49e+00	0	40	104	0	71	16494
2026-01-21 12:11:08.11	229.54	8.50	-50.4	-63.2	3.8	1.49e+00	0	40	104	0	71	16507
2026-01-21 12:11:09.11	229.65	8.56	-50.4	-63.1	3.8	1.49e+00	0	40	104	0	71	16484
2026-01-21 12:11:10.12	229.77	8.62	-50.4	-63.1	3.8	1.49e+00	0	40	104	0	71	16497
2026-01-21 12:11:11.13	229.89	8.68	-50.4	-63.1	3.8	1.49e+00	0	40	104	0	71	16460
2026-01-21 12:11:12.14	230.01	8.74	-50.4	-63.1	3.8	1.49e+00	0	40	104	0	71	16489
2026-01-21 12:11:13.14	230.13	8.80	-50.4	-63.1	3.8	1.49e+00	0	40	104	0	71	16496
2026-01-21 12:11:14.15	230.25	8.86	-50.4	-63.1	3.8	1.49e+00	0	40	104	0	71	16496
2026-01-21 12:11:15.16	230.37	8.92	-50.4	-63.1	3.8	1.49e+00	0	40	104	0	71	16472
2026-01-21 12:11:16.17	230.49	8.98	-50.4	-63.1	3.8	1.49e+00	0	40	104	0	71	16438
2026-01-21 12:11:17.18	230.62	9.04	-50.4	-63.1	3.8	1.49e+00	0	40	104	0	71	16440
2026-01-21 12:11:18.19	230.74	9.10	-50.4	-63.2	3.8	1.49e+00	0	40	104	0	71	16517
2026-01-21 12:11:19.19	230.86	9.16	-50.4	-63.2	3.8	1.49e+00	0	40	104	0	71	16516
2026-01-21 12:11:20.20	230.99	9.22	-50.4	-63.1	3.8	1.49e+00	0	40	104	0	71	16489
2026-01-21 12:11:21.21	231.11	9.29	-50.4	-63.1	3.8	1.49e+00	0	40	104	0	71	16454
2026-01-21 12:11:22.21	231.23	9.35	-50.4	-63.1	3.8	1.49e+00	0	40	104	0	71	16466
2026-01-21 12:11:23.22	231.36	9.41	-50.4	-63.2	3.8	1.49e+00	0	40	104	0	71	16543
2026-01-21 12:11:24.23	231.49	9.47	-50.4	-63.1	3.8	1.49e+00	0	40	104	0	71	16500
2026-01-21 12:11:25.24	231.61	9.53	-50.4	-63.1	3.8	1.49e+00	0	40	104	0	71	16467
2026-01-21 12:11:26.25	231.74	9.59	-50.4	-63.1	3.8	1.49e+00	0	40	104	0	71	16467
2026-01-21 12:11:27.25	231.86	9.65	-50.4	-63.1	3.8	1.49e+00	0	40	104	0	71	16495
2026-01-21 12:11:28.26	231.99	9.71	-50.4	-63.2	3.8	1.49e+00	0	40	104	0	71	16543
2026-01-21 12:11:29.27	232.12	9.77	-50.4	-63.2	3.8	1.49e+00	0	40	104	0	71	16549
2026-01-21 12:11:30.28	232.25	9.83	-50.4	-63.2	3.8	1.49e+00	0	40	104	0	71	16526
2026-01-21 12:11:31.28	232.38	9.89	-50.4	-63.1	3.8	1.49e+00	0	40	104	0	71	16460
2026-01-21 12:11:32.29	232.51	9.95	-50.4	-63.2	3.8	1.49e+00	0	40	104	0	71	16520
2026-01-21 12:11:33.30	232.64	10.01	-50.4	-63.2	3.8	1.49e+00	0	40	104	0	71	16510
2026-01-21 12:11:34.31	232.77	10.08	-50.4	-63.1	3.8	1.49e+00	0	40	104	0	71	16477
2026-01-21 12:11:35.32	232.90	10.14	-50.4	-63.2	3.8	1.49e+00	0	40	104	0	71	16512
2026-01-21 12:11:36.32	233.03	10.20	-50.4	-63.1	3.8	1.49e+00	0	40	104	0	71	16502
2026-01-21 12:11:37.33	233.16	10.26	-50.4	-63.1	3.8	1.49e+00	0	40	104	0	71	16454
2026-01-21 12:11:38.34	233.30	10.32	-50.4	-63.1	3.8	1.49e+00	0	40	104	0	71	16498
2026-01-21 12:11:39.35	233.43	10.38	-50.4	-63.2	3.8	1.49e+00	0	40	104	0	71	16521
2026-01-21 12:11:40.36	233.56	10.44	-50.4	-63.1	3.8	1.49e+00	0	40	104	0	71	16487
2026-01-21 12:11:41.36	233.70	10.50	-50.4	-63.2	3.8	1.49e+00	0	40	104	0	71	16511
2026-01-21 12:11:42.38	233.83	10.56	-50.4	-63.1	3.8	1.49e+00	0	40	104	0	71	16481
2026-01-21 12:11:43.39	233.97	10.63	-50.4	-63.1	3.8	1.49e+00	0	40	104	0	71	16475
2026-01-21 12:11:44.39	234.10	10.69	-50.4	-63.1	3.8	1.49e+00	0	40	104	0	71	16486
2026-01-21 12:11:45.40	234.24	10.75	-50.4	-63.1	3.8	1.49e+00	0	40	104	0	71	16496
2026-01-21 12:11:46.41	234.38	10.81	-50.4	-63.1	3.8	1.49e+00	0	40	104	0	71	16494
2026-01-21 12:11:47.42	234.52	10.87	-50.4	-63.1	3.8	1.49e+00	0	40	104	0	71	16472
2026-01-21 12:11:48.43	234.66	10.93	-50.4	-63.1	3.8	1.49e+00	0	40	104	0	71	16500
2026-01-21 12:11:49.43	234.79	10.99	-50.4	-63.1	3.8	1.49e+00	0	40	104	0	71	16480
2026-01-21 12:11:50.44	234.93	11.05	-50.4	-63.2	3.8	1.49e+00	0	40	104	0	71	16510
2026-01-21 12:11:51.45	235.07	11.11	-50.4	-63.1	3.8	1.49e+00	0	40	104	0	71	16502
2026-01-21 12:11:52.46	235.21	11.17	-50.4	-63.1	3.8	1.49e+00	0	40	104	0	71	16458
2026-01-21 12:11:53.46	235.35	11.24	-50.4	-63.1	3.8	1.49e+00	0	40	104	0	71	16480
2026-01-21 12:11:54.47	235.50	11.30	-50.4	-63.1	3.8	1.49e+00	0	40	104	0	71	16452
2026-01-21 12:11:55.48	235.64	11.36	-50.4	-63.1	3.8	1.49e+00	0	40	104	0	71	16483
2026-01-21 12:11:56.49	235.78	11.42	-50.4	-63.1	3.8	1.49e+00	0	40	104	0	71	16474
2026-01-21 12:11:57.50	235.92	11.48	-50.4	-63.1	3.8	1.49e+00	0	40	104	0	71	16478
2026-01-21 12:11:58.50	236.07	11.54	-50.4	-63.2	3.8	1.49e+00	0	40	104	0	71	16527
2026-01-21 12:11:59.51	236.21	11.60	-50.4	-63.1	3.8	1.49e+00	0	40	104	0	71	16452
2026-01-21 12:12:00.52	236.36	11.66	-50.4	-63.1	3.8	1.49e+00	0	40	104	0	71	16463
2026-01-21 12:12:01.53	236.50	11.72	-50.4	-63.1	3.8	1.49e+00	0	40	104	0	71	16435
2026-01-21 12:12:02.54	236.65	11.79	-50.4	-63.1	3.8	1.49e+00	0	40	104	0	71	16488
2026-01-21 12:12:03.54	236.80	11.85	-50.4	-63.1	3.8	1.49e+00	0	40	104	0	71	16455
2026-01-21 12:12:04.55	236.94	11.91	-50.4	-63.1	3.8	1.49e+00	0	40	104	0	71	16481
2026-01-21 12:12:05.56	237.09	11.97	-50.4	-63.1	3.8	1.49e+00	0	40	104	0	71	16486
2026-01-21 12:12:06.57	237.24	12.03	-50.4	-63.2	3.8	1.49e+00	0	40	104	0	71	16508
2026-01-21 12:12:07.58	237.39	12.09	-50.4	-63.1	3.8	1.49e+00	0	40	104	0	71	16450
2026-01-21 12:12:08.59	237.54	12.15	-50.4	-63.2	3.8	1.49e+00	0	40	104	0	71	16522
2026-01-21 12:12:09.59	237.69	12.21	-50.4	-63.1	3.8	1.49e+00	0	40	104	0	71	16485
2026-01-21 12:12:10.60	237.84	12.27	-50.4	-63.1	3.8	1.49e+00	0	40	104	0	71	16470
2026-01-21 12:12:11.61	237.99	12.33	-50.4	-63.1	3.8	1.49e+00	0	40	104	0	71	16473
2026-01-21 12:12:12.62	238.14	12.40	-50.4	-63.2	3.8	1.49e+00	0	40	104	0	71	16520
2026-01-21 12:12:13.63	238.30	12.46	-50.4	-63.1	3.8	1.49e+00	0	40	104	0	71	16503
2026-01-21 12:12:14.63	238.45	12.52	-50.4	-63.1	3.8	1.49e+00	0	40	104	0	71	16456
2026-01-21 12:12:15.64	238.60	12.58	-50.4	-63.2	3.8	1.49e+00	0	40	104	0	71	16512
2026-01-21 12:12:16.65	238.76	12.64	-50.4	-63.1	3.8	1.49e+00	0	40	104	0	71	16501
2026-01-21 12:12:17.66	238.91	12.70	-50.4	-63.1	3.8	1.49e+00	0	40	104	0	71	16480
2026-01-21 12:12:18.66	239.07	12.76	-50.4	-63.1	3.8	1.49e+00	0	40	104	0	71	16459
2026-01-21 12:12:19.67	239.23	12.82	-50.4	-63.1	3.8	1.49e+00	0	40	104	0	71	16483
2026-01-21 12:12:20.68	239.38	12.88	-50.4	-63.1	3.8	1.49e+00	0	40	104	0	71	16440
2026-01-21 12:12:21.69	239.54	12.94	-50.4	-63.2	3.8	1.49e+00	0	40	104	0	71	16520
2026-01-21 12:12:22.70	239.70	13.00	-50.4	-63.1	3.8	1.49e+00	0	40	104	0	71	16459
2026-01-21 12:12:23.70	239.86	13.06	-50.4	-63.1	3.8	1.49e+00	0	40	104	0	71	16457
2026-01-21 12:12:24.71	240.02	13.12	-50.4	-63.1	3.8	1.49e+00	0	40	104	0	71	16488
2026-01-21 12:12:25.72	240.18	13.18	-50.4	-63.2	3.8	1.49e+00	0	40	104	0	71	16510
2026-01-21 12:12:26.73	240.34	13.24	-50.4	-63.2	3.8	1.49e+00	0	40	104	0	71	16507
2026-01-21 12:12:27.73	240.50	13.30	-50.4	-63.1	3.8	1.49e+00	0	40	104	0	71	16461
2026-01-21 12:12:28.74	240.66	13.36	-50.4	-63.1	3.8	1.49e+00	0	40	104	0	71	16471
2026-01-21 12:12:29.75	240.82	13.42	-50.4	-63.1	3.8	1.49e+00	0	40	104	0	71	16489
2026-01-21 12:12:30.76	240.99	13.48	-50.4	-63.1	3.8	1.49e+00	0	40	104	0	71	16478
2026-01-21 12:12:31.76	241.15	13.54	-50.4	-63.1	3.8	1.49e+00	0	40	104	0	71	16491
2026-01-21 12:12:32.77	241.32	13.60	-50.4	-63.1	3.8	1.49e+00	0	40	104	0	71	16483
2026-01-21 12:12:33.78	241.48	13.66	-50.4	-63.1	3.8	1.49e+00	0	40	104	0	71	16503
2026-01-21 12:12:34.79	241.65	13.72	-50.4	-63.1	3.8	1.49e+00	0	40	104	0	71	16492
2026-01-21 12:12:35.80	241.82	13.78	-50.4	-63.1	3.8	1.49e+00	0	40	104	0	71	16480
2026-01-21 12:12:36.81	241.98	13.84	-50.4	-63.1	3.8	1.49e+00	0	40	104	0	71	16488
2026-01-21 12:12:37.81	242.15	13.90	-50.4	-63.1	3.8	1.49e+00	0	40	104	0	71	16488
2026-01-21 12:12:38.82	242.32	13.96	-50.4	-63.1	3.8	1.49e+00	0	40	104	0	71	16440
2026-01-21 12:12:39.83	242.49	14.02	-50.4	-63.1	3.8	1.49e+00	0	40	104	0	71	16444
2026-01-21 12:12:40.84	242.66	14.08	-50.4	-63.2	3.8	1.49e+00	0	40	104	0	71	16504
2026-01-21 12:12:41.85	242.83	14.14	-50.4	-63.1	3.8	1.49e+00	0	40	104	0	71	16489
2026-01-21 12:12:42.86	243.00	14.20	-50.4	-63.1	3.8	1.49e+00	0	40	104	0	71	16478
2026-01-21 12:12:43.86	243.17	14.26	-50.4	-63.1	3.8	1.49e+00	0	40	104	0	71	16440
2026-01-21 12:12:44.87	243.34	14.32	-50.4	-63.1	3.8	1.49e+00	0	40	104	0	71	16434
2026-01-21 12:12:45.88	243.52	14.38	-50.4	-63.1	3.8	1.49e+00	0	40	104	0	71	16488
2026-01-21 12:12:46.89	243.69	14.43	-50.4	-63.1	3.8	1.49e+00	0	40	104	0	71	16471
2026-01-21 12:12:47.90	243.87	14.49	-50.4	-63.1	3.8	1.49e+00	0	40	104	0	71	16416
2026-01-21 12:12:48.91	244.04	14.55	-50.4	-63.1	3.8	1.49e+00	0	40	104	0	71	16487
2026-01-21 12:12:49.91	244.22	14.61	-50.4	-63.1	3.8	1.49e+00	0	40	104	0	71	16493
2026-01-21 12:12:50.92	244.39	14.67	-50.4	-63.1	3.8	1.49e+00	0	40	104	0	71	16453
2026-01-21 12:12:51.93	244.57	14.73	-50.4	-63.1	3.8	1.49e+00	0	40	104	0	71	16475
2026-01-21 12:12:52.94	244.75	14.78	-50.4	-63.1	3.8	1.49e+00	0	40	104	0	71	16483
2026-01-21 12:12:53.94	244.93	14.84	-50.4	-63.1	3.8	1.49e+00	0	40	104	0	71	16458
2026-01-21 12:12:54.95	245.11	14.90	-50.4	-63.1	3.8	1.49e+00	0	40	104	0	71	16447
2026-01-21 12:12:55.96	245.29	14.96	-50.4	-63.1	3.8	1.49e+00	0	40	104	0	71	16454
2026-01-21 12:12:56.97	245.47	15.02	-50.4	-63.1	3.8	1.49e+00	0	40	104	0	71	16488
2026-01-21 12:12:57.97	245.65	15.07	-50.4	-63.1	3.8	1.49e+00	0	40	104	0	71	16478
2026-01-21 12:12:58.98	245.83	15.13	-50.4	-63.1	3.8	1.49e+00	0	40	104	0	71	16497
2026-01-21 12:12:59.99	246.01	15.19	-50.4	-63.1	3.8	1.49e+00	0	40	104	0	71	16472
2026-01-21 12:13:01.00	246.19	15.24	-50.4	-63.2	3.8	1.49e+00	0	40	104	0	71	16518
2026-01-21 12:13:02.01	246.38	15.30	-50.4	-63.1	3.8	1.49e+00	0	40	104	0	71	16479
2026-01-21 12:13:03.01	246.56	15.36	-50.4	-63.1	3.8	1.49e+00	0	40	104	0	71	16473
2026-01-21 12:13:04.02	246.75	15.41	-50.4	-63.1	3.8	1.49e+00	0	40	104	0	71	16456
2026-01-21 12:13:05.03	246.93	15.47	-50.4	-63.1	3.8	1.49e+00	0	40	104	0	71	16492
2026-01-21 12:13:06.04	247.12	15.53	-50.4	-63.1	3.8	1.49e+00	0	40	104	0	71	16457
2026-01-21 12:13:07.05	247.31	15.58	-50.4	-63.1	3.8	1.49e+00	0	40	104	0	71	16478
2026-01-21 12:13:08.05	247.50	15.64	-50.4	-63.1	3.8	1.49e+00	0	40	104	0	71	16487
2026-01-21 12:13:09.06	247.68	15.70	-50.4	-63.1	3.8	1.49e+00	0	40	104	0	71	16476
2026-01-21 12:13:10.07	247.87	15.75	-50.4	-63.2	3.8	1.49e+00	0	40	104	0	71	16504
2026-01-21 12:13:11.08	248.06	15.81	-50.4	-63.1	3.8	1.49e+00	0	40	104	0	71	16470
2026-01-21 12:13:12.09	248.26	15.86	-50.4	-63.1	3.8	1.49e+00	0	40	104	0	71	16473
2026-01-21 12:13:13.09	248.45	15.92	-50.4	-63.1	3.8	1.49e+00	0	40	104	0	71	16469
2026-01-21 12:13:14.10	248.64	15.97	-50.4	-63.1	3.8	1.49e+00	0	40	104	0	71	16474
2026-01-21 12:13:15.11	248.83	16.03	-50.4	-63.1	3.8	1.49e+00	0	40	104	0	71	16482
2026-01-21 12:13:16.12	249.02	16.08	-50.4	-63.2	3.8	1.49e+00	0	40	104	0	71	16523
2026-01-21 12:13:17.12	249.22	16.14	-50.4	-63.2	3.8	1.49e+00	0	40	104	0	71	16551
2026-01-21 12:13:18.13	249.41	16.19	-50.4	-63.1	3.8	1.49e+00	0	40	104	0	71	16443
2026-01-21 12:13:19.14	249.61	16.24	-50.4	-63.1	3.8	1.49e+00	0	40	104	0	71	16485
2026-01-21 12:13:20.15	249.80	16.30	-50.4	-63.1	3.8	1.49e+00	0	40	104	0	71	16483
2026-01-21 12:13:21.16	250.00	16.35	-50.4	-63.1	3.8	1.49e+00	0	40	104	0	71	16452
2026-01-21 12:13:22.16	250.20	16.40	-50.4	-63.1	3.8	1.49e+00	0	40	104	0	71	16484
2026-01-21 12:13:23.17	250.40	16.46	-50.4	-63.1	3.8	1.49e+00	0	40	104	0	71	16438
2026-01-21 12:13:24.18	250.60	16.51	-50.4	-63.1	3.8	1.49e+00	0	40	104	0	71	16483
2026-01-21 12:13:25.19	250.80	16.56	-50.4	-63.1	3.8	1.49e+00	0	40	104	0	71	16442
2026-01-21 12:13:26.20	251.00	16.62	-50.4	-63.1	3.8	1.49e+00	0	40	104	0	71	16477
2026-01-21 12:13:27.21	251.20	16.67	-50.4	-63.1	3.8	1.49e+00	0	40	104	0	71	16467
2026-01-21 12:13:28.21	251.40	16.72	-50.4	-63.1	3.8	1.49e+00	0	40	104	0	71	16481
2026-01-21 12:13:29.22	251.60	16.77	-50.4	-63.1	3.8	1.49e+00	0	40	104	0	71	16490
2026-01-21 12:13:30.23	251.80	16.83	-50.4	-63.1	3.8	1.49e+00	0	40	104	0	71	16447
2026-01-21 12:13:31.24	252.01	16.88	-50.4	-63.1	3.8	1.49e+00	0	40	104	0	71	16497
2026-01-21 12:13:32.25	252.21	16.93	-50.4	-63.1	3.8	1.49e+00	0	40	104	0	71	16460
2026-01-21 12:13:33.25	252.42	16.98	-50.4	-63.1	3.8	1.49e+00	0	40	104	0	71	16470
2026-01-21 12:13:34.26	252.62	17.03	-50.4	-63.1	3.8	1.49e+00	0	40	104	0	71	16486
2026-01-21 12:13:35.27	252.83	17.08	-50.4	-63.1	3.8	1.49e+00	0	40	104	0	71	16417
2026-01-21 12:13:36.28	253.04	17.13	-50.4	-63.1	3.8	1.49e+00	0	40	104	0	71	16483
2026-01-21 12:13:37.29	253.24	17.18	-50.4	-63.2	3.8	1.49e+00	0	40	104	0	71	16544
2026-01-21 12:13:38.29	253.45	17.23	-50.4	-63.1	3.8	1.49e+00	0	40	104	0	71	16464
2026-01-21 12:13:39.30	253.66	17.28	-50.4	-63.1	3.8	1.49e+00	0	40	104	0	71	16471
2026-01-21 12:13:40.31	253.87	17.33	-50.4	-63.1	3.8	1.49e+00	0	40	104	0	71	16501
2026-01-21 12:13:41.32	254.08	17.38	-50.4	-63.1	3.8	1.49e+00	0	40	104	0	71	16491
2026-01-21 12:13:42.33	254.29	17.43	-50.4	-63.1	3.8	1.49e+00	0	40	104	0	71	16494
2026-01-21 12:13:43.33	254.50	17.47	-50.4	-63.1	3.8	1.49e+00	0	40	104	0	71	16503
2026-01-21 12:13:44.34	254.72	17.52	-50.4	-63.1	3.8	1.49e+00	0	40	104	0	71	16459
2026-01-21 12:13:45.35	254.93	17.57	-50.4	-63.1	3.8	1.49e+00	0	40	104	0	71	16459
2026-01-21 12:13:46.35	255.14	17.62	-50.4	-63.1	3.8	1.49e+00	0	40	104	0	71	16458
2026-01-21 12:13:47.36	255.35	17.67	-50.4	-63.1	3.8	1.49e+00	0	40	104	0	71	16459
2026-01-21 12:13:48.37	255.57	17.71	-50.4	-63.1	3.8	1.49e+00	0	40	104	0	71	16469
2026-01-21 12:13:49.38	255.79	17.76	-50.4	-63.1	3.8	1.49e+00	0	40	104	0	71	16470
2026-01-21 12:13:50.38	256.00	17.81	-50.4	-63.1	3.8	1.49e+00	0	40	104	0	71	16490
2026-01-21 12:13:51.39	256.22	17.85	-50.4	-63.1	3.8	1.49e+00	0	40	104	0	71	16441
2026-01-21 12:13:52.40	256.44	17.90	-50.4	-63.1	3.8	1.49e+00	0	40	104	0	71	16448
2026-01-21 12:13:53.41	256.65	17.94	-50.4	-63.1	3.8	1.49e+00	0	40	104	0	71	16458
2026-01-21 12:13:54.42	256.87	17.99	-50.4	-63.1	3.8	1.49e+00	0	40	104	0	71	16477
2026-01-21 12:13:55.42	257.09	18.03	-50.4	-63.1	3.8	1.49e+00	0	40	104	0	71	16484
2026-01-21 12:13:56.43	257.31	18.08	-50.4	-63.1	3.8	1.49e+00	0	40	104	0	71	16477
2026-01-21 12:13:57.44	257.53	18.12	-50.4	-63.1	3.8	1.49e+00	0	40	104	0	71	16474
2026-01-21 12:13:58.45	257.75	18.17	-50.4	-63.1	3.8	1.49e+00	0	40	104	0	71	16460
2026-01-21 12:13:59.46	257.98	18.21	-50.4	-63.1	3.8	1.49e+00	0	40	104	0	71	16464
2026-01-21 12:14:00.46	258.20	18.25	-50.4	-63.1	3.8	1.49e+00	0	40	104	0	71	16456
2026-01-21 12:14:01.47	258.42	18.29	-50.4	-63.1	3.8	1.49e+00	0	40	104	0	71	16459
2026-01-21 12:14:02.48	258.64	18.34	-50.4	-63.1	3.8	1.49e+00	0	40	104	0	71	16488
2026-01-21 12:14:03.49	258.87	18.38	-50.4	-63.1	3.8	1.49e+00	0	40	104	0	71	16482
2026-01-21 12:14:04.50	259.09	18.42	-50.4	-63.1	3.8	1.49e+00	0	40	104	0	71	16496
2026-01-21 12:14:05.50	259.32	18.46	-50.4	-63.2	3.8	1.49e+00	0	40	104	0	71	16535
2026-01-21 12:14:06.51	259.54	18.50	-50.4	-63.1	3.8	1.49e+00	0	40	104	0	71	16438
2026-01-21 12:14:07.52	259.77	18.54	-50.4	-63.1	3.8	1.49e+00	0	40	104	0	71	16436
2026-01-21 12:14:08.53	260.00	18.58	-50.4	-63.1	3.8	1.49e+00	0	40	104	0	71	16465
2026-01-21 12:14:09.54	260.23	18.62	-50.4	-63.1	3.8	1.49e+00	0	40	104	0	71	16457
2026-01-21 12:14:10.54	260.45	18.66	-50.4	-63.1	3.8	1.49e+00	0	40	104	0	71	16487
2026-01-21 12:14:11.55	260.68	18.70	-50.4	-63.1	3.8	1.49e+00	0	40	104	0	71	16486
2026-01-21 12:14:12.56	260.91	18.74	-50.4	-63.1	3.8	1.49e+00	0	40	104	0	71	16493
2026-01-21 12:14:13.57	261.14	18.78	-50.4	-63.1	3.8	1.49e+00	0	40	104	0	71	16445
2026-01-21 12:14:14.57	261.37	18.82	-50.4	-63.2	3.8	1.49e+00	0	40	104	0	71	16509
2026-01-21 12:14:15.58	261.60	18.86	-50.4	-63.2	3.8	1.49e+00	0	40	104	0	71	16550
2026-01-21 12:14:16.59	261.84	18.89	-50.4	-63.1	3.8	1.49e+00	0	40	104	0	71	16487
2026-01-21 12:14:17.60	262.07	18.93	-50.4	-63.1	3.8	1.49e+00	0	40	104	0	71	16463
2026-01-21 12:14:18.60	262.30	18.97	-50.4	-63.1	3.8	1.49e+00	0	40	104	0	71	16434
2026-01-21 12:14:19.61	262.53	19.00	-50.4	-63.1	3.8	1.49e+00	0	40	104	0	71	16472
2026-01-21 12:14:20.62	262.77	19.04	-50.4	-63.1	3.8	1.49e+00	0	40	104	0	71	16455
2026-01-21 12:14:21.63	263.00	19.07	-50.4	-63.1	3.8	1.49e+00	0	40	104	0	71	16488
2026-01-21 12:14:22.64	263.24	19.11	-50.4	-63.1	3.8	1.49e+00	0	40	104	0	71	16482
2026-01-21 12:14:23.65	263.48	19.14	-50.4	-63.1	3.8	1.49e+00	0	40	104	0	71	16430
2026-01-21 12:14:24.65	263.71	19.18	-50.4	-63.1	3.8	1.49e+00	0	40	104	0	71	16471
2026-01-21 12:14:25.66	263.95	19.21	-50.4	-63.1	3.8	1.49e+00	0	40	104	0	71	16444
2026-01-21 12:14:26.67	264.18	19.24	-50.4	-63.1	3.8	1.49e+00	0	40	104	0	71	16472
2026-01-21 12:14:27.68	264.42	19.28	-50.4	-63.1	3.8	1.49e+00	0	40	104	0	71	16462
2026-01-21 12:14:28.69	264.66	19.31	-50.4	-63.1	3.8	1.49e+00	0	40	104	0	71	16500
2026-01-21 12:14:29.69	264.90	19.34	-50.4	-63.1	3.8	1.49e+00	0	40	104	0	71	16472
2026-01-21 12:14:30.70	265.14	19.37	-50.4	-63.1	3.8	1.49e+00	0	40	104	0	71	16467
2026-01-21 12:14:31.71	265.38	19.40	-50.4	-63.1	3.8	1.49e+00	0	40	104	0	71	16463
2026-01-21 12:14:32.72	265.62	19.43	-50.4	-63.1	3.8	1.49e+00	0	40	104	0	71	16445
2026-01-21 12:14:33.72	265.85	19.46	-50.4	-63.1	3.8	1.49e+00	0	40	104	0	71	16460
2026-01-21 12:14:34.73	266.10	19.49	-50.4	-63.1	3.8	1.49e+00	0	40	104	0	71	16417
2026-01-21 12:14:35.74	266.34	19.52	-50.4	-63.1	3.8	1.49e+00	0	40	104	0	71	16413
2026-01-21 12:14:36.75	266.58	19.55	-50.4	-63.1	3.8	1.49e+00	0	40	104	0	71	16469
2026-01-21 12:14:37.76	266.82	19.58	-50.4	-63.1	3.8	1.49e+00	0	40	104	0	71	16468
2026-01-21 12:14:38.77	267.07	19.60	-50.4	-63.1	3.8	1.49e+00	0	40	104	0	71	16463
2026-01-21 12:14:39.77	267.31	19.63	-50.4	-63.2	3.8	1.49e+00	0	40	104	0	71	16506
2026-01-21 12:14:40.78	267.55	19.66	-50.4	-63.1	3.8	1.49e+00	0	40	104	0	71	16472
2026-01-21 12:14:41.79	267.79	19.68	-50.4	-63.1	3.8	1.49e+00	0	40	104	0	71	16492
2026-01-21 12:14:42.80	268.04	19.71	-50.4	-63.1	3.8	1.49e+00	0	40	104	0	71	16429
2026-01-21 12:14:43.81	268.28	19.73	-50.4	-63.1	3.8	1.49e+00	0	40	104	0	71	16441
2026-01-21 12:14:44.81	268.53	19.76	-50.4	-63.1	3.8	1.49e+00	0	40	104	0	71	16467
2026-01-21 12:14:45.82	268.77	19.78	-50.4	-63.1	3.8	1.49e+00	0	40	104	0	71	16488
2026-01-21 12:14:46.83	269.02	19.81	-50.4	-63.1	3.8	1.49e+00	0	40	104	0	71	16460
2026-01-21 12:14:47.84	269.27	19.83	-50.4	-63.1	3.8	1.49e+00	0	40	104	0	71	16449
2026-01-21 12:14:48.85	269.51	19.85	-50.4	-63.1	3.8	1.49e+00	0	40	104	0	71	16463
2026-01-21 12:14:49.86	269.76	19.88	-50.4	-63.1	3.8	1.49e+00	0	40	104	0	71	16490
2026-01-21 12:14:50.87	270.01	19.90	-50.4	-63.1	3.8	1.49e+00	0	40	104	0	71	16470
2026-01-21 12:14:51.87	270.25	19.92	-50.4	-63.1	3.8	1.49e+00	0	40	104	0	71	16446
2026-01-21 12:14:52.88	270.50	19.94	-50.4	-63.1	3.8	1.49e+00	0	40	104	0	71	16487
2026-01-21 12:14:53.89	270.75	19.96	-50.4	-63.1	3.8	1.49e+00	0	40	104	0	71	16463
2026-01-21 12:14:54.89	271.00	19.98	-50.4	-63.1	3.8	1.49e+00	0	40	104	0	71	16467
2026-01-21 12:14:55.90	271.24	20.00	-50.4	-63.1	3.8	1.49e+00	0	40	104	0	71	16446
2026-01-21 12:14:56.91	271.49	20.02	-50.4	-63.2	3.8	1.49e+00	0	40	104	0	71	16504
2026-01-21 12:14:57.92	271.74	20.03	-50.4	-63.1	3.8	1.49e+00	0	40	104	0	71	16467
2026-01-21 12:14:58.93	271.99	20.05	-50.4	-63.1	3.8	1.49e+00	0	40	104	0	71	16474
2026-01-21 12:14:59.93	272.24	20.07	-50.4	-63.1	3.8	1.49e+00	0	40	104	0	71	16465
2026-01-21 12:15:00.94	272.49	20.09	-50.4	-63.1	3.8	1.49e+00	0	40	104	0	71	16486
2026-01-21 12:15:01.95	272.74	20.10	-50.4	-63.1	3.8	1.49e+00	0	40	104	0	71	16470
2026-01-21 12:15:02.96	272.99	20.12	-50.4	-63.1	3.8	1.49e+00	0	40	104	0	71	16466
2026-01-21 12:15:03.96	273.24	20.13	-50.4	-63.1	3.8	1.49e+00	0	40	104	0	71	16469
2026-01-21 12:15:04.98	273.50	20.15	-50.4	-63.1	3.8	1.49e+00	0	40	104	0	71	16465
2026-01-21 12:15:05.98	273.75	20.16	-50.4	-63.1	3.8	1.49e+00	0	40	104	0	71	16471
2026-01-21 12:15:06.99	274.00	20.17	-50.4	-63.1	3.8	1.49e+00	0	40	104	0	71	16453
2026-01-21 12:15:08.00	274.25	20.19	-50.4	-63.1	3.8	1.49e+00	0	40	104	0	71	16439
2026-01-21 12:15:09.01	274.50	20.20	-50.4	-63.1	3.8	1.49e+00	0	40	104	0	71	16478
2026-01-21 12:15:10.02	274.75	20.21	-50.4	-63.1	3.8	1.49e+00	0	40	104	0	71	16469
2026-01-21 12:15:11.03	275.01	20.22	-50.4	-63.1	3.8	1.49e+00	0	40	104	0	71	16439
2026-01-21 12:15:12.04	275.26	20.23	-50.4	-63.1	3.8	1.49e+00	0	40	104	0	71	16446
2026-01-21 12:15:13.05	275.51	20.24	-50.4	-63.1	3.8	1.49e+00	0	40	104	0	71	16471
2026-01-21 12:15:14.06	275.77	20.25	-50.4	-63.1	3.8	1.49e+00	0	40	104	0	71	16469
2026-01-21 12:15:15.07	276.02	20.26	-50.4	-63.1	3.8	1.49e+00	0	40	104	0	71	16485
2026-01-21 12:15:16.07	276.27	20.27	-50.4	-63.1	3.8	1.49e+00	0	40	104	0	71	16469
2026-01-21 12:15:17.08	276.52	20.28	-50.4	-63.1	3.8	1.49e+00	0	40	104	0	71	16460
2026-01-21 12:15:18.09	276.78	20.29	-50.4	-63.1	3.8	1.49e+00	0	40	104	0	71	16427
2026-01-21 12:15:19.10	277.03	20.29	-50.4	-63.1	3.8	1.49e+00	0	40	104	0	71	16478
2026-01-21 12:15:20.11	277.29	20.30	-50.4	-63.1	3.8	1.49e+00	0	40	104	0	71	16435
2026-01-21 12:15:21.12	277.54	20.30	-50.4	-63.1	3.8	1.49e+00	0	40	104	0	71	16474
2026-01-21 12:15:22.13	277.79	20.31	-50.4	-63.1	3.8	1.49e+00	0	40	104	0	71	16442
2026-01-21 12:15:23.13	278.05	20.31	-50.4	-63.1	3.8	1.49e+00	0	40	104	0	71	16469
2026-01-21 12:15:24.14	278.30	20.32	-50.4	-63.1	3.8	1.49e+00	0	40	104	0	71	16457
2026-01-21 12:15:25.14	278.55	20.32	-50.4	-63.2	3.8	1.49e+00	0	40	104	0	71	16509
2026-01-21 12:15:26.15	278.81	20.32	-50.4	-63.1	3.8	1.49e+00	0	40	104	0	71	16462
2026-01-21 12:15:27.16	279.06	20.33	-50.4	-63.1	3.8	1.49e+00	0	40	104	0	71	16437
2026-01-21 12:15:28.17	279.32	20.33	-50.4	-63.1	3.8	1.49e+00	0	40	104	0	71	16465
2026-01-21 12:15:29.18	279.57	20.33	-50.4	-63.1	3.8	1.49e+00	0	40	104	0	71	16442
2026-01-21 12:15:30.19	279.82	20.33	-50.4	-63.1	3.8	1.49e+00	0	40	104	0	71	16404
2026-01-21 12:15:31.19	280.08	20.33	-50.4	-63.1	3.8	1.49e+00	0	40	104	0	71	16462
2026-01-21 12:15:32.20	280.33	20.33	-50.4	-63.1	3.8	1.49e+00	0	40	104	0	71	16457
2026-01-21 12:15:33.21	280.58	20.33	-50.4	-63.1	3.8	1.49e+00	0	40	104	0	71	16462
2026-01-21 12:15:34.22	280.84	20.33	-50.4	-63.1	3.8	1.49e+00	0	40	104	0	71	16497
2026-01-21 12:15:35.22	281.09	20.33	-50.4	-63.1	3.8	1.49e+00	0	40	104	0	71	16457
2026-01-21 12:15:36.23	281.35	20.32	-50.4	-63.1	3.8	1.49e+00	0	40	104	0	71	16428
2026-01-21 12:15:37.24	281.60	20.32	-50.4	-63.1	3.8	1.49e+00	0	40	104	0	71	16470
2026-01-21 12:15:38.25	281.85	20.32	-50.4	-63.1	3.8	1.49e+00	0	40	104	0	71	16467
2026-01-21 12:15:39.26	282.11	20.31	-50.4	-63.1	3.8	1.49e+00	0	40	104	0	71	16450
2026-01-21 12:15:40.26	282.36	20.31	-50.4	-63.1	3.8	1.49e+00	0	40	104	0	71	16497
2026-01-21 12:15:41.27	282.61	20.30	-50.4	-63.1	3.8	1.49e+00	0	40	104	0	71	16475
2026-01-21 12:15:42.28	282.87	20.30	-50.4	-63.1	3.8	1.49e+00	0	40	104	0	71	16479
2026-01-21 12:15:43.29	283.12	20.29	-50.4	-63.1	3.8	1.49e+00	0	40	104	0	71	16458
2026-01-21 12:15:44.30	283.37	20.28	-50.4	-63.1	3.8	1.49e+00	0	40	104	0	71	16427
2026-01-21 12:15:45.30	283.63	20.27	-50.4	-63.1	3.8	1.49e+00	0	40	104	0	71	16500
2026-01-21 12:15:46.31	283.88	20.27	-50.4	-63.1	3.8	1.49e+00	0	40	104	0	71	16406
2026-01-21 12:15:47.32	284.13	20.26	-50.4	-63.1	3.8	1.49e+00	0	40	104	0	71	16459
2026-01-21 12:15:48.33	284.39	20.25	-50.4	-63.1	3.8	1.49e+00	0	40	104	0	71	16468
2026-01-21 12:15:49.33	284.64	20.24	-50.4	-63.1	3.8	1.49e+00	0	40	104	0	71	16469
2026-01-21 12:15:50.34	284.89	20.23	-50.4	-63.1	3.8	1.49e+00	0	40	104	0	71	16489
2026-01-21 12:15:51.35	285.14	20.22	-50.4	-63.1	3.8	1.49e+00	0	40	104	0	71	16475
2026-01-21 12:15:52.36	285.39	20.21	-50.4	-63.1	3.8	1.49e+00	0	40	104	0	71	16454
2026-01-21 12:15:53.37	285.65	20.19	-50.4	-63.1	3.8	1.49e+00	0	40	104	0	71	16470
2026-01-21 12:15:54.38	285.90	20.18	-50.4	-63.1	3.8	1.49e+00	0	40	104	0	71	16487
2026-01-21 12:15:55.38	286.15	20.17	-50.4	-63.1	3.8	1.49e+00	0	40	104	0	71	16452
2026-01-21 12:15:56.39	286.40	20.15	-50.4	-63.1	3.8	1.49e+00	0	40	104	0	71	16427
2026-01-21 12:15:57.40	286.65	20.14	-50.4	-63.1	3.8	1.49e+00	0	40	104	0	71	16461
2026-01-21 12:15:58.41	286.90	20.13	-50.4	-63.1	3.8	1.49e+00	0	40	104	0	71	16458
2026-01-21 12:15:59.42	287.15	20.11	-50.4	-63.1	3.8	1.49e+00	0	40	104	0	71	16454
2026-01-21 12:16:00.43	287.40	20.09	-50.4	-63.1	3.8	1.49e+00	0	40	104	0	71	16455
2026-01-21 12:16:01.43	287.65	20.08	-50.4	-63.1	3.8	1.49e+00	0	40	104	0	71	16460
2026-01-21 12:16:02.44	287.90	20.06	-50.4	-63.1	3.8	1.49e+00	0	40	104	0	71	16394
2026-01-21 12:16:03.45	288.15	20.04	-50.4	-63.1	3.8	1.49e+00	0	40	104	0	71	16445
2026-01-21 12:16:04.46	288.40	20.03	-50.4	-63.1	3.8	1.49e+00	0	40	104	0	71	16451
2026-01-21 12:16:05.46	288.65	20.01	-50.4	-63.1	3.8	1.49e+00	0	40	104	0	71	16412
2026-01-21 12:16:06.48	288.90	19.99	-50.4	-63.1	3.8	1.49e+00	0	40	104	0	71	16450
2026-01-21 12:16:07.49	289.15	19.97	-50.4	-63.1	3.8	1.49e+00	0	40	104	0	71	16450
2026-01-21 12:16:08.49	289.39	19.95	-50.4	-63.1	3.8	1.49e+00	0	40	104	0	71	16453
2026-01-21 12:16:09.50	289.64	19.93	-50.4	-63.1	3.8	1.49e+00	0	40	104	0	71	16456
2026-01-21 12:16:10.51	289.89	19.91	-50.4	-63.1	3.8	1.49e+00	0	40	104	0	71	16428
2026-01-21 12:16:11.52	290.14	19.89	-50.4	-63.1	3.8	1.49e+00	0	40	104	0	71	16430
2026-01-21 12:16:12.53	290.38	19.87	-50.4	-63.1	3.8	1.49e+00	0	40	104	0	71	16442
2026-01-21 12:16:13.53	290.63	19.84	-50.4	-63.1	3.8	1.49e+00	0	40	104	0	71	16464
2026-01-21 12:16:14.54	290.87	19.82	-50.4	-63.1	3.8	1.49e+00	0	40	104	0	71	16476
2026-01-21 12:16:15.55	291.12	19.80	-50.4	-63.1	3.8	1.49e+00	0	40	104	0	71	16463
2026-01-21 12:16:16.56	291.37	19.77	-50.4	-63.1	3.8	1.49e+00	0	40	104	0	71	16434
2026-01-21 12:16:17.57	291.61	19.75	-50.4	-63.1	3.8	1.49e+00	0	40	104	0	71	16466
2026-01-21 12:16:18.57	291.85	19.72	-50.4	-63.1	3.8	1.49e+00	0	40	104	0	71	16436
2026-01-21 12:16:19.58	292.10	19.70	-50.4	-63.1	3.8	1.49e+00	0	40	104	0	71	16409
2026-01-21 12:16:20.59	292.34	19.67	-50.4	-63.1	3.8	1.49e+00	0	40	104	0	71	16435
2026-01-21 12:16:21.60	292.58	19.65	-50.4	-63.1	3.8	1.49e+00	0	40	104	0	71	16449
2026-01-21 12:16:22.61	292.83	19.62	-50.4	-63.1	3.8	1.49e+00	0	40	104	0	71	16430
2026-01-21 12:16:23.61	293.07	19.59	-50.4	-63.1	3.8	1.49e+00	0	40	104	0	71	16412
2026-01-21 12:16:24.62	293.31	19.56	-50.4	-63.1	3.8	1.49e+00	0	40	104	0	71	16406
2026-01-21 12:16:25.63	293.55	19.54	-50.4	-63.1	3.8	1.49e+00	0	40	104	0	71	16423
2026-01-21 12:16:26.63	293.79	19.51	-50.4	-63.1	3.8	1.49e+00	0	40	104	0	71	16445
2026-01-21 12:16:27.64	294.03	19.48	-50.4	-63.1	3.8	1.49e+00	0	40	104	0	71	16449
2026-01-21 12:16:28.65	294.27	19.45	-50.4	-63.1	3.8	1.49e+00	0	40	104	0	71	16453
2026-01-21 12:16:29.66	294.51	19.42	-50.4	-63.1	3.8	1.49e+00	0	40	104	0	71	16451
2026-01-21 12:16:30.66	294.75	19.39	-50.4	-63.1	3.8	1.49e+00	0	40	104	0	71	16445
2026-01-21 12:16:31.67	294.99	19.36	-50.4	-63.1	3.8	1.49e+00	0	40	104	0	71	16404
2026-01-21 12:16:32.68	295.23	19.33	-50.4	-63.1	3.8	1.49e+00	0	40	104	0	71	16456
2026-01-21 12:16:33.69	295.47	19.29	-50.4	-63.1	3.8	1.49e+00	0	40	104	0	71	16450
2026-01-21 12:16:34.70	295.70	19.26	-50.4	-63.1	3.8	1.49e+00	0	40	104	0	71	16438
2026-01-21 12:16:35.70	295.94	19.23	-50.4	-63.1	3.8	1.49e+00	0	40	104	0	71	16416
2026-01-21 12:16:36.71	296.18	19.20	-50.4	-63.1	3.8	1.49e+00	0	40	104	0	71	16426
2026-01-21 12:16:37.72	296.41	19.16	-50.4	-63.1	3.8	1.49e+00	0	40	104	0	71	16446
2026-01-21 12:16:38.73	296.65	19.13	-50.4	-63.1	3.8	1.49e+00	0	40	104	0	71	16471
2026-01-21 12:16:39.73	296.88	19.09	-50.4	-63.1	3.8	1.49e+00	0	40	104	0	71	16431
2026-01-21 12:16:40.74	297.11	19.06	-50.4	-63.1	3.8	1.49e+00	0	40	104	0	71	16386
2026-01-21 12:16:41.75	297.35	19.02	-50.4	-63.1	3.8	1.49e+00	0	40	104	0	71	16407
2026-01-21 12:16:42.76	297.58	18.99	-50.4	-63.1	3.8	1.49e+00	0	40	104	0	71	16454
2026-01-21 12:16:43.76	297.81	18.95	-50.4	-63.1	3.8	1.49e+00	0	40	104	0	71	16426
2026-01-21 12:16:44.77	298.05	18.92	-50.4	-63.1	3.8	1.49e+00	0	40	104	0	71	16442
2026-01-21 12:16:45.78	298.28	18.88	-50.4	-63.1	3.8	1.49e+00	0	40	104	0	71	16466
2026-01-21 12:16:46.79	298.51	18.84	-50.4	-63.1	3.8	1.49e+00	0	40	104	0	71	16441
2026-01-21 12:16:47.80	298.74	18.80	-50.4	-63.1	3.8	1.49e+00	0	40	104	0	71	16442
2026-01-21 12:16:48.81	298.97	18.77	-50.4	-63.1	3.8	1.49e+00	0	40	104	0	71	16468
2026-01-21 12:16:49.81	299.20	18.73	-50.4	-63.2	3.8	1.49e+00	0	40	104	0	71	16508
2026-01-21 12:16:50.82	299.43	18.69	-50.4	-63.2	3.8	1.49e+00	0	40	104	0	71	16526
2026-01-21 12:16:51.83	299.65	18.65	-50.4	-63.1	3.8	1.49e+00	0	40	104	0	71	16455
2026-01-21 12:16:52.84	299.88	18.61	-50.4	-63.1	3.8	1.49e+00	0	40	104	0	71	16437
2026-01-21 12:16:53.84	300.11	18.57	-50.4	-63.1	3.8	1.49e+00	0	40	104	0	71	16445
2026-01-21 12:16:54.85	300.33	18.53	-50.4	-63.1	3.8	1.49e+00	0	40	104	0	71	16463
2026-01-21 12:16:55.86	300.56	18.49	-50.4	-63.1	3.8	1.49e+00	0	40	104	0	71	16451
2026-01-21 12:16:56.87	300.79	18.45	-50.4	-63.1	3.8	1.49e+00	0	40	104	0	71	16456
2026-01-21 12:16:57.88	301.01	18.41	-50.4	-63.1	3.8	1.49e+00	0	40	104	0	71	16444
2026-01-21 12:16:58.89	301.24	18.37	-50.4	-63.1	3.8	1.49e+00	0	40	104	0	71	16458
2026-01-21 12:16:59.90	301.46	18.32	-50.4	-63.1	3.8	1.49e+00	0	40	104	0	71	16460
2026-01-21 12:17:00.91	301.68	18.28	-50.4	-63.1	3.8	1.49e+00	0	40	104	0	71	16438
2026-01-21 12:17:01.91	301.90	18.24	-50.4	-63.1	3.8	1.49e+00	0	40	104	0	71	16422
2026-01-21 12:17:02.92	302.12	18.20	-50.4	-63.1	3.8	1.49e+00	0	40	104	0	71	16408
2026-01-21 12:17:03.93	302.35	18.15	-50.4	-63.1	3.8	1.49e+00	0	40	104	0	71	16411
2026-01-21 12:17:04.94	302.57	18.11	-50.4	-63.1	3.8	1.49e+00	0	40	104	0	71	16440
2026-01-21 12:17:05.94	302.78	18.06	-50.4	-63.1	3.8	1.49e+00	0	40	104	0	71	16409
2026-01-21 12:17:06.95	303.00	18.02	-50.4	-63.1	3.8	1.49e+00	0	40	104	0	71	16457
2026-01-21 12:17:07.96	303.22	17.97	-50.4	-63.1	3.8	1.49e+00	0	40	104	0	71	16482
2026-01-21 12:17:08.97	303.44	17.93	-50.4	-63.1	3.8	1.49e+00	0	40	104	0	71	16470
2026-01-21 12:17:09.98	303.66	17.88	-50.4	-63.1	3.8	1.49e+00	0	40	104	0	71	16433
2026-01-21 12:17:10.99	303.88	17.84	-50.4	-63.1	3.8	1.49e+00	0	40	104	0	71	16455
2026-01-21 12:17:11.99	304.09	17.79	-50.4	-63.1	3.8	1.49e+00	0	40	104	0	71	16482
2026-01-21 12:17:13.00	304.30	17.75	-50.4	-63.1	3.8	1.49e+00	0	40	104	0	71	16426
2026-01-21 12:17:14.01	304.52	17.70	-50.4	-63.1	3.8	1.49e+00	0	40	104	0	71	16447
2026-01-21 12:17:15.02	304.73	17.65	-50.4	-63.1	3.8	1.49e+00	0	40	104	0	71	16451
2026-01-21 12:17:16.03	304.95	17.61	-50.4	-63.1	3.8	1.49e+00	0	40	104	0	71	16425
2026-01-21 12:17:17.03	305.16	17.56	-50.4	-63.1	3.8	1.49e+00	0	40	104	0	71	16447
2026-01-21 12:17:18.04	305.37	17.51	-50.4	-63.1	3.8	1.49e+00	0	40	104	0	71	16459
2026-01-21 12:17:19.05	305.58	17.46	-50.4	-63.1	3.8	1.49e+00	0	40	104	0	71	16428
2026-01-21 12:17:20.06	305.79	17.41	-50.4	-63.1	3.8	1.49e+00	0	40	104	0	71	16383
2026-01-21 12:17:21.07	306.00	17.37	-50.4	-63.1	3.8	1.49e+00	0	40	104	0	71	16399
2026-01-21 12:17:22.07	306.21	17.32	-50.4	-63.1	3.8	1.49e+00	0	40	104	0	71	16401
2026-01-21 12:17:23.08	306.42	17.27	-50.4	-63.1	3.8	1.49e+00	0	40	104	0	71	16432
2026-01-21 12:17:24.09	306.63	17.22	-50.4	-63.1	3.8	1.49e+00	0	40	104	0	71	16367
2026-01-21 12:17:25.10	306.84	17.17	-50.4	-63.1	3.8	1.49e+00	0	40	104	0	71	16377
2026-01-21 12:17:26.11	307.04	17.12	-50.4	-63.1	3.8	1.49e+00	0	40	104	0	71	16416
2026-01-21 12:17:27.12	307.25	17.07	-50.4	-63.1	3.8	1.49e+00	0	40	104	0	71	16356
2026-01-21 12:17:28.13	307.46	17.02	-50.4	-63.1	3.8	1.49e+00	0	40	104	0	71	16386
2026-01-21 12:17:29.13	307.66	16.97	-50.4	-63.1	3.8	1.49e+00	0	40	104	0	71	16451
2026-01-21 12:17:30.14	307.86	16.92	-50.4	-63.1	3.8	1.49e+00	0	40	104	0	71	16432
2026-01-21 12:17:31.15	308.07	16.87	-50.4	-63.1	3.8	1.49e+00	0	40	104	0	71	16353
2026-01-21 12:17:32.16	308.27	16.81	-50.4	-63.1	3.8	1.49e+00	0	40	104	0	71	16452
2026-01-21 12:17:33.17	308.47	16.76	-50.4	-63.1	3.8	1.49e+00	0	40	104	0	71	16390
2026-01-21 12:17:34.18	308.67	16.71	-50.4	-63.1	3.8	1.49e+00	0	40	104	0	71	16415
2026-01-21 12:17:35.19	308.88	16.66	-50.4	-63.1	3.8	1.49e+00	0	40	104	0	71	16430
2026-01-21 12:17:36.19	309.07	16.61	-50.4	-63.1	3.8	1.49e+00	0	40	104	0	71	16452
2026-01-21 12:17:37.20	309.27	16.55	-50.4	-63.1	3.8	1.49e+00	0	40	104	0	71	16461
2026-01-21 12:17:38.21	309.47	16.50	-50.4	-63.1	3.8	1.49e+00	0	40	104	0	71	16445
2026-01-21 12:17:39.22	309.67	16.45	-50.4	-63.1	3.8	1.49e+00	0	40	104	0	71	16416
2026-01-21 12:17:40.22	309.87	16.40	-50.4	-63.1	3.8	1.49e+00	0	40	104	0	71	16408
2026-01-21 12:17:41.23	310.06	16.34	-50.4	-63.1	3.8	1.49e+00	0	40	104	0	71	16456
2026-01-21 12:17:42.24	310.26	16.29	-50.3	-63.1	3.8	1.49e+00	0	40	104	0	71	16408
2026-01-21 12:17:43.25	310.46	16.24	-50.4	-63.1	3.8	1.49e+00	0	40	104	0	71	16428
2026-01-21 12:17:44.25	310.65	16.18	-50.4	-63.1	3.8	1.49e+00	0	40	104	0	71	16402
2026-01-21 12:17:45.26	310.84	16.13	-50.4	-63.1	3.8	1.49e+00	0	40	104	0	71	16437
2026-01-21 12:17:46.27	311.04	16.07	-50.4	-63.1	3.8	1.49e+00	0	40	104	0	71	16396
2026-01-21 12:17:47.28	311.23	16.02	-50.4	-63.1	3.8	1.49e+00	0	40	104	0	71	16421
2026-01-21 12:17:48.28	311.42	15.97	-50.4	-63.1	3.8	1.49e+00	0	40	104	0	71	16402
2026-01-21 12:17:49.29	311.61	15.91	-50.4	-63.1	3.8	1.49e+00	0	40	104	0	71	16450
2026-01-21 12:17:50.30	311.80	15.86	-50.4	-63.1	3.8	1.49e+00	0	40	104	0	71	16418
2026-01-21 12:17:51.31	311.99	15.80	-50.4	-63.1	3.8	1.49e+00	0	40	104	0	71	16434
2026-01-21 12:17:52.32	312.18	15.75	-50.4	-63.1	3.8	1.49e+00	0	40	104	0	71	16392
2026-01-21 12:17:53.33	312.37	15.69	-50.4	-63.1	3.8	1.49e+00	0	40	104	0	71	16393
2026-01-21 12:17:54.33	312.56	15.63	-50.4	-63.1	3.8	1.49e+00	0	40	104	0	71	16393
2026-01-21 12:17:55.34	312.74	15.58	-50.4	-63.1	3.8	1.49e+00	0	40	104	0	71	16435
2026-01-21 12:17:56.35	312.93	15.52	-50.4	-63.1	3.8	1.49e+00	0	40	104	0	71	16415
2026-01-21 12:17:57.35	313.11	15.47	-50.4	-63.1	3.8	1.49e+00	0	40	104	0	71	16442
2026-01-21 12:17:58.36	313.30	15.41	-50.4	-63.1	3.8	1.49e+00	0	40	104	0	71	16430
2026-01-21 12:17:59.37	313.48	15.35	-50.4	-63.1	3.8	1.49e+00	0	40	104	0	71	16399
2026-01-21 12:18:00.38	313.67	15.30	-50.4	-63.1	3.8	1.49e+00	0	40	104	0	71	16455
2026-01-21 12:18:01.38	313.85	15.24	-50.4	-63.1	3.8	1.49e+00	0	40	104	0	71	16427
2026-01-21 12:18:02.39	314.03	15.18	-50.4	-63.1	3.8	1.49e+00	0	40	104	0	71	16424
2026-01-21 12:18:03.40	314.21	15.13	-50.4	-63.1	3.8	1.49e+00	0	40	104	0	71	16440
2026-01-21 12:18:04.41	314.40	15.07	-50.4	-63.1	3.8	1.49e+00	0	40	104	0	71	16439
2026-01-21 12:18:05.42	314.58	15.01	-50.4	-63.1	3.8	1.49e+00	0	40	104	0	71	16443
2026-01-21 12:18:06.42	314.75	14.96	-50.4	-63.1	3.8	1.49e+00	0	40	104	0	71	16452
2026-01-21 12:18:07.43	314.93	14.90	-50.4	-63.1	3.8	1.49e+00	0	40	104	0	71	16418
2026-01-21 12:18:08.44	315.11	14.84	-50.4	-63.1	3.8	1.49e+00	0	40	104	0	71	16422
2026-01-21 12:18:09.45	315.29	14.78	-50.4	-63.1	3.8	1.49e+00	0	40	104	0	71	16390
2026-01-21 12:18:10.45	315.47	14.73	-50.4	-63.1	3.8	1.49e+00	0	40	104	0	71	16425
2026-01-21 12:18:11.46	315.64	14.67	-50.4	-63.1	3.8	1.49e+00	0	40	104	0	71	16438
2026-01-21 12:18:12.47	315.82	14.61	-50.4	-63.1	3.8	1.49e+00	0	40	104	0	71	16443
2026-01-21 12:18:13.48	315.99	14.55	-50.4	-63.1	3.8	1.49e+00	0	40	104	0	71	16361
2026-01-21 12:18:14.48	316.17	14.49	-50.4	-63.1	3.8	1.49e+00	0	40	104	0	71	16388
2026-01-21 12:18:15.49	316.34	14.44	-50.4	-63.1	3.8	1.49e+00	0	40	104	0	71	16409
2026-01-21 12:18:16.50	316.51	14.38	-50.4	-63.1	3.8	1.49e+00	0	40	104	0	71	16399
2026-01-21 12:18:17.51	316.69	14.32	-50.4	-63.1	3.8	1.49e+00	0	40	104	0	71	16441
2026-01-21 12:18:18.52	316.86	14.26	-50.4	-63.1	3.8	1.49e+00	0	40	104	0	71	16384
2026-01-21 12:18:19.52	317.03	14.20	-50.4	-63.1	3.8	1.49e+00	0	40	104	0	71	16398
2026-01-21 12:18:20.53	317.20	14.14	-50.4	-63.1	3.8	1.49e+00	0	40	104	0	71	16430
2026-01-21 12:18:21.54	317.37	14.08	-50.4	-63.1	3.8	1.49e+00	0	40	104	0	71	16396
2026-01-21 12:18:22.55	317.54	14.03	-50.4	-63.1	3.8	1.49e+00	0	40	104	0	71	16395
2026-01-21 12:18:23.56	317.71	13.97	-50.4	-63.1	3.8	1.49e+00	0	40	104	0	71	16435
2026-01-21 12:18:24.56	317.87	13.91	-50.4	-63.1	3.8	1.49e+00	0	40	104	0	71	16453
2026-01-21 12:18:25.57	318.04	13.85	-50.4	-63.1	3.8	1.49e+00	0	40	104	0	71	16418
2026-01-21 12:18:26.58	318.21	13.79	-50.4	-63.1	3.8	1.49e+00	0	40	104	0	71	16432
2026-01-21 12:18:27.59	318.37	13.73	-50.4	-63.1	3.8	1.49e+00	0	40	104	0	71	16379
2026-01-21 12:18:28.60	318.54	13.67	-50.4	-63.1	3.8	1.49e+00	0	40	104	0	71	16412
2026-01-21 12:18:29.61	318.70	13.61	-50.4	-63.1	3.8	1.49e+00	0	40	104	0	71	16435
2026-01-21 12:18:30.62	318.87	13.55	-50.4	-63.1	3.8	1.49e+00	0	40	104	0	71	16398
2026-01-21 12:18:31.63	319.03	13.49	-50.4	-63.1	3.8	1.49e+00	0	40	104	0	71	16435
2026-01-21 12:18:32.63	319.19	13.43	-50.4	-63.1	3.8	1.49e+00	0	40	104	0	71	16433
2026-01-21 12:18:33.64	319.35	13.37	-50.4	-63.1	3.8	1.49e+00	0	40	104	0	71	16391
2026-01-21 12:18:34.64	319.51	13.31	-50.4	-63.1	3.8	1.49e+00	0	40	104	0	71	16404
2026-01-21 12:18:35.65	319.68	13.25	-50.4	-63.1	3.8	1.49e+00	0	40	104	0	71	16439
2026-01-21 12:18:36.66	319.84	13.19	-50.4	-63.1	3.8	1.49e+00	0	40	104	0	71	16419
2026-01-21 12:18:37.67	320.00	13.13	-50.4	-63.1	3.8	1.49e+00	0	40	104	0	71	16433
2026-01-21 12:18:38.68	320.15	13.07	-50.4	-63.1	3.8	1.49e+00	0	40	104	0	71	16426
2026-01-21 12:18:39.68	320.31	13.01	-50.4	-63.1	3.8	1.49e+00	0	40	104	0	71	16353
2026-01-21 12:18:40.69	320.47	12.95	-50.4	-63.1	3.8	1.49e+00	0	40	104	0	71	16372
2026-01-21 12:18:41.70	320.63	12.89	-50.4	-63.1	3.8	1.49e+00	0	40	104	0	71	16373
2026-01-21 12:18:42.71	320.78	12.83	-50.4	-63.1	3.8	1.49e+00	0	40	104	0	71	16355
2026-01-21 12:18:43.71	320.94	12.77	-50.4	-63.1	3.8	1.49e+00	0	40	104	0	71	16415
2026-01-21 12:18:44.72	321.09	12.71	-50.4	-63.1	3.8	1.49e+00	0	40	104	0	71	16370
2026-01-21 12:18:45.73	321.25	12.65	-50.4	-63.1	3.8	1.49e+00	0	40	104	0	71	16416
2026-01-21 12:18:46.74	321.40	12.59	-50.4	-63.1	3.8	1.49e+00	0	40	104	0	71	16433
2026-01-21 12:18:47.74	321.55	12.53	-50.4	-63.1	3.8	1.49e+00	0	40	104	0	71	16407
2026-01-21 12:18:48.75	321.71	12.47	-50.4	-63.1	3.8	1.49e+00	0	40	104	0	71	16416
2026-01-21 12:18:49.76	321.86	12.41	-50.4	-63.1	3.8	1.49e+00	0	40	104	0	71	16445
2026-01-21 12:18:50.77	322.01	12.35	-50.4	-63.1	3.8	1.49e+00	0	40	104	0	71	16477
2026-01-21 12:18:51.78	322.16	12.29	-50.4	-63.1	3.8	1.49e+00	0	40	104	0	71	16369
2026-01-21 12:18:52.78	322.31	12.23	-50.4	-63.1	3.8	1.49e+00	0	40	104	0	71	16391
2026-01-21 12:18:53.79	322.46	12.17	-50.4	-63.1	3.8	1.49e+00	0	40	104	0	71	16444
2026-01-21 12:18:54.80	322.61	12.11	-50.4	-63.1	3.8	1.49e+00	0	40	104	0	71	16435
2026-01-21 12:18:55.81	322.76	12.05	-50.4	-63.1	3.8	1.49e+00	0	40	104	0	71	16456
2026-01-21 12:18:56.81	322.91	11.99	-50.4	-63.1	3.8	1.49e+00	0	40	104	0	71	16424
2026-01-21 12:18:57.82	323.05	11.93	-50.4	-63.1	3.8	1.49e+00	0	40	104	0	71	16400
2026-01-21 12:18:58.83	323.20	11.87	-50.4	-63.1	3.8	1.49e+00	0	40	104	0	71	16410
2026-01-21 12:18:59.84	323.35	11.81	-50.4	-63.1	3.8	1.49e+00	0	40	104	0	71	16419
2026-01-21 12:19:00.85	323.49	11.75	-50.4	-63.1	3.8	1.49e+00	0	40	104	0	71	16400
2026-01-21 12:19:01.86	323.64	11.69	-50.4	-63.1	3.8	1.49e+00	0	40	104	0	71	16395
2026-01-21 12:19:02.87	323.78	11.62	-50.4	-63.1	3.8	1.49e+00	0	40	104	0	71	16396
2026-01-21 12:19:03.87	323.93	11.56	-50.4	-63.1	3.8	1.49e+00	0	40	104	0	71	16405
2026-01-21 12:19:04.88	324.07	11.50	-50.4	-63.1	3.8	1.49e+00	0	40	104	0	71	16375
2026-01-21 12:19:05.89	324.21	11.44	-50.4	-63.1	3.8	1.49e+00	0	40	104	0	71	16363
2026-01-21 12:19:06.90	324.36	11.38	-50.4	-63.1	3.8	1.49e+00	0	40	104	0	71	16375
2026-01-21 12:19:07.91	324.50	11.32	-50.4	-63.1	3.8	1.49e+00	0	40	104	0	71	16355
2026-01-21 12:19:08.91	324.64	11.26	-50.4	-63.1	3.8	1.49e+00	0	40	104	0	71	16398
2026-01-21 12:19:09.92	324.78	11.20	-50.4	-63.0	3.8	1.49e+00	0	40	104	0	71	16288
2026-01-21 12:19:10.93	324.92	11.14	-50.4	-63.1	3.8	1.49e+00	0	40	104	0	71	16317
2026-01-21 12:19:11.94	325.06	11.08	-50.4	-63.1	3.8	1.49e+00	0	40	104	0	71	16342
2026-01-21 12:19:12.95	325.20	11.02	-50.4	-63.1	3.8	1.49e+00	0	40	104	0	71	16354
2026-01-21 12:19:13.96	325.34	10.96	-50.4	-63.1	3.8	1.49e+00	0	40	104	0	71	16416
2026-01-21 12:19:14.96	325.47	10.90	-50.4	-63.1	3.8	1.49e+00	0	40	104	0	71	16368
2026-01-21 12:19:15.97	325.61	10.84	-50.4	-63.1	3.8	1.49e+00	0	40	104	0	71	16430
2026-01-21 12:19:16.98	325.75	10.78	-50.4	-63.1	3.8	1.49e+00	0	40	104	0	71	16369
2026-01-21 12:19:17.99	325.88	10.72	-50.4	-63.1	3.8	1.49e+00	0	40	104	0	71	16373
2026-01-21 12:19:19.00	326.02	10.65	-50.4	-63.1	3.8	1.49e+00	0	40	104	0	71	16396
2026-01-21 12:19:20.01	326.15	10.59	-50.4	-63.1	3.8	1.49e+00	0	40	104	0	71	16384
2026-01-21 12:19:21.01	326.29	10.53	-50.4	-63.1	3.8	1.49e+00	0	40	104	0	71	16386
2026-01-21 12:19:22.02	326.42	10.47	-50.3	-63.1	3.8	1.49e+00	0	40	104	0	71	16427
2026-01-21 12:19:23.03	326.55	10.41	-50.4	-63.1	3.8	1.49e+00	0	40	104	0	71	16415
2026-01-21 12:19:24.03	326.69	10.35	-50.4	-63.1	3.8	1.49e+00	0	40	104	0	71	16409
2026-01-21 12:19:25.04	326.82	10.29	-50.4	-63.1	3.8	1.49e+00	0	40	104	0	71	16416
2026-01-21 12:19:26.05	326.95	10.23	-50.4	-63.1	3.8	1.49e+00	0	40	104	0	71	16433
2026-01-21 12:19:27.06	327.08	10.17	-50.4	-63.1	3.8	1.49e+00	0	40	104	0	71	16424
2026-01-21 12:19:28.07	327.21	10.11	-50.4	-63.1	3.8	1.49e+00	0	40	104	0	71	16456
2026-01-21 12:19:29.08	327.34	10.05	-50.4	-63.1	3.8	1.49e+00	0	40	104	0	71	16357
2026-01-21 12:19:30.09	327.47	9.99	-50.4	-63.1	3.8	1.49e+00	0	40	104	0	71	16442
2026-01-21 12:19:31.10	327.60	9.93	-50.4	-63.1	3.8	1.49e+00	0	40	104	0	71	16404
2026-01-21 12:19:32.11	327.73	9.87	-50.4	-63.1	3.8	1.49e+00	0	40	104	0	71	16411
2026-01-21 12:19:33.11	327.86	9.81	-50.4	-63.1	3.8	1.49e+00	0	40	104	0	71	16405
2026-01-21 12:19:34.12	327.99	9.75	-50.4	-63.1	3.8	1.49e+00	0	40	104	0	71	16383
2026-01-21 12:19:35.13	328.11	9.69	-50.4	-63.1	3.8	1.49e+00	0	40	104	0	71	16424
2026-01-21 12:19:36.14	328.24	9.63	-50.4	-63.1	3.8	1.49e+00	0	40	104	0	71	16444
2026-01-21 12:19:37.14	328.37	9.57	-50.4	-63.1	3.8	1.49e+00	0	40	104	0	71	16423
2026-01-21 12:19:38.15	328.49	9.51	-50.4	-63.1	3.8	1.49e+00	0	40	104	0	71	16384
2026-01-21 12:19:39.16	328.62	9.45	-50.4	-63.1	3.8	1.49e+00	0	40	104	0	71	16383
2026-01-21 12:19:40.17	328.74	9.39	-50.4	-63.1	3.8	1.49e+00	0	40	104	0	71	16412
2026-01-21 12:19:41.18	328.87	9.33	-50.4	-63.1	3.8	1.49e+00	0	40	104	0	71	16411
2026-01-21 12:19:42.19	328.99	9.27	-50.4	-63.1	3.8	1.49e+00	0	40	104	0	71	16445
2026-01-21 12:19:43.19	329.11	9.21	-50.4	-63.1	3.8	1.49e+00	0	40	104	0	71	16455
2026-01-21 12:19:44.20	329.24	9.15	-50.4	-63.1	3.8	1.49e+00	0	40	104	0	71	16402
2026-01-21 12:19:45.21	329.36	9.09	-50.4	-63.1	3.8	1.49e+00	0	40	104	0	71	16354
2026-01-21 12:19:46.22	329.48	9.03	-50.4	-63.1	3.8	1.49e+00	0	40	104	0	71	16407
2026-01-21 12:19:47.22	329.60	8.97	-50.4	-63.1	3.8	1.49e+00	0	40	104	0	71	16356
2026-01-21 12:19:48.23	329.72	8.91	-50.4	-63.1	3.8	1.49e+00	0	40	104	0	71	16455
2026-01-21 12:19:49.24	329.84	8.85	-50.4	-63.1	3.8	1.49e+00	0	40	104	0	71	16421
2026-01-21 12:19:50.25	329.96	8.79	-50.4	-63.1	3.8	1.49e+00	0	40	104	0	71	16428
2026-01-21 12:19:51.26	330.08	8.73	-50.4	-63.1	3.8	1.49e+00	0	40	104	0	71	16372
2026-01-21 12:19:52.27	330.20	8.67	-50.4	-63.1	3.8	1.49e+00	0	40	104	0	71	16367
2026-01-21 12:19:53.27	330.32	8.61	-50.4	-63.1	3.8	1.49e+00	0	40	104	0	71	16371
2026-01-21 12:19:54.28	330.44	8.55	-50.4	-63.1	3.8	1.49e+00	0	40	104	0	71	16328
2026-01-21 12:19:55.29	330.56	8.49	-50.4	-63.1	3.8	1.49e+00	0	40	104	0	71	16417
2026-01-21 12:19:56.29	330.67	8.43	-50.4	-63.1	3.8	1.49e+00	0	40	104	0	71	16373
2026-01-21 12:19:57.30	330.79	8.37	-50.4	-63.1	3.8	1.49e+00	0	40	104	0	71	16401
2026-01-21 12:19:58.31	330.90	8.31	-50.4	-63.1	3.8	1.49e+00	0	40	104	0	71	16409
2026-01-21 12:19:59.32	331.02	8.25	-50.4	-63.1	3.8	1.49e+00	0	40	104	0	71	16433
2026-01-21 12:20:00.32	331.14	8.19	-50.4	-63.1	3.8	1.49e+00	0	40	104	0	71	16406
2026-01-21 12:20:01.33	331.25	8.13	-50.4	-63.1	3.8	1.49e+00	0	40	104	0	71	16391
2026-01-21 12:20:02.34	331.36	8.07	-50.4	-63.1	3.8	1.49e+00	0	40	104	0	71	16388
2026-01-21 12:20:03.35	331.48	8.01	-50.4	-63.1	3.8	1.49e+00	0	40	104	0	71	16396
2026-01-21 12:20:04.36	331.59	7.95	-50.4	-63.1	3.8	1.49e+00	0	40	104	0	71	16367
2026-01-21 12:20:05.37	331.71	7.89	-50.4	-63.1	3.8	1.49e+00	0	40	104	0	71	16368
2026-01-21 12:20:06.37	331.82	7.84	-50.4	-63.1	3.8	1.49e+00	0	40	104	0	71	16333
2026-01-21 12:20:07.38	331.93	7.78	-50.4	-63.1	3.8	1.49e+00	0	40	104	0	71	16407
2026-01-21 12:20:08.39	332.04	7.72	-50.4	-63.1	3.8	1.49e+00	0	40	104	0	71	16389
2026-01-21 12:20:09.40	332.15	7.66	-50.4	-63.1	3.8	1.49e+00	0	40	104	0	71	16346
2026-01-21 12:20:10.41	332.26	7.60	-50.4	-63.1	3.8	1.49e+00	0	40	104	0	71	16430
2026-01-21 12:20:11.42	332.38	7.54	-50.4	-63.1	3.8	1.49e+00	0	40	104	0	71	16403
2026-01-21 12:20:12.43	332.49	7.48	-50.4	-63.1	3.8	1.49e+00	0	40	104	0	71	16351
2026-01-21 12:20:13.43	332.59	7.42	-50.4	-63.1	3.8	1.49e+00	0	40	104	0	71	16415
2026-01-21 12:20:14.44	332.70	7.36	-50.4	-63.1	3.8	1.49e+00	0	40	104	0	71	16381
2026-01-21 12:20:15.45	332.81	7.30	-50.4	-63.1	3.8	1.49e+00	0	40	104	0	71	16417
2026-01-21 12:20:16.46	332.92	7.25	-50.4	-63.1	3.8	1.49e+00	0	40	104	0	71	16449
2026-01-21 12:20:17.47	333.03	7.19	-50.4	-63.1	3.8	1.49e+00	0	40	104	0	71	16483
2026-01-21 12:20:18.48	333.14	7.13	-50.4	-63.1	3.8	1.49e+00	0	40	104	0	71	16430
2026-01-21 12:20:19.48	333.24	7.07	-50.4	-63.1	3.8	1.49e+00	0	40	104	0	71	16421
2026-01-21 12:20:20.49	333.35	7.01	-50.4	-63.1	3.8	1.49e+00	0	40	104	0	71	16341
2026-01-21 12:20:21.50	333.46	6.95	-50.4	-63.1	3.8	1.49e+00	0	40	104	0	71	16391
2026-01-21 12:20:22.51	333.56	6.90	-50.4	-63.1	3.8	1.49e+00	0	40	104	0	71	16406
2026-01-21 12:20:23.52	333.67	6.84	-50.4	-63.1	3.8	1.49e+00	0	40	104	0	71	16381
2026-01-21 12:20:24.53	333.77	6.78	-50.4	-63.0	3.8	1.49e+00	0	40	104	0	71	16298
2026-01-21 12:20:25.53	333.88	6.72	-50.4	-63.1	3.8	1.49e+00	0	40	104	0	71	16417
2026-01-21 12:20:26.54	333.98	6.66	-50.4	-63.1	3.8	1.49e+00	0	40	104	0	71	16373
2026-01-21 12:20:27.55	334.09	6.60	-50.4	-63.1	3.8	1.49e+00	0	40	104	0	71	16470
2026-01-21 12:20:28.55	334.19	6.55	-50.4	-63.1	3.8	1.49e+00	0	40	104	0	71	16429
2026-01-21 12:20:29.57	334.29	6.49	-50.4	-63.1	3.8	1.49e+00	0	40	104	0	71	16397
2026-01-21 12:20:30.57	334.40	6.43	-50.4	-63.1	3.8	1.49e+00	0	40	104	0	71	16419
2026-01-21 12:20:31.58	334.50	6.37	-50.4	-63.1	3.8	1.49e+00	0	40	104	0	71	16388
2026-01-21 12:20:32.59	334.60	6.31	-50.4	-63.1	3.8	1.49e+00	0	40	104	0	71	16344
2026-01-21 12:20:33.60	334.70	6.26	-50.4	-63.1	3.8	1.49e+00	0	40	104	0	71	16319
2026-01-21 12:20:34.61	334.80	6.20	-50.4	-63.1	3.8	1.49e+00	0	40	104	0	71	16365
2026-01-21 12:20:35.61	334.90	6.14	-50.4	-63.1	3.8	1.49e+00	0	40	104	0	71	16367
2026-01-21 12:20:36.62	335.00	6.08	-50.4	-63.1	3.8	1.49e+00	0	40	104	0	71	16376
2026-01-21 12:20:37.63	335.10	6.03	-50.4	-63.1	3.8	1.49e+00	0	40	104	0	71	16408
2026-01-21 12:20:38.63	335.20	5.97	-50.4	-63.1	3.8	1.49e+00	0	40	104	0	71	16398
2026-01-21 12:20:39.64	335.30	5.91	-50.4	-63.1	3.8	1.49e+00	0	40	104	0	71	16356
2026-01-21 12:20:40.65	335.40	5.85	-50.4	-63.1	3.8	1.49e+00	0	40	104	0	71	16390
2026-01-21 12:20:41.66	335.50	5.80	-50.4	-63.1	3.8	1.49e+00	0	40	104	0	71	16414
2026-01-21 12:20:42.66	335.60	5.74	-50.4	-63.1	3.8	1.49e+00	0	40	104	0	71	16430
2026-01-21 12:20:43.67	335.70	5.68	-50.4	-63.1	3.8	1.49e+00	0	40	104	0	71	16403
2026-01-21 12:20:44.68	335.79	5.63	-50.4	-63.1	3.8	1.49e+00	0	40	104	0	71	16407
2026-01-21 12:20:45.69	335.89	5.57	-50.4	-63.1	3.8	1.49e+00	0	40	104	0	71	16417
2026-01-21 12:20:46.70	335.99	5.51	-50.4	-63.1	3.8	1.49e+00	0	40	104	0	71	16360
2026-01-21 12:20:47.70	336.08	5.46	-50.4	-63.1	3.8	1.49e+00	0	40	104	0	71	16424
2026-01-21 12:20:48.71	336.18	5.40	-50.4	-63.1	3.8	1.49e+00	0	40	104	0	71	16428
2026-01-21 12:20:49.72	336.28	5.34	-50.4	-63.1	3.8	1.49e+00	0	40	104	0	71	16437
2026-01-21 12:20:50.73	336.37	5.28	-50.4	-63.1	3.8	1.49e+00	0	40	104	0	71	16406
2026-01-21 12:20:51.73	336.47	5.23	-50.4	-63.1	3.8	1.49e+00	0	40	104	0	71	16444
2026-01-21 12:20:52.74	336.56	5.17	-50.4	-63.1	3.8	1.49e+00	0	40	104	0	71	16405
2026-01-21 12:20:53.75	336.66	5.12	-50.4	-63.1	3.8	1.49e+00	0	40	104	0	71	16403
2026-01-21 12:20:54.76	336.75	5.06	-50.4	-63.1	3.8	1.49e+00	0	40	104	0	71	16388
2026-01-21 12:20:55.77	336.84	5.00	-50.4	-63.1	3.8	1.49e+00	0	40	104	0	71	16439
2026-01-21 12:20:56.78	336.94	4.95	-50.4	-63.1	3.8	1.49e+00	0	40	104	0	71	16392
2026-01-21 12:20:57.79	337.03	4.89	-50.4	-63.1	3.8	1.49e+00	0	40	104	0	71	16409
2026-01-21 12:20:58.79	337.12	4.83	-50.4	-63.1	3.8	1.49e+00	0	40	104	0	71	16439
2026-01-21 12:20:59.80	337.21	4.78	-50.4	-63.1	3.8	1.49e+00	0	40	104	0	71	16423
2026-01-21 12:21:00.81	337.31	4.72	-50.4	-63.1	3.8	1.49e+00	0	40	104	0	71	16458
2026-01-21 12:21:01.82	337.40	4.66	-50.4	-63.1	3.8	1.49e+00	0	40	104	0	71	16471
2026-01-21 12:21:02.83	337.49	4.61	-50.4	-63.1	3.8	1.49e+00	0	40	104	0	71	16424
2026-01-21 12:21:03.83	337.58	4.55	-50.4	-63.1	3.8	1.49e+00	0	40	104	0	71	16419
2026-01-21 12:21:04.84	337.67	4.50	-50.4	-63.1	3.8	1.49e+00	0	40	104	0	71	16449
2026-01-21 12:21:05.85	337.76	4.44	-50.4	-63.1	3.8	1.49e+00	0	40	104	0	71	16436
2026-01-21 12:21:06.86	337.85	4.38	-50.4	-63.1	3.8	1.49e+00	0	40	104	0	71	16402
2026-01-21 12:21:07.86	337.94	4.33	-50.4	-63.1	3.8	1.49e+00	0	40	104	0	71	16412
2026-01-21 12:21:08.87	338.03	4.27	-50.4	-63.1	3.8	1.49e+00	0	40	104	0	71	16434
2026-01-21 12:21:09.88	338.12	4.22	-50.4	-63.1	3.8	1.49e+00	0	40	104	0	71	16413
2026-01-21 12:21:10.89	338.21	4.16	-50.4	-63.1	3.8	1.49e+00	0	40	104	0	71	16385
2026-01-21 12:21:11.90	338.30	4.11	-50.4	-63.1	3.8	1.49e+00	0	40	104	0	71	16391
2026-01-21 12:21:12.90	338.38	4.05	-50.4	-63.1	3.8	1.49e+00	0	40	104	0	71	16408
2026-01-21 12:21:13.91	338.47	4.00	-50.4	-63.1	3.8	1.49e+00	0	40	104	0	71	16378
2026-01-21 12:21:14.92	338.56	3.94	-50.4	-63.1	3.8	1.49e+00	0	40	104	0	71	16456
2026-01-21 12:21:15.93	338.65	3.89	-50.4	-63.1	3.8	1.49e+00	0	40	104	0	71	16383
2026-01-21 12:21:16.94	338.73	3.83	-50.4	-63.1	3.8	1.49e+00	0	40	104	0	71	16393
2026-01-21 12:21:17.94	338.82	3.78	-50.4	-63.1	3.8	1.49e+00	0	40	104	0	71	16470
2026-01-21 12:21:18.95	338.91	3.72	-50.4	-63.1	3.8	1.49e+00	0	40	104	0	71	16430
2026-01-21 12:21:19.96	338.99	3.67	-50.4	-63.1	3.8	1.49e+00	0	40	104	0	71	16453
2026-01-21 12:21:20.97	339.08	3.61	-50.4	-63.1	3.8	1.49e+00	0	40	104	0	71	16439
2026-01-21 12:21:21.98	339.16	3.56	-50.4	-63.1	3.8	1.49e+00	0	40	104	0	71	16445
2026-01-21 12:21:22.99	339.25	3.50	-50.4	-63.1	3.8	1.49e+00	0	40	104	0	71	16415
2026-01-21 12:21:24.00	339.33	3.45	-50.4	-63.1	3.8	1.49e+00	0	40	104	0	71	16407
2026-01-21 12:21:25.01	339.42	3.39	-50.4	-63.1	3.8	1.49e+00	0	40	104	0	71	16381
2026-01-21 12:21:26.01	339.50	3.34	-50.4	-63.1	3.8	1.49e+00	0	40	104	0	71	16386
2026-01-21 12:21:27.02	339.59	3.28	-50.4	-63.1	3.8	1.49e+00	0	40	104	0	71	16401
2026-01-21 12:21:28.03	339.67	3.23	-50.4	-63.1	3.8	1.49e+00	0	40	104	0	71	16409
2026-01-21 12:21:29.04	339.75	3.17	-50.4	-63.1	3.8	1.49e+00	0	40	104	0	71	16401
2026-01-21 12:21:30.05	339.84	3.12	-50.4	-63.1	3.8	1.49e+00	0	40	104	0	71	16374
2026-01-21 12:21:31.06	339.92	3.06	-50.4	-63.1	3.8	1.49e+00	0	40	104	0	71	16411
2026-01-21 12:21:32.07	340.00	3.01	-50.4	-63.1	3.8	1.49e+00	0	40	104	0	71	16465
2026-01-21 12:21:33.07	340.08	2.96	-50.4	-63.1	3.8	1.49e+00	0	40	104	0	71	16386
2026-01-21 12:21:34.08	340.16	2.90	-50.4	-63.1	3.8	1.49e+00	0	40	104	0	71	16395
2026-01-21 12:21:35.09	340.25	2.85	-50.4	-63.1	3.8	1.49e+00	0	40	104	0	71	16334
2026-01-21 12:21:36.10	340.33	2.79	-50.4	-63.1	3.8	1.49e+00	0	40	104	0	71	16389
