passes_logs/2026/01/21/R3.2S_Murmansk/R3.2S_Murmansk__20260121_151945_FENGYUN_3D_rec.log

#Pass ID: 20260121_151945_FENGYUN 3D
#Satellite: FENGYUN 3D
#Configuration: FENGYUN 3D
#almurnet v.1.7.20251203
#Start time: 2026-01-21 15:19:44

#Version: 2.2.20231116
#Station: R3.2S_Murmansk
#Location: 33.079688 lon 68.888172 lat
#TLE: 1 43010U 17072A   26020.92362722 -.00000077  00000+0 -14488-4 0  9992
#TLE: 2 43010  98.9946 352.8312 0002486  99.3651 260.7806 14.19696535424099

#Time	Az	El	Level	Level2	SNR	BER	BlckErr	Temp	State	Recorded	gain1	gain2
2026-01-21 15:19:44.87	251.01	1.99	-50.2	-62.1	3.8	8.47e-01	0	38	0	0	71	14688
2026-01-21 15:19:45.88	251.12	2.03	-50.2	-62.2	3.8	8.46e-01	0	38	104	0	70	15606
2026-01-21 15:19:46.89	251.23	2.07	-50.2	-62.2	3.8	8.46e-01	0	38	104	0	70	15590
2026-01-21 15:19:47.90	251.34	2.11	-50.2	-62.1	3.8	8.46e-01	0	38	104	0	70	15573
2026-01-21 15:19:48.91	251.44	2.15	-50.2	-62.1	3.8	8.45e-01	0	38	104	0	70	15576
2026-01-21 15:19:49.92	251.55	2.19	-50.2	-62.2	3.8	8.45e-01	0	38	104	0	70	15583
2026-01-21 15:19:50.92	251.66	2.23	-50.2	-62.1	3.8	8.47e-01	0	38	104	0	70	15525
2026-01-21 15:19:51.93	251.77	2.28	-50.2	-62.1	3.8	8.46e-01	0	38	104	0	70	15543
2026-01-21 15:19:52.94	251.88	2.32	-50.2	-62.2	3.8	8.46e-01	0	38	104	0	70	15594
2026-01-21 15:19:53.95	251.99	2.36	-50.2	-62.1	3.8	8.46e-01	0	38	104	0	70	15527
2026-01-21 15:19:54.96	252.10	2.40	-50.2	-62.1	3.8	8.46e-01	0	39	104	0	70	15530
2026-01-21 15:19:55.97	252.21	2.44	-50.2	-62.1	3.8	8.46e-01	0	38	104	0	70	15563
2026-01-21 15:19:56.97	252.32	2.48	-50.2	-62.1	3.8	8.45e-01	0	38	104	0	70	15543
2026-01-21 15:19:57.98	252.43	2.52	-50.2	-62.1	3.8	8.46e-01	0	38	104	0	70	15541
2026-01-21 15:19:58.99	252.54	2.56	-50.2	-62.1	3.8	8.45e-01	0	39	104	0	70	15556
2026-01-21 15:20:00.00	252.65	2.60	-50.2	-62.1	3.8	8.46e-01	0	38	104	0	70	15553
2026-01-21 15:20:01.01	252.76	2.64	-50.2	-62.1	3.8	8.47e-01	0	39	104	0	70	15525
2026-01-21 15:20:02.01	252.87	2.68	-50.2	-62.2	3.8	8.46e-01	0	39	104	0	70	15598
2026-01-21 15:20:03.02	252.98	2.72	-50.2	-62.1	3.8	8.47e-01	0	39	104	0	70	15572
2026-01-21 15:20:04.03	253.09	2.76	-50.2	-62.1	3.8	8.46e-01	0	39	104	0	70	15575
2026-01-21 15:20:05.04	253.21	2.81	-50.2	-62.1	3.8	8.46e-01	0	39	104	0	70	15563
2026-01-21 15:20:06.05	253.32	2.85	-50.2	-62.2	3.8	8.44e-01	0	39	104	0	70	15617
2026-01-21 15:20:07.05	253.43	2.89	-50.2	-62.2	3.8	8.46e-01	0	39	104	0	70	15591
2026-01-21 15:20:08.06	253.55	2.93	-50.2	-62.1	3.8	8.46e-01	0	39	104	0	70	15517
2026-01-21 15:20:09.07	253.66	2.97	-50.2	-62.1	3.8	8.46e-01	0	39	104	0	70	15574
2026-01-21 15:20:10.08	253.77	3.01	-50.2	-62.1	3.8	8.47e-01	0	39	104	0	71	14695
2026-01-21 15:20:11.09	253.89	3.05	-50.2	-62.1	3.8	8.47e-01	0	39	104	0	71	14681
2026-01-21 15:20:12.10	254.00	3.09	-50.2	-62.2	3.8	8.46e-01	0	39	104	0	71	14735
2026-01-21 15:20:13.11	254.12	3.13	-50.2	-62.1	3.8	8.46e-01	0	39	104	0	71	14699
2026-01-21 15:20:14.11	254.23	3.17	-50.2	-62.1	3.8	8.48e-01	0	39	104	0	71	14699
2026-01-21 15:20:15.12	254.35	3.21	-50.2	-62.1	3.8	8.47e-01	0	39	104	0	71	14697
2026-01-21 15:20:16.13	254.46	3.25	-50.2	-62.1	3.8	8.45e-01	0	39	104	0	71	14703
2026-01-21 15:20:17.14	254.58	3.29	-50.2	-62.1	3.8	8.46e-01	0	39	104	0	71	14642
2026-01-21 15:20:18.15	254.70	3.33	-50.2	-62.1	3.8	8.46e-01	0	39	104	0	71	14673
2026-01-21 15:20:19.16	254.81	3.37	-50.2	-62.1	3.8	8.46e-01	0	39	104	0	71	14702
2026-01-21 15:20:20.17	254.93	3.41	-50.2	-62.2	3.8	8.46e-01	0	39	104	0	71	14729
2026-01-21 15:20:21.18	255.05	3.45	-50.2	-62.1	3.8	8.46e-01	0	39	104	0	71	14702
2026-01-21 15:20:22.18	255.16	3.49	-50.2	-62.2	3.8	8.47e-01	0	39	104	0	71	14717
2026-01-21 15:20:23.19	255.28	3.53	-50.2	-62.1	3.8	8.45e-01	0	39	104	0	71	14691
2026-01-21 15:20:24.20	255.40	3.57	-50.2	-62.1	3.8	8.47e-01	0	39	104	0	71	14705
2026-01-21 15:20:25.21	255.52	3.61	-50.2	-62.2	3.8	8.47e-01	0	39	104	0	71	14720
2026-01-21 15:20:26.22	255.64	3.65	-50.2	-62.1	3.8	8.46e-01	0	39	104	0	71	14696
2026-01-21 15:20:27.22	255.76	3.69	-50.2	-62.1	3.8	8.46e-01	0	39	104	0	71	14703
2026-01-21 15:20:28.23	255.88	3.73	-50.2	-62.2	3.8	8.47e-01	0	39	104	0	71	14721
2026-01-21 15:20:29.24	255.99	3.77	-50.2	-62.2	3.8	8.46e-01	0	39	104	0	71	14717
2026-01-21 15:20:30.25	256.12	3.81	-50.2	-62.1	3.8	8.46e-01	0	39	104	0	71	14694
2026-01-21 15:20:31.26	256.24	3.85	-50.2	-62.1	3.8	8.47e-01	0	39	104	0	71	14653
2026-01-21 15:20:32.26	256.36	3.89	-50.2	-62.1	3.8	8.46e-01	0	39	104	0	71	14661
2026-01-21 15:20:33.27	256.48	3.93	-50.2	-62.2	3.8	8.46e-01	0	39	104	0	71	14719
2026-01-21 15:20:34.28	256.60	3.97	-50.2	-62.2	3.8	8.46e-01	0	39	104	0	71	14719
2026-01-21 15:20:35.29	256.72	4.01	-50.2	-62.2	3.8	8.47e-01	0	39	104	0	71	14726
2026-01-21 15:20:36.30	256.84	4.05	-50.2	-62.1	3.8	8.46e-01	0	39	104	0	71	14700
2026-01-21 15:20:37.31	256.96	4.09	-50.2	-62.1	3.8	8.47e-01	0	39	104	0	71	14661
2026-01-21 15:20:38.32	257.09	4.13	-50.2	-62.1	3.8	8.46e-01	0	39	104	0	71	14704
2026-01-21 15:20:39.33	257.21	4.17	-50.2	-62.2	3.8	8.46e-01	0	39	104	0	71	14746
2026-01-21 15:20:40.34	257.33	4.20	-50.2	-62.2	3.8	8.47e-01	0	39	104	0	71	14726
2026-01-21 15:20:41.35	257.46	4.24	-50.2	-62.1	3.8	8.46e-01	0	39	104	0	71	14705
2026-01-21 15:20:42.35	257.58	4.28	-50.2	-62.2	3.8	8.46e-01	0	39	104	0	71	14728
2026-01-21 15:20:43.36	257.70	4.32	-50.2	-62.2	3.8	8.46e-01	0	39	104	0	71	14745
2026-01-21 15:20:44.37	257.83	4.36	-50.2	-62.1	3.8	8.46e-01	0	39	104	0	71	14694
2026-01-21 15:20:45.38	257.95	4.40	-50.2	-62.2	3.8	8.47e-01	0	39	104	0	71	14718
2026-01-21 15:20:46.38	258.08	4.44	-50.2	-62.2	3.8	8.48e-01	0	39	104	0	71	14753
2026-01-21 15:20:47.39	258.20	4.48	-50.2	-62.2	3.8	8.47e-01	0	40	104	0	71	14722
2026-01-21 15:20:48.40	258.33	4.52	-50.2	-62.1	3.8	8.46e-01	0	39	104	0	71	14681
2026-01-21 15:20:49.41	258.45	4.56	-50.2	-62.2	3.8	8.46e-01	0	39	104	0	71	14712
2026-01-21 15:20:50.42	258.58	4.59	-50.2	-62.2	3.8	8.46e-01	0	39	104	0	71	14732
2026-01-21 15:20:51.43	258.71	4.63	-50.2	-62.2	3.8	8.45e-01	0	40	104	0	71	14746
2026-01-21 15:20:52.43	258.83	4.67	-50.2	-62.2	3.8	8.46e-01	0	39	104	0	71	14744
2026-01-21 15:20:53.45	258.96	4.71	-50.2	-62.1	3.8	8.48e-01	0	40	104	0	71	14694
2026-01-21 15:20:54.45	259.09	4.75	-50.2	-62.2	3.8	8.46e-01	0	39	104	0	71	14715
2026-01-21 15:20:55.46	259.22	4.79	-50.2	-62.1	3.8	8.46e-01	0	40	104	0	71	14696
2026-01-21 15:20:56.47	259.35	4.83	-50.2	-62.2	3.8	8.47e-01	0	40	104	0	71	14746
2026-01-21 15:20:57.48	259.47	4.86	-50.2	-62.2	3.8	8.46e-01	0	40	104	0	71	14713
2026-01-21 15:20:58.49	259.60	4.90	-50.2	-62.2	3.8	8.46e-01	0	40	104	0	71	14725
2026-01-21 15:20:59.50	259.73	4.94	-50.2	-62.1	3.8	8.47e-01	0	39	104	0	71	14649
2026-01-21 15:21:00.50	259.86	4.98	-50.2	-62.2	3.8	8.45e-01	0	40	104	0	71	14721
2026-01-21 15:21:01.51	259.99	5.02	-50.2	-62.1	3.8	8.46e-01	0	40	104	0	71	14695
2026-01-21 15:21:02.52	260.12	5.05	-50.2	-62.2	3.8	8.46e-01	0	39	104	0	71	14723
2026-01-21 15:21:03.53	260.25	5.09	-50.2	-62.2	3.8	8.45e-01	0	40	104	0	71	14722
2026-01-21 15:21:04.54	260.38	5.13	-50.2	-62.2	3.8	8.46e-01	0	39	104	0	71	14742
2026-01-21 15:21:05.54	260.51	5.17	-50.2	-62.2	3.8	8.45e-01	0	40	104	0	71	14721
2026-01-21 15:21:06.55	260.65	5.21	-50.2	-62.2	3.8	8.46e-01	0	40	104	0	71	14725
2026-01-21 15:21:07.56	260.78	5.24	-50.2	-62.2	3.8	8.45e-01	0	40	104	0	71	14730
2026-01-21 15:21:08.57	260.91	5.28	-50.2	-62.1	3.8	8.45e-01	0	39	104	0	71	14686
2026-01-21 15:21:09.58	261.04	5.32	-50.2	-62.2	3.8	8.46e-01	0	39	104	0	71	14719
2026-01-21 15:21:10.58	261.17	5.36	-50.2	-62.2	3.8	8.46e-01	0	40	104	0	71	14712
2026-01-21 15:21:11.59	261.31	5.39	-50.2	-62.1	3.8	8.46e-01	0	40	104	0	71	14708
2026-01-21 15:21:12.60	261.44	5.43	-50.2	-62.1	3.8	8.47e-01	0	40	104	0	71	14688
2026-01-21 15:21:13.61	261.57	5.47	-50.2	-62.2	3.8	8.46e-01	0	40	104	0	71	14754
2026-01-21 15:21:14.62	261.71	5.50	-50.2	-62.1	3.8	8.46e-01	0	40	104	0	71	14698
2026-01-21 15:21:15.63	261.84	5.54	-50.2	-62.2	3.8	8.48e-01	0	40	104	0	71	14713
2026-01-21 15:21:16.64	261.98	5.58	-50.2	-62.2	3.8	8.46e-01	0	40	104	0	71	14749
2026-01-21 15:21:17.65	262.11	5.62	-50.2	-62.2	3.8	8.46e-01	0	40	104	0	71	14716
2026-01-21 15:21:18.66	262.25	5.65	-50.2	-62.1	3.8	8.46e-01	0	40	104	0	71	14695
2026-01-21 15:21:19.66	262.38	5.69	-50.2	-62.2	3.8	8.46e-01	0	40	104	0	71	14723
2026-01-21 15:21:20.67	262.52	5.73	-50.2	-62.1	3.8	8.47e-01	0	40	104	0	71	14697
2026-01-21 15:21:21.68	262.66	5.76	-50.2	-62.2	3.8	8.45e-01	0	40	104	0	71	14752
2026-01-21 15:21:22.69	262.79	5.80	-50.2	-62.2	3.8	8.48e-01	0	40	104	0	71	14716
2026-01-21 15:21:23.70	262.93	5.84	-50.2	-62.2	3.8	8.46e-01	0	40	104	0	71	14748
2026-01-21 15:21:24.71	263.07	5.87	-50.2	-62.2	3.8	8.47e-01	0	40	104	0	71	14722
2026-01-21 15:21:25.72	263.21	5.91	-50.2	-62.2	3.8	8.46e-01	0	40	104	0	71	14741
2026-01-21 15:21:26.73	263.35	5.94	-50.2	-62.2	3.8	8.47e-01	0	40	104	0	71	14739
2026-01-21 15:21:27.73	263.48	5.98	-50.2	-62.2	3.8	8.46e-01	0	40	104	0	71	14733
2026-01-21 15:21:28.74	263.62	6.02	-50.2	-62.2	3.8	8.45e-01	0	40	104	0	71	14726
2026-01-21 15:21:29.75	263.76	6.05	-50.2	-62.2	3.8	8.46e-01	0	40	104	0	71	14792
2026-01-21 15:21:30.76	263.90	6.09	-50.2	-62.2	3.8	8.46e-01	0	40	104	0	71	14725
2026-01-21 15:21:31.77	264.04	6.12	-50.2	-62.2	3.8	8.47e-01	0	40	104	0	71	14730
2026-01-21 15:21:32.78	264.18	6.16	-50.2	-62.2	3.8	8.46e-01	0	40	104	0	71	14728
2026-01-21 15:21:33.79	264.32	6.19	-50.2	-62.2	3.8	8.47e-01	0	40	104	0	71	14736
2026-01-21 15:21:34.79	264.46	6.23	-50.2	-62.2	3.8	8.46e-01	0	40	104	0	71	14725
2026-01-21 15:21:35.81	264.60	6.27	-50.3	-62.2	3.8	8.46e-01	0	40	104	0	71	14738
2026-01-21 15:21:36.81	264.74	6.30	-50.2	-62.2	3.8	8.46e-01	0	40	104	0	71	14743
2026-01-21 15:21:37.82	264.88	6.34	-50.2	-62.2	3.8	8.46e-01	0	40	104	0	71	14755
2026-01-21 15:21:38.83	265.03	6.37	-50.2	-62.2	3.8	8.47e-01	0	40	104	0	71	14762
2026-01-21 15:21:39.84	265.17	6.41	-50.2	-62.2	3.8	8.45e-01	0	40	104	0	71	14747
2026-01-21 15:21:40.84	265.31	6.44	-50.2	-62.2	3.8	8.45e-01	0	40	104	0	71	14729
2026-01-21 15:21:41.85	265.45	6.48	-50.2	-62.2	3.8	8.47e-01	0	40	104	0	71	14723
2026-01-21 15:21:42.86	265.60	6.51	-50.2	-62.1	3.8	8.47e-01	0	40	104	0	71	14689
2026-01-21 15:21:43.87	265.74	6.54	-50.2	-62.2	3.8	8.47e-01	0	40	104	0	71	14742
2026-01-21 15:21:44.88	265.89	6.58	-50.2	-62.2	3.8	8.48e-01	0	40	104	0	71	14774
2026-01-21 15:21:45.88	266.03	6.61	-50.2	-62.2	3.8	8.47e-01	0	40	104	0	71	14727
2026-01-21 15:21:46.89	266.17	6.65	-50.2	-62.2	3.8	8.46e-01	0	40	104	0	71	14722
2026-01-21 15:21:47.90	266.32	6.68	-50.2	-62.2	3.8	8.46e-01	0	40	104	0	71	14732
2026-01-21 15:21:48.91	266.46	6.72	-50.2	-62.2	3.8	8.46e-01	0	40	104	0	71	14748
2026-01-21 15:21:49.92	266.61	6.75	-50.2	-62.2	3.8	8.46e-01	0	40	104	0	71	14736
2026-01-21 15:21:50.93	266.76	6.78	-50.2	-62.2	3.8	8.46e-01	0	40	104	0	71	14739
2026-01-21 15:21:51.93	266.90	6.82	-50.2	-62.2	3.8	8.46e-01	0	40	104	0	71	14752
2026-01-21 15:21:52.94	267.05	6.85	-50.2	-62.2	3.8	8.47e-01	0	40	104	0	71	14763
2026-01-21 15:21:53.95	267.19	6.88	-50.2	-62.2	3.8	8.46e-01	0	40	104	0	71	14745
2026-01-21 15:21:54.96	267.34	6.92	-50.2	-62.2	3.8	8.46e-01	0	40	104	0	71	14769
2026-01-21 15:21:55.97	267.49	6.95	-50.2	-62.1	3.8	8.46e-01	0	40	104	0	71	14686
2026-01-21 15:21:56.98	267.64	6.98	-50.2	-62.2	3.8	8.46e-01	0	40	104	0	71	14714
2026-01-21 15:21:57.98	267.78	7.02	-50.2	-62.1	3.8	8.46e-01	0	40	104	0	71	14694
2026-01-21 15:21:58.99	267.93	7.05	-50.2	-62.1	3.8	8.47e-01	0	40	104	0	71	14702
2026-01-21 15:22:00.00	268.08	7.08	-50.2	-62.2	3.8	8.46e-01	0	40	104	0	71	14774
2026-01-21 15:22:01.01	268.23	7.11	-50.2	-62.2	3.8	8.47e-01	0	40	104	0	71	14738
2026-01-21 15:22:02.02	268.38	7.15	-50.2	-62.2	3.8	8.47e-01	0	40	104	0	71	14715
2026-01-21 15:22:03.03	268.53	7.18	-50.2	-62.1	3.8	8.47e-01	0	40	104	0	71	14703
2026-01-21 15:22:04.04	268.68	7.21	-50.2	-62.2	3.8	8.45e-01	0	40	104	0	71	14710
2026-01-21 15:22:05.05	268.83	7.24	-50.2	-62.2	3.8	8.46e-01	0	40	104	0	71	14739
2026-01-21 15:22:06.06	268.98	7.28	-50.2	-62.2	3.8	8.46e-01	0	40	104	0	71	14782
2026-01-21 15:22:07.07	269.13	7.31	-50.2	-62.2	3.8	8.46e-01	0	40	104	0	71	14768
2026-01-21 15:22:08.07	269.28	7.34	-50.2	-62.2	3.8	8.46e-01	0	40	104	0	71	14762
2026-01-21 15:22:09.08	269.44	7.37	-50.2	-62.2	3.8	8.45e-01	0	40	104	0	71	14719
2026-01-21 15:22:10.09	269.59	7.40	-50.2	-62.2	3.8	8.45e-01	0	40	104	0	71	14738
2026-01-21 15:22:11.10	269.74	7.43	-50.2	-62.1	3.8	8.46e-01	0	40	104	0	71	14705
2026-01-21 15:22:12.11	269.89	7.46	-50.2	-62.2	3.8	8.46e-01	0	40	104	0	71	14729
2026-01-21 15:22:13.12	270.05	7.50	-50.2	-62.2	3.8	8.47e-01	0	40	104	0	71	14767
2026-01-21 15:22:14.13	270.20	7.53	-50.2	-62.2	3.8	8.45e-01	0	40	104	0	71	14757
2026-01-21 15:22:15.14	270.35	7.56	-50.2	-62.2	3.8	8.46e-01	0	40	104	0	71	14740
2026-01-21 15:22:16.14	270.51	7.59	-50.2	-62.2	3.8	8.46e-01	0	40	104	0	71	14738
2026-01-21 15:22:17.15	270.66	7.62	-50.2	-62.2	3.8	8.46e-01	0	40	104	0	71	14714
2026-01-21 15:22:18.17	270.82	7.65	-50.2	-62.2	3.8	8.46e-01	0	40	104	0	71	14725
2026-01-21 15:22:19.17	270.97	7.68	-50.2	-62.1	3.8	8.45e-01	0	40	104	0	71	14706
2026-01-21 15:22:20.18	271.13	7.71	-50.2	-62.2	3.8	8.46e-01	0	40	104	0	71	14720
2026-01-21 15:22:21.19	271.28	7.74	-50.2	-62.2	3.8	8.46e-01	0	40	104	0	71	14756
2026-01-21 15:22:22.20	271.44	7.77	-50.2	-62.2	3.8	8.45e-01	0	40	104	0	71	14762
2026-01-21 15:22:23.20	271.59	7.80	-50.2	-62.2	3.8	8.46e-01	0	40	104	0	71	14723
2026-01-21 15:22:24.21	271.75	7.83	-50.2	-62.2	3.8	8.44e-01	0	40	104	0	71	14710
2026-01-21 15:22:25.22	271.91	7.86	-50.2	-62.2	3.8	8.47e-01	0	40	104	0	71	14749
2026-01-21 15:22:26.23	272.06	7.89	-50.2	-62.2	3.8	8.47e-01	0	40	104	0	71	14720
2026-01-21 15:22:27.24	272.22	7.92	-50.2	-62.2	3.8	8.46e-01	0	40	104	0	71	14765
2026-01-21 15:22:28.25	272.38	7.95	-50.2	-62.2	3.8	8.47e-01	0	40	104	0	71	14723
2026-01-21 15:22:29.26	272.54	7.97	-50.2	-62.2	3.8	8.44e-01	0	40	104	0	71	14730
2026-01-21 15:22:30.27	272.69	8.00	-50.2	-62.2	3.8	8.45e-01	0	40	104	0	71	14756
2026-01-21 15:22:31.27	272.85	8.03	-50.2	-62.2	3.8	8.46e-01	0	40	104	0	71	14735
2026-01-21 15:22:32.28	273.01	8.06	-50.2	-62.2	3.8	8.46e-01	0	40	104	0	71	14775
2026-01-21 15:22:33.29	273.17	8.09	-50.2	-62.2	3.8	8.47e-01	0	40	104	0	71	14755
2026-01-21 15:22:34.30	273.33	8.12	-50.2	-62.1	3.8	8.47e-01	0	40	104	0	71	14687
2026-01-21 15:22:35.31	273.49	8.14	-50.2	-62.2	3.8	8.47e-01	0	40	104	0	71	14740
2026-01-21 15:22:36.31	273.65	8.17	-50.2	-62.2	3.8	8.47e-01	0	40	104	0	71	14741
2026-01-21 15:22:37.32	273.81	8.20	-50.3	-62.2	3.8	8.46e-01	0	40	104	0	71	14752
2026-01-21 15:22:38.33	273.97	8.23	-50.2	-62.2	3.8	8.47e-01	0	40	104	0	71	14725
2026-01-21 15:22:39.34	274.13	8.25	-50.2	-62.2	3.8	8.46e-01	0	40	104	0	71	14760
2026-01-21 15:22:40.35	274.29	8.28	-50.2	-62.2	3.8	8.46e-01	0	40	104	0	71	14748
2026-01-21 15:22:41.36	274.45	8.31	-50.2	-62.2	3.8	8.46e-01	0	40	104	0	71	14770
2026-01-21 15:22:42.37	274.61	8.33	-50.2	-62.2	3.8	8.47e-01	0	40	104	0	71	14737
2026-01-21 15:22:43.37	274.78	8.36	-50.2	-62.2	3.8	8.46e-01	0	40	104	0	71	14710
2026-01-21 15:22:44.38	274.94	8.39	-50.2	-62.2	3.8	8.45e-01	0	40	104	0	71	14715
2026-01-21 15:22:45.39	275.10	8.41	-50.2	-62.2	3.8	8.46e-01	0	40	104	0	71	14743
2026-01-21 15:22:46.40	275.26	8.44	-50.2	-62.2	3.8	8.46e-01	0	40	104	0	71	14746
2026-01-21 15:22:47.41	275.43	8.46	-50.2	-62.1	3.8	8.46e-01	0	40	104	0	71	14703
2026-01-21 15:22:48.42	275.59	8.49	-50.2	-62.2	3.8	8.45e-01	0	40	104	0	71	14748
2026-01-21 15:22:49.43	275.75	8.52	-50.2	-62.2	3.8	8.46e-01	0	40	104	0	71	14779
2026-01-21 15:22:50.43	275.92	8.54	-50.2	-62.2	3.8	8.46e-01	0	40	104	0	71	14717
2026-01-21 15:22:51.44	276.08	8.57	-50.2	-62.2	3.8	8.46e-01	0	40	104	0	71	14775
2026-01-21 15:22:52.45	276.25	8.59	-50.2	-62.2	3.8	8.45e-01	0	40	104	0	71	14763
2026-01-21 15:22:53.46	276.41	8.62	-50.2	-62.2	3.8	8.48e-01	0	40	104	0	71	14730
2026-01-21 15:22:54.47	276.58	8.64	-50.2	-62.2	3.8	8.46e-01	0	40	104	0	71	14711
2026-01-21 15:22:55.48	276.74	8.67	-50.2	-62.2	3.8	8.46e-01	0	40	104	0	71	14719
2026-01-21 15:22:56.48	276.91	8.69	-50.2	-62.2	3.8	8.47e-01	0	40	104	0	71	14777
2026-01-21 15:22:57.49	277.07	8.71	-50.2	-62.2	3.8	8.46e-01	0	40	104	0	71	14764
2026-01-21 15:22:58.50	277.24	8.74	-50.2	-62.2	3.8	8.46e-01	0	40	104	0	71	14790
2026-01-21 15:22:59.51	277.40	8.76	-50.2	-62.2	3.8	8.46e-01	0	40	104	0	71	14792
2026-01-21 15:23:00.52	277.57	8.78	-50.2	-62.2	3.8	8.46e-01	0	40	104	0	71	14746
2026-01-21 15:23:01.53	277.74	8.81	-50.2	-62.2	3.8	8.46e-01	0	40	104	0	71	14713
2026-01-21 15:23:02.53	277.90	8.83	-50.2	-62.2	3.8	8.46e-01	0	40	104	0	71	14734
2026-01-21 15:23:03.54	278.07	8.85	-50.2	-62.2	3.8	8.45e-01	0	40	104	0	71	14718
2026-01-21 15:23:04.55	278.24	8.88	-50.2	-62.2	3.8	8.46e-01	0	40	104	0	71	14744
2026-01-21 15:23:05.56	278.41	8.90	-50.3	-62.2	3.8	8.46e-01	0	40	104	0	71	14754
2026-01-21 15:23:06.57	278.57	8.92	-50.2	-62.2	3.8	8.45e-01	0	40	104	0	71	14739
2026-01-21 15:23:07.58	278.74	8.94	-50.2	-62.2	3.8	8.48e-01	0	40	104	0	71	14768
2026-01-21 15:23:08.58	278.91	8.97	-50.2	-62.2	3.8	8.46e-01	0	40	104	0	71	14762
2026-01-21 15:23:09.59	279.08	8.99	-50.3	-62.2	3.8	8.46e-01	0	40	104	0	71	14772
2026-01-21 15:23:10.60	279.25	9.01	-50.2	-62.2	3.8	8.47e-01	0	40	104	0	71	14753
2026-01-21 15:23:11.61	279.42	9.03	-50.2	-62.2	3.8	8.46e-01	0	40	104	0	71	14733
2026-01-21 15:23:12.62	279.59	9.05	-50.2	-62.2	3.8	8.46e-01	0	40	104	0	71	14732
2026-01-21 15:23:13.62	279.76	9.07	-50.2	-62.2	3.8	8.46e-01	0	40	104	0	71	14736
2026-01-21 15:23:14.63	279.93	9.09	-50.2	-62.2	3.8	8.47e-01	0	40	104	0	71	14737
2026-01-21 15:23:15.64	280.10	9.11	-50.2	-62.1	3.8	8.46e-01	0	40	104	0	71	14706
2026-01-21 15:23:16.65	280.27	9.13	-50.2	-62.1	3.8	8.46e-01	0	40	104	0	71	14706
2026-01-21 15:23:17.66	280.44	9.16	-50.2	-62.2	3.8	8.47e-01	0	40	104	0	71	14736
2026-01-21 15:23:18.67	280.61	9.18	-50.2	-62.2	3.8	8.46e-01	0	40	104	0	71	14716
2026-01-21 15:23:19.68	280.78	9.19	-50.3	-62.2	3.8	8.47e-01	0	40	104	0	71	14734
2026-01-21 15:23:20.68	280.95	9.21	-50.2	-62.2	3.8	8.46e-01	0	40	104	0	71	14710
2026-01-21 15:23:21.69	281.12	9.23	-50.2	-62.1	3.8	8.46e-01	0	40	104	0	71	14705
2026-01-21 15:23:22.70	281.29	9.25	-50.2	-62.2	3.8	8.46e-01	0	40	104	0	71	14712
2026-01-21 15:23:23.71	281.47	9.27	-50.2	-62.2	3.8	8.46e-01	0	40	104	0	71	14771
2026-01-21 15:23:24.72	281.64	9.29	-50.2	-62.2	3.8	8.47e-01	0	40	104	0	71	14730
2026-01-21 15:23:25.72	281.81	9.31	-50.2	-62.2	3.8	8.46e-01	0	40	104	0	71	14760
2026-01-21 15:23:26.73	281.98	9.33	-50.2	-62.2	3.8	8.47e-01	0	40	104	0	71	14734
2026-01-21 15:23:27.74	282.16	9.35	-50.2	-62.2	3.8	8.46e-01	0	40	104	0	71	14733
2026-01-21 15:23:28.75	282.33	9.36	-50.2	-62.2	3.8	8.46e-01	0	40	104	0	71	14758
2026-01-21 15:23:29.76	282.50	9.38	-50.2	-62.2	3.8	8.46e-01	0	40	104	0	71	14740
2026-01-21 15:23:30.77	282.68	9.40	-50.2	-62.2	3.8	8.45e-01	0	40	104	0	71	14734
2026-01-21 15:23:31.78	282.85	9.42	-50.2	-62.2	3.8	8.46e-01	0	40	104	0	71	14769
2026-01-21 15:23:32.78	283.02	9.43	-50.2	-62.2	3.8	8.46e-01	0	40	104	0	71	14738
2026-01-21 15:23:33.79	283.20	9.45	-50.2	-62.2	3.8	8.46e-01	0	40	104	0	71	14716
2026-01-21 15:23:34.80	283.37	9.47	-50.2	-62.2	3.8	8.46e-01	0	40	104	0	71	14710
2026-01-21 15:23:35.81	283.55	9.48	-50.2	-62.2	3.8	8.45e-01	0	40	104	0	71	14762
2026-01-21 15:23:36.82	283.72	9.50	-50.2	-62.2	3.8	8.46e-01	0	40	104	0	71	14715
2026-01-21 15:23:37.83	283.90	9.52	-50.2	-62.2	3.8	8.47e-01	0	40	104	0	71	14730
2026-01-21 15:23:38.84	284.07	9.53	-50.2	-62.2	3.8	8.47e-01	0	40	104	0	71	14722
2026-01-21 15:23:39.85	284.25	9.55	-50.3	-62.2	3.8	8.46e-01	0	40	104	0	71	14765
2026-01-21 15:23:40.85	284.42	9.56	-50.2	-62.2	3.8	8.46e-01	0	40	104	0	71	14743
2026-01-21 15:23:41.86	284.60	9.58	-50.2	-62.2	3.8	8.46e-01	0	40	104	0	71	14762
2026-01-21 15:23:42.87	284.77	9.59	-50.2	-62.2	3.8	8.46e-01	0	40	104	0	71	14758
2026-01-21 15:23:43.88	284.95	9.61	-50.2	-62.1	3.8	8.46e-01	0	40	104	0	71	14701
2026-01-21 15:23:44.89	285.12	9.62	-50.2	-62.2	3.8	8.46e-01	0	40	104	0	71	14735
2026-01-21 15:23:45.90	285.30	9.64	-50.2	-62.1	3.8	8.48e-01	0	40	104	0	71	14696
2026-01-21 15:23:46.91	285.48	9.65	-50.2	-62.2	3.8	8.46e-01	0	40	104	0	71	14798
2026-01-21 15:23:47.91	285.65	9.66	-50.2	-62.2	3.8	8.46e-01	0	40	104	0	71	14778
2026-01-21 15:23:48.92	285.83	9.68	-50.2	-62.2	3.8	8.45e-01	0	40	104	0	71	14800
2026-01-21 15:23:49.93	286.01	9.69	-50.2	-62.2	3.8	8.46e-01	0	40	104	0	71	14742
2026-01-21 15:23:50.94	286.18	9.70	-50.2	-62.2	3.8	8.46e-01	0	40	104	0	71	14746
2026-01-21 15:23:51.95	286.36	9.72	-50.3	-62.2	3.8	8.46e-01	0	40	104	0	71	14743
2026-01-21 15:23:52.96	286.54	9.73	-50.2	-62.2	3.8	8.45e-01	0	40	104	0	71	14719
2026-01-21 15:23:53.97	286.72	9.74	-50.2	-62.2	3.8	8.45e-01	0	40	104	0	71	14807
2026-01-21 15:23:54.98	286.89	9.75	-50.2	-62.2	3.8	8.47e-01	0	40	104	0	71	14752
2026-01-21 15:23:55.98	287.07	9.76	-50.2	-62.2	3.8	8.45e-01	0	40	104	0	71	14759
2026-01-21 15:23:56.99	287.25	9.78	-50.3	-62.2	3.8	8.45e-01	0	40	104	0	71	14753
2026-01-21 15:23:58.00	287.43	9.79	-50.2	-62.2	3.8	8.47e-01	0	40	104	0	71	14738
2026-01-21 15:23:59.01	287.60	9.80	-50.3	-62.2	3.8	8.46e-01	0	40	104	0	71	14768
2026-01-21 15:24:00.02	287.78	9.81	-50.2	-62.2	3.8	8.46e-01	0	40	104	0	71	14752
2026-01-21 15:24:01.03	287.96	9.82	-50.2	-62.1	3.8	8.46e-01	0	40	104	0	71	14705
2026-01-21 15:24:02.04	288.14	9.83	-50.2	-62.2	3.8	8.46e-01	0	40	104	0	71	14748
2026-01-21 15:24:03.05	288.32	9.84	-50.2	-62.1	3.8	8.46e-01	0	40	104	0	71	14692
2026-01-21 15:24:04.05	288.50	9.85	-50.2	-62.2	3.8	8.46e-01	0	40	104	0	71	14736
2026-01-21 15:24:05.06	288.67	9.86	-50.2	-62.1	3.8	8.47e-01	0	40	104	0	71	14679
2026-01-21 15:24:06.06	288.85	9.87	-50.2	-62.2	3.8	8.46e-01	0	40	104	0	71	14766
2026-01-21 15:24:07.07	289.03	9.88	-50.2	-62.1	3.8	8.46e-01	0	40	104	0	71	14677
2026-01-21 15:24:08.08	289.21	9.89	-50.3	-62.2	3.8	8.44e-01	0	40	104	0	71	14736
2026-01-21 15:24:09.09	289.39	9.90	-50.2	-62.2	3.8	8.45e-01	0	40	104	0	71	14715
2026-01-21 15:24:10.10	289.57	9.91	-50.2	-62.2	3.8	8.47e-01	0	40	104	0	71	14735
2026-01-21 15:24:11.11	289.75	9.91	-50.2	-62.2	3.8	8.47e-01	0	40	104	0	71	14712
2026-01-21 15:24:12.11	289.93	9.92	-50.2	-62.1	3.8	8.46e-01	0	40	104	0	71	14696
2026-01-21 15:24:13.12	290.11	9.93	-50.2	-62.2	3.8	8.45e-01	0	40	104	0	71	14785
2026-01-21 15:24:14.13	290.29	9.94	-50.2	-62.2	3.8	8.46e-01	0	40	104	0	71	14722
2026-01-21 15:24:15.14	290.47	9.94	-50.2	-62.2	3.8	8.46e-01	0	40	104	0	71	14760
2026-01-21 15:24:16.15	290.65	9.95	-50.2	-62.2	3.8	8.46e-01	0	40	104	0	71	14777
2026-01-21 15:24:17.16	290.83	9.96	-50.2	-62.2	3.8	8.46e-01	0	40	104	0	71	14765
2026-01-21 15:24:18.16	291.01	9.97	-50.2	-62.2	3.8	8.46e-01	0	40	104	0	71	14747
2026-01-21 15:24:19.17	291.19	9.97	-50.3	-62.1	3.8	8.46e-01	0	40	104	0	71	14708
2026-01-21 15:24:20.18	291.37	9.98	-50.2	-62.2	3.8	8.45e-01	0	40	104	0	71	14753
2026-01-21 15:24:21.19	291.55	9.98	-50.3	-62.2	3.8	8.46e-01	0	40	104	0	71	14757
2026-01-21 15:24:22.20	291.73	9.99	-50.2	-62.2	3.8	8.46e-01	0	40	104	0	71	14759
2026-01-21 15:24:23.21	291.91	9.99	-50.2	-62.2	3.8	8.46e-01	0	40	104	0	71	14770
2026-01-21 15:24:24.22	292.09	10.00	-50.2	-62.2	3.8	8.47e-01	0	40	104	0	71	14748
2026-01-21 15:24:25.22	292.27	10.00	-50.3	-62.2	3.8	8.45e-01	0	40	104	0	71	14733
2026-01-21 15:24:26.23	292.45	10.01	-50.2	-62.2	3.8	8.45e-01	0	40	104	0	71	14758
2026-01-21 15:24:27.24	292.63	10.01	-50.3	-62.2	3.8	8.46e-01	0	40	104	0	71	14746
2026-01-21 15:24:28.25	292.81	10.02	-50.2	-62.2	3.8	8.45e-01	0	40	104	0	71	14752
2026-01-21 15:24:29.26	292.99	10.02	-50.2	-62.2	3.8	8.46e-01	0	40	104	0	71	14742
2026-01-21 15:24:30.26	293.17	10.03	-50.2	-62.2	3.8	8.46e-01	0	40	104	0	71	14734
2026-01-21 15:24:31.27	293.35	10.03	-50.2	-62.2	3.8	8.47e-01	0	40	104	0	71	14787
2026-01-21 15:24:32.28	293.53	10.03	-50.2	-62.2	3.8	8.46e-01	0	40	104	0	71	14787
2026-01-21 15:24:33.29	293.71	10.03	-50.2	-62.2	3.8	8.45e-01	0	40	104	0	71	14760
2026-01-21 15:24:34.30	293.89	10.04	-50.2	-62.2	3.8	8.45e-01	0	40	104	0	71	14777
2026-01-21 15:24:35.31	294.08	10.04	-50.2	-62.2	3.8	8.46e-01	0	40	104	0	71	14792
2026-01-21 15:24:36.32	294.26	10.04	-50.2	-62.2	3.8	8.46e-01	0	40	104	0	71	14710
2026-01-21 15:24:37.33	294.44	10.04	-50.2	-62.1	3.8	8.47e-01	0	40	104	0	71	14707
2026-01-21 15:24:38.34	294.62	10.05	-50.2	-62.2	3.8	8.46e-01	0	40	104	0	71	14726
2026-01-21 15:24:39.35	294.80	10.05	-50.2	-62.2	3.8	8.47e-01	0	40	104	0	71	14750
2026-01-21 15:24:40.35	294.98	10.05	-50.2	-62.2	3.8	8.46e-01	0	40	104	0	71	14741
2026-01-21 15:24:41.36	295.16	10.05	-50.2	-62.2	3.8	8.45e-01	0	40	104	0	71	14741
2026-01-21 15:24:42.37	295.34	10.05	-50.2	-62.2	3.8	8.45e-01	0	40	104	0	71	14744
2026-01-21 15:24:43.38	295.52	10.05	-50.2	-62.2	3.8	8.46e-01	0	40	104	0	71	14751
2026-01-21 15:24:44.39	295.70	10.05	-50.2	-62.2	3.8	8.46e-01	0	40	104	0	71	14742
2026-01-21 15:24:45.40	295.89	10.05	-50.2	-62.2	3.8	8.47e-01	0	40	104	0	71	14739
2026-01-21 15:24:46.40	296.07	10.05	-50.2	-62.2	3.8	8.45e-01	0	40	104	0	71	14739
2026-01-21 15:24:47.41	296.25	10.05	-50.3	-62.2	3.8	8.45e-01	0	40	104	0	71	14759
2026-01-21 15:24:48.42	296.43	10.05	-50.2	-62.2	3.8	8.47e-01	0	40	104	0	71	14739
2026-01-21 15:24:49.43	296.61	10.05	-50.2	-62.2	3.8	8.46e-01	0	40	104	0	71	14714
2026-01-21 15:24:50.44	296.79	10.05	-50.3	-62.2	3.8	8.46e-01	0	40	104	0	71	14764
2026-01-21 15:24:51.45	296.97	10.04	-50.2	-62.2	3.8	8.45e-01	0	40	104	0	71	14728
2026-01-21 15:24:52.46	297.15	10.04	-50.2	-62.1	3.8	8.46e-01	0	40	104	0	71	14687
2026-01-21 15:24:53.47	297.33	10.04	-50.3	-62.2	3.8	8.46e-01	0	40	104	0	71	14779
2026-01-21 15:24:54.47	297.51	10.04	-50.2	-62.2	3.8	8.46e-01	0	40	104	0	71	14726
2026-01-21 15:24:55.48	297.69	10.03	-50.2	-62.2	3.8	8.46e-01	0	40	104	0	71	14726
2026-01-21 15:24:56.49	297.87	10.03	-50.2	-62.2	3.8	8.46e-01	0	40	104	0	71	14776
2026-01-21 15:24:57.50	298.06	10.03	-50.2	-62.2	3.8	8.48e-01	0	40	104	0	71	14745
2026-01-21 15:24:58.51	298.24	10.03	-50.2	-62.1	3.8	8.47e-01	0	40	104	0	71	14696
2026-01-21 15:24:59.52	298.42	10.02	-50.2	-62.1	3.8	8.46e-01	0	40	104	0	71	14700
2026-01-21 15:25:00.52	298.60	10.02	-50.2	-62.2	3.8	8.45e-01	0	40	104	0	71	14758
2026-01-21 15:25:01.53	298.78	10.01	-50.2	-62.2	3.8	8.46e-01	0	40	104	0	71	14775
2026-01-21 15:25:02.54	298.96	10.01	-50.2	-62.2	3.8	8.45e-01	0	40	104	0	71	14718
2026-01-21 15:25:03.55	299.14	10.01	-50.2	-62.2	3.8	8.47e-01	0	40	104	0	71	14723
2026-01-21 15:25:04.56	299.32	10.00	-50.2	-62.2	3.8	8.47e-01	0	40	104	0	71	14714
2026-01-21 15:25:05.56	299.50	10.00	-50.2	-62.2	3.8	8.45e-01	0	40	104	0	71	14742
2026-01-21 15:25:06.57	299.68	9.99	-50.2	-62.1	3.8	8.46e-01	0	40	104	0	71	14681
2026-01-21 15:25:07.58	299.86	9.98	-50.2	-62.2	3.8	8.47e-01	0	40	104	0	71	14745
2026-01-21 15:25:08.59	300.04	9.98	-50.2	-62.2	3.8	8.46e-01	0	40	104	0	71	14749
2026-01-21 15:25:09.60	300.22	9.97	-50.2	-62.1	3.8	8.46e-01	0	40	104	0	71	14680
2026-01-21 15:25:10.61	300.40	9.97	-50.2	-62.2	3.8	8.47e-01	0	40	104	0	71	14773
2026-01-21 15:25:11.61	300.58	9.96	-50.2	-62.2	3.8	8.46e-01	0	40	104	0	71	14734
2026-01-21 15:25:12.62	300.76	9.95	-50.2	-62.2	3.8	8.47e-01	0	40	104	0	71	14715
2026-01-21 15:25:13.63	300.94	9.95	-50.2	-62.2	3.8	8.46e-01	0	40	104	0	71	14744
2026-01-21 15:25:14.64	301.12	9.94	-50.2	-62.2	3.8	8.47e-01	0	40	104	0	71	14766
2026-01-21 15:25:15.64	301.30	9.93	-50.2	-62.2	3.8	8.46e-01	0	40	104	0	71	14753
2026-01-21 15:25:16.65	301.48	9.92	-50.2	-62.2	3.8	8.48e-01	0	40	104	0	71	14745
2026-01-21 15:25:17.66	301.66	9.92	-50.2	-62.2	3.8	8.46e-01	0	40	104	0	71	14709
2026-01-21 15:25:18.67	301.84	9.91	-50.2	-62.2	3.8	8.47e-01	0	40	104	0	71	14725
2026-01-21 15:25:19.68	302.01	9.90	-50.3	-62.2	3.8	8.46e-01	0	40	104	0	71	14749
2026-01-21 15:25:20.68	302.19	9.89	-50.2	-62.2	3.8	8.46e-01	0	40	104	0	71	14754
2026-01-21 15:25:21.69	302.37	9.88	-50.3	-62.2	3.8	8.45e-01	0	40	104	0	71	14757
2026-01-21 15:25:22.70	302.55	9.87	-50.2	-62.2	3.8	8.46e-01	0	40	104	0	71	14718
2026-01-21 15:25:23.71	302.73	9.86	-50.2	-62.2	3.8	8.46e-01	0	40	104	0	71	14739
2026-01-21 15:25:24.72	302.91	9.85	-50.2	-62.2	3.8	8.45e-01	0	41	104	0	71	14741
2026-01-21 15:25:25.72	303.09	9.84	-50.2	-62.2	3.8	8.46e-01	0	40	104	0	71	14726
2026-01-21 15:25:26.73	303.26	9.83	-50.2	-62.2	3.8	8.47e-01	0	40	104	0	71	14741
2026-01-21 15:25:27.74	303.44	9.82	-50.2	-62.1	3.8	8.46e-01	0	40	104	0	71	14708
2026-01-21 15:25:28.75	303.62	9.81	-50.2	-62.2	3.8	8.47e-01	0	40	104	0	71	14709
2026-01-21 15:25:29.76	303.80	9.80	-50.2	-62.2	3.8	8.46e-01	0	40	104	0	71	14740
2026-01-21 15:25:30.77	303.98	9.79	-50.2	-62.2	3.8	8.45e-01	0	40	104	0	71	14764
2026-01-21 15:25:31.78	304.15	9.78	-50.2	-62.2	3.8	8.46e-01	0	40	104	0	71	14759
2026-01-21 15:25:32.79	304.33	9.77	-50.2	-62.2	3.8	8.46e-01	0	40	104	0	71	14777
2026-01-21 15:25:33.80	304.51	9.75	-50.2	-62.2	3.8	8.45e-01	0	40	104	0	71	14739
2026-01-21 15:25:34.80	304.69	9.74	-50.2	-62.2	3.8	8.47e-01	0	40	104	0	71	14740
2026-01-21 15:25:35.81	304.86	9.73	-50.3	-62.2	3.8	8.45e-01	0	40	104	0	71	14744
2026-01-21 15:25:36.82	305.04	9.72	-50.2	-62.2	3.8	8.45e-01	0	40	104	0	71	14714
2026-01-21 15:25:37.83	305.22	9.71	-50.2	-62.2	3.8	8.45e-01	0	40	104	0	71	14723
2026-01-21 15:25:38.84	305.39	9.69	-50.2	-62.1	3.8	8.47e-01	0	40	104	0	71	14708
2026-01-21 15:25:39.85	305.57	9.68	-50.2	-62.2	3.8	8.46e-01	0	40	104	0	71	14751
2026-01-21 15:25:40.86	305.75	9.67	-50.2	-62.2	3.8	8.46e-01	0	40	104	0	71	14741
2026-01-21 15:25:41.86	305.92	9.65	-50.2	-62.2	3.8	8.46e-01	0	40	104	0	71	14727
2026-01-21 15:25:42.87	306.10	9.64	-50.3	-62.2	3.8	8.47e-01	0	40	104	0	71	14748
2026-01-21 15:25:43.88	306.28	9.62	-50.2	-62.2	3.8	8.46e-01	0	40	104	0	71	14726
2026-01-21 15:25:44.89	306.45	9.61	-50.2	-62.2	3.8	8.45e-01	0	40	104	0	71	14758
2026-01-21 15:25:45.90	306.63	9.60	-50.2	-62.2	3.8	8.47e-01	0	40	104	0	71	14756
2026-01-21 15:25:46.90	306.80	9.58	-50.2	-62.2	3.8	8.46e-01	0	40	104	0	71	14771
2026-01-21 15:25:47.91	306.98	9.57	-50.2	-62.2	3.8	8.46e-01	0	40	104	0	71	14746
2026-01-21 15:25:48.93	307.15	9.55	-50.2	-62.2	3.8	8.45e-01	0	41	104	0	71	14779
2026-01-21 15:25:49.93	307.33	9.53	-50.2	-62.2	3.8	8.47e-01	0	40	104	0	71	14730
2026-01-21 15:25:50.94	307.50	9.52	-50.2	-62.2	3.8	8.46e-01	0	40	104	0	71	14742
2026-01-21 15:25:51.95	307.68	9.50	-50.2	-62.2	3.8	8.47e-01	0	40	104	0	71	14745
2026-01-21 15:25:52.96	307.85	9.49	-50.2	-62.2	3.8	8.45e-01	0	40	104	0	71	14789
2026-01-21 15:25:53.96	308.02	9.47	-50.2	-62.1	3.8	8.47e-01	0	40	104	0	71	14685
2026-01-21 15:25:54.97	308.20	9.45	-50.2	-62.1	3.8	8.46e-01	0	40	104	0	71	14708
2026-01-21 15:25:55.98	308.37	9.44	-50.2	-62.1	3.8	8.46e-01	0	40	104	0	71	14702
2026-01-21 15:25:56.99	308.55	9.42	-50.2	-62.2	3.8	8.47e-01	0	40	104	0	71	14744
2026-01-21 15:25:58.00	308.72	9.40	-50.2	-62.2	3.8	8.46e-01	0	40	104	0	71	14750
2026-01-21 15:25:59.01	308.89	9.39	-50.2	-62.2	3.8	8.46e-01	0	40	104	0	71	14743
2026-01-21 15:26:00.02	309.07	9.37	-50.2	-62.2	3.8	8.46e-01	0	40	104	0	71	14726
2026-01-21 15:26:01.03	309.24	9.35	-50.2	-62.2	3.8	8.48e-01	0	40	104	0	71	14725
2026-01-21 15:26:02.03	309.41	9.33	-50.2	-62.2	3.8	8.46e-01	0	40	104	0	71	14764
2026-01-21 15:26:03.04	309.58	9.31	-50.2	-62.2	3.8	8.45e-01	0	40	104	0	71	14727
2026-01-21 15:26:04.05	309.75	9.30	-50.2	-62.1	3.8	8.46e-01	0	40	104	0	71	14673
2026-01-21 15:26:05.06	309.93	9.28	-50.2	-62.2	3.8	8.47e-01	0	40	104	0	71	14737
2026-01-21 15:26:06.07	310.10	9.26	-50.2	-62.2	3.8	8.45e-01	0	40	104	0	71	14709
2026-01-21 15:26:07.08	310.27	9.24	-50.2	-62.2	3.8	8.45e-01	0	40	104	0	71	14748
2026-01-21 15:26:08.09	310.44	9.22	-50.2	-62.2	3.8	8.47e-01	0	40	104	0	71	14748
2026-01-21 15:26:09.10	310.61	9.20	-50.2	-62.2	3.8	8.46e-01	0	40	104	0	71	14762
2026-01-21 15:26:10.10	310.78	9.18	-50.2	-62.2	3.8	8.46e-01	0	40	104	0	71	14746
2026-01-21 15:26:11.11	310.95	9.16	-50.2	-62.1	3.8	8.46e-01	0	40	104	0	71	14707
2026-01-21 15:26:12.12	311.12	9.14	-50.2	-62.2	3.8	8.45e-01	0	40	104	0	71	14742
2026-01-21 15:26:13.13	311.29	9.12	-50.2	-62.2	3.8	8.47e-01	0	40	104	0	71	14729
2026-01-21 15:26:14.14	311.46	9.10	-50.2	-62.2	3.8	8.46e-01	0	40	104	0	71	14786
2026-01-21 15:26:15.15	311.63	9.08	-50.2	-62.2	3.8	8.45e-01	0	40	104	0	71	14798
2026-01-21 15:26:16.16	311.80	9.06	-50.2	-62.1	3.8	8.45e-01	0	40	104	0	71	14701
2026-01-21 15:26:17.17	311.97	9.04	-50.2	-62.2	3.8	8.48e-01	0	40	104	0	71	14766
2026-01-21 15:26:18.18	312.14	9.02	-50.2	-62.2	3.8	8.47e-01	0	40	104	0	71	14730
2026-01-21 15:26:19.18	312.31	8.99	-50.2	-62.1	3.8	8.47e-01	0	40	104	0	71	14707
2026-01-21 15:26:20.19	312.48	8.97	-50.2	-62.2	3.8	8.46e-01	0	40	104	0	71	14729
2026-01-21 15:26:21.20	312.65	8.95	-50.2	-62.2	3.8	8.45e-01	0	40	104	0	71	14766
2026-01-21 15:26:22.21	312.81	8.93	-50.2	-62.2	3.8	8.47e-01	0	40	104	0	71	14728
2026-01-21 15:26:23.22	312.98	8.91	-50.2	-62.2	3.8	8.46e-01	0	40	104	0	71	14739
2026-01-21 15:26:24.22	313.15	8.88	-50.2	-62.2	3.8	8.48e-01	0	40	104	0	71	14718
2026-01-21 15:26:25.23	313.32	8.86	-50.2	-62.2	3.8	8.46e-01	0	40	104	0	71	14731
2026-01-21 15:26:26.24	313.48	8.84	-50.2	-62.2	3.8	8.46e-01	0	40	104	0	71	14715
2026-01-21 15:26:27.25	313.65	8.82	-50.2	-62.2	3.8	8.47e-01	0	40	104	0	71	14763
2026-01-21 15:26:28.26	313.82	8.79	-50.3	-62.2	3.8	8.45e-01	0	40	104	0	71	14740
2026-01-21 15:26:29.27	313.98	8.77	-50.2	-62.2	3.8	8.47e-01	0	40	104	0	71	14723
2026-01-21 15:26:30.28	314.15	8.74	-50.2	-62.2	3.8	8.46e-01	0	40	104	0	71	14735
2026-01-21 15:26:31.29	314.31	8.72	-50.2	-62.2	3.8	8.46e-01	0	40	104	0	71	14712
2026-01-21 15:26:32.30	314.48	8.70	-50.2	-62.2	3.8	8.47e-01	0	40	104	0	71	14765
2026-01-21 15:26:33.31	314.65	8.67	-50.3	-62.2	3.8	8.46e-01	0	40	104	0	71	14752
2026-01-21 15:26:34.31	314.81	8.65	-50.2	-62.2	3.8	8.46e-01	0	40	104	0	71	14802
2026-01-21 15:26:35.32	314.97	8.62	-50.2	-62.2	3.8	8.46e-01	0	40	104	0	71	14744
2026-01-21 15:26:36.33	315.14	8.60	-50.2	-62.2	3.8	8.47e-01	0	40	104	0	71	14718
2026-01-21 15:26:37.34	315.30	8.57	-50.2	-62.1	3.8	8.46e-01	0	40	104	0	71	14694
2026-01-21 15:26:38.35	315.47	8.55	-50.3	-62.2	3.8	8.46e-01	0	40	104	0	71	14728
2026-01-21 15:26:39.35	315.63	8.52	-50.2	-62.2	3.8	8.46e-01	0	40	104	0	71	14773
2026-01-21 15:26:40.36	315.79	8.50	-50.2	-62.2	3.8	8.47e-01	0	40	104	0	71	14740
2026-01-21 15:26:41.37	315.96	8.47	-50.2	-62.2	3.8	8.47e-01	0	40	104	0	71	14752
2026-01-21 15:26:42.37	316.12	8.45	-50.2	-62.2	3.8	8.45e-01	0	40	104	0	71	14787
2026-01-21 15:26:43.38	316.28	8.42	-50.2	-62.2	3.8	8.47e-01	0	40	104	0	71	14735
2026-01-21 15:26:44.39	316.44	8.40	-50.3	-62.2	3.8	8.46e-01	0	40	104	0	71	14752
2026-01-21 15:26:45.40	316.60	8.37	-50.2	-62.2	3.8	8.45e-01	0	40	104	0	71	14746
2026-01-21 15:26:46.41	316.77	8.34	-50.3	-62.2	3.8	8.46e-01	0	40	104	0	71	14806
2026-01-21 15:26:47.42	316.93	8.32	-50.3	-62.2	3.8	8.46e-01	0	40	104	0	71	14733
2026-01-21 15:26:48.42	317.09	8.29	-50.2	-62.2	3.8	8.47e-01	0	40	104	0	71	14739
2026-01-21 15:26:49.43	317.25	8.26	-50.2	-62.1	3.8	8.46e-01	0	40	104	0	71	14699
2026-01-21 15:26:50.44	317.41	8.24	-50.2	-62.2	3.8	8.46e-01	0	40	104	0	71	14728
2026-01-21 15:26:51.45	317.57	8.21	-50.3	-62.2	3.8	8.46e-01	0	40	104	0	71	14767
2026-01-21 15:26:52.46	317.73	8.18	-50.2	-62.1	3.8	8.45e-01	0	40	104	0	71	14704
2026-01-21 15:26:53.46	317.89	8.15	-50.2	-62.2	3.8	8.47e-01	0	40	104	0	71	14741
2026-01-21 15:26:54.47	318.05	8.13	-50.2	-62.2	3.8	8.45e-01	0	40	104	0	71	14770
2026-01-21 15:26:55.48	318.21	8.10	-50.2	-62.2	3.8	8.45e-01	0	40	104	0	71	14787
2026-01-21 15:26:56.49	318.36	8.07	-50.3	-62.2	3.8	8.46e-01	0	40	104	0	71	14778
2026-01-21 15:26:57.50	318.52	8.04	-50.3	-62.2	3.8	8.45e-01	0	40	104	0	71	14741
2026-01-21 15:26:58.50	318.68	8.02	-50.2	-62.2	3.8	8.47e-01	0	40	104	0	71	14728
2026-01-21 15:26:59.51	318.84	7.99	-50.2	-62.2	3.8	8.45e-01	0	40	104	0	71	14725
2026-01-21 15:27:00.52	318.99	7.96	-50.2	-62.2	3.8	8.46e-01	0	40	104	0	71	14743
2026-01-21 15:27:01.53	319.15	7.93	-50.2	-62.2	3.8	8.45e-01	0	40	104	0	71	14738
2026-01-21 15:27:02.54	319.31	7.90	-50.2	-62.2	3.8	8.46e-01	0	40	104	0	71	14724
2026-01-21 15:27:03.54	319.46	7.87	-50.2	-62.2	3.8	8.48e-01	0	40	104	0	71	14730
2026-01-21 15:27:04.55	319.62	7.84	-50.2	-62.2	3.8	8.46e-01	0	40	104	0	71	14755
2026-01-21 15:27:05.56	319.78	7.81	-50.2	-62.2	3.8	8.46e-01	0	40	104	0	71	14731
2026-01-21 15:27:06.57	319.93	7.78	-50.2	-62.2	3.8	8.44e-01	0	40	104	0	71	14775
2026-01-21 15:27:07.58	320.09	7.75	-50.2	-62.2	3.8	8.46e-01	0	40	104	0	71	14737
2026-01-21 15:27:08.58	320.24	7.72	-50.2	-62.2	3.8	8.46e-01	0	41	104	0	71	14744
2026-01-21 15:27:09.59	320.40	7.69	-50.2	-62.1	3.8	8.46e-01	0	40	104	0	71	14686
2026-01-21 15:27:10.60	320.55	7.66	-50.2	-62.1	3.8	8.47e-01	0	40	104	0	71	14701
2026-01-21 15:27:11.61	320.71	7.63	-50.3	-62.1	3.8	8.47e-01	0	40	104	0	71	14681
2026-01-21 15:27:12.62	320.86	7.60	-50.2	-62.2	3.8	8.46e-01	0	40	104	0	71	14713
2026-01-21 15:27:13.63	321.01	7.57	-50.2	-62.2	3.8	8.45e-01	0	40	104	0	71	14729
2026-01-21 15:27:14.63	321.17	7.54	-50.3	-62.2	3.8	8.46e-01	0	40	104	0	71	14744
2026-01-21 15:27:15.64	321.32	7.51	-50.2	-62.2	3.8	8.45e-01	0	40	104	0	71	14740
2026-01-21 15:27:16.65	321.47	7.48	-50.2	-62.2	3.8	8.46e-01	0	40	104	0	71	14719
2026-01-21 15:27:17.66	321.62	7.45	-50.3	-62.2	3.8	8.45e-01	0	40	104	0	71	14744
2026-01-21 15:27:18.67	321.78	7.42	-50.3	-62.2	3.8	8.46e-01	0	40	104	0	71	14762
2026-01-21 15:27:19.68	321.93	7.39	-50.2	-62.2	3.8	8.46e-01	0	40	104	0	71	14756
2026-01-21 15:27:20.69	322.08	7.36	-50.2	-62.1	3.8	8.45e-01	0	40	104	0	71	14705
2026-01-21 15:27:21.70	322.23	7.32	-50.2	-62.1	3.8	8.46e-01	0	40	104	0	71	14707
2026-01-21 15:27:22.71	322.38	7.29	-50.2	-62.2	3.8	8.47e-01	0	40	104	0	71	14761
2026-01-21 15:27:23.72	322.53	7.26	-50.2	-62.2	3.8	8.47e-01	0	40	104	0	71	14738
2026-01-21 15:27:24.72	322.68	7.23	-50.2	-62.2	3.8	8.46e-01	0	40	104	0	71	14716
2026-01-21 15:27:25.73	322.83	7.20	-50.2	-62.2	3.8	8.46e-01	0	40	104	0	71	14737
2026-01-21 15:27:26.74	322.98	7.17	-50.2	-62.1	3.8	8.46e-01	0	40	104	0	71	14695
2026-01-21 15:27:27.75	323.13	7.13	-50.3	-62.1	3.8	8.47e-01	0	40	104	0	71	14691
2026-01-21 15:27:28.76	323.28	7.10	-50.2	-62.2	3.8	8.46e-01	0	40	104	0	71	14747
2026-01-21 15:27:29.77	323.43	7.07	-50.2	-62.2	3.8	8.46e-01	0	40	104	0	71	14737
2026-01-21 15:27:30.78	323.58	7.04	-50.2	-62.1	3.8	8.47e-01	0	40	104	0	71	14687
2026-01-21 15:27:31.78	323.72	7.00	-50.2	-62.2	3.8	8.47e-01	0	40	104	0	71	14720
2026-01-21 15:27:32.79	323.87	6.97	-50.2	-62.2	3.8	8.46e-01	0	40	104	0	71	14722
2026-01-21 15:27:33.80	324.02	6.94	-50.2	-62.2	3.8	8.46e-01	0	40	104	0	71	14718
2026-01-21 15:27:34.81	324.16	6.90	-50.2	-62.2	3.8	8.47e-01	0	40	104	0	71	14721
2026-01-21 15:27:35.82	324.31	6.87	-50.2	-62.1	3.8	8.46e-01	0	40	104	0	71	14680
2026-01-21 15:27:36.82	324.46	6.84	-50.2	-62.2	3.8	8.46e-01	0	40	104	0	71	14711
2026-01-21 15:27:37.83	324.60	6.80	-50.2	-62.1	3.8	8.45e-01	0	40	104	0	71	14662
2026-01-21 15:27:38.84	324.75	6.77	-50.2	-62.1	3.8	8.46e-01	0	40	104	0	71	14701
2026-01-21 15:27:39.85	324.89	6.74	-50.3	-62.2	3.8	8.46e-01	0	40	104	0	71	14767
2026-01-21 15:27:40.85	325.04	6.70	-50.2	-62.2	3.8	8.47e-01	0	40	104	0	71	14737
2026-01-21 15:27:41.86	325.18	6.67	-50.2	-62.1	3.8	8.46e-01	0	41	104	0	71	14706
2026-01-21 15:27:42.87	325.33	6.64	-50.2	-62.2	3.8	8.45e-01	0	40	104	0	71	14732
2026-01-21 15:27:43.88	325.47	6.60	-50.2	-62.2	3.8	8.46e-01	0	40	104	0	71	14730
2026-01-21 15:27:44.88	325.61	6.57	-50.2	-62.1	3.8	8.46e-01	0	40	104	0	71	14703
2026-01-21 15:27:45.89	325.76	6.53	-50.2	-62.1	3.8	8.45e-01	0	40	104	0	71	14702
2026-01-21 15:27:46.90	325.90	6.50	-50.2	-62.2	3.8	8.46e-01	0	40	104	0	71	14723
2026-01-21 15:27:47.91	326.04	6.46	-50.2	-62.2	3.8	8.46e-01	0	40	104	0	71	14713
2026-01-21 15:27:48.92	326.18	6.43	-50.2	-62.1	3.8	8.45e-01	0	40	104	0	71	14688
2026-01-21 15:27:49.92	326.32	6.40	-50.2	-62.2	3.8	8.46e-01	0	40	104	0	71	14720
2026-01-21 15:27:50.93	326.47	6.36	-50.2	-62.1	3.8	8.48e-01	0	40	104	0	71	14688
2026-01-21 15:27:51.94	326.61	6.33	-50.2	-62.1	3.8	8.46e-01	0	40	104	0	71	14698
2026-01-21 15:27:52.95	326.75	6.29	-50.2	-62.1	3.8	8.45e-01	0	40	104	0	71	14687
2026-01-21 15:27:53.96	326.89	6.26	-50.2	-62.2	3.8	8.45e-01	0	40	104	0	71	14723
2026-01-21 15:27:54.96	327.03	6.22	-50.2	-62.2	3.8	8.46e-01	0	40	104	0	71	14752
2026-01-21 15:27:55.97	327.17	6.19	-50.2	-62.2	3.8	8.47e-01	0	40	104	0	71	14719
2026-01-21 15:27:56.98	327.31	6.15	-50.2	-62.1	3.8	8.45e-01	0	40	104	0	71	14705
2026-01-21 15:27:57.99	327.45	6.11	-50.2	-62.1	3.8	8.47e-01	0	40	104	0	71	14658
2026-01-21 15:27:59.00	327.59	6.08	-50.2	-62.1	3.8	8.46e-01	0	40	104	0	71	14647
2026-01-21 15:28:00.01	327.73	6.04	-50.2	-62.1	3.8	8.46e-01	0	40	104	0	71	14679
2026-01-21 15:28:01.01	327.86	6.01	-50.2	-62.1	3.8	8.47e-01	0	40	104	0	71	14695
2026-01-21 15:28:02.02	328.00	5.97	-50.2	-62.2	3.8	8.46e-01	0	40	104	0	71	14723
2026-01-21 15:28:03.03	328.14	5.94	-50.2	-62.2	3.8	8.47e-01	0	40	104	0	71	14731
2026-01-21 15:28:04.04	328.28	5.90	-50.2	-62.1	3.8	8.45e-01	0	40	104	0	71	14653
2026-01-21 15:28:05.05	328.41	5.86	-50.2	-62.2	3.8	8.46e-01	0	41	104	0	71	14722
2026-01-21 15:28:06.06	328.55	5.83	-50.2	-62.1	3.8	8.45e-01	0	40	104	0	71	14668
2026-01-21 15:28:07.07	328.69	5.79	-50.2	-62.1	3.8	8.47e-01	0	40	104	0	71	14694
2026-01-21 15:28:08.08	328.82	5.76	-50.2	-62.2	3.8	8.45e-01	0	40	104	0	71	14717
2026-01-21 15:28:09.09	328.96	5.72	-50.2	-62.2	3.8	8.47e-01	0	40	104	0	71	14728
2026-01-21 15:28:10.10	329.10	5.68	-50.2	-62.1	3.8	8.47e-01	0	40	104	0	71	14708
2026-01-21 15:28:11.10	329.23	5.65	-50.2	-62.2	3.8	8.46e-01	0	40	104	0	71	14735
2026-01-21 15:28:12.11	329.37	5.61	-50.2	-62.2	3.8	8.46e-01	0	40	104	0	71	14724
2026-01-21 15:28:13.12	329.50	5.57	-50.2	-62.2	3.8	8.46e-01	0	41	104	0	71	14755
2026-01-21 15:28:14.13	329.63	5.54	-50.2	-62.1	3.8	8.45e-01	0	40	104	0	71	14656
2026-01-21 15:28:15.14	329.77	5.50	-50.2	-62.1	3.8	8.46e-01	0	40	104	0	71	14682
2026-01-21 15:28:16.15	329.90	5.46	-50.2	-62.1	3.8	8.47e-01	0	40	104	0	71	14700
2026-01-21 15:28:17.15	330.03	5.43	-50.2	-62.2	3.8	8.45e-01	0	40	104	0	71	14713
2026-01-21 15:28:18.16	330.17	5.39	-50.2	-62.2	3.8	8.46e-01	0	40	104	0	71	14715
2026-01-21 15:28:19.17	330.30	5.35	-50.2	-62.2	3.8	8.47e-01	0	40	104	0	71	14724
2026-01-21 15:28:20.18	330.43	5.31	-50.2	-62.2	3.8	8.47e-01	0	40	104	0	71	14726
2026-01-21 15:28:21.19	330.56	5.28	-50.2	-62.1	3.8	8.46e-01	0	40	104	0	71	14702
2026-01-21 15:28:22.20	330.70	5.24	-50.2	-62.1	3.8	8.46e-01	0	40	104	0	71	14678
2026-01-21 15:28:23.21	330.83	5.20	-50.2	-62.2	3.8	8.45e-01	0	40	104	0	71	14712
2026-01-21 15:28:24.22	330.96	5.16	-50.2	-62.1	3.8	8.47e-01	0	40	104	0	71	14676
2026-01-21 15:28:25.22	331.09	5.13	-50.2	-62.1	3.8	8.46e-01	0	40	104	0	71	14703
2026-01-21 15:28:26.23	331.22	5.09	-50.2	-62.1	3.8	8.46e-01	0	40	104	0	71	14668
2026-01-21 15:28:27.24	331.35	5.05	-50.2	-62.1	3.8	8.46e-01	0	40	104	0	71	14654
2026-01-21 15:28:28.25	331.48	5.01	-50.2	-62.2	3.8	8.46e-01	0	40	104	0	71	14724
2026-01-21 15:28:29.26	331.61	4.98	-50.2	-62.2	3.8	8.46e-01	0	40	104	0	71	14716
2026-01-21 15:28:30.27	331.74	4.94	-50.2	-62.1	3.8	8.46e-01	0	40	104	0	71	14675
2026-01-21 15:28:31.28	331.87	4.90	-50.2	-62.1	3.8	8.46e-01	0	41	104	0	71	14662
2026-01-21 15:28:32.29	331.99	4.86	-50.2	-62.1	3.8	8.46e-01	0	41	104	0	71	14660
2026-01-21 15:28:33.29	332.12	4.82	-50.2	-62.1	3.8	8.46e-01	0	40	104	0	71	14648
2026-01-21 15:28:34.31	332.25	4.79	-50.2	-62.1	3.8	8.46e-01	0	40	104	0	71	14643
2026-01-21 15:28:35.31	332.38	4.75	-50.2	-62.1	3.8	8.46e-01	0	40	104	0	71	14654
2026-01-21 15:28:36.32	332.50	4.71	-50.2	-62.1	3.8	8.46e-01	0	40	104	0	71	14669
2026-01-21 15:28:37.33	332.63	4.67	-50.2	-62.1	3.8	8.46e-01	0	40	104	0	71	14684
2026-01-21 15:28:38.34	332.76	4.63	-50.2	-62.1	3.8	8.46e-01	0	40	104	0	71	14698
2026-01-21 15:28:39.35	332.88	4.59	-50.2	-62.1	3.8	8.46e-01	0	40	104	0	71	14670
2026-01-21 15:28:40.36	333.01	4.56	-50.2	-62.1	3.8	8.46e-01	0	40	104	0	71	14676
2026-01-21 15:28:41.36	333.13	4.52	-50.2	-62.1	3.8	8.46e-01	0	40	104	0	71	14703
2026-01-21 15:28:42.37	333.26	4.48	-50.2	-62.2	3.8	8.46e-01	0	40	104	0	71	14713
2026-01-21 15:28:43.38	333.38	4.44	-50.2	-62.1	3.8	8.46e-01	0	40	104	0	71	14673
2026-01-21 15:28:44.39	333.51	4.40	-50.2	-62.2	3.8	8.46e-01	0	40	104	0	71	14722
2026-01-21 15:28:45.40	333.63	4.36	-50.2	-62.2	3.8	8.46e-01	0	40	104	0	71	14723
2026-01-21 15:28:46.41	333.76	4.32	-50.2	-62.1	3.8	8.47e-01	0	40	104	0	71	14693
2026-01-21 15:28:47.42	333.88	4.29	-50.2	-62.1	3.8	8.46e-01	0	40	104	0	71	14706
2026-01-21 15:28:48.42	334.00	4.25	-50.2	-62.2	3.8	8.47e-01	0	40	104	0	71	14726
2026-01-21 15:28:49.43	334.13	4.21	-50.2	-62.2	3.8	8.46e-01	0	40	104	0	71	14721
2026-01-21 15:28:50.44	334.25	4.17	-50.2	-62.2	3.8	8.45e-01	0	40	104	0	71	14742
2026-01-21 15:28:51.45	334.37	4.13	-50.2	-62.1	3.8	8.46e-01	0	40	104	0	71	14667
2026-01-21 15:28:52.46	334.49	4.09	-50.2	-62.1	3.8	8.46e-01	0	40	104	0	71	14684
2026-01-21 15:28:53.46	334.61	4.05	-50.2	-62.2	3.8	8.46e-01	0	40	104	0	71	14719
2026-01-21 15:28:54.47	334.74	4.01	-50.2	-62.1	3.8	8.47e-01	0	40	104	0	71	14664
2026-01-21 15:28:55.48	334.86	3.97	-50.2	-62.1	3.8	8.46e-01	0	40	104	0	71	14703
2026-01-21 15:28:56.49	334.98	3.93	-50.2	-62.1	3.8	8.45e-01	0	40	104	0	71	14702
2026-01-21 15:28:57.50	335.10	3.89	-50.2	-62.1	3.8	8.47e-01	0	40	104	0	71	14640
2026-01-21 15:28:58.51	335.22	3.85	-50.2	-62.1	3.8	8.47e-01	0	40	104	0	71	14607
2026-01-21 15:28:59.51	335.34	3.82	-50.2	-62.0	3.8	8.46e-01	0	40	104	0	71	14473
2026-01-21 15:29:00.52	335.46	3.78	-50.2	-62.1	3.8	8.47e-01	0	40	104	0	71	14551
2026-01-21 15:29:01.53	335.58	3.74	-50.2	-62.1	3.8	8.47e-01	0	40	104	0	71	14550
2026-01-21 15:29:02.54	335.70	3.70	-50.2	-62.1	3.8	8.46e-01	0	40	104	0	71	14641
2026-01-21 15:29:03.55	335.81	3.66	-50.2	-62.1	3.8	8.46e-01	0	40	104	0	71	14622
2026-01-21 15:29:04.55	335.93	3.62	-50.2	-62.2	3.8	8.47e-01	0	40	104	0	71	14725
2026-01-21 15:29:05.56	336.05	3.58	-50.2	-62.2	3.8	8.47e-01	0	40	104	0	71	14717
2026-01-21 15:29:06.57	336.17	3.54	-50.2	-62.1	3.8	8.46e-01	0	40	104	0	71	14684
2026-01-21 15:29:07.58	336.29	3.50	-50.2	-62.2	3.8	8.46e-01	0	40	104	0	71	14709
2026-01-21 15:29:08.58	336.40	3.46	-50.2	-62.2	3.8	8.47e-01	0	40	104	0	71	14710
2026-01-21 15:29:09.59	336.52	3.42	-50.2	-62.2	3.8	8.47e-01	0	40	104	0	71	14731
2026-01-21 15:29:10.60	336.63	3.38	-50.2	-62.1	3.8	8.46e-01	0	40	104	0	71	14649
2026-01-21 15:29:11.61	336.75	3.34	-50.2	-62.1	3.8	8.45e-01	0	40	104	0	71	14688
2026-01-21 15:29:12.62	336.87	3.30	-50.2	-62.1	3.8	8.46e-01	0	40	104	0	71	14676
2026-01-21 15:29:13.63	336.98	3.26	-50.2	-62.1	3.8	8.46e-01	0	40	104	0	71	14703
2026-01-21 15:29:14.63	337.10	3.22	-50.2	-62.2	3.8	8.46e-01	0	40	104	0	71	14744
2026-01-21 15:29:15.64	337.21	3.18	-50.2	-62.2	3.8	8.46e-01	0	40	104	0	71	14734
2026-01-21 15:29:16.65	337.33	3.14	-50.2	-62.2	3.8	8.47e-01	0	40	104	0	71	14718
2026-01-21 15:29:17.66	337.44	3.10	-50.2	-62.2	3.8	8.46e-01	0	40	104	0	71	14714
2026-01-21 15:29:18.67	337.56	3.06	-50.2	-62.1	3.8	8.46e-01	0	40	104	0	71	14692
2026-01-21 15:29:19.67	337.67	3.02	-50.2	-62.1	3.8	8.47e-01	0	40	104	0	71	14672
2026-01-21 15:29:20.68	337.78	2.98	-50.2	-62.2	3.8	8.46e-01	0	40	104	0	71	14766
2026-01-21 15:29:21.69	337.90	2.94	-50.2	-62.1	3.8	8.46e-01	0	40	104	0	71	14670
2026-01-21 15:29:22.70	338.01	2.90	-50.2	-62.2	3.8	8.46e-01	0	40	104	0	71	14710
2026-01-21 15:29:23.70	338.12	2.86	-50.2	-62.1	3.8	8.47e-01	0	40	104	0	71	14676
2026-01-21 15:29:24.71	338.23	2.82	-50.2	-62.1	3.8	8.47e-01	0	40	104	0	71	14568
2026-01-21 15:29:25.72	338.35	2.78	-50.2	-62.1	3.8	8.46e-01	0	40	104	0	71	14556
2026-01-21 15:29:26.73	338.46	2.74	-50.2	-62.0	3.8	8.46e-01	0	40	104	0	71	14501
2026-01-21 15:29:27.74	338.57	2.70	-50.2	-62.1	3.8	8.47e-01	0	40	104	0	71	14571
2026-01-21 15:29:28.75	338.68	2.66	-50.2	-62.1	3.8	8.48e-01	0	40	104	0	71	14621
2026-01-21 15:29:29.76	338.79	2.62	-50.2	-62.1	3.8	8.47e-01	0	40	104	0	71	14628
2026-01-21 15:29:30.77	338.90	2.58	-50.2	-62.1	3.8	8.47e-01	0	40	104	0	71	14608
2026-01-21 15:29:31.77	339.01	2.54	-50.2	-62.1	3.8	8.47e-01	0	40	104	0	71	14656
2026-01-21 15:29:32.78	339.12	2.50	-50.2	-62.1	3.8	8.47e-01	0	40	104	0	71	14606
2026-01-21 15:29:33.79	339.23	2.46	-50.2	-62.1	3.8	8.47e-01	0	40	104	0	71	14647
2026-01-21 15:29:34.80	339.34	2.41	-50.2	-62.1	3.8	8.46e-01	0	40	104	0	71	14683
2026-01-21 15:29:35.81	339.45	2.37	-50.2	-62.1	3.8	8.47e-01	0	40	104	0	71	14687
2026-01-21 15:29:36.81	339.56	2.33	-50.2	-62.1	3.8	8.47e-01	0	40	104	0	71	14690
2026-01-21 15:29:37.82	339.67	2.29	-50.2	-62.1	3.8	8.45e-01	0	40	104	0	71	14676
2026-01-21 15:29:38.83	339.77	2.25	-50.2	-62.2	3.8	8.46e-01	0	40	104	0	71	14712
2026-01-21 15:29:39.84	339.88	2.21	-50.2	-62.2	3.8	8.45e-01	0	40	104	0	71	14721
2026-01-21 15:29:40.84	339.99	2.17	-50.2	-62.1	3.8	8.46e-01	0	40	104	0	71	14694
2026-01-21 15:29:41.85	340.10	2.13	-50.2	-62.1	3.8	8.46e-01	0	40	104	0	71	14706
2026-01-21 15:29:42.86	340.20	2.09	-50.2	-62.1	3.8	8.45e-01	0	40	104	0	71	14706
2026-01-21 15:29:43.87	340.31	2.05	-50.3	-62.2	3.8	8.47e-01	0	40	104	0	71	14747
2026-01-21 15:29:44.88	340.42	2.01	-50.2	-62.1	3.8	8.45e-01	0	40	104	0	71	14695
2026-01-21 15:29:45.88	340.52	1.97	-50.2	-62.1	3.8	8.46e-01	0	40	104	0	71	14693

#Closed at: 2026-01-21 15:29:46
#Recorded file [0 MB]: D:/lorett/data/31041_260121_181944.dat