passes_logs/2026/01/21/R3.2S_Murmansk/R3.2S_Murmansk__20260121_102656_NOAA_21_JPSS-2_rec.log

#Pass ID: 20260121_102656_NOAA 21 (JPSS-2)
#Satellite: NOAA 21 (JPSS-2)
#Configuration: NOAA-21
#almurnet v.1.7.20251203
#Start time: 2026-01-21 10:28:41

#Version: 2.2.20231116
#Station: R3.2S_Murmansk
#Location: 33.079688 lon 68.888172 lat
#TLE: 1 54234U 22150A   26020.93347024  .00000206  00000+0  11859-3 0  9994
#TLE: 2 54234  98.7506 321.7615 0000627 245.8100 114.3011 14.19536899165654

#Time	Az	El	Level	Level2	SNR	BER	BlckErr	Temp	State	Recorded	gain1	gain2
2026-01-21 10:28:41.01	178.00	9.46	-53.5	-65.5	3.8	8.47e-01	0	39	0	0	77	15236
2026-01-21 10:28:42.02	178.05	9.54	-54.3	-67.1	3.8	1.49e+00	0	40	104	0	79	16432
2026-01-21 10:28:43.03	178.09	9.62	-54.3	-67.1	3.8	1.49e+00	0	40	104	0	79	16445
2026-01-21 10:28:44.03	178.14	9.71	-54.4	-67.1	3.8	1.49e+00	0	40	104	0	79	16484
2026-01-21 10:28:45.04	178.19	9.79	-54.4	-67.2	3.8	1.49e+00	0	40	104	0	79	16579
2026-01-21 10:28:46.05	178.23	9.87	-54.4	-67.2	3.8	1.49e+00	0	40	104	0	79	16623
2026-01-21 10:28:47.06	178.28	9.96	-54.5	-67.3	3.8	1.49e+00	0	40	104	0	79	16731
2026-01-21 10:28:48.07	178.33	10.04	-54.5	-67.3	3.8	1.49e+00	0	40	104	0	79	16699
2026-01-21 10:28:49.07	178.37	10.13	-54.5	-67.3	3.8	1.49e+00	0	40	104	0	79	16751
2026-01-21 10:28:50.08	178.42	10.21	-54.5	-67.3	3.8	1.49e+00	0	40	104	0	79	16755
2026-01-21 10:28:51.09	178.47	10.30	-54.5	-67.3	3.8	1.49e+00	0	40	104	0	79	16802
2026-01-21 10:28:52.10	178.52	10.39	-54.5	-67.3	3.8	1.49e+00	0	40	104	0	79	16834
2026-01-21 10:28:53.11	178.57	10.47	-54.6	-67.4	3.8	1.49e+00	0	40	104	0	79	16937
2026-01-21 10:28:54.11	178.61	10.56	-54.6	-67.4	3.8	1.49e+00	0	40	104	0	79	16936
2026-01-21 10:28:55.12	178.66	10.65	-54.6	-67.4	3.8	1.49e+00	0	40	104	0	79	16988
2026-01-21 10:28:56.13	178.71	10.73	-54.6	-67.4	3.8	1.49e+00	0	40	104	0	79	17031
2026-01-21 10:28:57.14	178.76	10.82	-54.6	-67.4	3.8	1.49e+00	0	40	104	0	79	16957
2026-01-21 10:28:58.15	178.81	10.91	-54.6	-67.4	3.8	1.49e+00	0	40	104	0	79	17019
2026-01-21 10:28:59.15	178.86	11.00	-54.6	-67.4	3.8	1.49e+00	0	40	104	0	79	16972
2026-01-21 10:29:00.16	178.91	11.08	-54.6	-67.4	3.8	1.49e+00	0	40	104	0	79	16947
2026-01-21 10:29:01.17	178.96	11.17	-54.6	-67.4	3.8	1.49e+00	0	40	104	0	79	16986
2026-01-21 10:29:02.18	179.01	11.26	-54.6	-67.4	3.8	1.49e+00	0	40	104	0	79	16943
2026-01-21 10:29:03.19	179.06	11.35	-54.6	-67.4	3.8	1.49e+00	0	40	104	0	79	16927
2026-01-21 10:29:04.19	179.12	11.44	-54.6	-67.3	3.8	1.49e+00	0	40	104	0	79	16828
2026-01-21 10:29:05.20	179.17	11.53	-54.6	-67.4	3.8	1.49e+00	0	40	104	0	79	16889
2026-01-21 10:29:06.21	179.22	11.62	-54.6	-67.3	3.8	1.49e+00	0	40	104	0	79	16854
2026-01-21 10:29:07.22	179.27	11.71	-54.5	-67.3	3.8	1.49e+00	0	40	104	0	79	16850
2026-01-21 10:29:08.23	179.32	11.80	-54.5	-67.3	3.8	1.49e+00	0	40	104	0	79	16741
2026-01-21 10:29:09.23	179.38	11.89	-54.5	-67.3	3.8	1.49e+00	0	40	104	0	79	16757
2026-01-21 10:29:10.24	179.43	11.98	-54.5	-67.2	3.8	1.49e+00	0	40	104	0	79	16691
2026-01-21 10:29:11.25	179.48	12.08	-54.4	-67.2	3.8	1.49e+00	0	40	104	0	79	16651
2026-01-21 10:29:12.25	179.54	12.17	-54.5	-67.3	3.8	1.49e+00	0	40	104	0	79	16710
2026-01-21 10:29:13.26	179.59	12.26	-54.5	-67.3	3.8	1.49e+00	0	40	104	0	79	16756
2026-01-21 10:29:14.27	179.65	12.35	-54.5	-67.3	3.8	1.49e+00	0	40	104	0	79	16808
2026-01-21 10:29:15.28	179.70	12.45	-54.5	-67.3	3.8	1.49e+00	0	40	104	0	79	16790
2026-01-21 10:29:16.29	179.76	12.54	-54.5	-67.3	3.8	1.49e+00	0	40	104	0	79	16772
2026-01-21 10:29:17.30	179.81	12.63	-54.4	-67.2	3.8	1.49e+00	0	40	104	0	79	16686
2026-01-21 10:29:18.30	179.87	12.73	-54.5	-67.3	3.8	1.49e+00	0	40	104	0	79	16722
2026-01-21 10:29:19.31	179.92	12.82	-54.4	-67.2	3.8	1.49e+00	0	40	104	0	79	16663
2026-01-21 10:29:20.32	179.98	12.92	-54.4	-67.2	3.8	1.49e+00	0	40	104	0	79	16636
2026-01-21 10:29:21.33	180.04	13.01	-54.4	-67.2	3.8	1.49e+00	0	40	104	0	79	16629
2026-01-21 10:29:22.34	180.09	13.11	-54.4	-67.2	3.8	1.49e+00	0	40	104	0	79	16608
2026-01-21 10:29:23.35	180.15	13.20	-54.4	-67.2	3.8	1.49e+00	0	40	104	0	79	16519
2026-01-21 10:29:24.35	180.21	13.30	-54.4	-67.2	3.8	1.49e+00	0	40	104	0	79	16508
2026-01-21 10:29:25.36	180.27	13.40	-54.4	-67.2	3.8	1.49e+00	0	40	104	0	79	16512
2026-01-21 10:29:26.37	180.32	13.49	-54.4	-67.1	3.8	1.49e+00	0	40	104	0	79	16453
2026-01-21 10:29:27.38	180.38	13.59	-54.4	-67.2	3.8	1.49e+00	0	40	104	0	79	16519
2026-01-21 10:29:28.39	180.44	13.69	-54.3	-67.1	3.8	1.49e+00	0	40	104	0	79	16463
2026-01-21 10:29:29.39	180.50	13.78	-54.4	-67.1	3.8	1.49e+00	0	40	104	0	79	16498
2026-01-21 10:29:30.40	180.56	13.88	-54.3	-67.1	3.8	1.49e+00	0	40	104	0	79	16429
2026-01-21 10:29:31.41	180.62	13.98	-54.3	-67.1	3.8	1.49e+00	0	40	104	0	79	16435
2026-01-21 10:29:32.42	180.68	14.08	-54.3	-67.1	3.8	1.49e+00	0	40	104	0	79	16426
2026-01-21 10:29:33.42	180.74	14.18	-54.3	-67.1	3.8	1.49e+00	0	40	104	0	79	16453
2026-01-21 10:29:34.43	180.81	14.28	-54.3	-67.1	3.8	1.49e+00	0	40	104	0	79	16437
2026-01-21 10:29:35.44	180.87	14.38	-54.4	-67.1	3.8	1.49e+00	0	40	104	0	79	16497
2026-01-21 10:29:36.45	180.93	14.48	-54.5	-67.3	3.8	1.49e+00	0	40	104	0	79	16793
2026-01-21 10:29:37.46	180.99	14.58	-54.6	-67.3	3.8	1.49e+00	0	40	104	0	79	16846
2026-01-21 10:29:38.46	181.06	14.68	-54.6	-67.4	3.8	1.49e+00	0	40	104	0	79	16911
2026-01-21 10:29:39.47	181.12	14.79	-54.6	-67.3	3.8	1.49e+00	0	40	104	0	79	16830
2026-01-21 10:29:40.48	181.18	14.89	-54.5	-67.3	3.8	1.49e+00	0	40	104	0	79	16847
2026-01-21 10:29:41.49	181.25	14.99	-54.5	-67.3	3.8	1.49e+00	0	40	104	0	79	16786
2026-01-21 10:29:42.50	181.31	15.09	-54.5	-67.3	3.8	1.49e+00	0	40	104	0	79	16745
2026-01-21 10:29:43.51	181.38	15.20	-54.4	-67.2	3.8	1.49e+00	0	40	104	0	79	16667
2026-01-21 10:29:44.51	181.44	15.30	-54.4	-67.2	3.8	1.49e+00	0	40	104	0	79	16627
2026-01-21 10:29:45.52	181.51	15.40	-54.4	-67.2	3.8	1.49e+00	0	40	104	0	79	16546
2026-01-21 10:29:46.53	181.57	15.51	-54.4	-67.1	3.8	1.49e+00	0	40	104	0	79	16456
2026-01-21 10:29:47.54	181.64	15.61	-54.3	-67.1	3.8	1.49e+00	0	40	104	0	79	16411
2026-01-21 10:29:48.55	181.71	15.72	-54.3	-67.1	3.8	1.49e+00	0	40	104	0	79	16332
2026-01-21 10:29:49.55	181.78	15.83	-54.2	-67.0	3.8	1.49e+00	0	40	104	0	79	16210
2026-01-21 10:29:50.56	181.84	15.93	-54.2	-66.8	3.8	1.49e+00	0	40	104	0	79	15810
2026-01-21 10:29:51.56	181.91	16.04	-54.1	-66.9	3.8	1.49e+00	0	40	104	0	79	15974
2026-01-21 10:29:52.57	181.98	16.15	-54.1	-66.8	3.8	1.49e+00	0	40	104	0	79	15877
2026-01-21 10:29:53.58	182.05	16.25	-54.0	-66.7	3.8	1.49e+00	0	40	104	0	79	15673
2026-01-21 10:29:54.59	182.12	16.36	-53.9	-66.4	3.8	1.49e+00	0	40	104	0	79	15126
2026-01-21 10:29:55.60	182.19	16.47	-43.9	-44.7	20.4	0.00e+00	0	40	0	0	59	3933
2026-01-21 10:29:56.61	182.26	16.58	-53.6	-64.5	3.9	1.78e-01	3	40	0	3145728	77	13584
2026-01-21 10:29:57.61	182.33	16.69	-53.2	-61.7	4.0	1.46e+00	0	40	104	3145728	77	9850
2026-01-21 10:29:58.62	182.41	16.80	-43.2	-44.0	21.1	0.00e+00	0	40	0	4194304	58	3867
2026-01-21 10:29:59.63	182.48	16.91	-44.4	-45.3	19.9	0.00e+00	0	40	0	6291456	60	3997
2026-01-21 10:30:00.64	182.55	17.02	-44.5	-45.5	19.8	0.00e+00	0	40	0	9437184	60	4085
2026-01-21 10:30:01.64	182.62	17.13	-44.1	-45.0	20.1	0.00e+00	0	40	0	12582912	60	3847
2026-01-21 10:30:02.65	182.70	17.24	-43.5	-44.4	20.9	0.00e+00	0	40	0	15728640	59	3809
2026-01-21 10:30:03.66	182.77	17.35	-43.3	-44.2	21.1	0.00e+00	0	40	0	18874368	58	3933
2026-01-21 10:30:04.67	182.85	17.47	-42.9	-43.7	21.5	0.00e+00	0	40	0	22020096	57	3945
2026-01-21 10:30:05.68	182.92	17.58	-43.1	-44.0	21.3	0.00e+00	0	40	0	25165824	57	4065
2026-01-21 10:30:06.69	183.00	17.69	-43.1	-43.9	21.4	0.00e+00	0	40	0	28311552	57	4041
2026-01-21 10:30:07.69	183.08	17.81	-42.9	-43.8	21.5	0.00e+00	0	40	0	31457280	57	3980
2026-01-21 10:30:08.70	183.15	17.92	-42.9	-43.8	21.5	0.00e+00	0	40	0	35651584	57	3974
2026-01-21 10:30:09.71	183.23	18.04	-43.1	-43.9	21.4	0.00e+00	0	40	0	38797312	57	4044
2026-01-21 10:30:10.72	183.31	18.15	-43.1	-44.0	21.3	0.00e+00	0	40	0	41943040	57	4083
2026-01-21 10:30:11.73	183.39	18.27	-43.0	-43.9	21.4	0.00e+00	0	40	0	45088768	57	4017
2026-01-21 10:30:12.74	183.47	18.39	-43.1	-44.0	21.3	0.00e+00	0	40	0	48234496	57	4054
2026-01-21 10:30:13.75	183.55	18.50	-43.2	-44.1	21.2	0.00e+00	0	40	0	51380224	57	4127
2026-01-21 10:30:14.75	183.63	18.62	-43.1	-44.0	21.3	0.00e+00	0	40	0	53477376	57	4079
2026-01-21 10:30:15.76	183.71	18.74	-43.1	-44.0	21.4	0.00e+00	0	40	0	56623104	57	4061
2026-01-21 10:30:16.77	183.79	18.86	-43.2	-44.1	21.2	0.00e+00	0	40	0	59768832	57	4120
2026-01-21 10:30:17.77	183.87	18.97	-43.1	-44.0	21.3	0.00e+00	0	40	0	62914560	57	4080
2026-01-21 10:30:18.78	183.96	19.09	-43.1	-43.9	21.4	0.00e+00	0	40	0	66060288	57	4042
2026-01-21 10:30:19.79	184.04	19.21	-43.1	-44.0	21.3	0.00e+00	0	40	0	69206016	57	4060
2026-01-21 10:30:20.80	184.13	19.34	-43.3	-44.1	21.2	0.00e+00	0	40	0	72351744	57	4145
2026-01-21 10:30:21.81	184.21	19.46	-43.2	-44.1	21.3	0.00e+00	0	40	0	76546048	57	4101
2026-01-21 10:30:22.81	184.30	19.58	-43.2	-44.1	21.3	0.00e+00	0	40	0	79691776	57	4118
2026-01-21 10:30:23.82	184.38	19.70	-43.3	-44.2	21.2	0.00e+00	0	40	0	82837504	57	4152
2026-01-21 10:30:24.83	184.47	19.82	-43.2	-44.1	21.2	0.00e+00	0	40	0	85983232	57	4118
2026-01-21 10:30:25.84	184.56	19.95	-43.2	-44.1	21.3	0.00e+00	0	40	0	89128960	57	4104
2026-01-21 10:30:26.85	184.64	20.07	-43.1	-44.0	21.3	0.00e+00	0	40	0	92274688	57	4087
2026-01-21 10:30:27.85	184.73	20.19	-43.1	-44.0	21.3	0.00e+00	0	40	0	95420416	57	4069
2026-01-21 10:30:28.86	184.82	20.32	-43.1	-44.0	21.3	0.00e+00	0	40	0	98566144	57	4079
2026-01-21 10:30:29.87	184.91	20.44	-43.2	-44.1	21.2	0.00e+00	0	40	0	101711872	57	4104
2026-01-21 10:30:30.87	185.00	20.57	-43.0	-43.9	21.4	0.00e+00	0	40	0	103809024	57	4028
2026-01-21 10:30:31.88	185.10	20.70	-42.9	-43.8	21.5	0.00e+00	0	40	0	106954752	57	3973
2026-01-21 10:30:32.89	185.19	20.82	-42.7	-43.6	21.6	0.00e+00	0	40	0	110100480	57	3876
2026-01-21 10:30:33.90	185.28	20.95	-42.7	-43.6	21.7	0.00e+00	0	40	0	113246208	57	3873
2026-01-21 10:30:34.91	185.38	21.08	-42.6	-43.5	21.7	0.00e+00	0	40	0	117440512	57	3838
2026-01-21 10:30:35.91	185.47	21.21	-42.4	-43.2	21.9	0.00e+00	0	40	0	120586240	56	3953
2026-01-21 10:30:36.92	185.56	21.34	-42.4	-43.2	21.9	0.00e+00	0	40	0	123731968	56	3949
2026-01-21 10:30:37.93	185.66	21.47	-42.2	-43.0	22.1	0.00e+00	0	40	0	126877696	56	3864
2026-01-21 10:30:38.94	185.76	21.60	-42.2	-43.0	22.1	0.00e+00	0	40	0	130023424	56	3849
2026-01-21 10:30:39.95	185.86	21.73	-42.1	-42.9	22.2	0.00e+00	0	40	0	133169152	56	3813
2026-01-21 10:30:40.95	185.95	21.86	-42.1	-42.9	22.3	0.00e+00	0	40	0	136314880	56	3793
2026-01-21 10:30:41.96	186.05	22.00	-42.0	-42.8	22.3	0.00e+00	0	40	0	139460608	56	3760
2026-01-21 10:30:42.97	186.15	22.13	-41.8	-42.6	22.4	0.00e+00	0	40	0	142606336	55	3891
2026-01-21 10:30:43.98	186.25	22.26	-41.9	-42.7	22.3	0.00e+00	0	40	0	145752064	55	3941
2026-01-21 10:30:44.98	186.36	22.40	-42.0	-42.7	22.3	0.00e+00	0	40	0	148897792	55	3957
2026-01-21 10:30:45.99	186.46	22.53	-41.6	-42.4	22.6	0.00e+00	0	40	0	150994944	55	3790
2026-01-21 10:30:47.00	186.56	22.67	-41.6	-42.3	22.6	0.00e+00	0	40	0	154140672	55	3769
2026-01-21 10:30:48.01	186.67	22.80	-41.5	-42.3	22.6	0.00e+00	0	40	0	158334976	55	3749
2026-01-21 10:30:49.02	186.77	22.94	-41.5	-42.3	22.6	0.00e+00	0	40	0	161480704	54	3969
2026-01-21 10:30:50.03	186.88	23.08	-41.4	-42.1	22.8	0.00e+00	0	40	0	164626432	54	3907
2026-01-21 10:30:51.03	186.98	23.22	-41.5	-42.3	22.7	0.00e+00	0	40	0	167772160	54	3961
2026-01-21 10:30:52.04	187.09	23.35	-41.5	-42.2	22.7	0.00e+00	0	40	0	170917888	54	3942
2026-01-21 10:30:53.05	187.20	23.49	-41.4	-42.1	22.8	0.00e+00	0	40	0	174063616	54	3911
2026-01-21 10:30:54.06	187.31	23.64	-41.3	-42.1	22.9	0.00e+00	0	40	0	177209344	54	3871
2026-01-21 10:30:55.07	187.42	23.78	-41.5	-42.2	22.8	0.00e+00	0	40	0	180355072	54	3942
2026-01-21 10:30:56.08	187.53	23.92	-41.4	-42.1	22.9	0.00e+00	0	40	0	183500800	54	3911
2026-01-21 10:30:57.09	187.65	24.06	-41.4	-42.2	22.8	0.00e+00	0	40	0	186646528	54	3936
2026-01-21 10:30:58.10	187.76	24.20	-41.5	-42.3	22.8	0.00e+00	0	40	0	189792256	54	3974
2026-01-21 10:30:59.11	187.88	24.35	-41.6	-42.4	22.7	0.00e+00	0	40	0	192937984	54	4017
2026-01-21 10:31:00.11	187.99	24.49	-41.7	-42.4	22.7	0.00e+00	0	40	0	196083712	54	4050
2026-01-21 10:31:01.12	188.11	24.63	-41.6	-42.4	22.7	0.00e+00	0	40	0	199229440	54	4024
2026-01-21 10:31:02.13	188.23	24.78	-41.7	-42.5	22.6	0.00e+00	0	40	0	202375168	54	4055
2026-01-21 10:31:03.14	188.34	24.93	-41.8	-42.6	22.6	0.00e+00	0	40	0	205520896	54	4120
2026-01-21 10:31:04.14	188.46	25.07	-41.9	-42.7	22.5	0.00e+00	0	40	0	208666624	54	4164
2026-01-21 10:31:05.15	188.59	25.22	-42.0	-42.8	22.4	0.00e+00	0	40	0	211812352	54	4211
2026-01-21 10:31:06.16	188.71	25.37	-41.9	-42.7	22.4	0.00e+00	0	40	0	214958080	54	4182
2026-01-21 10:31:07.17	188.83	25.52	-42.0	-42.8	22.3	0.00e+00	0	40	0	218103808	54	4227
2026-01-21 10:31:08.18	188.96	25.67	-42.0	-42.7	22.4	0.00e+00	0	40	0	221249536	54	4188
2026-01-21 10:31:09.19	189.08	25.82	-42.0	-42.8	22.4	0.00e+00	0	40	0	224395264	54	4221
2026-01-21 10:31:10.20	189.21	25.97	-42.1	-42.9	22.3	0.00e+00	0	40	0	227540992	54	4263
2026-01-21 10:31:11.21	189.34	26.12	-42.2	-43.0	22.1	0.00e+00	0	40	0	230686720	55	4090
2026-01-21 10:31:12.21	189.46	26.27	-42.2	-43.0	22.2	0.00e+00	0	40	0	233832448	55	4081
2026-01-21 10:31:13.23	189.60	26.43	-42.3	-43.1	22.1	0.00e+00	0	40	0	236978176	55	4135
2026-01-21 10:31:14.23	189.73	26.58	-42.4	-43.2	22.0	0.00e+00	0	40	0	240123904	55	4183
2026-01-21 10:31:15.24	189.86	26.74	-42.4	-43.2	21.9	0.00e+00	0	40	0	243269632	55	4193
2026-01-21 10:31:16.25	189.99	26.89	-42.4	-43.2	22.0	0.00e+00	0	40	0	246415360	55	4153
2026-01-21 10:31:17.26	190.13	27.05	-42.5	-43.3	21.9	0.00e+00	0	40	0	249561088	55	4206
2026-01-21 10:31:18.26	190.26	27.20	-42.6	-43.5	21.8	0.00e+00	0	40	0	252706816	55	4295
2026-01-21 10:31:19.27	190.40	27.36	-42.6	-43.5	21.8	0.00e+00	0	40	0	255852544	55	4300
2026-01-21 10:31:20.28	190.54	27.52	-42.6	-43.5	21.8	0.00e+00	0	40	0	258998272	55	4296
2026-01-21 10:31:21.29	190.68	27.68	-42.8	-43.6	21.7	0.00e+00	0	40	0	262144000	56	4135
2026-01-21 10:31:22.30	190.82	27.84	-42.8	-43.6	21.7	0.00e+00	0	40	0	265289728	56	4139
2026-01-21 10:31:23.30	190.96	28.00	-42.8	-43.6	21.7	0.00e+00	0	40	0	268435456	56	4132
2026-01-21 10:31:24.31	191.11	28.16	-42.7	-43.5	21.8	0.00e+00	0	40	0	271581184	56	4086
2026-01-21 10:31:25.32	191.26	28.32	-42.8	-43.6	21.7	0.00e+00	0	40	0	274726912	56	4138
2026-01-21 10:31:26.33	191.40	28.49	-42.7	-43.5	21.8	0.00e+00	0	40	0	277872640	56	4068
2026-01-21 10:31:27.34	191.55	28.65	-42.6	-43.4	21.9	0.00e+00	0	40	0	281018368	56	4027
2026-01-21 10:31:28.34	191.70	28.81	-42.7	-43.5	21.9	0.00e+00	0	40	0	284164096	56	4059
2026-01-21 10:31:29.35	191.85	28.98	-42.6	-43.4	21.9	0.00e+00	0	40	0	287309824	56	4038
2026-01-21 10:31:30.36	192.01	29.14	-42.7	-43.5	21.9	0.00e+00	0	40	0	290455552	56	4068
2026-01-21 10:31:31.37	192.16	29.31	-42.7	-43.6	21.8	0.00e+00	0	40	0	293601280	56	4103
2026-01-21 10:31:32.37	192.32	29.48	-42.8	-43.7	21.7	0.00e+00	0	40	0	296747008	56	4152
2026-01-21 10:31:33.38	192.48	29.65	-42.8	-43.7	21.7	0.00e+00	0	40	0	299892736	56	4155
2026-01-21 10:31:34.39	192.64	29.82	-43.0	-43.8	21.6	0.00e+00	0	40	0	303038464	56	4233
2026-01-21 10:31:35.40	192.80	29.99	-42.9	-43.7	21.7	0.00e+00	0	40	0	306184192	56	4176
2026-01-21 10:31:36.41	192.96	30.16	-42.8	-43.6	21.7	0.00e+00	0	40	0	309329920	56	4124
2026-01-21 10:31:37.42	193.13	30.33	-42.7	-43.6	21.7	0.00e+00	0	40	0	312475648	56	4114
2026-01-21 10:31:38.43	193.29	30.50	-42.5	-43.4	21.9	0.00e+00	0	40	0	315621376	56	4013
2026-01-21 10:31:39.43	193.46	30.67	-42.6	-43.4	21.8	0.00e+00	0	40	0	318767104	56	4048
2026-01-21 10:31:40.44	193.63	30.85	-42.5	-43.3	22.0	0.00e+00	0	40	0	321912832	56	3973
2026-01-21 10:31:41.45	193.80	31.02	-42.5	-43.4	22.0	0.00e+00	0	40	0	325058560	56	4008
2026-01-21 10:31:42.46	193.97	31.20	-42.5	-43.3	22.0	0.00e+00	0	40	0	328204288	56	3972
2026-01-21 10:31:43.46	194.15	31.37	-42.5	-43.3	22.0	0.00e+00	0	40	0	331350016	56	3988
2026-01-21 10:31:44.47	194.33	31.55	-42.5	-43.3	22.0	0.00e+00	0	40	0	334495744	56	3996
2026-01-21 10:31:45.48	194.51	31.72	-42.5	-43.3	22.0	0.00e+00	0	40	0	337641472	56	3994
2026-01-21 10:31:46.49	194.69	31.90	-42.5	-43.3	22.0	0.00e+00	0	40	0	340787200	56	3980
2026-01-21 10:31:47.49	194.87	32.08	-42.6	-43.4	21.9	0.00e+00	0	40	0	343932928	56	4043
2026-01-21 10:31:48.50	195.05	32.26	-42.7	-43.5	21.9	0.00e+00	0	40	0	347078656	56	4064
2026-01-21 10:31:49.51	195.24	32.44	-42.6	-43.4	21.9	0.00e+00	0	40	0	350224384	56	4047
2026-01-21 10:31:50.52	195.43	32.62	-42.6	-43.4	21.8	0.00e+00	0	40	0	353370112	56	4046
2026-01-21 10:31:51.53	195.62	32.80	-42.6	-43.5	21.9	0.00e+00	0	40	0	356515840	56	4053
2026-01-21 10:31:52.53	195.81	32.99	-42.8	-43.6	21.7	0.00e+00	0	40	0	359661568	56	4133
2026-01-21 10:31:53.54	196.01	33.17	-42.9	-43.7	21.6	0.00e+00	0	40	0	362807296	56	4173
2026-01-21 10:31:54.55	196.21	33.35	-43.0	-43.9	21.5	0.00e+00	0	40	0	365953024	56	4245
2026-01-21 10:31:55.56	196.41	33.54	-43.2	-44.1	21.3	0.00e+00	0	40	0	369098752	56	4353
2026-01-21 10:31:56.57	196.61	33.73	-43.4	-44.3	21.2	0.00e+00	0	40	0	372244480	57	4197
2026-01-21 10:31:57.57	196.81	33.91	-43.5	-44.5	21.0	0.00e+00	0	40	0	375390208	57	4292
2026-01-21 10:31:58.58	197.02	34.10	-43.7	-44.6	20.8	0.00e+00	0	40	0	378535936	57	4376
2026-01-21 10:31:59.59	197.23	34.29	-43.8	-44.7	20.7	0.00e+00	0	40	0	381681664	58	4170
2026-01-21 10:32:00.59	197.43	34.47	-44.0	-44.9	20.5	0.00e+00	0	40	0	384827392	58	4276
2026-01-21 10:32:01.60	197.65	34.66	-44.1	-45.1	20.3	0.00e+00	0	40	0	387973120	58	4352
2026-01-21 10:32:02.61	197.86	34.85	-44.3	-45.3	20.2	0.00e+00	0	40	0	391118848	59	4200
2026-01-21 10:32:03.62	198.08	35.05	-44.3	-45.3	20.0	0.00e+00	0	40	0	394264576	59	4230
2026-01-21 10:32:04.63	198.30	35.24	-44.4	-45.4	20.0	0.00e+00	0	40	0	397410304	59	4265
2026-01-21 10:32:05.63	198.53	35.43	-44.3	-45.3	20.1	0.00e+00	0	40	0	400556032	59	4207
2026-01-21 10:32:06.64	198.75	35.62	-44.2	-45.2	20.1	0.00e+00	0	40	0	403701760	59	4183
2026-01-21 10:32:07.65	198.98	35.81	-44.3	-45.3	20.5	0.00e+00	0	40	0	406847488	59	4204
2026-01-21 10:32:08.66	199.21	36.01	-44.4	-45.4	20.4	0.00e+00	0	40	0	409993216	59	4259
2026-01-21 10:32:09.67	199.45	36.20	-44.4	-45.3	20.4	0.00e+00	0	40	0	413138944	59	4237
2026-01-21 10:32:10.67	199.68	36.40	-44.5	-45.5	20.3	0.00e+00	0	40	0	416284672	59	4311
2026-01-21 10:32:11.68	199.92	36.60	-44.6	-45.6	20.2	0.00e+00	0	40	0	419430400	59	4352
2026-01-21 10:32:12.69	200.17	36.79	-44.2	-45.1	20.3	0.00e+00	0	40	0	422576128	60	3900
2026-01-21 10:32:13.70	200.41	36.99	-44.2	-45.2	20.3	0.00e+00	0	40	0	425721856	60	3924
2026-01-21 10:32:14.71	200.66	37.19	-44.3	-45.3	20.2	0.00e+00	0	40	0	428867584	60	3981
2026-01-21 10:32:15.71	200.91	37.39	-44.3	-45.3	20.2	0.00e+00	0	40	0	432013312	60	3961
2026-01-21 10:32:16.72	201.16	37.59	-44.4	-45.3	20.2	0.00e+00	0	40	0	435159040	60	3999
2026-01-21 10:32:17.73	201.42	37.79	-44.6	-45.6	19.9	0.00e+00	0	40	0	438304768	60	4110
2026-01-21 10:32:18.74	201.68	37.99	-44.7	-45.7	19.7	0.00e+00	0	40	0	441450496	60	4161
2026-01-21 10:32:19.75	201.95	38.19	-44.8	-45.9	19.5	0.00e+00	0	40	0	444596224	60	4258
2026-01-21 10:32:20.75	202.21	38.39	-44.9	-45.9	19.3	0.00e+00	0	40	0	447741952	60	4276
2026-01-21 10:32:21.76	202.48	38.59	-45.0	-46.0	19.2	0.00e+00	0	40	0	450887680	60	4338
2026-01-21 10:32:22.77	202.75	38.79	-45.0	-46.1	19.3	0.00e+00	0	40	0	454033408	60	4349
2026-01-21 10:32:23.78	203.03	39.00	-45.0	-46.1	19.3	0.00e+00	0	40	0	457179136	60	4352
2026-01-21 10:32:24.79	203.31	39.20	-45.1	-46.2	19.1	0.00e+00	0	40	0	460324864	60	4422
2026-01-21 10:32:25.79	203.59	39.40	-45.0	-46.1	19.4	0.00e+00	0	40	0	463470592	60	4358
2026-01-21 10:32:26.80	203.88	39.61	-44.8	-45.8	19.6	0.00e+00	0	40	0	466616320	60	4239
2026-01-21 10:32:27.81	204.17	39.81	-44.5	-45.5	20.0	0.00e+00	0	40	0	469762048	60	4063
2026-01-21 10:32:28.81	204.46	40.01	-44.6	-45.6	19.9	0.00e+00	0	40	0	472907776	60	4124
2026-01-21 10:32:29.82	204.76	40.22	-44.6	-45.6	19.9	0.00e+00	0	40	0	476053504	60	4109
2026-01-21 10:32:30.83	205.07	40.43	-44.4	-45.4	20.0	0.00e+00	0	40	0	479199232	60	4044
2026-01-21 10:32:31.84	205.37	40.63	-44.6	-45.6	19.8	0.00e+00	0	40	0	482344960	60	4132
2026-01-21 10:32:32.84	205.68	40.84	-44.5	-45.4	20.0	0.00e+00	0	40	0	485490688	60	4050
2026-01-21 10:32:33.85	205.99	41.04	-44.3	-45.2	20.2	0.00e+00	0	40	0	488636416	60	3954
2026-01-21 10:32:34.86	206.31	41.25	-44.2	-45.1	20.3	0.00e+00	0	40	0	491782144	60	3898
2026-01-21 10:32:35.87	206.63	41.46	-44.4	-45.4	20.3	0.00e+00	0	40	0	494927872	59	4247
2026-01-21 10:32:36.88	206.96	41.67	-44.5	-45.5	20.3	0.00e+00	0	40	0	498073600	59	4300
2026-01-21 10:32:37.89	207.29	41.87	-44.6	-45.6	20.2	0.00e+00	0	40	0	501219328	59	4342
2026-01-21 10:32:38.89	207.62	42.08	-44.5	-45.5	20.2	0.00e+00	0	40	0	504365056	59	4334
2026-01-21 10:32:39.90	207.96	42.29	-44.6	-45.6	20.2	0.00e+00	0	40	0	507510784	59	4381
2026-01-21 10:32:40.91	208.30	42.50	-44.4	-45.4	20.1	0.00e+00	0	40	0	510656512	60	4034
2026-01-21 10:32:41.92	208.65	42.70	-44.8	-45.9	19.6	0.00e+00	0	40	0	513802240	60	4262
2026-01-21 10:32:42.92	208.99	42.91	-45.0	-46.1	19.5	0.00e+00	0	40	0	516947968	60	4363
2026-01-21 10:32:43.93	209.35	43.12	-45.1	-46.2	19.4	0.00e+00	0	40	0	520093696	60	4420
2026-01-21 10:32:44.94	209.71	43.33	-45.1	-46.2	19.4	0.00e+00	0	40	0	523239424	60	4397
2026-01-21 10:32:45.95	210.08	43.53	-44.9	-46.0	19.5	0.00e+00	0	40	0	526385152	60	4301
2026-01-21 10:32:46.96	210.45	43.74	-45.1	-46.2	19.4	0.00e+00	0	40	0	529530880	60	4412
2026-01-21 10:32:47.97	210.82	43.95	-45.1	-46.2	19.4	0.00e+00	0	40	0	532676608	60	4405
2026-01-21 10:32:48.98	211.20	44.16	-45.4	-46.5	19.2	0.00e+00	0	40	0	535822336	61	4293
2026-01-21 10:32:49.99	211.58	44.36	-45.4	-46.5	19.1	0.00e+00	0	40	0	538968064	61	4312
2026-01-21 10:32:50.99	211.97	44.57	-45.3	-46.4	19.2	0.00e+00	0	40	0	542113792	61	4249
2026-01-21 10:32:52.00	212.36	44.77	-45.2	-46.3	19.4	0.00e+00	0	40	0	545259520	61	4195
2026-01-21 10:32:53.01	212.76	44.98	-44.8	-45.8	19.8	0.00e+00	0	40	0	548405248	61	3979
2026-01-21 10:32:54.02	213.17	45.19	-44.4	-45.4	20.2	0.00e+00	0	40	0	551550976	60	4009
2026-01-21 10:32:55.03	213.58	45.39	-44.2	-45.1	20.4	0.00e+00	0	40	0	554696704	60	3901
2026-01-21 10:32:56.03	213.99	45.59	-44.2	-45.2	20.4	0.00e+00	0	40	0	557842432	60	3917
2026-01-21 10:32:57.04	214.41	45.80	-44.3	-45.3	20.5	0.00e+00	0	40	0	560988160	59	4214
2026-01-21 10:32:58.05	214.83	46.00	-44.4	-45.4	20.4	0.00e+00	0	40	0	564133888	59	4256
2026-01-21 10:32:59.06	215.27	46.20	-44.7	-45.7	20.2	0.00e+00	0	40	0	567279616	59	4397
2026-01-21 10:33:00.07	215.70	46.40	-44.5	-45.5	20.1	0.00e+00	0	40	0	570425344	60	4079
2026-01-21 10:33:01.07	216.14	46.60	-44.5	-45.5	20.0	0.00e+00	0	40	0	573571072	60	4084
2026-01-21 10:33:02.08	216.59	46.80	-44.5	-45.4	20.0	0.00e+00	0	40	0	576716800	60	4038
2026-01-21 10:33:03.09	217.04	47.00	-44.5	-45.4	19.9	0.00e+00	0	40	0	579862528	60	4044
2026-01-21 10:33:04.10	217.50	47.20	-44.6	-45.6	19.9	0.00e+00	0	40	0	583008256	60	4122
2026-01-21 10:33:05.11	217.97	47.40	-44.7	-45.7	19.8	0.00e+00	0	40	0	586153984	60	4159
2026-01-21 10:33:06.11	218.43	47.59	-44.8	-45.8	19.7	0.00e+00	0	40	0	589299712	60	4240
2026-01-21 10:33:07.12	218.91	47.78	-44.9	-46.0	19.6	0.00e+00	0	40	0	592445440	60	4321
2026-01-21 10:33:08.13	219.39	47.98	-45.1	-46.2	19.4	0.00e+00	0	40	0	595591168	60	4415
2026-01-21 10:33:09.13	219.87	48.17	-45.1	-46.1	19.5	0.00e+00	0	40	0	598736896	60	4385
2026-01-21 10:33:10.14	220.37	48.36	-45.0	-46.1	19.3	0.00e+00	0	40	0	601882624	60	4358
2026-01-21 10:33:11.15	220.87	48.55	-44.9	-45.9	19.5	0.00e+00	0	40	0	605028352	60	4279
2026-01-21 10:33:12.16	221.37	48.74	-44.6	-45.6	19.8	0.00e+00	0	40	0	608174080	60	4139
2026-01-21 10:33:13.17	221.89	48.92	-44.3	-45.2	20.2	0.00e+00	0	40	0	611319808	60	3935
2026-01-21 10:33:14.18	222.41	49.11	-44.2	-45.2	20.2	0.00e+00	0	40	0	614465536	60	3930
2026-01-21 10:33:15.19	222.93	49.29	-44.3	-45.3	20.2	0.00e+00	0	40	0	617611264	60	3973
2026-01-21 10:33:16.19	223.46	49.47	-44.4	-45.4	20.2	0.00e+00	0	40	0	620756992	60	4013
2026-01-21 10:33:17.20	223.99	49.65	-44.6	-45.6	20.0	0.00e+00	0	40	0	623902720	60	4137
2026-01-21 10:33:18.21	224.54	49.82	-44.8	-45.8	19.8	0.00e+00	0	40	0	627048448	60	4238
2026-01-21 10:33:19.22	225.09	50.00	-44.7	-45.7	19.9	0.00e+00	0	40	0	630194176	60	4151
2026-01-21 10:33:20.23	225.64	50.17	-44.3	-45.3	20.1	0.00e+00	0	40	0	633339904	60	3973
2026-01-21 10:33:21.23	226.20	50.34	-44.3	-45.3	20.2	0.00e+00	0	40	0	636485632	60	3984
2026-01-21 10:33:22.24	226.77	50.51	-44.1	-45.0	20.7	0.00e+00	0	40	0	639631360	59	4090
2026-01-21 10:33:23.25	227.34	50.68	-43.8	-44.6	21.1	0.00e+00	0	40	0	642777088	59	3910
2026-01-21 10:33:24.26	227.92	50.84	-43.7	-44.6	21.1	0.00e+00	0	40	0	645922816	59	3876
2026-01-21 10:33:25.27	228.51	51.00	-43.6	-44.5	21.2	0.00e+00	0	40	0	649068544	59	3845
2026-01-21 10:33:26.27	229.10	51.16	-43.6	-44.5	21.2	0.00e+00	0	40	0	652214272	59	3855
2026-01-21 10:33:27.28	229.70	51.31	-43.7	-44.6	21.1	0.00e+00	0	40	0	655360000	59	3906
2026-01-21 10:33:28.29	230.30	51.47	-43.6	-44.5	21.3	0.00e+00	0	40	0	658505728	59	3845
2026-01-21 10:33:29.30	230.92	51.62	-43.6	-44.4	21.3	0.00e+00	0	40	0	661651456	58	4044
2026-01-21 10:33:30.31	231.53	51.77	-43.6	-44.5	21.2	0.00e+00	0	40	0	664797184	58	4063
2026-01-21 10:33:31.31	232.15	51.91	-43.7	-44.5	21.1	0.00e+00	0	40	0	667942912	58	4090
2026-01-21 10:33:32.32	232.78	52.05	-43.9	-44.8	21.0	0.00e+00	0	40	0	671088640	58	4207
2026-01-21 10:33:33.33	233.42	52.19	-43.9	-44.8	20.9	0.00e+00	0	40	0	674234368	58	4241
2026-01-21 10:33:34.34	234.06	52.32	-43.8	-44.7	21.1	0.00e+00	0	40	0	677380096	58	4180
2026-01-21 10:33:35.35	234.71	52.46	-43.9	-44.8	20.9	0.00e+00	0	40	0	680525824	58	4240
2026-01-21 10:33:36.35	235.35	52.58	-43.8	-44.7	21.1	0.00e+00	0	40	0	683671552	58	4172
2026-01-21 10:33:37.36	236.01	52.71	-44.0	-45.0	20.7	0.00e+00	0	40	0	686817280	58	4296
2026-01-21 10:33:38.37	236.68	52.83	-44.2	-45.2	20.7	0.00e+00	0	40	0	689963008	58	4398
2026-01-21 10:33:39.37	237.34	52.95	-43.9	-44.8	20.9	0.00e+00	0	40	0	693108736	58	4232
2026-01-21 10:33:40.38	238.01	53.06	-43.7	-44.7	21.1	0.00e+00	0	40	0	696254464	58	4147
2026-01-21 10:33:41.39	238.69	53.17	-43.5	-44.4	21.1	0.00e+00	0	40	0	699400192	58	4011
2026-01-21 10:33:42.40	239.38	53.28	-43.8	-44.7	20.7	0.00e+00	0	40	0	702545920	58	4159
2026-01-21 10:33:43.41	240.07	53.38	-44.2	-45.2	20.1	0.00e+00	0	40	0	705691648	59	4174
2026-01-21 10:33:44.41	240.76	53.48	-44.4	-45.4	20.3	0.00e+00	0	40	0	708837376	59	4244
2026-01-21 10:33:45.42	241.46	53.57	-44.0	-44.9	20.8	0.00e+00	0	40	0	711983104	59	4029
2026-01-21 10:33:46.43	242.16	53.66	-43.9	-44.8	20.8	0.00e+00	0	40	0	715128832	59	3987
2026-01-21 10:33:47.44	242.87	53.75	-44.0	-44.9	20.5	0.00e+00	0	40	0	718274560	59	4042
2026-01-21 10:33:48.45	243.58	53.83	-44.0	-44.9	20.7	0.00e+00	0	40	0	721420288	59	4038
2026-01-21 10:33:49.45	244.29	53.91	-43.7	-44.6	21.0	0.00e+00	0	40	0	724566016	59	3899
2026-01-21 10:33:50.46	245.01	53.98	-43.2	-44.0	21.6	0.00e+00	0	40	0	727711744	58	3859
2026-01-21 10:33:51.47	245.73	54.05	-43.0	-43.9	21.7	0.00e+00	0	40	0	730857472	57	4007
2026-01-21 10:33:52.48	246.46	54.12	-43.2	-44.0	21.5	0.00e+00	0	40	0	734003200	57	4095
2026-01-21 10:33:53.48	247.18	54.18	-43.4	-44.2	21.4	0.00e+00	0	40	0	737148928	57	4183
2026-01-21 10:33:54.49	247.91	54.23	-43.0	-43.8	21.8	0.00e+00	0	40	0	740294656	57	3983
2026-01-21 10:33:55.50	248.65	54.28	-43.1	-44.0	21.6	0.00e+00	0	40	0	744488960	57	4075
2026-01-21 10:33:56.51	249.38	54.33	-43.4	-44.3	21.4	0.00e+00	0	40	0	747634688	57	4231
2026-01-21 10:33:57.52	250.12	54.37	-43.7	-44.6	21.2	0.00e+00	0	40	0	750780416	57	4356
2026-01-21 10:33:58.52	250.86	54.41	-43.6	-44.5	21.2	0.00e+00	0	40	0	752877568	58	4061
2026-01-21 10:33:59.53	251.60	54.44	-43.3	-44.1	21.6	0.00e+00	0	40	0	756023296	58	3897
2026-01-21 10:34:00.54	252.35	54.47	-43.2	-44.0	21.6	0.00e+00	0	40	0	759169024	58	3855
2026-01-21 10:34:01.55	253.09	54.49	-43.2	-44.0	21.4	0.00e+00	0	40	0	762314752	58	3857
2026-01-21 10:34:02.56	253.84	54.51	-43.3	-44.2	21.2	0.00e+00	0	40	0	765460480	58	3915
2026-01-21 10:34:03.57	254.59	54.52	-43.1	-43.9	21.6	0.00e+00	0	40	0	768606208	58	3809
2026-01-21 10:34:04.57	255.33	54.53	-43.1	-43.9	21.7	0.00e+00	0	40	0	771751936	57	4050
2026-01-21 10:34:05.58	256.08	54.54	-43.5	-44.3	21.3	0.00e+00	0	40	0	774897664	57	4227
2026-01-21 10:34:06.59	256.83	54.53	-43.7	-44.6	21.0	0.00e+00	0	40	0	778043392	58	4127
2026-01-21 10:34:07.60	257.58	54.53	-43.9	-44.8	20.9	0.00e+00	0	40	0	781189120	58	4229
2026-01-21 10:34:08.61	258.32	54.52	-43.7	-44.6	21.1	0.00e+00	0	40	0	785383424	58	4123
2026-01-21 10:34:09.62	259.07	54.50	-43.5	-44.4	21.2	0.00e+00	0	40	0	788529152	58	4036
2026-01-21 10:34:10.62	259.81	54.48	-43.7	-44.6	20.7	0.00e+00	0	40	0	791674880	58	4139
2026-01-21 10:34:11.63	260.56	54.46	-44.1	-45.1	20.5	0.00e+00	0	40	0	794820608	58	4379
2026-01-21 10:34:12.64	261.30	54.43	-44.0	-45.0	20.6	0.00e+00	0	40	0	797966336	58	4293
2026-01-21 10:34:13.65	262.04	54.39	-43.9	-44.8	20.8	0.00e+00	0	40	0	800063488	58	4233
2026-01-21 10:34:14.65	262.78	54.36	-43.7	-44.6	21.1	0.00e+00	0	40	0	803209216	58	4137
2026-01-21 10:34:15.66	263.52	54.31	-43.5	-44.4	21.1	0.00e+00	0	40	0	806354944	58	4030
2026-01-21 10:34:16.67	264.25	54.26	-43.6	-44.4	21.2	0.00e+00	0	40	0	809500672	58	4044
2026-01-21 10:34:17.68	264.99	54.21	-43.2	-44.1	21.5	0.00e+00	0	40	0	812646400	58	3886
2026-01-21 10:34:18.68	265.71	54.15	-43.3	-44.2	21.5	0.00e+00	0	40	0	815792128	58	3925
2026-01-21 10:34:19.69	266.44	54.09	-43.3	-44.1	21.5	0.00e+00	0	40	0	818937856	58	3899
2026-01-21 10:34:20.70	267.16	54.03	-43.5	-44.3	21.3	0.00e+00	0	40	0	822083584	58	3998
2026-01-21 10:34:21.71	267.88	53.96	-43.4	-44.3	21.4	0.00e+00	0	40	0	826277888	58	3987
2026-01-21 10:34:22.72	268.60	53.88	-43.0	-43.8	21.8	0.00e+00	0	40	0	829423616	58	3777
2026-01-21 10:34:23.72	269.31	53.80	-43.0	-43.8	21.8	0.00e+00	0	40	0	832569344	57	3999
2026-01-21 10:34:24.73	270.02	53.72	-43.1	-43.9	21.7	0.00e+00	0	40	0	835715072	57	4027
2026-01-21 10:34:25.74	270.72	53.63	-43.3	-44.2	21.5	0.00e+00	0	40	0	838860800	57	4170
2026-01-21 10:34:26.75	271.42	53.54	-43.7	-44.5	21.2	0.00e+00	0	40	0	842006528	57	4334
2026-01-21 10:34:27.76	272.12	53.44	-43.9	-44.8	21.0	0.00e+00	0	40	0	845152256	58	4228
2026-01-21 10:34:28.77	272.81	53.34	-44.2	-45.2	20.7	0.00e+00	0	40	0	847249408	59	4149
2026-01-21 10:34:29.78	273.50	53.24	-44.1	-45.0	20.8	0.00e+00	0	40	0	850395136	59	4097
2026-01-21 10:34:30.78	274.18	53.13	-43.8	-44.7	21.1	0.00e+00	0	40	0	853540864	59	3948
2026-01-21 10:34:31.79	274.85	53.02	-43.9	-44.8	21.0	0.00e+00	0	40	0	856686592	59	4001
2026-01-21 10:34:32.79	275.52	52.90	-43.8	-44.7	21.1	0.00e+00	0	40	0	859832320	59	3958
2026-01-21 10:34:33.80	276.19	52.79	-43.5	-44.4	21.4	0.00e+00	0	40	0	864026624	59	3791
2026-01-21 10:34:34.81	276.85	52.66	-43.5	-44.3	21.5	0.00e+00	0	40	0	867172352	58	3992
2026-01-21 10:34:35.82	277.50	52.54	-43.1	-44.0	21.7	0.00e+00	0	40	0	870318080	58	3830
2026-01-21 10:34:36.82	278.15	52.41	-43.2	-44.0	21.6	0.00e+00	0	40	0	873463808	58	3867
2026-01-21 10:34:37.83	278.79	52.28	-43.2	-44.0	21.6	0.00e+00	0	40	0	876609536	58	3865
2026-01-21 10:34:38.84	279.43	52.14	-43.3	-44.1	21.6	0.00e+00	0	40	0	879755264	58	3895
2026-01-21 10:34:39.85	280.06	52.00	-43.5	-44.4	21.4	0.00e+00	0	40	0	882900992	58	4032
2026-01-21 10:34:40.86	280.69	51.86	-44.0	-44.9	20.9	0.00e+00	0	40	0	886046720	58	4268
2026-01-21 10:34:41.87	281.31	51.71	-44.5	-45.5	20.4	0.00e+00	0	40	0	889192448	59	4322
2026-01-21 10:34:42.87	281.92	51.57	-44.5	-45.5	20.1	0.00e+00	0	40	0	892338176	60	4093
2026-01-21 10:34:43.88	282.53	51.41	-44.5	-45.5	20.1	0.00e+00	0	40	0	894435328	60	4090
2026-01-21 10:34:44.89	283.13	51.26	-44.8	-45.8	19.7	0.00e+00	0	40	0	897581056	60	4214
2026-01-21 10:34:45.90	283.73	51.10	-44.8	-45.8	19.8	0.00e+00	0	40	0	900726784	60	4235
2026-01-21 10:34:46.91	284.32	50.94	-44.5	-45.4	20.1	0.00e+00	0	40	0	904921088	60	4041
2026-01-21 10:34:47.92	284.90	50.78	-44.2	-45.1	20.5	0.00e+00	0	40	0	908066816	60	3897
2026-01-21 10:34:48.92	285.47	50.62	-44.4	-45.3	20.6	0.00e+00	0	40	0	911212544	59	4241
2026-01-21 10:34:49.93	286.04	50.45	-44.5	-45.4	20.5	0.00e+00	0	40	0	914358272	59	4286
2026-01-21 10:34:50.94	286.61	50.28	-44.6	-45.6	20.3	0.00e+00	0	40	0	917504000	59	4375
2026-01-21 10:34:51.95	287.17	50.11	-44.3	-45.2	20.7	0.00e+00	0	40	0	920649728	59	4190
2026-01-21 10:34:52.96	287.72	49.94	-44.3	-45.3	20.6	0.00e+00	0	40	0	923795456	59	4210
2026-01-21 10:34:53.97	288.27	49.76	-44.2	-45.1	20.7	0.00e+00	0	40	0	926941184	59	4142
2026-01-21 10:34:54.97	288.80	49.59	-43.9	-44.8	21.0	0.00e+00	0	40	0	930086912	59	3985
2026-01-21 10:34:55.98	289.34	49.41	-43.9	-44.8	21.0	0.00e+00	0	40	0	933232640	59	3962
2026-01-21 10:34:56.99	289.86	49.23	-44.1	-45.0	20.8	0.00e+00	0	40	0	936378368	59	4086
2026-01-21 10:34:58.00	290.38	49.05	-44.6	-45.6	20.4	0.00e+00	0	40	0	939524096	59	4361
2026-01-21 10:34:59.01	290.90	48.86	-44.7	-45.7	20.0	0.00e+00	0	40	0	942669824	60	4175
2026-01-21 10:35:00.02	291.41	48.67	-44.7	-45.7	20.0	0.00e+00	0	40	0	945815552	60	4165
2026-01-21 10:35:01.03	291.91	48.49	-44.6	-45.6	19.8	0.00e+00	0	40	0	948961280	60	4134
2026-01-21 10:35:02.03	292.41	48.30	-45.0	-46.0	19.6	0.00e+00	0	40	0	952107008	60	4317
2026-01-21 10:35:03.04	292.90	48.11	-44.6	-45.6	20.0	0.00e+00	0	40	0	955252736	60	4122
2026-01-21 10:35:04.05	293.38	47.92	-44.8	-45.8	20.0	0.00e+00	0	40	0	958398464	60	4196
2026-01-21 10:35:05.06	293.86	47.72	-44.8	-45.8	19.9	0.00e+00	0	40	0	961544192	60	4211
2026-01-21 10:35:06.07	294.33	47.53	-44.9	-45.9	19.7	0.00e+00	0	40	0	964689920	60	4260
2026-01-21 10:35:07.08	294.80	47.33	-45.2	-46.3	19.4	0.00e+00	0	40	0	967835648	60	4464
2026-01-21 10:35:08.09	295.26	47.14	-45.4	-46.5	19.2	0.00e+00	0	40	0	970981376	61	4318
2026-01-21 10:35:09.10	295.72	46.94	-45.2	-46.3	19.4	0.00e+00	0	40	0	974127104	61	4227
2026-01-21 10:35:10.11	296.17	46.74	-44.9	-45.9	19.8	0.00e+00	0	40	0	977272832	61	4042
2026-01-21 10:35:11.12	296.61	46.54	-44.7	-45.6	20.1	0.00e+00	0	40	0	980418560	61	3908
2026-01-21 10:35:12.13	297.05	46.34	-44.5	-45.4	20.2	0.00e+00	0	40	0	983564288	60	4045
2026-01-21 10:35:13.13	297.48	46.14	-44.5	-45.5	20.2	0.00e+00	0	40	0	986710016	60	4059
2026-01-21 10:35:14.14	297.91	45.94	-44.5	-45.5	20.2	0.00e+00	0	40	0	989855744	60	4058
2026-01-21 10:35:15.15	298.33	45.74	-44.6	-45.6	20.0	0.00e+00	0	40	0	993001472	60	4116
2026-01-21 10:35:16.16	298.75	45.53	-44.8	-45.9	19.8	0.00e+00	0	40	0	996147200	60	4243
2026-01-21 10:35:17.16	299.16	45.33	-44.7	-45.7	20.0	0.00e+00	0	40	0	999292928	60	4157
2026-01-21 10:35:18.17	299.57	45.13	-44.6	-45.6	20.1	0.00e+00	0	40	0	1002438656	60	4116
2026-01-21 10:35:19.18	299.97	44.92	-44.5	-45.4	20.3	0.00e+00	0	40	0	1005584384	60	4038
2026-01-21 10:35:20.19	300.37	44.72	-44.9	-45.9	19.8	0.00e+00	0	40	0	1008730112	60	4269
2026-01-21 10:35:21.20	300.76	44.51	-45.4	-46.5	19.2	0.00e+00	0	40	0	1011875840	61	4303
2026-01-21 10:35:22.20	301.14	44.31	-45.7	-46.8	18.9	0.00e+00	0	40	0	1015021568	61	4473
2026-01-21 10:35:23.21	301.52	44.10	-45.7	-46.8	18.9	0.00e+00	0	40	0	1018167296	61	4474
2026-01-21 10:35:24.22	301.90	43.90	-45.5	-46.6	19.0	0.00e+00	0	40	0	1021313024	61	4384
2026-01-21 10:35:25.23	302.27	43.69	-45.2	-46.3	19.4	0.00e+00	0	40	0	1024458752	61	4214
2026-01-21 10:35:26.24	302.64	43.48	-44.9	-45.9	19.7	0.00e+00	0	40	0	1027604480	61	4026
2026-01-21 10:35:27.24	303.00	43.28	-44.7	-45.6	20.0	0.00e+00	0	40	0	1030750208	61	3912
2026-01-21 10:35:28.25	303.36	43.07	-44.4	-45.4	20.1	0.00e+00	0	40	0	1033895936	60	4033
2026-01-21 10:35:29.26	303.71	42.86	-44.5	-45.5	20.1	0.00e+00	0	40	0	1037041664	60	4085
2026-01-21 10:35:30.27	304.06	42.65	-44.8	-45.8	19.8	0.00e+00	0	40	0	1040187392	60	4203
2026-01-21 10:35:31.28	304.40	42.45	-45.1	-46.1	19.5	0.00e+00	0	40	0	1043333120	60	4370
2026-01-21 10:35:32.29	304.75	42.24	-45.0	-46.0	19.6	0.00e+00	0	40	0	1046478848	60	4317
2026-01-21 10:35:33.29	305.08	42.04	-44.8	-45.9	19.8	0.00e+00	0	40	0	1049624576	60	4246
2026-01-21 10:35:34.30	305.41	41.83	-44.7	-45.6	19.7	0.00e+00	0	40	0	1052770304	60	4140
2026-01-21 10:35:35.31	305.74	41.62	-44.6	-45.6	19.7	0.00e+00	0	40	0	1055916032	60	4139
2026-01-21 10:35:36.32	306.06	41.41	-44.7	-45.7	19.7	0.00e+00	0	40	0	1059061760	60	4182
2026-01-21 10:35:37.33	306.38	41.21	-44.9	-45.9	19.5	0.00e+00	0	40	0	1062207488	60	4267
2026-01-21 10:35:38.34	306.70	41.00	-45.2	-46.3	19.2	0.00e+00	0	40	0	1065353216	61	4240
2026-01-21 10:35:39.35	307.01	40.80	-45.4	-46.6	19.0	0.00e+00	0	40	0	1068498944	61	4356
2026-01-21 10:35:40.35	307.31	40.59	-45.4	-46.5	19.1	0.00e+00	0	40	0	1071644672	61	4319
2026-01-21 10:35:41.36	307.62	40.39	-45.4	-46.5	19.1	0.00e+00	0	40	0	1074790400	61	4338
2026-01-21 10:35:42.37	307.92	40.18	-45.2	-46.2	19.4	0.00e+00	0	40	0	1077936128	61	4190
2026-01-21 10:35:43.38	308.21	39.98	-45.2	-46.3	19.3	0.00e+00	0	40	0	1081081856	61	4211
2026-01-21 10:35:44.39	308.51	39.77	-45.1	-46.2	19.4	0.00e+00	0	40	0	1084227584	61	4166
2026-01-21 10:35:45.40	308.80	39.57	-44.7	-45.7	19.9	0.00e+00	0	40	0	1087373312	61	3938
2026-01-21 10:35:46.41	309.08	39.36	-44.4	-45.4	20.2	0.00e+00	0	40	0	1090519040	60	4016
2026-01-21 10:35:47.41	309.36	39.16	-44.2	-45.2	20.3	0.00e+00	0	40	0	1093664768	60	3917
2026-01-21 10:35:48.42	309.64	38.96	-44.0	-44.9	20.5	0.00e+00	0	40	0	1096810496	60	3820
2026-01-21 10:35:49.43	309.92	38.76	-44.1	-45.0	20.8	0.00e+00	0	40	0	1099956224	59	4077
2026-01-21 10:35:50.44	310.19	38.56	-43.9	-44.8	20.9	0.00e+00	0	40	0	1103101952	59	3985
2026-01-21 10:35:51.45	310.46	38.36	-43.9	-44.8	20.8	0.00e+00	0	40	0	1106247680	59	3968
2026-01-21 10:35:52.45	310.72	38.16	-44.2	-45.2	20.5	0.00e+00	0	40	0	1109393408	59	4148
2026-01-21 10:35:53.46	310.98	37.96	-44.6	-45.5	20.2	0.00e+00	0	40	0	1112539136	59	4333
2026-01-21 10:35:54.47	311.24	37.76	-44.5	-45.5	20.0	0.00e+00	0	40	0	1115684864	60	4058
2026-01-21 10:35:55.48	311.50	37.56	-44.3	-45.3	20.2	0.00e+00	0	40	0	1118830592	60	3983
2026-01-21 10:35:56.49	311.75	37.36	-44.3	-45.2	20.3	0.00e+00	0	40	0	1121976320	60	3950
2026-01-21 10:35:57.49	312.00	37.16	-44.0	-45.0	20.5	0.00e+00	0	40	0	1125122048	60	3841
2026-01-21 10:35:58.50	312.25	36.97	-44.1	-45.1	20.5	0.00e+00	0	40	0	1128267776	60	3872
2026-01-21 10:35:59.51	312.49	36.77	-44.1	-45.0	20.7	0.00e+00	0	40	0	1131413504	59	4087
2026-01-21 10:36:00.51	312.73	36.57	-44.0	-44.9	20.9	0.00e+00	0	40	0	1134559232	59	4025
2026-01-21 10:36:01.52	312.97	36.38	-44.0	-45.0	20.8	0.00e+00	0	40	0	1137704960	59	4061
2026-01-21 10:36:02.53	313.20	36.18	-44.0	-44.9	20.9	0.00e+00	0	40	0	1140850688	59	4032
2026-01-21 10:36:03.54	313.44	35.99	-43.9	-44.8	20.9	0.00e+00	0	40	0	1143996416	59	3973
2026-01-21 10:36:04.55	313.67	35.80	-43.7	-44.6	21.0	0.00e+00	0	40	0	1147142144	59	3895
2026-01-21 10:36:05.56	313.90	35.60	-43.7	-44.6	21.0	0.00e+00	0	40	0	1150287872	59	3893
2026-01-21 10:36:06.57	314.12	35.41	-43.6	-44.5	21.1	0.00e+00	0	40	0	1153433600	59	3844
2026-01-21 10:36:07.58	314.34	35.22	-43.2	-44.0	21.5	0.00e+00	0	40	0	1156579328	58	3850
2026-01-21 10:36:08.59	314.56	35.03	-43.0	-43.8	21.7	0.00e+00	0	40	0	1159725056	58	3772
2026-01-21 10:36:09.60	314.78	34.84	-43.1	-43.9	21.6	0.00e+00	0	40	0	1162870784	58	3824
2026-01-21 10:36:10.61	315.00	34.65	-43.1	-44.0	21.5	0.00e+00	0	40	0	1166016512	58	3825
2026-01-21 10:36:11.61	315.21	34.46	-43.4	-44.3	21.3	0.00e+00	0	40	0	1169162240	58	3966
2026-01-21 10:36:12.62	315.42	34.27	-43.7	-44.6	21.0	0.00e+00	0	40	0	1172307968	58	4113
2026-01-21 10:36:13.63	315.62	34.09	-43.9	-44.9	20.8	0.00e+00	0	40	0	1175453696	58	4244
2026-01-21 10:36:14.64	315.83	33.90	-43.8	-44.7	20.9	0.00e+00	0	40	0	1178599424	58	4192
2026-01-21 10:36:15.65	316.03	33.72	-43.4	-44.3	21.3	0.00e+00	0	40	0	1181745152	58	3989
2026-01-21 10:36:16.65	316.23	33.53	-43.3	-44.1	21.5	0.00e+00	0	40	0	1184890880	58	3896
2026-01-21 10:36:17.66	316.43	33.35	-43.4	-44.2	21.4	0.00e+00	0	40	0	1188036608	58	3952
2026-01-21 10:36:18.67	316.63	33.16	-43.4	-44.2	21.3	0.00e+00	0	40	0	1191182336	58	3955
2026-01-21 10:36:19.68	316.82	32.98	-43.4	-44.3	21.3	0.00e+00	0	40	0	1194328064	58	3969
2026-01-21 10:36:20.68	317.01	32.80	-43.4	-44.3	21.3	0.00e+00	0	40	0	1197473792	58	3961
2026-01-21 10:36:21.69	317.20	32.62	-43.0	-43.8	21.7	0.00e+00	0	40	0	1200619520	57	3986
2026-01-21 10:36:22.70	317.39	32.44	-42.8	-43.6	21.9	0.00e+00	0	40	0	1203765248	57	3884
2026-01-21 10:36:23.71	317.58	32.26	-42.5	-43.3	22.2	0.00e+00	0	40	0	1206910976	57	3749
2026-01-21 10:36:24.72	317.76	32.08	-42.3	-43.1	22.3	0.00e+00	0	40	0	1210056704	56	3893
2026-01-21 10:36:25.73	317.95	31.90	-42.2	-42.9	22.5	0.00e+00	0	40	0	1213202432	56	3814
2026-01-21 10:36:26.73	318.12	31.73	-41.7	-42.5	22.7	0.00e+00	0	40	0	1216348160	55	3834
2026-01-21 10:36:27.74	318.30	31.55	-41.8	-42.6	22.7	0.00e+00	0	40	0	1219493888	55	3873
2026-01-21 10:36:28.75	318.48	31.37	-42.0	-42.7	22.5	0.00e+00	0	40	0	1222639616	55	3954
2026-01-21 10:36:29.76	318.65	31.20	-42.3	-43.1	22.3	0.00e+00	0	40	0	1225785344	55	4099
2026-01-21 10:36:30.77	318.83	31.03	-42.5	-43.3	22.0	0.00e+00	0	40	0	1228931072	55	4214
2026-01-21 10:36:31.78	319.00	30.85	-42.6	-43.5	21.9	0.00e+00	0	40	0	1232076800	55	4305
2026-01-21 10:36:32.79	319.17	30.68	-42.9	-43.7	21.7	0.00e+00	0	40	0	1235222528	56	4175
2026-01-21 10:36:33.80	319.33	30.51	-42.8	-43.6	21.7	0.00e+00	0	40	0	1238368256	56	4130
2026-01-21 10:36:34.80	319.50	30.34	-42.7	-43.6	21.7	0.00e+00	0	40	0	1241513984	56	4111
2026-01-21 10:36:35.81	319.66	30.17	-42.8	-43.6	21.6	0.00e+00	0	40	0	1244659712	56	4128
2026-01-21 10:36:36.82	319.83	30.00	-42.7	-43.5	21.7	0.00e+00	0	40	0	1247805440	56	4082
2026-01-21 10:36:37.83	319.99	29.83	-42.6	-43.4	21.8	0.00e+00	0	40	0	1250951168	56	4051
2026-01-21 10:36:38.84	320.15	29.66	-42.6	-43.4	21.9	0.00e+00	0	40	0	1254096896	56	4036
2026-01-21 10:36:39.84	320.30	29.49	-42.5	-43.3	22.0	0.00e+00	0	40	0	1257242624	56	3998
2026-01-21 10:36:40.85	320.46	29.33	-42.2	-43.0	22.3	0.00e+00	0	40	0	1260388352	56	3859
2026-01-21 10:36:41.86	320.61	29.16	-42.2	-43.0	22.3	0.00e+00	0	40	0	1263534080	56	3835
2026-01-21 10:36:42.87	320.77	29.00	-42.2	-43.0	22.3	0.00e+00	0	40	0	1266679808	56	3860
2026-01-21 10:36:43.88	320.92	28.83	-42.3	-43.1	22.3	0.00e+00	0	40	0	1269825536	56	3883
2026-01-21 10:36:44.89	321.07	28.67	-42.4	-43.2	22.2	0.00e+00	0	40	0	1272971264	56	3927
2026-01-21 10:36:45.89	321.21	28.51	-42.5	-43.3	22.1	0.00e+00	0	40	0	1276116992	56	3967
2026-01-21 10:36:46.90	321.36	28.34	-42.4	-43.2	22.2	0.00e+00	0	40	0	1279262720	56	3938
2026-01-21 10:36:47.91	321.51	28.18	-42.4	-43.2	22.2	0.00e+00	0	40	0	1282408448	56	3931
2026-01-21 10:36:48.92	321.65	28.02	-42.2	-43.0	22.3	0.00e+00	0	40	0	1285554176	56	3860
2026-01-21 10:36:49.93	321.79	27.86	-42.3	-43.1	22.3	0.00e+00	0	40	0	1288699904	56	3896
2026-01-21 10:36:50.93	321.93	27.71	-42.5	-43.3	22.1	0.00e+00	0	40	0	1291845632	56	3985
2026-01-21 10:36:51.95	322.08	27.55	-42.6	-43.4	22.0	0.00e+00	0	40	0	1294991360	56	4017
2026-01-21 10:36:52.95	322.21	27.39	-42.6	-43.5	21.9	0.00e+00	0	40	0	1298137088	56	4059
2026-01-21 10:36:53.96	322.35	27.23	-42.6	-43.5	21.8	0.00e+00	0	40	0	1301282816	56	4061
2026-01-21 10:36:54.97	322.49	27.08	-42.7	-43.6	21.8	0.00e+00	0	40	0	1304428544	56	4112
2026-01-21 10:36:55.98	322.62	26.92	-42.6	-43.4	21.9	0.00e+00	0	40	0	1307574272	56	4033
2026-01-21 10:36:56.99	322.76	26.77	-42.5	-43.3	22.0	0.00e+00	0	40	0	1310720000	56	3993
2026-01-21 10:36:57.99	322.89	26.61	-42.5	-43.3	22.0	0.00e+00	0	40	0	1313865728	56	3968
2026-01-21 10:36:59.00	323.02	26.46	-42.5	-43.3	22.0	0.00e+00	0	40	0	1317011456	56	3968
2026-01-21 10:37:00.01	323.15	26.31	-42.5	-43.3	22.0	0.00e+00	0	40	0	1320157184	56	3976
2026-01-21 10:37:01.02	323.28	26.16	-42.4	-43.3	22.0	0.00e+00	0	40	0	1323302912	56	3968
2026-01-21 10:37:02.03	323.40	26.00	-42.5	-43.3	22.0	0.00e+00	0	40	0	1326448640	56	3994
2026-01-21 10:37:03.03	323.53	25.86	-42.5	-43.3	22.0	0.00e+00	0	40	0	1329594368	56	3980
2026-01-21 10:37:04.04	323.66	25.71	-42.5	-43.3	21.9	0.00e+00	0	40	0	1332740096	56	3993
2026-01-21 10:37:05.05	323.78	25.56	-42.5	-43.3	21.9	0.00e+00	0	40	0	1335885824	56	4004
2026-01-21 10:37:06.06	323.90	25.41	-42.4	-43.3	22.0	0.00e+00	0	40	0	1339031552	56	3961
2026-01-21 10:37:07.06	324.02	25.26	-42.4	-43.2	22.1	0.00e+00	0	40	0	1342177280	56	3933
2026-01-21 10:37:08.07	324.14	25.11	-42.4	-43.2	22.1	0.00e+00	0	40	0	1345323008	56	3939
2026-01-21 10:37:09.08	324.26	24.97	-42.4	-43.2	22.1	0.00e+00	0	40	0	1348468736	56	3953
2026-01-21 10:37:10.09	324.38	24.82	-42.3	-43.1	22.1	0.00e+00	0	40	0	1351614464	56	3903
2026-01-21 10:37:11.10	324.50	24.68	-42.2	-43.0	22.2	0.00e+00	0	40	0	1354760192	56	3831
2026-01-21 10:37:12.11	324.62	24.53	-42.1	-42.9	22.3	0.00e+00	0	40	0	1357905920	56	3785
2026-01-21 10:37:13.11	324.73	24.39	-42.2	-43.0	22.2	0.00e+00	0	40	0	1361051648	56	3835
2026-01-21 10:37:14.12	324.85	24.25	-42.1	-42.8	22.3	0.00e+00	0	40	0	1364197376	56	3777
2026-01-21 10:37:15.13	324.96	24.11	-41.9	-42.6	22.4	0.00e+00	0	40	0	1367343104	55	3911
2026-01-21 10:37:16.14	325.07	23.97	-41.8	-42.6	22.5	0.00e+00	0	40	0	1370488832	55	3881
2026-01-21 10:37:17.15	325.19	23.82	-41.9	-42.7	22.4	0.00e+00	0	40	0	1373634560	55	3936
2026-01-21 10:37:18.15	325.29	23.69	-41.9	-42.6	22.4	0.00e+00	0	40	0	1376780288	55	3911
2026-01-21 10:37:19.16	325.40	23.55	-41.9	-42.6	22.4	0.00e+00	0	40	0	1379926016	55	3913
2026-01-21 10:37:20.17	325.51	23.41	-41.9	-42.7	22.4	0.00e+00	0	40	0	1383071744	55	3914
2026-01-21 10:37:21.18	325.62	23.27	-41.9	-42.7	22.4	0.00e+00	0	40	0	1386217472	55	3920
2026-01-21 10:37:22.19	325.73	23.13	-41.9	-42.6	22.4	0.00e+00	0	40	0	1389363200	55	3908
2026-01-21 10:37:23.19	325.83	23.00	-41.9	-42.7	22.4	0.00e+00	0	40	0	1392508928	55	3914
2026-01-21 10:37:24.20	325.94	22.86	-41.9	-42.7	22.4	0.00e+00	0	40	0	1396703232	55	3925
2026-01-21 10:37:25.21	326.04	22.72	-42.0	-42.8	22.3	0.00e+00	0	40	0	1398800384	55	3970
2026-01-21 10:37:26.22	326.15	22.59	-42.0	-42.8	22.2	0.00e+00	0	40	0	1401946112	55	3988
2026-01-21 10:37:27.23	326.25	22.45	-42.0	-42.8	22.3	0.00e+00	0	40	0	1405091840	55	3967
2026-01-21 10:37:28.24	326.35	22.32	-42.1	-42.9	22.2	0.00e+00	0	40	0	1408237568	55	4005
2026-01-21 10:37:29.25	326.45	22.19	-42.2	-43.0	22.1	0.00e+00	0	40	0	1411383296	55	4092
2026-01-21 10:37:30.26	326.55	22.05	-42.3	-43.1	22.0	0.00e+00	0	40	0	1414529024	55	4109
2026-01-21 10:37:31.26	326.65	21.92	-42.4	-43.2	21.9	0.00e+00	0	40	0	1417674752	55	4160
2026-01-21 10:37:32.27	326.75	21.79	-42.5	-43.3	21.9	0.00e+00	0	40	0	1420820480	55	4222
2026-01-21 10:37:33.28	326.85	21.66	-42.5	-43.3	21.8	0.00e+00	0	40	0	1423966208	55	4242
2026-01-21 10:37:34.29	326.95	21.53	-42.6	-43.4	21.7	0.00e+00	0	40	0	1427111936	55	4282
2026-01-21 10:37:35.30	327.04	21.40	-42.5	-43.4	21.8	0.00e+00	0	40	0	1430257664	55	4243
2026-01-21 10:37:36.30	327.14	21.27	-42.6	-43.4	21.8	0.00e+00	0	40	0	1434451968	55	4277
2026-01-21 10:37:37.31	327.23	21.14	-42.6	-43.5	21.7	0.00e+00	0	40	0	1437597696	55	4312
2026-01-21 10:37:38.32	327.33	21.02	-42.5	-43.4	21.8	0.00e+00	0	40	0	1440743424	55	4251
2026-01-21 10:37:39.33	327.42	20.89	-42.5	-43.4	21.8	0.00e+00	0	40	0	1443889152	55	4249
2026-01-21 10:37:40.34	327.51	20.76	-42.4	-43.3	21.8	0.00e+00	0	40	0	1445986304	55	4195
2026-01-21 10:37:41.35	327.60	20.64	-42.5	-43.4	21.7	0.00e+00	0	40	0	1449132032	55	4263
2026-01-21 10:37:42.35	327.69	20.51	-42.5	-43.3	21.7	0.00e+00	0	40	0	1452277760	55	4224
2026-01-21 10:37:43.36	327.78	20.39	-42.3	-43.2	21.8	0.00e+00	0	40	0	1455423488	55	4153
2026-01-21 10:37:44.37	327.87	20.26	-42.4	-43.2	21.8	0.00e+00	0	40	0	1458569216	55	4185
2026-01-21 10:37:45.38	327.96	20.14	-42.3	-43.1	21.9	0.00e+00	0	40	0	1461714944	55	4114
2026-01-21 10:37:46.39	328.05	20.01	-42.2	-43.1	21.9	0.00e+00	0	40	0	1464860672	55	4104
2026-01-21 10:37:47.39	328.14	19.89	-42.1	-43.0	21.9	0.00e+00	0	40	0	1468006400	55	4058
2026-01-21 10:37:48.40	328.22	19.77	-42.1	-43.0	21.9	0.00e+00	0	40	0	1472200704	55	4057
2026-01-21 10:37:49.41	328.31	19.65	-42.1	-42.9	21.9	0.00e+00	0	40	0	1475346432	55	4051
2026-01-21 10:37:50.42	328.40	19.53	-42.1	-42.9	21.9	0.00e+00	0	40	0	1478492160	55	4036
2026-01-21 10:37:51.43	328.48	19.41	-42.1	-42.9	22.0	0.00e+00	0	40	0	1481637888	55	4020
2026-01-21 10:37:52.44	328.57	19.29	-42.1	-42.9	21.9	0.00e+00	0	40	0	1484783616	55	4047
2026-01-21 10:37:53.44	328.65	19.17	-42.1	-42.9	22.0	0.00e+00	0	40	0	1487929344	55	4037
2026-01-21 10:37:54.45	328.73	19.05	-42.2	-43.0	21.9	0.00e+00	0	40	0	1491075072	55	4075
2026-01-21 10:37:55.46	328.82	18.93	-42.1	-43.0	22.0	0.00e+00	0	40	0	1493172224	55	4060
2026-01-21 10:37:56.47	328.90	18.81	-42.1	-42.9	22.0	0.00e+00	0	40	0	1496317952	55	4039
2026-01-21 10:37:57.48	328.98	18.69	-42.2	-43.0	22.0	0.00e+00	0	40	0	1499463680	55	4078
2026-01-21 10:37:58.49	329.06	18.58	-42.1	-42.9	22.1	0.00e+00	0	40	0	1502609408	55	4025
2026-01-21 10:37:59.49	329.14	18.46	-42.1	-42.9	22.1	0.00e+00	0	40	0	1505755136	55	4013
2026-01-21 10:38:00.50	329.22	18.35	-42.1	-42.9	22.1	0.00e+00	0	40	0	1508900864	55	4035
2026-01-21 10:38:01.51	329.30	18.23	-42.1	-42.9	22.1	0.00e+00	0	40	0	1513095168	55	4023
2026-01-21 10:38:02.52	329.38	18.11	-42.1	-42.9	22.1	0.00e+00	0	40	0	1516240896	55	4035
2026-01-21 10:38:03.53	329.46	18.00	-42.3	-43.1	21.9	0.00e+00	0	40	0	1519386624	55	4107
2026-01-21 10:38:04.54	329.53	17.89	-42.1	-42.9	22.0	0.00e+00	0	40	0	1522532352	55	4048
2026-01-21 10:38:05.55	329.61	17.77	-42.3	-43.1	21.9	0.00e+00	0	40	0	1525678080	55	4110
2026-01-21 10:38:06.55	329.69	17.66	-42.3	-43.1	21.9	0.00e+00	0	40	0	1528823808	55	4123
2026-01-21 10:38:07.56	329.76	17.55	-42.3	-43.2	21.8	0.00e+00	0	40	0	1531969536	55	4150
2026-01-21 10:38:08.57	329.84	17.44	-42.5	-43.3	21.7	0.00e+00	0	40	0	1535115264	55	4209
2026-01-21 10:38:09.58	329.91	17.32	-42.3	-43.1	21.8	0.00e+00	0	40	0	1538260992	55	4141
2026-01-21 10:38:10.58	329.98	17.21	-42.3	-43.2	21.8	0.00e+00	0	40	0	1540358144	55	4158
2026-01-21 10:38:11.59	330.06	17.10	-42.5	-43.3	21.7	0.00e+00	0	40	0	1543503872	55	4219
2026-01-21 10:38:12.60	330.13	16.99	-42.4	-43.3	21.7	0.00e+00	0	40	0	1547698176	55	4212
2026-01-21 10:38:13.61	330.20	16.88	-42.5	-43.4	21.6	0.00e+00	0	40	0	1550843904	55	4253
2026-01-21 10:38:14.62	330.28	16.77	-42.7	-43.5	21.4	0.00e+00	0	40	0	1553989632	55	4331
2026-01-21 10:38:15.62	330.35	16.66	-42.8	-43.7	21.3	0.00e+00	0	40	0	1557135360	56	4167
2026-01-21 10:38:16.63	330.42	16.56	-43.0	-43.9	21.1	0.00e+00	0	40	0	1560281088	56	4274
2026-01-21 10:38:17.64	330.49	16.45	-43.1	-43.9	21.1	0.00e+00	0	40	0	1563426816	56	4288
2026-01-21 10:38:18.65	330.56	16.34	-42.9	-43.7	21.3	0.00e+00	0	40	0	1566572544	56	4192
2026-01-21 10:38:19.66	330.63	16.23	-43.0	-43.9	21.1	0.00e+00	0	40	0	1569718272	56	4272
2026-01-21 10:38:20.66	330.70	16.13	-43.1	-44.0	21.0	0.00e+00	0	40	0	1572864000	56	4325
2026-01-21 10:38:21.67	330.77	16.02	-43.1	-44.0	21.1	0.00e+00	0	40	0	1576009728	56	4304
2026-01-21 10:38:22.68	330.84	15.91	-43.2	-44.1	21.0	0.00e+00	0	40	0	1579155456	56	4367
2026-01-21 10:38:23.69	330.91	15.81	-43.3	-44.2	20.9	0.00e+00	0	40	0	1582301184	57	4163
2026-01-21 10:38:24.70	330.97	15.70	-43.3	-44.2	20.9	0.00e+00	0	40	0	1585446912	57	4164
2026-01-21 10:38:25.71	331.04	15.60	-43.2	-44.2	20.9	0.00e+00	0	40	0	1588592640	57	4151
2026-01-21 10:38:26.71	331.11	15.50	-43.4	-44.3	20.8	0.00e+00	0	40	0	1591738368	57	4227
2026-01-21 10:38:27.72	331.17	15.39	-43.4	-44.3	20.8	0.00e+00	0	40	0	1594884096	57	4209
2026-01-21 10:38:28.73	331.24	15.29	-43.2	-44.1	21.0	0.00e+00	0	40	0	1598029824	57	4108
2026-01-21 10:38:29.74	331.30	15.19	-43.2	-44.1	21.0	0.00e+00	0	40	0	1601175552	57	4103
2026-01-21 10:38:30.74	331.37	15.08	-43.2	-44.2	20.9	0.00e+00	0	40	0	1604321280	57	4151
2026-01-21 10:38:31.75	331.43	14.98	-43.2	-44.1	21.0	0.00e+00	0	40	0	1607467008	57	4099
2026-01-21 10:38:32.76	331.50	14.88	-43.1	-44.0	21.0	0.00e+00	0	40	0	1610612736	57	4084
2026-01-21 10:38:33.77	331.56	14.78	-43.2	-44.1	21.0	0.00e+00	0	40	0	1613758464	57	4103
2026-01-21 10:38:34.78	331.62	14.68	-43.2	-44.0	21.0	0.00e+00	0	40	0	1616904192	57	4095
2026-01-21 10:38:35.78	331.69	14.58	-43.2	-44.1	20.9	0.00e+00	0	40	0	1620049920	57	4122
2026-01-21 10:38:36.79	331.75	14.48	-43.1	-44.0	21.0	0.00e+00	0	40	0	1623195648	57	4080
2026-01-21 10:38:37.80	331.81	14.38	-43.2	-44.2	20.9	0.00e+00	0	40	0	1626341376	57	4150
2026-01-21 10:38:38.81	331.87	14.28	-43.1	-44.0	21.0	0.00e+00	0	40	0	1629487104	57	4061
2026-01-21 10:38:39.82	331.94	14.18	-43.2	-44.1	20.9	0.00e+00	0	40	0	1632632832	57	4108
2026-01-21 10:38:40.83	332.00	14.08	-43.1	-44.0	21.0	0.00e+00	0	40	0	1635778560	57	4062
2026-01-21 10:38:41.83	332.06	13.98	-43.1	-44.0	20.9	0.00e+00	0	40	0	1638924288	57	4096
2026-01-21 10:38:42.84	332.12	13.88	-43.1	-44.0	20.9	0.00e+00	0	40	0	1642070016	57	4090
2026-01-21 10:38:43.85	332.18	13.79	-43.2	-44.1	20.9	0.00e+00	0	40	0	1645215744	57	4113
2026-01-21 10:38:44.86	332.24	13.69	-43.3	-44.2	20.7	0.00e+00	0	40	0	1648361472	57	4174
2026-01-21 10:38:45.87	332.30	13.59	-43.2	-44.1	20.8	0.00e+00	0	40	0	1651507200	57	4139
2026-01-21 10:38:46.88	332.36	13.50	-43.2	-44.2	20.8	0.00e+00	0	40	0	1654652928	57	4148
2026-01-21 10:38:47.89	332.41	13.40	-43.3	-44.2	20.7	0.00e+00	0	40	0	1657798656	57	4171
2026-01-21 10:38:48.89	332.47	13.30	-43.3	-44.2	20.7	0.00e+00	0	40	0	1660944384	57	4190
2026-01-21 10:38:49.90	332.53	13.21	-43.3	-44.3	20.7	0.00e+00	0	40	0	1664090112	57	4195
2026-01-21 10:38:50.91	332.59	13.11	-43.3	-44.2	20.7	0.00e+00	0	40	0	1667235840	57	4188
2026-01-21 10:38:51.91	332.64	13.02	-43.4	-44.4	20.6	0.00e+00	0	40	0	1670381568	57	4264
2026-01-21 10:38:52.92	332.70	12.93	-43.5	-44.4	20.6	0.00e+00	0	40	0	1673527296	57	4274
2026-01-21 10:38:53.93	332.76	12.83	-43.5	-44.4	20.6	0.00e+00	0	40	0	1676673024	57	4274
2026-01-21 10:38:54.94	332.81	12.74	-43.4	-44.4	20.6	0.00e+00	0	40	0	1679818752	57	4247
2026-01-21 10:38:55.95	332.87	12.64	-43.5	-44.5	20.5	0.00e+00	0	40	0	1682964480	57	4301
2026-01-21 10:38:56.95	332.92	12.55	-43.5	-44.4	20.6	0.00e+00	0	40	0	1686110208	57	4269
2026-01-21 10:38:57.96	332.98	12.46	-43.6	-44.5	20.5	0.00e+00	0	40	0	1689255936	57	4330
2026-01-21 10:38:58.97	333.03	12.37	-43.4	-44.4	20.6	0.00e+00	0	40	0	1692401664	57	4255
2026-01-21 10:38:59.98	333.09	12.27	-43.5	-44.4	20.6	0.00e+00	0	40	0	1695547392	57	4285
2026-01-21 10:39:00.99	333.14	12.18	-43.6	-44.6	20.4	0.00e+00	0	40	0	1698693120	57	4341
2026-01-21 10:39:01.99	333.20	12.09	-43.4	-44.4	20.6	0.00e+00	0	40	0	1701838848	57	4253
2026-01-21 10:39:03.00	333.25	12.00	-43.4	-44.3	20.6	0.00e+00	0	40	0	1704984576	57	4233
2026-01-21 10:39:04.01	333.30	11.91	-43.4	-44.4	20.6	0.00e+00	0	40	0	1708130304	57	4243
2026-01-21 10:39:05.02	333.36	11.82	-43.3	-44.2	20.7	0.00e+00	0	40	0	1711276032	57	4175
2026-01-21 10:39:06.03	333.41	11.73	-43.4	-44.3	20.6	0.00e+00	0	40	0	1714421760	57	4237
2026-01-21 10:39:07.03	333.46	11.64	-43.4	-44.3	20.6	0.00e+00	0	40	0	1717567488	57	4233
2026-01-21 10:39:08.04	333.51	11.55	-43.4	-44.3	20.6	0.00e+00	0	40	0	1720713216	57	4232
2026-01-21 10:39:09.05	333.57	11.46	-43.5	-44.5	20.5	0.00e+00	0	40	0	1723858944	57	4295
2026-01-21 10:39:10.05	333.62	11.37	-43.3	-44.2	20.7	0.00e+00	0	40	0	1727004672	57	4165
2026-01-21 10:39:11.07	333.67	11.28	-43.3	-44.2	20.7	0.00e+00	0	40	0	1730150400	57	4168
2026-01-21 10:39:12.07	333.72	11.20	-43.4	-44.3	20.6	0.00e+00	0	40	0	1733296128	57	4226
2026-01-21 10:39:13.08	333.77	11.11	-43.2	-44.2	20.7	0.00e+00	0	40	0	1736441856	57	4153
2026-01-21 10:39:14.09	333.82	11.02	-43.4	-44.3	20.6	0.00e+00	0	40	0	1739587584	57	4241
2026-01-21 10:39:15.10	333.87	10.93	-43.4	-44.4	20.5	0.00e+00	0	40	0	1742733312	57	4261
2026-01-21 10:39:16.11	333.92	10.85	-43.2	-44.1	20.8	0.00e+00	0	40	0	1745879040	57	4125
2026-01-21 10:39:17.11	333.97	10.76	-43.3	-44.3	20.6	0.00e+00	0	40	0	1749024768	57	4198
2026-01-21 10:39:18.12	334.02	10.67	-43.4	-44.4	20.5	6.10e-06	0	40	0	1752170496	57	4257
2026-01-21 10:39:19.13	334.07	10.59	-43.5	-44.4	20.5	0.00e+00	0	40	0	1755316224	57	4270
2026-01-21 10:39:20.14	334.12	10.50	-43.4	-44.3	20.6	0.00e+00	0	40	0	1758461952	57	4220
2026-01-21 10:39:21.15	334.17	10.42	-43.4	-44.3	20.5	7.00e-07	0	40	0	1761607680	57	4230
2026-01-21 10:39:22.15	334.22	10.33	-43.5	-44.5	20.4	0.00e+00	0	40	0	1764753408	57	4305
2026-01-21 10:39:23.16	334.26	10.25	-43.4	-44.4	20.5	0.00e+00	0	40	0	1767899136	57	4247
2026-01-21 10:39:24.17	334.31	10.16	-43.5	-44.5	20.4	0.00e+00	0	40	0	1771044864	57	4305
2026-01-21 10:39:25.18	334.36	10.08	-43.6	-44.6	20.3	0.00e+00	0	40	0	1774190592	57	4345
2026-01-21 10:39:26.19	334.41	9.99	-43.6	-44.5	20.3	0.00e+00	0	40	0	1777336320	57	4333
2026-01-21 10:39:27.19	334.45	9.91	-43.5	-44.5	20.4	0.00e+00	0	40	0	1780482048	57	4294
2026-01-21 10:39:28.20	334.50	9.82	-43.7	-44.7	20.2	0.00e+00	0	40	0	1783627776	57	4395
2026-01-21 10:39:29.21	334.55	9.74	-43.7	-44.6	20.2	1.50e-06	0	40	0	1786773504	58	4144
2026-01-21 10:39:30.22	334.59	9.66	-43.8	-44.8	20.0	0.00e+00	0	40	0	1789919232	58	4233
2026-01-21 10:39:31.22	334.64	9.58	-43.9	-44.9	20.0	0.00e+00	0	40	0	1793064960	58	4254
2026-01-21 10:39:32.23	334.68	9.49	-44.0	-45.0	19.9	2.20e-06	0	40	0	1796210688	58	4314
2026-01-21 10:39:33.24	334.73	9.41	-43.9	-45.0	19.9	0.00e+00	0	40	0	1799356416	58	4294
2026-01-21 10:39:34.25	334.78	9.33	-43.9	-45.0	19.9	0.00e+00	0	40	0	1802502144	58	4296
2026-01-21 10:39:35.26	334.82	9.25	-44.1	-45.1	19.7	0.00e+00	0	40	0	1805647872	58	4386
2026-01-21 10:39:36.26	334.87	9.16	-44.0	-45.1	19.8	0.00e+00	0	40	0	1808793600	58	4348
2026-01-21 10:39:37.27	334.91	9.08	-44.1	-45.1	19.8	0.00e+00	0	40	0	1811939328	58	4371
2026-01-21 10:39:38.28	334.96	9.00	-44.2	-45.3	19.6	0.00e+00	0	40	0	1815085056	58	4456
2026-01-21 10:39:39.29	335.00	8.92	-44.2	-45.2	19.7	0.00e+00	0	40	0	1818230784	58	4432
2026-01-21 10:39:40.29	335.04	8.84	-44.3	-45.4	19.5	6.10e-06	0	40	0	1821376512	59	4259
2026-01-21 10:39:41.30	335.09	8.76	-44.1	-45.2	19.7	0.00e+00	0	40	0	1824522240	59	4168
2026-01-21 10:39:42.31	335.13	8.68	-44.2	-45.3	19.6	0.00e+00	0	40	0	1827667968	59	4214
2026-01-21 10:39:43.32	335.18	8.60	-44.3	-45.4	19.5	0.00e+00	0	40	0	1830813696	59	4259
2026-01-21 10:39:44.33	335.22	8.52	-44.3	-45.4	19.5	0.00e+00	0	40	0	1833959424	59	4266
2026-01-21 10:39:45.33	335.26	8.44	-44.4	-45.4	19.4	6.80e-06	0	40	0	1837105152	59	4287
2026-01-21 10:39:46.34	335.30	8.36	-44.3	-45.4	19.5	0.00e+00	0	40	0	1840250880	59	4246
2026-01-21 10:39:47.35	335.35	8.28	-44.4	-45.4	19.4	9.90e-06	0	40	0	1843396608	59	4288
2026-01-21 10:39:48.36	335.39	8.20	-44.4	-45.4	19.4	0.00e+00	0	40	0	1846542336	59	4283
2026-01-21 10:39:49.37	335.43	8.13	-44.3	-45.4	19.5	0.00e+00	0	40	0	1849688064	59	4254
2026-01-21 10:39:50.37	335.47	8.05	-44.3	-45.4	19.4	1.06e-05	0	40	0	1852833792	59	4277
2026-01-21 10:39:51.38	335.52	7.97	-44.3	-45.4	19.4	0.00e+00	0	40	0	1855979520	59	4274
2026-01-21 10:39:52.39	335.56	7.89	-44.4	-45.5	19.3	0.00e+00	0	40	0	1859125248	59	4311
2026-01-21 10:39:53.40	335.60	7.81	-44.3	-45.4	19.4	0.00e+00	0	40	0	1862270976	59	4262
2026-01-21 10:39:54.41	335.64	7.74	-44.3	-45.4	19.4	8.30e-06	0	40	0	1865416704	59	4274
2026-01-21 10:39:55.42	335.68	7.66	-44.4	-45.5	19.3	1.14e-05	0	40	0	1868562432	59	4332
2026-01-21 10:39:56.43	335.72	7.58	-44.5	-45.6	19.2	0.00e+00	0	40	0	1871708160	59	4342
2026-01-21 10:39:57.43	335.76	7.51	-44.5	-45.6	19.2	0.00e+00	0	40	0	1874853888	59	4374
2026-01-21 10:39:58.44	335.80	7.43	-44.5	-45.6	19.1	0.00e+00	0	40	0	1877999616	59	4384
2026-01-21 10:39:59.45	335.84	7.35	-44.6	-45.8	19.0	0.00e+00	0	40	0	1881145344	59	4448
2026-01-21 10:40:00.46	335.88	7.28	-44.5	-45.6	19.1	5.30e-06	0	40	0	1884291072	59	4390
2026-01-21 10:40:01.47	335.92	7.20	-44.5	-45.6	19.1	6.80e-06	0	40	0	1887436800	59	4380
2026-01-21 10:40:02.47	335.96	7.13	-44.7	-45.9	18.9	0.00e+00	0	40	0	1890582528	59	4510
2026-01-21 10:40:03.48	336.00	7.05	-44.2	-45.3	19.1	0.00e+00	0	40	0	1893728256	60	4002
2026-01-21 10:40:04.49	336.04	6.98	-44.4	-45.5	18.9	0.00e+00	0	40	0	1896873984	60	4073
2026-01-21 10:40:05.50	336.08	6.90	-44.3	-45.4	19.0	1.44e-05	0	40	0	1900019712	60	4029
2026-01-21 10:40:06.51	336.12	6.83	-44.5	-45.7	18.7	2.20e-06	0	40	0	1903165440	60	4158
2026-01-21 10:40:07.51	336.16	6.75	-44.6	-45.8	18.6	0.00e+00	0	40	0	1906311168	60	4218
2026-01-21 10:40:08.52	336.20	6.68	-44.4	-45.5	18.9	0.00e+00	0	40	0	1909456896	60	4075
2026-01-21 10:40:09.53	336.24	6.60	-44.6	-45.7	18.7	0.00e+00	0	40	0	1912602624	60	4174
2026-01-21 10:40:10.54	336.27	6.53	-44.6	-45.8	18.5	1.44e-05	0	40	0	1915748352	60	4214
2026-01-21 10:40:11.54	336.31	6.46	-44.5	-45.7	18.7	0.00e+00	0	40	0	1918894080	60	4161
2026-01-21 10:40:12.55	336.35	6.38	-44.6	-45.8	18.5	0.00e+00	0	40	0	1922039808	60	4215
