passes_logs/2026/01/21/R3.2S_Murmansk/R3.2S_Murmansk__20260121_085641_TY-42_rec.log

#Pass ID: 20260121_085641_TY-42
#Satellite: TY-42
#Configuration: TY-42_900M
#almurnet v.1.7.20251203
#Start time: 2026-01-21 08:56:43

#Version: 2.2.20231116
#Station: R3.2S_Murmansk
#Location: 33.079688 lon 68.888172 lat
#TLE: 1 64048U 25103A   26020.90027778  .00008008  00000-0  38191-3 0 09994
#TLE: 2 64048 097.4121 096.2065 0001560 086.9654 301.4475 15.19159220 37713

#Time	Az	El	Level	Level2	SNR	BER	BlckErr	Temp	State	Recorded	gain1	gain2
2026-01-21 08:56:43.04	20.88	2.12	-54.5	-56.6	6.2	0.00e+00	0	48	0	0	80	18528
2026-01-21 08:56:44.05	20.91	2.19	-54.7	-56.8	6.2	0.00e+00	0	48	104	0	81	17945
2026-01-21 08:56:45.06	20.93	2.26	-54.7	-56.8	6.2	0.00e+00	0	48	104	0	81	17934
2026-01-21 08:56:46.07	20.96	2.33	-54.7	-56.8	6.2	0.00e+00	0	48	104	0	81	17857
2026-01-21 08:56:47.07	20.99	2.40	-54.7	-56.8	6.2	0.00e+00	0	48	104	0	81	17858
2026-01-21 08:56:48.08	21.01	2.47	-54.7	-56.8	6.2	0.00e+00	0	48	104	0	81	17841
2026-01-21 08:56:49.09	21.04	2.54	-54.6	-56.7	6.2	0.00e+00	0	48	104	0	81	17759
2026-01-21 08:56:50.10	21.07	2.61	-54.6	-56.7	6.2	0.00e+00	0	48	104	0	81	17705
2026-01-21 08:56:51.11	21.10	2.68	-54.6	-56.7	6.2	0.00e+00	0	48	104	0	81	17609
2026-01-21 08:56:52.11	21.12	2.75	-54.5	-56.7	6.2	0.00e+00	0	48	104	0	81	17624
2026-01-21 08:56:53.12	21.15	2.82	-54.5	-56.7	6.2	0.00e+00	0	48	104	0	81	17565
2026-01-21 08:56:54.13	21.18	2.90	-54.5	-56.7	6.2	0.00e+00	0	48	104	0	81	17565
2026-01-21 08:56:55.14	21.21	2.97	-54.4	-56.5	6.2	0.00e+00	0	48	104	0	80	18357
2026-01-21 08:56:56.15	21.23	3.04	-54.3	-56.5	6.2	0.00e+00	0	48	104	0	80	18259
2026-01-21 08:56:57.15	21.26	3.11	-54.3	-56.4	6.2	0.00e+00	0	49	104	0	80	18139
2026-01-21 08:56:58.16	21.29	3.19	-54.2	-56.3	6.2	0.00e+00	0	49	104	0	80	17909
2026-01-21 08:56:59.17	21.32	3.26	-54.1	-56.2	6.2	0.00e+00	0	49	104	0	80	17656
2026-01-21 08:57:00.18	21.35	3.33	-54.0	-56.1	6.2	0.00e+00	0	48	104	0	80	17459
2026-01-21 08:57:01.19	21.38	3.41	-53.9	-56.0	6.2	0.00e+00	0	49	104	0	79	18212
2026-01-21 08:57:02.20	21.40	3.48	-53.7	-55.8	6.2	0.00e+00	0	49	104	0	79	17938
2026-01-21 08:57:03.20	21.43	3.56	-53.4	-55.5	6.2	0.00e+00	0	49	104	0	78	18313
2026-01-21 08:57:04.21	21.46	3.63	-52.9	-55.0	6.2	0.00e+00	0	49	104	0	77	18373
2026-01-21 08:57:05.22	21.49	3.70	-52.7	-54.8	6.2	0.00e+00	0	49	104	0	77	17884
2026-01-21 08:57:06.23	21.52	3.78	-52.7	-54.8	6.2	0.00e+00	0	49	104	0	77	17845
2026-01-21 08:57:07.23	21.55	3.85	-52.7	-54.8	6.2	0.00e+00	0	49	104	0	77	17855
2026-01-21 08:57:08.24	21.58	3.93	-52.7	-54.8	6.2	0.00e+00	0	49	104	0	77	17861
2026-01-21 08:57:09.25	21.61	4.01	-52.7	-54.8	6.2	0.00e+00	0	49	104	0	77	17885
2026-01-21 08:57:10.26	21.64	4.08	-52.7	-54.8	6.2	0.00e+00	0	49	104	0	77	17881
2026-01-21 08:57:11.26	21.67	4.16	-52.7	-54.9	6.2	0.00e+00	0	49	104	0	77	17986
2026-01-21 08:57:12.27	21.70	4.24	-52.7	-54.9	6.2	0.00e+00	0	49	104	0	77	17995
2026-01-21 08:57:13.28	21.73	4.31	-52.8	-54.9	6.2	0.00e+00	0	49	104	0	77	18009
2026-01-21 08:57:14.29	21.76	4.39	-52.8	-54.8	6.2	0.00e+00	0	49	104	0	77	17936
2026-01-21 08:57:15.29	21.79	4.47	-52.8	-54.9	6.2	0.00e+00	0	49	104	0	77	18050
2026-01-21 08:57:16.30	21.82	4.55	-52.8	-54.9	6.2	0.00e+00	0	49	104	0	77	18112
2026-01-21 08:57:17.31	21.85	4.62	-52.8	-54.9	6.2	0.00e+00	0	49	104	0	77	18082
2026-01-21 08:57:18.32	21.89	4.70	-52.8	-54.9	6.2	0.00e+00	0	49	104	0	77	18043
2026-01-21 08:57:19.33	21.92	4.78	-52.8	-54.9	6.2	0.00e+00	0	49	104	0	77	18084
2026-01-21 08:57:20.33	21.95	4.86	-52.8	-54.9	6.2	0.00e+00	0	49	104	0	77	18065
2026-01-21 08:57:21.34	21.98	4.94	-52.8	-54.9	6.2	0.00e+00	0	49	104	0	77	17979
2026-01-21 08:57:22.35	22.01	5.02	-52.8	-54.9	6.2	0.00e+00	0	49	104	0	77	18022
2026-01-21 08:57:23.36	22.05	5.10	-52.8	-54.9	6.2	0.00e+00	0	49	104	0	77	18151
2026-01-21 08:57:24.36	22.08	5.18	-52.9	-55.0	6.2	0.00e+00	0	49	104	0	77	18339
2026-01-21 08:57:25.37	22.11	5.26	-52.8	-54.9	6.2	0.00e+00	0	49	104	0	77	18034
2026-01-21 08:57:26.38	22.14	5.34	-52.8	-55.0	6.2	0.00e+00	0	49	104	0	77	18207
2026-01-21 08:57:27.39	22.18	5.42	-52.8	-55.0	6.2	0.00e+00	0	49	104	0	77	18180
2026-01-21 08:57:28.40	22.21	5.50	-52.7	-54.9	6.2	0.00e+00	0	49	104	0	77	17974
2026-01-21 08:57:29.40	22.24	5.59	-52.8	-54.9	6.2	0.00e+00	0	49	104	0	77	18051
2026-01-21 08:57:30.41	22.28	5.67	-52.9	-55.0	6.2	0.00e+00	0	49	104	0	77	18289
2026-01-21 08:57:31.42	22.31	5.75	-38.7	-38.7	12.5	1.18e-02	0	51	0	33554432	47	15701
2026-01-21 08:57:32.43	22.35	5.83	-51.1	-52.4	6.4	1.18e-02	0	50	104	58720256	74	16173
2026-01-21 08:57:33.43	22.38	5.92	-36.7	-36.6	13.2	0.00e+00	436	51	104	58720256	44	14756
2026-01-21 08:57:34.44	22.42	6.00	-36.4	-36.3	13.9	0.00e+00	0	51	0	184549376	44	14192
2026-01-21 08:57:35.45	22.45	6.09	-36.2	-36.1	14.0	0.00e+00	0	51	0	293601280	44	13912
2026-01-21 08:57:36.46	22.49	6.17	-36.1	-36.0	14.1	1.90e-02	0	51	0	411041792	43	14558
2026-01-21 08:57:37.47	22.52	6.25	-36.3	-36.2	14.0	1.90e-02	0	51	0	520093696	43	14922
2026-01-21 08:57:38.47	22.56	6.34	-36.3	-36.2	14.0	2.29e-02	0	51	0	629145600	43	14930
2026-01-21 08:57:39.48	22.59	6.43	-36.0	-35.9	14.1	2.29e-02	0	51	0	746586112	43	14395
2026-01-21 08:57:40.49	22.63	6.51	-36.0	-35.9	14.1	2.29e-02	0	51	0	855638016	43	14419
2026-01-21 08:57:41.50	22.66	6.60	-36.0	-35.9	14.2	1.99e-02	0	51	0	973078528	43	14354
2026-01-21 08:57:42.51	22.70	6.68	-36.0	-36.0	14.1	1.99e-02	0	51	0	1082130432	43	14459
2026-01-21 08:57:43.51	22.74	6.77	-36.1	-36.0	14.0	1.99e-02	0	52	0	1199570944	43	14569
2026-01-21 08:57:44.52	22.77	6.86	-36.0	-35.9	14.1	1.96e-02	0	51	0	1308622848	43	14340
2026-01-21 08:57:45.53	22.81	6.95	-35.6	-35.6	14.2	1.96e-02	0	52	0	1417674752	43	13801
2026-01-21 08:57:46.54	22.85	7.03	-36.0	-35.9	14.0	1.96e-02	0	52	0	1535115264	43	14344
2026-01-21 08:57:47.55	22.89	7.12	-35.9	-35.8	14.1	1.79e-02	0	52	0	1652555776	43	14185
2026-01-21 08:57:48.55	22.92	7.21	-35.4	-35.3	14.3	1.79e-02	0	51	0	1769996288	42	14234
2026-01-21 08:57:49.56	22.96	7.30	-35.9	-35.8	14.1	1.79e-02	0	52	0	1879048192	42	15047
2026-01-21 08:57:50.57	23.00	7.39	-35.7	-35.6	14.2	1.85e-02	0	52	0	1996488704	42	14666
2026-01-21 08:57:51.58	23.04	7.48	-35.4	-35.4	14.3	1.85e-02	0	52	0	2105540608	42	14302
2026-01-21 08:57:52.59	23.08	7.57	-35.7	-35.6	14.2	1.85e-02	0	52	0	2222981120	42	14729
2026-01-21 08:57:53.59	23.12	7.66	-35.5	-35.5	14.3	1.63e-02	0	52	0	2332033024	42	14442
2026-01-21 08:57:54.60	23.16	7.75	-35.6	-35.5	14.3	1.63e-02	0	52	0	2441084928	42	14468
2026-01-21 08:57:55.61	23.20	7.85	-35.6	-35.5	14.3	1.63e-02	0	52	0	2558525440	42	14504
2026-01-21 08:57:56.62	23.24	7.94	-35.8	-35.7	14.2	1.56e-02	0	52	0	2667577344	42	14904
2026-01-21 08:57:57.63	23.28	8.03	-35.5	-35.4	14.3	1.56e-02	0	52	0	2785017856	42	14402
2026-01-21 08:57:58.63	23.32	8.12	-35.4	-35.3	14.4	1.56e-02	0	52	0	2894069760	42	14239
2026-01-21 08:57:59.64	23.36	8.22	-35.4	-35.3	14.4	1.43e-02	0	52	0	3019898880	42	14180
2026-01-21 08:58:00.65	23.40	8.31	-35.3	-35.2	14.4	1.43e-02	0	52	0	3128950784	42	13977
2026-01-21 08:58:01.66	23.44	8.41	-35.3	-35.2	14.5	1.43e-02	0	52	0	3246391296	42	13976
2026-01-21 08:58:02.66	23.48	8.50	-35.3	-35.2	14.4	1.19e-02	0	53	0	3355443200	42	13993
2026-01-21 08:58:03.67	23.53	8.60	-35.1	-35.0	14.5	1.19e-02	0	52	0	3464495104	42	13761
2026-01-21 08:58:04.68	23.57	8.69	-35.2	-35.2	14.5	1.19e-02	0	53	0	3581935616	42	13951
2026-01-21 08:58:05.69	23.61	8.79	-34.9	-34.8	14.6	1.19e-02	0	52	0	3690987520	41	14234
2026-01-21 08:58:06.70	23.65	8.89	-34.8	-34.7	14.7	1.05e-02	0	53	0	3808428032	41	13987
2026-01-21 08:58:07.70	23.70	8.98	-34.9	-34.8	14.6	1.05e-02	0	52	0	3917479936	41	14128
2026-01-21 08:58:08.71	23.74	9.08	-34.9	-34.8	14.6	1.05e-02	0	52	0	4026531840	41	14188
2026-01-21 08:58:09.72	23.78	9.18	-34.8	-34.7	14.7	8.89e-03	0	53	0	4143972352	41	13990
2026-01-21 08:58:10.73	23.83	9.28	-34.8	-34.7	14.6	8.89e-03	0	53	0	4253024256	41	14029
2026-01-21 08:58:11.73	23.87	9.38	-34.8	-34.7	14.7	8.89e-03	0	52	0	4370464768	41	14025
2026-01-21 08:58:12.74	23.92	9.48	-34.7	-34.6	14.7	8.89e-03	0	53	0	4487905280	41	13810
2026-01-21 08:58:13.75	23.96	9.58	-34.6	-34.6	14.7	7.65e-03	0	53	0	4605345792	41	13794
2026-01-21 08:58:14.76	24.01	9.68	-34.5	-34.4	14.8	7.65e-03	0	53	0	4714397696	40	14330
2026-01-21 08:58:15.76	24.05	9.78	-34.5	-34.4	14.8	6.86e-03	0	53	0	4831838208	40	14299
2026-01-21 08:58:16.77	24.10	9.88	-34.5	-34.4	14.8	6.86e-03	0	53	0	4940890112	40	14389
2026-01-21 08:58:17.78	24.15	9.99	-34.3	-34.2	14.8	6.86e-03	0	53	0	5058330624	40	14102
2026-01-21 08:58:18.79	24.20	10.09	-34.3	-34.2	14.9	6.14e-03	0	53	0	5167382528	40	14027
2026-01-21 08:58:19.80	24.24	10.19	-34.2	-34.1	14.9	6.14e-03	0	53	0	5276434432	40	13946
2026-01-21 08:58:20.81	24.29	10.30	-34.1	-34.0	15.0	6.14e-03	0	53	0	5393874944	40	13699
2026-01-21 08:58:21.81	24.34	10.40	-34.1	-34.0	15.0	5.11e-03	0	53	0	5502926848	39	14446
2026-01-21 08:58:22.82	24.39	10.51	-34.1	-34.0	15.0	5.11e-03	0	53	0	5620367360	39	14463
2026-01-21 08:58:23.83	24.44	10.61	-34.0	-33.9	15.0	5.11e-03	0	53	0	5729419264	39	14408
2026-01-21 08:58:24.83	24.49	10.72	-34.0	-33.9	15.0	4.15e-03	0	53	0	5838471168	39	14373
2026-01-21 08:58:25.85	24.54	10.83	-33.9	-33.8	15.1	4.15e-03	0	53	0	5964300288	39	14261
2026-01-21 08:58:26.85	24.59	10.94	-34.0	-33.9	15.0	4.15e-03	0	53	0	6081740800	39	14323
2026-01-21 08:58:27.86	24.64	11.04	-33.9	-33.8	15.1	3.66e-03	0	53	0	6190792704	39	14160
2026-01-21 08:58:28.87	24.69	11.15	-33.8	-33.7	15.1	3.66e-03	0	53	0	6299844608	39	14100
2026-01-21 08:58:29.88	24.74	11.26	-33.8	-33.7	15.1	3.66e-03	0	53	0	6417285120	39	13955
2026-01-21 08:58:30.88	24.79	11.37	-33.7	-33.6	15.1	3.42e-03	0	53	0	6526337024	39	13931
2026-01-21 08:58:31.89	24.84	11.48	-33.7	-33.6	15.2	3.42e-03	0	53	0	6643777536	39	13896
2026-01-21 08:58:32.90	24.90	11.60	-33.7	-33.6	15.1	3.42e-03	0	53	0	6752829440	39	13916
2026-01-21 08:58:33.91	24.95	11.71	-33.7	-33.6	15.2	3.03e-03	0	53	0	6861881344	39	13879
2026-01-21 08:58:34.92	25.00	11.82	-33.6	-33.5	15.2	3.03e-03	0	53	0	6979321856	39	13769
2026-01-21 08:58:35.92	25.06	11.93	-33.5	-33.4	15.2	3.03e-03	0	53	0	7088373760	38	14349
2026-01-21 08:58:36.93	25.11	12.05	-33.6	-33.5	15.2	2.78e-03	0	53	0	7205814272	38	14536
2026-01-21 08:58:37.94	25.17	12.16	-33.5	-33.4	15.2	2.78e-03	0	53	0	7314866176	38	14325
2026-01-21 08:58:38.95	25.22	12.28	-33.5	-33.4	15.2	2.38e-03	0	53	0	7440695296	38	14282
2026-01-21 08:58:39.96	25.28	12.40	-33.3	-33.2	15.3	2.38e-03	0	53	0	7549747200	38	14004
2026-01-21 08:58:40.97	25.33	12.51	-33.2	-33.1	15.3	2.38e-03	0	54	0	7667187712	38	13941
2026-01-21 08:58:41.97	25.39	12.63	-33.2	-33.1	15.3	2.09e-03	0	53	0	7776239616	38	13910
2026-01-21 08:58:42.98	25.45	12.75	-33.3	-33.2	15.3	2.09e-03	0	53	0	7885291520	38	13969
2026-01-21 08:58:43.99	25.51	12.87	-33.3	-33.2	15.3	2.09e-03	0	54	0	8002732032	38	14060
2026-01-21 08:58:45.00	25.57	12.99	-33.3	-33.2	15.4	1.90e-03	0	54	0	8111783936	38	13973
2026-01-21 08:58:46.01	25.62	13.11	-33.0	-32.9	15.5	1.90e-03	0	53	0	8229224448	38	13501
2026-01-21 08:58:47.01	25.68	13.23	-33.0	-32.8	15.4	1.90e-03	0	54	0	8338276352	37	14267
2026-01-21 08:58:48.02	25.74	13.35	-33.0	-32.9	15.4	1.53e-03	0	54	0	8455716864	37	14275
2026-01-21 08:58:49.03	25.81	13.48	-32.8	-32.7	15.5	1.53e-03	0	54	0	8564768768	37	14093
2026-01-21 08:58:50.03	25.87	13.60	-32.8	-32.7	15.5	1.53e-03	0	54	0	8673820672	37	14083
2026-01-21 08:58:51.04	25.93	13.72	-32.7	-32.6	15.5	1.27e-03	0	54	0	8791261184	37	13932
2026-01-21 08:58:52.05	25.99	13.85	-32.6	-32.5	15.6	1.27e-03	0	54	0	8917090304	37	13760
2026-01-21 08:58:53.05	26.05	13.98	-32.6	-32.5	15.5	1.27e-03	0	54	0	9026142208	37	13724
2026-01-21 08:58:54.06	26.12	14.10	-32.6	-32.5	15.6	9.58e-04	0	53	0	9135194112	37	13762
2026-01-21 08:58:55.07	26.18	14.23	-32.6	-32.4	15.6	9.58e-04	0	53	0	9252634624	37	13625
2026-01-21 08:58:56.08	26.25	14.36	-32.4	-32.3	15.6	9.58e-04	0	54	0	9361686528	36	14157
2026-01-21 08:58:57.09	26.31	14.49	-32.4	-32.3	15.6	7.87e-04	0	54	0	9479127040	36	14189
2026-01-21 08:58:58.09	26.38	14.62	-32.5	-32.4	15.6	7.87e-04	0	53	0	9588178944	36	14412
2026-01-21 08:58:59.10	26.44	14.75	-32.4	-32.3	15.6	7.87e-04	0	54	0	9697230848	36	14193
2026-01-21 08:59:00.11	26.51	14.88	-32.3	-32.2	15.7	6.10e-04	0	54	0	9814671360	36	13963
2026-01-21 08:59:01.12	26.58	15.02	-32.3	-32.2	15.7	6.10e-04	0	53	0	9923723264	36	14045
2026-01-21 08:59:02.13	26.65	15.15	-32.3	-32.2	15.7	6.10e-04	0	54	0	10041163776	36	14093
2026-01-21 08:59:03.13	26.72	15.29	-32.1	-31.9	15.8	7.01e-04	0	54	0	10150215680	36	13630
2026-01-21 08:59:04.14	26.79	15.42	-29.5	-29.4	15.5	7.01e-04	0	54	0	10276044800	31	13572
2026-01-21 08:59:05.15	26.86	15.56	-29.6	-29.5	15.4	1.13e-03	0	54	0	10385096704	31	13684
2026-01-21 08:59:06.16	26.93	15.70	-29.4	-29.3	15.5	1.13e-03	0	54	0	10502537216	30	14154
2026-01-21 08:59:07.16	27.00	15.84	-29.3	-29.2	15.5	1.13e-03	0	54	0	10611589120	30	14083
2026-01-21 08:59:08.17	27.08	15.98	-29.4	-29.2	15.5	1.28e-03	0	54	0	10720641024	30	14103
2026-01-21 08:59:09.18	27.15	16.12	-29.4	-29.3	15.5	1.28e-03	0	54	0	10838081536	30	14123
2026-01-21 08:59:10.19	27.22	16.26	-29.3	-29.2	15.5	1.28e-03	0	54	0	10947133440	30	13965
2026-01-21 08:59:11.19	27.30	16.40	-29.2	-29.1	15.5	1.34e-03	0	54	0	11064573952	30	13923
2026-01-21 08:59:12.20	27.38	16.55	-29.2	-29.1	15.5	1.34e-03	0	54	0	11173625856	30	13875
2026-01-21 08:59:13.21	27.45	16.69	-29.2	-29.1	15.5	1.28e-03	0	54	0	11282677760	30	13921
2026-01-21 08:59:14.22	27.53	16.84	-29.1	-29.0	15.6	1.28e-03	0	54	0	11400118272	30	13785
2026-01-21 08:59:15.22	27.61	16.99	-29.1	-29.0	15.6	1.28e-03	0	54	0	11509170176	30	13660
2026-01-21 08:59:16.23	27.69	17.13	-29.2	-29.1	15.5	1.11e-03	0	54	0	11626610688	30	13822
2026-01-21 08:59:17.24	27.77	17.28	-29.1	-29.0	15.6	1.11e-03	0	54	0	11744051200	30	13678
2026-01-21 08:59:18.25	27.85	17.43	-29.0	-28.9	15.7	9.87e-04	0	54	0	11861491712	30	13546
2026-01-21 08:59:19.26	27.93	17.59	-28.9	-28.8	15.7	9.87e-04	0	54	0	11970543616	29	14226
2026-01-21 08:59:20.26	28.01	17.74	-28.9	-28.8	15.7	9.87e-04	0	54	0	12087984128	29	14177
2026-01-21 08:59:21.27	28.10	17.89	-28.8	-28.7	15.7	9.87e-04	0	54	0	12197036032	29	14044
2026-01-21 08:59:22.28	28.18	18.05	-28.6	-28.5	15.8	8.53e-04	0	54	0	12314476544	29	13684
2026-01-21 08:59:23.29	28.27	18.21	-28.6	-28.5	15.7	8.53e-04	0	54	0	12423528448	29	13747
2026-01-21 08:59:24.29	28.36	18.36	-28.6	-28.5	15.8	5.77e-04	0	54	0	12532580352	29	13702
2026-01-21 08:59:25.30	28.44	18.52	-28.5	-28.4	15.8	5.77e-04	0	54	0	12650020864	29	13531
2026-01-21 08:59:26.31	28.53	18.68	-28.7	-28.6	15.7	5.77e-04	0	54	0	12759072768	29	13799
2026-01-21 08:59:27.32	28.62	18.84	-28.4	-28.3	15.8	4.72e-04	0	54	0	12876513280	28	14243
2026-01-21 08:59:28.33	28.71	19.01	-28.4	-28.3	15.8	4.72e-04	0	54	0	12985565184	28	14223
2026-01-21 08:59:29.34	28.81	19.17	-28.3	-28.2	15.8	5.34e-04	0	54	0	13094617088	28	14039
2026-01-21 08:59:30.34	28.90	19.34	-28.3	-28.1	15.8	5.34e-04	0	54	0	13220446208	28	13928
2026-01-21 08:59:31.35	28.99	19.50	-28.0	-27.9	16.0	3.58e-04	0	54	0	13337886720	28	13516
2026-01-21 08:59:32.36	29.09	19.67	-28.1	-28.0	15.9	3.58e-04	0	54	0	13446938624	28	13714
2026-01-21 08:59:33.37	29.18	19.84	-28.2	-28.0	15.9	3.58e-04	0	54	0	13555990528	28	13777
2026-01-21 08:59:34.38	29.28	20.01	-28.0	-27.9	16.0	3.58e-04	0	54	0	13673431040	28	13477
2026-01-21 08:59:35.38	29.38	20.18	-28.0	-27.9	16.0	2.29e-04	0	54	0	13782482944	27	14341
2026-01-21 08:59:36.40	29.48	20.36	-28.1	-28.0	16.0	2.29e-04	0	54	0	13899923456	27	14517
2026-01-21 08:59:37.41	29.58	20.53	-27.9	-27.8	16.0	1.81e-04	0	54	0	14008975360	27	14255
2026-01-21 08:59:38.42	29.69	20.71	-28.0	-27.8	16.0	1.81e-04	0	54	0	14118027264	27	14256
2026-01-21 08:59:39.42	29.79	20.89	-27.9	-27.8	16.0	1.81e-04	0	54	0	14235467776	27	14132
2026-01-21 08:59:40.43	29.89	21.07	-27.7	-27.6	16.1	1.81e-04	0	54	0	14344519680	27	13867
2026-01-21 08:59:41.44	30.00	21.25	-27.6	-27.5	16.1	1.81e-04	0	54	0	14461960192	27	13731
2026-01-21 08:59:42.45	30.11	21.43	-27.5	-27.4	16.2	1.81e-04	0	54	0	14579400704	27	13501
2026-01-21 08:59:43.46	30.22	21.62	-27.4	-27.3	16.2	1.81e-04	0	54	0	14696841216	26	14185
2026-01-21 08:59:44.47	30.33	21.80	-27.3	-27.2	16.2	1.14e-04	0	54	0	14805893120	26	14045
2026-01-21 08:59:45.47	30.44	21.99	-27.3	-27.1	16.2	1.14e-04	0	54	0	14923333632	26	13944
2026-01-21 08:59:46.48	30.56	22.18	-27.2	-27.1	16.2	1.14e-04	0	54	0	15032385536	26	13832
2026-01-21 08:59:47.49	30.67	22.37	-26.9	-26.8	16.3	6.19e-05	0	54	0	15149826048	25	14161
2026-01-21 08:59:48.50	30.79	22.56	-26.9	-26.8	16.3	6.19e-05	0	54	0	15258877952	25	14222
2026-01-21 08:59:49.51	30.91	22.76	-26.9	-26.8	16.3	6.19e-05	0	54	0	15367929856	25	14200
2026-01-21 08:59:50.51	31.03	22.95	-26.8	-26.7	16.3	6.19e-05	0	54	0	15485370368	25	13961
2026-01-21 08:59:51.52	31.15	23.15	-26.8	-26.7	16.3	8.10e-05	0	54	0	15594422272	25	14010
2026-01-21 08:59:52.53	31.27	23.35	-26.8	-26.7	16.3	8.10e-05	0	54	0	15711862784	25	13960
2026-01-21 08:59:53.54	31.40	23.55	-26.5	-26.4	16.4	3.81e-05	0	54	0	15829303296	25	13527
2026-01-21 08:59:54.55	31.52	23.75	-26.5	-26.3	16.4	3.81e-05	0	54	0	15946743808	24	14242
2026-01-21 08:59:55.56	31.65	23.96	-26.3	-26.2	16.5	3.81e-05	0	54	0	16055795712	24	13988
2026-01-21 08:59:56.57	31.78	24.17	-26.1	-26.0	16.5	4.70e-06	0	54	0	16173236224	24	13753
2026-01-21 08:59:57.57	31.91	24.37	-26.2	-26.0	16.5	4.70e-06	0	54	0	16282288128	24	13777
2026-01-21 08:59:58.58	32.05	24.58	-26.0	-25.9	16.5	4.70e-06	0	54	0	16391340032	24	13546
2026-01-21 08:59:59.59	32.18	24.80	-26.0	-25.9	16.5	4.70e-06	0	54	0	16508780544	23	14309
2026-01-21 09:00:00.60	32.32	25.01	-25.9	-25.8	16.5	1.43e-05	0	54	0	16617832448	23	14128
2026-01-21 09:00:01.60	32.46	25.23	-25.7	-25.6	16.6	1.43e-05	0	54	0	16735272960	23	13882
2026-01-21 09:00:02.61	32.60	25.44	-25.8	-25.7	16.5	1.43e-05	0	54	0	16844324864	23	13987
2026-01-21 09:00:03.62	32.75	25.66	-25.6	-25.5	16.6	2.38e-05	0	54	0	16953376768	23	13653
2026-01-21 09:00:04.63	32.89	25.89	-25.6	-25.4	16.6	2.38e-05	0	54	0	17070817280	23	13616
2026-01-21 09:00:05.63	33.04	26.11	-25.5	-25.3	16.6	2.38e-05	0	54	0	17179869184	23	13476
2026-01-21 09:00:06.64	33.19	26.34	-25.3	-25.2	16.6	4.70e-06	0	54	0	17305698304	22	14021
2026-01-21 09:00:07.65	33.35	26.57	-25.3	-25.2	16.6	4.70e-06	0	54	0	17414750208	22	13993
2026-01-21 09:00:08.66	33.50	26.80	-25.2	-25.1	16.7	4.70e-06	0	54	0	17532190720	22	13835
2026-01-21 09:00:09.67	33.66	27.03	-25.1	-24.9	16.7	4.70e-06	0	54	0	17641242624	22	13625
2026-01-21 09:00:10.68	33.82	27.27	-25.0	-24.9	16.7	4.70e-06	0	54	0	17758683136	22	13554
2026-01-21 09:00:11.69	33.99	27.50	-25.1	-25.0	16.7	4.70e-06	0	54	0	17867735040	22	13644
2026-01-21 09:00:12.69	34.15	27.74	-25.0	-24.9	16.7	0.00e+00	0	54	0	17976786944	22	13526
2026-01-21 09:00:13.70	34.32	27.99	-24.9	-24.8	16.7	0.00e+00	0	54	0	18094227456	21	14163
2026-01-21 09:00:14.70	34.49	28.23	-24.9	-24.8	16.7	0.00e+00	0	54	0	18203279360	21	14167
2026-01-21 09:00:15.71	34.66	28.47	-24.9	-24.7	16.7	0.00e+00	0	54	0	18320719872	21	14093
2026-01-21 09:00:16.72	34.84	28.72	-24.6	-24.5	16.8	0.00e+00	0	54	0	18429771776	21	13737
2026-01-21 09:00:17.73	35.02	28.98	-24.6	-24.5	16.8	0.00e+00	0	54	0	18547212288	21	13641
2026-01-21 09:00:18.74	35.20	29.23	-24.5	-24.4	16.8	0.00e+00	0	54	0	18656264192	21	13542
2026-01-21 09:00:19.75	35.39	29.49	-24.3	-24.2	16.8	0.00e+00	0	54	0	18782093312	20	14025
2026-01-21 09:00:20.76	35.58	29.75	-24.4	-24.2	16.8	0.00e+00	0	54	0	18891145216	20	14078
2026-01-21 09:00:21.77	35.77	30.01	-24.2	-24.1	16.8	0.00e+00	0	54	0	19008585728	20	13811
2026-01-21 09:00:22.77	35.97	30.27	-24.2	-24.0	16.9	0.00e+00	0	54	0	19117637632	20	13755
2026-01-21 09:00:23.78	36.16	30.54	-24.1	-24.0	16.9	0.00e+00	0	54	0	19226689536	20	13731
2026-01-21 09:00:24.79	36.37	30.81	-24.0	-23.9	16.9	0.00e+00	0	54	0	19344130048	20	13579
2026-01-21 09:00:25.80	36.57	31.08	-24.0	-23.9	16.9	0.00e+00	0	54	0	19453181952	19	14288
2026-01-21 09:00:26.80	36.78	31.35	-23.9	-23.8	16.9	0.00e+00	0	54	0	19570622464	19	14197
2026-01-21 09:00:27.81	37.00	31.63	-23.9	-23.8	16.9	0.00e+00	0	54	0	19679674368	19	14204
2026-01-21 09:00:28.82	37.21	31.91	-23.8	-23.7	16.9	0.00e+00	0	54	0	19788726272	19	14000
2026-01-21 09:00:29.83	37.44	32.19	-23.7	-23.6	16.9	0.00e+00	0	54	0	19906166784	19	13892
2026-01-21 09:00:30.83	37.66	32.47	-23.6	-23.5	17.0	0.00e+00	0	54	0	20015218688	19	13709
2026-01-21 09:00:31.84	37.89	32.76	-23.5	-23.4	17.0	0.00e+00	0	54	0	20141047808	19	13499
2026-01-21 09:00:32.85	38.13	33.05	-23.4	-23.3	17.0	0.00e+00	0	54	0	20250099712	18	14156
2026-01-21 09:00:33.86	38.37	33.35	-23.4	-23.3	17.0	0.00e+00	0	54	0	20367540224	18	14148
2026-01-21 09:00:34.86	38.61	33.64	-23.3	-23.2	17.0	0.00e+00	0	54	0	20476592128	18	13984
2026-01-21 09:00:35.87	38.85	33.94	-23.1	-23.0	17.0	0.00e+00	0	54	0	20594032640	18	13651
2026-01-21 09:00:36.88	39.11	34.24	-23.1	-23.0	17.0	0.00e+00	0	54	0	20703084544	18	13717
2026-01-21 09:00:37.89	39.37	34.55	-23.1	-23.0	17.0	0.00e+00	0	54	0	20812136448	18	13652
2026-01-21 09:00:38.90	39.63	34.86	-22.7	-22.6	17.1	0.00e+00	0	54	0	20929576960	17	13861
2026-01-21 09:00:39.90	39.90	35.17	-22.6	-22.5	17.1	0.00e+00	0	54	0	21038628864	17	13727
2026-01-21 09:00:40.91	40.17	35.48	-22.6	-22.4	17.1	0.00e+00	0	54	0	21156069376	17	13632
2026-01-21 09:00:41.92	40.45	35.80	-22.4	-22.3	17.1	0.00e+00	0	54	0	21265121280	16	14182
2026-01-21 09:00:42.93	40.74	36.12	-22.4	-22.3	17.1	0.00e+00	0	54	0	21374173184	16	14165
2026-01-21 09:00:43.94	41.03	36.44	-22.3	-22.2	17.2	0.00e+00	0	54	0	21491613696	16	14053
2026-01-21 09:00:44.94	41.32	36.76	-22.1	-22.0	17.2	0.00e+00	0	54	0	21617442816	16	13727
2026-01-21 09:00:45.95	41.62	37.09	-22.1	-21.9	17.2	0.00e+00	0	54	0	21726494720	16	13603
2026-01-21 09:00:46.96	41.93	37.42	-22.0	-21.9	17.2	0.00e+00	0	54	0	21835546624	16	13528
2026-01-21 09:00:47.97	42.25	37.76	-21.8	-21.7	17.2	0.00e+00	0	54	0	21952987136	15	14054
2026-01-21 09:00:48.98	42.57	38.09	-21.9	-21.8	17.2	0.00e+00	0	54	0	22062039040	15	14134
2026-01-21 09:00:49.99	42.91	38.43	-21.6	-21.5	17.2	0.00e+00	0	54	0	22179479552	15	13664
2026-01-21 09:00:50.99	43.24	38.77	-21.3	-21.2	17.3	0.00e+00	0	54	0	22288531456	14	14029
2026-01-21 09:00:52.00	43.59	39.12	-21.3	-21.2	17.3	0.00e+00	0	54	0	22405971968	14	14046
2026-01-21 09:00:53.01	43.94	39.47	-21.3	-21.2	17.3	0.00e+00	0	54	0	22515023872	14	14033
2026-01-21 09:00:54.02	44.30	39.82	-21.2	-21.1	17.3	0.00e+00	0	54	0	22624075776	14	13817
2026-01-21 09:00:55.03	44.67	40.18	-20.9	-20.8	17.3	0.00e+00	0	54	0	22741516288	13	14126
2026-01-21 09:00:56.04	45.05	40.53	-21.0	-20.9	17.3	0.00e+00	0	54	0	22850568192	13	14357
2026-01-21 09:00:57.05	45.43	40.89	-20.9	-20.7	17.3	0.00e+00	0	54	0	22976397312	13	14062
2026-01-21 09:00:58.05	45.82	41.25	-20.9	-20.7	17.3	0.00e+00	0	54	0	23085449216	13	14084
2026-01-21 09:00:59.06	46.23	41.62	-20.7	-20.6	17.3	0.00e+00	0	54	0	23202889728	13	13800
2026-01-21 09:01:00.07	46.64	41.99	-20.4	-20.2	17.4	0.00e+00	0	54	0	23311941632	12	14098
2026-01-21 09:01:01.06	47.06	42.35	-20.4	-20.3	17.3	0.00e+00	0	54	0	23429382144	12	14155
2026-01-21 09:01:02.07	47.49	42.72	-20.5	-20.4	17.4	0.00e+00	0	54	0	23538434048	12	14365
2026-01-21 09:01:03.08	47.94	43.10	-20.4	-20.2	17.4	0.00e+00	0	54	0	23647485952	12	14072
2026-01-21 09:01:04.09	48.39	43.48	-20.1	-20.0	17.4	0.00e+00	0	54	0	23764926464	12	13663
2026-01-21 09:01:05.09	48.86	43.85	-20.0	-19.9	17.4	0.00e+00	0	54	0	23873978368	12	13526
2026-01-21 09:01:06.10	49.34	44.24	-20.1	-19.9	17.4	0.00e+00	0	54	0	23991418880	11	14440
2026-01-21 09:01:07.11	49.83	44.62	-20.1	-19.9	17.4	0.00e+00	0	54	0	24100470784	11	14411
2026-01-21 09:01:08.12	50.33	45.01	-19.9	-19.8	17.5	0.00e+00	0	54	0	24209522688	11	14178
2026-01-21 09:01:09.13	50.84	45.40	-19.8	-19.6	17.5	0.00e+00	0	54	0	24326963200	11	13950
2026-01-21 09:01:10.13	51.37	45.78	-19.8	-19.7	17.4	0.00e+00	0	54	0	24436015104	11	14009
2026-01-21 09:01:11.14	51.91	46.17	-19.7	-19.6	17.5	0.00e+00	0	54	0	24561844224	11	13832
2026-01-21 09:01:12.15	52.47	46.57	-19.6	-19.5	17.5	0.00e+00	0	54	0	24670896128	11	13704
2026-01-21 09:01:13.15	53.03	46.96	-19.4	-19.3	17.5	0.00e+00	0	54	0	24788336640	10	14142
2026-01-21 09:01:14.16	53.62	47.35	-19.2	-19.1	17.5	0.00e+00	0	54	0	24897388544	10	13895
2026-01-21 09:01:15.17	54.22	47.75	-19.3	-19.1	17.5	0.00e+00	0	54	0	25014829056	10	13945
2026-01-21 09:01:16.18	54.83	48.15	-19.2	-19.1	17.6	0.00e+00	0	54	0	25123880960	10	13837
2026-01-21 09:01:17.19	55.47	48.55	-19.0	-18.9	17.6	0.00e+00	0	54	0	25232932864	10	13521
2026-01-21 09:01:18.19	56.11	48.94	-19.2	-19.0	17.6	0.00e+00	0	54	0	25350373376	10	13764
2026-01-21 09:01:19.20	56.78	49.34	-19.0	-18.9	17.7	0.00e+00	0	54	0	25459425280	10	13559
2026-01-21 09:01:20.21	57.46	49.74	-18.8	-18.7	17.6	0.00e+00	0	54	0	25576865792	9	14017
2026-01-21 09:01:21.22	58.17	50.13	-18.6	-18.4	17.7	0.00e+00	0	54	0	25685917696	9	13628
2026-01-21 09:01:22.22	58.88	50.53	-18.6	-18.4	17.7	0.00e+00	0	54	0	25803358208	9	13573
2026-01-21 09:01:23.23	59.62	50.92	-18.7	-18.5	17.7	0.00e+00	0	54	0	25912410112	9	13741
2026-01-21 09:01:24.24	60.39	51.32	-18.6	-18.4	17.7	0.00e+00	0	54	0	26038239232	9	13583
2026-01-21 09:01:25.25	61.17	51.71	-18.3	-18.2	17.7	0.00e+00	0	54	0	26147291136	8	14003
2026-01-21 09:01:26.26	61.97	52.10	-18.2	-18.1	17.7	0.00e+00	0	54	0	26264731648	8	13872
2026-01-21 09:01:27.26	62.79	52.49	-18.2	-18.0	17.7	0.00e+00	0	54	0	26373783552	8	13786
2026-01-21 09:01:28.27	63.64	52.87	-18.1	-18.0	17.7	0.00e+00	0	54	0	26482835456	8	13636
2026-01-21 09:01:29.28	64.51	53.26	-18.1	-17.9	17.7	0.00e+00	0	54	0	26600275968	8	13574
2026-01-21 09:01:30.29	65.41	53.64	-18.0	-17.8	17.7	0.00e+00	0	54	0	26709327872	7	14216
2026-01-21 09:01:31.30	66.32	54.01	-18.0	-17.8	17.7	0.00e+00	0	54	0	26826768384	7	14233
2026-01-21 09:01:32.31	67.27	54.38	-17.9	-17.8	17.7	0.00e+00	0	54	0	26935820288	7	14155
2026-01-21 09:01:33.31	68.23	54.75	-17.9	-17.8	17.7	0.00e+00	0	54	0	27044872192	7	14158
2026-01-21 09:01:34.32	69.22	55.11	-17.7	-17.6	17.8	0.00e+00	0	54	0	27162312704	7	13811
2026-01-21 09:01:35.33	70.24	55.46	-17.6	-17.5	17.8	0.00e+00	0	54	0	27271364608	7	13697
2026-01-21 09:01:36.33	71.27	55.81	-17.7	-17.5	17.8	0.00e+00	0	54	0	27388805120	7	13784
2026-01-21 09:01:37.34	72.35	56.15	-17.6	-17.4	17.8	0.00e+00	0	54	0	27506245632	7	13616
2026-01-21 09:01:38.35	73.44	56.48	-17.6	-17.5	17.8	0.00e+00	0	54	0	27623686144	7	13650
2026-01-21 09:01:39.36	74.57	56.81	-17.6	-17.5	17.7	0.00e+00	0	54	0	27732738048	7	13639
2026-01-21 09:01:40.37	75.72	57.13	-17.4	-17.2	17.7	0.00e+00	0	54	0	27850178560	6	14076
2026-01-21 09:01:41.37	76.89	57.43	-17.3	-17.2	17.8	0.00e+00	0	54	0	27959230464	6	14006
2026-01-21 09:01:42.38	78.09	57.73	-17.4	-17.3	17.7	0.00e+00	0	54	0	28068282368	6	14128
2026-01-21 09:01:43.39	79.33	58.02	-17.4	-17.3	17.7	0.00e+00	0	54	0	28185722880	6	14169
2026-01-21 09:01:44.40	80.59	58.30	-17.2	-17.1	17.7	0.00e+00	0	54	0	28294774784	6	13795
2026-01-21 09:01:45.41	81.87	58.57	-17.1	-17.0	17.7	0.00e+00	0	54	0	28412215296	6	13715
2026-01-21 09:01:46.41	83.17	58.82	-17.2	-17.1	17.8	0.00e+00	0	54	0	28521267200	6	13874
2026-01-21 09:01:47.42	84.51	59.06	-17.3	-17.2	17.7	0.00e+00	0	54	0	28638707712	6	13991
2026-01-21 09:01:48.43	85.87	59.29	-17.2	-17.1	17.7	0.00e+00	0	54	0	28747759616	6	13798
2026-01-21 09:01:49.44	87.25	59.50	-17.1	-17.0	17.7	0.00e+00	0	54	0	28856811520	6	13699
2026-01-21 09:01:50.45	88.66	59.70	-17.2	-17.1	17.7	0.00e+00	0	54	0	28982640640	6	13848
2026-01-21 09:01:51.45	90.08	59.89	-17.3	-17.2	17.7	0.00e+00	0	54	0	29091692544	6	13967
2026-01-21 09:01:52.46	91.52	60.06	-17.3	-17.1	17.7	0.00e+00	0	54	0	29209133056	6	13941
2026-01-21 09:01:53.47	92.99	60.21	-17.3	-17.1	17.7	0.00e+00	0	54	0	29318184960	6	13883
2026-01-21 09:01:54.48	94.48	60.35	-17.3	-17.2	17.7	0.00e+00	0	54	0	29435625472	6	13966
2026-01-21 09:01:55.49	95.97	60.47	-17.3	-17.1	17.7	0.00e+00	0	54	0	29544677376	6	13949
2026-01-21 09:01:56.49	97.47	60.57	-17.1	-17.0	17.7	0.00e+00	0	54	0	29662117888	6	13721
2026-01-21 09:01:57.50	99.00	60.66	-17.1	-17.0	17.7	0.00e+00	0	54	0	29771169792	6	13694
2026-01-21 09:01:58.51	100.53	60.73	-17.1	-16.9	17.7	0.00e+00	0	54	0	29880221696	6	13568
2026-01-21 09:01:59.52	102.07	60.78	-17.2	-17.0	17.7	0.00e+00	0	54	0	29997662208	6	13741
2026-01-21 09:02:00.53	103.62	60.82	-17.1	-17.0	17.7	0.00e+00	0	54	0	30106714112	6	13634
2026-01-21 09:02:01.54	105.17	60.83	-17.0	-16.9	17.7	0.00e+00	0	54	0	30224154624	6	13564
2026-01-21 09:02:02.54	106.71	60.83	-17.1	-17.0	17.7	0.00e+00	0	54	0	30341595136	6	13733
2026-01-21 09:02:03.55	108.25	60.81	-17.2	-17.1	17.7	0.00e+00	0	54	0	30459035648	6	13819
2026-01-21 09:02:04.56	109.80	60.77	-17.1	-16.9	17.7	0.00e+00	0	54	0	30568087552	6	13592
2026-01-21 09:02:05.57	111.34	60.71	-17.0	-16.9	17.7	0.00e+00	0	54	0	30685528064	6	13525
2026-01-21 09:02:06.58	112.87	60.64	-16.9	-16.8	17.6	0.00e+00	0	54	0	30794579968	5	14211
2026-01-21 09:02:07.59	114.39	60.55	-17.0	-16.9	17.6	0.00e+00	0	54	0	30903631872	5	14320
2026-01-21 09:02:08.59	115.89	60.44	-17.1	-17.0	17.6	0.00e+00	0	54	0	31021072384	5	14444
2026-01-21 09:02:09.60	117.39	60.31	-17.0	-16.9	17.6	0.00e+00	0	54	0	31130124288	5	14323
2026-01-21 09:02:10.61	118.87	60.17	-17.0	-16.9	17.6	0.00e+00	0	54	0	31247564800	5	14365
2026-01-21 09:02:11.62	120.33	60.01	-17.1	-16.9	17.6	0.00e+00	0	54	0	31356616704	5	14424
2026-01-21 09:02:12.62	121.76	59.84	-17.2	-17.1	17.6	0.00e+00	0	54	0	31465668608	5	14700
2026-01-21 09:02:13.63	123.18	59.65	-17.2	-17.0	17.5	0.00e+00	0	54	0	31583109120	5	14607
2026-01-21 09:02:14.64	124.58	59.44	-17.1	-17.0	17.5	0.00e+00	0	54	0	31692161024	5	14539
2026-01-21 09:02:15.64	125.95	59.23	-17.1	-17.0	17.5	0.00e+00	0	54	0	31817990144	5	14462
2026-01-21 09:02:16.65	127.31	58.99	-17.2	-17.0	17.5	0.00e+00	0	54	0	31927042048	5	14604
2026-01-21 09:02:17.66	128.64	58.75	-17.1	-17.0	17.4	0.00e+00	0	54	0	32044482560	5	14521
2026-01-21 09:02:18.67	129.94	58.49	-17.2	-17.1	17.5	0.00e+00	0	54	0	32153534464	5	14674
2026-01-21 09:02:19.68	131.22	58.22	-17.3	-17.2	17.5	0.00e+00	0	54	0	32270974976	5	14794
2026-01-21 09:02:20.69	132.48	57.94	-17.4	-17.2	17.5	0.00e+00	0	54	0	32380026880	5	14923
2026-01-21 09:02:21.70	133.70	57.65	-17.4	-17.2	17.5	0.00e+00	0	54	0	32497467392	5	14912
2026-01-21 09:02:22.70	134.89	57.35	-17.4	-17.3	17.5	0.00e+00	0	54	0	32606519296	5	15006
2026-01-21 09:02:23.71	136.07	57.03	-17.5	-17.3	17.5	0.00e+00	0	54	0	32715571200	5	15087
2026-01-21 09:02:24.72	137.21	56.71	-17.4	-17.3	17.6	0.00e+00	0	54	0	32833011712	5	14995
2026-01-21 09:02:25.73	138.33	56.38	-17.5	-17.3	17.7	0.00e+00	0	54	0	32942063616	5	15095
2026-01-21 09:02:26.73	139.41	56.05	-17.5	-17.3	17.7	0.00e+00	0	54	0	33059504128	5	15079
2026-01-21 09:02:27.74	140.48	55.71	-17.5	-17.4	17.7	0.00e+00	0	54	0	33176944640	5	15221
2026-01-21 09:02:28.75	141.52	55.35	-17.5	-17.4	17.7	0.00e+00	0	54	0	33294385152	5	15150
2026-01-21 09:02:29.75	142.52	55.00	-17.6	-17.5	17.7	0.00e+00	0	54	0	33403437056	5	15348
2026-01-21 09:02:30.76	143.51	54.64	-17.8	-17.6	17.7	0.00e+00	0	54	0	33520877568	6	14773
2026-01-21 09:02:31.77	144.47	54.27	-17.9	-17.7	17.7	0.00e+00	0	54	0	33629929472	6	14941
2026-01-21 09:02:32.78	145.41	53.89	-17.8	-17.7	17.7	0.00e+00	0	54	0	33738981376	6	14836
2026-01-21 09:02:33.78	146.31	53.52	-54.4	-56.7	6.2	0.00e+00	0	53	104	33806090240	79	19733
2026-01-21 09:02:34.79	147.20	53.14	-54.4	-56.6	6.2	0.00e+00	0	53	104	33806090240	79	19520
2026-01-21 09:02:35.80	148.07	52.75	-54.4	-56.5	6.2	0.00e+00	0	53	104	33806090240	79	19455
2026-01-21 09:02:36.81	148.91	52.37	-54.4	-56.6	6.2	0.00e+00	0	53	104	33806090240	79	19492
2026-01-21 09:02:37.82	149.73	51.97	-54.4	-56.5	6.2	0.00e+00	0	53	104	33806090240	79	19395
2026-01-21 09:02:38.83	150.53	51.58	-54.4	-56.5	6.2	0.00e+00	0	53	104	33806090240	79	19373
2026-01-21 09:02:39.84	151.31	51.19	-54.4	-56.5	6.2	0.00e+00	0	53	104	33806090240	79	19435
2026-01-21 09:02:40.84	152.06	50.79	-54.4	-56.5	6.2	0.00e+00	0	52	104	33806090240	79	19455
2026-01-21 09:02:41.85	152.80	50.40	-54.4	-56.5	6.2	0.00e+00	0	52	104	33806090240	79	19384
2026-01-21 09:02:42.86	153.52	50.00	-54.4	-56.6	6.2	0.00e+00	0	52	104	33806090240	79	19491
2026-01-21 09:02:43.87	154.22	49.60	-54.4	-56.5	6.2	0.00e+00	0	52	104	33806090240	79	19375
2026-01-21 09:02:44.88	154.90	49.20	-54.4	-56.5	6.2	0.00e+00	0	52	104	33806090240	79	19364
2026-01-21 09:02:45.89	155.56	48.80	-54.4	-56.5	6.2	0.00e+00	0	52	104	33806090240	79	19311
2026-01-21 09:02:46.89	156.20	48.40	-54.4	-56.5	6.2	0.00e+00	0	52	104	33806090240	79	19312
2026-01-21 09:02:47.90	156.83	48.01	-54.4	-56.5	6.2	0.00e+00	0	52	104	33806090240	79	19338
2026-01-21 09:02:48.91	157.44	47.61	-54.4	-56.5	6.2	0.00e+00	0	52	104	33806090240	79	19354
2026-01-21 09:02:49.92	158.04	47.21	-54.3	-56.5	6.2	0.00e+00	0	52	104	33806090240	79	19277
2026-01-21 09:02:50.93	158.62	46.81	-54.4	-56.5	6.2	0.00e+00	0	52	104	33806090240	79	19356
2026-01-21 09:02:51.93	159.18	46.42	-54.3	-56.5	6.2	0.00e+00	0	52	104	33806090240	79	19299
2026-01-21 09:02:52.94	159.74	46.03	-54.4	-56.5	6.2	0.00e+00	0	52	104	33806090240	79	19282
2026-01-21 09:02:53.95	160.28	45.63	-54.3	-56.5	6.2	0.00e+00	0	52	104	33806090240	79	19267
2026-01-21 09:02:54.96	160.80	45.24	-54.3	-56.5	6.2	0.00e+00	0	52	104	33806090240	79	19267
2026-01-21 09:02:55.96	161.31	44.86	-54.3	-56.5	6.2	0.00e+00	0	52	104	33806090240	79	19261
2026-01-21 09:02:56.97	161.81	44.47	-54.3	-56.5	6.2	0.00e+00	0	52	104	33806090240	79	19282
2026-01-21 09:02:57.98	162.30	44.09	-54.3	-56.4	6.2	0.00e+00	0	52	104	33806090240	79	19157
2026-01-21 09:02:58.99	162.77	43.70	-54.3	-56.4	6.2	0.00e+00	0	52	104	33806090240	79	19149
2026-01-21 09:03:00.00	163.24	43.32	-54.3	-56.4	6.2	0.00e+00	0	52	104	33806090240	79	19155
2026-01-21 09:03:01.00	163.68	42.95	-54.3	-56.4	6.2	0.00e+00	0	52	104	33806090240	79	19133
2026-01-21 09:03:02.01	164.13	42.57	-54.3	-56.4	6.2	0.00e+00	0	52	104	33806090240	79	19217
2026-01-21 09:03:03.02	164.56	42.20	-54.3	-56.4	6.2	0.00e+00	0	52	104	33806090240	79	19197
2026-01-21 09:03:04.03	164.98	41.82	-54.3	-56.4	6.2	0.00e+00	0	52	104	33806090240	79	19130
2026-01-21 09:03:05.03	165.39	41.46	-54.3	-56.4	6.2	0.00e+00	0	52	104	33806090240	79	19167
2026-01-21 09:03:06.04	165.79	41.09	-54.3	-56.4	6.2	0.00e+00	0	52	104	33806090240	79	19048
2026-01-21 09:03:07.05	166.18	40.73	-54.3	-56.4	6.2	0.00e+00	0	52	104	33806090240	79	19042
2026-01-21 09:03:08.05	166.56	40.37	-54.2	-56.3	6.2	0.00e+00	0	52	104	33806090240	79	19023
2026-01-21 09:03:09.06	166.94	40.01	-54.2	-56.3	6.2	0.00e+00	0	52	104	33806090240	79	19003
2026-01-21 09:03:10.07	167.31	39.66	-54.2	-56.3	6.2	0.00e+00	0	52	104	33806090240	79	19003
2026-01-21 09:03:11.08	167.67	39.31	-54.2	-56.3	6.2	0.00e+00	0	52	104	33806090240	79	18942
2026-01-21 09:03:12.09	168.02	38.96	-54.2	-56.3	6.2	0.00e+00	0	52	104	33806090240	79	19026
2026-01-21 09:03:13.09	168.36	38.61	-54.2	-56.3	6.2	0.00e+00	0	52	104	33806090240	79	18942
2026-01-21 09:03:14.10	168.69	38.27	-54.2	-56.3	6.2	0.00e+00	0	51	104	33806090240	79	18884
2026-01-21 09:03:15.11	169.02	37.93	-54.2	-56.3	6.2	0.00e+00	0	52	104	33806090240	79	18938
2026-01-21 09:03:16.12	169.34	37.59	-54.2	-56.3	6.2	0.00e+00	0	52	104	33806090240	79	18941
2026-01-21 09:03:17.13	169.66	37.26	-54.2	-56.2	6.2	0.00e+00	0	51	104	33806090240	79	18814
2026-01-21 09:03:18.13	169.96	36.93	-54.2	-56.3	6.2	0.00e+00	0	51	104	33806090240	79	18875
2026-01-21 09:03:19.14	170.27	36.60	-54.2	-56.3	6.2	0.00e+00	0	51	104	33806090240	79	18990
2026-01-21 09:03:20.15	170.56	36.27	-54.2	-56.3	6.2	0.00e+00	0	51	104	33806090240	79	18866
2026-01-21 09:03:21.16	170.85	35.95	-54.1	-56.1	6.2	0.00e+00	0	51	104	33806090240	79	18572
2026-01-21 09:03:22.16	171.13	35.63	-54.1	-56.2	6.2	0.00e+00	0	52	104	33806090240	79	18811
2026-01-21 09:03:23.17	171.41	35.32	-54.1	-56.2	6.2	0.00e+00	0	51	104	33806090240	79	18717
2026-01-21 09:03:24.18	171.68	35.00	-54.1	-56.1	6.2	0.00e+00	0	51	104	33806090240	79	18553
2026-01-21 09:03:25.19	171.95	34.69	-54.1	-56.2	6.2	0.00e+00	0	51	104	33806090240	79	18636
2026-01-21 09:03:26.20	172.21	34.38	-54.1	-56.1	6.2	0.00e+00	0	51	104	33806090240	79	18534
2026-01-21 09:03:27.21	172.47	34.08	-54.1	-56.2	6.2	0.00e+00	0	51	104	33806090240	79	18812
2026-01-21 09:03:28.21	172.72	33.78	-54.1	-56.1	6.2	0.00e+00	0	51	104	33806090240	79	18547
2026-01-21 09:03:29.22	172.97	33.48	-54.0	-56.1	6.2	0.00e+00	0	51	104	33806090240	79	18564
2026-01-21 09:03:30.23	173.21	33.18	-54.0	-56.1	6.2	0.00e+00	0	51	104	33806090240	79	18508
2026-01-21 09:03:31.24	173.45	32.89	-54.1	-56.2	6.2	0.00e+00	0	51	104	33806090240	79	18683
2026-01-21 09:03:32.25	173.68	32.60	-54.1	-56.2	6.2	0.00e+00	0	51	104	33806090240	79	18612
2026-01-21 09:03:33.25	173.91	32.31	-54.0	-56.0	6.2	0.00e+00	0	51	104	33806090240	79	18317
2026-01-21 09:03:34.26	174.13	32.02	-54.0	-56.1	6.2	0.00e+00	0	51	104	33806090240	79	18554
2026-01-21 09:03:35.27	174.35	31.74	-54.0	-56.1	6.2	0.00e+00	0	51	104	33806090240	79	18427
2026-01-21 09:03:36.28	174.57	31.46	-54.0	-56.1	6.2	0.00e+00	0	51	104	33806090240	79	18583
2026-01-21 09:03:37.29	174.78	31.18	-54.0	-56.1	6.2	0.00e+00	0	51	104	33806090240	79	18469
2026-01-21 09:03:38.29	174.99	30.91	-54.0	-56.0	6.2	0.00e+00	0	51	104	33806090240	79	18344
2026-01-21 09:03:39.30	175.20	30.64	-53.9	-56.0	6.2	0.00e+00	0	51	104	33806090240	79	18228
2026-01-21 09:03:40.31	175.40	30.37	-54.0	-56.1	6.2	0.00e+00	0	51	104	33806090240	79	18575
2026-01-21 09:03:41.32	175.60	30.10	-54.0	-56.2	6.2	0.00e+00	0	51	104	33806090240	79	18642
2026-01-21 09:03:42.33	175.79	29.84	-53.9	-55.9	6.2	0.00e+00	0	51	104	33806090240	79	18178
2026-01-21 09:03:43.33	175.98	29.58	-54.0	-56.1	6.2	0.00e+00	0	51	104	33806090240	79	18393
2026-01-21 09:03:44.34	176.17	29.32	-54.0	-56.1	6.2	0.00e+00	0	51	104	33806090240	79	18552
2026-01-21 09:03:45.35	176.35	29.06	-54.0	-56.1	6.2	0.00e+00	0	51	104	33806090240	79	18568
2026-01-21 09:03:46.36	176.54	28.81	-53.9	-56.0	6.2	0.00e+00	0	51	104	33806090240	79	18277
2026-01-21 09:03:47.37	176.72	28.56	-54.0	-56.1	6.2	0.00e+00	0	51	104	33806090240	79	18594
2026-01-21 09:03:48.37	176.89	28.31	-54.0	-56.1	6.2	0.00e+00	0	51	104	33806090240	79	18506
2026-01-21 09:03:49.38	177.06	28.06	-54.0	-56.1	6.2	0.00e+00	0	51	104	33806090240	79	18555
2026-01-21 09:03:50.39	177.23	27.82	-54.0	-56.1	6.2	0.00e+00	0	51	104	33806090240	79	18391
2026-01-21 09:03:51.39	177.40	27.58	-54.0	-56.1	6.2	0.00e+00	0	51	104	33806090240	79	18501
2026-01-21 09:03:52.40	177.57	27.34	-53.9	-56.1	6.2	0.00e+00	0	51	104	33806090240	79	18433
2026-01-21 09:03:53.41	177.73	27.10	-54.0	-56.1	6.2	0.00e+00	0	51	104	33806090240	79	18448
2026-01-21 09:03:54.42	177.89	26.86	-54.0	-56.1	6.2	0.00e+00	0	51	104	33806090240	79	18447
2026-01-21 09:03:55.43	178.05	26.63	-54.0	-56.1	6.2	0.00e+00	0	51	104	33806090240	79	18461
2026-01-21 09:03:56.43	178.20	26.40	-53.9	-56.0	6.2	0.00e+00	0	51	104	33806090240	79	18386
2026-01-21 09:03:57.44	178.35	26.17	-53.9	-56.0	6.2	0.00e+00	0	51	104	33806090240	79	18361
2026-01-21 09:03:58.45	178.50	25.94	-53.9	-56.0	6.2	0.00e+00	0	51	104	33806090240	79	18337
2026-01-21 09:03:59.46	178.65	25.72	-53.9	-56.0	6.2	0.00e+00	0	51	104	33806090240	79	18311
2026-01-21 09:04:00.47	178.80	25.49	-53.9	-56.0	6.2	0.00e+00	0	51	104	33806090240	79	18356
2026-01-21 09:04:01.47	178.94	25.28	-53.9	-56.0	6.2	0.00e+00	0	51	104	33806090240	79	18262
2026-01-21 09:04:02.48	179.08	25.06	-53.9	-56.0	6.2	0.00e+00	0	51	104	33806090240	79	18307
2026-01-21 09:04:03.49	179.22	24.84	-53.9	-56.0	6.2	0.00e+00	0	51	104	33806090240	79	18289
2026-01-21 09:04:04.50	179.36	24.63	-53.9	-56.0	6.2	0.00e+00	0	51	104	33806090240	79	18384
2026-01-21 09:04:05.50	179.49	24.42	-53.9	-56.0	6.2	0.00e+00	0	51	104	33806090240	79	18293
2026-01-21 09:04:06.51	179.63	24.20	-53.9	-56.0	6.2	0.00e+00	0	51	104	33806090240	79	18237
2026-01-21 09:04:07.52	179.76	24.00	-53.9	-56.0	6.2	0.00e+00	0	51	104	33806090240	79	18270
2026-01-21 09:04:08.53	179.89	23.79	-53.9	-56.0	6.2	0.00e+00	0	51	104	33806090240	79	18243
2026-01-21 09:04:09.54	180.02	23.58	-53.9	-56.0	6.2	0.00e+00	0	51	104	33806090240	79	18288
2026-01-21 09:04:10.55	180.14	23.38	-53.8	-56.0	6.2	0.00e+00	0	51	104	33806090240	79	18202
2026-01-21 09:04:11.55	180.26	23.18	-53.9	-56.0	6.2	0.00e+00	0	51	104	33806090240	79	18258
2026-01-21 09:04:12.56	180.39	22.98	-53.9	-56.0	6.2	0.00e+00	0	51	104	33806090240	79	18227
2026-01-21 09:04:13.57	180.51	22.78	-53.8	-56.0	6.2	0.00e+00	0	51	104	33806090240	79	18212
2026-01-21 09:04:14.57	180.63	22.59	-53.8	-56.0	6.2	0.00e+00	0	51	104	33806090240	79	18216
2026-01-21 09:04:15.58	180.74	22.39	-53.8	-56.0	6.2	0.00e+00	0	51	104	33806090240	79	18191
2026-01-21 09:04:16.59	180.86	22.20	-53.8	-56.0	6.2	0.00e+00	0	51	104	33806090240	79	18201
2026-01-21 09:04:17.60	180.98	22.01	-53.8	-56.0	6.2	0.00e+00	0	51	104	33806090240	79	18187
2026-01-21 09:04:18.60	181.09	21.82	-53.8	-55.9	6.2	0.00e+00	0	51	104	33806090240	79	18151
2026-01-21 09:04:19.61	181.20	21.63	-53.8	-55.9	6.2	0.00e+00	0	51	104	33806090240	79	18167
2026-01-21 09:04:20.62	181.31	21.45	-53.8	-55.9	6.2	0.00e+00	0	51	104	33806090240	79	18094
2026-01-21 09:04:21.63	181.42	21.26	-53.8	-55.9	6.2	0.00e+00	0	51	104	33806090240	79	18100
2026-01-21 09:04:22.64	181.53	21.08	-53.8	-55.9	6.2	0.00e+00	0	51	104	33806090240	79	18036
2026-01-21 09:04:23.65	181.63	20.90	-53.8	-55.9	6.2	0.00e+00	0	51	104	33806090240	79	18130
2026-01-21 09:04:24.66	181.74	20.72	-53.8	-55.9	6.2	0.00e+00	0	51	104	33806090240	79	18018
2026-01-21 09:04:25.67	181.84	20.54	-53.8	-55.9	6.2	0.00e+00	0	51	104	33806090240	79	18019
2026-01-21 09:04:26.67	181.94	20.36	-53.8	-55.9	6.2	0.00e+00	0	51	104	33806090240	79	18047
2026-01-21 09:04:27.68	182.04	20.19	-53.8	-55.9	6.2	0.00e+00	0	51	104	33806090240	79	18056
2026-01-21 09:04:28.69	182.14	20.01	-53.7	-55.9	6.2	0.00e+00	0	51	104	33806090240	79	18007
2026-01-21 09:04:29.70	182.24	19.84	-53.8	-55.9	6.2	0.00e+00	0	51	104	33806090240	79	18006
2026-01-21 09:04:30.70	182.34	19.67	-53.7	-55.8	6.2	0.00e+00	0	51	104	33806090240	79	17901
2026-01-21 09:04:31.71	182.43	19.50	-53.7	-55.9	6.2	0.00e+00	0	51	104	33806090240	79	18001
2026-01-21 09:04:32.72	182.53	19.33	-53.7	-55.9	6.2	0.00e+00	0	51	104	33806090240	79	17988
2026-01-21 09:04:33.73	182.62	19.17	-53.7	-55.9	6.2	0.00e+00	0	51	104	33806090240	79	18062
2026-01-21 09:04:34.74	182.72	19.00	-53.7	-55.8	6.2	0.00e+00	0	51	104	33806090240	79	17958
2026-01-21 09:04:35.75	182.81	18.84	-53.7	-55.8	6.2	0.00e+00	0	51	104	33806090240	79	17896
2026-01-21 09:04:36.75	182.90	18.68	-53.7	-55.8	6.2	0.00e+00	0	51	104	33806090240	79	17817
2026-01-21 09:04:37.76	182.99	18.51	-53.7	-55.8	6.2	0.00e+00	0	51	104	33806090240	79	17938
2026-01-21 09:04:38.77	183.07	18.35	-53.7	-55.8	6.2	0.00e+00	0	51	104	33806090240	79	17881
2026-01-21 09:04:39.78	183.16	18.19	-53.7	-55.8	6.2	0.00e+00	0	51	104	33806090240	79	17861
2026-01-21 09:04:40.79	183.25	18.04	-53.7	-55.8	6.2	0.00e+00	0	51	104	33806090240	79	17803
2026-01-21 09:04:41.79	183.33	17.88	-53.7	-55.8	6.2	0.00e+00	0	51	104	33806090240	79	17846
2026-01-21 09:04:42.80	183.42	17.72	-53.6	-55.8	6.2	0.00e+00	0	51	104	33806090240	79	17821
2026-01-21 09:04:43.81	183.50	17.57	-53.7	-55.8	6.2	0.00e+00	0	51	104	33806090240	79	17819
2026-01-21 09:04:44.82	183.58	17.42	-53.6	-55.8	6.2	0.00e+00	0	51	104	33806090240	79	17812
2026-01-21 09:04:45.82	183.66	17.27	-53.7	-55.8	6.2	0.00e+00	0	51	104	33806090240	79	17896
2026-01-21 09:04:46.83	183.75	17.11	-53.6	-55.8	6.2	0.00e+00	0	51	104	33806090240	79	17768
2026-01-21 09:04:47.84	183.83	16.96	-53.6	-55.8	6.2	0.00e+00	0	51	104	33806090240	79	17769
2026-01-21 09:04:48.85	183.90	16.82	-53.6	-55.7	6.2	0.00e+00	0	51	104	33806090240	79	17697
2026-01-21 09:04:49.85	183.98	16.67	-53.6	-55.8	6.2	0.00e+00	0	51	104	33806090240	79	17820
2026-01-21 09:04:50.86	184.06	16.52	-53.6	-55.7	6.2	0.00e+00	0	51	104	33806090240	79	17739
2026-01-21 09:04:51.87	184.14	16.38	-53.6	-55.7	6.2	0.00e+00	0	51	104	33806090240	79	17756
2026-01-21 09:04:52.88	184.21	16.23	-53.6	-55.7	6.2	0.00e+00	0	51	104	33806090240	79	17734
2026-01-21 09:04:53.89	184.29	16.09	-53.6	-55.8	6.2	0.00e+00	0	51	104	33806090240	79	17790
2026-01-21 09:04:54.89	184.36	15.95	-53.6	-55.7	6.2	0.00e+00	0	51	104	33806090240	79	17686
2026-01-21 09:04:55.90	184.43	15.81	-53.6	-55.7	6.2	0.00e+00	0	51	104	33806090240	79	17664
2026-01-21 09:04:56.91	184.51	15.67	-53.6	-55.7	6.2	0.00e+00	0	51	104	33806090240	79	17663
2026-01-21 09:04:57.92	184.58	15.53	-53.6	-55.7	6.2	0.00e+00	0	51	104	33806090240	79	17736
2026-01-21 09:04:58.93	184.65	15.39	-53.6	-55.7	6.2	0.00e+00	0	51	104	33806090240	79	17610
2026-01-21 09:04:59.93	184.72	15.25	-53.6	-55.7	6.2	0.00e+00	0	51	104	33806090240	79	17628
2026-01-21 09:05:00.94	184.79	15.12	-53.6	-55.7	6.2	0.00e+00	0	51	104	33806090240	79	17629
2026-01-21 09:05:01.95	184.86	14.98	-53.6	-55.7	6.2	0.00e+00	0	51	104	33806090240	79	17661
2026-01-21 09:05:02.95	184.93	14.85	-53.6	-55.6	6.2	0.00e+00	0	51	104	33806090240	79	17561
2026-01-21 09:05:03.97	184.99	14.71	-53.5	-55.7	6.2	0.00e+00	0	51	104	33806090240	79	17589
2026-01-21 09:05:04.97	185.06	14.58	-53.5	-55.7	6.2	0.00e+00	0	51	104	33806090240	79	17609
2026-01-21 09:05:05.98	185.13	14.45	-53.6	-55.7	6.2	0.00e+00	0	51	104	33806090240	79	17646
2026-01-21 09:05:06.99	185.19	14.32	-53.5	-55.6	6.2	0.00e+00	0	51	104	33806090240	79	17542
2026-01-21 09:05:07.99	185.26	14.19	-53.5	-55.6	6.2	0.00e+00	0	51	104	33806090240	79	17550
2026-01-21 09:05:09.00	185.32	14.06	-53.5	-55.6	6.2	0.00e+00	0	51	104	33806090240	79	17520
2026-01-21 09:05:10.01	185.38	13.93	-53.5	-55.7	6.2	0.00e+00	0	51	104	33806090240	79	17577
2026-01-21 09:05:11.02	185.45	13.81	-53.5	-55.6	6.2	0.00e+00	0	51	104	33806090240	79	17521
2026-01-21 09:05:12.03	185.51	13.68	-53.5	-55.6	6.2	0.00e+00	0	51	104	33806090240	79	17540
2026-01-21 09:05:13.03	185.57	13.55	-53.5	-55.6	6.2	0.00e+00	0	51	104	33806090240	79	17450
2026-01-21 09:05:14.04	185.63	13.43	-53.5	-55.6	6.2	0.00e+00	0	51	104	33806090240	79	17478
2026-01-21 09:05:15.05	185.69	13.30	-53.5	-55.6	6.2	0.00e+00	0	51	104	33806090240	78	18446
2026-01-21 09:05:16.06	185.75	13.18	-53.5	-55.6	6.2	0.00e+00	0	51	104	33806090240	78	18427
2026-01-21 09:05:17.07	185.81	13.06	-53.4	-55.5	6.2	0.00e+00	0	51	104	33806090240	78	18371
2026-01-21 09:05:18.07	185.87	12.94	-53.5	-55.6	6.2	0.00e+00	0	51	104	33806090240	78	18441
2026-01-21 09:05:19.08	185.93	12.82	-53.4	-55.6	6.2	0.00e+00	0	51	104	33806090240	78	18405
2026-01-21 09:05:20.09	185.99	12.70	-53.4	-55.5	6.2	0.00e+00	0	51	104	33806090240	78	18376
2026-01-21 09:05:21.09	186.05	12.58	-53.4	-55.6	6.2	0.00e+00	0	51	104	33806090240	78	18409
2026-01-21 09:05:22.10	186.10	12.46	-53.4	-55.6	6.2	0.00e+00	0	51	104	33806090240	78	18392
2026-01-21 09:05:23.11	186.16	12.34	-53.4	-55.5	6.2	0.00e+00	0	51	104	33806090240	78	18325
2026-01-21 09:05:24.12	186.22	12.22	-53.4	-55.5	6.2	0.00e+00	0	51	104	33806090240	78	18338
2026-01-21 09:05:25.13	186.27	12.11	-53.4	-55.5	6.2	0.00e+00	0	51	104	33806090240	78	18279
2026-01-21 09:05:26.13	186.33	11.99	-53.4	-55.5	6.2	0.00e+00	0	51	104	33806090240	78	18388
2026-01-21 09:05:27.14	186.38	11.88	-53.4	-55.5	6.2	0.00e+00	0	51	104	33806090240	78	18290
2026-01-21 09:05:28.15	186.43	11.76	-53.4	-55.5	6.2	0.00e+00	0	51	104	33806090240	78	18301
2026-01-21 09:05:29.16	186.49	11.65	-53.4	-55.5	6.2	0.00e+00	0	51	104	33806090240	78	18267
2026-01-21 09:05:30.17	186.54	11.54	-53.4	-55.5	6.2	0.00e+00	0	51	104	33806090240	78	18364
2026-01-21 09:05:31.17	186.59	11.42	-53.3	-55.5	6.2	0.00e+00	0	51	104	33806090240	78	18250
2026-01-21 09:05:32.18	186.65	11.31	-53.4	-55.4	6.2	0.00e+00	0	51	104	33806090240	78	18175
2026-01-21 09:05:33.19	186.70	11.20	-53.3	-55.4	6.2	0.00e+00	0	51	104	33806090240	78	18145
2026-01-21 09:05:34.20	186.75	11.09	-53.4	-55.5	6.2	0.00e+00	0	50	104	33806090240	78	18248
2026-01-21 09:05:35.21	186.80	10.98	-53.3	-55.4	6.2	0.00e+00	0	51	104	33806090240	78	18145
2026-01-21 09:05:36.21	186.85	10.87	-53.3	-55.4	6.2	0.00e+00	0	51	104	33806090240	78	18165
2026-01-21 09:05:37.22	186.90	10.76	-53.3	-55.4	6.2	0.00e+00	0	51	104	33806090240	78	18141
2026-01-21 09:05:38.23	186.95	10.66	-53.4	-55.4	6.2	0.00e+00	0	51	104	33806090240	78	18179
2026-01-21 09:05:39.23	187.00	10.55	-53.3	-55.4	6.2	0.00e+00	0	51	104	33806090240	78	18110
2026-01-21 09:05:40.24	187.05	10.44	-53.3	-55.4	6.2	0.00e+00	0	51	104	33806090240	78	18131
2026-01-21 09:05:41.25	187.10	10.34	-53.3	-55.4	6.2	0.00e+00	0	51	104	33806090240	78	18005
2026-01-21 09:05:42.26	187.14	10.23	-53.3	-55.4	6.2	0.00e+00	0	51	104	33806090240	78	18143
2026-01-21 09:05:43.27	187.19	10.12	-53.3	-55.4	6.2	0.00e+00	0	51	104	33806090240	78	17983
2026-01-21 09:05:44.27	187.24	10.02	-53.3	-55.4	6.2	0.00e+00	0	51	104	33806090240	78	18010
2026-01-21 09:05:45.28	187.29	9.92	-53.2	-55.4	6.2	0.00e+00	0	51	104	33806090240	78	18014
2026-01-21 09:05:46.29	187.33	9.81	-53.3	-55.4	6.2	0.00e+00	0	51	104	33806090240	78	18056
2026-01-21 09:05:47.30	187.38	9.71	-53.2	-55.3	6.2	0.00e+00	0	51	104	33806090240	78	17938
2026-01-21 09:05:48.31	187.43	9.61	-53.2	-55.3	6.2	0.00e+00	0	50	104	33806090240	78	17948
2026-01-21 09:05:49.31	187.47	9.51	-53.2	-55.3	6.2	0.00e+00	0	51	104	33806090240	78	17905
2026-01-21 09:05:50.32	187.52	9.41	-53.2	-55.4	6.2	0.00e+00	0	51	104	33806090240	78	17993
2026-01-21 09:05:51.33	187.56	9.31	-53.2	-55.3	6.2	0.00e+00	0	51	104	33806090240	78	17832
2026-01-21 09:05:52.34	187.60	9.21	-53.2	-55.3	6.2	0.00e+00	0	50	104	33806090240	78	17869
2026-01-21 09:05:53.35	187.65	9.11	-53.2	-55.3	6.2	0.00e+00	0	51	104	33806090240	78	17854
2026-01-21 09:05:54.36	187.69	9.01	-53.2	-55.3	6.2	0.00e+00	0	51	104	33806090240	78	17882
2026-01-21 09:05:55.37	187.74	8.91	-53.2	-55.3	6.2	0.00e+00	0	51	104	33806090240	78	17806
2026-01-21 09:05:56.37	187.78	8.81	-53.2	-55.3	6.2	0.00e+00	0	51	104	33806090240	78	17773
2026-01-21 09:05:57.38	187.82	8.71	-53.1	-55.2	6.2	0.00e+00	0	51	104	33806090240	78	17739
2026-01-21 09:05:58.39	187.86	8.62	-53.2	-55.3	6.2	0.00e+00	0	51	104	33806090240	78	17831
2026-01-21 09:05:59.40	187.91	8.52	-53.1	-55.2	6.2	0.00e+00	0	51	104	33806090240	78	17754
2026-01-21 09:06:00.41	187.95	8.42	-53.1	-55.2	6.2	0.00e+00	0	51	104	33806090240	78	17714
2026-01-21 09:06:01.41	187.99	8.33	-53.1	-55.2	6.2	0.00e+00	0	51	104	33806090240	78	17702
2026-01-21 09:06:02.42	188.03	8.23	-53.1	-55.3	6.2	0.00e+00	0	51	104	33806090240	78	17795
2026-01-21 09:06:03.43	188.07	8.14	-53.1	-55.2	6.2	0.00e+00	0	50	104	33806090240	78	17623
2026-01-21 09:06:04.44	188.11	8.04	-53.1	-55.2	6.2	0.00e+00	0	51	104	33806090240	78	17720
2026-01-21 09:06:05.45	188.15	7.95	-53.1	-55.2	6.2	0.00e+00	0	51	104	33806090240	78	17699
2026-01-21 09:06:06.45	188.19	7.86	-53.1	-55.2	6.2	0.00e+00	0	51	104	33806090240	78	17634
2026-01-21 09:06:07.46	188.23	7.76	-53.1	-55.2	6.2	0.00e+00	0	51	104	33806090240	78	17600
2026-01-21 09:06:08.47	188.27	7.67	-53.0	-55.1	6.2	0.00e+00	0	51	104	33806090240	78	17549
2026-01-21 09:06:09.48	188.31	7.58	-53.1	-55.2	6.2	0.00e+00	0	50	104	33806090240	78	17574
2026-01-21 09:06:10.48	188.35	7.49	-53.0	-55.1	6.2	0.00e+00	0	51	104	33806090240	78	17525
2026-01-21 09:06:11.49	188.39	7.40	-53.0	-55.1	6.2	0.00e+00	0	51	104	33806090240	78	17523
2026-01-21 09:06:12.50	188.43	7.31	-53.0	-55.1	6.2	0.00e+00	0	51	104	33806090240	78	17486
2026-01-21 09:06:13.51	188.47	7.22	-53.0	-55.1	6.2	0.00e+00	0	51	104	33806090240	77	18562
2026-01-21 09:06:14.51	188.50	7.13	-53.0	-55.1	6.2	0.00e+00	0	51	104	33806090240	77	18519
2026-01-21 09:06:15.52	188.54	7.04	-53.0	-55.1	6.2	0.00e+00	0	51	104	33806090240	77	18469
2026-01-21 09:06:16.53	188.58	6.95	-52.9	-55.1	6.2	0.00e+00	0	51	104	33806090240	77	18410
2026-01-21 09:06:17.54	188.61	6.86	-53.0	-55.1	6.2	0.00e+00	0	51	104	33806090240	77	18437
2026-01-21 09:06:18.55	188.65	6.77	-52.9	-55.1	6.2	0.00e+00	0	50	104	33806090240	77	18397
2026-01-21 09:06:19.55	188.69	6.68	-52.9	-55.1	6.2	0.00e+00	0	50	104	33806090240	77	18418
2026-01-21 09:06:20.56	188.72	6.60	-52.9	-55.0	6.2	0.00e+00	0	51	104	33806090240	77	18315
2026-01-21 09:06:21.57	188.76	6.51	-52.9	-55.1	6.2	0.00e+00	0	51	104	33806090240	77	18407
2026-01-21 09:06:22.58	188.80	6.42	-52.9	-55.0	6.2	0.00e+00	0	51	104	33806090240	77	18299
2026-01-21 09:06:23.58	188.83	6.34	-52.9	-55.0	6.2	0.00e+00	0	51	104	33806090240	77	18324
2026-01-21 09:06:24.59	188.87	6.25	-52.8	-54.9	6.2	0.00e+00	0	51	104	33806090240	77	18130
2026-01-21 09:06:25.60	188.90	6.16	-52.9	-55.0	6.2	0.00e+00	0	51	104	33806090240	77	18309
2026-01-21 09:06:26.61	188.94	6.08	-52.8	-55.0	6.2	0.00e+00	0	51	104	33806090240	77	18205
2026-01-21 09:06:27.62	188.97	5.99	-52.8	-55.0	6.2	0.00e+00	0	51	104	33806090240	77	18238
2026-01-21 09:06:28.62	189.01	5.91	-52.8	-54.9	6.2	0.00e+00	0	50	104	33806090240	77	18019
2026-01-21 09:06:29.63	189.04	5.83	-52.8	-55.0	6.2	0.00e+00	0	50	104	33806090240	77	18231
2026-01-21 09:06:30.64	189.07	5.74	-52.8	-54.9	6.2	0.00e+00	0	50	104	33806090240	77	18007
2026-01-21 09:06:31.65	189.11	5.66	-52.8	-54.9	6.2	0.00e+00	0	50	104	33806090240	77	18111
2026-01-21 09:06:32.66	189.14	5.58	-52.7	-54.8	6.2	0.00e+00	0	50	104	33806090240	77	17888
2026-01-21 09:06:33.66	189.17	5.49	-52.8	-54.9	6.2	0.00e+00	0	51	104	33806090240	77	18088
2026-01-21 09:06:34.67	189.21	5.41	-52.7	-54.8	6.2	0.00e+00	0	51	104	33806090240	77	17938
2026-01-21 09:06:35.68	189.24	5.33	-52.7	-54.9	6.2	0.00e+00	0	50	104	33806090240	77	18013
2026-01-21 09:06:36.69	189.27	5.25	-52.6	-54.8	6.2	0.00e+00	0	51	104	33806090240	77	17859
2026-01-21 09:06:37.70	189.31	5.17	-52.8	-54.9	6.2	0.00e+00	0	51	104	33806090240	77	18014
2026-01-21 09:06:38.71	189.34	5.08	-52.6	-54.8	6.2	0.00e+00	0	51	104	33806090240	77	17780
2026-01-21 09:06:39.71	189.37	5.00	-52.7	-54.9	6.2	0.00e+00	0	50	104	33806090240	77	18003
2026-01-21 09:06:40.72	189.40	4.92	-53.2	-55.3	6.2	0.00e+00	0	51	104	33806090240	77	18987
2026-01-21 09:06:41.73	189.43	4.84	-53.5	-55.6	6.2	0.00e+00	0	51	104	33806090240	77	19641
2026-01-21 09:06:42.74	189.47	4.76	-53.7	-55.8	6.2	0.00e+00	0	51	104	33806090240	77	20133
2026-01-21 09:06:43.75	189.50	4.68	-53.9	-56.0	6.2	0.00e+00	0	51	104	33806090240	78	19421
2026-01-21 09:06:44.75	189.53	4.61	-54.0	-56.1	6.2	0.00e+00	0	51	104	33806090240	78	19700
2026-01-21 09:06:45.76	189.56	4.53	-54.1	-56.2	6.2	0.00e+00	0	51	104	33806090240	78	19857
2026-01-21 09:06:46.77	189.59	4.45	-54.2	-56.3	6.2	0.00e+00	0	51	104	33806090240	78	20017
2026-01-21 09:06:47.78	189.62	4.37	-54.3	-56.4	6.2	0.00e+00	0	51	104	33806090240	79	19078
2026-01-21 09:06:48.78	189.65	4.29	-54.3	-56.4	6.2	0.00e+00	0	51	104	33806090240	79	19230
2026-01-21 09:06:49.79	189.68	4.21	-54.4	-56.5	6.2	0.00e+00	0	51	104	33806090240	79	19389
2026-01-21 09:06:50.80	189.71	4.14	-54.4	-56.5	6.2	0.00e+00	0	51	104	33806090240	79	19403
2026-01-21 09:06:51.81	189.74	4.06	-54.5	-56.6	6.2	0.00e+00	0	51	104	33806090240	79	19579
2026-01-21 09:06:52.81	189.77	3.98	-54.5	-56.6	6.2	0.00e+00	0	51	104	33806090240	79	19639
2026-01-21 09:06:53.82	189.80	3.91	-54.6	-56.7	6.2	0.00e+00	0	51	104	33806090240	79	19737
2026-01-21 09:06:54.83	189.83	3.83	-54.6	-56.7	6.2	0.00e+00	0	51	104	33806090240	79	19849
2026-01-21 09:06:55.84	189.86	3.75	-54.6	-56.8	6.2	0.00e+00	0	51	104	33806090240	79	19955
2026-01-21 09:06:56.84	189.89	3.68	-54.6	-56.8	6.2	0.00e+00	0	51	104	33806090240	79	19964
2026-01-21 09:06:57.85	189.92	3.60	-54.7	-56.8	6.2	0.00e+00	0	51	104	33806090240	79	20021
2026-01-21 09:06:58.86	189.95	3.53	-54.7	-56.8	6.2	0.00e+00	0	51	104	33806090240	79	20124
2026-01-21 09:06:59.87	189.97	3.45	-54.7	-56.8	6.2	0.00e+00	0	51	104	33806090240	80	19019
2026-01-21 09:07:00.88	190.00	3.38	-54.7	-56.8	6.2	0.00e+00	0	51	104	33806090240	80	18972
2026-01-21 09:07:01.89	190.03	3.30	-54.7	-56.8	6.2	0.00e+00	0	51	104	33806090240	80	18966
2026-01-21 09:07:02.89	190.06	3.23	-54.7	-56.8	6.2	0.00e+00	0	50	104	33806090240	80	18952
2026-01-21 09:07:03.90	190.09	3.16	-54.7	-56.8	6.2	0.00e+00	0	50	104	33806090240	80	18906
2026-01-21 09:07:04.91	190.11	3.08	-54.6	-56.7	6.2	0.00e+00	0	51	104	33806090240	80	18795
2026-01-21 09:07:05.92	190.14	3.01	-54.6	-56.7	6.2	0.00e+00	0	51	104	33806090240	80	18744
2026-01-21 09:07:06.93	190.17	2.94	-54.5	-56.7	6.2	0.00e+00	0	51	104	33806090240	80	18625
2026-01-21 09:07:07.93	190.20	2.86	-54.5	-56.6	6.2	0.00e+00	0	50	104	33806090240	80	18443
2026-01-21 09:07:08.94	190.22	2.79	-54.4	-56.5	6.2	0.00e+00	0	51	104	33806090240	80	18312
2026-01-21 09:07:09.95	190.25	2.72	-54.3	-56.4	6.2	0.00e+00	0	51	104	33806090240	80	18115
2026-01-21 09:07:10.96	190.28	2.65	-54.1	-56.3	6.2	0.00e+00	0	51	104	33806090240	80	17768
2026-01-21 09:07:11.97	190.31	2.57	-54.0	-56.1	6.2	0.00e+00	0	51	104	33806090240	80	17500
2026-01-21 09:07:12.97	190.33	2.50	-54.0	-56.1	6.2	0.00e+00	0	50	104	33806090240	79	18512
2026-01-21 09:07:13.98	190.36	2.43	-54.0	-56.1	6.2	0.00e+00	0	50	104	33806090240	79	18435
2026-01-21 09:07:14.99	190.38	2.36	-53.9	-56.1	6.2	0.00e+00	0	50	104	33806090240	79	18413
2026-01-21 09:07:16.00	190.41	2.29	-53.9	-56.1	6.2	0.00e+00	0	51	104	33806090240	79	18417
2026-01-21 09:07:17.01	190.44	2.22	-53.9	-56.0	6.2	0.00e+00	0	51	104	33806090240	79	18367
2026-01-21 09:07:18.01	190.46	2.15	-53.9	-56.1	6.2	0.00e+00	0	51	104	33806090240	79	18433
2026-01-21 09:07:19.02	190.49	2.08	-53.9	-56.1	6.2	0.00e+00	0	51	104	33806090240	79	18395
2026-01-21 09:07:20.03	190.51	2.01	-53.9	-56.0	6.2	0.00e+00	0	51	104	33806090240	79	18384

#Closed at: 2026-01-21 09:07:20
#Recorded file [33806 MB]: D:/lorett/data/31041_260121_115642.dat