passes_logs/2026/01/21/R3.2S_Murmansk/R3.2S_Murmansk__20260121_055758_SUOMI_NPP_rec.log

#Pass ID: 20260121_055758_SUOMI NPP
#Satellite: SUOMI NPP
#Configuration: NPP
#almurnet v.1.7.20251203
#Start time: 2026-01-21 05:57:59

#Version: 2.2.20231116
#Station: R3.2S_Murmansk
#Location: 33.079688 lon 68.888172 lat
#TLE: 1 37849U 11061A   26020.31993517  .00000142  00000+0  88240-4 0  9990
#TLE: 2 37849  98.7818 322.3228 0002330  54.3778 305.7615 14.19527005737466

#Time	Az	El	Level	Level2	SNR	BER	BlckErr	Temp	State	Recorded	gain1	gain2
2026-01-21 05:57:59.15	73.87	2.05	-48.0	-62.9	3.8	1.49e+00	0	38	0	0	66	21456
2026-01-21 05:58:00.15	73.80	2.11	-48.0	-62.9	3.8	1.49e+00	0	38	104	0	66	21452
2026-01-21 05:58:01.16	73.74	2.17	-48.0	-62.9	3.8	1.49e+00	0	38	104	0	66	21447
2026-01-21 05:58:02.17	73.68	2.22	-48.0	-62.9	3.8	1.49e+00	0	38	104	0	66	21419
2026-01-21 05:58:03.18	73.61	2.28	-48.0	-62.9	3.8	1.49e+00	0	38	104	0	66	21393
2026-01-21 05:58:04.19	73.55	2.34	-48.0	-62.9	3.8	1.49e+00	0	38	104	0	66	21442
2026-01-21 05:58:05.19	73.49	2.40	-48.0	-62.9	3.8	1.49e+00	0	38	104	0	66	21427
2026-01-21 05:58:06.20	73.42	2.46	-48.0	-62.9	3.8	1.49e+00	0	38	104	0	66	21489
2026-01-21 05:58:07.21	73.36	2.52	-48.0	-62.9	3.8	1.49e+00	0	38	104	0	66	21420
2026-01-21 05:58:08.22	73.29	2.57	-48.0	-62.9	3.8	1.49e+00	0	38	104	0	66	21451
2026-01-21 05:58:09.23	73.23	2.63	-48.0	-62.9	3.8	1.49e+00	0	38	104	0	66	21441
2026-01-21 05:58:10.23	73.16	2.69	-48.0	-62.9	3.8	1.49e+00	0	38	104	0	66	21472
2026-01-21 05:58:11.24	73.10	2.75	-48.1	-62.9	3.8	1.49e+00	0	38	104	0	66	21434
2026-01-21 05:58:12.25	73.03	2.81	-48.0	-62.9	3.8	1.49e+00	0	38	104	0	66	21458
2026-01-21 05:58:13.26	72.97	2.87	-48.0	-62.9	3.8	1.49e+00	0	38	104	0	66	21460
2026-01-21 05:58:14.27	72.90	2.93	-48.0	-62.9	3.8	1.49e+00	0	38	104	0	66	21462
2026-01-21 05:58:15.27	72.84	2.98	-48.0	-62.9	3.8	1.49e+00	0	38	104	0	66	21426
2026-01-21 05:58:16.28	72.77	3.04	-48.0	-62.9	3.8	1.49e+00	0	38	104	0	66	21410
2026-01-21 05:58:17.29	72.70	3.10	-48.0	-63.0	3.8	1.49e+00	0	38	104	0	66	21508
2026-01-21 05:58:18.30	72.63	3.16	-48.0	-62.9	3.8	1.49e+00	0	38	104	0	66	21456
2026-01-21 05:58:19.31	72.57	3.22	-48.0	-62.9	3.8	1.49e+00	0	38	104	0	66	21433
2026-01-21 05:58:20.31	72.50	3.28	-48.0	-62.9	3.8	1.49e+00	0	38	104	0	66	21432
2026-01-21 05:58:21.32	72.43	3.34	-48.0	-62.9	3.8	1.49e+00	0	39	104	0	66	21431
2026-01-21 05:58:22.33	72.36	3.40	-48.0	-62.9	3.8	1.49e+00	0	38	104	0	66	21450
2026-01-21 05:58:23.34	72.29	3.46	-48.0	-62.9	3.8	1.49e+00	0	38	104	0	66	21476
2026-01-21 05:58:24.34	72.22	3.52	-48.0	-62.9	3.8	1.49e+00	0	38	104	0	66	21451
2026-01-21 05:58:25.35	72.16	3.58	-48.0	-62.9	3.8	1.49e+00	0	38	104	0	66	21422
2026-01-21 05:58:26.36	72.09	3.64	-48.0	-62.9	3.8	1.49e+00	0	39	104	0	66	21429
2026-01-21 05:58:27.37	72.02	3.70	-48.0	-62.9	3.8	1.49e+00	0	39	104	0	66	21446
2026-01-21 05:58:28.38	71.94	3.76	-48.0	-62.9	3.8	1.49e+00	0	39	104	0	66	21416
2026-01-21 05:58:29.38	71.87	3.82	-48.0	-62.9	3.8	1.49e+00	0	38	104	0	66	21475
2026-01-21 05:58:30.39	71.80	3.88	-48.0	-62.9	3.8	1.49e+00	0	38	104	0	66	21418
2026-01-21 05:58:31.40	71.73	3.94	-48.0	-62.9	3.8	1.49e+00	0	38	104	0	66	21456
2026-01-21 05:58:32.41	71.66	4.00	-48.0	-62.9	3.8	1.49e+00	0	39	104	0	66	21414
2026-01-21 05:58:33.42	71.59	4.06	-48.0	-62.9	3.8	1.49e+00	0	38	104	0	66	21397
2026-01-21 05:58:34.43	71.52	4.12	-48.0	-62.9	3.8	1.49e+00	0	39	104	0	66	21421
2026-01-21 05:58:35.43	71.45	4.18	-48.0	-62.9	3.8	1.49e+00	0	38	104	0	66	21466
2026-01-21 05:58:36.44	71.37	4.25	-48.0	-62.9	3.8	1.49e+00	0	39	104	0	66	21433
2026-01-21 05:58:37.45	71.30	4.31	-48.0	-62.9	3.8	1.49e+00	0	39	104	0	66	21414
2026-01-21 05:58:38.46	71.23	4.37	-48.0	-62.9	3.8	1.49e+00	0	38	104	0	66	21415
2026-01-21 05:58:39.47	71.15	4.43	-48.0	-62.9	3.8	1.49e+00	0	39	104	0	66	21413
2026-01-21 05:58:40.47	71.08	4.49	-48.0	-62.9	3.8	1.49e+00	0	39	104	0	66	21466
2026-01-21 05:58:41.48	71.00	4.55	-48.0	-62.9	3.8	1.49e+00	0	39	104	0	66	21443
2026-01-21 05:58:42.49	70.93	4.61	-48.0	-62.9	3.8	1.49e+00	0	39	104	0	66	21480
2026-01-21 05:58:43.50	70.85	4.68	-48.0	-62.9	3.8	1.49e+00	0	39	104	0	66	21399
2026-01-21 05:58:44.50	70.78	4.74	-48.0	-62.9	3.8	1.49e+00	0	39	104	0	66	21438
2026-01-21 05:58:45.51	70.70	4.80	-48.0	-62.9	3.8	1.49e+00	0	39	104	0	66	21402
2026-01-21 05:58:46.52	70.63	4.86	-48.0	-62.9	3.8	1.49e+00	0	39	104	0	66	21421
2026-01-21 05:58:47.53	70.55	4.92	-48.0	-62.9	3.8	1.49e+00	0	39	104	0	66	21405
2026-01-21 05:58:48.54	70.47	4.98	-48.0	-62.9	3.8	1.49e+00	0	39	104	0	66	21452
2026-01-21 05:58:49.54	70.40	5.05	-48.0	-62.9	3.8	1.49e+00	0	39	104	0	66	21409
2026-01-21 05:58:50.55	70.32	5.11	-48.0	-62.9	3.8	1.49e+00	0	39	104	0	66	21413
2026-01-21 05:58:51.56	70.24	5.17	-48.0	-62.9	3.8	1.49e+00	0	39	104	0	66	21413
2026-01-21 05:58:52.57	70.16	5.23	-48.0	-62.9	3.8	1.49e+00	0	39	104	0	66	21413
2026-01-21 05:58:53.58	70.09	5.30	-48.0	-62.9	3.8	1.49e+00	0	39	104	0	66	21397
2026-01-21 05:58:54.59	70.01	5.36	-48.0	-62.9	3.8	1.49e+00	0	39	104	0	66	21384
2026-01-21 05:58:55.59	69.93	5.42	-48.0	-62.9	3.8	1.49e+00	0	39	104	0	66	21380
2026-01-21 05:58:56.60	69.85	5.48	-48.0	-62.9	3.8	1.49e+00	0	39	104	0	66	21433
2026-01-21 05:58:57.61	69.77	5.55	-48.0	-62.9	3.8	1.49e+00	0	39	104	0	66	21411
2026-01-21 05:58:58.62	69.69	5.61	-48.0	-62.9	3.8	1.49e+00	0	39	104	0	66	21445
2026-01-21 05:58:59.63	69.61	5.67	-48.0	-62.9	3.8	1.49e+00	0	39	104	0	66	21440
2026-01-21 05:59:00.61	69.53	5.74	-48.0	-62.9	3.8	1.49e+00	0	39	104	0	66	21436
2026-01-21 05:59:01.62	69.45	5.80	-48.0	-62.9	3.8	1.49e+00	0	39	104	0	66	21427
2026-01-21 05:59:02.63	69.37	5.86	-48.0	-62.9	3.8	1.49e+00	0	39	104	0	66	21444
2026-01-21 05:59:03.64	69.28	5.93	-48.0	-62.9	3.8	1.49e+00	0	39	104	0	66	21407
2026-01-21 05:59:04.65	69.20	5.99	-48.0	-62.9	3.8	1.49e+00	0	39	104	0	66	21422
2026-01-21 05:59:05.65	69.12	6.05	-48.0	-62.9	3.8	1.49e+00	0	39	104	0	66	21426
2026-01-21 05:59:06.66	69.04	6.12	-48.0	-62.9	3.8	1.49e+00	0	39	104	0	66	21408
2026-01-21 05:59:07.67	68.95	6.18	-48.0	-62.9	3.8	1.49e+00	0	39	104	0	66	21446
2026-01-21 05:59:08.68	68.87	6.25	-48.0	-62.9	3.8	1.49e+00	0	39	104	0	66	21423
2026-01-21 05:59:09.69	68.78	6.31	-48.0	-62.9	3.8	1.49e+00	0	39	104	0	66	21499
2026-01-21 05:59:10.70	68.70	6.37	-48.0	-62.9	3.8	1.49e+00	0	39	104	0	66	21417
2026-01-21 05:59:11.70	68.61	6.44	-48.0	-62.9	3.8	1.49e+00	0	39	104	0	66	21434
2026-01-21 05:59:12.71	68.53	6.50	-48.0	-62.9	3.8	1.49e+00	0	39	104	0	66	21425
2026-01-21 05:59:13.72	68.44	6.57	-48.0	-62.9	3.8	1.49e+00	0	39	104	0	66	21414
2026-01-21 05:59:14.73	68.36	6.63	-48.0	-62.9	3.8	1.49e+00	0	39	104	0	66	21447
2026-01-21 05:59:15.74	68.27	6.70	-48.0	-62.9	3.8	1.49e+00	0	39	104	0	66	21415
2026-01-21 05:59:16.74	68.18	6.76	-48.0	-62.9	3.8	1.49e+00	0	39	104	0	66	21377
2026-01-21 05:59:17.75	68.10	6.83	-48.0	-62.9	3.8	1.49e+00	0	39	104	0	66	21389
2026-01-21 05:59:18.76	68.01	6.89	-48.0	-62.9	3.8	1.49e+00	0	39	104	0	66	21414
2026-01-21 05:59:19.77	67.92	6.96	-48.0	-62.9	3.8	1.49e+00	0	39	104	0	66	21411
2026-01-21 05:59:20.77	67.83	7.02	-48.0	-62.9	3.8	1.49e+00	0	39	104	0	66	21419
2026-01-21 05:59:21.78	67.74	7.09	-48.0	-62.9	3.8	1.49e+00	0	39	104	0	66	21428
2026-01-21 05:59:22.79	67.65	7.15	-48.0	-62.9	3.8	1.49e+00	0	39	104	0	66	21497
2026-01-21 05:59:23.80	67.56	7.22	-48.0	-62.9	3.8	1.49e+00	0	39	104	0	66	21410
2026-01-21 05:59:24.80	67.47	7.28	-48.0	-62.9	3.8	1.49e+00	0	39	104	0	66	21441
2026-01-21 05:59:25.81	67.38	7.35	-48.0	-62.9	3.8	1.49e+00	0	39	104	0	66	21365
2026-01-21 05:59:26.82	67.29	7.41	-48.0	-62.9	3.8	1.49e+00	0	39	104	0	66	21465
2026-01-21 05:59:27.83	67.20	7.48	-48.0	-62.9	3.8	1.49e+00	0	39	104	0	66	21392
2026-01-21 05:59:28.84	67.11	7.55	-48.0	-62.9	3.8	1.49e+00	0	39	104	0	66	21318
2026-01-21 05:59:29.85	67.01	7.61	-48.0	-62.9	3.8	1.49e+00	0	39	104	0	66	21393
2026-01-21 05:59:30.85	66.92	7.68	-48.0	-62.9	3.8	1.49e+00	0	39	104	0	66	21386
2026-01-21 05:59:31.86	66.83	7.74	-48.0	-62.9	3.8	1.49e+00	0	39	104	0	66	21466
2026-01-21 05:59:32.87	66.74	7.81	-48.0	-62.9	3.8	1.49e+00	0	39	104	0	66	21408
2026-01-21 05:59:33.88	66.64	7.88	-48.0	-62.9	3.8	1.49e+00	0	39	104	0	66	21378
2026-01-21 05:59:34.89	66.55	7.94	-48.0	-62.9	3.8	1.49e+00	0	39	104	0	66	21409
2026-01-21 05:59:35.90	66.45	8.01	-48.0	-62.9	3.8	1.49e+00	0	39	104	0	66	21425
2026-01-21 05:59:36.91	66.36	8.08	-48.0	-62.9	3.8	1.49e+00	0	39	104	0	66	21394
2026-01-21 05:59:37.92	66.26	8.15	-48.0	-62.9	3.8	1.49e+00	0	39	104	0	66	21406
2026-01-21 05:59:38.93	66.16	8.21	-48.0	-62.9	3.8	1.49e+00	0	39	104	0	66	21457
2026-01-21 05:59:39.93	66.07	8.28	-48.0	-62.9	3.8	1.49e+00	0	39	104	0	66	21413
2026-01-21 05:59:40.94	65.97	8.35	-48.0	-62.9	3.8	1.49e+00	0	39	104	0	66	21389
2026-01-21 05:59:41.95	65.87	8.41	-48.0	-62.9	3.8	1.49e+00	0	39	104	0	66	21366
2026-01-21 05:59:42.96	65.77	8.48	-48.0	-62.9	3.8	1.49e+00	0	39	104	0	66	21449
2026-01-21 05:59:43.97	65.67	8.55	-48.0	-62.9	3.8	1.49e+00	0	39	104	0	66	21418
2026-01-21 05:59:44.97	65.57	8.62	-48.0	-62.9	3.8	1.49e+00	0	39	104	0	66	21391
2026-01-21 05:59:45.98	65.48	8.68	-48.0	-62.9	3.8	1.49e+00	0	39	104	0	66	21397
2026-01-21 05:59:46.99	65.37	8.75	-48.0	-62.9	3.8	1.49e+00	0	39	104	0	66	21447
2026-01-21 05:59:48.00	65.27	8.82	-48.0	-62.9	3.8	1.49e+00	0	39	104	0	66	21420
2026-01-21 05:59:49.00	65.17	8.89	-48.0	-62.9	3.8	1.49e+00	0	39	104	0	66	21451
2026-01-21 05:59:50.01	65.07	8.96	-48.0	-62.9	3.8	1.49e+00	0	39	104	0	66	21409
2026-01-21 05:59:51.02	64.97	9.02	-48.0	-62.9	3.8	1.49e+00	0	39	104	0	66	21406
2026-01-21 05:59:52.03	64.87	9.09	-48.0	-62.9	3.8	1.49e+00	0	39	104	0	66	21445
2026-01-21 05:59:53.04	64.76	9.16	-48.0	-62.9	3.8	1.49e+00	0	39	104	0	66	21423
2026-01-21 05:59:54.04	64.66	9.23	-48.0	-62.9	3.8	1.49e+00	0	39	104	0	66	21399
2026-01-21 05:59:55.05	64.56	9.30	-48.0	-62.9	3.8	1.49e+00	0	39	104	0	66	21402
2026-01-21 05:59:56.06	64.45	9.37	-48.0	-62.9	3.8	1.49e+00	0	39	104	0	66	21406
2026-01-21 05:59:57.07	64.35	9.43	-48.0	-62.9	3.8	1.49e+00	0	39	104	0	66	21403
2026-01-21 05:59:58.08	64.24	9.50	-48.0	-62.9	3.8	1.49e+00	0	39	104	0	66	21414
2026-01-21 05:59:59.08	64.13	9.57	-48.0	-62.9	3.8	1.49e+00	0	39	104	0	66	21414
2026-01-21 06:00:00.09	64.03	9.64	-48.0	-62.9	3.8	1.49e+00	0	39	104	0	66	21451
2026-01-21 06:00:01.10	63.92	9.71	-48.0	-62.9	3.8	1.49e+00	0	40	104	0	66	21355
2026-01-21 06:00:02.11	63.81	9.78	-48.0	-62.9	3.8	1.49e+00	0	39	104	0	66	21394
2026-01-21 06:00:03.12	63.70	9.85	-48.0	-62.9	3.8	1.49e+00	0	40	104	0	66	21431
2026-01-21 06:00:04.13	63.59	9.92	-48.0	-62.9	3.8	1.49e+00	0	39	104	0	66	21411
2026-01-21 06:00:05.14	63.49	9.99	-48.0	-62.9	3.8	1.49e+00	0	39	104	0	66	21411
2026-01-21 06:00:06.15	63.38	10.06	-48.0	-62.9	3.8	1.49e+00	0	39	104	0	66	21390
2026-01-21 06:00:07.15	63.27	10.13	-48.0	-62.9	3.8	1.49e+00	0	39	104	0	66	21428
2026-01-21 06:00:08.16	63.15	10.20	-48.0	-62.9	3.8	1.49e+00	0	40	104	0	66	21449
2026-01-21 06:00:09.17	63.04	10.27	-48.0	-62.9	3.8	1.49e+00	0	40	104	0	66	21435
2026-01-21 06:00:10.18	62.93	10.34	-48.0	-62.9	3.8	1.49e+00	0	39	104	0	66	21360
2026-01-21 06:00:11.19	62.82	10.41	-48.0	-62.9	3.8	1.49e+00	0	39	104	0	66	21396
2026-01-21 06:00:12.20	62.70	10.48	-48.0	-62.9	3.8	1.49e+00	0	39	104	0	66	21389
2026-01-21 06:00:13.21	62.59	10.55	-48.0	-62.9	3.8	1.49e+00	0	39	104	0	66	21453
2026-01-21 06:00:14.22	62.48	10.62	-48.0	-62.9	3.8	1.49e+00	0	40	104	0	66	21393
2026-01-21 06:00:15.23	62.36	10.69	-48.0	-62.9	3.8	1.49e+00	0	39	104	0	66	21432
2026-01-21 06:00:16.24	62.25	10.76	-48.0	-62.9	3.8	1.49e+00	0	39	104	0	66	21449
2026-01-21 06:00:17.25	62.13	10.83	-48.0	-62.9	3.8	1.49e+00	0	40	104	0	66	21402
2026-01-21 06:00:18.26	62.01	10.90	-48.0	-62.9	3.8	1.49e+00	0	39	104	0	66	21483
2026-01-21 06:00:19.27	61.90	10.97	-48.0	-62.9	3.8	1.49e+00	0	39	104	0	66	21425
2026-01-21 06:00:20.28	61.78	11.04	-48.0	-62.9	3.8	1.49e+00	0	39	104	0	66	21436
2026-01-21 06:00:21.28	61.66	11.11	-48.0	-62.9	3.8	1.49e+00	0	39	104	0	66	21367
2026-01-21 06:00:22.29	61.54	11.18	-48.0	-62.9	3.8	1.49e+00	0	39	104	0	66	21381
2026-01-21 06:00:23.30	61.42	11.26	-48.0	-62.9	3.8	1.49e+00	0	39	104	0	66	21378
2026-01-21 06:00:24.31	61.30	11.33	-48.0	-62.9	3.8	1.49e+00	0	40	104	0	66	21378
2026-01-21 06:00:25.32	61.18	11.40	-48.0	-62.9	3.8	1.49e+00	0	39	104	0	66	21403
2026-01-21 06:00:26.33	61.06	11.47	-48.0	-62.9	3.8	1.49e+00	0	40	104	0	66	21450
2026-01-21 06:00:27.33	60.94	11.54	-48.0	-62.9	3.8	1.49e+00	0	39	104	0	66	21426
2026-01-21 06:00:28.34	60.81	11.61	-48.0	-62.9	3.8	1.49e+00	0	40	104	0	66	21385
2026-01-21 06:00:29.35	60.69	11.68	-48.0	-62.9	3.8	1.49e+00	0	40	104	0	66	21440
2026-01-21 06:00:30.36	60.57	11.76	-48.0	-62.9	3.8	1.49e+00	0	39	104	0	66	21430
2026-01-21 06:00:31.37	60.44	11.83	-48.0	-62.9	3.8	1.49e+00	0	40	104	0	66	21406
2026-01-21 06:00:32.38	60.32	11.90	-48.0	-62.9	3.8	1.49e+00	0	39	104	0	66	21441
2026-01-21 06:00:33.38	60.19	11.97	-48.0	-62.9	3.8	1.49e+00	0	40	104	0	66	21404
2026-01-21 06:00:34.39	60.07	12.04	-48.0	-62.9	3.8	1.49e+00	0	39	104	0	66	21365
2026-01-21 06:00:35.40	59.94	12.12	-48.0	-62.9	3.8	1.49e+00	0	40	104	0	66	21442
2026-01-21 06:00:36.41	59.81	12.19	-48.0	-62.9	3.8	1.49e+00	0	40	104	0	66	21373
2026-01-21 06:00:37.41	59.68	12.26	-48.0	-62.9	3.8	1.49e+00	0	39	104	0	66	21416
2026-01-21 06:00:38.42	59.56	12.33	-48.0	-62.9	3.8	1.49e+00	0	40	104	0	66	21375
2026-01-21 06:00:39.43	59.43	12.40	-48.0	-62.9	3.8	1.49e+00	0	39	104	0	66	21441
2026-01-21 06:00:40.44	59.30	12.48	-48.0	-62.9	3.8	1.49e+00	0	39	104	0	66	21410
2026-01-21 06:00:41.44	59.17	12.55	-48.0	-62.9	3.8	1.49e+00	0	39	104	0	66	21367
2026-01-21 06:00:42.45	59.03	12.62	-48.0	-62.9	3.8	1.49e+00	0	39	104	0	66	21374
2026-01-21 06:00:43.46	58.90	12.69	-48.0	-62.9	3.8	1.49e+00	0	40	104	0	66	21396
2026-01-21 06:00:44.47	58.77	12.77	-48.0	-62.9	3.8	1.49e+00	0	39	104	0	66	21419
2026-01-21 06:00:45.48	58.64	12.84	-48.0	-62.9	3.8	1.49e+00	0	39	104	0	66	21430
2026-01-21 06:00:46.49	58.50	12.91	-48.0	-62.9	3.8	1.49e+00	0	39	104	0	66	21435
2026-01-21 06:00:47.49	58.37	12.98	-48.0	-62.9	3.8	1.49e+00	0	40	104	0	66	21403
2026-01-21 06:00:48.50	58.23	13.06	-48.0	-62.9	3.8	1.49e+00	0	39	104	0	66	21362
2026-01-21 06:00:49.51	58.10	13.13	-48.0	-62.9	3.8	1.49e+00	0	39	104	0	66	21384
2026-01-21 06:00:50.52	57.96	13.20	-48.0	-62.9	3.8	1.49e+00	0	40	104	0	66	21416
2026-01-21 06:00:51.53	57.82	13.28	-48.0	-62.9	3.8	1.49e+00	0	40	104	0	66	21410
2026-01-21 06:00:52.54	57.68	13.35	-48.0	-62.9	3.8	1.49e+00	0	40	104	0	66	21379
2026-01-21 06:00:53.54	57.54	13.42	-48.0	-62.9	3.8	1.49e+00	0	39	104	0	66	21390
2026-01-21 06:00:54.55	57.40	13.50	-48.0	-62.9	3.8	1.49e+00	0	39	104	0	66	21411
2026-01-21 06:00:55.56	57.26	13.57	-48.0	-62.9	3.8	1.49e+00	0	39	104	0	66	21421
2026-01-21 06:00:56.57	57.12	13.64	-48.0	-62.9	3.8	1.49e+00	0	39	104	0	66	21427
2026-01-21 06:00:57.58	56.98	13.72	-48.0	-62.9	3.8	1.49e+00	0	40	104	0	66	21421
2026-01-21 06:00:58.59	56.84	13.79	-48.0	-62.9	3.8	1.49e+00	0	40	104	0	66	21448
2026-01-21 06:00:59.60	56.70	13.86	-48.0	-62.9	3.8	1.49e+00	0	39	104	0	66	21434
2026-01-21 06:01:00.60	56.55	13.94	-48.0	-62.9	3.8	1.49e+00	0	40	104	0	66	21446
2026-01-21 06:01:01.61	56.41	14.01	-48.0	-62.9	3.8	1.49e+00	0	40	104	0	66	21398
2026-01-21 06:01:02.62	56.26	14.08	-48.0	-62.9	3.8	1.49e+00	0	40	104	0	66	21380
2026-01-21 06:01:03.63	56.12	14.16	-48.0	-62.9	3.8	1.49e+00	0	40	104	0	66	21439
2026-01-21 06:01:04.63	55.97	14.23	-48.0	-62.9	3.8	1.49e+00	0	40	104	0	66	21413
2026-01-21 06:01:05.64	55.82	14.30	-48.0	-62.9	3.8	1.49e+00	0	40	104	0	66	21391
2026-01-21 06:01:06.65	55.67	14.38	-48.0	-62.9	3.8	1.49e+00	0	40	104	0	66	21415
2026-01-21 06:01:07.66	55.52	14.45	-48.0	-62.9	3.8	1.49e+00	0	40	104	0	66	21398
2026-01-21 06:01:08.66	55.38	14.52	-48.0	-62.9	3.8	1.49e+00	0	39	104	0	66	21413
2026-01-21 06:01:09.67	55.22	14.60	-48.0	-62.9	3.8	1.49e+00	0	40	104	0	66	21427
2026-01-21 06:01:10.68	55.07	14.67	-48.0	-62.9	3.8	1.49e+00	0	40	104	0	66	21339
2026-01-21 06:01:11.69	54.92	14.75	-48.0	-62.9	3.8	1.49e+00	0	40	104	0	66	21429
2026-01-21 06:01:12.69	54.77	14.82	-48.0	-62.9	3.8	1.49e+00	0	40	104	0	66	21353
2026-01-21 06:01:13.70	54.62	14.89	-48.0	-62.9	3.8	1.49e+00	0	40	104	0	66	21387
2026-01-21 06:01:14.72	54.46	14.97	-48.0	-62.9	3.8	1.49e+00	0	39	104	0	66	21435
2026-01-21 06:01:15.72	54.31	15.04	-48.0	-62.9	3.8	1.49e+00	0	39	104	0	66	21404
2026-01-21 06:01:16.73	54.15	15.12	-48.0	-62.9	3.8	1.49e+00	0	39	104	0	66	21386
2026-01-21 06:01:17.74	53.99	15.19	-48.0	-62.9	3.8	1.49e+00	0	40	104	0	66	21381
2026-01-21 06:01:18.75	53.83	15.26	-48.0	-62.9	3.8	1.49e+00	0	40	104	0	66	21406
2026-01-21 06:01:19.76	53.68	15.34	-48.0	-62.9	3.8	1.49e+00	0	40	104	0	66	21458
2026-01-21 06:01:20.77	53.52	15.41	-48.0	-62.9	3.8	1.49e+00	0	40	104	0	66	21403
2026-01-21 06:01:21.77	53.36	15.48	-48.0	-62.9	3.8	1.49e+00	0	40	104	0	66	21366
2026-01-21 06:01:22.78	53.20	15.56	-48.0	-62.9	3.8	1.49e+00	0	40	104	0	66	21431
2026-01-21 06:01:23.79	53.03	15.63	-48.0	-62.9	3.8	1.49e+00	0	40	104	0	66	21400
2026-01-21 06:01:24.80	52.87	15.71	-48.0	-62.9	3.8	1.49e+00	0	40	104	0	66	21440
2026-01-21 06:01:25.81	52.71	15.78	-48.0	-62.9	3.8	1.49e+00	0	40	104	0	66	21393
2026-01-21 06:01:26.82	52.54	15.85	-48.0	-62.9	3.8	1.49e+00	0	40	104	0	66	21410
2026-01-21 06:01:27.83	52.38	15.93	-48.0	-62.9	3.8	1.49e+00	0	40	104	0	66	21431
2026-01-21 06:01:28.84	52.21	16.00	-48.0	-62.9	3.8	1.49e+00	0	40	104	0	66	21376
2026-01-21 06:01:29.84	52.05	16.08	-48.0	-62.9	3.8	1.49e+00	0	39	104	0	66	21407
2026-01-21 06:01:30.85	51.88	16.15	-48.0	-62.9	3.8	1.49e+00	0	40	104	0	66	21407
2026-01-21 06:01:31.86	51.71	16.22	-48.0	-62.9	3.8	1.49e+00	0	40	104	0	66	21432
2026-01-21 06:01:32.87	51.54	16.30	-48.0	-62.9	3.8	1.49e+00	0	40	104	0	66	21414
2026-01-21 06:01:33.88	51.37	16.37	-48.0	-62.9	3.8	1.49e+00	0	40	104	0	66	21377
2026-01-21 06:01:34.89	51.20	16.44	-48.0	-62.9	3.8	1.49e+00	0	40	104	0	66	21274
2026-01-21 06:01:35.89	51.03	16.52	-48.0	-62.9	3.8	1.49e+00	0	40	104	0	66	21308
2026-01-21 06:01:36.90	50.86	16.59	-48.0	-62.9	3.8	1.49e+00	0	40	104	0	66	21326
2026-01-21 06:01:37.91	50.68	16.66	-48.0	-62.9	3.8	1.49e+00	0	40	104	0	66	21342
2026-01-21 06:01:38.92	50.51	16.74	-48.0	-62.9	3.8	1.49e+00	0	40	104	0	66	21295
2026-01-21 06:01:39.93	50.33	16.81	-48.0	-62.9	3.8	1.49e+00	0	40	104	0	66	21349
2026-01-21 06:01:40.93	50.16	16.88	-48.0	-62.9	3.8	1.49e+00	0	40	104	0	66	21354
2026-01-21 06:01:41.94	49.98	16.96	-48.0	-62.9	3.8	1.49e+00	0	40	104	0	66	21359
2026-01-21 06:01:42.95	49.81	17.03	-48.0	-62.9	3.8	1.49e+00	0	40	104	0	66	21309
2026-01-21 06:01:43.96	49.63	17.10	-48.0	-62.9	3.8	1.49e+00	0	40	104	0	66	21304
2026-01-21 06:01:44.97	49.45	17.18	-48.0	-62.9	3.8	1.49e+00	0	40	104	0	66	21316
2026-01-21 06:01:45.97	49.27	17.25	-48.0	-62.9	3.8	1.49e+00	0	40	104	0	66	21364
2026-01-21 06:01:46.98	49.09	17.32	-48.0	-62.9	3.8	1.49e+00	0	40	104	0	66	21289
2026-01-21 06:01:47.99	48.90	17.40	-48.0	-62.9	3.8	1.49e+00	0	40	104	0	66	21363
2026-01-21 06:01:49.00	48.72	17.47	-48.0	-62.9	3.8	1.49e+00	0	40	104	0	66	21338
2026-01-21 06:01:50.00	48.54	17.54	-48.0	-62.9	3.8	1.49e+00	0	40	104	0	66	21309
2026-01-21 06:01:51.02	48.35	17.61	-48.0	-62.9	3.8	1.49e+00	0	40	104	0	66	21385
2026-01-21 06:01:52.02	48.17	17.69	-48.0	-62.9	3.8	1.49e+00	0	40	104	0	66	21394
2026-01-21 06:01:53.03	47.98	17.76	-48.0	-62.9	3.8	1.49e+00	0	40	104	0	66	21399
2026-01-21 06:01:54.04	47.79	17.83	-48.0	-62.9	3.8	1.49e+00	0	40	104	0	66	21383
2026-01-21 06:01:55.05	47.60	17.90	-48.0	-62.9	3.8	1.49e+00	0	40	104	0	66	21385
2026-01-21 06:01:56.06	47.42	17.97	-48.0	-62.9	3.8	1.49e+00	0	40	104	0	66	21386
2026-01-21 06:01:57.07	47.22	18.05	-48.0	-62.9	3.8	1.49e+00	0	40	104	0	66	21431
2026-01-21 06:01:58.07	47.04	18.12	-48.0	-62.9	3.8	1.49e+00	0	40	104	0	66	21410
2026-01-21 06:01:59.08	46.84	18.19	-48.0	-62.9	3.8	1.49e+00	0	40	104	0	66	21369
2026-01-21 06:02:00.09	46.65	18.26	-48.0	-62.9	3.8	1.49e+00	0	40	104	0	66	21442
2026-01-21 06:02:01.10	46.46	18.33	-48.0	-62.9	3.8	1.49e+00	0	40	104	0	66	21412
2026-01-21 06:02:02.10	46.26	18.40	-48.0	-62.9	3.8	1.49e+00	0	40	104	0	66	21401
2026-01-21 06:02:03.11	46.07	18.47	-48.0	-62.9	3.8	1.49e+00	0	40	104	0	66	21406
2026-01-21 06:02:04.12	45.87	18.55	-48.0	-62.9	3.8	1.49e+00	0	40	104	0	66	21376
2026-01-21 06:02:05.13	45.67	18.62	-48.0	-62.9	3.8	1.49e+00	0	40	104	0	66	21398
2026-01-21 06:02:06.14	45.47	18.69	-48.0	-62.9	3.8	1.49e+00	0	40	104	0	66	21396
2026-01-21 06:02:07.14	45.28	18.76	-48.0	-62.9	3.8	1.49e+00	0	40	104	0	66	21392
2026-01-21 06:02:08.15	45.07	18.83	-48.0	-62.9	3.8	1.49e+00	0	40	104	0	66	21373
2026-01-21 06:02:09.16	44.87	18.90	-48.0	-62.9	3.8	1.49e+00	0	40	104	0	66	21452
2026-01-21 06:02:10.17	44.67	18.97	-48.0	-62.9	3.8	1.49e+00	0	40	104	0	66	21407
2026-01-21 06:02:11.17	44.47	19.04	-48.0	-62.9	3.8	1.49e+00	0	40	104	0	66	21372
2026-01-21 06:02:12.18	44.26	19.11	-48.0	-62.9	3.8	1.49e+00	0	40	104	0	66	21442
2026-01-21 06:02:13.19	44.06	19.18	-48.0	-62.9	3.8	1.49e+00	0	40	104	0	66	21412
2026-01-21 06:02:14.20	43.85	19.25	-48.0	-62.9	3.8	1.49e+00	0	40	104	0	66	21387
2026-01-21 06:02:15.20	43.65	19.31	-48.0	-62.9	3.8	1.49e+00	0	40	104	0	66	21404
2026-01-21 06:02:16.21	43.44	19.38	-48.0	-62.9	3.8	1.49e+00	0	40	104	0	66	21381
2026-01-21 06:02:17.22	43.23	19.45	-48.0	-62.9	3.8	1.49e+00	0	40	104	0	66	21338
2026-01-21 06:02:18.23	43.02	19.52	-48.0	-62.9	3.8	1.49e+00	0	40	104	0	66	21350
2026-01-21 06:02:19.24	42.81	19.59	-48.0	-62.9	3.8	1.49e+00	0	40	104	0	66	21404
2026-01-21 06:02:20.25	42.60	19.66	-48.0	-62.9	3.8	1.49e+00	0	40	104	0	66	21353
2026-01-21 06:02:21.26	42.38	19.72	-48.0	-62.9	3.8	1.49e+00	0	40	104	0	66	21412
2026-01-21 06:02:22.26	42.17	19.79	-48.0	-62.9	3.8	1.49e+00	0	40	104	0	66	21436
2026-01-21 06:02:23.27	41.96	19.86	-48.0	-62.9	3.8	1.49e+00	0	40	104	0	66	21384
2026-01-21 06:02:24.28	41.74	19.93	-48.0	-62.9	3.8	1.49e+00	0	40	104	0	66	21370
2026-01-21 06:02:25.29	41.52	19.99	-48.0	-62.9	3.8	1.49e+00	0	40	104	0	66	21449
2026-01-21 06:02:26.30	41.31	20.06	-48.0	-62.9	3.8	1.49e+00	0	40	104	0	66	21405
2026-01-21 06:02:27.30	41.09	20.13	-48.0	-62.9	3.8	1.49e+00	0	40	104	0	66	21381
2026-01-21 06:02:28.31	40.87	20.19	-48.0	-62.9	3.8	1.49e+00	0	40	104	0	66	21368
2026-01-21 06:02:29.32	40.65	20.26	-48.0	-62.9	3.8	1.49e+00	0	40	104	0	66	21385
2026-01-21 06:02:30.33	40.43	20.32	-48.0	-62.9	3.8	1.49e+00	0	40	104	0	66	21407
2026-01-21 06:02:31.34	40.21	20.39	-48.0	-62.9	3.8	1.49e+00	0	40	104	0	66	21418
2026-01-21 06:02:32.34	39.98	20.45	-48.0	-62.9	3.8	1.49e+00	0	40	104	0	66	21436
2026-01-21 06:02:33.35	39.76	20.52	-48.0	-62.9	3.8	1.49e+00	0	40	104	0	66	21453
2026-01-21 06:02:34.36	39.54	20.58	-48.0	-62.9	3.8	1.49e+00	0	40	104	0	66	21379
2026-01-21 06:02:35.37	39.31	20.65	-48.0	-62.9	3.8	1.49e+00	0	40	104	0	66	21362
2026-01-21 06:02:36.38	39.08	20.71	-48.0	-62.9	3.8	1.49e+00	0	40	104	0	66	21423
2026-01-21 06:02:37.39	38.85	20.77	-48.0	-62.9	3.8	1.49e+00	0	40	104	0	66	21383
2026-01-21 06:02:38.39	38.63	20.84	-48.0	-62.9	3.8	1.49e+00	0	40	104	0	66	21411
2026-01-21 06:02:39.40	38.40	20.90	-48.0	-62.9	3.8	1.49e+00	0	39	104	0	66	21371
2026-01-21 06:02:40.40	38.17	20.96	-48.0	-62.9	3.8	1.49e+00	0	39	104	0	66	21393
2026-01-21 06:02:41.42	37.93	21.02	-48.0	-62.9	3.8	1.49e+00	0	40	104	0	66	21379
2026-01-21 06:02:42.42	37.70	21.08	-48.0	-62.9	3.8	1.49e+00	0	40	104	0	66	21389
2026-01-21 06:02:43.43	37.47	21.15	-48.0	-62.9	3.8	1.49e+00	0	40	104	0	66	21463
2026-01-21 06:02:44.44	37.23	21.21	-48.0	-62.9	3.8	1.49e+00	0	40	104	0	66	21408
2026-01-21 06:02:45.44	37.00	21.27	-48.0	-62.9	3.8	1.49e+00	0	40	104	0	66	21351
2026-01-21 06:02:46.45	36.76	21.33	-48.0	-62.9	3.8	1.49e+00	0	40	104	0	66	21376
2026-01-21 06:02:47.46	36.53	21.39	-48.0	-62.9	3.8	1.49e+00	0	40	104	0	66	21412
2026-01-21 06:02:48.47	36.29	21.45	-48.0	-62.9	3.8	1.49e+00	0	40	104	0	66	21397
2026-01-21 06:02:49.48	36.05	21.51	-48.0	-62.9	3.8	1.49e+00	0	40	104	0	66	21399
2026-01-21 06:02:50.49	35.81	21.56	-48.0	-62.9	3.8	1.49e+00	0	40	104	0	66	21424
2026-01-21 06:02:51.50	35.57	21.62	-48.0	-62.9	3.8	1.49e+00	0	39	104	0	66	21390
2026-01-21 06:02:52.51	35.32	21.68	-48.0	-62.9	3.8	1.49e+00	0	40	104	0	66	21408
2026-01-21 06:02:53.51	35.08	21.74	-48.0	-62.9	3.8	1.49e+00	0	40	104	0	66	21373
2026-01-21 06:02:54.52	34.84	21.79	-48.0	-62.9	3.8	1.49e+00	0	40	104	0	66	21377
2026-01-21 06:02:55.53	34.60	21.85	-48.0	-62.9	3.8	1.49e+00	0	40	104	0	66	21373
2026-01-21 06:02:56.54	34.35	21.91	-48.0	-62.9	3.8	1.49e+00	0	40	104	0	66	21400
2026-01-21 06:02:57.55	34.10	21.96	-48.0	-62.9	3.8	1.49e+00	0	40	104	0	66	21398
2026-01-21 06:02:58.55	33.86	22.02	-48.0	-62.9	3.8	1.49e+00	0	40	104	0	66	21369
2026-01-21 06:02:59.56	33.61	22.07	-48.0	-62.9	3.8	1.49e+00	0	40	104	0	66	21423
2026-01-21 06:03:00.57	33.36	22.13	-48.0	-62.9	3.8	1.49e+00	0	40	104	0	66	21371
2026-01-21 06:03:01.58	33.11	22.18	-48.0	-62.9	3.8	1.49e+00	0	40	104	0	66	21400
2026-01-21 06:03:02.58	32.86	22.23	-48.0	-62.9	3.8	1.49e+00	0	40	104	0	66	21376
2026-01-21 06:03:03.59	32.61	22.29	-48.0	-62.9	3.8	1.49e+00	0	40	104	0	66	21417
2026-01-21 06:03:04.60	32.36	22.34	-48.0	-62.9	3.8	1.49e+00	0	40	104	0	66	21359
2026-01-21 06:03:05.61	32.10	22.39	-48.0	-62.9	3.8	1.49e+00	0	40	104	0	66	21377
2026-01-21 06:03:06.61	31.85	22.44	-48.0	-62.9	3.8	1.49e+00	0	40	104	0	66	21342
2026-01-21 06:03:07.62	31.60	22.49	-48.0	-62.9	3.8	1.49e+00	0	40	104	0	66	21384
2026-01-21 06:03:08.63	31.34	22.54	-48.0	-62.9	3.8	1.49e+00	0	40	104	0	66	21375
2026-01-21 06:03:09.64	31.08	22.59	-48.0	-62.9	3.8	1.49e+00	0	40	104	0	66	21395
2026-01-21 06:03:10.65	30.82	22.64	-48.0	-62.9	3.8	1.49e+00	0	40	104	0	66	21342
2026-01-21 06:03:11.65	30.57	22.69	-48.0	-62.9	3.8	1.49e+00	0	40	104	0	66	21387
2026-01-21 06:03:12.66	30.31	22.74	-48.0	-62.9	3.8	1.49e+00	0	40	104	0	66	21373
2026-01-21 06:03:13.67	30.05	22.79	-48.0	-62.9	3.8	1.49e+00	0	40	104	0	66	21355
2026-01-21 06:03:14.68	29.79	22.84	-48.0	-62.9	3.8	1.49e+00	0	40	104	0	66	21390
2026-01-21 06:03:15.69	29.52	22.88	-48.0	-62.9	3.8	1.49e+00	0	40	104	0	66	21426
2026-01-21 06:03:16.69	29.26	22.93	-48.0	-62.9	3.8	1.49e+00	0	40	104	0	66	21362
2026-01-21 06:03:17.71	29.00	22.97	-48.0	-62.9	3.8	1.49e+00	0	40	104	0	66	21422
2026-01-21 06:03:18.72	28.73	23.02	-48.0	-62.9	3.8	1.49e+00	0	40	104	0	66	21481
2026-01-21 06:03:19.72	28.47	23.06	-48.0	-62.9	3.8	1.49e+00	0	40	104	0	66	21469
2026-01-21 06:03:20.73	28.21	23.11	-48.0	-62.9	3.8	1.49e+00	0	40	104	0	66	21448
2026-01-21 06:03:21.74	27.94	23.15	-48.0	-62.9	3.8	1.49e+00	0	40	104	0	66	21474
2026-01-21 06:03:22.75	27.67	23.19	-48.0	-62.9	3.8	1.49e+00	0	40	104	0	66	21429
2026-01-21 06:03:23.76	27.40	23.24	-48.0	-62.9	3.8	1.49e+00	0	40	104	0	66	21442
2026-01-21 06:03:24.77	27.14	23.28	-48.0	-62.9	3.8	1.49e+00	0	40	104	0	66	21437
2026-01-21 06:03:25.78	26.87	23.32	-48.0	-62.9	3.8	1.49e+00	0	40	104	0	66	21426
2026-01-21 06:03:26.78	26.60	23.36	-48.0	-62.9	3.8	1.49e+00	0	40	104	0	66	21452
2026-01-21 06:03:27.79	26.33	23.40	-48.0	-62.9	3.8	1.49e+00	0	40	104	0	66	21402
2026-01-21 06:03:28.80	26.06	23.44	-48.0	-62.9	3.8	1.49e+00	0	40	104	0	66	21415
2026-01-21 06:03:29.81	25.78	23.47	-48.0	-62.9	3.8	1.49e+00	0	40	104	0	66	21480
2026-01-21 06:03:30.81	25.51	23.51	-48.0	-62.9	3.8	1.49e+00	0	40	104	0	66	21436
2026-01-21 06:03:31.83	25.24	23.55	-48.0	-62.9	3.8	1.49e+00	0	40	104	0	66	21385
2026-01-21 06:03:32.83	24.97	23.59	-48.0	-62.9	3.8	1.49e+00	0	40	104	0	66	21420
2026-01-21 06:03:33.84	24.69	23.62	-48.0	-62.9	3.8	1.49e+00	0	40	104	0	66	21400
2026-01-21 06:03:34.85	24.42	23.66	-48.0	-63.0	3.8	1.49e+00	0	40	104	0	66	21528
2026-01-21 06:03:35.86	24.14	23.69	-48.0	-62.9	3.8	1.49e+00	0	40	104	0	66	21328
2026-01-21 06:03:36.86	23.87	23.72	-48.0	-62.9	3.8	1.49e+00	0	40	104	0	66	21502
2026-01-21 06:03:37.87	23.59	23.76	-48.0	-62.9	3.8	1.49e+00	0	40	104	0	66	21387
2026-01-21 06:03:38.88	23.31	23.79	-48.0	-62.9	3.8	1.49e+00	0	40	104	0	66	21453
2026-01-21 06:03:39.89	23.03	23.82	-48.0	-62.9	3.8	1.49e+00	0	40	104	0	66	21403
2026-01-21 06:03:40.90	22.75	23.85	-48.0	-62.9	3.8	1.49e+00	0	40	104	0	66	21487
2026-01-21 06:03:41.91	22.48	23.88	-48.0	-62.9	3.8	1.49e+00	0	40	104	0	66	21473
2026-01-21 06:03:42.91	22.20	23.91	-48.0	-62.9	3.8	1.49e+00	0	40	104	0	66	21463
2026-01-21 06:03:43.92	21.92	23.94	-48.0	-62.9	3.8	1.49e+00	0	40	104	0	66	21401
2026-01-21 06:03:44.93	21.64	23.97	-48.0	-62.9	3.8	1.49e+00	0	40	104	0	66	21436
2026-01-21 06:03:45.94	21.35	24.00	-48.0	-62.9	3.8	1.49e+00	0	40	104	0	66	21457
2026-01-21 06:03:46.95	21.07	24.02	-50.0	-64.9	3.8	1.49e+00	0	40	104	0	70	21490
2026-01-21 06:03:47.95	20.79	24.05	-51.4	-66.3	3.8	1.49e+00	0	40	104	0	73	21202
2026-01-21 06:03:48.96	20.51	24.07	-52.3	-67.3	3.8	1.49e+00	0	40	104	0	75	21062
2026-01-21 06:03:49.97	20.23	24.10	-52.4	-67.4	3.8	1.49e+00	0	40	104	0	75	21384
2026-01-21 06:03:50.98	19.94	24.12	-52.4	-67.4	3.8	1.49e+00	0	40	104	0	75	21378
2026-01-21 06:03:51.99	19.66	24.14	-52.4	-67.4	3.8	1.49e+00	0	40	104	0	75	21303
2026-01-21 06:03:53.00	19.37	24.17	-52.4	-67.4	3.8	1.49e+00	0	40	104	0	75	21323
2026-01-21 06:03:54.00	19.09	24.19	-52.4	-67.4	3.8	1.49e+00	0	40	104	0	75	21346
2026-01-21 06:03:55.01	18.81	24.21	-52.4	-67.4	3.8	1.49e+00	0	40	104	0	75	21262
2026-01-21 06:03:56.02	18.52	24.23	-52.4	-67.4	3.8	1.49e+00	0	40	104	0	75	21279
2026-01-21 06:03:57.03	18.23	24.25	-52.4	-67.3	3.8	1.49e+00	0	40	104	0	75	21226
2026-01-21 06:03:58.04	17.95	24.27	-52.4	-67.3	3.8	1.49e+00	0	40	104	0	75	21250
2026-01-21 06:03:59.05	17.66	24.28	-52.4	-67.4	3.8	1.49e+00	0	40	104	0	75	21263
2026-01-21 06:04:00.06	17.37	24.30	-52.4	-67.4	3.8	1.49e+00	0	40	104	0	75	21271
2026-01-21 06:04:01.07	17.09	24.32	-52.4	-67.3	3.8	1.49e+00	0	40	104	0	75	21186
2026-01-21 06:04:02.07	16.80	24.33	-52.4	-67.4	3.8	1.49e+00	0	40	104	0	75	21269
2026-01-21 06:04:03.08	16.51	24.35	-52.4	-67.3	3.8	1.49e+00	0	40	104	0	75	21249
2026-01-21 06:04:04.09	16.23	24.36	-52.4	-67.3	3.8	1.49e+00	0	40	104	0	75	21228
2026-01-21 06:04:05.10	15.94	24.37	-52.4	-67.3	3.8	1.49e+00	0	40	104	0	75	21192
2026-01-21 06:04:06.11	15.65	24.39	-52.4	-67.3	3.8	1.49e+00	0	40	104	0	75	21200
2026-01-21 06:04:07.12	15.36	24.40	-52.4	-67.3	3.8	1.49e+00	0	40	104	0	75	21197
2026-01-21 06:04:08.12	15.07	24.41	-52.4	-67.4	3.8	1.49e+00	0	40	104	0	75	21299
2026-01-21 06:04:09.13	14.78	24.42	-52.4	-67.3	3.8	1.49e+00	0	40	104	0	75	21253
2026-01-21 06:04:10.14	14.49	24.43	-52.4	-67.3	3.8	1.49e+00	0	40	104	0	75	21202
2026-01-21 06:04:11.15	14.20	24.43	-52.4	-67.4	3.8	1.49e+00	0	40	104	0	75	21275
2026-01-21 06:04:12.16	13.91	24.44	-52.4	-67.3	3.8	1.49e+00	0	40	104	0	75	21193
2026-01-21 06:04:13.17	13.62	24.45	-52.4	-67.3	3.8	1.49e+00	0	40	104	0	75	21224
2026-01-21 06:04:14.18	13.33	24.46	-52.4	-67.3	3.8	1.49e+00	0	40	104	0	75	21179
2026-01-21 06:04:15.19	13.04	24.46	-52.4	-67.3	3.8	1.49e+00	0	40	104	0	75	21226
2026-01-21 06:04:16.19	12.76	24.46	-52.4	-67.3	3.8	1.49e+00	0	40	104	0	75	21254
2026-01-21 06:04:17.20	12.47	24.47	-52.4	-67.3	3.8	1.49e+00	0	40	104	0	75	21169
2026-01-21 06:04:18.21	12.18	24.47	-52.3	-67.3	3.8	1.49e+00	0	40	104	0	75	21254
2026-01-21 06:04:19.22	11.89	24.47	-52.3	-67.3	3.8	1.49e+00	0	40	104	0	75	21215
2026-01-21 06:04:20.23	11.60	24.47	-52.4	-67.3	3.8	1.49e+00	0	40	104	0	75	21201
2026-01-21 06:04:21.24	11.30	24.47	-52.3	-67.3	3.8	1.49e+00	0	40	104	0	75	21182
2026-01-21 06:04:22.25	11.01	24.47	-52.3	-67.3	3.8	1.49e+00	0	40	104	0	75	21168
2026-01-21 06:04:23.25	10.73	24.47	-52.3	-67.3	3.8	1.49e+00	0	40	104	0	75	21225
2026-01-21 06:04:24.26	10.44	24.47	-52.3	-67.3	3.8	1.49e+00	0	40	104	0	75	21189
2026-01-21 06:04:25.27	10.15	24.47	-52.3	-67.3	3.8	1.49e+00	0	40	104	0	75	21174
2026-01-21 06:04:26.28	9.86	24.46	-52.3	-67.3	3.8	1.49e+00	0	40	104	0	75	21192
2026-01-21 06:04:27.28	9.57	24.46	-52.3	-67.3	3.8	1.49e+00	0	40	104	0	75	21203
2026-01-21 06:04:28.29	9.28	24.45	-52.4	-67.3	3.8	1.49e+00	0	40	104	0	75	21170
2026-01-21 06:04:29.30	8.99	24.45	-52.4	-67.3	3.8	1.49e+00	0	40	104	0	75	21207
2026-01-21 06:04:30.31	8.70	24.44	-52.3	-67.3	3.8	1.49e+00	0	40	104	0	75	21209
2026-01-21 06:04:31.32	8.41	24.43	-52.3	-67.3	3.8	1.49e+00	0	40	104	0	75	21220
2026-01-21 06:04:32.33	8.12	24.42	-52.3	-67.3	3.8	1.49e+00	0	40	104	0	75	21192
2026-01-21 06:04:33.34	7.83	24.42	-52.3	-67.3	3.8	1.49e+00	0	40	104	0	75	21202
2026-01-21 06:04:34.34	7.54	24.41	-52.3	-67.3	3.8	1.49e+00	0	40	104	0	75	21194
2026-01-21 06:04:35.35	7.25	24.39	-52.3	-67.3	3.8	1.49e+00	0	40	104	0	75	21189
2026-01-21 06:04:36.36	6.96	24.38	-52.3	-67.3	3.8	1.49e+00	0	40	104	0	75	21173
2026-01-21 06:04:37.37	6.68	24.37	-52.4	-67.3	3.8	1.49e+00	0	40	104	0	75	21177
2026-01-21 06:04:38.38	6.39	24.36	-52.3	-67.3	3.8	1.49e+00	0	40	104	0	75	21186
2026-01-21 06:04:39.38	6.10	24.34	-52.3	-67.3	3.8	1.49e+00	0	40	104	0	75	21220
2026-01-21 06:04:40.39	5.81	24.33	-52.3	-67.3	3.8	1.49e+00	0	40	104	0	75	21168
2026-01-21 06:04:41.40	5.53	24.31	-52.3	-67.3	3.8	1.49e+00	0	40	104	0	75	21165
2026-01-21 06:04:42.41	5.24	24.30	-52.3	-67.3	3.8	1.49e+00	0	40	104	0	75	21143
2026-01-21 06:04:43.42	4.95	24.28	-52.3	-67.3	3.8	1.49e+00	0	40	104	0	75	21137
2026-01-21 06:04:44.43	4.67	24.26	-52.3	-67.3	3.8	1.49e+00	0	40	104	0	75	21242
2026-01-21 06:04:45.44	4.38	24.24	-52.3	-67.3	3.8	1.49e+00	0	40	104	0	75	21152
2026-01-21 06:04:46.45	4.09	24.22	-52.3	-67.3	3.8	1.49e+00	0	40	104	0	75	21185
2026-01-21 06:04:47.46	3.81	24.20	-52.3	-67.3	3.8	1.49e+00	0	40	104	0	75	21087
2026-01-21 06:04:48.47	3.52	24.18	-52.4	-67.3	3.8	1.49e+00	0	40	104	0	75	21160
2026-01-21 06:04:49.47	3.24	24.16	-52.3	-67.3	3.8	1.49e+00	0	40	104	0	75	21201
2026-01-21 06:04:50.48	2.96	24.14	-52.3	-67.3	3.8	1.49e+00	0	40	104	0	75	21133
2026-01-21 06:04:51.49	2.67	24.12	-52.3	-67.3	3.8	1.49e+00	0	40	104	0	75	21187
2026-01-21 06:04:52.50	2.39	24.09	-52.3	-67.3	3.8	1.49e+00	0	40	104	0	75	21135
2026-01-21 06:04:53.50	2.11	24.07	-52.3	-67.3	3.8	1.49e+00	0	40	104	0	75	21145
2026-01-21 06:04:54.51	1.83	24.04	-52.3	-67.3	3.8	1.49e+00	0	40	104	0	75	21123
2026-01-21 06:04:55.52	1.54	24.02	-52.3	-67.3	3.8	1.49e+00	0	40	104	0	75	21128
2026-01-21 06:04:56.53	1.26	23.99	-52.3	-67.3	3.8	1.49e+00	0	40	104	0	75	21138
2026-01-21 06:04:57.53	0.98	23.96	-52.3	-67.3	3.8	1.49e+00	0	40	104	0	75	21153
2026-01-21 06:04:58.54	0.70	23.93	-52.3	-67.3	3.8	1.49e+00	0	40	104	0	75	21133
2026-01-21 06:04:59.55	0.42	23.91	-52.3	-67.3	3.8	1.49e+00	0	40	104	0	75	21238
2026-01-21 06:05:00.56	0.14	23.88	-52.3	-67.3	3.8	1.49e+00	0	40	104	0	75	21175
2026-01-21 06:05:01.57	359.86	23.85	-52.3	-67.3	3.8	1.49e+00	0	40	104	0	75	21131
2026-01-21 06:05:02.58	359.58	23.81	-52.3	-67.3	3.8	1.49e+00	0	40	104	0	75	21161
2026-01-21 06:05:03.59	359.31	23.78	-52.3	-67.3	3.8	1.49e+00	0	40	104	0	75	21136
2026-01-21 06:05:04.59	359.03	23.75	-52.3	-67.3	3.8	1.49e+00	0	40	104	0	75	21224
2026-01-21 06:05:05.60	358.75	23.72	-52.3	-67.3	3.8	1.49e+00	0	40	104	0	75	21160
2026-01-21 06:05:06.61	358.48	23.68	-52.5	-67.5	3.8	1.49e+00	0	40	104	0	75	21619
2026-01-21 06:05:07.62	358.20	23.65	-52.9	-67.8	3.8	1.49e+00	0	40	104	0	76	21198
2026-01-21 06:05:08.63	357.93	23.61	-53.1	-68.1	3.8	1.49e+00	0	40	104	0	76	21844
2026-01-21 06:05:09.63	357.66	23.58	-53.3	-68.2	3.8	1.49e+00	0	40	104	0	77	20938
2026-01-21 06:05:10.64	357.38	23.54	-53.4	-68.4	3.8	1.49e+00	0	40	104	0	77	21293
2026-01-21 06:05:11.65	357.11	23.50	-53.5	-68.5	3.8	1.49e+00	0	40	104	0	77	21533
2026-01-21 06:05:12.66	356.84	23.47	-53.6	-68.6	3.8	1.49e+00	0	40	104	0	77	21879
2026-01-21 06:05:13.66	356.57	23.43	-53.7	-68.7	3.8	1.49e+00	0	40	104	0	77	22123
2026-01-21 06:05:14.67	356.30	23.39	-53.8	-68.8	3.8	1.49e+00	0	40	104	0	78	21047
2026-01-21 06:05:15.68	356.02	23.35	-53.8	-68.8	3.8	1.49e+00	0	40	104	0	78	21195
2026-01-21 06:05:16.69	355.76	23.31	-53.9	-68.9	3.8	1.49e+00	0	40	104	0	78	21415
2026-01-21 06:05:17.69	355.49	23.27	-54.0	-69.0	3.8	1.49e+00	0	40	104	0	78	21518
2026-01-21 06:05:18.70	355.22	23.23	-54.1	-69.0	3.8	1.49e+00	0	40	104	0	78	21752
2026-01-21 06:05:19.71	354.95	23.19	-54.0	-69.1	3.8	1.49e+00	0	40	104	0	78	21769
2026-01-21 06:05:20.72	354.69	23.14	-54.0	-69.0	3.8	1.49e+00	0	40	104	0	78	21639
2026-01-21 06:05:21.73	354.42	23.10	-54.0	-69.0	3.8	1.49e+00	0	40	104	0	78	21597
2026-01-21 06:05:22.74	354.15	23.06	-54.0	-69.0	3.8	1.49e+00	0	40	104	0	78	21615
2026-01-21 06:05:23.75	353.89	23.01	-54.1	-69.1	3.8	1.49e+00	0	40	104	0	78	21905
2026-01-21 06:05:24.76	353.63	22.97	-54.2	-69.2	3.8	1.49e+00	0	40	104	0	78	22030
2026-01-21 06:05:25.77	353.36	22.92	-54.2	-69.2	3.8	1.49e+00	0	40	104	0	78	22109
2026-01-21 06:05:26.77	353.10	22.87	-54.3	-69.2	3.8	1.49e+00	0	40	104	0	79	21004
2026-01-21 06:05:27.78	352.84	22.83	-54.3	-69.3	3.8	1.49e+00	0	40	104	0	79	21154
2026-01-21 06:05:28.79	352.58	22.78	-54.4	-69.4	3.8	1.49e+00	0	40	104	0	79	21319
2026-01-21 06:05:29.80	352.32	22.73	-54.4	-69.4	3.8	1.49e+00	0	40	104	0	79	21414
2026-01-21 06:05:30.81	352.06	22.68	-54.4	-69.4	3.8	1.49e+00	0	40	104	0	79	21359
2026-01-21 06:05:31.82	351.80	22.64	-54.4	-69.4	3.8	1.49e+00	0	40	104	0	79	21377
2026-01-21 06:05:32.83	351.55	22.59	-54.4	-69.5	3.8	1.49e+00	0	40	104	0	79	21511
2026-01-21 06:05:33.83	351.29	22.54	-54.4	-69.4	3.8	1.49e+00	0	40	104	0	79	21463
2026-01-21 06:05:34.84	351.04	22.49	-54.5	-69.5	3.8	1.49e+00	0	40	104	0	79	21574
2026-01-21 06:05:35.85	350.78	22.43	-54.5	-69.5	3.8	1.49e+00	0	40	104	0	79	21597
2026-01-21 06:05:36.86	350.53	22.38	-54.5	-69.5	3.8	1.49e+00	0	40	104	0	79	21514
2026-01-21 06:05:37.87	350.27	22.33	-54.4	-69.4	3.8	1.49e+00	0	40	104	0	79	21427
2026-01-21 06:05:38.88	350.02	22.28	-54.4	-69.4	3.8	1.49e+00	0	40	104	0	79	21352
2026-01-21 06:05:39.88	349.77	22.23	-54.4	-69.4	3.8	1.49e+00	0	40	104	0	79	21263
2026-01-21 06:05:40.89	349.52	22.17	-54.4	-69.4	3.8	1.49e+00	0	40	104	0	79	21302
2026-01-21 06:05:41.90	349.27	22.12	-54.4	-69.4	3.8	1.49e+00	0	40	104	0	79	21375
2026-01-21 06:05:42.91	349.02	22.06	-54.4	-69.5	3.8	1.49e+00	0	40	104	0	79	21512
2026-01-21 06:05:43.92	348.77	22.01	-54.4	-69.4	3.8	1.49e+00	0	40	104	0	79	21429
2026-01-21 06:05:44.92	348.53	21.95	-54.4	-69.4	3.8	1.49e+00	0	40	104	0	79	21351
2026-01-21 06:05:45.93	348.28	21.90	-54.4	-69.4	3.8	1.49e+00	0	40	104	0	79	21281
2026-01-21 06:05:46.94	348.04	21.84	-54.3	-69.3	3.8	1.49e+00	0	40	104	0	79	21192
2026-01-21 06:05:47.95	347.79	21.79	-54.3	-69.3	3.8	1.49e+00	0	40	104	0	79	21142
2026-01-21 06:05:48.96	347.55	21.73	-54.3	-69.3	3.8	1.49e+00	0	40	104	0	79	21141
2026-01-21 06:05:49.97	347.31	21.67	-54.3	-69.3	3.8	1.49e+00	0	40	104	0	79	21129
2026-01-21 06:05:50.98	347.06	21.61	-54.3	-69.3	3.8	1.49e+00	0	40	104	0	79	21128
2026-01-21 06:05:51.99	346.82	21.55	-54.3	-69.3	3.8	1.49e+00	0	40	104	0	79	21047
2026-01-21 06:05:52.99	346.59	21.50	-54.3	-69.2	3.8	1.49e+00	0	40	104	0	79	20993
2026-01-21 06:05:54.00	346.35	21.44	-54.2	-69.2	3.8	1.49e+00	0	40	104	0	79	21001
2026-01-21 06:05:55.01	346.11	21.38	-54.2	-69.2	3.8	1.49e+00	0	40	104	0	79	20976
2026-01-21 06:05:56.01	345.87	21.32	-54.2	-69.3	3.8	1.49e+00	0	40	104	0	79	21026
2026-01-21 06:05:57.02	345.64	21.26	-54.2	-69.2	3.8	1.49e+00	0	40	104	0	79	20827
2026-01-21 06:05:58.03	345.40	21.20	-54.2	-69.2	3.8	1.49e+00	0	40	104	0	79	20809
2026-01-21 06:05:59.04	345.17	21.14	-54.2	-69.2	3.8	1.49e+00	0	40	104	0	79	20841
2026-01-21 06:06:00.04	344.94	21.07	-54.2	-69.2	3.8	1.49e+00	0	40	104	0	79	20813
2026-01-21 06:06:01.05	344.71	21.01	-54.1	-69.1	3.8	1.49e+00	0	40	104	0	79	20774
2026-01-21 06:06:02.06	344.47	20.95	-54.1	-69.1	3.8	1.49e+00	0	40	104	0	79	20749
2026-01-21 06:06:03.07	344.24	20.89	-54.1	-69.1	3.8	1.49e+00	0	40	104	0	79	20704
2026-01-21 06:06:04.08	344.01	20.83	-54.1	-69.1	3.8	1.49e+00	0	40	104	0	79	20653
2026-01-21 06:06:05.09	343.78	20.76	-54.1	-69.1	3.8	1.49e+00	0	40	104	0	79	20733
2026-01-21 06:06:06.10	343.56	20.70	-54.1	-69.1	3.8	1.49e+00	0	40	104	0	79	20681
2026-01-21 06:06:07.11	343.33	20.64	-54.1	-69.1	3.8	1.49e+00	0	40	104	0	79	20614
2026-01-21 06:06:08.12	343.10	20.57	-54.1	-69.0	3.8	1.49e+00	0	40	104	0	79	20527
2026-01-21 06:06:09.13	342.88	20.51	-54.1	-69.1	3.8	1.49e+00	0	40	104	0	79	20603
2026-01-21 06:06:10.13	342.66	20.44	-54.1	-69.1	3.8	1.49e+00	0	40	104	0	79	20568
2026-01-21 06:06:11.14	342.43	20.38	-54.3	-69.3	3.8	1.49e+00	0	40	104	0	79	21047
2026-01-21 06:06:12.15	342.21	20.31	-54.3	-69.4	3.8	1.49e+00	0	40	104	0	79	21290
2026-01-21 06:06:13.16	341.99	20.25	-54.4	-69.4	3.8	1.49e+00	0	40	104	0	79	21385
2026-01-21 06:06:14.17	341.77	20.18	-54.4	-69.4	3.8	1.49e+00	0	40	104	0	79	21415
2026-01-21 06:06:15.18	341.55	20.12	-54.4	-69.4	3.8	1.49e+00	0	40	104	0	79	21355
2026-01-21 06:06:16.19	341.33	20.05	-54.4	-69.4	3.8	1.49e+00	0	40	104	0	79	21396
2026-01-21 06:06:17.20	341.12	19.98	-54.4	-69.4	3.8	1.49e+00	0	40	104	0	79	21307
2026-01-21 06:06:18.21	340.90	19.92	-54.4	-69.4	3.8	1.49e+00	0	40	104	0	79	21360
2026-01-21 06:06:19.21	340.69	19.85	-54.3	-69.3	3.8	1.49e+00	0	40	104	0	79	21256
2026-01-21 06:06:20.22	340.47	19.78	-54.3	-69.3	3.8	1.49e+00	0	40	104	0	79	21107
2026-01-21 06:06:21.23	340.26	19.71	-54.3	-69.3	3.8	1.49e+00	0	40	104	0	79	21036
2026-01-21 06:06:22.24	340.05	19.65	-54.2	-69.2	3.8	1.49e+00	0	40	104	0	79	20783
2026-01-21 06:06:23.25	339.84	19.58	-54.1	-69.1	3.8	1.49e+00	0	40	104	0	79	20680
2026-01-21 06:06:24.26	339.62	19.51	-54.0	-69.0	3.8	1.49e+00	0	40	104	0	79	20373
2026-01-21 06:06:25.27	339.42	19.44	-53.9	-68.9	3.8	1.49e+00	0	40	104	0	79	20209
2026-01-21 06:06:26.27	339.21	19.37	-53.8	-68.8	3.8	1.49e+00	0	40	104	0	79	19923
2026-01-21 06:06:27.28	339.00	19.30	-53.7	-68.2	3.8	1.49e+00	0	40	104	0	79	18576
2026-01-21 06:06:28.29	338.79	19.24	-46.3	-47.9	18.9	5.10e-01	0	40	0	0	64	4263
2026-01-21 06:06:29.30	338.59	19.17	-46.0	-47.6	19.5	0.00e+00	0	40	0	2097152	63	4354
2026-01-21 06:06:30.31	338.38	19.10	-46.4	-48.2	18.3	0.00e+00	0	40	0	4194304	65	4176
2026-01-21 06:06:31.32	338.18	19.03	-46.0	-47.5	19.4	0.00e+00	0	40	0	5242880	63	4299
2026-01-21 06:06:32.32	337.98	18.96	-51.3	-55.6	11.5	1.96e-02	0	40	0	7340032	74	5812
2026-01-21 06:06:33.33	337.78	18.89	-47.6	-49.4	17.5	7.00e-07	0	40	0	9437184	67	4290
2026-01-21 06:06:34.34	337.57	18.82	-45.7	-47.1	19.8	0.00e+00	0	40	0	11534336	62	4356
2026-01-21 06:06:35.35	337.37	18.75	-44.5	-45.8	21.0	0.00e+00	0	40	0	13631488	61	3959
2026-01-21 06:06:36.36	337.18	18.68	-44.1	-45.3	21.4	0.00e+00	0	40	0	15728640	60	3982
2026-01-21 06:06:37.37	336.98	18.61	-44.4	-45.6	21.4	0.00e+00	0	40	0	16777216	59	4383
2026-01-21 06:06:38.38	336.78	18.53	-44.3	-45.5	21.5	0.00e+00	0	40	0	18874368	59	4336
2026-01-21 06:06:39.38	336.59	18.46	-44.6	-45.8	21.2	0.00e+00	0	40	0	20971520	59	4487
2026-01-21 06:06:40.39	336.39	18.39	-44.7	-45.9	20.9	0.00e+00	0	40	0	23068672	60	4289
2026-01-21 06:06:41.40	336.20	18.32	-45.0	-46.4	20.5	0.00e+00	0	40	0	25165824	60	4517
2026-01-21 06:06:42.41	336.00	18.25	-45.1	-46.5	20.4	0.00e+00	0	40	0	26214400	61	4326
2026-01-21 06:06:43.41	335.81	18.18	-45.1	-46.5	20.4	0.00e+00	0	40	0	28311552	61	4308
2026-01-21 06:06:44.42	335.62	18.11	-45.0	-46.3	20.5	0.00e+00	0	40	0	30408704	61	4212
2026-01-21 06:06:45.43	335.43	18.04	-44.9	-46.2	20.6	0.00e+00	0	40	0	32505856	61	4189
2026-01-21 06:06:46.44	335.24	17.96	-45.0	-46.3	20.6	0.00e+00	0	40	0	33554432	61	4211
2026-01-21 06:06:47.45	335.05	17.89	-45.0	-46.3	20.5	0.00e+00	0	40	0	35651584	61	4238
2026-01-21 06:06:48.46	334.86	17.82	-45.3	-46.7	20.3	0.00e+00	0	40	0	37748736	61	4415
2026-01-21 06:06:49.47	334.67	17.75	-45.5	-46.9	20.0	0.00e+00	0	40	0	39845888	61	4541
2026-01-21 06:06:50.47	334.49	17.68	-45.6	-47.1	19.9	0.00e+00	0	40	0	41943040	61	4614
2026-01-21 06:06:51.48	334.30	17.60	-45.4	-46.9	20.1	0.00e+00	0	40	0	44040192	61	4504
2026-01-21 06:06:52.49	334.12	17.53	-45.2	-46.6	20.3	0.00e+00	0	40	0	45088768	61	4371
2026-01-21 06:06:53.50	333.94	17.46	-45.1	-46.5	20.4	0.00e+00	0	40	0	47185920	61	4324
2026-01-21 06:06:54.50	333.75	17.39	-44.9	-46.2	20.7	0.00e+00	0	40	0	49283072	61	4156
2026-01-21 06:06:55.51	333.57	17.31	-44.8	-46.1	20.7	0.00e+00	0	40	0	51380224	61	4131
2026-01-21 06:06:56.52	333.39	17.24	-44.8	-46.1	20.7	0.00e+00	0	40	0	53477376	61	4133
2026-01-21 06:06:57.53	333.21	17.17	-44.6	-45.9	21.0	0.00e+00	0	40	0	54525952	61	4008
2026-01-21 06:06:58.54	333.03	17.09	-44.5	-45.7	21.1	0.00e+00	0	40	0	56623104	60	4173
2026-01-21 06:06:59.54	332.86	17.02	-44.4	-45.6	21.2	0.00e+00	0	40	0	58720256	60	4127
2026-01-21 06:07:00.56	332.68	16.95	-44.3	-45.5	21.2	0.00e+00	0	40	0	60817408	60	4093
2026-01-21 06:07:01.56	332.50	16.88	-44.3	-45.4	21.3	0.00e+00	0	40	0	62914560	60	4050
2026-01-21 06:07:02.57	332.33	16.80	-44.3	-45.5	21.3	0.00e+00	0	40	0	63963136	60	4066
2026-01-21 06:07:03.58	332.15	16.73	-44.5	-45.8	21.1	0.00e+00	0	40	0	66060288	60	4195
2026-01-21 06:07:04.59	331.98	16.66	-44.5	-45.8	21.0	0.00e+00	0	40	0	68157440	60	4207
2026-01-21 06:07:05.60	331.80	16.58	-44.6	-45.8	21.0	0.00e+00	0	40	0	70254592	60	4222
2026-01-21 06:07:06.61	331.63	16.51	-44.5	-45.7	21.1	0.00e+00	0	40	0	72351744	60	4166
2026-01-21 06:07:07.61	331.46	16.44	-44.2	-45.4	21.3	0.00e+00	0	40	0	73400320	60	4026
2026-01-21 06:07:08.62	331.29	16.36	-44.1	-45.3	21.5	0.00e+00	0	40	0	75497472	60	3964
2026-01-21 06:07:09.63	331.12	16.29	-44.3	-45.5	21.5	0.00e+00	0	40	0	77594624	59	4313
2026-01-21 06:07:10.64	330.95	16.21	-44.1	-45.3	21.7	0.00e+00	0	40	0	79691776	59	4194
2026-01-21 06:07:11.65	330.78	16.14	-43.9	-45.0	22.0	0.00e+00	0	40	0	81788928	59	4059
2026-01-21 06:07:12.65	330.62	16.07	-44.0	-45.1	21.9	0.00e+00	0	40	0	82837504	59	4131
2026-01-21 06:07:13.66	330.45	15.99	-44.1	-45.3	21.7	0.00e+00	0	40	0	84934656	59	4202
2026-01-21 06:07:14.67	330.29	15.92	-44.2	-45.4	21.6	0.00e+00	0	40	0	87031808	59	4264
2026-01-21 06:07:15.68	330.12	15.85	-44.4	-45.6	21.4	0.00e+00	0	40	0	89128960	59	4373
2026-01-21 06:07:16.69	329.96	15.77	-44.5	-45.7	21.3	0.00e+00	0	40	0	91226112	59	4436
2026-01-21 06:07:17.69	329.80	15.70	-44.6	-45.8	21.2	0.00e+00	0	40	0	92274688	59	4486
2026-01-21 06:07:18.70	329.63	15.63	-44.7	-45.9	21.2	0.00e+00	0	40	0	94371840	59	4537
2026-01-21 06:07:19.71	329.47	15.55	-44.5	-45.7	21.1	0.00e+00	0	40	0	96468992	60	4174
2026-01-21 06:07:20.72	329.31	15.48	-44.5	-45.7	21.0	0.00e+00	0	40	0	98566144	60	4185
2026-01-21 06:07:21.72	329.15	15.40	-44.4	-45.7	21.1	0.00e+00	0	40	0	100663296	60	4150
2026-01-21 06:07:22.73	329.00	15.33	-44.4	-45.6	21.1	0.00e+00	0	40	0	101711872	60	4122
2026-01-21 06:07:23.74	328.84	15.26	-44.1	-45.2	21.4	0.00e+00	0	40	0	103809024	60	3942
2026-01-21 06:07:24.75	328.68	15.18	-44.3	-45.4	21.4	0.00e+00	0	40	0	105906176	59	4291
2026-01-21 06:07:25.76	328.52	15.11	-44.3	-45.5	21.5	0.00e+00	0	40	0	108003328	59	4311
2026-01-21 06:07:26.77	328.37	15.04	-44.3	-45.4	21.6	0.00e+00	0	40	0	110100480	59	4262
2026-01-21 06:07:27.78	328.21	14.96	-44.4	-45.5	21.5	0.00e+00	0	40	0	112197632	59	4326
2026-01-21 06:07:28.78	328.06	14.89	-44.6	-45.7	21.3	0.00e+00	0	40	0	113246208	59	4441
2026-01-21 06:07:29.79	327.91	14.81	-44.5	-45.7	21.0	0.00e+00	0	40	0	115343360	60	4167
2026-01-21 06:07:30.80	327.75	14.74	-44.7	-46.0	20.7	0.00e+00	0	40	0	117440512	60	4323
2026-01-21 06:07:31.81	327.60	14.67	-45.1	-46.4	20.4	0.00e+00	0	40	0	119537664	60	4544
2026-01-21 06:07:32.82	327.45	14.59	-45.4	-46.8	20.1	0.00e+00	0	40	0	120586240	61	4450
2026-01-21 06:07:33.83	327.30	14.52	-45.3	-46.7	20.1	0.00e+00	0	40	0	122683392	61	4439
2026-01-21 06:07:34.83	327.15	14.45	-45.3	-46.7	20.1	0.00e+00	0	40	0	124780544	61	4405
2026-01-21 06:07:35.84	327.00	14.37	-45.2	-46.5	20.3	0.00e+00	0	40	0	126877696	61	4321
2026-01-21 06:07:36.85	326.85	14.30	-45.0	-46.3	20.4	0.00e+00	0	40	0	128974848	61	4236
2026-01-21 06:07:37.86	326.71	14.23	-44.8	-46.1	20.6	0.00e+00	0	40	0	131072000	61	4132
2026-01-21 06:07:38.86	326.56	14.15	-44.9	-46.3	20.5	0.00e+00	0	40	0	132120576	61	4202
2026-01-21 06:07:39.87	326.42	14.08	-44.7	-46.0	20.7	0.00e+00	0	40	0	134217728	61	4080
2026-01-21 06:07:40.88	326.27	14.00	-44.7	-46.0	20.7	0.00e+00	0	40	0	136314880	61	4081
2026-01-21 06:07:41.89	326.13	13.93	-44.7	-46.0	20.8	0.00e+00	0	40	0	138412032	61	4053
2026-01-21 06:07:42.89	325.98	13.86	-44.5	-45.8	20.9	0.00e+00	0	40	0	140509184	61	3963
2026-01-21 06:07:43.90	325.84	13.79	-44.6	-45.9	20.8	0.00e+00	0	39	0	141557760	61	4012
2026-01-21 06:07:44.91	325.70	13.71	-44.6	-45.9	20.8	0.00e+00	0	40	0	143654912	60	4257
2026-01-21 06:07:45.92	325.56	13.64	-44.7	-46.0	20.7	0.00e+00	0	40	0	145752064	60	4305
2026-01-21 06:07:46.92	325.42	13.57	-44.6	-45.8	20.9	0.00e+00	0	40	0	147849216	60	4231
2026-01-21 06:07:47.93	325.28	13.49	-44.9	-46.2	20.5	0.00e+00	0	40	0	148897792	60	4426
2026-01-21 06:07:48.94	325.14	13.42	-45.2	-46.5	20.3	0.00e+00	0	40	0	150994944	61	4327
2026-01-21 06:07:49.95	325.00	13.35	-45.5	-46.9	19.9	0.00e+00	0	40	0	153092096	61	4544
2026-01-21 06:07:50.96	324.86	13.27	-46.0	-47.5	19.4	0.00e+00	0	40	0	155189248	62	4580
2026-01-21 06:07:51.96	324.73	13.20	-46.2	-47.8	19.1	0.00e+00	0	40	0	157286400	63	4487
2026-01-21 06:07:52.97	324.59	13.13	-46.2	-47.8	19.1	0.00e+00	0	40	0	159383552	63	4478
2026-01-21 06:07:53.98	324.45	13.05	-46.0	-47.6	19.3	0.00e+00	0	40	0	160432128	63	4357
2026-01-21 06:07:54.98	324.32	12.98	-46.0	-47.6	19.2	0.00e+00	0	40	0	162529280	63	4367
2026-01-21 06:07:55.99	324.18	12.91	-45.8	-47.2	19.6	0.00e+00	0	40	0	164626432	63	4192
2026-01-21 06:07:57.00	324.05	12.84	-45.6	-47.0	19.8	0.00e+00	0	40	0	166723584	63	4078
2026-01-21 06:07:58.01	323.92	12.76	-45.1	-46.4	20.3	0.00e+00	0	40	0	168820736	62	4040
2026-01-21 06:07:59.02	323.78	12.69	-45.1	-46.5	20.3	0.00e+00	0	40	0	169869312	62	4060
2026-01-21 06:08:00.03	323.65	12.62	-44.9	-46.2	20.4	0.00e+00	0	40	0	171966464	61	4189
2026-01-21 06:08:01.03	323.52	12.55	-44.9	-46.1	20.6	0.00e+00	0	40	0	174063616	61	4139
2026-01-21 06:08:02.04	323.39	12.47	-44.9	-46.2	20.5	0.00e+00	0	40	0	176160768	61	4147
2026-01-21 06:08:03.05	323.26	12.40	-44.8	-46.0	20.7	0.00e+00	0	40	0	177209344	61	4098
2026-01-21 06:08:04.06	323.13	12.33	-45.1	-46.4	20.3	0.00e+00	0	40	0	179306496	61	4258
2026-01-21 06:08:05.06	323.01	12.26	-45.0	-46.3	20.4	0.00e+00	0	40	0	181403648	61	4212
2026-01-21 06:08:06.07	322.88	12.19	-45.1	-46.4	20.3	0.00e+00	0	40	0	183500800	61	4262
2026-01-21 06:08:07.08	322.75	12.11	-45.1	-46.4	20.4	0.00e+00	0	40	0	185597952	61	4253
2026-01-21 06:08:08.09	322.62	12.04	-45.0	-46.4	20.4	0.00e+00	0	40	0	187695104	61	4243
2026-01-21 06:08:09.10	322.50	11.97	-45.0	-46.3	20.4	0.00e+00	0	40	0	188743680	61	4228
2026-01-21 06:08:10.10	322.37	11.90	-44.9	-46.2	20.5	0.00e+00	0	40	0	190840832	61	4154
2026-01-21 06:08:11.11	322.25	11.83	-45.1	-46.4	20.2	0.00e+00	0	40	0	192937984	61	4283
2026-01-21 06:08:12.12	322.12	11.76	-45.1	-46.5	20.2	0.00e+00	0	40	0	195035136	61	4307
2026-01-21 06:08:13.13	322.00	11.68	-45.3	-46.7	20.0	0.00e+00	0	40	0	197132288	61	4397
2026-01-21 06:08:14.14	321.88	11.61	-45.5	-46.9	19.8	0.00e+00	0	40	0	198180864	61	4542
2026-01-21 06:08:15.15	321.76	11.54	-45.6	-47.0	19.7	0.00e+00	0	40	0	200278016	61	4574
2026-01-21 06:08:16.15	321.63	11.47	-45.6	-47.0	19.7	0.00e+00	0	40	0	202375168	61	4592
2026-01-21 06:08:17.16	321.51	11.40	-45.8	-47.4	19.4	0.00e+00	0	40	0	204472320	62	4500
2026-01-21 06:08:18.17	321.39	11.33	-45.9	-47.5	19.3	0.00e+00	0	40	0	206569472	62	4565
2026-01-21 06:08:19.17	321.27	11.26	-45.7	-47.2	19.5	0.00e+00	0	40	0	207618048	62	4439
2026-01-21 06:08:20.18	321.15	11.19	-45.8	-47.3	19.4	0.00e+00	0	40	0	209715200	62	4474
2026-01-21 06:08:21.19	321.04	11.11	-45.6	-47.1	19.6	0.00e+00	0	40	0	211812352	62	4366
2026-01-21 06:08:22.20	320.92	11.04	-45.8	-47.4	19.3	0.00e+00	0	40	0	213909504	62	4510
2026-01-21 06:08:23.21	320.80	10.97	-45.9	-47.5	19.2	0.00e+00	0	40	0	216006656	62	4555
2026-01-21 06:08:24.21	320.68	10.90	-46.1	-47.7	19.1	0.00e+00	0	40	0	217055232	62	4689
2026-01-21 06:08:25.22	320.57	10.83	-46.1	-47.7	19.1	0.00e+00	0	40	0	219152384	62	4652
2026-01-21 06:08:26.23	320.45	10.76	-46.2	-47.9	18.8	0.00e+00	0	40	0	221249536	63	4511
2026-01-21 06:08:27.24	320.34	10.69	-46.5	-48.2	18.5	0.00e+00	0	40	0	223346688	63	4694
2026-01-21 06:08:28.25	320.22	10.62	-46.5	-48.3	18.5	0.00e+00	0	40	0	225443840	63	4708
2026-01-21 06:08:29.25	320.11	10.55	-46.7	-48.4	18.3	0.00e+00	0	40	0	226492416	63	4805
2026-01-21 06:08:30.26	320.00	10.48	-46.5	-48.2	18.5	0.00e+00	0	40	0	228589568	64	4416
2026-01-21 06:08:31.27	319.88	10.41	-46.3	-48.0	18.6	0.00e+00	0	40	0	230686720	64	4332
2026-01-21 06:08:32.28	319.77	10.34	-46.2	-47.8	18.8	0.00e+00	0	40	0	232783872	64	4229
2026-01-21 06:08:33.28	319.66	10.27	-46.1	-47.7	19.0	0.00e+00	0	40	0	234881024	64	4157
2026-01-21 06:08:34.29	319.55	10.20	-46.0	-47.6	19.0	0.00e+00	0	40	0	235929600	64	4111
2026-01-21 06:08:35.30	319.44	10.13	-45.9	-47.4	19.3	0.00e+00	0	40	0	238026752	63	4283
2026-01-21 06:08:36.31	319.33	10.06	-45.8	-47.2	19.4	0.00e+00	0	40	0	240123904	63	4186
2026-01-21 06:08:37.32	319.22	9.99	-45.7	-47.1	19.5	0.00e+00	0	40	0	242221056	63	4127
2026-01-21 06:08:38.33	319.11	9.92	-45.8	-47.2	19.4	0.00e+00	0	40	0	244318208	62	4439
2026-01-21 06:08:39.34	319.00	9.85	-45.9	-47.4	19.2	0.00e+00	0	40	0	245366784	62	4537
2026-01-21 06:08:40.34	318.89	9.78	-46.0	-47.5	19.2	0.00e+00	0	40	0	247463936	62	4574
2026-01-21 06:08:41.35	318.78	9.72	-46.0	-47.5	19.1	0.00e+00	0	40	0	249561088	62	4596
2026-01-21 06:08:42.36	318.68	9.65	-46.2	-47.8	18.9	0.00e+00	0	40	0	251658240	62	4714
2026-01-21 06:08:43.37	318.57	9.58	-46.1	-47.7	18.9	0.00e+00	0	40	0	253755392	63	4436
2026-01-21 06:08:44.37	318.47	9.51	-46.4	-48.0	18.6	0.00e+00	0	40	0	254803968	63	4598
2026-01-21 06:08:45.38	318.36	9.44	-46.6	-48.3	18.4	0.00e+00	0	39	0	256901120	63	4737
2026-01-21 06:08:46.39	318.26	9.37	-46.6	-48.3	18.4	0.00e+00	0	40	0	258998272	63	4735
2026-01-21 06:08:47.40	318.15	9.30	-46.6	-48.3	18.4	0.00e+00	0	40	0	261095424	63	4729
2026-01-21 06:08:48.41	318.05	9.23	-46.6	-48.4	18.2	0.00e+00	0	40	0	263192576	64	4512
2026-01-21 06:08:49.41	317.94	9.17	-46.5	-48.3	18.3	0.00e+00	0	40	0	264241152	64	4447
2026-01-21 06:08:50.42	317.84	9.10	-46.4	-48.1	18.5	0.00e+00	0	39	0	266338304	64	4359
2026-01-21 06:08:51.43	317.74	9.03	-46.3	-48.0	18.6	0.00e+00	0	40	0	268435456	64	4311
2026-01-21 06:08:52.44	317.64	8.96	-46.3	-48.0	18.6	0.00e+00	0	39	0	270532608	64	4292
2026-01-21 06:08:53.45	317.54	8.89	-46.3	-48.0	18.6	0.00e+00	0	40	0	272629760	64	4295
2026-01-21 06:08:54.45	317.44	8.83	-46.1	-47.8	18.8	0.00e+00	0	40	0	273678336	64	4208
2026-01-21 06:08:55.46	317.33	8.76	-46.2	-47.8	18.7	0.00e+00	0	40	0	275775488	64	4224
2026-01-21 06:08:56.47	317.23	8.69	-46.1	-47.8	18.7	0.00e+00	0	40	0	277872640	64	4201
2026-01-21 06:08:57.48	317.13	8.62	-46.1	-47.7	18.9	0.00e+00	0	40	0	279969792	63	4409
2026-01-21 06:08:58.48	317.04	8.56	-46.0	-47.5	19.0	0.00e+00	0	40	0	282066944	63	4338
2026-01-21 06:08:59.49	316.94	8.49	-46.3	-47.9	18.7	0.00e+00	0	40	0	283115520	63	4519
2026-01-21 06:09:00.50	316.84	8.42	-46.2	-47.8	18.8	0.00e+00	0	40	0	285212672	63	4458
2026-01-21 06:09:01.51	316.74	8.35	-46.4	-48.1	18.5	0.00e+00	0	40	0	287309824	63	4630
2026-01-21 06:09:02.52	316.64	8.29	-46.6	-48.3	18.3	0.00e+00	0	40	0	289406976	63	4739
2026-01-21 06:09:03.52	316.55	8.22	-46.7	-48.5	18.1	0.00e+00	0	40	0	291504128	63	4833
2026-01-21 06:09:04.53	316.45	8.15	-46.8	-48.7	17.8	0.00e+00	0	40	0	292552704	64	4654
2026-01-21 06:09:05.54	316.36	8.09	-46.8	-48.6	17.9	0.00e+00	0	40	0	294649856	64	4642
2026-01-21 06:09:06.55	316.26	8.02	-46.7	-48.6	17.9	0.00e+00	0	40	0	296747008	64	4617
2026-01-21 06:09:07.55	316.17	7.95	-47.0	-48.9	17.6	0.00e+00	0	40	0	298844160	64	4782
2026-01-21 06:09:08.56	316.07	7.89	-46.9	-48.9	17.6	0.00e+00	0	40	0	300941312	64	4765
2026-01-21 06:09:09.57	315.98	7.82	-47.1	-49.1	17.3	0.00e+00	0	40	0	303038464	65	4643
2026-01-21 06:09:10.58	315.89	7.75	-47.4	-49.5	17.0	0.00e+00	0	40	0	304087040	65	4825
2026-01-21 06:09:11.59	315.79	7.69	-47.2	-49.2	17.4	0.00e+00	0	40	0	306184192	65	4652
2026-01-21 06:09:12.59	315.70	7.62	-47.3	-49.4	17.1	0.00e+00	0	40	0	308281344	65	4781
2026-01-21 06:09:13.60	315.61	7.55	-47.5	-49.6	16.9	0.00e+00	0	40	0	310378496	65	4900
2026-01-21 06:09:14.61	315.52	7.49	-47.4	-49.5	17.0	0.00e+00	0	40	0	311427072	65	4837
2026-01-21 06:09:15.62	315.42	7.42	-47.5	-49.7	16.8	0.00e+00	0	40	0	313524224	65	4939
2026-01-21 06:09:16.63	315.33	7.36	-47.4	-49.6	16.9	0.00e+00	0	40	0	315621376	65	4881
2026-01-21 06:09:17.64	315.24	7.29	-47.4	-49.5	16.9	0.00e+00	0	40	0	317718528	65	4851
2026-01-21 06:09:18.64	315.15	7.23	-47.6	-49.8	16.6	0.00e+00	0	40	0	319815680	65	5010
2026-01-21 06:09:19.65	315.06	7.16	-47.5	-49.7	16.6	0.00e+00	0	40	0	320864256	65	4964
2026-01-21 06:09:20.66	314.97	7.10	-47.3	-49.4	17.0	0.00e+00	0	40	0	322961408	65	4783
2026-01-21 06:09:21.67	314.89	7.03	-47.3	-49.4	17.0	0.00e+00	0	40	0	325058560	65	4768
2026-01-21 06:09:22.67	314.80	6.97	-47.4	-49.4	17.0	0.00e+00	0	40	0	327155712	65	4799
2026-01-21 06:09:23.68	314.71	6.90	-47.3	-49.4	17.0	0.00e+00	0	40	0	329252864	65	4778
2026-01-21 06:09:24.69	314.62	6.83	-47.4	-49.5	16.9	0.00e+00	0	40	0	331350016	65	4818
2026-01-21 06:09:25.70	314.54	6.77	-47.5	-49.6	16.8	0.00e+00	0	40	0	332398592	65	4903
2026-01-21 06:09:26.71	314.45	6.71	-47.3	-49.4	17.0	0.00e+00	0	39	0	334495744	65	4760
2026-01-21 06:09:27.72	314.36	6.64	-47.4	-49.5	16.9	0.00e+00	0	39	0	336592896	65	4844
2026-01-21 06:09:28.72	314.28	6.58	-47.3	-49.4	17.0	0.00e+00	0	40	0	338690048	65	4773
2026-01-21 06:09:29.73	314.19	6.51	-47.3	-49.3	17.0	0.00e+00	0	40	0	339738624	65	4745
2026-01-21 06:09:30.74	314.11	6.45	-47.4	-49.5	16.8	0.00e+00	0	39	0	341835776	65	4866
2026-01-21 06:09:31.75	314.02	6.38	-47.6	-49.8	16.5	0.00e+00	0	40	0	343932928	65	5039
2026-01-21 06:09:32.76	313.94	6.32	-47.5	-49.7	16.6	0.00e+00	0	40	0	346030080	65	4975
2026-01-21 06:09:33.77	313.85	6.25	-47.9	-50.3	16.1	0.00e+00	0	40	0	348127232	66	5000
2026-01-21 06:09:34.77	313.77	6.19	-47.9	-50.3	16.0	0.00e+00	0	40	0	350224384	66	5034
2026-01-21 06:09:35.78	313.69	6.13	-47.8	-50.1	16.3	0.00e+00	0	40	0	351272960	66	4889
2026-01-21 06:09:36.79	313.60	6.06	-47.8	-50.1	16.2	0.00e+00	0	40	0	353370112	66	4904
2026-01-21 06:09:37.80	313.52	6.00	-47.9	-50.3	16.1	0.00e+00	0	40	0	355467264	66	5010
2026-01-21 06:09:38.80	313.44	5.94	-48.1	-50.6	15.7	0.00e+00	0	40	0	357564416	66	5191
2026-01-21 06:09:39.81	313.36	5.87	-47.6	-49.8	16.5	0.00e+00	0	40	0	359661568	66	4739
2026-01-21 06:09:40.82	313.28	5.81	-47.7	-49.9	16.3	0.00e+00	0	40	0	360710144	66	4812
2026-01-21 06:09:41.83	313.19	5.75	-47.7	-50.1	16.3	0.00e+00	0	40	0	362807296	66	4883
2026-01-21 06:09:42.84	313.11	5.68	-47.5	-49.7	16.5	0.00e+00	0	40	0	364904448	66	4695
2026-01-21 06:09:43.85	313.03	5.62	-47.5	-49.7	16.6	0.00e+00	0	40	0	367001600	66	4658
2026-01-21 06:09:44.85	312.95	5.56	-47.2	-49.3	17.0	0.00e+00	0	40	0	368050176	66	4445
2026-01-21 06:09:45.86	312.87	5.49	-47.4	-49.5	16.6	0.00e+00	0	40	0	370147328	66	4580
2026-01-21 06:09:46.87	312.79	5.43	-47.0	-49.0	17.2	0.00e+00	0	40	0	372244480	65	4575
2026-01-21 06:09:47.88	312.72	5.37	-46.9	-48.8	17.4	0.00e+00	0	40	0	374341632	65	4484
2026-01-21 06:09:48.89	312.64	5.31	-47.0	-49.0	17.2	0.00e+00	0	40	0	376438784	65	4580
2026-01-21 06:09:49.89	312.56	5.24	-46.8	-48.7	17.4	0.00e+00	0	40	0	378535936	65	4437
2026-01-21 06:09:50.90	312.48	5.18	-46.7	-48.6	17.6	0.00e+00	0	40	0	379584512	65	4363
2026-01-21 06:09:51.91	312.40	5.12	-46.5	-48.4	17.8	0.00e+00	0	40	0	381681664	65	4244
2026-01-21 06:09:52.92	312.33	5.06	-46.3	-48.1	18.0	0.00e+00	0	40	0	383778816	64	4344
2026-01-21 06:09:53.92	312.25	4.99	-52.3	-64.7	4.2	1.50e-06	23	40	0	385875968	75	15583
2026-01-21 06:09:54.93	312.17	4.93	-52.7	-67.7	3.8	1.49e+00	0	40	104	385875968	75	22011
2026-01-21 06:09:55.94	312.10	4.87	-52.8	-67.7	3.8	1.49e+00	0	40	104	385875968	76	20988
2026-01-21 06:09:56.95	312.02	4.81	-52.8	-67.8	3.8	1.49e+00	0	40	104	385875968	76	21064
2026-01-21 06:09:57.96	311.95	4.75	-52.7	-67.7	3.8	1.49e+00	0	40	104	385875968	76	20885
2026-01-21 06:09:58.97	311.87	4.69	-52.8	-67.7	3.8	1.49e+00	0	40	104	385875968	76	20900
2026-01-21 06:09:59.98	311.80	4.62	-52.8	-67.8	3.8	1.49e+00	0	40	104	385875968	76	21135
2026-01-21 06:10:00.99	311.72	4.56	-52.9	-67.9	3.8	1.49e+00	0	40	104	385875968	76	21261
2026-01-21 06:10:02.00	311.65	4.50	-53.0	-67.9	3.8	1.49e+00	0	40	104	385875968	76	21463
2026-01-21 06:10:03.01	311.57	4.44	-53.0	-68.0	3.8	1.49e+00	0	40	104	385875968	76	21627
2026-01-21 06:10:04.01	311.50	4.38	-53.1	-68.0	3.8	1.49e+00	0	40	104	385875968	76	21731
2026-01-21 06:10:05.02	311.43	4.32	-53.1	-68.1	3.8	1.49e+00	0	40	104	385875968	76	21788
2026-01-21 06:10:06.03	311.36	4.26	-53.2	-68.1	3.8	1.49e+00	0	40	104	385875968	76	21950
2026-01-21 06:10:07.04	311.28	4.20	-53.2	-68.2	3.8	1.49e+00	0	40	104	385875968	76	22090
2026-01-21 06:10:08.05	311.21	4.13	-53.3	-68.3	3.8	1.49e+00	0	40	104	385875968	77	21060
2026-01-21 06:10:09.05	311.14	4.07	-53.3	-68.3	3.8	1.49e+00	0	40	104	385875968	77	21080
2026-01-21 06:10:10.06	311.07	4.01	-53.3	-68.3	3.8	1.49e+00	0	40	104	385875968	77	21036
2026-01-21 06:10:11.07	311.00	3.95	-53.3	-68.3	3.8	1.49e+00	0	40	104	385875968	77	21077
