passes_logs/2026/01/25/planumMaritime01/planumMaritime01__20260125_162630_METEOR-M2_3_rec.log

#Pass ID: 20260125_162630_METEOR-M2 3
#Satellite: METEOR-M2 3
#Configuration: METEOR-M2 3
#Start time: 2026-01-25 16:26:35.657695

#LorettStation: 1.0.0 05.05.2024
#Station: planumMaritime01
#Location: 37.49445 lon 55.92918 lat
#TLE: 1 57166U 23091A   26025.32489204  .00000020  00000+0  27725-4 0  9995
#TLE: 2 57166  98.6312  83.0892 0003344 212.0394 148.0582 14.24032443134183

#Time	Az	El	Level	SNR
2026-01-25 16:26:37.825415	112.6	10.2	-79.5	0.0
2026-01-25 16:26:38.955111	112.5	10.2	-79.8	0.0
2026-01-25 16:26:40.091504	112.4	10.3	-79.0	0.0
2026-01-25 16:26:41.227402	112.3	10.4	-78.3	0.0
2026-01-25 16:26:42.364150	112.2	10.5	-77.8	0.0
2026-01-25 16:26:43.502680	112.0	10.6	-77.2	0.0
2026-01-25 16:26:44.639121	111.9	10.7	-76.8	0.0
2026-01-25 16:26:45.776068	111.8	10.8	-76.8	0.0
2026-01-25 16:26:46.912997	111.7	10.8	-77.6	0.0
2026-01-25 16:26:48.049360	111.6	10.9	-75.7	0.0
2026-01-25 16:26:49.189046	111.5	11.0	-75.8	0.0
2026-01-25 16:26:50.325750	111.3	11.1	-75.5	0.0
2026-01-25 16:26:51.463563	111.2	11.2	-75.5	0.0
2026-01-25 16:26:52.600461	111.1	11.3	-76.1	0.0
2026-01-25 16:26:53.732364	111.0	11.4	-75.8	0.0
2026-01-25 16:26:54.863642	110.9	11.5	-76.3	0.0
2026-01-25 16:26:55.996623	110.7	11.5	-75.7	0.0
2026-01-25 16:26:57.126273	110.6	11.6	-77.0	0.0
2026-01-25 16:26:58.257606	110.5	11.7	-76.5	0.0
2026-01-25 16:26:59.384847	110.4	11.8	-76.3	0.0
2026-01-25 16:27:00.515484	110.2	11.9	-77.0	0.0
2026-01-25 16:27:01.649962	110.1	12.0	-76.4	0.0
2026-01-25 16:27:02.781932	110.0	12.1	-75.7	0.0
2026-01-25 16:27:03.916787	109.9	12.2	-75.2	0.0
2026-01-25 16:27:05.047900	109.7	12.2	-76.4	0.0
2026-01-25 16:27:06.179369	109.6	12.3	-76.1	0.0
2026-01-25 16:27:07.310206	109.5	12.4	-76.6	0.0
2026-01-25 16:27:08.438095	109.4	12.5	-75.8	0.0
2026-01-25 16:27:09.567977	109.2	12.6	-75.6	0.0
2026-01-25 16:27:10.696514	109.1	12.7	-75.4	0.0
2026-01-25 16:27:11.827034	109.0	12.8	-75.7	0.0
2026-01-25 16:27:12.957064	108.8	12.9	-75.6	0.0
2026-01-25 16:27:14.092215	108.7	13.0	-75.8	0.0
2026-01-25 16:27:15.232484	108.6	13.1	-75.2	0.0
2026-01-25 16:27:16.374502	108.4	13.1	-75.3	0.0
2026-01-25 16:27:17.517114	108.3	13.2	-75.6	0.0
2026-01-25 16:27:18.656095	108.1	13.3	-74.4	0.0
2026-01-25 16:27:19.795410	108.0	13.4	-75.4	0.0
2026-01-25 16:27:20.932671	107.9	13.5	-75.3	0.0
2026-01-25 16:27:22.069556	107.7	13.6	-75.7	0.0
2026-01-25 16:27:23.208242	107.6	13.7	-75.5	0.0
2026-01-25 16:27:24.345456	107.4	13.8	-75.5	0.0
2026-01-25 16:27:25.482131	107.3	13.9	-75.9	0.0
2026-01-25 16:27:26.620357	107.1	14.0	-75.4	0.0
2026-01-25 16:27:27.759407	107.0	14.1	-76.1	0.0
2026-01-25 16:27:28.896054	106.8	14.2	-75.0	0.0
2026-01-25 16:27:30.032760	106.7	14.3	-74.5	0.0
2026-01-25 16:27:31.165438	106.6	14.3	-74.7	0.0
2026-01-25 16:27:32.297718	106.4	14.4	-73.8	0.0
2026-01-25 16:27:33.432453	106.3	14.5	-74.2	0.0
2026-01-25 16:27:34.566946	106.1	14.6	-75.8	0.0
2026-01-25 16:27:35.701777	106.0	14.7	-75.9	0.0
2026-01-25 16:27:36.835019	105.8	14.8	-75.8	0.0
2026-01-25 16:27:37.969002	105.6	14.9	-75.9	0.0
2026-01-25 16:27:39.103102	105.5	15.0	-73.3	0.0
2026-01-25 16:27:40.237596	105.3	15.1	-75.0	0.0
2026-01-25 16:27:41.372085	105.2	15.2	-76.0	0.0
2026-01-25 16:27:42.508127	105.0	15.3	-75.2	0.0
2026-01-25 16:27:43.642444	104.9	15.4	-75.2	0.0
2026-01-25 16:27:44.776536	104.7	15.5	-75.8	0.0
2026-01-25 16:27:45.911243	104.5	15.6	-75.2	0.0
2026-01-25 16:27:47.046352	104.4	15.7	-76.0	0.0
2026-01-25 16:27:48.181579	104.2	15.8	-75.7	0.0
2026-01-25 16:27:49.317150	104.0	15.9	-74.9	0.0
2026-01-25 16:27:50.455355	103.9	16.0	-75.1	0.0
2026-01-25 16:27:51.589899	103.7	16.1	-76.0	0.0
2026-01-25 16:27:52.725632	103.5	16.1	-75.3	0.0
2026-01-25 16:27:53.864309	103.4	16.2	-75.8	0.0
2026-01-25 16:27:54.999990	103.2	16.3	-75.6	0.0
2026-01-25 16:27:56.137435	103.0	16.4	-75.9	0.0
2026-01-25 16:27:57.273942	102.9	16.5	-74.4	0.0
2026-01-25 16:27:58.411982	102.7	16.6	-73.8	0.0
2026-01-25 16:27:59.548122	102.5	16.7	-74.1	0.0
2026-01-25 16:28:00.685551	102.3	16.8	-74.0	0.0
2026-01-25 16:28:01.823389	102.2	16.9	-74.0	0.0
2026-01-25 16:28:02.962683	102.0	17.0	-74.9	0.0
2026-01-25 16:28:04.101330	101.8	17.1	-73.3	0.0
2026-01-25 16:28:05.237500	101.6	17.2	-74.3	0.0
2026-01-25 16:28:06.375216	101.4	17.3	-72.6	0.0
2026-01-25 16:28:07.513812	101.3	17.4	-73.3	0.0
2026-01-25 16:28:08.653832	101.1	17.5	-74.8	0.0
2026-01-25 16:28:09.791276	100.9	17.6	-74.3	0.0
2026-01-25 16:28:10.930704	100.7	17.7	-74.9	0.0
2026-01-25 16:28:12.065497	100.5	17.8	-73.6	0.0
2026-01-25 16:28:13.202956	100.3	17.9	-71.3	0.0
2026-01-25 16:28:14.339400	100.1	18.0	-73.4	0.0
2026-01-25 16:28:15.478931	99.9	18.1	-74.8	0.0
2026-01-25 16:28:16.614149	99.7	18.2	-75.1	0.0
2026-01-25 16:28:17.750934	99.6	18.3	-74.2	0.0
2026-01-25 16:28:18.889878	99.4	18.4	-73.5	0.0
2026-01-25 16:28:20.025186	99.2	18.5	-72.9	0.0
2026-01-25 16:28:21.161734	99.0	18.6	-74.6	0.0
2026-01-25 16:28:22.298409	98.8	18.7	-74.2	0.0
2026-01-25 16:28:23.426454	98.6	18.8	-73.0	0.0
2026-01-25 16:28:24.556483	98.4	18.9	-73.6	0.0
2026-01-25 16:28:25.686379	98.2	19.0	-74.5	0.0
2026-01-25 16:28:26.816927	98.0	19.1	-74.9	0.0
2026-01-25 16:28:27.946372	97.8	19.2	-74.4	0.0
2026-01-25 16:28:29.075852	97.5	19.3	-74.1	0.0
2026-01-25 16:28:30.205092	97.3	19.4	-75.1	0.0
2026-01-25 16:28:31.334332	97.1	19.5	-74.9	0.0
2026-01-25 16:28:32.466438	96.9	19.6	-74.0	0.0
2026-01-25 16:28:33.595762	96.7	19.7	-74.4	0.0
2026-01-25 16:28:34.728296	96.5	19.8	-72.9	0.0
2026-01-25 16:28:35.857520	96.3	19.9	-72.6	0.0
2026-01-25 16:28:36.987911	96.1	20.0	-71.7	0.0
2026-01-25 16:28:38.117341	95.9	20.1	-73.3	0.0
2026-01-25 16:28:39.244760	95.6	20.2	-74.2	0.0
2026-01-25 16:28:40.374343	95.4	20.3	-73.2	0.0
2026-01-25 16:28:41.503537	95.2	20.4	-73.5	0.0
2026-01-25 16:28:42.632568	95.0	20.5	-72.8	0.0
2026-01-25 16:28:43.766174	94.7	20.6	-73.1	0.0
2026-01-25 16:28:44.904788	94.5	20.7	-73.2	0.0
2026-01-25 16:28:46.041907	94.3	20.8	-72.5	0.0
2026-01-25 16:28:47.181147	94.1	20.8	-73.3	0.0
2026-01-25 16:28:48.317433	93.8	20.9	-74.7	0.0
2026-01-25 16:28:49.456259	93.6	21.0	-74.5	0.0
2026-01-25 16:28:50.595315	93.4	21.1	-74.2	0.0
2026-01-25 16:28:51.733212	93.1	21.2	-73.7	0.0
2026-01-25 16:28:52.872661	92.9	21.3	-74.4	0.0
2026-01-25 16:28:54.012422	92.6	21.4	-73.6	0.0
2026-01-25 16:28:55.152428	92.4	21.5	-73.6	0.0
2026-01-25 16:28:56.291983	92.2	21.6	-72.1	0.0
2026-01-25 16:28:57.430268	91.9	21.7	-74.1	0.0
2026-01-25 16:28:58.569129	91.7	21.8	-72.1	0.0
2026-01-25 16:28:59.706196	91.4	21.9	-72.6	0.0
2026-01-25 16:29:00.840908	91.2	22.0	-72.3	0.0
2026-01-25 16:29:01.974311	90.9	22.1	-73.1	0.0
2026-01-25 16:29:03.106691	90.7	22.2	-73.7	0.0
2026-01-25 16:29:04.237752	90.4	22.3	-74.3	0.0
2026-01-25 16:29:05.367623	90.2	22.4	-72.8	0.0
2026-01-25 16:29:06.496433	89.9	22.5	-72.8	0.0
2026-01-25 16:29:07.627553	89.7	22.6	-73.2	0.0
2026-01-25 16:29:08.757144	89.4	22.7	-73.6	0.0
2026-01-25 16:29:09.887400	89.1	22.8	-74.7	0.0
2026-01-25 16:29:11.017156	88.9	22.9	-73.5	0.0
2026-01-25 16:29:12.148710	88.6	23.0	-73.8	0.0
2026-01-25 16:29:13.280728	88.4	23.1	-73.2	0.0
2026-01-25 16:29:14.411944	88.1	23.1	-72.3	0.0
2026-01-25 16:29:15.543407	87.8	23.2	-73.7	0.0
2026-01-25 16:29:16.672191	87.6	23.3	-74.1	0.0
2026-01-25 16:29:17.803854	87.3	23.4	-74.3	0.0
2026-01-25 16:29:18.935970	87.0	23.5	-73.7	0.0
2026-01-25 16:29:20.067329	86.7	23.6	-73.0	0.0
2026-01-25 16:29:21.204827	86.5	23.7	-73.8	0.0
2026-01-25 16:29:22.342843	86.2	23.8	-74.5	0.0
2026-01-25 16:29:23.481313	85.9	23.9	-74.8	0.0
2026-01-25 16:29:24.618210	85.6	24.0	-74.0	0.0
2026-01-25 16:29:25.753085	85.3	24.1	-73.9	0.0
2026-01-25 16:29:26.890462	85.1	24.1	-73.9	0.0
2026-01-25 16:29:28.030254	84.8	24.2	-73.4	0.0
2026-01-25 16:29:29.169597	84.5	24.3	-74.3	0.0
2026-01-25 16:29:30.307961	84.2	24.4	-74.0	0.0
2026-01-25 16:29:31.447045	83.9	24.5	-74.7	0.0
2026-01-25 16:29:32.586629	83.6	24.6	-74.9	0.0
2026-01-25 16:29:33.722420	83.3	24.7	-73.8	0.0
2026-01-25 16:29:34.863103	83.0	24.8	-72.8	0.0
2026-01-25 16:29:36.002901	82.7	24.8	-74.1	0.0
2026-01-25 16:29:37.140421	82.4	24.9	-74.8	0.0
2026-01-25 16:29:38.276105	82.1	25.0	-74.7	1.0
2026-01-25 16:29:39.413843	81.8	25.1	-73.4	0.0
2026-01-25 16:29:40.549068	81.5	25.2	-72.7	0.0
2026-01-25 16:29:41.682210	81.2	25.2	-74.8	0.0
2026-01-25 16:29:42.818428	80.9	25.3	-74.1	0.0
2026-01-25 16:29:43.952880	80.6	25.4	-73.3	0.0
2026-01-25 16:29:45.087232	80.3	25.5	-74.5	1.6
2026-01-25 16:29:46.221433	80.0	25.6	-73.0	0.0
2026-01-25 16:29:47.355911	79.7	25.6	-75.1	2.5
2026-01-25 16:29:48.492082	79.3	25.7	-73.5	0.0
2026-01-25 16:29:49.629304	79.0	25.8	-73.4	0.0
2026-01-25 16:29:50.767126	78.7	25.9	-74.6	0.0
2026-01-25 16:29:51.901704	78.4	26.0	-74.6	0.0
2026-01-25 16:29:53.038226	78.1	26.0	-76.3	1.6
2026-01-25 16:29:54.174005	77.7	26.1	-75.2	0.8
2026-01-25 16:29:55.310382	77.4	26.2	-75.2	0.0
2026-01-25 16:29:56.451090	77.1	26.2	-73.9	0.0
2026-01-25 16:29:57.584924	76.8	26.3	-73.1	0.0
2026-01-25 16:29:58.720193	76.4	26.4	-71.4	0.0
2026-01-25 16:29:59.858783	76.1	26.5	-73.5	0.0
2026-01-25 16:30:00.996428	75.8	26.5	-71.3	0.0
2026-01-25 16:30:02.131555	75.4	26.6	-74.2	0.0
2026-01-25 16:30:03.266513	75.1	26.7	-73.6	0.0
2026-01-25 16:30:04.403250	74.8	26.7	-75.0	0.0
2026-01-25 16:30:05.535392	74.4	26.8	-75.1	0.0
2026-01-25 16:30:06.669982	74.1	26.9	-74.4	0.0
2026-01-25 16:30:07.805125	73.8	26.9	-74.1	0.0
2026-01-25 16:30:08.938349	73.4	27.0	-72.7	0.0
2026-01-25 16:30:10.071041	73.1	27.0	-70.7	0.0
2026-01-25 16:30:11.209611	72.7	27.1	-73.3	0.0
2026-01-25 16:30:12.345576	72.4	27.2	-75.5	0.6
2026-01-25 16:30:13.480622	72.0	27.2	-74.3	0.0
2026-01-25 16:30:14.614942	71.7	27.3	-74.0	0.0
2026-01-25 16:30:15.750686	71.3	27.3	-75.4	0.0
2026-01-25 16:30:16.885387	71.0	27.4	-74.9	0.0
2026-01-25 16:30:18.019457	70.6	27.4	-74.1	0.0
2026-01-25 16:30:19.154996	70.3	27.5	-72.7	0.0
2026-01-25 16:30:20.286657	69.9	27.5	-72.9	0.0
2026-01-25 16:30:21.422644	69.6	27.6	-73.3	0.0
2026-01-25 16:30:22.558396	69.2	27.6	-71.4	0.0
2026-01-25 16:30:23.697730	68.9	27.7	-73.1	0.0
2026-01-25 16:30:24.833196	68.5	27.7	-72.9	0.0
2026-01-25 16:30:25.966929	68.2	27.8	-72.6	0.0
2026-01-25 16:30:27.102770	67.8	27.8	-71.2	0.0
2026-01-25 16:30:28.236225	67.4	27.9	-72.1	0.0
2026-01-25 16:30:29.369189	67.1	27.9	-71.6	0.0
2026-01-25 16:30:30.502892	66.7	28.0	-70.0	0.0
2026-01-25 16:30:31.637076	66.3	28.0	-71.7	0.0
2026-01-25 16:30:32.765128	66.0	28.0	-71.4	0.0
2026-01-25 16:30:33.893208	65.6	28.1	-72.0	0.0
2026-01-25 16:30:35.020220	65.3	28.1	-72.4	0.0
2026-01-25 16:30:36.147895	64.9	28.1	-72.8	0.0
2026-01-25 16:30:37.274277	64.5	28.2	-72.1	0.0
2026-01-25 16:30:38.400917	64.2	28.2	-69.6	0.0
2026-01-25 16:30:39.527711	63.8	28.2	-73.0	0.0
2026-01-25 16:30:40.654080	63.4	28.3	-71.6	0.0
2026-01-25 16:30:41.783522	63.1	28.3	-72.4	0.0
2026-01-25 16:30:42.911577	62.7	28.3	-71.4	0.0
2026-01-25 16:30:44.038460	62.3	28.4	-71.7	0.0
2026-01-25 16:30:45.166058	62.0	28.4	-74.6	0.0
2026-01-25 16:30:46.293822	61.6	28.4	-72.5	0.0
2026-01-25 16:30:47.422921	61.2	28.4	-71.9	0.0
2026-01-25 16:30:48.550026	60.8	28.4	-71.0	0.0
2026-01-25 16:30:49.677416	60.5	28.5	-71.6	0.0
2026-01-25 16:30:50.811654	60.1	28.5	-72.7	0.0
2026-01-25 16:30:51.943313	59.7	28.5	-72.0	0.0
2026-01-25 16:30:53.072484	59.3	28.5	-71.5	0.0
2026-01-25 16:30:54.207579	59.0	28.5	-72.2	0.0
2026-01-25 16:30:55.337942	58.6	28.5	-71.7	0.0
2026-01-25 16:30:56.465716	58.2	28.6	-72.1	0.0
2026-01-25 16:30:57.595791	57.8	28.6	-71.2	0.0
2026-01-25 16:30:58.731860	57.5	28.6	-71.3	0.0
2026-01-25 16:30:59.864854	57.1	28.6	-70.9	0.0
2026-01-25 16:31:01.000385	56.7	28.6	-71.4	0.0
2026-01-25 16:31:02.136934	56.3	28.6	-71.8	0.0
2026-01-25 16:31:03.274579	56.0	28.6	-70.7	0.0
2026-01-25 16:31:04.408373	55.6	28.6	-70.9	0.0
2026-01-25 16:31:05.541445	55.2	28.6	-70.3	0.0
2026-01-25 16:31:06.678794	54.8	28.6	-69.4	0.0
2026-01-25 16:31:07.815811	54.4	28.6	-69.4	0.0
2026-01-25 16:31:08.954460	54.1	28.6	-69.0	0.0
2026-01-25 16:31:10.092346	53.7	28.6	-70.4	0.0
2026-01-25 16:31:11.228427	53.3	28.6	-71.1	0.0
2026-01-25 16:31:12.367468	52.9	28.6	-70.6	0.0
2026-01-25 16:31:13.509252	52.6	28.6	-72.0	0.0
2026-01-25 16:31:14.646975	52.2	28.6	-68.7	0.0
2026-01-25 16:31:15.783931	51.8	28.5	-70.0	0.0
2026-01-25 16:31:16.915909	51.4	28.5	-70.8	0.0
2026-01-25 16:31:18.045172	51.0	28.5	-69.0	0.0
2026-01-25 16:31:19.173761	50.7	28.5	-69.1	0.0
2026-01-25 16:31:20.302804	50.3	28.5	-69.8	0.0
2026-01-25 16:31:21.434146	49.9	28.5	-69.6	0.0
2026-01-25 16:31:22.564341	49.6	28.4	-69.0	0.0
2026-01-25 16:31:23.695855	49.2	28.4	-69.6	0.0
2026-01-25 16:31:24.826381	48.8	28.4	-69.2	0.0
2026-01-25 16:31:25.958181	48.4	28.4	-70.2	0.0
2026-01-25 16:31:27.088048	48.1	28.3	-67.9	0.0
2026-01-25 16:31:28.219191	47.7	28.3	-69.3	0.0
2026-01-25 16:31:29.350038	47.3	28.3	-69.5	0.0
2026-01-25 16:31:30.478814	47.0	28.3	-64.6	0.0
2026-01-25 16:31:31.608566	46.6	28.2	-69.8	0.0
2026-01-25 16:31:32.740891	46.2	28.2	-67.9	0.0
2026-01-25 16:31:33.871262	45.9	28.2	-69.1	0.0
2026-01-25 16:31:35.003114	45.5	28.1	-68.9	0.0
2026-01-25 16:31:36.132963	45.1	28.1	-69.5	0.0
2026-01-25 16:31:37.269459	44.8	28.1	-66.9	0.0
2026-01-25 16:31:38.407975	44.4	28.0	-67.0	0.0
2026-01-25 16:31:39.546748	44.0	28.0	-67.7	0.0
2026-01-25 16:31:40.682479	43.7	27.9	-66.8	0.0
2026-01-25 16:31:41.821591	43.3	27.9	-66.2	0.0
2026-01-25 16:31:42.959860	42.9	27.9	-68.7	0.0
2026-01-25 16:31:44.097232	42.6	27.8	-69.3	0.0
2026-01-25 16:31:45.234232	42.2	27.8	-67.3	0.0
2026-01-25 16:31:46.373728	41.9	27.7	-65.4	0.0
2026-01-25 16:31:47.512640	41.5	27.7	-67.0	0.0
2026-01-25 16:31:48.647768	41.2	27.6	-67.1	0.0
2026-01-25 16:31:49.789326	40.8	27.6	-65.8	0.0
2026-01-25 16:31:50.926390	40.4	27.5	-66.7	0.0
2026-01-25 16:31:52.067186	40.1	27.5	-67.6	0.0
2026-01-25 16:31:53.204569	39.7	27.4	-66.6	0.0
2026-01-25 16:31:54.341325	39.4	27.4	-67.8	0.0
2026-01-25 16:31:55.476207	39.0	27.3	-67.2	0.0
2026-01-25 16:31:56.611940	38.7	27.3	-65.4	0.0
2026-01-25 16:31:57.746546	38.3	27.2	-67.1	0.0
2026-01-25 16:31:58.883808	38.0	27.1	-67.0	0.0
2026-01-25 16:32:00.018961	37.7	27.1	-63.7	0.0
2026-01-25 16:32:01.152977	37.3	27.0	-67.2	0.0
2026-01-25 16:32:02.288456	37.0	27.0	-65.9	0.0
2026-01-25 16:32:03.423450	36.6	26.9	-65.1	0.0
2026-01-25 16:32:04.563332	36.3	26.8	-66.5	0.0
2026-01-25 16:32:05.698849	36.0	26.8	-65.7	0.0
2026-01-25 16:32:06.834972	35.6	26.7	-66.0	0.0
2026-01-25 16:32:07.969732	35.3	26.6	-67.3	0.0
2026-01-25 16:32:09.104398	35.0	26.6	-64.7	0.0
2026-01-25 16:32:10.242003	34.6	26.5	-65.7	0.0
2026-01-25 16:32:11.381197	34.3	26.4	-64.5	0.0
2026-01-25 16:32:12.517599	34.0	26.4	-68.0	0.0
2026-01-25 16:32:13.653339	33.6	26.3	-63.7	0.0
2026-01-25 16:32:14.792442	33.3	26.2	-62.2	0.0
2026-01-25 16:32:15.929118	33.0	26.1	-65.0	0.0
2026-01-25 16:32:17.064776	32.7	26.1	-66.1	0.0
2026-01-25 16:32:18.199354	32.3	26.0	-64.9	0.0
2026-01-25 16:32:19.336134	32.0	25.9	-66.5	0.0
2026-01-25 16:32:20.475413	31.7	25.8	-67.2	0.0
2026-01-25 16:32:21.609309	31.4	25.8	-66.3	0.0
2026-01-25 16:32:22.744199	31.1	25.7	-64.9	0.0
2026-01-25 16:32:23.882300	30.8	25.6	-62.7	0.0
2026-01-25 16:32:25.017367	30.5	25.5	-63.3	0.0
2026-01-25 16:32:26.152871	30.1	25.5	-63.4	0.0
2026-01-25 16:32:27.289662	29.8	25.4	-64.5	0.0
2026-01-25 16:32:28.426168	29.5	25.3	-65.0	0.0
2026-01-25 16:32:29.562393	29.2	25.2	-64.9	0.0
2026-01-25 16:32:30.698155	28.9	25.1	-63.5	0.0
2026-01-25 16:32:31.835136	28.6	25.1	-64.8	0.0
2026-01-25 16:32:32.971541	28.3	25.0	-63.5	0.0
2026-01-25 16:32:34.110785	28.0	24.9	-64.0	0.0
2026-01-25 16:32:35.247974	27.7	24.8	-63.2	0.0
2026-01-25 16:32:36.385081	27.4	24.7	-62.8	0.0
2026-01-25 16:32:37.522449	27.1	24.6	-62.5	0.0
2026-01-25 16:32:38.660761	26.8	24.6	-62.7	0.0
2026-01-25 16:32:39.798000	26.5	24.5	-61.2	0.0
2026-01-25 16:32:40.932738	26.3	24.4	-63.3	0.0
2026-01-25 16:32:42.068387	26.0	24.3	-62.9	0.0
2026-01-25 16:32:43.206147	25.7	24.2	-65.1	0.0
2026-01-25 16:32:44.339674	25.4	24.1	-65.7	0.0
2026-01-25 16:32:45.470183	25.1	24.0	-63.8	0.0
2026-01-25 16:32:46.597564	24.8	23.9	-61.5	0.0
2026-01-25 16:32:47.727184	24.6	23.8	-63.8	0.0
2026-01-25 16:32:48.855330	24.3	23.8	-63.3	0.0
2026-01-25 16:32:49.985897	24.0	23.7	-64.3	0.0
2026-01-25 16:32:51.114133	23.7	23.6	-62.3	0.0
2026-01-25 16:32:52.241804	23.5	23.5	-61.6	0.0
2026-01-25 16:32:53.370583	23.2	23.4	-61.0	0.0
2026-01-25 16:32:54.497200	22.9	23.3	-59.5	0.0
2026-01-25 16:32:55.626979	22.7	23.2	-63.5	0.0
2026-01-25 16:32:56.756646	22.4	23.1	-60.0	0.0
2026-01-25 16:32:57.889555	22.1	23.0	-64.3	0.0
2026-01-25 16:32:59.018193	21.9	22.9	-63.7	0.0
2026-01-25 16:33:00.146397	21.6	22.8	-62.2	0.0
2026-01-25 16:33:01.273397	21.3	22.8	-61.6	0.0
2026-01-25 16:33:02.404083	21.1	22.7	-62.8	0.0
2026-01-25 16:33:03.530589	20.8	22.6	-64.6	0.0
2026-01-25 16:33:04.660554	20.6	22.5	-62.9	0.0
2026-01-25 16:33:05.793288	20.3	22.4	-63.4	0.0
2026-01-25 16:33:06.930877	20.1	22.3	-64.1	0.0
2026-01-25 16:33:08.071738	19.8	22.2	-64.2	0.0
2026-01-25 16:33:09.207118	19.6	22.1	-64.3	0.0
2026-01-25 16:33:10.345275	19.3	22.0	-63.5	0.0
2026-01-25 16:33:11.487780	19.1	21.9	-61.5	0.0
2026-01-25 16:33:12.627263	18.8	21.8	-64.1	0.0
2026-01-25 16:33:13.767870	18.6	21.7	-63.1	0.0
2026-01-25 16:33:14.907240	18.3	21.6	-60.8	0.0
2026-01-25 16:33:16.044755	18.1	21.5	-64.8	0.0
2026-01-25 16:33:17.179603	17.9	21.4	-66.4	0.0
2026-01-25 16:33:18.316722	17.6	21.3	-61.3	0.0
2026-01-25 16:33:19.459389	17.4	21.2	-66.2	0.0
2026-01-25 16:33:20.595958	17.2	21.1	-64.2	0.0
2026-01-25 16:33:21.734421	16.9	21.0	-65.1	0.0
2026-01-25 16:33:22.865338	16.7	20.9	-63.3	0.0
2026-01-25 16:33:23.997935	16.5	20.8	-66.5	0.0
2026-01-25 16:33:25.129267	16.2	20.7	-63.1	0.0
2026-01-25 16:33:26.259866	16.0	20.6	-64.0	0.0
2026-01-25 16:33:27.391232	15.8	20.5	-62.1	0.0
2026-01-25 16:33:28.526651	15.6	20.4	-61.9	0.0
2026-01-25 16:33:29.656451	15.3	20.3	-62.2	0.0
2026-01-25 16:33:30.787479	15.1	20.2	-65.1	0.0
2026-01-25 16:33:31.917810	14.9	20.2	-65.4	0.0
2026-01-25 16:33:33.049589	14.7	20.1	-64.3	0.0
2026-01-25 16:33:34.178887	14.5	20.0	-63.3	0.0
2026-01-25 16:33:35.309593	14.3	19.9	-65.0	0.0
2026-01-25 16:33:36.443373	14.0	19.8	-63.7	0.0
2026-01-25 16:33:37.574359	13.8	19.7	-62.4	0.0
2026-01-25 16:33:38.706375	13.6	19.6	-63.4	0.0
2026-01-25 16:33:39.837402	13.4	19.5	-64.1	0.0
2026-01-25 16:33:40.970763	13.2	19.4	-61.4	0.0
2026-01-25 16:33:42.105966	13.0	19.3	-60.1	0.0
2026-01-25 16:33:43.244525	12.8	19.2	-66.1	0.0
2026-01-25 16:33:44.384332	12.6	19.1	-64.9	0.0
2026-01-25 16:33:45.521253	12.4	19.0	-62.2	0.0
2026-01-25 16:33:46.658648	12.2	18.9	-64.2	0.0
2026-01-25 16:33:47.793283	12.0	18.8	-64.6	0.0
2026-01-25 16:33:48.933727	11.8	18.7	-65.7	0.0
2026-01-25 16:33:50.071865	11.6	18.6	-62.3	0.0
2026-01-25 16:33:51.209344	11.4	18.5	-66.8	0.0
2026-01-25 16:33:52.344920	11.2	18.4	-66.0	0.0
2026-01-25 16:33:53.482546	11.0	18.3	-66.0	0.0
2026-01-25 16:33:54.619220	10.8	18.2	-65.1	0.0
2026-01-25 16:33:55.758491	10.6	18.1	-66.1	0.0
2026-01-25 16:33:56.897434	10.4	18.0	-63.7	0.0
2026-01-25 16:33:58.035715	10.2	17.9	-64.2	0.0
2026-01-25 16:33:59.170977	10.1	17.8	-64.2	0.0
2026-01-25 16:34:00.304875	9.9	17.7	-64.0	0.0
2026-01-25 16:34:01.443439	9.7	17.6	-63.4	0.0
2026-01-25 16:34:02.579463	9.5	17.5	-64.0	0.0
2026-01-25 16:34:03.712773	9.3	17.4	-65.7	0.0
2026-01-25 16:34:04.849335	9.1	17.3	-64.7	0.0
2026-01-25 16:34:05.989346	9.0	17.2	-65.4	0.0
2026-01-25 16:34:07.127195	8.8	17.1	-70.3	0.0
2026-01-25 16:34:08.262980	8.6	17.0	-66.0	0.0
2026-01-25 16:34:09.400046	8.4	16.9	-63.8	0.0
2026-01-25 16:34:10.535367	8.2	16.8	-66.4	0.0
2026-01-25 16:34:11.669617	8.1	16.7	-67.2	0.0
2026-01-25 16:34:12.804649	7.9	16.6	-65.9	0.0
2026-01-25 16:34:13.941170	7.7	16.5	-64.3	0.0
2026-01-25 16:34:15.079332	7.6	16.4	-65.1	0.0
2026-01-25 16:34:16.213812	7.4	16.3	-63.9	0.0
2026-01-25 16:34:17.348220	7.2	16.2	-67.2	0.0
2026-01-25 16:34:18.486934	7.0	16.2	-66.4	0.0
2026-01-25 16:34:19.625511	6.9	16.1	-68.2	0.0
2026-01-25 16:34:20.764055	6.7	16.0	-65.0	0.0
2026-01-25 16:34:21.902082	6.6	15.9	-68.5	0.0
2026-01-25 16:34:23.039213	6.4	15.8	-69.6	0.0
2026-01-25 16:34:24.177154	6.2	15.7	-66.5	0.0
2026-01-25 16:34:25.314775	6.1	15.6	-68.7	0.0
2026-01-25 16:34:26.453748	5.9	15.5	-68.4	0.0
2026-01-25 16:34:27.592859	5.7	15.4	-69.3	0.0
2026-01-25 16:34:28.732087	5.6	15.3	-70.2	0.0
2026-01-25 16:34:29.867812	5.4	15.2	-67.3	0.0
2026-01-25 16:34:31.006843	5.3	15.1	-66.9	0.0
2026-01-25 16:34:32.144157	5.1	15.0	-68.5	0.0
2026-01-25 16:34:33.281521	5.0	14.9	-69.2	0.0
2026-01-25 16:34:34.417284	4.8	14.8	-69.3	0.0
2026-01-25 16:34:35.552363	4.7	14.7	-68.8	0.0
2026-01-25 16:34:36.691095	4.5	14.6	-67.1	0.0
2026-01-25 16:34:37.825344	4.4	14.5	-69.1	0.0
2026-01-25 16:34:38.963033	4.2	14.4	-68.9	0.0
2026-01-25 16:34:40.099239	4.1	14.4	-69.1	0.0
2026-01-25 16:34:41.237437	3.9	14.3	-69.9	0.0
2026-01-25 16:34:42.376131	3.8	14.2	-68.5	0.0
2026-01-25 16:34:43.514176	3.6	14.1	-70.8	0.0
2026-01-25 16:34:44.649635	3.5	14.0	-68.2	0.0
2026-01-25 16:34:45.787571	3.3	13.9	-68.2	0.0
2026-01-25 16:34:46.923571	3.2	13.8	-68.7	0.0
2026-01-25 16:34:48.057683	3.1	13.7	-66.6	0.0
2026-01-25 16:34:49.195583	2.9	13.6	-66.8	0.0
2026-01-25 16:34:50.330234	2.8	13.5	-70.5	0.0
2026-01-25 16:34:51.458972	2.6	13.4	-69.2	0.0
2026-01-25 16:34:52.590621	2.5	13.3	-67.6	0.0
2026-01-25 16:34:53.720499	2.4	13.3	-65.9	0.0
2026-01-25 16:34:54.851529	2.2	13.2	-64.6	0.0
2026-01-25 16:34:55.982860	2.1	13.1	-68.7	0.0
2026-01-25 16:34:57.116111	2.0	13.0	-68.2	0.0
2026-01-25 16:34:58.243011	1.8	12.9	-68.8	0.0
2026-01-25 16:34:59.371229	1.7	12.8	-67.5	0.0
2026-01-25 16:35:00.498405	1.6	12.7	-70.4	0.0
2026-01-25 16:35:01.626537	1.4	12.6	-65.6	0.0
2026-01-25 16:35:02.751503	1.3	12.5	-67.9	0.0
2026-01-25 16:35:03.877947	1.2	12.4	-70.4	0.0
2026-01-25 16:35:05.005484	1.0	12.4	-68.0	0.0
2026-01-25 16:35:06.132204	0.9	12.3	-66.7	0.0
2026-01-25 16:35:07.262707	0.8	12.2	-70.9	0.0
2026-01-25 16:35:08.391666	0.7	12.1	-67.9	0.0
2026-01-25 16:35:09.517516	0.5	12.0	-69.3	0.0
2026-01-25 16:35:10.645221	0.4	11.9	-70.7	0.0
2026-01-25 16:35:11.772061	0.3	11.8	-68.8	0.0
2026-01-25 16:35:12.900329	0.2	11.7	-67.9	0.0
2026-01-25 16:35:14.026688	0.1	11.7	-68.6	0.0
2026-01-25 16:35:15.154814	359.9	11.6	-68.8	0.0
2026-01-25 16:35:16.283378	359.8	11.5	-68.1	0.0
2026-01-25 16:35:17.415928	359.7	11.4	-68.2	0.0
2026-01-25 16:35:18.551542	359.6	11.3	-68.7	0.0
2026-01-25 16:35:19.684680	359.5	11.2	-69.4	0.0
2026-01-25 16:35:20.817863	359.3	11.1	-69.0	0.0
2026-01-25 16:35:21.952836	359.2	11.0	-69.5	0.0
2026-01-25 16:35:23.086385	359.1	11.0	-68.5	0.0
2026-01-25 16:35:24.222883	359.0	10.9	-67.9	0.0
2026-01-25 16:35:25.356734	358.9	10.8	-65.1	0.0
2026-01-25 16:35:26.489200	358.8	10.7	-67.5	0.0
2026-01-25 16:35:27.624522	358.6	10.6	-67.3	0.0
2026-01-25 16:35:28.757764	358.5	10.5	-64.6	0.0
2026-01-25 16:35:29.891884	358.4	10.4	-67.3	0.0
2026-01-25 16:35:31.026493	358.3	10.4	-69.9	0.0
2026-01-25 16:35:32.158449	358.2	10.3	-74.1	0.0
2026-01-25 16:35:33.294523	358.1	10.2	-77.8	0.0
2026-01-25 16:35:34.426338	358.0	10.1	-76.7	0.0
2026-01-25 16:35:35.558452	357.9	10.0	-77.0	0.0
#Closed at: 2026-01-25 16:26:30.662960