passes_logs/2026/01/25/planumMaritime01/planumMaritime01__20260125_012139_METEOR-M2_4_rec.log

#Pass ID: 20260125_012139_METEOR-M2 4
#Satellite: METEOR-M2 4
#Configuration: METEOR-M2 4
#Start time: 2026-01-25 01:21:44.350278

#LorettStation: 1.0.0 05.05.2024
#Station: planumMaritime01
#Location: 37.49445 lon 55.92918 lat
#TLE: 1 59051U 24039A   26024.26280030  .00000113  00000+0  70284-4 0  9992
#TLE: 2 59051  98.6828 345.5183 0006251 220.2927 139.7788 14.22409431 98808

#Time	Az	El	Level	SNR
2026-01-25 01:21:46.529957	13.4	10.2	-77.1	0.0
2026-01-25 01:21:47.666890	13.4	10.3	-78.2	0.0
2026-01-25 01:21:48.802100	13.4	10.4	-75.0	0.0
2026-01-25 01:21:49.940781	13.4	10.5	-76.4	0.0
2026-01-25 01:21:51.077646	13.3	10.6	-77.4	0.0
2026-01-25 01:21:52.214151	13.3	10.7	-76.0	0.0
2026-01-25 01:21:53.352647	13.3	10.8	-73.8	0.0
2026-01-25 01:21:54.491161	13.3	10.9	-74.6	0.0
2026-01-25 01:21:55.627084	13.3	11.0	-72.8	0.0
2026-01-25 01:21:56.763064	13.2	11.1	-72.7	0.0
2026-01-25 01:21:57.897733	13.2	11.2	-72.3	0.0
2026-01-25 01:21:59.035326	13.2	11.3	-72.7	0.0
2026-01-25 01:22:00.171052	13.2	11.4	-73.8	0.0
2026-01-25 01:22:01.310294	13.1	11.5	-72.8	0.0
2026-01-25 01:22:02.450497	13.1	11.6	-73.9	0.0
2026-01-25 01:22:03.588958	13.1	11.7	-74.5	0.0
2026-01-25 01:22:04.725956	13.1	11.8	-74.1	0.0
2026-01-25 01:22:05.863971	13.0	11.9	-71.8	0.0
2026-01-25 01:22:07.001077	13.0	12.0	-72.9	0.0
2026-01-25 01:22:08.140424	13.0	12.1	-73.0	0.0
2026-01-25 01:22:09.279251	13.0	12.2	-73.5	0.0
2026-01-25 01:22:10.411416	12.9	12.4	-73.9	0.0
2026-01-25 01:22:11.540621	12.9	12.5	-73.4	0.0
2026-01-25 01:22:12.678943	12.9	12.6	-74.5	0.0
2026-01-25 01:22:13.818465	12.9	12.7	-74.5	0.0
2026-01-25 01:22:14.955073	12.8	12.8	-74.4	0.0
2026-01-25 01:22:16.092125	12.8	12.9	-72.3	0.0
2026-01-25 01:22:17.229894	12.8	13.0	-71.6	0.0
2026-01-25 01:22:18.362360	12.8	13.1	-72.4	0.0
2026-01-25 01:22:19.495100	12.7	13.2	-71.3	0.0
2026-01-25 01:22:20.628571	12.7	13.3	-72.3	0.0
2026-01-25 01:22:21.764702	12.7	13.5	-74.1	1.7
2026-01-25 01:22:22.900100	12.7	13.6	-75.0	0.0
2026-01-25 01:22:24.034255	12.6	13.7	-72.1	0.0
2026-01-25 01:22:25.166574	12.6	13.8	-74.1	0.0
2026-01-25 01:22:26.300164	12.6	13.9	-73.8	0.2
2026-01-25 01:22:27.432657	12.5	14.0	-73.3	0.0
2026-01-25 01:22:28.566827	12.5	14.1	-73.4	0.0
2026-01-25 01:22:29.701455	12.5	14.3	-73.7	0.0
2026-01-25 01:22:30.833772	12.5	14.4	-73.3	0.0
2026-01-25 01:22:31.968747	12.4	14.5	-71.7	0.0
2026-01-25 01:22:33.103894	12.4	14.6	-74.4	1.6
2026-01-25 01:22:34.236164	12.4	14.7	-72.2	0.0
2026-01-25 01:22:35.373723	12.3	14.8	-72.2	0.0
2026-01-25 01:22:36.513136	12.3	15.0	-74.1	0.0
2026-01-25 01:22:37.646572	12.3	15.1	-74.5	0.7
2026-01-25 01:22:38.784442	12.2	15.2	-73.6	0.0
2026-01-25 01:22:39.922797	12.2	15.3	-74.3	0.0
2026-01-25 01:22:41.058879	12.2	15.5	-72.6	0.0
2026-01-25 01:22:42.196462	12.1	15.6	-72.4	0.0
2026-01-25 01:22:43.331207	12.1	15.7	-74.7	0.0
2026-01-25 01:22:44.469510	12.1	15.8	-73.2	0.0
2026-01-25 01:22:45.606018	12.0	15.9	-74.4	0.0
2026-01-25 01:22:46.742251	12.0	16.1	-72.4	0.0
2026-01-25 01:22:47.878167	12.0	16.2	-74.6	0.0
2026-01-25 01:22:49.008351	11.9	16.3	-73.6	0.0
2026-01-25 01:22:50.134808	11.9	16.5	-74.9	0.0
2026-01-25 01:22:51.262131	11.9	16.6	-72.9	0.0
2026-01-25 01:22:52.389650	11.8	16.7	-74.4	0.0
2026-01-25 01:22:53.517237	11.8	16.8	-74.9	0.9
2026-01-25 01:22:54.647483	11.8	17.0	-73.7	0.0
2026-01-25 01:22:55.774746	11.7	17.1	-72.9	0.5
2026-01-25 01:22:56.903454	11.7	17.2	-73.0	0.0
2026-01-25 01:22:58.035409	11.7	17.4	-73.9	0.0
2026-01-25 01:22:59.163483	11.6	17.5	-72.5	0.0
2026-01-25 01:23:00.292549	11.6	17.6	-73.7	0.0
2026-01-25 01:23:01.418278	11.6	17.7	-72.7	0.0
2026-01-25 01:23:02.548460	11.5	17.9	-74.5	2.1
2026-01-25 01:23:03.677901	11.5	18.0	-73.3	0.0
2026-01-25 01:23:04.805209	11.4	18.2	-73.5	0.0
2026-01-25 01:23:05.935426	11.4	18.3	-72.7	0.0
2026-01-25 01:23:07.063926	11.4	18.4	-74.7	0.0
2026-01-25 01:23:08.192265	11.3	18.6	-74.2	2.7
2026-01-25 01:23:09.320836	11.3	18.7	-73.9	0.2
2026-01-25 01:23:10.447291	11.2	18.8	-73.6	0.0
2026-01-25 01:23:11.572977	11.2	19.0	-74.4	1.7
2026-01-25 01:23:12.702709	11.2	19.1	-73.6	0.3
2026-01-25 01:23:13.828975	11.1	19.3	-74.0	0.0
2026-01-25 01:23:14.956750	11.1	19.4	-73.9	1.1
2026-01-25 01:23:16.091747	11.0	19.5	-74.3	0.4
2026-01-25 01:23:17.229760	11.0	19.7	-72.1	0.0
2026-01-25 01:23:18.365663	10.9	19.8	-73.4	0.0
2026-01-25 01:23:19.500354	10.9	20.0	-74.1	0.2
2026-01-25 01:23:20.635717	10.9	20.1	-74.5	2.4
2026-01-25 01:23:21.768952	10.8	20.3	-74.3	4.2
2026-01-25 01:23:22.905991	10.8	20.4	-72.9	0.0
2026-01-25 01:23:24.037703	10.7	20.6	-75.0	3.3
2026-01-25 01:23:25.171756	10.7	20.7	-73.3	0.0
2026-01-25 01:23:26.305838	10.6	20.9	-74.0	3.6
2026-01-25 01:23:27.432238	10.6	21.0	-75.0	1.9
2026-01-25 01:23:28.562287	10.5	21.2	-74.3	3.6
2026-01-25 01:23:29.689532	10.5	21.3	-74.0	2.1
2026-01-25 01:23:30.819477	10.4	21.5	-75.2	5.7
2026-01-25 01:23:31.950120	10.4	21.6	-73.7	1.3
2026-01-25 01:23:33.078020	10.3	21.8	-73.9	4.7
2026-01-25 01:23:34.205625	10.3	22.0	-73.2	0.9
2026-01-25 01:23:35.333141	10.2	22.1	-74.3	3.0
2026-01-25 01:23:36.461758	10.2	22.3	-74.6	2.4
2026-01-25 01:23:37.590886	10.1	22.4	-73.7	2.7
2026-01-25 01:23:38.719596	10.1	22.6	-73.9	0.0
2026-01-25 01:23:39.847026	10.0	22.8	-74.7	1.9
2026-01-25 01:23:40.974964	10.0	22.9	-74.2	5.4
2026-01-25 01:23:42.101422	9.9	23.1	-74.0	2.1
2026-01-25 01:23:43.231357	9.8	23.2	-74.9	4.3
2026-01-25 01:23:44.360594	9.8	23.4	-75.6	4.4
2026-01-25 01:23:45.490573	9.7	23.6	-74.9	3.2
2026-01-25 01:23:46.617627	9.7	23.8	-75.2	4.3
2026-01-25 01:23:47.745625	9.6	23.9	-75.3	4.4
2026-01-25 01:23:48.875078	9.6	24.1	-75.4	4.8
2026-01-25 01:23:50.004541	9.5	24.3	-73.1	2.4
2026-01-25 01:23:51.133553	9.4	24.4	-75.5	5.4
2026-01-25 01:23:52.263438	9.4	24.6	-74.1	0.0
2026-01-25 01:23:53.391294	9.3	24.8	-74.8	2.8
2026-01-25 01:23:54.520726	9.3	25.0	-75.8	1.8
2026-01-25 01:23:55.651803	9.2	25.1	-74.5	4.8
2026-01-25 01:23:56.781425	9.1	25.3	-74.0	1.3
2026-01-25 01:23:57.913719	9.1	25.5	-74.7	4.9
2026-01-25 01:23:59.045042	9.0	25.7	-73.2	1.8
2026-01-25 01:24:00.171951	8.9	25.9	-75.2	4.6
2026-01-25 01:24:01.299662	8.9	26.0	-74.5	5.2
2026-01-25 01:24:02.432382	8.8	26.2	-74.3	4.1
2026-01-25 01:24:03.565628	8.7	26.4	-75.8	4.5
2026-01-25 01:24:04.700665	8.7	26.6	-75.3	4.2
2026-01-25 01:24:05.835627	8.6	26.8	-74.7	4.5
2026-01-25 01:24:06.970220	8.5	27.0	-74.4	5.0
2026-01-25 01:24:08.102890	8.4	27.2	-75.7	5.0
2026-01-25 01:24:09.238626	8.4	27.4	-75.4	4.8
2026-01-25 01:24:10.372534	8.3	27.6	-71.9	1.3
2026-01-25 01:24:11.505850	8.2	27.8	-74.9	4.6
2026-01-25 01:24:12.642298	8.1	27.9	-75.5	3.2
2026-01-25 01:24:13.778556	8.1	28.1	-76.1	6.8
2026-01-25 01:24:14.912881	8.0	28.3	-75.8	4.8
2026-01-25 01:24:16.046496	7.9	28.5	-75.7	4.3
2026-01-25 01:24:17.183283	7.8	28.7	-76.0	4.9
2026-01-25 01:24:18.318752	7.7	29.0	-75.2	6.2
2026-01-25 01:24:19.459384	7.7	29.2	-75.6	3.2
2026-01-25 01:24:20.596431	7.6	29.4	-74.8	3.3
2026-01-25 01:24:21.731729	7.5	29.6	-75.4	1.5
2026-01-25 01:24:22.871671	7.4	29.8	-75.7	5.5
2026-01-25 01:24:24.009204	7.3	30.0	-75.5	6.2
2026-01-25 01:24:25.144828	7.2	30.2	-75.5	4.8
2026-01-25 01:24:26.284296	7.1	30.4	-75.9	6.2
2026-01-25 01:24:27.422727	7.0	30.6	-75.5	2.9
2026-01-25 01:24:28.562939	6.9	30.9	-75.7	6.3
2026-01-25 01:24:29.699414	6.9	31.1	-76.0	2.6
2026-01-25 01:24:30.839979	6.8	31.3	-74.3	2.2
2026-01-25 01:24:31.976541	6.7	31.5	-74.8	4.3
2026-01-25 01:24:33.115541	6.6	31.7	-76.0	6.6
2026-01-25 01:24:34.250536	6.5	32.0	-72.0	0.0
2026-01-25 01:24:35.390045	6.4	32.2	-75.2	5.8
2026-01-25 01:24:36.524851	6.3	32.4	-75.4	5.4
2026-01-25 01:24:37.656913	6.2	32.7	-76.0	6.3
2026-01-25 01:24:38.791015	6.1	32.9	-75.8	8.4
2026-01-25 01:24:39.926477	5.9	33.1	-74.7	5.6
2026-01-25 01:24:41.063035	5.8	33.4	-74.8	7.1
2026-01-25 01:24:42.200533	5.7	33.6	-75.4	4.2
2026-01-25 01:24:43.334927	5.6	33.8	-75.8	8.2
2026-01-25 01:24:44.470265	5.5	34.1	-76.2	8.1
2026-01-25 01:24:45.606101	5.4	34.3	-75.8	8.3
2026-01-25 01:24:46.740669	5.3	34.6	-75.8	8.3
2026-01-25 01:24:47.872389	5.1	34.8	-75.8	7.6
2026-01-25 01:24:49.008636	5.0	35.1	-76.0	7.5
2026-01-25 01:24:50.145713	4.9	35.3	-75.6	6.9
2026-01-25 01:24:51.277068	4.8	35.6	-76.1	9.0
2026-01-25 01:24:52.412129	4.6	35.8	-75.7	8.2
2026-01-25 01:24:53.547392	4.5	36.1	-76.2	5.9
2026-01-25 01:24:54.683820	4.4	36.3	-75.8	6.6
2026-01-25 01:24:55.819033	4.3	36.6	-75.9	10.0
2026-01-25 01:24:56.954447	4.1	36.8	-75.8	7.9
2026-01-25 01:24:58.092625	4.0	37.1	-75.9	8.2
2026-01-25 01:24:59.233726	3.8	37.4	-76.2	9.0
2026-01-25 01:25:00.371425	3.7	37.6	-76.4	9.0
2026-01-25 01:25:01.509239	3.6	37.9	-76.5	9.6
2026-01-25 01:25:02.645509	3.4	38.2	-76.5	9.9
2026-01-25 01:25:03.783528	3.3	38.5	-76.3	7.9
2026-01-25 01:25:04.923189	3.1	38.7	-75.8	9.8
2026-01-25 01:25:06.061556	2.9	39.0	-76.6	10.0
2026-01-25 01:25:07.201659	2.8	39.3	-76.7	8.8
2026-01-25 01:25:08.338681	2.6	39.6	-77.2	10.4
2026-01-25 01:25:09.467928	2.5	39.8	-77.4	10.1
2026-01-25 01:25:10.594520	2.3	40.1	-77.2	9.9
2026-01-25 01:25:11.723555	2.1	40.4	-76.6	9.4
2026-01-25 01:25:12.853388	2.0	40.7	-77.4	10.1
2026-01-25 01:25:13.982195	1.8	41.0	-77.1	10.5
2026-01-25 01:25:15.109269	1.6	41.3	-76.9	8.6
2026-01-25 01:25:16.236872	1.4	41.6	-77.8	10.7
2026-01-25 01:25:17.364476	1.2	41.9	-77.6	11.1
2026-01-25 01:25:18.491646	1.0	42.2	-76.9	9.0
2026-01-25 01:25:19.619887	0.9	42.5	-77.6	10.6
2026-01-25 01:25:20.748447	0.7	42.8	-77.1	11.1
2026-01-25 01:25:21.877633	0.5	43.1	-77.3	8.9
2026-01-25 01:25:23.007756	0.3	43.4	-77.5	12.1
2026-01-25 01:25:24.138676	0.0	43.7	-77.5	8.5
2026-01-25 01:25:25.267206	359.8	44.0	-78.2	12.4
2026-01-25 01:25:26.396688	359.6	44.3	-77.4	10.6
2026-01-25 01:25:27.525805	359.4	44.6	-78.5	12.0
2026-01-25 01:25:28.660644	359.2	44.9	-78.5	10.6
2026-01-25 01:25:29.788043	358.9	45.3	-78.6	10.9
2026-01-25 01:25:30.917840	358.7	45.6	-78.8	11.5
2026-01-25 01:25:32.048193	358.5	45.9	-78.8	12.0
2026-01-25 01:25:33.184940	358.2	46.2	-78.8	11.2
2026-01-25 01:25:34.322815	358.0	46.5	-78.7	10.1
2026-01-25 01:25:35.460139	357.7	46.9	-78.1	8.6
2026-01-25 01:25:36.598844	357.4	47.2	-79.1	11.0
2026-01-25 01:25:37.734143	357.2	47.5	-79.2	9.7
2026-01-25 01:25:38.871391	356.9	47.9	-78.6	7.9
2026-01-25 01:25:40.009613	356.6	48.2	-79.4	9.6
2026-01-25 01:25:41.147268	356.3	48.6	-79.7	9.1
2026-01-25 01:25:42.282718	356.0	48.9	-79.8	10.0
2026-01-25 01:25:43.421134	355.7	49.2	-79.9	10.6
2026-01-25 01:25:44.559123	355.4	49.6	-79.9	7.9
2026-01-25 01:25:45.699038	355.1	49.9	-80.0	8.3
2026-01-25 01:25:46.839470	354.8	50.3	-79.9	9.2
2026-01-25 01:25:47.975755	354.5	50.6	-80.6	9.8
2026-01-25 01:25:49.110659	354.1	51.0	-79.1	7.2
2026-01-25 01:25:50.249216	353.8	51.3	-79.6	6.2
2026-01-25 01:25:51.386656	353.4	51.7	-80.3	8.9
2026-01-25 01:25:52.523555	353.1	52.1	-80.3	9.4
2026-01-25 01:25:53.660116	352.7	52.4	-80.4	8.7
2026-01-25 01:25:54.797637	352.3	52.8	-80.3	9.0
2026-01-25 01:25:55.938052	351.9	53.1	-80.1	10.4
2026-01-25 01:25:57.075281	351.5	53.5	-80.2	10.3
2026-01-25 01:25:58.213375	351.1	53.9	-79.7	9.2
2026-01-25 01:25:59.351156	350.7	54.2	-79.8	9.8
2026-01-25 01:26:00.487804	350.3	54.6	-80.0	9.5
2026-01-25 01:26:01.626889	349.8	55.0	-78.5	6.2
2026-01-25 01:26:02.761440	349.4	55.3	-80.4	9.7
2026-01-25 01:26:03.897486	348.9	55.7	-80.0	8.9
2026-01-25 01:26:05.031924	348.4	56.1	-79.5	8.4
2026-01-25 01:26:06.169028	347.9	56.4	-80.0	9.5
2026-01-25 01:26:07.304290	347.4	56.8	-79.7	6.7
2026-01-25 01:26:08.440531	346.9	57.2	-79.8	7.4
2026-01-25 01:26:09.574994	346.4	57.5	-79.1	4.8
2026-01-25 01:26:10.708297	345.8	57.9	-80.2	9.0
2026-01-25 01:26:11.843431	345.3	58.3	-79.9	9.0
2026-01-25 01:26:12.977723	344.7	58.6	-79.9	7.0
2026-01-25 01:26:14.113873	344.1	59.0	-80.6	7.8
2026-01-25 01:26:15.247426	343.5	59.4	-80.9	8.4
2026-01-25 01:26:16.382497	342.9	59.7	-79.7	5.7
2026-01-25 01:26:17.515952	342.2	60.1	-80.8	7.1
2026-01-25 01:26:18.647854	341.6	60.5	-80.2	6.3
2026-01-25 01:26:19.779883	340.9	60.8	-80.5	5.8
2026-01-25 01:26:20.914091	340.2	61.2	-80.0	7.0
2026-01-25 01:26:22.046265	339.4	61.6	-79.2	5.8
2026-01-25 01:26:23.179585	338.7	61.9	-80.4	8.7
2026-01-25 01:26:24.311821	337.9	62.3	-80.4	7.8
2026-01-25 01:26:25.444928	337.1	62.6	-80.2	8.9
2026-01-25 01:26:26.577736	336.3	63.0	-79.8	7.6
2026-01-25 01:26:27.713231	335.5	63.3	-79.8	9.5
2026-01-25 01:26:28.844450	334.6	63.7	-79.8	9.7
2026-01-25 01:26:29.977588	333.7	64.0	-79.6	8.4
2026-01-25 01:26:31.108494	332.8	64.3	-79.5	9.8
2026-01-25 01:26:32.240821	331.9	64.6	-80.2	9.2
2026-01-25 01:26:33.375748	330.9	65.0	-79.8	10.2
2026-01-25 01:26:34.509166	329.9	65.3	-78.8	7.8
2026-01-25 01:26:35.643883	328.9	65.6	-79.6	9.7
2026-01-25 01:26:36.778128	327.8	65.9	-79.3	9.0
2026-01-25 01:26:37.910808	326.7	66.2	-79.3	8.6
2026-01-25 01:26:39.044527	325.6	66.5	-80.1	10.4
2026-01-25 01:26:40.178938	324.5	66.8	-80.1	8.9
2026-01-25 01:26:41.319157	323.3	67.1	-80.3	8.9
2026-01-25 01:26:42.458238	322.1	67.3	-80.6	9.8
2026-01-25 01:26:43.596756	320.8	67.6	-79.8	7.3
2026-01-25 01:26:44.735268	319.5	67.9	-79.0	10.5
2026-01-25 01:26:45.873291	318.2	68.1	-79.8	9.3
2026-01-25 01:26:47.012832	316.9	68.3	-78.8	8.7
2026-01-25 01:26:48.150662	315.5	68.6	-79.9	10.4
2026-01-25 01:26:49.289640	314.1	68.8	-79.6	11.7
2026-01-25 01:26:50.427937	312.7	69.0	-79.7	11.8
2026-01-25 01:26:51.562421	311.2	69.1	-79.4	11.2
2026-01-25 01:26:52.695613	309.7	69.3	-79.2	11.6
2026-01-25 01:26:53.826826	308.2	69.5	-79.3	10.8
2026-01-25 01:26:54.960599	306.7	69.6	-80.0	11.4
2026-01-25 01:26:56.090592	305.1	69.8	-79.9	10.5
2026-01-25 01:26:57.222517	303.5	69.9	-80.4	9.0
2026-01-25 01:26:58.354090	301.9	70.0	-79.9	8.3
2026-01-25 01:26:59.487868	300.3	70.1	-80.6	8.5
2026-01-25 01:27:00.618946	298.7	70.2	-80.6	9.8
2026-01-25 01:27:01.749164	297.1	70.2	-80.3	7.6
2026-01-25 01:27:02.881725	295.4	70.3	-81.1	10.8
2026-01-25 01:27:04.014453	293.8	70.3	-80.5	9.8
2026-01-25 01:27:05.146919	292.1	70.3	-80.4	11.7
2026-01-25 01:27:06.278567	290.4	70.3	-80.1	12.2
2026-01-25 01:27:07.414750	288.8	70.3	-80.1	12.3
2026-01-25 01:27:08.545921	287.1	70.3	-79.9	10.8
2026-01-25 01:27:09.678855	285.5	70.2	-80.0	11.5
2026-01-25 01:27:10.811881	283.8	70.1	-80.2	12.2
2026-01-25 01:27:11.944538	282.2	70.1	-80.3	12.5
2026-01-25 01:27:13.078191	280.6	70.0	-80.3	12.2
2026-01-25 01:27:14.212529	279.0	69.9	-80.7	12.2
2026-01-25 01:27:15.340562	277.4	69.7	-80.7	11.7
2026-01-25 01:27:16.469463	275.9	69.6	-80.9	11.4
2026-01-25 01:27:17.600216	274.3	69.5	-80.8	10.9
2026-01-25 01:27:18.729186	272.8	69.3	-81.7	11.4
2026-01-25 01:27:19.858672	271.3	69.1	-81.5	10.5
2026-01-25 01:27:20.988934	269.9	68.9	-81.3	11.4
2026-01-25 01:27:22.116680	268.5	68.7	-81.5	11.4
2026-01-25 01:27:23.247153	267.1	68.5	-81.3	11.3
2026-01-25 01:27:24.376444	265.7	68.3	-81.4	10.8
2026-01-25 01:27:25.504844	264.4	68.1	-81.0	10.2
2026-01-25 01:27:26.633532	263.1	67.8	-81.3	12.0
2026-01-25 01:27:27.759849	261.8	67.6	-81.1	11.4
2026-01-25 01:27:28.890903	260.6	67.3	-81.1	12.6
2026-01-25 01:27:30.019204	259.4	67.1	-81.1	12.0
2026-01-25 01:27:31.148998	258.2	66.8	-81.1	11.1
2026-01-25 01:27:32.278872	257.1	66.5	-81.4	12.2
2026-01-25 01:27:33.409158	255.9	66.2	-81.4	12.0
2026-01-25 01:27:34.536901	254.9	65.9	-81.4	11.1
2026-01-25 01:27:35.664491	253.8	65.6	-81.6	11.5
2026-01-25 01:27:36.792710	252.8	65.3	-81.4	11.0
2026-01-25 01:27:37.925331	251.8	65.0	-81.8	10.8
2026-01-25 01:27:39.056234	250.8	64.6	-81.8	11.3
2026-01-25 01:27:40.189610	249.9	64.3	-81.8	11.1
2026-01-25 01:27:41.321469	248.9	64.0	-82.0	11.4
2026-01-25 01:27:42.453103	248.1	63.6	-81.8	9.8
2026-01-25 01:27:43.583931	247.2	63.3	-81.8	10.4
2026-01-25 01:27:44.713592	246.4	62.9	-82.0	11.2
2026-01-25 01:27:45.843986	245.5	62.6	-81.9	11.1
2026-01-25 01:27:46.975453	244.7	62.2	-81.7	11.0
2026-01-25 01:27:48.106674	244.0	61.9	-81.8	11.5
2026-01-25 01:27:49.239467	243.2	61.5	-81.7	11.8
2026-01-25 01:27:50.369989	242.5	61.2	-81.7	11.7
2026-01-25 01:27:51.500836	241.8	60.8	-81.3	12.0
2026-01-25 01:27:52.633233	241.1	60.5	-81.2	11.5
2026-01-25 01:27:53.764728	240.4	60.1	-81.5	11.6
2026-01-25 01:27:54.898249	239.8	59.7	-81.4	11.2
2026-01-25 01:27:56.030155	239.2	59.4	-81.6	11.1
2026-01-25 01:27:57.159697	238.6	59.0	-81.8	10.8
2026-01-25 01:27:58.290122	238.0	58.6	-81.7	10.0
2026-01-25 01:27:59.418964	237.4	58.3	-81.5	10.1
2026-01-25 01:28:00.548358	236.8	57.9	-81.0	10.1
2026-01-25 01:28:01.680813	236.3	57.5	-81.3	11.3
2026-01-25 01:28:02.813645	235.7	57.1	-81.3	11.4
2026-01-25 01:28:03.948220	235.2	56.8	-81.0	10.9
2026-01-25 01:28:05.082302	234.7	56.4	-81.1	10.2
2026-01-25 01:28:06.215867	234.2	56.0	-81.5	11.0
2026-01-25 01:28:07.349747	233.8	55.7	-81.2	11.0
2026-01-25 01:28:08.485128	233.3	55.3	-81.1	11.5
2026-01-25 01:28:09.619601	232.8	54.9	-81.2	12.3
2026-01-25 01:28:10.756938	232.4	54.6	-81.1	12.8
2026-01-25 01:28:11.894998	232.0	54.2	-80.9	12.7
2026-01-25 01:28:13.034418	231.5	53.8	-80.8	11.2
2026-01-25 01:28:14.177538	231.1	53.5	-81.1	11.2
2026-01-25 01:28:15.315603	230.7	53.1	-80.9	11.2
2026-01-25 01:28:16.454157	230.3	52.7	-80.8	10.4
2026-01-25 01:28:17.591545	229.9	52.4	-80.9	11.5
2026-01-25 01:28:18.729624	229.6	52.0	-81.0	11.9
2026-01-25 01:28:19.866251	229.2	51.6	-81.3	11.8
2026-01-25 01:28:21.002990	228.9	51.3	-81.0	11.4
2026-01-25 01:28:22.138202	228.5	50.9	-81.4	11.1
2026-01-25 01:28:23.275411	228.2	50.6	-81.1	11.1
2026-01-25 01:28:24.414601	227.8	50.2	-81.3	11.2
2026-01-25 01:28:25.551583	227.5	49.9	-81.4	11.5
2026-01-25 01:28:26.689164	227.2	49.5	-81.4	11.1
2026-01-25 01:28:27.827731	226.9	49.2	-81.4	11.5
2026-01-25 01:28:28.964357	226.6	48.8	-81.6	11.3
2026-01-25 01:28:30.098388	226.3	48.5	-81.9	10.1
2026-01-25 01:28:31.233563	226.0	48.2	-81.7	10.1
2026-01-25 01:28:32.370445	225.7	47.8	-81.6	11.0
2026-01-25 01:28:33.503848	225.5	47.5	-81.6	11.2
2026-01-25 01:28:34.636082	225.2	47.1	-81.5	11.7
2026-01-25 01:28:35.767232	224.9	46.8	-81.0	11.7
2026-01-25 01:28:36.900743	224.7	46.5	-81.3	11.4
2026-01-25 01:28:38.037813	224.4	46.1	-81.2	11.5
2026-01-25 01:28:39.172615	224.2	45.8	-81.2	10.9
2026-01-25 01:28:40.307694	223.9	45.5	-81.2	12.2
2026-01-25 01:28:41.441037	223.7	45.2	-81.1	12.1
2026-01-25 01:28:42.573642	223.5	44.9	-81.0	12.4
2026-01-25 01:28:43.707300	223.2	44.5	-80.9	12.9
2026-01-25 01:28:44.838831	223.0	44.2	-80.4	13.1
2026-01-25 01:28:45.974732	222.8	43.9	-80.3	13.2
2026-01-25 01:28:47.107435	222.6	43.6	-80.6	13.1
2026-01-25 01:28:48.239785	222.4	43.3	-80.3	13.4
2026-01-25 01:28:49.374582	222.2	43.0	-80.3	13.6
2026-01-25 01:28:50.511720	222.0	42.7	-80.3	13.5
2026-01-25 01:28:51.644128	221.8	42.4	-80.3	13.4
2026-01-25 01:28:52.774129	221.6	42.1	-80.4	13.2
2026-01-25 01:28:53.906566	221.4	41.8	-80.4	14.0
2026-01-25 01:28:55.038469	221.2	41.5	-80.2	13.4
2026-01-25 01:28:56.168601	221.0	41.2	-80.4	13.7
2026-01-25 01:28:57.299399	220.8	40.9	-80.3	13.8
2026-01-25 01:28:58.433554	220.7	40.6	-80.3	13.5
2026-01-25 01:28:59.568452	220.5	40.3	-80.5	13.7
2026-01-25 01:29:00.702927	220.3	40.0	-80.1	13.5
2026-01-25 01:29:01.834839	220.1	39.7	-80.1	13.6
2026-01-25 01:29:02.967930	220.0	39.4	-79.9	13.5
2026-01-25 01:29:04.100329	219.8	39.2	-79.5	14.2
2026-01-25 01:29:05.232602	219.7	38.9	-79.7	13.9
2026-01-25 01:29:06.370137	219.5	38.6	-79.6	14.0
2026-01-25 01:29:07.503738	219.4	38.3	-79.9	13.9
2026-01-25 01:29:08.637605	219.2	38.0	-79.8	14.1
2026-01-25 01:29:09.772073	219.1	37.8	-79.7	14.1
2026-01-25 01:29:10.906814	218.9	37.5	-79.7	13.9
2026-01-25 01:29:12.042075	218.8	37.2	-79.6	13.7
2026-01-25 01:29:13.175551	218.6	37.0	-79.5	14.2
2026-01-25 01:29:14.309300	218.5	36.7	-79.7	14.1
2026-01-25 01:29:15.446173	218.4	36.4	-79.4	14.5
2026-01-25 01:29:16.581646	218.2	36.2	-79.5	14.0
2026-01-25 01:29:17.715313	218.1	35.9	-79.5	13.1
2026-01-25 01:29:18.851122	218.0	35.7	-79.6	14.3
2026-01-25 01:29:19.985414	217.8	35.4	-79.7	14.3
2026-01-25 01:29:21.122256	217.7	35.2	-79.2	13.3
2026-01-25 01:29:22.258832	217.6	34.9	-79.4	13.9
2026-01-25 01:29:23.392907	217.5	34.7	-79.1	12.3
2026-01-25 01:29:24.527874	217.3	34.4	-79.3	14.5
2026-01-25 01:29:25.660503	217.2	34.2	-79.5	14.3
2026-01-25 01:29:26.794733	217.1	33.9	-79.6	13.7
2026-01-25 01:29:27.926656	217.0	33.7	-79.1	14.5
2026-01-25 01:29:29.062471	216.9	33.4	-79.2	14.6
2026-01-25 01:29:30.196470	216.8	33.2	-79.3	13.4
2026-01-25 01:29:31.329021	216.7	33.0	-79.4	12.7
2026-01-25 01:29:32.464942	216.5	32.7	-79.3	12.5
2026-01-25 01:29:33.599808	216.4	32.5	-79.7	13.8
2026-01-25 01:29:34.732703	216.3	32.3	-79.1	12.4
2026-01-25 01:29:35.866662	216.2	32.0	-79.3	13.3
2026-01-25 01:29:37.000986	216.1	31.8	-79.3	12.6
2026-01-25 01:29:38.136865	216.0	31.6	-79.4	10.0
2026-01-25 01:29:39.272238	215.9	31.4	-79.5	10.3
2026-01-25 01:29:40.404649	215.8	31.1	-79.1	11.8
2026-01-25 01:29:41.538331	215.7	30.9	-78.8	12.8
2026-01-25 01:29:42.672097	215.6	30.7	-79.3	11.7
2026-01-25 01:29:43.809734	215.6	30.5	-79.3	13.0
2026-01-25 01:29:44.945289	215.5	30.3	-79.4	10.7
2026-01-25 01:29:46.074666	215.4	30.0	-78.9	12.5
2026-01-25 01:29:47.204049	215.3	29.8	-79.1	13.1
2026-01-25 01:29:48.333724	215.2	29.6	-79.0	11.8
2026-01-25 01:29:49.460543	215.1	29.4	-79.7	12.6
2026-01-25 01:29:50.590442	215.0	29.2	-79.2	12.7
2026-01-25 01:29:51.722218	214.9	29.0	-78.9	13.1
2026-01-25 01:29:52.851624	214.9	28.8	-78.9	9.3
2026-01-25 01:29:53.978358	214.8	28.6	-79.3	10.8
2026-01-25 01:29:55.109159	214.7	28.4	-79.4	11.3
2026-01-25 01:29:56.237142	214.6	28.2	-79.1	10.0
2026-01-25 01:29:57.367845	214.5	28.0	-79.5	13.9
2026-01-25 01:29:58.496038	214.5	27.8	-79.3	11.0
2026-01-25 01:29:59.625620	214.4	27.6	-78.7	10.5
2026-01-25 01:30:00.753216	214.3	27.4	-79.1	10.8
2026-01-25 01:30:01.881462	214.2	27.2	-79.1	13.1
2026-01-25 01:30:03.013609	214.1	27.0	-79.1	11.7
2026-01-25 01:30:04.141806	214.1	26.8	-78.5	8.4
2026-01-25 01:30:05.271303	214.0	26.6	-78.9	12.1
2026-01-25 01:30:06.402262	213.9	26.4	-79.4	11.3
2026-01-25 01:30:07.529828	213.9	26.2	-78.9	11.6
2026-01-25 01:30:08.657652	213.8	26.1	-79.4	13.1
2026-01-25 01:30:09.793014	213.7	25.9	-79.1	8.3
2026-01-25 01:30:10.929511	213.7	25.7	-79.2	7.7
2026-01-25 01:30:12.067608	213.6	25.5	-78.9	8.2
2026-01-25 01:30:13.203772	213.5	25.3	-79.1	7.7
2026-01-25 01:30:14.343432	213.5	25.1	-79.1	10.4
2026-01-25 01:30:15.480292	213.4	25.0	-79.1	8.9
2026-01-25 01:30:16.618398	213.3	24.8	-79.3	7.0
2026-01-25 01:30:17.753645	213.3	24.6	-79.0	11.0
2026-01-25 01:30:18.890613	213.2	24.4	-79.3	6.4
2026-01-25 01:30:20.028083	213.1	24.3	-78.8	7.3
2026-01-25 01:30:21.164347	213.1	24.1	-79.2	8.2
2026-01-25 01:30:22.300905	213.0	23.9	-79.2	11.2
2026-01-25 01:30:23.438650	213.0	23.7	-78.9	8.8
2026-01-25 01:30:24.574967	212.9	23.6	-78.5	8.9
2026-01-25 01:30:25.711007	212.8	23.4	-79.4	7.5
2026-01-25 01:30:26.850798	212.8	23.2	-79.7	9.8
2026-01-25 01:30:27.991732	212.7	23.1	-79.1	5.7
2026-01-25 01:30:29.128995	212.7	22.9	-79.0	11.4
2026-01-25 01:30:30.265367	212.6	22.7	-79.2	8.1
2026-01-25 01:30:31.404765	212.5	22.6	-79.4	10.9
2026-01-25 01:30:32.544624	212.5	22.4	-79.5	7.5
2026-01-25 01:30:33.682733	212.4	22.2	-79.5	8.2
2026-01-25 01:30:34.817813	212.4	22.1	-78.7	8.7
2026-01-25 01:30:35.952830	212.3	21.9	-78.7	7.0
2026-01-25 01:30:37.088993	212.3	21.7	-79.6	8.7
2026-01-25 01:30:38.225744	212.2	21.6	-79.4	4.3
2026-01-25 01:30:39.362219	212.2	21.4	-79.1	3.2
2026-01-25 01:30:40.496614	212.1	21.3	-79.3	7.1
2026-01-25 01:30:41.633701	212.1	21.1	-79.3	6.7
2026-01-25 01:30:42.767996	212.0	21.0	-79.0	9.3
2026-01-25 01:30:43.900562	212.0	20.8	-79.0	8.5
2026-01-25 01:30:45.034559	211.9	20.7	-79.4	6.9
2026-01-25 01:30:46.167430	211.9	20.5	-78.8	6.4
2026-01-25 01:30:47.301338	211.8	20.4	-79.0	10.7
2026-01-25 01:30:48.437920	211.8	20.2	-78.9	8.4
2026-01-25 01:30:49.570964	211.7	20.1	-79.2	6.4
2026-01-25 01:30:50.705987	211.7	19.9	-79.3	10.9
2026-01-25 01:30:51.839417	211.6	19.8	-79.5	9.1
2026-01-25 01:30:52.972631	211.6	19.6	-79.6	5.2
2026-01-25 01:30:54.108121	211.6	19.5	-78.4	4.5
2026-01-25 01:30:55.240922	211.5	19.3	-79.0	5.1
2026-01-25 01:30:56.372325	211.5	19.2	-79.0	8.8
2026-01-25 01:30:57.503780	211.4	19.0	-79.3	7.2
2026-01-25 01:30:58.632148	211.4	18.9	-79.4	4.4
2026-01-25 01:30:59.759804	211.3	18.7	-79.3	11.4
2026-01-25 01:31:00.888855	211.3	18.6	-79.6	3.8
2026-01-25 01:31:02.016502	211.3	18.5	-79.3	6.3
2026-01-25 01:31:03.143739	211.2	18.3	-79.6	4.8
2026-01-25 01:31:04.272581	211.2	18.2	-78.9	5.1
2026-01-25 01:31:05.401053	211.1	18.1	-78.3	10.5
2026-01-25 01:31:06.531345	211.1	17.9	-79.4	3.1
2026-01-25 01:31:07.658320	211.1	17.8	-79.2	7.3
2026-01-25 01:31:08.786731	211.0	17.6	-79.3	8.8
2026-01-25 01:31:09.915148	211.0	17.5	-79.1	7.0
2026-01-25 01:31:11.044423	210.9	17.4	-79.5	6.5
2026-01-25 01:31:12.171721	210.9	17.2	-79.2	6.9
2026-01-25 01:31:13.302517	210.9	17.1	-78.3	4.6
2026-01-25 01:31:14.430885	210.8	17.0	-79.0	3.9
2026-01-25 01:31:15.558730	210.8	16.9	-79.3	3.2
2026-01-25 01:31:16.688609	210.8	16.7	-79.6	3.1
2026-01-25 01:31:17.816728	210.7	16.6	-79.4	6.7
2026-01-25 01:31:18.944624	210.7	16.5	-79.6	6.6
2026-01-25 01:31:20.071099	210.6	16.3	-80.1	3.0
2026-01-25 01:31:21.197915	210.6	16.2	-79.3	6.0
2026-01-25 01:31:22.324694	210.6	16.1	-79.4	3.8
2026-01-25 01:31:23.454953	210.5	16.0	-79.7	4.9
2026-01-25 01:31:24.581650	210.5	15.8	-79.6	8.9
2026-01-25 01:31:25.709459	210.5	15.7	-79.7	8.3
2026-01-25 01:31:26.838604	210.4	15.6	-79.4	8.2
2026-01-25 01:31:27.966681	210.4	15.5	-79.1	9.1
2026-01-25 01:31:29.097331	210.4	15.3	-79.5	4.4
2026-01-25 01:31:30.225893	210.3	15.2	-79.3	6.0
2026-01-25 01:31:31.351446	210.3	15.1	-78.6	3.7
2026-01-25 01:31:32.479313	210.3	15.0	-79.7	5.9
2026-01-25 01:31:33.608679	210.2	14.9	-79.8	9.7
2026-01-25 01:31:34.736092	210.2	14.7	-80.1	7.2
2026-01-25 01:31:35.864039	210.2	14.6	-79.2	4.4
2026-01-25 01:31:36.992413	210.1	14.5	-79.4	2.5
2026-01-25 01:31:38.124977	210.1	14.4	-79.3	5.4
2026-01-25 01:31:39.261118	210.1	14.3	-79.4	5.5
2026-01-25 01:31:40.395553	210.1	14.1	-78.7	2.3
2026-01-25 01:31:41.528222	210.0	14.0	-79.6	1.2
2026-01-25 01:31:42.660983	210.0	13.9	-79.4	2.7
2026-01-25 01:31:43.791486	210.0	13.8	-78.7	5.5
2026-01-25 01:31:44.918161	209.9	13.7	-80.3	4.8
2026-01-25 01:31:46.047060	209.9	13.6	-79.8	2.4
2026-01-25 01:31:47.176968	209.9	13.4	-79.0	2.4
2026-01-25 01:31:48.305650	209.8	13.3	-79.4	3.8
2026-01-25 01:31:49.432545	209.8	13.2	-78.9	7.1
2026-01-25 01:31:50.566194	209.8	13.1	-79.9	3.9
2026-01-25 01:31:51.693711	209.8	13.0	-79.2	7.3
2026-01-25 01:31:52.820424	209.7	12.9	-79.9	7.7
2026-01-25 01:31:53.949202	209.7	12.8	-80.2	6.2
2026-01-25 01:31:55.079770	209.7	12.7	-78.2	3.2
2026-01-25 01:31:56.207691	209.7	12.6	-80.3	7.3
2026-01-25 01:31:57.334108	209.6	12.4	-79.3	2.8
2026-01-25 01:31:58.463485	209.6	12.3	-78.8	2.5
2026-01-25 01:31:59.592680	209.6	12.2	-78.7	3.0
2026-01-25 01:32:00.721824	209.6	12.1	-78.7	5.1
2026-01-25 01:32:01.849102	209.5	12.0	-78.6	7.2
2026-01-25 01:32:02.976020	209.5	11.9	-78.1	3.9
2026-01-25 01:32:04.103963	209.5	11.8	-79.8	0.0
2026-01-25 01:32:05.230625	209.4	11.7	-78.3	0.1
2026-01-25 01:32:06.357212	209.4	11.6	-79.3	2.0
2026-01-25 01:32:07.488617	209.4	11.5	-79.7	3.7
2026-01-25 01:32:08.619521	209.4	11.4	-79.3	7.5
2026-01-25 01:32:09.747891	209.3	11.3	-79.4	0.6
2026-01-25 01:32:10.879847	209.3	11.2	-79.5	3.5
2026-01-25 01:32:12.008463	209.3	11.1	-79.7	9.8
2026-01-25 01:32:13.139069	209.3	11.0	-78.7	5.1
2026-01-25 01:32:14.266102	209.3	10.9	-79.1	6.4
2026-01-25 01:32:15.395231	209.2	10.8	-80.7	4.3
2026-01-25 01:32:16.524023	209.2	10.7	-82.2	5.8
2026-01-25 01:32:17.657450	209.2	10.6	-85.3	0.0
2026-01-25 01:32:18.794608	209.2	10.5	-85.7	0.0
2026-01-25 01:32:19.927617	209.1	10.4	-85.5	0.0
2026-01-25 01:32:21.062435	209.1	10.3	-85.3	0.3
2026-01-25 01:32:22.193135	209.1	10.2	-85.9	0.8
#Closed at: 2026-01-25 01:21:39.357583