passes_logs/2026/01/25/planumMaritime01/planumMaritime01__20260125_073409_METOP-B_rec.log

#Pass ID: 20260125_073409_METOP-B
#Satellite: METOP-B
#Configuration: METOP-B
#Start time: 2026-01-25 07:34:14.500170

#LorettStation: 1.0.0 05.05.2024
#Station: planumMaritime01
#Location: 37.49445 lon 55.92918 lat
#TLE: 1 38771U 12049A   26024.30979649  .00000246  00000+0  13231-3 0  9997
#TLE: 2 38771  98.6735  78.5342 0003027  57.8768 302.2703 14.21427789692827

#Time	Az	El	Level	SNR
2026-01-25 07:34:16.668179	13.3	10.2	-65.2	0.0
2026-01-25 07:34:17.796212	13.3	10.3	-66.5	0.0
2026-01-25 07:34:18.921846	13.2	10.4	-68.0	0.0
2026-01-25 07:34:20.051062	13.2	10.5	-65.2	0.0
2026-01-25 07:34:21.178073	13.2	10.6	-63.5	0.0
2026-01-25 07:34:22.303626	13.2	10.7	-61.9	0.0
2026-01-25 07:34:23.427916	13.2	10.8	-62.7	0.0
2026-01-25 07:34:24.556849	13.1	10.9	-61.2	0.0
2026-01-25 07:34:25.684260	13.1	11.0	-61.4	0.0
2026-01-25 07:34:26.811220	13.1	11.1	-61.9	0.0
2026-01-25 07:34:27.938178	13.1	11.2	-62.4	0.0
2026-01-25 07:34:29.064530	13.0	11.3	-62.2	0.0
2026-01-25 07:34:30.191948	13.0	11.4	-60.4	0.0
2026-01-25 07:34:31.316338	13.0	11.5	-60.6	0.0
2026-01-25 07:34:32.443697	13.0	11.6	-60.7	0.0
2026-01-25 07:34:33.570576	12.9	11.7	-61.4	0.0
2026-01-25 07:34:34.698092	12.9	11.8	-59.6	0.0
2026-01-25 07:34:35.825002	12.9	11.9	-60.1	0.0
2026-01-25 07:34:36.951250	12.9	12.0	-63.3	0.0
2026-01-25 07:34:38.076626	12.8	12.1	-62.8	0.0
2026-01-25 07:34:39.202977	12.8	12.2	-64.6	0.0
2026-01-25 07:34:40.331302	12.8	12.3	-62.6	0.0
2026-01-25 07:34:41.456664	12.8	12.4	-65.2	0.0
2026-01-25 07:34:42.583262	12.7	12.6	-62.9	0.0
2026-01-25 07:34:43.707751	12.7	12.7	-66.1	0.0
2026-01-25 07:34:44.834871	12.7	12.8	-63.9	0.0
2026-01-25 07:34:45.962148	12.7	12.9	-63.8	0.0
2026-01-25 07:34:47.086589	12.6	13.0	-63.0	0.0
2026-01-25 07:34:48.214565	12.6	13.1	-64.8	0.0
2026-01-25 07:34:49.341440	12.6	13.2	-63.3	0.0
2026-01-25 07:34:50.469059	12.5	13.3	-62.3	0.0
2026-01-25 07:34:51.597624	12.5	13.4	-65.0	0.0
2026-01-25 07:34:52.724155	12.5	13.5	-62.0	0.0
2026-01-25 07:34:53.850042	12.5	13.7	-63.0	0.0
2026-01-25 07:34:54.976162	12.4	13.8	-63.6	0.0
2026-01-25 07:34:56.103026	12.4	13.9	-62.1	0.0
2026-01-25 07:34:57.229750	12.4	14.0	-61.9	0.0
2026-01-25 07:34:58.357516	12.3	14.1	-62.0	0.0
2026-01-25 07:34:59.487194	12.3	14.2	-62.6	0.0
2026-01-25 07:35:00.612254	12.3	14.3	-61.9	0.0
2026-01-25 07:35:01.740551	12.3	14.5	-60.0	0.0
2026-01-25 07:35:02.869966	12.2	14.6	-62.2	0.0
2026-01-25 07:35:03.997255	12.2	14.7	-60.6	0.0
2026-01-25 07:35:05.126673	12.2	14.8	-62.6	0.0
2026-01-25 07:35:06.255219	12.1	14.9	-62.1	0.0
2026-01-25 07:35:07.382492	12.1	15.0	-62.1	0.0
2026-01-25 07:35:08.511160	12.1	15.2	-62.4	0.0
2026-01-25 07:35:09.637543	12.0	15.3	-64.7	0.0
2026-01-25 07:35:10.763784	12.0	15.4	-61.1	0.0
2026-01-25 07:35:11.893230	12.0	15.5	-63.6	0.0
2026-01-25 07:35:13.020872	11.9	15.7	-62.7	0.0
2026-01-25 07:35:14.149274	11.9	15.8	-63.7	0.0
2026-01-25 07:35:15.276589	11.9	15.9	-62.0	0.0
2026-01-25 07:35:16.404986	11.8	16.0	-62.9	0.0
2026-01-25 07:35:17.533229	11.8	16.1	-63.1	0.0
2026-01-25 07:35:18.660286	11.8	16.3	-61.8	0.0
2026-01-25 07:35:19.788348	11.7	16.4	-63.1	0.0
2026-01-25 07:35:20.916670	11.7	16.5	-63.6	0.0
2026-01-25 07:35:22.042807	11.6	16.7	-62.6	0.0
2026-01-25 07:35:23.170027	11.6	16.8	-64.2	0.0
2026-01-25 07:35:24.302154	11.6	16.9	-62.4	0.0
2026-01-25 07:35:25.429515	11.5	17.0	-62.8	0.0
2026-01-25 07:35:26.558012	11.5	17.2	-59.7	0.0
2026-01-25 07:35:27.684939	11.5	17.3	-62.6	0.0
2026-01-25 07:35:28.812936	11.4	17.4	-63.7	0.0
2026-01-25 07:35:29.939342	11.4	17.6	-63.1	0.0
2026-01-25 07:35:31.066227	11.3	17.7	-63.1	0.0
2026-01-25 07:35:32.192167	11.3	17.8	-63.6	0.0
2026-01-25 07:35:33.320700	11.3	18.0	-62.3	0.0
2026-01-25 07:35:34.448183	11.2	18.1	-61.5	0.0
2026-01-25 07:35:35.581324	11.2	18.2	-60.3	0.0
2026-01-25 07:35:36.709217	11.1	18.4	-61.5	0.0
2026-01-25 07:35:37.835326	11.1	18.5	-63.0	0.0
2026-01-25 07:35:38.962726	11.1	18.6	-61.0	0.0
2026-01-25 07:35:40.088993	11.0	18.8	-64.3	0.0
2026-01-25 07:35:41.216274	11.0	18.9	-61.8	0.0
2026-01-25 07:35:42.343078	10.9	19.1	-62.6	0.0
2026-01-25 07:35:43.469543	10.9	19.2	-62.2	0.0
2026-01-25 07:35:44.598051	10.8	19.3	-60.5	0.0
2026-01-25 07:35:45.726256	10.8	19.5	-62.8	0.0
2026-01-25 07:35:46.850580	10.8	19.6	-62.9	0.0
2026-01-25 07:35:47.977804	10.7	19.8	-62.5	0.0
2026-01-25 07:35:49.105747	10.7	19.9	-62.4	0.0
2026-01-25 07:35:50.230934	10.6	20.1	-61.6	0.0
2026-01-25 07:35:51.358829	10.6	20.2	-60.7	0.0
2026-01-25 07:35:52.485714	10.5	20.4	-63.3	0.0
2026-01-25 07:35:53.614039	10.5	20.5	-63.5	0.0
2026-01-25 07:35:54.740382	10.4	20.7	-64.8	0.0
2026-01-25 07:35:55.867812	10.4	20.8	-63.2	0.0
2026-01-25 07:35:56.992751	10.3	21.0	-63.7	0.0
2026-01-25 07:35:58.120490	10.3	21.1	-63.6	0.0
2026-01-25 07:35:59.249619	10.2	21.3	-64.7	0.0
2026-01-25 07:36:00.376889	10.2	21.4	-65.1	0.0
2026-01-25 07:36:01.504915	10.1	21.6	-65.8	0.0
2026-01-25 07:36:02.631388	10.1	21.7	-61.8	0.0
2026-01-25 07:36:03.757155	10.0	21.9	-65.4	0.0
2026-01-25 07:36:04.885165	10.0	22.0	-64.1	0.0
2026-01-25 07:36:06.015052	9.9	22.2	-65.0	0.0
2026-01-25 07:36:07.143716	9.9	22.4	-63.5	0.0
2026-01-25 07:36:08.271953	9.8	22.5	-62.8	0.0
2026-01-25 07:36:09.400121	9.8	22.7	-62.8	0.0
2026-01-25 07:36:10.526245	9.7	22.8	-62.6	0.0
2026-01-25 07:36:11.654060	9.6	23.0	-65.4	0.0
2026-01-25 07:36:12.781902	9.6	23.2	-63.7	0.0
2026-01-25 07:36:13.910165	9.5	23.3	-65.6	0.0
2026-01-25 07:36:15.039098	9.5	23.5	-64.5	0.0
2026-01-25 07:36:16.165049	9.4	23.7	-64.9	0.0
2026-01-25 07:36:17.293342	9.3	23.8	-63.0	0.0
2026-01-25 07:36:18.420962	9.3	24.0	-63.7	0.0
2026-01-25 07:36:19.549180	9.2	24.2	-64.7	0.0
2026-01-25 07:36:20.677957	9.2	24.3	-64.2	0.0
2026-01-25 07:36:21.806998	9.1	24.5	-63.5	0.0
2026-01-25 07:36:22.933392	9.0	24.7	-62.8	0.0
2026-01-25 07:36:24.060364	9.0	24.9	-64.1	0.0
2026-01-25 07:36:25.188224	8.9	25.0	-62.2	0.0
2026-01-25 07:36:26.316098	8.8	25.2	-65.1	0.0
2026-01-25 07:36:27.443383	8.8	25.4	-63.9	0.0
2026-01-25 07:36:28.569884	8.7	25.6	-65.2	0.0
2026-01-25 07:36:29.699160	8.6	25.8	-64.3	0.0
2026-01-25 07:36:30.825297	8.6	25.9	-66.2	0.0
2026-01-25 07:36:31.953688	8.5	26.1	-66.4	0.0
2026-01-25 07:36:33.082120	8.4	26.3	-65.9	0.0
2026-01-25 07:36:34.209172	8.4	26.5	-67.9	0.0
2026-01-25 07:36:35.335152	8.3	26.7	-66.3	0.0
2026-01-25 07:36:36.462659	8.2	26.9	-64.8	0.0
2026-01-25 07:36:37.591119	8.1	27.1	-66.5	0.0
2026-01-25 07:36:38.717945	8.1	27.3	-60.1	0.0
2026-01-25 07:36:39.843968	8.0	27.4	-65.5	0.0
2026-01-25 07:36:40.972172	7.9	27.6	-65.9	0.0
2026-01-25 07:36:42.100754	7.8	27.8	-65.8	0.0
2026-01-25 07:36:43.230122	7.7	28.0	-66.0	0.0
2026-01-25 07:36:44.357985	7.7	28.2	-66.2	0.0
2026-01-25 07:36:45.484956	7.6	28.4	-67.9	0.0
2026-01-25 07:36:46.612917	7.5	28.6	-65.6	0.0
2026-01-25 07:36:47.740352	7.4	28.8	-65.2	0.0
2026-01-25 07:36:48.868096	7.3	29.0	-64.5	0.0
2026-01-25 07:36:49.995051	7.2	29.2	-66.7	0.0
2026-01-25 07:36:51.122404	7.2	29.4	-66.0	0.0
2026-01-25 07:36:52.249602	7.1	29.6	-65.9	0.0
2026-01-25 07:36:53.377045	7.0	29.9	-65.7	0.0
2026-01-25 07:36:54.504304	6.9	30.1	-64.4	0.0
2026-01-25 07:36:55.638395	6.8	30.3	-66.0	0.0
2026-01-25 07:36:56.765431	6.7	30.5	-62.6	0.0
2026-01-25 07:36:57.893337	6.6	30.7	-63.4	0.0
2026-01-25 07:36:59.019569	6.5	30.9	-65.0	0.0
2026-01-25 07:37:00.149772	6.4	31.1	-65.2	0.0
2026-01-25 07:37:01.278683	6.3	31.4	-65.2	0.0
2026-01-25 07:37:02.405587	6.2	31.6	-63.2	0.0
2026-01-25 07:37:03.533959	6.1	31.8	-61.8	0.0
2026-01-25 07:37:04.661333	6.0	32.0	-64.5	0.0
2026-01-25 07:37:05.789257	5.9	32.2	-63.3	0.0
2026-01-25 07:37:06.917227	5.8	32.5	-63.6	0.0
2026-01-25 07:37:08.042712	5.7	32.7	-62.6	0.0
2026-01-25 07:37:09.170517	5.6	32.9	-62.2	0.0
2026-01-25 07:37:10.296424	5.5	33.2	-62.7	0.0
2026-01-25 07:37:11.423363	5.4	33.4	-60.4	0.0
2026-01-25 07:37:12.550341	5.2	33.6	-62.4	0.0
2026-01-25 07:37:13.677814	5.1	33.9	-65.2	0.0
2026-01-25 07:37:14.805149	5.0	34.1	-65.1	0.0
2026-01-25 07:37:15.931597	4.9	34.3	-65.7	0.0
2026-01-25 07:37:17.060171	4.8	34.6	-66.7	0.0
2026-01-25 07:37:18.187327	4.6	34.8	-66.6	0.0
2026-01-25 07:37:19.315405	4.5	35.1	-66.8	0.0
2026-01-25 07:37:20.442830	4.4	35.3	-66.4	0.0
2026-01-25 07:37:21.568894	4.3	35.6	-66.6	0.0
2026-01-25 07:37:22.696368	4.1	35.8	-65.6	0.0
2026-01-25 07:37:23.822299	4.0	36.1	-65.2	0.0
2026-01-25 07:37:24.947712	3.9	36.3	-66.4	0.0
2026-01-25 07:37:26.078343	3.7	36.6	-68.1	0.0
2026-01-25 07:37:27.206386	3.6	36.8	-66.9	0.0
2026-01-25 07:37:28.333928	3.4	37.1	-67.5	0.0
2026-01-25 07:37:29.459714	3.3	37.4	-68.3	0.0
2026-01-25 07:37:30.587590	3.2	37.6	-67.2	0.0
2026-01-25 07:37:31.713436	3.0	37.9	-68.5	0.0
2026-01-25 07:37:32.840571	2.9	38.2	-65.6	0.0
2026-01-25 07:37:33.967295	2.7	38.4	-68.0	0.0
2026-01-25 07:37:35.092704	2.5	38.7	-68.3	0.0
2026-01-25 07:37:36.220481	2.4	39.0	-69.0	2.4
2026-01-25 07:37:37.345121	2.2	39.3	-69.1	1.2
2026-01-25 07:37:38.472879	2.1	39.5	-67.8	0.0
2026-01-25 07:37:39.598314	1.9	39.8	-68.7	0.2
2026-01-25 07:37:40.726027	1.7	40.1	-67.4	0.0
2026-01-25 07:37:41.852890	1.5	40.4	-68.1	1.4
2026-01-25 07:37:42.979565	1.4	40.7	-69.7	5.5
2026-01-25 07:37:44.109950	1.2	40.9	-69.7	5.2
2026-01-25 07:37:45.237862	1.0	41.2	-68.9	2.3
2026-01-25 07:37:46.363171	0.8	41.5	-67.6	0.2
2026-01-25 07:37:47.488813	0.6	41.8	-67.7	1.1
2026-01-25 07:37:48.615786	0.4	42.1	-67.1	1.1
2026-01-25 07:37:49.743952	0.2	42.4	-68.2	5.4
2026-01-25 07:37:50.869524	0.0	42.7	-68.5	4.8
2026-01-25 07:37:51.997808	359.8	43.0	-67.9	2.3
2026-01-25 07:37:53.126115	359.6	43.3	-68.5	4.5
2026-01-25 07:37:54.252853	359.4	43.6	-69.7	6.1
2026-01-25 07:37:55.378577	359.2	43.9	-71.2	8.0
2026-01-25 07:37:56.507396	359.0	44.2	-69.6	6.9
2026-01-25 07:37:57.634012	358.7	44.5	-68.4	3.8
2026-01-25 07:37:58.759885	358.5	44.9	-69.2	3.7
2026-01-25 07:37:59.886538	358.3	45.2	-68.9	5.2
2026-01-25 07:38:01.013703	358.0	45.5	-70.1	4.5
2026-01-25 07:38:02.139362	357.8	45.8	-70.7	5.2
2026-01-25 07:38:03.265517	357.5	46.1	-70.8	4.5
2026-01-25 07:38:04.391329	357.3	46.4	-71.2	5.2
2026-01-25 07:38:05.517824	357.0	46.8	-71.1	6.2
2026-01-25 07:38:06.643062	356.7	47.1	-70.6	4.2
2026-01-25 07:38:07.771358	356.5	47.4	-70.8	6.4
2026-01-25 07:38:08.896676	356.2	47.7	-70.9	5.5
2026-01-25 07:38:10.023314	355.9	48.1	-71.9	8.6
2026-01-25 07:38:11.150196	355.6	48.4	-71.3	7.9
2026-01-25 07:38:12.274079	355.3	48.7	-71.7	7.4
2026-01-25 07:38:13.401430	355.0	49.1	-72.0	8.8
2026-01-25 07:38:14.527998	354.7	49.4	-70.8	5.5
2026-01-25 07:38:15.655119	354.4	49.8	-71.8	7.7
2026-01-25 07:38:16.780557	354.0	50.1	-70.3	7.0
2026-01-25 07:38:17.905837	353.7	50.4	-71.9	9.7
2026-01-25 07:38:19.033616	353.4	50.8	-71.8	9.1
2026-01-25 07:38:20.159475	353.0	51.1	-71.5	7.8
2026-01-25 07:38:21.286680	352.7	51.5	-71.9	9.5
2026-01-25 07:38:22.413921	352.3	51.8	-69.9	6.4
2026-01-25 07:38:23.541108	351.9	52.2	-71.2	7.9
2026-01-25 07:38:24.667315	351.5	52.5	-70.7	8.4
2026-01-25 07:38:25.793528	351.1	52.9	-71.5	8.9
2026-01-25 07:38:26.920792	350.7	53.2	-70.8	6.6
2026-01-25 07:38:28.046744	350.3	53.6	-70.7	6.6
2026-01-25 07:38:29.172112	349.9	53.9	-70.4	7.9
2026-01-25 07:38:30.298670	349.5	54.3	-71.0	5.1
2026-01-25 07:38:31.424862	349.0	54.7	-71.7	6.8
2026-01-25 07:38:32.551261	348.6	55.0	-71.8	7.4
2026-01-25 07:38:33.677676	348.1	55.4	-71.3	6.3
2026-01-25 07:38:34.803511	347.6	55.7	-70.2	4.4
2026-01-25 07:38:35.929624	347.1	56.1	-71.7	6.9
2026-01-25 07:38:37.055897	346.6	56.5	-70.8	6.6
2026-01-25 07:38:38.181805	346.1	56.8	-70.8	5.4
2026-01-25 07:38:39.309031	345.6	57.2	-71.4	6.8
2026-01-25 07:38:40.432602	345.0	57.5	-71.5	7.3
2026-01-25 07:38:41.561641	344.5	57.9	-70.7	5.3
2026-01-25 07:38:42.688348	343.9	58.3	-71.6	6.6
2026-01-25 07:38:43.815123	343.3	58.6	-70.0	4.5
2026-01-25 07:38:44.941641	342.7	59.0	-71.8	7.2
2026-01-25 07:38:46.066461	342.1	59.3	-72.0	6.7
2026-01-25 07:38:47.193435	341.4	59.7	-71.2	5.8
2026-01-25 07:38:48.319992	340.8	60.0	-71.0	4.4
2026-01-25 07:38:49.446305	340.1	60.4	-72.2	6.4
2026-01-25 07:38:50.574456	339.4	60.7	-70.3	2.7
2026-01-25 07:38:51.701039	338.7	61.1	-69.3	2.6
2026-01-25 07:38:52.826204	337.9	61.4	-70.4	4.8
2026-01-25 07:38:53.952502	337.2	61.8	-72.5	8.9
2026-01-25 07:38:55.078538	336.4	62.1	-71.6	9.3
2026-01-25 07:38:56.202920	335.6	62.4	-72.0	7.5
2026-01-25 07:38:57.328821	334.7	62.8	-71.2	8.3
2026-01-25 07:38:58.456785	333.9	63.1	-70.0	4.6
2026-01-25 07:38:59.582939	333.0	63.4	-71.1	7.5
2026-01-25 07:39:00.710063	332.1	63.8	-71.1	7.1
2026-01-25 07:39:01.835834	331.2	64.1	-71.4	8.8
2026-01-25 07:39:02.961582	330.2	64.4	-70.3	5.0
2026-01-25 07:39:04.087181	329.3	64.7	-70.9	8.4
2026-01-25 07:39:05.214447	328.3	65.0	-70.3	5.1
2026-01-25 07:39:06.344011	327.2	65.3	-71.0	5.8
2026-01-25 07:39:07.471272	326.2	65.6	-71.3	4.6
2026-01-25 07:39:08.599178	325.1	65.9	-71.4	7.7
2026-01-25 07:39:09.726315	324.0	66.2	-71.1	7.7
2026-01-25 07:39:10.852117	322.8	66.4	-70.9	6.1
2026-01-25 07:39:11.978342	321.7	66.7	-71.0	5.0
2026-01-25 07:39:13.101736	320.5	66.9	-72.2	7.5
2026-01-25 07:39:14.227155	319.2	67.2	-71.4	7.1
2026-01-25 07:39:15.352867	318.0	67.4	-72.0	6.7
2026-01-25 07:39:16.479587	316.7	67.6	-72.6	7.0
2026-01-25 07:39:17.607057	315.4	67.9	-72.2	4.9
2026-01-25 07:39:18.733115	314.0	68.1	-72.1	6.3
2026-01-25 07:39:19.860077	312.7	68.3	-71.8	3.7
2026-01-25 07:39:20.984291	311.3	68.4	-72.2	6.7
2026-01-25 07:39:22.111839	309.9	68.6	-70.9	1.3
2026-01-25 07:39:23.238226	308.4	68.8	-72.1	4.7
2026-01-25 07:39:24.366264	307.0	68.9	-72.5	6.3
2026-01-25 07:39:25.492176	305.5	69.0	-72.3	4.3
2026-01-25 07:39:26.616731	304.0	69.2	-72.1	5.8
2026-01-25 07:39:27.740741	302.4	69.3	-72.6	4.5
2026-01-25 07:39:28.867236	300.9	69.4	-71.7	2.2
2026-01-25 07:39:29.992079	299.4	69.4	-72.2	3.5
2026-01-25 07:39:31.118097	297.8	69.5	-71.7	1.4
2026-01-25 07:39:32.242978	296.2	69.6	-73.6	6.2
2026-01-25 07:39:33.367476	294.6	69.6	-72.0	2.0
2026-01-25 07:39:34.493218	293.0	69.6	-72.7	6.1
2026-01-25 07:39:35.620212	291.5	69.6	-73.1	5.8
2026-01-25 07:39:36.746632	289.9	69.6	-72.6	2.1
2026-01-25 07:39:37.874335	288.3	69.6	-73.3	7.2
2026-01-25 07:39:39.001689	286.7	69.6	-73.4	6.6
2026-01-25 07:39:40.126129	285.1	69.5	-73.0	5.6
2026-01-25 07:39:41.252637	283.5	69.4	-73.3	1.2
2026-01-25 07:39:42.379722	282.0	69.4	-73.1	5.1
2026-01-25 07:39:43.504014	280.5	69.3	-73.9	7.4
2026-01-25 07:39:44.629574	278.9	69.2	-73.5	5.1
2026-01-25 07:39:45.755484	277.4	69.0	-73.6	4.3
2026-01-25 07:39:46.880516	275.9	68.9	-73.6	6.3
2026-01-25 07:39:48.007821	274.5	68.8	-74.2	7.2
2026-01-25 07:39:49.134923	273.0	68.6	-73.5	8.1
2026-01-25 07:39:50.260900	271.6	68.4	-73.6	7.6
2026-01-25 07:39:51.387173	270.2	68.2	-73.7	6.5
2026-01-25 07:39:52.514140	268.8	68.1	-73.9	7.7
2026-01-25 07:39:53.639090	267.5	67.8	-73.9	8.4
2026-01-25 07:39:54.767206	266.2	67.6	-74.2	9.1
2026-01-25 07:39:55.892560	264.9	67.4	-73.9	8.9
2026-01-25 07:39:57.019123	263.7	67.2	-73.9	7.1
2026-01-25 07:39:58.147817	262.4	66.9	-74.4	8.7
2026-01-25 07:39:59.279111	261.2	66.7	-74.6	7.8
2026-01-25 07:40:00.406143	260.0	66.4	-73.7	7.1
2026-01-25 07:40:01.531064	258.9	66.1	-74.0	9.8
2026-01-25 07:40:02.659624	257.8	65.9	-73.8	8.6
2026-01-25 07:40:03.786162	256.7	65.6	-73.8	9.2
2026-01-25 07:40:04.912965	255.6	65.3	-73.6	8.6
2026-01-25 07:40:06.040986	254.6	65.0	-73.4	9.2
2026-01-25 07:40:07.169121	253.6	64.7	-73.8	9.2
2026-01-25 07:40:08.298285	252.6	64.4	-73.5	9.3
2026-01-25 07:40:09.425389	251.7	64.1	-73.9	9.9
2026-01-25 07:40:10.552315	250.8	63.7	-73.8	9.6
2026-01-25 07:40:11.679080	249.9	63.4	-73.8	9.3
2026-01-25 07:40:12.806394	249.0	63.1	-73.5	9.0
2026-01-25 07:40:13.932626	248.1	62.8	-73.6	9.7
2026-01-25 07:40:15.059938	247.3	62.4	-74.0	9.8
2026-01-25 07:40:16.186600	246.5	62.1	-73.8	9.5
2026-01-25 07:40:17.311017	245.7	61.7	-73.7	9.0
2026-01-25 07:40:18.436540	245.0	61.4	-73.6	9.0
2026-01-25 07:40:19.564911	244.2	61.1	-73.8	10.7
2026-01-25 07:40:20.691907	243.5	60.7	-74.3	9.6
2026-01-25 07:40:21.818663	242.8	60.4	-73.6	9.1
2026-01-25 07:40:22.947185	242.1	60.0	-73.6	9.6
2026-01-25 07:40:24.074204	241.5	59.6	-74.3	10.0
2026-01-25 07:40:25.201301	240.8	59.3	-73.8	9.2
2026-01-25 07:40:26.329222	240.2	58.9	-73.9	9.9
2026-01-25 07:40:27.455041	239.6	58.6	-73.6	9.1
2026-01-25 07:40:28.582439	239.0	58.2	-73.6	10.3
2026-01-25 07:40:29.710389	238.4	57.9	-73.6	9.6
2026-01-25 07:40:30.841011	237.8	57.5	-73.8	10.5
2026-01-25 07:40:31.970025	237.3	57.1	-73.3	9.8
2026-01-25 07:40:33.098188	236.8	56.8	-73.3	9.3
2026-01-25 07:40:34.225222	236.2	56.4	-73.4	8.6
2026-01-25 07:40:35.351460	235.7	56.0	-73.8	10.4
2026-01-25 07:40:36.485085	235.2	55.7	-74.0	9.3
2026-01-25 07:40:37.610038	234.8	55.3	-73.9	10.8
2026-01-25 07:40:38.737531	234.3	55.0	-73.7	8.5
2026-01-25 07:40:39.865930	233.8	54.6	-73.5	9.5
2026-01-25 07:40:40.993250	233.4	54.3	-73.5	10.0
2026-01-25 07:40:42.122642	233.0	53.9	-73.4	10.1
2026-01-25 07:40:43.249504	232.5	53.5	-73.4	10.2
2026-01-25 07:40:44.377688	232.1	53.2	-73.2	9.7
2026-01-25 07:40:45.503290	231.7	52.8	-73.3	9.8
2026-01-25 07:40:46.628090	231.3	52.5	-73.2	10.6
2026-01-25 07:40:47.754729	230.9	52.1	-73.1	10.0
2026-01-25 07:40:48.883254	230.6	51.8	-73.4	10.8
2026-01-25 07:40:50.007539	230.2	51.4	-72.9	9.7
2026-01-25 07:40:51.135882	229.8	51.1	-73.2	9.8
2026-01-25 07:40:52.261374	229.5	50.7	-73.1	10.6
2026-01-25 07:40:53.385613	229.1	50.4	-73.0	10.3
2026-01-25 07:40:54.511046	228.8	50.0	-72.7	10.4
2026-01-25 07:40:55.637444	228.5	49.7	-72.6	9.7
2026-01-25 07:40:56.762874	228.2	49.4	-73.3	10.9
2026-01-25 07:40:57.890234	227.9	49.0	-72.5	7.9
2026-01-25 07:40:59.016889	227.6	48.7	-73.2	9.6
2026-01-25 07:41:00.142552	227.3	48.3	-73.1	9.3
2026-01-25 07:41:01.271755	227.0	48.0	-73.5	9.0
2026-01-25 07:41:02.397234	226.7	47.7	-73.4	9.3
2026-01-25 07:41:03.522293	226.4	47.3	-73.5	9.8
2026-01-25 07:41:04.646936	226.1	47.0	-73.4	10.1
2026-01-25 07:41:05.774592	225.9	46.7	-73.2	9.2
2026-01-25 07:41:06.902400	225.6	46.4	-73.5	9.5
2026-01-25 07:41:08.028887	225.3	46.0	-73.7	9.2
2026-01-25 07:41:09.155254	225.1	45.7	-73.7	10.2
2026-01-25 07:41:10.279185	224.8	45.4	-73.6	9.9
2026-01-25 07:41:11.406485	224.6	45.1	-73.8	10.2
2026-01-25 07:41:12.530825	224.4	44.8	-73.9	9.3
2026-01-25 07:41:13.658852	224.1	44.5	-73.8	10.8
2026-01-25 07:41:14.789303	223.9	44.1	-73.7	10.5
2026-01-25 07:41:15.917855	223.7	43.8	-73.8	10.5
2026-01-25 07:41:17.046318	223.5	43.5	-73.8	11.2
2026-01-25 07:41:18.175036	223.2	43.2	-73.8	10.8
2026-01-25 07:41:19.301039	223.0	42.9	-73.9	11.5
2026-01-25 07:41:20.425926	222.8	42.6	-73.8	11.1
2026-01-25 07:41:21.553779	222.6	42.3	-74.1	11.3
2026-01-25 07:41:22.679187	222.4	42.0	-73.7	11.4
2026-01-25 07:41:23.807521	222.2	41.7	-74.1	11.7
2026-01-25 07:41:24.935279	222.0	41.4	-74.2	11.4
2026-01-25 07:41:26.061865	221.9	41.1	-73.8	10.4
2026-01-25 07:41:27.189206	221.7	40.8	-74.0	11.1
2026-01-25 07:41:28.317007	221.5	40.6	-74.2	11.2
2026-01-25 07:41:29.441909	221.3	40.3	-73.9	10.9
2026-01-25 07:41:30.567539	221.1	40.0	-74.2	11.4
2026-01-25 07:41:31.693008	221.0	39.7	-74.2	11.6
2026-01-25 07:41:32.821740	220.8	39.4	-73.9	10.8
2026-01-25 07:41:33.947877	220.6	39.2	-74.0	11.4
2026-01-25 07:41:35.073391	220.5	38.9	-74.2	11.3
2026-01-25 07:41:36.199913	220.3	38.6	-74.1	10.5
2026-01-25 07:41:37.326826	220.2	38.3	-74.1	10.8
2026-01-25 07:41:38.453083	220.0	38.1	-74.1	10.2
2026-01-25 07:41:39.583549	219.8	37.8	-73.8	11.1
2026-01-25 07:41:40.711713	219.7	37.5	-73.8	11.0
2026-01-25 07:41:41.838255	219.5	37.3	-74.0	10.6
2026-01-25 07:41:42.960950	219.4	37.0	-74.0	10.4
2026-01-25 07:41:44.087629	219.3	36.7	-73.8	9.7
2026-01-25 07:41:45.212625	219.1	36.5	-73.8	10.6
2026-01-25 07:41:46.337755	219.0	36.2	-73.6	9.1
2026-01-25 07:41:47.463074	218.8	36.0	-73.7	9.8
2026-01-25 07:41:48.589109	218.7	35.7	-74.0	8.6
2026-01-25 07:41:49.713901	218.6	35.5	-74.3	9.6
2026-01-25 07:41:50.838950	218.5	35.2	-73.8	10.1
2026-01-25 07:41:51.965197	218.3	35.0	-73.8	10.1
2026-01-25 07:41:53.094483	218.2	34.7	-73.5	8.5
2026-01-25 07:41:54.218397	218.1	34.5	-73.7	10.1
2026-01-25 07:41:55.341772	218.0	34.2	-73.2	9.4
2026-01-25 07:41:56.466377	217.8	34.0	-73.0	8.9
2026-01-25 07:41:57.593063	217.7	33.8	-73.1	8.7
2026-01-25 07:41:58.718318	217.6	33.5	-73.1	7.6
2026-01-25 07:41:59.843431	217.5	33.3	-72.6	7.2
2026-01-25 07:42:00.970291	217.4	33.1	-72.8	6.0
2026-01-25 07:42:02.098005	217.3	32.8	-72.8	4.9
2026-01-25 07:42:03.222527	217.2	32.6	-73.1	7.7
2026-01-25 07:42:04.348161	217.0	32.4	-73.0	6.3
2026-01-25 07:42:05.471834	216.9	32.1	-72.9	7.7
2026-01-25 07:42:06.595978	216.8	31.9	-73.2	7.4
2026-01-25 07:42:07.720416	216.7	31.7	-73.2	6.3
2026-01-25 07:42:08.845825	216.6	31.5	-73.0	4.6
2026-01-25 07:42:09.970907	216.5	31.2	-72.9	6.7
2026-01-25 07:42:11.094614	216.4	31.0	-72.6	5.0
2026-01-25 07:42:12.220446	216.3	30.8	-72.6	4.9
2026-01-25 07:42:13.349183	216.2	30.6	-72.2	5.7
2026-01-25 07:42:14.473238	216.1	30.4	-72.0	3.9
2026-01-25 07:42:15.599065	216.0	30.2	-71.8	3.4
2026-01-25 07:42:16.725161	216.0	30.0	-72.8	5.8
2026-01-25 07:42:17.851127	215.9	29.7	-72.1	4.4
2026-01-25 07:42:18.978189	215.8	29.5	-71.9	5.8
2026-01-25 07:42:20.106011	215.7	29.3	-72.0	2.3
2026-01-25 07:42:21.230944	215.6	29.1	-71.9	2.1
2026-01-25 07:42:22.357436	215.5	28.9	-71.8	3.9
2026-01-25 07:42:23.483535	215.4	28.7	-72.4	5.1
2026-01-25 07:42:24.607652	215.3	28.5	-72.4	1.5
2026-01-25 07:42:25.734623	215.3	28.3	-71.9	1.9
2026-01-25 07:42:26.860577	215.2	28.1	-72.0	2.4
2026-01-25 07:42:27.987791	215.1	27.9	-72.1	3.0
2026-01-25 07:42:29.114883	215.0	27.7	-71.8	1.3
2026-01-25 07:42:30.239367	214.9	27.5	-71.6	3.1
2026-01-25 07:42:31.364969	214.9	27.3	-72.6	0.0
2026-01-25 07:42:32.489570	214.8	27.1	-71.6	0.2
2026-01-25 07:42:33.615212	214.7	26.9	-71.7	3.3
2026-01-25 07:42:34.741020	214.6	26.8	-71.2	1.3
2026-01-25 07:42:35.866993	214.6	26.6	-71.5	1.5
2026-01-25 07:42:36.992925	214.5	26.4	-70.9	0.0
2026-01-25 07:42:38.119699	214.4	26.2	-71.0	0.6
2026-01-25 07:42:39.248000	214.3	26.0	-71.3	0.0
2026-01-25 07:42:40.375530	214.3	25.8	-70.7	0.0
2026-01-25 07:42:41.502257	214.2	25.6	-70.2	0.0
2026-01-25 07:42:42.626904	214.1	25.5	-72.0	2.0
2026-01-25 07:42:43.753914	214.1	25.3	-71.9	0.0
2026-01-25 07:42:44.881338	214.0	25.1	-71.0	0.0
2026-01-25 07:42:46.007601	213.9	24.9	-71.4	0.0
2026-01-25 07:42:47.133918	213.9	24.8	-70.9	0.0
2026-01-25 07:42:48.260411	213.8	24.6	-70.6	0.0
2026-01-25 07:42:49.384011	213.7	24.4	-70.6	0.0
2026-01-25 07:42:50.509407	213.7	24.2	-70.6	0.0
2026-01-25 07:42:51.636108	213.6	24.1	-71.3	0.0
2026-01-25 07:42:52.763703	213.5	23.9	-70.9	0.0
2026-01-25 07:42:53.889453	213.5	23.7	-71.3	0.0
2026-01-25 07:42:55.015091	213.4	23.5	-70.6	0.0
2026-01-25 07:42:56.141168	213.4	23.4	-70.7	0.0
2026-01-25 07:42:57.267453	213.3	23.2	-70.4	0.0
2026-01-25 07:42:58.393773	213.2	23.0	-70.4	0.5
2026-01-25 07:42:59.519060	213.2	22.9	-70.6	0.0
2026-01-25 07:43:00.645906	213.1	22.7	-70.0	0.0
2026-01-25 07:43:01.773121	213.1	22.6	-70.7	0.0
2026-01-25 07:43:02.901246	213.0	22.4	-71.2	0.0
2026-01-25 07:43:04.024792	213.0	22.2	-69.8	0.0
2026-01-25 07:43:05.153539	212.9	22.1	-70.0	0.0
2026-01-25 07:43:06.278062	212.8	21.9	-70.8	0.0
2026-01-25 07:43:07.405219	212.8	21.8	-71.3	0.0
2026-01-25 07:43:08.530748	212.7	21.6	-70.3	0.0
2026-01-25 07:43:09.655580	212.7	21.4	-70.4	0.0
2026-01-25 07:43:10.782586	212.6	21.3	-69.7	0.0
2026-01-25 07:43:11.909819	212.6	21.1	-69.2	0.0
2026-01-25 07:43:13.034960	212.5	21.0	-69.4	0.0
2026-01-25 07:43:14.162536	212.5	20.8	-69.5	0.0
2026-01-25 07:43:15.289192	212.4	20.7	-70.2	0.0
2026-01-25 07:43:16.413888	212.4	20.5	-69.7	0.0
2026-01-25 07:43:17.539805	212.3	20.4	-69.8	0.0
2026-01-25 07:43:18.664416	212.3	20.2	-69.5	0.0
2026-01-25 07:43:19.790108	212.2	20.1	-69.3	0.0
2026-01-25 07:43:20.916128	212.2	19.9	-69.6	0.0
2026-01-25 07:43:22.042322	212.1	19.8	-70.0	0.0
2026-01-25 07:43:23.168044	212.1	19.7	-69.3	0.0
2026-01-25 07:43:24.298788	212.0	19.5	-69.6	0.0
2026-01-25 07:43:25.425667	212.0	19.4	-69.8	0.0
2026-01-25 07:43:26.553109	212.0	19.2	-70.1	0.0
2026-01-25 07:43:27.679851	211.9	19.1	-71.0	0.0
2026-01-25 07:43:28.807691	211.9	18.9	-70.1	0.0
2026-01-25 07:43:29.933228	211.8	18.8	-70.2	0.0
2026-01-25 07:43:31.059081	211.8	18.7	-69.4	0.0
2026-01-25 07:43:32.186703	211.7	18.5	-70.7	0.0
2026-01-25 07:43:33.314054	211.7	18.4	-70.1	0.0
2026-01-25 07:43:34.441223	211.6	18.2	-69.8	0.0
2026-01-25 07:43:35.566736	211.6	18.1	-70.1	0.0
2026-01-25 07:43:36.692187	211.6	18.0	-70.1	0.0
2026-01-25 07:43:37.818260	211.5	17.8	-70.1	0.0
2026-01-25 07:43:38.943492	211.5	17.7	-70.6	0.0
2026-01-25 07:43:40.070459	211.4	17.6	-69.6	0.0
2026-01-25 07:43:41.195820	211.4	17.4	-69.7	0.0
2026-01-25 07:43:42.322744	211.4	17.3	-69.5	0.0
2026-01-25 07:43:43.447434	211.3	17.2	-69.6	0.0
2026-01-25 07:43:44.574697	211.3	17.0	-69.2	0.0
2026-01-25 07:43:45.700925	211.2	16.9	-70.0	0.0
2026-01-25 07:43:46.825142	211.2	16.8	-68.8	0.0
2026-01-25 07:43:47.950679	211.2	16.7	-70.0	0.0
2026-01-25 07:43:49.081673	211.1	16.5	-69.2	0.0
2026-01-25 07:43:50.207414	211.1	16.4	-69.7	0.0
2026-01-25 07:43:51.334471	211.1	16.3	-69.2	0.0
2026-01-25 07:43:52.461456	211.0	16.1	-70.1	0.0
2026-01-25 07:43:53.587296	211.0	16.0	-69.1	0.0
2026-01-25 07:43:54.711568	211.0	15.9	-71.2	0.0
2026-01-25 07:43:55.836464	210.9	15.8	-69.8	0.0
2026-01-25 07:43:56.962162	210.9	15.6	-69.2	0.0
2026-01-25 07:43:58.088532	210.8	15.5	-69.1	0.0
2026-01-25 07:43:59.216523	210.8	15.4	-69.5	0.0
2026-01-25 07:44:00.343231	210.8	15.3	-69.7	0.0
2026-01-25 07:44:01.468048	210.7	15.2	-69.4	0.0
2026-01-25 07:44:02.592331	210.7	15.0	-69.4	0.0
2026-01-25 07:44:03.717379	210.7	14.9	-72.1	0.0
2026-01-25 07:44:04.842429	210.6	14.8	-69.5	0.0
2026-01-25 07:44:05.969445	210.6	14.7	-69.0	0.0
2026-01-25 07:44:07.097411	210.6	14.6	-70.1	0.0
2026-01-25 07:44:08.226405	210.5	14.4	-70.4	0.0
2026-01-25 07:44:09.353362	210.5	14.3	-70.6	0.0
2026-01-25 07:44:10.479236	210.5	14.2	-69.4	0.0
2026-01-25 07:44:11.606056	210.5	14.1	-69.9	0.0
2026-01-25 07:44:12.732281	210.4	14.0	-69.5	0.0
2026-01-25 07:44:13.858429	210.4	13.9	-69.5	0.0
2026-01-25 07:44:14.985144	210.4	13.7	-70.4	0.0
2026-01-25 07:44:16.110009	210.3	13.6	-69.4	0.0
2026-01-25 07:44:17.235534	210.3	13.5	-69.3	0.0
2026-01-25 07:44:18.365293	210.3	13.4	-69.6	0.0
2026-01-25 07:44:19.493819	210.2	13.3	-70.3	0.0
2026-01-25 07:44:20.620346	210.2	13.2	-70.0	0.0
2026-01-25 07:44:21.746703	210.2	13.1	-71.2	0.0
2026-01-25 07:44:22.874066	210.2	13.0	-70.4	0.0
2026-01-25 07:44:24.000026	210.1	12.9	-70.3	0.0
2026-01-25 07:44:25.124757	210.1	12.7	-70.9	0.0
2026-01-25 07:44:26.250282	210.1	12.6	-71.1	0.0
2026-01-25 07:44:27.380263	210.0	12.5	-70.4	0.0
2026-01-25 07:44:28.506186	210.0	12.4	-70.3	0.0
2026-01-25 07:44:29.632198	210.0	12.3	-70.4	0.0
2026-01-25 07:44:30.758352	210.0	12.2	-70.8	0.0
2026-01-25 07:44:31.885039	209.9	12.1	-70.1	0.0
2026-01-25 07:44:33.009947	209.9	12.0	-70.3	0.0
2026-01-25 07:44:34.134864	209.9	11.9	-70.5	0.0
2026-01-25 07:44:35.260896	209.9	11.8	-70.7	0.0
2026-01-25 07:44:36.386860	209.8	11.7	-71.0	0.0
2026-01-25 07:44:37.512883	209.8	11.6	-69.9	0.0
2026-01-25 07:44:38.639075	209.8	11.5	-70.9	0.0
2026-01-25 07:44:39.764971	209.8	11.4	-69.0	0.0
2026-01-25 07:44:40.890391	209.7	11.3	-69.8	0.0
2026-01-25 07:44:42.015635	209.7	11.2	-69.3	0.0
2026-01-25 07:44:43.141019	209.7	11.0	-70.3	0.0
2026-01-25 07:44:44.268205	209.7	10.9	-69.7	0.0
2026-01-25 07:44:45.392915	209.6	10.8	-70.0	0.0
2026-01-25 07:44:46.523430	209.6	10.7	-71.7	0.0
2026-01-25 07:44:47.649405	209.6	10.6	-74.6	0.0
2026-01-25 07:44:48.776244	209.6	10.5	-77.5	0.0
2026-01-25 07:44:49.902120	209.5	10.4	-78.9	0.0
2026-01-25 07:44:51.027354	209.5	10.3	-78.5	0.0
2026-01-25 07:44:52.155445	209.5	10.2	-78.2	0.0
2026-01-25 07:44:53.282522	209.5	10.1	-78.9	0.0
2026-01-25 07:44:54.409251	209.4	10.0	-78.5	0.0
#Closed at: 2026-01-25 07:34:09.504835