passes_logs/2026/01/25/planumMaritime01/planumMaritime01__20260125_111104_METEOR-M2_4_rec.log

#Pass ID: 20260125_111104_METEOR-M2 4
#Satellite: METEOR-M2 4
#Configuration: METEOR-M2 4
#Start time: 2026-01-25 11:11:09.329891

#LorettStation: 1.0.0 05.05.2024
#Station: planumMaritime01
#Location: 37.49445 lon 55.92918 lat
#TLE: 1 59051U 24039A   26024.26280030  .00000113  00000+0  70284-4 0  9992
#TLE: 2 59051  98.6828 345.5183 0006251 220.2927 139.7788 14.22409431 98808

#Time	Az	El	Level	SNR
2026-01-25 11:11:11.499492	155.7	10.2	-81.1	0.0
2026-01-25 11:11:12.628444	155.7	10.3	-78.8	0.0
2026-01-25 11:11:13.763686	155.7	10.4	-80.2	0.0
2026-01-25 11:11:14.894400	155.7	10.5	-80.1	0.0
2026-01-25 11:11:16.028056	155.7	10.6	-79.5	0.0
2026-01-25 11:11:17.165205	155.7	10.7	-78.2	4.0
2026-01-25 11:11:18.300990	155.7	10.8	-77.3	3.1
2026-01-25 11:11:19.436215	155.7	10.9	-77.7	6.2
2026-01-25 11:11:20.571869	155.6	11.0	-77.4	6.7
2026-01-25 11:11:21.706376	155.6	11.1	-77.2	6.5
2026-01-25 11:11:22.840079	155.6	11.2	-77.7	6.9
2026-01-25 11:11:23.976855	155.6	11.3	-77.1	7.9
2026-01-25 11:11:25.109680	155.6	11.4	-77.4	6.0
2026-01-25 11:11:26.246018	155.6	11.5	-77.4	6.7
2026-01-25 11:11:27.380640	155.6	11.6	-76.6	5.0
2026-01-25 11:11:28.513323	155.6	11.7	-77.8	7.1
2026-01-25 11:11:29.648460	155.6	11.8	-77.2	7.3
2026-01-25 11:11:30.784733	155.5	12.0	-77.4	7.2
2026-01-25 11:11:31.919353	155.5	12.1	-76.5	5.4
2026-01-25 11:11:33.054303	155.5	12.2	-77.5	6.6
2026-01-25 11:11:34.186582	155.5	12.3	-77.0	5.5
2026-01-25 11:11:35.322346	155.5	12.4	-77.2	6.0
2026-01-25 11:11:36.455988	155.5	12.5	-76.9	4.3
2026-01-25 11:11:37.590434	155.5	12.6	-77.0	5.6
2026-01-25 11:11:38.723599	155.5	12.7	-77.2	7.4
2026-01-25 11:11:39.858254	155.4	12.8	-76.6	6.9
2026-01-25 11:11:40.990372	155.4	12.9	-77.6	7.4
2026-01-25 11:11:42.124223	155.4	13.1	-77.8	7.7
2026-01-25 11:11:43.259015	155.4	13.2	-77.3	7.0
2026-01-25 11:11:44.392894	155.4	13.3	-77.5	6.7
2026-01-25 11:11:45.530395	155.4	13.4	-76.9	7.5
2026-01-25 11:11:46.669948	155.4	13.5	-77.4	6.2
2026-01-25 11:11:47.808555	155.3	13.6	-77.2	5.6
2026-01-25 11:11:48.946534	155.3	13.7	-77.4	6.7
2026-01-25 11:11:50.084005	155.3	13.9	-77.0	7.0
2026-01-25 11:11:51.221242	155.3	14.0	-77.6	7.1
2026-01-25 11:11:52.360297	155.3	14.1	-77.0	5.9
2026-01-25 11:11:53.498221	155.3	14.2	-77.3	8.3
2026-01-25 11:11:54.633121	155.3	14.3	-77.2	8.0
2026-01-25 11:11:55.769455	155.2	14.4	-76.9	7.5
2026-01-25 11:11:56.906251	155.2	14.6	-77.5	8.0
2026-01-25 11:11:58.040576	155.2	14.7	-77.4	5.9
2026-01-25 11:11:59.175347	155.2	14.8	-76.7	7.2
2026-01-25 11:12:00.308225	155.2	14.9	-77.4	7.0
2026-01-25 11:12:01.445748	155.2	15.0	-77.4	8.5
2026-01-25 11:12:02.578651	155.2	15.2	-77.6	5.5
2026-01-25 11:12:03.711590	155.1	15.3	-77.2	8.0
2026-01-25 11:12:04.843780	155.1	15.4	-77.1	6.5
2026-01-25 11:12:05.977381	155.1	15.5	-76.8	7.5
2026-01-25 11:12:07.110173	155.1	15.7	-77.5	6.4
2026-01-25 11:12:08.241116	155.1	15.8	-76.9	6.9
2026-01-25 11:12:09.377771	155.1	15.9	-77.0	6.5
2026-01-25 11:12:10.517320	155.0	16.0	-76.9	4.5
2026-01-25 11:12:11.654901	155.0	16.2	-75.8	2.6
2026-01-25 11:12:12.794084	155.0	16.3	-75.9	3.5
2026-01-25 11:12:13.931051	155.0	16.4	-77.3	7.8
2026-01-25 11:12:15.069665	155.0	16.6	-77.4	6.4
2026-01-25 11:12:16.207728	155.0	16.7	-77.2	6.7
2026-01-25 11:12:17.344609	154.9	16.8	-77.5	5.2
2026-01-25 11:12:18.483179	154.9	17.0	-76.9	6.4
2026-01-25 11:12:19.620555	154.9	17.1	-77.5	6.5
2026-01-25 11:12:20.756798	154.9	17.2	-77.3	6.6
2026-01-25 11:12:21.896650	154.9	17.4	-76.9	5.0
2026-01-25 11:12:23.033084	154.8	17.5	-76.8	6.8
2026-01-25 11:12:24.169617	154.8	17.6	-77.0	8.5
2026-01-25 11:12:25.308638	154.8	17.8	-77.3	8.6
2026-01-25 11:12:26.445685	154.8	17.9	-77.0	8.2
2026-01-25 11:12:27.585368	154.8	18.0	-77.3	8.6
2026-01-25 11:12:28.723928	154.7	18.2	-77.0	6.3
2026-01-25 11:12:29.864047	154.7	18.3	-77.2	7.6
2026-01-25 11:12:31.003735	154.7	18.5	-77.0	7.2
2026-01-25 11:12:32.143351	154.7	18.6	-76.9	8.5
2026-01-25 11:12:33.280062	154.7	18.7	-76.4	4.9
2026-01-25 11:12:34.416099	154.6	18.9	-76.6	6.9
2026-01-25 11:12:35.552620	154.6	19.0	-74.9	1.5
2026-01-25 11:12:36.689566	154.6	19.2	-76.6	7.3
2026-01-25 11:12:37.827672	154.6	19.3	-75.2	8.1
2026-01-25 11:12:38.964431	154.6	19.5	-76.8	7.7
2026-01-25 11:12:40.101070	154.5	19.6	-77.3	8.6
2026-01-25 11:12:41.239820	154.5	19.8	-75.7	6.7
2026-01-25 11:12:42.376960	154.5	19.9	-73.3	1.4
2026-01-25 11:12:43.513832	154.5	20.0	-75.8	6.8
2026-01-25 11:12:44.652915	154.4	20.2	-76.3	8.0
2026-01-25 11:12:45.792609	154.4	20.4	-77.1	8.8
2026-01-25 11:12:46.931915	154.4	20.5	-77.3	9.0
2026-01-25 11:12:48.070979	154.4	20.7	-77.0	9.1
2026-01-25 11:12:49.210338	154.4	20.8	-76.8	8.7
2026-01-25 11:12:50.345140	154.3	21.0	-76.4	7.4
2026-01-25 11:12:51.483566	154.3	21.1	-76.6	9.3
2026-01-25 11:12:52.621425	154.3	21.3	-76.9	8.9
2026-01-25 11:12:53.757706	154.3	21.4	-75.2	7.0
2026-01-25 11:12:54.892243	154.2	21.6	-76.4	8.5
2026-01-25 11:12:56.032647	154.2	21.8	-76.7	9.5
2026-01-25 11:12:57.171962	154.2	21.9	-76.0	8.0
2026-01-25 11:12:58.310333	154.1	22.1	-76.8	8.9
2026-01-25 11:12:59.450011	154.1	22.2	-76.6	9.1
2026-01-25 11:13:00.588140	154.1	22.4	-76.4	7.7
2026-01-25 11:13:01.722087	154.1	22.6	-76.8	9.1
2026-01-25 11:13:02.854855	154.0	22.7	-75.6	8.5
2026-01-25 11:13:03.989407	154.0	22.9	-77.0	8.9
2026-01-25 11:13:05.121584	154.0	23.1	-75.9	7.4
2026-01-25 11:13:06.253666	154.0	23.2	-76.9	6.6
2026-01-25 11:13:07.386242	153.9	23.4	-76.6	9.1
2026-01-25 11:13:08.518377	153.9	23.6	-77.0	9.5
2026-01-25 11:13:09.652496	153.9	23.8	-76.9	8.9
2026-01-25 11:13:10.787081	153.8	23.9	-76.4	8.8
2026-01-25 11:13:11.920939	153.8	24.1	-76.6	9.9
2026-01-25 11:13:13.055399	153.8	24.3	-76.0	7.9
2026-01-25 11:13:14.188930	153.7	24.5	-76.9	6.9
2026-01-25 11:13:15.321127	153.7	24.6	-76.7	8.6
2026-01-25 11:13:16.455031	153.7	24.8	-76.3	7.3
2026-01-25 11:13:17.587054	153.6	25.0	-76.9	9.4
2026-01-25 11:13:18.720302	153.6	25.2	-77.0	9.7
2026-01-25 11:13:19.852656	153.6	25.4	-77.3	9.4
2026-01-25 11:13:20.984522	153.5	25.5	-77.6	10.2
2026-01-25 11:13:22.117174	153.5	25.7	-75.4	4.6
2026-01-25 11:13:23.254197	153.5	25.9	-77.1	9.8
2026-01-25 11:13:24.393208	153.4	26.1	-77.4	10.0
2026-01-25 11:13:25.529007	153.4	26.3	-77.4	10.3
2026-01-25 11:13:26.669334	153.4	26.5	-77.5	10.1
2026-01-25 11:13:27.807810	153.3	26.7	-77.4	10.9
2026-01-25 11:13:28.943781	153.3	26.9	-77.1	9.3
2026-01-25 11:13:30.080631	153.3	27.1	-77.2	10.0
2026-01-25 11:13:31.221047	153.2	27.3	-77.4	10.2
2026-01-25 11:13:32.357979	153.2	27.5	-77.4	10.7
2026-01-25 11:13:33.496325	153.1	27.7	-77.4	10.7
2026-01-25 11:13:34.635240	153.1	27.9	-77.4	8.0
2026-01-25 11:13:35.775272	153.1	28.1	-77.2	10.3
2026-01-25 11:13:36.913926	153.0	28.3	-77.4	9.3
2026-01-25 11:13:38.053598	153.0	28.5	-77.2	10.1
2026-01-25 11:13:39.193568	152.9	28.7	-77.3	9.8
2026-01-25 11:13:40.331893	152.9	28.9	-77.3	9.9
2026-01-25 11:13:41.466178	152.9	29.1	-77.7	8.8
2026-01-25 11:13:42.608457	152.8	29.3	-77.6	9.3
2026-01-25 11:13:43.750457	152.8	29.5	-77.4	9.1
2026-01-25 11:13:44.888718	152.7	29.7	-76.7	7.1
2026-01-25 11:13:46.028213	152.7	30.0	-77.7	10.2
2026-01-25 11:13:47.165665	152.6	30.2	-77.3	9.1
2026-01-25 11:13:48.301326	152.6	30.4	-77.6	10.1
2026-01-25 11:13:49.438938	152.5	30.6	-77.6	10.6
2026-01-25 11:13:50.575932	152.5	30.8	-78.1	10.7
2026-01-25 11:13:51.712138	152.4	31.1	-77.5	10.2
2026-01-25 11:13:52.849370	152.4	31.3	-77.4	9.9
2026-01-25 11:13:53.984837	152.3	31.5	-77.6	10.6
2026-01-25 11:13:55.122366	152.3	31.8	-77.1	9.2
2026-01-25 11:13:56.260929	152.2	32.0	-77.5	11.1
2026-01-25 11:13:57.401081	152.2	32.2	-77.3	10.0
2026-01-25 11:13:58.538379	152.1	32.5	-77.6	10.8
2026-01-25 11:13:59.671882	152.1	32.7	-77.5	11.0
2026-01-25 11:14:00.808477	152.0	32.9	-77.5	11.8
2026-01-25 11:14:01.947453	152.0	33.2	-77.5	12.0
2026-01-25 11:14:03.081341	151.9	33.4	-77.3	11.0
2026-01-25 11:14:04.217739	151.8	33.7	-77.4	10.3
2026-01-25 11:14:05.355224	151.8	33.9	-77.8	11.8
2026-01-25 11:14:06.494026	151.7	34.2	-77.8	10.9
2026-01-25 11:14:07.630583	151.7	34.4	-78.0	11.5
2026-01-25 11:14:08.768432	151.6	34.7	-77.9	11.6
2026-01-25 11:14:09.904208	151.5	34.9	-77.9	11.0
2026-01-25 11:14:11.038314	151.5	35.2	-77.8	11.7
2026-01-25 11:14:12.174131	151.4	35.4	-77.8	12.1
2026-01-25 11:14:13.313447	151.3	35.7	-78.1	11.5
2026-01-25 11:14:14.449404	151.3	36.0	-77.4	10.1
2026-01-25 11:14:15.584732	151.2	36.2	-77.5	11.1
2026-01-25 11:14:16.721998	151.1	36.5	-77.7	11.3
2026-01-25 11:14:17.857848	151.1	36.8	-77.4	10.9
2026-01-25 11:14:18.995639	151.0	37.0	-77.7	11.1
2026-01-25 11:14:20.133496	150.9	37.3	-77.6	12.1
2026-01-25 11:14:21.269933	150.9	37.6	-77.3	11.0
2026-01-25 11:14:22.407010	150.8	37.9	-77.4	12.1
2026-01-25 11:14:23.542558	150.7	38.1	-77.8	11.4
2026-01-25 11:14:24.678105	150.6	38.4	-77.7	11.4
2026-01-25 11:14:25.813886	150.5	38.7	-77.7	11.6
2026-01-25 11:14:26.949873	150.5	39.0	-77.7	11.4
2026-01-25 11:14:28.087882	150.4	39.3	-77.9	10.6
2026-01-25 11:14:29.223403	150.3	39.6	-78.0	11.9
2026-01-25 11:14:30.360246	150.2	39.9	-78.0	11.2
2026-01-25 11:14:31.499125	150.1	40.2	-77.9	11.4
2026-01-25 11:14:32.634143	150.0	40.5	-77.6	10.8
2026-01-25 11:14:33.766459	149.9	40.8	-77.8	12.4
2026-01-25 11:14:34.897355	149.8	41.1	-77.8	11.3
2026-01-25 11:14:36.031222	149.7	41.4	-78.2	11.3
2026-01-25 11:14:37.164393	149.7	41.7	-78.1	11.7
2026-01-25 11:14:38.299423	149.6	42.0	-78.3	12.3
2026-01-25 11:14:39.439802	149.5	42.3	-78.5	10.9
2026-01-25 11:14:40.576962	149.3	42.6	-78.2	10.5
2026-01-25 11:14:41.716602	149.2	43.0	-78.5	11.2
2026-01-25 11:14:42.853149	149.1	43.3	-78.8	9.5
2026-01-25 11:14:43.992391	149.0	43.6	-78.8	11.4
2026-01-25 11:14:45.130269	148.9	43.9	-78.4	10.6
2026-01-25 11:14:46.266020	148.8	44.3	-79.0	11.3
2026-01-25 11:14:47.404894	148.7	44.6	-78.9	11.7
2026-01-25 11:14:48.540205	148.6	44.9	-78.7	11.0
2026-01-25 11:14:49.679502	148.4	45.3	-78.6	10.7
2026-01-25 11:14:50.814122	148.3	45.6	-78.5	11.3
2026-01-25 11:14:51.950653	148.2	46.0	-78.5	9.8
2026-01-25 11:14:53.088179	148.1	46.3	-78.7	11.0
2026-01-25 11:14:54.223604	147.9	46.6	-78.6	10.9
2026-01-25 11:14:55.360069	147.8	47.0	-78.7	10.3
2026-01-25 11:14:56.499352	147.6	47.4	-79.3	10.8
2026-01-25 11:14:57.638152	147.5	47.7	-79.0	9.4
2026-01-25 11:14:58.775229	147.4	48.1	-79.2	10.6
2026-01-25 11:14:59.914600	147.2	48.4	-79.2	10.8
2026-01-25 11:15:01.055072	147.1	48.8	-78.9	10.1
2026-01-25 11:15:02.190796	146.9	49.2	-79.0	9.9
2026-01-25 11:15:03.323784	146.7	49.5	-78.5	8.3
2026-01-25 11:15:04.458647	146.6	49.9	-78.9	9.9
2026-01-25 11:15:05.593068	146.4	50.3	-79.0	9.6
2026-01-25 11:15:06.726046	146.2	50.7	-79.4	9.2
2026-01-25 11:15:07.859186	146.1	51.1	-79.2	9.7
2026-01-25 11:15:08.993763	145.9	51.4	-79.6	8.3
2026-01-25 11:15:10.126744	145.7	51.8	-79.5	8.8
2026-01-25 11:15:11.262269	145.5	52.2	-79.8	9.5
2026-01-25 11:15:12.398161	145.3	52.6	-79.7	8.9
2026-01-25 11:15:13.535483	145.1	53.0	-80.0	9.4
2026-01-25 11:15:14.674678	144.9	53.4	-79.8	8.8
2026-01-25 11:15:15.806002	144.7	53.8	-79.6	9.0
2026-01-25 11:15:16.936471	144.4	54.2	-80.0	9.4
2026-01-25 11:15:18.068299	144.2	54.6	-79.5	8.0
2026-01-25 11:15:19.199471	144.0	55.0	-80.0	9.3
2026-01-25 11:15:20.331894	143.7	55.5	-79.9	8.8
2026-01-25 11:15:21.466217	143.5	55.9	-79.4	7.3
2026-01-25 11:15:22.600336	143.2	56.3	-80.1	9.0
2026-01-25 11:15:23.732239	143.0	56.7	-79.5	7.4
2026-01-25 11:15:24.862504	142.7	57.1	-79.8	7.3
2026-01-25 11:15:25.996137	142.4	57.6	-80.1	8.1
2026-01-25 11:15:27.128859	142.1	58.0	-80.1	8.3
2026-01-25 11:15:28.257687	141.8	58.4	-80.1	8.3
2026-01-25 11:15:29.386558	141.5	58.8	-79.8	7.5
2026-01-25 11:15:30.516285	141.2	59.3	-79.9	7.1
2026-01-25 11:15:31.645674	140.9	59.7	-79.7	7.1
2026-01-25 11:15:32.775587	140.5	60.1	-79.8	7.9
2026-01-25 11:15:33.904141	140.2	60.6	-79.5	7.5
2026-01-25 11:15:35.034546	139.8	61.0	-79.3	6.0
2026-01-25 11:15:36.164372	139.4	61.5	-79.0	5.0
2026-01-25 11:15:37.295055	139.0	61.9	-79.2	8.1
2026-01-25 11:15:38.428434	138.6	62.4	-79.6	8.0
2026-01-25 11:15:39.563443	138.2	62.8	-78.9	6.8
2026-01-25 11:15:40.704479	137.8	63.3	-79.5	6.8
2026-01-25 11:15:41.840605	137.3	63.7	-79.6	7.4
2026-01-25 11:15:42.980141	136.8	64.2	-78.6	6.1
2026-01-25 11:15:44.116965	136.3	64.6	-79.2	6.2
2026-01-25 11:15:45.257045	135.8	65.1	-79.2	7.5
2026-01-25 11:15:46.394375	135.3	65.6	-79.5	7.5
2026-01-25 11:15:47.531017	134.7	66.0	-79.1	7.0
2026-01-25 11:15:48.668766	134.1	66.5	-78.7	7.3
2026-01-25 11:15:49.806246	133.5	66.9	-79.3	7.0
2026-01-25 11:15:50.944436	132.9	67.4	-79.6	6.0
2026-01-25 11:15:52.081964	132.2	67.9	-79.4	6.3
2026-01-25 11:15:53.220058	131.5	68.3	-79.8	7.6
2026-01-25 11:15:54.359318	130.7	68.8	-79.6	6.7
2026-01-25 11:15:55.493545	130.0	69.2	-78.8	6.4
2026-01-25 11:15:56.632390	129.2	69.7	-79.7	5.9
2026-01-25 11:15:57.770590	128.3	70.2	-79.4	7.3
2026-01-25 11:15:58.907745	127.4	70.6	-79.1	5.0
2026-01-25 11:16:00.046058	126.5	71.1	-79.0	7.1
2026-01-25 11:16:01.185444	125.5	71.5	-78.9	6.9
2026-01-25 11:16:02.322490	124.5	72.0	-77.5	4.7
2026-01-25 11:16:03.456440	123.4	72.4	-78.0	7.3
2026-01-25 11:16:04.592618	122.2	72.8	-77.5	5.6
2026-01-25 11:16:05.729031	121.0	73.3	-77.9	6.4
2026-01-25 11:16:06.865363	119.7	73.7	-77.2	7.8
2026-01-25 11:16:08.002365	118.4	74.1	-76.9	4.9
2026-01-25 11:16:09.139972	116.9	74.5	-77.1	5.5
2026-01-25 11:16:10.274692	115.4	74.9	-77.2	6.4
2026-01-25 11:16:11.405332	113.9	75.3	-77.2	6.4
2026-01-25 11:16:12.538558	112.2	75.7	-76.8	7.6
2026-01-25 11:16:13.672919	110.4	76.0	-78.2	7.4
2026-01-25 11:16:14.811292	108.5	76.4	-78.2	7.1
2026-01-25 11:16:15.949411	106.6	76.7	-77.0	4.3
2026-01-25 11:16:17.084711	104.5	77.1	-76.3	2.3
2026-01-25 11:16:18.222539	102.3	77.4	-77.3	4.1
2026-01-25 11:16:19.360576	100.0	77.7	-78.1	3.9
2026-01-25 11:16:20.498435	97.6	77.9	-77.3	3.3
2026-01-25 11:16:21.634800	95.1	78.2	-77.4	3.1
2026-01-25 11:16:22.772404	92.5	78.4	-78.3	6.6
2026-01-25 11:16:23.910103	89.7	78.6	-76.7	4.8
2026-01-25 11:16:25.045919	86.9	78.8	-76.9	6.3
2026-01-25 11:16:26.176546	84.0	78.9	-76.5	5.4
2026-01-25 11:16:27.309343	81.1	79.1	-77.0	5.6
2026-01-25 11:16:28.436519	78.1	79.2	-76.6	6.2
2026-01-25 11:16:29.565593	75.0	79.2	-77.5	8.0
2026-01-25 11:16:30.696176	71.9	79.2	-77.0	5.7
2026-01-25 11:16:31.828547	68.8	79.2	-76.2	5.1
2026-01-25 11:16:32.965951	65.7	79.2	-76.2	2.1
2026-01-25 11:16:34.103375	62.6	79.2	-76.6	4.7
2026-01-25 11:16:35.238814	59.6	79.1	-76.5	5.2
2026-01-25 11:16:36.378430	56.6	78.9	-77.1	4.8
2026-01-25 11:16:37.518581	53.7	78.8	-76.8	4.9
2026-01-25 11:16:38.655700	50.9	78.6	-77.2	6.9
2026-01-25 11:16:39.792108	48.2	78.4	-76.7	5.0
2026-01-25 11:16:40.929796	45.6	78.2	-76.5	5.0
2026-01-25 11:16:42.066306	43.1	77.9	-77.3	7.6
2026-01-25 11:16:43.200829	40.7	77.7	-76.5	4.4
2026-01-25 11:16:44.332207	38.4	77.4	-77.4	5.8
2026-01-25 11:16:45.460303	36.2	77.1	-77.0	7.0
2026-01-25 11:16:46.592154	34.1	76.7	-76.8	5.7
2026-01-25 11:16:47.721031	32.2	76.4	-76.5	3.6
2026-01-25 11:16:48.850195	30.3	76.0	-76.7	4.2
2026-01-25 11:16:49.981632	28.6	75.7	-76.3	2.2
2026-01-25 11:16:51.112488	26.9	75.3	-77.6	6.1
2026-01-25 11:16:52.246699	25.3	74.9	-77.1	4.3
2026-01-25 11:16:53.384903	23.8	74.5	-76.8	4.0
2026-01-25 11:16:54.526774	22.4	74.1	-76.8	2.4
2026-01-25 11:16:55.664280	21.0	73.7	-76.6	3.2
2026-01-25 11:16:56.799473	19.7	73.3	-77.0	5.0
2026-01-25 11:16:57.939695	18.5	72.8	-76.8	2.5
2026-01-25 11:16:59.080894	17.4	72.4	-76.3	3.0
2026-01-25 11:17:00.218738	16.3	72.0	-77.1	5.4
2026-01-25 11:17:01.354386	15.2	71.5	-75.1	2.6
2026-01-25 11:17:02.488698	14.2	71.1	-77.2	6.2
2026-01-25 11:17:03.621578	13.3	70.6	-76.7	3.5
2026-01-25 11:17:04.754083	12.4	70.2	-76.3	6.0
2026-01-25 11:17:05.886236	11.6	69.7	-75.2	2.1
2026-01-25 11:17:07.020053	10.8	69.3	-76.5	5.6
2026-01-25 11:17:08.152561	10.0	68.8	-76.4	7.1
2026-01-25 11:17:09.286475	9.3	68.4	-76.0	4.5
2026-01-25 11:17:10.419890	8.6	67.9	-76.1	3.6
2026-01-25 11:17:11.551460	7.9	67.4	-76.9	4.1
2026-01-25 11:17:12.687252	7.2	67.0	-76.4	3.0
2026-01-25 11:17:13.818847	6.6	66.5	-76.6	3.7
2026-01-25 11:17:14.954153	6.0	66.1	-76.2	2.1
2026-01-25 11:17:16.086116	5.5	65.6	-77.2	2.9
2026-01-25 11:17:17.218412	4.9	65.2	-77.0	2.4
2026-01-25 11:17:18.352890	4.4	64.7	-77.2	3.3
2026-01-25 11:17:19.490564	3.9	64.2	-77.3	2.4
2026-01-25 11:17:20.632393	3.4	63.8	-75.8	0.0
2026-01-25 11:17:21.767310	3.0	63.3	-76.6	2.1
2026-01-25 11:17:22.903954	2.5	62.9	-77.4	2.9
2026-01-25 11:17:24.043267	2.1	62.4	-77.6	4.9
2026-01-25 11:17:25.181054	1.7	62.0	-77.2	3.6
2026-01-25 11:17:26.318140	1.3	61.5	-76.8	1.2
2026-01-25 11:17:27.454301	0.9	61.1	-75.9	0.0
2026-01-25 11:17:28.590998	0.6	60.6	-77.4	1.8
2026-01-25 11:17:29.724757	0.2	60.2	-78.2	3.0
2026-01-25 11:17:30.855874	359.9	59.8	-76.8	0.3
2026-01-25 11:17:31.986553	359.5	59.3	-77.6	0.0
2026-01-25 11:17:33.121641	359.2	58.9	-78.6	3.0
2026-01-25 11:17:34.253693	358.9	58.5	-78.3	0.8
2026-01-25 11:17:35.386687	358.6	58.0	-77.8	1.6
2026-01-25 11:17:36.518411	358.3	57.6	-78.4	3.8
2026-01-25 11:17:37.650941	358.0	57.2	-78.3	3.1
2026-01-25 11:17:38.783734	357.8	56.8	-78.7	2.6
2026-01-25 11:17:39.915788	357.5	56.3	-78.8	2.8
2026-01-25 11:17:41.046723	357.2	55.9	-78.0	1.9
2026-01-25 11:17:42.179829	357.0	55.5	-78.4	3.1
2026-01-25 11:17:43.311403	356.8	55.1	-78.6	3.1
2026-01-25 11:17:44.443016	356.5	54.7	-77.7	2.4
2026-01-25 11:17:45.573926	356.3	54.3	-78.1	0.0
2026-01-25 11:17:46.707092	356.1	53.9	-78.0	0.7
2026-01-25 11:17:47.838083	355.9	53.5	-77.3	0.2
2026-01-25 11:17:48.971987	355.6	53.1	-77.7	0.0
2026-01-25 11:17:50.108093	355.4	52.7	-77.8	2.8
2026-01-25 11:17:51.245288	355.2	52.3	-77.2	1.2
2026-01-25 11:17:52.382695	355.1	51.9	-77.7	2.9
2026-01-25 11:17:53.517899	354.9	51.5	-77.5	1.9
2026-01-25 11:17:54.655890	354.7	51.1	-76.4	0.0
2026-01-25 11:17:55.792391	354.5	50.7	-76.4	0.4
2026-01-25 11:17:56.931040	354.3	50.4	-76.3	2.5
2026-01-25 11:17:58.068019	354.2	50.0	-76.6	1.8
2026-01-25 11:17:59.205217	354.0	49.6	-76.2	2.6
2026-01-25 11:18:00.343998	353.8	49.2	-76.1	2.6
2026-01-25 11:18:01.481531	353.7	48.9	-75.8	1.4
2026-01-25 11:18:02.619830	353.5	48.5	-75.3	1.2
2026-01-25 11:18:03.754762	353.4	48.1	-75.4	1.3
2026-01-25 11:18:04.893237	353.2	47.8	-75.5	0.0
2026-01-25 11:18:06.032593	353.1	47.4	-75.5	0.0
2026-01-25 11:18:07.168139	352.9	47.1	-75.5	0.0
2026-01-25 11:18:08.301172	352.8	46.7	-72.2	0.0
2026-01-25 11:18:09.436504	352.7	46.4	-75.7	0.7
2026-01-25 11:18:10.567972	352.5	46.0	-75.5	1.9
2026-01-25 11:18:11.699394	352.4	45.7	-75.3	2.4
2026-01-25 11:18:12.835962	352.3	45.4	-74.5	1.3
2026-01-25 11:18:13.966972	352.2	45.0	-75.1	1.3
2026-01-25 11:18:15.097617	352.1	44.7	-73.4	0.0
2026-01-25 11:18:16.230212	351.9	44.4	-74.1	0.0
2026-01-25 11:18:17.362996	351.8	44.0	-73.3	0.0
2026-01-25 11:18:18.498900	351.7	43.7	-73.8	0.0
2026-01-25 11:18:19.631325	351.6	43.4	-71.5	0.0
2026-01-25 11:18:20.768068	351.5	43.1	-72.5	0.0
2026-01-25 11:18:21.900319	351.4	42.7	-74.7	0.1
2026-01-25 11:18:23.035129	351.3	42.4	-72.2	0.0
2026-01-25 11:18:24.168710	351.2	42.1	-74.2	0.0
2026-01-25 11:18:25.300037	351.1	41.8	-73.4	0.0
2026-01-25 11:18:26.432966	351.0	41.5	-72.0	0.0
2026-01-25 11:18:27.569420	350.9	41.2	-73.9	0.0
2026-01-25 11:18:28.707031	350.8	40.9	-74.0	0.0
2026-01-25 11:18:29.845806	350.7	40.6	-73.1	0.0
2026-01-25 11:18:30.984226	350.6	40.3	-71.7	0.0
2026-01-25 11:18:32.120603	350.5	40.0	-73.0	0.0
2026-01-25 11:18:33.259899	350.5	39.7	-72.7	0.0
2026-01-25 11:18:34.395899	350.4	39.4	-72.9	0.0
2026-01-25 11:18:35.528659	350.3	39.1	-72.9	0.0
2026-01-25 11:18:36.664230	350.2	38.8	-73.4	0.0
2026-01-25 11:18:37.799150	350.1	38.5	-73.3	0.0
2026-01-25 11:18:38.935064	350.1	38.3	-72.5	0.0
2026-01-25 11:18:40.068095	350.0	38.0	-72.9	0.0
2026-01-25 11:18:41.199252	349.9	37.7	-72.7	0.0
2026-01-25 11:18:42.332290	349.8	37.4	-72.1	0.0
2026-01-25 11:18:43.465628	349.8	37.2	-69.1	0.0
2026-01-25 11:18:44.597784	349.7	36.9	-71.5	0.0
2026-01-25 11:18:45.728962	349.6	36.6	-71.3	0.0
2026-01-25 11:18:46.863611	349.5	36.3	-72.4	0.0
2026-01-25 11:18:48.001622	349.5	36.1	-72.7	0.0
2026-01-25 11:18:49.143144	349.4	35.8	-72.4	0.0
2026-01-25 11:18:50.279576	349.3	35.6	-71.6	0.0
2026-01-25 11:18:51.417578	349.3	35.3	-72.3	0.0
2026-01-25 11:18:52.555792	349.2	35.0	-70.9	0.0
2026-01-25 11:18:53.699258	349.2	34.8	-70.8	0.0
2026-01-25 11:18:54.828100	349.1	34.5	-70.7	0.0
2026-01-25 11:18:55.955855	349.0	34.3	-67.9	0.0
2026-01-25 11:18:57.088280	349.0	34.0	-71.4	0.0
2026-01-25 11:18:58.216903	348.9	33.8	-67.4	0.0
2026-01-25 11:18:59.347253	348.9	33.6	-69.1	0.0
2026-01-25 11:19:00.478542	348.8	33.3	-70.4	0.0
2026-01-25 11:19:01.610077	348.7	33.1	-70.1	0.0
2026-01-25 11:19:02.741049	348.7	32.8	-70.6	0.0
2026-01-25 11:19:03.873531	348.6	32.6	-71.7	0.0
2026-01-25 11:19:05.003324	348.6	32.4	-70.1	0.0
2026-01-25 11:19:06.135992	348.5	32.1	-70.4	0.0
2026-01-25 11:19:07.275013	348.5	31.9	-71.9	0.0
2026-01-25 11:19:08.414452	348.4	31.7	-70.4	0.0
2026-01-25 11:19:09.552181	348.4	31.4	-71.1	0.0
2026-01-25 11:19:10.691441	348.3	31.2	-69.9	0.0
2026-01-25 11:19:11.834594	348.3	31.0	-71.4	0.0
2026-01-25 11:19:12.976279	348.2	30.8	-71.1	0.0
2026-01-25 11:19:14.110225	348.2	30.5	-71.9	0.0
2026-01-25 11:19:15.247859	348.1	30.3	-71.4	0.0
2026-01-25 11:19:16.384793	348.1	30.1	-70.8	0.0
2026-01-25 11:19:17.520359	348.0	29.9	-69.9	0.0
2026-01-25 11:19:18.655991	348.0	29.7	-70.5	0.0
2026-01-25 11:19:19.791309	348.0	29.5	-70.6	0.0
2026-01-25 11:19:20.925949	347.9	29.3	-69.4	0.0
2026-01-25 11:19:22.062247	347.9	29.0	-70.8	0.0
2026-01-25 11:19:23.198235	347.8	28.8	-71.1	0.0
2026-01-25 11:19:24.337357	347.8	28.6	-70.2	0.0
2026-01-25 11:19:25.469449	347.7	28.4	-71.6	0.0
2026-01-25 11:19:26.604403	347.7	28.2	-70.1	0.0
2026-01-25 11:19:27.739182	347.7	28.0	-70.5	0.0
2026-01-25 11:19:28.875206	347.6	27.8	-70.4	0.0
2026-01-25 11:19:30.009312	347.6	27.6	-70.5	0.0
2026-01-25 11:19:31.148460	347.6	27.4	-70.9	0.0
2026-01-25 11:19:32.282767	347.5	27.2	-70.9	0.0
2026-01-25 11:19:33.423064	347.5	27.0	-70.9	0.0
2026-01-25 11:19:34.560229	347.4	26.8	-70.9	0.0
2026-01-25 11:19:35.700307	347.4	26.6	-68.7	0.0
2026-01-25 11:19:36.835050	347.4	26.5	-71.2	0.0
2026-01-25 11:19:37.971738	347.3	26.3	-70.7	0.0
2026-01-25 11:19:39.111855	347.3	26.1	-70.6	0.0
2026-01-25 11:19:40.247490	347.3	25.9	-70.8	0.0
2026-01-25 11:19:41.386301	347.2	25.7	-70.6	0.0
2026-01-25 11:19:42.520467	347.2	25.5	-71.1	0.0
2026-01-25 11:19:43.655488	347.2	25.3	-70.7	0.0
2026-01-25 11:19:44.788458	347.1	25.2	-71.4	0.0
2026-01-25 11:19:45.922933	347.1	25.0	-69.4	0.0
2026-01-25 11:19:47.056116	347.1	24.8	-71.3	0.0
2026-01-25 11:19:48.188846	347.0	24.6	-70.0	0.0
2026-01-25 11:19:49.319943	347.0	24.4	-69.7	0.0
2026-01-25 11:19:50.453380	347.0	24.3	-71.0	0.0
2026-01-25 11:19:51.585110	347.0	24.1	-72.4	0.0
2026-01-25 11:19:52.718267	346.9	23.9	-71.0	0.0
2026-01-25 11:19:53.849613	346.9	23.7	-70.7	0.0
2026-01-25 11:19:54.981390	346.9	23.6	-68.6	0.0
2026-01-25 11:19:56.112863	346.8	23.4	-70.4	0.0
2026-01-25 11:19:57.245681	346.8	23.2	-71.4	0.0
2026-01-25 11:19:58.377001	346.8	23.1	-71.3	0.0
2026-01-25 11:19:59.511246	346.8	22.9	-71.9	0.0
2026-01-25 11:20:00.645651	346.7	22.7	-70.5	0.0
2026-01-25 11:20:01.778040	346.7	22.6	-72.2	0.0
2026-01-25 11:20:02.915993	346.7	22.4	-71.1	0.0
2026-01-25 11:20:04.050029	346.6	22.3	-70.5	0.0
2026-01-25 11:20:05.187916	346.6	22.1	-70.5	0.0
2026-01-25 11:20:06.320469	346.6	21.9	-71.4	0.0
2026-01-25 11:20:07.454985	346.6	21.8	-70.7	0.0
2026-01-25 11:20:08.590206	346.5	21.6	-72.3	0.0
2026-01-25 11:20:09.726832	346.5	21.5	-72.7	0.0
2026-01-25 11:20:10.863299	346.5	21.3	-68.9	0.0
2026-01-25 11:20:12.000082	346.5	21.1	-71.4	0.0
2026-01-25 11:20:13.138892	346.4	21.0	-67.4	0.0
2026-01-25 11:20:14.275564	346.4	20.8	-70.4	0.0
2026-01-25 11:20:15.411692	346.4	20.7	-67.1	0.0
2026-01-25 11:20:16.547409	346.4	20.5	-70.5	0.0
2026-01-25 11:20:17.685955	346.4	20.4	-72.1	0.0
2026-01-25 11:20:18.822055	346.3	20.2	-71.7	0.0
2026-01-25 11:20:19.958695	346.3	20.1	-71.7	0.0
2026-01-25 11:20:21.095164	346.3	19.9	-68.7	0.0
2026-01-25 11:20:22.233594	346.3	19.8	-67.8	0.0
2026-01-25 11:20:23.372753	346.2	19.6	-71.3	0.0
2026-01-25 11:20:24.508183	346.2	19.5	-71.2	0.0
2026-01-25 11:20:25.645762	346.2	19.3	-72.0	0.0
2026-01-25 11:20:26.784763	346.2	19.2	-72.5	0.0
2026-01-25 11:20:27.922607	346.2	19.1	-72.6	0.0
2026-01-25 11:20:29.058973	346.1	18.9	-72.9	0.0
2026-01-25 11:20:30.195156	346.1	18.8	-70.8	0.0
2026-01-25 11:20:31.332093	346.1	18.6	-71.5	0.0
2026-01-25 11:20:32.466080	346.1	18.5	-72.7	0.0
2026-01-25 11:20:33.603606	346.1	18.4	-71.1	0.0
2026-01-25 11:20:34.740975	346.0	18.2	-70.7	0.0
2026-01-25 11:20:35.878668	346.0	18.1	-71.8	0.0
2026-01-25 11:20:37.014766	346.0	17.9	-72.6	0.0
2026-01-25 11:20:38.152058	346.0	17.8	-70.3	0.0
2026-01-25 11:20:39.290231	346.0	17.7	-71.8	0.0
2026-01-25 11:20:40.427178	346.0	17.5	-71.0	0.0
2026-01-25 11:20:41.563090	345.9	17.4	-70.9	0.0
2026-01-25 11:20:42.700133	345.9	17.3	-70.9	0.0
2026-01-25 11:20:43.838458	345.9	17.1	-72.3	0.0
2026-01-25 11:20:44.977208	345.9	17.0	-72.6	0.0
2026-01-25 11:20:46.115082	345.9	16.9	-72.6	0.0
2026-01-25 11:20:47.253200	345.9	16.7	-72.4	0.0
2026-01-25 11:20:48.390523	345.8	16.6	-72.4	0.0
2026-01-25 11:20:49.530676	345.8	16.5	-68.9	0.0
2026-01-25 11:20:50.668092	345.8	16.4	-70.7	0.0
2026-01-25 11:20:51.804694	345.8	16.2	-71.9	0.0
2026-01-25 11:20:52.940275	345.8	16.1	-71.3	0.0
2026-01-25 11:20:54.079894	345.8	16.0	-71.3	0.0
2026-01-25 11:20:55.218969	345.7	15.8	-71.8	0.0
2026-01-25 11:20:56.357600	345.7	15.7	-72.4	0.0
2026-01-25 11:20:57.495208	345.7	15.6	-71.2	0.0
2026-01-25 11:20:58.631569	345.7	15.5	-71.4	0.0
2026-01-25 11:20:59.770515	345.7	15.3	-73.4	0.0
2026-01-25 11:21:00.906088	345.7	15.2	-70.5	0.0
2026-01-25 11:21:02.043704	345.6	15.1	-70.6	0.0
2026-01-25 11:21:03.181491	345.6	15.0	-71.4	0.0
2026-01-25 11:21:04.322465	345.6	14.9	-72.6	0.0
2026-01-25 11:21:05.458835	345.6	14.7	-72.4	0.0
2026-01-25 11:21:06.598849	345.6	14.6	-70.8	0.0
2026-01-25 11:21:07.739446	345.6	14.5	-73.3	0.0
2026-01-25 11:21:08.876073	345.6	14.4	-72.2	0.0
2026-01-25 11:21:10.013149	345.6	14.3	-73.2	0.0
2026-01-25 11:21:11.153575	345.5	14.2	-70.9	0.0
2026-01-25 11:21:12.289950	345.5	14.0	-71.4	0.0
2026-01-25 11:21:13.426404	345.5	13.9	-71.9	0.0
2026-01-25 11:21:14.562273	345.5	13.8	-72.7	0.0
2026-01-25 11:21:15.700180	345.5	13.7	-71.8	0.0
2026-01-25 11:21:16.835393	345.5	13.6	-72.2	0.0
2026-01-25 11:21:17.974920	345.5	13.5	-72.5	0.0
2026-01-25 11:21:19.106176	345.4	13.3	-72.0	0.0
2026-01-25 11:21:20.240322	345.4	13.2	-73.0	0.0
2026-01-25 11:21:21.376945	345.4	13.1	-72.1	0.0
2026-01-25 11:21:22.513791	345.4	13.0	-73.1	0.0
2026-01-25 11:21:23.651338	345.4	12.9	-72.9	0.0
2026-01-25 11:21:24.790145	345.4	12.8	-72.6	0.0
2026-01-25 11:21:25.927663	345.4	12.7	-73.6	0.0
2026-01-25 11:21:27.066171	345.4	12.6	-72.8	0.0
2026-01-25 11:21:28.203603	345.4	12.5	-70.0	0.0
2026-01-25 11:21:29.337050	345.3	12.4	-73.1	0.0
2026-01-25 11:21:30.471202	345.3	12.2	-74.4	0.0
2026-01-25 11:21:31.608003	345.3	12.1	-74.3	0.0
2026-01-25 11:21:32.742815	345.3	12.0	-73.1	0.0
2026-01-25 11:21:33.879156	345.3	11.9	-73.9	0.0
2026-01-25 11:21:35.014759	345.3	11.8	-73.0	0.0
2026-01-25 11:21:36.147890	345.3	11.7	-73.6	0.0
2026-01-25 11:21:37.281080	345.3	11.6	-73.7	0.0
2026-01-25 11:21:38.416444	345.3	11.5	-74.5	0.0
2026-01-25 11:21:39.553820	345.2	11.4	-73.6	0.0
2026-01-25 11:21:40.687056	345.2	11.3	-73.2	0.0
2026-01-25 11:21:41.823163	345.2	11.2	-72.5	0.0
2026-01-25 11:21:42.962068	345.2	11.1	-73.4	0.0
2026-01-25 11:21:44.099451	345.2	11.0	-72.8	0.0
2026-01-25 11:21:45.236578	345.2	10.9	-72.2	0.0
2026-01-25 11:21:46.370718	345.2	10.8	-69.5	0.0
2026-01-25 11:21:47.497575	345.2	10.7	-70.8	0.0
2026-01-25 11:21:48.624226	345.2	10.6	-69.8	0.0
2026-01-25 11:21:49.750978	345.2	10.5	-72.8	0.0
2026-01-25 11:21:50.882026	345.1	10.4	-70.9	0.0
2026-01-25 11:21:52.007861	345.1	10.3	-72.4	0.0
2026-01-25 11:21:53.137649	345.1	10.2	-76.1	0.0
#Closed at: 2026-01-25 11:11:04.336403