passes_logs/2026/01/12/R2.0S_Moscow/R2.0S_Moscow__20260112_100421_AQUA_rec.log

#Pass ID: 20260112_100421_AQUA
#Satellite: AQUA
#Configuration: AQUA
#almurnet v.1.7.20251203
#Start time: 2026-01-12 10:06:13

#Version: 2.2.20231116
#Station: R2.0S_Moscow
#Location: 37.707566 lon 55.798166 lat
#TLE: 1 27424U 02022A   26011.34052177  .00001139  00000+0  23789-3 0  9999
#TLE: 2 27424  98.4078 337.7066 0002035  82.6124  44.5301 14.61815662260355

#Time	Az	El	Level	Level2	SNR	BER	BlckErr	Temp	State	Recorded	gain1	gain2
2026-01-12 10:06:13.42	99.83	8.93	-44.9	-57.3	3.8	1.49e+00	0	59	0	0	60	15847
2026-01-12 10:06:14.44	99.69	9.00	-46.2	-65.0	3.8	7.44e-01	0	59	104	0	63	32423
2026-01-12 10:06:15.45	99.56	9.06	-46.3	-65.1	3.8	7.41e-01	0	59	104	0	63	32596
2026-01-12 10:06:16.46	99.42	9.13	-46.3	-65.1	3.8	7.47e-01	0	60	104	0	63	32731
2026-01-12 10:06:17.47	99.28	9.20	-46.3	-65.1	3.8	7.44e-01	0	59	104	0	63	32568
2026-01-12 10:06:18.48	99.14	9.26	-46.1	-65.0	3.8	7.45e-01	0	60	104	0	63	32246
2026-01-12 10:06:19.49	99.00	9.33	-45.8	-64.8	3.8	7.46e-01	0	59	104	0	63	31731
2026-01-12 10:06:20.50	98.86	9.40	-45.5	-64.7	3.8	7.43e-01	0	59	104	0	62	33085
2026-01-12 10:06:21.51	98.72	9.46	-45.5	-64.5	3.8	7.48e-01	0	59	104	0	62	32526
2026-01-12 10:06:22.52	98.58	9.53	-45.4	-63.8	3.8	7.44e-01	0	59	104	0	61	31679
2026-01-12 10:06:23.53	98.44	9.60	-44.9	-63.8	3.8	7.44e-01	0	59	104	0	60	33694
2026-01-12 10:06:24.54	98.30	9.66	-44.0	-62.1	3.9	7.45e-01	0	59	104	0	60	27492
2026-01-12 10:06:25.56	98.15	9.73	-42.1	-62.2	3.7	7.45e-01	0	59	104	0	56	35240
2026-01-12 10:06:26.57	98.01	9.80	-43.6	-62.6	3.8	7.48e-01	0	59	104	0	58	32620
2026-01-12 10:06:27.58	97.86	9.87	-43.8	-62.4	3.8	7.46e-01	0	59	104	0	58	32168
2026-01-12 10:06:28.59	97.72	9.93	-43.8	-62.2	3.8	7.44e-01	0	60	104	0	58	31356
2026-01-12 10:06:29.60	97.57	10.00	-43.8	-62.1	3.8	7.46e-01	0	59	104	0	58	30877
2026-01-12 10:06:30.61	97.43	10.07	-43.7	-62.2	3.8	7.47e-01	0	60	104	0	58	31232
2026-01-12 10:06:31.62	97.28	10.13	-43.8	-62.0	3.8	7.46e-01	0	59	104	0	58	30574
2026-01-12 10:06:32.63	97.13	10.20	-43.8	-62.2	3.8	7.47e-01	0	60	104	0	58	31186
2026-01-12 10:06:33.64	96.98	10.27	-43.8	-62.1	3.8	7.46e-01	0	59	104	0	58	31069
2026-01-12 10:06:34.65	96.83	10.34	-43.8	-62.3	3.8	7.49e-01	0	59	104	0	58	31800
2026-01-12 10:06:35.67	96.68	10.40	-43.8	-62.1	3.8	7.47e-01	0	59	104	0	58	31074
2026-01-12 10:06:36.68	96.53	10.47	-43.8	-62.5	3.8	7.44e-01	0	59	104	0	58	32542
2026-01-12 10:06:37.69	96.37	10.54	-43.8	-62.6	3.8	7.45e-01	0	59	104	0	58	32590
2026-01-12 10:06:38.70	96.22	10.61	-43.8	-62.5	3.8	7.45e-01	0	59	104	0	58	32430
2026-01-12 10:06:39.71	96.07	10.67	-43.8	-62.6	3.8	7.46e-01	0	59	104	0	58	32769
2026-01-12 10:06:40.72	95.91	10.74	-43.8	-62.5	3.8	7.42e-01	0	59	104	0	58	32393
2026-01-12 10:06:41.73	95.76	10.81	-43.7	-62.7	3.8	7.47e-01	0	59	104	0	58	33169
2026-01-12 10:06:42.74	95.60	10.88	-43.2	-62.7	3.9	7.50e-01	0	59	104	0	57	35047
2026-01-12 10:06:43.75	95.44	10.94	-43.8	-62.5	3.8	7.47e-01	0	59	104	0	58	32421
2026-01-12 10:06:44.76	95.28	11.01	-43.8	-62.3	3.8	7.44e-01	0	59	104	0	58	31565
2026-01-12 10:06:45.78	95.12	11.08	-43.8	-62.1	3.8	7.45e-01	0	59	104	0	58	30929
2026-01-12 10:06:46.79	94.97	11.15	-43.8	-61.3	3.8	7.45e-01	0	59	104	0	58	28297
2026-01-12 10:06:47.80	94.80	11.21	-43.7	-60.6	3.8	7.46e-01	0	59	104	0	58	26108
2026-01-12 10:06:48.81	94.64	11.28	-43.6	-59.1	4.2	7.32e-01	0	59	104	0	58	21813
2026-01-12 10:06:49.82	94.48	11.35	-43.7	-58.4	3.9	7.38e-01	0	60	104	0	58	20160
2026-01-12 10:06:50.83	94.32	11.42	-43.6	-57.1	5.0	7.11e-01	0	59	0	0	57	18411
2026-01-12 10:06:51.84	94.16	11.48	-43.6	-56.8	5.2	7.03e-01	0	59	0	0	57	17724
2026-01-12 10:06:52.85	93.99	11.55	-43.6	-56.4	5.4	6.99e-01	0	59	0	524288	57	16965
2026-01-12 10:06:53.86	93.83	11.62	-43.6	-56.4	5.4	6.98e-01	0	60	0	1572864	57	17009
2026-01-12 10:06:54.87	93.66	11.69	-43.6	-56.3	5.5	6.98e-01	7	59	0	2097152	57	16860
2026-01-12 10:06:55.89	93.49	11.75	-43.6	-57.1	5.0	7.10e-01	0	59	0	2621440	57	18462
2026-01-12 10:06:56.90	93.32	11.82	-43.6	-58.2	4.5	7.42e-01	0	59	104	2621440	57	20866
2026-01-12 10:06:57.91	93.16	11.89	-43.6	-57.3	4.9	7.12e-01	0	59	0	2621440	57	18848
2026-01-12 10:06:58.92	92.99	11.96	-43.6	-56.5	5.4	6.98e-01	0	60	0	2621440	57	17217
2026-01-12 10:06:59.93	92.82	12.02	-43.6	-56.2	5.6	6.93e-01	0	60	0	2621440	57	16570
2026-01-12 10:07:00.94	92.65	12.09	-42.8	-54.9	6.5	6.73e-01	91	59	0	4194304	57	14252
2026-01-12 10:07:01.95	92.47	12.16	-43.1	-51.9	9.4	6.28e-01	0	59	0	6291456	57	10122
2026-01-12 10:07:02.96	92.30	12.23	-42.6	-49.8	11.6	6.14e-01	0	59	0	7864320	56	8450
2026-01-12 10:07:03.97	92.13	12.29	-41.7	-47.0	14.5	6.07e-01	0	59	0	9961472	55	6473
2026-01-12 10:07:04.98	91.95	12.36	-41.2	-45.7	15.8	6.06e-01	0	59	0	12058624	54	5914
2026-01-12 10:07:05.99	91.78	12.43	-40.3	-43.9	17.6	6.08e-01	0	59	0	13631488	52	5401
2026-01-12 10:07:07.00	91.60	12.49	-40.2	-43.8	17.9	6.06e-01	0	59	0	15728640	51	5633
2026-01-12 10:07:08.01	91.42	12.56	-44.6	-63.1	3.8	7.44e-01	0	59	104	16252928	60	31082
2026-01-12 10:07:09.02	91.25	12.63	-44.1	-58.9	3.9	7.36e-01	0	59	104	16252928	59	20111
2026-01-12 10:07:10.03	91.07	12.70	-41.2	-47.9	12.8	6.09e-01	0	59	0	16777216	52	8488
2026-01-12 10:07:11.05	90.89	12.76	-40.8	-47.2	13.1	6.10e-01	0	60	0	18874368	52	7875
2026-01-12 10:07:12.06	90.71	12.83	-42.2	-49.2	12.4	6.12e-01	0	59	0	20447232	55	8324
2026-01-12 10:07:13.07	90.52	12.90	-41.6	-48.5	12.6	6.10e-01	0	59	0	22544384	54	8137
2026-01-12 10:07:14.08	90.34	12.96	-41.8	-51.2	9.3	6.32e-01	0	59	0	24641536	54	11060
2026-01-12 10:07:15.08	90.16	13.03	-41.9	-52.5	7.8	6.51e-01	92	60	0	26214400	54	12881
2026-01-12 10:07:16.09	89.98	13.10	-41.9	-52.9	7.4	6.57e-01	92	59	0	28311552	54	13521
2026-01-12 10:07:17.10	89.79	13.16	-42.0	-55.5	5.2	7.03e-01	0	59	0	29884416	54	18221
2026-01-12 10:07:18.11	89.61	13.23	-42.2	-59.9	3.8	7.45e-01	0	59	104	29884416	54	30310
2026-01-12 10:07:19.12	89.42	13.29	-42.0	-57.3	4.2	7.37e-01	0	59	104	29884416	54	22302
2026-01-12 10:07:20.13	89.23	13.36	-41.4	-56.4	4.7	7.22e-01	0	60	104	29884416	53	21306
2026-01-12 10:07:21.14	89.04	13.43	-41.8	-55.4	5.0	7.05e-01	0	59	0	29884416	54	17988
2026-01-12 10:07:22.15	88.85	13.49	-42.4	-56.4	4.0	7.36e-01	0	59	104	29884416	55	19026
2026-01-12 10:07:23.16	88.66	13.56	-42.6	-54.3	6.3	6.73e-01	92	59	0	30408704	55	14936
2026-01-12 10:07:24.17	88.47	13.63	-43.5	-58.6	3.8	7.34e-01	0	59	104	31457280	57	21800
2026-01-12 10:07:25.18	88.28	13.69	-41.5	-57.1	3.9	7.42e-01	0	59	104	31981568	53	23190
2026-01-12 10:07:26.19	88.09	13.76	-41.5	-49.7	10.7	6.18e-01	0	59	0	33030144	53	9863
2026-01-12 10:07:27.20	87.89	13.82	-41.5	-49.3	11.1	6.20e-01	0	60	0	35127296	53	9455
2026-01-12 10:07:28.20	87.70	13.89	-41.4	-48.4	12.0	6.14e-01	0	59	0	36700160	53	8477
2026-01-12 10:07:29.21	87.50	13.95	-41.1	-47.4	13.1	6.09e-01	0	59	0	38797312	53	7580
2026-01-12 10:07:30.22	87.31	14.02	-40.7	-46.3	14.1	6.07e-01	0	59	0	40370176	52	7118
2026-01-12 10:07:31.23	87.11	14.08	-40.7	-45.9	14.6	6.09e-01	0	59	0	42467328	51	7178
2026-01-12 10:07:32.24	86.91	14.15	-40.7	-45.9	14.6	6.09e-01	0	59	0	44564480	51	7201
2026-01-12 10:07:33.25	86.71	14.21	-40.6	-45.8	14.7	6.07e-01	0	60	0	46137344	51	7054
2026-01-12 10:07:34.26	86.51	14.28	-40.2	-45.4	15.0	6.08e-01	0	59	0	48234496	51	6773
2026-01-12 10:07:35.27	86.31	14.34	-40.3	-45.2	15.2	6.09e-01	0	59	0	49807360	51	6580
2026-01-12 10:07:36.28	86.10	14.41	-40.3	-45.2	15.1	6.08e-01	0	59	0	51904512	51	6585
2026-01-12 10:07:37.29	85.90	14.47	-40.3	-45.3	14.9	6.07e-01	0	59	0	54001664	51	6706
2026-01-12 10:07:38.30	85.70	14.53	-40.4	-45.9	14.2	6.08e-01	0	59	0	55574528	51	7173
2026-01-12 10:07:39.32	85.49	14.60	-40.6	-46.4	13.7	6.09e-01	0	59	0	57671680	51	7549
2026-01-12 10:07:40.33	85.28	14.66	-40.6	-46.7	13.3	6.08e-01	0	59	0	59768832	51	7844
2026-01-12 10:07:41.34	85.08	14.73	-40.7	-47.1	12.8	6.10e-01	0	59	0	61341696	52	7754
2026-01-12 10:07:42.35	84.87	14.79	-40.8	-47.3	12.7	6.13e-01	0	60	0	63438848	52	7907
2026-01-12 10:07:43.36	84.66	14.85	-40.8	-47.3	12.7	6.11e-01	0	60	0	65011712	52	7906
2026-01-12 10:07:44.36	84.45	14.91	-40.8	-46.8	13.3	6.07e-01	0	60	0	67108864	52	7537
2026-01-12 10:07:45.37	84.24	14.98	-40.8	-46.6	13.6	6.10e-01	0	59	0	68681728	52	7366
2026-01-12 10:07:46.38	84.03	15.04	-40.8	-46.4	14.0	6.06e-01	0	59	0	70778880	52	7183
2026-01-12 10:07:47.39	83.81	15.10	-40.9	-46.4	14.1	6.10e-01	0	59	0	72876032	52	7203
2026-01-12 10:07:48.40	83.60	15.16	-40.8	-45.9	14.8	6.07e-01	0	59	0	74448896	52	6748
2026-01-12 10:07:49.41	83.38	15.23	-40.6	-45.6	15.1	6.06e-01	0	59	0	76546048	52	6506
2026-01-12 10:07:50.42	83.17	15.29	-40.6	-45.4	15.2	6.04e-01	0	59	0	78643200	52	6410
2026-01-12 10:07:51.43	82.95	15.35	-40.5	-45.1	15.6	6.08e-01	0	59	0	80216064	52	6190
2026-01-12 10:07:52.44	82.73	15.41	-40.5	-45.2	15.6	6.05e-01	0	59	0	82313216	52	6225
2026-01-12 10:07:53.45	82.52	15.47	-40.5	-45.0	15.8	6.06e-01	0	59	0	83886080	52	6118
2026-01-12 10:07:54.46	82.30	15.53	-40.5	-45.0	15.9	6.07e-01	0	59	0	85983232	52	6101
2026-01-12 10:07:55.47	82.08	15.59	-40.5	-44.9	16.1	6.06e-01	0	59	0	88080384	52	6052
2026-01-12 10:07:56.48	81.85	15.65	-40.5	-44.9	16.2	6.07e-01	0	59	0	89653248	52	6043
2026-01-12 10:07:57.49	81.63	15.72	-40.6	-45.1	16.0	6.07e-01	0	59	0	91750400	52	6164
2026-01-12 10:07:58.50	81.41	15.78	-40.7	-45.4	15.7	6.06e-01	0	59	0	93323264	52	6360
2026-01-12 10:07:59.51	81.18	15.83	-40.7	-45.4	15.5	6.10e-01	0	59	0	95420416	52	6396
2026-01-12 10:08:00.52	80.96	15.89	-40.7	-45.5	15.3	6.08e-01	0	59	0	97517568	52	6474
2026-01-12 10:08:01.53	80.73	15.95	-40.6	-45.7	15.0	6.08e-01	0	59	0	99090432	52	6604
2026-01-12 10:08:02.54	80.50	16.01	-40.7	-45.8	14.9	6.07e-01	0	59	0	101187584	52	6691
2026-01-12 10:08:03.55	80.28	16.07	-40.7	-45.9	14.7	6.08e-01	0	59	0	103284736	52	6766
2026-01-12 10:08:04.55	80.05	16.13	-40.7	-46.0	14.6	6.06e-01	0	59	0	104857600	52	6857
2026-01-12 10:08:05.56	79.82	16.19	-40.8	-46.1	14.5	6.08e-01	0	59	0	106954752	52	6938
2026-01-12 10:08:06.58	79.58	16.24	-40.9	-46.2	14.4	6.04e-01	0	59	0	108527616	52	7038
2026-01-12 10:08:07.59	79.35	16.30	-40.9	-46.2	14.5	6.06e-01	0	59	0	110624768	52	6999
2026-01-12 10:08:08.59	79.12	16.36	-41.0	-46.4	14.4	6.08e-01	0	59	0	112721920	53	6799
2026-01-12 10:08:09.60	78.89	16.42	-41.5	-48.0	12.7	6.11e-01	0	59	0	114294784	53	8104
2026-01-12 10:08:10.61	78.65	16.47	-41.4	-47.7	13.0	6.11e-01	0	60	0	116391936	53	7851
2026-01-12 10:08:11.63	78.41	16.53	-41.3	-47.5	13.2	6.09e-01	0	59	0	118489088	53	7693
2026-01-12 10:08:12.64	78.18	16.58	-41.2	-47.4	13.2	6.10e-01	0	59	0	120061952	53	7601
2026-01-12 10:08:13.65	77.94	16.64	-41.1	-47.4	13.1	6.09e-01	0	59	0	122159104	53	7614
2026-01-12 10:08:14.66	77.70	16.70	-41.1	-47.3	13.1	6.09e-01	0	59	0	123731968	53	7527
2026-01-12 10:08:15.67	77.46	16.75	-41.0	-47.2	13.2	6.10e-01	0	59	0	125829120	53	7418
2026-01-12 10:08:16.68	77.22	16.80	-41.0	-47.2	13.1	6.10e-01	0	59	0	127926272	53	7457
2026-01-12 10:08:17.69	76.98	16.86	-41.0	-47.4	13.0	6.09e-01	0	59	0	129499136	53	7587
2026-01-12 10:08:18.70	76.74	16.91	-41.0	-47.4	13.0	6.07e-01	0	59	0	131596288	53	7562
2026-01-12 10:08:19.70	76.50	16.97	-41.0	-47.3	13.1	6.07e-01	0	60	0	133169152	53	7478
2026-01-12 10:08:20.71	76.25	17.02	-41.0	-47.1	13.2	6.09e-01	0	59	0	135266304	53	7363
2026-01-12 10:08:21.72	76.01	17.07	-40.9	-47.0	13.3	6.11e-01	0	59	0	136839168	53	7269
2026-01-12 10:08:22.73	75.76	17.12	-41.0	-47.1	13.3	6.08e-01	0	59	0	138936320	53	7362
2026-01-12 10:08:23.74	75.51	17.17	-41.0	-47.1	13.3	6.09e-01	0	59	0	141033472	53	7301
2026-01-12 10:08:24.75	75.27	17.23	-41.0	-47.1	13.2	6.06e-01	0	59	0	142606336	53	7370
2026-01-12 10:08:25.76	75.02	17.28	-41.1	-47.5	12.8	6.11e-01	0	59	0	144703488	53	7675
2026-01-12 10:08:26.77	74.77	17.33	-41.1	-47.6	12.7	6.11e-01	0	59	0	146800640	53	7792
2026-01-12 10:08:27.78	74.52	17.38	-41.2	-48.0	12.3	6.12e-01	0	59	0	148373504	53	8115
2026-01-12 10:08:28.79	74.26	17.43	-41.2	-48.3	12.0	6.12e-01	0	59	0	150470656	53	8402
2026-01-12 10:08:29.81	74.01	17.48	-41.2	-48.2	12.0	6.14e-01	0	59	0	152043520	53	8346
2026-01-12 10:08:30.82	73.76	17.53	-41.2	-48.1	12.0	6.13e-01	0	59	0	154140672	53	8249
2026-01-12 10:08:31.82	73.50	17.57	-41.2	-47.9	12.4	6.12e-01	0	59	0	156237824	53	8027
2026-01-12 10:08:32.83	73.25	17.62	-41.1	-47.8	12.5	6.10e-01	0	59	0	157810688	53	7926
2026-01-12 10:08:33.84	72.99	17.67	-41.2	-47.9	12.4	6.13e-01	0	59	0	159907840	53	7996
2026-01-12 10:08:34.85	72.74	17.72	-41.2	-48.0	12.4	6.10e-01	0	59	0	161480704	53	8102
2026-01-12 10:08:35.87	72.48	17.76	-41.2	-47.9	12.4	6.11e-01	0	59	0	163577856	53	8044
2026-01-12 10:08:36.87	72.22	17.81	-41.2	-47.7	12.7	6.11e-01	0	59	0	165675008	53	7860
2026-01-12 10:08:37.88	71.96	17.86	-41.3	-47.7	12.8	6.10e-01	0	59	0	167247872	53	7883
2026-01-12 10:08:38.89	71.70	17.90	-41.2	-47.4	13.2	6.09e-01	0	59	0	169345024	53	7621
2026-01-12 10:08:39.90	71.44	17.95	-41.1	-47.3	13.4	6.10e-01	0	59	0	171442176	53	7478
2026-01-12 10:08:40.91	71.18	17.99	-41.3	-47.1	13.7	6.06e-01	0	59	0	173015040	53	7328
2026-01-12 10:08:41.92	70.92	18.03	-41.3	-46.9	14.1	6.09e-01	0	60	0	175112192	53	7162
2026-01-12 10:08:42.93	70.65	18.08	-41.3	-46.8	14.3	6.08e-01	0	59	0	176685056	53	7056
2026-01-12 10:08:43.94	70.39	18.12	-41.3	-46.6	14.7	6.07e-01	0	59	0	178782208	53	6901
2026-01-12 10:08:44.95	70.13	18.16	-41.4	-46.4	15.1	6.08e-01	0	59	0	180879360	53	6767
2026-01-12 10:08:45.96	69.86	18.20	-41.2	-45.9	15.7	6.08e-01	0	60	0	182452224	53	6348
2026-01-12 10:08:46.97	69.59	18.24	-41.1	-45.5	16.2	6.07e-01	0	59	0	184549376	53	6120
2026-01-12 10:08:47.98	69.33	18.29	-41.1	-45.3	16.5	6.07e-01	0	59	0	186646528	53	5973
2026-01-12 10:08:48.99	69.06	18.33	-41.0	-45.0	17.0	6.06e-01	0	59	0	188219392	53	5779
2026-01-12 10:08:50.00	68.79	18.36	-41.0	-44.8	17.3	6.06e-01	0	59	0	190316544	53	5640
2026-01-12 10:08:51.01	68.52	18.40	-41.0	-44.7	17.6	6.06e-01	0	59	0	191889408	53	5568
2026-01-12 10:08:52.02	68.25	18.44	-41.0	-44.5	17.9	6.08e-01	0	59	0	193986560	53	5420
2026-01-12 10:08:53.03	67.98	18.48	-40.9	-44.3	18.3	6.06e-01	0	59	0	196083712	53	5286
2026-01-12 10:08:54.04	67.71	18.52	-41.0	-44.3	18.3	6.04e-01	0	59	0	197656576	53	5334
2026-01-12 10:08:55.05	67.44	18.55	-41.0	-44.3	18.4	6.07e-01	0	59	0	199753728	53	5337
2026-01-12 10:08:56.06	67.16	18.59	-41.0	-44.2	18.5	6.06e-01	0	59	0	201326592	53	5275
2026-01-12 10:08:57.07	66.89	18.63	-41.0	-44.1	18.7	6.06e-01	0	60	0	203423744	53	5203
2026-01-12 10:08:58.08	66.62	18.66	-40.9	-44.1	18.8	6.06e-01	0	59	0	205520896	53	5161
2026-01-12 10:08:59.09	66.34	18.69	-41.0	-44.0	18.9	6.08e-01	0	59	0	207093760	53	5153
2026-01-12 10:09:00.10	66.07	18.73	-41.0	-44.1	18.8	6.05e-01	0	59	0	209190912	53	5212
2026-01-12 10:09:01.11	65.79	18.76	-41.1	-44.3	18.8	6.07e-01	0	59	0	210763776	53	5286
2026-01-12 10:09:02.12	65.51	18.79	-41.1	-44.2	18.9	6.06e-01	0	59	0	212860928	53	5232
2026-01-12 10:09:03.13	65.23	18.83	-41.1	-44.1	18.9	6.07e-01	0	59	0	214958080	53	5216
2026-01-12 10:09:04.14	64.96	18.86	-41.0	-44.1	19.0	6.07e-01	0	59	0	216530944	53	5185
2026-01-12 10:09:05.15	64.68	18.89	-41.1	-44.2	18.9	6.06e-01	0	59	0	218628096	53	5223
2026-01-12 10:09:06.16	64.40	18.92	-41.1	-44.2	18.9	6.06e-01	0	59	0	220200960	53	5234
2026-01-12 10:09:07.17	64.12	18.95	-41.1	-44.1	19.0	6.06e-01	0	59	0	222298112	53	5202
2026-01-12 10:09:08.18	63.84	18.98	-41.1	-44.2	19.0	6.07e-01	0	59	0	224395264	53	5228
2026-01-12 10:09:09.19	63.56	19.00	-41.1	-44.2	18.9	6.08e-01	0	59	0	225968128	53	5273
2026-01-12 10:09:10.20	63.28	19.03	-41.2	-44.3	18.9	6.06e-01	0	59	0	228065280	53	5307
2026-01-12 10:09:11.21	62.99	19.06	-41.1	-44.2	19.0	6.07e-01	0	59	0	229638144	53	5252
2026-01-12 10:09:12.22	62.71	19.08	-41.2	-44.3	18.9	6.05e-01	0	59	0	231735296	53	5305
2026-01-12 10:09:13.22	62.43	19.11	-41.1	-44.2	19.0	6.06e-01	0	59	0	233832448	53	5227
2026-01-12 10:09:14.24	62.15	19.13	-41.1	-44.1	19.1	6.07e-01	0	59	0	235405312	53	5184
2026-01-12 10:09:15.25	61.86	19.16	-41.1	-44.2	19.0	6.07e-01	0	59	0	237502464	53	5232
2026-01-12 10:09:16.26	61.58	19.18	-41.2	-44.3	18.9	6.06e-01	0	59	0	239599616	53	5301
2026-01-12 10:09:17.27	61.29	19.20	-41.2	-44.3	18.9	6.06e-01	0	59	0	241172480	53	5333
2026-01-12 10:09:18.28	61.01	19.23	-41.1	-44.2	19.0	6.06e-01	0	59	0	243269632	53	5230
2026-01-12 10:09:19.29	60.72	19.25	-41.1	-44.1	19.1	6.07e-01	0	59	0	244842496	53	5202
2026-01-12 10:09:20.30	60.44	19.27	-41.2	-44.2	19.0	6.06e-01	0	59	0	246939648	53	5262
2026-01-12 10:09:21.31	60.15	19.29	-41.1	-44.2	19.1	6.03e-01	0	59	0	249036800	53	5227
2026-01-12 10:09:22.32	59.86	19.31	-41.1	-44.1	19.1	6.07e-01	0	59	0	250609664	53	5207
2026-01-12 10:09:23.33	59.58	19.33	-41.2	-44.3	19.0	6.06e-01	0	59	0	252706816	53	5298
2026-01-12 10:09:24.34	59.29	19.34	-41.2	-44.3	19.0	6.04e-01	0	59	0	254803968	53	5308
2026-01-12 10:09:25.35	59.00	19.36	-41.2	-44.2	19.0	6.07e-01	0	59	0	256376832	53	5251
2026-01-12 10:09:26.36	58.71	19.38	-41.2	-44.3	19.0	6.07e-01	0	59	0	258473984	53	5292
2026-01-12 10:09:27.37	58.42	19.39	-41.2	-44.2	19.1	6.07e-01	0	59	0	260046848	53	5236
2026-01-12 10:09:28.38	58.13	19.41	-41.1	-44.1	19.1	6.04e-01	0	59	0	262144000	53	5209
2026-01-12 10:09:29.39	57.84	19.42	-41.3	-44.3	18.9	6.05e-01	0	59	0	264241152	53	5339
2026-01-12 10:09:30.40	57.56	19.44	-41.2	-44.3	18.9	6.05e-01	0	59	0	265814016	53	5333
2026-01-12 10:09:31.41	57.27	19.45	-41.3	-44.4	18.9	6.03e-01	0	59	0	267911168	53	5360
2026-01-12 10:09:32.42	56.98	19.46	-41.1	-44.1	19.1	6.07e-01	0	59	0	269484032	53	5214
2026-01-12 10:09:33.43	56.69	19.47	-41.2	-44.2	19.1	6.06e-01	0	59	0	271581184	53	5240
2026-01-12 10:09:34.44	56.39	19.48	-41.3	-44.4	18.9	6.06e-01	0	59	0	273678336	53	5352
2026-01-12 10:09:35.45	56.10	19.49	-41.2	-44.2	19.1	6.06e-01	0	59	0	275251200	53	5255
2026-01-12 10:09:36.46	55.81	19.50	-41.2	-44.3	18.9	6.06e-01	0	59	0	277348352	53	5340
2026-01-12 10:09:37.47	55.52	19.51	-41.2	-44.3	19.0	6.05e-01	0	59	0	278921216	53	5307
2026-01-12 10:09:38.48	55.23	19.52	-41.1	-44.2	19.1	6.06e-01	0	59	0	281018368	53	5228
2026-01-12 10:09:39.49	54.94	19.53	-41.1	-44.1	19.2	6.04e-01	0	59	0	283115520	53	5206
2026-01-12 10:09:40.50	54.65	19.53	-41.1	-44.1	19.1	6.07e-01	0	59	0	284688384	53	5213
2026-01-12 10:09:41.51	54.36	19.54	-41.2	-44.3	19.0	6.07e-01	0	59	0	286785536	53	5320
2026-01-12 10:09:42.52	54.07	19.54	-41.2	-44.2	19.0	6.07e-01	0	59	0	288358400	53	5272
2026-01-12 10:09:43.52	53.78	19.55	-41.2	-44.3	19.0	6.07e-01	0	59	0	290455552	53	5310
2026-01-12 10:09:44.54	53.48	19.55	-41.1	-44.2	19.1	6.08e-01	0	59	0	292552704	53	5225
2026-01-12 10:09:45.55	53.19	19.55	-41.1	-44.2	19.1	6.07e-01	0	59	0	294125568	53	5221
2026-01-12 10:09:46.56	52.90	19.56	-41.2	-44.3	19.0	6.07e-01	0	59	0	296222720	53	5291
2026-01-12 10:09:47.57	52.61	19.56	-41.2	-44.2	19.1	6.04e-01	0	59	0	297795584	53	5255
2026-01-12 10:09:48.58	52.31	19.56	-41.2	-44.2	19.0	6.08e-01	0	59	0	299892736	53	5271
2026-01-12 10:09:49.59	52.02	19.56	-41.2	-44.2	19.0	6.07e-01	0	59	0	301989888	53	5275
2026-01-12 10:09:50.60	51.73	19.56	-41.3	-44.5	18.8	6.05e-01	0	59	0	303562752	53	5422
2026-01-12 10:09:51.61	51.44	19.55	-41.6	-54.1	3.8	7.45e-01	0	59	104	305135616	53	16478
2026-01-12 10:09:52.62	51.15	19.55	-41.6	-53.9	3.9	7.44e-01	0	59	104	305135616	53	16057
2026-01-12 10:09:53.63	50.86	19.55	-41.5	-53.9	3.8	7.44e-01	0	59	104	305135616	53	15969
2026-01-12 10:09:54.64	50.56	19.54	-41.7	-54.1	3.9	7.43e-01	0	59	104	305135616	53	16331
2026-01-12 10:09:55.65	50.27	19.54	-44.1	-58.6	3.7	7.46e-01	0	59	104	305135616	58	20736
2026-01-12 10:09:56.66	49.98	19.53	-42.3	-55.1	3.8	7.46e-01	0	59	104	305135616	55	16387
2026-01-12 10:09:57.67	49.69	19.53	-43.3	-57.0	3.8	7.43e-01	0	59	104	305135616	58	17161
2026-01-12 10:09:58.68	49.40	19.52	-43.4	-57.1	3.7	7.43e-01	0	59	104	305135616	57	18356
2026-01-12 10:09:59.68	49.11	19.51	-43.1	-56.6	3.9	7.41e-01	0	59	104	305135616	58	16317
2026-01-12 10:10:00.69	48.82	19.50	-42.0	-54.5	3.9	7.43e-01	0	59	104	305135616	56	14440
2026-01-12 10:10:01.70	48.53	19.50	-41.9	-54.5	3.8	7.44e-01	0	59	104	305135616	55	15362
2026-01-12 10:10:02.71	48.24	19.49	-42.7	-55.8	3.8	7.42e-01	0	59	104	305135616	55	17829
2026-01-12 10:10:03.72	47.95	19.47	-42.9	-56.3	3.8	7.48e-01	0	59	104	305135616	57	16721
2026-01-12 10:10:04.73	47.66	19.46	-43.6	-57.4	3.7	7.45e-01	0	59	104	305135616	57	18980
2026-01-12 10:10:05.74	47.37	19.45	-44.3	-59.0	3.8	7.46e-01	0	59	104	305135616	59	20425
2026-01-12 10:10:06.75	47.08	19.44	-43.7	-57.5	3.9	7.49e-01	0	59	104	305135616	57	19208
2026-01-12 10:10:07.76	46.79	19.42	-43.3	-56.9	3.9	7.41e-01	0	59	104	305135616	58	16958
2026-01-12 10:10:08.77	46.50	19.41	-42.3	-55.1	3.9	7.44e-01	0	59	104	305135616	56	15521
2026-01-12 10:10:09.78	46.21	19.40	-42.4	-55.2	3.8	7.44e-01	0	59	104	305135616	56	15748
2026-01-12 10:10:10.79	45.92	19.38	-44.7	-60.6	3.8	7.50e-01	0	59	104	305135616	59	24513
2026-01-12 10:10:11.80	45.64	19.36	-42.5	-55.3	3.9	7.45e-01	0	59	104	305135616	56	15859
2026-01-12 10:10:12.81	45.35	19.35	-44.1	-58.4	3.8	7.44e-01	0	59	104	305135616	58	20293
2026-01-12 10:10:13.82	45.06	19.33	-44.4	-59.4	3.8	7.46e-01	0	59	104	305135616	59	21483
2026-01-12 10:10:14.83	44.77	19.31	-44.6	-59.9	3.7	7.49e-01	0	59	104	305135616	59	22600
2026-01-12 10:10:15.84	44.49	19.29	-43.0	-56.3	3.8	7.42e-01	0	59	104	305135616	58	15844
2026-01-12 10:10:16.85	44.20	19.27	-42.4	-55.2	3.8	7.45e-01	0	59	104	305135616	56	15601
2026-01-12 10:10:17.86	43.91	19.25	-42.4	-55.4	3.8	7.47e-01	0	59	104	305135616	56	16069
2026-01-12 10:10:18.87	43.63	19.23	-41.6	-54.1	3.8	7.45e-01	0	59	104	305135616	55	14594
2026-01-12 10:10:19.88	43.34	19.21	-42.6	-55.6	3.8	7.44e-01	0	59	104	305135616	55	17301
2026-01-12 10:10:20.89	43.06	19.18	-44.5	-60.7	3.8	7.48e-01	0	59	104	305135616	60	23507
2026-01-12 10:10:21.90	42.78	19.16	-44.6	-60.1	3.8	7.48e-01	0	59	104	305135616	59	23244
2026-01-12 10:10:22.91	42.49	19.14	-44.6	-60.9	3.7	7.44e-01	0	59	104	305135616	60	23856
2026-01-12 10:10:23.92	42.21	19.11	-42.9	-56.2	3.8	7.48e-01	0	59	104	305135616	57	16511
2026-01-12 10:10:24.93	41.93	19.09	-42.3	-55.2	3.8	7.45e-01	0	59	104	305135616	56	15587
2026-01-12 10:10:25.94	41.65	19.06	-42.0	-54.5	3.8	7.42e-01	0	60	104	305135616	56	14412
2026-01-12 10:10:26.95	41.36	19.03	-42.1	-54.8	3.8	7.43e-01	0	59	104	305135616	55	15823
2026-01-12 10:10:27.96	41.08	19.01	-44.9	-62.0	3.7	7.49e-01	0	59	104	305135616	60	27179
2026-01-12 10:10:28.97	40.80	18.98	-44.6	-59.9	3.8	7.47e-01	0	59	104	305135616	59	22706
2026-01-12 10:10:29.98	40.52	18.95	-43.0	-56.4	3.8	7.44e-01	0	59	104	305135616	57	17003
2026-01-12 10:10:30.99	40.24	18.92	-45.0	-61.9	3.7	7.48e-01	0	59	104	305135616	60	26988
2026-01-12 10:10:32.00	39.96	18.89	-42.5	-55.4	3.8	7.43e-01	0	59	104	305135616	57	15211
2026-01-12 10:10:33.00	39.69	18.86	-41.8	-54.3	3.8	7.44e-01	0	59	104	305135616	55	15038
2026-01-12 10:10:34.02	39.41	18.83	-41.7	-54.2	3.8	7.44e-01	0	59	104	305135616	55	14788
2026-01-12 10:10:35.03	39.13	18.80	-41.9	-54.5	3.8	7.45e-01	0	59	104	305135616	54	16292
2026-01-12 10:10:36.04	38.86	18.77	-44.6	-60.5	3.8	7.51e-01	0	59	104	305135616	60	22967
2026-01-12 10:10:37.05	38.58	18.73	-45.0	-62.8	3.7	7.49e-01	0	59	104	305135616	60	29798
2026-01-12 10:10:38.06	38.31	18.70	-42.9	-56.2	3.8	7.43e-01	0	59	104	305135616	57	16589
2026-01-12 10:10:39.07	38.03	18.67	-45.1	-62.8	3.8	7.45e-01	0	59	104	305135616	60	29921
2026-01-12 10:10:40.08	37.76	18.63	-42.5	-55.6	3.8	7.44e-01	0	59	104	305135616	57	15478
2026-01-12 10:10:41.09	37.48	18.60	-42.3	-55.1	3.8	7.48e-01	0	59	104	305135616	56	15532
2026-01-12 10:10:42.10	37.21	18.56	-42.0	-54.7	3.8	7.43e-01	0	59	104	305135616	56	14774
2026-01-12 10:10:43.11	36.94	18.52	-41.9	-54.6	3.8	7.46e-01	0	59	104	305135616	55	15413
2026-01-12 10:10:44.12	36.67	18.49	-44.9	-62.6	3.8	7.41e-01	0	59	104	305135616	60	29154
2026-01-12 10:10:45.13	36.40	18.45	-44.3	-59.9	3.8	7.41e-01	0	59	104	305135616	60	21310
2026-01-12 10:10:46.14	36.13	18.41	-42.0	-55.0	3.8	7.44e-01	0	59	104	305135616	56	15325
2026-01-12 10:10:47.15	35.86	18.37	-44.9	-62.1	3.8	7.44e-01	0	59	104	305135616	60	27429
2026-01-12 10:10:48.16	35.59	18.33	-41.6	-54.2	3.9	7.46e-01	0	59	104	305135616	55	14743
2026-01-12 10:10:49.17	35.33	18.29	-41.6	-54.0	3.8	7.46e-01	0	59	104	305135616	55	14439
2026-01-12 10:10:50.17	35.06	18.25	-41.6	-54.0	3.8	7.44e-01	0	59	104	305135616	55	14494
2026-01-12 10:10:51.18	34.80	18.21	-42.4	-55.3	3.8	7.46e-01	0	59	104	305135616	55	16852
2026-01-12 10:10:52.19	34.53	18.17	-42.0	-54.8	3.8	7.47e-01	0	59	104	305135616	55	15829
2026-01-12 10:10:53.20	34.27	18.13	-44.7	-61.4	3.8	7.45e-01	0	59	104	305135616	60	25337
2026-01-12 10:10:54.21	34.01	18.09	-44.0	-58.7	3.9	7.49e-01	0	59	104	305135616	59	19691
2026-01-12 10:10:55.22	33.74	18.04	-44.9	-62.5	3.9	7.48e-01	0	59	104	305135616	60	28819
2026-01-12 10:10:56.23	33.48	18.00	-42.4	-55.3	3.8	7.44e-01	0	59	104	305135616	56	15772
2026-01-12 10:10:57.24	33.22	17.96	-42.5	-55.6	3.8	7.47e-01	0	59	104	305135616	56	16424
2026-01-12 10:10:58.25	32.96	17.91	-42.0	-54.7	3.8	7.40e-01	0	59	104	305135616	56	14815
2026-01-12 10:10:59.26	32.70	17.87	-41.4	-53.8	3.8	7.44e-01	0	59	104	305135616	54	14914
2026-01-12 10:11:00.27	32.44	17.82	-44.5	-61.0	3.8	7.40e-01	0	59	104	305135616	60	24410
2026-01-12 10:11:01.28	32.18	17.77	-44.1	-58.9	3.8	7.40e-01	0	59	104	305135616	59	20279
2026-01-12 10:11:02.29	31.93	17.73	-42.6	-55.6	3.8	7.48e-01	0	59	104	305135616	57	15491
2026-01-12 10:11:03.30	31.67	17.68	-45.0	-62.4	3.9	7.43e-01	0	59	104	305135616	60	28476
2026-01-12 10:11:04.31	31.42	17.63	-42.4	-55.4	3.8	7.45e-01	0	59	104	305135616	56	15989
2026-01-12 10:11:05.32	31.16	17.59	-42.2	-55.2	3.8	7.43e-01	0	59	104	305135616	56	15679
2026-01-12 10:11:06.33	30.91	17.54	-41.6	-54.1	3.8	7.46e-01	0	59	104	305135616	55	14703
2026-01-12 10:11:07.34	30.66	17.49	-41.7	-54.2	3.8	7.47e-01	0	59	104	305135616	55	14753
2026-01-12 10:11:08.35	30.41	17.44	-42.5	-55.6	3.9	7.44e-01	0	59	104	305135616	57	15572
2026-01-12 10:11:09.36	30.15	17.39	-44.4	-60.6	3.9	7.42e-01	0	59	104	305135616	60	23128
2026-01-12 10:11:10.36	29.91	17.34	-41.5	-53.9	3.8	7.44e-01	0	59	104	305135616	55	14221
2026-01-12 10:11:11.38	29.66	17.29	-44.1	-59.5	3.9	7.44e-01	0	59	104	305135616	60	20399
2026-01-12 10:11:12.39	29.41	17.24	-41.5	-53.9	3.8	7.42e-01	0	59	104	305135616	54	15196
2026-01-12 10:11:13.40	29.16	17.19	-41.5	-54.0	3.8	7.43e-01	0	59	104	305135616	54	15352
2026-01-12 10:11:14.41	28.92	17.14	-41.3	-53.7	3.8	7.49e-01	0	59	104	305135616	54	14746
2026-01-12 10:11:15.42	28.67	17.08	-42.0	-54.8	3.8	7.44e-01	0	59	104	305135616	54	16771
2026-01-12 10:11:16.43	28.43	17.03	-41.4	-53.7	3.8	7.42e-01	0	59	104	305135616	54	14816
2026-01-12 10:11:17.44	28.18	16.98	-43.8	-58.1	3.8	7.45e-01	0	59	104	305135616	59	18502
2026-01-12 10:11:18.45	27.94	16.93	-41.5	-54.1	3.8	7.43e-01	0	59	104	305135616	55	14683
2026-01-12 10:11:19.46	27.70	16.87	-44.1	-59.4	3.9	7.43e-01	0	59	104	305135616	59	21343
2026-01-12 10:11:20.47	27.46	16.82	-41.5	-53.9	3.8	7.44e-01	0	59	104	305135616	54	15205
2026-01-12 10:11:21.48	27.22	16.76	-41.4	-53.8	3.8	7.46e-01	0	59	104	305135616	54	14902
2026-01-12 10:11:22.49	26.98	16.71	-41.8	-54.4	3.8	7.43e-01	0	59	104	305135616	54	16021
2026-01-12 10:11:23.50	26.74	16.66	-44.1	-58.8	3.8	7.44e-01	0	59	104	305135616	58	21039
2026-01-12 10:11:24.51	26.50	16.60	-41.5	-53.9	3.8	7.46e-01	0	59	104	305135616	55	14302
2026-01-12 10:11:25.52	26.27	16.54	-44.2	-59.1	3.9	7.45e-01	0	59	104	305135616	59	20705
2026-01-12 10:11:26.53	26.03	16.49	-42.6	-55.8	3.8	7.45e-01	0	59	104	305135616	56	16840
2026-01-12 10:11:27.54	25.80	16.43	-43.6	-58.0	3.8	7.40e-01	0	59	104	305135616	59	18232
2026-01-12 10:11:28.55	25.57	16.38	-42.3	-55.1	3.8	7.45e-01	0	59	104	305135616	56	15564
2026-01-12 10:11:29.56	25.33	16.32	-41.5	-54.1	3.8	7.47e-01	0	59	104	305135616	55	14645
2026-01-12 10:11:30.57	25.10	16.26	-42.2	-55.1	3.8	7.45e-01	0	59	104	305135616	55	16342
2026-01-12 10:11:31.58	24.87	16.20	-43.9	-58.3	3.8	7.44e-01	0	59	104	305135616	58	19949
2026-01-12 10:11:32.59	24.64	16.15	-41.5	-53.9	3.8	7.48e-01	0	59	104	305135616	55	14265
2026-01-12 10:11:33.60	24.41	16.09	-42.9	-56.4	3.8	7.42e-01	0	59	104	305135616	57	16954
2026-01-12 10:11:34.61	24.19	16.03	-42.4	-55.5	3.8	7.44e-01	0	59	104	305135616	55	17090
2026-01-12 10:11:35.62	23.96	15.97	-43.6	-57.8	3.9	7.40e-01	0	59	104	305135616	59	17791
2026-01-12 10:11:36.63	23.74	15.91	-42.1	-54.8	3.8	7.43e-01	0	59	104	305135616	56	14943
2026-01-12 10:11:37.64	23.51	15.85	-41.7	-54.3	3.8	7.46e-01	0	59	104	305135616	55	14942
2026-01-12 10:11:38.65	23.29	15.79	-41.4	-53.7	3.8	7.42e-01	0	59	104	305135616	54	14872
2026-01-12 10:11:39.66	23.06	15.73	-42.6	-55.7	3.8	7.47e-01	0	59	104	305135616	55	17568
2026-01-12 10:11:40.67	22.84	15.67	-43.2	-56.8	3.8	7.45e-01	0	59	104	305135616	56	18815
2026-01-12 10:11:41.68	22.62	15.61	-42.5	-55.6	3.8	7.44e-01	0	59	104	305135616	57	15465
2026-01-12 10:11:42.69	22.40	15.55	-42.7	-55.9	3.8	7.43e-01	0	59	104	305135616	55	17962
2026-01-12 10:11:43.70	22.18	15.49	-42.7	-56.0	3.8	7.44e-01	0	59	104	305135616	57	16166
2026-01-12 10:11:44.71	21.97	15.43	-41.6	-54.2	3.8	7.42e-01	0	59	104	305135616	55	14815
2026-01-12 10:11:45.72	21.75	15.37	-41.6	-54.2	3.8	7.44e-01	0	59	104	305135616	55	14850
2026-01-12 10:11:46.73	21.53	15.31	-41.5	-54.0	3.8	7.43e-01	0	59	104	305135616	54	15353
2026-01-12 10:11:47.74	21.32	15.25	-43.2	-56.7	3.8	7.44e-01	0	59	104	305135616	56	18717
2026-01-12 10:11:48.75	21.10	15.19	-44.2	-59.3	3.8	7.48e-01	0	59	104	305135616	58	22494
2026-01-12 10:11:49.76	20.89	15.12	-42.5	-55.6	3.9	7.42e-01	0	59	104	305135616	57	15405
2026-01-12 10:11:50.78	20.68	15.06	-43.8	-58.0	3.8	7.45e-01	0	59	104	305135616	57	20399
2026-01-12 10:11:51.78	20.47	15.00	-42.4	-55.5	3.9	7.46e-01	0	59	104	305135616	56	16187
2026-01-12 10:11:52.79	20.26	14.94	-41.6	-54.2	3.8	7.43e-01	0	59	104	305135616	55	14794
2026-01-12 10:11:53.80	20.05	14.87	-41.6	-54.3	3.8	7.50e-01	0	59	104	305135616	55	15000
2026-01-12 10:11:54.81	19.84	14.81	-42.0	-54.8	3.8	7.45e-01	0	59	104	305135616	54	16808
2026-01-12 10:11:55.82	19.63	14.75	-42.3	-55.4	3.8	7.41e-01	0	59	104	305135616	55	16905
2026-01-12 10:11:56.84	19.43	14.69	-44.3	-59.9	3.8	7.50e-01	0	59	104	305135616	59	22576
2026-01-12 10:11:57.85	19.22	14.62	-43.5	-57.5	3.8	7.44e-01	0	59	104	305135616	58	18285
2026-01-12 10:11:58.86	19.02	14.56	-44.5	-61.8	3.8	7.50e-01	0	59	104	305135616	60	26691
2026-01-12 10:11:59.87	18.81	14.49	-42.2	-55.2	3.8	7.46e-01	0	59	104	305135616	56	15585
2026-01-12 10:12:00.88	18.61	14.43	-41.6	-54.3	3.8	7.45e-01	0	59	104	305135616	55	14925
2026-01-12 10:12:01.89	18.41	14.37	-41.4	-53.9	3.8	7.46e-01	0	59	104	305135616	54	15121
2026-01-12 10:12:02.90	18.21	14.30	-43.1	-56.8	3.8	7.44e-01	0	59	104	305135616	56	18828
2026-01-12 10:12:03.91	18.01	14.24	-43.9	-58.6	3.8	7.46e-01	0	59	104	305135616	58	20654
2026-01-12 10:12:04.92	17.81	14.17	-44.7	-62.4	3.8	7.46e-01	0	59	104	305135616	60	28404
2026-01-12 10:12:05.93	17.61	14.11	-42.4	-55.5	3.8	7.46e-01	0	59	104	305135616	56	16148
2026-01-12 10:12:06.94	17.41	14.04	-44.6	-61.6	3.8	7.49e-01	0	59	104	305135616	60	26090
2026-01-12 10:12:07.95	17.22	13.98	-42.1	-55.1	3.8	7.47e-01	0	59	104	305135616	56	15533
2026-01-12 10:12:08.96	17.02	13.91	-41.7	-54.4	3.8	7.40e-01	0	59	104	305135616	55	15193
2026-01-12 10:12:09.97	16.83	13.85	-41.6	-54.3	3.8	7.44e-01	0	59	104	305135616	55	15010
2026-01-12 10:12:10.98	16.64	13.78	-41.9	-54.9	3.8	7.48e-01	0	59	104	305135616	54	17003
2026-01-12 10:12:11.99	16.44	13.72	-42.3	-55.5	3.8	7.44e-01	0	59	104	305135616	55	17121
2026-01-12 10:12:13.00	16.25	13.65	-44.6	-61.8	3.7	7.40e-01	0	59	104	305135616	60	26582
2026-01-12 10:12:14.01	16.06	13.59	-43.8	-58.6	3.8	7.47e-01	0	59	104	305135616	58	20691
2026-01-12 10:12:15.02	15.87	13.52	-44.7	-63.0	3.7	7.46e-01	0	59	104	305135616	60	30550
2026-01-12 10:12:16.03	15.68	13.46	-42.1	-55.2	3.8	7.47e-01	0	59	104	305135616	56	15752
2026-01-12 10:12:17.04	15.50	13.39	-41.6	-54.4	3.8	7.41e-01	0	59	104	305135616	55	15122
2026-01-12 10:12:18.05	15.31	13.32	-41.6	-54.2	3.8	7.43e-01	0	59	104	305135616	55	14847
2026-01-12 10:12:19.06	15.12	13.26	-42.5	-55.8	3.8	7.45e-01	0	59	104	305135616	55	17691
2026-01-12 10:12:20.07	14.94	13.19	-42.3	-55.7	3.8	7.42e-01	0	59	104	305135616	55	17586
2026-01-12 10:12:21.08	14.76	13.13	-44.5	-62.0	3.9	7.46e-01	0	59	104	305135616	60	27248
2026-01-12 10:12:22.09	14.57	13.06	-43.5	-58.2	3.8	7.42e-01	0	59	104	305135616	58	19689
2026-01-12 10:12:23.10	14.39	12.99	-44.5	-63.0	3.8	7.45e-01	0	59	104	305135616	60	30692
2026-01-12 10:12:24.11	14.21	12.93	-41.7	-54.5	3.8	7.43e-01	0	59	104	305135616	55	15383
2026-01-12 10:12:25.12	14.03	12.86	-41.6	-54.4	3.8	7.47e-01	0	59	104	305135616	55	15144
2026-01-12 10:12:26.13	13.85	12.79	-41.5	-54.2	3.8	7.47e-01	0	59	104	305135616	55	14851
2026-01-12 10:12:27.14	13.67	12.73	-42.7	-56.4	3.8	7.45e-01	0	59	104	305135616	55	19048
2026-01-12 10:12:28.15	13.49	12.66	-43.3	-57.9	3.8	7.45e-01	0	59	104	305135616	57	20197
2026-01-12 10:12:29.16	13.32	12.59	-44.7	-63.1	3.8	7.43e-01	0	59	104	305135616	59	32748
2026-01-12 10:12:30.17	13.14	12.53	-42.1	-55.5	3.8	7.43e-01	0	59	104	305135616	56	16183
2026-01-12 10:12:31.18	12.97	12.46	-44.5	-61.9	3.8	7.45e-01	0	59	104	305135616	59	28572
2026-01-12 10:12:32.19	12.79	12.39	-41.6	-54.7	3.9	7.43e-01	0	59	104	305135616	55	15625
2026-01-12 10:12:33.20	12.62	12.33	-41.4	-54.3	3.8	7.46e-01	0	59	104	305135616	54	15770
2026-01-12 10:12:34.21	12.45	12.26	-41.4	-54.4	3.8	7.44e-01	0	59	104	305135616	54	16075
2026-01-12 10:12:35.22	12.27	12.19	-41.6	-55.2	3.8	7.47e-01	0	59	104	305135616	54	17677
2026-01-12 10:12:36.23	12.10	12.13	-42.6	-56.6	3.8	7.40e-01	0	59	104	305135616	57	17362
2026-01-12 10:12:37.24	11.93	12.06	-43.8	-62.2	3.8	7.43e-01	0	59	104	305135616	58	31241
2026-01-12 10:12:38.25	11.76	11.99	-41.4	-55.0	3.8	7.46e-01	0	59	104	305135616	54	17270
2026-01-12 10:12:39.26	11.60	11.92	-44.0	-61.1	3.8	7.47e-01	0	59	104	305135616	59	26145
2026-01-12 10:12:40.27	11.43	11.86	-41.2	-54.5	3.8	7.47e-01	0	59	104	305135616	54	16264
2026-01-12 10:12:41.28	11.26	11.79	-41.1	-54.4	3.8	7.46e-01	0	59	104	305135616	54	16106
2026-01-12 10:12:42.29	11.10	11.72	-40.8	-54.1	3.8	7.45e-01	0	59	104	305135616	53	16371
2026-01-12 10:12:43.30	10.93	11.66	-41.1	-55.4	3.8	7.43e-01	0	59	104	305135616	53	19079
2026-01-12 10:12:44.31	10.77	11.59	-41.0	-55.1	3.8	7.43e-01	0	59	104	305135616	53	18513
2026-01-12 10:12:45.32	10.60	11.52	-43.3	-60.5	3.8	7.47e-01	0	59	104	305135616	57	27228
2026-01-12 10:12:46.33	10.44	11.45	-41.4	-56.0	3.9	7.42e-01	0	59	104	305135616	55	18114
2026-01-12 10:12:47.34	10.28	11.39	-42.4	-61.2	3.8	7.45e-01	0	59	104	305135616	55	33241
2026-01-12 10:12:48.35	10.12	11.32	-41.8	-57.0	3.8	7.45e-01	0	59	104	305135616	55	20358
2026-01-12 10:12:49.36	9.96	11.25	-41.9	-57.6	3.8	7.45e-01	0	59	104	305135616	55	21972
2026-01-12 10:12:50.37	9.80	11.19	-41.9	-58.5	3.8	7.45e-01	0	59	104	305135616	55	24299
2026-01-12 10:12:51.38	9.64	11.12	-41.7	-59.8	3.8	7.45e-01	0	59	104	305135616	55	28093
2026-01-12 10:12:52.39	9.48	11.05	-42.2	-59.1	3.8	7.45e-01	0	59	104	305135616	56	24634
2026-01-12 10:12:53.40	9.33	10.98	-41.4	-60.3	3.8	7.45e-01	0	59	104	305135616	54	31487
2026-01-12 10:12:54.42	9.17	10.92	-41.8	-59.4	3.8	7.45e-01	0	59	104	305135616	54	28580
2026-01-12 10:12:55.43	9.01	10.85	-42.4	-60.6	3.8	7.45e-01	0	59	104	305135616	55	31021
2026-01-12 10:12:56.44	8.86	10.78	-41.8	-59.9	3.8	7.45e-01	0	59	104	305135616	55	28493
2026-01-12 10:12:57.45	8.71	10.72	-41.7	-60.0	3.8	7.46e-01	0	59	104	305135616	55	28906
2026-01-12 10:12:58.46	8.55	10.65	-41.6	-60.1	3.8	7.43e-01	0	59	104	305135616	55	29280
2026-01-12 10:12:59.47	8.40	10.58	-41.6	-60.3	3.8	7.45e-01	0	59	104	305135616	54	31528
2026-01-12 10:13:00.47	8.25	10.51	-41.4	-59.9	3.8	7.47e-01	0	60	104	305135616	54	30084
2026-01-12 10:13:01.48	8.10	10.45	-41.0	-59.9	3.8	7.49e-01	0	59	104	305135616	54	30032
2026-01-12 10:13:02.50	7.95	10.38	-41.0	-59.8	3.8	7.45e-01	0	59	104	305135616	53	31507
2026-01-12 10:13:03.51	7.80	10.31	-41.1	-59.9	3.8	7.47e-01	0	59	104	305135616	53	31961
2026-01-12 10:13:04.52	7.65	10.25	-40.9	-59.8	3.8	7.48e-01	0	59	104	305135616	53	31505
2026-01-12 10:13:05.53	7.51	10.18	-40.9	-59.7	3.8	7.44e-01	0	59	104	305135616	53	31229
2026-01-12 10:13:06.54	7.36	10.11	-40.8	-59.7	3.8	7.44e-01	0	59	104	305135616	53	31098
2026-01-12 10:13:07.55	7.21	10.04	-40.8	-59.7	3.8	7.47e-01	0	59	104	305135616	53	31205
2026-01-12 10:13:08.56	7.07	9.98	-41.0	-59.9	3.8	7.43e-01	0	60	104	305135616	53	31885
2026-01-12 10:13:09.57	6.92	9.91	-41.2	-60.2	3.8	7.43e-01	0	59	104	305135616	53	32967
2026-01-12 10:13:10.58	6.78	9.84	-40.9	-59.8	3.8	7.45e-01	0	59	104	305135616	53	31653
2026-01-12 10:13:11.59	6.64	9.78	-40.7	-59.6	3.8	7.45e-01	0	59	104	305135616	53	30951
2026-01-12 10:13:12.60	6.49	9.71	-40.7	-59.6	3.8	7.46e-01	0	60	104	305135616	53	30916
2026-01-12 10:13:13.61	6.35	9.64	-40.7	-59.6	3.8	7.45e-01	0	59	104	305135616	53	30905
2026-01-12 10:13:14.62	6.21	9.58	-40.7	-59.6	3.8	7.45e-01	0	59	104	305135616	53	30786
2026-01-12 10:13:15.63	6.07	9.51	-40.7	-59.5	3.8	7.43e-01	0	59	104	305135616	53	30711
2026-01-12 10:13:16.64	5.93	9.44	-40.9	-59.8	3.8	7.43e-01	0	59	104	305135616	53	31785
2026-01-12 10:13:17.65	5.79	9.38	-40.7	-59.6	3.8	7.44e-01	0	59	104	305135616	53	31005
2026-01-12 10:13:18.66	5.65	9.31	-40.7	-59.6	3.8	7.44e-01	0	59	104	305135616	53	30755
2026-01-12 10:13:19.67	5.52	9.24	-40.7	-59.6	3.8	7.45e-01	0	59	104	305135616	53	30827
2026-01-12 10:13:20.68	5.38	9.18	-40.7	-59.6	3.8	7.50e-01	0	59	104	305135616	53	30761
2026-01-12 10:13:21.69	5.24	9.11	-40.7	-59.6	3.8	7.39e-01	0	59	104	305135616	53	30738
2026-01-12 10:13:22.70	5.11	9.05	-40.6	-59.5	3.8	7.44e-01	0	59	104	305135616	53	30708
2026-01-12 10:13:23.71	4.97	8.98	-40.6	-59.5	3.8	7.43e-01	0	59	104	305135616	53	30660
2026-01-12 10:13:24.72	4.84	8.91	-40.7	-59.7	3.8	7.47e-01	0	59	104	305135616	53	31151
2026-01-12 10:13:25.73	4.71	8.85	-40.7	-59.7	3.8	7.44e-01	0	59	104	305135616	53	31103
2026-01-12 10:13:26.74	4.57	8.78	-40.7	-59.6	3.8	7.49e-01	0	59	104	305135616	53	30942
2026-01-12 10:13:27.75	4.44	8.72	-40.6	-59.7	3.8	7.47e-01	0	59	104	305135616	53	31107
2026-01-12 10:13:28.76	4.31	8.65	-40.7	-59.6	3.8	7.45e-01	0	59	104	305135616	53	30790
2026-01-12 10:13:29.77	4.18	8.58	-40.8	-59.7	3.8	7.43e-01	0	59	104	305135616	53	31374
2026-01-12 10:13:30.78	4.05	8.52	-40.6	-59.6	3.8	7.46e-01	0	59	104	305135616	53	30952
2026-01-12 10:13:31.78	3.92	8.45	-40.7	-59.7	3.8	7.43e-01	0	59	104	305135616	53	31376
2026-01-12 10:13:32.79	3.79	8.39	-40.6	-59.6	3.8	7.43e-01	0	59	104	305135616	53	31013
2026-01-12 10:13:33.80	3.66	8.32	-40.5	-59.6	3.8	7.43e-01	0	59	104	305135616	53	30926
2026-01-12 10:13:34.81	3.54	8.26	-40.6	-59.6	3.8	7.44e-01	0	59	104	305135616	52	32928
2026-01-12 10:13:35.82	3.41	8.19	-40.4	-59.6	3.8	7.47e-01	0	59	104	305135616	52	32592
2026-01-12 10:13:36.83	3.28	8.12	-40.5	-59.6	3.8	7.46e-01	0	59	104	305135616	52	32873
2026-01-12 10:13:37.85	3.16	8.06	-40.4	-59.6	3.8	7.46e-01	0	59	104	305135616	52	32858
2026-01-12 10:13:38.86	3.03	7.99	-41.0	-60.0	3.8	7.46e-01	0	59	104	305135616	52	34273
2026-01-12 10:13:39.87	2.91	7.93	-44.8	-63.5	3.8	7.49e-01	0	59	104	305135616	60	32349
2026-01-12 10:13:40.88	2.79	7.86	-45.6	-64.3	3.8	7.45e-01	0	59	104	305135616	61	33499
2026-01-12 10:13:41.89	2.66	7.80	-45.8	-64.5	3.8	7.47e-01	0	59	104	305135616	62	32535
2026-01-12 10:13:42.90	2.54	7.73	-46.0	-64.7	3.8	7.45e-01	0	59	104	305135616	62	33088
2026-01-12 10:13:43.91	2.42	7.67	-46.1	-64.8	3.8	7.47e-01	0	59	104	305135616	62	33408
2026-01-12 10:13:44.92	2.30	7.60	-46.1	-64.9	3.8	7.44e-01	0	59	104	305135616	62	33731
2026-01-12 10:13:45.93	2.18	7.54	-46.2	-64.9	3.8	7.45e-01	0	59	104	305135616	63	32144
2026-01-12 10:13:46.94	2.06	7.47	-46.2	-64.9	3.8	7.46e-01	0	59	104	305135616	63	32061
2026-01-12 10:13:47.96	1.94	7.41	-46.2	-64.9	3.8	7.44e-01	0	59	104	305135616	63	32169
2026-01-12 10:13:48.97	1.82	7.34	-46.0	-64.9	3.8	7.45e-01	0	59	104	305135616	63	31896
2026-01-12 10:13:49.98	1.70	7.28	-46.0	-64.8	3.8	7.47e-01	0	59	104	305135616	63	31679
2026-01-12 10:13:50.99	1.58	7.21	-46.0	-64.8	3.8	7.43e-01	0	59	104	305135616	63	31590
2026-01-12 10:13:52.00	1.46	7.15	-45.9	-64.8	3.8	7.45e-01	0	59	104	305135616	63	31611
2026-01-12 10:13:53.01	1.35	7.09	-46.0	-64.7	3.8	7.47e-01	0	59	104	305135616	63	31241
2026-01-12 10:13:54.02	1.23	7.02	-45.9	-64.7	3.8	7.48e-01	0	59	104	305135616	63	31244
2026-01-12 10:13:55.03	1.12	6.96	-45.8	-64.6	3.8	7.46e-01	0	59	104	305135616	62	32688
2026-01-12 10:13:56.04	1.00	6.89	-45.9	-64.6	3.8	7.47e-01	0	59	104	305135616	62	32776
2026-01-12 10:13:57.05	0.89	6.83	-45.9	-64.7	3.8	7.49e-01	0	59	104	305135616	62	33133
2026-01-12 10:13:58.07	0.77	6.76	-45.9	-64.7	3.8	7.47e-01	0	59	104	305135616	62	33239
2026-01-12 10:13:59.07	0.66	6.70	-45.9	-64.7	3.8	7.45e-01	0	59	104	305135616	62	33157
2026-01-12 10:14:00.08	0.55	6.64	-45.9	-64.7	3.8	7.46e-01	0	59	104	305135616	62	33001
2026-01-12 10:14:01.07	0.44	6.57	-45.9	-64.7	3.8	7.47e-01	0	59	104	305135616	62	33109
2026-01-12 10:14:02.08	0.33	6.51	-45.9	-64.7	3.8	7.45e-01	0	59	104	305135616	62	33182
2026-01-12 10:14:03.10	0.22	6.45	-45.9	-64.7	3.8	7.48e-01	0	59	104	305135616	62	33121
2026-01-12 10:14:04.11	0.11	6.38	-45.8	-64.7	3.8	7.44e-01	0	59	104	305135616	62	33062
2026-01-12 10:14:05.12	360.00	6.32	-45.9	-64.7	3.8	7.45e-01	0	59	104	305135616	62	33159
2026-01-12 10:14:06.13	359.89	6.26	-45.9	-64.7	3.8	7.41e-01	0	59	104	305135616	62	33243
2026-01-12 10:14:07.14	359.78	6.19	-45.9	-64.7	3.8	7.44e-01	0	59	104	305135616	62	33273
2026-01-12 10:14:08.15	359.67	6.13	-45.9	-64.7	3.8	7.46e-01	0	59	104	305135616	62	33077
2026-01-12 10:14:09.16	359.56	6.07	-45.8	-64.6	3.8	7.47e-01	0	59	104	305135616	62	32873
2026-01-12 10:14:10.17	359.45	6.00	-45.6	-64.6	3.8	7.47e-01	0	59	104	305135616	62	32898
2026-01-12 10:14:11.19	359.35	5.94	-45.5	-64.7	3.8	7.45e-01	0	59	104	305135616	62	33085
2026-01-12 10:14:12.20	359.24	5.88	-45.2	-64.7	3.8	7.42e-01	0	59	104	305135616	62	32984
2026-01-12 10:14:13.21	359.14	5.81	-44.7	-64.7	3.8	7.45e-01	0	59	104	305135616	61	34935
2026-01-12 10:14:14.22	359.03	5.75	-44.4	-64.7	3.8	7.48e-01	0	59	104	305135616	60	37078
2026-01-12 10:14:15.23	358.93	5.69	-44.0	-65.0	3.8	7.47e-01	0	59	104	305135616	59	40758
2026-01-12 10:14:16.24	358.82	5.63	-42.5	-65.0	3.8	7.47e-01	0	59	104	305135616	57	45791
2026-01-12 10:14:17.25	358.72	5.56	-42.9	-65.1	3.8	7.46e-01	0	59	104	305135616	56	48747
2026-01-12 10:14:18.26	358.62	5.50	-45.9	-64.7	3.9	7.43e-01	0	59	104	305135616	62	33303
2026-01-12 10:14:19.27	358.51	5.44	-44.0	-65.1	3.7	7.45e-01	0	59	104	305135616	59	41015
2026-01-12 10:14:20.28	358.41	5.38	-43.8	-65.1	3.8	7.47e-01	0	59	104	305135616	58	43549
2026-01-12 10:14:21.29	358.31	5.32	-45.4	-64.7	3.8	7.44e-01	0	59	104	305135616	61	35142
2026-01-12 10:14:22.30	358.21	5.25	-45.8	-64.8	3.8	7.44e-01	0	60	104	305135616	62	33341
2026-01-12 10:14:23.32	358.11	5.19	-45.9	-64.7	3.8	7.48e-01	0	59	104	305135616	62	33195
2026-01-12 10:14:24.33	358.01	5.13	-45.7	-64.7	3.8	7.44e-01	0	59	104	305135616	62	33234
2026-01-12 10:14:25.34	357.91	5.07	-45.5	-64.7	3.8	7.43e-01	0	59	104	305135616	62	33154
2026-01-12 10:14:26.35	357.81	5.01	-45.8	-64.8	3.8	7.46e-01	0	59	104	305135616	62	33325
2026-01-12 10:14:27.36	357.71	4.94	-45.8	-64.7	3.8	7.45e-01	0	59	104	305135616	62	33150
2026-01-12 10:14:28.37	357.61	4.88	-45.8	-64.7	3.8	7.46e-01	0	59	104	305135616	62	33123
2026-01-12 10:14:29.38	357.51	4.82	-45.9	-64.7	3.8	7.47e-01	0	59	104	305135616	62	33111
2026-01-12 10:14:30.39	357.42	4.76	-45.9	-64.7	3.8	7.46e-01	0	59	104	305135616	62	33188
2026-01-12 10:14:31.40	357.32	4.70	-45.8	-64.7	3.8	7.43e-01	0	59	104	305135616	62	33132
2026-01-12 10:14:32.42	357.22	4.64	-45.9	-64.7	3.8	7.47e-01	0	59	104	305135616	62	33118
2026-01-12 10:14:33.43	357.13	4.58	-45.9	-64.7	3.8	7.44e-01	0	59	104	305135616	62	33220
2026-01-12 10:14:34.44	357.03	4.51	-45.9	-64.7	3.8	7.45e-01	0	59	104	305135616	62	33125
2026-01-12 10:14:35.45	356.94	4.45	-45.9	-64.7	3.8	7.49e-01	0	59	104	305135616	62	33139
2026-01-12 10:14:36.46	356.84	4.39	-45.9	-64.7	3.8	7.46e-01	0	59	104	305135616	62	33075
2026-01-12 10:14:37.47	356.75	4.33	-45.9	-64.7	3.8	7.42e-01	0	59	104	305135616	62	33042
2026-01-12 10:14:38.48	356.65	4.27	-45.9	-64.7	3.8	7.45e-01	0	59	104	305135616	62	33121
2026-01-12 10:14:39.49	356.56	4.21	-45.9	-64.7	3.8	7.46e-01	0	59	104	305135616	62	33091
2026-01-12 10:14:40.50	356.47	4.15	-45.8	-64.7	3.8	7.45e-01	0	59	104	305135616	62	33088
2026-01-12 10:14:41.51	356.38	4.09	-45.9	-64.7	3.8	7.45e-01	0	59	104	305135616	62	33069
2026-01-12 10:14:42.52	356.28	4.03	-45.9	-64.7	3.8	7.48e-01	0	59	104	305135616	62	33099
2026-01-12 10:14:43.53	356.19	3.97	-45.9	-64.7	3.8	7.44e-01	0	59	104	305135616	62	33221
2026-01-12 10:14:44.55	356.10	3.91	-45.9	-64.7	3.8	7.42e-01	0	59	104	305135616	62	33047
2026-01-12 10:14:45.56	356.01	3.85	-45.9	-64.7	3.8	7.44e-01	0	59	104	305135616	62	33055
2026-01-12 10:14:46.57	355.92	3.79	-45.9	-64.7	3.8	7.45e-01	0	59	104	305135616	62	32937
2026-01-12 10:14:47.58	355.83	3.73	-45.9	-64.7	3.8	7.47e-01	0	59	104	305135616	62	33025
2026-01-12 10:14:48.59	355.74	3.67	-45.9	-64.7	3.8	7.44e-01	0	59	104	305135616	62	33065
2026-01-12 10:14:49.60	355.65	3.61	-44.6	-64.3	3.8	7.49e-01	0	59	104	305135616	61	33375
2026-01-12 10:14:50.61	355.56	3.55	-45.9	-64.7	3.8	7.47e-01	0	59	104	305135616	62	33140
2026-01-12 10:14:51.62	355.48	3.49	-45.8	-64.7	3.8	7.44e-01	0	59	104	305135616	62	33071
2026-01-12 10:14:52.63	355.39	3.43	-45.9	-64.7	3.8	7.49e-01	0	59	104	305135616	62	33118
2026-01-12 10:14:53.64	355.30	3.37	-45.9	-64.7	3.8	7.45e-01	0	59	104	305135616	62	33039
2026-01-12 10:14:54.66	355.21	3.31	-45.9	-64.7	3.8	7.43e-01	0	59	104	305135616	62	33143
2026-01-12 10:14:55.67	355.13	3.25	-45.9	-64.7	3.8	7.42e-01	0	59	104	305135616	62	33069
2026-01-12 10:14:56.68	355.04	3.19	-45.9	-64.7	3.8	7.42e-01	0	59	104	305135616	62	33142
2026-01-12 10:14:57.69	354.96	3.13	-45.9	-64.7	3.8	7.44e-01	0	59	104	305135616	62	33102
2026-01-12 10:14:58.70	354.87	3.07	-45.9	-64.7	3.8	7.48e-01	0	59	104	305135616	62	33098
2026-01-12 10:14:59.71	354.79	3.01	-45.9	-64.7	3.8	7.42e-01	0	59	104	305135616	62	33149
2026-01-12 10:15:00.72	354.70	2.96	-45.9	-64.7	3.8	7.49e-01	0	59	104	305135616	62	33059
2026-01-12 10:15:01.74	354.62	2.90	-45.9	-64.7	3.8	7.47e-01	0	59	104	305135616	62	33072
2026-01-12 10:15:02.75	354.53	2.84	-45.9	-64.7	3.8	7.45e-01	0	59	104	305135616	62	33063
2026-01-12 10:15:03.76	354.45	2.78	-45.9	-64.7	3.8	7.45e-01	0	59	104	305135616	62	33134
2026-01-12 10:15:04.77	354.37	2.72	-45.9	-64.7	3.8	7.45e-01	0	59	104	305135616	62	33112
2026-01-12 10:15:05.78	354.28	2.66	-45.9	-64.7	3.8	7.44e-01	0	59	104	305135616	62	33100
2026-01-12 10:15:06.79	354.20	2.60	-45.9	-64.7	3.8	7.44e-01	0	59	104	305135616	62	33095
2026-01-12 10:15:07.80	354.12	2.55	-45.9	-64.7	3.8	7.47e-01	0	59	104	305135616	62	33072
2026-01-12 10:15:08.81	354.04	2.49	-45.9	-64.7	3.8	7.42e-01	0	59	104	305135616	62	33056
2026-01-12 10:15:09.82	353.96	2.43	-45.9	-64.7	3.8	7.42e-01	0	59	104	305135616	62	33022
2026-01-12 10:15:10.83	353.88	2.37	-45.9	-64.7	3.8	7.47e-01	0	59	104	305135616	62	33022
2026-01-12 10:15:11.84	353.80	2.31	-45.9	-64.7	3.8	7.44e-01	0	59	104	305135616	62	33024
2026-01-12 10:15:12.85	353.72	2.26	-45.9	-64.7	3.8	7.49e-01	0	59	104	305135616	62	33090
2026-01-12 10:15:13.86	353.64	2.20	-45.9	-64.7	3.8	7.48e-01	0	59	104	305135616	62	33189
2026-01-12 10:15:14.87	353.56	2.14	-45.8	-64.7	3.8	7.42e-01	0	59	104	305135616	62	33064
2026-01-12 10:15:15.89	353.48	2.08	-45.8	-64.7	3.8	7.45e-01	0	59	104	305135616	62	33142
2026-01-12 10:15:16.90	353.40	2.02	-45.9	-64.7	3.8	7.46e-01	0	59	104	305135616	62	33083
2026-01-12 10:15:17.91	353.32	1.97	-45.9	-64.7	3.8	7.40e-01	0	59	104	305135616	62	33038

#Closed at: 2026-01-12 10:15:18
#Recorded file [305 MB]: D:/lorett/data/31039_260112_130613.dat