passes_logs/2026/01/12/R2.0S_Moscow/R2.0S_Moscow__20260112_013018_FENGYUN_3D_rec.log

#Pass ID: 20260112_013018_FENGYUN 3D
#Satellite: FENGYUN 3D
#Configuration: FENGYUN 3D
#almurnet v.1.7.20251203
#Start time: 2026-01-12 01:30:19

#Version: 2.2.20231116
#Station: R2.0S_Moscow
#Location: 37.707566 lon 55.798166 lat
#TLE: 1 43010U 17072A   26011.26828046  .00000354  00000+0  18908-3 0  9991
#TLE: 2 43010  98.9936 343.0270 0002205 114.1788 245.9618 14.19695184422722

#Time	Az	El	Level	Level2	SNR	BER	BlckErr	Temp	State	Recorded	gain1	gain2
2026-01-12 01:30:19.87	17.73	2.09	-41.0	-53.3	3.8	8.45e-01	0	47	0	0	53	14921
2026-01-12 01:30:20.88	17.74	2.16	-40.9	-53.3	3.8	8.45e-01	0	47	104	0	53	14898
2026-01-12 01:30:21.89	17.76	2.22	-41.0	-53.2	3.8	8.45e-01	0	47	104	0	53	14853
2026-01-12 01:30:22.90	17.77	2.28	-41.0	-53.2	3.8	8.47e-01	0	47	104	0	53	14877
2026-01-12 01:30:23.91	17.79	2.35	-40.9	-53.2	3.8	8.47e-01	0	47	104	0	53	14878
2026-01-12 01:30:24.92	17.80	2.41	-41.0	-53.3	3.8	8.45e-01	0	47	104	0	53	14910
2026-01-12 01:30:25.94	17.82	2.48	-40.9	-53.3	3.8	8.47e-01	0	47	104	0	53	14904
2026-01-12 01:30:26.95	17.83	2.55	-40.9	-53.3	3.8	8.47e-01	0	48	104	0	53	14896
2026-01-12 01:30:27.96	17.85	2.61	-40.9	-53.3	3.8	8.46e-01	0	48	104	0	53	14881
2026-01-12 01:30:28.97	17.86	2.68	-40.9	-53.3	3.8	8.45e-01	0	48	104	0	53	14913
2026-01-12 01:30:29.98	17.88	2.74	-40.9	-53.3	3.8	8.47e-01	0	48	104	0	53	14891
2026-01-12 01:30:30.99	17.89	2.81	-40.9	-53.3	3.8	8.46e-01	0	48	104	0	53	14903
2026-01-12 01:30:32.00	17.91	2.87	-41.0	-53.2	3.8	8.46e-01	0	48	104	0	53	14826
2026-01-12 01:30:33.01	17.92	2.94	-40.9	-53.2	3.8	8.46e-01	0	48	104	0	53	14871
2026-01-12 01:30:34.02	17.94	3.01	-40.9	-53.3	3.8	8.47e-01	0	48	104	0	53	14907
2026-01-12 01:30:35.03	17.95	3.07	-40.9	-53.3	3.8	8.46e-01	0	48	104	0	53	14938
2026-01-12 01:30:36.04	17.97	3.14	-40.9	-53.2	3.8	8.46e-01	0	48	104	0	53	14833
2026-01-12 01:30:37.05	17.99	3.21	-40.9	-53.3	3.8	8.46e-01	0	48	104	0	53	14913
2026-01-12 01:30:38.06	18.00	3.27	-40.9	-53.3	3.8	8.46e-01	0	48	104	0	53	14881
2026-01-12 01:30:39.08	18.02	3.34	-40.9	-53.2	3.8	8.46e-01	0	48	104	0	53	14879
2026-01-12 01:30:40.09	18.03	3.41	-40.9	-53.2	3.8	8.47e-01	0	49	104	0	53	14861
2026-01-12 01:30:41.10	18.05	3.47	-40.9	-53.2	3.8	8.45e-01	0	48	104	0	53	14862
2026-01-12 01:30:42.11	18.07	3.54	-40.9	-53.2	3.8	8.47e-01	0	48	104	0	53	14837
2026-01-12 01:30:43.12	18.08	3.61	-40.9	-53.2	3.8	8.47e-01	0	48	104	0	53	14826
2026-01-12 01:30:44.13	18.10	3.68	-40.9	-53.2	3.8	8.46e-01	0	49	104	0	53	14833
2026-01-12 01:30:45.14	18.11	3.75	-40.9	-53.2	3.8	8.46e-01	0	49	104	0	53	14842
2026-01-12 01:30:46.15	18.13	3.81	-40.9	-53.3	3.8	8.47e-01	0	49	104	0	53	14905
2026-01-12 01:30:47.17	18.15	3.88	-40.9	-53.2	3.8	8.46e-01	0	49	104	0	53	14794
2026-01-12 01:30:48.17	18.16	3.95	-40.9	-53.2	3.8	8.46e-01	0	49	104	0	53	14806
2026-01-12 01:30:49.19	18.18	4.02	-40.8	-53.2	3.8	8.46e-01	0	49	104	0	53	14821
2026-01-12 01:30:50.20	18.19	4.09	-40.9	-53.2	3.8	8.44e-01	0	49	104	0	53	14844
2026-01-12 01:30:51.21	18.21	4.16	-40.9	-53.2	3.8	8.45e-01	0	49	104	0	53	14827
2026-01-12 01:30:52.22	18.23	4.23	-40.8	-53.2	3.8	8.46e-01	0	49	104	0	53	14802
2026-01-12 01:30:53.23	18.24	4.30	-40.9	-53.2	3.8	8.46e-01	0	49	104	0	53	14867
2026-01-12 01:30:54.24	18.26	4.37	-40.9	-53.2	3.8	8.46e-01	0	49	104	0	53	14771
2026-01-12 01:30:55.25	18.28	4.44	-40.9	-53.3	3.8	8.46e-01	0	49	104	0	53	14902
2026-01-12 01:30:56.26	18.29	4.51	-40.8	-53.3	3.8	8.47e-01	0	49	104	0	53	14894
2026-01-12 01:30:57.27	18.31	4.58	-40.9	-53.2	3.8	8.47e-01	0	49	104	0	53	14865
2026-01-12 01:30:58.28	18.33	4.65	-40.8	-53.2	3.8	8.47e-01	0	49	104	0	53	14822
2026-01-12 01:30:59.29	18.34	4.72	-40.8	-53.2	3.8	8.46e-01	0	49	104	0	53	14795
2026-01-12 01:31:00.30	18.36	4.79	-40.9	-53.2	3.8	8.46e-01	0	50	104	0	53	14875
2026-01-12 01:31:01.32	18.38	4.86	-40.8	-53.3	3.8	8.46e-01	0	50	104	0	53	14897
2026-01-12 01:31:02.33	18.40	4.93	-40.9	-53.2	3.8	8.47e-01	0	50	104	0	53	14864
2026-01-12 01:31:03.34	18.41	5.00	-40.9	-53.3	3.8	8.45e-01	0	50	104	0	53	14888
2026-01-12 01:31:04.35	18.43	5.07	-40.8	-53.2	3.8	8.46e-01	0	50	104	0	53	14805
2026-01-12 01:31:05.36	18.45	5.15	-40.9	-53.2	3.8	8.47e-01	0	50	104	0	53	14841
2026-01-12 01:31:06.37	18.46	5.22	-40.8	-53.2	3.8	8.46e-01	0	50	104	0	53	14829
2026-01-12 01:31:07.38	18.48	5.29	-40.8	-53.2	3.8	8.46e-01	0	50	104	0	53	14846
2026-01-12 01:31:08.39	18.50	5.36	-40.9	-53.2	3.8	8.45e-01	0	50	104	0	53	14830
2026-01-12 01:31:09.41	18.52	5.44	-40.9	-53.2	3.8	8.45e-01	0	50	104	0	53	14737
2026-01-12 01:31:10.42	18.53	5.51	-40.9	-53.2	3.8	8.46e-01	0	50	104	0	53	14825
2026-01-12 01:31:11.43	18.55	5.58	-40.8	-53.2	3.8	8.46e-01	0	50	104	0	53	14756
2026-01-12 01:31:12.44	18.57	5.65	-40.9	-53.2	3.8	8.46e-01	0	50	104	0	53	14836
2026-01-12 01:31:13.45	18.59	5.73	-40.9	-53.2	3.8	8.46e-01	0	50	104	0	53	14841
2026-01-12 01:31:14.46	18.61	5.80	-40.9	-53.2	3.8	8.47e-01	0	50	104	0	53	14864
2026-01-12 01:31:15.47	18.62	5.87	-40.9	-53.3	3.8	8.46e-01	0	50	104	0	53	14885
2026-01-12 01:31:16.48	18.64	5.95	-40.9	-53.2	3.8	8.47e-01	0	51	104	0	53	14848
2026-01-12 01:31:17.49	18.66	6.02	-40.9	-53.2	3.8	8.46e-01	0	51	104	0	53	14780
2026-01-12 01:31:18.50	18.68	6.10	-40.8	-53.2	3.8	8.47e-01	0	51	104	0	53	14743
2026-01-12 01:31:19.51	18.70	6.17	-40.8	-53.2	3.8	8.46e-01	0	50	104	0	53	14771
2026-01-12 01:31:20.52	18.71	6.25	-40.9	-53.1	3.8	8.45e-01	0	51	104	0	53	14671
2026-01-12 01:31:21.53	18.73	6.32	-40.9	-53.2	3.8	8.47e-01	0	51	104	0	53	14791
2026-01-12 01:31:22.54	18.75	6.40	-40.9	-53.2	3.8	8.46e-01	0	51	104	0	53	14741
2026-01-12 01:31:23.56	18.77	6.47	-40.9	-53.2	3.8	8.47e-01	0	51	104	0	53	14731
2026-01-12 01:31:24.57	18.79	6.55	-40.9	-53.1	3.8	8.45e-01	0	51	104	0	53	14626
2026-01-12 01:31:25.58	18.81	6.62	-40.9	-53.0	3.8	8.47e-01	0	51	104	0	53	14534
2026-01-12 01:31:26.59	18.83	6.70	-40.8	-53.0	3.8	8.46e-01	0	51	104	0	53	14432
2026-01-12 01:31:27.60	18.84	6.78	-40.9	-52.9	3.8	8.47e-01	0	51	104	0	53	14285
2026-01-12 01:31:28.61	18.86	6.85	-40.8	-52.8	3.8	8.47e-01	0	51	104	0	53	14052
2026-01-12 01:31:29.62	18.88	6.93	-40.8	-52.7	3.8	8.46e-01	0	51	104	0	53	13974
2026-01-12 01:31:30.63	18.90	7.01	-40.8	-52.7	3.8	8.47e-01	0	51	104	0	53	13920
2026-01-12 01:31:31.64	18.92	7.08	-40.8	-52.6	3.8	8.46e-01	0	51	104	0	53	13787
2026-01-12 01:31:32.65	18.94	7.16	-40.8	-52.6	3.8	8.46e-01	0	51	104	0	53	13779
2026-01-12 01:31:33.66	18.96	7.24	-40.8	-52.6	3.8	8.47e-01	0	51	104	0	53	13751
2026-01-12 01:31:34.67	18.98	7.32	-40.8	-52.4	3.8	8.46e-01	0	51	104	0	53	13555
2026-01-12 01:31:35.69	19.00	7.40	-40.8	-52.3	3.8	8.46e-01	0	51	104	0	53	13315
2026-01-12 01:31:36.70	19.02	7.47	-40.8	-52.1	3.8	8.46e-01	0	51	104	0	53	13047
2026-01-12 01:31:37.71	19.04	7.55	-40.8	-52.0	3.8	8.46e-01	0	51	104	0	53	12825
2026-01-12 01:31:38.72	19.06	7.63	-40.7	-51.6	3.8	8.45e-01	0	52	104	0	53	12260
2026-01-12 01:31:39.73	19.08	7.71	-40.6	-51.0	3.8	8.45e-01	0	52	104	0	53	11419
2026-01-12 01:31:40.74	19.10	7.79	-40.6	-50.2	3.9	8.43e-01	0	52	104	0	53	10484
2026-01-12 01:31:41.75	19.12	7.87	-40.4	-49.2	4.3	8.37e-01	0	51	0	0	52	9870
2026-01-12 01:31:42.76	19.14	7.95	-40.2	-48.0	4.8	8.06e-01	0	52	0	0	52	8600
2026-01-12 01:31:43.77	19.16	8.03	-40.0	-46.8	5.5	7.39e-01	0	52	0	0	51	7981
2026-01-12 01:31:44.78	19.18	8.11	-41.1	-46.1	7.3	8.46e-02	0	52	0	4194304	52	6947
2026-01-12 01:31:45.79	19.20	8.19	-40.1	-47.8	4.9	5.28e-02	0	52	0	9437184	51	8939
2026-01-12 01:31:46.80	19.22	8.27	-38.9	-42.5	10.5	1.28e-02	0	52	0	9437184	49	5418
2026-01-12 01:31:47.81	19.24	8.35	-40.3	-43.9	9.8	1.58e-03	0	52	0	15728640	51	5664
2026-01-12 01:31:48.82	19.26	8.43	-39.6	-45.1	7.1	6.03e-03	0	52	0	20971520	49	7320
2026-01-12 01:31:49.83	19.28	8.52	-37.2	-39.6	13.4	3.45e-02	0	52	0	26214400	46	4651
2026-01-12 01:31:50.85	19.30	8.60	-36.9	-39.2	14.2	3.40e-06	0	52	0	31457280	45	4659
2026-01-12 01:31:51.85	19.32	8.68	-37.2	-39.5	13.9	4.50e-06	0	52	0	37748736	45	4854
2026-01-12 01:31:52.86	19.34	8.76	-37.5	-39.8	13.7	1.48e-05	0	52	0	42991616	45	5015
2026-01-12 01:31:53.88	19.36	8.85	-37.6	-39.9	13.6	9.10e-06	0	52	0	49283072	45	5072
2026-01-12 01:31:54.88	19.38	8.93	-37.5	-39.8	13.7	8.00e-06	0	52	0	54525952	45	5018
2026-01-12 01:31:55.90	19.40	9.01	-37.8	-40.1	13.5	1.48e-05	0	52	0	59768832	46	4895
2026-01-12 01:31:56.91	19.42	9.10	-37.6	-39.7	13.9	5.70e-06	0	52	0	66060288	46	4693
2026-01-12 01:31:57.92	19.45	9.18	-37.4	-39.4	14.4	1.10e-06	0	52	0	71303168	46	4522
2026-01-12 01:31:58.93	19.47	9.26	-37.4	-39.4	14.4	0.00e+00	0	52	0	77594624	46	4540
2026-01-12 01:31:59.94	19.49	9.35	-37.3	-39.2	14.6	0.00e+00	0	52	0	82837504	46	4441
2026-01-12 01:32:00.95	19.51	9.43	-37.3	-39.3	14.5	2.20e-06	0	52	0	88080384	46	4474
2026-01-12 01:32:01.96	19.53	9.52	-37.3	-39.3	14.6	1.10e-06	0	52	0	94371840	46	4470
2026-01-12 01:32:02.97	19.55	9.60	-37.1	-38.9	14.9	0.00e+00	0	52	0	99614720	46	4291
2026-01-12 01:32:03.98	19.58	9.69	-37.1	-39.0	15.0	1.10e-06	0	52	0	105906176	46	4298
2026-01-12 01:32:04.99	19.60	9.77	-37.2	-39.2	14.8	0.00e+00	0	52	0	111149056	46	4393
2026-01-12 01:32:06.00	19.62	9.86	-37.1	-39.0	14.9	0.00e+00	0	52	0	117440512	46	4339
2026-01-12 01:32:07.01	19.64	9.95	-37.1	-39.0	15.0	0.00e+00	0	52	0	122683392	46	4321
2026-01-12 01:32:08.02	19.66	10.03	-37.2	-39.1	14.9	0.00e+00	0	52	0	128974848	46	4370
2026-01-12 01:32:09.03	19.69	10.12	-37.1	-39.0	15.1	0.00e+00	0	52	0	134217728	46	4312
2026-01-12 01:32:10.04	19.71	10.21	-37.3	-39.3	14.8	0.00e+00	0	53	0	139460608	46	4443
2026-01-12 01:32:11.05	19.73	10.30	-37.3	-39.2	14.8	0.00e+00	0	53	0	145752064	46	4426
2026-01-12 01:32:12.06	19.75	10.38	-37.4	-39.3	14.8	1.10e-06	0	53	0	150994944	46	4477
2026-01-12 01:32:13.07	19.78	10.47	-37.4	-39.3	14.9	0.00e+00	0	53	0	157286400	46	4443
2026-01-12 01:32:14.08	19.80	10.56	-37.4	-39.3	14.8	1.10e-06	0	52	0	162529280	46	4468
2026-01-12 01:32:15.09	19.82	10.65	-37.5	-39.4	14.7	0.00e+00	0	53	0	167772160	46	4534
2026-01-12 01:32:16.10	19.85	10.74	-37.4	-39.3	14.9	0.00e+00	0	53	0	174063616	46	4475
2026-01-12 01:32:17.11	19.87	10.83	-37.4	-39.3	14.9	0.00e+00	0	53	0	179306496	46	4488
2026-01-12 01:32:18.12	19.89	10.92	-37.6	-39.5	14.7	0.00e+00	0	53	0	185597952	46	4580
2026-01-12 01:32:19.13	19.92	11.01	-37.5	-39.4	14.9	2.20e-06	0	53	0	190840832	46	4495
2026-01-12 01:32:20.14	19.94	11.10	-37.3	-39.1	15.1	0.00e+00	0	53	0	196083712	46	4374
2026-01-12 01:32:21.15	19.96	11.19	-37.3	-39.1	15.2	0.00e+00	0	53	0	202375168	46	4359
2026-01-12 01:32:22.16	19.99	11.28	-37.3	-39.1	15.2	0.00e+00	0	53	0	207618048	46	4363
2026-01-12 01:32:23.17	20.01	11.37	-37.3	-39.1	15.3	0.00e+00	0	53	0	213909504	46	4367
2026-01-12 01:32:24.19	20.04	11.47	-37.3	-39.1	15.3	0.00e+00	0	53	0	219152384	46	4343
2026-01-12 01:32:25.19	20.06	11.56	-37.3	-39.0	15.4	0.00e+00	0	53	0	225443840	46	4320
2026-01-12 01:32:26.20	20.09	11.65	-37.3	-39.0	15.4	1.10e-06	0	53	0	230686720	46	4335
2026-01-12 01:32:27.21	20.11	11.74	-37.2	-39.0	15.4	0.00e+00	0	53	0	235929600	46	4319
2026-01-12 01:32:28.22	20.13	11.84	-37.3	-39.0	15.4	0.00e+00	0	53	0	242221056	46	4322
2026-01-12 01:32:29.23	20.16	11.93	-37.3	-39.0	15.4	0.00e+00	0	53	0	247463936	46	4316
2026-01-12 01:32:30.24	20.18	12.02	-37.3	-39.0	15.5	0.00e+00	0	53	0	253755392	46	4330
2026-01-12 01:32:31.25	20.21	12.12	-37.2	-38.9	15.5	1.10e-06	0	53	0	258998272	46	4273
2026-01-12 01:32:32.26	20.24	12.21	-37.2	-38.9	15.6	0.00e+00	0	53	0	264241152	46	4287
2026-01-12 01:32:33.27	20.26	12.31	-37.2	-39.0	15.5	0.00e+00	0	53	0	270532608	46	4299
2026-01-12 01:32:34.28	20.29	12.40	-37.2	-38.9	15.6	0.00e+00	0	53	0	275775488	46	4259
2026-01-12 01:32:35.29	20.31	12.50	-37.2	-38.9	15.7	0.00e+00	0	53	0	282066944	46	4265
2026-01-12 01:32:36.30	20.34	12.60	-37.2	-39.0	15.6	0.00e+00	0	53	0	287309824	46	4292
2026-01-12 01:32:37.31	20.36	12.69	-37.3	-39.0	15.6	0.00e+00	0	53	0	292552704	46	4311
2026-01-12 01:32:38.32	20.39	12.79	-37.1	-38.8	15.8	0.00e+00	0	53	0	298844160	46	4195
2026-01-12 01:32:39.33	20.42	12.89	-37.0	-38.7	15.9	0.00e+00	0	53	0	304087040	46	4164
2026-01-12 01:32:40.34	20.44	12.98	-37.1	-38.7	15.9	0.00e+00	0	53	0	310378496	46	4192
2026-01-12 01:32:41.35	20.47	13.08	-37.1	-38.8	15.8	0.00e+00	0	53	0	315621376	46	4226
2026-01-12 01:32:42.36	20.49	13.18	-37.1	-38.8	15.8	0.00e+00	0	53	0	321912832	46	4200
2026-01-12 01:32:43.37	20.52	13.28	-37.0	-38.7	16.0	0.00e+00	0	53	0	327155712	46	4156
2026-01-12 01:32:44.39	20.55	13.38	-37.0	-38.7	15.9	0.00e+00	0	53	0	333447168	46	4165
2026-01-12 01:32:45.39	20.58	13.48	-37.1	-38.8	15.9	0.00e+00	0	53	0	338690048	46	4205
2026-01-12 01:32:46.41	20.60	13.58	-37.2	-38.8	15.8	0.00e+00	0	54	0	343932928	46	4233
2026-01-12 01:32:47.42	20.63	13.68	-36.9	-38.6	16.0	0.00e+00	0	53	0	350224384	45	4348
2026-01-12 01:32:48.43	20.66	13.78	-36.9	-38.5	16.1	0.00e+00	0	53	0	355467264	45	4309
2026-01-12 01:32:49.44	20.69	13.88	-36.9	-38.5	16.1	0.00e+00	0	53	0	361758720	45	4305
2026-01-12 01:32:50.45	20.71	13.99	-36.8	-38.4	16.2	0.00e+00	0	54	0	367001600	45	4290
2026-01-12 01:32:51.46	20.74	14.09	-36.8	-38.4	16.2	0.00e+00	0	54	0	372244480	45	4244
2026-01-12 01:32:52.46	20.77	14.19	-36.7	-38.3	16.4	0.00e+00	0	54	0	378535936	45	4213
2026-01-12 01:32:53.47	20.80	14.29	-36.7	-38.3	16.3	0.00e+00	0	54	0	383778816	45	4217
2026-01-12 01:32:54.49	20.83	14.40	-36.8	-38.4	16.3	0.00e+00	0	54	0	390070272	45	4262
2026-01-12 01:32:55.50	20.86	14.50	-36.7	-38.3	16.4	0.00e+00	0	54	0	395313152	45	4200
2026-01-12 01:32:56.51	20.88	14.61	-36.5	-38.1	16.5	0.00e+00	0	54	0	400556032	45	4126
2026-01-12 01:32:57.52	20.91	14.71	-36.5	-38.0	16.6	0.00e+00	0	54	0	406847488	45	4091
2026-01-12 01:32:58.53	20.94	14.82	-36.5	-38.0	16.6	0.00e+00	0	54	0	412090368	45	4085
2026-01-12 01:32:59.54	20.97	14.92	-36.5	-38.0	16.7	0.00e+00	0	54	0	418381824	44	4338
2026-01-12 01:33:00.55	21.00	15.03	-36.4	-37.9	16.7	0.00e+00	0	54	0	423624704	44	4270
2026-01-12 01:33:01.56	21.03	15.13	-36.4	-37.9	16.8	0.00e+00	0	54	0	429916160	44	4274
2026-01-12 01:33:02.57	21.06	15.24	-36.3	-37.8	16.9	0.00e+00	0	54	0	435159040	44	4233
2026-01-12 01:33:03.58	21.09	15.35	-36.3	-37.7	17.0	0.00e+00	0	54	0	441450496	44	4189
2026-01-12 01:33:04.59	21.12	15.46	-36.2	-37.7	17.0	0.00e+00	0	54	0	446693376	44	4171
2026-01-12 01:33:05.60	21.15	15.57	-36.2	-37.7	17.1	0.00e+00	0	54	0	451936256	44	4155
2026-01-12 01:33:06.61	21.18	15.68	-36.1	-37.6	17.2	0.00e+00	0	54	0	458227712	44	4121
2026-01-12 01:33:07.62	21.21	15.79	-36.1	-37.6	17.2	0.00e+00	0	54	0	463470592	44	4112
2026-01-12 01:33:08.63	21.25	15.90	-36.1	-37.6	17.2	0.00e+00	0	54	0	469762048	44	4103
2026-01-12 01:33:09.64	21.28	16.01	-36.1	-37.5	17.3	0.00e+00	0	54	0	475004928	44	4075
2026-01-12 01:33:10.65	21.31	16.12	-36.0	-37.4	17.4	0.00e+00	0	54	0	480247808	44	4038
2026-01-12 01:33:11.66	21.34	16.23	-35.8	-37.3	17.4	0.00e+00	0	54	0	486539264	43	4198
2026-01-12 01:33:12.67	21.37	16.34	-35.8	-37.2	17.4	0.00e+00	0	54	0	491782144	43	4183
2026-01-12 01:33:13.68	21.40	16.45	-35.8	-37.2	17.4	0.00e+00	0	54	0	498073600	43	4173
2026-01-12 01:33:14.69	21.44	16.57	-35.8	-37.2	17.5	0.00e+00	0	54	0	503316480	43	4157
2026-01-12 01:33:15.70	21.47	16.68	-35.7	-37.1	17.6	0.00e+00	0	54	0	508559360	43	4120
2026-01-12 01:33:16.71	21.50	16.79	-35.7	-37.1	17.6	0.00e+00	0	54	0	514850816	43	4143
2026-01-12 01:33:17.72	21.54	16.91	-35.7	-37.1	17.6	0.00e+00	0	54	0	520093696	43	4104
2026-01-12 01:33:18.73	21.57	17.02	-35.7	-37.1	17.6	0.00e+00	0	54	0	526385152	43	4121
2026-01-12 01:33:19.74	21.60	17.14	-35.6	-37.0	17.7	0.00e+00	0	54	0	531628032	43	4058
2026-01-12 01:33:20.75	21.64	17.26	-35.5	-36.9	17.7	0.00e+00	0	54	0	537919488	43	4034
2026-01-12 01:33:21.77	21.67	17.37	-35.5	-36.9	17.8	0.00e+00	0	54	0	543162368	43	4024
2026-01-12 01:33:22.77	21.70	17.49	-35.5	-36.8	17.8	0.00e+00	0	54	0	549453824	42	4232
2026-01-12 01:33:23.78	21.74	17.61	-35.5	-36.8	17.8	0.00e+00	0	54	0	554696704	42	4237
2026-01-12 01:33:24.79	21.77	17.73	-35.5	-36.8	17.8	0.00e+00	0	54	0	559939584	42	4241
2026-01-12 01:33:25.80	21.81	17.85	-35.4	-36.8	17.9	0.00e+00	0	54	0	566231040	42	4227
2026-01-12 01:33:26.81	21.84	17.97	-35.4	-36.8	17.9	0.00e+00	0	54	0	571473920	42	4229
2026-01-12 01:33:27.82	21.88	18.09	-35.5	-36.8	17.9	0.00e+00	0	54	0	577765376	42	4236
2026-01-12 01:33:28.83	21.91	18.21	-35.4	-36.8	17.9	0.00e+00	0	54	0	583008256	42	4221
2026-01-12 01:33:29.84	21.95	18.33	-35.5	-36.9	17.9	0.00e+00	0	54	0	588251136	42	4243
2026-01-12 01:33:30.85	21.99	18.45	-35.5	-36.9	17.9	0.00e+00	0	54	0	594542592	42	4260
2026-01-12 01:33:31.86	22.02	18.57	-35.5	-36.9	17.8	0.00e+00	0	54	0	599785472	42	4267
2026-01-12 01:33:32.87	22.06	18.70	-35.5	-36.9	17.9	0.00e+00	0	54	0	606076928	42	4263
2026-01-12 01:33:33.88	22.09	18.82	-35.5	-36.9	17.9	0.00e+00	0	54	0	611319808	42	4251
2026-01-12 01:33:34.88	22.13	18.94	-35.5	-36.8	17.9	0.00e+00	0	54	0	616562688	42	4239
2026-01-12 01:33:35.90	22.17	19.07	-35.4	-36.8	18.0	0.00e+00	0	54	0	622854144	42	4219
2026-01-12 01:33:36.90	22.21	19.19	-35.4	-36.8	18.0	0.00e+00	0	54	0	628097024	42	4205
2026-01-12 01:33:37.91	22.24	19.32	-35.4	-36.7	18.1	0.00e+00	0	55	0	634388480	42	4182
2026-01-12 01:33:38.92	22.28	19.45	-35.3	-36.7	18.2	0.00e+00	0	54	0	639631360	42	4146
2026-01-12 01:33:39.93	22.32	19.58	-35.2	-36.6	18.2	0.00e+00	0	54	0	645922816	42	4107
2026-01-12 01:33:40.94	22.36	19.70	-35.3	-36.6	18.2	0.00e+00	0	54	0	651165696	42	4122
2026-01-12 01:33:41.95	22.40	19.83	-35.2	-36.5	18.3	0.00e+00	0	54	0	656408576	42	4089
2026-01-12 01:33:42.96	22.44	19.96	-35.2	-36.5	18.3	0.00e+00	0	54	0	662700032	42	4066
2026-01-12 01:33:43.97	22.48	20.09	-35.1	-36.5	18.4	0.00e+00	0	55	0	667942912	42	4060
2026-01-12 01:33:44.98	22.52	20.22	-35.1	-36.4	18.4	0.00e+00	0	55	0	674234368	42	4039
2026-01-12 01:33:45.99	22.56	20.36	-35.1	-36.4	18.4	0.00e+00	0	55	0	679477248	42	4043
2026-01-12 01:33:47.00	22.60	20.49	-35.1	-36.4	18.4	0.00e+00	0	55	0	684720128	42	4036
2026-01-12 01:33:48.01	22.64	20.62	-35.1	-36.4	18.4	0.00e+00	0	55	0	691011584	42	4038
2026-01-12 01:33:49.02	22.68	20.76	-35.1	-36.4	18.4	0.00e+00	0	55	0	696254464	42	4021
2026-01-12 01:33:50.03	22.72	20.89	-35.1	-36.4	18.5	0.00e+00	0	55	0	702545920	42	4017
2026-01-12 01:33:51.04	22.77	21.03	-35.1	-36.4	18.5	0.00e+00	0	54	0	707788800	42	4032
2026-01-12 01:33:52.05	22.81	21.16	-35.1	-36.4	18.4	0.00e+00	0	55	0	713031680	42	4037
2026-01-12 01:33:53.06	22.85	21.30	-35.1	-36.4	18.4	0.00e+00	0	55	0	719323136	42	4037
2026-01-12 01:33:54.07	22.89	21.43	-35.1	-36.4	18.5	0.00e+00	0	55	0	724566016	42	4018
2026-01-12 01:33:55.08	22.94	21.57	-35.0	-36.3	18.5	0.00e+00	0	55	0	730857472	42	3996
2026-01-12 01:33:56.09	22.98	21.71	-35.0	-36.3	18.6	0.00e+00	0	55	0	736100352	42	3977
2026-01-12 01:33:57.10	23.02	21.85	-34.9	-36.2	18.6	0.00e+00	0	55	0	742391808	41	4180
2026-01-12 01:33:58.11	23.07	21.99	-34.8	-36.1	18.7	0.00e+00	0	55	0	747634688	41	4135
2026-01-12 01:33:59.12	23.11	22.13	-34.8	-36.0	18.8	0.00e+00	0	55	0	753926144	41	4091
2026-01-12 01:34:00.13	23.16	22.28	-34.7	-36.0	18.9	0.00e+00	0	55	0	759169024	41	4066
2026-01-12 01:34:01.14	23.20	22.42	-34.6	-35.9	19.0	0.00e+00	0	55	0	764411904	41	4017
2026-01-12 01:34:02.15	23.25	22.56	-34.5	-35.8	19.1	0.00e+00	0	55	0	770703360	41	3971
2026-01-12 01:34:03.16	23.30	22.71	-34.5	-35.7	19.1	0.00e+00	0	55	0	775946240	41	3952
2026-01-12 01:34:04.17	23.34	22.85	-34.5	-35.7	19.2	0.00e+00	0	55	0	782237696	40	4167
2026-01-12 01:34:05.18	23.39	23.00	-34.5	-35.7	19.2	0.00e+00	0	55	0	787480576	40	4169
2026-01-12 01:34:06.19	23.44	23.14	-34.4	-35.6	19.2	0.00e+00	0	55	0	792723456	40	4132
2026-01-12 01:34:07.20	23.48	23.29	-34.4	-35.6	19.3	0.00e+00	0	55	0	799014912	40	4110
2026-01-12 01:34:08.21	23.53	23.44	-34.3	-35.5	19.4	0.00e+00	0	55	0	804257792	40	4074
2026-01-12 01:34:09.22	23.58	23.59	-34.2	-35.4	19.4	0.00e+00	0	55	0	810549248	40	4047
2026-01-12 01:34:10.23	23.63	23.74	-34.2	-35.4	19.5	0.00e+00	0	55	0	815792128	40	4026
2026-01-12 01:34:11.24	23.68	23.89	-34.2	-35.4	19.5	0.00e+00	0	55	0	821035008	40	4012
2026-01-12 01:34:12.25	23.73	24.04	-34.1	-35.3	19.6	0.00e+00	0	55	0	827326464	40	4001
2026-01-12 01:34:13.26	23.78	24.19	-34.2	-35.4	19.5	0.00e+00	0	55	0	832569344	40	4019
2026-01-12 01:34:14.27	23.83	24.35	-34.2	-35.4	19.5	0.00e+00	0	55	0	838860800	40	4035
2026-01-12 01:34:15.28	23.88	24.50	-34.2	-35.4	19.5	0.00e+00	0	55	0	844103680	40	4051
2026-01-12 01:34:16.29	23.93	24.66	-34.3	-35.5	19.4	0.00e+00	0	55	0	850395136	40	4055
2026-01-12 01:34:17.30	23.99	24.81	-34.3	-35.5	19.4	0.00e+00	0	55	0	855638016	40	4074
2026-01-12 01:34:18.31	24.04	24.97	-34.3	-35.5	19.4	0.00e+00	0	55	0	860880896	40	4081
2026-01-12 01:34:19.32	24.09	25.13	-34.3	-35.5	19.5	0.00e+00	0	55	0	867172352	40	4067
2026-01-12 01:34:20.33	24.15	25.29	-34.3	-35.4	19.5	0.00e+00	0	55	0	872415232	40	4049
2026-01-12 01:34:21.34	24.20	25.45	-34.2	-35.4	19.5	0.00e+00	0	55	0	878706688	40	4030
2026-01-12 01:34:22.35	24.26	25.61	-34.2	-35.4	19.5	0.00e+00	0	55	0	883949568	40	4030
2026-01-12 01:34:23.36	24.31	25.77	-34.2	-35.4	19.5	0.00e+00	0	55	0	890241024	40	4033
2026-01-12 01:34:24.38	24.37	25.94	-34.2	-35.4	19.5	0.00e+00	0	55	0	895483904	40	4048
2026-01-12 01:34:25.39	24.42	26.10	-34.2	-35.4	19.6	0.00e+00	0	55	0	900726784	40	4022
2026-01-12 01:34:26.39	24.48	26.26	-34.2	-35.4	19.6	0.00e+00	0	55	0	907018240	40	4036
2026-01-12 01:34:27.41	24.54	26.43	-34.2	-35.4	19.6	0.00e+00	0	55	0	912261120	40	4014
2026-01-12 01:34:28.42	24.60	26.60	-34.2	-35.4	19.6	0.00e+00	0	55	0	918552576	40	4008
2026-01-12 01:34:29.43	24.65	26.76	-34.1	-35.3	19.7	0.00e+00	0	55	0	923795456	40	3972
2026-01-12 01:34:30.44	24.71	26.93	-34.1	-35.2	19.8	0.00e+00	0	55	0	929038336	40	3945
2026-01-12 01:34:31.45	24.77	27.10	-34.0	-35.2	19.8	0.00e+00	0	55	0	935329792	40	3925
2026-01-12 01:34:32.46	24.83	27.27	-34.0	-35.2	19.9	0.00e+00	0	55	0	940572672	39	4163
2026-01-12 01:34:33.47	24.89	27.45	-34.0	-35.2	19.9	0.00e+00	0	55	0	946864128	39	4150
2026-01-12 01:34:34.48	24.96	27.62	-34.0	-35.1	19.9	0.00e+00	0	55	0	952107008	39	4126
2026-01-12 01:34:35.49	25.02	27.79	-33.9	-35.1	20.0	0.00e+00	0	55	0	958398464	39	4112
2026-01-12 01:34:36.50	25.08	27.97	-34.0	-35.1	19.9	0.00e+00	0	55	0	963641344	39	4145
2026-01-12 01:34:37.51	25.14	28.15	-34.0	-35.1	19.9	0.00e+00	0	55	0	968884224	39	4131
2026-01-12 01:34:38.52	25.21	28.32	-34.0	-35.1	19.9	0.00e+00	0	55	0	975175680	39	4144
2026-01-12 01:34:39.53	25.27	28.50	-33.9	-35.1	20.0	0.00e+00	0	55	0	980418560	39	4106
2026-01-12 01:34:40.54	25.34	28.68	-33.9	-35.1	20.0	0.00e+00	0	55	0	986710016	39	4107
2026-01-12 01:34:41.55	25.41	28.86	-33.9	-35.1	20.0	0.00e+00	0	55	0	991952896	39	4109
2026-01-12 01:34:42.55	25.47	29.04	-33.9	-35.1	20.0	0.00e+00	0	55	0	997195776	39	4119
2026-01-12 01:34:43.56	25.54	29.22	-33.9	-35.1	20.0	0.00e+00	0	55	0	1003487232	39	4124
2026-01-12 01:34:44.57	25.61	29.41	-34.0	-35.2	19.9	0.00e+00	0	55	0	1008730112	39	4168
2026-01-12 01:34:45.58	25.68	29.59	-34.0	-35.2	19.9	0.00e+00	0	55	0	1015021568	39	4157
2026-01-12 01:34:46.59	25.75	29.78	-33.9	-35.1	20.0	0.00e+00	0	55	0	1020264448	39	4122
2026-01-12 01:34:47.60	25.82	29.97	-33.9	-35.0	20.0	0.00e+00	0	55	0	1025507328	39	4078
2026-01-12 01:34:48.61	25.89	30.16	-33.8	-34.9	20.1	0.00e+00	0	55	0	1031798784	39	4046
2026-01-12 01:34:49.62	25.96	30.35	-33.8	-34.9	20.1	0.00e+00	0	55	0	1037041664	39	4042
2026-01-12 01:34:50.63	26.03	30.54	-33.8	-35.0	20.1	0.00e+00	0	55	0	1043333120	39	4067
2026-01-12 01:34:51.64	26.11	30.73	-33.9	-35.1	20.0	0.00e+00	0	55	0	1048576000	39	4109
2026-01-12 01:34:52.66	26.18	30.93	-34.0	-35.1	19.9	0.00e+00	0	55	0	1054867456	39	4144
2026-01-12 01:34:53.67	26.26	31.12	-34.1	-35.3	19.8	0.00e+00	0	55	0	1060110336	39	4209
2026-01-12 01:34:54.68	26.33	31.32	-34.1	-35.2	19.9	0.00e+00	0	55	0	1066401792	39	4187
2026-01-12 01:34:55.69	26.41	31.52	-34.1	-35.3	19.8	0.00e+00	0	55	0	1071644672	39	4203
2026-01-12 01:34:56.70	26.49	31.72	-34.0	-35.2	19.9	0.00e+00	0	55	0	1076887552	39	4164
2026-01-12 01:34:57.71	26.57	31.92	-34.0	-35.1	20.0	0.00e+00	0	55	0	1083179008	39	4137
2026-01-12 01:34:58.72	26.65	32.12	-33.9	-35.1	20.0	0.00e+00	0	55	0	1088421888	39	4121
2026-01-12 01:34:59.73	26.73	32.32	-34.0	-35.1	20.0	0.00e+00	0	55	0	1094713344	39	4133
2026-01-12 01:35:00.74	26.81	32.53	-34.0	-35.2	19.9	0.00e+00	0	55	0	1099956224	39	4164
2026-01-12 01:35:01.75	26.90	32.73	-34.1	-35.2	19.9	0.00e+00	0	55	0	1105199104	39	4193
2026-01-12 01:35:02.76	26.98	32.94	-34.0	-35.2	19.9	0.00e+00	0	55	0	1111490560	39	4181
2026-01-12 01:35:03.77	27.06	33.15	-33.9	-35.1	20.0	0.00e+00	0	55	0	1116733440	39	4122
2026-01-12 01:35:04.78	27.15	33.36	-33.8	-34.9	20.2	0.00e+00	0	55	0	1123024896	39	4050
2026-01-12 01:35:05.79	27.24	33.57	-33.7	-34.9	20.3	0.00e+00	0	55	0	1128267776	39	4006
2026-01-12 01:35:06.80	27.33	33.78	-33.6	-34.8	20.3	0.00e+00	0	55	0	1133510656	39	3966
2026-01-12 01:35:07.81	27.41	33.99	-33.6	-34.7	20.4	0.00e+00	0	55	0	1139802112	39	3927
2026-01-12 01:35:08.82	27.51	34.21	-33.5	-34.6	20.5	0.00e+00	0	55	0	1145044992	39	3890
2026-01-12 01:35:09.83	27.60	34.43	-33.5	-34.7	20.5	0.00e+00	0	55	0	1151336448	39	3915
2026-01-12 01:35:10.85	27.69	34.65	-33.6	-34.7	20.4	0.00e+00	0	55	0	1156579328	39	3950
2026-01-12 01:35:11.85	27.78	34.86	-33.8	-34.9	20.2	0.00e+00	0	55	0	1162870784	39	4034
2026-01-12 01:35:12.86	27.88	35.09	-33.9	-35.0	20.1	0.00e+00	0	55	0	1168113664	39	4088
2026-01-12 01:35:13.87	27.98	35.31	-33.8	-34.9	20.2	0.00e+00	0	55	0	1174405120	39	4039
2026-01-12 01:35:14.88	28.07	35.53	-33.7	-34.8	20.3	0.00e+00	0	56	0	1179648000	39	3994
2026-01-12 01:35:15.89	28.17	35.76	-33.5	-34.7	20.5	0.00e+00	0	55	0	1184890880	39	3920
2026-01-12 01:35:16.91	28.27	35.99	-33.5	-34.6	20.5	0.00e+00	0	55	0	1191182336	39	3895
2026-01-12 01:35:17.92	28.38	36.22	-33.6	-34.7	20.4	0.00e+00	0	55	0	1196425216	39	3936
2026-01-12 01:35:18.93	28.48	36.45	-33.7	-34.8	20.3	0.00e+00	0	55	0	1202716672	39	4003
2026-01-12 01:35:19.94	28.58	36.68	-33.9	-35.0	20.2	0.00e+00	0	56	0	1207959552	39	4080
2026-01-12 01:35:20.95	28.69	36.91	-33.9	-35.0	20.1	0.00e+00	0	55	0	1213202432	39	4098
2026-01-12 01:35:21.96	28.80	37.15	-33.8	-34.9	20.2	0.00e+00	0	56	0	1219493888	39	4039
2026-01-12 01:35:22.97	28.91	37.38	-33.6	-34.8	20.4	0.00e+00	0	56	0	1224736768	39	3970
2026-01-12 01:35:23.97	29.01	37.62	-33.6	-34.7	20.5	0.00e+00	0	55	0	1231028224	39	3928
2026-01-12 01:35:24.98	29.13	37.86	-33.5	-34.6	20.5	0.00e+00	0	55	0	1236271104	39	3909
2026-01-12 01:35:25.99	29.24	38.10	-33.5	-34.7	20.5	0.00e+00	0	56	0	1241513984	39	3916
2026-01-12 01:35:27.00	29.36	38.35	-33.5	-34.7	20.5	0.00e+00	0	55	0	1247805440	39	3915
2026-01-12 01:35:28.01	29.47	38.59	-33.5	-34.6	20.5	0.00e+00	0	55	0	1253048320	39	3888
2026-01-12 01:35:29.02	29.59	38.84	-33.4	-34.5	20.6	0.00e+00	0	55	0	1259339776	38	4094
2026-01-12 01:35:30.03	29.71	39.08	-33.4	-34.5	20.6	0.00e+00	0	56	0	1264582656	38	4082
2026-01-12 01:35:31.05	29.84	39.34	-33.5	-34.6	20.6	0.00e+00	0	55	0	1270874112	38	4113
2026-01-12 01:35:32.06	29.96	39.59	-33.6	-34.7	20.5	0.00e+00	0	55	0	1276116992	38	4177
2026-01-12 01:35:33.07	30.09	39.84	-33.7	-34.8	20.4	0.00e+00	0	55	0	1282408448	38	4227
2026-01-12 01:35:34.08	30.21	40.10	-33.7	-34.8	20.4	0.00e+00	0	55	0	1287651328	38	4237
2026-01-12 01:35:35.08	30.34	40.35	-33.7	-34.9	20.3	0.00e+00	0	56	0	1292894208	38	4243
2026-01-12 01:35:36.10	30.48	40.61	-33.7	-34.9	20.3	0.00e+00	0	55	0	1299185664	38	4252
2026-01-12 01:35:37.11	30.61	40.87	-33.6	-34.8	20.0	0.00e+00	0	56	0	1304428544	38	4234
2026-01-12 01:35:38.12	30.75	41.13	-33.5	-34.8	20.0	0.00e+00	0	56	0	1310720000	38	4204
2026-01-12 01:35:39.12	30.88	41.39	-33.5	-34.8	20.0	0.00e+00	0	56	0	1315962880	38	4207
2026-01-12 01:35:40.13	31.02	41.66	-33.7	-35.0	19.8	0.00e+00	0	56	0	1321205760	38	4311
2026-01-12 01:35:41.14	31.17	41.93	-33.9	-35.2	19.6	0.00e+00	0	56	0	1327497216	38	4434
2026-01-12 01:35:42.15	31.31	42.19	-34.1	-35.4	19.4	0.00e+00	0	56	0	1332740096	38	4511
2026-01-12 01:35:43.16	31.46	42.47	-34.0	-35.3	19.4	0.00e+00	0	56	0	1337982976	38	4493
2026-01-12 01:35:44.17	31.61	42.74	-33.9	-35.2	19.6	0.00e+00	0	56	0	1344274432	38	4392
2026-01-12 01:35:45.18	31.76	43.01	-33.8	-35.1	19.7	0.00e+00	0	55	0	1349517312	38	4347
2026-01-12 01:35:46.19	31.92	43.29	-33.8	-35.1	19.7	0.00e+00	0	55	0	1355808768	38	4372
2026-01-12 01:35:47.20	32.07	43.57	-34.0	-35.3	19.4	0.00e+00	0	56	0	1361051648	38	4481
2026-01-12 01:35:48.21	32.23	43.85	-34.1	-35.5	19.3	0.00e+00	0	56	0	1367343104	38	4551
2026-01-12 01:35:49.22	32.40	44.13	-34.1	-35.5	19.4	0.00e+00	0	56	0	1372585984	38	4547
2026-01-12 01:35:50.23	32.56	44.41	-34.0	-35.3	19.4	0.00e+00	0	56	0	1378877440	38	4492
2026-01-12 01:35:51.24	32.73	44.69	-34.0	-35.4	19.4	0.00e+00	0	56	0	1384120320	38	4497
2026-01-12 01:35:52.25	32.90	44.98	-34.2	-35.6	19.3	0.00e+00	0	56	0	1389363200	38	4601
2026-01-12 01:35:53.26	33.08	45.27	-34.4	-35.8	19.0	0.00e+00	0	55	0	1395654656	39	4466
2026-01-12 01:35:54.27	33.26	45.56	-34.4	-35.8	19.0	0.00e+00	0	56	0	1400897536	39	4480
2026-01-12 01:35:55.28	33.44	45.85	-34.2	-35.5	19.3	0.00e+00	0	56	0	1407188992	39	4317
2026-01-12 01:35:56.29	33.62	46.15	-34.0	-35.3	19.5	0.00e+00	0	56	0	1412431872	39	4220
2026-01-12 01:35:57.30	33.81	46.44	-33.9	-35.1	19.8	0.00e+00	0	56	0	1417674752	39	4131
2026-01-12 01:35:58.31	34.00	46.74	-33.8	-35.1	19.8	0.00e+00	0	56	0	1423966208	39	4110
2026-01-12 01:35:59.32	34.20	47.04	-33.9	-35.1	19.8	0.00e+00	0	56	0	1429209088	39	4122
2026-01-12 01:36:00.33	34.40	47.34	-33.8	-35.1	19.8	0.00e+00	0	56	0	1435500544	39	4105
2026-01-12 01:36:01.34	34.60	47.64	-33.9	-35.1	19.8	0.00e+00	0	56	0	1440743424	39	4120
2026-01-12 01:36:02.35	34.81	47.95	-33.9	-35.1	19.8	0.00e+00	0	56	0	1445986304	39	4145
2026-01-12 01:36:03.36	35.02	48.26	-34.0	-35.3	19.7	0.00e+00	0	56	0	1452277760	39	4198
2026-01-12 01:36:04.37	35.23	48.56	-33.9	-35.2	19.7	0.00e+00	0	56	0	1457520640	39	4168
2026-01-12 01:36:05.38	35.45	48.87	-33.9	-35.2	19.7	0.00e+00	0	56	0	1463812096	39	4167
2026-01-12 01:36:06.39	35.67	49.19	-34.0	-35.2	19.7	0.00e+00	0	56	0	1469054976	39	4189
2026-01-12 01:36:07.40	35.90	49.50	-34.1	-35.4	19.5	0.00e+00	0	56	0	1475346432	39	4254
2026-01-12 01:36:08.41	36.13	49.82	-34.2	-35.5	19.4	0.00e+00	0	56	0	1480589312	39	4299
2026-01-12 01:36:09.42	36.37	50.13	-34.2	-35.5	19.5	0.00e+00	0	56	0	1486880768	39	4294
2026-01-12 01:36:10.43	36.61	50.45	-34.5	-35.8	19.2	0.00e+00	0	56	0	1492123648	39	4466
2026-01-12 01:36:11.44	36.86	50.77	-34.7	-36.0	18.9	0.00e+00	0	56	0	1497366528	40	4334
2026-01-12 01:36:12.45	37.11	51.09	-34.7	-36.0	18.9	0.00e+00	0	56	0	1503657984	40	4322
2026-01-12 01:36:13.46	37.37	51.42	-34.5	-35.8	19.1	0.00e+00	0	56	0	1508900864	40	4222
2026-01-12 01:36:14.47	37.64	51.74	-34.3	-35.6	19.3	0.00e+00	0	56	0	1515192320	40	4124
2026-01-12 01:36:15.48	37.91	52.07	-34.4	-35.8	19.2	0.00e+00	0	56	0	1520435200	40	4195
2026-01-12 01:36:16.49	38.18	52.40	-34.8	-36.2	18.8	0.00e+00	0	56	0	1525678080	40	4404
2026-01-12 01:36:17.50	38.46	52.73	-34.9	-36.3	18.7	0.00e+00	0	56	0	1531969536	40	4458
2026-01-12 01:36:18.51	38.75	53.06	-34.8	-36.1	18.9	0.00e+00	0	56	0	1537212416	40	4368
2026-01-12 01:36:19.51	39.04	53.39	-34.8	-36.1	18.9	0.00e+00	0	56	0	1543503872	40	4361
2026-01-12 01:36:20.52	39.35	53.73	-34.9	-36.3	18.7	0.00e+00	0	56	0	1548746752	40	4446
2026-01-12 01:36:21.53	39.65	54.06	-34.9	-36.3	18.7	0.00e+00	0	56	0	1553989632	40	4457
2026-01-12 01:36:22.54	39.97	54.40	-34.8	-36.1	18.8	0.00e+00	0	56	0	1560281088	40	4363
2026-01-12 01:36:23.55	40.29	54.74	-34.9	-36.3	18.7	0.00e+00	0	56	0	1565523968	40	4469
2026-01-12 01:36:24.56	40.62	55.08	-35.2	-36.7	18.3	0.00e+00	0	56	0	1571815424	41	4392
2026-01-12 01:36:25.57	40.96	55.42	-35.1	-36.5	18.4	0.00e+00	0	56	0	1577058304	41	4325
2026-01-12 01:36:26.58	41.31	55.76	-34.8	-36.1	18.7	0.00e+00	0	56	0	1583349760	41	4142
2026-01-12 01:36:27.59	41.66	56.11	-34.6	-35.9	18.9	0.00e+00	0	56	0	1588592640	41	4050
2026-01-12 01:36:28.60	42.03	56.45	-34.6	-36.0	18.9	0.00e+00	0	56	0	1593835520	41	4068
2026-01-12 01:36:29.61	42.40	56.80	-34.8	-36.2	18.8	0.00e+00	0	56	0	1600126976	41	4148
2026-01-12 01:36:30.62	42.78	57.15	-34.7	-36.0	18.9	0.00e+00	0	56	0	1605369856	41	4078
2026-01-12 01:36:31.63	43.18	57.49	-34.3	-35.6	19.3	0.00e+00	0	56	0	1611661312	40	4117
2026-01-12 01:36:32.64	43.58	57.84	-34.1	-35.4	19.5	0.00e+00	0	56	0	1616904192	40	4020
2026-01-12 01:36:33.65	43.99	58.19	-34.0	-35.3	19.6	0.00e+00	0	56	0	1622147072	40	3983
2026-01-12 01:36:34.66	44.42	58.54	-34.2	-35.5	19.3	0.00e+00	0	56	0	1628438528	40	4094
2026-01-12 01:36:35.67	44.85	58.89	-34.5	-35.9	19.0	0.00e+00	0	56	0	1633681408	40	4269
2026-01-12 01:36:36.68	45.30	59.25	-34.2	-35.5	19.4	0.00e+00	0	56	0	1639972864	40	4071
2026-01-12 01:36:37.69	45.76	59.60	-34.0	-35.3	19.6	0.00e+00	0	56	0	1645215744	40	3970
2026-01-12 01:36:38.70	46.23	59.95	-34.1	-35.3	19.6	0.00e+00	0	56	0	1650458624	39	4222
2026-01-12 01:36:39.71	46.71	60.30	-33.8	-35.1	19.9	0.00e+00	0	56	0	1656750080	39	4101
2026-01-12 01:36:40.72	47.21	60.66	-33.7	-34.9	20.0	0.00e+00	0	56	0	1661992960	39	4049
2026-01-12 01:36:41.73	47.72	61.01	-33.8	-35.1	19.9	0.00e+00	0	56	0	1668284416	39	4103
2026-01-12 01:36:42.74	48.25	61.36	-33.8	-35.0	19.9	0.00e+00	0	56	0	1673527296	39	4088
2026-01-12 01:36:43.75	48.79	61.71	-33.9	-35.1	19.8	0.00e+00	0	56	0	1679818752	39	4126
2026-01-12 01:36:44.76	49.35	62.06	-33.9	-35.2	19.7	0.00e+00	0	56	0	1685061632	39	4177
2026-01-12 01:36:45.76	49.92	62.41	-33.7	-35.0	19.8	0.00e+00	0	56	0	1691353088	39	4087
2026-01-12 01:36:46.78	50.51	62.77	-33.4	-34.6	20.2	0.00e+00	0	56	0	1696595968	38	4140
2026-01-12 01:36:47.79	51.12	63.12	-33.5	-34.7	20.1	0.00e+00	0	56	0	1701838848	38	4165
2026-01-12 01:36:48.80	51.74	63.47	-33.8	-35.1	19.8	0.00e+00	0	56	0	1708130304	38	4369
2026-01-12 01:36:49.81	52.39	63.81	-33.8	-35.1	19.8	0.00e+00	0	56	0	1713373184	38	4362
2026-01-12 01:36:50.82	53.05	64.16	-33.4	-34.6	20.2	0.00e+00	0	56	0	1719664640	38	4133
2026-01-12 01:36:51.83	53.73	64.50	-33.4	-34.6	20.2	0.00e+00	0	56	0	1724907520	38	4143
2026-01-12 01:36:52.84	54.44	64.85	-33.4	-34.6	20.3	0.00e+00	0	56	0	1730150400	38	4124
2026-01-12 01:36:53.85	55.16	65.19	-33.3	-34.6	20.2	0.00e+00	0	56	0	1736441856	38	4103
2026-01-12 01:36:54.86	55.91	65.53	-33.4	-34.7	20.1	0.00e+00	0	56	0	1741684736	38	4171
2026-01-12 01:36:55.87	56.68	65.87	-33.3	-34.5	20.3	0.00e+00	0	56	0	1747976192	38	4077
2026-01-12 01:36:56.88	57.48	66.20	-33.5	-34.7	20.0	0.00e+00	0	56	0	1753219072	38	4191
2026-01-12 01:36:57.89	58.30	66.53	-33.7	-35.0	19.8	0.00e+00	0	56	0	1758461952	38	4325
2026-01-12 01:36:58.90	59.14	66.86	-33.3	-34.5	20.3	0.00e+00	0	56	0	1764753408	38	4057
2026-01-12 01:36:59.91	60.02	67.18	-33.4	-34.6	20.1	0.00e+00	0	56	0	1769996288	38	4141
2026-01-12 01:37:00.92	60.92	67.50	-33.8	-35.1	19.7	0.00e+00	0	56	0	1776287744	38	4367
2026-01-12 01:37:01.93	61.84	67.82	-33.2	-34.5	20.3	0.00e+00	0	56	0	1781530624	38	4056
2026-01-12 01:37:02.94	62.80	68.13	-32.9	-34.1	20.6	0.00e+00	0	56	0	1787822080	37	4136
2026-01-12 01:37:03.95	63.79	68.44	-33.3	-34.5	20.2	0.00e+00	0	56	0	1793064960	37	4338
2026-01-12 01:37:04.96	64.80	68.75	-33.5	-34.8	19.9	0.00e+00	0	56	0	1798307840	37	4450
2026-01-12 01:37:05.97	65.85	69.04	-33.1	-34.3	20.4	0.00e+00	0	56	0	1804599296	37	4216
2026-01-12 01:37:06.98	66.93	69.34	-33.0	-34.2	20.4	0.00e+00	0	56	0	1809842176	37	4184
2026-01-12 01:37:07.99	68.05	69.62	-33.0	-34.2	20.5	0.00e+00	0	56	0	1816133632	37	4177
2026-01-12 01:37:09.00	69.19	69.90	-32.8	-34.0	20.6	0.00e+00	0	56	0	1821376512	37	4078
2026-01-12 01:37:10.01	70.38	70.18	-32.9	-34.2	20.5	0.00e+00	0	56	0	1826619392	37	4160
2026-01-12 01:37:11.02	71.59	70.44	-32.9	-34.2	20.5	0.00e+00	0	56	0	1832910848	37	4160
2026-01-12 01:37:12.03	72.84	70.70	-32.7	-33.9	20.7	0.00e+00	0	56	0	1838153728	37	4048
2026-01-12 01:37:13.04	74.13	70.95	-32.6	-33.8	20.8	0.00e+00	0	56	0	1844445184	37	3977
2026-01-12 01:37:14.05	75.45	71.19	-32.5	-33.7	20.9	0.00e+00	0	56	0	1849688064	37	3935
2026-01-12 01:37:15.06	76.81	71.42	-32.4	-33.6	21.0	0.00e+00	0	56	0	1854930944	36	4112
2026-01-12 01:37:16.07	78.20	71.64	-32.7	-33.9	20.7	0.00e+00	0	56	0	1861222400	36	4265
2026-01-12 01:37:17.08	79.63	71.85	-32.9	-34.1	20.5	0.00e+00	0	56	0	1866465280	36	4383
2026-01-12 01:37:18.09	81.10	72.06	-32.5	-33.7	20.9	0.00e+00	0	56	0	1872756736	36	4171
2026-01-12 01:37:19.10	82.59	72.25	-32.7	-33.9	20.6	0.00e+00	0	56	0	1877999616	36	4282
2026-01-12 01:37:20.11	84.13	72.43	-32.8	-34.1	20.4	0.00e+00	0	56	0	1884291072	36	4367
2026-01-12 01:37:21.12	85.69	72.59	-32.4	-33.6	20.9	0.00e+00	0	56	0	1889533952	36	4127
2026-01-12 01:37:22.13	87.28	72.75	-32.5	-33.7	20.8	0.00e+00	0	56	0	1895825408	36	4172
2026-01-12 01:37:23.14	88.91	72.89	-32.7	-33.9	20.6	0.00e+00	0	56	0	1901068288	36	4279
2026-01-12 01:37:24.15	90.56	73.02	-32.4	-33.6	20.9	0.00e+00	0	56	0	1906311168	36	4129
2026-01-12 01:37:25.16	92.23	73.14	-32.2	-33.4	21.1	0.00e+00	0	56	0	1912602624	36	4023
2026-01-12 01:37:26.18	93.95	73.24	-32.1	-33.3	21.1	0.00e+00	0	56	0	1917845504	36	3986
2026-01-12 01:37:27.18	95.65	73.33	-32.1	-33.3	21.1	0.00e+00	0	56	0	1924136960	36	3990
2026-01-12 01:37:28.19	97.39	73.40	-32.4	-33.5	21.0	0.00e+00	0	56	0	1929379840	36	4092
2026-01-12 01:37:29.20	99.14	73.46	-32.6	-33.8	20.7	0.00e+00	0	56	0	1934622720	36	4218
2026-01-12 01:37:30.22	100.92	73.51	-32.5	-33.8	20.7	0.00e+00	0	56	0	1940914176	36	4200
2026-01-12 01:37:31.23	102.69	73.54	-32.5	-33.7	20.8	0.00e+00	0	56	0	1946157056	36	4159
2026-01-12 01:37:32.24	104.47	73.55	-32.6	-33.8	20.7	0.00e+00	0	56	0	1952448512	36	4208
2026-01-12 01:37:33.25	106.25	73.55	-32.4	-33.6	20.9	0.00e+00	0	56	0	1957691392	36	4140
2026-01-12 01:37:34.26	108.03	73.54	-32.3	-33.5	20.9	0.00e+00	0	56	0	1962934272	36	4094
2026-01-12 01:37:35.27	109.80	73.51	-32.1	-33.3	21.1	0.00e+00	0	56	0	1969225728	36	3986
2026-01-12 01:37:36.28	111.56	73.46	-32.1	-33.3	21.2	0.00e+00	0	56	0	1974468608	36	3965
2026-01-12 01:37:37.29	113.32	73.40	-32.3	-33.5	21.0	0.00e+00	0	56	0	1980760064	36	4082
2026-01-12 01:37:38.30	115.05	73.33	-32.4	-33.6	20.9	0.00e+00	0	56	0	1986002944	36	4119
2026-01-12 01:37:39.31	116.77	73.24	-32.5	-33.7	20.8	0.00e+00	0	56	0	1992294400	36	4160
2026-01-12 01:37:40.32	118.47	73.13	-32.8	-34.1	20.4	0.00e+00	0	56	0	1997537280	36	4357
2026-01-12 01:37:41.32	120.13	73.02	-33.0	-34.3	20.3	0.00e+00	0	56	0	2003828736	36	4446
2026-01-12 01:37:42.33	121.78	72.89	-32.8	-34.0	20.5	0.00e+00	0	56	0	2009071616	36	4331
2026-01-12 01:37:43.34	123.41	72.75	-32.8	-34.0	20.6	0.00e+00	0	56	0	2014314496	36	4314
2026-01-12 01:37:44.35	125.00	72.59	-32.5	-33.6	20.9	0.00e+00	0	56	0	2020605952	36	4142
2026-01-12 01:37:45.37	126.58	72.42	-32.1	-33.3	21.2	0.00e+00	0	56	0	2025848832	36	3975
2026-01-12 01:37:46.37	128.09	72.24	-32.2	-33.3	21.2	0.00e+00	0	56	0	2032140288	36	3985
2026-01-12 01:37:47.39	129.61	72.05	-32.4	-33.6	20.9	0.00e+00	0	56	0	2037383168	36	4140
2026-01-12 01:37:48.39	131.06	71.85	-32.5	-33.7	20.8	0.00e+00	0	56	0	2042626048	36	4165
2026-01-12 01:37:49.41	132.50	71.63	-32.5	-33.7	20.8	0.00e+00	0	56	0	2048917504	36	4175
2026-01-12 01:37:50.41	133.88	71.41	-32.8	-34.1	20.5	0.00e+00	0	56	0	2054160384	36	4349
2026-01-12 01:37:51.43	135.25	71.18	-32.8	-34.1	20.5	0.00e+00	0	56	0	2060451840	36	4357
2026-01-12 01:37:52.44	136.57	70.93	-32.6	-33.7	20.8	0.00e+00	0	56	0	2065694720	36	4193
2026-01-12 01:37:53.45	137.86	70.68	-32.8	-34.0	20.5	0.00e+00	0	56	0	2070937600	36	4306
2026-01-12 01:37:54.46	139.11	70.43	-32.9	-34.1	20.5	0.00e+00	0	56	0	2077229056	36	4362
2026-01-12 01:37:55.47	140.33	70.16	-32.5	-33.7	20.9	0.00e+00	0	56	0	2082471936	36	4165
2026-01-12 01:37:56.48	141.51	69.89	-32.7	-33.9	20.7	0.00e+00	0	56	0	2088763392	36	4260
2026-01-12 01:37:57.49	142.65	69.61	-32.8	-34.0	20.6	0.00e+00	0	56	0	2094006272	36	4298
2026-01-12 01:37:58.49	143.76	69.32	-32.6	-33.8	20.7	0.00e+00	0	56	0	2100297728	36	4227
2026-01-12 01:37:59.50	144.84	69.03	-32.7	-33.9	20.6	0.00e+00	0	56	0	2105540608	36	4284
2026-01-12 01:38:00.51	145.89	68.73	-32.9	-34.1	20.4	0.00e+00	0	56	0	2111832064	36	4379
2026-01-12 01:38:01.52	146.90	68.43	-32.9	-34.1	20.5	0.00e+00	0	56	0	2117074944	36	4377
2026-01-12 01:38:02.53	147.89	68.12	-32.8	-34.0	20.6	0.00e+00	0	56	0	2122317824	36	4330
2026-01-12 01:38:03.54	148.85	67.80	-33.0	-34.2	20.5	0.00e+00	0	56	0	2128609280	36	4403
2026-01-12 01:38:04.55	149.77	67.49	-33.2	-34.4	20.2	0.00e+00	0	56	0	2133852160	36	4530
2026-01-12 01:38:05.56	150.67	67.16	-33.3	-34.5	20.1	0.00e+00	0	56	0	2140143616	37	4323
2026-01-12 01:38:06.57	151.54	66.84	-33.4	-34.6	20.0	0.00e+00	0	56	0	2145386496	37	4386
2026-01-12 01:38:07.58	152.39	66.51	-33.4	-34.6	20.0	0.00e+00	0	56	0	2150629376	37	4386
2026-01-12 01:38:08.59	153.21	66.18	-33.1	-34.3	20.2	0.00e+00	0	56	0	2156920832	37	4240
2026-01-12 01:38:09.60	154.01	65.84	-33.1	-34.4	20.2	0.00e+00	0	56	0	2162163712	37	4246
2026-01-12 01:38:10.61	154.78	65.50	-33.3	-34.6	20.0	0.00e+00	0	56	0	2168455168	37	4357
2026-01-12 01:38:11.62	155.52	65.16	-33.2	-34.4	20.2	0.00e+00	0	56	0	2173698048	37	4289
2026-01-12 01:38:12.63	156.25	64.82	-32.9	-34.1	20.5	0.00e+00	0	56	0	2178940928	37	4113
2026-01-12 01:38:13.64	156.95	64.48	-33.0	-34.2	20.5	0.00e+00	0	56	0	2185232384	37	4172
2026-01-12 01:38:14.65	157.64	64.13	-33.2	-34.4	20.3	0.00e+00	0	56	0	2190475264	37	4276
2026-01-12 01:38:15.66	158.30	63.78	-33.2	-34.5	20.2	0.00e+00	0	56	0	2196766720	37	4299
2026-01-12 01:38:16.67	158.95	63.43	-33.3	-34.6	20.1	0.00e+00	0	56	0	2202009600	37	4348
2026-01-12 01:38:17.68	159.57	63.08	-33.3	-34.5	20.2	0.00e+00	0	56	0	2208301056	37	4313
2026-01-12 01:38:18.69	160.18	62.73	-33.1	-34.3	20.3	0.00e+00	0	56	0	2213543936	37	4227
2026-01-12 01:38:19.70	160.77	62.38	-33.2	-34.4	20.2	0.00e+00	0	56	0	2218786816	37	4287
2026-01-12 01:38:20.71	161.34	62.03	-33.2	-34.5	20.2	0.00e+00	0	56	0	2225078272	37	4306
2026-01-12 01:38:21.72	161.90	61.68	-33.3	-34.6	20.1	0.00e+00	0	56	0	2230321152	37	4357
2026-01-12 01:38:22.73	162.44	61.32	-33.5	-34.7	19.9	0.00e+00	0	56	0	2236612608	37	4424
2026-01-12 01:38:23.74	162.96	60.97	-33.5	-34.8	19.9	0.00e+00	0	56	0	2241855488	37	4461
2026-01-12 01:38:24.75	163.48	60.61	-33.5	-34.7	19.9	0.00e+00	0	56	0	2248146944	37	4422
2026-01-12 01:38:25.76	163.97	60.26	-33.7	-34.9	19.8	0.00e+00	0	56	0	2253389824	37	4539
2026-01-12 01:38:26.77	164.46	59.91	-34.1	-35.4	19.4	0.00e+00	0	56	0	2258632704	38	4509
2026-01-12 01:38:27.78	164.93	59.55	-34.0	-35.3	19.5	0.00e+00	0	56	0	2264924160	38	4451
2026-01-12 01:38:28.79	165.39	59.20	-33.8	-35.1	19.7	0.00e+00	0	56	0	2270167040	38	4357
2026-01-12 01:38:29.80	165.84	58.85	-34.0	-35.2	19.6	0.00e+00	0	56	0	2275409920	38	4432
2026-01-12 01:38:30.81	166.27	58.50	-34.1	-35.3	19.5	0.00e+00	0	56	0	2281701376	38	4490
2026-01-12 01:38:31.82	166.69	58.15	-34.0	-35.3	19.5	0.00e+00	0	56	0	2286944256	38	4470
2026-01-12 01:38:32.83	167.11	57.79	-34.1	-35.4	19.3	0.00e+00	0	56	0	2293235712	38	4522
2026-01-12 01:38:33.83	167.51	57.45	-34.4	-35.7	19.1	0.00e+00	0	56	0	2298478592	39	4428
2026-01-12 01:38:34.84	167.90	57.10	-34.4	-35.8	19.0	0.00e+00	0	56	0	2304770048	39	4461
2026-01-12 01:38:35.85	168.28	56.75	-34.4	-35.8	18.9	0.00e+00	0	56	0	2310012928	39	4461
2026-01-12 01:38:36.86	168.65	56.40	-34.7	-36.1	18.7	0.00e+00	0	56	0	2316304384	39	4600
2026-01-12 01:38:37.88	169.02	56.05	-34.8	-36.2	18.5	0.00e+00	0	56	0	2321547264	40	4416
2026-01-12 01:38:38.89	169.38	55.71	-34.7	-36.1	18.5	0.00e+00	0	56	0	2326790144	40	4379
2026-01-12 01:38:39.90	169.72	55.36	-34.6	-36.0	18.7	0.00e+00	0	56	0	2333081600	40	4295
2026-01-12 01:38:40.91	170.06	55.02	-34.7	-36.0	18.7	0.00e+00	0	56	0	2338324480	40	4326
2026-01-12 01:38:41.92	170.39	54.68	-34.8	-36.1	18.6	0.00e+00	0	56	0	2344615936	40	4391
2026-01-12 01:38:42.93	170.72	54.34	-34.7	-36.1	18.7	0.00e+00	0	56	0	2349858816	40	4342
2026-01-12 01:38:43.94	171.03	54.00	-34.5	-35.8	18.9	0.00e+00	0	56	0	2355101696	40	4242
2026-01-12 01:38:44.95	171.34	53.66	-34.5	-35.8	18.9	0.00e+00	0	56	0	2361393152	40	4233
2026-01-12 01:38:45.96	171.64	53.33	-34.6	-35.9	18.8	0.00e+00	0	56	0	2366636032	40	4274
2026-01-12 01:38:46.97	171.94	52.99	-34.6	-36.0	18.7	0.00e+00	0	56	0	2372927488	40	4322
2026-01-12 01:38:47.98	172.22	52.66	-34.5	-35.9	18.8	0.00e+00	0	56	0	2378170368	40	4278
2026-01-12 01:38:48.99	172.50	52.33	-34.4	-35.7	19.0	0.00e+00	0	56	0	2383413248	40	4183
2026-01-12 01:38:49.99	172.78	52.00	-34.1	-35.4	19.3	0.00e+00	0	56	0	2389704704	40	4024
2026-01-12 01:38:51.01	173.05	51.67	-34.0	-35.2	19.4	0.00e+00	0	56	0	2394947584	40	3952
2026-01-12 01:38:52.01	173.31	51.35	-34.1	-35.4	19.3	0.00e+00	0	56	0	2401239040	40	4013
2026-01-12 01:38:53.03	173.57	51.02	-34.3	-35.7	19.0	0.00e+00	0	56	0	2406481920	40	4148
2026-01-12 01:38:54.04	173.82	50.69	-34.5	-35.8	18.8	0.00e+00	0	56	0	2412773376	40	4234
2026-01-12 01:38:55.04	174.07	50.38	-34.3	-35.7	19.0	0.00e+00	0	56	0	2418016256	40	4155
2026-01-12 01:38:56.05	174.31	50.06	-34.1	-35.4	19.3	0.00e+00	0	56	0	2424307712	40	4012
2026-01-12 01:38:57.07	174.55	49.73	-33.9	-35.2	19.6	0.00e+00	0	56	0	2429550592	39	4149
2026-01-12 01:38:58.08	174.78	49.42	-33.8	-35.0	19.6	0.00e+00	0	56	0	2434793472	39	4090
2026-01-12 01:38:59.09	175.01	49.10	-33.9	-35.2	19.5	0.00e+00	0	56	0	2441084928	39	4179
2026-01-12 01:39:00.10	175.23	48.79	-34.0	-35.3	19.3	0.00e+00	0	56	0	2446327808	39	4240
2026-01-12 01:39:01.11	175.45	48.48	-33.9	-35.2	19.5	0.00e+00	0	56	0	2452619264	39	4165
2026-01-12 01:39:02.12	175.67	48.17	-33.7	-35.0	19.6	0.00e+00	0	56	0	2457862144	39	4075
2026-01-12 01:39:03.13	175.88	47.86	-33.7	-34.9	19.7	0.00e+00	0	56	0	2463105024	39	4047
2026-01-12 01:39:04.14	176.08	47.55	-33.7	-35.0	19.6	0.00e+00	0	56	0	2469396480	39	4084
2026-01-12 01:39:05.15	176.29	47.25	-33.8	-35.1	19.5	0.00e+00	0	56	0	2474639360	39	4132
2026-01-12 01:39:06.15	176.48	46.95	-33.9	-35.2	19.4	0.00e+00	0	56	0	2480930816	39	4163
2026-01-12 01:39:07.16	176.68	46.65	-33.9	-35.2	19.4	0.00e+00	0	56	0	2486173696	39	4148
2026-01-12 01:39:08.17	176.87	46.35	-33.8	-35.1	19.5	0.00e+00	0	56	0	2491416576	39	4126
2026-01-12 01:39:09.18	177.06	46.05	-33.8	-35.0	19.5	0.00e+00	0	56	0	2497708032	39	4094
2026-01-12 01:39:10.19	177.24	45.76	-33.7	-35.0	19.6	0.00e+00	0	56	0	2502950912	39	4076
2026-01-12 01:39:11.20	177.42	45.47	-33.7	-34.9	19.6	0.00e+00	0	56	0	2509242368	39	4045
2026-01-12 01:39:12.22	177.60	45.17	-33.6	-34.9	19.7	0.00e+00	0	56	0	2514485248	39	4027
2026-01-12 01:39:13.23	177.78	44.88	-33.6	-34.9	19.7	0.00e+00	0	56	0	2520776704	39	4026
2026-01-12 01:39:14.24	177.95	44.59	-33.6	-34.9	19.7	0.00e+00	0	56	0	2526019584	39	4015
2026-01-12 01:39:15.25	178.12	44.31	-33.6	-34.9	19.7	0.00e+00	0	56	0	2531262464	39	4009
2026-01-12 01:39:16.26	178.28	44.02	-33.5	-34.8	19.8	0.00e+00	0	56	0	2537553920	39	3983
2026-01-12 01:39:17.26	178.44	43.74	-33.5	-34.7	19.9	0.00e+00	0	56	0	2542796800	39	3944
2026-01-12 01:39:18.27	178.60	43.46	-33.4	-34.7	19.9	0.00e+00	0	56	0	2549088256	38	4153
2026-01-12 01:39:19.28	178.76	43.18	-33.4	-34.7	19.9	0.00e+00	0	56	0	2554331136	38	4161
2026-01-12 01:39:20.30	178.92	42.91	-33.5	-34.7	19.8	0.00e+00	0	56	0	2559574016	38	4184
2026-01-12 01:39:21.31	179.07	42.63	-33.6	-34.8	19.8	0.00e+00	0	56	0	2565865472	38	4224
2026-01-12 01:39:22.32	179.22	42.36	-33.6	-34.8	19.7	0.00e+00	0	56	0	2571108352	38	4237
2026-01-12 01:39:23.33	179.36	42.09	-33.6	-34.9	19.7	0.00e+00	0	56	0	2577399808	38	4254
2026-01-12 01:39:24.34	179.51	41.82	-33.6	-34.9	19.7	0.00e+00	0	56	0	2582642688	38	4264
2026-01-12 01:39:25.35	179.65	41.55	-33.6	-34.9	19.7	0.00e+00	0	57	0	2587885568	38	4269
2026-01-12 01:39:26.36	179.79	41.28	-33.6	-34.9	19.7	0.00e+00	0	56	0	2594177024	38	4257
2026-01-12 01:39:27.37	179.93	41.02	-33.5	-34.8	19.7	0.00e+00	0	56	0	2599419904	38	4226
2026-01-12 01:39:28.38	180.07	40.75	-33.4	-34.6	19.9	0.00e+00	0	56	0	2605711360	38	4140
2026-01-12 01:39:29.38	180.20	40.50	-33.2	-34.4	20.1	0.00e+00	0	56	0	2610954240	38	4039
2026-01-12 01:39:30.39	180.33	40.24	-33.1	-34.3	20.1	0.00e+00	0	56	0	2617245696	38	3997
2026-01-12 01:39:31.40	180.46	39.98	-33.0	-34.2	20.3	0.00e+00	0	56	0	2622488576	38	3928
2026-01-12 01:39:32.41	180.59	39.72	-32.8	-34.0	20.4	0.00e+00	0	56	0	2628780032	37	4072
2026-01-12 01:39:33.42	180.71	39.47	-32.8	-34.0	20.4	0.00e+00	0	56	0	2634022912	37	4089
2026-01-12 01:39:34.43	180.84	39.22	-32.9	-34.1	20.3	0.00e+00	0	56	0	2639265792	37	4124
2026-01-12 01:39:35.44	180.96	38.97	-33.0	-34.2	20.2	0.00e+00	0	56	0	2645557248	37	4163
2026-01-12 01:39:36.45	181.08	38.72	-33.0	-34.3	20.1	0.00e+00	0	56	0	2650800128	37	4209
2026-01-12 01:39:37.46	181.20	38.47	-33.1	-34.4	20.1	0.00e+00	0	56	0	2657091584	37	4256
2026-01-12 01:39:38.47	181.31	38.22	-33.1	-34.4	20.0	0.00e+00	0	56	0	2662334464	37	4271
2026-01-12 01:39:39.48	181.43	37.98	-33.2	-34.4	20.0	0.00e+00	0	56	0	2667577344	37	4284
2026-01-12 01:39:40.49	181.54	37.74	-33.2	-34.4	20.0	0.00e+00	0	56	0	2673868800	37	4287
2026-01-12 01:39:41.50	181.65	37.50	-33.2	-34.4	20.0	0.00e+00	0	56	0	2679111680	37	4290
2026-01-12 01:39:42.51	181.76	37.26	-33.2	-34.4	20.0	0.00e+00	0	56	0	2685403136	37	4279
2026-01-12 01:39:43.52	181.87	37.02	-33.2	-34.4	20.0	0.00e+00	0	56	0	2690646016	37	4281
2026-01-12 01:39:44.53	181.98	36.78	-33.2	-34.5	19.9	0.00e+00	0	56	0	2695888896	37	4303
2026-01-12 01:39:45.54	182.08	36.55	-33.2	-34.5	19.9	0.00e+00	0	56	0	2702180352	37	4313
2026-01-12 01:39:46.55	182.19	36.32	-33.3	-34.6	19.8	0.00e+00	0	56	0	2707423232	37	4354
2026-01-12 01:39:47.56	182.29	36.09	-33.3	-34.6	19.8	0.00e+00	0	56	0	2713714688	37	4374
2026-01-12 01:39:48.57	182.39	35.86	-33.4	-34.7	19.8	0.00e+00	0	56	0	2718957568	37	4415
2026-01-12 01:39:49.58	182.49	35.63	-33.5	-34.8	19.7	0.00e+00	0	56	0	2725249024	37	4444
2026-01-12 01:39:50.59	182.59	35.40	-33.4	-34.7	19.7	0.00e+00	0	56	0	2730491904	37	4441
2026-01-12 01:39:51.60	182.69	35.18	-33.4	-34.7	19.7	0.00e+00	0	56	0	2735734784	37	4425
2026-01-12 01:39:52.62	182.78	34.95	-33.4	-34.7	19.7	0.00e+00	0	56	0	2742026240	37	4399
2026-01-12 01:39:53.62	182.88	34.73	-33.3	-34.6	19.7	0.00e+00	0	56	0	2747269120	37	4378
2026-01-12 01:39:54.63	182.97	34.51	-33.3	-34.6	19.7	0.00e+00	0	56	0	2753560576	37	4362
2026-01-12 01:39:55.64	183.06	34.29	-33.3	-34.6	19.8	0.00e+00	0	56	0	2758803456	37	4376
2026-01-12 01:39:56.65	183.16	34.07	-33.3	-34.6	19.8	0.00e+00	0	56	0	2764046336	37	4373
2026-01-12 01:39:57.66	183.25	33.86	-33.4	-34.6	19.7	0.00e+00	0	56	0	2770337792	37	4390
2026-01-12 01:39:58.67	183.33	33.64	-33.4	-34.7	19.7	0.00e+00	0	56	0	2775580672	37	4400
2026-01-12 01:39:59.68	183.42	33.43	-33.4	-34.7	19.7	0.00e+00	0	56	0	2781872128	37	4405
2026-01-12 01:40:00.69	183.51	33.22	-33.4	-34.7	19.7	0.00e+00	0	56	0	2787115008	37	4425
2026-01-12 01:40:01.70	183.59	33.01	-33.4	-34.7	19.6	0.00e+00	0	56	0	2792357888	37	4418
2026-01-12 01:40:02.71	183.68	32.80	-33.4	-34.7	19.7	0.00e+00	0	56	0	2798649344	37	4406
2026-01-12 01:40:03.72	183.76	32.59	-33.4	-34.7	19.7	0.00e+00	0	56	0	2803892224	37	4414
2026-01-12 01:40:04.73	183.85	32.38	-33.4	-34.7	19.7	0.00e+00	0	56	0	2810183680	37	4403
2026-01-12 01:40:05.74	183.93	32.18	-33.4	-34.7	19.7	0.00e+00	0	56	0	2815426560	37	4405
2026-01-12 01:40:06.75	184.01	31.97	-33.4	-34.7	19.6	0.00e+00	0	56	0	2820669440	37	4427
2026-01-12 01:40:07.76	184.09	31.77	-33.4	-34.7	19.7	0.00e+00	0	56	0	2826960896	37	4428
2026-01-12 01:40:08.77	184.17	31.57	-33.5	-34.7	19.6	0.00e+00	0	56	0	2832203776	37	4434
2026-01-12 01:40:09.78	184.24	31.37	-33.5	-34.8	19.6	0.00e+00	0	56	0	2838495232	37	4443
2026-01-12 01:40:10.79	184.32	31.17	-33.5	-34.8	19.6	0.00e+00	0	56	0	2843738112	37	4463
2026-01-12 01:40:11.80	184.40	30.97	-33.5	-34.8	19.6	0.00e+00	0	56	0	2850029568	37	4468
2026-01-12 01:40:12.81	184.47	30.78	-33.5	-34.8	19.5	0.00e+00	0	56	0	2855272448	37	4480
2026-01-12 01:40:13.82	184.54	30.58	-33.6	-34.9	19.5	0.00e+00	0	56	0	2861563904	37	4499
2026-01-12 01:40:14.83	184.62	30.39	-33.6	-34.9	19.5	0.00e+00	0	56	0	2866806784	37	4518
2026-01-12 01:40:15.84	184.69	30.20	-33.6	-34.9	19.5	0.00e+00	0	56	0	2872049664	37	4512
2026-01-12 01:40:16.85	184.76	30.01	-33.6	-34.9	19.4	0.00e+00	0	56	0	2878341120	37	4543
2026-01-12 01:40:17.86	184.83	29.82	-33.7	-35.0	19.4	0.00e+00	0	56	0	2883584000	37	4558
2026-01-12 01:40:18.87	184.90	29.63	-33.7	-35.0	19.4	0.00e+00	0	56	0	2889875456	37	4564
2026-01-12 01:40:19.88	184.97	29.44	-33.7	-35.0	19.3	0.00e+00	0	56	0	2895118336	37	4587
2026-01-12 01:40:20.89	185.04	29.26	-33.7	-35.0	19.3	0.00e+00	0	56	0	2900361216	38	4339
2026-01-12 01:40:21.90	185.11	29.07	-33.8	-35.1	19.3	0.00e+00	0	56	0	2906652672	38	4353
2026-01-12 01:40:22.91	185.18	28.89	-33.7	-35.1	19.3	0.00e+00	0	56	0	2911895552	38	4343
2026-01-12 01:40:23.92	185.24	28.71	-33.7	-35.0	19.4	0.00e+00	0	56	0	2918187008	38	4315
2026-01-12 01:40:24.93	185.31	28.52	-33.7	-35.0	19.4	0.00e+00	0	56	0	2923429888	38	4315
2026-01-12 01:40:25.94	185.37	28.34	-33.7	-35.0	19.4	0.00e+00	0	56	0	2928672768	38	4313
2026-01-12 01:40:26.95	185.44	28.16	-33.7	-35.0	19.4	0.00e+00	0	56	0	2934964224	38	4317
2026-01-12 01:40:27.96	185.50	27.99	-33.7	-35.0	19.4	0.00e+00	0	56	0	2940207104	38	4318
2026-01-12 01:40:28.97	185.56	27.81	-33.7	-35.0	19.4	0.00e+00	0	56	0	2946498560	38	4313
2026-01-12 01:40:29.98	185.63	27.63	-33.7	-35.0	19.4	0.00e+00	0	56	0	2951741440	38	4303
2026-01-12 01:40:30.99	185.69	27.46	-33.7	-35.0	19.4	0.00e+00	0	57	0	2958032896	38	4303
2026-01-12 01:40:32.00	185.75	27.29	-33.7	-35.0	19.4	0.00e+00	0	56	0	2963275776	38	4309
2026-01-12 01:40:33.01	185.81	27.11	-33.7	-35.0	19.4	0.00e+00	0	56	0	2969567232	38	4314
2026-01-12 01:40:34.02	185.87	26.94	-33.7	-35.0	19.4	0.00e+00	0	56	0	2974810112	38	4321
2026-01-12 01:40:35.03	185.93	26.77	-33.7	-35.0	19.4	0.00e+00	0	57	0	2980052992	38	4301
2026-01-12 01:40:36.04	185.99	26.60	-33.6	-34.9	19.4	0.00e+00	0	56	0	2986344448	38	4289
2026-01-12 01:40:37.05	186.04	26.43	-33.7	-35.0	19.4	0.00e+00	0	56	0	2991587328	38	4296
2026-01-12 01:40:38.06	186.10	26.27	-33.6	-34.9	19.4	0.00e+00	0	56	0	2997878784	38	4286
2026-01-12 01:40:39.07	186.16	26.10	-33.6	-34.9	19.5	0.00e+00	0	56	0	3003121664	38	4263
2026-01-12 01:40:40.08	186.22	25.93	-33.6	-34.9	19.4	0.00e+00	0	56	0	3008364544	38	4257
2026-01-12 01:40:41.09	186.27	25.77	-33.6	-34.9	19.5	0.00e+00	0	56	0	3014656000	38	4252
2026-01-12 01:40:42.10	186.33	25.61	-33.6	-34.9	19.4	0.00e+00	0	56	0	3019898880	38	4254
2026-01-12 01:40:43.12	186.38	25.44	-33.6	-34.9	19.4	0.00e+00	0	56	0	3026190336	38	4264
2026-01-12 01:40:44.12	186.44	25.28	-33.6	-34.9	19.5	0.00e+00	0	56	0	3031433216	38	4261
2026-01-12 01:40:45.14	186.49	25.12	-33.7	-34.9	19.4	0.00e+00	0	56	0	3036676096	38	4284
2026-01-12 01:40:46.15	186.54	24.96	-33.7	-35.0	19.4	0.00e+00	0	56	0	3042967552	38	4296
2026-01-12 01:40:47.16	186.60	24.80	-33.7	-34.9	19.4	0.00e+00	0	56	0	3048210432	38	4287
2026-01-12 01:40:48.16	186.65	24.65	-33.7	-35.0	19.3	0.00e+00	0	56	0	3054501888	38	4321
2026-01-12 01:40:49.17	186.70	24.49	-33.8	-35.1	19.3	0.00e+00	0	56	0	3059744768	38	4349
2026-01-12 01:40:50.18	186.75	24.33	-33.8	-35.1	19.2	0.00e+00	0	56	0	3066036224	38	4365
2026-01-12 01:40:51.19	186.80	24.18	-33.9	-35.2	19.2	0.00e+00	0	56	0	3071279104	38	4408
2026-01-12 01:40:52.20	186.85	24.02	-33.9	-35.3	19.1	0.00e+00	0	56	0	3076521984	38	4449
2026-01-12 01:40:53.21	186.90	23.87	-34.0	-35.3	19.0	0.00e+00	0	56	0	3082813440	38	4480
2026-01-12 01:40:54.22	186.95	23.72	-34.0	-35.4	19.0	0.00e+00	0	56	0	3088056320	38	4505
2026-01-12 01:40:55.23	187.00	23.57	-34.0	-35.4	18.9	0.00e+00	0	56	0	3094347776	38	4527
2026-01-12 01:40:56.24	187.05	23.42	-34.1	-35.5	18.9	0.00e+00	0	56	0	3099590656	38	4572
2026-01-12 01:40:57.26	187.10	23.27	-34.1	-35.5	18.9	0.00e+00	0	57	0	3105882112	38	4579
2026-01-12 01:40:58.26	187.14	23.12	-34.2	-35.6	18.8	0.00e+00	0	56	0	3111124992	38	4609
2026-01-12 01:40:59.28	187.19	22.97	-34.2	-35.6	18.8	0.00e+00	0	56	0	3116367872	38	4628
2026-01-12 01:41:00.28	187.24	22.82	-34.3	-35.7	18.7	0.00e+00	0	56	0	3122659328	39	4407
2026-01-12 01:41:01.30	187.28	22.67	-34.3	-35.7	18.7	0.00e+00	0	56	0	3127902208	39	4398
2026-01-12 01:41:02.31	187.33	22.53	-34.3	-35.7	18.7	0.00e+00	0	56	0	3134193664	39	4432
2026-01-12 01:41:03.31	187.37	22.39	-34.3	-35.8	18.7	0.00e+00	0	56	0	3139436544	39	4443
2026-01-12 01:41:04.32	187.42	22.24	-34.4	-35.7	18.6	0.00e+00	0	57	0	3144679424	39	4441
2026-01-12 01:41:05.33	187.46	22.10	-34.4	-35.8	18.6	0.00e+00	0	57	0	3150970880	39	4458
2026-01-12 01:41:06.34	187.51	21.96	-34.4	-35.8	18.6	0.00e+00	0	56	0	3156213760	39	4480
2026-01-12 01:41:07.35	187.55	21.81	-34.4	-35.8	18.6	0.00e+00	0	56	0	3162505216	39	4478
2026-01-12 01:41:08.36	187.60	21.67	-34.4	-35.8	18.6	0.00e+00	0	56	0	3167748096	39	4476
2026-01-12 01:41:09.37	187.64	21.53	-34.5	-35.9	18.5	0.00e+00	0	56	0	3174039552	39	4496
2026-01-12 01:41:10.38	187.68	21.39	-34.5	-35.9	18.5	0.00e+00	0	56	0	3179282432	39	4496
2026-01-12 01:41:11.39	187.73	21.26	-34.5	-35.9	18.5	0.00e+00	0	56	0	3184525312	39	4526
2026-01-12 01:41:12.40	187.77	21.12	-34.5	-35.9	18.5	0.00e+00	0	56	0	3190816768	39	4504
2026-01-12 01:41:13.41	187.81	20.98	-34.5	-35.9	18.6	0.00e+00	0	56	0	3196059648	39	4494
2026-01-12 01:41:14.42	187.85	20.84	-34.5	-35.9	18.5	0.00e+00	0	57	0	3202351104	39	4537
2026-01-12 01:41:15.43	187.89	20.71	-34.5	-35.9	18.5	0.00e+00	0	56	0	3207593984	39	4519
2026-01-12 01:41:16.44	187.93	20.57	-34.6	-35.9	18.5	0.00e+00	0	56	0	3212836864	39	4542
2026-01-12 01:41:17.45	187.97	20.44	-34.6	-36.0	18.4	0.00e+00	0	56	0	3219128320	39	4556
2026-01-12 01:41:18.46	188.01	20.31	-34.6	-36.0	18.4	0.00e+00	0	56	0	3224371200	39	4557
2026-01-12 01:41:19.47	188.05	20.17	-34.6	-36.0	18.4	0.00e+00	0	56	0	3230662656	39	4564
2026-01-12 01:41:20.48	188.09	20.04	-34.6	-36.0	18.4	0.00e+00	0	56	0	3235905536	39	4588
2026-01-12 01:41:21.49	188.13	19.91	-34.6	-36.0	18.3	0.00e+00	0	56	0	3241148416	39	4594
2026-01-12 01:41:22.50	188.17	19.78	-34.7	-36.1	18.3	0.00e+00	0	57	0	3247439872	39	4603
2026-01-12 01:41:23.51	188.21	19.65	-34.7	-36.1	18.3	0.00e+00	0	56	0	3252682752	39	4632
2026-01-12 01:41:24.52	188.25	19.52	-34.7	-36.1	18.3	0.00e+00	0	56	0	3258974208	39	4620
2026-01-12 01:41:25.53	188.29	19.39	-34.7	-36.1	18.3	0.00e+00	0	56	0	3264217088	40	4343
2026-01-12 01:41:26.54	188.32	19.26	-34.7	-36.1	18.3	0.00e+00	0	56	0	3270508544	40	4342
2026-01-12 01:41:27.55	188.36	19.14	-34.7	-36.1	18.3	0.00e+00	0	56	0	3275751424	40	4367
2026-01-12 01:41:28.56	188.40	19.01	-34.7	-36.1	18.2	0.00e+00	0	56	0	3282042880	40	4386
2026-01-12 01:41:29.57	188.44	18.88	-34.8	-36.2	18.2	0.00e+00	0	56	0	3287285760	40	4405
2026-01-12 01:41:30.58	188.47	18.76	-34.8	-36.2	18.1	0.00e+00	0	56	0	3292528640	40	4424
2026-01-12 01:41:31.59	188.51	18.63	-34.8	-36.3	18.1	0.00e+00	0	56	0	3298820096	40	4449
2026-01-12 01:41:32.61	188.55	18.51	-34.9	-36.3	18.0	0.00e+00	0	56	0	3304062976	40	4489
2026-01-12 01:41:33.62	188.58	18.38	-34.9	-36.3	18.0	0.00e+00	0	56	0	3310354432	40	4472
2026-01-12 01:41:34.62	188.62	18.26	-34.9	-36.4	18.0	0.00e+00	0	56	0	3315597312	40	4507
2026-01-12 01:41:35.63	188.65	18.14	-35.0	-36.4	18.0	0.00e+00	0	56	0	3320840192	40	4518
2026-01-12 01:41:36.64	188.69	18.02	-35.0	-36.5	17.9	0.00e+00	0	56	0	3327131648	40	4556
2026-01-12 01:41:37.65	188.72	17.90	-35.2	-36.7	17.7	0.00e+00	0	56	0	3332374528	40	4665
2026-01-12 01:41:38.66	188.76	17.78	-35.1	-36.5	17.8	0.00e+00	0	57	0	3338665984	40	4586
2026-01-12 01:41:39.67	188.79	17.66	-35.1	-36.5	17.8	0.00e+00	0	56	0	3343908864	40	4596
2026-01-12 01:41:40.68	188.82	17.54	-35.2	-36.6	17.7	0.00e+00	0	57	0	3349151744	40	4642
2026-01-12 01:41:41.69	188.86	17.42	-35.2	-36.7	17.6	0.00e+00	0	56	0	3355443200	41	4424
2026-01-12 01:41:42.71	188.89	17.30	-35.3	-36.8	17.5	0.00e+00	0	56	0	3360686080	41	4493
2026-01-12 01:41:43.72	188.93	17.18	-35.4	-37.0	17.4	0.00e+00	0	56	0	3366977536	41	4546
2026-01-12 01:41:44.73	188.96	17.06	-35.5	-37.0	17.4	0.00e+00	0	56	0	3372220416	41	4573
2026-01-12 01:41:45.73	188.99	16.95	-35.5	-37.1	17.3	0.00e+00	0	56	0	3378511872	41	4601
2026-01-12 01:41:46.75	189.02	16.83	-35.6	-37.2	17.2	0.00e+00	0	56	0	3383754752	41	4656
2026-01-12 01:41:47.76	189.06	16.71	-35.7	-37.2	17.2	0.00e+00	0	56	0	3390046208	41	4684
2026-01-12 01:41:48.77	189.09	16.60	-35.6	-37.1	17.2	0.00e+00	0	56	0	3395289088	41	4638
2026-01-12 01:41:49.78	189.12	16.48	-35.6	-37.2	17.1	0.00e+00	0	57	0	3400531968	41	4681
2026-01-12 01:41:50.79	189.15	16.37	-35.7	-37.3	17.1	0.00e+00	0	56	0	3406823424	41	4706
2026-01-12 01:41:51.80	189.18	16.26	-35.8	-37.3	17.0	0.00e+00	0	56	0	3412066304	42	4491
2026-01-12 01:41:52.81	189.22	16.14	-35.8	-37.4	17.0	0.00e+00	0	57	0	3418357760	42	4518
2026-01-12 01:41:53.82	189.25	16.03	-35.9	-37.6	16.8	0.00e+00	0	56	0	3423600640	42	4601
2026-01-12 01:41:54.83	189.28	15.92	-36.0	-37.6	16.7	0.00e+00	0	57	0	3428843520	42	4651
2026-01-12 01:41:55.84	189.31	15.81	-36.0	-37.6	16.7	0.00e+00	0	56	0	3435134976	42	4634
2026-01-12 01:41:56.85	189.34	15.70	-35.9	-37.5	16.8	0.00e+00	0	57	0	3440377856	42	4597
