passes_logs/2026/01/12/R2.0S_Moscow/R2.0S_Moscow__20260112_223144_SUOMI_NPP_rec.log

#Pass ID: 20260112_223144_SUOMI NPP
#Satellite: SUOMI NPP
#Configuration: NPP
#almurnet v.1.7.20251203
#Start time: 2026-01-12 22:37:34

#Version: 2.2.20231116
#Station: R2.0S_Moscow
#Location: 37.707566 lon 55.798166 lat
#TLE: 1 37849U 11061A   26012.28456845  .00000093  00000+0  65163-4 0  9999
#TLE: 2 37849  98.7807 314.3566 0002508  68.3553 291.7890 14.19524725736322

#Time	Az	El	Level	Level2	SNR	BER	BlckErr	Temp	State	Recorded	gain1	gain2
2026-01-12 22:37:34.19	74.40	27.88	-45.1	-63.4	3.8	8.46e-01	0	59	0	0	61	30290
2026-01-12 22:37:35.20	74.71	27.94	-45.3	-59.9	3.8	1.49e+00	0	59	104	0	62	18952
2026-01-12 22:37:36.21	75.02	27.99	-45.4	-59.9	3.8	1.49e+00	0	59	104	0	62	19159
2026-01-12 22:37:37.22	75.33	28.04	-45.4	-60.0	3.8	1.49e+00	0	59	104	0	62	19301
2026-01-12 22:37:38.23	75.64	28.09	-45.4	-60.0	3.8	1.49e+00	0	59	104	0	62	19311
2026-01-12 22:37:39.24	75.96	28.15	-45.4	-59.9	3.8	1.49e+00	0	59	104	0	62	19147
2026-01-12 22:37:40.25	76.27	28.20	-45.3	-59.9	3.8	1.49e+00	0	59	104	0	62	18968
2026-01-12 22:37:41.26	76.59	28.24	-45.2	-59.7	3.8	1.49e+00	0	59	104	0	62	18680
2026-01-12 22:37:42.27	76.90	28.29	-45.1	-59.6	3.8	1.49e+00	0	59	104	0	62	18452
2026-01-12 22:37:43.28	77.22	28.34	-45.0	-59.5	3.8	1.49e+00	0	59	104	0	62	18143
2026-01-12 22:37:44.28	77.53	28.39	-45.0	-59.6	3.8	1.49e+00	0	59	104	0	62	18338
2026-01-12 22:37:45.29	77.85	28.43	-45.0	-59.5	3.8	1.49e+00	0	59	104	0	62	18275
2026-01-12 22:37:46.30	78.17	28.48	-45.0	-59.5	3.8	1.49e+00	0	59	104	0	62	18226
2026-01-12 22:37:47.31	78.50	28.52	-45.0	-59.5	3.8	1.49e+00	0	59	104	0	61	19228
2026-01-12 22:37:48.32	78.82	28.57	-45.0	-59.5	3.8	1.49e+00	0	59	104	0	61	19279
2026-01-12 22:37:49.33	79.14	28.61	-45.0	-59.5	3.8	1.49e+00	0	59	104	0	61	19297
2026-01-12 22:37:50.34	79.46	28.65	-44.9	-59.5	3.8	1.49e+00	0	59	104	0	61	19227
2026-01-12 22:37:51.35	79.79	28.69	-44.9	-59.5	3.8	1.49e+00	0	59	104	0	61	19313
2026-01-12 22:37:52.36	80.11	28.73	-44.9	-59.4	3.8	1.49e+00	0	59	104	0	61	19166
2026-01-12 22:37:53.37	80.44	28.77	-44.9	-59.5	3.8	1.49e+00	0	59	104	0	61	19200
2026-01-12 22:37:54.38	80.77	28.81	-44.9	-59.5	3.8	1.49e+00	0	59	104	0	61	19174
2026-01-12 22:37:55.39	81.09	28.84	-44.9	-59.4	3.8	1.49e+00	0	59	104	0	61	19089
2026-01-12 22:37:56.40	81.42	28.88	-44.9	-59.3	3.8	1.49e+00	0	59	104	0	61	18867
2026-01-12 22:37:57.41	81.75	28.91	-44.9	-59.3	3.8	1.49e+00	0	59	104	0	61	18739
2026-01-12 22:37:58.42	82.08	28.95	-44.9	-59.2	3.8	1.49e+00	0	59	104	0	61	18718
2026-01-12 22:37:59.43	82.41	28.98	-44.9	-59.2	3.8	1.49e+00	0	59	104	0	61	18690
2026-01-12 22:38:00.44	82.74	29.01	-44.9	-59.3	3.8	1.49e+00	0	59	104	0	61	18854
2026-01-12 22:38:01.45	83.07	29.04	-44.9	-59.3	3.8	1.49e+00	0	59	104	0	61	18737
2026-01-12 22:38:02.46	83.41	29.07	-44.9	-59.1	3.8	1.49e+00	0	59	104	0	61	18463
2026-01-12 22:38:03.47	83.74	29.10	-44.9	-59.1	3.8	1.49e+00	0	59	104	0	61	18338
2026-01-12 22:38:04.48	84.07	29.13	-44.8	-59.0	3.8	1.49e+00	0	59	104	0	61	18167
2026-01-12 22:38:05.49	84.41	29.16	-44.8	-59.1	3.8	1.49e+00	0	60	104	0	61	18319
2026-01-12 22:38:06.50	84.74	29.19	-44.8	-59.2	3.8	1.49e+00	0	59	104	0	61	18532
2026-01-12 22:38:07.51	85.08	29.21	-44.9	-59.1	3.8	1.49e+00	0	59	104	0	61	18308
2026-01-12 22:38:08.52	85.41	29.23	-44.8	-58.8	3.8	1.49e+00	0	59	104	0	61	17760
2026-01-12 22:38:09.52	85.74	29.26	-44.8	-58.5	3.8	1.49e+00	0	59	104	0	61	17246
2026-01-12 22:38:10.53	86.08	29.28	-44.8	-58.5	3.8	1.49e+00	0	59	104	0	61	17184
2026-01-12 22:38:11.54	86.42	29.30	-44.8	-58.7	3.8	1.49e+00	0	59	104	0	61	17593
2026-01-12 22:38:12.56	86.76	29.32	-44.8	-59.0	3.8	1.49e+00	0	59	104	0	61	18133
2026-01-12 22:38:13.57	87.10	29.34	-44.9	-59.1	3.8	1.49e+00	0	59	104	0	61	18507
2026-01-12 22:38:14.57	87.43	29.36	-44.9	-59.3	3.8	1.49e+00	0	59	104	0	61	18785
2026-01-12 22:38:15.59	87.77	29.37	-44.9	-59.3	3.8	1.49e+00	0	59	104	0	61	18917
2026-01-12 22:38:16.60	88.11	29.39	-44.9	-59.3	3.8	1.49e+00	0	59	104	0	61	18915
2026-01-12 22:38:17.61	88.45	29.40	-44.8	-58.8	3.8	1.49e+00	0	59	104	0	61	17695
2026-01-12 22:38:18.62	88.79	29.42	-44.7	-57.0	3.8	1.49e+00	0	59	104	0	61	14519
2026-01-12 22:38:19.63	89.13	29.43	-44.5	-54.8	4.5	1.39e+00	0	60	0	0	61	11268
2026-01-12 22:38:20.64	89.47	29.44	-44.4	-53.5	5.2	6.39e-01	0	59	0	2097152	60	10271
2026-01-12 22:38:21.65	89.81	29.45	-44.3	-52.8	5.7	4.59e-01	0	59	0	4194304	60	9395
2026-01-12 22:38:22.66	90.15	29.46	-44.4	-53.7	5.1	5.19e-01	0	59	0	5242880	60	10505
2026-01-12 22:38:23.67	90.49	29.47	-44.7	-56.8	4.0	9.72e-01	0	60	0	7340032	60	14923
2026-01-12 22:38:24.68	90.84	29.47	-44.8	-57.9	3.8	1.49e+00	0	59	104	7340032	60	16963
2026-01-12 22:38:25.69	91.18	29.48	-44.3	-52.8	5.6	1.13e+00	0	59	0	7340032	60	9475
2026-01-12 22:38:26.70	91.52	29.48	-43.7	-50.0	8.0	1.99e-01	0	59	0	9437184	59	7228
2026-01-12 22:38:27.71	91.86	29.49	-43.5	-49.2	8.8	2.93e-02	0	59	0	11534336	58	7016
2026-01-12 22:38:28.72	92.20	29.49	-44.9	-57.5	3.8	1.94e-01	0	59	104	12582912	60	16275
2026-01-12 22:38:29.73	92.54	29.49	-43.5	-49.3	8.9	1.46e+00	0	59	104	12582912	58	7078
2026-01-12 22:38:30.74	92.88	29.49	-44.7	-54.8	4.9	8.09e-02	0	59	0	13631488	59	12592
2026-01-12 22:38:31.75	93.22	29.49	-44.6	-54.6	4.8	1.41e+00	0	60	104	13631488	60	11583
2026-01-12 22:38:32.76	93.57	29.49	-43.5	-49.2	8.9	6.94e-01	0	59	0	14680064	58	6978
2026-01-12 22:38:33.77	93.91	29.49	-43.5	-49.2	8.8	7.96e-02	0	59	0	16777216	58	7015
2026-01-12 22:38:34.78	94.25	29.48	-43.2	-48.3	9.8	1.12e-02	0	59	0	17825792	58	6285
2026-01-12 22:38:35.79	94.59	29.48	-43.0	-47.7	10.3	8.46e-03	0	60	0	19922944	58	5913
2026-01-12 22:38:36.80	94.93	29.47	-42.8	-47.4	10.6	4.58e-03	0	59	0	22020096	57	5993
2026-01-12 22:38:37.81	95.27	29.47	-42.7	-47.1	10.9	2.54e-03	0	59	0	24117248	57	5852
2026-01-12 22:38:38.82	95.61	29.46	-42.9	-47.7	10.3	2.72e-03	0	59	0	26214400	57	6229
2026-01-12 22:38:39.83	95.95	29.45	-43.2	-48.4	9.7	6.63e-03	0	59	0	27262976	57	6726
2026-01-12 22:38:40.83	96.29	29.44	-43.4	-49.1	8.9	2.33e-02	0	60	0	29360128	57	7367
2026-01-12 22:38:41.84	96.63	29.43	-43.5	-49.3	8.7	3.59e-02	0	60	0	31457280	57	7470
2026-01-12 22:38:42.85	96.97	29.41	-43.5	-49.2	8.8	3.36e-02	0	60	0	33554432	57	7452
2026-01-12 22:38:43.86	97.31	29.40	-43.4	-49.0	8.9	2.79e-02	0	59	0	35651584	57	7262
2026-01-12 22:38:44.87	97.65	29.39	-43.3	-48.6	9.4	2.06e-02	0	60	0	36700160	57	6919
2026-01-12 22:38:45.88	97.99	29.37	-43.4	-49.1	8.9	2.17e-02	0	59	0	38797312	57	7349
2026-01-12 22:38:46.89	98.33	29.35	-43.4	-49.0	9.0	3.06e-02	0	59	0	40894464	57	7232
2026-01-12 22:38:47.90	98.67	29.33	-43.4	-49.1	8.9	2.87e-02	0	59	0	42991616	57	7320
2026-01-12 22:38:48.91	99.01	29.32	-43.3	-48.7	9.3	2.32e-02	0	60	0	45088768	57	7020
2026-01-12 22:38:49.92	99.34	29.30	-43.4	-48.9	9.2	1.93e-02	0	60	0	46137344	57	7122
2026-01-12 22:38:50.93	99.68	29.27	-43.5	-49.3	8.7	2.79e-02	0	60	0	48234496	57	7492
2026-01-12 22:38:51.94	100.02	29.25	-43.7	-49.9	8.1	5.34e-02	0	59	0	50331648	57	8045
2026-01-12 22:38:52.95	100.35	29.23	-43.9	-50.5	7.5	8.56e-02	0	60	0	52428800	58	8148
2026-01-12 22:38:53.96	100.69	29.20	-43.8	-50.1	7.9	9.82e-02	0	59	0	54525952	58	7791
2026-01-12 22:38:54.97	101.03	29.18	-43.7	-50.0	7.9	7.17e-02	0	60	0	55574528	58	7696
2026-01-12 22:38:55.98	101.36	29.15	-43.6	-49.5	8.5	5.24e-02	0	59	0	57671680	58	7253
2026-01-12 22:38:56.99	101.70	29.13	-43.7	-50.0	8.0	5.71e-02	0	60	0	59768832	58	7713
2026-01-12 22:38:57.99	102.03	29.10	-43.7	-50.0	8.0	7.10e-02	0	60	0	61865984	58	7654
2026-01-12 22:38:59.00	102.36	29.07	-43.9	-50.6	7.5	9.81e-02	0	60	0	63963136	58	8197
2026-01-12 22:39:00.01	102.69	29.04	-43.8	-50.3	7.8	9.38e-02	0	59	0	65011712	58	7911
2026-01-12 22:39:01.02	103.02	29.01	-43.6	-49.5	8.5	4.74e-02	0	60	0	67108864	58	7234
2026-01-12 22:39:02.03	103.36	28.97	-43.3	-48.6	9.4	2.17e-02	0	60	0	69206016	58	6527
2026-01-12 22:39:03.04	103.69	28.94	-43.4	-49.0	9.1	1.86e-02	0	60	0	71303168	58	6806
2026-01-12 22:39:04.05	104.02	28.91	-43.7	-50.1	7.8	4.95e-02	0	60	0	73400320	58	7730
2026-01-12 22:39:05.06	104.35	28.87	-44.0	-51.1	6.9	1.26e-01	0	60	0	74448896	58	8717
2026-01-12 22:39:06.07	104.67	28.84	-44.1	-51.4	6.7	1.96e-01	0	60	0	76546048	58	9043
2026-01-12 22:39:07.08	105.00	28.80	-43.9	-50.8	7.2	1.84e-01	0	60	0	78643200	58	8391
2026-01-12 22:39:08.08	105.33	28.76	-43.7	-50.0	8.0	7.92e-02	0	60	0	80740352	58	7681
2026-01-12 22:39:09.09	105.65	28.72	-43.5	-49.4	8.6	4.43e-02	0	60	0	82837504	58	7155
2026-01-12 22:39:10.10	105.98	28.68	-43.4	-48.8	9.2	1.90e-02	0	60	0	83886080	58	6682
2026-01-12 22:39:11.11	106.30	28.64	-43.2	-48.4	9.6	1.28e-02	0	60	0	85983232	58	6420
2026-01-12 22:39:12.12	106.63	28.60	-43.2	-48.4	9.6	1.53e-02	0	60	0	88080384	58	6410
2026-01-12 22:39:13.13	106.95	28.56	-43.1	-48.1	9.9	1.11e-02	0	60	0	90177536	58	6171
2026-01-12 22:39:14.14	107.27	28.51	-43.1	-48.1	10.1	7.20e-03	0	60	0	92274688	58	6137
2026-01-12 22:39:15.15	107.59	28.47	-43.0	-47.9	10.1	5.51e-03	0	60	0	93323264	57	6385
2026-01-12 22:39:16.16	107.92	28.42	-42.9	-47.7	10.4	4.90e-03	0	60	0	95420416	57	6265
2026-01-12 22:39:17.17	108.24	28.38	-43.0	-47.8	10.2	4.73e-03	0	60	0	97517568	57	6318
2026-01-12 22:39:18.18	108.55	28.33	-43.2	-48.3	9.7	9.51e-03	0	60	0	99614720	57	6708
2026-01-12 22:39:19.19	108.87	28.28	-43.2	-48.3	9.7	1.09e-02	0	60	0	101711872	57	6704
2026-01-12 22:39:20.20	109.19	28.23	-43.2	-48.4	9.7	1.05e-02	0	60	0	103809024	57	6731
2026-01-12 22:39:21.21	109.51	28.18	-43.1	-48.1	10.0	8.86e-03	0	60	0	104857600	57	6496
2026-01-12 22:39:22.22	109.82	28.13	-43.0	-47.8	10.3	7.49e-03	0	60	0	106954752	57	6302
2026-01-12 22:39:23.23	110.13	28.08	-42.9	-47.5	10.5	4.18e-03	0	60	0	109051904	57	6105
2026-01-12 22:39:24.24	110.45	28.03	-43.0	-47.8	10.3	3.51e-03	0	60	0	111149056	57	6292
2026-01-12 22:39:25.25	110.76	27.98	-43.1	-48.0	10.1	5.11e-03	0	60	0	113246208	57	6451
2026-01-12 22:39:26.25	111.07	27.92	-43.1	-48.0	10.0	6.35e-03	0	60	0	114294784	57	6462
2026-01-12 22:39:27.26	111.38	27.87	-43.0	-47.8	10.3	6.44e-03	0	60	0	116391936	57	6326
2026-01-12 22:39:28.27	111.69	27.81	-42.9	-47.7	10.3	5.22e-03	0	60	0	118489088	57	6251
2026-01-12 22:39:29.28	111.99	27.76	-42.9	-47.7	10.4	4.40e-03	0	60	0	120586240	57	6240
2026-01-12 22:39:30.29	112.30	27.70	-43.1	-48.1	10.0	5.86e-03	0	60	0	122683392	57	6550
2026-01-12 22:39:31.30	112.61	27.64	-43.3	-48.7	9.3	1.10e-02	0	60	0	123731968	57	6975
2026-01-12 22:39:32.31	112.91	27.58	-43.3	-48.6	9.5	1.75e-02	0	60	0	125829120	57	6902
2026-01-12 22:39:33.32	113.22	27.52	-43.4	-48.9	9.1	2.14e-02	0	60	0	127926272	57	7181
2026-01-12 22:39:34.33	113.52	27.46	-43.3	-48.8	9.2	2.36e-02	0	60	0	130023424	57	7070
2026-01-12 22:39:35.34	113.82	27.40	-43.2	-48.3	9.7	2.05e-02	0	60	0	132120576	57	6671
2026-01-12 22:39:36.35	114.12	27.34	-43.2	-48.4	9.6	1.11e-02	0	60	0	133169152	57	6797
2026-01-12 22:39:37.36	114.42	27.28	-43.3	-48.7	9.2	1.08e-02	0	60	0	135266304	57	7033
2026-01-12 22:39:38.37	114.72	27.22	-43.6	-49.5	8.5	2.03e-02	0	60	0	137363456	57	7703
2026-01-12 22:39:39.38	115.01	27.15	-43.8	-50.3	7.7	6.96e-02	0	60	0	139460608	58	7977
2026-01-12 22:39:40.39	115.31	27.09	-43.9	-50.6	7.4	9.20e-02	0	60	0	141557760	58	8216
2026-01-12 22:39:41.40	115.60	27.03	-43.8	-50.2	7.8	1.10e-01	0	60	0	142606336	58	7814
2026-01-12 22:39:42.41	115.90	26.96	-43.5	-49.3	8.7	5.71e-02	0	60	0	144703488	58	7085
2026-01-12 22:39:43.42	116.19	26.90	-43.4	-48.9	9.1	2.10e-02	0	59	0	146800640	58	6734
2026-01-12 22:39:44.43	116.48	26.83	-43.3	-48.8	9.2	1.50e-02	0	60	0	148897792	58	6648
2026-01-12 22:39:45.44	116.77	26.76	-43.4	-49.0	8.9	2.37e-02	0	60	0	150994944	58	6870
2026-01-12 22:39:46.45	117.06	26.69	-43.7	-49.8	8.2	3.33e-02	0	60	0	152043520	58	7512
2026-01-12 22:39:47.46	117.35	26.63	-43.6	-49.6	8.4	4.18e-02	0	60	0	154140672	58	7289
2026-01-12 22:39:48.47	117.63	26.56	-43.4	-49.1	8.8	3.96e-02	0	60	0	156237824	58	6885
2026-01-12 22:39:49.48	117.92	26.49	-43.3	-48.6	9.4	2.02e-02	0	60	0	158334976	58	6537
2026-01-12 22:39:50.49	118.20	26.42	-43.2	-48.4	9.6	9.35e-03	0	60	0	160432128	58	6393
2026-01-12 22:39:51.50	118.48	26.35	-43.3	-48.5	9.5	9.91e-03	0	60	0	161480704	58	6488
2026-01-12 22:39:52.51	118.77	26.28	-43.3	-48.7	9.3	1.65e-02	0	60	0	163577856	58	6576
2026-01-12 22:39:53.52	119.05	26.20	-43.4	-49.0	9.0	1.59e-02	0	60	0	165675008	58	6839
2026-01-12 22:39:54.53	119.33	26.13	-43.3	-48.7	9.3	1.97e-02	0	60	0	167772160	58	6622
2026-01-12 22:39:55.54	119.60	26.06	-43.3	-48.6	9.5	1.78e-02	0	60	0	169869312	58	6542
2026-01-12 22:39:56.55	119.88	25.99	-43.3	-48.7	9.3	1.48e-02	0	60	0	171966464	58	6611
2026-01-12 22:39:57.56	120.15	25.91	-43.3	-48.5	9.5	1.25e-02	0	60	0	173015040	58	6478
2026-01-12 22:39:58.57	120.43	25.84	-43.2	-48.5	9.6	1.36e-02	0	60	0	175112192	58	6443
2026-01-12 22:39:59.58	120.70	25.76	-43.2	-48.5	9.4	1.29e-02	0	60	0	177209344	58	6473
2026-01-12 22:40:00.59	120.97	25.69	-43.3	-48.7	9.3	1.28e-02	0	60	0	179306496	58	6603
2026-01-12 22:40:01.60	121.24	25.61	-43.2	-48.4	9.5	1.40e-02	0	60	0	181403648	58	6418
2026-01-12 22:40:02.62	121.51	25.54	-43.1	-48.1	9.9	1.12e-02	0	60	0	182452224	58	6147
2026-01-12 22:40:03.63	121.78	25.46	-43.0	-47.8	10.2	6.78e-03	0	60	0	184549376	58	5950
2026-01-12 22:40:04.64	122.05	25.38	-42.9	-47.7	10.3	5.39e-03	0	60	0	186646528	57	6219
2026-01-12 22:40:05.64	122.31	25.31	-43.0	-47.8	10.2	5.06e-03	0	60	0	188743680	57	6324
2026-01-12 22:40:06.65	122.57	25.23	-43.0	-48.0	10.1	5.61e-03	0	60	0	190840832	57	6447
2026-01-12 22:40:07.66	122.84	25.15	-43.1	-48.2	9.8	7.11e-03	0	60	0	191889408	57	6609
2026-01-12 22:40:08.67	123.10	25.07	-43.0	-47.9	10.0	8.59e-03	0	60	0	193986560	57	6419
2026-01-12 22:40:09.68	123.36	24.99	-42.8	-47.5	10.5	6.11e-03	0	60	0	196083712	57	6087
2026-01-12 22:40:10.69	123.62	24.91	-42.5	-46.8	11.3	3.17e-03	0	60	0	198180864	57	5594
2026-01-12 22:40:11.70	123.87	24.84	-42.4	-46.5	11.6	6.83e-04	0	60	0	200278016	56	5738
2026-01-12 22:40:12.71	124.13	24.76	-42.5	-46.7	11.4	8.48e-04	0	60	0	201326592	56	5907
2026-01-12 22:40:13.72	124.39	24.67	-42.6	-46.9	11.1	1.67e-03	0	60	0	203423744	56	6055
2026-01-12 22:40:14.73	124.64	24.59	-42.8	-47.3	10.7	2.27e-03	0	60	0	205520896	56	6338
2026-01-12 22:40:15.74	124.89	24.51	-42.6	-47.0	11.0	3.25e-03	0	60	0	207618048	56	6095
2026-01-12 22:40:16.75	125.14	24.43	-42.4	-46.4	11.6	1.40e-03	0	60	0	209715200	56	5721
2026-01-12 22:40:17.76	125.39	24.35	-42.4	-46.5	11.6	7.89e-04	0	60	0	210763776	56	5740
2026-01-12 22:40:18.77	125.64	24.27	-42.3	-46.4	11.7	5.61e-04	0	60	0	212860928	56	5679
2026-01-12 22:40:19.78	125.89	24.19	-42.4	-46.4	11.6	4.42e-04	0	60	0	214958080	56	5708
2026-01-12 22:40:20.79	126.13	24.10	-42.6	-47.0	11.0	1.21e-03	0	60	0	217055232	56	6077
2026-01-12 22:40:21.80	126.38	24.02	-42.7	-47.2	10.8	2.29e-03	0	60	0	219152384	56	6237
2026-01-12 22:40:22.80	126.62	23.94	-42.7	-47.3	10.7	4.00e-03	0	60	0	220200960	56	6329
2026-01-12 22:40:23.81	126.86	23.86	-42.7	-47.2	10.8	3.60e-03	0	60	0	222298112	56	6265
2026-01-12 22:40:24.82	127.10	23.77	-42.6	-46.9	11.2	1.99e-03	0	60	0	224395264	56	6020
2026-01-12 22:40:25.83	127.34	23.69	-42.3	-46.3	11.7	6.16e-04	0	60	0	226492416	56	5634
2026-01-12 22:40:26.84	127.58	23.60	-42.4	-46.5	11.6	4.87e-04	0	60	0	228589568	56	5754
2026-01-12 22:40:27.85	127.82	23.52	-42.4	-46.7	11.3	1.16e-03	0	60	0	229638144	56	5876
2026-01-12 22:40:28.86	128.06	23.44	-42.7	-47.3	10.8	1.93e-03	0	60	0	231735296	56	6314
2026-01-12 22:40:29.87	128.29	23.35	-43.1	-48.4	9.6	7.33e-03	0	60	0	233832448	56	7131
2026-01-12 22:40:30.88	128.52	23.27	-42.9	-47.8	10.1	8.71e-03	0	60	0	235929600	56	6687
2026-01-12 22:40:31.89	128.76	23.18	-42.7	-47.4	10.6	4.38e-03	0	60	0	238026752	56	6353
2026-01-12 22:40:32.90	128.99	23.10	-42.5	-46.7	11.3	2.19e-03	0	60	0	240123904	56	5902
2026-01-12 22:40:33.91	129.22	23.01	-42.1	-46.0	12.0	6.35e-04	0	60	0	241172480	56	5462
2026-01-12 22:40:34.92	129.45	22.92	-42.2	-46.1	11.9	3.11e-04	0	60	0	243269632	56	5504
2026-01-12 22:40:35.93	129.67	22.84	-42.1	-45.9	12.2	2.37e-04	0	60	0	245366784	56	5347
2026-01-12 22:40:36.94	129.90	22.75	-42.1	-46.0	12.1	2.42e-04	0	60	0	247463936	56	5404
2026-01-12 22:40:37.95	130.12	22.67	-42.1	-46.0	12.1	2.62e-04	0	60	0	249561088	56	5419
2026-01-12 22:40:38.96	130.35	22.58	-41.8	-45.5	12.4	2.24e-04	0	60	0	250609664	55	5432
2026-01-12 22:40:39.97	130.57	22.49	-41.4	-44.8	13.1	8.31e-05	0	60	0	252706816	54	5292
2026-01-12 22:40:40.98	130.79	22.41	-41.4	-44.7	13.2	2.36e-05	0	60	0	254803968	54	5268
2026-01-12 22:40:41.99	131.01	22.32	-41.5	-45.0	12.9	3.81e-05	0	60	0	256901120	54	5462
2026-01-12 22:40:43.00	131.23	22.23	-41.9	-45.8	12.1	9.46e-05	0	60	0	258998272	54	5991
2026-01-12 22:40:44.01	131.45	22.15	-42.5	-47.2	10.6	1.61e-03	0	60	0	260046848	55	6593
2026-01-12 22:40:45.02	131.67	22.06	-43.1	-48.3	9.6	8.43e-03	0	60	0	262144000	56	7117
2026-01-12 22:40:46.03	131.88	21.97	-43.3	-49.0	8.9	2.40e-02	0	60	0	264241152	57	7244
2026-01-12 22:40:47.04	132.09	21.89	-43.4	-49.2	8.6	3.98e-02	0	60	0	266338304	57	7445
2026-01-12 22:40:48.04	132.31	21.80	-43.1	-48.4	9.5	2.78e-02	0	60	0	268435456	57	6755
2026-01-12 22:40:49.05	132.52	21.71	-42.9	-47.9	10.1	1.10e-02	0	60	0	269484032	57	6357
2026-01-12 22:40:50.06	132.73	21.62	-42.7	-47.3	10.6	5.19e-03	0	60	0	271581184	57	5958
2026-01-12 22:40:51.07	132.94	21.54	-42.6	-47.1	10.8	2.39e-03	0	60	0	273678336	57	5822
2026-01-12 22:40:52.08	133.15	21.45	-42.7	-47.4	10.5	2.52e-03	0	60	0	275775488	57	6018
2026-01-12 22:40:53.09	133.35	21.36	-42.8	-47.7	10.3	4.60e-03	0	60	0	277872640	57	6237
2026-01-12 22:40:54.10	133.56	21.27	-42.7	-47.4	10.6	5.60e-03	0	60	0	278921216	57	5996
2026-01-12 22:40:55.11	133.76	21.18	-42.6	-47.1	10.9	3.56e-03	0	60	0	281018368	57	5798
2026-01-12 22:40:56.12	133.97	21.10	-42.3	-46.5	11.4	1.63e-03	0	60	0	283115520	56	5758
2026-01-12 22:40:57.13	134.17	21.01	-42.1	-46.0	12.0	4.67e-04	0	60	0	285212672	56	5417
2026-01-12 22:40:58.14	134.37	20.92	-42.0	-45.9	12.1	3.39e-04	0	60	0	287309824	56	5378
2026-01-12 22:40:59.15	134.57	20.83	-41.8	-45.6	12.2	2.54e-04	0	60	0	288358400	55	5512
2026-01-12 22:41:00.16	134.77	20.74	-42.0	-45.9	12.0	3.02e-04	0	60	0	290455552	55	5673
2026-01-12 22:41:01.17	134.97	20.66	-42.1	-46.1	11.6	4.01e-04	0	60	0	292552704	55	5855
2026-01-12 22:41:02.18	135.17	20.57	-42.1	-46.2	11.5	7.41e-04	0	60	0	294649856	55	5916
2026-01-12 22:41:03.19	135.36	20.48	-42.2	-46.4	11.4	8.45e-04	0	60	0	296747008	55	6031
2026-01-12 22:41:04.20	135.56	20.39	-42.2	-46.5	11.2	1.48e-03	0	60	0	297795584	55	6130
2026-01-12 22:41:05.21	135.75	20.30	-42.2	-46.4	11.3	1.11e-03	0	60	0	299892736	55	6051
2026-01-12 22:41:06.22	135.95	20.21	-42.0	-46.0	11.8	7.33e-04	0	60	0	301989888	55	5752
2026-01-12 22:41:07.23	136.14	20.13	-42.1	-46.2	11.6	5.10e-04	0	60	0	304087040	55	5879
2026-01-12 22:41:08.24	136.33	20.04	-42.1	-46.3	11.5	5.97e-04	0	60	0	306184192	55	5927
2026-01-12 22:41:09.25	136.52	19.95	-42.2	-46.5	11.3	9.61e-04	0	60	0	308281344	55	6081
2026-01-12 22:41:10.26	136.71	19.86	-42.4	-47.0	10.8	1.61e-03	0	60	0	309329920	55	6432
2026-01-12 22:41:11.27	136.89	19.77	-42.4	-47.1	10.7	2.80e-03	0	60	0	311427072	55	6511
2026-01-12 22:41:12.28	137.08	19.68	-42.4	-46.9	10.8	2.89e-03	0	60	0	313524224	55	6396
2026-01-12 22:41:13.29	137.26	19.60	-42.2	-46.5	11.2	2.04e-03	0	60	0	315621376	55	6117
2026-01-12 22:41:14.30	137.45	19.51	-41.9	-45.9	11.9	8.31e-04	0	60	0	317718528	55	5685
2026-01-12 22:41:15.31	137.63	19.42	-41.8	-45.6	12.2	5.41e-04	0	60	0	318767104	55	5509
2026-01-12 22:41:16.32	137.81	19.33	-41.6	-45.2	12.6	1.28e-04	0	60	0	320864256	55	5231
2026-01-12 22:41:17.33	138.00	19.24	-41.4	-44.9	13.0	3.43e-05	0	60	0	322961408	54	5342
2026-01-12 22:41:18.34	138.18	19.16	-41.4	-44.9	12.9	5.11e-05	0	60	0	325058560	54	5354
2026-01-12 22:41:19.35	138.36	19.07	-41.5	-45.1	12.7	6.94e-05	0	60	0	327155712	54	5474
2026-01-12 22:41:20.36	138.53	18.98	-41.6	-45.3	12.4	8.92e-05	0	60	0	328204288	54	5635
2026-01-12 22:41:21.36	138.71	18.89	-41.7	-45.5	12.2	1.94e-04	0	60	0	330301440	54	5729
2026-01-12 22:41:22.37	138.88	18.80	-41.7	-45.6	12.2	1.86e-04	0	60	0	332398592	54	5795
2026-01-12 22:41:23.38	139.06	18.72	-41.7	-45.5	12.3	2.44e-04	0	60	0	334495744	54	5734
2026-01-12 22:41:24.39	139.23	18.63	-41.7	-45.4	12.3	1.72e-04	0	60	0	336592896	54	5689
2026-01-12 22:41:25.40	139.41	18.54	-41.6	-45.2	12.5	1.43e-04	0	60	0	337641472	54	5568
2026-01-12 22:41:26.41	139.58	18.45	-41.5	-45.1	12.6	8.46e-05	0	60	0	339738624	54	5526
2026-01-12 22:41:27.42	139.75	18.36	-41.5	-45.1	12.6	1.01e-04	0	60	0	341835776	54	5524
2026-01-12 22:41:28.43	139.92	18.28	-41.6	-45.3	12.5	1.30e-04	0	60	0	343932928	54	5614
2026-01-12 22:41:29.44	140.09	18.19	-41.6	-45.2	12.5	1.04e-04	0	60	0	346030080	54	5570
2026-01-12 22:41:30.45	140.26	18.10	-41.7	-45.4	12.3	1.61e-04	0	60	0	347078656	54	5715
2026-01-12 22:41:31.45	140.43	18.02	-41.7	-45.5	12.2	2.08e-04	0	60	0	349175808	54	5726
2026-01-12 22:41:32.46	140.59	17.93	-41.7	-45.5	12.2	1.91e-04	0	60	0	351272960	54	5750
2026-01-12 22:41:33.47	140.76	17.84	-41.7	-45.5	12.2	2.27e-04	0	60	0	353370112	54	5759
2026-01-12 22:41:34.48	140.92	17.75	-41.6	-45.4	12.3	2.10e-04	0	60	0	355467264	54	5684
2026-01-12 22:41:35.49	141.09	17.67	-41.7	-45.5	12.2	2.33e-04	0	60	0	356515840	54	5727
2026-01-12 22:41:36.50	141.25	17.58	-41.6	-45.5	12.1	2.07e-04	0	60	0	358612992	54	5730
2026-01-12 22:41:37.51	141.41	17.49	-41.6	-45.3	12.4	1.65e-04	0	60	0	360710144	54	5602
2026-01-12 22:41:38.52	141.57	17.41	-41.6	-45.3	12.4	1.56e-04	0	60	0	362807296	54	5633
2026-01-12 22:41:39.53	141.73	17.32	-41.5	-45.2	12.5	1.47e-04	0	60	0	364904448	54	5556
2026-01-12 22:41:40.54	141.89	17.23	-41.4	-45.1	12.6	9.46e-05	0	60	0	365953024	54	5476
2026-01-12 22:41:41.55	142.05	17.15	-41.5	-45.2	12.4	9.15e-05	0	60	0	368050176	54	5576
2026-01-12 22:41:42.56	142.21	17.06	-41.5	-45.2	12.4	1.30e-04	0	60	0	370147328	54	5574
2026-01-12 22:41:43.57	142.36	16.97	-41.5	-45.1	12.6	9.07e-05	0	60	0	372244480	54	5479
2026-01-12 22:41:44.58	142.52	16.89	-41.5	-45.2	12.4	5.04e-04	0	60	0	374341632	54	5578
2026-01-12 22:41:45.59	142.67	16.80	-41.6	-45.3	12.3	1.50e-04	0	60	0	376438784	54	5644
2026-01-12 22:41:46.60	142.83	16.72	-41.7	-45.6	12.0	2.14e-04	0	60	0	377487360	54	5827
2026-01-12 22:41:47.61	142.98	16.63	-41.8	-45.8	11.8	3.87e-04	0	60	0	379584512	54	5927
2026-01-12 22:41:48.61	143.13	16.54	-41.7	-45.6	12.0	3.58e-04	0	60	0	381681664	54	5833
2026-01-12 22:41:49.63	143.29	16.46	-41.6	-45.4	12.2	2.59e-04	0	60	0	383778816	54	5720
2026-01-12 22:41:50.64	143.44	16.37	-41.5	-45.3	12.3	2.43e-04	0	60	0	385875968	54	5653
2026-01-12 22:41:51.65	143.59	16.29	-41.5	-45.1	12.5	1.28e-04	0	60	0	386924544	54	5495
2026-01-12 22:41:52.65	143.73	16.20	-41.5	-45.1	12.5	1.27e-04	0	60	0	389021696	54	5528
2026-01-12 22:41:53.66	143.88	16.12	-41.5	-45.1	12.5	1.44e-04	0	60	0	391118848	54	5528
2026-01-12 22:41:54.67	144.03	16.03	-41.6	-45.3	12.2	1.33e-03	0	60	0	393216000	53	5986
2026-01-12 22:41:55.68	144.18	15.95	-41.6	-45.5	12.0	3.09e-04	0	60	0	395313152	53	6095
2026-01-12 22:41:56.69	144.32	15.86	-41.7	-45.9	11.6	4.49e-04	0	60	0	396361728	54	6029
2026-01-12 22:41:57.70	144.47	15.78	-42.1	-46.4	11.1	1.01e-03	0	60	0	398458880	54	6378
2026-01-12 22:41:58.71	144.61	15.69	-42.1	-46.5	11.1	1.60e-03	0	60	0	400556032	54	6470
2026-01-12 22:41:59.72	144.75	15.61	-42.2	-46.8	10.7	2.02e-03	0	60	0	402653184	55	6304
2026-01-12 22:42:00.73	144.90	15.52	-42.4	-47.3	10.1	4.15e-03	0	60	0	404750336	55	6721
2026-01-12 22:42:01.74	145.04	15.44	-42.4	-47.3	10.2	4.76e-03	0	60	0	405798912	55	6687
2026-01-12 22:42:02.75	145.18	15.36	-42.4	-47.4	10.1	5.68e-03	0	60	0	407896064	55	6726
2026-01-12 22:42:03.76	145.32	15.27	-42.4	-47.2	10.3	6.41e-03	0	60	0	409993216	55	6592
2026-01-12 22:42:04.77	145.46	15.19	-42.1	-46.6	10.9	2.78e-03	0	60	0	412090368	55	6173
2026-01-12 22:42:05.78	145.60	15.10	-42.2	-46.6	10.9	2.51e-03	0	60	0	414187520	55	6183
2026-01-12 22:42:06.79	145.74	15.02	-42.0	-46.2	11.2	1.89e-03	0	60	0	415236096	55	5910
2026-01-12 22:42:07.80	145.87	14.94	-41.9	-46.1	11.3	1.30e-03	0	60	0	417333248	55	5855
2026-01-12 22:42:08.81	146.01	14.85	-42.1	-46.5	11.0	1.82e-03	0	60	0	419430400	55	6087
2026-01-12 22:42:09.82	146.15	14.77	-42.0	-46.3	11.1	1.50e-03	0	60	0	421527552	55	5963
2026-01-12 22:42:10.83	146.28	14.69	-42.1	-46.6	10.9	1.34e-03	0	60	0	423624704	55	6159
2026-01-12 22:42:11.84	146.42	14.61	-42.1	-46.7	10.8	2.87e-03	0	60	0	424673280	55	6221
2026-01-12 22:42:12.85	146.55	14.52	-42.2	-46.8	10.7	2.86e-03	0	60	0	426770432	55	6293
2026-01-12 22:42:13.86	146.68	14.44	-42.4	-47.4	10.1	5.20e-03	0	60	0	428867584	55	6725
2026-01-12 22:42:14.87	146.81	14.36	-42.4	-47.5	9.9	8.81e-03	0	60	0	430964736	55	6830
2026-01-12 22:42:15.88	146.95	14.28	-42.6	-47.9	9.5	1.05e-02	0	60	0	433061888	55	7154
2026-01-12 22:42:16.89	147.08	14.19	-42.6	-48.0	9.4	1.83e-02	0	60	0	434110464	55	7228
2026-01-12 22:42:17.90	147.21	14.11	-42.6	-47.9	9.5	1.47e-02	0	60	0	436207616	55	7186
2026-01-12 22:42:18.91	147.34	14.03	-42.9	-48.6	9.0	2.11e-02	0	60	0	438304768	56	7291
2026-01-12 22:42:19.92	147.46	13.95	-42.8	-48.3	9.2	2.20e-02	0	60	0	440401920	56	7117
2026-01-12 22:42:20.93	147.59	13.87	-42.8	-48.2	9.3	1.68e-02	0	60	0	442499072	56	7000
2026-01-12 22:42:21.93	147.72	13.78	-42.8	-48.3	9.2	1.97e-02	0	60	0	444596224	56	7094
2026-01-12 22:42:22.94	147.85	13.70	-42.7	-47.9	9.6	1.40e-02	0	60	0	445644800	56	6725
2026-01-12 22:42:23.96	147.97	13.62	-42.7	-48.0	9.6	1.15e-02	0	60	0	447741952	56	6806
2026-01-12 22:42:24.97	148.10	13.54	-42.7	-48.1	9.4	1.82e-02	0	60	0	449839104	56	6947
2026-01-12 22:42:25.97	148.22	13.46	-42.7	-47.9	9.6	1.65e-02	0	60	0	451936256	56	6733
2026-01-12 22:42:26.98	148.35	13.38	-42.8	-48.3	9.2	1.58e-02	0	60	0	454033408	56	7062
2026-01-12 22:42:27.99	148.47	13.30	-42.7	-47.9	9.6	1.53e-02	0	60	0	455081984	56	6755
2026-01-12 22:42:29.01	148.59	13.22	-42.6	-47.7	9.7	1.12e-02	0	60	0	457179136	56	6646
2026-01-12 22:42:30.01	148.71	13.14	-42.6	-47.9	9.6	1.46e-02	0	60	0	459276288	56	6744
2026-01-12 22:42:31.02	148.83	13.06	-42.6	-47.7	9.7	1.14e-02	0	60	0	461373440	56	6633
2026-01-12 22:42:32.03	148.96	12.98	-42.5	-47.6	9.8	8.23e-03	0	60	0	463470592	56	6564
2026-01-12 22:42:33.04	149.08	12.90	-42.5	-47.5	9.9	1.10e-02	0	60	0	464519168	56	6490
2026-01-12 22:42:34.05	149.20	12.82	-42.4	-47.4	10.1	8.61e-03	0	60	0	466616320	56	6354
2026-01-12 22:42:35.06	149.31	12.74	-42.4	-47.4	10.0	6.95e-03	0	60	0	468713472	56	6406
2026-01-12 22:42:36.07	149.43	12.66	-42.3	-47.0	10.5	5.23e-03	0	60	0	470810624	56	6078
2026-01-12 22:42:37.08	149.55	12.58	-42.3	-47.0	10.5	3.64e-03	0	60	0	472907776	56	6069
2026-01-12 22:42:38.09	149.67	12.50	-42.2	-46.9	10.5	4.29e-03	0	60	0	473956352	56	6000
2026-01-12 22:42:39.10	149.78	12.42	-42.2	-46.9	10.6	3.24e-03	0	60	0	476053504	56	6012
2026-01-12 22:42:40.11	149.90	12.34	-42.3	-46.9	10.4	2.84e-03	0	60	0	478150656	56	6045
2026-01-12 22:42:41.12	150.01	12.27	-42.3	-46.9	10.5	4.60e-03	0	60	0	480247808	56	6060
2026-01-12 22:42:42.13	150.13	12.19	-42.2	-46.8	10.6	3.88e-03	0	60	0	482344960	56	5941
2026-01-12 22:42:43.14	150.24	12.11	-42.3	-47.0	10.3	3.81e-03	0	60	0	483393536	56	6118
2026-01-12 22:42:44.15	150.36	12.03	-42.3	-47.0	10.3	4.28e-03	0	60	0	485490688	56	6104
2026-01-12 22:42:45.16	150.47	11.95	-42.3	-47.2	10.2	4.99e-03	0	60	0	487587840	56	6224
2026-01-12 22:42:46.17	150.58	11.87	-42.4	-47.5	9.8	9.97e-03	0	60	0	489684992	56	6482
2026-01-12 22:42:47.18	150.69	11.80	-42.5	-47.6	9.7	1.23e-02	0	60	0	491782144	56	6553
2026-01-12 22:42:48.19	150.80	11.72	-42.6	-48.1	9.2	1.44e-02	0	60	0	492830720	56	6907
2026-01-12 22:42:49.20	150.92	11.64	-42.6	-48.1	9.2	2.02e-02	0	60	0	494927872	56	6910
2026-01-12 22:42:50.21	151.03	11.56	-42.6	-48.1	9.2	1.69e-02	0	60	0	497025024	56	6918
2026-01-12 22:42:51.22	151.13	11.49	-42.8	-48.5	8.7	2.91e-02	0	60	0	499122176	56	7268
2026-01-12 22:42:52.23	151.24	11.41	-42.7	-48.2	9.0	2.89e-02	0	60	0	501219328	56	7037
2026-01-12 22:42:53.24	151.35	11.33	-42.7	-48.3	9.0	2.38e-02	0	60	0	502267904	56	7087
2026-01-12 22:42:54.24	151.46	11.26	-42.6	-48.2	9.1	2.75e-02	0	60	0	504365056	56	6978
2026-01-12 22:42:55.25	151.57	11.18	-42.5	-48.0	9.3	2.07e-02	0	60	0	506462208	56	6821
2026-01-12 22:42:56.26	151.67	11.10	-42.6	-48.2	9.0	2.23e-02	0	60	0	508559360	56	7006
2026-01-12 22:42:57.28	151.78	11.03	-42.6	-48.2	9.1	2.25e-02	0	60	0	510656512	56	6975
2026-01-12 22:42:58.29	151.89	10.95	-42.5	-47.8	9.4	2.06e-02	0	60	0	512753664	56	6716
2026-01-12 22:42:59.29	151.99	10.88	-42.5	-47.9	9.3	1.96e-02	0	60	0	513802240	56	6771
2026-01-12 22:43:00.31	152.10	10.80	-42.3	-47.4	9.7	1.22e-02	0	60	0	515899392	56	6398
2026-01-12 22:43:01.32	152.20	10.72	-42.4	-47.5	9.7	1.01e-02	0	60	0	517996544	56	6458
2026-01-12 22:43:02.33	152.30	10.65	-42.3	-47.4	9.8	1.35e-02	0	60	0	520093696	56	6379
2026-01-12 22:43:03.34	152.41	10.57	-42.3	-47.4	9.8	9.65e-03	0	60	0	522190848	56	6371
2026-01-12 22:43:04.35	152.51	10.50	-42.4	-47.7	9.4	1.32e-02	0	60	0	523239424	56	6620
2026-01-12 22:43:05.36	152.61	10.42	-42.3	-47.6	9.6	1.33e-02	0	60	0	525336576	56	6497
2026-01-12 22:43:06.37	152.71	10.35	-42.4	-47.8	9.3	1.31e-02	0	60	0	527433728	56	6675
2026-01-12 22:43:07.38	152.81	10.27	-42.5	-48.0	9.1	2.24e-02	0	60	0	529530880	56	6832
2026-01-12 22:43:08.39	152.91	10.20	-42.5	-48.0	9.1	2.17e-02	0	60	0	531628032	56	6838
2026-01-12 22:43:09.40	153.01	10.12	-42.6	-48.4	8.7	3.01e-02	0	60	0	532676608	56	7170
2026-01-12 22:43:10.41	153.11	10.05	-42.5	-48.1	8.9	3.44e-02	0	60	0	534773760	56	6956
2026-01-12 22:43:11.41	153.21	9.98	-42.4	-47.9	9.1	2.64e-02	0	60	0	536870912	56	6761
2026-01-12 22:43:12.42	153.31	9.90	-42.5	-48.1	8.9	2.76e-02	0	60	0	538968064	56	6940
2026-01-12 22:43:13.43	153.41	9.83	-42.4	-47.9	9.2	1.91e-02	0	60	0	541065216	56	6757
2026-01-12 22:43:14.44	153.51	9.76	-42.3	-47.7	9.3	1.87e-02	0	60	0	542113792	56	6631
2026-01-12 22:43:15.45	153.60	9.68	-42.3	-47.8	9.2	2.24e-02	0	60	0	544210944	56	6667
2026-01-12 22:43:16.46	153.70	9.61	-42.2	-47.5	9.5	1.49e-02	0	60	0	546308096	56	6447
2026-01-12 22:43:17.47	153.80	9.53	-42.3	-47.6	9.4	1.57e-02	0	60	0	548405248	56	6544
2026-01-12 22:43:18.48	153.89	9.46	-42.1	-47.3	9.7	1.51e-02	0	60	0	550502400	56	6316
2026-01-12 22:43:19.49	153.99	9.39	-42.2	-47.3	9.6	1.19e-02	0	60	0	551550976	56	6337
2026-01-12 22:43:20.50	154.08	9.32	-42.1	-47.3	9.7	1.09e-02	0	60	0	553648128	56	6289
2026-01-12 22:43:21.51	154.18	9.24	-41.8	-46.7	10.1	7.36e-03	0	60	0	555745280	55	6217
2026-01-12 22:43:22.52	154.27	9.17	-41.9	-46.9	9.9	6.47e-03	0	60	0	557842432	55	6362
2026-01-12 22:43:23.53	154.37	9.10	-41.9	-46.9	9.9	1.11e-02	0	60	0	559939584	55	6377
2026-01-12 22:43:24.54	154.46	9.03	-41.8	-46.8	10.0	6.88e-03	0	60	0	560988160	55	6306
2026-01-12 22:43:25.55	154.55	8.95	-41.9	-47.1	9.7	9.86e-03	0	60	0	563085312	55	6529
2026-01-12 22:43:26.56	154.64	8.88	-41.8	-46.8	9.9	9.17e-03	0	60	0	565182464	55	6337
2026-01-12 22:43:27.57	154.74	8.81	-41.9	-47.0	9.7	1.16e-02	0	60	0	567279616	55	6490
2026-01-12 22:43:28.58	154.83	8.74	-41.8	-46.9	9.8	1.32e-02	0	60	0	569376768	55	6402
2026-01-12 22:43:29.59	154.92	8.67	-41.9	-47.0	9.7	1.20e-02	0	60	0	570425344	55	6477
2026-01-12 22:43:30.60	155.01	8.60	-41.9	-47.1	9.5	1.29e-02	0	60	0	572522496	55	6569
2026-01-12 22:43:31.61	155.10	8.52	-41.9	-47.1	9.5	1.58e-02	0	60	0	574619648	55	6553
2026-01-12 22:43:32.62	155.19	8.45	-41.9	-47.3	9.3	1.73e-02	0	60	0	576716800	55	6680
2026-01-12 22:43:33.63	155.28	8.38	-42.0	-47.4	9.2	1.91e-02	0	60	0	578813952	55	6794
2026-01-12 22:43:34.64	155.37	8.31	-42.0	-47.5	9.1	2.33e-02	0	60	0	580911104	55	6815
2026-01-12 22:43:35.65	155.45	8.24	-42.0	-47.5	9.1	2.22e-02	0	60	0	581959680	55	6820
2026-01-12 22:43:36.66	155.54	8.17	-42.0	-47.6	9.0	2.81e-02	0	60	0	584056832	55	6922
2026-01-12 22:43:37.67	155.63	8.10	-41.9	-47.3	9.3	2.28e-02	0	60	0	586153984	55	6678
2026-01-12 22:43:38.68	155.72	8.03	-41.9	-47.4	9.1	2.24e-02	0	60	0	588251136	55	6769
2026-01-12 22:43:39.69	155.80	7.96	-43.5	-54.0	4.4	4.54e-02	0	60	0	590348288	57	12829
2026-01-12 22:43:40.70	155.89	7.89	-44.4	-58.7	3.8	1.46e+00	0	60	104	590348288	59	19646
2026-01-12 22:43:41.71	155.98	7.82	-44.7	-59.3	3.8	1.49e+00	0	60	104	590348288	60	19909
2026-01-12 22:43:42.72	156.06	7.75	-44.9	-59.5	3.8	1.49e+00	0	60	104	590348288	60	20483
2026-01-12 22:43:43.73	156.15	7.68	-45.1	-59.7	3.8	1.49e+00	0	60	104	590348288	60	20892
2026-01-12 22:43:44.74	156.23	7.61	-45.2	-59.9	3.8	1.49e+00	0	60	104	590348288	60	21288
2026-01-12 22:43:45.75	156.32	7.54	-45.3	-59.9	3.8	1.49e+00	0	60	104	590348288	61	20230
2026-01-12 22:43:46.76	156.40	7.47	-45.3	-60.0	3.8	1.49e+00	0	60	104	590348288	61	20331
2026-01-12 22:43:47.76	156.48	7.41	-45.3	-60.0	3.8	1.49e+00	0	60	104	590348288	61	20307
2026-01-12 22:43:48.77	156.57	7.34	-45.3	-59.9	3.8	1.49e+00	0	60	104	590348288	61	20193
2026-01-12 22:43:49.78	156.65	7.27	-45.2	-59.8	3.8	1.49e+00	0	60	104	590348288	61	19996
2026-01-12 22:43:50.79	156.73	7.20	-45.2	-59.7	3.8	1.49e+00	0	60	104	590348288	61	19754
2026-01-12 22:43:51.80	156.81	7.13	-45.1	-59.6	3.8	1.49e+00	0	60	104	590348288	61	19492
2026-01-12 22:43:52.81	156.90	7.06	-45.1	-59.6	3.8	1.49e+00	0	60	104	590348288	61	19503
2026-01-12 22:43:53.82	156.98	6.99	-45.1	-59.6	3.8	1.49e+00	0	60	104	590348288	61	19543
2026-01-12 22:43:54.83	157.06	6.93	-45.1	-59.5	3.8	1.49e+00	0	60	104	590348288	61	19365
2026-01-12 22:43:55.84	157.14	6.86	-45.1	-59.5	3.8	1.49e+00	0	60	104	590348288	61	19358
2026-01-12 22:43:56.85	157.22	6.79	-45.1	-59.5	3.8	1.49e+00	0	60	104	590348288	61	19370
2026-01-12 22:43:57.86	157.30	6.72	-45.1	-59.5	3.8	1.49e+00	0	60	104	590348288	61	19346
2026-01-12 22:43:58.87	157.38	6.66	-45.1	-59.5	3.8	1.49e+00	0	60	104	590348288	61	19321
2026-01-12 22:43:59.88	157.46	6.59	-45.1	-59.5	3.8	1.49e+00	0	60	104	590348288	61	19345
2026-01-12 22:44:00.89	157.54	6.52	-45.1	-59.5	3.8	1.49e+00	0	60	104	590348288	61	19385
2026-01-12 22:44:01.90	157.61	6.45	-45.1	-59.6	3.8	1.49e+00	0	60	104	590348288	61	19395
2026-01-12 22:44:02.91	157.69	6.39	-45.1	-59.5	3.8	1.49e+00	0	60	104	590348288	61	19319
2026-01-12 22:44:03.92	157.77	6.32	-45.1	-59.5	3.8	1.49e+00	0	60	104	590348288	61	19280
2026-01-12 22:44:04.93	157.85	6.25	-45.1	-59.5	3.8	1.49e+00	0	60	104	590348288	61	19309
2026-01-12 22:44:05.93	157.92	6.19	-45.0	-59.5	3.8	1.49e+00	0	60	104	590348288	61	19363
2026-01-12 22:44:06.94	158.00	6.12	-45.1	-59.5	3.8	1.49e+00	0	60	104	590348288	61	19319
2026-01-12 22:44:07.96	158.08	6.05	-45.0	-59.5	3.8	1.49e+00	0	60	104	590348288	61	19243
2026-01-12 22:44:08.97	158.16	5.99	-45.1	-59.5	3.8	1.49e+00	0	60	104	590348288	61	19323
2026-01-12 22:44:09.98	158.23	5.92	-45.0	-59.5	3.8	1.49e+00	0	60	104	590348288	61	19291
2026-01-12 22:44:10.99	158.31	5.86	-45.0	-59.5	3.8	1.49e+00	0	60	104	590348288	61	19275
2026-01-12 22:44:11.99	158.38	5.79	-45.0	-59.5	3.8	1.49e+00	0	60	104	590348288	61	19337
2026-01-12 22:44:13.00	158.46	5.72	-45.0	-59.5	3.8	1.49e+00	0	60	104	590348288	61	19269
2026-01-12 22:44:14.02	158.53	5.66	-45.1	-59.5	3.8	1.49e+00	0	60	104	590348288	61	19298
2026-01-12 22:44:15.03	158.61	5.59	-45.0	-59.5	3.8	1.49e+00	0	60	104	590348288	61	19239
2026-01-12 22:44:16.03	158.68	5.53	-45.0	-59.5	3.8	1.49e+00	0	60	104	590348288	61	19217
2026-01-12 22:44:17.04	158.75	5.46	-45.0	-59.5	3.8	1.49e+00	0	60	104	590348288	61	19227
2026-01-12 22:44:18.05	158.83	5.40	-45.0	-59.5	3.8	1.49e+00	0	60	104	590348288	61	19219
2026-01-12 22:44:19.06	158.90	5.33	-45.0	-59.5	3.8	1.49e+00	0	60	104	590348288	61	19174
2026-01-12 22:44:20.07	158.97	5.27	-45.0	-59.5	3.8	1.49e+00	0	60	104	590348288	61	19187
2026-01-12 22:44:21.08	159.04	5.20	-45.0	-59.5	3.8	1.49e+00	0	60	104	590348288	61	19223
2026-01-12 22:44:22.09	159.12	5.14	-45.0	-59.5	3.8	1.49e+00	0	60	104	590348288	61	19225
2026-01-12 22:44:23.10	159.19	5.07	-45.0	-59.5	3.8	1.49e+00	0	60	104	590348288	61	19180
2026-01-12 22:44:24.11	159.26	5.01	-45.0	-59.4	3.8	1.49e+00	0	60	104	590348288	61	19163
2026-01-12 22:44:25.12	159.33	4.95	-45.0	-59.5	3.8	1.49e+00	0	60	104	590348288	61	19188
2026-01-12 22:44:26.13	159.40	4.88	-45.0	-59.5	3.8	1.49e+00	0	60	104	590348288	61	19215
2026-01-12 22:44:27.14	159.47	4.82	-45.0	-59.5	3.8	1.49e+00	0	60	104	590348288	61	19175
2026-01-12 22:44:28.15	159.54	4.75	-45.0	-59.5	3.8	1.49e+00	0	60	104	590348288	61	19210
2026-01-12 22:44:29.16	159.61	4.69	-45.0	-59.4	3.8	1.49e+00	0	60	104	590348288	61	19148
2026-01-12 22:44:30.16	159.68	4.63	-45.0	-59.5	3.8	1.49e+00	0	60	104	590348288	61	19207
2026-01-12 22:44:31.17	159.75	4.56	-45.0	-59.4	3.8	1.49e+00	0	60	104	590348288	61	19163
2026-01-12 22:44:32.18	159.82	4.50	-45.0	-59.5	3.8	1.49e+00	0	60	104	590348288	61	19181
2026-01-12 22:44:33.20	159.89	4.44	-45.0	-59.4	3.8	1.49e+00	0	60	104	590348288	61	19156
2026-01-12 22:44:34.21	159.96	4.37	-45.0	-59.5	3.8	1.49e+00	0	60	104	590348288	61	19181
2026-01-12 22:44:35.22	160.03	4.31	-45.0	-59.4	3.8	1.49e+00	0	60	104	590348288	61	19167
2026-01-12 22:44:36.23	160.09	4.25	-45.0	-59.5	3.8	1.49e+00	0	60	104	590348288	61	19177
2026-01-12 22:44:37.24	160.16	4.18	-45.0	-59.5	3.8	1.49e+00	0	60	104	590348288	61	19170
2026-01-12 22:44:38.25	160.23	4.12	-45.0	-59.5	3.8	1.49e+00	0	60	104	590348288	61	19190
2026-01-12 22:44:39.26	160.30	4.06	-45.0	-59.4	3.8	1.49e+00	0	60	104	590348288	61	19163
2026-01-12 22:44:40.27	160.36	4.00	-45.0	-59.5	3.8	1.49e+00	0	60	104	590348288	61	19184
2026-01-12 22:44:41.28	160.43	3.93	-45.0	-59.4	3.8	1.49e+00	0	60	104	590348288	61	19159
2026-01-12 22:44:42.29	160.50	3.87	-45.0	-59.5	3.8	1.49e+00	0	60	104	590348288	61	19191
2026-01-12 22:44:43.30	160.56	3.81	-45.0	-59.4	3.8	1.49e+00	0	60	104	590348288	61	19147
2026-01-12 22:44:44.32	160.63	3.75	-45.0	-59.5	3.8	1.49e+00	0	60	104	590348288	61	19194
2026-01-12 22:44:45.33	160.69	3.69	-45.0	-59.4	3.8	1.49e+00	0	60	104	590348288	61	19058
2026-01-12 22:44:46.33	160.76	3.62	-45.0	-59.4	3.8	1.49e+00	0	60	104	590348288	61	19065
2026-01-12 22:44:47.34	160.82	3.56	-45.0	-59.5	3.8	1.49e+00	0	60	104	590348288	61	19188
2026-01-12 22:44:48.36	160.89	3.50	-45.0	-59.4	3.8	1.49e+00	0	60	104	590348288	61	19148
2026-01-12 22:44:49.37	160.95	3.44	-45.0	-59.4	3.8	1.49e+00	0	60	104	590348288	61	19134
2026-01-12 22:44:50.38	161.02	3.38	-45.0	-59.4	3.8	1.49e+00	0	60	104	590348288	61	19140
2026-01-12 22:44:51.39	161.08	3.32	-45.0	-59.4	3.8	1.49e+00	0	60	104	590348288	61	19145
2026-01-12 22:44:52.40	161.15	3.25	-45.0	-59.4	3.8	1.49e+00	0	60	104	590348288	61	19146
2026-01-12 22:44:53.41	161.21	3.19	-45.0	-59.5	3.8	1.49e+00	0	60	104	590348288	61	19188
2026-01-12 22:44:54.41	161.27	3.13	-45.0	-59.4	3.8	1.49e+00	0	60	104	590348288	61	19144
2026-01-12 22:44:55.42	161.33	3.07	-45.0	-59.5	3.8	1.49e+00	0	60	104	590348288	61	19170
2026-01-12 22:44:56.43	161.40	3.01	-45.0	-59.4	3.8	1.49e+00	0	60	104	590348288	61	19164
2026-01-12 22:44:57.44	161.46	2.95	-45.0	-59.4	3.8	1.49e+00	0	60	104	590348288	61	19131
2026-01-12 22:44:58.45	161.52	2.89	-45.0	-59.4	3.8	1.49e+00	0	60	104	590348288	61	19148
2026-01-12 22:44:59.46	161.58	2.83	-45.0	-59.4	3.8	1.49e+00	0	60	104	590348288	61	19148
2026-01-12 22:45:00.47	161.65	2.77	-45.0	-59.4	3.8	1.49e+00	0	60	104	590348288	61	19084
2026-01-12 22:45:01.48	161.71	2.71	-45.0	-59.4	3.8	1.49e+00	0	60	104	590348288	61	19086
2026-01-12 22:45:02.49	161.77	2.65	-45.0	-59.5	3.8	1.49e+00	0	60	104	590348288	61	19174
2026-01-12 22:45:03.50	161.83	2.59	-45.0	-59.4	3.8	1.49e+00	0	60	104	590348288	61	19104
2026-01-12 22:45:04.51	161.89	2.53	-45.0	-59.4	3.8	1.49e+00	0	60	104	590348288	61	19121
2026-01-12 22:45:05.52	161.95	2.47	-45.0	-59.4	3.8	1.49e+00	0	60	104	590348288	61	19101
2026-01-12 22:45:06.53	162.01	2.41	-45.0	-59.4	3.8	1.49e+00	0	60	104	590348288	61	19153
2026-01-12 22:45:07.54	162.07	2.35	-45.0	-59.4	3.8	1.49e+00	0	60	104	590348288	61	19089
2026-01-12 22:45:08.55	162.13	2.29	-45.0	-59.4	3.8	1.49e+00	0	60	104	590348288	61	19103
2026-01-12 22:45:09.56	162.19	2.23	-45.0	-59.4	3.8	1.49e+00	0	60	104	590348288	61	19150
2026-01-12 22:45:10.57	162.25	2.17	-45.0	-59.4	3.8	1.49e+00	0	60	104	590348288	61	19148
2026-01-12 22:45:11.58	162.31	2.11	-45.0	-59.4	3.8	1.49e+00	0	60	104	590348288	61	19146
2026-01-12 22:45:12.59	162.37	2.05	-45.0	-59.4	3.8	1.49e+00	0	60	104	590348288	61	19119
2026-01-12 22:45:13.59	162.43	2.00	-45.0	-59.4	3.8	1.49e+00	0	60	104	590348288	61	19160
2026-01-12 22:45:14.60	162.48	1.94	-45.0	-59.4	3.8	1.49e+00	0	60	104	590348288	61	19167

#Closed at: 2026-01-12 22:45:15
#Recorded file [590 MB]: D:/lorett/data/31039_260113_013733.dat