passes_logs/2026/01/12/R2.0S_Moscow/R2.0S_Moscow__20260112_104216_NOAA_20_JPSS-1_rec.log

#Pass ID: 20260112_104216_NOAA 20 (JPSS-1)
#Satellite: NOAA 20 (JPSS-1)
#Configuration: NOAA 20
#almurnet v.1.7.20251203
#Start time: 2026-01-12 10:42:17

#Version: 2.2.20231116
#Station: R2.0S_Moscow
#Location: 37.707566 lon 55.798166 lat
#TLE: 1 43013U 17073A   26011.31235446  .00000090  00000+0  63634-4 0  9991
#TLE: 2 43013  98.7632 312.2907 0001646  44.6084 315.5224 14.19535308422217

#Time	Az	El	Level	Level2	SNR	BER	BlckErr	Temp	State	Recorded	gain1	gain2
2026-01-12 10:42:17.66	183.78	2.05	-43.9	-58.1	3.8	1.49e+00	0	51	0	0	58	19522
2026-01-12 10:42:18.66	183.82	2.11	-43.8	-58.1	3.8	1.49e+00	0	51	104	0	59	18444
2026-01-12 10:42:19.68	183.86	2.18	-43.8	-58.1	3.8	1.49e+00	0	51	104	0	59	18440
2026-01-12 10:42:20.69	183.90	2.24	-43.8	-58.1	3.8	1.49e+00	0	51	104	0	59	18427
2026-01-12 10:42:21.70	183.93	2.30	-43.8	-58.1	3.8	1.49e+00	0	51	104	0	59	18415
2026-01-12 10:42:22.71	183.97	2.37	-43.8	-58.1	3.8	1.49e+00	0	51	104	0	59	18444
2026-01-12 10:42:23.72	184.01	2.43	-43.8	-58.1	3.8	1.49e+00	0	51	104	0	59	18423
2026-01-12 10:42:24.73	184.05	2.49	-43.8	-58.1	3.8	1.49e+00	0	52	104	0	59	18399
2026-01-12 10:42:25.74	184.09	2.56	-43.8	-58.1	3.8	1.49e+00	0	52	104	0	59	18417
2026-01-12 10:42:26.75	184.13	2.62	-43.9	-58.1	3.8	1.49e+00	0	52	104	0	59	18389
2026-01-12 10:42:27.76	184.17	2.69	-43.9	-58.1	3.8	1.49e+00	0	52	104	0	59	18404
2026-01-12 10:42:28.78	184.21	2.75	-43.8	-58.1	3.8	1.49e+00	0	52	104	0	59	18390
2026-01-12 10:42:29.79	184.25	2.81	-43.8	-58.1	3.8	1.49e+00	0	52	104	0	59	18428
2026-01-12 10:42:30.80	184.29	2.88	-43.8	-58.1	3.8	1.49e+00	0	52	104	0	59	18421
2026-01-12 10:42:31.81	184.33	2.94	-43.8	-58.1	3.8	1.49e+00	0	52	104	0	59	18431
2026-01-12 10:42:32.82	184.37	3.01	-43.9	-58.1	3.8	1.49e+00	0	52	104	0	59	18407
2026-01-12 10:42:33.83	184.41	3.07	-43.8	-58.1	3.8	1.49e+00	0	52	104	0	59	18406
2026-01-12 10:42:34.84	184.46	3.14	-43.8	-58.1	3.8	1.49e+00	0	52	104	0	59	18403
2026-01-12 10:42:35.85	184.50	3.20	-43.8	-58.1	3.8	1.49e+00	0	52	104	0	59	18365
2026-01-12 10:42:36.86	184.54	3.27	-43.8	-58.1	3.8	1.49e+00	0	52	104	0	59	18444
2026-01-12 10:42:37.87	184.58	3.33	-43.8	-58.1	3.8	1.49e+00	0	52	104	0	59	18445
2026-01-12 10:42:38.88	184.62	3.40	-43.8	-58.1	3.8	1.49e+00	0	52	104	0	59	18393
2026-01-12 10:42:39.89	184.66	3.46	-43.9	-58.1	3.8	1.49e+00	0	52	104	0	59	18394
2026-01-12 10:42:40.90	184.70	3.53	-43.8	-58.1	3.8	1.49e+00	0	52	104	0	59	18373
2026-01-12 10:42:41.91	184.75	3.60	-43.8	-58.1	3.8	1.49e+00	0	53	104	0	59	18409
2026-01-12 10:42:42.92	184.79	3.66	-43.8	-58.1	3.8	1.49e+00	0	53	104	0	59	18353
2026-01-12 10:42:43.93	184.83	3.73	-43.8	-58.1	3.8	1.49e+00	0	53	104	0	59	18406
2026-01-12 10:42:44.94	184.87	3.79	-43.8	-58.1	3.8	1.49e+00	0	53	104	0	59	18380
2026-01-12 10:42:45.95	184.92	3.86	-43.8	-58.1	3.8	1.49e+00	0	53	104	0	59	18439
2026-01-12 10:42:46.96	184.96	3.93	-43.8	-58.1	3.8	1.49e+00	0	53	104	0	59	18389
2026-01-12 10:42:47.97	185.00	3.99	-43.9	-58.1	3.8	1.49e+00	0	53	104	0	59	18445
2026-01-12 10:42:48.98	185.05	4.06	-43.8	-58.1	3.8	1.49e+00	0	53	104	0	59	18308
2026-01-12 10:42:49.99	185.09	4.13	-43.8	-58.0	3.8	1.49e+00	0	53	104	0	59	18289
2026-01-12 10:42:51.01	185.13	4.20	-43.8	-58.0	3.8	1.49e+00	0	53	104	0	59	18264
2026-01-12 10:42:52.02	185.18	4.26	-43.8	-58.0	3.8	1.49e+00	0	53	104	0	59	18254
2026-01-12 10:42:53.03	185.22	4.33	-43.8	-58.0	3.8	1.49e+00	0	53	104	0	59	18122
2026-01-12 10:42:54.04	185.27	4.40	-43.8	-57.8	3.8	1.49e+00	0	53	104	0	59	17844
2026-01-12 10:42:55.05	185.31	4.47	-43.8	-57.7	3.8	1.49e+00	0	53	104	0	59	17640
2026-01-12 10:42:56.06	185.36	4.53	-43.8	-57.6	3.8	1.49e+00	0	54	104	0	59	17317
2026-01-12 10:42:57.07	185.40	4.60	-43.8	-57.6	3.8	1.49e+00	0	53	104	0	59	17301
2026-01-12 10:42:58.08	185.45	4.67	-43.8	-57.4	3.8	1.49e+00	0	53	104	0	59	16910
2026-01-12 10:42:59.09	185.49	4.74	-43.8	-57.4	3.8	1.49e+00	0	53	104	0	59	16944
2026-01-12 10:43:00.10	185.54	4.81	-43.8	-57.5	3.8	1.49e+00	0	54	104	0	59	17229
2026-01-12 10:43:01.12	185.58	4.88	-43.8	-57.5	3.8	1.49e+00	0	53	104	0	59	17168
2026-01-12 10:43:02.13	185.63	4.95	-43.8	-57.4	3.8	1.49e+00	0	54	104	0	59	17003
2026-01-12 10:43:03.14	185.68	5.02	-43.8	-57.2	3.8	1.49e+00	0	54	104	0	59	16677
2026-01-12 10:43:04.15	185.72	5.09	-43.8	-57.2	3.8	1.49e+00	0	54	104	0	59	16615
2026-01-12 10:43:05.16	185.77	5.15	-43.8	-57.2	3.8	1.49e+00	0	54	104	0	59	16506
2026-01-12 10:43:06.17	185.82	5.22	-43.8	-57.1	3.8	1.49e+00	0	54	104	0	59	16336
2026-01-12 10:43:07.18	185.86	5.29	-43.8	-57.0	3.8	1.49e+00	0	54	104	0	59	16229
2026-01-12 10:43:08.19	185.91	5.36	-43.8	-57.1	3.8	1.49e+00	0	54	104	0	59	16502
2026-01-12 10:43:09.20	185.96	5.43	-43.8	-57.0	3.8	1.49e+00	0	54	104	0	59	16141
2026-01-12 10:43:10.21	186.01	5.50	-43.8	-56.9	3.8	1.49e+00	0	54	104	0	59	16006
2026-01-12 10:43:11.23	186.05	5.58	-43.7	-56.5	3.8	1.49e+00	0	54	104	0	59	15396
2026-01-12 10:43:12.24	186.10	5.65	-43.7	-56.5	3.8	1.49e+00	0	54	104	0	59	15290
2026-01-12 10:43:13.25	186.15	5.72	-43.7	-56.2	3.8	1.49e+00	0	54	104	0	59	14862
2026-01-12 10:43:14.26	186.20	5.79	-43.7	-56.2	3.8	1.49e+00	0	54	104	0	59	14752
2026-01-12 10:43:15.27	186.25	5.86	-43.7	-55.9	3.8	1.48e+00	0	54	104	0	59	14297
2026-01-12 10:43:16.28	186.30	5.93	-43.7	-55.8	3.8	1.48e+00	0	54	104	0	59	14105
2026-01-12 10:43:17.29	186.35	6.00	-43.7	-55.6	3.8	1.48e+00	0	54	104	0	59	13758
2026-01-12 10:43:18.30	186.40	6.07	-43.7	-55.5	3.8	1.48e+00	0	54	104	0	59	13659
2026-01-12 10:43:19.31	186.44	6.15	-43.7	-55.4	3.9	1.44e+00	0	54	104	0	59	13439
2026-01-12 10:43:20.33	186.50	6.22	-43.6	-55.0	4.1	1.44e+00	0	54	0	0	59	12853
2026-01-12 10:43:21.34	186.55	6.29	-43.6	-55.0	3.9	1.45e+00	0	54	104	0	59	12871
2026-01-12 10:43:22.35	186.60	6.36	-43.6	-54.4	4.2	1.41e+00	0	54	0	0	59	11963
2026-01-12 10:43:23.36	186.65	6.44	-43.6	-54.4	4.2	1.39e+00	0	55	0	0	59	11987
2026-01-12 10:43:24.37	186.70	6.51	-43.5	-53.9	4.4	1.34e+00	88	55	0	0	59	11413
2026-01-12 10:43:25.38	186.75	6.58	-43.5	-53.5	4.5	1.15e+00	0	55	0	2097152	59	10841
2026-01-12 10:43:26.39	186.80	6.66	-43.5	-53.3	4.6	9.66e-01	0	55	0	3145728	58	11231
2026-01-12 10:43:27.40	186.85	6.73	-43.4	-52.6	5.0	7.75e-01	0	55	0	5242880	58	10304
2026-01-12 10:43:28.41	186.90	6.80	-43.3	-51.9	5.4	6.14e-01	0	55	0	7340032	58	9535
2026-01-12 10:43:29.42	186.96	6.88	-43.2	-51.4	5.7	4.49e-01	0	55	0	9437184	58	9049
2026-01-12 10:43:30.43	187.01	6.95	-43.1	-50.6	6.3	3.12e-01	0	55	0	11534336	58	8247
2026-01-12 10:43:31.44	187.06	7.03	-43.0	-50.4	6.5	2.32e-01	0	55	0	12582912	58	8017
2026-01-12 10:43:32.46	187.11	7.10	-42.8	-49.5	7.3	1.81e-01	0	55	0	14680064	57	7712
2026-01-12 10:43:33.47	187.17	7.18	-42.7	-49.2	7.6	1.06e-01	0	55	0	16777216	57	7432
2026-01-12 10:43:34.48	187.22	7.25	-42.5	-48.5	8.2	7.26e-02	0	55	0	18874368	57	6857
2026-01-12 10:43:35.49	187.27	7.33	-42.4	-48.1	8.7	4.48e-02	0	55	0	20971520	56	6902
2026-01-12 10:43:36.50	187.33	7.40	-42.3	-48.0	8.8	3.06e-02	0	55	0	22020096	56	6834
2026-01-12 10:43:37.51	187.38	7.48	-42.2	-47.6	9.2	1.90e-02	0	55	0	24117248	56	6507
2026-01-12 10:43:38.52	187.44	7.55	-42.2	-47.7	9.2	1.81e-02	0	55	0	26214400	56	6576
2026-01-12 10:43:39.53	187.49	7.63	-42.1	-47.3	9.5	1.51e-02	0	55	0	28311552	56	6308
2026-01-12 10:43:40.54	187.55	7.70	-42.2	-47.6	9.2	2.12e-02	0	55	0	30408704	56	6525
2026-01-12 10:43:41.55	187.60	7.78	-42.2	-47.7	9.2	2.56e-02	0	55	0	31457280	56	6571
2026-01-12 10:43:42.56	187.66	7.86	-42.4	-48.0	8.8	2.65e-02	0	55	0	33554432	56	6848
2026-01-12 10:43:43.57	187.71	7.93	-42.5	-48.4	8.4	3.97e-02	0	55	0	35651584	56	7145
2026-01-12 10:43:44.58	187.77	8.01	-42.7	-49.1	7.7	6.71e-02	0	55	0	37748736	56	7773
2026-01-12 10:43:45.60	187.82	8.09	-42.4	-48.2	8.6	9.23e-02	0	55	0	39845888	56	7001
2026-01-12 10:43:46.61	187.88	8.17	-43.3	-52.1	5.6	6.50e-02	0	56	0	41943040	57	10310
2026-01-12 10:43:47.62	187.94	8.24	-42.7	-48.9	8.0	1.49e+00	0	56	104	41943040	57	7153
2026-01-12 10:43:48.63	188.00	8.32	-42.5	-48.2	8.6	4.90e-01	0	55	0	42991616	57	6645
2026-01-12 10:43:49.64	188.05	8.40	-43.2	-51.2	6.3	2.37e-02	0	56	0	45088768	56	9920
2026-01-12 10:43:50.65	188.11	8.48	-43.0	-50.2	6.4	1.49e+00	0	55	104	45088768	58	7812
2026-01-12 10:43:51.65	188.17	8.55	-42.3	-47.5	9.4	1.83e-02	0	56	0	46137344	56	6461
2026-01-12 10:43:52.67	188.23	8.63	-42.2	-47.3	9.7	1.19e-02	0	56	0	48234496	56	6333
2026-01-12 10:43:53.68	188.29	8.71	-42.2	-47.3	9.7	1.11e-02	0	56	0	50331648	56	6279
2026-01-12 10:43:54.68	188.34	8.79	-42.2	-47.3	9.7	1.09e-02	0	56	0	51380224	56	6291
2026-01-12 10:43:55.69	188.40	8.87	-42.1	-47.1	9.9	9.95e-03	0	56	0	53477376	56	6138
2026-01-12 10:43:56.70	188.46	8.95	-42.1	-47.0	10.0	8.96e-03	0	56	0	55574528	56	6100
2026-01-12 10:43:57.71	188.52	9.03	-42.1	-47.1	9.9	7.84e-03	0	56	0	57671680	56	6141
2026-01-12 10:43:58.72	188.58	9.11	-42.1	-47.1	10.0	6.66e-03	0	56	0	59768832	56	6154
2026-01-12 10:43:59.73	188.64	9.19	-42.1	-47.0	10.1	6.67e-03	0	56	0	60817408	56	6076
2026-01-12 10:44:00.74	188.70	9.27	-42.1	-47.1	10.0	7.83e-03	0	56	0	62914560	56	6151
2026-01-12 10:44:01.75	188.77	9.35	-42.1	-46.9	10.2	6.12e-03	0	56	0	65011712	56	6017
2026-01-12 10:44:02.76	188.83	9.43	-42.1	-46.9	10.2	6.46e-03	0	56	0	67108864	56	6022
2026-01-12 10:44:03.77	188.89	9.51	-42.0	-46.8	10.3	5.23e-03	0	56	0	69206016	56	5970
2026-01-12 10:44:04.78	188.95	9.60	-42.0	-46.8	10.3	5.48e-03	0	56	0	71303168	56	5969
2026-01-12 10:44:05.79	189.01	9.68	-42.0	-46.8	10.3	5.78e-03	0	56	0	72351744	56	5963
2026-01-12 10:44:06.80	189.08	9.76	-42.1	-46.9	10.2	5.85e-03	0	56	0	74448896	56	6030
2026-01-12 10:44:07.81	189.14	9.84	-42.1	-47.0	10.1	7.23e-03	0	56	0	76546048	56	6120
2026-01-12 10:44:08.81	189.20	9.92	-42.0	-46.8	10.3	6.24e-03	0	56	0	78643200	56	5942
2026-01-12 10:44:09.82	189.27	10.01	-42.1	-46.8	10.4	5.41e-03	0	56	0	80740352	56	5934
2026-01-12 10:44:10.83	189.33	10.09	-42.1	-46.9	10.3	5.38e-03	0	56	0	81788928	56	6020
2026-01-12 10:44:11.84	189.39	10.17	-42.1	-46.8	10.4	5.82e-03	0	56	0	83886080	56	5956
2026-01-12 10:44:12.85	189.46	10.25	-42.0	-46.7	10.5	5.28e-03	0	56	0	85983232	56	5888
2026-01-12 10:44:13.86	189.52	10.34	-42.0	-46.6	10.5	3.95e-03	0	56	0	88080384	56	5849
2026-01-12 10:44:14.87	189.59	10.42	-41.8	-46.5	10.4	3.84e-03	0	56	0	90177536	55	6112
2026-01-12 10:44:15.88	189.66	10.51	-41.8	-46.4	10.5	3.73e-03	0	56	0	91226112	55	6003
2026-01-12 10:44:16.89	189.72	10.59	-41.7	-46.3	10.6	3.46e-03	0	56	0	93323264	55	5939
2026-01-12 10:44:17.90	189.79	10.68	-41.7	-46.3	10.6	2.83e-03	0	56	0	95420416	55	5960
2026-01-12 10:44:18.91	189.86	10.76	-41.7	-46.2	10.7	3.84e-03	0	56	0	97517568	55	5921
2026-01-12 10:44:19.92	189.92	10.85	-41.7	-46.2	10.7	3.35e-03	0	56	0	99614720	55	5888
2026-01-12 10:44:20.93	189.99	10.93	-41.7	-46.2	10.7	2.82e-03	0	56	0	100663296	55	5915
2026-01-12 10:44:21.94	190.06	11.02	-41.6	-46.1	10.8	2.55e-03	0	56	0	102760448	55	5836
2026-01-12 10:44:22.95	190.13	11.10	-41.6	-45.8	11.1	2.11e-03	0	56	0	104857600	55	5653
2026-01-12 10:44:23.96	190.20	11.19	-41.5	-45.7	11.3	1.44e-03	0	56	0	106954752	55	5578
2026-01-12 10:44:24.97	190.27	11.28	-41.5	-45.8	11.3	1.22e-03	0	56	0	109051904	55	5594
2026-01-12 10:44:25.98	190.34	11.36	-41.5	-45.6	11.4	1.14e-03	0	56	0	110100480	55	5512
2026-01-12 10:44:26.98	190.40	11.45	-41.5	-45.6	11.4	9.37e-04	0	56	0	112197632	55	5513
2026-01-12 10:44:27.99	190.47	11.54	-41.5	-45.6	11.5	8.28e-04	0	57	0	114294784	55	5507
2026-01-12 10:44:29.00	190.55	11.62	-41.5	-45.5	11.6	7.41e-04	0	57	0	116391936	55	5429
2026-01-12 10:44:30.01	190.62	11.71	-41.5	-45.5	11.7	5.75e-04	0	56	0	118489088	54	5731
2026-01-12 10:44:31.02	190.69	11.80	-41.4	-45.3	11.9	5.16e-04	0	56	0	119537664	54	5602
2026-01-12 10:44:32.03	190.76	11.89	-41.4	-45.2	12.0	3.76e-04	0	57	0	121634816	54	5585
2026-01-12 10:44:33.04	190.83	11.98	-41.4	-45.2	12.0	3.34e-04	0	57	0	123731968	54	5562
2026-01-12 10:44:34.05	190.91	12.07	-41.3	-45.1	12.1	3.00e-04	0	57	0	125829120	54	5512
2026-01-12 10:44:35.06	190.98	12.16	-41.3	-45.0	12.2	2.52e-04	0	57	0	127926272	54	5452
2026-01-12 10:44:36.07	191.05	12.24	-41.4	-45.2	12.1	2.58e-04	0	57	0	128974848	54	5543
2026-01-12 10:44:37.08	191.13	12.33	-41.3	-45.1	12.1	2.55e-04	0	57	0	131072000	54	5519
2026-01-12 10:44:38.09	191.20	12.42	-41.3	-45.1	12.2	2.63e-04	0	57	0	133169152	54	5489
2026-01-12 10:44:39.10	191.28	12.52	-41.3	-45.1	12.1	2.95e-04	0	57	0	135266304	54	5502
2026-01-12 10:44:40.11	191.35	12.61	-41.3	-45.1	12.2	2.67e-04	0	57	0	137363456	54	5478
2026-01-12 10:44:41.12	191.43	12.70	-41.3	-45.1	12.1	2.61e-04	0	57	0	139460608	54	5507
2026-01-12 10:44:42.13	191.51	12.79	-41.4	-45.2	12.1	2.75e-04	0	57	0	140509184	54	5536
2026-01-12 10:44:43.14	191.58	12.88	-41.4	-45.2	12.1	2.54e-04	0	57	0	142606336	54	5534
2026-01-12 10:44:44.14	191.66	12.97	-41.3	-45.1	12.2	2.25e-04	0	57	0	144703488	54	5484
2026-01-12 10:44:45.15	191.74	13.06	-41.3	-45.1	12.2	2.43e-04	0	57	0	146800640	54	5497
2026-01-12 10:44:46.16	191.81	13.16	-41.4	-45.2	12.1	2.62e-04	0	57	0	147849216	54	5530
2026-01-12 10:44:47.17	191.89	13.25	-41.4	-45.1	12.2	2.49e-04	0	57	0	149946368	54	5496
2026-01-12 10:44:48.18	191.97	13.34	-41.4	-45.2	12.1	2.81e-04	0	57	0	152043520	54	5560
2026-01-12 10:44:49.19	192.05	13.44	-41.4	-45.1	12.2	2.43e-04	0	57	0	154140672	54	5522
2026-01-12 10:44:50.20	192.13	13.53	-41.4	-45.1	12.2	2.80e-04	0	57	0	156237824	54	5505
2026-01-12 10:44:51.21	192.21	13.62	-41.4	-45.1	12.2	2.27e-04	0	57	0	157286400	54	5510
2026-01-12 10:44:52.22	192.29	13.72	-41.3	-45.0	12.3	2.20e-04	0	57	0	159383552	54	5404
2026-01-12 10:44:53.23	192.38	13.81	-41.3	-44.9	12.4	1.60e-04	0	57	0	161480704	54	5384
2026-01-12 10:44:54.23	192.46	13.91	-41.3	-45.0	12.3	1.91e-04	0	57	0	163577856	54	5450
2026-01-12 10:44:55.25	192.54	14.00	-41.3	-45.0	12.3	1.85e-04	0	57	0	165675008	54	5444
2026-01-12 10:44:56.26	192.62	14.10	-41.3	-45.0	12.3	1.79e-04	0	57	0	167772160	54	5413
2026-01-12 10:44:57.26	192.71	14.19	-41.3	-44.9	12.4	1.69e-04	0	57	0	168820736	54	5394
2026-01-12 10:44:58.27	192.79	14.29	-41.3	-44.9	12.4	1.60e-04	0	57	0	170917888	54	5402
2026-01-12 10:44:59.28	192.88	14.39	-41.3	-44.9	12.4	1.30e-04	0	57	0	173015040	54	5398
2026-01-12 10:45:00.29	192.96	14.48	-41.3	-44.9	12.4	1.55e-04	0	57	0	175112192	54	5388
2026-01-12 10:45:01.30	193.05	14.58	-41.2	-44.8	12.5	1.22e-04	0	57	0	177209344	54	5324
2026-01-12 10:45:02.31	193.13	14.68	-41.2	-44.8	12.6	9.30e-05	0	57	0	178257920	54	5319
2026-01-12 10:45:03.32	193.22	14.78	-41.2	-44.8	12.6	9.23e-05	0	57	0	180355072	54	5304
2026-01-12 10:45:04.33	193.31	14.88	-41.2	-44.7	12.7	8.16e-05	0	57	0	182452224	54	5220
2026-01-12 10:45:05.34	193.39	14.97	-41.2	-44.6	12.8	7.17e-05	0	57	0	184549376	54	5207
2026-01-12 10:45:06.35	193.48	15.07	-41.1	-44.6	12.9	5.03e-05	0	57	0	186646528	54	5161
2026-01-12 10:45:07.36	193.57	15.17	-41.2	-44.6	12.9	6.63e-05	0	57	0	187695104	54	5182
2026-01-12 10:45:08.37	193.66	15.27	-41.2	-44.6	12.9	4.04e-05	0	57	0	189792256	54	5169
2026-01-12 10:45:09.38	193.75	15.37	-41.1	-44.5	13.0	4.42e-05	0	57	0	191889408	54	5127
2026-01-12 10:45:10.38	193.84	15.47	-41.1	-44.5	12.9	4.57e-05	0	57	0	193986560	54	5147
2026-01-12 10:45:11.39	193.93	15.57	-41.1	-44.5	13.0	3.50e-05	0	57	0	196083712	54	5126
2026-01-12 10:45:12.40	194.03	15.67	-41.0	-44.4	13.1	3.73e-05	0	57	0	197132288	54	5060
2026-01-12 10:45:13.41	194.12	15.78	-41.1	-44.4	13.1	2.36e-05	0	57	0	199229440	54	5052
2026-01-12 10:45:14.42	194.21	15.88	-41.0	-44.3	13.2	1.37e-05	0	57	0	201326592	54	5007
2026-01-12 10:45:15.43	194.31	15.98	-41.0	-44.3	13.2	2.59e-05	0	57	0	203423744	54	5005
2026-01-12 10:45:16.44	194.40	16.08	-41.0	-44.3	13.2	1.90e-05	0	57	0	205520896	53	5309
2026-01-12 10:45:17.45	194.49	16.19	-41.0	-44.3	13.2	2.13e-05	0	57	0	206569472	53	5285
2026-01-12 10:45:18.46	194.59	16.29	-41.0	-44.3	13.2	2.51e-05	0	57	0	208666624	53	5316
2026-01-12 10:45:19.47	194.69	16.39	-41.0	-44.3	13.2	2.05e-05	0	57	0	210763776	53	5318
2026-01-12 10:45:20.48	194.78	16.50	-41.0	-44.3	13.2	1.60e-05	0	57	0	212860928	53	5319
2026-01-12 10:45:21.49	194.88	16.60	-41.1	-44.4	13.2	1.44e-05	0	57	0	214958080	53	5342
2026-01-12 10:45:22.50	194.98	16.71	-41.1	-44.4	13.2	2.36e-05	0	57	0	216006656	53	5356
2026-01-12 10:45:23.51	195.08	16.81	-41.0	-44.3	13.2	1.29e-05	0	57	0	218103808	53	5322
2026-01-12 10:45:24.52	195.18	16.92	-41.1	-44.4	13.1	2.51e-05	0	58	0	220200960	53	5391
2026-01-12 10:45:25.53	195.28	17.02	-41.1	-44.4	13.1	2.82e-05	0	57	0	222298112	53	5396
2026-01-12 10:45:26.54	195.38	17.13	-41.1	-44.4	13.1	1.90e-05	0	58	0	224395264	53	5396
2026-01-12 10:45:27.55	195.48	17.23	-41.1	-44.5	13.0	4.19e-05	0	57	0	225443840	53	5440
2026-01-12 10:45:28.56	195.58	17.34	-41.2	-44.5	13.0	3.81e-05	0	57	0	227540992	53	5452
2026-01-12 10:45:29.57	195.69	17.45	-41.2	-44.6	13.0	2.97e-05	0	57	0	229638144	53	5469
2026-01-12 10:45:30.58	195.79	17.56	-41.2	-44.6	13.0	4.04e-05	0	57	0	231735296	53	5485
2026-01-12 10:45:31.59	195.90	17.67	-41.2	-44.7	12.9	3.89e-05	0	58	0	233832448	53	5547
2026-01-12 10:45:32.60	196.00	17.77	-41.3	-44.7	12.9	4.27e-05	0	58	0	235929600	53	5565
2026-01-12 10:45:33.61	196.11	17.88	-41.3	-44.7	12.9	4.04e-05	0	58	0	236978176	53	5566
2026-01-12 10:45:34.62	196.21	17.99	-41.3	-44.7	12.8	5.34e-05	0	58	0	239075328	53	5575
2026-01-12 10:45:35.63	196.32	18.10	-41.3	-44.8	12.8	4.19e-05	0	58	0	241172480	53	5595
2026-01-12 10:45:36.63	196.43	18.21	-41.3	-44.8	12.8	5.79e-05	0	58	0	243269632	53	5607
2026-01-12 10:45:37.64	196.54	18.32	-41.3	-44.9	12.8	6.86e-05	0	58	0	245366784	53	5658
2026-01-12 10:45:38.66	196.65	18.43	-41.4	-45.0	12.6	7.85e-05	0	58	0	246415360	53	5730
2026-01-12 10:45:39.67	196.76	18.55	-41.5	-45.1	12.5	9.23e-05	0	58	0	248512512	53	5814
2026-01-12 10:45:40.68	196.87	18.66	-41.4	-45.0	12.6	1.01e-04	0	58	0	250609664	53	5765
2026-01-12 10:45:41.68	196.98	18.77	-41.4	-45.0	12.6	9.84e-05	0	57	0	252706816	53	5773
2026-01-12 10:45:42.70	197.09	18.88	-41.4	-45.0	12.5	1.08e-04	0	58	0	254803968	53	5787
2026-01-12 10:45:43.71	197.21	18.99	-41.5	-45.0	12.5	1.11e-04	0	58	0	255852544	53	5787
2026-01-12 10:45:44.71	197.32	19.11	-41.5	-45.1	12.6	1.10e-04	0	58	0	257949696	53	5807
2026-01-12 10:45:45.72	197.44	19.22	-41.5	-45.1	12.6	1.15e-04	0	58	0	260046848	53	5801
2026-01-12 10:45:46.73	197.55	19.33	-41.5	-45.1	12.5	1.07e-04	0	58	0	262144000	53	5843
2026-01-12 10:45:47.74	197.67	19.45	-41.5	-45.1	12.5	9.53e-05	0	58	0	264241152	53	5819
2026-01-12 10:45:48.75	197.79	19.56	-41.5	-45.1	12.5	1.07e-04	0	58	0	265289728	53	5834
2026-01-12 10:45:49.76	197.91	19.68	-41.5	-45.0	12.6	9.91e-05	0	58	0	267386880	53	5776
2026-01-12 10:45:50.77	198.03	19.80	-41.5	-45.1	12.6	9.68e-05	0	58	0	269484032	53	5805
2026-01-12 10:45:51.79	198.15	19.91	-41.5	-45.1	12.5	9.30e-05	0	58	0	271581184	53	5828
2026-01-12 10:45:52.79	198.27	20.03	-41.5	-45.1	12.6	1.01e-04	0	58	0	273678336	53	5823
2026-01-12 10:45:53.80	198.39	20.15	-41.5	-45.1	12.6	9.61e-05	0	58	0	274726912	53	5851
2026-01-12 10:45:54.81	198.51	20.26	-41.5	-45.1	12.5	1.05e-04	0	58	0	276824064	53	5848
2026-01-12 10:45:55.82	198.64	20.38	-41.6	-45.2	12.5	1.38e-04	0	58	0	278921216	53	5894
2026-01-12 10:45:56.83	198.76	20.50	-41.6	-45.2	12.4	1.33e-04	0	58	0	281018368	53	5905
2026-01-12 10:45:57.84	198.89	20.62	-41.6	-45.2	12.5	1.19e-04	0	58	0	283115520	53	5876
2026-01-12 10:45:58.85	199.02	20.74	-41.5	-45.1	12.5	1.33e-04	0	58	0	284164096	53	5839
2026-01-12 10:45:59.86	199.14	20.86	-41.6	-45.2	12.5	1.33e-04	0	58	0	286261248	53	5897
2026-01-12 10:46:00.87	199.27	20.98	-41.6	-45.2	12.5	1.23e-04	0	58	0	288358400	53	5858
2026-01-12 10:46:01.88	199.40	21.10	-41.5	-45.0	12.7	1.07e-04	0	58	0	290455552	53	5760
2026-01-12 10:46:02.89	199.53	21.22	-41.4	-44.9	12.8	6.33e-05	0	58	0	292552704	53	5698
2026-01-12 10:46:03.90	199.66	21.34	-41.4	-44.9	12.8	6.33e-05	0	58	0	293601280	53	5682
2026-01-12 10:46:04.91	199.80	21.46	-41.4	-44.9	12.9	4.73e-05	0	58	0	295698432	53	5667
2026-01-12 10:46:05.92	199.93	21.59	-41.4	-44.9	12.9	6.79e-05	0	58	0	297795584	53	5657
2026-01-12 10:46:06.93	200.07	21.71	-41.4	-44.8	12.9	6.02e-05	0	58	0	299892736	53	5655
2026-01-12 10:46:07.94	200.20	21.83	-41.4	-44.9	12.8	6.10e-05	0	58	0	301989888	53	5693
2026-01-12 10:46:08.95	200.34	21.95	-41.4	-44.9	12.8	5.11e-05	0	58	0	304087040	53	5667
2026-01-12 10:46:09.96	200.48	22.08	-41.5	-44.9	12.8	6.17e-05	0	58	0	305135616	53	5713
2026-01-12 10:46:10.97	200.62	22.20	-41.5	-44.9	12.8	5.11e-05	0	58	0	307232768	53	5691
2026-01-12 10:46:11.98	200.76	22.33	-41.5	-44.9	12.8	4.80e-05	0	58	0	309329920	53	5715
2026-01-12 10:46:12.99	200.90	22.45	-41.4	-44.8	13.0	3.66e-05	0	58	0	311427072	53	5625
2026-01-12 10:46:14.00	201.04	22.58	-41.5	-44.9	12.8	5.72e-05	0	58	0	313524224	53	5686
2026-01-12 10:46:15.01	201.18	22.71	-41.5	-45.0	12.8	4.50e-05	0	58	0	314572800	53	5738
2026-01-12 10:46:16.02	201.33	22.83	-41.4	-44.8	12.9	4.73e-05	0	58	0	316669952	53	5650
2026-01-12 10:46:17.03	201.47	22.96	-41.5	-44.9	12.8	4.50e-05	0	58	0	318767104	53	5718
2026-01-12 10:46:18.04	201.62	23.09	-41.5	-45.0	12.8	6.17e-05	0	58	0	320864256	53	5776
2026-01-12 10:46:19.05	201.77	23.22	-41.6	-45.1	12.6	6.86e-05	0	58	0	322961408	53	5848
2026-01-12 10:46:20.06	201.92	23.34	-41.6	-45.2	12.6	8.16e-05	0	58	0	324009984	53	5875
2026-01-12 10:46:21.07	202.07	23.47	-41.6	-45.2	12.6	8.85e-05	0	58	0	326107136	53	5861
2026-01-12 10:46:22.08	202.22	23.60	-41.6	-45.2	12.6	7.93e-05	0	58	0	328204288	53	5868
2026-01-12 10:46:23.09	202.37	23.73	-41.5	-45.0	12.8	8.54e-05	0	58	0	330301440	53	5780
2026-01-12 10:46:24.10	202.53	23.86	-41.5	-45.0	12.9	6.25e-05	0	58	0	332398592	53	5726
2026-01-12 10:46:25.11	202.68	23.99	-41.4	-44.8	12.9	5.34e-05	0	58	0	333447168	53	5642
2026-01-12 10:46:26.12	202.84	24.12	-41.4	-44.8	13.0	3.05e-05	0	58	0	335544320	53	5633
2026-01-12 10:46:27.13	203.00	24.26	-41.4	-44.8	13.1	1.44e-05	0	58	0	337641472	53	5593
2026-01-12 10:46:28.14	203.16	24.39	-41.4	-44.7	13.1	3.58e-05	0	58	0	339738624	53	5551
2026-01-12 10:46:29.15	203.32	24.52	-41.3	-44.6	13.2	2.74e-05	0	58	0	341835776	53	5516
2026-01-12 10:46:30.16	203.48	24.65	-41.4	-44.7	13.2	2.89e-05	0	58	0	342884352	53	5559
2026-01-12 10:46:31.16	203.64	24.79	-41.4	-44.8	13.1	2.44e-05	0	58	0	344981504	53	5624
2026-01-12 10:46:32.17	203.81	24.92	-41.5	-44.9	12.9	3.05e-05	0	58	0	347078656	53	5686
2026-01-12 10:46:33.19	203.97	25.06	-41.5	-45.0	12.9	5.26e-05	0	58	0	349175808	53	5744
2026-01-12 10:46:34.20	204.14	25.19	-41.6	-45.1	12.8	6.79e-05	0	58	0	351272960	53	5810
2026-01-12 10:46:35.21	204.31	25.33	-41.6	-45.1	12.8	7.62e-05	0	58	0	352321536	53	5821
2026-01-12 10:46:36.22	204.48	25.46	-41.6	-45.2	12.7	6.48e-05	0	58	0	354418688	53	5861
2026-01-12 10:46:37.23	204.65	25.60	-41.6	-45.1	12.8	7.32e-05	0	58	0	356515840	53	5804
2026-01-12 10:46:38.24	204.82	25.73	-41.6	-45.0	12.8	6.25e-05	0	58	0	358612992	53	5777
2026-01-12 10:46:39.25	205.00	25.87	-41.5	-45.0	12.9	6.10e-05	0	58	0	360710144	53	5727
2026-01-12 10:46:40.26	205.17	26.01	-41.5	-45.0	12.9	5.03e-05	0	58	0	361758720	53	5740
2026-01-12 10:46:41.27	205.35	26.14	-41.6	-45.0	12.9	4.19e-05	0	58	0	363855872	53	5770
2026-01-12 10:46:42.28	205.53	26.28	-41.6	-45.0	12.9	4.65e-05	0	58	0	365953024	53	5780
2026-01-12 10:46:43.29	205.71	26.42	-41.6	-45.1	12.8	5.87e-05	0	58	0	368050176	53	5844
2026-01-12 10:46:44.30	205.89	26.56	-41.7	-45.3	12.6	8.85e-05	0	58	0	370147328	54	5626
2026-01-12 10:46:45.31	206.08	26.70	-41.8	-45.5	12.4	1.40e-04	0	58	0	372244480	54	5726
2026-01-12 10:46:46.32	206.26	26.84	-41.9	-45.6	12.3	1.52e-04	0	58	0	373293056	54	5791
2026-01-12 10:46:47.33	206.45	26.98	-41.9	-45.6	12.3	1.84e-04	0	58	0	375390208	54	5835
2026-01-12 10:46:48.33	206.64	27.12	-42.0	-45.7	12.2	2.39e-04	0	58	0	377487360	54	5908
2026-01-12 10:46:49.34	206.83	27.26	-42.1	-45.9	11.9	3.15e-04	0	58	0	379584512	54	6059
2026-01-12 10:46:50.36	207.02	27.40	-42.1	-46.1	11.8	4.15e-04	0	58	0	381681664	54	6137
2026-01-12 10:46:51.36	207.21	27.54	-42.2	-46.2	11.7	5.77e-04	0	58	0	382730240	54	6250
2026-01-12 10:46:52.38	207.41	27.69	-42.2	-46.2	11.7	6.06e-04	0	58	0	384827392	54	6214
2026-01-12 10:46:53.38	207.60	27.83	-42.2	-46.3	11.6	6.21e-04	0	58	0	386924544	55	5942
2026-01-12 10:46:54.39	207.80	27.97	-42.2	-46.1	11.7	6.04e-04	0	58	0	389021696	55	5838
2026-01-12 10:46:55.40	208.00	28.11	-42.2	-46.2	11.7	5.72e-04	0	58	0	391118848	55	5869
2026-01-12 10:46:56.41	208.20	28.26	-42.2	-46.2	11.6	5.86e-04	0	58	0	392167424	55	5919
2026-01-12 10:46:57.42	208.41	28.40	-42.3	-46.4	11.5	7.26e-04	0	58	0	394264576	55	5999
2026-01-12 10:46:58.43	208.61	28.55	-42.4	-46.6	11.3	9.32e-04	0	58	0	396361728	55	6169
2026-01-12 10:46:59.44	208.82	28.69	-42.4	-46.6	11.2	1.23e-03	0	58	0	398458880	55	6157
2026-01-12 10:47:00.45	209.03	28.84	-42.5	-46.7	11.2	1.26e-03	0	58	0	400556032	55	6257
2026-01-12 10:47:01.46	209.24	28.98	-42.4	-46.7	11.1	1.38e-03	0	58	0	401604608	55	6254
2026-01-12 10:47:02.47	209.45	29.13	-42.6	-47.0	10.9	1.75e-03	0	58	0	403701760	55	6449
2026-01-12 10:47:03.47	209.67	29.27	-42.6	-47.1	10.8	2.36e-03	0	58	0	405798912	55	6539
2026-01-12 10:47:04.48	209.88	29.42	-42.9	-47.5	10.5	3.63e-03	0	58	0	407896064	56	6482
2026-01-12 10:47:05.49	210.10	29.57	-43.0	-47.8	10.1	5.72e-03	0	58	0	409993216	56	6721
2026-01-12 10:47:06.50	210.32	29.71	-43.0	-47.9	10.1	6.21e-03	0	58	0	411041792	56	6728
2026-01-12 10:47:07.51	210.55	29.86	-43.0	-47.7	10.4	5.18e-03	0	58	0	413138944	56	6595
2026-01-12 10:47:08.52	210.77	30.01	-42.9	-47.6	10.4	4.59e-03	0	58	0	415236096	56	6528
2026-01-12 10:47:09.53	211.00	30.16	-42.9	-47.5	10.6	3.83e-03	0	58	0	417333248	56	6429
2026-01-12 10:47:10.54	211.23	30.30	-42.7	-47.2	10.8	3.15e-03	0	58	0	419430400	56	6234
2026-01-12 10:47:11.55	211.46	30.45	-42.7	-47.0	11.1	1.91e-03	0	58	0	420478976	56	6087
2026-01-12 10:47:12.56	211.69	30.60	-42.7	-47.0	11.1	1.49e-03	0	58	0	422576128	56	6070
2026-01-12 10:47:13.57	211.92	30.75	-42.6	-46.8	11.3	1.53e-03	0	58	0	424673280	56	5966
2026-01-12 10:47:14.58	212.16	30.90	-42.6	-46.8	11.3	1.17e-03	0	58	0	426770432	56	5950
2026-01-12 10:47:15.59	212.40	31.05	-42.6	-46.9	11.1	1.48e-03	0	58	0	428867584	56	6058
2026-01-12 10:47:16.60	212.64	31.20	-42.6	-46.9	11.1	1.70e-03	0	59	0	429916160	56	6055
2026-01-12 10:47:17.60	212.88	31.35	-42.6	-46.9	11.2	1.41e-03	0	58	0	432013312	56	6030
2026-01-12 10:47:18.61	213.13	31.50	-42.5	-46.7	11.4	1.09e-03	0	58	0	434110464	56	5903
2026-01-12 10:47:19.62	213.38	31.65	-42.5	-46.6	11.5	9.07e-04	0	58	0	436207616	56	5804
2026-01-12 10:47:20.63	213.63	31.80	-42.4	-46.4	11.7	7.22e-04	0	58	0	438304768	56	5713
2026-01-12 10:47:21.64	213.88	31.95	-42.4	-46.3	11.8	4.90e-04	0	58	0	440401920	56	5651
2026-01-12 10:47:22.65	214.13	32.10	-42.4	-46.4	11.7	5.84e-04	0	58	0	441450496	56	5668
2026-01-12 10:47:23.66	214.39	32.25	-42.5	-46.6	11.5	7.93e-04	0	58	0	443547648	56	5813
2026-01-12 10:47:24.67	214.65	32.40	-42.5	-46.6	11.5	7.85e-04	0	59	0	445644800	56	5808
2026-01-12 10:47:25.68	214.91	32.55	-42.4	-46.5	11.6	7.67e-04	0	58	0	447741952	56	5759
2026-01-12 10:47:26.69	215.18	32.71	-42.4	-46.5	11.7	7.07e-04	0	58	0	449839104	56	5726
2026-01-12 10:47:27.70	215.44	32.86	-42.4	-46.3	11.8	4.65e-04	0	58	0	450887680	56	5626
2026-01-12 10:47:28.71	215.71	33.01	-42.4	-46.3	11.9	4.77e-04	0	59	0	452984832	56	5619
2026-01-12 10:47:29.72	215.99	33.16	-42.3	-46.2	11.9	4.36e-04	0	59	0	455081984	56	5565
2026-01-12 10:47:30.73	216.26	33.31	-42.3	-46.3	11.8	4.15e-04	0	58	0	457179136	56	5612
2026-01-12 10:47:31.74	216.54	33.46	-42.3	-46.1	12.0	3.51e-04	0	59	0	459276288	56	5497
2026-01-12 10:47:32.75	216.82	33.62	-42.3	-46.1	12.1	3.35e-04	0	59	0	460324864	56	5487
2026-01-12 10:47:33.76	217.10	33.77	-42.3	-46.1	12.0	3.38e-04	0	58	0	462422016	56	5522
2026-01-12 10:47:34.77	217.38	33.92	-42.3	-46.2	11.9	3.56e-04	0	58	0	464519168	56	5566
2026-01-12 10:47:35.78	217.67	34.07	-42.4	-46.3	11.8	3.78e-04	0	59	0	466616320	56	5655
2026-01-12 10:47:36.79	217.96	34.22	-42.4	-46.4	11.7	6.06e-04	0	59	0	468713472	56	5709
2026-01-12 10:47:37.80	218.25	34.37	-42.5	-46.7	11.5	8.32e-04	0	58	0	469762048	56	5865
2026-01-12 10:47:38.81	218.55	34.53	-42.6	-46.8	11.3	1.06e-03	0	59	0	471859200	56	5942
2026-01-12 10:47:39.82	218.85	34.68	-42.6	-46.8	11.3	1.30e-03	0	58	0	473956352	56	5978
2026-01-12 10:47:40.83	219.15	34.83	-42.6	-46.7	11.5	1.13e-03	0	59	0	476053504	56	5887
2026-01-12 10:47:41.84	219.45	34.98	-42.4	-46.4	11.7	6.83e-04	0	59	0	478150656	56	5664
2026-01-12 10:47:42.85	219.76	35.13	-42.3	-46.2	12.0	4.98e-04	0	58	0	479199232	56	5556
2026-01-12 10:47:43.86	220.06	35.28	-42.2	-45.9	12.2	2.56e-04	0	59	0	481296384	56	5387
2026-01-12 10:47:44.87	220.38	35.43	-42.0	-45.6	12.6	1.31e-04	0	59	0	483393536	56	5169
2026-01-12 10:47:45.88	220.69	35.58	-41.8	-45.3	12.7	1.22e-04	0	59	0	485490688	55	5295
2026-01-12 10:47:46.89	221.01	35.73	-41.5	-44.8	13.2	4.34e-05	0	58	0	487587840	55	5039
2026-01-12 10:47:47.90	221.33	35.88	-41.6	-44.9	13.1	1.37e-05	0	58	0	488636416	55	5056
2026-01-12 10:47:48.91	221.65	36.03	-41.5	-44.8	13.2	1.44e-05	0	58	0	490733568	55	4992
2026-01-12 10:47:49.92	221.98	36.18	-41.6	-45.0	13.0	2.89e-05	0	58	0	492830720	54	5432
2026-01-12 10:47:50.93	222.31	36.33	-41.8	-45.3	12.7	5.11e-05	0	58	0	494927872	54	5618
2026-01-12 10:47:51.94	222.64	36.48	-41.9	-45.5	12.6	8.23e-05	0	58	0	497025024	54	5744
2026-01-12 10:47:52.95	222.97	36.63	-41.9	-45.5	12.4	1.62e-04	0	58	0	498073600	54	5773
2026-01-12 10:47:53.96	223.31	36.77	-42.0	-45.7	12.3	1.65e-04	0	59	0	500170752	54	5861
2026-01-12 10:47:54.97	223.65	36.92	-41.7	-45.2	12.8	9.99e-05	0	58	0	502267904	54	5562
2026-01-12 10:47:55.98	224.00	37.07	-41.7	-45.1	13.0	3.73e-05	0	58	0	504365056	54	5479
2026-01-12 10:47:56.99	224.34	37.21	-41.6	-44.9	13.2	3.05e-05	0	59	0	506462208	54	5355
2026-01-12 10:47:57.99	224.69	37.36	-41.6	-45.0	13.1	2.89e-05	0	59	0	508559360	54	5435
2026-01-12 10:47:59.00	225.04	37.50	-41.8	-45.3	12.7	4.11e-05	0	59	0	509607936	54	5620
2026-01-12 10:48:00.01	225.40	37.65	-41.9	-45.6	12.2	1.07e-04	0	59	0	511705088	54	5855
2026-01-12 10:48:01.02	225.76	37.79	-42.1	-46.1	11.8	4.03e-03	0	59	0	513802240	54	6180
2026-01-12 10:48:02.03	226.12	37.94	-42.3	-46.5	11.4	2.69e-03	0	58	0	515899392	55	6106
2026-01-12 10:48:03.04	226.49	38.08	-42.4	-46.7	11.2	2.58e-03	0	59	0	517996544	55	6209
2026-01-12 10:48:04.05	226.86	38.22	-42.4	-46.6	11.2	2.34e-03	0	59	0	519045120	55	6187
2026-01-12 10:48:05.06	227.23	38.36	-42.3	-46.5	11.4	1.37e-03	0	58	0	521142272	55	6099
2026-01-12 10:48:06.07	227.60	38.50	-42.3	-46.4	11.5	9.83e-04	0	58	0	523239424	55	6054
2026-01-12 10:48:07.08	227.98	38.64	-42.4	-46.5	11.3	1.23e-03	0	59	0	525336576	55	6116
2026-01-12 10:48:08.09	228.36	38.78	-42.5	-46.7	11.2	2.84e-03	0	58	0	527433728	55	6261
2026-01-12 10:48:09.10	228.75	38.92	-42.6	-47.0	10.9	2.73e-03	0	59	0	528482304	55	6456
2026-01-12 10:48:10.11	229.14	39.06	-42.7	-47.2	10.8	2.71e-03	0	59	0	530579456	55	6626
2026-01-12 10:48:11.12	229.53	39.19	-43.0	-47.7	10.4	3.80e-03	0	59	0	532676608	56	6623
2026-01-12 10:48:12.13	229.92	39.33	-43.0	-47.7	10.4	4.42e-03	0	59	0	534773760	56	6598
2026-01-12 10:48:13.14	230.32	39.46	-43.0	-47.6	10.5	4.21e-03	0	59	0	536870912	56	6532
2026-01-12 10:48:14.15	230.72	39.60	-42.9	-47.4	10.7	3.54e-03	0	59	0	537919488	56	6363
2026-01-12 10:48:15.16	231.13	39.73	-42.7	-46.9	11.2	2.97e-03	0	59	0	540016640	56	6046
2026-01-12 10:48:16.17	231.53	39.86	-42.5	-46.6	11.5	8.63e-04	0	59	0	542113792	56	5849
2026-01-12 10:48:17.18	231.95	39.99	-42.4	-46.4	11.7	7.42e-04	0	58	0	544210944	56	5688
2026-01-12 10:48:18.19	232.36	40.12	-42.5	-46.5	11.7	6.11e-04	0	59	0	546308096	56	5773
2026-01-12 10:48:19.20	232.78	40.25	-42.6	-46.7	11.5	8.04e-04	0	59	0	547356672	56	5883
2026-01-12 10:48:20.21	233.20	40.37	-42.5	-46.6	11.5	1.02e-03	0	59	0	549453824	56	5805
2026-01-12 10:48:21.22	233.62	40.50	-42.5	-46.6	11.5	1.36e-03	0	59	0	551550976	56	5800
2026-01-12 10:48:22.23	234.05	40.62	-42.4	-46.4	11.7	9.67e-04	0	59	0	553648128	56	5713
2026-01-12 10:48:23.23	234.47	40.74	-42.4	-46.3	11.8	9.77e-04	0	59	0	555745280	56	5635
2026-01-12 10:48:24.24	234.91	40.87	-42.4	-46.3	11.8	2.03e-03	0	59	0	556793856	56	5632
2026-01-12 10:48:25.25	235.34	40.99	-42.4	-46.4	11.7	3.60e-03	0	59	0	558891008	56	5705
2026-01-12 10:48:26.26	235.78	41.10	-42.8	-47.1	10.9	3.43e-03	0	59	0	560988160	56	6200
2026-01-12 10:48:27.27	236.23	41.22	-43.0	-47.7	10.4	4.62e-03	0	59	0	563085312	56	6610
2026-01-12 10:48:28.28	236.67	41.34	-43.1	-48.0	10.1	6.49e-03	0	59	0	565182464	56	6830
2026-01-12 10:48:29.29	237.12	41.45	-43.1	-47.9	10.2	7.38e-03	0	59	0	566231040	56	6750
2026-01-12 10:48:30.31	237.58	41.56	-42.9	-47.5	10.6	3.96e-03	0	59	0	568328192	56	6425
2026-01-12 10:48:31.31	238.03	41.67	-42.8	-47.2	10.9	2.58e-03	0	59	0	570425344	56	6245
2026-01-12 10:48:32.32	238.49	41.78	-42.8	-47.2	10.9	2.03e-03	0	59	0	572522496	56	6233
2026-01-12 10:48:33.33	238.95	41.89	-43.0	-47.6	10.5	2.56e-03	0	59	0	574619648	56	6506
2026-01-12 10:48:34.34	239.41	41.99	-43.2	-48.3	9.8	5.55e-03	0	59	0	576716800	57	6655
2026-01-12 10:48:35.35	239.88	42.10	-43.5	-49.1	9.0	2.12e-02	0	59	0	577765376	57	7359
2026-01-12 10:48:36.36	240.35	42.20	-43.6	-49.4	8.6	3.34e-02	0	59	0	579862528	57	7547
2026-01-12 10:48:37.37	240.82	42.30	-43.4	-48.7	9.3	2.75e-02	0	59	0	581959680	57	6989
2026-01-12 10:48:38.38	241.30	42.40	-43.2	-48.1	10.0	8.82e-03	0	59	0	584056832	57	6541
2026-01-12 10:48:39.39	241.78	42.49	-43.1	-47.8	10.3	5.60e-03	0	59	0	586153984	57	6318
2026-01-12 10:48:40.39	242.26	42.59	-43.0	-47.7	10.4	4.84e-03	0	59	0	587202560	57	6235
2026-01-12 10:48:41.40	242.74	42.68	-43.0	-47.8	10.3	5.17e-03	0	59	0	589299712	57	6300
2026-01-12 10:48:42.41	243.23	42.77	-43.3	-48.3	9.7	8.89e-03	0	59	0	591396864	57	6694
2026-01-12 10:48:43.42	243.72	42.86	-43.4	-48.8	9.3	1.40e-02	0	59	0	593494016	57	7071
2026-01-12 10:48:44.43	244.21	42.94	-43.4	-48.6	9.4	1.89e-02	0	59	0	595591168	57	6923
2026-01-12 10:48:45.44	244.71	43.03	-43.2	-48.1	10.0	9.89e-03	0	59	0	596639744	57	6498
2026-01-12 10:48:46.45	245.20	43.11	-42.9	-47.4	10.7	4.43e-03	0	59	0	598736896	57	6037
2026-01-12 10:48:47.46	245.70	43.19	-42.8	-47.1	11.0	2.00e-03	0	59	0	600834048	57	5853
2026-01-12 10:48:48.47	246.21	43.27	-43.0	-47.6	10.5	3.48e-03	0	59	0	602931200	57	6199
2026-01-12 10:48:49.48	246.71	43.34	-43.3	-48.5	9.5	9.38e-03	0	59	0	605028352	57	6877
2026-01-12 10:48:50.49	247.22	43.41	-43.4	-48.8	9.3	1.99e-02	0	59	0	606076928	57	7072
2026-01-12 10:48:51.50	247.73	43.48	-43.0	-47.6	10.4	6.34e-03	0	59	0	608174080	57	6181
2026-01-12 10:48:52.51	248.24	43.55	-42.5	-46.5	11.7	1.30e-03	0	59	0	610271232	57	5415
2026-01-12 10:48:53.52	248.75	43.62	-42.2	-45.9	12.3	2.43e-04	0	59	0	612368384	56	5348
2026-01-12 10:48:54.53	249.27	43.68	-42.1	-45.7	12.5	1.23e-04	0	59	0	614465536	56	5272
2026-01-12 10:48:55.54	249.79	43.74	-42.2	-45.8	12.4	1.13e-04	0	59	0	615514112	56	5315
2026-01-12 10:48:56.55	250.31	43.80	-42.5	-46.4	11.8	3.12e-04	0	59	0	617611264	56	5704
2026-01-12 10:48:57.56	250.83	43.86	-42.7	-47.0	11.1	8.93e-04	0	59	0	619708416	56	6114
2026-01-12 10:48:58.57	251.35	43.91	-42.8	-47.1	11.0	2.29e-03	0	59	0	621805568	56	6196
2026-01-12 10:48:59.58	251.88	43.96	-42.6	-46.7	11.5	1.23e-03	0	59	0	623902720	56	5877
2026-01-12 10:49:00.59	252.40	44.01	-42.7	-46.9	11.3	1.04e-03	0	59	0	624951296	56	6016
2026-01-12 10:49:01.60	252.93	44.05	-42.7	-47.0	11.3	1.03e-03	0	59	0	627048448	56	6069
2026-01-12 10:49:02.61	253.46	44.10	-42.8	-47.1	11.0	1.92e-03	0	59	0	629145600	56	6186
2026-01-12 10:49:03.62	253.99	44.14	-42.9	-47.3	10.9	2.12e-03	0	59	0	631242752	56	6289
2026-01-12 10:49:04.63	254.52	44.18	-42.9	-47.5	10.6	3.17e-03	0	59	0	633339904	56	6468
2026-01-12 10:49:05.64	255.06	44.21	-43.1	-48.0	10.1	5.28e-03	0	59	0	634388480	56	6802
2026-01-12 10:49:06.65	255.59	44.24	-43.2	-48.2	9.9	8.64e-03	0	59	0	636485632	57	6616
2026-01-12 10:49:07.66	256.13	44.27	-43.1	-47.8	10.3	6.52e-03	0	59	0	638582784	57	6288
2026-01-12 10:49:08.67	256.66	44.30	-42.9	-47.4	10.7	4.24e-03	0	59	0	640679936	57	6046
2026-01-12 10:49:09.68	257.20	44.32	-42.9	-47.4	10.7	2.71e-03	0	59	0	642777088	57	6050
2026-01-12 10:49:10.69	257.74	44.35	-42.8	-47.2	10.9	2.63e-03	0	59	0	644874240	57	5891
2026-01-12 10:49:11.70	258.28	44.36	-42.6	-46.8	11.4	1.33e-03	0	59	0	645922816	57	5625
2026-01-12 10:49:12.71	258.81	44.38	-42.6	-46.8	11.4	9.26e-04	0	59	0	648019968	57	5595
2026-01-12 10:49:13.71	259.35	44.39	-42.6	-46.7	11.5	7.89e-04	0	59	0	650117120	57	5576
2026-01-12 10:49:14.72	259.89	44.40	-42.7	-46.9	11.3	1.09e-03	0	59	0	652214272	57	5692
2026-01-12 10:49:15.73	260.43	44.41	-42.7	-46.9	11.3	1.12e-03	0	59	0	654311424	57	5714
2026-01-12 10:49:16.74	260.97	44.42	-42.6	-46.7	11.5	8.68e-04	0	59	0	655360000	57	5548
2026-01-12 10:49:17.75	261.51	44.42	-42.4	-46.3	11.8	6.34e-04	0	59	0	657457152	56	5633
2026-01-12 10:49:18.76	262.05	44.42	-42.3	-46.1	12.1	3.08e-04	0	59	0	659554304	56	5506
2026-01-12 10:49:19.77	262.59	44.42	-42.4	-46.4	11.8	3.50e-04	0	59	0	661651456	56	5680
2026-01-12 10:49:20.78	263.13	44.41	-42.5	-46.4	11.7	5.34e-04	0	59	0	663748608	56	5715
2026-01-12 10:49:21.79	263.67	44.40	-42.5	-46.5	11.7	4.74e-04	0	59	0	664797184	56	5733
2026-01-12 10:49:22.80	264.21	44.39	-42.3	-46.1	12.1	3.79e-04	0	59	0	666894336	56	5481
2026-01-12 10:49:23.81	264.75	44.37	-42.0	-45.6	12.7	1.67e-04	0	59	0	668991488	56	5168
2026-01-12 10:49:24.82	265.29	44.36	-41.9	-45.5	12.5	7.32e-05	0	59	0	671088640	55	5416
2026-01-12 10:49:25.83	265.83	44.34	-42.0	-45.7	12.4	1.17e-04	0	58	0	673185792	55	5536
2026-01-12 10:49:26.84	266.36	44.32	-42.0	-45.7	12.3	1.81e-04	0	59	0	674234368	55	5545
2026-01-12 10:49:27.85	266.90	44.29	-41.9	-45.4	12.6	1.09e-04	0	59	0	676331520	55	5397
2026-01-12 10:49:28.86	267.44	44.26	-41.7	-45.2	12.9	5.95e-05	0	59	0	678428672	55	5230
2026-01-12 10:49:29.87	267.97	44.23	-41.5	-44.8	13.3	2.28e-05	0	59	0	680525824	55	5019
2026-01-12 10:49:30.88	268.50	44.20	-41.7	-45.0	13.1	2.13e-05	0	59	0	682622976	55	5142
2026-01-12 10:49:31.89	269.04	44.16	-42.0	-45.6	12.5	6.40e-05	0	59	0	683671552	55	5482
2026-01-12 10:49:32.90	269.57	44.12	-42.4	-46.5	11.5	3.37e-04	0	59	0	685768704	55	6100
2026-01-12 10:49:33.91	270.10	44.08	-42.5	-46.7	11.3	1.30e-03	0	59	0	687865856	55	6274
2026-01-12 10:49:34.92	270.63	44.04	-42.3	-46.3	11.7	1.13e-03	0	59	0	689963008	55	5965
2026-01-12 10:49:35.93	271.15	43.99	-42.1	-45.9	12.1	3.61e-04	0	59	0	692060160	55	5669
2026-01-12 10:49:36.94	271.68	43.94	-42.0	-45.6	12.4	1.52e-04	0	59	0	693108736	55	5523
2026-01-12 10:49:37.95	272.20	43.89	-42.0	-45.7	12.3	1.47e-04	0	59	0	695205888	55	5549
2026-01-12 10:49:38.96	272.72	43.84	-42.0	-45.7	12.2	1.71e-04	0	59	0	697303040	55	5590
2026-01-12 10:49:39.97	273.24	43.78	-42.1	-45.8	12.2	2.38e-04	0	59	0	699400192	55	5629
2026-01-12 10:49:40.98	273.76	43.72	-42.1	-45.8	12.2	2.30e-04	0	59	0	701497344	55	5641
2026-01-12 10:49:41.99	274.28	43.66	-42.1	-45.9	12.2	2.04e-04	0	59	0	702545920	55	5664
2026-01-12 10:49:43.00	274.79	43.60	-42.3	-46.3	11.7	3.37e-04	0	59	0	704643072	55	5933
2026-01-12 10:49:44.01	275.30	43.53	-42.5	-46.8	11.3	9.67e-04	0	59	0	706740224	55	6281
2026-01-12 10:49:45.02	275.81	43.46	-42.7	-47.1	10.9	1.94e-03	0	59	0	708837376	55	6536
2026-01-12 10:49:46.03	276.32	43.39	-42.8	-47.3	10.8	3.18e-03	0	59	0	710934528	56	6284
2026-01-12 10:49:47.03	276.82	43.32	-42.7	-46.9	11.3	1.27e-03	0	59	0	713031680	56	5999
2026-01-12 10:49:48.04	277.33	43.24	-42.5	-46.4	11.7	7.29e-04	0	59	0	714080256	56	5720
2026-01-12 10:49:49.05	277.83	43.16	-42.7	-46.9	11.3	6.56e-04	0	59	0	716177408	56	6005
2026-01-12 10:49:50.06	278.33	43.08	-42.9	-47.4	10.7	2.35e-03	0	59	0	718274560	56	6358
2026-01-12 10:49:51.07	278.82	43.00	-42.7	-47.0	11.1	2.63e-03	0	59	0	720371712	56	6104
2026-01-12 10:49:52.08	279.31	42.92	-42.3	-46.2	11.9	8.98e-04	0	59	0	722468864	56	5557
2026-01-12 10:49:53.09	279.81	42.83	-42.2	-46.0	12.2	2.88e-04	0	59	0	723517440	56	5442
2026-01-12 10:49:54.11	280.30	42.74	-42.5	-46.5	11.7	4.00e-04	0	59	0	725614592	56	5759
2026-01-12 10:49:55.12	280.78	42.65	-42.7	-47.0	11.1	1.17e-03	0	59	0	727711744	56	6125
2026-01-12 10:49:56.13	281.27	42.56	-42.6	-46.9	11.2	1.47e-03	0	59	0	729808896	56	6009
2026-01-12 10:49:57.14	281.75	42.46	-42.4	-46.4	11.8	6.97e-04	0	59	0	731906048	56	5685
2026-01-12 10:49:58.15	282.22	42.37	-42.3	-46.1	12.0	3.68e-04	0	59	0	732954624	56	5511
2026-01-12 10:49:59.16	282.70	42.27	-42.2	-45.9	12.3	2.78e-04	0	59	0	735051776	56	5356
2026-01-12 10:50:00.17	283.17	42.17	-42.4	-46.4	11.7	3.31e-04	0	59	0	737148928	56	5703
2026-01-12 10:50:01.18	283.64	42.07	-42.7	-46.9	11.2	1.02e-03	0	59	0	739246080	56	6039
2026-01-12 10:50:02.19	284.10	41.96	-42.8	-47.1	11.0	1.89e-03	0	59	0	741343232	56	6192
2026-01-12 10:50:03.20	284.56	41.86	-42.4	-46.3	11.7	8.49e-04	0	59	0	742391808	56	5652
2026-01-12 10:50:04.20	285.02	41.75	-41.8	-45.3	12.7	1.58e-04	0	59	0	744488960	55	5328
2026-01-12 10:50:05.21	285.48	41.64	-41.7	-45.2	12.8	6.94e-05	0	59	0	746586112	55	5258
2026-01-12 10:50:06.22	285.93	41.53	-42.0	-45.7	12.3	1.10e-04	0	59	0	748683264	55	5563
2026-01-12 10:50:07.23	286.38	41.42	-42.2	-46.1	11.9	3.89e-04	0	59	0	750780416	55	5840
2026-01-12 10:50:08.24	286.83	41.30	-41.7	-45.2	12.8	2.06e-04	0	59	0	751828992	55	5223
2026-01-12 10:50:09.25	287.27	41.19	-41.1	-44.0	14.0	5.30e-06	0	59	0	753926144	54	4851
2026-01-12 10:50:10.26	287.71	41.07	-40.8	-43.6	14.5	0.00e+00	0	59	0	756023296	53	4887
2026-01-12 10:50:11.27	288.15	40.95	-41.2	-44.3	13.8	7.00e-07	0	59	0	758120448	53	5292
2026-01-12 10:50:12.28	288.58	40.83	-41.8	-45.3	12.8	9.90e-06	0	59	0	760217600	54	5602
2026-01-12 10:50:13.29	289.01	40.71	-42.0	-45.7	12.3	1.61e-04	0	59	0	761266176	54	5866
2026-01-12 10:50:14.30	289.44	40.59	-41.6	-44.9	13.1	7.62e-05	0	59	0	763363328	54	5390
2026-01-12 10:50:15.31	289.87	40.47	-41.2	-44.2	13.8	1.14e-05	0	59	0	765460480	54	4960
2026-01-12 10:50:16.32	290.29	40.34	-41.1	-44.1	14.1	0.00e+00	0	59	0	767557632	54	4878
2026-01-12 10:50:17.33	290.70	40.21	-41.3	-44.3	13.7	2.20e-06	0	59	0	769654784	54	5035
2026-01-12 10:50:18.34	291.12	40.09	-41.6	-45.0	13.1	9.90e-06	0	59	0	770703360	54	5415
2026-01-12 10:50:19.35	291.53	39.96	-41.7	-45.0	13.0	5.87e-05	0	59	0	772800512	54	5460
2026-01-12 10:50:20.36	291.94	39.83	-41.2	-44.2	13.9	1.67e-05	0	59	0	774897664	54	4970
2026-01-12 10:50:21.37	292.35	39.70	-40.7	-43.4	14.6	7.00e-07	0	59	0	776994816	53	4805
2026-01-12 10:50:22.38	292.75	39.57	-40.7	-43.5	14.5	7.00e-07	0	59	0	779091968	53	4843
2026-01-12 10:50:23.39	293.15	39.43	-41.0	-44.0	14.1	2.20e-06	0	59	0	781189120	53	5132
2026-01-12 10:50:24.40	293.54	39.30	-41.4	-44.6	13.4	4.50e-06	0	59	0	782237696	53	5522
2026-01-12 10:50:25.41	293.93	39.16	-41.6	-44.9	13.1	2.82e-05	0	59	0	784334848	53	5694
2026-01-12 10:50:26.42	294.32	39.03	-41.5	-44.8	13.3	2.59e-05	0	59	0	786432000	53	5616
2026-01-12 10:50:27.43	294.71	38.89	-41.3	-44.4	13.7	5.30e-06	0	59	0	788529152	53	5379
2026-01-12 10:50:28.44	295.09	38.75	-41.2	-44.3	13.7	8.30e-06	0	59	0	790626304	53	5308
2026-01-12 10:50:29.45	295.47	38.61	-41.4	-44.6	13.4	9.10e-06	0	59	0	791674880	53	5506
2026-01-12 10:50:30.46	295.85	38.48	-41.6	-45.0	13.1	2.82e-05	0	59	0	793772032	53	5753
2026-01-12 10:50:31.47	296.22	38.34	-41.5	-44.9	13.2	4.88e-05	0	59	0	795869184	53	5673
2026-01-12 10:50:32.48	296.59	38.19	-41.3	-44.4	13.6	9.10e-06	0	59	0	797966336	53	5362
2026-01-12 10:50:33.49	296.96	38.05	-41.1	-44.2	13.9	5.30e-06	0	59	0	800063488	53	5230
2026-01-12 10:50:34.50	297.32	37.91	-41.2	-44.4	13.7	6.10e-06	0	59	0	801112064	53	5347
2026-01-12 10:50:35.51	297.68	37.77	-41.5	-44.8	13.3	1.90e-05	0	59	0	803209216	53	5611
2026-01-12 10:50:36.52	298.04	37.62	-41.6	-45.0	13.0	3.28e-05	0	59	0	805306368	53	5734
2026-01-12 10:50:37.53	298.39	37.48	-41.5	-44.8	13.2	3.50e-05	0	59	0	807403520	53	5641
2026-01-12 10:50:38.54	298.74	37.34	-41.4	-44.6	13.4	1.14e-05	0	59	0	809500672	53	5478
2026-01-12 10:50:39.55	299.09	37.19	-41.5	-44.8	13.2	1.67e-05	0	59	0	810549248	53	5643
2026-01-12 10:50:40.56	299.44	37.05	-41.7	-45.1	12.9	3.28e-05	0	59	0	812646400	53	5822
2026-01-12 10:50:41.57	299.78	36.90	-42.0	-45.6	12.4	1.21e-04	0	59	0	814743552	54	5846
2026-01-12 10:50:42.58	300.12	36.75	-42.0	-45.6	12.4	1.46e-04	0	59	0	816840704	54	5845
2026-01-12 10:50:43.59	300.45	36.61	-42.0	-45.6	12.4	1.51e-04	0	59	0	818937856	54	5848
2026-01-12 10:50:44.60	300.79	36.46	-41.7	-45.2	12.9	1.12e-04	0	59	0	819986432	54	5542
2026-01-12 10:50:45.61	301.12	36.31	-41.4	-44.7	13.4	1.37e-05	0	59	0	822083584	54	5229
2026-01-12 10:50:46.62	301.44	36.16	-41.3	-44.5	13.6	1.29e-05	0	59	0	824180736	54	5119
2026-01-12 10:50:47.63	301.77	36.01	-41.3	-44.5	13.6	8.30e-06	0	59	0	826277888	54	5106
2026-01-12 10:50:48.64	302.09	35.87	-41.2	-44.3	13.7	9.90e-06	0	59	0	828375040	54	5032
2026-01-12 10:50:49.65	302.41	35.72	-41.1	-44.1	14.0	2.20e-06	0	59	0	829423616	54	4878
2026-01-12 10:50:50.66	302.72	35.57	-40.9	-43.8	14.3	7.00e-07	0	59	0	831520768	53	5020
2026-01-12 10:50:51.67	303.04	35.42	-40.9	-43.8	14.3	7.00e-07	0	59	0	833617920	53	5027
2026-01-12 10:50:52.68	303.35	35.27	-41.4	-44.6	13.5	6.80e-06	0	59	0	835715072	53	5507
2026-01-12 10:50:53.69	303.65	35.12	-41.9	-45.6	12.5	4.57e-05	0	59	0	837812224	54	5796
2026-01-12 10:50:54.70	303.96	34.97	-42.2	-46.1	11.9	3.28e-04	0	59	0	838860800	54	6147
2026-01-12 10:50:55.71	304.26	34.82	-41.9	-45.5	12.5	2.10e-04	0	59	0	840957952	54	5745
2026-01-12 10:50:56.72	304.56	34.67	-41.5	-44.8	13.2	4.42e-05	0	59	0	843055104	54	5317
2026-01-12 10:50:57.73	304.85	34.52	-41.4	-44.7	13.4	1.60e-05	0	59	0	845152256	54	5220
2026-01-12 10:50:58.74	305.15	34.37	-41.7	-45.1	12.9	2.36e-05	0	59	0	847249408	54	5513
2026-01-12 10:50:59.75	305.44	34.22	-42.3	-46.5	11.5	2.35e-04	0	59	0	849346560	55	6079
2026-01-12 10:51:00.76	305.72	34.06	-43.0	-47.7	10.3	1.86e-03	0	59	0	850395136	56	6637
2026-01-12 10:51:01.77	306.01	33.91	-43.1	-48.1	9.9	8.27e-03	0	59	0	852492288	56	6915
2026-01-12 10:51:02.78	306.29	33.76	-42.8	-47.4	10.6	5.87e-03	0	59	0	854589440	56	6414
2026-01-12 10:51:03.79	306.57	33.61	-42.5	-46.7	11.4	2.11e-03	0	59	0	856686592	56	5868
2026-01-12 10:51:04.80	306.85	33.46	-42.3	-46.2	12.0	3.94e-04	0	59	0	858783744	56	5567
2026-01-12 10:51:05.81	307.13	33.31	-42.1	-45.9	12.3	2.56e-04	0	59	0	859832320	56	5366
2026-01-12 10:51:06.82	307.40	33.16	-42.4	-46.4	11.8	2.70e-04	0	59	0	861929472	56	5668
2026-01-12 10:51:07.82	307.67	33.01	-42.7	-47.2	10.9	1.43e-03	0	59	0	864026624	56	6218
2026-01-12 10:51:08.83	307.93	32.86	-43.2	-48.3	9.7	6.50e-03	0	59	0	866123776	56	7063
2026-01-12 10:51:09.84	308.20	32.71	-43.2	-48.4	9.7	1.31e-02	0	59	0	868220928	57	6752
2026-01-12 10:51:10.85	308.46	32.56	-42.9	-47.7	10.4	6.11e-03	0	59	0	869269504	57	6221
2026-01-12 10:51:11.86	308.72	32.41	-42.6	-46.9	11.1	2.12e-03	0	59	0	871366656	57	5717
2026-01-12 10:51:12.87	308.98	32.26	-42.3	-46.3	11.9	1.06e-03	0	59	0	873463808	56	5613
2026-01-12 10:51:13.88	309.24	32.11	-42.4	-46.4	11.7	3.53e-04	0	59	0	875560960	56	5685
2026-01-12 10:51:14.89	309.49	31.96	-42.8	-47.3	10.8	1.33e-03	0	59	0	877658112	56	6292
2026-01-12 10:51:15.90	309.74	31.81	-43.4	-48.9	9.0	1.01e-02	0	59	0	878706688	57	7196
2026-01-12 10:51:16.91	309.99	31.66	-43.8	-50.4	7.6	5.54e-02	0	59	0	880803840	58	8041
2026-01-12 10:51:17.92	310.24	31.51	-43.6	-49.7	8.3	8.24e-02	0	59	0	882900992	58	7390
2026-01-12 10:51:18.93	310.48	31.36	-42.9	-47.7	10.4	1.58e-02	0	59	0	884998144	57	6211
2026-01-12 10:51:19.94	310.72	31.21	-42.1	-45.9	12.2	1.28e-03	0	59	0	887095296	56	5362
2026-01-12 10:51:20.95	310.96	31.06	-41.4	-44.6	13.3	3.58e-05	0	59	0	888143872	54	5203
2026-01-12 10:51:21.96	311.20	30.92	-41.2	-44.3	13.7	6.10e-06	0	59	0	890241024	54	4995
2026-01-12 10:51:22.97	311.44	30.77	-41.4	-44.8	13.2	9.90e-06	0	59	0	892338176	54	5291
2026-01-12 10:51:23.98	311.67	30.62	-41.9	-45.7	12.2	1.23e-04	0	59	0	894435328	54	5885
2026-01-12 10:51:24.98	311.90	30.47	-42.5	-46.8	11.1	8.59e-04	0	59	0	896532480	55	6332
2026-01-12 10:51:25.99	312.13	30.33	-42.9	-47.7	10.4	3.86e-03	0	59	0	897581056	56	6574
2026-01-12 10:51:27.00	312.36	30.18	-42.8	-47.5	10.6	5.45e-03	0	59	0	899678208	56	6426
2026-01-12 10:51:28.01	312.58	30.03	-42.5	-46.7	11.3	1.72e-03	0	59	0	901775360	56	5912
2026-01-12 10:51:29.02	312.81	29.89	-42.0	-45.7	12.4	3.04e-04	0	59	0	903872512	56	5250
2026-01-12 10:51:30.03	313.03	29.74	-41.7	-45.2	12.8	7.47e-05	0	59	0	905969664	55	5251
2026-01-12 10:51:31.04	313.25	29.59	-41.3	-44.5	13.5	1.52e-05	0	59	0	907018240	54	5127
2026-01-12 10:51:32.05	313.47	29.45	-41.3	-44.5	13.5	8.30e-06	0	59	0	909115392	54	5150
2026-01-12 10:51:33.06	313.68	29.30	-41.8	-45.4	12.6	3.50e-05	0	59	0	911212544	54	5679
2026-01-12 10:51:34.07	313.90	29.16	-42.3	-46.6	11.3	6.48e-04	0	59	0	913309696	55	6143
2026-01-12 10:51:35.08	314.11	29.01	-42.6	-47.3	10.5	2.55e-03	0	59	0	915406848	55	6660
2026-01-12 10:51:36.09	314.32	28.87	-42.4	-46.7	11.2	3.10e-03	0	59	0	917504000	55	6224
2026-01-12 10:51:37.10	314.53	28.72	-41.8	-45.5	12.4	3.04e-04	0	59	0	918552576	55	5440
2026-01-12 10:51:38.11	314.73	28.58	-41.2	-44.3	13.7	2.59e-05	0	59	0	920649728	54	4995
2026-01-12 10:51:39.12	314.94	28.44	-40.7	-43.5	14.4	1.50e-06	0	59	0	922746880	53	4857
2026-01-12 10:51:40.13	315.14	28.29	-40.6	-43.4	14.6	0.00e+00	0	59	0	924844032	53	4779
2026-01-12 10:51:41.14	315.34	28.15	-40.7	-43.4	14.5	0.00e+00	0	59	0	926941184	53	4811
2026-01-12 10:51:42.15	315.54	28.01	-41.0	-44.0	13.9	7.00e-07	0	59	0	927989760	53	5153
2026-01-12 10:51:43.16	315.74	27.87	-41.4	-44.6	13.3	8.30e-06	0	59	0	930086912	53	5523
2026-01-12 10:51:44.17	315.93	27.73	-41.8	-45.5	12.3	8.01e-05	0	59	0	932184064	54	5785
2026-01-12 10:51:45.18	316.13	27.58	-42.0	-46.0	11.9	2.80e-04	0	59	0	934281216	54	6072
2026-01-12 10:51:46.19	316.32	27.44	-42.1	-46.0	11.8	5.00e-04	0	59	0	936378368	54	6105
2026-01-12 10:51:47.20	316.51	27.30	-41.8	-45.4	12.5	1.77e-04	0	59	0	937426944	54	5692
2026-01-12 10:51:48.21	316.70	27.16	-41.4	-44.6	13.3	5.03e-05	0	59	0	939524096	54	5218
2026-01-12 10:51:49.22	316.89	27.02	-41.2	-44.3	13.6	9.10e-06	0	59	0	941621248	54	5002
2026-01-12 10:51:50.23	317.07	26.89	-41.0	-44.1	13.9	6.10e-06	0	59	0	943718400	54	4878
2026-01-12 10:51:51.24	317.26	26.75	-40.8	-43.8	14.1	1.50e-06	0	59	0	945815552	53	5003
2026-01-12 10:51:52.25	317.44	26.61	-41.0	-44.1	13.8	7.00e-07	0	59	0	946864128	53	5175
2026-01-12 10:51:53.26	317.62	26.47	-41.3	-44.5	13.4	1.29e-05	0	59	0	948961280	53	5428
2026-01-12 10:51:54.28	317.80	26.33	-41.5	-45.0	12.9	2.89e-05	0	59	0	951058432	53	5762
2026-01-12 10:51:55.29	317.98	26.19	-41.7	-45.4	12.5	6.71e-05	0	59	0	953155584	53	5998
2026-01-12 10:51:56.29	318.16	26.06	-41.8	-45.5	12.4	1.36e-04	0	59	0	955252736	54	5755
2026-01-12 10:51:57.30	318.33	25.92	-41.6	-45.1	12.8	7.47e-05	0	59	0	956301312	54	5482
2026-01-12 10:51:58.31	318.51	25.79	-41.3	-44.7	13.2	3.20e-05	0	59	0	958398464	54	5223
2026-01-12 10:51:59.32	318.68	25.65	-41.1	-44.2	13.7	4.50e-06	0	59	0	960495616	54	4960
2026-01-12 10:52:00.33	318.85	25.52	-40.9	-43.9	14.0	1.50e-06	0	59	0	962592768	53	5087
2026-01-12 10:52:01.34	319.02	25.38	-40.8	-43.8	14.1	3.00e-06	0	59	0	964689920	53	5025
2026-01-12 10:52:02.35	319.19	25.25	-40.9	-43.8	14.0	3.00e-06	0	59	0	965738496	53	5036
2026-01-12 10:52:03.36	319.36	25.12	-41.0	-44.1	13.8	3.00e-06	0	59	0	967835648	53	5170
2026-01-12 10:52:04.37	319.52	24.98	-41.1	-44.3	13.6	1.50e-06	0	59	0	969932800	53	5306
2026-01-12 10:52:05.38	319.68	24.85	-41.2	-44.4	13.5	8.30e-06	0	59	0	972029952	53	5379
2026-01-12 10:52:06.39	319.85	24.72	-41.4	-44.8	13.1	3.20e-05	0	59	0	974127104	53	5594
2026-01-12 10:52:07.40	320.01	24.59	-41.4	-44.8	13.0	3.05e-05	0	59	0	975175680	53	5643
2026-01-12 10:52:08.41	320.17	24.45	-41.5	-44.9	12.9	5.49e-05	0	59	0	977272832	53	5709
2026-01-12 10:52:09.42	320.33	24.32	-41.5	-45.0	12.8	6.25e-05	0	59	0	979369984	53	5787
2026-01-12 10:52:10.43	320.49	24.19	-41.4	-44.9	13.0	4.80e-05	0	59	0	981467136	53	5700
2026-01-12 10:52:11.44	320.64	24.06	-41.5	-45.0	12.8	4.04e-05	0	59	0	983564288	53	5773
2026-01-12 10:52:12.45	320.80	23.93	-41.4	-44.9	12.9	6.63e-05	0	59	0	985661440	53	5692
2026-01-12 10:52:13.46	320.95	23.80	-41.4	-44.8	13.0	3.43e-05	0	59	0	986710016	53	5637
2026-01-12 10:52:14.47	321.10	23.67	-41.3	-44.7	13.1	3.35e-05	0	59	0	988807168	53	5563
2026-01-12 10:52:15.48	321.25	23.55	-41.2	-44.5	13.3	2.28e-05	0	59	0	990904320	53	5449
2026-01-12 10:52:16.49	321.40	23.42	-41.2	-44.4	13.4	1.44e-05	0	59	0	993001472	53	5364
2026-01-12 10:52:17.50	321.55	23.29	-41.1	-44.4	13.4	1.52e-05	0	59	0	995098624	53	5346
2026-01-12 10:52:18.51	321.70	23.16	-41.1	-44.3	13.5	1.29e-05	0	59	0	996147200	53	5322
2026-01-12 10:52:19.52	321.85	23.04	-41.1	-44.4	13.5	8.30e-06	0	59	0	998244352	53	5347
2026-01-12 10:52:20.53	321.99	22.91	-41.2	-44.5	13.4	1.60e-05	0	59	0	1000341504	53	5408
2026-01-12 10:52:21.54	322.14	22.78	-41.2	-44.5	13.3	1.83e-05	0	59	0	1002438656	53	5446
2026-01-12 10:52:22.55	322.28	22.66	-41.2	-44.5	13.2	1.90e-05	0	59	0	1004535808	53	5462
2026-01-12 10:52:23.56	322.42	22.53	-41.3	-44.7	13.0	1.98e-05	0	59	0	1005584384	53	5578
2026-01-12 10:52:24.57	322.56	22.41	-41.3	-44.8	13.0	4.80e-05	0	59	0	1007681536	53	5597
2026-01-12 10:52:25.58	322.70	22.29	-41.4	-44.9	12.8	4.65e-05	0	59	0	1009778688	53	5697
2026-01-12 10:52:26.59	322.84	22.16	-41.5	-45.1	12.6	7.55e-05	0	59	0	1011875840	53	5821
2026-01-12 10:52:27.60	322.98	22.04	-41.5	-45.1	12.7	7.55e-05	0	59	0	1013972992	53	5793
2026-01-12 10:52:28.61	323.12	21.92	-41.6	-45.2	12.6	7.01e-05	0	59	0	1015021568	53	5860
2026-01-12 10:52:29.62	323.25	21.79	-41.6	-45.2	12.6	1.26e-04	0	59	0	1017118720	53	5893
2026-01-12 10:52:30.63	323.39	21.67	-41.5	-45.2	12.6	9.23e-05	0	59	0	1019215872	53	5860
2026-01-12 10:52:31.64	323.52	21.55	-41.6	-45.3	12.4	1.17e-04	0	59	0	1021313024	53	5980
2026-01-12 10:52:32.64	323.65	21.43	-41.6	-45.2	12.5	1.32e-04	0	59	0	1023410176	53	5874
2026-01-12 10:52:33.65	323.78	21.31	-41.7	-45.4	12.3	1.47e-04	0	59	0	1024458752	53	6013
2026-01-12 10:52:34.66	323.92	21.19	-41.7	-45.4	12.3	1.74e-04	0	59	0	1026555904	53	6053
2026-01-12 10:52:35.67	324.04	21.07	-41.7	-45.4	12.3	1.53e-04	0	59	0	1028653056	53	5997
2026-01-12 10:52:36.68	324.17	20.95	-41.7	-45.5	12.3	1.65e-04	0	59	0	1030750208	53	6081
2026-01-12 10:52:37.69	324.30	20.83	-41.8	-45.6	12.2	2.69e-04	0	59	0	1032847360	54	5790
2026-01-12 10:52:38.70	324.43	20.72	-41.7	-45.6	12.2	2.22e-04	0	59	0	1033895936	54	5790
2026-01-12 10:52:39.71	324.55	20.60	-41.8	-45.7	12.0	3.07e-04	0	59	0	1035993088	54	5918
2026-01-12 10:52:40.72	324.68	20.48	-41.8	-45.8	11.9	3.58e-04	0	59	0	1038090240	54	5943
2026-01-12 10:52:41.73	324.80	20.36	-41.9	-45.9	11.7	4.84e-04	0	59	0	1040187392	54	6022
2026-01-12 10:52:42.74	324.93	20.25	-42.0	-46.0	11.6	6.19e-04	0	59	0	1042284544	54	6101
2026-01-12 10:52:43.75	325.05	20.13	-41.9	-45.8	11.8	5.58e-04	0	59	0	1043333120	54	5961
2026-01-12 10:52:44.76	325.17	20.01	-41.9	-45.9	11.7	4.82e-04	0	59	0	1045430272	54	6050
2026-01-12 10:52:45.77	325.29	19.90	-41.9	-45.9	11.7	5.39e-04	0	59	0	1047527424	54	6034
2026-01-12 10:52:46.78	325.41	19.78	-41.9	-46.0	11.7	5.33e-04	0	59	0	1049624576	54	6074
2026-01-12 10:52:47.79	325.53	19.67	-41.9	-46.0	11.6	6.03e-04	0	59	0	1051721728	54	6093
2026-01-12 10:52:48.80	325.65	19.55	-41.8	-45.8	11.8	5.94e-04	0	59	0	1053818880	54	5956
2026-01-12 10:52:49.81	325.76	19.44	-41.8	-45.6	12.0	3.87e-04	0	59	0	1054867456	54	5839
2026-01-12 10:52:50.82	325.88	19.33	-41.7	-45.4	12.2	2.93e-04	0	59	0	1056964608	54	5718
2026-01-12 10:52:51.83	326.00	19.21	-41.6	-45.3	12.3	1.78e-04	0	59	0	1059061760	54	5646
2026-01-12 10:52:52.84	326.11	19.10	-41.6	-45.3	12.4	1.72e-04	0	59	0	1061158912	54	5603
2026-01-12 10:52:53.85	326.22	18.99	-41.6	-45.3	12.3	1.44e-04	0	59	0	1063256064	54	5642
2026-01-12 10:52:54.86	326.34	18.88	-41.6	-45.3	12.3	2.14e-04	0	59	0	1064304640	54	5652
2026-01-12 10:52:55.87	326.45	18.77	-41.7	-45.5	12.1	2.51e-04	0	59	0	1066401792	54	5767
2026-01-12 10:52:56.88	326.56	18.66	-41.7	-45.5	12.1	2.27e-04	0	59	0	1068498944	54	5777
2026-01-12 10:52:57.89	326.67	18.55	-41.6	-45.3	12.3	1.74e-04	0	59	0	1070596096	54	5620
2026-01-12 10:52:58.90	326.78	18.44	-41.6	-45.4	12.2	1.93e-04	0	59	0	1072693248	54	5685
2026-01-12 10:52:59.91	326.89	18.33	-41.7	-45.5	12.1	2.85e-04	0	59	0	1073741824	54	5749
2026-01-12 10:53:00.92	327.00	18.22	-41.6	-45.4	12.2	2.87e-04	0	59	0	1075838976	54	5686
2026-01-12 10:53:01.93	327.11	18.11	-41.8	-45.7	11.9	3.09e-04	0	59	0	1077936128	54	5873
2026-01-12 10:53:02.94	327.21	18.00	-41.7	-45.6	12.0	3.62e-04	0	59	0	1080033280	54	5804
2026-01-12 10:53:03.95	327.32	17.89	-41.7	-45.6	12.0	3.07e-04	0	59	0	1082130432	54	5802
2026-01-12 10:53:04.96	327.42	17.78	-41.7	-45.6	12.0	3.81e-04	0	59	0	1083179008	54	5790
2026-01-12 10:53:05.97	327.53	17.68	-41.7	-45.5	12.0	3.38e-04	0	59	0	1085276160	54	5761
2026-01-12 10:53:06.98	327.63	17.57	-41.7	-45.6	11.9	3.34e-04	0	59	0	1087373312	54	5827
2026-01-12 10:53:07.99	327.74	17.46	-41.7	-45.6	11.9	3.49e-04	0	59	0	1089470464	54	5819
2026-01-12 10:53:09.00	327.84	17.36	-41.6	-45.4	12.1	3.07e-04	0	59	0	1091567616	54	5703
2026-01-12 10:53:10.01	327.94	17.25	-41.6	-45.4	12.1	2.75e-04	0	59	0	1092616192	54	5705
2026-01-12 10:53:11.02	328.04	17.14	-41.6	-45.4	12.1	2.72e-04	0	59	0	1094713344	54	5703
2026-01-12 10:53:12.03	328.14	17.04	-41.6	-45.5	12.0	3.00e-04	0	59	0	1096810496	54	5757
2026-01-12 10:53:13.04	328.24	16.93	-41.6	-45.5	11.9	4.98e-04	0	59	0	1098907648	54	5777
2026-01-12 10:53:14.04	328.34	16.83	-41.6	-45.5	12.0	4.28e-04	0	59	0	1101004800	54	5756
2026-01-12 10:53:15.05	328.44	16.73	-41.7	-45.7	11.8	4.20e-04	0	59	0	1102053376	54	5892
2026-01-12 10:53:16.06	328.54	16.62	-41.8	-45.8	11.6	6.40e-04	0	59	0	1104150528	54	5971
2026-01-12 10:53:17.08	328.63	16.52	-41.8	-45.9	11.5	8.28e-04	0	59	0	1106247680	54	6050
2026-01-12 10:53:18.08	328.73	16.42	-42.0	-46.3	11.1	1.53e-03	0	59	0	1108344832	54	6278
2026-01-12 10:53:19.09	328.83	16.31	-42.0	-46.4	11.0	2.43e-03	0	59	0	1110441984	54	6376
2026-01-12 10:53:20.10	328.92	16.21	-42.0	-46.4	11.0	2.73e-03	0	59	0	1111490560	54	6375
2026-01-12 10:53:21.12	329.02	16.11	-42.1	-46.7	10.7	2.61e-03	0	59	0	1113587712	54	6610
2026-01-12 10:53:22.13	329.11	16.01	-42.1	-46.6	10.8	2.68e-03	0	59	0	1115684864	54	6515
2026-01-12 10:53:23.14	329.20	15.91	-42.1	-46.7	10.7	2.64e-03	0	59	0	1117782016	54	6607
2026-01-12 10:53:24.14	329.30	15.81	-42.1	-46.7	10.6	3.29e-03	0	59	0	1119879168	54	6638
2026-01-12 10:53:25.16	329.39	15.71	-42.1	-46.7	10.6	3.58e-03	0	59	0	1121976320	54	6639
2026-01-12 10:53:26.17	329.48	15.61	-42.0	-46.5	10.9	3.25e-03	0	59	0	1123024896	54	6436
2026-01-12 10:53:27.17	329.57	15.51	-41.9	-46.2	11.2	1.87e-03	0	59	0	1125122048	54	6232
2026-01-12 10:53:28.18	329.66	15.41	-41.8	-46.1	11.3	1.44e-03	0	59	0	1127219200	54	6147
2026-01-12 10:53:29.19	329.75	15.31	-41.8	-46.1	11.3	1.27e-03	0	59	0	1129316352	54	6162
2026-01-12 10:53:30.20	329.84	15.21	-41.8	-45.9	11.4	1.32e-03	0	59	0	1131413504	54	6031
2026-01-12 10:53:31.21	329.93	15.11	-41.8	-46.0	11.3	3.23e-03	0	59	0	1132462080	54	6085
2026-01-12 10:53:32.22	330.02	15.01	-41.7	-45.8	11.4	2.77e-03	0	59	0	1134559232	54	5976
2026-01-12 10:53:33.23	330.11	14.92	-41.7	-45.8	11.5	1.38e-03	0	59	0	1136656384	54	5925
2026-01-12 10:53:34.24	330.19	14.82	-41.7	-45.8	11.5	8.56e-04	0	59	0	1138753536	54	5960
2026-01-12 10:53:35.25	330.28	14.72	-41.7	-45.8	11.6	6.64e-04	0	59	0	1140850688	54	5927
2026-01-12 10:53:36.25	330.37	14.63	-41.6	-45.7	11.7	5.99e-04	0	59	0	1141899264	54	5863
2026-01-12 10:53:37.27	330.45	14.53	-41.7	-45.8	11.5	7.17e-04	0	59	0	1143996416	54	5952
2026-01-12 10:53:38.28	330.54	14.43	-41.7	-45.8	11.5	9.06e-04	0	59	0	1146093568	54	5977
2026-01-12 10:53:39.29	330.62	14.34	-41.7	-45.8	11.5	7.47e-04	0	59	0	1148190720	54	5973
2026-01-12 10:53:40.30	330.71	14.24	-41.6	-45.6	11.6	7.19e-04	0	59	0	1150287872	54	5851
2026-01-12 10:53:41.31	330.79	14.15	-41.7	-45.9	11.4	8.37e-04	0	59	0	1151336448	54	6013
2026-01-12 10:53:42.31	330.87	14.05	-41.7	-45.9	11.4	1.11e-03	0	59	0	1153433600	54	6011
2026-01-12 10:53:43.32	330.96	13.96	-41.7	-45.8	11.4	9.46e-04	0	59	0	1155530752	54	5988
2026-01-12 10:53:44.33	331.04	13.86	-41.7	-45.9	11.3	1.00e-03	0	59	0	1157627904	54	6024
2026-01-12 10:53:45.34	331.12	13.77	-41.7	-45.9	11.3	1.00e-03	0	59	0	1159725056	54	6047
2026-01-12 10:53:46.35	331.20	13.68	-41.7	-46.0	11.3	1.15e-03	0	59	0	1160773632	54	6077
2026-01-12 10:53:47.36	331.28	13.58	-41.8	-46.0	11.2	1.37e-03	0	59	0	1162870784	54	6126
2026-01-12 10:53:48.37	331.36	13.49	-41.8	-46.2	11.0	1.51e-03	0	59	0	1164967936	54	6251
2026-01-12 10:53:49.38	331.44	13.40	-41.9	-46.3	10.9	2.30e-03	0	59	0	1167065088	54	6302
2026-01-12 10:53:50.39	331.52	13.31	-41.9	-46.5	10.7	2.81e-03	0	59	0	1169162240	54	6426
2026-01-12 10:53:51.40	331.60	13.21	-41.9	-46.4	10.8	2.69e-03	0	59	0	1170210816	54	6392
2026-01-12 10:53:52.41	331.68	13.12	-41.9	-46.5	10.6	3.08e-03	0	59	0	1172307968	54	6480
2026-01-12 10:53:53.42	331.76	13.03	-41.9	-46.4	10.7	3.24e-03	0	59	0	1174405120	54	6410
