passes_logs/2026/01/12/R2.0S_Moscow/R2.0S_Moscow__20260112_081302_NOAA_21_JPSS-2_rec.log

#Pass ID: 20260112_081302_NOAA 21 (JPSS-2)
#Satellite: NOAA 21 (JPSS-2)
#Configuration: NOAA-21
#almurnet v.1.7.20251203
#Start time: 2026-01-12 08:13:04

#Version: 2.2.20231116
#Station: R2.0S_Moscow
#Location: 37.707566 lon 55.798166 lat
#TLE: 1 54234U 22150A   26011.27699114  .00000090  00000+0  63771-4 0  9993
#TLE: 2 54234  98.7494 312.2218 0000765 314.9553  45.1561 14.19534106164285

#Time	Az	El	Level	Level2	SNR	BER	BlckErr	Temp	State	Recorded	gain1	gain2
2026-01-12 08:13:04.02	110.57	2.07	-33.9	-45.8	3.8	1.50e+00	0	47	0	0	22	37730
2026-01-12 08:13:05.04	110.50	2.13	-33.9	-47.0	4.0	1.51e+00	0	47	104	0	41	14389
2026-01-12 08:13:06.05	110.43	2.19	-34.8	-47.7	4.0	1.51e+00	0	47	104	0	39	17640
2026-01-12 08:13:07.06	110.36	2.24	-29.6	-45.5	4.0	1.50e+00	0	47	104	0	36	16256
2026-01-12 08:13:08.07	110.29	2.30	-36.5	-46.8	3.9	1.51e+00	0	47	104	0	40	15040
2026-01-12 08:13:09.08	110.22	2.36	-37.0	-49.2	3.9	1.50e+00	0	48	104	0	42	17542
2026-01-12 08:13:10.09	110.15	2.41	-35.9	-47.7	3.9	1.51e+00	0	47	104	0	40	16615
2026-01-12 08:13:11.10	110.08	2.47	-32.6	-46.2	4.3	1.50e+00	0	48	104	0	25	32992
2026-01-12 08:13:12.11	110.00	2.53	-23.3	-37.5	3.4	1.51e+00	0	48	104	0	22	14481
2026-01-12 08:13:13.13	109.93	2.58	-33.0	-44.1	3.7	1.52e+00	0	48	104	0	20	34515
2026-01-12 08:13:14.14	109.86	2.64	-35.4	-46.9	3.9	1.51e+00	0	48	104	0	30	26840
2026-01-12 08:13:15.15	109.79	2.70	-25.4	-39.8	3.8	1.51e+00	0	48	104	0	20	21053
2026-01-12 08:13:16.16	109.72	2.76	-23.0	-38.5	3.8	1.52e+00	0	48	104	0	20	18130
2026-01-12 08:13:17.17	109.64	2.81	-36.6	-47.5	3.9	1.51e+00	0	48	104	0	35	21665
2026-01-12 08:13:18.18	109.57	2.87	-34.7	-47.2	4.0	1.51e+00	0	48	104	0	36	19626
2026-01-12 08:13:19.19	109.50	2.93	-24.4	-40.8	3.7	1.51e+00	0	48	104	0	23	19985
2026-01-12 08:13:20.20	109.43	2.99	-34.1	-48.8	3.9	1.50e+00	0	48	104	0	39	19886
2026-01-12 08:13:21.21	109.35	3.04	-25.2	-38.7	3.6	1.50e+00	0	48	104	0	22	16580
2026-01-12 08:13:22.22	109.28	3.10	-27.6	-43.9	3.8	1.50e+00	0	48	104	0	33	16068
2026-01-12 08:13:23.24	109.20	3.16	-28.8	-44.9	3.8	1.51e+00	0	48	104	0	30	21462
2026-01-12 08:13:24.25	109.13	3.22	-26.1	-40.7	4.1	1.51e+00	0	49	104	0	28	14827
2026-01-12 08:13:25.26	109.05	3.28	-25.5	-41.0	3.7	1.51e+00	0	49	104	0	29	14376
2026-01-12 08:13:26.27	108.98	3.33	-33.1	-45.0	4.0	1.50e+00	0	49	104	0	39	12858
2026-01-12 08:13:27.28	108.90	3.39	-35.6	-48.9	4.2	1.50e+00	0	49	104	0	42	16906
2026-01-12 08:13:28.29	108.83	3.45	-35.8	-47.6	3.9	1.50e+00	0	49	104	0	41	15425
2026-01-12 08:13:29.30	108.75	3.51	-31.2	-48.0	3.9	1.50e+00	0	49	104	0	40	17252
2026-01-12 08:13:30.31	108.67	3.57	-33.6	-46.4	3.8	1.50e+00	0	49	104	0	37	16988
2026-01-12 08:13:31.32	108.60	3.63	-33.3	-46.1	4.1	1.50e+00	0	49	104	0	39	14592
2026-01-12 08:13:32.33	108.52	3.68	-34.8	-46.4	3.9	1.51e+00	0	49	104	0	32	22538
2026-01-12 08:13:33.34	108.44	3.74	-22.4	-38.3	3.5	1.50e+00	0	49	104	0	23	14884
2026-01-12 08:13:34.35	108.37	3.80	-36.7	-49.3	4.0	1.50e+00	0	49	104	0	41	18772
2026-01-12 08:13:35.37	108.29	3.86	-34.0	-47.8	4.1	1.50e+00	0	49	104	0	40	16786
2026-01-12 08:13:36.38	108.21	3.92	-35.8	-49.3	4.1	1.50e+00	0	49	104	0	42	17721
2026-01-12 08:13:37.38	108.13	3.98	-34.2	-47.6	4.0	1.50e+00	0	49	104	0	35	21967
2026-01-12 08:13:38.40	108.05	4.04	-35.2	-45.1	3.8	1.50e+00	0	49	104	0	31	20649
2026-01-12 08:13:39.41	107.97	4.10	-36.2	-48.3	4.0	1.50e+00	0	49	104	0	41	16764
2026-01-12 08:13:40.42	107.89	4.16	-30.7	-46.4	3.9	1.51e+00	0	49	104	0	38	16022
2026-01-12 08:13:41.43	107.81	4.22	-25.4	-39.5	3.7	1.50e+00	0	49	104	0	22	18220
2026-01-12 08:13:42.44	107.73	4.27	-27.1	-40.9	3.8	1.51e+00	0	50	104	0	24	19114
2026-01-12 08:13:43.45	107.65	4.33	-34.8	-49.2	3.9	1.51e+00	0	50	104	0	37	23339
2026-01-12 08:13:44.46	107.57	4.39	-36.5	-48.5	4.0	1.50e+00	0	50	104	0	39	19181
2026-01-12 08:13:45.47	107.49	4.45	-36.4	-48.5	4.1	1.50e+00	0	50	104	0	41	17275
2026-01-12 08:13:46.48	107.41	4.51	-36.5	-50.0	4.0	1.50e+00	0	49	104	0	41	20329
2026-01-12 08:13:47.50	107.32	4.57	-32.7	-48.4	4.0	1.50e+00	0	50	104	0	41	16901
2026-01-12 08:13:48.51	107.24	4.63	-31.7	-48.2	4.0	1.50e+00	0	50	104	0	39	18559
2026-01-12 08:13:49.52	107.16	4.69	-25.0	-38.4	4.0	1.50e+00	0	50	104	0	34	8079
2026-01-12 08:13:50.53	107.08	4.75	-35.9	-48.0	3.9	1.50e+00	0	50	104	0	39	18253
2026-01-12 08:13:51.54	106.99	4.81	-35.3	-47.3	4.1	1.50e+00	0	50	104	0	39	16724
2026-01-12 08:13:52.55	106.91	4.87	-34.0	-47.9	3.9	1.50e+00	0	50	104	0	35	22569
2026-01-12 08:13:53.56	106.82	4.93	-23.2	-39.3	3.6	1.51e+00	0	50	104	0	18	22307
2026-01-12 08:13:54.57	106.74	4.99	-36.6	-49.0	3.9	1.50e+00	0	50	104	0	42	17121
2026-01-12 08:13:55.58	106.65	5.05	-34.6	-48.6	3.9	1.51e+00	0	50	104	0	38	20744
2026-01-12 08:13:56.59	106.57	5.11	-26.2	-40.5	3.8	1.50e+00	0	50	104	0	38	8126
2026-01-12 08:13:57.60	106.48	5.18	-31.3	-47.3	3.9	1.51e+00	0	51	104	0	29	29927
2026-01-12 08:13:58.62	106.40	5.24	-31.1	-47.0	4.0	1.50e+00	0	51	104	0	34	21652
2026-01-12 08:13:59.63	106.31	5.30	-28.8	-45.5	4.2	1.51e+00	0	50	104	0	27	27199
2026-01-12 08:14:00.62	106.23	5.36	-28.8	-41.5	3.8	1.50e+00	0	50	104	0	35	10801
2026-01-12 08:14:01.63	106.14	5.42	-32.0	-44.8	3.6	1.51e+00	0	51	104	0	23	31760
2026-01-12 08:14:02.64	106.05	5.48	-32.5	-46.1	3.7	1.51e+00	0	51	104	0	31	23123
2026-01-12 08:14:03.65	105.96	5.54	-33.8	-48.0	4.0	1.50e+00	0	51	104	0	37	20473
2026-01-12 08:14:04.66	105.88	5.60	-28.8	-42.6	3.5	1.51e+00	0	51	104	0	26	20759
2026-01-12 08:14:05.67	105.79	5.66	-37.6	-49.1	4.0	1.50e+00	0	51	104	0	40	19431
2026-01-12 08:14:06.68	105.70	5.72	-35.7	-48.6	4.0	1.50e+00	0	51	104	0	40	18449
2026-01-12 08:14:07.70	105.61	5.78	-26.5	-39.1	3.9	1.51e+00	0	51	104	0	22	17470
2026-01-12 08:14:08.71	105.52	5.85	-27.8	-39.6	3.9	1.50e+00	0	51	104	0	25	15536
2026-01-12 08:14:09.72	105.43	5.91	-28.9	-44.2	3.8	1.50e+00	0	51	104	0	27	23530
2026-01-12 08:14:10.73	105.34	5.97	-25.1	-39.9	3.7	1.51e+00	0	51	104	0	20	21335
2026-01-12 08:14:11.74	105.25	6.03	-31.1	-43.8	3.8	1.50e+00	0	51	104	0	29	19973
2026-01-12 08:14:12.75	105.16	6.09	-25.7	-39.7	3.8	1.51e+00	0	51	104	0	26	14745
2026-01-12 08:14:13.76	105.06	6.15	-36.3	-47.3	3.8	1.51e+00	0	51	104	0	32	25015
2026-01-12 08:14:14.77	104.97	6.22	-37.5	-48.5	3.9	1.50e+00	0	51	104	0	39	19252
2026-01-12 08:14:15.78	104.88	6.28	-26.6	-41.3	3.7	1.50e+00	0	51	104	0	28	15808
2026-01-12 08:14:16.79	104.79	6.34	-23.2	-38.4	3.7	1.51e+00	0	51	104	0	19	18971
2026-01-12 08:14:17.80	104.69	6.40	-25.9	-39.0	3.5	1.51e+00	0	51	104	0	23	16292
2026-01-12 08:14:18.81	104.60	6.46	-24.9	-35.9	3.8	1.51e+00	0	51	104	0	18	15070
2026-01-12 08:14:19.82	104.51	6.53	-35.6	-45.9	4.0	1.50e+00	0	51	104	0	34	19076
2026-01-12 08:14:20.84	104.41	6.59	-26.0	-42.9	3.9	1.51e+00	0	51	104	0	28	19035
2026-01-12 08:14:21.85	104.31	6.65	-30.6	-46.3	3.9	1.51e+00	0	51	104	0	37	16799
2026-01-12 08:14:22.86	104.22	6.71	-31.7	-45.4	3.7	1.51e+00	0	52	104	0	24	31963
2026-01-12 08:14:23.87	104.12	6.78	-36.5	-48.5	4.0	1.50e+00	0	52	104	0	40	18229
2026-01-12 08:14:24.88	104.03	6.84	-29.8	-44.9	4.1	1.50e+00	0	52	104	0	34	17055
2026-01-12 08:14:25.89	103.93	6.90	-34.6	-48.1	4.1	1.50e+00	0	51	104	0	41	16445
2026-01-12 08:14:26.90	103.83	6.96	-34.8	-48.9	3.7	1.50e+00	0	52	104	0	36	23953
2026-01-12 08:14:27.91	103.74	7.03	-35.2	-49.2	4.0	1.50e+00	0	52	104	0	39	20805
2026-01-12 08:14:28.92	103.64	7.09	-36.3	-48.6	3.9	1.50e+00	0	52	104	0	42	16327
2026-01-12 08:14:29.93	103.54	7.15	-29.0	-44.2	3.6	1.51e+00	0	52	104	0	31	18581
2026-01-12 08:14:30.94	103.44	7.22	-32.7	-46.2	3.9	1.51e+00	0	52	104	0	32	22069
2026-01-12 08:14:31.96	103.34	7.28	-36.5	-45.6	4.0	1.51e+00	0	52	104	0	27	27471
2026-01-12 08:14:32.97	103.24	7.34	-31.2	-45.1	3.8	1.50e+00	0	52	104	0	33	18379
2026-01-12 08:14:33.98	103.14	7.41	-34.8	-48.8	4.2	1.51e+00	0	52	104	0	40	18763
2026-01-12 08:14:34.99	103.04	7.47	-32.3	-46.2	4.1	1.50e+00	0	52	104	0	42	12441
2026-01-12 08:14:36.00	102.94	7.53	-36.4	-46.5	4.1	1.50e+00	0	52	104	0	43	12128
2026-01-12 08:14:37.01	102.84	7.60	-36.2	-47.8	3.9	1.50e+00	0	52	104	0	40	16847
2026-01-12 08:14:38.02	102.74	7.66	-35.2	-45.5	4.3	1.48e+00	0	52	104	0	39	13710
2026-01-12 08:14:39.03	102.63	7.72	-33.6	-42.3	4.2	1.47e+00	0	52	104	0	34	12632
2026-01-12 08:14:40.04	102.53	7.79	-32.9	-42.2	3.8	1.48e+00	0	52	104	0	20	27854
2026-01-12 08:14:41.05	102.43	7.85	-33.8	-40.1	4.3	1.48e+00	0	52	104	0	30	12339
2026-01-12 08:14:42.06	102.32	7.92	-33.4	-41.2	4.4	1.08e+00	0	52	104	0	35	10508
2026-01-12 08:14:43.07	102.22	7.98	-34.6	-41.1	7.0	7.77e-01	8	52	0	0	40	7730
2026-01-12 08:14:44.09	102.11	8.04	-30.2	-40.7	4.5	7.57e-01	0	52	104	0	34	10468
2026-01-12 08:14:45.09	102.01	8.11	-36.8	-47.7	3.9	1.50e+00	0	52	104	0	34	23549
2026-01-12 08:14:46.10	101.90	8.17	-38.0	-48.2	4.1	1.50e+00	0	52	104	0	41	16575
2026-01-12 08:14:47.11	101.80	8.24	-23.2	-37.8	4.2	1.35e+00	0	52	104	0	32	8403
2026-01-12 08:14:48.13	101.69	8.30	-32.0	-42.9	4.3	1.47e+00	0	52	104	0	36	12065
2026-01-12 08:14:49.14	101.58	8.37	-34.9	-44.4	4.2	1.46e+00	0	53	104	0	36	14301
2026-01-12 08:14:50.15	101.48	8.43	-31.5	-43.4	4.5	1.48e+00	0	53	104	0	36	12714
2026-01-12 08:14:51.15	101.37	8.49	-35.1	-44.1	4.2	1.48e+00	0	52	104	0	38	12313
2026-01-12 08:14:52.16	101.26	8.56	-35.7	-44.0	4.4	1.49e+00	0	53	104	0	37	12811
2026-01-12 08:14:53.17	101.15	8.62	-33.6	-45.3	4.1	1.48e+00	0	53	104	0	39	13356
2026-01-12 08:14:54.18	101.04	8.69	-30.7	-42.8	4.2	1.49e+00	0	53	104	0	41	8927
2026-01-12 08:14:55.19	100.93	8.75	-34.1	-47.0	4.1	1.50e+00	0	53	104	0	36	19210
2026-01-12 08:14:56.20	100.82	8.82	-27.7	-42.2	4.0	1.50e+00	0	53	104	0	34	12501
2026-01-12 08:14:57.21	100.71	8.88	-31.1	-43.7	3.9	1.51e+00	0	53	104	0	37	12493
2026-01-12 08:14:58.22	100.60	8.95	-36.1	-47.7	4.1	1.50e+00	0	53	104	0	41	15682
2026-01-12 08:14:59.23	100.49	9.01	-22.7	-37.9	3.7	1.50e+00	0	53	104	0	27	11348
2026-01-12 08:15:00.24	100.38	9.08	-33.4	-45.2	3.8	1.49e+00	0	53	104	0	34	17538
2026-01-12 08:15:01.25	100.26	9.14	-34.8	-45.0	4.1	1.48e+00	0	53	104	0	38	13573
2026-01-12 08:15:02.26	100.15	9.21	-31.8	-44.1	4.4	1.49e+00	0	53	104	0	40	11006
2026-01-12 08:15:03.27	100.03	9.27	-23.8	-39.7	4.5	1.49e+00	0	53	104	0	33	9841
2026-01-12 08:15:04.28	99.92	9.34	-30.8	-42.1	3.7	1.51e+00	0	53	104	0	29	16403
2026-01-12 08:15:05.29	99.81	9.40	-34.2	-45.1	4.2	1.50e+00	0	53	104	0	32	19534
2026-01-12 08:15:06.30	99.69	9.47	-34.1	-43.8	4.2	1.48e+00	0	53	104	0	33	15850
2026-01-12 08:15:07.31	99.57	9.54	-33.7	-44.3	4.0	1.49e+00	0	53	104	0	33	16832
2026-01-12 08:15:08.32	99.46	9.60	-33.6	-43.6	4.3	1.48e+00	0	53	104	0	32	16470
2026-01-12 08:15:09.33	99.34	9.67	-24.8	-38.6	5.1	1.47e+00	0	53	104	0	32	9211
2026-01-12 08:15:10.33	99.22	9.73	-23.1	-37.3	4.1	1.48e+00	0	53	104	0	31	8452
2026-01-12 08:15:11.34	99.10	9.80	-21.3	-36.9	3.8	1.50e+00	0	53	104	0	16	19166
2026-01-12 08:15:12.35	98.99	9.86	-31.9	-45.0	4.2	1.50e+00	0	53	104	0	32	19338
2026-01-12 08:15:13.37	98.87	9.93	-32.8	-45.9	4.0	1.50e+00	0	53	104	0	36	16983
2026-01-12 08:15:14.38	98.75	10.00	-32.1	-43.8	4.1	1.50e+00	0	53	104	0	26	23741
2026-01-12 08:15:15.39	98.63	10.06	-29.2	-42.7	4.0	1.49e+00	0	53	104	0	33	13968
2026-01-12 08:15:16.40	98.50	10.13	-33.6	-42.6	4.2	1.48e+00	0	54	104	0	36	11678
2026-01-12 08:15:17.41	98.38	10.19	-28.0	-40.2	4.2	1.47e+00	0	53	104	0	24	17630
2026-01-12 08:15:18.42	98.26	10.26	-27.1	-39.1	4.1	1.47e+00	0	53	104	0	22	17407
2026-01-12 08:15:19.43	98.14	10.33	-29.5	-41.8	3.9	1.45e+00	0	53	104	0	35	11233
2026-01-12 08:15:20.44	98.01	10.39	-34.5	-41.9	6.3	1.42e+00	0	53	104	0	37	10069
2026-01-12 08:15:21.45	97.89	10.46	-27.9	-41.7	4.4	1.50e+00	0	53	104	0	28	16556
2026-01-12 08:15:22.46	97.77	10.53	-27.2	-38.5	7.4	9.87e-01	16	54	0	0	39	6063
2026-01-12 08:15:23.47	97.64	10.59	-34.9	-41.8	7.0	7.27e-01	9	53	0	0	40	8438
2026-01-12 08:15:24.48	97.52	10.66	-34.6	-42.1	6.3	1.21e+00	1	54	104	0	36	10992
2026-01-12 08:15:25.49	97.39	10.73	-36.0	-42.1	6.6	9.86e-01	0	54	0	0	37	10359
2026-01-12 08:15:26.50	97.26	10.79	-35.8	-41.8	4.5	1.18e+00	0	54	104	0	35	11279
2026-01-12 08:15:27.51	97.14	10.86	-37.0	-42.2	7.1	1.44e+00	4	54	104	0	43	7403
2026-01-12 08:15:28.52	97.01	10.93	-36.7	-42.5	7.7	1.12e+00	9	54	104	0	44	7211
2026-01-12 08:15:29.53	96.88	10.99	-37.7	-42.2	8.7	2.68e-01	2	54	0	1048576	44	6975
2026-01-12 08:15:30.54	96.75	11.06	-37.1	-42.7	4.7	9.34e-01	0	54	104	3145728	43	7825
2026-01-12 08:15:31.55	96.62	11.13	-37.8	-41.8	8.6	4.81e-01	2	54	0	4194304	43	7042
2026-01-12 08:15:32.56	96.49	11.19	-32.1	-40.8	8.0	1.56e-01	3	54	0	4194304	42	6703
2026-01-12 08:15:33.57	96.36	11.26	-35.4	-40.9	8.2	3.48e-01	5	54	0	7340032	42	6776
2026-01-12 08:15:34.58	96.23	11.33	-29.1	-39.9	4.4	1.24e+00	0	54	104	8388608	28	13496
2026-01-12 08:15:35.59	96.10	11.39	-38.5	-41.7	11.1	1.35e-01	0	54	0	9437184	47	5542
2026-01-12 08:15:36.60	95.96	11.46	-38.9	-41.9	10.7	3.86e-02	0	54	0	12582912	48	5380
2026-01-12 08:15:37.61	95.83	11.53	-38.5	-41.9	10.2	3.77e-02	0	54	0	15728640	47	5709
2026-01-12 08:15:38.62	95.70	11.59	-37.9	-42.0	11.2	8.97e-03	0	54	0	18874368	47	5728
2026-01-12 08:15:39.63	95.56	11.66	-39.4	-42.5	11.2	7.37e-03	0	54	0	22020096	49	5429
2026-01-12 08:15:40.64	95.43	11.73	-36.8	-41.8	9.4	1.83e-03	0	54	0	25165824	47	5647
2026-01-12 08:15:41.65	95.29	11.79	-39.0	-41.6	12.4	8.52e-04	0	54	0	28311552	48	5192
2026-01-12 08:15:42.66	95.15	11.86	-38.1	-40.6	13.3	2.62e-04	0	54	0	31457280	47	4873
2026-01-12 08:15:43.66	95.02	11.93	-37.8	-40.2	13.6	2.46e-03	0	54	0	34603008	46	4952
2026-01-12 08:15:44.67	94.88	12.00	-37.6	-40.5	12.5	3.71e-04	0	54	0	37748736	46	5101
2026-01-12 08:15:45.68	94.74	12.06	-37.9	-40.7	13.2	8.00e-04	0	54	0	40894464	47	4941
2026-01-12 08:15:46.69	94.60	12.13	-38.0	-40.5	13.5	1.60e-05	0	54	0	44040192	47	4858
2026-01-12 08:15:47.70	94.46	12.20	-38.2	-40.5	13.6	1.06e-05	0	54	0	47185920	47	4850
2026-01-12 08:15:48.71	94.32	12.26	-38.1	-40.4	13.8	7.60e-06	0	54	0	50331648	47	4761
2026-01-12 08:15:49.72	94.18	12.33	-38.1	-40.5	13.6	4.50e-06	0	54	0	53477376	47	4846
2026-01-12 08:15:50.73	94.04	12.40	-38.2	-40.5	13.7	1.06e-05	0	54	0	56623104	47	4836
2026-01-12 08:15:51.74	93.90	12.47	-38.2	-40.5	13.7	3.00e-06	0	54	0	59768832	47	4840
2026-01-12 08:15:52.75	93.75	12.53	-38.3	-40.6	13.6	1.06e-05	0	54	0	62914560	47	4901
2026-01-12 08:15:53.76	93.61	12.60	-38.3	-40.6	13.6	9.90e-06	0	54	0	66060288	47	4918
2026-01-12 08:15:54.77	93.47	12.67	-38.3	-40.6	13.7	9.10e-06	0	54	0	69206016	47	4882
2026-01-12 08:15:55.78	93.32	12.74	-38.4	-40.8	13.4	1.22e-05	0	54	0	72351744	47	5028
2026-01-12 08:15:56.79	93.18	12.80	-38.5	-41.0	13.3	1.37e-05	0	54	0	75497472	47	5117
2026-01-12 08:15:57.80	93.03	12.87	-38.6	-41.0	13.2	2.59e-05	0	54	0	78643200	47	5141
2026-01-12 08:15:58.81	92.88	12.94	-38.6	-41.0	13.3	2.74e-05	0	54	0	81788928	48	4868
2026-01-12 08:15:59.82	92.74	13.00	-38.6	-41.0	13.3	1.29e-05	0	54	0	84934656	48	4854
2026-01-12 08:16:00.82	92.59	13.07	-38.6	-41.0	13.3	1.75e-05	0	54	0	88080384	48	4816
2026-01-12 08:16:01.83	92.44	13.14	-38.7	-41.2	13.1	3.12e-05	0	54	0	91226112	48	4928
2026-01-12 08:16:02.83	92.29	13.21	-38.4	-40.7	13.5	2.36e-05	0	54	0	94371840	48	4681
2026-01-12 08:16:03.84	92.14	13.27	-38.4	-40.9	13.3	8.30e-06	0	54	0	97517568	48	4764
2026-01-12 08:16:04.85	91.99	13.34	-38.4	-40.8	13.4	2.44e-05	0	54	0	100663296	48	4727
2026-01-12 08:16:05.86	91.84	13.41	-38.2	-40.6	13.6	7.60e-06	0	54	0	103809024	48	4603
2026-01-12 08:16:06.87	91.69	13.47	-38.3	-40.7	13.5	9.90e-06	0	54	0	106954752	48	4665
2026-01-12 08:16:07.88	91.53	13.54	-38.4	-40.8	13.3	1.60e-05	0	54	0	110100480	48	4759
2026-01-12 08:16:08.89	91.38	13.61	-38.4	-40.7	13.4	1.67e-05	0	54	0	113246208	48	4693
2026-01-12 08:16:09.90	91.22	13.68	-38.3	-40.5	13.7	1.29e-05	0	54	0	116391936	48	4581
2026-01-12 08:16:10.91	91.07	13.74	-38.1	-40.3	13.9	6.80e-06	0	54	0	119537664	48	4476
2026-01-12 08:16:11.92	90.91	13.81	-37.9	-40.1	14.0	0.00e+00	0	54	0	122683392	47	4634
2026-01-12 08:16:12.93	90.76	13.88	-37.9	-40.2	13.8	6.10e-06	0	54	0	125829120	47	4672
2026-01-12 08:16:13.94	90.60	13.94	-38.0	-40.4	13.7	4.50e-06	0	54	0	128974848	47	4760
2026-01-12 08:16:14.95	90.44	14.01	-37.9	-40.3	13.7	6.10e-06	0	54	0	132120576	47	4726
2026-01-12 08:16:15.96	90.28	14.08	-38.0	-40.3	13.6	4.50e-06	0	54	0	135266304	47	4753
2026-01-12 08:16:16.97	90.12	14.15	-37.8	-40.2	13.7	1.14e-05	0	54	0	138412032	47	4663
2026-01-12 08:16:17.98	89.96	14.21	-37.6	-39.9	14.1	3.00e-06	0	54	0	142606336	47	4512
2026-01-12 08:16:18.99	89.80	14.28	-37.8	-40.1	13.9	7.00e-07	0	54	0	144703488	47	4608
2026-01-12 08:16:20.00	89.64	14.35	-37.9	-40.2	13.6	6.80e-06	0	54	0	147849216	47	4689
2026-01-12 08:16:21.00	89.48	14.41	-37.9	-40.3	13.5	9.90e-06	0	54	0	150994944	47	4758
2026-01-12 08:16:22.01	89.32	14.48	-38.2	-40.7	13.2	1.98e-05	0	55	0	154140672	47	4934
2026-01-12 08:16:23.02	89.15	14.55	-38.5	-41.1	12.7	6.56e-05	0	54	0	158334976	47	5192
2026-01-12 08:16:24.03	88.99	14.61	-38.5	-41.2	12.6	7.93e-05	0	55	0	161480704	47	5263
2026-01-12 08:16:25.04	88.82	14.68	-38.6	-41.4	12.3	1.66e-04	0	54	0	164626432	47	5367
2026-01-12 08:16:26.05	88.66	14.75	-38.7	-41.5	12.2	2.03e-04	0	55	0	167772160	47	5407
2026-01-12 08:16:27.06	88.49	14.81	-38.8	-41.7	12.0	2.77e-04	0	55	0	169869312	48	5246
2026-01-12 08:16:28.07	88.32	14.88	-38.8	-41.7	11.9	2.78e-04	0	55	0	174063616	48	5268
2026-01-12 08:16:29.08	88.15	14.95	-38.9	-41.8	11.8	4.43e-04	0	55	0	177209344	48	5320
2026-01-12 08:16:30.09	87.98	15.01	-38.9	-42.0	11.5	8.57e-04	0	54	0	180355072	48	5432
2026-01-12 08:16:31.10	87.81	15.08	-38.9	-41.9	11.5	8.95e-04	0	54	0	183500800	48	5401
2026-01-12 08:16:32.11	87.64	15.14	-38.8	-41.9	11.4	9.06e-04	0	54	0	186646528	48	5388
2026-01-12 08:16:33.13	87.47	15.21	-38.8	-42.0	11.3	1.03e-03	0	54	0	189792256	48	5409
2026-01-12 08:16:34.14	87.30	15.28	-38.9	-42.0	11.2	1.23e-03	0	55	0	192937984	48	5459
2026-01-12 08:16:35.15	87.12	15.34	-39.0	-42.3	10.9	2.23e-03	0	55	0	196083712	48	5640
2026-01-12 08:16:36.16	86.95	15.41	-39.1	-42.5	10.6	3.05e-03	0	55	0	199229440	48	5784
2026-01-12 08:16:37.17	86.78	15.47	-39.1	-42.7	10.4	4.57e-03	0	54	0	202375168	48	5873
2026-01-12 08:16:38.18	86.60	15.54	-39.1	-42.7	10.2	5.42e-03	0	55	0	205520896	48	5922
2026-01-12 08:16:39.19	86.42	15.61	-39.3	-43.0	9.9	7.87e-03	0	55	0	208666624	49	5753
2026-01-12 08:16:40.20	86.25	15.67	-39.4	-43.3	9.6	1.18e-02	0	55	0	211812352	49	5977
2026-01-12 08:16:41.21	86.07	15.74	-39.6	-43.8	9.1	2.16e-02	0	55	0	214958080	49	6296
2026-01-12 08:16:42.22	85.89	15.80	-39.7	-43.9	9.0	2.66e-02	0	55	0	218103808	49	6356
2026-01-12 08:16:43.22	85.71	15.87	-39.6	-43.7	9.2	2.22e-02	0	55	0	221249536	49	6239
2026-01-12 08:16:44.23	85.53	15.93	-39.6	-43.5	9.5	1.65e-02	0	55	0	224395264	49	6094
2026-01-12 08:16:45.24	85.35	16.00	-39.5	-43.3	9.7	1.24e-02	0	55	0	227540992	49	5983
2026-01-12 08:16:46.25	85.17	16.06	-39.4	-43.3	9.7	1.09e-02	0	55	0	230686720	49	5933
2026-01-12 08:16:47.26	84.99	16.12	-39.4	-43.1	9.9	8.77e-03	0	55	0	233832448	49	5836
2026-01-12 08:16:48.27	84.80	16.19	-39.4	-43.1	10.0	8.36e-03	0	55	0	236978176	49	5807
2026-01-12 08:16:49.28	84.62	16.25	-39.4	-43.0	10.1	7.55e-03	0	55	0	240123904	49	5778
2026-01-12 08:16:50.29	84.44	16.32	-39.4	-43.0	10.2	6.30e-03	0	55	0	243269632	49	5747
2026-01-12 08:16:51.30	84.25	16.38	-39.4	-42.8	10.5	4.30e-03	0	55	0	246415360	49	5638
2026-01-12 08:16:52.30	84.07	16.45	-39.3	-42.6	10.8	3.05e-03	0	55	0	249561088	49	5518
2026-01-12 08:16:53.31	83.88	16.51	-39.4	-42.8	10.8	2.50e-03	0	55	0	252706816	49	5593
2026-01-12 08:16:54.32	83.69	16.57	-39.4	-42.6	11.0	1.91e-03	0	55	0	255852544	49	5476
2026-01-12 08:16:55.33	83.50	16.64	-39.3	-42.5	11.1	1.64e-03	0	55	0	258998272	49	5408
2026-01-12 08:16:56.34	83.31	16.70	-39.3	-42.5	11.1	1.66e-03	0	55	0	262144000	49	5423
2026-01-12 08:16:57.35	83.12	16.76	-39.2	-42.3	11.3	1.36e-03	0	55	0	265289728	49	5308
2026-01-12 08:16:58.36	82.93	16.83	-39.1	-42.1	11.5	8.37e-04	0	55	0	268435456	49	5216
2026-01-12 08:16:59.37	82.74	16.89	-39.0	-42.0	11.7	6.20e-04	0	55	0	271581184	49	5112
2026-01-12 08:17:00.38	82.55	16.95	-39.1	-42.1	11.5	7.32e-04	0	55	0	274726912	49	5201
2026-01-12 08:17:01.39	82.35	17.01	-39.1	-42.0	11.7	5.45e-04	0	55	0	277872640	49	5143
2026-01-12 08:17:02.40	82.16	17.08	-39.0	-41.9	11.9	4.17e-04	0	55	0	281018368	49	5071
2026-01-12 08:17:03.41	81.96	17.14	-39.2	-42.1	11.7	4.63e-04	0	55	0	284164096	49	5202
2026-01-12 08:17:04.42	81.77	17.20	-39.2	-42.2	11.6	6.61e-04	0	55	0	287309824	49	5247
2026-01-12 08:17:05.43	81.57	17.26	-39.3	-42.4	11.3	8.50e-04	0	55	0	290455552	49	5388
2026-01-12 08:17:06.44	81.37	17.32	-39.4	-42.7	11.0	1.56e-03	0	55	0	293601280	49	5536
2026-01-12 08:17:07.45	81.17	17.39	-39.3	-42.4	11.2	1.54e-03	0	55	0	296747008	49	5395
2026-01-12 08:17:08.46	80.97	17.45	-39.1	-42.3	11.3	1.35e-03	0	55	0	299892736	49	5304
2026-01-12 08:17:09.47	80.77	17.51	-39.1	-42.4	11.1	1.56e-03	0	55	0	303038464	49	5345
2026-01-12 08:17:10.48	80.57	17.57	-39.0	-42.2	11.1	1.95e-03	0	55	0	306184192	49	5278
2026-01-12 08:17:11.49	80.37	17.63	-39.1	-42.4	10.8	2.14e-03	0	55	0	309329920	49	5401
2026-01-12 08:17:12.50	80.17	17.69	-39.1	-42.6	10.5	3.31e-03	0	55	0	312475648	49	5472
2026-01-12 08:17:13.51	79.96	17.75	-39.2	-42.8	10.2	6.09e-03	0	55	0	315621376	49	5639
2026-01-12 08:17:14.52	79.76	17.81	-39.3	-43.1	9.8	8.97e-03	0	55	0	318767104	49	5793
2026-01-12 08:17:15.53	79.56	17.87	-39.4	-43.4	9.5	1.46e-02	0	55	0	321912832	49	5993
2026-01-12 08:17:16.54	79.35	17.93	-39.4	-43.4	9.3	1.58e-02	0	55	0	325058560	49	6033
2026-01-12 08:17:17.55	79.14	17.99	-39.3	-43.3	9.5	1.62e-02	0	55	0	328204288	49	5983
2026-01-12 08:17:18.56	78.94	18.05	-39.2	-43.0	9.7	1.20e-02	0	55	0	331350016	49	5783
2026-01-12 08:17:19.57	78.73	18.11	-39.1	-42.8	10.1	8.04e-03	0	55	0	334495744	49	5647
2026-01-12 08:17:20.58	78.52	18.17	-39.1	-42.7	10.2	6.15e-03	0	55	0	337641472	49	5582
2026-01-12 08:17:21.59	78.31	18.22	-39.1	-42.6	10.4	4.65e-03	0	55	0	340787200	49	5509
2026-01-12 08:17:22.60	78.10	18.28	-39.0	-42.4	10.7	3.29e-03	0	55	0	343932928	49	5380
2026-01-12 08:17:23.61	77.89	18.34	-38.9	-42.2	10.9	2.22e-03	0	55	0	347078656	49	5245
2026-01-12 08:17:24.62	77.67	18.40	-38.9	-42.1	11.0	1.74e-03	0	55	0	350224384	49	5218
2026-01-12 08:17:25.63	77.46	18.45	-38.7	-41.8	11.5	1.02e-03	0	55	0	353370112	49	4991
2026-01-12 08:17:26.64	77.25	18.51	-38.7	-41.8	11.6	7.38e-04	0	55	0	356515840	49	4985
2026-01-12 08:17:27.65	77.03	18.57	-38.8	-41.8	11.6	7.42e-04	0	55	0	359661568	49	4999
2026-01-12 08:17:28.66	76.82	18.62	-38.7	-41.6	11.7	6.27e-04	0	55	0	362807296	49	4914
2026-01-12 08:17:29.67	76.60	18.68	-38.6	-41.6	11.7	5.36e-04	0	55	0	365953024	49	4895
2026-01-12 08:17:30.68	76.38	18.74	-38.7	-41.7	11.7	6.55e-04	0	55	0	369098752	49	4928
2026-01-12 08:17:31.69	76.17	18.79	-38.7	-41.8	11.6	6.16e-04	0	55	0	372244480	49	4997
2026-01-12 08:17:32.70	75.95	18.85	-38.8	-41.9	11.5	8.43e-04	0	55	0	375390208	49	5042
2026-01-12 08:17:33.71	75.73	18.90	-38.8	-41.9	11.4	1.11e-03	0	55	0	378535936	49	5063
2026-01-12 08:17:34.72	75.51	18.96	-38.7	-41.8	11.5	9.47e-04	0	55	0	381681664	49	5009
2026-01-12 08:17:35.73	75.29	19.01	-38.7	-41.8	11.4	1.04e-03	0	55	0	384827392	49	5022
2026-01-12 08:17:36.74	75.06	19.06	-38.6	-41.6	11.7	5.90e-04	0	55	0	387973120	49	4890
2026-01-12 08:17:37.75	74.84	19.12	-38.6	-41.5	11.9	4.72e-04	0	55	0	391118848	49	4836
2026-01-12 08:17:38.76	74.62	19.17	-38.6	-41.5	12.0	4.24e-04	0	55	0	394264576	49	4830
2026-01-12 08:17:39.77	74.39	19.22	-38.5	-41.2	12.2	2.30e-04	0	55	0	397410304	49	4687
2026-01-12 08:17:40.78	74.17	19.28	-38.4	-41.2	12.3	1.87e-04	0	55	0	400556032	48	4933
2026-01-12 08:17:41.79	73.94	19.33	-38.6	-41.3	12.2	2.01e-04	0	55	0	403701760	48	5032
2026-01-12 08:17:42.80	73.72	19.38	-38.6	-41.4	12.2	2.30e-04	0	56	0	406847488	48	5091
2026-01-12 08:17:43.81	73.49	19.43	-38.7	-41.5	12.3	2.23e-04	0	56	0	409993216	48	5107
2026-01-12 08:17:44.82	73.26	19.48	-38.7	-41.4	12.4	1.56e-04	0	56	0	413138944	48	5091
2026-01-12 08:17:45.83	73.03	19.53	-38.6	-41.3	12.6	1.22e-04	0	55	0	416284672	48	4994
2026-01-12 08:17:46.85	72.80	19.58	-38.5	-41.1	12.9	5.79e-05	0	55	0	419430400	48	4891
2026-01-12 08:17:47.85	72.57	19.63	-38.5	-41.0	13.0	5.34e-05	0	55	0	422576128	48	4857
2026-01-12 08:17:48.86	72.34	19.68	-38.4	-40.9	13.1	3.05e-05	0	55	0	425721856	48	4767
2026-01-12 08:17:49.87	72.11	19.73	-38.4	-40.8	13.3	1.90e-05	0	55	0	428867584	48	4733
2026-01-12 08:17:50.89	71.87	19.78	-38.4	-40.8	13.3	1.29e-05	0	56	0	432013312	48	4713
2026-01-12 08:17:51.90	71.64	19.83	-38.4	-40.8	13.3	1.98e-05	0	55	0	435159040	48	4727
2026-01-12 08:17:52.90	71.41	19.88	-38.3	-40.6	13.6	7.60e-06	0	55	0	438304768	48	4634
2026-01-12 08:17:53.91	71.17	19.92	-38.2	-40.5	13.8	7.60e-06	0	56	0	441450496	48	4556
2026-01-12 08:17:54.92	70.94	19.97	-38.2	-40.4	13.9	2.20e-06	0	56	0	444596224	48	4506
2026-01-12 08:17:55.93	70.70	20.02	-38.2	-40.4	14.0	3.80e-06	0	55	0	447741952	48	4525
2026-01-12 08:17:56.94	70.47	20.06	-38.2	-40.4	14.1	4.50e-06	0	56	0	450887680	48	4523
2026-01-12 08:17:57.95	70.23	20.11	-38.3	-40.4	14.1	3.00e-06	0	55	0	454033408	48	4537
2026-01-12 08:17:58.96	69.99	20.15	-38.1	-40.2	14.6	1.50e-06	0	55	0	457179136	48	4395
2026-01-12 08:17:59.97	69.75	20.20	-38.0	-39.9	14.9	7.00e-07	0	55	0	460324864	48	4277
2026-01-12 08:18:00.99	69.51	20.24	-37.8	-39.7	15.2	0.00e+00	0	55	0	463470592	47	4402
2026-01-12 08:18:02.00	69.27	20.29	-37.7	-39.5	15.3	0.00e+00	0	56	0	466616320	47	4333
2026-01-12 08:18:03.00	69.03	20.33	-37.6	-39.4	15.5	0.00e+00	0	56	0	469762048	47	4286
2026-01-12 08:18:04.01	68.79	20.38	-37.6	-39.4	15.5	0.00e+00	0	55	0	472907776	47	4267
2026-01-12 08:18:05.02	68.54	20.42	-37.6	-39.4	15.6	0.00e+00	0	55	0	477102080	47	4251
2026-01-12 08:18:06.03	68.30	20.46	-37.6	-39.4	15.6	0.00e+00	0	56	0	480247808	47	4254
2026-01-12 08:18:07.04	68.06	20.50	-37.5	-39.2	15.8	0.00e+00	0	56	0	483393536	46	4430
2026-01-12 08:18:08.05	67.81	20.54	-37.4	-39.1	16.0	0.00e+00	0	55	0	485490688	46	4353
2026-01-12 08:18:09.06	67.57	20.58	-37.5	-39.2	16.0	0.00e+00	0	56	0	488636416	46	4402
2026-01-12 08:18:10.07	67.32	20.62	-37.6	-39.3	15.9	0.00e+00	0	56	0	491782144	46	4466
2026-01-12 08:18:11.08	67.07	20.66	-37.4	-39.1	16.1	0.00e+00	0	55	0	495976448	46	4375
2026-01-12 08:18:12.09	66.83	20.70	-37.4	-39.1	16.1	0.00e+00	0	55	0	499122176	46	4358
2026-01-12 08:18:13.10	66.58	20.74	-37.4	-39.1	16.1	0.00e+00	0	56	0	502267904	46	4380
2026-01-12 08:18:14.11	66.33	20.78	-37.4	-39.1	16.2	0.00e+00	0	56	0	505413632	46	4355
2026-01-12 08:18:15.12	66.08	20.82	-37.5	-39.2	16.0	0.00e+00	0	55	0	507510784	46	4438
2026-01-12 08:18:16.13	65.83	20.85	-37.6	-39.3	16.0	0.00e+00	0	56	0	511705088	46	4465
2026-01-12 08:18:17.14	65.58	20.89	-37.7	-39.4	15.9	0.00e+00	0	56	0	514850816	46	4516
2026-01-12 08:18:18.16	65.33	20.93	-37.7	-39.4	15.9	0.00e+00	0	56	0	517996544	46	4545
2026-01-12 08:18:19.16	65.08	20.96	-37.8	-39.6	15.7	0.00e+00	0	56	0	521142272	46	4633
2026-01-12 08:18:20.18	64.83	21.00	-38.0	-39.8	15.6	0.00e+00	0	55	0	524288000	46	4706
2026-01-12 08:18:21.19	64.57	21.03	-38.0	-39.8	15.5	0.00e+00	0	56	0	527433728	46	4750
2026-01-12 08:18:22.20	64.32	21.07	-38.1	-39.9	15.4	0.00e+00	0	55	0	530579456	46	4807
2026-01-12 08:18:23.21	64.07	21.10	-38.1	-39.9	15.4	0.00e+00	0	55	0	533725184	46	4785
2026-01-12 08:18:24.22	63.81	21.13	-38.1	-40.0	15.4	0.00e+00	0	56	0	536870912	46	4819
2026-01-12 08:18:25.23	63.56	21.17	-38.2	-40.1	15.3	0.00e+00	0	56	0	540016640	47	4612
2026-01-12 08:18:26.24	63.30	21.20	-38.2	-40.1	15.3	0.00e+00	0	56	0	543162368	47	4615
2026-01-12 08:18:27.24	63.05	21.23	-38.0	-39.8	15.5	0.00e+00	0	56	0	546308096	47	4484
2026-01-12 08:18:28.25	62.79	21.26	-37.9	-39.7	15.6	0.00e+00	0	56	0	549453824	47	4404
2026-01-12 08:18:29.26	62.54	21.29	-37.9	-39.7	15.7	0.00e+00	0	56	0	552599552	47	4403
2026-01-12 08:18:30.27	62.28	21.32	-37.7	-39.4	15.9	0.00e+00	0	56	0	555745280	47	4277
2026-01-12 08:18:31.28	62.02	21.35	-37.6	-39.3	16.0	0.00e+00	0	56	0	558891008	47	4232
2026-01-12 08:18:32.29	61.76	21.38	-37.7	-39.4	15.9	0.00e+00	0	55	0	562036736	47	4259
2026-01-12 08:18:33.30	61.51	21.40	-37.7	-39.4	15.9	0.00e+00	0	56	0	565182464	47	4274
2026-01-12 08:18:34.31	61.25	21.43	-37.7	-39.4	16.0	0.00e+00	0	56	0	568328192	47	4266
2026-01-12 08:18:35.32	60.99	21.46	-37.6	-39.4	16.0	0.00e+00	0	56	0	571473920	47	4250
2026-01-12 08:18:36.34	60.72	21.48	-37.7	-39.4	16.0	0.00e+00	0	56	0	574619648	47	4264
2026-01-12 08:18:37.35	60.46	21.51	-37.8	-39.6	15.8	0.00e+00	0	56	0	577765376	47	4358
2026-01-12 08:18:38.35	60.21	21.53	-37.8	-39.6	15.8	0.00e+00	0	56	0	580911104	47	4357
2026-01-12 08:18:39.36	59.94	21.56	-38.0	-39.8	15.5	0.00e+00	0	56	0	584056832	47	4490
2026-01-12 08:18:40.38	59.68	21.58	-38.1	-39.9	15.5	0.00e+00	0	56	0	587202560	47	4542
2026-01-12 08:18:41.39	59.42	21.61	-38.1	-40.0	15.4	0.00e+00	0	56	0	590348288	47	4547
2026-01-12 08:18:42.40	59.16	21.63	-38.2	-40.0	15.4	0.00e+00	0	56	0	593494016	47	4563
2026-01-12 08:18:43.40	58.90	21.65	-38.2	-40.1	15.3	0.00e+00	0	56	0	596639744	47	4619
2026-01-12 08:18:44.41	58.63	21.67	-38.3	-40.1	15.3	0.00e+00	0	56	0	599785472	47	4636
2026-01-12 08:18:45.42	58.37	21.69	-38.3	-40.2	15.1	0.00e+00	0	56	0	602931200	47	4700
2026-01-12 08:18:46.43	58.10	21.71	-38.2	-40.1	15.3	0.00e+00	0	56	0	606076928	47	4625
2026-01-12 08:18:47.44	57.84	21.73	-38.1	-40.0	15.4	0.00e+00	0	56	0	609222656	47	4568
2026-01-12 08:18:48.45	57.58	21.75	-38.1	-40.0	15.4	0.00e+00	0	56	0	612368384	47	4549
2026-01-12 08:18:49.46	57.31	21.77	-37.9	-39.7	15.7	0.00e+00	0	56	0	615514112	47	4417
2026-01-12 08:18:50.47	57.05	21.78	-37.8	-39.5	15.9	0.00e+00	0	56	0	618659840	47	4321
2026-01-12 08:18:51.48	56.78	21.80	-37.7	-39.4	16.0	0.00e+00	0	56	0	621805568	47	4262
2026-01-12 08:18:52.49	56.51	21.82	-37.6	-39.3	16.1	0.00e+00	0	56	0	624951296	47	4216
2026-01-12 08:18:53.50	56.25	21.83	-37.7	-39.4	16.0	0.00e+00	0	56	0	628097024	47	4261
2026-01-12 08:18:54.51	55.98	21.85	-37.7	-39.5	15.9	0.00e+00	0	56	0	631242752	47	4308
2026-01-12 08:18:55.52	55.72	21.86	-37.7	-39.4	16.0	0.00e+00	0	56	0	634388480	47	4277
2026-01-12 08:18:56.52	55.45	21.87	-37.6	-39.2	16.1	0.00e+00	0	56	0	637534208	47	4192
2026-01-12 08:18:57.53	55.19	21.89	-37.4	-39.1	16.3	0.00e+00	0	56	0	640679936	46	4359
2026-01-12 08:18:58.55	54.92	21.90	-37.4	-39.0	16.4	0.00e+00	0	56	0	643825664	46	4327
2026-01-12 08:18:59.56	54.65	21.91	-37.4	-39.1	16.3	0.00e+00	0	56	0	646971392	46	4363
2026-01-12 08:19:00.57	54.38	21.92	-37.5	-39.2	16.2	0.00e+00	0	56	0	650117120	46	4412
2026-01-12 08:19:01.58	54.11	21.93	-37.7	-39.4	16.0	0.00e+00	0	56	0	653262848	46	4521
2026-01-12 08:19:02.59	53.85	21.94	-37.7	-39.5	16.0	0.00e+00	0	56	0	656408576	46	4547
2026-01-12 08:19:03.60	53.58	21.95	-37.7	-39.5	15.9	0.00e+00	0	56	0	659554304	46	4569
2026-01-12 08:19:04.61	53.31	21.96	-37.8	-39.5	15.9	0.00e+00	0	56	0	662700032	46	4589
2026-01-12 08:19:05.62	53.04	21.97	-37.8	-39.6	15.9	0.00e+00	0	56	0	665845760	46	4603
2026-01-12 08:19:06.63	52.77	21.97	-37.6	-39.3	16.2	0.00e+00	0	56	0	668991488	46	4455
2026-01-12 08:19:07.64	52.50	21.98	-37.5	-39.1	16.3	0.00e+00	0	56	0	672137216	46	4375
2026-01-12 08:19:08.65	52.24	21.98	-37.5	-39.2	16.3	0.00e+00	0	56	0	675282944	46	4393
2026-01-12 08:19:09.66	51.97	21.99	-37.6	-39.3	16.2	0.00e+00	0	56	0	678428672	46	4451
2026-01-12 08:19:10.67	51.70	21.99	-37.7	-39.4	16.1	0.00e+00	0	56	0	681574400	46	4514
2026-01-12 08:19:11.68	51.43	22.00	-37.6	-39.2	16.2	0.00e+00	0	56	0	684720128	46	4440
2026-01-12 08:19:12.69	51.16	22.00	-37.4	-39.1	16.4	0.00e+00	0	56	0	687865856	46	4342
2026-01-12 08:19:13.70	50.89	22.00	-37.5	-39.2	16.3	0.00e+00	0	56	0	691011584	46	4411
2026-01-12 08:19:14.71	50.62	22.00	-37.6	-39.3	16.2	0.00e+00	0	56	0	694157312	46	4446
2026-01-12 08:19:15.72	50.35	22.00	-37.7	-39.4	16.1	0.00e+00	0	56	0	697303040	46	4507
2026-01-12 08:19:16.73	50.08	22.00	-37.8	-39.5	16.0	0.00e+00	0	56	0	700448768	46	4553
2026-01-12 08:19:17.74	49.82	22.00	-37.8	-39.6	15.9	0.00e+00	0	56	0	703594496	46	4606
2026-01-12 08:19:18.75	49.55	22.00	-37.9	-39.6	15.9	0.00e+00	0	56	0	706740224	46	4625
2026-01-12 08:19:19.75	49.28	22.00	-37.9	-39.6	15.9	0.00e+00	0	56	0	709885952	46	4634
2026-01-12 08:19:20.76	49.01	22.00	-38.0	-39.7	15.8	0.00e+00	0	56	0	713031680	46	4693
2026-01-12 08:19:21.78	48.74	21.99	-37.9	-39.7	15.8	0.00e+00	0	56	0	716177408	46	4682
2026-01-12 08:19:22.79	48.47	21.99	-37.9	-39.7	15.8	0.00e+00	0	56	0	719323136	46	4673
2026-01-12 08:19:23.80	48.20	21.99	-38.1	-39.9	15.6	0.00e+00	0	56	0	722468864	46	4785
2026-01-12 08:19:24.81	47.93	21.98	-38.2	-40.0	15.5	0.00e+00	0	56	0	725614592	46	4854
2026-01-12 08:19:25.82	47.67	21.97	-38.1	-39.9	15.6	0.00e+00	0	56	0	728760320	47	4542
2026-01-12 08:19:26.83	47.40	21.97	-38.0	-39.7	15.8	0.00e+00	0	56	0	731906048	47	4419
2026-01-12 08:19:27.84	47.13	21.96	-37.9	-39.6	15.9	0.00e+00	0	56	0	735051776	47	4363
2026-01-12 08:19:28.85	46.86	21.95	-37.8	-39.6	16.0	0.00e+00	0	56	0	738197504	47	4341
2026-01-12 08:19:29.86	46.59	21.94	-37.7	-39.4	16.1	0.00e+00	0	56	0	741343232	47	4270
2026-01-12 08:19:30.87	46.33	21.94	-37.8	-39.5	16.0	0.00e+00	0	56	0	744488960	47	4305
2026-01-12 08:19:31.88	46.06	21.93	-37.7	-39.4	16.1	0.00e+00	0	56	0	747634688	47	4279
2026-01-12 08:19:32.89	45.79	21.91	-37.7	-39.4	16.1	0.00e+00	0	56	0	750780416	47	4277
2026-01-12 08:19:33.90	45.52	21.90	-37.8	-39.5	16.0	0.00e+00	0	56	0	753926144	47	4311
2026-01-12 08:19:34.91	45.26	21.89	-37.7	-39.4	16.1	0.00e+00	0	56	0	757071872	47	4275
2026-01-12 08:19:35.92	44.99	21.88	-37.7	-39.4	16.1	0.00e+00	0	56	0	760217600	47	4287
2026-01-12 08:19:36.93	44.72	21.87	-37.9	-39.6	15.9	0.00e+00	0	56	0	763363328	47	4366
2026-01-12 08:19:37.94	44.46	21.85	-38.0	-39.7	15.8	0.00e+00	0	56	0	766509056	47	4432
2026-01-12 08:19:38.95	44.19	21.84	-37.9	-39.7	15.8	0.00e+00	0	56	0	769654784	47	4393
2026-01-12 08:19:39.96	43.93	21.82	-38.0	-39.8	15.7	0.00e+00	0	56	0	772800512	47	4452
2026-01-12 08:19:40.97	43.66	21.81	-38.1	-39.9	15.6	0.00e+00	0	56	0	775946240	47	4537
2026-01-12 08:19:41.98	43.39	21.79	-38.2	-40.0	15.5	0.00e+00	0	56	0	779091968	47	4588
2026-01-12 08:19:42.98	43.13	21.77	-38.1	-39.9	15.6	0.00e+00	0	56	0	782237696	47	4538
2026-01-12 08:19:43.99	42.87	21.76	-37.9	-39.6	15.9	0.00e+00	0	56	0	785383424	47	4363
2026-01-12 08:19:45.00	42.60	21.74	-37.8	-39.5	16.0	0.00e+00	0	56	0	788529152	47	4302
2026-01-12 08:19:46.01	42.34	21.72	-37.9	-39.6	15.9	0.00e+00	0	56	0	791674880	47	4373
2026-01-12 08:19:47.02	42.08	21.70	-38.0	-39.8	15.7	0.00e+00	0	56	0	795869184	47	4447
2026-01-12 08:19:48.03	41.81	21.68	-38.0	-39.7	15.8	0.00e+00	0	56	0	799014912	47	4412
2026-01-12 08:19:49.04	41.55	21.66	-37.8	-39.5	16.0	0.00e+00	0	56	0	801112064	47	4301
2026-01-12 08:19:50.05	41.29	21.64	-37.7	-39.4	16.1	0.00e+00	0	56	0	804257792	47	4252
2026-01-12 08:19:51.06	41.03	21.61	-37.7	-39.4	16.1	0.00e+00	0	56	0	807403520	47	4256
2026-01-12 08:19:52.07	40.76	21.59	-37.5	-39.1	16.4	0.00e+00	0	56	0	810549248	47	4141
2026-01-12 08:19:53.08	40.50	21.57	-37.4	-39.0	16.5	0.00e+00	0	56	0	814743552	46	4333
2026-01-12 08:19:54.09	40.24	21.54	-37.4	-39.1	16.4	0.00e+00	0	56	0	817889280	46	4349
2026-01-12 08:19:55.10	39.98	21.52	-37.5	-39.2	16.3	0.00e+00	0	56	0	821035008	46	4406
2026-01-12 08:19:56.11	39.72	21.49	-37.6	-39.3	16.2	0.00e+00	0	56	0	824180736	46	4458
2026-01-12 08:19:57.12	39.46	21.47	-37.7	-39.3	16.2	0.00e+00	0	56	0	827326464	46	4493
2026-01-12 08:19:58.13	39.20	21.44	-37.8	-39.5	16.0	0.00e+00	0	56	0	830472192	46	4569
2026-01-12 08:19:59.14	38.94	21.41	-37.8	-39.5	16.0	0.00e+00	0	56	0	833617920	46	4591
2026-01-12 08:20:00.15	38.68	21.39	-37.8	-39.5	16.0	0.00e+00	0	56	0	836763648	46	4569
2026-01-12 08:20:01.17	38.42	21.36	-37.8	-39.5	16.0	0.00e+00	0	56	0	839909376	46	4569
2026-01-12 08:20:02.18	38.17	21.33	-37.8	-39.5	16.0	0.00e+00	0	56	0	843055104	46	4588
2026-01-12 08:20:03.19	37.91	21.30	-37.8	-39.6	15.9	0.00e+00	0	56	0	846200832	46	4607
2026-01-12 08:20:04.20	37.65	21.27	-37.8	-39.6	16.0	0.00e+00	0	56	0	849346560	46	4600
2026-01-12 08:20:05.21	37.40	21.24	-37.8	-39.5	16.0	0.00e+00	0	56	0	852492288	46	4592
2026-01-12 08:20:06.22	37.14	21.21	-37.9	-39.7	15.9	0.00e+00	0	56	0	855638016	46	4665
2026-01-12 08:20:07.23	36.89	21.18	-38.0	-39.8	15.8	0.00e+00	0	56	0	858783744	46	4709
2026-01-12 08:20:08.24	36.63	21.15	-38.0	-39.8	15.8	0.00e+00	0	56	0	861929472	46	4715
2026-01-12 08:20:09.25	36.38	21.11	-37.9	-39.7	15.9	0.00e+00	0	56	0	865075200	46	4660
2026-01-12 08:20:10.26	36.13	21.08	-37.8	-39.4	16.1	0.00e+00	0	56	0	868220928	46	4543
2026-01-12 08:20:11.26	35.88	21.05	-37.7	-39.4	16.1	0.00e+00	0	56	0	871366656	46	4535
2026-01-12 08:20:12.27	35.62	21.01	-37.8	-39.5	16.0	0.00e+00	0	56	0	874512384	46	4567
2026-01-12 08:20:13.29	35.37	20.98	-37.9	-39.6	15.9	0.00e+00	0	56	0	877658112	46	4637
2026-01-12 08:20:14.30	35.12	20.94	-38.0	-39.8	15.8	0.00e+00	0	56	0	880803840	46	4714
2026-01-12 08:20:15.31	34.87	20.91	-38.1	-39.9	15.7	0.00e+00	0	56	0	883949568	46	4770
2026-01-12 08:20:16.32	34.62	20.87	-37.9	-39.6	15.9	0.00e+00	0	56	0	887095296	46	4649
2026-01-12 08:20:17.33	34.37	20.83	-37.8	-39.5	16.0	0.00e+00	0	56	0	890241024	46	4597
2026-01-12 08:20:18.33	34.12	20.79	-37.9	-39.6	15.9	0.00e+00	0	56	0	893386752	46	4635
2026-01-12 08:20:19.34	33.88	20.76	-37.9	-39.7	15.8	0.00e+00	0	56	0	896532480	46	4680
2026-01-12 08:20:20.35	33.63	20.72	-38.0	-39.8	15.8	0.00e+00	0	56	0	899678208	46	4709
2026-01-12 08:20:21.36	33.38	20.68	-38.0	-39.8	15.7	0.00e+00	0	56	0	902823936	46	4732
2026-01-12 08:20:22.37	33.14	20.64	-38.1	-39.9	15.6	0.00e+00	0	56	0	905969664	46	4813
2026-01-12 08:20:23.39	32.89	20.60	-38.1	-39.8	15.7	0.00e+00	0	56	0	909115392	46	4752
2026-01-12 08:20:24.39	32.65	20.56	-38.0	-39.8	15.7	0.00e+00	0	56	0	912261120	46	4717
2026-01-12 08:20:25.40	32.40	20.52	-38.0	-39.8	15.7	0.00e+00	0	56	0	915406848	46	4710
2026-01-12 08:20:26.41	32.16	20.48	-38.0	-39.8	15.7	0.00e+00	0	56	0	918552576	46	4727
2026-01-12 08:20:27.42	31.92	20.44	-38.1	-39.9	15.6	0.00e+00	0	56	0	921698304	46	4792
2026-01-12 08:20:28.43	31.67	20.39	-38.1	-39.9	15.6	0.00e+00	0	56	0	924844032	46	4802
2026-01-12 08:20:29.44	31.43	20.35	-38.2	-40.0	15.5	0.00e+00	0	56	0	927989760	46	4835
2026-01-12 08:20:30.45	31.19	20.31	-37.9	-39.7	15.8	0.00e+00	0	56	0	931135488	46	4661
2026-01-12 08:20:31.46	30.95	20.26	-37.7	-39.4	16.1	0.00e+00	0	56	0	934281216	46	4525
2026-01-12 08:20:32.47	30.71	20.22	-37.8	-39.5	16.0	0.00e+00	0	56	0	937426944	46	4574
2026-01-12 08:20:33.48	30.47	20.17	-37.7	-39.4	16.1	0.00e+00	0	56	0	940572672	46	4523
2026-01-12 08:20:34.49	30.24	20.13	-37.7	-39.4	16.1	0.00e+00	0	56	0	943718400	46	4521
2026-01-12 08:20:35.50	30.00	20.08	-37.7	-39.4	16.0	0.00e+00	0	56	0	946864128	46	4539
2026-01-12 08:20:36.50	29.76	20.04	-37.8	-39.5	16.0	0.00e+00	0	56	0	950009856	46	4555
2026-01-12 08:20:37.51	29.53	19.99	-37.9	-39.6	15.9	0.00e+00	0	56	0	953155584	46	4619
2026-01-12 08:20:38.53	29.29	19.94	-38.0	-39.8	15.7	0.00e+00	0	56	0	956301312	46	4713
2026-01-12 08:20:39.54	29.06	19.90	-38.1	-39.9	15.6	0.00e+00	0	56	0	959447040	46	4806
2026-01-12 08:20:40.54	28.83	19.85	-38.2	-40.0	15.5	0.00e+00	0	56	0	962592768	46	4840
2026-01-12 08:20:41.55	28.59	19.80	-38.2	-40.0	15.5	0.00e+00	0	56	0	965738496	46	4859
2026-01-12 08:20:42.56	28.36	19.75	-38.3	-40.2	15.3	0.00e+00	0	56	0	968884224	47	4691
2026-01-12 08:20:43.57	28.13	19.70	-38.4	-40.3	15.2	0.00e+00	0	56	0	972029952	47	4747
2026-01-12 08:20:44.58	27.90	19.66	-38.5	-40.4	15.2	0.00e+00	0	56	0	975175680	47	4771
2026-01-12 08:20:45.59	27.67	19.61	-38.3	-40.1	15.3	0.00e+00	0	56	0	978321408	47	4649
2026-01-12 08:20:46.61	27.44	19.56	-38.1	-39.9	15.5	0.00e+00	0	56	0	981467136	47	4540
2026-01-12 08:20:47.62	27.21	19.50	-38.0	-39.8	15.7	0.00e+00	0	56	0	984612864	47	4461
2026-01-12 08:20:48.63	26.98	19.45	-37.9	-39.7	15.8	0.00e+00	0	56	0	987758592	47	4401
2026-01-12 08:20:49.64	26.76	19.40	-38.0	-39.7	15.8	0.00e+00	0	56	0	990904320	47	4431
2026-01-12 08:20:50.65	26.53	19.35	-38.1	-39.9	15.6	0.00e+00	0	56	0	994050048	47	4533
2026-01-12 08:20:51.65	26.31	19.30	-38.2	-40.0	15.4	0.00e+00	0	56	0	997195776	47	4592
2026-01-12 08:20:52.66	26.08	19.25	-38.2	-40.1	15.4	0.00e+00	0	56	0	1000341504	47	4618
2026-01-12 08:20:53.67	25.86	19.20	-38.4	-40.4	15.1	0.00e+00	0	56	0	1003487232	47	4762
2026-01-12 08:20:54.69	25.63	19.14	-38.5	-40.5	15.0	0.00e+00	0	56	0	1006632960	47	4848
2026-01-12 08:20:55.70	25.41	19.09	-38.6	-40.5	14.9	0.00e+00	0	56	0	1009778688	47	4866
2026-01-12 08:20:56.70	25.19	19.04	-38.4	-40.3	15.2	7.00e-07	0	56	0	1012924416	47	4715
2026-01-12 08:20:57.71	24.97	18.98	-38.4	-40.3	15.2	0.00e+00	0	56	0	1016070144	47	4713
2026-01-12 08:20:58.72	24.75	18.93	-38.3	-40.1	15.3	0.00e+00	0	56	0	1019215872	47	4645
2026-01-12 08:20:59.73	24.53	18.87	-38.2	-40.1	15.4	0.00e+00	0	56	0	1022361600	47	4600
2026-01-12 08:21:00.74	24.32	18.82	-38.0	-39.8	15.7	0.00e+00	0	56	0	1025507328	47	4460
2026-01-12 08:21:01.75	24.10	18.76	-37.9	-39.7	15.8	0.00e+00	0	56	0	1028653056	47	4415
2026-01-12 08:21:02.76	23.88	18.71	-38.0	-39.8	15.7	0.00e+00	0	56	0	1031798784	47	4452
2026-01-12 08:21:03.77	23.67	18.65	-38.0	-39.7	15.7	0.00e+00	0	56	0	1034944512	47	4437
2026-01-12 08:21:04.78	23.45	18.60	-38.1	-39.9	15.6	0.00e+00	0	56	0	1038090240	47	4507
2026-01-12 08:21:05.79	23.24	18.54	-38.1	-39.9	15.6	0.00e+00	0	56	0	1041235968	47	4526
2026-01-12 08:21:06.80	23.02	18.48	-38.1	-39.9	15.6	0.00e+00	0	56	0	1044381696	47	4505
2026-01-12 08:21:07.81	22.81	18.43	-38.1	-39.9	15.5	0.00e+00	0	56	0	1047527424	47	4532
2026-01-12 08:21:08.82	22.60	18.37	-38.1	-39.9	15.5	0.00e+00	0	56	0	1050673152	47	4524
2026-01-12 08:21:09.83	22.39	18.31	-38.0	-39.8	15.6	0.00e+00	0	56	0	1053818880	47	4473
2026-01-12 08:21:10.84	22.18	18.25	-38.0	-39.8	15.7	0.00e+00	0	56	0	1056964608	47	4450
2026-01-12 08:21:11.85	21.97	18.20	-38.1	-39.9	15.5	0.00e+00	0	56	0	1060110336	47	4535
2026-01-12 08:21:12.86	21.76	18.14	-38.3	-40.1	15.3	0.00e+00	0	56	0	1063256064	47	4651
2026-01-12 08:21:13.87	21.55	18.08	-38.4	-40.3	15.2	0.00e+00	0	56	0	1066401792	47	4723
2026-01-12 08:21:14.88	21.35	18.02	-38.4	-40.3	15.1	0.00e+00	0	56	0	1069547520	47	4737
2026-01-12 08:21:15.89	21.14	17.96	-38.3	-40.1	15.3	0.00e+00	0	56	0	1072693248	47	4636
2026-01-12 08:21:16.90	20.94	17.90	-38.2	-40.0	15.4	0.00e+00	0	56	0	1075838976	47	4575
2026-01-12 08:21:17.91	20.73	17.84	-38.1	-39.9	15.5	0.00e+00	0	56	0	1078984704	47	4538
2026-01-12 08:21:18.92	20.53	17.78	-38.0	-39.8	15.6	0.00e+00	0	56	0	1082130432	47	4483
2026-01-12 08:21:19.93	20.33	17.72	-37.9	-39.7	15.7	0.00e+00	0	56	0	1085276160	47	4426
2026-01-12 08:21:20.94	20.12	17.66	-37.9	-39.7	15.7	0.00e+00	0	56	0	1088421888	47	4417
2026-01-12 08:21:21.95	19.92	17.60	-37.9	-39.6	15.8	0.00e+00	0	56	0	1091567616	47	4387
2026-01-12 08:21:22.96	19.72	17.54	-37.9	-39.6	15.8	0.00e+00	0	57	0	1094713344	47	4386
2026-01-12 08:21:23.97	19.52	17.48	-37.9	-39.7	15.7	0.00e+00	0	56	0	1097859072	47	4415
2026-01-12 08:21:24.98	19.32	17.42	-38.0	-39.8	15.6	0.00e+00	0	56	0	1101004800	47	4477
2026-01-12 08:21:25.99	19.13	17.36	-38.1	-39.9	15.4	0.00e+00	0	56	0	1104150528	47	4528
2026-01-12 08:21:27.00	18.93	17.30	-38.0	-39.9	15.5	0.00e+00	0	56	0	1107296256	47	4508
2026-01-12 08:21:28.01	18.73	17.24	-38.0	-39.8	15.6	0.00e+00	0	56	0	1110441984	47	4472
2026-01-12 08:21:29.02	18.54	17.18	-38.1	-39.9	15.5	0.00e+00	0	56	0	1113587712	47	4529
2026-01-12 08:21:30.03	18.34	17.11	-38.2	-40.0	15.4	0.00e+00	0	56	0	1116733440	47	4593
2026-01-12 08:21:31.04	18.15	17.05	-38.3	-40.2	15.2	0.00e+00	0	56	0	1119879168	47	4683
2026-01-12 08:21:32.05	17.96	16.99	-38.4	-40.4	15.1	0.00e+00	0	56	0	1123024896	47	4768
2026-01-12 08:21:33.05	17.77	16.93	-38.4	-40.4	15.0	0.00e+00	0	56	0	1126170624	47	4768
2026-01-12 08:21:34.06	17.57	16.86	-38.5	-40.5	14.9	0.00e+00	0	56	0	1129316352	47	4866
2026-01-12 08:21:35.07	17.38	16.80	-38.6	-40.6	14.8	0.00e+00	0	56	0	1133510656	47	4909
2026-01-12 08:21:36.08	17.19	16.74	-38.6	-40.6	14.8	0.00e+00	0	56	0	1136656384	47	4879
2026-01-12 08:21:37.09	17.01	16.68	-38.6	-40.6	14.8	0.00e+00	0	56	0	1138753536	47	4876
2026-01-12 08:21:38.10	16.82	16.61	-38.5	-40.5	14.8	0.00e+00	0	56	0	1141899264	47	4862
2026-01-12 08:21:39.12	16.63	16.55	-38.5	-40.5	14.9	0.00e+00	0	56	0	1145044992	47	4837
2026-01-12 08:21:40.13	16.44	16.49	-38.5	-40.5	14.8	0.00e+00	0	56	0	1149239296	47	4861
2026-01-12 08:21:41.14	16.26	16.42	-38.4	-40.3	15.1	0.00e+00	0	56	0	1152385024	47	4719
2026-01-12 08:21:42.15	16.07	16.36	-38.2	-40.1	15.3	0.00e+00	0	56	0	1155530752	47	4599
2026-01-12 08:21:43.16	15.89	16.29	-38.2	-40.1	15.3	0.00e+00	0	56	0	1158676480	47	4619
2026-01-12 08:21:44.17	15.70	16.23	-38.3	-40.2	15.1	0.00e+00	0	56	0	1161822208	47	4670
2026-01-12 08:21:45.18	15.52	16.17	-38.3	-40.3	15.1	0.00e+00	0	56	0	1164967936	47	4716
2026-01-12 08:21:46.19	15.34	16.10	-38.3	-40.3	15.1	0.00e+00	0	56	0	1168113664	47	4716
2026-01-12 08:21:47.20	15.16	16.04	-38.5	-40.4	14.9	0.00e+00	0	56	0	1171259392	47	4803
2026-01-12 08:21:48.21	14.98	15.97	-38.6	-40.6	14.7	0.00e+00	0	56	0	1174405120	47	4902
2026-01-12 08:21:49.21	14.80	15.91	-38.5	-40.6	14.8	0.00e+00	0	56	0	1177550848	47	4871
2026-01-12 08:21:50.22	14.62	15.84	-38.5	-40.5	14.8	7.00e-07	0	56	0	1180696576	47	4825
2026-01-12 08:21:51.23	14.45	15.78	-38.5	-40.5	14.8	0.00e+00	0	56	0	1183842304	47	4828
2026-01-12 08:21:52.24	14.27	15.71	-38.4	-40.4	14.9	7.00e-07	0	56	0	1186988032	47	4765
2026-01-12 08:21:53.25	14.09	15.65	-38.3	-40.2	15.0	0.00e+00	0	56	0	1190133760	47	4676
2026-01-12 08:21:54.26	13.92	15.58	-38.4	-40.4	14.9	7.00e-07	0	56	0	1193279488	47	4775
2026-01-12 08:21:55.27	13.74	15.52	-38.3	-40.3	15.0	7.00e-07	0	56	0	1196425216	47	4739
2026-01-12 08:21:56.28	13.57	15.45	-38.4	-40.4	14.9	0.00e+00	0	56	0	1199570944	47	4805
2026-01-12 08:21:57.29	13.40	15.39	-38.6	-40.6	14.6	7.00e-07	0	56	0	1202716672	47	4905
2026-01-12 08:21:58.30	13.22	15.32	-38.6	-40.6	14.6	1.50e-06	0	56	0	1205862400	47	4906
2026-01-12 08:21:59.31	13.05	15.26	-38.6	-40.7	14.6	0.00e+00	0	56	0	1209008128	47	4943
2026-01-12 08:22:00.32	12.88	15.19	-38.7	-40.8	14.5	0.00e+00	0	56	0	1212153856	47	5001
2026-01-12 08:22:01.33	12.71	15.12	-38.8	-40.9	14.4	0.00e+00	0	56	0	1215299584	48	4800
2026-01-12 08:22:02.34	12.54	15.06	-39.0	-41.1	14.2	1.50e-06	0	56	0	1218445312	48	4918
2026-01-12 08:22:03.35	12.37	14.99	-38.8	-40.9	14.4	2.20e-06	0	56	0	1221591040	48	4799
2026-01-12 08:22:04.36	12.21	14.93	-38.9	-41.0	14.3	0.00e+00	0	56	0	1224736768	48	4821
2026-01-12 08:22:05.37	12.04	14.86	-38.7	-40.8	14.4	1.50e-06	0	56	0	1227882496	48	4738
2026-01-12 08:22:06.38	11.87	14.79	-38.7	-40.7	14.5	0.00e+00	0	56	0	1231028224	48	4682
2026-01-12 08:22:07.39	11.71	14.73	-38.6	-40.6	14.6	1.50e-06	0	56	0	1234173952	48	4625
2026-01-12 08:22:08.40	11.54	14.66	-38.5	-40.4	14.8	0.00e+00	0	56	0	1237319680	48	4540
2026-01-12 08:22:09.41	11.38	14.59	-38.6	-40.6	14.6	1.50e-06	0	56	0	1240465408	48	4603
2026-01-12 08:22:10.42	11.21	14.53	-38.5	-40.5	14.7	0.00e+00	0	56	0	1243611136	48	4557
2026-01-12 08:22:11.43	11.05	14.46	-38.6	-40.6	14.5	0.00e+00	0	56	0	1246756864	48	4646
2026-01-12 08:22:12.44	10.89	14.40	-38.5	-40.5	14.6	7.00e-07	0	56	0	1249902592	48	4594
2026-01-12 08:22:13.45	10.73	14.33	-38.6	-40.6	14.6	7.00e-07	0	56	0	1253048320	48	4622
2026-01-12 08:22:14.46	10.57	14.26	-38.6	-40.7	14.5	0.00e+00	0	56	0	1256194048	48	4662
2026-01-12 08:22:15.47	10.41	14.20	-38.5	-40.5	14.7	0.00e+00	0	56	0	1259339776	48	4554
2026-01-12 08:22:16.48	10.25	14.13	-38.4	-40.3	14.8	0.00e+00	0	56	0	1262485504	48	4493
2026-01-12 08:22:17.49	10.09	14.06	-38.5	-40.5	14.6	0.00e+00	0	56	0	1265631232	48	4558
2026-01-12 08:22:18.50	9.94	14.00	-38.4	-40.4	14.6	7.00e-07	0	56	0	1268776960	48	4532
2026-01-12 08:22:19.51	9.78	13.93	-38.6	-40.6	14.4	7.00e-07	0	56	0	1271922688	48	4628
2026-01-12 08:22:20.52	9.62	13.86	-38.5	-40.5	14.5	0.00e+00	0	56	0	1275068416	48	4581
2026-01-12 08:22:21.53	9.47	13.79	-38.4	-40.4	14.6	7.00e-07	0	56	0	1278214144	48	4528
2026-01-12 08:22:22.53	9.32	13.73	-38.6	-40.7	14.2	7.00e-07	0	56	0	1281359872	48	4700
2026-01-12 08:22:23.54	9.16	13.66	-38.6	-40.8	14.1	1.50e-06	0	56	0	1284505600	48	4733
2026-01-12 08:22:24.56	9.01	13.59	-38.6	-40.8	14.1	4.50e-06	0	56	0	1287651328	48	4735
2026-01-12 08:22:25.57	8.85	13.53	-38.7	-40.8	14.1	3.00e-06	0	56	0	1290797056	48	4734
2026-01-12 08:22:26.58	8.70	13.46	-38.7	-40.8	14.1	7.00e-07	0	56	0	1293942784	48	4731
2026-01-12 08:22:27.59	8.55	13.39	-38.5	-40.6	14.2	4.50e-06	0	57	0	1297088512	48	4621
2026-01-12 08:22:28.60	8.40	13.33	-38.4	-40.5	14.1	1.50e-06	0	56	0	1300234240	48	4591
2026-01-12 08:22:29.61	8.25	13.26	-38.4	-40.6	13.9	5.30e-06	0	56	0	1303379968	48	4645
2026-01-12 08:22:30.62	8.10	13.19	-38.5	-40.7	13.8	6.80e-06	0	56	0	1306525696	48	4693
2026-01-12 08:22:31.63	7.96	13.12	-38.7	-41.1	13.3	1.14e-05	0	56	0	1309671424	48	4884
2026-01-12 08:22:32.64	7.81	13.06	-38.8	-41.3	13.0	3.50e-05	0	57	0	1312817152	48	5027
2026-01-12 08:22:33.65	7.66	12.99	-38.7	-41.2	13.0	3.66e-05	0	56	0	1315962880	48	4980
2026-01-12 08:22:34.66	7.52	12.92	-38.7	-41.2	13.1	2.59e-05	0	56	0	1319108608	48	4928
2026-01-12 08:22:35.67	7.37	12.86	-38.7	-41.1	13.1	3.96e-05	0	56	0	1322254336	48	4922
2026-01-12 08:22:36.68	7.23	12.79	-38.7	-41.3	12.9	3.28e-05	0	57	0	1325400064	48	4997
2026-01-12 08:22:37.70	7.08	12.72	-38.9	-41.6	12.5	9.91e-05	0	56	0	1328545792	48	5199
2026-01-12 08:22:38.71	6.94	12.66	-38.9	-41.6	12.5	1.33e-04	0	57	0	1331691520	48	5199
2026-01-12 08:22:39.71	6.80	12.59	-38.9	-41.6	12.4	1.11e-04	0	56	0	1334837248	48	5218
2026-01-12 08:22:40.73	6.65	12.52	-38.7	-41.5	12.4	1.92e-04	0	56	0	1337982976	48	5103
2026-01-12 08:22:41.74	6.51	12.45	-38.7	-41.4	12.3	1.11e-04	0	56	0	1341128704	48	5100
2026-01-12 08:22:42.75	6.37	12.39	-38.9	-41.8	11.9	3.68e-04	0	56	0	1344274432	48	5327
2026-01-12 08:22:43.76	6.23	12.32	-38.7	-41.7	11.8	4.05e-04	0	57	0	1347420160	48	5243
2026-01-12 08:22:44.77	6.09	12.25	-38.8	-41.9	11.4	6.45e-04	0	56	0	1350565888	48	5380
2026-01-12 08:22:45.78	5.95	12.19	-39.2	-42.9	10.3	2.85e-03	0	56	0	1353711616	49	5682
2026-01-12 08:22:46.79	5.81	12.12	-39.4	-43.4	9.5	1.21e-02	0	57	0	1356857344	49	6037
2026-01-12 08:22:47.80	5.68	12.05	-39.5	-43.8	9.0	2.04e-02	0	56	0	1360003072	49	6331
2026-01-12 08:22:48.81	5.54	11.99	-39.8	-44.7	7.9	5.54e-02	0	56	0	1363148800	50	6638
2026-01-12 08:22:49.82	5.40	11.92	-40.1	-45.9	6.8	1.58e-01	0	57	0	1366294528	50	7556
2026-01-12 08:22:50.83	5.27	11.85	-40.3	-46.9	5.9	3.28e-01	0	57	0	1369440256	51	8008
2026-01-12 08:22:51.84	5.13	11.79	-40.4	-47.7	5.2	5.63e-01	0	56	0	1372585984	51	8768
2026-01-12 08:22:52.85	5.00	11.72	-40.5	-48.7	4.6	1.47e+00	0	57	104	1374683136	51	9917
2026-01-12 08:22:53.86	4.86	11.65	-40.6	-50.6	3.9	1.45e+00	0	57	104	1374683136	51	12287
2026-01-12 08:22:54.87	4.73	11.58	-40.6	-51.2	3.9	1.48e+00	0	57	104	1374683136	51	13217
2026-01-12 08:22:55.88	4.60	11.52	-40.6	-52.3	3.8	1.49e+00	0	56	104	1374683136	51	14968
2026-01-12 08:22:56.89	4.47	11.45	-40.9	-52.9	3.8	1.49e+00	0	56	104	1374683136	52	15181
2026-01-12 08:22:57.90	4.34	11.38	-40.1	-52.5	3.8	1.49e+00	0	56	104	1374683136	52	14451
2026-01-12 08:22:58.91	4.20	11.32	-40.1	-52.5	3.8	1.49e+00	0	57	104	1374683136	52	14509
2026-01-12 08:22:59.92	4.07	11.25	-40.4	-52.8	3.8	1.49e+00	0	57	104	1374683136	52	14881
2026-01-12 08:23:00.93	3.95	11.19	-40.0	-52.5	3.8	1.49e+00	0	57	104	1374683136	52	14415
2026-01-12 08:23:01.94	3.82	11.12	-40.3	-52.7	3.8	1.49e+00	0	57	104	1374683136	52	14808
2026-01-12 08:23:02.95	3.69	11.05	-40.3	-52.9	3.8	1.49e+00	0	57	104	1374683136	52	15102
2026-01-12 08:23:03.96	3.56	10.99	-40.0	-52.4	3.8	1.49e+00	0	57	104	1374683136	52	14264
2026-01-12 08:23:04.97	3.43	10.92	-40.2	-52.8	3.8	1.49e+00	0	56	104	1374683136	52	14990
2026-01-12 08:23:05.98	3.31	10.85	-40.0	-52.4	3.8	1.49e+00	0	57	104	1374683136	51	15126
2026-01-12 08:23:06.99	3.18	10.79	-40.0	-52.4	3.8	1.49e+00	0	57	104	1374683136	51	15112
2026-01-12 08:23:08.00	3.06	10.72	-40.2	-52.7	3.8	1.49e+00	0	57	104	1374683136	51	15593
2026-01-12 08:23:09.01	2.93	10.65	-39.9	-52.3	3.8	1.49e+00	0	57	104	1374683136	51	14997
2026-01-12 08:23:10.02	2.81	10.59	-40.2	-52.6	3.8	1.49e+00	0	57	104	1374683136	51	15409
2026-01-12 08:23:11.03	2.68	10.52	-40.2	-52.7	3.8	1.49e+00	0	57	104	1374683136	51	15614
2026-01-12 08:23:12.04	2.56	10.46	-39.8	-52.3	3.8	1.49e+00	0	57	104	1374683136	51	14939
2026-01-12 08:23:13.05	2.44	10.39	-40.1	-52.6	3.8	1.49e+00	0	56	104	1374683136	51	15501
2026-01-12 08:23:14.05	2.32	10.32	-39.8	-52.3	3.8	1.49e+00	0	57	104	1374683136	51	14905
2026-01-12 08:23:15.07	2.20	10.26	-39.8	-52.3	3.8	1.49e+00	0	57	104	1374683136	51	14889
2026-01-12 08:23:16.08	2.07	10.19	-40.0	-52.4	3.8	1.49e+00	0	57	104	1374683136	51	15160
2026-01-12 08:23:17.09	1.95	10.13	-39.8	-52.3	3.8	1.49e+00	0	57	104	1374683136	51	14929
2026-01-12 08:23:18.10	1.84	10.06	-39.9	-52.3	3.8	1.49e+00	0	57	104	1374683136	51	14995
2026-01-12 08:23:19.11	1.72	9.99	-39.9	-52.4	3.8	1.49e+00	0	57	104	1374683136	51	15162
2026-01-12 08:23:20.12	1.60	9.93	-39.9	-52.3	3.8	1.49e+00	0	56	104	1374683136	51	14909
2026-01-12 08:23:21.13	1.48	9.86	-39.9	-52.3	3.8	1.49e+00	0	57	104	1374683136	51	15040
2026-01-12 08:23:22.14	1.36	9.80	-39.8	-52.2	3.8	1.49e+00	0	57	104	1374683136	51	14862
2026-01-12 08:23:23.15	1.25	9.73	-39.6	-52.2	3.8	1.49e+00	0	57	104	1374683136	51	14833
2026-01-12 08:23:24.16	1.13	9.67	-39.8	-52.3	3.8	1.49e+00	0	57	104	1374683136	51	14918
2026-01-12 08:23:25.17	1.01	9.60	-39.5	-52.2	3.8	1.49e+00	0	57	104	1374683136	51	14803
2026-01-12 08:23:26.18	0.90	9.54	-39.8	-52.3	3.8	1.49e+00	0	57	104	1374683136	51	14898
2026-01-12 08:23:27.19	0.78	9.47	-39.8	-52.3	3.8	1.49e+00	0	57	104	1374683136	51	15002
2026-01-12 08:23:28.20	0.67	9.41	-39.5	-52.2	3.8	1.49e+00	0	57	104	1374683136	51	14800
2026-01-12 08:23:29.21	0.56	9.34	-39.8	-52.3	3.8	1.49e+00	0	57	104	1374683136	51	15001
2026-01-12 08:23:30.22	0.44	9.28	-39.5	-52.2	3.8	1.49e+00	0	57	104	1374683136	50	15650
2026-01-12 08:23:31.23	0.33	9.21	-39.3	-52.3	3.8	1.49e+00	0	57	104	1374683136	50	15780
2026-01-12 08:23:32.24	0.22	9.15	-39.7	-52.2	3.8	1.49e+00	0	57	104	1374683136	50	15720
2026-01-12 08:23:33.25	0.11	9.08	-39.2	-52.3	3.8	1.49e+00	0	57	104	1374683136	50	15800
2026-01-12 08:23:34.26	360.00	9.02	-39.6	-52.2	3.8	1.49e+00	0	57	104	1374683136	50	15697
2026-01-12 08:23:35.27	359.88	8.95	-39.2	-52.3	3.8	1.49e+00	0	57	104	1374683136	50	15774
2026-01-12 08:23:36.28	359.77	8.89	-39.4	-52.2	3.8	1.49e+00	0	57	104	1374683136	50	15737
2026-01-12 08:23:37.29	359.67	8.82	-39.1	-52.2	3.8	1.49e+00	0	57	104	1374683136	50	15745
2026-01-12 08:23:38.30	359.56	8.76	-39.3	-52.2	3.8	1.49e+00	0	57	104	1374683136	50	15696
2026-01-12 08:23:39.31	359.45	8.69	-39.2	-52.2	3.8	1.49e+00	0	57	104	1374683136	50	15680
2026-01-12 08:23:40.32	359.34	8.63	-39.2	-52.2	3.8	1.49e+00	0	57	104	1374683136	50	15757
2026-01-12 08:23:41.33	359.23	8.56	-39.3	-52.2	3.8	1.49e+00	0	57	104	1374683136	50	15587
2026-01-12 08:23:42.34	359.12	8.50	-39.1	-52.3	3.8	1.49e+00	0	57	104	1374683136	50	15786
2026-01-12 08:23:43.35	359.02	8.44	-39.3	-52.2	3.8	1.49e+00	0	57	104	1374683136	50	15666
2026-01-12 08:23:44.36	358.91	8.37	-39.3	-52.2	3.8	1.49e+00	0	57	104	1374683136	50	15635
2026-01-12 08:23:45.37	358.81	8.31	-39.4	-52.2	3.8	1.49e+00	0	57	104	1374683136	50	15658
2026-01-12 08:23:46.38	358.70	8.24	-39.2	-52.1	3.8	1.49e+00	0	57	104	1374683136	50	15505
2026-01-12 08:23:47.39	358.60	8.18	-39.0	-52.1	3.8	1.49e+00	0	57	104	1374683136	49	16358
2026-01-12 08:23:48.40	358.49	8.12	-39.3	-52.1	3.8	1.49e+00	0	57	104	1374683136	49	16447
2026-01-12 08:23:49.41	358.39	8.05	-38.7	-52.0	3.8	1.49e+00	0	57	104	1374683136	49	16287
2026-01-12 08:23:50.42	358.29	7.99	-39.2	-52.2	3.8	1.49e+00	0	57	104	1374683136	49	16638
2026-01-12 08:23:51.43	358.18	7.92	-40.7	-53.2	3.8	1.49e+00	0	57	104	1374683136	51	16531
2026-01-12 08:23:52.44	358.08	7.86	-44.5	-56.6	3.8	1.49e+00	0	57	104	1374683136	59	15547
2026-01-12 08:23:53.45	357.98	7.80	-44.8	-57.1	3.8	1.49e+00	0	57	104	1374683136	60	15525
2026-01-12 08:23:54.46	357.88	7.73	-44.9	-57.3	3.8	1.49e+00	0	57	104	1374683136	60	15832
2026-01-12 08:23:55.47	357.78	7.67	-45.1	-57.4	3.8	1.49e+00	0	57	104	1374683136	60	16108
2026-01-12 08:23:56.48	357.68	7.61	-45.1	-57.5	3.8	1.49e+00	0	57	104	1374683136	60	16313
2026-01-12 08:23:57.50	357.57	7.54	-45.2	-57.6	3.8	1.49e+00	0	57	104	1374683136	61	15453
2026-01-12 08:23:58.51	357.48	7.48	-45.2	-57.7	3.8	1.49e+00	0	57	104	1374683136	61	15593
2026-01-12 08:23:59.52	357.38	7.42	-45.2	-57.6	3.9	1.49e+00	0	57	104	1374683136	61	15560
2026-01-12 08:24:00.53	357.28	7.35	-45.2	-57.6	3.8	1.49e+00	0	57	104	1374683136	60	16434
2026-01-12 08:24:01.54	357.18	7.29	-45.1	-57.5	3.8	1.49e+00	0	57	104	1374683136	60	16296
2026-01-12 08:24:02.55	357.08	7.23	-45.1	-57.5	3.8	1.49e+00	0	57	104	1374683136	60	16233
2026-01-12 08:24:03.56	356.98	7.16	-45.1	-57.5	3.8	1.49e+00	0	57	104	1374683136	60	16176
2026-01-12 08:24:04.57	356.89	7.10	-45.0	-57.5	3.8	1.49e+00	0	57	104	1374683136	60	16160
2026-01-12 08:24:05.58	356.79	7.04	-44.9	-57.4	3.8	1.49e+00	0	57	104	1374683136	60	16088
2026-01-12 08:24:06.59	356.69	6.98	-45.0	-57.4	3.8	1.49e+00	0	57	104	1374683136	60	16007
2026-01-12 08:24:07.61	356.60	6.91	-45.0	-57.4	3.8	1.49e+00	0	57	104	1374683136	60	16035
2026-01-12 08:24:08.62	356.50	6.85	-44.9	-57.4	3.8	1.49e+00	0	57	104	1374683136	60	16009
2026-01-12 08:24:09.63	356.41	6.79	-45.0	-57.4	3.8	1.49e+00	0	57	104	1374683136	60	15967
2026-01-12 08:24:10.64	356.31	6.73	-45.0	-57.3	3.8	1.49e+00	0	57	104	1374683136	60	15940
2026-01-12 08:24:11.65	356.22	6.66	-45.0	-57.4	3.8	1.49e+00	0	57	104	1374683136	60	15992
2026-01-12 08:24:12.66	356.13	6.60	-45.0	-57.3	3.8	1.49e+00	0	57	104	1374683136	60	15941
2026-01-12 08:24:13.67	356.03	6.54	-45.0	-57.4	3.8	1.49e+00	0	57	104	1374683136	60	15951
2026-01-12 08:24:14.68	355.94	6.48	-45.0	-57.4	3.8	1.49e+00	0	57	104	1374683136	60	15957
2026-01-12 08:24:15.69	355.85	6.42	-44.9	-57.3	3.8	1.49e+00	0	57	104	1374683136	60	15922
2026-01-12 08:24:16.70	355.76	6.35	-45.0	-57.4	3.8	1.49e+00	0	57	104	1374683136	60	15957
2026-01-12 08:24:17.72	355.66	6.29	-45.0	-57.4	3.8	1.49e+00	0	57	104	1374683136	60	15966
2026-01-12 08:24:18.73	355.57	6.23	-45.0	-57.4	3.8	1.49e+00	0	57	104	1374683136	60	15948
2026-01-12 08:24:19.74	355.48	6.17	-45.0	-57.4	3.8	1.49e+00	0	57	104	1374683136	60	15974
2026-01-12 08:24:20.75	355.39	6.11	-45.0	-57.3	3.8	1.49e+00	0	57	104	1374683136	60	15912
2026-01-12 08:24:21.76	355.30	6.05	-45.0	-57.4	3.8	1.49e+00	0	57	104	1374683136	60	15959
2026-01-12 08:24:22.77	355.21	5.98	-44.9	-57.4	3.8	1.49e+00	0	57	104	1374683136	60	15951
2026-01-12 08:24:23.78	355.12	5.92	-45.0	-57.4	3.8	1.49e+00	0	57	104	1374683136	60	16002
2026-01-12 08:24:24.79	355.03	5.86	-45.0	-57.3	3.8	1.49e+00	0	57	104	1374683136	60	15896
2026-01-12 08:24:25.80	354.95	5.80	-45.0	-57.4	3.8	1.49e+00	0	57	104	1374683136	60	15960
2026-01-12 08:24:26.81	354.86	5.74	-45.0	-57.4	3.8	1.49e+00	0	57	104	1374683136	60	15960
2026-01-12 08:24:27.82	354.77	5.68	-45.0	-57.4	3.8	1.49e+00	0	57	104	1374683136	60	15948
2026-01-12 08:24:28.83	354.68	5.62	-45.0	-57.3	3.8	1.49e+00	0	57	104	1374683136	60	15925
2026-01-12 08:24:29.85	354.60	5.56	-44.9	-57.3	3.8	1.49e+00	0	57	104	1374683136	60	15919
2026-01-12 08:24:30.86	354.51	5.50	-44.9	-57.3	3.8	1.49e+00	0	57	104	1374683136	60	15910
2026-01-12 08:24:31.87	354.42	5.43	-44.9	-57.3	3.8	1.49e+00	0	57	104	1374683136	60	15876
2026-01-12 08:24:32.88	354.34	5.37	-44.9	-57.3	3.8	1.49e+00	0	57	104	1374683136	60	15907
2026-01-12 08:24:33.89	354.25	5.31	-44.9	-57.3	3.8	1.49e+00	0	57	104	1374683136	60	15912
2026-01-12 08:24:34.90	354.17	5.25	-44.9	-57.3	3.8	1.49e+00	0	57	104	1374683136	60	15881
2026-01-12 08:24:35.91	354.08	5.19	-44.9	-57.3	3.8	1.49e+00	0	57	104	1374683136	60	15898
2026-01-12 08:24:36.92	354.00	5.13	-44.9	-57.3	3.8	1.49e+00	0	57	104	1374683136	60	15917
2026-01-12 08:24:37.93	353.91	5.07	-44.9	-57.3	3.8	1.49e+00	0	57	104	1374683136	60	15873
2026-01-12 08:24:38.94	353.83	5.01	-44.9	-57.3	3.8	1.49e+00	0	57	104	1374683136	60	15897
2026-01-12 08:24:39.96	353.75	4.95	-44.9	-57.3	3.8	1.49e+00	0	57	104	1374683136	60	15867
2026-01-12 08:24:40.97	353.66	4.89	-44.9	-57.3	3.8	1.49e+00	0	57	104	1374683136	60	15910
2026-01-12 08:24:41.98	353.58	4.83	-44.9	-57.3	3.8	1.49e+00	0	57	104	1374683136	60	15865
2026-01-12 08:24:42.99	353.50	4.77	-44.9	-57.3	3.8	1.49e+00	0	57	104	1374683136	60	15871
2026-01-12 08:24:44.00	353.42	4.71	-44.9	-57.3	3.8	1.49e+00	0	57	104	1374683136	60	15827
2026-01-12 08:24:45.01	353.34	4.65	-44.9	-57.3	3.8	1.49e+00	0	57	104	1374683136	60	15865
2026-01-12 08:24:46.02	353.26	4.59	-44.9	-57.3	3.8	1.49e+00	0	57	104	1374683136	60	15857
2026-01-12 08:24:47.03	353.18	4.53	-44.9	-57.3	3.8	1.49e+00	0	57	104	1374683136	60	15838
2026-01-12 08:24:48.04	353.10	4.47	-44.9	-57.3	3.8	1.49e+00	0	57	104	1374683136	60	15835
2026-01-12 08:24:49.05	353.02	4.41	-44.9	-57.3	3.8	1.49e+00	0	57	104	1374683136	60	15880
