passes_logs/2026/01/12/R2.0S_Moscow/R2.0S_Moscow__20260112_014143_NOAA_21_JPSS-2_rec.log

#Pass ID: 20260112_014143_NOAA 21 (JPSS-2)
#Satellite: NOAA 21 (JPSS-2)
#Configuration: NOAA-21
#almurnet v.1.7.20251203
#Start time: 2026-01-12 01:44:50

#Version: 2.2.20231116
#Station: R2.0S_Moscow
#Location: 37.707566 lon 55.798166 lat
#TLE: 1 54234U 22150A   26011.27699114  .00000090  00000+0  63771-4 0  9993
#TLE: 2 54234  98.7494 312.2218 0000765 314.9553  45.1561 14.19534106164285

#Time	Az	El	Level	Level2	SNR	BER	BlckErr	Temp	State	Recorded	gain1	gain2
2026-01-12 01:44:50.27	348.25	12.36	-44.9	-56.6	3.8	8.46e-01	0	56	0	0	60	14567
2026-01-12 01:44:51.29	348.09	12.41	-45.2	-57.6	3.8	1.49e+00	0	56	104	0	62	14593
2026-01-12 01:44:52.30	347.93	12.47	-45.2	-57.6	3.8	1.49e+00	0	56	104	0	62	14583
2026-01-12 01:44:53.31	347.77	12.52	-45.2	-57.6	3.8	1.49e+00	0	57	104	0	62	14546
2026-01-12 01:44:54.32	347.60	12.58	-45.2	-57.5	3.8	1.49e+00	0	56	104	0	62	14504
2026-01-12 01:44:55.33	347.44	12.63	-45.1	-57.5	3.8	1.49e+00	0	56	104	0	62	14448
2026-01-12 01:44:56.34	347.28	12.69	-45.1	-57.5	3.8	1.49e+00	0	56	104	0	62	14408
2026-01-12 01:44:57.35	347.11	12.74	-45.0	-57.4	3.8	1.49e+00	0	56	104	0	62	14286
2026-01-12 01:44:58.36	346.95	12.79	-44.9	-57.3	3.8	1.49e+00	0	56	104	0	61	14977
2026-01-12 01:44:59.37	346.78	12.85	-44.7	-57.1	3.8	1.49e+00	0	56	104	0	61	14590
2026-01-12 01:45:00.38	346.61	12.90	-43.3	-55.8	3.8	1.49e+00	0	56	104	0	58	14958
2026-01-12 01:45:01.39	346.45	12.96	-42.4	-55.2	3.8	1.49e+00	0	56	104	0	56	15589
2026-01-12 01:45:02.40	346.28	13.01	-42.4	-55.2	3.8	1.49e+00	0	56	104	0	56	15599
2026-01-12 01:45:03.41	346.11	13.06	-42.4	-55.1	3.8	1.49e+00	0	56	104	0	56	15577
2026-01-12 01:45:04.42	345.94	13.12	-42.4	-55.2	3.8	1.49e+00	0	56	104	0	56	15611
2026-01-12 01:45:05.43	345.77	13.17	-42.4	-55.1	3.8	1.49e+00	0	56	104	0	56	15540
2026-01-12 01:45:06.45	345.60	13.22	-42.4	-55.1	3.8	1.49e+00	0	56	104	0	56	15577
2026-01-12 01:45:07.46	345.43	13.27	-42.4	-55.1	3.8	1.49e+00	0	56	104	0	56	15548
2026-01-12 01:45:08.47	345.26	13.33	-42.4	-55.1	3.8	1.49e+00	0	57	104	0	56	15565
2026-01-12 01:45:09.48	345.09	13.38	-42.4	-55.1	3.8	1.49e+00	0	56	104	0	56	15516
2026-01-12 01:45:10.49	344.91	13.43	-42.4	-55.1	3.8	1.49e+00	0	56	104	0	56	15555
2026-01-12 01:45:11.50	344.74	13.48	-42.4	-55.2	3.8	1.49e+00	0	56	104	0	56	15589
2026-01-12 01:45:12.51	344.57	13.54	-42.4	-55.1	3.8	1.49e+00	0	56	104	0	56	15544
2026-01-12 01:45:13.52	344.39	13.59	-42.4	-55.1	3.8	1.49e+00	0	56	104	0	56	15515
2026-01-12 01:45:14.53	344.22	13.64	-42.4	-55.1	3.8	1.49e+00	0	56	104	0	56	15505
2026-01-12 01:45:15.54	344.04	13.69	-42.4	-55.1	3.8	1.49e+00	0	56	104	0	56	15561
2026-01-12 01:45:16.55	343.86	13.74	-42.4	-55.1	3.8	1.49e+00	0	56	104	0	56	15551
2026-01-12 01:45:17.56	343.69	13.79	-42.4	-55.1	3.8	1.49e+00	0	56	104	0	56	15562
2026-01-12 01:45:18.57	343.51	13.85	-42.4	-55.1	3.8	1.49e+00	0	56	104	0	56	15541
2026-01-12 01:45:19.58	343.33	13.90	-42.4	-55.1	3.8	1.49e+00	0	56	104	0	56	15513
2026-01-12 01:45:20.60	343.15	13.95	-42.4	-55.1	3.8	1.49e+00	0	56	104	0	56	15480
2026-01-12 01:45:21.61	342.97	14.00	-42.4	-55.1	3.8	1.49e+00	0	57	104	0	56	15506
2026-01-12 01:45:22.62	342.79	14.05	-42.4	-55.1	3.8	1.49e+00	0	56	104	0	56	15490
2026-01-12 01:45:23.63	342.61	14.10	-42.4	-55.1	3.8	1.49e+00	0	56	104	0	56	15512
2026-01-12 01:45:24.64	342.43	14.15	-42.4	-55.1	3.8	1.49e+00	0	56	104	0	56	15488
2026-01-12 01:45:25.65	342.25	14.20	-42.4	-55.1	3.8	1.49e+00	0	56	104	0	56	15514
2026-01-12 01:45:26.66	342.06	14.25	-42.3	-55.1	3.8	1.49e+00	0	57	104	0	56	15451
2026-01-12 01:45:27.67	341.88	14.30	-42.4	-55.0	3.8	1.49e+00	0	56	104	0	56	15375
2026-01-12 01:45:28.68	341.70	14.35	-42.4	-55.1	3.8	1.49e+00	0	57	104	0	56	15451
2026-01-12 01:45:29.70	341.51	14.40	-42.3	-55.0	3.8	1.49e+00	0	56	104	0	56	15365
2026-01-12 01:45:30.71	341.33	14.45	-42.4	-55.0	3.8	1.49e+00	0	56	104	0	56	15308
2026-01-12 01:45:31.72	341.14	14.49	-42.4	-54.9	3.8	1.49e+00	0	57	104	0	56	15206
2026-01-12 01:45:32.73	340.95	14.54	-42.3	-54.9	3.8	1.49e+00	0	57	104	0	56	15089
2026-01-12 01:45:33.74	340.77	14.59	-42.3	-54.7	3.8	1.49e+00	0	57	104	0	56	14855
2026-01-12 01:45:34.75	340.58	14.64	-42.3	-54.5	3.8	1.49e+00	0	56	104	0	56	14490
2026-01-12 01:45:35.76	340.39	14.69	-42.3	-54.1	3.8	1.49e+00	0	56	104	0	56	13822
2026-01-12 01:45:36.77	340.20	14.73	-42.2	-53.4	3.8	1.49e+00	0	56	104	0	56	12688
2026-01-12 01:45:37.78	340.01	14.78	-42.1	-52.6	3.9	1.48e+00	0	56	104	0	56	11587
2026-01-12 01:45:38.79	339.82	14.83	-41.8	-50.5	4.5	1.43e+00	0	56	104	0	55	9689
2026-01-12 01:45:39.80	339.63	14.88	-41.5	-49.0	5.2	7.10e-01	0	56	0	1048576	55	8091
2026-01-12 01:45:40.81	339.44	14.92	-41.0	-47.1	6.6	2.74e-01	0	57	0	4194304	54	6941
2026-01-12 01:45:41.83	339.25	14.97	-40.3	-45.1	8.5	6.21e-02	0	56	0	7340032	52	6177
2026-01-12 01:45:42.84	339.05	15.02	-39.7	-43.5	10.3	8.18e-03	0	56	0	10485760	51	5416
2026-01-12 01:45:43.85	338.86	15.06	-38.9	-42.0	11.8	6.96e-04	0	56	0	13631488	49	5136
2026-01-12 01:45:44.86	338.67	15.11	-39.1	-41.9	12.5	6.33e-05	0	56	0	16777216	49	5066
2026-01-12 01:45:45.87	338.47	15.15	-40.6	-44.9	9.4	8.85e-05	0	56	0	19922944	51	6365
2026-01-12 01:45:46.88	338.28	15.20	-42.1	-49.0	5.7	4.78e-04	0	57	0	23068672	54	8586
2026-01-12 01:45:47.89	338.08	15.24	-39.9	-42.7	12.1	1.25e-03	0	56	0	23068672	51	4959
2026-01-12 01:45:48.90	337.89	15.29	-40.3	-44.3	9.8	3.72e-04	0	57	0	26214400	51	5978
2026-01-12 01:45:49.91	337.69	15.33	-38.7	-41.1	13.5	4.80e-05	0	57	0	29360128	49	4612
2026-01-12 01:45:50.92	337.49	15.38	-38.6	-40.8	14.0	2.20e-06	0	57	0	32505856	48	4722
2026-01-12 01:45:51.92	337.30	15.42	-38.4	-40.5	14.5	7.00e-07	0	56	0	35651584	48	4569
2026-01-12 01:45:52.94	337.10	15.46	-38.3	-40.3	14.9	0.00e+00	0	56	0	38797312	48	4450
2026-01-12 01:45:53.94	336.90	15.51	-38.6	-40.6	14.6	0.00e+00	0	56	0	41943040	48	4646
2026-01-12 01:45:54.95	336.70	15.55	-38.7	-40.7	14.5	0.00e+00	0	56	0	45088768	48	4695
2026-01-12 01:45:55.96	336.50	15.59	-38.6	-40.5	14.8	1.50e-06	0	56	0	48234496	48	4594
2026-01-12 01:45:56.97	336.30	15.64	-38.6	-40.6	14.7	0.00e+00	0	56	0	51380224	48	4625
2026-01-12 01:45:57.98	336.10	15.68	-38.5	-40.5	14.9	0.00e+00	0	56	0	54525952	48	4568
2026-01-12 01:45:58.99	335.89	15.72	-38.4	-40.3	15.0	0.00e+00	0	56	0	57671680	48	4492
2026-01-12 01:46:00.00	335.69	15.76	-38.4	-40.3	15.1	0.00e+00	0	56	0	60817408	48	4470
2026-01-12 01:46:01.01	335.49	15.80	-38.4	-40.3	15.2	7.00e-07	0	57	0	63963136	48	4442
2026-01-12 01:46:02.02	335.29	15.84	-38.4	-40.3	15.1	0.00e+00	0	57	0	67108864	48	4465
2026-01-12 01:46:03.03	335.08	15.89	-38.2	-40.1	15.3	0.00e+00	0	57	0	71303168	48	4360
2026-01-12 01:46:04.04	334.88	15.93	-38.2	-40.0	15.4	0.00e+00	0	57	0	74448896	48	4340
2026-01-12 01:46:05.05	334.67	15.97	-38.2	-40.0	15.5	0.00e+00	0	56	0	76546048	48	4303
2026-01-12 01:46:06.06	334.46	16.01	-38.0	-39.8	15.7	0.00e+00	0	57	0	79691776	48	4214
2026-01-12 01:46:07.07	334.26	16.05	-38.0	-39.7	15.8	0.00e+00	0	56	0	82837504	48	4166
2026-01-12 01:46:08.08	334.05	16.08	-37.8	-39.6	15.8	0.00e+00	0	56	0	87031808	47	4347
2026-01-12 01:46:09.09	333.84	16.12	-37.8	-39.6	15.8	0.00e+00	0	56	0	90177536	47	4349
2026-01-12 01:46:10.10	333.64	16.16	-37.9	-39.6	15.8	0.00e+00	0	57	0	93323264	47	4374
2026-01-12 01:46:11.11	333.43	16.20	-37.9	-39.6	15.8	0.00e+00	0	56	0	96468992	47	4371
2026-01-12 01:46:12.12	333.22	16.24	-37.9	-39.6	15.8	0.00e+00	0	56	0	99614720	47	4387
2026-01-12 01:46:13.13	333.01	16.28	-37.9	-39.6	15.8	0.00e+00	0	57	0	102760448	47	4391
2026-01-12 01:46:14.14	332.80	16.31	-37.9	-39.7	15.8	0.00e+00	0	57	0	105906176	47	4398
2026-01-12 01:46:15.15	332.59	16.35	-37.9	-39.7	15.7	0.00e+00	0	56	0	109051904	47	4423
2026-01-12 01:46:16.16	332.37	16.39	-37.9	-39.6	15.8	0.00e+00	0	57	0	112197632	47	4389
2026-01-12 01:46:17.18	332.16	16.42	-37.9	-39.6	15.9	0.00e+00	0	56	0	115343360	47	4366
2026-01-12 01:46:18.19	331.95	16.46	-37.8	-39.6	15.9	0.00e+00	0	56	0	118489088	47	4343
2026-01-12 01:46:19.19	331.74	16.50	-37.8	-39.6	15.9	0.00e+00	0	56	0	121634816	47	4358
2026-01-12 01:46:20.20	331.52	16.53	-37.9	-39.7	15.8	0.00e+00	0	56	0	124780544	47	4393
2026-01-12 01:46:21.21	331.31	16.57	-38.0	-39.7	15.7	0.00e+00	0	56	0	127926272	47	4434
2026-01-12 01:46:22.22	331.09	16.60	-38.0	-39.8	15.7	0.00e+00	0	57	0	131072000	47	4482
2026-01-12 01:46:23.23	330.88	16.63	-38.1	-39.9	15.6	0.00e+00	0	57	0	134217728	47	4509
2026-01-12 01:46:24.24	330.66	16.67	-38.0	-39.8	15.7	0.00e+00	0	56	0	137363456	47	4488
2026-01-12 01:46:25.25	330.45	16.70	-38.0	-39.8	15.7	0.00e+00	0	56	0	140509184	47	4478
2026-01-12 01:46:26.26	330.23	16.74	-38.1	-39.8	15.7	0.00e+00	0	56	0	143654912	47	4489
2026-01-12 01:46:27.27	330.01	16.77	-38.1	-39.8	15.7	0.00e+00	0	56	0	146800640	47	4487
2026-01-12 01:46:28.28	329.80	16.80	-38.0	-39.8	15.7	0.00e+00	0	56	0	149946368	47	4473
2026-01-12 01:46:29.29	329.58	16.83	-38.0	-39.8	15.7	0.00e+00	0	56	0	153092096	47	4474
2026-01-12 01:46:30.30	329.36	16.86	-38.0	-39.8	15.7	0.00e+00	0	57	0	156237824	47	4484
2026-01-12 01:46:31.31	329.14	16.89	-38.0	-39.8	15.7	0.00e+00	0	56	0	159383552	47	4466
2026-01-12 01:46:32.32	328.92	16.93	-38.1	-39.9	15.7	0.00e+00	0	56	0	162529280	47	4495
2026-01-12 01:46:33.33	328.70	16.96	-38.1	-39.9	15.7	0.00e+00	0	56	0	165675008	47	4501
2026-01-12 01:46:34.34	328.48	16.99	-38.0	-39.8	15.8	0.00e+00	0	56	0	168820736	47	4451
2026-01-12 01:46:35.35	328.26	17.02	-37.9	-39.6	15.9	0.00e+00	0	56	0	171966464	47	4366
2026-01-12 01:46:36.36	328.04	17.05	-37.9	-39.6	15.9	0.00e+00	0	56	0	175112192	47	4355
2026-01-12 01:46:37.37	327.82	17.07	-37.9	-39.6	15.9	0.00e+00	0	56	0	178257920	47	4356
2026-01-12 01:46:38.38	327.60	17.10	-37.8	-39.6	16.0	0.00e+00	0	56	0	181403648	47	4348
2026-01-12 01:46:39.39	327.38	17.13	-37.9	-39.6	15.9	0.00e+00	0	56	0	184549376	47	4374
2026-01-12 01:46:40.40	327.15	17.16	-37.9	-39.6	15.9	0.00e+00	0	57	0	187695104	47	4376
2026-01-12 01:46:41.41	326.93	17.19	-37.9	-39.6	15.9	0.00e+00	0	56	0	190840832	47	4369
2026-01-12 01:46:42.42	326.71	17.21	-37.8	-39.6	16.0	0.00e+00	0	56	0	193986560	47	4349
2026-01-12 01:46:43.43	326.48	17.24	-37.9	-39.6	15.9	0.00e+00	0	57	0	197132288	47	4372
2026-01-12 01:46:44.43	326.26	17.26	-38.0	-39.7	15.8	0.00e+00	0	56	0	200278016	47	4432
2026-01-12 01:46:45.44	326.03	17.29	-38.0	-39.8	15.8	0.00e+00	0	56	0	203423744	47	4456
2026-01-12 01:46:46.45	325.81	17.31	-38.1	-39.9	15.6	0.00e+00	0	56	0	206569472	47	4538
2026-01-12 01:46:47.46	325.58	17.34	-38.2	-40.0	15.6	7.00e-07	0	57	0	209715200	47	4566
2026-01-12 01:46:48.47	325.36	17.36	-38.2	-40.0	15.6	0.00e+00	0	56	0	212860928	47	4573
2026-01-12 01:46:49.48	325.13	17.39	-38.1	-40.0	15.6	0.00e+00	0	56	0	216006656	47	4551
2026-01-12 01:46:50.49	324.90	17.41	-38.1	-39.9	15.7	0.00e+00	0	56	0	219152384	47	4524
2026-01-12 01:46:51.50	324.68	17.43	-38.1	-39.9	15.7	0.00e+00	0	57	0	222298112	47	4523
2026-01-12 01:46:52.51	324.45	17.46	-38.1	-39.9	15.6	0.00e+00	0	56	0	225443840	47	4527
2026-01-12 01:46:53.53	324.22	17.48	-38.1	-40.0	15.6	0.00e+00	0	57	0	228589568	47	4551
2026-01-12 01:46:54.54	323.99	17.50	-38.1	-40.0	15.6	0.00e+00	0	56	0	231735296	47	4546
2026-01-12 01:46:55.55	323.76	17.52	-38.1	-39.9	15.6	0.00e+00	0	56	0	234881024	47	4545
2026-01-12 01:46:56.56	323.53	17.54	-38.1	-39.8	15.7	0.00e+00	0	57	0	238026752	47	4484
2026-01-12 01:46:57.57	323.31	17.56	-38.1	-39.8	15.7	0.00e+00	0	56	0	241172480	47	4490
2026-01-12 01:46:58.58	323.08	17.58	-38.1	-39.8	15.7	0.00e+00	0	56	0	244318208	47	4493
2026-01-12 01:46:59.59	322.85	17.60	-38.0	-39.8	15.8	0.00e+00	0	56	0	247463936	47	4443
2026-01-12 01:47:00.60	322.62	17.62	-38.0	-39.8	15.7	0.00e+00	0	56	0	250609664	47	4468
2026-01-12 01:47:01.61	322.39	17.64	-38.0	-39.8	15.8	0.00e+00	0	57	0	253755392	47	4459
2026-01-12 01:47:02.62	322.16	17.66	-38.0	-39.8	15.7	0.00e+00	0	57	0	256901120	47	4483
2026-01-12 01:47:03.63	321.93	17.67	-38.1	-39.9	15.7	0.00e+00	0	56	0	260046848	47	4504
2026-01-12 01:47:04.64	321.69	17.69	-38.1	-39.9	15.6	0.00e+00	0	56	0	263192576	47	4543
2026-01-12 01:47:05.65	321.46	17.71	-38.1	-39.9	15.6	0.00e+00	0	57	0	266338304	47	4541
2026-01-12 01:47:06.66	321.23	17.72	-38.1	-39.8	15.7	0.00e+00	0	57	0	269484032	47	4477
2026-01-12 01:47:07.67	321.00	17.74	-38.0	-39.8	15.7	0.00e+00	0	57	0	272629760	47	4472
2026-01-12 01:47:08.68	320.77	17.75	-38.0	-39.8	15.8	0.00e+00	0	57	0	275775488	47	4448
2026-01-12 01:47:09.69	320.53	17.77	-38.1	-39.9	15.7	0.00e+00	0	57	0	278921216	47	4494
2026-01-12 01:47:10.70	320.30	17.78	-38.2	-39.9	15.6	0.00e+00	0	57	0	282066944	47	4540
2026-01-12 01:47:11.71	320.07	17.80	-38.2	-40.0	15.5	0.00e+00	0	56	0	285212672	47	4595
2026-01-12 01:47:12.72	319.84	17.81	-38.3	-40.1	15.5	0.00e+00	0	57	0	288358400	47	4620
2026-01-12 01:47:13.73	319.60	17.82	-38.3	-40.2	15.4	0.00e+00	0	57	0	291504128	47	4663
2026-01-12 01:47:14.74	319.37	17.84	-38.3	-40.2	15.4	0.00e+00	0	57	0	294649856	47	4677
2026-01-12 01:47:15.75	319.14	17.85	-38.2	-40.0	15.5	0.00e+00	0	57	0	297795584	47	4582
2026-01-12 01:47:16.76	318.90	17.86	-38.1	-39.8	15.7	0.00e+00	0	56	0	300941312	47	4490
2026-01-12 01:47:17.77	318.67	17.87	-38.0	-39.8	15.8	0.00e+00	0	56	0	304087040	47	4443
2026-01-12 01:47:18.78	318.43	17.88	-38.0	-39.7	15.8	0.00e+00	0	57	0	307232768	47	4439
2026-01-12 01:47:19.79	318.20	17.89	-38.0	-39.7	15.8	0.00e+00	0	57	0	310378496	47	4424
2026-01-12 01:47:20.80	317.97	17.90	-37.9	-39.6	15.9	0.00e+00	0	57	0	313524224	47	4390
2026-01-12 01:47:21.81	317.73	17.91	-37.9	-39.7	15.9	0.00e+00	0	57	0	316669952	47	4401
2026-01-12 01:47:22.82	317.50	17.92	-37.9	-39.6	15.9	0.00e+00	0	57	0	319815680	47	4360
2026-01-12 01:47:23.83	317.26	17.92	-37.9	-39.6	15.9	0.00e+00	0	57	0	322961408	47	4389
2026-01-12 01:47:24.84	317.03	17.93	-38.0	-39.7	15.8	0.00e+00	0	57	0	326107136	47	4414
2026-01-12 01:47:25.85	316.79	17.94	-37.9	-39.7	15.8	0.00e+00	0	57	0	329252864	47	4419
2026-01-12 01:47:26.86	316.56	17.94	-38.0	-39.7	15.9	0.00e+00	0	57	0	332398592	47	4416
2026-01-12 01:47:27.87	316.32	17.95	-37.9	-39.7	15.9	0.00e+00	0	57	0	335544320	47	4399
2026-01-12 01:47:28.88	316.09	17.96	-38.0	-39.7	15.8	0.00e+00	0	56	0	338690048	47	4430
2026-01-12 01:47:29.89	315.85	17.96	-38.0	-39.7	15.8	0.00e+00	0	57	0	341835776	47	4432
2026-01-12 01:47:30.90	315.61	17.97	-38.0	-39.8	15.8	0.00e+00	0	56	0	344981504	47	4445
2026-01-12 01:47:31.91	315.38	17.97	-38.0	-39.8	15.8	0.00e+00	0	57	0	348127232	47	4470
2026-01-12 01:47:32.92	315.14	17.97	-38.0	-39.8	15.8	0.00e+00	0	56	0	351272960	47	4450
2026-01-12 01:47:33.93	314.91	17.98	-38.0	-39.8	15.7	0.00e+00	0	57	0	354418688	47	4473
2026-01-12 01:47:34.94	314.67	17.98	-38.1	-39.8	15.7	0.00e+00	0	57	0	357564416	47	4486
2026-01-12 01:47:35.95	314.44	17.98	-38.1	-39.9	15.6	0.00e+00	0	57	0	360710144	47	4515
2026-01-12 01:47:36.96	314.20	17.98	-38.2	-40.0	15.6	0.00e+00	0	57	0	363855872	47	4560
2026-01-12 01:47:37.97	313.96	17.98	-38.3	-40.1	15.5	0.00e+00	0	57	0	367001600	47	4620
2026-01-12 01:47:38.98	313.73	17.98	-38.3	-40.2	15.4	0.00e+00	0	57	0	370147328	47	4663
2026-01-12 01:47:39.99	313.49	17.98	-38.3	-40.2	15.4	0.00e+00	0	57	0	373293056	47	4664
2026-01-12 01:47:41.00	313.26	17.98	-38.3	-40.1	15.4	0.00e+00	0	57	0	376438784	47	4628
2026-01-12 01:47:42.01	313.02	17.98	-38.2	-40.0	15.5	0.00e+00	0	56	0	379584512	47	4565
2026-01-12 01:47:43.02	312.78	17.98	-38.2	-39.9	15.6	0.00e+00	0	57	0	382730240	47	4543
2026-01-12 01:47:44.03	312.55	17.98	-38.1	-39.8	15.7	0.00e+00	0	57	0	386924544	47	4491
2026-01-12 01:47:45.04	312.31	17.97	-37.9	-39.7	15.9	0.00e+00	0	57	0	390070272	47	4408
2026-01-12 01:47:46.05	312.08	17.97	-38.0	-39.7	15.8	0.00e+00	0	57	0	392167424	47	4414
2026-01-12 01:47:47.05	311.84	17.97	-37.9	-39.6	15.9	0.00e+00	0	57	0	395313152	47	4385
2026-01-12 01:47:48.06	311.61	17.96	-38.0	-39.7	15.8	0.00e+00	0	56	0	398458880	47	4422
2026-01-12 01:47:49.07	311.37	17.96	-38.0	-39.8	15.8	0.00e+00	0	57	0	402653184	47	4457
2026-01-12 01:47:50.08	311.14	17.95	-38.0	-39.8	15.8	0.00e+00	0	57	0	405798912	47	4455
2026-01-12 01:47:51.09	310.90	17.95	-38.0	-39.7	15.8	0.00e+00	0	56	0	408944640	47	4441
2026-01-12 01:47:52.10	310.67	17.94	-38.0	-39.8	15.8	0.00e+00	0	57	0	412090368	47	4446
2026-01-12 01:47:53.11	310.43	17.94	-38.0	-39.7	15.8	0.00e+00	0	57	0	414187520	47	4420
2026-01-12 01:47:54.12	310.20	17.93	-38.0	-39.7	15.8	0.00e+00	0	57	0	418381824	47	4438
2026-01-12 01:47:55.13	309.96	17.92	-37.9	-39.7	15.9	0.00e+00	0	57	0	421527552	47	4399
2026-01-12 01:47:56.15	309.72	17.91	-37.9	-39.7	15.9	0.00e+00	0	57	0	424673280	47	4399
2026-01-12 01:47:57.16	309.49	17.90	-37.9	-39.6	15.9	0.00e+00	0	56	0	427819008	47	4379
2026-01-12 01:47:58.17	309.25	17.90	-37.9	-39.7	15.8	0.00e+00	0	57	0	430964736	47	4404
2026-01-12 01:47:59.18	309.02	17.89	-38.0	-39.7	15.8	0.00e+00	0	57	0	434110464	47	4417
2026-01-12 01:48:00.19	308.78	17.88	-37.9	-39.7	15.9	0.00e+00	0	57	0	437256192	47	4402
2026-01-12 01:48:01.20	308.55	17.87	-37.9	-39.6	15.9	0.00e+00	0	57	0	440401920	47	4386
2026-01-12 01:48:02.21	308.32	17.85	-37.8	-39.6	15.9	0.00e+00	0	57	0	443547648	47	4341
2026-01-12 01:48:03.22	308.08	17.84	-37.9	-39.6	15.9	0.00e+00	0	57	0	446693376	47	4358
2026-01-12 01:48:04.23	307.85	17.83	-37.9	-39.6	15.9	0.00e+00	0	57	0	449839104	47	4357
2026-01-12 01:48:05.24	307.62	17.82	-37.9	-39.6	15.9	0.00e+00	0	57	0	452984832	47	4381
2026-01-12 01:48:06.25	307.38	17.81	-37.9	-39.7	15.8	0.00e+00	0	57	0	456130560	47	4407
2026-01-12 01:48:07.26	307.15	17.79	-38.0	-39.7	15.8	0.00e+00	0	57	0	459276288	47	4421
2026-01-12 01:48:08.27	306.92	17.78	-38.0	-39.8	15.7	0.00e+00	0	57	0	462422016	47	4467
2026-01-12 01:48:09.28	306.68	17.76	-38.1	-39.9	15.6	0.00e+00	0	57	0	465567744	47	4517
2026-01-12 01:48:10.29	306.45	17.75	-38.1	-39.9	15.7	0.00e+00	0	57	0	468713472	47	4500
2026-01-12 01:48:11.30	306.22	17.73	-38.1	-39.8	15.7	0.00e+00	0	57	0	471859200	47	4485
2026-01-12 01:48:12.31	305.99	17.72	-38.0	-39.8	15.7	0.00e+00	0	57	0	475004928	47	4465
2026-01-12 01:48:13.32	305.75	17.70	-38.0	-39.8	15.7	0.00e+00	0	56	0	478150656	47	4457
2026-01-12 01:48:14.33	305.52	17.69	-38.0	-39.8	15.8	0.00e+00	0	57	0	481296384	47	4443
2026-01-12 01:48:15.34	305.29	17.67	-38.0	-39.7	15.8	0.00e+00	0	56	0	484442112	47	4421
2026-01-12 01:48:16.35	305.06	17.65	-38.0	-39.7	15.8	0.00e+00	0	57	0	487587840	47	4440
2026-01-12 01:48:17.36	304.83	17.63	-38.0	-39.8	15.7	0.00e+00	0	57	0	490733568	47	4463
2026-01-12 01:48:18.37	304.60	17.61	-38.1	-39.9	15.6	0.00e+00	0	56	0	493879296	47	4497
2026-01-12 01:48:19.37	304.37	17.59	-38.2	-40.0	15.5	0.00e+00	0	56	0	497025024	47	4569
2026-01-12 01:48:20.38	304.14	17.58	-38.2	-40.0	15.5	0.00e+00	0	56	0	500170752	47	4594
2026-01-12 01:48:21.40	303.91	17.56	-38.2	-40.0	15.4	0.00e+00	0	57	0	503316480	47	4589
2026-01-12 01:48:22.41	303.68	17.53	-38.3	-40.1	15.4	0.00e+00	0	57	0	506462208	47	4621
2026-01-12 01:48:23.42	303.45	17.51	-38.4	-40.2	15.2	0.00e+00	0	57	0	509607936	47	4693
2026-01-12 01:48:24.43	303.22	17.49	-38.4	-40.3	15.2	0.00e+00	0	56	0	512753664	47	4743
2026-01-12 01:48:25.44	302.99	17.47	-38.4	-40.3	15.1	0.00e+00	0	56	0	515899392	47	4741
2026-01-12 01:48:26.45	302.77	17.45	-38.4	-40.2	15.2	0.00e+00	0	57	0	519045120	47	4702
2026-01-12 01:48:27.46	302.54	17.43	-38.2	-40.1	15.4	0.00e+00	0	57	0	522190848	47	4613
2026-01-12 01:48:28.46	302.31	17.40	-38.2	-40.0	15.5	0.00e+00	0	57	0	525336576	47	4557
2026-01-12 01:48:29.47	302.09	17.38	-38.1	-39.9	15.6	0.00e+00	0	56	0	528482304	47	4507
2026-01-12 01:48:30.48	301.86	17.36	-38.1	-39.9	15.6	0.00e+00	0	57	0	531628032	47	4511
2026-01-12 01:48:31.49	301.63	17.33	-38.0	-39.8	15.7	0.00e+00	0	57	0	534773760	47	4456
2026-01-12 01:48:32.50	301.41	17.31	-38.0	-39.7	15.7	0.00e+00	0	57	0	537919488	47	4440
2026-01-12 01:48:33.52	301.18	17.28	-37.9	-39.7	15.8	0.00e+00	0	57	0	541065216	47	4404
2026-01-12 01:48:34.53	300.95	17.25	-38.0	-39.7	15.7	0.00e+00	0	57	0	544210944	47	4429
2026-01-12 01:48:35.54	300.73	17.23	-38.0	-39.8	15.7	0.00e+00	0	57	0	547356672	47	4466
2026-01-12 01:48:36.55	300.51	17.20	-38.1	-39.9	15.6	0.00e+00	0	57	0	550502400	47	4515
2026-01-12 01:48:37.56	300.28	17.18	-38.1	-39.9	15.6	0.00e+00	0	57	0	553648128	47	4512
2026-01-12 01:48:38.57	300.06	17.15	-38.1	-39.9	15.6	0.00e+00	0	57	0	556793856	47	4495
2026-01-12 01:48:39.58	299.83	17.12	-38.1	-39.8	15.6	0.00e+00	0	57	0	559939584	47	4491
2026-01-12 01:48:40.59	299.61	17.09	-38.0	-39.8	15.6	0.00e+00	0	57	0	563085312	47	4482
2026-01-12 01:48:41.60	299.39	17.06	-38.0	-39.8	15.7	0.00e+00	0	57	0	566231040	47	4443
2026-01-12 01:48:42.61	299.17	17.03	-38.0	-39.8	15.6	0.00e+00	0	57	0	569376768	47	4461
2026-01-12 01:48:43.62	298.95	17.00	-38.1	-39.9	15.6	0.00e+00	0	57	0	572522496	47	4495
2026-01-12 01:48:44.63	298.72	16.97	-38.1	-39.9	15.5	0.00e+00	0	57	0	575668224	47	4520
2026-01-12 01:48:45.64	298.50	16.94	-38.1	-39.9	15.5	0.00e+00	0	57	0	578813952	47	4524
2026-01-12 01:48:46.65	298.28	16.91	-38.1	-39.9	15.6	0.00e+00	0	57	0	581959680	47	4509
2026-01-12 01:48:47.66	298.06	16.88	-38.1	-39.9	15.5	0.00e+00	0	57	0	585105408	47	4531
2026-01-12 01:48:48.66	297.85	16.85	-38.2	-40.0	15.4	0.00e+00	0	57	0	588251136	47	4576
2026-01-12 01:48:49.67	297.63	16.82	-38.3	-40.1	15.3	0.00e+00	0	57	0	591396864	47	4638
2026-01-12 01:48:50.68	297.41	16.79	-38.3	-40.2	15.2	0.00e+00	0	57	0	594542592	47	4675
2026-01-12 01:48:51.69	297.19	16.76	-38.3	-40.2	15.2	7.00e-07	0	57	0	597688320	47	4695
2026-01-12 01:48:52.70	296.97	16.72	-38.3	-40.2	15.2	0.00e+00	0	57	0	600834048	47	4695
2026-01-12 01:48:53.71	296.76	16.69	-38.3	-40.2	15.2	0.00e+00	0	57	0	603979776	47	4696
2026-01-12 01:48:54.72	296.54	16.66	-38.3	-40.2	15.3	0.00e+00	0	57	0	607125504	47	4659
2026-01-12 01:48:55.73	296.33	16.62	-38.3	-40.2	15.2	0.00e+00	0	56	0	610271232	47	4652
2026-01-12 01:48:56.74	296.11	16.59	-38.3	-40.2	15.3	0.00e+00	0	57	0	613416960	47	4656
2026-01-12 01:48:57.75	295.90	16.55	-38.2	-40.1	15.3	0.00e+00	0	57	0	616562688	47	4623
2026-01-12 01:48:58.76	295.68	16.52	-38.2	-40.0	15.4	0.00e+00	0	57	0	619708416	47	4593
2026-01-12 01:48:59.77	295.47	16.48	-38.2	-40.0	15.4	0.00e+00	0	57	0	622854144	47	4579
2026-01-12 01:49:00.78	295.25	16.45	-38.1	-39.9	15.5	0.00e+00	0	57	0	625999872	47	4516
2026-01-12 01:49:01.79	295.04	16.41	-38.0	-39.8	15.6	0.00e+00	0	57	0	629145600	47	4474
2026-01-12 01:49:02.80	294.83	16.37	-38.0	-39.8	15.6	0.00e+00	0	57	0	632291328	47	4450
2026-01-12 01:49:03.81	294.62	16.34	-37.9	-39.7	15.7	0.00e+00	0	57	0	635437056	47	4406
2026-01-12 01:49:04.82	294.40	16.30	-37.9	-39.7	15.7	0.00e+00	0	57	0	638582784	47	4415
2026-01-12 01:49:05.83	294.19	16.26	-37.9	-39.7	15.6	0.00e+00	0	56	0	641728512	47	4430
2026-01-12 01:49:06.84	293.98	16.22	-38.0	-39.8	15.5	0.00e+00	0	56	0	644874240	47	4486
2026-01-12 01:49:07.84	293.78	16.19	-38.1	-39.9	15.5	0.00e+00	0	57	0	648019968	47	4545
2026-01-12 01:49:08.85	293.57	16.15	-38.2	-40.0	15.3	0.00e+00	0	57	0	651165696	47	4587
2026-01-12 01:49:09.86	293.36	16.11	-38.2	-40.1	15.3	0.00e+00	0	57	0	654311424	47	4629
2026-01-12 01:49:10.87	293.15	16.07	-38.3	-40.2	15.2	0.00e+00	0	57	0	657457152	47	4666
2026-01-12 01:49:11.88	292.94	16.03	-38.3	-40.2	15.2	0.00e+00	0	57	0	660602880	47	4668
2026-01-12 01:49:12.89	292.74	15.99	-38.3	-40.1	15.2	0.00e+00	0	57	0	663748608	47	4650
2026-01-12 01:49:13.90	292.53	15.95	-38.2	-40.1	15.3	0.00e+00	0	57	0	666894336	47	4611
2026-01-12 01:49:14.91	292.32	15.91	-38.3	-40.1	15.2	0.00e+00	0	57	0	670040064	47	4640
2026-01-12 01:49:15.92	292.12	15.87	-38.3	-40.2	15.2	0.00e+00	0	57	0	673185792	47	4673
2026-01-12 01:49:16.93	291.91	15.83	-38.4	-40.3	15.1	0.00e+00	0	57	0	676331520	47	4729
2026-01-12 01:49:17.94	291.71	15.79	-38.4	-40.3	15.0	0.00e+00	0	57	0	679477248	47	4748
2026-01-12 01:49:18.95	291.50	15.74	-38.5	-40.4	14.9	0.00e+00	0	57	0	682622976	47	4794
2026-01-12 01:49:19.96	291.30	15.70	-38.5	-40.5	14.9	0.00e+00	0	57	0	685768704	47	4815
2026-01-12 01:49:20.97	291.10	15.66	-38.4	-40.4	14.9	0.00e+00	0	57	0	688914432	47	4779
2026-01-12 01:49:21.98	290.90	15.62	-38.4	-40.3	15.0	0.00e+00	0	57	0	692060160	47	4746
2026-01-12 01:49:22.99	290.70	15.57	-38.3	-40.2	15.1	0.00e+00	0	57	0	695205888	47	4694
2026-01-12 01:49:24.00	290.49	15.53	-38.2	-40.1	15.2	0.00e+00	0	57	0	698351616	47	4605
2026-01-12 01:49:25.00	290.30	15.49	-38.1	-40.0	15.3	0.00e+00	0	57	0	701497344	47	4554
2026-01-12 01:49:26.01	290.10	15.45	-38.1	-39.9	15.4	0.00e+00	0	57	0	704643072	47	4511
2026-01-12 01:49:27.02	289.90	15.40	-38.1	-39.9	15.4	0.00e+00	0	57	0	707788800	47	4508
2026-01-12 01:49:28.03	289.70	15.36	-38.1	-39.9	15.4	0.00e+00	0	57	0	710934528	47	4518
2026-01-12 01:49:29.04	289.50	15.31	-38.1	-40.0	15.3	0.00e+00	0	56	0	714080256	47	4562
2026-01-12 01:49:30.05	289.30	15.27	-38.2	-40.1	15.2	0.00e+00	0	57	0	717225984	47	4619
2026-01-12 01:49:31.06	289.11	15.22	-38.2	-40.1	15.2	0.00e+00	0	57	0	720371712	47	4613
2026-01-12 01:49:32.07	288.91	15.18	-38.2	-40.1	15.2	0.00e+00	0	57	0	724566016	47	4611
2026-01-12 01:49:33.08	288.72	15.13	-38.1	-40.0	15.3	0.00e+00	0	57	0	727711744	47	4548
2026-01-12 01:49:34.09	288.52	15.09	-38.0	-39.8	15.4	0.00e+00	0	57	0	729808896	47	4478
2026-01-12 01:49:35.10	288.33	15.04	-37.9	-39.7	15.5	0.00e+00	0	57	0	732954624	47	4434
2026-01-12 01:49:36.12	288.13	14.99	-37.9	-39.7	15.5	0.00e+00	0	57	0	736100352	47	4417
2026-01-12 01:49:37.12	287.94	14.95	-37.9	-39.7	15.5	0.00e+00	0	57	0	740294656	47	4433
2026-01-12 01:49:38.14	287.75	14.90	-38.0	-39.8	15.4	0.00e+00	0	57	0	743440384	47	4479
2026-01-12 01:49:39.15	287.55	14.85	-38.1	-39.9	15.3	0.00e+00	0	57	0	746586112	47	4513
2026-01-12 01:49:40.15	287.36	14.81	-38.2	-40.1	15.1	0.00e+00	0	57	0	749731840	47	4615
2026-01-12 01:49:41.16	287.17	14.76	-38.3	-40.2	15.0	7.00e-07	0	57	0	752877568	47	4693
2026-01-12 01:49:42.17	286.98	14.71	-38.4	-40.3	14.9	7.00e-07	0	57	0	754974720	47	4758
2026-01-12 01:49:43.18	286.79	14.66	-38.5	-40.5	14.7	0.00e+00	0	57	0	759169024	47	4815
2026-01-12 01:49:44.19	286.60	14.62	-38.5	-40.5	14.6	7.00e-07	0	57	0	762314752	47	4860
2026-01-12 01:49:45.20	286.42	14.57	-38.6	-40.6	14.6	0.00e+00	0	57	0	765460480	47	4906
2026-01-12 01:49:46.21	286.23	14.52	-38.5	-40.6	14.6	7.00e-07	0	57	0	768606208	47	4886
2026-01-12 01:49:47.22	286.04	14.47	-38.6	-40.6	14.5	0.00e+00	0	57	0	771751936	47	4909
2026-01-12 01:49:48.23	285.86	14.42	-38.6	-40.6	14.5	0.00e+00	0	57	0	774897664	47	4895
2026-01-12 01:49:49.24	285.67	14.37	-38.6	-40.6	14.5	0.00e+00	0	57	0	778043392	47	4924
2026-01-12 01:49:50.25	285.48	14.32	-38.5	-40.6	14.5	0.00e+00	0	57	0	781189120	47	4889
2026-01-12 01:49:51.26	285.30	14.27	-38.5	-40.6	14.5	7.00e-07	0	57	0	784334848	47	4880
2026-01-12 01:49:52.27	285.12	14.22	-38.5	-40.5	14.6	0.00e+00	0	57	0	787480576	47	4826
2026-01-12 01:49:53.28	284.93	14.17	-38.4	-40.4	14.7	0.00e+00	0	57	0	790626304	47	4779
2026-01-12 01:49:54.29	284.75	14.12	-38.4	-40.4	14.7	0.00e+00	0	57	0	793772032	47	4788
2026-01-12 01:49:55.30	284.57	14.07	-38.4	-40.4	14.7	0.00e+00	0	57	0	796917760	47	4794
2026-01-12 01:49:56.31	284.39	14.02	-38.4	-40.5	14.6	7.00e-07	0	57	0	800063488	47	4825
2026-01-12 01:49:57.32	284.21	13.97	-38.5	-40.6	14.5	7.00e-07	0	57	0	803209216	47	4904
2026-01-12 01:49:58.33	284.03	13.92	-38.6	-40.7	14.4	7.00e-07	0	57	0	806354944	47	4945
2026-01-12 01:49:59.34	283.85	13.87	-38.6	-40.7	14.4	0.00e+00	0	57	0	809500672	47	4934
2026-01-12 01:50:00.35	283.67	13.82	-38.5	-40.6	14.5	0.00e+00	0	57	0	812646400	47	4879
2026-01-12 01:50:01.36	283.49	13.77	-38.4	-40.5	14.6	7.00e-07	0	57	0	815792128	47	4822
2026-01-12 01:50:02.37	283.31	13.72	-38.4	-40.3	14.7	0.00e+00	0	57	0	818937856	47	4751
2026-01-12 01:50:03.38	283.13	13.67	-38.3	-40.3	14.7	0.00e+00	0	57	0	822083584	47	4741
2026-01-12 01:50:04.39	282.96	13.61	-38.3	-40.3	14.8	7.00e-07	0	57	0	825229312	47	4730
2026-01-12 01:50:05.40	282.78	13.56	-38.4	-40.4	14.7	7.00e-07	0	57	0	828375040	47	4785
2026-01-12 01:50:06.41	282.61	13.51	-38.5	-40.5	14.6	7.00e-07	0	57	0	831520768	47	4840
2026-01-12 01:50:07.42	282.43	13.46	-38.6	-40.6	14.5	0.00e+00	0	57	0	834666496	47	4920
2026-01-12 01:50:08.43	282.26	13.41	-38.7	-40.8	14.3	0.00e+00	0	57	0	837812224	47	5018
2026-01-12 01:50:09.44	282.08	13.35	-38.9	-41.0	14.2	2.20e-06	0	57	0	840957952	48	4853
2026-01-12 01:50:10.45	281.91	13.30	-38.8	-40.9	14.3	7.00e-07	0	57	0	844103680	48	4808
2026-01-12 01:50:11.46	281.74	13.25	-38.8	-40.8	14.4	0.00e+00	0	57	0	847249408	48	4741
2026-01-12 01:50:12.46	281.57	13.20	-38.6	-40.7	14.5	0.00e+00	0	57	0	850395136	48	4657
2026-01-12 01:50:13.47	281.40	13.14	-38.5	-40.5	14.7	0.00e+00	0	57	0	853540864	48	4559
2026-01-12 01:50:14.48	281.23	13.09	-38.5	-40.4	14.8	7.00e-07	0	56	0	856686592	48	4533
2026-01-12 01:50:15.50	281.06	13.04	-38.3	-40.2	15.0	0.00e+00	0	57	0	859832320	48	4411
2026-01-12 01:50:16.51	280.89	12.98	-38.3	-40.2	15.0	0.00e+00	0	57	0	862978048	48	4403
2026-01-12 01:50:17.52	280.72	12.93	-38.3	-40.2	15.0	0.00e+00	0	57	0	866123776	48	4400
2026-01-12 01:50:18.53	280.55	12.87	-38.3	-40.2	15.0	0.00e+00	0	57	0	869269504	48	4394
2026-01-12 01:50:19.54	280.39	12.82	-38.2	-40.1	15.1	0.00e+00	0	57	0	872415232	48	4370
2026-01-12 01:50:20.55	280.22	12.77	-38.2	-40.1	15.1	7.00e-07	0	57	0	875560960	48	4353
2026-01-12 01:50:21.56	280.05	12.71	-38.1	-40.0	15.2	0.00e+00	0	57	0	878706688	48	4312
2026-01-12 01:50:22.57	279.89	12.66	-38.1	-39.9	15.3	0.00e+00	0	57	0	881852416	48	4278
2026-01-12 01:50:23.58	279.72	12.60	-38.0	-39.9	15.3	0.00e+00	0	57	0	884998144	48	4249
2026-01-12 01:50:24.59	279.56	12.55	-38.1	-39.9	15.3	7.00e-07	0	57	0	888143872	48	4255
2026-01-12 01:50:25.60	279.40	12.49	-38.1	-39.9	15.2	0.00e+00	0	57	0	891289600	48	4289
2026-01-12 01:50:26.61	279.23	12.44	-38.2	-40.1	15.1	0.00e+00	0	57	0	894435328	48	4356
2026-01-12 01:50:27.62	279.07	12.39	-38.3	-40.2	14.9	0.00e+00	0	57	0	897581056	48	4436
2026-01-12 01:50:28.63	278.91	12.33	-38.4	-40.3	14.8	0.00e+00	0	57	0	900726784	48	4481
2026-01-12 01:50:29.63	278.75	12.28	-38.5	-40.5	14.6	7.00e-07	0	57	0	903872512	48	4569
2026-01-12 01:50:30.64	278.59	12.22	-38.6	-40.7	14.4	0.00e+00	0	57	0	907018240	48	4664
2026-01-12 01:50:31.65	278.43	12.17	-38.7	-40.8	14.3	7.00e-07	0	57	0	910163968	48	4731
2026-01-12 01:50:32.66	278.27	12.11	-38.8	-40.9	14.2	1.50e-06	0	57	0	913309696	48	4810
2026-01-12 01:50:33.67	278.11	12.06	-38.8	-41.0	14.1	3.80e-06	0	57	0	916455424	48	4828
2026-01-12 01:50:34.68	277.95	12.00	-38.9	-41.1	13.9	3.80e-06	0	57	0	919601152	48	4918
2026-01-12 01:50:35.69	277.80	11.94	-39.0	-41.2	13.9	6.10e-06	0	57	0	922746880	48	4961
2026-01-12 01:50:36.70	277.64	11.89	-39.0	-41.3	13.7	7.60e-06	0	57	0	925892608	48	5001
2026-01-12 01:50:37.71	277.48	11.83	-39.1	-41.4	13.7	6.10e-06	0	57	0	929038336	48	5063
2026-01-12 01:50:38.72	277.33	11.78	-39.1	-41.3	13.6	6.80e-06	0	57	0	932184064	48	5037
2026-01-12 01:50:39.73	277.17	11.72	-39.1	-41.3	13.6	2.20e-06	0	57	0	935329792	48	5037
2026-01-12 01:50:40.74	277.02	11.67	-39.0	-41.3	13.6	1.06e-05	0	57	0	938475520	48	5024
2026-01-12 01:50:41.75	276.86	11.61	-39.1	-41.4	13.5	1.22e-05	0	57	0	941621248	48	5066
2026-01-12 01:50:42.76	276.71	11.55	-39.1	-41.5	13.4	1.83e-05	0	57	0	944766976	48	5111
2026-01-12 01:50:43.77	276.56	11.50	-39.1	-41.4	13.4	1.44e-05	0	57	0	947912704	48	5080
2026-01-12 01:50:44.78	276.41	11.44	-39.0	-41.3	13.5	1.60e-05	0	57	0	951058432	48	5006
2026-01-12 01:50:45.79	276.25	11.38	-38.9	-41.2	13.6	5.30e-06	0	57	0	954204160	48	4938
2026-01-12 01:50:46.80	276.10	11.33	-38.9	-41.2	13.6	6.80e-06	0	57	0	957349888	48	4964
2026-01-12 01:50:47.81	275.95	11.27	-38.9	-41.2	13.6	6.10e-06	0	57	0	960495616	48	4936
2026-01-12 01:50:48.82	275.80	11.22	-38.7	-40.9	13.9	4.50e-06	0	57	0	963641344	48	4775
2026-01-12 01:50:49.83	275.65	11.16	-38.6	-40.8	13.9	7.00e-07	0	57	0	966787072	48	4724
2026-01-12 01:50:50.84	275.50	11.10	-38.6	-40.8	13.9	3.00e-06	0	57	0	969932800	48	4754
2026-01-12 01:50:51.85	275.36	11.05	-38.5	-40.7	14.0	1.50e-06	0	57	0	973078528	48	4679
2026-01-12 01:50:52.86	275.21	10.99	-38.6	-40.8	13.8	3.00e-06	0	57	0	976224256	48	4733
2026-01-12 01:50:53.87	275.06	10.93	-38.6	-40.8	13.8	4.50e-06	0	57	0	979369984	48	4752
2026-01-12 01:50:54.88	274.92	10.88	-38.7	-41.0	13.5	7.60e-06	0	57	0	982515712	48	4862
2026-01-12 01:50:55.89	274.77	10.82	-38.9	-41.2	13.3	1.22e-05	0	57	0	985661440	48	4968
2026-01-12 01:50:56.90	274.63	10.76	-39.0	-41.5	13.0	2.97e-05	0	57	0	988807168	48	5136
2026-01-12 01:50:57.90	274.48	10.71	-39.2	-41.8	12.7	6.63e-05	0	57	0	991952896	48	5300
2026-01-12 01:50:58.91	274.34	10.65	-39.4	-42.1	12.3	1.50e-04	0	57	0	995098624	49	5214
2026-01-12 01:50:59.93	274.19	10.59	-39.5	-42.4	12.0	2.34e-04	0	57	0	998244352	49	5347
2026-01-12 01:51:00.93	274.05	10.53	-39.6	-42.5	11.8	4.74e-04	0	57	0	1001390080	49	5461
2026-01-12 01:51:01.95	273.91	10.48	-39.7	-42.7	11.6	6.79e-04	0	57	0	1004535808	50	5270
2026-01-12 01:51:02.95	273.77	10.42	-39.8	-42.8	11.5	8.21e-04	0	57	0	1007681536	50	5313
2026-01-12 01:51:03.96	273.63	10.36	-39.8	-42.9	11.4	9.72e-04	0	57	0	1010827264	50	5354
2026-01-12 01:51:04.97	273.49	10.31	-39.9	-43.1	11.1	1.44e-03	0	57	0	1013972992	50	5504
2026-01-12 01:51:05.98	273.35	10.25	-40.0	-43.2	11.1	1.59e-03	0	57	0	1017118720	50	5548
2026-01-12 01:51:06.99	273.21	10.19	-39.8	-43.0	11.1	1.57e-03	0	57	0	1020264448	50	5430
2026-01-12 01:51:08.00	273.07	10.13	-39.8	-43.0	11.0	1.86e-03	0	57	0	1023410176	50	5456
2026-01-12 01:51:09.01	272.93	10.08	-39.8	-43.0	11.0	1.79e-03	0	57	0	1026555904	50	5439
2026-01-12 01:51:10.02	272.79	10.02	-39.7	-43.0	11.0	1.90e-03	0	57	0	1029701632	50	5414
2026-01-12 01:51:11.03	272.65	9.96	-39.7	-43.0	10.8	2.21e-03	0	57	0	1032847360	50	5464
2026-01-12 01:51:12.03	272.52	9.91	-39.8	-43.1	10.7	3.03e-03	0	57	0	1035993088	50	5510
2026-01-12 01:51:13.05	272.38	9.85	-39.8	-43.3	10.5	3.56e-03	0	57	0	1039138816	50	5612
2026-01-12 01:51:14.06	272.25	9.79	-39.8	-43.3	10.5	3.90e-03	0	57	0	1042284544	50	5613
2026-01-12 01:51:15.07	272.11	9.73	-39.9	-43.4	10.4	4.15e-03	0	57	0	1045430272	50	5688
2026-01-12 01:51:16.08	271.98	9.67	-40.0	-43.6	10.2	5.82e-03	0	57	0	1048576000	50	5830
2026-01-12 01:51:17.09	271.84	9.62	-40.1	-43.8	10.0	7.27e-03	0	57	0	1051721728	50	5966
2026-01-12 01:51:18.10	271.71	9.56	-40.2	-44.0	9.7	1.03e-02	0	57	0	1054867456	51	5771
2026-01-12 01:51:19.11	271.58	9.50	-40.3	-44.3	9.4	1.43e-02	0	57	0	1058013184	51	5944
2026-01-12 01:51:20.12	271.44	9.44	-40.4	-44.4	9.4	1.72e-02	0	57	0	1061158912	51	6018
2026-01-12 01:51:21.13	271.31	9.39	-40.5	-44.6	9.2	1.89e-02	0	57	0	1065353216	51	6159
2026-01-12 01:51:22.14	271.18	9.33	-40.6	-44.8	9.0	2.36e-02	0	57	0	1068498944	51	6290
2026-01-12 01:51:23.15	271.05	9.27	-40.6	-44.9	8.9	2.78e-02	0	57	0	1070596096	51	6360
2026-01-12 01:51:24.16	270.92	9.21	-40.7	-45.1	8.6	3.58e-02	0	57	0	1073741824	51	6520
2026-01-12 01:51:25.17	270.79	9.16	-40.7	-45.2	8.4	4.55e-02	0	57	0	1077936128	52	6237
2026-01-12 01:51:26.18	270.66	9.10	-40.7	-45.2	8.4	4.56e-02	0	57	0	1081081856	52	6255
2026-01-12 01:51:27.19	270.53	9.04	-40.7	-45.3	8.3	5.17e-02	0	57	0	1084227584	52	6297
2026-01-12 01:51:28.21	270.40	8.98	-40.7	-45.3	8.2	5.59e-02	0	57	0	1087373312	52	6312
2026-01-12 01:51:29.22	270.27	8.93	-40.6	-45.2	8.2	5.62e-02	0	57	0	1090519040	52	6274
2026-01-12 01:51:30.23	270.15	8.87	-40.5	-45.3	7.9	6.78e-02	0	57	0	1093664768	52	6327
2026-01-12 01:51:31.24	270.02	8.81	-40.5	-45.5	7.6	8.47e-02	0	57	0	1096810496	52	6463
2026-01-12 01:51:32.25	269.89	8.75	-40.5	-45.7	7.3	1.17e-01	0	57	0	1099956224	52	6641
2026-01-12 01:51:33.26	269.77	8.69	-40.5	-46.0	7.0	1.37e-01	0	57	0	1103101952	52	6828
2026-01-12 01:51:34.27	269.64	8.64	-40.6	-46.3	6.7	1.80e-01	0	57	0	1106247680	52	7057
2026-01-12 01:51:35.28	269.52	8.58	-40.6	-46.7	6.3	2.52e-01	0	57	0	1109393408	52	7381
2026-01-12 01:51:36.29	269.39	8.52	-40.6	-47.0	5.9	3.19e-01	0	57	0	1112539136	52	7647
2026-01-12 01:51:37.30	269.27	8.46	-40.6	-47.3	5.7	4.14e-01	0	57	0	1115684864	52	7917
2026-01-12 01:51:38.31	269.15	8.41	-40.7	-47.7	5.3	5.44e-01	0	57	0	1118830592	52	8355
2026-01-12 01:51:39.32	269.02	8.35	-40.7	-48.3	4.9	6.72e-01	0	57	0	1121976320	52	8879
2026-01-12 01:51:40.33	268.90	8.29	-40.7	-48.8	4.6	1.15e+00	2	57	104	1121976320	52	9467
2026-01-12 01:51:41.34	268.78	8.23	-40.7	-49.2	4.4	1.40e+00	0	57	104	1121976320	52	9897
2026-01-12 01:51:42.35	268.66	8.18	-40.7	-49.6	4.3	1.43e+00	0	57	104	1121976320	52	10302
2026-01-12 01:51:43.36	268.54	8.12	-40.6	-50.7	3.9	1.48e+00	0	57	104	1121976320	52	11793
2026-01-12 01:51:44.38	268.42	8.06	-40.4	-51.6	3.8	1.49e+00	0	57	104	1121976320	52	12998
2026-01-12 01:51:45.39	268.30	8.00	-40.8	-51.6	3.9	1.49e+00	0	57	104	1121976320	52	13006
2026-01-12 01:51:46.40	268.18	7.95	-44.5	-56.6	3.8	1.49e+00	0	57	104	1121976320	59	15477
2026-01-12 01:51:47.41	268.06	7.89	-44.7	-57.0	3.8	1.49e+00	0	57	104	1121976320	60	15397
2026-01-12 01:51:48.42	267.94	7.83	-44.9	-57.2	3.8	1.49e+00	0	57	104	1121976320	60	15636
2026-01-12 01:51:49.43	267.82	7.77	-45.0	-57.3	3.8	1.49e+00	0	57	104	1121976320	60	15926
2026-01-12 01:51:50.44	267.70	7.72	-45.1	-57.4	3.8	1.49e+00	0	57	104	1121976320	60	16044
2026-01-12 01:51:51.45	267.59	7.66	-45.1	-57.4	3.8	1.49e+00	0	57	104	1121976320	60	16125
2026-01-12 01:51:52.46	267.47	7.60	-45.2	-57.5	3.8	1.49e+00	0	57	104	1121976320	60	16212
2026-01-12 01:51:53.47	267.35	7.54	-45.2	-57.6	3.8	1.49e+00	0	57	104	1121976320	60	16315
2026-01-12 01:51:54.48	267.24	7.49	-45.2	-57.6	3.8	1.49e+00	0	57	104	1121976320	60	16365
2026-01-12 01:51:55.49	267.12	7.43	-45.2	-57.6	3.8	1.49e+00	0	57	104	1121976320	60	16369
2026-01-12 01:51:56.50	267.01	7.37	-45.1	-57.5	3.8	1.49e+00	0	57	104	1121976320	60	16221
2026-01-12 01:51:57.51	266.89	7.31	-45.1	-57.5	3.7	1.49e+00	0	57	104	1121976320	60	16242
2026-01-12 01:51:58.53	266.78	7.26	-45.1	-57.5	3.8	1.49e+00	0	57	104	1121976320	60	16206
2026-01-12 01:51:59.54	266.67	7.20	-45.1	-57.5	3.8	1.49e+00	0	57	104	1121976320	60	16207
2026-01-12 01:52:00.55	266.55	7.14	-45.1	-57.5	3.8	1.49e+00	0	57	104	1121976320	60	16247
2026-01-12 01:52:01.56	266.44	7.08	-45.1	-57.5	3.8	1.49e+00	0	57	104	1121976320	60	16222
2026-01-12 01:52:02.57	266.33	7.03	-45.1	-57.5	3.8	1.49e+00	0	57	104	1121976320	60	16140
2026-01-12 01:52:03.58	266.22	6.97	-45.1	-57.5	3.8	1.49e+00	0	58	104	1121976320	60	16129
2026-01-12 01:52:04.59	266.11	6.91	-45.1	-57.5	3.8	1.49e+00	0	57	104	1121976320	60	16134
2026-01-12 01:52:05.60	266.00	6.86	-45.0	-57.4	3.8	1.49e+00	0	57	104	1121976320	60	16101
2026-01-12 01:52:06.61	265.89	6.80	-45.1	-57.5	3.8	1.49e+00	0	57	104	1121976320	60	16133
2026-01-12 01:52:07.62	265.78	6.74	-45.0	-57.4	3.8	1.49e+00	0	57	104	1121976320	60	16080
2026-01-12 01:52:08.64	265.67	6.68	-45.0	-57.4	3.8	1.49e+00	0	57	104	1121976320	60	16070
2026-01-12 01:52:09.65	265.56	6.63	-45.0	-57.4	3.8	1.49e+00	0	58	104	1121976320	60	16049
2026-01-12 01:52:10.66	265.45	6.57	-45.0	-57.4	3.8	1.49e+00	0	57	104	1121976320	60	16046
2026-01-12 01:52:11.67	265.34	6.51	-45.0	-57.4	3.8	1.49e+00	0	57	104	1121976320	60	16106
2026-01-12 01:52:12.68	265.23	6.46	-45.0	-57.4	3.8	1.49e+00	0	57	104	1121976320	60	16091
2026-01-12 01:52:13.69	265.13	6.40	-45.0	-57.4	3.8	1.49e+00	0	57	104	1121976320	60	16037
2026-01-12 01:52:14.70	265.02	6.34	-45.0	-57.4	3.8	1.49e+00	0	57	104	1121976320	60	16022
2026-01-12 01:52:15.71	264.91	6.28	-45.0	-57.4	3.8	1.49e+00	0	57	104	1121976320	60	16023
2026-01-12 01:52:16.72	264.81	6.23	-45.0	-57.4	3.8	1.49e+00	0	57	104	1121976320	60	16006
2026-01-12 01:52:17.73	264.70	6.17	-45.0	-57.4	3.8	1.49e+00	0	58	104	1121976320	60	16014
2026-01-12 01:52:18.74	264.60	6.11	-45.0	-57.4	3.8	1.49e+00	0	57	104	1121976320	60	16044
2026-01-12 01:52:19.76	264.49	6.06	-45.0	-57.4	3.8	1.49e+00	0	57	104	1121976320	60	16070
2026-01-12 01:52:20.77	264.39	6.00	-45.0	-57.4	3.8	1.49e+00	0	57	104	1121976320	60	16019
2026-01-12 01:52:21.78	264.28	5.94	-45.0	-57.4	3.8	1.49e+00	0	57	104	1121976320	60	16034
2026-01-12 01:52:22.79	264.18	5.89	-45.0	-57.4	3.8	1.49e+00	0	57	104	1121976320	60	16021
2026-01-12 01:52:23.80	264.08	5.83	-45.0	-57.4	3.8	1.49e+00	0	57	104	1121976320	60	15995
2026-01-12 01:52:24.81	263.98	5.77	-45.0	-57.4	3.8	1.49e+00	0	58	104	1121976320	60	16004
2026-01-12 01:52:25.82	263.87	5.72	-45.0	-57.4	3.8	1.49e+00	0	57	104	1121976320	60	16038
2026-01-12 01:52:26.83	263.77	5.66	-45.0	-57.4	3.8	1.49e+00	0	57	104	1121976320	60	16002
2026-01-12 01:52:27.84	263.67	5.60	-45.0	-57.4	3.8	1.49e+00	0	58	104	1121976320	60	16034
2026-01-12 01:52:28.85	263.57	5.55	-45.0	-57.4	3.8	1.49e+00	0	57	104	1121976320	60	15987
2026-01-12 01:52:29.86	263.47	5.49	-45.0	-57.4	3.8	1.49e+00	0	58	104	1121976320	60	15958
2026-01-12 01:52:30.87	263.37	5.44	-45.0	-57.4	3.8	1.49e+00	0	58	104	1121976320	60	16001
2026-01-12 01:52:31.88	263.27	5.38	-45.0	-57.4	3.8	1.49e+00	0	57	104	1121976320	60	15983
2026-01-12 01:52:32.89	263.17	5.32	-45.0	-57.4	3.8	1.49e+00	0	57	104	1121976320	60	16067
2026-01-12 01:52:33.90	263.07	5.27	-45.0	-57.4	3.8	1.49e+00	0	57	104	1121976320	60	16047
2026-01-12 01:52:34.92	262.97	5.21	-45.0	-57.4	3.8	1.49e+00	0	57	104	1121976320	60	16036
2026-01-12 01:52:35.93	262.87	5.15	-45.0	-57.4	3.8	1.49e+00	0	57	104	1121976320	60	15991
2026-01-12 01:52:36.94	262.78	5.10	-45.0	-57.4	3.8	1.49e+00	0	57	104	1121976320	60	16023
2026-01-12 01:52:37.95	262.68	5.04	-45.0	-57.4	3.8	1.49e+00	0	58	104	1121976320	60	16006
2026-01-12 01:52:38.96	262.58	4.99	-45.0	-57.4	3.8	1.49e+00	0	58	104	1121976320	60	16012
2026-01-12 01:52:39.97	262.48	4.93	-45.0	-57.4	3.8	1.49e+00	0	57	104	1121976320	60	15994
2026-01-12 01:52:40.98	262.39	4.87	-45.0	-57.4	3.8	1.49e+00	0	58	104	1121976320	60	15998
2026-01-12 01:52:41.99	262.29	4.82	-45.0	-57.4	3.8	1.49e+00	0	58	104	1121976320	60	16037
2026-01-12 01:52:43.00	262.20	4.76	-45.0	-57.4	3.8	1.49e+00	0	57	104	1121976320	60	16005
2026-01-12 01:52:44.01	262.10	4.71	-45.0	-57.4	3.8	1.49e+00	0	58	104	1121976320	60	16024
2026-01-12 01:52:45.02	262.01	4.65	-45.0	-57.4	3.8	1.49e+00	0	58	104	1121976320	60	15974
2026-01-12 01:52:46.03	261.91	4.59	-45.0	-57.4	3.8	1.49e+00	0	58	104	1121976320	60	16006
2026-01-12 01:52:47.04	261.82	4.54	-45.0	-57.4	3.8	1.49e+00	0	58	104	1121976320	60	15978
2026-01-12 01:52:48.05	261.72	4.48	-45.0	-57.4	3.8	1.49e+00	0	57	104	1121976320	60	15970
2026-01-12 01:52:49.06	261.63	4.43	-45.0	-57.4	3.8	1.49e+00	0	58	104	1121976320	60	15968
2026-01-12 01:52:50.07	261.54	4.37	-45.0	-57.4	3.8	1.49e+00	0	57	104	1121976320	60	15999
2026-01-12 01:52:51.08	261.45	4.32	-45.0	-57.4	3.8	1.49e+00	0	58	104	1121976320	60	15964
2026-01-12 01:52:52.10	261.35	4.26	-45.0	-57.4	3.8	1.49e+00	0	58	104	1121976320	60	15980
2026-01-12 01:52:53.11	261.26	4.21	-45.0	-57.4	3.8	1.49e+00	0	58	104	1121976320	60	15957
2026-01-12 01:52:54.12	261.17	4.15	-45.0	-57.4	3.8	1.49e+00	0	58	104	1121976320	60	15993
2026-01-12 01:52:55.13	261.08	4.09	-45.0	-57.4	3.8	1.49e+00	0	58	104	1121976320	60	15988
2026-01-12 01:52:56.14	260.99	4.04	-45.0	-57.4	3.8	1.49e+00	0	58	104	1121976320	60	15963
2026-01-12 01:52:57.15	260.90	3.98	-45.0	-57.4	3.8	1.49e+00	0	57	104	1121976320	60	16007
2026-01-12 01:52:58.16	260.81	3.93	-45.0	-57.4	3.8	1.49e+00	0	58	104	1121976320	60	15981
2026-01-12 01:52:59.17	260.72	3.87	-45.0	-57.3	3.8	1.49e+00	0	57	104	1121976320	60	15922
2026-01-12 01:53:00.18	260.63	3.82	-45.0	-57.3	3.8	1.49e+00	0	58	104	1121976320	60	15940
2026-01-12 01:53:01.19	260.54	3.76	-44.9	-57.3	3.8	1.49e+00	0	58	104	1121976320	60	15935
2026-01-12 01:53:02.20	260.45	3.71	-45.0	-57.4	3.8	1.49e+00	0	58	104	1121976320	60	15958
2026-01-12 01:53:03.21	260.36	3.65	-45.0	-57.4	3.8	1.49e+00	0	58	104	1121976320	60	15961
2026-01-12 01:53:04.23	260.27	3.60	-44.9	-57.4	3.8	1.49e+00	0	58	104	1121976320	60	15988
2026-01-12 01:53:05.24	260.18	3.54	-45.0	-57.4	3.8	1.49e+00	0	58	104	1121976320	60	15967
2026-01-12 01:53:06.25	260.10	3.49	-45.0	-57.4	3.8	1.49e+00	0	58	104	1121976320	60	15962
2026-01-12 01:53:07.26	260.01	3.43	-45.0	-57.3	3.8	1.49e+00	0	57	104	1121976320	60	15936
2026-01-12 01:53:08.27	259.92	3.38	-44.9	-57.4	3.8	1.49e+00	0	58	104	1121976320	60	15960
2026-01-12 01:53:09.28	259.84	3.33	-44.9	-57.3	3.8	1.49e+00	0	58	104	1121976320	60	15933
2026-01-12 01:53:10.29	259.75	3.27	-45.0	-57.3	3.8	1.49e+00	0	58	104	1121976320	60	15922
2026-01-12 01:53:11.30	259.67	3.22	-45.0	-57.4	3.8	1.49e+00	0	58	104	1121976320	60	15984
2026-01-12 01:53:12.31	259.58	3.16	-45.0	-57.4	3.8	1.49e+00	0	58	104	1121976320	60	15952
2026-01-12 01:53:13.33	259.49	3.11	-45.0	-57.4	3.8	1.49e+00	0	57	104	1121976320	60	15963
2026-01-12 01:53:14.34	259.41	3.05	-45.0	-57.3	3.8	1.49e+00	0	57	104	1121976320	60	15925
2026-01-12 01:53:15.35	259.33	3.00	-45.0	-57.3	3.8	1.49e+00	0	58	104	1121976320	60	15941
2026-01-12 01:53:16.36	259.24	2.94	-45.0	-57.4	3.8	1.49e+00	0	58	104	1121976320	60	15978
2026-01-12 01:53:17.37	259.16	2.89	-45.0	-57.4	3.8	1.49e+00	0	58	104	1121976320	60	15979
2026-01-12 01:53:18.38	259.07	2.84	-44.9	-57.4	3.8	1.49e+00	0	58	104	1121976320	60	15952
2026-01-12 01:53:19.39	258.99	2.78	-44.9	-57.4	3.8	1.49e+00	0	58	104	1121976320	60	15963
2026-01-12 01:53:20.40	258.91	2.73	-44.9	-57.3	3.8	1.49e+00	0	58	104	1121976320	60	15936
2026-01-12 01:53:21.41	258.83	2.67	-45.0	-57.4	3.8	1.49e+00	0	58	104	1121976320	60	15952
2026-01-12 01:53:22.42	258.74	2.62	-45.0	-57.4	3.8	1.49e+00	0	57	104	1121976320	60	15958
2026-01-12 01:53:23.43	258.66	2.56	-45.0	-57.3	3.8	1.49e+00	0	57	104	1121976320	60	15942
2026-01-12 01:53:24.44	258.58	2.51	-45.0	-57.4	3.8	1.49e+00	0	57	104	1121976320	60	15987
2026-01-12 01:53:25.46	258.50	2.46	-45.0	-57.4	3.8	1.49e+00	0	58	104	1121976320	60	15988
2026-01-12 01:53:26.47	258.42	2.40	-44.9	-57.4	3.8	1.49e+00	0	58	104	1121976320	60	15975
2026-01-12 01:53:27.48	258.34	2.35	-45.0	-57.4	3.8	1.49e+00	0	57	104	1121976320	60	15961
2026-01-12 01:53:28.49	258.26	2.30	-44.9	-57.3	3.8	1.49e+00	0	58	104	1121976320	60	15924
2026-01-12 01:53:29.50	258.18	2.24	-44.9	-57.3	3.8	1.49e+00	0	58	104	1121976320	60	15928
2026-01-12 01:53:30.51	258.10	2.19	-44.9	-57.4	3.8	1.49e+00	0	58	104	1121976320	60	15944
2026-01-12 01:53:31.52	258.02	2.13	-44.9	-57.3	3.8	1.49e+00	0	58	104	1121976320	60	15930
2026-01-12 01:53:32.53	257.94	2.08	-44.9	-57.4	3.8	1.49e+00	0	58	104	1121976320	60	15965
2026-01-12 01:53:33.54	257.86	2.03	-44.9	-57.4	3.8	1.49e+00	0	58	104	1121976320	60	15946
2026-01-12 01:53:34.55	257.78	1.97	-45.0	-57.4	3.8	1.49e+00	0	58	104	1121976320	60	15948
2026-01-12 01:53:35.56	257.70	1.92	-44.9	-57.3	3.8	1.49e+00	0	57	104	1121976320	60	15936
2026-01-12 01:53:36.57	257.62	1.87	-44.9	-57.3	3.8	1.49e+00	0	58	104	1121976320	60	15914

#Closed at: 2026-01-12 01:53:36
#Recorded file [1121 MB]: D:/lorett/data/31039_260112_044450.dat