passes_logs/2026/01/12/R2.0S_Moscow/R2.0S_Moscow__20260112_112104_FENGYUN_3D_rec.log

#Pass ID: 20260112_112104_FENGYUN 3D
#Satellite: FENGYUN 3D
#Configuration: FENGYUN 3D
#almurnet v.1.7.20251203
#Start time: 2026-01-12 11:21:05

#Version: 2.2.20231116
#Station: R2.0S_Moscow
#Location: 37.707566 lon 55.798166 lat
#TLE: 1 43010U 17072A   26011.26828046  .00000354  00000+0  18908-3 0  9991
#TLE: 2 43010  98.9936 343.0270 0002205 114.1788 245.9618 14.19695184422722

#Time	Az	El	Level	Level2	SNR	BER	BlckErr	Temp	State	Recorded	gain1	gain2
2026-01-12 11:21:05.97	142.71	2.12	-43.2	-54.7	3.8	8.47e-01	0	50	0	0	56	14862
2026-01-12 11:21:06.97	142.69	2.19	-43.2	-54.7	3.8	8.46e-01	0	50	104	0	57	13936
2026-01-12 11:21:07.98	142.67	2.25	-43.2	-54.7	3.8	8.46e-01	0	50	104	0	57	14027
2026-01-12 11:21:08.99	142.64	2.32	-43.2	-54.8	3.6	8.46e-01	0	50	104	0	57	14065
2026-01-12 11:21:10.00	142.62	2.38	-43.1	-54.5	3.7	8.45e-01	0	50	104	0	55	15356
2026-01-12 11:21:11.01	142.59	2.45	-43.2	-54.7	3.8	8.44e-01	0	50	104	0	57	13968
2026-01-12 11:21:12.03	142.57	2.51	-43.2	-54.7	3.8	8.46e-01	0	50	104	0	57	14006
2026-01-12 11:21:13.04	142.54	2.58	-43.2	-54.5	4.0	8.46e-01	0	50	104	0	56	14518
2026-01-12 11:21:14.05	142.52	2.64	-43.2	-54.7	3.8	8.46e-01	0	50	104	0	56	14828
2026-01-12 11:21:15.06	142.49	2.71	-42.1	-53.9	3.8	8.45e-01	0	51	104	0	55	14352
2026-01-12 11:21:16.07	142.47	2.77	-43.2	-54.7	3.8	8.47e-01	0	51	104	0	57	13992
2026-01-12 11:21:17.08	142.44	2.84	-43.2	-54.7	3.8	8.46e-01	0	51	104	0	57	14033
2026-01-12 11:21:18.09	142.41	2.91	-43.2	-54.7	3.8	8.46e-01	0	51	104	0	57	13916
2026-01-12 11:21:19.10	142.39	2.97	-43.2	-54.7	3.7	8.48e-01	0	51	104	0	56	14829
2026-01-12 11:21:20.12	142.36	3.04	-43.2	-54.7	3.8	8.47e-01	0	51	104	0	57	13975
2026-01-12 11:21:21.12	142.34	3.10	-41.1	-53.5	3.9	8.46e-01	0	51	104	0	55	13595
2026-01-12 11:21:22.13	142.31	3.17	-43.2	-54.7	3.8	8.46e-01	0	51	104	0	57	13960
2026-01-12 11:21:23.14	142.28	3.24	-43.2	-54.7	3.8	8.47e-01	0	51	104	0	57	13971
2026-01-12 11:21:24.16	142.26	3.30	-43.2	-54.7	3.8	8.47e-01	0	51	104	0	57	13945
2026-01-12 11:21:25.17	142.23	3.37	-43.2	-54.7	3.8	8.47e-01	0	51	104	0	57	13995
2026-01-12 11:21:26.18	142.20	3.44	-43.2	-54.7	3.8	8.48e-01	0	51	104	0	57	13925
2026-01-12 11:21:27.19	142.18	3.51	-42.6	-54.4	3.9	8.46e-01	0	51	104	0	56	14275
2026-01-12 11:21:28.20	142.15	3.57	-43.1	-54.7	3.8	8.47e-01	0	51	104	0	57	13951
2026-01-12 11:21:29.21	142.12	3.64	-43.2	-54.7	3.8	8.46e-01	0	51	104	0	57	13943
2026-01-12 11:21:30.22	142.10	3.71	-43.2	-54.7	3.8	8.46e-01	0	51	104	0	57	14009
2026-01-12 11:21:31.24	142.07	3.78	-43.2	-54.7	3.8	8.45e-01	0	52	104	0	57	14014
2026-01-12 11:21:32.25	142.04	3.85	-43.2	-54.7	3.8	8.46e-01	0	52	104	0	57	14030
2026-01-12 11:21:33.26	142.01	3.91	-43.2	-54.7	3.8	8.47e-01	0	52	104	0	57	14007
2026-01-12 11:21:34.27	141.98	3.98	-43.2	-54.7	3.8	8.45e-01	0	52	104	0	57	13944
2026-01-12 11:21:35.28	141.96	4.05	-43.2	-54.7	3.8	8.47e-01	0	52	104	0	57	13953
2026-01-12 11:21:36.29	141.93	4.12	-41.4	-52.7	3.9	8.46e-01	0	52	104	0	53	13999
2026-01-12 11:21:37.30	141.90	4.19	-42.9	-54.5	3.8	8.46e-01	0	52	104	0	56	14526
2026-01-12 11:21:38.32	141.87	4.26	-43.2	-54.7	3.8	8.46e-01	0	52	104	0	57	13906
2026-01-12 11:21:39.33	141.84	4.33	-43.1	-54.3	3.9	8.47e-01	0	52	104	0	56	14124
2026-01-12 11:21:40.34	141.81	4.40	-42.3	-54.4	3.9	8.47e-01	0	52	104	0	57	13430
2026-01-12 11:21:41.35	141.79	4.47	-43.2	-54.7	3.8	8.47e-01	0	52	104	0	57	14016
2026-01-12 11:21:42.36	141.76	4.54	-42.2	-54.3	3.8	8.45e-01	0	52	104	0	56	14128
2026-01-12 11:21:43.37	141.73	4.61	-41.5	-54.0	3.7	8.47e-01	0	52	104	0	56	13713
2026-01-12 11:21:44.38	141.70	4.68	-41.1	-53.3	3.8	8.46e-01	0	52	104	0	55	13292
2026-01-12 11:21:45.39	141.67	4.75	-43.2	-54.7	3.8	8.46e-01	0	53	104	0	57	13924
2026-01-12 11:21:46.41	141.64	4.82	-43.2	-54.7	3.8	8.47e-01	0	52	104	0	57	13888
2026-01-12 11:21:47.41	141.61	4.89	-43.2	-54.6	3.9	8.46e-01	0	52	104	0	56	14649
2026-01-12 11:21:48.43	141.58	4.96	-43.2	-54.6	3.8	8.45e-01	0	53	104	0	56	14625
2026-01-12 11:21:49.44	141.55	5.03	-43.2	-54.6	3.8	8.47e-01	0	53	104	0	56	14654
2026-01-12 11:21:50.45	141.52	5.10	-43.2	-54.5	3.8	8.47e-01	0	53	104	0	56	14530
2026-01-12 11:21:51.46	141.49	5.17	-43.2	-54.5	3.8	8.47e-01	0	53	104	0	56	14531
2026-01-12 11:21:52.47	141.46	5.25	-43.0	-54.6	3.8	8.46e-01	0	53	104	0	56	14572
2026-01-12 11:21:53.48	141.43	5.32	-43.0	-54.5	3.8	8.46e-01	0	53	104	0	56	14509
2026-01-12 11:21:54.49	141.40	5.39	-43.1	-54.3	3.8	8.46e-01	0	53	104	0	56	14189
2026-01-12 11:21:55.50	141.36	5.46	-43.0	-54.2	3.8	8.45e-01	0	53	104	0	56	13966
2026-01-12 11:21:56.51	141.33	5.53	-43.0	-54.2	3.8	8.47e-01	0	53	104	0	56	13903
2026-01-12 11:21:57.53	141.30	5.61	-43.1	-53.9	3.8	8.47e-01	0	53	104	0	56	13438
2026-01-12 11:21:58.54	141.27	5.68	-37.9	-50.5	4.2	8.47e-01	0	53	104	0	48	14443
2026-01-12 11:21:59.55	141.24	5.75	-43.1	-53.7	3.8	8.46e-01	0	53	104	0	56	13244
2026-01-12 11:22:00.56	141.21	5.83	-43.1	-53.5	3.8	8.45e-01	0	53	104	0	56	12887
2026-01-12 11:22:01.57	141.17	5.90	-42.0	-53.2	3.8	8.46e-01	0	53	104	0	56	12376
2026-01-12 11:22:02.58	141.14	5.97	-42.7	-53.4	3.8	8.46e-01	0	54	104	0	56	12687
2026-01-12 11:22:03.59	141.11	6.05	-43.0	-53.3	3.8	8.46e-01	0	53	104	0	56	12611
2026-01-12 11:22:04.60	141.08	6.12	-43.0	-53.1	3.8	8.46e-01	0	54	104	0	56	12342
2026-01-12 11:22:05.61	141.04	6.20	-42.9	-52.7	3.8	8.45e-01	0	54	104	0	56	11724
2026-01-12 11:22:06.62	141.01	6.27	-42.9	-52.8	3.9	8.45e-01	0	53	104	0	56	11819
2026-01-12 11:22:07.64	140.98	6.35	-42.9	-52.8	3.8	8.46e-01	0	54	104	0	56	11883
2026-01-12 11:22:08.65	140.94	6.42	-42.9	-52.4	3.9	8.46e-01	0	54	104	0	56	11385
2026-01-12 11:22:09.66	140.91	6.50	-42.9	-52.4	3.9	8.45e-01	0	54	104	0	56	11362
2026-01-12 11:22:10.67	140.88	6.57	-42.9	-52.9	3.9	8.45e-01	0	54	104	0	56	12010
2026-01-12 11:22:11.68	140.84	6.65	-43.0	-53.2	3.8	8.46e-01	0	54	104	0	56	12498
2026-01-12 11:22:12.69	140.81	6.72	-42.9	-53.5	3.8	8.45e-01	0	54	104	0	56	12893
2026-01-12 11:22:13.70	140.78	6.80	-43.0	-53.5	3.8	8.47e-01	0	54	104	0	56	12912
2026-01-12 11:22:14.71	140.74	6.87	-43.1	-54.1	3.8	8.46e-01	0	54	104	0	56	13881
2026-01-12 11:22:15.72	140.71	6.95	-43.2	-54.6	3.8	8.47e-01	0	54	104	0	56	14565
2026-01-12 11:22:16.73	140.67	7.03	-43.2	-54.7	3.8	8.46e-01	0	54	104	0	56	14822
2026-01-12 11:22:17.75	140.64	7.10	-43.2	-54.6	3.8	8.47e-01	0	54	104	0	56	14669
2026-01-12 11:22:18.76	140.60	7.18	-43.2	-54.3	3.8	8.47e-01	0	54	104	0	56	14100
2026-01-12 11:22:19.77	140.57	7.26	-43.0	-53.2	3.8	8.45e-01	0	54	104	0	56	12413
2026-01-12 11:22:20.78	140.53	7.34	-42.8	-51.5	4.1	8.44e-01	0	54	104	0	56	10216
2026-01-12 11:22:21.79	140.49	7.41	-42.3	-49.8	4.6	8.24e-01	0	54	0	0	55	8960
2026-01-12 11:22:22.80	140.46	7.49	-42.1	-49.0	4.9	8.05e-01	0	54	0	0	54	8633
2026-01-12 11:22:23.81	140.42	7.57	-41.8	-47.9	5.6	7.27e-01	0	55	0	0	54	7619
2026-01-12 11:22:24.82	140.38	7.65	-41.4	-46.7	6.4	2.98e-01	0	54	0	4194304	53	7000
2026-01-12 11:22:25.83	140.35	7.73	-40.9	-45.5	7.7	1.04e-01	0	54	0	10485760	52	6449
2026-01-12 11:22:26.85	140.31	7.81	-40.6	-44.7	8.6	4.39e-02	0	54	0	15728640	51	6210
2026-01-12 11:22:27.86	140.27	7.88	-40.4	-44.8	8.2	3.15e-02	0	55	0	22020096	51	6280
2026-01-12 11:22:28.87	140.24	7.96	-40.3	-44.3	9.0	7.26e-02	0	55	0	27262976	51	5945
2026-01-12 11:22:29.88	140.20	8.04	-40.2	-43.9	9.3	3.11e-02	0	54	0	33554432	51	5722
2026-01-12 11:22:30.89	140.16	8.12	-38.9	-50.0	4.4	5.42e-01	0	55	0	37748736	54	9654
2026-01-12 11:22:31.90	140.12	8.20	-43.1	-53.4	3.8	8.39e-01	0	55	104	37748736	56	12778
2026-01-12 11:22:32.91	140.09	8.28	-39.1	-42.3	10.9	6.54e-03	0	55	0	38797312	48	5617
2026-01-12 11:22:33.92	140.05	8.36	-40.4	-45.8	7.2	4.37e-01	0	55	0	42991616	51	7051
2026-01-12 11:22:34.93	140.01	8.44	-42.6	-52.6	3.9	3.68e-01	0	55	0	48234496	55	12339
2026-01-12 11:22:35.94	139.97	8.52	-38.6	-41.5	11.6	5.93e-02	0	55	0	50331648	49	4867
2026-01-12 11:22:36.95	139.93	8.61	-38.6	-41.6	10.1	2.92e-02	0	55	0	55574528	47	5465
2026-01-12 11:22:37.96	139.89	8.69	-36.1	-41.6	8.8	1.22e-01	0	55	0	60817408	46	5808
2026-01-12 11:22:38.97	139.85	8.77	-38.5	-42.0	10.7	3.40e-03	0	55	0	66060288	48	5404
2026-01-12 11:22:39.98	139.81	8.85	-39.2	-42.2	11.0	3.12e-03	0	55	0	72351744	49	5256
2026-01-12 11:22:40.99	139.77	8.93	-36.8	-41.7	9.3	1.77e-01	0	55	0	77594624	46	5861
2026-01-12 11:22:42.00	139.73	9.02	-37.2	-41.3	11.1	2.43e-01	0	55	0	81788928	47	5326
2026-01-12 11:22:43.01	139.69	9.10	-38.4	-40.7	10.4	1.13e-01	0	55	0	88080384	46	5269
2026-01-12 11:22:44.02	139.65	9.18	-34.2	-40.1	9.7	3.19e-02	0	55	0	93323264	45	5186
2026-01-12 11:22:45.03	139.61	9.26	-36.7	-40.2	10.2	1.52e-01	0	55	0	99614720	44	5540
2026-01-12 11:22:46.04	139.57	9.35	-37.2	-40.3	12.1	1.34e-02	0	55	0	104857600	45	5297
2026-01-12 11:22:47.05	139.53	9.43	-37.3	-40.3	10.7	6.69e-02	0	55	0	110100480	44	5619
2026-01-12 11:22:48.06	139.48	9.52	-35.9	-40.4	9.2	6.75e-02	0	55	0	116391936	43	5993
2026-01-12 11:22:49.07	139.44	9.60	-36.3	-40.9	9.8	1.04e-01	0	55	0	121634816	45	5712
2026-01-12 11:22:50.08	139.40	9.68	-31.6	-39.5	7.3	2.11e-01	0	55	0	126877696	40	6483
2026-01-12 11:22:51.09	139.36	9.77	-37.4	-41.9	8.5	3.48e-02	0	55	0	132120576	43	7128
2026-01-12 11:22:52.10	139.31	9.85	-36.4	-42.9	8.6	2.17e-01	0	55	0	137363456	42	8525
2026-01-12 11:22:53.11	139.27	9.94	-39.9	-44.5	8.1	2.70e-01	0	55	0	141557760	50	6482
2026-01-12 11:22:54.12	139.23	10.03	-38.7	-45.1	7.0	3.81e-01	0	55	0	145752064	51	6563
2026-01-12 11:22:55.14	139.18	10.11	-40.8	-45.4	7.5	3.77e-01	0	56	0	148897792	52	6407
2026-01-12 11:22:56.15	139.14	10.20	-32.1	-43.5	5.5	5.39e-01	0	55	0	152043520	33	15315
2026-01-12 11:22:57.16	139.10	10.29	-40.3	-44.5	7.6	2.90e-01	0	56	0	156237824	49	6845
2026-01-12 11:22:58.17	139.05	10.37	-39.5	-43.7	7.6	1.09e-01	0	56	0	161480704	46	7426
2026-01-12 11:22:59.18	139.01	10.46	-39.6	-43.1	9.6	2.74e-01	0	56	0	166723584	46	6886
2026-01-12 11:23:00.19	138.96	10.55	-35.9	-42.2	10.6	1.30e-01	0	56	0	171966464	47	5877
2026-01-12 11:23:01.20	138.92	10.63	-38.3	-41.3	11.9	6.09e-02	0	56	0	177209344	47	5297
2026-01-12 11:23:02.21	138.87	10.72	-37.7	-40.3	12.5	6.31e-03	0	56	0	182452224	45	5310
2026-01-12 11:23:03.22	138.82	10.81	-35.5	-39.9	13.1	4.41e-02	0	56	0	187695104	45	5050
2026-01-12 11:23:04.23	138.78	10.90	-32.9	-39.6	12.1	1.92e-01	0	56	0	192937984	45	4925
2026-01-12 11:23:05.24	138.73	10.99	-38.0	-41.3	12.1	2.46e-02	0	56	0	199229440	47	5314
2026-01-12 11:23:06.25	138.69	11.08	-38.6	-41.4	12.0	3.85e-02	0	56	0	204472320	47	5357
2026-01-12 11:23:07.26	138.64	11.17	-36.5	-41.2	10.3	5.12e-02	0	56	0	209715200	46	5552
2026-01-12 11:23:08.26	138.59	11.26	-35.2	-40.8	11.9	2.38e-02	0	56	0	214958080	44	5975
2026-01-12 11:23:09.27	138.54	11.35	-38.7	-41.0	12.1	1.84e-02	0	56	0	221249536	46	5445
2026-01-12 11:23:10.28	138.50	11.44	-37.8	-40.8	11.8	1.77e-02	0	56	0	226492416	46	5297
2026-01-12 11:23:11.29	138.45	11.53	-36.4	-40.9	11.5	3.34e-02	0	56	0	231735296	46	5360
2026-01-12 11:23:12.30	138.40	11.62	-37.7	-40.8	10.7	6.09e-02	0	56	0	238026752	44	5945
2026-01-12 11:23:13.31	138.35	11.71	-37.3	-40.7	12.6	7.05e-02	0	56	0	243269632	47	4963
2026-01-12 11:23:14.32	138.30	11.80	-38.6	-41.2	12.5	2.29e-01	0	56	0	248512512	46	5546
2026-01-12 11:23:15.33	138.25	11.89	-37.9	-40.5	11.6	1.49e-02	0	56	0	253755392	44	5751
2026-01-12 11:23:16.34	138.20	11.99	-37.7	-40.5	11.2	4.73e-02	0	56	0	258998272	43	6071
2026-01-12 11:23:17.35	138.15	12.08	-37.9	-40.7	12.7	4.00e-02	0	56	0	265289728	46	5241
2026-01-12 11:23:18.36	138.10	12.17	-35.2	-40.5	12.4	3.54e-02	0	56	0	270532608	44	5752
2026-01-12 11:23:19.37	138.05	12.26	-34.8	-40.5	11.7	8.84e-02	0	56	0	275775488	42	6440
2026-01-12 11:23:20.38	138.00	12.36	-35.4	-40.5	9.2	1.79e-01	0	56	0	281018368	41	6853
2026-01-12 11:23:21.39	137.95	12.45	-36.2	-40.5	12.0	1.73e-01	0	56	0	286261248	42	6426
2026-01-12 11:23:22.40	137.89	12.55	-38.4	-40.5	11.0	2.30e-01	0	56	0	291504128	42	6471
2026-01-12 11:23:23.41	137.84	12.64	-37.1	-40.3	12.4	2.07e-01	0	56	0	295698432	41	6716
2026-01-12 11:23:24.42	137.79	12.74	-37.8	-40.4	10.4	1.21e-01	0	57	0	300941312	42	6401
2026-01-12 11:23:25.43	137.74	12.83	-37.9	-40.4	9.5	2.72e-01	0	56	0	306184192	38	8078
2026-01-12 11:23:26.44	137.68	12.93	-36.4	-40.3	11.3	8.72e-02	0	56	0	310378496	40	7092
2026-01-12 11:23:27.46	137.63	13.02	-36.1	-40.4	10.1	7.93e-02	0	56	0	315621376	38	8026
2026-01-12 11:23:28.46	137.58	13.12	-34.2	-40.3	11.9	1.67e-01	0	56	0	321912832	39	7484
2026-01-12 11:23:29.47	137.52	13.22	-37.5	-40.1	11.6	1.99e-01	0	56	0	326107136	42	6200
2026-01-12 11:23:30.49	137.47	13.31	-30.8	-38.7	9.3	1.85e-01	0	56	0	331350016	40	5902
2026-01-12 11:23:31.50	137.41	13.41	-36.5	-40.3	11.2	6.77e-02	0	57	0	336592896	44	5629
2026-01-12 11:23:32.51	137.35	13.51	-38.3	-40.6	12.4	2.19e-02	0	57	0	341835776	43	6187
2026-01-12 11:23:33.52	137.30	13.61	-34.7	-40.0	11.8	2.40e-02	0	57	0	348127232	41	6479
2026-01-12 11:23:34.53	137.24	13.71	-36.7	-40.5	11.1	2.43e-02	0	57	0	353370112	43	6118
2026-01-12 11:23:35.54	137.19	13.81	-37.9	-40.4	12.8	4.06e-02	0	57	0	358612992	46	5058
2026-01-12 11:23:36.55	137.13	13.91	-35.5	-40.0	11.9	6.48e-02	0	57	0	363855872	43	5751
2026-01-12 11:23:37.56	137.07	14.01	-34.8	-40.3	12.2	1.65e-02	0	56	0	369098752	43	5946
2026-01-12 11:23:38.57	137.01	14.11	-35.1	-40.1	11.9	1.54e-01	0	56	0	374341632	40	6921
2026-01-12 11:23:39.58	136.95	14.21	-37.0	-40.2	12.7	5.32e-02	0	57	0	379584512	45	5243
2026-01-12 11:23:40.58	136.90	14.31	-32.1	-39.4	10.1	1.16e-01	0	57	0	383778816	35	8540
2026-01-12 11:23:41.60	136.84	14.41	-33.9	-39.8	10.7	5.95e-02	0	57	0	389021696	41	6278
2026-01-12 11:23:42.61	136.78	14.51	-36.6	-40.0	11.3	1.35e-01	0	57	0	394264576	44	5415
2026-01-12 11:23:43.61	136.72	14.61	-37.5	-40.1	12.9	4.88e-02	0	57	0	399507456	46	4885
2026-01-12 11:23:44.62	136.66	14.71	-36.6	-39.9	11.0	9.20e-02	0	57	0	404750336	43	5694
2026-01-12 11:23:45.64	136.60	14.82	-37.1	-40.0	13.5	1.81e-01	0	57	0	409993216	45	5154
2026-01-12 11:23:46.65	136.53	14.92	-37.3	-40.0	12.2	4.36e-02	0	57	0	415236096	44	5453
2026-01-12 11:23:47.65	136.47	15.02	-36.5	-40.0	11.7	2.09e-01	0	57	0	420478976	44	5454
2026-01-12 11:23:48.66	136.41	15.13	-30.6	-38.6	7.5	2.30e-01	0	57	0	424673280	37	6922
2026-01-12 11:23:49.68	136.35	15.23	-36.8	-40.0	10.6	3.07e-01	0	57	0	428867584	42	6112
2026-01-12 11:23:50.69	136.28	15.34	-37.3	-40.2	13.4	2.45e-02	0	57	0	434110464	45	5269
2026-01-12 11:23:51.70	136.22	15.44	-33.5	-40.0	13.3	1.27e-01	0	57	0	439353344	43	5753
2026-01-12 11:23:52.71	136.16	15.55	-31.3	-38.5	7.3	1.66e-01	0	57	0	444596224	34	8139
2026-01-12 11:23:53.72	136.09	15.66	-38.2	-40.4	13.4	3.54e-02	0	57	0	449839104	44	5671
2026-01-12 11:23:54.73	136.03	15.76	-34.5	-39.7	11.1	2.75e-02	0	57	0	456130560	44	5229
2026-01-12 11:23:55.74	135.96	15.87	-36.3	-39.7	13.2	7.14e-02	0	57	0	461373440	45	4949
2026-01-12 11:23:56.75	135.90	15.98	-33.8	-39.4	13.6	3.85e-02	0	57	0	466616320	39	6790
2026-01-12 11:23:57.76	135.83	16.08	-37.0	-39.3	13.9	7.33e-02	0	57	0	471859200	41	5929
2026-01-12 11:23:58.77	135.76	16.19	-35.9	-39.3	13.6	4.77e-02	0	57	0	477102080	44	5009
2026-01-12 11:23:59.78	135.69	16.30	-37.3	-39.4	14.5	3.95e-02	0	57	0	483393536	45	4782
2026-01-12 11:24:00.79	135.63	16.41	-37.3	-39.4	13.8	2.07e-02	0	57	0	488636416	45	4790
2026-01-12 11:24:01.80	135.56	16.52	-36.7	-39.3	14.3	3.29e-02	0	57	0	493879296	44	5020
2026-01-12 11:24:02.81	135.49	16.63	-37.3	-39.3	14.7	1.38e-01	0	57	0	499122176	39	6677
2026-01-12 11:24:03.82	135.42	16.74	-35.8	-39.1	15.1	4.98e-03	0	57	0	504365056	45	4633
2026-01-12 11:24:04.83	135.35	16.85	-36.4	-39.1	14.5	4.92e-02	0	57	0	510656512	44	4896
2026-01-12 11:24:05.84	135.28	16.96	-37.2	-39.2	15.3	4.54e-03	0	57	0	515899392	45	4656
2026-01-12 11:24:06.85	135.21	17.08	-36.9	-39.0	13.6	1.06e-01	0	57	0	522190848	44	4845
2026-01-12 11:24:07.86	135.14	17.19	-37.1	-39.0	15.2	7.18e-03	0	57	0	527433728	44	4846
2026-01-12 11:24:08.87	135.06	17.30	-36.7	-38.8	13.3	1.47e-02	0	57	0	532676608	43	5032
2026-01-12 11:24:09.88	134.99	17.41	-36.9	-39.0	15.2	1.72e-03	0	57	0	538968064	44	4835
2026-01-12 11:24:10.89	134.92	17.53	-37.2	-39.0	15.4	2.37e-02	0	57	0	544210944	44	4855
2026-01-12 11:24:11.90	134.84	17.64	-36.9	-38.9	15.5	2.29e-03	0	57	0	550502400	44	4814
2026-01-12 11:24:12.91	134.77	17.76	-36.7	-38.9	15.1	2.70e-03	0	57	0	555745280	44	4806
2026-01-12 11:24:13.92	134.69	17.87	-36.1	-39.0	14.3	4.02e-02	0	57	0	560988160	44	4869
2026-01-12 11:24:14.94	134.62	17.99	-37.0	-38.9	15.3	3.03e-02	0	57	0	567279616	44	4812
2026-01-12 11:24:15.95	134.54	18.11	-34.6	-38.7	14.4	9.97e-03	0	57	0	572522496	44	4688
2026-01-12 11:24:16.95	134.46	18.22	-37.1	-39.0	15.5	6.23e-02	0	57	0	577765376	44	4831
2026-01-12 11:24:17.97	134.38	18.34	-36.4	-38.8	15.5	1.67e-03	0	57	0	584056832	44	4755
2026-01-12 11:24:18.98	134.31	18.46	-36.9	-38.9	15.6	3.34e-03	0	57	0	589299712	44	4772
2026-01-12 11:24:19.99	134.23	18.58	-36.7	-38.7	15.7	1.15e-03	0	57	0	595591168	44	4667
2026-01-12 11:24:21.00	134.15	18.70	-36.8	-38.7	15.8	1.92e-04	0	57	0	600834048	44	4678
2026-01-12 11:24:22.01	134.07	18.81	-36.4	-38.5	14.6	2.76e-04	0	57	0	607125504	43	4829
2026-01-12 11:24:23.02	133.99	18.93	-36.9	-38.8	15.9	8.16e-04	0	58	0	612368384	44	4709
2026-01-12 11:24:24.03	133.91	19.06	-36.7	-38.6	15.6	1.46e-03	0	57	0	618659840	44	4624
2026-01-12 11:24:25.03	133.82	19.18	-36.8	-38.6	16.1	3.20e-04	0	57	0	623902720	44	4639
2026-01-12 11:24:26.04	133.74	19.30	-36.6	-38.4	16.0	1.65e-03	0	57	0	629145600	43	4810
2026-01-12 11:24:27.05	133.66	19.42	-36.2	-38.3	15.9	3.15e-04	0	57	0	635437056	43	4752
2026-01-12 11:24:28.06	133.57	19.54	-36.5	-38.3	16.1	3.73e-04	0	57	0	640679936	43	4717
2026-01-12 11:24:29.07	133.49	19.66	-36.4	-38.2	16.3	2.63e-05	0	58	0	645922816	43	4677
2026-01-12 11:24:30.08	133.40	19.79	-36.4	-38.1	16.3	0.00e+00	0	57	0	652214272	43	4640
2026-01-12 11:24:31.09	133.32	19.91	-36.2	-38.0	16.2	2.97e-05	0	57	0	657457152	43	4552
2026-01-12 11:24:32.10	133.23	20.04	-36.2	-37.9	16.5	1.94e-05	0	58	0	663748608	43	4534
2026-01-12 11:24:33.11	133.14	20.16	-36.2	-37.9	16.5	2.20e-06	0	57	0	668991488	43	4517
2026-01-12 11:24:34.12	133.05	20.29	-36.2	-37.9	16.6	0.00e+00	0	58	0	674234368	43	4524
2026-01-12 11:24:35.13	132.96	20.41	-36.2	-37.9	16.6	0.00e+00	0	57	0	680525824	43	4512
2026-01-12 11:24:36.14	132.87	20.54	-36.3	-38.0	16.6	2.28e-05	0	57	0	685768704	43	4561
2026-01-12 11:24:37.15	132.78	20.67	-36.3	-38.0	16.6	2.63e-05	0	57	0	692060160	43	4567
2026-01-12 11:24:38.16	132.69	20.80	-36.3	-38.0	16.6	0.00e+00	0	57	0	697303040	43	4579
2026-01-12 11:24:39.17	132.60	20.93	-36.3	-38.0	16.6	0.00e+00	0	57	0	703594496	43	4576
2026-01-12 11:24:40.18	132.51	21.05	-36.3	-38.0	16.6	0.00e+00	0	58	0	708837376	43	4559
2026-01-12 11:24:41.19	132.41	21.18	-36.3	-38.1	16.5	1.25e-05	0	58	0	715128832	43	4607
2026-01-12 11:24:42.20	132.32	21.31	-36.3	-38.0	16.4	1.02e-05	0	58	0	720371712	43	4595
2026-01-12 11:24:43.22	132.22	21.45	-36.2	-38.0	16.6	5.70e-06	0	58	0	725614592	43	4549
2026-01-12 11:24:44.23	132.13	21.58	-36.2	-37.9	16.6	0.00e+00	0	58	0	731906048	43	4520
2026-01-12 11:24:45.23	132.03	21.71	-36.1	-37.8	16.8	0.00e+00	0	58	0	737148928	43	4483
2026-01-12 11:24:46.25	131.93	21.84	-36.1	-37.8	16.8	0.00e+00	0	58	0	743440384	43	4453
2026-01-12 11:24:47.25	131.83	21.98	-36.0	-37.7	16.9	0.00e+00	0	58	0	748683264	43	4422
2026-01-12 11:24:48.26	131.73	22.11	-36.0	-37.6	17.0	0.00e+00	0	58	0	753926144	43	4366
2026-01-12 11:24:49.27	131.63	22.24	-35.9	-37.5	17.1	0.00e+00	0	58	0	760217600	43	4305
2026-01-12 11:24:50.29	131.53	22.38	-35.8	-37.4	17.1	0.00e+00	0	58	0	765460480	43	4288
2026-01-12 11:24:51.30	131.43	22.52	-35.7	-37.4	17.2	1.10e-06	0	58	0	771751936	43	4243
2026-01-12 11:24:52.31	131.32	22.65	-35.8	-37.4	17.2	0.00e+00	0	58	0	776994816	43	4261
2026-01-12 11:24:53.32	131.22	22.79	-35.8	-37.5	17.2	0.00e+00	0	58	0	782237696	43	4292
2026-01-12 11:24:54.33	131.11	22.93	-35.9	-37.5	17.2	0.00e+00	0	58	0	788529152	43	4302
2026-01-12 11:24:55.34	131.01	23.07	-35.9	-37.5	17.2	0.00e+00	0	58	0	793772032	43	4297
2026-01-12 11:24:56.34	130.90	23.20	-35.9	-37.5	17.2	0.00e+00	0	58	0	800063488	43	4307
2026-01-12 11:24:57.35	130.79	23.34	-35.9	-37.5	17.2	0.00e+00	0	58	0	805306368	43	4324
2026-01-12 11:24:58.36	130.68	23.48	-35.9	-37.5	17.1	0.00e+00	0	58	0	811597824	43	4328
2026-01-12 11:24:59.37	130.57	23.63	-35.9	-37.5	17.1	0.00e+00	0	58	0	816840704	43	4324
2026-01-12 11:25:00.38	130.46	23.77	-35.9	-37.6	17.1	0.00e+00	0	58	0	823132160	43	4346
2026-01-12 11:25:01.39	130.35	23.91	-35.9	-37.5	17.1	0.00e+00	0	58	0	828375040	43	4329
2026-01-12 11:25:02.40	130.24	24.05	-35.8	-37.4	17.2	0.00e+00	0	58	0	833617920	43	4282
2026-01-12 11:25:03.41	130.12	24.20	-35.8	-37.3	17.3	0.00e+00	0	58	0	839909376	43	4242
2026-01-12 11:25:04.43	130.00	24.34	-35.7	-37.3	17.4	0.00e+00	0	58	0	845152256	43	4212
2026-01-12 11:25:05.44	129.89	24.49	-35.7	-37.2	17.4	0.00e+00	0	58	0	851443712	43	4190
2026-01-12 11:25:06.45	129.77	24.63	-35.6	-37.2	17.5	0.00e+00	0	58	0	856686592	43	4155
2026-01-12 11:25:07.46	129.65	24.78	-35.5	-37.1	17.6	0.00e+00	0	58	0	861929472	43	4124
2026-01-12 11:25:08.47	129.53	24.93	-35.5	-37.0	17.6	0.00e+00	0	58	0	868220928	43	4095
2026-01-12 11:25:09.48	129.41	25.07	-35.5	-37.1	17.6	0.00e+00	0	58	0	873463808	43	4118
2026-01-12 11:25:10.49	129.29	25.22	-35.5	-37.1	17.6	0.00e+00	0	58	0	879755264	43	4115
2026-01-12 11:25:11.50	129.16	25.37	-35.6	-37.2	17.4	1.10e-06	0	58	0	884998144	42	4419
2026-01-12 11:25:12.51	129.04	25.52	-35.6	-37.2	17.5	1.10e-06	0	58	0	890241024	42	4413
2026-01-12 11:25:13.52	128.91	25.67	-35.6	-37.2	17.5	0.00e+00	0	58	0	896532480	42	4426
2026-01-12 11:25:14.53	128.79	25.82	-35.6	-37.2	17.5	0.00e+00	0	58	0	901775360	42	4402
2026-01-12 11:25:15.54	128.66	25.97	-35.6	-37.2	17.5	0.00e+00	0	58	0	908066816	42	4411
2026-01-12 11:25:16.55	128.53	26.13	-35.6	-37.2	17.5	0.00e+00	0	58	0	913309696	42	4418
2026-01-12 11:25:17.56	128.40	26.28	-35.7	-37.2	17.5	0.00e+00	0	58	0	919601152	42	4441
2026-01-12 11:25:18.57	128.27	26.43	-35.6	-37.2	17.5	0.00e+00	0	58	0	924844032	42	4432
2026-01-12 11:25:19.58	128.13	26.59	-35.5	-37.1	17.6	0.00e+00	0	58	0	931135488	42	4353
2026-01-12 11:25:20.59	128.00	26.74	-35.5	-37.1	17.6	0.00e+00	0	58	0	936378368	42	4344
2026-01-12 11:25:21.60	127.86	26.90	-35.5	-37.0	17.7	0.00e+00	0	58	0	941621248	42	4332
2026-01-12 11:25:22.61	127.72	27.06	-35.5	-37.0	17.7	0.00e+00	0	58	0	947912704	42	4317
2026-01-12 11:25:23.62	127.59	27.21	-35.4	-36.9	17.8	0.00e+00	0	58	0	953155584	42	4286
2026-01-12 11:25:24.63	127.45	27.37	-35.4	-36.9	17.8	0.00e+00	0	58	0	959447040	42	4291
2026-01-12 11:25:25.64	127.30	27.53	-35.4	-37.0	17.7	0.00e+00	0	58	0	964689920	42	4303
2026-01-12 11:25:26.65	127.16	27.69	-35.5	-37.1	17.6	0.00e+00	0	58	0	969932800	42	4377
2026-01-12 11:25:27.65	127.02	27.85	-35.7	-37.3	17.5	0.00e+00	0	58	0	976224256	42	4450
2026-01-12 11:25:28.66	126.87	28.01	-35.8	-37.4	17.3	0.00e+00	0	58	0	981467136	42	4519
2026-01-12 11:25:29.67	126.72	28.17	-35.8	-37.4	17.3	0.00e+00	0	58	0	987758592	42	4510
2026-01-12 11:25:30.68	126.58	28.33	-35.8	-37.4	17.4	0.00e+00	0	58	0	993001472	42	4503
2026-01-12 11:25:31.70	126.42	28.50	-35.7	-37.3	17.4	0.00e+00	0	58	0	998244352	42	4472
2026-01-12 11:25:32.71	126.27	28.66	-35.7	-37.3	17.5	0.00e+00	0	58	0	1004535808	42	4462
2026-01-12 11:25:33.72	126.12	28.83	-35.6	-37.2	17.5	0.00e+00	0	58	0	1009778688	42	4431
2026-01-12 11:25:34.73	125.96	28.99	-35.5	-37.0	17.7	0.00e+00	0	58	0	1016070144	42	4328
2026-01-12 11:25:35.74	125.80	29.16	-35.4	-36.9	17.8	0.00e+00	0	58	0	1021313024	42	4268
2026-01-12 11:25:36.75	125.65	29.33	-35.4	-36.9	17.8	0.00e+00	0	58	0	1027604480	42	4269
2026-01-12 11:25:37.76	125.49	29.49	-35.4	-36.9	17.8	0.00e+00	0	58	0	1032847360	42	4279
2026-01-12 11:25:38.77	125.32	29.66	-35.4	-37.0	17.8	0.00e+00	0	58	0	1038090240	42	4308
2026-01-12 11:25:39.78	125.16	29.83	-35.5	-37.0	17.7	0.00e+00	0	58	0	1044381696	42	4328
2026-01-12 11:25:40.79	124.99	30.00	-35.5	-37.1	17.7	0.00e+00	0	58	0	1049624576	42	4357
2026-01-12 11:25:41.80	124.83	30.17	-35.6	-37.2	17.6	0.00e+00	0	58	0	1055916032	42	4400
2026-01-12 11:25:42.81	124.66	30.34	-35.6	-37.2	17.5	0.00e+00	0	58	0	1061158912	42	4426
2026-01-12 11:25:43.82	124.49	30.52	-35.6	-37.2	17.6	0.00e+00	0	58	0	1066401792	42	4433
2026-01-12 11:25:44.83	124.31	30.69	-35.6	-37.1	17.7	0.00e+00	0	58	0	1072693248	42	4382
2026-01-12 11:25:45.84	124.14	30.86	-35.4	-37.0	17.8	0.00e+00	0	58	0	1077936128	42	4304
2026-01-12 11:25:46.85	123.96	31.04	-35.3	-36.8	18.0	0.00e+00	0	58	0	1084227584	42	4200
2026-01-12 11:25:47.86	123.78	31.21	-35.2	-36.7	18.1	0.00e+00	0	58	0	1089470464	42	4162
2026-01-12 11:25:48.87	123.60	31.39	-35.2	-36.7	18.1	0.00e+00	0	58	0	1094713344	42	4157
2026-01-12 11:25:49.88	123.42	31.56	-35.2	-36.6	18.1	0.00e+00	0	58	0	1101004800	42	4138
2026-01-12 11:25:50.89	123.24	31.74	-35.1	-36.6	18.2	0.00e+00	0	58	0	1106247680	42	4105
2026-01-12 11:25:51.90	123.05	31.92	-35.1	-36.6	18.2	0.00e+00	0	58	0	1112539136	42	4102
2026-01-12 11:25:52.91	122.86	32.10	-35.1	-36.6	18.2	0.00e+00	0	58	0	1117782016	42	4106
2026-01-12 11:25:53.92	122.67	32.28	-35.2	-36.6	18.2	0.00e+00	0	58	0	1124073472	42	4136
2026-01-12 11:25:54.93	122.48	32.46	-35.3	-36.7	18.1	0.00e+00	0	58	0	1129316352	42	4189
2026-01-12 11:25:55.94	122.28	32.64	-35.3	-36.8	18.0	0.00e+00	0	58	0	1135607808	42	4218
2026-01-12 11:25:56.95	122.08	32.82	-35.3	-36.8	18.0	0.00e+00	0	58	0	1140850688	42	4229
2026-01-12 11:25:57.96	121.88	33.00	-35.3	-36.8	18.0	0.00e+00	0	58	0	1146093568	42	4231
2026-01-12 11:25:58.97	121.68	33.19	-35.2	-36.7	18.1	0.00e+00	0	58	0	1152385024	42	4192
2026-01-12 11:25:59.98	121.48	33.37	-35.2	-36.7	18.1	0.00e+00	0	58	0	1157627904	42	4151
2026-01-12 11:26:00.99	121.27	33.55	-35.1	-36.6	18.2	0.00e+00	0	58	0	1163919360	42	4134
2026-01-12 11:26:02.00	121.06	33.74	-35.2	-36.7	18.1	0.00e+00	0	58	0	1169162240	42	4175
2026-01-12 11:26:03.01	120.85	33.92	-35.3	-36.8	18.0	0.00e+00	0	59	0	1174405120	42	4218
2026-01-12 11:26:04.02	120.64	34.11	-35.3	-36.8	18.0	0.00e+00	0	58	0	1180696576	42	4212
2026-01-12 11:26:05.03	120.42	34.30	-35.3	-36.8	18.0	0.00e+00	0	58	0	1185939456	42	4205
2026-01-12 11:26:06.04	120.20	34.49	-35.2	-36.7	18.1	0.00e+00	0	58	0	1192230912	42	4163
2026-01-12 11:26:07.05	119.98	34.67	-35.1	-36.6	18.1	0.00e+00	0	58	0	1197473792	42	4143
2026-01-12 11:26:08.06	119.76	34.86	-35.1	-36.6	18.2	0.00e+00	0	58	0	1202716672	42	4138
2026-01-12 11:26:09.07	119.53	35.05	-35.1	-36.6	18.1	0.00e+00	0	58	0	1209008128	42	4138
2026-01-12 11:26:10.08	119.30	35.24	-35.1	-36.6	18.2	0.00e+00	0	58	0	1214251008	42	4127
2026-01-12 11:26:11.09	119.07	35.43	-35.0	-36.5	18.3	0.00e+00	0	58	0	1220542464	42	4073
2026-01-12 11:26:12.10	118.83	35.63	-35.0	-36.5	18.3	0.00e+00	0	58	0	1225785344	42	4080
2026-01-12 11:26:13.11	118.60	35.82	-35.0	-36.5	18.3	0.00e+00	0	58	0	1232076800	42	4056
2026-01-12 11:26:14.12	118.36	36.01	-35.1	-36.5	18.3	0.00e+00	0	58	0	1237319680	42	4081
2026-01-12 11:26:15.13	118.11	36.20	-35.1	-36.6	18.2	0.00e+00	0	58	0	1243611136	42	4110
2026-01-12 11:26:16.14	117.87	36.40	-35.1	-36.6	18.2	0.00e+00	0	59	0	1248854016	42	4128
2026-01-12 11:26:17.15	117.62	36.59	-35.2	-36.7	18.2	0.00e+00	0	59	0	1254096896	42	4146
2026-01-12 11:26:18.17	117.36	36.79	-35.2	-36.7	18.2	0.00e+00	0	58	0	1260388352	42	4149
2026-01-12 11:26:19.18	117.11	36.98	-35.2	-36.6	18.2	0.00e+00	0	59	0	1265631232	42	4144
2026-01-12 11:26:20.19	116.85	37.18	-35.1	-36.6	18.3	0.00e+00	0	58	0	1271922688	42	4110
2026-01-12 11:26:21.20	116.59	37.38	-35.1	-36.5	18.3	0.00e+00	0	59	0	1277165568	42	4086
2026-01-12 11:26:22.21	116.32	37.57	-35.1	-36.6	18.2	0.00e+00	0	58	0	1282408448	42	4113
2026-01-12 11:26:23.22	116.06	37.77	-35.1	-36.6	18.2	0.00e+00	0	58	0	1288699904	42	4105
2026-01-12 11:26:24.23	115.78	37.97	-35.1	-36.6	18.3	0.00e+00	0	58	0	1293942784	42	4111
2026-01-12 11:26:25.24	115.51	38.17	-35.1	-36.6	18.2	0.00e+00	0	58	0	1300234240	42	4118
2026-01-12 11:26:26.25	115.23	38.36	-35.1	-36.5	18.3	0.00e+00	0	58	0	1305477120	42	4086
2026-01-12 11:26:27.26	114.95	38.56	-35.1	-36.5	18.3	0.00e+00	0	58	0	1310720000	42	4091
2026-01-12 11:26:28.27	114.66	38.76	-35.2	-36.6	18.3	0.00e+00	0	58	0	1317011456	42	4129
2026-01-12 11:26:29.28	114.38	38.96	-35.3	-36.8	18.1	0.00e+00	0	59	0	1322254336	42	4205
2026-01-12 11:26:30.29	114.08	39.16	-35.3	-36.8	18.0	0.00e+00	0	58	0	1328545792	42	4237
2026-01-12 11:26:31.30	113.79	39.36	-35.3	-36.8	18.1	0.00e+00	0	59	0	1333788672	42	4204
2026-01-12 11:26:32.31	113.49	39.56	-35.1	-36.6	18.3	0.00e+00	0	58	0	1340080128	42	4131
2026-01-12 11:26:33.32	113.19	39.76	-35.1	-36.6	18.3	0.00e+00	0	58	0	1345323008	42	4115
2026-01-12 11:26:34.33	112.88	39.96	-35.1	-36.5	18.3	0.00e+00	0	59	0	1351614464	42	4097
2026-01-12 11:26:35.34	112.57	40.17	-35.1	-36.5	18.3	0.00e+00	0	58	0	1356857344	42	4097
2026-01-12 11:26:36.35	112.25	40.37	-35.2	-36.7	18.2	0.00e+00	0	58	0	1362100224	42	4178
2026-01-12 11:26:37.36	111.94	40.57	-35.4	-36.9	18.0	0.00e+00	0	59	0	1368391680	42	4264
2026-01-12 11:26:38.37	111.61	40.77	-35.5	-37.0	17.9	0.00e+00	0	59	0	1373634560	42	4315
2026-01-12 11:26:39.38	111.29	40.97	-35.5	-37.0	17.9	0.00e+00	0	58	0	1379926016	42	4311
2026-01-12 11:26:40.39	110.95	41.17	-35.3	-36.8	18.1	0.00e+00	0	58	0	1385168896	42	4222
2026-01-12 11:26:41.40	110.62	41.38	-35.2	-36.7	18.2	0.00e+00	0	58	0	1390411776	42	4158
2026-01-12 11:26:42.41	110.28	41.58	-35.2	-36.6	18.3	0.00e+00	0	59	0	1396703232	42	4126
2026-01-12 11:26:43.42	109.94	41.78	-35.2	-36.6	18.3	0.00e+00	0	59	0	1401946112	42	4135
2026-01-12 11:26:44.43	109.59	41.98	-35.3	-36.8	18.2	0.00e+00	0	59	0	1408237568	42	4201
2026-01-12 11:26:45.44	109.24	42.18	-35.2	-36.7	18.3	0.00e+00	0	58	0	1413480448	42	4152
2026-01-12 11:26:46.45	108.88	42.38	-35.2	-36.6	18.3	0.00e+00	0	59	0	1418723328	42	4128
2026-01-12 11:26:47.46	108.52	42.58	-35.2	-36.6	18.4	0.00e+00	0	58	0	1425014784	42	4123
2026-01-12 11:26:48.47	108.15	42.79	-35.2	-36.7	18.2	0.00e+00	0	59	0	1430257664	42	4170
2026-01-12 11:26:49.48	107.78	42.99	-35.4	-36.9	18.1	0.00e+00	0	59	0	1436549120	42	4255
2026-01-12 11:26:50.49	107.41	43.19	-35.4	-36.8	18.1	0.00e+00	0	59	0	1441792000	42	4239
2026-01-12 11:26:51.50	107.03	43.39	-35.3	-36.8	18.2	0.00e+00	0	59	0	1448083456	42	4198
2026-01-12 11:26:52.51	106.64	43.59	-35.2	-36.6	18.3	0.00e+00	0	58	0	1453326336	42	4135
2026-01-12 11:26:53.52	106.25	43.79	-35.2	-36.7	18.2	0.00e+00	0	59	0	1458569216	42	4159
2026-01-12 11:26:54.53	105.86	43.98	-35.3	-36.7	18.2	0.00e+00	0	58	0	1464860672	42	4186
2026-01-12 11:26:55.54	105.46	44.18	-35.3	-36.8	18.1	0.00e+00	0	58	0	1470103552	42	4230
2026-01-12 11:26:56.55	105.06	44.38	-35.3	-36.7	18.2	0.00e+00	0	59	0	1476395008	42	4187
2026-01-12 11:26:57.56	104.65	44.58	-35.2	-36.6	18.3	0.00e+00	0	59	0	1481637888	42	4135
2026-01-12 11:26:58.57	104.23	44.77	-35.1	-36.5	18.5	0.00e+00	0	59	0	1487929344	42	4060
2026-01-12 11:26:59.59	103.81	44.97	-35.2	-36.6	18.4	0.00e+00	0	59	0	1493172224	42	4117
2026-01-12 11:27:00.60	103.38	45.17	-35.5	-37.0	18.0	0.00e+00	0	58	0	1498415104	42	4328
2026-01-12 11:27:01.61	102.95	45.36	-35.7	-37.2	17.8	0.00e+00	0	59	0	1504706560	42	4437
2026-01-12 11:27:02.62	102.52	45.55	-35.5	-37.0	18.0	0.00e+00	0	59	0	1509949440	42	4300
2026-01-12 11:27:03.63	102.08	45.74	-35.3	-36.8	18.2	0.00e+00	0	59	0	1516240896	42	4203
2026-01-12 11:27:04.63	101.63	45.93	-35.3	-36.7	18.2	0.00e+00	0	59	0	1521483776	42	4191
2026-01-12 11:27:05.64	101.18	46.12	-35.3	-36.8	18.2	0.00e+00	0	59	0	1526726656	42	4224
2026-01-12 11:27:06.65	100.73	46.31	-35.4	-36.9	18.1	0.00e+00	0	58	0	1533018112	42	4260
2026-01-12 11:27:07.66	100.26	46.50	-35.4	-36.9	18.2	0.00e+00	0	59	0	1538260992	42	4243
2026-01-12 11:27:08.67	99.80	46.69	-35.3	-36.7	18.3	0.00e+00	0	59	0	1544552448	42	4167
2026-01-12 11:27:09.68	99.32	46.87	-35.4	-36.8	18.2	0.00e+00	0	58	0	1549795328	42	4233
2026-01-12 11:27:10.69	98.84	47.06	-35.6	-37.1	17.9	0.00e+00	0	59	0	1556086784	42	4362
2026-01-12 11:27:11.70	98.36	47.24	-35.8	-37.3	17.7	0.00e+00	0	59	0	1561329664	42	4492
2026-01-12 11:27:12.72	97.86	47.42	-35.9	-37.5	17.5	0.00e+00	0	59	0	1566572544	42	4586
2026-01-12 11:27:13.73	97.36	47.60	-35.9	-37.4	17.6	0.00e+00	0	59	0	1572864000	42	4535
2026-01-12 11:27:14.74	96.86	47.78	-35.9	-37.4	17.6	0.00e+00	0	59	0	1578106880	42	4544
2026-01-12 11:27:15.75	96.35	47.95	-36.0	-37.6	17.5	0.00e+00	0	59	0	1584398336	42	4619
2026-01-12 11:27:16.76	95.84	48.13	-36.1	-37.6	17.4	0.00e+00	0	59	0	1589641216	42	4650
2026-01-12 11:27:17.77	95.32	48.30	-36.1	-37.7	17.4	0.00e+00	0	59	0	1594884096	42	4694
2026-01-12 11:27:18.78	94.79	48.47	-36.2	-37.8	17.3	0.00e+00	0	59	0	1601175552	42	4713
2026-01-12 11:27:19.79	94.26	48.64	-36.1	-37.7	17.4	0.00e+00	0	59	0	1606418432	42	4662
2026-01-12 11:27:20.80	93.73	48.81	-36.0	-37.5	17.6	0.00e+00	0	59	0	1612709888	42	4585
2026-01-12 11:27:21.81	93.18	48.97	-36.1	-37.6	17.5	0.00e+00	0	59	0	1617952768	42	4646
2026-01-12 11:27:22.82	92.63	49.13	-36.3	-37.9	17.2	0.00e+00	0	59	0	1623195648	43	4502
2026-01-12 11:27:23.83	92.08	49.29	-36.3	-37.9	17.2	0.00e+00	0	59	0	1629487104	43	4502
2026-01-12 11:27:24.84	91.52	49.45	-36.1	-37.6	17.5	0.00e+00	0	59	0	1634729984	43	4376
2026-01-12 11:27:25.85	90.95	49.61	-36.0	-37.5	17.6	0.00e+00	0	59	0	1641021440	43	4307
2026-01-12 11:27:26.86	90.38	49.76	-36.0	-37.5	17.6	0.00e+00	0	59	0	1646264320	43	4323
2026-01-12 11:27:27.87	89.80	49.91	-36.1	-37.7	17.4	0.00e+00	0	59	0	1652555776	43	4420
2026-01-12 11:27:28.88	89.22	50.06	-36.2	-37.7	17.4	0.00e+00	0	59	0	1657798656	43	4439
2026-01-12 11:27:29.89	88.63	50.20	-36.2	-37.7	17.3	0.00e+00	0	59	0	1664090112	43	4433
2026-01-12 11:27:30.90	88.04	50.34	-36.2	-37.8	17.3	0.00e+00	0	59	0	1669332992	43	4460
2026-01-12 11:27:31.91	87.44	50.48	-36.2	-37.8	17.3	0.00e+00	0	59	0	1674575872	43	4464
2026-01-12 11:27:32.92	86.83	50.62	-36.4	-38.0	17.1	0.00e+00	0	59	0	1680867328	43	4576
2026-01-12 11:27:33.93	86.22	50.75	-36.4	-38.1	17.0	0.00e+00	0	59	0	1686110208	43	4603
2026-01-12 11:27:34.94	85.60	50.88	-36.4	-38.0	17.1	0.00e+00	0	59	0	1692401664	43	4563
2026-01-12 11:27:35.95	84.98	51.01	-36.1	-37.6	17.5	0.00e+00	0	59	0	1697644544	43	4374
2026-01-12 11:27:36.96	84.36	51.13	-35.9	-37.4	17.7	0.00e+00	0	59	0	1702887424	43	4273
2026-01-12 11:27:37.97	83.72	51.25	-36.0	-37.6	17.6	0.00e+00	0	59	0	1709178880	43	4356
2026-01-12 11:27:38.98	83.09	51.37	-36.2	-37.8	17.4	0.00e+00	0	59	0	1714421760	43	4453
2026-01-12 11:27:39.99	82.44	51.48	-36.0	-37.5	17.7	0.00e+00	0	59	0	1720713216	43	4300
2026-01-12 11:27:41.00	81.80	51.59	-35.9	-37.3	17.8	0.00e+00	0	59	0	1725956096	43	4242
2026-01-12 11:27:42.01	81.15	51.70	-35.9	-37.4	17.7	0.00e+00	0	59	0	1731198976	43	4278
2026-01-12 11:27:43.02	80.49	51.80	-36.1	-37.6	17.5	0.00e+00	0	59	0	1737490432	43	4380
2026-01-12 11:27:44.03	79.83	51.90	-36.0	-37.5	17.6	0.00e+00	0	59	0	1742733312	43	4336
2026-01-12 11:27:45.04	79.17	51.99	-35.8	-37.2	17.9	0.00e+00	0	59	0	1749024768	43	4190
2026-01-12 11:27:46.05	78.50	52.08	-35.7	-37.2	18.0	0.00e+00	0	59	0	1754267648	43	4158
2026-01-12 11:27:47.06	77.82	52.17	-35.9	-37.4	17.7	0.00e+00	0	59	0	1760559104	43	4283
2026-01-12 11:27:48.07	77.15	52.25	-36.1	-37.6	17.6	0.00e+00	0	59	0	1765801984	43	4357
2026-01-12 11:27:49.08	76.47	52.33	-36.0	-37.5	17.6	0.00e+00	0	59	0	1772093440	43	4334
2026-01-12 11:27:50.09	75.78	52.41	-36.1	-37.7	17.5	0.00e+00	0	59	0	1777336320	43	4393
2026-01-12 11:27:51.10	75.09	52.48	-36.3	-38.0	17.2	0.00e+00	0	59	0	1782579200	43	4546
2026-01-12 11:27:52.11	74.40	52.54	-36.3	-37.9	17.3	0.00e+00	0	59	0	1788870656	43	4513
2026-01-12 11:27:53.12	73.71	52.61	-36.0	-37.5	17.7	0.00e+00	0	59	0	1794113536	43	4301
2026-01-12 11:27:54.13	73.01	52.67	-35.7	-37.2	18.0	0.00e+00	0	59	0	1800404992	43	4148
2026-01-12 11:27:55.14	72.31	52.72	-35.6	-37.1	18.1	0.00e+00	0	59	0	1805647872	43	4119
2026-01-12 11:27:56.15	71.61	52.77	-35.8	-37.3	17.8	0.00e+00	0	59	0	1810890752	43	4235
2026-01-12 11:27:57.16	70.91	52.81	-35.8	-37.3	17.9	0.00e+00	0	59	0	1817182208	43	4202
2026-01-12 11:27:58.17	70.20	52.85	-35.9	-37.3	17.8	0.00e+00	0	59	0	1822425088	43	4222
2026-01-12 11:27:59.18	69.49	52.89	-36.1	-37.6	17.6	0.00e+00	0	59	0	1828716544	43	4365
2026-01-12 11:28:00.19	68.78	52.92	-36.3	-37.9	17.3	0.00e+00	0	59	0	1833959424	43	4503
2026-01-12 11:28:01.20	68.07	52.95	-36.1	-37.7	17.5	0.00e+00	0	59	0	1839202304	43	4403
2026-01-12 11:28:02.21	67.36	52.97	-35.9	-37.4	17.8	0.00e+00	0	59	0	1845493760	43	4248
2026-01-12 11:28:03.22	66.65	52.99	-36.0	-37.5	17.6	0.00e+00	0	59	0	1850736640	43	4328
2026-01-12 11:28:04.23	65.93	53.00	-36.1	-37.6	17.5	0.00e+00	0	59	0	1857028096	43	4375
2026-01-12 11:28:05.24	65.22	53.01	-36.1	-37.7	17.5	0.00e+00	0	59	0	1862270976	43	4393
2026-01-12 11:28:06.25	64.51	53.02	-36.0	-37.5	17.7	0.00e+00	0	59	0	1868562432	43	4306
2026-01-12 11:28:07.26	63.79	53.02	-35.8	-37.2	17.9	0.00e+00	0	59	0	1873805312	43	4184
2026-01-12 11:28:08.27	63.08	53.01	-35.7	-37.2	18.0	0.00e+00	0	59	0	1879048192	43	4155
2026-01-12 11:28:09.28	62.36	53.00	-35.7	-37.2	18.0	0.00e+00	0	59	0	1885339648	43	4148
2026-01-12 11:28:10.29	61.65	52.99	-35.8	-37.3	17.9	0.00e+00	0	59	0	1890582528	43	4202
2026-01-12 11:28:11.30	60.93	52.97	-35.9	-37.5	17.7	0.00e+00	0	59	0	1896873984	43	4294
2026-01-12 11:28:12.31	60.22	52.95	-36.2	-37.7	17.4	0.00e+00	0	59	0	1902116864	43	4424
2026-01-12 11:28:13.32	59.51	52.92	-36.0	-37.6	17.5	0.00e+00	0	59	0	1907359744	43	4361
2026-01-12 11:28:14.33	58.80	52.89	-35.9	-37.4	17.7	0.00e+00	0	59	0	1913651200	43	4271
2026-01-12 11:28:15.34	58.10	52.85	-35.8	-37.3	17.8	0.00e+00	0	59	0	1918894080	43	4225
2026-01-12 11:28:16.35	57.39	52.81	-35.9	-37.4	17.7	0.00e+00	0	59	0	1925185536	43	4269
2026-01-12 11:28:17.36	56.69	52.77	-36.0	-37.5	17.5	0.00e+00	0	59	0	1930428416	43	4333
2026-01-12 11:28:18.37	55.98	52.72	-36.2	-37.8	17.3	0.00e+00	0	59	0	1935671296	43	4479
2026-01-12 11:28:19.38	55.29	52.66	-36.1	-37.6	17.5	0.00e+00	0	59	0	1941962752	43	4357
2026-01-12 11:28:20.40	54.58	52.61	-35.9	-37.4	17.7	0.00e+00	0	59	0	1947205632	43	4273
2026-01-12 11:28:21.41	53.89	52.54	-36.1	-37.6	17.6	0.00e+00	0	59	0	1953497088	43	4355
2026-01-12 11:28:22.42	53.20	52.48	-36.3	-37.9	17.2	0.00e+00	0	59	0	1958739968	43	4509
2026-01-12 11:28:23.43	52.51	52.41	-36.2	-37.7	17.4	0.00e+00	0	59	0	1965031424	43	4441
2026-01-12 11:28:24.44	51.83	52.33	-35.9	-37.4	17.7	0.00e+00	0	59	0	1970274304	43	4267
2026-01-12 11:28:25.45	51.15	52.25	-35.7	-37.1	17.9	0.00e+00	0	59	0	1976565760	43	4137
2026-01-12 11:28:26.46	50.47	52.17	-35.8	-37.3	17.8	0.00e+00	0	59	0	1981808640	43	4213
2026-01-12 11:28:27.47	49.80	52.08	-35.8	-37.3	17.8	0.00e+00	0	59	0	1987051520	43	4214
2026-01-12 11:28:28.48	49.13	51.99	-35.8	-37.2	17.8	0.00e+00	0	59	0	1993342976	43	4186
2026-01-12 11:28:29.48	48.48	51.90	-35.9	-37.4	17.7	0.00e+00	0	59	0	1998585856	43	4245
2026-01-12 11:28:30.49	47.82	51.80	-35.9	-37.4	17.7	0.00e+00	0	59	0	2004877312	43	4255
2026-01-12 11:28:31.51	47.15	51.69	-35.8	-37.3	17.7	0.00e+00	0	59	0	2010120192	43	4241
2026-01-12 11:28:32.52	46.50	51.59	-35.8	-37.3	17.8	0.00e+00	0	59	0	2015363072	43	4230
2026-01-12 11:28:33.53	45.86	51.48	-35.8	-37.3	17.8	0.00e+00	0	59	0	2021654528	43	4204
2026-01-12 11:28:34.54	45.22	51.36	-35.8	-37.3	17.8	0.00e+00	0	59	0	2026897408	43	4222
2026-01-12 11:28:35.55	44.58	51.25	-35.8	-37.3	17.7	0.00e+00	0	59	0	2033188864	43	4239
2026-01-12 11:28:36.56	43.95	51.13	-35.9	-37.5	17.6	0.00e+00	0	59	0	2038431744	43	4294
2026-01-12 11:28:37.57	43.32	51.01	-35.9	-37.5	17.6	0.00e+00	0	59	0	2043674624	43	4293
2026-01-12 11:28:38.58	42.70	50.88	-35.8	-37.3	17.8	0.00e+00	0	59	0	2049966080	43	4231
2026-01-12 11:28:39.59	42.09	50.75	-35.7	-37.2	17.9	0.00e+00	0	59	0	2055208960	43	4173
2026-01-12 11:28:40.60	41.48	50.62	-35.7	-37.2	17.9	0.00e+00	0	59	0	2061500416	43	4157
2026-01-12 11:28:41.61	40.87	50.48	-35.9	-37.4	17.7	0.00e+00	0	59	0	2066743296	43	4243
2026-01-12 11:28:42.62	40.28	50.34	-35.8	-37.3	17.8	0.00e+00	0	59	0	2073034752	43	4209
2026-01-12 11:28:43.63	39.68	50.20	-35.8	-37.4	17.7	0.00e+00	0	59	0	2078277632	43	4253
2026-01-12 11:28:44.64	39.09	50.06	-35.7	-37.2	17.8	0.00e+00	0	59	0	2084569088	43	4186
2026-01-12 11:28:45.65	38.51	49.91	-35.6	-37.1	18.0	0.00e+00	0	59	0	2089811968	43	4110
2026-01-12 11:28:46.66	37.94	49.76	-35.6	-37.0	18.0	0.00e+00	0	59	0	2095054848	43	4096
2026-01-12 11:28:47.67	37.36	49.61	-35.6	-37.1	17.9	0.00e+00	0	59	0	2101346304	43	4130
2026-01-12 11:28:48.68	36.80	49.45	-35.8	-37.2	17.8	0.00e+00	0	59	0	2106589184	43	4192
2026-01-12 11:28:49.69	36.24	49.29	-35.8	-37.3	17.7	0.00e+00	0	59	0	2112880640	43	4233
2026-01-12 11:28:50.70	35.69	49.14	-35.9	-37.4	17.6	0.00e+00	0	59	0	2118123520	43	4290
2026-01-12 11:28:51.71	35.14	48.97	-36.0	-37.5	17.5	0.00e+00	0	59	0	2123366400	43	4333
2026-01-12 11:28:52.72	34.60	48.81	-35.9	-37.5	17.6	0.00e+00	0	59	0	2129657856	43	4308
2026-01-12 11:28:53.73	34.06	48.64	-35.7	-37.2	17.9	0.00e+00	0	59	0	2134900736	43	4169
2026-01-12 11:28:54.74	33.53	48.48	-35.5	-36.9	18.2	0.00e+00	0	59	0	2141192192	43	4027
2026-01-12 11:28:55.75	33.01	48.30	-35.6	-37.1	18.0	0.00e+00	0	59	0	2146435072	42	4353
2026-01-12 11:28:56.76	32.49	48.13	-35.7	-37.2	17.9	0.00e+00	0	59	0	2151677952	42	4424
2026-01-12 11:28:57.77	31.98	47.96	-35.6	-37.1	18.0	0.00e+00	0	59	0	2157969408	42	4347
2026-01-12 11:28:58.78	31.47	47.78	-35.4	-36.8	18.2	0.00e+00	0	59	0	2163212288	42	4235
2026-01-12 11:28:59.79	30.97	47.61	-35.4	-36.8	18.3	0.00e+00	0	59	0	2169503744	42	4223
2026-01-12 11:29:00.80	30.47	47.43	-35.4	-36.9	18.2	0.00e+00	0	59	0	2174746624	42	4266
2026-01-12 11:29:01.81	29.98	47.25	-35.4	-36.9	18.2	0.00e+00	0	59	0	2181038080	42	4248
2026-01-12 11:29:02.82	29.50	47.07	-35.4	-36.8	18.2	0.00e+00	0	59	0	2186280960	42	4225
2026-01-12 11:29:03.83	29.02	46.88	-35.4	-36.9	18.2	0.00e+00	0	59	0	2192572416	42	4251
2026-01-12 11:29:04.84	28.55	46.70	-35.4	-36.8	18.2	0.00e+00	0	59	0	2197815296	42	4229
2026-01-12 11:29:05.85	28.08	46.51	-35.3	-36.8	18.3	0.00e+00	0	59	0	2203058176	42	4212
2026-01-12 11:29:06.86	27.62	46.32	-35.3	-36.7	18.3	0.00e+00	0	59	0	2209349632	42	4188
2026-01-12 11:29:07.87	27.16	46.14	-35.2	-36.7	18.4	0.00e+00	0	59	0	2214592512	42	4152
2026-01-12 11:29:08.88	26.71	45.95	-35.2	-36.6	18.4	0.00e+00	0	59	0	2220883968	42	4124
2026-01-12 11:29:09.89	26.27	45.76	-35.2	-36.6	18.4	0.00e+00	0	59	0	2226126848	42	4123
2026-01-12 11:29:10.90	25.83	45.56	-35.3	-36.7	18.3	0.00e+00	0	59	0	2231369728	42	4185
2026-01-12 11:29:11.91	25.39	45.37	-35.3	-36.7	18.3	0.00e+00	0	59	0	2237661184	42	4179
2026-01-12 11:29:12.92	24.97	45.18	-35.3	-36.7	18.3	0.00e+00	0	59	0	2242904064	42	4177
2026-01-12 11:29:13.93	24.54	44.98	-35.2	-36.6	18.4	0.00e+00	0	59	0	2249195520	42	4136
2026-01-12 11:29:14.94	24.12	44.79	-35.2	-36.6	18.4	0.00e+00	0	59	0	2254438400	42	4145
2026-01-12 11:29:15.95	23.71	44.59	-35.2	-36.6	18.5	0.00e+00	0	59	0	2259681280	42	4104
2026-01-12 11:29:16.96	23.30	44.40	-35.1	-36.5	18.5	0.00e+00	0	59	0	2265972736	42	4071
2026-01-12 11:29:17.97	22.90	44.20	-35.1	-36.5	18.5	0.00e+00	0	59	0	2271215616	42	4084
2026-01-12 11:29:18.98	22.50	44.00	-35.2	-36.7	18.4	0.00e+00	0	59	0	2277507072	42	4148
2026-01-12 11:29:19.99	22.11	43.80	-35.3	-36.7	18.3	0.00e+00	0	59	0	2282749952	42	4178
2026-01-12 11:29:21.00	21.72	43.61	-35.2	-36.7	18.3	0.00e+00	0	59	0	2289041408	42	4169
2026-01-12 11:29:22.01	21.33	43.41	-35.1	-36.6	18.4	0.00e+00	0	59	0	2294284288	42	4104
2026-01-12 11:29:23.02	20.96	43.21	-35.2	-36.5	18.8	0.00e+00	0	59	0	2299527168	42	4067
2026-01-12 11:29:24.03	20.58	43.01	-35.2	-36.5	18.7	0.00e+00	0	59	0	2305818624	42	4098
2026-01-12 11:29:25.04	20.21	42.81	-35.3	-36.6	18.7	0.00e+00	0	59	0	2311061504	42	4130
2026-01-12 11:29:26.05	19.85	42.61	-35.2	-36.5	18.8	0.00e+00	0	59	0	2317352960	42	4095
2026-01-12 11:29:27.06	19.49	42.41	-35.2	-36.5	18.8	0.00e+00	0	59	0	2322595840	42	4065
2026-01-12 11:29:28.07	19.13	42.21	-35.2	-36.5	18.8	0.00e+00	0	59	0	2327838720	42	4072
2026-01-12 11:29:29.08	18.78	42.01	-35.2	-36.5	18.8	0.00e+00	0	59	0	2334130176	42	4074
2026-01-12 11:29:30.09	18.43	41.81	-35.2	-36.6	18.7	0.00e+00	0	59	0	2339373056	42	4099
2026-01-12 11:29:31.10	18.09	41.60	-35.2	-36.5	18.8	0.00e+00	0	59	0	2345664512	42	4090
2026-01-12 11:29:32.11	17.75	41.40	-35.2	-36.5	18.8	0.00e+00	0	59	0	2350907392	42	4061
2026-01-12 11:29:33.12	17.42	41.20	-35.2	-36.5	18.8	0.00e+00	0	59	0	2356150272	42	4061
2026-01-12 11:29:34.13	17.09	41.00	-35.3	-36.6	18.7	0.00e+00	0	59	0	2362441728	42	4125
2026-01-12 11:29:35.14	16.76	40.80	-35.4	-36.8	18.4	0.00e+00	0	59	0	2367684608	42	4219
2026-01-12 11:29:36.15	16.44	40.60	-35.5	-36.9	18.4	0.00e+00	0	59	0	2373976064	42	4269
2026-01-12 11:29:37.16	16.12	40.40	-35.4	-36.8	18.5	0.00e+00	0	59	0	2379218944	42	4204
2026-01-12 11:29:38.18	15.81	40.20	-35.3	-36.6	18.7	0.00e+00	0	59	0	2385510400	42	4105
2026-01-12 11:29:39.19	15.50	40.00	-35.2	-36.4	18.8	0.00e+00	0	59	0	2390753280	42	4042
2026-01-12 11:29:40.20	15.19	39.80	-35.1	-36.4	18.9	0.00e+00	0	59	0	2395996160	42	4014
2026-01-12 11:29:41.21	14.89	39.60	-35.1	-36.4	18.8	0.00e+00	0	59	0	2402287616	42	4051
2026-01-12 11:29:42.22	14.59	39.40	-35.2	-36.5	18.8	0.00e+00	0	59	0	2407530496	42	4074
2026-01-12 11:29:43.23	14.30	39.20	-35.2	-36.5	18.7	0.00e+00	0	59	0	2413821952	42	4076
2026-01-12 11:29:44.24	14.01	39.00	-35.3	-36.6	18.6	0.00e+00	0	59	0	2419064832	42	4135
2026-01-12 11:29:45.24	13.72	38.80	-35.3	-36.7	18.6	0.00e+00	0	59	0	2425356288	42	4154
2026-01-12 11:29:46.25	13.44	38.60	-35.4	-36.7	18.5	0.00e+00	0	59	0	2430599168	42	4192
2026-01-12 11:29:47.26	13.16	38.40	-35.4	-36.8	18.4	0.00e+00	0	59	0	2435842048	42	4214
2026-01-12 11:29:48.27	12.88	38.21	-35.5	-36.8	18.4	0.00e+00	0	59	0	2442133504	42	4219
2026-01-12 11:29:49.28	12.60	38.01	-35.5	-36.9	18.3	0.00e+00	0	59	0	2447376384	42	4247
2026-01-12 11:29:50.29	12.33	37.81	-35.6	-37.0	18.2	0.00e+00	0	59	0	2453667840	42	4299
2026-01-12 11:29:51.30	12.07	37.62	-35.7	-37.1	18.2	0.00e+00	0	59	0	2458910720	42	4354
2026-01-12 11:29:52.31	11.80	37.42	-35.7	-37.1	18.1	0.00e+00	0	59	0	2464153600	42	4355
2026-01-12 11:29:53.32	11.54	37.22	-35.6	-36.9	18.3	0.00e+00	0	59	0	2470445056	42	4284
2026-01-12 11:29:54.33	11.29	37.03	-35.4	-36.8	18.5	0.00e+00	0	59	0	2475687936	42	4196
2026-01-12 11:29:55.34	11.03	36.83	-35.3	-36.7	18.5	0.00e+00	0	59	0	2481979392	42	4147
2026-01-12 11:29:56.35	10.78	36.64	-35.3	-36.6	18.6	0.00e+00	0	59	0	2487222272	42	4114
2026-01-12 11:29:57.36	10.53	36.45	-35.3	-36.6	18.6	0.00e+00	0	59	0	2493513728	42	4129
2026-01-12 11:29:58.37	10.29	36.25	-35.4	-36.7	18.4	0.00e+00	0	59	0	2498756608	42	4182
2026-01-12 11:29:59.38	10.04	36.06	-35.3	-36.6	18.6	0.00e+00	0	59	0	2505048064	42	4144
2026-01-12 11:30:00.39	9.80	35.87	-35.2	-36.5	18.7	0.00e+00	0	59	0	2510290944	42	4063
2026-01-12 11:30:01.40	9.57	35.68	-35.1	-36.4	18.8	0.00e+00	0	59	0	2515533824	42	4015
2026-01-12 11:30:02.41	9.33	35.49	-35.0	-36.3	18.9	0.00e+00	0	59	0	2521825280	42	3971
2026-01-12 11:30:03.42	9.10	35.30	-35.0	-36.3	18.9	0.00e+00	0	59	0	2527068160	42	3988
2026-01-12 11:30:04.43	8.87	35.11	-35.0	-36.3	18.9	0.00e+00	0	59	0	2533359616	42	3985
2026-01-12 11:30:05.44	8.65	34.92	-35.0	-36.4	18.8	0.00e+00	0	59	0	2538602496	42	4006
2026-01-12 11:30:06.45	8.42	34.73	-35.0	-36.3	18.9	0.00e+00	0	59	0	2543845376	42	3978
2026-01-12 11:30:07.46	8.20	34.54	-34.9	-36.2	18.9	0.00e+00	0	59	0	2550136832	41	4171
2026-01-12 11:30:08.47	7.99	34.36	-35.0	-36.2	18.9	0.00e+00	0	59	0	2555379712	41	4189
2026-01-12 11:30:09.48	7.77	34.17	-35.0	-36.3	18.8	0.00e+00	0	59	0	2561671168	41	4227
2026-01-12 11:30:10.49	7.56	33.98	-35.0	-36.3	18.8	0.00e+00	0	59	0	2566914048	41	4239
2026-01-12 11:30:11.50	7.35	33.80	-35.1	-36.4	18.7	0.00e+00	0	59	0	2572156928	41	4291
2026-01-12 11:30:12.51	7.14	33.61	-35.1	-36.4	18.7	0.00e+00	0	59	0	2578448384	41	4288
2026-01-12 11:30:13.52	6.93	33.43	-35.1	-36.4	18.7	0.00e+00	0	59	0	2583691264	41	4258
2026-01-12 11:30:14.53	6.73	33.25	-35.0	-36.3	18.8	0.00e+00	0	59	0	2589982720	41	4237
2026-01-12 11:30:15.54	6.53	33.07	-35.1	-36.4	18.7	0.00e+00	0	59	0	2595225600	41	4251
2026-01-12 11:30:16.55	6.33	32.88	-35.1	-36.4	18.8	0.00e+00	0	59	0	2601517056	41	4253
2026-01-12 11:30:17.56	6.13	32.70	-35.2	-36.5	18.6	0.00e+00	0	59	0	2606759936	41	4306
2026-01-12 11:30:18.57	5.94	32.52	-35.2	-36.6	18.5	0.00e+00	0	59	0	2612002816	41	4348
2026-01-12 11:30:19.58	5.75	32.34	-35.3	-36.7	18.4	0.00e+00	0	59	0	2618294272	41	4406
2026-01-12 11:30:20.59	5.56	32.16	-35.4	-36.8	18.3	0.00e+00	0	59	0	2623537152	41	4447
2026-01-12 11:30:21.60	5.37	31.99	-35.5	-36.8	18.3	0.00e+00	0	59	0	2629828608	41	4478
2026-01-12 11:30:22.61	5.18	31.81	-35.5	-36.9	18.2	0.00e+00	0	59	0	2635071488	41	4495
2026-01-12 11:30:23.62	5.00	31.63	-35.5	-36.9	18.2	0.00e+00	0	59	0	2640314368	41	4518
2026-01-12 11:30:24.63	4.82	31.46	-35.5	-36.9	18.2	0.00e+00	0	59	0	2646605824	41	4517
2026-01-12 11:30:25.64	4.64	31.28	-35.5	-36.9	18.2	0.00e+00	0	59	0	2651848704	41	4513
2026-01-12 11:30:26.64	4.46	31.11	-35.5	-36.9	18.2	0.00e+00	0	59	0	2658140160	41	4498
2026-01-12 11:30:27.65	4.28	30.94	-35.4	-36.8	18.3	0.00e+00	0	59	0	2663383040	41	4457
2026-01-12 11:30:28.66	4.11	30.76	-35.3	-36.7	18.4	0.00e+00	0	59	0	2668625920	41	4400
2026-01-12 11:30:29.67	3.94	30.59	-35.3	-36.6	18.4	0.00e+00	0	59	0	2674917376	41	4379
2026-01-12 11:30:30.68	3.77	30.42	-35.3	-36.7	18.4	0.00e+00	0	59	0	2680160256	41	4396
2026-01-12 11:30:31.69	3.60	30.25	-35.4	-36.7	18.3	0.00e+00	0	59	0	2686451712	41	4432
2026-01-12 11:30:32.70	3.43	30.08	-35.4	-36.8	18.3	0.00e+00	0	59	0	2691694592	41	4463
2026-01-12 11:30:33.71	3.27	29.91	-35.6	-36.9	18.1	0.00e+00	0	59	0	2697986048	41	4543
2026-01-12 11:30:34.72	3.10	29.74	-35.6	-37.0	18.0	0.00e+00	0	59	0	2703228928	41	4580
2026-01-12 11:30:35.73	2.94	29.57	-35.7	-37.1	17.9	0.00e+00	0	59	0	2709520384	41	4618
2026-01-12 11:30:36.74	2.78	29.40	-35.8	-37.2	17.9	0.00e+00	0	59	0	2714763264	42	4423
2026-01-12 11:30:37.75	2.63	29.24	-35.8	-37.2	17.8	0.00e+00	0	59	0	2720006144	42	4434
2026-01-12 11:30:38.76	2.47	29.07	-35.8	-37.3	17.8	0.00e+00	0	59	0	2726297600	42	4448
2026-01-12 11:30:39.77	2.31	28.91	-35.8	-37.3	17.8	0.00e+00	0	59	0	2731540480	42	4449
2026-01-12 11:30:40.78	2.16	28.74	-35.8	-37.2	17.8	0.00e+00	0	59	0	2737831936	42	4427
2026-01-12 11:30:41.79	2.01	28.58	-35.8	-37.2	17.8	0.00e+00	0	59	0	2743074816	42	4423
2026-01-12 11:30:42.80	1.86	28.42	-35.8	-37.2	17.9	0.00e+00	0	59	0	2748317696	42	4394
2026-01-12 11:30:43.81	1.71	28.26	-35.7	-37.1	17.9	0.00e+00	0	59	0	2754609152	42	4377
2026-01-12 11:30:44.81	1.57	28.10	-35.7	-37.1	17.9	0.00e+00	0	59	0	2759852032	42	4364
2026-01-12 11:30:45.82	1.42	27.94	-35.7	-37.1	18.0	0.00e+00	0	59	0	2766143488	42	4345
2026-01-12 11:30:46.83	1.28	27.78	-35.7	-37.0	17.9	0.00e+00	0	59	0	2771386368	42	4339
2026-01-12 11:30:47.84	1.13	27.62	-35.7	-37.1	17.9	0.00e+00	0	59	0	2776629248	42	4352
2026-01-12 11:30:48.85	0.99	27.46	-35.7	-37.1	17.9	0.00e+00	0	59	0	2782920704	42	4373
2026-01-12 11:30:49.86	0.85	27.30	-35.7	-37.1	17.9	0.00e+00	0	59	0	2788163584	42	4376
2026-01-12 11:30:50.87	0.72	27.14	-35.7	-37.1	17.9	0.00e+00	0	59	0	2794455040	42	4379
2026-01-12 11:30:51.88	0.58	26.99	-35.7	-37.1	17.8	0.00e+00	0	59	0	2799697920	42	4388
2026-01-12 11:30:52.89	0.44	26.83	-35.7	-37.2	17.8	0.00e+00	0	59	0	2805989376	42	4396
2026-01-12 11:30:53.90	0.31	26.68	-35.7	-37.1	17.8	0.00e+00	0	59	0	2811232256	42	4391
2026-01-12 11:30:54.91	0.18	26.52	-35.7	-37.1	17.8	0.00e+00	0	59	0	2816475136	42	4363
2026-01-12 11:30:55.92	0.05	26.37	-35.7	-37.1	17.8	0.00e+00	0	59	0	2822766592	42	4365
2026-01-12 11:30:56.93	359.92	26.22	-35.7	-37.1	17.8	0.00e+00	0	59	0	2828009472	42	4343
2026-01-12 11:30:57.94	359.79	26.07	-35.6	-37.0	17.9	0.00e+00	0	59	0	2834300928	42	4316
2026-01-12 11:30:58.95	359.66	25.91	-35.6	-36.9	18.0	0.00e+00	0	59	0	2839543808	42	4285
2026-01-12 11:30:59.96	359.53	25.76	-35.5	-36.9	18.0	0.00e+00	0	59	0	2844786688	42	4276
2026-01-12 11:31:00.97	359.41	25.61	-35.6	-36.9	17.9	0.00e+00	0	59	0	2851078144	42	4286
2026-01-12 11:31:01.98	359.28	25.46	-35.5	-36.9	18.0	0.00e+00	0	59	0	2856321024	42	4277
2026-01-12 11:31:02.99	359.16	25.32	-35.6	-37.0	17.9	0.00e+00	0	59	0	2862612480	42	4304
2026-01-12 11:31:04.01	359.04	25.17	-35.6	-37.0	17.8	0.00e+00	0	59	0	2867855360	42	4339
2026-01-12 11:31:05.01	358.92	25.02	-35.7	-37.1	17.7	0.00e+00	0	59	0	2873098240	42	4379
2026-01-12 11:31:06.03	358.80	24.87	-35.7	-37.1	17.7	0.00e+00	0	59	0	2879389696	42	4383
2026-01-12 11:31:07.04	358.68	24.73	-35.8	-37.2	17.7	0.00e+00	0	59	0	2884632576	42	4408
2026-01-12 11:31:08.04	358.56	24.58	-35.8	-37.2	17.6	0.00e+00	0	59	0	2890924032	42	4418
2026-01-12 11:31:09.05	358.45	24.44	-35.8	-37.2	17.6	0.00e+00	0	59	0	2896166912	42	4436
2026-01-12 11:31:10.06	358.33	24.30	-35.9	-37.3	17.5	0.00e+00	0	59	0	2902458368	42	4470
2026-01-12 11:31:11.07	358.22	24.15	-35.9	-37.4	17.4	0.00e+00	0	59	0	2907701248	42	4499
2026-01-12 11:31:12.08	358.11	24.01	-35.9	-37.4	17.4	0.00e+00	0	59	0	2912944128	42	4512
2026-01-12 11:31:13.09	358.00	23.87	-36.0	-37.4	17.3	0.00e+00	0	59	0	2919235584	42	4537
2026-01-12 11:31:14.10	357.89	23.73	-36.0	-37.4	17.3	0.00e+00	0	59	0	2924478464	42	4543
2026-01-12 11:31:15.11	357.78	23.59	-36.0	-37.5	17.3	0.00e+00	0	59	0	2930769920	42	4551
2026-01-12 11:31:16.12	357.67	23.45	-36.0	-37.5	17.3	0.00e+00	0	59	0	2936012800	42	4570
2026-01-12 11:31:17.13	357.56	23.31	-36.0	-37.5	17.2	0.00e+00	0	59	0	2942304256	42	4589
2026-01-12 11:31:18.14	357.45	23.17	-36.0	-37.5	17.2	0.00e+00	0	59	0	2947547136	42	4556
2026-01-12 11:31:19.15	357.35	23.03	-36.0	-37.5	17.2	0.00e+00	0	59	0	2952790016	42	4570
2026-01-12 11:31:20.16	357.24	22.89	-36.0	-37.5	17.2	0.00e+00	0	59	0	2959081472	42	4566
2026-01-12 11:31:21.17	357.14	22.76	-36.0	-37.5	17.1	0.00e+00	0	59	0	2964324352	42	4573
2026-01-12 11:31:22.19	357.04	22.62	-35.9	-37.4	17.2	0.00e+00	0	59	0	2970615808	42	4531
2026-01-12 11:31:23.20	356.93	22.48	-36.0	-37.5	17.2	0.00e+00	0	59	0	2975858688	42	4546
2026-01-12 11:31:24.21	356.83	22.35	-36.0	-37.6	17.0	0.00e+00	0	59	0	2981101568	42	4600
2026-01-12 11:31:25.22	356.73	22.22	-35.9	-37.4	17.0	0.00e+00	0	59	0	2987393024	42	4541
2026-01-12 11:31:26.23	356.63	22.08	-35.8	-37.3	17.1	0.00e+00	0	59	0	2992635904	42	4490
2026-01-12 11:31:27.24	356.54	21.95	-36.0	-37.5	16.8	0.00e+00	0	59	0	2998927360	42	4583
2026-01-12 11:31:28.25	356.44	21.82	-36.1	-37.7	16.6	0.00e+00	0	59	0	3004170240	42	4662
2026-01-12 11:31:29.26	356.34	21.68	-35.9	-37.5	16.6	0.00e+00	0	59	0	3009413120	42	4581
2026-01-12 11:31:30.27	356.25	21.55	-35.7	-37.3	16.7	0.00e+00	0	59	0	3015704576	42	4468
2026-01-12 11:31:31.28	356.15	21.42	-35.7	-37.3	16.6	0.00e+00	0	59	0	3020947456	42	4444
2026-01-12 11:31:32.29	356.06	21.29	-35.8	-37.4	16.4	0.00e+00	0	59	0	3027238912	42	4534
2026-01-12 11:31:33.30	355.96	21.16	-36.0	-37.6	16.1	0.00e+00	0	59	0	3032481792	42	4643
2026-01-12 11:31:34.31	355.87	21.03	-36.0	-37.7	15.9	0.00e+00	0	59	0	3038773248	42	4691
2026-01-12 11:31:35.32	355.78	20.91	-36.0	-37.7	15.9	0.00e+00	0	59	0	3044016128	42	4671
2026-01-12 11:31:36.33	355.69	20.78	-36.2	-38.0	15.6	0.00e+00	0	59	0	3050307584	42	4829
2026-01-12 11:31:37.34	355.60	20.65	-36.6	-38.5	14.9	0.00e+00	0	59	0	3055550464	43	4863
2026-01-12 11:31:38.35	355.51	20.52	-37.4	-39.5	13.9	0.00e+00	0	59	0	3060793344	45	4852
2026-01-12 11:31:39.36	355.42	20.40	-38.1	-40.7	12.6	7.89e-05	0	59	0	3067084800	46	5220
2026-01-12 11:31:40.37	355.33	20.27	-38.9	-41.9	11.2	7.80e-04	0	59	0	3072327680	48	5390
2026-01-12 11:31:41.38	355.25	20.15	-39.5	-43.2	9.6	1.00e-02	0	59	0	3078619136	49	5886
2026-01-12 11:31:42.39	355.16	20.02	-40.1	-44.5	8.1	4.61e-02	0	59	0	3083862016	50	6475
2026-01-12 11:31:43.40	355.07	19.90	-40.4	-45.8	6.7	1.87e-01	0	59	0	3089104896	51	7064
2026-01-12 11:31:44.41	354.99	19.78	-40.7	-47.1	5.5	4.21e-01	0	59	0	3094347776	51	8265
2026-01-12 11:31:45.42	354.91	19.65	-40.8	-48.2	4.8	7.88e-01	0	59	0	3095396352	52	8847
2026-01-12 11:31:46.43	354.82	19.53	-40.9	-49.5	4.2	8.29e-01	0	59	0	3095396352	52	10196
2026-01-12 11:31:47.44	354.74	19.41	-41.0	-50.4	3.9	8.43e-01	0	59	104	3095396352	52	11345
2026-01-12 11:31:48.45	354.66	19.29	-41.0	-51.3	3.8	8.44e-01	0	59	104	3095396352	52	12591
2026-01-12 11:31:49.46	354.58	19.17	-41.0	-51.8	3.8	8.46e-01	0	59	104	3095396352	52	13327
2026-01-12 11:31:50.47	354.50	19.05	-41.0	-52.2	3.8	8.46e-01	0	59	104	3095396352	52	13990
2026-01-12 11:31:51.48	354.42	18.93	-41.0	-52.5	3.8	8.46e-01	0	59	104	3095396352	52	14415
2026-01-12 11:31:52.49	354.34	18.81	-41.0	-52.7	3.8	8.46e-01	0	59	104	3095396352	52	14749
2026-01-12 11:31:53.50	354.26	18.69	-40.9	-52.7	3.8	8.47e-01	0	59	104	3095396352	52	14814
2026-01-12 11:31:54.51	354.18	18.57	-40.7	-52.6	3.8	8.46e-01	0	59	104	3095396352	52	14572
2026-01-12 11:31:55.52	354.10	18.46	-40.8	-52.7	3.8	8.45e-01	0	59	104	3095396352	52	14758
2026-01-12 11:31:56.53	354.02	18.34	-40.9	-52.7	3.8	8.47e-01	0	59	104	3095396352	53	13953
2026-01-12 11:31:57.54	353.95	18.22	-40.7	-52.3	3.8	8.46e-01	0	59	104	3095396352	53	13337
2026-01-12 11:31:58.55	353.87	18.11	-40.6	-52.3	3.8	8.45e-01	0	59	104	3095396352	52	14149
2026-01-12 11:31:59.56	353.80	17.99	-40.6	-52.4	3.8	8.47e-01	0	59	104	3095396352	52	14217
2026-01-12 11:32:00.57	353.72	17.88	-40.5	-52.4	3.8	8.46e-01	0	59	104	3095396352	52	14267
2026-01-12 11:32:01.58	353.65	17.76	-40.4	-52.5	3.8	8.46e-01	0	59	104	3095396352	52	14527
2026-01-12 11:32:02.59	353.58	17.65	-40.3	-52.5	3.8	8.46e-01	0	59	104	3095396352	52	14390
2026-01-12 11:32:03.60	353.50	17.53	-40.7	-52.5	3.8	8.47e-01	0	59	104	3095396352	52	14472
2026-01-12 11:32:04.61	353.43	17.42	-40.7	-52.5	3.8	8.46e-01	0	59	104	3095396352	52	14532
2026-01-12 11:32:05.62	353.36	17.31	-40.6	-52.4	3.8	8.46e-01	0	60	104	3095396352	52	14229
2026-01-12 11:32:06.63	353.29	17.20	-40.6	-52.5	3.8	8.47e-01	0	59	104	3095396352	52	14486
2026-01-12 11:32:07.64	353.22	17.08	-40.5	-52.4	3.8	8.45e-01	0	59	104	3095396352	52	14224
2026-01-12 11:32:08.65	353.15	16.97	-39.9	-52.4	3.8	8.47e-01	0	59	104	3095396352	51	15224
2026-01-12 11:32:09.66	353.08	16.86	-40.6	-52.5	3.8	8.46e-01	0	60	104	3095396352	51	15275
2026-01-12 11:32:10.67	353.01	16.75	-40.0	-52.4	3.8	8.47e-01	0	60	104	3095396352	51	15098
2026-01-12 11:32:11.68	352.94	16.64	-40.5	-52.5	3.8	8.44e-01	0	59	104	3095396352	51	15248
2026-01-12 11:32:12.69	352.87	16.53	-40.6	-52.6	3.8	8.46e-01	0	60	104	3095396352	52	14614
2026-01-12 11:32:13.69	352.81	16.43	-39.9	-52.5	3.8	8.46e-01	0	59	104	3095396352	51	15253
2026-01-12 11:32:14.70	352.74	16.32	-40.5	-52.5	3.8	8.47e-01	0	59	104	3095396352	51	15356
2026-01-12 11:32:15.71	352.67	16.21	-39.8	-52.5	3.8	8.46e-01	0	60	104	3095396352	51	15278
2026-01-12 11:32:16.72	352.61	16.10	-40.4	-52.6	3.8	8.46e-01	0	59	104	3095396352	51	15475
2026-01-12 11:32:17.73	352.54	15.99	-40.0	-52.5	3.8	8.45e-01	0	59	104	3095396352	51	15291
2026-01-12 11:32:18.74	352.48	15.89	-40.5	-52.6	3.8	8.46e-01	0	59	104	3095396352	51	15427
2026-01-12 11:32:19.75	352.41	15.78	-39.9	-52.5	3.8	8.47e-01	0	59	104	3095396352	51	15267
2026-01-12 11:32:20.76	352.35	15.68	-40.6	-52.5	3.8	8.46e-01	0	59	104	3095396352	51	15282
2026-01-12 11:32:21.77	352.29	15.57	-40.5	-52.6	3.8	8.46e-01	0	59	104	3095396352	51	15416
2026-01-12 11:32:22.78	352.22	15.46	-40.5	-52.5	3.8	8.45e-01	0	59	104	3095396352	51	15247
2026-01-12 11:32:23.79	352.16	15.36	-40.7	-52.5	3.8	8.47e-01	0	60	104	3095396352	51	15361
2026-01-12 11:32:24.80	352.10	15.26	-40.5	-52.4	3.8	8.46e-01	0	59	104	3095396352	52	14223
2026-01-12 11:32:25.81	352.04	15.15	-40.2	-52.5	3.8	8.46e-01	0	59	104	3095396352	52	14397
2026-01-12 11:32:26.82	351.98	15.05	-40.5	-52.4	3.8	8.47e-01	0	59	104	3095396352	51	15152
2026-01-12 11:32:27.83	351.92	14.95	-40.4	-52.6	3.8	8.46e-01	0	59	104	3095396352	51	15447
2026-01-12 11:32:28.84	351.86	14.84	-40.2	-52.5	3.8	8.47e-01	0	60	104	3095396352	51	15390
2026-01-12 11:32:29.85	351.80	14.74	-40.7	-52.4	3.8	8.45e-01	0	59	104	3095396352	52	14306
2026-01-12 11:32:30.87	351.74	14.64	-40.2	-52.6	3.8	8.46e-01	0	59	104	3095396352	52	14568
2026-01-12 11:32:31.88	351.68	14.54	-40.7	-52.4	3.8	8.46e-01	0	59	104	3095396352	52	14337
2026-01-12 11:32:32.89	351.62	14.44	-40.7	-52.4	3.8	8.47e-01	0	60	104	3095396352	52	14325
2026-01-12 11:32:33.89	351.56	14.34	-40.5	-52.4	3.8	8.46e-01	0	59	104	3095396352	52	14281
2026-01-12 11:32:34.90	351.51	14.24	-40.8	-52.5	3.8	8.46e-01	0	59	104	3095396352	52	14410
2026-01-12 11:32:35.92	351.45	14.13	-40.4	-52.4	3.8	8.46e-01	0	59	104	3095396352	52	14251
2026-01-12 11:32:36.92	351.39	14.04	-40.3	-52.6	3.8	8.45e-01	0	60	104	3095396352	52	14650
2026-01-12 11:32:37.93	351.34	13.94	-40.7	-52.4	3.8	8.47e-01	0	59	104	3095396352	52	14361
2026-01-12 11:32:38.94	351.28	13.84	-40.4	-52.5	3.8	8.46e-01	0	60	104	3095396352	52	14496
2026-01-12 11:32:39.95	351.22	13.74	-40.6	-52.4	3.8	8.46e-01	0	59	104	3095396352	52	14243
