passes_logs/2026/01/12/R2.0S_Moscow/R2.0S_Moscow__20260112_220217_NOAA_21_JPSS-2_rec.log

#Pass ID: 20260112_220217_NOAA 21 (JPSS-2)
#Satellite: NOAA 21 (JPSS-2)
#Configuration: NOAA-21
#almurnet v.1.7.20251203
#Start time: 2026-01-12 22:02:18

#Version: 2.2.20231116
#Station: R2.0S_Moscow
#Location: 37.707566 lon 55.798166 lat
#TLE: 1 54234U 22150A   26012.26378519  .00000063  00000+0  50547-4 0  9993
#TLE: 2 54234  98.7495 313.1967 0000726 309.1075  51.0036 14.19534275164425

#Time	Az	El	Level	Level2	SNR	BER	BlckErr	Temp	State	Recorded	gain1	gain2
2026-01-12 22:02:18.85	26.46	2.10	-42.0	-54.8	3.8	1.49e+00	0	50	0	0	56	14899
2026-01-12 22:02:19.85	26.54	2.15	-41.9	-54.6	3.8	1.49e+00	0	50	104	0	54	16457
2026-01-12 22:02:20.86	26.62	2.20	-41.9	-54.6	3.8	1.49e+00	0	51	104	0	54	16473
2026-01-12 22:02:21.87	26.69	2.26	-41.9	-54.6	3.8	1.49e+00	0	51	104	0	54	16407
2026-01-12 22:02:22.89	26.77	2.31	-41.9	-54.6	3.8	1.49e+00	0	51	104	0	54	16453
2026-01-12 22:02:23.90	26.85	2.36	-41.9	-54.6	3.8	1.49e+00	0	51	104	0	54	16475
2026-01-12 22:02:24.91	26.93	2.42	-41.9	-54.6	3.8	1.49e+00	0	51	104	0	54	16430
2026-01-12 22:02:25.92	27.01	2.47	-41.8	-54.6	3.8	1.49e+00	0	51	104	0	54	16445
2026-01-12 22:02:26.93	27.09	2.52	-41.9	-54.6	3.8	1.49e+00	0	51	104	0	54	16473
2026-01-12 22:02:27.94	27.17	2.58	-41.9	-54.6	3.8	1.49e+00	0	51	104	0	54	16389
2026-01-12 22:02:28.95	27.25	2.63	-41.9	-54.6	3.8	1.49e+00	0	51	104	0	54	16457
2026-01-12 22:02:29.96	27.33	2.69	-41.9	-54.6	3.8	1.49e+00	0	51	104	0	54	16406
2026-01-12 22:02:30.97	27.41	2.74	-41.9	-54.6	3.8	1.49e+00	0	51	104	0	54	16469
2026-01-12 22:02:31.98	27.50	2.79	-41.8	-54.6	3.8	1.49e+00	0	51	104	0	54	16425
2026-01-12 22:02:32.99	27.58	2.85	-41.9	-54.6	3.8	1.49e+00	0	52	104	0	54	16455
2026-01-12 22:02:34.00	27.66	2.90	-41.8	-54.6	3.8	1.49e+00	0	52	104	0	54	16399
2026-01-12 22:02:35.01	27.74	2.96	-41.9	-54.6	3.8	1.49e+00	0	51	104	0	54	16468
2026-01-12 22:02:36.02	27.82	3.01	-41.9	-54.6	3.8	1.49e+00	0	51	104	0	54	16402
2026-01-12 22:02:37.03	27.91	3.06	-41.8	-54.6	3.8	1.49e+00	0	51	104	0	54	16439
2026-01-12 22:02:38.05	27.99	3.12	-41.9	-54.6	3.8	1.49e+00	0	52	104	0	54	16454
2026-01-12 22:02:39.06	28.07	3.17	-41.9	-54.6	3.8	1.49e+00	0	52	104	0	54	16391
2026-01-12 22:02:40.07	28.16	3.23	-41.8	-54.6	3.8	1.49e+00	0	52	104	0	54	16420
2026-01-12 22:02:41.08	28.24	3.28	-41.8	-54.6	3.8	1.49e+00	0	52	104	0	54	16403
2026-01-12 22:02:42.09	28.32	3.34	-41.8	-54.6	3.8	1.49e+00	0	52	104	0	54	16403
2026-01-12 22:02:43.10	28.41	3.39	-41.9	-54.6	3.8	1.49e+00	0	52	104	0	54	16415
2026-01-12 22:02:44.11	28.49	3.45	-41.9	-54.6	3.8	1.49e+00	0	52	104	0	54	16434
2026-01-12 22:02:45.11	28.58	3.50	-41.9	-54.6	3.8	1.49e+00	0	52	104	0	54	16446
2026-01-12 22:02:46.13	28.66	3.56	-41.9	-54.6	3.8	1.49e+00	0	52	104	0	54	16380
2026-01-12 22:02:47.14	28.75	3.61	-41.9	-54.6	3.8	1.49e+00	0	53	104	0	54	16426
2026-01-12 22:02:48.15	28.83	3.67	-41.8	-54.6	3.8	1.49e+00	0	52	104	0	54	16417
2026-01-12 22:02:49.16	28.92	3.72	-41.9	-54.6	3.8	1.49e+00	0	52	104	0	54	16406
2026-01-12 22:02:50.17	29.01	3.78	-41.8	-54.6	3.8	1.49e+00	0	53	104	0	54	16390
2026-01-12 22:02:51.18	29.09	3.83	-41.8	-54.6	3.8	1.49e+00	0	53	104	0	54	16435
2026-01-12 22:02:52.19	29.18	3.89	-41.9	-54.6	3.8	1.49e+00	0	53	104	0	54	16394
2026-01-12 22:02:53.20	29.27	3.94	-41.9	-54.6	3.8	1.49e+00	0	53	104	0	54	16448
2026-01-12 22:02:54.21	29.36	4.00	-41.9	-54.6	3.8	1.49e+00	0	53	104	0	54	16445
2026-01-12 22:02:55.22	29.44	4.05	-41.9	-54.6	3.8	1.49e+00	0	53	104	0	54	16382
2026-01-12 22:02:56.23	29.53	4.11	-41.9	-54.6	3.8	1.49e+00	0	53	104	0	54	16388
2026-01-12 22:02:57.24	29.62	4.16	-41.8	-54.6	3.8	1.49e+00	0	53	104	0	54	16402
2026-01-12 22:02:58.25	29.71	4.22	-41.8	-54.6	3.8	1.49e+00	0	53	104	0	54	16497
2026-01-12 22:02:59.26	29.80	4.28	-41.9	-54.6	3.8	1.49e+00	0	53	104	0	54	16386
2026-01-12 22:03:00.27	29.89	4.33	-41.8	-54.6	3.8	1.49e+00	0	53	104	0	54	16388
2026-01-12 22:03:01.28	29.98	4.39	-41.9	-54.6	3.8	1.49e+00	0	53	104	0	54	16424
2026-01-12 22:03:02.29	30.07	4.44	-41.8	-54.6	3.8	1.49e+00	0	53	104	0	54	16403
2026-01-12 22:03:03.30	30.16	4.50	-41.9	-54.6	3.8	1.49e+00	0	53	104	0	54	16414
2026-01-12 22:03:04.31	30.25	4.56	-41.9	-54.6	3.8	1.49e+00	0	53	104	0	54	16356
2026-01-12 22:03:05.32	30.34	4.61	-41.9	-54.6	3.8	1.49e+00	0	53	104	0	54	16430
2026-01-12 22:03:06.34	30.44	4.67	-41.9	-54.6	3.8	1.49e+00	0	54	104	0	54	16393
2026-01-12 22:03:07.34	30.53	4.72	-41.9	-54.6	3.8	1.49e+00	0	54	104	0	54	16426
2026-01-12 22:03:08.36	30.62	4.78	-41.9	-54.6	3.8	1.49e+00	0	53	104	0	54	16395
2026-01-12 22:03:09.37	30.71	4.84	-41.9	-54.6	3.8	1.49e+00	0	54	104	0	54	16389
2026-01-12 22:03:10.38	30.81	4.89	-41.8	-54.6	3.8	1.49e+00	0	54	104	0	54	16411
2026-01-12 22:03:11.39	30.90	4.95	-41.8	-54.6	3.8	1.49e+00	0	54	104	0	54	16364
2026-01-12 22:03:12.40	30.99	5.01	-41.8	-54.6	3.8	1.49e+00	0	54	104	0	54	16426
2026-01-12 22:03:13.41	31.09	5.06	-41.9	-54.6	3.8	1.49e+00	0	54	104	0	54	16424
2026-01-12 22:03:14.42	31.18	5.12	-41.9	-54.6	3.8	1.49e+00	0	54	104	0	54	16430
2026-01-12 22:03:15.43	31.27	5.18	-41.8	-54.6	3.8	1.49e+00	0	54	104	0	54	16408
2026-01-12 22:03:16.44	31.37	5.23	-41.9	-54.6	3.8	1.49e+00	0	54	104	0	54	16419
2026-01-12 22:03:17.46	31.47	5.29	-41.9	-54.6	3.8	1.49e+00	0	54	104	0	54	16402
2026-01-12 22:03:18.47	31.56	5.35	-41.9	-54.6	3.8	1.49e+00	0	54	104	0	54	16429
2026-01-12 22:03:19.47	31.66	5.40	-41.9	-54.6	3.8	1.49e+00	0	54	104	0	54	16419
2026-01-12 22:03:20.49	31.75	5.46	-41.9	-54.6	3.8	1.49e+00	0	54	104	0	54	16446
2026-01-12 22:03:21.50	31.85	5.52	-41.9	-54.6	3.8	1.49e+00	0	54	104	0	54	16446
2026-01-12 22:03:22.51	31.95	5.57	-41.9	-54.6	3.8	1.49e+00	0	54	104	0	54	16385
2026-01-12 22:03:23.52	32.05	5.63	-41.8	-54.6	3.8	1.49e+00	0	54	104	0	54	16406
2026-01-12 22:03:24.53	32.14	5.69	-41.9	-54.6	3.8	1.49e+00	0	54	104	0	54	16437
2026-01-12 22:03:25.54	32.24	5.75	-41.9	-54.6	3.8	1.49e+00	0	54	104	0	54	16381
2026-01-12 22:03:26.55	32.34	5.80	-41.9	-54.6	3.8	1.49e+00	0	54	104	0	54	16417
2026-01-12 22:03:27.56	32.44	5.86	-41.9	-54.6	3.8	1.49e+00	0	54	104	0	54	16403
2026-01-12 22:03:28.57	32.54	5.92	-41.8	-54.6	3.8	1.49e+00	0	55	104	0	54	16383
2026-01-12 22:03:29.58	32.64	5.98	-41.9	-54.6	3.8	1.49e+00	0	54	104	0	54	16432
2026-01-12 22:03:30.59	32.74	6.03	-41.9	-54.6	3.8	1.49e+00	0	55	104	0	54	16395
2026-01-12 22:03:31.60	32.84	6.09	-41.9	-54.6	3.8	1.49e+00	0	55	104	0	54	16416
2026-01-12 22:03:32.61	32.94	6.15	-41.9	-54.6	3.8	1.49e+00	0	55	104	0	54	16379
2026-01-12 22:03:33.62	33.04	6.21	-41.9	-54.6	3.8	1.49e+00	0	55	104	0	54	16445
2026-01-12 22:03:34.63	33.14	6.26	-41.9	-54.6	3.8	1.49e+00	0	55	104	0	54	16392
2026-01-12 22:03:35.64	33.25	6.32	-41.8	-54.6	3.8	1.49e+00	0	55	104	0	54	16341
2026-01-12 22:03:36.65	33.35	6.38	-41.9	-54.6	3.8	1.49e+00	0	55	104	0	54	16373
2026-01-12 22:03:37.66	33.45	6.44	-41.9	-54.6	3.8	1.49e+00	0	55	104	0	54	16363
2026-01-12 22:03:38.68	33.55	6.50	-41.8	-54.6	3.8	1.49e+00	0	55	104	0	54	16328
2026-01-12 22:03:39.69	33.66	6.55	-41.8	-54.5	3.8	1.49e+00	0	55	104	0	54	16223
2026-01-12 22:03:40.70	33.76	6.61	-41.8	-54.4	3.8	1.49e+00	0	55	104	0	54	16071
2026-01-12 22:03:41.71	33.87	6.67	-41.8	-54.5	3.8	1.49e+00	0	55	104	0	54	16154
2026-01-12 22:03:42.72	33.97	6.73	-41.8	-54.5	3.8	1.49e+00	0	55	104	0	54	16227
2026-01-12 22:03:43.73	34.08	6.79	-41.9	-54.6	3.8	1.49e+00	0	55	104	0	54	16328
2026-01-12 22:03:44.74	34.18	6.84	-41.9	-54.6	3.8	1.49e+00	0	55	104	0	54	16364
2026-01-12 22:03:45.75	34.29	6.90	-41.9	-54.6	3.8	1.49e+00	0	55	104	0	54	16407
2026-01-12 22:03:46.76	34.39	6.96	-41.9	-54.6	3.8	1.49e+00	0	55	104	0	54	16375
2026-01-12 22:03:47.77	34.50	7.02	-41.9	-54.5	3.8	1.49e+00	0	55	104	0	54	16158
2026-01-12 22:03:48.78	34.61	7.08	-41.9	-54.4	3.8	1.49e+00	0	55	104	0	54	15987
2026-01-12 22:03:49.79	34.72	7.14	-41.9	-54.3	3.8	1.49e+00	0	55	104	0	54	15889
2026-01-12 22:03:50.80	34.82	7.20	-41.8	-54.3	3.8	1.49e+00	0	55	104	0	54	15887
2026-01-12 22:03:51.81	34.93	7.25	-41.8	-54.6	3.8	1.49e+00	0	56	104	0	54	16341
2026-01-12 22:03:52.82	35.04	7.31	-41.9	-54.5	3.8	1.49e+00	0	55	104	0	54	16128
2026-01-12 22:03:53.83	35.15	7.37	-41.9	-54.5	3.8	1.49e+00	0	56	104	0	54	16241
2026-01-12 22:03:54.84	35.26	7.43	-41.8	-54.6	3.8	1.49e+00	0	56	104	0	54	16352
2026-01-12 22:03:55.85	35.37	7.49	-41.9	-54.6	3.8	1.49e+00	0	56	104	0	54	16410
2026-01-12 22:03:56.86	35.48	7.55	-41.9	-54.6	3.8	1.49e+00	0	56	104	0	54	16372
2026-01-12 22:03:57.87	35.59	7.61	-41.9	-54.5	3.8	1.49e+00	0	56	104	0	54	16186
2026-01-12 22:03:58.88	35.70	7.67	-41.8	-54.5	3.8	1.49e+00	0	56	104	0	54	16169
2026-01-12 22:03:59.89	35.82	7.73	-41.8	-53.9	3.8	1.49e+00	0	56	104	0	54	15105
2026-01-12 22:04:00.90	35.93	7.78	-41.7	-53.1	3.8	1.49e+00	0	56	104	0	54	13822
2026-01-12 22:04:01.91	36.04	7.84	-41.7	-52.9	3.8	1.49e+00	0	56	104	0	54	13419
2026-01-12 22:04:02.92	36.15	7.90	-41.6	-51.9	4.0	1.48e+00	0	56	104	0	54	11959
2026-01-12 22:04:03.93	36.27	7.96	-41.4	-50.5	4.3	1.47e+00	0	56	104	0	54	10227
2026-01-12 22:04:04.94	36.38	8.02	-41.2	-49.1	5.0	8.29e-01	0	56	0	0	54	8709
2026-01-12 22:04:05.95	36.50	8.08	-43.0	-54.0	3.8	1.39e+00	0	56	104	2097152	56	13612
2026-01-12 22:04:06.96	36.61	8.14	-42.4	-51.2	4.3	1.45e+00	0	56	104	2097152	56	9916
2026-01-12 22:04:07.97	36.73	8.20	-40.6	-46.9	6.3	7.86e-02	0	56	0	3145728	52	7620
2026-01-12 22:04:08.98	36.84	8.26	-41.0	-53.5	3.8	1.27e+00	0	56	104	5242880	52	16208
2026-01-12 22:04:09.99	36.96	8.32	-42.1	-49.1	5.5	2.89e-02	0	56	0	6291456	54	8714
2026-01-12 22:04:11.00	37.07	8.38	-40.4	-44.8	8.9	2.93e-02	0	56	0	9437184	52	5970
2026-01-12 22:04:12.01	37.19	8.44	-40.7	-45.2	8.6	3.74e-02	0	56	0	12582912	52	6264
2026-01-12 22:04:13.02	37.31	8.50	-40.8	-45.4	8.4	6.21e-02	0	56	0	15728640	52	6390
2026-01-12 22:04:14.03	37.43	8.56	-40.7	-45.0	8.9	2.90e-02	0	56	0	18874368	52	6098
2026-01-12 22:04:15.04	37.55	8.62	-40.8	-45.2	8.7	3.09e-02	0	56	0	22020096	52	6230
2026-01-12 22:04:16.05	37.67	8.68	-40.8	-45.1	8.9	2.65e-02	0	56	0	25165824	52	6202
2026-01-12 22:04:17.06	37.78	8.74	-40.9	-45.4	8.6	3.60e-02	0	56	0	28311552	52	6360
2026-01-12 22:04:18.07	37.90	8.80	-40.9	-45.2	8.8	4.45e-02	0	56	0	31457280	52	6265
2026-01-12 22:04:19.08	38.03	8.86	-40.5	-44.5	9.6	1.64e-02	0	56	0	34603008	52	5732
2026-01-12 22:04:20.09	38.15	8.92	-40.5	-44.5	9.5	1.49e-02	0	56	0	37748736	52	5766
2026-01-12 22:04:21.10	38.27	8.98	-40.8	-45.0	9.1	2.15e-02	0	56	0	40894464	52	6086
2026-01-12 22:04:22.11	38.39	9.04	-40.6	-44.6	9.5	1.61e-02	0	56	0	44040192	52	5805
2026-01-12 22:04:23.12	38.51	9.10	-40.7	-44.7	9.5	1.33e-02	0	56	0	47185920	52	5857
2026-01-12 22:04:24.12	38.63	9.16	-40.7	-44.7	9.5	1.71e-02	0	57	0	50331648	52	5863
2026-01-12 22:04:25.13	38.76	9.22	-40.6	-44.4	9.8	1.04e-02	0	56	0	53477376	52	5702
2026-01-12 22:04:26.14	38.88	9.28	-40.8	-44.8	9.5	1.53e-02	0	56	0	56623104	52	5935
2026-01-12 22:04:27.15	39.01	9.34	-40.7	-44.5	9.8	1.07e-02	0	56	0	59768832	52	5727
2026-01-12 22:04:28.16	39.13	9.40	-40.8	-44.6	9.7	1.15e-02	0	56	0	62914560	52	5817
2026-01-12 22:04:29.17	39.26	9.46	-40.7	-44.5	9.9	8.33e-03	0	56	0	66060288	52	5746
2026-01-12 22:04:30.18	39.38	9.52	-40.9	-44.9	9.5	1.27e-02	0	56	0	69206016	52	6007
2026-01-12 22:04:31.20	39.51	9.58	-40.9	-44.8	9.6	1.28e-02	0	57	0	72351744	52	5952
2026-01-12 22:04:32.20	39.63	9.64	-40.8	-44.6	9.8	1.17e-02	0	57	0	75497472	52	5825
2026-01-12 22:04:33.21	39.76	9.70	-40.8	-44.6	9.8	8.92e-03	0	57	0	78643200	52	5814
2026-01-12 22:04:34.22	39.89	9.76	-40.7	-44.4	10.1	7.31e-03	0	57	0	81788928	52	5679
2026-01-12 22:04:35.24	40.02	9.82	-40.7	-44.3	10.2	7.62e-03	0	57	0	84934656	52	5621
2026-01-12 22:04:36.25	40.15	9.88	-40.7	-44.4	10.1	6.10e-03	0	57	0	88080384	52	5669
2026-01-12 22:04:37.26	40.28	9.94	-40.7	-44.3	10.2	6.72e-03	0	57	0	91226112	52	5651
2026-01-12 22:04:38.26	40.41	10.00	-40.8	-44.4	10.1	6.87e-03	0	57	0	94371840	52	5690
2026-01-12 22:04:39.27	40.54	10.06	-40.9	-44.6	10.0	7.23e-03	0	57	0	97517568	52	5795
2026-01-12 22:04:40.28	40.67	10.12	-40.9	-44.6	10.0	7.85e-03	0	57	0	100663296	52	5816
2026-01-12 22:04:41.29	40.80	10.18	-40.9	-44.6	9.9	9.63e-03	0	57	0	103809024	52	5851
2026-01-12 22:04:42.30	40.93	10.24	-40.9	-44.6	10.0	7.50e-03	0	57	0	106954752	52	5806
2026-01-12 22:04:43.32	41.07	10.30	-41.0	-44.8	9.8	9.78e-03	0	57	0	110100480	52	5953
2026-01-12 22:04:44.33	41.20	10.36	-41.0	-44.8	9.9	9.06e-03	0	57	0	113246208	52	5940
2026-01-12 22:04:45.34	41.33	10.42	-40.9	-44.6	10.0	8.29e-03	0	57	0	116391936	52	5829
2026-01-12 22:04:46.34	41.46	10.48	-40.9	-44.6	10.0	6.61e-03	0	57	0	119537664	52	5820
2026-01-12 22:04:47.35	41.60	10.54	-41.0	-44.6	10.0	8.28e-03	0	57	0	122683392	52	5849
2026-01-12 22:04:48.36	41.73	10.60	-40.9	-44.5	10.2	6.17e-03	0	57	0	125829120	52	5734
2026-01-12 22:04:49.37	41.87	10.66	-40.8	-44.2	10.5	4.49e-03	0	57	0	128974848	52	5582
2026-01-12 22:04:50.38	42.01	10.73	-40.7	-44.1	10.5	4.47e-03	0	57	0	132120576	52	5520
2026-01-12 22:04:51.39	42.14	10.79	-40.7	-44.2	10.5	3.73e-03	0	57	0	135266304	52	5539
2026-01-12 22:04:52.40	42.28	10.85	-40.7	-44.1	10.6	3.17e-03	0	57	0	138412032	52	5477
2026-01-12 22:04:53.41	42.42	10.91	-40.7	-44.1	10.7	2.88e-03	0	57	0	141557760	52	5478
2026-01-12 22:04:54.42	42.56	10.97	-40.7	-44.1	10.7	2.80e-03	0	57	0	144703488	52	5474
2026-01-12 22:04:55.43	42.70	11.03	-40.7	-44.1	10.7	2.70e-03	0	57	0	147849216	52	5469
2026-01-12 22:04:56.44	42.84	11.09	-40.7	-44.1	10.6	3.10e-03	0	57	0	150994944	52	5480
2026-01-12 22:04:57.45	42.98	11.15	-40.7	-44.1	10.7	3.30e-03	0	57	0	154140672	52	5501
2026-01-12 22:04:58.46	43.12	11.21	-40.8	-44.2	10.6	3.47e-03	0	57	0	157286400	52	5567
2026-01-12 22:04:59.47	43.26	11.27	-40.8	-44.3	10.5	3.82e-03	0	57	0	160432128	52	5619
2026-01-12 22:05:00.48	43.40	11.33	-40.9	-44.4	10.4	4.18e-03	0	57	0	163577856	52	5657
2026-01-12 22:05:01.49	43.54	11.39	-40.8	-44.2	10.5	3.94e-03	0	57	0	166723584	52	5591
2026-01-12 22:05:02.49	43.68	11.45	-40.8	-44.2	10.7	3.07e-03	0	57	0	169869312	52	5559
2026-01-12 22:05:03.51	43.83	11.51	-40.7	-44.0	10.8	2.47e-03	0	57	0	173015040	52	5454
2026-01-12 22:05:04.52	43.97	11.57	-40.6	-43.8	11.0	2.03e-03	0	57	0	176160768	52	5325
2026-01-12 22:05:05.53	44.12	11.64	-40.7	-43.9	10.9	2.09e-03	0	57	0	179306496	52	5383
2026-01-12 22:05:06.54	44.26	11.70	-40.8	-44.1	10.7	2.56e-03	0	57	0	182452224	52	5505
2026-01-12 22:05:07.55	44.41	11.76	-40.7	-44.0	10.9	2.39e-03	0	57	0	185597952	52	5422
2026-01-12 22:05:08.56	44.56	11.82	-40.8	-44.1	10.8	2.32e-03	0	57	0	188743680	52	5500
2026-01-12 22:05:09.57	44.70	11.88	-40.7	-44.0	10.9	2.29e-03	0	57	0	191889408	52	5441
2026-01-12 22:05:10.58	44.85	11.94	-40.8	-44.0	10.8	2.53e-03	0	57	0	195035136	52	5455
2026-01-12 22:05:11.59	45.00	12.00	-40.8	-44.1	10.8	2.37e-03	0	57	0	198180864	52	5498
2026-01-12 22:05:12.59	45.15	12.06	-40.8	-44.1	10.8	2.42e-03	0	57	0	201326592	52	5518
2026-01-12 22:05:13.60	45.30	12.12	-40.7	-43.9	11.0	1.87e-03	0	57	0	204472320	52	5389
2026-01-12 22:05:14.61	45.45	12.18	-40.8	-44.0	10.9	1.93e-03	0	57	0	207618048	52	5432
2026-01-12 22:05:15.63	45.60	12.24	-40.7	-43.9	11.0	1.77e-03	0	57	0	210763776	52	5363
2026-01-12 22:05:16.64	45.75	12.30	-40.6	-43.8	11.1	1.74e-03	0	58	0	213909504	52	5307
2026-01-12 22:05:17.65	45.90	12.36	-40.6	-43.7	11.2	1.29e-03	0	57	0	217055232	52	5272
2026-01-12 22:05:18.66	46.05	12.42	-40.7	-44.0	11.0	1.66e-03	0	58	0	220200960	52	5407
2026-01-12 22:05:19.67	46.21	12.48	-40.7	-43.8	11.2	1.37e-03	0	58	0	223346688	52	5295
2026-01-12 22:05:20.68	46.36	12.54	-40.7	-43.8	11.1	1.36e-03	0	58	0	226492416	52	5337
2026-01-12 22:05:21.69	46.51	12.60	-40.6	-43.8	11.2	1.37e-03	0	58	0	229638144	52	5293
2026-01-12 22:05:22.70	46.67	12.66	-40.7	-43.8	11.2	1.48e-03	0	58	0	232783872	52	5333
2026-01-12 22:05:23.71	46.82	12.72	-40.7	-43.9	11.1	1.57e-03	0	58	0	235929600	52	5389
2026-01-12 22:05:24.72	46.98	12.78	-40.7	-43.8	11.1	1.65e-03	0	58	0	239075328	52	5336
2026-01-12 22:05:25.73	47.14	12.84	-40.7	-43.9	11.1	1.77e-03	0	58	0	242221056	52	5390
2026-01-12 22:05:26.74	47.29	12.90	-40.7	-43.8	11.2	1.24e-03	0	58	0	245366784	52	5324
2026-01-12 22:05:27.75	47.45	12.96	-40.7	-43.8	11.2	1.38e-03	0	58	0	248512512	52	5326
2026-01-12 22:05:28.76	47.61	13.02	-40.7	-43.8	11.2	1.31e-03	0	58	0	252706816	52	5314
2026-01-12 22:05:29.77	47.77	13.08	-40.7	-43.8	11.2	1.40e-03	0	58	0	254803968	52	5333
2026-01-12 22:05:30.78	47.93	13.14	-40.6	-43.7	11.4	1.15e-03	0	58	0	257949696	52	5249
2026-01-12 22:05:31.79	48.09	13.20	-40.7	-43.8	11.2	1.36e-03	0	58	0	261095424	52	5319
2026-01-12 22:05:32.80	48.25	13.26	-40.7	-43.8	11.3	1.26e-03	0	58	0	264241152	52	5305
2026-01-12 22:05:33.81	48.41	13.32	-40.7	-43.9	11.2	1.48e-03	0	58	0	268435456	52	5343
2026-01-12 22:05:34.82	48.58	13.38	-40.7	-43.8	11.2	1.27e-03	0	58	0	271581184	52	5329
2026-01-12 22:05:35.83	48.74	13.44	-40.6	-43.7	11.4	1.06e-03	0	58	0	274726912	52	5262
2026-01-12 22:05:36.84	48.90	13.50	-40.6	-43.7	11.4	1.05e-03	0	58	0	277872640	52	5233
2026-01-12 22:05:37.85	49.07	13.56	-40.5	-43.5	11.6	7.74e-04	0	58	0	279969792	52	5139
2026-01-12 22:05:38.86	49.23	13.62	-40.6	-43.6	11.5	7.50e-04	0	58	0	284164096	52	5196
2026-01-12 22:05:39.87	49.40	13.68	-40.6	-43.7	11.4	9.71e-04	0	58	0	287309824	52	5250
2026-01-12 22:05:40.88	49.56	13.74	-40.6	-43.7	11.4	1.15e-03	0	58	0	290455552	52	5229
2026-01-12 22:05:41.89	49.73	13.80	-40.5	-43.5	11.7	6.74e-04	0	58	0	293601280	52	5116
2026-01-12 22:05:42.90	49.90	13.86	-40.6	-43.6	11.5	6.74e-04	0	58	0	296747008	52	5165
2026-01-12 22:05:43.91	50.07	13.92	-40.5	-43.4	11.7	5.52e-04	0	58	0	299892736	52	5085
2026-01-12 22:05:44.92	50.24	13.97	-40.5	-43.5	11.6	6.47e-04	0	58	0	303038464	52	5124
2026-01-12 22:05:45.93	50.40	14.03	-40.5	-43.5	11.6	6.87e-04	0	58	0	306184192	52	5127
2026-01-12 22:05:46.94	50.58	14.09	-40.6	-43.6	11.6	6.95e-04	0	58	0	309329920	52	5163
2026-01-12 22:05:47.96	50.75	14.15	-40.6	-43.6	11.5	7.94e-04	0	58	0	312475648	52	5196
2026-01-12 22:05:48.96	50.92	14.21	-40.7	-43.7	11.4	9.09e-04	0	58	0	315621376	52	5267
2026-01-12 22:05:49.97	51.09	14.27	-40.7	-43.8	11.3	1.02e-03	0	58	0	318767104	52	5322
2026-01-12 22:05:50.98	51.26	14.33	-40.7	-43.8	11.3	1.12e-03	0	58	0	321912832	52	5332
2026-01-12 22:05:51.99	51.44	14.38	-40.7	-43.7	11.4	9.27e-04	0	58	0	325058560	52	5250
2026-01-12 22:05:53.01	51.61	14.44	-40.6	-43.7	11.5	7.95e-04	0	58	0	328204288	52	5220
2026-01-12 22:05:54.02	51.79	14.50	-40.7	-43.7	11.4	8.11e-04	0	58	0	331350016	52	5255
2026-01-12 22:05:55.03	51.96	14.56	-40.7	-43.7	11.4	8.75e-04	0	58	0	334495744	52	5266
2026-01-12 22:05:56.04	52.14	14.62	-40.7	-43.8	11.3	1.12e-03	0	58	0	337641472	52	5328
2026-01-12 22:05:57.05	52.31	14.68	-40.7	-43.8	11.4	1.09e-03	0	58	0	340787200	52	5297
2026-01-12 22:05:58.06	52.49	14.73	-40.7	-43.8	11.4	1.06e-03	0	58	0	343932928	52	5286
2026-01-12 22:05:59.07	52.67	14.79	-40.7	-43.7	11.4	9.47e-04	0	58	0	347078656	52	5273
2026-01-12 22:06:00.08	52.85	14.85	-40.8	-43.9	11.3	1.03e-03	0	58	0	350224384	52	5342
2026-01-12 22:06:01.09	53.03	14.91	-40.7	-43.7	11.5	8.82e-04	0	58	0	353370112	52	5223
2026-01-12 22:06:02.10	53.21	14.96	-40.6	-43.5	11.6	6.87e-04	0	58	0	356515840	52	5158
2026-01-12 22:06:03.11	53.39	15.02	-40.6	-43.6	11.6	6.47e-04	0	58	0	359661568	52	5165
2026-01-12 22:06:04.12	53.57	15.08	-40.6	-43.5	11.7	6.46e-04	0	58	0	362807296	52	5139
2026-01-12 22:06:05.13	53.75	15.13	-40.6	-43.6	11.6	6.35e-04	0	58	0	365953024	52	5161
2026-01-12 22:06:06.14	53.94	15.19	-40.5	-43.4	11.7	5.46e-04	0	58	0	369098752	52	5093
2026-01-12 22:06:07.15	54.12	15.25	-40.6	-43.5	11.7	5.69e-04	0	58	0	372244480	52	5147
2026-01-12 22:06:08.16	54.30	15.30	-40.7	-43.7	11.6	7.16e-04	0	58	0	375390208	52	5224
2026-01-12 22:06:09.17	54.49	15.36	-40.6	-43.5	11.7	6.55e-04	0	58	0	378535936	52	5155
2026-01-12 22:06:10.18	54.67	15.41	-40.6	-43.6	11.7	5.88e-04	0	58	0	381681664	52	5178
2026-01-12 22:06:11.19	54.86	15.47	-40.7	-43.8	11.4	8.40e-04	0	58	0	384827392	52	5306
2026-01-12 22:06:12.20	55.05	15.53	-40.8	-43.9	11.3	1.07e-03	0	58	0	387973120	52	5380
2026-01-12 22:06:13.21	55.24	15.58	-40.8	-43.9	11.3	1.11e-03	0	58	0	391118848	52	5385
2026-01-12 22:06:14.22	55.42	15.64	-40.7	-43.7	11.5	9.26e-04	0	58	0	394264576	52	5263
2026-01-12 22:06:15.23	55.61	15.69	-40.6	-43.6	11.6	7.51e-04	0	58	0	397410304	52	5172
2026-01-12 22:06:16.24	55.80	15.75	-40.6	-43.5	11.7	5.39e-04	0	58	0	400556032	52	5150
2026-01-12 22:06:17.25	55.99	15.80	-40.5	-43.4	11.8	5.03e-04	0	58	0	403701760	52	5072
2026-01-12 22:06:18.26	56.18	15.86	-40.6	-43.5	11.8	4.97e-04	0	58	0	406847488	52	5123
2026-01-12 22:06:19.27	56.38	15.91	-40.6	-43.6	11.7	5.37e-04	0	58	0	409993216	52	5166
2026-01-12 22:06:20.28	56.57	15.97	-40.5	-43.4	11.8	6.01e-04	0	58	0	413138944	52	5094
2026-01-12 22:06:21.29	56.76	16.02	-40.5	-43.4	11.8	5.42e-04	0	58	0	416284672	52	5070
2026-01-12 22:06:22.30	56.96	16.07	-40.5	-43.4	11.8	5.10e-04	0	58	0	419430400	52	5071
2026-01-12 22:06:23.31	57.15	16.13	-40.6	-43.5	11.7	4.52e-04	0	58	0	422576128	52	5118
2026-01-12 22:06:24.32	57.34	16.18	-40.5	-43.5	11.8	5.42e-04	0	58	0	425721856	52	5114
2026-01-12 22:06:25.33	57.54	16.24	-40.5	-43.5	11.8	5.41e-04	0	59	0	428867584	52	5116
2026-01-12 22:06:26.34	57.74	16.29	-40.6	-43.6	11.6	5.83e-04	0	59	0	432013312	52	5208
2026-01-12 22:06:27.35	57.93	16.34	-40.4	-43.3	11.9	4.74e-04	0	58	0	435159040	52	5028
2026-01-12 22:06:28.36	58.13	16.40	-40.6	-43.5	11.7	5.66e-04	0	58	0	438304768	52	5141
2026-01-12 22:06:29.37	58.33	16.45	-40.6	-43.5	11.7	5.55e-04	0	58	0	441450496	52	5143
2026-01-12 22:06:30.38	58.53	16.50	-40.5	-43.4	11.8	5.35e-04	0	58	0	444596224	52	5091
2026-01-12 22:06:31.39	58.73	16.55	-40.4	-43.2	12.0	3.10e-04	0	58	0	447741952	52	4949
2026-01-12 22:06:32.40	58.93	16.60	-40.4	-43.2	12.0	3.15e-04	0	58	0	450887680	52	4965
2026-01-12 22:06:33.41	59.13	16.66	-40.4	-43.2	12.0	3.39e-04	0	58	0	454033408	52	4947
2026-01-12 22:06:34.42	59.33	16.71	-40.3	-43.0	12.2	2.28e-04	0	58	0	457179136	52	4867
2026-01-12 22:06:35.43	59.54	16.76	-40.4	-43.2	12.0	2.51e-04	0	58	0	460324864	52	4966
2026-01-12 22:06:36.44	59.74	16.81	-40.4	-43.2	12.0	3.18e-04	0	58	0	463470592	52	4974
2026-01-12 22:06:37.45	59.94	16.86	-40.3	-43.1	12.1	2.78e-04	0	59	0	466616320	52	4914
2026-01-12 22:06:38.46	60.15	16.91	-40.4	-43.2	12.0	3.34e-04	0	58	0	469762048	52	4979
2026-01-12 22:06:39.47	60.35	16.96	-40.4	-43.3	12.0	3.54e-04	0	59	0	472907776	52	4996
2026-01-12 22:06:40.48	60.56	17.01	-40.3	-43.1	12.1	3.21e-04	0	58	0	476053504	52	4921
2026-01-12 22:06:41.49	60.77	17.06	-40.3	-43.1	12.2	2.04e-04	0	59	0	479199232	52	4877
2026-01-12 22:06:42.50	60.97	17.11	-40.2	-43.0	12.3	2.07e-04	0	58	0	482344960	52	4835
2026-01-12 22:06:43.51	61.18	17.16	-40.3	-43.0	12.2	2.18e-04	0	59	0	485490688	52	4842
2026-01-12 22:06:44.53	61.39	17.21	-40.2	-43.0	12.3	2.10e-04	0	59	0	488636416	52	4824
2026-01-12 22:06:45.54	61.60	17.26	-40.2	-42.9	12.3	1.94e-04	0	59	0	491782144	52	4799
2026-01-12 22:06:46.54	61.81	17.31	-40.2	-42.9	12.3	1.65e-04	0	59	0	494927872	52	4780
2026-01-12 22:06:47.55	62.02	17.36	-40.1	-42.8	12.4	1.56e-04	0	59	0	498073600	52	4734
2026-01-12 22:06:48.56	62.23	17.40	-40.2	-42.9	12.3	1.51e-04	0	59	0	501219328	52	4763
2026-01-12 22:06:49.58	62.45	17.45	-40.2	-43.0	12.3	1.79e-04	0	59	0	504365056	52	4818
2026-01-12 22:06:50.59	62.66	17.50	-40.1	-42.8	12.4	1.69e-04	0	58	0	507510784	52	4748
2026-01-12 22:06:51.59	62.87	17.55	-40.2	-42.9	12.3	1.69e-04	0	59	0	510656512	52	4771
2026-01-12 22:06:52.60	63.08	17.59	-40.2	-42.9	12.3	2.00e-04	0	59	0	513802240	52	4805
2026-01-12 22:06:53.61	63.30	17.64	-40.1	-42.8	12.4	1.34e-04	0	59	0	516947968	52	4745
2026-01-12 22:06:54.62	63.51	17.69	-40.1	-42.8	12.4	1.43e-04	0	58	0	520093696	52	4715
2026-01-12 22:06:55.63	63.73	17.73	-40.1	-42.8	12.4	1.72e-04	0	59	0	523239424	52	4735
2026-01-12 22:06:56.64	63.95	17.78	-40.1	-42.8	12.4	1.55e-04	0	58	0	526385152	52	4713
2026-01-12 22:06:57.65	64.16	17.82	-40.0	-42.7	12.5	1.23e-04	0	59	0	529530880	52	4672
2026-01-12 22:06:58.66	64.38	17.87	-40.0	-42.6	12.6	9.15e-05	0	58	0	532676608	51	4924
2026-01-12 22:06:59.67	64.60	17.91	-40.1	-42.7	12.6	8.92e-05	0	59	0	535822336	51	4933
2026-01-12 22:07:00.68	64.82	17.96	-40.1	-42.7	12.6	1.13e-04	0	59	0	538968064	51	4958
2026-01-12 22:07:01.69	65.04	18.00	-40.1	-42.7	12.5	1.07e-04	0	59	0	542113792	51	4948
2026-01-12 22:07:02.70	65.26	18.05	-40.0	-42.6	12.7	7.17e-05	0	59	0	545259520	51	4872
2026-01-12 22:07:03.71	65.48	18.09	-40.0	-42.7	12.5	1.12e-04	0	59	0	548405248	51	4953
2026-01-12 22:07:04.72	65.70	18.13	-40.0	-42.7	12.5	1.48e-04	0	59	0	551550976	51	4947
2026-01-12 22:07:05.73	65.93	18.18	-40.1	-42.7	12.4	1.30e-04	0	58	0	554696704	51	4965
2026-01-12 22:07:06.74	66.15	18.22	-40.0	-42.7	12.4	1.50e-04	0	59	0	557842432	51	4947
2026-01-12 22:07:07.75	66.37	18.26	-39.9	-42.5	12.5	9.91e-05	0	59	0	560988160	51	4867
2026-01-12 22:07:08.76	66.60	18.30	-39.9	-42.6	12.4	1.31e-04	0	59	0	565182464	51	4895
2026-01-12 22:07:09.77	66.82	18.34	-39.9	-42.6	12.3	1.73e-04	0	59	0	568328192	51	4915
2026-01-12 22:07:10.78	67.05	18.38	-39.9	-42.6	12.4	1.52e-04	0	58	0	570425344	51	4886
2026-01-12 22:07:11.79	67.27	18.42	-40.0	-42.8	12.1	2.86e-04	0	59	0	573571072	51	5003
2026-01-12 22:07:12.80	67.50	18.46	-40.0	-42.8	12.0	2.90e-04	0	59	0	576716800	51	4995
2026-01-12 22:07:13.81	67.73	18.50	-39.9	-42.7	12.1	3.07e-04	0	59	0	580911104	51	4932
2026-01-12 22:07:14.82	67.95	18.54	-40.0	-42.8	11.8	3.73e-04	0	59	0	584056832	51	5033
2026-01-12 22:07:15.83	68.18	18.58	-39.9	-42.8	11.8	4.97e-04	0	59	0	587202560	51	5020
2026-01-12 22:07:16.84	68.41	18.62	-39.9	-42.8	11.7	5.32e-04	0	59	0	590348288	51	5011
2026-01-12 22:07:17.85	68.64	18.66	-39.9	-42.9	11.6	6.55e-04	0	59	0	593494016	51	5048
2026-01-12 22:07:18.86	68.87	18.70	-39.9	-42.9	11.5	7.53e-04	0	59	0	596639744	51	5099
2026-01-12 22:07:19.87	69.10	18.74	-40.0	-43.1	11.3	1.09e-03	0	59	0	599785472	51	5174
2026-01-12 22:07:20.88	69.33	18.77	-40.1	-43.3	11.0	1.63e-03	0	59	0	602931200	51	5327
2026-01-12 22:07:21.89	69.56	18.81	-40.1	-43.5	10.8	2.47e-03	0	59	0	606076928	51	5414
2026-01-12 22:07:22.90	69.80	18.85	-40.1	-43.5	10.7	3.01e-03	0	59	0	609222656	51	5436
2026-01-12 22:07:23.91	70.03	18.88	-40.1	-43.4	10.8	2.35e-03	0	59	0	612368384	51	5401
2026-01-12 22:07:24.92	70.26	18.92	-40.1	-43.5	10.6	3.17e-03	0	59	0	615514112	51	5461
2026-01-12 22:07:25.93	70.50	18.95	-40.2	-43.8	10.4	4.30e-03	0	59	0	618659840	51	5594
2026-01-12 22:07:26.94	70.73	18.99	-40.2	-43.9	10.2	5.92e-03	0	59	0	621805568	51	5665
2026-01-12 22:07:27.95	70.97	19.02	-40.4	-44.1	9.8	8.37e-03	0	58	0	624951296	51	5855
2026-01-12 22:07:28.97	71.20	19.06	-40.4	-44.2	9.7	1.10e-02	0	59	0	628097024	51	5922
2026-01-12 22:07:29.97	71.44	19.09	-40.4	-44.4	9.5	1.40e-02	0	59	0	631242752	51	6021
2026-01-12 22:07:30.98	71.67	19.12	-40.4	-44.4	9.5	1.50e-02	0	59	0	634388480	51	5997
2026-01-12 22:07:31.99	71.91	19.16	-40.3	-44.2	9.7	1.24e-02	0	59	0	637534208	51	5884
2026-01-12 22:07:33.00	72.15	19.19	-40.3	-44.3	9.6	1.32e-02	0	59	0	640679936	51	5929
2026-01-12 22:07:34.01	72.39	19.22	-40.3	-44.3	9.5	1.37e-02	0	59	0	643825664	51	5957
2026-01-12 22:07:35.02	72.62	19.25	-40.4	-44.4	9.4	1.54e-02	0	59	0	646971392	51	6046
2026-01-12 22:07:36.03	72.86	19.28	-40.4	-44.4	9.4	1.66e-02	0	59	0	650117120	51	6012
2026-01-12 22:07:37.04	73.10	19.31	-40.3	-44.2	9.6	1.29e-02	0	59	0	653262848	51	5915
2026-01-12 22:07:38.05	73.34	19.34	-40.4	-44.2	9.7	1.23e-02	0	59	0	656408576	51	5917
2026-01-12 22:07:39.06	73.58	19.37	-40.4	-44.4	9.6	1.33e-02	0	59	0	659554304	51	6004
2026-01-12 22:07:40.07	73.82	19.40	-40.3	-44.1	9.7	1.07e-02	0	59	0	662700032	51	5821
2026-01-12 22:07:41.08	74.06	19.43	-40.1	-43.9	9.9	9.44e-03	0	59	0	665845760	51	5679
2026-01-12 22:07:42.09	74.31	19.46	-40.1	-43.9	9.9	9.11e-03	0	59	0	668991488	51	5675
2026-01-12 22:07:43.10	74.55	19.49	-40.0	-43.8	10.0	7.99e-03	0	59	0	672137216	51	5594
2026-01-12 22:07:44.11	74.79	19.51	-40.1	-43.9	9.9	8.93e-03	0	59	0	675282944	51	5713
2026-01-12 22:07:45.13	75.04	19.54	-40.2	-44.0	9.7	1.09e-02	0	59	0	678428672	51	5768
2026-01-12 22:07:46.14	75.28	19.57	-40.2	-44.1	9.7	1.10e-02	0	59	0	681574400	51	5817
2026-01-12 22:07:47.15	75.52	19.59	-40.2	-44.1	9.7	1.18e-02	0	59	0	684720128	51	5846
2026-01-12 22:07:48.16	75.77	19.62	-40.4	-44.4	9.4	1.38e-02	0	59	0	687865856	51	6014
2026-01-12 22:07:49.17	76.01	19.64	-40.4	-44.5	9.4	1.66e-02	0	59	0	691011584	51	6075
2026-01-12 22:07:50.18	76.26	19.67	-40.4	-44.4	9.5	1.65e-02	0	59	0	694157312	51	6015
2026-01-12 22:07:51.19	76.50	19.69	-40.4	-44.3	9.7	1.17e-02	0	59	0	697303040	51	5947
2026-01-12 22:07:52.20	76.75	19.71	-40.3	-44.1	9.9	9.53e-03	0	59	0	700448768	51	5826
2026-01-12 22:07:53.21	77.00	19.74	-40.2	-43.8	10.1	6.57e-03	0	59	0	703594496	51	5604
2026-01-12 22:07:54.22	77.24	19.76	-40.1	-43.8	10.2	6.37e-03	0	59	0	706740224	51	5605
2026-01-12 22:07:55.23	77.49	19.78	-40.2	-43.9	10.0	7.29e-03	0	59	0	709885952	51	5662
2026-01-12 22:07:56.24	77.74	19.80	-40.2	-43.9	10.0	8.30e-03	0	59	0	713031680	51	5686
2026-01-12 22:07:57.25	77.98	19.82	-40.2	-43.8	10.2	5.75e-03	0	59	0	716177408	51	5643
2026-01-12 22:07:58.26	78.23	19.84	-40.2	-43.8	10.4	4.79e-03	0	59	0	719323136	51	5605
2026-01-12 22:07:59.27	78.48	19.86	-40.3	-43.8	10.4	4.51e-03	0	59	0	722468864	51	5635
2026-01-12 22:08:00.27	78.73	19.88	-40.4	-44.0	10.2	5.57e-03	0	59	0	725614592	51	5766
2026-01-12 22:08:01.28	78.97	19.90	-40.4	-44.1	10.1	6.68e-03	0	59	0	728760320	51	5834
2026-01-12 22:08:02.29	79.22	19.92	-40.4	-44.0	10.1	6.71e-03	0	59	0	731906048	51	5773
2026-01-12 22:08:03.30	79.47	19.94	-40.4	-44.1	10.0	7.16e-03	0	59	0	735051776	51	5846
2026-01-12 22:08:04.31	79.72	19.95	-40.4	-44.2	9.9	8.28e-03	0	59	0	738197504	51	5884
2026-01-12 22:08:05.32	79.97	19.97	-40.4	-44.1	10.1	8.22e-03	0	59	0	741343232	51	5804
2026-01-12 22:08:06.33	80.22	19.99	-40.4	-44.0	10.3	5.65e-03	0	59	0	744488960	51	5749
2026-01-12 22:08:07.35	80.48	20.00	-40.3	-43.8	10.6	3.50e-03	0	59	0	747634688	51	5610
2026-01-12 22:08:08.35	80.72	20.02	-40.2	-43.6	10.8	2.49e-03	0	59	0	750780416	51	5468
2026-01-12 22:08:09.36	80.98	20.03	-40.1	-43.3	11.2	1.75e-03	0	59	0	753926144	51	5305
2026-01-12 22:08:10.36	81.22	20.05	-40.1	-43.3	11.1	1.50e-03	0	59	0	757071872	51	5330
2026-01-12 22:08:11.37	81.48	20.06	-40.1	-43.3	11.2	1.45e-03	0	59	0	760217600	51	5319
2026-01-12 22:08:12.38	81.73	20.07	-40.1	-43.4	11.1	1.63e-03	0	59	0	763363328	51	5344
2026-01-12 22:08:13.39	81.98	20.09	-40.1	-43.3	11.1	1.49e-03	0	59	0	766509056	51	5311
2026-01-12 22:08:14.40	82.23	20.10	-40.1	-43.2	11.2	1.44e-03	0	59	0	769654784	51	5279
2026-01-12 22:08:15.41	82.48	20.11	-40.1	-43.3	11.2	1.33e-03	0	59	0	772800512	51	5282
2026-01-12 22:08:16.42	82.74	20.12	-40.0	-43.0	11.5	9.95e-04	0	59	0	775946240	51	5129
2026-01-12 22:08:17.43	82.99	20.13	-39.9	-42.9	11.5	7.84e-04	0	59	0	779091968	51	5080
2026-01-12 22:08:18.44	83.24	20.14	-40.0	-42.9	11.5	7.74e-04	0	59	0	782237696	51	5094
2026-01-12 22:08:19.45	83.50	20.15	-40.0	-43.1	11.4	9.77e-04	0	59	0	785383424	51	5184
2026-01-12 22:08:20.46	83.75	20.16	-40.1	-43.2	11.2	1.32e-03	0	59	0	788529152	51	5258
2026-01-12 22:08:21.47	84.00	20.17	-40.1	-43.3	11.1	1.48e-03	0	59	0	791674880	51	5295
2026-01-12 22:08:22.48	84.26	20.17	-40.1	-43.3	11.0	1.82e-03	0	59	0	794820608	51	5323
2026-01-12 22:08:23.49	84.51	20.18	-40.0	-43.2	11.1	1.90e-03	0	59	0	797966336	51	5234
2026-01-12 22:08:24.50	84.76	20.19	-39.9	-43.1	11.2	1.33e-03	0	59	0	801112064	51	5164
2026-01-12 22:08:25.51	85.02	20.19	-40.0	-43.3	11.0	1.63e-03	0	59	0	804257792	51	5290
2026-01-12 22:08:26.52	85.27	20.20	-40.1	-43.4	10.8	2.47e-03	0	59	0	807403520	51	5392
2026-01-12 22:08:27.53	85.52	20.20	-40.1	-43.4	10.9	2.33e-03	0	59	0	810549248	51	5378
2026-01-12 22:08:28.54	85.78	20.21	-40.2	-43.5	10.8	2.20e-03	0	59	0	813694976	51	5418
2026-01-12 22:08:29.55	86.03	20.21	-40.2	-43.7	10.6	3.11e-03	0	59	0	816840704	51	5534
2026-01-12 22:08:30.56	86.29	20.21	-40.3	-43.7	10.4	4.23e-03	0	59	0	819986432	51	5591
2026-01-12 22:08:31.57	86.54	20.22	-40.3	-43.8	10.3	4.55e-03	0	59	0	823132160	51	5648
2026-01-12 22:08:32.58	86.79	20.22	-40.3	-43.9	10.3	5.09e-03	0	59	0	826277888	51	5670
2026-01-12 22:08:33.59	87.05	20.22	-40.4	-44.1	10.1	6.65e-03	0	59	0	829423616	51	5815
2026-01-12 22:08:34.60	87.30	20.22	-40.5	-44.2	10.0	7.49e-03	0	59	0	832569344	51	5871
2026-01-12 22:08:35.61	87.56	20.22	-40.5	-44.2	10.0	8.17e-03	0	59	0	835715072	51	5923
2026-01-12 22:08:36.62	87.81	20.22	-40.5	-44.0	10.3	6.33e-03	0	59	0	838860800	51	5775
2026-01-12 22:08:37.63	88.07	20.22	-40.4	-43.9	10.6	3.77e-03	0	59	0	842006528	51	5661
2026-01-12 22:08:38.64	88.32	20.22	-40.4	-43.8	10.7	3.16e-03	0	59	0	845152256	51	5623
2026-01-12 22:08:39.65	88.58	20.22	-40.4	-43.8	10.7	2.88e-03	0	59	0	848297984	51	5623
2026-01-12 22:08:40.66	88.83	20.21	-40.4	-43.8	10.7	3.14e-03	0	59	0	851443712	51	5638
2026-01-12 22:08:41.68	89.09	20.21	-40.3	-43.6	10.9	2.17e-03	0	59	0	854589440	51	5506
2026-01-12 22:08:42.68	89.34	20.21	-40.2	-43.4	11.3	1.43e-03	0	59	0	857735168	51	5353
2026-01-12 22:08:43.70	89.59	20.20	-40.2	-43.2	11.5	1.02e-03	0	59	0	861929472	51	5249
2026-01-12 22:08:44.71	89.85	20.20	-40.0	-43.0	11.8	5.91e-04	0	59	0	864026624	51	5114
2026-01-12 22:08:45.72	90.10	20.19	-40.0	-42.9	11.9	3.79e-04	0	59	0	867172352	51	5072
2026-01-12 22:08:46.72	90.35	20.19	-40.0	-42.9	12.0	3.84e-04	0	59	0	870318080	51	5049
2026-01-12 22:08:47.73	90.61	20.18	-39.9	-42.6	12.4	1.97e-04	0	59	0	873463808	51	4926
2026-01-12 22:08:48.74	90.86	20.17	-39.9	-42.6	12.4	1.40e-04	0	59	0	877658112	51	4905
2026-01-12 22:08:49.75	91.12	20.16	-39.9	-42.6	12.5	1.30e-04	0	59	0	880803840	51	4900
2026-01-12 22:08:50.76	91.37	20.16	-40.0	-42.6	12.5	1.60e-04	0	59	0	883949568	51	4906
2026-01-12 22:08:51.77	91.62	20.15	-40.0	-42.6	12.5	1.09e-04	0	59	0	887095296	51	4905
2026-01-12 22:08:52.78	91.88	20.14	-39.9	-42.5	12.6	1.05e-04	0	59	0	889192448	51	4865
2026-01-12 22:08:53.79	92.13	20.13	-40.0	-42.6	12.6	8.16e-05	0	59	0	893386752	51	4872
2026-01-12 22:08:54.81	92.38	20.12	-40.0	-42.6	12.7	6.48e-05	0	59	0	896532480	51	4873
2026-01-12 22:08:55.82	92.64	20.11	-40.0	-42.6	12.6	9.84e-05	0	59	0	899678208	51	4912
2026-01-12 22:08:56.83	92.89	20.10	-40.1	-42.7	12.6	1.04e-04	0	59	0	902823936	51	4934
2026-01-12 22:08:57.84	93.14	20.08	-40.1	-42.6	12.7	8.77e-05	0	59	0	905969664	51	4908
2026-01-12 22:08:58.85	93.39	20.07	-39.9	-42.4	12.9	4.80e-05	0	59	0	909115392	51	4814
2026-01-12 22:08:59.86	93.65	20.06	-39.8	-42.2	13.1	2.59e-05	0	59	0	912261120	51	4686
2026-01-12 22:09:00.87	93.90	20.05	-39.8	-42.2	13.2	1.83e-05	0	59	0	915406848	51	4663
2026-01-12 22:09:01.88	94.15	20.03	-39.8	-42.2	13.2	1.67e-05	0	59	0	918552576	51	4668
2026-01-12 22:09:02.89	94.40	20.02	-39.8	-42.2	13.2	2.67e-05	0	59	0	921698304	51	4692
2026-01-12 22:09:03.90	94.65	20.00	-39.8	-42.1	13.3	2.05e-05	0	59	0	924844032	51	4642
2026-01-12 22:09:04.91	94.90	19.99	-39.8	-42.2	13.2	1.60e-05	0	59	0	927989760	51	4682
2026-01-12 22:09:05.92	95.15	19.97	-39.8	-42.2	13.2	2.67e-05	0	59	0	931135488	51	4676
2026-01-12 22:09:06.93	95.40	19.95	-39.8	-42.2	13.3	2.13e-05	0	59	0	934281216	51	4679
2026-01-12 22:09:07.94	95.65	19.94	-39.8	-42.2	13.2	2.05e-05	0	59	0	937426944	51	4677
2026-01-12 22:09:08.95	95.90	19.92	-39.8	-42.2	13.2	1.83e-05	0	59	0	940572672	51	4705
2026-01-12 22:09:09.96	96.15	19.90	-39.8	-42.2	13.2	2.89e-05	0	59	0	943718400	51	4701
2026-01-12 22:09:10.97	96.40	19.88	-39.8	-42.2	13.2	2.59e-05	0	59	0	946864128	51	4693
2026-01-12 22:09:11.98	96.65	19.86	-39.8	-42.2	13.3	2.28e-05	0	59	0	950009856	51	4656
2026-01-12 22:09:12.99	96.90	19.84	-39.8	-42.1	13.3	1.52e-05	0	59	0	953155584	51	4649
2026-01-12 22:09:14.00	97.15	19.82	-39.7	-42.1	13.4	1.60e-05	0	59	0	956301312	51	4602
2026-01-12 22:09:15.01	97.40	19.80	-39.7	-42.0	13.5	9.10e-06	0	59	0	959447040	51	4570
2026-01-12 22:09:16.02	97.64	19.78	-39.7	-42.0	13.5	8.30e-06	0	59	0	962592768	51	4559
2026-01-12 22:09:17.03	97.89	19.76	-39.7	-42.0	13.5	1.06e-05	0	59	0	965738496	51	4573
2026-01-12 22:09:18.04	98.14	19.73	-39.7	-42.1	13.4	1.14e-05	0	59	0	968884224	51	4618
2026-01-12 22:09:19.05	98.39	19.71	-39.8	-42.1	13.4	9.90e-06	0	60	0	972029952	51	4614
2026-01-12 22:09:20.06	98.63	19.69	-39.7	-42.1	13.5	1.37e-05	0	59	0	975175680	51	4604
2026-01-12 22:09:21.07	98.88	19.66	-39.7	-42.0	13.4	9.90e-06	0	59	0	978321408	51	4589
2026-01-12 22:09:22.08	99.12	19.64	-39.7	-42.1	13.4	1.98e-05	0	60	0	981467136	51	4618
2026-01-12 22:09:23.09	99.37	19.61	-39.9	-42.3	13.2	2.13e-05	0	59	0	984612864	51	4706
2026-01-12 22:09:24.10	99.61	19.59	-39.9	-42.3	13.2	2.28e-05	0	59	0	987758592	51	4733
2026-01-12 22:09:25.11	99.86	19.56	-39.9	-42.4	13.1	2.21e-05	0	59	0	990904320	51	4781
2026-01-12 22:09:26.12	100.10	19.54	-40.0	-42.5	13.0	3.12e-05	0	59	0	994050048	51	4818
2026-01-12 22:09:27.14	100.35	19.51	-40.0	-42.5	13.0	3.73e-05	0	59	0	997195776	51	4836
2026-01-12 22:09:28.15	100.59	19.48	-40.0	-42.5	13.0	3.66e-05	0	60	0	1000341504	51	4834
2026-01-12 22:09:29.16	100.83	19.45	-39.9	-42.4	13.1	3.05e-05	0	59	0	1003487232	51	4768
2026-01-12 22:09:30.17	101.08	19.42	-39.9	-42.3	13.2	2.05e-05	0	60	0	1006632960	51	4711
2026-01-12 22:09:31.18	101.32	19.40	-39.9	-42.2	13.2	2.28e-05	0	59	0	1009778688	51	4700
2026-01-12 22:09:32.19	101.56	19.37	-39.9	-42.3	13.2	2.05e-05	0	59	0	1012924416	51	4720
2026-01-12 22:09:33.20	101.80	19.34	-39.9	-42.3	13.2	2.21e-05	0	59	0	1016070144	51	4726
2026-01-12 22:09:34.21	102.04	19.31	-39.9	-42.2	13.2	1.60e-05	0	59	0	1019215872	51	4703
2026-01-12 22:09:35.22	102.28	19.28	-39.8	-42.2	13.3	2.21e-05	0	60	0	1022361600	51	4687
2026-01-12 22:09:36.23	102.52	19.24	-39.8	-42.1	13.3	2.44e-05	0	59	0	1025507328	51	4640
2026-01-12 22:09:37.24	102.76	19.21	-39.8	-42.2	13.3	1.44e-05	0	59	0	1028653056	51	4675
2026-01-12 22:09:38.25	103.00	19.18	-39.9	-42.2	13.2	1.60e-05	0	60	0	1031798784	51	4704
2026-01-12 22:09:39.26	103.24	19.15	-39.9	-42.4	13.1	3.20e-05	0	59	0	1034944512	51	4776
2026-01-12 22:09:40.27	103.47	19.12	-39.9	-42.3	13.1	2.97e-05	0	59	0	1038090240	51	4739
2026-01-12 22:09:41.28	103.71	19.08	-39.9	-42.3	13.2	2.97e-05	0	59	0	1041235968	51	4714
2026-01-12 22:09:42.29	103.95	19.05	-39.8	-42.2	13.3	2.05e-05	0	59	0	1044381696	51	4673
2026-01-12 22:09:43.30	104.18	19.01	-39.8	-42.2	13.3	1.22e-05	0	59	0	1047527424	51	4676
2026-01-12 22:09:44.31	104.42	18.98	-39.8	-42.2	13.3	1.52e-05	0	59	0	1050673152	51	4652
2026-01-12 22:09:45.32	104.65	18.94	-39.8	-42.1	13.4	1.67e-05	0	60	0	1053818880	51	4633
2026-01-12 22:09:46.33	104.89	18.91	-39.8	-42.2	13.3	1.83e-05	0	59	0	1056964608	51	4652
2026-01-12 22:09:47.34	105.12	18.87	-39.8	-42.2	13.3	2.28e-05	0	59	0	1060110336	51	4673
2026-01-12 22:09:48.35	105.36	18.84	-39.8	-42.2	13.3	1.52e-05	0	59	0	1063256064	51	4674
2026-01-12 22:09:49.36	105.59	18.80	-39.8	-42.2	13.2	1.67e-05	0	60	0	1066401792	51	4697
2026-01-12 22:09:50.37	105.82	18.76	-39.9	-42.3	13.2	2.13e-05	0	59	0	1069547520	51	4737
2026-01-12 22:09:51.38	106.05	18.73	-39.8	-42.2	13.3	3.28e-05	0	59	0	1072693248	51	4662
2026-01-12 22:09:52.39	106.29	18.69	-39.8	-42.2	13.3	2.36e-05	0	60	0	1075838976	51	4659
2026-01-12 22:09:53.40	106.52	18.65	-39.8	-42.3	13.2	1.83e-05	0	59	0	1078984704	51	4708
2026-01-12 22:09:54.41	106.75	18.61	-39.9	-42.3	13.2	2.51e-05	0	59	0	1082130432	51	4718
2026-01-12 22:09:55.42	106.98	18.57	-39.9	-42.3	13.2	1.98e-05	0	59	0	1085276160	51	4733
2026-01-12 22:09:56.43	107.20	18.53	-39.9	-42.3	13.2	1.98e-05	0	59	0	1088421888	51	4711
2026-01-12 22:09:57.44	107.43	18.49	-39.8	-42.2	13.2	2.28e-05	0	60	0	1091567616	51	4704
2026-01-12 22:09:58.45	107.66	18.45	-39.9	-42.3	13.1	1.90e-05	0	60	0	1094713344	51	4748
2026-01-12 22:09:59.46	107.89	18.41	-39.9	-42.4	13.1	3.05e-05	0	60	0	1097859072	51	4785
2026-01-12 22:10:00.47	108.12	18.37	-40.0	-42.5	13.0	3.50e-05	0	59	0	1101004800	51	4819
2026-01-12 22:10:01.48	108.34	18.33	-39.9	-42.3	13.2	2.28e-05	0	60	0	1104150528	51	4730
2026-01-12 22:10:02.49	108.57	18.29	-39.9	-42.3	13.1	3.20e-05	0	59	0	1107296256	51	4755
2026-01-12 22:10:03.50	108.79	18.25	-40.0	-42.4	13.0	3.12e-05	0	60	0	1110441984	51	4814
2026-01-12 22:10:04.51	109.02	18.20	-40.1	-42.6	12.8	5.34e-05	0	59	0	1113587712	51	4888
2026-01-12 22:10:05.52	109.24	18.16	-40.2	-42.8	12.7	6.40e-05	0	60	0	1116733440	51	4990
2026-01-12 22:10:06.53	109.46	18.12	-40.2	-42.8	12.7	6.33e-05	0	59	0	1119879168	51	4994
2026-01-12 22:10:07.54	109.69	18.07	-40.1	-42.7	12.8	6.48e-05	0	59	0	1123024896	51	4938
2026-01-12 22:10:08.56	109.91	18.03	-40.1	-42.7	12.8	6.10e-05	0	60	0	1126170624	51	4936
2026-01-12 22:10:09.56	110.13	17.99	-40.1	-42.7	12.8	7.78e-05	0	60	0	1129316352	51	4928
2026-01-12 22:10:10.57	110.35	17.94	-40.1	-42.7	12.8	6.94e-05	0	59	0	1132462080	51	4945
2026-01-12 22:10:11.58	110.57	17.90	-40.1	-42.7	12.7	7.17e-05	0	59	0	1135607808	51	4976
2026-01-12 22:10:12.59	110.79	17.85	-40.3	-42.9	12.5	8.69e-05	0	60	0	1138753536	51	5081
2026-01-12 22:10:13.60	111.01	17.81	-40.4	-43.0	12.4	1.37e-04	0	60	0	1141899264	51	5156
2026-01-12 22:10:14.61	111.23	17.76	-40.4	-43.1	12.2	2.22e-04	0	60	0	1145044992	51	5217
2026-01-12 22:10:15.62	111.44	17.71	-40.3	-43.1	12.3	1.90e-04	0	59	0	1148190720	51	5164
2026-01-12 22:10:16.63	111.66	17.67	-40.4	-43.1	12.3	1.79e-04	0	59	0	1151336448	51	5184
2026-01-12 22:10:17.64	111.88	17.62	-40.4	-43.1	12.3	1.57e-04	0	60	0	1154482176	51	5189
2026-01-12 22:10:18.65	112.09	17.57	-40.4	-43.1	12.2	2.29e-04	0	60	0	1157627904	51	5209
2026-01-12 22:10:19.66	112.31	17.53	-40.2	-42.9	12.5	1.55e-04	0	60	0	1160773632	51	5081
2026-01-12 22:10:20.67	112.52	17.48	-40.3	-43.0	12.4	1.08e-04	0	60	0	1163919360	51	5123
2026-01-12 22:10:21.68	112.73	17.43	-40.2	-42.8	12.6	8.39e-05	0	59	0	1167065088	51	4988
2026-01-12 22:10:22.68	112.94	17.38	-40.0	-42.5	12.9	6.17e-05	0	60	0	1170210816	51	4850
2026-01-12 22:10:23.70	113.16	17.33	-39.9	-42.4	13.0	3.50e-05	0	60	0	1174405120	51	4787
2026-01-12 22:10:24.70	113.37	17.29	-40.0	-42.4	13.0	3.43e-05	0	60	0	1177550848	51	4807
2026-01-12 22:10:25.72	113.58	17.24	-40.0	-42.5	12.9	4.42e-05	0	59	0	1179648000	51	4848
2026-01-12 22:10:26.72	113.79	17.19	-40.1	-42.7	12.6	5.49e-05	0	59	0	1182793728	51	4976
2026-01-12 22:10:27.73	114.00	17.14	-40.2	-42.8	12.6	9.76e-05	0	59	0	1185939456	51	4986
2026-01-12 22:10:28.74	114.21	17.09	-40.2	-42.8	12.6	9.61e-05	0	59	0	1190133760	51	5020
2026-01-12 22:10:29.75	114.42	17.04	-40.3	-42.9	12.4	1.47e-04	0	59	0	1193279488	51	5098
2026-01-12 22:10:30.76	114.62	16.99	-40.4	-43.1	12.2	1.81e-04	0	60	0	1196425216	51	5204
2026-01-12 22:10:31.77	114.83	16.94	-40.4	-43.1	12.2	2.19e-04	0	60	0	1199570944	51	5194
2026-01-12 22:10:32.78	115.04	16.89	-40.3	-43.0	12.4	1.93e-04	0	60	0	1202716672	51	5124
2026-01-12 22:10:33.79	115.24	16.84	-40.3	-43.0	12.3	1.74e-04	0	59	0	1205862400	51	5141
2026-01-12 22:10:34.81	115.45	16.78	-40.3	-42.9	12.4	1.31e-04	0	60	0	1209008128	51	5066
2026-01-12 22:10:35.82	115.65	16.73	-40.2	-42.9	12.5	1.23e-04	0	60	0	1212153856	51	5051
2026-01-12 22:10:36.83	115.86	16.68	-40.2	-42.8	12.6	1.02e-04	0	60	0	1215299584	51	5013
2026-01-12 22:10:37.84	116.06	16.63	-40.2	-42.8	12.5	1.20e-04	0	59	0	1218445312	51	5036
2026-01-12 22:10:38.85	116.26	16.58	-40.2	-42.8	12.5	1.36e-04	0	59	0	1221591040	51	5029
2026-01-12 22:10:39.86	116.46	16.52	-40.2	-42.8	12.5	1.10e-04	0	59	0	1224736768	51	5021
2026-01-12 22:10:40.87	116.66	16.47	-40.2	-42.8	12.5	1.18e-04	0	59	0	1227882496	51	5014
2026-01-12 22:10:41.87	116.86	16.42	-40.0	-42.8	12.5	1.33e-04	0	59	0	1231028224	51	5012
2026-01-12 22:10:42.88	117.06	16.36	-40.2	-42.8	12.5	1.17e-04	0	60	0	1234173952	51	5001
2026-01-12 22:10:43.89	117.26	16.31	-40.3	-43.1	12.2	3.27e-04	0	60	0	1237319680	51	5175
2026-01-12 22:10:44.90	117.46	16.26	-40.5	-43.3	12.0	3.51e-04	0	59	0	1240465408	51	5296
2026-01-12 22:10:45.92	117.66	16.20	-40.5	-43.4	11.9	1.57e-03	0	60	0	1243611136	51	5362
2026-01-12 22:10:46.93	117.85	16.15	-40.5	-43.3	11.9	4.20e-04	0	59	0	1246756864	51	5334
2026-01-12 22:10:47.94	118.05	16.10	-40.5	-43.4	11.8	6.06e-04	0	60	0	1249902592	51	5379
2026-01-12 22:10:48.95	118.24	16.04	-40.5	-43.4	11.9	5.23e-04	0	59	0	1253048320	51	5348
2026-01-12 22:10:49.96	118.44	15.99	-40.4	-43.1	12.2	4.47e-04	0	60	0	1256194048	51	5185
2026-01-12 22:10:50.97	118.63	15.93	-40.2	-43.0	11.2	4.16e-03	0	60	0	1259339776	49	5745
2026-01-12 22:10:51.98	118.83	15.88	-40.4	-43.2	12.1	3.40e-04	0	60	0	1262485504	51	5220
2026-01-12 22:10:52.99	119.02	15.82	-40.3	-43.1	12.1	2.94e-04	0	60	0	1265631232	51	5160
2026-01-12 22:10:54.00	119.21	15.77	-40.3	-43.0	12.3	3.29e-04	0	59	0	1268776960	51	5146
2026-01-12 22:10:55.01	119.40	15.71	-40.3	-43.1	12.1	3.64e-04	0	60	0	1271922688	51	5198
2026-01-12 22:10:56.02	119.59	15.66	-40.3	-43.1	12.0	7.78e-04	0	60	0	1275068416	51	5188
2026-01-12 22:10:57.03	119.78	15.60	-40.3	-43.2	11.9	4.26e-04	0	60	0	1278214144	51	5245
2026-01-12 22:10:58.04	119.97	15.54	-40.4	-43.1	12.0	7.41e-04	0	60	0	1281359872	51	5204
2026-01-12 22:10:59.05	120.16	15.49	-40.5	-43.3	11.9	6.51e-04	0	60	0	1284505600	51	5299
2026-01-12 22:11:00.06	120.35	15.43	-40.5	-43.3	11.9	8.25e-04	0	60	0	1287651328	51	5308
2026-01-12 22:11:01.07	120.53	15.37	-40.4	-43.3	11.9	4.75e-04	0	60	0	1290797056	51	5310
2026-01-12 22:11:02.08	120.72	15.32	-40.3	-43.4	11.7	1.94e-03	0	60	0	1293942784	51	5352
2026-01-12 22:11:03.09	120.91	15.26	-40.4	-43.3	11.9	1.82e-03	0	60	0	1297088512	51	5334
2026-01-12 22:11:04.10	121.09	15.20	-40.6	-43.5	11.6	1.26e-03	0	60	0	1300234240	51	5463
2026-01-12 22:11:05.11	121.28	15.15	-40.6	-43.5	11.7	8.41e-04	0	60	0	1303379968	51	5434
2026-01-12 22:11:06.12	121.46	15.09	-40.6	-43.5	11.4	3.16e-03	0	60	0	1306525696	51	5426
2026-01-12 22:11:07.13	121.64	15.03	-40.5	-43.5	11.7	9.38e-04	0	60	0	1309671424	51	5403
2026-01-12 22:11:08.14	121.82	14.97	-40.5	-43.5	11.7	3.95e-03	0	60	0	1312817152	51	5403
2026-01-12 22:11:09.15	122.01	14.92	-40.5	-43.4	11.8	3.25e-03	0	60	0	1315962880	51	5355
2026-01-12 22:11:10.16	122.19	14.86	-40.4	-43.3	11.7	6.38e-03	0	60	0	1319108608	51	5308
2026-01-12 22:11:11.17	122.37	14.80	-40.5	-43.4	11.7	3.66e-03	0	60	0	1322254336	51	5382
2026-01-12 22:11:12.18	122.55	14.74	-40.5	-43.5	11.6	6.53e-03	0	59	0	1325400064	51	5418
2026-01-12 22:11:13.19	122.72	14.69	-40.4	-43.3	11.8	1.68e-03	0	60	0	1328545792	51	5316
2026-01-12 22:11:14.20	122.90	14.63	-40.4	-43.2	11.8	1.31e-02	0	59	0	1331691520	51	5278
2026-01-12 22:11:15.21	123.08	14.57	-40.3	-43.3	11.7	1.54e-03	0	60	0	1334837248	51	5336
2026-01-12 22:11:16.22	123.26	14.51	-39.6	-43.1	11.5	1.26e-02	0	60	0	1337982976	48	6166
2026-01-12 22:11:17.23	123.43	14.45	-40.3	-43.2	11.9	1.30e-03	0	60	0	1341128704	51	5260
2026-01-12 22:11:18.24	123.61	14.39	-40.3	-43.2	11.9	3.03e-03	0	60	0	1344274432	51	5252
2026-01-12 22:11:19.25	123.78	14.33	-38.1	-43.4	11.7	1.38e-03	0	60	0	1347420160	50	5703
2026-01-12 22:11:20.26	123.96	14.28	-40.3	-43.4	11.7	1.58e-03	0	60	0	1350565888	51	5358
2026-01-12 22:11:21.28	124.13	14.22	-40.3	-43.4	11.6	2.70e-03	0	60	0	1353711616	51	5345
2026-01-12 22:11:22.29	124.31	14.16	-39.3	-43.3	10.9	5.97e-03	0	60	0	1356857344	48	6309
2026-01-12 22:11:23.29	124.48	14.10	-40.4	-43.3	11.6	5.04e-02	0	60	0	1360003072	51	5315
2026-01-12 22:11:24.30	124.65	14.04	-40.3	-43.2	11.6	1.08e-02	0	60	0	1363148800	51	5269
2026-01-12 22:11:25.31	124.82	13.98	-40.2	-43.1	11.8	1.33e-03	0	60	0	1366294528	51	5191
2026-01-12 22:11:26.32	124.99	13.92	-40.2	-43.1	11.8	3.23e-03	0	60	0	1369440256	51	5203
2026-01-12 22:11:27.33	125.16	13.86	-40.2	-43.1	11.8	4.03e-03	0	60	0	1372585984	50	5482
2026-01-12 22:11:28.35	125.33	13.80	-40.1	-43.0	12.0	2.47e-02	0	60	0	1375731712	50	5428
2026-01-12 22:11:29.36	125.50	13.74	-40.2	-43.1	11.7	4.27e-03	0	60	0	1378877440	50	5480
2026-01-12 22:11:30.37	125.66	13.68	-32.2	-41.7	5.6	6.72e-03	3	60	0	1382023168	42	7418
2026-01-12 22:11:31.38	125.83	13.62	-38.9	-42.9	11.5	2.08e-02	0	60	0	1385168896	48	6038
2026-01-12 22:11:32.39	126.00	13.56	-39.9	-42.9	11.6	1.92e-02	0	60	0	1388314624	50	5388
2026-01-12 22:11:33.40	126.16	13.50	-39.9	-42.7	11.4	1.97e-02	2	60	0	1391460352	49	5563
2026-01-12 22:11:34.41	126.33	13.44	-39.6	-42.8	11.5	2.52e-02	7	60	0	1394606080	50	5333
2026-01-12 22:11:35.42	126.49	13.38	-39.1	-42.8	6.0	1.01e+00	0	60	104	1396703232	48	5952
2026-01-12 22:11:36.43	126.65	13.32	-38.8	-43.2	5.0	4.18e-01	0	60	104	1396703232	37	11753
2026-01-12 22:11:37.44	126.82	13.26	-38.6	-42.7	10.2	1.23e-01	3	60	0	1397751808	48	5899
2026-01-12 22:11:38.45	126.98	13.20	-38.9	-42.9	10.5	7.59e-01	2	60	104	1398800384	49	5683
2026-01-12 22:11:39.46	127.14	13.14	-36.0	-42.2	9.8	2.37e-01	7	60	0	1400897536	46	6264
2026-01-12 22:11:40.47	127.30	13.08	-35.3	-42.7	8.9	3.54e-01	22	60	0	1401946112	44	7420
2026-01-12 22:11:41.48	127.46	13.02	-33.5	-41.9	7.5	3.35e-01	39	60	0	1404043264	41	8058
2026-01-12 22:11:42.49	127.62	12.96	-35.6	-42.3	8.1	1.14e+00	82	60	104	1405091840	40	8963
2026-01-12 22:11:43.50	127.78	12.90	-35.5	-42.4	8.1	4.77e-01	21	59	0	1406140416	41	8487
2026-01-12 22:11:44.51	127.94	12.84	-33.7	-42.5	5.1	1.41e+00	0	60	104	1406140416	38	10288
2026-01-12 22:11:45.52	128.10	12.78	-32.7	-42.8	5.0	1.42e+00	0	60	104	1406140416	37	11204
2026-01-12 22:11:46.53	128.26	12.72	-29.6	-40.9	5.0	1.44e+00	0	60	104	1406140416	28	15168
2026-01-12 22:11:47.53	128.41	12.66	-25.7	-40.2	4.7	1.42e+00	0	60	104	1406140416	21	20954
2026-01-12 22:11:48.54	128.57	12.59	-32.7	-43.2	5.2	1.45e+00	0	60	104	1406140416	34	13965
2026-01-12 22:11:49.55	128.72	12.53	-30.7	-42.9	5.1	1.50e+00	0	60	104	1406140416	30	16980
2026-01-12 22:11:50.56	128.88	12.47	-26.1	-38.2	4.9	1.50e+00	0	60	104	1406140416	22	15708
2026-01-12 22:11:51.57	129.03	12.41	-29.3	-41.7	5.2	1.47e+00	0	60	104	1406140416	28	16552
2026-01-12 22:11:52.58	129.18	12.35	-18.2	-39.0	4.4	1.46e+00	0	60	104	1406140416	22	17115
2026-01-12 22:11:53.59	129.34	12.29	-24.9	-39.9	4.8	1.48e+00	0	60	104	1406140416	20	21467
2026-01-12 22:11:54.60	129.49	12.23	-24.7	-39.9	4.9	1.48e+00	0	60	104	1406140416	22	19061
2026-01-12 22:11:55.61	129.64	12.17	-25.1	-38.5	4.5	1.48e+00	0	60	104	1406140416	21	17096
2026-01-12 22:11:56.62	129.79	12.11	-24.2	-38.9	4.2	1.50e+00	0	59	104	1406140416	21	17950
2026-01-12 22:11:57.63	129.94	12.05	-22.9	-35.1	3.7	1.51e+00	0	60	104	1406140416	15	16430
2026-01-12 22:11:58.64	130.09	11.98	-26.9	-42.7	4.4	1.50e+00	0	60	104	1406140416	25	22107
2026-01-12 22:11:59.65	130.24	11.92	-24.6	-39.5	4.3	1.49e+00	0	60	104	1406140416	21	19280
2026-01-12 22:12:00.66	130.39	11.86	-21.4	-35.6	5.0	1.50e+00	0	60	104	1406140416	13	19580
2026-01-12 22:12:01.67	130.54	11.80	-20.3	-35.2	3.9	1.50e+00	0	60	104	1406140416	19	13174
2026-01-12 22:12:02.68	130.69	11.74	-23.9	-39.8	4.6	1.50e+00	0	60	104	1406140416	22	18789
2026-01-12 22:12:03.69	130.83	11.68	-26.0	-38.0	4.4	1.48e+00	0	60	104	1406140416	18	19328
2026-01-12 22:12:04.70	130.98	11.62	-30.9	-44.3	4.6	1.48e+00	0	60	104	1406140416	22	31508
2026-01-12 22:12:05.71	131.12	11.56	-25.2	-37.4	4.1	1.49e+00	0	60	104	1406140416	20	16087
2026-01-12 22:12:06.72	131.27	11.49	-22.2	-36.8	4.3	1.50e+00	0	60	104	1406140416	18	16873
2026-01-12 22:12:07.73	131.41	11.43	-23.3	-37.3	4.4	1.48e+00	0	60	104	1406140416	18	17685
2026-01-12 22:12:08.74	131.56	11.37	-25.3	-37.7	4.2	1.48e+00	0	60	104	1406140416	21	15594
2026-01-12 22:12:09.75	131.70	11.31	-26.2	-39.9	4.7	1.48e+00	0	60	104	1406140416	24	17060
2026-01-12 22:12:10.76	131.84	11.25	-21.1	-34.7	3.7	1.50e+00	0	60	104	1406140416	21	11060
2026-01-12 22:12:11.77	131.99	11.19	-13.6	-30.2	3.7	1.51e+00	0	60	104	1406140416	11	11728
2026-01-12 22:12:12.78	132.13	11.13	-26.9	-41.7	3.8	1.49e+00	0	60	104	1406140416	23	22042
2026-01-12 22:12:13.79	132.27	11.06	-25.4	-37.6	4.0	1.51e+00	0	60	104	1406140416	17	19436
2026-01-12 22:12:14.80	132.41	11.00	-26.0	-38.2	4.9	1.47e+00	0	60	104	1406140416	22	15660
2026-01-12 22:12:15.80	132.55	10.94	-24.6	-39.3	4.4	1.47e+00	0	60	104	1406140416	23	16800
2026-01-12 22:12:16.81	132.69	10.88	-26.4	-39.6	4.3	1.51e+00	0	60	104	1406140416	23	17408
2026-01-12 22:12:17.82	132.83	10.82	-20.1	-40.4	4.4	1.51e+00	0	60	104	1406140416	23	19025
2026-01-12 22:12:18.84	132.96	10.76	-29.9	-47.3	4.3	1.52e+00	0	60	104	1406140416	29	29707
2026-01-12 22:12:19.84	133.10	10.70	-23.6	-39.4	3.8	1.52e+00	0	60	104	1406140416	21	19093
2026-01-12 22:12:20.85	133.24	10.64	-28.4	-42.7	4.1	1.51e+00	0	60	104	1406140416	25	22010
2026-01-12 22:12:21.86	133.37	10.58	-22.1	-34.2	3.9	1.51e+00	0	60	104	1406140416	21	10499
2026-01-12 22:12:22.87	133.51	10.51	-24.9	-46.6	4.3	1.51e+00	0	60	104	1406140416	34	20756
2026-01-12 22:12:23.88	133.65	10.45	-20.7	-32.8	4.0	1.51e+00	0	60	104	1406140416	22	8389
2026-01-12 22:12:24.89	133.78	10.39	-23.6	-41.4	4.2	1.51e+00	0	60	104	1406140416	22	22689
2026-01-12 22:12:25.90	133.92	10.33	-20.4	-31.2	3.5	1.52e+00	0	60	104	1406140416	13	11769
2026-01-12 22:12:26.91	134.05	10.27	-15.0	-30.9	3.7	1.52e+00	0	60	104	1406140416	2	21415
2026-01-12 22:12:27.92	134.18	10.21	-26.1	-40.6	3.9	1.52e+00	0	60	104	1406140416	20	23118
2026-01-12 22:12:28.93	134.32	10.15	-36.8	-52.6	4.1	1.51e+00	0	60	104	1406140416	48	18429
2026-01-12 22:12:29.94	134.45	10.09	-33.6	-45.8	4.1	1.50e+00	0	60	104	1406140416	38	15011
2026-01-12 22:12:30.94	134.58	10.02	-16.5	-39.9	4.0	1.52e+00	0	60	104	1406140416	25	16014
2026-01-12 22:12:31.96	134.71	9.96	-28.5	-39.7	3.3	1.51e+00	0	60	104	1406140416	18	23448
2026-01-12 22:12:32.97	134.84	9.90	-23.8	-41.7	3.8	1.52e+00	0	60	104	1406140416	12	41786
2026-01-12 22:12:33.98	134.97	9.84	-23.8	-44.0	3.8	1.52e+00	0	60	104	1406140416	15	45670
2026-01-12 22:12:34.99	135.10	9.78	-25.0	-45.4	4.1	1.52e+00	0	60	104	1406140416	15	53734
2026-01-12 22:12:35.99	135.23	9.72	-37.8	-51.6	3.8	1.51e+00	0	60	104	1406140416	45	19502
2026-01-12 22:12:37.00	135.36	9.66	-41.2	-54.5	3.7	1.50e+00	0	60	104	1406140416	52	18187
2026-01-12 22:12:38.01	135.48	9.60	-41.9	-54.5	3.7	1.49e+00	0	60	104	1406140416	52	18166
2026-01-12 22:12:39.02	135.61	9.54	-34.1	-49.6	3.8	1.51e+00	0	60	104	1406140416	40	20586
2026-01-12 22:12:40.03	135.74	9.48	-32.7	-47.6	4.1	1.51e+00	0	60	104	1406140416	39	17377
2026-01-12 22:12:41.04	135.87	9.41	-28.6	-45.2	3.8	1.51e+00	0	60	104	1406140416	33	18546
2026-01-12 22:12:42.05	135.99	9.35	-37.8	-52.0	4.3	1.51e+00	0	60	104	1406140416	45	20482
2026-01-12 22:12:43.05	136.12	9.29	-37.0	-49.7	3.8	1.50e+00	0	60	104	1406140416	45	15744
2026-01-12 22:12:44.06	136.24	9.23	-35.5	-50.6	4.0	1.50e+00	0	60	104	1406140416	46	16399
2026-01-12 22:12:45.07	136.36	9.17	-36.9	-52.2	4.3	1.49e+00	0	60	104	1406140416	52	13917
2026-01-12 22:12:46.08	136.49	9.11	-40.2	-53.7	3.9	1.49e+00	0	60	104	1406140416	53	15694
2026-01-12 22:12:47.09	136.61	9.05	-42.4	-55.0	3.8	1.49e+00	0	60	104	1406140416	55	16245
2026-01-12 22:12:48.10	136.73	8.99	-36.6	-52.1	3.8	1.50e+00	0	60	104	1406140416	50	15527
2026-01-12 22:12:49.11	136.86	8.93	-36.9	-49.8	4.0	1.50e+00	0	60	104	1406140416	41	19852
2026-01-12 22:12:50.12	136.98	8.87	-42.5	-54.8	3.8	1.50e+00	0	60	104	1406140416	54	16747
2026-01-12 22:12:51.13	137.10	8.81	-42.1	-54.5	3.8	1.49e+00	0	60	104	1406140416	54	16290
2026-01-12 22:12:52.14	137.22	8.75	-41.7	-54.2	3.8	1.49e+00	0	60	104	1406140416	54	15619
2026-01-12 22:12:53.15	137.34	8.69	-42.4	-54.6	3.8	1.49e+00	0	60	104	1406140416	55	15578
2026-01-12 22:12:54.16	137.46	8.63	-40.5	-50.6	3.9	1.51e+00	0	60	104	1406140416	22	65535
2026-01-12 22:12:55.17	137.58	8.57	-41.5	-54.3	3.8	1.49e+00	0	60	104	1406140416	54	15926
2026-01-12 22:12:56.17	137.70	8.51	-41.3	-54.4	3.8	1.50e+00	0	60	104	1406140416	54	16015
2026-01-12 22:12:57.18	137.82	8.45	-42.1	-54.5	4.0	1.49e+00	0	60	104	1406140416	54	16245
2026-01-12 22:12:58.19	137.94	8.38	-41.1	-54.3	3.8	1.49e+00	0	60	104	1406140416	52	17720
2026-01-12 22:12:59.20	138.05	8.32	-42.4	-54.6	3.8	1.49e+00	0	60	104	1406140416	55	15412
2026-01-12 22:13:00.21	138.17	8.26	-42.9	-55.0	3.8	1.49e+00	0	60	104	1406140416	54	17155
2026-01-12 22:13:01.22	138.29	8.20	-42.4	-54.4	3.9	1.49e+00	0	60	104	1406140416	50	20234
2026-01-12 22:13:02.23	138.40	8.14	-32.5	-51.4	4.0	1.50e+00	0	60	104	1406140416	52	12703
2026-01-12 22:13:03.24	138.52	8.08	-41.8	-54.6	3.8	1.49e+00	0	60	104	1406140416	53	17388
2026-01-12 22:13:04.25	138.64	8.02	-40.9	-54.1	3.8	1.49e+00	0	60	104	1406140416	53	16477
2026-01-12 22:13:05.26	138.75	7.96	-20.8	-44.9	4.0	1.50e+00	0	60	104	1406140416	34	16991
2026-01-12 22:13:06.27	138.86	7.90	-44.1	-56.4	3.8	1.50e+00	0	60	104	1406140416	57	16927
2026-01-12 22:13:07.28	138.98	7.84	-44.7	-57.1	3.8	1.49e+00	0	60	104	1406140416	60	15408
2026-01-12 22:13:08.29	139.09	7.78	-45.0	-57.3	3.8	1.49e+00	0	60	104	1406140416	60	15834
2026-01-12 22:13:09.30	139.20	7.72	-45.1	-57.4	3.8	1.49e+00	0	60	104	1406140416	60	16111
2026-01-12 22:13:10.31	139.32	7.66	-45.2	-57.6	3.8	1.49e+00	0	60	104	1406140416	60	16373
2026-01-12 22:13:11.33	139.43	7.60	-45.3	-57.6	3.8	1.49e+00	0	60	104	1406140416	61	15580
2026-01-12 22:13:12.34	139.54	7.54	-45.4	-57.7	3.8	1.49e+00	0	60	104	1406140416	61	15727
2026-01-12 22:13:13.35	139.65	7.48	-45.4	-57.8	3.8	1.49e+00	0	60	104	1406140416	61	15761
2026-01-12 22:13:14.35	139.76	7.43	-45.4	-57.8	3.8	1.49e+00	0	60	104	1406140416	61	15769
2026-01-12 22:13:15.36	139.87	7.37	-45.3	-57.7	3.8	1.49e+00	0	60	104	1406140416	61	15665
2026-01-12 22:13:16.38	139.98	7.31	-45.2	-57.6	3.8	1.49e+00	0	60	104	1406140416	61	15455
2026-01-12 22:13:17.39	140.09	7.25	-45.2	-57.5	3.8	1.49e+00	0	60	104	1406140416	61	15370
2026-01-12 22:13:18.40	140.20	7.19	-45.2	-57.5	3.8	1.49e+00	0	60	104	1406140416	61	15395
2026-01-12 22:13:19.41	140.31	7.13	-45.0	-57.5	3.8	1.49e+00	0	60	104	1406140416	61	15340
2026-01-12 22:13:20.42	140.42	7.07	-45.1	-57.4	3.8	1.49e+00	0	60	104	1406140416	61	15216
2026-01-12 22:13:21.43	140.53	7.01	-45.1	-57.5	3.8	1.49e+00	0	60	104	1406140416	61	15257
2026-01-12 22:13:22.44	140.64	6.95	-45.1	-57.4	3.8	1.49e+00	0	60	104	1406140416	61	15214
2026-01-12 22:13:23.45	140.74	6.89	-45.1	-57.4	3.8	1.49e+00	0	60	104	1406140416	61	15166
2026-01-12 22:13:24.46	140.85	6.83	-45.1	-57.4	3.8	1.49e+00	0	60	104	1406140416	61	15209
2026-01-12 22:13:25.47	140.96	6.77	-45.1	-57.4	3.8	1.49e+00	0	60	104	1406140416	61	15225
2026-01-12 22:13:26.48	141.06	6.71	-45.1	-57.4	3.8	1.49e+00	0	60	104	1406140416	61	15223
2026-01-12 22:13:27.49	141.17	6.65	-45.1	-57.4	3.8	1.49e+00	0	60	104	1406140416	61	15195
2026-01-12 22:13:28.49	141.27	6.60	-45.1	-57.4	3.8	1.49e+00	0	60	104	1406140416	61	15225
2026-01-12 22:13:29.51	141.38	6.54	-45.1	-57.4	3.8	1.49e+00	0	60	104	1406140416	60	16067
2026-01-12 22:13:30.51	141.48	6.48	-45.1	-57.4	3.8	1.49e+00	0	60	104	1406140416	60	16079
2026-01-12 22:13:31.52	141.58	6.42	-45.1	-57.4	3.8	1.49e+00	0	60	104	1406140416	60	16112
2026-01-12 22:13:32.53	141.69	6.36	-45.1	-57.4	3.8	1.49e+00	0	60	104	1406140416	60	16068
2026-01-12 22:13:33.54	141.79	6.30	-45.1	-57.4	3.8	1.49e+00	0	60	104	1406140416	60	16106
2026-01-12 22:13:34.55	141.89	6.24	-45.1	-57.4	3.8	1.49e+00	0	60	104	1406140416	60	16093
2026-01-12 22:13:35.56	141.99	6.19	-45.1	-57.4	3.8	1.49e+00	0	60	104	1406140416	60	16057
2026-01-12 22:13:36.57	142.10	6.13	-45.1	-57.4	3.8	1.49e+00	0	60	104	1406140416	60	16073
2026-01-12 22:13:37.59	142.20	6.07	-45.1	-57.4	3.8	1.49e+00	0	60	104	1406140416	60	16098
2026-01-12 22:13:38.60	142.30	6.01	-45.1	-57.4	3.8	1.49e+00	0	60	104	1406140416	60	16057
2026-01-12 22:13:39.61	142.40	5.95	-45.1	-57.4	3.8	1.49e+00	0	60	104	1406140416	60	16099
2026-01-12 22:13:40.62	142.50	5.89	-45.1	-57.4	3.8	1.49e+00	0	60	104	1406140416	60	16094
2026-01-12 22:13:41.63	142.60	5.84	-45.1	-57.4	3.8	1.49e+00	0	60	104	1406140416	60	16063
2026-01-12 22:13:42.64	142.70	5.78	-45.1	-57.4	3.8	1.49e+00	0	60	104	1406140416	60	16006
2026-01-12 22:13:43.65	142.80	5.72	-45.1	-57.4	3.8	1.49e+00	0	60	104	1406140416	60	16018
2026-01-12 22:13:44.66	142.90	5.66	-45.1	-57.4	3.8	1.49e+00	0	60	104	1406140416	60	16080
2026-01-12 22:13:45.67	142.99	5.60	-45.1	-57.4	3.8	1.49e+00	0	60	104	1406140416	60	16014
2026-01-12 22:13:46.68	143.09	5.55	-45.1	-57.4	3.8	1.49e+00	0	60	104	1406140416	60	16059
2026-01-12 22:13:47.69	143.19	5.49	-45.1	-57.4	3.8	1.49e+00	0	60	104	1406140416	60	16042
2026-01-12 22:13:48.70	143.29	5.43	-45.1	-57.4	3.8	1.49e+00	0	60	104	1406140416	60	16034
2026-01-12 22:13:49.71	143.38	5.37	-45.1	-57.4	3.8	1.49e+00	0	60	104	1406140416	60	15993
2026-01-12 22:13:50.72	143.48	5.31	-45.1	-57.4	3.8	1.49e+00	0	60	104	1406140416	60	16037
2026-01-12 22:13:51.73	143.58	5.26	-45.1	-57.4	3.8	1.49e+00	0	60	104	1406140416	60	16031
2026-01-12 22:13:52.74	143.67	5.20	-45.1	-57.4	3.8	1.49e+00	0	60	104	1406140416	60	15991
2026-01-12 22:13:53.75	143.77	5.14	-45.1	-57.4	3.8	1.49e+00	0	60	104	1406140416	60	16062
2026-01-12 22:13:54.76	143.86	5.08	-45.1	-57.4	3.8	1.49e+00	0	60	104	1406140416	60	16032
2026-01-12 22:13:55.77	143.96	5.03	-45.1	-57.4	3.8	1.49e+00	0	60	104	1406140416	60	16033
2026-01-12 22:13:56.78	144.05	4.97	-45.1	-57.4	3.8	1.49e+00	0	60	104	1406140416	60	16046
2026-01-12 22:13:57.79	144.14	4.91	-45.1	-57.4	3.8	1.49e+00	0	60	104	1406140416	60	16035
