passes_logs/2026/01/12/R2.0S_Moscow/R2.0S_Moscow__20260112_094322_FENGYUN_3D_rec.log

#Pass ID: 20260112_094322_FENGYUN 3D
#Satellite: FENGYUN 3D
#Configuration: FENGYUN 3D
#almurnet v.1.7.20251203
#Start time: 2026-01-12 09:43:22

#Version: 2.2.20231116
#Station: R2.0S_Moscow
#Location: 37.707566 lon 55.798166 lat
#TLE: 1 43010U 17072A   26011.26828046  .00000354  00000+0  18908-3 0  9991
#TLE: 2 43010  98.9936 343.0270 0002205 114.1788 245.9618 14.19695184422722

#Time	Az	El	Level	Level2	SNR	BER	BlckErr	Temp	State	Recorded	gain1	gain2
2026-01-12 09:43:22.57	94.36	2.00	-39.3	-51.4	3.8	8.47e-01	0	49	0	0	49	15107
2026-01-12 09:43:23.57	94.28	2.05	-39.8	-51.6	3.8	8.46e-01	0	49	104	0	50	14633
2026-01-12 09:43:24.58	94.19	2.10	-39.4	-51.4	3.8	8.46e-01	0	49	104	0	50	14267
2026-01-12 09:43:25.59	94.10	2.15	-39.6	-51.5	3.8	8.44e-01	0	49	104	0	50	14463
2026-01-12 09:43:26.60	94.02	2.20	-39.2	-51.3	3.8	8.46e-01	0	50	104	0	49	14987
2026-01-12 09:43:27.61	93.93	2.26	-39.7	-51.6	3.8	8.46e-01	0	49	104	0	50	14623
2026-01-12 09:43:28.62	93.84	2.31	-39.7	-51.6	3.8	8.47e-01	0	50	104	0	50	14552
2026-01-12 09:43:29.63	93.75	2.36	-39.9	-51.6	3.8	8.46e-01	0	50	104	0	50	14628
2026-01-12 09:43:30.65	93.66	2.41	-39.8	-51.6	3.8	8.47e-01	0	50	104	0	50	14608
2026-01-12 09:43:31.66	93.57	2.46	-39.7	-51.6	3.8	8.46e-01	0	50	104	0	50	14592
2026-01-12 09:43:32.67	93.48	2.51	-39.8	-51.6	3.8	8.46e-01	0	50	104	0	50	14570
2026-01-12 09:43:33.68	93.39	2.56	-39.8	-51.6	3.8	8.46e-01	0	50	104	0	50	14655
2026-01-12 09:43:34.69	93.30	2.61	-39.5	-51.5	3.8	8.46e-01	0	50	104	0	50	14456
2026-01-12 09:43:35.70	93.21	2.66	-39.8	-51.6	3.8	8.46e-01	0	50	104	0	50	14581
2026-01-12 09:43:36.71	93.12	2.71	-39.4	-51.4	3.8	8.47e-01	0	50	104	0	50	14316
2026-01-12 09:43:37.72	93.03	2.76	-39.5	-51.5	3.8	8.46e-01	0	50	104	0	50	14459
2026-01-12 09:43:38.73	92.94	2.82	-39.8	-51.5	3.8	8.46e-01	0	50	104	0	50	14502
2026-01-12 09:43:39.74	92.84	2.87	-39.8	-51.6	3.8	8.46e-01	0	50	104	0	50	14640
2026-01-12 09:43:40.76	92.75	2.92	-39.8	-51.6	3.8	8.47e-01	0	50	104	0	50	14564
2026-01-12 09:43:41.77	92.66	2.97	-39.8	-51.6	3.8	8.46e-01	0	50	104	0	50	14604
2026-01-12 09:43:42.78	92.57	3.02	-39.6	-51.6	3.8	8.46e-01	0	51	104	0	50	14549
2026-01-12 09:43:43.79	92.47	3.07	-39.9	-51.6	3.8	8.47e-01	0	50	104	0	50	14560
2026-01-12 09:43:44.80	92.38	3.12	-39.8	-51.6	3.8	8.47e-01	0	51	104	0	50	14588
2026-01-12 09:43:45.81	92.29	3.17	-39.6	-51.5	3.8	8.46e-01	0	51	104	0	50	14502
2026-01-12 09:43:46.82	92.19	3.23	-39.7	-51.5	3.8	8.46e-01	0	51	104	0	50	14532
2026-01-12 09:43:47.83	92.10	3.28	-39.7	-51.6	3.8	8.46e-01	0	51	104	0	50	14591
2026-01-12 09:43:48.84	92.00	3.33	-39.8	-51.6	3.8	8.45e-01	0	51	104	0	50	14607
2026-01-12 09:43:49.86	91.91	3.38	-39.6	-51.6	3.8	8.47e-01	0	51	104	0	50	14596
2026-01-12 09:43:50.87	91.81	3.43	-39.8	-51.6	3.8	8.47e-01	0	51	104	0	50	14658
2026-01-12 09:43:51.88	91.71	3.48	-39.8	-51.6	3.8	8.45e-01	0	51	104	0	50	14608
2026-01-12 09:43:52.89	91.62	3.53	-39.8	-51.6	3.8	8.46e-01	0	51	104	0	50	14639
2026-01-12 09:43:53.90	91.52	3.59	-39.9	-51.6	3.8	8.47e-01	0	51	104	0	50	14600
2026-01-12 09:43:54.91	91.42	3.64	-39.5	-51.5	3.8	8.46e-01	0	51	104	0	50	14529
2026-01-12 09:43:55.92	91.33	3.69	-39.8	-51.6	3.8	8.45e-01	0	52	104	0	50	14616
2026-01-12 09:43:56.93	91.23	3.74	-39.5	-51.5	3.8	8.46e-01	0	51	104	0	50	14471
2026-01-12 09:43:57.94	91.13	3.79	-39.7	-51.6	3.8	8.46e-01	0	52	104	0	50	14601
2026-01-12 09:43:58.96	91.03	3.84	-39.8	-51.6	3.8	8.46e-01	0	52	104	0	50	14597
2026-01-12 09:43:59.97	90.93	3.89	-39.6	-51.5	3.8	8.46e-01	0	52	104	0	50	14491
2026-01-12 09:44:00.98	90.83	3.95	-39.8	-51.6	3.8	8.47e-01	0	52	104	0	50	14576
2026-01-12 09:44:01.99	90.73	4.00	-39.7	-51.6	3.8	8.47e-01	0	52	104	0	50	14576
2026-01-12 09:44:03.00	90.63	4.05	-39.7	-51.6	3.8	8.46e-01	0	52	104	0	50	14566
2026-01-12 09:44:04.01	90.53	4.10	-39.8	-51.6	3.8	8.45e-01	0	52	104	0	50	14612
2026-01-12 09:44:05.02	90.43	4.15	-39.8	-51.6	3.8	8.46e-01	0	52	104	0	50	14607
2026-01-12 09:44:06.03	90.33	4.20	-39.6	-51.5	3.8	8.46e-01	0	52	104	0	50	14493
2026-01-12 09:44:07.04	90.23	4.26	-39.8	-51.6	3.8	8.45e-01	0	52	104	0	50	14597
2026-01-12 09:44:08.05	90.13	4.31	-39.8	-51.6	3.8	8.45e-01	0	52	104	0	50	14642
2026-01-12 09:44:09.06	90.03	4.36	-39.4	-51.5	3.8	8.47e-01	0	52	104	0	50	14479
2026-01-12 09:44:10.08	89.92	4.41	-39.7	-51.5	3.8	8.46e-01	0	52	104	0	50	14463
2026-01-12 09:44:11.09	89.82	4.46	-39.7	-51.6	3.8	8.47e-01	0	52	104	0	50	14614
2026-01-12 09:44:12.10	89.72	4.51	-39.6	-51.5	3.8	8.46e-01	0	52	104	0	50	14527
2026-01-12 09:44:13.11	89.62	4.57	-39.9	-51.6	3.8	8.48e-01	0	53	104	0	50	14587
2026-01-12 09:44:14.12	89.51	4.62	-39.7	-51.6	3.8	8.46e-01	0	52	104	0	50	14624
2026-01-12 09:44:15.13	89.41	4.67	-39.8	-51.5	3.8	8.47e-01	0	53	104	0	50	14539
2026-01-12 09:44:16.14	89.30	4.72	-39.8	-51.6	3.8	8.46e-01	0	53	104	0	50	14625
2026-01-12 09:44:17.15	89.20	4.77	-39.8	-51.6	3.8	8.46e-01	0	53	104	0	50	14572
2026-01-12 09:44:18.16	89.09	4.83	-39.5	-51.5	3.8	8.47e-01	0	53	104	0	50	14425
2026-01-12 09:44:19.18	88.99	4.88	-39.8	-51.6	3.8	8.47e-01	0	53	104	0	50	14605
2026-01-12 09:44:20.19	88.88	4.93	-39.8	-51.6	3.8	8.47e-01	0	53	104	0	50	14624
2026-01-12 09:44:21.20	88.77	4.98	-39.7	-51.6	3.8	8.46e-01	0	53	104	0	50	14573
2026-01-12 09:44:22.21	88.67	5.03	-39.8	-51.6	3.8	8.46e-01	0	53	104	0	50	14603
2026-01-12 09:44:23.22	88.56	5.09	-39.8	-51.6	3.8	8.46e-01	0	53	104	0	50	14631
2026-01-12 09:44:24.23	88.45	5.14	-39.8	-51.6	3.8	8.47e-01	0	53	104	0	50	14620
2026-01-12 09:44:25.24	88.34	5.19	-39.7	-51.5	3.8	8.46e-01	0	53	104	0	50	14527
2026-01-12 09:44:26.25	88.23	5.24	-39.6	-51.5	3.8	8.46e-01	0	53	104	0	50	14463
2026-01-12 09:44:27.26	88.13	5.29	-39.7	-51.5	3.8	8.46e-01	0	53	104	0	50	14504
2026-01-12 09:44:28.27	88.02	5.34	-39.8	-51.6	3.8	8.46e-01	0	53	104	0	50	14583
2026-01-12 09:44:29.29	87.91	5.40	-39.8	-51.6	3.8	8.46e-01	0	53	104	0	50	14566
2026-01-12 09:44:30.30	87.80	5.45	-39.6	-51.5	3.8	8.46e-01	0	53	104	0	50	14454
2026-01-12 09:44:31.31	87.69	5.50	-39.8	-51.6	3.8	8.46e-01	0	53	104	0	50	14576
2026-01-12 09:44:32.32	87.57	5.55	-39.6	-51.5	3.8	8.47e-01	0	53	104	0	50	14528
2026-01-12 09:44:33.33	87.46	5.60	-39.6	-51.5	3.8	8.46e-01	0	53	104	0	50	14509
2026-01-12 09:44:34.34	87.35	5.66	-39.7	-51.5	3.8	8.46e-01	0	53	104	0	49	15333
2026-01-12 09:44:35.35	87.24	5.71	-39.8	-51.6	3.8	8.44e-01	0	54	104	0	50	14565
2026-01-12 09:44:36.36	87.13	5.76	-39.7	-51.5	3.8	8.47e-01	0	54	104	0	50	14465
2026-01-12 09:44:37.37	87.01	5.81	-39.7	-51.6	3.8	8.45e-01	0	54	104	0	50	14565
2026-01-12 09:44:38.38	86.90	5.86	-39.7	-51.6	3.8	8.46e-01	0	54	104	0	50	14587
2026-01-12 09:44:39.39	86.79	5.92	-39.8	-51.6	3.8	8.47e-01	0	54	104	0	50	14599
2026-01-12 09:44:40.41	86.67	5.97	-39.8	-51.6	3.8	8.46e-01	0	54	104	0	50	14553
2026-01-12 09:44:41.42	86.56	6.02	-39.8	-51.6	3.8	8.46e-01	0	54	104	0	50	14582
2026-01-12 09:44:42.43	86.44	6.07	-39.6	-51.5	3.8	8.46e-01	0	54	104	0	50	14450
2026-01-12 09:44:43.44	86.33	6.12	-39.8	-51.6	3.8	8.46e-01	0	54	104	0	50	14609
2026-01-12 09:44:44.45	86.21	6.18	-39.7	-51.5	3.8	8.46e-01	0	54	104	0	50	14516
2026-01-12 09:44:45.46	86.09	6.23	-39.8	-51.6	3.8	8.46e-01	0	54	104	0	50	14624
2026-01-12 09:44:46.47	85.98	6.28	-39.8	-51.6	3.8	8.47e-01	0	54	104	0	50	14600
2026-01-12 09:44:47.49	85.86	6.33	-39.8	-51.6	3.8	8.45e-01	0	54	104	0	50	14582
2026-01-12 09:44:48.50	85.74	6.38	-39.8	-51.6	3.8	8.46e-01	0	54	104	0	50	14601
2026-01-12 09:44:49.51	85.62	6.44	-39.8	-51.6	3.8	8.48e-01	0	54	104	0	50	14620
2026-01-12 09:44:50.52	85.51	6.49	-39.6	-51.5	3.8	8.46e-01	0	54	104	0	50	14459
2026-01-12 09:44:51.53	85.39	6.54	-39.0	-51.4	3.8	8.46e-01	0	54	104	0	50	14357
2026-01-12 09:44:52.54	85.27	6.59	-39.8	-51.6	3.8	8.47e-01	0	54	104	0	50	14543
2026-01-12 09:44:53.55	85.15	6.64	-39.8	-51.6	3.8	8.47e-01	0	54	104	0	50	14620
2026-01-12 09:44:54.56	85.03	6.70	-39.5	-51.5	3.8	8.47e-01	0	54	104	0	49	15255
2026-01-12 09:44:55.57	84.91	6.75	-39.8	-51.6	3.8	8.47e-01	0	55	104	0	50	14556
2026-01-12 09:44:56.58	84.79	6.80	-39.8	-51.6	3.8	8.47e-01	0	54	104	0	50	14569
2026-01-12 09:44:57.60	84.66	6.85	-39.8	-51.6	3.8	8.45e-01	0	55	104	0	50	14604
2026-01-12 09:44:58.61	84.54	6.90	-39.8	-51.6	3.8	8.47e-01	0	55	104	0	50	14601
2026-01-12 09:44:59.62	84.42	6.95	-39.8	-51.5	3.8	8.47e-01	0	55	104	0	50	14526
2026-01-12 09:45:00.63	84.30	7.01	-39.8	-51.6	3.8	8.45e-01	0	55	104	0	50	14588
2026-01-12 09:45:01.64	84.17	7.06	-39.5	-51.5	3.8	8.46e-01	0	55	104	0	50	14500
2026-01-12 09:45:02.65	84.05	7.11	-39.5	-51.5	3.8	8.46e-01	0	55	104	0	50	14523
2026-01-12 09:45:03.66	83.93	7.16	-39.8	-51.6	3.8	8.47e-01	0	55	104	0	50	14598
2026-01-12 09:45:04.67	83.80	7.21	-39.8	-51.6	3.8	8.46e-01	0	55	104	0	50	14568
2026-01-12 09:45:05.68	83.68	7.26	-39.8	-51.6	3.8	8.46e-01	0	55	104	0	50	14633
2026-01-12 09:45:06.69	83.55	7.32	-39.8	-51.6	3.8	8.46e-01	0	55	104	0	50	14616
2026-01-12 09:45:07.71	83.42	7.37	-39.8	-51.5	3.8	8.45e-01	0	55	104	0	50	14512
2026-01-12 09:45:08.72	83.30	7.42	-39.9	-51.6	3.8	8.47e-01	0	55	104	0	50	14611
2026-01-12 09:45:09.73	83.17	7.47	-39.6	-51.5	3.8	8.46e-01	0	55	104	0	50	14478
2026-01-12 09:45:10.74	83.04	7.52	-39.8	-51.6	3.8	8.45e-01	0	55	104	0	50	14588
2026-01-12 09:45:11.75	82.92	7.57	-39.8	-51.6	3.8	8.46e-01	0	55	104	0	50	14581
2026-01-12 09:45:12.76	82.79	7.63	-39.1	-51.4	3.8	8.46e-01	0	55	104	0	49	15098
2026-01-12 09:45:13.77	82.66	7.68	-39.7	-51.5	3.8	8.46e-01	0	55	104	0	50	14499
2026-01-12 09:45:14.78	82.53	7.73	-39.7	-51.5	3.8	8.45e-01	0	55	104	0	50	14432
2026-01-12 09:45:15.79	82.40	7.78	-39.1	-51.2	3.8	8.46e-01	0	55	104	0	49	14711
2026-01-12 09:45:16.80	82.27	7.83	-39.8	-51.6	3.8	8.47e-01	0	55	104	0	50	14560
2026-01-12 09:45:17.82	82.14	7.88	-39.6	-51.5	3.8	8.46e-01	0	55	104	0	50	14470
2026-01-12 09:45:18.83	82.01	7.93	-39.4	-51.4	3.8	8.47e-01	0	55	104	0	50	14351
2026-01-12 09:45:19.84	81.88	7.98	-39.7	-51.5	3.8	8.46e-01	0	55	104	0	50	14539
2026-01-12 09:45:20.85	81.74	8.04	-39.8	-51.6	3.8	8.45e-01	0	55	104	0	50	14592
2026-01-12 09:45:21.86	81.61	8.09	-40.5	-52.2	3.8	8.45e-01	0	55	104	0	51	14721
2026-01-12 09:45:22.87	81.48	8.14	-39.9	-51.6	3.8	8.46e-01	0	55	104	0	51	13803
2026-01-12 09:45:23.88	81.35	8.19	-39.8	-51.6	3.8	8.47e-01	0	55	104	0	50	14672
2026-01-12 09:45:24.89	81.21	8.24	-40.1	-51.7	3.8	8.45e-01	0	55	104	0	50	14854
2026-01-12 09:45:25.90	81.08	8.29	-39.8	-51.6	3.8	8.45e-01	0	55	104	0	50	14568
2026-01-12 09:45:26.91	80.94	8.34	-40.1	-51.7	3.8	8.46e-01	0	55	104	0	50	14841
2026-01-12 09:45:27.93	80.81	8.39	-39.9	-51.6	3.8	8.46e-01	0	55	104	0	50	14678
2026-01-12 09:45:28.93	80.67	8.44	-40.1	-51.7	3.8	8.46e-01	0	56	104	0	50	14731
2026-01-12 09:45:29.94	80.54	8.49	-39.9	-51.6	3.8	8.46e-01	0	56	104	0	50	14590
2026-01-12 09:45:30.95	80.40	8.54	-40.1	-51.7	3.8	8.47e-01	0	55	104	0	50	14840
2026-01-12 09:45:31.96	80.26	8.60	-40.1	-51.7	3.8	8.46e-01	0	56	104	0	50	14812
2026-01-12 09:45:32.98	80.12	8.65	-40.2	-51.8	3.8	8.46e-01	0	55	104	0	50	15034
2026-01-12 09:45:33.98	79.99	8.70	-40.0	-51.6	3.8	8.46e-01	0	55	104	0	50	14684
2026-01-12 09:45:34.99	79.85	8.75	-40.2	-51.9	3.8	8.46e-01	0	56	104	0	51	14322
2026-01-12 09:45:36.00	79.71	8.80	-40.0	-51.6	3.8	8.45e-01	0	56	104	0	51	13848
2026-01-12 09:45:37.01	79.57	8.85	-40.1	-51.8	3.8	8.45e-01	0	56	104	0	51	14154
2026-01-12 09:45:38.02	79.43	8.90	-40.2	-51.8	3.8	8.46e-01	0	56	104	0	51	14131
2026-01-12 09:45:39.04	79.29	8.95	-40.2	-51.9	3.8	8.47e-01	0	56	104	0	51	14211
2026-01-12 09:45:40.05	79.15	9.00	-40.3	-51.9	3.8	8.46e-01	0	56	104	0	51	14272
2026-01-12 09:45:41.05	79.01	9.05	-40.5	-52.2	3.8	8.46e-01	0	56	104	0	51	14843
2026-01-12 09:45:42.06	78.86	9.10	-40.1	-51.8	3.8	8.46e-01	0	56	104	0	51	14132
2026-01-12 09:45:43.07	78.72	9.15	-40.6	-52.3	3.8	8.47e-01	0	56	104	0	51	14961
2026-01-12 09:45:44.08	78.58	9.20	-40.2	-51.8	3.8	8.46e-01	0	56	104	0	51	14206
2026-01-12 09:45:45.09	78.44	9.25	-40.4	-52.0	3.8	8.46e-01	0	56	104	0	51	14465
2026-01-12 09:45:46.10	78.29	9.30	-40.6	-52.3	3.8	8.47e-01	0	56	104	0	51	14965
2026-01-12 09:45:47.11	78.15	9.35	-40.5	-52.1	3.8	8.45e-01	0	56	104	0	51	14625
2026-01-12 09:45:48.12	78.00	9.40	-40.7	-52.3	3.8	8.46e-01	0	56	104	0	51	15038
2026-01-12 09:45:49.13	77.86	9.45	-40.7	-52.3	3.8	8.47e-01	0	56	104	0	52	14106
2026-01-12 09:45:50.14	77.71	9.50	-40.4	-52.1	3.8	8.47e-01	0	56	104	0	52	13868
2026-01-12 09:45:51.15	77.56	9.54	-40.8	-52.3	3.8	8.45e-01	0	56	104	0	52	14168
2026-01-12 09:45:52.16	77.42	9.59	-40.5	-52.2	3.8	8.46e-01	0	56	104	0	52	13971
2026-01-12 09:45:53.17	77.27	9.64	-40.6	-52.2	3.8	8.45e-01	0	56	104	0	52	14006
2026-01-12 09:45:54.18	77.12	9.69	-40.7	-52.3	3.8	8.46e-01	0	56	104	0	52	14169
2026-01-12 09:45:55.19	76.97	9.74	-40.7	-52.3	3.8	8.46e-01	0	56	104	0	52	14103
2026-01-12 09:45:56.20	76.82	9.79	-40.7	-52.4	3.8	8.44e-01	0	56	104	0	52	14264
2026-01-12 09:45:57.21	76.67	9.84	-40.9	-52.5	3.8	8.46e-01	0	56	104	0	52	14457
2026-01-12 09:45:58.22	76.52	9.89	-40.7	-52.3	3.8	8.47e-01	0	56	104	0	52	14158
2026-01-12 09:45:59.23	76.37	9.94	-40.9	-52.5	3.8	8.46e-01	0	56	104	0	52	14505
2026-01-12 09:46:00.24	76.22	9.99	-40.8	-52.4	3.8	8.47e-01	0	56	104	0	52	14214
2026-01-12 09:46:01.25	76.07	10.03	-40.8	-52.4	3.8	8.46e-01	0	56	104	0	52	14278
2026-01-12 09:46:02.26	75.92	10.08	-41.0	-52.6	3.8	8.47e-01	0	56	104	0	52	14645
2026-01-12 09:46:03.27	75.77	10.13	-40.8	-52.4	3.8	8.47e-01	0	56	104	0	52	14351
2026-01-12 09:46:04.28	75.61	10.18	-41.0	-52.6	3.8	8.45e-01	0	56	104	0	52	14691
2026-01-12 09:46:05.29	75.46	10.23	-40.9	-52.5	3.8	8.46e-01	0	56	104	0	52	14500
2026-01-12 09:46:06.30	75.31	10.27	-40.9	-52.5	3.8	8.46e-01	0	56	104	0	52	14515
2026-01-12 09:46:07.31	75.15	10.32	-40.9	-52.5	3.8	8.47e-01	0	56	104	0	52	14424
2026-01-12 09:46:08.32	75.00	10.37	-40.9	-52.5	3.8	8.45e-01	0	57	104	0	52	14482
2026-01-12 09:46:09.33	74.84	10.42	-40.9	-52.5	3.8	8.47e-01	0	56	104	0	52	14423
2026-01-12 09:46:10.34	74.68	10.46	-40.7	-52.4	3.8	8.46e-01	0	56	104	0	52	14242
2026-01-12 09:46:11.36	74.53	10.51	-40.9	-52.5	3.8	8.46e-01	0	56	104	0	52	14420
2026-01-12 09:46:12.36	74.37	10.56	-40.5	-52.2	3.8	8.47e-01	0	57	104	0	52	13980
2026-01-12 09:46:13.37	74.21	10.61	-40.6	-52.2	3.8	8.45e-01	0	56	104	0	52	13994
2026-01-12 09:46:14.38	74.05	10.65	-40.8	-52.4	3.8	8.46e-01	0	56	104	0	52	14280
2026-01-12 09:46:15.39	73.90	10.70	-40.5	-52.2	3.8	8.46e-01	0	57	104	0	52	13946
2026-01-12 09:46:16.40	73.74	10.75	-40.7	-52.4	3.8	8.46e-01	0	57	104	0	52	14243
2026-01-12 09:46:17.41	73.58	10.79	-40.6	-52.3	3.8	8.45e-01	0	57	104	0	52	14080
2026-01-12 09:46:18.42	73.42	10.84	-40.5	-52.2	3.8	8.47e-01	0	57	104	0	52	13937
2026-01-12 09:46:19.43	73.26	10.89	-40.6	-52.2	3.8	8.46e-01	0	57	104	0	52	14030
2026-01-12 09:46:20.44	73.09	10.93	-40.7	-52.3	3.8	8.47e-01	0	57	104	0	52	14171
2026-01-12 09:46:21.45	72.93	10.98	-40.7	-52.3	3.8	8.46e-01	0	57	104	0	52	14154
2026-01-12 09:46:22.46	72.77	11.03	-40.6	-52.2	3.8	8.46e-01	0	57	104	0	52	14017
2026-01-12 09:46:23.46	72.61	11.07	-40.8	-52.4	3.8	8.46e-01	0	57	104	0	52	14291
2026-01-12 09:46:24.47	72.44	11.12	-40.6	-52.2	3.8	8.46e-01	0	57	104	0	52	14044
2026-01-12 09:46:25.48	72.28	11.16	-40.8	-52.4	3.8	8.46e-01	0	57	104	0	52	14272
2026-01-12 09:46:26.49	72.12	11.21	-40.9	-52.5	3.8	8.46e-01	0	56	104	0	52	14473
2026-01-12 09:46:27.51	71.95	11.25	-40.9	-52.5	3.8	8.46e-01	0	57	104	0	52	14443
2026-01-12 09:46:28.52	71.78	11.30	-40.9	-52.5	3.8	8.46e-01	0	57	104	0	52	14441
2026-01-12 09:46:29.53	71.62	11.34	-40.9	-52.5	3.8	8.45e-01	0	57	104	0	52	14520
2026-01-12 09:46:30.54	71.45	11.39	-40.9	-52.6	3.8	8.46e-01	0	57	104	0	52	14547
2026-01-12 09:46:31.55	71.29	11.43	-40.9	-52.6	3.8	8.46e-01	0	57	104	0	52	14594
2026-01-12 09:46:32.56	71.12	11.48	-40.9	-52.5	3.8	8.45e-01	0	57	104	0	52	14524
2026-01-12 09:46:33.57	70.95	11.52	-40.9	-52.5	3.8	8.45e-01	0	57	104	0	52	14477
2026-01-12 09:46:34.58	70.78	11.57	-40.9	-52.5	3.8	8.45e-01	0	57	104	0	52	14421
2026-01-12 09:46:35.59	70.61	11.61	-40.8	-52.4	3.8	8.46e-01	0	57	104	0	52	14364
2026-01-12 09:46:36.60	70.44	11.65	-40.8	-52.5	3.8	8.46e-01	0	57	104	0	52	14392
2026-01-12 09:46:37.61	70.27	11.70	-40.8	-52.4	3.8	8.46e-01	0	57	104	0	52	14309
2026-01-12 09:46:38.62	70.10	11.74	-40.7	-52.4	3.8	8.47e-01	0	57	104	0	52	14239
2026-01-12 09:46:39.63	69.93	11.79	-40.7	-52.4	3.8	8.46e-01	0	57	104	0	52	14246
2026-01-12 09:46:40.64	69.76	11.83	-40.7	-52.4	3.8	8.47e-01	0	57	104	0	52	14314
2026-01-12 09:46:41.65	69.59	11.87	-40.9	-52.5	3.8	8.45e-01	0	57	104	0	52	14399
2026-01-12 09:46:42.66	69.41	11.91	-40.8	-52.4	3.8	8.46e-01	0	57	104	0	52	14303
2026-01-12 09:46:43.67	69.24	11.96	-41.0	-52.6	3.8	8.46e-01	0	57	104	0	52	14591
2026-01-12 09:46:44.68	69.07	12.00	-41.0	-52.6	3.8	8.46e-01	0	57	104	0	53	13755
2026-01-12 09:46:45.69	68.89	12.04	-40.9	-52.5	3.8	8.47e-01	0	57	104	0	53	13607
2026-01-12 09:46:46.70	68.72	12.08	-41.0	-52.5	3.8	8.47e-01	0	57	104	0	53	13677
2026-01-12 09:46:47.71	68.54	12.13	-40.9	-52.5	3.8	8.46e-01	0	57	104	0	53	13612
2026-01-12 09:46:48.72	68.37	12.17	-40.9	-52.5	3.8	8.45e-01	0	57	104	0	53	13713
2026-01-12 09:46:49.73	68.19	12.21	-41.0	-52.5	3.8	8.46e-01	0	57	104	0	53	13651
2026-01-12 09:46:50.74	68.02	12.25	-40.9	-52.5	3.8	8.47e-01	0	57	104	0	53	13671
2026-01-12 09:46:51.75	67.84	12.29	-40.9	-52.5	3.8	8.47e-01	0	57	104	0	53	13596
2026-01-12 09:46:52.76	67.66	12.33	-41.0	-52.6	3.8	8.47e-01	0	57	104	0	53	13785
2026-01-12 09:46:53.77	67.48	12.37	-40.9	-52.5	3.8	8.47e-01	0	57	104	0	53	13651
2026-01-12 09:46:54.78	67.30	12.41	-41.0	-52.6	3.8	8.48e-01	0	57	104	0	53	13883
2026-01-12 09:46:55.79	67.13	12.45	-40.9	-52.5	3.8	8.45e-01	0	57	104	0	53	13667
2026-01-12 09:46:56.80	66.95	12.49	-41.0	-52.6	3.8	8.47e-01	0	57	104	0	53	13756
2026-01-12 09:46:57.81	66.77	12.53	-40.9	-52.5	3.8	8.45e-01	0	57	104	0	53	13690
2026-01-12 09:46:58.82	66.58	12.57	-41.1	-52.4	3.8	8.46e-01	0	57	104	0	53	13491
2026-01-12 09:46:59.83	66.40	12.61	-40.9	-52.5	3.8	8.45e-01	0	57	104	0	53	13723
2026-01-12 09:47:00.84	66.22	12.65	-41.4	-52.7	3.8	8.46e-01	0	57	104	0	53	13913
2026-01-12 09:47:01.85	66.04	12.69	-41.2	-52.8	3.8	8.47e-01	0	57	104	0	54	13317
2026-01-12 09:47:02.86	65.86	12.73	-41.4	-53.1	3.8	8.46e-01	0	57	104	0	54	13775
2026-01-12 09:47:03.87	65.67	12.77	-41.6	-53.2	3.8	8.46e-01	0	57	104	0	54	13967
2026-01-12 09:47:04.88	65.49	12.81	-41.6	-53.1	3.8	8.47e-01	0	57	104	0	54	13873
2026-01-12 09:47:05.89	65.31	12.85	-42.2	-53.5	3.8	8.46e-01	0	57	104	0	54	14479
2026-01-12 09:47:06.90	65.12	12.88	-41.2	-52.8	3.8	8.46e-01	0	57	104	0	54	13367
2026-01-12 09:47:07.91	64.94	12.92	-41.2	-52.9	3.8	8.46e-01	0	57	104	0	54	13465
2026-01-12 09:47:08.93	64.75	12.96	-42.3	-53.5	3.9	8.47e-01	0	58	104	0	55	13651
2026-01-12 09:47:09.94	64.56	13.00	-41.3	-52.8	3.8	8.45e-01	0	58	104	0	54	13414
2026-01-12 09:47:10.95	64.38	13.03	-41.3	-52.8	3.8	8.46e-01	0	58	104	0	54	13413
2026-01-12 09:47:11.95	64.19	13.07	-41.3	-53.0	3.8	8.47e-01	0	57	104	0	54	13631
2026-01-12 09:47:12.97	64.00	13.11	-41.4	-53.1	3.8	8.45e-01	0	57	104	0	54	13796
2026-01-12 09:47:13.98	63.82	13.14	-41.4	-53.2	3.8	8.46e-01	0	58	104	0	54	13926
2026-01-12 09:47:14.99	63.63	13.18	-41.2	-52.9	3.8	8.45e-01	0	57	104	0	54	13483
2026-01-12 09:47:16.00	63.44	13.22	-41.4	-46.4	6.8	1.34e-01	0	58	0	0	53	6788
2026-01-12 09:47:17.00	63.25	13.25	-43.4	-52.4	4.1	6.28e-01	0	58	0	4194304	57	10740
2026-01-12 09:47:18.02	63.06	13.29	-42.5	-50.0	4.5	1.20e-01	0	58	0	5242880	55	9147
2026-01-12 09:47:19.02	62.87	13.32	-39.7	-42.8	10.7	2.76e-02	0	57	0	9437184	51	5003
2026-01-12 09:47:20.04	62.68	13.36	-38.5	-41.3	12.2	6.51e-04	0	57	0	14680064	49	4744
2026-01-12 09:47:21.05	62.49	13.39	-38.1	-40.3	13.5	3.20e-05	0	58	0	19922944	48	4470
2026-01-12 09:47:22.06	62.30	13.42	-37.9	-40.1	13.7	1.60e-05	0	58	0	26214400	47	4647
2026-01-12 09:47:23.07	62.11	13.46	-38.2	-40.5	13.3	1.37e-05	0	57	0	31457280	47	4855
2026-01-12 09:47:24.08	61.91	13.49	-38.3	-40.6	13.3	4.00e-05	0	58	0	37748736	47	4899
2026-01-12 09:47:25.09	61.72	13.53	-38.1	-40.3	13.5	1.60e-05	0	58	0	42991616	47	4737
2026-01-12 09:47:26.10	61.53	13.56	-38.0	-40.2	13.7	1.71e-05	0	57	0	48234496	47	4699
2026-01-12 09:47:27.11	61.33	13.59	-37.6	-39.7	14.2	1.10e-06	0	58	0	54525952	47	4416
2026-01-12 09:47:28.12	61.14	13.62	-37.6	-39.6	14.3	0.00e+00	0	58	0	59768832	47	4388
2026-01-12 09:47:29.13	60.94	13.66	-37.3	-39.3	14.7	2.20e-06	0	58	0	66060288	46	4471
2026-01-12 09:47:30.14	60.75	13.69	-37.2	-39.1	14.9	2.20e-06	0	58	0	71303168	46	4354
2026-01-12 09:47:31.15	60.55	13.72	-37.3	-39.2	14.8	0.00e+00	0	58	0	76546048	46	4426
2026-01-12 09:47:32.16	60.36	13.75	-37.1	-39.0	15.0	1.10e-06	0	58	0	82837504	46	4337
2026-01-12 09:47:33.17	60.16	13.78	-37.1	-39.0	15.0	0.00e+00	0	58	0	88080384	45	4593
2026-01-12 09:47:34.18	59.97	13.81	-37.3	-39.2	14.8	0.00e+00	0	58	0	94371840	45	4703
2026-01-12 09:47:35.19	59.77	13.84	-37.1	-39.0	15.1	1.10e-06	0	58	0	99614720	45	4559
2026-01-12 09:47:36.19	59.57	13.87	-36.9	-38.8	15.3	0.00e+00	0	57	0	105906176	45	4442
2026-01-12 09:47:37.21	59.37	13.90	-36.7	-38.5	15.5	0.00e+00	0	58	0	111149056	45	4325
2026-01-12 09:47:38.22	59.18	13.93	-36.8	-38.6	15.5	0.00e+00	0	58	0	116391936	45	4378
2026-01-12 09:47:39.22	58.98	13.96	-36.6	-38.3	15.7	0.00e+00	0	58	0	122683392	45	4239
2026-01-12 09:47:40.23	58.78	13.99	-36.4	-38.1	16.0	0.00e+00	0	58	0	127926272	44	4374
2026-01-12 09:47:41.24	58.58	14.02	-36.3	-38.0	16.1	0.00e+00	0	58	0	134217728	44	4330
2026-01-12 09:47:42.25	58.38	14.05	-36.2	-37.9	16.2	0.00e+00	0	58	0	139460608	44	4278
2026-01-12 09:47:43.26	58.18	14.08	-36.3	-38.0	16.1	0.00e+00	0	58	0	144703488	44	4310
2026-01-12 09:47:44.27	57.98	14.10	-36.3	-38.1	16.1	0.00e+00	0	58	0	150994944	44	4348
2026-01-12 09:47:45.28	57.78	14.13	-36.4	-38.1	16.0	0.00e+00	0	58	0	156237824	44	4366
2026-01-12 09:47:46.29	57.58	14.16	-36.2	-38.0	16.1	0.00e+00	0	58	0	162529280	44	4300
2026-01-12 09:47:47.30	57.38	14.19	-36.2	-37.9	16.2	0.00e+00	0	58	0	167772160	44	4271
2026-01-12 09:47:48.32	57.17	14.21	-36.2	-38.0	16.1	0.00e+00	0	58	0	173015040	44	4294
2026-01-12 09:47:49.33	56.97	14.24	-36.3	-38.0	16.1	0.00e+00	0	58	0	179306496	44	4322
2026-01-12 09:47:50.34	56.77	14.26	-36.2	-38.0	16.2	0.00e+00	0	58	0	184549376	44	4295
2026-01-12 09:47:51.35	56.56	14.29	-36.2	-38.0	16.2	0.00e+00	0	58	0	190840832	44	4295
2026-01-12 09:47:52.36	56.36	14.32	-36.0	-37.7	16.4	0.00e+00	0	58	0	196083712	44	4177
2026-01-12 09:47:53.37	56.16	14.34	-36.1	-37.7	16.4	0.00e+00	0	58	0	202375168	44	4191
2026-01-12 09:47:54.38	55.95	14.36	-36.0	-37.7	16.5	0.00e+00	0	58	0	207618048	44	4160
2026-01-12 09:47:55.39	55.75	14.39	-36.0	-37.7	16.4	0.00e+00	0	58	0	213909504	44	4171
2026-01-12 09:47:56.40	55.54	14.41	-35.8	-37.5	16.5	0.00e+00	0	58	0	219152384	43	4303
2026-01-12 09:47:57.41	55.34	14.44	-35.8	-37.4	16.5	0.00e+00	0	58	0	224395264	43	4291
2026-01-12 09:47:58.42	55.13	14.46	-35.8	-37.4	16.5	0.00e+00	0	58	0	230686720	43	4288
2026-01-12 09:47:59.43	54.93	14.48	-35.8	-37.4	16.5	0.00e+00	0	58	0	235929600	43	4289
2026-01-12 09:48:00.44	54.72	14.50	-35.8	-37.5	16.5	0.00e+00	0	58	0	242221056	43	4299
2026-01-12 09:48:01.44	54.52	14.53	-35.9	-37.5	16.4	0.00e+00	0	58	0	247463936	43	4334
2026-01-12 09:48:02.45	54.31	14.55	-36.1	-37.7	16.6	0.00e+00	0	58	0	252706816	43	4400
2026-01-12 09:48:03.46	54.10	14.57	-36.2	-37.8	16.5	0.00e+00	0	58	0	258998272	43	4449
2026-01-12 09:48:04.48	53.89	14.59	-36.2	-37.8	16.5	0.00e+00	0	58	0	264241152	43	4449
2026-01-12 09:48:05.49	53.69	14.61	-36.1	-37.7	16.6	0.00e+00	0	58	0	270532608	43	4405
2026-01-12 09:48:06.50	53.48	14.63	-36.0	-37.5	16.8	0.00e+00	0	58	0	275775488	43	4315
2026-01-12 09:48:07.51	53.27	14.65	-35.9	-37.4	16.9	0.00e+00	0	58	0	281018368	43	4244
2026-01-12 09:48:08.52	53.06	14.67	-35.8	-37.3	17.0	0.00e+00	0	58	0	287309824	43	4213
2026-01-12 09:48:09.53	52.85	14.69	-35.7	-37.2	17.1	0.00e+00	0	58	0	292552704	43	4177
2026-01-12 09:48:10.54	52.65	14.71	-35.8	-37.3	17.0	0.00e+00	0	58	0	298844160	43	4209
2026-01-12 09:48:11.55	52.44	14.73	-35.8	-37.3	17.0	0.00e+00	0	58	0	304087040	43	4218
2026-01-12 09:48:12.56	52.23	14.75	-35.8	-37.3	17.0	0.00e+00	0	58	0	310378496	43	4213
2026-01-12 09:48:13.57	52.02	14.76	-35.8	-37.3	17.0	0.00e+00	0	58	0	315621376	43	4204
2026-01-12 09:48:14.58	51.81	14.78	-35.8	-37.3	17.0	0.00e+00	0	58	0	321912832	43	4200
2026-01-12 09:48:15.59	51.60	14.80	-35.7	-37.2	17.1	0.00e+00	0	58	0	327155712	43	4152
2026-01-12 09:48:16.60	51.39	14.82	-35.6	-37.1	17.2	0.00e+00	0	58	0	332398592	43	4120
2026-01-12 09:48:17.61	51.18	14.83	-35.7	-37.2	17.1	0.00e+00	0	58	0	338690048	43	4151
2026-01-12 09:48:18.62	50.96	14.85	-35.8	-37.2	17.0	0.00e+00	0	58	0	343932928	43	4193
2026-01-12 09:48:19.63	50.75	14.86	-35.9	-37.4	16.9	0.00e+00	0	58	0	350224384	43	4280
2026-01-12 09:48:20.64	50.54	14.88	-36.0	-37.6	16.7	0.00e+00	0	58	0	355467264	43	4349
2026-01-12 09:48:21.65	50.33	14.89	-36.1	-37.7	16.6	0.00e+00	0	58	0	360710144	43	4405
2026-01-12 09:48:22.66	50.12	14.91	-36.1	-37.6	16.7	0.00e+00	0	58	0	367001600	43	4385
2026-01-12 09:48:23.67	49.91	14.92	-36.0	-37.5	16.8	0.00e+00	0	58	0	372244480	43	4319
2026-01-12 09:48:24.68	49.70	14.93	-35.9	-37.4	16.9	0.00e+00	0	58	0	378535936	43	4273
2026-01-12 09:48:25.69	49.48	14.95	-35.9	-37.3	17.0	0.00e+00	0	58	0	383778816	43	4238
2026-01-12 09:48:26.70	49.27	14.96	-35.9	-37.3	17.0	0.00e+00	0	58	0	389021696	43	4241
2026-01-12 09:48:27.71	49.06	14.97	-35.8	-37.3	17.0	0.00e+00	0	58	0	395313152	43	4219
2026-01-12 09:48:28.72	48.84	14.99	-35.8	-37.3	17.0	0.00e+00	0	58	0	400556032	43	4227
2026-01-12 09:48:29.73	48.63	15.00	-35.8	-37.3	17.0	0.00e+00	0	58	0	406847488	43	4220
2026-01-12 09:48:30.74	48.42	15.01	-35.8	-37.3	17.0	0.00e+00	0	58	0	412090368	43	4221
2026-01-12 09:48:31.76	48.20	15.02	-35.8	-37.3	17.0	0.00e+00	0	58	0	418381824	43	4206
2026-01-12 09:48:32.77	47.99	15.03	-35.8	-37.2	17.1	0.00e+00	0	58	0	423624704	43	4189
2026-01-12 09:48:33.78	47.78	15.04	-35.8	-37.2	17.1	0.00e+00	0	58	0	429916160	43	4189
2026-01-12 09:48:34.79	47.56	15.05	-35.8	-37.3	17.0	0.00e+00	0	58	0	435159040	43	4227
2026-01-12 09:48:35.80	47.35	15.06	-35.9	-37.4	16.9	0.00e+00	0	58	0	440401920	43	4259
2026-01-12 09:48:36.81	47.13	15.07	-36.0	-37.5	16.8	0.00e+00	0	58	0	446693376	43	4320
2026-01-12 09:48:37.82	46.92	15.08	-36.0	-37.6	16.8	0.00e+00	0	58	0	451936256	43	4344
2026-01-12 09:48:38.83	46.71	15.08	-36.0	-37.5	16.8	0.00e+00	0	58	0	458227712	43	4319
2026-01-12 09:48:39.83	46.49	15.09	-35.9	-37.4	16.9	0.00e+00	0	58	0	463470592	43	4264
2026-01-12 09:48:40.84	46.28	15.10	-35.9	-37.3	17.0	0.00e+00	0	58	0	468713472	43	4236
2026-01-12 09:48:41.85	46.06	15.11	-35.9	-37.4	16.9	0.00e+00	0	58	0	475004928	43	4256
2026-01-12 09:48:42.86	45.85	15.11	-35.8	-37.3	17.0	0.00e+00	0	58	0	480247808	43	4225
2026-01-12 09:48:43.87	45.63	15.12	-35.8	-37.3	17.0	0.00e+00	0	58	0	486539264	43	4221
2026-01-12 09:48:44.88	45.42	15.12	-35.9	-37.4	16.9	0.00e+00	0	58	0	491782144	43	4266
2026-01-12 09:48:45.89	45.21	15.13	-35.9	-37.4	16.9	0.00e+00	0	58	0	497025024	43	4274
2026-01-12 09:48:46.90	44.99	15.13	-36.0	-37.5	16.8	0.00e+00	0	58	0	503316480	43	4318
2026-01-12 09:48:47.91	44.77	15.14	-36.1	-37.6	16.8	0.00e+00	0	58	0	508559360	43	4360
2026-01-12 09:48:48.92	44.56	15.14	-36.2	-37.7	16.6	0.00e+00	0	58	0	514850816	43	4422
2026-01-12 09:48:49.93	44.34	15.15	-36.2	-37.8	16.6	0.00e+00	0	58	0	520093696	43	4455
2026-01-12 09:48:50.94	44.13	15.15	-36.2	-37.8	16.5	0.00e+00	0	58	0	526385152	43	4468
2026-01-12 09:48:51.95	43.91	15.15	-36.2	-37.8	16.6	0.00e+00	0	58	0	531628032	43	4457
2026-01-12 09:48:52.97	43.70	15.16	-36.1	-37.7	16.7	0.00e+00	0	58	0	536870912	43	4410
2026-01-12 09:48:53.98	43.48	15.16	-35.9	-37.4	16.9	0.00e+00	0	58	0	543162368	43	4290
2026-01-12 09:48:54.99	43.27	15.16	-35.9	-37.3	17.0	0.00e+00	0	58	0	548405248	43	4239
2026-01-12 09:48:56.00	43.05	15.16	-35.8	-37.2	17.1	0.00e+00	0	58	0	554696704	43	4192
2026-01-12 09:48:57.01	42.84	15.16	-35.8	-37.2	17.1	0.00e+00	0	58	0	559939584	43	4190
2026-01-12 09:48:58.02	42.62	15.16	-35.8	-37.3	17.1	0.00e+00	0	58	0	565182464	43	4208
2026-01-12 09:48:59.03	42.40	15.16	-35.8	-37.3	17.0	0.00e+00	0	58	0	571473920	43	4223
2026-01-12 09:49:00.04	42.19	15.16	-35.8	-37.3	17.0	0.00e+00	0	58	0	576716800	43	4208
2026-01-12 09:49:01.05	41.97	15.16	-35.8	-37.3	17.1	0.00e+00	0	58	0	583008256	43	4195
2026-01-12 09:49:02.05	41.76	15.16	-35.8	-37.3	17.1	0.00e+00	0	58	0	588251136	43	4202
2026-01-12 09:49:03.07	41.54	15.16	-35.8	-37.3	17.0	0.00e+00	0	58	0	593494016	43	4217
2026-01-12 09:49:04.07	41.33	15.16	-35.9	-37.4	17.0	0.00e+00	0	58	0	599785472	43	4248
2026-01-12 09:49:05.08	41.11	15.15	-35.8	-37.3	17.0	0.00e+00	0	58	0	605028352	43	4230
2026-01-12 09:49:06.09	40.90	15.15	-35.9	-37.4	17.0	0.00e+00	0	58	0	611319808	43	4244
2026-01-12 09:49:07.10	40.68	15.15	-35.8	-37.3	17.0	0.00e+00	0	58	0	616562688	43	4227
2026-01-12 09:49:08.11	40.47	15.14	-35.9	-37.4	17.0	0.00e+00	0	58	0	622854144	43	4250
2026-01-12 09:49:09.13	40.25	15.14	-35.9	-37.4	17.0	0.00e+00	0	58	0	628097024	43	4251
2026-01-12 09:49:10.14	40.04	15.14	-36.0	-37.5	16.8	0.00e+00	0	58	0	634388480	43	4325
2026-01-12 09:49:11.15	39.82	15.13	-36.1	-37.6	16.7	0.00e+00	0	58	0	639631360	43	4382
2026-01-12 09:49:12.16	39.61	15.13	-36.1	-37.7	16.7	0.00e+00	0	58	0	644874240	43	4404
2026-01-12 09:49:13.17	39.39	15.12	-36.2	-37.8	16.6	0.00e+00	0	58	0	651165696	43	4453
2026-01-12 09:49:14.18	39.18	15.11	-36.1	-37.7	16.7	0.00e+00	0	58	0	656408576	43	4405
2026-01-12 09:49:15.19	38.96	15.11	-36.1	-37.6	16.7	0.00e+00	0	58	0	662700032	43	4379
2026-01-12 09:49:16.20	38.75	15.10	-36.0	-37.5	16.8	0.00e+00	0	58	0	667942912	43	4322
2026-01-12 09:49:17.21	38.53	15.09	-35.9	-37.4	16.9	0.00e+00	0	58	0	673185792	43	4265
2026-01-12 09:49:18.22	38.32	15.09	-35.9	-37.4	16.9	0.00e+00	0	58	0	679477248	43	4279
2026-01-12 09:49:19.22	38.11	15.08	-36.0	-37.5	16.8	0.00e+00	0	58	0	684720128	43	4314
2026-01-12 09:49:20.23	37.89	15.07	-35.9	-37.4	17.0	0.00e+00	0	58	0	691011584	43	4252
2026-01-12 09:49:21.24	37.68	15.06	-35.9	-37.4	16.9	0.00e+00	0	58	0	696254464	43	4273
2026-01-12 09:49:22.25	37.47	15.05	-35.9	-37.4	16.9	0.00e+00	0	58	0	701497344	43	4258
2026-01-12 09:49:23.26	37.25	15.04	-35.9	-37.4	16.9	0.00e+00	0	58	0	707788800	43	4284
2026-01-12 09:49:24.27	37.04	15.03	-35.9	-37.4	17.0	0.00e+00	0	58	0	713031680	43	4245
2026-01-12 09:49:25.28	36.82	15.02	-35.9	-37.4	17.0	0.00e+00	0	58	0	719323136	43	4247
2026-01-12 09:49:26.29	36.61	15.01	-35.8	-37.3	17.0	0.00e+00	0	58	0	724566016	43	4227
2026-01-12 09:49:27.30	36.40	15.00	-35.8	-37.2	17.1	0.00e+00	0	58	0	730857472	43	4180
2026-01-12 09:49:28.31	36.19	14.99	-35.7	-37.1	17.2	0.00e+00	0	58	0	736100352	43	4131
2026-01-12 09:49:29.32	35.97	14.98	-35.7	-37.1	17.2	0.00e+00	0	58	0	742391808	43	4121
2026-01-12 09:49:30.33	35.76	14.96	-35.6	-37.1	17.3	0.00e+00	0	58	0	747634688	43	4107
2026-01-12 09:49:31.34	35.55	14.95	-35.7	-37.2	17.1	0.00e+00	0	58	0	752877568	43	4172
2026-01-12 09:49:32.35	35.34	14.94	-35.7	-37.2	17.1	0.00e+00	0	58	0	759169024	43	4162
2026-01-12 09:49:33.36	35.12	14.92	-35.8	-37.2	17.1	0.00e+00	0	58	0	764411904	43	4179
2026-01-12 09:49:34.37	34.91	14.91	-35.7	-37.1	17.2	0.00e+00	0	58	0	769654784	43	4138
2026-01-12 09:49:35.38	34.70	14.90	-35.8	-37.3	17.1	0.00e+00	0	58	0	775946240	43	4194
2026-01-12 09:49:36.39	34.49	14.88	-35.9	-37.4	17.0	0.00e+00	0	58	0	781189120	43	4245
2026-01-12 09:49:37.40	34.28	14.87	-35.9	-37.4	16.9	0.00e+00	0	58	0	787480576	43	4278
2026-01-12 09:49:38.41	34.07	14.85	-36.0	-37.6	16.8	0.00e+00	0	58	0	792723456	43	4346
2026-01-12 09:49:39.42	33.86	14.83	-36.0	-37.6	16.8	0.00e+00	0	58	0	797966336	43	4351
2026-01-12 09:49:40.42	33.65	14.82	-36.1	-37.6	16.7	0.00e+00	0	58	0	804257792	43	4389
2026-01-12 09:49:41.43	33.44	14.80	-36.1	-37.6	16.8	0.00e+00	0	58	0	809500672	43	4362
2026-01-12 09:49:42.45	33.23	14.78	-36.0	-37.5	16.9	0.00e+00	0	58	0	815792128	43	4318
2026-01-12 09:49:43.46	33.02	14.77	-36.0	-37.4	16.9	0.00e+00	0	58	0	821035008	43	4291
2026-01-12 09:49:44.46	32.81	14.75	-35.9	-37.5	16.9	0.00e+00	0	58	0	827326464	43	4293
2026-01-12 09:49:45.47	32.60	14.73	-35.9	-37.5	16.9	0.00e+00	0	58	0	832569344	43	4293
2026-01-12 09:49:46.48	32.39	14.71	-36.0	-37.5	16.8	0.00e+00	0	58	0	838860800	43	4313
2026-01-12 09:49:47.49	32.18	14.69	-35.9	-37.4	16.9	0.00e+00	0	58	0	844103680	43	4280
2026-01-12 09:49:48.50	31.97	14.68	-35.9	-37.4	16.9	0.00e+00	0	59	0	849346560	43	4287
2026-01-12 09:49:49.51	31.77	14.66	-35.9	-37.4	16.9	0.00e+00	0	58	0	855638016	43	4270
2026-01-12 09:49:50.52	31.56	14.64	-35.9	-37.5	16.9	0.00e+00	0	58	0	860880896	43	4293
2026-01-12 09:49:51.53	31.35	14.62	-35.9	-37.4	16.9	0.00e+00	0	58	0	867172352	43	4288
2026-01-12 09:49:52.54	31.14	14.60	-35.9	-37.4	16.9	0.00e+00	0	58	0	872415232	43	4279
2026-01-12 09:49:53.54	30.94	14.57	-36.0	-37.5	16.8	0.00e+00	0	58	0	877658112	43	4317
2026-01-12 09:49:54.55	30.73	14.55	-36.0	-37.5	16.8	0.00e+00	0	58	0	883949568	43	4332
2026-01-12 09:49:55.56	30.53	14.53	-35.9	-37.4	16.9	0.00e+00	0	58	0	889192448	43	4286
2026-01-12 09:49:56.58	30.32	14.51	-35.9	-37.4	16.9	0.00e+00	0	58	0	895483904	43	4280
2026-01-12 09:49:57.59	30.11	14.49	-36.0	-37.5	16.9	0.00e+00	0	58	0	900726784	43	4310
2026-01-12 09:49:58.60	29.91	14.46	-36.0	-37.5	16.8	0.00e+00	0	59	0	905969664	43	4311
2026-01-12 09:49:59.61	29.70	14.44	-36.0	-37.6	16.8	0.00e+00	0	58	0	912261120	43	4347
2026-01-12 09:50:00.61	29.50	14.42	-36.2	-37.8	16.6	0.00e+00	0	58	0	917504000	43	4444
2026-01-12 09:50:01.62	29.29	14.39	-36.3	-37.9	16.5	0.00e+00	0	58	0	923795456	43	4496
2026-01-12 09:50:02.63	29.09	14.37	-36.3	-37.9	16.5	0.00e+00	0	58	0	929038336	43	4508
2026-01-12 09:50:03.64	28.89	14.35	-36.3	-37.8	16.5	0.00e+00	0	59	0	935329792	43	4492
2026-01-12 09:50:04.65	28.68	14.32	-36.2	-37.8	16.6	0.00e+00	0	58	0	940572672	43	4451
2026-01-12 09:50:05.66	28.48	14.30	-36.2	-37.8	16.6	0.00e+00	0	58	0	945815552	43	4447
2026-01-12 09:50:06.67	28.28	14.27	-36.3	-37.9	16.5	0.00e+00	0	58	0	952107008	43	4498
2026-01-12 09:50:07.68	28.07	14.25	-36.4	-38.0	16.3	0.00e+00	0	58	0	957349888	43	4584
2026-01-12 09:50:08.69	27.87	14.22	-36.5	-38.1	16.2	0.00e+00	0	59	0	963641344	43	4650
2026-01-12 09:50:09.70	27.67	14.19	-36.6	-38.2	16.0	0.00e+00	0	59	0	968884224	43	4697
2026-01-12 09:50:10.71	27.47	14.17	-36.6	-38.2	16.2	0.00e+00	0	59	0	974127104	43	4671
2026-01-12 09:50:11.73	27.27	14.14	-36.5	-38.1	16.2	0.00e+00	0	58	0	980418560	43	4617
2026-01-12 09:50:12.74	27.07	14.11	-36.5	-38.1	16.2	0.00e+00	0	59	0	985661440	43	4610
2026-01-12 09:50:13.74	26.87	14.08	-36.3	-37.9	16.4	0.00e+00	0	59	0	991952896	43	4495
2026-01-12 09:50:14.75	26.67	14.06	-36.3	-37.8	16.5	0.00e+00	0	59	0	997195776	43	4474
2026-01-12 09:50:15.77	26.47	14.03	-36.4	-37.9	16.4	0.00e+00	0	58	0	1002438656	43	4535
2026-01-12 09:50:16.77	26.27	14.00	-36.5	-38.1	16.1	0.00e+00	0	59	0	1008730112	43	4634
2026-01-12 09:50:17.78	26.07	13.97	-36.4	-38.0	16.3	0.00e+00	0	59	0	1013972992	43	4575
2026-01-12 09:50:18.79	25.87	13.94	-36.4	-38.0	16.3	0.00e+00	0	59	0	1020264448	43	4563
2026-01-12 09:50:19.80	25.67	13.91	-36.4	-38.0	16.3	0.00e+00	0	59	0	1025507328	43	4588
2026-01-12 09:50:20.81	25.48	13.88	-36.4	-37.9	16.3	0.00e+00	0	58	0	1031798784	43	4540
2026-01-12 09:50:21.82	25.28	13.85	-36.4	-38.0	16.3	0.00e+00	0	58	0	1037041664	43	4566
2026-01-12 09:50:22.83	25.08	13.82	-36.4	-37.9	16.4	0.00e+00	0	59	0	1043333120	43	4533
2026-01-12 09:50:23.84	24.89	13.79	-36.4	-38.0	16.3	0.00e+00	0	58	0	1048576000	43	4574
2026-01-12 09:50:24.85	24.69	13.76	-36.4	-38.0	16.3	0.00e+00	0	58	0	1053818880	43	4593
2026-01-12 09:50:25.86	24.50	13.73	-36.4	-38.0	16.3	0.00e+00	0	59	0	1060110336	43	4547
2026-01-12 09:50:26.87	24.30	13.70	-36.4	-38.0	16.3	0.00e+00	0	59	0	1065353216	43	4583
2026-01-12 09:50:27.88	24.11	13.66	-36.4	-38.0	16.3	0.00e+00	0	58	0	1071644672	43	4563
2026-01-12 09:50:28.89	23.91	13.63	-36.5	-38.1	16.2	0.00e+00	0	59	0	1076887552	43	4637
2026-01-12 09:50:29.90	23.72	13.60	-36.6	-38.3	16.0	0.00e+00	0	59	0	1082130432	43	4725
2026-01-12 09:50:30.91	23.53	13.57	-36.9	-38.6	15.8	0.00e+00	0	59	0	1088421888	44	4632
2026-01-12 09:50:31.92	23.33	13.53	-36.9	-38.6	15.8	0.00e+00	0	58	0	1093664768	44	4634
2026-01-12 09:50:32.93	23.14	13.50	-36.8	-38.5	15.9	0.00e+00	0	59	0	1099956224	44	4566
2026-01-12 09:50:33.94	22.95	13.47	-36.8	-38.5	16.0	0.00e+00	0	59	0	1105199104	44	4569
2026-01-12 09:50:34.95	22.76	13.43	-36.9	-38.5	15.9	0.00e+00	0	58	0	1110441984	44	4595
2026-01-12 09:50:35.96	22.57	13.40	-36.9	-38.5	15.9	0.00e+00	0	59	0	1116733440	44	4587
2026-01-12 09:50:36.97	22.38	13.37	-36.9	-38.5	15.9	0.00e+00	0	59	0	1121976320	44	4583
2026-01-12 09:50:37.98	22.19	13.33	-36.9	-38.6	15.9	0.00e+00	0	59	0	1128267776	44	4607
2026-01-12 09:50:38.99	22.00	13.30	-36.8	-38.5	15.9	0.00e+00	0	59	0	1133510656	44	4566
2026-01-12 09:50:40.00	21.81	13.26	-36.9	-38.5	15.9	0.00e+00	0	59	0	1139802112	44	4585
2026-01-12 09:50:41.01	21.62	13.23	-37.0	-38.6	15.8	0.00e+00	0	59	0	1145044992	44	4647
2026-01-12 09:50:42.02	21.43	13.19	-36.9	-38.5	15.9	0.00e+00	0	59	0	1151336448	44	4582
2026-01-12 09:50:43.03	21.24	13.15	-36.8	-38.5	15.9	0.00e+00	0	59	0	1156579328	44	4583
2026-01-12 09:50:44.04	21.06	13.12	-36.8	-38.5	15.9	0.00e+00	0	59	0	1161822208	44	4568
2026-01-12 09:50:45.05	20.87	13.08	-36.8	-38.5	15.9	0.00e+00	0	59	0	1168113664	44	4553
2026-01-12 09:50:46.06	20.68	13.04	-36.8	-38.4	16.0	0.00e+00	0	59	0	1173356544	44	4539
2026-01-12 09:50:47.07	20.50	13.01	-36.9	-38.5	15.9	0.00e+00	0	59	0	1178599424	44	4592
2026-01-12 09:50:48.08	20.31	12.97	-36.8	-38.5	15.9	0.00e+00	0	59	0	1184890880	44	4570
2026-01-12 09:50:49.09	20.13	12.93	-36.8	-38.5	15.9	0.00e+00	0	59	0	1190133760	44	4552
2026-01-12 09:50:50.10	19.94	12.90	-36.7	-38.4	16.0	0.00e+00	0	59	0	1196425216	44	4526
2026-01-12 09:50:51.11	19.76	12.86	-36.8	-38.4	16.0	0.00e+00	0	59	0	1201668096	44	4530
2026-01-12 09:50:52.12	19.57	12.82	-36.8	-38.5	15.9	0.00e+00	0	59	0	1207959552	44	4571
2026-01-12 09:50:53.13	19.39	12.78	-36.7	-38.4	16.0	0.00e+00	0	58	0	1213202432	44	4513
2026-01-12 09:50:54.14	19.21	12.74	-36.7	-38.4	16.0	0.00e+00	0	59	0	1218445312	44	4517
2026-01-12 09:50:55.15	19.03	12.70	-36.7	-38.4	16.0	0.00e+00	0	59	0	1224736768	44	4507
2026-01-12 09:50:56.16	18.84	12.67	-36.7	-38.3	16.1	0.00e+00	0	59	0	1229979648	44	4477
2026-01-12 09:50:57.18	18.66	12.63	-36.7	-38.3	16.1	0.00e+00	0	59	0	1236271104	44	4469
2026-01-12 09:50:58.19	18.48	12.59	-36.8	-38.4	15.9	0.00e+00	0	59	0	1241513984	44	4531
2026-01-12 09:50:59.20	18.30	12.55	-36.9	-38.6	15.7	0.00e+00	0	59	0	1246756864	44	4637
2026-01-12 09:51:00.21	18.12	12.51	-36.8	-38.5	15.9	0.00e+00	0	59	0	1253048320	44	4547
2026-01-12 09:51:01.22	17.94	12.47	-36.8	-38.4	15.9	0.00e+00	0	59	0	1258291200	44	4533
2026-01-12 09:51:02.23	17.76	12.43	-36.8	-38.5	15.8	0.00e+00	0	59	0	1264582656	44	4572
2026-01-12 09:51:03.24	17.59	12.39	-36.9	-38.6	15.7	0.00e+00	0	59	0	1269825536	44	4612
2026-01-12 09:51:04.25	17.41	12.35	-36.9	-38.6	15.8	0.00e+00	0	59	0	1276116992	44	4634
2026-01-12 09:51:05.26	17.23	12.30	-37.1	-38.8	15.5	0.00e+00	0	59	0	1281359872	44	4758
2026-01-12 09:51:06.27	17.05	12.26	-37.2	-39.0	15.3	0.00e+00	0	59	0	1286602752	45	4571
2026-01-12 09:51:07.28	16.88	12.22	-37.2	-39.0	15.3	0.00e+00	0	59	0	1292894208	45	4592
2026-01-12 09:51:08.29	16.70	12.18	-37.2	-39.0	15.3	0.00e+00	0	59	0	1298137088	45	4592
2026-01-12 09:51:09.30	16.53	12.14	-37.3	-39.1	15.2	0.00e+00	0	59	0	1304428544	45	4631
2026-01-12 09:51:10.30	16.36	12.10	-37.2	-39.0	15.3	0.00e+00	0	59	0	1309671424	45	4594
2026-01-12 09:51:11.32	16.18	12.06	-37.2	-38.9	15.4	0.00e+00	0	59	0	1314914304	45	4538
2026-01-12 09:51:12.32	16.01	12.01	-37.0	-38.8	15.5	0.00e+00	0	59	0	1321205760	45	4455
2026-01-12 09:51:13.33	15.83	11.97	-37.1	-38.9	15.4	0.00e+00	0	59	0	1326448640	45	4507
2026-01-12 09:51:14.35	15.66	11.93	-37.1	-38.8	15.4	0.00e+00	0	59	0	1332740096	45	4493
2026-01-12 09:51:15.36	15.49	11.89	-37.1	-38.9	15.3	0.00e+00	0	59	0	1337982976	45	4527
2026-01-12 09:51:16.37	15.32	11.84	-37.2	-39.0	15.3	0.00e+00	0	59	0	1343225856	45	4553
2026-01-12 09:51:17.37	15.15	11.80	-37.2	-39.0	15.2	0.00e+00	0	59	0	1349517312	45	4572
2026-01-12 09:51:18.39	14.98	11.76	-37.3	-39.1	15.0	0.00e+00	0	59	0	1354760192	45	4648
2026-01-12 09:51:19.40	14.81	11.71	-37.1	-38.9	15.3	0.00e+00	0	59	0	1361051648	45	4500
2026-01-12 09:51:20.41	14.64	11.67	-37.2	-39.1	15.1	0.00e+00	0	59	0	1366294528	45	4608
2026-01-12 09:51:21.42	14.47	11.63	-37.3	-39.2	15.0	0.00e+00	0	59	0	1372585984	45	4674
2026-01-12 09:51:22.43	14.30	11.58	-37.4	-39.3	14.8	0.00e+00	0	59	0	1377828864	45	4753
2026-01-12 09:51:23.44	14.13	11.54	-37.4	-39.3	14.8	2.20e-06	0	59	0	1384120320	45	4731
2026-01-12 09:51:24.45	13.96	11.49	-37.6	-39.5	14.6	0.00e+00	0	59	0	1389363200	45	4842
2026-01-12 09:51:25.46	13.80	11.45	-37.5	-39.4	14.7	1.10e-06	0	59	0	1394606080	45	4784
2026-01-12 09:51:26.47	13.63	11.40	-37.5	-39.4	14.6	1.10e-06	0	59	0	1400897536	45	4803
2026-01-12 09:51:27.48	13.46	11.36	-37.4	-39.3	14.8	0.00e+00	0	59	0	1406140416	45	4708
2026-01-12 09:51:28.49	13.30	11.31	-37.4	-39.3	14.7	0.00e+00	0	59	0	1412431872	45	4732
2026-01-12 09:51:29.50	13.13	11.27	-37.4	-39.3	14.7	1.10e-06	0	59	0	1417674752	45	4749
2026-01-12 09:51:30.51	12.97	11.22	-37.4	-39.3	14.7	0.00e+00	0	59	0	1422917632	45	4707
2026-01-12 09:51:31.52	12.81	11.18	-37.4	-39.3	14.6	2.20e-06	0	59	0	1429209088	45	4734
2026-01-12 09:51:32.53	12.64	11.13	-37.7	-39.7	14.2	1.10e-06	0	59	0	1434451968	45	4953
2026-01-12 09:51:33.54	12.48	11.09	-37.7	-39.8	14.0	3.40e-06	0	59	0	1440743424	46	4731
2026-01-12 09:51:34.55	12.32	11.04	-37.7	-39.7	14.0	5.70e-06	0	59	0	1445986304	46	4704
2026-01-12 09:51:35.56	12.16	11.00	-37.5	-39.6	14.1	4.50e-06	0	59	0	1451229184	46	4607
2026-01-12 09:51:36.57	11.99	10.95	-37.2	-39.1	14.5	3.40e-06	0	59	0	1457520640	46	4375
2026-01-12 09:51:37.58	11.83	10.90	-37.0	-39.0	14.5	0.00e+00	0	59	0	1462763520	46	4306
2026-01-12 09:51:38.60	11.67	10.86	-36.9	-38.8	14.6	1.10e-06	0	59	0	1469054976	45	4463
2026-01-12 09:51:39.61	11.51	10.81	-36.8	-38.8	14.4	0.00e+00	0	59	0	1474297856	45	4489
2026-01-12 09:51:40.62	11.35	10.76	-37.2	-39.3	13.7	9.10e-06	0	59	0	1480589312	45	4757
2026-01-12 09:51:41.62	11.20	10.72	-37.9	-40.4	12.4	1.51e-04	0	59	0	1485832192	46	5084
2026-01-12 09:51:42.63	11.04	10.67	-38.5	-41.5	10.9	1.42e-03	0	59	0	1492123648	47	5459
2026-01-12 09:51:43.64	10.88	10.62	-39.1	-42.9	9.3	1.70e-02	0	59	0	1497366528	48	6021
2026-01-12 09:51:44.65	10.72	10.58	-39.6	-44.3	7.7	7.70e-02	0	59	0	1502609408	49	6676
2026-01-12 09:51:45.66	10.57	10.53	-40.0	-45.5	6.3	2.08e-01	0	59	0	1508900864	50	7285
2026-01-12 09:51:46.67	10.41	10.48	-40.1	-46.7	5.3	6.46e-01	0	59	0	1513095168	50	8309
2026-01-12 09:51:47.68	10.26	10.44	-40.2	-47.7	4.6	7.91e-01	0	59	0	1513095168	51	8845
2026-01-12 09:51:48.69	10.10	10.39	-40.3	-48.9	4.2	8.33e-01	0	59	0	1513095168	51	10095
2026-01-12 09:51:49.70	9.95	10.34	-40.3	-49.4	4.1	8.42e-01	0	59	0	1513095168	51	10773
2026-01-12 09:51:50.71	9.79	10.29	-40.3	-50.4	3.8	8.46e-01	0	59	104	1513095168	51	12081
2026-01-12 09:51:51.72	9.64	10.24	-40.3	-51.0	3.8	8.44e-01	0	59	104	1513095168	51	12937
2026-01-12 09:51:52.73	9.49	10.20	-40.4	-51.6	3.8	8.46e-01	0	59	104	1513095168	51	13806
2026-01-12 09:51:53.74	9.33	10.15	-40.6	-51.4	3.8	8.45e-01	0	59	104	1513095168	51	13564
2026-01-12 09:51:54.75	9.18	10.10	-40.2	-51.8	3.8	8.45e-01	0	59	104	1513095168	51	14124
2026-01-12 09:51:55.76	9.03	10.05	-40.2	-51.9	3.8	8.46e-01	0	59	104	1513095168	51	14232
2026-01-12 09:51:56.77	8.88	10.00	-40.7	-51.7	3.8	8.46e-01	0	59	104	1513095168	51	14013
2026-01-12 09:51:57.78	8.73	9.96	-40.5	-51.7	3.8	8.48e-01	0	59	104	1513095168	52	13212
2026-01-12 09:51:58.79	8.58	9.91	-40.4	-51.8	3.8	8.47e-01	0	59	104	1513095168	52	13286
2026-01-12 09:51:59.80	8.43	9.86	-40.3	-51.7	3.8	8.46e-01	0	59	104	1513095168	52	13151
2026-01-12 09:52:00.81	8.28	9.81	-40.1	-51.6	3.8	8.46e-01	0	59	104	1513095168	52	13004
2026-01-12 09:52:01.82	8.13	9.76	-40.1	-51.8	3.8	8.46e-01	0	59	104	1513095168	52	13410
2026-01-12 09:52:02.83	7.98	9.71	-39.9	-51.6	3.8	8.46e-01	0	59	104	1513095168	51	13745
2026-01-12 09:52:03.84	7.84	9.66	-40.2	-51.9	3.8	8.46e-01	0	59	104	1513095168	51	14239
2026-01-12 09:52:04.85	7.69	9.61	-39.9	-51.5	3.8	8.46e-01	0	59	104	1513095168	51	13689
2026-01-12 09:52:05.85	7.55	9.57	-40.2	-51.8	3.8	8.46e-01	0	59	104	1513095168	51	14193
2026-01-12 09:52:06.87	7.40	9.52	-39.8	-51.5	3.8	8.47e-01	0	59	104	1513095168	51	13635
2026-01-12 09:52:07.87	7.25	9.47	-39.8	-51.5	3.8	8.46e-01	0	59	104	1513095168	51	13658
2026-01-12 09:52:08.88	7.11	9.42	-40.0	-51.6	3.8	8.47e-01	0	59	104	1513095168	51	13863
2026-01-12 09:52:09.89	6.96	9.37	-39.8	-51.4	3.8	8.47e-01	0	59	104	1513095168	51	13566
2026-01-12 09:52:10.90	6.82	9.32	-39.9	-51.6	3.8	8.46e-01	0	59	104	1513095168	51	13801
2026-01-12 09:52:11.91	6.68	9.27	-40.1	-51.8	3.8	8.46e-01	0	59	104	1513095168	51	14151
2026-01-12 09:52:12.92	6.53	9.22	-39.8	-51.4	3.8	8.47e-01	0	59	104	1513095168	51	13489
2026-01-12 09:52:13.93	6.39	9.17	-40.1	-51.8	3.8	8.46e-01	0	59	104	1513095168	51	14139
2026-01-12 09:52:14.94	6.25	9.12	-39.8	-51.4	3.8	8.46e-01	0	59	104	1513095168	51	13467
2026-01-12 09:52:15.95	6.11	9.07	-39.8	-51.4	3.8	8.47e-01	0	59	104	1513095168	51	13531
2026-01-12 09:52:16.96	5.97	9.02	-39.8	-51.5	3.8	8.47e-01	0	59	104	1513095168	51	13589
2026-01-12 09:52:17.97	5.83	8.97	-39.7	-51.4	3.8	8.46e-01	0	59	104	1513095168	51	13477
2026-01-12 09:52:18.98	5.69	8.92	-39.8	-51.5	3.8	8.46e-01	0	59	104	1513095168	51	13573
2026-01-12 09:52:19.99	5.55	8.87	-39.9	-51.7	3.8	8.46e-01	0	59	104	1513095168	51	13914
2026-01-12 09:52:21.00	5.41	8.82	-39.8	-51.4	3.8	8.46e-01	0	59	104	1513095168	51	13520
2026-01-12 09:52:22.01	5.27	8.77	-39.9	-51.6	3.8	8.46e-01	0	59	104	1513095168	51	13824
2026-01-12 09:52:23.02	5.13	8.72	-39.8	-51.4	3.8	8.46e-01	0	59	104	1513095168	51	13479
2026-01-12 09:52:24.02	5.00	8.67	-39.8	-51.5	3.8	8.45e-01	0	59	104	1513095168	51	13597
2026-01-12 09:52:25.03	4.86	8.62	-39.8	-51.4	3.8	8.46e-01	0	59	104	1513095168	51	13537
2026-01-12 09:52:26.04	4.72	8.57	-39.8	-51.5	3.8	8.47e-01	0	59	104	1513095168	51	13631
2026-01-12 09:52:27.05	4.59	8.52	-39.7	-51.4	3.8	8.46e-01	0	59	104	1513095168	51	13529
2026-01-12 09:52:28.06	4.45	8.47	-39.9	-51.6	3.8	8.47e-01	0	59	104	1513095168	51	13788
2026-01-12 09:52:29.07	4.32	8.42	-39.8	-51.4	3.8	8.46e-01	0	59	104	1513095168	51	13555
2026-01-12 09:52:30.08	4.18	8.37	-39.9	-51.6	3.8	8.46e-01	0	59	104	1513095168	51	13746
2026-01-12 09:52:31.10	4.05	8.31	-39.8	-51.4	3.8	8.47e-01	0	59	104	1513095168	51	13564
2026-01-12 09:52:32.10	3.92	8.26	-39.7	-51.4	3.8	8.45e-01	0	59	104	1513095168	51	13544
2026-01-12 09:52:33.12	3.78	8.21	-39.8	-51.4	3.8	8.46e-01	0	59	104	1513095168	51	13563
2026-01-12 09:52:34.13	3.65	8.16	-39.7	-51.4	3.8	8.45e-01	0	59	104	1513095168	51	13445
2026-01-12 09:52:35.14	3.52	8.11	-39.8	-51.5	3.8	8.45e-01	0	59	104	1513095168	51	13586
2026-01-12 09:52:36.15	3.39	8.06	-39.7	-51.4	3.8	8.45e-01	0	59	104	1513095168	51	13531
2026-01-12 09:52:37.16	3.25	8.01	-39.8	-51.4	3.8	8.47e-01	0	59	104	1513095168	51	13519
2026-01-12 09:52:38.17	3.12	7.96	-40.0	-51.7	3.8	8.45e-01	0	59	104	1513095168	51	13897
2026-01-12 09:52:39.18	2.99	7.91	-44.0	-55.5	3.8	8.46e-01	0	59	104	1513095168	58	14442
2026-01-12 09:52:40.19	2.86	7.86	-44.7	-56.3	3.8	8.46e-01	0	59	104	1513095168	60	14161
2026-01-12 09:52:41.20	2.73	7.80	-44.9	-56.6	3.8	8.45e-01	0	59	104	1513095168	60	14610
2026-01-12 09:52:42.21	2.61	7.75	-45.0	-56.7	3.8	8.46e-01	0	59	104	1513095168	60	14838
2026-01-12 09:52:43.22	2.48	7.70	-45.1	-56.8	3.8	8.45e-01	0	59	104	1513095168	60	14993
2026-01-12 09:52:44.24	2.35	7.65	-45.2	-56.9	3.8	8.47e-01	0	59	104	1513095168	60	15139
2026-01-12 09:52:45.25	2.22	7.60	-45.2	-57.0	3.8	8.45e-01	0	59	104	1513095168	61	14416
2026-01-12 09:52:46.26	2.09	7.55	-45.3	-56.9	3.8	8.47e-01	0	59	104	1513095168	61	14356
2026-01-12 09:52:47.27	1.97	7.50	-45.2	-56.9	3.8	8.46e-01	0	59	104	1513095168	61	14352
2026-01-12 09:52:48.28	1.84	7.45	-45.2	-56.9	3.8	8.46e-01	0	59	104	1513095168	61	14271
2026-01-12 09:52:49.29	1.72	7.39	-45.1	-56.8	3.8	8.46e-01	0	59	104	1513095168	61	14104
2026-01-12 09:52:50.30	1.59	7.34	-45.1	-56.7	3.8	8.46e-01	0	59	104	1513095168	61	14016
2026-01-12 09:52:51.31	1.47	7.29	-45.0	-56.7	3.8	8.45e-01	0	59	104	1513095168	61	13945
2026-01-12 09:52:52.32	1.34	7.24	-45.0	-56.7	3.8	8.46e-01	0	59	104	1513095168	61	13887
2026-01-12 09:52:53.33	1.22	7.19	-45.0	-56.6	3.8	8.47e-01	0	59	104	1513095168	61	13829
2026-01-12 09:52:54.35	1.09	7.14	-45.0	-56.6	3.8	8.46e-01	0	59	104	1513095168	61	13845
2026-01-12 09:52:55.36	0.97	7.08	-44.9	-56.6	3.8	8.47e-01	0	59	104	1513095168	60	14627
2026-01-12 09:52:56.37	0.85	7.03	-44.9	-56.6	3.8	8.45e-01	0	59	104	1513095168	60	14625
2026-01-12 09:52:57.38	0.73	6.98	-44.9	-56.6	3.8	8.46e-01	0	59	104	1513095168	60	14645
2026-01-12 09:52:58.39	0.60	6.93	-45.0	-56.6	3.8	8.46e-01	0	59	104	1513095168	60	14628
2026-01-12 09:52:59.40	0.48	6.88	-45.0	-56.6	3.8	8.47e-01	0	59	104	1513095168	60	14606
2026-01-12 09:53:00.41	0.36	6.83	-45.0	-56.6	3.8	8.47e-01	0	59	104	1513095168	60	14592
2026-01-12 09:53:01.42	0.24	6.77	-45.0	-56.6	3.8	8.46e-01	0	59	104	1513095168	60	14626
2026-01-12 09:53:02.43	0.12	6.72	-45.0	-56.6	3.8	8.46e-01	0	59	104	1513095168	60	14623
2026-01-12 09:53:03.44	0.00	6.67	-44.9	-56.6	3.8	8.47e-01	0	59	104	1513095168	60	14615
2026-01-12 09:53:04.46	359.88	6.62	-44.8	-56.6	3.8	8.46e-01	0	59	104	1513095168	60	14659
2026-01-12 09:53:05.47	359.76	6.57	-44.9	-56.6	3.8	8.46e-01	0	59	104	1513095168	60	14594
2026-01-12 09:53:06.48	359.65	6.52	-44.9	-56.6	3.8	8.47e-01	0	59	104	1513095168	60	14655
2026-01-12 09:53:07.49	359.53	6.46	-45.0	-56.6	3.8	8.46e-01	0	59	104	1513095168	60	14623
2026-01-12 09:53:08.50	359.41	6.41	-44.9	-56.6	3.8	8.46e-01	0	59	104	1513095168	60	14621
2026-01-12 09:53:09.51	359.29	6.36	-44.9	-56.6	3.8	8.45e-01	0	59	104	1513095168	60	14657
2026-01-12 09:53:10.52	359.18	6.31	-44.9	-56.6	3.8	8.46e-01	0	59	104	1513095168	60	14613
2026-01-12 09:53:11.53	359.06	6.26	-44.9	-56.6	3.8	8.45e-01	0	59	104	1513095168	60	14625
2026-01-12 09:53:12.54	358.95	6.21	-44.9	-56.6	3.8	8.45e-01	0	59	104	1513095168	60	14615
2026-01-12 09:53:13.55	358.83	6.15	-44.9	-56.6	3.8	8.46e-01	0	59	104	1513095168	60	14559
2026-01-12 09:53:14.57	358.72	6.10	-45.0	-56.6	3.8	8.46e-01	0	59	104	1513095168	60	14638
2026-01-12 09:53:15.58	358.60	6.05	-44.9	-56.6	3.8	8.47e-01	0	59	104	1513095168	60	14600
2026-01-12 09:53:16.59	358.49	6.00	-44.9	-56.6	3.8	8.46e-01	0	59	104	1513095168	60	14582
2026-01-12 09:53:17.60	358.38	5.95	-44.9	-56.6	3.8	8.45e-01	0	59	104	1513095168	60	14596
2026-01-12 09:53:18.61	358.26	5.89	-44.9	-56.6	3.8	8.47e-01	0	59	104	1513095168	60	14626
2026-01-12 09:53:19.62	358.15	5.84	-44.9	-56.6	3.8	8.46e-01	0	59	104	1513095168	60	14612
2026-01-12 09:53:20.63	358.04	5.79	-44.9	-56.6	3.8	8.46e-01	0	59	104	1513095168	60	14566
2026-01-12 09:53:21.64	357.93	5.74	-44.9	-56.6	3.8	8.47e-01	0	59	104	1513095168	60	14573
2026-01-12 09:53:22.65	357.81	5.69	-44.9	-56.6	3.8	8.46e-01	0	59	104	1513095168	60	14586
2026-01-12 09:53:23.66	357.70	5.63	-44.9	-56.5	3.8	8.46e-01	0	59	104	1513095168	60	14527
2026-01-12 09:53:24.67	357.59	5.58	-44.9	-56.6	3.8	8.45e-01	0	59	104	1513095168	60	14563
2026-01-12 09:53:25.68	357.48	5.53	-44.9	-56.6	3.8	8.47e-01	0	59	104	1513095168	60	14554
2026-01-12 09:53:26.70	357.37	5.48	-44.9	-56.6	3.8	8.46e-01	0	59	104	1513095168	60	14631
2026-01-12 09:53:27.71	357.26	5.43	-44.9	-56.6	3.8	8.47e-01	0	59	104	1513095168	60	14592
2026-01-12 09:53:28.72	357.15	5.38	-44.9	-56.6	3.8	8.47e-01	0	59	104	1513095168	60	14589
2026-01-12 09:53:29.73	357.05	5.32	-44.9	-56.6	3.8	8.46e-01	0	59	104	1513095168	60	14555
2026-01-12 09:53:30.74	356.94	5.27	-44.9	-56.6	3.8	8.46e-01	0	59	104	1513095168	60	14576
2026-01-12 09:53:31.75	356.83	5.22	-44.9	-56.6	3.8	8.45e-01	0	59	104	1513095168	60	14567
2026-01-12 09:53:32.76	356.72	5.17	-44.9	-56.6	3.8	8.47e-01	0	59	104	1513095168	60	14576
2026-01-12 09:53:33.77	356.62	5.12	-44.9	-56.6	3.8	8.47e-01	0	59	104	1513095168	60	14565
2026-01-12 09:53:34.78	356.51	5.06	-44.9	-56.6	3.8	8.46e-01	0	59	104	1513095168	60	14590
2026-01-12 09:53:35.79	356.40	5.01	-44.9	-56.6	3.8	8.47e-01	0	59	104	1513095168	60	14576
2026-01-12 09:53:36.81	356.30	4.96	-44.9	-56.6	3.8	8.45e-01	0	59	104	1513095168	60	14602
2026-01-12 09:53:37.82	356.19	4.91	-44.9	-56.6	3.8	8.47e-01	0	59	104	1513095168	60	14560
2026-01-12 09:53:38.83	356.09	4.86	-44.9	-56.6	3.8	8.46e-01	0	59	104	1513095168	60	14601
2026-01-12 09:53:39.84	355.98	4.81	-44.9	-56.6	3.8	8.46e-01	0	59	104	1513095168	60	14546
2026-01-12 09:53:40.85	355.88	4.75	-44.9	-56.5	3.8	8.45e-01	0	59	104	1513095168	60	14534
2026-01-12 09:53:41.86	355.77	4.70	-44.9	-56.6	3.8	8.46e-01	0	59	104	1513095168	60	14605
2026-01-12 09:53:42.87	355.67	4.65	-44.9	-56.5	3.8	8.46e-01	0	59	104	1513095168	60	14526
2026-01-12 09:53:43.88	355.57	4.60	-44.9	-56.6	3.8	8.45e-01	0	59	104	1513095168	60	14541
2026-01-12 09:53:44.89	355.46	4.55	-44.9	-56.6	3.8	8.46e-01	0	59	104	1513095168	60	14596
2026-01-12 09:53:45.90	355.36	4.50	-44.9	-56.6	3.8	8.46e-01	0	59	104	1513095168	60	14556
2026-01-12 09:53:46.91	355.26	4.44	-44.9	-56.6	3.8	8.47e-01	0	59	104	1513095168	60	14582
2026-01-12 09:53:47.92	355.16	4.39	-44.9	-56.5	3.8	8.46e-01	0	59	104	1513095168	60	14519
2026-01-12 09:53:48.93	355.06	4.34	-44.9	-56.6	3.8	8.46e-01	0	59	104	1513095168	60	14554
2026-01-12 09:53:49.95	354.96	4.29	-44.9	-56.6	3.8	8.46e-01	0	59	104	1513095168	60	14552
2026-01-12 09:53:50.96	354.86	4.24	-44.9	-56.6	3.8	8.46e-01	0	59	104	1513095168	60	14602
2026-01-12 09:53:51.97	354.76	4.19	-44.9	-56.6	3.8	8.45e-01	0	59	104	1513095168	60	14563
2026-01-12 09:53:52.98	354.66	4.13	-44.7	-56.6	3.8	8.46e-01	0	59	104	1513095168	60	14553
2026-01-12 09:53:53.99	354.56	4.08	-44.9	-56.5	3.8	8.46e-01	0	59	104	1513095168	60	14531
2026-01-12 09:53:55.00	354.46	4.03	-44.9	-56.6	3.8	8.46e-01	0	59	104	1513095168	60	14546
2026-01-12 09:53:56.01	354.36	3.98	-44.9	-56.6	3.8	8.47e-01	0	59	104	1513095168	60	14569
2026-01-12 09:53:57.02	354.26	3.93	-44.4	-56.5	3.8	8.45e-01	0	59	104	1513095168	60	14528
2026-01-12 09:53:58.03	354.16	3.88	-44.9	-56.6	3.8	8.47e-01	0	59	104	1513095168	60	14552
2026-01-12 09:53:59.04	354.07	3.82	-44.9	-56.5	3.8	8.45e-01	0	59	104	1513095168	60	14520
2026-01-12 09:54:00.06	353.97	3.77	-44.9	-56.6	3.8	8.46e-01	0	59	104	1513095168	60	14559
2026-01-12 09:54:01.07	353.87	3.72	-44.9	-56.5	3.8	8.45e-01	0	59	104	1513095168	60	14531
2026-01-12 09:54:02.08	353.77	3.67	-44.9	-56.5	3.8	8.46e-01	0	59	104	1513095168	60	14522
2026-01-12 09:54:03.09	353.68	3.62	-45.0	-56.4	3.8	8.45e-01	0	59	104	1513095168	59	15164
2026-01-12 09:54:04.10	353.58	3.57	-44.9	-56.5	3.8	8.46e-01	0	59	104	1513095168	60	14510
2026-01-12 09:54:05.11	353.49	3.52	-44.9	-56.6	3.8	8.47e-01	0	59	104	1513095168	60	14564
2026-01-12 09:54:06.12	353.39	3.46	-44.2	-56.6	3.8	8.46e-01	0	59	104	1513095168	60	14552
2026-01-12 09:54:07.13	353.30	3.41	-44.9	-56.6	3.8	8.46e-01	0	59	104	1513095168	60	14551
2026-01-12 09:54:08.14	353.20	3.36	-44.9	-56.6	3.8	8.47e-01	0	59	104	1513095168	60	14583
2026-01-12 09:54:09.15	353.11	3.31	-44.9	-56.6	3.8	8.46e-01	0	59	104	1513095168	60	14541
2026-01-12 09:54:10.16	353.01	3.26	-44.9	-56.5	3.8	8.45e-01	0	59	104	1513095168	60	14535
2026-01-12 09:54:11.18	352.92	3.21	-44.8	-56.5	3.8	8.45e-01	0	59	104	1513095168	60	14488
2026-01-12 09:54:12.19	352.83	3.16	-44.9	-56.5	3.8	8.47e-01	0	59	104	1513095168	60	14515
2026-01-12 09:54:13.20	352.74	3.11	-44.9	-56.5	3.8	8.46e-01	0	59	104	1513095168	60	14533
2026-01-12 09:54:14.21	352.64	3.06	-44.9	-56.5	3.8	8.47e-01	0	59	104	1513095168	60	14473
2026-01-12 09:54:15.22	352.55	3.00	-44.9	-56.5	3.8	8.47e-01	0	59	104	1513095168	60	14442
2026-01-12 09:54:16.23	352.46	2.95	-44.9	-56.6	3.8	8.46e-01	0	59	104	1513095168	60	14551
2026-01-12 09:54:17.24	352.37	2.90	-44.9	-56.5	3.8	8.45e-01	0	59	104	1513095168	60	14506
2026-01-12 09:54:18.25	352.28	2.85	-44.9	-56.5	3.8	8.46e-01	0	59	104	1513095168	60	14487
2026-01-12 09:54:19.26	352.19	2.80	-44.3	-56.3	3.8	8.46e-01	0	59	104	1513095168	59	14927
2026-01-12 09:54:20.28	352.09	2.75	-44.9	-56.5	3.8	8.46e-01	0	60	104	1513095168	60	14493
2026-01-12 09:54:21.29	352.00	2.70	-44.9	-56.5	3.8	8.47e-01	0	59	104	1513095168	60	14475
2026-01-12 09:54:22.30	351.91	2.65	-44.9	-56.5	3.8	8.46e-01	0	59	104	1513095168	60	14480
2026-01-12 09:54:23.31	351.83	2.60	-44.9	-56.5	3.8	8.46e-01	0	59	104	1513095168	60	14517
2026-01-12 09:54:24.32	351.74	2.54	-44.9	-56.5	3.8	8.46e-01	0	59	104	1513095168	60	14490
2026-01-12 09:54:25.33	351.65	2.49	-44.9	-56.5	3.8	8.46e-01	0	59	104	1513095168	60	14497
2026-01-12 09:54:26.34	351.56	2.44	-44.9	-56.5	3.8	8.46e-01	0	59	104	1513095168	60	14488
2026-01-12 09:54:27.35	351.47	2.39	-44.9	-56.5	3.8	8.46e-01	0	59	104	1513095168	60	14452
2026-01-12 09:54:28.36	351.38	2.34	-44.9	-56.5	3.8	8.47e-01	0	59	104	1513095168	60	14445
2026-01-12 09:54:29.37	351.30	2.29	-44.9	-56.5	3.8	8.46e-01	0	59	104	1513095168	60	14437
2026-01-12 09:54:30.38	351.21	2.24	-44.8	-56.5	3.8	8.46e-01	0	59	104	1513095168	60	14528
2026-01-12 09:54:31.40	351.12	2.19	-44.9	-56.5	3.8	8.47e-01	0	59	104	1513095168	60	14525
2026-01-12 09:54:32.41	351.03	2.14	-44.9	-56.5	3.8	8.47e-01	0	59	104	1513095168	60	14489
2026-01-12 09:54:33.42	350.95	2.09	-44.9	-56.5	3.8	8.46e-01	0	59	104	1513095168	60	14483
2026-01-12 09:54:34.43	350.86	2.04	-44.9	-56.5	3.8	8.47e-01	0	59	104	1513095168	60	14442
2026-01-12 09:54:35.44	350.78	1.99	-44.9	-56.5	3.8	8.46e-01	0	59	104	1513095168	60	14437

#Closed at: 2026-01-12 09:54:36
#Recorded file [1513 MB]: D:/lorett/data/31039_260112_124322.dat