passes_logs/2026/01/12/R2.0S_Moscow/R2.0S_Moscow__20260112_222855_FENGYUN_3G_rec.log

#Pass ID: 20260112_222855_FENGYUN 3G
#Satellite: FENGYUN 3G
#Configuration: FENGYUN 3G
#almurnet v.1.7.20251203
#Start time: 2026-01-12 22:28:55

#Version: 2.2.20231116
#Station: R2.0S_Moscow
#Location: 37.707566 lon 55.798166 lat
#TLE: 1 56232U 23055A   26012.28315646  .00028343  00000+0  44482-3 0  9993
#TLE: 2 56232  49.9940  69.9476 0004238  14.1066 346.0019 15.53388001155773

#Time	Az	El	Level	Level2	SNR	BER	BlckErr	Temp	State	Recorded	gain1	gain2
2026-01-12 22:28:55.34	219.39	2.01	-44.0	-62.1	3.8	8.46e-01	0	50	0	0	59	29261
2026-01-12 22:28:56.35	219.30	2.07	-44.0	-62.1	3.8	8.45e-01	0	50	104	0	59	29209
2026-01-12 22:28:57.36	219.20	2.13	-44.0	-62.1	3.8	8.46e-01	0	50	104	0	59	29212
2026-01-12 22:28:58.37	219.10	2.19	-44.0	-62.1	3.8	8.47e-01	0	50	104	0	59	29138
2026-01-12 22:28:59.38	219.01	2.26	-43.9	-62.1	3.8	8.47e-01	0	50	104	0	59	29223
2026-01-12 22:29:00.39	218.91	2.32	-44.0	-62.1	3.8	8.47e-01	0	50	104	0	59	29137
2026-01-12 22:29:01.40	218.81	2.38	-43.9	-62.1	3.8	8.47e-01	0	51	104	0	59	29229
2026-01-12 22:29:02.41	218.71	2.44	-43.9	-62.1	3.8	8.47e-01	0	51	104	0	59	29165
2026-01-12 22:29:03.42	218.61	2.51	-43.9	-62.1	3.8	8.46e-01	0	51	104	0	59	29143
2026-01-12 22:29:04.43	218.51	2.57	-44.0	-62.1	3.8	8.46e-01	0	51	104	0	59	29179
2026-01-12 22:29:05.45	218.41	2.63	-44.0	-62.1	3.8	8.46e-01	0	51	104	0	59	29131
2026-01-12 22:29:06.46	218.31	2.70	-43.9	-62.1	3.8	8.47e-01	0	51	104	0	59	29131
2026-01-12 22:29:07.47	218.20	2.76	-43.9	-62.1	3.8	8.45e-01	0	51	104	0	59	29186
2026-01-12 22:29:08.48	218.10	2.82	-43.9	-62.1	3.8	8.45e-01	0	51	104	0	59	29143
2026-01-12 22:29:09.49	218.00	2.89	-43.9	-62.1	3.8	8.47e-01	0	51	104	0	59	29173
2026-01-12 22:29:10.50	217.89	2.95	-43.9	-62.1	3.8	8.46e-01	0	51	104	0	59	29106
2026-01-12 22:29:11.51	217.79	3.01	-43.9	-62.1	3.8	8.46e-01	0	51	104	0	59	29141
2026-01-12 22:29:12.52	217.68	3.08	-44.0	-62.1	3.8	8.46e-01	0	51	104	0	59	29134
2026-01-12 22:29:13.53	217.58	3.14	-43.9	-62.1	3.8	8.46e-01	0	51	104	0	59	29105
2026-01-12 22:29:14.54	217.47	3.20	-43.9	-62.1	3.8	8.46e-01	0	51	104	0	59	29119
2026-01-12 22:29:15.55	217.36	3.27	-43.9	-62.1	3.8	8.46e-01	0	52	104	0	59	29163
2026-01-12 22:29:16.56	217.25	3.33	-43.9	-62.1	3.8	8.46e-01	0	51	104	0	59	29068
2026-01-12 22:29:17.57	217.15	3.40	-43.9	-62.1	3.8	8.46e-01	0	52	104	0	59	29114
2026-01-12 22:29:18.58	217.04	3.46	-43.9	-62.1	3.8	8.46e-01	0	52	104	0	59	29162
2026-01-12 22:29:19.59	216.93	3.53	-43.9	-62.1	3.8	8.46e-01	0	52	104	0	59	29084
2026-01-12 22:29:20.60	216.81	3.59	-43.9	-62.1	3.8	8.46e-01	0	52	104	0	59	29102
2026-01-12 22:29:21.61	216.70	3.66	-43.9	-62.1	3.8	8.46e-01	0	52	104	0	59	29097
2026-01-12 22:29:22.62	216.59	3.72	-43.9	-62.1	3.8	8.46e-01	0	52	104	0	59	29073
2026-01-12 22:29:23.63	216.48	3.79	-43.9	-62.1	3.8	8.47e-01	0	52	104	0	59	29149
2026-01-12 22:29:24.64	216.36	3.86	-43.9	-62.1	3.8	8.45e-01	0	52	104	0	59	29076
2026-01-12 22:29:25.65	216.25	3.92	-43.9	-62.1	3.8	8.45e-01	0	52	104	0	59	29075
2026-01-12 22:29:26.66	216.13	3.99	-43.9	-62.0	3.8	8.47e-01	0	52	104	0	59	28952
2026-01-12 22:29:27.67	216.02	4.05	-43.9	-62.1	3.8	8.46e-01	0	52	104	0	59	29041
2026-01-12 22:29:28.68	215.90	4.12	-43.9	-62.0	3.8	8.46e-01	0	53	104	0	59	28953
2026-01-12 22:29:29.69	215.78	4.19	-43.9	-62.0	3.8	8.46e-01	0	53	104	0	59	28959
2026-01-12 22:29:30.70	215.66	4.25	-43.9	-62.1	3.8	8.46e-01	0	53	104	0	59	29017
2026-01-12 22:29:31.70	215.55	4.32	-43.9	-62.0	3.8	8.46e-01	0	52	104	0	59	29009
2026-01-12 22:29:32.71	215.43	4.39	-43.9	-62.1	3.8	8.47e-01	0	53	104	0	59	29077
2026-01-12 22:29:33.72	215.30	4.45	-43.9	-62.1	3.8	8.46e-01	0	53	104	0	59	29067
2026-01-12 22:29:34.73	215.18	4.52	-43.9	-62.0	3.8	8.46e-01	0	53	104	0	59	28868
2026-01-12 22:29:35.74	215.06	4.59	-43.9	-61.9	3.8	8.46e-01	0	53	104	0	59	28555
2026-01-12 22:29:36.75	214.94	4.66	-43.9	-61.9	3.8	8.46e-01	0	53	104	0	59	28677
2026-01-12 22:29:37.76	214.81	4.73	-43.9	-62.1	3.8	8.46e-01	0	53	104	0	59	29061
2026-01-12 22:29:38.78	214.69	4.79	-43.9	-61.9	3.8	8.46e-01	0	53	104	0	59	28575
2026-01-12 22:29:39.79	214.56	4.86	-43.9	-61.9	3.8	8.46e-01	0	53	104	0	59	28576
2026-01-12 22:29:40.80	214.43	4.93	-43.9	-61.9	3.8	8.46e-01	0	53	104	0	59	28361
2026-01-12 22:29:41.81	214.31	5.00	-43.9	-61.8	3.8	8.46e-01	0	53	104	0	59	28123
2026-01-12 22:29:42.82	214.18	5.07	-43.9	-61.8	3.8	8.45e-01	0	53	104	0	59	28305
2026-01-12 22:29:43.82	214.05	5.14	-43.9	-61.9	3.8	8.46e-01	0	53	104	0	59	28607
2026-01-12 22:29:44.83	213.92	5.21	-43.9	-61.9	3.8	8.46e-01	0	53	104	0	59	28626
2026-01-12 22:29:45.84	213.79	5.28	-43.9	-61.7	3.8	8.46e-01	0	53	104	0	59	27968
2026-01-12 22:29:46.85	213.66	5.34	-43.9	-61.7	3.8	8.46e-01	0	53	104	0	59	27987
2026-01-12 22:29:47.86	213.52	5.41	-43.9	-61.7	3.8	8.45e-01	0	53	104	0	59	27787
2026-01-12 22:29:48.87	213.39	5.48	-43.9	-61.5	3.8	8.45e-01	0	53	104	0	59	27344
2026-01-12 22:29:49.89	213.25	5.55	-43.9	-61.4	3.8	8.47e-01	0	53	104	0	59	27049
2026-01-12 22:29:50.90	213.12	5.62	-43.9	-61.6	3.8	8.46e-01	0	54	104	0	59	27633
2026-01-12 22:29:51.90	212.98	5.69	-43.9	-61.5	3.8	8.46e-01	0	54	104	0	59	27342
2026-01-12 22:29:52.91	212.85	5.77	-43.9	-61.6	3.8	8.46e-01	0	54	104	0	59	27437
2026-01-12 22:29:53.93	212.71	5.84	-43.9	-61.7	3.8	8.46e-01	0	54	104	0	59	27969
2026-01-12 22:29:54.94	212.57	5.91	-43.9	-61.7	3.8	8.46e-01	0	54	104	0	59	27995
2026-01-12 22:29:55.94	212.43	5.98	-43.9	-61.6	3.8	8.46e-01	0	54	104	0	59	27497
2026-01-12 22:29:56.95	212.29	6.05	-43.9	-61.4	3.8	8.47e-01	0	54	104	0	59	26997
2026-01-12 22:29:57.96	212.15	6.12	-43.9	-61.3	3.8	8.47e-01	0	54	104	0	59	26544
2026-01-12 22:29:58.98	212.00	6.19	-43.9	-60.7	3.8	8.46e-01	0	54	104	0	59	24747
2026-01-12 22:29:59.99	211.86	6.26	-43.9	-60.1	3.8	8.46e-01	0	54	104	0	59	23223
2026-01-12 22:30:01.00	211.71	6.34	-43.9	-60.0	3.8	8.44e-01	0	54	104	0	59	22885
2026-01-12 22:30:02.01	211.56	6.41	-43.8	-59.3	4.0	8.44e-01	0	54	104	0	59	21209
2026-01-12 22:30:03.02	211.42	6.48	-43.8	-59.0	4.1	8.44e-01	0	54	104	0	59	20442
2026-01-12 22:30:04.03	211.27	6.55	-43.8	-58.9	4.1	8.41e-01	0	54	0	0	59	20157
2026-01-12 22:30:05.04	211.12	6.63	-43.8	-59.1	4.1	8.41e-01	0	54	0	0	59	20691
2026-01-12 22:30:06.05	210.97	6.70	-43.8	-58.3	4.3	8.41e-01	0	54	0	0	59	18746
2026-01-12 22:30:07.06	210.82	6.77	-43.7	-57.1	4.6	8.35e-01	0	54	0	0	59	16335
2026-01-12 22:30:08.07	210.67	6.84	-43.7	-55.8	5.4	8.35e-01	0	54	0	0	59	14108
2026-01-12 22:30:09.08	210.51	6.92	-43.6	-54.8	6.1	7.69e-01	0	54	0	524288	59	12551
2026-01-12 22:30:10.09	210.36	6.99	-43.4	-53.3	7.5	3.85e-01	0	55	0	1572864	58	11218
2026-01-12 22:30:11.11	210.20	7.06	-43.3	-52.5	8.2	3.85e-01	0	55	0	2621440	58	10278
2026-01-12 22:30:12.12	210.04	7.14	-43.2	-51.7	9.1	9.67e-02	0	55	0	3670016	58	9333
2026-01-12 22:30:13.13	209.89	7.21	-43.1	-51.4	9.4	3.66e-02	0	55	0	4718592	58	9066
2026-01-12 22:30:14.14	209.73	7.29	-43.1	-51.5	9.3	2.20e-02	0	55	0	6291456	58	9167
2026-01-12 22:30:15.15	209.57	7.36	-43.4	-53.0	7.8	2.20e-02	0	55	0	7340032	58	10838
2026-01-12 22:30:16.16	209.40	7.44	-43.6	-55.1	6.0	6.74e-02	0	55	0	8388608	58	13801
2026-01-12 22:30:17.17	209.24	7.51	-43.8	-59.0	4.1	5.16e-01	0	55	0	8388608	58	21655
2026-01-12 22:30:18.18	209.08	7.58	-43.8	-59.9	3.8	5.16e-01	0	55	104	8388608	58	23966
2026-01-12 22:30:19.19	208.91	7.66	-43.5	-54.7	6.2	8.44e-01	0	55	0	8388608	58	13136
2026-01-12 22:30:20.20	208.75	7.73	-43.1	-51.1	9.5	4.15e-01	0	55	0	9437184	58	8740
2026-01-12 22:30:21.21	208.58	7.81	-42.4	-48.6	12.2	4.15e-01	0	55	0	10485760	56	7351
2026-01-12 22:30:22.22	208.41	7.89	-42.0	-47.3	13.7	6.43e-03	0	55	0	11534336	56	6277
2026-01-12 22:30:23.23	208.24	7.96	-41.5	-46.3	14.5	2.74e-05	0	55	0	12582912	55	5981
2026-01-12 22:30:24.24	208.07	8.04	-41.3	-45.8	15.1	0.00e+00	0	55	0	14155776	54	5927
2026-01-12 22:30:25.25	207.90	8.11	-43.6	-53.2	7.2	0.00e+00	0	55	0	15204352	58	11086
2026-01-12 22:30:26.26	207.73	8.19	-42.4	-48.4	11.9	1.08e-01	0	55	0	16252928	56	7155
2026-01-12 22:30:27.27	207.55	8.26	-43.1	-51.2	8.6	3.15e-02	0	55	0	17301504	57	9283
2026-01-12 22:30:28.28	207.38	8.34	-41.0	-44.9	15.8	3.15e-02	0	55	0	18350080	53	5703
2026-01-12 22:30:29.29	207.20	8.42	-43.4	-54.6	6.2	3.76e-03	0	55	0	19398656	57	13825
2026-01-12 22:30:30.30	207.02	8.49	-40.8	-44.6	16.3	1.45e-01	0	55	0	20971520	53	5510
2026-01-12 22:30:31.31	206.84	8.57	-40.8	-44.6	16.4	1.45e-01	0	55	0	22020096	53	5475
2026-01-12 22:30:32.32	206.66	8.65	-40.6	-44.2	16.8	0.00e+00	0	55	0	23068672	53	5275
2026-01-12 22:30:33.32	206.48	8.72	-40.6	-44.2	16.9	0.00e+00	0	55	0	24117248	53	5268
2026-01-12 22:30:34.33	206.29	8.80	-40.7	-44.4	16.7	0.00e+00	0	55	0	25165824	53	5367
2026-01-12 22:30:35.34	206.11	8.88	-40.6	-44.3	16.8	0.00e+00	0	55	0	26214400	53	5301
2026-01-12 22:30:36.35	205.92	8.96	-40.8	-44.6	16.6	0.00e+00	0	55	0	27787264	53	5467
2026-01-12 22:30:37.36	205.74	9.03	-40.7	-44.3	16.8	0.00e+00	0	55	0	28835840	53	5337
2026-01-12 22:30:38.37	205.55	9.11	-40.7	-44.4	16.7	0.00e+00	0	55	0	29884416	53	5390
2026-01-12 22:30:39.38	205.36	9.19	-40.6	-44.3	16.8	0.00e+00	0	55	0	30932992	53	5311
2026-01-12 22:30:40.39	205.16	9.27	-40.8	-44.5	16.7	0.00e+00	0	56	0	31981568	53	5413
2026-01-12 22:30:41.40	204.97	9.35	-40.6	-44.1	17.0	0.00e+00	0	55	0	33030144	53	5212
2026-01-12 22:30:42.41	204.78	9.42	-40.5	-44.0	17.2	0.00e+00	0	56	0	34603008	52	5436
2026-01-12 22:30:43.42	204.58	9.50	-40.3	-43.6	17.6	0.00e+00	0	56	0	35651584	52	5189
2026-01-12 22:30:44.43	204.38	9.58	-40.3	-43.6	17.6	0.00e+00	0	56	0	36700160	52	5172
2026-01-12 22:30:45.44	204.18	9.66	-40.2	-43.5	17.7	0.00e+00	0	56	0	37748736	52	5134
2026-01-12 22:30:46.45	203.98	9.74	-40.2	-43.5	17.7	0.00e+00	0	56	0	38797312	52	5145
2026-01-12 22:30:47.45	203.78	9.82	-40.1	-43.3	17.9	0.00e+00	0	56	0	39845888	52	5040
2026-01-12 22:30:48.46	203.58	9.90	-40.2	-43.5	17.7	0.00e+00	0	56	0	41418752	52	5107
2026-01-12 22:30:49.47	203.37	9.97	-40.1	-43.4	17.8	0.00e+00	0	56	0	42467328	52	5059
2026-01-12 22:30:50.48	203.17	10.05	-40.4	-43.7	17.5	0.00e+00	0	56	0	43515904	52	5273
2026-01-12 22:30:51.49	202.96	10.13	-40.3	-43.6	17.7	0.00e+00	0	56	0	44564480	52	5174
2026-01-12 22:30:52.50	202.75	10.21	-40.4	-43.8	17.4	0.00e+00	0	56	0	45613056	52	5320
2026-01-12 22:30:53.51	202.54	10.29	-40.4	-43.8	17.4	0.00e+00	0	56	0	46661632	52	5333
2026-01-12 22:30:54.52	202.33	10.37	-40.2	-43.5	17.7	0.00e+00	0	56	0	48234496	52	5130
2026-01-12 22:30:55.53	202.11	10.45	-40.1	-43.3	18.0	0.00e+00	0	56	0	49283072	52	4990
2026-01-12 22:30:56.54	201.90	10.53	-40.1	-43.2	18.1	0.00e+00	0	56	0	50331648	52	4963
2026-01-12 22:30:57.54	201.68	10.61	-40.0	-43.0	18.4	0.00e+00	0	56	0	51380224	51	5127
2026-01-12 22:30:58.55	201.46	10.69	-40.1	-43.2	18.2	0.00e+00	0	56	0	52428800	51	5265
2026-01-12 22:30:59.56	201.24	10.77	-40.1	-43.2	18.2	0.00e+00	0	56	0	53477376	51	5264
2026-01-12 22:31:00.58	201.02	10.85	-40.3	-43.5	18.0	0.00e+00	0	56	0	55050240	51	5421
2026-01-12 22:31:01.59	200.80	10.93	-40.3	-43.5	17.9	0.00e+00	0	56	0	56098816	51	5432
2026-01-12 22:31:02.60	200.57	11.01	-40.3	-43.5	17.9	0.00e+00	0	56	0	57147392	51	5412
2026-01-12 22:31:03.61	200.34	11.09	-40.3	-43.5	18.0	0.00e+00	0	56	0	58195968	51	5423
2026-01-12 22:31:04.62	200.11	11.17	-40.3	-43.5	17.9	0.00e+00	0	56	0	59244544	51	5450
2026-01-12 22:31:05.63	199.88	11.25	-40.3	-43.5	18.0	0.00e+00	0	56	0	60293120	51	5423
2026-01-12 22:31:06.64	199.65	11.33	-40.3	-43.5	18.0	0.00e+00	0	56	0	61865984	51	5405
2026-01-12 22:31:07.65	199.42	11.41	-40.1	-43.1	18.3	0.00e+00	0	56	0	62914560	51	5208
2026-01-12 22:31:08.66	199.18	11.49	-39.8	-42.7	18.8	0.00e+00	0	56	0	63963136	51	4953
2026-01-12 22:31:09.66	198.95	11.57	-39.7	-42.5	19.0	0.00e+00	0	56	0	65011712	51	4818
2026-01-12 22:31:10.67	198.71	11.65	-39.5	-42.3	19.2	0.00e+00	0	56	0	66060288	51	4709
2026-01-12 22:31:11.68	198.47	11.73	-39.5	-42.2	19.3	0.00e+00	0	56	0	67108864	51	4661
2026-01-12 22:31:12.69	198.23	11.81	-39.7	-42.5	19.1	0.00e+00	0	56	0	68681728	51	4815
2026-01-12 22:31:13.70	197.98	11.90	-39.8	-42.6	18.9	0.00e+00	0	57	0	69730304	51	4903
2026-01-12 22:31:14.71	197.74	11.98	-39.7	-42.6	19.0	0.00e+00	0	56	0	70778880	51	4873
2026-01-12 22:31:15.72	197.49	12.06	-39.8	-42.7	18.9	0.00e+00	0	56	0	71827456	51	4937
2026-01-12 22:31:16.73	197.24	12.14	-39.8	-42.7	18.8	0.00e+00	0	56	0	72876032	51	4953
2026-01-12 22:31:17.74	196.99	12.22	-40.1	-43.1	18.5	0.00e+00	0	57	0	73924608	51	5160
2026-01-12 22:31:18.75	196.73	12.30	-40.0	-42.9	18.6	0.00e+00	0	56	0	75497472	51	5087
2026-01-12 22:31:19.76	196.48	12.38	-39.9	-42.8	18.8	0.00e+00	0	56	0	76546048	51	4995
2026-01-12 22:31:20.77	196.22	12.46	-39.9	-42.7	18.8	0.00e+00	0	56	0	77594624	51	4982
2026-01-12 22:31:21.78	195.96	12.54	-39.6	-42.3	19.2	0.00e+00	0	56	0	78643200	51	4729
2026-01-12 22:31:22.79	195.70	12.62	-39.5	-42.1	19.4	0.00e+00	0	57	0	79691776	50	4919
2026-01-12 22:31:23.80	195.44	12.70	-39.5	-42.1	19.5	0.00e+00	0	56	0	80740352	50	4919
2026-01-12 22:31:24.81	195.18	12.78	-39.5	-42.2	19.4	0.00e+00	0	57	0	82313216	50	4937
2026-01-12 22:31:25.82	194.91	12.86	-39.7	-42.4	19.2	0.00e+00	0	57	0	83361792	50	5076
2026-01-12 22:31:26.83	194.64	12.94	-39.7	-42.4	19.2	0.00e+00	0	56	0	84410368	50	5071
2026-01-12 22:31:27.84	194.37	13.02	-39.7	-42.5	19.1	0.00e+00	0	57	0	85458944	50	5129
2026-01-12 22:31:28.85	194.10	13.10	-39.9	-42.8	18.8	0.00e+00	0	57	0	86507520	50	5300
2026-01-12 22:31:29.86	193.83	13.18	-39.8	-42.6	19.0	0.00e+00	0	57	0	87556096	50	5200
2026-01-12 22:31:30.86	193.56	13.25	-39.7	-42.4	19.2	0.00e+00	0	57	0	89128960	50	5068
2026-01-12 22:31:31.87	193.28	13.33	-39.5	-42.1	19.5	0.00e+00	0	57	0	90177536	50	4914
2026-01-12 22:31:32.89	193.00	13.41	-39.4	-42.0	19.6	0.00e+00	0	57	0	91226112	50	4870
2026-01-12 22:31:33.89	192.72	13.49	-39.5	-42.1	19.5	0.00e+00	0	57	0	92274688	50	4920
2026-01-12 22:31:34.91	192.43	13.57	-39.4	-42.0	19.6	0.00e+00	0	57	0	93323264	50	4853
2026-01-12 22:31:35.91	192.15	13.65	-39.3	-41.8	19.8	0.00e+00	0	57	0	94371840	50	4720
2026-01-12 22:31:36.92	191.86	13.73	-39.2	-41.8	19.9	0.00e+00	0	57	0	95944704	50	4713
2026-01-12 22:31:37.93	191.58	13.80	-39.2	-41.8	19.9	0.00e+00	0	57	0	96993280	50	4724
2026-01-12 22:31:38.94	191.28	13.88	-39.3	-41.8	19.8	0.00e+00	0	57	0	98041856	50	4741
2026-01-12 22:31:39.95	190.99	13.96	-39.1	-41.5	20.1	0.00e+00	0	57	0	99090432	50	4598
2026-01-12 22:31:40.96	190.70	14.04	-39.3	-41.8	19.8	0.00e+00	0	57	0	100139008	50	4756
2026-01-12 22:31:41.97	190.40	14.11	-39.4	-41.9	19.7	0.00e+00	0	57	0	101187584	50	4802
2026-01-12 22:31:42.98	190.10	14.19	-39.2	-41.8	19.9	0.00e+00	0	57	0	102760448	50	4719
2026-01-12 22:31:43.99	189.80	14.27	-39.3	-41.8	19.8	0.00e+00	0	57	0	103809024	50	4753
2026-01-12 22:31:45.00	189.50	14.34	-39.3	-41.9	19.8	0.00e+00	0	57	0	104857600	50	4769
2026-01-12 22:31:46.01	189.19	14.42	-39.4	-41.9	19.7	0.00e+00	0	57	0	105906176	50	4807
2026-01-12 22:31:47.02	188.89	14.49	-39.3	-41.8	19.9	0.00e+00	0	57	0	106954752	50	4739
2026-01-12 22:31:48.03	188.58	14.57	-39.5	-42.1	19.6	0.00e+00	0	57	0	108003328	50	4895
2026-01-12 22:31:49.03	188.27	14.64	-39.4	-41.9	19.8	0.00e+00	0	57	0	109576192	50	4798
2026-01-12 22:31:50.04	187.96	14.72	-39.5	-42.1	19.5	0.00e+00	0	57	0	110624768	50	4920
2026-01-12 22:31:51.05	187.64	14.79	-39.4	-42.0	19.6	0.00e+00	0	57	0	111673344	50	4869
2026-01-12 22:31:52.06	187.32	14.87	-39.3	-41.8	19.8	0.00e+00	0	57	0	112721920	50	4741
2026-01-12 22:31:53.07	187.01	14.94	-39.0	-41.5	20.2	0.00e+00	0	57	0	113770496	50	4557
2026-01-12 22:31:54.08	186.69	15.01	-38.9	-41.3	20.3	0.00e+00	0	57	0	114819072	49	4726
2026-01-12 22:31:55.09	186.36	15.09	-38.7	-41.1	20.6	0.00e+00	0	57	0	116391936	49	4607
2026-01-12 22:31:56.10	186.04	15.16	-38.6	-40.9	20.7	0.00e+00	0	57	0	117440512	49	4545
2026-01-12 22:31:57.11	185.71	15.23	-38.6	-40.9	20.7	0.00e+00	0	57	0	118489088	49	4535
2026-01-12 22:31:58.12	185.38	15.30	-38.5	-40.7	20.9	0.00e+00	0	57	0	119537664	49	4439
2026-01-12 22:31:59.13	185.05	15.37	-38.6	-40.8	20.8	0.00e+00	0	57	0	120586240	48	4746
2026-01-12 22:32:00.14	184.72	15.44	-38.7	-41.0	20.6	0.00e+00	0	57	0	121634816	48	4862
2026-01-12 22:32:01.15	184.38	15.51	-38.6	-40.9	20.7	0.00e+00	0	57	0	123207680	48	4791
2026-01-12 22:32:02.16	184.05	15.58	-38.7	-41.0	20.6	0.00e+00	0	57	0	124256256	48	4863
2026-01-12 22:32:03.17	183.71	15.65	-38.7	-41.0	20.6	0.00e+00	0	57	0	125304832	48	4824
2026-01-12 22:32:04.17	183.37	15.72	-38.6	-40.9	20.7	0.00e+00	0	57	0	126353408	48	4786
2026-01-12 22:32:05.18	183.03	15.78	-38.5	-40.8	20.8	0.00e+00	0	57	0	127401984	48	4722
2026-01-12 22:32:06.19	182.69	15.85	-38.4	-40.6	20.9	0.00e+00	0	57	0	128450560	48	4650
2026-01-12 22:32:07.20	182.34	15.92	-38.4	-40.7	20.9	0.00e+00	0	57	0	130023424	48	4674
2026-01-12 22:32:08.21	181.99	15.98	-38.4	-40.6	20.9	0.00e+00	0	57	0	131072000	48	4634
2026-01-12 22:32:09.22	181.64	16.05	-38.4	-40.6	21.0	0.00e+00	0	57	0	132120576	48	4637
2026-01-12 22:32:10.23	181.29	16.11	-38.3	-40.5	21.0	0.00e+00	0	57	0	133169152	48	4594
2026-01-12 22:32:11.24	180.93	16.18	-38.5	-40.8	20.7	0.00e+00	0	57	0	134217728	48	4745
2026-01-12 22:32:12.25	180.58	16.24	-38.5	-40.8	20.8	0.00e+00	0	57	0	135266304	48	4742
2026-01-12 22:32:13.26	180.22	16.30	-38.7	-41.0	20.6	0.00e+00	0	57	0	136839168	48	4827
2026-01-12 22:32:14.27	179.86	16.36	-38.5	-40.8	20.8	0.00e+00	0	57	0	137887744	48	4737
2026-01-12 22:32:15.28	179.50	16.42	-38.4	-40.7	20.9	0.00e+00	0	57	0	138936320	48	4655
2026-01-12 22:32:16.29	179.14	16.48	-38.4	-40.7	20.9	0.00e+00	0	58	0	139984896	48	4665
2026-01-12 22:32:17.30	178.77	16.54	-38.4	-40.6	21.0	0.00e+00	0	57	0	141033472	48	4619
2026-01-12 22:32:18.31	178.41	16.60	-38.3	-40.4	21.1	0.00e+00	0	57	0	142082048	48	4544
2026-01-12 22:32:19.32	178.04	16.66	-38.4	-40.7	20.9	0.00e+00	0	57	0	143654912	48	4667
2026-01-12 22:32:20.33	177.67	16.72	-38.3	-40.5	21.1	0.00e+00	0	57	0	144703488	48	4589
2026-01-12 22:32:21.34	177.29	16.77	-38.5	-40.7	20.9	0.00e+00	0	57	0	145752064	48	4685
2026-01-12 22:32:22.35	176.92	16.83	-38.4	-40.6	21.0	0.00e+00	0	58	0	146800640	48	4635
2026-01-12 22:32:23.35	176.55	16.88	-38.3	-40.5	21.2	0.00e+00	0	58	0	147849216	48	4552
2026-01-12 22:32:24.36	176.17	16.94	-38.3	-40.5	21.1	0.00e+00	0	57	0	148897792	48	4568
2026-01-12 22:32:25.37	175.79	16.99	-38.3	-40.5	21.2	0.00e+00	0	58	0	150470656	48	4583
2026-01-12 22:32:26.38	175.41	17.04	-38.4	-40.6	21.1	0.00e+00	0	58	0	151519232	48	4602
2026-01-12 22:32:27.39	175.03	17.09	-38.3	-40.5	21.1	0.00e+00	0	57	0	152567808	48	4573
2026-01-12 22:32:28.40	174.65	17.14	-38.2	-40.3	21.3	0.00e+00	0	57	0	153616384	48	4486
2026-01-12 22:32:29.41	174.26	17.19	-38.3	-40.4	21.2	0.00e+00	0	57	0	154664960	48	4522
2026-01-12 22:32:30.42	173.87	17.24	-38.2	-40.4	21.4	0.00e+00	0	58	0	155713536	48	4502
2026-01-12 22:32:31.43	173.49	17.29	-38.1	-40.2	21.5	0.00e+00	0	58	0	156762112	48	4395
2026-01-12 22:32:32.44	173.10	17.33	-38.1	-40.2	21.6	0.00e+00	0	58	0	158334976	48	4394
2026-01-12 22:32:33.45	172.70	17.38	-38.1	-40.2	21.6	0.00e+00	0	58	0	159383552	48	4398
2026-01-12 22:32:34.46	172.31	17.42	-38.1	-40.2	21.6	0.00e+00	0	58	0	160432128	48	4418
2026-01-12 22:32:35.47	171.92	17.47	-38.4	-40.5	21.2	0.00e+00	0	58	0	161480704	48	4579
2026-01-12 22:32:36.48	171.52	17.51	-38.4	-40.6	21.1	0.00e+00	0	58	0	162529280	48	4634
2026-01-12 22:32:37.49	171.13	17.55	-38.5	-40.7	21.0	0.00e+00	0	58	0	164102144	48	4662
2026-01-12 22:32:38.50	170.73	17.59	-38.5	-40.7	21.0	0.00e+00	0	58	0	165150720	48	4664
2026-01-12 22:32:39.51	170.33	17.63	-38.3	-40.4	21.3	0.00e+00	0	58	0	166199296	48	4515
2026-01-12 22:32:40.52	169.93	17.67	-38.1	-40.2	21.6	0.00e+00	0	58	0	167247872	48	4408
2026-01-12 22:32:41.53	169.53	17.70	-37.9	-39.9	21.8	0.00e+00	0	58	0	168296448	47	4525
2026-01-12 22:32:42.53	169.13	17.74	-37.7	-39.7	22.0	0.00e+00	0	58	0	169345024	47	4431
2026-01-12 22:32:43.54	168.72	17.77	-37.6	-39.6	22.2	0.00e+00	0	58	0	170917888	47	4356
2026-01-12 22:32:44.55	168.32	17.81	-37.7	-39.7	22.1	0.00e+00	0	57	0	171966464	47	4407
2026-01-12 22:32:45.56	167.91	17.84	-37.8	-39.8	22.1	0.00e+00	0	58	0	173015040	47	4457
2026-01-12 22:32:46.57	167.50	17.87	-37.8	-39.8	22.0	0.00e+00	0	58	0	174063616	47	4480
2026-01-12 22:32:47.58	167.10	17.90	-37.8	-39.8	22.0	0.00e+00	0	58	0	175112192	47	4450
2026-01-12 22:32:48.59	166.69	17.93	-37.7	-39.7	22.1	0.00e+00	0	58	0	176160768	47	4437
2026-01-12 22:32:49.60	166.28	17.96	-37.8	-39.9	22.0	0.00e+00	0	58	0	177733632	47	4501
2026-01-12 22:32:50.61	165.87	17.98	-37.8	-39.9	21.9	0.00e+00	0	58	0	178782208	47	4506
2026-01-12 22:32:51.62	165.45	18.01	-37.9	-40.0	21.8	0.00e+00	0	58	0	179830784	47	4561
2026-01-12 22:32:52.63	165.04	18.03	-37.9	-40.0	21.9	0.00e+00	0	58	0	180879360	47	4560
2026-01-12 22:32:53.64	164.63	18.05	-38.0	-40.1	21.7	0.00e+00	0	58	0	181927936	47	4618
2026-01-12 22:32:54.65	164.21	18.07	-38.0	-40.1	21.7	0.00e+00	0	58	0	182976512	47	4609
2026-01-12 22:32:55.66	163.80	18.09	-38.0	-40.1	21.7	0.00e+00	0	58	0	184549376	47	4634
2026-01-12 22:32:56.67	163.38	18.11	-38.1	-40.2	21.7	0.00e+00	0	58	0	185597952	47	4665
2026-01-12 22:32:57.68	162.97	18.13	-37.9	-40.0	21.9	0.00e+00	0	58	0	186646528	47	4562
2026-01-12 22:32:58.69	162.55	18.14	-38.1	-40.2	21.7	0.00e+00	0	58	0	187695104	47	4674
2026-01-12 22:32:59.70	162.13	18.16	-38.2	-40.3	21.6	0.00e+00	0	58	0	188743680	47	4721
2026-01-12 22:33:00.71	161.72	18.17	-38.2	-40.3	21.6	0.00e+00	0	58	0	189792256	47	4720
2026-01-12 22:33:01.72	161.30	18.19	-38.2	-40.4	21.5	0.00e+00	0	58	0	191365120	47	4777
2026-01-12 22:33:02.73	160.88	18.20	-38.2	-40.3	21.6	0.00e+00	0	58	0	192413696	47	4741
2026-01-12 22:33:03.74	160.46	18.21	-38.2	-40.4	21.6	0.00e+00	0	58	0	193462272	47	4760
2026-01-12 22:33:04.75	160.04	18.21	-38.1	-40.3	21.6	0.00e+00	0	58	0	194510848	46	4985
2026-01-12 22:33:05.76	159.62	18.22	-38.2	-40.4	21.5	0.00e+00	0	58	0	195559424	47	4782
2026-01-12 22:33:06.77	159.20	18.23	-38.1	-40.2	21.6	0.00e+00	0	58	0	196608000	47	4692
2026-01-12 22:33:07.77	158.79	18.23	-38.1	-40.3	21.6	0.00e+00	0	58	0	197656576	47	4728
2026-01-12 22:33:08.78	158.37	18.23	-37.9	-40.0	21.9	0.00e+00	0	58	0	199229440	47	4580
2026-01-12 22:33:09.79	157.95	18.24	-37.8	-39.8	22.1	0.00e+00	0	58	0	200278016	47	4466
2026-01-12 22:33:10.80	157.53	18.24	-37.7	-39.7	22.2	0.00e+00	0	58	0	201326592	47	4414
2026-01-12 22:33:11.81	157.11	18.23	-37.6	-39.6	22.3	0.00e+00	0	58	0	202375168	47	4345
2026-01-12 22:33:12.82	156.69	18.23	-37.7	-39.7	22.2	0.00e+00	0	58	0	203423744	47	4401
2026-01-12 22:33:13.83	156.27	18.23	-37.8	-39.8	22.1	0.00e+00	0	58	0	204472320	47	4463
2026-01-12 22:33:14.84	155.85	18.22	-38.0	-40.1	21.8	0.00e+00	0	58	0	206045184	47	4608
2026-01-12 22:33:15.84	155.43	18.22	-38.4	-40.6	21.3	0.00e+00	0	58	0	207093760	47	4896
2026-01-12 22:33:16.86	155.01	18.21	-38.5	-40.7	21.2	0.00e+00	0	58	0	208142336	47	4945
2026-01-12 22:33:17.87	154.59	18.20	-38.3	-40.5	21.4	0.00e+00	0	58	0	209190912	47	4851
2026-01-12 22:33:18.88	154.17	18.19	-38.2	-40.3	21.6	0.00e+00	0	58	0	210239488	47	4746
2026-01-12 22:33:19.88	153.76	18.18	-38.1	-40.3	21.6	0.00e+00	0	58	0	211288064	47	4715
2026-01-12 22:33:20.89	153.34	18.17	-37.9	-40.0	21.8	0.00e+00	0	58	0	212860928	47	4573
2026-01-12 22:33:21.90	152.93	18.15	-37.7	-39.7	22.2	0.00e+00	0	58	0	213909504	47	4414
2026-01-12 22:33:22.91	152.51	18.14	-37.5	-39.5	22.4	0.00e+00	0	58	0	214958080	47	4300
2026-01-12 22:33:23.92	152.09	18.12	-37.5	-39.5	22.4	0.00e+00	0	58	0	216006656	47	4313
2026-01-12 22:33:24.93	151.68	18.10	-37.6	-39.7	22.2	0.00e+00	0	58	0	217055232	47	4396
2026-01-12 22:33:25.94	151.26	18.08	-37.7	-39.7	22.1	0.00e+00	0	58	0	218628096	47	4430
2026-01-12 22:33:26.95	150.85	18.06	-37.8	-39.8	22.0	0.00e+00	0	58	0	219676672	47	4472
2026-01-12 22:33:27.96	150.44	18.04	-38.0	-40.1	21.7	0.00e+00	0	58	0	220725248	47	4632
2026-01-12 22:33:28.97	150.02	18.02	-38.1	-40.2	21.6	0.00e+00	0	58	0	221773824	47	4702
2026-01-12 22:33:29.98	149.61	17.99	-38.0	-40.1	21.7	0.00e+00	0	58	0	222822400	47	4617
2026-01-12 22:33:30.99	149.20	17.97	-37.7	-39.7	22.0	0.00e+00	0	58	0	223870976	47	4429
2026-01-12 22:33:32.00	148.79	17.94	-37.7	-39.7	22.1	0.00e+00	0	58	0	225443840	47	4413
2026-01-12 22:33:33.01	148.38	17.91	-37.5	-39.5	22.3	0.00e+00	0	58	0	226492416	47	4313
2026-01-12 22:33:34.02	147.97	17.88	-37.3	-39.2	22.5	0.00e+00	0	58	0	227540992	46	4435
2026-01-12 22:33:35.03	147.57	17.85	-37.3	-39.2	22.5	0.00e+00	0	58	0	228589568	46	4413
2026-01-12 22:33:36.04	147.16	17.82	-37.3	-39.3	22.4	0.00e+00	0	58	0	229638144	46	4472
2026-01-12 22:33:37.05	146.75	17.79	-37.7	-39.7	22.1	0.00e+00	0	58	0	230686720	46	4692
2026-01-12 22:33:38.06	146.35	17.76	-38.0	-40.1	21.6	0.00e+00	0	58	0	232259584	46	4900
2026-01-12 22:33:39.07	145.95	17.72	-38.1	-40.3	21.5	0.00e+00	0	58	0	233308160	46	4994
2026-01-12 22:33:40.08	145.55	17.68	-38.2	-40.3	21.4	0.00e+00	0	58	0	234356736	46	5041
2026-01-12 22:33:41.09	145.15	17.65	-38.1	-40.2	21.5	0.00e+00	0	58	0	235405312	47	4696
2026-01-12 22:33:42.10	144.75	17.61	-38.0	-40.1	21.6	0.00e+00	0	58	0	236453888	47	4644
2026-01-12 22:33:43.11	144.35	17.57	-37.9	-40.0	21.7	0.00e+00	0	58	0	237502464	47	4584
2026-01-12 22:33:44.12	143.95	17.53	-38.0	-40.1	21.6	0.00e+00	0	58	0	238551040	47	4609
2026-01-12 22:33:45.13	143.56	17.49	-37.9	-40.0	21.7	0.00e+00	0	58	0	240123904	47	4556
2026-01-12 22:33:46.14	143.16	17.44	-37.9	-40.0	21.7	0.00e+00	0	58	0	241172480	47	4553
2026-01-12 22:33:47.15	142.77	17.40	-37.8	-39.9	21.8	0.00e+00	0	58	0	242221056	47	4503
2026-01-12 22:33:48.16	142.38	17.36	-37.8	-39.9	21.8	0.00e+00	0	58	0	243269632	47	4517
2026-01-12 22:33:49.17	141.99	17.31	-37.9	-40.1	21.6	0.00e+00	0	58	0	244318208	47	4612
2026-01-12 22:33:50.18	141.60	17.26	-38.2	-40.4	21.3	0.00e+00	0	58	0	245366784	47	4765
2026-01-12 22:33:51.19	141.22	17.22	-38.3	-40.6	21.1	0.00e+00	0	58	0	246939648	47	4874
2026-01-12 22:33:52.20	140.83	17.17	-38.3	-40.6	21.0	0.00e+00	0	58	0	247988224	47	4873
2026-01-12 22:33:53.21	140.45	17.12	-38.2	-40.4	21.3	0.00e+00	0	58	0	249036800	47	4763
2026-01-12 22:33:54.21	140.07	17.07	-38.0	-40.1	21.4	0.00e+00	0	58	0	250085376	47	4642
2026-01-12 22:33:55.22	139.69	17.02	-38.0	-40.1	21.5	0.00e+00	0	58	0	251133952	47	4630
2026-01-12 22:33:56.23	139.31	16.96	-38.0	-40.2	21.4	0.00e+00	0	58	0	252182528	47	4681
2026-01-12 22:33:57.24	138.93	16.91	-38.2	-40.4	21.2	0.00e+00	0	58	0	253755392	47	4809
2026-01-12 22:33:58.25	138.56	16.86	-38.4	-40.6	21.0	0.00e+00	0	58	0	254803968	47	4918
2026-01-12 22:33:59.27	138.18	16.80	-38.3	-40.6	21.0	0.00e+00	0	58	0	255852544	47	4903
2026-01-12 22:34:00.28	137.81	16.75	-38.2	-40.4	21.2	0.00e+00	0	58	0	256901120	47	4777
2026-01-12 22:34:01.29	137.44	16.69	-38.1	-40.3	21.2	0.00e+00	0	58	0	257949696	47	4758
2026-01-12 22:34:02.29	137.08	16.63	-38.0	-40.2	21.4	0.00e+00	0	58	0	259522560	47	4688
2026-01-12 22:34:03.30	136.71	16.57	-38.0	-40.1	21.4	0.00e+00	0	58	0	260571136	46	4923
2026-01-12 22:34:04.31	136.34	16.52	-38.2	-40.4	21.1	0.00e+00	0	58	0	261619712	46	5095
2026-01-12 22:34:05.32	135.98	16.46	-38.3	-40.6	20.9	0.00e+00	0	58	0	262668288	47	4902
2026-01-12 22:34:06.33	135.62	16.40	-38.4	-40.8	20.7	0.00e+00	0	58	0	263716864	47	4988
2026-01-12 22:34:07.34	135.26	16.33	-38.2	-40.8	20.6	9.10e-06	0	58	0	264765440	47	5038
2026-01-12 22:34:08.35	134.90	16.27	-38.5	-40.9	20.5	9.10e-06	0	58	0	266338304	47	5042
2026-01-12 22:34:09.36	134.55	16.21	-38.5	-40.9	20.5	8.00e-06	0	58	0	267386880	47	5067
2026-01-12 22:34:10.37	134.20	16.15	-38.0	-40.8	20.5	2.40e-05	0	58	0	268435456	47	5028
2026-01-12 22:34:11.38	133.84	16.08	-38.5	-41.0	20.3	2.40e-05	0	58	0	269484032	47	5127
2026-01-12 22:34:12.39	133.49	16.02	-38.5	-41.1	20.2	4.92e-05	0	58	0	270532608	47	5200
2026-01-12 22:34:13.40	133.15	15.95	-38.8	-41.4	19.7	7.09e-05	0	58	0	271581184	47	5379
2026-01-12 22:34:14.41	132.80	15.89	-37.0	-41.6	18.9	1.32e-04	0	58	0	272629760	45	6161
2026-01-12 22:34:15.41	132.46	15.82	-38.9	-41.6	19.1	1.32e-04	0	58	0	274202624	46	5833
2026-01-12 22:34:16.42	132.12	15.75	-37.0	-41.3	19.1	2.95e-04	0	58	0	275251200	45	5988
2026-01-12 22:34:17.43	131.78	15.69	-38.6	-41.4	18.9	3.35e-04	0	59	0	276299776	44	6356
2026-01-12 22:34:18.44	131.44	15.62	-37.0	-40.8	18.3	3.35e-04	0	59	0	277348352	41	7044
2026-01-12 22:34:19.45	131.10	15.55	-37.0	-40.6	19.5	2.76e-04	0	58	0	278396928	43	6174
2026-01-12 22:34:20.46	130.77	15.48	-37.9	-41.2	18.9	1.57e-04	0	58	0	279445504	45	5861
2026-01-12 22:34:21.47	130.44	15.41	-38.4	-40.8	18.3	1.57e-04	0	58	0	281018368	39	7945
2026-01-12 22:34:22.48	130.11	15.34	-38.6	-41.2	19.3	3.62e-04	0	58	0	282066944	47	5230
2026-01-12 22:34:23.49	129.78	15.27	-35.2	-41.0	18.9	1.40e-04	0	58	0	283115520	43	6468
2026-01-12 22:34:24.50	129.45	15.20	-38.6	-41.3	18.5	1.40e-04	0	58	0	284164096	46	5593
2026-01-12 22:34:25.51	129.13	15.13	-36.8	-40.8	19.1	4.06e-04	0	59	0	285212672	45	5644
2026-01-12 22:34:26.51	128.81	15.06	-38.6	-41.2	19.4	2.92e-04	0	58	0	286261248	47	5278
2026-01-12 22:34:27.52	128.49	14.98	-38.5	-41.2	18.9	5.44e-03	0	58	0	287834112	47	5248
2026-01-12 22:34:28.53	128.17	14.91	-38.5	-41.2	19.5	5.44e-03	0	58	0	288882688	47	5232
2026-01-12 22:34:29.54	127.85	14.84	-37.9	-41.1	19.8	1.70e-04	0	58	0	289931264	47	5199
2026-01-12 22:34:30.55	127.54	14.76	-38.7	-41.4	19.2	8.58e-05	0	58	0	290979840	48	5100
2026-01-12 22:34:31.56	127.23	14.69	-38.9	-41.6	19.4	8.58e-05	0	58	0	292028416	48	5164
2026-01-12 22:34:32.57	126.92	14.62	-39.0	-41.7	19.3	1.20e-04	0	58	0	293076992	48	5275
2026-01-12 22:34:33.58	126.61	14.54	-35.9	-41.5	18.5	2.36e-04	0	59	0	294649856	42	7208
2026-01-12 22:34:34.59	126.30	14.47	-38.1	-41.8	18.5	2.36e-04	0	59	0	295698432	48	5286
2026-01-12 22:34:35.59	126.00	14.39	-37.6	-41.7	18.4	4.44e-04	0	58	0	296747008	47	5535
2026-01-12 22:34:36.60	125.70	14.32	-39.0	-41.7	19.2	2.87e-04	0	59	0	297795584	48	5269
2026-01-12 22:34:37.61	125.40	14.24	-39.0	-41.7	19.3	2.87e-04	0	59	0	298844160	48	5250
2026-01-12 22:34:38.62	125.10	14.16	-38.7	-41.4	19.5	1.60e-04	0	58	0	299892736	48	5077
2026-01-12 22:34:39.63	124.80	14.09	-38.7	-41.3	19.4	7.98e-04	0	58	0	301465600	47	5313
2026-01-12 22:34:40.64	124.51	14.01	-38.5	-41.2	19.6	1.33e-04	0	58	0	302514176	47	5261
2026-01-12 22:34:41.65	124.22	13.93	-38.7	-41.4	19.7	1.33e-04	0	58	0	303562752	48	5062
2026-01-12 22:34:42.66	123.93	13.86	-38.8	-41.4	19.3	6.29e-05	0	58	0	304611328	48	5094
2026-01-12 22:34:43.67	123.64	13.78	-36.6	-41.9	18.9	9.49e-05	0	58	0	305659904	46	6024
2026-01-12 22:34:44.68	123.35	13.70	-36.5	-41.8	18.2	9.49e-05	0	58	0	306708480	45	6328
2026-01-12 22:34:45.70	123.06	13.62	-37.5	-42.3	18.6	1.34e-04	0	59	0	308281344	49	5295
2026-01-12 22:34:46.70	122.78	13.54	-35.8	-42.0	18.0	1.41e-04	0	58	0	309329920	43	7274
2026-01-12 22:34:47.71	122.50	13.47	-38.2	-41.8	17.8	1.41e-04	0	58	0	310378496	43	7104
2026-01-12 22:34:48.72	122.22	13.39	-36.4	-41.8	18.2	3.75e-04	0	59	0	311427072	45	6297
2026-01-12 22:34:49.74	121.94	13.31	-36.1	-41.9	18.1	1.01e-04	0	59	0	312475648	44	6753
2026-01-12 22:34:50.74	121.67	13.23	-39.1	-42.0	18.8	9.84e-05	0	58	0	313524224	48	5442
2026-01-12 22:34:51.75	121.40	13.15	-39.2	-42.0	18.8	9.84e-05	0	58	0	315097088	48	5435
2026-01-12 22:34:52.76	121.13	13.07	-37.3	-42.1	18.2	9.38e-05	0	59	0	316145664	45	6495
2026-01-12 22:34:53.78	120.86	12.99	-39.0	-42.2	18.6	7.89e-05	0	59	0	317194240	49	5229
2026-01-12 22:34:54.79	120.59	12.91	-39.0	-42.4	18.1	7.89e-05	0	59	0	318242816	49	5401
2026-01-12 22:34:55.80	120.32	12.83	-39.5	-42.5	17.4	1.44e-04	0	59	0	319291392	49	5405
2026-01-12 22:34:56.81	120.06	12.75	-38.9	-42.2	18.0	1.37e-04	0	59	0	320339968	47	5902
2026-01-12 22:34:57.82	119.80	12.68	-39.3	-42.4	18.3	1.37e-04	0	58	0	321912832	49	5365
2026-01-12 22:34:58.82	119.54	12.60	-39.3	-42.5	18.3	5.14e-05	0	59	0	322961408	49	5405
2026-01-12 22:34:59.83	119.28	12.52	-39.0	-42.0	18.9	5.72e-05	0	59	0	324009984	48	5424
2026-01-12 22:35:00.84	119.03	12.44	-39.0	-41.9	18.9	5.72e-05	0	59	0	325058560	48	5360
2026-01-12 22:35:01.85	118.77	12.36	-39.0	-42.0	18.8	5.70e-06	0	59	0	326107136	48	5452
2026-01-12 22:35:02.86	118.52	12.28	-39.3	-42.3	18.5	6.80e-06	0	59	0	327155712	49	5285
2026-01-12 22:35:03.87	118.27	12.20	-39.0	-42.5	18.2	6.80e-06	0	58	0	328728576	49	5452
2026-01-12 22:35:04.88	118.02	12.12	-35.9	-42.1	16.7	2.20e-06	0	59	0	329777152	43	7308
2026-01-12 22:35:05.89	117.77	12.04	-39.2	-42.7	17.7	5.14e-05	0	59	0	330825728	49	5588
2026-01-12 22:35:06.90	117.53	11.96	-38.7	-42.5	17.9	1.02e-05	0	58	0	331874304	48	5766
2026-01-12 22:35:07.91	117.28	11.88	-39.2	-42.8	17.2	1.02e-05	0	59	0	332922880	48	5986
2026-01-12 22:35:08.92	117.04	11.80	-38.2	-42.5	17.2	2.63e-05	0	58	0	333971456	47	6079
2026-01-12 22:35:09.93	116.80	11.72	-38.9	-42.8	17.2	3.20e-05	0	59	0	335544320	48	5971
2026-01-12 22:35:10.94	116.56	11.64	-38.2	-43.1	16.5	3.20e-05	0	59	0	336592896	47	6513
2026-01-12 22:35:11.95	116.33	11.56	-38.0	-42.9	16.6	1.62e-04	0	59	0	337641472	47	6351
2026-01-12 22:35:12.96	116.09	11.48	-38.3	-42.5	16.8	1.48e-04	0	59	0	338690048	45	6855
2026-01-12 22:35:13.97	115.86	11.40	-37.0	-42.4	16.3	1.48e-04	0	59	0	339738624	44	7133
2026-01-12 22:35:14.98	115.63	11.32	-37.2	-42.5	15.9	2.04e-04	0	59	0	340787200	45	6875
2026-01-12 22:35:15.99	115.40	11.24	-31.6	-42.0	14.1	3.31e-04	0	59	0	342360064	35	11420
2026-01-12 22:35:17.00	115.17	11.16	-36.5	-42.8	14.2	5.71e-04	0	59	0	343408640	42	8374
2026-01-12 22:35:18.01	114.94	11.08	-37.9	-42.8	15.7	5.71e-04	0	59	0	344457216	46	6647
2026-01-12 22:35:19.02	114.72	11.00	-37.6	-43.0	15.6	1.15e-04	0	59	0	345505792	46	6827
2026-01-12 22:35:20.03	114.49	10.92	-37.9	-43.8	15.6	1.23e-04	0	59	0	346554368	47	7066
2026-01-12 22:35:21.04	114.27	10.84	-38.4	-43.0	16.0	1.23e-04	0	59	0	348127232	47	6480
2026-01-12 22:35:22.05	114.05	10.76	-38.2	-42.9	16.0	1.44e-04	0	59	0	349175808	46	6786
2026-01-12 22:35:23.06	113.83	10.68	-38.0	-43.1	16.3	9.61e-05	0	59	0	350224384	46	6905
2026-01-12 22:35:24.06	113.62	10.60	-38.5	-43.1	15.6	9.61e-05	0	59	0	351272960	47	6510
2026-01-12 22:35:25.07	113.40	10.52	-38.1	-43.0	15.7	6.86e-05	0	59	0	352321536	47	6483
2026-01-12 22:35:26.08	113.19	10.44	-34.4	-42.8	12.3	1.29e-04	0	59	0	353370112	39	9947
2026-01-12 22:35:27.09	112.98	10.36	-36.2	-43.9	14.0	1.29e-04	0	59	0	354418688	43	9038
2026-01-12 22:35:28.10	112.77	10.28	-38.4	-44.2	15.0	9.52e-04	0	59	0	355991552	49	6636
2026-01-12 22:35:29.11	112.56	10.20	-36.3	-45.4	13.2	6.35e-04	0	59	0	357040128	45	9569
2026-01-12 22:35:30.12	112.35	10.13	-40.2	-46.1	12.9	1.46e-03	0	59	0	358088704	49	8238
2026-01-12 22:35:31.13	112.14	10.05	-37.1	-46.1	12.6	1.46e-03	0	59	0	359137280	45	10393
2026-01-12 22:35:32.14	111.94	9.97	-39.4	-45.6	13.1	7.83e-04	0	59	0	360185856	46	9198
2026-01-12 22:35:33.15	111.74	9.89	-38.0	-45.3	12.9	1.30e-03	0	59	0	361234432	47	8454
2026-01-12 22:35:34.16	111.54	9.81	-37.6	-44.8	13.3	1.30e-03	0	59	0	362807296	46	8404
2026-01-12 22:35:35.17	111.34	9.73	-38.5	-45.3	13.9	4.22e-04	0	59	0	363855872	51	6713
2026-01-12 22:35:36.18	111.14	9.65	-37.5	-44.8	13.6	2.05e-04	0	59	0	364904448	46	8436
2026-01-12 22:35:37.19	110.94	9.58	-40.5	-45.2	14.7	2.05e-04	0	59	0	365953024	51	6604
2026-01-12 22:35:38.20	110.74	9.50	-40.2	-44.7	15.3	4.16e-04	0	59	0	367001600	51	6239
2026-01-12 22:35:39.21	110.55	9.42	-39.8	-44.3	15.8	1.94e-05	0	59	0	368050176	50	6290
2026-01-12 22:35:40.22	110.36	9.34	-39.9	-43.8	16.4	1.94e-05	0	59	0	369623040	50	5947
2026-01-12 22:35:41.22	110.17	9.26	-39.7	-43.4	16.7	2.20e-06	0	59	0	370671616	50	5710
2026-01-12 22:35:42.23	109.98	9.19	-39.8	-43.7	16.7	1.10e-06	0	59	0	371720192	50	5911
2026-01-12 22:35:43.24	109.79	9.11	-39.9	-44.1	16.2	3.40e-06	0	59	0	372768768	50	6155
2026-01-12 22:35:44.25	109.60	9.03	-39.2	-43.7	16.6	3.40e-06	0	59	0	373817344	50	5922
2026-01-12 22:35:45.26	109.42	8.96	-39.1	-43.2	16.9	0.00e+00	0	59	0	374865920	49	5916
2026-01-12 22:35:46.27	109.23	8.88	-37.7	-44.0	15.9	2.20e-06	0	59	0	376438784	49	6445
2026-01-12 22:35:47.28	109.05	8.80	-39.5	-44.5	15.6	2.20e-06	0	59	0	377487360	50	6447
2026-01-12 22:35:48.29	108.87	8.72	-39.6	-44.5	15.6	2.05e-05	0	59	0	378535936	51	6077
2026-01-12 22:35:49.30	108.69	8.65	-40.2	-44.8	15.3	3.43e-05	0	59	0	379584512	51	6310
2026-01-12 22:35:50.31	108.51	8.57	-39.4	-44.4	15.3	3.43e-05	0	59	0	380633088	50	6391
2026-01-12 22:35:51.32	108.33	8.49	-40.2	-44.8	15.2	3.54e-05	0	59	0	381681664	51	6324
2026-01-12 22:35:52.33	108.15	8.42	-40.1	-44.8	14.9	3.40e-06	0	59	0	383254528	51	6310
2026-01-12 22:35:53.34	107.98	8.34	-39.9	-44.3	15.3	3.40e-06	0	59	0	384303104	50	6322
2026-01-12 22:35:54.35	107.80	8.27	-39.9	-44.6	14.8	2.74e-05	0	59	0	385351680	50	6505
2026-01-12 22:35:55.36	107.63	8.19	-40.1	-44.7	15.0	2.97e-05	0	59	0	386400256	50	6618
2026-01-12 22:35:56.37	107.46	8.12	-39.7	-45.0	13.7	1.94e-04	0	59	0	387448832	48	7688
2026-01-12 22:35:57.38	107.29	8.04	-40.0	-45.2	14.3	1.94e-04	0	59	0	388497408	50	7022
2026-01-12 22:35:58.39	107.12	7.96	-40.4	-58.8	4.2	1.01e-01	0	59	104	389021696	52	29906
2026-01-12 22:35:59.40	106.95	7.89	-44.6	-62.6	3.8	8.31e-01	0	59	104	389021696	59	30867
2026-01-12 22:36:00.41	106.78	7.81	-44.7	-62.8	3.8	8.31e-01	0	59	104	389021696	60	29949
2026-01-12 22:36:01.42	106.62	7.74	-45.1	-63.1	3.8	8.46e-01	0	59	104	389021696	60	30899
2026-01-12 22:36:02.43	106.45	7.67	-45.2	-63.3	3.8	8.46e-01	0	59	104	389021696	60	31623
2026-01-12 22:36:03.44	106.29	7.59	-45.3	-63.4	3.8	8.46e-01	0	59	104	389021696	61	30359
2026-01-12 22:36:04.45	106.13	7.52	-45.4	-63.5	3.8	8.47e-01	0	59	104	389021696	61	30697
2026-01-12 22:36:05.46	105.97	7.44	-45.5	-63.7	3.8	8.46e-01	0	59	104	389021696	61	31126
2026-01-12 22:36:06.47	105.81	7.37	-45.6	-63.7	3.8	8.46e-01	0	59	104	389021696	61	31259
2026-01-12 22:36:07.48	105.65	7.29	-45.5	-63.7	3.8	8.47e-01	0	59	104	389021696	61	31293
2026-01-12 22:36:08.49	105.49	7.22	-45.5	-63.7	3.8	8.47e-01	0	59	104	389021696	61	31267
2026-01-12 22:36:09.50	105.33	7.15	-45.4	-63.6	3.8	8.46e-01	0	59	104	389021696	61	31076
2026-01-12 22:36:10.51	105.18	7.07	-45.3	-63.6	3.8	8.46e-01	0	59	104	389021696	61	31008
2026-01-12 22:36:11.52	105.02	7.00	-45.3	-63.6	3.8	8.46e-01	0	59	104	389021696	61	30808
2026-01-12 22:36:12.53	104.87	6.93	-45.3	-63.6	3.8	8.46e-01	0	59	104	389021696	61	30897
2026-01-12 22:36:13.54	104.72	6.86	-45.3	-63.6	3.8	8.46e-01	0	59	104	389021696	61	30860
2026-01-12 22:36:14.55	104.57	6.78	-45.2	-63.5	3.8	8.46e-01	0	59	104	389021696	61	30649
2026-01-12 22:36:15.56	104.42	6.71	-45.2	-63.5	3.8	8.46e-01	0	59	104	389021696	61	30649
2026-01-12 22:36:16.57	104.27	6.64	-45.2	-63.5	3.8	8.46e-01	0	59	104	389021696	61	30627
2026-01-12 22:36:17.58	104.12	6.57	-45.2	-63.5	3.8	8.46e-01	0	59	104	389021696	61	30593
2026-01-12 22:36:18.59	103.97	6.49	-45.2	-63.5	3.8	8.45e-01	0	59	104	389021696	61	30523
2026-01-12 22:36:19.60	103.83	6.42	-45.2	-63.5	3.8	8.47e-01	0	59	104	389021696	61	30610
2026-01-12 22:36:20.60	103.69	6.35	-45.2	-63.5	3.8	8.47e-01	0	59	104	389021696	61	30623
2026-01-12 22:36:21.61	103.54	6.28	-45.2	-63.5	3.8	8.46e-01	0	59	104	389021696	61	30551
2026-01-12 22:36:22.63	103.40	6.21	-45.2	-63.5	3.8	8.46e-01	0	59	104	389021696	61	30635
2026-01-12 22:36:23.63	103.26	6.14	-45.2	-63.5	3.8	8.46e-01	0	59	104	389021696	61	30536
2026-01-12 22:36:24.65	103.11	6.07	-45.2	-63.5	3.8	8.46e-01	0	59	104	389021696	61	30543
2026-01-12 22:36:25.65	102.98	6.00	-45.2	-63.5	3.8	8.45e-01	0	59	104	389021696	61	30562
2026-01-12 22:36:26.66	102.84	5.92	-45.2	-63.5	3.8	8.45e-01	0	59	104	389021696	61	30496
2026-01-12 22:36:27.67	102.70	5.85	-45.2	-63.5	3.8	8.45e-01	0	59	104	389021696	61	30493
2026-01-12 22:36:28.68	102.56	5.78	-45.2	-63.5	3.8	8.46e-01	0	59	104	389021696	61	30484
2026-01-12 22:36:29.69	102.43	5.71	-45.2	-63.5	3.8	8.46e-01	0	59	104	389021696	61	30613
2026-01-12 22:36:30.70	102.29	5.64	-45.2	-63.5	3.8	8.46e-01	0	59	104	389021696	61	30514
2026-01-12 22:36:31.71	102.16	5.57	-45.2	-63.5	3.8	8.47e-01	0	59	104	389021696	61	30551
2026-01-12 22:36:32.72	102.02	5.50	-45.2	-63.5	3.8	8.47e-01	0	59	104	389021696	61	30553
2026-01-12 22:36:33.73	101.89	5.44	-45.2	-63.5	3.8	8.47e-01	0	59	104	389021696	61	30446
2026-01-12 22:36:34.74	101.76	5.37	-45.2	-63.5	3.8	8.45e-01	0	59	104	389021696	61	30593
2026-01-12 22:36:35.75	101.63	5.30	-45.2	-63.5	3.8	8.46e-01	0	59	104	389021696	61	30491
2026-01-12 22:36:36.76	101.50	5.23	-45.1	-63.5	3.8	8.46e-01	0	59	104	389021696	61	30448
2026-01-12 22:36:37.77	101.37	5.16	-45.2	-63.5	3.8	8.45e-01	0	59	104	389021696	61	30449
2026-01-12 22:36:38.79	101.24	5.09	-45.1	-63.5	3.8	8.47e-01	0	59	104	389021696	61	30457
2026-01-12 22:36:39.80	101.11	5.02	-45.2	-63.5	3.8	8.47e-01	0	59	104	389021696	61	30478
2026-01-12 22:36:40.80	100.99	4.95	-45.1	-63.5	3.8	8.45e-01	0	59	104	389021696	61	30418
2026-01-12 22:36:41.81	100.86	4.89	-45.2	-63.5	3.8	8.45e-01	0	59	104	389021696	61	30532
2026-01-12 22:36:42.83	100.74	4.82	-45.2	-63.5	3.8	8.45e-01	0	59	104	389021696	61	30442
2026-01-12 22:36:43.83	100.62	4.75	-45.1	-63.4	3.8	8.46e-01	0	59	104	389021696	61	30370
2026-01-12 22:36:44.84	100.49	4.68	-45.1	-63.5	3.8	8.46e-01	0	59	104	389021696	61	30431
2026-01-12 22:36:45.85	100.37	4.62	-45.2	-63.5	3.8	8.46e-01	0	59	104	389021696	61	30435
2026-01-12 22:36:46.86	100.25	4.55	-45.1	-63.5	3.8	8.46e-01	0	59	104	389021696	61	30502
2026-01-12 22:36:47.87	100.13	4.48	-45.1	-63.4	3.8	8.46e-01	0	59	104	389021696	61	30346
2026-01-12 22:36:48.88	100.01	4.41	-45.1	-63.5	3.8	8.47e-01	0	59	104	389021696	61	30486
2026-01-12 22:36:49.89	99.89	4.35	-45.1	-63.5	3.8	8.47e-01	0	59	104	389021696	61	30456
2026-01-12 22:36:50.90	99.77	4.28	-45.1	-63.5	3.8	8.46e-01	0	59	104	389021696	61	30401
2026-01-12 22:36:51.91	99.65	4.21	-45.1	-63.4	3.8	8.47e-01	0	59	104	389021696	61	30366
2026-01-12 22:36:52.92	99.54	4.15	-45.1	-63.5	3.8	8.47e-01	0	59	104	389021696	61	30471
2026-01-12 22:36:53.93	99.42	4.08	-45.1	-63.5	3.8	8.46e-01	0	59	104	389021696	61	30419
2026-01-12 22:36:54.94	99.31	4.02	-45.1	-63.5	3.8	8.46e-01	0	59	104	389021696	61	30509
2026-01-12 22:36:55.95	99.19	3.95	-45.1	-63.4	3.8	8.46e-01	0	59	104	389021696	61	30363
2026-01-12 22:36:56.96	99.08	3.88	-45.1	-63.4	3.8	8.47e-01	0	59	104	389021696	61	30293
2026-01-12 22:36:57.97	98.97	3.82	-45.1	-63.5	3.8	8.46e-01	0	59	104	389021696	61	30386
2026-01-12 22:36:58.97	98.86	3.75	-45.1	-63.5	3.8	8.47e-01	0	59	104	389021696	61	30400
2026-01-12 22:36:59.98	98.74	3.69	-45.1	-63.4	3.8	8.47e-01	0	59	104	389021696	61	30357
2026-01-12 22:37:00.99	98.63	3.62	-45.1	-63.5	3.8	8.46e-01	0	59	104	389021696	61	30408
2026-01-12 22:37:02.00	98.52	3.56	-45.1	-63.4	3.8	8.45e-01	0	59	104	389021696	61	30367
2026-01-12 22:37:03.01	98.41	3.49	-45.1	-63.5	3.8	8.45e-01	0	59	104	389021696	61	30451
2026-01-12 22:37:04.02	98.31	3.43	-45.1	-63.4	3.8	8.47e-01	0	59	104	389021696	61	30353
2026-01-12 22:37:05.03	98.20	3.37	-45.1	-63.5	3.8	8.46e-01	0	59	104	389021696	61	30431
2026-01-12 22:37:06.04	98.09	3.30	-45.1	-63.4	3.8	8.46e-01	0	59	104	389021696	61	30360
2026-01-12 22:37:07.05	97.98	3.24	-45.1	-63.5	3.8	8.46e-01	0	60	104	389021696	61	30394
2026-01-12 22:37:08.06	97.88	3.17	-45.1	-63.4	3.8	8.46e-01	0	59	104	389021696	61	30326
2026-01-12 22:37:09.07	97.77	3.11	-45.1	-63.4	3.8	8.46e-01	0	59	104	389021696	61	30272
2026-01-12 22:37:10.08	97.67	3.05	-45.1	-63.4	3.8	8.46e-01	0	59	104	389021696	61	30369
2026-01-12 22:37:11.09	97.57	2.98	-45.1	-63.4	3.8	8.46e-01	0	59	104	389021696	61	30271
2026-01-12 22:37:12.10	97.46	2.92	-45.1	-63.4	3.8	8.47e-01	0	59	104	389021696	61	30319
2026-01-12 22:37:13.11	97.36	2.86	-45.1	-63.5	3.8	8.47e-01	0	59	104	389021696	61	30398
2026-01-12 22:37:14.12	97.26	2.79	-45.1	-63.4	3.8	8.46e-01	0	59	104	389021696	61	30338
2026-01-12 22:37:15.13	97.16	2.73	-45.1	-63.4	3.8	8.47e-01	0	59	104	389021696	61	30306
2026-01-12 22:37:16.13	97.06	2.67	-45.1	-63.5	3.8	8.47e-01	0	59	104	389021696	61	30380
2026-01-12 22:37:17.14	96.96	2.61	-45.1	-63.4	3.8	8.46e-01	0	59	104	389021696	61	30372
2026-01-12 22:37:18.15	96.86	2.54	-45.1	-63.5	3.8	8.46e-01	0	59	104	389021696	61	30426
2026-01-12 22:37:19.16	96.76	2.48	-45.1	-63.4	3.8	8.46e-01	0	59	104	389021696	61	30288
2026-01-12 22:37:20.17	96.66	2.42	-45.1	-63.5	3.8	8.45e-01	0	59	104	389021696	61	30381
2026-01-12 22:37:21.17	96.56	2.36	-45.1	-63.4	3.8	8.47e-01	0	59	104	389021696	61	30290
2026-01-12 22:37:22.18	96.47	2.30	-45.1	-63.4	3.8	8.47e-01	0	59	104	389021696	61	30270
2026-01-12 22:37:23.19	96.37	2.23	-45.1	-63.4	3.8	8.47e-01	0	59	104	389021696	61	30309
2026-01-12 22:37:24.20	96.28	2.17	-45.1	-63.4	3.8	8.46e-01	0	59	104	389021696	61	30239
2026-01-12 22:37:25.21	96.18	2.11	-45.1	-63.4	3.8	8.46e-01	0	59	104	389021696	61	30314
2026-01-12 22:37:26.22	96.09	2.05	-45.1	-63.4	3.8	8.46e-01	0	59	104	389021696	61	30261

#Closed at: 2026-01-12 22:37:27
#Recorded file [389 MB]: D:/lorett/data/31039_260113_012855.dat