passes_logs/2026/01/12/R2.0S_Moscow/R2.0S_Moscow__20260112_084159_SUOMI_NPP_rec.log

#Pass ID: 20260112_084159_SUOMI NPP
#Satellite: SUOMI NPP
#Configuration: NPP
#almurnet v.1.7.20251203
#Start time: 2026-01-12 08:41:58

#Version: 2.2.20231116
#Station: R2.0S_Moscow
#Location: 37.707566 lon 55.798166 lat
#TLE: 1 37849U 11061A   26011.29776829  .00000112  00000+0  74065-4 0  9999
#TLE: 2 37849  98.7807 313.3784 0002522  70.0451 290.0996 14.19524507736187

#Time	Az	El	Level	Level2	SNR	BER	BlckErr	Temp	State	Recorded	gain1	gain2
2026-01-12 08:41:58.90	122.84	1.96	-20.9	-37.8	3.9	1.50e+00	0	47	0	0	9	31606
2026-01-12 08:41:59.91	122.78	2.02	-15.5	-34.1	3.6	1.50e+00	0	47	104	0	5	25995
2026-01-12 08:42:00.92	122.73	2.08	-20.1	-39.3	4.1	1.50e+00	0	47	104	0	12	31537
2026-01-12 08:42:01.93	122.68	2.14	-21.5	-37.1	4.0	1.50e+00	0	47	104	0	11	25981
2026-01-12 08:42:02.95	122.62	2.21	-16.6	-35.9	3.8	1.50e+00	0	47	104	0	11	22695
2026-01-12 08:42:03.96	122.57	2.27	-17.5	-35.5	3.9	1.50e+00	0	47	104	0	9	24410
2026-01-12 08:42:04.97	122.52	2.33	-21.3	-38.6	3.9	1.50e+00	0	47	104	0	9	34779
2026-01-12 08:42:05.98	122.46	2.39	-15.9	-34.3	3.7	1.50e+00	0	48	104	0	8	22402
2026-01-12 08:42:06.99	122.41	2.45	-19.2	-36.6	3.9	1.50e+00	0	47	104	0	11	24626
2026-01-12 08:42:08.00	122.35	2.51	-21.2	-40.0	4.0	1.50e+00	0	47	104	0	16	27136
2026-01-12 08:42:09.01	122.30	2.57	-20.3	-38.1	3.9	1.50e+00	0	48	104	0	15	23173
2026-01-12 08:42:10.02	122.24	2.63	-21.2	-38.9	3.8	1.50e+00	0	48	104	0	10	33734
2026-01-12 08:42:11.03	122.19	2.69	-22.0	-36.9	3.9	1.50e+00	0	48	104	0	12	23902
2026-01-12 08:42:12.04	122.13	2.75	-20.0	-37.8	3.7	1.50e+00	0	48	104	0	12	26593
2026-01-12 08:42:13.05	122.07	2.81	-13.0	-30.5	3.7	1.50e+00	0	48	104	0	0	22952
2026-01-12 08:42:14.06	122.02	2.88	-20.6	-36.3	4.0	1.50e+00	0	48	104	0	11	23683
2026-01-12 08:42:15.07	121.96	2.94	-11.6	-31.6	3.8	1.51e+00	0	48	104	0	11	13832
2026-01-12 08:42:16.08	121.90	3.00	-19.1	-38.3	3.9	1.50e+00	0	48	104	0	13	26723
2026-01-12 08:42:17.10	121.85	3.06	-22.2	-39.7	3.8	1.50e+00	0	48	104	0	12	33072
2026-01-12 08:42:18.11	121.79	3.12	-21.2	-37.8	3.7	1.50e+00	0	48	104	0	9	31578
2026-01-12 08:42:19.12	121.73	3.19	-16.3	-36.7	3.9	1.50e+00	0	48	104	0	12	23436
2026-01-12 08:42:20.13	121.67	3.25	-19.9	-37.8	3.7	1.50e+00	0	48	104	0	12	26638
2026-01-12 08:42:21.14	121.62	3.31	-20.7	-37.7	3.8	1.50e+00	0	48	104	0	10	29479
2026-01-12 08:42:22.15	121.56	3.37	-18.7	-37.1	4.1	1.50e+00	0	48	104	0	12	24633
2026-01-12 08:42:23.16	121.50	3.44	-9.1	-31.2	3.5	1.50e+00	0	48	104	0	3	20962
2026-01-12 08:42:24.17	121.44	3.50	-17.6	-37.3	3.6	1.50e+00	0	49	104	0	12	25039
2026-01-12 08:42:25.18	121.38	3.56	-13.1	-32.4	3.6	1.50e+00	0	49	104	0	6	20241
2026-01-12 08:42:26.19	121.32	3.62	-20.3	-36.3	4.0	1.50e+00	0	49	104	0	10	25265
2026-01-12 08:42:27.20	121.26	3.69	-20.1	-37.5	3.9	1.50e+00	0	49	104	0	11	27320
2026-01-12 08:42:28.21	121.20	3.75	-21.5	-37.7	3.9	1.50e+00	0	49	104	0	12	26300
2026-01-12 08:42:29.22	121.14	3.81	-21.2	-38.0	3.9	1.50e+00	0	49	104	0	12	27295
2026-01-12 08:42:30.24	121.08	3.88	-21.7	-38.5	4.0	1.50e+00	0	49	104	0	13	27077
2026-01-12 08:42:31.25	121.02	3.94	-19.6	-37.1	3.8	1.50e+00	0	49	104	0	8	31032
2026-01-12 08:42:32.26	120.96	4.00	-20.9	-38.7	3.9	1.50e+00	0	49	104	0	12	29452
2026-01-12 08:42:33.27	120.90	4.07	-20.3	-36.9	4.0	1.50e+00	0	49	104	0	11	25310
2026-01-12 08:42:34.28	120.84	4.13	-19.8	-35.7	3.8	1.50e+00	0	49	104	0	9	24939
2026-01-12 08:42:35.29	120.77	4.20	-18.0	-34.7	3.8	1.50e+00	0	49	104	0	8	23389
2026-01-12 08:42:36.30	120.71	4.26	-14.7	-33.7	3.8	1.50e+00	0	49	104	0	8	20881
2026-01-12 08:42:37.31	120.65	4.32	-22.0	-38.8	3.7	1.50e+00	0	49	104	0	11	31710
2026-01-12 08:42:38.32	120.59	4.39	-21.1	-38.2	3.7	1.50e+00	0	50	104	0	9	33287
2026-01-12 08:42:39.34	120.52	4.45	-20.2	-36.1	3.9	1.50e+00	0	49	104	0	9	26064
2026-01-12 08:42:40.35	120.46	4.52	-21.4	-39.2	3.8	1.50e+00	0	50	104	0	14	27993
2026-01-12 08:42:41.36	120.40	4.58	-21.7	-40.6	4.0	1.50e+00	0	50	104	0	14	32781
2026-01-12 08:42:42.37	120.33	4.65	-15.7	-35.9	4.1	1.50e+00	0	50	104	0	10	23873
2026-01-12 08:42:43.38	120.27	4.71	-18.0	-38.0	3.9	1.50e+00	0	50	104	0	11	28922
2026-01-12 08:42:44.39	120.20	4.78	-14.3	-35.3	3.6	1.50e+00	0	50	104	0	8	25231
2026-01-12 08:42:45.40	120.14	4.84	-21.4	-37.3	3.9	1.50e+00	0	50	104	0	11	26541
2026-01-12 08:42:46.41	120.08	4.91	-19.4	-35.9	3.8	1.50e+00	0	50	104	0	8	26925
2026-01-12 08:42:47.42	120.01	4.97	-21.8	-39.7	3.6	1.50e+00	0	50	104	0	8	41589
2026-01-12 08:42:48.44	119.94	5.04	-21.6	-39.0	3.9	1.50e+00	0	50	104	0	13	28921
2026-01-12 08:42:49.45	119.88	5.10	-20.4	-36.9	4.1	1.50e+00	0	50	104	0	13	22536
2026-01-12 08:42:50.46	119.81	5.17	-21.3	-40.5	3.8	1.50e+00	0	50	104	0	13	34455
2026-01-12 08:42:51.47	119.74	5.24	-20.6	-38.9	4.0	1.50e+00	0	50	104	0	12	30034
2026-01-12 08:42:52.48	119.68	5.30	-20.5	-37.3	3.9	1.50e+00	0	50	104	0	11	26757
2026-01-12 08:42:53.49	119.61	5.37	-22.4	-40.1	3.8	1.50e+00	0	50	104	0	14	30804
2026-01-12 08:42:54.50	119.54	5.44	-21.1	-39.4	4.2	1.50e+00	0	50	104	0	13	30328
2026-01-12 08:42:55.51	119.48	5.50	-21.5	-36.5	3.9	1.50e+00	0	50	104	0	10	25657
2026-01-12 08:42:56.52	119.41	5.57	-21.8	-38.0	3.8	1.50e+00	0	50	104	0	11	28875
2026-01-12 08:42:57.53	119.34	5.63	-21.4	-37.9	4.0	1.50e+00	0	50	104	0	11	28516
2026-01-12 08:42:58.54	119.27	5.70	-18.0	-35.8	3.7	1.50e+00	0	50	104	0	5	31464
2026-01-12 08:42:59.55	119.20	5.77	-21.3	-39.7	4.0	1.50e+00	0	50	104	0	10	37088
2026-01-12 08:43:00.57	119.13	5.84	-19.8	-34.6	3.7	1.50e+00	0	51	104	0	7	24511
2026-01-12 08:43:01.58	119.06	5.90	-22.1	-39.0	3.7	1.50e+00	0	51	104	0	11	32328
2026-01-12 08:43:02.59	118.99	5.97	-19.5	-36.0	3.7	1.50e+00	0	51	104	0	8	27387
2026-01-12 08:43:03.60	118.92	6.04	-18.7	-38.3	3.7	1.50e+00	0	51	104	0	8	35442
2026-01-12 08:43:04.61	118.85	6.11	-20.9	-37.2	3.9	1.50e+00	0	51	104	0	12	24926
2026-01-12 08:43:05.62	118.78	6.17	-20.4	-34.8	4.1	1.50e+00	0	51	104	0	5	28110
2026-01-12 08:43:06.63	118.71	6.24	-19.2	-33.1	3.6	1.50e+00	0	51	104	0	3	26036
2026-01-12 08:43:07.64	118.64	6.31	-20.2	-35.8	3.9	1.50e+00	0	51	104	0	9	25185
2026-01-12 08:43:08.65	118.56	6.38	-21.6	-37.8	3.6	1.50e+00	0	51	104	0	10	29701
2026-01-12 08:43:09.66	118.49	6.45	-18.1	-35.9	3.8	1.50e+00	0	51	104	0	8	26766
2026-01-12 08:43:10.67	118.42	6.51	-12.0	-32.3	3.8	1.50e+00	0	51	104	0	7	18896
2026-01-12 08:43:11.69	118.34	6.58	-20.8	-37.4	3.9	1.50e+00	0	51	104	0	11	26767
2026-01-12 08:43:12.70	118.27	6.65	-21.5	-39.7	3.8	1.50e+00	0	51	104	0	12	32960
2026-01-12 08:43:13.71	118.20	6.72	-21.3	-38.6	3.9	1.50e+00	0	51	104	0	11	30847
2026-01-12 08:43:14.72	118.12	6.79	-21.2	-36.9	3.8	1.50e+00	0	51	104	0	10	26834
2026-01-12 08:43:15.73	118.05	6.86	-19.9	-38.5	3.7	1.50e+00	0	51	104	0	11	30573
2026-01-12 08:43:16.74	117.97	6.93	-21.0	-39.1	3.9	1.50e+00	0	51	104	0	12	30786
2026-01-12 08:43:17.75	117.90	7.00	-22.1	-39.1	4.0	1.50e+00	0	51	104	0	12	30971
2026-01-12 08:43:18.76	117.82	7.07	-21.4	-37.2	3.8	1.50e+00	0	51	104	0	11	26176
2026-01-12 08:43:19.77	117.74	7.14	-17.6	-37.9	3.9	1.50e+00	0	51	104	0	12	26802
2026-01-12 08:43:20.78	117.67	7.21	-22.2	-40.0	4.0	1.50e+00	0	51	104	0	13	32408
2026-01-12 08:43:21.79	117.59	7.28	-21.3	-38.2	3.9	1.50e+00	0	51	104	0	11	29483
2026-01-12 08:43:22.81	117.51	7.35	-20.4	-37.1	4.0	1.50e+00	0	52	104	0	11	26048
2026-01-12 08:43:23.82	117.44	7.42	-16.5	-34.9	4.0	1.50e+00	0	52	104	0	11	20101
2026-01-12 08:43:24.83	117.36	7.49	-21.9	-39.6	4.0	1.50e+00	0	51	104	0	12	32777
2026-01-12 08:43:25.84	117.28	7.56	-16.3	-34.6	3.9	1.50e+00	0	52	104	0	9	21966
2026-01-12 08:43:26.85	117.20	7.63	-17.9	-32.9	3.8	1.50e+00	0	52	104	0	6	21433
2026-01-12 08:43:27.86	117.12	7.70	-20.6	-37.2	3.6	1.50e+00	0	52	104	0	9	29490
2026-01-12 08:43:28.87	117.04	7.77	-21.8	-39.1	4.0	1.50e+00	0	52	104	0	13	29346
2026-01-12 08:43:29.88	116.96	7.84	-21.6	-39.1	4.1	1.50e+00	0	52	104	0	14	27494
2026-01-12 08:43:30.89	116.88	7.91	-16.5	-32.7	4.0	1.50e+00	0	52	104	0	9	17534
2026-01-12 08:43:31.90	116.80	7.99	-20.4	-38.4	4.3	1.50e+00	0	52	104	0	13	27030
2026-01-12 08:43:32.91	116.72	8.06	-20.4	-35.7	4.1	1.50e+00	0	52	104	0	11	22173
2026-01-12 08:43:33.92	116.64	8.13	-22.0	-36.7	3.8	1.50e+00	0	52	104	0	10	26177
2026-01-12 08:43:34.93	116.56	8.20	-21.7	-38.8	3.7	1.50e+00	0	52	104	0	11	31447
2026-01-12 08:43:35.94	116.47	8.27	-21.8	-37.8	4.3	1.50e+00	0	52	104	0	13	25075
2026-01-12 08:43:36.95	116.39	8.35	-23.6	-41.0	3.9	1.50e+00	0	52	104	0	17	28884
2026-01-12 08:43:37.96	116.31	8.42	-21.7	-38.5	3.9	1.50e+00	0	52	104	0	12	28902
2026-01-12 08:43:38.97	116.22	8.49	-19.5	-36.9	3.8	1.50e+00	0	52	104	0	9	28677
2026-01-12 08:43:39.98	116.14	8.56	-20.8	-39.6	4.0	1.50e+00	0	52	104	0	15	27666
2026-01-12 08:43:40.99	116.05	8.64	-14.7	-36.0	3.5	1.50e+00	0	52	104	0	5	32305
2026-01-12 08:43:42.00	115.97	8.71	-24.2	-41.5	3.8	1.50e+00	0	52	104	0	15	34326
2026-01-12 08:43:43.01	115.88	8.78	-23.4	-38.9	3.8	1.50e+00	0	52	104	0	16	23964
2026-01-12 08:43:44.02	115.80	8.86	-21.6	-38.3	4.3	1.49e+00	0	52	104	0	12	28135
2026-01-12 08:43:45.03	115.71	8.93	-22.7	-39.2	4.0	1.50e+00	0	52	104	0	12	31399
2026-01-12 08:43:46.04	115.62	9.00	-20.9	-38.0	4.0	1.49e+00	0	52	104	0	10	30726
2026-01-12 08:43:47.05	115.54	9.08	-20.8	-35.9	3.9	1.50e+00	0	52	104	0	11	22732
2026-01-12 08:43:48.06	115.45	9.15	-18.8	-37.1	3.6	1.50e+00	0	52	104	0	10	27650
2026-01-12 08:43:49.07	115.36	9.22	-20.2	-36.2	3.8	1.50e+00	0	52	104	0	8	27708
2026-01-12 08:43:50.08	115.27	9.30	-21.6	-36.9	4.1	1.50e+00	0	52	104	0	11	25516
2026-01-12 08:43:51.09	115.18	9.37	-20.5	-38.2	4.0	1.50e+00	0	52	104	0	12	27938
2026-01-12 08:43:52.10	115.09	9.45	-30.2	-43.5	4.0	1.48e+00	0	53	104	0	25	24287
2026-01-12 08:43:53.11	115.00	9.52	-28.0	-41.7	4.3	1.50e+00	0	53	104	0	24	20978
2026-01-12 08:43:54.12	114.91	9.60	-23.2	-37.6	3.8	1.49e+00	0	52	104	0	11	27595
2026-01-12 08:43:55.13	114.82	9.67	-22.5	-39.4	4.1	1.50e+00	0	52	104	0	15	27041
2026-01-12 08:43:56.14	114.73	9.75	-24.4	-41.6	4.2	1.50e+00	0	53	104	0	17	30864
2026-01-12 08:43:57.16	114.64	9.82	-17.7	-41.2	4.2	1.50e+00	0	53	104	0	16	31331
2026-01-12 08:43:58.17	114.54	9.90	-23.1	-40.0	4.2	1.50e+00	0	53	104	0	17	25584
2026-01-12 08:43:59.18	114.45	9.97	-17.2	-34.6	3.8	1.50e+00	0	53	104	0	6	25878
2026-01-12 08:44:00.19	114.36	10.05	-23.1	-40.8	4.0	1.50e+00	0	53	104	0	18	26666
2026-01-12 08:44:01.20	114.26	10.12	-25.8	-42.1	4.3	1.50e+00	0	53	104	0	19	29210
2026-01-12 08:44:02.20	114.17	10.20	-31.6	-47.9	3.8	1.47e+00	0	53	104	0	31	28608
2026-01-12 08:44:03.21	114.08	10.28	-31.8	-46.3	4.2	1.47e+00	0	53	104	0	34	20054
2026-01-12 08:44:04.22	113.98	10.35	-23.1	-41.2	4.0	1.50e+00	0	53	104	0	18	27843
2026-01-12 08:44:05.24	113.88	10.43	-26.7	-43.7	4.1	1.50e+00	0	53	104	0	23	27930
2026-01-12 08:44:06.25	113.79	10.51	-22.1	-40.6	4.3	1.49e+00	0	53	104	0	24	18314
2026-01-12 08:44:07.26	113.69	10.58	-24.9	-41.3	4.0	1.45e+00	0	53	104	0	21	23603
2026-01-12 08:44:08.27	113.59	10.66	-28.8	-43.9	4.8	1.48e+00	0	53	104	0	27	22704
2026-01-12 08:44:09.28	113.49	10.74	-25.6	-42.3	4.4	1.45e+00	0	53	104	0	28	17862
2026-01-12 08:44:10.29	113.40	10.82	-30.6	-45.4	4.4	1.45e+00	0	53	104	0	29	23900
2026-01-12 08:44:11.30	113.30	10.89	-22.3	-42.7	4.5	1.47e+00	0	53	104	0	28	18558
2026-01-12 08:44:12.31	113.20	10.97	-33.2	-44.9	4.7	1.45e+00	0	53	104	0	32	18952
2026-01-12 08:44:13.32	113.10	11.05	-34.9	-46.8	4.7	1.40e+00	0	53	104	0	37	17749
2026-01-12 08:44:14.32	113.00	11.13	-34.8	-47.0	6.1	1.38e+00	0	53	104	0	40	15298
2026-01-12 08:44:15.33	112.90	11.20	-36.8	-47.1	6.5	6.56e-01	0	53	0	1048576	41	14591
2026-01-12 08:44:16.34	112.79	11.28	-37.2	-46.2	6.7	4.62e-01	0	53	0	3145728	41	13241
2026-01-12 08:44:17.36	112.69	11.36	-36.9	-46.6	6.8	4.97e-01	0	53	0	5242880	44	11562
2026-01-12 08:44:18.36	112.59	11.44	-38.2	-46.5	7.6	3.91e-01	0	53	0	7340032	46	10186
2026-01-12 08:44:19.37	112.48	11.52	-36.9	-46.9	7.0	2.95e-01	0	53	0	8388608	45	11397
2026-01-12 08:44:20.38	112.38	11.60	-36.8	-46.9	6.5	3.63e-01	0	53	0	10485760	43	12750
2026-01-12 08:44:21.39	112.28	11.68	-39.4	-47.2	7.9	2.15e-01	0	53	0	12582912	48	9920
2026-01-12 08:44:22.41	112.17	11.76	-39.9	-46.7	8.8	1.40e-01	0	53	0	14680064	48	9281
2026-01-12 08:44:23.42	112.06	11.84	-37.6	-46.4	8.1	2.42e-01	0	53	0	15728640	46	10127
2026-01-12 08:44:24.43	111.96	11.91	-39.4	-45.8	9.2	1.39e-01	0	53	0	17825792	48	8403
2026-01-12 08:44:25.44	111.85	11.99	-40.4	-46.1	10.1	2.27e-02	0	53	0	19922944	50	7776
2026-01-12 08:44:26.45	111.74	12.07	-40.7	-46.3	9.9	2.73e-02	0	53	0	22020096	51	7461
2026-01-12 08:44:27.46	111.63	12.15	-40.0	-46.7	9.4	3.82e-02	0	54	0	24117248	50	8324
2026-01-12 08:44:28.47	111.53	12.23	-41.1	-46.5	10.0	2.91e-02	0	53	0	25165824	52	7233
2026-01-12 08:44:29.47	111.42	12.31	-41.3	-46.8	9.9	1.20e-02	0	53	0	27262976	53	7096
2026-01-12 08:44:30.48	111.31	12.39	-41.5	-46.3	10.5	1.52e-02	0	54	0	29360128	53	6657
2026-01-12 08:44:31.49	111.20	12.48	-41.4	-46.1	10.9	5.31e-03	0	54	0	31457280	53	6565
2026-01-12 08:44:32.51	111.08	12.56	-41.4	-45.9	10.9	5.17e-03	0	54	0	33554432	53	6382
2026-01-12 08:44:33.52	110.97	12.64	-41.0	-45.3	11.6	3.59e-03	0	54	0	35651584	53	5973
2026-01-12 08:44:34.52	110.86	12.72	-40.8	-45.2	11.8	1.72e-03	0	54	0	36700160	52	6207
2026-01-12 08:44:35.53	110.75	12.80	-41.0	-45.1	11.8	9.28e-04	0	54	0	38797312	52	6173
2026-01-12 08:44:36.54	110.63	12.88	-41.2	-45.3	11.8	9.28e-04	0	54	0	40894464	53	5945
2026-01-12 08:44:37.55	110.52	12.96	-41.3	-45.5	11.5	1.34e-03	0	54	0	42991616	53	6081
2026-01-12 08:44:38.56	110.40	13.04	-41.4	-45.8	11.2	3.50e-03	0	54	0	45088768	53	6303
2026-01-12 08:44:39.57	110.29	13.13	-41.3	-45.7	11.3	1.85e-03	0	54	0	46137344	53	6247
2026-01-12 08:44:40.58	110.17	13.21	-41.3	-45.4	11.7	1.49e-03	0	54	0	48234496	53	5993
2026-01-12 08:44:41.59	110.05	13.29	-40.9	-44.7	12.4	4.35e-04	0	54	0	50331648	52	5881
2026-01-12 08:44:42.60	109.94	13.37	-40.7	-44.2	12.9	1.35e-04	0	54	0	52428800	52	5589
2026-01-12 08:44:43.61	109.82	13.46	-40.8	-44.3	12.9	1.74e-03	0	54	0	54525952	52	5595
2026-01-12 08:44:44.62	109.70	13.54	-40.9	-44.6	12.6	3.60e-04	0	54	0	55574528	52	5828
2026-01-12 08:44:45.63	109.58	13.62	-41.1	-45.0	12.1	1.68e-03	0	54	0	57671680	52	6079
2026-01-12 08:44:46.64	109.46	13.71	-41.2	-45.0	12.1	5.01e-04	0	54	0	59768832	52	6129
2026-01-12 08:44:47.64	109.34	13.79	-41.2	-45.1	12.0	4.67e-04	0	54	0	61865984	53	5806
2026-01-12 08:44:48.65	109.22	13.87	-41.4	-45.6	11.5	8.37e-04	0	54	0	63963136	53	6134
2026-01-12 08:44:49.66	109.10	13.95	-41.3	-45.6	11.6	6.87e-04	0	54	0	65011712	53	6144
2026-01-12 08:44:50.67	108.97	14.04	-41.4	-45.6	11.5	7.46e-04	0	54	0	67108864	53	6184
2026-01-12 08:44:51.68	108.85	14.12	-40.6	-45.5	11.2	7.69e-04	0	54	0	69206016	51	6873
2026-01-12 08:44:52.69	108.72	14.21	-41.4	-45.5	11.6	7.03e-04	0	54	0	71303168	53	6102
2026-01-12 08:44:53.70	108.60	14.29	-41.4	-45.4	11.8	4.42e-04	0	54	0	73400320	53	6018
2026-01-12 08:44:54.71	108.47	14.38	-41.4	-45.4	11.7	8.28e-04	0	54	0	74448896	53	6019
2026-01-12 08:44:55.72	108.35	14.46	-41.2	-45.1	12.1	7.55e-04	0	54	0	76546048	53	5817
2026-01-12 08:44:56.73	108.22	14.54	-41.6	-45.7	11.4	1.00e-03	0	54	0	78643200	53	6262
2026-01-12 08:44:57.74	108.09	14.63	-41.6	-45.8	11.3	1.06e-03	0	54	0	80740352	53	6343
2026-01-12 08:44:58.75	107.96	14.71	-41.0	-45.6	11.5	7.99e-04	0	54	0	82837504	53	6134
2026-01-12 08:44:59.76	107.83	14.80	-41.4	-45.5	11.6	7.00e-04	0	54	0	83886080	53	6098
2026-01-12 08:45:00.77	107.70	14.88	-41.2	-45.0	12.1	5.35e-04	0	54	0	85983232	53	5782
2026-01-12 08:45:01.78	107.57	14.97	-41.0	-45.0	11.4	9.47e-04	0	54	0	88080384	52	6065
2026-01-12 08:45:02.79	107.44	15.06	-41.1	-44.8	12.3	4.38e-04	0	54	0	90177536	52	5965
2026-01-12 08:45:03.80	107.30	15.14	-40.9	-44.6	12.5	4.15e-04	0	54	0	92274688	52	5790
2026-01-12 08:45:04.81	107.17	15.23	-40.8	-44.7	12.4	7.86e-04	0	54	0	93323264	52	5886
2026-01-12 08:45:05.81	107.04	15.31	-41.0	-44.7	12.2	5.67e-04	0	54	0	95420416	52	5885
2026-01-12 08:45:06.83	106.90	15.40	-40.8	-44.7	12.5	4.38e-04	0	54	0	97517568	52	5873
2026-01-12 08:45:07.84	106.76	15.49	-41.0	-44.6	12.5	8.05e-04	0	54	0	99614720	52	5855
2026-01-12 08:45:08.84	106.63	15.57	-40.7	-44.5	12.5	5.39e-04	0	54	0	101711872	52	5787
2026-01-12 08:45:09.85	106.49	15.66	-40.8	-44.2	13.1	2.69e-04	0	54	0	103809024	52	5536
2026-01-12 08:45:10.86	106.35	15.74	-40.4	-43.9	13.1	2.28e-04	0	54	0	104857600	52	5355
2026-01-12 08:45:11.88	106.21	15.83	-40.1	-43.6	13.7	2.29e-03	0	54	0	106954752	51	5500
2026-01-12 08:45:12.89	106.07	15.92	-40.6	-43.7	13.6	7.55e-05	0	54	0	109051904	52	5273
2026-01-12 08:45:13.90	105.93	16.01	-40.8	-44.2	13.2	6.56e-05	0	54	0	111149056	52	5542
2026-01-12 08:45:14.91	105.79	16.09	-40.7	-44.0	13.3	4.04e-05	0	54	0	113246208	52	5414
2026-01-12 08:45:15.92	105.65	16.18	-40.7	-44.3	13.0	2.17e-04	0	54	0	114294784	52	5594
2026-01-12 08:45:16.93	105.50	16.27	-40.6	-43.7	13.6	3.62e-04	0	54	0	116391936	51	5552
2026-01-12 08:45:17.94	105.36	16.36	-40.5	-43.7	13.4	2.14e-04	0	54	0	118489088	51	5544
2026-01-12 08:45:18.95	105.21	16.44	-40.3	-43.6	13.7	2.42e-04	0	54	0	120586240	51	5468
2026-01-12 08:45:19.96	105.07	16.53	-40.5	-43.5	13.9	1.49e-04	0	54	0	122683392	51	5461
2026-01-12 08:45:20.97	104.92	16.62	-40.7	-43.8	13.5	1.36e-04	0	54	0	123731968	51	5645
2026-01-12 08:45:21.98	104.77	16.71	-40.5	-43.9	13.5	5.49e-05	0	54	0	125829120	52	5366
2026-01-12 08:45:22.99	104.62	16.80	-40.6	-43.7	13.8	3.81e-05	0	54	0	127926272	51	5579
2026-01-12 08:45:24.00	104.48	16.88	-40.6	-43.8	13.8	2.21e-05	0	54	0	130023424	51	5593
2026-01-12 08:45:25.01	104.32	16.97	-40.4	-43.4	14.1	1.06e-05	0	54	0	132120576	51	5351
2026-01-12 08:45:26.02	104.17	17.06	-40.3	-43.5	14.1	6.80e-06	0	54	0	133169152	51	5403
2026-01-12 08:45:27.03	104.02	17.15	-40.5	-43.6	14.0	1.50e-06	0	55	0	135266304	51	5466
2026-01-12 08:45:28.04	103.87	17.24	-40.6	-43.7	13.8	7.00e-07	0	54	0	137363456	51	5559
2026-01-12 08:45:29.05	103.71	17.33	-40.7	-43.8	13.7	7.60e-06	0	55	0	139460608	51	5653
2026-01-12 08:45:30.06	103.56	17.42	-40.7	-43.9	13.5	1.06e-05	0	55	0	141557760	52	5386
2026-01-12 08:45:31.07	103.40	17.51	-40.7	-43.9	13.5	9.90e-06	0	54	0	142606336	52	5390
2026-01-12 08:45:32.08	103.25	17.60	-40.7	-43.8	13.7	5.30e-06	0	55	0	144703488	52	5295
2026-01-12 08:45:33.09	103.09	17.69	-40.5	-43.5	14.0	7.60e-06	0	55	0	146800640	52	5129
2026-01-12 08:45:34.10	102.93	17.77	-40.7	-43.9	13.6	5.30e-06	0	55	0	148897792	52	5352
2026-01-12 08:45:35.11	102.77	17.86	-40.8	-44.0	13.5	1.60e-05	0	55	0	150994944	52	5432
2026-01-12 08:45:36.12	102.61	17.95	-40.8	-44.1	13.4	6.10e-06	0	55	0	152043520	52	5517
2026-01-12 08:45:37.13	102.45	18.04	-40.7	-43.9	13.6	9.90e-06	0	55	0	154140672	52	5374
2026-01-12 08:45:38.14	102.29	18.13	-40.6	-43.7	13.8	4.50e-06	0	54	0	156237824	52	5267
2026-01-12 08:45:39.15	102.12	18.22	-39.9	-43.7	13.8	4.50e-06	0	54	0	158334976	51	5542
2026-01-12 08:45:40.16	101.96	18.31	-40.6	-43.6	13.9	4.50e-06	0	55	0	160432128	51	5506
2026-01-12 08:45:41.17	101.79	18.40	-40.5	-43.6	13.9	6.10e-06	0	55	0	161480704	52	5173
2026-01-12 08:45:42.18	101.63	18.49	-40.5	-43.9	13.5	7.60e-06	0	55	0	163577856	52	5361
2026-01-12 08:45:43.19	101.46	18.58	-40.7	-43.9	13.6	5.30e-06	0	55	0	165675008	52	5383
2026-01-12 08:45:44.20	101.29	18.67	-40.7	-43.8	13.7	5.30e-06	0	55	0	167772160	52	5328
2026-01-12 08:45:45.21	101.12	18.77	-40.6	-43.9	13.6	4.50e-06	0	55	0	169869312	52	5343
2026-01-12 08:45:46.22	100.95	18.86	-40.6	-43.8	13.6	7.60e-06	0	55	0	170917888	52	5287
2026-01-12 08:45:47.23	100.78	18.95	-40.5	-43.5	14.0	1.37e-05	0	55	0	173015040	52	5142
2026-01-12 08:45:48.24	100.61	19.04	-40.7	-43.9	13.6	5.30e-06	0	55	0	175112192	52	5352
2026-01-12 08:45:49.25	100.43	19.13	-41.0	-44.3	13.2	2.89e-05	0	55	0	177209344	52	5639
2026-01-12 08:45:50.26	100.26	19.22	-41.1	-44.7	12.7	4.95e-05	0	55	0	179306496	52	5899
2026-01-12 08:45:51.27	100.08	19.31	-41.2	-44.8	12.7	1.07e-04	0	55	0	181403648	53	5619
2026-01-12 08:45:52.27	99.91	19.40	-41.1	-44.5	13.0	5.49e-05	0	55	0	182452224	53	5437
2026-01-12 08:45:53.28	99.73	19.49	-40.9	-44.4	13.0	6.63e-05	0	55	0	184549376	52	5696
2026-01-12 08:45:54.29	99.55	19.58	-40.9	-44.2	13.3	3.12e-05	0	55	0	186646528	52	5567
2026-01-12 08:45:55.30	99.37	19.67	-41.0	-44.3	13.2	3.28e-05	0	55	0	188743680	52	5656
2026-01-12 08:45:56.31	99.19	19.76	-41.3	-45.0	12.5	6.25e-05	0	55	0	190840832	53	5741
2026-01-12 08:45:57.32	99.01	19.85	-41.6	-45.6	11.9	1.59e-04	0	55	0	191889408	53	6169
2026-01-12 08:45:58.33	98.82	19.95	-41.5	-45.3	12.2	2.93e-04	0	55	0	193986560	53	5983
2026-01-12 08:45:59.34	98.64	20.04	-41.3	-44.9	12.6	1.43e-04	0	55	0	196083712	53	5709
2026-01-12 08:46:00.35	98.45	20.13	-41.1	-44.5	13.1	4.50e-05	0	55	0	198180864	53	5425
2026-01-12 08:46:01.36	98.27	20.22	-40.9	-44.2	13.3	2.21e-05	0	55	0	200278016	53	5237
2026-01-12 08:46:02.37	98.08	20.31	-40.8	-44.0	13.6	1.52e-05	0	55	0	201326592	53	5136
2026-01-12 08:46:03.38	97.89	20.40	-41.0	-44.3	13.2	2.21e-05	0	55	0	203423744	53	5320
2026-01-12 08:46:04.39	97.70	20.49	-41.0	-44.4	13.1	2.82e-05	0	55	0	205520896	53	5386
2026-01-12 08:46:05.40	97.51	20.58	-41.2	-44.8	12.8	3.28e-05	0	55	0	207618048	53	5603
2026-01-12 08:46:06.41	97.32	20.67	-41.1	-44.5	13.0	5.26e-05	0	55	0	209715200	53	5422
2026-01-12 08:46:07.42	97.12	20.77	-41.2	-44.7	12.9	3.73e-05	0	55	0	210763776	53	5548
2026-01-12 08:46:08.43	96.93	20.86	-41.3	-45.0	12.5	5.64e-05	0	55	0	212860928	53	5747
2026-01-12 08:46:09.44	96.73	20.95	-41.4	-45.2	12.4	1.32e-04	0	55	0	214958080	53	5856
2026-01-12 08:46:10.45	96.54	21.04	-41.3	-45.0	12.5	1.51e-04	0	55	0	217055232	53	5782
2026-01-12 08:46:11.46	96.34	21.13	-41.2	-44.8	12.7	1.01e-04	0	55	0	219152384	53	5626
2026-01-12 08:46:12.47	96.14	21.22	-41.1	-44.5	13.0	3.50e-05	0	55	0	220200960	53	5460
2026-01-12 08:46:13.48	95.94	21.31	-41.1	-44.5	13.0	5.64e-05	0	55	0	222298112	53	5451
2026-01-12 08:46:14.49	95.74	21.40	-41.0	-44.4	13.1	3.20e-05	0	55	0	224395264	53	5379
2026-01-12 08:46:15.50	95.54	21.49	-40.9	-44.2	13.4	1.67e-05	0	55	0	226492416	53	5268
2026-01-12 08:46:16.51	95.33	21.58	-40.9	-44.2	13.3	1.67e-05	0	55	0	228589568	53	5233
2026-01-12 08:46:17.52	95.13	21.67	-40.9	-44.3	13.3	1.44e-05	0	55	0	229638144	53	5283
2026-01-12 08:46:18.53	94.92	21.77	-40.9	-44.2	13.3	1.98e-05	0	55	0	231735296	53	5259
2026-01-12 08:46:19.54	94.71	21.86	-41.0	-44.4	13.1	2.28e-05	0	55	0	233832448	53	5385
2026-01-12 08:46:20.55	94.50	21.95	-41.1	-44.5	13.0	2.13e-05	0	55	0	235929600	53	5455
2026-01-12 08:46:21.56	94.29	22.04	-40.8	-44.1	13.4	2.44e-05	0	55	0	238026752	53	5165
2026-01-12 08:46:22.57	94.08	22.13	-40.9	-44.2	13.3	1.90e-05	0	55	0	239075328	53	5234
2026-01-12 08:46:23.58	93.87	22.22	-40.9	-44.3	13.4	1.14e-05	0	55	0	241172480	53	5292
2026-01-12 08:46:24.58	93.66	22.31	-40.9	-44.2	13.3	8.30e-06	0	55	0	243269632	53	5241
2026-01-12 08:46:25.59	93.44	22.40	-40.9	-44.3	13.2	1.90e-05	0	55	0	245366784	53	5294
2026-01-12 08:46:26.60	93.23	22.49	-40.6	-43.7	13.9	1.90e-05	0	55	0	247463936	53	4945
2026-01-12 08:46:27.61	93.01	22.58	-40.4	-43.4	14.1	3.00e-06	0	55	0	249561088	52	5081
2026-01-12 08:46:28.62	92.79	22.67	-40.2	-42.9	14.6	0.00e+00	0	55	0	250609664	52	4810
2026-01-12 08:46:29.63	92.57	22.75	-40.0	-42.8	14.8	0.00e+00	0	55	0	252706816	52	4716
2026-01-12 08:46:30.64	92.35	22.84	-40.0	-42.7	14.9	0.00e+00	0	55	0	254803968	51	4946
2026-01-12 08:46:31.65	92.13	22.93	-39.9	-42.5	15.0	0.00e+00	0	55	0	256901120	51	4856
2026-01-12 08:46:32.66	91.90	23.02	-39.7	-42.2	15.4	0.00e+00	0	55	0	258998272	51	4671
2026-01-12 08:46:33.67	91.68	23.11	-39.5	-41.9	15.7	0.00e+00	0	55	0	260046848	51	4522
2026-01-12 08:46:34.68	91.45	23.20	-39.6	-42.0	15.6	0.00e+00	0	55	0	262144000	50	4847
2026-01-12 08:46:35.69	91.22	23.29	-39.9	-42.4	15.2	0.00e+00	0	55	0	264241152	50	5097
2026-01-12 08:46:36.70	90.99	23.38	-40.2	-42.9	14.8	0.00e+00	0	55	0	266338304	50	5367
2026-01-12 08:46:37.71	90.76	23.46	-40.2	-43.0	14.6	0.00e+00	0	55	0	268435456	51	5121
2026-01-12 08:46:38.72	90.53	23.55	-40.2	-43.0	14.6	7.00e-07	0	55	0	269484032	51	5134
2026-01-12 08:46:39.72	90.30	23.64	-40.2	-43.0	14.6	7.00e-07	0	55	0	271581184	51	5138
2026-01-12 08:46:40.74	90.06	23.73	-40.2	-42.9	14.7	7.00e-07	0	55	0	273678336	51	5079
2026-01-12 08:46:41.75	89.83	23.81	-40.3	-43.0	14.6	0.00e+00	0	55	0	275775488	51	5157
2026-01-12 08:46:42.76	89.59	23.90	-40.3	-43.1	14.6	1.50e-06	0	55	0	277872640	51	5198
2026-01-12 08:46:43.76	89.35	23.99	-40.2	-42.9	14.7	7.00e-07	0	55	0	278921216	51	5088
2026-01-12 08:46:44.77	89.12	24.07	-39.9	-42.6	15.1	0.00e+00	0	55	0	281018368	51	4875
2026-01-12 08:46:45.78	88.87	24.16	-39.9	-42.6	15.0	0.00e+00	0	55	0	283115520	51	4876
2026-01-12 08:46:46.79	88.63	24.25	-39.9	-42.5	15.2	0.00e+00	0	55	0	285212672	51	4817
2026-01-12 08:46:47.80	88.39	24.33	-39.9	-42.4	15.2	0.00e+00	0	55	0	287309824	51	4793
2026-01-12 08:46:48.82	88.14	24.42	-39.9	-42.5	15.2	0.00e+00	0	55	0	288358400	51	4829
2026-01-12 08:46:49.83	87.89	24.50	-40.0	-42.6	15.0	0.00e+00	0	55	0	290455552	51	4926
2026-01-12 08:46:50.83	87.65	24.59	-40.1	-42.8	14.9	0.00e+00	0	55	0	292552704	51	5013
2026-01-12 08:46:51.84	87.40	24.67	-40.3	-43.2	14.4	0.00e+00	0	55	0	294649856	51	5241
2026-01-12 08:46:52.85	87.15	24.76	-40.1	-42.8	14.7	0.00e+00	0	55	0	296747008	51	5001
2026-01-12 08:46:53.86	86.90	24.84	-40.2	-43.0	14.7	0.00e+00	0	55	0	297795584	51	5101
2026-01-12 08:46:54.87	86.65	24.92	-40.3	-43.1	14.7	0.00e+00	0	55	0	299892736	51	5183
2026-01-12 08:46:55.88	86.39	25.01	-40.4	-43.3	14.4	7.00e-07	0	55	0	301989888	51	5305
2026-01-12 08:46:56.89	86.14	25.09	-40.4	-43.2	14.5	7.00e-07	0	55	0	304087040	51	5264
2026-01-12 08:46:57.90	85.88	25.17	-40.3	-43.0	14.6	0.00e+00	0	55	0	306184192	51	5158
2026-01-12 08:46:58.91	85.62	25.25	-40.2	-43.0	14.7	0.00e+00	0	55	0	307232768	51	5119
2026-01-12 08:46:59.92	85.36	25.34	-40.3	-43.1	14.6	7.00e-07	0	55	0	309329920	51	5171
2026-01-12 08:47:00.93	85.10	25.42	-40.2	-42.9	14.8	7.00e-07	0	55	0	311427072	51	5083
2026-01-12 08:47:01.94	84.84	25.50	-39.8	-42.4	15.2	0.00e+00	0	55	0	313524224	51	4804
2026-01-12 08:47:02.95	84.57	25.58	-39.7	-42.3	15.4	0.00e+00	0	55	0	315621376	51	4711
2026-01-12 08:47:03.96	84.31	25.66	-39.6	-42.2	15.4	0.00e+00	0	55	0	317718528	51	4695
2026-01-12 08:47:04.97	84.04	25.74	-39.8	-42.5	15.1	0.00e+00	0	55	0	318767104	51	4865
2026-01-12 08:47:05.98	83.77	25.82	-40.0	-42.7	14.9	0.00e+00	0	55	0	320864256	51	4950
2026-01-12 08:47:06.99	83.50	25.90	-40.2	-43.0	14.6	0.00e+00	0	55	0	322961408	51	5148
2026-01-12 08:47:08.00	83.23	25.97	-40.4	-43.5	14.2	0.00e+00	0	55	0	325058560	51	5404
2026-01-12 08:47:09.01	82.96	26.05	-40.3	-43.3	14.3	1.50e-06	0	55	0	327155712	51	5282
2026-01-12 08:47:10.02	82.69	26.13	-40.3	-43.2	14.4	1.50e-06	0	55	0	328204288	51	5278
2026-01-12 08:47:11.03	82.41	26.21	-40.2	-43.1	14.6	7.00e-07	0	55	0	330301440	51	5161
2026-01-12 08:47:12.04	82.14	26.28	-40.2	-43.1	14.6	0.00e+00	0	55	0	332398592	51	5179
2026-01-12 08:47:13.05	81.86	26.36	-40.2	-43.0	14.7	7.00e-07	0	55	0	334495744	51	5120
2026-01-12 08:47:14.06	81.58	26.43	-40.4	-43.3	14.4	0.00e+00	0	55	0	336592896	51	5298
2026-01-12 08:47:15.07	81.30	26.51	-40.3	-43.2	14.5	0.00e+00	0	55	0	337641472	51	5220
2026-01-12 08:47:16.08	81.02	26.58	-40.5	-43.5	14.3	2.20e-06	0	55	0	339738624	51	5403
2026-01-12 08:47:17.09	80.74	26.65	-40.7	-43.9	13.7	2.20e-06	0	55	0	341835776	52	5364
2026-01-12 08:47:18.10	80.46	26.73	-40.8	-44.3	13.4	1.14e-05	0	55	0	343932928	52	5598
2026-01-12 08:47:19.11	80.17	26.80	-40.8	-44.2	13.4	1.22e-05	0	55	0	346030080	52	5558
2026-01-12 08:47:20.12	79.89	26.87	-40.8	-44.2	13.4	1.37e-05	0	55	0	347078656	52	5556
2026-01-12 08:47:21.13	79.60	26.94	-40.5	-43.7	13.9	1.50e-06	0	55	0	349175808	52	5265
2026-01-12 08:47:22.14	79.31	27.01	-40.4	-43.5	14.2	0.00e+00	0	55	0	351272960	52	5157
2026-01-12 08:47:23.15	79.02	27.08	-40.4	-43.4	14.2	3.80e-06	0	55	0	353370112	52	5083
2026-01-12 08:47:24.16	78.73	27.15	-40.2	-43.1	14.5	2.20e-06	0	55	0	355467264	52	4896
2026-01-12 08:47:25.17	78.43	27.22	-40.3	-43.2	14.4	0.00e+00	0	55	0	356515840	52	4966
2026-01-12 08:47:26.18	78.14	27.29	-40.3	-43.2	14.5	1.50e-06	0	55	0	358612992	52	4954
2026-01-12 08:47:27.19	77.85	27.36	-40.4	-43.4	14.3	7.00e-07	0	56	0	360710144	52	5068
2026-01-12 08:47:28.19	77.55	27.42	-40.3	-43.3	14.4	7.00e-07	0	55	0	362807296	52	5005
2026-01-12 08:47:29.20	77.25	27.49	-40.4	-43.5	14.2	7.00e-07	0	55	0	364904448	52	5101
2026-01-12 08:47:30.21	76.96	27.55	-40.5	-43.6	14.1	7.00e-07	0	55	0	365953024	52	5177
2026-01-12 08:47:31.22	76.66	27.62	-40.4	-43.4	14.3	1.50e-06	0	56	0	368050176	52	5072
2026-01-12 08:47:32.23	76.35	27.68	-40.3	-43.2	14.5	0.00e+00	0	56	0	370147328	52	4960
2026-01-12 08:47:33.24	76.05	27.75	-40.2	-43.1	14.5	7.00e-07	0	55	0	372244480	52	4894
2026-01-12 08:47:34.25	75.75	27.81	-40.2	-43.1	14.6	1.50e-06	0	55	0	374341632	52	4919
2026-01-12 08:47:35.26	75.44	27.87	-40.4	-43.5	14.2	0.00e+00	0	55	0	375390208	52	5110
2026-01-12 08:47:36.27	75.14	27.93	-40.6	-43.7	14.0	2.20e-06	0	56	0	377487360	52	5230
2026-01-12 08:47:37.28	74.83	27.99	-40.3	-43.2	14.5	1.50e-06	0	56	0	379584512	52	4978
2026-01-12 08:47:38.29	74.52	28.05	-40.4	-43.3	14.4	7.00e-07	0	55	0	381681664	52	5034
2026-01-12 08:47:39.30	74.21	28.11	-40.1	-42.9	14.8	7.00e-07	0	55	0	383778816	52	4774
2026-01-12 08:47:40.31	73.90	28.17	-40.5	-43.6	14.1	1.50e-06	0	56	0	385875968	52	5178
2026-01-12 08:47:41.32	73.59	28.22	-40.7	-44.0	13.7	6.80e-06	0	55	0	386924544	52	5425
2026-01-12 08:47:42.33	73.28	28.28	-40.9	-44.3	13.4	7.60e-06	0	55	0	389021696	52	5631
2026-01-12 08:47:43.34	72.96	28.33	-40.7	-43.9	13.8	1.06e-05	0	56	0	391118848	52	5375
2026-01-12 08:47:44.35	72.65	28.39	-40.5	-43.6	14.1	1.50e-06	0	55	0	393216000	52	5161
2026-01-12 08:47:45.36	72.33	28.44	-40.2	-43.1	14.6	7.00e-07	0	56	0	395313152	52	4924
2026-01-12 08:47:46.37	72.01	28.49	-40.1	-42.9	14.8	0.00e+00	0	56	0	396361728	52	4803
2026-01-12 08:47:47.38	71.70	28.54	-40.2	-43.0	14.7	0.00e+00	0	56	0	398458880	52	4848
2026-01-12 08:47:48.39	71.38	28.60	-40.0	-42.8	15.0	7.00e-07	0	56	0	400556032	52	4714
2026-01-12 08:47:49.39	71.06	28.64	-40.0	-42.7	15.1	0.00e+00	0	56	0	402653184	51	4956
2026-01-12 08:47:50.40	70.74	28.69	-40.1	-42.8	15.0	0.00e+00	0	56	0	404750336	51	5019
2026-01-12 08:47:51.41	70.42	28.74	-40.3	-43.1	14.7	0.00e+00	0	56	0	405798912	51	5211
2026-01-12 08:47:52.42	70.09	28.79	-40.3	-43.1	14.8	7.00e-07	0	56	0	407896064	51	5177
2026-01-12 08:47:53.43	69.77	28.83	-40.6	-43.7	14.2	7.00e-07	0	56	0	409993216	51	5532
2026-01-12 08:47:54.44	69.45	28.88	-40.7	-43.9	13.9	7.00e-07	0	56	0	412090368	52	5395
2026-01-12 08:47:55.45	69.12	28.92	-41.1	-44.7	13.1	1.44e-05	0	56	0	414187520	52	5880
2026-01-12 08:47:56.46	68.79	28.97	-41.4	-45.2	12.5	9.30e-05	0	56	0	415236096	53	5863
2026-01-12 08:47:57.47	68.47	29.01	-41.6	-45.6	12.1	2.13e-04	0	56	0	417333248	53	6168
2026-01-12 08:47:58.48	68.14	29.05	-41.5	-45.5	12.2	1.93e-04	0	56	0	419430400	53	6093
2026-01-12 08:47:59.49	67.81	29.09	-41.6	-45.6	11.9	2.70e-04	0	56	0	421527552	53	6199
2026-01-12 08:48:00.50	67.48	29.13	-41.8	-45.9	11.8	3.59e-04	0	56	0	423624704	54	6051
2026-01-12 08:48:01.51	67.15	29.17	-41.7	-45.8	11.9	5.74e-04	0	56	0	424673280	54	5991
2026-01-12 08:48:02.52	66.82	29.21	-41.6	-45.6	12.2	4.81e-04	0	56	0	426770432	54	5791
2026-01-12 08:48:03.53	66.48	29.24	-41.8	-45.9	11.8	4.60e-04	0	56	0	428867584	54	6055
2026-01-12 08:48:04.54	66.15	29.28	-41.8	-46.0	11.7	4.79e-04	0	56	0	430964736	54	6109
2026-01-12 08:48:05.55	65.82	29.31	-41.6	-45.7	12.1	6.27e-04	0	55	0	433061888	54	5867
2026-01-12 08:48:06.56	65.48	29.35	-41.4	-45.2	12.5	1.32e-04	0	56	0	434110464	54	5583
2026-01-12 08:48:07.57	65.15	29.38	-41.1	-44.6	13.0	5.49e-05	0	56	0	436207616	54	5175
2026-01-12 08:48:08.58	64.81	29.41	-41.0	-44.4	13.4	3.05e-05	0	56	0	438304768	53	5356
2026-01-12 08:48:09.59	64.47	29.44	-41.0	-44.4	13.3	8.30e-06	0	56	0	440401920	53	5371
2026-01-12 08:48:10.60	64.14	29.47	-41.2	-44.9	12.9	1.83e-05	0	56	0	442499072	53	5667
2026-01-12 08:48:11.61	63.80	29.49	-41.5	-45.4	12.4	1.04e-04	0	56	0	443547648	53	6057
2026-01-12 08:48:12.62	63.46	29.52	-41.7	-45.9	11.8	4.39e-04	0	56	0	445644800	53	6356
2026-01-12 08:48:13.63	63.12	29.55	-41.6	-45.8	12.0	2.67e-04	0	56	0	447741952	54	5930
2026-01-12 08:48:14.64	62.78	29.57	-41.3	-45.2	12.5	1.97e-04	0	56	0	449839104	54	5571
2026-01-12 08:48:15.65	62.44	29.60	-41.3	-45.1	12.6	7.32e-05	0	56	0	451936256	54	5508
2026-01-12 08:48:16.66	62.10	29.62	-41.2	-45.1	12.7	5.87e-05	0	56	0	454033408	54	5465
2026-01-12 08:48:17.66	61.77	29.64	-41.3	-45.3	12.5	8.39e-05	0	56	0	455081984	54	5598
2026-01-12 08:48:18.67	61.42	29.66	-41.5	-45.6	12.1	1.12e-04	0	56	0	457179136	54	5800
2026-01-12 08:48:19.68	61.08	29.68	-41.6	-45.8	11.9	2.40e-04	0	56	0	459276288	54	5961
2026-01-12 08:48:20.69	60.74	29.70	-41.7	-46.0	11.7	4.53e-04	0	56	0	461373440	54	6129
2026-01-12 08:48:21.70	60.40	29.71	-41.7	-46.1	11.6	8.71e-04	0	56	0	463470592	54	6158
2026-01-12 08:48:22.71	60.06	29.73	-41.3	-45.2	12.5	1.96e-04	0	56	0	464519168	54	5557
2026-01-12 08:48:23.72	59.71	29.74	-40.8	-44.1	13.6	2.67e-05	0	56	0	466616320	53	5210
2026-01-12 08:48:24.73	59.37	29.76	-40.5	-43.5	14.2	6.10e-06	0	56	0	468713472	53	4849
2026-01-12 08:48:25.74	59.03	29.77	-40.3	-43.2	14.6	7.00e-07	0	56	0	470810624	52	4975
2026-01-12 08:48:26.76	58.68	29.78	-40.5	-43.6	14.2	0.00e+00	0	56	0	472907776	52	5187
2026-01-12 08:48:27.76	58.34	29.79	-40.7	-44.0	13.8	7.00e-07	0	56	0	473956352	52	5434
2026-01-12 08:48:28.78	57.99	29.80	-40.9	-44.3	13.5	9.10e-06	0	56	0	476053504	52	5651
2026-01-12 08:48:29.78	57.65	29.80	-41.1	-44.7	13.1	2.82e-05	0	56	0	478150656	52	5898
2026-01-12 08:48:30.79	57.31	29.81	-41.3	-44.9	12.9	6.40e-05	0	56	0	480247808	53	5699
2026-01-12 08:48:31.80	56.96	29.82	-41.5	-45.5	12.3	5.95e-05	0	56	0	482344960	53	6069
2026-01-12 08:48:32.82	56.61	29.82	-41.6	-45.5	12.3	9.68e-05	0	56	0	483393536	53	6065
2026-01-12 08:48:33.82	56.27	29.82	-41.5	-45.4	12.4	9.61e-05	0	56	0	485490688	53	6007
2026-01-12 08:48:34.83	55.93	29.82	-41.3	-44.9	12.9	7.17e-05	0	56	0	487587840	53	5709
2026-01-12 08:48:35.84	55.58	29.82	-41.2	-44.7	13.2	3.20e-05	0	56	0	489684992	53	5538
2026-01-12 08:48:36.85	55.24	29.82	-40.9	-44.1	13.8	9.10e-06	0	56	0	491782144	53	5202
2026-01-12 08:48:37.87	54.89	29.82	-40.9	-44.1	13.7	6.10e-06	0	56	0	492830720	53	5183
2026-01-12 08:48:38.88	54.54	29.82	-40.8	-43.9	13.9	1.50e-06	0	56	0	494927872	53	5089
2026-01-12 08:48:39.89	54.20	29.82	-40.9	-44.2	13.6	6.10e-06	0	56	0	497025024	53	5262
2026-01-12 08:48:40.90	53.86	29.81	-41.1	-44.5	13.3	3.80e-06	0	56	0	499122176	53	5443
2026-01-12 08:48:41.91	53.51	29.80	-41.3	-44.9	12.9	2.89e-05	0	56	0	501219328	53	5709
2026-01-12 08:48:42.92	53.17	29.80	-41.3	-44.9	12.9	2.36e-05	0	56	0	502267904	53	5696
2026-01-12 08:48:43.93	52.82	29.79	-41.1	-44.5	13.3	3.81e-05	0	56	0	504365056	53	5424
2026-01-12 08:48:44.94	52.48	29.78	-40.8	-44.0	13.7	1.52e-05	0	56	0	506462208	53	5110
2026-01-12 08:48:45.94	52.14	29.77	-40.8	-43.9	14.0	1.50e-06	0	56	0	508559360	53	5075
2026-01-12 08:48:46.95	51.80	29.75	-40.6	-43.7	14.1	2.20e-06	0	56	0	510656512	53	4947
2026-01-12 08:48:47.96	51.45	29.74	-40.8	-43.9	13.9	1.50e-06	0	56	0	511705088	53	5085
2026-01-12 08:48:48.97	51.11	29.73	-40.9	-44.3	13.6	4.50e-06	0	56	0	513802240	53	5285
2026-01-12 08:48:49.98	50.77	29.71	-41.2	-44.7	13.1	1.67e-05	0	56	0	515899392	53	5558
2026-01-12 08:48:50.99	50.43	29.69	-41.2	-44.8	13.1	2.51e-05	0	56	0	517996544	53	5603
2026-01-12 08:48:52.00	50.08	29.68	-41.1	-44.6	13.3	1.14e-05	0	56	0	520093696	53	5492
2026-01-12 08:48:53.01	49.74	29.66	-40.7	-43.8	14.0	8.30e-06	0	56	0	522190848	53	5021
2026-01-12 08:48:54.02	49.40	29.64	-40.7	-43.8	14.0	4.50e-06	0	56	0	523239424	53	5025
2026-01-12 08:48:55.03	49.06	29.62	-40.5	-43.5	14.4	0.00e+00	0	56	0	525336576	53	4837
2026-01-12 08:48:56.04	48.72	29.59	-40.5	-43.5	14.3	2.20e-06	0	56	0	527433728	53	4848
2026-01-12 08:48:57.05	48.38	29.57	-40.4	-43.4	14.5	1.50e-06	0	56	0	529530880	52	5045
2026-01-12 08:48:58.06	48.04	29.55	-40.5	-43.6	14.3	2.20e-06	0	56	0	531628032	52	5166
2026-01-12 08:48:59.07	47.70	29.52	-40.6	-43.8	14.0	0.00e+00	0	56	0	532676608	52	5291
2026-01-12 08:49:00.08	47.37	29.49	-40.4	-43.4	14.4	1.50e-06	0	56	0	534773760	52	5049
2026-01-12 08:49:01.08	47.03	29.47	-40.0	-42.8	15.1	0.00e+00	0	56	0	536870912	52	4706
2026-01-12 08:49:02.10	46.69	29.44	-40.1	-42.9	14.9	7.00e-07	0	56	0	538968064	52	4809
2026-01-12 08:49:03.11	46.36	29.41	-40.3	-43.3	14.7	0.00e+00	0	56	0	541065216	52	4993
2026-01-12 08:49:04.12	46.02	29.38	-40.5	-43.5	14.3	0.00e+00	0	56	0	542113792	52	5150
2026-01-12 08:49:05.13	45.69	29.34	-40.6	-43.7	14.1	7.00e-07	0	56	0	544210944	52	5225
2026-01-12 08:49:06.14	45.35	29.31	-40.5	-43.5	14.3	1.50e-06	0	56	0	546308096	52	5122
2026-01-12 08:49:07.15	45.02	29.28	-40.7	-43.9	13.9	2.20e-06	0	56	0	548405248	52	5380
2026-01-12 08:49:08.16	44.69	29.24	-40.8	-44.0	13.8	3.00e-06	0	56	0	550502400	52	5464
2026-01-12 08:49:09.17	44.36	29.20	-41.1	-44.5	13.3	1.44e-05	0	56	0	551550976	52	5783
2026-01-12 08:49:10.18	44.02	29.17	-41.3	-45.0	12.8	2.74e-05	0	56	0	553648128	53	5743
2026-01-12 08:49:11.19	43.69	29.13	-41.4	-45.1	12.8	6.40e-05	0	56	0	555745280	53	5805
2026-01-12 08:49:12.20	43.36	29.09	-41.2	-44.7	13.1	4.42e-05	0	56	0	557842432	53	5586
2026-01-12 08:49:13.21	43.04	29.05	-41.0	-44.2	13.5	1.75e-05	0	56	0	559939584	53	5267
2026-01-12 08:49:14.22	42.71	29.01	-40.8	-43.9	14.1	3.80e-06	0	56	0	560988160	53	5074
2026-01-12 08:49:15.23	42.38	28.97	-40.5	-43.4	14.4	1.50e-06	0	56	0	563085312	53	4768
2026-01-12 08:49:16.24	42.06	28.92	-40.6	-43.6	14.3	0.00e+00	0	56	0	565182464	52	5189
2026-01-12 08:49:17.25	41.73	28.88	-41.0	-44.3	13.7	2.20e-06	0	56	0	567279616	52	5601
2026-01-12 08:49:18.26	41.41	28.83	-41.3	-44.9	13.0	4.11e-05	0	56	0	569376768	53	5681
2026-01-12 08:49:19.27	41.08	28.79	-41.4	-45.0	12.8	2.67e-05	0	56	0	570425344	53	5749
2026-01-12 08:49:20.28	40.76	28.74	-41.2	-44.6	13.3	2.05e-05	0	56	0	572522496	53	5504
2026-01-12 08:49:21.29	40.44	28.69	-41.0	-44.3	13.5	1.06e-05	0	56	0	574619648	53	5316
2026-01-12 08:49:22.30	40.12	28.64	-41.0	-44.2	13.6	1.06e-05	0	56	0	576716800	53	5249
2026-01-12 08:49:23.31	39.80	28.59	-41.1	-44.4	13.4	1.29e-05	0	56	0	578813952	53	5393
2026-01-12 08:49:24.32	39.48	28.54	-41.1	-44.4	13.4	1.22e-05	0	56	0	579862528	53	5375
2026-01-12 08:49:25.33	39.16	28.49	-41.4	-45.0	12.9	3.89e-05	0	56	0	581959680	53	5726
2026-01-12 08:49:26.34	38.85	28.44	-41.4	-45.1	12.8	4.42e-05	0	56	0	584056832	53	5801
2026-01-12 08:49:27.35	38.53	28.38	-41.5	-45.2	12.6	6.02e-05	0	56	0	586153984	53	5904
2026-01-12 08:49:28.36	38.22	28.33	-41.4	-44.9	12.9	5.03e-05	0	56	0	588251136	53	5698
2026-01-12 08:49:29.37	37.91	28.28	-41.3	-44.8	13.0	3.28e-05	0	56	0	590348288	53	5613
2026-01-12 08:49:30.38	37.59	28.22	-41.3	-44.8	13.1	3.35e-05	0	56	0	591396864	53	5603
2026-01-12 08:49:31.39	37.28	28.16	-41.6	-45.4	12.4	8.46e-05	0	56	0	593494016	53	6059
2026-01-12 08:49:32.40	36.97	28.11	-42.0	-46.2	11.6	3.09e-04	0	56	0	595591168	54	6232
2026-01-12 08:49:33.41	36.66	28.05	-42.2	-46.8	11.0	7.57e-04	0	56	0	597688320	54	6650
2026-01-12 08:49:34.42	36.36	27.99	-42.2	-46.7	11.0	1.61e-03	0	56	0	599785472	54	6616
2026-01-12 08:49:35.43	36.05	27.93	-42.3	-47.0	10.7	2.52e-03	0	56	0	600834048	55	6483
2026-01-12 08:49:36.44	35.75	27.87	-42.5	-47.5	10.3	5.34e-03	0	56	0	602931200	55	6855
2026-01-12 08:49:37.45	35.44	27.81	-42.4	-47.5	10.2	6.79e-03	0	56	0	605028352	55	6802
2026-01-12 08:49:38.46	35.14	27.74	-42.5	-47.6	10.2	3.61e-03	0	56	0	607125504	55	6880
2026-01-12 08:49:39.46	34.84	27.68	-42.3	-47.0	10.6	1.95e-03	0	56	0	609222656	55	6487
2026-01-12 08:49:40.47	34.54	27.62	-42.3	-47.2	10.6	2.58e-03	0	56	0	610271232	55	6609
2026-01-12 08:49:41.48	34.24	27.55	-42.3	-47.2	10.5	3.63e-03	0	56	0	612368384	55	6625
2026-01-12 08:49:42.49	33.94	27.49	-42.3	-47.2	10.5	5.30e-03	0	56	0	614465536	55	6592
2026-01-12 08:49:43.50	33.65	27.42	-41.9	-46.3	11.4	2.57e-03	0	56	0	616562688	55	5958
2026-01-12 08:49:44.51	33.35	27.36	-41.6	-45.6	12.1	6.00e-04	0	56	0	618659840	55	5495
2026-01-12 08:49:45.52	33.06	27.29	-41.2	-44.8	12.9	5.34e-05	0	56	0	619708416	54	5336
2026-01-12 08:49:46.53	32.76	27.22	-41.1	-44.5	13.2	1.98e-05	0	56	0	621805568	54	5155
2026-01-12 08:49:47.54	32.47	27.15	-40.8	-44.0	13.8	9.10e-06	0	56	0	623902720	53	5126
2026-01-12 08:49:48.55	32.18	27.08	-40.5	-43.5	14.3	4.50e-06	0	56	0	625999872	53	4857
2026-01-12 08:49:49.56	31.89	27.01	-40.1	-42.9	14.9	0.00e+00	0	56	0	628097024	52	4805
2026-01-12 08:49:50.57	31.60	26.94	-40.2	-43.0	14.8	0.00e+00	0	56	0	629145600	52	4849
2026-01-12 08:49:51.58	31.32	26.87	-40.3	-43.2	14.6	0.00e+00	0	56	0	631242752	52	4955
2026-01-12 08:49:52.59	31.03	26.80	-40.5	-43.6	14.2	7.00e-07	0	56	0	633339904	52	5168
2026-01-12 08:49:53.60	30.75	26.73	-40.4	-43.3	14.5	0.00e+00	0	56	0	635437056	52	5014
2026-01-12 08:49:54.61	30.47	26.66	-40.2	-43.0	14.9	0.00e+00	0	56	0	637534208	52	4819
2026-01-12 08:49:55.62	30.18	26.58	-40.0	-42.8	15.0	7.00e-07	0	56	0	638582784	52	4717
2026-01-12 08:49:56.63	29.90	26.51	-40.3	-43.2	14.6	0.00e+00	0	56	0	640679936	52	4967
2026-01-12 08:49:57.64	29.63	26.43	-40.9	-44.3	13.5	4.50e-06	0	56	0	642777088	52	5643
2026-01-12 08:49:58.65	29.35	26.36	-41.0	-44.6	13.3	1.29e-05	0	56	0	644874240	52	5790
2026-01-12 08:49:59.66	29.07	26.28	-41.0	-44.5	13.3	1.98e-05	0	56	0	646971392	52	5728
2026-01-12 08:50:00.67	28.80	26.21	-41.0	-44.4	13.4	7.60e-06	0	56	0	648019968	52	5702
2026-01-12 08:50:01.68	28.52	26.13	-41.1	-44.6	13.2	1.75e-05	0	56	0	650117120	52	5815
2026-01-12 08:50:02.69	28.25	26.05	-41.2	-44.9	12.9	2.51e-05	0	56	0	652214272	52	6015
2026-01-12 08:50:03.70	27.98	25.98	-41.5	-45.4	12.4	9.00e-05	0	56	0	654311424	53	6016
2026-01-12 08:50:04.70	27.71	25.90	-41.7	-45.9	11.9	2.29e-04	0	56	0	656408576	53	6386
2026-01-12 08:50:05.71	27.45	25.82	-41.8	-46.0	11.8	6.05e-04	0	56	0	658505728	54	6095
2026-01-12 08:50:06.73	27.18	25.74	-41.7	-45.7	12.1	2.82e-04	0	56	0	659554304	54	5911
2026-01-12 08:50:07.74	26.91	25.66	-41.7	-45.8	11.9	2.88e-04	0	56	0	661651456	54	5974
2026-01-12 08:50:08.74	26.65	25.58	-41.6	-45.5	12.3	2.11e-04	0	56	0	663748608	54	5769
2026-01-12 08:50:09.75	26.39	25.50	-41.1	-44.6	13.2	4.34e-05	0	56	0	665845760	54	5191
2026-01-12 08:50:10.76	26.13	25.42	-40.6	-43.7	14.2	5.30e-06	0	56	0	667942912	53	4959
2026-01-12 08:50:11.77	25.87	25.34	-40.5	-43.4	14.4	3.00e-06	0	56	0	668991488	52	5077
2026-01-12 08:50:12.78	25.61	25.26	-40.4	-43.4	14.6	0.00e+00	0	56	0	671088640	52	5063
2026-01-12 08:50:13.79	25.35	25.18	-40.3	-43.1	14.7	7.00e-07	0	56	0	673185792	52	4926
2026-01-12 08:50:14.80	25.10	25.10	-40.2	-43.0	14.9	0.00e+00	0	56	0	675282944	52	4815
2026-01-12 08:50:15.81	24.84	25.01	-40.0	-42.7	15.1	0.00e+00	0	56	0	677380096	52	4698
2026-01-12 08:50:16.82	24.59	24.93	-39.9	-42.5	15.4	0.00e+00	0	56	0	678428672	51	4842
2026-01-12 08:50:17.83	24.34	24.85	-39.8	-42.3	15.6	0.00e+00	0	56	0	680525824	51	4721
2026-01-12 08:50:18.84	24.09	24.76	-39.7	-42.2	15.7	0.00e+00	0	56	0	682622976	51	4674
2026-01-12 08:50:19.85	23.84	24.68	-39.8	-42.3	15.5	0.00e+00	0	56	0	684720128	51	4747
2026-01-12 08:50:20.86	23.59	24.60	-40.1	-42.7	15.2	7.00e-07	0	56	0	686817280	51	4976
2026-01-12 08:50:21.87	23.34	24.51	-39.9	-42.5	15.3	0.00e+00	0	56	0	687865856	51	4853
2026-01-12 08:50:22.88	23.10	24.43	-39.8	-42.3	15.6	0.00e+00	0	56	0	689963008	51	4739
2026-01-12 08:50:23.89	22.85	24.34	-39.5	-42.0	15.9	0.00e+00	0	56	0	692060160	51	4569
2026-01-12 08:50:24.90	22.61	24.26	-39.3	-41.7	16.2	0.00e+00	0	56	0	694157312	50	4654
2026-01-12 08:50:25.91	22.37	24.17	-39.3	-41.7	16.2	0.00e+00	0	56	0	696254464	50	4653
2026-01-12 08:50:26.92	22.13	24.08	-39.4	-41.8	16.0	0.00e+00	0	56	0	697303040	50	4727
2026-01-12 08:50:27.93	21.89	24.00	-39.5	-41.9	16.0	0.00e+00	0	56	0	699400192	50	4774
2026-01-12 08:50:28.94	21.65	23.91	-39.7	-42.2	15.6	0.00e+00	0	56	0	701497344	50	4953
2026-01-12 08:50:29.95	21.42	23.83	-40.0	-42.6	15.3	0.00e+00	0	56	0	703594496	50	5204
2026-01-12 08:50:30.97	21.18	23.74	-40.2	-43.0	14.9	0.00e+00	0	56	0	705691648	50	5403
2026-01-12 08:50:31.98	20.95	23.65	-40.2	-43.1	14.8	0.00e+00	0	56	0	706740224	51	5168
2026-01-12 08:50:32.98	20.72	23.56	-40.3	-43.2	14.7	7.00e-07	0	56	0	708837376	51	5234
2026-01-12 08:50:33.99	20.49	23.48	-40.3	-43.2	14.7	0.00e+00	0	56	0	710934528	51	5232
2026-01-12 08:50:35.01	20.26	23.39	-40.3	-43.2	14.7	0.00e+00	0	56	0	713031680	51	5228
2026-01-12 08:50:36.02	20.03	23.30	-40.2	-43.0	14.8	0.00e+00	0	56	0	715128832	51	5134
2026-01-12 08:50:37.03	19.80	23.21	-40.1	-42.9	14.9	0.00e+00	0	56	0	716177408	51	5076
2026-01-12 08:50:38.03	19.58	23.12	-40.0	-42.7	15.1	7.00e-07	0	56	0	718274560	51	4935
2026-01-12 08:50:39.05	19.35	23.04	-40.0	-42.7	15.1	7.00e-07	0	56	0	720371712	51	4961
2026-01-12 08:50:40.06	19.13	22.95	-39.9	-42.6	15.3	7.00e-07	0	56	0	722468864	51	4894
2026-01-12 08:50:41.06	18.91	22.86	-39.7	-42.3	15.6	0.00e+00	0	56	0	724566016	51	4719
2026-01-12 08:50:42.08	18.69	22.77	-39.5	-42.0	15.9	0.00e+00	0	56	0	726663168	51	4555
2026-01-12 08:50:43.09	18.47	22.68	-39.3	-41.7	16.2	0.00e+00	0	56	0	727711744	50	4655
2026-01-12 08:50:44.09	18.25	22.59	-39.0	-41.3	16.5	0.00e+00	0	56	0	729808896	50	4448
2026-01-12 08:50:45.10	18.04	22.50	-38.9	-41.0	16.8	0.00e+00	0	56	0	731906048	49	4581
2026-01-12 08:50:46.11	17.82	22.41	-38.8	-41.0	16.8	0.00e+00	0	56	0	734003200	49	4565
2026-01-12 08:50:47.12	17.61	22.32	-38.9	-41.1	16.8	0.00e+00	0	56	0	736100352	49	4603
2026-01-12 08:50:48.13	17.40	22.23	-39.1	-41.4	16.4	0.00e+00	0	56	0	737148928	49	4778
2026-01-12 08:50:49.14	17.18	22.14	-39.4	-41.7	16.1	0.00e+00	0	56	0	739246080	49	4963
2026-01-12 08:50:50.15	16.97	22.05	-39.7	-42.2	15.7	0.00e+00	0	56	0	741343232	49	5259
2026-01-12 08:50:51.16	16.77	21.96	-39.8	-42.4	15.5	0.00e+00	0	56	0	743440384	50	5069
2026-01-12 08:50:52.17	16.56	21.87	-39.7	-42.2	15.6	0.00e+00	0	56	0	745537536	50	4983
2026-01-12 08:50:53.18	16.35	21.78	-39.7	-42.2	15.7	0.00e+00	0	56	0	746586112	50	4969
2026-01-12 08:50:54.19	16.15	21.69	-39.7	-42.3	15.6	0.00e+00	0	56	0	748683264	50	5000
2026-01-12 08:50:55.20	15.94	21.60	-39.7	-42.2	15.6	0.00e+00	0	56	0	750780416	50	4983
2026-01-12 08:50:56.21	15.74	21.51	-39.6	-42.0	15.9	0.00e+00	0	56	0	752877568	50	4837
2026-01-12 08:50:57.22	15.54	21.42	-39.7	-42.3	15.6	0.00e+00	0	56	0	754974720	50	4989
2026-01-12 08:50:58.23	15.34	21.33	-39.8	-42.3	15.5	0.00e+00	0	56	0	756023296	50	5006
2026-01-12 08:50:59.24	15.14	21.24	-39.7	-42.1	15.7	0.00e+00	0	56	0	758120448	50	4907
2026-01-12 08:51:00.25	14.94	21.15	-39.7	-42.2	15.7	0.00e+00	0	56	0	760217600	50	4936
2026-01-12 08:51:01.25	14.75	21.06	-39.8	-42.3	15.5	0.00e+00	0	56	0	762314752	50	5038
2026-01-12 08:51:02.26	14.55	20.97	-39.8	-42.4	15.5	0.00e+00	0	56	0	764411904	50	5055
2026-01-12 08:51:03.27	14.35	20.88	-39.9	-42.5	15.4	0.00e+00	0	56	0	765460480	50	5109
2026-01-12 08:51:04.28	14.16	20.79	-40.0	-42.6	15.2	0.00e+00	0	56	0	767557632	50	5215
2026-01-12 08:51:05.29	13.97	20.70	-40.1	-42.7	15.1	7.00e-07	0	56	0	769654784	50	5279
2026-01-12 08:51:06.30	13.78	20.61	-39.8	-42.3	15.5	0.00e+00	0	56	0	771751936	50	5031
2026-01-12 08:51:07.31	13.59	20.52	-39.7	-42.2	15.7	0.00e+00	0	56	0	773849088	50	4927
2026-01-12 08:51:08.32	13.40	20.43	-39.5	-41.9	15.9	0.00e+00	0	56	0	774897664	50	4796
2026-01-12 08:51:09.33	13.21	20.34	-39.4	-41.7	16.1	0.00e+00	0	56	0	776994816	50	4667
2026-01-12 08:51:10.34	13.03	20.24	-39.4	-41.7	16.1	0.00e+00	0	56	0	779091968	50	4672
2026-01-12 08:51:11.35	12.84	20.15	-39.4	-41.8	16.0	0.00e+00	0	56	0	781189120	50	4707
2026-01-12 08:51:12.36	12.66	20.06	-39.7	-42.2	15.6	0.00e+00	0	56	0	783286272	50	4945
2026-01-12 08:51:13.37	12.47	19.97	-39.8	-42.4	15.4	0.00e+00	0	56	0	784334848	50	5072
2026-01-12 08:51:14.38	12.29	19.88	-40.2	-43.0	14.8	0.00e+00	0	56	0	786432000	51	5120
2026-01-12 08:51:15.39	12.11	19.79	-40.4	-43.2	14.5	0.00e+00	0	56	0	788529152	51	5269
2026-01-12 08:51:16.40	11.93	19.70	-40.4	-43.2	14.6	0.00e+00	0	56	0	790626304	51	5263
2026-01-12 08:51:17.41	11.75	19.61	-40.4	-43.2	14.6	0.00e+00	0	56	0	792723456	51	5268
2026-01-12 08:51:18.41	11.57	19.52	-40.2	-43.0	14.8	0.00e+00	0	56	0	794820608	51	5143
2026-01-12 08:51:19.42	11.40	19.43	-40.1	-42.7	15.0	0.00e+00	0	56	0	795869184	51	4981
2026-01-12 08:51:20.43	11.22	19.34	-39.9	-42.5	15.2	7.00e-07	0	56	0	797966336	51	4855
2026-01-12 08:51:21.44	11.05	19.25	-39.8	-42.4	15.4	7.00e-07	0	56	0	800063488	51	4777
2026-01-12 08:51:22.45	10.87	19.16	-39.6	-42.1	15.7	0.00e+00	0	56	0	802160640	51	4614
2026-01-12 08:51:23.46	10.70	19.07	-39.7	-42.2	15.5	0.00e+00	0	56	0	804257792	51	4698
2026-01-12 08:51:24.47	10.53	18.98	-39.7	-42.2	15.6	0.00e+00	0	56	0	805306368	51	4656
2026-01-12 08:51:25.48	10.36	18.89	-39.9	-42.5	15.3	7.00e-07	0	56	0	807403520	51	4829
2026-01-12 08:51:26.49	10.19	18.80	-39.9	-42.5	15.3	0.00e+00	0	56	0	809500672	51	4825
2026-01-12 08:51:27.50	10.02	18.71	-40.0	-42.6	15.2	0.00e+00	0	56	0	811597824	51	4912
2026-01-12 08:51:28.51	9.85	18.62	-40.3	-43.2	14.5	0.00e+00	0	56	0	813694976	51	5257
2026-01-12 08:51:29.52	9.69	18.53	-40.7	-43.7	14.0	0.00e+00	0	56	0	814743552	51	5576
2026-01-12 08:51:30.53	9.52	18.44	-40.9	-44.3	13.4	4.50e-06	0	56	0	816840704	52	5593
2026-01-12 08:51:31.54	9.36	18.35	-41.1	-44.6	13.0	3.20e-05	0	56	0	818937856	52	5819
2026-01-12 08:51:32.55	9.20	18.26	-41.3	-45.1	12.5	6.56e-05	0	56	0	821035008	53	5797
2026-01-12 08:51:33.56	9.03	18.17	-41.2	-44.8	12.8	9.46e-05	0	56	0	823132160	53	5611
2026-01-12 08:51:34.57	8.87	18.08	-41.1	-44.7	12.8	6.71e-05	0	56	0	824180736	53	5592
2026-01-12 08:51:35.58	8.71	17.99	-40.8	-44.0	13.4	2.97e-05	0	56	0	826277888	53	5138
2026-01-12 08:51:36.59	8.55	17.90	-40.7	-43.9	13.7	6.80e-06	0	56	0	828375040	53	5075
2026-01-12 08:51:37.60	8.39	17.81	-40.5	-43.5	14.1	1.50e-06	0	56	0	830472192	52	5137
2026-01-12 08:51:38.61	8.24	17.72	-40.4	-43.4	14.2	7.00e-07	0	56	0	832569344	52	5068
2026-01-12 08:51:39.62	8.08	17.63	-40.4	-43.3	14.2	3.00e-06	0	56	0	833617920	52	5034
2026-01-12 08:51:40.63	7.92	17.55	-40.4	-43.5	14.0	2.20e-06	0	56	0	835715072	52	5135
2026-01-12 08:51:41.64	7.77	17.46	-40.8	-44.1	13.4	6.80e-06	0	56	0	837812224	52	5477
2026-01-12 08:51:42.65	7.61	17.37	-40.6	-43.9	13.6	5.30e-06	0	56	0	839909376	52	5352
2026-01-12 08:51:43.66	7.46	17.28	-40.8	-44.3	13.2	1.83e-05	0	56	0	842006528	52	5606
2026-01-12 08:51:44.66	7.31	17.19	-40.9	-44.4	13.1	4.73e-05	0	56	0	843055104	52	5693
2026-01-12 08:51:45.67	7.16	17.10	-41.0	-44.5	12.9	3.66e-05	0	56	0	845152256	52	5772
2026-01-12 08:51:46.68	7.01	17.02	-40.7	-44.0	13.4	2.67e-05	0	56	0	847249408	52	5443
2026-01-12 08:51:47.69	6.86	16.93	-40.7	-44.0	13.5	1.14e-05	0	56	0	849346560	52	5424
2026-01-12 08:51:48.70	6.71	16.84	-40.5	-43.7	13.7	8.30e-06	0	56	0	851443712	52	5256
2026-01-12 08:51:49.71	6.56	16.75	-40.2	-43.3	14.2	2.20e-06	0	56	0	852492288	52	4990
2026-01-12 08:51:50.72	6.42	16.66	-40.2	-43.3	14.2	2.20e-06	0	56	0	854589440	52	4997
2026-01-12 08:51:51.73	6.27	16.58	-40.0	-42.9	14.5	2.20e-06	0	56	0	856686592	52	4786
2026-01-12 08:51:52.74	6.13	16.49	-39.9	-42.7	14.7	7.00e-07	0	56	0	858783744	51	4960
2026-01-12 08:51:53.75	5.98	16.40	-39.9	-42.7	14.8	0.00e+00	0	56	0	860880896	51	4951
2026-01-12 08:51:54.76	5.84	16.31	-40.0	-42.9	14.5	0.00e+00	0	56	0	862978048	51	5098
2026-01-12 08:51:55.77	5.70	16.23	-40.0	-42.9	14.5	7.00e-07	0	56	0	864026624	51	5043
2026-01-12 08:51:56.78	5.56	16.14	-40.0	-42.9	14.5	0.00e+00	0	56	0	866123776	51	5049
2026-01-12 08:51:57.79	5.42	16.05	-40.0	-42.9	14.4	7.00e-07	0	56	0	868220928	51	5086
2026-01-12 08:51:58.79	5.28	15.97	-40.2	-43.1	14.3	1.50e-06	0	56	0	870318080	51	5203
2026-01-12 08:51:59.81	5.14	15.88	-40.3	-43.4	13.9	3.00e-06	0	56	0	872415232	51	5397
2026-01-12 08:52:00.82	5.00	15.79	-40.4	-43.6	13.7	4.50e-06	0	56	0	873463808	51	5490
2026-01-12 08:52:01.83	4.86	15.71	-40.5	-43.8	13.5	8.30e-06	0	56	0	875560960	51	5595
2026-01-12 08:52:02.84	4.72	15.62	-40.4	-43.5	13.8	8.30e-06	0	56	0	877658112	51	5459
2026-01-12 08:52:03.85	4.59	15.53	-40.6	-43.9	13.3	1.44e-05	0	56	0	879755264	51	5687
2026-01-12 08:52:04.86	4.45	15.45	-40.3	-43.6	13.6	1.67e-05	0	56	0	881852416	51	5473
2026-01-12 08:52:05.86	4.32	15.36	-40.2	-43.3	13.9	3.80e-06	0	56	0	882900992	51	5303
2026-01-12 08:52:06.87	4.19	15.28	-40.3	-43.6	13.6	2.20e-06	0	56	0	884998144	51	5499
2026-01-12 08:52:07.88	4.06	15.19	-40.3	-43.5	13.6	8.30e-06	0	56	0	887095296	51	5432
2026-01-12 08:52:08.89	3.92	15.11	-40.0	-43.2	13.9	6.10e-06	0	56	0	889192448	51	5226
2026-01-12 08:52:09.90	3.79	15.02	-40.0	-43.3	13.6	6.80e-06	0	56	0	891289600	51	5299
2026-01-12 08:52:10.91	3.66	14.94	-40.4	-44.1	12.7	2.74e-05	0	56	0	892338176	51	5796
2026-01-12 08:52:11.92	3.53	14.85	-40.5	-44.4	12.3	9.30e-05	0	56	0	894435328	51	6050
2026-01-12 08:52:12.93	3.40	14.77	-40.6	-44.6	12.1	1.87e-04	0	56	0	896532480	51	6143
2026-01-12 08:52:13.94	3.28	14.68	-40.6	-44.8	11.6	5.84e-04	0	56	0	898629632	52	5983
2026-01-12 08:52:14.95	3.15	14.60	-40.7	-45.2	11.2	1.05e-03	0	56	0	900726784	52	6245
2026-01-12 08:52:15.96	3.02	14.51	-41.0	-46.1	10.2	3.72e-03	0	56	0	901775360	52	6928
2026-01-12 08:52:16.97	2.90	14.43	-40.9	-45.9	10.4	5.15e-03	0	56	0	903872512	52	6745
2026-01-12 08:52:17.98	2.77	14.35	-40.8	-45.8	10.4	4.96e-03	0	56	0	905969664	52	6655
2026-01-12 08:52:18.99	2.65	14.26	-40.5	-45.1	11.1	3.93e-03	0	56	0	908066816	52	6135
2026-01-12 08:52:20.00	2.52	14.18	-40.2	-44.4	11.7	8.32e-04	0	56	0	910163968	52	5703
2026-01-12 08:52:21.01	2.40	14.09	-39.8	-43.5	12.8	2.21e-04	0	56	0	911212544	51	5418
2026-01-12 08:52:22.01	2.28	14.01	-39.4	-42.8	13.4	4.50e-05	0	56	0	913309696	50	5327
2026-01-12 08:52:23.03	2.16	13.93	-39.0	-42.2	13.9	4.50e-06	0	56	0	915406848	50	4980
2026-01-12 08:52:24.03	2.04	13.85	-38.9	-42.1	14.0	3.80e-06	0	56	0	917504000	49	5195
2026-01-12 08:52:25.04	1.92	13.76	-39.0	-42.4	13.5	3.80e-06	0	56	0	919601152	49	5400
2026-01-12 08:52:26.05	1.80	13.68	-39.5	-43.4	12.4	1.06e-04	0	56	0	920649728	49	6044
2026-01-12 08:52:27.06	1.68	13.60	-39.8	-44.4	11.2	5.24e-04	0	56	0	922746880	50	6380
2026-01-12 08:52:28.07	1.56	13.51	-40.1	-45.4	10.1	2.58e-03	0	56	0	924844032	50	7170
2026-01-12 08:52:29.08	1.44	13.43	-40.4	-46.6	8.7	1.19e-02	0	56	0	926941184	51	7747
2026-01-12 08:52:30.09	1.33	13.35	-40.7	-47.9	7.3	8.20e-02	0	56	0	929038336	51	8976
2026-01-12 08:52:31.10	1.21	13.27	-40.8	-49.1	6.0	1.94e-01	0	56	0	930086912	52	9743
2026-01-12 08:52:32.11	1.10	13.19	-40.9	-50.7	4.9	4.46e-01	0	56	0	932184064	52	11700
2026-01-12 08:52:33.12	0.98	13.10	-40.9	-51.7	4.4	9.93e-01	0	56	0	934281216	52	13165
2026-01-12 08:52:34.13	0.87	13.02	-40.9	-52.5	4.1	1.37e+00	0	56	0	934281216	52	14449
2026-01-12 08:52:35.14	0.75	12.94	-40.8	-53.2	4.0	1.45e+00	0	56	104	934281216	52	15608
2026-01-12 08:52:36.15	0.64	12.86	-40.7	-53.5	3.8	1.49e+00	0	56	104	934281216	52	16170
2026-01-12 08:52:37.16	0.53	12.78	-40.6	-53.7	3.8	1.49e+00	0	56	104	934281216	52	16512
2026-01-12 08:52:38.17	0.42	12.70	-40.5	-54.0	3.8	1.49e+00	0	56	104	934281216	52	17100
2026-01-12 08:52:39.18	0.31	12.62	-40.5	-54.3	3.8	1.49e+00	0	56	104	934281216	52	17837
2026-01-12 08:52:40.19	0.20	12.54	-40.4	-54.6	3.8	1.49e+00	0	56	104	934281216	52	18353
2026-01-12 08:52:41.19	0.09	12.46	-40.3	-54.8	3.8	1.49e+00	0	56	104	934281216	52	18844
2026-01-12 08:52:42.20	359.98	12.38	-40.3	-54.8	3.8	1.49e+00	0	56	104	934281216	52	18899
2026-01-12 08:52:43.22	359.87	12.30	-40.7	-55.0	3.8	1.49e+00	0	56	104	934281216	52	19303
2026-01-12 08:52:44.23	359.76	12.22	-40.0	-54.8	3.8	1.49e+00	0	56	104	934281216	51	19859
2026-01-12 08:52:45.24	359.65	12.14	-39.9	-54.8	3.8	1.49e+00	0	56	104	934281216	51	19945
2026-01-12 08:52:46.25	359.55	12.06	-40.3	-55.1	3.8	1.49e+00	0	56	104	934281216	51	20565
2026-01-12 08:52:47.26	359.44	11.98	-39.8	-54.7	3.8	1.49e+00	0	56	104	934281216	51	19791
2026-01-12 08:52:48.27	359.34	11.90	-40.3	-55.0	3.8	1.49e+00	0	56	104	934281216	51	20447
2026-01-12 08:52:49.28	359.23	11.82	-40.3	-55.0	3.8	1.49e+00	0	57	104	934281216	51	20431
2026-01-12 08:52:50.29	359.13	11.74	-39.7	-54.6	3.8	1.49e+00	0	56	104	934281216	51	19581
2026-01-12 08:52:51.30	359.02	11.66	-40.2	-55.0	3.8	1.49e+00	0	57	104	934281216	51	20404
2026-01-12 08:52:52.31	358.92	11.58	-39.5	-54.5	3.8	1.49e+00	0	56	104	934281216	51	19329
2026-01-12 08:52:53.32	358.82	11.50	-39.6	-54.7	3.8	1.49e+00	0	56	104	934281216	51	19661
2026-01-12 08:52:54.33	358.72	11.43	-39.8	-54.8	3.8	1.49e+00	0	57	104	934281216	51	19856
2026-01-12 08:52:55.34	358.62	11.35	-39.7	-54.6	3.8	1.49e+00	0	56	104	934281216	51	19552
2026-01-12 08:52:56.35	358.51	11.27	-39.9	-54.8	3.8	1.49e+00	0	56	104	934281216	51	19928
2026-01-12 08:52:57.36	358.41	11.19	-39.8	-54.8	3.8	1.49e+00	0	56	104	934281216	51	19958
2026-01-12 08:52:58.37	358.31	11.11	-39.5	-54.6	3.8	1.49e+00	0	57	104	934281216	50	20613
2026-01-12 08:52:59.38	358.22	11.04	-39.8	-54.8	3.8	1.49e+00	0	56	104	934281216	50	21099
2026-01-12 08:53:00.39	358.12	10.96	-39.6	-54.5	3.8	1.49e+00	0	56	104	934281216	50	20386
2026-01-12 08:53:01.40	358.02	10.88	-39.8	-54.6	3.8	1.49e+00	0	56	104	934281216	50	20550
2026-01-12 08:53:02.41	357.92	10.81	-39.7	-54.6	3.8	1.49e+00	0	56	104	934281216	50	20730
2026-01-12 08:53:03.41	357.83	10.73	-39.7	-54.5	3.8	1.49e+00	0	56	104	934281216	50	20454
2026-01-12 08:53:04.43	357.73	10.65	-39.7	-54.7	3.8	1.49e+00	0	56	104	934281216	50	20894
2026-01-12 08:53:05.44	357.63	10.58	-39.9	-54.6	3.8	1.49e+00	0	56	104	934281216	50	20680
2026-01-12 08:53:06.45	357.54	10.50	-39.5	-54.5	3.8	1.49e+00	0	57	104	934281216	50	20357
2026-01-12 08:53:07.46	357.44	10.42	-39.7	-54.6	3.8	1.49e+00	0	56	104	934281216	50	20612
2026-01-12 08:53:08.47	357.35	10.35	-38.8	-54.4	3.8	1.49e+00	0	56	104	934281216	49	21349
2026-01-12 08:53:09.48	357.25	10.27	-38.9	-54.4	3.8	1.49e+00	0	57	104	934281216	49	21390
2026-01-12 08:53:10.49	357.16	10.20	-39.3	-54.5	3.8	1.49e+00	0	56	104	934281216	50	20413
2026-01-12 08:53:11.50	357.07	10.12	-38.7	-54.4	3.8	1.49e+00	0	57	104	934281216	49	21271
2026-01-12 08:53:12.51	356.97	10.04	-39.7	-54.5	3.8	1.49e+00	0	57	104	934281216	50	20529
2026-01-12 08:53:13.52	356.88	9.97	-38.7	-54.4	3.8	1.49e+00	0	56	104	934281216	49	21411
2026-01-12 08:53:14.53	356.79	9.89	-38.7	-54.4	3.8	1.49e+00	0	56	104	934281216	49	21337
2026-01-12 08:53:15.54	356.70	9.82	-38.6	-54.4	3.8	1.49e+00	0	56	104	934281216	49	21419
2026-01-12 08:53:16.55	356.61	9.74	-39.2	-54.3	3.8	1.49e+00	0	56	104	934281216	49	21212
2026-01-12 08:53:17.56	356.52	9.67	-38.7	-54.3	3.8	1.49e+00	0	56	104	934281216	49	21200
2026-01-12 08:53:18.57	356.43	9.59	-38.9	-54.3	3.8	1.49e+00	0	57	104	934281216	49	21238
2026-01-12 08:53:19.58	356.34	9.52	-38.8	-54.3	3.8	1.49e+00	0	57	104	934281216	49	21260
2026-01-12 08:53:20.58	356.25	9.45	-39.0	-54.4	3.8	1.49e+00	0	56	104	934281216	49	21436
2026-01-12 08:53:21.59	356.17	9.37	-39.1	-54.4	3.8	1.49e+00	0	57	104	934281216	49	21286
2026-01-12 08:53:22.60	356.08	9.30	-39.2	-54.4	3.8	1.49e+00	0	57	104	934281216	49	21399
2026-01-12 08:53:23.61	355.99	9.23	-39.4	-54.4	3.8	1.49e+00	0	57	104	934281216	49	21274
2026-01-12 08:53:24.62	355.90	9.15	-39.7	-54.5	3.8	1.49e+00	0	56	104	934281216	49	21622
2026-01-12 08:53:25.63	355.82	9.08	-39.4	-54.4	3.8	1.49e+00	0	56	104	934281216	50	20191
2026-01-12 08:53:26.64	355.73	9.00	-39.7	-54.5	3.8	1.49e+00	0	56	104	934281216	49	21554
2026-01-12 08:53:27.65	355.65	8.93	-39.4	-54.4	3.8	1.49e+00	0	56	104	934281216	50	20242
2026-01-12 08:53:28.66	355.56	8.86	-39.7	-54.5	3.8	1.49e+00	0	57	104	934281216	50	20368
2026-01-12 08:53:29.67	355.48	8.79	-39.7	-54.5	3.8	1.49e+00	0	57	104	934281216	50	20479
2026-01-12 08:53:30.68	355.39	8.71	-39.8	-54.5	3.8	1.49e+00	0	57	104	934281216	50	20490
2026-01-12 08:53:31.70	355.31	8.64	-39.8	-54.6	3.8	1.49e+00	0	57	104	934281216	50	20555
2026-01-12 08:53:32.70	355.23	8.57	-39.9	-54.6	3.8	1.49e+00	0	56	104	934281216	50	20567
2026-01-12 08:53:33.72	355.14	8.50	-39.7	-54.5	3.8	1.49e+00	0	56	104	934281216	50	20459
2026-01-12 08:53:34.73	355.06	8.42	-39.9	-54.6	3.8	1.49e+00	0	57	104	934281216	50	20599
2026-01-12 08:53:35.73	354.98	8.35	-39.8	-54.5	3.8	1.49e+00	0	56	104	934281216	50	20524
2026-01-12 08:53:36.74	354.90	8.28	-39.8	-54.5	3.8	1.49e+00	0	57	104	934281216	50	20511
2026-01-12 08:53:37.76	354.82	8.21	-39.8	-54.5	3.8	1.49e+00	0	57	104	934281216	50	20391
2026-01-12 08:53:38.77	354.74	8.14	-39.9	-54.6	3.8	1.49e+00	0	57	104	934281216	50	20706
2026-01-12 08:53:39.78	354.66	8.06	-39.8	-54.5	3.8	1.49e+00	0	56	104	934281216	50	20395
2026-01-12 08:53:40.79	354.58	7.99	-39.6	-54.5	3.8	1.49e+00	0	57	104	934281216	50	20351
2026-01-12 08:53:41.80	354.50	7.92	-41.8	-56.5	3.8	1.49e+00	0	57	104	934281216	54	20534
2026-01-12 08:53:42.81	354.42	7.85	-44.4	-58.8	3.8	1.49e+00	0	57	104	934281216	59	19898
2026-01-12 08:53:43.82	354.34	7.78	-44.7	-59.3	3.8	1.49e+00	0	57	104	934281216	60	19868
2026-01-12 08:53:44.83	354.26	7.71	-44.9	-59.5	3.8	1.49e+00	0	57	104	934281216	60	20340
