passes_logs/2026/01/12/R2.0S_Moscow/R2.0S_Moscow__20260112_095139_NOAA_21_JPSS-2_rec.log

#Pass ID: 20260112_095139_NOAA 21 (JPSS-2)
#Satellite: NOAA 21 (JPSS-2)
#Configuration: NOAA-21
#almurnet v.1.7.20251203
#Start time: 2026-01-12 09:54:43

#Version: 2.2.20231116
#Station: R2.0S_Moscow
#Location: 37.707566 lon 55.798166 lat
#TLE: 1 54234U 22150A   26011.27699114  .00000090  00000+0  63771-4 0  9993
#TLE: 2 54234  98.7494 312.2218 0000765 314.9553  45.1561 14.19534106164285

#Time	Az	El	Level	Level2	SNR	BER	BlckErr	Temp	State	Recorded	gain1	gain2
2026-01-12 09:54:43.29	158.53	17.80	-44.9	-56.5	3.8	8.47e-01	0	59	0	0	60	14495
2026-01-12 09:54:44.29	158.52	17.93	-45.3	-57.7	3.8	1.49e+00	0	59	104	0	62	14765
2026-01-12 09:54:45.31	158.52	18.05	-45.3	-57.7	3.8	1.49e+00	0	59	104	0	62	14825
2026-01-12 09:54:46.32	158.51	18.17	-45.3	-57.7	3.8	1.49e+00	0	59	104	0	62	14741
2026-01-12 09:54:47.33	158.50	18.30	-45.3	-57.7	3.8	1.49e+00	0	59	104	0	62	14709
2026-01-12 09:54:48.34	158.50	18.42	-45.2	-57.6	3.8	1.49e+00	0	59	104	0	62	14611
2026-01-12 09:54:49.35	158.49	18.54	-45.2	-57.5	3.8	1.49e+00	0	59	104	0	62	14529
2026-01-12 09:54:50.36	158.49	18.67	-45.1	-57.4	3.8	1.49e+00	0	59	104	0	62	14369
2026-01-12 09:54:51.37	158.48	18.80	-45.1	-57.4	3.8	1.49e+00	0	59	104	0	62	14260
2026-01-12 09:54:52.38	158.47	18.92	-44.9	-56.7	3.8	1.49e+00	0	59	104	0	61	13999
2026-01-12 09:54:53.39	158.47	19.05	-44.9	-56.7	3.8	1.49e+00	0	59	104	0	61	13924
2026-01-12 09:54:54.41	158.46	19.18	-44.9	-56.6	3.8	1.49e+00	0	59	104	0	61	13885
2026-01-12 09:54:55.42	158.45	19.31	-44.9	-56.7	3.8	1.49e+00	0	59	104	0	61	13931
2026-01-12 09:54:56.43	158.45	19.44	-44.9	-56.8	3.8	1.49e+00	0	59	104	0	61	14064
2026-01-12 09:54:57.44	158.44	19.57	-44.9	-56.9	3.8	1.49e+00	0	59	104	0	61	14280
2026-01-12 09:54:58.45	158.43	19.70	-44.9	-57.0	3.8	1.49e+00	0	59	104	0	61	14458
2026-01-12 09:54:59.46	158.43	19.83	-44.9	-57.1	3.8	1.49e+00	0	59	104	0	61	14626
2026-01-12 09:55:00.47	158.42	19.96	-44.9	-57.2	3.8	1.49e+00	0	59	104	0	61	14760
2026-01-12 09:55:01.48	158.41	20.10	-45.0	-57.3	3.8	1.49e+00	0	59	104	0	61	14888
2026-01-12 09:55:02.49	158.41	20.23	-44.9	-57.3	3.8	1.49e+00	0	59	104	0	61	14919
2026-01-12 09:55:03.50	158.40	20.37	-44.9	-57.3	3.8	1.49e+00	0	59	104	0	61	14985
2026-01-12 09:55:04.51	158.39	20.50	-44.9	-57.3	3.8	1.49e+00	0	59	104	0	61	14951
2026-01-12 09:55:05.52	158.39	20.64	-44.9	-57.3	3.8	1.49e+00	0	59	104	0	61	14945
2026-01-12 09:55:06.53	158.38	20.77	-44.9	-57.3	3.8	1.49e+00	0	59	104	0	61	14924
2026-01-12 09:55:07.54	158.37	20.91	-44.9	-57.3	3.8	1.49e+00	0	59	104	0	61	14919
2026-01-12 09:55:08.55	158.36	21.05	-44.9	-57.2	3.8	1.49e+00	0	59	104	0	61	14861
2026-01-12 09:55:09.56	158.36	21.19	-44.9	-57.2	3.8	1.49e+00	0	59	104	0	61	14733
2026-01-12 09:55:10.57	158.35	21.33	-44.9	-57.1	3.8	1.49e+00	0	59	104	0	61	14613
2026-01-12 09:55:11.58	158.34	21.47	-44.9	-57.0	3.8	1.49e+00	0	59	104	0	61	14483
2026-01-12 09:55:12.59	158.33	21.61	-44.9	-56.9	3.8	1.49e+00	0	59	104	0	61	14311
2026-01-12 09:55:13.60	158.32	21.75	-44.9	-56.7	3.8	1.49e+00	0	59	104	0	61	13961
2026-01-12 09:55:14.61	158.32	21.89	-44.8	-56.3	3.8	1.49e+00	0	59	104	0	61	13380
2026-01-12 09:55:15.62	158.31	22.04	-44.8	-55.8	3.8	1.49e+00	0	59	104	0	61	12581
2026-01-12 09:55:16.63	158.30	22.18	-44.7	-54.6	4.0	1.48e+00	0	59	104	0	61	10977
2026-01-12 09:55:17.65	158.29	22.33	-44.6	-53.8	4.2	1.46e+00	0	59	104	0	61	9965
2026-01-12 09:55:18.66	158.28	22.47	-44.5	-53.1	4.4	1.46e+00	0	59	104	0	60	9749
2026-01-12 09:55:19.67	158.27	22.62	-44.4	-52.6	4.6	1.14e+00	2	59	104	0	60	9188
2026-01-12 09:55:20.68	158.26	22.77	-44.3	-52.4	4.7	1.07e+00	0	59	104	0	60	9008
2026-01-12 09:55:21.69	158.26	22.92	-44.3	-52.4	4.7	1.18e+00	0	59	104	0	60	9037
2026-01-12 09:55:22.70	158.25	23.07	-44.4	-53.3	4.0	1.00e+00	2	59	104	0	60	9978
2026-01-12 09:55:23.71	158.24	23.22	-44.4	-53.0	4.4	1.35e+00	0	59	104	0	60	9680
2026-01-12 09:55:24.72	158.23	23.37	-44.5	-53.8	3.9	1.45e+00	0	59	104	0	60	10634
2026-01-12 09:55:25.73	158.22	23.52	-44.5	-53.5	4.3	1.45e+00	0	59	104	0	60	10216
2026-01-12 09:55:26.74	158.21	23.67	-44.5	-54.1	3.9	1.46e+00	0	59	104	0	60	10996
2026-01-12 09:55:27.75	158.20	23.83	-44.5	-53.6	4.2	1.46e+00	0	59	104	0	60	10408
2026-01-12 09:55:28.76	158.19	23.98	-44.4	-53.9	3.9	1.44e+00	0	59	104	0	60	10686
2026-01-12 09:55:29.77	158.18	24.14	-44.3	-52.3	4.7	1.18e+00	0	59	104	0	60	8881
2026-01-12 09:55:30.78	158.17	24.30	-43.9	-50.1	6.0	4.91e-01	0	59	0	1048576	59	7290
2026-01-12 09:55:31.79	158.16	24.45	-43.0	-47.6	8.3	1.11e-01	0	59	0	4194304	58	5810
2026-01-12 09:55:32.80	158.15	24.61	-41.8	-45.1	10.6	8.20e-03	0	59	0	7340032	55	5190
2026-01-12 09:55:33.81	158.14	24.77	-40.6	-43.2	12.6	2.44e-04	0	59	0	10485760	53	4678
2026-01-12 09:55:34.82	158.13	24.93	-39.6	-41.7	14.2	3.80e-06	0	59	0	13631488	51	4432
2026-01-12 09:55:35.83	158.12	25.09	-38.7	-40.5	15.4	0.00e+00	0	59	0	16777216	49	4338
2026-01-12 09:55:36.85	158.11	25.26	-38.2	-39.9	16.1	0.00e+00	0	59	0	19922944	48	4249
2026-01-12 09:55:37.86	158.10	25.42	-44.7	-54.9	3.8	8.65e-01	0	59	104	22020096	60	11995
2026-01-12 09:55:38.87	158.09	25.59	-44.4	-52.6	4.5	1.43e+00	2	59	104	22020096	60	9207
2026-01-12 09:55:39.88	158.08	25.75	-40.7	-43.3	12.9	0.00e+00	0	59	0	24117248	51	5303
2026-01-12 09:55:40.89	158.06	25.92	-43.9	-50.2	6.1	3.22e-02	0	59	0	27262976	58	7847
2026-01-12 09:55:41.90	158.05	26.09	-38.6	-40.4	15.5	0.00e+00	0	59	0	30408704	47	4782
2026-01-12 09:55:42.91	158.04	26.25	-38.2	-39.8	16.1	0.00e+00	0	59	0	33554432	48	4232
2026-01-12 09:55:43.92	158.03	26.42	-37.9	-39.6	16.2	0.00e+00	0	59	0	36700160	47	4351
2026-01-12 09:55:44.93	158.02	26.59	-37.9	-39.5	16.3	0.00e+00	0	59	0	39845888	47	4308
2026-01-12 09:55:45.94	158.00	26.77	-38.0	-39.7	16.2	0.00e+00	0	59	0	42991616	47	4401
2026-01-12 09:55:46.94	157.99	26.94	-38.2	-39.9	16.0	0.00e+00	0	59	0	46137344	47	4510
2026-01-12 09:55:47.95	157.98	27.11	-38.2	-39.9	16.0	0.00e+00	0	59	0	49283072	47	4504
2026-01-12 09:55:48.96	157.97	27.29	-38.2	-40.0	15.9	0.00e+00	0	59	0	52428800	47	4554
2026-01-12 09:55:49.97	157.95	27.46	-38.3	-40.1	15.8	0.00e+00	0	59	0	55574528	47	4615
2026-01-12 09:55:50.98	157.94	27.64	-38.4	-40.2	15.7	0.00e+00	0	59	0	58720256	47	4680
2026-01-12 09:55:51.99	157.93	27.82	-38.4	-40.2	15.6	0.00e+00	0	59	0	61865984	47	4691
2026-01-12 09:55:53.00	157.92	28.00	-38.4	-40.2	15.7	0.00e+00	0	59	0	65011712	47	4659
2026-01-12 09:55:54.01	157.90	28.18	-38.5	-40.3	15.6	0.00e+00	0	59	0	68157440	47	4716
2026-01-12 09:55:55.02	157.89	28.36	-38.5	-40.3	15.5	0.00e+00	0	59	0	71303168	47	4747
2026-01-12 09:55:56.03	157.87	28.55	-38.4	-40.1	15.7	0.00e+00	0	59	0	74448896	47	4647
2026-01-12 09:55:57.04	157.86	28.73	-38.6	-40.4	15.5	0.00e+00	0	59	0	77594624	47	4773
2026-01-12 09:55:58.05	157.85	28.92	-38.5	-40.3	15.6	0.00e+00	0	59	0	80740352	47	4718
2026-01-12 09:55:59.06	157.83	29.10	-38.5	-40.3	15.6	0.00e+00	0	59	0	83886080	47	4733
2026-01-12 09:56:00.07	157.82	29.29	-38.6	-40.4	15.5	0.00e+00	0	59	0	87031808	47	4787
2026-01-12 09:56:01.08	157.80	29.48	-38.5	-40.4	15.5	0.00e+00	0	59	0	90177536	47	4773
2026-01-12 09:56:02.09	157.79	29.67	-38.5	-40.3	15.6	0.00e+00	0	59	0	93323264	47	4751
2026-01-12 09:56:03.11	157.77	29.87	-38.5	-40.3	15.6	0.00e+00	0	59	0	96468992	47	4726
2026-01-12 09:56:04.11	157.76	30.06	-38.4	-40.2	15.7	0.00e+00	0	59	0	99614720	47	4652
2026-01-12 09:56:05.12	157.74	30.25	-38.4	-40.2	15.7	0.00e+00	0	59	0	102760448	47	4652
2026-01-12 09:56:06.13	157.72	30.45	-38.3	-40.1	15.8	0.00e+00	0	59	0	106954752	47	4603
2026-01-12 09:56:07.14	157.71	30.65	-38.2	-39.9	16.0	0.00e+00	0	59	0	110100480	47	4539
2026-01-12 09:56:08.15	157.69	30.84	-38.2	-39.9	16.0	0.00e+00	0	59	0	113246208	47	4511
2026-01-12 09:56:09.16	157.67	31.04	-38.2	-40.0	15.9	0.00e+00	0	59	0	115343360	47	4556
2026-01-12 09:56:10.17	157.66	31.25	-38.2	-40.0	15.9	0.00e+00	0	59	0	118489088	47	4553
2026-01-12 09:56:11.18	157.64	31.45	-38.3	-40.1	15.8	0.00e+00	0	59	0	121634816	47	4607
2026-01-12 09:56:12.19	157.62	31.65	-38.2	-39.9	16.0	0.00e+00	0	59	0	125829120	47	4532
2026-01-12 09:56:13.20	157.61	31.86	-38.3	-40.1	15.8	0.00e+00	0	59	0	128974848	47	4626
2026-01-12 09:56:14.21	157.59	32.07	-38.3	-40.1	15.8	0.00e+00	0	59	0	132120576	47	4636
2026-01-12 09:56:15.22	157.57	32.27	-38.5	-40.3	15.6	0.00e+00	0	59	0	135266304	47	4725
2026-01-12 09:56:16.22	157.55	32.48	-38.5	-40.4	15.6	0.00e+00	0	59	0	137363456	47	4772
2026-01-12 09:56:17.23	157.53	32.69	-38.7	-40.6	15.4	0.00e+00	0	59	0	141557760	47	4880
2026-01-12 09:56:18.24	157.51	32.91	-38.9	-40.8	15.3	0.00e+00	0	59	0	144703488	48	4719
2026-01-12 09:56:19.25	157.49	33.12	-39.1	-41.0	15.0	0.00e+00	0	59	0	147849216	48	4843
2026-01-12 09:56:20.26	157.47	33.34	-38.9	-40.8	15.2	0.00e+00	0	59	0	150994944	48	4732
2026-01-12 09:56:21.27	157.45	33.55	-39.0	-40.9	15.1	0.00e+00	0	59	0	154140672	48	4813
2026-01-12 09:56:22.28	157.43	33.77	-39.1	-41.0	15.0	0.00e+00	0	59	0	157286400	48	4845
2026-01-12 09:56:23.29	157.41	33.99	-39.0	-40.9	15.1	0.00e+00	0	59	0	160432128	48	4808
2026-01-12 09:56:24.30	157.39	34.22	-39.1	-41.0	15.0	0.00e+00	0	59	0	163577856	48	4845
2026-01-12 09:56:25.31	157.37	34.44	-39.2	-41.1	14.9	7.00e-07	0	59	0	166723584	48	4918
2026-01-12 09:56:26.32	157.35	34.67	-39.2	-41.2	14.8	0.00e+00	0	59	0	169869312	49	4660
2026-01-12 09:56:27.33	157.33	34.89	-39.4	-41.5	14.6	0.00e+00	0	59	0	173015040	49	4816
2026-01-12 09:56:28.34	157.30	35.12	-39.4	-41.4	14.6	0.00e+00	0	59	0	176160768	49	4807
2026-01-12 09:56:29.35	157.28	35.35	-39.6	-41.7	14.3	1.50e-06	0	59	0	179306496	49	4969
2026-01-12 09:56:30.36	157.26	35.58	-39.6	-41.7	14.3	1.50e-06	0	59	0	182452224	49	4971
2026-01-12 09:56:31.37	157.24	35.82	-39.8	-41.9	14.2	3.00e-06	0	59	0	185597952	50	4790
2026-01-12 09:56:32.38	157.21	36.05	-39.8	-42.0	14.0	1.50e-06	0	59	0	188743680	50	4856
2026-01-12 09:56:33.39	157.19	36.29	-39.9	-42.2	13.9	3.00e-06	0	59	0	191889408	50	4938
2026-01-12 09:56:34.40	157.16	36.53	-39.9	-42.1	14.0	1.50e-06	0	59	0	195035136	50	4887
2026-01-12 09:56:35.41	157.14	36.77	-40.0	-42.3	13.8	4.50e-06	0	59	0	198180864	50	5005
2026-01-12 09:56:36.42	157.11	37.01	-39.9	-42.1	13.9	3.80e-06	0	59	0	201326592	50	4898
2026-01-12 09:56:37.43	157.09	37.26	-40.0	-42.2	13.8	5.30e-06	0	59	0	204472320	50	4964
2026-01-12 09:56:38.44	157.06	37.50	-39.9	-42.1	13.9	2.20e-06	0	59	0	207618048	50	4916
2026-01-12 09:56:39.45	157.03	37.75	-39.9	-42.1	13.9	3.80e-06	0	59	0	210763776	50	4884
2026-01-12 09:56:40.46	157.01	38.00	-39.9	-42.2	13.9	7.00e-07	0	59	0	213909504	50	4929
2026-01-12 09:56:41.47	156.98	38.25	-39.9	-42.1	13.9	4.50e-06	0	59	0	217055232	50	4890
2026-01-12 09:56:42.48	156.95	38.51	-39.8	-42.0	14.0	2.20e-06	0	59	0	220200960	50	4858
2026-01-12 09:56:43.49	156.92	38.76	-39.9	-42.1	13.9	4.50e-06	0	59	0	223346688	50	4894
2026-01-12 09:56:44.50	156.89	39.02	-39.8	-41.9	14.1	1.50e-06	0	59	0	226492416	50	4779
2026-01-12 09:56:45.51	156.86	39.28	-39.8	-41.9	14.1	3.00e-06	0	59	0	229638144	50	4807
2026-01-12 09:56:46.52	156.83	39.54	-39.8	-41.9	14.1	2.20e-06	0	59	0	232783872	50	4786
2026-01-12 09:56:47.53	156.80	39.80	-39.7	-41.8	14.2	3.00e-06	0	59	0	235929600	50	4745
2026-01-12 09:56:48.54	156.77	40.07	-39.8	-42.0	14.1	0.00e+00	0	59	0	239075328	50	4833
2026-01-12 09:56:49.55	156.74	40.33	-39.9	-42.1	14.0	3.00e-06	0	59	0	242221056	50	4892
2026-01-12 09:56:50.56	156.71	40.60	-39.9	-42.0	14.0	3.80e-06	0	59	0	245366784	50	4859
2026-01-12 09:56:51.57	156.67	40.87	-40.0	-42.2	13.8	5.30e-06	0	59	0	248512512	50	4972
2026-01-12 09:56:52.58	156.64	41.15	-39.9	-42.1	14.0	2.20e-06	0	59	0	251658240	50	4897
2026-01-12 09:56:53.59	156.61	41.42	-40.0	-42.2	13.8	3.80e-06	0	59	0	254803968	50	4974
2026-01-12 09:56:54.60	156.57	41.70	-40.1	-42.3	13.8	3.00e-06	0	59	0	257949696	50	5025
2026-01-12 09:56:55.61	156.54	41.98	-40.1	-42.4	13.7	6.80e-06	0	59	0	261095424	50	5054
2026-01-12 09:56:56.61	156.50	42.26	-40.2	-42.5	13.5	1.44e-05	0	59	0	264241152	51	4842
2026-01-12 09:56:57.62	156.46	42.54	-40.3	-42.7	13.4	1.44e-05	0	59	0	267386880	51	4935
2026-01-12 09:56:58.63	156.43	42.83	-40.2	-42.5	13.6	1.06e-05	0	59	0	270532608	51	4855
2026-01-12 09:56:59.64	156.39	43.11	-40.2	-42.6	13.5	1.60e-05	0	59	0	273678336	51	4871
2026-01-12 09:57:00.65	156.35	43.40	-40.2	-42.4	13.6	6.10e-06	0	59	0	276824064	51	4806
2026-01-12 09:57:01.66	156.31	43.70	-40.1	-42.3	13.8	6.80e-06	0	59	0	279969792	51	4716
2026-01-12 09:57:02.67	156.27	43.99	-40.0	-42.2	13.9	8.30e-06	0	59	0	283115520	51	4658
2026-01-12 09:57:03.68	156.23	44.29	-40.0	-42.2	13.8	3.00e-06	0	59	0	286261248	51	4703
2026-01-12 09:57:04.69	156.18	44.59	-40.3	-42.6	13.5	6.10e-06	0	59	0	289406976	51	4890
2026-01-12 09:57:05.70	156.14	44.89	-40.6	-43.0	13.0	2.05e-05	0	59	0	292552704	51	5154
2026-01-12 09:57:06.71	156.10	45.19	-40.8	-43.4	12.6	7.93e-05	0	59	0	295698432	52	5081
2026-01-12 09:57:07.72	156.05	45.50	-41.0	-43.8	12.2	2.27e-04	0	59	0	298844160	52	5285
2026-01-12 09:57:08.73	156.01	45.81	-40.9	-43.7	12.3	1.85e-04	0	60	0	301989888	52	5223
2026-01-12 09:57:09.74	155.96	46.12	-40.8	-43.4	12.6	8.85e-05	0	59	0	305135616	52	5067
2026-01-12 09:57:10.75	155.91	46.43	-40.6	-43.1	12.8	6.56e-05	0	59	0	308281344	52	4914
2026-01-12 09:57:11.76	155.86	46.74	-40.5	-43.0	13.1	2.82e-05	0	59	0	311427072	52	4831
2026-01-12 09:57:12.77	155.81	47.06	-40.1	-42.4	13.5	2.74e-05	0	59	0	314572800	52	4535
2026-01-12 09:57:13.78	155.76	47.38	-40.2	-42.5	13.5	1.37e-05	0	59	0	317718528	52	4578
2026-01-12 09:57:14.79	155.71	47.70	-40.1	-42.5	13.5	1.29e-05	0	59	0	320864256	52	4552
2026-01-12 09:57:15.80	155.66	48.03	-40.1	-42.4	13.6	1.44e-05	0	59	0	324009984	52	4529
2026-01-12 09:57:16.81	155.60	48.36	-40.0	-42.3	13.7	9.90e-06	0	59	0	327155712	52	4452
2026-01-12 09:57:17.82	155.55	48.69	-40.0	-42.3	13.7	9.90e-06	0	59	0	330301440	52	4475
2026-01-12 09:57:18.83	155.49	49.02	-40.0	-42.3	13.7	6.80e-06	0	59	0	333447168	52	4446
2026-01-12 09:57:19.84	155.43	49.35	-40.0	-42.2	13.9	4.50e-06	0	59	0	336592896	51	4694
2026-01-12 09:57:20.85	155.37	49.69	-40.1	-42.4	13.7	2.20e-06	0	59	0	339738624	51	4762
2026-01-12 09:57:21.86	155.31	50.03	-39.9	-42.1	13.9	4.50e-06	0	59	0	342884352	51	4641
2026-01-12 09:57:22.87	155.25	50.37	-39.9	-42.2	13.9	5.30e-06	0	59	0	346030080	51	4658
2026-01-12 09:57:23.88	155.18	50.71	-39.8	-42.0	14.1	3.00e-06	0	59	0	349175808	51	4577
2026-01-12 09:57:24.89	155.12	51.06	-39.9	-42.1	14.0	1.50e-06	0	59	0	352321536	51	4623
2026-01-12 09:57:25.90	155.05	51.41	-39.9	-42.1	14.0	7.60e-06	0	59	0	355467264	51	4605
2026-01-12 09:57:26.91	154.98	51.76	-39.8	-42.0	14.1	3.80e-06	0	59	0	358612992	51	4560
2026-01-12 09:57:27.92	154.91	52.12	-39.6	-41.6	14.5	7.00e-07	0	59	0	361758720	51	4368
2026-01-12 09:57:28.93	154.84	52.48	-39.5	-41.5	14.6	0.00e+00	0	59	0	364904448	50	4558
2026-01-12 09:57:29.94	154.76	52.83	-39.3	-41.3	14.8	0.00e+00	0	59	0	368050176	50	4453
2026-01-12 09:57:30.95	154.69	53.20	-39.2	-41.1	15.0	0.00e+00	0	59	0	371195904	50	4352
2026-01-12 09:57:31.96	154.61	53.56	-39.1	-41.0	15.2	7.00e-07	0	59	0	374341632	50	4295
2026-01-12 09:57:32.97	154.53	53.93	-38.8	-40.6	15.4	0.00e+00	0	59	0	377487360	49	4388
2026-01-12 09:57:33.98	154.45	54.30	-38.7	-40.5	15.5	0.00e+00	0	59	0	380633088	49	4334
2026-01-12 09:57:34.99	154.36	54.67	-38.6	-40.4	15.7	0.00e+00	0	59	0	383778816	49	4270
2026-01-12 09:57:36.00	154.27	55.05	-38.4	-40.1	15.9	0.00e+00	0	59	0	386924544	48	4389
2026-01-12 09:57:37.01	154.18	55.43	-38.3	-40.0	16.1	0.00e+00	0	59	0	390070272	48	4317
2026-01-12 09:57:38.02	154.09	55.81	-38.2	-39.9	16.2	0.00e+00	0	59	0	393216000	48	4272
2026-01-12 09:57:39.03	154.00	56.19	-38.1	-39.7	16.3	0.00e+00	0	59	0	396361728	48	4174
2026-01-12 09:57:40.04	153.90	56.57	-37.9	-39.5	16.4	0.00e+00	0	59	0	399507456	47	4325
2026-01-12 09:57:41.05	153.80	56.96	-38.0	-39.6	16.4	0.00e+00	0	59	0	402653184	47	4363
2026-01-12 09:57:42.05	153.70	57.35	-37.9	-39.6	16.4	0.00e+00	0	60	0	405798912	47	4346
2026-01-12 09:57:43.06	153.59	57.74	-37.9	-39.5	16.4	0.00e+00	0	59	0	408944640	47	4327
2026-01-12 09:57:44.07	153.48	58.14	-37.6	-39.2	16.7	0.00e+00	0	59	0	412090368	47	4181
2026-01-12 09:57:45.08	153.37	58.54	-37.3	-38.8	17.1	0.00e+00	0	59	0	415236096	46	4210
2026-01-12 09:57:46.09	153.25	58.94	-37.3	-38.8	17.1	0.00e+00	0	59	0	418381824	46	4221
2026-01-12 09:57:47.10	153.13	59.34	-37.3	-38.8	17.1	0.00e+00	0	59	0	421527552	46	4217
2026-01-12 09:57:48.11	153.01	59.75	-37.4	-38.9	17.0	0.00e+00	0	59	0	424673280	46	4289
2026-01-12 09:57:49.12	152.88	60.16	-37.6	-39.2	16.8	0.00e+00	0	59	0	427819008	46	4417
2026-01-12 09:57:50.13	152.75	60.57	-37.5	-39.1	16.9	0.00e+00	0	59	0	430964736	46	4358
2026-01-12 09:57:51.14	152.61	60.98	-37.5	-39.0	16.9	0.00e+00	0	59	0	434110464	46	4338
2026-01-12 09:57:52.15	152.47	61.40	-37.4	-39.0	16.9	0.00e+00	0	59	0	437256192	46	4300
2026-01-12 09:57:53.16	152.32	61.82	-37.4	-38.9	17.1	0.00e+00	0	59	0	440401920	46	4252
2026-01-12 09:57:54.17	152.17	62.24	-37.1	-38.6	17.3	0.00e+00	0	59	0	443547648	46	4117
2026-01-12 09:57:55.18	152.01	62.66	-37.1	-38.6	17.3	0.00e+00	0	59	0	447741952	46	4135
2026-01-12 09:57:56.19	151.85	63.09	-37.2	-38.7	17.2	0.00e+00	0	59	0	450887680	46	4190
2026-01-12 09:57:57.20	151.68	63.51	-37.1	-38.6	17.3	0.00e+00	0	59	0	452984832	46	4141
2026-01-12 09:57:58.21	151.50	63.94	-37.3	-38.8	17.2	0.00e+00	0	59	0	456130560	46	4199
2026-01-12 09:57:59.22	151.32	64.38	-37.1	-38.6	17.3	0.00e+00	0	59	0	459276288	46	4113
2026-01-12 09:58:00.23	151.13	64.81	-37.0	-38.5	17.4	0.00e+00	0	59	0	463470592	45	4306
2026-01-12 09:58:01.24	150.94	65.25	-36.9	-38.4	17.5	0.00e+00	0	59	0	466616320	45	4258
2026-01-12 09:58:02.25	150.73	65.69	-36.9	-38.4	17.5	0.00e+00	0	59	0	469762048	45	4247
2026-01-12 09:58:03.26	150.52	66.13	-36.7	-38.1	17.7	0.00e+00	0	59	0	472907776	45	4139
2026-01-12 09:58:04.27	150.30	66.57	-36.4	-37.8	18.0	0.00e+00	0	59	0	476053504	44	4196
2026-01-12 09:58:05.28	150.06	67.02	-36.5	-37.9	17.9	0.00e+00	0	59	0	479199232	44	4259
2026-01-12 09:58:06.30	149.82	67.47	-36.5	-37.9	18.0	0.00e+00	0	59	0	482344960	44	4254
2026-01-12 09:58:07.31	149.56	67.92	-36.5	-37.8	18.0	0.00e+00	0	59	0	485490688	44	4225
2026-01-12 09:58:08.32	149.30	68.37	-36.5	-37.8	18.0	0.00e+00	0	59	0	488636416	44	4230
2026-01-12 09:58:09.33	149.02	68.83	-36.6	-38.1	17.7	0.00e+00	0	59	0	491782144	44	4344
2026-01-12 09:58:10.34	148.73	69.28	-36.9	-38.3	17.4	0.00e+00	0	59	0	494927872	44	4490
2026-01-12 09:58:11.35	148.43	69.74	-36.9	-38.4	17.4	0.00e+00	0	59	0	498073600	44	4518
2026-01-12 09:58:12.35	148.11	70.19	-37.1	-38.5	17.3	0.00e+00	0	59	0	501219328	44	4592
2026-01-12 09:58:13.36	147.77	70.65	-37.1	-38.6	17.2	0.00e+00	0	59	0	504365056	44	4599
2026-01-12 09:58:14.37	147.42	71.12	-37.1	-38.6	17.2	0.00e+00	0	60	0	507510784	44	4619
2026-01-12 09:58:15.38	147.05	71.58	-37.2	-38.7	17.1	0.00e+00	0	59	0	510656512	44	4674
2026-01-12 09:58:16.40	146.65	72.05	-37.0	-38.5	17.3	0.00e+00	0	59	0	513802240	44	4557
2026-01-12 09:58:17.40	146.24	72.51	-37.1	-38.6	17.2	0.00e+00	0	59	0	516947968	44	4610
2026-01-12 09:58:18.41	145.79	72.97	-37.1	-38.7	17.1	0.00e+00	0	59	0	520093696	44	4666
2026-01-12 09:58:19.42	145.33	73.44	-37.4	-38.9	16.9	0.00e+00	0	59	0	523239424	45	4533
2026-01-12 09:58:20.43	144.83	73.91	-37.3	-38.9	16.8	0.00e+00	0	59	0	526385152	45	4529
2026-01-12 09:58:21.44	144.31	74.38	-37.4	-39.0	16.8	0.00e+00	0	59	0	529530880	45	4553
2026-01-12 09:58:22.45	143.74	74.85	-37.3	-38.9	16.9	0.00e+00	0	60	0	532676608	45	4517
2026-01-12 09:58:23.46	143.15	75.32	-37.3	-38.8	17.0	0.00e+00	0	59	0	535822336	45	4469
2026-01-12 09:58:24.47	142.51	75.78	-37.5	-39.0	16.7	0.00e+00	0	59	0	538968064	45	4593
2026-01-12 09:58:25.48	141.82	76.25	-37.4	-39.0	16.7	0.00e+00	0	59	0	542113792	45	4597
2026-01-12 09:58:26.49	141.09	76.72	-37.1	-38.6	17.1	0.00e+00	0	59	0	545259520	45	4389
2026-01-12 09:58:27.50	140.30	77.19	-37.0	-38.5	17.2	0.00e+00	0	59	0	548405248	45	4320
2026-01-12 09:58:28.51	139.44	77.65	-37.3	-38.9	16.9	0.00e+00	0	59	0	551550976	45	4494
2026-01-12 09:58:29.52	138.52	78.12	-37.2	-38.8	17.0	0.00e+00	0	59	0	554696704	45	4457
2026-01-12 09:58:30.52	137.53	78.58	-37.1	-38.6	17.1	0.00e+00	0	59	0	557842432	45	4357
2026-01-12 09:58:31.53	136.45	79.04	-37.1	-38.5	17.2	0.00e+00	0	59	0	560988160	45	4328
2026-01-12 09:58:32.54	135.27	79.49	-37.2	-38.7	17.1	0.00e+00	0	59	0	564133888	45	4399
2026-01-12 09:58:33.55	133.98	79.95	-37.1	-38.5	17.2	0.00e+00	0	59	0	567279616	45	4330
2026-01-12 09:58:34.56	132.57	80.40	-37.0	-38.5	17.2	0.00e+00	0	59	0	570425344	45	4306
2026-01-12 09:58:35.57	131.01	80.84	-37.0	-38.5	17.2	0.00e+00	0	59	0	573571072	45	4308
2026-01-12 09:58:36.58	129.30	81.28	-37.3	-38.9	16.9	0.00e+00	0	59	0	576716800	45	4501
2026-01-12 09:58:37.59	127.41	81.71	-37.6	-39.2	16.6	0.00e+00	0	59	0	579862528	45	4652
2026-01-12 09:58:38.61	125.28	82.13	-37.7	-39.3	16.5	0.00e+00	0	59	0	583008256	45	4731
2026-01-12 09:58:39.62	122.94	82.54	-37.5	-39.0	16.7	0.00e+00	0	59	0	586153984	46	4340
2026-01-12 09:58:40.63	120.33	82.94	-37.3	-38.8	16.8	0.00e+00	0	59	0	589299712	46	4236
2026-01-12 09:58:41.64	117.41	83.32	-37.5	-39.1	16.7	0.00e+00	0	59	0	592445440	46	4346
2026-01-12 09:58:42.65	114.15	83.68	-37.8	-39.5	16.3	0.00e+00	0	59	0	595591168	46	4559
2026-01-12 09:58:43.66	110.50	84.02	-37.9	-39.6	16.2	0.00e+00	0	59	0	598736896	46	4636
2026-01-12 09:58:44.67	106.43	84.33	-37.9	-39.6	16.2	0.00e+00	0	59	0	601882624	46	4627
2026-01-12 09:58:45.68	101.91	84.61	-37.7	-39.3	16.5	0.00e+00	0	59	0	605028352	46	4484
2026-01-12 09:58:46.69	96.92	84.85	-37.4	-39.0	16.8	0.00e+00	0	59	0	608174080	46	4298
2026-01-12 09:58:47.70	91.48	85.05	-37.3	-38.9	16.9	0.00e+00	0	59	0	611319808	46	4257
2026-01-12 09:58:48.71	85.64	85.21	-37.6	-39.1	16.7	0.00e+00	0	59	0	614465536	46	4384
2026-01-12 09:58:49.72	79.48	85.31	-37.6	-39.2	16.6	0.00e+00	0	59	0	617611264	46	4421
2026-01-12 09:58:50.73	73.12	85.35	-37.3	-38.9	16.9	0.00e+00	0	59	0	620756992	46	4248
2026-01-12 09:58:51.74	66.73	85.34	-37.1	-38.6	17.2	0.00e+00	0	59	0	623902720	46	4106
2026-01-12 09:58:52.75	60.44	85.27	-37.1	-38.6	17.2	0.00e+00	0	59	0	627048448	45	4344
2026-01-12 09:58:53.76	54.41	85.14	-37.3	-38.9	17.0	0.00e+00	0	59	0	630194176	45	4494
2026-01-12 09:58:54.77	48.74	84.97	-37.1	-38.6	17.2	0.00e+00	0	59	0	633339904	45	4355
2026-01-12 09:58:55.78	43.51	84.75	-37.3	-38.8	17.0	0.00e+00	0	59	0	636485632	45	4478
2026-01-12 09:58:56.79	38.73	84.49	-37.3	-38.9	17.0	0.00e+00	0	59	0	639631360	45	4505
2026-01-12 09:58:57.80	34.42	84.19	-37.3	-38.8	17.0	0.00e+00	0	59	0	642777088	45	4486
2026-01-12 09:58:58.81	30.54	83.87	-37.2	-38.7	17.1	0.00e+00	0	59	0	645922816	45	4424
2026-01-12 09:58:59.82	27.08	83.52	-37.3	-38.8	17.0	0.00e+00	0	59	0	649068544	45	4476
2026-01-12 09:59:00.83	23.97	83.15	-37.5	-39.1	16.7	0.00e+00	0	59	0	652214272	45	4603
2026-01-12 09:59:01.84	21.20	82.76	-37.7	-39.3	16.5	0.00e+00	0	59	0	655360000	46	4492
2026-01-12 09:59:02.85	18.72	82.36	-37.3	-38.8	16.9	0.00e+00	0	59	0	658505728	46	4225
2026-01-12 09:59:03.86	16.49	81.95	-37.1	-38.6	17.2	0.00e+00	0	59	0	661651456	46	4134
2026-01-12 09:59:04.87	14.48	81.52	-37.2	-38.8	17.0	0.00e+00	0	59	0	664797184	46	4210
2026-01-12 09:59:05.87	12.68	81.09	-37.1	-38.5	17.3	0.00e+00	0	59	0	667942912	46	4094
2026-01-12 09:59:06.89	11.03	80.65	-36.8	-38.3	17.5	0.00e+00	0	59	0	671088640	45	4206
2026-01-12 09:59:07.90	9.54	80.20	-36.8	-38.3	17.6	0.00e+00	0	59	0	674234368	45	4204
2026-01-12 09:59:08.91	8.18	79.75	-36.8	-38.2	17.6	0.00e+00	0	59	0	677380096	45	4177
2026-01-12 09:59:09.92	6.94	79.30	-36.9	-38.4	17.5	0.00e+00	0	59	0	680525824	45	4267
2026-01-12 09:59:10.93	5.81	78.84	-37.2	-38.8	17.1	0.00e+00	0	59	0	683671552	45	4447
2026-01-12 09:59:11.94	4.76	78.38	-37.5	-39.1	16.7	0.00e+00	0	59	0	686817280	45	4626
2026-01-12 09:59:12.95	3.80	77.92	-37.6	-39.2	16.6	0.00e+00	0	59	0	689963008	46	4429
2026-01-12 09:59:13.96	2.91	77.45	-36.8	-38.2	17.6	0.00e+00	0	59	0	693108736	45	4173
2026-01-12 09:59:14.97	2.09	76.99	-36.4	-37.7	18.1	0.00e+00	0	59	0	696254464	44	4176
2026-01-12 09:59:15.98	1.32	76.52	-36.6	-38.0	17.9	0.00e+00	0	59	0	699400192	44	4308
2026-01-12 09:59:16.99	0.61	76.05	-37.3	-38.8	17.1	0.00e+00	0	59	0	702545920	45	4475
2026-01-12 09:59:18.00	359.95	75.58	-37.7	-39.3	16.6	0.00e+00	0	59	0	705691648	46	4483
2026-01-12 09:59:19.01	359.33	75.12	-37.6	-39.2	16.7	0.00e+00	0	59	0	708837376	46	4392
2026-01-12 09:59:20.02	358.75	74.65	-36.7	-38.1	17.6	0.00e+00	0	59	0	711983104	45	4115
2026-01-12 09:59:21.02	358.21	74.18	-36.7	-38.1	17.8	0.00e+00	0	59	0	715128832	45	4103
2026-01-12 09:59:22.03	357.69	73.72	-36.8	-38.3	17.6	0.00e+00	0	59	0	718274560	45	4218
2026-01-12 09:59:23.04	357.21	73.25	-37.7	-39.3	16.6	0.00e+00	0	59	0	721420288	45	4724
2026-01-12 09:59:24.05	356.76	72.78	-38.0	-39.6	16.1	0.00e+00	0	59	0	724566016	46	4647
2026-01-12 09:59:25.06	356.33	72.32	-38.2	-39.9	16.0	0.00e+00	0	59	0	727711744	46	4778
2026-01-12 09:59:26.07	355.92	71.86	-38.0	-39.7	16.2	0.00e+00	0	59	0	730857472	46	4675
2026-01-12 09:59:27.08	355.54	71.39	-36.8	-38.2	17.7	0.00e+00	0	59	0	734003200	45	4180
2026-01-12 09:59:28.09	355.17	70.93	-36.2	-37.5	18.3	0.00e+00	0	60	0	737148928	44	4082
2026-01-12 09:59:29.10	354.83	70.47	-36.3	-37.6	18.1	0.00e+00	0	59	0	740294656	44	4142
2026-01-12 09:59:30.11	354.50	70.01	-36.4	-37.8	18.0	0.00e+00	0	59	0	743440384	44	4198
2026-01-12 09:59:31.12	354.18	69.56	-36.7	-38.1	17.7	0.00e+00	0	59	0	746586112	44	4379
2026-01-12 09:59:32.13	353.89	69.10	-37.2	-38.7	17.1	0.00e+00	0	59	0	749731840	44	4661
2026-01-12 09:59:33.14	353.60	68.65	-37.0	-38.5	17.3	0.00e+00	0	59	0	752877568	44	4576
2026-01-12 09:59:34.15	353.33	68.20	-36.9	-38.3	17.5	0.00e+00	0	59	0	756023296	44	4465
2026-01-12 09:59:35.16	353.07	67.75	-36.7	-38.0	17.8	0.00e+00	0	59	0	759169024	44	4340
2026-01-12 09:59:36.17	352.82	67.30	-36.6	-37.9	17.8	0.00e+00	0	60	0	762314752	44	4284
2026-01-12 09:59:37.18	352.58	66.85	-36.9	-38.3	17.4	0.00e+00	0	60	0	765460480	44	4447
2026-01-12 09:59:38.19	352.36	66.41	-37.5	-39.1	16.8	0.00e+00	0	60	0	769654784	45	4610
2026-01-12 09:59:39.20	352.14	65.97	-38.2	-39.9	16.0	2.36e-05	0	59	0	771751936	47	4545
2026-01-12 09:59:40.21	351.93	65.53	-37.8	-39.4	16.5	0.00e+00	0	59	0	774897664	47	4289
2026-01-12 09:59:41.22	351.73	65.09	-36.6	-38.0	17.8	0.00e+00	0	60	0	778043392	45	4068
2026-01-12 09:59:42.23	351.53	64.66	-36.2	-37.5	18.3	7.00e-07	0	59	0	781189120	44	4056
2026-01-12 09:59:43.24	351.35	64.22	-36.4	-37.7	18.2	0.00e+00	0	59	0	785383424	44	4170
2026-01-12 09:59:44.25	351.17	63.79	-36.7	-38.0	17.9	0.00e+00	0	60	0	788529152	44	4339
2026-01-12 09:59:45.26	351.00	63.36	-36.9	-38.4	17.6	0.00e+00	0	59	0	791674880	44	4516
2026-01-12 09:59:46.27	350.83	62.94	-38.3	-40.0	16.0	4.50e-06	0	59	0	793772032	47	4580
2026-01-12 09:59:47.27	350.67	62.52	-38.6	-40.5	15.5	7.00e-07	0	59	0	796917760	47	4817
2026-01-12 09:59:48.28	350.52	62.10	-38.3	-40.1	15.9	0.00e+00	0	59	0	801112064	47	4606
2026-01-12 09:59:49.29	350.37	61.68	-37.9	-39.5	16.4	7.00e-07	0	59	0	804257792	47	4330
2026-01-12 09:59:50.30	350.22	61.26	-37.7	-39.3	16.7	1.50e-06	0	59	0	807403520	46	4452
2026-01-12 09:59:51.31	350.08	60.85	-37.7	-39.4	16.6	1.50e-06	0	59	0	810549248	46	4511
2026-01-12 09:59:52.32	349.95	60.44	-37.3	-38.8	17.1	7.00e-07	0	59	0	813694976	46	4241
2026-01-12 09:59:53.33	349.82	60.03	-37.3	-38.8	17.1	0.00e+00	0	59	0	816840704	46	4208
2026-01-12 09:59:54.34	349.69	59.62	-37.7	-39.3	16.6	0.00e+00	0	59	0	819986432	46	4485
2026-01-12 09:59:55.36	349.57	59.22	-38.6	-40.6	15.4	7.00e-07	0	59	0	823132160	47	4879
2026-01-12 09:59:56.37	349.45	58.81	-39.4	-41.4	14.8	6.10e-06	0	59	0	826277888	49	4791
2026-01-12 09:59:57.38	349.34	58.42	-39.2	-41.2	14.9	1.50e-06	0	59	0	829423616	49	4674
2026-01-12 09:59:58.39	349.22	58.02	-38.4	-40.1	15.9	0.00e+00	0	59	0	832569344	48	4352
2026-01-12 09:59:59.40	349.12	57.63	-37.7	-39.3	16.5	0.00e+00	0	59	0	835715072	47	4230
2026-01-12 10:00:00.41	349.01	57.24	-37.6	-39.2	16.8	0.00e+00	0	59	0	838860800	47	4150
2026-01-12 10:00:01.42	348.91	56.85	-37.9	-39.5	16.5	0.00e+00	0	60	0	842006528	47	4305
2026-01-12 10:00:02.43	348.81	56.46	-38.6	-40.4	15.7	0.00e+00	0	59	0	845152256	47	4767
2026-01-12 10:00:03.43	348.72	56.08	-39.4	-41.5	14.6	0.00e+00	0	59	0	848297984	49	4841
2026-01-12 10:00:04.44	348.62	55.70	-39.8	-41.9	14.2	1.50e-06	0	59	0	851443712	50	4797
2026-01-12 10:00:05.46	348.53	55.32	-40.0	-42.2	13.9	3.00e-06	0	59	0	854589440	50	4973
2026-01-12 10:00:06.46	348.44	54.95	-40.2	-42.6	13.5	1.06e-05	0	59	0	857735168	51	4884
2026-01-12 10:00:07.48	348.36	54.57	-40.0	-42.2	13.8	1.50e-06	0	60	0	860880896	51	4685
2026-01-12 10:00:08.49	348.27	54.20	-39.8	-42.0	13.8	7.00e-07	0	60	0	864026624	51	4596
2026-01-12 10:00:09.50	348.19	53.83	-39.6	-41.7	14.3	4.50e-06	0	59	0	867172352	50	4673
2026-01-12 10:00:10.50	348.11	53.47	-38.9	-40.7	15.4	7.00e-07	0	59	0	870318080	49	4413
2026-01-12 10:00:11.51	348.04	53.11	-38.0	-39.6	16.4	0.00e+00	0	59	0	873463808	48	4138
2026-01-12 10:00:12.53	347.96	52.75	-37.9	-39.5	16.4	0.00e+00	0	60	0	876609536	47	4323
2026-01-12 10:00:13.54	347.89	52.39	-38.5	-40.2	15.7	0.00e+00	0	59	0	879755264	47	4696
2026-01-12 10:00:14.54	347.82	52.04	-39.2	-41.3	14.8	0.00e+00	0	59	0	882900992	49	4720
2026-01-12 10:00:15.55	347.75	51.69	-39.7	-41.9	14.2	7.00e-07	0	59	0	886046720	50	4764
2026-01-12 10:00:16.56	347.68	51.34	-39.8	-41.9	14.2	7.00e-07	0	59	0	889192448	50	4812
2026-01-12 10:00:17.57	347.61	50.99	-40.0	-42.1	14.0	2.20e-06	0	59	0	892338176	50	4926
2026-01-12 10:00:18.59	347.55	50.64	-40.0	-42.3	13.9	2.20e-06	0	59	0	895483904	50	4989
2026-01-12 10:00:19.59	347.49	50.30	-40.1	-42.4	13.7	7.60e-06	0	60	0	898629632	50	5066
2026-01-12 10:00:20.61	347.42	49.96	-40.3	-42.6	13.5	1.29e-05	0	59	0	901775360	51	4907
2026-01-12 10:00:21.62	347.36	49.62	-40.3	-42.7	13.4	1.44e-05	0	59	0	904921088	51	4940
2026-01-12 10:00:22.63	347.30	49.29	-40.1	-42.4	13.6	8.30e-06	0	59	0	908066816	51	4797
2026-01-12 10:00:23.64	347.25	48.95	-39.9	-42.1	13.9	3.80e-06	0	59	0	911212544	51	4632
2026-01-12 10:00:24.65	347.19	48.62	-39.9	-42.1	14.0	1.50e-06	0	59	0	914358272	51	4638
2026-01-12 10:00:25.65	347.14	48.30	-40.0	-42.3	13.8	2.20e-06	0	60	0	917504000	51	4720
2026-01-12 10:00:26.66	347.08	47.98	-40.3	-42.6	13.4	9.10e-06	0	59	0	920649728	51	4918
2026-01-12 10:00:27.68	347.03	47.65	-40.7	-43.3	12.8	4.50e-05	0	59	0	923795456	51	5298
2026-01-12 10:00:28.69	346.98	47.33	-40.7	-43.4	12.6	9.53e-05	0	59	0	926941184	52	5046
2026-01-12 10:00:29.69	346.93	47.02	-40.8	-43.6	12.4	1.30e-04	0	59	0	930086912	52	5171
2026-01-12 10:00:30.70	346.88	46.70	-40.8	-43.4	12.6	9.15e-05	0	59	0	933232640	52	5073
2026-01-12 10:00:31.71	346.83	46.39	-40.7	-43.2	12.8	7.01e-05	0	59	0	936378368	52	4948
2026-01-12 10:00:32.72	346.78	46.08	-40.5	-43.0	13.0	3.96e-05	0	60	0	939524096	52	4820
2026-01-12 10:00:33.73	346.74	45.77	-40.4	-42.8	13.2	2.44e-05	0	59	0	942669824	52	4757
2026-01-12 10:00:34.75	346.69	45.46	-40.6	-43.1	12.9	3.66e-05	0	59	0	945815552	52	4889
2026-01-12 10:00:35.75	346.65	45.16	-40.7	-43.3	12.8	5.64e-05	0	59	0	948961280	52	4984
2026-01-12 10:00:36.76	346.60	44.86	-40.7	-43.2	12.7	7.62e-05	0	59	0	952107008	52	4979
2026-01-12 10:00:37.78	346.56	44.56	-40.7	-43.2	12.7	7.47e-05	0	59	0	955252736	52	4976
2026-01-12 10:00:38.79	346.52	44.26	-40.4	-42.8	13.1	4.19e-05	0	59	0	958398464	52	4748
2026-01-12 10:00:39.80	346.48	43.96	-40.2	-42.6	13.3	2.05e-05	0	59	0	961544192	52	4616
2026-01-12 10:00:40.81	346.44	43.67	-40.2	-42.6	13.4	1.29e-05	0	59	0	964689920	52	4614
2026-01-12 10:00:41.81	346.40	43.38	-40.0	-42.3	13.7	3.00e-06	0	59	0	967835648	52	4463
2026-01-12 10:00:42.82	346.36	43.10	-40.1	-42.3	13.8	3.00e-06	0	59	0	970981376	51	4724
2026-01-12 10:00:43.83	346.32	42.81	-40.1	-42.4	13.6	1.14e-05	0	60	0	974127104	51	4793
2026-01-12 10:00:44.84	346.29	42.53	-40.3	-42.7	13.2	1.83e-05	0	59	0	977272832	51	4978
2026-01-12 10:00:45.85	346.25	42.24	-40.6	-43.1	12.8	5.41e-05	0	59	0	980418560	51	5196
2026-01-12 10:00:46.86	346.22	41.97	-40.7	-43.2	12.7	1.04e-04	0	59	0	983564288	51	5267
2026-01-12 10:00:47.87	346.18	41.69	-40.6	-43.2	12.8	8.46e-05	0	59	0	986710016	51	5244
2026-01-12 10:00:48.88	346.15	41.41	-40.5	-43.0	13.0	3.28e-05	0	59	0	989855744	51	5152
2026-01-12 10:00:49.89	346.11	41.14	-40.5	-43.0	13.1	3.81e-05	0	59	0	993001472	51	5126
2026-01-12 10:00:50.90	346.08	40.87	-40.5	-42.9	13.2	2.59e-05	0	59	0	996147200	51	5076
2026-01-12 10:00:51.90	346.05	40.60	-40.3	-42.7	13.4	1.14e-05	0	59	0	999292928	51	4961
2026-01-12 10:00:52.91	346.02	40.33	-40.1	-42.4	13.7	1.06e-05	0	59	0	1002438656	51	4796
2026-01-12 10:00:53.93	345.99	40.07	-40.0	-42.2	13.8	3.80e-06	0	59	0	1005584384	51	4679
2026-01-12 10:00:54.93	345.96	39.81	-40.1	-42.3	13.8	3.80e-06	0	59	0	1008730112	51	4732
2026-01-12 10:00:55.94	345.92	39.54	-40.2	-42.5	13.6	6.10e-06	0	59	0	1011875840	51	4828
2026-01-12 10:00:56.95	345.90	39.29	-40.4	-42.8	13.3	1.52e-05	0	59	0	1015021568	51	5023
2026-01-12 10:00:57.96	345.87	39.03	-40.4	-42.8	13.2	1.83e-05	0	59	0	1018167296	51	5033
2026-01-12 10:00:58.97	345.84	38.77	-40.2	-42.6	13.4	1.44e-05	0	59	0	1021313024	51	4891
2026-01-12 10:00:59.98	345.81	38.52	-40.1	-42.5	13.6	8.30e-06	0	60	0	1024458752	51	4827
2026-01-12 10:01:00.99	345.78	38.27	-39.9	-42.2	13.9	7.00e-07	0	59	0	1027604480	51	4656
2026-01-12 10:01:02.00	345.76	38.02	-39.8	-42.0	14.1	3.80e-06	0	59	0	1030750208	51	4550
2026-01-12 10:01:03.01	345.73	37.77	-39.8	-41.9	14.2	0.00e+00	0	59	0	1033895936	51	4500
2026-01-12 10:01:04.02	345.70	37.52	-39.4	-41.4	14.6	7.00e-07	0	59	0	1037041664	50	4534
2026-01-12 10:01:05.03	345.68	37.28	-39.2	-41.2	14.9	0.00e+00	0	59	0	1040187392	50	4400
2026-01-12 10:01:06.04	345.65	37.04	-39.2	-41.2	14.8	0.00e+00	0	59	0	1043333120	50	4410
2026-01-12 10:01:07.05	345.63	36.80	-39.3	-41.3	14.7	0.00e+00	0	59	0	1046478848	50	4476
2026-01-12 10:01:08.06	345.60	36.56	-39.7	-41.8	14.2	0.00e+00	0	59	0	1049624576	50	4756
2026-01-12 10:01:09.07	345.58	36.32	-39.9	-42.1	13.9	3.80e-06	0	59	0	1052770304	50	4920
2026-01-12 10:01:10.08	345.56	36.08	-40.3	-42.7	13.4	1.29e-05	0	59	0	1055916032	51	4929
2026-01-12 10:01:11.09	345.53	35.85	-40.4	-42.8	13.1	2.44e-05	0	59	0	1059061760	51	5038
2026-01-12 10:01:12.10	345.51	35.62	-40.2	-42.5	13.5	1.14e-05	0	59	0	1062207488	51	4849
2026-01-12 10:01:13.11	345.49	35.39	-39.9	-42.2	13.8	6.10e-06	0	59	0	1065353216	51	4675
2026-01-12 10:01:14.12	345.46	35.16	-39.9	-42.1	13.9	7.00e-07	0	59	0	1068498944	51	4611
2026-01-12 10:01:15.13	345.44	34.93	-39.8	-41.9	14.1	4.50e-06	0	59	0	1071644672	51	4542
2026-01-12 10:01:16.13	345.42	34.71	-39.7	-41.9	14.1	3.80e-06	0	59	0	1074790400	51	4506
2026-01-12 10:01:17.15	345.40	34.48	-39.4	-41.4	14.6	2.20e-06	0	59	0	1077936128	50	4538
2026-01-12 10:01:18.16	345.38	34.26	-39.2	-41.1	14.9	0.00e+00	0	59	0	1081081856	50	4372
2026-01-12 10:01:19.17	345.36	34.04	-39.0	-40.9	15.1	0.00e+00	0	59	0	1084227584	50	4280
2026-01-12 10:01:20.18	345.34	33.82	-38.9	-40.7	15.2	0.00e+00	0	59	0	1087373312	49	4419
2026-01-12 10:01:21.18	345.32	33.60	-38.8	-40.6	15.4	0.00e+00	0	59	0	1090519040	49	4355
2026-01-12 10:01:22.19	345.30	33.39	-38.8	-40.6	15.3	0.00e+00	0	59	0	1093664768	49	4378
2026-01-12 10:01:23.20	345.28	33.17	-38.8	-40.6	15.4	0.00e+00	0	59	0	1096810496	49	4356
2026-01-12 10:01:24.21	345.26	32.96	-38.5	-40.3	15.6	0.00e+00	0	59	0	1099956224	49	4224
2026-01-12 10:01:25.22	345.24	32.75	-38.5	-40.3	15.7	0.00e+00	0	59	0	1103101952	49	4204
2026-01-12 10:01:26.24	345.23	32.54	-38.6	-40.3	15.6	0.00e+00	0	59	0	1107296256	49	4234
2026-01-12 10:01:27.25	345.21	32.33	-38.6	-40.3	15.6	0.00e+00	0	59	0	1109393408	49	4241
2026-01-12 10:01:28.26	345.19	32.12	-38.7	-40.5	15.5	0.00e+00	0	59	0	1112539136	49	4298
2026-01-12 10:01:29.27	345.17	31.91	-38.8	-40.6	15.3	0.00e+00	0	59	0	1115684864	49	4372
2026-01-12 10:01:30.28	345.16	31.71	-38.8	-40.6	15.3	0.00e+00	0	59	0	1119879168	49	4367
2026-01-12 10:01:31.29	345.14	31.51	-38.8	-40.6	15.3	0.00e+00	0	59	0	1123024896	49	4381
2026-01-12 10:01:32.30	345.12	31.31	-38.6	-40.5	15.4	0.00e+00	0	59	0	1126170624	49	4297
2026-01-12 10:01:33.31	345.11	31.11	-38.6	-40.4	15.5	0.00e+00	0	59	0	1129316352	49	4265
2026-01-12 10:01:34.32	345.09	30.91	-38.6	-40.5	15.4	0.00e+00	0	59	0	1132462080	49	4301
2026-01-12 10:01:35.33	345.07	30.71	-38.6	-40.4	15.5	0.00e+00	0	59	0	1135607808	49	4284
2026-01-12 10:01:36.34	345.06	30.51	-38.7	-40.6	15.3	0.00e+00	0	59	0	1138753536	49	4374
2026-01-12 10:01:37.35	345.04	30.32	-38.6	-40.4	15.5	0.00e+00	0	59	0	1141899264	49	4251
2026-01-12 10:01:38.36	345.03	30.13	-38.6	-40.4	15.5	0.00e+00	0	59	0	1145044992	49	4253
2026-01-12 10:01:39.37	345.01	29.93	-38.6	-40.5	15.4	0.00e+00	0	59	0	1148190720	49	4308
2026-01-12 10:01:40.38	345.00	29.74	-38.8	-40.6	15.2	0.00e+00	0	59	0	1151336448	49	4391
2026-01-12 10:01:41.39	344.98	29.55	-38.8	-40.7	15.1	0.00e+00	0	59	0	1154482176	49	4425
2026-01-12 10:01:42.40	344.97	29.36	-38.9	-40.9	14.9	0.00e+00	0	59	0	1157627904	49	4521
2026-01-12 10:01:43.41	344.96	29.18	-39.0	-40.9	14.9	0.00e+00	0	59	0	1160773632	49	4536
2026-01-12 10:01:44.42	344.94	28.99	-39.0	-41.0	14.8	0.00e+00	0	59	0	1163919360	49	4584
2026-01-12 10:01:45.43	344.93	28.81	-39.1	-41.1	14.7	0.00e+00	0	59	0	1167065088	49	4615
2026-01-12 10:01:46.44	344.91	28.62	-39.0	-41.0	14.8	7.00e-07	0	59	0	1170210816	49	4548
2026-01-12 10:01:47.45	344.90	28.44	-38.7	-40.6	15.1	1.50e-06	0	59	0	1173356544	49	4391
2026-01-12 10:01:48.45	344.89	28.26	-38.8	-40.7	15.1	0.00e+00	0	59	0	1176502272	49	4409
2026-01-12 10:01:49.46	344.88	28.08	-38.8	-40.7	15.0	0.00e+00	0	59	0	1179648000	49	4404
2026-01-12 10:01:50.47	344.86	27.90	-38.8	-40.8	14.9	0.00e+00	0	59	0	1182793728	49	4464
2026-01-12 10:01:51.48	344.85	27.73	-38.9	-40.9	14.9	0.00e+00	0	59	0	1185939456	49	4495
2026-01-12 10:01:52.50	344.84	27.55	-38.7	-40.6	15.1	0.00e+00	0	59	0	1189085184	49	4373
2026-01-12 10:01:53.50	344.83	27.37	-38.6	-40.4	15.3	0.00e+00	0	59	0	1192230912	49	4289
2026-01-12 10:01:54.51	344.81	27.20	-38.5	-40.3	15.4	0.00e+00	0	59	0	1195376640	49	4220
2026-01-12 10:01:55.52	344.80	27.03	-38.4	-40.2	15.6	0.00e+00	0	60	0	1198522368	48	4410
2026-01-12 10:01:56.53	344.79	26.85	-38.0	-39.7	16.0	0.00e+00	0	60	0	1201668096	48	4191
2026-01-12 10:01:57.54	344.78	26.68	-38.0	-39.7	16.0	0.00e+00	0	59	0	1204813824	48	4175
2026-01-12 10:01:58.55	344.77	26.51	-37.8	-39.5	16.1	0.00e+00	0	59	0	1207959552	47	4319
2026-01-12 10:01:59.56	344.76	26.35	-37.6	-39.3	16.3	0.00e+00	0	59	0	1211105280	47	4223
2026-01-12 10:02:00.57	344.75	26.18	-37.6	-39.3	16.3	0.00e+00	0	59	0	1214251008	47	4214
2026-01-12 10:02:01.59	344.73	26.01	-37.7	-39.4	16.2	0.00e+00	0	59	0	1217396736	47	4261
2026-01-12 10:02:02.60	344.72	25.84	-37.6	-39.2	16.3	0.00e+00	0	59	0	1220542464	47	4180
2026-01-12 10:02:03.61	344.71	25.68	-37.5	-39.1	16.4	0.00e+00	0	59	0	1223688192	47	4137
2026-01-12 10:02:04.61	344.70	25.52	-37.4	-39.0	16.5	0.00e+00	0	59	0	1226833920	46	4336
2026-01-12 10:02:05.62	344.69	25.35	-37.4	-39.0	16.5	0.00e+00	0	59	0	1229979648	46	4300
2026-01-12 10:02:06.63	344.68	25.19	-37.4	-39.0	16.5	0.00e+00	0	59	0	1233125376	46	4293
2026-01-12 10:02:07.64	344.67	25.03	-37.4	-39.0	16.5	0.00e+00	0	60	0	1236271104	46	4329
2026-01-12 10:02:08.65	344.66	24.87	-37.3	-39.0	16.5	0.00e+00	0	59	0	1239416832	46	4298
2026-01-12 10:02:09.66	344.65	24.71	-37.3	-39.0	16.5	0.00e+00	0	59	0	1242562560	46	4298
2026-01-12 10:02:10.67	344.64	24.56	-37.4	-39.1	16.4	0.00e+00	0	59	0	1245708288	46	4345
2026-01-12 10:02:11.68	344.63	24.40	-37.4	-39.0	16.4	0.00e+00	0	59	0	1248854016	46	4339
2026-01-12 10:02:12.69	344.63	24.24	-37.4	-39.1	16.4	0.00e+00	0	59	0	1251999744	46	4356
2026-01-12 10:02:13.70	344.62	24.09	-37.5	-39.1	16.3	0.00e+00	0	60	0	1255145472	46	4376
2026-01-12 10:02:14.71	344.61	23.94	-37.6	-39.3	16.0	0.00e+00	0	59	0	1258291200	46	4481
2026-01-12 10:02:15.72	344.60	23.78	-37.7	-39.4	15.9	0.00e+00	0	59	0	1261436928	46	4526
2026-01-12 10:02:16.73	344.59	23.63	-37.7	-39.5	15.8	0.00e+00	0	59	0	1264582656	46	4572
2026-01-12 10:02:17.74	344.58	23.48	-38.0	-39.8	15.5	0.00e+00	0	59	0	1267728384	46	4741
2026-01-12 10:02:18.75	344.57	23.33	-37.9	-39.7	15.5	7.00e-07	0	60	0	1270874112	46	4693
2026-01-12 10:02:19.76	344.56	23.18	-37.8	-39.7	15.5	0.00e+00	0	59	0	1274019840	46	4652
2026-01-12 10:02:20.77	344.56	23.03	-37.8	-39.7	15.3	0.00e+00	0	59	0	1277165568	46	4692
2026-01-12 10:02:21.78	344.55	22.88	-38.1	-40.1	14.8	0.00e+00	0	59	0	1280311296	46	4921
2026-01-12 10:02:22.79	344.54	22.74	-38.0	-40.0	14.7	0.00e+00	0	59	0	1283457024	46	4846
2026-01-12 10:02:23.80	344.53	22.59	-37.7	-39.8	14.8	0.00e+00	0	59	0	1286602752	46	4729
2026-01-12 10:02:24.81	344.52	22.44	-37.6	-39.6	14.9	7.00e-07	0	59	0	1289748480	46	4603
2026-01-12 10:02:25.82	344.52	22.30	-37.5	-39.5	15.0	0.00e+00	0	59	0	1292894208	46	4559
2026-01-12 10:02:26.83	344.51	22.16	-37.5	-39.5	14.9	7.00e-07	0	60	0	1296039936	46	4562
2026-01-12 10:02:27.84	344.50	22.01	-37.4	-39.5	14.8	0.00e+00	0	59	0	1299185664	46	4558
2026-01-12 10:02:28.84	344.49	21.87	-37.5	-39.6	14.6	7.00e-07	0	59	0	1302331392	46	4609
2026-01-12 10:02:29.85	344.49	21.73	-37.6	-39.8	14.2	0.00e+00	0	59	0	1305477120	46	4748
2026-01-12 10:02:30.86	344.48	21.59	-38.0	-40.4	13.5	5.30e-06	0	59	0	1308622848	46	5066
2026-01-12 10:02:31.87	344.47	21.45	-38.4	-41.2	12.4	9.46e-05	0	59	0	1311768576	47	5262
2026-01-12 10:02:32.88	344.47	21.31	-39.2	-42.5	10.9	7.51e-04	0	60	0	1314914304	48	5785
2026-01-12 10:02:33.89	344.46	21.17	-39.7	-44.0	9.1	1.02e-02	0	59	0	1318060032	49	6441
2026-01-12 10:02:34.90	344.45	21.04	-40.2	-45.5	7.4	7.25e-02	0	59	0	1321205760	50	7261
2026-01-12 10:02:35.91	344.44	20.90	-40.5	-47.2	5.7	3.22e-01	0	59	0	1324351488	51	8360
2026-01-12 10:02:36.92	344.44	20.76	-40.7	-49.5	4.0	8.30e-01	0	60	104	1327497216	51	10822
2026-01-12 10:02:37.93	344.43	20.63	-40.7	-50.2	4.1	1.46e+00	0	59	104	1327497216	52	11107
2026-01-12 10:02:38.94	344.43	20.49	-40.7	-51.8	3.8	1.48e+00	0	60	104	1327497216	52	13357
2026-01-12 10:02:39.95	344.42	20.36	-40.7	-52.3	3.8	1.49e+00	0	59	104	1327497216	52	14208
2026-01-12 10:02:40.96	344.41	20.23	-40.7	-53.1	3.8	1.49e+00	0	60	104	1327497216	52	15527
2026-01-12 10:02:41.97	344.41	20.09	-40.7	-53.2	3.8	1.49e+00	0	59	104	1327497216	52	15669
2026-01-12 10:02:42.98	344.40	19.96	-40.6	-52.9	3.8	1.49e+00	0	60	104	1327497216	52	15211
2026-01-12 10:02:43.99	344.39	19.83	-41.0	-52.6	3.8	1.49e+00	0	59	104	1327497216	52	14541
2026-01-12 10:02:45.00	344.39	19.70	-41.0	-52.7	3.8	1.49e+00	0	60	104	1327497216	52	14819
2026-01-12 10:02:46.01	344.38	19.57	-40.8	-52.9	3.8	1.49e+00	0	60	104	1327497216	52	15141
2026-01-12 10:02:47.02	344.38	19.44	-40.8	-53.0	3.8	1.49e+00	0	60	104	1327497216	52	15300
2026-01-12 10:02:48.02	344.37	19.32	-40.8	-53.1	3.8	1.49e+00	0	59	104	1327497216	52	15427
2026-01-12 10:02:49.04	344.37	19.19	-40.7	-53.2	3.8	1.49e+00	0	59	104	1327497216	52	15621
2026-01-12 10:02:50.05	344.36	19.06	-40.7	-53.2	3.8	1.49e+00	0	59	104	1327497216	52	15618
2026-01-12 10:02:51.06	344.35	18.93	-40.5	-53.1	3.8	1.49e+00	0	59	104	1327497216	52	15404
2026-01-12 10:02:52.07	344.35	18.81	-40.7	-53.0	3.8	1.49e+00	0	59	104	1327497216	52	15378
2026-01-12 10:02:53.08	344.34	18.68	-40.4	-53.0	3.8	1.49e+00	0	59	104	1327497216	52	15266
2026-01-12 10:02:54.09	344.34	18.56	-40.7	-53.1	3.8	1.49e+00	0	60	104	1327497216	52	15455
2026-01-12 10:02:55.10	344.33	18.44	-40.7	-53.3	3.8	1.49e+00	0	60	104	1327497216	52	15897
2026-01-12 10:02:56.11	344.33	18.31	-40.6	-53.1	3.8	1.49e+00	0	60	104	1327497216	52	15519
2026-01-12 10:02:57.12	344.32	18.19	-40.7	-53.3	3.8	1.49e+00	0	59	104	1327497216	52	15843
2026-01-12 10:02:58.13	344.32	18.07	-40.6	-53.0	3.8	1.49e+00	0	59	104	1327497216	52	15390
2026-01-12 10:02:59.14	344.31	17.95	-40.2	-53.0	3.8	1.49e+00	0	60	104	1327497216	52	15341
2026-01-12 10:03:00.15	344.31	17.83	-40.9	-53.3	3.8	1.49e+00	0	60	104	1327497216	52	15844
2026-01-12 10:03:01.16	344.30	17.71	-40.1	-53.0	3.8	1.49e+00	0	59	104	1327497216	52	15381
2026-01-12 10:03:02.17	344.30	17.59	-41.0	-53.3	3.8	1.49e+00	0	60	104	1327497216	52	15889
2026-01-12 10:03:03.18	344.30	17.47	-40.5	-53.0	3.8	1.49e+00	0	60	104	1327497216	52	15373
2026-01-12 10:03:04.19	344.29	17.35	-40.7	-53.1	3.8	1.49e+00	0	59	104	1327497216	52	15495
2026-01-12 10:03:05.20	344.29	17.23	-40.6	-53.0	3.8	1.49e+00	0	59	104	1327497216	52	15363
2026-01-12 10:03:06.21	344.28	17.11	-40.7	-53.2	3.8	1.49e+00	0	60	104	1327497216	52	15631
2026-01-12 10:03:07.22	344.28	17.00	-40.0	-53.1	3.8	1.49e+00	0	60	104	1327497216	51	16360
2026-01-12 10:03:08.23	344.27	16.88	-40.8	-53.1	3.8	1.49e+00	0	60	104	1327497216	52	15567
2026-01-12 10:03:09.24	344.27	16.77	-40.1	-53.0	3.8	1.49e+00	0	60	104	1327497216	51	16303
2026-01-12 10:03:10.25	344.27	16.65	-40.6	-53.0	3.8	1.49e+00	0	60	104	1327497216	52	15369
2026-01-12 10:03:11.26	344.26	16.54	-40.9	-53.3	3.8	1.49e+00	0	60	104	1327497216	52	15785
2026-01-12 10:03:12.27	344.26	16.42	-40.6	-53.3	3.8	1.49e+00	0	60	104	1327497216	52	15763
2026-01-12 10:03:13.28	344.25	16.31	-40.9	-53.3	3.8	1.49e+00	0	60	104	1327497216	52	15860
2026-01-12 10:03:14.29	344.25	16.20	-40.4	-53.1	3.8	1.49e+00	0	59	104	1327497216	52	15528
2026-01-12 10:03:15.30	344.25	16.08	-40.4	-53.0	3.8	1.49e+00	0	59	104	1327497216	52	15263
2026-01-12 10:03:16.31	344.24	15.97	-40.8	-53.2	3.8	1.49e+00	0	60	104	1327497216	52	15658
2026-01-12 10:03:17.32	344.24	15.86	-40.6	-53.0	3.8	1.49e+00	0	60	104	1327497216	52	15367
2026-01-12 10:03:18.33	344.23	15.75	-40.7	-53.4	3.8	1.49e+00	0	60	104	1327497216	52	15972
2026-01-12 10:03:19.34	344.23	15.64	-40.4	-53.2	3.8	1.49e+00	0	60	104	1327497216	52	15643
2026-01-12 10:03:20.35	344.23	15.53	-40.8	-53.1	3.8	1.49e+00	0	60	104	1327497216	52	15529
2026-01-12 10:03:21.36	344.22	15.42	-40.3	-53.1	3.8	1.49e+00	0	60	104	1327497216	52	15541
2026-01-12 10:03:22.38	344.22	15.31	-40.7	-53.0	3.8	1.49e+00	0	60	104	1327497216	52	15401
2026-01-12 10:03:23.39	344.22	15.20	-40.5	-53.1	3.8	1.49e+00	0	60	104	1327497216	52	15538
2026-01-12 10:03:24.39	344.21	15.10	-40.6	-53.3	3.8	1.49e+00	0	60	104	1327497216	52	15867
2026-01-12 10:03:25.40	344.21	14.99	-40.3	-53.1	3.8	1.49e+00	0	60	104	1327497216	52	15431
2026-01-12 10:03:26.41	344.21	14.88	-40.4	-53.1	3.8	1.49e+00	0	60	104	1327497216	52	15446
2026-01-12 10:03:27.42	344.20	14.78	-40.4	-53.1	3.8	1.49e+00	0	60	104	1327497216	52	15416
2026-01-12 10:03:28.43	344.20	14.67	-40.5	-53.2	3.8	1.49e+00	0	60	104	1327497216	52	15629
2026-01-12 10:03:29.44	344.20	14.56	-40.5	-53.1	3.8	1.49e+00	0	59	104	1327497216	52	15492
2026-01-12 10:03:30.45	344.20	14.46	-40.4	-53.1	3.8	1.49e+00	0	60	104	1327497216	52	15478
2026-01-12 10:03:31.46	344.19	14.35	-40.3	-53.0	3.8	1.49e+00	0	60	104	1327497216	52	15347
2026-01-12 10:03:32.47	344.19	14.25	-40.5	-53.1	3.8	1.49e+00	0	59	104	1327497216	52	15442
2026-01-12 10:03:33.48	344.19	14.15	-40.4	-53.1	3.8	1.49e+00	0	60	104	1327497216	52	15403
2026-01-12 10:03:34.49	344.18	14.04	-40.9	-53.3	3.8	1.49e+00	0	60	104	1327497216	52	15790
2026-01-12 10:03:35.50	344.18	13.94	-40.8	-53.2	3.8	1.49e+00	0	59	104	1327497216	52	15644
2026-01-12 10:03:36.51	344.18	13.84	-40.7	-53.2	3.8	1.49e+00	0	60	104	1327497216	52	15616
2026-01-12 10:03:37.52	344.18	13.74	-40.9	-53.2	3.8	1.49e+00	0	60	104	1327497216	52	15700
2026-01-12 10:03:38.53	344.17	13.63	-40.3	-52.9	3.8	1.49e+00	0	60	104	1327497216	52	15221
2026-01-12 10:03:39.54	344.17	13.53	-40.9	-53.2	3.8	1.49e+00	0	59	104	1327497216	52	15760
2026-01-12 10:03:40.55	344.17	13.43	-40.8	-53.2	3.8	1.49e+00	0	60	104	1327497216	52	15632
2026-01-12 10:03:41.56	344.17	13.33	-40.8	-53.2	3.8	1.49e+00	0	60	104	1327497216	52	15615
2026-01-12 10:03:42.57	344.16	13.23	-40.5	-52.9	3.8	1.49e+00	0	60	104	1327497216	52	15209
2026-01-12 10:03:43.58	344.16	13.13	-40.7	-53.1	3.8	1.49e+00	0	60	104	1327497216	52	15546
2026-01-12 10:03:44.59	344.16	13.03	-40.5	-52.9	3.8	1.49e+00	0	60	104	1327497216	52	15222
2026-01-12 10:03:45.60	344.16	12.93	-40.7	-53.1	3.8	1.49e+00	0	60	104	1327497216	52	15446
2026-01-12 10:03:46.61	344.15	12.84	-40.6	-52.9	3.8	1.49e+00	0	60	104	1327497216	52	15165
2026-01-12 10:03:47.62	344.15	12.74	-40.5	-53.0	3.8	1.49e+00	0	60	104	1327497216	52	15267
2026-01-12 10:03:48.63	344.15	12.64	-40.4	-52.9	3.8	1.49e+00	0	60	104	1327497216	52	15109
2026-01-12 10:03:49.64	344.15	12.54	-40.5	-52.9	3.8	1.49e+00	0	60	104	1327497216	52	15159
2026-01-12 10:03:50.65	344.15	12.45	-40.8	-53.1	3.8	1.49e+00	0	60	104	1327497216	52	15568
2026-01-12 10:03:51.66	344.14	12.35	-40.5	-52.9	3.8	1.49e+00	0	60	104	1327497216	52	15195
2026-01-12 10:03:52.67	344.14	12.26	-40.7	-53.1	3.8	1.49e+00	0	60	104	1327497216	52	15430
2026-01-12 10:03:53.68	344.14	12.16	-40.5	-52.9	3.8	1.49e+00	0	60	104	1327497216	52	15138
2026-01-12 10:03:54.69	344.14	12.06	-40.4	-52.8	3.8	1.49e+00	0	60	104	1327497216	52	14947
2026-01-12 10:03:55.70	344.14	11.97	-40.7	-53.1	3.8	1.49e+00	0	60	104	1327497216	52	15403
2026-01-12 10:03:56.72	344.13	11.87	-40.5	-52.9	3.8	1.49e+00	0	60	104	1327497216	52	15188
2026-01-12 10:03:57.73	344.13	11.78	-40.8	-53.2	3.8	1.49e+00	0	60	104	1327497216	52	15586
2026-01-12 10:03:58.74	344.13	11.69	-40.4	-52.8	3.8	1.49e+00	0	60	104	1327497216	52	14925
2026-01-12 10:03:59.75	344.13	11.59	-40.6	-53.0	3.8	1.49e+00	0	60	104	1327497216	52	15254
2026-01-12 10:04:00.76	344.13	11.50	-40.4	-52.7	3.8	1.49e+00	0	60	104	1327497216	52	14847
2026-01-12 10:04:01.77	344.13	11.41	-40.7	-53.0	3.8	1.49e+00	0	60	104	1327497216	52	15346
2026-01-12 10:04:02.78	344.12	11.32	-40.5	-52.9	3.8	1.49e+00	0	60	104	1327497216	52	15085
2026-01-12 10:04:03.78	344.12	11.22	-40.7	-53.1	3.8	1.49e+00	0	60	104	1327497216	52	15433
2026-01-12 10:04:04.79	344.12	11.13	-40.4	-52.7	3.8	1.49e+00	0	60	104	1327497216	52	14878
2026-01-12 10:04:05.80	344.12	11.04	-40.6	-53.0	3.8	1.49e+00	0	60	104	1327497216	52	15295
2026-01-12 10:04:06.81	344.12	10.95	-40.4	-52.8	3.8	1.49e+00	0	60	104	1327497216	52	14970
2026-01-12 10:04:07.82	344.12	10.86	-40.8	-53.1	3.8	1.49e+00	0	60	104	1327497216	52	15510
2026-01-12 10:04:08.83	344.12	10.77	-40.4	-52.8	3.8	1.49e+00	0	60	104	1327497216	52	14932
2026-01-12 10:04:09.84	344.11	10.68	-40.7	-53.1	3.8	1.49e+00	0	60	104	1327497216	52	15496
2026-01-12 10:04:10.85	344.11	10.59	-40.1	-52.6	3.8	1.49e+00	0	60	104	1327497216	52	14555
2026-01-12 10:04:11.86	344.11	10.50	-40.4	-52.8	3.8	1.49e+00	0	60	104	1327497216	52	14945
2026-01-12 10:04:12.87	344.11	10.41	-40.1	-52.5	3.8	1.49e+00	0	60	104	1327497216	52	14452
2026-01-12 10:04:13.88	344.11	10.32	-40.4	-52.8	3.8	1.49e+00	0	60	104	1327497216	52	14984
2026-01-12 10:04:14.89	344.11	10.23	-40.6	-52.9	3.8	1.49e+00	0	60	104	1327497216	52	15164
2026-01-12 10:04:15.90	344.11	10.15	-40.5	-52.8	3.8	1.49e+00	0	60	104	1327497216	52	15022
2026-01-12 10:04:16.91	344.11	10.06	-40.5	-52.9	3.8	1.49e+00	0	60	104	1327497216	52	15125
2026-01-12 10:04:17.92	344.10	9.97	-40.4	-52.7	3.8	1.49e+00	0	60	104	1327497216	52	14870
2026-01-12 10:04:18.93	344.10	9.88	-40.2	-52.6	3.8	1.49e+00	0	60	104	1327497216	52	14640
2026-01-12 10:04:19.94	344.10	9.80	-40.7	-53.0	3.8	1.49e+00	0	60	104	1327497216	52	15295
2026-01-12 10:04:20.95	344.10	9.71	-40.3	-52.7	3.8	1.49e+00	0	60	104	1327497216	52	14791
2026-01-12 10:04:21.97	344.10	9.62	-40.7	-53.1	3.8	1.49e+00	0	60	104	1327497216	52	15402
2026-01-12 10:04:22.98	344.10	9.54	-40.4	-52.7	3.8	1.49e+00	0	60	104	1327497216	52	14858
2026-01-12 10:04:23.99	344.10	9.45	-40.3	-52.6	3.8	1.49e+00	0	60	104	1327497216	52	14642
2026-01-12 10:04:25.00	344.10	9.37	-40.4	-52.7	3.8	1.49e+00	0	60	104	1327497216	52	14844
2026-01-12 10:04:26.01	344.10	9.28	-40.3	-52.7	3.8	1.49e+00	0	60	104	1327497216	52	14788
2026-01-12 10:04:27.01	344.10	9.20	-40.3	-52.6	3.8	1.49e+00	0	60	104	1327497216	52	14703
2026-01-12 10:04:28.02	344.10	9.11	-40.6	-52.9	3.8	1.49e+00	0	60	104	1327497216	52	15210
2026-01-12 10:04:29.03	344.09	9.03	-40.3	-52.6	3.8	1.49e+00	0	60	104	1327497216	52	14691
2026-01-12 10:04:30.04	344.09	8.95	-40.5	-52.9	3.8	1.49e+00	0	60	104	1327497216	52	15118
2026-01-12 10:04:31.05	344.09	8.86	-40.5	-52.9	3.8	1.49e+00	0	60	104	1327497216	52	15115
2026-01-12 10:04:32.06	344.09	8.78	-40.5	-52.9	3.8	1.49e+00	0	60	104	1327497216	52	15105
2026-01-12 10:04:33.07	344.09	8.70	-40.6	-52.9	3.8	1.49e+00	0	60	104	1327497216	52	15189
2026-01-12 10:04:34.08	344.09	8.61	-40.6	-52.9	3.8	1.49e+00	0	60	104	1327497216	52	15206
2026-01-12 10:04:35.09	344.09	8.53	-40.3	-52.6	3.8	1.49e+00	0	60	104	1327497216	52	14675
2026-01-12 10:04:36.10	344.09	8.45	-40.4	-52.7	3.8	1.49e+00	0	60	104	1327497216	52	14867
2026-01-12 10:04:37.11	344.09	8.37	-40.3	-52.6	3.8	1.49e+00	0	60	104	1327497216	52	14660
2026-01-12 10:04:38.12	344.09	8.29	-40.4	-52.8	3.8	1.49e+00	0	60	104	1327497216	52	14913
2026-01-12 10:04:39.13	344.09	8.20	-40.5	-52.9	3.8	1.49e+00	0	60	104	1327497216	52	15125
2026-01-12 10:04:40.14	344.09	8.12	-40.5	-52.8	3.8	1.49e+00	0	60	104	1327497216	52	14990
2026-01-12 10:04:41.15	344.09	8.04	-40.4	-52.8	3.8	1.49e+00	0	60	104	1327497216	52	14934
2026-01-12 10:04:42.16	344.09	7.96	-40.2	-52.6	3.8	1.49e+00	0	60	104	1327497216	52	14621
2026-01-12 10:04:43.17	344.09	7.88	-40.4	-52.8	3.8	1.49e+00	0	60	104	1327497216	51	15940
2026-01-12 10:04:44.18	344.09	7.80	-42.3	-54.9	3.8	1.49e+00	0	59	104	1327497216	55	16101
2026-01-12 10:04:45.20	344.09	7.72	-44.7	-57.1	3.8	1.49e+00	0	60	104	1327497216	60	15470
2026-01-12 10:04:46.21	344.09	7.64	-44.9	-57.3	3.8	1.49e+00	0	60	104	1327497216	60	15768
2026-01-12 10:04:47.22	344.09	7.56	-45.0	-57.4	3.8	1.49e+00	0	60	104	1327497216	60	16025
2026-01-12 10:04:48.23	344.09	7.48	-45.1	-57.5	3.8	1.49e+00	0	60	104	1327497216	60	16141
2026-01-12 10:04:49.24	344.09	7.40	-45.1	-57.5	3.8	1.49e+00	0	60	104	1327497216	60	16223
2026-01-12 10:04:50.25	344.09	7.33	-45.1	-57.6	3.8	1.49e+00	0	60	104	1327497216	60	16325
2026-01-12 10:04:51.26	344.09	7.25	-45.1	-57.5	3.8	1.49e+00	0	60	104	1327497216	60	16284
2026-01-12 10:04:52.27	344.08	7.17	-45.1	-57.5	3.8	1.49e+00	0	60	104	1327497216	60	16225
2026-01-12 10:04:53.28	344.08	7.09	-45.1	-57.5	3.8	1.49e+00	0	60	104	1327497216	60	16185
2026-01-12 10:04:54.30	344.08	7.01	-45.0	-57.4	3.8	1.49e+00	0	60	104	1327497216	60	16121
2026-01-12 10:04:55.31	344.08	6.94	-45.0	-57.4	3.8	1.49e+00	0	60	104	1327497216	60	16068
2026-01-12 10:04:56.32	344.08	6.86	-45.0	-57.4	3.8	1.49e+00	0	60	104	1327497216	60	15999
2026-01-12 10:04:57.33	344.08	6.78	-45.0	-57.4	3.8	1.49e+00	0	60	104	1327497216	60	15996
2026-01-12 10:04:58.34	344.08	6.70	-44.9	-57.3	3.8	1.49e+00	0	60	104	1327497216	60	15915
2026-01-12 10:04:59.35	344.08	6.63	-44.9	-57.3	3.8	1.49e+00	0	60	104	1327497216	60	15935
2026-01-12 10:05:00.36	344.08	6.55	-44.9	-57.3	3.8	1.49e+00	0	60	104	1327497216	60	15885
2026-01-12 10:05:01.37	344.08	6.48	-44.9	-57.3	3.8	1.49e+00	0	60	104	1327497216	60	15872
2026-01-12 10:05:02.38	344.08	6.40	-45.0	-57.4	3.8	1.49e+00	0	60	104	1327497216	60	15949
2026-01-12 10:05:03.39	344.08	6.32	-44.9	-57.3	3.8	1.49e+00	0	60	104	1327497216	60	15881
2026-01-12 10:05:04.41	344.09	6.25	-44.9	-57.3	3.8	1.49e+00	0	60	104	1327497216	60	15918
2026-01-12 10:05:05.42	344.09	6.17	-44.9	-57.3	3.8	1.49e+00	0	60	104	1327497216	60	15856
2026-01-12 10:05:06.43	344.09	6.10	-44.9	-57.3	3.8	1.49e+00	0	60	104	1327497216	60	15890
2026-01-12 10:05:07.44	344.09	6.02	-44.9	-57.3	3.8	1.49e+00	0	60	104	1327497216	60	15896
2026-01-12 10:05:08.45	344.09	5.95	-44.9	-57.3	3.8	1.49e+00	0	60	104	1327497216	60	15869
2026-01-12 10:05:09.46	344.09	5.87	-44.9	-57.3	3.8	1.49e+00	0	60	104	1327497216	60	15897
2026-01-12 10:05:10.47	344.09	5.80	-44.9	-57.3	3.8	1.49e+00	0	60	104	1327497216	60	15921
2026-01-12 10:05:11.48	344.09	5.73	-44.9	-57.3	3.8	1.49e+00	0	60	104	1327497216	60	15885
2026-01-12 10:05:12.49	344.09	5.65	-44.9	-57.3	3.8	1.49e+00	0	60	104	1327497216	60	15899
2026-01-12 10:05:13.50	344.09	5.58	-44.9	-57.3	3.8	1.49e+00	0	60	104	1327497216	60	15857
2026-01-12 10:05:14.52	344.09	5.51	-44.9	-57.3	3.8	1.49e+00	0	60	104	1327497216	60	15927
2026-01-12 10:05:15.53	344.09	5.43	-44.7	-57.3	3.8	1.49e+00	0	60	104	1327497216	60	15845
2026-01-12 10:05:16.54	344.09	5.36	-44.8	-57.3	3.8	1.49e+00	0	60	104	1327497216	60	15808
2026-01-12 10:05:17.55	344.09	5.29	-44.9	-57.3	3.8	1.49e+00	0	60	104	1327497216	60	15839
2026-01-12 10:05:18.56	344.09	5.21	-44.9	-57.3	3.8	1.49e+00	0	60	104	1327497216	60	15872
2026-01-12 10:05:19.57	344.09	5.14	-44.9	-57.3	3.8	1.49e+00	0	60	104	1327497216	60	15887
2026-01-12 10:05:20.58	344.09	5.07	-44.9	-57.3	3.8	1.49e+00	0	60	104	1327497216	60	15843
2026-01-12 10:05:21.59	344.09	5.00	-44.9	-57.3	3.8	1.49e+00	0	60	104	1327497216	60	15856
2026-01-12 10:05:22.60	344.09	4.93	-44.6	-57.3	3.8	1.49e+00	0	60	104	1327497216	60	15849
2026-01-12 10:05:23.62	344.09	4.85	-44.9	-57.3	3.8	1.49e+00	0	60	104	1327497216	60	15863
2026-01-12 10:05:24.63	344.09	4.78	-44.9	-57.3	3.8	1.49e+00	0	60	104	1327497216	60	15833
2026-01-12 10:05:25.64	344.09	4.71	-44.9	-57.3	3.8	1.49e+00	0	60	104	1327497216	60	15839
2026-01-12 10:05:26.65	344.09	4.64	-44.9	-57.3	3.8	1.49e+00	0	60	104	1327497216	60	15831
2026-01-12 10:05:27.66	344.09	4.57	-44.9	-57.3	3.8	1.49e+00	0	60	104	1327497216	60	15797
2026-01-12 10:05:28.67	344.09	4.50	-44.9	-57.3	3.8	1.49e+00	0	60	104	1327497216	60	15844
2026-01-12 10:05:29.68	344.10	4.43	-44.9	-57.3	3.8	1.49e+00	0	60	104	1327497216	60	15834
2026-01-12 10:05:30.69	344.10	4.36	-44.9	-57.3	3.8	1.49e+00	0	60	104	1327497216	60	15854
2026-01-12 10:05:31.71	344.10	4.29	-44.9	-57.3	3.8	1.49e+00	0	60	104	1327497216	60	15864
2026-01-12 10:05:32.72	344.10	4.22	-44.9	-57.3	3.8	1.49e+00	0	60	104	1327497216	60	15833
2026-01-12 10:05:33.73	344.10	4.15	-44.9	-57.3	3.8	1.49e+00	0	60	104	1327497216	60	15853
2026-01-12 10:05:34.74	344.10	4.08	-44.9	-57.3	3.8	1.49e+00	0	60	104	1327497216	60	15789
2026-01-12 10:05:35.75	344.10	4.01	-44.9	-57.3	3.8	1.49e+00	0	60	104	1327497216	60	15859
2026-01-12 10:05:36.76	344.10	3.94	-44.9	-57.3	3.8	1.49e+00	0	60	104	1327497216	60	15837
2026-01-12 10:05:37.77	344.10	3.87	-44.9	-57.3	3.8	1.49e+00	0	60	104	1327497216	60	15821
2026-01-12 10:05:38.78	344.10	3.80	-44.9	-57.3	3.8	1.49e+00	0	60	104	1327497216	60	15849
2026-01-12 10:05:39.79	344.10	3.74	-44.9	-57.3	3.8	1.49e+00	0	60	104	1327497216	60	15832
2026-01-12 10:05:40.80	344.10	3.67	-44.9	-57.3	3.8	1.49e+00	0	60	104	1327497216	60	15786
2026-01-12 10:05:41.81	344.10	3.60	-44.9	-57.3	3.8	1.49e+00	0	60	104	1327497216	60	15854
2026-01-12 10:05:42.82	344.10	3.53	-44.9	-57.3	3.8	1.49e+00	0	60	104	1327497216	60	15810
2026-01-12 10:05:43.83	344.11	3.46	-44.9	-57.3	3.8	1.49e+00	0	60	104	1327497216	60	15846
2026-01-12 10:05:44.84	344.11	3.40	-44.9	-57.3	3.8	1.49e+00	0	60	104	1327497216	60	15860
2026-01-12 10:05:45.85	344.11	3.33	-44.9	-57.3	3.8	1.49e+00	0	60	104	1327497216	60	15851
2026-01-12 10:05:46.86	344.11	3.26	-44.9	-57.3	3.8	1.49e+00	0	60	104	1327497216	60	15866
2026-01-12 10:05:47.87	344.11	3.19	-44.9	-57.3	3.8	1.49e+00	0	60	104	1327497216	60	15836
2026-01-12 10:05:48.88	344.11	3.13	-44.9	-57.3	3.8	1.49e+00	0	60	104	1327497216	60	15855
2026-01-12 10:05:49.89	344.11	3.06	-44.9	-57.3	3.8	1.49e+00	0	60	104	1327497216	60	15814
2026-01-12 10:05:50.90	344.11	2.99	-44.9	-57.3	3.8	1.49e+00	0	60	104	1327497216	60	15873
2026-01-12 10:05:51.91	344.11	2.93	-44.9	-57.3	3.8	1.49e+00	0	60	104	1327497216	60	15776
2026-01-12 10:05:52.92	344.11	2.86	-44.9	-57.3	3.8	1.49e+00	0	60	104	1327497216	60	15823
2026-01-12 10:05:53.93	344.12	2.79	-44.9	-57.3	3.8	1.49e+00	0	60	104	1327497216	60	15810
2026-01-12 10:05:54.94	344.12	2.73	-44.9	-57.3	3.8	1.49e+00	0	60	104	1327497216	60	15827
2026-01-12 10:05:55.96	344.12	2.66	-44.9	-57.3	3.8	1.49e+00	0	60	104	1327497216	60	15836
2026-01-12 10:05:56.97	344.12	2.59	-44.9	-57.3	3.8	1.49e+00	0	60	104	1327497216	60	15848
2026-01-12 10:05:57.98	344.12	2.53	-44.9	-57.3	3.8	1.49e+00	0	60	104	1327497216	60	15844
2026-01-12 10:05:58.99	344.12	2.46	-44.9	-57.3	3.8	1.49e+00	0	60	104	1327497216	60	15813
2026-01-12 10:06:00.00	344.12	2.40	-44.9	-57.3	3.8	1.49e+00	0	60	104	1327497216	60	15815
2026-01-12 10:06:01.01	344.12	2.33	-44.9	-57.3	3.8	1.49e+00	0	60	104	1327497216	60	15801
2026-01-12 10:06:02.02	344.12	2.27	-44.9	-57.3	3.8	1.49e+00	0	60	104	1327497216	60	15800
2026-01-12 10:06:03.03	344.13	2.20	-44.8	-57.3	3.8	1.49e+00	0	60	104	1327497216	60	15798
2026-01-12 10:06:04.05	344.13	2.14	-44.9	-57.3	3.8	1.49e+00	0	60	104	1327497216	60	15834
2026-01-12 10:06:05.06	344.13	2.07	-44.9	-57.3	3.8	1.49e+00	0	60	104	1327497216	60	15849
2026-01-12 10:06:06.07	344.13	2.01	-44.9	-57.3	3.8	1.49e+00	0	60	104	1327497216	60	15816

#Closed at: 2026-01-12 10:06:06
#Recorded file [1327 MB]: D:/lorett/data/31039_260112_125443.dat