passes_logs/2026/01/12/R2.0S_Moscow/R2.0S_Moscow__20260112_225219_NOAA_20_JPSS-1_rec.log

#Pass ID: 20260112_225219_NOAA 20 (JPSS-1)
#Satellite: NOAA 20 (JPSS-1)
#Configuration: NOAA 20
#almurnet v.1.7.20251203
#Start time: 2026-01-12 22:52:20

#Version: 2.2.20231116
#Station: R2.0S_Moscow
#Location: 37.707566 lon 55.798166 lat
#TLE: 1 43013U 17073A   26012.29914746  .00000087  00000+0  62270-4 0  9997
#TLE: 2 43013  98.7632 313.2670 0001616  43.2193 316.9110 14.19535514422351

#Time	Az	El	Level	Level2	SNR	BER	BlckErr	Temp	State	Recorded	gain1	gain2
2026-01-12 22:52:20.66	20.31	2.06	-41.7	-56.7	3.8	1.49e+00	0	51	0	0	55	19774
2026-01-12 22:52:21.66	20.35	2.12	-41.7	-56.7	3.8	1.49e+00	0	51	104	0	54	20994
2026-01-12 22:52:22.67	20.39	2.18	-41.7	-56.7	3.8	1.49e+00	0	51	104	0	54	20945
2026-01-12 22:52:23.68	20.43	2.24	-41.7	-56.7	3.8	1.49e+00	0	51	104	0	54	20985
2026-01-12 22:52:24.69	20.47	2.31	-41.7	-56.7	3.8	1.49e+00	0	52	104	0	54	20959
2026-01-12 22:52:25.70	20.51	2.37	-41.7	-56.7	3.8	1.49e+00	0	52	104	0	54	20982
2026-01-12 22:52:26.72	20.55	2.43	-41.7	-56.7	3.8	1.49e+00	0	52	104	0	54	20947
2026-01-12 22:52:27.73	20.59	2.49	-41.7	-56.7	3.8	1.49e+00	0	52	104	0	54	20972
2026-01-12 22:52:28.74	20.63	2.56	-41.7	-56.7	3.8	1.49e+00	0	51	104	0	54	21004
2026-01-12 22:52:29.75	20.68	2.62	-41.7	-56.7	3.8	1.49e+00	0	52	104	0	54	20976
2026-01-12 22:52:30.76	20.72	2.68	-41.7	-56.7	3.8	1.49e+00	0	52	104	0	54	20958
2026-01-12 22:52:31.77	20.76	2.75	-41.7	-56.7	3.8	1.49e+00	0	52	104	0	54	20978
2026-01-12 22:52:32.77	20.80	2.81	-41.7	-56.7	3.8	1.49e+00	0	52	104	0	54	20970
2026-01-12 22:52:33.78	20.84	2.87	-41.7	-56.7	3.8	1.49e+00	0	52	104	0	54	20964
2026-01-12 22:52:34.79	20.89	2.94	-41.7	-56.7	3.8	1.49e+00	0	52	104	0	54	20996
2026-01-12 22:52:35.80	20.93	3.00	-41.8	-56.7	3.8	1.49e+00	0	52	104	0	54	20952
2026-01-12 22:52:36.81	20.97	3.06	-41.7	-56.7	3.8	1.49e+00	0	53	104	0	54	20923
2026-01-12 22:52:37.83	21.01	3.13	-41.7	-56.7	3.8	1.49e+00	0	52	104	0	54	20986
2026-01-12 22:52:38.83	21.06	3.19	-41.7	-56.7	3.8	1.49e+00	0	53	104	0	54	20975
2026-01-12 22:52:39.84	21.10	3.25	-41.7	-56.7	3.8	1.49e+00	0	53	104	0	54	20964
2026-01-12 22:52:40.85	21.14	3.32	-41.7	-56.7	3.8	1.49e+00	0	53	104	0	54	20982
2026-01-12 22:52:41.86	21.19	3.38	-41.7	-56.7	3.8	1.49e+00	0	53	104	0	54	20945
2026-01-12 22:52:42.88	21.23	3.45	-41.7	-56.7	3.8	1.49e+00	0	53	104	0	54	20959
2026-01-12 22:52:43.89	21.27	3.51	-41.7	-56.7	3.8	1.49e+00	0	53	104	0	54	20977
2026-01-12 22:52:44.90	21.32	3.58	-41.7	-56.7	3.8	1.49e+00	0	53	104	0	54	20970
2026-01-12 22:52:45.91	21.36	3.64	-41.7	-56.7	3.8	1.49e+00	0	53	104	0	54	20967
2026-01-12 22:52:46.92	21.41	3.71	-41.7	-56.7	3.8	1.49e+00	0	53	104	0	54	20922
2026-01-12 22:52:47.93	21.45	3.77	-41.7	-56.7	3.8	1.49e+00	0	53	104	0	54	20902
2026-01-12 22:52:48.94	21.49	3.84	-41.7	-56.7	3.8	1.49e+00	0	53	104	0	54	20930
2026-01-12 22:52:49.95	21.54	3.90	-41.7	-56.7	3.8	1.49e+00	0	53	104	0	54	20935
2026-01-12 22:52:50.96	21.58	3.97	-41.7	-56.7	3.8	1.49e+00	0	53	104	0	54	20912
2026-01-12 22:52:51.97	21.63	4.04	-41.7	-56.7	3.8	1.49e+00	0	53	104	0	54	20999
2026-01-12 22:52:52.98	21.67	4.10	-41.7	-56.7	3.8	1.49e+00	0	53	104	0	54	20971
2026-01-12 22:52:53.99	21.72	4.17	-41.7	-56.7	3.8	1.49e+00	0	53	104	0	54	20912
2026-01-12 22:52:55.00	21.77	4.23	-41.7	-56.7	3.8	1.49e+00	0	53	104	0	54	20932
2026-01-12 22:52:56.01	21.81	4.30	-41.7	-56.7	3.8	1.49e+00	0	53	104	0	54	20883
2026-01-12 22:52:57.02	21.86	4.37	-41.7	-56.7	3.8	1.49e+00	0	53	104	0	54	20960
2026-01-12 22:52:58.03	21.90	4.43	-41.7	-56.7	3.8	1.49e+00	0	54	104	0	54	20982
2026-01-12 22:52:59.04	21.95	4.50	-41.7	-56.7	3.8	1.49e+00	0	53	104	0	54	20969
2026-01-12 22:53:00.05	22.00	4.57	-41.7	-56.7	3.8	1.49e+00	0	54	104	0	54	20901
2026-01-12 22:53:01.06	22.04	4.64	-41.7	-56.7	3.8	1.49e+00	0	54	104	0	54	20906
2026-01-12 22:53:02.07	22.09	4.70	-41.7	-56.7	3.8	1.49e+00	0	54	104	0	54	20909
2026-01-12 22:53:03.08	22.14	4.77	-41.7	-56.7	3.8	1.49e+00	0	54	104	0	54	20867
2026-01-12 22:53:04.08	22.19	4.84	-41.7	-56.7	3.8	1.49e+00	0	54	104	0	54	20893
2026-01-12 22:53:05.09	22.23	4.91	-41.7	-56.7	3.8	1.49e+00	0	54	104	0	54	21004
2026-01-12 22:53:06.10	22.28	4.97	-41.7	-56.7	3.8	1.49e+00	0	54	104	0	54	20903
2026-01-12 22:53:07.11	22.33	5.04	-41.7	-56.7	3.8	1.49e+00	0	54	104	0	54	20931
2026-01-12 22:53:08.12	22.38	5.11	-41.7	-56.7	3.8	1.49e+00	0	54	104	0	54	20864
2026-01-12 22:53:09.13	22.43	5.18	-41.7	-56.7	3.8	1.49e+00	0	54	104	0	54	20879
2026-01-12 22:53:10.14	22.47	5.25	-41.7	-56.7	3.8	1.49e+00	0	54	104	0	54	20976
2026-01-12 22:53:11.15	22.52	5.32	-41.7	-56.7	3.8	1.49e+00	0	54	104	0	54	20923
2026-01-12 22:53:12.16	22.57	5.38	-41.7	-56.7	3.8	1.49e+00	0	54	104	0	54	20910
2026-01-12 22:53:13.17	22.62	5.45	-41.7	-56.7	3.8	1.49e+00	0	54	104	0	54	20909
2026-01-12 22:53:14.18	22.67	5.52	-41.7	-56.7	3.8	1.49e+00	0	54	104	0	54	20894
2026-01-12 22:53:15.19	22.72	5.59	-41.7	-56.7	3.8	1.49e+00	0	54	104	0	54	20898
2026-01-12 22:53:16.21	22.77	5.66	-41.7	-56.7	3.8	1.49e+00	0	54	104	0	54	20910
2026-01-12 22:53:17.22	22.82	5.73	-41.7	-56.7	3.8	1.49e+00	0	55	104	0	54	20863
2026-01-12 22:53:18.23	22.87	5.80	-41.7	-56.7	3.8	1.49e+00	0	55	104	0	54	20869
2026-01-12 22:53:19.24	22.92	5.87	-41.7	-56.7	3.8	1.49e+00	0	55	104	0	54	20888
2026-01-12 22:53:20.25	22.97	5.94	-41.7	-56.7	3.8	1.49e+00	0	54	104	0	54	20966
2026-01-12 22:53:21.26	23.02	6.01	-41.7	-56.7	3.8	1.49e+00	0	55	104	0	54	20877
2026-01-12 22:53:22.27	23.07	6.08	-41.7	-56.7	3.8	1.49e+00	0	55	104	0	54	20952
2026-01-12 22:53:23.28	23.13	6.16	-41.7	-56.7	3.8	1.49e+00	0	55	104	0	54	20901
2026-01-12 22:53:24.29	23.18	6.23	-41.7	-56.7	3.8	1.49e+00	0	55	104	0	54	20914
2026-01-12 22:53:25.30	23.23	6.30	-41.7	-56.7	3.8	1.49e+00	0	55	104	0	54	21016
2026-01-12 22:53:26.31	23.28	6.37	-41.7	-56.7	3.8	1.49e+00	0	55	104	0	54	20868
2026-01-12 22:53:27.32	23.33	6.44	-41.7	-56.7	3.8	1.49e+00	0	55	104	0	54	20857
2026-01-12 22:53:28.33	23.39	6.51	-41.7	-56.7	3.8	1.49e+00	0	55	104	0	54	20917
2026-01-12 22:53:29.35	23.44	6.58	-41.7	-56.7	3.8	1.49e+00	0	55	104	0	54	20909
2026-01-12 22:53:30.36	23.49	6.66	-41.7	-56.7	3.8	1.49e+00	0	55	104	0	54	20921
2026-01-12 22:53:31.37	23.55	6.73	-41.7	-56.7	3.8	1.49e+00	0	55	104	0	54	20953
2026-01-12 22:53:32.38	23.60	6.80	-41.7	-56.7	3.8	1.49e+00	0	55	104	0	54	20854
2026-01-12 22:53:33.39	23.65	6.87	-41.7	-56.7	3.8	1.49e+00	0	55	104	0	54	20905
2026-01-12 22:53:34.40	23.71	6.95	-41.7	-56.7	3.8	1.49e+00	0	55	104	0	54	20831
2026-01-12 22:53:35.41	23.76	7.02	-41.7	-56.7	3.8	1.49e+00	0	55	104	0	54	20797
2026-01-12 22:53:36.42	23.82	7.09	-41.7	-56.7	3.8	1.49e+00	0	55	104	0	54	20855
2026-01-12 22:53:37.43	23.87	7.17	-41.7	-56.6	3.8	1.49e+00	0	55	104	0	54	20713
2026-01-12 22:53:38.44	23.93	7.24	-41.7	-56.5	3.8	1.49e+00	0	55	104	0	54	20496
2026-01-12 22:53:39.45	23.98	7.31	-41.7	-56.5	3.8	1.49e+00	0	55	104	0	54	20368
2026-01-12 22:53:40.47	24.04	7.39	-41.7	-56.3	3.8	1.49e+00	0	56	104	0	54	20008
2026-01-12 22:53:41.48	24.09	7.46	-41.7	-56.1	3.8	1.49e+00	0	56	104	0	54	19596
2026-01-12 22:53:42.49	24.15	7.54	-41.6	-55.6	3.8	1.49e+00	0	56	104	0	54	18416
2026-01-12 22:53:43.50	24.21	7.61	-41.6	-55.0	3.8	1.49e+00	0	56	104	0	54	17268
2026-01-12 22:53:44.51	24.26	7.69	-41.6	-54.6	3.9	1.49e+00	0	56	104	0	54	16341
2026-01-12 22:53:45.52	24.32	7.76	-41.5	-53.5	4.1	1.46e+00	0	56	0	0	54	14377
2026-01-12 22:53:46.53	24.38	7.84	-41.4	-52.1	4.5	1.26e+00	1	56	0	0	54	12344
2026-01-12 22:53:47.54	24.43	7.91	-41.3	-51.2	5.0	8.43e-01	0	56	0	2097152	54	11075
2026-01-12 22:53:48.55	24.49	7.99	-41.2	-50.2	5.6	5.71e-01	0	56	0	4194304	54	9899
2026-01-12 22:53:49.56	24.55	8.06	-41.4	-50.3	5.7	3.00e-01	0	56	0	5242880	54	9985
2026-01-12 22:53:50.57	24.61	8.14	-41.5	-54.0	3.8	7.64e-01	0	56	104	7340032	54	15383
2026-01-12 22:53:51.58	24.67	8.22	-41.2	-48.1	7.5	1.49e+00	0	56	0	7340032	54	7758
2026-01-12 22:53:52.59	24.73	8.29	-42.3	-50.9	5.6	4.95e-01	0	56	0	8388608	55	10068
2026-01-12 22:53:53.60	24.79	8.37	-41.3	-48.2	7.7	5.35e-01	0	56	0	10485760	54	7835
2026-01-12 22:53:54.61	24.84	8.45	-41.4	-49.8	5.9	8.37e-01	0	56	0	12582912	54	9480
2026-01-12 22:53:55.62	24.90	8.52	-41.6	-49.4	6.6	2.01e-01	0	56	0	14680064	54	8969
2026-01-12 22:53:56.63	24.96	8.60	-41.7	-49.2	6.7	2.09e-01	0	56	0	16777216	54	8817
2026-01-12 22:53:57.63	25.02	8.68	-41.7	-48.9	7.1	1.86e-01	0	56	0	17825792	54	8527
2026-01-12 22:53:58.64	25.08	8.76	-41.7	-48.7	7.3	1.37e-01	0	56	0	19922944	54	8315
2026-01-12 22:53:59.65	25.15	8.83	-41.7	-48.4	7.6	9.66e-02	0	56	0	22020096	54	8012
2026-01-12 22:54:00.66	25.21	8.91	-41.8	-48.9	7.2	1.23e-01	0	56	0	24117248	54	8495
2026-01-12 22:54:01.67	25.27	8.99	-41.9	-49.0	7.1	1.30e-01	0	56	0	26214400	54	8580
2026-01-12 22:54:02.68	25.33	9.07	-41.9	-48.8	7.3	1.27e-01	0	56	0	27262976	54	8394
2026-01-12 22:54:03.69	25.39	9.15	-41.9	-48.6	7.5	1.05e-01	0	57	0	29360128	54	8249
2026-01-12 22:54:04.70	25.45	9.23	-41.9	-48.6	7.6	8.65e-02	0	56	0	31457280	54	8258
2026-01-12 22:54:05.71	25.52	9.31	-42.0	-48.6	7.6	1.04e-01	0	56	0	33554432	54	8261
2026-01-12 22:54:06.72	25.58	9.38	-41.9	-48.2	8.0	7.94e-02	0	57	0	35651584	54	7886
2026-01-12 22:54:07.73	25.64	9.46	-42.0	-48.4	8.0	7.07e-02	0	56	0	36700160	54	7995
2026-01-12 22:54:08.74	25.71	9.54	-42.0	-48.5	7.8	8.43e-02	0	56	0	38797312	54	8144
2026-01-12 22:54:09.75	25.77	9.62	-42.0	-48.3	8.1	6.58e-02	0	56	0	40894464	54	7944
2026-01-12 22:54:10.76	25.84	9.71	-42.1	-48.6	7.8	7.40e-02	0	57	0	42991616	54	8213
2026-01-12 22:54:11.77	25.90	9.79	-42.1	-48.4	8.0	6.86e-02	0	56	0	45088768	54	8042
2026-01-12 22:54:12.78	25.97	9.87	-42.2	-48.7	7.7	7.36e-02	0	57	0	46137344	54	8325
2026-01-12 22:54:13.79	26.03	9.95	-42.2	-48.7	7.8	9.71e-02	0	57	0	48234496	55	7835
2026-01-12 22:54:14.79	26.10	10.03	-42.2	-48.5	8.0	8.40e-02	0	56	0	50331648	55	7661
2026-01-12 22:54:15.80	26.16	10.11	-42.3	-48.7	7.8	7.77e-02	0	57	0	52428800	55	7885
2026-01-12 22:54:16.81	26.23	10.19	-42.2	-48.3	8.3	5.45e-02	0	57	0	54525952	55	7483
2026-01-12 22:54:17.82	26.30	10.27	-42.2	-48.3	8.2	5.76e-02	0	57	0	56623104	55	7517
2026-01-12 22:54:18.83	26.36	10.36	-42.2	-48.3	8.3	5.13e-02	0	57	0	57671680	55	7524
2026-01-12 22:54:19.84	26.43	10.44	-42.2	-48.2	8.4	5.11e-02	0	57	0	59768832	55	7398
2026-01-12 22:54:20.85	26.50	10.52	-42.2	-48.0	8.7	3.74e-02	0	57	0	61865984	55	7205
2026-01-12 22:54:21.86	26.57	10.60	-42.2	-47.9	8.8	3.25e-02	0	57	0	63963136	55	7156
2026-01-12 22:54:22.87	26.63	10.69	-42.2	-47.9	8.8	3.03e-02	0	57	0	66060288	55	7135
2026-01-12 22:54:23.88	26.70	10.77	-42.2	-47.9	8.8	2.87e-02	0	57	0	67108864	55	7198
2026-01-12 22:54:24.88	26.77	10.85	-42.2	-47.8	8.9	2.87e-02	0	57	0	69206016	55	7094
2026-01-12 22:54:25.89	26.84	10.94	-42.2	-47.7	9.1	2.31e-02	0	57	0	71303168	55	6964
2026-01-12 22:54:26.90	26.91	11.02	-42.1	-47.6	9.2	2.31e-02	0	57	0	73400320	55	6917
2026-01-12 22:54:27.91	26.98	11.11	-42.2	-47.7	9.1	2.10e-02	0	57	0	75497472	55	7005
2026-01-12 22:54:28.92	27.05	11.19	-42.2	-47.6	9.2	2.07e-02	0	57	0	76546048	55	6921
2026-01-12 22:54:29.93	27.12	11.28	-42.1	-47.4	9.5	1.61e-02	0	57	0	78643200	55	6752
2026-01-12 22:54:30.95	27.20	11.36	-42.1	-47.3	9.6	1.42e-02	0	57	0	80740352	55	6651
2026-01-12 22:54:31.96	27.27	11.45	-42.1	-47.2	9.7	1.38e-02	0	57	0	82837504	55	6632
2026-01-12 22:54:32.97	27.34	11.53	-42.1	-47.3	9.6	1.35e-02	0	57	0	84934656	55	6715
2026-01-12 22:54:33.98	27.41	11.62	-42.1	-47.2	9.7	1.25e-02	0	57	0	85983232	55	6623
2026-01-12 22:54:34.99	27.49	11.71	-42.1	-47.2	9.7	1.11e-02	0	57	0	88080384	55	6629
2026-01-12 22:54:36.00	27.56	11.79	-42.1	-47.2	9.7	9.76e-03	0	57	0	90177536	55	6635
2026-01-12 22:54:37.01	27.63	11.88	-42.1	-47.2	9.8	1.09e-02	0	57	0	92274688	55	6572
2026-01-12 22:54:38.02	27.71	11.97	-42.1	-47.2	9.8	1.01e-02	0	57	0	94371840	55	6586
2026-01-12 22:54:39.03	27.78	12.06	-42.1	-47.1	9.8	9.67e-03	0	57	0	95420416	55	6551
2026-01-12 22:54:40.04	27.86	12.14	-42.0	-47.0	10.0	9.01e-03	0	57	0	97517568	55	6429
2026-01-12 22:54:41.05	27.93	12.23	-42.1	-47.0	10.0	7.56e-03	0	57	0	99614720	55	6484
2026-01-12 22:54:42.06	28.01	12.32	-42.0	-46.9	10.1	6.34e-03	0	57	0	101711872	55	6390
2026-01-12 22:54:43.07	28.09	12.41	-42.1	-47.0	10.1	6.38e-03	0	57	0	103809024	55	6435
2026-01-12 22:54:44.08	28.16	12.50	-42.1	-47.0	10.1	6.67e-03	0	57	0	104857600	55	6446
2026-01-12 22:54:45.09	28.24	12.59	-42.0	-46.9	10.2	6.14e-03	0	57	0	106954752	55	6395
2026-01-12 22:54:46.10	28.32	12.68	-42.1	-47.0	10.1	6.79e-03	0	57	0	109051904	55	6465
2026-01-12 22:54:47.11	28.40	12.77	-42.1	-47.0	10.1	6.28e-03	0	57	0	111149056	55	6449
2026-01-12 22:54:48.12	28.47	12.86	-42.1	-47.0	10.1	6.87e-03	0	57	0	113246208	55	6487
2026-01-12 22:54:49.13	28.55	12.95	-42.1	-47.1	10.1	7.03e-03	0	57	0	114294784	55	6504
2026-01-12 22:54:50.14	28.63	13.04	-42.1	-47.0	10.1	7.67e-03	0	58	0	116391936	55	6440
2026-01-12 22:54:51.15	28.71	13.13	-42.1	-47.1	10.0	6.72e-03	0	58	0	118489088	55	6540
2026-01-12 22:54:52.16	28.79	13.22	-42.2	-47.1	10.1	7.44e-03	0	57	0	120586240	55	6525
2026-01-12 22:54:53.17	28.87	13.31	-42.1	-47.1	10.1	7.23e-03	0	58	0	122683392	55	6507
2026-01-12 22:54:54.18	28.96	13.40	-42.1	-47.1	10.1	6.72e-03	0	57	0	124780544	55	6506
2026-01-12 22:54:55.19	29.04	13.49	-42.2	-47.1	10.1	8.18e-03	0	58	0	125829120	55	6556
2026-01-12 22:54:56.19	29.12	13.59	-42.2	-47.1	10.0	6.53e-03	0	57	0	127926272	55	6553
2026-01-12 22:54:57.21	29.20	13.68	-42.1	-47.0	10.2	5.89e-03	0	58	0	130023424	55	6461
2026-01-12 22:54:58.22	29.29	13.77	-42.1	-46.9	10.3	6.74e-03	0	57	0	132120576	55	6404
2026-01-12 22:54:59.22	29.37	13.86	-42.1	-46.9	10.3	5.00e-03	0	58	0	134217728	55	6391
2026-01-12 22:55:00.23	29.45	13.96	-42.1	-46.8	10.4	5.15e-03	0	57	0	135266304	55	6319
2026-01-12 22:55:01.24	29.54	14.05	-42.1	-46.8	10.5	4.24e-03	0	58	0	137363456	55	6289
2026-01-12 22:55:02.25	29.62	14.15	-42.1	-46.8	10.5	3.87e-03	0	58	0	139460608	55	6294
2026-01-12 22:55:03.26	29.71	14.24	-42.1	-46.8	10.5	3.90e-03	0	58	0	141557760	55	6327
2026-01-12 22:55:04.27	29.80	14.34	-42.1	-46.8	10.5	3.99e-03	0	58	0	143654912	55	6323
2026-01-12 22:55:05.28	29.88	14.43	-42.1	-46.8	10.4	3.74e-03	0	58	0	144703488	55	6345
2026-01-12 22:55:06.28	29.97	14.52	-42.2	-46.9	10.4	4.22e-03	0	58	0	146800640	55	6367
2026-01-12 22:55:07.29	30.06	14.62	-42.1	-46.9	10.5	4.36e-03	0	58	0	148897792	55	6361
2026-01-12 22:55:08.30	30.15	14.72	-42.2	-46.9	10.4	4.60e-03	0	58	0	150994944	55	6399
2026-01-12 22:55:09.31	30.24	14.81	-42.1	-46.8	10.6	3.87e-03	0	58	0	153092096	55	6302
2026-01-12 22:55:10.32	30.32	14.91	-42.2	-46.9	10.4	4.38e-03	0	58	0	154140672	55	6400
2026-01-12 22:55:11.33	30.42	15.01	-42.2	-46.9	10.5	4.10e-03	0	58	0	156237824	55	6365
2026-01-12 22:55:12.34	30.51	15.10	-42.1	-46.8	10.6	3.61e-03	0	58	0	158334976	55	6297
2026-01-12 22:55:13.35	30.60	15.20	-42.1	-46.7	10.7	3.47e-03	0	58	0	160432128	55	6236
2026-01-12 22:55:14.36	30.69	15.30	-42.0	-46.6	10.8	2.73e-03	0	58	0	162529280	55	6136
2026-01-12 22:55:15.37	30.78	15.40	-42.0	-46.5	10.9	2.34e-03	0	58	0	163577856	55	6078
2026-01-12 22:55:16.38	30.87	15.50	-42.0	-46.5	10.9	1.87e-03	0	58	0	165675008	55	6124
2026-01-12 22:55:17.39	30.97	15.60	-42.0	-46.5	11.0	2.05e-03	0	58	0	167772160	55	6077
2026-01-12 22:55:18.40	31.06	15.70	-42.0	-46.5	11.0	2.13e-03	0	58	0	169869312	55	6077
2026-01-12 22:55:19.41	31.16	15.80	-42.0	-46.4	11.1	1.66e-03	0	58	0	171966464	55	6006
2026-01-12 22:55:20.42	31.25	15.90	-41.9	-46.2	11.2	1.43e-03	0	58	0	173015040	55	5916
2026-01-12 22:55:21.42	31.35	16.00	-41.9	-46.2	11.3	1.27e-03	0	58	0	175112192	55	5907
2026-01-12 22:55:22.43	31.44	16.10	-41.9	-46.2	11.3	1.31e-03	0	58	0	177209344	55	5876
2026-01-12 22:55:23.44	31.54	16.20	-41.9	-46.2	11.3	1.25e-03	0	58	0	179306496	55	5872
2026-01-12 22:55:24.45	31.64	16.30	-42.0	-46.3	11.2	1.27e-03	0	58	0	181403648	55	5947
2026-01-12 22:55:25.46	31.74	16.40	-42.0	-46.3	11.2	1.32e-03	0	58	0	182452224	55	5968
2026-01-12 22:55:26.47	31.84	16.50	-41.9	-46.2	11.3	1.33e-03	0	58	0	184549376	55	5909
2026-01-12 22:55:27.48	31.94	16.61	-42.0	-46.4	11.1	1.47e-03	0	58	0	186646528	55	6015
2026-01-12 22:55:28.49	32.04	16.71	-42.1	-46.5	11.0	1.81e-03	0	58	0	188743680	55	6088
2026-01-12 22:55:29.50	32.14	16.81	-42.0	-46.4	11.2	1.58e-03	0	58	0	190840832	55	6012
2026-01-12 22:55:30.51	32.24	16.91	-42.1	-46.4	11.0	1.78e-03	0	58	0	192937984	55	6061
2026-01-12 22:55:31.52	32.34	17.02	-42.1	-46.6	10.9	2.16e-03	0	58	0	193986560	55	6168
2026-01-12 22:55:32.53	32.45	17.12	-42.2	-46.7	10.9	2.11e-03	0	58	0	196083712	55	6212
2026-01-12 22:55:33.54	32.55	17.23	-42.2	-46.7	10.8	2.55e-03	0	58	0	198180864	55	6262
2026-01-12 22:55:34.55	32.66	17.33	-42.2	-46.7	10.8	2.58e-03	0	58	0	200278016	55	6266
2026-01-12 22:55:35.57	32.76	17.44	-42.2	-46.7	10.9	2.72e-03	0	58	0	202375168	55	6234
2026-01-12 22:55:36.58	32.87	17.54	-42.2	-46.8	10.7	2.67e-03	0	58	0	203423744	55	6338
2026-01-12 22:55:37.59	32.97	17.65	-42.2	-46.8	10.8	2.78e-03	0	58	0	205520896	55	6291
2026-01-12 22:55:38.59	33.08	17.76	-42.2	-46.7	10.8	2.43e-03	0	58	0	207618048	55	6267
2026-01-12 22:55:39.60	33.19	17.86	-42.2	-46.7	10.9	2.34e-03	0	58	0	209715200	55	6247
2026-01-12 22:55:40.61	33.30	17.97	-42.3	-46.8	10.7	2.67e-03	0	58	0	211812352	55	6330
2026-01-12 22:55:41.62	33.41	18.08	-42.2	-46.8	10.8	2.89e-03	0	58	0	212860928	55	6316
2026-01-12 22:55:42.63	33.52	18.19	-42.2	-46.8	10.8	2.82e-03	0	58	0	214958080	55	6312
2026-01-12 22:55:43.64	33.63	18.29	-42.3	-46.9	10.7	3.04e-03	0	58	0	217055232	55	6360
2026-01-12 22:55:44.65	33.74	18.40	-42.3	-46.9	10.7	2.80e-03	0	58	0	219152384	55	6380
2026-01-12 22:55:45.66	33.85	18.51	-42.3	-47.0	10.6	3.07e-03	0	58	0	221249536	55	6442
2026-01-12 22:55:46.67	33.97	18.62	-42.3	-47.0	10.7	3.11e-03	0	58	0	222298112	55	6423
2026-01-12 22:55:47.68	34.08	18.73	-42.3	-47.0	10.6	3.74e-03	0	58	0	224395264	55	6441
2026-01-12 22:55:48.69	34.20	18.84	-42.4	-47.0	10.6	3.58e-03	0	58	0	226492416	55	6489
2026-01-12 22:55:49.70	34.31	18.95	-42.4	-47.0	10.6	3.63e-03	0	59	0	228589568	55	6489
2026-01-12 22:55:50.71	34.43	19.06	-42.4	-47.1	10.5	3.60e-03	0	58	0	230686720	55	6526
2026-01-12 22:55:51.72	34.55	19.18	-42.4	-47.1	10.5	3.57e-03	0	59	0	231735296	55	6520
2026-01-12 22:55:52.72	34.66	19.29	-42.4	-47.0	10.6	3.52e-03	0	59	0	233832448	55	6470
2026-01-12 22:55:53.73	34.78	19.40	-42.4	-47.1	10.6	3.47e-03	0	58	0	235929600	55	6503
2026-01-12 22:55:54.74	34.90	19.51	-42.4	-47.0	10.6	3.35e-03	0	59	0	238026752	55	6485
2026-01-12 22:55:55.75	35.02	19.62	-42.4	-47.0	10.7	2.78e-03	0	59	0	240123904	55	6449
2026-01-12 22:55:56.76	35.14	19.74	-42.4	-47.0	10.8	2.78e-03	0	58	0	241172480	55	6431
2026-01-12 22:55:57.77	35.27	19.85	-42.4	-46.9	10.8	2.88e-03	0	59	0	243269632	55	6389
2026-01-12 22:55:58.78	35.39	19.97	-42.4	-47.1	10.6	3.30e-03	0	59	0	245366784	55	6497
2026-01-12 22:55:59.79	35.52	20.08	-42.4	-47.1	10.6	3.36e-03	0	58	0	247463936	55	6503
2026-01-12 22:56:00.80	35.64	20.20	-42.5	-47.2	10.5	3.40e-03	0	59	0	249561088	55	6574
2026-01-12 22:56:01.81	35.77	20.31	-42.4	-47.1	10.6	3.55e-03	0	58	0	250609664	55	6541
2026-01-12 22:56:02.82	35.89	20.43	-42.5	-47.2	10.5	3.74e-03	0	58	0	252706816	55	6607
2026-01-12 22:56:03.83	36.02	20.54	-42.5	-47.2	10.5	4.02e-03	0	58	0	254803968	55	6623
2026-01-12 22:56:04.84	36.15	20.66	-42.5	-47.2	10.5	4.09e-03	0	59	0	256901120	55	6590
2026-01-12 22:56:05.84	36.28	20.78	-42.5	-47.2	10.5	3.89e-03	0	59	0	258998272	55	6580
2026-01-12 22:56:06.85	36.41	20.89	-42.5	-47.1	10.5	3.82e-03	0	59	0	260046848	55	6569
2026-01-12 22:56:07.86	36.54	21.01	-42.5	-47.2	10.5	3.86e-03	0	59	0	262144000	55	6607
2026-01-12 22:56:08.87	36.67	21.13	-42.4	-47.1	10.6	3.32e-03	0	59	0	264241152	55	6503
2026-01-12 22:56:09.88	36.81	21.25	-42.4	-47.0	10.7	3.59e-03	0	59	0	266338304	55	6474
2026-01-12 22:56:10.89	36.94	21.37	-42.4	-47.1	10.6	3.16e-03	0	58	0	268435456	55	6512
2026-01-12 22:56:11.90	37.08	21.49	-42.5	-47.1	10.6	3.33e-03	0	59	0	269484032	55	6533
2026-01-12 22:56:12.91	37.22	21.61	-42.5	-47.1	10.6	3.42e-03	0	59	0	271581184	55	6525
2026-01-12 22:56:13.92	37.35	21.73	-42.5	-47.2	10.5	3.60e-03	0	59	0	273678336	55	6603
2026-01-12 22:56:14.93	37.49	21.85	-42.5	-47.3	10.5	4.34e-03	0	59	0	275775488	55	6661
2026-01-12 22:56:15.94	37.63	21.97	-42.5	-47.3	10.4	4.59e-03	0	59	0	277872640	55	6701
2026-01-12 22:56:16.95	37.77	22.09	-42.5	-47.3	10.4	4.92e-03	0	59	0	278921216	55	6698
2026-01-12 22:56:17.96	37.92	22.21	-42.6	-47.4	10.3	4.45e-03	0	59	0	281018368	55	6755
2026-01-12 22:56:18.97	38.06	22.33	-42.6	-47.4	10.4	4.96e-03	0	59	0	283115520	55	6736
2026-01-12 22:56:19.98	38.20	22.46	-42.6	-47.3	10.4	4.44e-03	0	59	0	285212672	55	6694
2026-01-12 22:56:20.99	38.35	22.58	-42.6	-47.3	10.4	4.49e-03	0	59	0	287309824	55	6716
2026-01-12 22:56:22.00	38.50	22.70	-42.6	-47.3	10.5	3.96e-03	0	59	0	289406976	55	6660
2026-01-12 22:56:23.01	38.64	22.83	-42.5	-47.2	10.5	3.75e-03	0	59	0	290455552	55	6625
2026-01-12 22:56:24.02	38.79	22.95	-42.5	-47.2	10.6	3.73e-03	0	59	0	292552704	55	6604
2026-01-12 22:56:25.03	38.94	23.08	-42.5	-47.2	10.6	3.65e-03	0	59	0	294649856	55	6596
2026-01-12 22:56:26.04	39.09	23.20	-42.5	-47.1	10.7	3.04e-03	0	59	0	296747008	55	6540
2026-01-12 22:56:27.05	39.24	23.33	-42.5	-47.1	10.7	3.02e-03	0	59	0	298844160	55	6506
2026-01-12 22:56:28.06	39.40	23.45	-42.5	-47.1	10.7	2.95e-03	0	59	0	299892736	55	6527
2026-01-12 22:56:29.07	39.55	23.58	-42.5	-47.0	10.8	2.70e-03	0	59	0	301989888	55	6488
2026-01-12 22:56:30.08	39.71	23.71	-42.5	-47.0	10.8	2.64e-03	0	59	0	304087040	55	6448
2026-01-12 22:56:31.09	39.87	23.84	-42.5	-47.0	10.9	2.37e-03	0	59	0	306184192	55	6423
2026-01-12 22:56:32.09	40.02	23.96	-42.5	-47.0	10.9	2.25e-03	0	59	0	308281344	55	6443
2026-01-12 22:56:33.10	40.18	24.09	-42.4	-46.9	10.9	2.33e-03	0	59	0	309329920	55	6388
2026-01-12 22:56:34.11	40.34	24.22	-42.5	-47.1	10.7	2.35e-03	0	59	0	311427072	55	6546
2026-01-12 22:56:35.12	40.51	24.35	-42.5	-47.0	10.8	2.60e-03	0	59	0	313524224	55	6465
2026-01-12 22:56:36.13	40.67	24.48	-42.5	-47.1	10.8	2.85e-03	0	59	0	315621376	55	6506
2026-01-12 22:56:37.14	40.83	24.61	-42.6	-47.1	10.7	2.74e-03	0	59	0	317718528	55	6570
2026-01-12 22:56:38.15	41.00	24.74	-42.6	-47.2	10.7	2.97e-03	0	59	0	318767104	55	6593
2026-01-12 22:56:39.16	41.17	24.87	-42.6	-47.2	10.7	3.30e-03	0	59	0	320864256	55	6580
2026-01-12 22:56:40.17	41.34	25.00	-42.6	-47.2	10.7	3.08e-03	0	59	0	322961408	55	6595
2026-01-12 22:56:41.18	41.51	25.13	-42.6	-47.2	10.6	3.44e-03	0	59	0	325058560	55	6646
2026-01-12 22:56:42.19	41.68	25.26	-42.6	-47.2	10.7	3.42e-03	0	59	0	327155712	55	6609
2026-01-12 22:56:43.20	41.85	25.39	-42.6	-47.2	10.6	3.10e-03	0	59	0	328204288	55	6636
2026-01-12 22:56:44.21	42.03	25.53	-42.6	-47.1	10.7	3.10e-03	0	59	0	330301440	55	6536
2026-01-12 22:56:45.22	42.20	25.66	-42.6	-47.2	10.7	2.81e-03	0	59	0	332398592	55	6601
2026-01-12 22:56:46.23	42.38	25.79	-42.6	-47.2	10.7	2.98e-03	0	59	0	334495744	55	6574
2026-01-12 22:56:47.24	42.56	25.93	-42.6	-47.3	10.6	2.82e-03	0	59	0	336592896	55	6660
2026-01-12 22:56:48.25	42.74	26.06	-42.6	-47.3	10.6	3.41e-03	0	59	0	337641472	55	6685
2026-01-12 22:56:49.25	42.92	26.19	-42.7	-47.5	10.4	3.96e-03	0	59	0	339738624	55	6821
2026-01-12 22:56:50.26	43.10	26.33	-42.9	-47.6	10.4	4.75e-03	0	59	0	341835776	56	6562
2026-01-12 22:56:51.27	43.29	26.46	-42.9	-47.6	10.4	4.57e-03	0	59	0	343932928	56	6555
2026-01-12 22:56:52.28	43.47	26.60	-42.9	-47.7	10.3	5.19e-03	0	59	0	346030080	56	6627
2026-01-12 22:56:53.29	43.66	26.74	-42.9	-47.6	10.4	4.52e-03	0	59	0	347078656	56	6558
2026-01-12 22:56:54.30	43.85	26.87	-42.9	-47.7	10.3	4.50e-03	0	59	0	349175808	56	6643
2026-01-12 22:56:55.31	44.04	27.01	-42.9	-47.7	10.3	4.97e-03	0	59	0	351272960	56	6615
2026-01-12 22:56:56.32	44.23	27.15	-42.9	-47.7	10.3	4.88e-03	0	59	0	353370112	56	6636
2026-01-12 22:56:57.33	44.43	27.28	-42.8	-47.5	10.6	4.36e-03	0	59	0	355467264	56	6480
2026-01-12 22:56:58.34	44.62	27.42	-42.8	-47.5	10.6	3.82e-03	0	59	0	357564416	56	6446
2026-01-12 22:56:59.35	44.82	27.56	-42.8	-47.4	10.6	3.23e-03	0	59	0	358612992	56	6415
2026-01-12 22:57:00.36	45.02	27.70	-42.9	-47.5	10.5	3.24e-03	0	59	0	360710144	56	6488
2026-01-12 22:57:01.37	45.22	27.84	-42.9	-47.6	10.4	4.16e-03	0	59	0	362807296	56	6555
2026-01-12 22:57:02.38	45.42	27.98	-43.0	-47.9	10.2	5.11e-03	0	59	0	364904448	56	6736
2026-01-12 22:57:03.39	45.63	28.12	-43.0	-48.0	10.1	6.17e-03	0	59	0	367001600	56	6819
2026-01-12 22:57:04.40	45.84	28.26	-43.0	-48.0	10.1	6.84e-03	0	59	0	368050176	56	6829
2026-01-12 22:57:05.41	46.04	28.40	-43.1	-48.0	10.1	8.10e-03	0	59	0	370147328	56	6838
2026-01-12 22:57:06.42	46.25	28.54	-43.0	-48.0	10.1	6.86e-03	0	59	0	372244480	56	6803
2026-01-12 22:57:07.43	46.46	28.68	-43.1	-48.1	10.0	7.75e-03	0	59	0	374341632	56	6915
2026-01-12 22:57:08.44	46.68	28.82	-43.1	-48.1	10.0	7.85e-03	0	59	0	376438784	56	6889
2026-01-12 22:57:09.45	46.89	28.96	-43.1	-48.0	10.1	7.33e-03	0	59	0	377487360	56	6867
2026-01-12 22:57:10.45	47.11	29.10	-43.1	-48.0	10.2	6.96e-03	0	59	0	379584512	56	6823
2026-01-12 22:57:11.46	47.33	29.24	-43.0	-47.9	10.2	6.07e-03	0	59	0	381681664	56	6758
2026-01-12 22:57:12.47	47.55	29.38	-43.0	-48.0	10.2	6.10e-03	0	59	0	383778816	56	6804
2026-01-12 22:57:13.48	47.77	29.53	-43.0	-47.9	10.2	6.02e-03	0	59	0	385875968	56	6759
2026-01-12 22:57:14.49	48.00	29.67	-43.1	-48.1	10.0	7.26e-03	0	59	0	386924544	56	6906
2026-01-12 22:57:15.50	48.22	29.81	-43.2	-48.3	9.8	1.01e-02	0	59	0	389021696	56	7079
2026-01-12 22:57:16.51	48.45	29.96	-43.2	-48.2	9.8	1.05e-02	0	59	0	391118848	56	7032
2026-01-12 22:57:17.52	48.68	30.10	-43.2	-48.3	9.9	1.01e-02	0	59	0	393216000	56	7061
2026-01-12 22:57:18.53	48.91	30.24	-43.1	-48.1	10.0	8.89e-03	0	59	0	395313152	56	6950
2026-01-12 22:57:19.54	49.15	30.39	-43.2	-48.2	9.9	7.79e-03	0	59	0	396361728	56	6991
2026-01-12 22:57:20.55	49.39	30.53	-43.3	-48.5	9.6	1.15e-02	0	59	0	398458880	57	6856
2026-01-12 22:57:21.56	49.63	30.68	-43.4	-48.8	9.3	1.46e-02	0	59	0	400556032	57	7057
2026-01-12 22:57:22.57	49.87	30.82	-43.4	-49.0	9.1	2.10e-02	0	59	0	402653184	57	7205
2026-01-12 22:57:23.58	50.11	30.97	-43.5	-49.1	9.0	2.71e-02	0	59	0	404750336	57	7366
2026-01-12 22:57:24.59	50.36	31.11	-43.5	-49.2	8.9	2.67e-02	0	59	0	405798912	57	7417
2026-01-12 22:57:25.60	50.60	31.26	-43.5	-49.1	9.0	2.98e-02	0	59	0	407896064	57	7309
2026-01-12 22:57:26.61	50.85	31.40	-43.5	-49.1	9.0	2.48e-02	0	59	0	409993216	57	7298
2026-01-12 22:57:27.62	51.10	31.55	-43.5	-49.0	9.1	2.34e-02	0	59	0	412090368	57	7261
2026-01-12 22:57:28.63	51.36	31.69	-43.5	-49.0	9.0	2.30e-02	0	59	0	414187520	57	7265
2026-01-12 22:57:29.65	51.62	31.84	-43.5	-49.2	8.9	2.51e-02	0	59	0	415236096	57	7399
2026-01-12 22:57:30.65	51.87	31.98	-43.6	-49.4	8.7	2.89e-02	0	59	0	417333248	57	7594
2026-01-12 22:57:31.67	52.14	32.13	-43.7	-49.7	8.4	3.72e-02	0	59	0	419430400	57	7826
2026-01-12 22:57:32.68	52.40	32.28	-43.8	-50.0	8.2	5.06e-02	0	59	0	421527552	58	7671
2026-01-12 22:57:33.69	52.67	32.42	-43.7	-49.6	8.5	4.97e-02	0	59	0	423624704	58	7328
2026-01-12 22:57:34.69	52.93	32.57	-43.6	-49.5	8.6	4.00e-02	0	59	0	425721856	58	7249
2026-01-12 22:57:35.70	53.20	32.71	-43.5	-49.1	9.0	2.99e-02	0	59	0	426770432	58	6941
2026-01-12 22:57:36.71	53.47	32.86	-43.4	-48.9	9.2	1.98e-02	0	59	0	428867584	58	6743
2026-01-12 22:57:37.72	53.75	33.00	-43.4	-48.9	9.2	2.00e-02	0	59	0	430964736	58	6777
2026-01-12 22:57:38.73	54.03	33.15	-43.5	-49.0	9.2	2.07e-02	0	59	0	433061888	58	6834
2026-01-12 22:57:39.74	54.31	33.30	-43.5	-49.1	9.1	2.00e-02	0	59	0	435159040	58	6911
2026-01-12 22:57:40.75	54.59	33.44	-43.7	-49.5	8.6	3.14e-02	0	59	0	436207616	58	7283
2026-01-12 22:57:41.76	54.87	33.59	-43.6	-49.5	8.6	3.59e-02	0	59	0	438304768	58	7214
2026-01-12 22:57:42.77	55.16	33.73	-43.7	-49.7	8.4	3.94e-02	0	59	0	440401920	58	7405
2026-01-12 22:57:43.78	55.45	33.88	-43.7	-49.5	8.6	3.74e-02	0	59	0	442499072	58	7243
2026-01-12 22:57:44.79	55.75	34.02	-43.6	-49.3	8.8	2.98e-02	0	60	0	444596224	58	7097
2026-01-12 22:57:45.80	56.04	34.17	-43.5	-49.0	9.2	2.66e-02	0	59	0	445644800	58	6809
2026-01-12 22:57:46.81	56.34	34.32	-43.4	-48.8	9.4	1.81e-02	0	59	0	447741952	58	6696
2026-01-12 22:57:47.81	56.64	34.46	-43.3	-48.4	9.8	1.11e-02	0	59	0	449839104	58	6375
2026-01-12 22:57:48.82	56.94	34.60	-43.2	-48.3	9.9	1.02e-02	0	59	0	451936256	58	6315
2026-01-12 22:57:49.83	57.25	34.75	-43.2	-48.2	10.0	8.28e-03	0	59	0	454033408	58	6237
2026-01-12 22:57:50.84	57.55	34.89	-43.2	-48.2	9.9	7.69e-03	0	59	0	455081984	58	6274
2026-01-12 22:57:51.85	57.87	35.04	-43.3	-48.4	9.8	8.85e-03	0	59	0	457179136	58	6360
2026-01-12 22:57:52.86	58.18	35.18	-43.4	-48.8	9.4	1.18e-02	0	59	0	459276288	58	6683
2026-01-12 22:57:53.87	58.50	35.33	-43.6	-49.3	8.9	2.55e-02	0	59	0	461373440	58	7112
2026-01-12 22:57:54.88	58.82	35.47	-43.8	-49.8	8.4	4.22e-02	0	59	0	463470592	58	7509
2026-01-12 22:57:55.89	59.14	35.61	-43.9	-50.2	8.0	5.22e-02	0	60	0	464519168	58	7826
2026-01-12 22:57:56.90	59.46	35.75	-43.8	-49.8	8.4	5.04e-02	0	59	0	466616320	58	7479
2026-01-12 22:57:57.91	59.79	35.90	-43.7	-49.4	8.7	3.72e-02	0	59	0	468713472	58	7195
2026-01-12 22:57:58.92	60.12	36.04	-43.5	-48.9	9.3	2.70e-02	0	59	0	470810624	58	6786
2026-01-12 22:57:59.93	60.46	36.18	-43.4	-48.6	9.7	1.31e-02	0	59	0	472907776	58	6525
2026-01-12 22:58:00.94	60.79	36.32	-43.3	-48.3	10.0	9.44e-03	0	60	0	473956352	58	6298
2026-01-12 22:58:01.95	61.13	36.46	-43.4	-48.5	9.7	9.27e-03	0	59	0	476053504	58	6479
2026-01-12 22:58:02.96	61.47	36.60	-43.5	-49.0	9.3	1.62e-02	0	59	0	478150656	58	6808
2026-01-12 22:58:03.97	61.82	36.74	-43.7	-49.7	8.5	2.92e-02	0	60	0	480247808	58	7423
2026-01-12 22:58:04.98	62.17	36.88	-43.8	-50.0	8.2	4.74e-02	0	59	0	482344960	58	7706
2026-01-12 22:58:05.98	62.51	37.02	-44.0	-50.4	7.8	7.63e-02	0	59	0	483393536	58	8043
2026-01-12 22:58:06.99	62.87	37.16	-43.8	-50.0	8.2	6.70e-02	0	59	0	485490688	58	7680
2026-01-12 22:58:08.00	63.23	37.29	-43.8	-49.7	8.6	4.72e-02	0	60	0	487587840	58	7387
2026-01-12 22:58:09.01	63.58	37.43	-43.6	-49.0	9.1	2.60e-02	0	60	0	489684992	58	6859
2026-01-12 22:58:10.02	63.95	37.56	-43.5	-48.9	9.4	1.66e-02	0	59	0	491782144	58	6754
2026-01-12 22:58:11.03	64.31	37.70	-43.4	-48.7	9.6	1.37e-02	0	60	0	493879296	58	6587
2026-01-12 22:58:12.04	64.68	37.83	-43.5	-48.9	9.3	1.34e-02	0	59	0	494927872	58	6770
2026-01-12 22:58:13.05	65.05	37.97	-43.6	-49.1	9.2	1.79e-02	0	59	0	497025024	58	6905
2026-01-12 22:58:14.06	65.43	38.10	-43.7	-49.5	8.6	2.91e-02	0	60	0	499122176	58	7277
2026-01-12 22:58:15.07	65.81	38.23	-43.8	-49.8	8.5	3.86e-02	0	60	0	501219328	58	7459
2026-01-12 22:58:16.08	66.19	38.36	-43.8	-49.8	8.4	4.40e-02	0	59	0	503316480	58	7516
2026-01-12 22:58:17.09	66.57	38.49	-43.8	-49.7	8.5	4.41e-02	0	60	0	504365056	58	7433
2026-01-12 22:58:18.10	66.96	38.62	-43.7	-49.4	8.8	3.93e-02	0	60	0	506462208	58	7161
2026-01-12 22:58:19.11	67.35	38.75	-43.5	-48.9	9.3	1.90e-02	0	59	0	508559360	58	6727
2026-01-12 22:58:20.11	67.74	38.88	-43.4	-48.5	9.7	1.27e-02	0	60	0	510656512	58	6472
2026-01-12 22:58:21.12	68.14	39.00	-43.3	-48.4	9.8	9.70e-03	0	59	0	512753664	58	6417
2026-01-12 22:58:22.13	68.53	39.13	-43.4	-48.6	9.7	1.09e-02	0	59	0	513802240	58	6512
2026-01-12 22:58:23.14	68.94	39.25	-43.5	-48.9	9.3	1.47e-02	0	60	0	515899392	58	6798
2026-01-12 22:58:24.15	69.34	39.38	-43.8	-49.7	8.6	2.74e-02	0	60	0	517996544	58	7381
2026-01-12 22:58:25.16	69.75	39.50	-43.9	-50.2	8.0	4.95e-02	0	60	0	520093696	58	7886
2026-01-12 22:58:26.17	70.16	39.62	-44.0	-50.6	7.6	8.56e-02	0	59	0	522190848	58	8215
2026-01-12 22:58:27.18	70.58	39.74	-44.0	-50.4	7.8	9.75e-02	0	60	0	523239424	58	8045
2026-01-12 22:58:28.19	70.99	39.86	-44.0	-50.4	7.9	7.94e-02	0	60	0	525336576	58	7995
2026-01-12 22:58:29.20	71.41	39.97	-43.8	-50.0	8.2	5.71e-02	0	60	0	527433728	58	7642
2026-01-12 22:58:30.21	71.84	40.09	-43.8	-49.8	8.4	4.81e-02	0	59	0	529530880	58	7524
2026-01-12 22:58:31.22	72.26	40.20	-43.7	-49.6	8.6	4.32e-02	0	60	0	531628032	58	7339
2026-01-12 22:58:32.23	72.69	40.32	-43.7	-49.4	8.9	3.27e-02	0	59	0	532676608	58	7186
2026-01-12 22:58:33.24	73.13	40.43	-43.6	-49.2	9.0	2.82e-02	0	59	0	534773760	58	7023
2026-01-12 22:58:34.25	73.56	40.54	-43.5	-48.8	9.4	1.99e-02	0	59	0	536870912	58	6681
2026-01-12 22:58:35.26	74.00	40.65	-43.4	-48.6	9.6	1.32e-02	0	60	0	538968064	58	6570
2026-01-12 22:58:36.27	74.44	40.75	-43.5	-48.9	9.3	1.50e-02	0	59	0	541065216	58	6763
2026-01-12 22:58:37.28	74.88	40.86	-43.5	-48.7	9.5	1.68e-02	0	59	0	542113792	58	6643
2026-01-12 22:58:38.29	75.33	40.96	-43.4	-48.6	9.7	1.34e-02	0	59	0	544210944	58	6526
2026-01-12 22:58:39.30	75.78	41.06	-43.3	-48.4	9.9	9.26e-03	0	59	0	546308096	58	6354
2026-01-12 22:58:40.31	76.23	41.17	-43.3	-48.3	10.0	9.02e-03	0	59	0	548405248	58	6327
2026-01-12 22:58:41.32	76.69	41.26	-43.4	-48.4	9.8	9.67e-03	0	60	0	550502400	58	6405
2026-01-12 22:58:42.33	77.15	41.36	-43.3	-48.4	9.9	9.76e-03	0	60	0	551550976	58	6393
2026-01-12 22:58:43.34	77.61	41.46	-43.3	-48.2	10.1	8.77e-03	0	60	0	553648128	58	6220
2026-01-12 22:58:44.35	78.07	41.55	-43.3	-48.2	10.1	6.47e-03	0	60	0	555745280	58	6213
2026-01-12 22:58:45.36	78.54	41.64	-43.3	-48.2	10.1	6.86e-03	0	60	0	557842432	58	6217
2026-01-12 22:58:46.37	79.01	41.73	-43.4	-48.6	9.7	8.73e-03	0	60	0	559939584	58	6515
2026-01-12 22:58:47.38	79.48	41.82	-43.7	-49.2	8.9	1.68e-02	0	60	0	562036736	58	7024
2026-01-12 22:58:48.38	79.95	41.90	-43.8	-49.8	8.4	4.17e-02	0	59	0	563085312	58	7538
2026-01-12 22:58:49.39	80.42	41.99	-43.8	-49.9	8.3	5.94e-02	0	60	0	565182464	58	7575
2026-01-12 22:58:50.40	80.90	42.07	-43.9	-50.0	8.2	5.94e-02	0	60	0	567279616	58	7651
2026-01-12 22:58:51.41	81.38	42.15	-43.7	-49.5	8.7	4.09e-02	0	60	0	569376768	58	7286
2026-01-12 22:58:52.42	81.87	42.23	-43.5	-48.8	9.4	2.04e-02	0	60	0	571473920	58	6705
2026-01-12 22:58:53.43	82.35	42.31	-43.4	-48.5	9.8	1.18e-02	0	60	0	572522496	58	6453
2026-01-12 22:58:54.44	82.84	42.38	-43.3	-48.4	9.9	8.39e-03	0	59	0	574619648	58	6364
2026-01-12 22:58:55.45	83.33	42.45	-43.4	-48.6	9.6	1.09e-02	0	60	0	576716800	58	6570
2026-01-12 22:58:56.46	83.82	42.52	-43.5	-48.8	9.4	1.50e-02	0	60	0	578813952	58	6694
2026-01-12 22:58:57.47	84.32	42.59	-43.4	-48.4	9.8	1.47e-02	0	60	0	580911104	58	6411
2026-01-12 22:58:58.47	84.81	42.65	-43.2	-48.0	10.3	7.08e-03	0	60	0	581959680	58	6095
2026-01-12 22:58:59.48	85.31	42.71	-43.1	-47.9	10.4	4.43e-03	0	60	0	584056832	58	6021
2026-01-12 22:59:00.49	85.81	42.78	-43.1	-47.7	10.7	3.30e-03	0	59	0	586153984	58	5885
2026-01-12 22:59:01.50	86.31	42.83	-43.0	-47.6	10.7	3.49e-03	0	59	0	588251136	58	5849
2026-01-12 22:59:02.51	86.81	42.89	-43.2	-47.9	10.4	3.26e-03	0	60	0	590348288	58	6050
2026-01-12 22:59:03.52	87.32	42.94	-43.3	-48.3	10.0	5.92e-03	0	60	0	591396864	58	6284
2026-01-12 22:59:04.53	87.83	42.99	-43.3	-48.2	10.1	8.29e-03	0	60	0	593494016	58	6261
2026-01-12 22:59:05.54	88.34	43.04	-43.2	-48.0	10.3	6.44e-03	0	60	0	595591168	58	6099
2026-01-12 22:59:06.55	88.85	43.09	-43.2	-48.0	10.3	5.45e-03	0	60	0	597688320	58	6068
2026-01-12 22:59:07.56	89.36	43.13	-43.3	-48.1	10.2	6.74e-03	0	60	0	599785472	58	6197
2026-01-12 22:59:08.57	89.87	43.18	-43.5	-48.8	9.5	1.04e-02	0	60	0	600834048	58	6664
2026-01-12 22:59:09.58	90.39	43.21	-43.5	-48.9	9.3	1.56e-02	0	60	0	602931200	58	6763
2026-01-12 22:59:10.59	90.90	43.25	-43.5	-48.7	9.5	1.59e-02	0	60	0	605028352	58	6604
2026-01-12 22:59:11.60	91.42	43.28	-43.1	-47.8	10.5	5.82e-03	0	60	0	607125504	58	5957
2026-01-12 22:59:12.61	91.94	43.32	-42.9	-47.4	10.9	2.62e-03	0	60	0	609222656	57	6018
2026-01-12 22:59:13.62	92.46	43.35	-42.9	-47.2	11.1	1.68e-03	0	60	0	610271232	57	5923
2026-01-12 22:59:14.63	92.98	43.37	-43.1	-47.7	10.6	2.50e-03	0	60	0	612368384	57	6203
2026-01-12 22:59:15.63	93.49	43.40	-43.2	-48.1	10.2	4.72e-03	0	60	0	614465536	57	6566
2026-01-12 22:59:16.64	94.01	43.42	-43.3	-48.4	9.9	7.82e-03	0	60	0	616562688	57	6744
2026-01-12 22:59:17.65	94.54	43.44	-43.1	-47.8	10.4	4.52e-03	0	60	0	618659840	57	6345
2026-01-12 22:59:18.66	95.06	43.45	-42.9	-47.2	11.1	2.41e-03	0	60	0	619708416	57	5908
2026-01-12 22:59:19.67	95.58	43.47	-42.7	-46.9	11.5	1.11e-03	0	60	0	621805568	57	5673
2026-01-12 22:59:20.68	96.11	43.48	-42.6	-46.7	11.7	6.31e-04	0	60	0	623902720	57	5575
2026-01-12 22:59:21.69	96.63	43.48	-42.8	-47.0	11.4	8.96e-04	0	60	0	625999872	57	5746
2026-01-12 22:59:22.70	97.15	43.49	-42.8	-47.1	11.3	1.26e-03	0	60	0	628097024	57	5813
2026-01-12 22:59:23.71	97.68	43.49	-42.7	-46.8	11.5	1.11e-03	0	60	0	629145600	57	5642
2026-01-12 22:59:24.72	98.20	43.49	-42.6	-46.6	11.7	6.42e-04	0	60	0	631242752	57	5513
2026-01-12 22:59:25.73	98.73	43.49	-42.6	-46.6	11.7	4.32e-04	0	60	0	633339904	57	5472
2026-01-12 22:59:26.74	99.25	43.49	-42.6	-46.7	11.7	5.43e-04	0	60	0	635437056	57	5562
2026-01-12 22:59:27.75	99.78	43.48	-42.5	-46.5	11.9	5.17e-04	0	60	0	637534208	57	5436
2026-01-12 22:59:28.76	100.30	43.47	-42.4	-46.2	12.2	2.95e-04	0	60	0	638582784	56	5553
2026-01-12 22:59:29.77	100.82	43.46	-42.4	-46.2	12.1	2.30e-04	0	60	0	640679936	56	5585
2026-01-12 22:59:30.78	101.35	43.44	-42.7	-46.9	11.6	5.88e-04	0	60	0	642777088	56	6003
2026-01-12 22:59:31.79	101.87	43.42	-43.0	-47.6	10.7	1.48e-03	0	59	0	644874240	56	6509
2026-01-12 22:59:32.80	102.39	43.40	-43.2	-48.0	10.3	4.22e-03	0	60	0	646971392	56	6824
2026-01-12 22:59:33.80	102.91	43.38	-43.1	-47.7	10.6	4.00e-03	0	60	0	648019968	56	6605
2026-01-12 22:59:34.82	103.43	43.36	-42.9	-47.3	11.0	2.11e-03	0	60	0	650117120	56	6318
2026-01-12 22:59:35.83	103.95	43.33	-42.8	-47.0	11.4	1.04e-03	0	60	0	652214272	56	6071
2026-01-12 22:59:36.84	104.47	43.30	-42.9	-47.3	11.1	1.44e-03	0	60	0	654311424	56	6331
2026-01-12 22:59:37.85	104.99	43.26	-43.2	-48.1	10.3	3.96e-03	0	60	0	656408576	56	6889
2026-01-12 22:59:38.86	105.51	43.23	-43.3	-48.4	9.9	8.53e-03	0	60	0	658505728	57	6727
2026-01-12 22:59:39.87	106.02	43.19	-43.2	-48.1	10.1	8.33e-03	0	60	0	659554304	57	6559
2026-01-12 22:59:40.88	106.54	43.15	-43.1	-47.8	10.6	4.79e-03	0	60	0	661651456	57	6279
2026-01-12 22:59:41.89	107.05	43.11	-43.1	-47.8	10.5	3.19e-03	0	60	0	663748608	57	6335
2026-01-12 22:59:42.90	107.56	43.06	-43.4	-48.5	9.8	5.45e-03	0	60	0	665845760	57	6814
2026-01-12 22:59:43.90	108.07	43.01	-43.4	-48.6	9.7	1.13e-02	0	60	0	667942912	57	6935
2026-01-12 22:59:44.92	108.58	42.96	-43.1	-47.7	10.6	6.55e-03	0	60	0	668991488	57	6245
2026-01-12 22:59:45.92	109.08	42.91	-42.8	-47.1	11.2	2.13e-03	0	60	0	671088640	57	5834
2026-01-12 22:59:46.93	109.59	42.85	-42.9	-47.4	11.0	1.41e-03	0	60	0	673185792	57	6026
2026-01-12 22:59:47.94	110.09	42.80	-43.2	-48.1	10.2	4.37e-03	0	60	0	675282944	57	6542
2026-01-12 22:59:48.95	110.59	42.74	-43.3	-48.4	9.9	8.15e-03	0	60	0	677380096	57	6738
2026-01-12 22:59:49.96	111.09	42.67	-43.2	-48.0	10.3	6.10e-03	0	60	0	678428672	57	6456
2026-01-12 22:59:50.97	111.59	42.61	-43.0	-47.6	10.8	2.94e-03	0	60	0	680525824	57	6133
2026-01-12 22:59:51.98	112.09	42.54	-43.1	-47.8	10.6	2.61e-03	0	60	0	682622976	57	6304
2026-01-12 22:59:52.99	112.58	42.47	-43.3	-48.4	10.0	5.64e-03	0	60	0	684720128	57	6737
2026-01-12 22:59:54.00	113.07	42.40	-43.3	-48.4	9.8	9.43e-03	0	60	0	686817280	57	6789
2026-01-12 22:59:55.00	113.56	42.33	-43.1	-47.9	10.4	8.25e-03	0	60	0	687865856	57	6373
2026-01-12 22:59:56.01	114.04	42.26	-42.8	-47.2	11.1	2.59e-03	0	60	0	689963008	57	5869
2026-01-12 22:59:57.03	114.53	42.18	-42.8	-47.1	11.3	1.18e-03	0	60	0	692060160	57	5789
2026-01-12 22:59:58.03	115.01	42.10	-43.0	-47.6	10.8	1.53e-03	0	60	0	694157312	57	6171
2026-01-12 22:59:59.04	115.49	42.02	-43.2	-48.1	10.3	3.75e-03	0	60	0	696254464	57	6510
2026-01-12 23:00:00.05	115.97	41.93	-43.3	-48.3	10.0	7.95e-03	0	60	0	697303040	57	6683
2026-01-12 23:00:01.06	116.45	41.85	-42.9	-47.2	11.1	3.80e-03	0	60	0	699400192	57	5923
2026-01-12 23:00:02.07	116.92	41.76	-42.7	-46.9	11.5	9.74e-04	0	60	0	701497344	57	5672
2026-01-12 23:00:03.09	117.39	41.67	-42.7	-46.8	11.6	5.78e-04	0	60	0	703594496	57	5614
2026-01-12 23:00:04.10	117.86	41.58	-42.9	-47.2	11.1	1.08e-03	0	60	0	705691648	57	5921
2026-01-12 23:00:05.11	118.33	41.48	-43.0	-47.5	10.9	2.36e-03	0	60	0	706740224	57	6075
2026-01-12 23:00:06.11	118.79	41.39	-42.4	-46.2	12.2	4.00e-04	0	60	0	708837376	56	5554
2026-01-12 23:00:07.12	119.25	41.29	-41.7	-45.0	13.2	3.96e-05	0	60	0	710934528	55	5159
2026-01-12 23:00:08.13	119.70	41.20	-41.6	-44.9	13.4	1.22e-05	0	60	0	713031680	55	5083
2026-01-12 23:00:09.15	120.16	41.09	-42.1	-45.8	12.5	2.36e-05	0	60	0	715128832	55	5629
2026-01-12 23:00:10.15	120.61	40.99	-42.6	-46.8	11.4	5.95e-04	0	60	0	716177408	55	6312
2026-01-12 23:00:11.16	121.06	40.89	-42.5	-46.7	11.6	1.27e-03	0	60	0	718274560	55	6223
2026-01-12 23:00:12.17	121.50	40.78	-42.0	-45.6	12.6	3.77e-04	0	60	0	720371712	55	5511
2026-01-12 23:00:13.19	121.95	40.68	-41.8	-45.2	13.1	3.43e-05	0	60	0	722468864	55	5278
2026-01-12 23:00:14.19	122.39	40.57	-41.8	-45.3	13.0	2.13e-05	0	60	0	724566016	55	5303
2026-01-12 23:00:15.20	122.83	40.46	-42.1	-45.8	12.5	7.47e-05	0	60	0	726663168	55	5647
2026-01-12 23:00:16.21	123.26	40.35	-42.4	-46.3	12.0	2.81e-04	0	60	0	727711744	55	5943
2026-01-12 23:00:17.22	123.69	40.23	-42.0	-45.5	12.8	1.44e-04	0	60	0	729808896	55	5443
2026-01-12 23:00:18.23	124.12	40.12	-41.7	-45.0	13.4	2.89e-05	0	60	0	731906048	55	5105
2026-01-12 23:00:19.24	124.55	40.00	-41.5	-44.7	13.6	6.80e-06	0	60	0	734003200	55	4980
2026-01-12 23:00:20.25	124.97	39.89	-41.8	-45.1	13.2	1.75e-05	0	60	0	736100352	55	5218
2026-01-12 23:00:21.26	125.39	39.77	-42.1	-45.7	12.6	4.19e-05	0	60	0	737148928	55	5554
2026-01-12 23:00:22.27	125.80	39.65	-42.2	-45.9	12.3	1.56e-04	0	60	0	739246080	55	5708
2026-01-12 23:00:23.28	126.22	39.53	-42.1	-45.7	12.6	1.48e-04	0	60	0	741343232	55	5557
2026-01-12 23:00:24.29	126.63	39.41	-41.8	-45.2	13.1	5.72e-05	0	60	0	743440384	55	5277
2026-01-12 23:00:25.30	127.04	39.28	-41.9	-45.5	12.9	3.58e-05	0	60	0	745537536	55	5404
2026-01-12 23:00:26.31	127.44	39.16	-42.3	-46.1	12.2	1.50e-04	0	60	0	746586112	55	5836
2026-01-12 23:00:27.32	127.84	39.03	-42.4	-46.3	11.9	3.58e-04	0	60	0	748683264	55	5987
2026-01-12 23:00:28.32	128.24	38.91	-42.3	-46.1	12.2	3.50e-04	0	60	0	750780416	55	5802
2026-01-12 23:00:29.33	128.63	38.78	-42.1	-45.8	12.5	1.19e-04	0	60	0	752877568	55	5596
2026-01-12 23:00:30.35	129.03	38.65	-42.0	-45.5	12.8	6.33e-05	0	60	0	754974720	55	5464
2026-01-12 23:00:31.36	129.42	38.52	-42.2	-45.9	12.4	7.62e-05	0	60	0	756023296	55	5693
2026-01-12 23:00:32.37	129.80	38.39	-42.3	-46.3	12.0	2.89e-04	0	60	0	758120448	55	5939
2026-01-12 23:00:33.37	130.18	38.26	-42.2	-45.9	12.4	2.59e-04	0	60	0	760217600	55	5719
2026-01-12 23:00:34.38	130.56	38.13	-42.1	-45.8	12.5	1.24e-04	0	60	0	762314752	55	5625
2026-01-12 23:00:35.39	130.94	38.00	-42.1	-45.9	12.5	1.36e-04	0	60	0	764411904	55	5661
2026-01-12 23:00:36.40	131.31	37.86	-42.2	-46.0	12.2	1.68e-04	0	60	0	765460480	55	5769
2026-01-12 23:00:37.41	131.68	37.73	-42.3	-46.3	12.0	2.74e-04	0	60	0	767557632	55	5927
2026-01-12 23:00:38.42	132.05	37.59	-42.4	-46.3	12.0	3.29e-04	0	60	0	769654784	55	5975
2026-01-12 23:00:39.43	132.42	37.45	-42.4	-46.4	11.8	4.57e-04	0	60	0	771751936	55	6054
2026-01-12 23:00:40.44	132.78	37.32	-42.5	-46.5	11.8	5.03e-04	0	60	0	773849088	55	6100
2026-01-12 23:00:41.45	133.14	37.18	-42.5	-46.6	11.7	5.10e-04	0	60	0	774897664	55	6163
2026-01-12 23:00:42.46	133.49	37.04	-42.3	-46.2	12.1	3.67e-04	0	60	0	776994816	55	5886
2026-01-12 23:00:43.47	133.85	36.90	-42.1	-45.8	12.4	1.62e-04	0	60	0	779091968	55	5652
2026-01-12 23:00:44.48	134.20	36.76	-41.8	-45.2	13.1	8.08e-05	0	60	0	781189120	55	5256
2026-01-12 23:00:45.49	134.54	36.62	-41.5	-44.7	13.6	6.80e-06	0	60	0	783286272	55	4966
2026-01-12 23:00:46.50	134.89	36.48	-41.5	-44.7	13.6	9.10e-06	0	60	0	784334848	55	4963
2026-01-12 23:00:47.51	135.23	36.34	-42.0	-45.5	12.8	1.44e-05	0	60	0	786432000	55	5431
2026-01-12 23:00:48.52	135.57	36.20	-42.4	-46.4	11.9	2.70e-04	0	60	0	788529152	55	6002
2026-01-12 23:00:49.53	135.90	36.06	-42.5	-46.6	11.7	5.86e-04	0	60	0	790626304	55	6160
2026-01-12 23:00:50.54	136.23	35.92	-42.2	-46.0	12.3	4.67e-04	0	60	0	792723456	55	5733
2026-01-12 23:00:51.55	136.56	35.77	-41.8	-45.2	13.1	1.01e-04	0	60	0	794820608	55	5253
2026-01-12 23:00:52.56	136.89	35.63	-41.9	-45.3	13.0	3.50e-05	0	60	0	795869184	55	5333
2026-01-12 23:00:53.57	137.21	35.49	-42.3	-46.1	12.2	1.03e-04	0	60	0	797966336	55	5829
2026-01-12 23:00:54.58	137.54	35.34	-42.9	-47.4	11.0	6.10e-04	0	60	0	800063488	56	6381
2026-01-12 23:00:55.59	137.85	35.20	-43.0	-47.6	10.8	2.62e-03	0	60	0	802160640	56	6503
2026-01-12 23:00:56.60	138.17	35.05	-42.7	-46.9	11.5	1.41e-03	0	60	0	804257792	56	6043
2026-01-12 23:00:57.61	138.48	34.91	-42.5	-46.5	11.9	5.72e-04	0	60	0	805306368	56	5758
2026-01-12 23:00:58.62	138.79	34.76	-42.4	-46.2	12.2	2.72e-04	0	60	0	807403520	56	5584
2026-01-12 23:00:59.63	139.10	34.62	-42.6	-46.6	11.8	2.72e-04	0	60	0	809500672	56	5845
2026-01-12 23:01:00.64	139.41	34.47	-43.0	-47.5	10.8	1.03e-03	0	60	0	811597824	56	6480
2026-01-12 23:01:01.65	139.71	34.32	-43.4	-48.5	9.8	7.70e-03	0	60	0	813694976	57	6831
2026-01-12 23:01:02.66	140.01	34.18	-43.4	-48.6	9.7	1.53e-02	0	60	0	814743552	57	6937
2026-01-12 23:01:03.67	140.30	34.03	-42.8	-47.1	11.2	5.86e-03	0	60	0	816840704	57	5849
2026-01-12 23:01:04.67	140.60	33.89	-42.1	-45.7	12.7	1.44e-04	0	60	0	818937856	56	5266
2026-01-12 23:01:05.68	140.89	33.74	-41.6	-44.9	13.3	1.75e-05	0	60	0	821035008	55	5084
2026-01-12 23:01:06.69	141.18	33.59	-41.9	-45.3	13.0	1.98e-05	0	60	0	823132160	55	5339
2026-01-12 23:01:07.71	141.47	33.45	-42.4	-46.4	11.8	1.07e-04	0	60	0	824180736	55	6041
2026-01-12 23:01:08.71	141.75	33.30	-43.4	-48.7	9.6	4.80e-03	0	60	0	826277888	57	7026
2026-01-12 23:01:09.72	142.03	33.15	-43.8	-49.8	8.4	3.38e-02	0	60	0	828375040	58	7515
2026-01-12 23:01:10.73	142.31	33.01	-43.4	-48.7	9.6	3.42e-02	0	60	0	830472192	58	6590
2026-01-12 23:01:11.74	142.58	32.86	-42.9	-47.3	11.0	3.15e-03	0	60	0	832569344	57	5947
2026-01-12 23:01:12.75	142.86	32.71	-42.6	-46.8	11.6	8.08e-04	0	60	0	833617920	57	5627
2026-01-12 23:01:13.76	143.13	32.57	-42.5	-46.6	11.8	6.37e-04	0	60	0	835715072	57	5479
2026-01-12 23:01:14.77	143.40	32.42	-42.9	-47.5	10.8	1.51e-03	0	60	0	837812224	57	6119
2026-01-12 23:01:15.78	143.67	32.27	-43.5	-49.1	9.1	9.46e-03	0	60	0	839909376	57	7343
2026-01-12 23:01:16.79	143.93	32.13	-44.0	-50.5	7.7	4.85e-02	0	60	0	842006528	58	8166
2026-01-12 23:01:17.80	144.19	31.98	-43.9	-50.3	7.9	8.40e-02	0	60	0	843055104	58	7921
2026-01-12 23:01:18.81	144.45	31.83	-43.4	-48.7	9.5	2.85e-02	0	60	0	845152256	58	6608
2026-01-12 23:01:19.82	144.71	31.69	-42.7	-47.0	11.3	4.15e-03	0	60	0	847249408	57	5766
2026-01-12 23:01:20.83	144.97	31.54	-42.3	-46.1	12.3	3.10e-04	0	60	0	849346560	56	5499
2026-01-12 23:01:21.84	145.22	31.39	-42.3	-46.1	12.3	1.54e-04	0	60	0	851443712	56	5479
2026-01-12 23:01:22.84	145.47	31.25	-42.5	-46.4	11.9	1.79e-04	0	60	0	852492288	56	5713
2026-01-12 23:01:23.85	145.72	31.10	-43.0	-47.5	10.8	8.44e-04	0	60	0	854589440	56	6492
2026-01-12 23:01:24.86	145.96	30.96	-43.5	-49.0	9.2	1.15e-02	0	60	0	856686592	57	7267
2026-01-12 23:01:25.87	146.21	30.81	-43.7	-49.6	8.6	3.45e-02	0	60	0	858783744	57	7802
2026-01-12 23:01:26.88	146.45	30.67	-43.4	-48.7	9.6	3.09e-02	0	60	0	860880896	57	6966
2026-01-12 23:01:27.89	146.69	30.52	-43.0	-47.5	10.7	4.16e-03	0	60	0	862978048	57	6118
2026-01-12 23:01:28.90	146.93	30.38	-42.6	-46.8	11.6	9.70e-04	0	60	0	864026624	57	5610
2026-01-12 23:01:29.91	147.16	30.23	-42.5	-46.5	11.8	5.68e-04	0	60	0	866123776	57	5446
2026-01-12 23:01:30.92	147.40	30.09	-42.6	-46.7	11.6	5.65e-04	0	60	0	868220928	56	5920
2026-01-12 23:01:31.93	147.63	29.94	-42.9	-47.4	10.9	1.47e-03	0	60	0	870318080	56	6413
2026-01-12 23:01:32.94	147.86	29.80	-43.4	-48.7	9.5	5.16e-03	0	60	0	872415232	57	6971
2026-01-12 23:01:33.95	148.09	29.65	-43.8	-50.0	8.2	4.65e-02	0	60	0	873463808	58	7653
2026-01-12 23:01:34.96	148.31	29.51	-43.9	-50.5	7.7	8.52e-02	0	60	0	875560960	58	8153
2026-01-12 23:01:35.97	148.54	29.37	-43.6	-49.2	8.9	5.81e-02	0	60	0	877658112	58	7039
2026-01-12 23:01:36.98	148.76	29.22	-43.1	-47.8	10.4	6.55e-03	0	60	0	879755264	58	5986
2026-01-12 23:01:37.99	148.98	29.08	-42.5	-46.7	11.6	1.23e-03	0	60	0	881852416	57	5547
2026-01-12 23:01:39.00	149.20	28.94	-42.3	-46.2	12.1	3.52e-04	0	60	0	882900992	56	5564
2026-01-12 23:01:40.01	149.41	28.79	-42.2	-46.0	12.3	2.64e-04	0	60	0	884998144	56	5436
2026-01-12 23:01:41.02	149.63	28.65	-42.3	-46.1	12.2	1.77e-04	0	60	0	887095296	56	5505
2026-01-12 23:01:42.03	149.84	28.51	-42.6	-46.8	11.5	3.77e-04	0	60	0	889192448	56	5963
2026-01-12 23:01:43.04	150.05	28.37	-42.9	-47.6	10.6	1.70e-03	0	60	0	891289600	56	6554
2026-01-12 23:01:44.05	150.26	28.23	-43.2	-48.3	9.9	7.51e-03	0	60	0	892338176	56	7097
2026-01-12 23:01:45.05	150.47	28.09	-43.3	-48.6	9.6	1.21e-02	0	60	0	894435328	57	6910
2026-01-12 23:01:46.07	150.67	27.95	-43.2	-48.4	9.8	1.25e-02	0	60	0	896532480	57	6743
2026-01-12 23:01:47.07	150.87	27.81	-43.1	-48.0	10.2	6.93e-03	0	60	0	898629632	57	6432
2026-01-12 23:01:48.08	151.08	27.67	-42.8	-47.2	11.0	2.88e-03	0	60	0	900726784	57	5863
2026-01-12 23:01:49.09	151.28	27.53	-42.6	-46.8	11.4	1.13e-03	0	60	0	901775360	57	5633
2026-01-12 23:01:50.10	151.47	27.39	-42.5	-46.6	11.6	7.57e-04	0	60	0	903872512	57	5522
2026-01-12 23:01:51.11	151.67	27.25	-42.5	-46.7	11.6	5.97e-04	0	60	0	905969664	56	5872
2026-01-12 23:01:52.12	151.87	27.11	-42.6	-46.8	11.4	8.32e-04	0	60	0	908066816	56	5971
2026-01-12 23:01:53.13	152.06	26.97	-42.6	-47.0	11.3	9.42e-04	0	60	0	910163968	56	6066
2026-01-12 23:01:54.14	152.25	26.84	-42.8	-47.3	10.9	1.68e-03	0	60	0	911212544	56	6331
2026-01-12 23:01:55.15	152.44	26.70	-42.8	-47.3	10.9	2.42e-03	0	60	0	913309696	56	6333
2026-01-12 23:01:56.16	152.63	26.56	-42.8	-47.3	10.9	2.19e-03	0	60	0	915406848	56	6319
2026-01-12 23:01:57.17	152.82	26.42	-42.8	-47.3	10.9	2.44e-03	0	60	0	917504000	56	6285
2026-01-12 23:01:58.18	153.00	26.29	-42.6	-46.9	11.4	1.29e-03	0	60	0	919601152	56	6011
2026-01-12 23:01:59.19	153.19	26.15	-42.5	-46.7	11.5	9.51e-04	0	60	0	920649728	56	5886
2026-01-12 23:02:00.20	153.37	26.02	-42.4	-46.5	11.7	6.00e-04	0	60	0	922746880	56	5761
2026-01-12 23:02:01.21	153.55	25.88	-42.3	-46.3	12.0	3.73e-04	0	60	0	924844032	56	5619
2026-01-12 23:02:02.22	153.73	25.75	-42.4	-46.5	11.7	4.26e-04	0	60	0	926941184	56	5764
2026-01-12 23:02:03.23	153.91	25.61	-42.4	-46.5	11.7	5.49e-04	0	60	0	929038336	56	5733
2026-01-12 23:02:04.24	154.08	25.48	-42.5	-46.7	11.5	6.03e-04	0	60	0	931135488	56	5921
2026-01-12 23:02:05.25	154.26	25.34	-42.6	-46.9	11.3	9.28e-04	0	60	0	932184064	56	6048
2026-01-12 23:02:06.26	154.43	25.21	-42.6	-47.0	11.2	1.37e-03	0	60	0	934281216	56	6063
2026-01-12 23:02:07.27	154.60	25.08	-42.6	-47.0	11.2	1.58e-03	0	60	0	936378368	56	6101
2026-01-12 23:02:08.28	154.78	24.95	-42.7	-47.0	11.2	1.39e-03	0	60	0	938475520	56	6115
2026-01-12 23:02:09.29	154.94	24.81	-42.6	-46.9	11.3	1.31e-03	0	60	0	940572672	56	6018
2026-01-12 23:02:10.30	155.11	24.68	-42.5	-46.7	11.5	8.85e-04	0	60	0	941621248	56	5909
2026-01-12 23:02:11.31	155.28	24.55	-42.5	-46.7	11.5	7.95e-04	0	60	0	943718400	56	5895
2026-01-12 23:02:12.32	155.44	24.42	-42.4	-46.5	11.7	6.10e-04	0	60	0	945815552	56	5727
2026-01-12 23:02:13.32	155.61	24.29	-42.4	-46.4	11.8	4.85e-04	0	60	0	947912704	56	5688
2026-01-12 23:02:14.34	155.77	24.16	-42.3	-46.4	11.8	4.85e-04	0	60	0	950009856	56	5673
2026-01-12 23:02:15.34	155.93	24.03	-42.3	-46.4	11.8	5.63e-04	0	60	0	951058432	56	5677
2026-01-12 23:02:16.35	156.09	23.90	-42.3	-46.4	11.8	4.80e-04	0	60	0	953155584	56	5676
2026-01-12 23:02:17.36	156.25	23.77	-42.4	-46.5	11.7	5.13e-04	0	60	0	955252736	56	5735
2026-01-12 23:02:18.38	156.41	23.64	-42.3	-46.3	11.8	5.13e-04	0	60	0	957349888	56	5651
2026-01-12 23:02:19.38	156.56	23.52	-42.3	-46.3	11.8	4.24e-04	0	60	0	959447040	56	5654
2026-01-12 23:02:20.39	156.72	23.39	-42.4	-46.5	11.7	6.19e-04	0	60	0	960495616	56	5746
2026-01-12 23:02:21.40	156.87	23.26	-42.4	-46.5	11.6	5.81e-04	0	60	0	962592768	56	5755
2026-01-12 23:02:22.41	157.02	23.14	-42.6	-46.9	11.3	1.13e-03	0	60	0	964689920	56	6002
2026-01-12 23:02:23.42	157.18	23.01	-42.6	-47.0	11.1	1.67e-03	0	60	0	966787072	56	6109
2026-01-12 23:02:24.43	157.33	22.88	-42.8	-47.4	10.7	2.26e-03	0	60	0	968884224	56	6380
2026-01-12 23:02:25.44	157.48	22.76	-42.9	-47.6	10.4	4.06e-03	0	60	0	969932800	56	6568
2026-01-12 23:02:26.45	157.62	22.63	-42.8	-47.6	10.5	4.06e-03	0	60	0	972029952	56	6514
2026-01-12 23:02:27.46	157.77	22.51	-42.9	-47.7	10.4	4.12e-03	0	60	0	974127104	56	6602
2026-01-12 23:02:28.47	157.92	22.39	-42.8	-47.5	10.6	4.51e-03	0	60	0	976224256	56	6443
2026-01-12 23:02:29.48	158.06	22.26	-42.7	-47.3	10.8	2.83e-03	0	60	0	978321408	56	6309
2026-01-12 23:02:30.49	158.20	22.14	-42.7	-47.3	10.8	2.69e-03	0	60	0	979369984	56	6278
2026-01-12 23:02:31.50	158.35	22.02	-42.5	-46.9	11.2	1.81e-03	0	60	0	981467136	56	6027
2026-01-12 23:02:32.51	158.49	21.89	-42.5	-46.9	11.2	1.27e-03	0	60	0	983564288	56	6019
2026-01-12 23:02:33.52	158.63	21.77	-42.5	-46.9	11.2	1.43e-03	0	60	0	985661440	56	6010
2026-01-12 23:02:34.53	158.77	21.65	-42.6	-47.0	11.1	1.43e-03	0	60	0	987758592	56	6085
2026-01-12 23:02:35.53	158.90	21.53	-42.7	-47.2	10.9	2.03e-03	0	60	0	988807168	56	6233
2026-01-12 23:02:36.54	159.04	21.41	-42.7	-47.3	10.8	2.33e-03	0	60	0	990904320	56	6309
2026-01-12 23:02:37.55	159.18	21.29	-42.7	-47.4	10.7	3.21e-03	0	60	0	993001472	56	6384
2026-01-12 23:02:38.56	159.31	21.17	-42.7	-47.4	10.6	3.20e-03	0	60	0	995098624	56	6389
2026-01-12 23:02:39.57	159.44	21.05	-42.7	-47.4	10.6	3.24e-03	0	60	0	997195776	56	6356
2026-01-12 23:02:40.58	159.58	20.93	-42.7	-47.3	10.7	2.84e-03	0	60	0	999292928	56	6324
2026-01-12 23:02:41.59	159.71	20.81	-42.6	-47.2	10.8	3.08e-03	0	60	0	1000341504	56	6226
2026-01-12 23:02:42.60	159.84	20.69	-42.6	-47.1	10.9	2.26e-03	0	60	0	1002438656	56	6189
2026-01-12 23:02:43.61	159.97	20.58	-42.6	-47.1	10.9	1.93e-03	0	60	0	1004535808	56	6168
2026-01-12 23:02:44.62	160.10	20.46	-42.6	-47.0	11.0	1.87e-03	0	60	0	1006632960	56	6095
2026-01-12 23:02:45.63	160.23	20.34	-42.5	-47.0	11.1	1.82e-03	0	60	0	1008730112	56	6062
2026-01-12 23:02:46.64	160.35	20.22	-42.6	-47.1	11.0	2.04e-03	0	60	0	1009778688	56	6132
2026-01-12 23:02:47.65	160.48	20.11	-42.6	-47.1	10.9	2.12e-03	0	60	0	1011875840	56	6140
2026-01-12 23:02:48.66	160.61	19.99	-42.6	-47.1	10.9	2.26e-03	0	60	0	1013972992	56	6174
2026-01-12 23:02:49.67	160.73	19.88	-42.6	-47.2	10.8	2.68e-03	0	60	0	1016070144	56	6240
2026-01-12 23:02:50.68	160.85	19.76	-42.6	-47.3	10.7	2.96e-03	0	60	0	1018167296	56	6275
2026-01-12 23:02:51.69	160.98	19.65	-42.7	-47.3	10.6	2.97e-03	0	60	0	1019215872	56	6332
2026-01-12 23:02:52.70	161.10	19.53	-42.7	-47.3	10.6	3.16e-03	0	60	0	1021313024	56	6332
2026-01-12 23:02:53.71	161.22	19.42	-42.7	-47.3	10.6	3.69e-03	0	60	0	1023410176	56	6343
2026-01-12 23:02:54.72	161.34	19.31	-42.7	-47.4	10.5	3.46e-03	0	60	0	1025507328	56	6386
2026-01-12 23:02:55.73	161.46	19.19	-42.7	-47.4	10.5	4.05e-03	0	60	0	1027604480	56	6403
2026-01-12 23:02:56.73	161.57	19.08	-42.7	-47.4	10.5	4.03e-03	0	60	0	1028653056	56	6401
2026-01-12 23:02:57.74	161.69	18.97	-42.7	-47.5	10.4	4.08e-03	0	60	0	1030750208	56	6469
2026-01-12 23:02:58.75	161.81	18.86	-42.8	-47.6	10.4	4.96e-03	0	60	0	1032847360	56	6510
2026-01-12 23:02:59.77	161.93	18.74	-42.8	-47.7	10.2	5.15e-03	0	60	0	1034944512	56	6603
2026-01-12 23:03:00.77	162.04	18.63	-42.9	-47.9	10.0	6.10e-03	0	60	0	1037041664	56	6734
2026-01-12 23:03:01.78	162.15	18.52	-42.8	-47.8	10.1	7.70e-03	0	60	0	1038090240	56	6680
2026-01-12 23:03:02.79	162.27	18.41	-42.8	-47.8	10.0	7.18e-03	0	60	0	1040187392	56	6711
2026-01-12 23:03:03.80	162.38	18.30	-42.9	-47.9	10.0	7.63e-03	0	60	0	1042284544	56	6762
2026-01-12 23:03:04.81	162.49	18.19	-42.8	-47.8	10.0	7.40e-03	0	60	0	1044381696	56	6706
2026-01-12 23:03:05.82	162.60	18.08	-42.9	-47.9	10.0	7.18e-03	0	60	0	1046478848	56	6724
2026-01-12 23:03:06.83	162.71	17.98	-42.9	-47.9	10.0	8.44e-03	0	60	0	1047527424	56	6744
2026-01-12 23:03:07.84	162.82	17.87	-42.8	-47.8	10.0	7.34e-03	0	60	0	1049624576	56	6715
2026-01-12 23:03:08.85	162.93	17.76	-42.8	-47.8	10.0	7.46e-03	0	60	0	1051721728	56	6689
2026-01-12 23:03:09.86	163.04	17.65	-42.7	-47.6	10.3	6.49e-03	0	60	0	1053818880	56	6524
2026-01-12 23:03:10.87	163.15	17.54	-42.8	-47.6	10.2	6.11e-03	0	60	0	1055916032	56	6568
2026-01-12 23:03:11.88	163.25	17.44	-42.8	-47.7	10.2	6.03e-03	0	60	0	1056964608	56	6572
2026-01-12 23:03:12.89	163.36	17.33	-42.7	-47.6	10.3	5.50e-03	0	60	0	1059061760	56	6514
2026-01-12 23:03:13.90	163.46	17.23	-42.8	-47.7	10.2	5.86e-03	0	60	0	1061158912	56	6575
2026-01-12 23:03:14.90	163.57	17.12	-42.7	-47.6	10.3	6.03e-03	0	60	0	1063256064	56	6515
2026-01-12 23:03:15.92	163.67	17.01	-42.7	-47.6	10.2	5.52e-03	0	60	0	1065353216	56	6513
2026-01-12 23:03:16.93	163.77	16.91	-42.7	-47.6	10.2	6.07e-03	0	60	0	1067450368	56	6507
2026-01-12 23:03:17.94	163.88	16.80	-42.7	-47.5	10.3	5.57e-03	0	60	0	1068498944	56	6452
2026-01-12 23:03:18.94	163.98	16.70	-42.7	-47.6	10.1	5.52e-03	0	60	0	1070596096	56	6561
2026-01-12 23:03:19.95	164.08	16.60	-42.7	-47.6	10.2	6.11e-03	0	60	0	1072693248	56	6499
2026-01-12 23:03:20.96	164.18	16.49	-42.7	-47.5	10.2	5.93e-03	0	60	0	1074790400	56	6481
2026-01-12 23:03:21.98	164.28	16.39	-42.7	-47.6	10.2	6.02e-03	0	60	0	1076887552	56	6501
2026-01-12 23:03:22.98	164.38	16.29	-42.7	-47.5	10.2	6.31e-03	0	60	0	1077936128	56	6486
2026-01-12 23:03:23.99	164.47	16.18	-42.6	-47.4	10.3	5.53e-03	0	60	0	1080033280	56	6403
2026-01-12 23:03:25.00	164.57	16.08	-42.6	-47.4	10.3	5.99e-03	0	60	0	1082130432	56	6418
2026-01-12 23:03:26.01	164.67	15.98	-42.6	-47.4	10.3	5.50e-03	0	60	0	1084227584	56	6384
2026-01-12 23:03:27.02	164.77	15.88	-42.6	-47.4	10.3	4.95e-03	0	60	0	1086324736	56	6368
2026-01-12 23:03:28.03	164.86	15.78	-42.6	-47.3	10.4	4.62e-03	0	60	0	1087373312	56	6315
2026-01-12 23:03:29.04	164.96	15.68	-42.6	-47.3	10.4	4.43e-03	0	60	0	1089470464	56	6321
2026-01-12 23:03:30.05	165.05	15.58	-42.6	-47.3	10.4	4.49e-03	0	60	0	1091567616	56	6339
2026-01-12 23:03:31.06	165.14	15.48	-42.6	-47.4	10.3	4.79e-03	0	60	0	1093664768	56	6357
2026-01-12 23:03:32.06	165.24	15.38	-42.6	-47.5	10.2	5.56e-03	0	60	0	1095761920	56	6436
2026-01-12 23:03:33.07	165.33	15.28	-42.6	-47.6	10.1	5.89e-03	0	60	0	1096810496	56	6503
2026-01-12 23:03:34.08	165.42	15.18	-42.6	-47.5	10.1	6.42e-03	0	60	0	1098907648	56	6463
2026-01-12 23:03:35.09	165.51	15.08	-42.7	-47.6	10.0	7.89e-03	0	60	0	1101004800	56	6568
2026-01-12 23:03:36.10	165.60	14.98	-42.7	-47.7	9.9	8.47e-03	0	60	0	1103101952	56	6646
2026-01-12 23:03:37.11	165.69	14.88	-42.7	-47.8	9.8	9.66e-03	0	60	0	1105199104	56	6700
2026-01-12 23:03:38.12	165.78	14.79	-42.8	-48.1	9.5	1.15e-02	0	60	0	1106247680	56	6883
2026-01-12 23:03:39.13	165.87	14.69	-42.8	-48.0	9.6	1.38e-02	0	60	0	1108344832	56	6876
2026-01-12 23:03:40.14	165.96	14.59	-42.9	-48.2	9.4	1.76e-02	0	60	0	1110441984	56	6999
2026-01-12 23:03:41.15	166.05	14.50	-42.9	-48.2	9.3	1.71e-02	0	60	0	1112539136	56	7019
2026-01-12 23:03:42.16	166.14	14.40	-42.9	-48.3	9.2	1.86e-02	0	60	0	1114636288	56	7078
2026-01-12 23:03:43.17	166.22	14.30	-42.9	-48.4	9.2	1.99e-02	0	60	0	1115684864	56	7145
2026-01-12 23:03:44.18	166.31	14.21	-42.8	-48.3	9.3	1.85e-02	0	60	0	1117782016	56	7041
2026-01-12 23:03:45.19	166.40	14.11	-42.9	-48.3	9.3	1.96e-02	0	60	0	1119879168	56	7080
2026-01-12 23:03:46.20	166.48	14.02	-42.8	-48.2	9.3	1.78e-02	0	60	0	1121976320	56	7005
2026-01-12 23:03:47.21	166.57	13.92	-42.8	-48.1	9.4	1.64e-02	0	60	0	1124073472	56	6937
2026-01-12 23:03:48.22	166.65	13.83	-42.7	-48.0	9.5	1.56e-02	0	60	0	1125122048	56	6817
2026-01-12 23:03:49.22	166.74	13.73	-42.7	-47.9	9.7	1.24e-02	0	60	0	1127219200	56	6737
2026-01-12 23:03:50.23	166.82	13.64	-42.7	-47.8	9.7	1.13e-02	0	60	0	1129316352	56	6673
2026-01-12 23:03:51.24	166.90	13.55	-42.6	-47.6	9.9	9.23e-03	0	60	0	1131413504	56	6501
2026-01-12 23:03:52.25	166.98	13.45	-42.5	-47.5	10.0	7.11e-03	0	60	0	1133510656	56	6458
2026-01-12 23:03:53.26	167.07	13.36	-42.5	-47.4	10.1	6.51e-03	0	60	0	1135607808	56	6358
2026-01-12 23:03:54.27	167.15	13.27	-42.4	-47.2	10.3	5.45e-03	0	60	0	1136656384	56	6213
2026-01-12 23:03:55.28	167.23	13.18	-42.4	-47.1	10.4	4.76e-03	0	60	0	1138753536	56	6158
2026-01-12 23:03:56.29	167.31	13.08	-42.4	-47.2	10.3	5.13e-03	0	60	0	1140850688	56	6211
2026-01-12 23:03:57.30	167.39	12.99	-42.4	-47.2	10.3	5.36e-03	0	60	0	1142947840	56	6225
2026-01-12 23:03:58.31	167.47	12.90	-42.4	-47.1	10.3	4.79e-03	0	60	0	1143996416	56	6202
2026-01-12 23:03:59.32	167.55	12.81	-42.4	-47.2	10.3	5.77e-03	0	60	0	1146093568	56	6211
2026-01-12 23:04:00.33	167.63	12.72	-42.4	-47.3	10.1	6.00e-03	0	60	0	1148190720	56	6283
2026-01-12 23:04:01.34	167.70	12.63	-42.4	-47.3	10.1	6.92e-03	0	60	0	1150287872	56	6335
2026-01-12 23:04:02.35	167.78	12.54	-42.5	-47.4	9.9	7.67e-03	0	60	0	1152385024	56	6417
2026-01-12 23:04:03.35	167.86	12.45	-42.5	-47.5	9.9	9.48e-03	0	60	0	1153433600	56	6426
2026-01-12 23:04:04.36	167.93	12.36	-42.6	-47.7	9.6	1.10e-02	0	60	0	1155530752	56	6630
