passes_logs/2026/01/12/R2.0S_Moscow/R2.0S_Moscow__20260112_020640_AQUA_rec.log

#Pass ID: 20260112_020640_AQUA
#Satellite: AQUA
#Configuration: AQUA
#almurnet v.1.7.20251203
#Start time: 2026-01-12 02:06:42

#Version: 2.2.20231116
#Station: R2.0S_Moscow
#Location: 37.707566 lon 55.798166 lat
#TLE: 1 27424U 02022A   26011.34052177  .00001139  00000+0  23789-3 0  9999
#TLE: 2 27424  98.4078 337.7066 0002035  82.6124  44.5301 14.61815662260355

#Time	Az	El	Level	Level2	SNR	BER	BlckErr	Temp	State	Recorded	gain1	gain2
2026-01-12 02:06:42.38	11.11	2.11	-40.6	-59.5	3.8	7.46e-01	0	47	0	0	53	30561
2026-01-12 02:06:43.39	11.08	2.17	-40.7	-59.6	3.8	7.43e-01	0	48	104	0	51	34515
2026-01-12 02:06:44.41	11.04	2.24	-40.7	-59.5	3.8	7.45e-01	0	48	104	0	51	34392
2026-01-12 02:06:45.42	11.00	2.30	-40.7	-59.6	3.8	7.46e-01	0	48	104	0	51	34503
2026-01-12 02:06:46.43	10.96	2.37	-40.7	-59.6	3.8	7.47e-01	0	48	104	0	51	34506
2026-01-12 02:06:47.44	10.93	2.43	-40.7	-59.6	3.8	7.45e-01	0	48	104	0	51	34490
2026-01-12 02:06:48.45	10.89	2.50	-40.7	-59.6	3.8	7.42e-01	0	48	104	0	51	34491
2026-01-12 02:06:49.46	10.85	2.56	-40.7	-59.6	3.8	7.42e-01	0	48	104	0	51	34486
2026-01-12 02:06:50.47	10.81	2.63	-40.7	-59.6	3.8	7.45e-01	0	48	104	0	51	34552
2026-01-12 02:06:51.48	10.77	2.70	-40.7	-59.5	3.8	7.48e-01	0	48	104	0	51	34459
2026-01-12 02:06:52.49	10.73	2.76	-40.7	-59.5	3.8	7.48e-01	0	48	104	0	51	34468
2026-01-12 02:06:53.51	10.69	2.83	-40.7	-59.5	3.8	7.44e-01	0	48	104	0	51	34457
2026-01-12 02:06:54.52	10.65	2.90	-40.7	-59.6	3.8	7.47e-01	0	48	104	0	51	34524
2026-01-12 02:06:55.53	10.61	2.97	-40.7	-59.6	3.8	7.43e-01	0	48	104	0	51	34596
2026-01-12 02:06:56.54	10.57	3.03	-40.7	-59.6	3.8	7.44e-01	0	48	104	0	51	34560
2026-01-12 02:06:57.55	10.53	3.10	-40.7	-59.5	3.8	7.42e-01	0	49	104	0	51	34470
2026-01-12 02:06:58.56	10.49	3.17	-40.7	-59.6	3.8	7.44e-01	0	49	104	0	51	34514
2026-01-12 02:06:59.57	10.45	3.23	-40.7	-59.6	3.8	7.42e-01	0	49	104	0	51	34498
2026-01-12 02:07:00.58	10.41	3.30	-40.7	-59.5	3.8	7.48e-01	0	49	104	0	51	34460
2026-01-12 02:07:01.59	10.37	3.37	-40.7	-59.6	3.8	7.43e-01	0	49	104	0	51	34482
2026-01-12 02:07:02.61	10.33	3.44	-40.7	-59.6	3.8	7.42e-01	0	49	104	0	51	34487
2026-01-12 02:07:03.62	10.29	3.51	-40.7	-59.5	3.8	7.48e-01	0	49	104	0	51	34409
2026-01-12 02:07:04.63	10.24	3.58	-40.7	-59.6	3.8	7.44e-01	0	49	104	0	51	34525
2026-01-12 02:07:05.64	10.20	3.65	-40.7	-59.6	3.8	7.43e-01	0	49	104	0	51	34481
2026-01-12 02:07:06.65	10.16	3.71	-40.7	-59.5	3.8	7.46e-01	0	49	104	0	51	34433
2026-01-12 02:07:07.66	10.12	3.78	-40.7	-59.5	3.8	7.46e-01	0	49	104	0	51	34474
2026-01-12 02:07:08.67	10.07	3.85	-40.7	-59.5	3.8	7.47e-01	0	49	104	0	51	34458
2026-01-12 02:07:09.68	10.03	3.92	-40.7	-59.5	3.8	7.43e-01	0	49	104	0	51	34459
2026-01-12 02:07:10.69	9.99	3.99	-40.7	-59.5	3.8	7.45e-01	0	49	104	0	51	34450
2026-01-12 02:07:11.70	9.94	4.06	-40.7	-59.5	3.8	7.45e-01	0	50	104	0	51	34448
2026-01-12 02:07:12.71	9.90	4.13	-40.7	-59.6	3.8	7.45e-01	0	50	104	0	51	34489
2026-01-12 02:07:13.72	9.86	4.20	-40.7	-59.6	3.8	7.42e-01	0	50	104	0	51	34504
2026-01-12 02:07:14.73	9.81	4.27	-40.7	-59.5	3.8	7.41e-01	0	50	104	0	51	34469
2026-01-12 02:07:15.74	9.77	4.34	-40.7	-59.5	3.8	7.46e-01	0	50	104	0	51	34441
2026-01-12 02:07:16.76	9.72	4.41	-40.7	-59.6	3.8	7.46e-01	0	50	104	0	51	34528
2026-01-12 02:07:17.77	9.68	4.49	-40.7	-59.5	3.8	7.46e-01	0	50	104	0	51	34458
2026-01-12 02:07:18.78	9.63	4.56	-40.7	-59.5	3.8	7.44e-01	0	50	104	0	51	34459
2026-01-12 02:07:19.79	9.59	4.63	-40.7	-59.5	3.8	7.42e-01	0	50	104	0	51	34419
2026-01-12 02:07:20.80	9.54	4.70	-40.7	-59.5	3.8	7.45e-01	0	50	104	0	51	34458
2026-01-12 02:07:21.81	9.50	4.77	-40.7	-59.5	3.8	7.42e-01	0	50	104	0	51	34448
2026-01-12 02:07:22.82	9.45	4.84	-40.7	-59.5	3.8	7.44e-01	0	50	104	0	51	34458
2026-01-12 02:07:23.83	9.40	4.91	-40.7	-59.5	3.8	7.45e-01	0	50	104	0	51	34432
2026-01-12 02:07:24.84	9.36	4.99	-40.7	-59.6	3.8	7.42e-01	0	50	104	0	51	34525
2026-01-12 02:07:25.86	9.31	5.06	-40.7	-59.6	3.8	7.43e-01	0	50	104	0	51	34500
2026-01-12 02:07:26.87	9.26	5.13	-40.7	-59.5	3.8	7.45e-01	0	50	104	0	51	34412
2026-01-12 02:07:27.88	9.21	5.21	-40.7	-59.5	3.8	7.46e-01	0	50	104	0	51	34463
2026-01-12 02:07:28.89	9.16	5.28	-40.7	-59.5	3.8	7.45e-01	0	50	104	0	51	34418
2026-01-12 02:07:29.90	9.12	5.35	-40.7	-59.5	3.8	7.46e-01	0	51	104	0	51	34462
2026-01-12 02:07:30.91	9.07	5.43	-40.7	-59.5	3.8	7.46e-01	0	51	104	0	51	34427
2026-01-12 02:07:31.92	9.02	5.50	-40.7	-59.5	3.8	7.43e-01	0	51	104	0	51	34397
2026-01-12 02:07:32.93	8.97	5.57	-40.7	-59.5	3.8	7.48e-01	0	51	104	0	51	34415
2026-01-12 02:07:33.95	8.92	5.65	-40.7	-59.5	3.8	7.49e-01	0	51	104	0	51	34407
2026-01-12 02:07:34.95	8.87	5.72	-40.7	-59.5	3.8	7.44e-01	0	51	104	0	51	34441
2026-01-12 02:07:35.97	8.82	5.80	-40.7	-59.5	3.8	7.45e-01	0	51	104	0	51	34445
2026-01-12 02:07:36.98	8.77	5.87	-40.7	-59.5	3.8	7.49e-01	0	51	104	0	51	34400
2026-01-12 02:07:37.99	8.72	5.95	-40.7	-59.6	3.8	7.45e-01	0	51	104	0	51	34484
2026-01-12 02:07:39.00	8.67	6.02	-40.7	-59.6	3.8	7.44e-01	0	51	104	0	51	34500
2026-01-12 02:07:40.01	8.62	6.10	-40.7	-59.5	3.8	7.47e-01	0	51	104	0	51	34420
2026-01-12 02:07:41.02	8.56	6.17	-40.7	-59.5	3.8	7.44e-01	0	51	104	0	51	34433
2026-01-12 02:07:42.03	8.51	6.25	-40.7	-59.5	3.8	7.44e-01	0	51	104	0	51	34371
2026-01-12 02:07:43.04	8.46	6.33	-40.7	-59.5	3.8	7.46e-01	0	51	104	0	51	34417
2026-01-12 02:07:44.05	8.41	6.40	-40.7	-59.6	3.8	7.43e-01	0	51	104	0	51	34491
2026-01-12 02:07:45.06	8.35	6.48	-40.7	-59.5	3.8	7.45e-01	0	51	104	0	51	34450
2026-01-12 02:07:46.08	8.30	6.56	-40.7	-59.5	3.8	7.44e-01	0	51	104	0	51	34334
2026-01-12 02:07:47.09	8.25	6.63	-40.7	-59.5	3.8	7.45e-01	0	51	104	0	51	34389
2026-01-12 02:07:48.10	8.19	6.71	-40.7	-59.5	3.8	7.43e-01	0	51	104	0	51	34336
2026-01-12 02:07:49.11	8.14	6.79	-40.7	-59.5	3.8	7.46e-01	0	52	104	0	51	34424
2026-01-12 02:07:50.12	8.08	6.87	-40.7	-59.5	3.8	7.44e-01	0	51	104	0	51	34450
2026-01-12 02:07:51.13	8.03	6.94	-40.7	-59.5	3.8	7.43e-01	0	52	104	0	51	34411
2026-01-12 02:07:52.14	7.97	7.02	-40.6	-59.5	3.8	7.47e-01	0	51	104	0	51	34391
2026-01-12 02:07:53.15	7.92	7.10	-40.7	-59.5	3.8	7.44e-01	0	52	104	0	51	34421
2026-01-12 02:07:54.16	7.86	7.18	-40.7	-59.5	3.8	7.46e-01	0	52	104	0	51	34460
2026-01-12 02:07:55.18	7.80	7.26	-40.7	-59.5	3.8	7.45e-01	0	52	104	0	51	34383
2026-01-12 02:07:56.19	7.75	7.34	-40.7	-59.5	3.8	7.46e-01	0	52	104	0	51	34362
2026-01-12 02:07:57.20	7.69	7.42	-40.7	-59.5	3.8	7.42e-01	0	52	104	0	51	34367
2026-01-12 02:07:58.21	7.63	7.50	-40.6	-59.5	3.8	7.45e-01	0	52	104	0	51	34417
2026-01-12 02:07:59.22	7.58	7.58	-40.7	-59.5	3.8	7.46e-01	0	52	104	0	51	34381
2026-01-12 02:08:00.23	7.52	7.66	-40.7	-59.5	3.8	7.43e-01	0	52	104	0	51	34383
2026-01-12 02:08:01.24	7.46	7.74	-40.7	-59.5	3.8	7.49e-01	0	52	104	0	51	34353
2026-01-12 02:08:02.25	7.40	7.82	-40.6	-59.5	3.8	7.47e-01	0	52	104	0	51	34421
2026-01-12 02:08:03.26	7.34	7.90	-40.7	-59.5	3.8	7.42e-01	0	52	104	0	51	34434
2026-01-12 02:08:04.26	7.28	7.98	-40.7	-59.5	3.8	7.46e-01	0	52	104	0	51	34424
2026-01-12 02:08:05.27	7.22	8.06	-40.7	-59.5	3.8	7.44e-01	0	52	104	0	51	34382
2026-01-12 02:08:06.28	7.16	8.14	-40.7	-59.6	3.8	7.44e-01	0	52	104	0	51	34529
2026-01-12 02:08:07.29	7.10	8.23	-40.7	-59.6	3.8	7.46e-01	0	52	104	0	52	32666
2026-01-12 02:08:08.30	7.04	8.31	-40.6	-59.5	3.8	7.45e-01	0	52	104	0	52	32324
2026-01-12 02:08:09.31	6.98	8.39	-40.7	-59.6	3.8	7.46e-01	0	52	104	0	52	32641
2026-01-12 02:08:10.32	6.91	8.47	-40.6	-59.5	3.8	7.48e-01	0	52	104	0	52	32441
2026-01-12 02:08:11.33	6.85	8.56	-40.7	-59.6	3.8	7.45e-01	0	52	104	0	52	32564
2026-01-12 02:08:12.34	6.79	8.64	-40.6	-59.5	3.8	7.46e-01	0	52	104	0	52	32545
2026-01-12 02:08:13.35	6.73	8.72	-40.7	-59.6	3.8	7.46e-01	0	52	104	0	52	32616
2026-01-12 02:08:14.37	6.66	8.81	-40.6	-59.5	3.8	7.45e-01	0	52	104	0	52	32300
2026-01-12 02:08:15.37	6.60	8.89	-40.7	-59.6	3.8	7.42e-01	0	52	104	0	52	32704
2026-01-12 02:08:16.38	6.53	8.98	-40.6	-59.5	3.8	7.45e-01	0	52	104	0	52	32240
2026-01-12 02:08:17.39	6.47	9.06	-40.7	-59.6	3.8	7.47e-01	0	52	104	0	52	32698
2026-01-12 02:08:18.40	6.40	9.15	-40.6	-59.5	3.8	7.45e-01	0	53	104	0	52	32438
2026-01-12 02:08:19.41	6.34	9.23	-40.7	-59.6	3.8	7.44e-01	0	53	104	0	52	32802
2026-01-12 02:08:20.42	6.27	9.32	-40.6	-59.5	3.8	7.45e-01	0	53	104	0	52	32477
2026-01-12 02:08:21.43	6.20	9.40	-40.7	-59.6	3.8	7.44e-01	0	53	104	0	52	32743
2026-01-12 02:08:22.44	6.14	9.49	-40.6	-59.5	3.8	7.49e-01	0	53	104	0	52	32281
2026-01-12 02:08:23.45	6.07	9.58	-40.8	-59.7	3.8	7.44e-01	0	53	104	0	52	32983
2026-01-12 02:08:24.45	6.00	9.66	-40.6	-59.6	3.8	7.44e-01	0	53	104	0	52	32552
2026-01-12 02:08:25.46	5.93	9.75	-40.8	-59.7	3.8	7.42e-01	0	53	104	0	52	33283
2026-01-12 02:08:26.48	5.86	9.84	-40.8	-59.7	3.8	7.42e-01	0	53	104	0	52	33015
2026-01-12 02:08:27.49	5.79	9.93	-40.8	-59.8	3.8	7.47e-01	0	53	104	0	52	33411
2026-01-12 02:08:28.50	5.72	10.01	-40.8	-59.7	3.8	7.49e-01	0	53	104	0	52	33178
2026-01-12 02:08:29.51	5.65	10.10	-40.8	-59.9	3.8	7.45e-01	0	53	104	0	52	33763
2026-01-12 02:08:30.52	5.58	10.19	-40.6	-59.5	3.8	7.49e-01	0	53	104	0	52	32381
2026-01-12 02:08:31.53	5.51	10.28	-40.6	-59.5	3.8	7.46e-01	0	53	104	0	52	32319
2026-01-12 02:08:32.54	5.44	10.37	-40.6	-59.4	3.8	7.46e-01	0	53	104	0	52	32148
2026-01-12 02:08:33.55	5.37	10.46	-40.6	-59.5	3.8	7.45e-01	0	53	104	0	52	32346
2026-01-12 02:08:34.56	5.29	10.55	-40.6	-59.5	3.8	7.44e-01	0	53	104	0	52	32533
2026-01-12 02:08:35.57	5.22	10.64	-40.8	-59.9	3.8	7.45e-01	0	53	104	0	52	33788
2026-01-12 02:08:36.58	5.14	10.73	-41.2	-59.0	3.8	7.45e-01	0	53	104	0	53	28984
2026-01-12 02:08:37.59	5.07	10.82	-40.9	-59.8	3.8	7.49e-01	0	53	104	0	53	31713
2026-01-12 02:08:38.60	5.00	10.91	-41.0	-59.8	3.8	7.42e-01	0	53	104	0	53	31723
2026-01-12 02:08:39.61	4.92	11.00	-41.2	-59.1	3.8	7.44e-01	0	53	104	0	53	29183
2026-01-12 02:08:40.61	4.84	11.10	-41.2	-58.7	3.8	7.47e-01	0	53	104	0	53	27951
2026-01-12 02:08:41.62	4.77	11.19	-41.2	-59.7	3.8	7.45e-01	0	53	104	0	53	31129
2026-01-12 02:08:42.63	4.69	11.28	-41.3	-59.0	3.8	7.44e-01	0	53	104	0	53	28944
2026-01-12 02:08:43.64	4.61	11.37	-41.1	-59.5	3.8	7.49e-01	0	54	104	0	53	30686
2026-01-12 02:08:44.65	4.53	11.47	-41.7	-58.0	3.9	7.39e-01	0	53	104	0	53	25827
2026-01-12 02:08:45.66	4.45	11.56	-41.2	-59.6	3.8	7.47e-01	0	53	104	0	54	29107
2026-01-12 02:08:46.67	4.38	11.65	-41.3	-58.9	3.9	7.47e-01	0	53	104	0	54	27048
2026-01-12 02:08:47.68	4.30	11.75	-41.6	-56.0	4.6	7.21e-01	0	53	104	0	54	19188
2026-01-12 02:08:48.69	4.21	11.84	-41.5	-56.7	4.4	7.40e-01	0	53	104	0	54	20851
2026-01-12 02:08:49.70	4.13	11.94	-43.2	-60.3	3.8	7.46e-01	0	53	104	0	56	28163
2026-01-12 02:08:50.71	4.05	12.03	-41.6	-60.5	3.8	7.43e-01	0	53	104	0	55	30431
2026-01-12 02:08:51.72	3.97	12.13	-41.4	-58.9	3.9	7.45e-01	0	54	104	0	54	26840
2026-01-12 02:08:52.73	3.89	12.23	-42.1	-56.4	4.0	7.36e-01	0	53	104	0	54	20134
2026-01-12 02:08:53.74	3.80	12.32	-41.1	-59.6	3.8	7.46e-01	0	54	104	0	54	29140
2026-01-12 02:08:54.75	3.72	12.42	-41.6	-55.8	4.6	7.20e-01	0	54	104	0	54	18931
2026-01-12 02:08:55.76	3.63	12.52	-42.1	-55.5	5.2	7.06e-01	30	54	0	524288	54	18249
2026-01-12 02:08:56.77	3.55	12.61	-42.3	-60.0	3.9	7.44e-01	0	54	104	524288	55	28778
2026-01-12 02:08:57.78	3.46	12.71	-42.3	-60.5	3.8	7.47e-01	0	54	104	524288	55	30654
2026-01-12 02:08:58.79	3.37	12.81	-42.3	-55.6	5.1	7.04e-01	0	54	104	524288	55	17337
2026-01-12 02:08:59.80	3.29	12.91	-42.1	-52.1	8.1	6.44e-01	57	54	0	1572864	55	11661
2026-01-12 02:09:00.81	3.20	13.01	-42.0	-50.4	10.2	6.19e-01	0	54	0	3670016	55	9547
2026-01-12 02:09:01.82	3.11	13.11	-42.0	-49.4	11.6	6.10e-01	0	54	0	5767168	55	8522
2026-01-12 02:09:02.83	3.02	13.21	-41.8	-48.0	13.3	6.06e-01	0	54	0	7340032	55	7280
2026-01-12 02:09:03.84	2.93	13.31	-41.5	-46.8	14.8	6.04e-01	0	54	0	9437184	55	6296
2026-01-12 02:09:04.85	2.84	13.41	-41.2	-45.9	15.9	6.03e-01	0	54	0	11010048	54	6046
2026-01-12 02:09:05.86	2.75	13.51	-41.0	-45.3	16.6	6.04e-01	0	54	0	13107200	54	5636
2026-01-12 02:09:06.87	2.65	13.61	-40.8	-44.9	17.1	6.01e-01	0	54	0	15204352	53	5657
2026-01-12 02:09:07.88	2.56	13.71	-40.6	-44.3	17.7	6.02e-01	0	54	0	16777216	53	5315
2026-01-12 02:09:08.89	2.47	13.82	-40.4	-44.0	18.0	6.04e-01	0	54	0	18874368	52	5453
2026-01-12 02:09:09.90	2.37	13.92	-40.4	-44.0	18.0	6.04e-01	0	54	0	20971520	52	5415
2026-01-12 02:09:10.91	2.28	14.02	-40.4	-43.9	18.2	6.03e-01	0	54	0	22544384	52	5368
2026-01-12 02:09:11.92	2.18	14.12	-40.4	-43.9	18.2	6.02e-01	0	54	0	24641536	52	5362
2026-01-12 02:09:12.93	2.09	14.23	-40.5	-44.0	18.2	6.03e-01	0	54	0	26214400	52	5445
2026-01-12 02:09:13.94	1.99	14.33	-40.2	-43.5	18.6	6.04e-01	0	54	0	28311552	52	5154
2026-01-12 02:09:14.95	1.89	14.44	-40.0	-43.1	19.0	6.04e-01	0	54	0	30408704	52	4926
2026-01-12 02:09:15.96	1.79	14.54	-39.8	-42.7	19.6	6.00e-01	0	54	0	31981568	51	4969
2026-01-12 02:09:16.97	1.69	14.65	-39.5	-42.2	20.1	6.02e-01	0	54	0	34078720	51	4685
2026-01-12 02:09:17.98	1.59	14.75	-39.4	-42.1	20.3	6.04e-01	0	54	0	35651584	50	4880
2026-01-12 02:09:18.99	1.49	14.86	-39.4	-42.0	20.5	6.02e-01	0	54	0	37748736	50	4835
2026-01-12 02:09:20.00	1.39	14.97	-39.5	-42.1	20.5	6.02e-01	0	54	0	39845888	50	4880
2026-01-12 02:09:21.01	1.28	15.08	-39.5	-42.1	20.6	6.05e-01	0	54	0	41418752	50	4876
2026-01-12 02:09:22.01	1.18	15.18	-39.3	-41.7	21.1	6.02e-01	0	54	0	43515904	50	4680
2026-01-12 02:09:23.02	1.08	15.29	-39.3	-41.7	21.2	6.04e-01	0	54	0	45613056	50	4683
2026-01-12 02:09:24.03	0.97	15.40	-39.5	-41.9	21.0	6.02e-01	0	54	0	47185920	50	4803
2026-01-12 02:09:25.04	0.87	15.51	-39.4	-41.8	21.2	6.03e-01	0	54	0	49283072	50	4706
2026-01-12 02:09:26.05	0.76	15.62	-39.2	-41.4	21.5	6.04e-01	0	54	0	50855936	50	4544
2026-01-12 02:09:27.06	0.65	15.73	-39.3	-41.6	21.4	6.04e-01	0	54	0	52953088	50	4646
2026-01-12 02:09:28.07	0.54	15.84	-39.3	-41.6	21.5	6.02e-01	0	54	0	54525952	50	4600
2026-01-12 02:09:29.08	0.43	15.95	-39.2	-41.4	21.7	6.03e-01	0	54	0	56623104	50	4527
2026-01-12 02:09:30.09	0.32	16.06	-39.2	-41.4	21.7	6.02e-01	0	54	0	58720256	50	4528
2026-01-12 02:09:31.10	0.21	16.17	-39.2	-41.5	21.6	6.03e-01	0	54	0	60293120	50	4549
2026-01-12 02:09:32.11	0.10	16.28	-39.2	-41.4	21.7	6.02e-01	0	54	0	62390272	50	4520
2026-01-12 02:09:33.12	359.98	16.40	-39.1	-41.4	21.7	6.02e-01	0	54	0	63963136	50	4503
2026-01-12 02:09:34.13	359.87	16.51	-39.1	-41.3	21.8	6.04e-01	0	54	0	66060288	50	4478
2026-01-12 02:09:35.14	359.75	16.62	-39.2	-41.4	21.7	6.06e-01	0	54	0	68157440	50	4514
2026-01-12 02:09:36.15	359.64	16.74	-39.1	-41.3	21.8	6.04e-01	0	54	0	69730304	50	4484
2026-01-12 02:09:37.16	359.52	16.85	-39.1	-41.3	21.8	6.02e-01	0	54	0	71827456	50	4473
2026-01-12 02:09:38.17	359.40	16.97	-39.2	-41.4	21.8	6.04e-01	0	54	0	73924608	50	4512
2026-01-12 02:09:39.18	359.28	17.08	-39.2	-41.4	21.7	6.03e-01	0	54	0	75497472	50	4541
2026-01-12 02:09:40.18	359.16	17.20	-39.2	-41.4	21.8	6.01e-01	0	54	0	77594624	50	4498
2026-01-12 02:09:41.19	359.04	17.31	-39.3	-41.5	21.7	6.02e-01	0	54	0	79167488	50	4562
2026-01-12 02:09:42.20	358.92	17.43	-39.2	-41.4	21.7	6.01e-01	0	54	0	81264640	50	4542
2026-01-12 02:09:43.21	358.80	17.55	-39.1	-41.3	21.8	6.03e-01	0	54	0	83361792	50	4479
2026-01-12 02:09:44.22	358.67	17.67	-39.2	-41.4	21.8	6.06e-01	0	54	0	84934656	50	4501
2026-01-12 02:09:45.23	358.55	17.78	-39.3	-41.6	21.5	6.03e-01	0	55	0	87031808	50	4617
2026-01-12 02:09:46.24	358.42	17.90	-39.2	-41.5	21.5	6.02e-01	0	54	0	89128960	50	4575
2026-01-12 02:09:47.25	358.29	18.02	-39.1	-41.3	21.7	6.05e-01	0	54	0	90701824	50	4453
2026-01-12 02:09:48.26	358.16	18.14	-39.0	-41.3	21.7	6.03e-01	0	54	0	92798976	50	4445
2026-01-12 02:09:49.26	358.04	18.26	-39.2	-41.5	21.4	6.04e-01	0	54	0	94371840	50	4567
2026-01-12 02:09:50.27	357.91	18.38	-39.4	-41.8	21.1	6.04e-01	0	54	0	96468992	50	4726
2026-01-12 02:09:51.28	357.77	18.50	-39.4	-41.8	21.0	6.02e-01	0	55	0	98566144	50	4755
2026-01-12 02:09:52.29	357.64	18.63	-39.2	-41.6	21.3	6.03e-01	0	54	0	100139008	50	4602
2026-01-12 02:09:53.30	357.51	18.75	-39.1	-41.5	21.4	6.01e-01	0	54	0	102236160	50	4549
2026-01-12 02:09:54.31	357.37	18.87	-39.1	-41.4	21.4	6.03e-01	0	55	0	103809024	50	4509
2026-01-12 02:09:55.32	357.23	18.99	-39.0	-41.3	21.4	6.04e-01	0	55	0	105906176	50	4470
2026-01-12 02:09:56.33	357.10	19.12	-38.9	-41.2	21.5	6.05e-01	0	54	0	108003328	49	4673
2026-01-12 02:09:57.34	356.96	19.24	-38.8	-41.1	21.5	6.02e-01	0	55	0	109576192	49	4628
2026-01-12 02:09:58.35	356.82	19.37	-38.9	-41.2	21.3	6.02e-01	0	55	0	111673344	49	4704
2026-01-12 02:09:59.36	356.67	19.49	-39.2	-41.7	20.8	6.04e-01	0	55	0	113246208	49	4945
2026-01-12 02:10:00.37	356.53	19.62	-39.6	-42.4	20.0	6.03e-01	0	55	0	115343360	49	5342
2026-01-12 02:10:01.38	356.39	19.75	-40.0	-43.0	19.2	6.04e-01	0	55	0	117440512	50	5453
2026-01-12 02:10:02.39	356.24	19.87	-40.2	-43.5	18.6	6.03e-01	0	55	0	119013376	51	5416
2026-01-12 02:10:03.39	356.10	20.00	-40.4	-43.8	18.1	6.04e-01	0	55	0	121110528	51	5626
2026-01-12 02:10:04.40	355.95	20.13	-40.5	-44.1	17.8	6.03e-01	0	55	0	122683392	51	5819
2026-01-12 02:10:05.41	355.80	20.26	-40.5	-44.1	17.7	6.03e-01	0	55	0	124780544	51	5801
2026-01-12 02:10:06.43	355.65	20.39	-40.5	-44.0	18.0	6.02e-01	0	55	0	126877696	51	5733
2026-01-12 02:10:07.43	355.50	20.51	-40.3	-43.5	18.7	6.05e-01	0	55	0	128450560	51	5405
2026-01-12 02:10:08.44	355.34	20.64	-40.2	-43.2	19.2	6.03e-01	0	55	0	130547712	51	5242
2026-01-12 02:10:09.45	355.19	20.77	-39.7	-42.4	19.9	6.04e-01	0	55	0	132120576	51	4791
2026-01-12 02:10:10.46	355.03	20.91	-39.1	-41.6	20.7	6.04e-01	0	55	0	134217728	50	4631
2026-01-12 02:10:11.47	354.87	21.04	-38.6	-40.9	21.3	6.03e-01	0	55	0	136314880	49	4543
2026-01-12 02:10:12.48	354.71	21.17	-38.4	-40.7	21.5	6.03e-01	0	55	0	137887744	48	4667
2026-01-12 02:10:13.49	354.55	21.30	-38.5	-40.8	21.3	6.03e-01	0	55	0	139984896	48	4736
2026-01-12 02:10:14.50	354.39	21.44	-38.6	-41.0	21.2	6.02e-01	0	55	0	142082048	48	4833
2026-01-12 02:10:15.51	354.23	21.57	-38.7	-41.1	21.1	6.03e-01	0	55	0	143654912	48	4875
2026-01-12 02:10:16.52	354.06	21.70	-38.8	-41.2	21.1	6.03e-01	0	55	0	145752064	48	4955
2026-01-12 02:10:17.53	353.89	21.84	-39.0	-41.5	20.8	6.02e-01	0	55	0	147324928	48	5145
2026-01-12 02:10:18.54	353.73	21.98	-39.1	-41.6	20.7	6.03e-01	0	55	0	149422080	48	5217
2026-01-12 02:10:19.55	353.56	22.11	-39.2	-41.7	20.8	6.00e-01	0	55	0	151519232	49	4975
2026-01-12 02:10:20.55	353.39	22.25	-39.3	-41.7	20.8	6.02e-01	0	55	0	153092096	49	4982
2026-01-12 02:10:21.56	353.21	22.38	-39.3	-41.7	21.0	6.05e-01	0	55	0	155189248	49	4975
2026-01-12 02:10:22.57	353.04	22.52	-39.6	-42.2	20.6	6.03e-01	0	55	0	157286400	49	5228
2026-01-12 02:10:23.58	352.86	22.66	-39.9	-42.5	20.5	6.02e-01	0	55	0	158859264	50	5111
2026-01-12 02:10:24.59	352.68	22.80	-39.7	-42.1	20.8	6.02e-01	0	55	0	160956416	50	4919
2026-01-12 02:10:25.60	352.50	22.94	-39.3	-41.7	21.4	6.02e-01	0	55	0	162529280	50	4658
2026-01-12 02:10:26.61	352.32	23.08	-39.3	-41.5	21.6	6.02e-01	0	55	0	164626432	50	4593
2026-01-12 02:10:27.62	352.14	23.22	-39.4	-41.7	21.5	6.03e-01	0	55	0	166199296	50	4686
2026-01-12 02:10:28.63	351.95	23.36	-39.6	-41.9	21.4	6.03e-01	0	55	0	168296448	50	4779
2026-01-12 02:10:29.64	351.77	23.50	-39.6	-41.9	21.5	6.05e-01	0	55	0	170393600	50	4772
2026-01-12 02:10:30.65	351.58	23.64	-39.6	-41.9	21.4	6.03e-01	0	55	0	171966464	50	4791
2026-01-12 02:10:31.66	351.39	23.78	-39.6	-41.9	21.6	6.04e-01	0	55	0	174063616	50	4760
2026-01-12 02:10:32.67	351.19	23.93	-39.6	-41.8	21.6	6.04e-01	0	55	0	175636480	50	4739
2026-01-12 02:10:33.68	351.00	24.07	-39.4	-41.6	21.8	6.02e-01	0	55	0	177733632	50	4634
2026-01-12 02:10:34.69	350.80	24.21	-39.4	-41.6	21.9	6.02e-01	0	55	0	179830784	50	4608
2026-01-12 02:10:35.70	350.61	24.36	-39.4	-41.6	21.9	6.03e-01	0	55	0	181403648	50	4612
2026-01-12 02:10:36.71	350.40	24.50	-39.5	-41.7	21.8	6.03e-01	0	55	0	183500800	50	4679
2026-01-12 02:10:37.72	350.20	24.65	-39.5	-41.7	21.8	6.02e-01	0	55	0	185597952	50	4696
2026-01-12 02:10:38.73	350.00	24.79	-39.6	-41.8	21.8	6.02e-01	0	55	0	187170816	50	4713
2026-01-12 02:10:39.74	349.79	24.94	-39.6	-41.8	21.8	6.05e-01	0	55	0	189267968	50	4729
2026-01-12 02:10:40.75	349.58	25.09	-39.6	-41.8	21.8	6.03e-01	0	55	0	190840832	50	4727
2026-01-12 02:10:41.76	349.37	25.23	-39.7	-41.9	21.7	6.05e-01	0	55	0	192937984	50	4789
2026-01-12 02:10:42.77	349.16	25.38	-39.7	-42.0	21.6	6.04e-01	0	55	0	195035136	50	4819
2026-01-12 02:10:43.78	348.95	25.53	-39.7	-41.9	21.7	6.04e-01	0	55	0	196608000	50	4783
2026-01-12 02:10:44.79	348.73	25.68	-39.6	-41.8	21.8	6.04e-01	0	55	0	198705152	50	4748
2026-01-12 02:10:45.80	348.51	25.83	-39.7	-41.9	21.7	6.04e-01	0	55	0	200278016	50	4790
2026-01-12 02:10:46.81	348.29	25.98	-39.7	-41.9	21.7	6.02e-01	0	55	0	202375168	50	4761
2026-01-12 02:10:47.82	348.07	26.13	-39.5	-41.6	22.0	6.04e-01	0	55	0	204472320	50	4643
2026-01-12 02:10:48.83	347.84	26.28	-39.5	-41.6	22.0	6.03e-01	0	55	0	206045184	50	4639
2026-01-12 02:10:49.83	347.62	26.43	-39.5	-41.6	22.0	6.01e-01	0	55	0	208142336	50	4623
2026-01-12 02:10:50.84	347.39	26.58	-39.3	-41.4	22.2	6.02e-01	0	55	0	210239488	50	4534
2026-01-12 02:10:51.85	347.16	26.73	-39.4	-41.5	22.2	6.03e-01	0	55	0	211812352	50	4553
2026-01-12 02:10:52.86	346.92	26.88	-39.3	-41.4	22.3	6.05e-01	0	55	0	213909504	50	4525
2026-01-12 02:10:53.87	346.68	27.04	-39.3	-41.4	22.3	6.03e-01	0	55	0	215482368	50	4505
2026-01-12 02:10:54.88	346.44	27.19	-39.4	-41.5	22.2	6.01e-01	0	55	0	217579520	50	4551
2026-01-12 02:10:55.89	346.20	27.34	-39.5	-41.6	22.1	6.03e-01	0	55	0	219676672	50	4623
2026-01-12 02:10:56.90	345.96	27.50	-39.5	-41.7	22.0	6.03e-01	0	55	0	221249536	50	4663
2026-01-12 02:10:57.91	345.71	27.65	-39.5	-41.6	22.2	6.02e-01	0	55	0	223346688	50	4612
2026-01-12 02:10:58.92	345.46	27.81	-39.4	-41.5	22.2	6.02e-01	0	55	0	224919552	50	4587
2026-01-12 02:10:59.93	345.21	27.96	-39.3	-41.3	22.4	6.04e-01	0	55	0	227016704	50	4490
2026-01-12 02:11:00.94	344.96	28.12	-39.2	-41.2	22.5	6.03e-01	0	55	0	229113856	50	4441
2026-01-12 02:11:01.95	344.70	28.27	-39.2	-41.2	22.5	6.01e-01	0	55	0	230686720	50	4423
2026-01-12 02:11:02.96	344.44	28.43	-39.2	-41.2	22.5	6.01e-01	0	55	0	232783872	50	4399
2026-01-12 02:11:03.97	344.18	28.58	-39.1	-41.0	22.7	6.01e-01	0	55	0	234356736	50	4329
2026-01-12 02:11:04.98	343.91	28.74	-39.0	-41.0	22.7	6.02e-01	0	55	0	236453888	50	4325
2026-01-12 02:11:05.98	343.65	28.89	-39.1	-41.1	22.7	6.04e-01	0	55	0	238551040	50	4365
2026-01-12 02:11:06.99	343.38	29.05	-39.1	-41.1	22.7	6.02e-01	0	55	0	240123904	50	4363
2026-01-12 02:11:08.00	343.10	29.21	-39.1	-41.0	22.8	6.03e-01	0	55	0	242221056	50	4332
2026-01-12 02:11:09.01	342.83	29.37	-39.1	-41.1	22.7	6.04e-01	0	55	0	243793920	50	4362
2026-01-12 02:11:10.02	342.55	29.52	-39.2	-41.3	22.6	6.04e-01	0	55	0	245891072	50	4449
2026-01-12 02:11:11.03	342.27	29.68	-39.2	-41.2	22.6	6.06e-01	0	55	0	247988224	50	4433
2026-01-12 02:11:12.04	341.98	29.84	-39.2	-41.2	22.6	6.04e-01	0	55	0	249561088	50	4410
2026-01-12 02:11:13.05	341.70	30.00	-39.2	-41.3	22.6	6.02e-01	0	55	0	251658240	50	4448
2026-01-12 02:11:14.06	341.41	30.16	-39.1	-41.1	22.7	6.02e-01	0	55	0	253755392	50	4375
2026-01-12 02:11:15.07	341.11	30.31	-39.1	-41.1	22.8	6.06e-01	0	55	0	255328256	50	4355
2026-01-12 02:11:16.08	340.82	30.47	-39.2	-41.2	22.7	6.04e-01	0	56	0	257425408	50	4392
2026-01-12 02:11:17.09	340.52	30.63	-39.2	-41.2	22.6	6.03e-01	0	55	0	258998272	50	4426
2026-01-12 02:11:18.10	340.21	30.79	-39.1	-41.0	22.8	6.02e-01	0	55	0	261095424	50	4330
2026-01-12 02:11:19.11	339.91	30.95	-39.1	-41.0	22.8	6.03e-01	0	55	0	263192576	50	4328
2026-01-12 02:11:20.12	339.60	31.11	-39.2	-41.1	22.8	6.02e-01	0	55	0	264765440	50	4380
2026-01-12 02:11:21.13	339.29	31.27	-39.1	-41.1	22.8	6.04e-01	0	55	0	266862592	50	4344
2026-01-12 02:11:22.14	338.97	31.43	-39.1	-41.1	22.8	6.03e-01	0	55	0	268435456	50	4350
2026-01-12 02:11:23.15	338.65	31.58	-39.1	-41.0	22.9	6.02e-01	0	55	0	270532608	50	4334
2026-01-12 02:11:24.16	338.33	31.74	-39.1	-41.1	22.8	6.04e-01	0	55	0	272629760	50	4365
2026-01-12 02:11:25.17	338.01	31.90	-39.2	-41.2	22.7	6.05e-01	0	55	0	274202624	50	4411
2026-01-12 02:11:26.18	337.68	32.06	-39.1	-41.0	22.9	6.04e-01	0	55	0	276299776	50	4337
2026-01-12 02:11:27.19	337.35	32.22	-39.0	-40.9	23.0	6.03e-01	0	55	0	278396928	50	4278
2026-01-12 02:11:28.20	337.01	32.38	-39.2	-41.2	22.7	6.04e-01	0	55	0	279969792	50	4434
2026-01-12 02:11:29.21	336.67	32.53	-39.2	-41.2	22.7	6.02e-01	0	55	0	282066944	50	4420
2026-01-12 02:11:30.22	336.33	32.69	-39.2	-41.2	22.7	6.05e-01	0	55	0	283639808	50	4431
2026-01-12 02:11:31.23	335.98	32.85	-39.2	-41.1	22.8	6.02e-01	0	55	0	285736960	50	4391
2026-01-12 02:11:32.24	335.63	33.01	-39.1	-41.1	22.8	6.02e-01	0	55	0	287834112	50	4368
2026-01-12 02:11:33.25	335.28	33.16	-39.2	-41.2	22.7	6.02e-01	0	55	0	289406976	50	4406
2026-01-12 02:11:34.26	334.93	33.32	-39.5	-41.5	22.4	6.04e-01	0	55	0	291504128	50	4585
2026-01-12 02:11:35.27	334.57	33.48	-39.5	-41.5	22.4	6.04e-01	0	55	0	293076992	50	4572
2026-01-12 02:11:36.28	334.20	33.63	-39.4	-41.4	22.5	6.04e-01	0	55	0	295174144	50	4541
2026-01-12 02:11:37.29	333.84	33.79	-39.4	-41.4	22.5	6.05e-01	0	55	0	297271296	50	4543
2026-01-12 02:11:38.29	333.47	33.94	-39.4	-41.4	22.5	6.04e-01	0	55	0	298844160	50	4529
2026-01-12 02:11:39.30	333.10	34.09	-39.5	-41.5	22.4	6.05e-01	0	55	0	300941312	50	4590
2026-01-12 02:11:40.31	332.72	34.25	-39.7	-41.8	22.1	6.02e-01	0	56	0	302514176	50	4733
2026-01-12 02:11:41.32	332.34	34.40	-40.0	-42.2	21.7	6.00e-01	0	55	0	304611328	50	4981
2026-01-12 02:11:42.33	331.95	34.55	-39.9	-42.0	21.9	6.02e-01	0	56	0	306708480	50	4862
2026-01-12 02:11:43.35	331.56	34.71	-39.7	-41.8	22.2	6.01e-01	0	55	0	308281344	50	4733
2026-01-12 02:11:44.35	331.17	34.86	-39.7	-41.8	22.1	6.04e-01	0	55	0	310378496	50	4756
2026-01-12 02:11:45.36	330.77	35.01	-39.7	-41.8	22.1	6.02e-01	0	56	0	311951360	50	4748
2026-01-12 02:11:46.37	330.37	35.16	-39.9	-42.1	21.9	6.03e-01	0	56	0	314048512	50	4909
2026-01-12 02:11:47.38	329.97	35.30	-39.9	-42.0	21.9	6.03e-01	0	56	0	316145664	50	4864
2026-01-12 02:11:48.39	329.56	35.45	-39.9	-42.0	21.9	6.04e-01	0	55	0	317718528	50	4856
2026-01-12 02:11:49.40	329.15	35.60	-40.0	-42.1	21.9	6.01e-01	0	55	0	319815680	50	4921
2026-01-12 02:11:50.41	328.74	35.74	-40.1	-42.3	21.7	6.05e-01	0	55	0	321912832	50	5005
2026-01-12 02:11:51.42	328.32	35.89	-40.2	-42.4	21.5	6.03e-01	0	55	0	323485696	50	5088
2026-01-12 02:11:52.43	327.89	36.03	-39.9	-42.1	21.9	6.01e-01	0	55	0	325582848	50	4891
2026-01-12 02:11:53.44	327.47	36.18	-40.1	-42.3	21.7	6.03e-01	0	56	0	327155712	50	5000
2026-01-12 02:11:54.45	327.03	36.32	-40.2	-42.4	21.6	6.03e-01	0	56	0	329252864	50	5092
2026-01-12 02:11:55.46	326.60	36.46	-40.3	-42.5	21.5	6.03e-01	0	56	0	331350016	51	4855
2026-01-12 02:11:56.47	326.16	36.60	-40.4	-42.8	21.2	6.02e-01	0	55	0	332922880	51	5007
2026-01-12 02:11:57.48	325.72	36.74	-40.4	-42.8	21.3	6.04e-01	0	56	0	335020032	51	5010
2026-01-12 02:11:58.49	325.27	36.87	-40.3	-42.6	21.5	6.03e-01	0	56	0	336592896	51	4871
2026-01-12 02:11:59.50	324.82	37.01	-40.2	-42.5	21.5	6.04e-01	0	56	0	338690048	51	4849
2026-01-12 02:12:00.51	324.37	37.14	-40.3	-42.6	21.4	6.03e-01	0	56	0	340787200	51	4896
2026-01-12 02:12:01.51	323.91	37.27	-40.4	-42.8	21.3	6.03e-01	0	56	0	342360064	51	5000
2026-01-12 02:12:02.53	323.45	37.41	-40.6	-43.0	21.0	6.06e-01	0	56	0	344457216	51	5136
2026-01-12 02:12:03.53	322.99	37.53	-40.7	-43.1	20.9	6.03e-01	0	55	0	346554368	51	5206
2026-01-12 02:12:04.54	322.52	37.66	-40.6	-43.0	21.0	6.03e-01	0	55	0	348127232	52	4832
2026-01-12 02:12:05.55	322.05	37.79	-40.7	-43.2	20.8	6.03e-01	0	55	0	350224384	52	4932
2026-01-12 02:12:06.56	321.57	37.91	-40.5	-42.9	21.1	6.02e-01	0	55	0	351797248	52	4765
2026-01-12 02:12:07.57	321.09	38.04	-40.5	-42.9	21.0	6.02e-01	0	55	0	353894400	52	4807
2026-01-12 02:12:08.58	320.60	38.16	-40.8	-43.2	20.7	6.02e-01	0	56	0	355991552	52	4982
2026-01-12 02:12:09.59	320.12	38.28	-40.7	-43.2	20.8	6.03e-01	0	56	0	357564416	52	4951
2026-01-12 02:12:10.60	319.62	38.39	-40.3	-42.5	21.4	6.03e-01	0	56	0	359661568	52	4594
2026-01-12 02:12:11.61	319.13	38.51	-40.4	-42.7	21.3	6.01e-01	0	56	0	361234432	52	4700
2026-01-12 02:12:12.62	318.63	38.62	-40.5	-42.8	21.2	6.03e-01	0	55	0	363331584	52	4747
2026-01-12 02:12:13.63	318.13	38.73	-40.5	-42.9	21.1	6.04e-01	0	56	0	365428736	52	4767
2026-01-12 02:12:14.63	317.63	38.84	-40.7	-43.1	20.9	6.02e-01	0	56	0	367001600	52	4909
2026-01-12 02:12:15.65	317.11	38.95	-40.7	-43.2	20.9	6.02e-01	0	55	0	369098752	52	4940
2026-01-12 02:12:16.65	316.60	39.05	-40.4	-42.8	21.2	6.04e-01	0	56	0	370671616	52	4727
2026-01-12 02:12:17.66	316.09	39.16	-40.3	-42.6	21.4	6.04e-01	0	56	0	372768768	52	4605
2026-01-12 02:12:18.67	315.57	39.26	-40.5	-42.9	21.1	6.05e-01	0	56	0	374865920	52	4812
2026-01-12 02:12:19.68	315.04	39.35	-40.6	-43.1	21.0	6.03e-01	0	56	0	376438784	52	4875
2026-01-12 02:12:20.69	314.52	39.45	-40.7	-43.1	20.9	6.02e-01	0	56	0	378535936	52	4918
2026-01-12 02:12:21.70	313.99	39.54	-40.3	-42.6	21.3	6.02e-01	0	56	0	380108800	52	4642
2026-01-12 02:12:22.71	313.46	39.63	-40.2	-42.5	21.5	6.02e-01	0	56	0	382205952	52	4565
2026-01-12 02:12:23.72	312.92	39.72	-40.3	-42.6	21.4	6.02e-01	0	56	0	384303104	52	4603
2026-01-12 02:12:24.73	312.38	39.81	-40.4	-42.7	21.2	6.04e-01	0	56	0	385875968	52	4697
2026-01-12 02:12:25.74	311.84	39.89	-40.5	-42.9	21.1	6.03e-01	0	56	0	387973120	52	4766
2026-01-12 02:12:26.75	311.30	39.97	-40.5	-42.9	21.1	6.03e-01	0	56	0	390070272	52	4781
2026-01-12 02:12:27.76	310.75	40.05	-40.3	-42.6	21.5	6.03e-01	0	56	0	391643136	52	4609
2026-01-12 02:12:28.77	310.20	40.12	-40.1	-42.3	21.7	6.02e-01	0	56	0	393740288	52	4443
2026-01-12 02:12:29.78	309.65	40.19	-40.1	-42.3	21.7	6.04e-01	0	56	0	395313152	52	4446
2026-01-12 02:12:30.79	309.10	40.26	-40.4	-42.7	21.4	6.03e-01	0	56	0	397410304	52	4671
2026-01-12 02:12:31.80	308.54	40.33	-40.2	-42.5	21.4	6.03e-01	0	56	0	399507456	52	4565
2026-01-12 02:12:32.81	307.98	40.39	-40.1	-42.3	21.6	6.02e-01	0	56	0	401080320	52	4491
2026-01-12 02:12:33.81	307.43	40.45	-40.2	-42.5	21.4	6.04e-01	0	56	0	403177472	52	4579
2026-01-12 02:12:34.82	306.86	40.51	-40.6	-43.0	21.1	6.05e-01	0	56	0	404750336	51	5102
2026-01-12 02:12:35.83	306.30	40.56	-40.7	-43.2	20.9	6.03e-01	0	56	0	406847488	51	5229
2026-01-12 02:12:36.84	305.73	40.62	-40.5	-42.8	21.3	6.04e-01	0	56	0	408944640	51	5032
2026-01-12 02:12:37.85	305.16	40.66	-40.0	-42.2	21.9	6.04e-01	0	56	0	410517504	51	4685
2026-01-12 02:12:38.86	304.59	40.71	-40.1	-42.3	21.8	6.03e-01	0	56	0	412614656	51	4738
2026-01-12 02:12:39.87	304.02	40.75	-40.0	-42.2	21.9	6.03e-01	0	56	0	414187520	51	4658
2026-01-12 02:12:40.88	303.44	40.79	-39.9	-42.0	22.1	6.05e-01	0	56	0	416284672	51	4554
2026-01-12 02:12:41.89	302.87	40.83	-39.6	-41.7	22.4	6.04e-01	0	56	0	418381824	51	4405
2026-01-12 02:12:42.90	302.29	40.86	-39.3	-41.3	22.7	6.04e-01	0	56	0	419954688	50	4451
2026-01-12 02:12:43.91	301.71	40.89	-39.5	-41.5	22.3	6.02e-01	0	56	0	422051840	51	4323
2026-01-12 02:12:44.92	301.13	40.91	-39.9	-42.1	21.6	6.04e-01	0	56	0	423624704	51	4601
2026-01-12 02:12:45.93	300.56	40.94	-39.9	-42.1	21.6	6.06e-01	0	56	0	425721856	51	4622
2026-01-12 02:12:46.94	299.97	40.96	-40.1	-42.2	21.7	6.02e-01	0	56	0	427819008	51	4699
2026-01-12 02:12:47.95	299.39	40.97	-39.8	-41.9	22.0	6.04e-01	0	56	0	429391872	51	4526
2026-01-12 02:12:48.96	298.81	40.99	-40.0	-42.1	21.5	6.03e-01	0	56	0	431489024	51	4633
2026-01-12 02:12:49.97	298.23	41.00	-40.4	-42.8	20.8	6.03e-01	0	56	0	433061888	52	4743
2026-01-12 02:12:50.98	297.65	41.00	-40.7	-43.1	20.9	6.02e-01	0	56	0	435159040	51	5208
2026-01-12 02:12:51.98	297.07	41.01	-40.1	-42.3	21.8	6.03e-01	0	56	0	437256192	51	4733
2026-01-12 02:12:52.99	296.49	41.01	-39.8	-41.8	22.2	6.00e-01	0	56	0	438829056	51	4493
2026-01-12 02:12:54.00	295.91	41.00	-39.7	-41.8	22.2	6.05e-01	0	56	0	440926208	51	4470
2026-01-12 02:12:55.01	295.32	41.00	-40.3	-42.6	21.5	6.02e-01	0	56	0	443023360	51	4878
2026-01-12 02:12:56.02	294.74	40.99	-40.2	-42.5	21.6	6.03e-01	0	56	0	444596224	51	4842
2026-01-12 02:12:57.03	294.16	40.97	-39.6	-41.7	22.4	6.02e-01	0	56	0	446693376	50	4667
2026-01-12 02:12:58.04	293.58	40.96	-39.9	-42.0	22.0	6.04e-01	0	56	0	448266240	51	4590
2026-01-12 02:12:59.05	293.00	40.94	-40.5	-42.9	21.1	6.01e-01	0	56	0	450363392	51	5100
2026-01-12 02:13:00.05	292.42	40.91	-40.1	-42.3	21.7	6.01e-01	0	56	0	452460544	51	4740
2026-01-12 02:13:01.06	291.84	40.89	-39.7	-41.8	22.2	6.04e-01	0	56	0	454033408	51	4472
2026-01-12 02:13:02.07	291.27	40.86	-40.3	-42.6	21.4	6.04e-01	0	56	0	456130560	51	4903
2026-01-12 02:13:03.08	290.69	40.83	-40.0	-42.2	21.8	6.03e-01	0	56	0	458227712	51	4703
2026-01-12 02:13:04.09	290.11	40.79	-39.9	-42.1	22.0	6.02e-01	0	56	0	459800576	51	4620
2026-01-12 02:13:05.10	289.54	40.75	-40.0	-42.2	21.8	6.05e-01	0	56	0	461897728	51	4675
2026-01-12 02:13:06.11	288.97	40.71	-40.1	-42.4	21.7	6.03e-01	0	56	0	463470592	51	4763
2026-01-12 02:13:07.12	288.40	40.66	-40.6	-43.0	21.0	6.04e-01	0	56	0	465567744	51	5156
2026-01-12 02:13:08.13	287.83	40.62	-39.9	-42.0	22.1	6.03e-01	0	56	0	467664896	51	4559
2026-01-12 02:13:09.14	287.26	40.56	-40.1	-42.4	21.5	6.05e-01	0	56	0	469237760	51	4773
2026-01-12 02:13:10.15	286.69	40.51	-40.6	-43.1	21.0	6.01e-01	0	56	0	471334912	51	5180
2026-01-12 02:13:11.16	286.13	40.45	-39.4	-41.3	22.7	6.05e-01	0	56	0	472907776	50	4479
2026-01-12 02:13:12.17	285.57	40.39	-40.3	-42.6	21.3	6.05e-01	0	56	0	475004928	51	4900
2026-01-12 02:13:13.18	285.01	40.33	-40.2	-42.5	21.6	6.05e-01	0	56	0	477102080	51	4863
2026-01-12 02:13:14.19	284.45	40.26	-39.8	-41.8	22.2	6.04e-01	0	56	0	478674944	51	4485
2026-01-12 02:13:15.20	283.89	40.19	-40.4	-42.8	21.1	6.02e-01	0	56	0	480772096	51	4996
2026-01-12 02:13:16.21	283.34	40.12	-40.2	-42.5	21.5	6.01e-01	0	56	0	482344960	51	4854
2026-01-12 02:13:17.22	282.79	40.05	-39.8	-41.8	21.8	6.02e-01	0	56	0	484442112	51	4485
2026-01-12 02:13:18.23	282.24	39.97	-40.9	-43.5	20.5	6.02e-01	0	56	0	486539264	52	5135
2026-01-12 02:13:19.23	281.70	39.89	-39.3	-41.2	22.8	6.03e-01	0	56	0	488112128	50	4425
2026-01-12 02:13:20.24	281.16	39.81	-40.7	-43.2	20.8	6.05e-01	0	56	0	490209280	51	5258
2026-01-12 02:13:21.25	280.62	39.72	-39.7	-41.8	22.2	6.02e-01	0	56	0	491782144	51	4450
2026-01-12 02:13:22.26	280.09	39.63	-40.4	-42.7	20.8	6.03e-01	0	56	0	493879296	52	4695
2026-01-12 02:13:23.27	279.55	39.54	-40.4	-42.8	21.1	6.03e-01	0	56	0	495976448	51	5016
2026-01-12 02:13:24.28	279.02	39.45	-39.9	-42.1	21.4	6.04e-01	0	56	0	497549312	51	4604
2026-01-12 02:13:25.29	278.50	39.35	-40.5	-42.9	20.9	6.03e-01	0	56	0	499646464	51	5071
2026-01-12 02:13:26.30	277.97	39.25	-39.9	-42.1	21.5	6.03e-01	0	56	0	501219328	51	4604
2026-01-12 02:13:27.31	277.45	39.15	-40.8	-43.3	20.4	6.02e-01	0	56	0	503316480	52	5007
2026-01-12 02:13:28.32	276.93	39.05	-39.8	-41.9	21.5	6.02e-01	0	56	0	505413632	51	4530
2026-01-12 02:13:29.33	276.42	38.95	-40.7	-43.2	20.5	6.04e-01	0	56	0	506986496	52	4957
2026-01-12 02:13:30.34	275.91	38.84	-40.4	-42.8	20.7	6.03e-01	0	56	0	509083648	52	4725
2026-01-12 02:13:31.35	275.40	38.73	-40.6	-43.0	20.8	6.03e-01	0	56	0	511180800	52	4851
2026-01-12 02:13:32.36	274.90	38.62	-40.9	-43.5	20.0	6.03e-01	0	56	0	512753664	53	4865
2026-01-12 02:13:33.37	274.40	38.50	-40.1	-42.2	21.8	6.04e-01	0	56	0	514850816	51	4690
2026-01-12 02:13:34.38	273.90	38.39	-41.4	-44.4	19.6	6.02e-01	0	56	0	516423680	53	5349
2026-01-12 02:13:35.39	273.41	38.27	-40.3	-42.5	21.3	6.02e-01	0	56	0	518520832	52	4567
2026-01-12 02:13:36.40	272.92	38.15	-41.1	-43.7	20.1	6.04e-01	0	56	0	520617984	52	5260
2026-01-12 02:13:37.41	272.43	38.03	-41.0	-43.6	20.2	6.04e-01	0	56	0	522190848	53	4873
2026-01-12 02:13:38.42	271.95	37.91	-40.8	-43.3	20.6	6.03e-01	0	56	0	524288000	53	4737
2026-01-12 02:13:39.43	271.47	37.78	-41.8	-44.9	19.1	6.01e-01	0	56	0	525860864	54	5388
2026-01-12 02:13:40.44	271.00	37.66	-40.6	-43.0	20.8	6.03e-01	0	56	0	527958016	53	4572
2026-01-12 02:13:41.45	270.53	37.53	-41.1	-43.7	20.2	6.05e-01	0	56	0	530055168	53	4969
2026-01-12 02:13:42.46	270.06	37.40	-41.3	-44.0	19.9	6.04e-01	0	56	0	531628032	53	5148
2026-01-12 02:13:43.47	269.60	37.27	-40.2	-42.5	21.4	6.02e-01	0	56	0	533725184	52	4565
2026-01-12 02:13:44.48	269.14	37.13	-40.7	-43.2	20.7	6.04e-01	0	56	0	535822336	52	4971
2026-01-12 02:13:45.49	268.68	37.00	-41.4	-44.2	19.8	6.01e-01	0	56	0	537395200	53	5278
2026-01-12 02:13:46.50	268.23	36.86	-40.8	-43.3	20.5	6.04e-01	0	56	0	539492352	53	4752
2026-01-12 02:13:47.51	267.78	36.73	-40.7	-43.1	20.9	6.03e-01	0	56	0	541065216	53	4617
2026-01-12 02:13:48.52	267.34	36.59	-40.9	-43.5	20.5	6.02e-01	0	56	0	543162368	53	4864
2026-01-12 02:13:49.53	266.90	36.45	-40.9	-43.5	20.5	6.05e-01	0	56	0	545259520	53	4819
2026-01-12 02:13:50.54	266.47	36.31	-40.5	-42.9	21.0	6.02e-01	0	56	0	546832384	53	4514
2026-01-12 02:13:51.55	266.03	36.16	-40.7	-43.2	20.8	6.04e-01	0	56	0	548929536	53	4671
2026-01-12 02:13:52.56	265.60	36.02	-40.6	-43.0	20.9	6.05e-01	0	56	0	550502400	53	4595
2026-01-12 02:13:53.57	265.18	35.88	-40.1	-42.4	21.5	6.03e-01	0	56	0	552599552	52	4500
2026-01-12 02:13:54.57	264.76	35.73	-40.2	-42.4	21.5	6.04e-01	0	56	0	554696704	52	4534
2026-01-12 02:13:55.59	264.34	35.58	-40.4	-42.8	21.2	6.02e-01	0	56	0	556269568	52	4727
2026-01-12 02:13:56.60	263.93	35.44	-40.6	-43.0	20.9	6.03e-01	0	56	0	558366720	52	4840
2026-01-12 02:13:57.61	263.52	35.29	-40.5	-43.0	21.0	6.03e-01	0	56	0	559939584	52	4825
2026-01-12 02:13:58.62	263.12	35.14	-40.5	-42.9	21.0	6.03e-01	0	56	0	562036736	52	4783
2026-01-12 02:13:59.63	262.71	34.99	-40.1	-42.4	21.5	6.04e-01	0	56	0	564133888	52	4497
2026-01-12 02:14:00.61	262.33	34.84	-40.4	-42.7	21.2	6.03e-01	0	56	0	565706752	52	4688
2026-01-12 02:14:01.62	261.93	34.69	-40.5	-43.0	21.0	6.01e-01	0	56	0	567803904	52	4823
2026-01-12 02:14:02.63	261.54	34.54	-40.1	-42.3	21.6	6.03e-01	0	56	0	569376768	52	4477
2026-01-12 02:14:03.64	261.16	34.39	-40.0	-42.2	21.8	6.01e-01	0	56	0	571473920	51	4664
2026-01-12 02:14:04.65	260.77	34.23	-40.0	-42.2	21.8	6.01e-01	0	56	0	573571072	51	4684
2026-01-12 02:14:05.66	260.40	34.08	-40.1	-42.3	21.7	6.03e-01	0	56	0	575143936	51	4751
2026-01-12 02:14:06.67	260.02	33.92	-40.2	-42.4	21.6	6.04e-01	0	56	0	577241088	51	4813
2026-01-12 02:14:07.68	259.65	33.77	-40.3	-42.6	21.5	6.01e-01	0	56	0	579338240	51	4876
2026-01-12 02:14:08.69	259.28	33.61	-40.1	-42.3	21.7	6.03e-01	0	56	0	580911104	51	4749
2026-01-12 02:14:09.70	258.92	33.45	-39.9	-42.1	21.9	6.03e-01	0	56	0	583008256	51	4625
2026-01-12 02:14:10.71	258.56	33.30	-40.0	-42.1	21.9	6.04e-01	0	56	0	584581120	51	4644
2026-01-12 02:14:11.72	258.20	33.14	-40.2	-42.5	21.6	6.02e-01	0	56	0	586678272	51	4817
2026-01-12 02:14:12.73	257.84	32.98	-40.2	-42.4	21.5	6.06e-01	0	56	0	588775424	51	4809
2026-01-12 02:14:13.74	257.49	32.83	-39.9	-42.1	21.8	6.03e-01	0	56	0	590348288	51	4630
2026-01-12 02:14:14.75	257.15	32.67	-39.9	-42.1	21.9	6.01e-01	0	56	0	592445440	51	4636
2026-01-12 02:14:15.76	256.80	32.51	-40.1	-42.4	21.6	6.03e-01	0	56	0	594018304	51	4766
2026-01-12 02:14:16.76	256.47	32.35	-40.3	-42.6	21.4	6.03e-01	0	56	0	596115456	51	4892
2026-01-12 02:14:17.77	256.13	32.19	-40.2	-42.4	21.6	6.02e-01	0	56	0	598212608	51	4787
2026-01-12 02:14:18.78	255.80	32.03	-40.2	-42.5	21.5	6.04e-01	0	56	0	599785472	51	4844
2026-01-12 02:14:19.79	255.47	31.88	-40.2	-42.5	21.5	6.02e-01	0	56	0	601882624	51	4824
2026-01-12 02:14:20.80	255.14	31.72	-40.0	-42.3	21.7	6.04e-01	0	56	0	603455488	51	4720
2026-01-12 02:14:21.81	254.82	31.56	-39.9	-42.0	21.9	6.04e-01	0	56	0	605552640	51	4598
2026-01-12 02:14:22.82	254.50	31.40	-39.9	-42.0	21.9	6.03e-01	0	56	0	607649792	51	4588
2026-01-12 02:14:23.83	254.18	31.24	-39.8	-41.9	22.1	6.03e-01	0	56	0	609222656	51	4510
2026-01-12 02:14:24.84	253.87	31.08	-39.8	-41.9	22.0	6.04e-01	0	56	0	611319808	51	4538
2026-01-12 02:14:25.85	253.56	30.92	-39.7	-41.9	22.1	6.03e-01	0	56	0	612892672	51	4502
2026-01-12 02:14:26.86	253.25	30.76	-40.0	-42.2	21.8	6.03e-01	0	56	0	614989824	51	4657
2026-01-12 02:14:27.87	252.95	30.60	-40.1	-42.3	21.6	6.02e-01	0	56	0	617086976	51	4743
2026-01-12 02:14:28.88	252.65	30.44	-39.8	-41.9	22.0	6.05e-01	0	56	0	618659840	51	4511
2026-01-12 02:14:29.89	252.35	30.28	-39.6	-41.7	22.2	6.02e-01	0	56	0	620756992	51	4392
2026-01-12 02:14:30.90	252.05	30.12	-39.5	-41.6	22.3	6.03e-01	0	56	0	622329856	51	4360
2026-01-12 02:14:31.91	251.76	29.96	-39.8	-42.0	22.0	6.03e-01	0	56	0	624427008	51	4553
2026-01-12 02:14:32.92	251.47	29.80	-39.8	-42.0	22.0	6.04e-01	0	56	0	626524160	51	4560
2026-01-12 02:14:33.93	251.19	29.65	-39.9	-42.1	21.9	6.04e-01	0	56	0	628097024	51	4603
2026-01-12 02:14:34.93	250.91	29.49	-39.9	-42.1	21.8	6.03e-01	0	56	0	630194176	51	4632
2026-01-12 02:14:35.94	250.63	29.33	-39.8	-42.0	21.9	6.03e-01	0	56	0	632291328	51	4580
2026-01-12 02:14:36.95	250.35	29.17	-39.6	-41.7	22.2	6.05e-01	0	56	0	633864192	51	4417
2026-01-12 02:14:37.96	250.08	29.01	-39.7	-41.8	22.1	6.03e-01	0	56	0	635961344	51	4488
2026-01-12 02:14:38.97	249.80	28.86	-39.9	-42.1	21.8	6.05e-01	0	56	0	637534208	51	4646
2026-01-12 02:14:39.98	249.54	28.70	-40.2	-42.4	21.5	6.03e-01	0	56	0	639631360	51	4808
2026-01-12 02:14:40.99	249.27	28.54	-40.1	-42.4	21.5	6.06e-01	0	56	0	641728512	51	4785
2026-01-12 02:14:42.00	249.01	28.38	-40.0	-42.2	21.7	6.01e-01	0	56	0	643301376	51	4657
2026-01-12 02:14:43.01	248.75	28.23	-39.7	-41.9	22.1	6.02e-01	0	56	0	645398528	51	4506
2026-01-12 02:14:44.02	248.49	28.07	-39.9	-42.1	21.8	6.02e-01	0	56	0	646971392	51	4641
2026-01-12 02:14:45.03	248.23	27.92	-40.0	-42.3	21.6	6.01e-01	0	56	0	649068544	51	4731
2026-01-12 02:14:46.04	247.98	27.76	-39.7	-41.9	22.0	6.05e-01	0	56	0	651165696	51	4511
2026-01-12 02:14:47.05	247.73	27.61	-39.6	-41.7	22.2	6.02e-01	0	56	0	652738560	51	4431
2026-01-12 02:14:48.05	247.48	27.45	-39.8	-42.0	21.9	6.03e-01	0	56	0	654835712	51	4565
2026-01-12 02:14:49.06	247.24	27.30	-40.2	-42.5	21.4	6.03e-01	0	56	0	656408576	51	4845
2026-01-12 02:14:50.07	246.99	27.14	-40.3	-42.6	21.2	6.02e-01	0	56	0	658505728	51	4917
2026-01-12 02:14:51.08	246.75	26.99	-40.1	-42.3	21.6	6.01e-01	0	56	0	660602880	51	4739
2026-01-12 02:14:52.09	246.52	26.84	-40.0	-42.2	21.7	6.05e-01	0	56	0	662175744	51	4662
2026-01-12 02:14:53.10	246.28	26.68	-40.1	-42.4	21.6	6.04e-01	0	56	0	664272896	51	4763
2026-01-12 02:14:54.11	246.05	26.53	-40.2	-42.6	21.4	6.05e-01	0	56	0	665845760	51	4880
2026-01-12 02:14:55.12	245.82	26.38	-40.1	-42.3	21.5	6.04e-01	0	56	0	667942912	51	4757
2026-01-12 02:14:56.13	245.59	26.23	-40.0	-42.2	21.7	6.05e-01	0	56	0	670040064	51	4666
2026-01-12 02:14:57.14	245.36	26.08	-40.0	-42.3	21.6	6.03e-01	0	56	0	671612928	51	4721
2026-01-12 02:14:58.15	245.14	25.92	-40.2	-42.6	21.3	6.05e-01	0	56	0	673710080	51	4888
2026-01-12 02:14:59.16	244.91	25.77	-40.4	-42.9	21.1	6.00e-01	0	56	0	675807232	51	5044
2026-01-12 02:15:00.17	244.69	25.62	-40.3	-42.6	21.2	6.03e-01	0	56	0	677380096	51	4920
2026-01-12 02:15:01.18	244.48	25.47	-40.3	-42.6	21.3	6.04e-01	0	56	0	679477248	51	4895
2026-01-12 02:15:02.19	244.26	25.33	-40.2	-42.5	21.3	6.01e-01	0	56	0	681050112	51	4850
2026-01-12 02:15:03.20	244.05	25.18	-40.1	-42.3	21.5	6.04e-01	0	56	0	683147264	51	4744
2026-01-12 02:15:04.21	243.84	25.03	-40.0	-42.3	21.5	6.02e-01	0	56	0	685244416	51	4730
2026-01-12 02:15:05.22	243.63	24.88	-40.1	-42.3	21.5	6.02e-01	0	56	0	686817280	51	4757
2026-01-12 02:15:06.22	243.42	24.74	-40.2	-42.5	21.4	6.05e-01	0	56	0	688914432	51	4835
2026-01-12 02:15:07.23	243.22	24.59	-40.1	-42.4	21.5	6.02e-01	0	56	0	690487296	51	4779
2026-01-12 02:15:08.24	243.01	24.44	-40.1	-42.4	21.4	6.01e-01	0	56	0	692584448	51	4807
2026-01-12 02:15:09.25	242.81	24.30	-40.0	-42.2	21.6	6.06e-01	0	56	0	694681600	51	4687
2026-01-12 02:15:10.26	242.61	24.15	-40.1	-42.3	21.5	6.03e-01	0	56	0	696254464	51	4747
2026-01-12 02:15:11.27	242.42	24.01	-40.2	-42.5	21.4	6.04e-01	0	56	0	698351616	51	4852
2026-01-12 02:15:12.28	242.22	23.86	-40.2	-42.5	21.3	6.02e-01	0	56	0	700448768	51	4861
2026-01-12 02:15:13.29	242.03	23.72	-40.2	-42.5	21.3	6.03e-01	0	56	0	702021632	51	4856
2026-01-12 02:15:14.30	241.84	23.58	-40.3	-42.6	21.2	6.04e-01	0	56	0	704118784	51	4899
2026-01-12 02:15:15.31	241.65	23.43	-40.3	-42.6	21.2	6.04e-01	0	56	0	705691648	51	4897
2026-01-12 02:15:16.32	241.46	23.29	-40.3	-42.6	21.2	6.02e-01	0	56	0	707788800	51	4924
2026-01-12 02:15:17.33	241.27	23.15	-40.3	-42.6	21.2	6.02e-01	0	56	0	709885952	51	4901
2026-01-12 02:15:18.34	241.09	23.01	-40.1	-42.4	21.4	6.05e-01	0	56	0	711458816	51	4783
2026-01-12 02:15:19.35	240.91	22.87	-40.0	-42.3	21.5	6.04e-01	0	56	0	713555968	51	4733
2026-01-12 02:15:20.36	240.72	22.73	-40.1	-42.4	21.4	6.03e-01	0	56	0	715128832	51	4800
2026-01-12 02:15:21.37	240.55	22.59	-40.2	-42.5	21.3	5.99e-01	0	56	0	717225984	51	4833
2026-01-12 02:15:22.37	240.37	22.45	-40.2	-42.5	21.3	6.05e-01	0	56	0	719323136	51	4852
2026-01-12 02:15:23.38	240.19	22.32	-40.3	-42.6	21.2	6.04e-01	0	56	0	720896000	51	4897
2026-01-12 02:15:24.39	240.02	22.18	-40.3	-42.7	21.1	6.01e-01	0	56	0	722993152	51	4935
2026-01-12 02:15:25.40	239.85	22.04	-40.1	-42.4	21.4	6.06e-01	0	56	0	724566016	51	4798
2026-01-12 02:15:26.41	239.68	21.90	-40.1	-42.4	21.4	6.03e-01	0	56	0	726663168	51	4764
2026-01-12 02:15:27.42	239.51	21.77	-40.1	-42.4	21.4	6.02e-01	0	56	0	728760320	51	4813
2026-01-12 02:15:28.43	239.34	21.63	-40.1	-42.4	21.4	6.04e-01	0	56	0	730333184	51	4805
2026-01-12 02:15:29.44	239.17	21.50	-40.1	-42.4	21.4	6.04e-01	0	56	0	732430336	51	4811
2026-01-12 02:15:30.45	239.01	21.36	-40.1	-42.4	21.4	6.05e-01	0	56	0	734003200	51	4763
2026-01-12 02:15:31.46	238.84	21.23	-40.0	-42.2	21.5	6.04e-01	0	56	0	736100352	51	4701
2026-01-12 02:15:32.47	238.68	21.09	-39.9	-42.2	21.6	6.05e-01	0	56	0	738197504	51	4666
2026-01-12 02:15:33.48	238.52	20.96	-39.9	-42.1	21.7	6.03e-01	0	56	0	739770368	51	4617
2026-01-12 02:15:34.49	238.36	20.83	-39.9	-42.1	21.6	6.02e-01	0	56	0	741867520	51	4642
2026-01-12 02:15:35.49	238.21	20.70	-40.0	-42.3	21.5	6.05e-01	0	56	0	743964672	51	4715
2026-01-12 02:15:36.50	238.05	20.57	-40.1	-42.5	21.3	6.03e-01	0	56	0	745537536	51	4825
2026-01-12 02:15:37.51	237.90	20.44	-40.1	-42.4	21.3	6.03e-01	0	56	0	747634688	51	4808
2026-01-12 02:15:38.52	237.74	20.31	-40.1	-42.4	21.3	6.05e-01	0	56	0	749207552	51	4795
2026-01-12 02:15:39.53	237.59	20.18	-40.1	-42.4	21.4	6.02e-01	0	56	0	751304704	51	4778
2026-01-12 02:15:40.54	237.44	20.05	-40.0	-42.3	21.5	6.02e-01	0	56	0	753401856	51	4741
2026-01-12 02:15:41.55	237.29	19.92	-40.1	-42.4	21.4	6.01e-01	0	56	0	754974720	51	4783
2026-01-12 02:15:42.56	237.14	19.79	-40.1	-42.5	21.3	6.02e-01	0	56	0	757071872	51	4821
2026-01-12 02:15:43.57	237.00	19.66	-40.2	-42.5	21.2	6.05e-01	0	56	0	758644736	51	4860
2026-01-12 02:15:44.58	236.85	19.54	-40.0	-42.2	21.5	6.05e-01	0	56	0	760741888	51	4705
2026-01-12 02:15:45.59	236.71	19.41	-39.8	-42.1	21.7	6.03e-01	0	56	0	762839040	51	4608
2026-01-12 02:15:46.60	236.57	19.28	-39.9	-42.1	21.6	6.03e-01	0	56	0	764411904	51	4626
2026-01-12 02:15:47.61	236.42	19.16	-39.9	-42.2	21.5	6.03e-01	0	56	0	766509056	51	4684
2026-01-12 02:15:48.62	236.28	19.03	-40.0	-42.3	21.4	6.04e-01	0	56	0	768081920	51	4751
2026-01-12 02:15:49.63	236.15	18.91	-40.1	-42.5	21.3	6.02e-01	0	56	0	770179072	51	4827
2026-01-12 02:15:50.63	236.01	18.79	-40.2	-42.5	21.2	6.02e-01	0	56	0	772276224	51	4867
2026-01-12 02:15:51.64	235.87	18.66	-40.2	-42.6	21.2	6.02e-01	0	56	0	773849088	51	4892
2026-01-12 02:15:52.65	235.74	18.54	-40.3	-42.7	21.0	6.01e-01	0	56	0	775946240	51	4949
2026-01-12 02:15:53.66	235.60	18.42	-40.2	-42.6	21.1	6.02e-01	0	56	0	777519104	51	4889
2026-01-12 02:15:54.67	235.47	18.30	-40.1	-42.4	21.3	6.03e-01	0	56	0	779616256	51	4794
2026-01-12 02:15:55.68	235.34	18.17	-40.1	-42.4	21.3	6.02e-01	0	56	0	781713408	51	4786
2026-01-12 02:15:56.69	235.21	18.05	-40.2	-42.5	21.1	6.04e-01	0	56	0	783286272	51	4869
2026-01-12 02:15:57.71	235.08	17.93	-40.2	-42.6	21.1	6.05e-01	0	56	0	785383424	51	4889
2026-01-12 02:15:58.72	234.95	17.81	-40.2	-42.6	21.1	6.01e-01	0	56	0	786956288	51	4895
2026-01-12 02:15:59.73	234.82	17.69	-40.3	-42.7	21.0	6.01e-01	0	56	0	789053440	51	4932
2026-01-12 02:16:00.73	234.70	17.57	-40.1	-42.5	21.2	6.03e-01	0	56	0	791150592	51	4831
2026-01-12 02:16:01.74	234.57	17.46	-40.1	-42.4	21.3	6.04e-01	0	57	0	792723456	51	4771
2026-01-12 02:16:02.75	234.45	17.34	-39.9	-42.1	21.5	6.03e-01	0	56	0	794820608	51	4631
2026-01-12 02:16:03.76	234.32	17.22	-39.8	-42.1	21.6	6.01e-01	0	56	0	796917760	51	4613
2026-01-12 02:16:04.77	234.20	17.10	-39.9	-42.1	21.5	6.03e-01	0	56	0	798490624	51	4639
2026-01-12 02:16:05.78	234.08	16.99	-40.0	-42.3	20.5	6.02e-01	0	56	0	800587776	51	4737
2026-01-12 02:16:06.79	233.96	16.87	-40.1	-42.4	21.2	6.02e-01	0	57	0	802160640	51	4792
2026-01-12 02:16:07.80	233.84	16.76	-40.2	-42.6	21.1	6.04e-01	0	56	0	804257792	51	4903
2026-01-12 02:16:08.80	233.72	16.64	-40.2	-42.6	21.0	6.01e-01	0	56	0	806354944	51	4921
2026-01-12 02:16:09.81	233.61	16.53	-40.1	-42.5	21.2	6.02e-01	0	56	0	807927808	51	4831
2026-01-12 02:16:10.82	233.49	16.41	-40.1	-42.4	21.3	6.04e-01	0	56	0	810024960	51	4781
2026-01-12 02:16:11.83	233.38	16.30	-40.0	-42.3	21.3	6.02e-01	0	56	0	812122112	51	4745
2026-01-12 02:16:12.84	233.26	16.19	-40.0	-42.3	21.3	6.04e-01	0	56	0	813694976	51	4726
2026-01-12 02:16:13.85	233.15	16.07	-40.0	-42.3	21.3	6.02e-01	0	56	0	815792128	51	4728
2026-01-12 02:16:14.86	233.04	15.96	-40.1	-42.4	21.2	6.04e-01	0	56	0	817364992	51	4784
2026-01-12 02:16:15.87	232.92	15.85	-40.2	-42.6	21.0	6.02e-01	0	56	0	819462144	51	4894
2026-01-12 02:16:16.88	232.81	15.74	-40.2	-42.6	21.0	6.03e-01	0	56	0	821559296	51	4898
2026-01-12 02:16:17.89	232.70	15.63	-40.3	-42.8	20.8	6.04e-01	0	56	0	823132160	51	5014
2026-01-12 02:16:18.90	232.59	15.52	-40.4	-42.9	20.7	6.03e-01	0	56	0	825229312	51	5049
2026-01-12 02:16:19.91	232.49	15.41	-40.4	-42.9	20.7	6.02e-01	0	56	0	826802176	51	5070
2026-01-12 02:16:20.92	232.38	15.30	-40.4	-42.9	20.6	6.03e-01	0	56	0	828899328	51	5086
2026-01-12 02:16:21.93	232.27	15.19	-40.3	-42.8	20.7	6.03e-01	0	56	0	830996480	51	5011
2026-01-12 02:16:22.94	232.17	15.08	-40.2	-42.6	21.0	6.03e-01	0	56	0	832569344	51	4906
2026-01-12 02:16:23.95	232.06	14.97	-40.1	-42.5	21.0	6.04e-01	0	56	0	834666496	51	4856
2026-01-12 02:16:24.96	231.96	14.87	-40.2	-42.6	21.0	6.03e-01	0	56	0	836239360	51	4871
2026-01-12 02:16:25.97	231.86	14.76	-40.0	-42.4	21.2	6.04e-01	0	56	0	838336512	51	4772
2026-01-12 02:16:26.98	231.75	14.65	-40.0	-42.3	21.2	6.02e-01	0	57	0	840433664	51	4755
2026-01-12 02:16:27.99	231.65	14.54	-40.1	-42.4	21.1	6.03e-01	0	56	0	842006528	51	4808
2026-01-12 02:16:29.00	231.55	14.44	-40.1	-42.6	21.0	6.04e-01	0	56	0	844103680	51	4883
2026-01-12 02:16:30.01	231.45	14.33	-40.1	-42.6	21.0	6.02e-01	0	56	0	845676544	51	4876
2026-01-12 02:16:31.02	231.35	14.23	-40.2	-42.7	20.9	6.02e-01	0	56	0	847773696	51	4933
2026-01-12 02:16:32.03	231.25	14.12	-40.3	-42.8	20.8	6.02e-01	0	56	0	849870848	51	5011
2026-01-12 02:16:33.04	231.16	14.02	-40.2	-42.7	20.9	6.02e-01	0	56	0	851443712	51	4961
2026-01-12 02:16:34.04	231.06	13.92	-40.2	-42.6	20.9	6.04e-01	0	56	0	853540864	51	4907
2026-01-12 02:16:35.05	230.96	13.81	-40.2	-42.6	20.9	6.05e-01	0	56	0	855113728	51	4923
2026-01-12 02:16:36.06	230.87	13.71	-40.2	-42.7	20.8	6.02e-01	0	56	0	857210880	51	4950
2026-01-12 02:16:37.07	230.77	13.61	-40.2	-42.6	20.9	6.03e-01	0	56	0	859308032	51	4918
2026-01-12 02:16:38.08	230.68	13.50	-40.1	-42.6	20.9	6.03e-01	0	56	0	860880896	51	4886
2026-01-12 02:16:39.09	230.59	13.40	-40.2	-42.6	20.8	6.03e-01	0	56	0	862978048	51	4926
2026-01-12 02:16:40.10	230.50	13.30	-40.0	-42.5	21.0	5.99e-01	0	56	0	865075200	51	4822
2026-01-12 02:16:41.11	230.40	13.20	-40.0	-42.5	21.0	6.02e-01	0	56	0	866648064	51	4829
2026-01-12 02:16:42.12	230.31	13.10	-40.1	-42.5	21.0	6.02e-01	0	56	0	868745216	51	4853
2026-01-12 02:16:43.13	230.22	13.00	-40.0	-42.5	21.0	6.02e-01	0	56	0	870318080	51	4825
2026-01-12 02:16:44.15	230.13	12.90	-40.1	-42.5	21.0	6.04e-01	0	56	0	872415232	51	4847
2026-01-12 02:16:45.16	230.04	12.80	-40.2	-42.6	20.9	6.03e-01	0	56	0	874512384	51	4919
2026-01-12 02:16:46.17	229.95	12.70	-40.2	-42.7	20.8	6.03e-01	0	56	0	876085248	51	4954
2026-01-12 02:16:47.18	229.87	12.60	-40.2	-42.7	20.7	6.01e-01	0	56	0	878182400	51	4960
2026-01-12 02:16:48.19	229.78	12.50	-40.2	-42.8	20.6	6.02e-01	0	56	0	880279552	51	4984
2026-01-12 02:16:49.19	229.69	12.41	-40.3	-42.8	20.7	6.03e-01	0	56	0	881852416	51	4998
2026-01-12 02:16:50.20	229.61	12.31	-40.2	-42.7	20.7	6.03e-01	0	56	0	883949568	51	4941
2026-01-12 02:16:51.21	229.52	12.21	-40.2	-42.7	20.7	6.01e-01	0	56	0	885522432	51	4965
2026-01-12 02:16:52.22	229.44	12.11	-40.2	-42.7	20.7	6.04e-01	0	56	0	887619584	51	4949
2026-01-12 02:16:53.23	229.35	12.02	-40.2	-42.7	20.7	6.04e-01	0	56	0	889716736	51	4957
2026-01-12 02:16:54.24	229.27	11.92	-40.3	-42.8	20.6	6.01e-01	0	57	0	891289600	51	5033
2026-01-12 02:16:55.25	229.19	11.83	-40.3	-42.8	20.6	6.02e-01	0	56	0	893386752	51	5030
2026-01-12 02:16:56.26	229.10	11.73	-40.3	-42.9	20.5	6.02e-01	0	57	0	894959616	51	5055
2026-01-12 02:16:57.27	229.02	11.64	-40.4	-43.0	20.5	6.01e-01	0	56	0	897056768	51	5110
2026-01-12 02:16:58.28	228.94	11.54	-40.5	-43.1	20.3	6.03e-01	0	56	0	899153920	51	5189
2026-01-12 02:16:59.29	228.86	11.45	-40.6	-43.3	20.1	6.03e-01	0	56	0	900726784	51	5315
2026-01-12 02:17:00.30	228.78	11.35	-40.6	-43.3	20.1	6.02e-01	0	56	0	902823936	51	5301
2026-01-12 02:17:01.31	228.70	11.26	-40.6	-43.3	20.0	6.04e-01	0	56	0	904396800	51	5334
2026-01-12 02:17:02.32	228.62	11.17	-40.7	-43.4	20.0	6.04e-01	0	56	0	906493952	51	5379
2026-01-12 02:17:03.33	228.55	11.07	-40.7	-43.4	20.0	6.03e-01	0	57	0	908591104	51	5374
2026-01-12 02:17:04.34	228.47	10.98	-40.6	-43.4	19.9	6.04e-01	0	56	0	910163968	52	5063
2026-01-12 02:17:05.35	228.39	10.89	-40.5	-43.2	20.1	6.04e-01	0	56	0	912261120	52	4941
2026-01-12 02:17:06.36	228.31	10.80	-40.4	-43.1	20.2	6.03e-01	0	56	0	913833984	52	4891
2026-01-12 02:17:07.37	228.24	10.70	-40.5	-43.2	20.1	6.04e-01	0	56	0	915931136	52	4942
2026-01-12 02:17:08.38	228.16	10.61	-40.4	-43.1	20.1	6.04e-01	0	57	0	918028288	52	4886
2026-01-12 02:17:09.39	228.09	10.52	-40.4	-43.1	20.2	6.01e-01	0	56	0	919601152	52	4882
2026-01-12 02:17:10.40	228.01	10.43	-40.4	-43.1	20.1	6.02e-01	0	57	0	921698304	52	4908
2026-01-12 02:17:11.41	227.94	10.34	-40.5	-43.2	20.0	6.01e-01	0	56	0	923271168	52	4962
2026-01-12 02:17:12.42	227.87	10.25	-40.5	-43.3	20.0	6.03e-01	0	57	0	925368320	52	4987
2026-01-12 02:17:13.43	227.79	10.16	-40.4	-43.0	20.2	6.02e-01	0	56	0	927465472	52	4859
2026-01-12 02:17:14.44	227.72	10.07	-40.3	-42.9	20.4	6.02e-01	0	56	0	929038336	52	4764
2026-01-12 02:17:15.44	227.65	9.98	-40.3	-42.9	20.3	6.01e-01	0	56	0	931135488	52	4793
2026-01-12 02:17:16.46	227.58	9.89	-40.3	-42.9	20.3	6.06e-01	0	57	0	933232640	52	4800
2026-01-12 02:17:17.47	227.51	9.81	-40.4	-43.0	20.2	6.02e-01	0	56	0	934805504	52	4844
2026-01-12 02:17:18.47	227.44	9.72	-40.5	-43.2	20.0	6.03e-01	0	57	0	936902656	52	4945
2026-01-12 02:17:19.48	227.37	9.63	-40.5	-43.2	20.0	6.04e-01	0	57	0	938475520	52	4956
2026-01-12 02:17:20.49	227.30	9.54	-40.6	-43.4	19.9	6.01e-01	0	57	0	940572672	52	5047
2026-01-12 02:17:21.50	227.23	9.46	-40.6	-43.4	19.8	6.04e-01	0	56	0	942669824	52	5080
2026-01-12 02:17:22.51	227.16	9.37	-40.7	-43.5	19.7	6.03e-01	0	56	0	944242688	52	5123
2026-01-12 02:17:23.52	227.09	9.28	-40.5	-43.3	19.9	6.02e-01	0	57	0	946339840	52	4984
2026-01-12 02:17:24.53	227.02	9.20	-40.6	-43.4	19.8	6.04e-01	0	57	0	948436992	52	5060
2026-01-12 02:17:25.54	226.95	9.11	-40.6	-43.4	19.8	6.02e-01	0	57	0	950009856	52	5057
2026-01-12 02:17:26.56	226.89	9.02	-40.6	-43.4	19.7	6.00e-01	0	56	0	952107008	52	5092
2026-01-12 02:17:27.57	226.82	8.94	-40.5	-43.3	19.8	6.04e-01	0	56	0	953679872	52	5012
2026-01-12 02:17:28.58	226.75	8.85	-40.4	-43.2	19.9	6.06e-01	0	57	0	955777024	52	4953
2026-01-12 02:17:29.59	226.69	8.77	-40.5	-43.3	19.8	6.04e-01	0	56	0	957874176	52	5037
2026-01-12 02:17:30.60	226.62	8.68	-40.5	-43.3	19.7	6.03e-01	0	57	0	959447040	52	5041
2026-01-12 02:17:31.61	226.56	8.60	-40.5	-43.4	19.7	6.02e-01	0	57	0	961544192	52	5042
2026-01-12 02:17:32.61	226.50	8.52	-40.6	-43.4	19.7	6.02e-01	0	57	0	963117056	52	5080
2026-01-12 02:17:33.62	226.43	8.43	-40.5	-43.4	19.7	6.04e-01	0	56	0	965214208	52	5078
2026-01-12 02:17:34.63	226.37	8.35	-40.7	-43.6	19.4	6.03e-01	0	57	0	967311360	52	5194
2026-01-12 02:17:35.64	226.30	8.27	-40.7	-43.6	19.4	6.03e-01	0	56	0	968884224	52	5197
2026-01-12 02:17:36.65	226.24	8.18	-40.7	-43.6	19.4	6.04e-01	0	57	0	970981376	52	5182
2026-01-12 02:17:37.66	226.18	8.10	-40.7	-43.7	19.3	6.04e-01	0	57	0	972554240	52	5259
2026-01-12 02:17:38.68	226.12	8.02	-44.7	-55.2	8.3	6.49e-01	71	57	0	974651392	60	12398
2026-01-12 02:17:39.69	226.06	7.94	-45.4	-64.3	3.8	7.46e-01	0	57	104	975175680	61	33405
2026-01-12 02:17:40.70	225.99	7.86	-45.7	-64.5	3.8	7.47e-01	0	57	104	975175680	61	34225
2026-01-12 02:17:41.71	225.93	7.77	-45.9	-64.7	3.8	7.45e-01	0	57	104	975175680	62	33076
2026-01-12 02:17:42.72	225.87	7.69	-46.0	-64.8	3.8	7.45e-01	0	57	104	975175680	62	33421
2026-01-12 02:17:43.73	225.81	7.61	-46.1	-64.9	3.8	7.47e-01	0	57	104	975175680	62	33785
2026-01-12 02:17:44.74	225.75	7.53	-46.1	-65.0	3.8	7.42e-01	0	57	104	975175680	62	34123
2026-01-12 02:17:45.75	225.70	7.45	-46.2	-65.0	3.8	7.47e-01	0	57	104	975175680	62	34259
2026-01-12 02:17:46.76	225.64	7.37	-46.2	-65.0	3.8	7.45e-01	0	57	104	975175680	62	34327
2026-01-12 02:17:47.77	225.58	7.29	-46.2	-65.0	3.8	7.46e-01	0	56	104	975175680	62	34281
2026-01-12 02:17:48.78	225.52	7.21	-46.1	-65.0	3.8	7.47e-01	0	57	104	975175680	62	34224
2026-01-12 02:17:49.79	225.46	7.13	-46.1	-65.0	3.8	7.43e-01	0	57	104	975175680	62	34111
2026-01-12 02:17:50.80	225.40	7.05	-46.1	-64.9	3.8	7.44e-01	0	57	104	975175680	62	34044
2026-01-12 02:17:51.81	225.35	6.97	-46.1	-64.9	3.8	7.42e-01	0	57	104	975175680	62	34008
2026-01-12 02:17:52.81	225.29	6.89	-46.0	-64.9	3.8	7.45e-01	0	56	104	975175680	62	33855
2026-01-12 02:17:53.83	225.23	6.82	-46.0	-64.9	3.8	7.46e-01	0	57	104	975175680	62	33835
2026-01-12 02:17:54.84	225.18	6.74	-46.0	-64.9	3.8	7.47e-01	0	56	104	975175680	62	33846
2026-01-12 02:17:55.85	225.12	6.66	-46.0	-64.9	3.8	7.47e-01	0	57	104	975175680	62	33794
2026-01-12 02:17:56.86	225.07	6.58	-46.0	-64.9	3.8	7.44e-01	0	57	104	975175680	62	33752
2026-01-12 02:17:57.87	225.01	6.50	-46.0	-64.8	3.8	7.43e-01	0	57	104	975175680	62	33677
2026-01-12 02:17:58.88	224.96	6.43	-46.0	-64.9	3.8	7.43e-01	0	57	104	975175680	62	33737
2026-01-12 02:17:59.89	224.90	6.35	-46.0	-64.8	3.8	7.45e-01	0	57	104	975175680	62	33679
2026-01-12 02:18:00.90	224.85	6.27	-46.0	-64.9	3.8	7.50e-01	0	57	104	975175680	62	33761
2026-01-12 02:18:01.91	224.80	6.20	-46.0	-64.9	3.8	7.45e-01	0	57	104	975175680	62	33754
2026-01-12 02:18:02.92	224.74	6.12	-46.0	-64.8	3.8	7.45e-01	0	57	104	975175680	62	33600
2026-01-12 02:18:03.93	224.69	6.04	-46.0	-64.9	3.8	7.46e-01	0	57	104	975175680	62	33720
2026-01-12 02:18:04.94	224.64	5.97	-46.0	-64.9	3.8	7.42e-01	0	57	104	975175680	62	33759
2026-01-12 02:18:05.96	224.58	5.89	-46.0	-64.9	3.8	7.45e-01	0	57	104	975175680	62	33700
2026-01-12 02:18:06.97	224.53	5.82	-46.0	-64.8	3.8	7.44e-01	0	57	104	975175680	62	33625
2026-01-12 02:18:07.98	224.48	5.74	-46.0	-64.8	3.8	7.48e-01	0	57	104	975175680	62	33645
2026-01-12 02:18:08.99	224.43	5.67	-46.0	-64.8	3.8	7.44e-01	0	57	104	975175680	62	33670
2026-01-12 02:18:10.00	224.38	5.59	-46.0	-64.8	3.8	7.44e-01	0	57	104	975175680	62	33632
2026-01-12 02:18:11.01	224.33	5.52	-46.0	-64.8	3.8	7.45e-01	0	57	104	975175680	62	33690
2026-01-12 02:18:12.02	224.28	5.44	-46.0	-64.8	3.8	7.47e-01	0	57	104	975175680	62	33648
2026-01-12 02:18:13.04	224.22	5.37	-46.0	-64.8	3.8	7.43e-01	0	57	104	975175680	62	33662
2026-01-12 02:18:14.05	224.17	5.29	-46.0	-64.8	3.8	7.44e-01	0	57	104	975175680	62	33631
2026-01-12 02:18:15.06	224.13	5.22	-46.0	-64.9	3.8	7.45e-01	0	57	104	975175680	62	33716
2026-01-12 02:18:16.07	224.08	5.15	-46.0	-64.8	3.8	7.42e-01	0	57	104	975175680	62	33612
2026-01-12 02:18:17.08	224.03	5.07	-46.0	-64.8	3.8	7.47e-01	0	57	104	975175680	62	33597
2026-01-12 02:18:18.09	223.98	5.00	-46.0	-64.8	3.8	7.46e-01	0	57	104	975175680	62	33629
2026-01-12 02:18:19.10	223.93	4.93	-46.0	-64.8	3.8	7.45e-01	0	57	104	975175680	62	33646
2026-01-12 02:18:20.12	223.88	4.85	-46.0	-64.8	3.8	7.43e-01	0	57	104	975175680	62	33618
2026-01-12 02:18:21.13	223.83	4.78	-46.0	-64.8	3.8	7.42e-01	0	57	104	975175680	62	33554
2026-01-12 02:18:22.14	223.78	4.71	-46.0	-64.8	3.8	7.46e-01	0	57	104	975175680	62	33615
2026-01-12 02:18:23.15	223.74	4.64	-46.0	-64.8	3.8	7.44e-01	0	57	104	975175680	62	33610
2026-01-12 02:18:24.16	223.69	4.56	-46.0	-64.8	3.8	7.47e-01	0	57	104	975175680	62	33594
2026-01-12 02:18:25.17	223.64	4.49	-46.0	-64.8	3.8	7.47e-01	0	57	104	975175680	62	33638
2026-01-12 02:18:26.18	223.60	4.42	-46.0	-64.8	3.8	7.40e-01	0	57	104	975175680	62	33589
