passes_logs/2026/01/12/R2.0S_Moscow/R2.0S_Moscow__20260112_031047_FENGYUN_3D_rec.log

#Pass ID: 20260112_031047_FENGYUN 3D
#Satellite: FENGYUN 3D
#Configuration: FENGYUN 3D
#almurnet v.1.7.20251203
#Start time: 2026-01-12 03:10:49

#Version: 2.2.20231116
#Station: R2.0S_Moscow
#Location: 37.707566 lon 55.798166 lat
#TLE: 1 43010U 17072A   26011.26828046  .00000354  00000+0  18908-3 0  9991
#TLE: 2 43010  98.9936 343.0270 0002205 114.1788 245.9618 14.19695184422722

#Time	Az	El	Level	Level2	SNR	BER	BlckErr	Temp	State	Recorded	gain1	gain2
2026-01-12 03:10:49.28	11.31	2.12	-39.8	-51.5	3.8	8.46e-01	0	47	0	0	51	13652
2026-01-12 03:10:50.29	11.26	2.18	-39.8	-51.5	3.8	8.45e-01	0	48	104	0	51	13596
2026-01-12 03:10:51.30	11.20	2.24	-39.8	-51.5	3.8	8.46e-01	0	48	104	0	51	13618
2026-01-12 03:10:52.31	11.14	2.30	-39.8	-51.5	3.8	8.46e-01	0	48	104	0	51	13659
2026-01-12 03:10:53.32	11.08	2.36	-39.8	-51.5	3.8	8.46e-01	0	48	104	0	51	13618
2026-01-12 03:10:54.34	11.03	2.42	-39.8	-51.5	3.8	8.47e-01	0	48	104	0	51	13649
2026-01-12 03:10:55.35	10.97	2.48	-39.8	-51.5	3.8	8.47e-01	0	48	104	0	51	13587
2026-01-12 03:10:56.36	10.91	2.54	-39.8	-51.5	3.8	8.45e-01	0	48	104	0	51	13615
2026-01-12 03:10:57.37	10.85	2.60	-39.8	-51.5	3.8	8.46e-01	0	48	104	0	51	13620
2026-01-12 03:10:58.38	10.79	2.66	-39.8	-51.5	3.8	8.47e-01	0	48	104	0	51	13660
2026-01-12 03:10:59.39	10.74	2.72	-39.8	-51.5	3.8	8.46e-01	0	49	104	0	51	13639
2026-01-12 03:11:00.40	10.68	2.78	-39.8	-51.5	3.8	8.46e-01	0	49	104	0	51	13621
2026-01-12 03:11:01.41	10.62	2.84	-39.8	-51.5	3.8	8.46e-01	0	48	104	0	51	13615
2026-01-12 03:11:02.42	10.56	2.90	-39.8	-51.5	3.8	8.46e-01	0	48	104	0	51	13659
2026-01-12 03:11:03.44	10.50	2.96	-39.8	-51.5	3.8	8.45e-01	0	49	104	0	51	13650
2026-01-12 03:11:04.45	10.44	3.02	-39.8	-51.5	3.8	8.45e-01	0	49	104	0	51	13634
2026-01-12 03:11:05.46	10.38	3.08	-39.8	-51.5	3.8	8.46e-01	0	49	104	0	51	13621
2026-01-12 03:11:06.47	10.32	3.14	-39.8	-51.5	3.8	8.47e-01	0	49	104	0	51	13654
2026-01-12 03:11:07.48	10.26	3.20	-39.8	-51.5	3.8	8.46e-01	0	49	104	0	51	13612
2026-01-12 03:11:08.49	10.20	3.26	-39.8	-51.5	3.8	8.46e-01	0	49	104	0	51	13629
2026-01-12 03:11:09.50	10.13	3.32	-39.8	-51.5	3.8	8.45e-01	0	49	104	0	51	13642
2026-01-12 03:11:10.51	10.07	3.38	-39.8	-51.4	3.8	8.47e-01	0	49	104	0	51	13566
2026-01-12 03:11:11.52	10.01	3.45	-39.8	-51.5	3.8	8.47e-01	0	49	104	0	51	13623
2026-01-12 03:11:12.53	9.95	3.51	-39.8	-51.5	3.8	8.46e-01	0	49	104	0	51	13570
2026-01-12 03:11:13.55	9.89	3.57	-39.8	-51.5	3.8	8.45e-01	0	49	104	0	51	13649
2026-01-12 03:11:14.56	9.82	3.63	-39.8	-51.5	3.8	8.46e-01	0	49	104	0	51	13618
2026-01-12 03:11:15.57	9.76	3.69	-39.8	-51.5	3.8	8.47e-01	0	49	104	0	51	13591
2026-01-12 03:11:16.58	9.70	3.75	-39.8	-51.5	3.8	8.46e-01	0	50	104	0	51	13581
2026-01-12 03:11:17.59	9.63	3.82	-39.8	-51.5	3.8	8.46e-01	0	50	104	0	51	13632
2026-01-12 03:11:18.60	9.57	3.88	-39.8	-51.4	3.8	8.47e-01	0	50	104	0	51	13537
2026-01-12 03:11:19.61	9.51	3.94	-39.8	-51.5	3.8	8.45e-01	0	50	104	0	51	13593
2026-01-12 03:11:20.62	9.44	4.00	-39.8	-51.5	3.8	8.46e-01	0	50	104	0	51	13597
2026-01-12 03:11:21.63	9.38	4.07	-39.8	-51.5	3.8	8.46e-01	0	50	104	0	51	13616
2026-01-12 03:11:22.64	9.31	4.13	-39.8	-51.5	3.8	8.46e-01	0	50	104	0	51	13616
2026-01-12 03:11:23.66	9.25	4.19	-39.8	-51.4	3.8	8.45e-01	0	50	104	0	51	13559
2026-01-12 03:11:24.67	9.18	4.25	-39.8	-51.5	3.8	8.46e-01	0	50	104	0	51	13619
2026-01-12 03:11:25.68	9.11	4.32	-39.8	-51.5	3.8	8.46e-01	0	50	104	0	51	13603
2026-01-12 03:11:26.69	9.05	4.38	-39.8	-51.5	3.8	8.45e-01	0	50	104	0	51	13602
2026-01-12 03:11:27.70	8.98	4.44	-39.8	-51.5	3.8	8.46e-01	0	50	104	0	51	13592
2026-01-12 03:11:28.71	8.92	4.50	-39.8	-51.5	3.8	8.46e-01	0	50	104	0	51	13583
2026-01-12 03:11:29.72	8.85	4.57	-39.8	-51.4	3.8	8.47e-01	0	51	104	0	51	13567
2026-01-12 03:11:30.73	8.78	4.63	-39.8	-51.5	3.8	8.47e-01	0	50	104	0	51	13581
2026-01-12 03:11:31.74	8.71	4.69	-39.8	-51.5	3.8	8.46e-01	0	50	104	0	51	13579
2026-01-12 03:11:32.75	8.65	4.76	-39.8	-51.5	3.8	8.46e-01	0	51	104	0	51	13589
2026-01-12 03:11:33.77	8.58	4.82	-39.8	-51.5	3.8	8.46e-01	0	51	104	0	51	13589
2026-01-12 03:11:34.78	8.51	4.89	-39.8	-51.5	3.8	8.47e-01	0	51	104	0	51	13633
2026-01-12 03:11:35.79	8.44	4.95	-39.8	-51.4	3.8	8.46e-01	0	51	104	0	51	13547
2026-01-12 03:11:36.80	8.37	5.01	-39.8	-51.5	3.8	8.46e-01	0	51	104	0	51	13628
2026-01-12 03:11:37.81	8.30	5.08	-39.8	-51.5	3.8	8.46e-01	0	51	104	0	51	13580
2026-01-12 03:11:38.82	8.23	5.14	-39.8	-51.5	3.8	8.46e-01	0	51	104	0	51	13574
2026-01-12 03:11:39.83	8.16	5.21	-39.8	-51.4	3.8	8.46e-01	0	51	104	0	51	13563
2026-01-12 03:11:40.84	8.09	5.27	-39.8	-51.5	3.8	8.47e-01	0	51	104	0	51	13571
2026-01-12 03:11:41.85	8.02	5.34	-39.8	-51.4	3.8	8.46e-01	0	51	104	0	51	13562
2026-01-12 03:11:42.86	7.95	5.40	-39.8	-51.5	3.8	8.46e-01	0	51	104	0	51	13598
2026-01-12 03:11:43.87	7.88	5.47	-39.8	-51.5	3.8	8.47e-01	0	51	104	0	51	13597
2026-01-12 03:11:44.88	7.80	5.53	-39.8	-51.5	3.8	8.46e-01	0	51	104	0	51	13582
2026-01-12 03:11:45.89	7.73	5.59	-39.8	-51.5	3.8	8.46e-01	0	51	104	0	51	13601
2026-01-12 03:11:46.90	7.66	5.66	-39.8	-51.5	3.8	8.47e-01	0	51	104	0	51	13597
2026-01-12 03:11:47.91	7.59	5.73	-39.8	-51.5	3.8	8.47e-01	0	51	104	0	51	13570
2026-01-12 03:11:48.93	7.51	5.79	-39.8	-51.5	3.8	8.46e-01	0	51	104	0	51	13629
2026-01-12 03:11:49.94	7.44	5.86	-39.8	-51.5	3.8	8.46e-01	0	52	104	0	51	13613
2026-01-12 03:11:50.95	7.36	5.92	-39.8	-51.4	3.8	8.46e-01	0	52	104	0	51	13560
2026-01-12 03:11:51.96	7.29	5.99	-39.8	-51.4	3.8	8.46e-01	0	52	104	0	51	13566
2026-01-12 03:11:52.97	7.22	6.05	-39.8	-51.5	3.8	8.46e-01	0	52	104	0	51	13638
2026-01-12 03:11:53.98	7.14	6.12	-39.8	-51.5	3.8	8.46e-01	0	52	104	0	51	13595
2026-01-12 03:11:54.99	7.06	6.19	-39.8	-51.4	3.8	8.46e-01	0	51	104	0	51	13562
2026-01-12 03:11:56.00	6.99	6.25	-39.8	-51.4	3.8	8.47e-01	0	52	104	0	51	13558
2026-01-12 03:11:57.02	6.91	6.32	-39.8	-51.5	3.8	8.47e-01	0	52	104	0	51	13615
2026-01-12 03:11:58.03	6.84	6.39	-39.8	-51.4	3.8	8.47e-01	0	52	104	0	51	13563
2026-01-12 03:11:59.04	6.76	6.45	-39.8	-51.5	3.8	8.46e-01	0	52	104	0	51	13596
2026-01-12 03:12:00.05	6.68	6.52	-39.8	-51.4	3.8	8.47e-01	0	52	104	0	51	13566
2026-01-12 03:12:01.06	6.60	6.59	-39.8	-51.5	3.8	8.46e-01	0	52	104	0	51	13586
2026-01-12 03:12:02.07	6.53	6.65	-39.8	-51.5	3.8	8.46e-01	0	52	104	0	51	13597
2026-01-12 03:12:03.08	6.45	6.72	-39.8	-51.5	3.8	8.46e-01	0	52	104	0	51	13590
2026-01-12 03:12:04.10	6.37	6.79	-39.8	-51.4	3.8	8.46e-01	0	52	104	0	51	13567
2026-01-12 03:12:05.11	6.29	6.85	-39.8	-51.5	3.8	8.46e-01	0	52	104	0	51	13596
2026-01-12 03:12:06.12	6.21	6.92	-39.8	-51.5	3.8	8.47e-01	0	52	104	0	51	13592
2026-01-12 03:12:07.13	6.13	6.99	-39.8	-51.5	3.8	8.45e-01	0	52	104	0	51	13593
2026-01-12 03:12:08.14	6.05	7.06	-39.8	-51.5	3.8	8.46e-01	0	52	104	0	51	13665
2026-01-12 03:12:09.15	5.97	7.12	-39.8	-51.4	3.8	8.47e-01	0	52	104	0	51	13564
2026-01-12 03:12:10.16	5.89	7.19	-39.8	-51.4	3.8	8.46e-01	0	52	104	0	51	13567
2026-01-12 03:12:11.17	5.81	7.26	-39.8	-51.5	3.8	8.45e-01	0	52	104	0	51	13580
2026-01-12 03:12:12.18	5.72	7.33	-39.8	-51.5	3.8	8.45e-01	0	52	104	0	51	13617
2026-01-12 03:12:13.19	5.64	7.40	-39.8	-51.5	3.8	8.46e-01	0	52	104	0	51	13591
2026-01-12 03:12:14.20	5.56	7.47	-39.8	-51.5	3.8	8.47e-01	0	52	104	0	51	13597
2026-01-12 03:12:15.21	5.48	7.53	-39.8	-51.4	3.8	8.44e-01	0	53	104	0	51	13548
2026-01-12 03:12:16.22	5.39	7.60	-39.8	-51.5	3.8	8.46e-01	0	53	104	0	51	13586
2026-01-12 03:12:17.23	5.31	7.67	-39.8	-51.5	3.8	8.45e-01	0	53	104	0	51	13603
2026-01-12 03:12:18.25	5.22	7.74	-39.8	-51.5	3.8	8.47e-01	0	53	104	0	51	13575
2026-01-12 03:12:19.26	5.14	7.81	-39.8	-51.5	3.8	8.45e-01	0	53	104	0	51	13583
2026-01-12 03:12:20.27	5.05	7.88	-39.8	-51.5	3.8	8.46e-01	0	53	104	0	51	13583
2026-01-12 03:12:21.28	4.97	7.95	-39.8	-51.5	3.8	8.46e-01	0	53	104	0	51	13616
2026-01-12 03:12:22.29	4.88	8.02	-39.8	-51.5	3.8	8.47e-01	0	53	104	0	51	13607
2026-01-12 03:12:23.30	4.80	8.09	-39.8	-51.5	3.8	8.47e-01	0	53	104	0	51	13572
2026-01-12 03:12:24.31	4.71	8.16	-39.9	-51.5	3.8	8.46e-01	0	53	104	0	51	13684
2026-01-12 03:12:25.32	4.62	8.23	-39.8	-51.5	3.8	8.47e-01	0	53	104	0	51	13582
2026-01-12 03:12:26.33	4.53	8.30	-39.9	-51.6	3.8	8.45e-01	0	53	104	0	51	13749
2026-01-12 03:12:27.34	4.45	8.37	-39.9	-51.6	3.8	8.45e-01	0	53	104	0	51	13750
2026-01-12 03:12:28.35	4.36	8.44	-39.8	-51.5	3.8	8.46e-01	0	53	104	0	51	13690
2026-01-12 03:12:29.36	4.27	8.51	-39.9	-51.6	3.8	8.46e-01	0	53	104	0	51	13809
2026-01-12 03:12:30.38	4.18	8.58	-39.9	-51.5	3.8	8.45e-01	0	53	104	0	51	13715
2026-01-12 03:12:31.39	4.09	8.65	-39.9	-51.6	3.8	8.45e-01	0	53	104	0	51	13787
2026-01-12 03:12:32.40	4.00	8.72	-39.8	-51.5	3.8	8.46e-01	0	53	104	0	51	13713
2026-01-12 03:12:33.40	3.91	8.79	-39.9	-51.6	3.8	8.45e-01	0	53	104	0	51	13850
2026-01-12 03:12:34.41	3.82	8.86	-39.8	-51.5	3.8	8.46e-01	0	53	104	0	51	13657
2026-01-12 03:12:35.42	3.72	8.93	-39.8	-51.5	3.8	8.45e-01	0	53	104	0	51	13724
2026-01-12 03:12:36.43	3.63	9.00	-39.9	-51.5	3.8	8.46e-01	0	53	104	0	51	13710
2026-01-12 03:12:37.44	3.54	9.07	-39.8	-51.6	3.8	8.48e-01	0	53	104	0	51	13754
2026-01-12 03:12:38.45	3.45	9.15	-39.9	-51.6	3.8	8.46e-01	0	53	104	0	51	13788
2026-01-12 03:12:39.46	3.35	9.22	-39.9	-51.6	3.8	8.46e-01	0	54	104	0	51	13809
2026-01-12 03:12:40.47	3.26	9.29	-39.7	-51.5	3.8	8.47e-01	0	53	104	0	51	13583
2026-01-12 03:12:41.48	3.16	9.36	-39.8	-51.6	3.8	8.46e-01	0	54	104	0	51	13806
2026-01-12 03:12:42.49	3.07	9.43	-39.8	-51.6	3.8	8.45e-01	0	54	104	0	51	13740
2026-01-12 03:12:43.50	2.97	9.50	-39.8	-51.6	3.8	8.46e-01	0	53	104	0	51	13794
2026-01-12 03:12:44.51	2.88	9.58	-39.8	-51.6	3.8	8.47e-01	0	54	104	0	51	13777
2026-01-12 03:12:45.52	2.78	9.65	-39.8	-51.6	3.8	8.47e-01	0	54	104	0	51	13740
2026-01-12 03:12:46.53	2.68	9.72	-39.9	-51.6	3.8	8.46e-01	0	54	104	0	51	13875
2026-01-12 03:12:47.54	2.58	9.79	-39.8	-51.6	3.8	8.46e-01	0	54	104	0	51	13789
2026-01-12 03:12:48.55	2.49	9.87	-39.8	-51.6	3.8	8.47e-01	0	54	104	0	51	13782
2026-01-12 03:12:49.56	2.39	9.94	-39.8	-51.6	3.8	8.47e-01	0	54	104	0	51	13792
2026-01-12 03:12:50.57	2.29	10.01	-39.8	-51.6	3.8	8.46e-01	0	54	104	0	51	13747
2026-01-12 03:12:51.58	2.19	10.09	-39.8	-51.6	3.8	8.47e-01	0	54	104	0	51	13813
2026-01-12 03:12:52.59	2.09	10.16	-39.8	-51.6	3.8	8.45e-01	0	54	104	0	51	13780
2026-01-12 03:12:53.60	1.99	10.23	-39.8	-51.6	3.8	8.47e-01	0	54	104	0	51	13858
2026-01-12 03:12:54.61	1.89	10.31	-39.9	-51.7	3.8	8.47e-01	0	54	104	0	51	13967
2026-01-12 03:12:55.62	1.79	10.38	-39.8	-51.6	3.8	8.46e-01	0	54	104	0	51	13760
2026-01-12 03:12:56.63	1.68	10.45	-39.9	-51.6	3.8	8.46e-01	0	54	104	0	51	13879
2026-01-12 03:12:57.64	1.58	10.53	-39.8	-51.6	3.8	8.47e-01	0	54	104	0	51	13803
2026-01-12 03:12:58.65	1.48	10.60	-39.9	-51.7	3.8	8.45e-01	0	54	104	0	51	13949
2026-01-12 03:12:59.66	1.37	10.68	-39.8	-51.6	3.8	8.46e-01	0	54	104	0	51	13855
2026-01-12 03:13:00.67	1.27	10.75	-39.9	-51.7	3.8	8.47e-01	0	54	104	0	51	13968
2026-01-12 03:13:01.68	1.16	10.83	-39.8	-51.6	3.8	8.46e-01	0	54	104	0	51	13844
2026-01-12 03:13:02.69	1.06	10.90	-40.1	-51.8	3.8	8.46e-01	0	54	104	0	51	14174
2026-01-12 03:13:03.70	0.95	10.97	-39.8	-51.6	3.8	8.46e-01	0	54	104	0	51	13823
2026-01-12 03:13:04.71	0.84	11.05	-40.0	-51.8	3.8	8.45e-01	0	54	104	0	51	14168
2026-01-12 03:13:05.72	0.74	11.12	-39.9	-51.7	3.8	8.46e-01	0	54	104	0	51	13887
2026-01-12 03:13:06.73	0.63	11.20	-40.0	-51.8	3.8	8.46e-01	0	54	104	0	51	14183
2026-01-12 03:13:07.74	0.52	11.28	-39.9	-51.7	3.8	8.45e-01	0	54	104	0	51	13998
2026-01-12 03:13:08.75	0.41	11.35	-40.0	-51.9	3.8	8.45e-01	0	54	104	0	51	14311
2026-01-12 03:13:09.76	0.30	11.43	-40.0	-51.7	3.8	8.47e-01	0	54	104	0	51	14028
2026-01-12 03:13:10.77	0.19	11.50	-40.2	-52.0	3.8	8.46e-01	0	54	104	0	51	14530
2026-01-12 03:13:11.78	0.08	11.58	-39.8	-51.7	3.8	8.46e-01	0	54	104	0	51	13967
2026-01-12 03:13:12.79	359.97	11.65	-40.2	-52.1	3.8	8.45e-01	0	54	104	0	51	14604
2026-01-12 03:13:13.80	359.86	11.73	-39.7	-51.6	3.8	8.46e-01	0	54	104	0	51	13833
2026-01-12 03:13:14.81	359.75	11.81	-39.7	-51.7	3.8	8.46e-01	0	55	104	0	51	14043
2026-01-12 03:13:15.82	359.63	11.88	-39.7	-51.6	3.8	8.45e-01	0	54	104	0	51	13815
2026-01-12 03:13:16.83	359.52	11.96	-39.6	-51.6	3.8	8.46e-01	0	54	104	0	51	13813
2026-01-12 03:13:17.84	359.40	12.03	-39.6	-51.6	3.8	8.45e-01	0	55	104	0	51	13790
2026-01-12 03:13:18.85	359.29	12.11	-39.6	-51.6	3.8	8.46e-01	0	54	104	0	51	13758
2026-01-12 03:13:19.86	359.17	12.19	-39.7	-51.7	3.8	8.47e-01	0	55	104	0	51	13910
2026-01-12 03:13:20.87	359.06	12.27	-39.7	-51.7	3.8	8.47e-01	0	55	104	0	51	13913
2026-01-12 03:13:21.88	358.94	12.34	-40.7	-51.4	3.8	8.45e-01	0	55	104	0	52	12701
2026-01-12 03:13:22.89	358.82	12.42	-40.7	-51.1	3.8	8.46e-01	0	54	104	0	52	12322
2026-01-12 03:13:23.90	358.70	12.50	-40.0	-51.8	3.8	8.45e-01	0	55	104	0	51	14117
2026-01-12 03:13:24.91	358.59	12.57	-40.4	-50.6	3.8	8.47e-01	0	55	104	0	51	12349
2026-01-12 03:13:25.92	358.47	12.65	-40.5	-48.9	4.3	8.38e-01	0	55	0	0	51	10113
2026-01-12 03:13:26.93	358.35	12.73	-40.2	-47.4	4.9	8.08e-01	0	55	0	0	51	8464
2026-01-12 03:13:27.94	358.23	12.81	-39.8	-45.6	6.1	4.33e-01	0	55	0	2097152	51	6930
2026-01-12 03:13:28.95	358.10	12.88	-39.4	-44.3	7.4	1.92e-01	0	55	0	7340032	50	6342
2026-01-12 03:13:29.95	357.98	12.96	-38.9	-43.0	8.8	5.36e-02	0	55	0	13631488	49	5732
2026-01-12 03:13:30.96	357.86	13.04	-38.3	-41.6	10.3	1.43e-02	0	55	0	18874368	48	5215
2026-01-12 03:13:31.98	357.74	13.12	-37.5	-40.3	11.6	1.45e-03	0	55	0	24117248	47	4754
2026-01-12 03:13:32.99	357.61	13.20	-36.9	-39.5	12.6	2.44e-04	0	55	0	30408704	45	4819
2026-01-12 03:13:33.99	357.49	13.28	-36.8	-39.2	12.9	6.06e-05	0	55	0	35651584	45	4699
2026-01-12 03:13:35.01	357.36	13.35	-37.0	-39.5	12.9	6.52e-05	0	55	0	41943040	45	4830
2026-01-12 03:13:36.02	357.24	13.43	-37.8	-40.5	12.0	3.15e-04	0	55	0	47185920	46	5115
2026-01-12 03:13:37.02	357.11	13.51	-38.2	-41.0	11.5	1.02e-03	0	55	0	52428800	46	5459
2026-01-12 03:13:38.03	356.98	13.59	-38.1	-40.9	11.8	1.18e-03	0	55	0	58720256	47	5047
2026-01-12 03:13:39.04	356.85	13.67	-37.5	-39.9	12.9	1.58e-04	0	55	0	63963136	47	4516
2026-01-12 03:13:40.05	356.73	13.75	-37.3	-39.6	13.2	4.00e-05	0	55	0	70254592	46	4645
2026-01-12 03:13:41.06	356.60	13.83	-37.6	-40.1	12.7	1.07e-04	0	55	0	75497472	46	4920
2026-01-12 03:13:42.07	356.47	13.91	-37.7	-40.2	12.5	1.56e-04	0	55	0	81788928	46	4982
2026-01-12 03:13:43.08	356.33	13.99	-38.1	-40.9	11.8	6.01e-04	0	55	0	87031808	46	5389
2026-01-12 03:13:44.09	356.20	14.07	-38.7	-41.9	10.6	2.25e-03	0	55	0	93323264	47	5709
2026-01-12 03:13:45.10	356.07	14.15	-39.2	-42.9	9.5	1.40e-02	0	55	0	98566144	49	5705
2026-01-12 03:13:46.11	355.94	14.23	-39.7	-44.2	8.0	4.28e-02	0	55	0	103809024	49	6591
2026-01-12 03:13:47.12	355.80	14.31	-40.2	-45.5	6.6	2.09e-01	0	55	0	110100480	50	7273
2026-01-12 03:13:48.13	355.67	14.39	-40.3	-46.4	5.8	3.32e-01	0	55	0	115343360	51	7550
2026-01-12 03:13:49.14	355.53	14.47	-40.6	-48.3	4.6	8.01e-01	0	55	0	116391936	51	9389
2026-01-12 03:13:50.15	355.40	14.55	-40.7	-49.4	4.1	8.32e-01	0	55	0	116391936	51	10662
2026-01-12 03:13:51.16	355.26	14.63	-40.7	-50.2	4.0	8.44e-01	0	55	104	116391936	51	11753
2026-01-12 03:13:52.17	355.12	14.71	-40.6	-51.2	3.8	8.47e-01	0	55	104	116391936	51	13244
2026-01-12 03:13:53.18	354.98	14.79	-40.6	-51.5	3.8	8.46e-01	0	55	104	116391936	51	13706
2026-01-12 03:13:54.18	354.85	14.87	-40.6	-52.0	3.8	8.46e-01	0	55	104	116391936	51	14401
2026-01-12 03:13:55.19	354.71	14.95	-40.6	-52.1	3.8	8.46e-01	0	55	104	116391936	51	14601
2026-01-12 03:13:56.20	354.56	15.03	-40.5	-52.1	3.8	8.46e-01	0	55	104	116391936	51	14640
2026-01-12 03:13:57.21	354.42	15.11	-40.5	-52.1	3.8	8.48e-01	0	55	104	116391936	51	14668
2026-01-12 03:13:58.22	354.28	15.19	-40.6	-52.2	3.8	8.46e-01	0	55	104	116391936	51	14772
2026-01-12 03:13:59.23	354.14	15.27	-40.3	-52.2	3.8	8.45e-01	0	55	104	116391936	51	14731
2026-01-12 03:14:00.23	353.99	15.35	-40.6	-52.3	3.8	8.47e-01	0	55	104	116391936	51	14930
2026-01-12 03:14:01.23	353.85	15.43	-40.5	-52.1	3.8	8.47e-01	0	55	104	116391936	51	14662
2026-01-12 03:14:02.24	353.71	15.51	-40.5	-52.2	3.8	8.46e-01	0	55	104	116391936	51	14826
2026-01-12 03:14:03.25	353.56	15.60	-40.5	-52.2	3.8	8.46e-01	0	55	104	116391936	51	14763
2026-01-12 03:14:04.26	353.41	15.68	-40.2	-52.4	3.8	8.46e-01	0	55	104	116391936	51	15164
2026-01-12 03:14:05.27	353.26	15.76	-40.4	-52.1	3.8	8.45e-01	0	55	104	116391936	51	14680
2026-01-12 03:14:06.28	353.12	15.84	-40.2	-52.5	3.8	8.47e-01	0	56	104	116391936	51	15236
2026-01-12 03:14:07.29	352.97	15.92	-40.3	-52.2	3.8	8.47e-01	0	55	104	116391936	51	14755
2026-01-12 03:14:08.30	352.82	16.00	-40.0	-52.3	3.8	8.47e-01	0	55	104	116391936	51	14949
2026-01-12 03:14:09.31	352.66	16.09	-40.6	-52.4	3.8	8.46e-01	0	55	104	116391936	51	15201
2026-01-12 03:14:10.32	352.51	16.17	-40.1	-52.3	3.8	8.46e-01	0	56	104	116391936	51	15004
2026-01-12 03:14:11.33	352.36	16.25	-40.6	-52.4	3.8	8.46e-01	0	56	104	116391936	51	15156
2026-01-12 03:14:12.34	352.20	16.33	-40.4	-52.3	3.8	8.45e-01	0	56	104	116391936	51	14934
2026-01-12 03:14:13.35	352.05	16.41	-40.3	-52.4	3.8	8.45e-01	0	55	104	116391936	51	15179
2026-01-12 03:14:14.36	351.89	16.50	-40.1	-52.3	3.8	8.47e-01	0	55	104	116391936	51	14967
2026-01-12 03:14:15.37	351.74	16.58	-40.4	-52.4	3.8	8.46e-01	0	55	104	116391936	51	15150
2026-01-12 03:14:16.38	351.58	16.66	-40.5	-52.2	3.8	8.46e-01	0	56	104	116391936	52	14031
2026-01-12 03:14:17.38	351.42	16.74	-39.9	-52.3	3.8	8.46e-01	0	56	104	116391936	51	15050
2026-01-12 03:14:18.39	351.26	16.82	-40.2	-52.4	3.8	8.46e-01	0	56	104	116391936	51	15073
2026-01-12 03:14:19.40	351.10	16.91	-40.1	-52.4	3.8	8.47e-01	0	56	104	116391936	51	15194
2026-01-12 03:14:20.41	350.94	16.99	-40.0	-52.7	3.8	8.46e-01	0	55	104	116391936	51	15592
2026-01-12 03:14:21.42	350.78	17.07	-39.8	-52.4	3.8	8.46e-01	0	56	104	116391936	51	15216
2026-01-12 03:14:22.43	350.62	17.16	-40.3	-52.7	3.8	8.46e-01	0	56	104	116391936	51	15582
2026-01-12 03:14:23.44	350.45	17.24	-40.0	-52.5	3.8	8.46e-01	0	56	104	116391936	51	15378
2026-01-12 03:14:24.45	350.29	17.32	-40.4	-52.6	3.8	8.46e-01	0	56	104	116391936	52	14644
2026-01-12 03:14:25.46	350.12	17.40	-40.3	-52.4	3.8	8.46e-01	0	56	104	116391936	52	14295
2026-01-12 03:14:26.47	349.96	17.49	-40.6	-52.5	3.8	8.47e-01	0	56	104	116391936	52	14487
2026-01-12 03:14:27.48	349.79	17.57	-41.0	-52.6	3.8	8.46e-01	0	56	104	116391936	52	14635
2026-01-12 03:14:28.49	349.62	17.65	-40.7	-52.5	3.8	8.46e-01	0	56	104	116391936	52	14468
2026-01-12 03:14:29.50	349.45	17.73	-40.7	-52.5	3.8	8.48e-01	0	56	104	116391936	52	14400
2026-01-12 03:14:30.51	349.28	17.82	-40.7	-52.5	3.8	8.46e-01	0	56	104	116391936	52	14486
2026-01-12 03:14:31.52	349.11	17.90	-40.5	-52.4	3.8	8.46e-01	0	56	104	116391936	52	14210
2026-01-12 03:14:32.53	348.94	17.98	-40.7	-52.6	3.8	8.46e-01	0	56	104	116391936	52	14599
2026-01-12 03:14:33.54	348.77	18.07	-40.9	-52.7	3.8	8.46e-01	0	56	104	116391936	53	13911
2026-01-12 03:14:34.55	348.59	18.15	-40.7	-52.4	3.8	8.47e-01	0	56	104	116391936	53	13489
2026-01-12 03:14:35.56	348.42	18.23	-40.7	-52.4	3.8	8.46e-01	0	56	104	116391936	53	13520
2026-01-12 03:14:36.57	348.24	18.31	-40.6	-52.6	3.8	8.46e-01	0	56	104	116391936	53	13778
2026-01-12 03:14:37.58	348.06	18.40	-40.6	-52.6	3.8	8.46e-01	0	56	104	116391936	53	13734
2026-01-12 03:14:38.59	347.88	18.48	-40.8	-52.4	3.8	8.46e-01	0	56	104	116391936	53	13560
2026-01-12 03:14:39.60	347.71	18.56	-40.7	-52.5	3.8	8.46e-01	0	56	104	116391936	53	13725
2026-01-12 03:14:40.61	347.53	18.65	-40.7	-52.5	3.8	8.46e-01	0	56	104	116391936	52	14464
2026-01-12 03:14:41.62	347.34	18.73	-40.7	-52.5	3.8	8.46e-01	0	56	104	116391936	52	14466
2026-01-12 03:14:42.63	347.16	18.81	-40.5	-52.4	3.8	8.47e-01	0	56	104	116391936	52	14302
2026-01-12 03:14:43.64	346.98	18.89	-40.5	-52.4	3.8	8.45e-01	0	56	104	116391936	52	14229
2026-01-12 03:14:44.65	346.80	18.98	-40.7	-52.4	3.8	8.45e-01	0	56	104	116391936	52	14291
2026-01-12 03:14:45.66	346.61	19.06	-40.8	-52.4	3.8	8.46e-01	0	56	104	116391936	52	14353
2026-01-12 03:14:46.67	346.42	19.14	-40.6	-52.5	3.8	8.47e-01	0	56	104	116391936	52	14445
2026-01-12 03:14:47.68	346.24	19.23	-40.9	-52.6	3.8	8.46e-01	0	56	104	116391936	52	14583
2026-01-12 03:14:48.69	346.05	19.31	-40.6	-52.3	3.8	8.46e-01	0	56	104	116391936	52	14155
2026-01-12 03:14:49.70	345.86	19.39	-40.8	-52.5	3.8	8.46e-01	0	56	104	116391936	52	14467
2026-01-12 03:14:50.71	345.67	19.47	-40.6	-52.2	3.8	8.46e-01	0	56	104	116391936	52	13990
2026-01-12 03:14:51.72	345.48	19.56	-40.7	-52.4	3.8	8.46e-01	0	56	104	116391936	52	14358
2026-01-12 03:14:52.73	345.29	19.64	-40.8	-52.4	3.8	8.46e-01	0	56	104	116391936	52	14245
2026-01-12 03:14:53.74	345.09	19.72	-40.7	-52.5	3.8	8.48e-01	0	56	104	116391936	52	14496
2026-01-12 03:14:54.76	344.90	19.80	-40.7	-52.5	3.8	8.46e-01	0	56	104	116391936	52	14480
2026-01-12 03:14:55.76	344.70	19.88	-40.7	-52.0	3.8	8.46e-01	0	56	104	116391936	52	13618
2026-01-12 03:14:56.77	344.51	19.97	-40.6	-52.4	3.8	8.46e-01	0	56	104	116391936	52	14217
2026-01-12 03:14:57.78	344.31	20.05	-40.6	-51.6	3.8	8.46e-01	0	56	104	116391936	52	13074
2026-01-12 03:14:58.79	344.11	20.13	-40.6	-50.0	4.0	8.44e-01	0	56	104	116391936	52	10840
2026-01-12 03:14:59.80	343.91	20.21	-40.5	-49.3	4.2	8.41e-01	0	56	0	116391936	52	9994
2026-01-12 03:15:00.81	343.71	20.29	-40.5	-49.1	4.2	8.36e-01	0	56	0	116391936	52	9755
2026-01-12 03:15:01.82	343.51	20.38	-40.4	-48.7	4.3	8.34e-01	0	56	0	116391936	52	9377
2026-01-12 03:15:02.83	343.30	20.46	-40.3	-48.4	4.5	8.26e-01	0	56	0	116391936	52	8966
2026-01-12 03:15:03.84	343.10	20.54	-40.2	-47.9	4.6	8.16e-01	0	56	0	116391936	52	8549
2026-01-12 03:15:04.85	342.89	20.62	-40.2	-47.7	4.8	7.99e-01	0	56	0	116391936	52	8275
2026-01-12 03:15:05.86	342.69	20.70	-40.0	-46.1	5.9	7.02e-01	0	56	0	116391936	52	6904
2026-01-12 03:15:06.87	342.48	20.78	-39.7	-44.4	7.6	1.31e-01	0	56	0	122683392	51	6021
2026-01-12 03:15:07.88	342.27	20.86	-39.0	-42.6	9.9	2.52e-02	0	56	0	127926272	50	5182
2026-01-12 03:15:08.89	342.06	20.94	-38.4	-41.3	11.6	1.44e-03	0	56	0	134217728	48	5006
2026-01-12 03:15:09.91	341.85	21.02	-37.9	-40.3	12.9	1.12e-04	0	56	0	139460608	47	4727
2026-01-12 03:15:10.92	341.64	21.11	-37.7	-39.9	13.6	2.05e-05	0	56	0	144703488	47	4520
2026-01-12 03:15:11.93	341.42	21.19	-36.9	-38.8	14.8	2.20e-06	0	56	0	150994944	45	4467
2026-01-12 03:15:12.94	341.21	21.27	-35.7	-37.4	16.1	0.00e+00	0	56	0	156237824	43	4263
2026-01-12 03:15:13.95	340.99	21.35	-34.9	-36.4	17.2	0.00e+00	0	56	0	162529280	41	4257
2026-01-12 03:15:14.96	340.78	21.42	-34.4	-35.8	17.8	0.00e+00	0	56	0	167772160	40	4236
2026-01-12 03:15:15.97	340.56	21.50	-34.3	-35.7	17.9	0.00e+00	0	56	0	173015040	40	4171
2026-01-12 03:15:16.98	340.34	21.58	-34.4	-35.7	18.0	0.00e+00	0	56	0	179306496	40	4181
2026-01-12 03:15:17.98	340.12	21.66	-34.4	-35.8	18.0	0.00e+00	0	56	0	184549376	40	4214
2026-01-12 03:15:19.00	339.90	21.74	-34.7	-36.1	17.8	0.00e+00	0	56	0	190840832	40	4344
2026-01-12 03:15:20.00	339.68	21.82	-34.6	-35.9	18.1	0.00e+00	0	56	0	196083712	40	4284
2026-01-12 03:15:21.01	339.46	21.90	-34.7	-36.1	18.1	0.00e+00	0	56	0	202375168	40	4353
2026-01-12 03:15:22.03	339.23	21.98	-34.9	-36.3	18.0	0.00e+00	0	56	0	207618048	40	4473
2026-01-12 03:15:23.03	339.01	22.05	-34.9	-36.2	18.2	0.00e+00	0	56	0	213909504	40	4424
2026-01-12 03:15:24.05	338.78	22.13	-34.8	-36.1	18.4	0.00e+00	0	56	0	219152384	40	4388
2026-01-12 03:15:25.06	338.55	22.21	-34.9	-36.2	18.4	0.00e+00	0	56	0	224395264	40	4426
2026-01-12 03:15:26.07	338.32	22.29	-35.0	-36.3	18.3	0.00e+00	0	56	0	230686720	40	4480
2026-01-12 03:15:27.08	338.09	22.36	-35.0	-36.3	18.3	0.00e+00	0	56	0	235929600	40	4477
2026-01-12 03:15:28.09	337.86	22.44	-34.9	-36.3	18.4	0.00e+00	0	56	0	242221056	40	4449
2026-01-12 03:15:29.10	337.63	22.52	-35.0	-36.3	18.4	0.00e+00	0	56	0	247463936	40	4473
2026-01-12 03:15:30.10	337.39	22.59	-34.9	-36.2	18.5	0.00e+00	0	56	0	252706816	40	4426
2026-01-12 03:15:31.11	337.16	22.67	-34.8	-36.1	18.6	0.00e+00	0	56	0	258998272	40	4368
2026-01-12 03:15:32.12	336.92	22.75	-34.6	-35.9	18.8	0.00e+00	0	56	0	264241152	40	4269
2026-01-12 03:15:33.13	336.69	22.82	-34.6	-35.8	18.9	0.00e+00	0	56	0	270532608	40	4239
2026-01-12 03:15:34.15	336.44	22.90	-34.6	-35.8	18.9	0.00e+00	0	56	0	275775488	40	4238
2026-01-12 03:15:35.16	336.21	22.97	-34.6	-35.8	19.0	0.00e+00	0	56	0	281018368	40	4231
2026-01-12 03:15:36.17	335.96	23.05	-34.6	-35.9	18.9	0.00e+00	0	56	0	287309824	40	4243
2026-01-12 03:15:37.18	335.72	23.12	-34.5	-35.8	19.0	0.00e+00	0	56	0	292552704	40	4213
2026-01-12 03:15:38.19	335.48	23.19	-34.6	-35.8	19.0	0.00e+00	0	56	0	298844160	40	4235
2026-01-12 03:15:39.20	335.24	23.27	-34.6	-35.8	19.0	0.00e+00	0	56	0	304087040	40	4236
2026-01-12 03:15:40.21	334.99	23.34	-34.6	-35.9	18.9	0.00e+00	0	56	0	310378496	40	4264
2026-01-12 03:15:41.22	334.74	23.41	-34.6	-35.9	19.0	0.00e+00	0	56	0	315621376	40	4246
2026-01-12 03:15:42.23	334.50	23.48	-34.6	-35.9	19.0	0.00e+00	0	56	0	321912832	40	4244
2026-01-12 03:15:43.24	334.25	23.56	-34.6	-35.9	19.0	0.00e+00	0	56	0	327155712	40	4258
2026-01-12 03:15:44.25	334.00	23.63	-34.7	-35.9	19.0	0.00e+00	0	56	0	332398592	40	4273
2026-01-12 03:15:45.25	333.75	23.70	-34.7	-36.0	18.9	0.00e+00	0	56	0	338690048	40	4297
2026-01-12 03:15:46.27	333.49	23.77	-34.6	-35.9	19.0	0.00e+00	0	56	0	343932928	40	4267
2026-01-12 03:15:47.28	333.24	23.84	-34.5	-35.8	19.1	0.00e+00	0	56	0	350224384	40	4208
2026-01-12 03:15:48.28	332.99	23.91	-34.5	-35.7	19.2	0.00e+00	0	56	0	355467264	40	4170
2026-01-12 03:15:49.29	332.73	23.98	-34.4	-35.7	19.2	0.00e+00	0	56	0	360710144	40	4147
2026-01-12 03:15:50.30	332.47	24.05	-34.5	-35.7	19.1	0.00e+00	0	56	0	367001600	40	4186
2026-01-12 03:15:51.31	332.22	24.12	-34.5	-35.8	19.1	0.00e+00	0	56	0	372244480	40	4207
2026-01-12 03:15:52.33	331.95	24.18	-34.6	-35.8	19.1	0.00e+00	0	56	0	377487360	40	4222
2026-01-12 03:15:53.34	331.69	24.25	-34.4	-35.6	19.3	0.00e+00	0	56	0	383778816	40	4145
2026-01-12 03:15:54.35	331.43	24.32	-34.4	-35.6	19.3	0.00e+00	0	56	0	389021696	40	4112
2026-01-12 03:15:55.36	331.17	24.39	-34.4	-35.6	19.3	0.00e+00	0	56	0	395313152	40	4118
2026-01-12 03:15:56.37	330.91	24.45	-34.4	-35.7	19.3	0.00e+00	0	56	0	400556032	40	4152
2026-01-12 03:15:57.38	330.64	24.52	-34.5	-35.8	19.1	0.00e+00	0	56	0	406847488	40	4207
2026-01-12 03:15:58.39	330.37	24.58	-34.6	-35.8	19.1	0.00e+00	0	56	0	412090368	40	4235
2026-01-12 03:15:59.40	330.11	24.65	-34.5	-35.8	19.1	0.00e+00	0	56	0	418381824	40	4210
2026-01-12 03:16:00.40	329.84	24.71	-34.5	-35.8	19.1	0.00e+00	0	56	0	423624704	40	4210
2026-01-12 03:16:01.41	329.57	24.77	-34.5	-35.7	19.2	0.00e+00	0	56	0	428867584	40	4176
2026-01-12 03:16:02.42	329.30	24.84	-34.4	-35.6	19.3	0.00e+00	0	56	0	435159040	40	4125
2026-01-12 03:16:03.43	329.03	24.90	-34.3	-35.5	19.4	0.00e+00	0	56	0	440401920	40	4054
2026-01-12 03:16:04.44	328.76	24.96	-34.1	-35.3	19.6	0.00e+00	0	56	0	446693376	40	3996
2026-01-12 03:16:05.45	328.48	25.02	-34.1	-35.3	19.6	0.00e+00	0	56	0	451936256	40	3967
2026-01-12 03:16:06.46	328.21	25.08	-34.1	-35.2	19.7	0.00e+00	0	56	0	457179136	40	3948
2026-01-12 03:16:07.47	327.93	25.14	-34.1	-35.2	19.6	0.00e+00	0	56	0	463470592	40	3955
2026-01-12 03:16:08.48	327.66	25.20	-34.0	-35.2	19.7	0.00e+00	0	56	0	468713472	40	3942
2026-01-12 03:16:09.49	327.38	25.26	-34.1	-35.3	19.6	0.00e+00	0	56	0	475004928	40	3984
2026-01-12 03:16:10.50	327.10	25.32	-34.2	-35.4	19.5	0.00e+00	0	57	0	480247808	40	4034
2026-01-12 03:16:11.50	326.82	25.38	-34.3	-35.5	19.4	0.00e+00	0	56	0	485490688	40	4086
2026-01-12 03:16:12.51	326.54	25.44	-34.3	-35.5	19.4	0.00e+00	0	56	0	491782144	40	4086
2026-01-12 03:16:13.52	326.26	25.49	-34.3	-35.5	19.4	0.00e+00	0	56	0	497025024	40	4075
2026-01-12 03:16:14.53	325.98	25.55	-34.3	-35.5	19.4	0.00e+00	0	56	0	503316480	40	4087
2026-01-12 03:16:15.54	325.69	25.60	-34.3	-35.6	19.3	0.00e+00	0	56	0	508559360	40	4102
2026-01-12 03:16:16.56	325.40	25.66	-34.4	-35.6	19.4	0.00e+00	0	57	0	514850816	40	4111
2026-01-12 03:16:17.57	325.12	25.71	-34.3	-35.6	19.4	0.00e+00	0	56	0	520093696	40	4106
2026-01-12 03:16:18.58	324.83	25.77	-34.3	-35.5	19.4	0.00e+00	0	56	0	525336576	40	4076
2026-01-12 03:16:19.59	324.54	25.82	-34.2	-35.4	19.5	0.00e+00	0	56	0	531628032	40	4023
2026-01-12 03:16:20.60	324.25	25.87	-34.1	-35.3	19.6	0.00e+00	0	57	0	536870912	40	3991
2026-01-12 03:16:21.61	323.96	25.92	-34.1	-35.3	19.6	0.00e+00	0	56	0	543162368	40	4004
2026-01-12 03:16:22.62	323.67	25.97	-34.1	-35.3	19.6	0.00e+00	0	57	0	548405248	40	4000
2026-01-12 03:16:23.62	323.38	26.02	-34.1	-35.3	19.6	0.00e+00	0	57	0	553648128	40	3990
2026-01-12 03:16:24.63	323.09	26.07	-34.0	-35.2	19.7	0.00e+00	0	57	0	559939584	40	3955
2026-01-12 03:16:25.64	322.80	26.12	-34.0	-35.2	19.8	0.00e+00	0	57	0	565182464	39	4167
2026-01-12 03:16:26.65	322.50	26.17	-34.0	-35.2	19.8	0.00e+00	0	57	0	571473920	39	4155
2026-01-12 03:16:27.66	322.21	26.21	-34.1	-35.3	19.7	0.00e+00	0	57	0	576716800	39	4223
2026-01-12 03:16:28.67	321.91	26.26	-34.2	-35.4	19.5	0.00e+00	0	57	0	581959680	39	4281
2026-01-12 03:16:29.68	321.61	26.30	-34.3	-35.5	19.5	0.00e+00	0	56	0	588251136	39	4301
2026-01-12 03:16:30.69	321.31	26.35	-34.2	-35.4	19.5	0.00e+00	0	56	0	593494016	39	4284
2026-01-12 03:16:31.70	321.02	26.39	-34.3	-35.4	19.5	0.00e+00	0	57	0	599785472	39	4290
2026-01-12 03:16:32.72	320.71	26.44	-34.2	-35.4	19.6	0.00e+00	0	57	0	605028352	39	4246
2026-01-12 03:16:33.73	320.41	26.48	-34.0	-35.2	19.8	0.00e+00	0	56	0	611319808	39	4176
2026-01-12 03:16:34.74	320.11	26.52	-34.0	-35.2	19.8	0.00e+00	0	57	0	616562688	39	4149
2026-01-12 03:16:35.75	319.81	26.56	-34.0	-35.2	19.8	0.00e+00	0	56	0	622854144	39	4172
2026-01-12 03:16:36.76	319.51	26.60	-34.2	-35.3	19.6	0.00e+00	0	57	0	628097024	39	4240
2026-01-12 03:16:37.77	319.20	26.64	-34.2	-35.4	19.5	0.00e+00	0	56	0	633339904	39	4291
2026-01-12 03:16:38.78	318.90	26.68	-34.2	-35.4	19.6	0.00e+00	0	57	0	639631360	39	4278
2026-01-12 03:16:39.78	318.59	26.71	-34.1	-35.3	19.7	0.00e+00	0	57	0	644874240	39	4226
2026-01-12 03:16:40.79	318.29	26.75	-34.0	-35.2	19.7	0.00e+00	0	57	0	651165696	39	4177
2026-01-12 03:16:41.80	317.98	26.79	-34.0	-35.2	19.8	0.00e+00	0	57	0	656408576	39	4155
2026-01-12 03:16:42.81	317.67	26.82	-34.0	-35.1	19.8	0.00e+00	0	57	0	661651456	39	4133
2026-01-12 03:16:43.82	317.37	26.85	-33.9	-35.1	19.9	0.00e+00	0	57	0	667942912	39	4129
2026-01-12 03:16:44.83	317.06	26.89	-33.9	-35.1	19.8	0.00e+00	0	57	0	673185792	39	4134
2026-01-12 03:16:45.84	316.75	26.92	-33.9	-35.1	19.9	0.00e+00	0	57	0	679477248	39	4130
2026-01-12 03:16:46.85	316.44	26.95	-33.9	-35.1	19.9	0.00e+00	0	57	0	684720128	39	4121
2026-01-12 03:16:47.86	316.13	26.98	-33.9	-35.1	19.9	0.00e+00	0	56	0	689963008	39	4124
2026-01-12 03:16:48.87	315.82	27.01	-33.9	-35.1	19.9	0.00e+00	0	57	0	696254464	39	4116
2026-01-12 03:16:49.88	315.51	27.04	-33.9	-35.1	19.8	0.00e+00	0	57	0	701497344	39	4130
2026-01-12 03:16:50.89	315.19	27.07	-33.9	-35.1	19.9	0.00e+00	0	57	0	707788800	39	4103
2026-01-12 03:16:51.90	314.88	27.09	-33.9	-35.1	19.9	0.00e+00	0	56	0	713031680	39	4111
2026-01-12 03:16:52.91	314.57	27.12	-34.0	-35.1	19.8	0.00e+00	0	57	0	719323136	39	4139
2026-01-12 03:16:53.92	314.25	27.14	-34.0	-35.2	19.8	0.00e+00	0	57	0	724566016	39	4166
2026-01-12 03:16:54.93	313.94	27.17	-34.0	-35.2	19.8	0.00e+00	0	57	0	730857472	39	4174
2026-01-12 03:16:55.94	313.62	27.19	-34.0	-35.2	19.8	0.00e+00	0	57	0	736100352	39	4155
2026-01-12 03:16:56.95	313.31	27.21	-34.0	-35.2	19.8	0.00e+00	0	57	0	741343232	39	4149
2026-01-12 03:16:57.96	312.99	27.23	-34.0	-35.2	19.8	0.00e+00	0	57	0	747634688	39	4161
2026-01-12 03:16:58.97	312.68	27.25	-33.9	-35.1	19.9	0.00e+00	0	57	0	752877568	39	4119
2026-01-12 03:16:59.98	312.36	27.27	-34.0	-35.2	19.8	0.00e+00	0	57	0	759169024	39	4164
2026-01-12 03:17:00.99	312.04	27.29	-34.1	-35.3	19.7	0.00e+00	0	57	0	764411904	39	4197
2026-01-12 03:17:02.00	311.73	27.31	-34.1	-35.3	19.6	0.00e+00	0	57	0	769654784	39	4219
2026-01-12 03:17:03.01	311.41	27.32	-34.0	-35.1	19.8	0.00e+00	0	57	0	775946240	39	4140
2026-01-12 03:17:04.02	311.09	27.34	-33.8	-35.0	19.9	0.00e+00	0	57	0	781189120	39	4075
2026-01-12 03:17:05.03	310.77	27.35	-33.8	-34.9	20.0	0.00e+00	0	57	0	786432000	39	4049
2026-01-12 03:17:06.04	310.45	27.37	-33.8	-35.0	20.0	0.00e+00	0	57	0	792723456	39	4055
2026-01-12 03:17:07.05	310.13	27.38	-33.8	-35.0	20.0	0.00e+00	0	57	0	797966336	39	4081
2026-01-12 03:17:08.06	309.82	27.39	-33.8	-35.0	20.0	0.00e+00	0	57	0	804257792	39	4074
2026-01-12 03:17:09.06	309.50	27.40	-33.7	-34.9	20.0	0.00e+00	0	57	0	809500672	39	4036
2026-01-12 03:17:10.07	309.18	27.41	-33.6	-34.8	20.2	0.00e+00	0	57	0	815792128	39	3979
2026-01-12 03:17:11.08	308.86	27.42	-33.6	-34.8	20.2	0.00e+00	0	57	0	821035008	39	3959
2026-01-12 03:17:12.09	308.54	27.42	-33.6	-34.8	20.2	0.00e+00	0	57	0	827326464	39	3964
2026-01-12 03:17:13.10	308.22	27.43	-33.7	-34.9	20.1	0.00e+00	0	57	0	832569344	39	4021
2026-01-12 03:17:14.11	307.90	27.44	-33.7	-34.9	20.1	0.00e+00	0	57	0	837812224	39	4021
2026-01-12 03:17:15.12	307.58	27.44	-33.7	-34.8	20.1	0.00e+00	0	57	0	844103680	39	3985
2026-01-12 03:17:16.13	307.26	27.44	-33.5	-34.7	20.2	0.00e+00	0	57	0	849346560	39	3928
2026-01-12 03:17:17.14	306.94	27.45	-33.5	-34.6	20.3	0.00e+00	0	57	0	855638016	39	3900
2026-01-12 03:17:18.15	306.62	27.45	-33.5	-34.6	20.3	0.00e+00	0	57	0	860880896	39	3889
2026-01-12 03:17:19.16	306.30	27.45	-33.5	-34.6	20.3	0.00e+00	0	57	0	866123776	38	4128
2026-01-12 03:17:20.17	305.98	27.45	-33.5	-34.7	20.3	0.00e+00	0	57	0	872415232	38	4152
2026-01-12 03:17:21.18	305.66	27.45	-33.6	-34.8	20.1	0.00e+00	0	56	0	877658112	38	4210
2026-01-12 03:17:22.20	305.33	27.45	-33.8	-34.9	20.0	0.00e+00	0	57	0	883949568	38	4283
2026-01-12 03:17:23.21	305.01	27.44	-34.0	-35.1	19.8	0.00e+00	0	57	0	889192448	38	4383
2026-01-12 03:17:24.22	304.69	27.44	-34.1	-35.3	19.7	0.00e+00	0	57	0	894435328	38	4443
2026-01-12 03:17:25.23	304.37	27.43	-34.1	-35.3	19.7	0.00e+00	0	57	0	900726784	38	4449
2026-01-12 03:17:26.24	304.05	27.43	-34.1	-35.3	19.7	0.00e+00	0	57	0	905969664	38	4443
2026-01-12 03:17:27.25	303.73	27.42	-34.0	-35.2	19.8	0.00e+00	0	57	0	912261120	38	4405
2026-01-12 03:17:28.26	303.41	27.41	-33.9	-35.1	19.8	0.00e+00	0	57	0	917504000	38	4368
2026-01-12 03:17:29.27	303.09	27.40	-33.9	-35.1	19.9	0.00e+00	0	57	0	923795456	38	4356
2026-01-12 03:17:30.28	302.77	27.39	-33.9	-35.1	19.9	0.00e+00	0	57	0	929038336	38	4345
2026-01-12 03:17:31.29	302.46	27.38	-33.8	-34.9	20.0	0.00e+00	0	57	0	935329792	38	4272
2026-01-12 03:17:32.30	302.14	27.37	-33.7	-34.8	20.1	0.00e+00	0	57	0	940572672	38	4217
2026-01-12 03:17:33.31	301.82	27.35	-33.6	-34.7	20.2	0.00e+00	0	57	0	945815552	38	4191
2026-01-12 03:17:34.32	301.50	27.34	-33.6	-34.7	20.2	0.00e+00	0	57	0	952107008	38	4183
2026-01-12 03:17:35.33	301.18	27.32	-33.6	-34.7	20.2	0.00e+00	0	57	0	957349888	38	4189
2026-01-12 03:17:36.33	300.87	27.31	-33.7	-34.9	20.1	0.00e+00	0	57	0	963641344	38	4245
2026-01-12 03:17:37.34	300.55	27.29	-33.7	-34.9	20.1	0.00e+00	0	57	0	968884224	38	4251
2026-01-12 03:17:38.35	300.23	27.27	-33.8	-34.9	20.0	0.00e+00	0	57	0	974127104	38	4291
2026-01-12 03:17:39.37	299.91	27.25	-33.8	-35.0	20.0	0.00e+00	0	57	0	980418560	38	4306
2026-01-12 03:17:40.38	299.59	27.23	-33.9	-35.0	19.9	0.00e+00	0	57	0	985661440	38	4325
2026-01-12 03:17:41.39	299.28	27.21	-33.9	-35.1	19.9	0.00e+00	0	57	0	991952896	38	4361
2026-01-12 03:17:42.40	298.96	27.19	-34.0	-35.2	19.7	0.00e+00	0	57	0	997195776	38	4425
2026-01-12 03:17:43.40	298.65	27.17	-34.0	-35.2	19.8	0.00e+00	0	57	0	1002438656	38	4414
2026-01-12 03:17:44.41	298.34	27.14	-33.9	-35.1	19.9	0.00e+00	0	57	0	1008730112	38	4341
2026-01-12 03:17:45.42	298.02	27.12	-33.8	-34.9	20.0	0.00e+00	0	57	0	1013972992	38	4280
2026-01-12 03:17:46.43	297.71	27.09	-33.8	-34.9	20.0	0.00e+00	0	57	0	1020264448	38	4265
2026-01-12 03:17:47.44	297.40	27.07	-33.9	-35.1	19.9	0.00e+00	0	57	0	1025507328	38	4350
2026-01-12 03:17:48.45	297.08	27.04	-34.0	-35.2	19.8	0.00e+00	0	57	0	1031798784	38	4404
2026-01-12 03:17:49.46	296.77	27.01	-33.9	-35.1	19.8	0.00e+00	0	57	0	1037041664	38	4378
2026-01-12 03:17:50.47	296.46	26.98	-33.9	-35.0	19.9	0.00e+00	0	57	0	1042284544	38	4337
2026-01-12 03:17:51.48	296.15	26.95	-33.8	-35.0	20.0	0.00e+00	0	57	0	1048576000	38	4308
2026-01-12 03:17:52.49	295.84	26.92	-33.8	-35.0	20.0	0.00e+00	0	57	0	1053818880	38	4293
2026-01-12 03:17:53.50	295.53	26.89	-33.9	-35.0	19.9	0.00e+00	0	57	0	1060110336	38	4329
2026-01-12 03:17:54.51	295.22	26.86	-33.9	-35.1	19.9	0.00e+00	0	57	0	1065353216	38	4356
2026-01-12 03:17:55.52	294.91	26.82	-33.9	-35.1	19.8	0.00e+00	0	57	0	1070596096	38	4364
2026-01-12 03:17:56.53	294.60	26.79	-34.0	-35.2	19.8	0.00e+00	0	57	0	1076887552	38	4395
2026-01-12 03:17:57.54	294.29	26.75	-34.1	-35.3	19.7	0.00e+00	0	57	0	1082130432	38	4449
2026-01-12 03:17:58.55	293.99	26.72	-34.1	-35.3	19.7	0.00e+00	0	57	0	1088421888	38	4461
2026-01-12 03:17:59.56	293.68	26.68	-34.0	-35.2	19.8	0.00e+00	0	57	0	1093664768	38	4411
2026-01-12 03:18:00.57	293.38	26.64	-33.9	-35.0	19.9	0.00e+00	0	57	0	1098907648	38	4334
2026-01-12 03:18:01.58	293.07	26.60	-33.8	-34.9	20.0	0.00e+00	0	57	0	1105199104	38	4277
2026-01-12 03:18:02.59	292.77	26.56	-33.8	-34.9	20.0	0.00e+00	0	57	0	1110441984	38	4272
2026-01-12 03:18:03.60	292.47	26.52	-33.7	-34.9	20.0	0.00e+00	0	57	0	1116733440	38	4268
2026-01-12 03:18:04.61	292.16	26.48	-33.7	-34.9	20.0	0.00e+00	0	57	0	1121976320	38	4263
2026-01-12 03:18:05.62	291.86	26.44	-33.6	-34.8	20.1	0.00e+00	0	57	0	1128267776	38	4208
2026-01-12 03:18:06.63	291.56	26.39	-33.6	-34.7	20.2	0.00e+00	0	57	0	1133510656	38	4165
2026-01-12 03:18:07.64	291.26	26.35	-33.6	-34.7	20.2	0.00e+00	0	57	0	1139802112	38	4181
2026-01-12 03:18:08.65	290.96	26.31	-33.7	-34.9	20.1	0.00e+00	0	57	0	1145044992	38	4247
2026-01-12 03:18:09.65	290.67	26.26	-33.7	-34.9	20.0	0.00e+00	0	57	0	1150287872	38	4275
2026-01-12 03:18:10.66	290.37	26.22	-33.8	-34.9	20.0	0.00e+00	0	57	0	1156579328	38	4274
2026-01-12 03:18:11.67	290.07	26.17	-33.7	-34.9	20.1	0.00e+00	0	57	0	1161822208	38	4247
2026-01-12 03:18:12.68	289.78	26.12	-33.8	-34.9	20.0	0.00e+00	0	57	0	1168113664	38	4277
2026-01-12 03:18:13.69	289.48	26.07	-33.8	-34.9	20.0	0.00e+00	0	57	0	1173356544	38	4274
2026-01-12 03:18:14.70	289.19	26.02	-33.8	-34.9	20.0	0.00e+00	0	57	0	1178599424	38	4271
2026-01-12 03:18:15.71	288.90	25.97	-33.7	-34.9	20.1	0.00e+00	0	57	0	1184890880	38	4254
2026-01-12 03:18:16.72	288.61	25.92	-33.8	-34.9	20.0	0.00e+00	0	57	0	1190133760	38	4268
2026-01-12 03:18:17.74	288.31	25.87	-33.8	-34.9	20.0	0.00e+00	0	57	0	1196425216	38	4269
2026-01-12 03:18:18.74	288.03	25.82	-33.8	-35.0	19.9	0.00e+00	0	57	0	1201668096	38	4310
2026-01-12 03:18:19.76	287.73	25.77	-33.9	-35.1	19.8	0.00e+00	0	57	0	1206910976	38	4364
2026-01-12 03:18:20.77	287.45	25.71	-34.0	-35.2	19.7	0.00e+00	0	57	0	1213202432	38	4425
2026-01-12 03:18:21.78	287.16	25.66	-34.0	-35.2	19.7	0.00e+00	0	57	0	1218445312	38	4437
2026-01-12 03:18:22.79	286.87	25.61	-34.0	-35.1	19.8	0.00e+00	0	57	0	1224736768	38	4387
2026-01-12 03:18:23.80	286.59	25.55	-34.0	-35.1	19.8	0.00e+00	0	57	0	1229979648	38	4390
2026-01-12 03:18:24.81	286.30	25.49	-34.0	-35.2	19.7	0.00e+00	0	57	0	1236271104	38	4422
2026-01-12 03:18:25.81	286.02	25.44	-34.0	-35.1	19.8	0.00e+00	0	57	0	1241513984	38	4374
2026-01-12 03:18:26.83	285.74	25.38	-33.9	-35.1	19.8	0.00e+00	0	57	0	1246756864	38	4349
2026-01-12 03:18:27.84	285.46	25.32	-33.8	-35.0	19.9	0.00e+00	0	57	0	1253048320	38	4302
2026-01-12 03:18:28.85	285.18	25.26	-33.8	-35.0	19.9	0.00e+00	0	57	0	1258291200	38	4319
2026-01-12 03:18:29.86	284.90	25.20	-33.8	-35.0	19.9	0.00e+00	0	57	0	1264582656	38	4303
2026-01-12 03:18:30.87	284.62	25.14	-33.8	-34.9	20.0	0.00e+00	0	57	0	1269825536	38	4279
2026-01-12 03:18:31.88	284.34	25.08	-33.7	-34.9	20.0	0.00e+00	0	57	0	1276116992	38	4256
2026-01-12 03:18:32.89	284.07	25.02	-33.8	-34.9	20.0	0.00e+00	0	57	0	1281359872	38	4268
2026-01-12 03:18:33.90	283.79	24.96	-33.7	-34.9	20.0	0.00e+00	0	57	0	1286602752	38	4262
2026-01-12 03:18:34.91	283.52	24.90	-33.8	-34.9	20.0	0.00e+00	0	57	0	1292894208	38	4278
2026-01-12 03:18:35.92	283.25	24.84	-33.9	-35.0	19.8	0.00e+00	0	57	0	1298137088	38	4328
2026-01-12 03:18:36.93	282.98	24.77	-33.9	-35.1	19.8	0.00e+00	0	57	0	1304428544	38	4366
2026-01-12 03:18:37.94	282.71	24.71	-34.0	-35.1	19.8	0.00e+00	0	57	0	1309671424	38	4384
2026-01-12 03:18:38.95	282.44	24.65	-33.9	-35.1	19.8	0.00e+00	0	57	0	1314914304	38	4377
2026-01-12 03:18:39.96	282.17	24.58	-33.9	-35.1	19.8	0.00e+00	0	57	0	1321205760	38	4372
2026-01-12 03:18:40.97	281.90	24.51	-34.0	-35.1	19.7	0.00e+00	0	57	0	1326448640	38	4384
2026-01-12 03:18:41.98	281.64	24.45	-33.9	-35.1	19.8	0.00e+00	0	57	0	1332740096	38	4371
2026-01-12 03:18:42.99	281.37	24.38	-34.0	-35.1	19.7	0.00e+00	0	57	0	1337982976	38	4386
2026-01-12 03:18:44.00	281.11	24.32	-33.9	-35.1	19.8	0.00e+00	0	57	0	1344274432	38	4375
2026-01-12 03:18:45.02	280.84	24.25	-34.0	-35.2	19.7	0.00e+00	0	57	0	1349517312	38	4435
2026-01-12 03:18:46.02	280.58	24.18	-34.0	-35.2	19.7	0.00e+00	0	57	0	1354760192	38	4409
2026-01-12 03:18:47.03	280.32	24.11	-34.0	-35.2	19.7	0.00e+00	0	57	0	1361051648	38	4425
2026-01-12 03:18:48.04	280.06	24.04	-34.0	-35.1	19.7	0.00e+00	0	57	0	1366294528	38	4389
2026-01-12 03:18:49.05	279.81	23.97	-33.9	-35.1	19.7	0.00e+00	0	57	0	1372585984	38	4368
2026-01-12 03:18:50.06	279.55	23.90	-34.0	-35.1	19.7	0.00e+00	0	57	0	1377828864	38	4373
2026-01-12 03:18:51.07	279.29	23.83	-34.1	-35.2	19.6	0.00e+00	0	57	0	1383071744	38	4441
2026-01-12 03:18:52.08	279.04	23.76	-34.2	-35.4	19.5	0.00e+00	0	57	0	1389363200	38	4495
2026-01-12 03:18:53.09	278.79	23.69	-34.2	-35.4	19.5	0.00e+00	0	57	0	1394606080	38	4502
2026-01-12 03:18:54.10	278.53	23.62	-34.1	-35.3	19.6	0.00e+00	0	57	0	1400897536	38	4460
2026-01-12 03:18:55.11	278.28	23.55	-34.0	-35.2	19.7	0.00e+00	0	57	0	1406140416	38	4422
2026-01-12 03:18:56.12	278.03	23.48	-34.0	-35.2	19.7	0.00e+00	0	57	0	1411383296	38	4414
2026-01-12 03:18:57.13	277.78	23.41	-34.1	-35.2	19.6	0.00e+00	0	57	0	1417674752	38	4431
2026-01-12 03:18:58.14	277.54	23.33	-34.2	-35.3	19.5	0.00e+00	0	57	0	1422917632	38	4492
2026-01-12 03:18:59.15	277.29	23.26	-34.2	-35.4	19.5	0.00e+00	0	57	0	1429209088	38	4518
2026-01-12 03:19:00.16	277.04	23.19	-34.2	-35.4	19.5	0.00e+00	0	57	0	1434451968	38	4496
2026-01-12 03:19:01.17	276.80	23.11	-34.1	-35.2	19.6	0.00e+00	0	57	0	1440743424	38	4435
2026-01-12 03:19:02.18	276.56	23.04	-34.0	-35.1	19.7	0.00e+00	0	57	0	1445986304	38	4383
2026-01-12 03:19:03.19	276.31	22.96	-34.0	-35.2	19.7	0.00e+00	0	57	0	1452277760	38	4394
2026-01-12 03:19:04.20	276.07	22.89	-33.9	-35.1	19.7	0.00e+00	0	57	0	1457520640	38	4378
2026-01-12 03:19:05.21	275.83	22.81	-33.9	-35.1	19.8	0.00e+00	0	57	0	1462763520	38	4363
2026-01-12 03:19:06.22	275.60	22.74	-33.9	-35.1	19.7	0.00e+00	0	57	0	1469054976	38	4371
2026-01-12 03:19:07.23	275.36	22.66	-34.0	-35.1	19.7	0.00e+00	0	57	0	1474297856	38	4377
2026-01-12 03:19:08.24	275.12	22.59	-34.0	-35.2	19.6	0.00e+00	0	57	0	1480589312	38	4414
2026-01-12 03:19:09.25	274.89	22.51	-34.1	-35.3	19.6	0.00e+00	0	57	0	1485832192	38	4455
2026-01-12 03:19:10.26	274.65	22.43	-34.2	-35.4	19.5	0.00e+00	0	57	0	1491075072	38	4523
2026-01-12 03:19:11.27	274.42	22.35	-34.3	-35.5	19.4	0.00e+00	0	57	0	1497366528	39	4316
2026-01-12 03:19:12.28	274.19	22.28	-34.3	-35.5	19.4	0.00e+00	0	57	0	1502609408	39	4307
2026-01-12 03:19:13.29	273.96	22.20	-34.2	-35.4	19.4	0.00e+00	0	57	0	1508900864	39	4288
2026-01-12 03:19:14.30	273.73	22.12	-34.2	-35.5	19.4	0.00e+00	0	57	0	1514143744	39	4294
2026-01-12 03:19:15.31	273.50	22.04	-34.3	-35.5	19.4	0.00e+00	0	57	0	1519386624	39	4297
2026-01-12 03:19:16.32	273.28	21.97	-34.3	-35.5	19.4	0.00e+00	0	57	0	1525678080	39	4296
2026-01-12 03:19:17.33	273.05	21.89	-34.3	-35.5	19.3	0.00e+00	0	57	0	1530920960	39	4314
2026-01-12 03:19:18.34	272.83	21.81	-34.3	-35.5	19.4	0.00e+00	0	57	0	1537212416	39	4293
2026-01-12 03:19:19.35	272.60	21.73	-34.2	-35.4	19.4	0.00e+00	0	57	0	1542455296	39	4249
2026-01-12 03:19:20.36	272.38	21.65	-34.2	-35.4	19.4	0.00e+00	0	57	0	1548746752	39	4265
2026-01-12 03:19:21.37	272.16	21.57	-34.3	-35.6	19.3	0.00e+00	0	57	0	1553989632	39	4346
2026-01-12 03:19:22.38	271.94	21.49	-34.5	-35.8	19.1	0.00e+00	0	57	0	1560281088	39	4445
2026-01-12 03:19:23.39	271.72	21.41	-34.6	-35.8	19.0	0.00e+00	0	57	0	1565523968	39	4485
2026-01-12 03:19:24.40	271.50	21.33	-34.6	-35.8	19.0	0.00e+00	0	57	0	1570766848	39	4472
2026-01-12 03:19:25.41	271.29	21.25	-34.5	-35.8	19.0	0.00e+00	0	57	0	1577058304	39	4456
2026-01-12 03:19:26.42	271.07	21.17	-34.5	-35.7	19.1	0.00e+00	0	57	0	1582301184	39	4420
2026-01-12 03:19:27.42	270.86	21.09	-34.5	-35.8	19.1	0.00e+00	0	57	0	1587544064	39	4452
2026-01-12 03:19:28.43	270.65	21.01	-34.7	-35.9	18.9	0.00e+00	0	57	0	1593835520	39	4525
2026-01-12 03:19:29.44	270.43	20.93	-34.7	-36.0	18.8	0.00e+00	0	57	0	1599078400	40	4304
2026-01-12 03:19:30.45	270.22	20.85	-34.7	-36.0	18.8	0.00e+00	0	57	0	1605369856	40	4312
2026-01-12 03:19:31.46	270.01	20.77	-34.7	-36.0	18.7	0.00e+00	0	57	0	1610612736	40	4313
2026-01-12 03:19:32.47	269.80	20.69	-34.6	-35.9	18.8	0.00e+00	0	57	0	1615855616	40	4265
2026-01-12 03:19:33.48	269.60	20.60	-34.6	-35.9	18.9	0.00e+00	0	57	0	1622147072	40	4259
2026-01-12 03:19:34.50	269.39	20.52	-34.6	-35.9	18.8	0.00e+00	0	57	0	1627389952	40	4273
2026-01-12 03:19:35.50	269.19	20.44	-34.8	-36.1	18.7	0.00e+00	0	57	0	1633681408	40	4344
2026-01-12 03:19:36.52	268.98	20.36	-34.9	-36.2	18.6	0.00e+00	0	57	0	1638924288	40	4412
2026-01-12 03:19:37.53	268.78	20.28	-35.0	-36.3	18.5	0.00e+00	0	57	0	1645215744	40	4456
2026-01-12 03:19:38.53	268.58	20.20	-34.9	-36.2	18.5	0.00e+00	0	57	0	1650458624	40	4438
2026-01-12 03:19:39.54	268.38	20.11	-34.9	-36.2	18.5	0.00e+00	0	57	0	1656750080	40	4436
2026-01-12 03:19:40.55	268.18	20.03	-34.8	-36.1	18.6	0.00e+00	0	57	0	1661992960	40	4374
2026-01-12 03:19:41.57	267.97	19.95	-34.9	-36.1	18.6	0.00e+00	0	57	0	1667235840	40	4378
2026-01-12 03:19:42.58	267.78	19.87	-34.9	-36.2	18.6	0.00e+00	0	57	0	1673527296	40	4397
2026-01-12 03:19:43.58	267.58	19.78	-34.9	-36.2	18.5	0.00e+00	0	57	0	1678770176	40	4425
2026-01-12 03:19:44.59	267.39	19.70	-34.9	-36.2	18.5	0.00e+00	0	57	0	1685061632	40	4409
2026-01-12 03:19:45.60	267.19	19.62	-34.9	-36.2	18.6	0.00e+00	0	57	0	1690304512	40	4400
2026-01-12 03:19:46.61	267.00	19.54	-34.9	-36.2	18.6	0.00e+00	0	57	0	1695547392	40	4399
2026-01-12 03:19:47.62	266.81	19.45	-34.9	-36.2	18.5	0.00e+00	0	57	0	1701838848	40	4422
2026-01-12 03:19:48.63	266.61	19.37	-34.9	-36.2	18.5	0.00e+00	0	57	0	1707081728	40	4439
2026-01-12 03:19:49.64	266.42	19.29	-34.9	-36.2	18.5	0.00e+00	0	57	0	1713373184	40	4424
2026-01-12 03:19:50.65	266.23	19.20	-34.8	-36.2	18.6	0.00e+00	0	57	0	1718616064	40	4393
2026-01-12 03:19:51.66	266.05	19.12	-34.8	-36.1	18.6	0.00e+00	0	57	0	1723858944	40	4367
2026-01-12 03:19:52.67	265.86	19.04	-34.7	-36.0	18.7	0.00e+00	0	57	0	1730150400	40	4317
2026-01-12 03:19:53.68	265.67	18.95	-34.7	-36.0	18.7	0.00e+00	0	57	0	1735393280	40	4298
2026-01-12 03:19:54.69	265.49	18.87	-34.7	-36.0	18.7	0.00e+00	0	57	0	1741684736	40	4305
2026-01-12 03:19:55.70	265.30	18.79	-34.8	-36.0	18.7	0.00e+00	0	57	0	1746927616	40	4332
2026-01-12 03:19:56.71	265.12	18.71	-34.8	-36.1	18.6	0.00e+00	0	57	0	1753219072	40	4377
2026-01-12 03:19:57.72	264.94	18.62	-34.9	-36.2	18.5	0.00e+00	0	57	0	1758461952	40	4415
2026-01-12 03:19:58.73	264.76	18.54	-35.0	-36.3	18.4	0.00e+00	0	57	0	1764753408	40	4468
2026-01-12 03:19:59.74	264.58	18.46	-35.1	-36.4	18.3	0.00e+00	0	57	0	1769996288	40	4500
2026-01-12 03:20:00.75	264.40	18.37	-35.1	-36.4	18.3	0.00e+00	0	57	0	1775239168	40	4530
2026-01-12 03:20:01.76	264.22	18.29	-35.1	-36.4	18.2	0.00e+00	0	57	0	1781530624	40	4537
2026-01-12 03:20:02.77	264.04	18.21	-35.1	-36.5	18.2	0.00e+00	0	57	0	1786773504	40	4559
2026-01-12 03:20:03.78	263.87	18.12	-35.1	-36.5	18.2	0.00e+00	0	57	0	1793064960	40	4569
2026-01-12 03:20:04.79	263.69	18.04	-35.2	-36.5	18.2	0.00e+00	0	57	0	1798307840	40	4573
2026-01-12 03:20:05.80	263.52	17.96	-35.2	-36.5	18.1	0.00e+00	0	57	0	1803550720	41	4335
2026-01-12 03:20:06.81	263.34	17.87	-35.2	-36.5	18.2	0.00e+00	0	57	0	1809842176	41	4315
2026-01-12 03:20:07.82	263.17	17.79	-35.2	-36.6	18.1	0.00e+00	0	57	0	1815085056	41	4343
2026-01-12 03:20:08.83	263.00	17.71	-35.3	-36.7	18.0	0.00e+00	0	57	0	1821376512	41	4408
2026-01-12 03:20:09.84	262.83	17.62	-35.3	-36.6	18.0	0.00e+00	0	57	0	1826619392	41	4381
2026-01-12 03:20:10.85	262.66	17.54	-35.3	-36.7	18.0	0.00e+00	0	57	0	1831862272	41	4416
2026-01-12 03:20:11.86	262.49	17.46	-35.2	-36.5	18.1	0.00e+00	0	57	0	1838153728	41	4318
2026-01-12 03:20:12.87	262.32	17.37	-35.2	-36.5	18.1	0.00e+00	0	57	0	1843396608	41	4330
2026-01-12 03:20:13.88	262.16	17.29	-35.2	-36.6	18.1	0.00e+00	0	57	0	1849688064	41	4346
2026-01-12 03:20:14.90	261.99	17.21	-35.3	-36.7	18.0	0.00e+00	0	57	0	1854930944	41	4407
2026-01-12 03:20:15.91	261.82	17.12	-35.4	-36.7	17.9	0.00e+00	0	57	0	1861222400	41	4437
2026-01-12 03:20:16.92	261.66	17.04	-35.4	-36.8	17.9	0.00e+00	0	57	0	1866465280	41	4459
2026-01-12 03:20:17.93	261.50	16.96	-35.5	-36.9	17.8	0.00e+00	0	57	0	1872756736	41	4513
2026-01-12 03:20:18.94	261.34	16.87	-35.6	-37.0	17.6	0.00e+00	0	57	0	1877999616	41	4566
2026-01-12 03:20:19.95	261.17	16.79	-35.7	-37.1	17.6	0.00e+00	0	57	0	1883242496	41	4614
2026-01-12 03:20:20.96	261.01	16.71	-35.7	-37.1	17.5	0.00e+00	0	57	0	1889533952	42	4382
2026-01-12 03:20:21.97	260.85	16.63	-35.6	-37.0	17.7	0.00e+00	0	57	0	1894776832	42	4327
2026-01-12 03:20:22.98	260.70	16.54	-35.6	-37.0	17.6	0.00e+00	0	57	0	1901068288	42	4310
2026-01-12 03:20:23.99	260.54	16.46	-35.7	-37.1	17.6	0.00e+00	0	57	0	1906311168	42	4341
2026-01-12 03:20:25.00	260.38	16.38	-35.8	-37.2	17.5	0.00e+00	0	57	0	1911554048	42	4402
2026-01-12 03:20:26.01	260.23	16.30	-35.8	-37.2	17.4	0.00e+00	0	57	0	1917845504	42	4440
2026-01-12 03:20:27.02	260.07	16.21	-35.9	-37.3	17.3	0.00e+00	0	57	0	1923088384	42	4476
2026-01-12 03:20:28.03	259.92	16.13	-35.9	-37.4	17.3	0.00e+00	0	57	0	1929379840	42	4499
2026-01-12 03:20:29.04	259.76	16.05	-35.9	-37.4	17.3	0.00e+00	0	57	0	1934622720	42	4498
2026-01-12 03:20:30.05	259.61	15.97	-36.0	-37.5	17.1	0.00e+00	0	57	0	1939865600	42	4561
2026-01-12 03:20:31.05	259.46	15.89	-35.9	-37.3	17.3	0.00e+00	0	57	0	1946157056	42	4479
2026-01-12 03:20:32.06	259.31	15.80	-35.9	-37.3	17.3	0.00e+00	0	57	0	1951399936	42	4460
2026-01-12 03:20:33.08	259.16	15.72	-35.8	-37.2	17.4	0.00e+00	0	57	0	1957691392	42	4421
2026-01-12 03:20:34.09	259.01	15.64	-35.9	-37.3	17.4	0.00e+00	0	57	0	1962934272	42	4457
2026-01-12 03:20:35.10	258.86	15.56	-35.8	-37.2	17.4	0.00e+00	0	57	0	1969225728	42	4430
2026-01-12 03:20:36.11	258.71	15.47	-35.8	-37.3	17.4	0.00e+00	0	57	0	1974468608	42	4450
2026-01-12 03:20:37.12	258.57	15.39	-36.0	-37.4	17.2	0.00e+00	0	57	0	1979711488	42	4518
2026-01-12 03:20:38.13	258.42	15.31	-36.1	-37.5	17.1	0.00e+00	0	57	0	1986002944	42	4585
2026-01-12 03:20:39.14	258.28	15.23	-36.2	-37.6	17.0	0.00e+00	0	57	0	1991245824	42	4645
2026-01-12 03:20:40.15	258.13	15.15	-36.1	-37.6	17.0	0.00e+00	0	57	0	1997537280	42	4599
2026-01-12 03:20:41.16	257.99	15.07	-36.0	-37.5	17.1	0.00e+00	0	57	0	2002780160	42	4580
2026-01-12 03:20:42.17	257.85	14.99	-36.1	-37.5	17.1	0.00e+00	0	57	0	2008023040	42	4581
2026-01-12 03:20:43.18	257.70	14.90	-36.0	-37.5	17.1	0.00e+00	0	57	0	2014314496	42	4554
2026-01-12 03:20:44.19	257.56	14.82	-35.9	-37.4	17.2	0.00e+00	0	57	0	2019557376	42	4500
2026-01-12 03:20:45.20	257.42	14.74	-35.9	-37.3	17.3	0.00e+00	0	57	0	2025848832	42	4457
2026-01-12 03:20:46.20	257.28	14.66	-35.8	-37.3	17.3	0.00e+00	0	57	0	2031091712	42	4451
2026-01-12 03:20:47.21	257.14	14.58	-35.9	-37.4	17.2	0.00e+00	0	57	0	2036334592	42	4498
2026-01-12 03:20:48.22	257.01	14.50	-36.0	-37.5	17.1	0.00e+00	0	57	0	2042626048	42	4556
2026-01-12 03:20:49.23	256.87	14.42	-36.1	-37.6	17.0	0.00e+00	0	57	0	2047868928	42	4638
2026-01-12 03:20:50.24	256.73	14.34	-36.3	-37.8	16.8	0.00e+00	0	57	0	2054160384	43	4454
2026-01-12 03:20:51.25	256.60	14.26	-36.4	-37.9	16.7	0.00e+00	0	57	0	2059403264	43	4509
2026-01-12 03:20:52.26	256.46	14.18	-36.5	-38.1	16.5	0.00e+00	0	57	0	2065694720	43	4605
2026-01-12 03:20:53.27	256.33	14.10	-36.2	-37.7	16.8	0.00e+00	0	57	0	2070937600	43	4425
2026-01-12 03:20:54.28	256.19	14.02	-36.1	-37.6	16.9	0.00e+00	0	57	0	2077229056	43	4366
2026-01-12 03:20:55.29	256.06	13.94	-36.1	-37.6	16.9	0.00e+00	0	57	0	2082471936	43	4366
2026-01-12 03:20:56.30	255.93	13.86	-36.2	-37.7	16.9	0.00e+00	0	57	0	2087714816	43	4407
2026-01-12 03:20:57.31	255.80	13.78	-36.2	-37.7	16.8	0.00e+00	0	57	0	2094006272	43	4427
2026-01-12 03:20:58.32	255.67	13.70	-36.3	-37.8	16.7	0.00e+00	0	57	0	2099249152	43	4469
2026-01-12 03:20:59.33	255.54	13.62	-36.3	-37.9	16.7	0.00e+00	0	57	0	2105540608	43	4502
2026-01-12 03:21:00.34	255.41	13.54	-36.4	-38.0	16.6	0.00e+00	0	57	0	2110783488	43	4562
2026-01-12 03:21:01.35	255.28	13.46	-36.4	-37.9	16.6	0.00e+00	0	57	0	2116026368	43	4538
2026-01-12 03:21:02.36	255.15	13.38	-36.4	-38.0	16.6	0.00e+00	0	57	0	2122317824	43	4547
2026-01-12 03:21:03.37	255.02	13.30	-36.5	-38.0	16.5	0.00e+00	0	57	0	2127560704	43	4597
2026-01-12 03:21:04.38	254.90	13.22	-36.4	-38.0	16.5	0.00e+00	0	57	0	2133852160	43	4546
2026-01-12 03:21:05.39	254.77	13.15	-36.3	-37.9	16.7	0.00e+00	0	57	0	2139095040	43	4495
2026-01-12 03:21:06.40	254.65	13.07	-36.4	-38.0	16.5	0.00e+00	0	57	0	2144337920	43	4547
2026-01-12 03:21:07.41	254.52	12.99	-36.5	-38.0	16.5	0.00e+00	0	57	0	2150629376	43	4590
2026-01-12 03:21:08.42	254.40	12.91	-36.6	-38.1	16.3	0.00e+00	0	57	0	2155872256	43	4650
2026-01-12 03:21:09.43	254.28	12.83	-36.5	-38.1	16.4	0.00e+00	0	57	0	2162163712	43	4618
2026-01-12 03:21:10.44	254.15	12.75	-36.6	-38.1	16.4	0.00e+00	0	57	0	2167406592	43	4642
2026-01-12 03:21:11.44	254.03	12.68	-36.6	-38.2	16.3	0.00e+00	0	57	0	2172649472	43	4672
2026-01-12 03:21:12.45	253.91	12.60	-36.6	-38.2	16.2	0.00e+00	0	57	0	2178940928	43	4699
2026-01-12 03:21:13.46	253.79	12.52	-36.6	-38.2	16.3	0.00e+00	0	57	0	2184183808	43	4685
2026-01-12 03:21:14.47	253.67	12.44	-36.7	-38.3	16.1	0.00e+00	0	57	0	2190475264	43	4754
2026-01-12 03:21:15.49	253.55	12.36	-36.9	-38.5	16.1	0.00e+00	0	57	0	2195718144	44	4585
2026-01-12 03:21:16.50	253.43	12.29	-36.8	-38.3	16.3	0.00e+00	0	57	0	2202009600	44	4487
2026-01-12 03:21:17.51	253.31	12.21	-36.7	-38.2	16.4	0.00e+00	0	57	0	2207252480	44	4441
2026-01-12 03:21:18.52	253.20	12.13	-36.7	-38.3	16.3	0.00e+00	0	57	0	2212495360	44	4450
2026-01-12 03:21:19.52	253.08	12.06	-36.8	-38.4	16.3	0.00e+00	0	57	0	2218786816	44	4505
2026-01-12 03:21:20.54	252.96	11.98	-36.8	-38.4	16.2	0.00e+00	0	57	0	2224029696	44	4543
2026-01-12 03:21:21.55	252.85	11.90	-36.9	-38.5	16.1	0.00e+00	0	57	0	2230321152	44	4584
2026-01-12 03:21:22.56	252.73	11.82	-37.0	-38.7	15.9	0.00e+00	0	57	0	2235564032	44	4666
2026-01-12 03:21:23.57	252.62	11.75	-37.0	-38.7	15.9	0.00e+00	0	57	0	2240806912	44	4682
2026-01-12 03:21:24.58	252.51	11.67	-36.8	-38.5	16.2	0.00e+00	0	57	0	2247098368	44	4549
2026-01-12 03:21:25.59	252.39	11.60	-36.8	-38.4	16.2	0.00e+00	0	57	0	2252341248	44	4509
2026-01-12 03:21:26.60	252.28	11.52	-36.8	-38.4	16.2	0.00e+00	0	57	0	2258632704	44	4499
2026-01-12 03:21:27.61	252.17	11.44	-36.8	-38.4	16.2	0.00e+00	0	57	0	2263875584	44	4502
2026-01-12 03:21:28.61	252.06	11.37	-36.9	-38.5	16.1	0.00e+00	0	57	0	2269118464	44	4565
2026-01-12 03:21:29.62	251.95	11.29	-36.9	-38.6	16.0	0.00e+00	0	57	0	2275409920	44	4611
2026-01-12 03:21:30.64	251.84	11.22	-37.0	-38.6	15.9	0.00e+00	0	57	0	2280652800	44	4638
2026-01-12 03:21:31.65	251.73	11.14	-37.1	-38.8	15.8	0.00e+00	0	57	0	2286944256	44	4707
2026-01-12 03:21:32.66	251.62	11.06	-37.2	-38.8	15.7	0.00e+00	0	57	0	2292187136	44	4756
2026-01-12 03:21:33.67	251.51	10.99	-37.1	-38.7	15.8	0.00e+00	0	57	0	2298478592	44	4701
2026-01-12 03:21:34.68	251.40	10.91	-37.1	-38.7	15.8	0.00e+00	0	57	0	2303721472	44	4699
2026-01-12 03:21:35.69	251.30	10.84	-37.2	-38.8	15.7	0.00e+00	0	57	0	2310012928	44	4752
2026-01-12 03:21:36.70	251.19	10.76	-37.2	-38.9	15.6	0.00e+00	0	57	0	2315255808	45	4519
2026-01-12 03:21:37.71	251.08	10.69	-37.3	-39.0	15.6	0.00e+00	0	57	0	2320498688	45	4559
2026-01-12 03:21:38.72	250.98	10.62	-37.2	-38.9	15.6	0.00e+00	0	57	0	2326790144	45	4524
2026-01-12 03:21:39.73	250.87	10.54	-37.2	-38.9	15.6	0.00e+00	0	57	0	2332033024	45	4530
2026-01-12 03:21:40.74	250.77	10.47	-37.2	-38.9	15.6	0.00e+00	0	57	0	2338324480	45	4529
2026-01-12 03:21:41.75	250.66	10.39	-37.2	-38.9	15.6	0.00e+00	0	57	0	2343567360	45	4516
2026-01-12 03:21:42.76	250.56	10.32	-37.2	-39.0	15.5	0.00e+00	0	57	0	2348810240	45	4546
2026-01-12 03:21:43.77	250.46	10.24	-37.3	-39.1	15.4	0.00e+00	0	57	0	2355101696	45	4609
2026-01-12 03:21:44.78	250.36	10.17	-37.3	-39.1	15.4	0.00e+00	0	57	0	2360344576	45	4602
2026-01-12 03:21:45.79	250.25	10.10	-37.4	-39.2	15.3	0.00e+00	0	57	0	2366636032	45	4653
2026-01-12 03:21:46.80	250.15	10.02	-37.3	-39.0	15.5	0.00e+00	0	57	0	2371878912	45	4582
2026-01-12 03:21:47.81	250.05	9.95	-37.3	-39.1	15.4	0.00e+00	0	57	0	2377121792	45	4608
2026-01-12 03:21:48.82	249.95	9.88	-37.4	-39.1	15.4	0.00e+00	0	58	0	2383413248	45	4631
2026-01-12 03:21:49.83	249.85	9.80	-37.4	-39.1	15.4	0.00e+00	0	57	0	2388656128	45	4622
2026-01-12 03:21:50.84	249.75	9.73	-37.4	-39.1	15.3	0.00e+00	0	57	0	2394947584	45	4630
2026-01-12 03:21:51.85	249.65	9.66	-37.4	-39.1	15.4	0.00e+00	0	57	0	2400190464	45	4636
2026-01-12 03:21:52.86	249.56	9.58	-37.4	-39.2	15.3	0.00e+00	0	57	0	2406481920	45	4673
2026-01-12 03:21:53.87	249.46	9.51	-37.5	-39.3	15.2	0.00e+00	0	57	0	2411724800	45	4711
2026-01-12 03:21:54.88	249.36	9.44	-37.4	-39.2	15.3	0.00e+00	0	57	0	2418016256	45	4654
2026-01-12 03:21:55.89	249.26	9.37	-37.5	-39.2	15.2	0.00e+00	0	57	0	2423259136	45	4703
2026-01-12 03:21:56.90	249.17	9.29	-37.5	-39.2	15.2	0.00e+00	0	57	0	2428502016	45	4692
2026-01-12 03:21:57.91	249.07	9.22	-37.5	-39.3	15.1	0.00e+00	0	57	0	2434793472	45	4729
2026-01-12 03:21:58.93	248.98	9.15	-37.7	-39.5	14.9	0.00e+00	0	57	0	2440036352	45	4838
2026-01-12 03:21:59.93	248.88	9.08	-37.6	-39.4	15.0	1.10e-06	0	57	0	2446327808	45	4812
2026-01-12 03:22:00.94	248.79	9.01	-37.5	-39.3	15.1	0.00e+00	0	57	0	2451570688	45	4749
2026-01-12 03:22:01.96	248.69	8.93	-37.6	-39.4	15.0	0.00e+00	0	57	0	2456813568	45	4774
2026-01-12 03:22:02.97	248.60	8.86	-37.7	-39.5	14.8	0.00e+00	0	57	0	2463105024	45	4868
2026-01-12 03:22:03.97	248.51	8.79	-37.8	-39.6	14.8	0.00e+00	0	57	0	2468347904	46	4646
2026-01-12 03:22:04.98	248.42	8.72	-37.8	-39.6	14.7	0.00e+00	0	57	0	2474639360	46	4648
2026-01-12 03:22:05.99	248.32	8.65	-37.8	-39.7	14.7	0.00e+00	0	57	0	2479882240	46	4702
2026-01-12 03:22:07.00	248.23	8.58	-37.8	-39.7	14.7	0.00e+00	0	57	0	2485125120	46	4702
2026-01-12 03:22:08.01	248.14	8.51	-37.8	-39.6	14.7	0.00e+00	0	57	0	2491416576	46	4640
2026-01-12 03:22:09.02	248.05	8.44	-37.8	-39.7	14.7	0.00e+00	0	58	0	2496659456	46	4675
2026-01-12 03:22:10.03	247.96	8.37	-37.7	-39.6	14.8	1.10e-06	0	57	0	2502950912	46	4618
2026-01-12 03:22:11.04	247.87	8.30	-37.9	-39.8	14.5	1.10e-06	0	57	0	2508193792	46	4756
2026-01-12 03:22:12.05	247.78	8.23	-38.0	-39.9	14.4	2.20e-06	0	57	0	2514485248	46	4797
2026-01-12 03:22:13.06	247.69	8.16	-37.9	-39.8	14.5	1.10e-06	0	57	0	2519728128	46	4736
2026-01-12 03:22:14.07	247.60	8.09	-37.8	-39.7	14.7	1.10e-06	0	57	0	2524971008	46	4663
2026-01-12 03:22:15.08	247.52	8.02	-37.7	-39.6	14.7	0.00e+00	0	57	0	2531262464	46	4622
2026-01-12 03:22:16.09	247.43	7.95	-44.4	-55.3	3.8	7.89e-01	0	57	104	2534408192	59	13279
2026-01-12 03:22:17.10	247.34	7.88	-44.7	-56.1	3.8	8.46e-01	0	57	104	2534408192	59	14610
2026-01-12 03:22:18.11	247.25	7.81	-44.8	-56.4	3.8	8.46e-01	0	58	104	2534408192	60	14331
2026-01-12 03:22:19.12	247.17	7.74	-44.9	-56.5	3.8	8.47e-01	0	57	104	2534408192	60	14535
2026-01-12 03:22:20.13	247.08	7.67	-45.0	-56.6	3.8	8.46e-01	0	57	104	2534408192	60	14672
2026-01-12 03:22:21.14	247.00	7.60	-45.1	-56.7	3.8	8.46e-01	0	57	104	2534408192	60	14770
2026-01-12 03:22:22.15	246.91	7.53	-45.1	-56.8	3.8	8.45e-01	0	57	104	2534408192	60	14883
2026-01-12 03:22:23.17	246.83	7.46	-45.2	-56.8	3.8	8.46e-01	0	57	104	2534408192	60	14938
2026-01-12 03:22:24.18	246.74	7.39	-45.2	-56.8	3.8	8.46e-01	0	57	104	2534408192	60	14937
2026-01-12 03:22:25.18	246.66	7.32	-45.2	-56.8	3.8	8.45e-01	0	57	104	2534408192	60	14967
2026-01-12 03:22:26.20	246.58	7.26	-45.1	-56.7	3.8	8.46e-01	0	57	104	2534408192	60	14846
2026-01-12 03:22:27.20	246.49	7.19	-45.1	-56.7	3.8	8.45e-01	0	58	104	2534408192	60	14838
2026-01-12 03:22:28.21	246.41	7.12	-45.1	-56.7	3.8	8.46e-01	0	57	104	2534408192	60	14788
2026-01-12 03:22:29.22	246.33	7.05	-45.1	-56.7	3.8	8.46e-01	0	57	104	2534408192	60	14809
2026-01-12 03:22:30.24	246.25	6.98	-45.1	-56.7	3.8	8.45e-01	0	57	104	2534408192	60	14809
