passes_logs/2026/01/12/R2.0S_Moscow/R2.0S_Moscow__20260112_131926_AQUA_rec.log

#Pass ID: 20260112_131926_AQUA
#Satellite: AQUA
#Configuration: AQUA
#almurnet v.1.7.20251203
#Start time: 2026-01-12 13:20:37

#Version: 2.2.20231116
#Station: R2.0S_Moscow
#Location: 37.707566 lon 55.798166 lat
#TLE: 1 27424U 02022A   26011.93923927  .00001110  00000+0  23211-3 0  9993
#TLE: 2 27424  98.4078 338.3153 0002029  81.9924 314.0623 14.61816932260445

#Time	Az	El	Level	Level2	SNR	BER	BlckErr	Temp	State	Recorded	gain1	gain2
2026-01-12 13:20:37.05	223.35	5.92	-45.3	-56.5	3.8	8.46e-01	0	60	0	0	60	13606
2026-01-12 13:20:38.06	223.48	5.97	-46.1	-64.9	3.8	7.42e-01	0	60	104	0	62	33730
2026-01-12 13:20:39.07	223.60	6.03	-46.1	-64.9	3.8	7.47e-01	0	60	104	0	62	33850
2026-01-12 13:20:40.08	223.73	6.09	-46.1	-64.8	3.8	7.43e-01	0	60	104	0	62	33612
2026-01-12 13:20:41.09	223.86	6.15	-46.1	-64.8	3.8	7.45e-01	0	61	104	0	62	33582
2026-01-12 13:20:42.10	223.98	6.20	-46.0	-64.8	3.8	7.43e-01	0	60	104	0	62	33485
2026-01-12 13:20:43.12	224.11	6.26	-46.0	-64.7	3.8	7.43e-01	0	61	104	0	62	33263
2026-01-12 13:20:44.13	224.24	6.32	-46.0	-64.7	3.8	7.48e-01	0	60	104	0	62	33079
2026-01-12 13:20:45.14	224.37	6.38	-45.9	-64.6	3.8	7.50e-01	0	61	104	0	62	32900
2026-01-12 13:20:46.15	224.50	6.43	-45.8	-64.5	3.8	7.47e-01	0	60	104	0	62	32444
2026-01-12 13:20:47.16	224.62	6.49	-45.6	-64.0	3.8	7.45e-01	0	60	104	0	62	30722
2026-01-12 13:20:48.17	224.75	6.55	-45.4	-64.1	3.8	7.47e-01	0	60	104	0	62	30896
2026-01-12 13:20:49.18	224.88	6.61	-44.9	-63.7	3.8	7.43e-01	0	60	104	0	61	31166
2026-01-12 13:20:50.19	225.02	6.66	-44.8	-63.4	3.8	7.48e-01	0	61	104	0	61	30293
2026-01-12 13:20:51.20	225.15	6.72	-44.8	-63.3	3.8	7.47e-01	0	60	104	0	61	29885
2026-01-12 13:20:52.21	225.28	6.78	-44.7	-63.2	3.8	7.43e-01	0	60	104	0	61	29457
2026-01-12 13:20:53.22	225.41	6.84	-44.8	-63.2	3.8	7.45e-01	0	60	104	0	61	29402
2026-01-12 13:20:54.23	225.54	6.89	-44.7	-63.0	3.8	7.47e-01	0	61	104	0	61	28875
2026-01-12 13:20:55.25	225.68	6.95	-44.7	-63.1	3.8	7.45e-01	0	60	104	0	61	29084
2026-01-12 13:20:56.26	225.81	7.01	-44.7	-63.0	3.8	7.44e-01	0	61	104	0	61	28985
2026-01-12 13:20:57.27	225.95	7.07	-44.7	-63.1	3.8	7.44e-01	0	60	104	0	61	29054
2026-01-12 13:20:58.28	226.08	7.13	-44.7	-63.0	3.8	7.41e-01	0	60	104	0	61	28937
2026-01-12 13:20:59.29	226.22	7.18	-44.7	-63.0	3.8	7.45e-01	0	61	104	0	61	28862
2026-01-12 13:21:00.30	226.36	7.24	-44.7	-62.7	3.8	7.44e-01	0	60	104	0	61	27970
2026-01-12 13:21:01.31	226.49	7.30	-44.7	-62.6	3.8	7.48e-01	0	60	104	0	61	27421
2026-01-12 13:21:02.32	226.63	7.36	-44.7	-62.0	3.8	7.44e-01	0	60	104	0	61	25787
2026-01-12 13:21:03.33	226.77	7.41	-44.7	-61.5	3.8	7.43e-01	0	60	104	0	61	24372
2026-01-12 13:21:04.35	226.91	7.47	-44.7	-60.6	4.1	7.38e-01	0	60	104	0	61	21895
2026-01-12 13:21:05.36	227.05	7.53	-44.6	-60.2	4.2	7.40e-01	0	61	104	0	61	20826
2026-01-12 13:21:06.37	227.19	7.59	-44.6	-58.7	4.7	7.19e-01	0	60	104	0	61	17604
2026-01-12 13:21:07.38	227.33	7.65	-44.6	-57.9	5.1	7.05e-01	0	61	0	0	61	15953
2026-01-12 13:21:08.39	227.47	7.70	-44.5	-56.9	5.7	6.93e-01	5	60	0	0	61	14354
2026-01-12 13:21:09.40	227.61	7.76	-44.4	-56.1	6.4	6.79e-01	74	61	0	1572864	60	13742
2026-01-12 13:21:10.41	227.75	7.82	-44.4	-55.1	7.1	6.60e-01	91	60	0	3145728	60	12375
2026-01-12 13:21:11.42	227.90	7.88	-44.3	-54.4	7.9	6.48e-01	88	61	0	5242880	60	11381
2026-01-12 13:21:12.43	228.04	7.94	-44.2	-53.6	8.6	6.37e-01	4	61	0	7340032	60	10397
2026-01-12 13:21:13.44	228.18	7.99	-44.0	-52.9	9.4	6.29e-01	0	60	0	8912896	60	9596
2026-01-12 13:21:14.46	228.33	8.05	-44.2	-52.7	10.0	6.24e-01	0	60	0	11010048	59	9868
2026-01-12 13:21:15.47	228.48	8.11	-44.1	-52.1	10.6	6.18e-01	0	61	0	12582912	59	9252
2026-01-12 13:21:16.48	228.62	8.17	-44.0	-51.6	11.2	6.18e-01	0	60	0	14680064	59	8707
2026-01-12 13:21:17.49	228.77	8.23	-43.9	-51.2	11.6	6.15e-01	0	60	0	16777216	59	8345
2026-01-12 13:21:18.50	228.91	8.28	-43.9	-50.9	11.9	6.13e-01	0	60	0	18350080	59	8046
2026-01-12 13:21:19.51	229.06	8.34	-43.8	-50.9	12.0	6.12e-01	0	60	0	20447232	59	7996
2026-01-12 13:21:20.52	229.21	8.40	-43.9	-51.0	11.8	6.14e-01	0	60	0	22020096	59	8152
2026-01-12 13:21:21.53	229.36	8.46	-43.9	-51.4	11.4	6.12e-01	0	60	0	24117248	59	8484
2026-01-12 13:21:22.54	229.51	8.51	-44.0	-51.6	11.2	6.16e-01	0	60	0	26214400	59	8664
2026-01-12 13:21:23.55	229.66	8.57	-44.0	-51.4	11.4	6.15e-01	0	60	0	27787264	59	8549
2026-01-12 13:21:24.56	229.81	8.63	-43.8	-50.9	11.9	6.12e-01	0	60	0	29884416	59	8022
2026-01-12 13:21:25.57	229.96	8.69	-43.6	-50.1	12.8	6.10e-01	0	60	0	31981568	59	7323
2026-01-12 13:21:26.59	230.12	8.75	-43.3	-49.1	13.7	6.06e-01	0	60	0	33554432	58	6927
2026-01-12 13:21:27.60	230.27	8.80	-43.0	-48.1	14.8	6.09e-01	0	60	0	35651584	58	6177
2026-01-12 13:21:28.61	230.42	8.86	-42.8	-47.7	15.2	6.07e-01	0	60	0	37224448	57	6235
2026-01-12 13:21:29.62	230.58	8.92	-42.8	-47.6	15.4	6.08e-01	0	60	0	39321600	57	6150
2026-01-12 13:21:30.63	230.73	8.98	-42.9	-47.9	15.0	6.08e-01	0	60	0	41418752	57	6417
2026-01-12 13:21:31.64	230.89	9.04	-45.2	-60.9	4.2	7.53e-01	0	60	104	42467328	60	23960
2026-01-12 13:21:32.65	231.04	9.09	-44.9	-60.3	5.7	7.45e-01	38	60	104	42467328	61	21076
2026-01-12 13:21:33.66	231.20	9.15	-43.6	-50.0	13.6	6.09e-01	0	60	0	44040192	57	8085
2026-01-12 13:21:34.67	231.36	9.21	-44.7	-56.7	6.4	6.80e-01	92	60	0	45613056	59	15729
2026-01-12 13:21:35.68	231.51	9.27	-42.1	-45.9	16.8	6.07e-01	0	60	0	46661632	56	5397
2026-01-12 13:21:36.69	231.67	9.32	-42.6	-47.0	15.9	6.07e-01	0	60	0	48234496	57	5757
2026-01-12 13:21:37.70	231.83	9.38	-42.2	-46.2	16.8	6.09e-01	0	60	0	50331648	56	5582
2026-01-12 13:21:38.71	231.99	9.44	-42.2	-46.2	16.9	6.07e-01	0	60	0	52428800	56	5545
2026-01-12 13:21:39.72	232.15	9.50	-42.1	-46.0	17.1	6.06e-01	0	60	0	54001664	56	5428
2026-01-12 13:21:40.73	232.31	9.55	-42.1	-46.0	17.1	6.05e-01	0	60	0	56098816	56	5429
2026-01-12 13:21:41.74	232.48	9.61	-42.0	-45.8	17.3	6.06e-01	0	61	0	57671680	56	5307
2026-01-12 13:21:42.75	232.64	9.67	-41.9	-45.6	17.4	6.06e-01	0	60	0	59768832	55	5527
2026-01-12 13:21:43.76	232.80	9.73	-41.9	-45.6	17.3	6.07e-01	0	60	0	61865984	55	5528
2026-01-12 13:21:44.77	232.96	9.78	-41.8	-45.5	17.5	6.06e-01	0	60	0	63438848	55	5453
2026-01-12 13:21:45.79	233.13	9.84	-41.9	-45.8	17.3	6.07e-01	0	60	0	65536000	55	5597
2026-01-12 13:21:46.79	233.29	9.90	-41.9	-45.6	17.4	6.07e-01	0	60	0	67633152	55	5514
2026-01-12 13:21:47.80	233.46	9.95	-41.9	-45.6	17.4	6.06e-01	0	60	0	69206016	55	5511
2026-01-12 13:21:48.81	233.63	10.01	-41.8	-45.5	17.5	6.06e-01	0	60	0	71303168	55	5421
2026-01-12 13:21:49.82	233.79	10.07	-41.9	-45.6	17.5	6.07e-01	0	60	0	72876032	55	5481
2026-01-12 13:21:50.83	233.96	10.13	-41.9	-45.7	17.3	6.06e-01	0	61	0	74973184	55	5580
2026-01-12 13:21:51.84	234.13	10.18	-41.9	-45.7	17.3	6.04e-01	0	61	0	77070336	55	5592
2026-01-12 13:21:52.85	234.30	10.24	-41.9	-45.6	17.5	6.06e-01	0	60	0	78643200	55	5484
2026-01-12 13:21:53.86	234.47	10.30	-41.9	-45.7	17.4	6.08e-01	0	61	0	80740352	55	5546
2026-01-12 13:21:54.87	234.64	10.35	-41.7	-45.4	17.7	6.07e-01	0	60	0	82313216	55	5366
2026-01-12 13:21:55.88	234.81	10.41	-41.7	-45.3	17.8	6.04e-01	0	60	0	84410368	55	5302
2026-01-12 13:21:56.89	234.99	10.47	-41.8	-45.4	17.6	6.06e-01	0	60	0	86507520	55	5401
2026-01-12 13:21:57.90	235.16	10.52	-41.8	-45.4	17.6	6.06e-01	0	60	0	88080384	55	5401
2026-01-12 13:21:58.92	235.33	10.58	-41.9	-45.6	17.5	6.06e-01	0	60	0	90177536	55	5508
2026-01-12 13:21:59.92	235.51	10.63	-41.8	-45.5	17.6	6.07e-01	0	60	0	91750400	55	5437
2026-01-12 13:22:00.94	235.68	10.69	-41.7	-45.4	17.7	6.05e-01	0	60	0	93847552	55	5354
2026-01-12 13:22:01.95	235.86	10.75	-41.7	-45.3	17.8	6.06e-01	0	60	0	95944704	55	5303
2026-01-12 13:22:02.96	236.03	10.80	-41.7	-45.3	17.8	6.06e-01	0	60	0	97517568	55	5288
2026-01-12 13:22:03.96	236.21	10.86	-41.7	-45.3	17.8	6.05e-01	0	60	0	99614720	55	5293
2026-01-12 13:22:04.97	236.39	10.91	-41.8	-45.4	17.7	6.08e-01	0	60	0	101711872	55	5352
2026-01-12 13:22:05.98	236.57	10.97	-41.8	-45.4	17.7	6.05e-01	0	60	0	103284736	55	5398
2026-01-12 13:22:06.99	236.75	11.03	-41.8	-45.3	17.7	6.05e-01	0	60	0	105381888	55	5335
2026-01-12 13:22:08.00	236.93	11.08	-41.8	-45.4	17.7	6.08e-01	0	60	0	106954752	55	5366
2026-01-12 13:22:09.01	237.11	11.14	-41.7	-45.2	17.9	6.06e-01	0	60	0	109051904	55	5252
2026-01-12 13:22:10.02	237.29	11.19	-41.7	-45.2	18.0	6.07e-01	0	60	0	111149056	55	5222
2026-01-12 13:22:11.03	237.47	11.25	-41.7	-45.2	18.0	6.07e-01	0	60	0	112721920	55	5243
2026-01-12 13:22:12.04	237.65	11.30	-41.7	-45.2	18.0	6.07e-01	0	60	0	114819072	55	5235
2026-01-12 13:22:13.05	237.84	11.36	-41.7	-45.2	17.9	6.05e-01	0	60	0	116391936	55	5264
2026-01-12 13:22:14.06	238.02	11.41	-41.7	-45.1	18.0	6.04e-01	0	60	0	118489088	55	5204
2026-01-12 13:22:15.07	238.21	11.47	-41.7	-45.2	17.9	6.09e-01	0	60	0	120586240	55	5255
2026-01-12 13:22:16.08	238.39	11.52	-41.7	-45.3	17.9	6.06e-01	0	60	0	122159104	55	5281
2026-01-12 13:22:17.09	238.58	11.58	-41.8	-45.4	17.8	6.04e-01	0	60	0	124256256	55	5344
2026-01-12 13:22:18.10	238.76	11.63	-41.7	-45.1	18.0	6.05e-01	0	60	0	126353408	55	5206
2026-01-12 13:22:19.11	238.95	11.69	-41.8	-45.3	18.0	6.08e-01	0	60	0	127926272	55	5296
2026-01-12 13:22:20.12	239.14	11.74	-41.7	-45.1	18.1	6.06e-01	0	60	0	130023424	55	5189
2026-01-12 13:22:21.13	239.33	11.79	-41.7	-45.2	18.0	6.07e-01	0	60	0	131596288	55	5233
2026-01-12 13:22:22.14	239.52	11.85	-41.6	-44.9	18.2	6.07e-01	0	60	0	133693440	55	5097
2026-01-12 13:22:23.15	239.71	11.90	-41.6	-45.0	18.2	6.07e-01	0	60	0	135790592	55	5122
2026-01-12 13:22:24.16	239.90	11.96	-41.6	-45.0	18.2	6.07e-01	0	60	0	137363456	55	5121
2026-01-12 13:22:25.17	240.09	12.01	-41.6	-45.0	18.2	6.07e-01	0	60	0	139460608	55	5145
2026-01-12 13:22:26.18	240.29	12.06	-41.8	-45.2	18.0	6.06e-01	0	60	0	141033472	55	5268
2026-01-12 13:22:27.19	240.48	12.12	-41.8	-45.3	17.9	6.06e-01	0	60	0	143130624	55	5284
2026-01-12 13:22:28.20	240.68	12.17	-41.7	-45.1	18.1	6.05e-01	0	60	0	145227776	55	5197
2026-01-12 13:22:29.20	240.87	12.22	-41.6	-45.0	18.2	6.07e-01	0	60	0	146800640	55	5108
2026-01-12 13:22:30.21	241.06	12.27	-41.6	-44.9	18.3	6.04e-01	0	60	0	148897792	55	5046
2026-01-12 13:22:31.22	241.26	12.33	-41.6	-44.9	18.3	6.06e-01	0	60	0	150470656	55	5089
2026-01-12 13:22:32.23	241.46	12.38	-41.6	-45.0	18.2	6.06e-01	0	60	0	152567808	55	5115
2026-01-12 13:22:33.24	241.66	12.43	-41.6	-44.9	18.3	6.07e-01	0	60	0	154664960	55	5091
2026-01-12 13:22:34.25	241.86	12.48	-41.6	-44.9	18.3	6.08e-01	0	60	0	156237824	55	5096
2026-01-12 13:22:35.26	242.06	12.53	-41.5	-44.8	18.4	6.06e-01	0	60	0	158334976	55	5018
2026-01-12 13:22:36.27	242.26	12.59	-41.6	-44.9	18.4	6.07e-01	0	60	0	159907840	55	5052
2026-01-12 13:22:37.28	242.46	12.64	-41.6	-44.9	18.4	6.07e-01	0	60	0	162004992	55	5064
2026-01-12 13:22:38.29	242.66	12.69	-41.6	-44.9	18.4	6.07e-01	0	60	0	164102144	55	5069
2026-01-12 13:22:39.31	242.86	12.74	-41.6	-44.9	18.4	6.06e-01	0	60	0	165675008	55	5043
2026-01-12 13:22:40.32	243.07	12.79	-41.5	-44.8	18.5	6.07e-01	0	60	0	167772160	55	4986
2026-01-12 13:22:41.33	243.27	12.84	-41.5	-44.8	18.5	6.07e-01	0	60	0	169869312	55	5017
2026-01-12 13:22:42.34	243.48	12.89	-41.6	-44.8	18.4	6.04e-01	0	60	0	171442176	55	5038
2026-01-12 13:22:43.35	243.68	12.94	-41.7	-45.0	18.3	6.07e-01	0	60	0	173539328	55	5114
2026-01-12 13:22:44.36	243.89	12.99	-41.5	-44.8	18.5	6.06e-01	0	60	0	175112192	55	5004
2026-01-12 13:22:45.37	244.09	13.04	-41.5	-44.7	18.5	6.06e-01	0	60	0	177209344	55	4940
2026-01-12 13:22:46.38	244.30	13.09	-41.5	-44.8	18.5	6.07e-01	0	60	0	179306496	54	5282
2026-01-12 13:22:47.39	244.51	13.14	-41.5	-44.7	18.5	6.08e-01	0	60	0	180879360	54	5263
2026-01-12 13:22:48.40	244.72	13.19	-41.5	-44.8	18.5	6.05e-01	0	60	0	182976512	54	5306
2026-01-12 13:22:49.41	244.93	13.24	-41.6	-45.0	18.3	6.05e-01	0	60	0	184549376	54	5404
2026-01-12 13:22:50.42	245.14	13.29	-41.5	-44.7	18.5	6.07e-01	0	60	0	186646528	54	5267
2026-01-12 13:22:51.43	245.35	13.34	-41.5	-44.7	18.6	6.06e-01	0	60	0	188743680	54	5250
2026-01-12 13:22:52.44	245.56	13.39	-41.5	-44.7	18.6	6.08e-01	0	60	0	190316544	54	5219
2026-01-12 13:22:53.45	245.77	13.44	-41.5	-44.8	18.5	6.06e-01	0	60	0	192413696	54	5298
2026-01-12 13:22:54.46	245.99	13.48	-41.6	-44.8	18.5	6.06e-01	0	60	0	194510848	54	5336
2026-01-12 13:22:55.47	246.20	13.53	-41.5	-44.7	18.6	6.07e-01	0	60	0	196083712	54	5247
2026-01-12 13:22:56.48	246.42	13.58	-41.5	-44.8	18.5	6.08e-01	0	60	0	198180864	54	5303
2026-01-12 13:22:57.49	246.63	13.63	-41.5	-44.6	18.7	6.07e-01	0	60	0	199753728	54	5217
2026-01-12 13:22:58.50	246.85	13.67	-41.5	-44.7	18.6	6.09e-01	0	60	0	201850880	54	5259
2026-01-12 13:22:59.51	247.07	13.72	-41.5	-44.7	18.6	6.04e-01	0	60	0	203948032	54	5265
2026-01-12 13:23:00.52	247.28	13.77	-41.5	-44.8	18.6	6.05e-01	0	60	0	205520896	54	5288
2026-01-12 13:23:01.53	247.50	13.81	-41.6	-44.9	18.5	6.07e-01	0	60	0	207618048	54	5350
2026-01-12 13:23:02.54	247.72	13.86	-41.6	-44.9	18.4	6.07e-01	0	60	0	209190912	54	5377
2026-01-12 13:23:03.55	247.94	13.90	-41.6	-44.8	18.6	6.05e-01	0	60	0	211288064	54	5295
2026-01-12 13:23:04.55	248.16	13.95	-41.6	-44.8	18.6	6.07e-01	0	60	0	213385216	54	5295
2026-01-12 13:23:05.56	248.38	13.99	-41.5	-44.7	18.6	6.05e-01	0	60	0	214958080	54	5248
2026-01-12 13:23:06.57	248.60	14.04	-41.6	-44.8	18.5	6.06e-01	0	60	0	217055232	54	5307
2026-01-12 13:23:07.59	248.83	14.08	-41.5	-44.7	18.6	6.04e-01	0	60	0	218628096	54	5256
2026-01-12 13:23:08.59	249.05	14.13	-41.4	-44.6	18.7	6.08e-01	0	60	0	220725248	54	5183
2026-01-12 13:23:09.60	249.27	14.17	-41.5	-44.7	18.7	6.06e-01	0	60	0	222822400	54	5236
2026-01-12 13:23:10.61	249.50	14.21	-41.5	-44.7	18.7	6.06e-01	0	60	0	224395264	54	5250
2026-01-12 13:23:11.62	249.72	14.26	-41.5	-44.6	18.7	6.08e-01	0	60	0	226492416	54	5200
2026-01-12 13:23:12.63	249.95	14.30	-41.4	-44.5	18.8	6.07e-01	0	60	0	228065280	54	5147
2026-01-12 13:23:13.64	250.18	14.34	-41.4	-44.5	18.9	6.07e-01	0	60	0	230162432	54	5115
2026-01-12 13:23:14.65	250.40	14.38	-41.5	-44.6	18.7	6.06e-01	0	60	0	232259584	54	5192
2026-01-12 13:23:15.66	250.63	14.43	-41.6	-44.8	18.6	6.06e-01	0	60	0	233832448	54	5287
2026-01-12 13:23:16.67	250.86	14.47	-41.5	-44.6	18.7	6.05e-01	0	60	0	235929600	54	5208
2026-01-12 13:23:17.68	251.09	14.51	-41.4	-44.6	18.8	6.07e-01	0	60	0	238026752	54	5178
2026-01-12 13:23:18.69	251.32	14.55	-41.4	-44.5	18.9	6.06e-01	0	60	0	239599616	54	5101
2026-01-12 13:23:19.70	251.55	14.59	-41.4	-44.6	18.8	6.06e-01	0	60	0	241696768	54	5173
2026-01-12 13:23:20.71	251.78	14.63	-41.4	-44.5	18.8	6.06e-01	0	60	0	243269632	54	5148
2026-01-12 13:23:21.72	252.01	14.67	-41.4	-44.5	18.8	6.06e-01	0	60	0	245366784	54	5141
2026-01-12 13:23:22.73	252.25	14.71	-41.4	-44.6	18.8	6.07e-01	0	60	0	247463936	54	5168
2026-01-12 13:23:23.74	252.48	14.75	-41.5	-44.6	18.8	6.05e-01	0	60	0	249036800	54	5182
2026-01-12 13:23:24.75	252.71	14.79	-41.5	-44.7	18.7	6.05e-01	0	60	0	251133952	54	5220
2026-01-12 13:23:25.76	252.95	14.83	-41.4	-44.6	18.8	6.08e-01	0	60	0	252706816	54	5166
2026-01-12 13:23:26.77	253.18	14.87	-41.4	-44.5	18.8	6.09e-01	0	60	0	254803968	54	5134
2026-01-12 13:23:27.78	253.42	14.90	-41.5	-44.6	18.8	6.04e-01	0	60	0	256901120	54	5181
2026-01-12 13:23:28.79	253.66	14.94	-41.4	-44.5	18.8	6.08e-01	0	60	0	258473984	54	5153
2026-01-12 13:23:29.80	253.89	14.98	-41.4	-44.5	18.9	6.04e-01	0	60	0	260571136	54	5105
2026-01-12 13:23:30.81	254.13	15.02	-41.4	-44.5	18.9	6.05e-01	0	60	0	262668288	54	5146
2026-01-12 13:23:31.82	254.37	15.05	-41.5	-44.6	18.7	6.06e-01	0	60	0	264241152	54	5212
2026-01-12 13:23:32.83	254.61	15.09	-41.5	-44.6	18.8	6.07e-01	0	60	0	266338304	54	5191
2026-01-12 13:23:33.84	254.85	15.12	-41.4	-44.5	18.9	6.07e-01	0	60	0	267911168	54	5124
2026-01-12 13:23:34.85	255.09	15.16	-41.5	-44.6	18.7	6.07e-01	0	60	0	270008320	54	5216
2026-01-12 13:23:35.86	255.33	15.19	-41.5	-44.7	18.6	6.08e-01	0	60	0	272105472	54	5258
2026-01-12 13:23:36.87	255.57	15.23	-41.5	-44.7	18.6	6.06e-01	0	60	0	273678336	54	5268
2026-01-12 13:23:37.88	255.81	15.26	-41.4	-44.6	18.8	6.06e-01	0	60	0	275775488	54	5167
2026-01-12 13:23:38.89	256.05	15.30	-41.4	-44.6	18.8	6.08e-01	0	60	0	277348352	54	5174
2026-01-12 13:23:39.90	256.30	15.33	-41.5	-44.6	18.8	6.03e-01	0	60	0	279445504	54	5192
2026-01-12 13:23:40.91	256.54	15.36	-41.5	-44.7	18.7	6.07e-01	0	60	0	281542656	54	5227
2026-01-12 13:23:41.92	256.78	15.39	-41.4	-44.6	18.8	6.06e-01	0	60	0	283115520	54	5173
2026-01-12 13:23:42.93	257.03	15.43	-41.3	-44.3	19.0	6.06e-01	0	60	0	285212672	54	5032
2026-01-12 13:23:43.94	257.27	15.46	-41.4	-44.5	18.8	6.07e-01	0	60	0	287309824	54	5157
2026-01-12 13:23:44.95	257.52	15.49	-41.5	-44.7	18.7	6.06e-01	0	60	0	288882688	54	5247
2026-01-12 13:23:45.96	257.76	15.52	-41.4	-44.6	18.8	6.08e-01	0	60	0	290979840	54	5180
2026-01-12 13:23:46.97	258.01	15.55	-41.4	-44.5	18.9	6.05e-01	0	60	0	292552704	54	5145
2026-01-12 13:23:47.98	258.26	15.58	-41.4	-44.5	18.9	6.05e-01	0	60	0	294649856	54	5134
2026-01-12 13:23:48.99	258.51	15.61	-41.4	-44.6	18.8	6.06e-01	0	60	0	296222720	54	5176
2026-01-12 13:23:50.00	258.75	15.64	-41.5	-44.6	18.7	6.06e-01	0	60	0	298319872	54	5214
2026-01-12 13:23:51.01	259.00	15.66	-41.4	-44.5	18.9	6.06e-01	0	60	0	300417024	54	5142
2026-01-12 13:23:52.02	259.25	15.69	-41.3	-44.3	19.0	6.06e-01	0	60	0	301989888	54	5037
2026-01-12 13:23:53.03	259.50	15.72	-41.4	-44.4	18.9	6.06e-01	0	60	0	304087040	54	5093
2026-01-12 13:23:54.04	259.75	15.75	-41.4	-44.5	18.9	6.06e-01	0	60	0	306184192	54	5117
2026-01-12 13:23:55.05	260.00	15.77	-41.4	-44.5	18.9	6.06e-01	0	60	0	307757056	54	5158
2026-01-12 13:23:56.06	260.25	15.80	-41.4	-44.5	18.9	6.06e-01	0	60	0	309854208	54	5121
2026-01-12 13:23:57.07	260.50	15.83	-41.4	-44.5	18.9	6.07e-01	0	60	0	311427072	54	5130
2026-01-12 13:23:58.08	260.76	15.85	-41.4	-44.5	18.9	6.07e-01	0	60	0	313524224	54	5122
2026-01-12 13:23:59.09	261.01	15.88	-41.4	-44.5	18.8	6.05e-01	0	60	0	315621376	54	5152
2026-01-12 13:24:00.10	261.26	15.90	-41.4	-44.5	18.9	6.09e-01	0	60	0	317194240	54	5109
2026-01-12 13:24:01.10	261.51	15.92	-41.5	-44.6	18.8	6.08e-01	0	60	0	319291392	54	5193
2026-01-12 13:24:02.11	261.77	15.95	-41.4	-44.5	18.8	6.05e-01	0	60	0	320864256	54	5157
2026-01-12 13:24:03.12	262.02	15.97	-41.4	-44.5	18.9	6.05e-01	0	60	0	322961408	54	5117
2026-01-12 13:24:04.13	262.27	15.99	-41.4	-44.4	19.0	6.05e-01	0	60	0	325058560	54	5081
2026-01-12 13:24:05.14	262.53	16.01	-41.4	-44.5	18.9	6.05e-01	0	60	0	326631424	54	5135
2026-01-12 13:24:06.15	262.78	16.03	-41.4	-44.5	18.9	6.04e-01	0	60	0	328728576	54	5118
2026-01-12 13:24:07.16	263.04	16.06	-41.4	-44.5	18.9	6.06e-01	0	60	0	330825728	54	5102
2026-01-12 13:24:08.17	263.29	16.08	-41.5	-44.6	18.8	6.05e-01	0	60	0	332398592	54	5188
2026-01-12 13:24:09.18	263.55	16.10	-41.5	-44.6	18.8	6.07e-01	0	60	0	334495744	54	5207
2026-01-12 13:24:10.19	263.81	16.11	-41.4	-44.5	18.9	6.05e-01	0	60	0	336068608	54	5145
2026-01-12 13:24:11.20	264.06	16.13	-41.4	-44.5	18.8	6.08e-01	0	60	0	338165760	54	5146
2026-01-12 13:24:12.21	264.32	16.15	-41.4	-44.6	18.8	6.06e-01	0	60	0	340262912	54	5169
2026-01-12 13:24:13.22	264.58	16.17	-41.4	-44.4	19.0	6.07e-01	0	60	0	341835776	54	5082
2026-01-12 13:24:14.23	264.84	16.19	-41.4	-44.4	19.0	6.06e-01	0	60	0	343932928	54	5092
2026-01-12 13:24:15.24	265.09	16.20	-41.4	-44.5	18.8	6.05e-01	0	60	0	345505792	54	5156
2026-01-12 13:24:16.25	265.35	16.22	-41.5	-44.7	18.7	6.07e-01	0	60	0	347602944	54	5252
2026-01-12 13:24:17.26	265.61	16.24	-41.5	-44.7	18.7	6.06e-01	0	60	0	349700096	54	5253
2026-01-12 13:24:18.27	265.87	16.25	-41.5	-44.6	18.8	6.06e-01	0	60	0	351272960	54	5198
2026-01-12 13:24:19.28	266.13	16.27	-41.4	-44.5	18.9	6.06e-01	0	60	0	353370112	54	5117
2026-01-12 13:24:20.28	266.39	16.28	-41.4	-44.5	18.9	6.05e-01	0	60	0	354942976	54	5138
2026-01-12 13:24:21.30	266.65	16.29	-41.4	-44.5	18.8	6.07e-01	0	60	0	357040128	54	5159
2026-01-12 13:24:22.31	266.91	16.31	-41.5	-44.7	18.6	6.06e-01	0	60	0	359137280	54	5268
2026-01-12 13:24:23.32	267.17	16.32	-41.6	-44.8	18.6	6.06e-01	0	60	0	360710144	54	5296
2026-01-12 13:24:24.33	267.43	16.33	-41.5	-44.6	18.7	6.07e-01	0	60	0	362807296	54	5208
2026-01-12 13:24:25.34	267.69	16.34	-41.4	-44.6	18.8	6.06e-01	0	60	0	364380160	54	5171
2026-01-12 13:24:26.35	267.95	16.35	-41.5	-44.6	18.8	6.05e-01	0	60	0	366477312	54	5202
2026-01-12 13:24:27.36	268.21	16.36	-41.5	-44.8	18.6	6.08e-01	0	60	0	368574464	54	5283
2026-01-12 13:24:28.37	268.47	16.37	-41.6	-44.8	18.6	6.06e-01	0	60	0	370147328	54	5288
2026-01-12 13:24:29.38	268.73	16.38	-41.4	-44.5	18.9	6.06e-01	0	60	0	372244480	54	5117
2026-01-12 13:24:30.39	269.00	16.39	-41.3	-44.4	19.0	6.05e-01	0	60	0	374341632	54	5077
2026-01-12 13:24:31.40	269.26	16.40	-41.4	-44.5	18.9	6.07e-01	0	60	0	375914496	54	5117
2026-01-12 13:24:32.41	269.52	16.41	-41.4	-44.6	18.8	6.07e-01	0	60	0	378011648	54	5170
2026-01-12 13:24:33.42	269.78	16.41	-41.5	-44.6	18.8	6.05e-01	0	60	0	379584512	54	5196
2026-01-12 13:24:34.43	270.04	16.42	-41.4	-44.4	19.0	6.06e-01	0	60	0	381681664	54	5085
2026-01-12 13:24:35.44	270.30	16.43	-41.4	-44.6	18.8	6.09e-01	0	60	0	383778816	54	5164
2026-01-12 13:24:36.45	270.57	16.43	-41.4	-44.5	18.8	6.07e-01	0	60	0	385351680	54	5156
2026-01-12 13:24:37.46	270.83	16.44	-41.4	-44.5	18.8	6.06e-01	0	60	0	387448832	54	5141
2026-01-12 13:24:38.47	271.09	16.44	-41.4	-44.5	18.8	6.05e-01	0	60	0	389021696	54	5154
2026-01-12 13:24:39.48	271.35	16.45	-41.5	-44.6	18.7	6.05e-01	0	60	0	391118848	54	5209
2026-01-12 13:24:40.49	271.62	16.45	-41.5	-44.6	18.7	6.05e-01	0	60	0	393216000	54	5216
2026-01-12 13:24:41.50	271.88	16.45	-41.5	-44.6	18.7	6.06e-01	0	60	0	394788864	54	5212
2026-01-12 13:24:42.50	272.14	16.46	-41.3	-44.4	19.0	6.07e-01	0	60	0	396886016	54	5047
2026-01-12 13:24:43.51	272.40	16.46	-41.3	-44.4	18.9	6.08e-01	0	60	0	398983168	54	5075
2026-01-12 13:24:44.52	272.66	16.46	-41.5	-44.6	18.7	6.07e-01	0	60	0	400556032	54	5209
2026-01-12 13:24:45.53	272.93	16.46	-41.5	-44.7	18.7	6.08e-01	0	60	0	402653184	54	5221
2026-01-12 13:24:46.54	273.19	16.46	-41.4	-44.6	18.8	6.08e-01	0	60	0	404226048	54	5180
2026-01-12 13:24:47.55	273.45	16.46	-41.4	-44.6	18.8	6.06e-01	0	60	0	406323200	54	5173
2026-01-12 13:24:48.56	273.71	16.46	-41.5	-44.6	18.7	6.06e-01	0	60	0	408420352	54	5209
2026-01-12 13:24:49.57	273.98	16.46	-41.5	-44.8	18.6	6.05e-01	0	60	0	409993216	54	5282
2026-01-12 13:24:50.58	274.24	16.45	-41.4	-44.5	18.8	6.06e-01	0	60	0	412090368	54	5145
2026-01-12 13:24:51.59	274.50	16.45	-41.3	-44.4	18.9	6.05e-01	0	60	0	413663232	54	5082
2026-01-12 13:24:52.60	274.76	16.45	-41.3	-44.4	18.9	6.05e-01	0	60	0	415760384	54	5086
2026-01-12 13:24:53.61	275.03	16.44	-41.5	-44.7	18.7	6.07e-01	0	60	0	417857536	54	5223
2026-01-12 13:24:54.62	275.29	16.44	-41.4	-44.6	18.7	6.05e-01	0	60	0	419430400	54	5185
2026-01-12 13:24:55.62	275.55	16.44	-41.4	-44.5	18.9	6.04e-01	0	60	0	421527552	54	5101
2026-01-12 13:24:56.63	275.81	16.43	-41.4	-44.5	18.9	6.09e-01	0	60	0	423100416	54	5136
2026-01-12 13:24:57.64	276.07	16.42	-41.4	-44.6	18.8	6.06e-01	0	60	0	425197568	54	5170
2026-01-12 13:24:58.65	276.33	16.42	-41.4	-44.5	18.8	6.08e-01	0	60	0	427294720	54	5150
2026-01-12 13:24:59.66	276.60	16.41	-41.4	-44.6	18.7	6.08e-01	0	60	0	428867584	54	5171
2026-01-12 13:25:00.67	276.86	16.40	-41.5	-44.7	18.6	6.06e-01	0	60	0	430964736	54	5247
2026-01-12 13:25:01.68	277.12	16.39	-41.4	-44.6	18.8	6.07e-01	0	60	0	432537600	54	5160
2026-01-12 13:25:02.69	277.38	16.39	-41.3	-44.4	19.0	6.08e-01	0	60	0	434634752	54	5043
2026-01-12 13:25:03.70	277.64	16.38	-41.4	-44.4	18.9	6.08e-01	0	60	0	436731904	54	5096
2026-01-12 13:25:04.71	277.90	16.37	-41.4	-44.5	18.8	6.08e-01	0	60	0	438304768	54	5159
2026-01-12 13:25:05.72	278.16	16.36	-41.4	-44.6	18.7	6.06e-01	0	60	0	440401920	54	5188
2026-01-12 13:25:06.73	278.42	16.35	-41.4	-44.5	18.8	6.07e-01	0	60	0	442499072	54	5124
2026-01-12 13:25:07.74	278.68	16.33	-41.4	-44.5	18.8	6.04e-01	0	60	0	444071936	54	5121
2026-01-12 13:25:08.75	278.94	16.32	-41.4	-44.6	18.7	6.05e-01	0	60	0	446169088	54	5194
2026-01-12 13:25:09.76	279.20	16.31	-41.5	-44.8	18.6	6.06e-01	0	60	0	447741952	54	5289
2026-01-12 13:25:10.77	279.46	16.30	-41.4	-44.6	18.6	6.05e-01	0	60	0	449839104	54	5198
2026-01-12 13:25:11.78	279.72	16.28	-41.4	-44.5	18.8	6.08e-01	0	60	0	451936256	54	5119
2026-01-12 13:25:12.79	279.98	16.27	-41.3	-44.3	19.0	6.07e-01	0	60	0	453509120	54	5002
2026-01-12 13:25:13.80	280.24	16.26	-41.4	-44.5	18.8	6.07e-01	0	60	0	455606272	54	5149
2026-01-12 13:25:14.80	280.50	16.24	-41.5	-44.7	18.6	6.03e-01	0	60	0	457179136	54	5269
2026-01-12 13:25:15.81	280.76	16.23	-41.4	-44.6	18.7	6.04e-01	0	60	0	459276288	54	5203
2026-01-12 13:25:16.82	281.01	16.21	-41.4	-44.5	18.8	6.05e-01	0	60	0	461373440	54	5152
2026-01-12 13:25:17.83	281.27	16.19	-41.4	-44.6	18.7	6.08e-01	0	60	0	462946304	54	5201
2026-01-12 13:25:18.84	281.53	16.18	-41.4	-44.6	18.7	6.08e-01	0	60	0	465043456	54	5182
2026-01-12 13:25:19.85	281.79	16.16	-41.4	-44.6	18.7	6.05e-01	0	60	0	467140608	54	5180
2026-01-12 13:25:20.86	282.04	16.14	-41.4	-44.6	18.7	6.06e-01	0	60	0	468713472	54	5199
2026-01-12 13:25:21.87	282.30	16.12	-41.4	-44.5	18.7	6.06e-01	0	60	0	470810624	54	5154
2026-01-12 13:25:22.88	282.55	16.10	-41.4	-44.6	18.7	6.07e-01	0	60	0	472383488	54	5190
2026-01-12 13:25:23.89	282.81	16.08	-41.4	-44.5	18.7	6.05e-01	0	60	0	474480640	54	5142
2026-01-12 13:25:24.90	283.07	16.06	-41.4	-44.5	18.8	6.05e-01	0	60	0	476577792	54	5126
2026-01-12 13:25:25.91	283.32	16.04	-41.4	-44.6	18.7	6.06e-01	0	60	0	478150656	54	5177
2026-01-12 13:25:26.92	283.58	16.02	-41.4	-44.5	18.7	6.08e-01	0	60	0	480247808	54	5131
2026-01-12 13:25:27.93	283.83	16.00	-41.3	-44.3	18.9	6.07e-01	0	60	0	481820672	54	5026
2026-01-12 13:25:28.94	284.08	15.98	-41.3	-44.4	18.9	6.03e-01	0	60	0	483917824	54	5047
2026-01-12 13:25:29.95	284.34	15.96	-41.4	-44.5	18.7	6.06e-01	0	60	0	486014976	54	5154
2026-01-12 13:25:30.96	284.59	15.93	-41.5	-44.7	18.6	6.07e-01	0	60	0	487587840	54	5233
2026-01-12 13:25:31.96	284.84	15.91	-41.4	-44.6	18.6	6.05e-01	0	60	0	489684992	54	5197
2026-01-12 13:25:32.97	285.09	15.89	-41.4	-44.5	18.7	6.07e-01	0	60	0	491257856	54	5143
2026-01-12 13:25:33.98	285.34	15.86	-41.4	-44.5	18.7	6.06e-01	0	60	0	493355008	54	5150
2026-01-12 13:25:34.99	285.60	15.84	-41.4	-44.6	18.7	6.07e-01	0	60	0	495452160	54	5173
2026-01-12 13:25:36.00	285.85	15.81	-41.4	-44.6	18.6	6.07e-01	0	60	0	497025024	54	5207
2026-01-12 13:25:37.01	286.10	15.78	-41.4	-44.6	18.7	6.07e-01	0	60	0	499122176	54	5167
2026-01-12 13:25:38.02	286.35	15.76	-41.4	-44.5	18.8	6.08e-01	0	60	0	500695040	54	5130
2026-01-12 13:25:39.03	286.60	15.73	-41.4	-44.5	18.7	6.08e-01	0	60	0	502792192	54	5138
2026-01-12 13:25:40.04	286.85	15.70	-41.4	-44.5	18.7	6.07e-01	0	60	0	504889344	54	5150
2026-01-12 13:25:41.05	287.09	15.68	-41.4	-44.6	18.6	6.09e-01	0	60	0	506462208	54	5189
2026-01-12 13:25:42.06	287.34	15.65	-41.4	-44.6	18.7	6.11e-01	0	60	0	508559360	54	5175
2026-01-12 13:25:43.07	287.59	15.62	-41.4	-44.6	18.6	6.07e-01	0	60	0	510656512	54	5217
2026-01-12 13:25:44.08	287.84	15.59	-41.4	-44.6	18.7	6.06e-01	0	60	0	512229376	54	5162
2026-01-12 13:25:45.09	288.08	15.56	-41.3	-44.5	18.8	6.05e-01	0	60	0	514326528	54	5115
2026-01-12 13:25:46.09	288.33	15.53	-41.4	-44.5	18.8	6.06e-01	0	60	0	515899392	54	5135
2026-01-12 13:25:47.11	288.57	15.50	-41.4	-44.5	18.7	6.07e-01	0	60	0	517996544	54	5148
2026-01-12 13:25:48.12	288.82	15.47	-41.4	-44.5	18.7	6.04e-01	0	60	0	520093696	54	5145
2026-01-12 13:25:49.13	289.06	15.44	-41.4	-44.6	18.6	6.06e-01	0	60	0	521666560	54	5213
2026-01-12 13:25:50.14	289.31	15.41	-41.4	-44.6	18.6	6.05e-01	0	60	0	523763712	54	5181
2026-01-12 13:25:51.15	289.55	15.38	-41.3	-44.5	18.8	6.06e-01	0	60	0	525336576	54	5115
2026-01-12 13:25:52.16	289.79	15.34	-41.3	-44.4	18.8	6.08e-01	0	60	0	527433728	54	5094
2026-01-12 13:25:53.17	290.04	15.31	-41.4	-44.5	18.7	6.07e-01	0	60	0	529530880	54	5144
2026-01-12 13:25:54.18	290.28	15.28	-41.4	-44.6	18.6	6.06e-01	0	60	0	531103744	54	5211
2026-01-12 13:25:55.19	290.52	15.24	-41.4	-44.6	18.6	6.07e-01	0	60	0	533200896	54	5162
2026-01-12 13:25:56.19	290.76	15.21	-41.3	-44.5	18.7	6.06e-01	0	60	0	535298048	54	5126
2026-01-12 13:25:57.20	291.00	15.18	-41.3	-44.4	18.8	6.06e-01	0	60	0	536870912	54	5072
2026-01-12 13:25:58.21	291.24	15.14	-41.4	-44.5	18.7	6.05e-01	0	60	0	538968064	54	5149
2026-01-12 13:25:59.22	291.48	15.11	-41.3	-44.5	18.7	6.07e-01	0	60	0	540540928	54	5126
2026-01-12 13:26:00.23	291.71	15.07	-41.3	-44.5	18.7	6.05e-01	0	60	0	542638080	54	5137
2026-01-12 13:26:01.24	291.95	15.03	-41.3	-44.5	18.7	6.05e-01	0	60	0	544210944	54	5143
2026-01-12 13:26:02.25	292.19	15.00	-41.4	-44.6	18.6	6.07e-01	0	60	0	546308096	54	5189
2026-01-12 13:26:03.26	292.42	14.96	-41.4	-44.7	18.5	6.08e-01	0	60	0	548405248	54	5251
2026-01-12 13:26:04.27	292.66	14.92	-41.4	-44.7	18.5	6.05e-01	0	60	0	549978112	54	5252
2026-01-12 13:26:05.28	292.90	14.89	-41.4	-44.7	18.5	6.08e-01	0	60	0	552075264	54	5245
2026-01-12 13:26:06.29	293.13	14.85	-41.4	-44.6	18.5	6.06e-01	0	60	0	553648128	54	5209
2026-01-12 13:26:07.30	293.36	14.81	-41.4	-44.6	18.5	6.06e-01	0	60	0	555745280	54	5199
2026-01-12 13:26:08.31	293.60	14.77	-41.4	-44.7	18.4	6.09e-01	0	60	0	557842432	54	5255
2026-01-12 13:26:09.32	293.83	14.73	-41.4	-44.7	18.5	6.06e-01	0	60	0	559415296	54	5237
2026-01-12 13:26:10.33	294.06	14.69	-41.4	-44.7	18.4	6.08e-01	0	60	0	561512448	54	5274
2026-01-12 13:26:11.34	294.29	14.66	-41.5	-44.8	18.3	6.08e-01	0	60	0	563609600	54	5340
2026-01-12 13:26:12.34	294.52	14.62	-41.5	-44.9	18.2	6.07e-01	0	60	0	565182464	54	5361
2026-01-12 13:26:13.35	294.75	14.58	-41.6	-45.0	18.1	6.06e-01	0	60	0	567279616	54	5419
2026-01-12 13:26:14.36	294.98	14.53	-41.5	-44.8	18.4	6.06e-01	0	60	0	568852480	54	5283
2026-01-12 13:26:15.37	295.21	14.49	-41.5	-44.8	18.3	6.09e-01	0	60	0	570949632	54	5320
2026-01-12 13:26:16.38	295.44	14.45	-41.6	-44.9	18.2	6.06e-01	0	60	0	573046784	54	5381
2026-01-12 13:26:17.39	295.66	14.41	-41.5	-44.8	18.2	6.06e-01	0	60	0	574619648	54	5327
2026-01-12 13:26:18.40	295.89	14.37	-41.4	-44.7	18.4	6.06e-01	0	60	0	576716800	54	5236
2026-01-12 13:26:19.41	296.12	14.33	-41.5	-44.8	18.3	6.08e-01	0	60	0	578813952	54	5296
2026-01-12 13:26:20.42	296.34	14.28	-41.4	-44.7	18.4	6.07e-01	0	60	0	580386816	54	5236
2026-01-12 13:26:21.43	296.57	14.24	-41.5	-44.9	18.2	6.06e-01	0	60	0	582483968	54	5347
2026-01-12 13:26:22.44	296.79	14.20	-41.5	-44.9	18.2	6.05e-01	0	60	0	584056832	54	5369
2026-01-12 13:26:23.45	297.01	14.16	-41.5	-44.9	18.2	6.06e-01	0	60	0	586153984	54	5390
2026-01-12 13:26:24.46	297.24	14.11	-41.5	-44.8	18.3	6.06e-01	0	60	0	588251136	54	5314
2026-01-12 13:26:25.47	297.46	14.07	-41.5	-44.8	18.4	6.05e-01	0	60	0	589824000	54	5283
2026-01-12 13:26:26.48	297.68	14.02	-41.4	-44.5	18.6	6.06e-01	0	60	0	591921152	54	5152
2026-01-12 13:26:27.49	297.90	13.98	-41.4	-44.6	18.5	6.07e-01	0	60	0	593494016	54	5181
2026-01-12 13:26:28.49	298.12	13.93	-41.5	-44.9	18.2	6.07e-01	0	60	0	595591168	54	5355
2026-01-12 13:26:29.50	298.34	13.89	-41.6	-44.9	18.2	6.07e-01	0	60	0	597688320	54	5387
2026-01-12 13:26:30.51	298.56	13.84	-41.5	-44.8	18.3	6.07e-01	0	60	0	599261184	54	5321
2026-01-12 13:26:31.52	298.77	13.80	-41.5	-44.8	18.3	6.07e-01	0	60	0	601358336	54	5313
2026-01-12 13:26:32.53	298.99	13.75	-41.5	-44.9	18.3	6.06e-01	0	60	0	602931200	54	5346
2026-01-12 13:26:33.54	299.21	13.71	-41.5	-44.7	18.4	6.06e-01	0	60	0	605028352	54	5274
2026-01-12 13:26:34.55	299.42	13.66	-41.4	-44.7	18.4	6.06e-01	0	60	0	607125504	54	5254
2026-01-12 13:26:35.56	299.64	13.61	-41.4	-44.7	18.4	6.07e-01	0	60	0	608698368	54	5268
2026-01-12 13:26:36.57	299.85	13.57	-41.5	-44.8	18.4	6.07e-01	0	60	0	610795520	54	5283
2026-01-12 13:26:37.58	300.06	13.52	-41.5	-44.8	18.3	6.06e-01	0	60	0	612368384	54	5311
2026-01-12 13:26:38.59	300.28	13.47	-41.4	-44.7	18.4	6.07e-01	0	60	0	614465536	54	5225
2026-01-12 13:26:39.60	300.49	13.42	-41.4	-44.6	18.5	6.06e-01	0	60	0	616562688	54	5188
2026-01-12 13:26:40.61	300.70	13.38	-41.4	-44.7	18.4	6.07e-01	0	60	0	618135552	54	5233
2026-01-12 13:26:41.61	300.91	13.33	-41.5	-44.9	18.3	6.07e-01	0	60	0	620232704	54	5344
2026-01-12 13:26:42.62	301.12	13.28	-41.5	-44.9	18.2	6.06e-01	0	60	0	621805568	54	5369
2026-01-12 13:26:43.63	301.33	13.23	-41.6	-44.9	18.1	6.08e-01	0	60	0	623902720	54	5398
2026-01-12 13:26:44.64	301.54	13.18	-41.5	-44.9	18.3	6.07e-01	0	60	0	625999872	54	5342
2026-01-12 13:26:45.65	301.74	13.13	-41.4	-44.7	18.3	6.06e-01	0	60	0	627572736	54	5276
2026-01-12 13:26:46.66	301.95	13.08	-41.4	-44.7	18.4	6.06e-01	0	60	0	629669888	54	5233
2026-01-12 13:26:47.67	302.16	13.04	-41.4	-44.6	18.4	6.07e-01	0	60	0	631767040	54	5201
2026-01-12 13:26:48.68	302.36	12.99	-41.4	-44.7	18.4	6.06e-01	0	60	0	633339904	54	5242
2026-01-12 13:26:49.69	302.57	12.94	-41.5	-44.8	18.3	6.08e-01	0	60	0	635437056	54	5301
2026-01-12 13:26:50.70	302.77	12.89	-41.4	-44.7	18.4	6.06e-01	0	60	0	637009920	54	5258
2026-01-12 13:26:51.70	302.97	12.84	-41.4	-44.7	18.4	6.06e-01	0	60	0	639107072	54	5232
2026-01-12 13:26:52.71	303.17	12.79	-41.4	-44.6	18.5	6.08e-01	0	60	0	641204224	54	5174
2026-01-12 13:26:53.73	303.38	12.73	-41.3	-44.5	18.6	6.08e-01	0	60	0	642777088	54	5149
2026-01-12 13:26:54.74	303.58	12.68	-41.5	-44.7	18.4	6.06e-01	0	60	0	644874240	54	5279
2026-01-12 13:26:55.74	303.78	12.63	-41.5	-44.9	18.3	6.08e-01	0	60	0	646971392	54	5345
2026-01-12 13:26:56.76	303.98	12.58	-41.5	-44.9	18.2	6.07e-01	0	60	0	648544256	54	5376
2026-01-12 13:26:57.76	304.18	12.53	-41.5	-44.8	18.3	6.06e-01	0	60	0	650641408	54	5312
2026-01-12 13:26:58.78	304.38	12.48	-41.5	-44.9	18.2	6.06e-01	0	60	0	652214272	54	5351
2026-01-12 13:26:59.78	304.57	12.43	-41.4	-44.7	18.4	6.06e-01	0	60	0	654311424	54	5274
2026-01-12 13:27:00.79	304.77	12.38	-41.4	-44.7	18.4	6.05e-01	0	60	0	656408576	54	5272
2026-01-12 13:27:01.80	304.96	12.32	-41.5	-44.8	18.3	6.08e-01	0	60	0	657981440	54	5295
2026-01-12 13:27:02.81	305.16	12.27	-41.4	-44.8	18.3	6.07e-01	0	60	0	660078592	54	5288
2026-01-12 13:27:03.82	305.35	12.22	-41.4	-44.7	18.3	6.07e-01	0	60	0	661651456	54	5275
2026-01-12 13:27:04.83	305.55	12.17	-41.4	-44.8	18.3	6.05e-01	0	60	0	663748608	54	5285
2026-01-12 13:27:05.84	305.74	12.11	-41.5	-44.8	18.3	6.05e-01	0	60	0	665321472	54	5300
2026-01-12 13:27:06.85	305.93	12.06	-41.5	-44.8	18.3	6.06e-01	0	60	0	667418624	54	5322
2026-01-12 13:27:07.86	306.12	12.01	-41.5	-44.9	18.2	6.07e-01	0	60	0	669515776	54	5368
2026-01-12 13:27:08.87	306.32	11.96	-41.5	-44.9	18.2	6.07e-01	0	60	0	671088640	54	5360
2026-01-12 13:27:09.88	306.51	11.90	-41.5	-45.0	18.1	6.06e-01	0	60	0	673185792	54	5409
2026-01-12 13:27:10.89	306.69	11.85	-41.5	-44.9	18.1	6.03e-01	0	60	0	675282944	54	5401
2026-01-12 13:27:11.90	306.88	11.80	-41.5	-45.0	18.1	6.08e-01	0	60	0	676855808	54	5408
2026-01-12 13:27:12.91	307.07	11.74	-41.5	-45.0	18.1	6.07e-01	0	60	0	678952960	54	5407
2026-01-12 13:27:13.92	307.26	11.69	-41.4	-44.8	18.2	6.07e-01	0	60	0	680525824	54	5305
2026-01-12 13:27:14.93	307.45	11.63	-41.5	-45.0	18.1	6.07e-01	0	60	0	682622976	54	5406
2026-01-12 13:27:15.94	307.63	11.58	-41.5	-44.9	18.1	6.07e-01	0	60	0	684720128	54	5387
2026-01-12 13:27:16.95	307.82	11.53	-41.5	-44.9	18.2	6.07e-01	0	60	0	686292992	54	5355
2026-01-12 13:27:17.96	308.00	11.47	-41.4	-44.8	18.3	6.07e-01	0	60	0	688390144	54	5295
2026-01-12 13:27:18.97	308.18	11.42	-41.5	-44.9	18.1	6.07e-01	0	60	0	689963008	54	5392
2026-01-12 13:27:19.98	308.37	11.36	-41.5	-44.9	18.1	6.07e-01	0	60	0	692060160	54	5391
2026-01-12 13:27:20.99	308.55	11.31	-41.6	-45.0	18.1	6.06e-01	0	59	0	694157312	54	5415
2026-01-12 13:27:22.00	308.73	11.25	-41.6	-45.1	17.9	6.04e-01	0	60	0	695730176	54	5490
2026-01-12 13:27:23.01	308.91	11.20	-41.6	-45.2	17.9	6.08e-01	0	60	0	697827328	54	5531
2026-01-12 13:27:24.02	309.09	11.14	-41.6	-45.1	17.9	6.06e-01	0	60	0	699924480	54	5492
2026-01-12 13:27:25.02	309.27	11.09	-41.7	-45.2	17.8	6.06e-01	0	60	0	701497344	54	5566
2026-01-12 13:27:26.03	309.45	11.03	-41.7	-45.2	17.8	6.06e-01	0	60	0	703594496	54	5578
2026-01-12 13:27:27.04	309.63	10.98	-41.7	-45.3	17.7	6.07e-01	0	60	0	705167360	54	5615
2026-01-12 13:27:28.05	309.80	10.92	-41.6	-45.2	17.8	6.06e-01	0	60	0	707264512	54	5533
2026-01-12 13:27:29.06	309.98	10.87	-41.6	-45.1	17.9	6.07e-01	0	60	0	709361664	54	5469
2026-01-12 13:27:30.07	310.16	10.81	-41.6	-45.1	17.9	6.05e-01	0	60	0	710934528	54	5483
2026-01-12 13:27:31.08	310.33	10.76	-41.6	-45.2	17.8	6.06e-01	0	60	0	713031680	54	5550
2026-01-12 13:27:32.09	310.51	10.70	-41.7	-45.3	17.6	6.07e-01	0	60	0	714604544	54	5637
2026-01-12 13:27:33.10	310.68	10.65	-41.7	-45.3	17.6	6.06e-01	0	60	0	716701696	54	5634
2026-01-12 13:27:34.11	310.85	10.59	-41.7	-45.3	17.7	6.08e-01	0	60	0	718798848	54	5593
2026-01-12 13:27:35.12	311.02	10.53	-41.7	-45.3	17.7	6.08e-01	0	60	0	720371712	54	5623
2026-01-12 13:27:36.13	311.20	10.48	-41.7	-45.3	17.7	6.05e-01	0	60	0	722468864	54	5597
2026-01-12 13:27:37.14	311.37	10.42	-41.8	-45.5	17.5	6.08e-01	0	60	0	724041728	54	5745
2026-01-12 13:27:38.15	311.54	10.37	-41.7	-45.3	17.6	6.06e-01	0	60	0	726138880	54	5648
2026-01-12 13:27:39.16	311.71	10.31	-41.7	-45.2	17.7	6.07e-01	0	60	0	728236032	54	5588
2026-01-12 13:27:40.17	311.88	10.25	-41.7	-45.3	17.7	6.05e-01	0	60	0	729808896	54	5594
2026-01-12 13:27:41.18	312.04	10.20	-41.7	-45.2	17.7	6.06e-01	0	60	0	731906048	54	5588
2026-01-12 13:27:42.19	312.21	10.14	-41.7	-45.3	17.6	6.03e-01	0	60	0	733478912	54	5619
2026-01-12 13:27:43.19	312.38	10.09	-41.7	-45.3	17.6	6.09e-01	0	60	0	735576064	54	5636
2026-01-12 13:27:44.20	312.54	10.03	-41.7	-45.4	17.6	6.09e-01	0	60	0	737673216	54	5678
2026-01-12 13:27:45.21	312.71	9.97	-41.7	-45.3	17.6	6.07e-01	0	60	0	739246080	54	5640
2026-01-12 13:27:46.22	312.87	9.92	-41.8	-45.6	17.2	6.05e-01	0	60	0	741343232	54	5848
2026-01-12 13:27:47.23	313.04	9.86	-41.7	-45.3	17.5	6.05e-01	0	60	0	743440384	54	5656
2026-01-12 13:27:48.24	313.20	9.80	-41.7	-45.4	17.5	6.05e-01	0	60	0	745013248	54	5694
2026-01-12 13:27:49.25	313.36	9.75	-41.7	-45.3	17.6	6.07e-01	0	60	0	747110400	54	5611
2026-01-12 13:27:50.26	313.53	9.69	-41.7	-45.4	17.5	6.07e-01	0	60	0	748683264	54	5671
2026-01-12 13:27:51.27	313.69	9.63	-41.7	-45.4	17.5	6.05e-01	0	60	0	750780416	54	5697
2026-01-12 13:27:52.28	313.85	9.58	-41.8	-45.5	17.4	6.08e-01	0	60	0	752877568	54	5728
2026-01-12 13:27:53.29	314.01	9.52	-41.7	-45.4	17.4	6.06e-01	0	60	0	754450432	54	5703
2026-01-12 13:27:54.30	314.17	9.46	-41.8	-45.6	17.2	6.06e-01	0	60	0	756547584	54	5801
2026-01-12 13:27:55.30	314.33	9.41	-41.8	-45.6	17.3	6.08e-01	0	60	0	758120448	54	5806
2026-01-12 13:27:56.31	314.48	9.35	-41.8	-45.7	17.2	6.05e-01	0	60	0	760217600	54	5877
2026-01-12 13:27:57.32	314.64	9.29	-41.8	-45.7	17.2	6.06e-01	0	60	0	762314752	54	5869
2026-01-12 13:27:58.33	314.80	9.24	-41.8	-45.6	17.3	6.08e-01	0	60	0	763887616	54	5796
2026-01-12 13:27:59.34	314.95	9.18	-41.9	-45.7	17.1	6.07e-01	0	60	0	765984768	54	5895
2026-01-12 13:28:00.35	315.11	9.12	-41.8	-45.6	17.1	6.08e-01	0	60	0	768081920	54	5849
2026-01-12 13:28:01.36	315.27	9.06	-41.8	-45.6	17.2	6.04e-01	0	60	0	769654784	54	5807
2026-01-12 13:28:02.37	315.42	9.01	-41.8	-45.6	17.1	6.06e-01	0	60	0	771751936	54	5853
2026-01-12 13:28:03.38	315.57	8.95	-41.8	-45.6	17.2	6.08e-01	0	60	0	773324800	54	5834
2026-01-12 13:28:04.39	315.73	8.89	-41.8	-45.5	17.2	6.07e-01	0	60	0	775421952	54	5776
2026-01-12 13:28:05.40	315.88	8.84	-41.8	-45.6	17.2	6.07e-01	0	60	0	777519104	54	5814
2026-01-12 13:28:06.41	316.03	8.78	-41.8	-45.6	16.9	6.06e-01	0	60	0	779091968	54	5809
2026-01-12 13:28:07.42	316.18	8.72	-41.8	-45.7	17.1	6.06e-01	0	60	0	781189120	54	5900
2026-01-12 13:28:08.42	316.33	8.67	-41.8	-45.5	17.2	6.07e-01	0	60	0	782761984	54	5782
2026-01-12 13:28:09.43	316.48	8.61	-41.7	-45.5	17.3	6.06e-01	0	60	0	784859136	54	5729
2026-01-12 13:28:10.44	316.63	8.55	-41.8	-45.6	17.2	6.08e-01	0	60	0	786432000	54	5811
2026-01-12 13:28:11.45	316.78	8.49	-41.8	-45.6	17.1	6.06e-01	0	60	0	788529152	54	5851
2026-01-12 13:28:12.46	316.93	8.44	-41.9	-45.8	16.9	6.06e-01	0	60	0	790626304	54	5957
2026-01-12 13:28:13.47	317.07	8.38	-41.9	-45.9	16.8	6.07e-01	0	60	0	792199168	54	6048
2026-01-12 13:28:14.48	317.22	8.32	-41.9	-45.9	16.9	6.07e-01	0	60	0	794296320	54	6011
2026-01-12 13:28:15.49	317.37	8.26	-41.9	-46.0	16.8	6.07e-01	0	60	0	796393472	54	6063
2026-01-12 13:28:16.50	317.51	8.21	-41.9	-46.0	16.8	6.04e-01	0	60	0	797966336	54	6070
2026-01-12 13:28:17.51	317.66	8.15	-41.9	-45.9	16.8	6.08e-01	0	60	0	800063488	54	6012
2026-01-12 13:28:18.52	317.80	8.09	-41.9	-46.0	16.7	6.06e-01	0	59	0	801636352	54	6090
2026-01-12 13:28:19.53	317.95	8.04	-41.9	-46.0	16.7	6.05e-01	0	60	0	803733504	54	6084
2026-01-12 13:28:20.54	318.09	7.98	-44.3	-52.7	12.1	6.14e-01	0	60	0	805830656	58	10434
2026-01-12 13:28:21.55	318.23	7.92	-45.2	-62.8	3.9	7.42e-01	0	60	104	805830656	60	30004
2026-01-12 13:28:22.56	318.38	7.86	-45.5	-64.0	3.8	7.44e-01	0	60	104	805830656	61	32521
2026-01-12 13:28:23.57	318.52	7.81	-45.7	-64.4	3.8	7.47e-01	0	60	104	805830656	61	33872
2026-01-12 13:28:24.58	318.66	7.75	-45.9	-64.6	3.8	7.45e-01	0	60	104	805830656	62	32691
2026-01-12 13:28:25.59	318.80	7.69	-46.0	-64.7	3.8	7.42e-01	0	60	104	805830656	62	33099
2026-01-12 13:28:26.60	318.94	7.63	-46.0	-64.8	3.8	7.47e-01	0	60	104	805830656	62	33474
2026-01-12 13:28:27.61	319.08	7.58	-46.1	-64.8	3.8	7.46e-01	0	60	104	805830656	62	33692
2026-01-12 13:28:28.63	319.22	7.52	-46.1	-64.9	3.8	7.42e-01	0	60	104	805830656	62	33799
2026-01-12 13:28:29.64	319.36	7.46	-46.1	-64.9	3.8	7.45e-01	0	60	104	805830656	62	33697
2026-01-12 13:28:30.65	319.49	7.41	-46.0	-64.8	3.8	7.45e-01	0	60	104	805830656	62	33613
2026-01-12 13:28:31.66	319.63	7.35	-46.0	-64.8	3.8	7.45e-01	0	60	104	805830656	62	33499
2026-01-12 13:28:32.67	319.77	7.29	-46.0	-64.8	3.8	7.45e-01	0	60	104	805830656	62	33497
2026-01-12 13:28:33.68	319.90	7.23	-46.0	-64.8	3.8	7.46e-01	0	60	104	805830656	62	33515
2026-01-12 13:28:34.69	320.04	7.18	-46.0	-64.8	3.8	7.46e-01	0	60	104	805830656	62	33466
2026-01-12 13:28:35.70	320.17	7.12	-46.0	-64.8	3.8	7.49e-01	0	60	104	805830656	62	33410
2026-01-12 13:28:36.71	320.31	7.06	-46.0	-64.8	3.8	7.44e-01	0	60	104	805830656	62	33384
2026-01-12 13:28:37.72	320.44	7.01	-46.0	-64.8	3.8	7.45e-01	0	60	104	805830656	62	33318
2026-01-12 13:28:38.73	320.57	6.95	-46.0	-64.7	3.8	7.45e-01	0	60	104	805830656	62	33297
2026-01-12 13:28:39.74	320.71	6.89	-46.0	-64.8	3.8	7.47e-01	0	60	104	805830656	62	33365
2026-01-12 13:28:40.75	320.84	6.83	-46.0	-64.8	3.8	7.46e-01	0	60	104	805830656	62	33378
2026-01-12 13:28:41.76	320.97	6.78	-46.0	-64.7	3.8	7.47e-01	0	60	104	805830656	62	33298
2026-01-12 13:28:42.78	321.10	6.72	-45.9	-64.8	3.8	7.47e-01	0	60	104	805830656	62	33382
2026-01-12 13:28:43.79	321.23	6.66	-46.0	-64.8	3.8	7.43e-01	0	60	104	805830656	62	33364
2026-01-12 13:28:44.80	321.36	6.61	-46.0	-64.7	3.8	7.43e-01	0	60	104	805830656	62	33278
2026-01-12 13:28:45.81	321.49	6.55	-46.0	-64.8	3.8	7.43e-01	0	60	104	805830656	62	33374
2026-01-12 13:28:46.82	321.62	6.49	-46.0	-64.8	3.8	7.48e-01	0	60	104	805830656	62	33363
2026-01-12 13:28:47.83	321.75	6.44	-46.0	-64.8	3.8	7.46e-01	0	60	104	805830656	62	33320
2026-01-12 13:28:48.84	321.87	6.38	-46.0	-64.7	3.8	7.46e-01	0	60	104	805830656	62	33302
2026-01-12 13:28:49.85	322.00	6.32	-46.0	-64.7	3.8	7.44e-01	0	60	104	805830656	62	33303
2026-01-12 13:28:50.86	322.13	6.27	-46.0	-64.7	3.8	7.48e-01	0	60	104	805830656	62	33290
2026-01-12 13:28:51.87	322.25	6.21	-46.0	-64.7	3.8	7.45e-01	0	60	104	805830656	62	33309
2026-01-12 13:28:52.88	322.38	6.15	-46.0	-64.8	3.8	7.48e-01	0	60	104	805830656	62	33380
2026-01-12 13:28:53.90	322.51	6.09	-46.0	-64.8	3.8	7.43e-01	0	60	104	805830656	62	33383
2026-01-12 13:28:54.91	322.63	6.04	-46.0	-64.8	3.8	7.45e-01	0	60	104	805830656	62	33326
2026-01-12 13:28:55.92	322.76	5.98	-46.0	-64.8	3.8	7.46e-01	0	60	104	805830656	62	33368
2026-01-12 13:28:56.93	322.88	5.92	-46.0	-64.8	3.8	7.44e-01	0	60	104	805830656	62	33335
2026-01-12 13:28:57.94	323.00	5.87	-45.9	-64.8	3.8	7.49e-01	0	60	104	805830656	62	33367
2026-01-12 13:28:58.95	323.12	5.81	-46.0	-64.7	3.8	7.46e-01	0	60	104	805830656	62	33300
2026-01-12 13:28:59.96	323.25	5.76	-46.0	-64.7	3.8	7.44e-01	0	60	104	805830656	62	33260
2026-01-12 13:29:00.97	323.37	5.70	-46.0	-64.7	3.8	7.43e-01	0	60	104	805830656	62	33284
2026-01-12 13:29:01.98	323.49	5.64	-46.0	-64.7	3.8	7.45e-01	0	60	104	805830656	62	33276
2026-01-12 13:29:02.99	323.61	5.59	-46.0	-64.7	3.8	7.47e-01	0	60	104	805830656	62	33290
2026-01-12 13:29:04.01	323.73	5.53	-46.0	-64.7	3.8	7.45e-01	0	60	104	805830656	62	33232
2026-01-12 13:29:05.02	323.85	5.47	-46.0	-64.7	3.8	7.45e-01	0	60	104	805830656	62	33248
2026-01-12 13:29:06.03	323.97	5.42	-45.9	-64.7	3.8	7.45e-01	0	60	104	805830656	62	33264
2026-01-12 13:29:07.04	324.09	5.36	-46.0	-64.7	3.8	7.45e-01	0	60	104	805830656	62	33202
2026-01-12 13:29:08.05	324.21	5.30	-45.9	-64.7	3.8	7.45e-01	0	60	104	805830656	62	33215
2026-01-12 13:29:09.06	324.32	5.25	-45.9	-64.7	3.8	7.46e-01	0	60	104	805830656	62	33251
2026-01-12 13:29:10.07	324.44	5.19	-45.9	-64.7	3.8	7.45e-01	0	60	104	805830656	62	33180
2026-01-12 13:29:11.08	324.56	5.14	-45.9	-64.7	3.8	7.47e-01	0	60	104	805830656	62	33253
2026-01-12 13:29:12.09	324.67	5.08	-46.0	-64.7	3.8	7.44e-01	0	60	104	805830656	62	33256
2026-01-12 13:29:13.10	324.79	5.02	-46.0	-64.7	3.8	7.48e-01	0	60	104	805830656	62	33242
2026-01-12 13:29:14.12	324.91	4.97	-45.9	-64.7	3.8	7.44e-01	0	60	104	805830656	62	33209
2026-01-12 13:29:15.13	325.02	4.91	-45.9	-64.7	3.8	7.46e-01	0	60	104	805830656	62	33272
2026-01-12 13:29:16.14	325.14	4.86	-46.0	-64.7	3.8	7.45e-01	0	60	104	805830656	62	33182
2026-01-12 13:29:17.15	325.25	4.80	-45.9	-64.7	3.8	7.44e-01	0	60	104	805830656	62	33238
2026-01-12 13:29:18.16	325.36	4.75	-45.9	-64.7	3.8	7.46e-01	0	60	104	805830656	62	33189
2026-01-12 13:29:19.17	325.48	4.69	-45.9	-64.7	3.8	7.46e-01	0	60	104	805830656	62	33255
2026-01-12 13:29:20.18	325.59	4.63	-45.9	-64.7	3.8	7.45e-01	0	60	104	805830656	62	33244
2026-01-12 13:29:21.19	325.70	4.58	-46.0	-64.7	3.8	7.47e-01	0	60	104	805830656	62	33212
2026-01-12 13:29:22.20	325.81	4.52	-46.0	-64.7	3.8	7.47e-01	0	60	104	805830656	62	33250
2026-01-12 13:29:23.22	325.92	4.47	-45.9	-64.7	3.8	7.41e-01	0	60	104	805830656	62	33260
2026-01-12 13:29:24.23	326.04	4.41	-45.9	-64.7	3.8	7.48e-01	0	60	104	805830656	62	33197
2026-01-12 13:29:25.24	326.15	4.36	-45.9	-64.7	3.8	7.41e-01	0	60	104	805830656	62	33205
2026-01-12 13:29:26.25	326.26	4.30	-45.9	-64.7	3.8	7.46e-01	0	60	104	805830656	62	33239
2026-01-12 13:29:27.26	326.37	4.25	-45.9	-64.7	3.8	7.42e-01	0	60	104	805830656	62	33185
2026-01-12 13:29:28.27	326.47	4.19	-45.9	-64.7	3.8	7.47e-01	0	60	104	805830656	62	33213
2026-01-12 13:29:29.28	326.58	4.14	-45.9	-64.7	3.8	7.46e-01	0	60	104	805830656	62	33193
2026-01-12 13:29:30.29	326.69	4.08	-45.9	-64.7	3.8	7.45e-01	0	60	104	805830656	62	33207
2026-01-12 13:29:31.30	326.80	4.02	-45.9	-64.7	3.8	7.46e-01	0	60	104	805830656	62	33129
2026-01-12 13:29:32.31	326.91	3.97	-45.9	-64.7	3.8	7.48e-01	0	60	104	805830656	62	33202
2026-01-12 13:29:33.33	327.01	3.91	-45.9	-64.7	3.8	7.43e-01	0	60	104	805830656	62	33149
2026-01-12 13:29:34.34	327.12	3.86	-45.9	-64.7	3.8	7.44e-01	0	60	104	805830656	62	33118
2026-01-12 13:29:35.35	327.23	3.80	-45.9	-64.7	3.8	7.43e-01	0	60	104	805830656	62	33191
2026-01-12 13:29:36.36	327.33	3.75	-45.9	-64.7	3.8	7.46e-01	0	60	104	805830656	62	33131
2026-01-12 13:29:37.37	327.44	3.69	-45.9	-64.7	3.8	7.46e-01	0	60	104	805830656	62	33175
2026-01-12 13:29:38.38	327.54	3.64	-45.9	-64.7	3.8	7.46e-01	0	60	104	805830656	62	33153
2026-01-12 13:29:39.39	327.65	3.59	-45.9	-64.7	3.8	7.47e-01	0	60	104	805830656	62	33106
2026-01-12 13:29:40.40	327.75	3.53	-45.9	-64.7	3.8	7.45e-01	0	60	104	805830656	62	33132
2026-01-12 13:29:41.41	327.86	3.48	-45.9	-64.7	3.8	7.47e-01	0	60	104	805830656	62	33127
2026-01-12 13:29:42.43	327.96	3.42	-45.9	-64.7	3.8	7.44e-01	0	60	104	805830656	62	33161
2026-01-12 13:29:43.44	328.06	3.37	-45.9	-64.7	3.8	7.47e-01	0	60	104	805830656	62	33141
2026-01-12 13:29:44.45	328.16	3.31	-45.9	-64.7	3.8	7.44e-01	0	60	104	805830656	62	33107
2026-01-12 13:29:45.46	328.27	3.26	-45.9	-64.7	3.8	7.43e-01	0	60	104	805830656	62	33167
2026-01-12 13:29:46.47	328.37	3.20	-45.9	-64.7	3.8	7.47e-01	0	60	104	805830656	62	33138
2026-01-12 13:29:47.48	328.47	3.15	-45.9	-64.7	3.8	7.44e-01	0	60	104	805830656	62	33121
2026-01-12 13:29:48.49	328.57	3.10	-45.9	-64.7	3.8	7.44e-01	0	60	104	805830656	62	33134
2026-01-12 13:29:49.50	328.67	3.04	-45.9	-64.7	3.8	7.46e-01	0	60	104	805830656	62	33149
2026-01-12 13:29:50.51	328.77	2.99	-45.9	-64.7	3.8	7.46e-01	0	60	104	805830656	62	33147
2026-01-12 13:29:51.53	328.87	2.93	-45.9	-64.7	3.8	7.44e-01	0	60	104	805830656	62	33113
2026-01-12 13:29:52.54	328.97	2.88	-45.9	-64.7	3.8	7.45e-01	0	60	104	805830656	62	33078
2026-01-12 13:29:53.55	329.07	2.82	-45.9	-64.7	3.8	7.40e-01	0	60	104	805830656	62	33078
2026-01-12 13:29:54.56	329.17	2.77	-45.9	-64.7	3.8	7.47e-01	0	60	104	805830656	62	33109
2026-01-12 13:29:55.57	329.27	2.72	-45.9	-64.7	3.8	7.43e-01	0	60	104	805830656	62	33152
2026-01-12 13:29:56.58	329.36	2.66	-45.9	-64.7	3.8	7.47e-01	0	60	104	805830656	62	33073
2026-01-12 13:29:57.59	329.46	2.61	-45.9	-64.7	3.8	7.44e-01	0	60	104	805830656	62	33111
2026-01-12 13:29:58.60	329.56	2.56	-45.3	-64.7	3.9	7.45e-01	0	60	104	805830656	61	34965
2026-01-12 13:29:59.61	329.66	2.50	-45.9	-64.7	3.8	7.46e-01	0	60	104	805830656	62	33153
2026-01-12 13:30:00.62	329.75	2.45	-45.9	-64.7	3.8	7.43e-01	0	60	104	805830656	62	33112
2026-01-12 13:30:01.63	329.85	2.39	-45.9	-64.7	3.8	7.45e-01	0	60	104	805830656	62	33125
2026-01-12 13:30:02.64	329.94	2.34	-45.9	-64.7	3.8	7.45e-01	0	60	104	805830656	62	33099
2026-01-12 13:30:03.65	330.04	2.29	-45.9	-64.7	3.8	7.45e-01	0	60	104	805830656	62	33160
2026-01-12 13:30:04.67	330.13	2.23	-45.9	-64.7	3.8	7.43e-01	0	60	104	805830656	62	33110
2026-01-12 13:30:05.68	330.23	2.18	-45.9	-64.7	3.8	7.41e-01	0	60	104	805830656	62	33123
2026-01-12 13:30:06.69	330.32	2.13	-45.9	-64.7	3.8	7.43e-01	0	60	104	805830656	62	33098
2026-01-12 13:30:07.70	330.42	2.07	-45.9	-64.7	3.8	7.41e-01	0	60	104	805830656	62	33165
2026-01-12 13:30:08.71	330.51	2.02	-45.4	-64.4	3.8	7.44e-01	0	60	104	805830656	61	33804
2026-01-12 13:30:09.72	330.60	1.97	-45.9	-64.7	3.8	7.45e-01	0	60	104	805830656	62	33192
2026-01-12 13:30:10.73	330.70	1.91	-45.9	-64.7	3.8	7.43e-01	0	60	104	805830656	62	33128
2026-01-12 13:30:11.74	330.79	1.86	-45.9	-64.7	3.8	7.40e-01	0	60	104	805830656	62	33085

#Closed at: 2026-01-12 13:30:11
#Recorded file [805 MB]: D:/lorett/data/31039_260112_162036.dat