passes_logs/2026/01/12/R2.0S_Moscow/R2.0S_Moscow__20260112_002910_AQUA_rec.log

#Pass ID: 20260112_002910_AQUA
#Satellite: AQUA
#Configuration: AQUA
#almurnet v.1.7.20251203
#Start time: 2026-01-12 00:29:11

#Version: 2.2.20231116
#Station: R2.0S_Moscow
#Location: 37.707566 lon 55.798166 lat
#TLE: 1 27424U 02022A   26011.34052177  .00001139  00000+0  23789-3 0  9999
#TLE: 2 27424  98.4078 337.7066 0002035  82.6124  44.5301 14.61815662260355

#Time	Az	El	Level	Level2	SNR	BER	BlckErr	Temp	State	Recorded	gain1	gain2
2026-01-12 00:29:11.16	21.80	2.04	-42.4	-62.7	3.8	7.45e-01	0	47	0	0	56	37333
2026-01-12 00:29:12.17	21.85	2.11	-42.3	-62.6	3.8	7.46e-01	0	47	104	0	55	39007
2026-01-12 00:29:13.18	21.90	2.17	-42.3	-62.6	3.8	7.45e-01	0	47	104	0	55	39049
2026-01-12 00:29:14.20	21.95	2.23	-42.4	-62.6	3.8	7.45e-01	0	47	104	0	55	39000
2026-01-12 00:29:15.21	22.00	2.30	-42.3	-62.7	3.8	7.43e-01	0	47	104	0	55	39236
2026-01-12 00:29:16.22	22.06	2.36	-42.3	-62.6	3.8	7.45e-01	0	48	104	0	55	38983
2026-01-12 00:29:17.23	22.11	2.42	-42.3	-62.6	3.8	7.44e-01	0	47	104	0	55	39004
2026-01-12 00:29:18.24	22.16	2.49	-42.3	-62.6	3.8	7.46e-01	0	48	104	0	55	38905
2026-01-12 00:29:19.25	22.21	2.55	-42.4	-62.7	3.8	7.48e-01	0	48	104	0	55	39164
2026-01-12 00:29:20.26	22.27	2.62	-42.3	-62.7	3.8	7.44e-01	0	48	104	0	55	39139
2026-01-12 00:29:21.27	22.32	2.68	-42.4	-62.6	3.8	7.45e-01	0	48	104	0	55	38972
2026-01-12 00:29:22.29	22.37	2.75	-42.3	-62.6	3.8	7.46e-01	0	48	104	0	55	39034
2026-01-12 00:29:23.30	22.43	2.81	-42.3	-62.6	3.8	7.45e-01	0	48	104	0	55	39112
2026-01-12 00:29:24.31	22.48	2.88	-42.3	-62.6	3.8	7.45e-01	0	48	104	0	55	39101
2026-01-12 00:29:25.32	22.54	2.94	-42.3	-62.6	3.8	7.41e-01	0	48	104	0	55	39047
2026-01-12 00:29:26.33	22.59	3.01	-42.3	-62.6	3.8	7.45e-01	0	48	104	0	55	38978
2026-01-12 00:29:27.34	22.65	3.07	-42.3	-62.6	3.8	7.43e-01	0	48	104	0	55	39014
2026-01-12 00:29:28.35	22.70	3.14	-42.3	-62.7	3.8	7.45e-01	0	48	104	0	55	39167
2026-01-12 00:29:29.36	22.76	3.20	-42.3	-62.7	3.8	7.43e-01	0	48	104	0	55	39186
2026-01-12 00:29:30.37	22.81	3.27	-42.3	-62.7	3.8	7.45e-01	0	48	104	0	55	39161
2026-01-12 00:29:31.38	22.87	3.33	-42.4	-62.7	3.8	7.41e-01	0	48	104	0	55	39245
2026-01-12 00:29:32.40	22.92	3.40	-42.3	-62.7	3.8	7.44e-01	0	49	104	0	55	39201
2026-01-12 00:29:33.40	22.98	3.47	-42.3	-62.7	3.8	7.46e-01	0	49	104	0	55	39207
2026-01-12 00:29:34.42	23.04	3.53	-42.3	-62.7	3.8	7.44e-01	0	49	104	0	55	39163
2026-01-12 00:29:35.43	23.09	3.60	-42.3	-62.7	3.8	7.44e-01	0	49	104	0	55	39142
2026-01-12 00:29:36.44	23.15	3.67	-42.3	-62.6	3.8	7.44e-01	0	49	104	0	55	39128
2026-01-12 00:29:37.45	23.21	3.73	-42.3	-62.6	3.8	7.48e-01	0	49	104	0	55	39115
2026-01-12 00:29:38.46	23.26	3.80	-42.3	-62.6	3.8	7.44e-01	0	49	104	0	55	39118
2026-01-12 00:29:39.47	23.32	3.87	-42.3	-62.7	3.8	7.48e-01	0	49	104	0	55	39193
2026-01-12 00:29:40.48	23.38	3.93	-42.2	-62.7	3.8	7.46e-01	0	49	104	0	55	39194
2026-01-12 00:29:41.49	23.44	4.00	-42.4	-62.7	3.8	7.45e-01	0	49	104	0	55	39160
2026-01-12 00:29:42.50	23.50	4.07	-42.3	-62.7	3.8	7.42e-01	0	49	104	0	55	39142
2026-01-12 00:29:43.51	23.56	4.14	-42.3	-62.6	3.8	7.46e-01	0	49	104	0	55	39104
2026-01-12 00:29:44.52	23.62	4.21	-42.3	-62.7	3.8	7.44e-01	0	49	104	0	55	39166
2026-01-12 00:29:45.53	23.67	4.27	-42.3	-62.6	3.8	7.48e-01	0	49	104	0	55	39109
2026-01-12 00:29:46.54	23.73	4.34	-42.3	-62.6	3.8	7.46e-01	0	49	104	0	55	39135
2026-01-12 00:29:47.56	23.79	4.41	-42.3	-62.7	3.8	7.45e-01	0	50	104	0	55	39173
2026-01-12 00:29:48.57	23.86	4.48	-42.3	-62.7	3.8	7.44e-01	0	50	104	0	55	39178
2026-01-12 00:29:49.58	23.92	4.55	-42.3	-62.6	3.8	7.47e-01	0	50	104	0	55	39132
2026-01-12 00:29:50.59	23.98	4.62	-42.3	-62.7	3.8	7.46e-01	0	50	104	0	55	39157
2026-01-12 00:29:51.60	24.04	4.69	-42.3	-62.7	3.8	7.46e-01	0	50	104	0	55	39191
2026-01-12 00:29:52.61	24.10	4.76	-42.3	-62.7	3.8	7.43e-01	0	50	104	0	55	39193
2026-01-12 00:29:53.62	24.16	4.83	-42.3	-62.6	3.8	7.46e-01	0	50	104	0	55	39095
2026-01-12 00:29:54.63	24.22	4.90	-42.3	-62.6	3.8	7.48e-01	0	50	104	0	55	39065
2026-01-12 00:29:55.64	24.29	4.97	-42.3	-62.7	3.8	7.49e-01	0	50	104	0	55	39240
2026-01-12 00:29:56.65	24.35	5.04	-42.3	-62.6	3.8	7.45e-01	0	50	104	0	55	38962
2026-01-12 00:29:57.66	24.41	5.11	-42.4	-62.6	3.8	7.45e-01	0	50	104	0	55	39058
2026-01-12 00:29:58.68	24.47	5.18	-42.3	-62.6	3.8	7.43e-01	0	50	104	0	55	39132
2026-01-12 00:29:59.69	24.54	5.25	-42.2	-62.6	3.8	7.47e-01	0	50	104	0	55	38942
2026-01-12 00:30:00.70	24.60	5.32	-42.3	-62.6	3.8	7.46e-01	0	50	104	0	55	39019
2026-01-12 00:30:01.71	24.67	5.39	-42.3	-62.6	3.8	7.48e-01	0	50	104	0	55	38996
2026-01-12 00:30:02.72	24.73	5.46	-42.3	-62.6	3.8	7.42e-01	0	50	104	0	55	39058
2026-01-12 00:30:03.73	24.80	5.53	-42.3	-62.7	3.8	7.46e-01	0	51	104	0	55	39144
2026-01-12 00:30:04.74	24.86	5.61	-42.3	-62.6	3.8	7.46e-01	0	50	104	0	55	39041
2026-01-12 00:30:05.75	24.93	5.68	-42.3	-62.6	3.8	7.48e-01	0	50	104	0	55	39055
2026-01-12 00:30:06.76	24.99	5.75	-42.3	-62.7	3.8	7.47e-01	0	51	104	0	55	39152
2026-01-12 00:30:07.78	25.06	5.82	-42.3	-62.6	3.8	7.47e-01	0	50	104	0	55	38909
2026-01-12 00:30:08.79	25.13	5.89	-42.3	-62.6	3.8	7.47e-01	0	50	104	0	55	39024
2026-01-12 00:30:09.80	25.19	5.97	-42.3	-62.6	3.8	7.46e-01	0	51	104	0	55	38969
2026-01-12 00:30:10.81	25.26	6.04	-42.3	-62.7	3.8	7.46e-01	0	51	104	0	55	39157
2026-01-12 00:30:11.82	25.33	6.11	-42.3	-62.7	3.8	7.45e-01	0	51	104	0	55	39177
2026-01-12 00:30:12.83	25.39	6.19	-42.3	-62.7	3.8	7.48e-01	0	51	104	0	55	39144
2026-01-12 00:30:13.84	25.46	6.26	-42.3	-62.6	3.8	7.46e-01	0	51	104	0	55	39123
2026-01-12 00:30:14.85	25.53	6.33	-42.3	-62.6	3.8	7.46e-01	0	51	104	0	55	38778
2026-01-12 00:30:15.86	25.60	6.41	-42.4	-62.6	3.8	7.45e-01	0	51	104	0	55	39099
2026-01-12 00:30:16.87	25.67	6.48	-42.3	-62.6	3.8	7.45e-01	0	51	104	0	55	39058
2026-01-12 00:30:17.89	25.74	6.56	-42.3	-62.6	3.8	7.45e-01	0	51	104	0	55	38953
2026-01-12 00:30:18.90	25.81	6.63	-42.3	-62.6	3.8	7.44e-01	0	51	104	0	55	38978
2026-01-12 00:30:19.91	25.88	6.70	-42.3	-62.6	3.8	7.48e-01	0	51	104	0	55	39096
2026-01-12 00:30:20.92	25.95	6.78	-42.4	-62.6	3.8	7.48e-01	0	51	104	0	55	38931
2026-01-12 00:30:21.93	26.02	6.85	-42.3	-62.3	3.8	7.48e-01	0	51	104	0	55	37620
2026-01-12 00:30:22.94	26.09	6.93	-42.3	-62.0	3.8	7.43e-01	0	51	104	0	55	36301
2026-01-12 00:30:23.95	26.17	7.01	-42.3	-61.4	3.8	7.45e-01	0	51	104	0	55	34024
2026-01-12 00:30:24.96	26.24	7.08	-42.2	-60.3	3.9	7.44e-01	0	51	104	0	55	29971
2026-01-12 00:30:25.97	26.31	7.16	-42.2	-59.5	3.9	7.42e-01	0	51	104	0	55	27263
2026-01-12 00:30:26.98	26.38	7.23	-42.2	-57.8	4.6	7.19e-01	0	51	104	0	55	22471
2026-01-12 00:30:28.00	26.46	7.31	-42.2	-56.0	5.7	6.92e-01	0	52	0	0	55	18213
2026-01-12 00:30:29.00	26.53	7.39	-42.0	-54.5	6.8	6.65e-01	91	52	0	1572864	55	15324
2026-01-12 00:30:30.02	26.60	7.46	-41.8	-52.6	8.7	6.36e-01	5	52	0	3670016	55	12299
2026-01-12 00:30:31.03	26.68	7.54	-41.6	-50.5	10.9	6.17e-01	0	52	0	5242880	55	9714
2026-01-12 00:30:32.04	26.75	7.62	-41.2	-48.5	13.0	6.06e-01	0	52	0	7340032	54	8122
2026-01-12 00:30:33.05	26.83	7.70	-40.6	-46.5	15.1	6.03e-01	0	52	0	8912896	53	6821
2026-01-12 00:30:34.06	26.91	7.77	-40.1	-45.1	16.6	6.05e-01	0	52	0	11010048	52	6154
2026-01-12 00:30:35.07	26.98	7.85	-39.8	-44.1	17.5	6.04e-01	0	52	0	13107200	51	5842
2026-01-12 00:30:36.08	27.06	7.93	-39.5	-43.6	18.1	6.04e-01	0	52	0	14680064	51	5494
2026-01-12 00:30:37.09	27.14	8.01	-39.4	-43.4	18.3	6.02e-01	0	52	0	16777216	50	5712
2026-01-12 00:30:38.10	27.21	8.09	-43.4	-52.3	9.6	6.22e-01	0	52	0	18350080	57	10644
2026-01-12 00:30:39.11	27.29	8.17	-41.1	-60.9	3.7	7.44e-01	0	52	104	19922944	53	36076
2026-01-12 00:30:40.12	27.37	8.25	-42.0	-47.7	14.3	6.05e-01	0	52	0	20971520	54	7421
2026-01-12 00:30:41.13	27.45	8.32	-42.2	-48.0	13.7	6.03e-01	0	52	0	22544384	55	7280
2026-01-12 00:30:42.14	27.53	8.40	-41.3	-48.0	13.7	6.06e-01	0	52	0	24641536	53	8130
2026-01-12 00:30:43.15	27.61	8.48	-40.4	-44.5	17.4	6.05e-01	0	52	0	26738688	52	5778
2026-01-12 00:30:44.16	27.69	8.56	-40.6	-44.8	17.4	6.04e-01	0	52	0	28311552	52	5984
2026-01-12 00:30:45.17	27.77	8.64	-40.6	-44.7	17.5	6.04e-01	0	52	0	30408704	52	5889
2026-01-12 00:30:46.18	27.85	8.72	-40.8	-45.0	17.2	6.03e-01	0	52	0	31981568	52	6097
2026-01-12 00:30:47.19	27.93	8.81	-40.7	-44.8	17.5	6.04e-01	0	52	0	34078720	52	5976
2026-01-12 00:30:48.20	28.01	8.89	-40.6	-44.7	17.6	6.04e-01	0	52	0	36175872	52	5871
2026-01-12 00:30:49.21	28.09	8.97	-40.7	-44.8	17.6	6.01e-01	0	52	0	37748736	52	5926
2026-01-12 00:30:50.22	28.18	9.05	-40.6	-44.6	17.8	6.02e-01	0	52	0	39845888	52	5811
2026-01-12 00:30:51.23	28.26	9.13	-40.7	-44.5	17.9	6.04e-01	0	52	0	41418752	52	5786
2026-01-12 00:30:52.24	28.34	9.21	-40.7	-44.4	18.1	6.05e-01	0	52	0	43515904	52	5684
2026-01-12 00:30:53.25	28.43	9.30	-40.6	-44.1	18.5	6.03e-01	0	52	0	45613056	52	5489
2026-01-12 00:30:54.26	28.51	9.38	-40.5	-43.9	18.8	6.04e-01	0	53	0	47185920	52	5372
2026-01-12 00:30:55.27	28.60	9.46	-40.5	-43.8	18.9	6.04e-01	0	53	0	49283072	52	5300
2026-01-12 00:30:56.28	28.69	9.54	-40.4	-43.7	19.0	6.02e-01	0	52	0	51380224	52	5238
2026-01-12 00:30:57.29	28.77	9.63	-40.5	-43.8	18.9	6.03e-01	0	52	0	52953088	52	5306
2026-01-12 00:30:58.30	28.86	9.71	-40.4	-43.6	19.1	6.01e-01	0	52	0	55050240	52	5204
2026-01-12 00:30:59.31	28.95	9.80	-40.3	-43.5	19.2	6.03e-01	0	52	0	56623104	52	5103
2026-01-12 00:31:00.32	29.03	9.88	-40.2	-43.3	19.5	6.02e-01	0	53	0	58720256	52	5015
2026-01-12 00:31:01.33	29.12	9.96	-40.2	-43.2	19.5	6.03e-01	0	53	0	60817408	52	4981
2026-01-12 00:31:02.33	29.21	10.05	-40.2	-43.3	19.5	6.03e-01	0	52	0	62390272	52	5025
2026-01-12 00:31:03.34	29.30	10.13	-40.2	-43.3	19.5	6.03e-01	0	52	0	64487424	52	5014
2026-01-12 00:31:04.35	29.39	10.22	-40.2	-43.3	19.5	6.04e-01	0	53	0	66060288	52	4997
2026-01-12 00:31:05.36	29.48	10.30	-40.3	-43.3	19.6	6.04e-01	0	52	0	68157440	52	4997
2026-01-12 00:31:06.37	29.57	10.39	-40.2	-43.2	19.7	6.02e-01	0	53	0	70254592	52	4932
2026-01-12 00:31:07.38	29.66	10.48	-40.2	-43.1	19.8	6.04e-01	0	52	0	71827456	52	4888
2026-01-12 00:31:08.39	29.75	10.56	-40.1	-43.0	19.9	6.03e-01	0	53	0	73924608	52	4845
2026-01-12 00:31:09.40	29.85	10.65	-40.1	-43.0	20.0	6.05e-01	0	53	0	75497472	52	4824
2026-01-12 00:31:10.41	29.94	10.74	-40.1	-42.9	20.0	6.02e-01	0	53	0	77594624	52	4812
2026-01-12 00:31:11.42	30.03	10.82	-40.1	-42.9	20.1	6.05e-01	0	53	0	79691776	52	4780
2026-01-12 00:31:12.42	30.13	10.91	-40.1	-42.8	20.1	6.01e-01	0	53	0	81264640	52	4737
2026-01-12 00:31:13.44	30.22	11.00	-40.0	-42.8	20.2	6.04e-01	0	53	0	83361792	52	4723
2026-01-12 00:31:14.45	30.32	11.09	-40.1	-42.8	20.2	6.04e-01	0	53	0	84934656	52	4726
2026-01-12 00:31:15.45	30.41	11.17	-40.1	-42.8	20.2	6.05e-01	0	53	0	87031808	52	4724
2026-01-12 00:31:16.46	30.51	11.26	-40.1	-42.8	20.2	6.05e-01	0	53	0	89128960	52	4752
2026-01-12 00:31:17.47	30.61	11.35	-40.2	-42.9	20.2	6.01e-01	0	53	0	90701824	52	4794
2026-01-12 00:31:18.48	30.71	11.44	-40.2	-42.9	20.1	6.03e-01	0	53	0	92798976	52	4792
2026-01-12 00:31:19.49	30.81	11.53	-40.2	-42.9	20.2	6.04e-01	0	53	0	94896128	52	4769
2026-01-12 00:31:20.50	30.91	11.62	-40.2	-42.9	20.2	6.03e-01	0	53	0	96468992	52	4780
2026-01-12 00:31:21.51	31.01	11.71	-40.1	-42.8	20.3	6.04e-01	0	53	0	98566144	52	4750
2026-01-12 00:31:22.52	31.11	11.80	-40.1	-42.7	20.3	6.03e-01	0	53	0	100139008	52	4697
2026-01-12 00:31:23.53	31.21	11.89	-40.0	-42.7	20.3	6.03e-01	0	53	0	102236160	52	4673
2026-01-12 00:31:24.54	31.31	11.98	-40.0	-42.7	20.3	6.05e-01	0	53	0	104333312	52	4657
2026-01-12 00:31:25.55	31.41	12.07	-40.0	-42.7	20.4	6.02e-01	0	53	0	105906176	51	4932
2026-01-12 00:31:26.56	31.51	12.16	-40.0	-42.5	20.6	6.03e-01	0	53	0	108003328	51	4869
2026-01-12 00:31:27.57	31.62	12.26	-40.0	-42.5	20.7	6.04e-01	0	53	0	109576192	51	4865
2026-01-12 00:31:28.58	31.72	12.35	-40.0	-42.5	20.6	6.04e-01	0	53	0	111673344	51	4866
2026-01-12 00:31:29.59	31.83	12.44	-39.9	-42.5	20.6	6.07e-01	0	53	0	113770496	51	4817
2026-01-12 00:31:30.60	31.93	12.53	-39.9	-42.5	20.5	6.05e-01	0	53	0	115343360	51	4839
2026-01-12 00:31:31.61	32.04	12.63	-39.9	-42.5	20.1	6.04e-01	0	53	0	117440512	51	4839
2026-01-12 00:31:32.62	32.15	12.72	-39.7	-42.5	19.3	6.03e-01	0	53	0	119537664	51	4835
2026-01-12 00:31:33.63	32.25	12.81	-39.4	-42.5	18.5	6.04e-01	0	53	0	121110528	50	5115
2026-01-12 00:31:34.64	32.36	12.91	-39.3	-42.5	18.2	6.02e-01	0	53	0	123207680	50	5150
2026-01-12 00:31:35.65	32.47	13.00	-39.4	-42.5	18.7	6.05e-01	0	53	0	124780544	50	5137
2026-01-12 00:31:36.66	32.58	13.10	-39.7	-42.5	19.4	6.03e-01	0	53	0	126877696	50	5151
2026-01-12 00:31:37.67	32.69	13.19	-39.7	-42.5	19.7	6.02e-01	0	53	0	128974848	50	5122
2026-01-12 00:31:38.67	32.80	13.29	-39.7	-42.4	19.6	6.01e-01	0	53	0	130547712	50	5095
2026-01-12 00:31:39.68	32.92	13.38	-39.6	-42.4	19.5	6.04e-01	0	53	0	132644864	50	5082
2026-01-12 00:31:40.69	33.03	13.48	-39.4	-42.4	18.9	6.04e-01	0	53	0	134217728	50	5062
2026-01-12 00:31:41.70	33.14	13.58	-39.1	-42.4	17.8	6.03e-01	0	54	0	136314880	50	5051
2026-01-12 00:31:42.71	33.26	13.67	-38.4	-42.3	16.2	6.04e-01	0	53	0	138412032	48	5599
2026-01-12 00:31:43.72	33.37	13.77	-38.1	-42.3	15.6	6.05e-01	0	54	0	139984896	48	5607
2026-01-12 00:31:44.73	33.49	13.87	-38.2	-42.2	16.2	6.02e-01	0	53	0	142082048	48	5585
2026-01-12 00:31:45.74	33.61	13.96	-38.8	-42.3	18.0	6.04e-01	0	54	0	143654912	48	5604
2026-01-12 00:31:46.75	33.72	14.06	-39.6	-42.3	20.5	6.04e-01	0	53	0	145752064	49	5321
2026-01-12 00:31:47.76	33.84	14.16	-39.9	-42.3	20.9	6.02e-01	0	54	0	147849216	50	5022
2026-01-12 00:31:48.77	33.96	14.26	-39.7	-42.3	20.1	6.04e-01	0	54	0	149422080	50	5031
2026-01-12 00:31:49.78	34.08	14.36	-39.6	-42.3	20.0	6.02e-01	0	53	0	151519232	50	4998
2026-01-12 00:31:50.79	34.20	14.46	-39.6	-42.2	20.3	6.01e-01	0	53	0	153092096	50	4966
2026-01-12 00:31:51.80	34.32	14.56	-39.7	-42.2	20.9	6.04e-01	0	54	0	155189248	50	4938
2026-01-12 00:31:52.81	34.45	14.66	-39.7	-42.1	21.3	6.04e-01	0	53	0	157286400	50	4890
2026-01-12 00:31:53.82	34.57	14.76	-39.7	-42.1	20.8	6.04e-01	0	54	0	158859264	50	4899
2026-01-12 00:31:54.83	34.69	14.86	-39.7	-42.1	20.6	6.06e-01	0	54	0	160956416	50	4912
2026-01-12 00:31:55.84	34.82	14.96	-39.7	-42.1	20.8	6.04e-01	0	54	0	163053568	50	4908
2026-01-12 00:31:56.85	34.95	15.06	-39.7	-42.1	21.2	6.02e-01	0	54	0	164626432	50	4884
2026-01-12 00:31:57.86	35.07	15.16	-39.8	-42.2	21.2	6.04e-01	0	54	0	166723584	50	4935
2026-01-12 00:31:58.87	35.20	15.27	-39.8	-42.2	21.2	6.03e-01	0	54	0	168296448	50	4948
2026-01-12 00:31:59.88	35.33	15.37	-39.8	-42.1	21.3	6.03e-01	0	54	0	170393600	50	4925
2026-01-12 00:32:00.89	35.46	15.47	-39.8	-42.1	21.3	6.03e-01	0	54	0	172490752	50	4904
2026-01-12 00:32:01.90	35.59	15.58	-39.7	-42.1	21.4	6.04e-01	0	54	0	174063616	50	4878
2026-01-12 00:32:02.91	35.72	15.68	-39.8	-42.1	21.3	6.04e-01	0	54	0	176160768	50	4904
2026-01-12 00:32:03.92	35.85	15.78	-39.8	-42.2	21.1	6.05e-01	0	54	0	177733632	50	4939
2026-01-12 00:32:04.92	35.99	15.89	-39.8	-42.1	21.2	6.05e-01	0	54	0	179830784	50	4920
2026-01-12 00:32:05.93	36.12	15.99	-39.8	-42.2	21.3	6.06e-01	0	54	0	181927936	50	4934
2026-01-12 00:32:06.94	36.26	16.10	-39.8	-42.1	21.4	6.04e-01	0	54	0	183500800	50	4899
2026-01-12 00:32:07.95	36.39	16.20	-39.7	-42.0	21.4	6.03e-01	0	54	0	185597952	50	4866
2026-01-12 00:32:08.96	36.53	16.31	-39.7	-42.0	21.5	6.04e-01	0	54	0	187695104	50	4844
2026-01-12 00:32:09.97	36.67	16.41	-39.7	-42.0	21.5	6.02e-01	0	54	0	189267968	50	4837
2026-01-12 00:32:10.98	36.81	16.52	-39.7	-42.0	21.5	6.03e-01	0	54	0	191365120	50	4827
2026-01-12 00:32:11.99	36.95	16.63	-39.7	-41.9	21.6	6.03e-01	0	54	0	192937984	50	4802
2026-01-12 00:32:13.00	37.09	16.73	-39.7	-42.0	21.5	6.02e-01	0	54	0	195035136	50	4846
2026-01-12 00:32:14.01	37.23	16.84	-39.8	-42.1	21.5	6.04e-01	0	54	0	196608000	50	4878
2026-01-12 00:32:15.02	37.38	16.95	-39.8	-42.1	21.4	6.06e-01	0	54	0	198705152	50	4906
2026-01-12 00:32:16.03	37.52	17.06	-39.9	-42.2	21.3	6.02e-01	0	54	0	200802304	50	4974
2026-01-12 00:32:17.04	37.67	17.17	-39.8	-42.2	21.4	6.03e-01	0	54	0	202375168	50	4934
2026-01-12 00:32:18.04	37.81	17.28	-39.9	-42.2	21.3	6.03e-01	0	54	0	204472320	50	4964
2026-01-12 00:32:19.05	37.96	17.39	-39.8	-42.1	21.5	6.03e-01	0	54	0	206045184	50	4882
2026-01-12 00:32:20.06	38.11	17.49	-39.8	-42.0	21.5	6.03e-01	0	54	0	208142336	50	4866
2026-01-12 00:32:21.07	38.26	17.61	-39.8	-42.1	21.4	6.02e-01	0	54	0	210239488	50	4910
2026-01-12 00:32:22.08	38.41	17.72	-39.9	-42.2	21.2	6.04e-01	0	54	0	211812352	50	4928
2026-01-12 00:32:23.09	38.56	17.83	-39.9	-42.2	21.4	6.03e-01	0	54	0	213909504	50	4942
2026-01-12 00:32:24.10	38.72	17.94	-39.9	-42.2	21.4	6.03e-01	0	54	0	216006656	50	4938
2026-01-12 00:32:25.11	38.87	18.05	-39.7	-42.0	21.6	6.04e-01	0	54	0	217579520	50	4815
2026-01-12 00:32:26.12	39.03	18.16	-39.7	-42.0	21.6	6.03e-01	0	54	0	219676672	50	4838
2026-01-12 00:32:27.13	39.18	18.27	-39.7	-42.0	21.7	6.03e-01	0	54	0	221249536	50	4818
2026-01-12 00:32:28.14	39.34	18.39	-39.7	-42.0	21.6	6.05e-01	0	54	0	223346688	50	4827
2026-01-12 00:32:29.15	39.50	18.50	-39.7	-42.0	21.6	6.02e-01	0	54	0	225443840	50	4845
2026-01-12 00:32:30.16	39.66	18.61	-39.7	-42.0	21.6	6.03e-01	0	54	0	227016704	50	4824
2026-01-12 00:32:31.17	39.82	18.73	-39.7	-42.0	21.6	6.04e-01	0	54	0	229113856	50	4828
2026-01-12 00:32:32.18	39.99	18.84	-39.7	-42.0	21.6	6.02e-01	0	54	0	231211008	50	4835
2026-01-12 00:32:33.19	40.15	18.96	-39.7	-42.0	21.6	6.05e-01	0	54	0	232783872	50	4834
2026-01-12 00:32:34.20	40.32	19.07	-39.7	-42.0	21.6	6.02e-01	0	54	0	234881024	50	4846
2026-01-12 00:32:35.21	40.49	19.19	-39.8	-42.0	21.6	6.03e-01	0	54	0	236453888	50	4859
2026-01-12 00:32:36.22	40.65	19.30	-39.8	-42.0	21.6	6.04e-01	0	54	0	238551040	50	4853
2026-01-12 00:32:37.23	40.82	19.42	-39.7	-42.0	21.6	6.04e-01	0	54	0	240648192	50	4854
2026-01-12 00:32:38.24	40.99	19.54	-39.7	-42.0	21.5	6.02e-01	0	54	0	242221056	50	4831
2026-01-12 00:32:39.25	41.17	19.65	-39.8	-42.0	21.6	6.03e-01	0	54	0	244318208	50	4863
2026-01-12 00:32:40.26	41.34	19.77	-39.7	-41.9	21.7	6.05e-01	0	54	0	245891072	50	4798
2026-01-12 00:32:41.27	41.52	19.89	-39.7	-41.9	21.7	6.03e-01	0	55	0	247988224	50	4794
2026-01-12 00:32:42.28	41.69	20.01	-39.7	-41.9	21.7	6.04e-01	0	54	0	250085376	50	4788
2026-01-12 00:32:43.29	41.87	20.12	-39.8	-42.0	21.6	6.01e-01	0	54	0	251658240	50	4846
2026-01-12 00:32:44.30	42.05	20.24	-39.8	-42.1	21.6	6.03e-01	0	54	0	253755392	50	4880
2026-01-12 00:32:45.31	42.23	20.36	-39.9	-42.1	21.5	6.04e-01	0	54	0	255852544	50	4910
2026-01-12 00:32:46.32	42.41	20.48	-39.8	-42.0	21.6	6.02e-01	0	54	0	257425408	50	4843
2026-01-12 00:32:47.33	42.60	20.60	-39.7	-41.9	21.8	6.03e-01	0	54	0	259522560	50	4777
2026-01-12 00:32:48.34	42.78	20.72	-39.6	-41.8	21.8	6.03e-01	0	54	0	261095424	50	4745
2026-01-12 00:32:49.35	42.97	20.84	-39.7	-41.9	21.7	6.03e-01	0	55	0	263192576	50	4774
2026-01-12 00:32:50.36	43.16	20.96	-39.7	-41.9	21.8	6.05e-01	0	54	0	265289728	50	4791
2026-01-12 00:32:51.37	43.35	21.08	-39.7	-41.9	21.8	6.04e-01	0	54	0	266862592	50	4793
2026-01-12 00:32:52.38	43.54	21.20	-39.8	-42.0	21.7	6.02e-01	0	54	0	268959744	50	4857
2026-01-12 00:32:53.39	43.73	21.33	-39.8	-42.0	21.6	6.04e-01	0	55	0	270532608	50	4870
2026-01-12 00:32:54.40	43.92	21.45	-39.9	-42.1	21.6	6.02e-01	0	54	0	272629760	50	4904
2026-01-12 00:32:55.41	44.12	21.57	-39.8	-42.1	21.6	6.03e-01	0	54	0	274726912	50	4894
2026-01-12 00:32:56.42	44.32	21.69	-39.8	-42.0	21.7	6.07e-01	0	55	0	276299776	50	4858
2026-01-12 00:32:57.43	44.52	21.82	-39.8	-42.1	21.6	6.03e-01	0	55	0	278396928	50	4893
2026-01-12 00:32:58.44	44.72	21.94	-39.9	-42.1	21.6	6.04e-01	0	54	0	279969792	50	4899
2026-01-12 00:32:59.45	44.92	22.06	-39.8	-42.1	21.6	6.01e-01	0	55	0	282066944	50	4880
2026-01-12 00:33:00.46	45.13	22.19	-39.8	-42.0	21.7	6.03e-01	0	54	0	284164096	50	4834
2026-01-12 00:33:01.47	45.33	22.31	-39.8	-42.0	21.7	6.04e-01	0	55	0	285736960	50	4855
2026-01-12 00:33:02.48	45.54	22.44	-39.9	-42.2	21.6	6.03e-01	0	54	0	287834112	50	4933
2026-01-12 00:33:03.49	45.75	22.56	-40.0	-42.3	21.5	6.03e-01	0	54	0	289406976	50	4990
2026-01-12 00:33:04.50	45.96	22.69	-39.9	-42.2	21.6	6.06e-01	0	54	0	291504128	50	4939
2026-01-12 00:33:05.51	46.17	22.81	-39.8	-42.0	21.7	6.00e-01	0	55	0	293601280	50	4861
2026-01-12 00:33:06.52	46.39	22.94	-39.9	-42.2	21.6	6.03e-01	0	55	0	295174144	50	4932
2026-01-12 00:33:07.53	46.60	23.07	-40.0	-42.2	21.5	6.04e-01	0	55	0	297271296	50	4970
2026-01-12 00:33:08.54	46.82	23.19	-40.0	-42.3	21.5	6.03e-01	0	55	0	299368448	50	4996
2026-01-12 00:33:09.55	47.04	23.32	-40.0	-42.3	21.4	6.05e-01	0	55	0	300941312	50	5018
2026-01-12 00:33:10.55	47.26	23.44	-40.0	-42.2	21.5	6.03e-01	0	54	0	303038464	50	4980
2026-01-12 00:33:11.56	47.48	23.57	-40.0	-42.3	21.5	6.05e-01	0	55	0	304611328	50	4990
2026-01-12 00:33:12.57	47.71	23.70	-40.0	-42.3	21.4	6.04e-01	0	55	0	306708480	50	5021
2026-01-12 00:33:13.58	47.94	23.83	-40.1	-42.4	21.4	6.03e-01	0	55	0	308805632	50	5081
2026-01-12 00:33:14.59	48.17	23.96	-40.0	-42.3	21.4	6.02e-01	0	55	0	310378496	50	5014
2026-01-12 00:33:15.60	48.40	24.08	-39.9	-42.1	21.6	6.03e-01	0	55	0	312475648	50	4909
2026-01-12 00:33:16.61	48.63	24.21	-39.9	-42.1	21.7	6.03e-01	0	55	0	314048512	50	4903
2026-01-12 00:33:17.62	48.87	24.34	-40.0	-42.3	21.4	6.02e-01	0	55	0	316145664	50	5028
2026-01-12 00:33:18.63	49.10	24.47	-40.1	-42.5	21.3	6.03e-01	0	55	0	318242816	50	5117
2026-01-12 00:33:19.64	49.34	24.60	-40.0	-42.3	21.4	6.04e-01	0	55	0	319815680	50	5023
2026-01-12 00:33:20.65	49.58	24.73	-40.0	-42.3	21.4	6.02e-01	0	55	0	321912832	50	5021
2026-01-12 00:33:21.66	49.83	24.86	-40.0	-42.4	21.4	6.03e-01	0	55	0	324009984	50	5052
2026-01-12 00:33:22.67	50.07	24.99	-40.1	-42.5	21.3	6.04e-01	0	55	0	325582848	50	5118
2026-01-12 00:33:23.68	50.32	25.12	-40.1	-42.4	21.4	6.03e-01	0	55	0	327680000	50	5064
2026-01-12 00:33:24.69	50.57	25.25	-39.9	-42.1	21.6	6.03e-01	0	55	0	329252864	50	4911
2026-01-12 00:33:25.70	50.82	25.38	-39.9	-42.1	21.7	6.02e-01	0	55	0	331350016	50	4922
2026-01-12 00:33:26.71	51.07	25.51	-40.0	-42.3	21.5	6.06e-01	0	55	0	332922880	50	5007
2026-01-12 00:33:27.72	51.33	25.64	-40.1	-42.4	21.4	6.06e-01	0	55	0	335020032	50	5064
2026-01-12 00:33:28.72	51.58	25.77	-40.0	-42.3	21.5	6.03e-01	0	55	0	337117184	50	5016
2026-01-12 00:33:29.73	51.84	25.90	-40.0	-42.3	21.5	6.03e-01	0	55	0	338690048	50	5028
2026-01-12 00:33:30.74	52.11	26.03	-40.1	-42.4	21.5	6.03e-01	0	55	0	340787200	50	5044
2026-01-12 00:33:31.75	52.37	26.16	-40.1	-42.4	21.4	6.04e-01	0	55	0	342360064	50	5086
2026-01-12 00:33:32.76	52.64	26.29	-40.1	-42.4	21.4	6.02e-01	0	55	0	344457216	50	5074
2026-01-12 00:33:33.77	52.91	26.42	-40.0	-42.2	21.6	6.03e-01	0	55	0	346554368	50	4971
2026-01-12 00:33:34.79	53.18	26.55	-40.0	-42.2	21.7	6.05e-01	0	55	0	348127232	50	4942
2026-01-12 00:33:35.80	53.45	26.68	-40.1	-42.3	21.6	6.04e-01	0	55	0	350224384	50	5039
2026-01-12 00:33:36.81	53.73	26.81	-40.1	-42.4	21.4	6.04e-01	0	55	0	352321536	50	5074
2026-01-12 00:33:37.82	54.01	26.95	-40.1	-42.3	21.5	6.02e-01	0	55	0	353894400	50	5037
2026-01-12 00:33:38.83	54.29	27.08	-40.1	-42.3	21.5	6.04e-01	0	55	0	355991552	50	5031
2026-01-12 00:33:39.84	54.57	27.21	-40.0	-42.3	21.5	6.02e-01	0	55	0	357564416	50	5003
2026-01-12 00:33:40.85	54.86	27.34	-40.0	-42.3	21.5	6.02e-01	0	55	0	359661568	50	4991
2026-01-12 00:33:41.86	55.15	27.47	-40.0	-42.3	21.2	6.06e-01	0	55	0	361758720	50	5020
2026-01-12 00:33:42.87	55.44	27.60	-39.9	-42.2	21.7	6.02e-01	0	55	0	363331584	50	4946
2026-01-12 00:33:43.87	55.73	27.73	-40.0	-42.2	21.6	6.04e-01	0	55	0	365428736	50	4967
2026-01-12 00:33:44.88	56.02	27.86	-40.0	-42.2	21.7	6.03e-01	0	55	0	367525888	50	4954
2026-01-12 00:33:45.89	56.32	27.99	-40.0	-42.3	21.6	6.03e-01	0	55	0	369098752	50	5002
2026-01-12 00:33:46.90	56.62	28.12	-40.0	-42.2	21.7	6.02e-01	0	55	0	371195904	50	4955
2026-01-12 00:33:47.91	56.92	28.25	-39.9	-42.1	21.8	6.02e-01	0	55	0	372768768	50	4900
2026-01-12 00:33:48.92	57.23	28.38	-39.9	-42.2	21.7	6.05e-01	0	55	0	374865920	50	4938
2026-01-12 00:33:49.93	57.53	28.51	-40.1	-42.3	21.6	6.04e-01	0	55	0	376963072	50	5023
2026-01-12 00:33:50.94	57.84	28.64	-40.0	-42.3	21.6	6.02e-01	0	55	0	378535936	50	4999
2026-01-12 00:33:51.95	58.16	28.77	-39.9	-42.1	21.7	6.04e-01	0	55	0	380633088	50	4913
2026-01-12 00:33:52.96	58.47	28.90	-39.8	-42.0	21.9	6.04e-01	0	55	0	382205952	50	4851
2026-01-12 00:33:53.97	58.79	29.03	-40.0	-42.2	21.7	6.02e-01	0	55	0	384303104	50	4976
2026-01-12 00:33:54.98	59.11	29.16	-40.1	-42.4	21.5	6.03e-01	0	55	0	386400256	50	5071
2026-01-12 00:33:55.99	59.43	29.28	-40.1	-42.4	21.6	6.02e-01	0	55	0	387973120	50	5042
2026-01-12 00:33:57.00	59.76	29.41	-40.0	-42.2	21.7	6.04e-01	0	55	0	390070272	50	4960
2026-01-12 00:33:58.01	60.09	29.54	-40.0	-42.2	21.7	6.03e-01	0	55	0	392167424	50	4940
2026-01-12 00:33:59.02	60.42	29.67	-40.0	-42.2	21.7	6.04e-01	0	55	0	393740288	50	4939
2026-01-12 00:34:00.03	60.75	29.79	-40.0	-42.3	21.6	6.01e-01	0	55	0	395837440	50	5016
2026-01-12 00:34:01.04	61.09	29.92	-40.1	-42.3	21.5	6.02e-01	0	55	0	397410304	50	5037
2026-01-12 00:34:02.05	61.43	30.05	-39.9	-42.1	21.8	6.02e-01	0	55	0	399507456	50	4907
2026-01-12 00:34:03.06	61.77	30.17	-39.8	-42.0	21.9	6.03e-01	0	55	0	401080320	50	4860
2026-01-12 00:34:04.07	62.12	30.30	-39.9	-42.1	21.8	6.03e-01	0	55	0	403177472	50	4895
2026-01-12 00:34:05.08	62.46	30.42	-40.0	-42.3	21.7	6.01e-01	0	55	0	405274624	50	4988
2026-01-12 00:34:06.09	62.81	30.55	-39.9	-42.0	21.8	6.04e-01	0	55	0	406847488	50	4868
2026-01-12 00:34:07.10	63.17	30.67	-39.9	-42.0	21.9	6.05e-01	0	55	0	408944640	50	4867
2026-01-12 00:34:08.11	63.52	30.79	-39.9	-42.1	21.8	6.04e-01	0	55	0	410517504	50	4913
2026-01-12 00:34:09.11	63.88	30.91	-39.9	-42.0	21.8	6.01e-01	0	55	0	412614656	50	4867
2026-01-12 00:34:10.12	64.24	31.03	-39.8	-41.9	22.0	6.02e-01	0	55	0	414711808	50	4789
2026-01-12 00:34:11.13	64.60	31.16	-39.9	-42.1	21.9	6.03e-01	0	55	0	416284672	50	4887
2026-01-12 00:34:12.14	64.97	31.28	-40.0	-42.2	21.8	6.04e-01	0	55	0	418381824	50	4940
2026-01-12 00:34:13.15	65.34	31.40	-39.9	-42.1	21.9	6.03e-01	0	55	0	420478976	50	4879
2026-01-12 00:34:14.16	65.71	31.51	-39.9	-42.1	21.8	6.04e-01	0	55	0	422051840	50	4926
2026-01-12 00:34:15.17	66.09	31.63	-39.8	-41.9	22.0	6.02e-01	0	55	0	424148992	50	4813
2026-01-12 00:34:16.18	66.46	31.75	-39.9	-42.1	21.8	6.02e-01	0	55	0	425721856	50	4901
2026-01-12 00:34:17.19	66.84	31.87	-39.9	-42.0	21.9	6.03e-01	0	55	0	427819008	50	4866
2026-01-12 00:34:18.20	67.23	31.98	-39.8	-41.9	22.0	6.02e-01	0	55	0	429916160	50	4811
2026-01-12 00:34:19.20	67.61	32.09	-40.2	-42.5	21.5	6.03e-01	0	55	0	431489024	50	5121
2026-01-12 00:34:20.21	68.00	32.21	-40.0	-42.2	21.8	6.03e-01	0	55	0	433586176	50	4940
2026-01-12 00:34:21.22	68.39	32.32	-39.8	-41.9	22.0	6.04e-01	0	55	0	435683328	50	4808
2026-01-12 00:34:22.23	68.79	32.43	-39.7	-41.8	22.1	6.05e-01	0	55	0	437256192	50	4752
2026-01-12 00:34:23.25	69.19	32.54	-40.0	-42.2	21.8	6.04e-01	0	55	0	439353344	50	4965
2026-01-12 00:34:24.25	69.58	32.65	-40.0	-42.2	21.8	6.03e-01	0	55	0	440926208	50	4942
2026-01-12 00:34:25.26	69.99	32.76	-39.9	-42.1	21.9	6.02e-01	0	55	0	443023360	50	4890
2026-01-12 00:34:26.27	70.39	32.87	-39.8	-42.0	22.0	6.04e-01	0	55	0	445120512	50	4821
2026-01-12 00:34:27.28	70.80	32.98	-39.8	-41.9	22.1	6.04e-01	0	55	0	446693376	50	4776
2026-01-12 00:34:28.29	71.21	33.08	-39.9	-42.1	21.9	6.02e-01	0	55	0	448790528	50	4898
2026-01-12 00:34:29.30	71.62	33.19	-39.9	-42.0	22.0	6.03e-01	0	55	0	450363392	50	4842
2026-01-12 00:34:30.31	72.04	33.29	-39.9	-42.1	21.9	6.03e-01	0	55	0	452460544	50	4903
2026-01-12 00:34:31.32	72.46	33.39	-39.8	-42.0	22.1	6.02e-01	0	55	0	454557696	50	4820
2026-01-12 00:34:32.33	72.88	33.49	-39.8	-41.9	22.1	6.03e-01	0	55	0	456130560	50	4784
2026-01-12 00:34:33.34	73.31	33.59	-39.8	-42.0	22.0	6.03e-01	0	55	0	458227712	50	4836
2026-01-12 00:34:34.35	73.73	33.69	-39.8	-41.9	22.1	6.02e-01	0	55	0	459800576	50	4762
2026-01-12 00:34:35.36	74.16	33.78	-40.0	-42.2	21.8	6.06e-01	0	55	0	461897728	50	4956
2026-01-12 00:34:36.37	74.60	33.88	-39.8	-41.9	22.1	6.05e-01	0	55	0	463994880	50	4795
2026-01-12 00:34:37.38	75.03	33.97	-39.6	-41.7	22.3	6.05e-01	0	55	0	465567744	50	4665
2026-01-12 00:34:38.39	75.47	34.06	-39.8	-42.0	22.0	6.03e-01	0	55	0	467664896	50	4829
2026-01-12 00:34:39.40	75.91	34.15	-40.1	-42.4	21.7	6.05e-01	0	55	0	469237760	50	5042
2026-01-12 00:34:40.41	76.35	34.24	-39.9	-42.1	21.9	6.03e-01	0	55	0	471334912	50	4902
2026-01-12 00:34:41.42	76.79	34.33	-39.9	-42.0	22.1	6.01e-01	0	55	0	473432064	50	4851
2026-01-12 00:34:42.43	77.24	34.41	-40.0	-42.1	21.9	6.02e-01	0	55	0	475004928	50	4916
2026-01-12 00:34:43.44	77.69	34.50	-39.9	-42.1	21.9	6.02e-01	0	55	0	477102080	50	4877
2026-01-12 00:34:44.45	78.14	34.58	-39.9	-42.1	22.0	6.03e-01	0	55	0	478674944	50	4896
2026-01-12 00:34:45.46	78.60	34.66	-39.9	-42.0	22.0	6.02e-01	0	55	0	480772096	50	4855
2026-01-12 00:34:46.47	79.05	34.74	-39.8	-41.9	22.1	6.04e-01	0	55	0	482869248	50	4807
2026-01-12 00:34:47.48	79.51	34.82	-39.7	-41.8	22.2	6.03e-01	0	55	0	484442112	51	4474
2026-01-12 00:34:48.49	79.97	34.89	-39.9	-42.0	22.0	6.04e-01	0	55	0	486539264	51	4594
2026-01-12 00:34:49.50	80.44	34.97	-39.9	-42.1	21.8	6.03e-01	0	55	0	488636416	51	4638
2026-01-12 00:34:50.51	80.90	35.04	-39.8	-41.9	22.1	6.04e-01	0	55	0	490209280	51	4513
2026-01-12 00:34:51.52	81.37	35.11	-39.8	-42.0	22.0	6.04e-01	0	55	0	492306432	51	4568
2026-01-12 00:34:52.53	81.84	35.18	-39.8	-42.0	22.1	6.05e-01	0	55	0	493879296	51	4546
2026-01-12 00:34:53.54	82.31	35.24	-39.8	-42.0	22.1	6.03e-01	0	55	0	495976448	51	4551
2026-01-12 00:34:54.55	82.78	35.30	-39.9	-42.1	21.9	6.02e-01	0	55	0	498073600	51	4626
2026-01-12 00:34:55.56	83.26	35.37	-39.8	-41.9	22.1	6.02e-01	0	55	0	499646464	51	4508
2026-01-12 00:34:56.56	83.73	35.43	-39.7	-41.8	22.2	6.05e-01	0	55	0	501743616	51	4475
2026-01-12 00:34:57.57	84.21	35.48	-39.9	-42.0	22.0	6.02e-01	0	55	0	503840768	51	4580
2026-01-12 00:34:58.59	84.69	35.54	-39.7	-41.8	22.2	6.02e-01	0	55	0	505413632	51	4477
2026-01-12 00:34:59.60	85.17	35.59	-39.8	-41.9	22.2	6.01e-01	0	55	0	507510784	51	4505
2026-01-12 00:35:00.60	85.65	35.65	-39.7	-41.8	22.2	6.04e-01	0	55	0	509083648	51	4477
2026-01-12 00:35:01.61	86.14	35.70	-39.9	-42.0	22.1	6.02e-01	0	55	0	511180800	51	4564
2026-01-12 00:35:02.63	86.63	35.74	-39.8	-41.9	22.1	6.04e-01	0	55	0	513277952	51	4508
2026-01-12 00:35:03.64	87.12	35.79	-39.8	-41.9	22.1	6.03e-01	0	55	0	514850816	51	4499
2026-01-12 00:35:04.64	87.60	35.83	-39.9	-42.0	22.0	6.04e-01	0	56	0	516947968	51	4563
2026-01-12 00:35:05.65	88.09	35.87	-39.8	-41.9	22.1	6.03e-01	0	55	0	518520832	51	4544
2026-01-12 00:35:06.67	88.59	35.91	-39.8	-41.9	22.1	6.06e-01	0	55	0	520617984	51	4496
2026-01-12 00:35:07.67	89.08	35.95	-39.8	-41.9	22.1	6.02e-01	0	55	0	522715136	51	4541
2026-01-12 00:35:08.68	89.57	35.98	-39.8	-41.9	22.2	6.03e-01	0	55	0	524288000	51	4508
2026-01-12 00:35:09.69	90.07	36.01	-39.8	-41.9	22.1	6.02e-01	0	55	0	526385152	51	4540
2026-01-12 00:35:10.70	90.56	36.04	-39.6	-41.7	22.3	6.03e-01	0	55	0	527958016	51	4422
2026-01-12 00:35:11.71	91.06	36.07	-39.9	-42.0	22.0	6.03e-01	0	55	0	530055168	51	4576
2026-01-12 00:35:12.72	91.56	36.09	-39.8	-42.0	22.0	6.03e-01	0	56	0	532152320	51	4556
2026-01-12 00:35:13.73	92.06	36.12	-39.7	-41.8	22.2	6.03e-01	0	55	0	533725184	51	4478
2026-01-12 00:35:14.74	92.56	36.14	-39.8	-41.9	22.2	6.02e-01	0	55	0	535822336	51	4511
2026-01-12 00:35:15.75	93.06	36.16	-39.7	-41.8	22.2	6.02e-01	0	55	0	537395200	51	4474
2026-01-12 00:35:16.76	93.56	36.17	-39.8	-41.9	22.2	6.03e-01	0	55	0	539492352	51	4506
2026-01-12 00:35:17.77	94.06	36.18	-39.7	-41.8	22.2	6.04e-01	0	55	0	541589504	51	4488
2026-01-12 00:35:18.78	94.56	36.20	-39.7	-41.7	22.3	6.03e-01	0	55	0	543162368	51	4429
2026-01-12 00:35:19.79	95.06	36.20	-39.7	-41.8	22.2	6.04e-01	0	56	0	545259520	51	4479
2026-01-12 00:35:20.80	95.56	36.21	-39.8	-41.9	22.2	6.03e-01	0	55	0	546832384	51	4502
2026-01-12 00:35:21.81	96.06	36.21	-39.8	-41.9	22.2	6.04e-01	0	55	0	548929536	51	4501
2026-01-12 00:35:22.82	96.57	36.21	-39.7	-41.7	22.3	6.05e-01	0	55	0	551026688	51	4439
2026-01-12 00:35:23.83	97.07	36.21	-39.8	-41.9	22.2	6.04e-01	0	55	0	552599552	51	4505
2026-01-12 00:35:24.84	97.57	36.21	-39.7	-41.8	22.2	6.05e-01	0	55	0	554696704	51	4466
2026-01-12 00:35:25.85	98.07	36.20	-39.8	-41.9	22.2	6.02e-01	0	55	0	556793856	51	4530
2026-01-12 00:35:26.86	98.57	36.20	-39.8	-41.9	22.1	6.02e-01	0	55	0	558366720	51	4526
2026-01-12 00:35:27.87	99.08	36.19	-39.7	-41.8	22.3	6.03e-01	0	55	0	560463872	51	4443
2026-01-12 00:35:28.88	99.58	36.17	-39.7	-41.8	22.2	6.02e-01	0	55	0	562036736	51	4461
2026-01-12 00:35:29.89	100.08	36.16	-39.7	-41.8	22.3	6.03e-01	0	55	0	564133888	51	4442
2026-01-12 00:35:30.90	100.58	36.14	-39.7	-41.8	22.2	6.02e-01	0	55	0	566231040	51	4488
2026-01-12 00:35:31.91	101.08	36.12	-39.7	-41.8	22.3	6.02e-01	0	55	0	567803904	51	4473
2026-01-12 00:35:32.92	101.58	36.10	-39.6	-41.7	22.3	6.05e-01	0	55	0	569901056	51	4418
2026-01-12 00:35:33.93	102.07	36.07	-39.7	-41.8	22.3	6.04e-01	0	55	0	571998208	51	4454
2026-01-12 00:35:34.94	102.57	36.05	-39.8	-41.9	22.1	6.02e-01	0	55	0	573571072	51	4522
2026-01-12 00:35:35.95	103.07	36.02	-39.6	-41.6	22.4	6.04e-01	0	55	0	575668224	51	4364
2026-01-12 00:35:36.96	103.56	35.98	-39.6	-41.7	22.4	6.05e-01	0	55	0	577241088	51	4393
2026-01-12 00:35:37.97	104.06	35.95	-39.7	-41.8	22.2	6.02e-01	0	55	0	579338240	51	4487
2026-01-12 00:35:38.98	104.55	35.91	-39.7	-41.8	22.3	6.04e-01	0	55	0	581435392	51	4452
2026-01-12 00:35:39.99	105.04	35.88	-39.6	-41.7	22.4	6.05e-01	0	56	0	583008256	51	4406
2026-01-12 00:35:41.00	105.54	35.84	-39.6	-41.7	22.4	6.02e-01	0	56	0	585105408	51	4410
2026-01-12 00:35:42.01	106.03	35.79	-39.6	-41.6	22.4	6.03e-01	0	55	0	586678272	51	4367
2026-01-12 00:35:43.02	106.52	35.75	-39.7	-41.7	22.4	6.01e-01	0	55	0	588775424	51	4439
2026-01-12 00:35:44.03	107.00	35.70	-39.7	-41.9	22.2	6.03e-01	0	55	0	590872576	51	4496
2026-01-12 00:35:45.04	107.49	35.65	-39.5	-41.4	22.6	6.02e-01	0	56	0	592445440	50	4498
2026-01-12 00:35:46.05	107.97	35.60	-39.5	-41.5	22.6	6.03e-01	0	55	0	594542592	50	4573
2026-01-12 00:35:47.06	108.46	35.55	-39.6	-41.7	22.4	6.02e-01	0	55	0	596639744	50	4671
2026-01-12 00:35:48.07	108.94	35.49	-39.6	-41.7	22.3	6.03e-01	0	55	0	598212608	50	4681
2026-01-12 00:35:49.08	109.42	35.43	-39.5	-41.6	22.5	6.03e-01	0	55	0	600309760	50	4621
2026-01-12 00:35:50.09	109.89	35.37	-39.6	-41.7	22.3	6.05e-01	0	55	0	601882624	50	4690
2026-01-12 00:35:51.10	110.37	35.31	-39.4	-41.4	22.6	6.03e-01	0	55	0	603979776	50	4516
2026-01-12 00:35:52.11	110.84	35.25	-39.4	-41.4	22.7	6.02e-01	0	56	0	606076928	50	4529
2026-01-12 00:35:53.12	111.32	35.18	-39.6	-41.7	22.4	6.03e-01	0	55	0	607649792	50	4676
2026-01-12 00:35:54.13	111.79	35.11	-39.6	-41.6	22.4	6.03e-01	0	55	0	609746944	50	4634
2026-01-12 00:35:55.14	112.26	35.04	-39.5	-41.6	22.5	6.04e-01	0	56	0	611319808	50	4607
2026-01-12 00:35:56.15	112.72	34.97	-39.5	-41.5	22.6	6.03e-01	0	55	0	613416960	50	4579
2026-01-12 00:35:57.16	113.19	34.90	-39.5	-41.5	22.5	6.04e-01	0	56	0	615514112	50	4570
2026-01-12 00:35:58.17	113.65	34.82	-39.4	-41.4	22.7	6.02e-01	0	56	0	617086976	50	4509
2026-01-12 00:35:59.18	114.11	34.75	-39.3	-41.3	22.8	6.04e-01	0	56	0	619184128	50	4454
2026-01-12 00:36:00.19	114.57	34.67	-39.5	-41.5	22.5	6.03e-01	0	55	0	620756992	50	4588
2026-01-12 00:36:01.20	115.02	34.59	-39.5	-41.6	22.4	6.03e-01	0	55	0	622854144	50	4629
2026-01-12 00:36:02.21	115.47	34.50	-39.3	-41.2	22.8	6.03e-01	0	56	0	624951296	50	4430
2026-01-12 00:36:03.22	115.93	34.42	-39.3	-41.3	22.8	6.05e-01	0	55	0	626524160	50	4446
2026-01-12 00:36:04.23	116.37	34.33	-39.3	-41.2	22.8	6.05e-01	0	55	0	628621312	50	4437
2026-01-12 00:36:05.24	116.82	34.25	-39.3	-41.3	22.7	6.03e-01	0	55	0	630194176	50	4481
2026-01-12 00:36:06.25	117.26	34.16	-39.4	-41.5	22.4	6.02e-01	0	55	0	632291328	50	4547
2026-01-12 00:36:07.26	117.71	34.07	-39.5	-41.5	22.4	6.03e-01	0	56	0	634388480	50	4581
2026-01-12 00:36:08.27	118.14	33.97	-39.2	-41.2	22.8	6.03e-01	0	56	0	635961344	50	4410
2026-01-12 00:36:09.28	118.58	33.88	-39.3	-41.2	22.8	6.03e-01	0	56	0	638058496	50	4425
2026-01-12 00:36:10.29	119.01	33.79	-39.4	-41.4	22.6	6.02e-01	0	56	0	640155648	50	4521
2026-01-12 00:36:11.30	119.44	33.69	-39.4	-41.3	22.7	6.05e-01	0	56	0	641728512	50	4493
2026-01-12 00:36:12.31	119.87	33.59	-39.2	-41.1	22.9	6.04e-01	0	56	0	643825664	50	4374
2026-01-12 00:36:13.32	120.30	33.49	-39.2	-41.1	22.8	6.03e-01	0	56	0	645398528	50	4368
2026-01-12 00:36:14.33	120.72	33.39	-39.2	-41.2	22.8	6.04e-01	0	56	0	647495680	50	4394
2026-01-12 00:36:15.34	121.14	33.29	-39.1	-41.0	23.0	6.05e-01	0	56	0	649592832	50	4312
2026-01-12 00:36:16.35	121.56	33.19	-39.3	-41.2	22.8	6.02e-01	0	56	0	651165696	50	4436
2026-01-12 00:36:17.36	121.98	33.08	-39.3	-41.3	22.7	6.04e-01	0	56	0	653262848	50	4459
2026-01-12 00:36:18.37	122.39	32.98	-39.0	-40.9	23.0	6.03e-01	0	56	0	654835712	50	4291
2026-01-12 00:36:19.38	122.80	32.87	-39.0	-40.9	23.1	6.04e-01	0	55	0	656932864	50	4272
2026-01-12 00:36:20.39	123.21	32.76	-39.0	-40.9	23.0	6.02e-01	0	56	0	659030016	50	4285
2026-01-12 00:36:21.40	123.61	32.65	-39.2	-41.1	22.9	6.03e-01	0	56	0	660602880	50	4376
2026-01-12 00:36:22.41	124.01	32.54	-39.3	-41.2	22.8	6.04e-01	0	56	0	662700032	50	4438
2026-01-12 00:36:23.42	124.41	32.43	-39.2	-41.1	22.9	6.03e-01	0	56	0	664797184	50	4366
2026-01-12 00:36:24.43	124.81	32.32	-39.0	-40.9	23.1	6.02e-01	0	56	0	666370048	50	4287
2026-01-12 00:36:25.44	125.20	32.21	-39.0	-40.9	23.1	6.02e-01	0	55	0	668467200	49	4512
2026-01-12 00:36:26.45	125.59	32.09	-39.0	-40.9	23.1	6.05e-01	0	56	0	670040064	49	4539
2026-01-12 00:36:27.45	125.97	31.98	-39.1	-41.0	23.0	6.04e-01	0	55	0	672137216	49	4559
2026-01-12 00:36:28.46	126.36	31.86	-39.2	-41.2	22.8	6.04e-01	0	56	0	674234368	49	4682
2026-01-12 00:36:29.48	126.75	31.74	-39.1	-41.1	22.9	6.02e-01	0	56	0	675807232	49	4621
2026-01-12 00:36:30.49	127.12	31.63	-39.0	-40.9	23.1	6.01e-01	0	55	0	677904384	49	4526
2026-01-12 00:36:31.50	127.50	31.51	-39.1	-41.0	23.0	6.02e-01	0	56	0	679477248	49	4564
2026-01-12 00:36:32.50	127.87	31.39	-39.1	-41.1	22.9	6.03e-01	0	56	0	681574400	49	4612
2026-01-12 00:36:33.51	128.24	31.27	-39.1	-41.1	22.9	6.03e-01	0	56	0	683671552	49	4609
2026-01-12 00:36:34.52	128.61	31.15	-39.1	-41.0	22.9	6.03e-01	0	56	0	685244416	49	4588
2026-01-12 00:36:35.53	128.98	31.03	-39.1	-41.0	22.9	6.05e-01	0	56	0	687341568	49	4569
2026-01-12 00:36:36.54	129.34	30.90	-39.1	-41.1	22.9	6.03e-01	0	56	0	688914432	49	4606
2026-01-12 00:36:37.55	129.70	30.78	-39.1	-41.1	22.9	6.04e-01	0	56	0	691011584	49	4616
2026-01-12 00:36:38.56	130.06	30.66	-39.0	-40.9	23.0	6.03e-01	0	56	0	693108736	49	4539
2026-01-12 00:36:39.57	130.41	30.53	-39.1	-41.0	23.0	6.01e-01	0	56	0	694681600	49	4565
2026-01-12 00:36:40.58	130.76	30.41	-39.1	-41.1	22.9	6.03e-01	0	56	0	696778752	49	4622
2026-01-12 00:36:41.59	131.11	30.28	-39.1	-41.0	22.9	6.02e-01	0	56	0	698351616	49	4587
2026-01-12 00:36:42.60	131.46	30.16	-39.1	-41.1	22.9	6.04e-01	0	56	0	700448768	49	4631
2026-01-12 00:36:43.61	131.80	30.03	-39.2	-41.2	22.8	6.02e-01	0	56	0	702545920	49	4663
2026-01-12 00:36:44.62	132.14	29.90	-39.2	-41.1	22.8	6.04e-01	0	56	0	704118784	49	4625
2026-01-12 00:36:45.62	132.48	29.78	-39.1	-41.0	23.0	6.04e-01	0	56	0	706215936	49	4579
2026-01-12 00:36:46.63	132.81	29.65	-39.1	-41.0	22.9	6.04e-01	0	56	0	708313088	49	4593
2026-01-12 00:36:47.64	133.14	29.52	-39.2	-41.1	22.8	6.02e-01	0	56	0	709885952	49	4633
2026-01-12 00:36:48.65	133.47	29.39	-39.2	-41.1	22.9	6.04e-01	0	56	0	711983104	49	4629
2026-01-12 00:36:49.66	133.80	29.27	-39.2	-41.2	22.8	6.06e-01	0	56	0	713555968	49	4674
2026-01-12 00:36:50.67	134.13	29.14	-39.3	-41.3	22.7	6.05e-01	0	55	0	715653120	49	4722
2026-01-12 00:36:51.68	134.45	29.01	-39.4	-41.4	22.6	6.04e-01	0	56	0	717750272	49	4773
2026-01-12 00:36:52.69	134.77	28.88	-39.4	-41.4	22.6	6.03e-01	0	56	0	719323136	49	4774
2026-01-12 00:36:53.70	135.08	28.75	-39.3	-41.3	22.7	6.02e-01	0	56	0	721420288	49	4716
2026-01-12 00:36:54.71	135.40	28.62	-39.2	-41.2	22.8	6.04e-01	0	56	0	722993152	49	4679
2026-01-12 00:36:55.72	135.71	28.49	-39.3	-41.3	22.7	6.03e-01	0	56	0	725090304	49	4738
2026-01-12 00:36:56.73	136.02	28.36	-39.3	-41.3	22.6	6.00e-01	0	56	0	727187456	49	4754
2026-01-12 00:36:57.74	136.32	28.23	-39.4	-41.4	22.5	6.03e-01	0	56	0	728760320	49	4803
2026-01-12 00:36:58.75	136.63	28.09	-39.4	-41.5	22.5	6.03e-01	0	56	0	730857472	49	4818
2026-01-12 00:36:59.76	136.93	27.96	-39.5	-41.6	22.4	6.05e-01	0	56	0	732954624	49	4883
2026-01-12 00:37:00.77	137.23	27.83	-39.5	-41.5	22.4	6.06e-01	0	56	0	734527488	49	4845
2026-01-12 00:37:01.78	137.52	27.70	-39.5	-41.6	22.4	6.03e-01	0	56	0	736624640	49	4878
2026-01-12 00:37:02.79	137.82	27.57	-39.5	-41.6	22.3	6.02e-01	0	56	0	738197504	49	4883
2026-01-12 00:37:03.80	138.11	27.44	-39.6	-41.7	22.3	6.04e-01	0	56	0	740294656	49	4961
2026-01-12 00:37:04.81	138.40	27.31	-39.7	-41.8	22.2	6.03e-01	0	56	0	741867520	50	4735
2026-01-12 00:37:05.82	138.69	27.17	-39.6	-41.7	22.2	6.04e-01	0	56	0	743964672	50	4693
2026-01-12 00:37:06.83	138.97	27.04	-39.6	-41.7	22.3	6.03e-01	0	56	0	746061824	50	4690
2026-01-12 00:37:07.84	139.25	26.91	-39.6	-41.7	22.3	6.03e-01	0	56	0	747634688	50	4670
2026-01-12 00:37:08.85	139.53	26.78	-39.7	-41.8	22.1	6.03e-01	0	56	0	749731840	50	4754
2026-01-12 00:37:09.86	139.81	26.65	-39.8	-41.9	22.1	6.04e-01	0	56	0	751304704	50	4794
2026-01-12 00:37:10.87	140.08	26.51	-39.8	-41.9	22.1	6.05e-01	0	56	0	753401856	50	4789
2026-01-12 00:37:11.88	140.35	26.38	-39.8	-42.0	22.0	6.03e-01	0	56	0	755499008	50	4817
2026-01-12 00:37:12.89	140.62	26.25	-39.8	-41.9	22.0	6.04e-01	0	56	0	757071872	50	4812
2026-01-12 00:37:13.90	140.89	26.12	-39.7	-41.9	22.1	6.04e-01	0	56	0	759169024	50	4764
2026-01-12 00:37:14.91	141.16	25.99	-39.6	-41.6	22.3	6.03e-01	0	56	0	761266176	50	4641
2026-01-12 00:37:15.92	141.42	25.86	-39.6	-41.7	22.3	6.02e-01	0	56	0	762839040	50	4664
2026-01-12 00:37:16.93	141.68	25.72	-39.7	-41.8	22.1	6.04e-01	0	56	0	764936192	50	4753
2026-01-12 00:37:17.94	141.94	25.59	-39.8	-42.0	22.0	6.02e-01	0	56	0	766509056	50	4820
2026-01-12 00:37:18.94	142.20	25.46	-39.9	-42.0	21.9	6.03e-01	0	56	0	768606208	50	4862
2026-01-12 00:37:19.95	142.45	25.33	-39.9	-42.1	21.9	6.04e-01	0	56	0	770703360	50	4886
2026-01-12 00:37:20.96	142.70	25.20	-39.9	-42.1	21.8	5.99e-01	0	56	0	772276224	50	4913
2026-01-12 00:37:21.97	142.95	25.07	-39.8	-42.0	21.9	6.03e-01	0	56	0	774373376	50	4822
2026-01-12 00:37:22.98	143.20	24.94	-39.8	-41.9	22.0	6.05e-01	0	56	0	776470528	50	4787
2026-01-12 00:37:23.99	143.45	24.81	-39.8	-41.9	22.0	6.02e-01	0	56	0	778043392	50	4805
2026-01-12 00:37:25.00	143.69	24.68	-39.9	-42.1	21.8	6.04e-01	0	56	0	780140544	50	4918
2026-01-12 00:37:26.01	143.93	24.55	-40.0	-42.2	21.7	6.03e-01	0	56	0	781713408	50	4979
2026-01-12 00:37:27.02	144.17	24.42	-40.0	-42.2	21.7	6.02e-01	0	56	0	783810560	50	4979
2026-01-12 00:37:28.03	144.41	24.29	-40.0	-42.3	21.7	6.04e-01	0	56	0	785907712	50	4985
2026-01-12 00:37:29.04	144.65	24.16	-39.9	-42.1	21.8	6.02e-01	0	56	0	787480576	50	4925
2026-01-12 00:37:30.05	144.88	24.03	-39.9	-42.1	21.8	6.03e-01	0	56	0	789577728	50	4921
2026-01-12 00:37:31.06	145.11	23.90	-39.9	-42.1	21.8	6.02e-01	0	56	0	791150592	50	4872
2026-01-12 00:37:32.07	145.34	23.77	-39.9	-42.0	21.9	6.02e-01	0	56	0	793247744	50	4868
2026-01-12 00:37:33.08	145.57	23.64	-39.8	-42.0	21.9	6.02e-01	0	56	0	795344896	50	4831
2026-01-12 00:37:34.09	145.80	23.51	-39.9	-42.0	21.8	6.02e-01	0	56	0	796917760	50	4860
2026-01-12 00:37:35.10	146.02	23.39	-40.0	-42.2	21.7	6.03e-01	0	56	0	799014912	50	4963
2026-01-12 00:37:36.10	146.24	23.26	-39.9	-42.2	21.7	6.01e-01	0	56	0	800587776	50	4928
2026-01-12 00:37:37.11	146.46	23.13	-39.9	-42.1	21.7	6.04e-01	0	56	0	802684928	50	4914
2026-01-12 00:37:38.13	146.68	23.00	-39.9	-42.1	21.7	6.04e-01	0	56	0	804782080	50	4906
2026-01-12 00:37:39.14	146.90	22.88	-40.0	-42.2	21.7	6.04e-01	0	56	0	806354944	50	4960
2026-01-12 00:37:40.15	147.12	22.75	-40.0	-42.3	21.6	6.01e-01	0	56	0	808452096	50	4999
2026-01-12 00:37:41.16	147.33	22.62	-40.0	-42.2	21.6	6.04e-01	0	56	0	810024960	50	4970
2026-01-12 00:37:42.17	147.54	22.50	-39.9	-42.0	21.8	6.04e-01	0	56	0	812122112	50	4864
2026-01-12 00:37:43.18	147.75	22.37	-39.8	-42.0	21.9	6.02e-01	0	56	0	814219264	50	4821
2026-01-12 00:37:44.19	147.96	22.24	-39.9	-42.0	21.8	6.03e-01	0	56	0	815792128	50	4869
2026-01-12 00:37:45.20	148.17	22.12	-39.8	-41.9	21.9	6.02e-01	0	56	0	817889280	50	4813
2026-01-12 00:37:46.21	148.37	21.99	-39.7	-41.9	22.0	6.05e-01	0	56	0	819462144	50	4769
2026-01-12 00:37:47.22	148.57	21.87	-39.8	-42.0	21.9	6.04e-01	0	56	0	821559296	50	4830
2026-01-12 00:37:48.22	148.77	21.75	-39.7	-41.8	22.0	6.05e-01	0	56	0	823656448	50	4734
2026-01-12 00:37:49.23	148.97	21.62	-39.7	-41.9	22.0	6.04e-01	0	56	0	825229312	50	4764
2026-01-12 00:37:50.24	149.17	21.50	-39.8	-41.9	21.8	6.03e-01	0	56	0	827326464	50	4811
2026-01-12 00:37:51.25	149.37	21.37	-39.8	-42.0	21.8	6.02e-01	0	56	0	829423616	50	4828
2026-01-12 00:37:52.26	149.56	21.25	-39.7	-41.9	21.9	6.04e-01	0	56	0	830996480	50	4791
2026-01-12 00:37:53.27	149.76	21.13	-39.8	-42.0	21.9	6.01e-01	0	56	0	833093632	50	4817
2026-01-12 00:37:54.28	149.95	21.01	-39.8	-42.0	21.8	6.03e-01	0	56	0	834666496	50	4819
2026-01-12 00:37:55.29	150.14	20.88	-39.7	-41.9	21.9	6.02e-01	0	56	0	836763648	50	4783
2026-01-12 00:37:56.30	150.33	20.76	-39.7	-41.9	21.9	6.02e-01	0	56	0	838860800	50	4785
2026-01-12 00:37:57.31	150.51	20.64	-39.7	-41.9	21.9	6.03e-01	0	56	0	840433664	50	4774
2026-01-12 00:37:58.32	150.70	20.52	-39.8	-42.0	21.9	6.03e-01	0	56	0	842530816	50	4815
2026-01-12 00:37:59.32	150.88	20.40	-39.7	-41.9	21.9	6.04e-01	0	56	0	844103680	50	4773
2026-01-12 00:38:00.33	151.06	20.28	-39.7	-41.9	21.9	6.05e-01	0	56	0	846200832	50	4766
2026-01-12 00:38:01.34	151.24	20.16	-39.7	-41.9	21.9	6.04e-01	0	56	0	848297984	50	4786
2026-01-12 00:38:02.35	151.42	20.04	-39.7	-41.8	21.9	6.04e-01	0	56	0	849870848	50	4759
2026-01-12 00:38:03.36	151.60	19.92	-39.7	-41.8	22.0	6.03e-01	0	56	0	851968000	50	4754
2026-01-12 00:38:04.37	151.78	19.80	-39.7	-41.8	21.9	6.04e-01	0	56	0	854065152	50	4758
2026-01-12 00:38:05.37	151.95	19.69	-39.7	-41.8	21.9	6.04e-01	0	56	0	855638016	50	4746
2026-01-12 00:38:06.38	152.13	19.57	-39.7	-41.9	21.9	6.02e-01	0	56	0	857735168	50	4801
2026-01-12 00:38:07.39	152.30	19.45	-39.7	-41.9	21.8	6.04e-01	0	56	0	859308032	50	4799
2026-01-12 00:38:08.40	152.47	19.33	-39.8	-42.0	21.8	6.03e-01	0	56	0	861405184	50	4820
2026-01-12 00:38:09.41	152.64	19.22	-39.7	-41.9	21.9	6.03e-01	0	56	0	863502336	50	4794
2026-01-12 00:38:10.42	152.81	19.10	-39.7	-41.8	21.9	6.01e-01	0	56	0	865075200	50	4744
2026-01-12 00:38:11.43	152.98	18.98	-39.7	-41.9	21.9	6.03e-01	0	56	0	867172352	50	4763
2026-01-12 00:38:12.44	153.14	18.87	-39.7	-41.9	21.9	6.04e-01	0	56	0	868745216	50	4775
2026-01-12 00:38:13.45	153.31	18.75	-39.7	-41.8	21.9	6.02e-01	0	56	0	870842368	50	4747
2026-01-12 00:38:14.46	153.47	18.64	-39.7	-41.8	21.9	6.02e-01	0	56	0	872939520	50	4748
2026-01-12 00:38:15.47	153.63	18.52	-39.6	-41.7	22.0	6.05e-01	0	56	0	874512384	50	4697
2026-01-12 00:38:16.48	153.80	18.41	-39.6	-41.7	22.0	6.01e-01	0	56	0	876609536	50	4691
2026-01-12 00:38:17.49	153.96	18.29	-39.6	-41.7	22.0	6.03e-01	0	56	0	878182400	50	4703
2026-01-12 00:38:18.50	154.11	18.18	-39.7	-41.8	21.9	6.02e-01	0	56	0	880279552	50	4732
2026-01-12 00:38:19.51	154.27	18.07	-39.5	-41.6	22.1	6.05e-01	0	56	0	882376704	50	4629
2026-01-12 00:38:20.52	154.43	17.95	-39.4	-41.5	22.2	6.03e-01	0	56	0	883949568	50	4575
2026-01-12 00:38:21.53	154.58	17.84	-39.4	-41.5	22.2	6.02e-01	0	56	0	886046720	50	4590
2026-01-12 00:38:22.54	154.74	17.73	-39.4	-41.5	22.2	6.02e-01	0	56	0	887619584	50	4569
2026-01-12 00:38:23.55	154.89	17.62	-39.4	-41.4	22.3	6.02e-01	0	56	0	889716736	50	4521
2026-01-12 00:38:24.56	155.04	17.50	-39.4	-41.5	22.2	6.04e-01	0	56	0	891813888	50	4549
2026-01-12 00:38:25.57	155.19	17.39	-39.4	-41.5	22.1	6.04e-01	0	56	0	893386752	50	4585
2026-01-12 00:38:26.57	155.34	17.28	-39.5	-41.6	22.1	6.03e-01	0	56	0	895483904	50	4622
2026-01-12 00:38:27.58	155.49	17.17	-39.6	-41.8	21.9	6.02e-01	0	56	0	897581056	50	4715
2026-01-12 00:38:28.59	155.63	17.06	-39.7	-41.9	21.8	6.01e-01	0	56	0	899153920	50	4780
2026-01-12 00:38:29.60	155.78	16.95	-39.8	-42.1	21.6	6.01e-01	0	56	0	901251072	50	4883
2026-01-12 00:38:30.61	155.92	16.85	-39.7	-41.9	21.8	6.03e-01	0	56	0	902823936	50	4790
2026-01-12 00:38:31.62	156.07	16.74	-39.6	-41.7	22.0	6.02e-01	0	56	0	904921088	50	4683
2026-01-12 00:38:32.63	156.21	16.63	-39.5	-41.6	22.1	6.03e-01	0	56	0	907018240	50	4627
2026-01-12 00:38:33.64	156.35	16.52	-39.5	-41.7	22.0	6.04e-01	0	56	0	908591104	50	4653
2026-01-12 00:38:34.65	156.49	16.41	-39.5	-41.6	22.1	6.02e-01	0	56	0	910688256	50	4608
2026-01-12 00:38:35.66	156.63	16.30	-39.5	-41.7	22.0	6.03e-01	0	56	0	912261120	50	4654
2026-01-12 00:38:36.67	156.77	16.20	-39.6	-41.8	21.9	6.02e-01	0	56	0	914358272	50	4716
2026-01-12 00:38:37.68	156.91	16.09	-39.6	-41.8	21.9	6.04e-01	0	56	0	916455424	50	4723
2026-01-12 00:38:38.69	157.04	15.99	-39.6	-41.7	21.9	5.99e-01	0	56	0	918028288	50	4698
2026-01-12 00:38:39.70	157.18	15.88	-39.6	-41.8	21.8	6.01e-01	0	56	0	920125440	50	4729
2026-01-12 00:38:40.71	157.31	15.77	-39.5	-41.7	21.9	6.04e-01	0	56	0	922222592	50	4678
2026-01-12 00:38:41.72	157.45	15.67	-39.6	-41.8	21.9	6.02e-01	0	56	0	923795456	50	4715
2026-01-12 00:38:42.73	157.58	15.56	-39.5	-41.7	22.0	6.02e-01	0	56	0	925892608	50	4661
2026-01-12 00:38:43.74	157.71	15.46	-39.5	-41.6	22.0	6.03e-01	0	56	0	927465472	50	4643
2026-01-12 00:38:44.75	157.84	15.36	-39.5	-41.6	22.0	6.05e-01	0	56	0	929562624	50	4613
2026-01-12 00:38:45.76	157.97	15.25	-39.5	-41.6	21.7	6.02e-01	0	56	0	931659776	50	4616
2026-01-12 00:38:46.77	158.10	15.15	-39.5	-41.6	22.0	6.05e-01	0	56	0	933232640	50	4622
2026-01-12 00:38:47.78	158.23	15.05	-39.5	-41.6	22.0	6.04e-01	0	56	0	935329792	50	4627
2026-01-12 00:38:48.79	158.35	14.94	-39.5	-41.6	21.9	6.04e-01	0	56	0	936902656	50	4645
2026-01-12 00:38:49.80	158.48	14.84	-39.5	-41.7	21.9	6.04e-01	0	56	0	938999808	50	4666
2026-01-12 00:38:50.81	158.61	14.74	-39.6	-41.8	21.7	6.02e-01	0	56	0	941096960	50	4750
2026-01-12 00:38:51.82	158.73	14.64	-39.6	-41.7	21.8	6.04e-01	0	56	0	942669824	50	4701
2026-01-12 00:38:52.82	158.85	14.54	-39.5	-41.7	21.9	6.02e-01	0	56	0	944766976	50	4666
2026-01-12 00:38:53.83	158.97	14.44	-39.5	-41.7	21.9	6.05e-01	0	56	0	946339840	50	4654
2026-01-12 00:38:54.84	159.10	14.34	-39.6	-41.7	21.8	6.04e-01	0	56	0	948436992	50	4700
2026-01-12 00:38:55.85	159.22	14.24	-39.6	-41.9	21.7	6.05e-01	0	56	0	950534144	50	4760
2026-01-12 00:38:56.86	159.34	14.14	-39.6	-41.8	21.7	6.02e-01	0	56	0	952107008	50	4735
2026-01-12 00:38:57.87	159.46	14.04	-39.6	-41.8	21.7	6.04e-01	0	56	0	954204160	50	4722
2026-01-12 00:38:58.88	159.57	13.94	-39.6	-41.8	21.7	6.02e-01	0	56	0	955777024	50	4739
2026-01-12 00:38:59.89	159.69	13.84	-39.6	-41.8	21.7	6.04e-01	0	56	0	957874176	50	4725
2026-01-12 00:39:00.90	159.81	13.74	-39.7	-41.9	21.7	6.03e-01	0	56	0	959971328	50	4775
2026-01-12 00:39:01.91	159.92	13.64	-39.6	-41.8	21.7	6.02e-01	0	56	0	961544192	50	4735
2026-01-12 00:39:02.91	160.04	13.55	-39.6	-41.8	21.7	6.03e-01	0	56	0	963641344	50	4723
2026-01-12 00:39:03.92	160.15	13.45	-39.6	-41.9	21.6	6.00e-01	0	56	0	965738496	50	4767
2026-01-12 00:39:04.93	160.27	13.35	-39.6	-41.8	21.7	6.03e-01	0	56	0	967311360	50	4746
2026-01-12 00:39:05.94	160.38	13.25	-39.7	-41.9	21.6	6.02e-01	0	56	0	969408512	50	4793
2026-01-12 00:39:06.95	160.49	13.16	-39.7	-41.9	21.6	6.05e-01	0	56	0	970981376	50	4774
2026-01-12 00:39:07.96	160.60	13.06	-39.7	-41.9	21.5	6.02e-01	0	56	0	973078528	50	4804
2026-01-12 00:39:08.97	160.71	12.97	-39.7	-42.0	21.5	6.03e-01	0	56	0	975175680	50	4820
2026-01-12 00:39:09.98	160.82	12.87	-39.8	-42.1	21.4	6.02e-01	0	56	0	976748544	50	4884
2026-01-12 00:39:10.99	160.93	12.78	-39.7	-42.0	21.4	6.03e-01	0	56	0	978845696	50	4842
2026-01-12 00:39:12.00	161.04	12.68	-39.7	-42.0	21.4	6.04e-01	0	56	0	980418560	50	4830
2026-01-12 00:39:13.01	161.15	12.59	-39.7	-41.9	21.5	6.05e-01	0	56	0	982515712	50	4795
2026-01-12 00:39:14.02	161.25	12.49	-39.7	-42.0	21.4	6.06e-01	0	56	0	984612864	50	4816
2026-01-12 00:39:15.03	161.36	12.40	-39.6	-41.9	21.5	6.04e-01	0	56	0	986185728	50	4778
2026-01-12 00:39:16.04	161.47	12.30	-39.7	-41.9	21.5	6.02e-01	0	56	0	988282880	50	4800
2026-01-12 00:39:17.05	161.57	12.21	-39.7	-42.0	21.4	6.03e-01	0	56	0	990380032	50	4857
2026-01-12 00:39:18.06	161.67	12.12	-39.7	-42.0	21.4	6.01e-01	0	56	0	991952896	50	4843
2026-01-12 00:39:19.07	161.78	12.03	-39.8	-42.1	21.3	6.04e-01	0	56	0	994050048	50	4895
2026-01-12 00:39:20.08	161.88	11.93	-39.8	-42.1	21.2	6.03e-01	0	56	0	995622912	50	4895
2026-01-12 00:39:21.09	161.98	11.84	-39.8	-42.1	21.2	6.03e-01	0	56	0	997720064	50	4913
2026-01-12 00:39:22.10	162.08	11.75	-39.8	-42.2	21.1	6.01e-01	0	56	0	999292928	50	4949
2026-01-12 00:39:23.10	162.18	11.66	-39.8	-42.1	21.1	6.05e-01	0	56	0	1001390080	50	4924
2026-01-12 00:39:24.11	162.28	11.57	-39.8	-42.1	21.2	6.01e-01	0	56	0	1003487232	50	4890
2026-01-12 00:39:25.12	162.38	11.48	-39.8	-42.1	21.2	6.07e-01	0	56	0	1005060096	50	4899
2026-01-12 00:39:26.13	162.48	11.39	-39.8	-42.1	21.2	6.03e-01	0	56	0	1007157248	50	4884
2026-01-12 00:39:27.14	162.58	11.30	-39.8	-42.1	21.2	6.04e-01	0	56	0	1008730112	50	4903
2026-01-12 00:39:28.15	162.68	11.21	-39.9	-42.2	21.1	6.05e-01	0	56	0	1010827264	50	4959
2026-01-12 00:39:29.16	162.77	11.12	-40.0	-42.3	21.0	6.06e-01	0	56	0	1012924416	50	5036
2026-01-12 00:39:30.17	162.87	11.03	-39.9	-42.2	21.0	6.03e-01	0	56	0	1014497280	50	4954
2026-01-12 00:39:31.18	162.97	10.94	-39.8	-42.1	21.1	6.03e-01	0	56	0	1016594432	50	4922
2026-01-12 00:39:32.19	163.06	10.85	-39.9	-42.2	20.9	6.03e-01	0	56	0	1018691584	50	4980
2026-01-12 00:39:33.20	163.16	10.76	-39.8	-42.1	21.1	6.04e-01	0	56	0	1020264448	50	4922
2026-01-12 00:39:34.21	163.25	10.68	-39.8	-42.2	21.0	6.04e-01	0	56	0	1022361600	50	4954
2026-01-12 00:39:35.22	163.34	10.59	-39.9	-42.3	21.0	6.04e-01	0	56	0	1023934464	50	4995
2026-01-12 00:39:36.23	163.44	10.50	-39.9	-42.3	21.0	6.04e-01	0	56	0	1026031616	50	4988
2026-01-12 00:39:37.24	163.53	10.41	-40.0	-42.4	20.8	6.03e-01	0	56	0	1028128768	50	5063
2026-01-12 00:39:38.25	163.62	10.33	-39.9	-42.3	20.8	6.04e-01	0	56	0	1029701632	50	5020
2026-01-12 00:39:39.26	163.71	10.24	-39.9	-42.3	20.9	6.04e-01	0	56	0	1031798784	50	5006
2026-01-12 00:39:40.27	163.80	10.15	-39.9	-42.4	20.8	6.03e-01	0	56	0	1033895936	50	5056
2026-01-12 00:39:41.28	163.89	10.07	-40.0	-42.4	20.7	6.03e-01	0	56	0	1035468800	50	5098
2026-01-12 00:39:42.29	163.98	9.98	-40.0	-42.5	20.7	6.04e-01	0	56	0	1037565952	50	5103
2026-01-12 00:39:43.30	164.07	9.90	-40.0	-42.6	20.6	6.03e-01	0	56	0	1039138816	50	5161
2026-01-12 00:39:44.31	164.16	9.81	-40.0	-42.5	20.6	6.03e-01	0	56	0	1041235968	50	5158
2026-01-12 00:39:45.32	164.25	9.73	-40.1	-42.7	20.4	6.00e-01	0	56	0	1043333120	50	5248
2026-01-12 00:39:46.33	164.33	9.64	-40.1	-42.7	20.4	6.04e-01	0	56	0	1044905984	50	5253
2026-01-12 00:39:47.34	164.42	9.56	-40.2	-42.7	20.3	6.05e-01	0	56	0	1047003136	50	5272
2026-01-12 00:39:48.35	164.51	9.47	-40.2	-42.8	20.2	6.06e-01	0	56	0	1048576000	50	5314
2026-01-12 00:39:49.36	164.59	9.39	-40.2	-42.8	20.2	6.02e-01	0	56	0	1050673152	50	5305
2026-01-12 00:39:50.37	164.68	9.30	-40.2	-42.8	20.2	6.03e-01	0	56	0	1052770304	50	5290
2026-01-12 00:39:51.38	164.76	9.22	-40.3	-42.9	20.2	6.05e-01	0	56	0	1054343168	51	5066
2026-01-12 00:39:52.39	164.85	9.14	-40.3	-42.9	20.0	6.04e-01	0	56	0	1056440320	51	5100
2026-01-12 00:39:53.40	164.93	9.06	-40.4	-43.1	19.9	6.04e-01	0	56	0	1058537472	51	5176
2026-01-12 00:39:54.41	165.01	8.97	-40.3	-43.0	20.0	6.04e-01	0	56	0	1060110336	51	5130
2026-01-12 00:39:55.42	165.10	8.89	-40.2	-42.9	20.1	6.03e-01	0	56	0	1062207488	51	5073
2026-01-12 00:39:56.43	165.18	8.81	-40.2	-42.8	20.1	6.02e-01	0	56	0	1063780352	51	5025
2026-01-12 00:39:57.44	165.26	8.73	-40.2	-42.9	20.1	6.04e-01	0	56	0	1065877504	51	5043
2026-01-12 00:39:58.45	165.34	8.65	-40.2	-42.8	20.1	6.02e-01	0	56	0	1067974656	51	5020
2026-01-12 00:39:59.46	165.42	8.56	-40.2	-42.9	20.0	6.04e-01	0	56	0	1069547520	51	5045
2026-01-12 00:40:00.47	165.50	8.48	-40.3	-43.0	19.9	6.06e-01	0	56	0	1071644672	51	5128
2026-01-12 00:40:01.48	165.58	8.40	-40.3	-43.0	19.9	6.04e-01	0	56	0	1073217536	51	5123
2026-01-12 00:40:02.49	165.66	8.32	-40.3	-43.0	19.8	6.03e-01	0	56	0	1075314688	51	5128
2026-01-12 00:40:03.50	165.74	8.24	-40.3	-43.1	19.7	6.02e-01	0	56	0	1077411840	51	5205
2026-01-12 00:40:04.51	165.82	8.16	-40.4	-43.2	19.5	6.04e-01	0	56	0	1078984704	51	5227
2026-01-12 00:40:05.52	165.90	8.08	-40.3	-43.2	19.5	6.02e-01	0	56	0	1081081856	51	5224
2026-01-12 00:40:06.53	165.98	8.00	-41.6	-45.2	18.1	6.01e-01	0	56	0	1082654720	53	5883
2026-01-12 00:40:07.54	166.05	7.92	-45.4	-63.7	3.8	7.45e-01	0	56	104	1083703296	61	31183
2026-01-12 00:40:08.55	166.13	7.84	-45.7	-64.4	3.8	7.48e-01	0	56	104	1083703296	61	33862
2026-01-12 00:40:09.56	166.21	7.76	-45.9	-64.5	3.8	7.46e-01	0	56	104	1083703296	62	32454
2026-01-12 00:40:10.57	166.28	7.69	-46.0	-64.7	3.8	7.43e-01	0	56	104	1083703296	62	33269
2026-01-12 00:40:11.59	166.36	7.61	-46.1	-64.9	3.8	7.44e-01	0	56	104	1083703296	62	33716
2026-01-12 00:40:12.60	166.43	7.53	-46.1	-64.9	3.8	7.47e-01	0	56	104	1083703296	62	33942
2026-01-12 00:40:13.60	166.51	7.45	-46.1	-65.0	3.8	7.45e-01	0	56	104	1083703296	62	34100
2026-01-12 00:40:14.61	166.58	7.37	-46.1	-65.0	3.8	7.44e-01	0	56	104	1083703296	62	34154
2026-01-12 00:40:15.62	166.66	7.30	-46.1	-65.0	3.8	7.44e-01	0	56	104	1083703296	62	34161
2026-01-12 00:40:16.64	166.73	7.22	-46.1	-65.0	3.8	7.46e-01	0	56	104	1083703296	62	34209
2026-01-12 00:40:17.65	166.80	7.14	-46.1	-65.0	3.8	7.47e-01	0	56	104	1083703296	62	34274
2026-01-12 00:40:18.66	166.88	7.06	-46.1	-64.9	3.8	7.42e-01	0	56	104	1083703296	62	34064
2026-01-12 00:40:19.67	166.95	6.99	-46.1	-64.9	3.8	7.44e-01	0	56	104	1083703296	62	34084
2026-01-12 00:40:20.68	167.02	6.91	-46.0	-64.9	3.8	7.42e-01	0	56	104	1083703296	62	34062
2026-01-12 00:40:21.69	167.09	6.83	-46.0	-64.9	3.8	7.49e-01	0	56	104	1083703296	62	33986
2026-01-12 00:40:22.70	167.16	6.76	-46.1	-64.9	3.8	7.42e-01	0	56	104	1083703296	62	33997
2026-01-12 00:40:23.71	167.23	6.68	-46.0	-64.9	3.8	7.46e-01	0	56	104	1083703296	62	33872
2026-01-12 00:40:24.72	167.30	6.61	-46.0	-64.9	3.8	7.44e-01	0	56	104	1083703296	62	33794
2026-01-12 00:40:25.73	167.37	6.53	-46.0	-64.9	3.8	7.48e-01	0	56	104	1083703296	62	33795
2026-01-12 00:40:26.74	167.44	6.46	-46.0	-64.9	3.8	7.45e-01	0	56	104	1083703296	62	33774
2026-01-12 00:40:27.75	167.51	6.38	-46.0	-64.9	3.8	7.44e-01	0	56	104	1083703296	62	33729
2026-01-12 00:40:28.76	167.58	6.31	-46.0	-64.9	3.8	7.43e-01	0	56	104	1083703296	62	33761
2026-01-12 00:40:29.78	167.65	6.23	-46.0	-64.8	3.8	7.41e-01	0	56	104	1083703296	62	33601
2026-01-12 00:40:30.79	167.72	6.16	-46.0	-64.8	3.8	7.46e-01	0	56	104	1083703296	62	33621
2026-01-12 00:40:31.80	167.79	6.08	-46.0	-64.8	3.8	7.44e-01	0	56	104	1083703296	62	33560
2026-01-12 00:40:32.81	167.85	6.01	-46.0	-64.8	3.8	7.45e-01	0	56	104	1083703296	62	33650
2026-01-12 00:40:33.82	167.92	5.94	-46.0	-64.8	3.8	7.44e-01	0	56	104	1083703296	62	33593
2026-01-12 00:40:34.83	167.99	5.86	-46.0	-64.8	3.8	7.45e-01	0	56	104	1083703296	62	33643
2026-01-12 00:40:35.84	168.05	5.79	-46.0	-64.8	3.8	7.47e-01	0	56	104	1083703296	62	33594
2026-01-12 00:40:36.85	168.12	5.72	-46.0	-64.8	3.8	7.45e-01	0	56	104	1083703296	62	33599
2026-01-12 00:40:37.86	168.18	5.64	-46.0	-64.8	3.8	7.45e-01	0	56	104	1083703296	62	33617
2026-01-12 00:40:38.87	168.25	5.57	-46.0	-64.8	3.8	7.43e-01	0	56	104	1083703296	62	33627
2026-01-12 00:40:39.88	168.31	5.50	-45.9	-64.8	3.8	7.45e-01	0	56	104	1083703296	62	33646
2026-01-12 00:40:40.90	168.38	5.43	-46.0	-64.8	3.8	7.42e-01	0	56	104	1083703296	62	33534
2026-01-12 00:40:41.91	168.44	5.35	-46.0	-64.8	3.8	7.44e-01	0	56	104	1083703296	62	33599
2026-01-12 00:40:42.92	168.51	5.28	-46.0	-64.8	3.8	7.45e-01	0	56	104	1083703296	62	33521
2026-01-12 00:40:43.93	168.57	5.21	-46.0	-64.8	3.8	7.41e-01	0	56	104	1083703296	62	33560
2026-01-12 00:40:44.94	168.64	5.14	-45.9	-64.8	3.8	7.44e-01	0	56	104	1083703296	62	33601
2026-01-12 00:40:45.95	168.70	5.07	-45.9	-64.8	3.8	7.44e-01	0	57	104	1083703296	62	33445
2026-01-12 00:40:46.96	168.76	5.00	-46.0	-64.8	3.8	7.46e-01	0	56	104	1083703296	62	33521
2026-01-12 00:40:47.97	168.82	4.92	-46.0	-64.8	3.8	7.48e-01	0	56	104	1083703296	62	33577
2026-01-12 00:40:48.98	168.89	4.85	-45.9	-64.8	3.8	7.44e-01	0	56	104	1083703296	62	33539
2026-01-12 00:40:50.00	168.95	4.78	-46.0	-64.8	3.8	7.45e-01	0	56	104	1083703296	62	33536
2026-01-12 00:40:51.01	169.01	4.71	-46.0	-64.8	3.8	7.45e-01	0	56	104	1083703296	62	33604
