passes_logs/2026/01/12/R2.0S_Moscow/R2.0S_Moscow__20260112_144636_FENGYUN_3E_rec.log

#Pass ID: 20260112_144636_FENGYUN 3E
#Satellite: FENGYUN 3E
#Configuration: FENGYUN 3E
#almurnet v.1.7.20251203
#Start time: 2026-01-12 14:46:38

#Version: 2.2.20231116
#Station: R2.0S_Moscow
#Location: 37.707566 lon 55.798166 lat
#TLE: 1 49008U 21062A   26011.97558190  .00000066  00000+0  51928-4 0  9996
#TLE: 2 49008  98.7491  17.1395 0001916 144.4283 215.7021 14.19885193234411

#Time	Az	El	Level	Level2	SNR	BER	BlckErr	Temp	State	Recorded	gain1	gain2
2026-01-12 14:46:38.63	177.59	2.14	-44.1	-55.0	3.8	8.45e-01	0	50	0	0	59	12196
2026-01-12 14:46:39.64	177.62	2.20	-44.1	-55.0	3.8	8.44e-01	0	50	104	0	59	12162
2026-01-12 14:46:40.65	177.65	2.27	-44.1	-55.1	3.8	8.45e-01	0	50	104	0	59	12266
2026-01-12 14:46:41.67	177.67	2.33	-44.1	-55.0	3.8	8.46e-01	0	50	104	0	59	12155
2026-01-12 14:46:42.68	177.70	2.40	-44.1	-55.0	3.8	8.46e-01	0	51	104	0	59	12233
2026-01-12 14:46:43.69	177.73	2.46	-44.1	-55.0	3.8	8.47e-01	0	50	104	0	59	12176
2026-01-12 14:46:44.70	177.76	2.53	-44.1	-55.0	3.8	8.46e-01	0	51	104	0	59	12181
2026-01-12 14:46:45.71	177.79	2.59	-44.1	-55.0	3.8	8.45e-01	0	51	104	0	59	12189
2026-01-12 14:46:46.72	177.82	2.66	-44.1	-55.0	3.8	8.46e-01	0	51	104	0	59	12196
2026-01-12 14:46:47.73	177.85	2.72	-44.1	-55.0	3.8	8.47e-01	0	51	104	0	59	12174
2026-01-12 14:46:48.74	177.88	2.79	-44.1	-55.0	3.8	8.46e-01	0	51	104	0	59	12205
2026-01-12 14:46:49.75	177.91	2.85	-44.1	-55.0	3.8	8.46e-01	0	51	104	0	59	12154
2026-01-12 14:46:50.76	177.94	2.92	-44.1	-55.1	3.8	8.46e-01	0	51	104	0	59	12251
2026-01-12 14:46:51.77	177.97	2.98	-44.1	-55.0	3.8	8.47e-01	0	51	104	0	59	12158
2026-01-12 14:46:52.79	178.00	3.05	-44.1	-55.0	3.8	8.47e-01	0	51	104	0	59	12205
2026-01-12 14:46:53.80	178.03	3.12	-44.1	-55.0	3.8	8.47e-01	0	52	104	0	59	12225
2026-01-12 14:46:54.81	178.07	3.18	-44.1	-55.0	3.8	8.46e-01	0	52	104	0	59	12161
2026-01-12 14:46:55.82	178.10	3.25	-44.1	-55.0	3.8	8.47e-01	0	52	104	0	59	12155
2026-01-12 14:46:56.83	178.13	3.32	-44.1	-55.0	3.8	8.47e-01	0	52	104	0	59	12144
2026-01-12 14:46:57.84	178.16	3.38	-44.1	-55.0	3.8	8.46e-01	0	52	104	0	59	12166
2026-01-12 14:46:58.85	178.19	3.45	-44.1	-55.0	3.8	8.47e-01	0	52	104	0	59	12153
2026-01-12 14:46:59.86	178.22	3.52	-44.1	-55.0	3.8	8.46e-01	0	52	104	0	59	12137
2026-01-12 14:47:00.87	178.25	3.58	-44.1	-55.0	3.8	8.46e-01	0	52	104	0	59	12205
2026-01-12 14:47:01.88	178.28	3.65	-44.1	-55.0	3.8	8.46e-01	0	52	104	0	59	12140
2026-01-12 14:47:02.90	178.32	3.72	-44.1	-55.0	3.8	8.46e-01	0	52	104	0	59	12155
2026-01-12 14:47:03.91	178.35	3.79	-44.1	-55.0	3.8	8.46e-01	0	52	104	0	59	12178
2026-01-12 14:47:04.92	178.38	3.85	-44.1	-55.0	3.8	8.47e-01	0	52	104	0	59	12186
2026-01-12 14:47:05.93	178.41	3.92	-44.1	-55.0	3.8	8.47e-01	0	52	104	0	59	12158
2026-01-12 14:47:06.94	178.44	3.99	-44.1	-55.0	3.8	8.47e-01	0	52	104	0	59	12154
2026-01-12 14:47:07.95	178.48	4.06	-44.1	-55.0	3.8	8.47e-01	0	52	104	0	59	12129
2026-01-12 14:47:08.96	178.51	4.13	-44.1	-55.0	3.8	8.46e-01	0	52	104	0	59	12190
2026-01-12 14:47:09.97	178.54	4.19	-44.1	-55.0	3.8	8.46e-01	0	53	104	0	59	12209
2026-01-12 14:47:10.98	178.58	4.26	-44.1	-55.0	3.8	8.46e-01	0	52	104	0	59	12158
2026-01-12 14:47:12.00	178.61	4.33	-44.1	-55.0	3.8	8.45e-01	0	53	104	0	59	12184
2026-01-12 14:47:13.01	178.64	4.40	-44.1	-55.0	3.8	8.45e-01	0	53	104	0	59	12167
2026-01-12 14:47:14.02	178.68	4.47	-44.1	-55.0	3.8	8.46e-01	0	53	104	0	59	12211
2026-01-12 14:47:15.03	178.71	4.54	-44.1	-55.0	3.8	8.46e-01	0	53	104	0	59	12184
2026-01-12 14:47:16.04	178.74	4.61	-44.1	-55.0	3.8	8.46e-01	0	53	104	0	59	12155
2026-01-12 14:47:17.05	178.78	4.68	-44.1	-55.0	3.8	8.46e-01	0	53	104	0	59	12105
2026-01-12 14:47:18.06	178.81	4.75	-44.1	-54.9	3.8	8.47e-01	0	53	104	0	59	12088
2026-01-12 14:47:19.07	178.84	4.82	-44.1	-54.9	3.8	8.45e-01	0	53	104	0	59	12041
2026-01-12 14:47:20.08	178.88	4.89	-44.1	-54.8	3.8	8.46e-01	0	53	104	0	59	11922
2026-01-12 14:47:21.09	178.91	4.96	-44.0	-54.7	3.8	8.45e-01	0	53	104	0	59	11800
2026-01-12 14:47:22.11	178.95	5.03	-44.0	-54.5	3.8	8.47e-01	0	53	104	0	59	11435
2026-01-12 14:47:23.12	178.98	5.10	-44.0	-54.2	3.8	8.46e-01	0	54	104	0	58	11762
2026-01-12 14:47:24.13	179.02	5.17	-43.9	-53.7	3.8	8.46e-01	0	53	104	0	58	11146
2026-01-12 14:47:25.14	179.05	5.25	-43.8	-53.1	3.9	8.46e-01	0	53	104	0	58	10400
2026-01-12 14:47:26.15	179.09	5.32	-43.7	-52.4	3.9	8.43e-01	0	53	104	0	58	9533
2026-01-12 14:47:27.16	179.12	5.39	-43.5	-51.7	4.1	8.39e-01	0	54	0	0	58	8767
2026-01-12 14:47:28.17	179.16	5.46	-43.4	-51.1	4.3	8.34e-01	0	54	0	0	57	8689
2026-01-12 14:47:29.18	179.19	5.53	-43.3	-50.8	4.4	8.28e-01	0	54	0	0	57	8372
2026-01-12 14:47:30.19	179.23	5.60	-43.3	-50.6	4.5	8.26e-01	0	54	0	0	57	8229
2026-01-12 14:47:31.20	179.27	5.68	-43.4	-50.9	4.4	8.30e-01	0	54	0	0	57	8507
2026-01-12 14:47:32.21	179.30	5.75	-43.3	-50.7	4.5	8.26e-01	0	54	0	0	57	8296
2026-01-12 14:47:33.22	179.34	5.82	-43.2	-50.1	4.7	8.12e-01	0	54	0	0	57	7782
2026-01-12 14:47:34.23	179.37	5.90	-43.0	-49.4	5.0	7.68e-01	0	54	0	0	56	7555
2026-01-12 14:47:35.24	179.41	5.97	-43.0	-49.4	5.0	7.56e-01	0	54	0	0	56	7610
2026-01-12 14:47:36.26	179.45	6.04	-43.0	-49.5	5.0	7.69e-01	0	54	0	0	56	7636
2026-01-12 14:47:37.27	179.48	6.12	-42.9	-49.2	5.1	7.62e-01	0	54	0	0	56	7420
2026-01-12 14:47:38.28	179.52	6.19	-42.7	-48.7	5.5	7.31e-01	0	54	0	0	56	6972
2026-01-12 14:47:39.29	179.56	6.26	-42.7	-48.6	5.6	6.75e-01	0	54	0	1048576	56	6892
2026-01-12 14:47:40.30	179.60	6.34	-42.8	-48.8	5.3	7.31e-01	0	54	0	3145728	56	7112
2026-01-12 14:47:41.31	179.63	6.41	-42.7	-48.7	5.5	7.13e-01	0	54	0	5242880	56	6967
2026-01-12 14:47:42.32	179.67	6.49	-42.7	-48.5	5.6	6.87e-01	0	54	0	8388608	56	6860
2026-01-12 14:47:43.33	179.71	6.56	-42.6	-48.4	5.6	6.58e-01	0	54	0	12582912	56	6785
2026-01-12 14:47:44.34	179.75	6.64	-42.5	-48.1	5.9	4.49e-01	0	54	0	18874368	56	6515
2026-01-12 14:47:45.35	179.79	6.71	-42.5	-48.1	5.9	4.25e-01	0	54	0	25165824	56	6529
2026-01-12 14:47:46.37	179.83	6.79	-42.2	-47.4	6.3	3.06e-01	0	54	0	32505856	55	6378
2026-01-12 14:47:47.38	179.86	6.86	-42.0	-46.9	6.7	2.38e-01	0	55	0	39845888	55	6035
2026-01-12 14:47:48.39	179.90	6.94	-41.7	-46.3	7.2	1.52e-01	0	55	0	47185920	54	5951
2026-01-12 14:47:49.40	179.94	7.02	-41.4	-45.7	7.8	8.91e-02	0	55	0	54525952	53	5895
2026-01-12 14:47:50.41	179.98	7.09	-41.0	-44.9	8.6	4.06e-02	0	54	0	61865984	52	5709
2026-01-12 14:47:51.42	180.02	7.17	-40.7	-44.3	9.2	2.95e-02	0	55	0	69206016	52	5322
2026-01-12 14:47:52.43	180.06	7.24	-40.5	-43.9	9.6	1.55e-02	0	55	0	76546048	51	5383
2026-01-12 14:47:53.44	180.10	7.32	-40.0	-43.2	10.4	6.18e-03	0	55	0	83886080	51	4939
2026-01-12 14:47:54.45	180.14	7.40	-39.7	-42.6	11.0	1.98e-03	0	55	0	91226112	50	4912
2026-01-12 14:47:55.47	180.18	7.48	-39.5	-42.4	11.3	2.15e-03	0	55	0	98566144	50	4762
2026-01-12 14:47:56.48	180.22	7.55	-39.2	-42.0	11.6	7.87e-04	0	55	0	105906176	49	4846
2026-01-12 14:47:57.49	180.26	7.63	-39.0	-41.7	11.9	4.37e-04	0	55	0	113246208	49	4691
2026-01-12 14:47:58.50	180.30	7.71	-38.8	-41.4	12.2	2.76e-04	0	55	0	120586240	48	4805
2026-01-12 14:47:59.51	180.35	7.79	-38.8	-41.4	12.2	3.12e-04	0	55	0	127926272	48	4805
2026-01-12 14:48:00.52	180.39	7.87	-38.9	-41.5	12.2	2.08e-04	0	55	0	135266304	48	4832
2026-01-12 14:48:01.53	180.43	7.95	-38.9	-41.5	12.2	2.63e-04	0	55	0	142606336	48	4829
2026-01-12 14:48:02.54	180.47	8.02	-39.3	-42.0	11.6	5.69e-04	0	55	0	149946368	48	5153
2026-01-12 14:48:03.55	180.51	8.10	-39.1	-41.8	11.9	5.19e-04	0	55	0	157286400	48	5000
2026-01-12 14:48:04.57	180.55	8.18	-41.2	-45.0	8.7	1.58e-03	0	55	0	164626432	51	6117
2026-01-12 14:48:05.57	180.60	8.26	-39.0	-41.6	12.1	6.16e-01	0	55	0	167772160	49	4621
2026-01-12 14:48:06.58	180.64	8.34	-39.9	-42.7	11.2	7.87e-04	0	55	0	176160768	50	4981
2026-01-12 14:48:07.59	180.68	8.42	-39.5	-42.2	11.7	9.61e-05	0	55	0	182452224	48	5260
2026-01-12 14:48:08.60	180.72	8.50	-40.4	-43.7	10.0	3.02e-01	0	55	0	186646528	51	5220
2026-01-12 14:48:09.61	180.77	8.58	-38.6	-41.1	12.8	6.63e-05	0	56	0	193986560	48	4614
2026-01-12 14:48:10.62	180.81	8.66	-38.2	-40.6	13.1	3.89e-05	0	55	0	201326592	47	4636
2026-01-12 14:48:11.63	180.86	8.75	-38.1	-40.4	13.3	3.66e-05	0	56	0	208666624	47	4540
2026-01-12 14:48:12.64	180.90	8.83	-38.3	-40.7	13.0	3.43e-05	0	56	0	216006656	47	4696
2026-01-12 14:48:13.65	180.94	8.91	-38.2	-40.6	13.2	4.00e-05	0	56	0	223346688	47	4614
2026-01-12 14:48:14.66	180.99	8.99	-38.0	-40.4	13.4	1.02e-05	0	55	0	230686720	47	4495
2026-01-12 14:48:15.67	181.03	9.07	-38.0	-40.3	13.5	9.10e-06	0	56	0	238026752	46	4757
2026-01-12 14:48:16.68	181.08	9.16	-38.1	-40.5	13.4	2.17e-05	0	56	0	245366784	46	4832
2026-01-12 14:48:17.69	181.12	9.24	-38.1	-40.4	13.5	1.02e-05	0	56	0	252706816	46	4782
2026-01-12 14:48:18.70	181.17	9.32	-38.0	-40.3	13.5	1.25e-05	0	56	0	260046848	46	4753
2026-01-12 14:48:19.71	181.21	9.40	-38.0	-40.3	13.6	1.60e-05	0	56	0	267386880	46	4723
2026-01-12 14:48:20.72	181.26	9.49	-37.8	-40.0	13.8	6.80e-06	0	56	0	273678336	46	4594
2026-01-12 14:48:21.73	181.31	9.57	-37.8	-40.0	13.9	5.70e-06	0	56	0	281018368	46	4569
2026-01-12 14:48:22.74	181.35	9.66	-37.9	-40.1	13.7	6.80e-06	0	56	0	289406976	46	4644
2026-01-12 14:48:23.75	181.40	9.74	-37.8	-40.0	13.8	6.80e-06	0	56	0	295698432	46	4594
2026-01-12 14:48:24.76	181.45	9.82	-37.9	-40.1	13.8	3.40e-06	0	56	0	303038464	46	4638
2026-01-12 14:48:25.77	181.49	9.91	-37.9	-40.1	13.8	4.50e-06	0	56	0	310378496	46	4633
2026-01-12 14:48:26.78	181.54	9.99	-38.0	-40.3	13.7	4.50e-06	0	56	0	317718528	46	4716
2026-01-12 14:48:27.79	181.59	10.08	-37.9	-40.2	13.7	4.50e-06	0	56	0	325058560	46	4697
2026-01-12 14:48:28.80	181.63	10.17	-37.8	-40.0	13.9	4.50e-06	0	56	0	332398592	46	4598
2026-01-12 14:48:29.81	181.68	10.25	-37.9	-40.1	13.8	5.70e-06	0	56	0	339738624	46	4631
2026-01-12 14:48:30.82	181.73	10.34	-37.9	-40.1	13.8	3.40e-06	0	56	0	347078656	46	4643
2026-01-12 14:48:31.82	181.78	10.42	-37.8	-40.1	13.9	2.20e-06	0	56	0	354418688	46	4622
2026-01-12 14:48:32.83	181.83	10.51	-37.8	-40.1	13.9	1.14e-05	0	56	0	361758720	46	4607
2026-01-12 14:48:33.84	181.88	10.60	-37.8	-40.0	13.9	2.20e-06	0	56	0	369098752	46	4595
2026-01-12 14:48:34.86	181.93	10.69	-37.7	-39.9	14.1	4.50e-06	0	56	0	376438784	46	4512
2026-01-12 14:48:35.86	181.98	10.77	-37.9	-40.1	13.8	5.70e-06	0	56	0	383778816	46	4646
2026-01-12 14:48:36.87	182.03	10.86	-37.8	-40.0	13.9	1.10e-06	0	56	0	391118848	46	4592
2026-01-12 14:48:37.88	182.08	10.95	-37.8	-40.1	13.9	2.20e-06	0	56	0	398458880	46	4624
2026-01-12 14:48:38.89	182.13	11.04	-37.9	-40.1	13.8	3.40e-06	0	56	0	405798912	46	4641
2026-01-12 14:48:39.91	182.18	11.13	-37.8	-40.1	13.9	1.10e-06	0	56	0	413138944	46	4609
2026-01-12 14:48:40.92	182.23	11.22	-37.8	-40.1	13.9	1.10e-06	0	56	0	420478976	46	4619
2026-01-12 14:48:41.93	182.28	11.31	-37.9	-40.2	13.8	9.10e-06	0	56	0	426770432	46	4656
2026-01-12 14:48:42.94	182.33	11.40	-37.8	-40.0	14.0	5.70e-06	0	56	0	435159040	46	4592
2026-01-12 14:48:43.95	182.39	11.49	-37.9	-40.2	13.8	4.50e-06	0	56	0	442499072	46	4702
2026-01-12 14:48:44.96	182.44	11.58	-37.9	-40.2	13.8	6.80e-06	0	56	0	448790528	46	4653
2026-01-12 14:48:45.97	182.49	11.67	-37.8	-40.1	13.9	6.80e-06	0	57	0	456130560	46	4618
2026-01-12 14:48:46.98	182.54	11.76	-38.0	-40.4	13.6	6.80e-06	0	57	0	464519168	46	4798
2026-01-12 14:48:47.99	182.60	11.85	-37.9	-40.2	13.9	6.80e-06	0	57	0	470810624	46	4659
2026-01-12 14:48:49.00	182.65	11.94	-37.9	-40.2	13.8	6.80e-06	0	57	0	478150656	46	4697
2026-01-12 14:48:50.01	182.70	12.03	-37.9	-40.3	13.8	3.40e-06	0	57	0	485490688	46	4715
2026-01-12 14:48:51.02	182.76	12.13	-38.0	-40.3	13.7	5.70e-06	0	57	0	492830720	46	4750
2026-01-12 14:48:52.03	182.81	12.22	-37.8	-40.1	13.9	8.00e-06	0	57	0	500170752	46	4635
2026-01-12 14:48:53.03	182.87	12.31	-37.6	-39.9	14.2	1.10e-06	0	56	0	507510784	46	4494
2026-01-12 14:48:54.04	182.92	12.40	-37.9	-40.2	13.8	3.40e-06	0	57	0	514850816	46	4686
2026-01-12 14:48:55.05	182.98	12.50	-37.7	-40.0	14.1	3.40e-06	0	57	0	522190848	46	4566
2026-01-12 14:48:56.07	183.04	12.59	-37.7	-40.0	14.0	4.50e-06	0	57	0	529530880	46	4574
2026-01-12 14:48:57.07	183.09	12.69	-37.8	-40.1	13.9	1.10e-06	0	57	0	536870912	46	4626
2026-01-12 14:48:58.08	183.15	12.78	-37.7	-40.1	14.0	2.20e-06	0	57	0	544210944	46	4600
2026-01-12 14:48:59.10	183.20	12.88	-37.6	-39.9	14.2	1.10e-06	0	57	0	551550976	45	4768
2026-01-12 14:49:00.11	183.26	12.97	-37.6	-39.9	14.2	0.00e+00	0	57	0	558891008	45	4788
2026-01-12 14:49:01.12	183.32	13.07	-37.6	-39.9	14.1	2.20e-06	0	57	0	566231040	45	4808
2026-01-12 14:49:02.13	183.38	13.16	-37.5	-39.8	14.3	1.10e-06	0	57	0	573571072	45	4744
2026-01-12 14:49:03.14	183.44	13.26	-37.6	-39.9	14.1	2.20e-06	0	57	0	580911104	45	4809
2026-01-12 14:49:04.15	183.49	13.36	-37.5	-39.8	14.3	1.10e-06	0	57	0	588251136	45	4709
2026-01-12 14:49:05.16	183.55	13.45	-37.5	-39.8	14.4	0.00e+00	0	57	0	595591168	45	4708
2026-01-12 14:49:06.17	183.61	13.55	-37.5	-39.7	14.4	2.20e-06	0	57	0	601882624	45	4687
2026-01-12 14:49:07.18	183.67	13.65	-37.4	-39.6	14.5	0.00e+00	0	57	0	609222656	45	4643
2026-01-12 14:49:08.18	183.73	13.75	-37.3	-39.5	14.6	1.10e-06	0	57	0	617611264	45	4592
2026-01-12 14:49:09.19	183.79	13.85	-37.4	-39.6	14.5	0.00e+00	0	57	0	623902720	45	4630
2026-01-12 14:49:10.20	183.85	13.94	-37.2	-39.3	14.8	0.00e+00	0	57	0	631242752	45	4471
2026-01-12 14:49:11.21	183.92	14.04	-37.2	-39.3	14.8	0.00e+00	0	57	0	638582784	45	4487
2026-01-12 14:49:12.22	183.98	14.14	-37.1	-39.2	14.8	0.00e+00	0	57	0	645922816	45	4441
2026-01-12 14:49:13.23	184.04	14.24	-37.2	-39.3	14.8	0.00e+00	0	57	0	653262848	45	4465
2026-01-12 14:49:14.24	184.10	14.34	-37.2	-39.3	14.8	0.00e+00	0	57	0	660602880	44	4755
2026-01-12 14:49:15.25	184.16	14.45	-37.1	-39.2	14.9	0.00e+00	0	57	0	667942912	44	4685
2026-01-12 14:49:16.26	184.23	14.55	-37.0	-39.1	15.0	0.00e+00	0	57	0	675282944	44	4635
2026-01-12 14:49:17.27	184.29	14.65	-37.0	-39.1	15.0	0.00e+00	0	57	0	682622976	44	4618
2026-01-12 14:49:18.28	184.36	14.75	-37.0	-39.1	15.1	0.00e+00	0	57	0	689963008	44	4600
2026-01-12 14:49:19.29	184.42	14.85	-37.1	-39.3	14.9	0.00e+00	0	57	0	697303040	44	4722
2026-01-12 14:49:20.30	184.49	14.96	-37.0	-39.1	15.0	0.00e+00	0	57	0	704643072	44	4620
2026-01-12 14:49:21.31	184.55	15.06	-37.0	-39.1	15.0	0.00e+00	0	57	0	711983104	44	4632
2026-01-12 14:49:22.32	184.62	15.16	-37.0	-39.1	15.0	0.00e+00	0	57	0	719323136	44	4639
2026-01-12 14:49:23.33	184.68	15.27	-37.0	-39.2	15.0	0.00e+00	0	57	0	725614592	44	4652
2026-01-12 14:49:24.34	184.75	15.37	-36.9	-39.1	15.1	0.00e+00	0	57	0	734003200	44	4599
2026-01-12 14:49:25.35	184.82	15.48	-36.9	-39.1	15.1	0.00e+00	0	57	0	741343232	44	4599
2026-01-12 14:49:26.36	184.88	15.58	-36.9	-39.0	15.2	0.00e+00	0	57	0	747634688	44	4555
2026-01-12 14:49:27.37	184.95	15.69	-36.9	-39.0	15.2	1.10e-06	0	57	0	754974720	44	4561
2026-01-12 14:49:28.38	185.02	15.79	-36.8	-38.9	15.3	0.00e+00	0	58	0	762314752	44	4512
2026-01-12 14:49:29.39	185.09	15.90	-36.8	-39.0	15.2	0.00e+00	0	58	0	769654784	44	4547
2026-01-12 14:49:30.40	185.16	16.01	-36.8	-38.8	15.3	0.00e+00	0	58	0	776994816	44	4490
2026-01-12 14:49:31.41	185.23	16.12	-36.8	-38.9	15.2	0.00e+00	0	58	0	784334848	44	4532
2026-01-12 14:49:32.42	185.30	16.22	-36.8	-38.9	15.3	0.00e+00	0	58	0	791674880	44	4499
2026-01-12 14:49:33.43	185.37	16.33	-36.8	-38.9	15.3	0.00e+00	0	58	0	799014912	44	4507
2026-01-12 14:49:34.44	185.44	16.44	-36.8	-38.9	15.3	0.00e+00	0	58	0	806354944	44	4512
2026-01-12 14:49:35.45	185.51	16.55	-36.7	-38.7	15.4	0.00e+00	0	58	0	813694976	44	4439
2026-01-12 14:49:36.46	185.59	16.66	-36.7	-38.8	15.3	0.00e+00	0	58	0	821035008	44	4487
2026-01-12 14:49:37.47	185.66	16.77	-36.8	-38.8	15.4	0.00e+00	0	58	0	828375040	44	4493
2026-01-12 14:49:38.48	185.73	16.88	-36.8	-38.9	15.3	0.00e+00	0	58	0	835715072	44	4508
2026-01-12 14:49:39.49	185.81	16.99	-36.8	-38.9	15.3	0.00e+00	0	58	0	843055104	44	4537
2026-01-12 14:49:40.50	185.88	17.10	-36.7	-38.7	15.5	0.00e+00	0	58	0	850395136	44	4439
2026-01-12 14:49:41.51	185.96	17.22	-36.7	-38.8	15.4	0.00e+00	0	58	0	857735168	44	4474
2026-01-12 14:49:42.52	186.03	17.33	-36.7	-38.8	15.4	0.00e+00	0	58	0	865075200	44	4487
2026-01-12 14:49:43.53	186.11	17.44	-36.6	-38.7	15.5	0.00e+00	0	58	0	872415232	44	4415
2026-01-12 14:49:44.54	186.18	17.56	-36.6	-38.7	15.6	0.00e+00	0	58	0	879755264	44	4403
2026-01-12 14:49:45.55	186.26	17.67	-36.8	-38.9	15.4	0.00e+00	0	58	0	887095296	44	4505
2026-01-12 14:49:46.56	186.34	17.78	-36.6	-38.7	15.5	0.00e+00	0	58	0	894435328	44	4417
2026-01-12 14:49:47.57	186.42	17.90	-36.6	-38.6	15.6	0.00e+00	0	58	0	900726784	44	4379
2026-01-12 14:49:48.58	186.50	18.01	-36.5	-38.6	15.7	0.00e+00	0	58	0	909115392	44	4347
2026-01-12 14:49:49.59	186.58	18.13	-36.4	-38.4	15.7	0.00e+00	0	58	0	916455424	43	4513
2026-01-12 14:49:50.61	186.66	18.25	-36.3	-38.3	15.8	0.00e+00	0	58	0	922746880	43	4472
2026-01-12 14:49:51.62	186.74	18.37	-36.4	-38.3	15.8	0.00e+00	0	58	0	930086912	43	4493
2026-01-12 14:49:52.63	186.82	18.48	-36.3	-38.2	15.9	0.00e+00	0	58	0	937426944	43	4435
2026-01-12 14:49:53.64	186.90	18.60	-36.3	-38.3	15.9	0.00e+00	0	58	0	944766976	43	4448
2026-01-12 14:49:54.65	186.98	18.72	-36.2	-38.2	15.9	0.00e+00	0	58	0	952107008	43	4403
2026-01-12 14:49:55.66	187.07	18.84	-36.3	-38.3	15.9	0.00e+00	0	58	0	959447040	43	4442
2026-01-12 14:49:56.67	187.15	18.96	-36.1	-38.0	16.2	0.00e+00	0	58	0	966787072	43	4304
2026-01-12 14:49:57.68	187.23	19.08	-36.1	-38.0	16.1	0.00e+00	0	58	0	974127104	43	4338
2026-01-12 14:49:58.69	187.32	19.20	-36.1	-38.0	16.2	0.00e+00	0	58	0	981467136	43	4313
2026-01-12 14:49:59.70	187.40	19.32	-36.1	-37.9	16.2	0.00e+00	0	58	0	988807168	43	4285
2026-01-12 14:50:00.71	187.49	19.44	-36.0	-37.8	16.3	0.00e+00	0	58	0	996147200	42	4485
2026-01-12 14:50:01.72	187.58	19.56	-35.9	-37.8	16.4	0.00e+00	0	58	0	1003487232	42	4456
2026-01-12 14:50:02.73	187.67	19.69	-36.1	-37.9	16.2	0.00e+00	0	58	0	1010827264	42	4532
2026-01-12 14:50:03.74	187.75	19.81	-36.0	-37.9	16.3	0.00e+00	0	58	0	1018167296	42	4502
2026-01-12 14:50:04.75	187.84	19.93	-36.0	-37.9	16.3	0.00e+00	0	58	0	1025507328	42	4495
2026-01-12 14:50:05.76	187.93	20.06	-35.9	-37.8	16.4	0.00e+00	0	58	0	1032847360	42	4465
2026-01-12 14:50:06.77	188.02	20.18	-35.9	-37.8	16.4	0.00e+00	0	58	0	1040187392	42	4449
2026-01-12 14:50:07.78	188.11	20.31	-36.0	-37.8	16.4	0.00e+00	0	58	0	1046478848	42	4476
2026-01-12 14:50:08.79	188.21	20.43	-36.0	-37.9	16.3	0.00e+00	0	58	0	1054867456	42	4526
2026-01-12 14:50:09.79	188.30	20.56	-36.0	-37.9	16.3	0.00e+00	0	58	0	1062207488	42	4500
2026-01-12 14:50:10.80	188.39	20.69	-36.1	-38.0	16.2	0.00e+00	0	58	0	1068498944	42	4549
2026-01-12 14:50:11.81	188.48	20.81	-36.2	-38.2	16.0	0.00e+00	0	58	0	1075838976	42	4654
2026-01-12 14:50:12.82	188.58	20.94	-36.0	-37.9	16.3	0.00e+00	0	58	0	1083179008	42	4522
2026-01-12 14:50:13.83	188.67	21.07	-36.1	-38.0	16.2	0.00e+00	0	58	0	1090519040	42	4569
2026-01-12 14:50:14.84	188.77	21.20	-36.0	-37.9	16.3	0.00e+00	0	58	0	1097859072	42	4511
2026-01-12 14:50:15.85	188.87	21.33	-36.0	-37.9	16.3	0.00e+00	0	58	0	1105199104	42	4506
2026-01-12 14:50:16.86	188.97	21.46	-36.0	-37.8	16.4	0.00e+00	0	58	0	1112539136	42	4491
2026-01-12 14:50:17.87	189.06	21.59	-35.9	-37.8	16.4	0.00e+00	0	58	0	1119879168	42	4457
2026-01-12 14:50:18.88	189.16	21.73	-36.0	-37.9	16.4	0.00e+00	0	58	0	1127219200	42	4500
2026-01-12 14:50:19.89	189.26	21.86	-35.9	-37.8	16.4	0.00e+00	0	58	0	1134559232	42	4474
2026-01-12 14:50:20.90	189.37	21.99	-35.9	-37.8	16.4	0.00e+00	0	58	0	1141899264	42	4477
2026-01-12 14:50:21.91	189.47	22.13	-35.9	-37.8	16.4	0.00e+00	0	58	0	1149239296	42	4462
2026-01-12 14:50:22.92	189.57	22.26	-35.9	-37.8	16.4	0.00e+00	0	58	0	1156579328	42	4481
2026-01-12 14:50:23.93	189.67	22.39	-35.9	-37.7	16.5	0.00e+00	0	58	0	1163919360	42	4431
2026-01-12 14:50:24.94	189.78	22.53	-35.8	-37.7	16.5	0.00e+00	0	59	0	1171259392	42	4418
2026-01-12 14:50:25.95	189.88	22.67	-35.8	-37.6	16.6	0.00e+00	0	58	0	1178599424	42	4386
2026-01-12 14:50:26.96	189.99	22.80	-35.7	-37.6	16.6	0.00e+00	0	58	0	1185939456	42	4373
2026-01-12 14:50:27.97	190.10	22.94	-35.8	-37.7	16.5	0.00e+00	0	58	0	1193279488	42	4424
2026-01-12 14:50:28.98	190.21	23.08	-35.7	-37.6	16.6	0.00e+00	0	58	0	1200619520	42	4347
2026-01-12 14:50:29.99	190.31	23.22	-35.7	-37.6	16.6	0.00e+00	0	58	0	1207959552	42	4379
2026-01-12 14:50:31.00	190.42	23.36	-35.6	-37.5	16.7	0.00e+00	0	58	0	1215299584	42	4332
2026-01-12 14:50:32.01	190.54	23.50	-35.6	-37.6	16.6	0.00e+00	0	58	0	1221591040	42	4348
2026-01-12 14:50:33.02	190.65	23.64	-35.4	-37.2	16.9	0.00e+00	0	58	0	1228931072	41	4423
2026-01-12 14:50:34.03	190.76	23.78	-35.8	-37.8	16.4	0.00e+00	0	58	0	1237319680	41	4707
2026-01-12 14:50:35.04	190.87	23.92	-35.7	-37.7	16.5	0.00e+00	0	58	0	1243611136	41	4704
2026-01-12 14:50:36.05	190.99	24.06	-35.7	-37.7	16.5	0.00e+00	0	58	0	1250951168	41	4655
2026-01-12 14:50:37.06	191.11	24.21	-35.7	-37.7	16.5	0.00e+00	0	58	0	1258291200	41	4675
2026-01-12 14:50:38.07	191.22	24.35	-35.5	-37.5	16.6	0.00e+00	0	58	0	1265631232	41	4575
2026-01-12 14:50:39.08	191.34	24.50	-35.7	-37.7	16.4	0.00e+00	0	58	0	1272971264	41	4703
2026-01-12 14:50:40.10	191.46	24.64	-35.6	-37.6	16.5	0.00e+00	0	58	0	1280311296	41	4631
2026-01-12 14:50:41.11	191.58	24.79	-35.6	-37.6	16.5	0.00e+00	0	58	0	1287651328	41	4648
2026-01-12 14:50:42.11	191.70	24.93	-35.7	-37.7	16.5	0.00e+00	0	58	0	1294991360	41	4690
2026-01-12 14:50:43.12	191.82	25.08	-35.6	-37.7	16.5	0.00e+00	0	58	0	1302331392	41	4664
2026-01-12 14:50:44.14	191.95	25.23	-35.5	-37.4	16.7	0.00e+00	0	58	0	1309671424	41	4544
2026-01-12 14:50:45.15	192.07	25.38	-35.5	-37.5	16.7	0.00e+00	0	58	0	1317011456	41	4585
2026-01-12 14:50:46.16	192.20	25.53	-35.5	-37.5	16.7	0.00e+00	0	58	0	1324351488	41	4550
2026-01-12 14:50:47.17	192.32	25.68	-35.4	-37.3	16.9	0.00e+00	0	58	0	1331691520	41	4491
2026-01-12 14:50:48.18	192.45	25.83	-35.3	-37.1	17.1	0.00e+00	0	58	0	1339031552	41	4390
2026-01-12 14:50:49.19	192.58	25.98	-35.3	-37.1	17.1	0.00e+00	0	59	0	1346371584	41	4383
2026-01-12 14:50:50.20	192.71	26.14	-35.2	-37.0	17.3	0.00e+00	0	59	0	1353711616	41	4304
2026-01-12 14:50:51.21	192.84	26.29	-35.1	-36.9	17.3	0.00e+00	0	58	0	1361051648	41	4256
2026-01-12 14:50:52.22	192.98	26.44	-35.0	-36.8	17.4	0.00e+00	0	58	0	1367343104	41	4231
2026-01-12 14:50:53.23	193.11	26.60	-35.0	-36.8	17.5	0.00e+00	0	59	0	1374683136	41	4219
2026-01-12 14:50:54.24	193.25	26.75	-35.0	-36.7	17.5	0.00e+00	0	58	0	1383071744	40	4424
2026-01-12 14:50:55.25	193.38	26.91	-35.1	-36.9	17.4	0.00e+00	0	59	0	1389363200	40	4504
2026-01-12 14:50:56.26	193.52	27.07	-35.1	-36.9	17.4	0.00e+00	0	58	0	1396703232	40	4529
2026-01-12 14:50:57.27	193.66	27.22	-35.1	-36.9	17.4	0.00e+00	0	59	0	1404043264	40	4504
2026-01-12 14:50:58.28	193.80	27.38	-35.1	-36.9	17.4	0.00e+00	0	59	0	1411383296	40	4522
2026-01-12 14:50:59.29	193.94	27.54	-34.9	-36.7	17.6	0.00e+00	0	59	0	1418723328	40	4417
2026-01-12 14:51:00.30	194.09	27.70	-35.1	-36.9	17.4	0.00e+00	0	59	0	1426063360	40	4515
2026-01-12 14:51:01.31	194.23	27.86	-35.1	-36.9	17.4	0.00e+00	0	59	0	1433403392	40	4514
2026-01-12 14:51:02.32	194.38	28.02	-35.1	-36.9	17.3	0.00e+00	0	58	0	1440743424	40	4543
2026-01-12 14:51:03.33	194.53	28.18	-35.2	-37.1	17.2	0.00e+00	0	59	0	1448083456	40	4620
2026-01-12 14:51:04.34	194.67	28.35	-35.0	-36.8	17.5	0.00e+00	0	59	0	1455423488	40	4454
2026-01-12 14:51:05.35	194.83	28.51	-35.1	-36.9	17.4	0.00e+00	0	59	0	1462763520	40	4520
2026-01-12 14:51:06.36	194.98	28.67	-35.0	-36.8	17.5	0.00e+00	0	59	0	1470103552	40	4465
2026-01-12 14:51:07.37	195.13	28.84	-34.9	-36.7	17.5	0.00e+00	0	59	0	1477443584	40	4415
2026-01-12 14:51:08.38	195.29	29.00	-34.9	-36.7	17.6	0.00e+00	0	59	0	1484783616	40	4426
2026-01-12 14:51:09.39	195.44	29.17	-34.8	-36.6	17.6	0.00e+00	0	59	0	1492123648	40	4378
2026-01-12 14:51:10.40	195.60	29.34	-34.7	-36.5	17.7	0.00e+00	0	59	0	1499463680	40	4299
2026-01-12 14:51:11.41	195.76	29.51	-34.8	-36.6	17.6	0.00e+00	0	59	0	1506803712	40	4366
2026-01-12 14:51:12.42	195.92	29.68	-34.7	-36.5	17.8	0.00e+00	0	59	0	1514143744	40	4293
2026-01-12 14:51:13.43	196.09	29.84	-34.7	-36.5	17.7	0.00e+00	0	59	0	1520435200	40	4336
2026-01-12 14:51:14.44	196.25	30.02	-34.8	-36.6	17.5	0.00e+00	0	59	0	1528823808	40	4388
2026-01-12 14:51:15.45	196.42	30.19	-34.9	-36.8	17.4	0.00e+00	0	59	0	1536163840	40	4459
2026-01-12 14:51:16.46	196.59	30.36	-34.9	-36.8	17.4	0.00e+00	0	59	0	1542455296	40	4477
2026-01-12 14:51:17.47	196.76	30.53	-35.0	-36.9	17.3	0.00e+00	0	59	0	1549795328	40	4527
2026-01-12 14:51:18.48	196.93	30.70	-35.0	-36.9	17.3	0.00e+00	0	59	0	1557135360	40	4512
2026-01-12 14:51:19.49	197.10	30.88	-35.0	-36.9	17.3	0.00e+00	0	59	0	1564475392	40	4494
2026-01-12 14:51:20.50	197.28	31.05	-35.0	-36.9	17.3	0.00e+00	0	59	0	1571815424	40	4529
2026-01-12 14:51:21.51	197.46	31.23	-35.1	-37.0	17.2	0.00e+00	0	59	0	1579155456	40	4573
2026-01-12 14:51:22.52	197.64	31.41	-35.2	-37.1	17.1	0.00e+00	0	59	0	1586495488	40	4606
2026-01-12 14:51:23.53	197.82	31.58	-35.2	-37.1	17.1	0.00e+00	0	59	0	1593835520	40	4627
2026-01-12 14:51:24.54	198.00	31.76	-35.2	-37.0	17.2	0.00e+00	0	59	0	1601175552	40	4586
2026-01-12 14:51:25.55	198.19	31.94	-35.1	-37.0	17.3	0.00e+00	0	59	0	1608515584	40	4574
2026-01-12 14:51:26.56	198.37	32.12	-35.1	-36.9	17.3	0.00e+00	0	59	0	1615855616	40	4537
2026-01-12 14:51:27.57	198.56	32.30	-35.1	-36.8	17.4	0.00e+00	0	59	0	1623195648	40	4480
2026-01-12 14:51:28.58	198.75	32.48	-35.0	-36.8	17.4	0.00e+00	0	59	0	1630535680	40	4470
2026-01-12 14:51:29.59	198.95	32.66	-35.0	-36.8	17.4	0.00e+00	0	59	0	1637875712	40	4475
2026-01-12 14:51:30.60	199.14	32.84	-34.8	-36.5	17.8	0.00e+00	0	59	0	1645215744	40	4298
2026-01-12 14:51:31.61	199.34	33.03	-35.0	-36.7	17.5	0.00e+00	0	59	0	1652555776	40	4441
2026-01-12 14:51:32.62	199.54	33.21	-35.0	-36.8	17.5	0.00e+00	0	59	0	1659895808	40	4446
2026-01-12 14:51:33.63	199.74	33.40	-35.1	-36.9	17.4	0.00e+00	0	59	0	1666187264	40	4497
2026-01-12 14:51:34.64	199.95	33.58	-35.1	-36.9	17.4	0.00e+00	0	59	0	1674575872	40	4534
2026-01-12 14:51:35.65	200.15	33.77	-35.2	-37.0	17.3	0.00e+00	0	59	0	1681915904	40	4581
2026-01-12 14:51:36.66	200.36	33.95	-35.3	-37.2	17.0	0.00e+00	0	59	0	1688207360	40	4699
2026-01-12 14:51:37.67	200.58	34.14	-35.2	-37.1	17.2	0.00e+00	0	59	0	1695547392	40	4624
2026-01-12 14:51:38.68	200.79	34.33	-35.1	-37.0	17.3	0.00e+00	0	59	0	1702887424	40	4574
2026-01-12 14:51:39.69	201.01	34.52	-35.0	-36.9	17.4	0.00e+00	0	59	0	1710227456	40	4516
2026-01-12 14:51:40.70	201.22	34.71	-35.1	-37.0	17.3	0.00e+00	0	59	0	1717567488	40	4554
2026-01-12 14:51:41.71	201.45	34.90	-35.0	-36.9	17.4	0.00e+00	0	59	0	1724907520	40	4536
2026-01-12 14:51:42.72	201.67	35.09	-35.1	-36.9	17.4	0.00e+00	0	59	0	1732247552	40	4534
2026-01-12 14:51:43.73	201.90	35.28	-35.1	-37.0	17.4	0.00e+00	0	59	0	1739587584	40	4546
2026-01-12 14:51:44.73	202.12	35.47	-35.0	-36.9	17.5	1.10e-06	0	59	0	1746927616	40	4500
2026-01-12 14:51:45.74	202.35	35.67	-35.0	-36.9	17.5	0.00e+00	0	59	0	1754267648	40	4509
2026-01-12 14:51:46.75	202.59	35.86	-34.9	-36.7	17.7	0.00e+00	0	59	0	1761607680	40	4425
2026-01-12 14:51:47.76	202.83	36.05	-35.0	-36.8	17.5	0.00e+00	0	59	0	1768947712	40	4478
2026-01-12 14:51:48.77	203.07	36.25	-35.0	-36.8	17.6	0.00e+00	0	59	0	1776287744	40	4446
2026-01-12 14:51:49.78	203.31	36.44	-35.0	-36.7	17.6	0.00e+00	0	59	0	1783627776	40	4426
2026-01-12 14:51:50.79	203.56	36.64	-35.0	-36.8	17.6	0.00e+00	0	59	0	1790967808	40	4453
2026-01-12 14:51:51.80	203.80	36.84	-35.4	-37.2	17.1	0.00e+00	0	59	0	1798307840	40	4686
2026-01-12 14:51:52.81	204.06	37.04	-35.1	-36.9	17.5	0.00e+00	0	59	0	1805647872	40	4502
2026-01-12 14:51:53.82	204.31	37.23	-35.0	-36.8	17.5	0.00e+00	0	59	0	1812987904	40	4465
2026-01-12 14:51:54.82	204.57	37.43	-35.1	-36.9	17.4	0.00e+00	0	59	0	1819279360	40	4500
2026-01-12 14:51:55.83	204.83	37.63	-35.1	-37.0	17.3	0.00e+00	0	59	0	1827667968	40	4549
2026-01-12 14:51:56.84	205.09	37.83	-35.2	-37.1	17.2	0.00e+00	0	59	0	1835008000	40	4610
2026-01-12 14:51:57.85	205.36	38.03	-35.2	-37.1	17.1	0.00e+00	0	59	0	1841299456	40	4619
2026-01-12 14:51:58.86	205.63	38.23	-35.3	-37.2	17.1	0.00e+00	0	59	0	1848639488	40	4683
2026-01-12 14:51:59.87	205.90	38.43	-35.3	-37.3	17.0	0.00e+00	0	59	0	1855979520	40	4712
2026-01-12 14:52:00.88	206.18	38.63	-35.3	-37.2	17.1	0.00e+00	0	59	0	1863319552	40	4702
2026-01-12 14:52:01.90	206.46	38.84	-35.4	-37.4	17.0	0.00e+00	0	59	0	1870659584	40	4780
2026-01-12 14:52:02.90	206.74	39.04	-35.6	-37.5	16.8	0.00e+00	0	59	0	1877999616	41	4571
2026-01-12 14:52:03.92	207.03	39.24	-35.6	-37.5	16.9	0.00e+00	0	59	0	1885339648	41	4567
2026-01-12 14:52:04.93	207.32	39.45	-35.5	-37.3	17.0	0.00e+00	0	59	0	1892679680	41	4468
2026-01-12 14:52:05.94	207.62	39.65	-35.5	-37.3	17.1	0.00e+00	0	59	0	1900019712	41	4444
2026-01-12 14:52:06.95	207.92	39.85	-35.4	-37.1	17.2	0.00e+00	0	59	0	1907359744	41	4385
2026-01-12 14:52:07.96	208.22	40.06	-35.2	-36.9	17.4	0.00e+00	0	59	0	1914699776	41	4266
2026-01-12 14:52:08.97	208.52	40.26	-35.5	-37.3	17.1	0.00e+00	0	59	0	1922039808	41	4449
2026-01-12 14:52:09.98	208.83	40.47	-35.5	-37.2	17.1	0.00e+00	0	59	0	1929379840	41	4436
2026-01-12 14:52:10.98	209.14	40.67	-35.6	-37.4	17.0	0.00e+00	0	59	0	1936719872	41	4509
2026-01-12 14:52:11.99	209.46	40.88	-35.5	-37.4	17.0	0.00e+00	0	59	0	1944059904	41	4501
2026-01-12 14:52:13.00	209.78	41.08	-35.4	-37.2	17.1	0.00e+00	0	59	0	1951399936	41	4432
2026-01-12 14:52:14.01	210.11	41.29	-35.6	-37.4	17.0	0.00e+00	0	59	0	1958739968	41	4545
2026-01-12 14:52:15.02	210.44	41.49	-35.6	-37.5	16.9	0.00e+00	0	59	0	1966080000	41	4573
2026-01-12 14:52:16.03	210.77	41.70	-35.5	-37.4	17.1	0.00e+00	0	59	0	1972371456	41	4495
2026-01-12 14:52:17.04	211.11	41.91	-35.4	-37.2	17.2	0.00e+00	0	59	0	1980760064	41	4429
2026-01-12 14:52:18.05	211.45	42.11	-35.4	-37.3	17.2	0.00e+00	0	59	0	1988100096	41	4462
2026-01-12 14:52:19.06	211.80	42.32	-35.6	-37.5	17.0	0.00e+00	0	59	0	1994391552	41	4561
2026-01-12 14:52:20.07	212.15	42.53	-35.4	-37.2	17.2	0.00e+00	0	59	0	2001731584	41	4421
2026-01-12 14:52:21.08	212.50	42.73	-35.3	-37.1	17.3	0.00e+00	0	59	0	2009071616	41	4387
2026-01-12 14:52:22.10	212.87	42.94	-35.3	-37.1	17.4	0.00e+00	0	59	0	2016411648	41	4351
2026-01-12 14:52:23.10	213.23	43.14	-35.5	-37.3	17.2	0.00e+00	0	59	0	2023751680	41	4458
2026-01-12 14:52:24.12	213.60	43.35	-35.4	-37.2	17.3	0.00e+00	0	59	0	2031091712	41	4395
2026-01-12 14:52:25.13	213.98	43.56	-35.4	-37.2	17.2	0.00e+00	0	59	0	2038431744	41	4441
2026-01-12 14:52:26.14	214.35	43.76	-35.4	-37.2	17.2	0.00e+00	0	59	0	2045771776	41	4416
2026-01-12 14:52:27.15	214.74	43.97	-35.4	-37.1	17.3	0.00e+00	0	59	0	2053111808	41	4389
2026-01-12 14:52:28.16	215.13	44.17	-35.6	-37.4	17.0	0.00e+00	0	59	0	2060451840	41	4526
2026-01-12 14:52:29.17	215.52	44.38	-35.7	-37.6	16.9	0.00e+00	0	59	0	2067791872	41	4621
2026-01-12 14:52:30.18	215.92	44.58	-35.8	-37.6	16.9	0.00e+00	0	59	0	2075131904	41	4638
2026-01-12 14:52:31.19	216.32	44.78	-35.8	-37.6	16.9	0.00e+00	0	59	0	2082471936	41	4617
2026-01-12 14:52:32.20	216.73	44.99	-35.8	-37.7	16.8	0.00e+00	0	59	0	2089811968	41	4670
2026-01-12 14:52:33.21	217.14	45.19	-35.9	-37.7	16.8	0.00e+00	0	59	0	2097152000	41	4694
2026-01-12 14:52:34.22	217.56	45.39	-36.6	-37.9	16.9	0.00e+00	0	59	0	2104492032	43	4276
2026-01-12 14:52:35.23	217.99	45.59	-36.7	-38.0	16.8	0.00e+00	0	59	0	2111832064	43	4322
2026-01-12 14:52:36.24	218.42	45.79	-36.6	-37.9	16.9	0.00e+00	0	59	0	2119172096	43	4288
2026-01-12 14:52:37.25	218.85	45.99	-36.5	-37.9	17.0	0.00e+00	0	59	0	2126512128	43	4252
2026-01-12 14:52:38.26	219.29	46.19	-36.7	-38.1	16.7	0.00e+00	0	59	0	2133852160	43	4358
2026-01-12 14:52:39.27	219.74	46.39	-36.7	-38.0	16.8	0.00e+00	0	59	0	2140143616	43	4324
2026-01-12 14:52:40.28	220.19	46.59	-36.4	-37.7	17.2	0.00e+00	0	59	0	2147483648	43	4154
2026-01-12 14:52:41.29	220.65	46.78	-36.4	-37.7	17.1	0.00e+00	0	59	0	2155872256	43	4165
2026-01-12 14:52:42.30	221.11	46.98	-36.4	-37.7	17.1	0.00e+00	0	59	0	2162163712	43	4186
2026-01-12 14:52:43.31	221.58	47.17	-36.4	-37.7	17.1	0.00e+00	0	60	0	2169503744	43	4192
2026-01-12 14:52:44.32	222.05	47.36	-36.4	-37.7	17.1	0.00e+00	0	59	0	2176843776	43	4182
2026-01-12 14:52:45.33	222.53	47.56	-36.7	-38.1	16.8	0.00e+00	0	59	0	2184183808	43	4342
2026-01-12 14:52:46.34	223.02	47.75	-37.0	-38.3	16.6	0.00e+00	0	60	0	2191523840	43	4487
2026-01-12 14:52:47.35	223.51	47.93	-37.1	-38.6	16.4	0.00e+00	0	59	0	2198863872	43	4601
2026-01-12 14:52:48.36	224.01	48.12	-37.0	-38.4	16.5	0.00e+00	0	59	0	2206203904	43	4507
2026-01-12 14:52:49.37	224.51	48.31	-36.9	-38.3	16.6	0.00e+00	0	59	0	2213543936	43	4452
2026-01-12 14:52:50.37	225.02	48.49	-37.0	-38.4	16.5	0.00e+00	0	59	0	2220883968	43	4495
2026-01-12 14:52:51.38	225.54	48.67	-37.0	-38.4	16.4	0.00e+00	0	59	0	2228224000	43	4530
2026-01-12 14:52:52.39	226.06	48.85	-37.4	-38.9	16.2	0.00e+00	0	59	0	2235564032	44	4514
2026-01-12 14:52:53.40	226.59	49.03	-37.6	-39.1	16.0	0.00e+00	0	60	0	2242904064	44	4602
2026-01-12 14:52:54.41	227.12	49.21	-37.5	-38.9	16.2	0.00e+00	0	59	0	2250244096	44	4523
2026-01-12 14:52:55.42	227.66	49.38	-37.1	-38.4	16.6	0.00e+00	0	59	0	2257584128	44	4291
2026-01-12 14:52:56.43	228.21	49.56	-36.8	-38.2	16.9	0.00e+00	0	59	0	2264924160	44	4148
2026-01-12 14:52:57.44	228.76	49.73	-36.9	-38.2	16.8	0.00e+00	0	59	0	2272264192	44	4187
2026-01-12 14:52:58.45	229.32	49.90	-37.0	-38.4	16.7	0.00e+00	0	59	0	2279604224	44	4268
2026-01-12 14:52:59.46	229.88	50.06	-37.1	-38.5	16.5	0.00e+00	0	59	0	2286944256	44	4316
2026-01-12 14:53:00.47	230.45	50.23	-36.9	-38.2	16.9	0.00e+00	0	59	0	2293235712	44	4167
2026-01-12 14:53:01.48	231.03	50.39	-37.3	-38.8	16.3	0.00e+00	0	59	0	2300575744	44	4444
2026-01-12 14:53:02.49	231.61	50.55	-37.3	-38.8	16.3	0.00e+00	0	60	0	2308964352	44	4456
2026-01-12 14:53:03.50	232.20	50.71	-37.3	-38.7	16.3	0.00e+00	0	59	0	2315255808	44	4415
2026-01-12 14:53:04.51	232.80	50.86	-37.0	-38.4	16.6	0.00e+00	0	60	0	2322595840	44	4277
2026-01-12 14:53:05.52	233.40	51.01	-36.9	-38.2	16.8	0.00e+00	0	59	0	2329935872	44	4188
2026-01-12 14:53:06.53	234.01	51.16	-37.0	-38.3	16.7	0.00e+00	0	59	0	2337275904	44	4229
2026-01-12 14:53:07.54	234.62	51.31	-36.9	-38.3	16.8	0.00e+00	0	59	0	2344615936	44	4206
2026-01-12 14:53:08.55	235.24	51.45	-37.2	-38.5	16.5	0.00e+00	0	59	0	2351955968	44	4339
2026-01-12 14:53:09.56	235.86	51.59	-37.2	-38.6	16.5	0.00e+00	0	60	0	2359296000	44	4366
2026-01-12 14:53:10.57	236.49	51.73	-37.0	-38.4	16.7	0.00e+00	0	59	0	2366636032	44	4258
2026-01-12 14:53:11.58	237.13	51.86	-37.0	-38.3	16.7	0.00e+00	0	59	0	2373976064	44	4240
2026-01-12 14:53:12.59	237.77	51.99	-37.0	-38.4	16.7	0.00e+00	0	60	0	2381316096	44	4261
2026-01-12 14:53:13.60	238.42	52.12	-37.0	-38.3	16.7	0.00e+00	0	60	0	2388656128	44	4222
2026-01-12 14:53:14.61	239.07	52.24	-36.9	-38.3	16.8	0.00e+00	0	60	0	2395996160	44	4202
2026-01-12 14:53:15.62	239.73	52.36	-36.9	-38.3	16.7	0.00e+00	0	59	0	2403336192	44	4210
2026-01-12 14:53:16.63	240.39	52.48	-37.3	-38.7	16.3	0.00e+00	0	59	0	2410676224	44	4424
2026-01-12 14:53:17.64	241.06	52.59	-37.6	-39.0	16.0	0.00e+00	0	59	0	2418016256	44	4593
2026-01-12 14:53:18.65	241.74	52.70	-37.7	-39.2	15.8	1.48e-05	0	60	0	2425356288	45	4431
2026-01-12 14:53:19.66	242.41	52.80	-37.5	-39.0	16.0	0.00e+00	0	60	0	2432696320	45	4329
2026-01-12 14:53:20.67	243.10	52.90	-37.4	-38.8	16.2	0.00e+00	0	60	0	2438987776	45	4236
2026-01-12 14:53:21.68	243.79	53.00	-37.3	-38.7	16.3	0.00e+00	0	59	0	2446327808	45	4177
2026-01-12 14:53:22.69	244.48	53.09	-37.6	-39.0	15.9	0.00e+00	0	60	0	2454716416	45	4338
2026-01-12 14:53:23.70	245.17	53.18	-37.3	-38.7	16.3	0.00e+00	0	59	0	2461007872	45	4164
2026-01-12 14:53:24.71	245.88	53.27	-37.4	-38.8	16.2	0.00e+00	0	59	0	2468347904	45	4231
2026-01-12 14:53:25.72	246.58	53.35	-37.4	-38.8	16.2	0.00e+00	0	59	0	2475687936	45	4232
2026-01-12 14:53:26.73	247.29	53.43	-37.3	-38.7	16.3	0.00e+00	0	60	0	2483027968	45	4179
2026-01-12 14:53:27.74	248.00	53.50	-37.2	-38.6	16.4	0.00e+00	0	60	0	2490368000	45	4124
2026-01-12 14:53:28.75	248.72	53.57	-37.1	-38.4	16.6	0.00e+00	0	59	0	2497708032	45	4027
2026-01-12 14:53:29.76	249.43	53.63	-36.9	-38.2	16.7	0.00e+00	0	60	0	2505048064	44	4192
2026-01-12 14:53:30.76	250.15	53.69	-37.1	-38.5	16.6	0.00e+00	0	60	0	2512388096	44	4302
2026-01-12 14:53:31.77	250.87	53.74	-37.3	-38.7	16.4	0.00e+00	0	60	0	2519728128	44	4396
2026-01-12 14:53:32.78	251.60	53.80	-37.1	-38.5	16.6	0.00e+00	0	60	0	2527068160	44	4325
2026-01-12 14:53:33.79	252.33	53.84	-37.1	-38.4	16.6	0.00e+00	0	60	0	2534408192	44	4283
2026-01-12 14:53:34.80	253.06	53.88	-37.1	-38.5	16.5	0.00e+00	0	59	0	2541748224	44	4328
2026-01-12 14:53:35.81	253.80	53.92	-37.3	-38.7	16.4	0.00e+00	0	59	0	2549088256	44	4408
2026-01-12 14:53:36.82	254.53	53.95	-37.3	-38.8	16.2	0.00e+00	0	59	0	2556428288	44	4447
2026-01-12 14:53:37.83	255.27	53.98	-37.4	-38.8	16.3	0.00e+00	0	60	0	2563768320	44	4464
2026-01-12 14:53:38.84	256.01	54.00	-37.3	-38.8	16.3	0.00e+00	0	60	0	2571108352	44	4447
2026-01-12 14:53:39.85	256.74	54.02	-37.2	-38.6	16.4	0.00e+00	0	59	0	2578448384	44	4376
2026-01-12 14:53:40.86	257.48	54.03	-37.1	-38.4	16.6	0.00e+00	0	60	0	2585788416	44	4285
2026-01-12 14:53:41.87	258.22	54.04	-36.8	-38.2	16.9	0.00e+00	0	60	0	2592079872	44	4147
2026-01-12 14:53:42.88	258.96	54.04	-37.0	-38.3	16.7	0.00e+00	0	59	0	2599419904	44	4232
2026-01-12 14:53:43.89	259.71	54.04	-37.5	-38.9	16.1	0.00e+00	0	59	0	2607808512	44	4541
2026-01-12 14:53:44.89	260.44	54.04	-37.5	-39.0	16.0	0.00e+00	0	59	0	2614099968	44	4569
2026-01-12 14:53:45.90	261.18	54.03	-37.6	-39.1	15.9	0.00e+00	0	60	0	2621440000	44	4615
2026-01-12 14:53:46.91	261.92	54.01	-37.6	-39.0	16.1	0.00e+00	0	60	0	2628780032	44	4572
2026-01-12 14:53:47.92	262.66	53.99	-37.4	-38.9	16.2	0.00e+00	0	60	0	2636120064	44	4499
2026-01-12 14:53:48.93	263.39	53.97	-37.5	-39.0	16.1	0.00e+00	0	60	0	2643460096	44	4555
2026-01-12 14:53:49.94	264.13	53.94	-37.4	-38.8	16.3	0.00e+00	0	60	0	2650800128	44	4460
2026-01-12 14:53:50.95	264.86	53.90	-37.3	-38.7	16.4	0.00e+00	0	59	0	2658140160	44	4409
2026-01-12 14:53:51.96	265.60	53.86	-37.2	-38.6	16.5	0.00e+00	0	60	0	2665480192	44	4353
2026-01-12 14:53:52.97	266.33	53.82	-37.3	-38.7	16.4	0.00e+00	0	60	0	2672820224	44	4422
2026-01-12 14:53:53.98	267.05	53.77	-37.5	-38.9	16.1	0.00e+00	0	59	0	2680160256	44	4542
2026-01-12 14:53:54.99	267.78	53.72	-37.5	-39.0	16.0	0.00e+00	0	59	0	2687500288	44	4551
2026-01-12 14:53:56.00	268.50	53.66	-37.4	-38.8	16.2	0.00e+00	0	59	0	2694840320	44	4470
2026-01-12 14:53:57.01	269.22	53.60	-37.2	-38.6	16.4	0.00e+00	0	60	0	2702180352	44	4378
2026-01-12 14:53:58.02	269.94	53.54	-37.2	-38.5	16.5	0.00e+00	0	60	0	2709520384	44	4336
2026-01-12 14:53:59.03	270.65	53.47	-37.1	-38.5	16.6	0.00e+00	0	60	0	2715811840	44	4330
2026-01-12 14:54:00.04	271.36	53.39	-37.1	-38.5	16.5	0.00e+00	0	60	0	2724200448	44	4292
2026-01-12 14:54:01.05	272.07	53.31	-37.1	-38.4	16.6	0.00e+00	0	60	0	2731540480	44	4282
2026-01-12 14:54:02.06	272.77	53.23	-37.0	-38.4	16.6	0.00e+00	0	60	0	2737831936	44	4262
2026-01-12 14:54:03.07	273.47	53.14	-37.0	-38.4	16.7	0.00e+00	0	60	0	2745171968	44	4265
2026-01-12 14:54:04.08	274.16	53.05	-37.1	-38.5	16.6	0.00e+00	0	60	0	2752512000	44	4323
2026-01-12 14:54:05.09	274.85	52.96	-37.4	-38.8	16.2	0.00e+00	0	60	0	2759852032	44	4463
2026-01-12 14:54:06.10	275.54	52.86	-37.4	-38.9	16.2	0.00e+00	0	60	0	2767192064	44	4498
2026-01-12 14:54:07.11	276.22	52.75	-37.4	-38.9	16.2	0.00e+00	0	59	0	2774532096	44	4500
2026-01-12 14:54:08.12	276.89	52.65	-37.2	-38.6	16.3	0.00e+00	0	60	0	2781872128	44	4377
2026-01-12 14:54:09.13	277.56	52.54	-37.2	-38.6	16.5	0.00e+00	0	59	0	2789212160	44	4350
2026-01-12 14:54:10.14	278.23	52.42	-37.3	-38.8	16.3	0.00e+00	0	60	0	2796552192	44	4452
2026-01-12 14:54:11.15	278.89	52.30	-37.3	-38.7	16.3	0.00e+00	0	59	0	2803892224	44	4435
2026-01-12 14:54:12.16	279.54	52.18	-37.3	-38.7	16.3	0.00e+00	0	60	0	2811232256	44	4404
2026-01-12 14:54:13.17	280.19	52.06	-37.1	-38.4	16.6	0.00e+00	0	60	0	2818572288	44	4277
2026-01-12 14:54:14.18	280.83	51.93	-37.0	-38.3	16.7	0.00e+00	0	59	0	2825912320	44	4232
2026-01-12 14:54:15.19	281.47	51.80	-37.1	-38.5	16.5	0.00e+00	0	60	0	2833252352	44	4314
2026-01-12 14:54:16.20	282.11	51.66	-37.2	-38.5	16.5	0.00e+00	0	60	0	2840592384	44	4338
2026-01-12 14:54:17.21	282.73	51.53	-37.2	-38.6	16.4	0.00e+00	0	60	0	2847932416	44	4379
2026-01-12 14:54:18.21	283.35	51.39	-37.1	-38.5	16.5	0.00e+00	0	60	0	2855272448	44	4324
2026-01-12 14:54:19.23	283.97	51.24	-37.2	-38.6	16.4	0.00e+00	0	60	0	2862612480	44	4376
2026-01-12 14:54:20.23	284.57	51.10	-37.3	-38.8	16.3	0.00e+00	0	60	0	2869952512	44	4443
2026-01-12 14:54:21.25	285.18	50.95	-37.2	-38.6	16.4	0.00e+00	0	60	0	2877292544	44	4371
2026-01-12 14:54:22.25	285.77	50.79	-37.2	-38.6	16.5	0.00e+00	0	60	0	2884632576	44	4353
2026-01-12 14:54:23.26	286.36	50.64	-37.3	-38.7	16.3	0.00e+00	0	60	0	2890924032	44	4430
2026-01-12 14:54:24.28	286.95	50.48	-37.3	-38.8	16.2	0.00e+00	0	60	0	2898264064	44	4454
2026-01-12 14:54:25.29	287.53	50.32	-37.0	-38.4	16.6	0.00e+00	0	60	0	2906652672	44	4247
2026-01-12 14:54:26.30	288.11	50.16	-36.9	-38.2	16.8	0.00e+00	0	60	0	2912944128	44	4173
2026-01-12 14:54:27.31	288.67	49.99	-37.0	-38.4	16.7	0.00e+00	0	59	0	2920284160	44	4251
2026-01-12 14:54:28.32	289.23	49.83	-37.0	-38.4	16.7	0.00e+00	0	60	0	2927624192	44	4245
2026-01-12 14:54:29.33	289.79	49.66	-37.0	-38.4	16.7	0.00e+00	0	60	0	2934964224	44	4256
2026-01-12 14:54:30.34	290.34	49.48	-37.0	-38.4	16.6	0.00e+00	0	60	0	2942304256	44	4265
2026-01-12 14:54:31.35	290.88	49.31	-37.0	-38.3	16.7	0.00e+00	0	60	0	2949644288	44	4217
2026-01-12 14:54:32.36	291.42	49.14	-36.9	-38.2	16.8	0.00e+00	0	60	0	2956984320	44	4169
2026-01-12 14:54:33.37	291.95	48.96	-36.9	-38.2	16.9	0.00e+00	0	60	0	2964324352	44	4158
2026-01-12 14:54:34.38	292.47	48.78	-36.7	-38.0	17.0	0.00e+00	0	60	0	2971664384	44	4098
2026-01-12 14:54:35.39	292.99	48.60	-36.8	-38.1	16.9	0.00e+00	0	60	0	2979004416	44	4118
2026-01-12 14:54:36.40	293.50	48.42	-36.8	-38.1	16.9	0.00e+00	0	60	0	2986344448	44	4139
2026-01-12 14:54:37.40	294.00	48.23	-36.8	-38.1	16.9	0.00e+00	0	60	0	2993684480	44	4102
2026-01-12 14:54:38.41	294.50	48.05	-36.8	-38.1	16.9	0.00e+00	0	60	0	3001024512	44	4135
2026-01-12 14:54:39.42	295.00	47.86	-36.8	-38.2	16.8	0.00e+00	0	60	0	3008364544	44	4161
2026-01-12 14:54:40.43	295.48	47.67	-36.9	-38.2	16.8	0.00e+00	0	60	0	3015704576	44	4187
2026-01-12 14:54:41.44	295.97	47.48	-36.9	-38.3	16.7	0.00e+00	0	60	0	3023044608	44	4211
2026-01-12 14:54:42.45	296.44	47.29	-37.0	-38.4	16.6	0.00e+00	0	60	0	3030384640	44	4250
2026-01-12 14:54:43.46	296.91	47.10	-36.9	-38.2	16.8	0.00e+00	0	60	0	3036676096	44	4193
2026-01-12 14:54:44.47	297.38	46.90	-36.9	-38.3	16.7	0.00e+00	0	60	0	3044016128	44	4196
2026-01-12 14:54:45.48	297.84	46.71	-36.7	-38.1	16.9	0.00e+00	0	60	0	3052404736	44	4111
2026-01-12 14:54:46.49	298.29	46.51	-36.6	-38.0	17.1	0.00e+00	0	60	0	3058696192	44	4055
2026-01-12 14:54:47.50	298.74	46.32	-36.6	-38.0	17.0	0.00e+00	0	60	0	3066036224	44	4052
2026-01-12 14:54:48.51	299.18	46.12	-36.5	-37.8	17.2	0.00e+00	0	60	0	3073376256	44	3999
2026-01-12 14:54:49.52	299.62	45.92	-36.5	-37.8	17.2	0.00e+00	0	60	0	3080716288	44	3995
2026-01-12 14:54:50.53	300.05	45.72	-36.7	-38.0	17.0	0.00e+00	0	60	0	3088056320	44	4061
2026-01-12 14:54:51.54	300.48	45.52	-36.6	-37.9	17.1	0.00e+00	0	60	0	3095396352	44	4027
2026-01-12 14:54:52.55	300.90	45.32	-36.6	-37.9	17.1	0.00e+00	0	60	0	3102736384	44	4018
2026-01-12 14:54:53.56	301.31	45.12	-36.6	-37.8	17.1	0.00e+00	0	60	0	3110076416	44	3999
2026-01-12 14:54:54.57	301.72	44.92	-36.6	-37.9	17.1	0.00e+00	0	60	0	3117416448	44	4030
2026-01-12 14:54:55.58	302.13	44.72	-36.4	-37.7	17.1	0.00e+00	0	60	0	3124756480	43	4168
2026-01-12 14:54:56.59	302.53	44.51	-36.3	-37.6	17.3	0.00e+00	0	60	0	3132096512	43	4104
2026-01-12 14:54:57.60	302.93	44.31	-36.2	-37.4	17.4	0.00e+00	0	60	0	3139436544	43	4041
2026-01-12 14:54:58.61	303.32	44.11	-36.0	-37.2	17.6	0.00e+00	0	60	0	3146776576	42	4183
2026-01-12 14:54:59.62	303.70	43.90	-35.9	-37.1	17.8	0.00e+00	0	60	0	3154116608	42	4107
2026-01-12 14:55:00.63	304.08	43.70	-35.7	-36.9	17.9	0.00e+00	0	60	0	3161456640	42	4045
2026-01-12 14:55:01.64	304.46	43.49	-35.6	-36.8	18.1	0.00e+00	0	60	0	3168796672	42	3972
2026-01-12 14:55:02.65	304.83	43.29	-35.6	-36.7	18.1	0.00e+00	0	60	0	3176136704	42	3957
2026-01-12 14:55:03.66	305.19	43.08	-35.7	-36.9	18.0	0.00e+00	0	60	0	3183476736	42	4011
2026-01-12 14:55:04.67	305.56	42.88	-35.8	-37.1	17.8	0.00e+00	0	60	0	3189768192	42	4107
2026-01-12 14:55:05.68	305.91	42.67	-35.9	-37.2	17.7	0.00e+00	0	60	0	3197108224	42	4162
2026-01-12 14:55:06.69	306.27	42.47	-36.1	-37.4	17.4	0.00e+00	0	60	0	3205496832	42	4268
2026-01-12 14:55:07.70	306.61	42.26	-36.2	-37.5	17.4	0.00e+00	0	60	0	3211788288	42	4309
2026-01-12 14:55:08.71	306.96	42.06	-36.4	-37.7	17.1	0.00e+00	0	60	0	3219128320	42	4406
2026-01-12 14:55:09.72	307.30	41.85	-36.4	-37.7	17.2	0.00e+00	0	60	0	3226468352	42	4411
2026-01-12 14:55:10.73	307.63	41.65	-36.3	-37.6	17.2	0.00e+00	0	60	0	3233808384	42	4364
2026-01-12 14:55:11.74	307.96	41.44	-36.0	-37.3	17.5	0.00e+00	0	59	0	3241148416	42	4222
2026-01-12 14:55:12.75	308.29	41.24	-35.8	-37.0	17.8	0.00e+00	0	60	0	3248488448	42	4094
2026-01-12 14:55:13.76	308.61	41.03	-35.7	-36.9	17.9	0.00e+00	0	60	0	3255828480	42	4037
2026-01-12 14:55:14.78	308.94	40.83	-35.7	-36.9	18.0	0.00e+00	0	60	0	3263168512	42	4013
2026-01-12 14:55:15.79	309.25	40.62	-35.8	-37.0	17.8	0.00e+00	0	60	0	3270508544	42	4078
2026-01-12 14:55:16.80	309.56	40.42	-36.0	-37.3	17.2	0.00e+00	0	60	0	3277848576	42	4201
2026-01-12 14:55:17.80	309.87	40.22	-36.0	-37.3	17.6	0.00e+00	0	60	0	3285188608	42	4199
2026-01-12 14:55:18.81	310.17	40.01	-36.1	-37.3	17.5	0.00e+00	0	60	0	3292528640	42	4240
2026-01-12 14:55:19.82	310.47	39.81	-36.2	-37.4	17.4	0.00e+00	0	60	0	3299868672	42	4284
2026-01-12 14:55:20.83	310.77	39.61	-36.1	-37.4	17.4	0.00e+00	0	60	0	3307208704	42	4267
2026-01-12 14:55:21.84	311.06	39.40	-36.1	-37.4	17.3	0.00e+00	0	60	0	3314548736	42	4259
2026-01-12 14:55:22.85	311.35	39.20	-35.9	-37.2	17.7	0.00e+00	0	60	0	3321888768	42	4150
2026-01-12 14:55:23.86	311.63	39.00	-35.8	-37.0	17.9	0.00e+00	0	60	0	3329228800	42	4057
2026-01-12 14:55:24.87	311.91	38.80	-35.7	-36.9	17.9	0.00e+00	0	60	0	3335520256	42	4035
2026-01-12 14:55:25.88	312.19	38.60	-35.7	-36.9	17.9	0.00e+00	0	60	0	3343908864	42	4028
2026-01-12 14:55:26.89	312.47	38.40	-35.7	-36.9	17.8	0.00e+00	0	60	0	3351248896	42	4022
2026-01-12 14:55:27.90	312.74	38.20	-35.7	-36.9	17.9	0.00e+00	0	60	0	3357540352	42	4022
2026-01-12 14:55:28.91	313.01	38.00	-35.8	-37.0	17.8	0.00e+00	0	60	0	3364880384	42	4077
2026-01-12 14:55:29.92	313.27	37.80	-35.9	-37.1	17.7	0.00e+00	0	60	0	3372220416	42	4127
2026-01-12 14:55:30.93	313.54	37.60	-35.9	-37.1	17.7	0.00e+00	0	60	0	3379560448	42	4130
2026-01-12 14:55:31.94	313.80	37.40	-35.9	-37.1	17.7	0.00e+00	0	60	0	3386900480	42	4115
2026-01-12 14:55:32.95	314.05	37.20	-35.8	-37.0	17.8	0.00e+00	0	60	0	3394240512	42	4079
2026-01-12 14:55:33.96	314.30	37.01	-35.7	-36.9	17.8	0.00e+00	0	60	0	3401580544	42	4047
2026-01-12 14:55:34.98	314.56	36.81	-35.8	-37.0	17.8	0.00e+00	0	60	0	3408920576	42	4067
2026-01-12 14:55:35.98	314.80	36.62	-35.8	-37.0	17.8	0.00e+00	0	60	0	3416260608	42	4086
2026-01-12 14:55:37.00	315.05	36.42	-35.9	-37.2	17.6	0.00e+00	0	60	0	3423600640	42	4166
2026-01-12 14:55:38.01	315.29	36.22	-35.9	-37.2	17.6	0.00e+00	0	60	0	3430940672	42	4155
2026-01-12 14:55:39.02	315.53	36.03	-35.9	-37.2	17.6	0.00e+00	0	60	0	3438280704	42	4158
2026-01-12 14:55:40.02	315.76	35.84	-35.9	-37.1	17.7	0.00e+00	0	60	0	3445620736	42	4124
2026-01-12 14:55:41.03	315.99	35.65	-35.7	-36.9	17.8	0.00e+00	0	60	0	3452960768	42	4050
2026-01-12 14:55:42.04	316.22	35.46	-35.6	-36.8	18.0	0.00e+00	0	60	0	3460300800	42	3981
2026-01-12 14:55:43.05	316.45	35.26	-35.5	-36.7	18.0	0.00e+00	0	60	0	3467640832	41	4153
2026-01-12 14:55:44.06	316.68	35.07	-35.4	-36.6	18.2	0.00e+00	0	60	0	3474980864	41	4112
2026-01-12 14:55:45.07	316.90	34.88	-35.3	-36.5	18.3	0.00e+00	0	60	0	3482320896	41	4054
2026-01-12 14:55:46.08	317.12	34.69	-35.2	-36.4	18.4	0.00e+00	0	60	0	3489660928	41	4014
2026-01-12 14:55:47.09	317.34	34.51	-35.2	-36.4	18.3	0.00e+00	0	60	0	3497000960	41	4016
2026-01-12 14:55:48.10	317.55	34.32	-35.3	-36.4	18.3	0.00e+00	0	60	0	3504340992	41	4050
2026-01-12 14:55:49.11	317.77	34.13	-35.2	-36.4	18.1	0.00e+00	0	60	0	3510632448	41	4023
2026-01-12 14:55:50.12	317.98	33.95	-35.4	-36.5	18.2	0.00e+00	0	60	0	3517972480	41	4091
2026-01-12 14:55:51.13	318.18	33.76	-35.4	-36.6	18.1	0.00e+00	0	60	0	3525312512	41	4125
2026-01-12 14:55:52.14	318.39	33.57	-35.6	-36.8	18.0	0.00e+00	0	60	0	3532652544	41	4195
2026-01-12 14:55:53.15	318.59	33.39	-35.7	-36.9	17.9	0.00e+00	0	60	0	3539992576	41	4248
2026-01-12 14:55:54.16	318.79	33.21	-35.8	-37.0	17.7	0.00e+00	0	60	0	3547332608	41	4331
2026-01-12 14:55:55.17	318.99	33.02	-35.9	-37.1	17.6	0.00e+00	0	60	0	3554672640	41	4389
2026-01-12 14:55:56.18	319.19	32.84	-36.0	-37.2	17.5	0.00e+00	0	60	0	3562012672	41	4439
2026-01-12 14:55:57.19	319.38	32.66	-36.0	-37.3	17.5	0.00e+00	0	60	0	3569352704	41	4455
2026-01-12 14:55:58.19	319.57	32.48	-36.0	-37.3	17.4	0.00e+00	0	60	0	3576692736	41	4464
2026-01-12 14:55:59.20	319.76	32.30	-35.9	-37.2	17.5	0.00e+00	0	60	0	3584032768	41	4431
2026-01-12 14:56:00.21	319.95	32.12	-35.8	-37.1	17.7	0.00e+00	0	60	0	3591372800	41	4345
2026-01-12 14:56:01.22	320.14	31.95	-35.8	-37.0	17.7	0.00e+00	0	60	0	3598712832	41	4310
2026-01-12 14:56:02.23	320.32	31.77	-35.6	-36.8	17.9	0.00e+00	0	60	0	3606052864	41	4232
2026-01-12 14:56:03.24	320.51	31.59	-35.6	-36.8	17.9	0.00e+00	0	60	0	3613392896	41	4198
2026-01-12 14:56:04.25	320.69	31.42	-35.5	-36.7	18.0	0.00e+00	0	60	0	3620732928	41	4153
2026-01-12 14:56:05.26	320.87	31.24	-35.5	-36.7	18.0	0.00e+00	0	60	0	3628072960	41	4174
2026-01-12 14:56:06.27	321.04	31.07	-35.4	-36.6	18.1	0.00e+00	0	60	0	3634364416	41	4111
2026-01-12 14:56:07.28	321.22	30.89	-35.5	-36.7	18.0	0.00e+00	0	60	0	3641704448	41	4157
2026-01-12 14:56:08.29	321.39	30.72	-35.5	-36.7	18.0	0.00e+00	0	60	0	3650093056	41	4171
2026-01-12 14:56:09.30	321.56	30.55	-35.6	-36.8	17.9	0.00e+00	0	60	0	3656384512	41	4207
2026-01-12 14:56:10.31	321.73	30.38	-35.7	-36.9	17.9	0.00e+00	0	60	0	3663724544	41	4246
2026-01-12 14:56:11.32	321.90	30.21	-35.7	-36.9	17.7	0.00e+00	0	60	0	3671064576	41	4280
2026-01-12 14:56:12.33	322.06	30.04	-35.7	-36.9	17.8	0.00e+00	0	60	0	3678404608	41	4262
2026-01-12 14:56:13.34	322.23	29.87	-35.8	-37.0	17.7	0.00e+00	0	60	0	3685744640	41	4323
2026-01-12 14:56:14.35	322.39	29.70	-35.8	-37.0	17.6	0.00e+00	0	60	0	3693084672	41	4336
2026-01-12 14:56:15.36	322.55	29.53	-35.9	-37.2	17.5	0.00e+00	0	60	0	3700424704	41	4394
2026-01-12 14:56:16.37	322.71	29.36	-35.9	-37.2	17.5	0.00e+00	0	60	0	3707764736	41	4392
2026-01-12 14:56:17.38	322.87	29.20	-36.0	-37.3	17.4	0.00e+00	0	60	0	3715104768	41	4470
2026-01-12 14:56:18.39	323.03	29.03	-36.1	-37.4	17.3	0.00e+00	0	60	0	3722444800	41	4516
2026-01-12 14:56:19.40	323.18	28.87	-36.2	-37.5	17.2	0.00e+00	0	60	0	3729784832	42	4336
2026-01-12 14:56:20.41	323.33	28.70	-36.3	-37.6	17.1	0.00e+00	0	60	0	3737124864	42	4359
2026-01-12 14:56:21.42	323.49	28.54	-36.2	-37.5	17.2	0.00e+00	0	60	0	3744464896	42	4306
2026-01-12 14:56:22.42	323.63	28.38	-36.3	-37.6	17.1	0.00e+00	0	60	0	3751804928	42	4372
2026-01-12 14:56:23.44	323.79	28.22	-36.3	-37.6	17.0	0.00e+00	0	60	0	3759144960	42	4391
2026-01-12 14:56:24.45	323.93	28.06	-36.3	-37.6	17.1	0.00e+00	0	60	0	3766484992	42	4359
2026-01-12 14:56:25.46	324.08	27.90	-36.3	-37.6	17.1	0.00e+00	0	60	0	3773825024	42	4349
2026-01-12 14:56:26.47	324.22	27.74	-36.2	-37.5	17.2	0.00e+00	0	60	0	3781165056	42	4313
2026-01-12 14:56:27.47	324.36	27.58	-36.2	-37.4	17.2	0.00e+00	0	60	0	3787456512	42	4290
2026-01-12 14:56:28.48	324.51	27.42	-36.1	-37.4	17.3	0.00e+00	0	60	0	3795845120	42	4253
2026-01-12 14:56:29.50	324.65	27.26	-36.0	-37.2	17.4	0.00e+00	0	60	0	3803185152	42	4182
2026-01-12 14:56:30.51	324.79	27.11	-35.9	-37.2	17.5	0.00e+00	0	60	0	3809476608	42	4150
2026-01-12 14:56:31.52	324.92	26.95	-35.9	-37.1	17.5	0.00e+00	0	60	0	3816816640	42	4128
2026-01-12 14:56:32.53	325.06	26.80	-35.8	-37.0	17.6	0.00e+00	0	60	0	3824156672	42	4083
2026-01-12 14:56:33.54	325.20	26.64	-35.8	-37.0	17.7	0.00e+00	0	60	0	3831496704	42	4069
2026-01-12 14:56:34.55	325.33	26.49	-35.8	-37.0	17.6	0.00e+00	0	60	0	3838836736	42	4083
2026-01-12 14:56:35.56	325.46	26.34	-35.7	-37.0	17.7	0.00e+00	0	60	0	3846176768	42	4063
2026-01-12 14:56:36.57	325.59	26.18	-35.8	-37.0	17.6	0.00e+00	0	60	0	3853516800	42	4084
2026-01-12 14:56:37.58	325.72	26.03	-35.8	-37.1	17.6	0.00e+00	0	60	0	3860856832	42	4111
2026-01-12 14:56:38.58	325.85	25.88	-35.8	-37.1	17.6	0.00e+00	0	60	0	3868196864	42	4103
2026-01-12 14:56:39.60	325.98	25.73	-35.8	-37.0	17.6	0.00e+00	0	60	0	3875536896	42	4090
2026-01-12 14:56:40.60	326.11	25.58	-35.9	-37.1	17.5	0.00e+00	0	60	0	3882876928	42	4139
2026-01-12 14:56:41.62	326.23	25.43	-35.9	-37.2	17.4	0.00e+00	0	60	0	3890216960	42	4153
2026-01-12 14:56:42.63	326.36	25.29	-35.9	-37.2	17.5	0.00e+00	0	60	0	3897556992	42	4155
2026-01-12 14:56:43.64	326.48	25.14	-35.9	-37.1	17.5	0.00e+00	0	60	0	3904897024	42	4142
2026-01-12 14:56:44.65	326.60	24.99	-35.9	-37.2	17.4	0.00e+00	0	60	0	3912237056	42	4148
2026-01-12 14:56:45.66	326.72	24.85	-35.9	-37.2	17.5	0.00e+00	0	60	0	3919577088	42	4149
2026-01-12 14:56:46.67	326.84	24.70	-35.9	-37.2	17.4	0.00e+00	0	60	0	3926917120	42	4163
2026-01-12 14:56:47.68	326.96	24.56	-36.0	-37.2	17.4	0.00e+00	0	60	0	3933208576	42	4185
2026-01-12 14:56:48.69	327.08	24.41	-35.9	-37.2	17.4	0.00e+00	0	60	0	3941597184	42	4164
2026-01-12 14:56:49.70	327.20	24.27	-36.0	-37.2	17.4	0.00e+00	0	60	0	3948937216	42	4178
2026-01-12 14:56:50.71	327.31	24.13	-36.0	-37.3	17.3	0.00e+00	0	60	0	3955228672	42	4225
2026-01-12 14:56:51.72	327.43	23.99	-36.0	-37.3	17.2	0.00e+00	0	60	0	3962568704	42	4225
2026-01-12 14:56:52.73	327.54	23.85	-36.1	-37.3	17.2	0.00e+00	0	60	0	3969908736	42	4240
2026-01-12 14:56:53.74	327.66	23.70	-36.1	-37.4	17.2	0.00e+00	0	60	0	3977248768	42	4257
2026-01-12 14:56:54.75	327.77	23.57	-36.1	-37.4	17.2	0.00e+00	0	60	0	3984588800	42	4257
2026-01-12 14:56:55.76	327.88	23.43	-36.1	-37.4	17.1	0.00e+00	0	60	0	3991928832	42	4268
2026-01-12 14:56:56.77	327.99	23.29	-36.2	-37.5	17.1	0.00e+00	0	60	0	3999268864	42	4293
2026-01-12 14:56:57.78	328.10	23.15	-36.1	-37.4	17.1	0.00e+00	0	60	0	4006608896	42	4272
2026-01-12 14:56:58.79	328.21	23.01	-36.1	-37.4	17.1	0.00e+00	0	60	0	4013948928	42	4267
2026-01-12 14:56:59.80	328.31	22.88	-36.1	-37.4	17.1	0.00e+00	0	60	0	4021288960	42	4285
2026-01-12 14:57:00.81	328.42	22.74	-36.1	-37.4	17.1	0.00e+00	0	60	0	4028628992	42	4269
2026-01-12 14:57:01.82	328.52	22.60	-36.2	-37.5	17.0	0.00e+00	0	60	0	4035969024	42	4327
2026-01-12 14:57:02.83	328.63	22.47	-36.2	-37.6	17.0	0.00e+00	0	60	0	4043309056	42	4344
2026-01-12 14:57:03.84	328.73	22.34	-36.2	-37.6	17.0	0.00e+00	0	60	0	4050649088	42	4343
2026-01-12 14:57:04.85	328.84	22.20	-36.3	-37.6	16.9	0.00e+00	0	60	0	4057989120	42	4361
2026-01-12 14:57:05.86	328.94	22.07	-36.2	-37.6	16.9	0.00e+00	0	60	0	4065329152	42	4351
2026-01-12 14:57:06.87	329.04	21.94	-36.3	-37.7	16.8	0.00e+00	0	60	0	4072669184	42	4399
2026-01-12 14:57:07.88	329.14	21.81	-36.4	-37.8	16.8	0.00e+00	0	60	0	4080009216	42	4442
2026-01-12 14:57:08.89	329.24	21.67	-36.4	-37.8	16.7	0.00e+00	0	60	0	4087349248	42	4448
2026-01-12 14:57:09.90	329.34	21.54	-36.5	-37.8	16.6	0.00e+00	0	60	0	4094689280	42	4482
2026-01-12 14:57:10.91	329.44	21.41	-36.5	-37.9	16.6	0.00e+00	0	60	0	4102029312	42	4494
2026-01-12 14:57:11.92	329.53	21.29	-36.5	-37.8	16.6	0.00e+00	0	60	0	4108320768	42	4483
2026-01-12 14:57:12.93	329.63	21.16	-36.5	-37.9	16.6	0.00e+00	0	60	0	4116709376	42	4521
2026-01-12 14:57:13.94	329.72	21.03	-36.5	-37.9	16.6	0.00e+00	0	60	0	4124049408	42	4522
2026-01-12 14:57:14.95	329.82	20.90	-36.5	-37.9	16.5	0.00e+00	0	60	0	4130340864	42	4531
2026-01-12 14:57:15.96	329.91	20.77	-36.6	-37.9	16.5	0.00e+00	0	60	0	4137680896	42	4541
2026-01-12 14:57:16.97	330.01	20.65	-36.6	-38.0	16.5	0.00e+00	0	60	0	4145020928	42	4567
2026-01-12 14:57:17.98	330.10	20.52	-36.6	-38.0	16.4	0.00e+00	0	60	0	4152360960	42	4578
2026-01-12 14:57:18.99	330.19	20.40	-36.6	-38.0	16.4	0.00e+00	0	60	0	4159700992	42	4584
2026-01-12 14:57:20.00	330.28	20.27	-36.7	-38.1	16.4	0.00e+00	0	60	0	4167041024	42	4610
2026-01-12 14:57:21.01	330.37	20.15	-36.7	-38.1	16.3	0.00e+00	0	60	0	4174381056	42	4607
2026-01-12 14:57:22.02	330.46	20.02	-36.7	-38.1	16.3	0.00e+00	0	60	0	4181721088	42	4611
2026-01-12 14:57:23.03	330.55	19.90	-36.7	-38.1	16.2	0.00e+00	0	60	0	4189061120	43	4389
2026-01-12 14:57:24.04	330.64	19.78	-36.7	-38.1	16.3	0.00e+00	0	60	0	4196401152	43	4371
2026-01-12 14:57:25.05	330.73	19.66	-36.7	-38.1	16.3	0.00e+00	0	60	0	4203741184	43	4342
2026-01-12 14:57:26.06	330.82	19.54	-36.6	-38.1	16.3	0.00e+00	0	60	0	4211081216	43	4344
2026-01-12 14:57:27.08	330.90	19.41	-36.7	-38.1	16.3	0.00e+00	0	60	0	4218421248	43	4350
2026-01-12 14:57:28.08	330.99	19.29	-36.7	-38.1	16.2	0.00e+00	0	60	0	4225761280	43	4365
2026-01-12 14:57:29.09	331.07	19.17	-36.6	-38.0	16.3	0.00e+00	0	60	0	4233101312	43	4319
2026-01-12 14:57:30.10	331.16	19.05	-36.6	-38.0	16.3	0.00e+00	0	60	0	4240441344	43	4326
2026-01-12 14:57:31.11	331.24	18.94	-36.6	-38.0	16.3	0.00e+00	0	60	0	4247781376	43	4312
2026-01-12 14:57:32.12	331.33	18.82	-36.7	-38.1	16.2	0.00e+00	0	60	0	4254072832	43	4353
2026-01-12 14:57:33.13	331.41	18.70	-36.6	-38.0	16.3	0.00e+00	0	60	0	4262461440	43	4338
2026-01-12 14:57:34.15	331.49	18.58	-36.7	-38.1	16.2	0.00e+00	0	60	0	4269801472	43	4361
2026-01-12 14:57:35.16	331.57	18.46	-36.6	-38.0	16.2	0.00e+00	0	60	0	4276092928	43	4339
2026-01-12 14:57:36.16	331.65	18.35	-36.8	-38.2	16.1	0.00e+00	0	60	0	4283432960	43	4412
2026-01-12 14:57:37.17	331.73	18.23	-36.7	-38.2	16.1	0.00e+00	0	60	0	4290772992	43	4400
2026-01-12 14:57:38.19	331.81	18.12	-36.8	-38.2	16.0	0.00e+00	0	60	0	4298113024	43	4430
2026-01-12 14:57:39.19	331.89	18.00	-36.7	-38.2	16.1	0.00e+00	0	60	0	4305453056	43	4409
2026-01-12 14:57:40.20	331.97	17.89	-36.8	-38.2	16.0	0.00e+00	0	60	0	4312793088	43	4432
2026-01-12 14:57:41.21	332.05	17.78	-36.8	-38.3	15.9	0.00e+00	0	60	0	4320133120	43	4464
2026-01-12 14:57:42.23	332.13	17.66	-36.8	-38.3	16.0	0.00e+00	0	60	0	4327473152	43	4456
2026-01-12 14:57:43.24	332.21	17.55	-36.9	-38.3	15.9	0.00e+00	0	60	0	4334813184	43	4486
2026-01-12 14:57:44.25	332.28	17.44	-36.9	-38.3	15.9	0.00e+00	0	60	0	4342153216	43	4489
2026-01-12 14:57:45.26	332.36	17.32	-36.9	-38.4	15.8	0.00e+00	0	60	0	4349493248	43	4532
2026-01-12 14:57:46.27	332.43	17.21	-36.9	-38.4	15.8	0.00e+00	0	60	0	4356833280	43	4512
2026-01-12 14:57:47.28	332.51	17.10	-37.0	-38.5	15.7	0.00e+00	0	60	0	4364173312	43	4546
2026-01-12 14:57:48.29	332.58	16.99	-37.0	-38.5	15.7	0.00e+00	0	60	0	4371513344	43	4553
2026-01-12 14:57:49.30	332.66	16.88	-37.0	-38.4	15.7	0.00e+00	0	60	0	4378853376	43	4538
2026-01-12 14:57:50.31	332.73	16.77	-37.0	-38.5	15.7	0.00e+00	0	60	0	4386193408	43	4582
2026-01-12 14:57:51.32	332.80	16.66	-37.0	-38.5	15.6	0.00e+00	0	60	0	4393533440	43	4594
2026-01-12 14:57:52.33	332.88	16.55	-37.1	-38.6	15.5	0.00e+00	0	60	0	4400873472	43	4632
2026-01-12 14:57:53.34	332.95	16.45	-37.1	-38.6	15.6	0.00e+00	0	60	0	4408213504	43	4614
2026-01-12 14:57:54.35	333.02	16.34	-37.1	-38.6	15.5	0.00e+00	0	60	0	4415553536	43	4615
2026-01-12 14:57:55.36	333.09	16.23	-37.1	-38.7	15.4	0.00e+00	0	60	0	4422893568	43	4670
2026-01-12 14:57:56.37	333.16	16.12	-37.1	-38.7	15.4	0.00e+00	0	60	0	4429185024	43	4664
2026-01-12 14:57:57.38	333.23	16.02	-37.5	-39.1	15.2	0.00e+00	0	60	0	4436525056	44	4608
2026-01-12 14:57:58.39	333.30	15.91	-37.4	-38.9	15.3	0.00e+00	0	60	0	4444913664	44	4535
2026-01-12 14:57:59.40	333.37	15.81	-37.3	-38.9	15.3	0.00e+00	0	60	0	4451205120	44	4510
2026-01-12 14:58:00.41	333.44	15.70	-37.3	-38.9	15.3	0.00e+00	0	60	0	4458545152	44	4516
2026-01-12 14:58:01.42	333.51	15.60	-37.5	-39.1	15.1	0.00e+00	0	60	0	4465885184	44	4633
2026-01-12 14:58:02.43	333.57	15.49	-37.5	-39.1	15.1	0.00e+00	0	60	0	4473225216	44	4602
2026-01-12 14:58:03.44	333.64	15.39	-37.5	-39.1	15.1	0.00e+00	0	60	0	4480565248	44	4627
2026-01-12 14:58:04.45	333.71	15.28	-37.5	-39.0	15.2	0.00e+00	0	60	0	4487905280	44	4598
2026-01-12 14:58:05.46	333.77	15.18	-37.5	-39.1	15.1	0.00e+00	0	60	0	4495245312	44	4617
2026-01-12 14:58:06.47	333.84	15.08	-37.6	-39.2	14.9	0.00e+00	0	60	0	4502585344	44	4684
2026-01-12 14:58:07.47	333.90	14.98	-37.5	-39.1	15.0	0.00e+00	0	60	0	4509925376	44	4641
2026-01-12 14:58:08.48	333.97	14.87	-37.4	-39.0	15.1	0.00e+00	0	60	0	4517265408	44	4591
2026-01-12 14:58:09.50	334.03	14.77	-37.6	-39.2	14.9	0.00e+00	0	60	0	4524605440	44	4671
