passes_logs/2026/01/12/R2.0S_Moscow/R2.0S_Moscow__20260112_130142_FENGYUN_3D_rec.log

#Pass ID: 20260112_130142_FENGYUN 3D
#Satellite: FENGYUN 3D
#Configuration: FENGYUN 3D
#almurnet v.1.7.20251203
#Start time: 2026-01-12 13:01:43

#Version: 2.2.20231116
#Station: R2.0S_Moscow
#Location: 37.707566 lon 55.798166 lat
#TLE: 1 43010U 17072A   26011.97305084  .00000235  00000+0  13268-3 0  9993
#TLE: 2 43010  98.9935 343.7425 0002238 114.1623 245.9787 14.19695178422825

#Time	Az	El	Level	Level2	SNR	BER	BlckErr	Temp	State	Recorded	gain1	gain2
2026-01-12 13:01:43.97	192.33	2.12	-43.8	-55.1	3.8	8.45e-01	0	49	0	0	59	13025
2026-01-12 13:01:44.98	192.38	2.18	-43.8	-55.1	3.8	8.47e-01	0	50	104	0	59	13058
2026-01-12 13:01:45.99	192.43	2.24	-43.8	-55.1	3.8	8.46e-01	0	50	104	0	59	13067
2026-01-12 13:01:47.00	192.48	2.30	-43.8	-55.1	3.8	8.46e-01	0	50	104	0	59	13031
2026-01-12 13:01:48.01	192.54	2.36	-43.8	-55.1	3.8	8.46e-01	0	50	104	0	59	13034
2026-01-12 13:01:49.02	192.59	2.42	-43.8	-55.1	3.8	8.46e-01	0	50	104	0	59	13003
2026-01-12 13:01:50.03	192.64	2.48	-43.8	-55.1	3.8	8.46e-01	0	50	104	0	59	13026
2026-01-12 13:01:51.04	192.70	2.54	-43.8	-55.1	3.8	8.47e-01	0	50	104	0	59	13021
2026-01-12 13:01:52.05	192.75	2.61	-43.8	-55.1	3.8	8.46e-01	0	50	104	0	59	12983
2026-01-12 13:01:53.06	192.80	2.67	-43.8	-55.1	3.8	8.46e-01	0	50	104	0	59	13026
2026-01-12 13:01:54.07	192.86	2.73	-43.8	-55.1	3.8	8.45e-01	0	50	104	0	59	13012
2026-01-12 13:01:55.08	192.91	2.79	-43.8	-55.0	3.8	8.46e-01	0	51	104	0	59	12951
2026-01-12 13:01:56.09	192.96	2.85	-43.8	-55.1	3.8	8.46e-01	0	51	104	0	59	13007
2026-01-12 13:01:57.10	193.02	2.91	-43.8	-55.1	3.8	8.46e-01	0	51	104	0	59	12989
2026-01-12 13:01:58.12	193.07	2.98	-43.8	-55.1	3.8	8.46e-01	0	51	104	0	59	13040
2026-01-12 13:01:59.13	193.13	3.04	-43.8	-55.1	3.8	8.47e-01	0	51	104	0	59	13023
2026-01-12 13:02:00.14	193.18	3.10	-43.8	-55.1	3.8	8.46e-01	0	51	104	0	59	13044
2026-01-12 13:02:01.15	193.24	3.16	-43.8	-55.1	3.8	8.46e-01	0	51	104	0	59	13038
2026-01-12 13:02:02.16	193.30	3.23	-43.8	-55.1	3.8	8.47e-01	0	51	104	0	59	12996
2026-01-12 13:02:03.17	193.35	3.29	-43.8	-55.1	3.8	8.47e-01	0	51	104	0	59	13075
2026-01-12 13:02:04.18	193.41	3.35	-43.8	-55.1	3.8	8.46e-01	0	51	104	0	59	13000
2026-01-12 13:02:05.19	193.46	3.42	-43.8	-55.1	3.8	8.46e-01	0	51	104	0	59	13038
2026-01-12 13:02:06.20	193.52	3.48	-43.8	-55.1	3.8	8.47e-01	0	51	104	0	59	13044
2026-01-12 13:02:07.21	193.58	3.54	-43.8	-55.1	3.8	8.47e-01	0	51	104	0	59	13010
2026-01-12 13:02:08.22	193.63	3.61	-43.8	-55.1	3.8	8.47e-01	0	52	104	0	59	13062
2026-01-12 13:02:09.23	193.69	3.67	-43.8	-55.1	3.8	8.46e-01	0	52	104	0	59	12990
2026-01-12 13:02:10.24	193.75	3.73	-43.8	-55.1	3.8	8.46e-01	0	52	104	0	59	13020
2026-01-12 13:02:11.25	193.81	3.80	-43.8	-55.1	3.8	8.46e-01	0	52	104	0	59	13028
2026-01-12 13:02:12.26	193.86	3.86	-43.8	-55.1	3.8	8.44e-01	0	52	104	0	59	13041
2026-01-12 13:02:13.27	193.92	3.92	-43.8	-55.1	3.8	8.46e-01	0	52	104	0	59	13057
2026-01-12 13:02:14.28	193.98	3.99	-43.8	-55.1	3.8	8.46e-01	0	52	104	0	59	13042
2026-01-12 13:02:15.30	194.04	4.05	-43.8	-55.1	3.8	8.45e-01	0	52	104	0	59	13046
2026-01-12 13:02:16.31	194.10	4.12	-43.8	-55.1	3.8	8.46e-01	0	52	104	0	59	13048
2026-01-12 13:02:17.32	194.16	4.18	-43.8	-55.1	3.8	8.47e-01	0	52	104	0	59	13023
2026-01-12 13:02:18.33	194.22	4.25	-43.8	-55.0	3.8	8.45e-01	0	52	104	0	59	12899
2026-01-12 13:02:19.34	194.28	4.31	-43.8	-55.0	3.8	8.46e-01	0	52	104	0	59	12866
2026-01-12 13:02:20.35	194.34	4.38	-43.8	-55.0	3.8	8.47e-01	0	52	104	0	59	12872
2026-01-12 13:02:21.36	194.40	4.44	-43.8	-55.0	3.8	8.46e-01	0	52	104	0	59	12813
2026-01-12 13:02:22.37	194.46	4.51	-43.8	-55.0	3.8	8.46e-01	0	52	104	0	59	12821
2026-01-12 13:02:23.38	194.52	4.57	-43.8	-54.9	3.8	8.46e-01	0	52	104	0	59	12751
2026-01-12 13:02:24.39	194.58	4.64	-43.8	-54.8	3.8	8.47e-01	0	52	104	0	59	12659
2026-01-12 13:02:25.40	194.64	4.70	-43.7	-54.7	3.8	8.46e-01	0	52	104	0	59	12402
2026-01-12 13:02:26.41	194.70	4.77	-43.7	-54.7	3.8	8.45e-01	0	53	104	0	59	12421
2026-01-12 13:02:27.43	194.76	4.84	-43.7	-54.5	3.8	8.45e-01	0	53	104	0	59	12127
2026-01-12 13:02:28.44	194.82	4.90	-43.7	-54.4	3.8	8.46e-01	0	53	104	0	59	12042
2026-01-12 13:02:29.45	194.89	4.97	-43.7	-54.3	3.8	8.46e-01	0	53	104	0	59	11884
2026-01-12 13:02:30.46	194.95	5.03	-43.7	-54.3	3.8	8.46e-01	0	53	104	0	59	11849
2026-01-12 13:02:31.47	195.01	5.10	-43.7	-54.2	3.8	8.46e-01	0	53	104	0	59	11788
2026-01-12 13:02:32.48	195.08	5.17	-43.7	-54.0	3.8	8.46e-01	0	53	104	0	59	11512
2026-01-12 13:02:33.49	195.14	5.23	-43.7	-54.0	3.8	8.46e-01	0	53	104	0	59	11431
2026-01-12 13:02:34.51	195.20	5.30	-43.6	-53.7	3.8	8.44e-01	0	53	104	0	59	11107
2026-01-12 13:02:35.52	195.27	5.37	-43.6	-53.6	3.8	8.45e-01	0	53	104	0	59	10978
2026-01-12 13:02:36.53	195.33	5.44	-43.6	-53.4	3.8	8.45e-01	0	53	104	0	59	10701
2026-01-12 13:02:37.54	195.40	5.50	-43.6	-53.3	3.8	8.47e-01	0	53	104	0	59	10613
2026-01-12 13:02:38.55	195.46	5.57	-43.5	-53.0	3.8	8.45e-01	0	53	104	0	59	10255
2026-01-12 13:02:39.56	195.53	5.64	-43.5	-52.6	4.0	8.44e-01	0	53	104	0	59	9744
2026-01-12 13:02:40.57	195.59	5.71	-43.4	-52.4	3.9	8.43e-01	0	53	104	0	58	10123
2026-01-12 13:02:41.58	195.66	5.77	-43.4	-52.3	4.0	8.43e-01	0	53	104	0	58	9968
2026-01-12 13:02:42.59	195.72	5.84	-43.4	-52.0	4.1	8.41e-01	0	53	0	0	58	9705
2026-01-12 13:02:43.60	195.79	5.91	-43.3	-51.4	4.2	8.38e-01	0	54	0	0	58	8987
2026-01-12 13:02:44.62	195.86	5.98	-43.3	-51.4	4.2	8.34e-01	0	54	0	0	58	9056
2026-01-12 13:02:45.63	195.92	6.05	-43.1	-50.7	4.5	8.28e-01	0	54	0	0	58	8289
2026-01-12 13:02:46.64	195.99	6.12	-43.2	-50.8	4.4	8.25e-01	0	53	0	0	58	8425
2026-01-12 13:02:47.65	196.06	6.19	-43.0	-50.0	4.8	8.06e-01	0	53	0	0	58	7676
2026-01-12 13:02:48.66	196.12	6.25	-43.0	-50.0	4.8	7.90e-01	0	54	0	0	57	8089
2026-01-12 13:02:49.67	196.19	6.32	-42.8	-49.3	5.1	7.57e-01	0	54	0	0	57	7461
2026-01-12 13:02:50.68	196.26	6.39	-42.7	-49.1	5.2	7.46e-01	0	53	0	0	57	7294
2026-01-12 13:02:51.70	196.33	6.46	-42.6	-48.8	5.4	6.99e-01	0	54	0	0	57	7057
2026-01-12 13:02:52.71	196.40	6.53	-42.6	-48.6	5.5	7.19e-01	0	54	0	0	57	6951
2026-01-12 13:02:53.72	196.47	6.60	-42.6	-48.6	5.6	6.53e-01	0	54	0	2097152	57	6936
2026-01-12 13:02:54.73	196.54	6.67	-42.6	-48.6	5.6	6.10e-01	0	54	0	5242880	57	6886
2026-01-12 13:02:55.74	196.61	6.74	-42.5	-48.3	5.8	4.20e-01	0	54	0	10485760	57	6686
2026-01-12 13:02:56.75	196.68	6.81	-42.5	-48.3	5.8	4.80e-01	0	54	0	15728640	56	7073
2026-01-12 13:02:57.76	196.75	6.88	-42.5	-48.2	5.9	4.02e-01	0	54	0	20971520	56	6960
2026-01-12 13:02:58.77	196.82	6.95	-42.5	-48.2	5.8	4.00e-01	0	54	0	27262976	56	7033
2026-01-12 13:02:59.78	196.89	7.02	-42.3	-47.6	6.3	3.16e-01	0	54	0	32505856	56	6530
2026-01-12 13:03:00.79	196.96	7.09	-42.1	-47.3	6.6	2.49e-01	0	54	0	38797312	56	6279
2026-01-12 13:03:01.81	197.03	7.17	-41.7	-46.4	7.2	1.83e-01	0	54	0	44040192	55	6012
2026-01-12 13:03:02.82	197.11	7.24	-41.5	-45.8	7.8	1.03e-01	0	54	0	49283072	54	5978
2026-01-12 13:03:03.83	197.18	7.31	-41.2	-45.3	8.3	6.41e-02	0	54	0	55574528	54	5647
2026-01-12 13:03:04.84	197.25	7.38	-40.8	-44.6	9.0	3.36e-02	0	54	0	60817408	53	5493
2026-01-12 13:03:05.85	197.32	7.45	-40.6	-44.2	9.4	2.30e-02	0	54	0	67108864	53	5264
2026-01-12 13:03:06.86	197.40	7.52	-40.3	-43.7	10.0	1.05e-02	0	55	0	72351744	52	5226
2026-01-12 13:03:07.87	197.47	7.60	-40.1	-43.4	10.3	7.86e-03	0	54	0	77594624	52	5052
2026-01-12 13:03:08.89	197.55	7.67	-40.1	-43.3	10.5	4.89e-03	0	55	0	83886080	51	5286
2026-01-12 13:03:09.90	197.62	7.74	-40.0	-43.1	10.6	4.14e-03	0	55	0	89128960	51	5199
2026-01-12 13:03:10.91	197.70	7.81	-40.0	-43.1	10.7	4.55e-03	0	55	0	95420416	51	5181
2026-01-12 13:03:11.92	197.77	7.89	-40.1	-43.3	10.4	4.68e-03	0	54	0	100663296	51	5298
2026-01-12 13:03:12.93	197.85	7.96	-40.3	-43.6	10.1	7.60e-03	0	55	0	106954752	51	5506
2026-01-12 13:03:13.94	197.92	8.03	-40.5	-43.9	9.8	1.20e-02	0	55	0	112197632	51	5688
2026-01-12 13:03:14.95	198.00	8.10	-43.5	-50.9	4.2	8.44e-01	0	55	104	115343360	58	8485
2026-01-12 13:03:15.96	198.08	8.18	-40.6	-44.0	9.8	4.30e-01	0	55	0	115343360	53	5141
2026-01-12 13:03:16.97	198.15	8.25	-43.2	-51.2	4.3	2.13e-02	0	55	0	119537664	56	9913
2026-01-12 13:03:17.98	198.23	8.32	-43.5	-54.5	3.8	8.36e-01	0	55	104	119537664	57	13576
2026-01-12 13:03:18.99	198.31	8.40	-41.6	-46.0	8.0	1.93e-02	0	55	0	120586240	53	6436
2026-01-12 13:03:20.00	198.39	8.47	-40.0	-43.0	10.9	3.28e-03	0	55	0	125829120	52	4852
2026-01-12 13:03:21.01	198.47	8.55	-39.8	-42.7	11.3	9.52e-04	0	55	0	132120576	51	4977
2026-01-12 13:03:22.02	198.54	8.62	-39.7	-42.6	11.4	8.66e-04	0	55	0	137363456	51	4913
2026-01-12 13:03:23.04	198.63	8.70	-39.7	-42.5	11.5	5.41e-04	0	55	0	143654912	51	4825
2026-01-12 13:03:24.04	198.70	8.77	-39.7	-42.5	11.6	4.94e-04	0	55	0	148897792	51	4819
2026-01-12 13:03:25.05	198.78	8.84	-39.7	-42.5	11.5	4.89e-04	0	55	0	155189248	51	4847
2026-01-12 13:03:26.06	198.86	8.92	-39.6	-42.3	11.8	4.14e-04	0	55	0	160432128	51	4722
2026-01-12 13:03:27.07	198.95	8.99	-39.5	-42.2	11.9	3.19e-04	0	55	0	165675008	51	4685
2026-01-12 13:03:28.08	199.03	9.07	-39.6	-42.3	11.7	3.43e-04	0	55	0	171966464	50	5039
2026-01-12 13:03:29.09	199.11	9.15	-39.5	-42.2	11.9	2.83e-04	0	55	0	177209344	50	4968
2026-01-12 13:03:30.10	199.19	9.22	-39.4	-42.0	12.1	2.13e-04	0	55	0	183500800	50	4863
2026-01-12 13:03:31.11	199.27	9.30	-39.4	-42.0	12.1	1.83e-04	0	55	0	188743680	50	4835
2026-01-12 13:03:32.12	199.36	9.37	-39.3	-41.9	12.3	1.34e-04	0	55	0	193986560	50	4772
2026-01-12 13:03:33.13	199.44	9.45	-39.4	-41.9	12.2	1.59e-04	0	55	0	200278016	50	4803
2026-01-12 13:03:34.14	199.52	9.53	-39.3	-41.8	12.4	1.02e-04	0	55	0	205520896	50	4727
2026-01-12 13:03:35.15	199.61	9.60	-39.3	-41.9	12.3	1.12e-04	0	55	0	211812352	50	4789
2026-01-12 13:03:36.16	199.69	9.68	-39.3	-41.8	12.4	1.05e-04	0	55	0	217055232	50	4738
2026-01-12 13:03:37.17	199.78	9.76	-39.2	-41.7	12.5	8.69e-05	0	55	0	222298112	50	4688
2026-01-12 13:03:38.18	199.86	9.83	-39.3	-41.8	12.4	6.63e-05	0	55	0	228589568	50	4734
2026-01-12 13:03:39.19	199.95	9.91	-39.3	-41.8	12.4	7.89e-05	0	55	0	233832448	50	4717
2026-01-12 13:03:40.20	200.04	9.99	-39.2	-41.6	12.6	7.55e-05	0	56	0	240123904	50	4650
2026-01-12 13:03:41.20	200.12	10.07	-39.2	-41.7	12.6	6.52e-05	0	55	0	245366784	50	4667
2026-01-12 13:03:42.21	200.21	10.14	-39.1	-41.5	12.8	6.17e-05	0	56	0	251658240	50	4577
2026-01-12 13:03:43.22	200.30	10.22	-39.1	-41.6	12.7	5.95e-05	0	55	0	256901120	50	4599
2026-01-12 13:03:44.23	200.39	10.30	-39.2	-41.7	12.6	5.83e-05	0	56	0	263192576	50	4657
2026-01-12 13:03:45.24	200.47	10.38	-39.1	-41.6	12.7	3.66e-05	0	56	0	268435456	50	4622
2026-01-12 13:03:46.25	200.56	10.46	-39.2	-41.6	12.7	5.49e-05	0	56	0	273678336	50	4646
2026-01-12 13:03:47.26	200.65	10.54	-39.1	-41.5	12.8	3.77e-05	0	56	0	279969792	50	4562
2026-01-12 13:03:48.27	200.74	10.62	-39.0	-41.4	12.9	3.20e-05	0	56	0	285212672	49	4785
2026-01-12 13:03:49.28	200.83	10.70	-39.1	-41.5	12.8	4.57e-05	0	56	0	291504128	49	4833
2026-01-12 13:03:50.29	200.93	10.77	-38.9	-41.3	13.0	4.46e-05	0	56	0	296747008	49	4739
2026-01-12 13:03:51.30	201.02	10.85	-39.0	-41.5	12.8	4.00e-05	0	56	0	301989888	49	4823
2026-01-12 13:03:52.31	201.11	10.93	-39.0	-41.4	12.9	1.71e-05	0	56	0	308281344	49	4760
2026-01-12 13:03:53.32	201.20	11.01	-39.0	-41.4	12.9	2.97e-05	0	56	0	313524224	49	4778
2026-01-12 13:03:54.33	201.29	11.09	-39.0	-41.4	13.0	2.51e-05	0	56	0	319815680	49	4773
2026-01-12 13:03:55.34	201.39	11.18	-39.0	-41.4	13.0	2.51e-05	0	56	0	325058560	49	4766
2026-01-12 13:03:56.35	201.48	11.26	-38.9	-41.2	13.1	1.94e-05	0	56	0	330301440	49	4687
2026-01-12 13:03:57.36	201.58	11.34	-38.9	-41.2	13.2	1.14e-05	0	56	0	336592896	49	4672
2026-01-12 13:03:58.37	201.67	11.42	-38.9	-41.2	13.2	2.40e-05	0	56	0	341835776	49	4684
2026-01-12 13:03:59.38	201.77	11.50	-38.9	-41.2	13.2	1.60e-05	0	56	0	348127232	49	4700
2026-01-12 13:04:00.39	201.86	11.58	-38.7	-41.0	13.4	1.14e-05	0	56	0	353370112	49	4582
2026-01-12 13:04:01.40	201.96	11.66	-38.8	-41.0	13.4	4.50e-06	0	56	0	359661568	49	4594
2026-01-12 13:04:02.41	202.06	11.74	-38.7	-41.0	13.4	6.80e-06	0	56	0	364904448	49	4561
2026-01-12 13:04:03.42	202.15	11.83	-38.8	-41.0	13.4	4.50e-06	0	56	0	370147328	49	4583
2026-01-12 13:04:04.43	202.25	11.91	-38.7	-41.0	13.4	8.00e-06	0	56	0	376438784	49	4572
2026-01-12 13:04:05.44	202.35	11.99	-38.8	-41.1	13.3	4.50e-06	0	56	0	381681664	49	4620
2026-01-12 13:04:06.45	202.45	12.07	-38.8	-41.1	13.3	1.48e-05	0	56	0	387973120	49	4633
2026-01-12 13:04:07.46	202.55	12.16	-38.7	-41.0	13.4	2.20e-06	0	56	0	393216000	49	4572
2026-01-12 13:04:08.47	202.65	12.24	-38.8	-41.1	13.3	1.25e-05	0	56	0	398458880	49	4629
2026-01-12 13:04:09.48	202.75	12.32	-38.8	-41.0	13.4	1.02e-05	0	56	0	404750336	49	4591
2026-01-12 13:04:10.49	202.85	12.41	-38.8	-41.0	13.4	4.50e-06	0	56	0	409993216	49	4580
2026-01-12 13:04:11.50	202.95	12.49	-38.8	-41.0	13.4	4.50e-06	0	56	0	416284672	49	4586
2026-01-12 13:04:12.51	203.06	12.57	-38.7	-41.0	13.5	1.14e-05	0	56	0	421527552	49	4568
2026-01-12 13:04:13.52	203.16	12.66	-38.7	-41.0	13.5	6.80e-06	0	56	0	426770432	49	4572
2026-01-12 13:04:14.53	203.26	12.74	-38.5	-40.7	13.7	8.00e-06	0	56	0	433061888	49	4428
2026-01-12 13:04:15.54	203.37	12.83	-38.7	-40.9	13.6	1.48e-05	0	56	0	438304768	49	4527
2026-01-12 13:04:16.55	203.47	12.91	-38.6	-40.8	13.7	2.20e-06	0	56	0	444596224	49	4462
2026-01-12 13:04:17.56	203.58	13.00	-38.6	-40.8	13.7	5.70e-06	0	56	0	449839104	49	4463
2026-01-12 13:04:18.57	203.68	13.08	-38.5	-40.7	13.8	2.20e-06	0	56	0	456130560	49	4420
2026-01-12 13:04:19.58	203.79	13.17	-38.5	-40.7	13.8	1.10e-06	0	56	0	461373440	49	4419
2026-01-12 13:04:20.59	203.90	13.25	-38.5	-40.7	13.8	1.10e-06	0	57	0	467664896	49	4400
2026-01-12 13:04:21.60	204.00	13.34	-38.4	-40.6	14.0	1.10e-06	0	56	0	472907776	48	4617
2026-01-12 13:04:22.61	204.11	13.43	-38.6	-40.7	13.8	4.50e-06	0	57	0	478150656	48	4692
2026-01-12 13:04:23.62	204.22	13.51	-38.6	-40.7	13.8	1.10e-06	0	56	0	484442112	48	4691
2026-01-12 13:04:24.63	204.33	13.60	-38.5	-40.7	13.9	1.10e-06	0	56	0	489684992	48	4657
2026-01-12 13:04:25.64	204.44	13.68	-38.5	-40.7	13.9	2.20e-06	0	57	0	495976448	48	4668
2026-01-12 13:04:26.65	204.55	13.77	-38.4	-40.6	14.0	2.20e-06	0	57	0	501219328	48	4609
2026-01-12 13:04:27.66	204.66	13.86	-38.5	-40.6	13.9	3.40e-06	0	56	0	506462208	48	4644
2026-01-12 13:04:28.67	204.77	13.95	-38.4	-40.5	14.1	1.10e-06	0	57	0	512753664	48	4580
2026-01-12 13:04:29.68	204.89	14.03	-38.3	-40.4	14.1	0.00e+00	0	57	0	517996544	48	4540
2026-01-12 13:04:30.69	205.00	14.12	-38.3	-40.3	14.2	2.20e-06	0	57	0	524288000	48	4489
2026-01-12 13:04:31.70	205.11	14.21	-38.3	-40.3	14.3	2.20e-06	0	56	0	529530880	48	4485
2026-01-12 13:04:32.71	205.23	14.30	-38.3	-40.3	14.3	1.10e-06	0	56	0	534773760	48	4486
2026-01-12 13:04:33.71	205.34	14.39	-38.3	-40.3	14.3	0.00e+00	0	57	0	541065216	48	4485
2026-01-12 13:04:34.72	205.46	14.47	-38.3	-40.4	14.3	1.10e-06	0	57	0	546308096	48	4508
2026-01-12 13:04:35.73	205.57	14.56	-38.3	-40.4	14.2	1.10e-06	0	57	0	552599552	48	4505
2026-01-12 13:04:36.74	205.69	14.65	-38.4	-40.5	14.1	0.00e+00	0	57	0	557842432	48	4579
2026-01-12 13:04:37.75	205.81	14.74	-38.3	-40.4	14.3	0.00e+00	0	57	0	564133888	48	4504
2026-01-12 13:04:38.76	205.93	14.83	-38.4	-40.5	14.1	0.00e+00	0	57	0	569376768	48	4596
2026-01-12 13:04:39.78	206.05	14.92	-38.4	-40.5	14.1	1.10e-06	0	57	0	575668224	48	4581
2026-01-12 13:04:40.79	206.17	15.01	-38.4	-40.5	14.2	0.00e+00	0	57	0	580911104	48	4550
2026-01-12 13:04:41.80	206.29	15.10	-38.4	-40.6	14.1	1.10e-06	0	57	0	586153984	48	4613
2026-01-12 13:04:42.81	206.41	15.19	-38.4	-40.5	14.2	0.00e+00	0	57	0	592445440	48	4550
2026-01-12 13:04:43.82	206.53	15.28	-38.4	-40.5	14.2	1.10e-06	0	57	0	597688320	48	4558
2026-01-12 13:04:44.83	206.66	15.37	-38.3	-40.4	14.3	0.00e+00	0	57	0	603979776	48	4521
2026-01-12 13:04:45.84	206.78	15.46	-38.2	-40.3	14.4	0.00e+00	0	57	0	609222656	48	4456
2026-01-12 13:04:46.85	206.90	15.56	-38.3	-40.4	14.3	0.00e+00	0	57	0	614465536	48	4507
2026-01-12 13:04:47.86	207.03	15.65	-38.2	-40.2	14.5	0.00e+00	0	57	0	620756992	48	4422
2026-01-12 13:04:48.87	207.16	15.74	-38.2	-40.2	14.4	0.00e+00	0	57	0	625999872	48	4415
2026-01-12 13:04:49.88	207.28	15.83	-38.1	-40.1	14.6	0.00e+00	0	57	0	632291328	48	4372
2026-01-12 13:04:50.89	207.41	15.92	-38.0	-40.1	14.6	1.10e-06	0	57	0	637534208	48	4341
2026-01-12 13:04:51.90	207.54	16.02	-38.1	-40.1	14.6	0.00e+00	0	57	0	642777088	48	4353
2026-01-12 13:04:52.91	207.67	16.11	-38.1	-40.1	14.6	0.00e+00	0	57	0	649068544	48	4356
2026-01-12 13:04:53.92	207.80	16.20	-38.1	-40.1	14.6	0.00e+00	0	57	0	654311424	48	4380
2026-01-12 13:04:54.93	207.93	16.29	-38.1	-40.1	14.6	1.10e-06	0	57	0	660602880	48	4347
2026-01-12 13:04:55.94	208.06	16.39	-38.1	-40.2	14.5	0.00e+00	0	57	0	665845760	48	4406
2026-01-12 13:04:56.95	208.19	16.48	-38.2	-40.2	14.4	0.00e+00	0	57	0	672137216	48	4441
2026-01-12 13:04:57.96	208.32	16.57	-38.2	-40.3	14.4	0.00e+00	0	57	0	677380096	48	4455
2026-01-12 13:04:58.97	208.46	16.67	-38.2	-40.2	14.5	1.10e-06	0	57	0	682622976	48	4440
2026-01-12 13:04:59.98	208.59	16.76	-38.2	-40.3	14.4	0.00e+00	0	57	0	688914432	48	4445
2026-01-12 13:05:00.99	208.73	16.86	-38.2	-40.2	14.5	0.00e+00	0	57	0	694157312	48	4428
2026-01-12 13:05:02.00	208.86	16.95	-38.2	-40.2	14.5	1.10e-06	0	57	0	700448768	48	4424
2026-01-12 13:05:03.01	209.00	17.05	-38.2	-40.3	14.5	0.00e+00	0	57	0	705691648	48	4448
2026-01-12 13:05:04.02	209.14	17.14	-38.1	-40.1	14.6	0.00e+00	0	57	0	710934528	48	4391
2026-01-12 13:05:05.03	209.27	17.24	-38.2	-40.2	14.5	2.20e-06	0	57	0	717225984	48	4431
2026-01-12 13:05:06.04	209.41	17.33	-38.1	-40.1	14.6	1.10e-06	0	57	0	722468864	48	4386
2026-01-12 13:05:07.05	209.55	17.43	-38.0	-39.9	14.8	0.00e+00	0	57	0	728760320	48	4287
2026-01-12 13:05:08.06	209.70	17.52	-38.1	-40.1	14.7	0.00e+00	0	57	0	734003200	48	4341
2026-01-12 13:05:09.07	209.84	17.62	-37.8	-39.8	14.8	1.10e-06	0	57	0	739246080	47	4477
2026-01-12 13:05:10.08	209.98	17.71	-37.8	-39.7	14.9	0.00e+00	0	57	0	745537536	47	4431
2026-01-12 13:05:11.09	210.12	17.81	-37.8	-39.9	14.8	0.00e+00	0	57	0	750780416	47	4497
2026-01-12 13:05:12.10	210.27	17.91	-37.8	-39.8	14.8	0.00e+00	0	57	0	757071872	47	4478
2026-01-12 13:05:13.11	210.41	18.00	-37.7	-39.7	15.0	1.10e-06	0	57	0	762314752	47	4397
2026-01-12 13:05:14.12	210.56	18.10	-37.8	-39.7	14.9	0.00e+00	0	57	0	768606208	47	4423
2026-01-12 13:05:15.13	210.71	18.20	-37.7	-39.7	14.9	0.00e+00	0	57	0	773849088	47	4408
2026-01-12 13:05:16.14	210.86	18.30	-37.7	-39.7	15.0	0.00e+00	0	57	0	780140544	47	4410
2026-01-12 13:05:17.16	211.01	18.39	-37.7	-39.7	15.0	0.00e+00	0	57	0	785383424	47	4394
2026-01-12 13:05:18.16	211.16	18.49	-37.8	-39.7	14.9	0.00e+00	0	58	0	790626304	47	4430
2026-01-12 13:05:19.17	211.31	18.59	-37.7	-39.7	15.0	0.00e+00	0	57	0	796917760	47	4419
2026-01-12 13:05:20.18	211.46	18.69	-37.7	-39.6	15.0	0.00e+00	0	57	0	802160640	47	4382
2026-01-12 13:05:21.19	211.61	18.79	-37.7	-39.6	15.0	0.00e+00	0	57	0	808452096	47	4375
2026-01-12 13:05:22.20	211.77	18.88	-37.6	-39.5	15.2	0.00e+00	0	57	0	813694976	47	4327
2026-01-12 13:05:23.21	211.92	18.98	-37.6	-39.5	15.2	0.00e+00	0	57	0	818937856	47	4305
2026-01-12 13:05:24.22	212.08	19.08	-37.6	-39.5	15.2	0.00e+00	0	57	0	825229312	47	4292
2026-01-12 13:05:25.23	212.23	19.18	-37.5	-39.4	15.3	0.00e+00	0	57	0	830472192	47	4272
2026-01-12 13:05:26.24	212.39	19.28	-37.4	-39.3	15.4	0.00e+00	0	57	0	836763648	46	4483
2026-01-12 13:05:27.25	212.55	19.38	-37.5	-39.3	15.3	0.00e+00	0	57	0	842006528	46	4485
2026-01-12 13:05:28.26	212.71	19.48	-37.4	-39.3	15.4	0.00e+00	0	57	0	847249408	46	4471
2026-01-12 13:05:29.27	212.87	19.58	-37.5	-39.4	15.3	0.00e+00	0	57	0	853540864	46	4496
2026-01-12 13:05:30.28	213.03	19.68	-37.5	-39.4	15.3	0.00e+00	0	58	0	858783744	46	4531
2026-01-12 13:05:31.29	213.20	19.78	-37.5	-39.4	15.3	0.00e+00	0	57	0	865075200	46	4513
2026-01-12 13:05:32.30	213.36	19.88	-37.5	-39.4	15.3	0.00e+00	0	57	0	870318080	46	4539
2026-01-12 13:05:33.31	213.53	19.98	-37.5	-39.4	15.3	0.00e+00	0	57	0	876609536	46	4528
2026-01-12 13:05:34.32	213.69	20.08	-37.5	-39.4	15.3	0.00e+00	0	58	0	881852416	46	4504
2026-01-12 13:05:35.33	213.86	20.18	-37.5	-39.4	15.3	0.00e+00	0	58	0	888143872	46	4511
2026-01-12 13:05:36.34	214.03	20.28	-37.4	-39.3	15.4	0.00e+00	0	57	0	893386752	46	4472
2026-01-12 13:05:37.35	214.20	20.39	-37.4	-39.3	15.4	0.00e+00	0	58	0	898629632	46	4473
2026-01-12 13:05:38.36	214.37	20.49	-37.4	-39.3	15.5	0.00e+00	0	58	0	904921088	46	4443
2026-01-12 13:05:39.37	214.54	20.59	-37.4	-39.2	15.5	0.00e+00	0	58	0	910163968	46	4432
2026-01-12 13:05:40.38	214.71	20.69	-37.4	-39.2	15.5	0.00e+00	0	58	0	916455424	46	4440
2026-01-12 13:05:41.39	214.89	20.79	-37.4	-39.3	15.5	0.00e+00	0	58	0	921698304	46	4449
2026-01-12 13:05:42.41	215.06	20.90	-37.3	-39.2	15.5	0.00e+00	0	57	0	926941184	46	4413
2026-01-12 13:05:43.42	215.24	21.00	-37.2	-39.1	15.7	0.00e+00	0	58	0	933232640	46	4341
2026-01-12 13:05:44.43	215.42	21.10	-37.1	-38.9	15.8	0.00e+00	0	58	0	938475520	46	4286
2026-01-12 13:05:45.44	215.59	21.20	-37.2	-39.0	15.7	0.00e+00	0	58	0	944766976	46	4311
2026-01-12 13:05:46.45	215.77	21.31	-37.2	-39.0	15.7	0.00e+00	0	58	0	950009856	46	4324
2026-01-12 13:05:47.46	215.95	21.41	-37.2	-39.1	15.7	0.00e+00	0	57	0	955252736	46	4350
2026-01-12 13:05:48.47	216.14	21.51	-37.2	-39.1	15.7	0.00e+00	0	58	0	961544192	46	4342
2026-01-12 13:05:49.48	216.32	21.61	-37.2	-39.0	15.7	0.00e+00	0	58	0	966787072	46	4339
2026-01-12 13:05:50.49	216.50	21.72	-37.2	-39.0	15.7	0.00e+00	0	58	0	973078528	46	4337
2026-01-12 13:05:51.50	216.69	21.82	-37.1	-38.9	15.8	0.00e+00	0	58	0	978321408	46	4261
2026-01-12 13:05:52.51	216.88	21.92	-37.1	-38.9	15.8	0.00e+00	0	58	0	984612864	46	4258
2026-01-12 13:05:53.52	217.06	22.03	-36.9	-38.7	16.0	0.00e+00	0	58	0	989855744	45	4423
2026-01-12 13:05:54.53	217.25	22.13	-36.8	-38.6	16.1	0.00e+00	0	58	0	996147200	45	4371
2026-01-12 13:05:55.54	217.44	22.24	-36.9	-38.6	16.1	0.00e+00	0	58	0	1001390080	45	4388
2026-01-12 13:05:56.55	217.63	22.34	-36.9	-38.6	16.1	0.00e+00	0	58	0	1006632960	45	4390
2026-01-12 13:05:57.56	217.83	22.44	-36.9	-38.6	16.1	0.00e+00	0	58	0	1012924416	45	4369
2026-01-12 13:05:58.57	218.02	22.55	-36.9	-38.6	16.1	0.00e+00	0	58	0	1018167296	45	4374
2026-01-12 13:05:59.58	218.22	22.65	-36.8	-38.6	16.2	0.00e+00	0	58	0	1024458752	45	4347
2026-01-12 13:06:00.59	218.41	22.76	-36.8	-38.6	16.1	0.00e+00	0	58	0	1029701632	45	4361
2026-01-12 13:06:01.60	218.61	22.86	-36.9	-38.6	16.1	0.00e+00	0	58	0	1034944512	45	4382
2026-01-12 13:06:02.61	218.81	22.97	-36.8	-38.5	16.2	0.00e+00	0	58	0	1041235968	45	4321
2026-01-12 13:06:03.62	219.01	23.07	-36.7	-38.5	16.3	0.00e+00	0	58	0	1046478848	45	4298
2026-01-12 13:06:04.63	219.21	23.17	-36.7	-38.4	16.3	0.00e+00	0	58	0	1052770304	45	4278
2026-01-12 13:06:05.64	219.42	23.28	-36.7	-38.4	16.3	0.00e+00	0	58	0	1058013184	45	4275
2026-01-12 13:06:06.65	219.62	23.38	-36.8	-38.5	16.2	0.00e+00	0	58	0	1063256064	45	4322
2026-01-12 13:06:07.66	219.83	23.49	-36.8	-38.5	16.2	0.00e+00	0	58	0	1069547520	45	4336
2026-01-12 13:06:08.67	220.03	23.59	-36.8	-38.6	16.2	0.00e+00	0	58	0	1074790400	45	4350
2026-01-12 13:06:09.68	220.24	23.70	-36.8	-38.5	16.3	0.00e+00	0	58	0	1081081856	45	4303
2026-01-12 13:06:10.69	220.45	23.80	-36.7	-38.4	16.3	0.00e+00	0	58	0	1086324736	45	4287
2026-01-12 13:06:11.70	220.66	23.91	-36.7	-38.4	16.4	0.00e+00	0	58	0	1092616192	45	4260
2026-01-12 13:06:12.71	220.88	24.01	-36.7	-38.4	16.4	0.00e+00	0	58	0	1097859072	45	4253
2026-01-12 13:06:13.72	221.09	24.12	-36.6	-38.3	16.5	0.00e+00	0	58	0	1103101952	45	4214
2026-01-12 13:06:14.73	221.31	24.22	-36.6	-38.3	16.5	0.00e+00	0	58	0	1109393408	45	4223
2026-01-12 13:06:15.74	221.52	24.33	-36.5	-38.2	16.5	0.00e+00	0	58	0	1114636288	45	4177
2026-01-12 13:06:16.75	221.74	24.43	-36.6	-38.3	16.5	0.00e+00	0	58	0	1120927744	45	4197
2026-01-12 13:06:17.76	221.96	24.54	-36.5	-38.2	16.5	0.00e+00	0	58	0	1126170624	45	4182
2026-01-12 13:06:18.77	222.18	24.64	-36.5	-38.2	16.5	0.00e+00	0	58	0	1131413504	45	4172
2026-01-12 13:06:19.78	222.40	24.75	-36.5	-38.2	16.6	0.00e+00	0	58	0	1137704960	45	4166
2026-01-12 13:06:20.79	222.63	24.85	-36.6	-38.2	16.5	0.00e+00	0	58	0	1142947840	45	4193
2026-01-12 13:06:21.80	222.85	24.96	-36.6	-38.3	16.5	0.00e+00	0	58	0	1149239296	45	4205
2026-01-12 13:06:22.81	223.08	25.06	-36.5	-38.3	16.5	0.00e+00	0	58	0	1154482176	45	4196
2026-01-12 13:06:23.82	223.31	25.17	-36.6	-38.3	16.5	0.00e+00	0	58	0	1159725056	45	4204
2026-01-12 13:06:24.82	223.54	25.27	-36.6	-38.3	16.5	0.00e+00	0	58	0	1166016512	45	4205
2026-01-12 13:06:25.83	223.77	25.37	-36.5	-38.2	16.6	0.00e+00	0	58	0	1171259392	45	4177
2026-01-12 13:06:26.84	224.00	25.48	-36.5	-38.2	16.6	0.00e+00	0	58	0	1177550848	45	4166
2026-01-12 13:06:27.85	224.24	25.58	-36.5	-38.2	16.6	0.00e+00	0	58	0	1182793728	45	4165
2026-01-12 13:06:28.86	224.47	25.69	-36.6	-38.3	16.5	0.00e+00	0	58	0	1189085184	45	4204
2026-01-12 13:06:29.87	224.71	25.79	-36.7	-38.4	16.4	0.00e+00	0	58	0	1194328064	45	4267
2026-01-12 13:06:30.88	224.95	25.90	-36.6	-38.4	16.4	0.00e+00	0	58	0	1200619520	45	4248
2026-01-12 13:06:31.89	225.19	26.00	-36.6	-38.3	16.5	0.00e+00	0	58	0	1205862400	45	4202
2026-01-12 13:06:32.91	225.43	26.10	-36.5	-38.2	16.6	0.00e+00	0	58	0	1211105280	45	4158
2026-01-12 13:06:33.92	225.68	26.21	-36.4	-38.1	16.7	0.00e+00	0	58	0	1217396736	44	4344
2026-01-12 13:06:34.93	225.92	26.31	-36.3	-38.0	16.8	0.00e+00	0	58	0	1222639616	44	4299
2026-01-12 13:06:35.94	226.17	26.42	-36.3	-38.0	16.8	0.00e+00	0	58	0	1228931072	44	4308
2026-01-12 13:06:36.95	226.42	26.52	-36.3	-38.0	16.8	0.00e+00	0	58	0	1234173952	44	4298
2026-01-12 13:06:37.96	226.67	26.62	-36.3	-37.9	16.8	0.00e+00	0	58	0	1239416832	44	4272
2026-01-12 13:06:38.97	226.92	26.72	-36.2	-37.8	16.9	0.00e+00	0	58	0	1245708288	44	4241
2026-01-12 13:06:39.98	227.17	26.83	-36.2	-37.9	16.9	0.00e+00	0	58	0	1250951168	44	4253
2026-01-12 13:06:40.99	227.43	26.93	-36.3	-37.9	16.8	0.00e+00	0	58	0	1257242624	44	4276
2026-01-12 13:06:42.00	227.68	27.03	-36.3	-38.0	16.7	0.00e+00	0	58	0	1262485504	44	4329
2026-01-12 13:06:43.01	227.94	27.13	-36.3	-37.9	16.8	0.00e+00	0	58	0	1267728384	44	4286
2026-01-12 13:06:44.02	228.20	27.24	-36.1	-37.7	17.0	0.00e+00	0	58	0	1274019840	44	4178
2026-01-12 13:06:45.03	228.46	27.34	-36.0	-37.5	17.2	0.00e+00	0	58	0	1279262720	44	4092
2026-01-12 13:06:46.04	228.73	27.44	-36.1	-37.7	17.1	0.00e+00	0	58	0	1285554176	44	4146
2026-01-12 13:06:47.05	228.99	27.54	-36.2	-37.9	16.9	0.00e+00	0	58	0	1290797056	44	4250
2026-01-12 13:06:48.06	229.26	27.64	-36.2	-37.9	16.9	0.00e+00	0	58	0	1297088512	44	4248
2026-01-12 13:06:49.06	229.52	27.74	-36.2	-37.8	17.0	0.00e+00	0	58	0	1302331392	44	4219
2026-01-12 13:06:50.08	229.79	27.84	-36.2	-37.8	17.0	0.00e+00	0	58	0	1307574272	44	4219
2026-01-12 13:06:51.09	230.07	27.94	-36.1	-37.7	17.1	0.00e+00	0	58	0	1313865728	44	4168
2026-01-12 13:06:52.10	230.34	28.04	-36.1	-37.7	17.1	0.00e+00	0	58	0	1319108608	44	4156
2026-01-12 13:06:53.10	230.61	28.14	-36.2	-37.8	17.1	0.00e+00	0	58	0	1325400064	44	4196
2026-01-12 13:06:54.12	230.89	28.24	-36.1	-37.7	17.1	0.00e+00	0	58	0	1330642944	44	4150
2026-01-12 13:06:55.12	231.16	28.34	-36.0	-37.6	17.2	0.00e+00	0	58	0	1335885824	44	4106
2026-01-12 13:06:56.14	231.45	28.44	-36.0	-37.6	17.2	0.00e+00	0	58	0	1342177280	44	4123
2026-01-12 13:06:57.14	231.72	28.53	-36.0	-37.6	17.2	0.00e+00	0	58	0	1347420160	44	4134
2026-01-12 13:06:58.16	232.01	28.63	-36.1	-37.7	17.1	0.00e+00	0	58	0	1353711616	44	4149
2026-01-12 13:06:59.17	232.30	28.73	-36.0	-37.6	17.2	0.00e+00	0	58	0	1358954496	44	4118
2026-01-12 13:07:00.18	232.58	28.83	-35.8	-37.4	17.2	0.00e+00	0	58	0	1364197376	43	4252
2026-01-12 13:07:01.19	232.87	28.92	-35.8	-37.3	17.2	0.00e+00	0	58	0	1370488832	43	4241
2026-01-12 13:07:02.20	233.16	29.02	-35.9	-37.5	17.2	0.00e+00	0	58	0	1375731712	43	4298
2026-01-12 13:07:03.21	233.45	29.11	-35.9	-37.5	17.1	0.00e+00	0	58	0	1382023168	43	4334
2026-01-12 13:07:04.21	233.74	29.21	-35.8	-37.5	17.1	0.00e+00	0	58	0	1387266048	43	4293
2026-01-12 13:07:05.22	234.03	29.30	-35.8	-37.4	17.2	0.00e+00	0	58	0	1393557504	43	4261
2026-01-12 13:07:06.24	234.33	29.39	-35.6	-37.2	17.4	0.00e+00	0	58	0	1398800384	43	4166
2026-01-12 13:07:07.25	234.63	29.49	-35.6	-37.2	17.4	0.00e+00	0	58	0	1405091840	43	4160
2026-01-12 13:07:08.26	234.93	29.58	-35.7	-37.2	17.4	0.00e+00	0	58	0	1410334720	43	4180
2026-01-12 13:07:09.27	235.23	29.67	-35.6	-37.2	17.4	0.00e+00	0	58	0	1415577600	43	4165
2026-01-12 13:07:10.27	235.53	29.76	-35.7	-37.3	17.3	0.00e+00	0	58	0	1421869056	43	4200
2026-01-12 13:07:11.28	235.84	29.85	-35.8	-37.4	17.2	0.00e+00	0	58	0	1427111936	43	4274
2026-01-12 13:07:12.29	236.14	29.95	-35.9	-37.5	17.0	0.00e+00	0	58	0	1433403392	43	4335
2026-01-12 13:07:13.30	236.45	30.03	-35.9	-37.6	17.0	0.00e+00	0	58	0	1438646272	43	4347
2026-01-12 13:07:14.31	236.76	30.12	-35.8	-37.4	17.2	0.00e+00	0	59	0	1443889152	43	4276
2026-01-12 13:07:15.32	237.07	30.21	-35.8	-37.4	17.2	0.00e+00	0	58	0	1450180608	43	4245
2026-01-12 13:07:16.34	237.39	30.30	-35.8	-37.4	17.2	0.00e+00	0	58	0	1455423488	43	4244
2026-01-12 13:07:17.35	237.71	30.39	-35.7	-37.3	17.3	0.00e+00	0	58	0	1461714944	43	4219
2026-01-12 13:07:18.36	238.02	30.48	-35.8	-37.4	17.2	0.00e+00	0	58	0	1466957824	43	4255
2026-01-12 13:07:19.37	238.34	30.56	-35.9	-37.5	17.1	0.00e+00	0	58	0	1472200704	43	4306
2026-01-12 13:07:20.38	238.66	30.65	-35.9	-37.6	17.0	0.00e+00	0	58	0	1478492160	43	4350
2026-01-12 13:07:21.39	238.98	30.73	-35.9	-37.5	17.1	0.00e+00	0	58	0	1483735040	43	4330
2026-01-12 13:07:22.40	239.30	30.81	-35.9	-37.4	17.2	0.00e+00	0	58	0	1490026496	43	4290
2026-01-12 13:07:23.41	239.63	30.90	-35.9	-37.5	17.1	0.00e+00	0	58	0	1495269376	43	4316
2026-01-12 13:07:24.42	239.96	30.98	-35.8	-37.4	17.2	0.00e+00	0	58	0	1501560832	43	4251
2026-01-12 13:07:25.43	240.28	31.06	-35.8	-37.4	17.2	0.00e+00	0	58	0	1506803712	43	4257
2026-01-12 13:07:26.44	240.61	31.14	-35.9	-37.5	17.1	0.00e+00	0	58	0	1513095168	43	4322
2026-01-12 13:07:27.45	240.94	31.22	-35.9	-37.6	17.0	0.00e+00	0	58	0	1518338048	43	4361
2026-01-12 13:07:28.46	241.28	31.30	-36.0	-37.6	17.0	0.00e+00	0	59	0	1523580928	43	4371
2026-01-12 13:07:29.47	241.61	31.38	-35.9	-37.5	17.1	0.00e+00	0	59	0	1529872384	43	4318
2026-01-12 13:07:30.48	241.95	31.46	-35.7	-37.3	17.2	0.00e+00	0	58	0	1535115264	43	4226
2026-01-12 13:07:31.49	242.29	31.53	-35.7	-37.3	17.3	0.00e+00	0	59	0	1541406720	43	4196
2026-01-12 13:07:32.50	242.62	31.61	-35.7	-37.3	17.3	0.00e+00	0	59	0	1546649600	43	4210
2026-01-12 13:07:33.51	242.97	31.68	-35.7	-37.3	17.3	0.00e+00	0	58	0	1551892480	43	4214
2026-01-12 13:07:34.52	243.31	31.76	-35.7	-37.3	17.2	0.00e+00	0	58	0	1558183936	43	4235
2026-01-12 13:07:35.53	243.65	31.83	-35.8	-37.4	17.2	0.00e+00	0	59	0	1563426816	43	4248
2026-01-12 13:07:36.54	244.00	31.90	-35.8	-37.4	17.2	0.00e+00	0	58	0	1569718272	43	4275
2026-01-12 13:07:37.56	244.35	31.97	-35.6	-37.1	17.4	0.00e+00	0	58	0	1574961152	43	4132
2026-01-12 13:07:38.57	244.70	32.04	-35.4	-36.9	17.6	0.00e+00	0	58	0	1580204032	42	4288
2026-01-12 13:07:39.58	245.05	32.11	-35.4	-36.9	17.7	0.00e+00	0	59	0	1586495488	42	4258
2026-01-12 13:07:40.59	245.40	32.18	-35.6	-37.2	17.4	0.00e+00	0	59	0	1591738368	42	4397
2026-01-12 13:07:41.59	245.75	32.25	-35.8	-37.4	17.2	0.00e+00	0	59	0	1598029824	42	4524
2026-01-12 13:07:42.60	246.10	32.31	-35.9	-37.5	17.0	0.00e+00	0	58	0	1603272704	42	4598
2026-01-12 13:07:43.61	246.45	32.38	-35.9	-37.6	17.1	0.00e+00	0	58	0	1609564160	42	4599
2026-01-12 13:07:44.62	246.81	32.44	-35.9	-37.5	17.1	0.00e+00	0	59	0	1614807040	42	4558
2026-01-12 13:07:45.63	247.17	32.50	-36.0	-37.6	17.0	0.00e+00	0	59	0	1621098496	42	4635
2026-01-12 13:07:46.64	247.53	32.57	-36.0	-37.6	17.0	0.00e+00	0	59	0	1626341376	42	4629
2026-01-12 13:07:47.65	247.89	32.63	-35.8	-37.4	17.2	0.00e+00	0	59	0	1631584256	42	4545
2026-01-12 13:07:48.66	248.25	32.68	-35.7	-37.2	17.3	0.00e+00	0	59	0	1637875712	42	4441
2026-01-12 13:07:49.67	248.62	32.74	-35.6	-37.2	17.4	0.00e+00	0	58	0	1643118592	42	4411
2026-01-12 13:07:50.68	248.98	32.80	-35.8	-37.4	17.2	0.00e+00	0	59	0	1649410048	42	4502
2026-01-12 13:07:51.69	249.35	32.86	-35.8	-37.5	17.1	0.00e+00	0	59	0	1654652928	42	4552
2026-01-12 13:07:52.70	249.71	32.91	-35.8	-37.4	17.2	0.00e+00	0	58	0	1659895808	42	4500
2026-01-12 13:07:53.70	250.08	32.96	-35.7	-37.3	17.3	0.00e+00	0	59	0	1666187264	42	4445
2026-01-12 13:07:54.72	250.45	33.02	-35.7	-37.3	17.3	0.00e+00	0	59	0	1671430144	42	4464
2026-01-12 13:07:55.73	250.82	33.07	-35.7	-37.3	17.3	0.00e+00	0	58	0	1676673024	42	4472
2026-01-12 13:07:56.74	251.19	33.12	-35.8	-37.4	17.2	0.00e+00	0	59	0	1682964480	42	4530
2026-01-12 13:07:57.75	251.57	33.17	-35.8	-37.5	17.1	0.00e+00	0	59	0	1688207360	42	4555
2026-01-12 13:07:58.76	251.94	33.21	-35.7	-37.3	17.3	0.00e+00	0	59	0	1694498816	42	4480
2026-01-12 13:07:59.77	252.32	33.26	-35.6	-37.1	17.4	0.00e+00	0	59	0	1699741696	42	4383
2026-01-12 13:08:00.78	252.69	33.30	-35.5	-37.0	17.6	0.00e+00	0	58	0	1706033152	42	4315
2026-01-12 13:08:01.79	253.07	33.35	-35.4	-36.9	17.6	0.00e+00	0	59	0	1711276032	42	4290
2026-01-12 13:08:02.80	253.45	33.39	-35.5	-37.1	17.5	0.00e+00	0	59	0	1717567488	42	4360
2026-01-12 13:08:03.81	253.83	33.43	-35.7	-37.3	17.3	0.00e+00	0	59	0	1722810368	42	4454
2026-01-12 13:08:04.81	254.20	33.47	-35.8	-37.4	17.2	0.00e+00	0	58	0	1728053248	42	4509
2026-01-12 13:08:05.82	254.58	33.51	-35.7	-37.3	17.3	0.00e+00	0	59	0	1734344704	42	4492
2026-01-12 13:08:06.83	254.96	33.55	-35.7	-37.2	17.4	0.00e+00	0	59	0	1739587584	42	4427
2026-01-12 13:08:07.83	255.34	33.58	-35.7	-37.2	17.4	0.00e+00	0	59	0	1745879040	42	4430
2026-01-12 13:08:08.84	255.73	33.62	-35.6	-37.2	17.4	0.00e+00	0	58	0	1751121920	42	4404
2026-01-12 13:08:09.85	256.11	33.65	-35.7	-37.2	17.4	0.00e+00	0	59	0	1756364800	42	4421
2026-01-12 13:08:10.86	256.49	33.68	-35.6	-37.2	17.4	0.00e+00	0	59	0	1762656256	42	4400
2026-01-12 13:08:11.87	256.88	33.71	-35.6	-37.2	17.4	0.00e+00	0	59	0	1767899136	42	4414
2026-01-12 13:08:12.88	257.27	33.74	-35.7	-37.3	17.3	0.00e+00	0	59	0	1774190592	42	4451
2026-01-12 13:08:13.89	257.65	33.77	-35.8	-37.4	17.2	0.00e+00	0	59	0	1779433472	42	4516
2026-01-12 13:08:14.90	258.04	33.79	-35.9	-37.3	17.6	0.00e+00	0	59	0	1784676352	42	4476
2026-01-12 13:08:15.91	258.43	33.82	-35.8	-37.2	17.6	0.00e+00	0	59	0	1790967808	42	4439
2026-01-12 13:08:16.92	258.82	33.84	-35.8	-37.2	17.7	0.00e+00	0	59	0	1796210688	42	4397
2026-01-12 13:08:17.93	259.21	33.86	-35.7	-37.2	17.7	0.00e+00	0	59	0	1802502144	42	4402
2026-01-12 13:08:18.94	259.60	33.88	-35.7	-37.1	17.8	0.00e+00	0	59	0	1807745024	42	4354
2026-01-12 13:08:19.95	259.99	33.90	-35.6	-37.0	17.9	0.00e+00	0	59	0	1814036480	42	4324
2026-01-12 13:08:20.96	260.38	33.92	-35.7	-37.1	17.8	0.00e+00	0	59	0	1819279360	42	4356
2026-01-12 13:08:21.97	260.77	33.93	-35.8	-37.2	17.7	0.00e+00	0	59	0	1825570816	42	4407
2026-01-12 13:08:22.98	261.16	33.95	-35.7	-37.1	17.8	0.00e+00	0	59	0	1830813696	42	4378
2026-01-12 13:08:23.99	261.55	33.96	-35.7	-37.1	17.8	0.00e+00	0	59	0	1836056576	42	4344
2026-01-12 13:08:25.00	261.94	33.97	-35.6	-37.0	17.9	0.00e+00	0	58	0	1842348032	42	4315
2026-01-12 13:08:26.00	262.33	33.98	-35.6	-37.0	17.9	0.00e+00	0	59	0	1847590912	42	4321
2026-01-12 13:08:27.01	262.72	33.99	-35.7	-37.1	17.8	0.00e+00	0	59	0	1852833792	42	4361
2026-01-12 13:08:28.02	263.11	34.00	-35.8	-37.2	17.7	0.00e+00	0	59	0	1859125248	42	4436
2026-01-12 13:08:29.03	263.51	34.00	-35.8	-37.3	17.6	0.00e+00	0	59	0	1864368128	42	4457
2026-01-12 13:08:30.04	263.90	34.01	-35.9	-37.3	17.6	0.00e+00	0	58	0	1870659584	42	4460
2026-01-12 13:08:31.05	264.29	34.01	-35.8	-37.2	17.7	0.00e+00	0	58	0	1875902464	42	4397
2026-01-12 13:08:32.06	264.68	34.01	-35.7	-37.1	17.8	0.00e+00	0	59	0	1881145344	42	4364
2026-01-12 13:08:33.07	265.08	34.01	-35.8	-37.2	17.7	0.00e+00	0	58	0	1887436800	42	4411
2026-01-12 13:08:34.08	265.47	34.01	-35.9	-37.4	17.5	0.00e+00	0	59	0	1892679680	42	4504
2026-01-12 13:08:35.09	265.86	34.01	-35.9	-37.4	17.5	0.00e+00	0	59	0	1898971136	42	4495
2026-01-12 13:08:36.11	266.26	34.00	-35.8	-37.2	17.7	0.00e+00	0	59	0	1904214016	42	4441
2026-01-12 13:08:37.11	266.65	34.00	-35.7	-37.1	17.8	0.00e+00	0	59	0	1910505472	42	4380
2026-01-12 13:08:38.13	267.04	33.99	-35.8	-37.2	17.7	0.00e+00	0	59	0	1915748352	42	4418
2026-01-12 13:08:39.14	267.43	33.98	-35.8	-37.3	17.6	0.00e+00	0	59	0	1922039808	42	4467
2026-01-12 13:08:40.15	267.83	33.97	-35.8	-37.3	17.6	0.00e+00	0	58	0	1927282688	42	4443
2026-01-12 13:08:41.16	268.22	33.96	-35.8	-37.2	17.7	0.00e+00	0	59	0	1932525568	42	4401
2026-01-12 13:08:42.17	268.61	33.94	-35.7	-37.2	17.7	0.00e+00	0	59	0	1938817024	42	4394
2026-01-12 13:08:43.18	269.00	33.93	-35.8	-37.3	17.6	0.00e+00	0	59	0	1944059904	42	4445
2026-01-12 13:08:44.19	269.39	33.91	-35.9	-37.3	17.6	0.00e+00	0	59	0	1950351360	42	4475
2026-01-12 13:08:45.20	269.78	33.89	-35.9	-37.3	17.6	0.00e+00	0	59	0	1955594240	42	4478
2026-01-12 13:08:46.21	270.17	33.88	-35.8	-37.2	17.7	0.00e+00	0	59	0	1960837120	42	4422
2026-01-12 13:08:47.22	270.56	33.85	-35.7	-37.0	17.8	0.00e+00	0	59	0	1967128576	42	4340
2026-01-12 13:08:48.23	270.95	33.83	-35.7	-37.0	17.9	0.00e+00	0	59	0	1972371456	42	4337
2026-01-12 13:08:49.24	271.34	33.81	-35.8	-37.2	17.7	0.00e+00	0	59	0	1978662912	42	4396
2026-01-12 13:08:50.25	271.72	33.78	-35.9	-37.3	17.6	0.00e+00	0	59	0	1983905792	42	4492
2026-01-12 13:08:51.26	272.11	33.76	-36.0	-37.5	17.4	0.00e+00	0	59	0	1989148672	42	4571
2026-01-12 13:08:52.27	272.50	33.73	-36.0	-37.4	17.5	0.00e+00	0	59	0	1995440128	42	4533
2026-01-12 13:08:53.28	272.88	33.70	-35.8	-37.2	17.7	0.00e+00	0	59	0	2000683008	42	4432
2026-01-12 13:08:54.29	273.27	33.67	-35.7	-37.1	17.8	0.00e+00	0	59	0	2006974464	42	4363
2026-01-12 13:08:55.30	273.65	33.64	-35.6	-37.0	17.9	0.00e+00	0	59	0	2012217344	42	4298
2026-01-12 13:08:56.31	274.03	33.61	-35.7	-37.1	17.8	0.00e+00	0	59	0	2018508800	42	4357
2026-01-12 13:08:57.32	274.42	33.57	-35.8	-37.2	17.7	0.00e+00	0	59	0	2023751680	42	4431
2026-01-12 13:08:58.33	274.80	33.53	-35.8	-37.2	17.7	0.00e+00	0	59	0	2030043136	42	4434
2026-01-12 13:08:59.34	275.18	33.50	-35.7	-37.1	17.8	0.00e+00	0	59	0	2035286016	42	4346
2026-01-12 13:09:00.35	275.56	33.46	-35.7	-37.0	17.8	0.00e+00	0	59	0	2040528896	42	4338
2026-01-12 13:09:01.36	275.94	33.42	-35.8	-37.2	17.7	0.00e+00	0	59	0	2046820352	42	4413
2026-01-12 13:09:02.37	276.32	33.38	-36.0	-37.5	17.4	0.00e+00	0	59	0	2052063232	42	4560
2026-01-12 13:09:03.38	276.69	33.34	-36.1	-37.6	17.3	0.00e+00	0	59	0	2058354688	42	4605
2026-01-12 13:09:04.39	277.07	33.29	-36.0	-37.4	17.5	0.00e+00	0	59	0	2063597568	42	4519
2026-01-12 13:09:05.40	277.44	33.25	-35.9	-37.3	17.6	0.00e+00	0	59	0	2068840448	42	4471
2026-01-12 13:09:06.41	277.82	33.20	-35.8	-37.2	17.7	0.00e+00	0	59	0	2075131904	42	4436
2026-01-12 13:09:07.42	278.19	33.15	-35.9	-37.4	17.5	0.00e+00	0	59	0	2080374784	42	4505
2026-01-12 13:09:08.43	278.56	33.10	-36.1	-37.6	17.3	0.00e+00	0	59	0	2086666240	42	4638
2026-01-12 13:09:09.44	278.93	33.05	-36.2	-37.7	17.2	0.00e+00	0	59	0	2091909120	43	4423
2026-01-12 13:09:10.45	279.30	33.00	-36.1	-37.6	17.3	0.00e+00	0	59	0	2097152000	43	4377
2026-01-12 13:09:11.46	279.67	32.95	-36.0	-37.5	17.4	0.00e+00	0	59	0	2103443456	43	4294
2026-01-12 13:09:12.46	280.04	32.90	-36.0	-37.4	17.5	0.00e+00	0	59	0	2108686336	43	4274
2026-01-12 13:09:13.47	280.40	32.84	-36.0	-37.4	17.5	0.00e+00	0	59	0	2114977792	43	4281
2026-01-12 13:09:14.48	280.77	32.78	-36.1	-37.6	17.3	0.00e+00	0	59	0	2120220672	43	4362
2026-01-12 13:09:15.49	281.13	32.73	-36.1	-37.6	17.3	0.00e+00	0	59	0	2126512128	43	4376
2026-01-12 13:09:16.50	281.49	32.67	-36.0	-37.4	17.5	0.00e+00	0	59	0	2131755008	43	4272
2026-01-12 13:09:17.51	281.85	32.61	-35.8	-37.2	17.7	0.00e+00	0	59	0	2136997888	43	4154
2026-01-12 13:09:18.52	282.21	32.55	-35.7	-37.1	17.8	0.00e+00	0	59	0	2143289344	43	4110
2026-01-12 13:09:19.54	282.57	32.49	-35.9	-37.3	17.6	0.00e+00	0	59	0	2148532224	43	4204
2026-01-12 13:09:20.55	282.93	32.42	-36.0	-37.5	17.4	0.00e+00	0	59	0	2154823680	43	4311
2026-01-12 13:09:21.56	283.29	32.36	-36.0	-37.5	17.3	0.00e+00	0	59	0	2160066560	43	4322
2026-01-12 13:09:22.57	283.64	32.30	-35.9	-37.3	17.5	0.00e+00	0	59	0	2166358016	43	4239
2026-01-12 13:09:23.58	283.99	32.23	-35.8	-37.3	17.6	0.00e+00	0	59	0	2171600896	43	4201
2026-01-12 13:09:24.59	284.34	32.16	-35.9	-37.3	17.6	0.00e+00	0	59	0	2176843776	43	4207
2026-01-12 13:09:25.60	284.69	32.09	-35.9	-37.3	17.5	0.00e+00	0	59	0	2183135232	43	4241
2026-01-12 13:09:26.61	285.04	32.03	-36.1	-37.5	17.4	0.00e+00	0	59	0	2188378112	43	4321
2026-01-12 13:09:27.61	285.39	31.96	-36.1	-37.6	17.3	0.00e+00	0	59	0	2193620992	43	4356
2026-01-12 13:09:28.62	285.73	31.89	-36.2	-37.7	17.2	0.00e+00	0	59	0	2199912448	43	4402
2026-01-12 13:09:29.63	286.08	31.81	-36.2	-37.7	17.2	0.00e+00	0	59	0	2205155328	43	4394
2026-01-12 13:09:30.64	286.42	31.74	-36.2	-37.7	17.2	0.00e+00	0	59	0	2211446784	43	4392
2026-01-12 13:09:31.65	286.76	31.67	-36.2	-37.7	17.2	0.00e+00	0	59	0	2216689664	43	4422
2026-01-12 13:09:32.66	287.10	31.59	-36.3	-37.8	17.1	0.00e+00	0	59	0	2221932544	43	4468
2026-01-12 13:09:33.67	287.44	31.52	-36.2	-37.7	17.2	0.00e+00	0	59	0	2228224000	43	4418
2026-01-12 13:09:34.68	287.77	31.44	-36.1	-37.6	17.3	0.00e+00	0	59	0	2233466880	43	4360
2026-01-12 13:09:35.69	288.11	31.36	-36.1	-37.6	17.3	0.00e+00	0	59	0	2239758336	43	4345
2026-01-12 13:09:36.70	288.44	31.29	-36.1	-37.6	17.3	0.00e+00	0	59	0	2245001216	43	4353
2026-01-12 13:09:37.71	288.77	31.21	-36.2	-37.7	17.2	0.00e+00	0	59	0	2251292672	43	4403
2026-01-12 13:09:38.72	289.10	31.13	-36.2	-37.7	17.2	0.00e+00	0	59	0	2256535552	43	4392
2026-01-12 13:09:39.73	289.43	31.05	-36.1	-37.5	17.3	0.00e+00	0	59	0	2262827008	43	4322
2026-01-12 13:09:40.73	289.75	30.97	-36.1	-37.5	17.3	0.00e+00	0	59	0	2268069888	43	4312
2026-01-12 13:09:41.74	290.08	30.88	-36.1	-37.6	17.3	0.00e+00	0	59	0	2273312768	43	4348
2026-01-12 13:09:42.76	290.40	30.80	-36.2	-37.7	17.1	0.00e+00	0	59	0	2279604224	43	4429
2026-01-12 13:09:43.77	290.73	30.72	-36.2	-37.7	17.1	0.00e+00	0	59	0	2284847104	43	4430
2026-01-12 13:09:44.78	291.05	30.63	-36.2	-37.7	17.1	0.00e+00	0	59	0	2291138560	43	4420
2026-01-12 13:09:45.78	291.36	30.55	-36.2	-37.7	17.2	0.00e+00	0	59	0	2296381440	43	4393
2026-01-12 13:09:46.79	291.68	30.46	-36.1	-37.6	17.2	0.00e+00	0	59	0	2301624320	43	4377
2026-01-12 13:09:47.80	291.99	30.38	-36.2	-37.7	17.2	0.00e+00	0	59	0	2307915776	43	4395
2026-01-12 13:09:48.81	292.31	30.29	-36.2	-37.6	17.2	0.00e+00	0	59	0	2313158656	43	4388
2026-01-12 13:09:49.82	292.62	30.20	-36.2	-37.7	17.1	0.00e+00	0	59	0	2319450112	43	4439
2026-01-12 13:09:50.83	292.93	30.11	-36.3	-37.8	17.1	0.00e+00	0	59	0	2324692992	43	4449
2026-01-12 13:09:51.84	293.24	30.02	-36.3	-37.8	17.0	0.00e+00	0	59	0	2329935872	43	4463
2026-01-12 13:09:52.85	293.54	29.93	-36.2	-37.7	17.1	0.00e+00	0	59	0	2336227328	43	4414
2026-01-12 13:09:53.86	293.85	29.84	-36.1	-37.5	17.3	0.00e+00	0	59	0	2341470208	43	4331
2026-01-12 13:09:54.87	294.15	29.75	-36.1	-37.5	17.3	0.00e+00	0	59	0	2347761664	43	4316
2026-01-12 13:09:55.88	294.45	29.66	-36.1	-37.6	17.3	0.00e+00	0	59	0	2353004544	43	4342
2026-01-12 13:09:56.89	294.75	29.57	-36.2	-37.6	17.2	0.00e+00	0	59	0	2359296000	43	4387
2026-01-12 13:09:57.90	295.05	29.48	-36.3	-37.8	17.0	0.00e+00	0	59	0	2364538880	43	4472
2026-01-12 13:09:58.92	295.35	29.38	-36.3	-37.9	17.0	0.00e+00	0	59	0	2369781760	43	4498
2026-01-12 13:09:59.93	295.65	29.29	-36.3	-37.9	16.9	0.00e+00	0	59	0	2376073216	43	4506
2026-01-12 13:10:00.94	295.94	29.20	-36.3	-37.8	17.0	0.00e+00	0	59	0	2381316096	43	4459
2026-01-12 13:10:01.95	296.23	29.10	-36.1	-37.6	17.2	0.00e+00	0	59	0	2387607552	43	4366
2026-01-12 13:10:02.96	296.52	29.01	-36.0	-37.5	17.3	0.00e+00	0	59	0	2392850432	43	4310
2026-01-12 13:10:03.97	296.81	28.91	-36.0	-37.5	17.3	0.00e+00	0	59	0	2398093312	43	4312
2026-01-12 13:10:04.98	297.10	28.82	-36.2	-37.7	17.1	0.00e+00	0	59	0	2404384768	43	4414
2026-01-12 13:10:05.99	297.38	28.72	-36.3	-37.9	16.9	0.00e+00	0	59	0	2409627648	43	4504
2026-01-12 13:10:07.00	297.66	28.63	-36.4	-38.0	16.8	0.00e+00	0	59	0	2415919104	43	4578
2026-01-12 13:10:08.00	297.94	28.53	-36.4	-38.0	16.8	0.00e+00	0	59	0	2421161984	43	4569
2026-01-12 13:10:09.01	298.22	28.43	-36.4	-37.9	16.9	0.00e+00	0	59	0	2426404864	43	4515
2026-01-12 13:10:10.02	298.50	28.33	-36.3	-37.8	17.0	0.00e+00	0	59	0	2432696320	43	4460
2026-01-12 13:10:11.03	298.78	28.24	-36.3	-37.8	17.0	0.00e+00	0	59	0	2437939200	43	4483
2026-01-12 13:10:12.04	299.05	28.14	-36.4	-37.9	16.9	0.00e+00	0	59	0	2444230656	43	4512
2026-01-12 13:10:13.05	299.32	28.04	-36.5	-38.0	16.8	0.00e+00	0	59	0	2449473536	43	4586
2026-01-12 13:10:14.06	299.60	27.94	-36.6	-38.2	16.6	0.00e+00	0	59	0	2455764992	43	4671
2026-01-12 13:10:15.07	299.87	27.84	-36.6	-38.2	16.6	0.00e+00	0	59	0	2461007872	43	4659
2026-01-12 13:10:16.08	300.13	27.74	-36.5	-38.0	16.8	0.00e+00	0	59	0	2467299328	43	4584
2026-01-12 13:10:17.09	300.40	27.64	-36.4	-37.9	16.9	0.00e+00	0	59	0	2472542208	43	4508
2026-01-12 13:10:18.10	300.67	27.54	-36.3	-37.7	17.0	0.00e+00	0	59	0	2477785088	43	4430
2026-01-12 13:10:19.11	300.93	27.44	-36.3	-37.7	17.0	0.00e+00	0	59	0	2484076544	43	4440
2026-01-12 13:10:20.12	301.19	27.34	-36.4	-37.9	16.9	0.00e+00	0	59	0	2489319424	43	4509
2026-01-12 13:10:21.13	301.45	27.24	-36.5	-38.0	16.7	0.00e+00	0	59	0	2495610880	43	4587
2026-01-12 13:10:22.14	301.71	27.14	-36.6	-38.1	16.6	0.00e+00	0	59	0	2500853760	43	4650
2026-01-12 13:10:23.15	301.97	27.04	-36.6	-38.1	16.6	0.00e+00	0	59	0	2506096640	43	4641
2026-01-12 13:10:24.16	302.22	26.93	-36.6	-38.1	16.6	0.00e+00	0	59	0	2512388096	43	4635
2026-01-12 13:10:25.17	302.47	26.83	-36.5	-38.0	16.7	0.00e+00	0	59	0	2517630976	43	4584
2026-01-12 13:10:26.18	302.73	26.73	-36.5	-38.0	16.7	0.00e+00	0	59	0	2523922432	43	4587
2026-01-12 13:10:27.19	302.98	26.63	-36.4	-38.0	16.8	0.00e+00	0	59	0	2529165312	43	4557
2026-01-12 13:10:28.20	303.23	26.53	-36.4	-38.0	16.8	0.00e+00	0	59	0	2534408192	43	4555
2026-01-12 13:10:29.21	303.47	26.42	-36.5	-38.0	16.8	0.00e+00	0	59	0	2540699648	43	4572
2026-01-12 13:10:30.22	303.72	26.32	-36.5	-38.0	16.7	0.00e+00	0	59	0	2545942528	43	4570
2026-01-12 13:10:31.23	303.96	26.22	-36.5	-38.0	16.7	0.00e+00	0	59	0	2552233984	43	4596
2026-01-12 13:10:32.24	304.20	26.11	-36.5	-38.1	16.7	0.00e+00	0	59	0	2557476864	43	4622
2026-01-12 13:10:33.25	304.45	26.01	-36.4	-38.0	16.8	0.00e+00	0	59	0	2563768320	43	4565
2026-01-12 13:10:34.26	304.69	25.91	-36.5	-38.0	16.7	0.00e+00	0	59	0	2569011200	43	4597
2026-01-12 13:10:35.27	304.92	25.80	-36.5	-38.1	16.7	0.00e+00	0	59	0	2575302656	43	4623
2026-01-12 13:10:36.28	305.16	25.70	-36.6	-38.2	16.5	0.00e+00	0	59	0	2580545536	43	4685
2026-01-12 13:10:37.29	305.39	25.60	-36.6	-38.3	16.5	0.00e+00	0	59	0	2585788416	43	4706
2026-01-12 13:10:38.29	305.63	25.49	-36.7	-38.3	16.5	0.00e+00	0	59	0	2592079872	43	4717
2026-01-12 13:10:39.30	305.86	25.39	-36.7	-38.2	16.5	0.00e+00	0	59	0	2597322752	43	4705
2026-01-12 13:10:40.31	306.09	25.29	-36.6	-38.1	16.6	0.00e+00	0	59	0	2602565632	43	4642
2026-01-12 13:10:41.32	306.32	25.18	-36.5	-38.0	16.7	0.00e+00	0	59	0	2608857088	43	4590
2026-01-12 13:10:42.33	306.54	25.08	-36.5	-38.0	16.7	0.00e+00	0	59	0	2614099968	43	4565
2026-01-12 13:10:43.34	306.77	24.98	-36.5	-38.1	16.7	0.00e+00	0	59	0	2620391424	43	4606
2026-01-12 13:10:44.35	306.99	24.87	-36.6	-38.2	16.5	0.00e+00	0	59	0	2625634304	43	4678
2026-01-12 13:10:45.36	307.22	24.77	-36.7	-38.3	16.5	0.00e+00	0	59	0	2630877184	43	4710
2026-01-12 13:10:46.37	307.44	24.66	-36.9	-38.5	16.4	0.00e+00	0	59	0	2637168640	44	4593
2026-01-12 13:10:47.38	307.66	24.56	-36.9	-38.5	16.3	0.00e+00	0	59	0	2642411520	44	4589
2026-01-12 13:10:48.39	307.88	24.45	-36.9	-38.5	16.4	0.00e+00	0	59	0	2648702976	44	4555
2026-01-12 13:10:49.40	308.10	24.35	-36.8	-38.4	16.5	0.00e+00	0	59	0	2653945856	44	4523
2026-01-12 13:10:50.41	308.31	24.25	-36.8	-38.4	16.5	0.00e+00	0	59	0	2660237312	44	4502
2026-01-12 13:10:51.42	308.53	24.14	-36.8	-38.3	16.5	0.00e+00	0	59	0	2665480192	44	4479
2026-01-12 13:10:52.43	308.74	24.04	-36.8	-38.3	16.5	0.00e+00	0	59	0	2671771648	44	4489
2026-01-12 13:10:53.44	308.95	23.93	-36.8	-38.3	16.5	0.00e+00	0	59	0	2677014528	44	4493
2026-01-12 13:10:54.45	309.16	23.83	-36.8	-38.4	16.5	0.00e+00	0	59	0	2682257408	44	4518
2026-01-12 13:10:55.46	309.37	23.73	-36.8	-38.4	16.5	0.00e+00	0	59	0	2688548864	44	4521
2026-01-12 13:10:56.47	309.58	23.62	-36.9	-38.5	16.4	0.00e+00	0	59	0	2693791744	44	4562
2026-01-12 13:10:57.48	309.78	23.52	-36.9	-38.5	16.3	0.00e+00	0	59	0	2700083200	44	4587
2026-01-12 13:10:58.49	309.99	23.41	-37.0	-38.6	16.3	0.00e+00	0	59	0	2705326080	44	4614
2026-01-12 13:10:59.50	310.19	23.31	-37.0	-38.6	16.2	0.00e+00	0	59	0	2710568960	44	4633
2026-01-12 13:11:00.51	310.40	23.21	-37.0	-38.6	16.2	0.00e+00	0	59	0	2716860416	44	4645
2026-01-12 13:11:01.52	310.60	23.10	-37.1	-38.7	16.1	0.00e+00	0	59	0	2722103296	44	4678
2026-01-12 13:11:02.53	310.80	23.00	-37.1	-38.7	16.1	0.00e+00	0	59	0	2728394752	44	4697
2026-01-12 13:11:03.54	311.00	22.89	-37.1	-38.7	16.1	0.00e+00	0	59	0	2733637632	44	4704
2026-01-12 13:11:04.55	311.19	22.79	-37.1	-38.8	16.1	0.00e+00	0	59	0	2738880512	44	4728
2026-01-12 13:11:05.56	311.39	22.69	-37.1	-38.8	16.0	0.00e+00	0	59	0	2745171968	44	4725
2026-01-12 13:11:06.57	311.58	22.58	-37.1	-38.7	16.1	0.00e+00	0	59	0	2750414848	44	4702
2026-01-12 13:11:07.58	311.78	22.48	-37.1	-38.7	16.1	0.00e+00	0	59	0	2756706304	44	4680
2026-01-12 13:11:08.59	311.97	22.38	-37.1	-38.7	16.1	0.00e+00	0	59	0	2761949184	44	4693
2026-01-12 13:11:09.60	312.16	22.27	-37.1	-38.8	16.0	0.00e+00	0	59	0	2768240640	44	4709
2026-01-12 13:11:10.61	312.35	22.17	-37.2	-38.9	15.9	0.00e+00	0	59	0	2773483520	44	4780
2026-01-12 13:11:11.62	312.54	22.07	-37.3	-39.0	15.7	0.00e+00	0	59	0	2779774976	45	4598
2026-01-12 13:11:12.63	312.72	21.97	-37.5	-39.2	15.6	0.00e+00	0	59	0	2785017856	45	4685
2026-01-12 13:11:13.64	312.91	21.86	-37.6	-39.3	15.5	0.00e+00	0	59	0	2790260736	45	4752
2026-01-12 13:11:14.65	313.10	21.76	-37.6	-39.4	15.4	0.00e+00	0	59	0	2796552192	45	4777
2026-01-12 13:11:15.66	313.28	21.66	-37.6	-39.4	15.4	0.00e+00	0	59	0	2801795072	45	4789
2026-01-12 13:11:16.67	313.46	21.56	-37.6	-39.4	15.4	0.00e+00	0	59	0	2807037952	45	4789
2026-01-12 13:11:17.68	313.64	21.45	-37.6	-39.3	15.5	0.00e+00	0	59	0	2813329408	45	4742
2026-01-12 13:11:18.69	313.82	21.35	-37.6	-39.3	15.5	0.00e+00	0	59	0	2818572288	45	4731
2026-01-12 13:11:19.69	314.00	21.25	-37.6	-39.3	15.5	0.00e+00	0	59	0	2824863744	45	4735
2026-01-12 13:11:20.71	314.18	21.15	-37.6	-39.4	15.4	0.00e+00	0	59	0	2830106624	45	4781
2026-01-12 13:11:21.72	314.36	21.05	-37.7	-39.5	15.3	0.00e+00	0	59	0	2835349504	45	4834
2026-01-12 13:11:22.73	314.53	20.95	-37.7	-39.6	15.2	0.00e+00	0	59	0	2841640960	46	4602
2026-01-12 13:11:23.74	314.71	20.84	-37.8	-39.7	15.1	0.00e+00	0	59	0	2846883840	46	4653
2026-01-12 13:11:24.75	314.88	20.74	-37.8	-39.6	15.2	0.00e+00	0	59	0	2853175296	46	4622
2026-01-12 13:11:25.76	315.05	20.64	-37.8	-39.6	15.2	0.00e+00	0	59	0	2858418176	46	4609
2026-01-12 13:11:26.77	315.22	20.54	-37.7	-39.5	15.3	0.00e+00	0	59	0	2864709632	46	4578
2026-01-12 13:11:27.78	315.39	20.44	-37.6	-39.4	15.4	0.00e+00	0	59	0	2869952512	46	4515
2026-01-12 13:11:28.79	315.56	20.34	-37.5	-39.3	15.5	0.00e+00	0	59	0	2876243968	46	4458
2026-01-12 13:11:29.80	315.73	20.24	-37.6	-39.3	15.4	0.00e+00	0	59	0	2881486848	46	4480
2026-01-12 13:11:30.81	315.90	20.14	-37.6	-39.3	15.4	0.00e+00	0	59	0	2886729728	46	4476
2026-01-12 13:11:31.82	316.06	20.04	-37.6	-39.4	15.4	0.00e+00	0	59	0	2893021184	46	4496
2026-01-12 13:11:32.83	316.23	19.94	-37.6	-39.4	15.4	0.00e+00	0	59	0	2898264064	46	4512
2026-01-12 13:11:33.84	316.39	19.84	-37.6	-39.4	15.3	0.00e+00	0	59	0	2904555520	46	4532
2026-01-12 13:11:34.85	316.55	19.74	-37.7	-39.5	15.2	0.00e+00	0	59	0	2909798400	46	4574
2026-01-12 13:11:35.86	316.71	19.64	-37.7	-39.5	15.2	0.00e+00	0	59	0	2915041280	46	4569
2026-01-12 13:11:36.87	316.87	19.54	-37.7	-39.5	15.2	0.00e+00	0	59	0	2921332736	46	4592
2026-01-12 13:11:37.88	317.03	19.44	-37.8	-39.6	15.1	0.00e+00	0	59	0	2926575616	46	4625
2026-01-12 13:11:38.89	317.19	19.34	-37.8	-39.6	15.1	0.00e+00	0	59	0	2932867072	46	4639
2026-01-12 13:11:39.90	317.35	19.25	-37.8	-39.7	15.0	0.00e+00	0	59	0	2938109952	46	4663
2026-01-12 13:11:40.91	317.51	19.15	-37.9	-39.8	15.0	0.00e+00	0	59	0	2943352832	46	4717
2026-01-12 13:11:41.91	317.66	19.05	-38.0	-39.8	14.9	0.00e+00	0	59	0	2949644288	46	4757
2026-01-12 13:11:42.93	317.82	18.95	-37.9	-39.8	14.9	0.00e+00	0	59	0	2954887168	46	4735
2026-01-12 13:11:43.94	317.97	18.85	-38.0	-39.8	14.8	1.10e-06	0	59	0	2961178624	46	4759
2026-01-12 13:11:44.95	318.12	18.76	-38.0	-39.9	14.7	0.00e+00	0	59	0	2966421504	46	4796
2026-01-12 13:11:45.96	318.28	18.66	-38.1	-40.0	14.7	0.00e+00	0	59	0	2972712960	46	4816
2026-01-12 13:11:46.97	318.43	18.56	-38.1	-40.0	14.7	0.00e+00	0	59	0	2977955840	46	4844
2026-01-12 13:11:47.98	318.58	18.46	-38.1	-40.0	14.6	0.00e+00	0	59	0	2984247296	46	4862
2026-01-12 13:11:48.99	318.72	18.37	-38.2	-40.1	14.6	0.00e+00	0	59	0	2989490176	46	4897
2026-01-12 13:11:50.00	318.87	18.27	-38.2	-40.1	14.5	0.00e+00	0	59	0	2994733056	46	4907
2026-01-12 13:11:51.00	319.02	18.17	-38.2	-40.2	14.5	0.00e+00	0	59	0	3001024512	47	4654
2026-01-12 13:11:52.01	319.16	18.08	-38.2	-40.2	14.4	1.10e-06	0	59	0	3006267392	47	4666
2026-01-12 13:11:53.03	319.31	17.98	-38.2	-40.2	14.4	0.00e+00	0	59	0	3012558848	47	4683
2026-01-12 13:11:54.04	319.46	17.89	-38.2	-40.2	14.5	0.00e+00	0	59	0	3017801728	47	4657
2026-01-12 13:11:55.04	319.60	17.79	-38.1	-40.1	14.6	0.00e+00	0	59	0	3023044608	47	4614
2026-01-12 13:11:56.05	319.74	17.70	-38.1	-40.0	14.6	0.00e+00	0	59	0	3029336064	47	4575
2026-01-12 13:11:57.06	319.88	17.60	-38.1	-40.0	14.6	0.00e+00	0	59	0	3034578944	47	4576
2026-01-12 13:11:58.08	320.03	17.50	-38.1	-40.0	14.6	0.00e+00	0	59	0	3040870400	47	4584
2026-01-12 13:11:59.08	320.16	17.41	-38.2	-40.1	14.5	1.10e-06	0	59	0	3046113280	47	4627
2026-01-12 13:12:00.09	320.30	17.32	-38.3	-40.3	14.3	0.00e+00	0	59	0	3051356160	47	4726
2026-01-12 13:12:01.10	320.44	17.22	-38.3	-40.3	14.3	1.10e-06	0	59	0	3057647616	47	4755
2026-01-12 13:12:02.11	320.58	17.13	-38.4	-40.4	14.2	0.00e+00	0	59	0	3062890496	47	4770
2026-01-12 13:12:03.12	320.72	17.03	-38.4	-40.4	14.1	0.00e+00	0	59	0	3069181952	47	4814
2026-01-12 13:12:04.14	320.85	16.94	-38.4	-40.5	14.1	0.00e+00	0	59	0	3074424832	47	4830
2026-01-12 13:12:05.15	320.99	16.84	-38.5	-40.5	14.0	1.10e-06	0	59	0	3080716288	47	4868
2026-01-12 13:12:06.16	321.12	16.75	-38.5	-40.6	14.0	2.20e-06	0	59	0	3085959168	47	4874
2026-01-12 13:12:07.17	321.26	16.66	-38.4	-40.5	14.1	0.00e+00	0	59	0	3092250624	47	4834
2026-01-12 13:12:08.18	321.39	16.57	-38.4	-40.4	14.1	0.00e+00	0	59	0	3097493504	47	4808
2026-01-12 13:12:09.19	321.52	16.47	-38.4	-40.4	14.2	1.10e-06	0	59	0	3102736384	47	4787
2026-01-12 13:12:10.19	321.65	16.38	-38.4	-40.4	14.1	0.00e+00	0	59	0	3109027840	47	4792
2026-01-12 13:12:11.20	321.78	16.29	-38.4	-40.4	14.2	1.10e-06	0	59	0	3114270720	47	4782
2026-01-12 13:12:12.21	321.91	16.20	-38.4	-40.4	14.2	1.10e-06	0	59	0	3119513600	47	4765
2026-01-12 13:12:13.22	322.04	16.10	-38.4	-40.4	14.1	1.10e-06	0	59	0	3125805056	47	4807
2026-01-12 13:12:14.24	322.17	16.01	-38.4	-40.5	14.0	1.10e-06	0	59	0	3131047936	47	4832
2026-01-12 13:12:15.25	322.30	15.92	-38.5	-40.6	14.0	1.10e-06	0	59	0	3137339392	47	4875
2026-01-12 13:12:16.26	322.42	15.83	-38.6	-40.7	13.9	0.00e+00	0	59	0	3142582272	47	4931
2026-01-12 13:12:17.27	322.55	15.74	-38.6	-40.7	13.8	1.10e-06	0	59	0	3148873728	47	4948
2026-01-12 13:12:18.28	322.67	15.65	-38.5	-40.6	13.9	1.10e-06	0	59	0	3154116608	47	4902
2026-01-12 13:12:19.29	322.80	15.56	-38.6	-40.7	13.8	2.20e-06	0	59	0	3159359488	47	4959
2026-01-12 13:12:20.30	322.92	15.47	-38.6	-40.8	13.7	2.20e-06	0	59	0	3165650944	47	5006
2026-01-12 13:12:21.31	323.04	15.38	-38.8	-41.0	13.6	3.40e-06	0	59	0	3170893824	48	4827
2026-01-12 13:12:22.32	323.17	15.29	-38.8	-41.0	13.6	8.00e-06	0	59	0	3177185280	48	4831
2026-01-12 13:12:23.33	323.29	15.20	-39.0	-41.2	13.4	8.00e-06	0	59	0	3182428160	48	4949
2026-01-12 13:12:24.34	323.41	15.11	-38.8	-41.0	13.7	4.50e-06	0	59	0	3188719616	48	4815
2026-01-12 13:12:25.35	323.53	15.02	-38.7	-40.7	13.9	1.10e-06	0	59	0	3193962496	48	4699
2026-01-12 13:12:26.36	323.65	14.93	-38.6	-40.7	13.9	1.10e-06	0	59	0	3199205376	48	4695
2026-01-12 13:12:27.37	323.77	14.84	-38.6	-40.7	13.9	1.10e-06	0	59	0	3205496832	48	4677
2026-01-12 13:12:28.38	323.89	14.75	-38.7	-40.8	13.8	2.20e-06	0	59	0	3210739712	48	4716
2026-01-12 13:12:29.39	324.00	14.66	-38.6	-40.6	13.9	1.10e-06	0	59	0	3217031168	48	4644
2026-01-12 13:12:30.40	324.12	14.58	-38.6	-40.6	13.9	4.50e-06	0	59	0	3222274048	48	4651
2026-01-12 13:12:31.41	324.24	14.49	-38.6	-40.7	13.9	2.20e-06	0	59	0	3227516928	48	4668
2026-01-12 13:12:32.42	324.35	14.40	-38.8	-40.9	13.7	3.40e-06	0	59	0	3233808384	48	4763
2026-01-12 13:12:33.43	324.47	14.31	-38.8	-40.9	13.7	3.40e-06	0	59	0	3239051264	48	4765
2026-01-12 13:12:34.44	324.58	14.23	-38.7	-40.8	13.7	5.70e-06	0	59	0	3245342720	48	4744
2026-01-12 13:12:35.45	324.69	14.14	-38.7	-40.7	13.8	1.10e-06	0	59	0	3250585600	48	4698
2026-01-12 13:12:36.46	324.81	14.05	-38.7	-40.8	13.7	6.80e-06	0	59	0	3255828480	48	4722
2026-01-12 13:12:37.47	324.92	13.96	-38.8	-40.9	13.6	5.70e-06	0	59	0	3262119936	48	4787
2026-01-12 13:12:38.48	325.03	13.88	-38.8	-40.9	13.6	2.20e-06	0	59	0	3267362816	48	4797
2026-01-12 13:12:39.49	325.14	13.79	-38.8	-41.0	13.5	3.40e-06	0	59	0	3273654272	48	4827
2026-01-12 13:12:40.50	325.25	13.71	-38.9	-41.1	13.4	5.70e-06	0	59	0	3278897152	48	4874
2026-01-12 13:12:41.51	325.36	13.62	-38.9	-41.1	13.4	1.48e-05	0	59	0	3285188608	48	4892
2026-01-12 13:12:42.52	325.47	13.53	-38.9	-41.1	13.3	1.37e-05	0	59	0	3290431488	48	4921
2026-01-12 13:12:43.53	325.58	13.45	-38.9	-41.1	13.4	1.02e-05	0	59	0	3296722944	48	4895
2026-01-12 13:12:44.54	325.69	13.36	-39.0	-41.2	13.3	6.80e-06	0	60	0	3301965824	48	4940
2026-01-12 13:12:45.55	325.79	13.28	-39.0	-41.2	13.2	1.25e-05	0	59	0	3307208704	48	4978
2026-01-12 13:12:46.56	325.90	13.19	-39.0	-41.3	13.2	1.48e-05	0	59	0	3313500160	48	4996
2026-01-12 13:12:47.57	326.01	13.11	-39.1	-41.4	13.0	1.94e-05	0	59	0	3318743040	48	5072
2026-01-12 13:12:48.58	326.11	13.03	-39.1	-41.4	13.0	2.05e-05	0	59	0	3325034496	48	5082
2026-01-12 13:12:49.59	326.22	12.94	-39.1	-41.4	13.0	2.05e-05	0	59	0	3330277376	48	5098
2026-01-12 13:12:50.60	326.32	12.86	-39.2	-41.6	12.9	2.86e-05	0	59	0	3335520256	48	5160
2026-01-12 13:12:51.61	326.42	12.77	-39.2	-41.5	12.9	3.66e-05	0	59	0	3341811712	49	4854
2026-01-12 13:12:52.62	326.53	12.69	-39.2	-41.6	12.8	3.20e-05	0	59	0	3347054592	49	4873
2026-01-12 13:12:53.64	326.63	12.61	-39.3	-41.8	12.6	4.92e-05	0	59	0	3353346048	49	4987
2026-01-12 13:12:54.64	326.73	12.52	-39.2	-41.6	12.8	4.80e-05	0	59	0	3358588928	49	4903
2026-01-12 13:12:55.65	326.83	12.44	-39.3	-41.7	12.7	4.00e-05	0	59	0	3363831808	49	4939
2026-01-12 13:12:56.66	326.94	12.36	-39.3	-41.7	12.6	6.63e-05	0	59	0	3370123264	49	4963
2026-01-12 13:12:57.68	327.04	12.27	-39.3	-41.7	12.6	5.72e-05	0	59	0	3375366144	49	4980
2026-01-12 13:12:58.69	327.14	12.19	-39.3	-41.7	12.6	6.98e-05	0	59	0	3381657600	49	4981
2026-01-12 13:12:59.70	327.24	12.11	-39.3	-41.8	12.5	5.03e-05	0	59	0	3386900480	49	4994
2026-01-12 13:13:00.71	327.34	12.03	-39.3	-41.7	12.6	7.66e-05	0	59	0	3393191936	49	4973
2026-01-12 13:13:01.72	327.43	11.95	-39.4	-41.9	12.4	8.01e-05	0	59	0	3398434816	49	5052
2026-01-12 13:13:02.73	327.53	11.87	-39.4	-41.9	12.4	1.07e-04	0	59	0	3404726272	49	5062
2026-01-12 13:13:03.74	327.63	11.78	-39.3	-41.7	12.6	8.58e-05	0	59	0	3409969152	49	4952
2026-01-12 13:13:04.75	327.73	11.70	-39.3	-41.7	12.6	8.01e-05	0	59	0	3415212032	49	4962
2026-01-12 13:13:05.76	327.82	11.62	-39.3	-41.7	12.6	6.06e-05	0	59	0	3421503488	49	4936
2026-01-12 13:13:06.77	327.92	11.54	-39.3	-41.8	12.5	8.01e-05	0	59	0	3426746368	49	4985
2026-01-12 13:13:07.78	328.01	11.46	-39.4	-41.9	12.4	7.55e-05	0	59	0	3433037824	49	5047
2026-01-12 13:13:08.79	328.11	11.38	-39.5	-42.0	12.2	9.95e-05	0	59	0	3438280704	49	5106
2026-01-12 13:13:09.80	328.20	11.30	-39.5	-42.0	12.2	1.84e-04	0	59	0	3443523584	49	5140
2026-01-12 13:13:10.80	328.30	11.22	-39.5	-42.0	12.2	1.28e-04	0	59	0	3449815040	49	5133
2026-01-12 13:13:11.81	328.39	11.14	-39.4	-41.9	12.3	1.10e-04	0	59	0	3455057920	49	5064
2026-01-12 13:13:12.82	328.48	11.06	-39.4	-41.9	12.3	1.20e-04	0	59	0	3461349376	49	5089
2026-01-12 13:13:13.83	328.57	10.98	-39.5	-42.1	12.1	1.69e-04	0	59	0	3466592256	49	5178
2026-01-12 13:13:14.84	328.67	10.90	-39.5	-42.1	12.1	1.58e-04	0	59	0	3471835136	49	5194
2026-01-12 13:13:15.85	328.76	10.83	-39.5	-42.1	12.1	1.80e-04	0	59	0	3478126592	49	5175
