passes_logs/2026/01/12/R2.0S_Moscow/R2.0S_Moscow__20260112_045609_FENGYUN_3E_rec.log

#Pass ID: 20260112_045609_FENGYUN 3E
#Satellite: FENGYUN 3E
#Configuration: FENGYUN 3E
#almurnet v.1.7.20251203
#Start time: 2026-01-12 04:56:08

#Version: 2.2.20231116
#Station: R2.0S_Moscow
#Location: 37.707566 lon 55.798166 lat
#TLE: 1 49008U 21062A   26011.27090272  .00000463  00000+0  23869-3 0  9994
#TLE: 2 49008  98.7490  16.4432 0001856 145.0812 215.0487 14.19886022234312

#Time	Az	El	Level	Level2	SNR	BER	BlckErr	Temp	State	Recorded	gain1	gain2
2026-01-12 04:56:08.43	12.34	1.97	-40.2	-51.1	3.8	8.47e-01	0	47	0	0	51	12336
2026-01-12 04:56:09.43	12.30	2.03	-40.2	-51.1	3.8	8.47e-01	0	47	104	0	51	12351
2026-01-12 04:56:10.44	12.26	2.09	-40.2	-51.1	3.8	8.47e-01	0	47	104	0	51	12315
2026-01-12 04:56:11.45	12.22	2.15	-40.2	-51.1	3.8	8.46e-01	0	47	104	0	51	12355
2026-01-12 04:56:12.46	12.18	2.22	-40.2	-51.1	3.8	8.46e-01	0	47	104	0	51	12322
2026-01-12 04:56:13.47	12.15	2.28	-40.2	-51.1	3.8	8.46e-01	0	47	104	0	51	12314
2026-01-12 04:56:14.48	12.11	2.34	-40.2	-51.2	3.8	8.47e-01	0	47	104	0	51	12380
2026-01-12 04:56:15.49	12.07	2.40	-40.2	-51.1	3.8	8.46e-01	0	47	104	0	51	12287
2026-01-12 04:56:16.51	12.03	2.47	-40.2	-51.1	3.8	8.46e-01	0	47	104	0	51	12321
2026-01-12 04:56:17.52	11.99	2.53	-40.2	-51.1	3.8	8.46e-01	0	48	104	0	51	12313
2026-01-12 04:56:18.53	11.95	2.59	-40.2	-51.1	3.8	8.45e-01	0	47	104	0	51	12294
2026-01-12 04:56:19.54	11.91	2.66	-40.2	-51.1	3.8	8.46e-01	0	48	104	0	51	12293
2026-01-12 04:56:20.55	11.87	2.72	-40.2	-51.1	3.8	8.47e-01	0	48	104	0	51	12342
2026-01-12 04:56:21.56	11.83	2.78	-40.2	-51.1	3.8	8.46e-01	0	48	104	0	51	12310
2026-01-12 04:56:22.57	11.78	2.85	-40.2	-51.1	3.8	8.45e-01	0	48	104	0	51	12309
2026-01-12 04:56:23.58	11.74	2.91	-40.2	-51.1	3.8	8.46e-01	0	48	104	0	51	12341
2026-01-12 04:56:24.59	11.70	2.97	-40.2	-51.1	3.8	8.46e-01	0	48	104	0	51	12315
2026-01-12 04:56:25.60	11.66	3.04	-40.2	-51.1	3.8	8.46e-01	0	48	104	0	51	12332
2026-01-12 04:56:26.61	11.62	3.10	-40.2	-51.1	3.8	8.46e-01	0	48	104	0	51	12309
2026-01-12 04:56:27.63	11.58	3.17	-40.2	-51.1	3.8	8.46e-01	0	48	104	0	51	12324
2026-01-12 04:56:28.64	11.54	3.23	-40.2	-51.1	3.8	8.46e-01	0	48	104	0	51	12287
2026-01-12 04:56:29.65	11.49	3.29	-40.2	-51.1	3.8	8.47e-01	0	48	104	0	51	12326
2026-01-12 04:56:30.66	11.45	3.36	-40.2	-51.1	3.8	8.46e-01	0	48	104	0	51	12320
2026-01-12 04:56:31.67	11.41	3.42	-40.2	-51.1	3.8	8.47e-01	0	48	104	0	51	12272
2026-01-12 04:56:32.68	11.36	3.49	-40.2	-51.1	3.8	8.45e-01	0	48	104	0	51	12286
2026-01-12 04:56:33.69	11.32	3.55	-40.2	-51.0	3.8	8.46e-01	0	49	104	0	51	12232
2026-01-12 04:56:34.70	11.28	3.62	-40.2	-51.0	3.8	8.46e-01	0	48	104	0	51	12196
2026-01-12 04:56:35.71	11.24	3.68	-40.2	-51.0	3.8	8.46e-01	0	49	104	0	51	12231
2026-01-12 04:56:36.72	11.19	3.75	-40.2	-51.1	3.8	8.47e-01	0	49	104	0	51	12238
2026-01-12 04:56:37.73	11.15	3.81	-40.2	-51.0	3.8	8.46e-01	0	49	104	0	51	12223
2026-01-12 04:56:38.74	11.10	3.88	-40.2	-51.0	3.8	8.45e-01	0	49	104	0	51	12226
2026-01-12 04:56:39.75	11.06	3.95	-40.2	-51.0	3.8	8.46e-01	0	49	104	0	51	12229
2026-01-12 04:56:40.76	11.01	4.01	-40.2	-51.0	3.8	8.46e-01	0	49	104	0	51	12223
2026-01-12 04:56:41.77	10.97	4.08	-40.2	-51.0	3.8	8.45e-01	0	49	104	0	51	12186
2026-01-12 04:56:42.78	10.93	4.14	-40.2	-51.1	3.8	8.45e-01	0	49	104	0	51	12257
2026-01-12 04:56:43.80	10.88	4.21	-40.2	-51.0	3.8	8.47e-01	0	49	104	0	51	12195
2026-01-12 04:56:44.81	10.83	4.28	-40.2	-51.0	3.8	8.46e-01	0	49	104	0	51	12210
2026-01-12 04:56:45.82	10.79	4.34	-40.2	-51.1	3.8	8.46e-01	0	49	104	0	51	12260
2026-01-12 04:56:46.83	10.74	4.41	-40.2	-51.0	3.8	8.45e-01	0	49	104	0	51	12234
2026-01-12 04:56:47.84	10.70	4.48	-40.2	-51.0	3.8	8.45e-01	0	50	104	0	51	12228
2026-01-12 04:56:48.85	10.65	4.54	-40.2	-51.1	3.8	8.46e-01	0	50	104	0	51	12274
2026-01-12 04:56:49.86	10.60	4.61	-40.2	-51.1	3.8	8.46e-01	0	50	104	0	51	12269
2026-01-12 04:56:50.87	10.56	4.68	-40.2	-51.1	3.8	8.46e-01	0	50	104	0	51	12239
2026-01-12 04:56:51.88	10.51	4.75	-40.2	-51.1	3.8	8.45e-01	0	50	104	0	51	12268
2026-01-12 04:56:52.89	10.46	4.81	-40.2	-51.1	3.8	8.46e-01	0	50	104	0	51	12255
2026-01-12 04:56:53.90	10.41	4.88	-40.2	-51.1	3.8	8.45e-01	0	50	104	0	51	12280
2026-01-12 04:56:54.91	10.37	4.95	-40.2	-51.1	3.8	8.46e-01	0	50	104	0	51	12268
2026-01-12 04:56:55.92	10.32	5.02	-40.2	-51.1	3.8	8.46e-01	0	50	104	0	51	12278
2026-01-12 04:56:56.93	10.27	5.09	-40.2	-51.1	3.8	8.46e-01	0	50	104	0	51	12271
2026-01-12 04:56:57.95	10.22	5.16	-40.2	-51.1	3.8	8.46e-01	0	50	104	0	51	12243
2026-01-12 04:56:58.96	10.17	5.22	-40.2	-51.1	3.8	8.45e-01	0	50	104	0	51	12288
2026-01-12 04:56:59.97	10.12	5.29	-40.2	-51.1	3.8	8.46e-01	0	50	104	0	51	12286
2026-01-12 04:57:00.98	10.07	5.36	-40.2	-51.1	3.8	8.45e-01	0	50	104	0	51	12261
2026-01-12 04:57:01.99	10.03	5.43	-40.2	-51.1	3.8	8.46e-01	0	51	104	0	51	12320
2026-01-12 04:57:03.00	9.98	5.50	-40.2	-51.1	3.8	8.46e-01	0	50	104	0	51	12271
2026-01-12 04:57:04.01	9.93	5.57	-40.2	-51.1	3.8	8.47e-01	0	50	104	0	51	12313
2026-01-12 04:57:05.02	9.88	5.64	-40.2	-51.1	3.8	8.46e-01	0	51	104	0	51	12296
2026-01-12 04:57:06.03	9.82	5.71	-40.2	-51.1	3.8	8.47e-01	0	51	104	0	51	12299
2026-01-12 04:57:07.04	9.77	5.78	-40.2	-51.1	3.8	8.46e-01	0	51	104	0	51	12306
2026-01-12 04:57:08.06	9.72	5.85	-40.2	-51.1	3.8	8.44e-01	0	51	104	0	51	12340
2026-01-12 04:57:09.07	9.67	5.92	-40.2	-51.1	3.8	8.46e-01	0	51	104	0	51	12340
2026-01-12 04:57:10.08	9.62	5.99	-40.2	-51.1	3.8	8.48e-01	0	51	104	0	51	12306
2026-01-12 04:57:11.09	9.57	6.06	-40.2	-51.1	3.8	8.46e-01	0	51	104	0	51	12324
2026-01-12 04:57:12.10	9.52	6.13	-40.2	-51.1	3.8	8.46e-01	0	51	104	0	51	12335
2026-01-12 04:57:13.11	9.46	6.20	-40.2	-51.1	3.8	8.45e-01	0	51	104	0	51	12317
2026-01-12 04:57:14.12	9.41	6.27	-40.2	-51.1	3.8	8.46e-01	0	51	104	0	51	12280
2026-01-12 04:57:15.13	9.36	6.34	-40.2	-51.1	3.8	8.46e-01	0	51	104	0	51	12287
2026-01-12 04:57:16.14	9.30	6.42	-40.2	-51.1	3.8	8.47e-01	0	51	104	0	51	12300
2026-01-12 04:57:17.15	9.25	6.49	-40.2	-51.1	3.8	8.45e-01	0	51	104	0	51	12339
2026-01-12 04:57:18.16	9.20	6.56	-40.2	-51.1	3.8	8.48e-01	0	51	104	0	51	12302
2026-01-12 04:57:19.17	9.14	6.63	-40.2	-51.1	3.8	8.46e-01	0	51	104	0	51	12308
2026-01-12 04:57:20.18	9.09	6.70	-40.2	-51.1	3.8	8.47e-01	0	51	104	0	51	12301
2026-01-12 04:57:21.19	9.03	6.77	-40.2	-51.1	3.8	8.47e-01	0	51	104	0	51	12322
2026-01-12 04:57:22.21	8.98	6.85	-40.2	-51.1	3.8	8.46e-01	0	51	104	0	51	12292
2026-01-12 04:57:23.22	8.92	6.92	-40.2	-51.1	3.8	8.45e-01	0	51	104	0	51	12324
2026-01-12 04:57:24.23	8.87	6.99	-40.2	-51.1	3.8	8.46e-01	0	51	104	0	51	12276
2026-01-12 04:57:25.24	8.81	7.07	-40.2	-51.1	3.8	8.47e-01	0	52	104	0	51	12295
2026-01-12 04:57:26.25	8.76	7.14	-40.2	-51.1	3.8	8.46e-01	0	52	104	0	51	12325
2026-01-12 04:57:27.26	8.70	7.21	-40.2	-51.1	3.8	8.45e-01	0	52	104	0	51	12320
2026-01-12 04:57:28.27	8.64	7.29	-40.2	-51.1	3.8	8.46e-01	0	51	104	0	51	12295
2026-01-12 04:57:29.28	8.59	7.36	-40.2	-51.1	3.8	8.47e-01	0	51	104	0	51	12290
2026-01-12 04:57:30.29	8.53	7.43	-40.2	-51.1	3.8	8.47e-01	0	52	104	0	51	12291
2026-01-12 04:57:31.30	8.47	7.51	-40.2	-51.1	3.8	8.46e-01	0	51	104	0	51	12281
2026-01-12 04:57:32.32	8.41	7.58	-40.2	-51.1	3.8	8.47e-01	0	52	104	0	51	12293
2026-01-12 04:57:33.33	8.35	7.66	-40.2	-51.1	3.8	8.45e-01	0	52	104	0	51	12321
2026-01-12 04:57:34.34	8.29	7.73	-40.2	-51.1	3.8	8.46e-01	0	52	104	0	51	12281
2026-01-12 04:57:35.35	8.24	7.81	-40.2	-51.1	3.8	8.47e-01	0	52	104	0	51	12343
2026-01-12 04:57:36.36	8.18	7.88	-40.2	-51.1	3.8	8.46e-01	0	52	104	0	51	12319
2026-01-12 04:57:37.37	8.12	7.96	-40.2	-51.1	3.8	8.46e-01	0	52	104	0	51	12244
2026-01-12 04:57:38.38	8.06	8.03	-40.2	-51.1	3.8	8.47e-01	0	52	104	0	51	12282
2026-01-12 04:57:39.39	8.00	8.11	-40.2	-51.1	3.8	8.46e-01	0	52	104	0	51	12318
2026-01-12 04:57:40.40	7.94	8.18	-40.3	-51.2	3.8	8.46e-01	0	52	104	0	51	12432
2026-01-12 04:57:41.41	7.87	8.26	-40.2	-51.1	3.8	8.46e-01	0	52	104	0	51	12247
2026-01-12 04:57:42.42	7.81	8.34	-40.2	-51.2	3.8	8.47e-01	0	52	104	0	51	12402
2026-01-12 04:57:43.43	7.75	8.41	-40.2	-51.2	3.8	8.46e-01	0	52	104	0	51	12426
2026-01-12 04:57:44.44	7.69	8.49	-40.2	-51.2	3.8	8.46e-01	0	52	104	0	51	12377
2026-01-12 04:57:45.45	7.63	8.57	-40.3	-51.2	3.8	8.46e-01	0	52	104	0	51	12432
2026-01-12 04:57:46.46	7.56	8.64	-40.2	-51.1	3.8	8.46e-01	0	52	104	0	51	12342
2026-01-12 04:57:47.47	7.50	8.72	-40.2	-51.1	3.8	8.46e-01	0	53	104	0	51	12267
2026-01-12 04:57:48.48	7.44	8.80	-40.2	-51.1	3.8	8.46e-01	0	52	104	0	51	12325
2026-01-12 04:57:49.49	7.37	8.87	-40.2	-51.1	3.8	8.46e-01	0	52	104	0	51	12345
2026-01-12 04:57:50.50	7.31	8.95	-40.2	-51.2	3.8	8.46e-01	0	52	104	0	51	12402
2026-01-12 04:57:51.51	7.25	9.03	-40.2	-51.2	3.8	8.46e-01	0	52	104	0	51	12394
2026-01-12 04:57:52.52	7.18	9.11	-40.2	-51.2	3.8	8.46e-01	0	53	104	0	51	12377
2026-01-12 04:57:53.54	7.12	9.19	-40.3	-51.2	3.8	8.46e-01	0	53	104	0	51	12473
2026-01-12 04:57:54.55	7.05	9.27	-40.2	-51.1	3.8	8.45e-01	0	52	104	0	51	12365
2026-01-12 04:57:55.56	6.98	9.35	-40.2	-51.1	3.8	8.46e-01	0	52	104	0	51	12360
2026-01-12 04:57:56.57	6.92	9.42	-40.2	-51.1	3.8	8.46e-01	0	53	104	0	51	12366
2026-01-12 04:57:57.58	6.85	9.50	-40.2	-51.1	3.8	8.46e-01	0	53	104	0	51	12375
2026-01-12 04:57:58.59	6.78	9.58	-40.2	-51.1	3.8	8.46e-01	0	53	104	0	51	12375
2026-01-12 04:57:59.60	6.72	9.66	-40.4	-51.3	3.8	8.46e-01	0	53	104	0	51	12549
2026-01-12 04:58:00.61	6.65	9.74	-40.3	-51.2	3.8	8.46e-01	0	53	104	0	51	12436
2026-01-12 04:58:01.62	6.58	9.82	-40.4	-51.3	3.8	8.47e-01	0	53	104	0	51	12635
2026-01-12 04:58:02.63	6.51	9.90	-40.3	-51.2	3.8	8.46e-01	0	53	104	0	51	12465
2026-01-12 04:58:03.64	6.44	9.98	-40.5	-51.4	3.8	8.47e-01	0	53	104	0	51	12790
2026-01-12 04:58:04.65	6.37	10.06	-40.3	-51.2	3.8	8.48e-01	0	53	104	0	51	12481
2026-01-12 04:58:05.66	6.30	10.15	-40.5	-51.5	3.8	8.46e-01	0	53	104	0	51	12864
2026-01-12 04:58:06.67	6.23	10.23	-40.4	-51.3	3.8	8.46e-01	0	53	104	0	51	12614
2026-01-12 04:58:07.68	6.16	10.31	-40.6	-51.5	3.8	8.46e-01	0	53	104	0	51	12949
2026-01-12 04:58:08.69	6.09	10.39	-40.4	-51.3	3.8	8.46e-01	0	53	104	0	51	12598
2026-01-12 04:58:09.70	6.02	10.47	-40.7	-51.7	3.8	8.46e-01	0	53	104	0	51	13131
2026-01-12 04:58:10.71	5.95	10.55	-40.4	-51.3	3.8	8.46e-01	0	53	104	0	51	12642
2026-01-12 04:58:11.72	5.87	10.64	-40.7	-51.7	3.8	8.47e-01	0	53	104	0	51	13169
2026-01-12 04:58:12.73	5.80	10.72	-40.4	-51.4	3.8	8.47e-01	0	53	104	0	51	12711
2026-01-12 04:58:13.74	5.73	10.80	-40.4	-51.3	3.8	8.46e-01	0	53	104	0	51	12605
2026-01-12 04:58:14.75	5.65	10.89	-40.2	-51.1	3.8	8.46e-01	0	53	104	0	51	12295
2026-01-12 04:58:15.76	5.58	10.97	-40.3	-51.2	3.8	8.46e-01	0	53	104	0	51	12421
2026-01-12 04:58:16.77	5.51	11.05	-40.3	-51.2	3.8	8.46e-01	0	53	104	0	51	12486
2026-01-12 04:58:17.78	5.43	11.14	-40.3	-51.2	3.8	8.45e-01	0	53	104	0	51	12497
2026-01-12 04:58:18.79	5.35	11.22	-40.4	-51.3	3.8	8.46e-01	0	53	104	0	51	12580
2026-01-12 04:58:19.80	5.28	11.30	-40.4	-51.3	3.8	8.45e-01	0	53	104	0	51	12613
2026-01-12 04:58:20.81	5.20	11.39	-40.9	-49.6	3.9	8.46e-01	0	53	104	0	51	10392
2026-01-12 04:58:21.82	5.13	11.47	-41.7	-48.8	4.5	8.18e-01	0	53	0	0	52	8927
2026-01-12 04:58:22.83	5.05	11.56	-41.0	-51.4	3.8	8.16e-01	0	53	104	0	53	11334
2026-01-12 04:58:23.84	4.97	11.64	-41.0	-48.1	4.5	8.45e-01	0	54	104	0	53	7805
2026-01-12 04:58:24.85	4.89	11.73	-40.9	-46.6	5.5	7.18e-01	0	53	0	0	52	6936
2026-01-12 04:58:25.86	4.81	11.81	-40.8	-46.1	6.0	3.74e-01	0	54	0	4194304	52	6558
2026-01-12 04:58:26.87	4.73	11.90	-40.9	-46.2	6.0	3.31e-01	0	54	0	11534336	52	6571
2026-01-12 04:58:27.88	4.65	11.99	-40.8	-45.9	6.2	2.99e-01	0	54	0	17825792	52	6364
2026-01-12 04:58:28.89	4.57	12.07	-41.0	-46.4	5.9	3.63e-01	0	54	0	26214400	52	6745
2026-01-12 04:58:29.90	4.49	12.16	-41.3	-47.1	5.4	7.04e-01	0	54	0	30408704	52	7345
2026-01-12 04:58:30.91	4.41	12.25	-41.3	-47.4	5.3	7.38e-01	0	54	0	32505856	52	7549
2026-01-12 04:58:31.93	4.33	12.33	-41.2	-46.8	5.5	7.02e-01	0	54	0	33554432	52	7106
2026-01-12 04:58:32.93	4.25	12.42	-40.7	-45.8	6.2	3.36e-01	0	54	0	39845888	52	6283
2026-01-12 04:58:33.95	4.16	12.51	-40.4	-45.0	6.8	1.91e-01	0	54	0	47185920	51	6108
2026-01-12 04:58:34.96	4.08	12.60	-40.1	-44.4	7.3	1.27e-01	0	54	0	54525952	51	5668
2026-01-12 04:58:35.97	4.00	12.69	-40.0	-44.3	7.4	1.21e-01	0	54	0	61865984	50	5926
2026-01-12 04:58:36.97	3.91	12.77	-40.3	-44.9	6.8	1.60e-01	0	54	0	69206016	50	6390
2026-01-12 04:58:37.99	3.83	12.86	-40.6	-45.7	6.2	2.77e-01	0	54	0	76546048	50	7012
2026-01-12 04:58:38.99	3.74	12.95	-40.8	-46.0	6.1	3.15e-01	0	54	0	83886080	51	6867
2026-01-12 04:58:40.00	3.66	13.04	-40.4	-44.9	7.0	2.16e-01	0	54	0	91226112	51	6046
2026-01-12 04:58:41.01	3.57	13.13	-39.7	-43.3	8.6	4.59e-02	0	54	0	98566144	50	5282
2026-01-12 04:58:42.02	3.48	13.22	-38.8	-41.8	10.1	1.05e-02	0	54	0	105906176	48	5019
2026-01-12 04:58:43.03	3.40	13.31	-37.9	-40.5	11.4	1.32e-03	0	54	0	113246208	46	4820
2026-01-12 04:58:44.04	3.31	13.40	-37.3	-39.6	12.4	2.47e-04	0	54	0	120586240	45	4601
2026-01-12 04:58:45.05	3.22	13.49	-36.7	-38.7	13.2	3.08e-05	0	54	0	127926272	44	4423
2026-01-12 04:58:46.06	3.13	13.58	-36.0	-37.8	14.0	9.10e-06	0	54	0	135266304	43	4230
2026-01-12 04:58:47.07	3.04	13.67	-35.7	-37.4	14.6	0.00e+00	0	54	0	141557760	42	4262
2026-01-12 04:58:48.08	2.95	13.76	-35.4	-37.0	15.3	0.00e+00	0	54	0	148897792	41	4295
2026-01-12 04:58:49.09	2.86	13.86	-35.2	-36.7	15.8	0.00e+00	0	54	0	157286400	41	4187
2026-01-12 04:58:50.10	2.77	13.95	-35.2	-36.7	15.9	0.00e+00	0	54	0	163577856	41	4182
2026-01-12 04:58:51.11	2.67	14.04	-35.8	-37.4	15.3	0.00e+00	0	54	0	170917888	41	4503
2026-01-12 04:58:52.12	2.58	14.13	-36.2	-37.9	14.8	0.00e+00	0	54	0	178257920	41	4785
2026-01-12 04:58:53.13	2.49	14.23	-36.6	-38.4	14.4	0.00e+00	0	54	0	185597952	42	4779
2026-01-12 04:58:54.14	2.39	14.32	-36.6	-38.3	14.5	0.00e+00	0	54	0	192937984	42	4726
2026-01-12 04:58:55.15	2.30	14.41	-36.4	-38.1	14.8	0.00e+00	0	54	0	200278016	42	4616
2026-01-12 04:58:56.16	2.20	14.51	-36.1	-37.7	15.2	0.00e+00	0	54	0	207618048	42	4416
2026-01-12 04:58:57.17	2.11	14.60	-36.1	-37.7	15.3	1.10e-06	0	54	0	214958080	42	4432
2026-01-12 04:58:58.19	2.01	14.69	-36.0	-37.5	15.5	0.00e+00	0	54	0	222298112	42	4331
2026-01-12 04:58:59.20	1.91	14.79	-36.1	-37.6	15.5	0.00e+00	0	54	0	229638144	42	4387
2026-01-12 04:59:00.21	1.82	14.88	-36.0	-37.4	15.8	0.00e+00	0	54	0	236978176	42	4287
2026-01-12 04:59:01.21	1.72	14.98	-36.5	-38.1	15.2	0.00e+00	0	54	0	244318208	42	4628
2026-01-12 04:59:02.22	1.62	15.07	-36.4	-37.9	15.5	0.00e+00	0	54	0	251658240	42	4545
2026-01-12 04:59:03.23	1.52	15.17	-36.2	-37.7	15.9	0.00e+00	0	54	0	258998272	42	4393
2026-01-12 04:59:04.25	1.42	15.26	-36.3	-37.8	15.9	0.00e+00	0	54	0	266338304	42	4442
2026-01-12 04:59:05.26	1.32	15.36	-36.4	-37.9	15.8	0.00e+00	0	54	0	273678336	43	4262
2026-01-12 04:59:06.27	1.21	15.46	-36.5	-38.0	15.8	0.00e+00	0	54	0	281018368	43	4295
2026-01-12 04:59:07.28	1.11	15.55	-36.4	-37.8	16.1	0.00e+00	0	54	0	288358400	43	4226
2026-01-12 04:59:08.28	1.01	15.65	-36.3	-37.7	16.2	0.00e+00	0	54	0	295698432	43	4166
2026-01-12 04:59:09.29	0.91	15.75	-36.2	-37.6	16.3	0.00e+00	0	54	0	303038464	43	4139
2026-01-12 04:59:10.31	0.80	15.85	-36.2	-37.6	16.3	0.00e+00	0	54	0	310378496	43	4140
2026-01-12 04:59:11.32	0.69	15.94	-36.0	-37.4	16.6	0.00e+00	0	54	0	316669952	42	4270
2026-01-12 04:59:12.33	0.59	16.04	-36.1	-37.5	16.6	0.00e+00	0	54	0	324009984	42	4322
2026-01-12 04:59:13.34	0.48	16.14	-36.0	-37.3	16.7	0.00e+00	0	54	0	332398592	42	4224
2026-01-12 04:59:14.35	0.37	16.24	-35.9	-37.2	16.9	0.00e+00	0	55	0	338690048	42	4184
2026-01-12 04:59:15.36	0.27	16.34	-35.8	-37.2	16.9	0.00e+00	0	55	0	346030080	42	4154
2026-01-12 04:59:16.37	0.16	16.44	-35.8	-37.1	17.0	0.00e+00	0	54	0	353370112	42	4130
2026-01-12 04:59:17.38	0.05	16.54	-35.8	-37.1	17.0	0.00e+00	0	55	0	360710144	42	4107
2026-01-12 04:59:18.39	359.94	16.64	-35.7	-37.0	17.1	0.00e+00	0	54	0	368050176	42	4096
2026-01-12 04:59:19.40	359.83	16.74	-35.8	-37.1	17.0	0.00e+00	0	55	0	375390208	42	4116
2026-01-12 04:59:20.40	359.72	16.84	-35.8	-37.1	17.0	0.00e+00	0	54	0	382730240	42	4139
2026-01-12 04:59:21.41	359.60	16.94	-35.8	-37.2	16.9	0.00e+00	0	55	0	390070272	41	4397
2026-01-12 04:59:22.42	359.49	17.04	-35.9	-37.2	16.9	0.00e+00	0	54	0	397410304	41	4425
2026-01-12 04:59:23.43	359.37	17.14	-35.8	-37.1	17.0	0.00e+00	0	54	0	404750336	41	4370
2026-01-12 04:59:24.44	359.26	17.24	-35.7	-37.0	17.1	0.00e+00	0	55	0	412090368	41	4315
2026-01-12 04:59:25.45	359.14	17.34	-35.7	-37.0	17.1	0.00e+00	0	55	0	419430400	41	4302
2026-01-12 04:59:26.46	359.03	17.45	-35.7	-37.0	17.1	0.00e+00	0	55	0	426770432	41	4338
2026-01-12 04:59:27.48	358.91	17.55	-35.6	-36.9	17.2	0.00e+00	0	55	0	434110464	41	4265
2026-01-12 04:59:28.49	358.79	17.65	-35.5	-36.8	17.3	0.00e+00	0	54	0	441450496	41	4213
2026-01-12 04:59:29.50	358.67	17.76	-35.7	-37.0	17.1	0.00e+00	0	55	0	448790528	41	4315
2026-01-12 04:59:30.51	358.55	17.86	-35.7	-37.1	17.0	0.00e+00	0	55	0	456130560	41	4348
2026-01-12 04:59:31.52	358.43	17.96	-35.4	-36.6	17.4	0.00e+00	0	55	0	462422016	41	4134
2026-01-12 04:59:32.53	358.31	18.07	-35.4	-36.6	17.3	0.00e+00	0	55	0	469762048	41	4145
2026-01-12 04:59:33.54	358.19	18.17	-35.5	-36.8	17.2	0.00e+00	0	55	0	478150656	41	4194
2026-01-12 04:59:34.55	358.06	18.28	-35.6	-36.9	17.0	0.00e+00	0	55	0	484442112	41	4266
2026-01-12 04:59:35.56	357.94	18.38	-35.7	-37.0	16.9	0.00e+00	0	55	0	491782144	41	4307
2026-01-12 04:59:36.57	357.81	18.49	-35.4	-36.7	17.0	0.00e+00	0	55	0	499122176	41	4176
2026-01-12 04:59:37.58	357.69	18.59	-35.3	-36.6	17.1	0.00e+00	0	55	0	506462208	41	4129
2026-01-12 04:59:38.59	357.56	18.70	-35.1	-36.4	17.3	0.00e+00	0	55	0	513802240	41	4027
2026-01-12 04:59:39.60	357.43	18.81	-35.0	-36.2	17.5	0.00e+00	0	55	0	521142272	40	4178
2026-01-12 04:59:40.61	357.30	18.91	-35.0	-36.2	17.4	0.00e+00	0	55	0	528482304	40	4179
2026-01-12 04:59:41.62	357.17	19.02	-34.9	-36.1	17.5	0.00e+00	0	55	0	535822336	40	4120
2026-01-12 04:59:42.62	357.04	19.13	-34.9	-36.1	17.5	0.00e+00	0	55	0	543162368	40	4131
2026-01-12 04:59:43.63	356.91	19.23	-34.8	-36.0	17.5	0.00e+00	0	55	0	550502400	40	4090
2026-01-12 04:59:44.64	356.78	19.34	-34.9	-36.1	17.4	0.00e+00	0	55	0	557842432	40	4144
2026-01-12 04:59:45.65	356.64	19.45	-35.2	-36.5	16.9	0.00e+00	0	55	0	565182464	40	4328
2026-01-12 04:59:46.66	356.51	19.56	-35.8	-37.2	16.1	0.00e+00	0	55	0	572522496	41	4422
2026-01-12 04:59:47.67	356.37	19.67	-36.3	-37.8	15.4	0.00e+00	0	55	0	579862528	42	4470
2026-01-12 04:59:48.68	356.24	19.78	-36.6	-38.3	14.8	0.00e+00	0	55	0	587202560	42	4715
2026-01-12 04:59:49.69	356.10	19.89	-36.9	-38.7	14.3	2.20e-06	0	55	0	594542592	43	4662
2026-01-12 04:59:50.70	355.96	20.00	-37.1	-39.0	13.9	4.50e-06	0	55	0	601882624	43	4822
2026-01-12 04:59:51.71	355.82	20.11	-37.1	-39.0	13.8	6.80e-06	0	55	0	609222656	43	4834
2026-01-12 04:59:52.71	355.68	20.21	-37.4	-39.3	13.7	1.02e-05	0	55	0	615514112	44	4726
2026-01-12 04:59:53.73	355.54	20.33	-37.3	-39.2	13.8	8.00e-06	0	55	0	622854144	44	4664
2026-01-12 04:59:54.74	355.40	20.44	-37.2	-39.0	14.1	4.50e-06	0	55	0	631242752	44	4572
2026-01-12 04:59:55.75	355.25	20.55	-36.8	-38.5	14.7	1.10e-06	0	55	0	637534208	44	4300
2026-01-12 04:59:56.76	355.11	20.66	-36.3	-37.8	15.3	0.00e+00	0	55	0	644874240	43	4222
2026-01-12 04:59:57.77	354.96	20.77	-35.8	-37.2	15.9	0.00e+00	0	55	0	652214272	42	4172
2026-01-12 04:59:58.78	354.81	20.88	-35.1	-36.4	16.7	0.00e+00	0	55	0	659554304	41	4051
2026-01-12 04:59:59.79	354.67	21.00	-34.7	-35.9	17.2	0.00e+00	0	55	0	666894336	40	4041
2026-01-12 05:00:00.79	354.52	21.11	-34.5	-35.8	17.4	0.00e+00	0	55	0	674234368	39	4203
2026-01-12 05:00:01.80	354.37	21.22	-34.4	-35.7	17.5	0.00e+00	0	55	0	681574400	39	4149
2026-01-12 05:00:02.81	354.22	21.33	-34.8	-36.1	17.1	0.00e+00	0	55	0	688914432	39	4361
2026-01-12 05:00:03.83	354.06	21.45	-34.3	-35.6	17.6	0.00e+00	0	55	0	696254464	39	4114
2026-01-12 05:00:04.84	353.91	21.56	-34.3	-35.5	17.7	0.00e+00	0	55	0	703594496	39	4061
2026-01-12 05:00:05.85	353.75	21.68	-34.2	-35.4	17.8	0.00e+00	0	55	0	710934528	39	4025
2026-01-12 05:00:06.86	353.60	21.79	-34.1	-35.3	17.9	0.00e+00	0	55	0	718274560	39	3978
2026-01-12 05:00:07.87	353.44	21.91	-34.1	-35.3	18.0	0.00e+00	0	55	0	725614592	38	4208
2026-01-12 05:00:08.88	353.28	22.02	-34.1	-35.2	18.1	0.00e+00	0	55	0	732954624	38	4188
2026-01-12 05:00:09.89	353.12	22.14	-33.9	-35.1	18.3	0.00e+00	0	55	0	740294656	38	4117
2026-01-12 05:00:10.90	352.96	22.25	-34.1	-35.2	18.2	0.00e+00	0	55	0	747634688	38	4187
2026-01-12 05:00:11.91	352.80	22.37	-34.4	-35.6	17.9	0.00e+00	0	55	0	754974720	38	4391
2026-01-12 05:00:12.92	352.63	22.48	-34.7	-36.0	17.6	0.00e+00	0	55	0	762314752	38	4558
2026-01-12 05:00:13.93	352.47	22.60	-34.7	-35.9	17.7	0.00e+00	0	55	0	768606208	39	4280
2026-01-12 05:00:14.94	352.30	22.72	-34.9	-36.2	17.5	0.00e+00	0	55	0	776994816	39	4400
2026-01-12 05:00:15.95	352.14	22.84	-35.0	-36.2	17.6	0.00e+00	0	55	0	783286272	39	4424
2026-01-12 05:00:16.95	351.97	22.95	-34.8	-36.0	17.8	0.00e+00	0	55	0	790626304	39	4321
2026-01-12 05:00:17.97	351.80	23.07	-34.7	-36.0	17.9	0.00e+00	0	55	0	797966336	39	4292
2026-01-12 05:00:18.98	351.63	23.19	-34.6	-35.8	18.2	0.00e+00	0	55	0	805306368	39	4224
2026-01-12 05:00:19.98	351.46	23.30	-34.9	-36.1	18.0	0.00e+00	0	55	0	812646400	39	4374
2026-01-12 05:00:20.99	351.28	23.42	-35.0	-36.2	18.0	0.00e+00	0	55	0	819986432	39	4436
2026-01-12 05:00:22.00	351.11	23.54	-34.8	-36.0	18.2	0.00e+00	0	55	0	827326464	39	4322
2026-01-12 05:00:23.01	350.93	23.66	-34.6	-35.7	18.6	0.00e+00	0	55	0	834666496	39	4173
2026-01-12 05:00:24.02	350.75	23.78	-34.6	-35.8	18.5	0.00e+00	0	55	0	842006528	39	4202
2026-01-12 05:00:25.03	350.57	23.90	-34.7	-35.9	18.5	0.00e+00	0	55	0	849346560	39	4248
2026-01-12 05:00:26.04	350.39	24.02	-34.6	-35.8	18.6	0.00e+00	0	55	0	856686592	39	4208
2026-01-12 05:00:27.05	350.21	24.14	-34.5	-35.6	18.7	0.00e+00	0	56	0	864026624	39	4139
2026-01-12 05:00:28.06	350.03	24.26	-34.5	-35.6	18.8	0.00e+00	0	55	0	871366656	39	4118
2026-01-12 05:00:29.07	349.84	24.38	-34.4	-35.5	18.9	0.00e+00	0	55	0	878706688	39	4082
2026-01-12 05:00:30.08	349.65	24.50	-34.4	-35.5	18.9	0.00e+00	0	55	0	886046720	39	4066
2026-01-12 05:00:31.09	349.47	24.62	-34.4	-35.5	19.0	0.00e+00	0	55	0	893386752	39	4061
2026-01-12 05:00:32.10	349.28	24.74	-34.3	-35.5	19.0	0.00e+00	0	55	0	900726784	39	4056
2026-01-12 05:00:33.11	349.09	24.86	-34.4	-35.5	19.0	0.00e+00	0	55	0	908066816	39	4069
2026-01-12 05:00:34.12	348.89	24.98	-34.7	-35.9	18.6	0.00e+00	0	55	0	914358272	39	4259
2026-01-12 05:00:35.13	348.70	25.10	-34.4	-35.5	19.0	0.00e+00	0	55	0	921698304	39	4063
2026-01-12 05:00:36.14	348.50	25.23	-34.3	-35.4	19.1	0.00e+00	0	55	0	930086912	39	4021
2026-01-12 05:00:37.15	348.31	25.35	-34.4	-35.5	19.0	0.00e+00	0	55	0	936378368	39	4056
2026-01-12 05:00:38.16	348.11	25.47	-34.4	-35.5	19.0	0.00e+00	0	55	0	943718400	39	4087
2026-01-12 05:00:39.17	347.91	25.59	-34.4	-35.5	19.0	0.00e+00	0	55	0	951058432	39	4094
2026-01-12 05:00:40.18	347.71	25.72	-34.5	-35.7	18.9	0.00e+00	0	55	0	958398464	39	4147
2026-01-12 05:00:41.19	347.50	25.84	-34.5	-35.7	18.9	0.00e+00	0	55	0	965738496	39	4148
2026-01-12 05:00:42.20	347.30	25.96	-34.5	-35.6	18.9	0.00e+00	0	55	0	973078528	39	4119
2026-01-12 05:00:43.21	347.09	26.08	-34.4	-35.6	19.0	0.00e+00	0	55	0	980418560	39	4101
2026-01-12 05:00:44.23	346.88	26.21	-34.5	-35.6	19.0	0.00e+00	0	55	0	987758592	39	4102
2026-01-12 05:00:45.24	346.67	26.33	-34.2	-35.3	19.3	0.00e+00	0	55	0	995098624	39	3983
2026-01-12 05:00:46.25	346.46	26.45	-34.4	-35.5	19.1	0.00e+00	0	55	0	1002438656	39	4074
2026-01-12 05:00:47.26	346.25	26.58	-34.5	-35.6	19.0	0.00e+00	0	55	0	1009778688	39	4101
2026-01-12 05:00:48.27	346.03	26.70	-34.4	-35.5	19.1	0.00e+00	0	55	0	1017118720	39	4092
2026-01-12 05:00:49.28	345.82	26.83	-34.5	-35.6	19.0	0.00e+00	0	56	0	1024458752	39	4116
2026-01-12 05:00:50.29	345.60	26.95	-34.5	-35.6	19.0	0.00e+00	0	55	0	1031798784	39	4134
2026-01-12 05:00:51.30	345.38	27.07	-34.5	-35.6	19.0	0.00e+00	0	55	0	1039138816	39	4144
2026-01-12 05:00:52.31	345.16	27.20	-34.5	-35.6	19.0	0.00e+00	0	56	0	1046478848	39	4132
2026-01-12 05:00:53.32	344.93	27.32	-34.6	-35.7	18.9	0.00e+00	0	55	0	1053818880	39	4187
2026-01-12 05:00:54.33	344.71	27.45	-34.7	-35.8	18.9	0.00e+00	0	56	0	1061158912	39	4214
2026-01-12 05:00:55.34	344.48	27.57	-34.7	-35.8	18.9	0.00e+00	0	55	0	1068498944	39	4217
2026-01-12 05:00:56.35	344.25	27.69	-34.5	-35.6	19.0	0.00e+00	0	55	0	1075838976	39	4118
2026-01-12 05:00:57.36	344.02	27.82	-34.4	-35.5	19.2	0.00e+00	0	56	0	1083179008	39	4076
2026-01-12 05:00:58.37	343.79	27.94	-34.4	-35.4	19.2	0.00e+00	0	55	0	1089470464	39	4051
2026-01-12 05:00:59.38	343.56	28.07	-34.4	-35.5	19.2	0.00e+00	0	55	0	1096810496	39	4080
2026-01-12 05:01:00.39	343.32	28.19	-34.4	-35.5	19.2	0.00e+00	0	55	0	1105199104	39	4084
2026-01-12 05:01:01.40	343.08	28.32	-34.4	-35.5	19.2	0.00e+00	0	55	0	1111490560	39	4054
2026-01-12 05:01:02.41	342.84	28.44	-34.3	-35.4	19.2	0.00e+00	0	55	0	1118830592	39	4038
2026-01-12 05:01:03.41	342.60	28.57	-34.4	-35.4	19.2	0.00e+00	0	55	0	1126170624	39	4050
2026-01-12 05:01:04.42	342.36	28.69	-34.3	-35.4	19.3	0.00e+00	0	55	0	1133510656	39	4040
2026-01-12 05:01:05.43	342.11	28.81	-34.3	-35.4	19.3	0.00e+00	0	56	0	1140850688	39	4028
2026-01-12 05:01:06.44	341.87	28.94	-34.5	-35.6	19.1	0.00e+00	0	55	0	1148190720	39	4107
2026-01-12 05:01:07.45	341.62	29.06	-34.4	-35.5	19.2	0.00e+00	0	55	0	1155530752	39	4082
2026-01-12 05:01:08.46	341.37	29.19	-34.3	-35.3	19.4	0.00e+00	0	56	0	1162870784	39	4000
2026-01-12 05:01:09.47	341.11	29.31	-34.2	-35.3	19.4	0.00e+00	0	55	0	1170210816	39	3987
2026-01-12 05:01:10.48	340.86	29.44	-34.2	-35.3	19.5	0.00e+00	0	56	0	1177550848	39	3978
2026-01-12 05:01:11.49	340.60	29.56	-34.2	-35.2	19.5	0.00e+00	0	55	0	1184890880	39	3943
2026-01-12 05:01:12.50	340.34	29.68	-34.1	-35.2	19.5	0.00e+00	0	56	0	1192230912	39	3939
2026-01-12 05:01:13.51	340.08	29.81	-34.2	-35.2	19.5	0.00e+00	0	55	0	1199570944	39	3954
2026-01-12 05:01:14.52	339.81	29.93	-34.2	-35.3	19.5	0.00e+00	0	56	0	1206910976	39	3961
2026-01-12 05:01:15.53	339.55	30.06	-34.1	-35.2	19.5	0.00e+00	0	55	0	1213202432	39	3938
2026-01-12 05:01:16.54	339.28	30.18	-34.0	-35.1	19.7	0.00e+00	0	56	0	1221591040	38	4116
2026-01-12 05:01:17.55	339.01	30.30	-33.9	-35.0	19.8	0.00e+00	0	56	0	1228931072	38	4058
2026-01-12 05:01:18.56	338.74	30.42	-33.9	-34.9	19.8	0.00e+00	0	56	0	1235222528	38	4043
2026-01-12 05:01:19.57	338.47	30.55	-33.9	-35.0	19.8	0.00e+00	0	55	0	1242562560	38	4065
2026-01-12 05:01:20.57	338.19	30.67	-33.9	-34.9	19.9	0.00e+00	0	56	0	1249902592	38	4029
2026-01-12 05:01:21.58	337.91	30.79	-33.9	-35.0	19.8	0.00e+00	0	56	0	1257242624	38	4052
2026-01-12 05:01:22.60	337.63	30.91	-33.9	-34.9	19.8	0.00e+00	0	55	0	1264582656	38	4048
2026-01-12 05:01:23.61	337.35	31.04	-34.0	-35.0	19.8	0.00e+00	0	56	0	1271922688	38	4080
2026-01-12 05:01:24.62	337.06	31.16	-33.9	-35.0	19.8	0.00e+00	0	56	0	1279262720	38	4056
2026-01-12 05:01:25.63	336.78	31.28	-34.0	-35.1	19.7	0.00e+00	0	56	0	1286602752	38	4103
2026-01-12 05:01:26.64	336.49	31.40	-34.1	-35.1	19.6	0.00e+00	0	56	0	1293942784	38	4137
2026-01-12 05:01:27.65	336.20	31.52	-33.9	-34.9	19.9	0.00e+00	0	56	0	1301282816	38	4043
2026-01-12 05:01:28.66	335.90	31.64	-33.9	-35.0	19.8	0.00e+00	0	56	0	1308622848	38	4056
2026-01-12 05:01:29.67	335.61	31.76	-33.8	-34.8	19.9	0.00e+00	0	56	0	1315962880	38	3992
2026-01-12 05:01:30.68	335.31	31.88	-33.8	-34.8	20.0	0.00e+00	0	56	0	1323302912	38	3980
2026-01-12 05:01:31.69	335.01	32.00	-33.9	-34.9	19.8	0.00e+00	0	56	0	1330642944	38	4041
2026-01-12 05:01:32.70	334.71	32.12	-33.7	-34.8	20.0	0.00e+00	0	56	0	1337982976	38	3959
2026-01-12 05:01:33.72	334.40	32.24	-33.8	-34.9	19.9	0.00e+00	0	55	0	1345323008	38	4008
2026-01-12 05:01:34.73	334.09	32.36	-33.9	-34.9	19.9	0.00e+00	0	55	0	1352663040	38	4019
2026-01-12 05:01:35.74	333.79	32.47	-33.8	-34.8	20.0	0.00e+00	0	56	0	1360003072	38	3981
2026-01-12 05:01:36.75	333.47	32.59	-33.7	-34.7	20.1	0.00e+00	0	56	0	1367343104	38	3940
2026-01-12 05:01:37.76	333.16	32.71	-33.6	-34.7	20.1	0.00e+00	0	56	0	1374683136	38	3917
2026-01-12 05:01:38.77	332.84	32.82	-33.7	-34.7	20.0	0.00e+00	0	56	0	1382023168	38	3953
2026-01-12 05:01:39.78	332.53	32.94	-33.8	-34.8	20.0	0.00e+00	0	56	0	1388314624	38	3985
2026-01-12 05:01:40.79	332.21	33.05	-33.8	-34.8	20.0	0.00e+00	0	56	0	1396703232	38	3990
2026-01-12 05:01:41.80	331.88	33.17	-33.9	-35.0	19.8	0.00e+00	0	55	0	1404043264	38	4067
2026-01-12 05:01:42.81	331.56	33.28	-33.9	-34.9	19.9	0.00e+00	0	56	0	1410334720	38	4024
2026-01-12 05:01:43.82	331.23	33.39	-33.9	-34.9	19.9	0.00e+00	0	56	0	1417674752	38	4039
2026-01-12 05:01:44.83	330.90	33.50	-33.9	-35.0	19.8	0.00e+00	0	56	0	1425014784	38	4061
2026-01-12 05:01:45.84	330.57	33.62	-33.8	-34.9	19.9	0.00e+00	0	56	0	1432354816	38	4022
2026-01-12 05:01:46.85	330.24	33.73	-33.8	-34.8	19.9	0.00e+00	0	56	0	1439694848	38	3989
2026-01-12 05:01:47.86	329.90	33.84	-33.7	-34.8	20.0	0.00e+00	0	55	0	1447034880	38	3969
2026-01-12 05:01:48.87	329.56	33.95	-33.7	-34.8	20.0	0.00e+00	0	56	0	1454374912	38	3961
2026-01-12 05:01:49.88	329.22	34.05	-33.8	-34.8	20.0	0.00e+00	0	55	0	1461714944	38	3978
2026-01-12 05:01:50.89	328.88	34.16	-33.8	-34.9	20.0	0.00e+00	0	56	0	1469054976	38	4006
2026-01-12 05:01:51.90	328.53	34.27	-33.8	-34.9	19.9	0.00e+00	0	56	0	1476395008	38	4014
2026-01-12 05:01:52.91	328.18	34.38	-33.8	-34.8	20.0	0.00e+00	0	56	0	1483735040	38	3992
2026-01-12 05:01:53.91	327.84	34.48	-33.6	-34.6	20.2	0.00e+00	0	56	0	1491075072	38	3893
2026-01-12 05:01:54.92	327.48	34.58	-33.5	-34.4	20.3	0.00e+00	0	56	0	1498415104	37	4049
2026-01-12 05:01:55.94	327.13	34.69	-33.4	-34.3	20.4	0.00e+00	0	55	0	1505755136	37	4000
2026-01-12 05:01:56.95	326.77	34.79	-33.4	-34.4	20.4	0.00e+00	0	56	0	1513095168	37	4014
2026-01-12 05:01:57.95	326.41	34.89	-33.5	-34.5	20.3	0.00e+00	0	56	0	1520435200	37	4061
2026-01-12 05:01:58.96	326.05	34.99	-33.6	-34.6	20.1	0.00e+00	0	56	0	1527775232	37	4145
2026-01-12 05:01:59.97	325.69	35.09	-33.8	-34.9	19.9	0.00e+00	0	56	0	1534066688	37	4249
2026-01-12 05:02:00.98	325.32	35.19	-34.0	-35.1	19.7	0.00e+00	0	56	0	1541406720	37	4344
2026-01-12 05:02:01.99	324.95	35.29	-34.0	-35.1	19.8	0.00e+00	0	56	0	1549795328	37	4343
2026-01-12 05:02:03.00	324.58	35.39	-33.9	-35.0	19.8	0.00e+00	0	56	0	1556086784	37	4304
2026-01-12 05:02:04.01	324.21	35.48	-34.0	-35.0	19.8	0.00e+00	0	56	0	1563426816	37	4313
2026-01-12 05:02:05.02	323.84	35.58	-33.8	-34.8	20.0	0.00e+00	0	56	0	1570766848	37	4231
2026-01-12 05:02:06.03	323.46	35.67	-33.7	-34.8	20.0	0.00e+00	0	56	0	1578106880	37	4197
2026-01-12 05:02:07.04	323.08	35.76	-33.6	-34.6	20.2	0.00e+00	0	56	0	1585446912	37	4114
2026-01-12 05:02:08.05	322.70	35.85	-33.6	-34.6	20.2	0.00e+00	0	56	0	1592786944	37	4107
2026-01-12 05:02:09.06	322.31	35.94	-33.7	-34.8	20.0	0.00e+00	0	56	0	1600126976	37	4199
2026-01-12 05:02:10.07	321.93	36.03	-33.9	-34.9	19.9	0.00e+00	0	56	0	1607467008	37	4261
2026-01-12 05:02:11.08	321.54	36.12	-34.0	-35.0	19.8	0.00e+00	0	56	0	1614807040	37	4310
2026-01-12 05:02:12.09	321.15	36.21	-34.0	-35.1	19.7	0.00e+00	0	56	0	1622147072	37	4355
2026-01-12 05:02:13.10	320.76	36.29	-34.0	-35.0	19.8	0.00e+00	0	56	0	1629487104	37	4339
2026-01-12 05:02:14.11	320.36	36.37	-33.9	-35.0	19.8	0.00e+00	0	56	0	1636827136	37	4293
2026-01-12 05:02:15.12	319.97	36.46	-34.0	-35.0	19.8	0.00e+00	0	56	0	1644167168	37	4313
2026-01-12 05:02:16.13	319.57	36.54	-33.9	-34.9	19.9	0.00e+00	0	55	0	1651507200	37	4277
2026-01-12 05:02:17.14	319.17	36.62	-33.9	-34.9	19.9	0.00e+00	0	56	0	1658847232	37	4282
2026-01-12 05:02:18.15	318.77	36.69	-33.9	-34.9	19.9	0.00e+00	0	56	0	1666187264	37	4263
2026-01-12 05:02:19.16	318.36	36.77	-33.8	-34.8	20.0	0.00e+00	0	56	0	1673527296	37	4220
2026-01-12 05:02:20.18	317.95	36.85	-33.8	-34.8	20.0	0.00e+00	0	56	0	1680867328	37	4227
2026-01-12 05:02:21.18	317.55	36.92	-33.8	-34.9	20.0	0.00e+00	0	56	0	1688207360	37	4243
2026-01-12 05:02:22.19	317.14	36.99	-33.9	-34.9	19.9	0.00e+00	0	56	0	1695547392	37	4255
2026-01-12 05:02:23.20	316.73	37.06	-33.9	-34.9	19.9	0.00e+00	0	56	0	1702887424	37	4262
2026-01-12 05:02:24.21	316.32	37.13	-34.0	-35.0	19.8	0.00e+00	0	56	0	1709178880	37	4312
2026-01-12 05:02:25.22	315.90	37.20	-34.1	-35.1	19.7	0.00e+00	0	56	0	1716518912	37	4391
2026-01-12 05:02:26.23	315.48	37.26	-34.2	-35.3	19.6	0.00e+00	0	56	0	1723858944	37	4454
2026-01-12 05:02:27.24	315.07	37.33	-34.2	-35.3	19.6	0.00e+00	0	56	0	1731198976	37	4456
2026-01-12 05:02:28.25	314.65	37.39	-34.2	-35.3	19.6	0.00e+00	0	56	0	1738539008	38	4195
2026-01-12 05:02:29.26	314.22	37.45	-34.1	-35.1	19.7	0.00e+00	0	56	0	1745879040	38	4133
2026-01-12 05:02:30.27	313.80	37.51	-34.1	-35.1	19.7	0.00e+00	0	56	0	1753219072	38	4136
2026-01-12 05:02:31.28	313.38	37.57	-34.0	-35.0	19.8	0.00e+00	0	56	0	1760559104	38	4093
2026-01-12 05:02:32.30	312.95	37.63	-33.8	-34.9	20.0	0.00e+00	0	56	0	1767899136	38	4008
2026-01-12 05:02:33.30	312.52	37.68	-33.7	-34.7	20.2	0.00e+00	0	56	0	1775239168	38	3919
2026-01-12 05:02:34.31	312.09	37.73	-33.7	-34.7	20.0	0.00e+00	0	56	0	1782579200	37	4188
2026-01-12 05:02:35.33	311.66	37.78	-33.5	-34.5	20.3	0.00e+00	0	56	0	1789919232	37	4061
2026-01-12 05:02:36.33	311.23	37.83	-33.6	-34.6	20.3	0.00e+00	0	56	0	1797259264	37	4102
2026-01-12 05:02:37.34	310.80	37.88	-33.6	-34.6	20.2	0.00e+00	0	56	0	1804599296	37	4137
2026-01-12 05:02:38.35	310.36	37.92	-33.8	-34.8	20.1	0.00e+00	0	56	0	1811939328	37	4209
2026-01-12 05:02:39.36	309.93	37.97	-33.8	-34.8	20.0	0.00e+00	0	56	0	1819279360	37	4225
2026-01-12 05:02:40.37	309.49	38.01	-34.0	-35.0	19.8	0.00e+00	0	56	0	1826619392	37	4337
2026-01-12 05:02:41.38	309.05	38.05	-34.0	-35.0	19.8	0.00e+00	0	56	0	1832910848	37	4337
2026-01-12 05:02:42.39	308.61	38.09	-34.1	-35.1	19.7	0.00e+00	0	56	0	1841299456	37	4374
2026-01-12 05:02:43.40	308.17	38.12	-34.1	-35.1	19.7	0.00e+00	0	56	0	1848639488	37	4391
2026-01-12 05:02:44.41	307.73	38.16	-34.2	-35.2	19.6	0.00e+00	0	56	0	1854930944	38	4186
2026-01-12 05:02:45.42	307.29	38.19	-34.2	-35.2	19.6	0.00e+00	0	56	0	1862270976	38	4187
2026-01-12 05:02:46.43	306.85	38.22	-34.0	-35.1	19.8	0.00e+00	0	56	0	1869611008	38	4108
2026-01-12 05:02:47.44	306.40	38.25	-34.2	-35.2	19.6	0.00e+00	0	56	0	1876951040	38	4183
2026-01-12 05:02:48.45	305.96	38.28	-34.2	-35.2	19.6	0.00e+00	0	56	0	1884291072	38	4177
2026-01-12 05:02:49.46	305.51	38.30	-34.1	-35.2	19.7	0.00e+00	0	56	0	1891631104	38	4153
2026-01-12 05:02:50.47	305.07	38.32	-34.0	-35.1	19.8	0.00e+00	0	56	0	1898971136	38	4104
2026-01-12 05:02:51.48	304.62	38.34	-33.9	-34.9	19.9	0.00e+00	0	56	0	1906311168	38	4038
2026-01-12 05:02:52.49	304.18	38.36	-33.9	-34.9	19.9	0.00e+00	0	56	0	1913651200	38	4039
2026-01-12 05:02:53.50	303.73	38.38	-33.8	-34.8	20.0	0.00e+00	0	56	0	1920991232	38	4001
2026-01-12 05:02:54.51	303.28	38.40	-33.9	-34.9	19.9	0.00e+00	0	56	0	1928331264	38	4017
2026-01-12 05:02:55.52	302.83	38.41	-33.9	-35.0	19.9	0.00e+00	0	56	0	1935671296	38	4054
2026-01-12 05:02:56.53	302.38	38.42	-34.0	-35.0	19.8	0.00e+00	0	56	0	1943011328	38	4090
2026-01-12 05:02:57.54	301.93	38.43	-33.9	-34.9	19.9	0.00e+00	0	56	0	1950351360	38	4035
2026-01-12 05:02:58.55	301.49	38.43	-33.7	-34.7	20.1	0.00e+00	0	56	0	1957691392	38	3927
2026-01-12 05:02:59.56	301.04	38.44	-33.7	-34.8	20.1	0.00e+00	0	56	0	1965031424	38	3965
2026-01-12 05:03:00.57	300.59	38.44	-33.8	-34.9	20.0	0.00e+00	0	56	0	1972371456	38	4020
2026-01-12 05:03:01.58	300.14	38.44	-33.9	-35.0	19.9	0.00e+00	0	56	0	1979711488	38	4067
2026-01-12 05:03:02.59	299.69	38.44	-34.0	-35.1	19.8	0.00e+00	0	56	0	1987051520	38	4101
2026-01-12 05:03:03.60	299.24	38.44	-34.1	-35.1	19.7	0.00e+00	0	56	0	1994391552	38	4128
2026-01-12 05:03:04.61	298.79	38.43	-34.0	-35.0	19.8	0.00e+00	0	56	0	2001731584	38	4089
2026-01-12 05:03:05.62	298.34	38.43	-34.0	-35.0	19.8	0.00e+00	0	56	0	2008023040	38	4083
2026-01-12 05:03:06.63	297.89	38.42	-33.8	-34.8	20.0	0.00e+00	0	56	0	2015363072	38	3973
2026-01-12 05:03:07.64	297.44	38.41	-33.7	-34.7	20.1	0.00e+00	0	56	0	2023751680	38	3946
2026-01-12 05:03:08.65	296.99	38.39	-33.7	-34.7	20.1	0.00e+00	0	56	0	2030043136	38	3924
2026-01-12 05:03:09.66	296.55	38.38	-33.7	-34.8	20.1	0.00e+00	0	56	0	2037383168	38	3964
2026-01-12 05:03:10.67	296.10	38.36	-33.8	-34.8	20.1	0.00e+00	0	56	0	2044723200	38	3968
2026-01-12 05:03:11.68	295.65	38.34	-33.8	-34.8	20.0	0.00e+00	0	56	0	2052063232	38	3979
2026-01-12 05:03:12.69	295.21	38.32	-33.7	-34.8	20.1	0.00e+00	0	56	0	2059403264	38	3961
2026-01-12 05:03:13.70	294.76	38.30	-33.5	-34.5	20.3	0.00e+00	0	56	0	2066743296	38	3866
2026-01-12 05:03:14.71	294.31	38.27	-33.5	-34.5	20.3	0.00e+00	0	56	0	2074083328	37	4085
2026-01-12 05:03:15.72	293.87	38.25	-33.6	-34.6	20.2	0.00e+00	0	56	0	2081423360	37	4140
2026-01-12 05:03:16.73	293.43	38.22	-33.8	-34.8	20.0	0.00e+00	0	56	0	2088763392	37	4215
2026-01-12 05:03:17.74	292.98	38.19	-33.7	-34.7	20.1	0.00e+00	0	56	0	2096103424	37	4186
2026-01-12 05:03:18.76	292.54	38.15	-33.6	-34.6	20.2	0.00e+00	0	56	0	2103443456	37	4140
2026-01-12 05:03:19.76	292.10	38.12	-33.5	-34.5	20.3	0.00e+00	0	56	0	2110783488	37	4093
2026-01-12 05:03:20.77	291.66	38.08	-33.5	-34.5	20.3	0.00e+00	0	56	0	2118123520	37	4079
2026-01-12 05:03:21.78	291.22	38.04	-33.5	-34.5	20.3	0.00e+00	0	56	0	2125463552	37	4075
2026-01-12 05:03:22.79	290.78	38.00	-33.5	-34.5	20.3	0.00e+00	0	56	0	2132803584	37	4077
2026-01-12 05:03:23.80	290.34	37.96	-33.6	-34.6	20.3	0.00e+00	0	56	0	2140143616	37	4106
2026-01-12 05:03:24.81	289.91	37.92	-33.7	-34.7	20.2	0.00e+00	0	56	0	2147483648	37	4150
2026-01-12 05:03:25.82	289.47	37.87	-33.7	-34.7	20.1	0.00e+00	0	56	0	2153775104	37	4166
2026-01-12 05:03:26.83	289.04	37.82	-33.7	-34.7	20.1	0.00e+00	0	56	0	2161115136	37	4176
2026-01-12 05:03:27.84	288.61	37.77	-33.8	-34.8	20.0	0.00e+00	0	56	0	2169503744	37	4236
2026-01-12 05:03:28.85	288.18	37.72	-33.8	-34.8	20.0	0.00e+00	0	56	0	2175795200	37	4235
2026-01-12 05:03:29.86	287.75	37.67	-33.9	-34.9	19.9	0.00e+00	0	56	0	2183135232	37	4259
2026-01-12 05:03:30.87	287.32	37.62	-33.8	-34.8	20.0	0.00e+00	0	56	0	2190475264	37	4234
2026-01-12 05:03:31.88	286.89	37.56	-33.8	-34.8	20.0	0.00e+00	0	56	0	2197815296	37	4204
2026-01-12 05:03:32.89	286.47	37.50	-33.8	-34.8	20.0	0.00e+00	0	56	0	2205155328	37	4234
2026-01-12 05:03:33.90	286.04	37.44	-33.9	-34.9	19.9	0.00e+00	0	56	0	2212495360	37	4272
2026-01-12 05:03:34.91	285.62	37.38	-33.8	-34.9	20.0	0.00e+00	0	56	0	2219835392	37	4251
2026-01-12 05:03:35.92	285.20	37.32	-33.8	-34.8	20.0	0.00e+00	0	56	0	2227175424	37	4225
2026-01-12 05:03:36.93	284.78	37.25	-33.6	-34.6	20.2	0.00e+00	0	56	0	2234515456	37	4118
2026-01-12 05:03:37.94	284.36	37.19	-33.6	-34.7	20.2	0.00e+00	0	56	0	2241855488	37	4149
2026-01-12 05:03:38.95	283.95	37.12	-33.6	-34.6	20.2	0.00e+00	0	56	0	2249195520	37	4120
2026-01-12 05:03:39.96	283.54	37.05	-33.6	-34.6	20.2	0.00e+00	0	56	0	2256535552	37	4109
2026-01-12 05:03:40.97	283.12	36.98	-33.6	-34.6	20.2	0.00e+00	0	56	0	2263875584	37	4111
2026-01-12 05:03:41.98	282.71	36.90	-33.7	-34.7	20.2	0.00e+00	0	56	0	2271215616	37	4160
2026-01-12 05:03:42.99	282.30	36.83	-33.8	-34.8	20.0	0.00e+00	0	56	0	2278555648	37	4232
2026-01-12 05:03:44.00	281.90	36.75	-33.8	-34.8	20.0	0.00e+00	0	56	0	2285895680	37	4230
2026-01-12 05:03:45.01	281.49	36.68	-33.8	-34.8	20.0	0.00e+00	0	56	0	2293235712	37	4216
2026-01-12 05:03:46.02	281.09	36.60	-33.6	-34.7	20.2	0.00e+00	0	56	0	2300575744	37	4149
2026-01-12 05:03:47.03	280.69	36.52	-33.6	-34.6	20.2	0.00e+00	0	56	0	2306867200	37	4109
2026-01-12 05:03:48.04	280.29	36.44	-33.5	-34.4	20.3	0.00e+00	0	56	0	2315255808	37	4051
2026-01-12 05:03:49.05	279.90	36.36	-33.5	-34.5	20.3	0.00e+00	0	56	0	2322595840	37	4066
2026-01-12 05:03:50.06	279.50	36.27	-33.6	-34.6	20.2	0.00e+00	0	56	0	2328887296	37	4129
2026-01-12 05:03:51.07	279.11	36.19	-33.8	-34.8	20.0	0.00e+00	0	56	0	2336227328	37	4233
2026-01-12 05:03:52.08	278.72	36.10	-33.8	-34.9	19.9	0.00e+00	0	56	0	2343567360	37	4251
2026-01-12 05:03:53.09	278.33	36.01	-33.8	-34.8	20.0	0.00e+00	0	56	0	2350907392	37	4227
2026-01-12 05:03:54.10	277.94	35.92	-33.6	-34.6	20.2	0.00e+00	0	56	0	2358247424	37	4127
2026-01-12 05:03:55.11	277.56	35.83	-33.6	-34.6	20.2	0.00e+00	0	56	0	2365587456	37	4116
2026-01-12 05:03:56.12	277.18	35.74	-33.6	-34.6	20.2	0.00e+00	0	56	0	2372927488	37	4141
2026-01-12 05:03:57.13	276.80	35.65	-33.7	-34.7	20.1	0.00e+00	0	56	0	2380267520	37	4181
2026-01-12 05:03:58.14	276.42	35.55	-33.9	-34.9	19.9	0.00e+00	0	56	0	2387607552	37	4271
2026-01-12 05:03:59.15	276.04	35.46	-33.8	-34.8	20.0	0.00e+00	0	56	0	2394947584	37	4228
2026-01-12 05:04:00.16	275.67	35.36	-33.8	-34.8	20.0	0.00e+00	0	56	0	2402287616	37	4222
2026-01-12 05:04:01.17	275.30	35.27	-33.6	-34.6	20.2	0.00e+00	0	56	0	2409627648	37	4103
2026-01-12 05:04:02.18	274.93	35.17	-33.4	-34.4	20.4	0.00e+00	0	56	0	2416967680	37	4039
2026-01-12 05:04:03.19	274.56	35.07	-33.3	-34.3	20.5	0.00e+00	0	56	0	2424307712	37	3966
2026-01-12 05:04:04.20	274.20	34.97	-33.3	-34.3	20.5	0.00e+00	0	56	0	2431647744	37	3962
2026-01-12 05:04:05.21	273.84	34.87	-33.3	-34.3	20.5	0.00e+00	0	56	0	2438987776	37	4000
2026-01-12 05:04:06.21	273.48	34.77	-33.4	-34.4	20.4	0.00e+00	0	56	0	2446327808	37	4029
2026-01-12 05:04:07.22	273.12	34.66	-33.5	-34.5	20.3	0.00e+00	0	56	0	2452619264	37	4063
2026-01-12 05:04:08.23	272.77	34.56	-33.5	-34.5	20.3	0.00e+00	0	56	0	2459959296	37	4053
2026-01-12 05:04:09.24	272.41	34.45	-33.5	-34.5	20.3	0.00e+00	0	56	0	2468347904	37	4076
2026-01-12 05:04:10.25	272.06	34.35	-33.4	-34.4	20.4	0.00e+00	0	56	0	2474639360	37	4036
2026-01-12 05:04:11.26	271.71	34.24	-33.3	-34.3	20.5	0.00e+00	0	56	0	2481979392	37	3969
2026-01-12 05:04:12.27	271.37	34.13	-33.2	-34.1	20.6	0.00e+00	0	56	0	2489319424	37	3910
2026-01-12 05:04:13.28	271.02	34.02	-33.2	-34.2	20.6	0.00e+00	0	56	0	2496659456	37	3915
2026-01-12 05:04:14.29	270.68	33.92	-33.3	-34.2	20.5	0.00e+00	0	56	0	2503999488	37	3955
2026-01-12 05:04:15.30	270.34	33.81	-33.3	-34.3	20.4	0.00e+00	0	56	0	2511339520	37	3998
2026-01-12 05:04:16.31	270.00	33.69	-33.4	-34.4	20.4	0.00e+00	0	56	0	2518679552	37	4025
2026-01-12 05:04:17.32	269.67	33.58	-33.4	-34.4	20.4	0.00e+00	0	56	0	2526019584	37	4013
2026-01-12 05:04:18.33	269.34	33.47	-33.4	-34.3	20.4	0.00e+00	0	56	0	2533359616	37	4001
2026-01-12 05:04:19.34	269.01	33.36	-33.3	-34.2	20.5	0.00e+00	0	56	0	2540699648	37	3955
2026-01-12 05:04:20.35	268.68	33.24	-33.2	-34.1	20.6	0.00e+00	0	56	0	2548039680	37	3903
2026-01-12 05:04:21.36	268.35	33.13	-33.1	-34.1	20.7	0.00e+00	0	56	0	2555379712	37	3875
2026-01-12 05:04:22.38	268.03	33.01	-33.0	-34.0	20.8	0.00e+00	0	56	0	2562719744	37	3826
2026-01-12 05:04:23.39	267.70	32.90	-33.0	-34.0	20.8	0.00e+00	0	56	0	2570059776	37	3826
2026-01-12 05:04:24.40	267.39	32.78	-33.1	-34.1	20.6	0.00e+00	0	56	0	2577399808	36	4118
2026-01-12 05:04:25.41	267.07	32.67	-33.2	-34.2	20.6	0.00e+00	0	56	0	2584739840	36	4167
2026-01-12 05:04:26.42	266.76	32.55	-33.4	-34.4	20.4	0.00e+00	0	56	0	2592079872	36	4247
2026-01-12 05:04:27.43	266.44	32.43	-33.4	-34.4	20.3	0.00e+00	0	56	0	2599419904	36	4264
2026-01-12 05:04:28.44	266.13	32.32	-33.5	-34.5	20.3	0.00e+00	0	56	0	2606759936	36	4336
2026-01-12 05:04:29.45	265.83	32.20	-33.6	-34.6	20.1	0.00e+00	0	56	0	2614099968	36	4367
2026-01-12 05:04:30.46	265.52	32.08	-33.8	-34.8	20.0	0.00e+00	0	56	0	2621440000	37	4238
2026-01-12 05:04:31.47	265.22	31.96	-33.9	-34.9	19.9	0.00e+00	0	56	0	2627731456	37	4281
2026-01-12 05:04:32.48	264.92	31.84	-33.8	-34.9	19.9	0.00e+00	0	56	0	2635071488	37	4256
2026-01-12 05:04:33.49	264.62	31.72	-33.7	-34.8	20.0	0.00e+00	0	56	0	2643460096	37	4203
2026-01-12 05:04:34.50	264.32	31.60	-33.6	-34.6	20.0	0.00e+00	0	56	0	2649751552	37	4119
2026-01-12 05:04:35.51	264.03	31.48	-33.6	-34.6	20.2	0.00e+00	0	56	0	2657091584	37	4121
2026-01-12 05:04:36.52	263.74	31.36	-33.5	-34.5	20.2	0.00e+00	0	56	0	2664431616	37	4089
2026-01-12 05:04:37.53	263.45	31.23	-33.5	-34.5	20.2	0.00e+00	0	56	0	2671771648	37	4086
2026-01-12 05:04:38.54	263.16	31.11	-33.6	-34.6	20.2	0.00e+00	0	56	0	2679111680	37	4111
2026-01-12 05:04:39.55	262.87	30.99	-33.6	-34.7	20.1	0.00e+00	0	56	0	2686451712	37	4155
2026-01-12 05:04:40.56	262.59	30.87	-33.5	-34.6	20.2	0.00e+00	0	56	0	2693791744	37	4103
2026-01-12 05:04:41.57	262.31	30.75	-33.5	-34.5	20.2	0.00e+00	0	56	0	2701131776	37	4095
2026-01-12 05:04:42.58	262.03	30.62	-33.6	-34.6	20.2	0.00e+00	0	56	0	2708471808	37	4117
2026-01-12 05:04:43.59	261.75	30.50	-33.8	-34.8	20.0	0.00e+00	0	56	0	2715811840	37	4206
2026-01-12 05:04:44.60	261.48	30.38	-33.9	-34.9	19.8	0.00e+00	0	56	0	2723151872	37	4265
2026-01-12 05:04:45.61	261.21	30.25	-34.0	-35.1	19.7	0.00e+00	0	56	0	2730491904	37	4359
2026-01-12 05:04:46.62	260.94	30.13	-34.1	-35.2	19.6	0.00e+00	0	56	0	2737831936	37	4409
2026-01-12 05:04:47.63	260.67	30.00	-34.1	-35.1	19.7	0.00e+00	0	56	0	2745171968	37	4377
2026-01-12 05:04:48.64	260.40	29.88	-34.0	-35.1	19.7	0.00e+00	0	56	0	2752512000	37	4353
2026-01-12 05:04:49.65	260.14	29.76	-34.1	-35.1	19.6	0.00e+00	0	56	0	2759852032	37	4387
2026-01-12 05:04:50.66	259.87	29.63	-34.0	-35.0	19.7	0.00e+00	0	56	0	2767192064	37	4340
2026-01-12 05:04:51.67	259.61	29.51	-33.8	-34.8	19.9	0.00e+00	0	56	0	2773483520	37	4239
2026-01-12 05:04:52.68	259.36	29.38	-33.7	-34.7	20.0	0.00e+00	0	56	0	2781872128	37	4193
2026-01-12 05:04:53.69	259.10	29.26	-33.7	-34.8	20.0	0.00e+00	0	56	0	2789212160	37	4207
2026-01-12 05:04:54.70	258.85	29.13	-33.8	-34.8	19.9	0.00e+00	0	56	0	2795503616	37	4214
2026-01-12 05:04:55.71	258.59	29.01	-33.9	-35.0	19.8	0.00e+00	0	56	0	2802843648	37	4309
2026-01-12 05:04:56.72	258.34	28.88	-34.0	-35.1	19.7	0.00e+00	0	56	0	2810183680	37	4348
2026-01-12 05:04:57.73	258.09	28.76	-34.1	-35.1	19.7	0.00e+00	0	56	0	2817523712	37	4372
2026-01-12 05:04:58.74	257.85	28.63	-34.1	-35.2	19.6	0.00e+00	0	56	0	2824863744	37	4406
2026-01-12 05:04:59.75	257.60	28.51	-34.1	-35.1	19.6	0.00e+00	0	56	0	2832203776	37	4383
2026-01-12 05:05:00.76	257.36	28.38	-34.2	-35.2	19.5	0.00e+00	0	56	0	2839543808	37	4424
2026-01-12 05:05:01.77	257.12	28.26	-34.2	-35.2	19.6	0.00e+00	0	56	0	2846883840	38	4182
2026-01-12 05:05:02.78	256.88	28.13	-34.2	-35.3	19.5	0.00e+00	0	56	0	2854223872	38	4202
2026-01-12 05:05:03.79	256.64	28.01	-34.4	-35.4	19.3	0.00e+00	0	56	0	2861563904	38	4290
2026-01-12 05:05:04.80	256.41	27.88	-34.5	-35.6	19.2	0.00e+00	0	56	0	2868903936	38	4353
2026-01-12 05:05:05.81	256.18	27.76	-34.3	-35.4	19.3	0.00e+00	0	56	0	2876243968	38	4256
2026-01-12 05:05:06.82	255.95	27.63	-34.2	-35.2	19.6	0.00e+00	0	56	0	2883584000	38	4186
2026-01-12 05:05:07.83	255.72	27.51	-34.1	-35.2	19.6	0.00e+00	0	56	0	2890924032	38	4159
2026-01-12 05:05:08.84	255.49	27.38	-34.1	-35.1	19.6	0.00e+00	0	56	0	2898264064	38	4133
2026-01-12 05:05:09.85	255.26	27.26	-34.0	-35.1	19.7	0.00e+00	0	56	0	2905604096	38	4121
2026-01-12 05:05:10.86	255.04	27.13	-34.0	-35.1	19.7	0.00e+00	0	56	0	2912944128	38	4104
2026-01-12 05:05:11.87	254.82	27.01	-34.0	-35.1	19.7	0.00e+00	0	56	0	2920284160	38	4117
2026-01-12 05:05:12.88	254.59	26.88	-34.1	-35.1	19.7	0.00e+00	0	56	0	2926575616	38	4128
2026-01-12 05:05:13.89	254.38	26.76	-34.0	-35.0	19.7	0.00e+00	0	56	0	2934964224	38	4086
2026-01-12 05:05:14.90	254.16	26.63	-33.9	-35.0	19.8	0.00e+00	0	56	0	2942304256	38	4062
2026-01-12 05:05:15.91	253.94	26.51	-33.9	-34.9	19.8	0.00e+00	0	56	0	2948595712	38	4040
2026-01-12 05:05:16.92	253.73	26.38	-33.9	-35.0	19.8	0.00e+00	0	56	0	2955935744	38	4062
2026-01-12 05:05:17.93	253.52	26.26	-33.9	-34.9	19.8	0.00e+00	0	56	0	2963275776	38	4018
2026-01-12 05:05:18.94	253.31	26.14	-33.9	-35.0	19.8	0.00e+00	0	56	0	2970615808	38	4064
2026-01-12 05:05:19.95	253.10	26.01	-34.0	-35.1	19.7	0.00e+00	0	56	0	2977955840	38	4120
2026-01-12 05:05:20.96	252.89	25.89	-34.0	-35.1	19.7	0.00e+00	0	56	0	2985295872	38	4109
2026-01-12 05:05:21.97	252.68	25.77	-34.1	-35.1	19.6	0.00e+00	0	56	0	2992635904	38	4133
2026-01-12 05:05:22.98	252.48	25.64	-34.1	-35.2	19.6	0.00e+00	0	56	0	2999975936	38	4165
2026-01-12 05:05:23.99	252.28	25.52	-34.2	-35.2	19.5	0.00e+00	0	56	0	3007315968	38	4182
2026-01-12 05:05:25.00	252.08	25.40	-34.2	-35.2	19.5	0.00e+00	0	56	0	3014656000	38	4182
2026-01-12 05:05:26.01	251.88	25.27	-34.2	-35.2	19.5	0.00e+00	0	56	0	3021996032	38	4188
2026-01-12 05:05:27.02	251.68	25.15	-34.3	-35.3	19.4	0.00e+00	0	56	0	3029336064	38	4234
2026-01-12 05:05:28.03	251.48	25.03	-34.3	-35.4	19.4	0.00e+00	0	56	0	3036676096	38	4259
2026-01-12 05:05:29.04	251.29	24.91	-34.4	-35.4	19.3	0.00e+00	0	56	0	3044016128	38	4291
2026-01-12 05:05:30.04	251.10	24.79	-34.4	-35.5	19.2	0.00e+00	0	56	0	3051356160	38	4318
2026-01-12 05:05:31.05	250.91	24.66	-34.3	-35.4	19.4	0.00e+00	0	56	0	3058696192	38	4246
2026-01-12 05:05:32.06	250.72	24.54	-34.2	-35.3	19.4	0.00e+00	0	56	0	3066036224	38	4213
2026-01-12 05:05:33.07	250.53	24.42	-34.2	-35.3	19.4	0.00e+00	0	56	0	3072327680	38	4222
2026-01-12 05:05:34.08	250.34	24.30	-34.2	-35.3	19.4	0.00e+00	0	56	0	3080716288	38	4223
2026-01-12 05:05:35.09	250.15	24.18	-34.3	-35.3	19.4	0.00e+00	0	56	0	3088056320	38	4226
2026-01-12 05:05:36.10	249.97	24.06	-34.2	-35.2	19.4	0.00e+00	0	56	0	3094347776	38	4183
2026-01-12 05:05:37.12	249.79	23.94	-34.1	-35.1	19.6	0.00e+00	0	56	0	3101687808	38	4122
2026-01-12 05:05:38.13	249.60	23.82	-34.0	-35.0	19.7	0.00e+00	0	56	0	3109027840	38	4097
2026-01-12 05:05:39.14	249.42	23.70	-34.0	-35.1	19.6	0.00e+00	0	56	0	3116367872	38	4106
2026-01-12 05:05:40.15	249.25	23.58	-34.0	-35.1	19.6	0.00e+00	0	56	0	3123707904	38	4119
2026-01-12 05:05:41.16	249.07	23.46	-34.1	-35.2	19.5	0.00e+00	0	56	0	3131047936	38	4166
2026-01-12 05:05:42.17	248.89	23.34	-34.2	-35.3	19.4	0.00e+00	0	56	0	3138387968	38	4219
2026-01-12 05:05:43.18	248.72	23.22	-34.4	-35.5	19.3	0.00e+00	0	56	0	3145728000	38	4303
2026-01-12 05:05:44.19	248.54	23.10	-34.6	-35.7	19.1	0.00e+00	0	56	0	3153068032	38	4401
2026-01-12 05:05:45.20	248.37	22.98	-34.5	-35.6	19.1	0.00e+00	0	56	0	3160408064	38	4361
2026-01-12 05:05:46.21	248.20	22.87	-34.6	-35.7	19.1	0.00e+00	0	56	0	3167748096	38	4402
2026-01-12 05:05:47.22	248.03	22.75	-34.5	-35.6	19.1	0.00e+00	0	56	0	3175088128	38	4378
2026-01-12 05:05:48.23	247.86	22.63	-34.5	-35.6	19.1	0.00e+00	0	56	0	3182428160	38	4381
2026-01-12 05:05:49.24	247.70	22.51	-34.5	-35.6	19.1	0.00e+00	0	56	0	3189768192	38	4382
2026-01-12 05:05:50.25	247.53	22.40	-34.5	-35.6	19.1	0.00e+00	0	56	0	3197108224	38	4369
2026-01-12 05:05:51.26	247.37	22.28	-34.4	-35.5	19.2	0.00e+00	0	56	0	3204448256	38	4332
2026-01-12 05:05:52.27	247.20	22.16	-34.4	-35.5	19.2	0.00e+00	0	56	0	3211788288	38	4314
2026-01-12 05:05:53.28	247.04	22.05	-34.5	-35.6	19.1	0.00e+00	0	56	0	3219128320	38	4372
2026-01-12 05:05:54.29	246.88	21.93	-34.7	-35.8	19.0	0.00e+00	0	56	0	3226468352	38	4450
2026-01-12 05:05:55.30	246.72	21.82	-34.8	-35.9	18.8	0.00e+00	0	56	0	3233808384	39	4283
2026-01-12 05:05:56.31	246.56	21.70	-34.9	-36.0	18.7	0.00e+00	0	56	0	3241148416	39	4317
2026-01-12 05:05:57.32	246.41	21.59	-34.9	-36.1	18.5	0.00e+00	0	56	0	3247439872	39	4347
2026-01-12 05:05:58.33	246.25	21.47	-35.0	-36.2	18.5	0.00e+00	0	56	0	3254779904	39	4409
2026-01-12 05:05:59.34	246.10	21.36	-34.8	-35.9	18.7	0.00e+00	0	56	0	3263168512	39	4283
2026-01-12 05:06:00.35	245.94	21.24	-34.7	-35.8	18.8	0.00e+00	0	56	0	3269459968	39	4235
2026-01-12 05:06:01.36	245.79	21.13	-34.7	-35.8	18.9	0.00e+00	0	56	0	3276800000	39	4209
2026-01-12 05:06:02.37	245.64	21.01	-34.6	-35.7	19.0	0.00e+00	0	56	0	3284140032	39	4165
2026-01-12 05:06:03.38	245.49	20.90	-34.6	-35.7	18.9	0.00e+00	0	56	0	3291480064	39	4182
2026-01-12 05:06:04.39	245.34	20.79	-34.5	-35.6	19.0	0.00e+00	0	56	0	3298820096	39	4128
2026-01-12 05:06:05.40	245.19	20.68	-34.6	-35.7	19.0	0.00e+00	0	56	0	3306160128	39	4146
2026-01-12 05:06:06.41	245.05	20.56	-34.6	-35.7	19.0	0.00e+00	0	56	0	3313500160	39	4160
2026-01-12 05:06:07.42	244.90	20.45	-34.7	-35.8	18.8	0.00e+00	0	56	0	3320840192	39	4222
2026-01-12 05:06:08.43	244.76	20.34	-34.9	-36.0	18.6	0.00e+00	0	56	0	3328180224	39	4311
2026-01-12 05:06:09.44	244.61	20.23	-35.0	-36.1	18.6	0.00e+00	0	56	0	3335520256	39	4368
2026-01-12 05:06:10.45	244.47	20.12	-35.1	-36.2	18.4	0.00e+00	0	56	0	3342860288	39	4441
2026-01-12 05:06:11.46	244.33	20.01	-35.1	-36.3	18.4	0.00e+00	0	56	0	3350200320	39	4462
2026-01-12 05:06:12.48	244.19	19.90	-35.0	-36.1	18.5	0.00e+00	0	56	0	3357540352	39	4391
2026-01-12 05:06:13.49	244.05	19.78	-35.0	-36.2	18.5	0.00e+00	0	56	0	3364880384	39	4413
2026-01-12 05:06:14.50	243.91	19.68	-35.1	-36.2	18.4	0.00e+00	0	56	0	3372220416	39	4430
2026-01-12 05:06:15.51	243.77	19.57	-35.2	-36.4	18.3	0.00e+00	0	56	0	3379560448	39	4499
2026-01-12 05:06:16.52	243.64	19.46	-35.2	-36.4	18.2	0.00e+00	0	56	0	3386900480	40	4254
2026-01-12 05:06:17.53	243.50	19.35	-35.2	-36.4	18.2	0.00e+00	0	56	0	3393191936	40	4268
2026-01-12 05:06:18.54	243.37	19.24	-35.2	-36.4	18.2	0.00e+00	0	56	0	3401580544	40	4282
2026-01-12 05:06:19.55	243.23	19.13	-35.2	-36.4	18.1	0.00e+00	0	56	0	3408920576	40	4276
2026-01-12 05:06:20.56	243.10	19.02	-35.1	-36.3	18.3	0.00e+00	0	57	0	3415212032	40	4230
2026-01-12 05:06:21.57	242.97	18.91	-35.1	-36.3	18.3	0.00e+00	0	57	0	3422552064	40	4214
2026-01-12 05:06:22.58	242.84	18.81	-35.1	-36.2	18.3	0.00e+00	0	56	0	3429892096	40	4181
2026-01-12 05:06:23.59	242.71	18.70	-35.0	-36.1	18.4	0.00e+00	0	56	0	3437232128	40	4130
2026-01-12 05:06:24.60	242.58	18.59	-34.9	-36.1	18.5	0.00e+00	0	56	0	3444572160	40	4099
2026-01-12 05:06:25.61	242.45	18.49	-35.0	-36.2	18.4	0.00e+00	0	56	0	3451912192	40	4162
2026-01-12 05:06:26.62	242.32	18.38	-35.1	-36.3	18.3	0.00e+00	0	56	0	3459252224	40	4194
2026-01-12 05:06:27.63	242.20	18.27	-35.2	-36.3	18.2	0.00e+00	0	56	0	3466592256	40	4240
2026-01-12 05:06:28.64	242.07	18.17	-35.3	-36.5	18.1	0.00e+00	0	56	0	3473932288	40	4298
2026-01-12 05:06:29.65	241.95	18.06	-35.4	-36.6	17.9	0.00e+00	0	56	0	3481272320	40	4375
2026-01-12 05:06:30.66	241.82	17.96	-35.5	-36.7	17.8	0.00e+00	0	56	0	3488612352	40	4417
2026-01-12 05:06:31.67	241.70	17.85	-35.5	-36.7	17.9	0.00e+00	0	56	0	3495952384	40	4413
2026-01-12 05:06:32.68	241.58	17.75	-35.6	-36.8	17.7	0.00e+00	0	56	0	3503292416	40	4464
2026-01-12 05:06:33.69	241.46	17.65	-35.5	-36.8	17.8	0.00e+00	0	56	0	3510632448	40	4454
2026-01-12 05:06:34.70	241.34	17.54	-35.4	-36.6	17.9	0.00e+00	0	56	0	3517972480	40	4391
2026-01-12 05:06:35.71	241.22	17.44	-35.4	-36.6	17.9	0.00e+00	0	56	0	3525312512	40	4371
2026-01-12 05:06:36.72	241.10	17.34	-35.4	-36.6	17.9	0.00e+00	0	56	0	3532652544	40	4378
2026-01-12 05:06:37.73	240.98	17.23	-35.3	-36.5	18.0	0.00e+00	0	56	0	3539992576	40	4323
2026-01-12 05:06:38.74	240.87	17.13	-35.3	-36.4	18.0	0.00e+00	0	56	0	3547332608	40	4284
2026-01-12 05:06:39.75	240.75	17.03	-35.3	-36.5	18.0	0.00e+00	0	56	0	3554672640	40	4295
2026-01-12 05:06:40.76	240.64	16.93	-35.3	-36.5	18.0	0.00e+00	0	56	0	3562012672	40	4330
2026-01-12 05:06:41.77	240.52	16.83	-35.4	-36.6	17.9	0.00e+00	0	56	0	3568304128	40	4357
2026-01-12 05:06:42.77	240.41	16.73	-35.4	-36.6	17.9	0.00e+00	0	56	0	3575644160	40	4391
2026-01-12 05:06:43.78	240.30	16.62	-35.4	-36.7	17.9	0.00e+00	0	56	0	3584032768	40	4392
2026-01-12 05:06:44.79	240.18	16.52	-35.4	-36.7	17.9	0.00e+00	0	56	0	3590324224	40	4392
2026-01-12 05:06:45.80	240.07	16.42	-35.5	-36.7	17.8	0.00e+00	0	56	0	3597664256	40	4435
2026-01-12 05:06:46.81	239.96	16.32	-35.4	-36.6	17.9	0.00e+00	0	56	0	3605004288	40	4354
2026-01-12 05:06:47.82	239.85	16.22	-35.3	-36.5	17.9	0.00e+00	0	56	0	3612344320	40	4338
2026-01-12 05:06:48.83	239.74	16.12	-35.4	-36.7	17.8	0.00e+00	0	56	0	3619684352	40	4392
2026-01-12 05:06:49.84	239.64	16.03	-35.6	-36.8	17.7	0.00e+00	0	56	0	3627024384	40	4460
2026-01-12 05:06:50.86	239.53	15.93	-35.6	-36.9	17.6	0.00e+00	0	56	0	3634364416	40	4501
2026-01-12 05:06:51.87	239.42	15.83	-35.4	-36.6	17.8	0.00e+00	0	56	0	3641704448	40	4379
2026-01-12 05:06:52.88	239.31	15.73	-35.5	-36.7	17.7	0.00e+00	0	56	0	3649044480	40	4424
2026-01-12 05:06:53.89	239.21	15.63	-35.5	-36.7	17.8	0.00e+00	0	56	0	3656384512	40	4424
2026-01-12 05:06:54.90	239.10	15.53	-35.6	-36.8	17.7	0.00e+00	0	56	0	3663724544	40	4474
2026-01-12 05:06:55.91	239.00	15.44	-35.6	-36.8	17.6	0.00e+00	0	56	0	3671064576	40	4484
2026-01-12 05:06:56.92	238.90	15.34	-35.7	-36.9	17.5	0.00e+00	0	56	0	3678404608	40	4537
2026-01-12 05:06:57.92	238.80	15.24	-35.7	-37.0	17.5	0.00e+00	0	56	0	3685744640	41	4321
2026-01-12 05:06:58.93	238.69	15.15	-35.8	-37.1	17.4	0.00e+00	0	56	0	3693084672	41	4357
2026-01-12 05:06:59.94	238.59	15.05	-36.0	-37.3	17.2	0.00e+00	0	57	0	3700424704	41	4454
2026-01-12 05:07:00.96	238.49	14.95	-36.0	-37.4	17.1	0.00e+00	0	56	0	3707764736	41	4494
2026-01-12 05:07:01.97	238.39	14.86	-36.1	-37.4	17.0	0.00e+00	0	57	0	3714056192	41	4530
2026-01-12 05:07:02.98	238.29	14.76	-36.1	-37.4	17.0	0.00e+00	0	56	0	3721396224	41	4533
2026-01-12 05:07:03.98	238.19	14.67	-36.2	-37.5	17.0	0.00e+00	0	56	0	3729784832	41	4564
2026-01-12 05:07:04.99	238.10	14.57	-36.2	-37.5	16.9	0.00e+00	0	56	0	3736076288	41	4570
2026-01-12 05:07:06.00	238.00	14.48	-36.3	-37.6	16.8	0.00e+00	0	56	0	3743416320	42	4381
2026-01-12 05:07:07.01	237.90	14.38	-36.3	-37.7	16.8	0.00e+00	0	56	0	3750756352	42	4409
2026-01-12 05:07:08.02	237.81	14.29	-36.3	-37.7	16.8	0.00e+00	0	56	0	3758096384	42	4403
2026-01-12 05:07:09.03	237.71	14.20	-36.2	-37.6	16.8	0.00e+00	0	56	0	3765436416	42	4349
2026-01-12 05:07:10.04	237.61	14.10	-36.3	-37.6	16.8	0.00e+00	0	56	0	3772776448	42	4385
2026-01-12 05:07:11.05	237.52	14.01	-36.3	-37.7	16.7	0.00e+00	0	57	0	3780116480	42	4404
2026-01-12 05:07:12.06	237.43	13.92	-36.4	-37.7	16.7	0.00e+00	0	56	0	3787456512	42	4434
2026-01-12 05:07:13.07	237.33	13.83	-36.4	-37.7	16.7	0.00e+00	0	56	0	3794796544	42	4424
2026-01-12 05:07:14.08	237.24	13.73	-36.3	-37.7	16.7	0.00e+00	0	56	0	3802136576	42	4416
2026-01-12 05:07:15.09	237.15	13.64	-36.4	-37.8	16.6	0.00e+00	0	56	0	3809476608	42	4475
2026-01-12 05:07:16.10	237.06	13.55	-36.6	-38.0	16.4	0.00e+00	0	56	0	3816816640	42	4582
2026-01-12 05:07:17.11	236.97	13.46	-36.6	-38.0	16.4	0.00e+00	0	56	0	3824156672	42	4598
2026-01-12 05:07:18.12	236.88	13.37	-36.7	-38.1	16.3	0.00e+00	0	56	0	3831496704	42	4633
2026-01-12 05:07:19.13	236.79	13.28	-36.7	-38.1	16.2	0.00e+00	0	56	0	3838836736	43	4391
2026-01-12 05:07:20.14	236.70	13.19	-36.8	-38.2	16.1	0.00e+00	0	56	0	3846176768	43	4441
2026-01-12 05:07:21.15	236.61	13.10	-36.8	-38.2	16.2	0.00e+00	0	56	0	3853516800	43	4413
2026-01-12 05:07:22.16	236.52	13.01	-36.8	-38.2	16.2	0.00e+00	0	57	0	3860856832	43	4410
2026-01-12 05:07:23.17	236.43	12.92	-36.8	-38.2	16.1	0.00e+00	0	56	0	3867148288	43	4421
2026-01-12 05:07:24.18	236.35	12.83	-36.8	-38.3	16.1	0.00e+00	0	56	0	3874488320	43	4449
2026-01-12 05:07:25.19	236.26	12.74	-36.6	-38.0	16.3	0.00e+00	0	56	0	3882876928	43	4339
2026-01-12 05:07:26.20	236.18	12.65	-36.6	-38.0	16.3	0.00e+00	0	56	0	3889168384	43	4329
2026-01-12 05:07:27.21	236.09	12.56	-36.6	-38.0	16.4	0.00e+00	0	56	0	3896508416	43	4299
2026-01-12 05:07:28.22	236.01	12.47	-36.3	-37.7	16.6	0.00e+00	0	56	0	3903848448	43	4169
2026-01-12 05:07:29.23	235.92	12.38	-36.2	-37.6	16.7	0.00e+00	0	56	0	3911188480	43	4118
2026-01-12 05:07:30.24	235.84	12.29	-36.2	-37.5	16.8	0.00e+00	0	56	0	3918528512	43	4086
2026-01-12 05:07:31.25	235.75	12.21	-36.2	-37.6	16.7	0.00e+00	0	56	0	3925868544	43	4116
2026-01-12 05:07:32.26	235.67	12.12	-36.3	-37.6	16.6	0.00e+00	0	56	0	3933208576	43	4127
2026-01-12 05:07:33.27	235.59	12.03	-36.4	-37.8	16.5	0.00e+00	0	56	0	3940548608	43	4195
2026-01-12 05:07:34.28	235.51	11.94	-36.4	-37.7	16.6	0.00e+00	0	56	0	3947888640	43	4185
2026-01-12 05:07:35.29	235.43	11.86	-36.4	-37.8	16.5	0.00e+00	0	56	0	3955228672	43	4206
2026-01-12 05:07:36.31	235.35	11.77	-36.5	-37.9	16.4	0.00e+00	0	56	0	3962568704	43	4269
2026-01-12 05:07:37.32	235.27	11.68	-36.7	-38.1	16.2	0.00e+00	0	56	0	3969908736	43	4361
2026-01-12 05:07:38.33	235.19	11.60	-36.8	-38.2	16.0	0.00e+00	0	56	0	3977248768	43	4422
2026-01-12 05:07:39.34	235.11	11.51	-36.9	-38.4	15.9	0.00e+00	0	56	0	3984588800	43	4512
2026-01-12 05:07:40.35	235.03	11.43	-37.0	-38.5	15.7	0.00e+00	0	56	0	3991928832	43	4596
2026-01-12 05:07:41.36	234.95	11.34	-37.3	-38.9	15.5	0.00e+00	0	56	0	3999268864	44	4494
2026-01-12 05:07:42.37	234.87	11.26	-37.4	-39.0	15.4	0.00e+00	0	56	0	4006608896	44	4560
2026-01-12 05:07:43.38	234.79	11.17	-37.5	-39.0	15.4	0.00e+00	0	56	0	4012900352	44	4593
2026-01-12 05:07:44.39	234.72	11.09	-37.4	-39.0	15.4	0.00e+00	0	56	0	4021288960	44	4569
2026-01-12 05:07:45.40	234.64	11.00	-37.5	-39.1	15.3	0.00e+00	0	56	0	4028628992	44	4610
2026-01-12 05:07:46.41	234.56	10.92	-37.6	-39.3	15.1	0.00e+00	0	56	0	4034920448	44	4708
2026-01-12 05:07:47.42	234.49	10.84	-37.6	-39.2	15.2	0.00e+00	0	56	0	4042260480	44	4683
2026-01-12 05:07:48.43	234.41	10.75	-37.6	-39.3	15.1	0.00e+00	0	56	0	4049600512	44	4723
