passes_logs/2026/01/12/R2.0S_Moscow/R2.0S_Moscow__20260112_005133_NOAA_20_JPSS-1_rec.log

#Pass ID: 20260112_005133_NOAA 20 (JPSS-1)
#Satellite: NOAA 20 (JPSS-1)
#Configuration: NOAA 20
#almurnet v.1.7.20251203
#Start time: 2026-01-12 00:51:33

#Version: 2.2.20231116
#Station: R2.0S_Moscow
#Location: 37.707566 lon 55.798166 lat
#TLE: 1 43013U 17073A   26011.31235446  .00000090  00000+0  63634-4 0  9991
#TLE: 2 43013  98.7632 312.2907 0001646  44.6084 315.5224 14.19535308422217

#Time	Az	El	Level	Level2	SNR	BER	BlckErr	Temp	State	Recorded	gain1	gain2
2026-01-12 00:51:33.17	11.70	2.00	-39.8	-54.4	3.8	1.49e+00	0	47	0	0	51	18988
2026-01-12 00:51:34.18	11.66	2.06	-39.8	-54.4	3.8	1.49e+00	0	47	104	0	51	19016
2026-01-12 00:51:35.19	11.61	2.12	-39.8	-54.4	3.8	1.49e+00	0	47	104	0	51	18964
2026-01-12 00:51:36.20	11.56	2.18	-39.8	-54.4	3.8	1.49e+00	0	47	104	0	51	18974
2026-01-12 00:51:37.21	11.52	2.24	-39.8	-54.3	3.8	1.49e+00	0	47	104	0	51	18943
2026-01-12 00:51:38.22	11.47	2.30	-39.8	-54.3	3.8	1.49e+00	0	47	104	0	51	18918
2026-01-12 00:51:39.23	11.42	2.36	-39.8	-54.3	3.8	1.49e+00	0	47	104	0	51	18883
2026-01-12 00:51:40.24	11.37	2.42	-39.8	-54.4	3.8	1.49e+00	0	47	104	0	51	18952
2026-01-12 00:51:41.25	11.33	2.48	-39.8	-54.4	3.8	1.49e+00	0	47	104	0	51	18957
2026-01-12 00:51:42.27	11.28	2.55	-39.8	-54.4	3.8	1.49e+00	0	48	104	0	51	18990
2026-01-12 00:51:43.28	11.23	2.61	-39.8	-54.3	3.8	1.49e+00	0	48	104	0	51	18927
2026-01-12 00:51:44.29	11.18	2.67	-39.8	-54.4	3.8	1.49e+00	0	48	104	0	51	18992
2026-01-12 00:51:45.30	11.13	2.73	-39.8	-54.3	3.8	1.49e+00	0	48	104	0	51	18921
2026-01-12 00:51:46.31	11.08	2.79	-39.8	-54.3	3.8	1.49e+00	0	48	104	0	51	18947
2026-01-12 00:51:47.32	11.03	2.86	-39.8	-54.3	3.8	1.49e+00	0	48	104	0	51	18919
2026-01-12 00:51:48.33	10.98	2.92	-39.8	-54.4	3.8	1.49e+00	0	48	104	0	51	18980
2026-01-12 00:51:49.34	10.93	2.98	-39.8	-54.3	3.8	1.49e+00	0	48	104	0	51	18914
2026-01-12 00:51:50.35	10.88	3.04	-39.8	-54.3	3.8	1.49e+00	0	48	104	0	51	18923
2026-01-12 00:51:51.36	10.83	3.11	-39.8	-54.4	3.8	1.49e+00	0	48	104	0	51	18957
2026-01-12 00:51:52.37	10.78	3.17	-39.8	-54.4	3.8	1.49e+00	0	48	104	0	51	18966
2026-01-12 00:51:53.38	10.73	3.23	-39.8	-54.3	3.8	1.49e+00	0	48	104	0	51	18848
2026-01-12 00:51:54.39	10.68	3.29	-39.8	-54.3	3.8	1.49e+00	0	48	104	0	51	18894
2026-01-12 00:51:55.41	10.63	3.36	-39.8	-54.3	3.8	1.49e+00	0	49	104	0	51	18888
2026-01-12 00:51:56.42	10.58	3.42	-39.8	-54.3	3.8	1.49e+00	0	48	104	0	51	18853
2026-01-12 00:51:57.43	10.53	3.49	-39.8	-54.3	3.8	1.49e+00	0	49	104	0	51	18917
2026-01-12 00:51:58.44	10.47	3.55	-39.8	-54.3	3.8	1.49e+00	0	49	104	0	51	18857
2026-01-12 00:51:59.45	10.42	3.61	-39.8	-54.3	3.8	1.49e+00	0	49	104	0	51	18873
2026-01-12 00:52:00.46	10.37	3.68	-39.8	-54.3	3.8	1.49e+00	0	49	104	0	51	18878
2026-01-12 00:52:01.47	10.32	3.74	-39.8	-54.3	3.8	1.49e+00	0	49	104	0	51	18886
2026-01-12 00:52:02.48	10.26	3.80	-39.8	-54.3	3.8	1.49e+00	0	49	104	0	51	18901
2026-01-12 00:52:03.49	10.21	3.87	-39.8	-54.3	3.8	1.49e+00	0	49	104	0	51	18925
2026-01-12 00:52:04.50	10.16	3.93	-39.8	-54.3	3.8	1.49e+00	0	49	104	0	51	18930
2026-01-12 00:52:05.52	10.10	4.00	-39.8	-54.3	3.8	1.49e+00	0	49	104	0	51	18916
2026-01-12 00:52:06.53	10.05	4.06	-39.8	-54.4	3.8	1.49e+00	0	49	104	0	51	18953
2026-01-12 00:52:07.54	10.00	4.13	-39.8	-54.3	3.8	1.49e+00	0	49	104	0	51	18898
2026-01-12 00:52:08.55	9.94	4.19	-39.8	-54.3	3.8	1.49e+00	0	49	104	0	51	18919
2026-01-12 00:52:09.56	9.89	4.26	-39.8	-54.3	3.8	1.49e+00	0	49	104	0	51	18899
2026-01-12 00:52:10.57	9.83	4.32	-39.8	-54.3	3.8	1.49e+00	0	49	104	0	51	18901
2026-01-12 00:52:11.58	9.78	4.39	-39.8	-54.3	3.8	1.49e+00	0	49	104	0	51	18916
2026-01-12 00:52:12.59	9.72	4.45	-39.8	-54.3	3.8	1.49e+00	0	50	104	0	51	18896
2026-01-12 00:52:13.60	9.67	4.52	-39.8	-54.4	3.8	1.49e+00	0	49	104	0	51	18966
2026-01-12 00:52:14.61	9.61	4.58	-39.8	-54.3	3.8	1.49e+00	0	50	104	0	51	18877
2026-01-12 00:52:15.62	9.55	4.65	-39.8	-54.3	3.8	1.49e+00	0	50	104	0	51	18919
2026-01-12 00:52:16.64	9.50	4.71	-39.8	-54.3	3.8	1.49e+00	0	50	104	0	51	18901
2026-01-12 00:52:17.65	9.44	4.78	-39.8	-54.3	3.8	1.49e+00	0	50	104	0	51	18870
2026-01-12 00:52:18.66	9.38	4.85	-39.8	-54.3	3.8	1.49e+00	0	50	104	0	51	18924
2026-01-12 00:52:19.67	9.33	4.91	-39.8	-54.3	3.8	1.49e+00	0	50	104	0	51	18896
2026-01-12 00:52:20.68	9.27	4.98	-39.8	-54.3	3.8	1.49e+00	0	50	104	0	51	18904
2026-01-12 00:52:21.69	9.21	5.04	-39.8	-54.3	3.8	1.49e+00	0	50	104	0	51	18882
2026-01-12 00:52:22.70	9.15	5.11	-39.8	-54.3	3.8	1.49e+00	0	50	104	0	51	18939
2026-01-12 00:52:23.71	9.09	5.18	-39.8	-54.3	3.8	1.49e+00	0	50	104	0	51	18886
2026-01-12 00:52:24.72	9.03	5.25	-39.8	-54.3	3.8	1.49e+00	0	50	104	0	51	18856
2026-01-12 00:52:25.74	8.97	5.31	-39.8	-54.3	3.8	1.49e+00	0	50	104	0	51	18857
2026-01-12 00:52:26.75	8.92	5.38	-39.8	-54.3	3.8	1.49e+00	0	50	104	0	51	18890
2026-01-12 00:52:27.76	8.86	5.45	-39.8	-54.3	3.8	1.49e+00	0	50	104	0	51	18924
2026-01-12 00:52:28.77	8.80	5.51	-39.8	-54.3	3.8	1.49e+00	0	51	104	0	51	18885
2026-01-12 00:52:29.78	8.74	5.58	-39.8	-54.4	3.8	1.49e+00	0	50	104	0	51	18949
2026-01-12 00:52:30.79	8.68	5.65	-39.8	-54.3	3.8	1.49e+00	0	51	104	0	51	18937
2026-01-12 00:52:31.80	8.61	5.72	-39.8	-54.3	3.8	1.49e+00	0	51	104	0	51	18810
2026-01-12 00:52:32.81	8.55	5.79	-39.8	-54.3	3.8	1.49e+00	0	51	104	0	51	18865
2026-01-12 00:52:33.82	8.49	5.85	-39.8	-54.3	3.8	1.49e+00	0	51	104	0	51	18864
2026-01-12 00:52:34.83	8.43	5.92	-39.8	-54.3	3.8	1.49e+00	0	51	104	0	51	18801
2026-01-12 00:52:35.84	8.37	5.99	-39.8	-54.3	3.8	1.49e+00	0	51	104	0	51	18872
2026-01-12 00:52:36.86	8.30	6.06	-39.8	-54.3	3.8	1.49e+00	0	51	104	0	51	18901
2026-01-12 00:52:37.87	8.24	6.13	-39.8	-54.3	3.8	1.49e+00	0	51	104	0	51	18865
2026-01-12 00:52:38.88	8.18	6.20	-39.8	-54.3	3.8	1.49e+00	0	51	104	0	51	18854
2026-01-12 00:52:39.89	8.12	6.27	-39.8	-54.3	3.8	1.49e+00	0	51	104	0	51	18902
2026-01-12 00:52:40.90	8.05	6.34	-39.8	-54.3	3.8	1.49e+00	0	51	104	0	51	18915
2026-01-12 00:52:41.91	7.99	6.41	-39.8	-54.3	3.8	1.49e+00	0	51	104	0	51	18872
2026-01-12 00:52:42.92	7.92	6.47	-39.8	-54.3	3.8	1.49e+00	0	51	104	0	51	18875
2026-01-12 00:52:43.93	7.86	6.54	-39.8	-54.3	3.8	1.49e+00	0	51	104	0	51	18846
2026-01-12 00:52:44.95	7.79	6.61	-39.8	-54.3	3.8	1.49e+00	0	51	104	0	51	18879
2026-01-12 00:52:45.96	7.73	6.68	-39.8	-54.3	3.8	1.49e+00	0	51	104	0	51	18933
2026-01-12 00:52:46.97	7.66	6.75	-39.8	-54.3	3.8	1.49e+00	0	51	104	0	51	18880
2026-01-12 00:52:47.98	7.60	6.83	-39.8	-54.3	3.8	1.49e+00	0	51	104	0	51	18859
2026-01-12 00:52:48.99	7.53	6.90	-39.8	-54.3	3.8	1.49e+00	0	51	104	0	51	18846
2026-01-12 00:52:50.00	7.46	6.97	-39.8	-54.3	3.8	1.49e+00	0	51	104	0	51	18844
2026-01-12 00:52:51.01	7.40	7.04	-39.8	-54.3	3.8	1.49e+00	0	51	104	0	51	18898
2026-01-12 00:52:52.02	7.33	7.11	-39.8	-54.3	3.8	1.49e+00	0	51	104	0	51	18924
2026-01-12 00:52:53.03	7.26	7.18	-39.8	-54.3	3.8	1.49e+00	0	51	104	0	51	18933
2026-01-12 00:52:54.04	7.19	7.25	-39.8	-54.3	3.8	1.49e+00	0	51	104	0	51	18828
2026-01-12 00:52:55.06	7.13	7.32	-39.8	-54.3	3.8	1.49e+00	0	52	104	0	51	18862
2026-01-12 00:52:56.07	7.06	7.39	-39.8	-54.3	3.8	1.49e+00	0	52	104	0	51	18922
2026-01-12 00:52:57.08	6.99	7.47	-39.8	-54.3	3.8	1.49e+00	0	51	104	0	51	18882
2026-01-12 00:52:58.09	6.92	7.54	-39.8	-54.3	3.8	1.49e+00	0	52	104	0	51	18854
2026-01-12 00:52:59.10	6.85	7.61	-39.8	-54.3	3.8	1.49e+00	0	52	104	0	51	18876
2026-01-12 00:53:00.11	6.78	7.68	-39.8	-54.3	3.8	1.49e+00	0	52	104	0	51	18834
2026-01-12 00:53:01.12	6.71	7.75	-39.8	-54.3	3.8	1.49e+00	0	52	104	0	51	18842
2026-01-12 00:53:02.13	6.64	7.83	-39.8	-54.3	3.8	1.49e+00	0	52	104	0	51	18836
2026-01-12 00:53:03.14	6.57	7.90	-39.8	-54.3	3.8	1.49e+00	0	52	104	0	51	18866
2026-01-12 00:53:04.16	6.49	7.97	-39.8	-54.3	3.8	1.49e+00	0	52	104	0	51	18861
2026-01-12 00:53:05.17	6.42	8.04	-39.8	-54.3	3.8	1.49e+00	0	52	104	0	51	18911
2026-01-12 00:53:06.18	6.35	8.12	-39.8	-54.4	3.8	1.49e+00	0	52	104	0	51	18976
2026-01-12 00:53:07.19	6.28	8.19	-39.9	-54.4	3.8	1.49e+00	0	52	104	0	51	19089
2026-01-12 00:53:08.20	6.20	8.26	-39.9	-54.4	3.8	1.49e+00	0	52	104	0	51	19050
2026-01-12 00:53:09.21	6.13	8.34	-39.9	-54.5	3.8	1.49e+00	0	52	104	0	51	19226
2026-01-12 00:53:10.22	6.06	8.41	-39.9	-54.3	3.8	1.49e+00	0	52	104	0	51	18941
2026-01-12 00:53:11.23	5.98	8.49	-39.9	-54.5	3.8	1.49e+00	0	52	104	0	51	19192
2026-01-12 00:53:12.24	5.91	8.56	-39.9	-54.4	3.8	1.49e+00	0	52	104	0	51	19012
2026-01-12 00:53:13.25	5.83	8.63	-39.9	-54.4	3.8	1.49e+00	0	52	104	0	51	19096
2026-01-12 00:53:14.26	5.76	8.71	-39.9	-54.4	3.8	1.49e+00	0	52	104	0	51	19034
2026-01-12 00:53:15.27	5.68	8.78	-39.9	-54.4	3.8	1.49e+00	0	52	104	0	51	19097
2026-01-12 00:53:16.28	5.60	8.86	-39.9	-54.4	3.8	1.49e+00	0	52	104	0	51	19051
2026-01-12 00:53:17.29	5.53	8.93	-40.0	-54.5	3.8	1.49e+00	0	52	104	0	51	19294
2026-01-12 00:53:18.30	5.45	9.01	-39.8	-54.4	3.8	1.49e+00	0	52	104	0	51	18978
2026-01-12 00:53:19.31	5.37	9.08	-40.0	-54.5	3.8	1.49e+00	0	52	104	0	51	19330
2026-01-12 00:53:20.32	5.29	9.16	-39.8	-54.4	3.8	1.49e+00	0	52	104	0	51	18974
2026-01-12 00:53:21.33	5.21	9.24	-39.9	-54.5	3.8	1.49e+00	0	52	104	0	51	19253
2026-01-12 00:53:22.34	5.14	9.31	-39.9	-54.4	3.8	1.49e+00	0	53	104	0	51	19005
2026-01-12 00:53:23.35	5.06	9.39	-40.0	-54.5	3.8	1.49e+00	0	53	104	0	51	19342
2026-01-12 00:53:24.36	4.98	9.46	-39.9	-54.4	3.8	1.49e+00	0	53	104	0	51	19012
2026-01-12 00:53:25.37	4.90	9.54	-40.0	-54.6	3.8	1.49e+00	0	53	104	0	51	19444
2026-01-12 00:53:26.38	4.82	9.62	-39.9	-54.4	3.8	1.49e+00	0	53	104	0	51	19083
2026-01-12 00:53:27.39	4.73	9.69	-40.0	-54.6	3.8	1.49e+00	0	53	104	0	51	19570
2026-01-12 00:53:28.40	4.65	9.77	-39.9	-54.4	3.8	1.49e+00	0	53	104	0	51	19166
2026-01-12 00:53:29.41	4.57	9.85	-40.1	-54.6	3.8	1.49e+00	0	53	104	0	51	19549
2026-01-12 00:53:30.42	4.49	9.92	-39.9	-54.5	3.8	1.49e+00	0	53	104	0	51	19241
2026-01-12 00:53:31.43	4.41	10.00	-40.1	-54.6	3.8	1.49e+00	0	53	104	0	51	19558
2026-01-12 00:53:32.44	4.32	10.08	-40.0	-54.6	3.8	1.49e+00	0	53	104	0	51	19403
2026-01-12 00:53:33.45	4.24	10.16	-40.1	-54.7	3.8	1.49e+00	0	53	104	0	51	19660
2026-01-12 00:53:34.46	4.15	10.24	-40.0	-54.6	3.8	1.49e+00	0	53	104	0	51	19470
2026-01-12 00:53:35.47	4.07	10.31	-40.1	-54.6	3.8	1.49e+00	0	53	104	0	51	19611
2026-01-12 00:53:36.48	3.98	10.39	-40.0	-54.6	3.8	1.49e+00	0	53	104	0	51	19417
2026-01-12 00:53:37.49	3.90	10.47	-40.1	-54.7	3.8	1.49e+00	0	53	104	0	51	19753
2026-01-12 00:53:38.51	3.81	10.55	-40.1	-54.7	3.8	1.49e+00	0	53	104	0	51	19658
2026-01-12 00:53:39.51	3.73	10.63	-40.2	-54.7	3.8	1.49e+00	0	53	104	0	51	19764
2026-01-12 00:53:40.52	3.64	10.71	-40.2	-54.8	3.8	1.49e+00	0	53	104	0	51	19919
2026-01-12 00:53:41.53	3.55	10.79	-40.1	-54.7	3.8	1.49e+00	0	53	104	0	51	19719
2026-01-12 00:53:42.54	3.46	10.87	-40.1	-54.7	3.8	1.49e+00	0	53	104	0	51	19707
2026-01-12 00:53:43.55	3.37	10.95	-40.2	-54.7	3.8	1.49e+00	0	53	104	0	51	19794
2026-01-12 00:53:44.56	3.28	11.03	-39.9	-54.6	3.8	1.49e+00	0	53	104	0	51	19462
2026-01-12 00:53:45.57	3.19	11.11	-39.9	-54.5	3.8	1.49e+00	0	53	104	0	51	19321
2026-01-12 00:53:46.58	3.10	11.19	-39.9	-54.5	3.8	1.49e+00	0	53	104	0	51	19316
2026-01-12 00:53:47.59	3.01	11.27	-39.9	-54.5	3.8	1.49e+00	0	54	104	0	51	19290
2026-01-12 00:53:48.60	2.92	11.35	-39.9	-54.5	3.8	1.49e+00	0	53	104	0	51	19251
2026-01-12 00:53:49.61	2.83	11.43	-40.0	-54.5	3.8	1.49e+00	0	53	104	0	51	19385
2026-01-12 00:53:50.62	2.74	11.51	-40.2	-54.9	3.8	1.49e+00	0	53	104	0	51	20131
2026-01-12 00:53:51.63	2.65	11.59	-40.2	-54.9	3.8	1.49e+00	0	53	104	0	51	20121
2026-01-12 00:53:52.64	2.55	11.67	-40.2	-55.1	3.8	1.49e+00	0	54	104	0	51	20592
2026-01-12 00:53:53.65	2.46	11.75	-40.2	-54.8	3.8	1.49e+00	0	53	104	0	51	19943
2026-01-12 00:53:54.66	2.36	11.84	-39.9	-54.6	3.8	1.49e+00	0	53	104	0	51	19464
2026-01-12 00:53:55.67	2.27	11.92	-39.9	-54.5	3.8	1.49e+00	0	54	104	0	51	19373
2026-01-12 00:53:56.68	2.17	12.00	-39.9	-54.5	3.8	1.49e+00	0	54	104	0	51	19381
2026-01-12 00:53:57.69	2.08	12.08	-39.9	-54.5	3.8	1.49e+00	0	53	104	0	51	19357
2026-01-12 00:53:58.70	1.98	12.17	-40.1	-54.7	3.8	1.49e+00	0	53	104	0	51	19821
2026-01-12 00:53:59.71	1.88	12.25	-40.5	-55.0	3.8	1.49e+00	0	54	104	0	51	20373
2026-01-12 00:54:00.72	1.79	12.33	-40.9	-55.0	3.8	1.49e+00	0	54	104	0	52	19242
2026-01-12 00:54:01.73	1.69	12.41	-40.2	-54.8	3.8	1.49e+00	0	54	104	0	52	18871
2026-01-12 00:54:02.74	1.59	12.50	-40.0	-54.6	3.8	1.49e+00	0	54	104	0	52	18487
2026-01-12 00:54:03.75	1.49	12.58	-40.0	-54.7	3.8	1.49e+00	0	54	104	0	52	18539
2026-01-12 00:54:04.76	1.39	12.67	-40.0	-54.6	3.8	1.49e+00	0	54	104	0	52	18460
2026-01-12 00:54:05.76	1.29	12.75	-40.0	-54.6	3.8	1.49e+00	0	54	104	0	52	18516
2026-01-12 00:54:06.78	1.19	12.83	-40.3	-54.9	3.8	1.49e+00	0	54	104	0	52	18956
2026-01-12 00:54:07.79	1.08	12.92	-41.0	-52.9	3.9	1.49e+00	0	54	104	0	52	15202
2026-01-12 00:54:08.80	0.98	13.00	-42.2	-53.0	4.4	1.39e+00	68	54	0	0	54	13618
2026-01-12 00:54:09.81	0.88	13.09	-40.5	-53.7	3.8	1.07e+00	0	54	104	1048576	53	15746
2026-01-12 00:54:10.82	0.78	13.17	-40.9	-50.1	4.3	1.49e+00	0	54	104	1048576	52	11000
2026-01-12 00:54:11.83	0.67	13.26	-41.2	-48.9	6.5	3.65e-01	0	54	0	2097152	53	9015
2026-01-12 00:54:12.84	0.57	13.34	-41.2	-48.0	7.6	1.22e-01	0	54	0	4194304	53	8085
2026-01-12 00:54:13.85	0.46	13.43	-41.2	-47.3	8.5	5.76e-02	0	54	0	5242880	53	7501
2026-01-12 00:54:14.86	0.35	13.51	-41.1	-46.8	9.1	3.22e-02	0	54	0	7340032	53	7118
2026-01-12 00:54:15.87	0.25	13.60	-40.9	-45.9	10.1	8.58e-03	0	54	0	9437184	53	6410
2026-01-12 00:54:16.88	0.14	13.69	-40.5	-45.0	11.0	2.99e-03	0	54	0	11534336	53	5776
2026-01-12 00:54:17.88	0.03	13.77	-40.3	-44.6	11.6	1.19e-03	0	54	0	13631488	52	5805
2026-01-12 00:54:18.89	359.92	13.86	-40.2	-44.2	12.0	4.93e-04	0	54	0	14680064	52	5564
2026-01-12 00:54:19.90	359.81	13.95	-40.0	-43.8	12.4	1.68e-04	0	54	0	16777216	52	5316
2026-01-12 00:54:20.91	359.70	14.03	-40.1	-43.8	12.5	1.01e-04	0	54	0	18874368	51	5634
2026-01-12 00:54:21.92	359.59	14.12	-40.1	-43.9	12.6	1.03e-04	0	54	0	20971520	51	5663
2026-01-12 00:54:22.93	359.48	14.21	-40.2	-44.0	12.5	1.22e-04	0	54	0	23068672	51	5765
2026-01-12 00:54:23.94	359.37	14.30	-40.3	-44.1	12.4	1.45e-04	0	54	0	24117248	51	5833
2026-01-12 00:54:24.95	359.26	14.38	-40.4	-44.2	12.3	1.77e-04	0	54	0	26214400	51	5890
2026-01-12 00:54:25.96	359.14	14.47	-40.5	-44.3	12.2	1.69e-04	0	54	0	28311552	51	5972
2026-01-12 00:54:26.97	359.03	14.56	-40.6	-44.5	12.1	1.88e-04	0	54	0	30408704	51	6091
2026-01-12 00:54:27.98	358.91	14.65	-40.6	-44.4	12.3	2.69e-04	0	54	0	32505856	51	6032
2026-01-12 00:54:28.99	358.80	14.74	-40.5	-44.2	12.5	1.27e-04	0	54	0	33554432	51	5909
2026-01-12 00:54:30.00	358.68	14.83	-40.5	-44.1	12.6	1.10e-04	0	54	0	35651584	51	5840
2026-01-12 00:54:31.01	358.56	14.92	-40.5	-44.2	12.6	9.15e-05	0	54	0	37748736	51	5912
2026-01-12 00:54:32.02	358.45	15.00	-40.6	-44.3	12.6	9.30e-05	0	54	0	39845888	51	5924
2026-01-12 00:54:33.02	358.33	15.09	-40.5	-44.1	12.8	7.01e-05	0	54	0	41943040	51	5827
2026-01-12 00:54:34.03	358.21	15.18	-40.5	-44.0	12.8	4.88e-05	0	54	0	44040192	51	5780
2026-01-12 00:54:35.04	358.09	15.27	-40.6	-44.3	12.6	5.49e-05	0	54	0	45088768	51	5926
2026-01-12 00:54:36.05	357.97	15.36	-40.7	-44.5	12.4	1.36e-04	0	54	0	47185920	51	6069
2026-01-12 00:54:37.06	357.85	15.45	-40.7	-44.5	12.3	1.67e-04	0	54	0	49283072	51	6095
2026-01-12 00:54:38.07	357.73	15.54	-40.6	-44.4	12.4	1.69e-04	0	54	0	51380224	51	5995
2026-01-12 00:54:39.08	357.60	15.63	-40.5	-44.3	12.5	1.29e-04	0	54	0	53477376	51	5948
2026-01-12 00:54:40.09	357.48	15.73	-40.5	-44.1	12.6	1.01e-04	0	54	0	54525952	51	5841
2026-01-12 00:54:41.10	357.35	15.82	-40.5	-44.2	12.5	1.16e-04	0	54	0	56623104	51	5923
2026-01-12 00:54:42.11	357.23	15.91	-40.5	-44.2	12.4	1.54e-04	0	54	0	58720256	51	5921
2026-01-12 00:54:43.12	357.10	16.00	-40.5	-44.2	12.4	1.12e-04	0	54	0	60817408	51	5915
2026-01-12 00:54:44.13	356.98	16.09	-40.4	-44.1	12.5	1.10e-04	0	54	0	62914560	51	5825
2026-01-12 00:54:45.14	356.85	16.18	-40.4	-44.2	12.3	1.30e-04	0	54	0	63963136	51	5868
2026-01-12 00:54:46.15	356.72	16.28	-40.4	-44.4	12.0	3.07e-04	0	54	0	66060288	51	6006
2026-01-12 00:54:47.15	356.59	16.37	-40.5	-44.8	11.4	5.75e-04	0	54	0	68157440	51	6323
2026-01-12 00:54:48.16	356.46	16.46	-40.7	-45.5	10.6	1.71e-03	0	54	0	70254592	51	6803
2026-01-12 00:54:49.17	356.33	16.55	-40.9	-46.4	9.2	1.16e-02	0	54	0	72351744	52	7181
2026-01-12 00:54:50.18	356.20	16.64	-41.0	-47.3	8.1	3.67e-02	0	54	0	73400320	52	7990
2026-01-12 00:54:51.19	356.06	16.74	-41.1	-48.5	6.7	1.07e-01	0	55	0	75497472	52	9155
2026-01-12 00:54:52.20	355.93	16.83	-41.1	-49.8	5.6	3.76e-01	0	55	0	77594624	52	10536
2026-01-12 00:54:53.21	355.80	16.92	-41.0	-51.0	4.7	6.87e-01	0	55	0	79691776	52	12208
2026-01-12 00:54:54.22	355.66	17.02	-41.0	-52.2	4.2	1.07e+00	0	54	0	80740352	52	13906
2026-01-12 00:54:55.23	355.53	17.11	-40.9	-53.3	4.0	1.48e+00	0	55	104	80740352	52	15934
2026-01-12 00:54:56.24	355.39	17.21	-40.8	-54.3	3.8	1.49e+00	0	55	104	80740352	52	17853
2026-01-12 00:54:57.25	355.25	17.30	-40.8	-54.7	3.8	1.49e+00	0	55	104	80740352	52	18552
2026-01-12 00:54:58.26	355.11	17.39	-40.7	-54.9	3.8	1.49e+00	0	55	104	80740352	52	18965
2026-01-12 00:54:59.27	354.97	17.49	-40.7	-55.2	3.8	1.49e+00	0	55	104	80740352	52	19746
2026-01-12 00:55:00.28	354.83	17.58	-40.7	-55.4	3.8	1.49e+00	0	55	104	80740352	52	20143
2026-01-12 00:55:01.29	354.69	17.68	-40.7	-55.3	3.8	1.49e+00	0	55	104	80740352	52	20039
2026-01-12 00:55:02.30	354.55	17.77	-40.7	-55.3	3.8	1.49e+00	0	55	104	80740352	52	19895
2026-01-12 00:55:03.31	354.40	17.87	-40.8	-55.4	3.8	1.49e+00	0	55	104	80740352	52	20208
2026-01-12 00:55:04.32	354.26	17.97	-40.5	-55.0	3.8	1.49e+00	0	55	104	80740352	52	19346
2026-01-12 00:55:05.33	354.11	18.06	-40.7	-55.2	3.8	1.49e+00	0	54	104	80740352	52	19829
2026-01-12 00:55:06.34	353.97	18.16	-40.7	-55.4	3.8	1.49e+00	0	55	104	80740352	52	20099
2026-01-12 00:55:07.35	353.82	18.25	-40.6	-55.3	3.8	1.49e+00	0	55	104	80740352	52	19902
2026-01-12 00:55:08.36	353.67	18.35	-40.7	-55.3	3.8	1.49e+00	0	55	104	80740352	52	20063
2026-01-12 00:55:09.37	353.52	18.45	-40.8	-55.3	3.8	1.49e+00	0	55	104	80740352	52	20026
2026-01-12 00:55:10.38	353.37	18.54	-40.4	-55.2	3.8	1.49e+00	0	55	104	80740352	52	19782
2026-01-12 00:55:11.39	353.22	18.64	-40.7	-55.3	3.8	1.49e+00	0	55	104	80740352	52	19910
2026-01-12 00:55:12.40	353.07	18.74	-40.5	-55.3	3.8	1.49e+00	0	55	104	80740352	52	19908
2026-01-12 00:55:13.41	352.92	18.83	-40.7	-55.3	3.8	1.49e+00	0	55	104	80740352	52	19914
2026-01-12 00:55:14.42	352.76	18.93	-40.6	-55.3	3.8	1.49e+00	0	55	104	80740352	52	19842
2026-01-12 00:55:15.43	352.61	19.03	-40.7	-55.3	3.8	1.49e+00	0	55	104	80740352	52	20008
2026-01-12 00:55:16.44	352.45	19.13	-40.7	-55.3	3.8	1.49e+00	0	55	104	80740352	52	19954
2026-01-12 00:55:17.45	352.30	19.22	-40.8	-55.4	3.8	1.49e+00	0	55	104	80740352	52	20244
2026-01-12 00:55:18.46	352.14	19.32	-40.6	-55.2	3.8	1.49e+00	0	55	104	80740352	52	19795
2026-01-12 00:55:19.47	351.98	19.42	-40.8	-55.4	3.8	1.49e+00	0	55	104	80740352	52	20178
2026-01-12 00:55:20.48	351.82	19.52	-40.7	-55.3	3.8	1.49e+00	0	55	104	80740352	52	19870
2026-01-12 00:55:21.49	351.66	19.62	-40.9	-55.4	3.8	1.49e+00	0	55	104	80740352	52	20290
2026-01-12 00:55:22.50	351.50	19.72	-40.8	-55.4	3.8	1.49e+00	0	55	104	80740352	52	20165
2026-01-12 00:55:23.51	351.33	19.81	-40.9	-55.4	3.8	1.49e+00	0	55	104	80740352	52	20210
2026-01-12 00:55:24.52	351.17	19.91	-40.9	-55.5	3.8	1.49e+00	0	55	104	80740352	52	20309
2026-01-12 00:55:25.53	351.00	20.01	-40.8	-55.3	3.8	1.49e+00	0	55	104	80740352	53	18909
2026-01-12 00:55:26.54	350.84	20.11	-40.9	-55.3	3.8	1.49e+00	0	55	104	80740352	53	18820
2026-01-12 00:55:27.55	350.67	20.21	-40.8	-55.1	3.8	1.49e+00	0	55	104	80740352	53	18308
2026-01-12 00:55:28.56	350.50	20.31	-40.7	-55.2	3.8	1.49e+00	0	55	104	80740352	53	18616
2026-01-12 00:55:29.57	350.33	20.41	-41.0	-54.1	3.8	1.48e+00	0	55	104	80740352	53	16323
2026-01-12 00:55:30.58	350.16	20.51	-41.0	-54.1	3.8	1.49e+00	0	55	104	80740352	53	16342
2026-01-12 00:55:31.59	349.99	20.61	-41.4	-52.6	4.2	1.46e+00	0	55	104	80740352	53	13820
2026-01-12 00:55:32.60	349.81	20.71	-41.5	-52.3	4.4	1.30e+00	66	55	0	80740352	53	13273
2026-01-12 00:55:33.61	349.64	20.81	-41.5	-51.6	4.7	1.03e+00	0	55	0	82837504	53	12341
2026-01-12 00:55:34.62	349.46	20.91	-41.4	-50.8	5.1	7.25e-01	0	55	0	84934656	53	11220
2026-01-12 00:55:35.63	349.29	21.01	-41.3	-50.1	5.5	5.61e-01	0	55	0	87031808	53	10398
2026-01-12 00:55:36.64	349.11	21.11	-41.3	-49.6	5.9	4.37e-01	0	55	0	89128960	53	9754
2026-01-12 00:55:37.65	348.93	21.21	-41.2	-49.2	6.2	3.08e-01	0	55	0	90177536	53	9291
2026-01-12 00:55:38.66	348.75	21.31	-41.0	-48.5	6.7	2.29e-01	0	55	0	92274688	53	8616
2026-01-12 00:55:39.67	348.57	21.41	-40.9	-47.8	7.4	1.57e-01	0	55	0	94371840	53	7918
2026-01-12 00:55:40.68	348.39	21.51	-40.7	-47.3	7.9	7.94e-02	0	55	0	96468992	53	7487
2026-01-12 00:55:41.68	348.20	21.61	-40.6	-46.9	8.2	6.56e-02	0	55	0	98566144	53	7187
2026-01-12 00:55:42.69	348.02	21.71	-40.5	-45.8	9.8	2.60e-02	0	55	0	100663296	52	6667
2026-01-12 00:55:43.70	347.83	21.81	-40.3	-44.9	10.9	3.03e-03	0	55	0	101711872	52	6033
2026-01-12 00:55:44.71	347.64	21.91	-40.3	-44.6	11.5	1.01e-03	0	55	0	103809024	52	5822
2026-01-12 00:55:45.72	347.46	22.02	-40.4	-44.6	11.6	8.63e-04	0	55	0	105906176	52	5808
2026-01-12 00:55:46.73	347.27	22.12	-40.4	-44.5	11.8	5.46e-04	0	55	0	108003328	52	5752
2026-01-12 00:55:47.74	347.07	22.22	-40.4	-44.5	11.9	5.16e-04	0	55	0	110100480	52	5729
2026-01-12 00:55:48.75	346.88	22.32	-40.4	-44.3	12.3	1.86e-04	0	55	0	111149056	52	5612
2026-01-12 00:55:49.76	346.69	22.42	-40.5	-44.4	12.2	1.48e-04	0	55	0	113246208	52	5686
2026-01-12 00:55:50.77	346.49	22.52	-40.6	-44.5	12.2	2.05e-04	0	55	0	115343360	52	5738
2026-01-12 00:55:51.78	346.30	22.62	-40.6	-44.4	12.4	1.80e-04	0	55	0	117440512	52	5691
2026-01-12 00:55:52.79	346.10	22.73	-40.7	-44.4	12.5	1.22e-04	0	55	0	119537664	52	5716
2026-01-12 00:55:53.80	345.90	22.83	-40.8	-44.7	12.3	1.46e-04	0	55	0	120586240	52	5866
2026-01-12 00:55:54.81	345.70	22.93	-41.0	-45.0	12.0	2.82e-04	0	55	0	122683392	52	6118
2026-01-12 00:55:55.82	345.50	23.03	-41.0	-44.9	12.2	3.55e-04	0	55	0	124780544	52	6043
2026-01-12 00:55:56.83	345.29	23.13	-40.9	-44.6	12.6	1.29e-04	0	55	0	126877696	52	5827
2026-01-12 00:55:57.84	345.09	23.23	-40.9	-44.6	12.7	7.70e-05	0	55	0	128974848	52	5799
2026-01-12 00:55:58.85	344.88	23.33	-41.1	-44.8	12.6	7.40e-05	0	55	0	130023424	52	5965
2026-01-12 00:55:59.86	344.68	23.44	-41.2	-45.0	12.4	1.56e-04	0	55	0	132120576	53	5775
2026-01-12 00:56:00.86	344.47	23.54	-41.3	-45.0	12.4	1.60e-04	0	55	0	134217728	53	5787
2026-01-12 00:56:01.87	344.26	23.64	-41.3	-44.9	12.6	1.30e-04	0	56	0	136314880	53	5690
2026-01-12 00:56:02.88	344.05	23.74	-41.3	-44.9	12.7	6.40e-05	0	55	0	138412032	53	5714
2026-01-12 00:56:03.89	343.84	23.84	-41.4	-45.0	12.7	8.77e-05	0	55	0	139460608	53	5753
2026-01-12 00:56:04.90	343.62	23.94	-41.4	-44.9	12.7	8.08e-05	0	55	0	141557760	53	5718
2026-01-12 00:56:05.91	343.41	24.04	-41.3	-44.7	13.0	4.95e-05	0	56	0	143654912	53	5559
2026-01-12 00:56:06.92	343.19	24.15	-41.2	-44.6	13.1	3.73e-05	0	55	0	145752064	53	5511
2026-01-12 00:56:07.93	342.97	24.25	-41.2	-44.6	13.1	3.12e-05	0	55	0	147849216	53	5518
2026-01-12 00:56:08.94	342.75	24.35	-41.2	-44.6	13.2	3.12e-05	0	55	0	148897792	53	5490
2026-01-12 00:56:09.95	342.53	24.45	-41.2	-44.6	13.2	2.44e-05	0	55	0	150994944	53	5477
2026-01-12 00:56:10.96	342.31	24.55	-41.2	-44.6	13.3	1.98e-05	0	55	0	153092096	53	5465
2026-01-12 00:56:11.97	342.08	24.65	-41.2	-44.6	13.3	2.05e-05	0	55	0	155189248	53	5491
2026-01-12 00:56:12.98	341.86	24.75	-41.2	-44.6	13.3	1.83e-05	0	55	0	157286400	53	5500
2026-01-12 00:56:13.99	341.63	24.85	-41.2	-44.6	13.3	2.05e-05	0	55	0	158334976	53	5470
2026-01-12 00:56:15.00	341.40	24.95	-41.2	-44.5	13.4	1.14e-05	0	55	0	160432128	53	5458
2026-01-12 00:56:16.01	341.17	25.06	-41.2	-44.5	13.4	1.06e-05	0	55	0	162529280	53	5458
2026-01-12 00:56:17.02	340.94	25.16	-41.1	-44.3	13.6	5.30e-06	0	55	0	164626432	53	5337
2026-01-12 00:56:18.03	340.71	25.26	-41.0	-44.2	13.8	4.50e-06	0	55	0	166723584	53	5239
2026-01-12 00:56:19.04	340.47	25.36	-40.9	-43.9	14.1	4.50e-06	0	55	0	168820736	53	5069
2026-01-12 00:56:20.05	340.24	25.46	-40.9	-43.9	14.1	7.00e-07	0	55	0	169869312	53	5093
2026-01-12 00:56:21.06	340.00	25.56	-40.9	-43.8	14.2	1.50e-06	0	55	0	171966464	53	5027
2026-01-12 00:56:22.07	339.76	25.66	-40.9	-43.8	14.2	1.50e-06	0	55	0	174063616	53	5041
2026-01-12 00:56:23.08	339.52	25.76	-40.9	-43.9	14.1	3.00e-06	0	55	0	176160768	53	5075
2026-01-12 00:56:24.09	339.28	25.86	-40.9	-43.9	14.1	7.00e-07	0	55	0	178257920	53	5069
2026-01-12 00:56:25.10	339.03	25.95	-40.9	-43.9	14.1	7.00e-07	0	56	0	179306496	53	5093
2026-01-12 00:56:26.11	338.79	26.05	-40.9	-43.9	14.1	0.00e+00	0	55	0	181403648	53	5099
2026-01-12 00:56:27.12	338.54	26.15	-41.0	-44.0	14.1	2.20e-06	0	55	0	183500800	53	5108
2026-01-12 00:56:28.13	338.29	26.25	-40.9	-43.8	14.2	0.00e+00	0	55	0	185597952	53	5040
2026-01-12 00:56:29.14	338.04	26.35	-40.9	-43.9	14.2	7.00e-07	0	55	0	187695104	53	5051
2026-01-12 00:56:30.15	337.79	26.45	-40.8	-43.7	14.4	7.00e-07	0	55	0	188743680	53	4952
2026-01-12 00:56:31.16	337.54	26.54	-40.7	-43.5	14.6	0.00e+00	0	55	0	190840832	53	4851
2026-01-12 00:56:32.17	337.28	26.64	-40.7	-43.5	14.6	7.00e-07	0	55	0	192937984	53	4841
2026-01-12 00:56:33.18	337.03	26.74	-40.7	-43.5	14.6	0.00e+00	0	55	0	195035136	53	4867
2026-01-12 00:56:34.19	336.77	26.84	-40.8	-43.6	14.5	7.00e-07	0	56	0	197132288	53	4913
2026-01-12 00:56:35.20	336.51	26.93	-40.8	-43.7	14.4	1.50e-06	0	55	0	198180864	53	4969
2026-01-12 00:56:36.21	336.25	27.03	-41.0	-44.0	14.1	1.50e-06	0	55	0	200278016	53	5157
2026-01-12 00:56:37.22	335.99	27.13	-41.0	-44.0	14.1	7.00e-07	0	55	0	202375168	53	5155
2026-01-12 00:56:38.23	335.72	27.22	-40.9	-43.8	14.3	3.00e-06	0	55	0	204472320	53	5012
2026-01-12 00:56:39.24	335.46	27.32	-40.9	-43.8	14.4	0.00e+00	0	55	0	206569472	53	4984
2026-01-12 00:56:40.25	335.19	27.41	-40.7	-43.6	14.5	0.00e+00	0	55	0	207618048	53	4890
2026-01-12 00:56:41.26	334.92	27.51	-40.8	-43.7	14.4	0.00e+00	0	56	0	209715200	53	4959
2026-01-12 00:56:42.27	334.65	27.60	-40.9	-43.9	14.2	0.00e+00	0	56	0	211812352	53	5078
2026-01-12 00:56:43.28	334.38	27.69	-41.2	-44.3	13.9	2.20e-06	0	56	0	213909504	53	5287
2026-01-12 00:56:44.29	334.10	27.79	-41.3	-44.5	13.6	6.10e-06	0	56	0	216006656	53	5443
2026-01-12 00:56:45.30	333.83	27.88	-41.3	-44.5	13.6	5.30e-06	0	55	0	217055232	53	5460
2026-01-12 00:56:46.31	333.55	27.97	-41.4	-44.7	13.4	1.14e-05	0	56	0	219152384	53	5590
2026-01-12 00:56:47.31	333.28	28.06	-41.5	-44.9	13.2	1.90e-05	0	56	0	221249536	53	5693
2026-01-12 00:56:48.32	333.00	28.16	-41.7	-45.2	12.9	3.66e-05	0	55	0	223346688	53	5891
2026-01-12 00:56:49.33	332.71	28.25	-41.8	-45.4	12.7	5.87e-05	0	55	0	225443840	54	5712
2026-01-12 00:56:50.34	332.43	28.34	-41.9	-45.6	12.5	9.68e-05	0	56	0	226492416	54	5848
2026-01-12 00:56:51.35	332.14	28.43	-41.9	-45.6	12.6	1.17e-04	0	55	0	228589568	54	5794
2026-01-12 00:56:52.36	331.86	28.52	-42.0	-45.7	12.4	1.42e-04	0	56	0	230686720	54	5894
2026-01-12 00:56:53.37	331.57	28.61	-42.1	-45.9	12.2	1.66e-04	0	55	0	232783872	54	6032
2026-01-12 00:56:54.38	331.28	28.70	-42.3	-46.3	11.9	2.68e-04	0	55	0	234881024	55	5959
2026-01-12 00:56:55.39	330.99	28.78	-42.3	-46.4	11.7	5.64e-04	0	55	0	236978176	55	6023
2026-01-12 00:56:56.40	330.69	28.87	-42.4	-46.5	11.7	5.76e-04	0	56	0	238026752	55	6067
2026-01-12 00:56:57.41	330.40	28.96	-42.3	-46.4	11.7	4.52e-04	0	56	0	240123904	55	6028
2026-01-12 00:56:58.42	330.10	29.04	-42.3	-46.3	11.8	4.89e-04	0	56	0	242221056	55	5974
2026-01-12 00:56:59.43	329.80	29.13	-42.4	-46.5	11.6	5.62e-04	0	55	0	244318208	55	6086
2026-01-12 00:57:00.44	329.50	29.22	-42.4	-46.5	11.6	5.91e-04	0	55	0	246415360	55	6123
2026-01-12 00:57:01.45	329.20	29.30	-42.4	-46.5	11.6	6.25e-04	0	56	0	247463936	55	6083
2026-01-12 00:57:02.46	328.90	29.38	-42.3	-46.4	11.7	5.89e-04	0	56	0	249561088	55	6036
2026-01-12 00:57:03.47	328.60	29.47	-42.4	-46.6	11.6	5.62e-04	0	55	0	251658240	55	6178
2026-01-12 00:57:04.48	328.29	29.55	-42.5	-46.8	11.4	9.78e-04	0	55	0	253755392	55	6285
2026-01-12 00:57:05.49	327.98	29.63	-42.7	-47.1	11.0	1.70e-03	0	55	0	255852544	55	6545
2026-01-12 00:57:06.49	327.68	29.71	-43.0	-47.6	10.7	2.43e-03	0	55	0	256901120	56	6523
2026-01-12 00:57:07.50	327.36	29.79	-43.0	-47.7	10.6	3.32e-03	0	55	0	258998272	56	6606
2026-01-12 00:57:08.51	327.05	29.87	-42.9	-47.4	10.8	2.85e-03	0	55	0	261095424	56	6417
2026-01-12 00:57:09.52	326.74	29.95	-42.9	-47.3	11.0	2.34e-03	0	56	0	263192576	56	6341
2026-01-12 00:57:10.53	326.42	30.03	-42.8	-47.1	11.3	1.27e-03	0	56	0	265289728	56	6166
2026-01-12 00:57:11.54	326.11	30.11	-42.6	-46.8	11.5	9.83e-04	0	55	0	266338304	56	5971
2026-01-12 00:57:12.55	325.79	30.19	-42.5	-46.6	11.7	6.72e-04	0	56	0	268435456	56	5818
2026-01-12 00:57:13.56	325.47	30.26	-42.5	-46.6	11.7	5.67e-04	0	55	0	270532608	56	5831
2026-01-12 00:57:14.57	325.14	30.34	-42.5	-46.5	11.8	4.74e-04	0	56	0	272629760	56	5784
2026-01-12 00:57:15.58	324.82	30.41	-42.4	-46.3	11.9	4.06e-04	0	55	0	274726912	56	5655
2026-01-12 00:57:16.59	324.50	30.48	-42.5	-46.5	11.9	3.71e-04	0	55	0	275775488	56	5756
2026-01-12 00:57:17.60	324.17	30.56	-42.5	-46.5	11.9	4.52e-04	0	55	0	277872640	56	5730
2026-01-12 00:57:18.61	323.84	30.63	-42.4	-46.3	12.0	3.78e-04	0	56	0	279969792	56	5640
2026-01-12 00:57:19.62	323.51	30.70	-42.3	-46.2	12.1	2.82e-04	0	56	0	282066944	56	5572
2026-01-12 00:57:20.63	323.18	30.77	-42.3	-46.1	12.2	2.13e-04	0	56	0	284164096	56	5507
2026-01-12 00:57:21.64	322.85	30.84	-42.3	-46.1	12.3	2.10e-04	0	56	0	285212672	56	5523
2026-01-12 00:57:22.65	322.52	30.91	-42.3	-46.0	12.3	1.74e-04	0	56	0	287309824	56	5458
2026-01-12 00:57:23.65	322.19	30.97	-42.3	-46.1	12.3	1.76e-04	0	56	0	289406976	56	5476
2026-01-12 00:57:24.66	321.85	31.04	-42.2	-46.0	12.4	1.33e-04	0	56	0	291504128	56	5419
2026-01-12 00:57:25.67	321.51	31.11	-42.1	-45.8	12.6	1.23e-04	0	56	0	293601280	56	5320
2026-01-12 00:57:26.68	321.17	31.17	-42.0	-45.6	12.7	9.23e-05	0	55	0	294649856	56	5204
2026-01-12 00:57:27.69	320.83	31.23	-42.0	-45.6	12.8	6.33e-05	0	56	0	296747008	56	5163
2026-01-12 00:57:28.70	320.49	31.30	-42.1	-45.7	12.7	6.33e-05	0	56	0	298844160	56	5222
2026-01-12 00:57:29.72	320.14	31.36	-42.1	-45.7	12.7	7.01e-05	0	55	0	300941312	56	5241
2026-01-12 00:57:30.73	319.80	31.42	-42.1	-45.7	12.6	9.07e-05	0	56	0	303038464	56	5265
2026-01-12 00:57:31.74	319.45	31.48	-42.1	-45.8	12.6	1.16e-04	0	56	0	305135616	56	5304
2026-01-12 00:57:32.75	319.11	31.53	-42.1	-45.6	12.7	6.25e-05	0	56	0	306184192	56	5211
2026-01-12 00:57:33.76	318.76	31.59	-41.8	-45.4	12.9	7.78e-05	0	56	0	308281344	55	5359
2026-01-12 00:57:34.77	318.41	31.65	-41.9	-45.5	12.8	5.56e-05	0	56	0	310378496	55	5408
2026-01-12 00:57:35.78	318.06	31.70	-41.9	-45.6	12.7	6.25e-05	0	56	0	312475648	55	5466
2026-01-12 00:57:36.79	317.71	31.76	-42.0	-45.6	12.6	8.85e-05	0	56	0	314572800	55	5507
2026-01-12 00:57:37.80	317.35	31.81	-42.0	-45.7	12.5	1.33e-04	0	56	0	315621376	55	5588
2026-01-12 00:57:38.81	317.00	31.86	-42.1	-45.9	12.3	1.37e-04	0	56	0	317718528	55	5711
2026-01-12 00:57:39.82	316.64	31.91	-42.1	-45.8	12.4	1.76e-04	0	56	0	319815680	55	5617
2026-01-12 00:57:40.83	316.29	31.96	-42.1	-45.9	12.3	1.87e-04	0	56	0	321912832	55	5673
2026-01-12 00:57:41.84	315.93	32.01	-42.1	-45.9	12.3	1.94e-04	0	56	0	324009984	55	5682
2026-01-12 00:57:42.84	315.58	32.05	-42.1	-45.9	12.4	1.78e-04	0	56	0	325058560	55	5676
2026-01-12 00:57:43.85	315.22	32.10	-42.0	-45.8	12.4	1.72e-04	0	56	0	327155712	55	5612
2026-01-12 00:57:44.86	314.86	32.14	-41.9	-45.6	12.6	9.15e-05	0	56	0	329252864	55	5491
2026-01-12 00:57:45.87	314.49	32.19	-41.9	-45.6	12.7	8.77e-05	0	56	0	331350016	55	5468
2026-01-12 00:57:46.88	314.13	32.23	-41.8	-45.4	12.9	6.25e-05	0	56	0	333447168	55	5357
2026-01-12 00:57:47.90	313.76	32.27	-41.9	-45.5	12.7	4.95e-05	0	56	0	334495744	55	5453
2026-01-12 00:57:48.90	313.40	32.31	-41.9	-45.5	12.7	6.17e-05	0	55	0	336592896	55	5437
2026-01-12 00:57:49.91	313.04	32.35	-42.0	-45.7	12.6	8.69e-05	0	56	0	338690048	55	5565
2026-01-12 00:57:50.92	312.67	32.38	-42.0	-45.7	12.6	1.17e-04	0	56	0	340787200	55	5534
2026-01-12 00:57:51.93	312.31	32.42	-41.8	-45.3	12.9	6.94e-05	0	56	0	342884352	55	5323
2026-01-12 00:57:52.94	311.94	32.45	-41.7	-45.2	13.1	4.57e-05	0	56	0	343932928	55	5219
2026-01-12 00:57:53.96	311.57	32.49	-41.5	-44.7	13.5	1.90e-05	0	56	0	346030080	55	4973
2026-01-12 00:57:54.96	311.20	32.52	-41.3	-44.4	13.9	4.50e-06	0	56	0	348127232	54	5056
2026-01-12 00:57:55.97	310.83	32.55	-41.1	-44.0	14.3	3.00e-06	0	56	0	350224384	54	4826
2026-01-12 00:57:56.98	310.46	32.58	-41.1	-44.0	14.3	1.50e-06	0	56	0	352321536	54	4844
2026-01-12 00:57:57.99	310.09	32.61	-41.1	-44.1	14.2	0.00e+00	0	56	0	353370112	54	4875
2026-01-12 00:57:59.01	309.71	32.63	-41.1	-44.0	14.3	0.00e+00	0	56	0	355467264	54	4836
2026-01-12 00:58:00.01	309.34	32.66	-41.1	-44.2	14.1	7.00e-07	0	56	0	357564416	54	4930
2026-01-12 00:58:01.03	308.97	32.68	-41.4	-44.5	13.8	1.50e-06	0	56	0	359661568	54	5117
2026-01-12 00:58:02.03	308.60	32.70	-41.5	-44.7	13.6	6.80e-06	0	56	0	361758720	54	5257
2026-01-12 00:58:03.04	308.22	32.73	-41.6	-44.9	13.4	1.75e-05	0	56	0	362807296	54	5351
2026-01-12 00:58:04.05	307.85	32.75	-41.6	-44.9	13.3	1.06e-05	0	55	0	364904448	54	5401
2026-01-12 00:58:05.06	307.47	32.76	-41.6	-45.0	13.3	2.21e-05	0	56	0	367001600	54	5409
2026-01-12 00:58:06.07	307.10	32.78	-41.6	-44.9	13.2	2.67e-05	0	56	0	369098752	54	5400
2026-01-12 00:58:07.08	306.72	32.80	-41.7	-45.2	13.1	2.28e-05	0	56	0	371195904	54	5539
2026-01-12 00:58:08.09	306.34	32.81	-41.8	-45.3	13.0	2.59e-05	0	56	0	373293056	54	5630
2026-01-12 00:58:09.10	305.97	32.82	-41.8	-45.2	13.0	3.81e-05	0	56	0	374341632	54	5590
2026-01-12 00:58:10.11	305.59	32.83	-41.9	-45.4	12.8	5.79e-05	0	56	0	376438784	54	5717
2026-01-12 00:58:11.12	305.21	32.84	-41.9	-45.4	12.8	7.93e-05	0	56	0	378535936	54	5694
2026-01-12 00:58:12.13	304.84	32.85	-41.9	-45.5	12.6	7.70e-05	0	56	0	380633088	54	5783
2026-01-12 00:58:13.14	304.46	32.86	-42.0	-45.7	12.6	8.16e-05	0	56	0	382730240	54	5864
2026-01-12 00:58:14.15	304.08	32.87	-42.0	-45.6	12.5	9.68e-05	0	56	0	383778816	54	5854
2026-01-12 00:58:15.16	303.70	32.87	-42.1	-45.8	12.4	1.43e-04	0	56	0	385875968	54	5956
2026-01-12 00:58:16.17	303.33	32.87	-42.0	-45.7	12.5	1.58e-04	0	56	0	387973120	54	5922
2026-01-12 00:58:17.18	302.95	32.87	-42.0	-45.7	12.5	1.14e-04	0	56	0	390070272	54	5912
2026-01-12 00:58:18.19	302.57	32.87	-42.1	-45.8	12.4	1.40e-04	0	56	0	392167424	54	5949
2026-01-12 00:58:19.20	302.19	32.87	-42.1	-45.8	12.4	1.36e-04	0	56	0	393216000	54	5964
2026-01-12 00:58:20.21	301.81	32.87	-42.1	-45.9	12.3	1.41e-04	0	56	0	395313152	54	6013
2026-01-12 00:58:21.22	301.44	32.87	-42.1	-45.8	12.4	1.20e-04	0	56	0	397410304	54	5963
2026-01-12 00:58:22.23	301.06	32.86	-42.0	-45.7	12.5	1.81e-04	0	56	0	399507456	54	5865
2026-01-12 00:58:23.24	300.68	32.85	-41.9	-45.5	12.8	1.16e-04	0	56	0	401604608	54	5742
2026-01-12 00:58:24.24	300.31	32.84	-41.7	-45.2	13.0	4.65e-05	0	56	0	402653184	54	5538
2026-01-12 00:58:25.26	299.92	32.83	-41.7	-45.1	13.2	2.59e-05	0	56	0	404750336	54	5488
2026-01-12 00:58:26.27	299.55	32.82	-41.6	-44.9	13.3	1.52e-05	0	56	0	406847488	54	5369
2026-01-12 00:58:27.27	299.17	32.81	-41.6	-44.9	13.3	1.06e-05	0	56	0	408944640	54	5365
2026-01-12 00:58:28.28	298.80	32.80	-41.6	-44.9	13.3	1.98e-05	0	56	0	411041792	54	5356
2026-01-12 00:58:29.29	298.42	32.78	-41.6	-45.0	13.2	2.28e-05	0	56	0	412090368	54	5453
2026-01-12 00:58:30.30	298.05	32.76	-41.8	-45.3	13.0	3.58e-05	0	56	0	414187520	54	5593
2026-01-12 00:58:31.31	297.67	32.75	-42.0	-45.6	12.5	6.94e-05	0	56	0	416284672	54	5840
2026-01-12 00:58:32.32	297.30	32.73	-42.1	-45.9	12.3	1.50e-04	0	56	0	418381824	54	6044
2026-01-12 00:58:33.33	296.92	32.71	-42.2	-46.1	12.1	2.37e-04	0	56	0	420478976	55	5817
2026-01-12 00:58:34.34	296.55	32.68	-42.2	-46.1	12.1	2.86e-04	0	56	0	421527552	55	5791
2026-01-12 00:58:35.35	296.17	32.66	-42.1	-45.9	12.3	2.42e-04	0	56	0	423624704	55	5680
2026-01-12 00:58:36.36	295.80	32.64	-42.0	-45.7	12.5	1.53e-04	0	56	0	425721856	55	5578
2026-01-12 00:58:37.37	295.43	32.61	-41.9	-45.4	12.7	9.30e-05	0	56	0	427819008	55	5386
2026-01-12 00:58:38.38	295.06	32.58	-41.8	-45.4	12.9	5.34e-05	0	56	0	429916160	55	5353
2026-01-12 00:58:39.39	294.69	32.55	-41.8	-45.3	12.9	4.27e-05	0	56	0	430964736	55	5309
2026-01-12 00:58:40.39	294.32	32.52	-41.9	-45.5	12.8	7.62e-05	0	56	0	433061888	55	5405
2026-01-12 00:58:41.40	293.95	32.49	-42.0	-45.7	12.5	9.99e-05	0	56	0	435159040	55	5549
2026-01-12 00:58:42.41	293.58	32.46	-42.1	-45.8	12.4	1.53e-04	0	56	0	437256192	55	5624
2026-01-12 00:58:43.42	293.21	32.42	-42.1	-45.8	12.4	1.65e-04	0	56	0	439353344	55	5655
2026-01-12 00:58:44.43	292.84	32.39	-42.2	-46.1	12.1	2.14e-04	0	56	0	441450496	55	5794
2026-01-12 00:58:45.44	292.48	32.35	-42.2	-46.1	12.1	3.26e-04	0	56	0	442499072	55	5831
2026-01-12 00:58:46.45	292.11	32.31	-42.2	-46.2	11.9	3.31e-04	0	56	0	444596224	55	5896
2026-01-12 00:58:47.46	291.75	32.27	-42.1	-45.9	12.3	2.34e-04	0	56	0	446693376	55	5707
2026-01-12 00:58:48.47	291.38	32.23	-42.0	-45.7	12.4	1.71e-04	0	56	0	448790528	55	5558
2026-01-12 00:58:49.48	291.02	32.19	-41.9	-45.6	12.6	1.07e-04	0	56	0	450887680	55	5479
2026-01-12 00:58:50.49	290.66	32.15	-41.9	-45.5	12.6	9.23e-05	0	56	0	451936256	55	5461
2026-01-12 00:58:51.50	290.30	32.10	-41.9	-45.5	12.7	7.17e-05	0	56	0	454033408	55	5410
2026-01-12 00:58:52.51	289.94	32.06	-41.9	-45.4	12.7	8.23e-05	0	56	0	456130560	55	5401
2026-01-12 00:58:53.52	289.58	32.01	-42.0	-45.6	12.5	9.76e-05	0	56	0	458227712	55	5493
2026-01-12 00:58:54.53	289.22	31.96	-42.1	-45.9	12.2	1.45e-04	0	56	0	460324864	55	5706
2026-01-12 00:58:55.54	288.86	31.91	-42.1	-45.9	12.3	1.63e-04	0	56	0	461373440	55	5678
2026-01-12 00:58:56.55	288.51	31.86	-42.1	-46.0	12.2	1.91e-04	0	56	0	463470592	55	5728
2026-01-12 00:58:57.56	288.15	31.81	-42.1	-46.0	12.2	2.43e-04	0	56	0	465567744	55	5745
2026-01-12 00:58:58.56	287.80	31.76	-42.2	-46.0	12.1	2.67e-04	0	56	0	467664896	55	5778
2026-01-12 00:58:59.57	287.45	31.71	-42.2	-46.0	12.1	2.65e-04	0	56	0	469762048	55	5757
2026-01-12 00:59:00.58	287.10	31.65	-42.1	-45.9	12.3	2.02e-04	0	56	0	470810624	55	5670
2026-01-12 00:59:01.59	286.75	31.59	-42.1	-45.9	12.2	1.75e-04	0	56	0	472907776	55	5691
2026-01-12 00:59:02.60	286.40	31.54	-42.2	-46.0	12.1	2.14e-04	0	56	0	475004928	55	5763
2026-01-12 00:59:03.61	286.05	31.48	-42.2	-46.2	12.0	2.85e-04	0	56	0	477102080	55	5874
2026-01-12 00:59:04.62	285.70	31.42	-42.3	-46.3	11.8	4.97e-04	0	56	0	479199232	55	5932
2026-01-12 00:59:05.63	285.36	31.36	-42.3	-46.3	11.8	4.71e-04	0	56	0	480247808	55	5965
2026-01-12 00:59:06.64	285.01	31.30	-42.3	-46.3	11.8	4.44e-04	0	56	0	482344960	55	5951
2026-01-12 00:59:07.65	284.67	31.24	-42.2	-46.2	12.0	3.89e-04	0	56	0	484442112	55	5869
2026-01-12 00:59:08.66	284.33	31.17	-42.1	-46.0	12.2	2.27e-04	0	56	0	486539264	55	5742
2026-01-12 00:59:09.67	283.99	31.11	-41.9	-45.6	12.6	1.62e-04	0	56	0	488636416	55	5498
2026-01-12 00:59:10.68	283.65	31.04	-41.9	-45.5	12.6	1.02e-04	0	56	0	489684992	55	5444
2026-01-12 00:59:11.69	283.32	30.98	-42.1	-45.9	12.3	1.55e-04	0	56	0	491782144	55	5690
2026-01-12 00:59:12.70	282.98	30.91	-42.2	-46.1	12.0	3.20e-04	0	56	0	493879296	55	5836
2026-01-12 00:59:13.71	282.65	30.84	-42.3	-46.4	11.7	4.78e-04	0	56	0	495976448	55	6037
2026-01-12 00:59:14.72	282.31	30.77	-42.4	-46.6	11.5	7.70e-04	0	56	0	498073600	55	6140
2026-01-12 00:59:15.73	281.98	30.70	-42.4	-46.5	11.5	9.73e-04	0	56	0	499122176	55	6120
2026-01-12 00:59:16.74	281.65	30.63	-42.3	-46.4	11.7	7.03e-04	0	56	0	501219328	55	6031
2026-01-12 00:59:17.75	281.32	30.56	-42.3	-46.2	11.9	5.22e-04	0	56	0	503316480	55	5921
2026-01-12 00:59:18.76	280.99	30.49	-42.1	-45.9	12.2	3.04e-04	0	56	0	505413632	55	5719
2026-01-12 00:59:19.77	280.67	30.41	-42.1	-45.9	12.2	2.50e-04	0	56	0	507510784	55	5670
2026-01-12 00:59:20.78	280.34	30.34	-42.1	-45.9	12.2	2.23e-04	0	56	0	509607936	55	5717
2026-01-12 00:59:21.79	280.02	30.26	-42.2	-46.2	11.9	3.49e-04	0	56	0	510656512	55	5874
2026-01-12 00:59:22.80	279.70	30.19	-42.3	-46.4	11.7	5.18e-04	0	56	0	512753664	55	6014
2026-01-12 00:59:23.81	279.38	30.11	-42.3	-46.5	11.6	7.39e-04	0	56	0	514850816	55	6068
2026-01-12 00:59:24.82	279.06	30.03	-42.3	-46.4	11.7	5.78e-04	0	56	0	516947968	55	6001
2026-01-12 00:59:25.83	278.75	29.95	-42.2	-46.2	11.9	4.43e-04	0	56	0	519045120	55	5893
2026-01-12 00:59:26.84	278.43	29.87	-42.2	-46.0	12.1	3.70e-04	0	56	0	520093696	55	5778
2026-01-12 00:59:27.85	278.12	29.79	-42.1	-46.0	12.1	3.03e-04	0	56	0	522190848	55	5751
2026-01-12 00:59:28.86	277.81	29.71	-42.1	-46.0	12.1	2.74e-04	0	56	0	524288000	55	5744
2026-01-12 00:59:29.87	277.50	29.63	-42.1	-45.9	12.2	2.40e-04	0	56	0	526385152	55	5698
2026-01-12 00:59:30.88	277.19	29.55	-42.1	-45.8	12.2	2.07e-04	0	56	0	528482304	55	5649
2026-01-12 00:59:31.89	276.88	29.47	-42.0	-45.8	12.3	1.86e-04	0	56	0	529530880	55	5608
2026-01-12 00:59:32.90	276.57	29.38	-42.0	-45.7	12.4	1.54e-04	0	56	0	531628032	55	5573
2026-01-12 00:59:33.91	276.27	29.30	-41.9	-45.6	12.5	1.24e-04	0	56	0	533725184	55	5514
2026-01-12 00:59:34.92	275.97	29.21	-41.9	-45.5	12.6	9.84e-05	0	56	0	535822336	55	5455
2026-01-12 00:59:35.93	275.67	29.13	-42.0	-45.7	12.4	1.43e-04	0	56	0	537919488	55	5542
2026-01-12 00:59:36.94	275.37	29.04	-42.0	-45.7	12.4	1.36e-04	0	56	0	538968064	55	5563
2026-01-12 00:59:37.95	275.07	28.96	-41.9	-45.6	12.5	1.14e-04	0	56	0	541065216	55	5492
2026-01-12 00:59:38.96	274.77	28.87	-41.7	-45.2	12.9	9.15e-05	0	56	0	543162368	55	5236
2026-01-12 00:59:39.97	274.48	28.78	-41.6	-45.0	13.1	2.89e-05	0	56	0	545259520	55	5147
2026-01-12 00:59:40.98	274.19	28.69	-41.6	-44.9	13.2	2.51e-05	0	56	0	547356672	55	5065
2026-01-12 00:59:41.99	273.90	28.60	-41.6	-44.9	13.2	2.67e-05	0	56	0	548405248	55	5098
2026-01-12 00:59:43.00	273.61	28.51	-41.6	-45.0	13.2	2.89e-05	0	56	0	550502400	55	5105
2026-01-12 00:59:44.01	273.32	28.42	-41.7	-45.1	13.0	3.43e-05	0	56	0	552599552	55	5198
2026-01-12 00:59:45.02	273.03	28.33	-41.8	-45.3	12.8	6.25e-05	0	56	0	554696704	55	5301
2026-01-12 00:59:46.03	272.75	28.24	-41.9	-45.6	12.5	6.56e-05	0	56	0	556793856	55	5475
2026-01-12 00:59:47.04	272.46	28.15	-41.9	-45.5	12.6	1.33e-04	0	56	0	557842432	55	5449
2026-01-12 00:59:48.05	272.18	28.06	-42.0	-45.7	12.4	1.20e-04	0	56	0	559939584	55	5535
2026-01-12 00:59:49.06	271.90	27.97	-41.8	-45.4	12.7	1.03e-04	0	56	0	562036736	55	5373
2026-01-12 00:59:50.07	271.62	27.87	-41.6	-44.9	13.2	2.36e-05	0	56	0	564133888	55	5092
2026-01-12 00:59:51.08	271.35	27.78	-41.5	-44.8	13.4	1.44e-05	0	56	0	566231040	54	5305
2026-01-12 00:59:52.09	271.07	27.69	-41.4	-44.7	13.4	1.44e-05	0	56	0	567279616	54	5243
2026-01-12 00:59:53.10	270.80	27.59	-41.4	-44.6	13.5	1.83e-05	0	56	0	569376768	54	5195
2026-01-12 00:59:54.11	270.53	27.50	-41.3	-44.5	13.6	1.22e-05	0	56	0	571473920	54	5152
2026-01-12 00:59:55.11	270.26	27.40	-41.3	-44.5	13.6	6.80e-06	0	56	0	573571072	54	5114
2026-01-12 00:59:56.12	269.99	27.31	-41.3	-44.5	13.5	1.06e-05	0	56	0	575668224	54	5138
2026-01-12 00:59:57.13	269.73	27.21	-41.4	-44.7	13.4	1.37e-05	0	56	0	577765376	54	5259
2026-01-12 00:59:58.15	269.46	27.12	-41.4	-44.7	13.4	6.80e-06	0	56	0	578813952	54	5255
2026-01-12 00:59:59.16	269.19	27.02	-41.5	-44.8	13.3	2.44e-05	0	56	0	580911104	54	5295
2026-01-12 01:00:00.16	268.93	26.92	-41.3	-44.5	13.6	6.10e-06	0	56	0	583008256	54	5123
2026-01-12 01:00:01.17	268.67	26.83	-41.3	-44.5	13.6	3.80e-06	0	56	0	585105408	54	5113
2026-01-12 01:00:02.18	268.42	26.73	-41.2	-44.4	13.7	5.30e-06	0	56	0	587202560	54	5051
2026-01-12 01:00:03.19	268.16	26.63	-41.2	-44.3	13.8	5.30e-06	0	56	0	588251136	54	5008
2026-01-12 01:00:04.20	267.90	26.53	-41.2	-44.3	13.8	3.00e-06	0	56	0	590348288	54	5005
2026-01-12 01:00:05.21	267.65	26.44	-41.2	-44.3	13.8	3.00e-06	0	56	0	592445440	54	4997
2026-01-12 01:00:06.22	267.40	26.34	-41.1	-44.1	14.0	1.50e-06	0	56	0	594542592	54	4902
2026-01-12 01:00:07.23	267.14	26.24	-41.0	-44.0	14.1	3.80e-06	0	56	0	596639744	54	4847
2026-01-12 01:00:08.24	266.89	26.14	-40.9	-43.9	14.1	2.20e-06	0	56	0	597688320	53	5080
2026-01-12 01:00:09.25	266.65	26.04	-40.9	-43.9	14.2	2.20e-06	0	56	0	599785472	53	5042
2026-01-12 01:00:10.26	266.40	25.94	-40.7	-43.6	14.5	7.00e-07	0	56	0	601882624	53	4883
2026-01-12 01:00:11.27	266.16	25.84	-40.6	-43.4	14.7	0.00e+00	0	56	0	603979776	53	4785
2026-01-12 01:00:12.28	265.91	25.74	-40.4	-43.1	15.0	0.00e+00	0	56	0	606076928	52	4894
2026-01-12 01:00:13.29	265.67	25.64	-40.3	-42.9	15.2	0.00e+00	0	56	0	607125504	52	4804
2026-01-12 01:00:14.30	265.43	25.54	-40.3	-42.9	15.2	0.00e+00	0	56	0	609222656	52	4768
2026-01-12 01:00:15.31	265.19	25.44	-40.3	-42.8	15.3	0.00e+00	0	56	0	611319808	52	4731
2026-01-12 01:00:16.32	264.95	25.34	-40.1	-42.6	15.5	0.00e+00	0	56	0	613416960	52	4640
2026-01-12 01:00:17.33	264.72	25.24	-40.1	-42.5	15.6	0.00e+00	0	56	0	615514112	52	4595
2026-01-12 01:00:18.34	264.48	25.14	-40.0	-42.4	15.7	0.00e+00	0	56	0	616562688	51	4806
2026-01-12 01:00:19.35	264.25	25.04	-39.9	-42.3	15.9	0.00e+00	0	56	0	618659840	51	4708
2026-01-12 01:00:20.36	264.02	24.94	-39.9	-42.2	16.0	0.00e+00	0	56	0	620756992	51	4675
2026-01-12 01:00:21.37	263.79	24.84	-39.8	-42.1	16.0	0.00e+00	0	56	0	622854144	51	4634
2026-01-12 01:00:22.38	263.56	24.74	-39.8	-42.1	16.1	0.00e+00	0	56	0	624951296	51	4620
2026-01-12 01:00:23.39	263.34	24.63	-39.7	-42.0	16.2	0.00e+00	0	56	0	625999872	51	4550
2026-01-12 01:00:24.40	263.11	24.53	-39.7	-41.9	16.2	0.00e+00	0	56	0	628097024	51	4534
2026-01-12 01:00:25.41	262.89	24.43	-39.7	-42.0	16.2	0.00e+00	0	56	0	630194176	51	4556
2026-01-12 01:00:26.42	262.67	24.33	-39.6	-41.9	16.3	0.00e+00	0	56	0	632291328	51	4519
2026-01-12 01:00:27.43	262.44	24.23	-39.6	-41.9	16.3	0.00e+00	0	56	0	634388480	51	4514
2026-01-12 01:00:28.44	262.22	24.13	-39.5	-41.8	16.4	0.00e+00	0	56	0	635437056	51	4445
2026-01-12 01:00:29.45	262.01	24.02	-39.6	-41.8	16.4	0.00e+00	0	56	0	637534208	51	4461
2026-01-12 01:00:30.47	261.79	23.92	-39.4	-41.6	16.5	0.00e+00	0	56	0	639631360	50	4638
2026-01-12 01:00:31.47	261.58	23.82	-39.4	-41.6	16.6	0.00e+00	0	56	0	641728512	50	4617
2026-01-12 01:00:32.48	261.36	23.72	-39.3	-41.5	16.7	0.00e+00	0	56	0	643825664	50	4556
2026-01-12 01:00:33.49	261.15	23.62	-39.3	-41.4	16.7	0.00e+00	0	56	0	645922816	50	4540
2026-01-12 01:00:34.50	260.94	23.51	-39.3	-41.4	16.8	0.00e+00	0	56	0	646971392	50	4510
2026-01-12 01:00:35.51	260.73	23.41	-39.2	-41.3	16.8	0.00e+00	0	56	0	649068544	50	4468
2026-01-12 01:00:36.52	260.52	23.31	-39.1	-41.2	17.0	0.00e+00	0	56	0	651165696	50	4394
2026-01-12 01:00:37.54	260.31	23.21	-39.1	-41.2	16.9	0.00e+00	0	56	0	653262848	50	4418
2026-01-12 01:00:38.55	260.11	23.11	-39.1	-41.1	17.0	0.00e+00	0	56	0	655360000	50	4368
2026-01-12 01:00:39.56	259.90	23.00	-39.0	-41.1	17.1	0.00e+00	0	56	0	656408576	50	4357
2026-01-12 01:00:40.57	259.70	22.90	-39.1	-41.2	17.0	0.00e+00	0	56	0	658505728	50	4402
2026-01-12 01:00:41.58	259.50	22.80	-39.1	-41.2	17.0	0.00e+00	0	56	0	660602880	50	4399
2026-01-12 01:00:42.59	259.30	22.70	-39.1	-41.2	16.9	0.00e+00	0	56	0	662700032	50	4440
2026-01-12 01:00:43.60	259.10	22.60	-39.1	-41.2	16.9	0.00e+00	0	56	0	664797184	50	4427
2026-01-12 01:00:44.61	258.90	22.49	-39.2	-41.3	16.9	0.00e+00	0	56	0	665845760	50	4442
2026-01-12 01:00:45.62	258.70	22.39	-39.1	-41.2	16.9	0.00e+00	0	56	0	667942912	50	4419
2026-01-12 01:00:46.63	258.51	22.29	-39.2	-41.3	16.9	0.00e+00	0	56	0	670040064	50	4451
2026-01-12 01:00:47.64	258.32	22.19	-39.2	-41.3	16.8	0.00e+00	0	56	0	672137216	50	4465
2026-01-12 01:00:48.65	258.12	22.09	-39.3	-41.4	16.6	0.00e+00	0	56	0	674234368	50	4545
2026-01-12 01:00:49.66	257.93	21.99	-39.4	-41.5	16.6	0.00e+00	0	56	0	675282944	50	4592
2026-01-12 01:00:50.66	257.74	21.88	-39.4	-41.7	16.5	0.00e+00	0	56	0	677380096	50	4653
2026-01-12 01:00:51.67	257.56	21.78	-39.6	-41.8	16.3	0.00e+00	0	56	0	679477248	50	4750
2026-01-12 01:00:52.68	257.37	21.68	-39.6	-41.9	16.2	0.00e+00	0	56	0	681574400	50	4773
2026-01-12 01:00:53.69	257.18	21.58	-39.7	-42.0	16.1	0.00e+00	0	56	0	683671552	50	4821
2026-01-12 01:00:54.70	257.00	21.48	-39.7	-42.0	16.1	0.00e+00	0	56	0	684720128	50	4821
2026-01-12 01:00:55.71	256.81	21.38	-39.6	-41.8	16.2	0.00e+00	0	56	0	686817280	50	4759
2026-01-12 01:00:56.72	256.63	21.28	-39.5	-41.7	16.4	0.00e+00	0	56	0	688914432	50	4673
2026-01-12 01:00:57.73	256.45	21.18	-39.5	-41.8	16.3	0.00e+00	0	56	0	691011584	50	4707
2026-01-12 01:00:58.74	256.27	21.07	-39.5	-41.7	16.4	0.00e+00	0	56	0	693108736	50	4671
2026-01-12 01:00:59.75	256.09	20.97	-39.5	-41.7	16.4	0.00e+00	0	56	0	694157312	50	4695
2026-01-12 01:01:00.76	255.91	20.87	-39.5	-41.8	16.3	0.00e+00	0	56	0	696254464	50	4730
2026-01-12 01:01:01.77	255.74	20.77	-39.7	-42.0	16.1	0.00e+00	0	56	0	698351616	50	4824
2026-01-12 01:01:02.78	255.56	20.67	-39.8	-42.1	15.9	0.00e+00	0	56	0	700448768	50	4921
2026-01-12 01:01:03.79	255.39	20.57	-39.9	-42.3	15.8	0.00e+00	0	56	0	702545920	50	5008
2026-01-12 01:01:04.80	255.21	20.47	-40.0	-42.4	15.6	0.00e+00	0	56	0	703594496	50	5098
2026-01-12 01:01:05.81	255.04	20.37	-40.0	-42.5	15.6	7.00e-07	0	56	0	705691648	50	5102
2026-01-12 01:01:06.82	254.87	20.27	-40.0	-42.5	15.5	0.00e+00	0	56	0	707788800	50	5130
2026-01-12 01:01:07.82	254.70	20.17	-40.0	-42.5	15.6	0.00e+00	0	56	0	709885952	50	5114
2026-01-12 01:01:08.83	254.53	20.07	-40.0	-42.5	15.6	0.00e+00	0	56	0	711983104	50	5108
2026-01-12 01:01:09.84	254.37	19.97	-40.0	-42.5	15.6	0.00e+00	0	56	0	714080256	50	5104
2026-01-12 01:01:10.86	254.20	19.87	-40.0	-42.5	15.5	0.00e+00	0	56	0	715128832	50	5127
2026-01-12 01:01:11.87	254.03	19.77	-40.1	-42.6	15.5	0.00e+00	0	56	0	717225984	50	5166
2026-01-12 01:01:12.87	253.87	19.68	-40.1	-42.7	15.3	0.00e+00	0	56	0	719323136	50	5240
2026-01-12 01:01:13.88	253.71	19.58	-40.2	-42.8	15.2	0.00e+00	0	57	0	721420288	51	5012
2026-01-12 01:01:14.89	253.54	19.48	-40.4	-43.0	15.0	0.00e+00	0	56	0	723517440	51	5159
2026-01-12 01:01:15.90	253.38	19.38	-40.4	-43.0	15.0	0.00e+00	0	56	0	724566016	51	5132
2026-01-12 01:01:16.91	253.22	19.28	-40.3	-43.0	15.0	0.00e+00	0	56	0	726663168	51	5119
2026-01-12 01:01:17.92	253.06	19.18	-40.3	-42.8	15.1	7.00e-07	0	56	0	728760320	51	5037
2026-01-12 01:01:18.93	252.91	19.08	-40.2	-42.8	15.2	0.00e+00	0	56	0	730857472	51	4995
2026-01-12 01:01:19.94	252.75	18.99	-40.1	-42.7	15.3	0.00e+00	0	56	0	732954624	51	4951
2026-01-12 01:01:20.95	252.59	18.89	-40.1	-42.7	15.3	0.00e+00	0	56	0	734003200	51	4933
2026-01-12 01:01:21.96	252.44	18.79	-40.2	-42.7	15.3	0.00e+00	0	56	0	736100352	51	4957
2026-01-12 01:01:22.97	252.28	18.69	-40.2	-42.8	15.2	0.00e+00	0	56	0	738197504	51	4994
2026-01-12 01:01:23.98	252.13	18.60	-40.2	-42.9	15.1	0.00e+00	0	56	0	740294656	51	5054
2026-01-12 01:01:24.99	251.98	18.50	-40.4	-43.1	14.9	0.00e+00	0	57	0	742391808	51	5190
2026-01-12 01:01:26.00	251.83	18.40	-40.4	-43.1	14.9	0.00e+00	0	56	0	743440384	51	5186
2026-01-12 01:01:27.01	251.68	18.30	-40.5	-43.2	14.8	0.00e+00	0	56	0	745537536	51	5262
2026-01-12 01:01:28.02	251.53	18.21	-40.5	-43.2	14.7	1.50e-06	0	56	0	747634688	51	5277
2026-01-12 01:01:29.03	251.38	18.11	-40.5	-43.3	14.7	0.00e+00	0	56	0	749731840	51	5296
2026-01-12 01:01:30.04	251.23	18.02	-40.5	-43.2	14.7	0.00e+00	0	56	0	751828992	51	5252
2026-01-12 01:01:31.05	251.09	17.92	-40.4	-43.2	14.8	0.00e+00	0	56	0	752877568	51	5232
2026-01-12 01:01:32.06	250.94	17.82	-40.3	-43.0	14.9	0.00e+00	0	56	0	754974720	51	5124
2026-01-12 01:01:33.07	250.80	17.73	-40.3	-43.0	15.0	0.00e+00	0	56	0	757071872	51	5123
2026-01-12 01:01:34.08	250.65	17.63	-40.3	-43.0	15.0	0.00e+00	0	56	0	759169024	51	5107
2026-01-12 01:01:35.09	250.51	17.54	-40.4	-43.1	14.9	0.00e+00	0	56	0	761266176	51	5183
2026-01-12 01:01:36.10	250.37	17.44	-40.5	-43.2	14.7	0.00e+00	0	56	0	762314752	51	5264
2026-01-12 01:01:37.11	250.23	17.35	-40.6	-43.4	14.6	0.00e+00	0	56	0	764411904	51	5357
2026-01-12 01:01:38.12	250.09	17.25	-40.7	-43.6	14.4	1.50e-06	0	56	0	766509056	51	5491
2026-01-12 01:01:39.13	249.95	17.16	-40.7	-43.6	14.2	0.00e+00	0	56	0	768606208	52	5217
2026-01-12 01:01:40.14	249.81	17.06	-40.8	-43.8	14.1	1.50e-06	0	57	0	770703360	52	5300
2026-01-12 01:01:41.15	249.68	16.97	-40.8	-43.8	14.0	1.50e-06	0	56	0	771751936	52	5322
2026-01-12 01:01:42.16	249.54	16.87	-40.7	-43.7	14.1	3.00e-06	0	56	0	773849088	52	5266
2026-01-12 01:01:43.17	249.40	16.78	-40.7	-43.6	14.2	7.00e-07	0	56	0	775946240	52	5216
2026-01-12 01:01:44.18	249.27	16.69	-40.6	-43.5	14.3	0.00e+00	0	56	0	778043392	52	5131
2026-01-12 01:01:45.19	249.14	16.59	-40.6	-43.5	14.4	2.20e-06	0	56	0	780140544	52	5109
2026-01-12 01:01:46.20	249.00	16.50	-40.5	-43.4	14.4	1.50e-06	0	56	0	782237696	52	5063
2026-01-12 01:01:47.21	248.87	16.41	-40.6	-43.6	14.3	0.00e+00	0	56	0	783286272	52	5160
2026-01-12 01:01:48.22	248.74	16.31	-40.6	-43.5	14.4	1.50e-06	0	56	0	785383424	52	5115
2026-01-12 01:01:49.23	248.61	16.22	-40.6	-43.5	14.3	7.00e-07	0	56	0	787480576	52	5152
2026-01-12 01:01:50.24	248.48	16.13	-40.7	-43.7	14.1	1.50e-06	0	56	0	789577728	52	5236
2026-01-12 01:01:51.25	248.35	16.04	-40.8	-43.8	14.0	3.80e-06	0	56	0	791674880	52	5332
2026-01-12 01:01:52.26	248.22	15.94	-40.9	-44.0	13.8	5.30e-06	0	56	0	792723456	52	5424
2026-01-12 01:01:53.27	248.10	15.85	-41.0	-44.1	13.6	7.60e-06	0	56	0	794820608	52	5512
2026-01-12 01:01:54.28	247.97	15.76	-41.0	-44.2	13.6	5.30e-06	0	56	0	796917760	52	5591
2026-01-12 01:01:55.29	247.84	15.67	-41.1	-44.3	13.5	1.06e-05	0	56	0	799014912	52	5616
2026-01-12 01:01:56.29	247.72	15.58	-41.0	-44.2	13.6	1.14e-05	0	56	0	801112064	52	5557
2026-01-12 01:01:57.30	247.60	15.49	-40.9	-44.1	13.7	8.30e-06	0	56	0	802160640	52	5479
2026-01-12 01:01:58.31	247.47	15.40	-40.9	-44.1	13.7	6.80e-06	0	56	0	804257792	52	5481
2026-01-12 01:01:59.32	247.35	15.31	-40.9	-44.0	13.8	9.10e-06	0	56	0	806354944	52	5406
2026-01-12 01:02:00.33	247.23	15.22	-40.8	-43.9	13.9	2.20e-06	0	56	0	808452096	52	5349
2026-01-12 01:02:01.34	247.11	15.13	-40.8	-43.9	13.9	4.50e-06	0	56	0	810549248	52	5355
2026-01-12 01:02:02.35	246.99	15.04	-40.8	-43.9	13.9	1.50e-06	0	56	0	811597824	52	5370
2026-01-12 01:02:03.36	246.87	14.95	-40.9	-44.0	13.8	5.30e-06	0	56	0	813694976	52	5426
2026-01-12 01:02:04.37	246.75	14.86	-41.0	-44.1	13.6	6.10e-06	0	56	0	815792128	52	5513
2026-01-12 01:02:05.38	246.63	14.77	-41.0	-44.2	13.6	6.10e-06	0	56	0	817889280	52	5552
2026-01-12 01:02:06.39	246.51	14.68	-41.1	-44.3	13.4	6.80e-06	0	56	0	819986432	52	5643
2026-01-12 01:02:07.40	246.40	14.59	-41.1	-44.5	13.3	1.29e-05	0	56	0	821035008	52	5726
2026-01-12 01:02:08.41	246.28	14.50	-41.2	-44.5	13.2	2.13e-05	0	56	0	823132160	52	5783
2026-01-12 01:02:09.42	246.17	14.41	-41.2	-44.6	13.1	2.36e-05	0	56	0	825229312	53	5492
2026-01-12 01:02:10.43	246.05	14.32	-41.2	-44.6	13.1	2.97e-05	0	56	0	827326464	53	5496
2026-01-12 01:02:11.44	245.94	14.23	-41.1	-44.4	13.3	2.28e-05	0	56	0	829423616	53	5387
2026-01-12 01:02:12.45	245.82	14.15	-41.1	-44.4	13.3	2.05e-05	0	56	0	830472192	53	5375
2026-01-12 01:02:13.46	245.71	14.06	-41.0	-44.3	13.4	1.67e-05	0	56	0	832569344	53	5281
2026-01-12 01:02:14.47	245.60	13.97	-41.0	-44.2	13.5	6.80e-06	0	56	0	834666496	53	5255
2026-01-12 01:02:15.48	245.49	13.88	-40.9	-44.0	13.7	1.37e-05	0	56	0	836763648	53	5140
2026-01-12 01:02:16.49	245.38	13.80	-40.9	-44.0	13.7	5.30e-06	0	56	0	838860800	53	5115
2026-01-12 01:02:17.50	245.27	13.71	-40.8	-43.9	13.8	7.60e-06	0	56	0	839909376	53	5064
2026-01-12 01:02:18.51	245.16	13.62	-40.8	-43.9	13.8	7.60e-06	0	56	0	842006528	53	5078
2026-01-12 01:02:19.52	245.05	13.54	-40.8	-44.0	13.7	7.60e-06	0	56	0	844103680	53	5112
2026-01-12 01:02:20.53	244.94	13.45	-40.9	-44.1	13.5	6.10e-06	0	56	0	846200832	53	5203
2026-01-12 01:02:21.54	244.84	13.36	-41.0	-44.2	13.5	8.30e-06	0	56	0	848297984	53	5241
2026-01-12 01:02:22.55	244.73	13.28	-41.1	-44.4	13.3	1.83e-05	0	56	0	850395136	53	5371
2026-01-12 01:02:23.56	244.62	13.19	-41.2	-44.6	13.1	2.51e-05	0	56	0	851443712	53	5488
2026-01-12 01:02:24.57	244.52	13.11	-41.3	-44.7	12.9	3.28e-05	0	56	0	853540864	53	5579
2026-01-12 01:02:25.58	244.41	13.02	-41.3	-44.9	12.8	4.57e-05	0	56	0	855638016	53	5668
2026-01-12 01:02:26.59	244.31	12.94	-41.3	-44.9	12.8	6.86e-05	0	56	0	857735168	53	5679
2026-01-12 01:02:27.60	244.20	12.85	-41.3	-44.9	12.7	8.01e-05	0	56	0	859832320	53	5682
2026-01-12 01:02:28.61	244.10	12.77	-41.3	-44.9	12.8	7.24e-05	0	56	0	860880896	53	5669
2026-01-12 01:02:29.62	244.00	12.68	-41.3	-44.8	12.8	4.73e-05	0	56	0	862978048	53	5618
2026-01-12 01:02:30.62	243.90	12.60	-41.2	-44.7	12.9	4.57e-05	0	56	0	865075200	53	5582
2026-01-12 01:02:31.63	243.80	12.51	-41.2	-44.6	13.0	3.89e-05	0	56	0	867172352	53	5522
2026-01-12 01:02:32.64	243.70	12.43	-41.2	-44.6	13.0	4.19e-05	0	56	0	869269504	53	5518
2026-01-12 01:02:33.65	243.60	12.35	-41.1	-44.5	13.1	4.57e-05	0	56	0	870318080	53	5456
2026-01-12 01:02:34.66	243.50	12.26	-41.1	-44.5	13.1	2.97e-05	0	56	0	872415232	53	5418
2026-01-12 01:02:35.67	243.40	12.18	-41.2	-44.6	13.0	3.28e-05	0	56	0	874512384	53	5490
2026-01-12 01:02:36.68	243.30	12.10	-41.2	-44.6	13.0	3.43e-05	0	56	0	876609536	53	5518
2026-01-12 01:02:37.69	243.20	12.01	-41.2	-44.7	12.9	4.88e-05	0	56	0	878706688	53	5589
2026-01-12 01:02:38.70	243.11	11.93	-41.3	-44.8	12.8	5.41e-05	0	56	0	879755264	53	5633
2026-01-12 01:02:39.71	243.01	11.85	-41.3	-44.9	12.7	6.79e-05	0	56	0	881852416	53	5681
2026-01-12 01:02:40.72	242.91	11.77	-41.3	-45.0	12.6	8.69e-05	0	56	0	883949568	53	5732
2026-01-12 01:02:41.73	242.82	11.68	-41.4	-45.1	12.5	9.76e-05	0	56	0	886046720	53	5808
2026-01-12 01:02:42.74	242.72	11.60	-41.4	-45.2	12.4	1.52e-04	0	56	0	888143872	53	5860
2026-01-12 01:02:43.75	242.63	11.52	-41.5	-45.3	12.2	2.26e-04	0	56	0	889192448	53	5970
2026-01-12 01:02:44.76	242.54	11.44	-41.6	-45.4	12.1	2.20e-04	0	56	0	891289600	53	6041
2026-01-12 01:02:45.77	242.44	11.36	-41.6	-45.4	12.1	2.35e-04	0	56	0	893386752	53	6056
2026-01-12 01:02:46.78	242.35	11.28	-41.6	-45.4	12.1	2.51e-04	0	56	0	895483904	53	6044
2026-01-12 01:02:47.79	242.26	11.20	-41.5	-45.3	12.2	2.41e-04	0	56	0	897581056	53	5973
2026-01-12 01:02:48.80	242.16	11.11	-41.5	-45.3	12.2	1.99e-04	0	56	0	898629632	53	5947
2026-01-12 01:02:49.81	242.07	11.03	-41.4	-45.2	12.3	1.94e-04	0	56	0	900726784	53	5904
2026-01-12 01:02:50.82	241.98	10.95	-41.5	-45.2	12.3	1.82e-04	0	57	0	902823936	53	5916
2026-01-12 01:02:51.83	241.89	10.87	-41.4	-45.2	12.3	1.94e-04	0	56	0	904921088	53	5862
2026-01-12 01:02:52.84	241.80	10.79	-41.4	-45.1	12.4	1.32e-04	0	57	0	907018240	53	5813
2026-01-12 01:02:53.85	241.71	10.71	-41.4	-45.1	12.4	1.30e-04	0	56	0	908066816	53	5826
2026-01-12 01:02:54.86	241.63	10.63	-41.4	-45.1	12.4	1.40e-04	0	56	0	910163968	53	5812
2026-01-12 01:02:55.87	241.54	10.55	-41.4	-45.0	12.4	1.12e-04	0	56	0	912261120	53	5782
2026-01-12 01:02:56.88	241.45	10.48	-41.4	-45.1	12.4	1.33e-04	0	56	0	914358272	53	5847
2026-01-12 01:02:57.89	241.36	10.40	-41.4	-45.1	12.4	1.27e-04	0	56	0	916455424	53	5811
2026-01-12 01:02:58.90	241.28	10.32	-41.4	-45.1	12.3	1.52e-04	0	56	0	918552576	53	5846
2026-01-12 01:02:59.91	241.19	10.24	-41.4	-45.1	12.3	1.75e-04	0	56	0	919601152	53	5831
2026-01-12 01:03:00.92	241.10	10.16	-41.4	-45.2	12.3	1.72e-04	0	57	0	921698304	53	5872
2026-01-12 01:03:01.93	241.02	10.08	-41.4	-45.2	12.3	1.94e-04	0	56	0	923795456	53	5874
2026-01-12 01:03:02.94	240.93	10.00	-41.4	-45.3	12.2	1.87e-04	0	57	0	925892608	53	5936
2026-01-12 01:03:03.94	240.85	9.93	-41.4	-45.2	12.2	2.19e-04	0	56	0	927989760	53	5922
2026-01-12 01:03:04.96	240.76	9.85	-41.4	-45.2	12.2	2.15e-04	0	56	0	929038336	53	5896
2026-01-12 01:03:05.97	240.68	9.77	-41.5	-45.3	12.1	2.32e-04	0	56	0	931135488	53	5948
2026-01-12 01:03:06.98	240.60	9.69	-41.5	-45.3	12.1	2.56e-04	0	56	0	933232640	53	5970
2026-01-12 01:03:07.99	240.52	9.62	-41.4	-45.3	12.2	2.43e-04	0	56	0	935329792	53	5924
2026-01-12 01:03:09.00	240.43	9.54	-41.5	-45.4	12.0	2.89e-04	0	56	0	937426944	53	5997
2026-01-12 01:03:10.01	240.35	9.46	-41.5	-45.3	12.1	3.05e-04	0	56	0	938475520	53	5978
2026-01-12 01:03:11.01	240.27	9.39	-41.5	-45.4	12.0	3.03e-04	0	56	0	940572672	53	6047
2026-01-12 01:03:12.02	240.19	9.31	-41.6	-45.5	11.8	4.02e-04	0	56	0	942669824	53	6125
2026-01-12 01:03:13.03	240.11	9.23	-41.6	-45.6	11.7	4.58e-04	0	56	0	944766976	53	6187
2026-01-12 01:03:14.04	240.03	9.16	-41.6	-45.6	11.8	5.63e-04	0	56	0	946864128	53	6137
2026-01-12 01:03:15.05	239.95	9.08	-41.6	-45.6	11.8	5.34e-04	0	56	0	947912704	53	6157
2026-01-12 01:03:16.07	239.87	9.00	-41.6	-45.6	11.7	5.89e-04	0	56	0	950009856	53	6183
2026-01-12 01:03:17.07	239.79	8.93	-41.7	-45.8	11.5	6.59e-04	0	56	0	952107008	53	6302
2026-01-12 01:03:18.09	239.71	8.85	-41.7	-45.9	11.4	1.02e-03	0	56	0	954204160	54	6047
2026-01-12 01:03:19.09	239.64	8.78	-41.8	-46.0	11.3	1.10e-03	0	56	0	956301312	54	6111
