passes_logs/2026/01/12/R2.0S_Moscow/R2.0S_Moscow__20260112_000106_NOAA_21_JPSS-2_rec.log

#Pass ID: 20260112_000106_NOAA 21 (JPSS-2)
#Satellite: NOAA 21 (JPSS-2)
#Configuration: NOAA-21
#almurnet v.1.7.20251203
#Start time: 2026-01-12 00:02:18

#Version: 2.2.20231116
#Station: R2.0S_Moscow
#Location: 37.707566 lon 55.798166 lat
#TLE: 1 54234U 22150A   26011.27699114  .00000090  00000+0  63771-4 0  9993
#TLE: 2 54234  98.7494 312.2218 0000765 314.9553  45.1561 14.19534106164285

#Time	Az	El	Level	Level2	SNR	BER	BlckErr	Temp	State	Recorded	gain1	gain2
2026-01-12 00:02:18.91	13.62	7.06	-44.9	-56.6	3.8	8.46e-01	0	57	0	0	60	14705
2026-01-12 00:02:19.92	13.60	7.14	-45.4	-57.9	3.8	1.49e+00	0	57	104	0	62	15111
2026-01-12 00:02:20.93	13.58	7.21	-45.4	-57.8	3.8	1.49e+00	0	57	104	0	62	15002
2026-01-12 00:02:21.94	13.57	7.29	-45.3	-57.8	3.8	1.49e+00	0	57	104	0	62	14960
2026-01-12 00:02:22.96	13.55	7.37	-45.3	-57.7	3.8	1.49e+00	0	57	104	0	62	14799
2026-01-12 00:02:23.96	13.53	7.45	-45.2	-57.6	3.8	1.49e+00	0	57	104	0	62	14558
2026-01-12 00:02:24.98	13.51	7.53	-45.0	-57.4	3.8	1.49e+00	0	57	104	0	62	14307
2026-01-12 00:02:25.99	13.49	7.61	-44.7	-57.1	3.8	1.49e+00	0	57	104	0	61	14589
2026-01-12 00:02:27.00	13.47	7.69	-44.0	-56.1	3.8	1.49e+00	0	57	104	0	60	13806
2026-01-12 00:02:28.01	13.45	7.76	-43.7	-55.4	3.8	1.49e+00	0	57	104	0	59	13563
2026-01-12 00:02:29.02	13.43	7.84	-43.7	-55.5	3.8	1.49e+00	0	57	104	0	59	13581
2026-01-12 00:02:30.03	13.42	7.92	-43.7	-55.6	3.8	1.49e+00	0	57	104	0	59	13728
2026-01-12 00:02:31.04	13.40	8.00	-43.7	-55.7	3.8	1.49e+00	0	57	104	0	59	13935
2026-01-12 00:02:32.05	13.38	8.08	-43.7	-55.8	3.8	1.49e+00	0	57	104	0	59	14079
2026-01-12 00:02:33.06	13.36	8.16	-43.7	-55.7	3.8	1.49e+00	0	57	104	0	59	13916
2026-01-12 00:02:34.08	13.34	8.25	-43.7	-55.5	3.8	1.49e+00	0	57	104	0	59	13588
2026-01-12 00:02:35.09	13.32	8.33	-43.7	-55.2	3.8	1.49e+00	0	57	104	0	59	13200
2026-01-12 00:02:36.10	13.30	8.41	-43.6	-55.1	3.8	1.49e+00	0	57	104	0	59	13061
2026-01-12 00:02:37.11	13.28	8.49	-43.6	-55.1	3.8	1.49e+00	0	57	104	0	59	13002
2026-01-12 00:02:38.12	13.26	8.57	-43.6	-54.9	3.8	1.49e+00	0	57	104	0	59	12750
2026-01-12 00:02:39.13	13.24	8.65	-43.6	-54.7	3.8	1.49e+00	0	57	104	0	59	12504
2026-01-12 00:02:40.14	13.21	8.74	-43.5	-54.3	3.8	1.49e+00	0	57	104	0	59	11940
2026-01-12 00:02:41.15	13.19	8.82	-43.5	-54.0	3.8	1.49e+00	0	57	104	0	59	11514
2026-01-12 00:02:42.16	13.17	8.90	-43.5	-53.5	3.9	1.48e+00	0	57	104	0	58	11441
2026-01-12 00:02:43.17	13.15	8.98	-43.4	-53.6	3.9	1.48e+00	0	57	104	0	58	11582
2026-01-12 00:02:44.18	13.13	9.07	-43.4	-52.7	4.1	1.47e+00	0	57	104	0	58	10446
2026-01-12 00:02:45.19	13.11	9.15	-43.3	-52.7	3.9	1.47e+00	0	57	104	0	58	10450
2026-01-12 00:02:46.20	13.09	9.23	-43.2	-51.7	4.4	1.44e+00	0	57	104	0	58	9377
2026-01-12 00:02:47.21	13.07	9.32	-43.2	-52.2	3.9	1.35e+00	1	57	104	0	58	9834
2026-01-12 00:02:48.22	13.04	9.40	-43.3	-52.0	4.3	1.45e+00	0	57	104	0	58	9625
2026-01-12 00:02:49.23	13.02	9.49	-43.3	-52.9	3.9	1.44e+00	0	57	104	0	58	10736
2026-01-12 00:02:50.24	13.00	9.57	-43.4	-53.2	4.0	1.48e+00	0	57	104	0	58	11058
2026-01-12 00:02:51.25	12.98	9.66	-43.5	-54.2	3.8	1.48e+00	0	57	104	0	58	12499
2026-01-12 00:02:52.26	12.96	9.74	-43.6	-54.9	3.8	1.49e+00	0	57	104	0	58	13415
2026-01-12 00:02:53.27	12.93	9.83	-43.7	-55.4	3.8	1.49e+00	0	57	104	0	58	14251
2026-01-12 00:02:54.28	12.91	9.92	-43.7	-55.5	3.8	1.49e+00	0	57	104	0	58	14495
2026-01-12 00:02:55.29	12.89	10.00	-43.6	-54.9	3.8	1.49e+00	0	57	104	0	58	13502
2026-01-12 00:02:56.30	12.86	10.09	-43.4	-52.8	4.1	1.48e+00	0	58	104	0	58	10626
2026-01-12 00:02:57.32	12.84	10.18	-43.0	-50.5	4.9	1.17e+00	2	57	104	0	58	8136
2026-01-12 00:02:58.33	12.82	10.26	-42.5	-48.5	6.2	3.24e-01	0	57	0	2097152	57	6877
2026-01-12 00:02:59.34	12.79	10.35	-42.0	-47.1	7.6	1.40e-01	0	57	0	5242880	56	6150
2026-01-12 00:03:00.35	12.77	10.44	-41.3	-45.6	8.9	4.01e-02	0	57	0	8388608	54	5803
2026-01-12 00:03:01.36	12.75	10.53	-40.8	-44.5	10.0	1.03e-02	0	57	0	11534336	53	5435
2026-01-12 00:03:02.36	12.72	10.62	-40.4	-43.7	10.9	2.73e-03	0	57	0	14680064	52	5221
2026-01-12 00:03:03.37	12.70	10.71	-40.0	-43.1	11.5	8.18e-04	0	57	0	17825792	52	4874
2026-01-12 00:03:04.38	12.67	10.79	-39.8	-42.6	12.1	2.95e-04	0	57	0	20971520	51	4894
2026-01-12 00:03:05.39	12.65	10.88	-39.5	-42.1	12.6	1.17e-04	0	57	0	24117248	51	4638
2026-01-12 00:03:06.40	12.62	10.97	-39.3	-41.8	12.9	4.27e-05	0	57	0	27262976	50	4727
2026-01-12 00:03:07.41	12.60	11.06	-39.1	-41.6	13.2	1.90e-05	0	57	0	30408704	50	4605
2026-01-12 00:03:08.42	12.57	11.15	-38.9	-41.2	13.5	1.44e-05	0	57	0	33554432	49	4699
2026-01-12 00:03:09.43	12.55	11.25	-38.8	-41.2	13.6	1.22e-05	0	57	0	36700160	49	4666
2026-01-12 00:03:10.44	12.52	11.34	-38.8	-41.2	13.5	5.30e-06	0	57	0	39845888	49	4675
2026-01-12 00:03:11.46	12.50	11.43	-39.0	-41.4	13.4	1.44e-05	0	57	0	42991616	49	4762
2026-01-12 00:03:12.47	12.47	11.52	-39.2	-41.6	13.1	3.20e-05	0	57	0	46137344	49	4922
2026-01-12 00:03:13.48	12.45	11.61	-39.1	-41.5	13.3	5.95e-05	0	57	0	49283072	49	4859
2026-01-12 00:03:14.49	12.42	11.71	-39.4	-42.0	13.0	9.10e-06	0	57	0	52428800	49	5103
2026-01-12 00:03:15.50	12.39	11.80	-39.4	-41.9	12.9	2.82e-03	0	57	0	55574528	50	4795
2026-01-12 00:03:16.51	12.37	11.89	-39.6	-42.3	12.3	1.12e-02	0	57	0	58720256	51	4748
2026-01-12 00:03:17.52	12.34	11.99	-39.4	-41.9	13.2	1.83e-05	0	57	0	61865984	49	5056
2026-01-12 00:03:18.53	12.31	12.08	-40.8	-44.3	10.0	4.48e-01	0	57	0	62914560	53	5336
2026-01-12 00:03:19.54	12.29	12.17	-38.7	-40.8	14.2	7.00e-07	0	57	0	66060288	49	4465
2026-01-12 00:03:20.55	12.26	12.27	-38.6	-40.6	14.4	2.20e-06	0	57	0	69206016	49	4389
2026-01-12 00:03:21.55	12.23	12.36	-38.5	-40.6	14.4	0.00e+00	0	57	0	72351744	49	4363
2026-01-12 00:03:22.56	12.20	12.46	-38.5	-40.5	14.5	1.50e-06	0	57	0	75497472	49	4337
2026-01-12 00:03:23.57	12.17	12.55	-38.5	-40.6	14.6	7.00e-07	0	57	0	78643200	48	4614
2026-01-12 00:03:24.59	12.15	12.65	-38.5	-40.5	14.7	0.00e+00	0	57	0	81788928	48	4581
2026-01-12 00:03:25.59	12.12	12.75	-38.6	-40.6	14.6	0.00e+00	0	57	0	84934656	48	4615
2026-01-12 00:03:26.60	12.09	12.84	-38.6	-40.6	14.7	0.00e+00	0	57	0	88080384	48	4599
2026-01-12 00:03:27.62	12.06	12.94	-38.5	-40.5	14.7	0.00e+00	0	57	0	91226112	48	4581
2026-01-12 00:03:28.62	12.03	13.04	-38.5	-40.5	14.8	0.00e+00	0	57	0	94371840	48	4565
2026-01-12 00:03:29.63	12.00	13.14	-38.5	-40.4	14.8	7.00e-07	0	57	0	97517568	48	4531
2026-01-12 00:03:30.64	11.97	13.23	-38.5	-40.5	14.8	7.00e-07	0	57	0	100663296	48	4553
2026-01-12 00:03:31.65	11.94	13.33	-38.5	-40.5	14.8	0.00e+00	0	57	0	103809024	48	4575
2026-01-12 00:03:32.66	11.91	13.43	-38.5	-40.5	14.8	0.00e+00	0	57	0	106954752	48	4556
2026-01-12 00:03:33.67	11.88	13.53	-38.6	-40.6	14.6	7.00e-07	0	57	0	110100480	48	4636
2026-01-12 00:03:34.68	11.85	13.63	-38.6	-40.6	14.7	0.00e+00	0	57	0	113246208	48	4607
2026-01-12 00:03:35.69	11.82	13.73	-38.6	-40.6	14.7	0.00e+00	0	57	0	116391936	48	4602
2026-01-12 00:03:36.70	11.79	13.83	-38.4	-40.4	14.9	0.00e+00	0	57	0	119537664	48	4509
2026-01-12 00:03:37.71	11.76	13.93	-38.4	-40.3	15.0	0.00e+00	0	57	0	122683392	48	4476
2026-01-12 00:03:38.72	11.73	14.04	-38.4	-40.4	14.9	0.00e+00	0	57	0	125829120	48	4507
2026-01-12 00:03:39.73	11.70	14.14	-38.6	-40.6	14.8	0.00e+00	0	57	0	128974848	48	4605
2026-01-12 00:03:40.75	11.66	14.24	-38.5	-40.5	14.8	0.00e+00	0	57	0	132120576	48	4574
2026-01-12 00:03:41.76	11.63	14.34	-38.6	-40.5	14.8	0.00e+00	0	57	0	135266304	48	4594
2026-01-12 00:03:42.77	11.60	14.45	-38.6	-40.5	14.8	7.00e-07	0	57	0	138412032	48	4594
2026-01-12 00:03:43.78	11.57	14.55	-38.6	-40.5	14.8	0.00e+00	0	57	0	141557760	48	4584
2026-01-12 00:03:44.79	11.53	14.66	-38.6	-40.5	14.9	0.00e+00	0	57	0	144703488	48	4593
2026-01-12 00:03:45.80	11.50	14.76	-38.6	-40.5	14.9	0.00e+00	0	57	0	147849216	48	4576
2026-01-12 00:03:46.81	11.47	14.87	-38.6	-40.5	14.9	7.00e-07	0	57	0	150994944	48	4573
2026-01-12 00:03:47.82	11.43	14.97	-38.6	-40.6	14.8	0.00e+00	0	57	0	154140672	48	4616
2026-01-12 00:03:48.83	11.40	15.08	-38.6	-40.5	14.9	0.00e+00	0	57	0	157286400	48	4597
2026-01-12 00:03:49.84	11.37	15.18	-38.6	-40.5	15.0	0.00e+00	0	57	0	160432128	48	4581
2026-01-12 00:03:50.85	11.33	15.29	-38.6	-40.5	15.0	0.00e+00	0	57	0	163577856	48	4585
2026-01-12 00:03:51.85	11.30	15.40	-38.6	-40.6	14.9	0.00e+00	0	57	0	166723584	48	4609
2026-01-12 00:03:52.86	11.26	15.50	-38.6	-40.5	15.0	7.00e-07	0	58	0	169869312	48	4588
2026-01-12 00:03:53.87	11.23	15.61	-38.6	-40.6	14.9	0.00e+00	0	57	0	173015040	48	4612
2026-01-12 00:03:54.89	11.19	15.72	-38.5	-40.4	15.1	0.00e+00	0	57	0	176160768	48	4537
2026-01-12 00:03:55.89	11.15	15.83	-38.6	-40.5	15.1	0.00e+00	0	57	0	179306496	48	4554
2026-01-12 00:03:56.90	11.12	15.94	-38.5	-40.4	15.2	0.00e+00	0	57	0	182452224	48	4523
2026-01-12 00:03:57.91	11.08	16.05	-38.5	-40.4	15.2	0.00e+00	0	57	0	185597952	48	4510
2026-01-12 00:03:58.92	11.05	16.16	-38.5	-40.4	15.2	0.00e+00	0	57	0	188743680	48	4511
2026-01-12 00:03:59.93	11.01	16.27	-38.5	-40.4	15.2	0.00e+00	0	57	0	191889408	48	4513
2026-01-12 00:04:00.94	10.97	16.38	-38.5	-40.3	15.3	0.00e+00	0	57	0	195035136	48	4491
2026-01-12 00:04:01.95	10.93	16.50	-38.5	-40.4	15.2	0.00e+00	0	57	0	198180864	48	4523
2026-01-12 00:04:02.96	10.89	16.61	-38.5	-40.3	15.3	0.00e+00	0	57	0	201326592	48	4487
2026-01-12 00:04:03.97	10.86	16.72	-38.5	-40.4	15.2	0.00e+00	0	57	0	204472320	48	4529
2026-01-12 00:04:04.98	10.82	16.84	-38.5	-40.4	15.3	0.00e+00	0	57	0	207618048	48	4506
2026-01-12 00:04:05.99	10.78	16.95	-38.5	-40.4	15.3	0.00e+00	0	57	0	210763776	48	4496
2026-01-12 00:04:07.01	10.74	17.07	-38.5	-40.3	15.3	0.00e+00	0	57	0	213909504	48	4473
2026-01-12 00:04:08.01	10.70	17.18	-38.5	-40.3	15.3	0.00e+00	0	57	0	217055232	48	4488
2026-01-12 00:04:09.02	10.66	17.29	-38.5	-40.3	15.3	0.00e+00	0	57	0	220200960	48	4483
2026-01-12 00:04:10.03	10.62	17.41	-38.5	-40.4	15.3	0.00e+00	0	57	0	223346688	48	4505
2026-01-12 00:04:11.04	10.58	17.53	-38.5	-40.3	15.4	0.00e+00	0	57	0	226492416	48	4471
2026-01-12 00:04:12.06	10.54	17.65	-38.5	-40.4	15.3	0.00e+00	0	57	0	229638144	48	4495
2026-01-12 00:04:13.07	10.50	17.76	-38.5	-40.3	15.4	0.00e+00	0	57	0	232783872	48	4485
2026-01-12 00:04:14.08	10.45	17.88	-38.5	-40.3	15.4	0.00e+00	0	57	0	235929600	48	4466
2026-01-12 00:04:15.09	10.41	18.00	-38.5	-40.3	15.3	0.00e+00	0	57	0	239075328	48	4488
2026-01-12 00:04:16.10	10.37	18.12	-38.5	-40.4	15.3	0.00e+00	0	57	0	242221056	48	4508
2026-01-12 00:04:17.11	10.33	18.24	-38.5	-40.3	15.4	0.00e+00	0	57	0	245366784	48	4473
2026-01-12 00:04:18.12	10.28	18.36	-38.5	-40.4	15.3	0.00e+00	0	57	0	248512512	48	4509
2026-01-12 00:04:19.13	10.24	18.48	-38.5	-40.3	15.4	0.00e+00	0	57	0	251658240	48	4475
2026-01-12 00:04:20.13	10.20	18.60	-38.5	-40.4	15.4	0.00e+00	0	57	0	254803968	48	4496
2026-01-12 00:04:21.14	10.15	18.73	-38.5	-40.3	15.4	0.00e+00	0	57	0	257949696	48	4462
2026-01-12 00:04:22.15	10.11	18.85	-38.5	-40.3	15.5	0.00e+00	0	57	0	261095424	48	4442
2026-01-12 00:04:23.16	10.06	18.97	-38.5	-40.3	15.5	0.00e+00	0	57	0	264241152	48	4454
2026-01-12 00:04:24.17	10.02	19.10	-38.5	-40.3	15.4	0.00e+00	0	57	0	267386880	48	4475
2026-01-12 00:04:25.19	9.97	19.22	-38.4	-40.2	15.6	0.00e+00	0	57	0	270532608	48	4409
2026-01-12 00:04:26.20	9.92	19.35	-38.4	-40.2	15.5	0.00e+00	0	57	0	273678336	48	4431
2026-01-12 00:04:27.21	9.88	19.48	-38.4	-40.2	15.6	0.00e+00	0	57	0	276824064	48	4404
2026-01-12 00:04:28.22	9.83	19.60	-38.4	-40.2	15.6	0.00e+00	0	57	0	279969792	48	4412
2026-01-12 00:04:29.23	9.78	19.73	-38.3	-40.1	15.7	0.00e+00	0	57	0	283115520	48	4370
2026-01-12 00:04:30.24	9.74	19.86	-38.3	-40.1	15.7	0.00e+00	0	57	0	286261248	48	4353
2026-01-12 00:04:31.24	9.69	19.99	-38.3	-40.1	15.7	0.00e+00	0	57	0	289406976	48	4365
2026-01-12 00:04:32.25	9.64	20.11	-38.3	-40.1	15.7	0.00e+00	0	57	0	292552704	48	4367
2026-01-12 00:04:33.26	9.59	20.24	-38.2	-40.0	15.8	0.00e+00	0	57	0	295698432	48	4307
2026-01-12 00:04:34.27	9.54	20.37	-38.2	-39.9	15.8	0.00e+00	0	57	0	298844160	48	4287
2026-01-12 00:04:35.28	9.49	20.51	-38.2	-39.9	15.9	0.00e+00	0	57	0	301989888	48	4265
2026-01-12 00:04:36.29	9.44	20.64	-38.2	-39.9	15.9	0.00e+00	0	57	0	305135616	48	4257
2026-01-12 00:04:37.30	9.39	20.77	-38.1	-39.8	16.0	0.00e+00	0	57	0	308281344	48	4201
2026-01-12 00:04:38.31	9.34	20.90	-38.0	-39.7	16.1	0.00e+00	0	57	0	311427072	48	4179
2026-01-12 00:04:39.32	9.28	21.04	-37.9	-39.6	16.2	0.00e+00	0	57	0	314572800	47	4362
2026-01-12 00:04:40.33	9.23	21.17	-37.9	-39.6	16.2	0.00e+00	0	57	0	317718528	47	4360
2026-01-12 00:04:41.34	9.18	21.31	-37.8	-39.5	16.3	0.00e+00	0	57	0	320864256	47	4295
2026-01-12 00:04:42.35	9.12	21.44	-37.7	-39.4	16.4	0.00e+00	0	57	0	324009984	47	4252
2026-01-12 00:04:43.36	9.07	21.58	-37.7	-39.3	16.4	0.00e+00	0	57	0	328204288	47	4220
2026-01-12 00:04:44.37	9.02	21.72	-37.6	-39.2	16.5	0.00e+00	0	57	0	330301440	47	4183
2026-01-12 00:04:45.39	8.96	21.86	-37.5	-39.1	16.6	0.00e+00	0	57	0	333447168	47	4127
2026-01-12 00:04:46.40	8.90	22.00	-37.5	-39.1	16.6	0.00e+00	0	57	0	336592896	47	4120
2026-01-12 00:04:47.41	8.85	22.14	-37.5	-39.0	16.7	0.00e+00	0	57	0	339738624	46	4330
2026-01-12 00:04:48.42	8.79	22.28	-37.4	-38.9	16.8	0.00e+00	0	57	0	343932928	46	4286
2026-01-12 00:04:49.43	8.73	22.42	-37.3	-38.9	16.9	0.00e+00	0	57	0	347078656	46	4260
2026-01-12 00:04:50.44	8.68	22.56	-37.3	-38.8	16.9	0.00e+00	0	57	0	350224384	46	4242
2026-01-12 00:04:51.45	8.62	22.70	-37.3	-38.8	16.9	0.00e+00	0	57	0	352321536	46	4228
2026-01-12 00:04:52.46	8.56	22.85	-37.2	-38.7	17.0	0.00e+00	0	57	0	355467264	46	4185
2026-01-12 00:04:53.47	8.50	22.99	-37.1	-38.6	17.1	0.00e+00	0	57	0	359661568	46	4136
2026-01-12 00:04:54.48	8.44	23.13	-37.1	-38.6	17.2	0.00e+00	0	57	0	362807296	46	4114
2026-01-12 00:04:55.49	8.38	23.28	-37.1	-38.5	17.2	0.00e+00	0	57	0	365953024	46	4095
2026-01-12 00:04:56.50	8.32	23.43	-37.0	-38.5	17.2	0.00e+00	0	57	0	369098752	46	4079
2026-01-12 00:04:57.51	8.25	23.57	-36.9	-38.4	17.3	0.00e+00	0	57	0	372244480	45	4273
2026-01-12 00:04:58.52	8.19	23.72	-37.0	-38.4	17.3	0.00e+00	0	57	0	375390208	45	4286
2026-01-12 00:04:59.53	8.13	23.87	-36.9	-38.4	17.3	0.00e+00	0	57	0	378535936	45	4266
2026-01-12 00:05:00.54	8.06	24.02	-36.9	-38.4	17.3	0.00e+00	0	57	0	381681664	45	4262
2026-01-12 00:05:01.55	8.00	24.17	-36.9	-38.4	17.3	0.00e+00	0	57	0	384827392	45	4275
2026-01-12 00:05:02.56	7.93	24.32	-36.9	-38.4	17.3	0.00e+00	0	57	0	387973120	45	4267
2026-01-12 00:05:03.57	7.87	24.47	-37.0	-38.4	17.3	0.00e+00	0	57	0	391118848	45	4291
2026-01-12 00:05:04.58	7.80	24.63	-37.0	-38.5	17.2	0.00e+00	0	57	0	394264576	45	4318
2026-01-12 00:05:05.59	7.74	24.78	-37.1	-38.6	17.2	0.00e+00	0	57	0	397410304	45	4351
2026-01-12 00:05:06.60	7.67	24.94	-37.1	-38.6	17.1	0.00e+00	0	57	0	400556032	45	4386
2026-01-12 00:05:07.61	7.60	25.09	-37.2	-38.7	17.0	0.00e+00	0	57	0	403701760	45	4441
2026-01-12 00:05:08.62	7.53	25.25	-37.3	-38.8	17.0	0.00e+00	0	57	0	406847488	45	4456
2026-01-12 00:05:09.63	7.46	25.41	-37.3	-38.8	16.9	0.00e+00	0	57	0	409993216	45	4489
2026-01-12 00:05:10.63	7.39	25.56	-37.4	-38.9	16.8	0.00e+00	0	57	0	413138944	45	4531
2026-01-12 00:05:11.64	7.32	25.72	-37.5	-39.0	16.7	0.00e+00	0	57	0	416284672	45	4586
2026-01-12 00:05:12.65	7.25	25.88	-37.5	-39.1	16.6	0.00e+00	0	57	0	419430400	45	4635
2026-01-12 00:05:13.66	7.17	26.04	-37.6	-39.2	16.5	0.00e+00	0	57	0	422576128	45	4691
2026-01-12 00:05:14.67	7.10	26.21	-37.7	-39.3	16.5	0.00e+00	0	57	0	425721856	45	4716
2026-01-12 00:05:15.68	7.02	26.37	-37.8	-39.5	16.3	0.00e+00	0	57	0	428867584	46	4546
2026-01-12 00:05:16.69	6.95	26.53	-37.8	-39.5	16.4	0.00e+00	0	57	0	432013312	46	4555
2026-01-12 00:05:17.70	6.87	26.70	-37.9	-39.5	16.3	0.00e+00	0	57	0	435159040	46	4586
2026-01-12 00:05:18.71	6.79	26.86	-37.9	-39.5	16.3	0.00e+00	0	57	0	438304768	46	4592
2026-01-12 00:05:19.72	6.72	27.03	-38.0	-39.7	16.2	0.00e+00	0	57	0	441450496	46	4652
2026-01-12 00:05:20.73	6.64	27.20	-37.9	-39.6	16.2	0.00e+00	0	57	0	444596224	46	4631
2026-01-12 00:05:21.74	6.56	27.37	-38.0	-39.6	16.2	0.00e+00	0	57	0	447741952	46	4637
2026-01-12 00:05:22.75	6.48	27.54	-38.0	-39.7	16.1	0.00e+00	0	57	0	450887680	46	4671
2026-01-12 00:05:23.76	6.40	27.71	-38.0	-39.7	16.1	0.00e+00	0	57	0	454033408	46	4682
2026-01-12 00:05:24.77	6.31	27.88	-38.0	-39.7	16.1	0.00e+00	0	58	0	457179136	46	4688
2026-01-12 00:05:25.78	6.23	28.05	-38.0	-39.7	16.1	0.00e+00	0	57	0	460324864	46	4687
2026-01-12 00:05:26.79	6.15	28.22	-38.0	-39.7	16.1	0.00e+00	0	57	0	463470592	46	4675
2026-01-12 00:05:27.80	6.06	28.40	-38.1	-39.8	16.1	0.00e+00	0	57	0	466616320	46	4716
2026-01-12 00:05:28.81	5.97	28.57	-38.2	-39.9	16.0	0.00e+00	0	57	0	469762048	46	4781
2026-01-12 00:05:29.82	5.89	28.75	-38.2	-39.9	16.0	0.00e+00	0	57	0	472907776	47	4531
2026-01-12 00:05:30.83	5.80	28.93	-38.3	-40.0	15.9	0.00e+00	0	57	0	476053504	47	4584
2026-01-12 00:05:31.84	5.71	29.11	-38.4	-40.1	15.8	0.00e+00	0	57	0	479199232	47	4634
2026-01-12 00:05:32.85	5.62	29.29	-38.4	-40.1	15.8	0.00e+00	0	57	0	482344960	47	4643
2026-01-12 00:05:33.86	5.53	29.47	-38.3	-40.1	15.8	0.00e+00	0	57	0	485490688	47	4625
2026-01-12 00:05:34.87	5.43	29.65	-38.3	-40.1	15.8	0.00e+00	0	57	0	488636416	47	4625
2026-01-12 00:05:35.87	5.34	29.83	-38.2	-40.0	15.9	0.00e+00	0	57	0	491782144	47	4566
2026-01-12 00:05:36.88	5.25	30.02	-38.2	-39.9	16.0	0.00e+00	0	57	0	494927872	47	4529
2026-01-12 00:05:37.89	5.15	30.20	-38.1	-39.8	16.1	0.00e+00	0	57	0	498073600	47	4476
2026-01-12 00:05:38.91	5.05	30.39	-38.1	-39.8	16.1	0.00e+00	0	57	0	501219328	47	4475
2026-01-12 00:05:39.91	4.96	30.57	-38.1	-39.8	16.1	0.00e+00	0	57	0	504365056	47	4455
2026-01-12 00:05:40.92	4.86	30.76	-38.1	-39.8	16.2	0.00e+00	0	57	0	507510784	47	4445
2026-01-12 00:05:41.93	4.76	30.95	-38.0	-39.7	16.2	0.00e+00	0	57	0	510656512	47	4431
2026-01-12 00:05:42.94	4.66	31.14	-38.0	-39.7	16.3	0.00e+00	0	57	0	513802240	47	4397
2026-01-12 00:05:43.95	4.55	31.34	-38.0	-39.7	16.2	0.00e+00	0	57	0	516947968	47	4418
2026-01-12 00:05:44.96	4.45	31.53	-38.1	-39.8	16.1	0.00e+00	0	57	0	520093696	47	4454
2026-01-12 00:05:45.97	4.34	31.72	-38.1	-39.8	16.2	0.00e+00	0	57	0	523239424	47	4456
2026-01-12 00:05:46.98	4.24	31.92	-38.2	-39.9	16.0	0.00e+00	0	57	0	526385152	47	4519
2026-01-12 00:05:47.99	4.13	32.12	-38.2	-40.0	16.0	0.00e+00	0	57	0	529530880	47	4560
2026-01-12 00:05:49.00	4.02	32.31	-38.3	-40.0	15.9	0.00e+00	0	57	0	532676608	47	4586
2026-01-12 00:05:50.01	3.91	32.51	-38.3	-40.1	15.9	0.00e+00	0	57	0	535822336	47	4620
2026-01-12 00:05:51.03	3.79	32.72	-38.3	-40.1	15.8	0.00e+00	0	57	0	538968064	47	4619
2026-01-12 00:05:52.03	3.68	32.92	-38.4	-40.2	15.8	0.00e+00	0	57	0	542113792	47	4664
2026-01-12 00:05:53.04	3.56	33.12	-38.5	-40.3	15.6	0.00e+00	0	57	0	545259520	47	4739
2026-01-12 00:05:54.05	3.45	33.32	-38.5	-40.3	15.6	0.00e+00	0	57	0	548405248	47	4751
2026-01-12 00:05:55.06	3.33	33.53	-38.7	-40.5	15.5	0.00e+00	0	57	0	551550976	47	4842
2026-01-12 00:05:56.07	3.21	33.73	-38.7	-40.5	15.5	0.00e+00	0	57	0	554696704	47	4843
2026-01-12 00:05:57.09	3.09	33.94	-38.8	-40.6	15.5	0.00e+00	0	57	0	557842432	48	4634
2026-01-12 00:05:58.10	2.96	34.15	-38.8	-40.6	15.5	0.00e+00	0	57	0	560988160	48	4613
2026-01-12 00:05:59.11	2.84	34.36	-38.8	-40.6	15.5	0.00e+00	0	57	0	564133888	48	4634
2026-01-12 00:06:00.12	2.71	34.58	-38.9	-40.7	15.4	0.00e+00	0	57	0	567279616	48	4690
2026-01-12 00:06:01.13	2.58	34.79	-39.0	-40.8	15.3	0.00e+00	0	57	0	570425344	48	4759
2026-01-12 00:06:02.14	2.45	35.00	-39.1	-41.0	15.1	0.00e+00	0	57	0	573571072	48	4837
2026-01-12 00:06:03.15	2.32	35.22	-39.3	-41.2	14.8	7.00e-07	0	57	0	576716800	49	4703
2026-01-12 00:06:04.16	2.19	35.43	-39.4	-41.4	14.8	7.00e-07	0	57	0	579862528	49	4763
2026-01-12 00:06:05.17	2.05	35.65	-39.5	-41.6	14.5	0.00e+00	0	57	0	583008256	49	4875
2026-01-12 00:06:06.18	1.92	35.87	-39.6	-41.7	14.4	7.00e-07	0	57	0	586153984	49	4960
2026-01-12 00:06:07.19	1.78	36.09	-39.7	-41.8	14.3	7.00e-07	0	57	0	589299712	49	4999
2026-01-12 00:06:08.20	1.64	36.31	-39.8	-41.9	14.2	3.00e-06	0	57	0	592445440	50	4814
2026-01-12 00:06:09.21	1.49	36.54	-39.8	-42.0	14.1	1.50e-06	0	57	0	595591168	50	4859
2026-01-12 00:06:10.22	1.35	36.76	-40.0	-42.2	13.9	6.10e-06	0	57	0	598736896	50	4978
2026-01-12 00:06:11.23	1.20	36.99	-40.1	-42.4	13.7	1.14e-05	0	57	0	601882624	50	5097
2026-01-12 00:06:12.24	1.05	37.22	-40.1	-42.4	13.7	6.80e-06	0	57	0	605028352	50	5092
2026-01-12 00:06:13.25	0.90	37.44	-40.0	-42.3	13.8	6.10e-06	0	57	0	608174080	50	5012
2026-01-12 00:06:14.26	0.75	37.67	-40.0	-42.3	13.9	3.00e-06	0	57	0	611319808	50	5001
2026-01-12 00:06:15.27	0.59	37.91	-40.0	-42.3	13.9	8.30e-06	0	57	0	614465536	50	4991
2026-01-12 00:06:16.28	0.43	38.14	-39.8	-42.0	14.1	0.00e+00	0	57	0	617611264	50	4832
2026-01-12 00:06:17.29	0.27	38.37	-39.7	-41.8	14.3	7.00e-07	0	57	0	620756992	50	4729
2026-01-12 00:06:18.30	0.11	38.61	-39.7	-41.9	14.3	7.00e-07	0	57	0	623902720	50	4766
2026-01-12 00:06:19.32	359.94	38.85	-39.8	-42.0	14.2	7.00e-07	0	57	0	627048448	50	4826
2026-01-12 00:06:20.33	359.78	39.09	-39.8	-41.9	14.2	1.50e-06	0	57	0	630194176	50	4801
2026-01-12 00:06:21.33	359.61	39.32	-39.7	-41.8	14.3	2.20e-06	0	57	0	633339904	50	4757
2026-01-12 00:06:22.35	359.43	39.57	-39.7	-41.8	14.4	7.00e-07	0	57	0	636485632	50	4706
2026-01-12 00:06:23.36	359.26	39.81	-39.5	-41.6	14.6	1.50e-06	0	57	0	639631360	50	4619
2026-01-12 00:06:24.37	359.08	40.05	-39.3	-41.3	14.8	7.00e-07	0	57	0	643825664	50	4471
2026-01-12 00:06:25.38	358.90	40.30	-39.1	-41.0	15.2	0.00e+00	0	57	0	645922816	50	4303
2026-01-12 00:06:26.39	358.71	40.54	-38.9	-40.8	15.3	0.00e+00	0	57	0	649068544	49	4454
2026-01-12 00:06:27.40	358.53	40.79	-39.0	-40.8	15.3	0.00e+00	0	57	0	652214272	49	4463
2026-01-12 00:06:28.40	358.34	41.04	-38.9	-40.7	15.4	0.00e+00	0	57	0	655360000	49	4406
2026-01-12 00:06:29.41	358.15	41.29	-39.1	-41.0	15.1	0.00e+00	0	57	0	659554304	49	4559
2026-01-12 00:06:30.42	357.95	41.54	-39.4	-41.3	14.8	0.00e+00	0	57	0	662700032	49	4754
2026-01-12 00:06:31.43	357.75	41.80	-39.6	-41.7	14.4	0.00e+00	0	57	0	665845760	49	4950
2026-01-12 00:06:32.44	357.55	42.05	-39.8	-42.0	14.2	0.00e+00	0	57	0	668991488	50	4826
2026-01-12 00:06:33.45	357.35	42.31	-39.9	-42.1	14.0	4.50e-06	0	57	0	671088640	50	4919
2026-01-12 00:06:34.46	357.14	42.56	-40.1	-42.3	13.8	9.10e-06	0	57	0	674234368	50	5036
2026-01-12 00:06:35.47	356.93	42.82	-40.0	-42.3	13.9	5.30e-06	0	57	0	678428672	50	5000
2026-01-12 00:06:36.48	356.71	43.08	-39.9	-42.1	14.0	3.00e-06	0	57	0	681574400	50	4895
2026-01-12 00:06:37.49	356.49	43.34	-39.8	-41.9	14.1	3.00e-06	0	57	0	684720128	50	4802
2026-01-12 00:06:38.50	356.27	43.61	-39.8	-41.9	14.2	7.00e-07	0	57	0	687865856	50	4789
2026-01-12 00:06:39.51	356.04	43.87	-39.8	-41.8	14.3	0.00e+00	0	57	0	691011584	50	4736
2026-01-12 00:06:40.52	355.81	44.14	-39.9	-42.0	14.2	1.50e-06	0	57	0	694157312	50	4835
2026-01-12 00:06:41.53	355.58	44.40	-40.1	-42.3	13.9	2.20e-06	0	57	0	697303040	50	5003
2026-01-12 00:06:42.54	355.34	44.67	-40.3	-42.6	13.5	6.80e-06	0	57	0	700448768	51	4923
2026-01-12 00:06:43.55	355.10	44.94	-40.4	-42.8	13.3	2.05e-05	0	57	0	703594496	51	5024
2026-01-12 00:06:44.56	354.85	45.21	-40.5	-42.9	13.3	1.52e-05	0	57	0	706740224	51	5077
2026-01-12 00:06:45.57	354.60	45.48	-40.5	-43.0	13.2	3.05e-05	0	57	0	709885952	51	5127
2026-01-12 00:06:46.58	354.34	45.76	-40.4	-42.8	13.3	2.36e-05	0	57	0	713031680	51	5005
2026-01-12 00:06:47.59	354.08	46.03	-40.3	-42.6	13.6	9.10e-06	0	57	0	716177408	51	4886
2026-01-12 00:06:48.60	353.82	46.31	-40.0	-42.2	14.0	5.30e-06	0	57	0	719323136	51	4660
2026-01-12 00:06:49.61	353.55	46.58	-40.0	-42.1	14.0	0.00e+00	0	57	0	722468864	51	4648
2026-01-12 00:06:50.62	353.27	46.86	-39.9	-42.1	14.1	7.00e-07	0	57	0	725614592	51	4623
2026-01-12 00:06:51.63	353.00	47.14	-40.0	-42.1	14.1	7.00e-07	0	57	0	728760320	51	4638
2026-01-12 00:06:52.64	352.71	47.42	-40.0	-42.1	14.0	1.50e-06	0	57	0	731906048	51	4629
2026-01-12 00:06:53.64	352.42	47.70	-39.9	-42.0	14.1	0.00e+00	0	57	0	735051776	51	4581
2026-01-12 00:06:54.65	352.13	47.98	-39.8	-41.9	14.2	0.00e+00	0	57	0	738197504	51	4528
2026-01-12 00:06:55.66	351.83	48.26	-39.5	-41.5	14.7	0.00e+00	0	57	0	741343232	51	4330
2026-01-12 00:06:56.67	351.52	48.54	-39.4	-41.4	14.8	7.00e-07	0	57	0	744488960	50	4508
2026-01-12 00:06:57.68	351.21	48.83	-39.4	-41.3	14.8	0.00e+00	0	57	0	747634688	50	4484
2026-01-12 00:06:58.69	350.89	49.12	-39.5	-41.5	14.7	0.00e+00	0	57	0	750780416	50	4586
2026-01-12 00:06:59.70	350.57	49.40	-39.7	-41.7	14.5	2.20e-06	0	57	0	753926144	50	4694
2026-01-12 00:07:00.71	350.24	49.69	-39.7	-41.7	14.4	2.20e-06	0	57	0	757071872	50	4691
2026-01-12 00:07:01.72	349.90	49.98	-39.7	-41.7	14.5	1.50e-06	0	57	0	760217600	50	4705
2026-01-12 00:07:02.73	349.56	50.27	-39.8	-41.9	14.3	1.50e-06	0	57	0	763363328	50	4789
2026-01-12 00:07:03.74	349.21	50.56	-39.8	-41.8	14.4	0.00e+00	0	57	0	766509056	50	4743
2026-01-12 00:07:04.75	348.86	50.85	-39.7	-41.7	14.5	0.00e+00	0	57	0	769654784	50	4693
2026-01-12 00:07:05.76	348.49	51.14	-39.6	-41.7	14.5	7.00e-07	0	57	0	772800512	50	4657
2026-01-12 00:07:06.77	348.12	51.43	-39.6	-41.6	14.6	0.00e+00	0	57	0	775946240	50	4628
2026-01-12 00:07:07.77	347.75	51.72	-39.4	-41.3	14.9	0.00e+00	0	57	0	779091968	50	4481
2026-01-12 00:07:08.78	347.36	52.01	-39.3	-41.2	15.0	7.00e-07	0	57	0	782237696	50	4399
2026-01-12 00:07:09.80	346.97	52.31	-38.9	-40.7	15.5	0.00e+00	0	57	0	785383424	49	4411
2026-01-12 00:07:10.81	346.56	52.60	-39.0	-40.9	15.3	0.00e+00	0	57	0	788529152	49	4512
2026-01-12 00:07:11.81	346.16	52.89	-39.3	-41.2	15.0	7.00e-07	0	57	0	791674880	49	4690
2026-01-12 00:07:12.83	345.74	53.19	-39.4	-41.4	14.7	0.00e+00	0	57	0	794820608	49	4794
2026-01-12 00:07:13.84	345.31	53.48	-39.5	-41.6	14.6	7.00e-07	0	57	0	797966336	49	4889
2026-01-12 00:07:14.85	344.88	53.78	-39.4	-41.3	14.8	0.00e+00	0	57	0	801112064	49	4742
2026-01-12 00:07:15.86	344.43	54.07	-39.1	-41.0	15.1	0.00e+00	0	57	0	804257792	49	4573
2026-01-12 00:07:16.87	343.98	54.36	-39.1	-41.0	15.1	0.00e+00	0	57	0	807403520	49	4570
2026-01-12 00:07:17.88	343.52	54.66	-38.9	-40.7	15.4	0.00e+00	0	57	0	810549248	49	4427
2026-01-12 00:07:18.89	343.04	54.95	-38.7	-40.4	15.8	0.00e+00	0	58	0	813694976	49	4274
2026-01-12 00:07:19.90	342.56	55.24	-38.5	-40.2	16.0	0.00e+00	0	57	0	816840704	48	4400
2026-01-12 00:07:20.91	342.07	55.54	-38.2	-39.9	16.3	0.00e+00	0	58	0	819986432	48	4256
2026-01-12 00:07:21.92	341.57	55.83	-38.2	-39.8	16.4	0.00e+00	0	57	0	823132160	48	4238
2026-01-12 00:07:22.93	341.05	56.12	-37.9	-39.4	16.7	0.00e+00	0	58	0	826277888	47	4274
2026-01-12 00:07:23.94	340.53	56.41	-38.0	-39.5	16.6	0.00e+00	0	57	0	829423616	47	4337
2026-01-12 00:07:24.95	339.99	56.70	-38.0	-39.6	16.5	7.00e-07	0	57	0	832569344	47	4373
2026-01-12 00:07:25.96	339.45	56.99	-38.2	-39.9	16.3	0.00e+00	0	57	0	835715072	47	4504
2026-01-12 00:07:26.97	338.89	57.28	-38.1	-39.7	16.4	0.00e+00	0	57	0	838860800	47	4441
2026-01-12 00:07:27.98	338.32	57.56	-38.0	-39.6	16.5	0.00e+00	0	57	0	842006528	47	4372
2026-01-12 00:07:28.99	337.73	57.85	-37.8	-39.4	16.7	0.00e+00	0	57	0	845152256	47	4263
2026-01-12 00:07:30.00	337.14	58.13	-37.9	-39.5	16.6	0.00e+00	0	57	0	848297984	47	4337
2026-01-12 00:07:31.01	336.53	58.41	-38.0	-39.6	16.5	0.00e+00	0	57	0	851443712	47	4388
2026-01-12 00:07:32.01	335.91	58.69	-38.2	-39.9	16.2	0.00e+00	0	57	0	854589440	47	4534
2026-01-12 00:07:33.02	335.28	58.97	-38.1	-39.8	16.3	0.00e+00	0	57	0	857735168	47	4455
2026-01-12 00:07:34.03	334.63	59.25	-37.6	-39.1	16.9	0.00e+00	0	58	0	860880896	47	4141
2026-01-12 00:07:35.04	333.97	59.52	-37.4	-38.9	17.2	0.00e+00	0	57	0	864026624	46	4278
2026-01-12 00:07:36.05	333.29	59.79	-37.5	-39.0	17.1	0.00e+00	0	57	0	867172352	46	4301
2026-01-12 00:07:37.06	332.60	60.06	-37.6	-39.2	17.0	0.00e+00	0	57	0	870318080	46	4392
2026-01-12 00:07:38.07	331.90	60.33	-37.7	-39.3	16.8	0.00e+00	0	57	0	873463808	46	4447
2026-01-12 00:07:39.09	331.17	60.60	-37.5	-39.0	17.0	0.00e+00	0	58	0	876609536	46	4332
2026-01-12 00:07:40.10	330.43	60.86	-37.1	-38.5	17.6	0.00e+00	0	57	0	879755264	46	4058
2026-01-12 00:07:41.11	329.68	61.11	-36.9	-38.4	17.7	0.00e+00	0	57	0	882900992	45	4245
2026-01-12 00:07:42.11	328.92	61.36	-36.7	-38.1	18.0	0.00e+00	0	57	0	886046720	45	4117
2026-01-12 00:07:43.13	328.13	61.62	-36.8	-38.3	17.8	0.00e+00	0	57	0	889192448	45	4196
2026-01-12 00:07:44.13	327.34	61.86	-37.0	-38.4	17.6	0.00e+00	0	57	0	892338176	45	4278
2026-01-12 00:07:45.14	326.53	62.10	-36.7	-38.1	18.0	0.00e+00	0	57	0	895483904	45	4104
2026-01-12 00:07:46.15	325.70	62.34	-36.8	-38.2	17.8	0.00e+00	0	57	0	898629632	45	4189
2026-01-12 00:07:47.16	324.85	62.58	-37.0	-38.4	17.6	0.00e+00	0	57	0	901775360	45	4276
2026-01-12 00:07:48.17	323.99	62.81	-37.0	-38.5	17.6	0.00e+00	0	57	0	904921088	45	4299
2026-01-12 00:07:49.19	323.10	63.03	-37.0	-38.4	17.6	0.00e+00	0	57	0	908066816	45	4285
2026-01-12 00:07:50.20	322.20	63.25	-37.0	-38.4	17.6	0.00e+00	0	57	0	911212544	45	4280
2026-01-12 00:07:51.20	321.30	63.47	-37.2	-38.8	17.3	0.00e+00	0	57	0	914358272	45	4444
2026-01-12 00:07:52.21	320.37	63.67	-37.5	-39.0	17.0	0.00e+00	0	57	0	917504000	45	4586
2026-01-12 00:07:53.22	319.42	63.88	-37.5	-39.0	17.0	0.00e+00	0	57	0	920649728	45	4596
2026-01-12 00:07:54.23	318.46	64.07	-37.2	-38.6	17.4	0.00e+00	0	57	0	923795456	45	4378
2026-01-12 00:07:55.24	317.48	64.27	-36.9	-38.3	17.7	0.00e+00	0	57	0	926941184	45	4223
2026-01-12 00:07:56.25	316.48	64.45	-37.0	-38.4	17.6	0.00e+00	0	57	0	930086912	45	4279
2026-01-12 00:07:57.26	315.47	64.63	-37.1	-38.5	17.4	0.00e+00	0	57	0	933232640	45	4338
2026-01-12 00:07:58.27	314.45	64.80	-37.2	-38.7	17.3	0.00e+00	0	58	0	936378368	45	4416
2026-01-12 00:07:59.27	313.41	64.96	-37.4	-38.9	17.1	0.00e+00	0	57	0	939524096	45	4527
2026-01-12 00:08:00.28	312.36	65.12	-37.5	-39.0	17.0	0.00e+00	0	57	0	942669824	45	4575
2026-01-12 00:08:01.29	311.28	65.27	-37.3	-38.8	17.2	0.00e+00	0	57	0	945815552	45	4467
2026-01-12 00:08:02.30	310.20	65.41	-37.4	-38.9	17.2	0.00e+00	0	57	0	948961280	45	4511
2026-01-12 00:08:03.31	309.10	65.54	-37.3	-38.8	17.2	0.00e+00	0	58	0	952107008	45	4477
2026-01-12 00:08:04.32	307.98	65.67	-37.0	-38.4	17.6	0.00e+00	0	57	0	955252736	45	4260
2026-01-12 00:08:05.33	306.86	65.79	-36.8	-38.2	17.8	0.00e+00	0	57	0	958398464	45	4175
2026-01-12 00:08:06.34	305.72	65.90	-36.6	-37.9	18.0	0.00e+00	0	57	0	961544192	45	4033
2026-01-12 00:08:07.35	304.57	66.00	-36.8	-38.2	17.8	0.00e+00	0	58	0	964689920	45	4154
2026-01-12 00:08:08.36	303.41	66.09	-36.5	-37.9	18.1	0.00e+00	0	58	0	967835648	45	4030
2026-01-12 00:08:09.37	302.25	66.17	-36.2	-37.6	18.4	0.00e+00	0	57	0	970981376	44	4100
2026-01-12 00:08:10.38	301.07	66.25	-36.3	-37.6	18.3	0.00e+00	0	57	0	974127104	44	4107
2026-01-12 00:08:11.39	299.88	66.31	-36.6	-38.0	18.0	0.00e+00	0	57	0	977272832	44	4309
2026-01-12 00:08:12.40	298.69	66.37	-36.8	-38.2	17.8	0.00e+00	0	57	0	981467136	44	4401
2026-01-12 00:08:13.41	297.50	66.41	-36.8	-38.2	17.8	0.00e+00	0	58	0	984612864	44	4437
2026-01-12 00:08:14.42	296.30	66.45	-36.9	-38.3	17.7	0.00e+00	0	57	0	986710016	44	4476
2026-01-12 00:08:15.43	295.09	66.48	-36.7	-38.1	17.9	0.00e+00	0	57	0	989855744	44	4375
2026-01-12 00:08:16.45	293.87	66.50	-36.4	-37.7	18.2	0.00e+00	0	58	0	993001472	44	4193
2026-01-12 00:08:17.46	292.66	66.50	-36.5	-37.9	18.1	0.00e+00	0	57	0	997195776	44	4263
2026-01-12 00:08:18.47	291.45	66.50	-36.9	-38.3	17.7	0.00e+00	0	58	0	1000341504	44	4491
2026-01-12 00:08:19.48	290.24	66.49	-37.0	-38.4	17.6	0.00e+00	0	57	0	1003487232	44	4506
2026-01-12 00:08:20.49	289.03	66.47	-36.5	-37.9	18.0	0.00e+00	0	58	0	1006632960	44	4264
2026-01-12 00:08:21.50	287.83	66.44	-36.5	-37.9	18.0	0.00e+00	0	58	0	1008730112	44	4269
2026-01-12 00:08:22.51	286.63	66.40	-36.8	-38.2	17.7	0.00e+00	0	57	0	1012924416	44	4441
2026-01-12 00:08:23.52	285.43	66.35	-37.2	-38.8	17.1	0.00e+00	0	57	0	1016070144	45	4444
2026-01-12 00:08:24.53	284.24	66.29	-37.7	-39.4	16.7	0.00e+00	0	57	0	1019215872	45	4761
2026-01-12 00:08:25.54	283.06	66.23	-37.8	-39.4	16.7	0.00e+00	0	58	0	1022361600	46	4510
2026-01-12 00:08:26.55	281.89	66.15	-37.7	-39.3	16.7	0.00e+00	0	57	0	1025507328	46	4489
2026-01-12 00:08:27.56	280.72	66.07	-37.3	-38.8	17.2	0.00e+00	0	57	0	1028653056	46	4220
2026-01-12 00:08:28.57	279.56	65.97	-37.1	-38.5	17.4	0.00e+00	0	57	0	1031798784	46	4090
2026-01-12 00:08:29.58	278.42	65.87	-37.1	-38.5	17.4	0.00e+00	0	58	0	1034944512	46	4086
2026-01-12 00:08:30.59	277.28	65.76	-37.3	-38.8	17.2	0.00e+00	0	57	0	1038090240	46	4224
2026-01-12 00:08:31.60	276.16	65.64	-37.4	-38.9	17.1	7.00e-07	0	57	0	1041235968	46	4259
2026-01-12 00:08:32.61	275.05	65.51	-37.0	-38.4	17.6	0.00e+00	0	57	0	1044381696	46	4049
2026-01-12 00:08:33.62	273.95	65.37	-36.7	-38.1	17.8	0.00e+00	0	58	0	1047527424	45	4134
2026-01-12 00:08:34.63	272.87	65.23	-36.8	-38.2	17.7	0.00e+00	0	58	0	1050673152	45	4181
2026-01-12 00:08:35.64	271.80	65.08	-37.1	-38.6	17.4	0.00e+00	0	58	0	1053818880	45	4344
2026-01-12 00:08:36.65	270.74	64.92	-37.4	-38.9	17.2	0.00e+00	0	58	0	1056964608	45	4512
2026-01-12 00:08:37.65	269.71	64.75	-37.4	-39.0	17.0	0.00e+00	0	58	0	1060110336	45	4564
2026-01-12 00:08:38.66	268.69	64.58	-37.4	-38.9	17.1	0.00e+00	0	57	0	1063256064	45	4528
2026-01-12 00:08:39.67	267.68	64.40	-37.3	-38.8	17.2	0.00e+00	0	57	0	1066401792	45	4468
2026-01-12 00:08:40.68	266.69	64.21	-37.4	-38.9	17.1	0.00e+00	0	58	0	1069547520	45	4545
2026-01-12 00:08:41.69	265.71	64.02	-37.3	-38.8	17.2	0.00e+00	0	57	0	1072693248	45	4459
2026-01-12 00:08:42.70	264.75	63.82	-36.9	-38.3	17.7	0.00e+00	0	58	0	1075838976	45	4219
2026-01-12 00:08:43.71	263.81	63.61	-36.8	-38.1	17.8	0.00e+00	0	57	0	1078984704	45	4142
2026-01-12 00:08:44.72	262.88	63.40	-36.7	-38.1	17.8	0.00e+00	0	58	0	1082130432	45	4135
2026-01-12 00:08:45.73	261.97	63.19	-36.6	-38.0	18.0	0.00e+00	0	58	0	1085276160	45	4056
2026-01-12 00:08:46.74	261.08	62.97	-36.7	-38.0	17.9	0.00e+00	0	57	0	1088421888	45	4095
2026-01-12 00:08:47.75	260.20	62.74	-36.9	-38.4	17.5	0.00e+00	0	58	0	1091567616	45	4252
2026-01-12 00:08:48.76	259.34	62.51	-37.5	-39.1	17.0	0.00e+00	0	57	0	1094713344	45	4610
2026-01-12 00:08:49.77	258.50	62.27	-37.6	-39.2	16.8	0.00e+00	0	57	0	1097859072	45	4654
2026-01-12 00:08:50.78	257.67	62.03	-37.6	-39.2	16.7	0.00e+00	0	57	0	1101004800	45	4683
2026-01-12 00:08:51.79	256.86	61.79	-37.7	-39.3	16.7	0.00e+00	0	57	0	1104150528	46	4467
2026-01-12 00:08:52.80	256.07	61.54	-37.8	-39.4	16.6	0.00e+00	0	58	0	1107296256	46	4524
2026-01-12 00:08:53.81	255.29	61.29	-37.5	-39.1	16.9	0.00e+00	0	57	0	1110441984	46	4362
2026-01-12 00:08:54.82	254.52	61.03	-37.3	-38.8	17.1	0.00e+00	0	57	0	1113587712	46	4214
2026-01-12 00:08:55.83	253.78	60.77	-37.0	-38.4	17.5	0.00e+00	0	57	0	1116733440	46	4028
2026-01-12 00:08:56.84	253.04	60.51	-37.2	-38.6	17.3	0.00e+00	0	57	0	1119879168	45	4371
2026-01-12 00:08:57.85	252.33	60.25	-37.3	-38.8	17.2	0.00e+00	0	58	0	1123024896	45	4468
2026-01-12 00:08:58.86	251.62	59.98	-37.4	-38.9	17.1	0.00e+00	0	57	0	1126170624	45	4502
2026-01-12 00:08:59.87	250.94	59.71	-36.9	-38.3	17.6	0.00e+00	0	57	0	1129316352	45	4211
2026-01-12 00:09:00.88	250.26	59.43	-36.6	-38.0	17.9	0.00e+00	0	58	0	1132462080	45	4084
2026-01-12 00:09:01.89	249.60	59.16	-37.1	-38.5	17.4	0.00e+00	0	58	0	1135607808	45	4322
2026-01-12 00:09:02.90	248.96	58.88	-37.6	-39.1	16.8	0.00e+00	0	58	0	1138753536	45	4644
2026-01-12 00:09:03.91	248.33	58.60	-38.0	-39.6	16.4	0.00e+00	0	57	0	1141899264	46	4648
2026-01-12 00:09:04.92	247.71	58.32	-38.0	-39.6	16.4	0.00e+00	0	58	0	1145044992	46	4630
2026-01-12 00:09:05.94	247.10	58.03	-37.6	-39.2	16.7	0.00e+00	0	58	0	1148190720	46	4412
2026-01-12 00:09:06.95	246.50	57.75	-37.4	-38.9	17.1	0.00e+00	0	57	0	1151336448	46	4267
2026-01-12 00:09:07.96	245.92	57.46	-37.6	-39.2	16.9	0.00e+00	0	57	0	1154482176	46	4399
2026-01-12 00:09:08.97	245.35	57.17	-38.0	-39.7	16.2	0.00e+00	0	57	0	1157627904	46	4671
2026-01-12 00:09:09.98	244.80	56.88	-38.2	-39.9	16.0	0.00e+00	0	58	0	1160773632	47	4529
2026-01-12 00:09:10.99	244.25	56.59	-38.3	-40.1	15.9	0.00e+00	0	57	0	1163919360	47	4604
2026-01-12 00:09:12.00	243.72	56.30	-37.6	-39.1	16.8	0.00e+00	0	58	0	1167065088	47	4133
2026-01-12 00:09:13.01	243.20	56.01	-37.3	-38.7	17.2	0.00e+00	0	58	0	1170210816	46	4178
2026-01-12 00:09:14.02	242.69	55.72	-37.2	-38.7	17.4	0.00e+00	0	57	0	1173356544	46	4151
2026-01-12 00:09:15.03	242.18	55.43	-37.4	-38.9	17.1	0.00e+00	0	57	0	1176502272	46	4266
2026-01-12 00:09:16.03	241.70	55.14	-37.4	-38.9	17.1	0.00e+00	0	58	0	1179648000	46	4266
2026-01-12 00:09:17.04	241.22	54.84	-37.5	-39.0	17.1	0.00e+00	0	57	0	1182793728	46	4299
2026-01-12 00:09:18.05	240.75	54.55	-38.3	-40.0	16.1	0.00e+00	0	57	0	1185939456	47	4586
2026-01-12 00:09:19.07	240.28	54.25	-39.3	-41.2	14.9	0.00e+00	0	57	0	1189085184	49	4697
2026-01-12 00:09:20.08	239.83	53.95	-39.5	-41.5	14.6	0.00e+00	0	57	0	1192230912	49	4829
2026-01-12 00:09:21.09	239.39	53.66	-39.0	-40.9	15.0	0.00e+00	0	57	0	1195376640	49	4525
2026-01-12 00:09:22.10	238.96	53.36	-38.6	-40.4	15.6	0.00e+00	0	58	0	1198522368	49	4245
2026-01-12 00:09:23.11	238.53	53.07	-38.4	-40.1	16.0	0.00e+00	0	57	0	1201668096	48	4364
2026-01-12 00:09:24.12	238.12	52.77	-38.6	-40.3	15.8	0.00e+00	0	58	0	1204813824	48	4447
2026-01-12 00:09:25.13	237.71	52.48	-39.2	-41.1	15.1	0.00e+00	0	57	0	1207959552	48	4878
2026-01-12 00:09:26.14	237.31	52.19	-39.5	-41.5	14.6	0.00e+00	0	57	0	1211105280	49	4858
2026-01-12 00:09:27.15	236.92	51.89	-39.5	-41.5	14.5	1.50e-06	0	57	0	1214251008	49	4867
2026-01-12 00:09:28.16	236.53	51.60	-39.6	-41.7	14.4	0.00e+00	0	57	0	1217396736	49	4956
2026-01-12 00:09:29.17	236.16	51.31	-40.1	-42.3	13.8	7.00e-07	0	58	0	1220542464	50	5038
2026-01-12 00:09:30.18	235.79	51.01	-40.2	-42.4	13.7	1.37e-05	0	58	0	1223688192	51	4812
2026-01-12 00:09:31.19	235.43	50.72	-39.7	-41.8	14.2	0.00e+00	0	57	0	1226833920	51	4493
2026-01-12 00:09:32.20	235.07	50.43	-39.6	-41.6	14.6	7.00e-07	0	58	0	1229979648	51	4360
2026-01-12 00:09:33.21	234.72	50.14	-39.5	-41.5	14.6	0.00e+00	0	57	0	1233125376	50	4583
2026-01-12 00:09:34.22	234.38	49.85	-39.7	-41.8	14.3	0.00e+00	0	57	0	1236271104	50	4742
2026-01-12 00:09:35.23	234.05	49.56	-40.0	-42.3	13.9	7.60e-06	0	58	0	1239416832	50	4987
2026-01-12 00:09:36.24	233.72	49.27	-40.5	-42.9	13.2	1.22e-05	0	57	0	1242562560	51	5077
2026-01-12 00:09:37.25	233.39	48.98	-40.7	-43.3	12.7	5.49e-05	0	58	0	1245708288	52	5037
2026-01-12 00:09:38.26	233.08	48.70	-41.0	-43.7	12.4	1.52e-04	0	58	0	1248854016	52	5237
2026-01-12 00:09:39.27	232.77	48.41	-41.1	-43.9	12.1	2.77e-04	0	57	0	1251999744	52	5399
2026-01-12 00:09:40.28	232.46	48.13	-41.4	-44.3	11.6	5.23e-04	0	57	0	1255145472	53	5312
2026-01-12 00:09:41.29	232.16	47.84	-41.5	-44.6	11.4	1.17e-03	0	57	0	1258291200	53	5485
2026-01-12 00:09:42.30	231.87	47.56	-41.0	-43.8	12.2	2.99e-04	0	58	0	1261436928	53	5010
2026-01-12 00:09:43.31	231.58	47.28	-40.3	-42.7	13.3	2.21e-05	0	57	0	1264582656	52	4687
2026-01-12 00:09:44.32	231.30	47.00	-39.9	-41.9	14.1	1.50e-06	0	57	0	1267728384	51	4544
2026-01-12 00:09:45.33	231.02	46.72	-39.8	-41.9	14.2	1.50e-06	0	58	0	1270874112	51	4504
2026-01-12 00:09:46.34	230.75	46.44	-39.9	-42.0	13.9	7.00e-07	0	57	0	1274019840	51	4579
2026-01-12 00:09:47.35	230.48	46.16	-40.3	-42.6	13.3	2.05e-05	0	57	0	1277165568	51	4912
2026-01-12 00:09:48.36	230.21	45.89	-40.8	-43.5	12.5	8.23e-05	0	57	0	1280311296	52	5140
2026-01-12 00:09:49.37	229.95	45.61	-40.8	-43.5	12.4	1.75e-04	0	58	0	1283457024	52	5143
2026-01-12 00:09:50.38	229.70	45.34	-40.4	-42.8	13.2	4.65e-05	0	58	0	1286602752	52	4718
2026-01-12 00:09:51.39	229.45	45.07	-39.9	-42.0	14.1	6.10e-06	0	58	0	1289748480	51	4563
2026-01-12 00:09:52.40	229.20	44.80	-39.8	-41.8	14.3	1.50e-06	0	58	0	1292894208	51	4492
2026-01-12 00:09:53.41	228.96	44.53	-39.9	-42.0	14.1	1.50e-06	0	58	0	1297088512	51	4553
2026-01-12 00:09:54.42	228.72	44.26	-39.8	-42.0	14.1	7.00e-07	0	57	0	1300234240	51	4566
2026-01-12 00:09:55.42	228.49	43.99	-39.6	-41.7	14.4	0.00e+00	0	58	0	1302331392	51	4404
2026-01-12 00:09:56.43	228.26	43.73	-39.5	-41.4	14.7	0.00e+00	0	58	0	1305477120	51	4284
2026-01-12 00:09:57.44	228.04	43.46	-39.4	-41.4	14.8	0.00e+00	0	57	0	1308622848	50	4508
2026-01-12 00:09:58.45	227.81	43.20	-39.3	-41.2	14.9	0.00e+00	0	58	0	1312817152	50	4423
2026-01-12 00:09:59.46	227.60	42.94	-39.3	-41.2	14.9	0.00e+00	0	58	0	1315962880	50	4433
2026-01-12 00:10:00.47	227.38	42.67	-39.7	-41.7	14.4	0.00e+00	0	58	0	1319108608	50	4678
2026-01-12 00:10:01.48	227.17	42.42	-40.4	-42.7	13.4	8.30e-06	0	57	0	1322254336	51	4960
2026-01-12 00:10:02.49	226.96	42.16	-40.7	-43.3	12.7	6.71e-05	0	58	0	1324351488	52	4996
2026-01-12 00:10:03.50	226.76	41.90	-40.9	-43.6	12.3	1.87e-04	0	57	0	1328545792	52	5208
2026-01-12 00:10:04.51	226.55	41.65	-40.8	-43.5	12.5	1.43e-04	0	58	0	1331691520	52	5101
2026-01-12 00:10:05.52	226.36	41.39	-40.5	-42.9	13.0	6.25e-05	0	57	0	1334837248	52	4808
2026-01-12 00:10:06.53	226.16	41.14	-40.2	-42.5	13.5	1.44e-05	0	57	0	1337982976	52	4586
2026-01-12 00:10:07.54	225.97	40.89	-40.1	-42.3	13.7	5.30e-06	0	57	0	1341128704	52	4475
2026-01-12 00:10:08.55	225.78	40.64	-40.1	-42.4	13.8	4.50e-06	0	57	0	1344274432	51	4764
2026-01-12 00:10:09.56	225.59	40.39	-39.8	-42.0	14.1	1.50e-06	0	58	0	1347420160	51	4571
2026-01-12 00:10:10.57	225.41	40.14	-39.8	-41.9	14.1	7.00e-07	0	58	0	1350565888	51	4545
2026-01-12 00:10:11.58	225.23	39.90	-39.8	-41.9	14.1	1.50e-06	0	57	0	1353711616	51	4531
2026-01-12 00:10:12.59	225.05	39.65	-39.5	-41.6	14.4	0.00e+00	0	58	0	1356857344	51	4361
2026-01-12 00:10:13.60	224.88	39.41	-39.5	-41.4	14.6	0.00e+00	0	57	0	1360003072	50	4540
2026-01-12 00:10:14.61	224.70	39.17	-39.5	-41.4	14.7	1.50e-06	0	57	0	1363148800	50	4540
2026-01-12 00:10:15.62	224.53	38.93	-39.6	-41.6	14.5	0.00e+00	0	57	0	1366294528	50	4651
2026-01-12 00:10:16.63	224.37	38.69	-39.7	-41.7	14.4	0.00e+00	0	58	0	1369440256	50	4684
2026-01-12 00:10:17.64	224.20	38.45	-40.0	-42.1	14.0	2.20e-06	0	57	0	1372585984	50	4915
2026-01-12 00:10:18.65	224.04	38.22	-40.0	-42.2	13.9	2.20e-06	0	57	0	1375731712	50	4973
2026-01-12 00:10:19.66	223.88	37.98	-40.1	-42.4	13.7	5.30e-06	0	58	0	1378877440	50	5051
2026-01-12 00:10:20.66	223.72	37.75	-40.1	-42.4	13.7	6.80e-06	0	58	0	1382023168	50	5045
2026-01-12 00:10:21.68	223.56	37.52	-39.9	-42.1	14.0	2.20e-06	0	58	0	1385168896	50	4898
2026-01-12 00:10:22.69	223.41	37.28	-39.8	-41.9	14.2	7.00e-07	0	58	0	1388314624	50	4796
2026-01-12 00:10:23.70	223.26	37.06	-39.7	-41.9	14.3	0.00e+00	0	58	0	1391460352	50	4760
2026-01-12 00:10:24.71	223.11	36.83	-39.3	-41.3	14.8	0.00e+00	0	57	0	1394606080	50	4452
2026-01-12 00:10:25.72	222.96	36.60	-38.9	-40.6	15.4	0.00e+00	0	57	0	1397751808	49	4391
2026-01-12 00:10:26.73	222.82	36.38	-38.9	-40.8	15.3	0.00e+00	0	57	0	1400897536	49	4454
2026-01-12 00:10:27.74	222.68	36.15	-39.3	-41.2	14.9	7.00e-07	0	57	0	1404043264	49	4684
2026-01-12 00:10:28.75	222.53	35.93	-39.7	-41.8	14.3	1.50e-06	0	58	0	1407188992	49	5022
2026-01-12 00:10:29.76	222.40	35.71	-39.9	-42.1	14.0	1.50e-06	0	58	0	1410334720	50	4914
2026-01-12 00:10:30.77	222.26	35.49	-39.9	-42.1	13.9	5.30e-06	0	58	0	1413480448	50	4920
2026-01-12 00:10:31.78	222.12	35.27	-39.9	-42.0	14.0	3.80e-06	0	57	0	1416626176	50	4855
2026-01-12 00:10:32.79	221.99	35.05	-39.8	-41.9	14.2	0.00e+00	0	58	0	1419771904	50	4784
2026-01-12 00:10:33.80	221.86	34.84	-39.7	-41.8	14.2	1.50e-06	0	58	0	1422917632	50	4751
2026-01-12 00:10:34.81	221.73	34.62	-39.6	-41.6	14.5	0.00e+00	0	58	0	1426063360	50	4631
2026-01-12 00:10:35.82	221.60	34.41	-39.5	-41.6	14.5	1.50e-06	0	58	0	1429209088	50	4636
2026-01-12 00:10:36.83	221.47	34.20	-39.5	-41.5	14.6	0.00e+00	0	57	0	1432354816	50	4569
2026-01-12 00:10:37.84	221.35	33.99	-39.5	-41.5	14.6	0.00e+00	0	58	0	1435500544	50	4569
2026-01-12 00:10:38.85	221.23	33.78	-39.4	-41.3	14.8	0.00e+00	0	57	0	1438646272	50	4481
2026-01-12 00:10:39.86	221.10	33.57	-39.1	-41.0	15.1	0.00e+00	0	57	0	1441792000	50	4336
2026-01-12 00:10:40.87	220.98	33.36	-39.0	-40.9	15.2	0.00e+00	0	57	0	1444937728	50	4249
2026-01-12 00:10:41.88	220.87	33.16	-38.9	-40.7	15.4	0.00e+00	0	57	0	1448083456	49	4415
2026-01-12 00:10:42.89	220.75	32.95	-38.7	-40.5	15.5	0.00e+00	0	58	0	1451229184	49	4337
2026-01-12 00:10:43.90	220.63	32.75	-38.0	-39.9	15.8	0.00e+00	0	57	0	1454374912	48	4280
2026-01-12 00:10:44.91	220.52	32.55	-38.2	-39.9	16.1	0.00e+00	0	57	0	1457520640	48	4260
2026-01-12 00:10:45.92	220.41	32.35	-38.1	-39.8	16.3	0.00e+00	0	58	0	1460666368	48	4198
2026-01-12 00:10:46.93	220.29	32.15	-38.2	-39.8	16.2	0.00e+00	0	57	0	1463812096	48	4222
2026-01-12 00:10:47.94	220.19	31.95	-38.3	-39.9	16.1	0.00e+00	0	58	0	1466957824	48	4285
2026-01-12 00:10:48.95	220.08	31.75	-38.4	-40.1	15.9	0.00e+00	0	58	0	1470103552	48	4370
2026-01-12 00:10:49.96	219.97	31.55	-38.6	-40.3	15.7	0.00e+00	0	57	0	1473249280	48	4478
2026-01-12 00:10:50.97	219.86	31.36	-38.8	-40.6	15.4	0.00e+00	0	58	0	1476395008	48	4636
2026-01-12 00:10:51.98	219.76	31.17	-38.8	-40.7	15.3	0.00e+00	0	57	0	1479540736	48	4672
2026-01-12 00:10:52.99	219.66	30.97	-38.9	-40.7	15.3	0.00e+00	0	57	0	1482686464	48	4699
2026-01-12 00:10:54.00	219.55	30.78	-38.7	-40.6	15.4	0.00e+00	0	57	0	1485832192	48	4606
2026-01-12 00:10:55.01	219.45	30.59	-38.7	-40.5	15.5	0.00e+00	0	57	0	1488977920	48	4567
2026-01-12 00:10:56.02	219.35	30.40	-38.6	-40.4	15.6	0.00e+00	0	57	0	1492123648	48	4519
2026-01-12 00:10:57.03	219.26	30.21	-38.3	-40.0	16.0	0.00e+00	0	58	0	1495269376	48	4303
2026-01-12 00:10:58.04	219.16	30.03	-38.2	-39.8	16.1	0.00e+00	0	58	0	1498415104	48	4232
2026-01-12 00:10:59.04	219.06	29.84	-38.3	-39.9	16.0	0.00e+00	0	57	0	1501560832	48	4280
2026-01-12 00:11:00.05	218.97	29.66	-38.3	-40.0	15.9	0.00e+00	0	57	0	1504706560	48	4320
2026-01-12 00:11:01.06	218.87	29.48	-38.4	-40.1	15.9	0.00e+00	0	58	0	1507852288	48	4359
2026-01-12 00:11:02.07	218.78	29.29	-38.3	-40.0	16.0	0.00e+00	0	57	0	1510998016	48	4320
2026-01-12 00:11:03.08	218.69	29.11	-38.1	-39.7	16.3	0.00e+00	0	58	0	1514143744	48	4167
2026-01-12 00:11:04.09	218.60	28.93	-37.9	-39.5	16.4	0.00e+00	0	58	0	1517289472	47	4321
2026-01-12 00:11:05.10	218.51	28.75	-37.9	-39.5	16.3	0.00e+00	0	57	0	1520435200	47	4340
2026-01-12 00:11:06.12	218.42	28.57	-38.0	-39.6	16.3	0.00e+00	0	57	0	1523580928	47	4368
2026-01-12 00:11:07.13	218.33	28.40	-38.0	-39.7	16.2	0.00e+00	0	57	0	1526726656	47	4402
2026-01-12 00:11:08.14	218.25	28.22	-38.0	-39.6	16.3	0.00e+00	0	57	0	1529872384	47	4382
2026-01-12 00:11:09.15	218.16	28.05	-37.9	-39.6	16.3	0.00e+00	0	57	0	1533018112	47	4357
2026-01-12 00:11:10.16	218.08	27.87	-37.9	-39.5	16.3	0.00e+00	0	57	0	1536163840	47	4340
2026-01-12 00:11:11.17	217.99	27.70	-37.8	-39.4	16.4	0.00e+00	0	57	0	1539309568	47	4280
2026-01-12 00:11:12.18	217.91	27.53	-37.8	-39.4	16.5	0.00e+00	0	57	0	1542455296	47	4262
2026-01-12 00:11:13.19	217.83	27.36	-37.8	-39.4	16.5	0.00e+00	0	57	0	1545601024	47	4285
2026-01-12 00:11:14.20	217.75	27.19	-37.9	-39.5	16.4	0.00e+00	0	57	0	1548746752	47	4330
2026-01-12 00:11:15.21	217.67	27.02	-37.9	-39.6	16.2	0.00e+00	0	58	0	1551892480	47	4380
2026-01-12 00:11:16.22	217.59	26.85	-37.9	-39.6	16.2	0.00e+00	0	57	0	1555038208	47	4368
2026-01-12 00:11:17.23	217.51	26.68	-38.0	-39.7	16.2	0.00e+00	0	57	0	1558183936	47	4396
2026-01-12 00:11:18.24	217.43	26.52	-38.0	-39.6	16.2	0.00e+00	0	57	0	1561329664	47	4378
2026-01-12 00:11:19.25	217.36	26.35	-38.0	-39.7	16.2	0.00e+00	0	57	0	1564475392	47	4394
2026-01-12 00:11:20.26	217.28	26.19	-38.0	-39.6	16.2	0.00e+00	0	57	0	1567621120	47	4391
2026-01-12 00:11:21.27	217.20	26.02	-38.0	-39.7	16.2	0.00e+00	0	57	0	1570766848	47	4396
2026-01-12 00:11:22.28	217.13	25.86	-37.9	-39.6	16.3	0.00e+00	0	58	0	1573912576	47	4343
2026-01-12 00:11:23.29	217.06	25.70	-38.0	-39.6	16.2	0.00e+00	0	58	0	1577058304	47	4391
2026-01-12 00:11:24.29	216.98	25.54	-37.9	-39.6	16.3	0.00e+00	0	57	0	1580204032	47	4366
2026-01-12 00:11:25.30	216.91	25.38	-37.9	-39.5	16.3	0.00e+00	0	58	0	1583349760	47	4323
2026-01-12 00:11:26.32	216.84	25.22	-37.6	-39.2	16.6	0.00e+00	0	57	0	1586495488	47	4171
2026-01-12 00:11:27.32	216.77	25.07	-37.5	-39.0	16.8	0.00e+00	0	57	0	1589641216	46	4319
2026-01-12 00:11:28.33	216.70	24.91	-37.3	-38.9	17.0	0.00e+00	0	58	0	1592786944	46	4246
2026-01-12 00:11:29.35	216.63	24.75	-37.3	-38.8	17.0	0.00e+00	0	57	0	1595932672	46	4242
2026-01-12 00:11:30.35	216.56	24.60	-37.3	-38.8	17.0	0.00e+00	0	57	0	1599078400	46	4233
2026-01-12 00:11:31.37	216.50	24.44	-37.3	-38.8	17.0	0.00e+00	0	57	0	1602224128	46	4222
2026-01-12 00:11:32.38	216.43	24.29	-37.4	-38.9	16.9	0.00e+00	0	57	0	1605369856	46	4276
2026-01-12 00:11:33.39	216.36	24.14	-37.5	-39.1	16.7	0.00e+00	0	57	0	1608515584	46	4349
2026-01-12 00:11:34.40	216.30	23.98	-37.6	-39.2	16.6	0.00e+00	0	57	0	1612709888	46	4407
2026-01-12 00:11:35.41	216.23	23.83	-37.7	-39.3	16.5	0.00e+00	0	57	0	1615855616	46	4484
2026-01-12 00:11:36.42	216.17	23.68	-37.8	-39.4	16.4	0.00e+00	0	58	0	1617952768	46	4527
2026-01-12 00:11:37.43	216.10	23.53	-37.8	-39.4	16.4	0.00e+00	0	57	0	1621098496	46	4529
2026-01-12 00:11:38.44	216.04	23.39	-37.8	-39.4	16.4	0.00e+00	0	57	0	1624244224	46	4540
2026-01-12 00:11:39.45	215.98	23.24	-37.8	-39.4	16.4	0.00e+00	0	57	0	1627389952	46	4517
2026-01-12 00:11:40.46	215.92	23.09	-37.8	-39.4	16.4	0.00e+00	0	57	0	1631584256	46	4522
2026-01-12 00:11:41.47	215.85	22.95	-37.8	-39.5	16.3	0.00e+00	0	57	0	1634729984	46	4548
2026-01-12 00:11:42.48	215.79	22.80	-37.9	-39.5	16.2	0.00e+00	0	57	0	1637875712	46	4598
2026-01-12 00:11:43.49	215.73	22.66	-37.8	-39.4	16.4	0.00e+00	0	57	0	1639972864	46	4532
2026-01-12 00:11:44.50	215.67	22.51	-37.8	-39.5	16.3	0.00e+00	0	57	0	1643118592	46	4565
2026-01-12 00:11:45.51	215.62	22.37	-37.9	-39.6	16.3	0.00e+00	0	57	0	1647312896	46	4612
2026-01-12 00:11:46.52	215.56	22.23	-37.9	-39.6	16.2	0.00e+00	0	57	0	1650458624	46	4614
2026-01-12 00:11:47.53	215.50	22.09	-38.0	-39.7	16.1	0.00e+00	0	57	0	1653604352	46	4663
2026-01-12 00:11:48.54	215.44	21.95	-38.1	-39.8	16.1	0.00e+00	0	57	0	1656750080	46	4708
2026-01-12 00:11:49.55	215.38	21.81	-38.1	-39.8	16.0	0.00e+00	0	57	0	1659895808	46	4726
2026-01-12 00:11:50.56	215.33	21.67	-38.0	-39.7	16.1	0.00e+00	0	57	0	1663041536	46	4664
2026-01-12 00:11:51.57	215.27	21.53	-37.9	-39.6	16.2	0.00e+00	0	57	0	1666187264	46	4618
2026-01-12 00:11:52.58	215.22	21.39	-37.9	-39.5	16.3	0.00e+00	0	57	0	1669332992	46	4587
2026-01-12 00:11:53.59	215.16	21.25	-37.8	-39.4	16.3	0.00e+00	0	57	0	1672478720	46	4542
2026-01-12 00:11:54.60	215.11	21.12	-37.7	-39.4	16.4	0.00e+00	0	57	0	1675624448	46	4502
2026-01-12 00:11:55.61	215.06	20.98	-37.7	-39.3	16.4	0.00e+00	0	58	0	1678770176	46	4485
2026-01-12 00:11:56.62	215.00	20.85	-37.7	-39.4	16.4	0.00e+00	0	57	0	1681915904	46	4494
2026-01-12 00:11:57.63	214.95	20.71	-37.7	-39.4	16.4	0.00e+00	0	57	0	1685061632	46	4495
2026-01-12 00:11:58.64	214.90	20.58	-37.8	-39.5	16.3	0.00e+00	0	57	0	1688207360	46	4548
2026-01-12 00:11:59.65	214.85	20.45	-37.7	-39.3	16.4	0.00e+00	0	57	0	1691353088	46	4489
2026-01-12 00:12:00.66	214.79	20.32	-37.7	-39.4	16.4	0.00e+00	0	57	0	1694498816	46	4516
2026-01-12 00:12:01.67	214.74	20.18	-37.8	-39.4	16.4	0.00e+00	0	57	0	1697644544	46	4525
2026-01-12 00:12:02.68	214.69	20.05	-37.8	-39.4	16.3	0.00e+00	0	57	0	1700790272	46	4520
2026-01-12 00:12:03.69	214.64	19.92	-37.8	-39.5	16.3	0.00e+00	0	57	0	1703936000	46	4547
2026-01-12 00:12:04.70	214.59	19.79	-37.9	-39.6	16.2	0.00e+00	0	57	0	1707081728	46	4607
2026-01-12 00:12:05.71	214.54	19.66	-37.9	-39.5	16.2	0.00e+00	0	57	0	1710227456	46	4588
2026-01-12 00:12:06.72	214.50	19.54	-37.9	-39.6	16.1	0.00e+00	0	57	0	1713373184	46	4627
2026-01-12 00:12:07.73	214.45	19.41	-38.0	-39.7	16.0	0.00e+00	0	57	0	1716518912	46	4674
2026-01-12 00:12:08.74	214.40	19.28	-38.1	-39.8	15.9	0.00e+00	0	57	0	1719664640	46	4743
2026-01-12 00:12:09.75	214.35	19.16	-38.2	-39.9	15.8	0.00e+00	0	57	0	1722810368	46	4799
2026-01-12 00:12:10.76	214.31	19.03	-38.2	-40.0	15.8	0.00e+00	0	57	0	1725956096	46	4821
2026-01-12 00:12:11.77	214.26	18.90	-38.1	-39.9	15.8	0.00e+00	0	57	0	1729101824	46	4777
2026-01-12 00:12:12.78	214.21	18.78	-38.1	-39.9	15.8	0.00e+00	0	57	0	1732247552	46	4769
2026-01-12 00:12:13.79	214.17	18.66	-38.2	-39.9	15.8	0.00e+00	0	57	0	1735393280	46	4804
2026-01-12 00:12:14.80	214.12	18.53	-38.2	-39.9	15.8	0.00e+00	0	57	0	1738539008	46	4801
2026-01-12 00:12:15.81	214.08	18.41	-38.2	-39.9	15.7	0.00e+00	0	57	0	1741684736	46	4811
2026-01-12 00:12:16.82	214.03	18.29	-38.2	-40.0	15.7	0.00e+00	0	57	0	1744830464	47	4583
2026-01-12 00:12:17.82	213.99	18.17	-38.2	-40.0	15.7	0.00e+00	0	57	0	1747976192	47	4557
2026-01-12 00:12:18.83	213.95	18.05	-38.2	-39.9	15.7	0.00e+00	0	57	0	1751121920	47	4536
2026-01-12 00:12:19.84	213.90	17.93	-38.3	-40.0	15.6	0.00e+00	0	57	0	1754267648	47	4594
2026-01-12 00:12:20.85	213.86	17.81	-38.2	-40.0	15.7	0.00e+00	0	57	0	1757413376	47	4563
2026-01-12 00:12:21.86	213.82	17.69	-38.3	-40.1	15.6	0.00e+00	0	57	0	1760559104	47	4604
2026-01-12 00:12:22.87	213.77	17.57	-38.2	-40.0	15.6	0.00e+00	0	57	0	1763704832	47	4587
2026-01-12 00:12:23.88	213.73	17.45	-38.3	-40.0	15.6	0.00e+00	0	57	0	1766850560	47	4590
2026-01-12 00:12:24.89	213.69	17.33	-38.3	-40.1	15.5	0.00e+00	0	57	0	1769996288	47	4650
2026-01-12 00:12:25.90	213.65	17.22	-38.4	-40.2	15.4	0.00e+00	0	57	0	1773142016	47	4702
2026-01-12 00:12:26.91	213.61	17.10	-38.4	-40.2	15.5	0.00e+00	0	57	0	1776287744	47	4668
2026-01-12 00:12:27.92	213.57	16.98	-38.4	-40.2	15.4	0.00e+00	0	57	0	1779433472	47	4704
2026-01-12 00:12:28.93	213.53	16.87	-38.5	-40.3	15.3	0.00e+00	0	57	0	1782579200	47	4750
2026-01-12 00:12:29.94	213.49	16.75	-38.6	-40.5	15.2	0.00e+00	0	57	0	1785724928	47	4815
2026-01-12 00:12:30.95	213.45	16.64	-38.6	-40.5	15.1	0.00e+00	0	57	0	1788870656	47	4862
2026-01-12 00:12:31.96	213.41	16.53	-38.5	-40.4	15.2	0.00e+00	0	57	0	1792016384	47	4790
2026-01-12 00:12:32.97	213.37	16.41	-38.5	-40.4	15.2	0.00e+00	0	57	0	1795162112	47	4794
2026-01-12 00:12:33.98	213.33	16.30	-38.6	-40.5	15.1	0.00e+00	0	57	0	1798307840	47	4868
2026-01-12 00:12:34.99	213.29	16.19	-38.6	-40.5	15.1	0.00e+00	0	57	0	1801453568	47	4827
2026-01-12 00:12:36.00	213.25	16.08	-38.6	-40.5	15.1	0.00e+00	0	57	0	1804599296	47	4843
2026-01-12 00:12:37.01	213.22	15.96	-38.7	-40.6	15.0	0.00e+00	0	57	0	1807745024	47	4913
2026-01-12 00:12:38.02	213.18	15.85	-38.8	-40.7	15.0	0.00e+00	0	57	0	1810890752	48	4666
2026-01-12 00:12:39.03	213.14	15.74	-38.9	-40.8	14.9	0.00e+00	0	57	0	1814036480	48	4731
2026-01-12 00:12:40.04	213.10	15.63	-38.8	-40.8	14.9	7.00e-07	0	57	0	1817182208	48	4727
2026-01-12 00:12:41.05	213.07	15.52	-38.8	-40.7	15.0	0.00e+00	0	57	0	1820327936	48	4657
2026-01-12 00:12:42.06	213.03	15.42	-38.8	-40.7	15.0	0.00e+00	0	57	0	1823473664	48	4682
2026-01-12 00:12:43.06	212.99	15.31	-38.9	-40.8	14.9	0.00e+00	0	57	0	1826619392	48	4739
2026-01-12 00:12:44.07	212.96	15.20	-38.8	-40.8	14.9	0.00e+00	0	57	0	1829765120	48	4715
2026-01-12 00:12:45.08	212.92	15.09	-38.8	-40.7	15.0	0.00e+00	0	57	0	1832910848	48	4670
2026-01-12 00:12:46.09	212.89	14.99	-38.7	-40.6	15.1	0.00e+00	0	57	0	1836056576	48	4610
2026-01-12 00:12:47.10	212.85	14.88	-38.7	-40.6	15.1	0.00e+00	0	57	0	1839202304	48	4612
2026-01-12 00:12:48.11	212.82	14.77	-38.7	-40.7	15.0	0.00e+00	0	57	0	1842348032	48	4656
2026-01-12 00:12:49.12	212.78	14.67	-38.7	-40.6	15.0	0.00e+00	0	57	0	1845493760	48	4637
2026-01-12 00:12:50.14	212.75	14.56	-38.7	-40.6	15.1	0.00e+00	0	57	0	1848639488	48	4599
2026-01-12 00:12:51.15	212.72	14.46	-38.7	-40.6	15.0	0.00e+00	0	57	0	1851785216	48	4626
2026-01-12 00:12:52.16	212.68	14.35	-38.7	-40.6	15.0	0.00e+00	0	57	0	1854930944	48	4618
2026-01-12 00:12:53.17	212.65	14.25	-38.7	-40.6	15.1	0.00e+00	0	57	0	1858076672	48	4600
2026-01-12 00:12:54.18	212.62	14.14	-38.7	-40.6	15.0	0.00e+00	0	57	0	1861222400	48	4635
2026-01-12 00:12:55.19	212.58	14.04	-38.7	-40.6	15.1	0.00e+00	0	57	0	1864368128	48	4602
2026-01-12 00:12:56.20	212.55	13.94	-38.6	-40.5	15.2	0.00e+00	0	57	0	1867513856	48	4550
2026-01-12 00:12:57.21	212.52	13.84	-38.6	-40.5	15.1	0.00e+00	0	57	0	1870659584	48	4598
2026-01-12 00:12:58.21	212.49	13.74	-38.6	-40.4	15.2	0.00e+00	0	57	0	1873805312	48	4541
2026-01-12 00:12:59.22	212.45	13.63	-38.6	-40.5	15.1	0.00e+00	0	57	0	1876951040	48	4546
2026-01-12 00:13:00.23	212.42	13.53	-38.5	-40.4	15.2	0.00e+00	0	57	0	1880096768	48	4532
2026-01-12 00:13:01.24	212.39	13.43	-38.6	-40.5	15.1	7.00e-07	0	57	0	1883242496	48	4563
2026-01-12 00:13:02.25	212.36	13.33	-38.6	-40.5	15.0	0.00e+00	0	57	0	1886388224	48	4593
2026-01-12 00:13:03.26	212.33	13.23	-38.6	-40.6	15.0	7.00e-07	0	57	0	1889533952	48	4609
2026-01-12 00:13:04.27	212.30	13.13	-38.7	-40.6	14.9	0.00e+00	0	57	0	1892679680	48	4649
2026-01-12 00:13:05.28	212.27	13.04	-38.7	-40.7	14.9	0.00e+00	0	57	0	1895825408	48	4658
2026-01-12 00:13:06.29	212.24	12.94	-38.7	-40.6	14.9	0.00e+00	0	57	0	1898971136	48	4646
2026-01-12 00:13:07.30	212.21	12.84	-38.7	-40.6	14.9	7.00e-07	0	57	0	1902116864	48	4643
2026-01-12 00:13:08.31	212.18	12.74	-38.7	-40.6	15.0	0.00e+00	0	57	0	1905262592	48	4608
2026-01-12 00:13:09.32	212.15	12.64	-38.7	-40.6	14.9	7.00e-07	0	57	0	1908408320	48	4639
2026-01-12 00:13:10.33	212.12	12.55	-38.7	-40.6	15.0	0.00e+00	0	57	0	1911554048	48	4609
2026-01-12 00:13:11.34	212.09	12.45	-38.7	-40.6	14.9	0.00e+00	0	57	0	1914699776	48	4629
2026-01-12 00:13:12.35	212.06	12.35	-38.7	-40.6	14.9	0.00e+00	0	57	0	1917845504	48	4644
2026-01-12 00:13:13.36	212.03	12.26	-38.6	-40.5	15.0	0.00e+00	0	57	0	1920991232	48	4574
2026-01-12 00:13:14.37	212.00	12.16	-38.6	-40.5	15.0	0.00e+00	0	57	0	1924136960	48	4586
2026-01-12 00:13:15.38	211.97	12.07	-38.6	-40.6	14.9	0.00e+00	0	57	0	1927282688	48	4605
2026-01-12 00:13:16.39	211.94	11.97	-38.7	-40.6	14.8	0.00e+00	0	57	0	1930428416	48	4638
2026-01-12 00:13:17.39	211.92	11.88	-38.8	-40.7	14.8	0.00e+00	0	57	0	1933574144	48	4696
2026-01-12 00:13:18.41	211.89	11.78	-38.7	-40.7	14.8	7.00e-07	0	57	0	1936719872	48	4677
2026-01-12 00:13:19.42	211.86	11.69	-38.7	-40.6	14.9	0.00e+00	0	57	0	1939865600	48	4631
2026-01-12 00:13:20.43	211.83	11.60	-38.7	-40.6	14.9	0.00e+00	0	57	0	1943011328	48	4621
2026-01-12 00:13:21.44	211.81	11.50	-38.7	-40.6	14.8	0.00e+00	0	57	0	1946157056	48	4639
2026-01-12 00:13:22.45	211.78	11.41	-38.8	-40.8	14.7	0.00e+00	0	57	0	1949302784	48	4717
2026-01-12 00:13:23.46	211.75	11.32	-38.8	-40.8	14.7	0.00e+00	0	57	0	1953497088	48	4710
2026-01-12 00:13:24.47	211.72	11.23	-38.9	-40.9	14.6	7.00e-07	0	57	0	1955594240	48	4778
2026-01-12 00:13:25.48	211.70	11.13	-38.8	-40.8	14.6	7.00e-07	0	57	0	1958739968	48	4734
2026-01-12 00:13:26.49	211.67	11.04	-38.8	-40.8	14.6	0.00e+00	0	57	0	1961885696	48	4747
2026-01-12 00:13:27.50	211.65	10.95	-38.8	-40.9	14.6	7.00e-07	0	57	0	1966080000	48	4764
2026-01-12 00:13:28.51	211.62	10.86	-38.9	-41.0	14.4	1.50e-06	0	57	0	1969225728	48	4830
2026-01-12 00:13:29.52	211.59	10.77	-38.9	-40.9	14.5	7.00e-07	0	57	0	1972371456	48	4786
2026-01-12 00:13:30.53	211.57	10.68	-38.8	-40.8	14.6	0.00e+00	0	57	0	1975517184	48	4744
2026-01-12 00:13:31.54	211.54	10.59	-38.8	-40.8	14.6	0.00e+00	0	57	0	1978662912	48	4752
2026-01-12 00:13:32.55	211.52	10.50	-38.7	-40.7	14.7	0.00e+00	0	57	0	1981808640	48	4676
2026-01-12 00:13:33.56	211.49	10.41	-38.7	-40.7	14.7	0.00e+00	0	57	0	1984954368	48	4669
2026-01-12 00:13:34.57	211.47	10.32	-38.8	-40.8	14.5	7.00e-07	0	57	0	1988100096	48	4746
2026-01-12 00:13:35.58	211.44	10.24	-38.9	-41.0	14.4	7.00e-07	0	57	0	1991245824	48	4823
2026-01-12 00:13:36.59	211.42	10.15	-38.9	-40.9	14.5	7.00e-07	0	57	0	1994391552	48	4776
2026-01-12 00:13:37.60	211.39	10.06	-38.9	-40.9	14.4	0.00e+00	0	57	0	1997537280	48	4787
2026-01-12 00:13:38.61	211.37	9.97	-38.9	-40.9	14.4	7.00e-07	0	57	0	2000683008	48	4779
2026-01-12 00:13:39.61	211.34	9.89	-39.0	-41.1	14.2	0.00e+00	0	57	0	2003828736	48	4887
2026-01-12 00:13:40.62	211.32	9.80	-39.0	-41.2	14.1	0.00e+00	0	57	0	2006974464	48	4934
2026-01-12 00:13:41.63	211.30	9.71	-39.0	-41.2	14.1	3.00e-06	0	57	0	2010120192	48	4940
2026-01-12 00:13:42.64	211.27	9.63	-39.1	-41.3	14.0	2.20e-06	0	57	0	2013265920	48	5020
2026-01-12 00:13:43.65	211.25	9.54	-39.0	-41.2	14.1	2.20e-06	0	57	0	2016411648	48	4942
2026-01-12 00:13:44.66	211.23	9.46	-39.0	-41.1	14.2	2.20e-06	0	57	0	2019557376	48	4879
2026-01-12 00:13:45.67	211.20	9.37	-38.9	-41.0	14.2	7.00e-07	0	57	0	2022703104	48	4867
2026-01-12 00:13:46.68	211.18	9.28	-39.0	-41.1	14.2	2.20e-06	0	57	0	2025848832	48	4899
2026-01-12 00:13:47.69	211.16	9.20	-39.1	-41.2	14.0	7.00e-07	0	57	0	2028994560	48	4953
2026-01-12 00:13:48.70	211.13	9.12	-39.1	-41.2	14.0	1.50e-06	0	57	0	2032140288	48	4978
2026-01-12 00:13:49.71	211.11	9.03	-39.1	-41.3	13.9	4.50e-06	0	57	0	2035286016	48	5002
2026-01-12 00:13:50.73	211.09	8.95	-39.2	-41.4	13.9	1.50e-06	0	57	0	2038431744	48	5060
2026-01-12 00:13:51.73	211.07	8.86	-39.2	-41.5	13.7	7.60e-06	0	57	0	2041577472	49	4832
2026-01-12 00:13:52.75	211.04	8.78	-39.3	-41.5	13.7	3.80e-06	0	57	0	2044723200	49	4855
