passes_logs/2026/01/12/R2.0S_Moscow/R2.0S_Moscow__20260112_234217_NOAA_21_JPSS-2_rec.log

#Pass ID: 20260112_234217_NOAA 21 (JPSS-2)
#Satellite: NOAA 21 (JPSS-2)
#Configuration: NOAA-21
#almurnet v.1.7.20251203
#Start time: 2026-01-12 23:42:16

#Version: 2.2.20231116
#Station: R2.0S_Moscow
#Location: 37.707566 lon 55.798166 lat
#TLE: 1 54234U 22150A   26012.26378519  .00000063  00000+0  50547-4 0  9993
#TLE: 2 54234  98.7495 313.1967 0000726 309.1075  51.0036 14.19534275164425

#Time	Az	El	Level	Level2	SNR	BER	BlckErr	Temp	State	Recorded	gain1	gain2
2026-01-12 23:42:16.51	15.97	1.97	-42.5	-55.0	3.8	1.49e+00	0	50	0	0	56	15270
2026-01-12 23:42:17.51	15.98	2.04	-42.5	-55.0	3.8	1.49e+00	0	50	104	0	56	15261
2026-01-12 23:42:18.53	15.98	2.10	-42.5	-54.9	3.8	1.49e+00	0	51	104	0	56	15223
2026-01-12 23:42:19.54	15.98	2.17	-42.5	-55.0	3.8	1.49e+00	0	51	104	0	56	15236
2026-01-12 23:42:20.55	15.98	2.23	-42.5	-55.0	3.8	1.49e+00	0	51	104	0	56	15245
2026-01-12 23:42:21.56	15.99	2.29	-42.5	-54.9	3.8	1.49e+00	0	51	104	0	56	15166
2026-01-12 23:42:22.57	15.99	2.36	-42.5	-54.9	3.8	1.49e+00	0	51	104	0	56	15209
2026-01-12 23:42:23.58	15.99	2.43	-42.5	-55.0	3.8	1.49e+00	0	51	104	0	56	15235
2026-01-12 23:42:24.59	15.99	2.49	-42.5	-55.0	3.8	1.49e+00	0	51	104	0	56	15232
2026-01-12 23:42:25.60	15.99	2.56	-42.5	-54.9	3.8	1.49e+00	0	51	104	0	56	15208
2026-01-12 23:42:26.61	16.00	2.62	-42.5	-55.0	3.8	1.49e+00	0	51	104	0	56	15269
2026-01-12 23:42:27.62	16.00	2.69	-42.5	-55.0	3.8	1.49e+00	0	51	104	0	56	15251
2026-01-12 23:42:28.63	16.00	2.75	-42.5	-54.9	3.8	1.49e+00	0	51	104	0	56	15176
2026-01-12 23:42:29.64	16.00	2.82	-42.5	-55.0	3.8	1.49e+00	0	51	104	0	56	15228
2026-01-12 23:42:30.65	16.00	2.89	-42.5	-55.0	3.8	1.49e+00	0	52	104	0	56	15246
2026-01-12 23:42:31.66	16.01	2.95	-42.5	-54.9	3.8	1.49e+00	0	51	104	0	56	15189
2026-01-12 23:42:32.67	16.01	3.02	-42.5	-54.9	3.8	1.49e+00	0	52	104	0	56	15187
2026-01-12 23:42:33.68	16.01	3.09	-42.5	-54.9	3.8	1.49e+00	0	52	104	0	56	15218
2026-01-12 23:42:34.69	16.01	3.15	-42.5	-54.9	3.8	1.49e+00	0	52	104	0	56	15196
2026-01-12 23:42:35.70	16.02	3.22	-42.5	-54.9	3.8	1.49e+00	0	52	104	0	56	15176
2026-01-12 23:42:36.71	16.02	3.29	-42.5	-54.9	3.8	1.49e+00	0	52	104	0	56	15201
2026-01-12 23:42:37.72	16.02	3.35	-42.5	-54.9	3.8	1.49e+00	0	52	104	0	56	15200
2026-01-12 23:42:38.73	16.02	3.42	-42.5	-55.0	3.8	1.49e+00	0	52	104	0	56	15229
2026-01-12 23:42:39.74	16.02	3.49	-42.5	-54.9	3.8	1.49e+00	0	52	104	0	56	15212
2026-01-12 23:42:40.75	16.03	3.56	-42.5	-55.0	3.8	1.49e+00	0	52	104	0	56	15230
2026-01-12 23:42:41.76	16.03	3.63	-42.5	-55.0	3.8	1.49e+00	0	52	104	0	56	15235
2026-01-12 23:42:42.77	16.03	3.69	-42.5	-55.0	3.8	1.49e+00	0	52	104	0	56	15233
2026-01-12 23:42:43.78	16.03	3.76	-42.5	-54.9	3.8	1.49e+00	0	53	104	0	56	15209
2026-01-12 23:42:44.79	16.03	3.83	-42.5	-54.9	3.8	1.49e+00	0	53	104	0	56	15212
2026-01-12 23:42:45.81	16.04	3.90	-42.5	-54.9	3.8	1.49e+00	0	52	104	0	56	15184
2026-01-12 23:42:46.81	16.04	3.97	-42.5	-55.0	3.8	1.49e+00	0	53	104	0	56	15229
2026-01-12 23:42:47.82	16.04	4.04	-42.5	-54.9	3.8	1.49e+00	0	53	104	0	56	15167
2026-01-12 23:42:48.83	16.04	4.11	-42.5	-55.0	3.8	1.49e+00	0	53	104	0	56	15265
2026-01-12 23:42:49.85	16.04	4.18	-42.5	-54.9	3.8	1.49e+00	0	53	104	0	56	15184
2026-01-12 23:42:50.86	16.05	4.25	-42.5	-54.9	3.8	1.49e+00	0	53	104	0	56	15161
2026-01-12 23:42:51.87	16.05	4.32	-42.5	-54.9	3.8	1.49e+00	0	53	104	0	56	15174
2026-01-12 23:42:52.88	16.05	4.39	-42.5	-54.9	3.8	1.49e+00	0	53	104	0	56	15157
2026-01-12 23:42:53.89	16.05	4.46	-42.4	-54.9	3.8	1.49e+00	0	53	104	0	56	15164
2026-01-12 23:42:54.90	16.05	4.53	-42.5	-54.9	3.8	1.49e+00	0	53	104	0	56	15213
2026-01-12 23:42:55.91	16.06	4.60	-42.5	-54.9	3.8	1.49e+00	0	53	104	0	56	15195
2026-01-12 23:42:56.92	16.06	4.67	-42.4	-54.9	3.8	1.49e+00	0	53	104	0	56	15147
2026-01-12 23:42:57.93	16.06	4.74	-42.5	-54.9	3.8	1.49e+00	0	53	104	0	56	15200
2026-01-12 23:42:58.94	16.06	4.81	-42.5	-54.9	3.8	1.49e+00	0	53	104	0	56	15178
2026-01-12 23:42:59.95	16.06	4.88	-42.5	-54.9	3.8	1.49e+00	0	53	104	0	56	15175
2026-01-12 23:43:00.96	16.06	4.95	-42.5	-54.9	3.8	1.49e+00	0	53	104	0	56	15174
2026-01-12 23:43:01.97	16.07	5.03	-42.5	-55.0	3.8	1.49e+00	0	53	104	0	56	15228
2026-01-12 23:43:02.98	16.07	5.10	-42.5	-54.9	3.8	1.49e+00	0	53	104	0	56	15193
2026-01-12 23:43:03.99	16.07	5.17	-42.5	-54.9	3.8	1.49e+00	0	54	104	0	56	15175
2026-01-12 23:43:05.00	16.07	5.24	-42.5	-54.9	3.8	1.49e+00	0	54	104	0	56	15191
2026-01-12 23:43:06.01	16.07	5.32	-42.5	-54.9	3.8	1.49e+00	0	54	104	0	56	15155
2026-01-12 23:43:07.02	16.07	5.39	-42.4	-54.9	3.8	1.49e+00	0	54	104	0	56	15184
2026-01-12 23:43:08.03	16.08	5.46	-42.5	-54.9	3.8	1.49e+00	0	54	104	0	56	15157
2026-01-12 23:43:09.04	16.08	5.53	-42.4	-54.9	3.8	1.49e+00	0	54	104	0	56	15167
2026-01-12 23:43:10.05	16.08	5.61	-42.5	-54.9	3.8	1.49e+00	0	54	104	0	56	15156
2026-01-12 23:43:11.06	16.08	5.68	-42.4	-54.9	3.8	1.49e+00	0	54	104	0	56	15115
2026-01-12 23:43:12.07	16.08	5.75	-42.5	-54.9	3.8	1.49e+00	0	54	104	0	56	15158
2026-01-12 23:43:13.08	16.08	5.83	-42.5	-54.9	3.8	1.49e+00	0	54	104	0	56	15190
2026-01-12 23:43:14.09	16.09	5.90	-42.5	-54.9	3.8	1.49e+00	0	54	104	0	56	15149
2026-01-12 23:43:15.10	16.09	5.98	-42.5	-54.9	3.8	1.49e+00	0	54	104	0	56	15187
2026-01-12 23:43:16.11	16.09	6.05	-42.4	-54.9	3.8	1.49e+00	0	54	104	0	56	15144
2026-01-12 23:43:17.12	16.09	6.13	-42.5	-54.9	3.8	1.49e+00	0	54	104	0	56	15199
2026-01-12 23:43:18.13	16.09	6.20	-42.5	-54.9	3.8	1.49e+00	0	55	104	0	56	15186
2026-01-12 23:43:19.14	16.09	6.28	-42.5	-54.9	3.8	1.49e+00	0	54	104	0	56	15209
2026-01-12 23:43:20.15	16.10	6.35	-42.5	-54.9	3.8	1.49e+00	0	54	104	0	56	15142
2026-01-12 23:43:21.16	16.10	6.43	-42.4	-54.8	3.8	1.49e+00	0	55	104	0	56	15006
2026-01-12 23:43:22.17	16.10	6.50	-42.4	-54.8	3.8	1.49e+00	0	55	104	0	56	14937
2026-01-12 23:43:23.18	16.10	6.58	-42.4	-54.7	3.8	1.49e+00	0	55	104	0	56	14797
2026-01-12 23:43:24.19	16.10	6.66	-42.4	-54.7	3.8	1.49e+00	0	55	104	0	56	14766
2026-01-12 23:43:25.20	16.10	6.73	-42.4	-54.6	3.8	1.49e+00	0	55	104	0	56	14576
2026-01-12 23:43:26.21	16.10	6.81	-42.4	-54.4	3.8	1.49e+00	0	55	104	0	56	14314
2026-01-12 23:43:27.22	16.11	6.89	-42.4	-54.2	3.8	1.49e+00	0	55	104	0	56	14009
2026-01-12 23:43:28.24	16.11	6.97	-42.3	-53.9	3.8	1.49e+00	0	55	104	0	56	13467
2026-01-12 23:43:29.25	16.11	7.04	-42.3	-53.4	3.8	1.49e+00	0	55	104	0	56	12756
2026-01-12 23:43:30.25	16.11	7.12	-42.2	-52.4	3.9	1.48e+00	0	55	104	0	56	11411
2026-01-12 23:43:31.27	16.11	7.20	-42.1	-51.7	3.9	1.48e+00	0	55	104	0	56	10464
2026-01-12 23:43:32.27	16.11	7.28	-41.8	-50.1	4.6	1.45e+00	0	55	104	0	55	9208
2026-01-12 23:43:33.29	16.11	7.35	-41.6	-49.0	5.1	7.25e-01	0	55	0	1048576	55	8105
2026-01-12 23:43:34.30	16.12	7.43	-41.3	-47.7	6.0	3.94e-01	0	55	0	4194304	54	7424
2026-01-12 23:43:35.31	16.12	7.51	-40.9	-46.4	7.0	1.62e-01	0	55	0	7340032	53	6771
2026-01-12 23:43:36.32	16.12	7.59	-40.4	-45.1	8.3	6.19e-02	0	55	0	10485760	52	6191
2026-01-12 23:43:37.33	16.12	7.67	-40.2	-44.7	8.8	3.07e-02	0	55	0	13631488	52	5861
2026-01-12 23:43:38.34	16.12	7.75	-40.1	-44.3	9.1	2.16e-02	0	55	0	16777216	52	5634
2026-01-12 23:43:39.35	16.12	7.83	-40.0	-44.3	9.2	2.12e-02	0	55	0	19922944	52	5610
2026-01-12 23:43:40.36	16.12	7.91	-40.2	-44.6	8.8	2.55e-02	0	55	0	23068672	52	5842
2026-01-12 23:43:41.37	16.12	7.99	-40.7	-45.8	7.6	7.73e-02	0	55	0	26214400	52	6690
2026-01-12 23:43:42.38	16.13	8.07	-41.0	-46.7	6.9	1.67e-01	0	55	0	29360128	52	7451
2026-01-12 23:43:43.39	16.13	8.15	-41.4	-46.8	7.0	2.05e-01	0	55	0	32505856	53	7099
2026-01-12 23:43:44.40	16.13	8.23	-40.9	-45.5	8.3	4.89e-01	0	55	0	35651584	53	6066
2026-01-12 23:43:45.41	16.13	8.32	-41.5	-52.5	3.8	1.49e+00	0	56	104	36700160	53	13578
2026-01-12 23:43:46.41	16.13	8.40	-41.3	-46.9	6.7	1.41e+00	0	56	104	36700160	54	6767
2026-01-12 23:43:47.42	16.13	8.48	-41.1	-46.0	7.8	1.33e-01	0	56	0	38797312	53	6423
2026-01-12 23:43:48.43	16.13	8.56	-40.6	-44.9	8.9	2.69e-02	0	56	0	41943040	53	5686
2026-01-12 23:43:49.44	16.13	8.64	-40.6	-44.8	9.0	2.65e-02	0	56	0	45088768	53	5620
2026-01-12 23:43:50.45	16.13	8.73	-40.5	-44.5	9.4	2.01e-02	0	56	0	48234496	52	5738
2026-01-12 23:43:51.46	16.14	8.81	-40.6	-44.6	9.3	1.44e-02	0	56	0	51380224	52	5822
2026-01-12 23:43:52.47	16.14	8.89	-40.7	-44.8	9.2	2.60e-02	0	56	0	54525952	52	5954
2026-01-12 23:43:53.48	16.14	8.98	-40.6	-44.5	9.6	1.39e-02	0	56	0	57671680	52	5735
2026-01-12 23:43:54.49	16.14	9.06	-40.5	-44.3	9.8	1.05e-02	0	56	0	60817408	52	5631
2026-01-12 23:43:55.50	16.14	9.14	-40.6	-44.3	9.8	9.64e-03	0	56	0	63963136	52	5656
2026-01-12 23:43:56.51	16.14	9.23	-40.5	-44.2	10.0	7.57e-03	0	56	0	67108864	52	5569
2026-01-12 23:43:57.52	16.14	9.31	-40.5	-44.2	10.1	6.77e-03	0	56	0	70254592	52	5532
2026-01-12 23:43:58.53	16.14	9.40	-40.5	-44.1	10.1	7.52e-03	0	56	0	73400320	52	5509
2026-01-12 23:43:59.54	16.14	9.48	-40.4	-43.9	10.4	4.93e-03	0	56	0	76546048	52	5341
2026-01-12 23:44:00.55	16.14	9.57	-40.7	-44.4	9.9	8.48e-03	0	56	0	79691776	52	5668
2026-01-12 23:44:01.56	16.14	9.66	-40.4	-43.9	10.5	4.44e-03	0	56	0	82837504	52	5349
2026-01-12 23:44:02.57	16.15	9.74	-40.6	-44.3	10.1	6.43e-03	0	56	0	85983232	52	5598
2026-01-12 23:44:03.58	16.15	9.83	-40.5	-44.0	10.4	4.74e-03	0	56	0	89128960	52	5409
2026-01-12 23:44:04.59	16.15	9.92	-40.5	-44.0	10.4	4.17e-03	0	56	0	92274688	52	5452
2026-01-12 23:44:05.60	16.15	10.00	-40.5	-44.1	10.3	5.35e-03	0	56	0	95420416	52	5470
2026-01-12 23:44:06.60	16.15	10.09	-40.6	-44.1	10.2	5.57e-03	0	56	0	98566144	52	5523
2026-01-12 23:44:07.61	16.15	10.18	-40.5	-44.0	10.4	4.92e-03	0	56	0	101711872	52	5446
2026-01-12 23:44:08.62	16.15	10.27	-40.6	-44.2	10.3	5.27e-03	0	56	0	104857600	52	5531
2026-01-12 23:44:09.63	16.15	10.35	-40.6	-44.2	10.2	5.93e-03	0	56	0	108003328	52	5556
2026-01-12 23:44:10.64	16.15	10.44	-40.5	-44.0	10.5	4.12e-03	0	56	0	111149056	52	5404
2026-01-12 23:44:11.65	16.15	10.53	-40.5	-44.0	10.5	3.89e-03	0	56	0	114294784	52	5414
2026-01-12 23:44:12.66	16.15	10.62	-40.6	-44.0	10.5	4.21e-03	0	56	0	117440512	52	5436
2026-01-12 23:44:13.67	16.15	10.71	-40.5	-43.9	10.6	3.80e-03	0	56	0	120586240	52	5381
2026-01-12 23:44:14.68	16.15	10.80	-40.5	-44.0	10.5	3.95e-03	0	56	0	123731968	52	5409
2026-01-12 23:44:15.69	16.15	10.89	-40.5	-43.8	10.7	2.91e-03	0	56	0	126877696	52	5330
2026-01-12 23:44:16.71	16.15	10.98	-40.5	-43.9	10.6	3.11e-03	0	56	0	130023424	52	5363
2026-01-12 23:44:17.71	16.16	11.07	-40.6	-44.0	10.6	3.18e-03	0	56	0	133169152	52	5419
2026-01-12 23:44:18.73	16.16	11.17	-40.5	-43.8	10.7	3.05e-03	0	56	0	136314880	52	5325
2026-01-12 23:44:19.74	16.16	11.26	-40.5	-43.9	10.8	2.88e-03	0	56	0	139460608	52	5343
2026-01-12 23:44:20.75	16.16	11.35	-40.6	-43.9	10.7	2.63e-03	0	57	0	142606336	52	5367
2026-01-12 23:44:21.76	16.16	11.44	-40.5	-43.7	10.9	1.94e-03	0	56	0	145752064	52	5265
2026-01-12 23:44:22.77	16.16	11.53	-40.5	-43.7	11.0	1.76e-03	0	57	0	149946368	52	5243
2026-01-12 23:44:23.78	16.16	11.63	-40.5	-43.7	11.1	1.75e-03	0	57	0	152043520	52	5220
2026-01-12 23:44:24.78	16.16	11.72	-40.5	-43.7	11.0	1.82e-03	0	57	0	155189248	52	5242
2026-01-12 23:44:25.79	16.16	11.81	-40.5	-43.6	11.1	1.77e-03	0	57	0	158334976	52	5202
2026-01-12 23:44:26.80	16.16	11.91	-40.5	-43.6	11.1	1.41e-03	0	57	0	161480704	52	5200
2026-01-12 23:44:27.82	16.16	12.00	-40.5	-43.6	11.2	1.42e-03	0	57	0	165675008	52	5187
2026-01-12 23:44:28.82	16.16	12.10	-40.4	-43.6	11.2	1.49e-03	0	57	0	168820736	52	5188
2026-01-12 23:44:29.83	16.16	12.19	-40.4	-43.6	11.2	1.35e-03	0	57	0	171966464	52	5180
2026-01-12 23:44:30.84	16.16	12.29	-40.4	-43.6	11.2	1.31e-03	0	57	0	175112192	52	5174
2026-01-12 23:44:31.85	16.16	12.38	-40.4	-43.5	11.3	1.06e-03	0	57	0	177209344	52	5145
2026-01-12 23:44:32.86	16.16	12.48	-40.4	-43.6	11.2	1.29e-03	0	57	0	180355072	52	5184
2026-01-12 23:44:33.87	16.16	12.58	-40.4	-43.5	11.2	1.36e-03	0	57	0	184549376	52	5156
2026-01-12 23:44:34.88	16.16	12.68	-40.4	-43.5	11.4	1.23e-03	0	57	0	187695104	52	5103
2026-01-12 23:44:35.89	16.16	12.77	-40.4	-43.4	11.4	8.73e-04	0	57	0	190840832	52	5080
2026-01-12 23:44:36.90	16.16	12.87	-40.4	-43.5	11.3	1.17e-03	0	57	0	193986560	52	5139
2026-01-12 23:44:37.91	16.16	12.97	-40.3	-43.4	11.4	1.05e-03	0	57	0	197132288	52	5081
2026-01-12 23:44:38.92	16.16	13.07	-40.4	-43.5	11.3	1.05e-03	0	57	0	200278016	52	5155
2026-01-12 23:44:39.93	16.16	13.17	-40.4	-43.4	11.4	1.04e-03	0	57	0	203423744	52	5097
2026-01-12 23:44:40.94	16.16	13.27	-40.4	-43.5	11.3	1.16e-03	0	57	0	206569472	52	5155
2026-01-12 23:44:41.95	16.16	13.37	-40.5	-43.6	11.3	1.15e-03	0	57	0	209715200	52	5185
2026-01-12 23:44:42.96	16.16	13.47	-40.4	-43.5	11.4	9.22e-04	0	57	0	212860928	52	5113
2026-01-12 23:44:43.97	16.16	13.57	-40.4	-43.5	11.5	8.58e-04	0	57	0	216006656	52	5104
2026-01-12 23:44:44.98	16.16	13.67	-40.5	-43.5	11.4	9.83e-04	0	57	0	219152384	52	5151
2026-01-12 23:44:45.98	16.16	13.77	-40.4	-43.5	11.5	7.67e-04	0	57	0	222298112	52	5104
2026-01-12 23:44:46.99	16.16	13.87	-40.4	-43.4	11.6	6.71e-04	0	57	0	225443840	52	5081
2026-01-12 23:44:48.00	16.16	13.98	-40.4	-43.5	11.5	7.57e-04	0	57	0	228589568	52	5104
2026-01-12 23:44:49.01	16.16	14.08	-40.4	-43.4	11.6	7.13e-04	0	57	0	231735296	52	5084
2026-01-12 23:44:50.02	16.16	14.18	-40.5	-43.5	11.5	7.33e-04	0	57	0	234881024	52	5123
2026-01-12 23:44:51.03	16.16	14.29	-40.4	-43.4	11.6	7.51e-04	0	57	0	238026752	52	5077
2026-01-12 23:44:52.04	16.16	14.39	-40.4	-43.3	11.7	4.99e-04	0	57	0	241172480	52	5023
2026-01-12 23:44:53.05	16.16	14.49	-40.4	-43.4	11.7	5.56e-04	0	57	0	244318208	52	5053
2026-01-12 23:44:54.06	16.16	14.60	-40.4	-43.4	11.7	5.39e-04	0	57	0	247463936	52	5049
2026-01-12 23:44:55.07	16.15	14.71	-40.4	-43.3	11.8	5.15e-04	0	57	0	250609664	52	5035
2026-01-12 23:44:56.07	16.15	14.81	-40.5	-43.4	11.7	5.19e-04	0	58	0	253755392	52	5061
2026-01-12 23:44:57.08	16.15	14.92	-40.4	-43.4	11.7	6.53e-04	0	57	0	256901120	52	5060
2026-01-12 23:44:58.09	16.15	15.02	-40.4	-43.4	11.7	5.68e-04	0	58	0	260046848	52	5060
2026-01-12 23:44:59.10	16.15	15.13	-40.4	-43.3	11.8	5.23e-04	0	57	0	263192576	52	5024
2026-01-12 23:45:00.11	16.15	15.24	-40.4	-43.3	11.8	4.49e-04	0	58	0	266338304	52	5003
2026-01-12 23:45:01.12	16.15	15.35	-40.4	-43.3	11.8	4.44e-04	0	58	0	269484032	52	5013
2026-01-12 23:45:02.14	16.15	15.46	-40.4	-43.2	11.9	4.22e-04	0	58	0	272629760	52	4969
2026-01-12 23:45:03.15	16.15	15.57	-40.4	-43.2	11.9	3.71e-04	0	57	0	275775488	52	4974
2026-01-12 23:45:04.16	16.15	15.68	-40.4	-43.2	11.9	4.39e-04	0	58	0	278921216	52	4981
2026-01-12 23:45:05.17	16.15	15.79	-40.5	-43.4	11.8	4.75e-04	0	58	0	282066944	52	5054
2026-01-12 23:45:06.18	16.15	15.90	-40.4	-43.3	11.8	4.52e-04	0	58	0	285212672	52	5020
2026-01-12 23:45:07.19	16.15	16.01	-40.5	-43.4	11.8	3.72e-04	0	58	0	288358400	52	5054
2026-01-12 23:45:08.20	16.14	16.12	-40.4	-43.3	12.0	4.06e-04	0	58	0	291504128	52	4992
2026-01-12 23:45:09.21	16.14	16.24	-40.5	-43.4	11.8	4.33e-04	0	58	0	294649856	52	5053
2026-01-12 23:45:10.22	16.14	16.35	-40.5	-43.4	11.8	4.53e-04	0	58	0	297795584	52	5083
2026-01-12 23:45:11.23	16.14	16.46	-40.5	-43.3	11.9	3.77e-04	0	58	0	300941312	52	5019
2026-01-12 23:45:12.24	16.14	16.58	-40.5	-43.4	11.8	4.49e-04	0	58	0	304087040	52	5074
2026-01-12 23:45:13.25	16.14	16.69	-40.6	-43.5	11.8	5.29e-04	0	58	0	307232768	52	5107
2026-01-12 23:45:14.26	16.14	16.81	-40.6	-43.5	11.8	5.19e-04	0	58	0	310378496	52	5127
2026-01-12 23:45:15.27	16.14	16.92	-40.6	-43.5	11.8	4.70e-04	0	58	0	313524224	52	5144
2026-01-12 23:45:16.28	16.13	17.04	-40.5	-43.4	11.9	4.16e-04	0	58	0	316669952	52	5082
2026-01-12 23:45:17.29	16.13	17.16	-40.6	-43.5	11.8	3.91e-04	0	58	0	319815680	52	5114
2026-01-12 23:45:18.30	16.13	17.27	-40.6	-43.4	11.9	3.91e-04	0	58	0	322961408	52	5056
2026-01-12 23:45:19.31	16.13	17.39	-40.6	-43.4	11.9	3.90e-04	0	58	0	326107136	52	5097
2026-01-12 23:45:20.32	16.13	17.51	-40.6	-43.4	11.9	4.36e-04	0	58	0	329252864	52	5093
2026-01-12 23:45:21.33	16.13	17.63	-40.6	-43.4	11.9	3.61e-04	0	58	0	332398592	52	5094
2026-01-12 23:45:22.34	16.13	17.75	-40.5	-43.4	12.0	3.48e-04	0	58	0	335544320	52	5051
2026-01-12 23:45:23.35	16.12	17.87	-40.5	-43.4	12.0	3.31e-04	0	58	0	338690048	52	5052
2026-01-12 23:45:24.37	16.12	17.99	-40.5	-43.4	12.0	2.68e-04	0	58	0	341835776	52	5045
2026-01-12 23:45:25.38	16.12	18.11	-40.5	-43.3	12.1	2.97e-04	0	58	0	344981504	52	5024
2026-01-12 23:45:26.39	16.12	18.23	-40.5	-43.3	12.2	2.51e-04	0	58	0	348127232	52	4987
2026-01-12 23:45:27.40	16.12	18.36	-40.5	-43.2	12.2	1.89e-04	0	58	0	351272960	52	4965
2026-01-12 23:45:28.41	16.12	18.48	-40.6	-43.4	12.1	2.53e-04	0	58	0	354418688	52	5049
2026-01-12 23:45:29.42	16.11	18.60	-40.5	-43.4	12.1	2.90e-04	0	58	0	357564416	52	5056
2026-01-12 23:45:30.43	16.11	18.73	-40.5	-43.3	12.2	2.51e-04	0	58	0	360710144	52	4997
2026-01-12 23:45:31.44	16.11	18.85	-40.6	-43.4	12.1	2.59e-04	0	58	0	363855872	52	5060
2026-01-12 23:45:32.45	16.11	18.98	-40.5	-43.3	12.2	2.51e-04	0	58	0	367001600	52	4993
2026-01-12 23:45:33.46	16.11	19.11	-40.5	-43.3	12.2	2.39e-04	0	58	0	370147328	52	4994
2026-01-12 23:45:34.47	16.10	19.23	-40.5	-43.2	12.3	2.00e-04	0	58	0	373293056	52	4934
2026-01-12 23:45:35.48	16.10	19.36	-40.5	-43.2	12.3	2.01e-04	0	58	0	376438784	52	4965
2026-01-12 23:45:36.49	16.10	19.49	-40.4	-43.2	12.3	1.79e-04	0	58	0	379584512	52	4930
2026-01-12 23:45:37.50	16.10	19.62	-40.4	-43.2	12.3	1.73e-04	0	58	0	382730240	52	4932
2026-01-12 23:45:38.51	16.09	19.75	-40.4	-43.1	12.4	1.51e-04	0	58	0	385875968	52	4873
2026-01-12 23:45:39.52	16.09	19.88	-40.4	-43.0	12.5	1.26e-04	0	58	0	389021696	52	4852
2026-01-12 23:45:40.53	16.09	20.01	-40.4	-43.0	12.5	1.11e-04	0	58	0	392167424	52	4830
2026-01-12 23:45:41.54	16.09	20.14	-40.3	-42.9	12.6	1.02e-04	0	58	0	395313152	52	4813
2026-01-12 23:45:42.55	16.08	20.28	-40.3	-42.8	12.7	9.99e-05	0	58	0	398458880	52	4754
2026-01-12 23:45:43.56	16.08	20.41	-40.2	-42.8	12.8	5.56e-05	0	58	0	401604608	52	4715
2026-01-12 23:45:44.57	16.08	20.54	-40.2	-42.7	12.8	6.86e-05	0	58	0	404750336	52	4698
2026-01-12 23:45:45.58	16.08	20.68	-40.2	-42.8	12.8	5.34e-05	0	58	0	407896064	52	4724
2026-01-12 23:45:46.59	16.07	20.81	-40.1	-42.6	13.0	5.03e-05	0	58	0	411041792	52	4624
2026-01-12 23:45:47.60	16.07	20.95	-40.2	-42.7	12.9	4.80e-05	0	58	0	414187520	52	4669
2026-01-12 23:45:48.61	16.07	21.09	-40.1	-42.6	13.0	6.10e-05	0	58	0	417333248	52	4610
2026-01-12 23:45:49.61	16.06	21.22	-40.0	-42.5	13.1	3.43e-05	0	58	0	420478976	52	4564
2026-01-12 23:45:50.62	16.06	21.36	-40.0	-42.4	13.3	1.52e-05	0	58	0	423624704	51	4772
2026-01-12 23:45:51.63	16.06	21.50	-39.9	-42.3	13.4	1.37e-05	0	58	0	426770432	51	4712
2026-01-12 23:45:52.64	16.05	21.64	-39.9	-42.3	13.4	1.75e-05	0	58	0	429916160	51	4742
2026-01-12 23:45:53.65	16.05	21.78	-39.9	-42.3	13.4	1.29e-05	0	58	0	433061888	51	4735
2026-01-12 23:45:54.66	16.05	21.92	-39.8	-42.1	13.6	1.14e-05	0	58	0	436207616	51	4620
2026-01-12 23:45:55.67	16.04	22.06	-39.8	-42.1	13.6	8.30e-06	0	58	0	439353344	51	4638
2026-01-12 23:45:56.68	16.04	22.21	-39.7	-41.9	13.8	7.60e-06	0	58	0	442499072	51	4537
2026-01-12 23:45:57.69	16.04	22.35	-39.7	-41.9	13.8	3.80e-06	0	58	0	445644800	51	4519
2026-01-12 23:45:58.70	16.03	22.50	-39.6	-41.8	14.0	1.50e-06	0	58	0	448790528	51	4457
2026-01-12 23:45:59.71	16.03	22.64	-39.6	-41.8	14.0	3.00e-06	0	58	0	451936256	51	4462
2026-01-12 23:46:00.72	16.03	22.79	-39.6	-41.7	14.0	3.00e-06	0	58	0	455081984	51	4428
2026-01-12 23:46:01.73	16.02	22.94	-39.6	-41.8	14.0	2.20e-06	0	58	0	458227712	51	4453
2026-01-12 23:46:02.74	16.02	23.08	-39.5	-41.7	14.1	3.00e-06	0	58	0	461373440	51	4403
2026-01-12 23:46:03.75	16.01	23.23	-39.6	-41.8	14.0	1.50e-06	0	58	0	464519168	51	4459
2026-01-12 23:46:04.76	16.01	23.38	-39.5	-41.7	14.1	3.00e-06	0	58	0	467664896	51	4427
2026-01-12 23:46:05.77	16.01	23.53	-39.5	-41.6	14.1	2.20e-06	0	58	0	470810624	51	4390
2026-01-12 23:46:06.78	16.00	23.69	-39.5	-41.6	14.2	3.00e-06	0	58	0	473956352	50	4642
2026-01-12 23:46:07.79	16.00	23.84	-39.5	-41.7	14.1	7.00e-07	0	58	0	477102080	50	4656
2026-01-12 23:46:08.80	15.99	23.99	-39.5	-41.7	14.1	2.20e-06	0	58	0	480247808	50	4675
2026-01-12 23:46:09.81	15.99	24.15	-39.6	-41.8	14.0	0.00e+00	0	58	0	483393536	50	4714
2026-01-12 23:46:10.82	15.98	24.30	-39.6	-41.8	14.0	2.20e-06	0	58	0	487587840	50	4729
2026-01-12 23:46:11.83	15.98	24.46	-39.6	-41.8	14.0	7.00e-07	0	59	0	490733568	50	4740
2026-01-12 23:46:12.84	15.98	24.61	-39.6	-41.8	14.0	5.30e-06	0	59	0	492830720	50	4716
2026-01-12 23:46:13.85	15.97	24.77	-39.6	-41.8	14.0	7.00e-07	0	59	0	495976448	50	4736
2026-01-12 23:46:14.86	15.97	24.93	-39.7	-41.9	13.9	2.20e-06	0	59	0	499122176	50	4765
2026-01-12 23:46:15.86	15.96	25.09	-39.6	-41.8	14.0	4.50e-06	0	59	0	502267904	50	4745
2026-01-12 23:46:16.87	15.96	25.25	-39.7	-41.9	13.9	1.50e-06	0	59	0	506462208	50	4797
2026-01-12 23:46:17.88	15.95	25.41	-39.8	-42.1	13.8	4.50e-06	0	58	0	509607936	50	4881
2026-01-12 23:46:18.90	15.95	25.58	-39.8	-42.0	13.8	6.10e-06	0	59	0	512753664	50	4839
2026-01-12 23:46:19.90	15.94	25.74	-39.9	-42.2	13.6	8.30e-06	0	59	0	515899392	50	4952
2026-01-12 23:46:20.91	15.93	25.90	-39.9	-42.1	13.7	1.06e-05	0	59	0	517996544	50	4921
2026-01-12 23:46:21.92	15.93	26.07	-39.9	-42.2	13.6	7.60e-06	0	59	0	522190848	50	4976
2026-01-12 23:46:22.93	15.92	26.24	-40.0	-42.4	13.5	1.06e-05	0	59	0	525336576	50	5045
2026-01-12 23:46:23.94	15.92	26.41	-40.1	-42.5	13.4	1.44e-05	0	59	0	528482304	50	5105
2026-01-12 23:46:24.96	15.91	26.58	-40.2	-42.6	13.3	1.75e-05	0	59	0	531628032	50	5163
2026-01-12 23:46:25.96	15.91	26.75	-40.3	-42.7	13.1	2.82e-05	0	59	0	534773760	51	4968
2026-01-12 23:46:26.97	15.90	26.92	-40.4	-42.8	13.0	3.28e-05	0	59	0	537919488	51	5031
2026-01-12 23:46:27.98	15.89	27.09	-40.5	-43.0	12.8	5.64e-05	0	59	0	541065216	51	5127
2026-01-12 23:46:28.99	15.89	27.26	-40.4	-43.0	12.9	5.34e-05	0	59	0	544210944	51	5115
2026-01-12 23:46:30.00	15.88	27.44	-40.6	-43.2	12.7	7.09e-05	0	59	0	547356672	51	5222
2026-01-12 23:46:31.01	15.87	27.61	-40.6	-43.1	12.7	8.01e-05	0	59	0	550502400	51	5205
2026-01-12 23:46:32.02	15.87	27.79	-40.7	-43.3	12.6	8.77e-05	0	59	0	553648128	51	5304
2026-01-12 23:46:33.03	15.86	27.97	-40.7	-43.3	12.5	1.05e-04	0	59	0	556793856	51	5336
2026-01-12 23:46:34.04	15.85	28.15	-40.7	-43.4	12.3	1.55e-04	0	59	0	559939584	52	5095
2026-01-12 23:46:35.05	15.85	28.33	-40.7	-43.4	12.3	1.36e-04	0	59	0	563085312	52	5097
2026-01-12 23:46:36.06	15.84	28.51	-40.8	-43.5	12.2	2.50e-04	0	59	0	566231040	52	5150
2026-01-12 23:46:37.07	15.83	28.69	-40.7	-43.4	12.4	1.45e-04	0	59	0	569376768	52	5073
2026-01-12 23:46:38.08	15.83	28.88	-40.7	-43.5	12.3	1.84e-04	0	59	0	572522496	52	5105
2026-01-12 23:46:39.09	15.82	29.06	-40.7	-43.4	12.4	1.46e-04	0	59	0	575668224	52	5051
2026-01-12 23:46:40.10	15.81	29.25	-40.7	-43.3	12.4	1.50e-04	0	59	0	578813952	52	5037
2026-01-12 23:46:41.11	15.80	29.44	-40.7	-43.4	12.4	1.42e-04	0	59	0	581959680	52	5055
2026-01-12 23:46:42.12	15.80	29.62	-40.6	-43.2	12.5	1.33e-04	0	59	0	585105408	52	4979
2026-01-12 23:46:43.13	15.79	29.81	-40.6	-43.3	12.5	1.25e-04	0	59	0	588251136	52	5007
2026-01-12 23:46:44.14	15.78	30.01	-40.5	-43.1	12.7	8.77e-05	0	59	0	591396864	52	4895
2026-01-12 23:46:45.15	15.77	30.20	-40.4	-42.9	12.8	5.41e-05	0	59	0	594542592	52	4806
2026-01-12 23:46:46.16	15.76	30.39	-40.3	-42.9	12.9	4.50e-05	0	59	0	597688320	52	4760
2026-01-12 23:46:47.17	15.75	30.59	-40.2	-42.6	13.2	2.44e-05	0	59	0	600834048	52	4615
2026-01-12 23:46:48.18	15.75	30.78	-40.1	-42.5	13.3	1.83e-05	0	59	0	603979776	52	4564
2026-01-12 23:46:49.19	15.74	30.98	-40.0	-42.3	13.5	1.29e-05	0	59	0	607125504	52	4484
2026-01-12 23:46:50.20	15.73	31.18	-40.0	-42.4	13.5	1.67e-05	0	59	0	610271232	52	4503
2026-01-12 23:46:51.21	15.72	31.38	-40.0	-42.4	13.4	1.06e-05	0	59	0	613416960	52	4508
2026-01-12 23:46:52.22	15.71	31.59	-40.0	-42.3	13.6	1.37e-05	0	59	0	616562688	51	4714
2026-01-12 23:46:53.23	15.70	31.79	-40.0	-42.3	13.7	5.30e-06	0	59	0	619708416	51	4713
2026-01-12 23:46:54.24	15.69	31.99	-40.0	-42.2	13.7	5.30e-06	0	59	0	622854144	51	4698
2026-01-12 23:46:55.25	15.68	32.20	-40.0	-42.2	13.7	7.60e-06	0	59	0	625999872	51	4705
2026-01-12 23:46:56.26	15.67	32.41	-40.1	-42.5	13.5	6.10e-06	0	59	0	629145600	51	4819
2026-01-12 23:46:57.27	15.66	32.62	-40.3	-42.7	13.2	1.44e-05	0	59	0	632291328	51	4942
2026-01-12 23:46:58.28	15.65	32.83	-40.4	-42.8	13.1	3.12e-05	0	59	0	635437056	51	5016
2026-01-12 23:46:59.29	15.64	33.04	-40.6	-43.2	12.7	5.34e-05	0	59	0	638582784	51	5263
2026-01-12 23:47:00.30	15.63	33.25	-40.6	-43.2	12.7	6.25e-05	0	59	0	641728512	51	5266
2026-01-12 23:47:01.31	15.62	33.47	-40.7	-43.3	12.6	7.55e-05	0	59	0	644874240	51	5331
2026-01-12 23:47:02.32	15.61	33.69	-40.7	-43.4	12.4	1.17e-04	0	59	0	648019968	52	5074
2026-01-12 23:47:03.33	15.59	33.90	-40.8	-43.5	12.4	1.38e-04	0	59	0	651165696	52	5121
2026-01-12 23:47:04.34	15.58	34.12	-40.9	-43.7	12.2	1.94e-04	0	59	0	654311424	52	5228
2026-01-12 23:47:05.35	15.57	34.35	-41.0	-43.8	12.1	2.66e-04	0	59	0	657457152	52	5307
2026-01-12 23:47:06.36	15.56	34.57	-41.1	-44.1	11.8	4.59e-04	0	59	0	660602880	52	5469
2026-01-12 23:47:07.37	15.55	34.79	-41.3	-44.4	11.5	8.67e-04	0	59	0	663748608	53	5369
2026-01-12 23:47:08.38	15.53	35.02	-41.4	-44.6	11.3	1.10e-03	0	59	0	666894336	53	5471
2026-01-12 23:47:09.39	15.52	35.25	-41.5	-44.6	11.2	1.14e-03	0	59	0	670040064	53	5519
2026-01-12 23:47:10.40	15.51	35.48	-41.6	-44.8	11.0	1.67e-03	0	59	0	673185792	53	5646
2026-01-12 23:47:11.41	15.49	35.71	-41.7	-45.0	10.9	2.27e-03	0	59	0	676331520	53	5724
2026-01-12 23:47:12.42	15.48	35.94	-41.7	-45.0	10.8	2.69e-03	0	59	0	679477248	53	5779
2026-01-12 23:47:13.43	15.47	36.18	-41.9	-45.3	10.5	3.06e-03	0	59	0	682622976	54	5614
2026-01-12 23:47:14.44	15.45	36.41	-41.8	-45.1	10.7	3.39e-03	0	59	0	685768704	54	5507
2026-01-12 23:47:15.45	15.44	36.65	-41.9	-45.4	10.4	3.78e-03	0	59	0	688914432	54	5687
2026-01-12 23:47:16.46	15.43	36.89	-41.8	-45.1	10.7	3.49e-03	0	59	0	692060160	54	5467
2026-01-12 23:47:17.46	15.41	37.13	-41.7	-45.0	10.9	2.53e-03	0	59	0	695205888	54	5447
2026-01-12 23:47:18.47	15.40	37.37	-41.6	-44.7	11.1	1.63e-03	0	59	0	698351616	54	5257
2026-01-12 23:47:19.49	15.38	37.62	-41.5	-44.6	11.3	1.33e-03	0	59	0	701497344	54	5201
2026-01-12 23:47:20.50	15.36	37.87	-41.4	-44.3	11.6	8.88e-04	0	59	0	704643072	54	5023
2026-01-12 23:47:21.51	15.35	38.12	-41.4	-44.4	11.5	7.64e-04	0	59	0	707788800	54	5055
2026-01-12 23:47:22.52	15.33	38.37	-41.4	-44.3	11.6	7.67e-04	0	59	0	710934528	54	5039
2026-01-12 23:47:23.53	15.32	38.62	-41.5	-44.5	11.3	9.93e-04	0	59	0	714080256	54	5152
2026-01-12 23:47:24.54	15.30	38.88	-41.4	-44.4	11.5	8.76e-04	0	59	0	717225984	54	5043
2026-01-12 23:47:25.55	15.28	39.13	-41.4	-44.4	11.5	8.23e-04	0	59	0	720371712	54	5095
2026-01-12 23:47:26.56	15.27	39.39	-41.5	-44.5	11.4	9.50e-04	0	59	0	723517440	54	5154
2026-01-12 23:47:27.57	15.25	39.65	-41.4	-44.3	11.6	7.51e-04	0	59	0	726663168	54	5026
2026-01-12 23:47:28.58	15.23	39.91	-41.4	-44.3	11.6	6.74e-04	0	59	0	729808896	54	5037
2026-01-12 23:47:29.59	15.21	40.18	-41.4	-44.3	11.5	6.39e-04	0	59	0	732954624	54	5038
2026-01-12 23:47:30.60	15.19	40.44	-41.2	-44.1	11.8	5.97e-04	0	59	0	736100352	54	4926
2026-01-12 23:47:31.61	15.17	40.71	-41.4	-44.4	11.6	6.84e-04	0	59	0	739246080	54	5046
2026-01-12 23:47:32.62	15.15	40.98	-41.3	-44.3	11.6	7.41e-04	0	59	0	742391808	54	5027
2026-01-12 23:47:33.63	15.13	41.26	-41.4	-44.4	11.5	8.12e-04	0	59	0	745537536	54	5080
2026-01-12 23:47:34.64	15.11	41.53	-41.5	-44.6	11.3	1.04e-03	0	59	0	748683264	54	5169
2026-01-12 23:47:35.64	15.09	41.80	-41.6	-44.8	11.1	1.85e-03	0	59	0	751828992	54	5293
2026-01-12 23:47:36.65	15.07	42.08	-41.8	-45.0	10.9	2.03e-03	0	59	0	754974720	54	5442
2026-01-12 23:47:37.66	15.05	42.36	-41.8	-45.1	10.7	2.56e-03	0	59	0	758120448	54	5499
2026-01-12 23:47:38.67	15.03	42.65	-41.9	-45.2	10.6	3.18e-03	0	59	0	761266176	54	5566
2026-01-12 23:47:39.68	15.00	42.93	-42.0	-45.5	10.4	4.58e-03	0	59	0	764411904	54	5729
2026-01-12 23:47:40.69	14.98	43.22	-42.0	-45.4	10.5	4.05e-03	0	59	0	767557632	54	5667
2026-01-12 23:47:41.70	14.96	43.51	-42.0	-45.4	10.4	4.26e-03	0	59	0	770703360	54	5710
2026-01-12 23:47:42.71	14.93	43.80	-42.0	-45.4	10.4	3.73e-03	0	60	0	773849088	54	5707
2026-01-12 23:47:43.72	14.91	44.09	-42.1	-45.6	10.3	5.17e-03	0	59	0	776994816	54	5812
2026-01-12 23:47:44.73	14.88	44.39	-42.1	-45.7	10.2	5.72e-03	0	59	0	780140544	54	5876
2026-01-12 23:47:45.74	14.86	44.69	-42.2	-45.9	10.0	7.54e-03	0	59	0	783286272	55	5696
2026-01-12 23:47:46.75	14.83	44.99	-42.3	-46.0	9.9	8.23e-03	0	59	0	786432000	55	5735
2026-01-12 23:47:47.77	14.81	45.29	-42.4	-46.2	9.7	1.16e-02	0	59	0	789577728	55	5915
2026-01-12 23:47:48.78	14.78	45.60	-42.3	-46.1	9.7	1.11e-02	0	60	0	792723456	55	5836
2026-01-12 23:47:49.79	14.75	45.91	-42.3	-46.1	9.8	1.03e-02	0	60	0	795869184	55	5842
2026-01-12 23:47:50.80	14.72	46.22	-42.2	-45.8	10.0	7.57e-03	0	59	0	799014912	55	5629
2026-01-12 23:47:51.81	14.69	46.53	-42.1	-45.6	10.3	6.03e-03	0	59	0	802160640	55	5483
2026-01-12 23:47:52.82	14.66	46.84	-41.9	-45.4	10.6	4.13e-03	0	59	0	806354944	55	5343
2026-01-12 23:47:53.83	14.63	47.16	-41.9	-45.2	10.7	3.44e-03	0	59	0	809500672	55	5253
2026-01-12 23:47:54.84	14.60	47.48	-41.7	-45.0	11.0	1.90e-03	0	59	0	811597824	55	5102
2026-01-12 23:47:55.85	14.57	47.80	-41.7	-44.9	11.0	1.85e-03	0	59	0	814743552	55	5059
2026-01-12 23:47:56.86	14.54	48.13	-41.6	-44.7	11.2	1.64e-03	0	59	0	817889280	55	4962
2026-01-12 23:47:57.87	14.50	48.45	-41.6	-44.7	11.2	1.37e-03	0	59	0	822083584	55	4969
2026-01-12 23:47:58.88	14.47	48.78	-41.5	-44.5	11.5	1.07e-03	0	59	0	825229312	54	5142
2026-01-12 23:47:59.89	14.43	49.11	-41.4	-44.3	11.6	7.67e-04	0	59	0	828375040	54	5028
2026-01-12 23:48:00.90	14.40	49.45	-41.2	-44.1	11.7	4.63e-04	0	59	0	831520768	54	4915
2026-01-12 23:48:01.91	14.36	49.79	-41.1	-43.9	12.1	3.39e-04	0	59	0	833617920	54	4771
2026-01-12 23:48:02.92	14.32	50.12	-41.2	-44.0	12.0	3.46e-04	0	59	0	837812224	54	4829
2026-01-12 23:48:03.93	14.28	50.47	-41.2	-44.1	11.9	4.25e-04	0	59	0	840957952	54	4891
2026-01-12 23:48:04.94	14.24	50.81	-41.4	-44.4	11.5	7.15e-04	0	59	0	844103680	54	5089
2026-01-12 23:48:05.95	14.20	51.16	-41.6	-44.7	11.2	1.31e-03	0	59	0	847249408	54	5262
2026-01-12 23:48:06.96	14.16	51.51	-41.7	-44.8	11.1	1.63e-03	0	59	0	850395136	54	5315
2026-01-12 23:48:07.97	14.12	51.86	-41.6	-44.7	11.2	1.38e-03	0	59	0	853540864	54	5256
2026-01-12 23:48:08.98	14.07	52.21	-41.4	-44.3	11.6	8.00e-04	0	59	0	856686592	54	5017
2026-01-12 23:48:09.99	14.03	52.57	-41.1	-43.9	12.0	3.58e-04	0	59	0	859832320	54	4793
2026-01-12 23:48:11.00	13.98	52.93	-40.9	-43.6	12.4	2.39e-04	0	59	0	862978048	53	4879
2026-01-12 23:48:12.01	13.93	53.29	-40.6	-43.1	12.8	6.63e-05	0	59	0	866123776	53	4650
2026-01-12 23:48:13.02	13.89	53.66	-40.7	-43.2	12.7	7.17e-05	0	59	0	869269504	53	4688
2026-01-12 23:48:14.03	13.84	54.02	-40.8	-43.4	12.6	9.53e-05	0	59	0	872415232	53	4801
2026-01-12 23:48:15.03	13.78	54.39	-40.9	-43.6	12.4	1.22e-04	0	59	0	875560960	53	4883
2026-01-12 23:48:16.04	13.73	54.76	-40.9	-43.6	12.4	1.47e-04	0	59	0	878706688	53	4916
2026-01-12 23:48:17.05	13.68	55.14	-40.8	-43.4	12.6	1.21e-04	0	59	0	881852416	53	4791
2026-01-12 23:48:18.06	13.62	55.52	-40.6	-43.1	12.8	4.95e-05	0	59	0	884998144	53	4643
2026-01-12 23:48:19.07	13.56	55.90	-40.3	-42.7	13.2	2.21e-05	0	59	0	888143872	52	4698
2026-01-12 23:48:20.08	13.50	56.28	-40.2	-42.6	13.3	1.52e-05	0	59	0	891289600	52	4620
2026-01-12 23:48:21.09	13.44	56.67	-40.4	-42.8	13.2	2.36e-05	0	59	0	894435328	52	4744
2026-01-12 23:48:22.10	13.38	57.06	-40.4	-42.8	13.2	2.82e-05	0	59	0	897581056	52	4740
2026-01-12 23:48:23.11	13.31	57.45	-40.4	-42.9	13.2	1.60e-05	0	60	0	900726784	52	4766
2026-01-12 23:48:24.13	13.25	57.85	-40.3	-42.7	13.3	2.36e-05	0	59	0	903872512	52	4685
2026-01-12 23:48:25.14	13.18	58.24	-40.3	-42.7	13.4	1.83e-05	0	59	0	907018240	52	4654
2026-01-12 23:48:26.14	13.11	58.64	-40.2	-42.5	13.6	1.44e-05	0	60	0	910163968	52	4563
2026-01-12 23:48:27.15	13.03	59.04	-40.0	-42.3	13.7	4.50e-06	0	60	0	913309696	52	4490
2026-01-12 23:48:28.16	12.96	59.45	-40.0	-42.2	13.9	6.10e-06	0	59	0	916455424	51	4669
2026-01-12 23:48:29.17	12.88	59.85	-39.9	-42.0	14.1	2.20e-06	0	59	0	919601152	51	4578
2026-01-12 23:48:30.18	12.80	60.26	-39.8	-42.0	14.1	2.20e-06	0	60	0	922746880	51	4565
2026-01-12 23:48:31.19	12.71	60.68	-39.9	-42.0	14.1	1.50e-06	0	59	0	925892608	51	4582
2026-01-12 23:48:32.20	12.63	61.09	-40.0	-42.2	13.9	4.50e-06	0	60	0	929038336	51	4677
2026-01-12 23:48:33.21	12.54	61.51	-40.0	-42.3	13.8	4.50e-06	0	60	0	932184064	51	4729
2026-01-12 23:48:34.22	12.44	61.93	-39.9	-42.0	14.1	1.50e-06	0	59	0	935329792	51	4592
2026-01-12 23:48:35.23	12.35	62.35	-39.6	-41.7	14.4	7.00e-07	0	60	0	938475520	51	4397
2026-01-12 23:48:36.24	12.25	62.78	-39.5	-41.5	14.6	0.00e+00	0	59	0	941621248	50	4595
2026-01-12 23:48:37.26	12.14	63.21	-39.3	-41.3	14.9	0.00e+00	0	60	0	944766976	50	4454
2026-01-12 23:48:38.26	12.03	63.64	-39.4	-41.4	14.7	0.00e+00	0	60	0	947912704	50	4521
2026-01-12 23:48:39.28	11.92	64.07	-39.4	-41.4	14.7	0.00e+00	0	59	0	951058432	50	4532
2026-01-12 23:48:40.29	11.81	64.51	-39.4	-41.4	14.7	0.00e+00	0	59	0	954204160	50	4527
2026-01-12 23:48:41.30	11.68	64.95	-39.4	-41.4	14.8	7.00e-07	0	59	0	957349888	50	4505
2026-01-12 23:48:42.30	11.56	65.38	-39.2	-41.1	15.0	0.00e+00	0	59	0	960495616	50	4370
2026-01-12 23:48:43.31	11.43	65.83	-39.0	-40.9	15.2	0.00e+00	0	59	0	963641344	49	4496
2026-01-12 23:48:44.32	11.29	66.27	-38.9	-40.8	15.3	0.00e+00	0	59	0	966787072	49	4477
2026-01-12 23:48:45.33	11.15	66.72	-39.1	-41.1	15.0	0.00e+00	0	59	0	969932800	49	4600
2026-01-12 23:48:46.34	11.00	67.17	-39.4	-41.5	14.6	7.00e-07	0	59	0	973078528	49	4815
2026-01-12 23:48:47.36	10.84	67.63	-39.5	-41.5	14.5	0.00e+00	0	59	0	976224256	49	4847
2026-01-12 23:48:48.37	10.68	68.08	-39.1	-41.1	15.0	0.00e+00	0	60	0	979369984	49	4603
2026-01-12 23:48:49.38	10.51	68.54	-39.0	-40.9	15.2	0.00e+00	0	59	0	982515712	49	4512
2026-01-12 23:48:50.39	10.33	69.00	-39.1	-41.0	15.1	0.00e+00	0	59	0	985661440	49	4566
2026-01-12 23:48:51.40	10.14	69.46	-39.1	-41.0	15.1	0.00e+00	0	59	0	988807168	49	4566
2026-01-12 23:48:52.41	9.94	69.92	-39.3	-41.3	14.8	0.00e+00	0	59	0	991952896	49	4716
2026-01-12 23:48:53.41	9.74	70.38	-39.1	-41.0	15.0	7.00e-07	0	59	0	995098624	49	4579
2026-01-12 23:48:54.42	9.52	70.85	-39.0	-40.8	15.2	0.00e+00	0	59	0	998244352	49	4487
2026-01-12 23:48:55.43	9.29	71.32	-39.1	-41.1	15.0	0.00e+00	0	59	0	1001390080	49	4606
2026-01-12 23:48:56.44	9.04	71.79	-39.1	-41.1	15.0	0.00e+00	0	59	0	1004535808	49	4617
2026-01-12 23:48:57.45	8.79	72.26	-38.9	-40.8	15.2	0.00e+00	0	59	0	1007681536	49	4453
2026-01-12 23:48:58.46	8.51	72.73	-38.7	-40.5	15.5	0.00e+00	0	60	0	1010827264	49	4318
2026-01-12 23:48:59.47	8.23	73.21	-38.8	-40.6	15.4	0.00e+00	0	59	0	1013972992	49	4386
2026-01-12 23:49:00.48	7.92	73.69	-39.1	-41.0	15.0	0.00e+00	0	60	0	1017118720	49	4587
2026-01-12 23:49:01.49	7.59	74.17	-39.1	-41.1	14.9	0.00e+00	0	59	0	1020264448	49	4613
2026-01-12 23:49:02.50	7.24	74.65	-39.0	-40.9	15.1	0.00e+00	0	59	0	1023410176	49	4516
2026-01-12 23:49:03.51	6.87	75.13	-38.9	-40.8	15.2	0.00e+00	0	60	0	1026555904	49	4450
2026-01-12 23:49:04.52	6.47	75.61	-39.1	-41.0	15.0	0.00e+00	0	60	0	1029701632	49	4574
2026-01-12 23:49:05.53	6.05	76.09	-39.2	-41.2	14.7	0.00e+00	0	59	0	1032847360	49	4699
2026-01-12 23:49:06.54	5.59	76.58	-39.3	-41.3	14.8	1.50e-06	0	60	0	1035993088	49	4709
2026-01-12 23:49:07.55	5.09	77.06	-39.3	-41.2	14.8	0.00e+00	0	60	0	1039138816	49	4696
2026-01-12 23:49:08.56	4.56	77.55	-39.2	-41.2	14.8	0.00e+00	0	60	0	1042284544	49	4689
2026-01-12 23:49:09.57	3.98	78.03	-39.3	-41.4	14.7	0.00e+00	0	59	0	1045430272	49	4761
2026-01-12 23:49:10.58	3.35	78.52	-39.4	-41.5	14.6	0.00e+00	0	59	0	1048576000	49	4815
2026-01-12 23:49:11.59	2.66	79.01	-39.4	-41.4	14.6	0.00e+00	0	59	0	1051721728	49	4783
2026-01-12 23:49:12.60	1.91	79.49	-39.4	-41.4	14.6	7.00e-07	0	60	0	1054867456	49	4781
2026-01-12 23:49:13.61	1.08	79.98	-39.6	-41.7	14.3	7.00e-07	0	60	0	1058013184	49	4967
2026-01-12 23:49:14.62	0.17	80.46	-39.6	-41.8	14.1	2.20e-06	0	60	0	1061158912	49	5013
2026-01-12 23:49:15.63	359.16	80.94	-39.3	-41.4	14.6	1.50e-06	0	59	0	1064304640	49	4772
2026-01-12 23:49:16.64	358.03	81.42	-39.4	-41.5	14.5	7.00e-07	0	60	0	1067450368	49	4824
2026-01-12 23:49:17.65	356.76	81.90	-39.6	-41.8	14.2	7.00e-07	0	60	0	1070596096	49	5005
2026-01-12 23:49:18.66	355.34	82.37	-39.6	-41.7	14.3	7.00e-07	0	60	0	1073741824	49	4954
2026-01-12 23:49:19.66	353.74	82.84	-39.4	-41.4	14.6	7.00e-07	0	60	0	1076887552	49	4783
2026-01-12 23:49:20.67	351.90	83.30	-39.3	-41.4	14.6	0.00e+00	0	60	0	1080033280	49	4763
2026-01-12 23:49:21.69	349.76	83.77	-39.8	-42.1	13.9	3.00e-06	0	60	0	1083179008	50	4878
2026-01-12 23:49:22.70	347.31	84.21	-39.9	-42.3	13.7	5.30e-06	0	60	0	1086324736	50	4984
2026-01-12 23:49:23.71	344.45	84.65	-40.2	-42.6	13.3	9.90e-06	0	60	0	1089470464	50	5218
2026-01-12 23:49:24.72	341.09	85.07	-40.3	-42.8	13.1	3.05e-05	0	60	0	1092616192	51	5005
2026-01-12 23:49:25.73	337.11	85.47	-40.1	-42.5	13.5	1.06e-05	0	60	0	1095761920	51	4825
2026-01-12 23:49:26.73	332.44	85.84	-39.7	-41.9	14.0	4.50e-06	0	60	0	1098907648	51	4501
2026-01-12 23:49:27.75	326.76	86.19	-39.8	-42.0	13.9	1.50e-06	0	60	0	1102053376	51	4569
2026-01-12 23:49:28.76	320.11	86.49	-39.7	-41.9	13.9	4.50e-06	0	60	0	1105199104	51	4542
2026-01-12 23:49:29.77	312.33	86.73	-39.5	-41.6	14.3	2.20e-06	0	60	0	1108344832	50	4611
2026-01-12 23:49:30.78	303.50	86.91	-39.4	-41.4	14.5	7.00e-07	0	60	0	1111490560	50	4519
2026-01-12 23:49:31.79	293.87	87.00	-39.4	-41.5	14.4	7.00e-07	0	60	0	1114636288	50	4565
2026-01-12 23:49:32.80	283.92	87.00	-39.5	-41.5	14.4	0.00e+00	0	59	0	1117782016	50	4579
2026-01-12 23:49:33.81	274.23	86.92	-39.6	-41.7	14.2	1.50e-06	0	60	0	1120927744	50	4691
2026-01-12 23:49:34.81	265.37	86.76	-39.6	-41.8	14.1	3.80e-06	0	60	0	1124073472	50	4709
2026-01-12 23:49:35.82	257.46	86.52	-39.8	-42.0	13.9	2.20e-06	0	60	0	1127219200	50	4859
2026-01-12 23:49:36.83	250.67	86.23	-39.7	-41.8	14.1	1.50e-06	0	60	0	1130364928	50	4740
2026-01-12 23:49:37.84	244.93	85.89	-39.4	-41.4	14.5	7.00e-07	0	60	0	1133510656	50	4509
2026-01-12 23:49:38.85	240.10	85.52	-39.3	-41.3	14.7	7.00e-07	0	60	0	1136656384	50	4443
2026-01-12 23:49:39.86	236.04	85.12	-39.3	-41.4	14.6	0.00e+00	0	59	0	1139802112	50	4502
2026-01-12 23:49:40.87	232.61	84.70	-39.5	-41.5	14.3	7.00e-07	0	60	0	1143996416	50	4589
2026-01-12 23:49:41.88	229.69	84.27	-39.2	-41.2	14.7	0.00e+00	0	60	0	1147142144	50	4408
2026-01-12 23:49:42.89	227.19	83.82	-39.0	-40.9	14.9	0.00e+00	0	60	0	1149239296	50	4285
2026-01-12 23:49:43.90	225.03	83.36	-39.3	-41.3	14.5	1.50e-06	0	60	0	1152385024	50	4489
2026-01-12 23:49:44.91	223.16	82.90	-39.6	-41.8	14.1	1.50e-06	0	60	0	1155530752	50	4725
2026-01-12 23:49:45.92	221.52	82.43	-39.7	-41.8	14.1	3.00e-06	0	60	0	1159725056	50	4738
2026-01-12 23:49:46.93	220.07	81.96	-39.8	-42.0	13.9	2.20e-06	0	60	0	1162870784	50	4827
2026-01-12 23:49:47.94	218.79	81.48	-39.7	-41.8	14.0	5.30e-06	0	60	0	1166016512	50	4758
2026-01-12 23:49:48.95	217.64	81.00	-39.7	-41.9	14.0	3.00e-06	0	60	0	1169162240	50	4762
2026-01-12 23:49:49.96	216.62	80.51	-39.4	-41.5	14.4	7.00e-07	0	60	0	1172307968	50	4556
2026-01-12 23:49:50.97	215.69	80.03	-39.4	-41.5	14.3	1.50e-06	0	60	0	1175453696	50	4561
2026-01-12 23:49:51.98	214.86	79.55	-39.3	-41.3	14.5	0.00e+00	0	60	0	1178599424	50	4474
2026-01-12 23:49:52.99	214.10	79.06	-39.3	-41.3	14.5	7.00e-07	0	60	0	1181745152	50	4487
2026-01-12 23:49:54.00	213.40	78.57	-39.5	-41.6	14.3	0.00e+00	0	60	0	1184890880	50	4644
2026-01-12 23:49:55.01	212.76	78.09	-39.9	-42.2	13.6	5.30e-06	0	60	0	1188036608	50	4965
2026-01-12 23:49:56.02	212.18	77.60	-39.6	-41.7	14.1	6.10e-06	0	60	0	1191182336	50	4702
2026-01-12 23:49:57.03	211.64	77.11	-39.4	-41.4	14.4	0.00e+00	0	60	0	1194328064	50	4539
2026-01-12 23:49:58.04	211.14	76.63	-39.3	-41.3	14.6	0.00e+00	0	59	0	1197473792	50	4455
2026-01-12 23:49:59.05	210.68	76.14	-39.7	-41.9	14.0	2.20e-06	0	60	0	1200619520	50	4791
2026-01-12 23:50:00.06	210.25	75.66	-40.0	-42.3	13.5	6.10e-06	0	60	0	1203765248	50	5015
2026-01-12 23:50:01.07	209.84	75.17	-39.9	-42.3	13.6	9.10e-06	0	60	0	1206910976	50	4990
2026-01-12 23:50:02.08	209.47	74.69	-39.5	-41.7	14.2	2.20e-06	0	60	0	1210056704	50	4655
2026-01-12 23:50:03.09	209.12	74.21	-39.4	-41.5	14.4	0.00e+00	0	60	0	1213202432	50	4559
2026-01-12 23:50:04.10	208.79	73.73	-39.5	-41.6	14.3	7.00e-07	0	60	0	1216348160	50	4623
2026-01-12 23:50:05.11	208.48	73.25	-40.2	-42.6	13.2	1.44e-05	0	60	0	1219493888	50	5190
2026-01-12 23:50:06.12	208.19	72.77	-40.6	-43.2	12.6	9.84e-05	0	60	0	1222639616	51	5240
2026-01-12 23:50:07.13	207.91	72.30	-40.5	-43.1	12.8	6.48e-05	0	60	0	1225785344	51	5167
2026-01-12 23:50:08.14	207.66	71.83	-40.0	-42.3	13.6	2.05e-05	0	60	0	1228931072	51	4727
2026-01-12 23:50:09.15	207.41	71.35	-39.4	-41.4	14.5	1.50e-06	0	60	0	1232076800	50	4510
2026-01-12 23:50:10.16	207.18	70.88	-39.0	-40.9	14.9	0.00e+00	0	60	0	1235222528	50	4283
2026-01-12 23:50:11.17	206.96	70.42	-39.0	-40.9	14.8	0.00e+00	0	60	0	1238368256	50	4265
2026-01-12 23:50:12.18	206.75	69.95	-39.3	-41.3	14.5	1.50e-06	0	60	0	1241513984	49	4706
2026-01-12 23:50:13.19	206.55	69.49	-39.5	-41.6	14.2	7.00e-07	0	60	0	1244659712	49	4871
2026-01-12 23:50:14.20	206.36	69.02	-39.8	-42.0	13.8	3.80e-06	0	60	0	1247805440	50	4837
2026-01-12 23:50:15.21	206.18	68.56	-39.3	-41.4	14.4	7.00e-07	0	60	0	1250951168	50	4509
2026-01-12 23:50:16.22	206.01	68.10	-38.9	-40.8	15.0	0.00e+00	0	60	0	1254096896	49	4484
2026-01-12 23:50:17.23	205.84	67.65	-38.6	-40.4	15.5	0.00e+00	0	60	0	1257242624	49	4244
2026-01-12 23:50:18.24	205.69	67.20	-38.7	-40.5	15.2	0.00e+00	0	60	0	1260388352	49	4312
2026-01-12 23:50:19.25	205.54	66.74	-39.0	-41.0	14.7	7.00e-07	0	60	0	1263534080	49	4546
2026-01-12 23:50:20.26	205.39	66.29	-39.9	-42.0	13.7	0.00e+00	0	60	0	1266679808	50	4867
2026-01-12 23:50:21.27	205.26	65.85	-40.1	-42.5	13.3	1.83e-05	0	60	0	1269825536	51	4831
2026-01-12 23:50:22.28	205.12	65.40	-39.3	-41.3	14.5	3.00e-06	0	60	0	1272971264	50	4466
2026-01-12 23:50:23.29	205.00	64.96	-38.6	-40.4	15.3	7.00e-07	0	60	0	1276116992	49	4267
2026-01-12 23:50:24.30	204.87	64.52	-38.5	-40.2	15.6	0.00e+00	0	60	0	1279262720	48	4421
2026-01-12 23:50:25.31	204.76	64.09	-38.7	-40.5	15.4	0.00e+00	0	60	0	1282408448	48	4561
2026-01-12 23:50:26.32	204.64	63.65	-38.8	-40.7	15.2	0.00e+00	0	60	0	1285554176	48	4652
2026-01-12 23:50:27.33	204.54	63.22	-39.6	-41.7	14.1	1.50e-06	0	60	0	1288699904	49	4927
2026-01-12 23:50:28.34	204.43	62.79	-40.4	-42.8	12.9	3.05e-05	0	60	0	1291845632	51	5032
2026-01-12 23:50:29.35	204.33	62.36	-40.5	-43.1	12.7	8.31e-05	0	60	0	1294991360	51	5181
2026-01-12 23:50:30.36	204.23	61.94	-40.2	-42.5	13.2	1.44e-05	0	60	0	1298137088	51	4860
2026-01-12 23:50:31.37	204.14	61.52	-39.7	-41.8	14.0	3.80e-06	0	60	0	1301282816	51	4449
2026-01-12 23:50:32.38	204.05	61.10	-39.5	-41.5	14.3	0.00e+00	0	60	0	1304428544	51	4339
2026-01-12 23:50:33.39	203.96	60.68	-39.3	-41.3	14.5	7.00e-07	0	60	0	1307574272	50	4480
2026-01-12 23:50:34.40	203.88	60.27	-39.0	-40.9	15.0	0.00e+00	0	60	0	1310720000	49	4501
2026-01-12 23:50:35.41	203.80	59.85	-39.3	-41.3	14.5	0.00e+00	0	60	0	1313865728	49	4741
2026-01-12 23:50:36.42	203.72	59.44	-39.7	-41.8	14.0	7.00e-07	0	60	0	1317011456	49	5000
2026-01-12 23:50:37.43	203.64	59.04	-40.3	-42.6	13.1	1.14e-05	0	60	0	1320157184	51	4923
2026-01-12 23:50:38.44	203.57	58.63	-40.7	-43.2	12.5	1.33e-04	0	60	0	1323302912	51	5276
2026-01-12 23:50:39.44	203.49	58.24	-40.4	-42.9	12.9	5.64e-05	0	60	0	1326448640	52	4762
2026-01-12 23:50:40.45	203.42	57.84	-40.1	-42.4	13.3	2.59e-05	0	60	0	1329594368	52	4505
2026-01-12 23:50:41.46	203.36	57.44	-40.0	-42.2	13.7	5.30e-06	0	60	0	1332740096	51	4665
2026-01-12 23:50:42.47	203.29	57.05	-39.7	-41.8	14.1	2.20e-06	0	60	0	1335885824	51	4473
2026-01-12 23:50:43.48	203.23	56.66	-40.3	-42.6	13.2	1.14e-05	0	60	0	1339031552	51	4925
2026-01-12 23:50:44.49	203.17	56.27	-40.7	-43.3	12.5	7.70e-05	0	60	0	1342177280	52	5006
2026-01-12 23:50:45.50	203.11	55.89	-40.8	-43.5	12.3	1.46e-04	0	60	0	1345323008	52	5108
2026-01-12 23:50:46.51	203.05	55.51	-41.2	-44.1	11.6	5.68e-04	0	60	0	1348468736	52	5492
2026-01-12 23:50:47.52	202.99	55.13	-41.6	-44.9	10.8	2.25e-03	0	60	0	1351614464	53	5706
2026-01-12 23:50:48.54	202.94	54.74	-41.9	-45.5	10.2	4.04e-03	0	60	0	1354760192	54	5725
2026-01-12 23:50:49.55	202.88	54.37	-42.0	-45.6	10.1	8.09e-03	0	60	0	1357905920	54	5852
2026-01-12 23:50:50.56	202.83	54.00	-41.6	-44.9	10.8	3.57e-03	0	60	0	1361051648	54	5354
2026-01-12 23:50:51.57	202.78	53.63	-40.9	-43.7	12.0	5.77e-04	0	60	0	1364197376	53	4939
2026-01-12 23:50:52.58	202.73	53.26	-40.4	-42.8	12.9	6.02e-05	0	60	0	1367343104	52	4735
2026-01-12 23:50:53.59	202.68	52.90	-40.1	-42.5	13.3	2.28e-05	0	60	0	1370488832	52	4546
2026-01-12 23:50:54.60	202.64	52.54	-40.3	-42.8	13.1	2.05e-05	0	60	0	1373634560	52	4706
2026-01-12 23:50:55.60	202.59	52.18	-40.9	-43.6	12.1	1.43e-04	0	60	0	1376780288	52	5188
2026-01-12 23:50:56.61	202.55	51.83	-41.2	-44.1	11.6	6.28e-04	0	60	0	1379926016	53	5215
2026-01-12 23:50:57.62	202.50	51.47	-41.7	-44.9	10.8	2.08e-03	0	60	0	1383071744	53	5700
2026-01-12 23:50:58.63	202.46	51.12	-42.0	-45.5	10.1	5.83e-03	0	60	0	1386217472	54	5775
2026-01-12 23:50:59.64	202.42	50.77	-42.2	-45.9	9.8	1.04e-02	0	60	0	1389363200	55	5677
2026-01-12 23:51:00.65	202.38	50.43	-42.1	-45.7	9.9	8.96e-03	0	60	0	1392508928	55	5589
2026-01-12 23:51:01.66	202.34	50.09	-42.1	-45.8	9.9	7.79e-03	0	60	0	1395654656	55	5599
2026-01-12 23:51:02.67	202.30	49.74	-42.1	-45.8	9.9	9.19e-03	0	60	0	1398800384	55	5632
2026-01-12 23:51:03.68	202.26	49.41	-42.0	-45.6	10.1	7.28e-03	0	60	0	1401946112	55	5471
2026-01-12 23:51:04.69	202.23	49.07	-41.9	-45.3	10.5	4.29e-03	0	60	0	1405091840	55	5295
2026-01-12 23:51:05.70	202.19	48.74	-41.7	-45.1	10.6	3.41e-03	0	60	0	1408237568	55	5165
2026-01-12 23:51:06.71	202.16	48.41	-41.5	-44.5	11.2	1.68e-03	0	60	0	1411383296	55	4864
2026-01-12 23:51:07.72	202.12	48.08	-41.3	-44.3	11.4	9.14e-04	0	60	0	1414529024	54	5032
2026-01-12 23:51:08.73	202.09	47.75	-41.6	-44.8	10.9	1.44e-03	0	60	0	1417674752	54	5323
2026-01-12 23:51:09.74	202.06	47.43	-41.9	-45.3	10.3	4.35e-03	0	60	0	1420820480	54	5631
2026-01-12 23:51:10.75	202.03	47.11	-42.1	-45.8	9.8	9.02e-03	0	60	0	1423966208	54	5992
2026-01-12 23:51:11.76	202.00	46.79	-42.3	-46.2	9.3	1.71e-02	0	60	0	1427111936	55	5897
2026-01-12 23:51:12.77	201.97	46.47	-42.4	-46.3	9.3	1.97e-02	0	60	0	1430257664	55	5948
2026-01-12 23:51:13.78	201.94	46.16	-42.3	-46.0	9.5	1.52e-02	0	60	0	1433403392	55	5784
2026-01-12 23:51:14.79	201.91	45.85	-42.3	-46.1	9.5	1.47e-02	0	60	0	1436549120	55	5841
2026-01-12 23:51:15.80	201.88	45.54	-42.3	-46.1	9.5	1.62e-02	0	60	0	1439694848	55	5830
2026-01-12 23:51:16.81	201.85	45.23	-42.3	-46.0	9.6	1.36e-02	0	60	0	1442840576	55	5787
2026-01-12 23:51:17.82	201.82	44.93	-42.4	-46.4	9.2	1.63e-02	0	60	0	1445986304	55	6018
2026-01-12 23:51:18.83	201.80	44.63	-42.6	-46.7	9.0	2.65e-02	0	60	0	1449132032	55	6210
2026-01-12 23:51:19.84	201.77	44.33	-42.5	-46.4	9.1	2.41e-02	0	60	0	1452277760	55	6052
2026-01-12 23:51:20.85	201.75	44.03	-42.3	-46.2	9.4	1.54e-02	0	60	0	1455423488	55	5882
2026-01-12 23:51:21.86	201.72	43.74	-42.1	-45.7	9.9	1.11e-02	0	60	0	1458569216	55	5554
2026-01-12 23:51:22.87	201.70	43.44	-41.9	-45.3	10.3	6.57e-03	0	60	0	1462763520	55	5318
2026-01-12 23:51:23.88	201.67	43.15	-41.7	-45.0	10.6	3.47e-03	0	60	0	1464860672	55	5143
2026-01-12 23:51:24.89	201.65	42.86	-41.3	-44.2	11.5	1.15e-03	0	60	0	1468006400	54	4955
2026-01-12 23:51:25.91	201.63	42.57	-40.9	-43.6	12.1	3.73e-04	0	60	0	1471152128	53	4892
2026-01-12 23:51:26.91	201.60	42.29	-40.9	-43.6	12.1	2.32e-04	0	60	0	1475346432	53	4880
2026-01-12 23:51:27.93	201.58	42.01	-41.1	-44.0	11.7	4.52e-04	0	60	0	1478492160	53	5122
2026-01-12 23:51:28.94	201.56	41.73	-41.5	-44.6	11.1	1.53e-03	0	60	0	1481637888	53	5503
2026-01-12 23:51:29.95	201.54	41.45	-41.9	-45.4	10.3	3.97e-03	0	60	0	1484783616	54	5686
2026-01-12 23:51:30.96	201.52	41.17	-42.3	-46.1	9.5	1.19e-02	0	60	0	1487929344	55	5842
2026-01-12 23:51:31.97	201.50	40.90	-42.5	-46.5	9.1	2.28e-02	0	60	0	1491075072	55	6125
2026-01-12 23:51:32.98	201.48	40.63	-42.5	-46.6	9.0	2.73e-02	0	60	0	1494220800	55	6160
2026-01-12 23:51:33.99	201.46	40.36	-42.4	-46.4	9.1	2.29e-02	0	60	0	1497366528	55	6019
2026-01-12 23:51:35.00	201.44	40.09	-42.2	-46.0	9.5	1.60e-02	0	60	0	1500512256	55	5756
2026-01-12 23:51:36.01	201.42	39.83	-42.0	-45.7	9.9	9.82e-03	0	60	0	1503657984	55	5530
2026-01-12 23:51:37.02	201.40	39.56	-41.9	-45.3	10.2	6.60e-03	0	60	0	1506803712	55	5335
2026-01-12 23:51:38.03	201.38	39.30	-41.8	-45.1	10.4	5.44e-03	0	60	0	1509949440	55	5198
2026-01-12 23:51:39.04	201.36	39.04	-41.7	-45.0	10.6	3.94e-03	0	60	0	1513095168	55	5108
2026-01-12 23:51:40.05	201.35	38.79	-41.7	-45.0	10.6	3.38e-03	0	60	0	1516240896	55	5105
2026-01-12 23:51:41.06	201.33	38.53	-41.8	-45.1	10.5	3.90e-03	0	60	0	1519386624	55	5176
2026-01-12 23:51:42.06	201.31	38.28	-41.7	-45.0	10.6	3.64e-03	0	60	0	1522532352	55	5129
2026-01-12 23:51:43.07	201.30	38.03	-41.6	-44.9	10.8	2.77e-03	0	60	0	1525678080	55	5053
2026-01-12 23:51:44.08	201.28	37.78	-41.5	-44.6	11.0	2.16e-03	0	60	0	1528823808	55	4914
2026-01-12 23:51:45.09	201.26	37.53	-41.4	-44.4	11.2	1.50e-03	0	60	0	1531969536	54	5092
2026-01-12 23:51:46.10	201.25	37.28	-41.3	-44.3	11.4	1.15e-03	0	60	0	1535115264	54	5013
2026-01-12 23:51:47.11	201.23	37.04	-41.2	-44.1	11.6	7.67e-04	0	60	0	1538260992	54	4886
2026-01-12 23:51:48.12	201.22	36.79	-41.1	-44.0	11.7	6.15e-04	0	60	0	1541406720	54	4842
2026-01-12 23:51:49.13	201.20	36.55	-41.1	-43.9	11.7	5.48e-04	0	60	0	1544552448	54	4812
2026-01-12 23:51:50.14	201.19	36.31	-40.9	-43.8	11.9	4.45e-04	0	60	0	1547698176	53	4988
2026-01-12 23:51:51.15	201.17	36.08	-40.9	-43.7	12.0	4.15e-04	0	60	0	1550843904	53	4936
2026-01-12 23:51:52.16	201.16	35.84	-40.8	-43.5	12.1	2.97e-04	0	60	0	1553989632	53	4862
2026-01-12 23:51:53.17	201.15	35.61	-40.8	-43.6	12.1	2.69e-04	0	60	0	1557135360	53	4891
2026-01-12 23:51:54.18	201.13	35.37	-40.9	-43.6	12.1	2.61e-04	0	60	0	1560281088	53	4899
2026-01-12 23:51:55.19	201.12	35.14	-40.9	-43.7	11.9	3.64e-04	0	60	0	1563426816	53	4975
2026-01-12 23:51:56.20	201.11	34.91	-40.9	-43.7	11.9	3.79e-04	0	60	0	1566572544	53	4980
2026-01-12 23:51:57.21	201.09	34.69	-40.9	-43.6	12.1	3.39e-04	0	60	0	1569718272	53	4897
2026-01-12 23:51:58.21	201.08	34.46	-40.7	-43.3	12.4	2.09e-04	0	60	0	1572864000	53	4727
2026-01-12 23:51:59.22	201.07	34.24	-40.6	-43.1	12.5	1.20e-04	0	60	0	1576009728	53	4641
2026-01-12 23:52:00.23	201.06	34.02	-40.5	-43.0	12.6	9.53e-05	0	60	0	1579155456	53	4558
2026-01-12 23:52:01.24	201.04	33.80	-40.5	-43.1	12.6	1.08e-04	0	60	0	1582301184	52	4871
2026-01-12 23:52:02.25	201.03	33.58	-40.4	-42.8	12.8	7.09e-05	0	60	0	1585446912	52	4755
2026-01-12 23:52:03.26	201.02	33.36	-40.3	-42.8	12.9	6.40e-05	0	60	0	1588592640	52	4719
2026-01-12 23:52:04.27	201.01	33.14	-40.4	-42.8	12.8	3.96e-05	0	60	0	1591738368	52	4752
2026-01-12 23:52:05.28	201.00	32.93	-40.3	-42.8	12.8	5.79e-05	0	60	0	1594884096	52	4751
2026-01-12 23:52:06.29	200.99	32.72	-40.3	-42.8	12.8	5.87e-05	0	60	0	1598029824	52	4729
2026-01-12 23:52:07.30	200.98	32.50	-40.3	-42.8	12.8	5.72e-05	0	60	0	1601175552	52	4741
2026-01-12 23:52:08.31	200.96	32.29	-40.3	-42.7	12.9	6.17e-05	0	60	0	1604321280	52	4701
2026-01-12 23:52:09.33	200.95	32.08	-40.2	-42.6	13.0	3.81e-05	0	60	0	1607467008	52	4625
2026-01-12 23:52:10.34	200.94	31.88	-40.2	-42.7	13.0	3.50e-05	0	60	0	1610612736	52	4668
2026-01-12 23:52:11.35	200.93	31.67	-40.3	-42.9	12.8	5.95e-05	0	60	0	1613758464	52	4761
2026-01-12 23:52:12.35	200.92	31.47	-40.4	-42.9	12.7	8.08e-05	0	60	0	1616904192	52	4793
2026-01-12 23:52:13.36	200.91	31.26	-40.5	-43.1	12.5	1.05e-04	0	60	0	1620049920	52	4886
2026-01-12 23:52:14.38	200.90	31.06	-40.6	-43.3	12.3	1.64e-04	0	60	0	1623195648	52	4990
2026-01-12 23:52:15.38	200.89	30.86	-40.6	-43.3	12.2	2.02e-04	0	60	0	1626341376	52	5035
2026-01-12 23:52:16.39	200.88	30.66	-40.7	-43.5	12.1	2.41e-04	0	60	0	1629487104	52	5117
2026-01-12 23:52:17.40	200.88	30.47	-40.8	-43.5	12.1	3.21e-04	0	60	0	1632632832	52	5148
2026-01-12 23:52:18.41	200.87	30.27	-40.8	-43.6	12.0	3.06e-04	0	60	0	1635778560	52	5181
2026-01-12 23:52:19.42	200.86	30.07	-40.8	-43.6	11.9	4.10e-04	0	60	0	1638924288	52	5218
2026-01-12 23:52:20.43	200.85	29.88	-40.8	-43.6	12.0	3.70e-04	0	60	0	1642070016	52	5202
2026-01-12 23:52:21.44	200.84	29.69	-40.8	-43.5	12.1	2.65e-04	0	60	0	1645215744	52	5143
2026-01-12 23:52:22.45	200.83	29.50	-40.7	-43.4	12.2	2.08e-04	0	60	0	1648361472	52	5053
2026-01-12 23:52:23.46	200.82	29.31	-40.6	-43.3	12.3	1.69e-04	0	60	0	1651507200	52	4993
2026-01-12 23:52:24.47	200.81	29.12	-40.5	-43.2	12.4	1.33e-04	0	60	0	1654652928	52	4947
2026-01-12 23:52:25.48	200.81	28.93	-40.5	-43.1	12.5	1.50e-04	0	60	0	1657798656	52	4923
2026-01-12 23:52:26.49	200.80	28.75	-40.4	-43.0	12.6	9.15e-05	0	60	0	1660944384	52	4864
2026-01-12 23:52:27.50	200.79	28.56	-40.4	-43.0	12.6	1.05e-04	0	60	0	1664090112	52	4843
2026-01-12 23:52:28.51	200.78	28.38	-40.4	-43.0	12.6	1.09e-04	0	60	0	1667235840	52	4831
2026-01-12 23:52:29.52	200.77	28.20	-40.4	-43.0	12.6	9.00e-05	0	60	0	1670381568	52	4830
2026-01-12 23:52:30.53	200.77	28.02	-40.4	-42.9	12.7	8.23e-05	0	60	0	1673527296	52	4810
2026-01-12 23:52:31.54	200.76	27.84	-40.4	-42.9	12.7	8.31e-05	0	60	0	1676673024	52	4778
2026-01-12 23:52:32.55	200.75	27.66	-40.2	-42.7	12.9	6.48e-05	0	60	0	1679818752	52	4700
2026-01-12 23:52:33.56	200.75	27.48	-40.2	-42.7	12.9	5.34e-05	0	60	0	1682964480	52	4688
2026-01-12 23:52:34.57	200.74	27.30	-40.2	-42.6	13.0	4.50e-05	0	60	0	1686110208	52	4637
2026-01-12 23:52:35.58	200.73	27.13	-40.1	-42.5	13.1	2.97e-05	0	60	0	1689255936	52	4587
2026-01-12 23:52:36.59	200.72	26.95	-40.1	-42.5	13.1	2.59e-05	0	60	0	1692401664	52	4563
2026-01-12 23:52:37.60	200.72	26.78	-40.0	-42.3	13.2	2.89e-05	0	60	0	1695547392	52	4486
2026-01-12 23:52:38.61	200.71	26.61	-40.1	-42.4	13.2	2.74e-05	0	60	0	1698693120	51	4803
2026-01-12 23:52:39.61	200.70	26.44	-40.0	-42.3	13.3	2.21e-05	0	60	0	1701838848	51	4757
2026-01-12 23:52:40.62	200.70	26.27	-40.0	-42.3	13.4	1.75e-05	0	60	0	1704984576	51	4743
2026-01-12 23:52:41.64	200.69	26.10	-40.0	-42.3	13.4	1.60e-05	0	60	0	1708130304	51	4729
2026-01-12 23:52:42.65	200.69	25.93	-39.9	-42.2	13.5	1.14e-05	0	60	0	1711276032	51	4689
2026-01-12 23:52:43.66	200.68	25.76	-39.9	-42.2	13.4	1.60e-05	0	60	0	1714421760	51	4691
2026-01-12 23:52:44.67	200.67	25.60	-39.9	-42.2	13.5	8.30e-06	0	60	0	1717567488	51	4665
2026-01-12 23:52:45.68	200.67	25.43	-39.9	-42.1	13.5	9.90e-06	0	60	0	1720713216	51	4644
2026-01-12 23:52:46.69	200.66	25.27	-39.9	-42.2	13.5	1.22e-05	0	60	0	1723858944	51	4665
2026-01-12 23:52:47.70	200.66	25.11	-39.9	-42.3	13.4	9.90e-06	0	60	0	1727004672	51	4706
2026-01-12 23:52:48.71	200.65	24.95	-39.9	-42.2	13.5	1.52e-05	0	60	0	1730150400	51	4655
2026-01-12 23:52:49.72	200.64	24.79	-39.8	-42.1	13.5	1.22e-05	0	60	0	1733296128	51	4629
2026-01-12 23:52:50.73	200.64	24.63	-39.8	-42.0	13.6	9.10e-06	0	60	0	1736441856	51	4596
2026-01-12 23:52:51.74	200.63	24.47	-39.8	-42.0	13.6	7.60e-06	0	60	0	1739587584	51	4574
2026-01-12 23:52:52.75	200.63	24.31	-39.7	-42.0	13.7	3.80e-06	0	60	0	1742733312	51	4558
2026-01-12 23:52:53.76	200.62	24.15	-39.7	-42.0	13.7	8.30e-06	0	60	0	1745879040	51	4550
2026-01-12 23:52:54.77	200.62	24.00	-39.7	-42.0	13.7	3.80e-06	0	60	0	1749024768	51	4550
2026-01-12 23:52:55.78	200.61	23.84	-39.7	-41.9	13.7	6.10e-06	0	60	0	1752170496	51	4541
2026-01-12 23:52:56.80	200.61	23.69	-39.8	-42.0	13.6	6.10e-06	0	60	0	1755316224	51	4573
2026-01-12 23:52:57.81	200.60	23.53	-39.8	-42.0	13.6	1.14e-05	0	60	0	1758461952	51	4575
2026-01-12 23:52:58.82	200.60	23.38	-39.8	-42.1	13.5	6.10e-06	0	60	0	1761607680	51	4601
2026-01-12 23:52:59.83	200.59	23.23	-39.8	-42.1	13.5	6.10e-06	0	60	0	1764753408	51	4610
2026-01-12 23:53:00.84	200.59	23.08	-39.8	-42.1	13.5	7.60e-06	0	60	0	1767899136	51	4616
2026-01-12 23:53:01.85	200.58	22.93	-39.8	-42.1	13.5	7.60e-06	0	60	0	1771044864	51	4609
2026-01-12 23:53:02.86	200.58	22.78	-39.8	-42.0	13.5	1.37e-05	0	60	0	1774190592	51	4590
2026-01-12 23:53:03.87	200.57	22.63	-39.7	-42.0	13.6	9.90e-06	0	60	0	1778384896	51	4560
2026-01-12 23:53:04.88	200.57	22.49	-39.7	-41.9	13.6	6.10e-06	0	60	0	1780482048	51	4544
2026-01-12 23:53:05.89	200.57	22.34	-39.7	-42.0	13.6	5.30e-06	0	60	0	1783627776	51	4546
2026-01-12 23:53:06.90	200.56	22.19	-39.7	-42.0	13.6	9.90e-06	0	60	0	1786773504	51	4549
2026-01-12 23:53:07.91	200.56	22.05	-39.7	-42.0	13.6	8.30e-06	0	60	0	1789919232	51	4548
2026-01-12 23:53:08.92	200.55	21.91	-39.7	-42.0	13.6	6.10e-06	0	60	0	1794113536	51	4574
2026-01-12 23:53:09.93	200.55	21.76	-39.7	-42.0	13.6	6.80e-06	0	60	0	1797259264	51	4569
2026-01-12 23:53:10.94	200.55	21.62	-39.8	-42.0	13.5	5.30e-06	0	60	0	1800404992	51	4581
2026-01-12 23:53:11.95	200.54	21.48	-39.7	-42.0	13.5	1.52e-05	0	60	0	1803550720	51	4560
2026-01-12 23:53:12.96	200.54	21.34	-39.7	-42.0	13.5	6.80e-06	0	60	0	1805647872	51	4561
2026-01-12 23:53:13.97	200.53	21.20	-39.7	-42.0	13.5	9.90e-06	0	60	0	1809842176	51	4584
2026-01-12 23:53:14.98	200.53	21.06	-39.7	-42.0	13.6	1.60e-05	0	60	0	1812987904	51	4552
2026-01-12 23:53:15.99	200.53	20.92	-39.7	-41.9	13.6	1.14e-05	0	60	0	1816133632	51	4533
2026-01-12 23:53:17.00	200.52	20.79	-39.7	-42.0	13.5	1.14e-05	0	60	0	1819279360	51	4578
2026-01-12 23:53:18.01	200.52	20.65	-39.7	-42.0	13.5	6.80e-06	0	60	0	1822425088	51	4563
2026-01-12 23:53:19.02	200.52	20.51	-39.8	-42.0	13.5	1.22e-05	0	60	0	1825570816	51	4593
2026-01-12 23:53:20.03	200.51	20.38	-39.8	-42.1	13.4	1.52e-05	0	60	0	1828716544	51	4634
2026-01-12 23:53:21.04	200.51	20.24	-39.9	-42.2	13.3	1.06e-05	0	60	0	1831862272	51	4682
2026-01-12 23:53:22.05	200.50	20.11	-39.9	-42.3	13.2	2.89e-05	0	60	0	1835008000	51	4741
2026-01-12 23:53:23.06	200.50	19.98	-39.9	-42.2	13.3	1.83e-05	0	60	0	1838153728	51	4683
2026-01-12 23:53:24.07	200.50	19.84	-40.0	-42.4	13.1	2.28e-05	0	60	0	1841299456	51	4794
2026-01-12 23:53:25.08	200.49	19.71	-40.1	-42.5	13.0	4.19e-05	0	60	0	1844445184	51	4838
2026-01-12 23:53:26.09	200.49	19.58	-40.1	-42.5	13.0	3.66e-05	0	60	0	1847590912	51	4865
2026-01-12 23:53:27.10	200.49	19.45	-40.2	-42.6	12.8	4.50e-05	0	60	0	1850736640	51	4920
2026-01-12 23:53:28.11	200.49	19.32	-40.1	-42.6	12.9	6.71e-05	0	60	0	1853882368	51	4910
2026-01-12 23:53:29.12	200.48	19.19	-40.2	-42.7	12.8	6.33e-05	0	60	0	1857028096	51	4928
2026-01-12 23:53:30.13	200.48	19.06	-40.2	-42.7	12.8	4.80e-05	0	60	0	1860173824	51	4943
2026-01-12 23:53:31.14	200.48	18.94	-40.2	-42.6	12.8	5.79e-05	0	60	0	1863319552	51	4921
2026-01-12 23:53:32.14	200.47	18.81	-40.2	-42.8	12.7	6.79e-05	0	60	0	1866465280	51	4997
2026-01-12 23:53:33.15	200.47	18.68	-40.3	-42.8	12.7	9.61e-05	0	60	0	1869611008	51	5001
2026-01-12 23:53:34.16	200.47	18.56	-40.3	-42.8	12.6	9.30e-05	0	60	0	1872756736	51	5024
2026-01-12 23:53:35.17	200.47	18.43	-40.3	-42.9	12.5	9.76e-05	0	60	0	1875902464	51	5079
2026-01-12 23:53:36.18	200.46	18.31	-40.3	-42.9	12.5	1.08e-04	0	60	0	1879048192	51	5099
2026-01-12 23:53:37.19	200.46	18.19	-40.4	-43.0	12.5	1.23e-04	0	60	0	1882193920	51	5119
2026-01-12 23:53:38.20	200.46	18.06	-40.4	-43.1	12.4	1.61e-04	0	60	0	1885339648	51	5168
2026-01-12 23:53:39.21	200.46	17.94	-40.5	-43.1	12.3	1.56e-04	0	60	0	1888485376	51	5214
2026-01-12 23:53:40.22	200.45	17.82	-40.5	-43.2	12.3	1.89e-04	0	60	0	1891631104	51	5226
2026-01-12 23:53:41.23	200.45	17.70	-40.5	-43.2	12.2	2.10e-04	0	60	0	1894776832	51	5267
2026-01-12 23:53:42.23	200.45	17.58	-40.5	-43.3	12.1	2.29e-04	0	60	0	1897922560	51	5287
2026-01-12 23:53:43.24	200.45	17.46	-40.6	-43.3	12.1	2.33e-04	0	60	0	1901068288	51	5324
2026-01-12 23:53:44.25	200.44	17.34	-40.6	-43.4	12.0	3.31e-04	0	60	0	1904214016	51	5362
2026-01-12 23:53:45.26	200.44	17.22	-40.6	-43.3	12.1	2.61e-04	0	60	0	1907359744	51	5327
2026-01-12 23:53:46.27	200.44	17.10	-40.6	-43.4	12.0	3.39e-04	0	60	0	1910505472	51	5368
2026-01-12 23:53:47.28	200.44	16.98	-40.6	-43.3	12.0	3.20e-04	0	60	0	1913651200	51	5338
2026-01-12 23:53:48.29	200.43	16.87	-40.6	-43.4	12.0	2.76e-04	0	60	0	1916796928	51	5343
2026-01-12 23:53:49.30	200.43	16.75	-40.6	-43.4	12.0	3.29e-04	0	60	0	1919942656	51	5344
2026-01-12 23:53:50.31	200.43	16.63	-40.6	-43.4	12.0	3.13e-04	0	60	0	1923088384	51	5364
2026-01-12 23:53:51.32	200.43	16.52	-40.6	-43.4	12.0	3.03e-04	0	60	0	1926234112	51	5362
2026-01-12 23:53:52.33	200.43	16.40	-40.5	-43.3	12.1	2.74e-04	0	60	0	1929379840	51	5315
2026-01-12 23:53:53.34	200.42	16.29	-40.6	-43.3	12.1	3.00e-04	0	60	0	1932525568	51	5323
2026-01-12 23:53:54.35	200.42	16.17	-40.5	-43.3	12.0	2.77e-04	0	60	0	1935671296	51	5307
2026-01-12 23:53:55.36	200.42	16.06	-40.6	-43.3	12.0	3.57e-04	0	60	0	1938817024	51	5330
