passes_logs/2026/01/12/R2.0S_Moscow/R2.0S_Moscow__20260112_113329_NOAA_21_JPSS-2_rec.log

#Pass ID: 20260112_113329_NOAA 21 (JPSS-2)
#Satellite: NOAA 21 (JPSS-2)
#Configuration: NOAA-21
#almurnet v.1.7.20251203
#Start time: 2026-01-12 11:35:21

#Version: 2.2.20231116
#Station: R2.0S_Moscow
#Location: 37.707566 lon 55.798166 lat
#TLE: 1 54234U 22150A   26011.27699114  .00000090  00000+0  63771-4 0  9993
#TLE: 2 54234  98.7494 312.2218 0000765 314.9553  45.1561 14.19534106164285

#Time	Az	El	Level	Level2	SNR	BER	BlckErr	Temp	State	Recorded	gain1	gain2
2026-01-12 11:35:21.11	221.01	8.38	-45.0	-56.5	3.8	8.46e-01	0	59	0	0	60	14532
2026-01-12 11:35:22.11	221.12	8.44	-45.2	-57.5	3.8	1.49e+00	0	59	104	0	62	14388
2026-01-12 11:35:23.12	221.24	8.50	-45.2	-57.4	3.8	1.49e+00	0	60	104	0	62	14324
2026-01-12 11:35:24.13	221.36	8.56	-45.1	-57.3	3.8	1.49e+00	0	59	104	0	62	14202
2026-01-12 11:35:25.14	221.48	8.62	-45.1	-57.3	3.8	1.49e+00	0	60	104	0	61	14971
2026-01-12 11:35:26.15	221.60	8.68	-45.1	-57.3	3.8	1.49e+00	0	59	104	0	61	15004
2026-01-12 11:35:27.16	221.71	8.74	-44.9	-57.2	3.8	1.49e+00	0	59	104	0	61	14865
2026-01-12 11:35:28.18	221.83	8.81	-45.0	-57.2	3.8	1.49e+00	0	60	104	0	61	14781
2026-01-12 11:35:29.19	221.95	8.87	-44.9	-57.1	3.8	1.49e+00	0	59	104	0	61	14554
2026-01-12 11:35:30.19	222.07	8.93	-44.7	-56.9	3.8	1.49e+00	0	60	104	0	61	14314
2026-01-12 11:35:31.20	222.19	8.99	-44.5	-56.8	3.8	1.49e+00	0	60	104	0	61	14080
2026-01-12 11:35:32.21	222.32	9.05	-44.4	-56.5	3.8	1.49e+00	0	60	104	0	60	14507
2026-01-12 11:35:33.22	222.44	9.11	-44.4	-56.5	3.8	1.49e+00	0	60	104	0	60	14383
2026-01-12 11:35:34.23	222.56	9.17	-44.4	-56.4	3.8	1.49e+00	0	59	104	0	60	14341
2026-01-12 11:35:35.25	222.68	9.24	-44.4	-56.4	3.8	1.49e+00	0	59	104	0	60	14322
2026-01-12 11:35:36.26	222.81	9.30	-44.4	-56.4	3.8	1.49e+00	0	60	104	0	60	14221
2026-01-12 11:35:37.27	222.93	9.36	-44.4	-56.4	3.8	1.49e+00	0	60	104	0	60	14225
2026-01-12 11:35:38.28	223.06	9.42	-44.4	-56.4	3.8	1.49e+00	0	60	104	0	60	14226
2026-01-12 11:35:39.29	223.18	9.48	-44.4	-56.3	3.8	1.49e+00	0	59	104	0	60	14100
2026-01-12 11:35:40.30	223.31	9.54	-44.4	-56.3	3.8	1.49e+00	0	59	104	0	60	14070
2026-01-12 11:35:41.31	223.43	9.61	-44.4	-56.2	3.8	1.49e+00	0	60	104	0	60	13897
2026-01-12 11:35:42.32	223.56	9.67	-44.3	-56.1	3.8	1.49e+00	0	60	104	0	60	13758
2026-01-12 11:35:43.33	223.69	9.73	-44.3	-55.9	3.8	1.49e+00	0	59	104	0	60	13535
2026-01-12 11:35:44.34	223.81	9.79	-44.3	-55.8	3.8	1.49e+00	0	60	104	0	60	13312
2026-01-12 11:35:45.35	223.94	9.85	-44.3	-55.7	3.8	1.49e+00	0	60	104	0	60	13128
2026-01-12 11:35:46.36	224.07	9.92	-44.3	-55.4	3.8	1.49e+00	0	60	104	0	60	12772
2026-01-12 11:35:47.37	224.20	9.98	-44.2	-55.1	3.8	1.49e+00	0	60	104	0	60	12293
2026-01-12 11:35:48.38	224.33	10.04	-44.2	-54.8	3.8	1.49e+00	0	60	104	0	60	11873
2026-01-12 11:35:49.39	224.46	10.10	-44.1	-54.1	3.9	1.48e+00	0	60	104	0	60	10946
2026-01-12 11:35:50.40	224.59	10.16	-44.0	-53.0	4.2	1.47e+00	0	60	104	0	60	9701
2026-01-12 11:35:51.41	224.72	10.23	-44.0	-53.0	3.9	1.42e+00	0	60	104	0	59	10184
2026-01-12 11:35:52.42	224.85	10.29	-43.9	-51.7	4.6	1.22e+00	0	60	104	0	59	8833
2026-01-12 11:35:53.43	224.98	10.35	-43.8	-51.1	4.9	1.39e+00	0	60	104	0	59	8269
2026-01-12 11:35:54.44	225.12	10.41	-43.7	-50.7	5.1	6.88e-01	0	60	0	2097152	59	7861
2026-01-12 11:35:55.45	225.25	10.48	-43.6	-50.2	5.5	5.37e-01	0	60	0	5242880	59	7429
2026-01-12 11:35:56.46	225.38	10.54	-43.4	-49.7	5.8	4.06e-01	0	59	0	8388608	58	7418
2026-01-12 11:35:57.48	225.52	10.60	-43.3	-49.2	6.2	3.09e-01	0	60	0	11534336	58	7036
2026-01-12 11:35:58.48	225.65	10.66	-43.2	-49.0	6.3	2.64e-01	0	59	0	14680064	58	6879
2026-01-12 11:35:59.49	225.79	10.72	-43.1	-48.6	6.7	2.14e-01	0	60	0	17825792	58	6541
2026-01-12 11:36:00.50	225.92	10.79	-43.1	-48.4	6.8	1.79e-01	0	59	0	20971520	58	6413
2026-01-12 11:36:01.51	226.06	10.85	-43.0	-48.4	6.9	1.67e-01	0	59	0	24117248	58	6371
2026-01-12 11:36:02.52	226.20	10.91	-43.0	-48.4	6.8	1.74e-01	0	60	0	27262976	58	6406
2026-01-12 11:36:03.53	226.34	10.97	-43.1	-48.6	6.7	1.97e-01	0	59	0	30408704	58	6513
2026-01-12 11:36:04.55	226.48	11.04	-43.2	-48.8	6.6	2.08e-01	0	60	0	33554432	58	6651
2026-01-12 11:36:05.56	226.61	11.10	-43.1	-48.7	6.6	2.14e-01	0	59	0	36700160	58	6591
2026-01-12 11:36:06.57	226.75	11.16	-43.1	-48.5	6.8	1.93e-01	0	60	0	39845888	58	6475
2026-01-12 11:36:07.58	226.89	11.22	-42.9	-48.0	7.2	1.61e-01	0	60	0	42991616	57	6484
2026-01-12 11:36:08.59	227.03	11.29	-42.6	-47.2	8.0	8.90e-02	0	59	0	46137344	57	5887
2026-01-12 11:36:09.60	227.18	11.35	-42.2	-46.3	8.9	3.71e-02	0	59	0	49283072	56	5650
2026-01-12 11:36:10.61	227.32	11.41	-41.7	-45.4	9.7	1.61e-02	0	60	0	52428800	55	5371
2026-01-12 11:36:11.62	227.46	11.47	-41.3	-44.7	10.4	4.61e-03	0	59	0	55574528	54	5225
2026-01-12 11:36:12.63	227.60	11.54	-41.2	-44.4	10.7	3.45e-03	0	60	0	58720256	54	5096
2026-01-12 11:36:13.64	227.75	11.60	-41.1	-44.3	10.9	2.35e-03	0	59	0	61865984	54	5021
2026-01-12 11:36:14.65	227.89	11.66	-41.2	-44.4	10.7	2.97e-03	0	59	0	65011712	54	5093
2026-01-12 11:36:15.66	228.04	11.72	-44.2	-53.2	4.0	2.53e-01	0	60	104	68157440	59	10429
2026-01-12 11:36:16.67	228.18	11.79	-40.4	-43.9	5.0	1.48e+00	0	59	104	68157440	52	5387
2026-01-12 11:36:17.68	228.33	11.85	-40.6	-43.5	11.7	5.41e-01	0	60	0	68157440	53	4815
2026-01-12 11:36:18.69	228.47	11.91	-41.2	-44.4	10.8	4.21e-03	0	60	0	71303168	54	5077
2026-01-12 11:36:19.70	228.62	11.97	-41.7	-45.5	9.7	1.82e-03	0	60	0	74448896	53	6102
2026-01-12 11:36:20.71	228.77	12.04	-41.4	-44.9	10.2	1.09e+00	0	59	0	75497472	54	5376
2026-01-12 11:36:21.72	228.92	12.10	-40.6	-43.5	11.7	5.80e-04	0	60	0	78643200	53	4865
2026-01-12 11:36:22.73	229.07	12.16	-40.7	-43.6	11.6	7.44e-04	0	59	0	81788928	53	4885
2026-01-12 11:36:23.74	229.21	12.22	-40.6	-43.5	11.7	7.03e-04	0	60	0	84934656	53	4847
2026-01-12 11:36:24.75	229.37	12.28	-40.7	-43.7	11.5	6.78e-04	0	60	0	88080384	53	4936
2026-01-12 11:36:25.76	229.52	12.35	-40.6	-43.6	11.6	5.97e-04	0	60	0	91226112	53	4882
2026-01-12 11:36:26.77	229.67	12.41	-40.6	-43.5	11.8	4.87e-04	0	59	0	94371840	53	4837
2026-01-12 11:36:27.78	229.82	12.47	-40.5	-43.4	11.8	3.97e-04	0	59	0	97517568	53	4768
2026-01-12 11:36:28.80	229.97	12.53	-40.5	-43.3	11.9	3.39e-04	0	60	0	100663296	52	5021
2026-01-12 11:36:29.81	230.13	12.60	-40.5	-43.3	12.0	3.28e-04	0	60	0	103809024	52	5012
2026-01-12 11:36:30.82	230.28	12.66	-40.4	-43.2	12.1	3.21e-04	0	60	0	106954752	52	4940
2026-01-12 11:36:31.83	230.44	12.72	-40.4	-43.2	12.1	2.47e-04	0	60	0	110100480	52	4952
2026-01-12 11:36:32.84	230.59	12.78	-40.4	-43.2	12.1	2.95e-04	0	60	0	113246208	52	4949
2026-01-12 11:36:33.85	230.75	12.85	-40.4	-43.1	12.1	2.45e-04	0	60	0	116391936	52	4921
2026-01-12 11:36:34.86	230.90	12.91	-40.4	-43.1	12.1	2.68e-04	0	60	0	119537664	52	4919
2026-01-12 11:36:35.87	231.06	12.97	-40.4	-43.1	12.2	2.35e-04	0	59	0	122683392	52	4887
2026-01-12 11:36:36.88	231.22	13.03	-40.4	-43.1	12.2	2.84e-04	0	59	0	125829120	52	4893
2026-01-12 11:36:37.89	231.38	13.09	-40.4	-43.1	12.2	2.08e-04	0	60	0	128974848	52	4913
2026-01-12 11:36:38.90	231.54	13.16	-40.4	-43.1	12.2	2.22e-04	0	60	0	132120576	52	4875
2026-01-12 11:36:39.91	231.69	13.22	-40.3	-43.0	12.3	1.78e-04	0	60	0	135266304	52	4853
2026-01-12 11:36:40.92	231.86	13.28	-40.3	-43.0	12.3	1.70e-04	0	60	0	138412032	52	4835
2026-01-12 11:36:41.93	232.02	13.34	-40.3	-43.0	12.4	1.81e-04	0	60	0	141557760	52	4819
2026-01-12 11:36:42.94	232.18	13.40	-40.3	-42.9	12.4	1.24e-04	0	60	0	144703488	52	4804
2026-01-12 11:36:43.95	232.34	13.46	-40.2	-42.9	12.5	1.43e-04	0	60	0	147849216	52	4762
2026-01-12 11:36:44.96	232.50	13.53	-40.2	-42.9	12.4	1.09e-04	0	60	0	150994944	52	4784
2026-01-12 11:36:45.97	232.67	13.59	-40.2	-42.8	12.5	1.33e-04	0	60	0	154140672	52	4757
2026-01-12 11:36:46.98	232.83	13.65	-40.2	-42.9	12.5	1.32e-04	0	60	0	157286400	52	4760
2026-01-12 11:36:47.99	233.00	13.71	-40.2	-42.8	12.5	1.14e-04	0	60	0	160432128	52	4737
2026-01-12 11:36:49.00	233.16	13.77	-40.2	-42.7	12.6	7.85e-05	0	60	0	163577856	52	4694
2026-01-12 11:36:50.01	233.33	13.83	-40.2	-42.8	12.5	1.20e-04	0	60	0	166723584	52	4724
2026-01-12 11:36:51.02	233.49	13.89	-40.2	-42.8	12.5	1.14e-04	0	59	0	169869312	52	4730
2026-01-12 11:36:52.03	233.66	13.96	-40.2	-42.8	12.5	1.11e-04	0	60	0	173015040	52	4732
2026-01-12 11:36:53.04	233.83	14.02	-40.2	-42.9	12.5	1.01e-04	0	59	0	176160768	52	4765
2026-01-12 11:36:54.05	234.00	14.08	-40.3	-42.9	12.5	1.28e-04	0	60	0	179306496	52	4787
2026-01-12 11:36:55.06	234.17	14.14	-40.2	-42.8	12.6	1.20e-04	0	60	0	182452224	52	4713
2026-01-12 11:36:56.07	234.34	14.20	-40.3	-42.9	12.5	1.17e-04	0	60	0	185597952	52	4777
2026-01-12 11:36:57.08	234.51	14.26	-40.3	-42.9	12.4	1.35e-04	0	60	0	188743680	52	4810
2026-01-12 11:36:58.09	234.68	14.32	-40.2	-42.8	12.6	1.17e-04	0	59	0	191889408	52	4744
2026-01-12 11:36:59.10	234.85	14.38	-40.2	-42.8	12.6	8.01e-05	0	60	0	195035136	52	4712
2026-01-12 11:37:00.11	235.03	14.44	-40.2	-42.7	12.7	8.31e-05	0	60	0	198180864	52	4697
2026-01-12 11:37:01.12	235.20	14.50	-40.1	-42.6	12.7	7.09e-05	0	60	0	201326592	52	4651
2026-01-12 11:37:02.13	235.38	14.56	-40.1	-42.7	12.7	7.24e-05	0	59	0	204472320	52	4656
2026-01-12 11:37:03.14	235.55	14.62	-40.1	-42.7	12.7	7.40e-05	0	59	0	207618048	52	4660
2026-01-12 11:37:04.15	235.73	14.68	-40.2	-42.7	12.7	8.77e-05	0	59	0	210763776	52	4689
2026-01-12 11:37:05.16	235.90	14.74	-40.2	-42.8	12.6	9.46e-05	0	59	0	213909504	52	4730
2026-01-12 11:37:06.17	236.08	14.80	-40.3	-42.9	12.5	1.21e-04	0	60	0	217055232	52	4784
2026-01-12 11:37:07.18	236.26	14.86	-40.3	-42.9	12.4	1.11e-04	0	60	0	220200960	52	4812
2026-01-12 11:37:08.19	236.44	14.92	-40.4	-43.0	12.4	1.62e-04	0	60	0	223346688	52	4847
2026-01-12 11:37:09.20	236.62	14.98	-40.3	-42.9	12.5	1.45e-04	0	60	0	226492416	52	4762
2026-01-12 11:37:10.21	236.80	15.04	-40.3	-42.9	12.5	9.99e-05	0	60	0	229638144	52	4764
2026-01-12 11:37:11.22	236.98	15.10	-40.3	-42.9	12.4	1.33e-04	0	60	0	232783872	52	4813
2026-01-12 11:37:12.23	237.16	15.16	-40.3	-42.9	12.5	1.48e-04	0	60	0	235929600	52	4786
2026-01-12 11:37:13.24	237.34	15.22	-40.3	-42.9	12.5	1.31e-04	0	59	0	239075328	52	4797
2026-01-12 11:37:14.24	237.52	15.28	-40.3	-43.0	12.4	1.22e-04	0	60	0	242221056	52	4822
2026-01-12 11:37:15.25	237.70	15.34	-40.3	-42.9	12.5	1.21e-04	0	59	0	245366784	52	4803
2026-01-12 11:37:16.26	237.89	15.39	-40.3	-43.0	12.4	1.48e-04	0	60	0	248512512	52	4825
2026-01-12 11:37:17.27	238.07	15.45	-40.4	-43.1	12.4	1.48e-04	0	59	0	251658240	52	4871
2026-01-12 11:37:18.29	238.26	15.51	-40.4	-43.0	12.4	1.69e-04	0	60	0	254803968	52	4862
2026-01-12 11:37:19.29	238.44	15.57	-40.4	-43.1	12.4	1.82e-04	0	60	0	257949696	52	4871
2026-01-12 11:37:20.30	238.63	15.63	-40.4	-43.0	12.4	1.37e-04	0	60	0	261095424	52	4850
2026-01-12 11:37:21.31	238.82	15.69	-40.4	-43.0	12.5	1.31e-04	0	59	0	264241152	52	4820
2026-01-12 11:37:22.32	239.01	15.74	-40.4	-43.0	12.4	1.50e-04	0	60	0	267386880	52	4840
2026-01-12 11:37:23.33	239.20	15.80	-40.4	-43.0	12.4	1.40e-04	0	60	0	270532608	52	4863
2026-01-12 11:37:24.34	239.39	15.86	-40.4	-43.1	12.3	1.59e-04	0	60	0	273678336	52	4881
2026-01-12 11:37:25.35	239.58	15.92	-40.5	-43.1	12.3	1.69e-04	0	59	0	276824064	52	4919
2026-01-12 11:37:26.36	239.77	15.97	-40.4	-43.1	12.2	2.22e-04	0	60	0	279969792	52	4924
2026-01-12 11:37:27.37	239.96	16.03	-40.6	-43.3	12.1	2.40e-04	0	60	0	283115520	52	4998
2026-01-12 11:37:28.38	240.15	16.09	-40.6	-43.4	12.0	3.51e-04	0	60	0	286261248	52	5065
2026-01-12 11:37:29.39	240.35	16.14	-40.6	-43.4	12.0	3.51e-04	0	60	0	289406976	52	5066
2026-01-12 11:37:30.40	240.54	16.20	-40.6	-43.3	12.1	3.00e-04	0	59	0	292552704	52	5010
2026-01-12 11:37:31.40	240.73	16.26	-40.6	-43.4	12.0	3.10e-04	0	60	0	295698432	52	5078
2026-01-12 11:37:32.41	240.93	16.31	-40.5	-43.2	12.1	2.82e-04	0	59	0	298844160	52	4979
2026-01-12 11:37:33.42	241.12	16.37	-40.3	-43.0	12.4	1.52e-04	0	59	0	301989888	52	4821
2026-01-12 11:37:34.43	241.32	16.42	-40.4	-43.0	12.4	1.46e-04	0	59	0	305135616	52	4838
2026-01-12 11:37:35.44	241.52	16.48	-40.4	-43.1	12.3	1.66e-04	0	59	0	308281344	52	4888
2026-01-12 11:37:36.45	241.72	16.54	-40.3	-42.9	12.5	1.28e-04	0	59	0	311427072	52	4795
2026-01-12 11:37:37.46	241.92	16.59	-40.3	-42.9	12.5	9.91e-05	0	59	0	314572800	52	4774
2026-01-12 11:37:38.47	242.12	16.65	-40.3	-42.9	12.6	1.04e-04	0	59	0	317718528	52	4761
2026-01-12 11:37:39.48	242.32	16.70	-40.2	-42.8	12.6	1.04e-04	0	59	0	320864256	52	4726
2026-01-12 11:37:40.49	242.52	16.75	-40.3	-42.9	12.6	9.30e-05	0	60	0	324009984	52	4760
2026-01-12 11:37:41.50	242.72	16.81	-40.2	-42.8	12.7	8.31e-05	0	59	0	327155712	52	4715
2026-01-12 11:37:42.51	242.92	16.86	-40.2	-42.8	12.6	7.62e-05	0	60	0	330301440	52	4729
2026-01-12 11:37:43.52	243.12	16.92	-40.3	-42.8	12.6	1.12e-04	0	60	0	334495744	52	4757
2026-01-12 11:37:44.53	243.33	16.97	-40.3	-42.9	12.5	1.05e-04	0	60	0	337641472	52	4790
2026-01-12 11:37:45.54	243.53	17.02	-40.3	-43.0	12.5	9.07e-05	0	60	0	339738624	52	4815
2026-01-12 11:37:46.56	243.74	17.08	-40.3	-42.9	12.5	1.30e-04	0	60	0	342884352	52	4807
2026-01-12 11:37:47.56	243.94	17.13	-40.3	-43.0	12.5	1.25e-04	0	59	0	347078656	52	4815
2026-01-12 11:37:48.57	244.15	17.18	-40.3	-42.9	12.5	1.09e-04	0	60	0	350224384	52	4789
2026-01-12 11:37:49.58	244.36	17.24	-40.2	-42.8	12.7	9.99e-05	0	60	0	353370112	52	4719
2026-01-12 11:37:50.59	244.57	17.29	-40.3	-42.8	12.6	8.16e-05	0	60	0	356515840	52	4744
2026-01-12 11:37:51.61	244.78	17.34	-40.2	-42.8	12.7	9.38e-05	0	60	0	359661568	52	4708
2026-01-12 11:37:52.62	244.99	17.39	-40.2	-42.7	12.7	7.55e-05	0	60	0	362807296	52	4684
2026-01-12 11:37:53.63	245.20	17.44	-40.1	-42.6	12.9	6.63e-05	0	60	0	365953024	52	4617
2026-01-12 11:37:54.63	245.41	17.49	-40.1	-42.6	12.9	4.11e-05	0	59	0	369098752	52	4604
2026-01-12 11:37:55.64	245.62	17.54	-40.1	-42.6	12.9	3.73e-05	0	60	0	372244480	52	4620
2026-01-12 11:37:56.65	245.83	17.60	-40.1	-42.6	12.9	5.72e-05	0	59	0	375390208	52	4622
2026-01-12 11:37:57.66	246.04	17.65	-40.1	-42.5	12.9	5.41e-05	0	59	0	378535936	52	4585
2026-01-12 11:37:58.67	246.26	17.70	-40.2	-42.7	12.8	5.79e-05	0	60	0	381681664	52	4671
2026-01-12 11:37:59.68	246.47	17.75	-40.1	-42.6	12.9	5.34e-05	0	60	0	384827392	52	4620
2026-01-12 11:38:00.69	246.69	17.79	-40.2	-42.7	12.8	7.01e-05	0	60	0	387973120	52	4674
2026-01-12 11:38:01.70	246.90	17.84	-40.2	-42.7	12.7	6.63e-05	0	60	0	391118848	52	4674
2026-01-12 11:38:02.71	247.12	17.89	-40.2	-42.7	12.7	7.70e-05	0	60	0	394264576	52	4686
2026-01-12 11:38:03.72	247.33	17.94	-40.2	-42.7	12.7	6.02e-05	0	60	0	397410304	52	4682
2026-01-12 11:38:04.72	247.55	17.99	-40.1	-42.6	12.8	4.19e-05	0	60	0	400556032	52	4643
2026-01-12 11:38:05.73	247.77	18.04	-40.1	-42.5	12.9	6.48e-05	0	59	0	403701760	52	4591
2026-01-12 11:38:06.74	247.99	18.09	-40.0	-42.5	13.0	3.50e-05	0	60	0	406847488	52	4554
2026-01-12 11:38:07.75	248.21	18.13	-40.0	-42.4	13.1	2.74e-05	0	60	0	409993216	52	4527
2026-01-12 11:38:08.76	248.43	18.18	-40.1	-42.5	13.1	2.59e-05	0	60	0	413138944	51	4825
2026-01-12 11:38:09.77	248.65	18.23	-40.1	-42.5	13.1	3.73e-05	0	60	0	416284672	51	4830
2026-01-12 11:38:10.78	248.87	18.27	-40.1	-42.6	13.0	3.73e-05	0	60	0	419430400	51	4874
2026-01-12 11:38:11.79	249.09	18.32	-40.2	-42.7	12.9	4.27e-05	0	59	0	422576128	51	4933
2026-01-12 11:38:12.80	249.32	18.36	-40.1	-42.6	12.9	5.56e-05	0	60	0	425721856	51	4902
2026-01-12 11:38:13.81	249.54	18.41	-40.1	-42.6	13.0	3.96e-05	0	60	0	428867584	51	4885
2026-01-12 11:38:14.82	249.76	18.46	-40.0	-42.4	13.1	2.67e-05	0	60	0	432013312	51	4805
2026-01-12 11:38:15.83	249.99	18.50	-40.0	-42.4	13.2	2.59e-05	0	60	0	435159040	51	4776
2026-01-12 11:38:16.84	250.22	18.54	-39.9	-42.3	13.2	2.44e-05	0	60	0	438304768	51	4729
2026-01-12 11:38:17.85	250.44	18.59	-39.9	-42.3	13.2	1.37e-05	0	60	0	441450496	51	4740
2026-01-12 11:38:18.86	250.67	18.63	-39.9	-42.3	13.3	1.44e-05	0	60	0	444596224	51	4732
2026-01-12 11:38:19.87	250.90	18.68	-40.0	-42.3	13.2	3.35e-05	0	60	0	447741952	51	4743
2026-01-12 11:38:20.88	251.12	18.72	-40.0	-42.4	13.2	3.20e-05	0	60	0	450887680	51	4773
2026-01-12 11:38:21.89	251.35	18.76	-40.0	-42.4	13.1	2.59e-05	0	59	0	454033408	51	4796
2026-01-12 11:38:22.90	251.58	18.80	-40.1	-42.5	13.1	2.82e-05	0	60	0	457179136	51	4835
2026-01-12 11:38:23.91	251.81	18.84	-40.0	-42.4	13.1	2.74e-05	0	60	0	460324864	51	4790
2026-01-12 11:38:24.92	252.04	18.89	-40.0	-42.4	13.2	2.74e-05	0	60	0	463470592	51	4766
2026-01-12 11:38:25.93	252.27	18.93	-39.9	-42.3	13.3	1.75e-05	0	60	0	466616320	51	4711
2026-01-12 11:38:26.94	252.51	18.97	-39.9	-42.2	13.4	1.52e-05	0	60	0	469762048	51	4668
2026-01-12 11:38:27.95	252.74	19.01	-39.8	-42.1	13.5	1.37e-05	0	60	0	472907776	51	4615
2026-01-12 11:38:28.96	252.97	19.05	-39.9	-42.2	13.3	1.52e-05	0	59	0	476053504	51	4696
2026-01-12 11:38:29.97	253.20	19.09	-39.9	-42.3	13.3	1.44e-05	0	60	0	479199232	51	4706
2026-01-12 11:38:30.98	253.44	19.13	-39.9	-42.2	13.4	1.22e-05	0	60	0	482344960	51	4675
2026-01-12 11:38:31.99	253.67	19.16	-39.9	-42.2	13.3	1.67e-05	0	60	0	485490688	51	4688
2026-01-12 11:38:33.00	253.91	19.20	-39.9	-42.2	13.4	1.52e-05	0	60	0	488636416	51	4659
2026-01-12 11:38:34.01	254.15	19.24	-39.8	-42.1	13.5	8.30e-06	0	59	0	491782144	51	4639
2026-01-12 11:38:35.01	254.38	19.28	-39.8	-42.1	13.5	7.60e-06	0	60	0	494927872	51	4639
2026-01-12 11:38:36.02	254.62	19.31	-39.7	-42.0	13.6	5.30e-06	0	60	0	498073600	51	4572
2026-01-12 11:38:37.03	254.85	19.35	-39.7	-41.9	13.7	9.90e-06	0	60	0	501219328	51	4516
2026-01-12 11:38:38.04	255.09	19.39	-39.7	-41.9	13.6	8.30e-06	0	60	0	504365056	51	4530
2026-01-12 11:38:39.05	255.33	19.42	-39.7	-42.0	13.6	6.80e-06	0	60	0	507510784	51	4559
2026-01-12 11:38:40.06	255.57	19.46	-39.7	-42.0	13.6	1.06e-05	0	60	0	510656512	51	4567
2026-01-12 11:38:41.07	255.81	19.49	-39.8	-42.1	13.5	9.10e-06	0	60	0	513802240	51	4607
2026-01-12 11:38:42.08	256.05	19.53	-39.8	-42.0	13.5	8.30e-06	0	60	0	516947968	51	4592
2026-01-12 11:38:43.09	256.29	19.56	-39.7	-42.0	13.6	4.50e-06	0	60	0	520093696	51	4565
2026-01-12 11:38:44.10	256.53	19.59	-39.7	-42.0	13.6	4.50e-06	0	59	0	523239424	51	4568
2026-01-12 11:38:45.11	256.77	19.63	-39.7	-42.0	13.6	7.60e-06	0	60	0	526385152	51	4571
2026-01-12 11:38:46.12	257.02	19.66	-39.7	-41.9	13.6	8.30e-06	0	60	0	529530880	51	4545
2026-01-12 11:38:47.13	257.26	19.69	-39.7	-42.0	13.6	6.10e-06	0	60	0	532676608	51	4547
2026-01-12 11:38:48.14	257.50	19.72	-39.6	-41.9	13.7	3.80e-06	0	60	0	535822336	51	4495
2026-01-12 11:38:49.15	257.75	19.76	-39.7	-41.9	13.7	6.80e-06	0	60	0	538968064	51	4513
2026-01-12 11:38:50.16	257.99	19.79	-39.6	-41.9	13.7	5.30e-06	0	60	0	542113792	51	4511
2026-01-12 11:38:51.17	258.23	19.82	-39.7	-41.9	13.7	5.30e-06	0	60	0	545259520	51	4512
2026-01-12 11:38:52.18	258.48	19.85	-39.7	-42.0	13.6	6.80e-06	0	60	0	548405248	51	4558
2026-01-12 11:38:53.19	258.73	19.87	-39.7	-41.9	13.7	6.80e-06	0	60	0	551550976	51	4505
2026-01-12 11:38:54.20	258.97	19.90	-39.6	-41.9	13.8	6.10e-06	0	60	0	554696704	51	4497
2026-01-12 11:38:55.21	259.22	19.93	-39.6	-41.7	13.8	4.50e-06	0	60	0	557842432	51	4435
2026-01-12 11:38:56.22	259.47	19.96	-39.6	-41.8	13.8	3.80e-06	0	60	0	560988160	51	4452
2026-01-12 11:38:57.24	259.71	19.99	-39.6	-41.8	13.7	4.50e-06	0	60	0	564133888	51	4492
2026-01-12 11:38:58.24	259.96	20.01	-39.7	-41.9	13.7	6.10e-06	0	60	0	567279616	51	4519
2026-01-12 11:38:59.25	260.21	20.04	-39.7	-42.0	13.6	8.30e-06	0	60	0	570425344	51	4570
2026-01-12 11:39:00.27	260.46	20.07	-39.8	-42.0	13.5	4.50e-06	0	60	0	573571072	51	4594
2026-01-12 11:39:01.28	260.71	20.09	-39.8	-42.1	13.5	1.37e-05	0	60	0	576716800	51	4602
2026-01-12 11:39:02.29	260.96	20.12	-39.7	-42.0	13.6	9.90e-06	0	60	0	579862528	51	4580
2026-01-12 11:39:03.30	261.21	20.14	-39.8	-42.0	13.6	1.14e-05	0	60	0	583008256	51	4582
2026-01-12 11:39:04.31	261.46	20.16	-39.7	-41.9	13.7	3.00e-06	0	60	0	586153984	51	4505
2026-01-12 11:39:05.32	261.71	20.19	-39.6	-41.9	13.7	6.10e-06	0	60	0	589299712	51	4497
2026-01-12 11:39:06.33	261.96	20.21	-39.6	-41.8	13.8	7.60e-06	0	60	0	592445440	51	4492
2026-01-12 11:39:07.34	262.21	20.23	-39.7	-41.9	13.7	6.10e-06	0	60	0	595591168	51	4545
2026-01-12 11:39:08.35	262.46	20.25	-39.7	-42.0	13.6	8.30e-06	0	60	0	598736896	51	4554
2026-01-12 11:39:09.36	262.71	20.27	-39.7	-41.9	13.7	7.60e-06	0	60	0	601882624	51	4530
2026-01-12 11:39:10.37	262.97	20.29	-39.7	-41.9	13.7	3.80e-06	0	60	0	605028352	51	4532
2026-01-12 11:39:11.38	263.22	20.31	-39.7	-41.9	13.7	6.80e-06	0	60	0	608174080	51	4532
2026-01-12 11:39:12.39	263.47	20.33	-39.7	-41.9	13.7	8.30e-06	0	60	0	611319808	51	4509
2026-01-12 11:39:13.40	263.72	20.35	-39.7	-41.9	13.7	4.50e-06	0	60	0	614465536	51	4505
2026-01-12 11:39:14.41	263.98	20.37	-39.7	-42.0	13.6	3.80e-06	0	60	0	617611264	51	4568
2026-01-12 11:39:15.42	264.23	20.39	-39.7	-42.0	13.6	6.80e-06	0	60	0	620756992	51	4567
2026-01-12 11:39:16.43	264.49	20.41	-39.9	-42.2	13.4	1.06e-05	0	60	0	623902720	51	4674
2026-01-12 11:39:17.44	264.74	20.42	-39.9	-42.2	13.4	1.98e-05	0	60	0	627048448	51	4665
2026-01-12 11:39:18.46	265.00	20.44	-39.9	-42.2	13.4	9.10e-06	0	60	0	631242752	51	4678
2026-01-12 11:39:19.46	265.25	20.45	-39.9	-42.2	13.4	3.00e-06	0	60	0	633339904	51	4671
2026-01-12 11:39:20.47	265.50	20.47	-39.8	-42.1	13.6	1.06e-05	0	60	0	636485632	51	4614
2026-01-12 11:39:21.48	265.76	20.48	-39.8	-42.0	13.6	6.10e-06	0	60	0	639631360	51	4594
2026-01-12 11:39:22.49	266.02	20.50	-39.7	-42.0	13.6	7.60e-06	0	60	0	642777088	51	4567
2026-01-12 11:39:23.51	266.27	20.51	-39.7	-41.9	13.7	6.10e-06	0	60	0	646971392	51	4538
2026-01-12 11:39:24.52	266.53	20.52	-39.6	-41.8	13.8	6.10e-06	0	60	0	650117120	51	4475
2026-01-12 11:39:25.53	266.79	20.54	-39.7	-41.9	13.7	3.80e-06	0	60	0	653262848	51	4526
2026-01-12 11:39:26.54	267.04	20.55	-39.7	-41.9	13.7	5.30e-06	0	59	0	656408576	51	4507
2026-01-12 11:39:27.54	267.30	20.56	-39.7	-41.9	13.7	6.10e-06	0	60	0	658505728	51	4509
2026-01-12 11:39:28.55	267.55	20.57	-39.7	-41.9	13.7	5.30e-06	0	60	0	662700032	51	4498
2026-01-12 11:39:29.56	267.81	20.58	-39.7	-41.9	13.7	6.10e-06	0	60	0	665845760	51	4523
2026-01-12 11:39:30.57	268.07	20.59	-39.8	-42.0	13.6	9.90e-06	0	60	0	668991488	51	4583
2026-01-12 11:39:31.58	268.32	20.60	-39.8	-42.0	13.5	1.44e-05	0	60	0	672137216	51	4594
2026-01-12 11:39:32.59	268.58	20.61	-39.8	-42.1	13.5	8.30e-06	0	60	0	675282944	51	4602
2026-01-12 11:39:33.60	268.84	20.61	-39.8	-42.1	13.6	1.60e-05	0	59	0	678428672	51	4602
2026-01-12 11:39:34.61	269.10	20.62	-39.8	-42.1	13.6	1.29e-05	0	60	0	681574400	51	4606
2026-01-12 11:39:35.62	269.35	20.63	-39.8	-42.1	13.5	1.06e-05	0	60	0	684720128	51	4641
2026-01-12 11:39:36.63	269.61	20.63	-39.8	-42.1	13.5	8.30e-06	0	60	0	687865856	51	4618
2026-01-12 11:39:37.64	269.87	20.64	-39.8	-42.0	13.6	9.90e-06	0	60	0	691011584	51	4587
2026-01-12 11:39:38.65	270.13	20.64	-39.8	-42.0	13.6	9.10e-06	0	60	0	694157312	51	4588
2026-01-12 11:39:39.66	270.39	20.65	-39.8	-42.0	13.6	6.80e-06	0	60	0	697303040	51	4596
2026-01-12 11:39:40.67	270.64	20.65	-39.8	-42.0	13.6	9.90e-06	0	60	0	700448768	51	4593
2026-01-12 11:39:41.68	270.90	20.66	-39.7	-42.0	13.6	5.30e-06	0	60	0	703594496	51	4558
2026-01-12 11:39:42.69	271.16	20.66	-39.8	-42.0	13.6	9.10e-06	0	60	0	706740224	51	4580
2026-01-12 11:39:43.70	271.42	20.66	-39.7	-41.9	13.7	4.50e-06	0	59	0	709885952	51	4531
2026-01-12 11:39:44.71	271.68	20.66	-39.7	-42.0	13.7	6.80e-06	0	60	0	713031680	51	4563
2026-01-12 11:39:45.72	271.93	20.66	-39.7	-42.0	13.6	1.14e-05	0	60	0	716177408	51	4560
2026-01-12 11:39:46.73	272.19	20.66	-39.7	-42.0	13.7	1.06e-05	0	60	0	719323136	51	4556
2026-01-12 11:39:47.74	272.45	20.66	-39.8	-42.1	13.5	7.60e-06	0	60	0	722468864	51	4604
2026-01-12 11:39:48.76	272.71	20.66	-39.8	-42.1	13.5	7.60e-06	0	60	0	725614592	51	4607
2026-01-12 11:39:49.77	272.97	20.66	-39.8	-42.1	13.6	9.10e-06	0	60	0	728760320	51	4614
2026-01-12 11:39:50.78	273.23	20.66	-39.8	-42.1	13.5	1.14e-05	0	60	0	731906048	51	4599
2026-01-12 11:39:51.79	273.48	20.65	-39.7	-42.0	13.6	9.10e-06	0	60	0	735051776	51	4573
2026-01-12 11:39:52.80	273.74	20.65	-39.7	-42.0	13.6	9.90e-06	0	60	0	738197504	51	4567
2026-01-12 11:39:53.81	274.00	20.65	-39.8	-42.0	13.6	1.44e-05	0	60	0	741343232	51	4591
2026-01-12 11:39:54.82	274.26	20.64	-39.8	-42.1	13.6	1.44e-05	0	60	0	744488960	51	4604
2026-01-12 11:39:55.83	274.52	20.64	-39.8	-42.0	13.6	1.29e-05	0	60	0	747634688	51	4589
2026-01-12 11:39:56.84	274.77	20.63	-39.8	-42.0	13.5	9.10e-06	0	60	0	750780416	51	4590
2026-01-12 11:39:57.85	275.03	20.63	-39.8	-42.1	13.5	6.80e-06	0	60	0	753926144	51	4602
2026-01-12 11:39:58.86	275.29	20.62	-39.8	-42.1	13.5	1.52e-05	0	60	0	757071872	51	4614
2026-01-12 11:39:59.87	275.55	20.61	-39.8	-42.2	13.5	1.52e-05	0	60	0	760217600	51	4653
2026-01-12 11:40:00.88	275.80	20.60	-39.9	-42.2	13.4	1.98e-05	0	60	0	763363328	51	4654
2026-01-12 11:40:01.89	276.06	20.60	-39.9	-42.2	13.4	1.22e-05	0	60	0	766509056	51	4685
2026-01-12 11:40:02.90	276.32	20.59	-39.9	-42.3	13.3	1.37e-05	0	60	0	769654784	51	4708
2026-01-12 11:40:03.91	276.57	20.58	-39.8	-42.2	13.4	1.52e-05	0	60	0	772800512	51	4659
2026-01-12 11:40:04.92	276.83	20.57	-39.8	-42.1	13.5	9.90e-06	0	60	0	775946240	51	4609
2026-01-12 11:40:05.93	277.09	20.56	-39.7	-42.0	13.6	7.60e-06	0	60	0	779091968	51	4573
2026-01-12 11:40:06.93	277.34	20.55	-39.7	-42.0	13.6	1.06e-05	0	60	0	782237696	51	4554
2026-01-12 11:40:07.94	277.60	20.53	-39.8	-42.0	13.5	1.44e-05	0	60	0	785383424	51	4577
2026-01-12 11:40:08.95	277.85	20.52	-39.8	-42.0	13.5	1.22e-05	0	60	0	788529152	51	4579
2026-01-12 11:40:09.96	278.11	20.51	-39.8	-42.2	13.4	1.67e-05	0	60	0	791674880	51	4661
2026-01-12 11:40:10.97	278.36	20.49	-39.9	-42.2	13.4	1.83e-05	0	60	0	794820608	51	4685
2026-01-12 11:40:11.98	278.62	20.48	-39.8	-42.1	13.5	1.83e-05	0	60	0	797966336	51	4648
2026-01-12 11:40:12.99	278.87	20.47	-39.8	-42.0	13.5	8.30e-06	0	60	0	801112064	51	4597
2026-01-12 11:40:14.00	279.13	20.45	-39.7	-41.9	13.6	9.10e-06	0	60	0	804257792	51	4533
2026-01-12 11:40:15.01	279.38	20.44	-39.7	-41.9	13.7	6.80e-06	0	60	0	807403520	51	4526
2026-01-12 11:40:16.02	279.64	20.42	-39.7	-41.9	13.7	1.14e-05	0	60	0	810549248	51	4526
2026-01-12 11:40:17.02	279.89	20.40	-39.7	-41.9	13.6	6.10e-06	0	60	0	813694976	51	4523
2026-01-12 11:40:18.03	280.14	20.38	-39.8	-42.0	13.5	9.10e-06	0	60	0	816840704	51	4589
2026-01-12 11:40:19.04	280.39	20.37	-39.7	-42.0	13.5	9.90e-06	0	60	0	819986432	51	4586
2026-01-12 11:40:20.05	280.65	20.35	-39.8	-42.0	13.5	7.60e-06	0	60	0	823132160	51	4575
2026-01-12 11:40:21.06	280.90	20.33	-39.8	-42.1	13.5	1.06e-05	0	60	0	826277888	51	4609
2026-01-12 11:40:22.07	281.15	20.31	-39.7	-42.0	13.5	1.29e-05	0	60	0	829423616	51	4577
2026-01-12 11:40:23.08	281.40	20.29	-39.8	-42.1	13.4	7.60e-06	0	60	0	832569344	51	4633
2026-01-12 11:40:24.09	281.66	20.27	-39.9	-42.2	13.4	1.98e-05	0	60	0	835715072	51	4680
2026-01-12 11:40:25.10	281.91	20.25	-39.8	-42.2	13.3	1.14e-05	0	60	0	838860800	51	4662
2026-01-12 11:40:26.11	282.16	20.23	-39.9	-42.2	13.3	1.44e-05	0	60	0	842006528	51	4698
2026-01-12 11:40:27.12	282.41	20.20	-39.8	-42.1	13.4	9.90e-06	0	60	0	845152256	51	4639
2026-01-12 11:40:28.13	282.66	20.18	-39.7	-42.0	13.6	9.10e-06	0	60	0	848297984	51	4558
2026-01-12 11:40:29.14	282.91	20.16	-39.7	-41.9	13.6	3.80e-06	0	60	0	851443712	51	4533
2026-01-12 11:40:30.15	283.16	20.14	-39.7	-41.9	13.7	1.14e-05	0	60	0	854589440	51	4529
2026-01-12 11:40:31.16	283.41	20.11	-39.7	-41.9	13.6	3.80e-06	0	60	0	857735168	51	4523
2026-01-12 11:40:32.17	283.66	20.09	-39.7	-42.0	13.6	8.30e-06	0	60	0	860880896	51	4549
2026-01-12 11:40:33.18	283.90	20.06	-39.7	-42.0	13.6	9.90e-06	0	60	0	864026624	51	4553
2026-01-12 11:40:34.19	284.15	20.04	-39.7	-41.9	13.6	6.80e-06	0	60	0	867172352	51	4545
2026-01-12 11:40:35.19	284.40	20.01	-39.7	-42.0	13.6	9.10e-06	0	60	0	870318080	51	4551
2026-01-12 11:40:36.20	284.64	19.98	-39.7	-42.0	13.6	1.14e-05	0	60	0	873463808	51	4569
2026-01-12 11:40:37.21	284.89	19.96	-39.7	-42.0	13.6	1.37e-05	0	60	0	876609536	51	4581
2026-01-12 11:40:38.23	285.14	19.93	-39.8	-42.1	13.5	1.22e-05	0	60	0	879755264	51	4607
2026-01-12 11:40:39.24	285.39	19.90	-39.8	-42.1	13.5	9.90e-06	0	60	0	882900992	51	4612
2026-01-12 11:40:40.25	285.63	19.87	-39.7	-42.0	13.6	8.30e-06	0	60	0	886046720	51	4571
2026-01-12 11:40:41.26	285.88	19.84	-39.7	-41.9	13.6	3.80e-06	0	60	0	889192448	51	4537
2026-01-12 11:40:42.27	286.12	19.81	-39.7	-41.9	13.6	6.10e-06	0	60	0	892338176	51	4527
2026-01-12 11:40:43.28	286.36	19.78	-39.6	-41.9	13.7	6.10e-06	0	60	0	895483904	51	4508
2026-01-12 11:40:44.29	286.61	19.75	-39.7	-41.9	13.6	1.06e-05	0	60	0	898629632	51	4529
2026-01-12 11:40:45.30	286.85	19.72	-39.7	-41.9	13.6	1.22e-05	0	60	0	901775360	51	4531
2026-01-12 11:40:46.31	287.09	19.69	-39.7	-42.0	13.5	9.10e-06	0	60	0	904921088	51	4578
2026-01-12 11:40:47.32	287.33	19.66	-39.7	-42.0	13.5	1.14e-05	0	60	0	908066816	51	4593
2026-01-12 11:40:48.33	287.58	19.62	-39.7	-41.9	13.6	7.60e-06	0	60	0	911212544	51	4537
2026-01-12 11:40:49.33	287.81	19.59	-39.6	-41.9	13.7	8.30e-06	0	60	0	914358272	51	4511
2026-01-12 11:40:50.34	288.05	19.56	-39.6	-41.9	13.6	6.10e-06	0	60	0	917504000	51	4513
2026-01-12 11:40:51.35	288.29	19.52	-39.7	-41.9	13.6	7.60e-06	0	60	0	920649728	51	4542
2026-01-12 11:40:52.36	288.53	19.49	-39.7	-41.9	13.6	6.10e-06	0	60	0	923795456	51	4539
2026-01-12 11:40:53.37	288.77	19.46	-39.7	-42.0	13.5	1.44e-05	0	60	0	926941184	51	4590
2026-01-12 11:40:54.38	289.01	19.42	-39.8	-42.0	13.5	2.28e-05	0	60	0	930086912	51	4594
2026-01-12 11:40:55.39	289.25	19.38	-39.8	-42.1	13.4	1.44e-05	0	60	0	933232640	51	4639
2026-01-12 11:40:56.40	289.49	19.35	-39.9	-42.3	13.3	1.90e-05	0	60	0	936378368	51	4706
2026-01-12 11:40:57.41	289.72	19.31	-39.8	-42.2	13.4	1.52e-05	0	60	0	939524096	51	4660
2026-01-12 11:40:58.42	289.96	19.28	-39.8	-42.1	13.4	1.37e-05	0	60	0	942669824	51	4611
2026-01-12 11:40:59.43	290.19	19.24	-39.8	-42.1	13.4	1.83e-05	0	60	0	945815552	51	4625
2026-01-12 11:41:00.44	290.43	19.20	-39.8	-42.0	13.5	1.14e-05	0	60	0	948961280	51	4595
2026-01-12 11:41:01.45	290.66	19.16	-39.8	-42.1	13.5	1.60e-05	0	60	0	952107008	51	4600
2026-01-12 11:41:02.46	290.90	19.12	-39.8	-42.1	13.5	1.44e-05	0	60	0	955252736	51	4601
2026-01-12 11:41:03.47	291.13	19.08	-39.7	-42.0	13.5	9.10e-06	0	60	0	958398464	51	4578
2026-01-12 11:41:04.48	291.36	19.05	-39.7	-42.0	13.6	7.60e-06	0	60	0	961544192	51	4546
2026-01-12 11:41:05.49	291.59	19.01	-39.7	-41.9	13.6	5.30e-06	0	60	0	964689920	51	4532
2026-01-12 11:41:06.50	291.83	18.97	-39.7	-41.9	13.6	1.14e-05	0	60	0	967835648	51	4535
2026-01-12 11:41:07.51	292.06	18.93	-39.7	-42.0	13.5	1.22e-05	0	60	0	972029952	51	4568
2026-01-12 11:41:08.52	292.29	18.88	-39.8	-42.1	13.5	1.22e-05	0	60	0	974127104	51	4602
2026-01-12 11:41:09.53	292.52	18.84	-39.7	-42.0	13.5	1.29e-05	0	60	0	977272832	51	4568
2026-01-12 11:41:10.54	292.75	18.80	-39.7	-42.0	13.5	1.22e-05	0	60	0	980418560	51	4573
2026-01-12 11:41:11.55	292.97	18.76	-39.7	-41.9	13.6	1.14e-05	0	60	0	984612864	51	4523
2026-01-12 11:41:12.57	293.20	18.72	-39.7	-41.9	13.6	3.00e-06	0	60	0	987758592	51	4519
2026-01-12 11:41:13.57	293.43	18.67	-39.6	-41.9	13.6	6.10e-06	0	60	0	990904320	51	4519
2026-01-12 11:41:14.58	293.66	18.63	-39.7	-41.9	13.6	1.14e-05	0	60	0	994050048	51	4537
2026-01-12 11:41:15.59	293.88	18.59	-39.6	-41.9	13.6	4.50e-06	0	60	0	996147200	51	4513
2026-01-12 11:41:16.61	294.11	18.54	-39.6	-41.9	13.6	9.10e-06	0	60	0	1000341504	51	4507
2026-01-12 11:41:17.61	294.33	18.50	-39.6	-41.9	13.6	9.10e-06	0	60	0	1003487232	51	4522
2026-01-12 11:41:18.63	294.56	18.46	-39.7	-42.0	13.5	7.60e-06	0	60	0	1006632960	51	4582
2026-01-12 11:41:19.64	294.78	18.41	-39.7	-41.9	13.5	9.10e-06	0	60	0	1009778688	51	4538
2026-01-12 11:41:20.65	295.00	18.37	-39.7	-42.0	13.5	9.90e-06	0	60	0	1012924416	51	4548
2026-01-12 11:41:21.66	295.23	18.32	-39.7	-41.9	13.6	9.10e-06	0	60	0	1016070144	51	4539
2026-01-12 11:41:22.67	295.45	18.27	-39.7	-42.0	13.4	9.90e-06	0	60	0	1019215872	51	4598
2026-01-12 11:41:23.68	295.67	18.23	-39.8	-42.1	13.4	9.10e-06	0	60	0	1022361600	51	4626
2026-01-12 11:41:24.69	295.89	18.18	-39.8	-42.1	13.4	1.22e-05	0	60	0	1025507328	51	4615
2026-01-12 11:41:25.70	296.11	18.13	-39.8	-42.1	13.4	1.60e-05	0	60	0	1028653056	51	4633
2026-01-12 11:41:26.71	296.33	18.09	-39.7	-42.0	13.4	1.29e-05	0	60	0	1031798784	51	4598
2026-01-12 11:41:27.72	296.54	18.04	-39.7	-42.0	13.5	6.10e-06	0	60	0	1034944512	51	4567
2026-01-12 11:41:28.73	296.76	17.99	-39.8	-42.1	13.4	9.90e-06	0	60	0	1038090240	51	4603
2026-01-12 11:41:29.74	296.98	17.94	-39.8	-42.1	13.4	2.28e-05	0	60	0	1041235968	51	4641
2026-01-12 11:41:30.75	297.19	17.90	-39.8	-42.2	13.3	2.13e-05	0	60	0	1044381696	51	4674
2026-01-12 11:41:31.76	297.41	17.85	-39.8	-42.1	13.3	1.98e-05	0	60	0	1047527424	51	4648
2026-01-12 11:41:32.77	297.62	17.80	-39.9	-42.2	13.2	2.36e-05	0	60	0	1050673152	51	4687
2026-01-12 11:41:33.79	297.84	17.75	-39.9	-42.3	13.2	2.51e-05	0	60	0	1053818880	51	4729
2026-01-12 11:41:34.80	298.05	17.70	-40.0	-42.5	13.0	3.50e-05	0	60	0	1056964608	51	4830
2026-01-12 11:41:35.81	298.26	17.65	-40.0	-42.5	12.9	4.34e-05	0	60	0	1060110336	51	4850
2026-01-12 11:41:36.82	298.48	17.60	-40.1	-42.6	12.9	5.18e-05	0	60	0	1063256064	51	4881
2026-01-12 11:41:37.83	298.69	17.55	-40.1	-42.5	12.9	4.27e-05	0	60	0	1066401792	51	4855
2026-01-12 11:41:38.84	298.90	17.50	-40.0	-42.4	13.0	3.66e-05	0	60	0	1069547520	51	4810
2026-01-12 11:41:39.85	299.11	17.45	-40.0	-42.4	13.0	3.96e-05	0	60	0	1072693248	51	4814
2026-01-12 11:41:40.86	299.32	17.40	-40.0	-42.5	13.0	3.20e-05	0	60	0	1075838976	51	4828
2026-01-12 11:41:41.87	299.53	17.35	-40.1	-42.6	12.9	4.11e-05	0	60	0	1078984704	51	4874
2026-01-12 11:41:42.88	299.73	17.29	-40.1	-42.6	12.9	4.19e-05	0	60	0	1082130432	51	4899
2026-01-12 11:41:43.89	299.94	17.24	-40.1	-42.6	12.8	5.72e-05	0	60	0	1085276160	51	4923
2026-01-12 11:41:44.90	300.15	17.19	-40.1	-42.6	12.8	6.56e-05	0	60	0	1088421888	51	4920
2026-01-12 11:41:45.91	300.35	17.14	-40.2	-42.8	12.7	8.39e-05	0	60	0	1091567616	51	4986
2026-01-12 11:41:46.92	300.56	17.09	-40.2	-42.7	12.7	6.94e-05	0	60	0	1094713344	51	4965
2026-01-12 11:41:47.94	300.76	17.03	-40.2	-42.7	12.7	7.55e-05	0	60	0	1097859072	51	4956
2026-01-12 11:41:48.94	300.96	16.98	-40.1	-42.7	12.7	7.24e-05	0	60	0	1101004800	51	4949
2026-01-12 11:41:49.95	301.17	16.93	-40.3	-42.8	12.6	8.85e-05	0	60	0	1104150528	51	5037
2026-01-12 11:41:50.97	301.37	16.87	-40.3	-42.8	12.6	9.38e-05	0	60	0	1107296256	51	5030
2026-01-12 11:41:51.97	301.57	16.82	-40.2	-42.8	12.7	8.39e-05	0	60	0	1110441984	51	4984
2026-01-12 11:41:52.98	301.77	16.77	-40.1	-42.6	12.9	7.32e-05	0	60	0	1113587712	51	4877
2026-01-12 11:41:53.99	301.97	16.71	-40.0	-42.5	12.9	5.87e-05	0	60	0	1116733440	51	4847
2026-01-12 11:41:55.00	302.17	16.66	-39.9	-42.4	13.1	4.11e-05	0	60	0	1119879168	51	4765
2026-01-12 11:41:56.01	302.37	16.60	-39.9	-42.3	13.1	3.50e-05	0	60	0	1123024896	51	4740
2026-01-12 11:41:57.02	302.57	16.55	-40.0	-42.4	13.0	2.36e-05	0	60	0	1126170624	51	4784
2026-01-12 11:41:58.03	302.76	16.49	-40.1	-42.5	12.9	4.27e-05	0	60	0	1129316352	51	4853
2026-01-12 11:41:59.04	302.96	16.44	-40.1	-42.7	12.8	5.79e-05	0	60	0	1132462080	51	4935
2026-01-12 11:42:00.05	303.16	16.38	-40.1	-42.6	12.8	5.34e-05	0	60	0	1135607808	51	4908
2026-01-12 11:42:01.06	303.35	16.33	-40.2	-42.7	12.7	7.40e-05	0	60	0	1138753536	51	4962
2026-01-12 11:42:02.07	303.55	16.27	-40.2	-42.8	12.6	9.15e-05	0	60	0	1141899264	51	5016
2026-01-12 11:42:03.08	303.74	16.22	-40.3	-42.9	12.5	1.18e-04	0	60	0	1145044992	51	5079
2026-01-12 11:42:04.09	303.93	16.16	-40.4	-43.0	12.4	1.36e-04	0	60	0	1148190720	51	5124
2026-01-12 11:42:05.10	304.12	16.10	-40.3	-43.0	12.4	1.31e-04	0	60	0	1151336448	51	5106
2026-01-12 11:42:06.11	304.32	16.05	-40.3	-42.9	12.5	1.56e-04	0	60	0	1154482176	51	5075
2026-01-12 11:42:07.13	304.51	15.99	-40.3	-42.9	12.6	1.01e-04	0	60	0	1157627904	51	5045
2026-01-12 11:42:08.13	304.70	15.93	-40.2	-42.7	12.7	7.47e-05	0	60	0	1160773632	51	4971
2026-01-12 11:42:09.14	304.89	15.88	-40.2	-42.7	12.7	7.93e-05	0	60	0	1163919360	51	4942
2026-01-12 11:42:10.15	305.08	15.82	-40.1	-42.6	12.8	7.01e-05	0	60	0	1167065088	51	4921
2026-01-12 11:42:11.16	305.26	15.76	-40.1	-42.6	12.8	5.79e-05	0	60	0	1170210816	51	4914
2026-01-12 11:42:12.17	305.45	15.71	-40.1	-42.6	12.8	4.50e-05	0	60	0	1173356544	51	4871
2026-01-12 11:42:13.18	305.64	15.65	-40.1	-42.5	12.8	5.26e-05	0	60	0	1176502272	51	4868
2026-01-12 11:42:14.19	305.82	15.59	-40.1	-42.5	12.9	5.11e-05	0	60	0	1179648000	51	4859
2026-01-12 11:42:15.20	306.01	15.53	-40.1	-42.6	12.8	6.17e-05	0	60	0	1182793728	51	4906
2026-01-12 11:42:16.21	306.19	15.47	-40.2	-42.7	12.7	6.25e-05	0	60	0	1185939456	51	4972
2026-01-12 11:42:17.22	306.38	15.42	-40.2	-42.8	12.6	1.02e-04	0	60	0	1189085184	51	5029
2026-01-12 11:42:18.23	306.56	15.36	-40.3	-43.0	12.4	1.43e-04	0	60	0	1192230912	51	5113
2026-01-12 11:42:19.24	306.74	15.30	-40.4	-43.0	12.3	1.64e-04	0	60	0	1195376640	51	5158
2026-01-12 11:42:20.25	306.92	15.24	-40.5	-43.2	12.2	1.86e-04	0	60	0	1198522368	51	5225
2026-01-12 11:42:21.26	307.10	15.18	-40.5	-43.2	12.2	2.22e-04	0	60	0	1201668096	51	5229
2026-01-12 11:42:22.27	307.28	15.12	-40.5	-43.2	12.2	2.69e-04	0	60	0	1204813824	51	5240
2026-01-12 11:42:23.28	307.46	15.07	-40.4	-43.1	12.2	2.01e-04	0	60	0	1207959552	51	5204
2026-01-12 11:42:24.29	307.64	15.01	-40.4	-43.1	12.2	2.33e-04	0	60	0	1211105280	51	5201
2026-01-12 11:42:25.30	307.82	14.95	-40.5	-43.2	12.2	2.34e-04	0	60	0	1214251008	51	5236
2026-01-12 11:42:26.31	308.00	14.89	-40.5	-43.2	12.1	2.40e-04	0	60	0	1217396736	51	5270
2026-01-12 11:42:27.32	308.18	14.83	-40.5	-43.2	12.1	2.74e-04	0	60	0	1220542464	51	5274
2026-01-12 11:42:28.33	308.35	14.77	-40.4	-43.0	12.3	2.10e-04	0	60	0	1223688192	51	5142
2026-01-12 11:42:29.34	308.53	14.71	-40.4	-43.0	12.3	1.86e-04	0	60	0	1226833920	51	5142
2026-01-12 11:42:30.35	308.70	14.65	-40.4	-43.1	12.3	1.79e-04	0	60	0	1229979648	51	5167
2026-01-12 11:42:31.36	308.88	14.59	-40.4	-43.1	12.3	2.12e-04	0	60	0	1233125376	51	5168
2026-01-12 11:42:32.37	309.05	14.53	-40.4	-43.1	12.2	2.23e-04	0	60	0	1236271104	51	5216
2026-01-12 11:42:33.38	309.22	14.47	-40.4	-43.2	12.2	2.15e-04	0	60	0	1239416832	51	5219
2026-01-12 11:42:34.39	309.40	14.41	-40.4	-43.2	12.1	2.19e-04	0	60	0	1242562560	51	5225
2026-01-12 11:42:35.40	309.57	14.35	-40.4	-43.2	12.1	2.55e-04	0	60	0	1245708288	51	5235
2026-01-12 11:42:36.41	309.74	14.29	-40.5	-43.2	12.1	2.37e-04	0	60	0	1248854016	51	5242
2026-01-12 11:42:37.42	309.91	14.23	-40.5	-43.3	12.0	2.74e-04	0	60	0	1251999744	51	5298
2026-01-12 11:42:38.43	310.08	14.17	-40.6	-43.4	11.9	4.10e-04	0	60	0	1255145472	51	5385
2026-01-12 11:42:39.44	310.25	14.11	-40.6	-43.5	11.8	4.29e-04	0	60	0	1258291200	51	5408
2026-01-12 11:42:40.45	310.41	14.05	-40.7	-43.5	11.6	5.42e-04	0	60	0	1262485504	52	5152
2026-01-12 11:42:41.46	310.58	13.99	-40.7	-43.6	11.6	8.18e-04	0	60	0	1264582656	52	5216
2026-01-12 11:42:42.48	310.75	13.93	-40.6	-43.5	11.7	5.89e-04	0	60	0	1267728384	52	5121
2026-01-12 11:42:43.49	310.92	13.87	-40.6	-43.5	11.7	6.28e-04	0	60	0	1270874112	52	5125
2026-01-12 11:42:44.50	311.08	13.81	-40.5	-43.3	11.9	4.10e-04	0	60	0	1274019840	52	5033
2026-01-12 11:42:45.51	311.25	13.75	-40.3	-43.0	12.3	2.57e-04	0	60	0	1278214144	52	4841
2026-01-12 11:42:46.52	311.41	13.69	-40.2	-42.9	12.3	1.88e-04	0	60	0	1281359872	52	4775
2026-01-12 11:42:47.53	311.57	13.63	-40.1	-42.7	12.5	1.30e-04	0	60	0	1284505600	52	4683
2026-01-12 11:42:48.54	311.74	13.57	-40.2	-42.8	12.4	1.20e-04	0	60	0	1287651328	52	4719
2026-01-12 11:42:49.55	311.90	13.50	-40.1	-42.7	12.5	1.43e-04	0	60	0	1289748480	52	4703
2026-01-12 11:42:50.56	312.06	13.44	-40.1	-42.7	12.5	1.11e-04	0	60	0	1293942784	52	4658
2026-01-12 11:42:51.57	312.22	13.38	-40.1	-42.7	12.5	1.30e-04	0	60	0	1297088512	52	4704
2026-01-12 11:42:52.58	312.38	13.32	-40.1	-42.6	12.6	1.11e-04	0	60	0	1300234240	52	4638
2026-01-12 11:42:53.59	312.54	13.26	-40.1	-42.7	12.5	1.20e-04	0	60	0	1303379968	52	4699
2026-01-12 11:42:54.60	312.70	13.20	-40.1	-42.7	12.5	1.03e-04	0	60	0	1306525696	52	4680
2026-01-12 11:42:55.61	312.86	13.14	-40.2	-42.8	12.4	1.33e-04	0	60	0	1309671424	52	4742
2026-01-12 11:42:56.62	313.01	13.08	-40.2	-42.8	12.4	1.43e-04	0	60	0	1312817152	52	4740
2026-01-12 11:42:57.63	313.17	13.01	-40.2	-42.9	12.3	1.85e-04	0	60	0	1315962880	52	4780
2026-01-12 11:42:58.64	313.33	12.95	-40.3	-43.0	12.2	2.14e-04	0	60	0	1319108608	52	4842
2026-01-12 11:42:59.65	313.48	12.89	-40.3	-43.0	12.2	2.17e-04	0	60	0	1322254336	52	4862
2026-01-12 11:43:00.66	313.64	12.83	-40.3	-43.1	12.1	2.67e-04	0	60	0	1325400064	52	4873
2026-01-12 11:43:01.67	313.79	12.77	-40.4	-43.1	12.0	3.94e-04	0	60	0	1328545792	52	4924
2026-01-12 11:43:02.68	313.95	12.71	-40.3	-43.0	12.2	2.36e-04	0	60	0	1331691520	52	4834
2026-01-12 11:43:03.69	314.10	12.65	-40.2	-42.9	12.3	2.24e-04	0	60	0	1334837248	52	4793
2026-01-12 11:43:04.70	314.25	12.58	-40.2	-42.8	12.4	1.70e-04	0	60	0	1337982976	52	4746
2026-01-12 11:43:05.71	314.41	12.52	-40.2	-42.9	12.3	2.00e-04	0	60	0	1341128704	52	4803
2026-01-12 11:43:06.72	314.56	12.46	-40.2	-42.9	12.3	1.78e-04	0	60	0	1344274432	52	4792
2026-01-12 11:43:07.73	314.71	12.40	-40.2	-42.9	12.3	1.77e-04	0	60	0	1347420160	52	4792
2026-01-12 11:43:08.74	314.86	12.34	-40.2	-42.9	12.2	2.27e-04	0	60	0	1350565888	52	4799
2026-01-12 11:43:09.75	315.01	12.28	-40.2	-42.9	12.2	1.98e-04	0	60	0	1353711616	52	4808
2026-01-12 11:43:10.76	315.16	12.21	-40.2	-42.9	12.2	2.17e-04	0	60	0	1356857344	52	4794
2026-01-12 11:43:11.77	315.30	12.15	-40.2	-42.9	12.3	2.27e-04	0	60	0	1360003072	52	4770
2026-01-12 11:43:12.78	315.45	12.09	-40.2	-42.9	12.2	1.96e-04	0	60	0	1363148800	52	4774
2026-01-12 11:43:13.79	315.60	12.03	-40.2	-42.9	12.2	1.86e-04	0	60	0	1366294528	52	4765
2026-01-12 11:43:14.79	315.74	11.97	-40.3	-43.0	12.1	2.23e-04	0	60	0	1369440256	52	4833
2026-01-12 11:43:15.80	315.89	11.91	-40.4	-43.1	12.0	3.18e-04	0	60	0	1372585984	52	4918
2026-01-12 11:43:16.81	316.04	11.85	-40.4	-43.2	11.8	4.07e-04	0	60	0	1375731712	52	4974
2026-01-12 11:43:17.82	316.18	11.78	-40.5	-43.3	11.8	5.35e-04	0	60	0	1378877440	52	5011
2026-01-12 11:43:18.83	316.32	11.72	-40.4	-43.3	11.8	4.90e-04	0	60	0	1382023168	52	4986
2026-01-12 11:43:19.84	316.47	11.66	-40.4	-43.2	11.9	4.28e-04	0	60	0	1385168896	52	4963
2026-01-12 11:43:20.85	316.61	11.60	-40.3	-43.1	12.0	3.29e-04	0	60	0	1388314624	52	4894
2026-01-12 11:43:21.86	316.75	11.54	-40.4	-43.2	11.9	3.49e-04	0	60	0	1391460352	52	4944
2026-01-12 11:43:22.87	316.90	11.47	-40.4	-43.2	11.9	3.81e-04	0	60	0	1394606080	52	4937
2026-01-12 11:43:23.88	317.04	11.41	-40.4	-43.3	11.8	4.62e-04	0	60	0	1397751808	52	5019
2026-01-12 11:43:24.89	317.18	11.35	-40.4	-43.3	11.8	5.14e-04	0	60	0	1400897536	52	4986
2026-01-12 11:43:25.90	317.32	11.29	-40.5	-43.4	11.7	5.26e-04	0	60	0	1404043264	52	5044
2026-01-12 11:43:26.91	317.46	11.23	-40.4	-43.3	11.8	5.15e-04	0	60	0	1407188992	52	5003
2026-01-12 11:43:27.92	317.60	11.17	-40.5	-43.4	11.7	5.78e-04	0	60	0	1410334720	52	5061
2026-01-12 11:43:28.93	317.73	11.10	-40.5	-43.4	11.6	6.51e-04	0	60	0	1413480448	52	5081
2026-01-12 11:43:29.94	317.87	11.04	-40.5	-43.5	11.6	6.66e-04	0	60	0	1416626176	52	5118
2026-01-12 11:43:30.95	318.01	10.98	-40.6	-43.6	11.5	8.64e-04	0	60	0	1419771904	52	5173
2026-01-12 11:43:31.96	318.15	10.92	-40.7	-43.7	11.3	1.04e-03	0	60	0	1422917632	52	5259
2026-01-12 11:43:32.96	318.28	10.86	-40.7	-43.7	11.4	1.07e-03	0	60	0	1426063360	52	5254
2026-01-12 11:43:33.97	318.42	10.80	-40.7	-43.7	11.4	1.04e-03	0	60	0	1429209088	52	5238
2026-01-12 11:43:34.98	318.55	10.74	-40.7	-43.8	11.2	1.16e-03	0	60	0	1432354816	52	5301
2026-01-12 11:43:35.99	318.69	10.67	-40.8	-43.9	11.1	1.30e-03	0	60	0	1435500544	52	5350
2026-01-12 11:43:37.00	318.82	10.61	-40.8	-44.0	11.0	1.77e-03	0	60	0	1438646272	52	5409
2026-01-12 11:43:38.01	318.95	10.55	-40.8	-44.0	11.0	1.86e-03	0	60	0	1441792000	52	5420
2026-01-12 11:43:39.02	319.09	10.49	-40.9	-44.1	10.9	2.08e-03	0	60	0	1444937728	52	5477
2026-01-12 11:43:40.03	319.22	10.43	-41.0	-44.2	10.7	2.72e-03	0	60	0	1448083456	52	5578
2026-01-12 11:43:41.04	319.35	10.37	-41.0	-44.2	10.7	2.84e-03	0	60	0	1451229184	52	5577
2026-01-12 11:43:42.05	319.48	10.30	-40.9	-44.2	10.8	2.53e-03	0	60	0	1454374912	52	5557
2026-01-12 11:43:43.06	319.61	10.24	-40.9	-44.1	10.8	2.92e-03	0	60	0	1457520640	52	5515
2026-01-12 11:43:44.07	319.74	10.18	-40.9	-44.2	10.7	2.44e-03	0	60	0	1460666368	52	5540
2026-01-12 11:43:45.08	319.87	10.12	-40.9	-44.2	10.8	2.63e-03	0	60	0	1463812096	52	5531
2026-01-12 11:43:46.09	320.00	10.06	-40.7	-43.9	11.1	1.90e-03	0	60	0	1466957824	52	5352
2026-01-12 11:43:47.10	320.13	10.00	-40.8	-43.9	11.1	1.85e-03	0	60	0	1470103552	52	5359
2026-01-12 11:43:48.10	320.26	9.94	-40.8	-43.9	11.0	1.80e-03	0	60	0	1473249280	52	5395
2026-01-12 11:43:49.12	320.39	9.87	-40.7	-43.8	11.1	1.66e-03	0	60	0	1476395008	52	5314
2026-01-12 11:43:50.12	320.51	9.81	-40.7	-43.8	11.2	1.44e-03	0	60	0	1479540736	52	5300
2026-01-12 11:43:51.13	320.64	9.75	-40.7	-43.8	11.1	1.57e-03	0	60	0	1482686464	52	5305
2026-01-12 11:43:52.14	320.76	9.69	-40.7	-43.9	11.0	1.76e-03	0	60	0	1485832192	52	5359
2026-01-12 11:43:53.15	320.89	9.63	-40.7	-43.8	11.1	1.50e-03	0	60	0	1488977920	52	5323
2026-01-12 11:43:54.16	321.02	9.57	-40.7	-43.8	11.1	1.57e-03	0	60	0	1492123648	52	5324
2026-01-12 11:43:55.17	321.14	9.51	-40.8	-43.9	11.0	1.76e-03	0	60	0	1495269376	52	5378
2026-01-12 11:43:56.18	321.26	9.45	-40.8	-44.0	10.9	2.45e-03	0	60	0	1498415104	52	5452
2026-01-12 11:43:57.19	321.39	9.39	-40.9	-44.1	10.8	2.46e-03	0	60	0	1501560832	52	5501
2026-01-12 11:43:58.20	321.51	9.33	-40.9	-44.2	10.7	2.71e-03	0	60	0	1504706560	52	5532
2026-01-12 11:43:59.21	321.63	9.26	-40.9	-44.2	10.7	2.94e-03	0	60	0	1507852288	52	5557
2026-01-12 11:44:00.22	321.76	9.20	-40.9	-44.2	10.7	3.10e-03	0	60	0	1510998016	52	5550
2026-01-12 11:44:01.23	321.88	9.14	-40.8	-44.1	10.7	3.18e-03	0	60	0	1514143744	52	5491
2026-01-12 11:44:02.24	322.00	9.08	-40.9	-44.2	10.6	3.29e-03	0	60	0	1517289472	52	5576
2026-01-12 11:44:03.25	322.12	9.02	-41.0	-44.3	10.5	3.54e-03	0	60	0	1520435200	52	5628
2026-01-12 11:44:04.26	322.24	8.96	-40.9	-44.3	10.5	3.75e-03	0	60	0	1523580928	52	5625
2026-01-12 11:44:05.27	322.36	8.90	-41.0	-44.5	10.3	4.82e-03	0	60	0	1526726656	52	5742
2026-01-12 11:44:06.28	322.48	8.84	-41.0	-44.5	10.3	5.09e-03	0	60	0	1529872384	52	5741
2026-01-12 11:44:07.29	322.60	8.78	-41.0	-44.5	10.3	5.56e-03	0	60	0	1533018112	52	5730
2026-01-12 11:44:08.30	322.71	8.72	-41.0	-44.4	10.4	4.73e-03	0	60	0	1536163840	52	5687
2026-01-12 11:44:09.31	322.83	8.66	-41.0	-44.3	10.4	4.36e-03	0	60	0	1539309568	52	5653
2026-01-12 11:44:10.32	322.95	8.60	-40.9	-44.2	10.6	3.19e-03	0	60	0	1542455296	52	5567
2026-01-12 11:44:11.33	323.07	8.54	-41.0	-44.4	10.4	4.12e-03	0	60	0	1545601024	52	5663
2026-01-12 11:44:12.34	323.18	8.48	-40.9	-44.2	10.6	3.66e-03	0	60	0	1548746752	52	5570
2026-01-12 11:44:13.35	323.30	8.42	-40.9	-44.3	10.5	4.14e-03	0	60	0	1551892480	52	5641
2026-01-12 11:44:14.36	323.41	8.36	-40.9	-44.2	10.5	3.91e-03	0	60	0	1555038208	52	5586
2026-01-12 11:44:15.37	323.53	8.30	-40.9	-44.3	10.4	4.45e-03	0	60	0	1558183936	52	5652
2026-01-12 11:44:16.38	323.64	8.24	-41.0	-44.5	10.2	5.53e-03	0	60	0	1561329664	52	5759
2026-01-12 11:44:17.39	323.76	8.17	-41.1	-44.7	10.1	6.15e-03	0	60	0	1564475392	52	5862
2026-01-12 11:44:18.40	323.87	8.11	-41.1	-44.6	10.1	5.94e-03	0	60	0	1567621120	52	5825
2026-01-12 11:44:19.41	323.99	8.05	-41.0	-44.6	10.1	6.33e-03	0	60	0	1570766848	52	5790
2026-01-12 11:44:20.42	324.10	7.99	-41.4	-45.3	9.6	6.18e-03	0	60	0	1573912576	53	5978
2026-01-12 11:44:21.43	324.21	7.93	-44.4	-56.2	3.8	1.49e+00	0	60	104	1574961152	59	14776
2026-01-12 11:44:22.44	324.32	7.87	-44.7	-56.7	3.8	1.49e+00	0	60	104	1574961152	59	15581
2026-01-12 11:44:23.45	324.43	7.82	-44.8	-57.0	3.8	1.49e+00	0	60	104	1574961152	60	15375
2026-01-12 11:44:24.46	324.54	7.76	-45.0	-57.2	3.8	1.49e+00	0	60	104	1574961152	60	15753
2026-01-12 11:44:25.47	324.65	7.70	-45.1	-57.4	3.8	1.49e+00	0	60	104	1574961152	60	15990
2026-01-12 11:44:26.48	324.77	7.64	-45.1	-57.4	3.8	1.49e+00	0	60	104	1574961152	60	16070
2026-01-12 11:44:27.50	324.88	7.58	-45.2	-57.5	3.8	1.49e+00	0	60	104	1574961152	60	16167
2026-01-12 11:44:28.51	324.99	7.52	-45.2	-57.5	3.8	1.49e+00	0	60	104	1574961152	60	16196
2026-01-12 11:44:29.52	325.09	7.46	-45.2	-57.5	3.8	1.49e+00	0	60	104	1574961152	60	16194
2026-01-12 11:44:30.53	325.20	7.40	-45.2	-57.5	3.8	1.49e+00	0	60	104	1574961152	60	16143
2026-01-12 11:44:31.54	325.31	7.34	-45.1	-57.4	3.8	1.49e+00	0	60	104	1574961152	60	16079
2026-01-12 11:44:32.55	325.42	7.28	-45.0	-57.4	3.8	1.49e+00	0	60	104	1574961152	60	16042
2026-01-12 11:44:33.56	325.53	7.22	-45.1	-57.4	3.8	1.49e+00	0	60	104	1574961152	60	16035
2026-01-12 11:44:34.57	325.63	7.16	-45.1	-57.4	3.8	1.49e+00	0	60	104	1574961152	60	16096
2026-01-12 11:44:35.58	325.74	7.10	-45.1	-57.4	3.8	1.49e+00	0	60	104	1574961152	60	16061
2026-01-12 11:44:36.59	325.84	7.04	-45.1	-57.4	3.8	1.49e+00	0	60	104	1574961152	60	15974
2026-01-12 11:44:37.60	325.95	6.98	-45.0	-57.4	3.8	1.49e+00	0	60	104	1574961152	60	16010
2026-01-12 11:44:38.61	326.05	6.92	-45.1	-57.4	3.8	1.49e+00	0	60	104	1574961152	60	16000
2026-01-12 11:44:39.62	326.16	6.86	-45.1	-57.4	3.8	1.49e+00	0	60	104	1574961152	60	15986
2026-01-12 11:44:40.63	326.26	6.81	-45.1	-57.4	3.8	1.49e+00	0	60	104	1574961152	60	16016
2026-01-12 11:44:41.64	326.37	6.75	-45.1	-57.4	3.8	1.49e+00	0	60	104	1574961152	60	15977
2026-01-12 11:44:42.65	326.47	6.69	-45.1	-57.4	3.8	1.49e+00	0	60	104	1574961152	60	16040
2026-01-12 11:44:43.66	326.57	6.63	-45.1	-57.3	3.8	1.49e+00	0	60	104	1574961152	60	15932
2026-01-12 11:44:44.68	326.68	6.57	-45.1	-57.4	3.8	1.49e+00	0	60	104	1574961152	60	15978
2026-01-12 11:44:45.69	326.78	6.51	-45.1	-57.4	3.8	1.49e+00	0	60	104	1574961152	60	16007
2026-01-12 11:44:46.70	326.88	6.45	-45.1	-57.4	3.8	1.49e+00	0	60	104	1574961152	60	15961
2026-01-12 11:44:47.71	326.98	6.39	-45.1	-57.4	3.8	1.49e+00	0	60	104	1574961152	60	15951
2026-01-12 11:44:48.72	327.08	6.34	-45.1	-57.3	3.8	1.49e+00	0	60	104	1574961152	60	15935
2026-01-12 11:44:49.73	327.19	6.28	-45.0	-57.3	3.8	1.49e+00	0	60	104	1574961152	60	15937
2026-01-12 11:44:50.74	327.29	6.22	-45.0	-57.4	3.8	1.49e+00	0	60	104	1574961152	60	15963
2026-01-12 11:44:51.75	327.39	6.16	-45.1	-57.4	3.8	1.49e+00	0	60	104	1574961152	60	15988
2026-01-12 11:44:52.76	327.49	6.10	-45.0	-57.4	3.8	1.49e+00	0	60	104	1574961152	60	15971
2026-01-12 11:44:53.77	327.58	6.04	-45.1	-57.3	3.8	1.49e+00	0	60	104	1574961152	60	15927
2026-01-12 11:44:54.79	327.68	5.99	-45.0	-57.4	3.8	1.49e+00	0	60	104	1574961152	60	15956
2026-01-12 11:44:55.80	327.78	5.93	-45.0	-57.4	3.8	1.49e+00	0	60	104	1574961152	60	15975
2026-01-12 11:44:56.81	327.88	5.87	-45.1	-57.3	3.8	1.49e+00	0	60	104	1574961152	60	15939
2026-01-12 11:44:57.82	327.98	5.81	-45.0	-57.3	3.8	1.49e+00	0	60	104	1574961152	60	15941
2026-01-12 11:44:58.83	328.08	5.75	-45.0	-57.4	3.8	1.49e+00	0	60	104	1574961152	60	15956
2026-01-12 11:44:59.84	328.17	5.70	-45.1	-57.3	3.8	1.49e+00	0	61	104	1574961152	60	15943
2026-01-12 11:45:00.85	328.27	5.64	-45.0	-57.4	3.8	1.49e+00	0	60	104	1574961152	60	15982
2026-01-12 11:45:01.86	328.37	5.58	-45.1	-57.4	3.8	1.49e+00	0	60	104	1574961152	60	15958
2026-01-12 11:45:02.87	328.46	5.52	-45.0	-57.4	3.8	1.49e+00	0	60	104	1574961152	60	15985
2026-01-12 11:45:03.89	328.56	5.47	-45.0	-57.4	3.8	1.49e+00	0	60	104	1574961152	60	15960
2026-01-12 11:45:04.90	328.65	5.41	-45.1	-57.3	3.8	1.49e+00	0	60	104	1574961152	60	15939
2026-01-12 11:45:05.91	328.75	5.35	-45.0	-57.3	3.8	1.49e+00	0	60	104	1574961152	60	15931
2026-01-12 11:45:06.92	328.84	5.29	-45.0	-57.3	3.8	1.49e+00	0	60	104	1574961152	60	15934
2026-01-12 11:45:07.93	328.94	5.24	-45.0	-57.3	3.8	1.49e+00	0	60	104	1574961152	60	15917
2026-01-12 11:45:08.94	329.03	5.18	-45.0	-57.3	3.8	1.49e+00	0	60	104	1574961152	60	15929
2026-01-12 11:45:09.95	329.12	5.12	-45.1	-57.3	3.8	1.49e+00	0	60	104	1574961152	60	15911
2026-01-12 11:45:10.97	329.22	5.06	-45.1	-57.3	3.8	1.49e+00	0	60	104	1574961152	60	15923
2026-01-12 11:45:11.98	329.31	5.01	-45.1	-57.3	3.8	1.49e+00	0	60	104	1574961152	60	15904
2026-01-12 11:45:12.99	329.40	4.95	-45.1	-57.4	3.8	1.49e+00	0	60	104	1574961152	60	15950
2026-01-12 11:45:14.00	329.49	4.89	-45.0	-57.3	3.8	1.49e+00	0	60	104	1574961152	60	15922
2026-01-12 11:45:15.01	329.59	4.84	-45.1	-57.4	3.8	1.49e+00	0	60	104	1574961152	60	15960
2026-01-12 11:45:16.02	329.68	4.78	-45.0	-57.3	3.8	1.49e+00	0	60	104	1574961152	60	15925
2026-01-12 11:45:17.03	329.77	4.72	-45.0	-57.3	3.8	1.49e+00	0	60	104	1574961152	60	15939
2026-01-12 11:45:18.04	329.86	4.67	-45.0	-57.3	3.8	1.49e+00	0	60	104	1574961152	60	15888
2026-01-12 11:45:19.05	329.95	4.61	-45.0	-57.3	3.8	1.49e+00	0	60	104	1574961152	60	15933
2026-01-12 11:45:20.06	330.04	4.55	-45.0	-57.3	3.8	1.49e+00	0	60	104	1574961152	60	15881
2026-01-12 11:45:21.07	330.13	4.50	-45.0	-57.3	3.8	1.49e+00	0	60	104	1574961152	60	15898
2026-01-12 11:45:22.09	330.22	4.44	-45.0	-57.3	3.8	1.49e+00	0	60	104	1574961152	60	15918
2026-01-12 11:45:23.10	330.31	4.38	-45.0	-57.3	3.8	1.49e+00	0	60	104	1574961152	60	15937
2026-01-12 11:45:24.11	330.40	4.33	-44.9	-57.3	3.8	1.49e+00	0	60	104	1574961152	60	15885
2026-01-12 11:45:25.12	330.49	4.27	-45.1	-57.3	3.8	1.49e+00	0	60	104	1574961152	60	15913
2026-01-12 11:45:26.13	330.57	4.22	-45.0	-57.3	3.8	1.49e+00	0	60	104	1574961152	60	15889
2026-01-12 11:45:27.14	330.66	4.16	-45.0	-57.4	3.8	1.49e+00	0	60	104	1574961152	60	15959
2026-01-12 11:45:28.15	330.75	4.10	-45.0	-57.3	3.8	1.49e+00	0	60	104	1574961152	60	15911
2026-01-12 11:45:29.16	330.84	4.05	-45.1	-57.3	3.8	1.49e+00	0	60	104	1574961152	60	15901
2026-01-12 11:45:30.17	330.92	3.99	-45.0	-57.3	3.8	1.49e+00	0	60	104	1574961152	60	15926
2026-01-12 11:45:31.18	331.01	3.94	-45.0	-57.3	3.8	1.49e+00	0	60	104	1574961152	60	15878
2026-01-12 11:45:32.19	331.10	3.88	-45.0	-57.3	3.8	1.49e+00	0	60	104	1574961152	60	15911
2026-01-12 11:45:33.20	331.18	3.83	-45.0	-57.3	3.8	1.49e+00	0	60	104	1574961152	60	15903
2026-01-12 11:45:34.22	331.27	3.77	-45.0	-57.3	3.8	1.49e+00	0	60	104	1574961152	60	15903
2026-01-12 11:45:35.23	331.35	3.71	-45.0	-57.3	3.8	1.49e+00	0	60	104	1574961152	60	15886
2026-01-12 11:45:36.24	331.44	3.66	-45.0	-57.3	3.8	1.49e+00	0	60	104	1574961152	60	15879
2026-01-12 11:45:37.25	331.52	3.60	-45.0	-57.3	3.8	1.49e+00	0	60	104	1574961152	60	15902
2026-01-12 11:45:38.26	331.61	3.55	-45.0	-57.3	3.8	1.49e+00	0	60	104	1574961152	60	15896
2026-01-12 11:45:39.27	331.69	3.49	-45.0	-57.3	3.8	1.49e+00	0	60	104	1574961152	60	15896
2026-01-12 11:45:40.28	331.78	3.44	-45.0	-57.3	3.8	1.49e+00	0	60	104	1574961152	60	15911
2026-01-12 11:45:41.29	331.86	3.38	-45.0	-57.3	3.8	1.49e+00	0	60	104	1574961152	60	15916
2026-01-12 11:45:42.30	331.94	3.33	-45.0	-57.3	3.8	1.49e+00	0	60	104	1574961152	60	15867
2026-01-12 11:45:43.31	332.03	3.27	-45.0	-57.3	3.8	1.49e+00	0	60	104	1574961152	60	15904
2026-01-12 11:45:44.32	332.11	3.22	-45.0	-57.3	3.8	1.49e+00	0	60	104	1574961152	60	15931
2026-01-12 11:45:45.34	332.19	3.16	-45.0	-57.4	3.8	1.49e+00	0	60	104	1574961152	60	15951
2026-01-12 11:45:46.35	332.27	3.11	-45.0	-57.3	3.8	1.49e+00	0	60	104	1574961152	60	15926
2026-01-12 11:45:47.36	332.36	3.05	-45.0	-57.3	3.8	1.49e+00	0	60	104	1574961152	60	15918
2026-01-12 11:45:48.37	332.44	3.00	-45.0	-57.3	3.8	1.49e+00	0	60	104	1574961152	60	15926
2026-01-12 11:45:49.38	332.52	2.94	-45.0	-57.3	3.8	1.49e+00	0	60	104	1574961152	60	15874
2026-01-12 11:45:50.39	332.60	2.89	-45.0	-57.3	3.8	1.49e+00	0	60	104	1574961152	60	15904
2026-01-12 11:45:51.40	332.68	2.83	-45.0	-57.3	3.8	1.49e+00	0	60	104	1574961152	60	15840
2026-01-12 11:45:52.41	332.76	2.78	-45.0	-57.3	3.8	1.49e+00	0	60	104	1574961152	60	15877
2026-01-12 11:45:53.42	332.84	2.72	-45.0	-57.3	3.8	1.49e+00	0	60	104	1574961152	60	15895
2026-01-12 11:45:54.44	332.92	2.67	-45.0	-57.3	3.8	1.49e+00	0	60	104	1574961152	60	15824
2026-01-12 11:45:55.45	333.00	2.62	-45.0	-57.3	3.8	1.49e+00	0	60	104	1574961152	60	15844
2026-01-12 11:45:56.46	333.08	2.56	-45.0	-57.3	3.8	1.49e+00	0	60	104	1574961152	60	15892
2026-01-12 11:45:57.47	333.16	2.51	-44.9	-57.3	3.8	1.49e+00	0	61	104	1574961152	60	15879
2026-01-12 11:45:58.48	333.24	2.45	-45.0	-57.3	3.8	1.49e+00	0	60	104	1574961152	60	15875
2026-01-12 11:45:59.49	333.31	2.40	-45.0	-57.3	3.8	1.49e+00	0	60	104	1574961152	60	15849
2026-01-12 11:46:00.50	333.39	2.35	-45.0	-57.3	3.8	1.49e+00	0	60	104	1574961152	60	15879
2026-01-12 11:46:01.51	333.47	2.29	-45.0	-57.3	3.8	1.49e+00	0	60	104	1574961152	60	15889
2026-01-12 11:46:02.52	333.55	2.24	-45.0	-57.3	3.8	1.49e+00	0	60	104	1574961152	60	15889
2026-01-12 11:46:03.53	333.63	2.18	-45.0	-57.3	3.8	1.49e+00	0	60	104	1574961152	60	15873
2026-01-12 11:46:04.54	333.70	2.13	-45.0	-57.3	3.8	1.49e+00	0	60	104	1574961152	60	15875
2026-01-12 11:46:05.55	333.78	2.08	-44.7	-57.3	3.8	1.49e+00	0	60	104	1574961152	60	15881
2026-01-12 11:46:06.56	333.86	2.02	-45.0	-57.3	3.8	1.49e+00	0	60	104	1574961152	60	15827
2026-01-12 11:46:07.58	333.93	1.97	-45.0	-57.3	3.8	1.49e+00	0	60	104	1574961152	60	15853

#Closed at: 2026-01-12 11:46:08
#Recorded file [1574 MB]: D:/lorett/data/31039_260112_143520.dat