passes_logs/2026/01/12/R2.0S_Moscow/R2.0S_Moscow__20260112_023235_FENGYUN_3G_rec.log

#Pass ID: 20260112_023235_FENGYUN 3G
#Satellite: FENGYUN 3G
#Configuration: FENGYUN 3G
#almurnet v.1.7.20251203
#Start time: 2026-01-12 02:32:36

#Version: 2.2.20231116
#Station: R2.0S_Moscow
#Location: 37.707566 lon 55.798166 lat
#TLE: 1 56232U 23055A   26011.25391515  .00034535  00000+0  54118-3 0  9995
#TLE: 2 56232  49.9937  75.2574 0004230   9.7874 350.3175 15.53326427155615

#Time	Az	El	Level	Level2	SNR	BER	BlckErr	Temp	State	Recorded	gain1	gain2
2026-01-12 02:32:36.12	263.93	2.02	-44.1	-62.4	3.8	8.45e-01	0	47	0	0	60	28647
2026-01-12 02:32:37.13	263.84	2.08	-44.1	-62.4	3.8	8.43e-01	0	47	104	0	60	28599
2026-01-12 02:32:38.15	263.75	2.15	-44.1	-62.4	3.8	8.46e-01	0	47	104	0	60	28534
2026-01-12 02:32:39.16	263.65	2.21	-44.1	-62.4	3.8	8.46e-01	0	47	104	0	60	28646
2026-01-12 02:32:40.17	263.56	2.27	-44.1	-62.4	3.8	8.46e-01	0	47	104	0	60	28632
2026-01-12 02:32:41.18	263.46	2.33	-44.1	-62.4	3.8	8.46e-01	0	48	104	0	60	28668
2026-01-12 02:32:42.19	263.36	2.39	-44.1	-62.4	3.8	8.45e-01	0	48	104	0	60	28563
2026-01-12 02:32:43.20	263.27	2.46	-44.1	-62.4	3.8	8.45e-01	0	48	104	0	60	28626
2026-01-12 02:32:44.21	263.17	2.52	-44.1	-62.4	3.8	8.47e-01	0	48	104	0	60	28562
2026-01-12 02:32:45.22	263.07	2.58	-44.1	-62.4	3.8	8.47e-01	0	48	104	0	60	28637
2026-01-12 02:32:46.23	262.97	2.65	-44.1	-62.4	3.8	8.47e-01	0	48	104	0	60	28574
2026-01-12 02:32:47.24	262.87	2.71	-44.1	-62.4	3.8	8.46e-01	0	48	104	0	60	28574
2026-01-12 02:32:48.26	262.77	2.77	-44.1	-62.4	3.8	8.45e-01	0	48	104	0	60	28604
2026-01-12 02:32:49.27	262.67	2.84	-44.1	-62.4	3.8	8.45e-01	0	48	104	0	60	28554
2026-01-12 02:32:50.28	262.57	2.90	-44.1	-62.4	3.8	8.46e-01	0	48	104	0	60	28550
2026-01-12 02:32:51.29	262.47	2.96	-44.1	-62.4	3.8	8.46e-01	0	48	104	0	60	28594
2026-01-12 02:32:52.30	262.37	3.03	-44.1	-62.4	3.8	8.47e-01	0	48	104	0	60	28612
2026-01-12 02:32:53.31	262.26	3.09	-44.1	-62.4	3.8	8.47e-01	0	48	104	0	60	28575
2026-01-12 02:32:54.32	262.16	3.15	-44.1	-62.4	3.8	8.47e-01	0	49	104	0	60	28627
2026-01-12 02:32:55.33	262.06	3.22	-44.1	-62.4	3.8	8.46e-01	0	49	104	0	60	28607
2026-01-12 02:32:56.34	261.95	3.28	-44.1	-62.4	3.8	8.46e-01	0	49	104	0	60	28554
2026-01-12 02:32:57.35	261.85	3.35	-44.1	-62.4	3.8	8.45e-01	0	49	104	0	60	28577
2026-01-12 02:32:58.36	261.74	3.41	-44.1	-62.4	3.8	8.46e-01	0	49	104	0	60	28544
2026-01-12 02:32:59.37	261.63	3.48	-44.1	-62.4	3.8	8.46e-01	0	49	104	0	60	28457
2026-01-12 02:33:00.38	261.52	3.54	-44.1	-62.3	3.8	8.47e-01	0	49	104	0	60	28348
2026-01-12 02:33:01.39	261.42	3.61	-44.1	-62.3	3.8	8.46e-01	0	49	104	0	60	28062
2026-01-12 02:33:02.40	261.31	3.67	-44.1	-62.2	3.8	8.46e-01	0	49	104	0	60	27816
2026-01-12 02:33:03.42	261.20	3.74	-44.1	-62.1	3.8	8.47e-01	0	49	104	0	60	27430
2026-01-12 02:33:04.43	261.09	3.80	-44.1	-61.9	3.8	8.46e-01	0	49	104	0	60	26907
2026-01-12 02:33:05.44	260.97	3.87	-44.1	-61.8	3.8	8.46e-01	0	49	104	0	60	26590
2026-01-12 02:33:06.45	260.86	3.94	-44.1	-61.7	3.8	8.46e-01	0	49	104	0	60	26209
2026-01-12 02:33:07.46	260.75	4.00	-44.1	-61.6	3.8	8.46e-01	0	49	104	0	60	25990
2026-01-12 02:33:08.47	260.64	4.07	-44.1	-61.6	3.8	8.46e-01	0	49	104	0	60	25968
2026-01-12 02:33:09.48	260.52	4.14	-44.1	-61.6	3.8	8.46e-01	0	50	104	0	60	26154
2026-01-12 02:33:10.49	260.41	4.20	-44.1	-61.8	3.8	8.47e-01	0	49	104	0	60	26604
2026-01-12 02:33:11.50	260.29	4.27	-44.1	-62.0	3.8	8.46e-01	0	50	104	0	60	27102
2026-01-12 02:33:12.51	260.17	4.34	-44.1	-62.2	3.8	8.46e-01	0	50	104	0	60	27813
2026-01-12 02:33:13.52	260.06	4.40	-44.1	-62.3	3.8	8.45e-01	0	50	104	0	60	28258
2026-01-12 02:33:14.53	259.94	4.47	-44.1	-62.4	3.8	8.47e-01	0	50	104	0	60	28519
2026-01-12 02:33:15.54	259.82	4.54	-44.1	-62.4	3.8	8.47e-01	0	50	104	0	60	28604
2026-01-12 02:33:16.56	259.70	4.61	-44.1	-62.4	3.8	8.47e-01	0	50	104	0	60	28473
2026-01-12 02:33:17.57	259.58	4.67	-44.1	-62.4	3.8	8.46e-01	0	50	104	0	60	28370
2026-01-12 02:33:18.58	259.46	4.74	-44.1	-62.4	3.8	8.46e-01	0	50	104	0	60	28380
2026-01-12 02:33:19.59	259.33	4.81	-44.1	-62.4	3.8	8.46e-01	0	50	104	0	60	28374
2026-01-12 02:33:20.60	259.21	4.88	-44.1	-62.3	3.8	8.46e-01	0	50	104	0	60	28346
2026-01-12 02:33:21.61	259.09	4.95	-44.1	-62.4	3.8	8.46e-01	0	50	104	0	60	28407
2026-01-12 02:33:22.62	258.96	5.02	-44.1	-62.4	3.8	8.46e-01	0	50	104	0	60	28488
2026-01-12 02:33:23.63	258.84	5.09	-44.1	-62.4	3.8	8.46e-01	0	50	104	0	60	28542
2026-01-12 02:33:24.65	258.71	5.16	-44.1	-62.4	3.8	8.46e-01	0	50	104	0	60	28452
2026-01-12 02:33:25.66	258.58	5.22	-44.1	-62.4	3.8	8.46e-01	0	50	104	0	60	28440
2026-01-12 02:33:26.67	258.45	5.29	-44.1	-62.3	3.8	8.46e-01	0	50	104	0	60	28314
2026-01-12 02:33:27.68	258.33	5.36	-44.1	-62.2	3.8	8.47e-01	0	50	104	0	60	27892
2026-01-12 02:33:28.69	258.20	5.43	-44.1	-62.0	3.8	8.45e-01	0	51	104	0	60	27353
2026-01-12 02:33:29.70	258.06	5.50	-44.1	-61.8	3.8	8.45e-01	0	51	104	0	60	26748
2026-01-12 02:33:30.71	257.93	5.57	-44.1	-61.5	3.8	8.46e-01	0	51	104	0	60	25757
2026-01-12 02:33:31.72	257.80	5.64	-44.1	-61.4	3.8	8.45e-01	0	51	104	0	60	25425
2026-01-12 02:33:32.73	257.67	5.71	-44.1	-61.1	3.8	8.45e-01	0	51	104	0	60	24650
2026-01-12 02:33:33.74	257.53	5.78	-44.1	-61.2	3.8	8.47e-01	0	51	104	0	60	24853
2026-01-12 02:33:34.75	257.40	5.86	-44.1	-61.2	3.8	8.45e-01	0	51	104	0	60	24703
2026-01-12 02:33:35.76	257.26	5.93	-44.1	-61.3	3.8	8.45e-01	0	51	104	0	60	25229
2026-01-12 02:33:36.77	257.12	6.00	-44.1	-61.3	3.8	8.45e-01	0	51	104	0	60	25216
2026-01-12 02:33:37.78	256.99	6.07	-44.1	-61.4	3.8	8.47e-01	0	51	104	0	60	25379
2026-01-12 02:33:38.80	256.85	6.14	-44.1	-61.3	3.8	8.47e-01	0	51	104	0	60	25027
2026-01-12 02:33:39.81	256.71	6.21	-44.1	-61.2	3.8	8.46e-01	0	51	104	0	60	24694
2026-01-12 02:33:40.82	256.56	6.28	-44.1	-60.9	3.8	8.46e-01	0	51	104	0	60	23935
2026-01-12 02:33:41.83	256.42	6.36	-44.1	-60.6	3.8	8.45e-01	0	51	104	0	60	23257
2026-01-12 02:33:42.84	256.28	6.43	-44.1	-60.5	3.8	8.45e-01	0	51	104	0	60	22930
2026-01-12 02:33:43.85	256.13	6.50	-44.0	-59.8	3.8	8.46e-01	0	51	104	0	60	21204
2026-01-12 02:33:44.86	255.99	6.57	-44.0	-59.5	3.9	8.45e-01	0	51	104	0	60	20324
2026-01-12 02:33:45.87	255.84	6.65	-44.0	-58.6	4.2	8.45e-01	0	51	0	0	60	18496
2026-01-12 02:33:46.88	255.70	6.72	-44.0	-57.4	4.7	8.38e-01	0	51	0	0	59	17062
2026-01-12 02:33:47.89	255.55	6.79	-43.9	-56.0	5.4	8.02e-01	0	51	0	0	59	14492
2026-01-12 02:33:48.90	255.40	6.87	-43.8	-54.9	6.3	8.02e-01	0	51	0	524288	59	12704
2026-01-12 02:33:49.91	255.25	6.94	-43.7	-53.8	7.4	4.91e-01	0	51	0	1572864	59	11161
2026-01-12 02:33:50.92	255.10	7.01	-43.6	-52.9	8.2	1.54e-01	0	51	0	3145728	59	10146
2026-01-12 02:33:51.94	254.94	7.09	-43.5	-52.2	9.0	5.63e-02	0	52	0	4194304	59	9281
2026-01-12 02:33:52.95	254.79	7.16	-43.5	-52.1	9.1	5.63e-02	0	51	0	5242880	58	9729
2026-01-12 02:33:53.96	254.63	7.24	-43.6	-52.7	8.5	2.90e-02	0	52	0	6291456	58	10497
2026-01-12 02:33:54.97	254.48	7.31	-43.7	-54.0	7.2	6.77e-02	0	52	0	7340032	58	12222
2026-01-12 02:33:55.98	254.32	7.38	-44.0	-57.2	4.9	6.77e-02	0	52	0	8388608	58	17625
2026-01-12 02:33:56.99	254.16	7.46	-44.2	-62.1	3.8	5.04e-01	0	52	104	8388608	58	30810
2026-01-12 02:33:58.00	254.01	7.53	-44.1	-58.9	3.9	8.45e-01	0	52	104	8388608	58	21421
2026-01-12 02:33:59.01	253.84	7.61	-43.6	-52.9	8.1	8.45e-01	0	52	0	8912896	58	10668
2026-01-12 02:34:00.02	253.68	7.68	-42.7	-48.9	12.3	4.54e-01	0	52	0	9961472	57	7143
2026-01-12 02:34:01.03	253.52	7.76	-41.7	-46.4	14.7	3.44e-03	0	52	0	11010048	55	6058
2026-01-12 02:34:02.05	253.36	7.84	-40.8	-44.6	16.5	3.44e-03	0	52	0	12058624	53	5525
2026-01-12 02:34:03.06	253.19	7.91	-40.1	-43.4	17.8	0.00e+00	0	52	0	13107200	52	5063
2026-01-12 02:34:04.07	253.02	7.99	-39.9	-43.0	18.3	0.00e+00	0	52	0	14680064	51	5131
2026-01-12 02:34:05.08	252.86	8.06	-40.0	-43.2	18.2	0.00e+00	0	52	0	15728640	51	5238
2026-01-12 02:34:06.09	252.69	8.14	-44.3	-60.8	3.8	0.00e+00	0	52	104	16252928	59	25153
2026-01-12 02:34:07.10	252.52	8.22	-40.3	-43.6	17.3	3.04e-01	0	52	0	16777216	52	5200
2026-01-12 02:34:08.11	252.35	8.29	-44.0	-59.9	3.8	7.02e-02	0	52	104	17301504	58	23890
2026-01-12 02:34:09.12	252.17	8.37	-41.5	-45.8	15.2	7.02e-02	0	52	0	17825792	53	6332
2026-01-12 02:34:10.13	252.00	8.45	-41.5	-46.0	15.1	2.39e-01	0	52	0	18874368	53	6480
2026-01-12 02:34:11.14	251.83	8.52	-39.5	-42.3	18.8	0.00e+00	0	52	0	19922944	51	4756
2026-01-12 02:34:12.15	251.65	8.60	-39.5	-42.3	19.2	0.00e+00	0	52	0	20971520	50	4987
2026-01-12 02:34:13.16	251.47	8.68	-39.3	-42.0	19.4	0.00e+00	0	52	0	22020096	50	4835
2026-01-12 02:34:14.17	251.29	8.76	-38.9	-41.3	19.9	0.00e+00	0	52	0	23068672	49	4711
2026-01-12 02:34:15.18	251.11	8.83	-39.0	-41.5	19.9	0.00e+00	0	52	0	24641536	49	4850
2026-01-12 02:34:16.18	250.93	8.91	-39.2	-41.8	19.6	0.00e+00	0	52	0	25690112	49	5036
2026-01-12 02:34:17.19	250.75	8.99	-39.1	-41.7	19.7	0.00e+00	0	52	0	26738688	49	4941
2026-01-12 02:34:18.20	250.57	9.07	-39.0	-41.5	19.9	0.00e+00	0	52	0	27787264	49	4850
2026-01-12 02:34:19.21	250.38	9.14	-39.0	-41.6	19.8	0.00e+00	0	52	0	28835840	49	4904
2026-01-12 02:34:20.22	250.20	9.22	-38.9	-41.5	19.9	0.00e+00	0	52	0	29884416	49	4830
2026-01-12 02:34:21.23	250.01	9.30	-38.8	-41.3	20.2	0.00e+00	0	53	0	31457280	49	4713
2026-01-12 02:34:22.24	249.82	9.38	-38.9	-41.4	20.1	0.00e+00	0	53	0	32505856	49	4771
2026-01-12 02:34:23.25	249.63	9.46	-38.8	-41.2	20.2	0.00e+00	0	53	0	33554432	49	4687
2026-01-12 02:34:24.26	249.43	9.54	-38.6	-41.0	20.4	0.00e+00	0	53	0	34603008	49	4575
2026-01-12 02:34:25.27	249.24	9.62	-38.6	-41.0	20.5	0.00e+00	0	53	0	35651584	49	4548
2026-01-12 02:34:26.28	249.05	9.70	-38.6	-40.9	20.5	0.00e+00	0	53	0	36700160	49	4541
2026-01-12 02:34:27.29	248.85	9.78	-38.7	-41.1	20.3	0.00e+00	0	53	0	38273024	49	4642
2026-01-12 02:34:28.30	248.65	9.86	-38.7	-41.1	20.3	0.00e+00	0	53	0	39321600	49	4621
2026-01-12 02:34:29.30	248.45	9.93	-38.6	-41.0	20.5	0.00e+00	0	53	0	40370176	49	4558
2026-01-12 02:34:30.31	248.25	10.01	-38.7	-41.1	20.4	0.00e+00	0	53	0	41418752	49	4623
2026-01-12 02:34:31.32	248.05	10.09	-38.8	-41.2	20.2	0.00e+00	0	53	0	42467328	49	4689
2026-01-12 02:34:32.33	247.85	10.17	-38.8	-41.3	20.2	0.00e+00	0	53	0	43515904	49	4741
2026-01-12 02:34:33.34	247.64	10.25	-38.9	-41.4	20.1	0.00e+00	0	53	0	45088768	49	4792
2026-01-12 02:34:34.35	247.43	10.33	-38.7	-41.2	20.3	0.00e+00	0	53	0	46137344	49	4663
2026-01-12 02:34:35.36	247.22	10.41	-38.5	-40.8	20.7	0.00e+00	0	53	0	47185920	48	4736
2026-01-12 02:34:36.37	247.01	10.49	-38.4	-40.8	20.8	0.00e+00	0	53	0	48234496	48	4716
2026-01-12 02:34:37.38	246.80	10.58	-38.2	-40.4	21.1	0.00e+00	0	53	0	49283072	48	4530
2026-01-12 02:34:38.39	246.59	10.66	-38.2	-40.4	21.1	0.00e+00	0	53	0	50331648	48	4527
2026-01-12 02:34:39.40	246.37	10.74	-38.2	-40.5	21.1	0.00e+00	0	53	0	51904512	48	4550
2026-01-12 02:34:40.41	246.16	10.82	-38.0	-40.2	21.3	0.00e+00	0	53	0	52953088	48	4434
2026-01-12 02:34:41.42	245.94	10.90	-37.9	-40.1	21.4	0.00e+00	0	53	0	54001664	47	4639
2026-01-12 02:34:42.43	245.72	10.98	-37.9	-40.1	21.4	0.00e+00	0	53	0	55050240	47	4641
2026-01-12 02:34:43.44	245.50	11.06	-38.1	-40.4	21.1	0.00e+00	0	53	0	56098816	47	4775
2026-01-12 02:34:44.45	245.28	11.14	-38.4	-40.7	20.8	0.00e+00	0	53	0	57147392	47	4945
2026-01-12 02:34:45.46	245.05	11.22	-38.2	-40.5	21.1	0.00e+00	0	53	0	58720256	47	4830
2026-01-12 02:34:46.47	244.82	11.30	-38.1	-40.3	21.2	0.00e+00	0	53	0	59768832	47	4739
2026-01-12 02:34:47.48	244.60	11.39	-38.0	-40.2	21.3	0.00e+00	0	53	0	60817408	47	4669
2026-01-12 02:34:48.49	244.37	11.47	-37.9	-40.1	21.4	0.00e+00	0	53	0	61865984	47	4634
2026-01-12 02:34:49.50	244.13	11.55	-37.9	-40.0	21.5	0.00e+00	0	53	0	62914560	47	4591
2026-01-12 02:34:50.51	243.90	11.63	-37.8	-40.0	21.6	0.00e+00	0	53	0	63963136	47	4566
2026-01-12 02:34:51.52	243.67	11.71	-37.7	-39.8	21.7	0.00e+00	0	53	0	65536000	47	4471
2026-01-12 02:34:52.53	243.43	11.79	-37.6	-39.6	21.9	0.00e+00	0	53	0	66584576	47	4385
2026-01-12 02:34:53.54	243.19	11.87	-37.6	-39.7	21.8	0.00e+00	0	53	0	67633152	47	4439
2026-01-12 02:34:54.55	242.95	11.95	-37.8	-40.0	21.6	0.00e+00	0	53	0	68681728	47	4567
2026-01-12 02:34:55.56	242.71	12.04	-38.1	-40.3	21.3	0.00e+00	0	53	0	69730304	47	4751
2026-01-12 02:34:56.57	242.47	12.12	-38.2	-40.5	21.1	0.00e+00	0	53	0	70778880	47	4831
2026-01-12 02:34:57.58	242.22	12.20	-38.2	-40.5	21.1	0.00e+00	0	53	0	72351744	47	4817
2026-01-12 02:34:58.59	241.97	12.28	-38.0	-40.2	21.4	0.00e+00	0	53	0	73400320	47	4663
2026-01-12 02:34:59.59	241.73	12.36	-37.8	-40.0	21.6	0.00e+00	0	53	0	74448896	47	4570
2026-01-12 02:35:00.60	241.48	12.44	-37.7	-39.8	21.8	0.00e+00	0	54	0	75497472	47	4468
2026-01-12 02:35:01.61	241.22	12.52	-37.5	-39.6	22.0	0.00e+00	0	53	0	76546048	47	4368
2026-01-12 02:35:02.62	240.97	12.61	-37.3	-39.3	22.2	0.00e+00	0	53	0	77594624	46	4481
2026-01-12 02:35:03.63	240.71	12.69	-37.2	-39.2	22.4	0.00e+00	0	54	0	79167488	46	4429
2026-01-12 02:35:04.64	240.45	12.77	-37.1	-39.1	22.5	0.00e+00	0	53	0	80216064	46	4363
2026-01-12 02:35:05.65	240.19	12.85	-37.2	-39.1	22.5	0.00e+00	0	54	0	81264640	46	4370
2026-01-12 02:35:06.66	239.93	12.93	-37.4	-39.4	22.2	0.00e+00	0	54	0	82313216	46	4517
2026-01-12 02:35:07.67	239.67	13.01	-37.7	-39.8	21.9	0.00e+00	0	54	0	83361792	46	4714
2026-01-12 02:35:08.68	239.40	13.09	-37.8	-39.9	21.8	0.00e+00	0	54	0	84410368	46	4789
2026-01-12 02:35:09.69	239.14	13.17	-37.7	-39.8	21.8	0.00e+00	0	54	0	85983232	46	4755
2026-01-12 02:35:10.70	238.87	13.25	-37.8	-39.9	21.8	0.00e+00	0	54	0	87031808	46	4763
2026-01-12 02:35:11.71	238.59	13.34	-37.7	-39.8	21.8	0.00e+00	0	54	0	88080384	46	4743
2026-01-12 02:35:12.72	238.32	13.42	-37.6	-39.7	22.0	0.00e+00	0	54	0	89128960	46	4652
2026-01-12 02:35:13.73	238.05	13.50	-37.6	-39.7	22.0	0.00e+00	0	54	0	90177536	46	4680
2026-01-12 02:35:14.74	237.77	13.58	-37.6	-39.7	22.0	0.00e+00	0	54	0	91226112	46	4660
2026-01-12 02:35:15.74	237.49	13.66	-37.5	-39.6	22.1	0.00e+00	0	54	0	92798976	46	4605
2026-01-12 02:35:16.75	237.21	13.74	-37.5	-39.5	22.1	0.00e+00	0	54	0	93847552	46	4581
2026-01-12 02:35:17.76	236.93	13.82	-37.6	-39.6	22.0	0.00e+00	0	54	0	94896128	46	4634
2026-01-12 02:35:18.77	236.64	13.90	-37.7	-39.8	21.9	0.00e+00	0	54	0	95944704	46	4713
2026-01-12 02:35:19.78	236.36	13.97	-37.4	-39.3	22.3	0.00e+00	0	54	0	96993280	46	4491
2026-01-12 02:35:20.79	236.07	14.05	-37.2	-39.1	22.5	0.00e+00	0	54	0	98041856	46	4390
2026-01-12 02:35:21.80	235.78	14.13	-37.2	-39.1	22.5	0.00e+00	0	54	0	99614720	46	4378
2026-01-12 02:35:22.81	235.48	14.21	-37.3	-39.3	22.4	0.00e+00	0	54	0	100663296	46	4447
2026-01-12 02:35:23.82	235.19	14.29	-37.3	-39.3	22.4	0.00e+00	0	54	0	101711872	46	4466
2026-01-12 02:35:24.82	234.89	14.37	-37.4	-39.4	22.3	0.00e+00	0	54	0	102760448	46	4515
2026-01-12 02:35:25.83	234.59	14.45	-37.5	-39.5	22.2	0.00e+00	0	54	0	103809024	46	4570
2026-01-12 02:35:26.84	234.29	14.52	-37.5	-39.5	22.2	0.00e+00	0	54	0	104857600	46	4561
2026-01-12 02:35:27.85	233.99	14.60	-37.4	-39.3	22.3	0.00e+00	0	54	0	106430464	46	4492
2026-01-12 02:35:28.86	233.68	14.68	-37.1	-39.1	22.7	0.00e+00	0	54	0	107479040	46	4343
2026-01-12 02:35:29.87	233.38	14.75	-37.1	-39.0	22.7	0.00e+00	0	54	0	108527616	46	4333
2026-01-12 02:35:30.88	233.07	14.83	-36.9	-38.8	22.9	0.00e+00	0	54	0	109576192	45	4471
2026-01-12 02:35:31.89	232.76	14.91	-36.9	-38.8	22.9	0.00e+00	0	54	0	110624768	45	4447
2026-01-12 02:35:32.90	232.44	14.98	-36.7	-38.5	23.1	0.00e+00	0	54	0	111673344	45	4326
2026-01-12 02:35:33.91	232.13	15.06	-36.7	-38.5	23.1	0.00e+00	0	54	0	113246208	45	4339
2026-01-12 02:35:34.92	231.81	15.13	-36.8	-38.7	23.0	0.00e+00	0	54	0	114294784	45	4415
2026-01-12 02:35:35.93	231.49	15.21	-36.9	-38.8	22.9	0.00e+00	0	54	0	115343360	45	4484
2026-01-12 02:35:36.94	231.17	15.28	-37.1	-39.0	22.7	0.00e+00	0	54	0	116391936	45	4556
2026-01-12 02:35:37.95	230.85	15.36	-37.2	-39.1	22.7	0.00e+00	0	54	0	117440512	45	4631
2026-01-12 02:35:38.96	230.52	15.43	-37.5	-39.5	22.2	0.00e+00	0	54	0	118489088	45	4857
2026-01-12 02:35:39.97	230.19	15.50	-37.4	-39.4	22.4	0.00e+00	0	54	0	119537664	45	4776
2026-01-12 02:35:40.98	229.86	15.58	-37.3	-39.2	22.5	0.00e+00	0	54	0	121110528	45	4705
2026-01-12 02:35:41.99	229.53	15.65	-37.1	-39.0	22.7	0.00e+00	0	54	0	122159104	45	4582
2026-01-12 02:35:43.00	229.20	15.72	-36.9	-38.7	23.0	0.00e+00	0	54	0	123207680	45	4428
2026-01-12 02:35:44.01	228.86	15.79	-36.3	-38.1	23.7	0.00e+00	0	54	0	124256256	44	4343
2026-01-12 02:35:45.02	228.52	15.86	-36.1	-37.9	23.8	0.00e+00	0	54	0	125304832	44	4254
2026-01-12 02:35:46.03	228.18	15.93	-35.8	-37.5	24.0	0.00e+00	0	54	0	126877696	43	4305
2026-01-12 02:35:47.04	227.84	16.00	-35.8	-37.6	23.9	0.00e+00	0	54	0	127926272	43	4341
2026-01-12 02:35:48.04	227.50	16.07	-35.8	-37.5	24.0	0.00e+00	0	54	0	128974848	43	4333
2026-01-12 02:35:49.05	227.16	16.14	-35.7	-37.4	24.1	0.00e+00	0	54	0	130023424	43	4274
2026-01-12 02:35:50.06	226.81	16.20	-35.9	-37.6	23.9	0.00e+00	0	54	0	131072000	43	4362
2026-01-12 02:35:51.07	226.46	16.27	-36.1	-37.8	23.8	0.00e+00	0	54	0	132120576	43	4465
2026-01-12 02:35:52.08	226.11	16.34	-36.0	-37.8	23.8	0.00e+00	0	54	0	133693440	43	4444
2026-01-12 02:35:53.09	225.75	16.40	-36.1	-37.8	23.7	0.00e+00	0	54	0	134742016	43	4474
2026-01-12 02:35:54.10	225.40	16.47	-36.0	-37.8	23.8	0.00e+00	0	54	0	135790592	43	4453
2026-01-12 02:35:55.11	225.04	16.53	-36.1	-37.8	23.7	0.00e+00	0	54	0	136839168	43	4486
2026-01-12 02:35:56.12	224.68	16.60	-36.0	-37.8	23.8	0.00e+00	0	54	0	137887744	43	4449
2026-01-12 02:35:57.13	224.32	16.66	-36.1	-37.8	23.7	0.00e+00	0	54	0	138936320	43	4487
2026-01-12 02:35:58.15	223.95	16.72	-36.2	-38.0	23.6	0.00e+00	0	54	0	140509184	43	4551
2026-01-12 02:35:59.15	223.59	16.78	-36.3	-38.1	23.5	0.00e+00	0	54	0	141557760	43	4621
2026-01-12 02:36:00.16	223.23	16.84	-36.4	-38.2	23.5	0.00e+00	0	54	0	142606336	43	4659
2026-01-12 02:36:01.17	222.86	16.90	-36.5	-38.3	23.3	0.00e+00	0	54	0	143654912	43	4747
2026-01-12 02:36:02.18	222.49	16.96	-36.4	-38.2	23.4	0.00e+00	0	55	0	144703488	43	4658
2026-01-12 02:36:03.19	222.11	17.02	-36.4	-38.1	23.5	0.00e+00	0	54	0	145752064	43	4651
2026-01-12 02:36:04.20	221.74	17.08	-36.4	-38.1	23.5	0.00e+00	0	55	0	147324928	43	4646
2026-01-12 02:36:05.21	221.36	17.14	-36.0	-37.7	23.8	0.00e+00	0	55	0	148373504	43	4438
2026-01-12 02:36:06.22	220.99	17.19	-35.9	-37.6	24.0	0.00e+00	0	55	0	149422080	43	4356
2026-01-12 02:36:07.23	220.61	17.25	-35.9	-37.6	24.0	0.00e+00	0	54	0	150470656	43	4356
2026-01-12 02:36:08.24	220.23	17.30	-35.9	-37.6	24.0	0.00e+00	0	55	0	151519232	43	4355
2026-01-12 02:36:09.25	219.84	17.35	-35.8	-37.5	24.1	0.00e+00	0	54	0	152567808	43	4330
2026-01-12 02:36:10.26	219.46	17.41	-35.9	-37.6	24.0	0.00e+00	0	55	0	154140672	43	4364
2026-01-12 02:36:11.27	219.07	17.46	-35.8	-37.4	24.2	0.00e+00	0	55	0	155189248	43	4282
2026-01-12 02:36:12.27	218.69	17.51	-35.7	-37.3	24.3	0.00e+00	0	54	0	156237824	43	4233
2026-01-12 02:36:13.28	218.30	17.56	-35.5	-37.1	24.4	0.00e+00	0	55	0	157286400	43	4138
2026-01-12 02:36:14.29	217.91	17.61	-35.5	-37.1	24.5	0.00e+00	0	55	0	158334976	42	4366
2026-01-12 02:36:15.30	217.52	17.65	-35.4	-37.0	24.6	0.00e+00	0	55	0	159383552	42	4327
2026-01-12 02:36:16.31	217.12	17.70	-35.2	-36.8	24.7	0.00e+00	0	55	0	160432128	42	4239
2026-01-12 02:36:17.32	216.73	17.74	-35.3	-36.9	24.7	0.00e+00	0	55	0	162004992	42	4255
2026-01-12 02:36:18.33	216.33	17.79	-35.3	-36.9	24.7	0.00e+00	0	55	0	163053568	42	4284
2026-01-12 02:36:19.34	215.93	17.83	-35.2	-36.8	24.8	0.00e+00	0	55	0	164102144	42	4231
2026-01-12 02:36:20.35	215.53	17.87	-35.3	-36.9	24.6	0.00e+00	0	55	0	165150720	42	4268
2026-01-12 02:36:21.36	215.13	17.91	-35.3	-36.9	24.5	0.00e+00	0	55	0	166199296	42	4288
2026-01-12 02:36:22.37	214.73	17.95	-35.6	-37.2	24.4	0.00e+00	0	55	0	167247872	42	4422
2026-01-12 02:36:23.38	214.32	17.99	-35.6	-37.3	24.3	0.00e+00	0	55	0	168820736	42	4458
2026-01-12 02:36:24.39	213.92	18.03	-35.6	-37.3	24.3	0.00e+00	0	55	0	169869312	42	4456
2026-01-12 02:36:25.40	213.51	18.07	-35.3	-36.9	24.7	0.00e+00	0	55	0	170917888	42	4265
2026-01-12 02:36:26.41	213.11	18.10	-35.2	-36.8	24.8	0.00e+00	0	55	0	171966464	42	4221
2026-01-12 02:36:27.42	212.70	18.14	-35.1	-36.7	24.9	0.00e+00	0	55	0	173015040	42	4168
2026-01-12 02:36:28.43	212.29	18.17	-35.0	-36.6	25.0	0.00e+00	0	55	0	174587904	42	4111
2026-01-12 02:36:29.44	211.88	18.20	-35.0	-36.5	25.0	0.00e+00	0	55	0	175636480	41	4325
2026-01-12 02:36:30.44	211.47	18.23	-34.8	-36.4	25.2	0.00e+00	0	55	0	176685056	41	4252
2026-01-12 02:36:31.45	211.06	18.26	-34.6	-36.1	25.5	0.00e+00	0	55	0	177733632	41	4108
2026-01-12 02:36:32.46	210.64	18.29	-34.9	-36.4	25.2	0.00e+00	0	55	0	178782208	41	4271
2026-01-12 02:36:33.47	210.23	18.31	-35.3	-36.9	24.6	0.00e+00	0	55	0	179830784	41	4542
2026-01-12 02:36:34.48	209.81	18.34	-35.4	-37.0	24.6	0.00e+00	0	55	0	181403648	41	4573
2026-01-12 02:36:35.49	209.40	18.36	-35.1	-36.7	24.9	0.00e+00	0	55	0	182452224	41	4400
2026-01-12 02:36:36.50	208.98	18.39	-35.1	-36.7	24.9	0.00e+00	0	55	0	183500800	41	4416
2026-01-12 02:36:37.51	208.56	18.41	-35.3	-36.9	24.7	0.00e+00	0	55	0	184549376	41	4501
2026-01-12 02:36:38.52	208.14	18.43	-35.5	-37.1	24.5	0.00e+00	0	55	0	185597952	41	4631
2026-01-12 02:36:39.53	207.72	18.45	-35.6	-37.3	24.3	0.00e+00	0	55	0	186646528	41	4721
2026-01-12 02:36:40.55	207.30	18.47	-35.3	-36.9	24.7	0.00e+00	0	55	0	188219392	41	4525
2026-01-12 02:36:41.55	206.88	18.48	-35.3	-36.9	24.7	0.00e+00	0	55	0	189267968	41	4504
2026-01-12 02:36:42.56	206.46	18.50	-35.6	-37.2	24.4	0.00e+00	0	55	0	190316544	41	4687
2026-01-12 02:36:43.57	206.04	18.51	-35.6	-37.3	24.4	0.00e+00	0	55	0	191365120	41	4709
2026-01-12 02:36:44.58	205.62	18.52	-35.5	-37.1	24.5	0.00e+00	0	55	0	192413696	41	4642
2026-01-12 02:36:45.59	205.20	18.54	-35.6	-37.2	24.4	0.00e+00	0	55	0	193462272	41	4673
2026-01-12 02:36:46.60	204.78	18.54	-35.5	-37.2	24.5	0.00e+00	0	55	0	195035136	41	4667
2026-01-12 02:36:47.61	204.35	18.55	-35.7	-37.3	24.3	0.00e+00	0	55	0	196083712	41	4757
2026-01-12 02:36:48.62	203.93	18.56	-35.7	-37.4	24.2	0.00e+00	0	55	0	197132288	42	4520
2026-01-12 02:36:49.63	203.51	18.57	-35.4	-37.1	24.5	0.00e+00	0	55	0	198180864	42	4344
2026-01-12 02:36:50.64	203.08	18.57	-35.5	-37.1	24.6	0.00e+00	0	55	0	199229440	42	4361
2026-01-12 02:36:51.65	202.66	18.57	-35.5	-37.1	24.5	0.00e+00	0	55	0	200278016	42	4388
2026-01-12 02:36:52.66	202.23	18.58	-35.6	-37.2	24.4	0.00e+00	0	55	0	201326592	42	4418
2026-01-12 02:36:53.67	201.81	18.58	-35.4	-37.0	24.6	0.00e+00	0	55	0	202899456	42	4335
2026-01-12 02:36:54.68	201.39	18.57	-35.3	-36.9	24.7	0.00e+00	0	55	0	203948032	42	4258
2026-01-12 02:36:55.69	200.96	18.57	-35.3	-36.9	24.7	0.00e+00	0	55	0	204996608	42	4260
2026-01-12 02:36:56.70	200.54	18.57	-35.3	-36.9	24.7	0.00e+00	0	55	0	206045184	42	4243
2026-01-12 02:36:57.71	200.12	18.56	-35.1	-36.6	24.9	0.00e+00	0	55	0	207093760	42	4145
2026-01-12 02:36:58.72	199.69	18.56	-35.0	-36.6	25.0	0.00e+00	0	55	0	208142336	42	4117
2026-01-12 02:36:59.73	199.27	18.55	-35.3	-36.9	24.7	0.00e+00	0	55	0	209715200	42	4260
2026-01-12 02:37:00.74	198.85	18.54	-35.4	-37.1	24.6	0.00e+00	0	55	0	210763776	42	4345
2026-01-12 02:37:01.75	198.42	18.53	-35.5	-37.2	24.5	0.00e+00	0	55	0	211812352	42	4402
2026-01-12 02:37:02.76	198.00	18.52	-35.8	-37.5	24.2	0.00e+00	0	55	0	212860928	42	4550
2026-01-12 02:37:03.77	197.58	18.50	-36.2	-37.9	23.8	0.00e+00	0	55	0	213909504	42	4798
2026-01-12 02:37:04.78	197.16	18.49	-35.9	-37.6	24.0	0.00e+00	0	55	0	215482368	42	4639
2026-01-12 02:37:05.79	196.74	18.47	-35.6	-37.3	24.4	0.00e+00	0	55	0	216530944	42	4445
2026-01-12 02:37:06.80	196.32	18.46	-35.5	-37.2	24.5	0.00e+00	0	55	0	217579520	42	4395
2026-01-12 02:37:07.80	195.90	18.44	-35.3	-36.9	24.7	0.00e+00	0	55	0	218628096	42	4287
2026-01-12 02:37:08.81	195.48	18.42	-34.9	-36.4	25.1	0.00e+00	0	55	0	219676672	41	4279
2026-01-12 02:37:09.82	195.06	18.40	-34.8	-36.3	25.2	0.00e+00	0	55	0	220725248	41	4226
2026-01-12 02:37:10.83	194.65	18.37	-35.0	-36.5	25.1	0.00e+00	0	55	0	222298112	41	4328
2026-01-12 02:37:11.84	194.23	18.35	-35.1	-36.7	24.9	0.00e+00	0	55	0	223346688	41	4433
2026-01-12 02:37:12.85	193.81	18.33	-35.4	-37.0	24.6	0.00e+00	0	55	0	224395264	41	4585
2026-01-12 02:37:13.86	193.40	18.30	-35.6	-37.2	24.4	0.00e+00	0	55	0	225443840	41	4696
2026-01-12 02:37:14.87	192.98	18.27	-35.8	-37.5	24.1	0.00e+00	0	55	0	226492416	42	4576
2026-01-12 02:37:15.88	192.57	18.24	-35.7	-37.3	24.3	0.00e+00	0	55	0	227540992	42	4474
2026-01-12 02:37:16.89	192.16	18.21	-35.6	-37.2	24.4	0.00e+00	0	55	0	229113856	42	4438
2026-01-12 02:37:17.90	191.75	18.18	-35.3	-36.9	24.7	0.00e+00	0	55	0	230162432	42	4253
2026-01-12 02:37:18.91	191.34	18.15	-35.1	-36.7	24.9	0.00e+00	0	55	0	231211008	42	4150
2026-01-12 02:37:19.92	190.93	18.12	-34.8	-36.3	25.2	0.00e+00	0	55	0	232259584	41	4240
2026-01-12 02:37:20.93	190.52	18.08	-34.8	-36.3	25.2	0.00e+00	0	55	0	233308160	41	4235
2026-01-12 02:37:21.94	190.11	18.05	-34.7	-36.2	25.3	0.00e+00	0	55	0	234356736	41	4172
2026-01-12 02:37:22.95	189.71	18.01	-34.8	-36.3	25.2	0.00e+00	0	55	0	235929600	41	4221
2026-01-12 02:37:23.96	189.30	17.97	-35.1	-36.7	24.9	0.00e+00	0	55	0	236978176	41	4433
2026-01-12 02:37:24.97	188.90	17.93	-35.5	-37.2	24.4	0.00e+00	0	55	0	238026752	41	4664
2026-01-12 02:37:25.98	188.50	17.89	-35.6	-37.2	24.3	0.00e+00	0	55	0	239075328	41	4705
2026-01-12 02:37:26.99	188.10	17.85	-35.7	-37.4	24.1	0.00e+00	0	55	0	240123904	42	4529
2026-01-12 02:37:28.00	187.70	17.81	-35.6	-37.2	24.3	0.00e+00	0	55	0	241172480	42	4428
2026-01-12 02:37:29.00	187.31	17.76	-35.5	-37.1	24.5	0.00e+00	0	55	0	242221056	42	4375
2026-01-12 02:37:30.01	186.91	17.72	-35.6	-37.2	24.4	0.00e+00	0	55	0	243793920	42	4424
2026-01-12 02:37:31.02	186.51	17.67	-35.4	-37.1	24.5	0.00e+00	0	55	0	244842496	42	4343
2026-01-12 02:37:32.03	186.12	17.63	-35.4	-37.0	24.5	0.00e+00	0	55	0	245891072	42	4315
2026-01-12 02:37:33.04	185.73	17.58	-35.6	-37.2	24.4	0.00e+00	0	55	0	246939648	42	4420
2026-01-12 02:37:34.05	185.34	17.53	-35.4	-37.1	24.5	0.00e+00	0	55	0	247988224	42	4344
2026-01-12 02:37:35.06	184.95	17.48	-35.4	-37.0	24.5	0.00e+00	0	55	0	249036800	42	4330
2026-01-12 02:37:36.07	184.56	17.43	-35.6	-37.3	24.3	0.00e+00	0	55	0	250609664	42	4464
2026-01-12 02:37:37.08	184.18	17.38	-35.8	-37.5	24.1	0.00e+00	0	55	0	251658240	42	4549
2026-01-12 02:37:38.09	183.79	17.32	-36.0	-37.8	23.8	0.00e+00	0	55	0	252706816	42	4712
2026-01-12 02:37:39.10	183.41	17.27	-35.9	-37.6	23.9	0.00e+00	0	55	0	253755392	42	4646
2026-01-12 02:37:40.11	183.03	17.22	-35.7	-37.3	24.2	0.00e+00	0	55	0	254803968	42	4491
2026-01-12 02:37:41.12	182.65	17.16	-35.5	-37.1	24.4	0.00e+00	0	55	0	255852544	42	4379
2026-01-12 02:37:42.13	182.28	17.10	-35.6	-37.3	24.3	0.00e+00	0	55	0	257425408	42	4446
2026-01-12 02:37:43.14	181.90	17.05	-35.7	-37.4	24.2	0.00e+00	0	55	0	258473984	42	4511
2026-01-12 02:37:44.15	181.53	16.99	-36.0	-37.8	23.8	0.00e+00	0	55	0	259522560	42	4717
2026-01-12 02:37:45.16	181.16	16.93	-36.3	-38.0	23.5	0.00e+00	0	55	0	260571136	43	4593
2026-01-12 02:37:46.17	180.79	16.87	-36.2	-37.9	23.6	0.00e+00	0	56	0	261619712	43	4542
2026-01-12 02:37:47.18	180.42	16.81	-36.0	-37.8	23.7	0.00e+00	0	55	0	263192576	43	4446
2026-01-12 02:37:48.19	180.05	16.75	-35.9	-37.6	23.9	0.00e+00	0	55	0	264241152	43	4353
2026-01-12 02:37:49.20	179.69	16.69	-35.7	-37.3	24.1	0.00e+00	0	55	0	265289728	43	4239
2026-01-12 02:37:50.21	179.32	16.62	-35.8	-37.5	24.0	0.00e+00	0	55	0	266338304	43	4306
2026-01-12 02:37:51.21	178.97	16.56	-35.9	-37.6	23.8	0.00e+00	0	55	0	267386880	43	4375
2026-01-12 02:37:52.23	178.61	16.50	-36.1	-37.8	23.7	0.00e+00	0	55	0	268435456	43	4489
2026-01-12 02:37:53.24	178.25	16.43	-36.3	-38.0	23.5	0.00e+00	0	55	0	270008320	43	4598
2026-01-12 02:37:54.24	177.90	16.37	-36.5	-38.3	23.2	0.00e+00	0	55	0	271056896	43	4720
2026-01-12 02:37:55.25	177.54	16.30	-36.5	-38.3	23.2	0.00e+00	0	55	0	272105472	43	4744
2026-01-12 02:37:56.26	177.19	16.23	-36.6	-38.4	23.1	0.00e+00	0	55	0	273154048	43	4795
2026-01-12 02:37:57.27	176.85	16.17	-36.6	-38.4	23.1	0.00e+00	0	55	0	274202624	43	4789
2026-01-12 02:37:58.28	176.50	16.10	-36.7	-38.5	23.0	0.00e+00	0	55	0	275251200	43	4856
2026-01-12 02:37:59.29	176.15	16.03	-37.0	-38.8	22.9	0.00e+00	0	55	0	276824064	44	4753
2026-01-12 02:38:00.30	175.81	15.96	-37.1	-39.0	22.7	0.00e+00	0	55	0	277872640	44	4822
2026-01-12 02:38:01.31	175.47	15.89	-37.2	-39.1	22.6	0.00e+00	0	55	0	278921216	44	4907
2026-01-12 02:38:02.32	175.13	15.82	-37.2	-39.2	22.5	0.00e+00	0	56	0	279969792	45	4660
2026-01-12 02:38:03.32	174.80	15.75	-37.2	-39.1	22.6	0.00e+00	0	55	0	281018368	45	4616
2026-01-12 02:38:04.33	174.46	15.68	-37.0	-38.9	22.8	0.00e+00	0	55	0	282066944	45	4516
2026-01-12 02:38:05.34	174.13	15.61	-36.7	-38.6	23.1	0.00e+00	0	56	0	283115520	45	4344
2026-01-12 02:38:06.35	173.80	15.53	-36.7	-38.5	23.2	0.00e+00	0	56	0	284688384	45	4311
2026-01-12 02:38:07.36	173.47	15.46	-37.0	-38.8	23.2	0.00e+00	0	55	0	285736960	45	4462
2026-01-12 02:38:08.37	173.14	15.39	-37.0	-38.8	22.9	0.00e+00	0	55	0	286785536	45	4475
2026-01-12 02:38:09.38	172.82	15.31	-37.0	-38.9	22.9	0.00e+00	0	55	0	287834112	45	4508
2026-01-12 02:38:10.39	172.49	15.24	-36.9	-38.8	23.0	0.00e+00	0	56	0	288882688	45	4455
2026-01-12 02:38:11.40	172.17	15.16	-36.9	-38.8	23.0	0.00e+00	0	55	0	289931264	45	4449
2026-01-12 02:38:12.41	171.86	15.09	-36.9	-38.8	22.9	0.00e+00	0	55	0	291504128	45	4456
2026-01-12 02:38:13.42	171.54	15.01	-37.1	-38.9	22.8	0.00e+00	0	55	0	292552704	45	4538
2026-01-12 02:38:14.43	171.22	14.94	-37.1	-38.9	22.8	0.00e+00	0	55	0	293601280	45	4532
2026-01-12 02:38:15.44	170.91	14.86	-37.0	-38.8	22.9	0.00e+00	0	55	0	294649856	45	4489
2026-01-12 02:38:16.45	170.60	14.79	-36.9	-38.8	22.9	0.00e+00	0	55	0	295698432	45	4455
2026-01-12 02:38:17.46	170.29	14.71	-37.0	-38.8	22.9	0.00e+00	0	55	0	296747008	45	4483
2026-01-12 02:38:18.47	169.99	14.63	-37.1	-39.0	22.7	0.00e+00	0	55	0	298319872	45	4573
2026-01-12 02:38:19.48	169.68	14.55	-37.4	-39.3	22.4	0.00e+00	0	55	0	299368448	45	4738
2026-01-12 02:38:20.49	169.38	14.48	-37.5	-39.4	22.4	0.00e+00	0	55	0	300417024	45	4797
2026-01-12 02:38:21.50	169.08	14.40	-37.4	-39.4	22.4	0.00e+00	0	55	0	301465600	45	4775
2026-01-12 02:38:22.51	168.78	14.32	-37.5	-39.5	22.3	0.00e+00	0	55	0	302514176	45	4846
2026-01-12 02:38:23.52	168.48	14.24	-37.5	-39.5	22.3	0.00e+00	0	55	0	304087040	45	4860
2026-01-12 02:38:24.53	168.19	14.16	-37.6	-39.6	22.2	0.00e+00	0	56	0	305135616	45	4899
2026-01-12 02:38:25.54	167.90	14.08	-37.5	-39.5	22.3	0.00e+00	0	56	0	306184192	45	4861
2026-01-12 02:38:26.55	167.61	14.01	-37.4	-39.4	22.4	0.00e+00	0	56	0	307232768	45	4771
2026-01-12 02:38:27.56	167.32	13.93	-37.4	-39.3	22.5	0.00e+00	0	56	0	308281344	45	4744
2026-01-12 02:38:28.57	167.03	13.85	-37.3	-39.2	22.6	0.00e+00	0	56	0	309329920	45	4685
2026-01-12 02:38:29.57	166.75	13.77	-37.3	-39.2	22.6	0.00e+00	0	55	0	310902784	45	4675
2026-01-12 02:38:30.58	166.47	13.69	-37.4	-39.3	22.4	0.00e+00	0	56	0	311951360	45	4730
2026-01-12 02:38:31.59	166.19	13.61	-37.5	-39.4	22.3	0.00e+00	0	56	0	312999936	45	4798
2026-01-12 02:38:32.60	165.91	13.53	-37.6	-39.7	22.2	0.00e+00	0	56	0	314048512	45	4927
2026-01-12 02:38:33.61	165.63	13.45	-37.9	-39.9	21.9	0.00e+00	0	55	0	315097088	46	4800
2026-01-12 02:38:34.62	165.36	13.37	-38.0	-40.1	21.7	0.00e+00	0	55	0	316145664	46	4894
2026-01-12 02:38:35.63	165.08	13.29	-38.0	-40.1	21.7	0.00e+00	0	56	0	317718528	46	4900
2026-01-12 02:38:36.64	164.81	13.20	-37.8	-39.8	22.0	0.00e+00	0	56	0	318767104	46	4755
2026-01-12 02:38:37.65	164.55	13.12	-37.7	-39.7	22.0	0.00e+00	0	56	0	319815680	46	4702
2026-01-12 02:38:38.66	164.28	13.04	-37.6	-39.7	22.1	0.00e+00	0	55	0	320864256	46	4658
2026-01-12 02:38:39.67	164.01	12.96	-37.8	-39.9	21.9	0.00e+00	0	56	0	321912832	46	4779
2026-01-12 02:38:40.68	163.75	12.88	-37.9	-39.9	21.8	0.00e+00	0	56	0	322961408	46	4814
2026-01-12 02:38:41.69	163.49	12.80	-37.9	-40.0	21.8	0.00e+00	0	56	0	324009984	46	4830
2026-01-12 02:38:42.70	163.23	12.72	-38.1	-40.2	21.6	0.00e+00	0	56	0	325582848	46	4980
2026-01-12 02:38:43.71	162.97	12.64	-38.2	-40.3	21.5	0.00e+00	0	56	0	326631424	46	5040
2026-01-12 02:38:44.72	162.72	12.56	-38.1	-40.3	21.5	0.00e+00	0	56	0	327680000	46	4996
2026-01-12 02:38:45.73	162.46	12.47	-38.1	-40.2	21.6	0.00e+00	0	56	0	328728576	46	4958
2026-01-12 02:38:46.74	162.21	12.39	-38.1	-40.3	21.5	0.00e+00	0	56	0	329777152	46	5004
2026-01-12 02:38:47.75	161.96	12.31	-37.9	-40.1	21.7	0.00e+00	0	56	0	330825728	46	4883
2026-01-12 02:38:48.76	161.71	12.23	-37.8	-39.9	21.9	0.00e+00	0	56	0	332398592	46	4760
2026-01-12 02:38:49.77	161.47	12.15	-37.8	-39.9	21.8	0.00e+00	0	56	0	333447168	46	4799
2026-01-12 02:38:50.78	161.22	12.07	-37.9	-39.9	21.8	0.00e+00	0	56	0	334495744	46	4812
2026-01-12 02:38:51.78	160.98	11.99	-38.0	-40.1	21.6	0.00e+00	0	55	0	335544320	46	4913
2026-01-12 02:38:52.79	160.74	11.90	-38.2	-40.5	21.3	0.00e+00	0	56	0	336592896	47	4820
2026-01-12 02:38:53.80	160.50	11.82	-38.2	-40.5	21.3	0.00e+00	0	56	0	337641472	47	4818
2026-01-12 02:38:54.81	160.26	11.74	-38.3	-40.5	21.2	0.00e+00	0	56	0	339214336	47	4846
2026-01-12 02:38:55.82	160.03	11.66	-38.2	-40.5	21.2	0.00e+00	0	56	0	340262912	47	4831
2026-01-12 02:38:56.83	159.79	11.58	-38.3	-40.5	21.1	0.00e+00	0	56	0	341311488	47	4863
2026-01-12 02:38:57.84	159.56	11.50	-38.3	-40.6	21.0	0.00e+00	0	56	0	342360064	47	4911
2026-01-12 02:38:58.85	159.33	11.41	-38.4	-40.7	20.9	0.00e+00	0	56	0	343408640	47	4980
2026-01-12 02:38:59.86	159.10	11.33	-38.5	-40.8	20.9	0.00e+00	0	56	0	344457216	47	5005
2026-01-12 02:39:00.87	158.87	11.25	-38.6	-40.9	20.8	0.00e+00	0	56	0	346030080	47	5084
2026-01-12 02:39:01.88	158.65	11.17	-38.4	-40.7	20.9	0.00e+00	0	56	0	347078656	47	4930
2026-01-12 02:39:02.89	158.42	11.09	-38.2	-40.4	21.1	0.00e+00	0	56	0	348127232	47	4811
2026-01-12 02:39:03.90	158.20	11.01	-38.3	-40.6	20.9	0.00e+00	0	56	0	349175808	47	4889
2026-01-12 02:39:04.91	157.98	10.93	-38.2	-40.5	21.0	0.00e+00	0	56	0	350224384	47	4851
2026-01-12 02:39:05.92	157.76	10.85	-38.2	-40.5	20.9	0.00e+00	0	56	0	351797248	47	4843
2026-01-12 02:39:06.93	157.54	10.77	-38.2	-40.5	20.9	0.00e+00	0	56	0	352845824	47	4861
2026-01-12 02:39:07.94	157.33	10.68	-38.3	-40.6	20.8	0.00e+00	0	56	0	353894400	47	4908
2026-01-12 02:39:08.95	157.11	10.60	-38.4	-40.7	20.7	0.00e+00	0	56	0	354942976	47	4974
2026-01-12 02:39:09.96	156.90	10.52	-38.3	-40.7	20.7	0.00e+00	0	56	0	355991552	47	4950
2026-01-12 02:39:10.97	156.69	10.44	-38.3	-40.7	20.7	0.00e+00	0	56	0	357040128	47	4951
2026-01-12 02:39:11.98	156.48	10.36	-38.4	-40.8	20.6	0.00e+00	0	56	0	358612992	47	5014
2026-01-12 02:39:12.98	156.27	10.28	-38.4	-40.8	20.5	0.00e+00	0	56	0	359661568	47	5001
2026-01-12 02:39:13.99	156.06	10.20	-38.5	-41.0	20.4	0.00e+00	0	56	0	360710144	47	5120
2026-01-12 02:39:15.00	155.86	10.12	-38.6	-41.0	20.3	0.00e+00	0	56	0	361758720	47	5143
2026-01-12 02:39:16.01	155.66	10.04	-38.8	-41.3	20.1	0.00e+00	0	56	0	362807296	48	5011
2026-01-12 02:39:17.02	155.45	9.96	-38.8	-41.3	20.0	0.00e+00	0	56	0	363855872	48	5037
2026-01-12 02:39:18.03	155.25	9.88	-39.0	-41.5	19.8	0.00e+00	0	56	0	364904448	48	5154
2026-01-12 02:39:19.04	155.05	9.80	-38.9	-41.5	19.8	0.00e+00	0	56	0	366477312	48	5128
2026-01-12 02:39:20.05	154.86	9.72	-39.0	-41.5	19.8	0.00e+00	0	56	0	367525888	48	5150
2026-01-12 02:39:21.06	154.66	9.64	-39.1	-41.8	19.6	0.00e+00	0	56	0	368574464	48	5284
2026-01-12 02:39:22.07	154.46	9.56	-39.1	-41.7	19.6	0.00e+00	0	56	0	369623040	48	5258
2026-01-12 02:39:23.08	154.27	9.49	-39.3	-42.0	19.3	0.00e+00	0	56	0	370671616	49	5137
2026-01-12 02:39:24.09	154.08	9.41	-39.3	-42.0	19.3	0.00e+00	0	56	0	371720192	49	5150
2026-01-12 02:39:25.10	153.89	9.33	-38.9	-41.5	19.8	0.00e+00	0	56	0	373293056	49	4828
2026-01-12 02:39:26.11	153.70	9.25	-38.7	-41.2	19.9	0.00e+00	0	56	0	374341632	49	4692
2026-01-12 02:39:27.12	153.51	9.17	-38.6	-41.1	20.1	0.00e+00	0	56	0	375390208	49	4635
2026-01-12 02:39:28.13	153.33	9.09	-38.5	-41.0	20.2	0.00e+00	0	56	0	376438784	49	4566
2026-01-12 02:39:29.14	153.14	9.01	-38.5	-40.9	20.2	0.00e+00	0	56	0	377487360	48	4798
2026-01-12 02:39:30.14	152.96	8.94	-38.5	-40.9	20.3	0.00e+00	0	56	0	378535936	48	4785
2026-01-12 02:39:31.15	152.78	8.86	-38.5	-40.9	20.2	0.00e+00	0	56	0	380108800	48	4812
2026-01-12 02:39:32.16	152.60	8.78	-38.5	-41.0	20.1	0.00e+00	0	56	0	381157376	48	4848
2026-01-12 02:39:33.17	152.42	8.70	-38.6	-41.1	20.0	0.00e+00	0	56	0	382205952	48	4923
2026-01-12 02:39:34.18	152.24	8.63	-38.6	-41.1	20.0	0.00e+00	0	56	0	383254528	48	4894
2026-01-12 02:39:35.19	152.06	8.55	-38.7	-41.2	19.8	0.00e+00	0	56	0	384303104	48	4978
2026-01-12 02:39:36.20	151.88	8.47	-38.8	-41.4	19.6	0.00e+00	0	56	0	385351680	48	5084
2026-01-12 02:39:37.21	151.71	8.39	-38.9	-41.6	19.3	0.00e+00	0	56	0	386924544	48	5209
2026-01-12 02:39:38.22	151.54	8.32	-39.2	-42.0	19.0	0.00e+00	0	56	0	387973120	48	5426
2026-01-12 02:39:39.23	151.36	8.24	-39.3	-42.3	18.7	0.00e+00	0	56	0	389021696	49	5294
2026-01-12 02:39:40.24	151.19	8.16	-39.3	-42.3	18.7	0.00e+00	0	56	0	390070272	49	5297
2026-01-12 02:39:41.25	151.02	8.09	-39.3	-42.2	18.8	0.00e+00	0	56	0	391118848	49	5225
2026-01-12 02:39:42.26	150.86	8.01	-39.3	-42.2	18.7	0.00e+00	0	56	0	392167424	49	5259
2026-01-12 02:39:43.27	150.69	7.94	-44.6	-62.5	3.6	1.10e-01	0	56	104	393216000	59	30417
2026-01-12 02:39:44.28	150.52	7.86	-44.8	-62.9	3.8	1.10e-01	0	56	104	393216000	60	30074
2026-01-12 02:39:45.29	150.36	7.78	-45.1	-63.1	3.8	8.13e-01	0	56	104	393216000	60	30901
2026-01-12 02:39:46.30	150.19	7.71	-45.2	-63.4	3.8	8.46e-01	0	56	104	393216000	60	32046
2026-01-12 02:39:47.31	150.03	7.63	-45.4	-63.5	3.8	8.47e-01	0	56	104	393216000	61	30635
2026-01-12 02:39:48.32	149.87	7.56	-45.4	-63.7	3.8	8.47e-01	0	56	104	393216000	61	31111
2026-01-12 02:39:49.33	149.71	7.48	-45.5	-63.7	3.8	8.46e-01	0	56	104	393216000	61	31235
2026-01-12 02:39:50.34	149.55	7.41	-45.5	-63.7	3.8	8.45e-01	0	56	104	393216000	61	31346
2026-01-12 02:39:51.35	149.39	7.33	-45.5	-63.8	3.8	8.45e-01	0	56	104	393216000	61	31507
2026-01-12 02:39:52.36	149.24	7.26	-45.4	-63.7	3.8	8.46e-01	0	56	104	393216000	61	31271
2026-01-12 02:39:53.37	149.08	7.18	-45.3	-63.7	3.8	8.46e-01	0	56	104	393216000	61	31195
2026-01-12 02:39:54.38	148.93	7.11	-45.3	-63.6	3.8	8.46e-01	0	56	104	393216000	61	30998
2026-01-12 02:39:55.40	148.77	7.04	-45.3	-63.7	3.8	8.46e-01	0	56	104	393216000	61	31096
2026-01-12 02:39:56.41	148.62	6.96	-45.3	-63.6	3.8	8.46e-01	0	56	104	393216000	61	31069
2026-01-12 02:39:57.42	148.47	6.89	-45.2	-63.6	3.8	8.46e-01	0	56	104	393216000	61	30886
2026-01-12 02:39:58.43	148.32	6.81	-45.2	-63.6	3.8	8.45e-01	0	56	104	393216000	61	30846
2026-01-12 02:39:59.44	148.17	6.74	-45.2	-63.6	3.8	8.45e-01	0	56	104	393216000	61	30841
2026-01-12 02:40:00.45	148.02	6.67	-45.2	-63.6	3.8	8.46e-01	0	56	104	393216000	61	30897
2026-01-12 02:40:01.46	147.88	6.60	-45.2	-63.6	3.8	8.46e-01	0	56	104	393216000	61	30885
2026-01-12 02:40:02.47	147.73	6.52	-45.2	-63.6	3.8	8.46e-01	0	56	104	393216000	61	30927
2026-01-12 02:40:03.48	147.58	6.45	-45.2	-63.6	3.8	8.46e-01	0	56	104	393216000	61	30823
2026-01-12 02:40:04.49	147.44	6.38	-45.2	-63.6	3.8	8.46e-01	0	56	104	393216000	61	30884
2026-01-12 02:40:05.50	147.30	6.31	-45.2	-63.6	3.8	8.46e-01	0	56	104	393216000	61	30816
2026-01-12 02:40:06.51	147.16	6.23	-45.2	-63.6	3.8	8.46e-01	0	56	104	393216000	61	30861
2026-01-12 02:40:07.52	147.01	6.16	-45.2	-63.6	3.8	8.46e-01	0	56	104	393216000	61	30767
2026-01-12 02:40:08.53	146.87	6.09	-45.2	-63.6	3.8	8.47e-01	0	56	104	393216000	61	30854
2026-01-12 02:40:09.55	146.73	6.02	-45.2	-63.5	3.8	8.46e-01	0	56	104	393216000	61	30714
2026-01-12 02:40:10.56	146.60	5.95	-45.2	-63.5	3.8	8.46e-01	0	56	104	393216000	61	30713
2026-01-12 02:40:11.57	146.46	5.88	-45.2	-63.5	3.8	8.46e-01	0	56	104	393216000	61	30652
2026-01-12 02:40:12.58	146.32	5.80	-45.2	-63.5	3.8	8.46e-01	0	56	104	393216000	61	30597
2026-01-12 02:40:13.59	146.19	5.73	-45.2	-63.5	3.8	8.47e-01	0	56	104	393216000	61	30644
2026-01-12 02:40:14.60	146.05	5.66	-45.2	-63.5	3.8	8.47e-01	0	56	104	393216000	61	30633
2026-01-12 02:40:15.61	145.92	5.59	-45.2	-63.5	3.8	8.47e-01	0	56	104	393216000	61	30636
2026-01-12 02:40:16.62	145.79	5.52	-45.2	-63.6	3.8	8.46e-01	0	56	104	393216000	61	30735
2026-01-12 02:40:17.63	145.66	5.45	-45.2	-63.5	3.8	8.46e-01	0	56	104	393216000	61	30555
2026-01-12 02:40:18.64	145.53	5.38	-45.2	-63.5	3.8	8.46e-01	0	56	104	393216000	61	30698
2026-01-12 02:40:19.65	145.40	5.31	-45.2	-63.5	3.8	8.46e-01	0	56	104	393216000	61	30718
2026-01-12 02:40:20.66	145.27	5.24	-45.2	-63.5	3.8	8.46e-01	0	56	104	393216000	61	30707
2026-01-12 02:40:21.67	145.14	5.17	-45.2	-63.5	3.8	8.46e-01	0	56	104	393216000	61	30623
2026-01-12 02:40:22.68	145.01	5.11	-45.2	-63.5	3.8	8.45e-01	0	56	104	393216000	61	30621
2026-01-12 02:40:23.69	144.89	5.04	-45.2	-63.5	3.8	8.46e-01	0	56	104	393216000	61	30701
2026-01-12 02:40:24.70	144.76	4.97	-45.2	-63.5	3.8	8.46e-01	0	56	104	393216000	61	30678
2026-01-12 02:40:25.72	144.63	4.90	-45.2	-63.5	3.8	8.46e-01	0	56	104	393216000	61	30623
2026-01-12 02:40:26.73	144.51	4.83	-45.2	-63.5	3.8	8.46e-01	0	56	104	393216000	61	30621
2026-01-12 02:40:27.74	144.39	4.76	-45.2	-63.5	3.8	8.46e-01	0	56	104	393216000	61	30604
2026-01-12 02:40:28.75	144.27	4.69	-45.2	-63.6	3.8	8.46e-01	0	56	104	393216000	61	30739
2026-01-12 02:40:29.76	144.14	4.62	-45.2	-63.5	3.8	8.47e-01	0	56	104	393216000	61	30657
2026-01-12 02:40:30.77	144.02	4.56	-45.2	-63.5	3.8	8.47e-01	0	56	104	393216000	61	30670
2026-01-12 02:40:31.78	143.90	4.49	-45.2	-63.5	3.8	8.45e-01	0	56	104	393216000	61	30619
2026-01-12 02:40:32.79	143.79	4.42	-45.2	-63.5	3.8	8.47e-01	0	56	104	393216000	61	30633
2026-01-12 02:40:33.80	143.67	4.35	-45.2	-63.5	3.8	8.47e-01	0	56	104	393216000	61	30617
2026-01-12 02:40:34.81	143.55	4.29	-45.1	-63.5	3.8	8.46e-01	0	56	104	393216000	61	30572
2026-01-12 02:40:35.83	143.43	4.22	-45.1	-63.5	3.8	8.46e-01	0	56	104	393216000	61	30593
2026-01-12 02:40:36.84	143.32	4.15	-45.1	-63.5	3.8	8.46e-01	0	56	104	393216000	61	30602
2026-01-12 02:40:37.85	143.20	4.09	-45.1	-63.5	3.8	8.46e-01	0	56	104	393216000	61	30615
2026-01-12 02:40:38.86	143.09	4.02	-45.1	-63.5	3.8	8.46e-01	0	56	104	393216000	61	30674
2026-01-12 02:40:39.87	142.97	3.95	-45.1	-63.5	3.8	8.46e-01	0	56	104	393216000	61	30588
2026-01-12 02:40:40.88	142.86	3.89	-45.2	-63.5	3.8	8.46e-01	0	56	104	393216000	61	30565
2026-01-12 02:40:41.89	142.75	3.82	-45.1	-63.5	3.8	8.46e-01	0	56	104	393216000	61	30655
2026-01-12 02:40:42.90	142.64	3.76	-45.1	-63.5	3.8	8.46e-01	0	56	104	393216000	61	30586
2026-01-12 02:40:43.91	142.53	3.69	-45.2	-63.5	3.8	8.46e-01	0	56	104	393216000	61	30624
2026-01-12 02:40:44.92	142.42	3.62	-45.1	-63.5	3.8	8.45e-01	0	56	104	393216000	61	30592
2026-01-12 02:40:45.94	142.31	3.56	-45.1	-63.5	3.8	8.47e-01	0	56	104	393216000	61	30640
2026-01-12 02:40:46.95	142.20	3.49	-45.1	-63.5	3.8	8.47e-01	0	56	104	393216000	61	30554
2026-01-12 02:40:47.96	142.09	3.43	-45.2	-63.5	3.8	8.46e-01	0	56	104	393216000	61	30573
2026-01-12 02:40:48.97	141.98	3.36	-45.1	-63.5	3.8	8.46e-01	0	56	104	393216000	61	30629
2026-01-12 02:40:49.98	141.88	3.30	-45.1	-63.5	3.8	8.46e-01	0	56	104	393216000	61	30514
2026-01-12 02:40:50.99	141.77	3.23	-45.1	-63.5	3.8	8.46e-01	0	56	104	393216000	61	30631
2026-01-12 02:40:52.00	141.67	3.17	-45.1	-63.5	3.8	8.46e-01	0	56	104	393216000	61	30581
2026-01-12 02:40:53.01	141.56	3.11	-45.1	-63.5	3.8	8.45e-01	0	56	104	393216000	61	30575
2026-01-12 02:40:54.02	141.46	3.04	-45.1	-63.5	3.8	8.45e-01	0	56	104	393216000	61	30626
2026-01-12 02:40:55.03	141.35	2.98	-45.1	-63.5	3.8	8.45e-01	0	56	104	393216000	61	30584
2026-01-12 02:40:56.04	141.25	2.91	-45.1	-63.5	3.8	8.47e-01	0	56	104	393216000	61	30597
2026-01-12 02:40:57.06	141.15	2.85	-45.1	-63.5	3.8	8.47e-01	0	56	104	393216000	61	30689
2026-01-12 02:40:58.07	141.05	2.79	-45.1	-63.5	3.8	8.46e-01	0	56	104	393216000	61	30643
2026-01-12 02:40:59.08	140.95	2.72	-45.1	-63.5	3.8	8.46e-01	0	56	104	393216000	61	30610
2026-01-12 02:41:00.09	140.85	2.66	-45.1	-63.5	3.8	8.46e-01	0	56	104	393216000	61	30663
2026-01-12 02:41:01.10	140.75	2.60	-45.1	-63.5	3.8	8.47e-01	0	56	104	393216000	61	30670
2026-01-12 02:41:02.11	140.65	2.53	-45.1	-63.5	3.8	8.46e-01	0	56	104	393216000	61	30535
2026-01-12 02:41:03.12	140.55	2.47	-45.1	-63.5	3.8	8.47e-01	0	56	104	393216000	61	30636
2026-01-12 02:41:04.13	140.45	2.41	-45.1	-63.5	3.8	8.47e-01	0	56	104	393216000	61	30581
2026-01-12 02:41:05.14	140.36	2.35	-45.1	-63.5	3.8	8.46e-01	0	56	104	393216000	61	30636
2026-01-12 02:41:06.15	140.26	2.28	-45.1	-63.5	3.8	8.45e-01	0	56	104	393216000	61	30569
2026-01-12 02:41:07.16	140.17	2.22	-45.1	-63.5	3.8	8.45e-01	0	56	104	393216000	61	30625
2026-01-12 02:41:08.18	140.07	2.16	-45.1	-63.5	3.8	8.47e-01	0	56	104	393216000	61	30572
2026-01-12 02:41:09.19	139.97	2.10	-45.1	-63.5	3.8	8.46e-01	0	56	104	393216000	61	30592
2026-01-12 02:41:10.20	139.88	2.04	-45.1	-63.5	3.8	8.46e-01	0	56	104	393216000	61	30532
2026-01-12 02:41:11.21	139.79	1.98	-45.1	-63.5	3.8	8.45e-01	0	56	104	393216000	61	30612
2026-01-12 02:41:12.22	139.69	1.91	-45.1	-63.5	3.8	8.46e-01	0	56	104	393216000	61	30606
2026-01-12 02:41:13.23	139.60	1.85	-45.1	-63.5	3.8	8.46e-01	0	56	104	393216000	61	30535

#Closed at: 2026-01-12 02:41:13
#Recorded file [393 MB]: D:/lorett/data/31039_260112_053235.dat