passes_logs/2026/01/12/R2.0S_Moscow/R2.0S_Moscow__20260112_090210_NOAA_20_JPSS-1_rec.log

#Pass ID: 20260112_090210_NOAA 20 (JPSS-1)
#Satellite: NOAA 20 (JPSS-1)
#Configuration: NOAA 20
#almurnet v.1.7.20251203
#Start time: 2026-01-12 09:02:10

#Version: 2.2.20231116
#Station: R2.0S_Moscow
#Location: 37.707566 lon 55.798166 lat
#TLE: 1 43013U 17073A   26011.31235446  .00000090  00000+0  63634-4 0  9991
#TLE: 2 43013  98.7632 312.2907 0001646  44.6084 315.5224 14.19535308422217

#Time	Az	El	Level	Level2	SNR	BER	BlckErr	Temp	State	Recorded	gain1	gain2
2026-01-12 09:02:10.66	134.83	2.03	-17.8	-31.7	3.8	1.51e+00	0	48	0	0	6	18682
2026-01-12 09:02:11.68	134.79	2.09	-20.3	-35.2	3.4	1.50e+00	0	49	104	0	12	19738
2026-01-12 09:02:12.69	134.75	2.16	-18.4	-34.5	3.7	1.50e+00	0	49	104	0	5	27283
2026-01-12 09:02:13.70	134.72	2.22	-20.0	-33.5	3.6	1.50e+00	0	49	104	0	7	21640
2026-01-12 09:02:14.71	134.68	2.28	-18.8	-33.0	3.9	1.51e+00	0	49	104	0	5	22916
2026-01-12 09:02:15.72	134.64	2.35	-15.3	-29.6	3.6	1.50e+00	0	49	104	0	1	19502
2026-01-12 09:02:16.73	134.61	2.41	-15.6	-30.8	4.0	1.50e+00	0	49	104	0	3	19875
2026-01-12 09:02:17.74	134.57	2.47	-12.2	-28.2	3.9	1.50e+00	0	49	104	0	2	15724
2026-01-12 09:02:18.76	134.53	2.54	-17.2	-30.9	3.9	1.51e+00	0	49	104	0	3	20096
2026-01-12 09:02:19.77	134.49	2.60	-18.1	-32.4	3.9	1.50e+00	0	49	104	0	7	19137
2026-01-12 09:02:20.78	134.45	2.67	-13.9	-27.2	3.9	1.50e+00	0	49	0	0	0	15734
2026-01-12 09:02:21.79	134.42	2.73	-15.1	-31.3	3.8	1.50e+00	0	49	104	0	7	16819
2026-01-12 09:02:22.80	134.38	2.80	-14.6	-32.2	3.8	1.50e+00	0	49	104	0	5	20879
2026-01-12 09:02:23.81	134.34	2.86	-18.1	-33.2	3.9	1.50e+00	0	49	0	0	10	17558
2026-01-12 09:02:24.82	134.30	2.92	-15.5	-30.1	3.7	1.50e+00	0	49	104	0	1	20602
2026-01-12 09:02:25.83	134.26	2.99	-19.0	-32.7	3.9	1.51e+00	0	49	104	0	9	17544
2026-01-12 09:02:26.85	134.22	3.05	-17.8	-33.2	3.5	1.50e+00	0	49	104	0	12	15739
2026-01-12 09:02:27.85	134.18	3.12	-20.1	-33.9	3.5	1.51e+00	0	50	104	0	8	21331
2026-01-12 09:02:28.87	134.14	3.18	-20.5	-34.5	3.8	1.50e+00	0	50	104	0	9	21567
2026-01-12 09:02:29.88	134.10	3.25	-20.2	-33.3	3.7	1.50e+00	0	50	104	0	7	21028
2026-01-12 09:02:30.89	134.06	3.32	-17.7	-30.8	3.7	1.51e+00	0	50	104	0	6	16860
2026-01-12 09:02:31.90	134.02	3.38	-19.4	-35.6	3.6	1.50e+00	0	50	104	0	10	23166
2026-01-12 09:02:32.91	133.98	3.45	-17.6	-34.6	3.6	1.51e+00	0	50	104	0	12	18338
2026-01-12 09:02:33.92	133.94	3.51	-21.0	-36.4	3.5	1.51e+00	0	50	104	0	13	21385
2026-01-12 09:02:34.93	133.90	3.58	-18.8	-33.6	3.5	1.50e+00	0	50	104	0	9	19541
2026-01-12 09:02:35.94	133.86	3.64	-19.6	-36.6	3.4	1.51e+00	0	50	0	0	12	23204
2026-01-12 09:02:36.95	133.82	3.71	-17.9	-33.1	3.4	1.50e+00	0	50	104	0	11	16498
2026-01-12 09:02:37.96	133.78	3.78	-17.0	-31.7	4.0	1.51e+00	0	50	104	0	2	23459
2026-01-12 09:02:38.97	133.74	3.84	-12.0	-32.7	3.8	1.51e+00	0	50	104	0	0	29407
2026-01-12 09:02:39.98	133.70	3.91	-16.9	-30.8	3.7	1.50e+00	0	51	104	0	4	18915
2026-01-12 09:02:41.00	133.65	3.98	-15.5	-30.4	4.0	1.51e+00	0	51	104	0	1	21496
2026-01-12 09:02:42.01	133.61	4.05	-16.8	-32.4	3.4	1.51e+00	0	51	104	0	3	23913
2026-01-12 09:02:43.02	133.57	4.11	-14.3	-28.9	3.7	1.50e+00	0	51	104	0	0	19147
2026-01-12 09:02:44.03	133.53	4.18	-16.4	-29.5	3.7	1.50e+00	0	51	104	0	4	16174
2026-01-12 09:02:45.04	133.49	4.25	-21.1	-34.5	3.4	1.51e+00	0	51	104	0	7	24203
2026-01-12 09:02:46.05	133.44	4.31	-17.9	-30.8	3.8	1.51e+00	0	51	104	0	4	18873
2026-01-12 09:02:47.06	133.40	4.38	-16.1	-30.5	3.5	1.51e+00	0	51	104	0	9	13719
2026-01-12 09:02:48.07	133.36	4.45	-19.1	-34.5	3.6	1.50e+00	0	51	104	0	7	24323
2026-01-12 09:02:49.08	133.31	4.52	-20.8	-34.1	3.5	1.51e+00	0	51	104	0	2	30954
2026-01-12 09:02:50.09	133.27	4.59	-18.4	-31.8	3.8	1.51e+00	0	51	104	0	6	18889
2026-01-12 09:02:51.10	133.23	4.66	-15.2	-29.0	3.6	1.50e+00	0	51	104	0	4	15384
2026-01-12 09:02:52.11	133.18	4.72	-11.7	-27.9	3.9	1.51e+00	0	51	104	0	0	16980
2026-01-12 09:02:53.12	133.14	4.79	-20.0	-34.6	3.6	1.50e+00	0	51	104	0	9	21989
2026-01-12 09:02:54.14	133.09	4.86	-17.8	-31.5	3.9	1.50e+00	0	52	104	0	6	18197
2026-01-12 09:02:55.15	133.05	4.93	-19.0	-33.4	3.8	1.50e+00	0	51	104	0	4	25334
2026-01-12 09:02:56.16	133.00	5.00	-12.5	-30.8	3.7	1.50e+00	0	51	104	0	2	21205
2026-01-12 09:02:57.17	132.96	5.07	-21.3	-36.1	3.5	1.51e+00	0	52	104	0	8	27519
2026-01-12 09:02:58.18	132.91	5.14	-18.0	-35.6	3.6	1.50e+00	0	52	104	0	9	24543
2026-01-12 09:02:59.19	132.87	5.21	-17.7	-34.0	3.7	1.51e+00	0	52	104	0	5	25810
2026-01-12 09:03:00.20	132.82	5.28	-11.6	-28.6	3.6	1.50e+00	0	52	104	0	0	18336
2026-01-12 09:03:01.21	132.77	5.35	-19.8	-34.3	3.6	1.50e+00	0	52	104	0	7	23804
2026-01-12 09:03:02.22	132.73	5.42	-20.5	-35.3	3.6	1.50e+00	0	52	104	0	9	23653
2026-01-12 09:03:03.23	132.68	5.49	-14.1	-26.4	3.9	1.50e+00	0	52	104	0	3	12070
2026-01-12 09:03:04.25	132.63	5.56	-19.2	-32.8	3.5	1.50e+00	0	52	104	0	3	25132
2026-01-12 09:03:05.26	132.59	5.63	-18.8	-35.2	3.7	1.50e+00	0	52	104	0	9	23411
2026-01-12 09:03:06.27	132.54	5.70	-16.0	-31.9	3.5	1.50e+00	0	52	104	0	11	14225
2026-01-12 09:03:07.28	132.49	5.77	-19.8	-34.5	3.4	1.50e+00	0	52	104	0	6	25852
2026-01-12 09:03:08.29	132.44	5.85	-13.8	-32.3	3.7	1.50e+00	0	52	104	0	5	21121
2026-01-12 09:03:09.30	132.40	5.92	-14.6	-31.6	3.7	1.50e+00	0	52	104	0	7	17431
2026-01-12 09:03:10.31	132.35	5.99	-16.0	-29.4	3.5	1.50e+00	0	52	104	0	4	16014
2026-01-12 09:03:11.32	132.30	6.06	-18.7	-35.7	3.5	1.50e+00	0	52	104	0	11	22084
2026-01-12 09:03:12.33	132.25	6.13	-15.5	-29.1	3.9	1.50e+00	0	52	104	0	3	16376
2026-01-12 09:03:13.34	132.20	6.20	-13.7	-30.9	3.5	1.50e+00	0	52	104	0	0	23894
2026-01-12 09:03:14.35	132.15	6.28	-18.9	-33.8	3.5	1.50e+00	0	52	104	0	9	19860
2026-01-12 09:03:15.36	132.10	6.35	-18.1	-33.5	3.8	1.51e+00	0	52	104	0	8	20423
2026-01-12 09:03:16.37	132.05	6.42	-18.7	-30.4	4.0	1.50e+00	0	53	104	0	3	19145
2026-01-12 09:03:17.38	132.00	6.49	-15.6	-32.0	3.8	1.50e+00	0	53	104	0	6	19284
2026-01-12 09:03:18.39	131.95	6.57	-20.2	-32.6	3.7	1.50e+00	0	53	104	0	2	25880
2026-01-12 09:03:19.41	131.90	6.64	-18.1	-33.4	3.5	1.50e+00	0	53	104	0	6	22716
2026-01-12 09:03:20.42	131.85	6.72	-17.3	-30.7	3.8	1.50e+00	0	53	104	0	5	17607
2026-01-12 09:03:21.43	131.80	6.79	-20.3	-32.5	3.8	1.51e+00	0	53	104	0	3	24275
2026-01-12 09:03:22.44	131.75	6.86	-22.0	-33.9	3.7	1.50e+00	0	53	0	0	9	20139
2026-01-12 09:03:23.45	131.70	6.94	-17.7	-31.6	3.8	1.51e+00	0	53	104	0	1	24478
2026-01-12 09:03:24.46	131.64	7.01	-12.4	-32.9	3.9	1.50e+00	0	53	104	0	2	26871
2026-01-12 09:03:25.47	131.59	7.09	-18.4	-33.0	3.7	1.50e+00	0	53	104	0	6	21545
2026-01-12 09:03:26.48	131.54	7.16	-12.5	-31.8	3.7	1.51e+00	0	53	104	0	1	25249
2026-01-12 09:03:27.50	131.49	7.24	-14.5	-28.5	4.0	1.50e+00	0	53	104	0	5	13713
2026-01-12 09:03:28.50	131.43	7.31	-12.5	-29.4	4.0	1.50e+00	0	53	104	0	0	20162
2026-01-12 09:03:29.52	131.38	7.39	-14.9	-29.5	3.8	1.50e+00	0	53	104	0	0	20429
2026-01-12 09:03:30.53	131.33	7.46	-15.7	-31.3	3.7	1.51e+00	0	53	104	0	4	19964
2026-01-12 09:03:31.54	131.27	7.54	-19.7	-33.4	3.5	1.51e+00	0	53	104	0	7	21485
2026-01-12 09:03:32.55	131.22	7.61	-15.1	-28.7	3.8	1.51e+00	0	53	104	0	2	16612
2026-01-12 09:03:33.56	131.16	7.69	-16.8	-30.8	3.6	1.51e+00	0	53	104	0	4	18752
2026-01-12 09:03:34.57	131.11	7.76	-15.3	-29.7	3.9	1.51e+00	0	53	104	0	5	15626
2026-01-12 09:03:35.58	131.05	7.84	-19.7	-34.9	3.6	1.50e+00	0	53	104	0	9	22683
2026-01-12 09:03:36.59	131.00	7.92	-13.1	-27.8	3.7	1.50e+00	0	53	104	0	3	14101
2026-01-12 09:03:37.60	130.94	7.99	-19.1	-32.8	3.7	1.51e+00	0	53	104	0	7	20017
2026-01-12 09:03:38.61	130.89	8.07	-21.9	-33.4	3.7	1.50e+00	0	53	104	0	7	21422
2026-01-12 09:03:39.62	130.83	8.15	-21.7	-35.3	3.6	1.50e+00	0	53	104	0	8	25013
2026-01-12 09:03:40.63	130.77	8.23	-17.3	-31.0	4.0	1.51e+00	0	54	104	0	3	20399
2026-01-12 09:03:41.64	130.72	8.30	-21.6	-33.4	3.7	1.50e+00	0	54	104	0	4	25340
2026-01-12 09:03:42.64	130.66	8.38	-13.5	-30.8	3.7	1.50e+00	0	53	104	0	0	23634
2026-01-12 09:03:43.66	130.60	8.46	-19.8	-33.8	3.8	1.50e+00	0	54	104	0	2	29900
2026-01-12 09:03:44.67	130.54	8.54	-15.5	-30.2	3.7	1.50e+00	0	53	104	0	0	22114
2026-01-12 09:03:45.68	130.48	8.62	-15.8	-30.1	4.0	1.50e+00	0	54	104	0	2	19500
2026-01-12 09:03:46.68	130.43	8.69	-12.5	-29.2	4.0	1.51e+00	0	54	0	0	3	16614
2026-01-12 09:03:47.70	130.37	8.77	-17.2	-33.5	3.7	1.51e+00	0	54	104	0	9	19258
2026-01-12 09:03:48.71	130.31	8.85	-17.1	-30.4	3.8	1.51e+00	0	54	104	0	3	19097
2026-01-12 09:03:49.72	130.25	8.93	-19.0	-33.8	3.7	1.50e+00	0	54	104	0	11	17793
2026-01-12 09:03:50.73	130.19	9.01	-16.5	-31.8	3.8	1.50e+00	0	54	104	0	4	21187
2026-01-12 09:03:51.74	130.13	9.09	-15.1	-29.9	3.6	1.50e+00	0	54	104	0	9	12706
2026-01-12 09:03:52.75	130.07	9.17	-18.1	-33.3	3.8	1.50e+00	0	54	104	0	5	23819
2026-01-12 09:03:53.76	130.01	9.25	-19.0	-32.4	4.0	1.51e+00	0	54	104	0	6	20272
2026-01-12 09:03:54.77	129.94	9.33	-14.1	-27.8	3.8	1.51e+00	0	54	104	0	2	14921
2026-01-12 09:03:55.78	129.88	9.41	-20.0	-35.0	3.8	1.50e+00	0	54	104	0	10	21654
2026-01-12 09:03:56.79	129.82	9.49	-16.8	-31.1	3.7	1.50e+00	0	54	104	0	4	19534
2026-01-12 09:03:57.80	129.76	9.58	-18.6	-34.0	3.6	1.51e+00	0	54	104	0	11	18120
2026-01-12 09:03:58.81	129.70	9.66	-21.7	-34.4	3.7	1.50e+00	0	54	104	0	8	22564
2026-01-12 09:03:59.82	129.63	9.74	-19.1	-34.1	3.6	1.50e+00	0	54	104	0	8	21963
2026-01-12 09:04:00.83	129.57	9.82	-20.4	-33.9	3.5	1.50e+00	0	54	104	0	8	21433
2026-01-12 09:04:01.84	129.51	9.90	-18.6	-31.7	3.9	1.50e+00	0	54	104	0	6	18719
2026-01-12 09:04:02.85	129.44	9.99	-18.6	-35.0	3.7	1.50e+00	0	54	104	0	10	21586
2026-01-12 09:04:03.86	129.38	10.07	-16.7	-30.7	4.0	1.51e+00	0	54	104	0	5	17642
2026-01-12 09:04:04.87	129.31	10.15	-16.3	-31.5	3.5	1.50e+00	0	54	0	0	10	14387
2026-01-12 09:04:05.88	129.25	10.23	-19.2	-32.6	3.7	1.50e+00	0	54	0	0	13	13880
2026-01-12 09:04:06.89	129.18	10.32	-16.3	-29.2	3.9	1.51e+00	0	54	104	0	3	16602
2026-01-12 09:04:07.90	129.11	10.40	-14.2	-27.5	3.5	1.50e+00	0	54	104	0	1	15273
2026-01-12 09:04:08.91	129.05	10.48	-15.4	-30.7	3.7	1.51e+00	0	54	104	0	5	17583
2026-01-12 09:04:09.92	128.98	10.57	-17.1	-31.6	3.8	1.50e+00	0	54	104	0	6	18496
2026-01-12 09:04:10.93	128.91	10.65	-18.5	-32.0	3.5	1.50e+00	0	54	104	0	6	19252
2026-01-12 09:04:11.94	128.85	10.74	-21.0	-37.7	3.8	1.50e+00	0	54	104	0	13	24899
2026-01-12 09:04:12.95	128.78	10.82	-17.4	-34.5	3.7	1.49e+00	0	54	104	0	12	18247
2026-01-12 09:04:13.96	128.71	10.91	-22.5	-40.2	3.8	1.50e+00	0	54	104	0	23	18563
2026-01-12 09:04:14.97	128.64	10.99	-22.4	-38.2	3.6	1.50e+00	0	55	104	0	14	24734
2026-01-12 09:04:15.98	128.57	11.08	-19.0	-34.9	4.0	1.50e+00	0	55	104	0	11	20086
2026-01-12 09:04:16.99	128.50	11.16	-17.5	-30.9	4.0	1.50e+00	0	55	104	0	7	16004
2026-01-12 09:04:18.00	128.43	11.25	-20.5	-35.1	3.8	1.50e+00	0	55	104	0	11	20589
2026-01-12 09:04:19.01	128.36	11.34	-18.2	-32.6	3.9	1.50e+00	0	54	104	0	10	16449
2026-01-12 09:04:20.02	128.29	11.42	-20.2	-37.5	3.7	1.50e+00	0	54	104	0	16	20427
2026-01-12 09:04:21.03	128.22	11.51	-19.6	-33.9	3.5	1.49e+00	0	55	104	0	10	19118
2026-01-12 09:04:22.04	128.15	11.60	-18.9	-35.6	3.7	1.51e+00	0	55	104	0	11	21795
2026-01-12 09:04:23.05	128.07	11.68	-18.3	-33.1	4.2	1.50e+00	0	55	104	0	9	18505
2026-01-12 09:04:24.06	128.00	11.77	-20.7	-34.5	3.7	1.50e+00	0	55	104	0	5	27382
2026-01-12 09:04:25.07	127.93	11.86	-21.1	-34.6	3.5	1.50e+00	0	55	104	0	5	27593
2026-01-12 09:04:26.08	127.85	11.95	-22.4	-32.9	3.9	1.50e+00	0	55	104	0	3	25469
2026-01-12 09:04:27.09	127.78	12.04	-22.5	-33.7	3.7	1.50e+00	0	55	104	0	5	24897
2026-01-12 09:04:28.10	127.70	12.13	-18.1	-36.1	3.5	1.50e+00	0	55	104	0	8	27424
2026-01-12 09:04:29.11	127.63	12.21	-26.1	-43.0	4.3	1.47e+00	0	55	104	0	42	8584
2026-01-12 09:04:30.12	127.55	12.30	-23.7	-44.3	3.9	1.50e+00	0	55	104	0	28	22379
2026-01-12 09:04:31.13	127.48	12.39	-27.9	-38.4	3.9	1.48e+00	0	55	104	0	17	21422
2026-01-12 09:04:32.14	127.40	12.48	-29.9	-42.2	4.7	1.46e+00	0	55	104	0	14	39563
2026-01-12 09:04:33.15	127.32	12.57	-19.6	-39.9	4.2	1.44e+00	0	55	104	0	19	22648
2026-01-12 09:04:34.16	127.25	12.66	-19.7	-37.5	4.5	1.47e+00	0	55	104	0	18	18249
2026-01-12 09:04:35.17	127.17	12.76	-20.4	-36.4	3.9	1.42e+00	0	55	104	0	12	22597
2026-01-12 09:04:36.18	127.09	12.85	-20.2	-37.2	4.3	1.39e+00	0	55	104	0	13	23457
2026-01-12 09:04:37.19	127.01	12.94	-20.8	-38.4	4.2	1.49e+00	0	55	104	0	14	25422
2026-01-12 09:04:38.20	126.93	13.03	-20.8	-39.8	4.2	1.45e+00	0	55	104	0	15	28305
2026-01-12 09:04:39.21	126.85	13.12	-22.7	-39.7	4.2	1.44e+00	0	55	104	0	18	23336
2026-01-12 09:04:40.22	126.77	13.21	-38.2	-45.3	5.8	1.38e+00	21	55	104	0	40	12595
2026-01-12 09:04:41.23	126.69	13.31	-25.3	-42.0	4.9	6.77e-01	0	55	104	0	30	15253
2026-01-12 09:04:42.24	126.61	13.40	-23.1	-40.6	4.5	1.48e+00	0	55	104	0	25	17332
2026-01-12 09:04:43.25	126.52	13.49	-29.8	-42.3	4.6	1.44e+00	0	55	104	0	24	22350
2026-01-12 09:04:44.26	126.44	13.58	-24.7	-39.3	4.1	1.40e+00	0	55	104	0	32	10007
2026-01-12 09:04:45.27	126.36	13.68	-37.3	-44.7	9.4	4.90e-01	7	55	0	0	45	8860
2026-01-12 09:04:46.28	126.28	13.77	-39.6	-45.1	9.8	9.70e-02	2	55	0	2097152	44	9766
2026-01-12 09:04:47.29	126.19	13.87	-37.3	-44.9	6.8	3.44e-01	7	55	0	3145728	40	12055
2026-01-12 09:04:48.30	126.11	13.96	-37.8	-45.6	8.9	1.27e-01	3	55	0	5242880	49	7775
2026-01-12 09:04:49.31	126.02	14.06	-37.7	-45.9	9.9	1.86e-01	0	55	0	6291456	49	8075
2026-01-12 09:04:50.32	125.93	14.15	-38.1	-45.8	9.8	4.55e-02	2	55	0	8388608	45	10013
2026-01-12 09:04:51.33	125.85	14.25	-41.0	-45.8	7.1	1.98e-02	12	55	0	10485760	43	11214
2026-01-12 09:04:52.34	125.76	14.34	-36.2	-45.8	8.9	1.64e-01	3	55	0	12582912	43	11238
2026-01-12 09:04:53.35	125.67	14.44	-39.0	-45.7	10.2	1.34e-01	0	55	0	13631488	50	7411
2026-01-12 09:04:54.36	125.58	14.54	-30.0	-44.7	9.6	2.03e-01	12	55	0	15728640	33	17490
2026-01-12 09:04:55.37	125.50	14.63	-35.3	-45.4	9.6	1.92e-01	0	55	0	17825792	43	10675
2026-01-12 09:04:56.38	125.41	14.73	-31.8	-43.8	8.1	2.38e-02	8	55	0	19922944	45	7973
2026-01-12 09:04:57.39	125.32	14.83	-35.0	-44.9	11.2	2.08e-02	0	55	0	22020096	41	11407
2026-01-12 09:04:58.40	125.23	14.92	-40.9	-45.5	11.1	3.56e-02	0	56	0	23068672	49	7673
2026-01-12 09:04:59.41	125.13	15.02	-37.3	-45.5	10.7	5.69e-02	0	55	0	25165824	42	11536
2026-01-12 09:05:00.42	125.04	15.12	-36.6	-45.5	9.9	2.11e-02	0	56	0	27262976	45	9685
2026-01-12 09:05:01.42	124.95	15.22	-41.3	-45.3	11.2	4.33e-03	0	55	0	29360128	53	5967
2026-01-12 09:05:02.43	124.86	15.32	-41.3	-45.2	11.9	3.53e-03	0	55	0	31457280	53	5910
2026-01-12 09:05:03.44	124.76	15.42	-41.0	-44.7	12.5	2.18e-04	0	56	0	32505856	52	5901
2026-01-12 09:05:04.45	124.67	15.52	-40.9	-44.4	12.9	1.14e-04	0	56	0	34603008	52	5666
2026-01-12 09:05:05.46	124.57	15.62	-40.8	-44.4	12.8	5.87e-04	0	56	0	36700160	52	5708
2026-01-12 09:05:06.47	124.48	15.72	-40.9	-44.5	12.8	1.11e-04	0	56	0	38797312	52	5782
2026-01-12 09:05:07.48	124.38	15.82	-41.0	-44.6	12.6	2.59e-04	0	55	0	40894464	52	5832
2026-01-12 09:05:08.49	124.28	15.92	-40.9	-44.6	12.7	6.70e-04	0	56	0	41943040	52	5819
2026-01-12 09:05:09.50	124.19	16.02	-40.9	-44.4	13.0	2.17e-04	0	56	0	44040192	52	5704
2026-01-12 09:05:10.51	124.09	16.12	-40.7	-44.1	13.3	4.65e-05	0	56	0	46137344	52	5492
2026-01-12 09:05:11.52	123.99	16.22	-40.6	-43.8	13.6	3.66e-05	0	56	0	48234496	52	5313
2026-01-12 09:05:12.53	123.89	16.32	-40.6	-43.6	13.9	1.14e-05	0	56	0	50331648	51	5513
2026-01-12 09:05:13.54	123.79	16.43	-40.5	-43.6	13.9	6.80e-06	0	56	0	52428800	51	5500
2026-01-12 09:05:14.55	123.69	16.53	-40.6	-43.6	13.9	2.20e-06	0	56	0	53477376	51	5517
2026-01-12 09:05:15.56	123.59	16.63	-40.6	-43.8	13.8	7.00e-07	0	56	0	55574528	51	5609
2026-01-12 09:05:16.57	123.48	16.74	-40.6	-43.8	13.6	8.30e-06	0	56	0	57671680	52	5330
2026-01-12 09:05:17.58	123.38	16.84	-40.7	-44.0	13.5	1.29e-05	0	56	0	59768832	52	5411
2026-01-12 09:05:18.58	123.28	16.94	-40.7	-43.9	13.5	2.42e-04	0	56	0	61865984	52	5398
2026-01-12 09:05:19.59	123.17	17.05	-40.7	-43.9	13.7	2.15e-04	0	56	0	62914560	51	5658
2026-01-12 09:05:20.60	123.07	17.15	-40.6	-43.6	14.0	9.10e-06	0	56	0	65011712	51	5506
2026-01-12 09:05:21.61	122.96	17.26	-40.6	-43.6	14.0	4.50e-06	0	56	0	67108864	51	5471
2026-01-12 09:05:22.62	122.85	17.37	-40.5	-43.6	14.0	3.00e-06	0	56	0	69206016	51	5509
2026-01-12 09:05:23.63	122.75	17.47	-40.6	-43.7	13.9	1.14e-05	0	56	0	71303168	51	5555
2026-01-12 09:05:24.64	122.64	17.58	-40.7	-43.8	13.8	9.90e-06	0	56	0	72351744	51	5618
2026-01-12 09:05:25.66	122.53	17.69	-40.4	-43.8	13.7	9.10e-06	0	56	0	74448896	52	5323
2026-01-12 09:05:26.67	122.42	17.79	-40.7	-43.9	13.6	1.88e-04	0	56	0	76546048	52	5383
2026-01-12 09:05:27.68	122.30	17.90	-40.6	-43.7	13.8	1.37e-05	0	56	0	78643200	52	5265
2026-01-12 09:05:28.69	122.19	18.01	-39.7	-43.6	13.3	3.40e-03	0	56	0	80740352	50	5845
2026-01-12 09:05:29.70	122.08	18.12	-40.6	-43.7	13.7	2.77e-04	0	56	0	81788928	51	5543
2026-01-12 09:05:30.71	121.97	18.23	-40.7	-43.8	13.9	9.97e-04	0	56	0	83886080	51	5597
2026-01-12 09:05:31.72	121.85	18.33	-40.6	-43.7	13.9	4.50e-06	0	56	0	85983232	52	5274
2026-01-12 09:05:32.73	121.74	18.44	-40.6	-43.8	13.8	9.80e-04	0	56	0	88080384	52	5287
2026-01-12 09:05:33.74	121.62	18.55	-40.7	-43.8	13.9	6.01e-04	0	56	0	90177536	51	5598
2026-01-12 09:05:34.75	121.50	18.66	-40.7	-43.7	13.9	6.11e-04	0	56	0	91226112	51	5560
2026-01-12 09:05:35.76	121.39	18.77	-40.7	-43.7	13.9	5.65e-04	0	56	0	93323264	51	5561
2026-01-12 09:05:36.77	121.27	18.88	-40.7	-43.8	13.7	3.15e-04	0	56	0	95420416	51	5613
2026-01-12 09:05:37.78	121.15	19.00	-40.7	-43.8	13.8	1.50e-06	0	56	0	97517568	52	5306
2026-01-12 09:05:38.79	121.03	19.11	-40.8	-43.9	13.8	3.00e-06	0	56	0	99614720	52	5383
2026-01-12 09:05:39.80	120.91	19.22	-40.7	-43.8	13.8	3.28e-05	0	56	0	100663296	52	5310
2026-01-12 09:05:40.81	120.78	19.33	-40.7	-43.7	13.9	2.20e-06	0	56	0	102760448	52	5262
2026-01-12 09:05:41.81	120.66	19.44	-40.7	-43.8	13.9	6.80e-06	0	56	0	104857600	51	5607
2026-01-12 09:05:42.82	120.54	19.56	-40.5	-43.7	13.9	3.89e-05	0	56	0	106954752	51	5581
2026-01-12 09:05:43.83	120.41	19.67	-40.6	-43.7	14.0	1.98e-05	0	56	0	109051904	52	5260
2026-01-12 09:05:44.84	120.29	19.78	-40.7	-43.8	13.9	1.44e-05	0	56	0	110100480	52	5281
2026-01-12 09:05:45.85	120.16	19.90	-40.7	-43.7	14.0	2.20e-06	0	56	0	112197632	52	5268
2026-01-12 09:05:46.86	120.03	20.01	-40.7	-43.8	13.8	7.00e-07	0	56	0	114294784	52	5335
2026-01-12 09:05:47.87	119.90	20.13	-40.6	-43.7	14.0	4.50e-06	0	56	0	116391936	52	5276
2026-01-12 09:05:48.88	119.78	20.24	-40.7	-43.8	13.9	1.50e-06	0	56	0	118489088	52	5297
2026-01-12 09:05:49.89	119.64	20.36	-40.7	-43.7	14.0	3.80e-06	0	56	0	120586240	52	5263
2026-01-12 09:05:50.90	119.51	20.47	-40.7	-43.8	13.9	3.80e-06	0	56	0	121634816	52	5314
2026-01-12 09:05:51.91	119.38	20.59	-40.8	-43.9	13.9	4.50e-06	0	56	0	123731968	52	5356
2026-01-12 09:05:52.92	119.25	20.71	-40.8	-43.9	13.9	2.20e-06	0	56	0	125829120	52	5346
2026-01-12 09:05:53.93	119.11	20.82	-40.8	-44.0	13.8	3.00e-06	0	56	0	127926272	52	5417
2026-01-12 09:05:54.94	118.98	20.94	-40.8	-44.0	13.8	3.00e-06	0	56	0	130023424	52	5404
2026-01-12 09:05:55.95	118.84	21.06	-40.8	-44.0	13.8	3.80e-06	0	56	0	131072000	52	5416
2026-01-12 09:05:56.96	118.70	21.18	-40.8	-44.0	13.7	6.10e-06	0	56	0	133169152	52	5449
2026-01-12 09:05:57.97	118.56	21.30	-40.8	-44.0	13.8	9.10e-06	0	56	0	135266304	52	5407
2026-01-12 09:05:58.98	118.42	21.41	-40.9	-44.1	13.7	8.30e-06	0	56	0	137363456	52	5467
2026-01-12 09:05:59.99	118.28	21.53	-41.0	-44.1	13.6	6.10e-06	0	56	0	139460608	52	5525
2026-01-12 09:06:01.00	118.14	21.65	-41.0	-44.3	13.4	1.22e-05	0	56	0	140509184	52	5621
2026-01-12 09:06:02.01	117.99	21.77	-41.1	-44.4	13.4	1.60e-05	0	56	0	142606336	52	5659
2026-01-12 09:06:03.02	117.85	21.89	-41.1	-44.3	13.4	2.28e-05	0	56	0	144703488	52	5646
2026-01-12 09:06:04.03	117.70	22.02	-41.1	-44.3	13.4	1.67e-05	0	56	0	146800640	52	5653
2026-01-12 09:06:05.04	117.56	22.14	-41.0	-44.1	13.6	1.90e-05	0	56	0	148897792	52	5523
2026-01-12 09:06:06.05	117.41	22.26	-41.0	-44.1	13.6	1.83e-05	0	57	0	149946368	52	5517
2026-01-12 09:06:07.06	117.26	22.38	-40.9	-44.1	13.6	1.75e-05	0	56	0	152043520	52	5518
2026-01-12 09:06:08.07	117.11	22.50	-41.0	-44.2	13.6	9.90e-06	0	56	0	154140672	52	5541
2026-01-12 09:06:09.08	116.96	22.63	-41.1	-44.4	13.4	1.14e-05	0	56	0	156237824	52	5659
2026-01-12 09:06:10.09	116.80	22.75	-41.1	-44.5	13.3	1.75e-05	0	57	0	158334976	52	5746
2026-01-12 09:06:11.10	116.65	22.87	-41.1	-44.5	13.3	1.98e-05	0	56	0	159383552	52	5723
2026-01-12 09:06:12.11	116.49	23.00	-41.1	-44.3	13.5	1.75e-05	0	56	0	161480704	52	5643
2026-01-12 09:06:13.12	116.34	23.12	-41.0	-44.2	13.6	7.60e-06	0	56	0	163577856	52	5551
2026-01-12 09:06:14.13	116.18	23.24	-41.0	-44.2	13.6	9.10e-06	0	56	0	165675008	52	5570
2026-01-12 09:06:15.14	116.02	23.37	-41.0	-44.1	13.7	9.10e-06	0	56	0	167772160	52	5527
2026-01-12 09:06:16.15	115.86	23.49	-41.1	-44.3	13.5	8.30e-06	0	57	0	168820736	52	5621
2026-01-12 09:06:17.16	115.70	23.62	-41.1	-44.3	13.5	1.50e-06	0	57	0	170917888	52	5622
2026-01-12 09:06:18.17	115.53	23.75	-41.0	-44.2	13.7	3.80e-06	0	56	0	173015040	52	5549
2026-01-12 09:06:19.18	115.37	23.87	-40.9	-44.1	13.8	4.50e-06	0	57	0	175112192	52	5466
2026-01-12 09:06:20.19	115.20	24.00	-41.0	-44.1	13.7	7.60e-06	0	57	0	177209344	52	5496
2026-01-12 09:06:21.20	115.04	24.13	-41.0	-44.2	13.7	3.00e-06	0	56	0	178257920	52	5529
2026-01-12 09:06:22.21	114.87	24.25	-41.1	-44.3	13.6	9.10e-06	0	57	0	180355072	52	5611
2026-01-12 09:06:23.22	114.70	24.38	-41.0	-44.2	13.6	9.10e-06	0	56	0	182452224	52	5575
2026-01-12 09:06:24.23	114.53	24.51	-41.0	-44.1	13.8	3.80e-06	0	56	0	184549376	52	5528
2026-01-12 09:06:25.24	114.36	24.64	-41.0	-44.1	13.7	5.30e-06	0	56	0	186646528	52	5513
2026-01-12 09:06:26.25	114.18	24.77	-40.9	-44.0	13.9	3.80e-06	0	57	0	188743680	52	5456
2026-01-12 09:06:27.26	114.01	24.90	-40.9	-43.9	14.0	2.20e-06	0	56	0	189792256	52	5371
2026-01-12 09:06:28.27	113.83	25.03	-40.9	-44.0	13.9	5.30e-06	0	57	0	191889408	52	5438
2026-01-12 09:06:29.28	113.65	25.16	-41.0	-44.0	13.9	6.10e-06	0	57	0	193986560	52	5456
2026-01-12 09:06:30.29	113.47	25.29	-41.0	-44.1	13.8	1.50e-06	0	57	0	196083712	52	5485
2026-01-12 09:06:31.30	113.29	25.42	-41.0	-44.2	13.7	8.30e-06	0	57	0	198180864	52	5533
2026-01-12 09:06:32.31	113.10	25.55	-41.1	-44.2	13.7	8.30e-06	0	57	0	199229440	52	5571
2026-01-12 09:06:33.32	112.92	25.68	-41.2	-44.5	13.5	9.90e-06	0	57	0	201326592	52	5723
2026-01-12 09:06:34.33	112.73	25.81	-41.2	-44.5	13.3	2.05e-05	0	57	0	203423744	53	5453
2026-01-12 09:06:35.33	112.55	25.94	-41.3	-44.6	13.3	9.10e-06	0	57	0	205520896	53	5487
2026-01-12 09:06:36.35	112.36	26.07	-41.2	-44.5	13.4	1.22e-05	0	57	0	207618048	53	5444
2026-01-12 09:06:37.36	112.17	26.21	-41.3	-44.6	13.3	1.75e-05	0	56	0	208666624	53	5485
2026-01-12 09:06:38.37	111.97	26.34	-41.3	-44.6	13.3	1.67e-05	0	57	0	210763776	53	5513
2026-01-12 09:06:39.37	111.78	26.47	-41.4	-44.9	13.0	2.67e-05	0	57	0	212860928	53	5688
2026-01-12 09:06:40.38	111.59	26.60	-41.4	-44.9	13.0	4.88e-05	0	57	0	214958080	53	5666
2026-01-12 09:06:41.39	111.39	26.74	-41.5	-45.0	12.9	4.42e-05	0	57	0	217055232	53	5747
2026-01-12 09:06:42.40	111.19	26.87	-41.5	-45.0	12.8	4.88e-05	0	57	0	218103808	53	5777
2026-01-12 09:06:43.41	110.99	27.01	-41.6	-45.1	12.7	5.79e-05	0	57	0	220200960	53	5852
2026-01-12 09:06:44.42	110.79	27.14	-41.8	-45.5	12.4	8.31e-05	0	57	0	222298112	54	5749
2026-01-12 09:06:45.43	110.58	27.27	-41.9	-45.7	12.2	2.00e-04	0	57	0	224395264	54	5860
2026-01-12 09:06:46.44	110.38	27.41	-41.9	-45.7	12.2	1.72e-04	0	57	0	226492416	54	5872
2026-01-12 09:06:47.45	110.17	27.54	-41.9	-45.8	12.1	2.68e-04	0	57	0	227540992	54	5954
2026-01-12 09:06:48.46	109.96	27.68	-42.0	-45.9	12.0	3.82e-04	0	57	0	229638144	54	6025
2026-01-12 09:06:49.47	109.75	27.81	-42.1	-46.1	11.7	4.50e-04	0	57	0	231735296	54	6186
2026-01-12 09:06:50.48	109.53	27.95	-42.2	-46.4	11.5	7.29e-04	0	57	0	233832448	55	6018
2026-01-12 09:06:51.49	109.32	28.09	-42.4	-46.7	11.1	1.17e-03	0	57	0	235929600	55	6270
2026-01-12 09:06:52.50	109.10	28.22	-42.4	-46.8	11.0	1.55e-03	0	57	0	236978176	55	6312
2026-01-12 09:06:53.51	108.88	28.36	-42.4	-46.7	11.1	1.55e-03	0	57	0	239075328	55	6265
2026-01-12 09:06:54.52	108.66	28.50	-42.4	-46.8	11.1	1.67e-03	0	57	0	241172480	55	6337
2026-01-12 09:06:55.52	108.44	28.63	-42.4	-46.8	11.1	1.43e-03	0	57	0	243269632	55	6304
2026-01-12 09:06:56.53	108.22	28.77	-42.4	-46.8	11.1	1.55e-03	0	57	0	245366784	55	6313
2026-01-12 09:06:57.54	107.99	28.91	-42.5	-47.0	10.9	2.25e-03	0	57	0	246415360	55	6421
2026-01-12 09:06:58.55	107.76	29.04	-42.5	-47.0	10.8	2.04e-03	0	57	0	248512512	55	6489
2026-01-12 09:06:59.56	107.53	29.18	-42.5	-46.9	11.0	1.79e-03	0	57	0	250609664	55	6382
2026-01-12 09:07:00.57	107.30	29.32	-42.4	-46.8	11.0	1.84e-03	0	57	0	252706816	55	6307
2026-01-12 09:07:01.58	107.07	29.46	-42.4	-46.7	11.1	1.57e-03	0	57	0	254803968	55	6262
2026-01-12 09:07:02.59	106.83	29.59	-42.4	-46.7	11.1	1.52e-03	0	57	0	256901120	55	6263
2026-01-12 09:07:03.60	106.59	29.73	-42.4	-46.9	11.0	1.76e-03	0	57	0	257949696	55	6355
2026-01-12 09:07:04.61	106.35	29.87	-42.4	-46.7	11.2	1.45e-03	0	57	0	260046848	55	6240
2026-01-12 09:07:05.62	106.11	30.01	-42.3	-46.6	11.3	1.23e-03	0	57	0	262144000	55	6138
2026-01-12 09:07:06.63	105.86	30.15	-42.3	-46.6	11.3	1.14e-03	0	57	0	264241152	55	6193
2026-01-12 09:07:07.63	105.62	30.28	-42.3	-46.6	11.3	1.34e-03	0	57	0	266338304	55	6174
2026-01-12 09:07:08.64	105.37	30.42	-42.4	-46.7	11.2	1.26e-03	0	57	0	267386880	55	6211
2026-01-12 09:07:09.65	105.12	30.56	-42.4	-46.7	11.2	1.25e-03	0	57	0	269484032	55	6239
2026-01-12 09:07:10.66	104.87	30.70	-42.5	-47.1	10.8	1.92e-03	0	57	0	271581184	55	6509
2026-01-12 09:07:11.67	104.61	30.84	-42.6	-47.3	10.6	3.05e-03	0	57	0	273678336	55	6649
2026-01-12 09:07:12.68	104.35	30.98	-42.9	-47.7	10.3	4.13e-03	0	57	0	275775488	56	6603
2026-01-12 09:07:13.69	104.09	31.11	-43.0	-48.1	9.9	8.31e-03	0	57	0	276824064	56	6937
2026-01-12 09:07:14.70	103.83	31.25	-43.1	-48.2	9.8	1.15e-02	0	57	0	278921216	56	7004
2026-01-12 09:07:15.71	103.57	31.39	-43.0	-48.1	10.0	1.08e-02	0	57	0	281018368	56	6884
2026-01-12 09:07:16.72	103.30	31.53	-43.0	-48.1	9.9	8.33e-03	0	57	0	283115520	56	6892
2026-01-12 09:07:17.73	103.03	31.67	-42.9	-47.8	10.2	6.47e-03	0	57	0	285212672	56	6695
2026-01-12 09:07:18.74	102.76	31.81	-42.8	-47.5	10.6	4.14e-03	0	57	0	286261248	56	6451
2026-01-12 09:07:19.75	102.49	31.95	-42.7	-47.3	10.7	2.80e-03	0	57	0	288358400	56	6309
2026-01-12 09:07:20.76	102.21	32.08	-42.8	-47.4	10.7	3.04e-03	0	57	0	290455552	56	6393
2026-01-12 09:07:21.77	101.93	32.22	-42.6	-47.0	11.0	2.77e-03	0	57	0	292552704	56	6114
2026-01-12 09:07:22.78	101.65	32.36	-42.5	-46.7	11.4	9.97e-04	0	57	0	294649856	56	5911
2026-01-12 09:07:23.79	101.37	32.50	-42.3	-46.4	11.7	5.75e-04	0	57	0	295698432	56	5680
2026-01-12 09:07:24.79	101.09	32.63	-42.3	-46.2	11.9	4.74e-04	0	57	0	297795584	56	5585
2026-01-12 09:07:25.80	100.80	32.77	-42.2	-46.2	12.0	3.65e-04	0	57	0	299892736	56	5530
2026-01-12 09:07:26.81	100.51	32.91	-42.2	-46.2	12.0	3.64e-04	0	57	0	301989888	56	5550
2026-01-12 09:07:27.82	100.22	33.05	-42.3	-46.2	11.9	4.20e-04	0	57	0	304087040	56	5584
2026-01-12 09:07:28.83	99.92	33.18	-42.3	-46.2	11.9	5.11e-04	0	57	0	305135616	56	5570
2026-01-12 09:07:29.84	99.62	33.32	-42.3	-46.3	11.8	4.17e-04	0	57	0	307232768	56	5614
2026-01-12 09:07:30.85	99.32	33.45	-42.3	-46.2	11.9	4.57e-04	0	57	0	309329920	56	5557
2026-01-12 09:07:31.86	99.02	33.59	-42.3	-46.3	11.8	4.85e-04	0	57	0	311427072	56	5647
2026-01-12 09:07:32.87	98.71	33.73	-42.4	-46.6	11.6	6.59e-04	0	57	0	313524224	56	5804
2026-01-12 09:07:33.88	98.41	33.86	-42.5	-46.8	11.3	9.87e-04	0	57	0	314572800	56	5965
2026-01-12 09:07:34.89	98.10	34.00	-42.5	-46.7	11.4	1.04e-03	0	57	0	316669952	56	5895
2026-01-12 09:07:35.90	97.78	34.13	-42.4	-46.4	11.7	5.52e-04	0	57	0	318767104	56	5705
2026-01-12 09:07:36.91	97.47	34.26	-42.3	-46.3	11.8	4.13e-04	0	57	0	320864256	56	5608
2026-01-12 09:07:37.92	97.15	34.40	-42.4	-46.5	11.7	4.61e-04	0	57	0	322961408	56	5743
2026-01-12 09:07:38.93	96.83	34.53	-42.6	-46.9	11.2	1.05e-03	0	57	0	325058560	56	6006
2026-01-12 09:07:39.94	96.50	34.66	-42.7	-47.1	11.0	1.52e-03	0	57	0	326107136	56	6182
2026-01-12 09:07:40.95	96.18	34.80	-42.8	-47.4	10.7	2.37e-03	0	57	0	328204288	56	6385
2026-01-12 09:07:41.96	95.85	34.93	-42.7	-47.1	11.0	2.79e-03	0	57	0	330301440	56	6168
2026-01-12 09:07:42.97	95.52	35.06	-42.6	-46.9	11.3	1.38e-03	0	57	0	332398592	56	6019
2026-01-12 09:07:43.98	95.18	35.19	-42.6	-46.8	11.4	1.19e-03	0	57	0	334495744	56	5942
2026-01-12 09:07:44.99	94.85	35.32	-42.6	-46.9	11.2	1.40e-03	0	57	0	335544320	56	6054
2026-01-12 09:07:46.00	94.51	35.45	-42.8	-47.4	10.7	2.65e-03	0	57	0	337641472	56	6389
2026-01-12 09:07:47.01	94.16	35.58	-43.0	-47.7	10.4	3.67e-03	0	57	0	339738624	56	6641
2026-01-12 09:07:48.02	93.82	35.71	-43.1	-48.1	9.9	6.01e-03	0	57	0	341835776	56	6948
2026-01-12 09:07:49.02	93.47	35.83	-43.0	-48.0	10.1	7.19e-03	0	57	0	343932928	56	6809
2026-01-12 09:07:50.03	93.12	35.96	-43.1	-48.1	10.0	7.27e-03	0	57	0	344981504	56	6933
2026-01-12 09:07:51.04	92.77	36.09	-43.1	-48.1	10.0	9.16e-03	0	57	0	347078656	56	6914
2026-01-12 09:07:52.05	92.42	36.21	-43.0	-47.9	10.2	8.00e-03	0	57	0	349175808	56	6767
2026-01-12 09:07:53.06	92.06	36.34	-43.0	-47.8	10.3	5.25e-03	0	57	0	351272960	56	6673
2026-01-12 09:07:54.07	91.69	36.46	-42.9	-47.6	10.5	4.82e-03	0	57	0	353370112	56	6549
2026-01-12 09:07:55.08	91.33	36.58	-42.7	-47.1	11.1	2.98e-03	0	57	0	354418688	56	6198
2026-01-12 09:07:56.09	90.96	36.70	-42.8	-47.2	10.9	2.02e-03	0	57	0	356515840	56	6257
2026-01-12 09:07:57.10	90.59	36.82	-42.6	-46.8	11.3	1.58e-03	0	57	0	358612992	56	5990
2026-01-12 09:07:58.11	90.22	36.94	-42.5	-46.6	11.6	8.32e-04	0	57	0	360710144	56	5814
2026-01-12 09:07:59.12	89.85	37.06	-42.5	-46.6	11.6	7.72e-04	0	57	0	362807296	56	5829
2026-01-12 09:08:00.13	89.47	37.18	-42.3	-46.3	11.9	5.13e-04	0	57	0	363855872	56	5610
2026-01-12 09:08:01.14	89.09	37.30	-42.5	-46.5	11.7	4.44e-04	0	57	0	365953024	56	5773
2026-01-12 09:08:02.15	88.70	37.42	-42.6	-46.8	11.4	1.00e-03	0	57	0	368050176	56	5983
2026-01-12 09:08:03.16	88.32	37.53	-42.6	-46.8	11.4	1.10e-03	0	57	0	370147328	56	5936
2026-01-12 09:08:04.17	87.93	37.64	-42.5	-46.5	11.7	8.65e-04	0	57	0	372244480	56	5763
2026-01-12 09:08:05.17	87.54	37.76	-42.3	-46.3	11.9	4.10e-04	0	57	0	373293056	56	5602
2026-01-12 09:08:06.18	87.15	37.87	-42.3	-46.2	12.1	3.49e-04	0	57	0	375390208	56	5530
2026-01-12 09:08:07.19	86.75	37.98	-42.1	-45.7	12.5	1.77e-04	0	57	0	377487360	56	5266
2026-01-12 09:08:08.20	86.35	38.09	-41.6	-45.1	13.0	9.30e-05	0	57	0	379584512	55	5167
2026-01-12 09:08:09.21	85.95	38.20	-41.5	-44.8	13.3	2.59e-05	0	57	0	381681664	55	5034
2026-01-12 09:08:10.22	85.54	38.30	-41.5	-44.9	13.2	1.98e-05	0	57	0	382730240	55	5059
2026-01-12 09:08:11.23	85.14	38.41	-41.4	-44.7	13.5	1.98e-05	0	57	0	384827392	54	5249
2026-01-12 09:08:12.24	84.73	38.51	-41.4	-44.7	13.5	3.80e-06	0	58	0	386924544	54	5238
2026-01-12 09:08:13.24	84.32	38.61	-41.4	-44.7	13.5	6.80e-06	0	57	0	389021696	54	5255
2026-01-12 09:08:14.25	83.90	38.71	-41.5	-44.7	13.4	6.80e-06	0	58	0	391118848	54	5255
2026-01-12 09:08:15.26	83.48	38.81	-41.4	-44.6	13.6	1.60e-05	0	58	0	393216000	54	5176
2026-01-12 09:08:16.27	83.06	38.91	-41.4	-44.6	13.5	9.10e-06	0	57	0	394264576	54	5194
2026-01-12 09:08:17.28	82.64	39.01	-41.3	-44.4	13.8	5.30e-06	0	57	0	396361728	54	5050
2026-01-12 09:08:18.29	82.21	39.11	-41.2	-44.3	13.9	4.50e-06	0	57	0	398458880	54	5009
2026-01-12 09:08:19.30	81.79	39.20	-41.2	-44.2	13.9	2.20e-06	0	57	0	400556032	54	4954
2026-01-12 09:08:20.31	81.35	39.29	-41.1	-44.1	14.0	1.50e-06	0	57	0	402653184	54	4924
2026-01-12 09:08:21.33	80.92	39.38	-41.0	-43.9	14.3	0.00e+00	0	57	0	403701760	54	4775
2026-01-12 09:08:22.33	80.49	39.47	-40.8	-43.6	14.6	7.00e-07	0	57	0	405798912	53	4909
2026-01-12 09:08:23.34	80.05	39.56	-40.8	-43.6	14.5	0.00e+00	0	57	0	407896064	53	4913
2026-01-12 09:08:24.35	79.61	39.64	-40.7	-43.5	14.7	7.00e-07	0	57	0	409993216	53	4829
2026-01-12 09:08:25.36	79.17	39.73	-40.6	-43.3	14.9	7.00e-07	0	57	0	412090368	53	4742
2026-01-12 09:08:26.37	78.72	39.81	-40.5	-43.2	15.0	0.00e+00	0	58	0	413138944	53	4682
2026-01-12 09:08:27.38	78.27	39.89	-40.5	-43.1	15.1	7.00e-07	0	57	0	415236096	52	4911
2026-01-12 09:08:28.39	77.83	39.97	-40.5	-43.2	15.1	0.00e+00	0	57	0	417333248	52	4931
2026-01-12 09:08:29.40	77.37	40.05	-40.6	-43.3	14.9	0.00e+00	0	57	0	419430400	52	5009
2026-01-12 09:08:30.41	76.92	40.12	-40.8	-43.6	14.6	0.00e+00	0	57	0	421527552	52	5164
2026-01-12 09:08:31.41	76.47	40.19	-40.7	-43.4	14.8	7.00e-07	0	58	0	422576128	52	5091
2026-01-12 09:08:32.42	76.01	40.26	-40.6	-43.3	14.9	0.00e+00	0	57	0	424673280	52	5004
2026-01-12 09:08:33.43	75.55	40.33	-40.6	-43.4	14.8	0.00e+00	0	57	0	426770432	52	5046
2026-01-12 09:08:34.44	75.09	40.40	-40.6	-43.3	14.9	7.00e-07	0	57	0	428867584	52	5037
2026-01-12 09:08:35.45	74.63	40.47	-40.6	-43.3	15.0	0.00e+00	0	58	0	430964736	52	5002
2026-01-12 09:08:36.46	74.16	40.53	-40.4	-43.1	15.1	0.00e+00	0	58	0	432013312	52	4872
2026-01-12 09:08:37.47	73.70	40.59	-40.4	-43.0	15.2	0.00e+00	0	57	0	434110464	52	4852
2026-01-12 09:08:38.48	73.23	40.65	-40.2	-42.7	15.6	0.00e+00	0	57	0	436207616	52	4665
2026-01-12 09:08:39.49	72.76	40.71	-40.2	-42.7	15.6	0.00e+00	0	58	0	438304768	52	4662
2026-01-12 09:08:40.50	72.29	40.76	-40.4	-42.9	15.3	0.00e+00	0	58	0	440401920	52	4795
2026-01-12 09:08:41.51	71.81	40.81	-40.3	-42.8	15.4	0.00e+00	0	57	0	441450496	52	4746
2026-01-12 09:08:42.52	71.34	40.86	-40.4	-42.9	15.3	0.00e+00	0	58	0	443547648	52	4806
2026-01-12 09:08:43.53	70.86	40.91	-40.4	-43.0	15.3	0.00e+00	0	58	0	445644800	52	4834
2026-01-12 09:08:44.54	70.38	40.96	-40.5	-43.0	15.2	0.00e+00	0	58	0	447741952	52	4868
2026-01-12 09:08:45.55	69.90	41.00	-40.5	-43.1	15.2	0.00e+00	0	57	0	449839104	52	4886
2026-01-12 09:08:46.56	69.42	41.04	-40.4	-42.9	15.3	0.00e+00	0	58	0	450887680	52	4812
2026-01-12 09:08:47.57	68.94	41.08	-40.5	-43.1	15.2	0.00e+00	0	57	0	452984832	52	4876
2026-01-12 09:08:48.58	68.46	41.12	-40.6	-43.2	15.0	0.00e+00	0	57	0	455081984	52	4966
2026-01-12 09:08:49.59	67.98	41.16	-40.6	-43.3	14.9	0.00e+00	0	58	0	457179136	52	5032
2026-01-12 09:08:50.60	67.49	41.19	-40.6	-43.3	14.9	1.50e-06	0	57	0	459276288	52	5016
2026-01-12 09:08:51.61	67.00	41.22	-40.6	-43.3	15.0	0.00e+00	0	57	0	461373440	52	4985
2026-01-12 09:08:52.61	66.52	41.25	-40.6	-43.2	15.1	0.00e+00	0	58	0	462422016	52	4967
2026-01-12 09:08:53.63	66.03	41.27	-40.5	-43.1	15.2	0.00e+00	0	58	0	464519168	52	4873
2026-01-12 09:08:54.64	65.54	41.30	-40.6	-43.3	15.0	0.00e+00	0	58	0	466616320	52	5017
2026-01-12 09:08:55.65	65.05	41.32	-41.0	-43.9	14.4	0.00e+00	0	58	0	468713472	52	5354
2026-01-12 09:08:56.65	64.57	41.34	-41.2	-44.3	14.0	7.00e-07	0	58	0	470810624	52	5593
2026-01-12 09:08:57.67	64.07	41.35	-41.3	-44.4	13.8	5.30e-06	0	58	0	471859200	53	5354
2026-01-12 09:08:58.68	63.58	41.37	-41.4	-44.5	13.8	6.80e-06	0	57	0	473956352	53	5455
2026-01-12 09:08:59.69	63.09	41.38	-41.4	-44.5	13.7	6.10e-06	0	58	0	476053504	53	5423
2026-01-12 09:09:00.70	62.60	41.39	-41.5	-44.7	13.5	7.60e-06	0	57	0	478150656	53	5564
2026-01-12 09:09:01.71	62.11	41.39	-41.5	-44.7	13.5	1.29e-05	0	58	0	480247808	53	5592
2026-01-12 09:09:02.72	61.62	41.40	-41.8	-45.2	13.0	2.67e-05	0	58	0	481296384	54	5592
2026-01-12 09:09:03.73	61.13	41.40	-42.0	-45.6	12.7	8.77e-05	0	58	0	483393536	54	5790
2026-01-12 09:09:04.74	60.64	41.40	-41.9	-45.5	12.7	7.85e-05	0	58	0	485490688	54	5748
2026-01-12 09:09:05.75	60.15	41.40	-41.9	-45.5	12.8	6.79e-05	0	58	0	487587840	54	5731
2026-01-12 09:09:06.76	59.65	41.39	-42.1	-45.8	12.5	9.84e-05	0	58	0	489684992	54	5967
2026-01-12 09:09:07.77	59.16	41.39	-42.2	-46.0	12.1	1.72e-04	0	58	0	490733568	55	5768
2026-01-12 09:09:08.78	58.67	41.38	-42.3	-46.3	11.9	4.80e-04	0	58	0	492830720	55	5948
2026-01-12 09:09:09.79	58.18	41.36	-42.3	-46.2	12.0	4.78e-04	0	58	0	494927872	55	5856
2026-01-12 09:09:10.80	57.69	41.35	-42.2	-46.0	12.1	3.19e-04	0	58	0	497025024	55	5774
2026-01-12 09:09:11.81	57.20	41.33	-42.1	-45.9	12.3	1.96e-04	0	58	0	499122176	55	5678
2026-01-12 09:09:12.81	56.72	41.31	-42.3	-46.3	11.9	2.42e-04	0	57	0	500170752	55	5948
2026-01-12 09:09:13.82	56.23	41.29	-42.6	-46.8	11.3	6.52e-04	0	58	0	502267904	55	6323
2026-01-12 09:09:14.83	55.74	41.27	-43.1	-47.7	10.6	2.22e-03	0	58	0	504365056	56	6624
2026-01-12 09:09:15.84	55.25	41.24	-43.3	-48.4	9.9	5.28e-03	0	58	0	506462208	57	6796
2026-01-12 09:09:16.85	54.77	41.21	-43.4	-48.5	9.7	9.61e-03	0	58	0	508559360	57	6858
2026-01-12 09:09:17.86	54.28	41.18	-43.3	-48.5	9.8	8.75e-03	0	58	0	509607936	57	6825
2026-01-12 09:09:18.87	53.80	41.15	-43.2	-48.1	10.1	7.73e-03	0	58	0	511705088	57	6547
2026-01-12 09:09:19.88	53.32	41.11	-43.2	-48.1	10.2	5.90e-03	0	58	0	513802240	57	6506
2026-01-12 09:09:20.89	52.83	41.08	-43.3	-48.3	10.0	6.02e-03	0	58	0	515899392	57	6650
2026-01-12 09:09:21.90	52.35	41.04	-43.3	-48.5	9.8	7.77e-03	0	58	0	517996544	57	6802
2026-01-12 09:09:22.91	51.87	40.99	-43.3	-48.4	9.8	1.06e-02	0	58	0	519045120	57	6799
2026-01-12 09:09:23.92	51.39	40.95	-43.5	-48.9	9.4	1.37e-02	0	58	0	521142272	57	7129
2026-01-12 09:09:24.93	50.92	40.90	-43.3	-48.4	9.8	1.27e-02	0	58	0	523239424	57	6798
2026-01-12 09:09:25.93	50.45	40.86	-43.2	-48.1	10.1	7.79e-03	0	58	0	525336576	57	6557
2026-01-12 09:09:26.95	49.97	40.80	-43.0	-47.5	10.8	3.21e-03	0	58	0	527433728	57	6111
2026-01-12 09:09:27.96	49.50	40.75	-42.9	-47.4	10.9	2.26e-03	0	58	0	529530880	57	6006
2026-01-12 09:09:28.97	49.02	40.70	-43.0	-47.5	10.8	2.47e-03	0	58	0	530579456	57	6118
2026-01-12 09:09:29.97	48.56	40.64	-42.9	-47.3	11.0	2.08e-03	0	58	0	532676608	57	5975
2026-01-12 09:09:30.98	48.09	40.58	-42.5	-46.4	12.0	7.03e-04	0	58	0	534773760	56	5676
2026-01-12 09:09:31.99	47.63	40.52	-42.2	-45.9	12.4	2.30e-04	0	58	0	536870912	56	5366
2026-01-12 09:09:33.00	47.16	40.46	-42.0	-45.5	12.8	5.64e-05	0	58	0	537919488	56	5129
2026-01-12 09:09:34.01	46.70	40.39	-41.7	-45.0	13.2	2.59e-05	0	58	0	540016640	55	5130
2026-01-12 09:09:35.02	46.24	40.32	-41.5	-44.7	13.5	1.14e-05	0	58	0	542113792	55	4959
2026-01-12 09:09:36.03	45.78	40.25	-41.3	-44.4	13.8	6.10e-06	0	58	0	544210944	54	5099
2026-01-12 09:09:37.04	45.33	40.18	-41.1	-44.1	14.2	3.00e-06	0	58	0	546308096	54	4874
2026-01-12 09:09:38.05	44.87	40.11	-41.0	-43.9	14.4	2.20e-06	0	58	0	547356672	54	4769
2026-01-12 09:09:39.06	44.42	40.03	-40.8	-43.6	14.6	0.00e+00	0	58	0	549453824	53	4891
2026-01-12 09:09:40.07	43.97	39.96	-40.5	-43.0	15.2	0.00e+00	0	58	0	551550976	53	4597
2026-01-12 09:09:41.08	43.52	39.88	-40.3	-42.8	15.5	0.00e+00	0	57	0	553648128	52	4708
2026-01-12 09:09:42.09	43.08	39.80	-40.3	-42.8	15.5	0.00e+00	0	58	0	555745280	52	4714
2026-01-12 09:09:43.10	42.63	39.72	-40.3	-42.8	15.4	0.00e+00	0	58	0	557842432	52	4758
2026-01-12 09:09:44.11	42.19	39.63	-40.3	-42.8	15.5	0.00e+00	0	58	0	558891008	52	4738
2026-01-12 09:09:45.12	41.75	39.55	-40.1	-42.5	15.7	0.00e+00	0	58	0	560988160	52	4562
2026-01-12 09:09:46.13	41.32	39.46	-40.0	-42.3	16.0	0.00e+00	0	58	0	563085312	51	4747
2026-01-12 09:09:47.14	40.88	39.37	-40.0	-42.3	16.0	0.00e+00	0	58	0	565182464	51	4733
2026-01-12 09:09:48.15	40.45	39.28	-39.9	-42.2	16.2	0.00e+00	0	58	0	567279616	51	4664
2026-01-12 09:09:49.16	40.02	39.19	-39.7	-42.0	16.4	0.00e+00	0	58	0	568328192	51	4546
2026-01-12 09:09:50.17	39.59	39.09	-39.7	-41.9	16.4	0.00e+00	0	58	0	570425344	51	4543
2026-01-12 09:09:51.18	39.17	39.00	-39.8	-42.0	16.3	0.00e+00	0	58	0	572522496	51	4594
2026-01-12 09:09:52.19	38.75	38.90	-39.9	-42.2	16.1	0.00e+00	0	58	0	574619648	51	4696
2026-01-12 09:09:53.20	38.33	38.80	-39.9	-42.2	16.1	0.00e+00	0	58	0	576716800	51	4695
2026-01-12 09:09:54.21	37.91	38.70	-39.9	-42.1	16.2	0.00e+00	0	58	0	577765376	51	4633
2026-01-12 09:09:55.22	37.50	38.60	-39.7	-42.0	16.4	0.00e+00	0	58	0	579862528	51	4554
2026-01-12 09:09:56.23	37.09	38.50	-39.8	-42.0	16.3	0.00e+00	0	58	0	581959680	51	4584
2026-01-12 09:09:57.24	36.68	38.39	-39.8	-42.0	16.3	0.00e+00	0	58	0	584056832	51	4593
2026-01-12 09:09:58.25	36.27	38.29	-39.9	-42.2	16.2	0.00e+00	0	58	0	586153984	51	4667
2026-01-12 09:09:59.26	35.87	38.18	-39.9	-42.2	16.1	0.00e+00	0	58	0	587202560	51	4688
2026-01-12 09:10:00.27	35.47	38.07	-40.0	-42.3	16.0	0.00e+00	0	58	0	589299712	51	4751
2026-01-12 09:10:01.28	35.07	37.97	-40.0	-42.3	16.0	0.00e+00	0	58	0	591396864	51	4756
2026-01-12 09:10:02.29	34.68	37.85	-40.2	-42.6	15.7	0.00e+00	0	58	0	593494016	51	4922
2026-01-12 09:10:03.30	34.28	37.74	-40.3	-42.7	15.7	0.00e+00	0	58	0	595591168	51	4951
2026-01-12 09:10:04.31	33.89	37.63	-40.3	-42.9	15.5	0.00e+00	0	58	0	597688320	51	5049
2026-01-12 09:10:05.32	33.51	37.52	-40.2	-42.7	15.6	0.00e+00	0	58	0	598736896	51	4947
2026-01-12 09:10:06.33	33.12	37.40	-40.3	-42.7	15.6	0.00e+00	0	58	0	600834048	51	4968
2026-01-12 09:10:07.34	32.74	37.29	-40.3	-42.7	15.6	0.00e+00	0	58	0	602931200	51	4981
2026-01-12 09:10:08.36	32.36	37.17	-40.3	-42.8	15.5	0.00e+00	0	58	0	605028352	51	5014
2026-01-12 09:10:09.37	31.98	37.05	-40.2	-42.6	15.7	0.00e+00	0	58	0	607125504	51	4925
2026-01-12 09:10:10.38	31.61	36.93	-40.3	-42.8	15.6	0.00e+00	0	58	0	608174080	51	4997
2026-01-12 09:10:11.39	31.24	36.81	-40.4	-42.9	15.5	0.00e+00	0	58	0	610271232	51	5061
2026-01-12 09:10:12.40	30.87	36.69	-40.5	-43.1	15.2	0.00e+00	0	58	0	612368384	51	5202
2026-01-12 09:10:13.41	30.50	36.57	-40.6	-43.2	15.1	0.00e+00	0	58	0	614465536	51	5274
2026-01-12 09:10:14.42	30.14	36.45	-40.6	-43.2	15.1	0.00e+00	0	58	0	616562688	51	5275
2026-01-12 09:10:15.43	29.78	36.32	-40.6	-43.2	15.1	0.00e+00	0	58	0	617611264	51	5242
2026-01-12 09:10:16.44	29.42	36.20	-40.6	-43.2	15.1	0.00e+00	0	58	0	619708416	51	5273
2026-01-12 09:10:17.44	29.07	36.08	-40.6	-43.2	15.1	0.00e+00	0	58	0	621805568	51	5276
2026-01-12 09:10:18.45	28.72	35.95	-40.6	-43.3	15.0	0.00e+00	0	58	0	623902720	51	5302
2026-01-12 09:10:19.47	28.37	35.82	-40.6	-43.3	15.0	0.00e+00	0	58	0	625999872	51	5302
2026-01-12 09:10:20.47	28.03	35.70	-40.8	-43.6	14.6	0.00e+00	0	58	0	627048448	52	5205
2026-01-12 09:10:21.48	27.68	35.57	-40.8	-43.6	14.6	7.00e-07	0	58	0	629145600	52	5205
2026-01-12 09:10:22.49	27.34	35.44	-40.8	-43.6	14.6	0.00e+00	0	58	0	631242752	52	5197
2026-01-12 09:10:23.50	27.00	35.31	-40.9	-43.7	14.5	0.00e+00	0	58	0	633339904	52	5263
2026-01-12 09:10:24.51	26.67	35.18	-41.1	-44.1	14.2	1.50e-06	0	58	0	635437056	52	5477
2026-01-12 09:10:25.52	26.34	35.05	-41.3	-44.6	13.6	3.80e-06	0	58	0	636485632	53	5474
2026-01-12 09:10:26.53	26.01	34.92	-41.5	-44.8	13.4	1.67e-05	0	58	0	638582784	53	5631
2026-01-12 09:10:27.55	25.68	34.79	-41.5	-44.7	13.4	6.80e-06	0	58	0	640679936	53	5592
2026-01-12 09:10:28.55	25.36	34.66	-41.5	-44.8	13.3	1.52e-05	0	58	0	642777088	53	5642
2026-01-12 09:10:29.56	25.03	34.52	-41.5	-44.8	13.3	1.67e-05	0	58	0	644874240	53	5643
2026-01-12 09:10:30.57	24.71	34.39	-41.5	-44.9	13.3	1.60e-05	0	58	0	645922816	53	5657
2026-01-12 09:10:31.59	24.39	34.26	-41.6	-44.9	13.2	1.29e-05	0	58	0	648019968	53	5700
2026-01-12 09:10:32.59	24.08	34.13	-41.7	-45.1	13.0	3.89e-05	0	58	0	650117120	53	5839
2026-01-12 09:10:33.60	23.77	33.99	-41.9	-45.5	12.7	4.65e-05	0	58	0	652214272	54	5746
2026-01-12 09:10:34.61	23.46	33.86	-41.9	-45.6	12.5	1.15e-04	0	58	0	654311424	54	5820
2026-01-12 09:10:35.62	23.16	33.72	-41.9	-45.5	12.6	9.15e-05	0	58	0	655360000	54	5771
2026-01-12 09:10:36.63	22.85	33.59	-41.9	-45.5	12.6	8.85e-05	0	58	0	657457152	54	5781
2026-01-12 09:10:37.64	22.55	33.45	-42.1	-45.9	12.2	1.86e-04	0	58	0	659554304	54	6039
2026-01-12 09:10:38.65	22.25	33.32	-42.2	-46.1	12.1	2.33e-04	0	58	0	661651456	54	6143
2026-01-12 09:10:39.66	21.96	33.18	-42.3	-46.4	11.7	4.87e-04	0	58	0	663748608	55	5994
2026-01-12 09:10:40.67	21.66	33.04	-42.4	-46.5	11.7	5.93e-04	0	58	0	665845760	55	6076
2026-01-12 09:10:41.68	21.37	32.91	-42.5	-46.7	11.4	8.83e-04	0	58	0	666894336	55	6216
2026-01-12 09:10:42.69	21.08	32.77	-42.4	-46.6	11.6	8.24e-04	0	58	0	668991488	55	6151
2026-01-12 09:10:43.70	20.80	32.63	-42.4	-46.5	11.6	8.03e-04	0	58	0	671088640	55	6093
2026-01-12 09:10:44.71	20.51	32.50	-42.3	-46.4	11.7	4.66e-04	0	58	0	673185792	55	6016
2026-01-12 09:10:45.72	20.23	32.36	-42.4	-46.7	11.3	8.06e-04	0	58	0	675282944	55	6274
2026-01-12 09:10:46.73	19.95	32.22	-42.6	-47.0	11.0	1.22e-03	0	58	0	676331520	55	6487
2026-01-12 09:10:47.74	19.68	32.09	-42.7	-47.1	10.9	2.19e-03	0	58	0	678428672	55	6564
2026-01-12 09:10:48.75	19.40	31.95	-42.6	-47.1	10.9	1.88e-03	0	58	0	680525824	55	6550
2026-01-12 09:10:49.76	19.13	31.81	-42.6	-46.9	11.1	1.83e-03	0	58	0	682622976	55	6417
2026-01-12 09:10:50.77	18.86	31.67	-42.5	-46.7	11.3	1.34e-03	0	58	0	684720128	55	6269
2026-01-12 09:10:51.78	18.59	31.54	-42.5	-46.8	11.3	1.54e-03	0	58	0	685768704	55	6337
2026-01-12 09:10:52.79	18.33	31.40	-42.5	-46.8	11.3	1.05e-03	0	58	0	687865856	55	6327
2026-01-12 09:10:53.80	18.07	31.26	-42.5	-47.0	11.1	1.40e-03	0	58	0	689963008	55	6437
2026-01-12 09:10:54.81	17.81	31.12	-42.7	-47.2	10.8	2.11e-03	0	58	0	692060160	55	6629
2026-01-12 09:10:55.82	17.55	30.98	-42.5	-46.9	11.2	1.98e-03	0	58	0	694157312	55	6401
2026-01-12 09:10:56.83	17.29	30.85	-42.4	-46.6	11.4	1.12e-03	0	58	0	695205888	55	6202
2026-01-12 09:10:57.84	17.04	30.71	-42.4	-46.5	11.5	7.40e-04	0	58	0	697303040	55	6117
2026-01-12 09:10:58.85	16.79	30.57	-42.3	-46.4	11.7	7.35e-04	0	58	0	699400192	55	6002
2026-01-12 09:10:59.86	16.54	30.43	-42.3	-46.4	11.6	7.11e-04	0	58	0	701497344	55	6048
2026-01-12 09:11:00.86	16.29	30.30	-42.2	-46.2	11.9	4.90e-04	0	58	0	703594496	55	5883
2026-01-12 09:11:01.87	16.05	30.16	-42.1	-46.0	12.0	3.13e-04	0	58	0	704643072	55	5762
2026-01-12 09:11:02.88	15.80	30.02	-42.1	-45.9	12.2	2.72e-04	0	58	0	706740224	55	5700
2026-01-12 09:11:03.89	15.56	29.88	-42.0	-45.8	12.3	1.93e-04	0	58	0	708837376	55	5604
2026-01-12 09:11:04.90	15.32	29.75	-41.9	-45.7	12.4	1.52e-04	0	58	0	710934528	55	5545
2026-01-12 09:11:05.91	15.09	29.61	-42.0	-45.8	12.2	1.96e-04	0	58	0	713031680	55	5646
2026-01-12 09:11:06.92	14.85	29.47	-42.0	-45.8	12.3	1.94e-04	0	58	0	714080256	55	5603
2026-01-12 09:11:07.93	14.62	29.33	-41.9	-45.7	12.3	1.75e-04	0	58	0	716177408	55	5564
2026-01-12 09:11:08.94	14.39	29.20	-41.7	-45.3	12.7	9.53e-05	0	58	0	718274560	55	5305
2026-01-12 09:11:09.95	14.16	29.06	-41.6	-45.0	13.1	4.80e-05	0	58	0	720371712	55	5129
2026-01-12 09:11:10.96	13.93	28.92	-41.5	-44.9	13.2	3.12e-05	0	58	0	722468864	55	5064
2026-01-12 09:11:11.97	13.71	28.79	-41.6	-45.0	13.1	2.51e-05	0	58	0	723517440	55	5135
2026-01-12 09:11:12.98	13.49	28.65	-41.7	-45.2	12.9	4.42e-05	0	58	0	725614592	55	5230
2026-01-12 09:11:13.99	13.26	28.51	-41.7	-45.2	12.9	7.62e-05	0	58	0	727711744	55	5230
2026-01-12 09:11:15.00	13.05	28.38	-41.6	-45.1	13.0	5.56e-05	0	58	0	729808896	55	5164
2026-01-12 09:11:16.01	12.83	28.24	-41.6	-45.0	13.0	3.58e-05	0	58	0	731906048	55	5128
2026-01-12 09:11:17.02	12.61	28.11	-41.6	-45.0	13.0	3.12e-05	0	58	0	734003200	55	5134
2026-01-12 09:11:18.03	12.40	27.97	-41.5	-44.9	13.2	3.28e-05	0	58	0	735051776	54	5357
2026-01-12 09:11:19.04	12.19	27.84	-41.5	-44.8	13.2	1.67e-05	0	58	0	737148928	54	5316
2026-01-12 09:11:20.05	11.98	27.70	-41.4	-44.6	13.4	1.06e-05	0	58	0	739246080	54	5213
2026-01-12 09:11:21.06	11.77	27.57	-41.4	-44.7	13.4	1.83e-05	0	58	0	741343232	54	5225
2026-01-12 09:11:22.07	11.56	27.43	-41.3	-44.6	13.4	1.44e-05	0	58	0	743440384	54	5194
2026-01-12 09:11:23.08	11.36	27.30	-41.4	-44.7	13.3	1.52e-05	0	58	0	744488960	54	5271
2026-01-12 09:11:24.09	11.16	27.17	-41.4	-44.7	13.3	9.90e-06	0	58	0	746586112	54	5250
2026-01-12 09:11:25.10	10.95	27.03	-41.5	-44.9	13.1	1.75e-05	0	58	0	748683264	54	5386
2026-01-12 09:11:26.11	10.75	26.90	-41.5	-44.9	13.2	2.51e-05	0	58	0	750780416	54	5349
2026-01-12 09:11:27.11	10.56	26.77	-41.5	-44.9	13.0	3.73e-05	0	58	0	752877568	54	5397
2026-01-12 09:11:28.12	10.36	26.63	-41.5	-44.9	13.1	3.81e-05	0	58	0	753926144	54	5345
2026-01-12 09:11:29.13	10.17	26.50	-41.5	-44.9	13.1	2.51e-05	0	58	0	756023296	54	5376
2026-01-12 09:11:30.14	9.98	26.37	-41.4	-44.8	13.2	1.90e-05	0	58	0	758120448	54	5293
2026-01-12 09:11:31.15	9.78	26.24	-41.5	-44.8	13.2	2.44e-05	0	58	0	760217600	54	5335
2026-01-12 09:11:32.16	9.59	26.11	-41.3	-44.6	13.4	1.75e-05	0	58	0	762314752	54	5169
2026-01-12 09:11:33.17	9.41	25.97	-41.3	-44.6	13.4	1.83e-05	0	58	0	763363328	54	5216
2026-01-12 09:11:34.18	9.22	25.84	-41.4	-44.7	13.3	1.52e-05	0	58	0	765460480	54	5276
2026-01-12 09:11:35.19	9.04	25.71	-41.4	-44.8	13.2	2.44e-05	0	58	0	767557632	54	5337
2026-01-12 09:11:36.20	8.85	25.58	-41.5	-45.0	13.0	2.82e-05	0	58	0	769654784	54	5410
2026-01-12 09:11:37.21	8.67	25.45	-41.6	-45.0	13.0	3.20e-05	0	58	0	771751936	54	5460
2026-01-12 09:11:38.22	8.49	25.32	-41.7	-45.2	12.8	4.88e-05	0	58	0	772800512	54	5570
2026-01-12 09:11:39.23	8.31	25.19	-41.7	-45.4	12.6	9.61e-05	0	58	0	774897664	54	5683
2026-01-12 09:11:40.24	8.13	25.06	-41.8	-45.4	12.5	8.77e-05	0	58	0	776994816	54	5702
2026-01-12 09:11:41.24	7.96	24.94	-41.8	-45.5	12.5	1.16e-04	0	58	0	779091968	54	5744
2026-01-12 09:11:42.25	7.79	24.81	-41.9	-45.6	12.3	1.54e-04	0	58	0	781189120	54	5840
2026-01-12 09:11:43.26	7.61	24.68	-41.7	-45.4	12.6	1.38e-04	0	58	0	782237696	54	5681
2026-01-12 09:11:44.27	7.44	24.55	-41.7	-45.4	12.6	9.99e-05	0	58	0	784334848	54	5657
2026-01-12 09:11:45.28	7.27	24.42	-41.7	-45.3	12.6	9.30e-05	0	58	0	786432000	54	5605
2026-01-12 09:11:46.29	7.10	24.30	-41.7	-45.3	12.6	9.53e-05	0	58	0	788529152	54	5610
2026-01-12 09:11:47.30	6.94	24.17	-41.6	-45.2	12.8	9.84e-05	0	58	0	790626304	54	5548
2026-01-12 09:11:48.31	6.77	24.04	-41.6	-45.2	12.7	6.79e-05	0	58	0	791674880	54	5565
2026-01-12 09:11:49.32	6.61	23.92	-41.6	-45.1	12.9	5.03e-05	0	58	0	793772032	54	5476
2026-01-12 09:11:50.33	6.44	23.79	-41.5	-45.1	12.9	4.57e-05	0	58	0	795869184	54	5465
2026-01-12 09:11:51.34	6.28	23.67	-41.5	-45.0	12.9	5.95e-05	0	58	0	797966336	54	5415
2026-01-12 09:11:52.35	6.12	23.54	-41.4	-44.9	13.1	3.73e-05	0	58	0	800063488	54	5344
2026-01-12 09:11:53.36	5.96	23.42	-41.4	-44.8	13.1	2.89e-05	0	58	0	802160640	54	5302
2026-01-12 09:11:54.37	5.80	23.29	-41.3	-44.6	13.3	2.05e-05	0	58	0	803209216	54	5208
2026-01-12 09:11:55.38	5.65	23.17	-41.3	-44.7	13.2	2.13e-05	0	58	0	805306368	54	5256
2026-01-12 09:11:56.39	5.49	23.04	-41.4	-44.8	13.1	2.13e-05	0	58	0	807403520	54	5294
2026-01-12 09:11:57.39	5.34	22.92	-41.4	-44.9	13.0	3.81e-05	0	58	0	809500672	54	5359
2026-01-12 09:11:58.40	5.18	22.80	-41.4	-44.9	13.0	4.57e-05	0	58	0	810549248	54	5341
2026-01-12 09:11:59.41	5.03	22.68	-41.6	-45.2	12.6	7.09e-05	0	58	0	812646400	54	5580
2026-01-12 09:12:00.42	4.88	22.56	-41.7	-45.4	12.5	1.18e-04	0	58	0	814743552	54	5664
2026-01-12 09:12:01.43	4.73	22.43	-41.7	-45.4	12.4	1.14e-04	0	58	0	816840704	54	5690
2026-01-12 09:12:02.44	4.58	22.31	-41.8	-45.6	12.2	2.00e-04	0	58	0	818937856	54	5804
2026-01-12 09:12:03.45	4.44	22.19	-41.8	-45.7	12.2	2.39e-04	0	58	0	819986432	54	5868
2026-01-12 09:12:04.46	4.29	22.07	-41.7	-45.5	12.3	1.94e-04	0	58	0	822083584	54	5771
2026-01-12 09:12:05.47	4.15	21.95	-41.7	-45.5	12.3	1.97e-04	0	58	0	824180736	54	5783
2026-01-12 09:12:06.48	4.00	21.83	-41.7	-45.5	12.3	1.84e-04	0	58	0	826277888	54	5738
2026-01-12 09:12:07.49	3.86	21.71	-41.7	-45.4	12.4	1.67e-04	0	58	0	828375040	54	5698
2026-01-12 09:12:08.50	3.72	21.59	-41.6	-45.4	12.4	1.63e-04	0	58	0	830472192	54	5677
2026-01-12 09:12:09.51	3.58	21.47	-41.6	-45.3	12.5	1.19e-04	0	58	0	831520768	54	5610
2026-01-12 09:12:10.52	3.44	21.36	-41.5	-45.2	12.6	1.17e-04	0	58	0	833617920	54	5565
2026-01-12 09:12:11.53	3.30	21.24	-41.6	-45.2	12.5	9.68e-05	0	58	0	835715072	54	5590
2026-01-12 09:12:12.54	3.17	21.12	-41.5	-45.0	12.7	8.46e-05	0	58	0	837812224	54	5459
2026-01-12 09:12:13.55	3.03	21.00	-41.3	-44.8	12.9	6.94e-05	0	58	0	839909376	54	5326
2026-01-12 09:12:14.56	2.90	20.89	-41.4	-44.9	12.8	3.66e-05	0	58	0	840957952	54	5356
2026-01-12 09:12:15.57	2.76	20.77	-41.4	-44.9	12.8	5.49e-05	0	58	0	843055104	54	5377
2026-01-12 09:12:16.58	2.63	20.65	-41.4	-44.9	12.8	5.11e-05	0	58	0	845152256	54	5393
2026-01-12 09:12:17.58	2.50	20.54	-41.4	-45.1	12.7	7.78e-05	0	58	0	847249408	54	5479
2026-01-12 09:12:18.59	2.37	20.42	-41.4	-44.9	12.8	6.56e-05	0	58	0	849346560	54	5362
2026-01-12 09:12:19.60	2.24	20.31	-41.4	-45.0	12.7	6.86e-05	0	58	0	850395136	54	5445
2026-01-12 09:12:20.61	2.11	20.19	-41.4	-45.0	12.7	6.63e-05	0	58	0	852492288	54	5457
2026-01-12 09:12:21.62	1.98	20.08	-41.4	-45.1	12.6	9.76e-05	0	58	0	854589440	54	5482
2026-01-12 09:12:22.63	1.86	19.96	-41.5	-45.2	12.5	1.24e-04	0	58	0	856686592	54	5541
2026-01-12 09:12:23.64	1.73	19.85	-41.4	-45.1	12.6	1.01e-04	0	58	0	858783744	54	5467
2026-01-12 09:12:24.65	1.61	19.74	-41.4	-45.0	12.7	9.15e-05	0	58	0	859832320	54	5435
2026-01-12 09:12:25.66	1.48	19.63	-41.4	-45.1	12.5	8.85e-05	0	58	0	861929472	54	5504
2026-01-12 09:12:26.67	1.36	19.51	-41.4	-45.1	12.6	1.29e-04	0	58	0	864026624	54	5473
2026-01-12 09:12:27.68	1.24	19.40	-41.4	-45.1	12.6	9.30e-05	0	58	0	866123776	54	5471
2026-01-12 09:12:28.69	1.12	19.29	-41.4	-45.0	12.6	9.30e-05	0	58	0	868220928	54	5418
2026-01-12 09:12:29.70	1.00	19.18	-41.3	-44.8	12.8	5.18e-05	0	58	0	869269504	54	5301
2026-01-12 09:12:30.71	0.88	19.07	-41.3	-44.9	12.7	5.56e-05	0	58	0	871366656	54	5356
2026-01-12 09:12:31.72	0.76	18.96	-41.3	-44.9	12.7	8.31e-05	0	58	0	873463808	54	5365
2026-01-12 09:12:32.73	0.64	18.85	-41.3	-45.0	12.6	8.92e-05	0	58	0	875560960	54	5413
2026-01-12 09:12:33.74	0.52	18.74	-41.2	-44.7	12.8	8.08e-05	0	58	0	877658112	54	5265
2026-01-12 09:12:34.75	0.41	18.63	-41.2	-44.7	12.9	5.56e-05	0	58	0	878706688	54	5230
2026-01-12 09:12:35.76	0.29	18.52	-41.3	-44.8	12.7	7.85e-05	0	58	0	880803840	54	5336
2026-01-12 09:12:36.77	0.18	18.41	-41.3	-44.9	12.6	7.24e-05	0	58	0	882900992	54	5371
2026-01-12 09:12:37.78	0.07	18.30	-41.3	-45.0	12.6	8.77e-05	0	58	0	884998144	54	5411
2026-01-12 09:12:38.79	359.95	18.19	-41.4	-45.1	12.4	1.28e-04	0	58	0	887095296	54	5521
2026-01-12 09:12:39.80	359.84	18.08	-41.4	-45.3	12.2	1.63e-04	0	58	0	888143872	54	5598
2026-01-12 09:12:40.81	359.73	17.98	-41.5	-45.3	12.1	1.95e-04	0	58	0	890241024	54	5634
2026-01-12 09:12:41.81	359.62	17.87	-41.5	-45.5	12.0	3.22e-04	0	58	0	892338176	54	5730
2026-01-12 09:12:42.82	359.51	17.76	-41.5	-45.5	11.9	3.56e-04	0	58	0	894435328	54	5751
2026-01-12 09:12:43.83	359.40	17.66	-41.5	-45.5	11.9	3.84e-04	0	58	0	896532480	54	5762
2026-01-12 09:12:44.84	359.30	17.55	-41.5	-45.5	11.8	4.30e-04	0	58	0	898629632	54	5786
2026-01-12 09:12:45.85	359.19	17.45	-41.6	-45.5	11.8	3.87e-04	0	58	0	899678208	54	5784
2026-01-12 09:12:46.86	359.08	17.34	-41.4	-45.4	12.0	4.36e-04	0	58	0	901775360	54	5661
2026-01-12 09:12:47.87	358.98	17.24	-41.4	-45.3	12.0	3.44e-04	0	58	0	903872512	54	5621
2026-01-12 09:12:48.88	358.87	17.13	-41.3	-45.2	12.2	2.72e-04	0	58	0	905969664	54	5530
2026-01-12 09:12:49.89	358.77	17.03	-41.3	-45.1	12.1	2.17e-04	0	58	0	908066816	54	5507
2026-01-12 09:12:50.90	358.67	16.92	-41.4	-45.3	11.9	3.11e-04	0	58	0	909115392	54	5641
2026-01-12 09:12:51.91	358.56	16.82	-41.3	-45.3	11.8	5.29e-04	0	58	0	911212544	54	5636
2026-01-12 09:12:52.92	358.46	16.72	-41.3	-45.3	11.9	3.98e-04	0	58	0	913309696	54	5601
2026-01-12 09:12:53.93	358.36	16.61	-41.2	-45.1	12.0	3.77e-04	0	58	0	915406848	54	5483
2026-01-12 09:12:54.94	358.26	16.51	-41.1	-45.0	12.0	3.18e-04	0	58	0	917504000	54	5422
2026-01-12 09:12:55.95	358.16	16.41	-41.1	-45.1	11.8	4.39e-04	0	58	0	918552576	54	5524
2026-01-12 09:12:56.97	358.06	16.31	-41.1	-45.2	11.7	5.07e-04	0	58	0	920649728	54	5545
2026-01-12 09:12:57.97	357.97	16.21	-41.2	-45.4	11.4	8.41e-04	0	58	0	922746880	54	5704
2026-01-12 09:12:58.98	357.87	16.11	-41.2	-45.5	11.3	1.20e-03	0	58	0	924844032	54	5741
2026-01-12 09:12:59.99	357.77	16.00	-41.2	-45.5	11.2	1.19e-03	0	58	0	926941184	54	5767
2026-01-12 09:13:01.00	357.68	15.90	-41.1	-45.5	11.2	1.59e-03	0	58	0	927989760	54	5776
2026-01-12 09:13:02.01	357.58	15.80	-41.0	-45.3	11.3	1.05e-03	0	58	0	930086912	54	5634
2026-01-12 09:13:03.02	357.49	15.70	-41.0	-45.4	11.3	1.16e-03	0	58	0	932184064	54	5659
2026-01-12 09:13:04.03	357.39	15.60	-41.0	-45.4	11.2	1.32e-03	0	58	0	934281216	53	6019
2026-01-12 09:13:05.04	357.30	15.51	-41.0	-45.5	11.0	1.53e-03	0	58	0	936378368	53	6127
2026-01-12 09:13:06.05	357.21	15.41	-41.0	-45.6	10.9	2.04e-03	0	58	0	938475520	53	6146
2026-01-12 09:13:07.06	357.11	15.31	-41.1	-45.7	10.7	2.44e-03	0	58	0	939524096	53	6243
2026-01-12 09:13:08.08	357.02	15.21	-40.9	-45.5	10.9	2.80e-03	0	58	0	941621248	53	6070
2026-01-12 09:13:09.08	356.93	15.11	-40.8	-45.1	11.2	1.84e-03	0	58	0	943718400	53	5844
2026-01-12 09:13:10.10	356.84	15.01	-40.7	-45.1	11.2	1.37e-03	0	58	0	945815552	53	5813
2026-01-12 09:13:11.10	356.75	14.92	-40.5	-45.0	11.2	1.39e-03	0	58	0	947912704	53	5741
2026-01-12 09:13:12.12	356.66	14.82	-40.6	-45.3	10.7	1.98e-03	0	58	0	948961280	53	5949
2026-01-12 09:13:13.12	356.57	14.72	-40.6	-45.6	10.3	3.96e-03	0	58	0	951058432	53	6152
2026-01-12 09:13:14.14	356.48	14.63	-40.6	-45.8	9.9	7.59e-03	0	58	0	953155584	53	6299
2026-01-12 09:13:15.15	356.40	14.53	-40.7	-46.5	9.0	1.59e-02	0	58	0	955252736	53	6822
2026-01-12 09:13:16.16	356.31	14.43	-40.8	-47.1	8.2	3.60e-02	0	58	0	957349888	53	7328
2026-01-12 09:13:17.17	356.22	14.34	-40.9	-47.9	7.3	9.65e-02	0	58	0	958398464	53	8076
2026-01-12 09:13:18.18	356.14	14.24	-40.9	-48.6	6.5	1.84e-01	0	58	0	960495616	53	8713
2026-01-12 09:13:19.19	356.05	14.15	-40.9	-49.3	5.8	2.90e-01	0	58	0	962592768	53	9450
2026-01-12 09:13:20.20	355.97	14.06	-40.9	-50.1	5.2	5.30e-01	0	58	0	964689920	53	10295
2026-01-12 09:13:21.21	355.89	13.96	-40.9	-51.2	4.6	8.02e-01	0	58	0	966787072	53	11731
2026-01-12 09:13:22.21	355.80	13.87	-40.8	-52.1	4.2	1.27e+00	0	58	0	967835648	53	12974
2026-01-12 09:13:23.22	355.72	13.77	-40.8	-52.5	4.1	1.43e+00	0	58	0	967835648	53	13673
2026-01-12 09:13:24.23	355.64	13.68	-40.7	-53.1	3.8	1.47e+00	0	58	104	967835648	53	14635
2026-01-12 09:13:25.24	355.56	13.59	-40.6	-53.6	3.8	1.49e+00	0	58	104	967835648	53	15464
2026-01-12 09:13:26.25	355.48	13.50	-40.5	-54.1	3.8	1.49e+00	0	58	104	967835648	53	16370
2026-01-12 09:13:27.26	355.40	13.40	-40.5	-54.4	3.8	1.49e+00	0	58	104	967835648	52	17960
2026-01-12 09:13:28.27	355.32	13.31	-40.4	-54.6	3.8	1.49e+00	0	58	104	967835648	52	18462
2026-01-12 09:13:29.28	355.24	13.22	-40.3	-54.7	3.8	1.49e+00	0	58	104	967835648	52	18569
2026-01-12 09:13:30.29	355.16	13.13	-40.2	-54.7	3.8	1.49e+00	0	58	104	967835648	52	18601
2026-01-12 09:13:31.30	355.08	13.04	-40.2	-54.8	3.8	1.49e+00	0	58	104	967835648	52	18749
2026-01-12 09:13:32.31	355.00	12.95	-40.1	-54.7	3.8	1.49e+00	0	58	104	967835648	52	18683
2026-01-12 09:13:33.32	354.92	12.86	-40.1	-54.8	3.8	1.49e+00	0	58	104	967835648	52	18822
2026-01-12 09:13:34.33	354.85	12.76	-40.1	-54.9	3.8	1.49e+00	0	58	104	967835648	52	19002
2026-01-12 09:13:35.33	354.77	12.68	-40.0	-54.9	3.8	1.49e+00	0	58	104	967835648	52	19051
2026-01-12 09:13:36.34	354.69	12.59	-40.3	-54.9	3.8	1.49e+00	0	58	104	967835648	52	19053
2026-01-12 09:13:37.35	354.62	12.50	-40.1	-54.9	3.8	1.49e+00	0	58	104	967835648	52	18995
2026-01-12 09:13:38.36	354.54	12.41	-40.2	-54.8	3.8	1.49e+00	0	58	104	967835648	52	18869
2026-01-12 09:13:39.37	354.47	12.32	-40.1	-54.9	3.8	1.49e+00	0	58	104	967835648	52	19045
2026-01-12 09:13:40.38	354.39	12.23	-40.3	-54.9	3.8	1.49e+00	0	58	104	967835648	52	19081
2026-01-12 09:13:41.39	354.32	12.14	-40.2	-54.8	3.8	1.49e+00	0	58	104	967835648	52	18897
2026-01-12 09:13:42.40	354.25	12.05	-40.3	-54.9	3.8	1.49e+00	0	58	104	967835648	52	19014
2026-01-12 09:13:43.41	354.18	11.96	-40.1	-54.7	3.8	1.49e+00	0	58	104	967835648	51	19833
2026-01-12 09:13:44.42	354.10	11.88	-40.0	-54.8	3.8	1.49e+00	0	58	104	967835648	51	19961
2026-01-12 09:13:45.43	354.03	11.79	-40.3	-54.9	3.8	1.49e+00	0	58	104	967835648	51	20198
2026-01-12 09:13:46.44	353.96	11.70	-39.8	-54.7	3.8	1.49e+00	0	58	104	967835648	51	19785
2026-01-12 09:13:47.45	353.89	11.62	-40.3	-54.9	3.8	1.49e+00	0	58	104	967835648	51	20240
2026-01-12 09:13:48.46	353.82	11.53	-39.9	-54.8	3.8	1.49e+00	0	58	104	967835648	51	19945
2026-01-12 09:13:49.47	353.75	11.44	-39.9	-54.7	3.8	1.49e+00	0	58	104	967835648	51	19756
2026-01-12 09:13:50.48	353.68	11.36	-39.8	-54.8	3.8	1.49e+00	0	58	104	967835648	51	19934
2026-01-12 09:13:51.49	353.61	11.27	-39.9	-54.7	3.8	1.49e+00	0	58	104	967835648	51	19656
2026-01-12 09:13:52.50	353.54	11.19	-39.8	-54.7	3.8	1.49e+00	0	58	104	967835648	51	19778
2026-01-12 09:13:53.51	353.47	11.10	-39.7	-54.7	3.8	1.49e+00	0	59	104	967835648	51	19755
2026-01-12 09:13:54.52	353.40	11.02	-39.8	-54.7	3.8	1.49e+00	0	58	104	967835648	51	19780
2026-01-12 09:13:55.53	353.34	10.93	-39.7	-54.8	3.8	1.49e+00	0	58	104	967835648	51	20015
2026-01-12 09:13:56.54	353.27	10.85	-39.9	-54.7	3.8	1.49e+00	0	58	104	967835648	51	19771
2026-01-12 09:13:57.55	353.20	10.76	-39.9	-54.7	3.8	1.49e+00	0	58	104	967835648	51	19809
2026-01-12 09:13:58.56	353.14	10.68	-40.0	-54.8	3.8	1.49e+00	0	58	104	967835648	51	19843
