passes_logs/2026/01/12/R2.0S_Moscow/R2.0S_Moscow__20260112_102120_SUOMI_NPP_rec.log

#Pass ID: 20260112_102120_SUOMI NPP
#Satellite: SUOMI NPP
#Configuration: NPP
#almurnet v.1.7.20251203
#Start time: 2026-01-12 10:21:22

#Version: 2.2.20231116
#Station: R2.0S_Moscow
#Location: 37.707566 lon 55.798166 lat
#TLE: 1 37849U 11061A   26011.29776829  .00000112  00000+0  74065-4 0  9999
#TLE: 2 37849  98.7807 313.3784 0002522  70.0451 290.0996 14.19524507736187

#Time	Az	El	Level	Level2	SNR	BER	BlckErr	Temp	State	Recorded	gain1	gain2
2026-01-12 10:21:22.37	171.24	2.15	-43.1	-57.3	3.8	1.49e+00	0	50	0	0	58	17780
2026-01-12 10:21:23.38	171.26	2.21	-43.0	-57.3	3.8	1.49e+00	0	50	104	0	57	18815
2026-01-12 10:21:24.39	171.28	2.28	-43.0	-57.3	3.8	1.49e+00	0	50	104	0	57	18773
2026-01-12 10:21:25.40	171.30	2.34	-43.0	-57.3	3.8	1.49e+00	0	50	104	0	57	18780
2026-01-12 10:21:26.42	171.32	2.41	-43.0	-57.3	3.8	1.49e+00	0	50	104	0	57	18824
2026-01-12 10:21:27.43	171.34	2.47	-43.0	-57.3	3.8	1.49e+00	0	50	104	0	57	18783
2026-01-12 10:21:28.44	171.35	2.54	-43.0	-57.3	3.8	1.49e+00	0	51	104	0	57	18732
2026-01-12 10:21:29.45	171.37	2.61	-43.0	-57.3	3.8	1.49e+00	0	51	104	0	57	18743
2026-01-12 10:21:30.46	171.39	2.67	-43.0	-57.3	3.8	1.49e+00	0	50	104	0	57	18758
2026-01-12 10:21:31.47	171.41	2.74	-43.0	-57.3	3.8	1.49e+00	0	51	104	0	57	18763
2026-01-12 10:21:32.48	171.43	2.80	-43.0	-57.2	3.8	1.49e+00	0	51	104	0	57	18659
2026-01-12 10:21:33.49	171.45	2.87	-43.0	-57.3	3.8	1.49e+00	0	51	104	0	57	18755
2026-01-12 10:21:34.50	171.47	2.94	-43.0	-57.3	3.8	1.49e+00	0	51	104	0	57	18771
2026-01-12 10:21:35.51	171.49	3.00	-43.0	-57.2	3.8	1.49e+00	0	51	104	0	57	18702
2026-01-12 10:21:36.52	171.51	3.07	-43.0	-57.3	3.8	1.49e+00	0	51	104	0	57	18766
2026-01-12 10:21:37.53	171.53	3.14	-43.0	-57.2	3.8	1.49e+00	0	51	104	0	57	18703
2026-01-12 10:21:38.54	171.55	3.20	-43.0	-57.3	3.8	1.49e+00	0	51	104	0	57	18753
2026-01-12 10:21:39.55	171.57	3.27	-43.0	-57.2	3.8	1.49e+00	0	52	104	0	57	18708
2026-01-12 10:21:40.56	171.60	3.34	-43.0	-57.3	3.8	1.49e+00	0	51	104	0	57	18754
2026-01-12 10:21:41.57	171.62	3.41	-43.0	-57.3	3.8	1.49e+00	0	51	104	0	57	18808
2026-01-12 10:21:42.59	171.64	3.48	-43.0	-57.3	3.8	1.49e+00	0	51	104	0	57	18781
2026-01-12 10:21:43.60	171.66	3.54	-43.0	-57.3	3.8	1.49e+00	0	51	104	0	57	18737
2026-01-12 10:21:44.61	171.68	3.61	-43.1	-57.3	3.8	1.49e+00	0	52	104	0	57	18763
2026-01-12 10:21:45.62	171.70	3.68	-43.0	-57.2	3.8	1.49e+00	0	52	104	0	57	18721
2026-01-12 10:21:46.63	171.72	3.75	-43.0	-57.3	3.8	1.49e+00	0	52	104	0	57	18750
2026-01-12 10:21:47.64	171.74	3.82	-43.0	-57.3	3.8	1.49e+00	0	52	104	0	57	18756
2026-01-12 10:21:48.65	171.76	3.89	-43.0	-57.3	3.8	1.49e+00	0	52	104	0	57	18742
2026-01-12 10:21:49.66	171.78	3.95	-43.0	-57.3	3.8	1.49e+00	0	52	104	0	57	18745
2026-01-12 10:21:50.67	171.80	4.02	-43.0	-57.2	3.8	1.49e+00	0	52	104	0	57	18643
2026-01-12 10:21:51.68	171.83	4.09	-43.0	-57.2	3.8	1.49e+00	0	52	104	0	57	18532
2026-01-12 10:21:52.69	171.85	4.16	-43.0	-57.2	3.8	1.49e+00	0	52	104	0	57	18528
2026-01-12 10:21:53.70	171.87	4.23	-43.0	-57.1	3.8	1.49e+00	0	52	104	0	57	18345
2026-01-12 10:21:54.71	171.89	4.30	-43.0	-56.9	3.8	1.49e+00	0	52	104	0	57	18092
2026-01-12 10:21:55.72	171.91	4.37	-43.0	-56.8	3.8	1.49e+00	0	52	104	0	57	17713
2026-01-12 10:21:56.74	171.93	4.44	-43.0	-56.7	3.8	1.49e+00	0	52	104	0	57	17534
2026-01-12 10:21:57.75	171.96	4.51	-43.0	-56.6	3.8	1.49e+00	0	52	104	0	57	17300
2026-01-12 10:21:58.76	171.98	4.58	-43.0	-56.4	3.8	1.49e+00	0	52	104	0	57	16997
2026-01-12 10:21:59.77	172.00	4.65	-43.0	-56.3	3.8	1.49e+00	0	52	104	0	57	16851
2026-01-12 10:22:00.78	172.02	4.73	-43.0	-56.4	3.8	1.49e+00	0	52	104	0	57	16948
2026-01-12 10:22:01.79	172.05	4.80	-43.0	-56.3	3.8	1.49e+00	0	52	104	0	57	16699
2026-01-12 10:22:02.80	172.07	4.87	-43.0	-56.3	3.8	1.49e+00	0	53	104	0	57	16721
2026-01-12 10:22:03.81	172.09	4.94	-43.0	-56.3	3.8	1.49e+00	0	52	104	0	57	16857
2026-01-12 10:22:04.82	172.11	5.01	-43.0	-56.3	3.8	1.49e+00	0	53	104	0	57	16762
2026-01-12 10:22:05.83	172.14	5.08	-43.0	-56.0	3.8	1.49e+00	0	53	104	0	57	16193
2026-01-12 10:22:06.84	172.16	5.16	-42.9	-55.9	3.8	1.49e+00	0	53	104	0	57	16034
2026-01-12 10:22:07.85	172.18	5.23	-42.9	-55.5	3.8	1.49e+00	0	53	104	0	57	15364
2026-01-12 10:22:08.87	172.21	5.30	-42.9	-55.2	3.8	1.49e+00	0	53	104	0	57	14739
2026-01-12 10:22:09.88	172.23	5.37	-42.9	-55.0	3.8	1.48e+00	0	53	104	0	57	14422
2026-01-12 10:22:10.89	172.25	5.45	-42.9	-55.0	3.8	1.48e+00	0	53	104	0	57	14382
2026-01-12 10:22:11.90	172.27	5.52	-42.9	-54.9	3.8	1.49e+00	0	53	104	0	57	14275
2026-01-12 10:22:12.91	172.30	5.59	-42.9	-55.1	3.8	1.48e+00	0	53	104	0	57	14561
2026-01-12 10:22:13.92	172.32	5.67	-42.9	-54.9	3.8	1.49e+00	0	53	104	0	57	14278
2026-01-12 10:22:14.93	172.35	5.74	-42.9	-54.9	3.8	1.49e+00	0	53	104	0	57	14311
2026-01-12 10:22:15.94	172.37	5.81	-42.9	-54.8	4.0	1.48e+00	0	53	104	0	57	14131
2026-01-12 10:22:16.95	172.39	5.89	-42.9	-55.1	3.8	1.48e+00	0	53	104	0	57	14633
2026-01-12 10:22:17.96	172.42	5.96	-42.9	-55.1	3.9	1.48e+00	0	53	104	0	57	14597
2026-01-12 10:22:18.97	172.44	6.04	-42.9	-55.0	3.8	1.49e+00	0	53	104	0	57	14433
2026-01-12 10:22:19.99	172.47	6.11	-42.9	-54.9	3.9	1.48e+00	0	53	104	0	57	14319
2026-01-12 10:22:21.00	172.49	6.19	-42.9	-55.0	3.8	1.48e+00	0	53	104	0	57	14497
2026-01-12 10:22:22.01	172.51	6.26	-42.9	-55.0	3.9	1.48e+00	0	53	104	0	57	14464
2026-01-12 10:22:23.02	172.54	6.34	-42.9	-54.7	3.8	1.48e+00	0	54	104	0	57	13952
2026-01-12 10:22:24.03	172.56	6.41	-42.9	-54.4	4.0	1.47e+00	0	53	104	0	57	13436
2026-01-12 10:22:25.04	172.59	6.49	-42.8	-54.0	4.1	1.43e+00	0	53	0	0	57	12922
2026-01-12 10:22:26.05	172.61	6.57	-42.8	-53.6	4.2	1.40e+00	0	54	0	0	57	12235
2026-01-12 10:22:27.06	172.64	6.64	-42.7	-53.2	4.4	1.35e+00	0	54	0	0	57	11737
2026-01-12 10:22:28.07	172.66	6.72	-42.7	-52.7	4.5	1.12e+00	0	54	0	2097152	57	11048
2026-01-12 10:22:29.09	172.69	6.80	-42.6	-52.1	4.8	8.76e-01	0	54	0	4194304	57	10336
2026-01-12 10:22:30.09	172.71	6.87	-42.5	-51.7	5.0	7.30e-01	0	54	0	5242880	57	9846
2026-01-12 10:22:31.11	172.74	6.95	-42.5	-51.2	5.3	6.48e-01	0	54	0	7340032	56	9885
2026-01-12 10:22:32.12	172.77	7.03	-42.4	-50.5	5.8	4.54e-01	0	54	0	9437184	56	9149
2026-01-12 10:22:33.13	172.79	7.10	-42.3	-50.1	6.1	3.62e-01	0	54	0	11534336	56	8678
2026-01-12 10:22:34.14	172.82	7.18	-42.2	-49.6	6.4	2.84e-01	0	54	0	13631488	56	8241
2026-01-12 10:22:35.15	172.84	7.26	-42.1	-49.1	6.9	2.07e-01	0	54	0	14680064	56	7791
2026-01-12 10:22:36.16	172.87	7.34	-42.0	-48.9	7.1	1.53e-01	0	54	0	16777216	56	7548
2026-01-12 10:22:37.17	172.90	7.42	-41.7	-48.1	7.7	1.12e-01	0	54	0	18874368	55	7347
2026-01-12 10:22:38.18	172.92	7.50	-41.7	-48.0	7.7	8.90e-02	0	54	0	20971520	55	7280
2026-01-12 10:22:39.19	172.95	7.58	-41.7	-47.9	7.9	6.77e-02	0	54	0	23068672	55	7154
2026-01-12 10:22:40.20	172.97	7.65	-41.5	-47.4	8.4	6.13e-02	0	54	0	24117248	55	6733
2026-01-12 10:22:41.21	173.00	7.73	-41.5	-47.5	8.3	5.75e-02	0	54	0	26214400	55	6824
2026-01-12 10:22:42.22	173.03	7.81	-41.5	-47.4	8.4	5.05e-02	0	54	0	28311552	54	7146
2026-01-12 10:22:43.23	173.06	7.89	-41.6	-47.8	8.0	5.69e-02	0	54	0	30408704	54	7525
2026-01-12 10:22:44.24	173.08	7.97	-41.7	-48.1	7.7	7.91e-02	0	55	0	32505856	54	7771
2026-01-12 10:22:45.25	173.11	8.05	-41.8	-48.2	7.6	1.13e-01	0	54	0	34603008	54	7867
2026-01-12 10:22:46.26	173.14	8.14	-41.5	-46.6	9.6	1.39e-02	0	54	0	35651584	54	6553
2026-01-12 10:22:47.27	173.16	8.22	-41.8	-47.3	8.8	7.95e-02	0	55	0	37748736	55	6703
2026-01-12 10:22:48.28	173.19	8.30	-42.5	-56.6	3.8	1.49e+00	0	55	104	38797312	55	19447
2026-01-12 10:22:49.29	173.22	8.38	-42.6	-51.3	5.1	1.46e+00	0	55	0	38797312	56	9958
2026-01-12 10:22:50.30	173.25	8.46	-42.2	-47.6	9.0	1.67e-02	0	55	0	40894464	55	6930
2026-01-12 10:22:51.31	173.28	8.54	-41.7	-46.6	9.8	1.14e-02	0	55	0	41943040	55	6201
2026-01-12 10:22:52.32	173.30	8.63	-41.7	-46.7	9.8	1.00e-02	0	55	0	44040192	55	6213
2026-01-12 10:22:53.33	173.33	8.71	-41.7	-46.8	9.7	8.98e-03	0	54	0	46137344	55	6299
2026-01-12 10:22:54.34	173.36	8.79	-41.6	-46.3	10.1	8.06e-03	0	55	0	48234496	55	5986
2026-01-12 10:22:55.35	173.39	8.87	-41.5	-46.3	10.2	6.25e-03	0	55	0	50331648	55	5946
2026-01-12 10:22:56.36	173.42	8.96	-41.6	-46.4	10.1	7.80e-03	0	55	0	51380224	55	6019
2026-01-12 10:22:57.37	173.45	9.04	-41.6	-46.4	10.1	6.53e-03	0	55	0	53477376	55	6037
2026-01-12 10:22:58.38	173.48	9.13	-41.6	-46.4	10.1	7.25e-03	0	55	0	55574528	55	6016
2026-01-12 10:22:59.39	173.51	9.21	-41.6	-46.4	10.2	7.65e-03	0	55	0	57671680	55	6010
2026-01-12 10:23:00.40	173.54	9.29	-41.6	-46.3	10.3	5.54e-03	0	55	0	59768832	55	5957
2026-01-12 10:23:01.41	173.56	9.38	-41.6	-46.4	10.2	4.46e-03	0	55	0	60817408	55	6001
2026-01-12 10:23:02.42	173.59	9.46	-41.6	-46.2	10.4	4.40e-03	0	55	0	62914560	55	5864
2026-01-12 10:23:03.43	173.62	9.55	-41.5	-46.1	10.6	3.28e-03	0	55	0	65011712	55	5816
2026-01-12 10:23:04.44	173.65	9.64	-41.6	-46.1	10.5	3.91e-03	0	55	0	67108864	55	5848
2026-01-12 10:23:05.45	173.68	9.72	-41.6	-46.1	10.6	3.72e-03	0	55	0	69206016	55	5810
2026-01-12 10:23:06.46	173.72	9.81	-41.5	-46.0	10.7	3.35e-03	0	55	0	70254592	55	5725
2026-01-12 10:23:07.46	173.75	9.89	-41.5	-46.0	10.7	3.17e-03	0	55	0	72351744	55	5757
2026-01-12 10:23:08.47	173.78	9.98	-41.5	-45.9	10.8	3.23e-03	0	55	0	74448896	55	5696
2026-01-12 10:23:09.48	173.81	10.07	-41.6	-46.1	10.7	2.96e-03	0	55	0	76546048	55	5831
2026-01-12 10:23:10.49	173.84	10.15	-41.6	-46.1	10.7	2.70e-03	0	55	0	78643200	55	5789
2026-01-12 10:23:11.50	173.87	10.24	-41.5	-45.9	10.9	2.89e-03	0	55	0	79691776	55	5689
2026-01-12 10:23:12.51	173.90	10.33	-41.5	-45.8	11.0	2.12e-03	0	55	0	81788928	55	5649
2026-01-12 10:23:13.52	173.93	10.42	-41.5	-45.8	11.1	1.72e-03	0	55	0	83886080	54	5927
2026-01-12 10:23:14.53	173.96	10.51	-41.5	-45.7	11.1	1.30e-03	0	55	0	85983232	54	5923
2026-01-12 10:23:15.54	174.00	10.60	-41.4	-45.7	11.2	1.56e-03	0	55	0	88080384	54	5856
2026-01-12 10:23:16.55	174.03	10.69	-41.4	-45.5	11.4	9.80e-04	0	55	0	89128960	54	5765
2026-01-12 10:23:17.56	174.06	10.78	-41.4	-45.6	11.3	9.63e-04	0	55	0	91226112	54	5835
2026-01-12 10:23:18.57	174.09	10.87	-41.4	-45.5	11.4	9.28e-04	0	55	0	93323264	54	5750
2026-01-12 10:23:19.58	174.13	10.96	-41.3	-45.4	11.5	8.97e-04	0	56	0	95420416	54	5677
2026-01-12 10:23:20.59	174.16	11.05	-41.3	-45.3	11.6	6.37e-04	0	56	0	97517568	54	5626
2026-01-12 10:23:21.60	174.19	11.14	-41.3	-45.4	11.6	7.79e-04	0	56	0	98566144	54	5665
2026-01-12 10:23:22.61	174.22	11.23	-41.2	-45.2	11.8	7.05e-04	0	56	0	100663296	54	5534
2026-01-12 10:23:23.62	174.26	11.32	-41.2	-45.1	11.8	3.89e-04	0	56	0	102760448	54	5525
2026-01-12 10:23:24.63	174.29	11.41	-41.2	-45.0	12.0	4.81e-04	0	56	0	104857600	54	5434
2026-01-12 10:23:25.63	174.32	11.50	-41.2	-45.0	12.0	3.49e-04	0	56	0	106954752	54	5433
2026-01-12 10:23:26.64	174.36	11.60	-41.2	-45.1	11.9	4.90e-04	0	56	0	109051904	54	5482
2026-01-12 10:23:27.66	174.39	11.69	-41.1	-44.9	12.0	3.07e-04	0	56	0	110100480	54	5402
2026-01-12 10:23:28.66	174.43	11.78	-41.2	-45.0	12.0	3.01e-04	0	56	0	112197632	54	5410
2026-01-12 10:23:29.67	174.46	11.88	-41.2	-44.9	12.1	2.65e-04	0	56	0	114294784	54	5400
2026-01-12 10:23:30.68	174.50	11.97	-41.1	-44.8	12.2	2.23e-04	0	56	0	116391936	54	5324
2026-01-12 10:23:31.69	174.53	12.07	-41.1	-44.8	12.2	2.03e-04	0	56	0	118489088	54	5309
2026-01-12 10:23:32.70	174.57	12.16	-41.0	-44.6	12.4	1.65e-04	0	56	0	119537664	54	5206
2026-01-12 10:23:33.71	174.60	12.26	-41.0	-44.6	12.5	1.24e-04	0	56	0	121634816	53	5466
2026-01-12 10:23:34.72	174.64	12.35	-41.0	-44.7	12.4	1.34e-04	0	56	0	123731968	53	5553
2026-01-12 10:23:35.73	174.67	12.45	-41.1	-44.7	12.4	1.77e-04	0	56	0	125829120	53	5557
2026-01-12 10:23:36.73	174.71	12.54	-41.0	-44.5	12.6	1.27e-04	0	56	0	127926272	53	5463
2026-01-12 10:23:37.74	174.74	12.64	-41.0	-44.7	12.4	1.27e-04	0	56	0	128974848	53	5538
2026-01-12 10:23:38.75	174.78	12.74	-41.0	-44.6	12.5	1.20e-04	0	56	0	131072000	53	5486
2026-01-12 10:23:39.76	174.82	12.83	-41.0	-44.6	12.5	1.27e-04	0	56	0	133169152	53	5519
2026-01-12 10:23:40.77	174.85	12.93	-41.1	-44.7	12.4	9.76e-05	0	56	0	135266304	53	5532
2026-01-12 10:23:41.78	174.89	13.03	-41.0	-44.6	12.5	1.16e-04	0	56	0	137363456	53	5502
2026-01-12 10:23:42.79	174.93	13.13	-41.0	-44.6	12.5	1.36e-04	0	56	0	138412032	53	5496
2026-01-12 10:23:43.80	174.97	13.23	-41.0	-44.5	12.7	8.39e-05	0	56	0	140509184	53	5421
2026-01-12 10:23:44.81	175.00	13.33	-41.0	-44.5	12.6	8.62e-05	0	56	0	142606336	53	5463
2026-01-12 10:23:45.82	175.04	13.42	-41.0	-44.5	12.6	8.69e-05	0	56	0	144703488	53	5452
2026-01-12 10:23:46.83	175.08	13.53	-41.0	-44.6	12.6	9.30e-05	0	56	0	146800640	53	5466
2026-01-12 10:23:47.84	175.12	13.63	-41.0	-44.6	12.6	9.00e-05	0	56	0	147849216	53	5477
2026-01-12 10:23:48.85	175.16	13.73	-41.0	-44.5	12.6	7.85e-05	0	56	0	149946368	53	5455
2026-01-12 10:23:49.86	175.20	13.83	-40.9	-44.2	12.9	5.72e-05	0	56	0	152043520	53	5265
2026-01-12 10:23:50.87	175.24	13.93	-41.0	-44.5	12.6	4.95e-05	0	56	0	154140672	53	5461
2026-01-12 10:23:51.87	175.28	14.03	-40.9	-44.3	12.9	7.09e-05	0	56	0	156237824	53	5340
2026-01-12 10:23:52.88	175.32	14.13	-41.0	-44.4	12.8	6.40e-05	0	56	0	157286400	53	5371
2026-01-12 10:23:53.89	175.36	14.24	-41.0	-44.4	12.8	4.04e-05	0	56	0	159383552	53	5384
2026-01-12 10:23:54.90	175.40	14.34	-41.0	-44.4	12.8	4.65e-05	0	56	0	161480704	53	5394
2026-01-12 10:23:55.91	175.44	14.44	-40.9	-44.3	13.0	7.40e-05	0	56	0	163577856	53	5296
2026-01-12 10:23:56.92	175.48	14.55	-40.9	-44.3	12.9	4.34e-05	0	56	0	165675008	53	5298
2026-01-12 10:23:57.93	175.52	14.65	-41.0	-44.5	12.8	6.02e-05	0	56	0	166723584	53	5421
2026-01-12 10:23:58.94	175.56	14.76	-41.0	-44.4	12.8	6.33e-05	0	57	0	168820736	53	5390
2026-01-12 10:23:59.95	175.60	14.86	-41.1	-44.6	12.7	5.64e-05	0	57	0	170917888	53	5487
2026-01-12 10:24:00.96	175.64	14.97	-41.1	-44.6	12.7	7.01e-05	0	56	0	173015040	53	5483
2026-01-12 10:24:01.98	175.68	15.08	-41.2	-44.8	12.5	1.11e-04	0	56	0	175112192	53	5600
2026-01-12 10:24:02.98	175.73	15.18	-41.1	-44.6	12.6	9.84e-05	0	56	0	177209344	53	5515
2026-01-12 10:24:03.99	175.77	15.29	-41.1	-44.7	12.5	9.68e-05	0	57	0	178257920	53	5556
2026-01-12 10:24:05.00	175.81	15.40	-41.2	-44.8	12.5	1.03e-04	0	56	0	180355072	53	5617
2026-01-12 10:24:06.02	175.86	15.51	-41.2	-44.9	12.4	1.27e-04	0	56	0	182452224	53	5671
2026-01-12 10:24:07.03	175.90	15.62	-41.3	-45.0	12.3	1.26e-04	0	56	0	184549376	53	5754
2026-01-12 10:24:08.03	175.94	15.72	-41.3	-45.0	12.3	1.50e-04	0	56	0	186646528	53	5739
2026-01-12 10:24:09.04	175.99	15.83	-41.2	-44.8	12.5	1.88e-04	0	56	0	187695104	53	5600
2026-01-12 10:24:10.05	176.03	15.94	-41.3	-44.9	12.4	1.61e-04	0	57	0	189792256	53	5678
2026-01-12 10:24:11.06	176.08	16.06	-41.3	-45.0	12.3	1.54e-04	0	57	0	191889408	53	5732
2026-01-12 10:24:12.07	176.12	16.17	-41.3	-44.9	12.4	1.37e-04	0	57	0	193986560	53	5691
2026-01-12 10:24:13.08	176.17	16.28	-41.3	-45.0	12.3	1.41e-04	0	56	0	196083712	53	5780
2026-01-12 10:24:14.09	176.21	16.39	-41.3	-45.0	12.3	2.29e-04	0	57	0	197132288	53	5742
2026-01-12 10:24:15.10	176.26	16.50	-41.4	-45.1	12.2	2.20e-04	0	57	0	199229440	53	5835
2026-01-12 10:24:16.11	176.31	16.62	-41.5	-45.4	11.9	2.45e-04	0	57	0	201326592	53	6032
2026-01-12 10:24:17.12	176.35	16.73	-41.5	-45.3	12.0	3.58e-04	0	57	0	203423744	53	5962
2026-01-12 10:24:18.13	176.40	16.84	-41.5	-45.3	12.0	3.30e-04	0	57	0	205520896	53	5971
2026-01-12 10:24:19.14	176.45	16.96	-41.6	-45.5	11.8	4.29e-04	0	57	0	206569472	53	6083
2026-01-12 10:24:20.15	176.49	17.08	-41.7	-45.7	11.7	4.39e-04	0	57	0	208666624	53	6210
2026-01-12 10:24:21.15	176.54	17.19	-41.6	-45.6	11.7	3.64e-04	0	57	0	210763776	53	6150
2026-01-12 10:24:22.16	176.59	17.31	-41.6	-45.6	11.8	5.30e-04	0	57	0	212860928	53	6168
2026-01-12 10:24:23.17	176.64	17.42	-41.7	-45.7	11.6	7.41e-04	0	57	0	214958080	54	5920
2026-01-12 10:24:24.18	176.69	17.54	-41.8	-45.8	11.5	6.48e-04	0	57	0	216006656	54	5982
2026-01-12 10:24:25.19	176.74	17.66	-41.8	-46.0	11.4	7.70e-04	0	57	0	218103808	54	6072
2026-01-12 10:24:26.20	176.79	17.78	-41.8	-46.0	11.3	6.96e-04	0	57	0	220200960	54	6097
2026-01-12 10:24:27.21	176.84	17.90	-41.7	-45.8	11.6	8.64e-04	0	57	0	222298112	54	5957
2026-01-12 10:24:28.22	176.89	18.02	-41.7	-45.8	11.6	7.62e-04	0	57	0	224395264	54	5940
2026-01-12 10:24:29.23	176.94	18.14	-41.8	-45.9	11.5	7.45e-04	0	57	0	225443840	54	6018
2026-01-12 10:24:30.24	176.99	18.26	-41.7	-45.7	11.7	7.35e-04	0	57	0	227540992	54	5906
2026-01-12 10:24:31.25	177.04	18.38	-41.8	-45.8	11.6	7.31e-04	0	57	0	229638144	54	5968
2026-01-12 10:24:32.26	177.09	18.50	-41.7	-45.7	11.7	7.90e-04	0	57	0	231735296	54	5871
2026-01-12 10:24:33.26	177.15	18.62	-41.9	-46.1	11.3	7.73e-04	0	57	0	233832448	54	6175
2026-01-12 10:24:34.28	177.20	18.75	-41.8	-45.9	11.5	7.41e-04	0	57	0	234881024	54	6005
2026-01-12 10:24:35.28	177.25	18.87	-41.8	-45.8	11.6	5.52e-04	0	57	0	236978176	54	5938
2026-01-12 10:24:36.29	177.30	18.99	-41.7	-45.7	11.7	7.21e-04	0	57	0	239075328	54	5896
2026-01-12 10:24:37.30	177.36	19.12	-41.8	-45.8	11.6	6.63e-04	0	57	0	241172480	54	5943
2026-01-12 10:24:38.31	177.41	19.24	-41.8	-45.8	11.6	6.98e-04	0	57	0	243269632	54	5959
2026-01-12 10:24:39.32	177.47	19.37	-41.8	-45.8	11.6	4.39e-04	0	57	0	245366784	54	5983
2026-01-12 10:24:40.33	177.52	19.50	-41.7	-45.7	11.7	6.11e-04	0	57	0	246415360	54	5889
2026-01-12 10:24:41.35	177.58	19.63	-41.7	-45.5	11.9	3.66e-04	0	57	0	248512512	54	5776
2026-01-12 10:24:42.36	177.64	19.75	-41.7	-45.6	11.8	4.53e-04	0	57	0	250609664	54	5831
2026-01-12 10:24:43.36	177.69	19.88	-41.7	-45.5	11.9	4.41e-04	0	57	0	252706816	54	5788
2026-01-12 10:24:44.37	177.75	20.01	-41.7	-45.6	11.8	4.04e-04	0	57	0	254803968	54	5824
2026-01-12 10:24:45.38	177.81	20.14	-41.7	-45.6	11.9	4.57e-04	0	57	0	255852544	54	5826
2026-01-12 10:24:46.39	177.87	20.27	-41.9	-46.0	11.5	4.74e-04	0	57	0	257949696	54	6070
2026-01-12 10:24:47.40	177.92	20.40	-41.7	-45.7	11.8	5.41e-04	0	57	0	260046848	54	5863
2026-01-12 10:24:48.41	177.98	20.53	-41.8	-45.8	11.7	6.03e-04	0	57	0	262144000	54	5939
2026-01-12 10:24:49.42	178.04	20.67	-41.9	-46.1	11.4	8.86e-04	0	57	0	264241152	54	6134
2026-01-12 10:24:50.43	178.10	20.80	-41.9	-46.1	11.4	1.14e-03	0	57	0	265289728	54	6140
2026-01-12 10:24:51.44	178.16	20.93	-42.0	-46.2	11.2	1.19e-03	0	57	0	267386880	54	6269
2026-01-12 10:24:52.45	178.22	21.07	-42.1	-46.4	11.1	1.18e-03	0	57	0	269484032	54	6390
2026-01-12 10:24:53.46	178.28	21.21	-42.1	-46.4	11.1	1.40e-03	0	57	0	271581184	54	6377
2026-01-12 10:24:54.47	178.35	21.34	-42.0	-46.3	11.2	1.32e-03	0	57	0	273678336	54	6317
2026-01-12 10:24:55.48	178.41	21.48	-41.9	-46.0	11.4	1.26e-03	0	57	0	274726912	54	6119
2026-01-12 10:24:56.49	178.47	21.62	-42.0	-46.2	11.4	9.15e-04	0	57	0	276824064	54	6208
2026-01-12 10:24:57.50	178.54	21.75	-41.9	-46.0	11.5	8.59e-04	0	57	0	278921216	54	6070
2026-01-12 10:24:58.51	178.60	21.89	-41.8	-45.8	11.6	6.71e-04	0	57	0	281018368	54	5985
2026-01-12 10:24:59.52	178.66	22.03	-41.8	-45.8	11.6	8.24e-04	0	57	0	283115520	54	5979
2026-01-12 10:25:00.53	178.73	22.17	-41.8	-45.7	11.8	5.52e-04	0	57	0	284164096	54	5885
2026-01-12 10:25:01.54	178.80	22.31	-41.8	-45.8	11.7	4.90e-04	0	57	0	286261248	54	5954
2026-01-12 10:25:02.55	178.86	22.46	-41.7	-45.5	12.0	4.33e-04	0	57	0	288358400	54	5773
2026-01-12 10:25:03.56	178.93	22.60	-41.6	-45.4	12.0	3.31e-04	0	57	0	290455552	54	5687
2026-01-12 10:25:04.57	179.00	22.74	-41.7	-45.5	12.0	3.28e-04	0	57	0	292552704	54	5748
2026-01-12 10:25:05.58	179.06	22.89	-41.7	-45.5	12.0	2.31e-04	0	57	0	293601280	54	5748
2026-01-12 10:25:06.59	179.13	23.03	-41.6	-45.4	12.2	1.90e-04	0	57	0	295698432	54	5687
2026-01-12 10:25:07.60	179.20	23.18	-41.5	-45.1	12.5	1.50e-04	0	57	0	297795584	54	5498
2026-01-12 10:25:08.60	179.27	23.32	-41.3	-44.8	12.8	7.70e-05	0	58	0	299892736	54	5284
2026-01-12 10:25:09.61	179.34	23.47	-41.2	-44.6	13.1	6.56e-05	0	57	0	301989888	54	5163
2026-01-12 10:25:10.62	179.41	23.62	-41.2	-44.5	13.0	3.66e-05	0	57	0	303038464	54	5156
2026-01-12 10:25:11.63	179.48	23.77	-41.2	-44.5	13.2	1.98e-05	0	58	0	305135616	54	5122
2026-01-12 10:25:12.64	179.56	23.92	-41.1	-44.4	13.2	2.67e-05	0	57	0	307232768	54	5048
2026-01-12 10:25:13.65	179.63	24.07	-41.2	-44.4	13.2	1.14e-05	0	57	0	309329920	54	5092
2026-01-12 10:25:14.66	179.70	24.22	-41.1	-44.4	13.2	3.12e-05	0	57	0	311427072	54	5065
2026-01-12 10:25:15.67	179.78	24.37	-41.1	-44.3	13.3	1.60e-05	0	58	0	312475648	54	4985
2026-01-12 10:25:16.68	179.85	24.52	-41.2	-44.5	13.2	2.13e-05	0	57	0	314572800	54	5111
2026-01-12 10:25:17.69	179.93	24.68	-41.2	-44.4	13.2	1.29e-05	0	58	0	316669952	54	5083
2026-01-12 10:25:18.70	180.01	24.83	-41.3	-44.7	12.9	3.66e-05	0	58	0	318767104	54	5220
2026-01-12 10:25:19.71	180.08	24.99	-41.3	-44.7	12.9	3.50e-05	0	57	0	320864256	54	5232
2026-01-12 10:25:20.72	180.16	25.15	-41.3	-44.6	13.1	2.74e-05	0	57	0	321912832	54	5179
2026-01-12 10:25:21.73	180.24	25.30	-41.2	-44.4	13.2	3.28e-05	0	57	0	324009984	54	5075
2026-01-12 10:25:22.74	180.32	25.46	-41.2	-44.4	13.2	4.73e-05	0	58	0	326107136	54	5100
2026-01-12 10:25:23.75	180.40	25.62	-41.2	-44.5	13.1	2.89e-05	0	57	0	328204288	54	5143
2026-01-12 10:25:24.76	180.48	25.78	-41.2	-44.5	13.1	2.21e-05	0	57	0	330301440	54	5149
2026-01-12 10:25:25.77	180.56	25.94	-41.2	-44.5	13.1	1.22e-05	0	58	0	331350016	54	5132
2026-01-12 10:25:26.78	180.65	26.10	-41.2	-44.5	13.2	1.75e-05	0	57	0	333447168	54	5107
2026-01-12 10:25:27.79	180.73	26.27	-41.2	-44.5	13.2	2.21e-05	0	58	0	335544320	54	5103
2026-01-12 10:25:28.80	180.81	26.43	-41.4	-44.8	12.8	3.50e-05	0	57	0	337641472	54	5320
2026-01-12 10:25:29.81	180.90	26.60	-41.3	-44.7	12.9	3.35e-05	0	58	0	339738624	54	5274
2026-01-12 10:25:30.82	180.98	26.76	-41.5	-45.0	12.7	3.81e-05	0	58	0	341835776	54	5418
2026-01-12 10:25:31.83	181.07	26.93	-41.3	-44.7	13.0	4.57e-05	0	58	0	342884352	54	5229
2026-01-12 10:25:32.84	181.16	27.10	-41.3	-44.6	13.1	6.56e-05	0	58	0	344981504	54	5205
2026-01-12 10:25:33.84	181.25	27.26	-41.2	-44.6	13.1	5.34e-05	0	58	0	347078656	54	5167
2026-01-12 10:25:34.85	181.34	27.43	-41.2	-44.5	13.2	2.67e-05	0	58	0	349175808	54	5126
2026-01-12 10:25:35.86	181.43	27.60	-41.3	-44.7	13.1	2.74e-05	0	58	0	351272960	54	5223
2026-01-12 10:25:36.87	181.52	27.77	-41.1	-44.3	13.4	1.83e-05	0	57	0	352321536	54	5027
2026-01-12 10:25:37.88	181.61	27.95	-41.0	-44.2	13.5	1.83e-05	0	58	0	354418688	54	4946
2026-01-12 10:25:38.89	181.70	28.12	-41.0	-44.1	13.6	1.22e-05	0	57	0	356515840	54	4897
2026-01-12 10:25:39.90	181.80	28.30	-41.0	-44.1	13.6	1.44e-05	0	58	0	358612992	53	5216
2026-01-12 10:25:40.91	181.89	28.47	-41.0	-44.1	13.6	1.06e-05	0	58	0	360710144	53	5216
2026-01-12 10:25:41.92	181.99	28.65	-40.9	-43.9	13.8	6.10e-06	0	58	0	361758720	53	5098
2026-01-12 10:25:42.94	182.09	28.83	-40.9	-43.9	13.7	4.50e-06	0	58	0	363855872	53	5096
2026-01-12 10:25:43.95	182.19	29.01	-40.8	-43.7	14.0	6.80e-06	0	58	0	365953024	53	4982
2026-01-12 10:25:44.95	182.29	29.18	-40.9	-43.9	13.8	2.20e-06	0	57	0	368050176	53	5099
2026-01-12 10:25:45.96	182.39	29.37	-40.9	-44.0	13.8	6.10e-06	0	58	0	370147328	53	5112
2026-01-12 10:25:46.97	182.49	29.55	-41.0	-44.1	13.6	3.80e-06	0	58	0	371195904	53	5217
2026-01-12 10:25:47.99	182.59	29.73	-41.4	-44.8	13.0	2.13e-05	0	58	0	373293056	53	5594
2026-01-12 10:25:49.00	182.70	29.92	-41.3	-44.7	13.0	3.73e-05	0	58	0	375390208	53	5544
2026-01-12 10:25:50.00	182.80	30.10	-41.6	-45.2	12.5	8.08e-05	0	58	0	377487360	53	5921
2026-01-12 10:25:51.01	182.91	30.29	-41.8	-45.6	12.1	1.73e-04	0	57	0	379584512	54	5813
2026-01-12 10:25:52.02	183.01	30.47	-41.9	-45.8	11.9	4.30e-04	0	58	0	380633088	54	5989
2026-01-12 10:25:53.03	183.12	30.66	-42.3	-46.5	11.2	1.17e-03	0	58	0	382730240	55	6126
2026-01-12 10:25:54.04	183.23	30.85	-42.5	-47.0	10.7	1.80e-03	0	58	0	384827392	55	6451
2026-01-12 10:25:55.05	183.34	31.04	-42.5	-47.0	10.7	1.88e-03	0	58	0	386924544	55	6446
2026-01-12 10:25:56.06	183.45	31.23	-42.4	-46.9	10.8	1.66e-03	0	58	0	389021696	55	6389
2026-01-12 10:25:57.07	183.57	31.43	-42.3	-46.6	11.1	1.67e-03	0	58	0	390070272	55	6145
2026-01-12 10:25:58.08	183.68	31.62	-42.4	-46.8	10.9	3.19e-03	0	58	0	392167424	55	6280
2026-01-12 10:25:59.09	183.80	31.82	-42.4	-46.8	10.9	2.04e-03	0	58	0	394264576	55	6299
2026-01-12 10:26:00.10	183.92	32.01	-42.6	-47.2	10.4	3.25e-03	0	58	0	396361728	55	6614
2026-01-12 10:26:01.11	184.04	32.21	-42.5	-47.1	10.6	3.29e-03	0	58	0	398458880	55	6513
2026-01-12 10:26:02.12	184.16	32.41	-42.8	-47.5	10.3	4.11e-03	0	58	0	399507456	56	6493
2026-01-12 10:26:03.13	184.28	32.61	-42.8	-47.6	10.3	6.45e-03	0	58	0	401604608	56	6516
2026-01-12 10:26:04.14	184.40	32.81	-42.8	-47.5	10.3	4.69e-03	0	58	0	403701760	56	6475
2026-01-12 10:26:05.15	184.53	33.01	-42.9	-47.7	10.2	4.42e-03	0	58	0	405798912	56	6595
2026-01-12 10:26:06.16	184.65	33.22	-42.5	-46.9	10.9	4.70e-03	0	58	0	407896064	56	6048
2026-01-12 10:26:07.17	184.78	33.42	-42.7	-47.2	10.7	3.59e-03	0	58	0	409993216	56	6251
2026-01-12 10:26:08.18	184.91	33.63	-42.6	-47.1	10.8	3.18e-03	0	58	0	411041792	56	6163
2026-01-12 10:26:09.19	185.04	33.84	-42.6	-47.0	10.8	5.00e-03	0	58	0	413138944	56	6115
2026-01-12 10:26:10.20	185.18	34.05	-42.6	-47.0	10.8	4.10e-03	0	58	0	415236096	56	6112
2026-01-12 10:26:11.21	185.31	34.26	-42.5	-46.8	11.1	1.96e-03	0	58	0	417333248	56	5941
2026-01-12 10:26:12.22	185.45	34.47	-42.6	-47.1	10.8	2.15e-03	0	58	0	419430400	56	6148
2026-01-12 10:26:13.23	185.58	34.68	-42.4	-46.5	11.4	1.24e-03	0	58	0	420478976	56	5738
2026-01-12 10:26:14.23	185.72	34.89	-42.5	-46.7	11.2	1.01e-03	0	58	0	422576128	56	5887
2026-01-12 10:26:15.24	185.86	35.11	-42.5	-46.7	11.1	1.29e-03	0	58	0	424673280	56	5893
2026-01-12 10:26:16.25	186.01	35.32	-42.7	-47.3	10.6	1.73e-03	0	58	0	426770432	56	6288
2026-01-12 10:26:17.26	186.15	35.54	-42.6	-47.0	10.9	2.52e-03	0	58	0	428867584	56	6097
2026-01-12 10:26:18.27	186.30	35.76	-42.8	-47.3	10.5	2.41e-03	0	58	0	429916160	56	6338
2026-01-12 10:26:19.28	186.45	35.98	-42.9	-47.6	10.3	3.62e-03	0	58	0	432013312	56	6503
2026-01-12 10:26:20.29	186.60	36.20	-42.8	-47.5	10.4	4.00e-03	0	58	0	434110464	56	6447
2026-01-12 10:26:21.30	186.75	36.42	-42.9	-47.8	10.1	4.77e-03	0	58	0	436207616	56	6650
2026-01-12 10:26:22.31	186.91	36.65	-42.9	-47.5	10.4	3.69e-03	0	58	0	438304768	56	6491
2026-01-12 10:26:23.32	187.06	36.87	-42.9	-47.8	10.1	6.14e-03	0	58	0	439353344	56	6648
2026-01-12 10:26:24.33	187.22	37.10	-43.1	-48.1	9.9	7.42e-03	0	58	0	441450496	56	6917
2026-01-12 10:26:25.34	187.38	37.33	-43.0	-48.1	9.7	1.20e-02	0	58	0	443547648	56	6928
2026-01-12 10:26:26.35	187.55	37.56	-43.2	-48.4	9.4	1.69e-02	0	58	0	445644800	57	6800
2026-01-12 10:26:27.36	187.71	37.79	-43.2	-48.6	9.3	1.34e-02	0	58	0	447741952	57	6893
2026-01-12 10:26:28.37	187.88	38.02	-43.1	-48.3	9.5	1.76e-02	0	58	0	448790528	57	6693
2026-01-12 10:26:29.38	188.05	38.26	-43.0	-47.8	10.0	1.24e-02	0	58	0	450887680	57	6316
2026-01-12 10:26:30.39	188.23	38.49	-42.9	-47.6	10.2	5.34e-03	0	58	0	452984832	57	6158
2026-01-12 10:26:31.40	188.40	38.73	-42.8	-47.5	10.4	3.88e-03	0	58	0	455081984	57	6107
2026-01-12 10:26:32.40	188.58	38.96	-43.0	-47.8	10.0	1.04e-02	0	58	0	457179136	57	6295
2026-01-12 10:26:33.41	188.76	39.20	-43.0	-48.0	9.9	7.58e-03	0	58	0	458227712	57	6435
2026-01-12 10:26:34.42	188.94	39.44	-43.3	-48.7	9.2	1.21e-02	0	58	0	460324864	57	7004
2026-01-12 10:26:35.43	189.13	39.68	-43.5	-49.5	8.3	4.84e-02	0	58	0	462422016	57	7632
2026-01-12 10:26:36.44	189.32	39.93	-43.5	-49.3	8.5	4.12e-02	0	58	0	464519168	57	7481
2026-01-12 10:26:37.45	189.51	40.17	-43.5	-49.4	8.4	3.94e-02	0	58	0	466616320	57	7593
2026-01-12 10:26:38.46	189.70	40.42	-43.5	-49.3	8.7	3.59e-02	0	58	0	467664896	57	7462
2026-01-12 10:26:39.47	189.90	40.66	-43.6	-49.7	8.2	5.67e-02	0	58	0	469762048	57	7824
2026-01-12 10:26:40.48	190.10	40.91	-43.5	-49.3	8.5	4.59e-02	0	58	0	471859200	57	7528
2026-01-12 10:26:41.49	190.30	41.16	-43.5	-49.3	8.5	3.54e-02	0	58	0	473956352	57	7495
2026-01-12 10:26:42.50	190.51	41.41	-43.6	-49.8	8.0	5.23e-02	0	58	0	476053504	57	7916
2026-01-12 10:26:43.51	190.72	41.66	-43.7	-50.1	7.8	6.40e-02	0	58	0	478150656	57	8252
2026-01-12 10:26:44.52	190.93	41.92	-43.6	-49.7	8.1	6.41e-02	0	58	0	479199232	58	7397
2026-01-12 10:26:45.53	191.15	42.17	-43.5	-49.3	8.5	4.73e-02	0	58	0	481296384	58	7118
2026-01-12 10:26:46.54	191.37	42.43	-43.2	-48.4	9.5	2.32e-02	0	58	0	483393536	58	6388
2026-01-12 10:26:47.55	191.59	42.69	-42.8	-47.6	10.2	9.97e-03	0	58	0	485490688	57	6139
2026-01-12 10:26:48.56	191.82	42.94	-43.0	-47.9	10.0	5.09e-03	0	58	0	487587840	57	6370
2026-01-12 10:26:49.57	192.05	43.21	-42.5	-46.7	11.2	2.37e-03	0	58	0	488636416	57	5559
2026-01-12 10:26:50.58	192.28	43.47	-42.4	-46.4	11.5	9.58e-04	0	58	0	490733568	56	5715
2026-01-12 10:26:51.59	192.52	43.73	-42.2	-46.0	12.0	6.07e-04	0	58	0	492830720	56	5438
2026-01-12 10:26:52.60	192.76	43.99	-42.2	-46.1	11.9	6.32e-04	0	58	0	494927872	56	5506
2026-01-12 10:26:53.61	193.00	44.26	-42.2	-46.1	11.9	6.56e-04	0	58	0	497025024	56	5498
2026-01-12 10:26:54.62	193.25	44.53	-42.3	-46.1	11.9	6.49e-04	0	58	0	498073600	56	5518
2026-01-12 10:26:55.63	193.51	44.79	-42.4	-46.6	11.4	4.65e-04	0	58	0	500170752	56	5811
2026-01-12 10:26:56.64	193.77	45.06	-42.6	-46.9	11.1	1.46e-03	0	58	0	502267904	56	6011
2026-01-12 10:26:57.65	194.03	45.33	-42.8	-47.4	10.7	1.99e-03	0	58	0	504365056	56	6360
2026-01-12 10:26:58.65	194.29	45.60	-42.6	-46.8	11.2	1.93e-03	0	58	0	506462208	56	5979
2026-01-12 10:26:59.66	194.56	45.87	-42.8	-47.3	10.5	4.03e-03	0	58	0	507510784	56	6295
2026-01-12 10:27:00.67	194.84	46.15	-42.8	-47.4	10.6	3.71e-03	0	58	0	509607936	56	6361
2026-01-12 10:27:01.68	195.12	46.42	-42.9	-47.7	10.4	5.89e-03	0	58	0	511705088	56	6573
2026-01-12 10:27:02.69	195.40	46.70	-43.1	-48.1	9.9	7.31e-03	0	58	0	513802240	56	6926
2026-01-12 10:27:03.70	195.69	46.97	-43.2	-48.2	9.8	7.81e-03	0	58	0	515899392	56	7001
2026-01-12 10:27:04.71	195.99	47.25	-42.9	-47.5	10.4	5.25e-03	0	58	0	516947968	56	6483
2026-01-12 10:27:05.72	196.29	47.53	-42.7	-47.1	11.0	4.82e-03	0	58	0	519045120	56	6145
2026-01-12 10:27:06.73	196.60	47.81	-42.4	-46.5	11.4	1.82e-03	0	58	0	521142272	56	5738
2026-01-12 10:27:07.74	196.91	48.09	-42.5	-46.7	11.2	1.24e-03	0	58	0	523239424	56	5920
2026-01-12 10:27:08.75	197.23	48.37	-42.4	-46.6	11.5	9.57e-04	0	58	0	525336576	56	5821
2026-01-12 10:27:09.76	197.55	48.66	-42.5	-46.8	11.2	6.32e-04	0	58	0	526385152	56	5970
2026-01-12 10:27:10.77	197.88	48.94	-42.3	-46.3	11.8	5.07e-04	0	58	0	528482304	56	5607
2026-01-12 10:27:11.78	198.21	49.22	-42.1	-45.9	12.2	3.07e-04	0	58	0	530579456	56	5350
2026-01-12 10:27:12.79	198.55	49.51	-42.1	-46.0	12.0	2.30e-04	0	58	0	532676608	55	5738
2026-01-12 10:27:13.80	198.90	49.79	-41.7	-45.4	12.5	1.58e-04	0	58	0	534773760	55	5353
2026-01-12 10:27:14.81	199.26	50.08	-41.2	-44.3	13.6	3.96e-05	0	58	0	535822336	54	5016
2026-01-12 10:27:15.82	199.62	50.37	-41.2	-44.4	13.6	1.37e-05	0	58	0	537919488	54	5070
2026-01-12 10:27:16.83	199.98	50.65	-41.1	-44.0	13.9	1.50e-06	0	58	0	540016640	54	4867
2026-01-12 10:27:17.84	200.36	50.94	-41.1	-44.1	13.7	6.80e-06	0	58	0	542113792	53	5173
2026-01-12 10:27:18.85	200.74	51.23	-41.1	-44.2	13.7	3.80e-06	0	58	0	544210944	53	5235
2026-01-12 10:27:19.86	201.13	51.52	-41.5	-45.0	13.0	9.90e-06	0	58	0	545259520	53	5730
2026-01-12 10:27:20.87	201.53	51.81	-41.7	-45.3	12.6	1.33e-04	0	58	0	547356672	54	5629
2026-01-12 10:27:21.88	201.93	52.10	-41.3	-44.6	13.3	5.18e-05	0	58	0	549453824	54	5193
2026-01-12 10:27:22.88	202.34	52.39	-40.4	-43.0	14.9	7.60e-06	0	58	0	551550976	52	4829
2026-01-12 10:27:23.89	202.76	52.68	-40.0	-42.5	15.4	0.00e+00	0	58	0	553648128	52	4556
2026-01-12 10:27:24.90	203.19	52.97	-39.7	-42.0	16.0	0.00e+00	0	58	0	555745280	51	4557
2026-01-12 10:27:25.91	203.63	53.26	-39.4	-41.5	16.5	0.00e+00	0	58	0	556793856	50	4584
2026-01-12 10:27:26.92	204.07	53.55	-39.2	-41.2	16.8	0.00e+00	0	58	0	558891008	50	4436
2026-01-12 10:27:27.93	204.53	53.84	-39.2	-41.4	16.7	0.00e+00	0	58	0	560988160	50	4495
2026-01-12 10:27:28.94	204.99	54.13	-39.5	-41.7	16.3	0.00e+00	0	58	0	563085312	50	4698
2026-01-12 10:27:29.95	205.46	54.42	-39.8	-42.1	15.9	0.00e+00	0	58	0	565182464	50	4912
2026-01-12 10:27:30.96	205.95	54.71	-40.1	-42.5	15.6	0.00e+00	0	58	0	566231040	50	5147
2026-01-12 10:27:31.97	206.44	55.00	-40.4	-43.0	15.1	0.00e+00	0	58	0	568328192	51	5117
2026-01-12 10:27:32.98	206.94	55.29	-40.5	-43.1	14.9	0.00e+00	0	58	0	570425344	51	5213
2026-01-12 10:27:33.99	207.45	55.58	-40.3	-42.8	15.2	0.00e+00	0	58	0	572522496	51	5026
2026-01-12 10:27:35.00	207.98	55.86	-40.5	-43.1	14.9	0.00e+00	0	58	0	574619648	51	5204
2026-01-12 10:27:36.01	208.51	56.15	-40.4	-43.0	15.0	7.00e-07	0	58	0	575668224	51	5118
2026-01-12 10:27:37.01	209.05	56.43	-40.4	-42.9	15.2	0.00e+00	0	58	0	577765376	51	5092
2026-01-12 10:27:38.02	209.61	56.72	-40.3	-42.8	15.2	0.00e+00	0	58	0	579862528	51	5020
2026-01-12 10:27:39.03	210.18	57.00	-40.0	-42.5	15.6	0.00e+00	0	58	0	581959680	51	4821
2026-01-12 10:27:40.05	210.76	57.28	-40.2	-42.7	15.3	0.00e+00	0	58	0	584056832	51	4945
2026-01-12 10:27:41.05	211.35	57.56	-40.2	-42.6	15.4	0.00e+00	0	58	0	585105408	51	4917
2026-01-12 10:27:42.06	211.95	57.84	-40.2	-42.7	15.3	0.00e+00	0	58	0	587202560	51	4956
2026-01-12 10:27:43.07	212.57	58.12	-40.5	-43.2	14.9	0.00e+00	0	58	0	589299712	51	5249
2026-01-12 10:27:44.08	213.20	58.39	-40.8	-43.7	14.3	0.00e+00	0	58	0	591396864	52	5234
2026-01-12 10:27:45.09	213.84	58.67	-41.0	-44.1	13.9	2.20e-06	0	58	0	593494016	52	5495
2026-01-12 10:27:46.10	214.49	58.94	-41.0	-44.0	14.0	2.20e-06	0	58	0	594542592	52	5426
2026-01-12 10:27:47.11	215.16	59.21	-41.0	-44.0	14.0	2.20e-06	0	58	0	596639744	52	5435
2026-01-12 10:27:48.12	215.85	59.48	-40.8	-43.7	14.3	7.00e-07	0	58	0	598736896	52	5234
2026-01-12 10:27:49.13	216.54	59.74	-41.2	-44.2	13.8	7.00e-07	0	58	0	600834048	52	5547
2026-01-12 10:27:50.14	217.25	60.00	-41.2	-44.4	13.5	8.30e-06	0	58	0	602931200	53	5381
2026-01-12 10:27:51.15	217.98	60.26	-41.5	-44.8	13.1	1.75e-05	0	58	0	603979776	53	5650
2026-01-12 10:27:52.16	218.72	60.52	-41.4	-44.7	13.3	1.37e-05	0	58	0	606076928	53	5538
2026-01-12 10:27:53.17	219.47	60.77	-41.2	-44.3	13.6	9.90e-06	0	58	0	608174080	53	5313
2026-01-12 10:27:54.18	220.24	61.02	-41.2	-44.2	13.7	1.50e-06	0	58	0	610271232	53	5272
2026-01-12 10:27:55.19	221.03	61.26	-41.2	-44.3	13.5	9.10e-06	0	58	0	612368384	53	5338
2026-01-12 10:27:56.20	221.83	61.50	-40.8	-43.6	14.3	1.50e-06	0	58	0	613416960	53	4874
2026-01-12 10:27:57.21	222.64	61.74	-40.8	-43.6	14.3	0.00e+00	0	58	0	615514112	53	4902
2026-01-12 10:27:58.22	223.47	61.97	-40.5	-44.1	13.7	0.00e+00	0	58	0	617611264	53	5210
2026-01-12 10:27:59.23	224.32	62.20	-41.4	-44.7	13.2	2.44e-05	0	58	0	619708416	53	5547
2026-01-12 10:28:00.24	225.18	62.42	-41.3	-44.4	13.5	3.35e-05	0	58	0	621805568	53	5393
2026-01-12 10:28:01.25	226.06	62.64	-40.9	-43.8	14.1	1.14e-05	0	58	0	623902720	53	4993
2026-01-12 10:28:02.26	226.95	62.86	-40.8	-43.7	14.2	3.00e-06	0	58	0	624951296	53	4939
2026-01-12 10:28:03.27	227.86	63.07	-40.7	-43.5	14.5	0.00e+00	0	58	0	627048448	53	4832
2026-01-12 10:28:04.28	228.79	63.27	-40.5	-43.2	14.7	7.00e-07	0	58	0	629145600	52	4937
2026-01-12 10:28:05.29	229.73	63.47	-40.1	-42.6	15.3	0.00e+00	0	58	0	631242752	52	4635
2026-01-12 10:28:06.29	230.68	63.66	-40.1	-42.6	15.4	0.00e+00	0	58	0	633339904	51	4884
2026-01-12 10:28:07.30	231.65	63.84	-40.0	-42.4	15.6	7.00e-07	0	58	0	634388480	51	4790
2026-01-12 10:28:08.31	232.64	64.02	-39.9	-42.3	15.7	0.00e+00	0	58	0	636485632	51	4724
2026-01-12 10:28:09.32	233.64	64.20	-40.4	-43.1	14.9	0.00e+00	0	58	0	638582784	51	5196
2026-01-12 10:28:10.33	234.66	64.36	-41.2	-44.3	13.7	3.80e-06	0	59	0	640679936	52	5608
2026-01-12 10:28:11.34	235.69	64.52	-41.8	-45.4	12.5	3.50e-05	0	58	0	642777088	54	5699
2026-01-12 10:28:12.35	236.74	64.67	-41.8	-45.5	12.5	1.20e-04	0	58	0	643825664	54	5729
2026-01-12 10:28:13.36	237.80	64.82	-41.4	-44.7	13.2	3.05e-05	0	58	0	645922816	53	5568
2026-01-12 10:28:14.37	238.87	64.96	-40.8	-43.6	14.2	5.30e-06	0	58	0	648019968	52	5215
2026-01-12 10:28:15.38	239.96	65.09	-40.8	-43.7	14.2	3.80e-06	0	58	0	650117120	52	5246
2026-01-12 10:28:16.39	241.06	65.21	-41.6	-45.0	12.8	1.67e-05	0	58	0	652214272	53	5777
2026-01-12 10:28:17.40	242.17	65.32	-42.1	-46.1	11.8	2.21e-04	0	58	0	653262848	54	6183
2026-01-12 10:28:18.41	243.29	65.43	-42.0	-45.9	12.1	3.65e-04	0	58	0	655360000	55	5660
2026-01-12 10:28:19.42	244.42	65.53	-41.5	-45.0	12.9	5.34e-05	0	58	0	657457152	54	5427
2026-01-12 10:28:20.43	245.56	65.61	-41.7	-45.9	11.9	2.49e-04	0	58	0	659554304	54	6031
2026-01-12 10:28:21.44	246.71	65.69	-42.1	-46.1	11.7	9.56e-04	0	59	0	661651456	55	5833
2026-01-12 10:28:22.45	247.86	65.77	-41.7	-45.2	12.7	1.36e-04	0	59	0	662700032	54	5540
2026-01-12 10:28:23.46	249.03	65.83	-41.6	-45.1	12.8	5.95e-05	0	58	0	664797184	53	5811
2026-01-12 10:28:24.46	250.19	65.88	-41.7	-45.1	12.8	9.68e-05	0	58	0	666894336	54	5496
2026-01-12 10:28:25.47	251.36	65.93	-41.6	-45.0	12.8	1.74e-04	0	58	0	668991488	53	5788
2026-01-12 10:28:26.48	252.54	65.96	-41.6	-45.0	12.9	7.47e-05	0	58	0	671088640	54	5448
2026-01-12 10:28:27.50	253.74	65.99	-41.5	-44.9	13.0	2.82e-05	0	58	0	672137216	54	5373
2026-01-12 10:28:28.50	254.91	66.01	-41.1	-44.2	13.7	2.82e-05	0	58	0	674234368	53	5270
2026-01-12 10:28:29.51	256.10	66.01	-41.1	-44.1	13.8	5.30e-06	0	58	0	676331520	53	5193
2026-01-12 10:28:30.52	257.28	66.01	-41.0	-44.0	14.0	1.60e-05	0	58	0	678428672	53	5116
2026-01-12 10:28:31.53	258.47	66.00	-41.5	-44.8	13.2	6.10e-06	0	58	0	680525824	53	5646
2026-01-12 10:28:32.54	259.65	65.98	-42.0	-46.0	11.7	2.64e-04	0	59	0	681574400	54	6098
2026-01-12 10:28:33.55	260.83	65.95	-41.3	-44.5	13.3	1.54e-04	0	58	0	683671552	53	5436
2026-01-12 10:28:34.56	262.01	65.91	-40.5	-43.1	14.8	9.10e-06	0	58	0	685768704	52	4900
2026-01-12 10:28:35.57	263.19	65.87	-40.9	-43.9	14.0	3.00e-06	0	58	0	687865856	52	5362
2026-01-12 10:28:36.58	264.35	65.81	-41.6	-45.1	12.8	2.59e-05	0	58	0	689963008	53	5818
2026-01-12 10:28:37.59	265.51	65.74	-41.4	-44.6	13.4	4.04e-05	0	58	0	692060160	53	5488
2026-01-12 10:28:38.60	266.67	65.67	-41.0	-44.0	13.9	3.80e-06	0	59	0	693108736	52	5457
2026-01-12 10:28:39.61	267.81	65.59	-41.1	-44.2	13.6	6.80e-06	0	59	0	695205888	53	5251
2026-01-12 10:28:40.62	268.95	65.50	-40.7	-43.6	14.3	2.20e-06	0	59	0	697303040	53	4894
2026-01-12 10:28:41.63	270.08	65.40	-39.9	-42.3	15.6	0.00e+00	0	58	0	699400192	51	4749
2026-01-12 10:28:42.64	271.19	65.29	-39.8	-42.0	16.0	0.00e+00	0	58	0	701497344	51	4580
2026-01-12 10:28:43.65	272.30	65.17	-40.3	-42.7	15.4	0.00e+00	0	58	0	702545920	51	4974
2026-01-12 10:28:44.66	273.39	65.05	-40.7	-43.4	14.7	0.00e+00	0	58	0	704643072	51	5341
2026-01-12 10:28:45.67	274.47	64.92	-40.7	-43.5	14.5	1.50e-06	0	58	0	706740224	52	5158
2026-01-12 10:28:46.68	275.54	64.78	-40.7	-43.4	14.6	7.00e-07	0	58	0	708837376	52	5074
2026-01-12 10:28:47.69	276.60	64.63	-41.0	-44.0	13.9	0.00e+00	0	58	0	710934528	52	5454
2026-01-12 10:28:48.70	277.64	64.47	-41.2	-44.4	13.6	7.60e-06	0	58	0	711983104	53	5343
2026-01-12 10:28:49.71	278.66	64.31	-41.0	-43.9	14.1	8.30e-06	0	59	0	714080256	53	5069
2026-01-12 10:28:50.72	279.68	64.14	-40.8	-43.6	14.3	3.00e-06	0	58	0	716177408	53	4907
2026-01-12 10:28:51.73	280.67	63.97	-40.4	-43.0	14.9	7.00e-07	0	58	0	718274560	52	4836
2026-01-12 10:28:52.74	281.66	63.79	-39.9	-42.2	15.8	0.00e+00	0	58	0	720371712	51	4696
2026-01-12 10:28:53.75	282.62	63.60	-40.2	-42.7	15.3	0.00e+00	0	58	0	721420288	51	4950
2026-01-12 10:28:54.76	283.57	63.41	-41.1	-44.1	13.9	7.00e-07	0	58	0	723517440	52	5494
2026-01-12 10:28:55.77	284.51	63.21	-41.6	-45.0	13.0	1.90e-05	0	59	0	725614592	53	5764
2026-01-12 10:28:56.78	285.43	63.00	-41.2	-44.3	13.6	1.90e-05	0	58	0	727711744	53	5333
2026-01-12 10:28:57.78	286.32	62.80	-40.9	-43.8	14.1	3.00e-06	0	59	0	729808896	53	5007
2026-01-12 10:28:58.79	287.21	62.58	-41.2	-44.3	13.6	5.30e-06	0	59	0	730857472	53	5309
2026-01-12 10:28:59.80	288.08	62.36	-41.0	-44.0	14.0	9.10e-06	0	58	0	732954624	53	5134
2026-01-12 10:29:00.81	288.94	62.14	-40.6	-43.3	14.7	1.50e-06	0	58	0	735051776	53	4743
2026-01-12 10:29:01.82	289.78	61.91	-40.5	-43.2	14.8	0.00e+00	0	58	0	737148928	52	4963
2026-01-12 10:29:02.83	290.60	61.67	-41.1	-44.1	13.8	1.50e-06	0	59	0	739246080	52	5487
2026-01-12 10:29:03.84	291.41	61.43	-40.1	-42.6	15.4	0.00e+00	0	58	0	740294656	52	4601
2026-01-12 10:29:04.85	292.21	61.19	-39.4	-41.6	16.5	0.00e+00	0	58	0	742391808	50	4604
2026-01-12 10:29:05.86	292.99	60.95	-39.7	-42.0	16.1	0.00e+00	0	58	0	744488960	50	4833
2026-01-12 10:29:06.86	293.74	60.70	-40.3	-42.8	15.3	0.00e+00	0	58	0	746586112	51	5026
2026-01-12 10:29:07.87	294.49	60.45	-40.2	-42.6	15.4	0.00e+00	0	59	0	748683264	51	4917
2026-01-12 10:29:08.88	295.23	60.19	-40.1	-42.5	15.6	0.00e+00	0	58	0	749731840	51	4856
2026-01-12 10:29:09.89	295.95	59.93	-40.1	-42.6	15.5	0.00e+00	0	58	0	751828992	51	4901
2026-01-12 10:29:10.90	296.65	59.67	-39.8	-42.2	15.9	0.00e+00	0	58	0	753926144	51	4666
2026-01-12 10:29:11.91	297.34	59.41	-39.1	-41.1	16.9	0.00e+00	0	58	0	756023296	50	4374
2026-01-12 10:29:12.92	298.02	59.14	-39.5	-41.8	16.3	0.00e+00	0	58	0	758120448	50	4719
2026-01-12 10:29:13.93	298.68	58.87	-39.8	-42.2	15.9	0.00e+00	0	59	0	760217600	50	4962
2026-01-12 10:29:14.94	299.33	58.60	-39.9	-42.4	15.6	7.00e-07	0	58	0	761266176	50	5094
2026-01-12 10:29:15.95	299.97	58.33	-39.6	-42.0	16.1	0.00e+00	0	58	0	763363328	50	4835
2026-01-12 10:29:16.96	300.60	58.05	-39.4	-41.6	16.5	0.00e+00	0	58	0	765460480	50	4632
2026-01-12 10:29:17.98	301.21	57.77	-39.6	-41.8	16.3	0.00e+00	0	58	0	767557632	50	4732
2026-01-12 10:29:18.98	301.81	57.50	-40.3	-42.8	15.4	0.00e+00	0	58	0	769654784	50	5328
2026-01-12 10:29:19.99	302.39	57.22	-40.3	-43.1	15.0	0.00e+00	0	58	0	770703360	51	5175
2026-01-12 10:29:21.00	302.97	56.94	-39.4	-42.5	15.4	0.00e+00	0	59	0	772800512	50	5105
2026-01-12 10:29:22.01	303.53	56.65	-38.6	-43.0	14.2	7.00e-07	0	58	0	774897664	49	5780
2026-01-12 10:29:23.02	304.08	56.37	-38.3	-43.4	13.5	2.20e-06	0	58	0	776994816	48	6405
2026-01-12 10:29:24.03	304.63	56.09	-39.2	-43.1	14.3	2.20e-06	0	59	0	779091968	48	6153
2026-01-12 10:29:25.04	305.16	55.80	-40.2	-42.6	15.5	0.00e+00	0	58	0	780140544	51	4922
2026-01-12 10:29:26.05	305.68	55.51	-38.6	-42.4	15.0	0.00e+00	0	58	0	782237696	49	5367
2026-01-12 10:29:27.06	306.18	55.23	-36.9	-42.0	14.4	0.00e+00	0	58	0	784334848	45	6444
2026-01-12 10:29:28.07	306.68	54.94	-36.5	-41.7	14.4	0.00e+00	0	58	0	786432000	44	6629
2026-01-12 10:29:29.08	307.17	54.65	-37.4	-41.8	15.0	0.00e+00	0	59	0	788529152	45	6294
2026-01-12 10:29:30.09	307.65	54.36	-39.6	-43.6	13.9	0.00e+00	0	59	0	789577728	49	6151
2026-01-12 10:29:31.10	308.12	54.07	-41.0	-44.7	13.1	9.90e-06	0	58	0	791674880	52	5918
2026-01-12 10:29:32.10	308.58	53.79	-40.6	-44.2	13.5	1.98e-05	0	58	0	793772032	52	5568
2026-01-12 10:29:33.11	309.03	53.50	-39.6	-42.7	15.1	1.50e-06	0	58	0	795869184	51	4973
2026-01-12 10:29:34.12	309.47	53.21	-39.9	-43.3	14.5	0.00e+00	0	59	0	797966336	51	5297
2026-01-12 10:29:35.14	309.91	52.92	-40.5	-43.9	13.9	1.50e-06	0	59	0	799014912	51	5692
2026-01-12 10:29:36.14	310.33	52.63	-40.8	-44.0	13.8	1.06e-05	0	58	0	801112064	52	5432
2026-01-12 10:29:37.15	310.75	52.34	-40.5	-43.4	14.6	0.00e+00	0	58	0	803209216	52	5043
2026-01-12 10:29:38.16	311.16	52.05	-40.6	-43.5	14.6	0.00e+00	0	58	0	805306368	52	5103
2026-01-12 10:29:39.17	311.56	51.76	-41.3	-44.5	13.5	3.80e-06	0	59	0	807403520	53	5447
2026-01-12 10:29:40.18	311.95	51.47	-41.3	-44.5	13.5	9.90e-06	0	59	0	808452096	53	5445
2026-01-12 10:29:41.19	312.34	51.19	-40.5	-43.2	14.8	0.00e+00	0	58	0	810549248	53	4673
2026-01-12 10:29:42.20	312.72	50.90	-40.4	-42.9	15.1	0.00e+00	0	58	0	812646400	52	4812
2026-01-12 10:29:43.21	313.09	50.61	-40.8	-43.6	14.4	0.00e+00	0	59	0	814743552	52	5188
2026-01-12 10:29:44.22	313.46	50.33	-41.2	-44.4	13.7	3.00e-06	0	58	0	816840704	53	5356
2026-01-12 10:29:45.23	313.81	50.04	-41.0	-44.0	14.1	8.30e-06	0	59	0	817889280	53	5116
2026-01-12 10:29:46.24	314.17	49.75	-41.5	-44.8	13.3	2.20e-06	0	58	0	819986432	53	5620
2026-01-12 10:29:47.25	314.51	49.47	-41.9	-45.5	12.5	4.88e-05	0	58	0	822083584	54	5768
2026-01-12 10:29:48.26	314.85	49.19	-41.9	-45.6	12.4	8.39e-05	0	59	0	824180736	54	5839
2026-01-12 10:29:49.27	315.18	48.90	-41.5	-44.8	13.2	7.85e-05	0	58	0	826277888	54	5313
2026-01-12 10:29:50.27	315.51	48.62	-41.3	-44.3	13.8	5.30e-06	0	59	0	828375040	54	5036
2026-01-12 10:29:51.29	315.83	48.34	-41.2	-44.3	13.8	8.30e-06	0	59	0	829423616	54	5024
2026-01-12 10:29:52.30	316.15	48.06	-41.3	-44.5	13.6	6.10e-06	0	59	0	831520768	54	5108
2026-01-12 10:29:53.31	316.46	47.78	-41.1	-44.1	14.0	1.50e-06	0	59	0	833617920	54	4902
2026-01-12 10:29:54.32	316.76	47.50	-41.3	-44.4	13.7	2.20e-06	0	58	0	835715072	54	5069
2026-01-12 10:29:55.33	317.06	47.23	-41.7	-45.1	13.0	1.22e-05	0	58	0	837812224	54	5478
2026-01-12 10:29:56.34	317.35	46.95	-42.3	-46.2	11.8	2.53e-04	0	59	0	838860800	55	5895
2026-01-12 10:29:57.34	317.64	46.68	-43.0	-47.7	10.4	2.00e-03	0	58	0	840957952	56	6637
2026-01-12 10:29:58.35	317.92	46.40	-43.3	-48.4	9.7	1.23e-02	0	59	0	843055104	57	6769
2026-01-12 10:29:59.36	318.20	46.13	-43.2	-48.1	10.0	9.94e-03	0	58	0	845152256	57	6515
2026-01-12 10:30:00.37	318.48	45.86	-42.6	-46.8	11.3	2.62e-03	0	58	0	846200832	57	5636
2026-01-12 10:30:01.38	318.75	45.59	-42.5	-46.6	11.5	6.27e-04	0	59	0	848297984	56	5825
2026-01-12 10:30:02.39	319.01	45.32	-42.2	-46.0	12.2	4.27e-04	0	59	0	850395136	56	5443
2026-01-12 10:30:03.40	319.27	45.05	-42.2	-46.0	12.2	3.38e-04	0	59	0	852492288	56	5449
2026-01-12 10:30:04.41	319.53	44.78	-42.3	-46.2	12.0	3.59e-04	0	59	0	854589440	56	5546
2026-01-12 10:30:05.42	319.78	44.51	-42.6	-46.8	11.4	3.82e-04	0	58	0	856686592	56	5965
2026-01-12 10:30:06.43	320.03	44.25	-43.0	-47.7	10.5	2.83e-03	0	59	0	857735168	56	6597
2026-01-12 10:30:07.43	320.27	43.99	-43.0	-47.8	10.3	6.77e-03	0	58	0	859832320	56	6689
2026-01-12 10:30:08.44	320.51	43.73	-42.8	-47.2	10.9	5.00e-03	0	59	0	861929472	56	6215
2026-01-12 10:30:09.45	320.75	43.47	-42.4	-46.4	11.8	7.97e-04	0	58	0	864026624	56	5658
2026-01-12 10:30:10.46	320.98	43.21	-42.1	-45.8	12.4	2.10e-04	0	59	0	866123776	56	5319
2026-01-12 10:30:11.47	321.21	42.95	-42.4	-46.2	11.8	2.20e-04	0	59	0	867172352	56	5587
2026-01-12 10:30:12.48	321.43	42.69	-42.6	-46.9	11.3	8.34e-04	0	59	0	869269504	56	5995
2026-01-12 10:30:13.49	321.66	42.43	-42.9	-47.5	10.6	3.03e-03	0	59	0	871366656	56	6457
2026-01-12 10:30:14.50	321.87	42.18	-42.7	-47.0	11.1	3.17e-03	0	58	0	873463808	56	6093
2026-01-12 10:30:15.51	322.09	41.93	-42.1	-45.8	12.4	7.90e-04	0	59	0	875560960	56	5298
2026-01-12 10:30:16.52	322.30	41.67	-41.5	-44.7	13.3	4.04e-05	0	59	0	876609536	55	4966
2026-01-12 10:30:17.53	322.51	41.42	-41.0	-43.9	14.1	9.10e-06	0	59	0	878706688	54	4807
2026-01-12 10:30:18.54	322.72	41.17	-41.0	-44.0	14.0	0.00e+00	0	59	0	880803840	53	5119
2026-01-12 10:30:19.55	322.92	40.92	-41.3	-44.4	13.7	4.50e-06	0	59	0	882900992	53	5342
2026-01-12 10:30:20.56	323.12	40.68	-42.0	-45.7	12.4	4.50e-05	0	58	0	884998144	54	5921
2026-01-12 10:30:21.56	323.31	40.43	-42.7	-47.3	10.7	9.16e-04	0	59	0	886046720	55	6664
2026-01-12 10:30:22.57	323.51	40.19	-43.5	-49.3	8.8	2.05e-02	0	59	0	888143872	57	7466
2026-01-12 10:30:23.58	323.70	39.95	-43.7	-49.8	8.2	4.38e-02	0	59	0	890241024	57	7955
2026-01-12 10:30:24.60	323.89	39.70	-43.5	-49.2	8.8	3.99e-02	0	59	0	892338176	57	7399
2026-01-12 10:30:25.60	324.07	39.47	-43.0	-47.7	10.3	1.13e-02	0	59	0	894435328	57	6258
2026-01-12 10:30:26.61	324.25	39.23	-42.1	-45.7	12.5	5.07e-04	0	58	0	895483904	56	5254
2026-01-12 10:30:27.62	324.43	38.99	-41.2	-44.2	13.8	1.90e-05	0	59	0	897581056	54	4978
2026-01-12 10:30:28.63	324.61	38.75	-40.8	-43.7	14.3	1.50e-06	0	58	0	899678208	53	4936
2026-01-12 10:30:29.64	324.78	38.52	-40.9	-43.8	14.3	0.00e+00	0	59	0	901775360	53	5002
2026-01-12 10:30:30.65	324.96	38.29	-41.3	-44.6	13.4	6.80e-06	0	59	0	903872512	53	5470
2026-01-12 10:30:31.66	325.13	38.05	-42.4	-46.5	11.5	5.34e-05	0	58	0	904921088	55	6114
2026-01-12 10:30:32.67	325.29	37.82	-43.3	-48.7	9.4	9.41e-03	0	59	0	907018240	57	6962
2026-01-12 10:30:33.68	325.46	37.59	-43.4	-49.0	9.0	2.54e-02	0	59	0	909115392	57	7284
2026-01-12 10:30:34.69	325.62	37.37	-43.1	-48.2	9.8	2.25e-02	0	59	0	911212544	57	6609
2026-01-12 10:30:35.70	325.78	37.14	-42.2	-46.1	12.0	1.69e-03	0	58	0	913309696	56	5503
2026-01-12 10:30:36.71	325.94	36.91	-41.1	-44.2	13.8	2.28e-05	0	59	0	914358272	54	4951
2026-01-12 10:30:37.72	326.10	36.69	-40.9	-43.8	14.2	2.20e-06	0	59	0	916455424	53	4984
2026-01-12 10:30:38.73	326.25	36.47	-40.7	-43.5	14.5	7.00e-07	0	59	0	918552576	53	4847
2026-01-12 10:30:39.74	326.41	36.24	-41.2	-44.3	13.8	7.00e-07	0	59	0	920649728	53	5280
2026-01-12 10:30:40.75	326.56	36.02	-41.6	-45.1	12.9	1.83e-05	0	59	0	922746880	53	5820
2026-01-12 10:30:41.76	326.71	35.81	-42.3	-46.4	11.6	1.73e-04	0	58	0	924844032	55	6012
2026-01-12 10:30:42.77	326.85	35.59	-42.5	-47.0	11.0	1.06e-03	0	59	0	925892608	55	6448
2026-01-12 10:30:43.78	327.00	35.37	-42.7	-47.2	10.7	1.65e-03	0	59	0	927989760	55	6643
2026-01-12 10:30:44.79	327.14	35.16	-42.7	-47.2	10.8	4.29e-03	0	59	0	930086912	56	6269
2026-01-12 10:30:45.80	327.28	34.94	-42.3	-46.3	11.7	9.47e-04	0	59	0	932184064	56	5650
2026-01-12 10:30:46.81	327.42	34.73	-42.2	-46.0	12.1	4.16e-04	0	59	0	934281216	56	5431
2026-01-12 10:30:47.82	327.56	34.52	-41.7	-45.3	12.7	2.13e-04	0	58	0	935329792	55	5288
2026-01-12 10:30:48.83	327.70	34.31	-41.7	-45.2	12.7	4.73e-05	0	59	0	937426944	55	5261
2026-01-12 10:30:49.84	327.83	34.10	-41.6	-45.0	12.9	5.26e-05	0	59	0	939524096	55	5139
2026-01-12 10:30:50.85	327.96	33.89	-41.3	-44.4	13.5	1.98e-05	0	59	0	941621248	54	5098
2026-01-12 10:30:51.86	328.09	33.69	-41.5	-44.9	13.0	3.28e-05	0	59	0	943718400	54	5352
2026-01-12 10:30:52.87	328.22	33.48	-41.6	-45.0	12.9	3.05e-05	0	59	0	944766976	54	5462
2026-01-12 10:30:53.88	328.35	33.28	-41.9	-45.6	12.4	7.85e-05	0	59	0	946864128	54	5797
2026-01-12 10:30:54.89	328.48	33.08	-41.7	-45.3	12.7	8.31e-05	0	59	0	948961280	54	5607
2026-01-12 10:30:55.90	328.60	32.87	-41.8	-45.4	12.5	1.16e-04	0	59	0	951058432	54	5690
2026-01-12 10:30:56.91	328.73	32.67	-41.7	-45.2	12.7	1.27e-04	0	59	0	953155584	54	5590
2026-01-12 10:30:57.92	328.85	32.48	-41.5	-44.9	13.1	5.26e-05	0	59	0	954204160	54	5363
2026-01-12 10:30:58.93	328.97	32.28	-41.6	-45.0	12.9	2.13e-05	0	59	0	956301312	54	5445
2026-01-12 10:30:59.94	329.09	32.08	-41.5	-44.8	13.2	2.82e-05	0	59	0	958398464	54	5310
2026-01-12 10:31:00.95	329.20	31.89	-41.5	-44.9	13.0	4.11e-05	0	59	0	960495616	54	5368
2026-01-12 10:31:01.96	329.32	31.69	-41.7	-45.2	12.7	7.47e-05	0	58	0	962592768	54	5549
2026-01-12 10:31:02.97	329.44	31.50	-42.1	-46.1	11.8	1.97e-04	0	58	0	963641344	54	6139
2026-01-12 10:31:03.98	329.55	31.31	-42.3	-46.5	11.4	5.13e-04	0	59	0	965738496	55	6095
2026-01-12 10:31:04.99	329.66	31.12	-42.5	-47.0	10.9	1.19e-03	0	58	0	967835648	55	6440
2026-01-12 10:31:05.99	329.77	30.93	-42.9	-47.7	10.2	4.29e-03	0	59	0	969932800	56	6593
2026-01-12 10:31:07.00	329.88	30.74	-42.7	-47.3	10.6	3.40e-03	0	59	0	972029952	56	6343
2026-01-12 10:31:08.01	329.99	30.55	-42.9	-47.7	10.3	5.36e-03	0	59	0	973078528	56	6572
2026-01-12 10:31:09.02	330.10	30.37	-42.8	-47.4	10.5	5.06e-03	0	59	0	975175680	56	6414
2026-01-12 10:31:10.03	330.20	30.18	-42.5	-46.8	11.2	1.97e-03	0	59	0	977272832	56	5959
2026-01-12 10:31:11.04	330.31	30.00	-42.5	-46.8	11.2	1.39e-03	0	59	0	979369984	56	5941
2026-01-12 10:31:12.05	330.41	29.81	-42.3	-46.3	11.7	1.21e-03	0	58	0	981467136	56	5606
2026-01-12 10:31:13.06	330.52	29.63	-42.3	-46.3	11.7	4.45e-04	0	59	0	982515712	56	5641
2026-01-12 10:31:14.07	330.62	29.45	-42.1	-46.0	12.0	3.62e-04	0	59	0	984612864	56	5444
2026-01-12 10:31:15.08	330.72	29.27	-42.1	-46.0	12.0	3.00e-04	0	59	0	986710016	56	5419
2026-01-12 10:31:16.09	330.82	29.09	-42.0	-45.7	12.2	2.58e-04	0	59	0	988807168	56	5279
2026-01-12 10:31:17.09	330.91	28.92	-42.2	-46.2	11.7	3.55e-04	0	58	0	990904320	56	5581
2026-01-12 10:31:18.10	331.01	28.74	-42.4	-46.5	11.4	6.42e-04	0	58	0	993001472	56	5759
2026-01-12 10:31:19.11	331.11	28.56	-42.2	-46.2	11.8	5.79e-04	0	59	0	994050048	56	5556
2026-01-12 10:31:20.12	331.20	28.39	-42.5	-46.8	11.1	1.05e-03	0	59	0	996147200	56	5955
2026-01-12 10:31:21.13	331.30	28.22	-42.4	-46.7	11.3	1.20e-03	0	59	0	998244352	56	5885
2026-01-12 10:31:22.14	331.39	28.04	-42.4	-46.7	11.3	1.37e-03	0	58	0	1000341504	56	5887
2026-01-12 10:31:23.15	331.48	27.87	-42.6	-47.1	10.8	2.15e-03	0	58	0	1002438656	56	6190
2026-01-12 10:31:24.16	331.58	27.70	-42.2	-46.2	11.7	6.90e-04	0	59	0	1003487232	56	5590
2026-01-12 10:31:25.17	331.67	27.53	-42.2	-46.2	11.8	3.43e-04	0	59	0	1005584384	56	5536
2026-01-12 10:31:26.18	331.76	27.36	-41.8	-45.5	12.4	4.32e-04	0	59	0	1007681536	55	5413
2026-01-12 10:31:27.19	331.85	27.19	-41.5	-45.0	12.8	1.09e-04	0	59	0	1009778688	55	5124
2026-01-12 10:31:28.20	331.93	27.03	-41.5	-44.9	12.9	4.50e-05	0	59	0	1011875840	54	5386
2026-01-12 10:31:29.21	332.02	26.86	-41.4	-44.7	13.1	3.58e-05	0	59	0	1012924416	54	5239
2026-01-12 10:31:30.22	332.11	26.70	-41.3	-44.7	13.1	2.05e-05	0	59	0	1015021568	54	5250
2026-01-12 10:31:31.23	332.19	26.53	-41.3	-44.7	13.1	4.11e-05	0	59	0	1017118720	54	5219
2026-01-12 10:31:32.24	332.28	26.37	-41.4	-44.8	13.0	3.05e-05	0	59	0	1019215872	54	5320
2026-01-12 10:31:33.25	332.36	26.21	-41.2	-44.5	13.3	3.20e-05	0	59	0	1021313024	54	5141
2026-01-12 10:31:34.25	332.44	26.05	-41.4	-44.8	13.0	3.05e-05	0	59	0	1022361600	54	5311
2026-01-12 10:31:35.26	332.53	25.89	-41.4	-44.8	13.0	2.82e-05	0	59	0	1024458752	54	5298
2026-01-12 10:31:36.27	332.61	25.73	-41.2	-44.5	13.3	9.90e-06	0	59	0	1026555904	54	5135
2026-01-12 10:31:37.29	332.69	25.57	-41.3	-44.7	12.9	3.28e-05	0	59	0	1028653056	54	5239
2026-01-12 10:31:38.29	332.77	25.41	-41.1	-44.4	13.3	3.35e-05	0	59	0	1030750208	54	5069
2026-01-12 10:31:39.30	332.85	25.26	-41.2	-44.6	13.2	2.21e-05	0	59	0	1031798784	54	5180
2026-01-12 10:31:40.31	332.92	25.10	-41.3	-44.7	13.0	4.04e-05	0	58	0	1033895936	54	5266
2026-01-12 10:31:41.32	333.00	24.95	-41.3	-44.7	13.1	2.67e-05	0	59	0	1035993088	54	5219
2026-01-12 10:31:42.33	333.08	24.79	-41.4	-44.9	12.8	4.57e-05	0	58	0	1038090240	54	5366
2026-01-12 10:31:43.34	333.16	24.64	-41.4	-44.8	12.9	5.41e-05	0	59	0	1040187392	54	5326
2026-01-12 10:31:44.35	333.23	24.49	-41.4	-44.9	12.8	5.87e-05	0	59	0	1041235968	54	5366
2026-01-12 10:31:45.36	333.31	24.34	-41.6	-45.2	12.5	1.08e-04	0	59	0	1043333120	54	5568
2026-01-12 10:31:46.37	333.38	24.18	-41.4	-45.0	12.7	1.11e-04	0	59	0	1045430272	54	5440
2026-01-12 10:31:47.38	333.45	24.04	-41.6	-45.3	12.4	9.84e-05	0	58	0	1047527424	54	5655
2026-01-12 10:31:48.39	333.53	23.89	-41.6	-45.2	12.5	1.85e-04	0	59	0	1049624576	54	5579
2026-01-12 10:31:49.40	333.60	23.74	-41.5	-45.2	12.5	1.23e-04	0	59	0	1050673152	54	5543
2026-01-12 10:31:50.41	333.67	23.59	-41.3	-44.8	12.9	6.10e-05	0	59	0	1052770304	54	5301
2026-01-12 10:31:51.41	333.74	23.45	-41.2	-44.5	13.2	5.56e-05	0	59	0	1054867456	54	5147
2026-01-12 10:31:52.42	333.81	23.30	-40.9	-44.1	13.6	6.10e-06	0	58	0	1056964608	53	5170
2026-01-12 10:31:53.43	333.88	23.15	-40.6	-43.5	14.1	2.20e-06	0	58	0	1059061760	53	4865
2026-01-12 10:31:54.44	333.95	23.01	-40.5	-43.3	14.3	1.50e-06	0	59	0	1061158912	52	5024
2026-01-12 10:31:55.45	334.02	22.87	-40.4	-43.2	14.4	7.00e-07	0	59	0	1062207488	52	4968
2026-01-12 10:31:56.46	334.09	22.72	-40.0	-42.6	15.1	0.00e+00	0	59	0	1064304640	51	4873
2026-01-12 10:31:57.47	334.15	22.58	-39.7	-42.2	15.5	0.00e+00	0	59	0	1066401792	51	4664
2026-01-12 10:31:58.48	334.22	22.44	-39.6	-41.9	15.8	0.00e+00	0	59	0	1068498944	51	4538
2026-01-12 10:31:59.49	334.29	22.30	-39.6	-41.9	15.7	0.00e+00	0	59	0	1070596096	51	4535
2026-01-12 10:32:00.50	334.35	22.16	-39.7	-42.1	15.6	0.00e+00	0	59	0	1071644672	51	4631
2026-01-12 10:32:01.51	334.42	22.02	-39.7	-42.1	15.5	0.00e+00	0	59	0	1073741824	51	4642
2026-01-12 10:32:02.52	334.48	21.88	-39.9	-42.4	15.3	0.00e+00	0	59	0	1075838976	51	4791
2026-01-12 10:32:03.53	334.55	21.75	-40.0	-42.6	15.0	0.00e+00	0	59	0	1077936128	51	4906
2026-01-12 10:32:04.54	334.61	21.61	-40.1	-42.8	14.8	0.00e+00	0	58	0	1080033280	51	5020
2026-01-12 10:32:05.55	334.67	21.47	-40.2	-43.0	14.6	0.00e+00	0	59	0	1081081856	51	5114
2026-01-12 10:32:06.56	334.73	21.34	-40.4	-43.2	14.4	7.00e-07	0	59	0	1083179008	51	5244
2026-01-12 10:32:07.57	334.80	21.20	-40.3	-43.2	14.5	7.00e-07	0	59	0	1085276160	51	5220
2026-01-12 10:32:08.58	334.86	21.07	-40.4	-43.3	14.2	7.00e-07	0	59	0	1087373312	51	5331
2026-01-12 10:32:09.59	334.92	20.94	-40.5	-43.4	14.1	2.20e-06	0	59	0	1089470464	51	5380
2026-01-12 10:32:10.60	334.98	20.80	-40.5	-43.4	14.1	1.50e-06	0	59	0	1090519040	51	5372
2026-01-12 10:32:11.61	335.04	20.67	-40.3	-43.1	14.5	7.00e-07	0	58	0	1092616192	51	5173
2026-01-12 10:32:12.62	335.10	20.54	-40.2	-43.0	14.5	7.00e-07	0	59	0	1094713344	51	5149
2026-01-12 10:32:13.63	335.16	20.41	-40.2	-43.0	14.5	0.00e+00	0	59	0	1096810496	51	5132
2026-01-12 10:32:14.64	335.22	20.28	-40.1	-42.9	14.6	0.00e+00	0	59	0	1098907648	51	5080
2026-01-12 10:32:15.65	335.27	20.15	-40.1	-42.9	14.5	0.00e+00	0	58	0	1099956224	51	5084
2026-01-12 10:32:16.66	335.33	20.02	-40.2	-43.0	14.5	0.00e+00	0	59	0	1102053376	51	5104
2026-01-12 10:32:17.67	335.39	19.89	-40.1	-42.8	14.6	7.00e-07	0	58	0	1104150528	51	5037
2026-01-12 10:32:18.68	335.45	19.77	-40.0	-42.8	14.6	0.00e+00	0	59	0	1106247680	51	4997
2026-01-12 10:32:19.68	335.50	19.64	-40.1	-42.9	14.5	1.50e-06	0	59	0	1108344832	51	5076
2026-01-12 10:32:20.69	335.56	19.51	-40.1	-42.9	14.4	2.20e-06	0	59	0	1109393408	51	5080
2026-01-12 10:32:21.70	335.61	19.39	-40.2	-43.1	14.3	0.00e+00	0	59	0	1111490560	51	5173
2026-01-12 10:32:22.71	335.67	19.26	-40.3	-43.2	14.1	0.00e+00	0	59	0	1113587712	51	5260
2026-01-12 10:32:23.72	335.72	19.14	-40.4	-43.4	13.9	3.00e-06	0	58	0	1115684864	51	5359
2026-01-12 10:32:24.73	335.78	19.01	-40.4	-43.5	13.8	6.80e-06	0	59	0	1117782016	51	5427
2026-01-12 10:32:25.74	335.83	18.89	-40.5	-43.6	13.7	7.60e-06	0	59	0	1118830592	51	5475
2026-01-12 10:32:26.75	335.88	18.77	-40.5	-43.6	13.7	5.30e-06	0	59	0	1120927744	51	5500
2026-01-12 10:32:27.76	335.94	18.65	-40.6	-43.7	13.6	6.80e-06	0	59	0	1123024896	51	5567
2026-01-12 10:32:28.77	335.99	18.53	-40.7	-44.0	13.3	1.14e-05	0	59	0	1125122048	51	5765
2026-01-12 10:32:29.78	336.04	18.40	-40.6	-43.9	13.3	1.90e-05	0	59	0	1127219200	52	5348
2026-01-12 10:32:30.79	336.09	18.28	-40.7	-44.1	13.0	2.51e-05	0	59	0	1129316352	52	5516
2026-01-12 10:32:31.80	336.15	18.16	-40.7	-44.1	13.0	4.11e-05	0	59	0	1130364928	52	5502
2026-01-12 10:32:32.81	336.20	18.05	-40.9	-44.4	12.6	6.17e-05	0	59	0	1132462080	52	5717
2026-01-12 10:32:33.82	336.25	17.93	-41.0	-44.6	12.5	1.20e-04	0	59	0	1134559232	52	5814
2026-01-12 10:32:34.83	336.30	17.81	-41.1	-44.8	12.3	1.10e-04	0	59	0	1136656384	52	5938
2026-01-12 10:32:35.84	336.35	17.69	-41.0	-44.7	12.4	1.46e-04	0	59	0	1138753536	52	5856
2026-01-12 10:32:36.85	336.40	17.57	-41.0	-44.8	12.3	1.50e-04	0	59	0	1139802112	52	5932
2026-01-12 10:32:37.86	336.45	17.46	-41.0	-44.8	12.3	1.95e-04	0	59	0	1141899264	52	5932
2026-01-12 10:32:38.87	336.50	17.34	-41.1	-44.9	12.1	2.50e-04	0	59	0	1143996416	52	6053
2026-01-12 10:32:39.88	336.55	17.23	-41.0	-44.7	12.3	1.91e-04	0	59	0	1146093568	52	5902
2026-01-12 10:32:40.89	336.59	17.11	-41.1	-44.9	12.1	2.03e-04	0	59	0	1148190720	52	6014
2026-01-12 10:32:41.90	336.64	17.00	-41.0	-44.8	12.1	2.27e-04	0	59	0	1149239296	52	5968
2026-01-12 10:32:42.91	336.69	16.88	-41.0	-44.9	12.1	2.04e-04	0	59	0	1151336448	52	6002
2026-01-12 10:32:43.92	336.74	16.77	-41.1	-45.0	11.9	2.76e-04	0	58	0	1153433600	52	6066
2026-01-12 10:32:44.93	336.78	16.66	-41.0	-44.8	12.0	3.39e-04	0	59	0	1155530752	52	5989
2026-01-12 10:32:45.94	336.83	16.55	-40.9	-44.6	12.2	2.36e-04	0	59	0	1157627904	52	5849
2026-01-12 10:32:46.95	336.88	16.43	-40.9	-44.6	12.2	2.01e-04	0	59	0	1158676480	52	5839
2026-01-12 10:32:47.96	336.92	16.32	-40.8	-44.5	12.3	2.13e-04	0	59	0	1160773632	52	5746
2026-01-12 10:32:48.97	336.97	16.21	-40.6	-44.1	12.7	9.23e-05	0	59	0	1162870784	52	5473
2026-01-12 10:32:49.98	337.01	16.10	-40.4	-43.7	13.2	3.50e-05	0	58	0	1164967936	52	5248
2026-01-12 10:32:50.99	337.06	15.99	-40.3	-43.7	13.2	1.75e-05	0	59	0	1167065088	52	5241
2026-01-12 10:32:52.00	337.10	15.88	-40.2	-43.4	13.5	1.29e-05	0	59	0	1168113664	52	5067
2026-01-12 10:32:53.01	337.15	15.77	-40.2	-43.4	13.5	9.10e-06	0	59	0	1170210816	52	5045
2026-01-12 10:32:54.02	337.19	15.67	-40.1	-43.3	13.5	9.10e-06	0	59	0	1172307968	52	5027
2026-01-12 10:32:55.03	337.24	15.56	-40.1	-43.4	13.4	1.60e-05	0	59	0	1174405120	52	5060
2026-01-12 10:32:56.04	337.28	15.45	-40.3	-43.6	13.1	2.13e-05	0	59	0	1176502272	52	5211
2026-01-12 10:32:57.05	337.32	15.34	-40.3	-43.8	12.9	4.04e-05	0	58	0	1177550848	52	5322
2026-01-12 10:32:58.05	337.37	15.24	-40.3	-43.8	12.8	5.95e-05	0	59	0	1179648000	52	5325
