passes_logs/2026/01/24/R3.2S_Murmansk/R3.2S_Murmansk__20260124_203306_TY-42_rec.log

#Pass ID: 20260124_203306_TY-42
#Satellite: TY-42
#Configuration: TY-42_900M
#almurnet v.1.7.20251203
#Start time: 2026-01-24 20:33:08

#Version: 2.2.20231116
#Station: R3.2S_Murmansk
#Location: 33.079688 lon 68.888172 lat
#TLE: 1 64048U 25103A   26024.51782867  .00000755  00000+0  39102-4 0  9996
#TLE: 2 64048  97.4121  99.7564 0001738  90.7706 269.3727 15.19168577 38261

#Time	Az	El	Level	Level2	SNR	BER	BlckErr	Temp	State	Recorded	gain1	gain2
2026-01-24 20:33:08.45	207.35	2.12	-52.7	-54.9	6.2	0.00e+00	0	50	0	0	77	17998
2026-01-24 20:33:09.42	207.43	2.18	-52.7	-54.9	6.2	0.00e+00	0	49	104	0	77	18071
2026-01-24 20:33:10.39	207.52	2.24	-52.7	-54.9	6.2	0.00e+00	0	50	104	0	77	18033
2026-01-24 20:33:11.36	207.61	2.30	-52.7	-54.9	6.2	0.00e+00	0	50	104	0	77	18038
2026-01-24 20:33:12.33	207.69	2.36	-52.7	-54.9	6.2	0.00e+00	0	50	104	0	77	18041
2026-01-24 20:33:13.30	207.78	2.42	-52.7	-54.9	6.2	0.00e+00	0	50	104	0	77	18007
2026-01-24 20:33:14.28	207.87	2.48	-52.7	-54.9	6.2	0.00e+00	0	50	104	0	77	18056
2026-01-24 20:33:15.25	207.96	2.54	-52.7	-54.9	6.2	0.00e+00	0	50	104	0	77	18003
2026-01-24 20:33:16.22	208.05	2.60	-52.7	-54.9	6.2	0.00e+00	0	50	104	0	77	18022
2026-01-24 20:33:17.19	208.14	2.67	-52.7	-54.8	6.2	0.00e+00	0	50	104	0	77	17954
2026-01-24 20:33:18.17	208.23	2.73	-52.7	-54.9	6.2	0.00e+00	0	50	104	0	77	17991
2026-01-24 20:33:19.14	208.32	2.79	-52.7	-54.9	6.2	0.00e+00	0	50	104	0	77	18001
2026-01-24 20:33:20.11	208.41	2.85	-52.7	-54.9	6.2	0.00e+00	0	50	104	0	77	18025
2026-01-24 20:33:21.08	208.50	2.91	-52.7	-54.9	6.2	0.00e+00	0	50	104	0	77	17995
2026-01-24 20:33:22.05	208.60	2.97	-52.7	-54.9	6.2	0.00e+00	0	50	104	0	77	17980
2026-01-24 20:33:23.02	208.69	3.03	-52.7	-54.8	6.2	0.00e+00	0	50	104	0	77	17957
2026-01-24 20:33:23.99	208.78	3.10	-52.7	-54.9	6.2	0.00e+00	0	50	104	0	77	17976
2026-01-24 20:33:24.96	208.87	3.16	-52.7	-54.9	6.2	0.00e+00	0	50	104	0	77	17976
2026-01-24 20:33:25.92	208.97	3.22	-52.7	-54.8	6.2	0.00e+00	0	50	104	0	77	17943
2026-01-24 20:33:26.89	209.06	3.28	-52.7	-54.9	6.2	0.00e+00	0	50	104	0	77	18003
2026-01-24 20:33:27.87	209.16	3.35	-52.7	-54.9	6.2	0.00e+00	0	50	104	0	77	17978
2026-01-24 20:33:28.84	209.25	3.41	-52.7	-54.8	6.2	0.00e+00	0	50	104	0	77	17963
2026-01-24 20:33:29.81	209.35	3.47	-52.7	-54.8	6.2	0.00e+00	0	50	104	0	77	17901
2026-01-24 20:33:30.79	209.45	3.53	-52.7	-54.9	6.2	0.00e+00	0	50	104	0	77	17980
2026-01-24 20:33:31.76	209.54	3.60	-52.7	-54.9	6.2	0.00e+00	0	50	104	0	77	17982
2026-01-24 20:33:32.73	209.64	3.66	-52.7	-54.8	6.2	0.00e+00	0	51	104	0	77	17965
2026-01-24 20:33:33.70	209.74	3.72	-52.7	-54.9	6.2	0.00e+00	0	51	104	0	77	18021
2026-01-24 20:33:34.67	209.84	3.79	-52.7	-54.8	6.2	0.00e+00	0	51	104	0	77	17949
2026-01-24 20:33:35.64	209.94	3.85	-52.7	-54.9	6.2	0.00e+00	0	51	104	0	77	17976
2026-01-24 20:33:36.61	210.03	3.91	-52.7	-54.9	6.2	0.00e+00	0	51	104	0	77	17985
2026-01-24 20:33:37.58	210.13	3.98	-52.7	-54.9	6.2	0.00e+00	0	51	104	0	77	17976
2026-01-24 20:33:38.55	210.24	4.04	-52.7	-54.8	6.2	0.00e+00	0	51	104	0	77	17902
2026-01-24 20:33:39.52	210.34	4.11	-52.7	-54.9	6.2	0.00e+00	0	51	104	0	77	17997
2026-01-24 20:33:40.49	210.44	4.17	-52.7	-54.8	6.2	0.00e+00	0	51	104	0	77	17957
2026-01-24 20:33:41.46	210.54	4.23	-52.7	-54.8	6.2	0.00e+00	0	51	104	0	77	17926
2026-01-24 20:33:42.43	210.64	4.30	-52.7	-54.8	6.2	0.00e+00	0	51	104	0	77	17962
2026-01-24 20:33:43.41	210.75	4.36	-52.7	-54.8	6.2	0.00e+00	0	51	104	0	77	17929
2026-01-24 20:33:44.38	210.85	4.43	-52.7	-54.8	6.2	0.00e+00	0	51	104	0	77	17918
2026-01-24 20:33:45.35	210.95	4.49	-52.7	-54.8	6.2	0.00e+00	0	51	104	0	77	17966
2026-01-24 20:33:46.32	211.06	4.56	-52.7	-54.8	6.2	0.00e+00	0	51	104	0	77	17928
2026-01-24 20:33:47.29	211.16	4.62	-52.7	-54.8	6.2	0.00e+00	0	51	104	0	77	17945
2026-01-24 20:33:48.26	211.27	4.69	-52.7	-54.9	6.2	0.00e+00	0	51	104	0	77	17991
2026-01-24 20:33:49.24	211.38	4.76	-52.7	-54.8	6.2	0.00e+00	0	51	104	0	77	17911
2026-01-24 20:33:50.21	211.49	4.82	-52.7	-54.8	6.2	0.00e+00	0	51	104	0	77	17925
2026-01-24 20:33:51.18	211.59	4.89	-52.7	-54.8	6.2	0.00e+00	0	51	104	0	77	17940
2026-01-24 20:33:52.16	211.70	4.95	-52.7	-54.8	6.2	0.00e+00	0	51	104	0	77	17947
2026-01-24 20:33:53.13	211.81	5.02	-52.7	-54.8	6.2	0.00e+00	0	51	104	0	77	17902
2026-01-24 20:33:54.10	211.92	5.09	-52.7	-54.9	6.2	0.00e+00	0	51	104	0	77	17993
2026-01-24 20:33:55.08	212.03	5.15	-52.8	-54.9	6.2	0.00e+00	0	51	104	0	77	18088
2026-01-24 20:33:56.05	212.14	5.22	-52.7	-54.9	6.2	0.00e+00	0	52	104	0	77	17998
2026-01-24 20:33:57.02	212.25	5.29	-52.7	-54.8	6.2	0.00e+00	0	51	104	0	77	17909
2026-01-24 20:33:58.00	212.37	5.35	-52.9	-55.0	6.2	0.00e+00	0	51	104	0	77	18305
2026-01-24 20:33:58.97	212.48	5.42	-52.8	-54.9	6.2	0.00e+00	0	51	104	0	77	18154
2026-01-24 20:33:59.95	212.59	5.49	-37.3	-37.2	12.2	0.00e+00	2690	52	104	0	45	14873
2026-01-24 20:34:00.93	212.71	5.56	-46.7	-47.1	8.5	0.00e+00	9903	54	0	75497472	64	15553
2026-01-24 20:34:01.92	212.83	5.62	-36.5	-36.5	12.6	0.00e+00	149	53	104	75497472	43	15304
2026-01-24 20:34:02.90	212.94	5.69	-35.9	-35.8	14.4	0.00e+00	0	53	0	167772160	43	14171
2026-01-24 20:34:03.91	213.06	5.76	-35.6	-35.5	14.5	2.50e-02	0	53	0	276824064	43	13786
2026-01-24 20:34:04.92	213.18	5.83	-35.4	-35.3	14.6	2.50e-02	0	53	0	394264576	42	14214
2026-01-24 20:34:05.92	213.31	5.90	-35.7	-35.6	14.5	2.50e-02	0	54	0	503316480	42	14706
2026-01-24 20:34:06.93	213.43	5.97	-35.4	-35.3	14.6	1.48e-02	0	54	0	612368384	42	14253
2026-01-24 20:34:07.94	213.55	6.05	-35.2	-35.1	14.7	1.48e-02	0	53	0	729808896	42	13899
2026-01-24 20:34:08.94	213.67	6.12	-35.3	-35.3	14.7	1.48e-02	0	54	0	838860800	42	14132
2026-01-24 20:34:09.94	213.80	6.19	-35.4	-35.4	14.6	1.17e-02	0	54	0	956301312	42	14278
2026-01-24 20:34:10.94	213.92	6.26	-35.3	-35.2	14.7	1.17e-02	0	54	0	1065353216	42	13989
2026-01-24 20:34:11.95	214.05	6.33	-35.0	-34.9	14.9	1.17e-02	0	54	0	1174405120	42	13587
2026-01-24 20:34:12.94	214.17	6.40	-35.0	-34.9	14.8	1.17e-02	0	54	0	1291845632	41	14415
2026-01-24 20:34:13.94	214.30	6.47	-35.2	-35.1	14.8	1.17e-02	0	54	0	1400897536	41	14690
2026-01-24 20:34:14.93	214.43	6.54	-35.0	-34.9	14.9	9.20e-03	0	54	0	1518338048	41	14308
2026-01-24 20:34:15.93	214.55	6.61	-35.3	-35.2	14.7	9.20e-03	0	54	0	1627389952	41	14807
2026-01-24 20:34:16.93	214.68	6.69	-34.9	-34.8	14.9	9.20e-03	0	54	0	1744830464	41	14154
2026-01-24 20:34:17.92	214.81	6.76	-35.2	-35.1	14.7	9.20e-03	0	54	0	1853882368	41	14712
2026-01-24 20:34:18.93	214.94	6.83	-35.1	-35.1	14.6	9.20e-03	0	54	0	1962934272	41	14610
2026-01-24 20:34:19.93	215.07	6.90	-35.1	-35.0	14.7	9.20e-03	0	54	0	2080374784	41	14583
2026-01-24 20:34:20.92	215.21	6.98	-35.0	-34.9	14.7	9.76e-03	0	55	0	2189426688	41	14392
2026-01-24 20:34:21.92	215.34	7.05	-35.1	-35.0	14.7	9.76e-03	0	55	0	2306867200	41	14494
2026-01-24 20:34:22.93	215.47	7.12	-35.2	-35.2	14.6	9.37e-03	0	54	0	2415919104	41	14791
2026-01-24 20:34:23.93	215.61	7.19	-35.1	-35.1	14.7	9.37e-03	0	55	0	2524971008	41	14617
2026-01-24 20:34:24.94	215.74	7.27	-34.7	-34.6	14.9	9.37e-03	0	55	0	2642411520	41	13950
2026-01-24 20:34:25.95	215.88	7.34	-34.9	-34.8	14.8	8.97e-03	0	54	0	2768240640	41	14138
2026-01-24 20:34:26.96	216.02	7.42	-34.8	-34.7	14.8	8.97e-03	0	55	0	2877292544	41	14097
2026-01-24 20:34:27.96	216.16	7.49	-34.9	-34.8	14.8	8.97e-03	0	55	0	2986344448	41	14264
2026-01-24 20:34:28.97	216.30	7.57	-34.9	-34.8	14.8	8.25e-03	0	55	0	3103784960	41	14126
2026-01-24 20:34:29.98	216.44	7.64	-34.9	-34.8	14.8	8.25e-03	0	55	0	3212836864	41	14203
2026-01-24 20:34:30.99	216.58	7.71	-34.9	-34.8	14.8	8.32e-03	0	55	0	3330277376	41	14207
2026-01-24 20:34:32.00	216.72	7.79	-34.7	-34.6	14.9	8.32e-03	0	55	0	3439329280	41	13872
2026-01-24 20:34:33.00	216.86	7.86	-34.9	-34.9	14.8	8.32e-03	0	55	0	3548381184	41	14275
2026-01-24 20:34:34.01	217.01	7.94	-34.9	-34.8	14.8	8.32e-03	0	55	0	3665821696	41	14213
2026-01-24 20:34:35.02	217.15	8.02	-34.9	-34.8	14.9	7.85e-03	0	55	0	3774873600	41	14141
2026-01-24 20:34:36.02	217.30	8.09	-34.7	-34.6	15.0	7.85e-03	0	55	0	3892314112	41	13810
2026-01-24 20:34:37.03	217.45	8.17	-34.5	-34.4	15.0	7.85e-03	0	55	0	4001366016	40	14369
2026-01-24 20:34:38.04	217.59	8.24	-34.6	-34.5	15.0	7.85e-03	0	55	0	4110417920	40	14607
2026-01-24 20:34:39.05	217.74	8.32	-34.8	-34.7	14.9	6.78e-03	0	55	0	4227858432	40	14821
2026-01-24 20:34:40.06	217.89	8.40	-34.5	-34.4	15.0	6.78e-03	0	55	0	4353687552	40	14402
2026-01-24 20:34:41.06	218.04	8.47	-34.5	-34.5	15.0	6.27e-03	0	55	0	4462739456	40	14446
2026-01-24 20:34:42.07	218.19	8.55	-34.8	-34.7	14.9	6.27e-03	0	55	0	4571791360	40	14811
2026-01-24 20:34:43.08	218.35	8.62	-34.4	-34.3	15.1	6.27e-03	0	55	0	4689231872	40	14156
2026-01-24 20:34:44.09	218.50	8.70	-34.2	-34.1	15.2	6.12e-03	0	55	0	4798283776	40	13856
2026-01-24 20:34:45.09	218.65	8.78	-34.2	-34.1	15.2	6.12e-03	0	55	0	4915724288	40	13849
2026-01-24 20:34:46.10	218.81	8.86	-34.2	-34.1	15.2	6.12e-03	0	55	0	5024776192	40	13938
2026-01-24 20:34:47.11	218.96	8.93	-34.3	-34.2	15.1	4.09e-03	0	55	0	5142216704	40	14061
2026-01-24 20:34:48.12	219.12	9.01	-34.1	-34.0	15.2	4.09e-03	0	55	0	5251268608	39	14595
2026-01-24 20:34:49.13	219.28	9.09	-34.0	-34.0	15.3	4.09e-03	0	56	0	5360320512	39	14447
2026-01-24 20:34:50.14	219.44	9.17	-34.1	-34.0	15.3	3.91e-03	0	56	0	5477761024	39	14534
2026-01-24 20:34:51.14	219.60	9.24	-33.9	-33.8	15.4	3.91e-03	0	56	0	5586812928	39	14238
2026-01-24 20:34:52.15	219.76	9.32	-33.9	-33.8	15.4	2.95e-03	0	56	0	5704253440	39	14176
2026-01-24 20:34:53.16	219.92	9.40	-33.9	-33.8	15.4	2.95e-03	0	56	0	5821693952	39	14258
2026-01-24 20:34:54.16	220.08	9.48	-33.9	-33.8	15.4	2.95e-03	0	56	0	5939134464	39	14231
2026-01-24 20:34:55.17	220.25	9.56	-33.9	-33.8	15.4	2.80e-03	0	56	0	6048186368	39	14253
2026-01-24 20:34:56.18	220.41	9.64	-33.8	-33.7	15.4	2.80e-03	0	56	0	6165626880	39	14027
2026-01-24 20:34:57.18	220.58	9.71	-33.8	-33.8	15.4	2.80e-03	0	56	0	6274678784	39	14114
2026-01-24 20:34:58.19	220.75	9.79	-33.8	-33.7	15.4	2.44e-03	0	56	0	6383730688	39	13968
2026-01-24 20:34:59.20	220.92	9.87	-33.5	-33.4	15.5	2.44e-03	0	56	0	6501171200	39	13589
2026-01-24 20:35:00.20	221.09	9.95	-33.6	-33.5	15.5	2.44e-03	0	56	0	6610223104	39	13708
2026-01-24 20:35:01.21	221.26	10.03	-33.4	-33.3	15.6	1.87e-03	0	56	0	6727663616	38	14250
2026-01-24 20:35:02.22	221.43	10.11	-33.6	-33.6	15.4	1.87e-03	0	56	0	6836715520	38	14623
2026-01-24 20:35:03.23	221.60	10.19	-33.6	-33.5	15.5	2.24e-03	0	56	0	6945767424	38	14549
2026-01-24 20:35:04.24	221.78	10.27	-33.5	-33.5	15.5	2.24e-03	0	56	0	7063207936	38	14454
2026-01-24 20:35:05.25	221.95	10.35	-33.5	-33.4	15.5	2.24e-03	0	56	0	7172259840	38	14342
2026-01-24 20:35:06.25	222.13	10.43	-33.2	-33.1	15.7	1.88e-03	0	56	0	7289700352	38	13906
2026-01-24 20:35:07.26	222.31	10.51	-33.4	-33.3	15.6	1.88e-03	0	56	0	7407140864	38	14117
2026-01-24 20:35:08.26	222.48	10.59	-33.3	-33.2	15.6	1.65e-03	0	56	0	7524581376	38	14004
2026-01-24 20:35:09.27	222.66	10.67	-33.3	-33.2	15.6	1.65e-03	0	56	0	7633633280	38	14103
2026-01-24 20:35:10.28	222.84	10.75	-33.2	-33.1	15.7	1.65e-03	0	56	0	7751073792	38	13929
2026-01-24 20:35:11.29	223.03	10.84	-33.1	-33.0	15.7	1.65e-03	0	56	0	7860125696	38	13784
2026-01-24 20:35:12.30	223.21	10.92	-33.2	-33.0	15.7	1.36e-03	0	56	0	7977566208	38	13786
2026-01-24 20:35:13.30	223.39	11.00	-33.1	-33.0	15.7	1.36e-03	0	56	0	8086618112	38	13670
2026-01-24 20:35:14.31	223.58	11.08	-33.0	-32.9	15.8	1.03e-03	0	56	0	8195670016	37	14285
2026-01-24 20:35:15.32	223.77	11.16	-32.9	-32.8	15.8	1.03e-03	0	56	0	8313110528	37	14202
2026-01-24 20:35:16.32	223.95	11.24	-32.8	-32.7	15.8	1.03e-03	0	56	0	8422162432	37	14023
2026-01-24 20:35:17.33	224.14	11.32	-32.8	-32.7	15.8	8.87e-04	0	56	0	8539602944	37	14071
2026-01-24 20:35:18.34	224.34	11.40	-32.7	-32.6	15.9	8.87e-04	0	56	0	8648654848	37	13924
2026-01-24 20:35:19.35	224.53	11.49	-32.7	-32.6	15.9	8.87e-04	0	56	0	8757706752	37	13915
2026-01-24 20:35:20.36	224.72	11.57	-32.7	-32.7	15.9	8.30e-04	0	57	0	8883535872	37	13951
2026-01-24 20:35:21.36	224.91	11.65	-32.6	-32.5	15.9	8.30e-04	0	56	0	9000976384	37	13752
2026-01-24 20:35:22.37	225.11	11.73	-32.5	-32.4	16.0	8.30e-04	0	57	0	9110028288	37	13566
2026-01-24 20:35:23.38	225.31	11.82	-32.6	-32.5	15.9	7.10e-04	0	56	0	9219080192	37	13634
2026-01-24 20:35:24.39	225.51	11.90	-32.3	-32.2	16.0	7.10e-04	0	56	0	9336520704	36	14090
2026-01-24 20:35:25.39	225.71	11.98	-32.4	-32.3	16.0	6.15e-04	0	56	0	9445572608	36	14150
2026-01-24 20:35:26.40	225.91	12.06	-32.4	-32.3	16.0	6.15e-04	0	56	0	9563013120	36	14232
2026-01-24 20:35:27.41	226.11	12.15	-32.4	-32.3	16.0	6.15e-04	0	56	0	9672065024	36	14126
2026-01-24 20:35:28.42	226.31	12.23	-32.4	-32.2	16.0	6.15e-04	0	56	0	9781116928	36	14111
2026-01-24 20:35:29.43	226.52	12.31	-32.5	-32.4	16.0	5.86e-04	0	56	0	9898557440	36	14363
2026-01-24 20:35:30.43	226.72	12.39	-32.3	-32.2	16.1	5.86e-04	0	56	0	10007609344	36	13960
2026-01-24 20:35:31.44	226.93	12.48	-32.4	-32.3	16.0	5.86e-04	0	56	0	10125049856	36	14181
2026-01-24 20:35:32.45	227.14	12.56	-32.3	-32.2	16.0	4.20e-04	0	56	0	10234101760	36	14069
2026-01-24 20:35:33.46	227.35	12.64	-32.2	-32.1	16.1	4.20e-04	0	56	0	10359930880	36	13848
2026-01-24 20:35:34.47	227.57	12.73	-32.2	-32.1	16.1	3.72e-04	0	56	0	10468982784	36	13827
2026-01-24 20:35:35.47	227.78	12.81	-32.1	-32.0	16.1	3.72e-04	0	56	0	10586423296	36	13680
2026-01-24 20:35:36.48	227.99	12.89	-32.2	-32.1	16.1	3.62e-04	0	57	0	10695475200	36	13857
2026-01-24 20:35:37.49	228.21	12.98	-32.1	-32.0	16.1	3.62e-04	0	57	0	10804527104	36	13749
2026-01-24 20:35:38.49	228.42	13.06	-32.0	-31.9	16.1	3.62e-04	0	56	0	10921967616	36	13630
2026-01-24 20:35:39.50	228.64	13.14	-29.7	-29.6	15.7	2.81e-04	0	56	0	11031019520	31	13814
2026-01-24 20:35:40.51	228.86	13.23	-29.6	-29.5	15.7	2.81e-04	0	57	0	11148460032	31	13767
2026-01-24 20:35:41.52	229.09	13.31	-29.7	-29.6	15.7	2.81e-04	0	57	0	11257511936	31	13810
2026-01-24 20:35:42.53	229.31	13.39	-29.6	-29.5	15.7	1.25e-03	0	57	0	11374952448	31	13755
2026-01-24 20:35:43.54	229.54	13.48	-29.5	-29.4	15.7	1.25e-03	0	57	0	11484004352	31	13622
2026-01-24 20:35:44.54	229.76	13.56	-29.6	-29.5	15.7	1.25e-03	0	57	0	11593056256	31	13673
2026-01-24 20:35:45.55	229.99	13.64	-29.4	-29.3	15.8	1.22e-03	0	56	0	11710496768	30	14222
2026-01-24 20:35:46.56	230.22	13.73	-29.4	-29.3	15.8	1.22e-03	0	57	0	11836325888	30	14189
2026-01-24 20:35:47.57	230.45	13.81	-29.5	-29.4	15.7	1.24e-03	0	57	0	11945377792	30	14415
2026-01-24 20:35:48.57	230.68	13.89	-29.5	-29.4	15.7	1.24e-03	0	57	0	12054429696	30	14408
2026-01-24 20:35:49.58	230.91	13.98	-29.3	-29.2	15.8	1.19e-03	0	57	0	12171870208	30	14102
2026-01-24 20:35:50.59	231.15	14.06	-29.3	-29.2	15.8	1.19e-03	0	57	0	12280922112	30	14059
2026-01-24 20:35:51.60	231.39	14.14	-29.2	-29.1	15.8	1.19e-03	0	57	0	12398362624	30	13886
2026-01-24 20:35:52.60	231.62	14.23	-29.2	-29.1	15.8	9.82e-04	0	57	0	12507414528	30	13831
2026-01-24 20:35:53.61	231.87	14.31	-29.2	-29.1	15.8	9.82e-04	0	57	0	12616466432	30	13876
2026-01-24 20:35:54.62	232.11	14.39	-29.3	-29.2	15.8	9.82e-04	0	57	0	12733906944	30	14095
2026-01-24 20:35:55.63	232.35	14.48	-29.1	-29.1	15.9	9.82e-04	0	57	0	12842958848	30	13791
2026-01-24 20:35:56.64	232.60	14.56	-29.1	-29.1	15.9	1.04e-03	0	57	0	12960399360	30	13807
2026-01-24 20:35:57.64	232.84	14.64	-29.2	-29.1	15.8	1.04e-03	0	57	0	13069451264	30	13893
2026-01-24 20:35:58.65	233.09	14.73	-29.0	-28.9	15.9	1.04e-03	0	57	0	13178503168	30	13622
2026-01-24 20:35:59.66	233.34	14.81	-29.0	-28.9	15.9	8.25e-04	0	57	0	13304332288	30	13630
2026-01-24 20:36:00.66	233.59	14.89	-29.1	-29.0	15.8	8.25e-04	0	57	0	13421772800	29	14495
2026-01-24 20:36:01.67	233.84	14.98	-28.9	-28.8	15.9	8.25e-04	0	57	0	13530824704	29	14247
2026-01-24 20:36:02.68	234.10	15.06	-28.9	-28.8	15.9	6.91e-04	0	57	0	13639876608	29	14256
2026-01-24 20:36:03.68	234.35	15.14	-28.9	-28.8	15.9	6.91e-04	0	57	0	13757317120	29	14200
2026-01-24 20:36:04.69	234.61	15.22	-29.0	-28.9	15.9	6.91e-04	0	57	0	13866369024	29	14318
2026-01-24 20:36:05.70	234.87	15.31	-29.2	-29.1	15.8	8.39e-04	0	57	0	13983809536	29	14624
2026-01-24 20:36:06.71	235.13	15.39	-28.9	-28.9	15.9	8.39e-04	0	57	0	14092861440	29	14275
2026-01-24 20:36:07.72	235.39	15.47	-29.0	-28.9	15.9	8.39e-04	0	57	0	14201913344	29	14316
2026-01-24 20:36:08.72	235.65	15.55	-28.9	-28.8	15.9	7.20e-04	0	57	0	14319353856	29	14189
2026-01-24 20:36:09.73	235.92	15.64	-29.0	-28.9	15.9	7.20e-04	0	57	0	14428405760	29	14362
2026-01-24 20:36:10.74	236.19	15.72	-28.8	-28.7	15.9	7.20e-04	0	57	0	14545846272	29	13979
2026-01-24 20:36:11.75	236.46	15.80	-28.7	-28.6	15.9	6.10e-04	0	57	0	14654898176	29	13925
2026-01-24 20:36:12.75	236.73	15.88	-28.7	-28.6	16.0	6.10e-04	0	57	0	14780727296	29	13887
2026-01-24 20:36:13.76	237.00	15.96	-28.7	-28.6	16.0	5.15e-04	0	57	0	14889779200	29	13799
2026-01-24 20:36:14.77	237.28	16.04	-28.7	-28.6	15.9	5.15e-04	0	57	0	15007219712	29	13923
2026-01-24 20:36:15.78	237.55	16.12	-28.6	-28.6	16.0	5.15e-04	0	57	0	15116271616	29	13792
2026-01-24 20:36:16.78	237.83	16.20	-28.6	-28.5	16.0	6.15e-04	0	57	0	15233712128	29	13774
2026-01-24 20:36:17.79	238.11	16.28	-28.6	-28.5	16.0	6.15e-04	0	57	0	15342764032	29	13731
2026-01-24 20:36:18.80	238.39	16.36	-28.5	-28.4	16.0	6.15e-04	0	57	0	15451815936	29	13600
2026-01-24 20:36:19.81	238.67	16.44	-28.6	-28.5	15.9	5.63e-04	0	57	0	15569256448	29	13785
2026-01-24 20:36:20.82	238.96	16.52	-28.6	-28.5	15.9	5.63e-04	0	57	0	15678308352	29	13682
2026-01-24 20:36:21.82	239.24	16.60	-28.7	-28.6	15.9	5.63e-04	0	57	0	15795748864	29	13799
2026-01-24 20:36:22.83	239.53	16.68	-28.6	-28.5	15.9	5.29e-04	0	57	0	15904800768	29	13690
2026-01-24 20:36:23.84	239.82	16.76	-28.4	-28.3	16.0	5.29e-04	0	57	0	16013852672	28	14186
2026-01-24 20:36:24.85	240.11	16.84	-28.5	-28.4	16.0	5.29e-04	0	57	0	16131293184	28	14311
2026-01-24 20:36:25.86	240.41	16.92	-28.4	-28.3	16.0	6.63e-04	0	57	0	16257122304	28	14218
2026-01-24 20:36:26.87	240.70	16.99	-28.4	-28.3	16.0	6.63e-04	0	57	0	16366174208	28	14268
2026-01-24 20:36:27.88	241.00	17.07	-28.3	-28.2	16.1	6.63e-04	0	57	0	16475226112	28	14040
2026-01-24 20:36:28.88	241.29	17.15	-28.3	-28.2	16.0	5.72e-04	0	57	0	16592666624	28	14058
2026-01-24 20:36:29.89	241.60	17.23	-28.3	-28.3	16.0	5.72e-04	0	57	0	16701718528	28	14122
2026-01-24 20:36:30.90	241.90	17.30	-28.3	-28.2	16.1	5.72e-04	0	57	0	16819159040	28	13989
2026-01-24 20:36:31.90	242.20	17.38	-28.2	-28.1	16.1	4.77e-04	0	57	0	16928210944	28	13847
2026-01-24 20:36:32.91	242.51	17.45	-28.2	-28.1	16.1	4.77e-04	0	57	0	17037262848	28	13846
2026-01-24 20:36:33.92	242.81	17.53	-28.2	-28.1	16.1	4.77e-04	0	57	0	17154703360	28	13902
2026-01-24 20:36:34.93	243.12	17.60	-28.3	-28.2	16.0	4.29e-04	0	57	0	17263755264	28	13985
2026-01-24 20:36:35.93	243.43	17.68	-28.2	-28.1	16.1	4.29e-04	0	57	0	17381195776	28	13931
2026-01-24 20:36:36.94	243.74	17.75	-28.1	-28.0	16.1	4.29e-04	0	57	0	17490247680	28	13693
2026-01-24 20:36:37.95	244.06	17.82	-28.1	-28.0	16.1	4.29e-04	0	57	0	17607688192	28	13748
2026-01-24 20:36:38.96	244.37	17.90	-28.0	-28.0	16.1	4.05e-04	0	57	0	17725128704	28	13647
2026-01-24 20:36:39.97	244.69	17.97	-28.0	-27.9	16.2	4.05e-04	0	57	0	17842569216	28	13534
2026-01-24 20:36:40.98	245.01	18.04	-28.0	-27.9	16.1	4.05e-04	0	57	0	17951621120	27	14400
2026-01-24 20:36:41.98	245.33	18.11	-28.0	-27.9	16.1	3.19e-04	0	57	0	18060673024	27	14338
2026-01-24 20:36:42.99	245.65	18.18	-28.2	-28.1	16.1	3.19e-04	0	57	0	18178113536	27	14671
2026-01-24 20:36:44.00	245.98	18.25	-28.1	-28.0	16.1	3.19e-04	0	57	0	18287165440	27	14556
2026-01-24 20:36:45.00	246.30	18.32	-27.9	-27.8	16.2	4.00e-04	0	57	0	18404605952	27	14212
2026-01-24 20:36:46.01	246.63	18.39	-28.0	-27.9	16.2	4.00e-04	0	57	0	18513657856	27	14287
2026-01-24 20:36:47.02	246.96	18.46	-27.8	-27.7	16.2	4.00e-04	0	57	0	18631098368	27	14018
2026-01-24 20:36:48.03	247.29	18.53	-27.6	-27.5	16.3	2.62e-04	0	57	0	18740150272	27	13681
2026-01-24 20:36:49.04	247.62	18.60	-27.6	-27.5	16.2	2.62e-04	0	57	0	18849202176	27	13775
2026-01-24 20:36:50.05	247.96	18.66	-27.5	-27.4	16.3	1.38e-04	0	57	0	18966642688	26	14357
2026-01-24 20:36:51.05	248.29	18.73	-27.6	-27.5	16.3	1.38e-04	0	57	0	19092471808	26	14522
2026-01-24 20:36:52.06	248.63	18.79	-27.5	-27.4	16.3	1.38e-04	0	57	0	19201523712	26	14293
2026-01-24 20:36:53.07	248.97	18.86	-27.4	-27.3	16.3	1.57e-04	0	57	0	19310575616	26	14175
2026-01-24 20:36:54.08	249.31	18.92	-27.5	-27.4	16.3	1.57e-04	0	57	0	19428016128	26	14363
2026-01-24 20:36:55.09	249.65	18.99	-27.5	-27.4	16.3	1.57e-04	0	57	0	19537068032	26	14412
2026-01-24 20:36:56.10	250.00	19.05	-27.6	-27.5	16.3	1.14e-04	0	57	0	19654508544	26	14479
2026-01-24 20:36:57.10	250.34	19.11	-27.5	-27.4	16.3	1.14e-04	0	57	0	19763560448	26	14384
2026-01-24 20:36:58.11	250.69	19.17	-27.5	-27.4	16.3	1.62e-04	0	57	0	19872612352	26	14351
2026-01-24 20:36:59.11	251.03	19.23	-27.4	-27.3	16.3	1.62e-04	0	57	0	19990052864	26	14162
2026-01-24 20:37:00.12	251.38	19.29	-27.4	-27.3	16.3	1.62e-04	0	57	0	20099104768	26	14118
2026-01-24 20:37:01.13	251.74	19.35	-27.4	-27.3	16.3	1.38e-04	0	57	0	20216545280	26	14219
2026-01-24 20:37:02.14	252.09	19.41	-27.4	-27.3	16.3	1.38e-04	0	57	0	20325597184	26	14252
2026-01-24 20:37:03.15	252.45	19.47	-27.4	-27.3	16.3	1.38e-04	0	57	0	20434649088	26	14204
2026-01-24 20:37:04.16	252.80	19.53	-27.4	-27.3	16.3	1.19e-04	0	57	0	20560478208	26	14144
2026-01-24 20:37:05.16	253.16	19.58	-27.3	-27.2	16.4	1.19e-04	0	57	0	20677918720	26	14098
2026-01-24 20:37:06.17	253.52	19.64	-27.3	-27.2	16.3	1.19e-04	0	57	0	20786970624	26	14057
2026-01-24 20:37:07.18	253.88	19.69	-27.3	-27.1	16.4	1.19e-04	0	57	0	20896022528	26	13939
2026-01-24 20:37:08.19	254.24	19.74	-27.3	-27.2	16.4	1.10e-04	0	57	0	21013463040	26	13970
2026-01-24 20:37:09.20	254.61	19.80	-27.3	-27.2	16.4	1.10e-04	0	57	0	21122514944	26	14102
2026-01-24 20:37:10.20	254.97	19.85	-27.4	-27.3	16.4	1.10e-04	0	57	0	21239955456	26	14153
2026-01-24 20:37:11.21	255.33	19.90	-27.3	-27.2	16.4	8.10e-05	0	57	0	21349007360	26	14004
2026-01-24 20:37:12.22	255.70	19.95	-27.3	-27.2	16.4	8.10e-05	0	57	0	21466447872	26	14030
2026-01-24 20:37:13.22	256.07	19.99	-27.4	-27.3	16.4	8.10e-05	0	57	0	21575499776	26	14169
2026-01-24 20:37:14.23	256.44	20.04	-27.3	-27.2	16.3	1.05e-04	0	57	0	21684551680	26	14090
2026-01-24 20:37:15.24	256.81	20.09	-27.4	-27.3	16.3	1.05e-04	0	57	0	21801992192	26	14243
2026-01-24 20:37:16.25	257.18	20.14	-27.3	-27.2	16.3	1.38e-04	0	57	0	21911044096	26	14074
2026-01-24 20:37:17.26	257.56	20.18	-27.4	-27.3	16.3	1.38e-04	0	57	0	22036873216	26	14228
2026-01-24 20:37:18.26	257.93	20.22	-27.6	-27.5	16.3	1.62e-04	0	57	0	22145925120	26	14449
2026-01-24 20:37:19.27	258.31	20.27	-27.3	-27.2	16.3	1.62e-04	0	57	0	22263365632	26	14085
2026-01-24 20:37:20.28	258.68	20.31	-27.4	-27.3	16.3	1.62e-04	0	57	0	22372417536	26	14157
2026-01-24 20:37:21.29	259.06	20.35	-27.3	-27.2	16.3	1.38e-04	0	57	0	22489858048	26	14001
2026-01-24 20:37:22.29	259.44	20.39	-27.2	-27.1	16.3	1.38e-04	0	57	0	22598909952	26	13939
2026-01-24 20:37:23.30	259.82	20.43	-27.4	-27.3	16.3	1.38e-04	0	57	0	22707961856	26	14124
2026-01-24 20:37:24.31	260.20	20.46	-27.2	-27.1	16.3	1.76e-04	0	58	0	22825402368	26	13830
2026-01-24 20:37:25.32	260.59	20.50	-27.2	-27.1	16.3	1.76e-04	0	57	0	22934454272	26	13911
2026-01-24 20:37:26.32	260.97	20.54	-27.2	-27.1	16.3	1.76e-04	0	57	0	23051894784	26	13881
2026-01-24 20:37:27.33	261.35	20.57	-27.3	-27.2	16.3	1.76e-04	0	57	0	23160946688	26	14025
2026-01-24 20:37:28.34	261.74	20.60	-27.1	-27.1	16.3	1.48e-04	0	57	0	23269998592	26	13798
2026-01-24 20:37:29.35	262.13	20.64	-27.2	-27.1	16.3	1.48e-04	0	57	0	23387439104	26	13858
2026-01-24 20:37:30.35	262.51	20.67	-27.2	-27.1	16.3	1.48e-04	0	57	0	23513268224	26	13851
2026-01-24 20:37:31.36	262.90	20.70	-27.3	-27.2	16.3	1.67e-04	0	57	0	23622320128	26	13997
2026-01-24 20:37:32.37	263.29	20.72	-27.3	-27.2	16.3	1.67e-04	0	58	0	23731372032	26	14023
2026-01-24 20:37:33.37	263.68	20.75	-27.2	-27.1	16.3	1.19e-04	0	57	0	23848812544	26	13840
2026-01-24 20:37:34.38	264.07	20.78	-27.1	-27.0	16.3	1.19e-04	0	57	0	23957864448	26	13786
2026-01-24 20:37:35.39	264.46	20.80	-27.3	-27.2	16.3	1.19e-04	0	57	0	24075304960	26	14071
2026-01-24 20:37:36.40	264.85	20.83	-27.2	-27.1	16.3	1.19e-04	0	58	0	24184356864	26	13922
2026-01-24 20:37:37.41	265.24	20.85	-27.2	-27.1	16.3	1.29e-04	0	57	0	24293408768	26	13879
2026-01-24 20:37:38.41	265.63	20.87	-27.2	-27.1	16.3	1.29e-04	0	57	0	24410849280	26	13817
2026-01-24 20:37:39.42	266.03	20.89	-27.2	-27.1	16.3	1.29e-04	0	57	0	24519901184	26	13830
2026-01-24 20:37:40.43	266.42	20.91	-27.2	-27.1	16.2	1.67e-04	0	57	0	24637341696	26	13821
2026-01-24 20:37:41.44	266.82	20.93	-27.1	-27.0	16.3	1.67e-04	0	57	0	24746393600	26	13787
2026-01-24 20:37:42.45	267.21	20.94	-27.3	-27.1	16.2	1.67e-04	0	57	0	24863834112	26	13939
2026-01-24 20:37:43.45	267.61	20.96	-27.1	-27.0	16.3	9.05e-05	0	57	0	24981274624	26	13742
2026-01-24 20:37:44.46	268.00	20.97	-27.3	-27.2	16.2	9.05e-05	0	57	0	25098715136	26	13994
2026-01-24 20:37:45.47	268.40	20.99	-27.1	-27.0	16.2	9.05e-05	0	57	0	25207767040	26	13739
2026-01-24 20:37:46.48	268.80	21.00	-27.1	-27.0	16.2	9.53e-05	0	58	0	25325207552	26	13755
2026-01-24 20:37:47.49	269.20	21.01	-27.1	-27.0	16.2	9.53e-05	0	57	0	25434259456	26	13637
2026-01-24 20:37:48.50	269.59	21.02	-27.1	-27.0	16.2	9.53e-05	0	57	0	25543311360	26	13720
2026-01-24 20:37:49.50	269.99	21.02	-27.4	-27.3	16.2	1.00e-04	0	57	0	25660751872	26	14126
2026-01-24 20:37:50.51	270.39	21.03	-27.4	-27.3	16.1	1.00e-04	0	57	0	25769803776	26	14230
2026-01-24 20:37:51.52	270.78	21.04	-27.2	-27.1	16.2	1.00e-04	0	57	0	25887244288	26	13943
2026-01-24 20:37:52.52	271.18	21.04	-27.3	-27.2	16.1	1.00e-04	0	57	0	25996296192	26	14047
2026-01-24 20:37:53.53	271.58	21.04	-27.4	-27.3	16.1	2.05e-04	0	57	0	26105348096	26	14179
2026-01-24 20:37:54.54	271.98	21.05	-27.3	-27.2	16.1	2.05e-04	0	57	0	26222788608	26	14029
2026-01-24 20:37:55.55	272.38	21.05	-27.4	-27.3	16.1	2.05e-04	0	57	0	26331840512	26	14168
2026-01-24 20:37:56.56	272.78	21.04	-27.3	-27.2	16.2	1.38e-04	0	57	0	26457669632	26	13972
2026-01-24 20:37:57.56	273.17	21.04	-27.3	-27.2	16.2	1.38e-04	0	57	0	26566721536	26	13961
2026-01-24 20:37:58.57	273.57	21.04	-27.3	-27.2	16.2	1.38e-04	0	58	0	26684162048	26	13989
2026-01-24 20:37:59.58	273.97	21.03	-27.3	-27.2	16.2	1.24e-04	0	58	0	26793213952	26	13971
2026-01-24 20:38:00.59	274.37	21.03	-27.3	-27.1	16.2	1.24e-04	0	58	0	26910654464	26	13947
2026-01-24 20:38:01.59	274.76	21.02	-27.4	-27.3	16.1	1.24e-04	0	57	0	27019706368	26	14171
2026-01-24 20:38:02.60	275.16	21.01	-27.4	-27.3	16.1	1.91e-04	0	57	0	27128758272	26	14201
2026-01-24 20:38:03.61	275.56	21.00	-27.4	-27.3	16.2	1.91e-04	0	57	0	27246198784	26	14187
2026-01-24 20:38:04.62	275.95	20.99	-27.4	-27.3	16.2	1.48e-04	0	57	0	27355250688	26	14167
2026-01-24 20:38:05.63	276.35	20.98	-27.5	-27.4	16.1	1.48e-04	0	58	0	27472691200	26	14301
2026-01-24 20:38:06.64	276.75	20.97	-27.3	-27.2	16.1	1.48e-04	0	58	0	27581743104	26	14075
2026-01-24 20:38:07.64	277.14	20.95	-27.5	-27.4	16.1	2.00e-04	0	57	0	27690795008	26	14322
2026-01-24 20:38:08.65	277.53	20.94	-27.5	-27.4	16.1	2.00e-04	0	57	0	27808235520	26	14348
2026-01-24 20:38:09.66	277.93	20.92	-27.6	-27.5	16.3	2.00e-04	0	58	0	27934064640	26	14495
2026-01-24 20:38:10.67	278.32	20.90	-27.6	-27.5	16.3	2.43e-04	0	58	0	28043116544	26	14448
2026-01-24 20:38:11.68	278.72	20.88	-27.6	-27.5	16.2	2.43e-04	0	58	0	28152168448	26	14500
2026-01-24 20:38:12.68	279.11	20.86	-27.6	-27.5	16.2	2.43e-04	0	58	0	28269608960	26	14582
2026-01-24 20:38:13.69	279.50	20.84	-27.5	-27.4	16.3	2.43e-04	0	58	0	28378660864	26	14396
2026-01-24 20:38:14.70	279.89	20.81	-27.5	-27.4	16.3	1.67e-04	0	58	0	28496101376	26	14419
2026-01-24 20:38:15.71	280.29	20.79	-27.5	-27.4	16.3	1.67e-04	0	58	0	28605153280	26	14335
2026-01-24 20:38:16.72	280.68	20.76	-27.4	-27.3	16.3	1.48e-04	0	58	0	28722593792	26	14169
2026-01-24 20:38:17.72	281.06	20.74	-27.4	-27.3	16.3	1.48e-04	0	58	0	28831645696	26	14233
2026-01-24 20:38:18.73	281.45	20.71	-53.8	-56.2	6.2	1.48e-04	0	57	104	28907143168	78	19721
2026-01-24 20:38:19.74	281.84	20.68	-53.9	-56.1	6.2	1.48e-04	0	56	104	28907143168	78	19508
2026-01-24 20:38:20.75	282.23	20.65	-53.9	-56.0	6.2	1.48e-04	0	56	104	28907143168	78	19441
2026-01-24 20:38:21.76	282.62	20.62	-53.8	-56.0	6.2	1.48e-04	0	56	104	28907143168	78	19327
2026-01-24 20:38:22.76	283.00	20.59	-53.9	-56.1	6.2	1.48e-04	0	56	104	28907143168	78	19500
2026-01-24 20:38:23.77	283.38	20.55	-53.9	-56.1	6.2	1.48e-04	0	56	104	28907143168	78	19500
2026-01-24 20:38:24.77	283.76	20.52	-53.9	-56.1	6.2	1.48e-04	0	56	104	28907143168	78	19548
2026-01-24 20:38:25.78	284.15	20.48	-53.9	-56.1	6.2	1.48e-04	0	56	104	28907143168	78	19485
2026-01-24 20:38:26.79	284.53	20.45	-53.9	-56.0	6.2	7.62e-05	0	56	104	28907143168	78	19443
2026-01-24 20:38:27.80	284.91	20.41	-53.9	-56.0	6.2	7.62e-05	0	56	104	28907143168	78	19386
2026-01-24 20:38:28.81	285.29	20.37	-53.9	-56.0	6.2	7.62e-05	0	56	104	28907143168	78	19464
2026-01-24 20:38:29.81	285.66	20.33	-53.9	-56.1	6.2	7.62e-05	0	56	104	28907143168	78	19527
2026-01-24 20:38:30.82	286.04	20.29	-53.9	-56.1	6.2	7.62e-05	0	56	104	28907143168	78	19535
2026-01-24 20:38:31.83	286.42	20.25	-53.9	-56.0	6.2	7.62e-05	0	56	104	28907143168	78	19373
2026-01-24 20:38:32.84	286.79	20.20	-54.0	-56.0	6.2	7.62e-05	0	56	104	28907143168	78	19463
2026-01-24 20:38:33.85	287.17	20.16	-54.0	-56.1	6.2	7.62e-05	0	56	104	28907143168	78	19556
2026-01-24 20:38:34.86	287.54	20.11	-53.9	-56.1	6.2	7.62e-05	0	56	104	28907143168	78	19514
2026-01-24 20:38:35.86	287.91	20.07	-53.9	-56.0	6.2	0.00e+00	0	56	104	28907143168	78	19455
2026-01-24 20:38:36.87	288.28	20.02	-54.0	-56.1	6.2	0.00e+00	0	56	104	28907143168	78	19561
2026-01-24 20:38:37.88	288.65	19.97	-54.0	-56.1	6.2	0.00e+00	0	55	104	28907143168	78	19573
2026-01-24 20:38:38.88	289.01	19.92	-54.0	-56.1	6.2	0.00e+00	0	55	104	28907143168	78	19537
2026-01-24 20:38:39.89	289.38	19.87	-53.9	-56.0	6.2	0.00e+00	0	56	104	28907143168	78	19473
2026-01-24 20:38:40.90	289.74	19.82	-54.0	-56.1	6.2	0.00e+00	0	55	104	28907143168	78	19585
2026-01-24 20:38:41.91	290.11	19.77	-53.9	-56.1	6.2	0.00e+00	0	56	104	28907143168	78	19506
2026-01-24 20:38:42.91	290.46	19.72	-54.0	-56.1	6.2	0.00e+00	0	56	104	28907143168	78	19540
2026-01-24 20:38:43.92	290.83	19.67	-53.9	-56.0	6.2	0.00e+00	0	55	104	28907143168	78	19435
2026-01-24 20:38:44.93	291.18	19.61	-54.0	-56.1	6.2	0.00e+00	0	55	104	28907143168	78	19563
2026-01-24 20:38:45.94	291.54	19.56	-53.9	-56.1	6.2	0.00e+00	0	55	104	28907143168	78	19505
2026-01-24 20:38:46.95	291.90	19.50	-53.9	-56.1	6.2	0.00e+00	0	55	104	28907143168	78	19496
2026-01-24 20:38:47.95	292.25	19.44	-53.9	-56.0	6.2	0.00e+00	0	55	104	28907143168	78	19397
2026-01-24 20:38:48.96	292.60	19.39	-53.9	-56.1	6.2	0.00e+00	0	55	104	28907143168	78	19521
2026-01-24 20:38:49.97	292.96	19.33	-53.9	-56.1	6.2	0.00e+00	0	55	104	28907143168	78	19507
2026-01-24 20:38:50.98	293.31	19.27	-53.9	-56.0	6.2	0.00e+00	0	55	104	28907143168	78	19399
2026-01-24 20:38:51.99	293.66	19.21	-53.9	-56.0	6.2	0.00e+00	0	55	104	28907143168	78	19393
2026-01-24 20:38:52.99	294.00	19.15	-53.9	-56.1	6.2	0.00e+00	0	55	104	28907143168	78	19549
2026-01-24 20:38:54.00	294.35	19.09	-53.9	-56.0	6.2	0.00e+00	0	55	104	28907143168	78	19465
2026-01-24 20:38:55.01	294.69	19.02	-53.9	-56.1	6.2	0.00e+00	0	55	104	28907143168	78	19515
2026-01-24 20:38:56.02	295.03	18.96	-53.9	-56.0	6.2	0.00e+00	0	55	104	28907143168	78	19355
2026-01-24 20:38:57.03	295.37	18.90	-53.9	-56.1	6.2	0.00e+00	0	55	104	28907143168	78	19514
2026-01-24 20:38:58.03	295.71	18.83	-53.9	-56.1	6.2	0.00e+00	0	55	104	28907143168	78	19480
2026-01-24 20:38:59.04	296.05	18.77	-53.9	-56.0	6.2	0.00e+00	0	55	104	28907143168	78	19436
2026-01-24 20:39:00.05	296.38	18.70	-53.9	-56.0	6.2	0.00e+00	0	55	104	28907143168	78	19379
2026-01-24 20:39:01.06	296.72	18.64	-53.9	-56.1	6.2	0.00e+00	0	55	104	28907143168	78	19495
2026-01-24 20:39:02.07	297.05	18.57	-53.9	-56.0	6.2	0.00e+00	0	55	104	28907143168	78	19404
2026-01-24 20:39:03.07	297.38	18.50	-53.9	-56.0	6.2	0.00e+00	0	55	104	28907143168	78	19374
2026-01-24 20:39:04.08	297.71	18.43	-53.9	-56.0	6.2	0.00e+00	0	55	104	28907143168	78	19428
2026-01-24 20:39:05.09	298.03	18.37	-53.9	-56.0	6.2	0.00e+00	0	55	104	28907143168	78	19448
2026-01-24 20:39:06.09	298.36	18.30	-53.9	-56.0	6.2	0.00e+00	0	55	104	28907143168	78	19367
2026-01-24 20:39:07.10	298.68	18.23	-53.9	-56.0	6.2	0.00e+00	0	55	104	28907143168	78	19400
2026-01-24 20:39:08.11	299.00	18.16	-53.9	-56.0	6.2	0.00e+00	0	55	104	28907143168	78	19399
2026-01-24 20:39:09.11	299.32	18.09	-53.9	-56.0	6.2	0.00e+00	0	55	104	28907143168	78	19410
2026-01-24 20:39:10.12	299.64	18.02	-53.9	-56.0	6.2	0.00e+00	0	55	104	28907143168	78	19340
2026-01-24 20:39:11.13	299.96	17.94	-53.9	-56.0	6.2	0.00e+00	0	55	104	28907143168	78	19335
2026-01-24 20:39:12.14	300.27	17.87	-53.8	-55.9	6.2	0.00e+00	0	55	104	28907143168	78	19253
2026-01-24 20:39:13.15	300.59	17.80	-53.9	-56.0	6.2	0.00e+00	0	55	104	28907143168	78	19349
2026-01-24 20:39:14.16	300.90	17.73	-53.9	-56.0	6.2	0.00e+00	0	55	104	28907143168	78	19407
2026-01-24 20:39:15.17	301.21	17.65	-53.8	-55.9	6.2	0.00e+00	0	55	104	28907143168	78	19179
2026-01-24 20:39:16.17	301.52	17.58	-53.8	-56.0	6.2	0.00e+00	0	55	104	28907143168	78	19293
2026-01-24 20:39:17.18	301.83	17.50	-53.9	-56.0	6.2	0.00e+00	0	55	104	28907143168	78	19346
2026-01-24 20:39:18.19	302.13	17.43	-53.8	-56.0	6.2	0.00e+00	0	55	104	28907143168	78	19262
2026-01-24 20:39:19.20	302.43	17.35	-53.8	-55.9	6.2	0.00e+00	0	55	104	28907143168	78	19256
2026-01-24 20:39:20.20	302.73	17.28	-53.8	-55.9	6.2	0.00e+00	0	55	104	28907143168	78	19245
2026-01-24 20:39:21.21	303.03	17.20	-53.8	-55.9	6.2	0.00e+00	0	55	104	28907143168	78	19221
2026-01-24 20:39:22.22	303.33	17.13	-53.8	-55.9	6.2	0.00e+00	0	55	104	28907143168	78	19185
2026-01-24 20:39:23.22	303.63	17.05	-53.8	-55.9	6.2	0.00e+00	0	54	104	28907143168	78	19193
2026-01-24 20:39:24.23	303.92	16.97	-53.8	-55.9	6.2	0.00e+00	0	54	104	28907143168	78	19158
2026-01-24 20:39:25.24	304.21	16.89	-53.8	-55.9	6.2	0.00e+00	0	54	104	28907143168	78	19235
2026-01-24 20:39:26.25	304.51	16.82	-53.8	-55.9	6.2	0.00e+00	0	54	104	28907143168	78	19218
2026-01-24 20:39:27.26	304.80	16.74	-53.8	-55.9	6.2	0.00e+00	0	55	104	28907143168	78	19181
2026-01-24 20:39:28.27	305.08	16.66	-53.8	-55.9	6.2	0.00e+00	0	55	104	28907143168	78	19165
2026-01-24 20:39:29.28	305.37	16.58	-53.8	-55.9	6.2	0.00e+00	0	55	104	28907143168	78	19208
2026-01-24 20:39:30.28	305.65	16.50	-53.8	-55.9	6.2	0.00e+00	0	54	104	28907143168	78	19208
2026-01-24 20:39:31.29	305.94	16.42	-53.8	-55.9	6.2	0.00e+00	0	55	104	28907143168	78	19138
2026-01-24 20:39:32.30	306.22	16.34	-53.8	-55.9	6.2	0.00e+00	0	54	104	28907143168	78	19182
2026-01-24 20:39:33.30	306.49	16.27	-53.8	-55.9	6.2	0.00e+00	0	54	104	28907143168	78	19164
2026-01-24 20:39:34.31	306.77	16.19	-53.8	-55.9	6.2	0.00e+00	0	55	104	28907143168	78	19126
2026-01-24 20:39:35.32	307.05	16.10	-53.8	-55.9	6.2	0.00e+00	0	54	104	28907143168	78	19141
2026-01-24 20:39:36.32	307.32	16.03	-53.8	-55.9	6.2	0.00e+00	0	54	104	28907143168	78	19196
2026-01-24 20:39:37.33	307.59	15.94	-53.8	-55.9	6.2	0.00e+00	0	55	104	28907143168	78	19153
2026-01-24 20:39:38.34	307.86	15.86	-53.8	-55.9	6.2	0.00e+00	0	54	104	28907143168	78	19170
2026-01-24 20:39:39.35	308.13	15.78	-53.8	-55.9	6.2	0.00e+00	0	54	104	28907143168	78	19096
2026-01-24 20:39:40.36	308.40	15.70	-53.8	-55.9	6.2	0.00e+00	0	55	104	28907143168	78	19172
2026-01-24 20:39:41.36	308.66	15.62	-53.8	-55.9	6.2	0.00e+00	0	54	104	28907143168	78	19212
2026-01-24 20:39:42.37	308.93	15.54	-53.8	-55.9	6.2	0.00e+00	0	54	104	28907143168	78	19241
2026-01-24 20:39:43.37	309.19	15.46	-53.8	-55.9	6.2	0.00e+00	0	55	104	28907143168	78	19067
2026-01-24 20:39:44.38	309.45	15.38	-53.8	-55.9	6.2	0.00e+00	0	54	104	28907143168	78	19165
2026-01-24 20:39:45.39	309.71	15.29	-53.8	-55.9	6.2	0.00e+00	0	54	104	28907143168	78	19111
2026-01-24 20:39:46.40	309.97	15.21	-53.7	-55.9	6.2	0.00e+00	0	54	104	28907143168	78	19086
2026-01-24 20:39:47.40	310.22	15.13	-53.7	-55.8	6.2	0.00e+00	0	54	104	28907143168	78	19025
2026-01-24 20:39:48.41	310.48	15.05	-53.7	-55.9	6.2	0.00e+00	0	54	104	28907143168	78	19047
2026-01-24 20:39:49.42	310.73	14.97	-53.7	-55.9	6.2	0.00e+00	0	54	104	28907143168	78	19102
2026-01-24 20:39:50.42	310.98	14.88	-53.7	-55.8	6.2	0.00e+00	0	54	104	28907143168	78	19008
2026-01-24 20:39:51.43	311.23	14.80	-53.7	-55.8	6.2	0.00e+00	0	54	104	28907143168	78	18976
2026-01-24 20:39:52.44	311.48	14.72	-53.7	-55.8	6.2	0.00e+00	0	54	104	28907143168	78	19028
2026-01-24 20:39:53.44	311.72	14.64	-53.7	-55.9	6.2	0.00e+00	0	54	104	28907143168	78	19046
2026-01-24 20:39:54.45	311.96	14.55	-53.7	-55.8	6.2	0.00e+00	0	54	104	28907143168	78	18940
2026-01-24 20:39:55.46	312.21	14.47	-53.7	-55.8	6.2	0.00e+00	0	54	104	28907143168	78	18871
2026-01-24 20:39:56.47	312.45	14.39	-53.7	-55.8	6.2	0.00e+00	0	54	104	28907143168	78	18956
2026-01-24 20:39:57.47	312.69	14.31	-53.7	-55.8	6.2	0.00e+00	0	54	104	28907143168	78	18881
2026-01-24 20:39:58.48	312.93	14.22	-53.6	-55.8	6.2	0.00e+00	0	54	104	28907143168	78	18908
2026-01-24 20:39:59.49	313.16	14.14	-53.6	-55.7	6.2	0.00e+00	0	54	104	28907143168	78	18808
2026-01-24 20:40:00.50	313.40	14.06	-53.7	-55.8	6.2	0.00e+00	0	54	104	28907143168	78	18887
2026-01-24 20:40:01.50	313.63	13.97	-53.6	-55.8	6.2	0.00e+00	0	54	104	28907143168	78	18866
2026-01-24 20:40:02.51	313.86	13.89	-53.6	-55.7	6.2	0.00e+00	0	54	104	28907143168	78	18800
2026-01-24 20:40:03.52	314.09	13.81	-53.6	-55.7	6.2	0.00e+00	0	54	104	28907143168	78	18741
2026-01-24 20:40:04.52	314.32	13.73	-53.7	-55.8	6.2	0.00e+00	0	54	104	28907143168	78	18850
2026-01-24 20:40:05.53	314.55	13.64	-53.6	-55.8	6.2	0.00e+00	0	54	104	28907143168	78	18840
2026-01-24 20:40:06.54	314.78	13.56	-53.6	-55.7	6.2	0.00e+00	0	54	104	28907143168	78	18752
2026-01-24 20:40:07.55	315.00	13.48	-53.6	-55.7	6.2	0.00e+00	0	54	104	28907143168	78	18654
2026-01-24 20:40:08.56	315.23	13.39	-53.6	-55.7	6.2	0.00e+00	0	54	104	28907143168	78	18780
2026-01-24 20:40:09.56	315.45	13.31	-53.6	-55.7	6.2	0.00e+00	0	54	104	28907143168	78	18723
2026-01-24 20:40:10.57	315.67	13.23	-53.6	-55.7	6.2	0.00e+00	0	54	104	28907143168	78	18680
2026-01-24 20:40:11.58	315.89	13.15	-53.5	-55.7	6.2	0.00e+00	0	54	104	28907143168	78	18666
2026-01-24 20:40:12.59	316.10	13.06	-53.6	-55.7	6.2	0.00e+00	0	54	104	28907143168	78	18684
2026-01-24 20:40:13.60	316.32	12.98	-53.6	-55.7	6.2	0.00e+00	0	54	104	28907143168	78	18694
2026-01-24 20:40:14.60	316.53	12.90	-53.5	-55.7	6.2	0.00e+00	0	54	104	28907143168	78	18647
2026-01-24 20:40:15.61	316.75	12.81	-53.5	-55.6	6.2	0.00e+00	0	54	104	28907143168	78	18557
2026-01-24 20:40:16.61	316.96	12.73	-53.5	-55.7	6.2	0.00e+00	0	54	104	28907143168	78	18653
2026-01-24 20:40:17.62	317.17	12.65	-53.5	-55.6	6.2	0.00e+00	0	54	104	28907143168	78	18537
2026-01-24 20:40:18.63	317.38	12.57	-53.5	-55.6	6.2	0.00e+00	0	54	104	28907143168	78	18536
2026-01-24 20:40:19.64	317.58	12.48	-53.5	-55.6	6.2	0.00e+00	0	54	104	28907143168	78	18539
2026-01-24 20:40:20.64	317.79	12.40	-53.5	-55.7	6.2	0.00e+00	0	54	104	28907143168	78	18623
2026-01-24 20:40:21.65	317.99	12.32	-53.5	-55.6	6.2	0.00e+00	0	54	104	28907143168	78	18506
2026-01-24 20:40:22.66	318.20	12.24	-53.5	-55.6	6.2	0.00e+00	0	54	104	28907143168	78	18524
2026-01-24 20:40:23.67	318.40	12.16	-53.5	-55.6	6.2	0.00e+00	0	54	104	28907143168	78	18459
2026-01-24 20:40:24.67	318.60	12.07	-53.5	-55.6	6.2	0.00e+00	0	54	104	28907143168	78	18510
2026-01-24 20:40:25.68	318.80	11.99	-53.5	-55.6	6.2	0.00e+00	0	54	104	28907143168	78	18434
2026-01-24 20:40:26.69	319.00	11.91	-53.4	-55.6	6.2	0.00e+00	0	54	104	28907143168	78	18392
2026-01-24 20:40:27.69	319.20	11.83	-53.4	-55.6	6.2	0.00e+00	0	54	104	28907143168	78	18393
2026-01-24 20:40:28.70	319.39	11.75	-53.5	-55.6	6.2	0.00e+00	0	54	104	28907143168	78	18453
2026-01-24 20:40:29.71	319.59	11.67	-53.4	-55.6	6.2	0.00e+00	0	54	104	28907143168	78	18394
2026-01-24 20:40:30.72	319.78	11.58	-53.4	-55.5	6.2	0.00e+00	0	54	104	28907143168	78	18329
2026-01-24 20:40:31.73	319.97	11.50	-53.4	-55.5	6.2	0.00e+00	0	54	104	28907143168	78	18242
2026-01-24 20:40:32.74	320.16	11.42	-53.4	-55.6	6.2	0.00e+00	0	54	104	28907143168	78	18419
2026-01-24 20:40:33.74	320.35	11.34	-53.4	-55.5	6.2	0.00e+00	0	54	104	28907143168	78	18286
2026-01-24 20:40:34.75	320.54	11.26	-53.4	-55.5	6.2	0.00e+00	0	54	104	28907143168	78	18326
2026-01-24 20:40:35.76	320.73	11.18	-53.4	-55.5	6.2	0.00e+00	0	54	104	28907143168	78	18226
2026-01-24 20:40:36.76	320.91	11.10	-53.4	-55.5	6.2	0.00e+00	0	54	104	28907143168	78	18359
2026-01-24 20:40:37.77	321.10	11.02	-53.4	-55.5	6.2	0.00e+00	0	54	104	28907143168	78	18258
2026-01-24 20:40:38.78	321.28	10.94	-53.3	-55.5	6.2	0.00e+00	0	54	104	28907143168	78	18217
2026-01-24 20:40:39.79	321.46	10.86	-53.3	-55.5	6.2	0.00e+00	0	54	104	28907143168	78	18187
2026-01-24 20:40:40.79	321.64	10.78	-53.4	-55.6	6.2	0.00e+00	0	54	104	28907143168	78	18394
2026-01-24 20:40:41.80	321.82	10.70	-53.3	-55.5	6.2	0.00e+00	0	54	104	28907143168	78	18193
2026-01-24 20:40:42.81	322.00	10.62	-53.3	-55.4	6.2	0.00e+00	0	54	104	28907143168	78	18158
2026-01-24 20:40:43.81	322.18	10.54	-53.3	-55.4	6.2	0.00e+00	0	54	104	28907143168	78	18068
2026-01-24 20:40:44.82	322.36	10.46	-53.4	-55.5	6.2	0.00e+00	0	54	104	28907143168	78	18231
2026-01-24 20:40:45.82	322.53	10.38	-53.3	-55.4	6.2	0.00e+00	0	54	104	28907143168	78	18105
2026-01-24 20:40:46.83	322.70	10.30	-53.3	-55.4	6.2	0.00e+00	0	54	104	28907143168	78	18110
2026-01-24 20:40:47.83	322.88	10.22	-53.2	-55.4	6.2	0.00e+00	0	54	104	28907143168	78	17996
2026-01-24 20:40:48.84	323.05	10.14	-53.3	-55.4	6.2	0.00e+00	0	54	104	28907143168	78	18133
2026-01-24 20:40:49.85	323.22	10.06	-53.2	-55.4	6.2	0.00e+00	0	54	104	28907143168	78	18011
2026-01-24 20:40:50.85	323.39	9.98	-53.2	-55.3	6.2	0.00e+00	0	54	104	28907143168	78	17967
2026-01-24 20:40:51.86	323.56	9.90	-53.2	-55.3	6.2	0.00e+00	0	54	104	28907143168	78	17870
2026-01-24 20:40:52.87	323.72	9.82	-53.3	-55.4	6.2	0.00e+00	0	54	104	28907143168	78	18061
2026-01-24 20:40:53.88	323.89	9.75	-53.2	-55.3	6.2	0.00e+00	0	54	104	28907143168	78	17911
2026-01-24 20:40:54.89	324.06	9.67	-53.2	-55.3	6.2	0.00e+00	0	54	104	28907143168	78	17957
2026-01-24 20:40:55.90	324.22	9.59	-53.1	-55.3	6.2	0.00e+00	0	54	104	28907143168	78	17800
2026-01-24 20:40:56.90	324.38	9.51	-53.2	-55.4	6.2	0.00e+00	0	54	104	28907143168	78	18037
2026-01-24 20:40:57.91	324.55	9.43	-53.1	-55.3	6.2	0.00e+00	0	54	104	28907143168	78	17788
2026-01-24 20:40:58.92	324.71	9.36	-53.2	-55.3	6.2	0.00e+00	0	54	104	28907143168	78	17782
2026-01-24 20:40:59.92	324.87	9.28	-53.1	-55.2	6.2	0.00e+00	0	54	104	28907143168	78	17740
2026-01-24 20:41:00.92	325.03	9.20	-53.2	-55.3	6.2	0.00e+00	0	54	104	28907143168	78	17919
2026-01-24 20:41:01.93	325.18	9.12	-53.1	-55.2	6.2	0.00e+00	0	54	104	28907143168	78	17720
2026-01-24 20:41:02.94	325.34	9.05	-53.1	-55.2	6.2	0.00e+00	0	54	104	28907143168	78	17747
2026-01-24 20:41:03.94	325.50	8.97	-53.1	-55.2	6.2	0.00e+00	0	54	104	28907143168	78	17667
2026-01-24 20:41:04.95	325.65	8.89	-53.2	-55.3	6.2	0.00e+00	0	54	104	28907143168	78	17823
2026-01-24 20:41:05.96	325.81	8.82	-53.1	-55.2	6.2	0.00e+00	0	54	104	28907143168	78	17704
2026-01-24 20:41:06.97	325.96	8.74	-53.1	-55.2	6.2	0.00e+00	0	54	104	28907143168	78	17696
2026-01-24 20:41:07.98	326.11	8.66	-53.1	-55.2	6.2	0.00e+00	0	54	104	28907143168	78	17611
2026-01-24 20:41:08.98	326.26	8.59	-53.1	-55.3	6.2	0.00e+00	0	54	104	28907143168	78	17788
2026-01-24 20:41:09.99	326.42	8.51	-53.1	-55.2	6.2	0.00e+00	0	54	104	28907143168	78	17669
2026-01-24 20:41:11.00	326.57	8.44	-53.1	-55.2	6.2	0.00e+00	0	54	104	28907143168	78	17610
2026-01-24 20:41:12.01	326.71	8.36	-53.0	-55.1	6.2	0.00e+00	0	54	104	28907143168	78	17512
2026-01-24 20:41:13.02	326.86	8.29	-53.1	-55.2	6.2	0.00e+00	0	54	104	28907143168	78	17713
2026-01-24 20:41:14.03	327.01	8.21	-53.0	-55.1	6.2	0.00e+00	0	54	104	28907143168	78	17529
2026-01-24 20:41:15.03	327.15	8.13	-53.0	-55.2	6.2	0.00e+00	0	54	104	28907143168	78	17665
2026-01-24 20:41:16.04	327.30	8.06	-52.9	-55.1	6.2	0.00e+00	0	54	104	28907143168	77	18477
2026-01-24 20:41:17.05	327.44	7.98	-53.1	-55.2	6.2	0.00e+00	0	54	104	28907143168	77	18670
2026-01-24 20:41:18.06	327.59	7.91	-53.0	-55.1	6.2	0.00e+00	0	54	104	28907143168	77	18446
2026-01-24 20:41:19.07	327.73	7.84	-53.0	-55.1	6.2	0.00e+00	0	54	104	28907143168	77	18521
2026-01-24 20:41:20.07	327.87	7.76	-52.9	-55.0	6.2	0.00e+00	0	54	104	28907143168	77	18302
2026-01-24 20:41:21.08	328.01	7.69	-53.0	-55.1	6.2	0.00e+00	0	54	104	28907143168	77	18512
2026-01-24 20:41:22.09	328.15	7.61	-52.9	-55.0	6.2	0.00e+00	0	54	104	28907143168	77	18365
2026-01-24 20:41:23.09	328.29	7.54	-52.9	-55.1	6.2	0.00e+00	0	54	104	28907143168	77	18406
2026-01-24 20:41:24.10	328.43	7.47	-52.8	-55.0	6.2	0.00e+00	0	54	104	28907143168	77	18191
2026-01-24 20:41:25.11	328.57	7.39	-53.0	-55.1	6.2	0.00e+00	0	54	104	28907143168	77	18522
2026-01-24 20:41:26.11	328.70	7.32	-52.9	-55.0	6.2	0.00e+00	0	54	104	28907143168	77	18238
2026-01-24 20:41:27.12	328.84	7.25	-52.9	-55.0	6.2	0.00e+00	0	54	104	28907143168	77	18347
2026-01-24 20:41:28.13	328.97	7.17	-52.8	-54.9	6.2	0.00e+00	0	54	104	28907143168	77	18092
2026-01-24 20:41:29.14	329.11	7.10	-52.9	-55.1	6.2	0.00e+00	0	54	104	28907143168	77	18435
2026-01-24 20:41:30.15	329.24	7.03	-52.8	-54.9	6.2	0.00e+00	0	54	104	28907143168	77	18156
2026-01-24 20:41:31.15	329.37	6.95	-52.8	-55.0	6.2	0.00e+00	0	54	104	28907143168	77	18200
2026-01-24 20:41:32.16	329.50	6.88	-52.8	-54.9	6.2	0.00e+00	0	54	104	28907143168	77	18045
2026-01-24 20:41:33.17	329.63	6.81	-52.9	-55.0	6.2	0.00e+00	0	54	104	28907143168	77	18312
2026-01-24 20:41:34.18	329.77	6.74	-52.7	-54.9	6.2	0.00e+00	0	54	104	28907143168	77	17985
2026-01-24 20:41:35.19	329.89	6.67	-52.8	-54.9	6.2	0.00e+00	0	54	104	28907143168	77	18061
2026-01-24 20:41:36.19	330.02	6.59	-52.7	-54.8	6.2	0.00e+00	0	54	104	28907143168	77	17922
2026-01-24 20:41:37.20	330.15	6.52	-52.8	-54.9	6.2	0.00e+00	0	54	104	28907143168	77	18162
2026-01-24 20:41:38.21	330.28	6.45	-52.7	-54.8	6.2	0.00e+00	0	54	104	28907143168	77	17950
2026-01-24 20:41:39.22	330.40	6.38	-52.7	-54.9	6.2	0.00e+00	0	54	104	28907143168	77	17981
2026-01-24 20:41:40.23	330.53	6.31	-52.7	-54.8	6.2	0.00e+00	0	54	104	28907143168	76	18934
2026-01-24 20:41:41.23	330.65	6.24	-52.7	-54.9	6.2	0.00e+00	0	54	104	28907143168	76	19076
2026-01-24 20:41:42.24	330.78	6.17	-52.7	-54.8	6.2	0.00e+00	0	54	104	28907143168	76	18886
2026-01-24 20:41:43.25	330.90	6.10	-52.7	-54.8	6.2	0.00e+00	0	54	104	28907143168	76	18865
2026-01-24 20:41:44.26	331.03	6.03	-52.6	-54.8	6.2	0.00e+00	0	54	104	28907143168	76	18869
2026-01-24 20:41:45.27	331.15	5.96	-52.7	-54.8	6.2	0.00e+00	0	54	104	28907143168	76	18964
2026-01-24 20:41:46.27	331.27	5.89	-52.6	-54.8	6.2	0.00e+00	0	54	104	28907143168	76	18839
2026-01-24 20:41:47.28	331.39	5.82	-52.6	-54.8	6.2	0.00e+00	0	54	104	28907143168	76	18851
2026-01-24 20:41:48.29	331.51	5.75	-52.6	-54.7	6.2	0.00e+00	0	54	104	28907143168	76	18802
2026-01-24 20:41:49.30	331.63	5.68	-52.7	-54.8	6.2	0.00e+00	0	54	104	28907143168	76	18874
2026-01-24 20:41:50.31	331.75	5.61	-52.6	-54.7	6.2	0.00e+00	0	54	104	28907143168	76	18785
2026-01-24 20:41:51.31	331.86	5.54	-52.6	-54.8	6.2	0.00e+00	0	54	104	28907143168	76	18825
2026-01-24 20:41:52.32	331.98	5.47	-52.6	-54.7	6.2	0.00e+00	0	54	104	28907143168	76	18736
2026-01-24 20:41:53.33	332.10	5.40	-52.6	-54.7	6.2	0.00e+00	0	54	104	28907143168	76	18795
2026-01-24 20:41:54.34	332.21	5.33	-52.6	-54.7	6.2	0.00e+00	0	54	104	28907143168	76	18684
2026-01-24 20:41:55.34	332.33	5.26	-52.6	-54.7	6.2	0.00e+00	0	54	104	28907143168	76	18714
2026-01-24 20:41:56.35	332.44	5.19	-52.5	-54.7	6.2	0.00e+00	0	54	104	28907143168	76	18653
2026-01-24 20:41:57.36	332.56	5.12	-52.6	-54.7	6.2	0.00e+00	0	54	104	28907143168	76	18728
2026-01-24 20:41:58.37	332.67	5.06	-52.5	-54.7	6.2	0.00e+00	0	54	104	28907143168	76	18661
2026-01-24 20:41:59.37	332.78	4.99	-52.6	-54.7	6.2	0.00e+00	0	54	104	28907143168	76	18766
2026-01-24 20:42:00.38	332.89	4.92	-53.0	-55.1	6.2	0.00e+00	0	54	104	28907143168	76	19500
2026-01-24 20:42:01.39	333.01	4.85	-53.3	-55.5	6.2	0.00e+00	0	54	104	28907143168	77	19258
2026-01-24 20:42:02.40	333.12	4.79	-53.6	-55.7	6.2	0.00e+00	0	54	104	28907143168	77	19854
2026-01-24 20:42:03.41	333.23	4.72	-53.8	-55.9	6.2	0.00e+00	0	54	104	28907143168	78	19183
2026-01-24 20:42:04.42	333.34	4.65	-54.0	-56.1	6.2	0.00e+00	0	54	104	28907143168	78	19542
2026-01-24 20:42:05.42	333.45	4.58	-54.1	-56.2	6.2	0.00e+00	0	54	104	28907143168	78	19845
2026-01-24 20:42:06.43	333.55	4.52	-54.2	-56.3	6.2	0.00e+00	0	54	104	28907143168	78	20009
2026-01-24 20:42:07.44	333.66	4.45	-54.3	-56.4	6.2	0.00e+00	0	54	104	28907143168	79	19176
2026-01-24 20:42:08.45	333.77	4.38	-54.4	-56.5	6.2	0.00e+00	0	54	104	28907143168	79	19332
2026-01-24 20:42:09.46	333.88	4.32	-54.4	-56.6	6.2	0.00e+00	0	54	104	28907143168	79	19515
2026-01-24 20:42:10.46	333.98	4.25	-54.5	-56.6	6.2	0.00e+00	0	54	104	28907143168	79	19574
2026-01-24 20:42:11.47	334.09	4.18	-54.5	-56.6	6.2	0.00e+00	0	54	104	28907143168	79	19586
2026-01-24 20:42:12.48	334.19	4.12	-54.5	-56.7	6.2	0.00e+00	0	54	104	28907143168	79	19706
2026-01-24 20:42:13.49	334.30	4.05	-54.5	-56.6	6.2	0.00e+00	0	54	104	28907143168	79	19696
2026-01-24 20:42:14.49	334.40	3.99	-54.5	-56.6	6.2	0.00e+00	0	54	104	28907143168	79	19594
2026-01-24 20:42:15.50	334.50	3.92	-54.5	-56.6	6.2	0.00e+00	0	54	104	28907143168	79	19633
2026-01-24 20:42:16.51	334.60	3.85	-54.5	-56.6	6.2	0.00e+00	0	54	104	28907143168	79	19552
2026-01-24 20:42:17.52	334.71	3.79	-54.4	-56.6	6.2	0.00e+00	0	54	104	28907143168	79	19496
2026-01-24 20:42:18.53	334.81	3.72	-54.4	-56.5	6.2	0.00e+00	0	54	104	28907143168	79	19373
2026-01-24 20:42:19.54	334.91	3.66	-54.3	-56.4	6.2	0.00e+00	0	54	104	28907143168	79	19211
2026-01-24 20:42:20.54	335.01	3.59	-54.3	-56.5	6.2	0.00e+00	0	54	104	28907143168	79	19295
2026-01-24 20:42:21.55	335.11	3.53	-54.3	-56.4	6.2	0.00e+00	0	54	104	28907143168	79	19162
2026-01-24 20:42:22.56	335.21	3.46	-54.2	-56.3	6.2	0.00e+00	0	54	104	28907143168	79	18951
2026-01-24 20:42:23.57	335.31	3.40	-54.2	-56.3	6.2	0.00e+00	0	54	104	28907143168	79	18978
2026-01-24 20:42:24.58	335.41	3.34	-54.2	-56.3	6.2	0.00e+00	0	54	104	28907143168	79	18896
2026-01-24 20:42:25.58	335.50	3.27	-54.1	-56.3	6.2	0.00e+00	0	54	104	28907143168	79	18901
2026-01-24 20:42:26.59	335.60	3.21	-54.1	-56.3	6.2	0.00e+00	0	54	104	28907143168	79	18831
2026-01-24 20:42:27.60	335.70	3.14	-54.1	-56.2	6.2	0.00e+00	0	54	104	28907143168	79	18742
2026-01-24 20:42:28.61	335.79	3.08	-54.1	-56.2	6.2	0.00e+00	0	54	104	28907143168	79	18749
2026-01-24 20:42:29.61	335.89	3.02	-54.1	-56.2	6.2	0.00e+00	0	54	104	28907143168	79	18713
2026-01-24 20:42:30.62	335.98	2.95	-54.1	-56.2	6.2	0.00e+00	0	54	104	28907143168	79	18705
2026-01-24 20:42:31.63	336.08	2.89	-54.1	-56.2	6.2	0.00e+00	0	54	104	28907143168	79	18670
2026-01-24 20:42:32.63	336.17	2.83	-54.0	-56.2	6.2	0.00e+00	0	54	104	28907143168	79	18663
2026-01-24 20:42:33.64	336.27	2.76	-54.0	-56.2	6.2	0.00e+00	0	54	104	28907143168	79	18657
2026-01-24 20:42:34.65	336.36	2.70	-54.0	-56.2	6.2	0.00e+00	0	54	104	28907143168	79	18649
2026-01-24 20:42:35.66	336.45	2.64	-54.0	-56.2	6.2	0.00e+00	0	54	104	28907143168	79	18634
2026-01-24 20:42:36.67	336.55	2.57	-54.0	-56.1	6.2	0.00e+00	0	54	104	28907143168	79	18576
2026-01-24 20:42:37.68	336.64	2.51	-54.0	-56.1	6.2	0.00e+00	0	54	104	28907143168	79	18595
2026-01-24 20:42:38.68	336.73	2.45	-54.0	-56.1	6.2	0.00e+00	0	54	104	28907143168	79	18600
2026-01-24 20:42:39.69	336.82	2.39	-54.0	-56.1	6.2	0.00e+00	0	54	104	28907143168	79	18539
2026-01-24 20:42:40.70	336.91	2.33	-54.0	-56.1	6.2	0.00e+00	0	54	104	28907143168	79	18586
2026-01-24 20:42:41.71	337.00	2.26	-54.0	-56.1	6.2	0.00e+00	0	54	104	28907143168	79	18555
2026-01-24 20:42:42.71	337.09	2.20	-54.0	-56.1	6.2	0.00e+00	0	54	104	28907143168	79	18513
2026-01-24 20:42:43.72	337.18	2.14	-54.0	-56.1	6.2	0.00e+00	0	54	104	28907143168	79	18474
2026-01-24 20:42:44.73	337.27	2.08	-54.0	-56.1	6.2	0.00e+00	0	54	104	28907143168	79	18502
2026-01-24 20:42:45.74	337.36	2.02	-54.0	-56.1	6.2	0.00e+00	0	54	104	28907143168	79	18451

#Closed at: 2026-01-24 20:42:46
#Recorded file [28907 MB]: D:/lorett/data/31041_260124_233308.dat