passes_logs/2026/01/24/R3.2S_Murmansk/R3.2S_Murmansk__20260124_084030_NOAA_20_JPSS-1_rec.log

#Pass ID: 20260124_084030_NOAA 20 (JPSS-1)
#Satellite: NOAA 20 (JPSS-1)
#Configuration: NOAA 20
#almurnet v.1.7.20251203
#Start time: 2026-01-24 08:40:30

#Version: 2.2.20231116
#Station: R3.2S_Murmansk
#Location: 33.079688 lon 68.888172 lat
#TLE: 1 43013U 17073A   26023.57676825  .00000205  00000+0  11821-3 0  9990
#TLE: 2 43013  98.7645 324.4259 0001147  27.0566 333.0670 14.19539368423954

#Time	Az	El	Level	Level2	SNR	BER	BlckErr	Temp	State	Recorded	gain1	gain2
2026-01-24 08:40:30.84	131.60	2.03	-51.7	-66.7	3.8	1.49e+00	0	41	0	0	75	19704
2026-01-24 08:40:31.85	131.58	2.09	-51.7	-66.7	3.8	1.49e+00	0	41	104	0	73	22150
2026-01-24 08:40:32.86	131.56	2.15	-51.7	-66.7	3.8	1.49e+00	0	41	104	0	73	22121
2026-01-24 08:40:33.87	131.54	2.22	-51.7	-66.7	3.8	1.49e+00	0	41	104	0	73	22104
2026-01-24 08:40:34.88	131.52	2.28	-51.7	-66.7	3.8	1.49e+00	0	41	104	0	73	22077
2026-01-24 08:40:35.89	131.50	2.35	-51.7	-66.6	3.8	1.49e+00	0	41	104	0	73	22000
2026-01-24 08:40:36.89	131.48	2.41	-51.7	-66.6	3.8	1.49e+00	0	41	104	0	73	21995
2026-01-24 08:40:37.90	131.46	2.48	-51.7	-66.7	3.8	1.49e+00	0	41	104	0	73	22025
2026-01-24 08:40:38.91	131.44	2.54	-51.7	-66.7	3.8	1.49e+00	0	41	104	0	73	22022
2026-01-24 08:40:39.92	131.42	2.61	-51.7	-66.7	3.8	1.49e+00	0	41	104	0	73	22046
2026-01-24 08:40:40.93	131.40	2.68	-51.7	-66.7	3.8	1.49e+00	0	41	104	0	73	22074
2026-01-24 08:40:41.94	131.38	2.74	-51.7	-66.7	3.8	1.49e+00	0	42	104	0	73	22053
2026-01-24 08:40:42.95	131.36	2.81	-51.7	-66.6	3.8	1.49e+00	0	41	104	0	73	21974
2026-01-24 08:40:43.96	131.34	2.87	-51.7	-66.7	3.8	1.49e+00	0	41	104	0	73	22038
2026-01-24 08:40:44.97	131.32	2.94	-51.7	-66.7	3.8	1.49e+00	0	42	104	0	73	22051
2026-01-24 08:40:45.97	131.30	3.01	-51.7	-66.7	3.8	1.49e+00	0	42	104	0	73	22019
2026-01-24 08:40:46.98	131.28	3.07	-51.7	-66.6	3.8	1.49e+00	0	42	104	0	73	21872
2026-01-24 08:40:47.99	131.26	3.14	-51.7	-66.5	3.8	1.49e+00	0	42	104	0	73	21663
2026-01-24 08:40:49.00	131.24	3.21	-51.7	-66.4	3.8	1.49e+00	0	42	104	0	73	21333
2026-01-24 08:40:50.01	131.22	3.27	-51.7	-66.2	3.8	1.49e+00	0	42	104	0	73	20824
2026-01-24 08:40:51.02	131.20	3.34	-51.6	-65.8	3.8	1.49e+00	0	42	104	0	73	19875
2026-01-24 08:40:52.03	131.18	3.41	-51.6	-65.3	3.8	1.49e+00	0	42	104	0	73	18769
2026-01-24 08:40:53.03	131.16	3.47	-51.6	-65.1	3.8	1.49e+00	0	42	104	0	73	18470
2026-01-24 08:40:54.04	131.14	3.54	-51.6	-64.8	3.8	1.49e+00	0	42	104	0	73	17841
2026-01-24 08:40:55.05	131.12	3.61	-51.6	-64.5	3.8	1.49e+00	0	42	104	0	73	17246
2026-01-24 08:40:56.06	131.09	3.68	-51.6	-64.6	3.8	1.48e+00	0	42	104	0	73	17429
2026-01-24 08:40:57.07	131.07	3.75	-51.6	-64.6	3.8	1.49e+00	0	42	104	0	73	17435
2026-01-24 08:40:58.08	131.05	3.81	-51.5	-64.3	3.8	1.49e+00	0	42	104	0	73	16705
2026-01-24 08:40:59.09	131.03	3.88	-51.5	-62.8	4.3	1.41e+00	0	42	0	0	73	14068
2026-01-24 08:41:00.09	131.01	3.95	-51.3	-61.3	4.9	8.79e-01	0	42	0	1048576	73	11880
2026-01-24 08:41:01.10	130.99	4.02	-51.0	-59.2	6.2	5.06e-01	0	42	0	3145728	73	9368
2026-01-24 08:41:02.11	130.96	4.09	-50.7	-57.7	7.6	1.70e-01	0	42	0	5242880	73	7844
2026-01-24 08:41:03.12	130.94	4.16	-50.3	-56.1	9.3	2.34e-02	0	42	0	6291456	72	6897
2026-01-24 08:41:04.13	130.92	4.23	-49.7	-54.1	11.3	4.99e-03	0	42	0	8388608	71	5844
2026-01-24 08:41:05.13	130.90	4.30	-49.1	-52.8	12.8	2.39e-04	0	42	0	10485760	70	5323
2026-01-24 08:41:06.14	130.87	4.37	-48.5	-51.6	14.1	3.80e-06	0	42	0	12582912	68	5188
2026-01-24 08:41:07.15	130.85	4.44	-47.6	-50.2	15.4	2.20e-06	0	42	0	14680064	67	4674
2026-01-24 08:41:08.16	130.83	4.51	-46.9	-49.1	16.5	0.00e+00	0	42	0	16777216	65	4620
2026-01-24 08:41:09.17	130.81	4.58	-47.1	-49.4	16.2	0.00e+00	0	42	0	17825792	65	4780
2026-01-24 08:41:10.17	130.78	4.65	-46.2	-48.2	17.4	0.00e+00	0	42	0	19922944	64	4397
2026-01-24 08:41:11.18	130.76	4.72	-46.1	-48.0	17.6	0.00e+00	0	42	0	22020096	64	4318
2026-01-24 08:41:12.19	130.74	4.79	-46.2	-48.1	17.6	0.00e+00	0	42	0	24117248	63	4631
2026-01-24 08:41:13.20	130.71	4.86	-46.1	-48.0	17.7	0.00e+00	0	42	0	26214400	63	4557
2026-01-24 08:41:14.21	130.69	4.93	-46.6	-48.7	17.1	0.00e+00	0	42	0	27262976	63	4931
2026-01-24 08:41:15.21	130.66	5.00	-46.7	-48.7	16.9	0.00e+00	0	42	0	29360128	63	4983
2026-01-24 08:41:16.22	130.64	5.07	-47.2	-49.6	16.0	0.00e+00	0	42	0	31457280	64	5194
2026-01-24 08:41:17.23	130.62	5.14	-47.0	-49.2	16.3	0.00e+00	0	42	0	33554432	65	4702
2026-01-24 08:41:18.24	130.59	5.22	-48.0	-50.8	14.9	0.00e+00	0	42	0	34603008	67	4989
2026-01-24 08:41:19.24	130.57	5.29	-48.8	-52.3	13.0	4.27e-04	0	42	0	36700160	69	5308
2026-01-24 08:41:20.25	130.54	5.36	-46.5	-48.5	17.3	0.00e+00	0	42	0	38797312	65	4292
2026-01-24 08:41:21.26	130.52	5.43	-50.6	-57.3	7.8	1.91e-01	0	42	0	40894464	72	7910
2026-01-24 08:41:22.27	130.49	5.50	-46.1	-48.0	17.8	0.00e+00	0	42	0	42991616	64	4295
2026-01-24 08:41:23.28	130.47	5.58	-46.0	-47.8	17.9	0.00e+00	0	42	0	45088768	64	4230
2026-01-24 08:41:24.29	130.45	5.65	-46.1	-47.9	17.8	0.00e+00	0	42	0	46137344	64	4277
2026-01-24 08:41:25.30	130.42	5.72	-46.4	-48.2	17.6	0.00e+00	0	42	0	48234496	63	4699
2026-01-24 08:41:26.31	130.39	5.80	-46.2	-48.0	17.9	0.00e+00	0	42	0	50331648	63	4554
2026-01-24 08:41:27.31	130.37	5.87	-46.2	-48.0	17.8	0.00e+00	0	42	0	52428800	63	4576
2026-01-24 08:41:28.32	130.34	5.94	-46.0	-47.8	18.0	0.00e+00	0	42	0	54525952	63	4477
2026-01-24 08:41:29.33	130.32	6.02	-46.3	-48.2	17.7	0.00e+00	0	42	0	55574528	63	4671
2026-01-24 08:41:30.34	130.29	6.09	-46.2	-48.1	17.8	0.00e+00	0	42	0	57671680	63	4605
2026-01-24 08:41:31.34	130.27	6.17	-46.3	-48.1	17.8	0.00e+00	0	43	0	59768832	63	4616
2026-01-24 08:41:32.35	130.24	6.24	-46.2	-48.0	17.9	0.00e+00	0	42	0	61865984	63	4549
2026-01-24 08:41:33.36	130.21	6.32	-46.2	-48.0	18.0	0.00e+00	0	42	0	63963136	63	4569
2026-01-24 08:41:34.37	130.19	6.39	-46.3	-48.2	17.8	0.00e+00	0	42	0	65011712	63	4665
2026-01-24 08:41:35.38	130.16	6.47	-46.3	-48.2	17.8	0.00e+00	0	42	0	67108864	63	4657
2026-01-24 08:41:36.39	130.13	6.54	-45.9	-47.6	18.4	0.00e+00	0	43	0	69206016	63	4381
2026-01-24 08:41:37.39	130.11	6.62	-46.1	-47.9	18.2	0.00e+00	0	42	0	71303168	63	4501
2026-01-24 08:41:38.40	130.08	6.69	-46.0	-47.7	18.4	0.00e+00	0	42	0	73400320	63	4403
2026-01-24 08:41:39.41	130.05	6.77	-46.2	-47.9	18.2	0.00e+00	0	42	0	74448896	63	4516
2026-01-24 08:41:40.41	130.03	6.84	-45.8	-47.4	18.7	0.00e+00	0	42	0	76546048	63	4266
2026-01-24 08:41:41.42	130.00	6.92	-45.8	-47.5	18.7	0.00e+00	0	42	0	78643200	63	4300
2026-01-24 08:41:42.43	129.97	7.00	-45.8	-47.5	18.7	0.00e+00	0	42	0	80740352	63	4296
2026-01-24 08:41:43.44	129.94	7.08	-45.7	-47.3	18.9	0.00e+00	0	42	0	82837504	63	4206
2026-01-24 08:41:44.45	129.91	7.15	-45.9	-47.6	18.6	0.00e+00	0	43	0	83886080	63	4359
2026-01-24 08:41:45.45	129.89	7.23	-45.8	-47.4	18.9	0.00e+00	0	43	0	85983232	63	4258
2026-01-24 08:41:46.46	129.86	7.31	-45.6	-47.1	19.1	0.00e+00	0	43	0	88080384	63	4125
2026-01-24 08:41:47.47	129.83	7.38	-46.0	-47.7	18.6	0.00e+00	0	43	0	90177536	63	4398
2026-01-24 08:41:48.48	129.80	7.46	-45.8	-47.4	18.9	0.00e+00	0	42	0	92274688	63	4243
2026-01-24 08:41:49.48	129.77	7.54	-45.8	-47.4	18.9	0.00e+00	0	43	0	93323264	63	4269
2026-01-24 08:41:50.49	129.74	7.62	-46.0	-47.6	18.7	0.00e+00	0	43	0	95420416	63	4366
2026-01-24 08:41:51.50	129.71	7.70	-45.7	-47.3	19.0	0.00e+00	0	43	0	97517568	63	4213
2026-01-24 08:41:52.51	129.68	7.78	-45.9	-47.5	18.8	0.00e+00	0	43	0	99614720	63	4328
2026-01-24 08:41:53.52	129.66	7.86	-45.6	-47.2	19.1	0.00e+00	0	43	0	101711872	63	4167
2026-01-24 08:41:54.53	129.63	7.94	-45.8	-47.3	18.9	0.00e+00	0	43	0	102760448	63	4237
2026-01-24 08:41:55.53	129.60	8.02	-45.7	-47.3	19.1	0.00e+00	0	43	0	104857600	63	4201
2026-01-24 08:41:56.54	129.57	8.10	-45.7	-47.3	19.1	0.00e+00	0	43	0	106954752	63	4200
2026-01-24 08:41:57.55	129.54	8.18	-45.6	-47.1	19.2	0.00e+00	0	43	0	109051904	63	4123
2026-01-24 08:41:58.56	129.50	8.26	-45.6	-47.1	19.2	0.00e+00	0	43	0	111149056	63	4110
2026-01-24 08:41:59.57	129.47	8.34	-45.6	-47.1	19.2	0.00e+00	0	43	0	112197632	63	4123
2026-01-24 08:42:00.57	129.44	8.42	-45.6	-47.1	19.2	0.00e+00	0	43	0	114294784	63	4140
2026-01-24 08:42:01.58	129.41	8.50	-45.4	-46.8	19.5	0.00e+00	0	43	0	116391936	62	4239
2026-01-24 08:42:02.59	129.38	8.58	-45.5	-47.0	19.3	0.00e+00	0	43	0	118489088	62	4305
2026-01-24 08:42:03.60	129.35	8.66	-45.5	-47.0	19.3	0.00e+00	0	43	0	120586240	62	4334
2026-01-24 08:42:04.61	129.32	8.75	-45.4	-46.8	19.5	0.00e+00	0	43	0	121634816	62	4230
2026-01-24 08:42:05.61	129.29	8.83	-45.4	-46.8	19.5	0.00e+00	0	43	0	123731968	62	4239
2026-01-24 08:42:06.62	129.25	8.91	-45.6	-47.1	19.2	0.00e+00	0	43	0	125829120	62	4389
2026-01-24 08:42:07.63	129.22	8.99	-45.5	-47.0	19.4	0.00e+00	0	43	0	127926272	62	4296
2026-01-24 08:42:08.64	129.19	9.08	-45.5	-47.0	19.4	0.00e+00	0	43	0	130023424	62	4313
2026-01-24 08:42:09.65	129.16	9.16	-45.4	-46.8	19.6	0.00e+00	0	43	0	132120576	62	4223
2026-01-24 08:42:10.66	129.12	9.24	-45.2	-46.6	19.8	0.00e+00	0	43	0	133169152	62	4126
2026-01-24 08:42:11.67	129.09	9.33	-45.3	-46.7	19.7	0.00e+00	0	43	0	135266304	62	4175
2026-01-24 08:42:12.67	129.06	9.41	-45.3	-46.7	19.7	0.00e+00	0	43	0	137363456	62	4180
2026-01-24 08:42:13.68	129.02	9.49	-45.4	-46.8	19.6	0.00e+00	0	43	0	139460608	62	4232
2026-01-24 08:42:14.69	128.99	9.58	-45.3	-46.8	19.6	0.00e+00	0	43	0	140509184	62	4204
2026-01-24 08:42:15.70	128.96	9.66	-45.2	-46.6	19.8	0.00e+00	0	43	0	142606336	62	4133
2026-01-24 08:42:16.70	128.92	9.75	-45.4	-46.8	19.6	0.00e+00	0	43	0	144703488	62	4231
2026-01-24 08:42:17.71	128.89	9.83	-45.2	-46.6	19.8	0.00e+00	0	43	0	146800640	62	4120
2026-01-24 08:42:18.72	128.85	9.92	-45.3	-46.7	19.7	0.00e+00	0	43	0	148897792	62	4184
2026-01-24 08:42:19.73	128.82	10.01	-45.2	-46.5	19.9	0.00e+00	0	43	0	149946368	62	4086
2026-01-24 08:42:20.74	128.78	10.09	-45.3	-46.8	19.7	0.00e+00	0	43	0	152043520	62	4194
2026-01-24 08:42:21.75	128.75	10.18	-45.2	-46.6	19.9	0.00e+00	0	43	0	154140672	62	4112
2026-01-24 08:42:22.76	128.71	10.27	-45.1	-46.4	20.0	0.00e+00	0	43	0	156237824	62	4046
2026-01-24 08:42:23.76	128.68	10.35	-45.2	-46.5	20.0	0.00e+00	0	43	0	158334976	62	4091
2026-01-24 08:42:24.77	128.64	10.44	-45.0	-46.4	20.0	0.00e+00	0	43	0	160432128	61	4269
2026-01-24 08:42:25.78	128.61	10.53	-45.1	-46.5	20.0	0.00e+00	0	43	0	161480704	61	4308
2026-01-24 08:42:26.79	128.57	10.62	-45.1	-46.5	20.0	0.00e+00	0	43	0	163577856	61	4319
2026-01-24 08:42:27.80	128.53	10.71	-45.0	-46.4	20.1	0.00e+00	0	43	0	165675008	61	4245
2026-01-24 08:42:28.81	128.50	10.80	-45.1	-46.5	20.0	0.00e+00	0	43	0	167772160	61	4317
2026-01-24 08:42:29.81	128.46	10.88	-45.0	-46.3	20.1	0.00e+00	0	43	0	168820736	61	4237
2026-01-24 08:42:30.82	128.42	10.97	-45.1	-46.4	20.1	0.00e+00	0	43	0	170917888	61	4272
2026-01-24 08:42:31.83	128.38	11.06	-45.0	-46.3	20.1	0.00e+00	0	43	0	173015040	61	4241
2026-01-24 08:42:32.84	128.35	11.15	-45.1	-46.5	20.1	0.00e+00	0	43	0	175112192	61	4298
2026-01-24 08:42:33.85	128.31	11.24	-45.3	-46.7	19.8	0.00e+00	0	43	0	177209344	61	4432
2026-01-24 08:42:34.86	128.27	11.33	-45.1	-46.5	20.1	0.00e+00	0	43	0	179306496	61	4310
2026-01-24 08:42:35.87	128.23	11.43	-45.1	-46.4	20.1	0.00e+00	0	43	0	180355072	61	4268
2026-01-24 08:42:36.87	128.19	11.52	-45.0	-46.4	20.1	0.00e+00	0	43	0	182452224	61	4258
2026-01-24 08:42:37.88	128.15	11.61	-45.0	-46.4	20.2	0.00e+00	0	43	0	184549376	61	4247
2026-01-24 08:42:38.89	128.11	11.70	-44.9	-46.2	20.3	0.00e+00	0	43	0	186646528	61	4193
2026-01-24 08:42:39.90	128.07	11.79	-45.0	-46.3	20.2	0.00e+00	0	43	0	188743680	61	4232
2026-01-24 08:42:40.91	128.03	11.89	-44.9	-46.2	20.4	0.00e+00	0	43	0	189792256	61	4176
2026-01-24 08:42:41.91	127.99	11.98	-45.0	-46.3	20.2	0.00e+00	0	43	0	191889408	61	4222
2026-01-24 08:42:42.92	127.95	12.07	-45.1	-46.4	20.2	0.00e+00	0	43	0	193986560	61	4273
2026-01-24 08:42:43.93	127.91	12.16	-44.9	-46.2	20.4	0.00e+00	0	43	0	196083712	61	4158
2026-01-24 08:42:44.94	127.87	12.26	-44.9	-46.2	20.4	0.00e+00	0	43	0	198180864	61	4188
2026-01-24 08:42:45.95	127.83	12.35	-44.8	-46.1	20.5	0.00e+00	0	43	0	199229440	61	4129
2026-01-24 08:42:46.96	127.79	12.45	-44.9	-46.2	20.4	0.00e+00	0	43	0	201326592	61	4189
2026-01-24 08:42:47.97	127.75	12.54	-44.9	-46.2	20.4	0.00e+00	0	43	0	203423744	61	4193
2026-01-24 08:42:48.98	127.70	12.64	-44.9	-46.2	20.5	0.00e+00	0	43	0	205520896	61	4148
2026-01-24 08:42:49.98	127.66	12.73	-44.9	-46.2	20.5	0.00e+00	0	43	0	207618048	61	4172
2026-01-24 08:42:50.99	127.62	12.83	-45.0	-46.3	20.3	0.00e+00	0	43	0	208666624	61	4228
2026-01-24 08:42:52.00	127.58	12.93	-44.8	-46.1	20.5	0.00e+00	0	43	0	210763776	61	4132
2026-01-24 08:42:53.01	127.53	13.02	-45.0	-46.3	20.4	0.00e+00	0	43	0	212860928	61	4217
2026-01-24 08:42:54.02	127.49	13.12	-44.7	-46.0	20.7	0.00e+00	0	43	0	214958080	61	4059
2026-01-24 08:42:55.03	127.44	13.22	-44.8	-46.1	20.6	0.00e+00	0	43	0	217055232	61	4119
2026-01-24 08:42:56.03	127.40	13.32	-44.9	-46.2	20.5	0.00e+00	0	43	0	218103808	61	4175
2026-01-24 08:42:57.04	127.36	13.41	-44.9	-46.2	20.5	0.00e+00	0	43	0	220200960	61	4162
2026-01-24 08:42:58.05	127.31	13.51	-44.7	-46.0	20.7	0.00e+00	0	43	0	222298112	61	4079
2026-01-24 08:42:59.06	127.27	13.61	-44.8	-46.0	20.7	0.00e+00	0	43	0	224395264	61	4083
2026-01-24 08:43:00.06	127.22	13.71	-44.7	-45.9	20.8	0.00e+00	0	43	0	226492416	61	4051
2026-01-24 08:43:01.07	127.17	13.81	-44.8	-46.0	20.7	0.00e+00	0	43	0	227540992	61	4077
2026-01-24 08:43:02.08	127.13	13.91	-44.7	-45.9	20.8	0.00e+00	0	43	0	229638144	61	4035
2026-01-24 08:43:03.09	127.08	14.01	-44.6	-45.9	20.9	0.00e+00	0	43	0	231735296	61	4007
2026-01-24 08:43:04.10	127.03	14.11	-44.7	-46.0	20.8	0.00e+00	0	43	0	233832448	61	4070
2026-01-24 08:43:05.11	126.99	14.22	-44.9	-46.1	20.6	0.00e+00	0	43	0	235929600	61	4133
2026-01-24 08:43:06.11	126.94	14.32	-44.7	-45.9	20.8	0.00e+00	0	43	0	236978176	61	4046
2026-01-24 08:43:07.12	126.89	14.42	-44.7	-46.0	20.8	0.00e+00	0	43	0	239075328	61	4060
2026-01-24 08:43:08.13	126.84	14.52	-44.6	-45.8	20.9	0.00e+00	0	43	0	241172480	61	3986
2026-01-24 08:43:09.14	126.79	14.63	-44.7	-45.9	20.9	0.00e+00	0	43	0	243269632	61	4019
2026-01-24 08:43:10.15	126.75	14.73	-44.7	-45.9	20.9	0.00e+00	0	43	0	245366784	61	4038
2026-01-24 08:43:11.15	126.70	14.83	-44.6	-45.9	20.9	0.00e+00	0	43	0	247463936	61	4018
2026-01-24 08:43:12.16	126.65	14.94	-44.7	-45.9	20.9	0.00e+00	0	43	0	248512512	61	4021
2026-01-24 08:43:13.17	126.60	15.04	-44.7	-45.9	20.9	0.00e+00	0	43	0	250609664	61	4023
2026-01-24 08:43:14.17	126.55	15.15	-44.7	-45.9	20.9	0.00e+00	0	43	0	252706816	61	4047
2026-01-24 08:43:15.18	126.50	15.25	-44.6	-45.8	21.0	0.00e+00	0	43	0	254803968	61	3973
2026-01-24 08:43:16.19	126.44	15.36	-44.7	-46.0	20.9	0.00e+00	0	43	0	255852544	61	4052
2026-01-24 08:43:17.20	126.39	15.46	-44.7	-45.9	20.9	0.00e+00	0	43	0	257949696	61	4040
2026-01-24 08:43:18.21	126.34	15.57	-44.6	-45.8	21.0	0.00e+00	0	43	0	260046848	61	4002
2026-01-24 08:43:19.21	126.29	15.68	-44.7	-45.9	21.0	0.00e+00	0	43	0	262144000	61	4028
2026-01-24 08:43:20.22	126.23	15.79	-44.9	-46.1	20.8	0.00e+00	0	43	0	264241152	61	4121
2026-01-24 08:43:21.23	126.18	15.89	-44.9	-46.2	20.7	0.00e+00	0	43	0	265289728	61	4146
2026-01-24 08:43:22.24	126.13	16.00	-44.6	-45.8	21.0	0.00e+00	0	43	0	267386880	61	3973
2026-01-24 08:43:23.25	126.07	16.11	-44.5	-45.7	21.2	0.00e+00	0	43	0	269484032	61	3914
2026-01-24 08:43:24.25	126.02	16.22	-44.6	-45.8	21.0	0.00e+00	0	43	0	271581184	60	4240
2026-01-24 08:43:25.26	125.96	16.33	-44.7	-45.9	20.9	0.00e+00	0	43	0	273678336	60	4286
2026-01-24 08:43:26.27	125.91	16.44	-44.6	-45.8	21.0	0.00e+00	0	43	0	275775488	60	4233
2026-01-24 08:43:27.28	125.85	16.55	-44.7	-46.0	20.9	0.00e+00	0	43	0	276824064	60	4298
2026-01-24 08:43:28.28	125.80	16.66	-44.7	-45.9	21.0	0.00e+00	0	43	0	278921216	60	4258
2026-01-24 08:43:29.29	125.74	16.78	-44.8	-46.0	20.8	0.00e+00	0	43	0	281018368	60	4318
2026-01-24 08:43:30.30	125.68	16.89	-44.8	-46.0	20.9	0.00e+00	0	43	0	283115520	60	4301
2026-01-24 08:43:31.31	125.63	17.00	-44.7	-45.8	21.1	0.00e+00	0	43	0	284164096	60	4240
2026-01-24 08:43:32.32	125.57	17.12	-44.7	-45.9	21.0	0.00e+00	0	43	0	286261248	60	4280
2026-01-24 08:43:33.33	125.51	17.23	-44.8	-46.0	20.9	0.00e+00	0	43	0	288358400	60	4308
2026-01-24 08:43:34.34	125.45	17.35	-44.7	-45.9	21.0	0.00e+00	0	43	0	290455552	60	4275
2026-01-24 08:43:35.35	125.39	17.46	-44.7	-45.9	21.0	0.00e+00	0	43	0	292552704	60	4259
2026-01-24 08:43:36.35	125.33	17.58	-44.6	-45.8	21.1	0.00e+00	0	43	0	294649856	60	4237
2026-01-24 08:43:37.36	125.27	17.69	-44.7	-45.9	21.0	0.00e+00	0	43	0	295698432	60	4283
2026-01-24 08:43:38.37	125.21	17.81	-44.8	-46.0	20.9	0.00e+00	0	43	0	297795584	60	4303
2026-01-24 08:43:39.38	125.15	17.93	-44.6	-45.8	21.1	0.00e+00	0	43	0	299892736	60	4220
2026-01-24 08:43:40.39	125.09	18.04	-44.7	-45.9	21.0	0.00e+00	0	43	0	301989888	60	4275
2026-01-24 08:43:41.40	125.02	18.16	-44.8	-46.0	20.9	0.00e+00	0	43	0	304087040	60	4329
2026-01-24 08:43:42.40	124.96	18.28	-44.8	-46.0	20.9	0.00e+00	0	43	0	305135616	60	4331
2026-01-24 08:43:43.41	124.90	18.40	-44.6	-45.8	21.1	0.00e+00	0	43	0	307232768	60	4234
2026-01-24 08:43:44.42	124.83	18.52	-44.6	-45.8	21.2	0.00e+00	0	43	0	309329920	60	4195
2026-01-24 08:43:45.43	124.77	18.64	-44.6	-45.8	21.2	0.00e+00	0	43	0	311427072	60	4202
2026-01-24 08:43:46.43	124.70	18.76	-44.5	-45.7	21.2	0.00e+00	0	43	0	312475648	60	4176
2026-01-24 08:43:47.44	124.64	18.88	-44.6	-45.8	21.2	0.00e+00	0	43	0	314572800	60	4209
2026-01-24 08:43:48.45	124.57	19.00	-44.4	-45.6	21.4	0.00e+00	0	43	0	316669952	60	4104
2026-01-24 08:43:49.46	124.50	19.12	-44.4	-45.6	21.4	0.00e+00	0	43	0	318767104	60	4111
2026-01-24 08:43:50.47	124.44	19.25	-44.5	-45.6	21.3	0.00e+00	0	43	0	320864256	60	4140
2026-01-24 08:43:51.47	124.37	19.37	-44.4	-45.6	21.4	0.00e+00	0	43	0	322961408	60	4112
2026-01-24 08:43:52.48	124.30	19.49	-44.4	-45.6	21.4	0.00e+00	0	43	0	324009984	60	4099
2026-01-24 08:43:53.49	124.23	19.62	-44.4	-45.6	21.4	0.00e+00	0	43	0	326107136	60	4122
2026-01-24 08:43:54.50	124.16	19.75	-44.5	-45.7	21.3	0.00e+00	0	43	0	328204288	60	4152
2026-01-24 08:43:55.50	124.09	19.87	-44.5	-45.7	21.4	0.00e+00	0	43	0	330301440	60	4146
2026-01-24 08:43:56.51	124.02	20.00	-44.5	-45.6	21.4	0.00e+00	0	43	0	332398592	60	4139
2026-01-24 08:43:57.52	123.95	20.12	-44.5	-45.7	21.3	0.00e+00	0	43	0	333447168	60	4155
2026-01-24 08:43:58.53	123.88	20.25	-44.6	-45.7	21.3	0.00e+00	0	43	0	335544320	60	4186
2026-01-24 08:43:59.54	123.81	20.38	-44.5	-45.7	21.4	0.00e+00	0	43	0	337641472	60	4159
2026-01-24 08:44:00.55	123.73	20.51	-44.6	-45.7	21.3	0.00e+00	0	43	0	339738624	60	4182
2026-01-24 08:44:01.55	123.66	20.64	-44.4	-45.6	21.4	0.00e+00	0	43	0	341835776	60	4117
2026-01-24 08:44:02.56	123.58	20.77	-44.5	-45.6	21.4	0.00e+00	0	43	0	342884352	60	4145
2026-01-24 08:44:03.57	123.51	20.90	-44.5	-45.7	21.4	0.00e+00	0	43	0	344981504	60	4149
2026-01-24 08:44:04.58	123.43	21.03	-44.5	-45.7	21.4	0.00e+00	0	43	0	347078656	60	4151
2026-01-24 08:44:05.59	123.36	21.16	-44.5	-45.7	21.4	0.00e+00	0	43	0	349175808	60	4166
2026-01-24 08:44:06.59	123.28	21.29	-44.4	-45.6	21.4	0.00e+00	0	43	0	351272960	60	4120
2026-01-24 08:44:07.60	123.20	21.43	-44.5	-45.6	21.4	0.00e+00	0	43	0	352321536	60	4122
2026-01-24 08:44:08.61	123.12	21.56	-44.4	-45.5	21.5	0.00e+00	0	43	0	354418688	60	4082
2026-01-24 08:44:09.62	123.04	21.70	-44.4	-45.5	21.5	0.00e+00	0	43	0	356515840	60	4079
2026-01-24 08:44:10.63	122.96	21.83	-44.4	-45.6	21.4	0.00e+00	0	43	0	358612992	60	4120
2026-01-24 08:44:11.63	122.88	21.97	-44.5	-45.7	21.4	0.00e+00	0	43	0	360710144	60	4158
2026-01-24 08:44:12.64	122.80	22.10	-44.5	-45.7	21.4	0.00e+00	0	43	0	361758720	60	4164
2026-01-24 08:44:13.65	122.72	22.24	-44.6	-45.8	21.3	0.00e+00	0	43	0	363855872	60	4213
2026-01-24 08:44:14.65	122.64	22.38	-44.6	-45.7	21.3	0.00e+00	0	43	0	365953024	60	4187
2026-01-24 08:44:15.66	122.55	22.52	-44.6	-45.8	21.3	0.00e+00	0	43	0	368050176	60	4219
2026-01-24 08:44:16.67	122.47	22.66	-44.7	-45.8	21.3	0.00e+00	0	43	0	370147328	60	4234
2026-01-24 08:44:17.68	122.38	22.80	-44.7	-45.9	21.2	0.00e+00	0	43	0	371195904	60	4270
2026-01-24 08:44:18.69	122.30	22.94	-44.8	-46.0	21.1	0.00e+00	0	43	0	373293056	60	4336
2026-01-24 08:44:19.69	122.21	23.08	-44.9	-46.1	21.0	0.00e+00	0	43	0	375390208	60	4374
2026-01-24 08:44:20.70	122.12	23.22	-44.8	-46.0	21.1	0.00e+00	0	43	0	377487360	60	4312
2026-01-24 08:44:21.71	122.03	23.36	-44.9	-46.1	21.1	0.00e+00	0	43	0	379584512	60	4351
2026-01-24 08:44:22.72	121.94	23.51	-44.9	-46.2	21.0	0.00e+00	0	43	0	380633088	60	4393
2026-01-24 08:44:23.72	121.85	23.65	-45.0	-46.2	20.9	0.00e+00	0	43	0	382730240	60	4438
2026-01-24 08:44:24.73	121.76	23.80	-45.0	-46.3	20.9	0.00e+00	0	43	0	384827392	60	4452
2026-01-24 08:44:25.74	121.67	23.94	-45.2	-46.5	20.7	0.00e+00	0	43	0	386924544	61	4315
2026-01-24 08:44:26.75	121.58	24.09	-45.3	-46.6	20.6	0.00e+00	0	43	0	389021696	61	4369
2026-01-24 08:44:27.76	121.48	24.23	-45.5	-46.8	20.5	0.00e+00	0	43	0	390070272	61	4447
2026-01-24 08:44:28.77	121.39	24.38	-45.5	-46.8	20.4	0.00e+00	0	43	0	392167424	61	4490
2026-01-24 08:44:29.78	121.29	24.53	-45.6	-46.9	20.4	0.00e+00	0	43	0	394264576	61	4509
2026-01-24 08:44:30.78	121.20	24.68	-45.6	-46.9	20.3	0.00e+00	0	43	0	396361728	62	4286
2026-01-24 08:44:31.79	121.10	24.83	-45.7	-47.0	20.3	0.00e+00	0	43	0	398458880	62	4312
2026-01-24 08:44:32.80	121.00	24.98	-45.8	-47.1	20.2	0.00e+00	0	43	0	399507456	62	4379
2026-01-24 08:44:33.81	120.90	25.13	-45.8	-47.1	20.2	0.00e+00	0	43	0	401604608	62	4366
2026-01-24 08:44:34.81	120.80	25.28	-45.9	-47.2	20.1	0.00e+00	0	43	0	403701760	62	4419
2026-01-24 08:44:35.82	120.70	25.44	-46.0	-47.3	20.0	0.00e+00	0	43	0	405798912	62	4483
2026-01-24 08:44:36.83	120.59	25.59	-46.2	-47.6	19.7	0.00e+00	0	43	0	407896064	62	4628
2026-01-24 08:44:37.84	120.49	25.75	-46.1	-47.5	19.7	0.00e+00	0	43	0	409993216	63	4340
2026-01-24 08:44:38.85	120.39	25.90	-46.3	-47.7	19.5	0.00e+00	0	43	0	411041792	63	4438
2026-01-24 08:44:39.85	120.28	26.06	-46.5	-47.9	19.4	0.00e+00	0	43	0	413138944	63	4545
2026-01-24 08:44:40.86	120.17	26.22	-46.6	-48.1	19.2	0.00e+00	0	43	0	415236096	63	4614
2026-01-24 08:44:41.87	120.07	26.37	-46.6	-48.2	19.2	0.00e+00	0	43	0	417333248	63	4667
2026-01-24 08:44:42.88	119.96	26.53	-46.8	-48.4	18.9	0.00e+00	0	43	0	418381824	64	4494
2026-01-24 08:44:43.89	119.85	26.69	-46.8	-48.4	18.9	0.00e+00	0	43	0	420478976	64	4520
2026-01-24 08:44:44.89	119.74	26.85	-46.8	-48.5	18.8	0.00e+00	0	43	0	422576128	64	4552
2026-01-24 08:44:45.90	119.62	27.01	-46.9	-48.5	18.7	0.00e+00	0	43	0	424673280	64	4572
2026-01-24 08:44:46.91	119.51	27.18	-47.0	-48.7	18.6	0.00e+00	0	43	0	426770432	64	4664
2026-01-24 08:44:47.92	119.39	27.34	-47.1	-48.8	18.4	0.00e+00	0	43	0	427819008	64	4713
2026-01-24 08:44:48.93	119.28	27.50	-47.1	-48.8	18.5	0.00e+00	0	43	0	429916160	64	4746
2026-01-24 08:44:49.94	119.16	27.67	-47.1	-48.8	18.4	0.00e+00	0	43	0	432013312	64	4738
2026-01-24 08:44:50.94	119.04	27.83	-47.3	-49.0	18.3	0.00e+00	0	43	0	434110464	65	4578
2026-01-24 08:44:51.95	118.92	28.00	-47.3	-49.1	18.2	0.00e+00	0	43	0	436207616	65	4616
2026-01-24 08:44:52.96	118.80	28.17	-47.4	-49.1	18.2	0.00e+00	0	43	0	438304768	65	4636
2026-01-24 08:44:53.97	118.68	28.33	-47.4	-49.2	18.1	0.00e+00	0	43	0	439353344	65	4663
2026-01-24 08:44:54.97	118.56	28.50	-47.5	-49.3	18.0	0.00e+00	0	43	0	441450496	65	4748
2026-01-24 08:44:55.98	118.43	28.67	-47.6	-49.4	18.0	0.00e+00	0	43	0	443547648	65	4777
2026-01-24 08:44:56.99	118.31	28.84	-47.5	-49.3	18.0	0.00e+00	0	43	0	445644800	65	4757
2026-01-24 08:44:58.00	118.18	29.01	-47.5	-49.3	18.0	0.00e+00	0	43	0	446693376	65	4756
2026-01-24 08:44:59.01	118.05	29.19	-47.4	-49.2	18.0	0.00e+00	0	43	0	448790528	65	4694
2026-01-24 08:45:00.01	117.92	29.36	-47.5	-49.3	18.0	0.00e+00	0	43	0	450887680	65	4747
2026-01-24 08:45:01.02	117.79	29.53	-47.5	-49.3	18.1	0.00e+00	0	43	0	452984832	65	4734
2026-01-24 08:45:02.03	117.65	29.71	-47.5	-49.3	18.1	0.00e+00	0	43	0	455081984	65	4713
2026-01-24 08:45:03.04	117.52	29.88	-47.4	-49.2	18.1	0.00e+00	0	43	0	457179136	65	4679
2026-01-24 08:45:04.05	117.38	30.06	-47.3	-49.1	18.2	0.00e+00	0	43	0	458227712	65	4604
2026-01-24 08:45:05.05	117.24	30.24	-47.3	-49.0	18.3	0.00e+00	0	43	0	460324864	65	4578
2026-01-24 08:45:06.06	117.10	30.42	-47.2	-48.9	18.4	0.00e+00	0	43	0	462422016	65	4535
2026-01-24 08:45:07.07	116.96	30.60	-47.1	-48.7	18.5	0.00e+00	0	43	0	464519168	65	4431
2026-01-24 08:45:08.08	116.82	30.78	-47.2	-48.9	18.4	0.00e+00	0	43	0	466616320	65	4536
2026-01-24 08:45:09.09	116.67	30.96	-47.2	-48.9	18.4	0.00e+00	0	43	0	467664896	65	4537
2026-01-24 08:45:10.09	116.53	31.14	-47.0	-48.7	18.6	0.00e+00	0	43	0	469762048	65	4417
2026-01-24 08:45:11.10	116.38	31.32	-47.1	-48.8	18.5	0.00e+00	0	43	0	471859200	65	4488
2026-01-24 08:45:12.11	116.23	31.51	-47.1	-48.8	18.5	0.00e+00	0	43	0	473956352	65	4469
2026-01-24 08:45:13.12	116.08	31.69	-47.0	-48.7	18.6	0.00e+00	0	43	0	475004928	65	4406
2026-01-24 08:45:14.12	115.93	31.88	-47.2	-48.8	18.5	0.00e+00	0	43	0	477102080	65	4488
2026-01-24 08:45:15.13	115.77	32.07	-47.1	-48.8	18.6	0.00e+00	0	43	0	479199232	65	4452
2026-01-24 08:45:16.14	115.62	32.25	-47.2	-48.8	18.5	0.00e+00	0	43	0	481296384	65	4473
2026-01-24 08:45:17.15	115.46	32.44	-47.2	-48.9	18.5	0.00e+00	0	43	0	483393536	65	4499
2026-01-24 08:45:18.15	115.30	32.63	-47.2	-48.9	18.6	0.00e+00	0	43	0	485490688	65	4508
2026-01-24 08:45:19.16	115.14	32.82	-46.9	-48.4	18.9	0.00e+00	0	43	0	486539264	65	4290
2026-01-24 08:45:20.17	114.97	33.01	-46.8	-48.4	18.9	0.00e+00	0	43	0	488636416	65	4268
2026-01-24 08:45:21.18	114.80	33.21	-46.9	-48.5	18.9	0.00e+00	0	43	0	490733568	65	4292
2026-01-24 08:45:22.19	114.64	33.40	-47.0	-48.6	18.7	0.00e+00	0	43	0	492830720	65	4380
2026-01-24 08:45:23.20	114.47	33.60	-46.8	-48.4	18.9	0.00e+00	0	43	0	494927872	65	4269
2026-01-24 08:45:24.20	114.29	33.79	-47.0	-48.6	18.8	0.00e+00	0	43	0	495976448	65	4351
2026-01-24 08:45:25.21	114.12	33.99	-47.1	-48.8	18.6	0.00e+00	0	43	0	498073600	65	4451
2026-01-24 08:45:26.21	113.94	34.18	-47.2	-48.9	18.5	0.00e+00	0	43	0	500170752	65	4515
2026-01-24 08:45:27.22	113.77	34.38	-47.4	-49.1	18.3	0.00e+00	0	43	0	502267904	65	4617
2026-01-24 08:45:28.23	113.58	34.58	-47.6	-49.4	18.1	0.00e+00	0	43	0	503316480	65	4760
2026-01-24 08:45:29.24	113.40	34.78	-47.9	-49.8	17.6	0.00e+00	0	43	0	505413632	66	4726
2026-01-24 08:45:30.25	113.21	34.98	-48.0	-50.0	17.4	0.00e+00	0	43	0	507510784	66	4828
2026-01-24 08:45:31.26	113.03	35.18	-48.1	-50.0	17.4	0.00e+00	0	43	0	509607936	66	4856
2026-01-24 08:45:32.27	112.83	35.39	-48.2	-50.2	17.2	0.00e+00	0	43	0	511705088	67	4672
2026-01-24 08:45:33.27	112.64	35.59	-48.1	-50.1	17.3	0.00e+00	0	43	0	513802240	67	4632
2026-01-24 08:45:34.28	112.45	35.79	-48.3	-50.3	17.1	0.00e+00	0	43	0	514850816	67	4729
2026-01-24 08:45:35.29	112.25	36.00	-48.1	-50.1	17.3	0.00e+00	0	43	0	516947968	67	4636
2026-01-24 08:45:36.30	112.05	36.21	-48.1	-50.1	17.3	0.00e+00	0	43	0	519045120	67	4651
2026-01-24 08:45:37.31	111.85	36.42	-48.1	-50.1	17.4	0.00e+00	0	43	0	521142272	67	4625
2026-01-24 08:45:38.31	111.64	36.62	-48.3	-50.3	17.1	0.00e+00	0	43	0	523239424	67	4732
2026-01-24 08:45:39.32	111.43	36.83	-48.3	-50.4	17.1	0.00e+00	0	43	0	524288000	67	4780
2026-01-24 08:45:40.33	111.22	37.04	-48.5	-50.6	16.8	0.00e+00	0	43	0	526385152	67	4895
2026-01-24 08:45:41.34	111.01	37.25	-48.6	-50.7	16.7	0.00e+00	0	43	0	528482304	67	4982
2026-01-24 08:45:42.35	110.79	37.47	-48.4	-50.5	16.9	0.00e+00	0	43	0	530579456	67	4865
2026-01-24 08:45:43.35	110.57	37.68	-48.1	-50.0	17.4	0.00e+00	0	43	0	532676608	67	4570
2026-01-24 08:45:44.36	110.35	37.89	-48.0	-49.9	17.5	0.00e+00	0	43	0	533725184	67	4514
2026-01-24 08:45:45.37	110.12	38.11	-47.9	-49.8	17.6	0.00e+00	0	43	0	535822336	67	4467
2026-01-24 08:45:46.37	109.90	38.32	-48.0	-49.9	17.5	0.00e+00	0	43	0	537919488	67	4514
2026-01-24 08:45:47.38	109.67	38.54	-48.3	-50.4	17.0	0.00e+00	0	43	0	540016640	67	4774
2026-01-24 08:45:48.39	109.43	38.75	-48.5	-50.6	16.9	0.00e+00	0	43	0	542113792	67	4871
2026-01-24 08:45:49.40	109.19	38.97	-48.3	-50.3	17.1	0.00e+00	0	43	0	543162368	67	4733
2026-01-24 08:45:50.41	108.95	39.19	-48.5	-50.6	16.9	0.00e+00	0	43	0	545259520	67	4875
2026-01-24 08:45:51.41	108.71	39.41	-48.4	-50.5	17.0	0.00e+00	0	43	0	547356672	67	4817
2026-01-24 08:45:52.42	108.46	39.63	-48.4	-50.4	17.1	0.00e+00	0	43	0	549453824	67	4801
2026-01-24 08:45:53.43	108.21	39.85	-48.5	-50.6	16.8	0.00e+00	0	43	0	551550976	67	4909
2026-01-24 08:45:54.44	107.95	40.07	-48.9	-51.1	16.5	0.00e+00	0	43	0	553648128	68	4911
2026-01-24 08:45:55.45	107.70	40.30	-48.8	-51.0	16.6	0.00e+00	0	43	0	554696704	68	4842
2026-01-24 08:45:56.45	107.44	40.52	-48.9	-51.2	16.4	0.00e+00	0	43	0	556793856	68	4949
2026-01-24 08:45:57.46	107.17	40.74	-48.9	-51.2	16.4	0.00e+00	0	43	0	558891008	68	4960
2026-01-24 08:45:58.47	106.90	40.97	-48.9	-51.2	16.4	0.00e+00	0	43	0	560988160	68	4932
2026-01-24 08:45:59.47	106.63	41.19	-48.9	-51.1	16.5	0.00e+00	0	43	0	562036736	68	4902
2026-01-24 08:46:00.48	106.35	41.42	-48.6	-50.7	16.9	0.00e+00	0	43	0	564133888	68	4676
2026-01-24 08:46:01.49	106.07	41.64	-48.1	-50.0	17.5	0.00e+00	0	43	0	566231040	68	4339
2026-01-24 08:46:02.50	105.79	41.87	-47.6	-49.4	18.0	0.00e+00	0	43	0	568328192	67	4269
2026-01-24 08:46:03.51	105.50	42.10	-47.5	-49.2	18.2	0.00e+00	0	43	0	570425344	66	4408
2026-01-24 08:46:04.51	105.21	42.33	-47.2	-48.8	18.7	0.00e+00	0	43	0	571473920	66	4205
2026-01-24 08:46:05.52	104.91	42.56	-47.1	-48.7	18.8	0.00e+00	0	43	0	573571072	66	4160
2026-01-24 08:46:06.53	104.61	42.79	-47.1	-48.7	18.8	0.00e+00	0	43	0	575668224	66	4184
2026-01-24 08:46:07.54	104.30	43.02	-46.9	-48.5	19.1	0.00e+00	0	43	0	577765376	65	4300
2026-01-24 08:46:08.55	103.99	43.25	-46.7	-48.3	19.2	0.00e+00	0	43	0	579862528	65	4199
2026-01-24 08:46:09.55	103.68	43.48	-46.8	-48.3	19.2	0.00e+00	0	43	0	581959680	65	4224
2026-01-24 08:46:10.56	103.36	43.71	-46.8	-48.3	19.1	0.00e+00	0	43	0	583008256	65	4232
2026-01-24 08:46:11.57	103.03	43.94	-46.7	-48.2	19.3	0.00e+00	0	43	0	585105408	65	4168
2026-01-24 08:46:12.58	102.70	44.17	-46.5	-48.0	19.5	0.00e+00	0	43	0	587202560	65	4054
2026-01-24 08:46:13.59	102.37	44.40	-46.6	-48.1	19.4	0.00e+00	0	43	0	589299712	65	4111
2026-01-24 08:46:14.59	102.03	44.63	-46.7	-48.3	19.2	0.00e+00	0	43	0	590348288	65	4206
2026-01-24 08:46:15.60	101.69	44.87	-47.2	-48.8	18.9	0.00e+00	0	43	0	592445440	65	4464
2026-01-24 08:46:16.61	101.34	45.10	-47.4	-49.0	18.6	0.00e+00	0	43	0	594542592	65	4583
2026-01-24 08:46:17.62	100.98	45.33	-47.4	-49.0	18.5	0.00e+00	0	43	0	596639744	65	4592
2026-01-24 08:46:18.63	100.62	45.57	-47.7	-49.4	18.2	0.00e+00	0	43	0	598736896	65	4793
2026-01-24 08:46:19.63	100.26	45.80	-47.8	-49.6	18.0	0.00e+00	0	43	0	599785472	66	4605
2026-01-24 08:46:20.64	99.89	46.03	-47.8	-49.6	18.0	0.00e+00	0	43	0	601882624	66	4610
2026-01-24 08:46:21.65	99.51	46.27	-47.5	-49.2	18.3	0.00e+00	0	43	0	603979776	66	4431
2026-01-24 08:46:22.66	99.13	46.50	-47.7	-49.5	18.2	0.00e+00	0	43	0	606076928	66	4549
2026-01-24 08:46:23.67	98.74	46.73	-47.7	-49.5	18.1	0.00e+00	0	43	0	608174080	66	4555
2026-01-24 08:46:24.67	98.35	46.96	-47.7	-49.6	18.0	0.00e+00	0	43	0	610271232	66	4613
2026-01-24 08:46:25.68	97.95	47.20	-47.6	-49.4	18.1	0.00e+00	0	43	0	611319808	66	4538
2026-01-24 08:46:26.69	97.55	47.43	-47.6	-49.4	18.2	0.00e+00	0	43	0	613416960	66	4506
2026-01-24 08:46:27.70	97.14	47.66	-47.7	-49.5	18.0	0.00e+00	0	43	0	615514112	66	4594
2026-01-24 08:46:28.71	96.72	47.89	-48.0	-49.9	17.7	0.00e+00	0	43	0	617611264	66	4813
2026-01-24 08:46:29.72	96.29	48.13	-48.4	-50.5	17.2	0.00e+00	0	43	0	618659840	67	4819
2026-01-24 08:46:30.73	95.86	48.36	-48.2	-50.1	17.5	0.00e+00	0	43	0	620756992	67	4616
2026-01-24 08:46:31.73	95.43	48.58	-48.0	-49.8	17.8	0.00e+00	0	43	0	622854144	67	4476
2026-01-24 08:46:32.74	94.99	48.81	-48.1	-50.0	17.6	0.00e+00	0	43	0	624951296	67	4568
2026-01-24 08:46:33.75	94.53	49.04	-48.2	-50.2	17.4	0.00e+00	0	43	0	627048448	67	4671
2026-01-24 08:46:34.76	94.08	49.27	-48.1	-50.0	17.7	0.00e+00	0	43	0	629145600	67	4566
2026-01-24 08:46:35.77	93.61	49.50	-47.5	-49.2	18.4	0.00e+00	0	43	0	630194176	66	4393
2026-01-24 08:46:36.77	93.15	49.72	-47.1	-48.8	18.8	0.00e+00	0	43	0	632291328	66	4195
2026-01-24 08:46:37.78	92.67	49.95	-46.9	-48.4	19.2	0.00e+00	0	43	0	634388480	65	4265
2026-01-24 08:46:38.79	92.18	50.17	-46.2	-47.6	19.9	0.00e+00	0	43	0	636485632	64	4126
2026-01-24 08:46:39.80	91.69	50.40	-45.9	-47.2	20.3	0.00e+00	0	43	0	638582784	63	4181
2026-01-24 08:46:40.81	91.19	50.62	-45.7	-47.0	20.6	0.00e+00	0	43	0	639631360	63	4072
2026-01-24 08:46:41.81	90.69	50.84	-45.9	-47.2	20.4	0.00e+00	0	43	0	641728512	63	4151
2026-01-24 08:46:42.82	90.17	51.06	-45.8	-47.1	20.5	0.00e+00	0	43	0	643825664	63	4103
2026-01-24 08:46:43.83	89.65	51.28	-45.6	-46.8	20.8	0.00e+00	0	43	0	645922816	63	3988
2026-01-24 08:46:44.84	89.12	51.49	-45.3	-46.5	21.1	0.00e+00	0	43	0	648019968	62	4065
2026-01-24 08:46:45.85	88.58	51.71	-45.1	-46.3	21.2	0.00e+00	0	43	0	649068544	62	3984
2026-01-24 08:46:46.85	88.04	51.92	-44.9	-46.0	21.5	0.00e+00	0	43	0	651165696	61	4080
2026-01-24 08:46:47.86	87.49	52.13	-44.6	-45.7	21.7	0.00e+00	0	43	0	653262848	61	3956
2026-01-24 08:46:48.87	86.93	52.34	-44.4	-45.4	22.0	0.00e+00	0	43	0	655360000	60	4036
2026-01-24 08:46:49.88	86.36	52.55	-44.1	-45.2	22.3	0.00e+00	0	43	0	657457152	60	3929
2026-01-24 08:46:50.89	85.78	52.75	-44.2	-45.3	22.4	0.00e+00	0	43	0	658505728	59	4208
2026-01-24 08:46:51.89	85.20	52.95	-44.3	-45.3	22.6	0.00e+00	0	43	0	660602880	59	4224
2026-01-24 08:46:52.90	84.61	53.15	-44.4	-45.4	22.5	0.00e+00	0	43	0	662700032	59	4277
2026-01-24 08:46:53.91	84.00	53.35	-44.6	-45.7	22.2	0.00e+00	0	43	0	664797184	59	4421
2026-01-24 08:46:54.91	83.40	53.55	-44.5	-45.6	22.2	0.00e+00	0	43	0	666894336	59	4351
2026-01-24 08:46:55.92	82.78	53.74	-44.4	-45.4	22.4	0.00e+00	0	43	0	667942912	59	4282
2026-01-24 08:46:56.93	82.15	53.93	-44.3	-45.4	22.4	0.00e+00	0	43	0	670040064	59	4244
2026-01-24 08:46:57.94	81.52	54.12	-44.6	-45.7	22.2	0.00e+00	0	43	0	672137216	59	4405
2026-01-24 08:46:58.95	80.88	54.30	-44.5	-45.6	22.0	0.00e+00	0	43	0	674234368	60	4111
2026-01-24 08:46:59.95	80.23	54.48	-44.5	-45.5	22.0	0.00e+00	0	43	0	676331520	60	4091
2026-01-24 08:47:00.96	79.57	54.66	-44.6	-45.7	21.8	0.00e+00	0	43	0	677380096	60	4179
2026-01-24 08:47:01.97	78.90	54.84	-45.0	-46.2	21.3	0.00e+00	0	43	0	679477248	60	4404
2026-01-24 08:47:02.98	78.23	55.01	-45.1	-46.3	21.3	0.00e+00	0	43	0	681574400	60	4466
2026-01-24 08:47:03.99	77.54	55.18	-45.1	-46.3	21.3	0.00e+00	0	43	0	683671552	60	4451
2026-01-24 08:47:04.99	76.86	55.34	-45.5	-46.7	20.9	0.00e+00	0	43	0	685768704	61	4430
2026-01-24 08:47:06.00	76.16	55.50	-46.0	-47.2	20.6	0.00e+00	0	43	0	686817280	62	4434
2026-01-24 08:47:07.01	75.45	55.66	-45.7	-46.9	20.9	0.00e+00	0	43	0	688914432	62	4276
2026-01-24 08:47:08.02	74.73	55.81	-45.7	-47.0	20.8	0.00e+00	0	43	0	691011584	62	4295
2026-01-24 08:47:09.02	74.01	55.96	-46.0	-47.3	20.5	0.00e+00	0	43	0	693108736	62	4464
2026-01-24 08:47:10.03	73.28	56.10	-46.2	-47.5	20.3	0.00e+00	0	43	0	695205888	62	4572
2026-01-24 08:47:11.04	72.54	56.25	-46.2	-47.6	20.1	0.00e+00	0	43	0	696254464	63	4362
2026-01-24 08:47:12.05	71.80	56.38	-46.3	-47.7	20.0	0.00e+00	0	43	0	698351616	63	4423
2026-01-24 08:47:13.06	71.04	56.52	-46.4	-47.8	20.0	0.00e+00	0	43	0	700448768	63	4487
2026-01-24 08:47:14.06	70.29	56.64	-46.5	-48.0	19.8	0.00e+00	0	43	0	702545920	63	4557
2026-01-24 08:47:15.07	69.52	56.76	-46.7	-48.2	19.5	0.00e+00	0	43	0	704643072	64	4414
2026-01-24 08:47:16.08	68.74	56.88	-46.7	-48.2	19.5	0.00e+00	0	43	0	705691648	64	4425
2026-01-24 08:47:17.09	67.96	57.00	-46.0	-47.3	20.3	0.00e+00	0	43	0	707788800	64	3984
2026-01-24 08:47:18.10	67.18	57.10	-45.7	-47.0	20.7	0.00e+00	0	43	0	709885952	63	4066
2026-01-24 08:47:19.10	66.39	57.21	-45.6	-46.8	20.9	0.00e+00	0	43	0	711983104	63	3976
2026-01-24 08:47:20.11	65.59	57.31	-45.6	-46.9	20.8	0.00e+00	0	43	0	714080256	62	4255
2026-01-24 08:47:21.12	64.78	57.40	-45.6	-46.8	20.9	0.00e+00	0	43	0	715128832	62	4230
2026-01-24 08:47:22.13	63.97	57.49	-45.7	-46.9	20.8	0.00e+00	0	43	0	717225984	62	4276
2026-01-24 08:47:23.13	63.16	57.57	-45.9	-47.2	20.6	0.00e+00	0	43	0	719323136	62	4399
2026-01-24 08:47:24.14	62.34	57.65	-45.8	-47.0	20.7	0.00e+00	0	43	0	721420288	62	4330
2026-01-24 08:47:25.15	61.52	57.72	-45.4	-46.6	21.0	0.00e+00	0	43	0	723517440	62	4110
2026-01-24 08:47:26.16	60.69	57.78	-45.3	-46.5	21.2	0.00e+00	0	43	0	724566016	62	4078
2026-01-24 08:47:27.17	59.85	57.84	-45.3	-46.5	21.2	0.00e+00	0	43	0	726663168	62	4061
2026-01-24 08:47:28.17	59.03	57.90	-45.7	-47.0	20.7	0.00e+00	0	43	0	728760320	62	4311
2026-01-24 08:47:29.18	58.19	57.95	-45.5	-46.7	21.0	0.00e+00	0	43	0	730857472	62	4161
2026-01-24 08:47:30.19	57.34	57.99	-45.3	-46.5	21.1	0.00e+00	0	43	0	732954624	62	4088
2026-01-24 08:47:31.20	56.50	58.03	-44.6	-45.7	21.9	0.00e+00	0	43	0	734003200	61	3946
2026-01-24 08:47:32.21	55.65	58.06	-44.6	-45.7	21.9	0.00e+00	0	43	0	736100352	61	3938
2026-01-24 08:47:33.21	54.81	58.08	-44.4	-45.5	22.0	0.00e+00	0	43	0	738197504	60	4073
2026-01-24 08:47:34.22	53.96	58.10	-44.4	-45.5	22.1	0.00e+00	0	43	0	740294656	60	4071
2026-01-24 08:47:35.23	53.10	58.12	-44.5	-45.6	22.0	0.00e+00	0	43	0	742391808	60	4113
2026-01-24 08:47:36.24	52.25	58.12	-44.7	-45.8	21.8	0.00e+00	0	43	0	744488960	60	4204
2026-01-24 08:47:37.25	51.40	58.13	-45.1	-46.3	21.4	0.00e+00	0	43	0	745537536	60	4460
2026-01-24 08:47:38.25	50.55	58.12	-44.8	-45.9	21.7	0.00e+00	0	43	0	747634688	60	4283
2026-01-24 08:47:39.26	49.70	58.11	-44.5	-45.5	22.1	0.00e+00	0	43	0	749731840	60	4085
2026-01-24 08:47:40.27	48.85	58.10	-44.2	-45.2	22.4	0.00e+00	0	43	0	751828992	60	3926
2026-01-24 08:47:41.28	48.00	58.07	-44.4	-45.5	22.2	0.00e+00	0	43	0	752877568	60	4054
2026-01-24 08:47:42.29	47.15	58.05	-44.2	-45.2	22.3	0.00e+00	0	43	0	754974720	60	3950
2026-01-24 08:47:43.29	46.31	58.01	-44.4	-45.4	22.4	0.00e+00	0	43	0	757071872	59	4283
2026-01-24 08:47:44.30	45.47	57.97	-44.4	-45.4	22.5	0.00e+00	0	43	0	759169024	59	4276
2026-01-24 08:47:45.31	44.63	57.93	-44.2	-45.2	22.7	0.00e+00	0	43	0	761266176	59	4175
2026-01-24 08:47:46.32	43.79	57.88	-44.0	-45.0	22.8	0.00e+00	0	43	0	762314752	59	4083
2026-01-24 08:47:47.33	42.95	57.82	-43.8	-44.8	23.0	0.00e+00	0	43	0	764411904	59	3959
2026-01-24 08:47:48.33	42.13	57.76	-43.7	-44.6	23.2	0.00e+00	0	43	0	766509056	59	3913
2026-01-24 08:47:49.34	41.30	57.69	-43.6	-44.6	23.2	0.00e+00	0	43	0	768606208	59	3893
2026-01-24 08:47:50.35	40.48	57.62	-43.8	-44.8	23.0	0.00e+00	0	43	0	770703360	59	3994
2026-01-24 08:47:51.36	39.66	57.54	-44.0	-45.0	22.8	0.00e+00	0	43	0	772800512	59	4070
2026-01-24 08:47:52.37	38.85	57.45	-44.0	-45.0	22.9	0.00e+00	0	43	0	773849088	59	4059
2026-01-24 08:47:53.38	38.04	57.36	-43.7	-44.7	23.1	0.00e+00	0	43	0	775946240	59	3938
2026-01-24 08:47:54.39	37.23	57.27	-43.6	-44.5	23.3	0.00e+00	0	43	0	778043392	59	3859
2026-01-24 08:47:55.40	36.44	57.17	-43.7	-44.6	23.2	0.00e+00	0	43	0	780140544	59	3907
2026-01-24 08:47:56.40	35.65	57.06	-44.2	-45.2	22.6	0.00e+00	0	43	0	781189120	59	4187
2026-01-24 08:47:57.41	34.87	56.95	-44.4	-45.4	22.5	0.00e+00	0	43	0	783286272	59	4275
2026-01-24 08:47:58.42	34.09	56.84	-44.6	-45.7	22.2	0.00e+00	0	43	0	785383424	59	4399
2026-01-24 08:47:59.43	33.32	56.72	-44.6	-45.7	22.2	0.00e+00	0	43	0	787480576	59	4406
2026-01-24 08:48:00.43	32.56	56.59	-44.3	-45.3	22.3	0.00e+00	0	43	0	789577728	60	3981
2026-01-24 08:48:01.44	31.80	56.46	-44.4	-45.5	22.1	0.00e+00	0	43	0	791674880	60	4077
2026-01-24 08:48:02.45	31.05	56.33	-44.5	-45.6	22.0	0.00e+00	0	43	0	792723456	60	4131
2026-01-24 08:48:03.46	30.31	56.19	-44.6	-45.7	21.9	0.00e+00	0	43	0	794820608	60	4178
2026-01-24 08:48:04.47	29.57	56.05	-44.7	-45.8	21.8	0.00e+00	0	43	0	796917760	60	4227
2026-01-24 08:48:05.48	28.85	55.90	-44.8	-46.0	21.6	0.00e+00	0	43	0	799014912	60	4307
2026-01-24 08:48:06.49	28.13	55.75	-44.5	-45.6	22.0	0.00e+00	0	43	0	801112064	60	4116
2026-01-24 08:48:07.50	27.41	55.59	-44.6	-45.7	21.8	0.00e+00	0	43	0	802160640	60	4165
2026-01-24 08:48:08.50	26.72	55.44	-44.6	-45.7	21.8	0.00e+00	0	43	0	804257792	60	4180
2026-01-24 08:48:09.51	26.02	55.27	-44.3	-45.3	22.2	0.00e+00	0	43	0	806354944	60	3991
2026-01-24 08:48:10.52	25.33	55.11	-44.3	-45.3	22.5	0.00e+00	0	43	0	808452096	59	4214
2026-01-24 08:48:11.53	24.65	54.94	-44.4	-45.5	22.4	0.00e+00	0	43	0	809500672	59	4296
2026-01-24 08:48:12.53	23.99	54.77	-44.3	-45.4	22.4	0.00e+00	0	43	0	811597824	59	4270
2026-01-24 08:48:13.54	23.32	54.59	-43.9	-44.9	22.9	0.00e+00	0	43	0	813694976	59	4031
2026-01-24 08:48:14.55	22.67	54.41	-43.9	-44.9	22.9	0.00e+00	0	43	0	815792128	59	4016
2026-01-24 08:48:15.56	22.02	54.23	-44.0	-45.1	22.7	0.00e+00	0	43	0	817889280	59	4106
2026-01-24 08:48:16.57	21.38	54.04	-44.2	-45.3	22.5	0.00e+00	0	43	0	819986432	59	4214
2026-01-24 08:48:17.57	20.76	53.86	-44.2	-45.2	22.6	0.00e+00	0	43	0	821035008	59	4185
2026-01-24 08:48:18.58	20.13	53.66	-44.0	-45.0	22.8	0.00e+00	0	43	0	823132160	59	4060
2026-01-24 08:48:19.59	19.52	53.47	-43.6	-44.5	23.2	0.00e+00	0	43	0	825229312	59	3868
2026-01-24 08:48:20.60	18.91	53.27	-43.8	-44.8	22.9	0.00e+00	0	43	0	827326464	59	3987
2026-01-24 08:48:21.61	18.32	53.08	-44.4	-45.5	22.4	0.00e+00	0	43	0	829423616	59	4299
2026-01-24 08:48:22.61	17.73	52.88	-44.7	-45.9	21.8	0.00e+00	0	43	0	830472192	60	4247
2026-01-24 08:48:23.62	17.15	52.67	-44.9	-46.0	21.6	0.00e+00	0	43	0	832569344	60	4330
2026-01-24 08:48:24.63	16.58	52.47	-45.1	-46.3	21.4	0.00e+00	0	43	0	834666496	60	4442
2026-01-24 08:48:25.64	16.01	52.26	-44.9	-46.0	21.6	0.00e+00	0	43	0	836763648	60	4331
2026-01-24 08:48:26.65	15.45	52.05	-45.0	-46.1	21.5	0.00e+00	0	43	0	838860800	60	4386
2026-01-24 08:48:27.65	14.91	51.84	-45.6	-46.8	20.8	0.00e+00	0	43	0	839909376	61	4491
2026-01-24 08:48:28.66	14.37	51.63	-46.7	-48.1	19.7	0.00e+00	0	43	0	842006528	63	4650
2026-01-24 08:48:29.67	13.83	51.41	-46.8	-48.3	19.5	0.00e+00	0	43	0	844103680	64	4458
2026-01-24 08:48:30.68	13.31	51.19	-46.6	-48.0	19.6	0.00e+00	0	43	0	846200832	64	4317
2026-01-24 08:48:31.69	12.79	50.98	-46.3	-47.7	19.9	0.00e+00	0	43	0	848297984	64	4152
2026-01-24 08:48:32.69	12.28	50.76	-46.3	-47.6	20.0	0.00e+00	0	43	0	849346560	64	4142
2026-01-24 08:48:33.70	11.78	50.54	-46.9	-48.4	19.3	0.00e+00	0	43	0	851443712	64	4544
2026-01-24 08:48:34.71	11.28	50.32	-47.7	-49.4	18.2	0.00e+00	0	43	0	853540864	65	4804
2026-01-24 08:48:35.72	10.80	50.09	-48.1	-49.9	17.8	0.00e+00	0	43	0	855638016	66	4805
2026-01-24 08:48:36.73	10.31	49.87	-48.2	-50.2	17.5	0.00e+00	0	43	0	857735168	67	4662
2026-01-24 08:48:37.73	9.84	49.64	-48.0	-49.9	17.8	0.00e+00	0	43	0	858783744	67	4519
2026-01-24 08:48:38.74	9.38	49.42	-47.7	-49.5	18.2	0.00e+00	0	43	0	860880896	67	4318
2026-01-24 08:48:39.75	8.92	49.19	-47.6	-49.3	18.4	0.00e+00	0	43	0	862978048	67	4232
2026-01-24 08:48:40.76	8.46	48.96	-47.5	-49.2	18.5	0.00e+00	0	43	0	865075200	66	4400
2026-01-24 08:48:41.77	8.02	48.73	-48.0	-49.8	17.8	0.00e+00	0	43	0	867172352	66	4739
2026-01-24 08:48:42.77	7.58	48.51	-48.0	-49.8	17.8	0.00e+00	0	43	0	868220928	66	4744
2026-01-24 08:48:43.78	7.15	48.28	-48.1	-50.0	17.7	0.00e+00	0	43	0	870318080	66	4831
2026-01-24 08:48:44.79	6.72	48.05	-48.1	-50.0	17.6	0.00e+00	0	43	0	872415232	66	4842
2026-01-24 08:48:45.80	6.30	47.82	-47.9	-49.8	17.9	0.00e+00	0	43	0	874512384	66	4716
2026-01-24 08:48:46.81	5.88	47.58	-47.6	-49.4	18.3	0.00e+00	0	43	0	876609536	66	4511
2026-01-24 08:48:47.82	5.47	47.35	-47.6	-49.4	18.3	0.00e+00	0	43	0	877658112	66	4503
2026-01-24 08:48:48.83	5.07	47.12	-48.0	-49.9	17.6	0.00e+00	0	43	0	879755264	66	4798
2026-01-24 08:48:49.83	4.68	46.89	-48.4	-50.4	17.3	0.00e+00	0	43	0	881852416	67	4796
2026-01-24 08:48:50.84	4.29	46.66	-48.3	-50.2	17.4	0.00e+00	0	43	0	883949568	67	4686
2026-01-24 08:48:51.85	3.90	46.42	-48.2	-50.2	17.5	0.00e+00	0	43	0	886046720	67	4658
2026-01-24 08:48:52.86	3.52	46.19	-47.8	-49.6	17.9	0.00e+00	0	43	0	888143872	67	4378
2026-01-24 08:48:53.87	3.15	45.96	-47.4	-49.1	18.5	0.00e+00	0	43	0	889192448	66	4366
2026-01-24 08:48:54.87	2.79	45.73	-47.2	-48.8	18.8	0.00e+00	0	43	0	891289600	66	4217
2026-01-24 08:48:55.88	2.42	45.49	-47.0	-48.6	19.0	0.00e+00	0	43	0	893386752	66	4099
2026-01-24 08:48:56.89	2.07	45.26	-47.2	-48.8	18.8	0.00e+00	0	43	0	895483904	66	4216
2026-01-24 08:48:57.90	1.71	45.03	-47.2	-48.9	18.8	0.00e+00	0	43	0	896532480	66	4256
2026-01-24 08:48:58.91	1.37	44.80	-47.2	-48.8	18.8	0.00e+00	0	43	0	898629632	66	4239
2026-01-24 08:48:59.91	1.03	44.57	-47.2	-48.9	18.7	0.00e+00	0	43	0	900726784	66	4256
2026-01-24 08:49:00.92	0.69	44.33	-47.2	-48.8	18.8	0.00e+00	0	43	0	902823936	66	4220
2026-01-24 08:49:01.93	0.36	44.10	-47.1	-48.7	18.9	0.00e+00	0	43	0	904921088	66	4147
2026-01-24 08:49:02.94	0.03	43.87	-46.8	-48.4	19.2	0.00e+00	0	43	0	905969664	65	4250
2026-01-24 08:49:03.95	359.71	43.64	-47.0	-48.6	18.9	0.00e+00	0	43	0	908066816	65	4376
2026-01-24 08:49:04.95	359.40	43.41	-47.2	-48.8	18.7	0.00e+00	0	43	0	910163968	65	4483
2026-01-24 08:49:05.96	359.08	43.18	-47.1	-48.7	18.9	0.00e+00	0	43	0	912261120	65	4420
2026-01-24 08:49:06.97	358.78	42.95	-47.0	-48.6	18.9	0.00e+00	0	43	0	914358272	65	4364
2026-01-24 08:49:07.97	358.47	42.72	-46.9	-48.4	19.1	0.00e+00	0	43	0	916455424	65	4290
2026-01-24 08:49:08.98	358.18	42.50	-47.0	-48.6	19.0	0.00e+00	0	43	0	917504000	65	4356
2026-01-24 08:49:09.99	357.88	42.27	-47.1	-48.7	18.8	0.00e+00	0	43	0	919601152	65	4434
2026-01-24 08:49:11.00	357.59	42.04	-47.1	-48.7	18.9	0.00e+00	0	43	0	921698304	65	4399
2026-01-24 08:49:12.01	357.30	41.81	-47.1	-48.7	18.9	0.00e+00	0	43	0	923795456	65	4413
2026-01-24 08:49:13.01	357.02	41.59	-47.3	-48.9	18.6	0.00e+00	0	43	0	924844032	65	4534
2026-01-24 08:49:14.02	356.74	41.36	-47.3	-49.0	18.6	0.00e+00	0	43	0	926941184	65	4546
2026-01-24 08:49:15.03	356.47	41.14	-47.4	-49.1	18.5	0.00e+00	0	43	0	929038336	65	4637
2026-01-24 08:49:16.04	356.20	40.91	-47.5	-49.2	18.3	0.00e+00	0	43	0	931135488	65	4667
2026-01-24 08:49:17.05	355.93	40.69	-47.6	-49.4	18.1	0.00e+00	0	43	0	933232640	65	4788
2026-01-24 08:49:18.05	355.67	40.47	-47.8	-49.6	18.0	0.00e+00	0	43	0	935329792	66	4613
2026-01-24 08:49:19.06	355.41	40.24	-47.8	-49.6	17.9	0.00e+00	0	43	0	936378368	66	4635
2026-01-24 08:49:20.07	355.15	40.02	-47.8	-49.7	17.9	0.00e+00	0	43	0	938475520	66	4660
2026-01-24 08:49:21.08	354.90	39.80	-48.2	-50.2	17.3	0.00e+00	0	43	0	940572672	67	4673
2026-01-24 08:49:22.09	354.65	39.58	-48.5	-50.6	16.9	0.00e+00	0	43	0	942669824	67	4882
2026-01-24 08:49:23.09	354.40	39.36	-48.8	-51.0	16.7	0.00e+00	0	43	0	944766976	68	4820
2026-01-24 08:49:24.10	354.16	39.14	-48.7	-50.8	16.7	0.00e+00	0	43	0	945815552	68	4759
2026-01-24 08:49:25.11	353.92	38.93	-48.6	-50.7	17.0	0.00e+00	0	43	0	947912704	68	4663
2026-01-24 08:49:26.11	353.69	38.71	-48.3	-50.2	17.4	0.00e+00	0	43	0	950009856	68	4440
2026-01-24 08:49:27.12	353.45	38.49	-48.2	-50.2	17.4	0.00e+00	0	43	0	952107008	68	4407
2026-01-24 08:49:28.13	353.22	38.28	-48.2	-50.1	17.4	0.00e+00	0	43	0	953155584	68	4381
2026-01-24 08:49:29.14	353.00	38.06	-48.4	-50.4	17.2	0.00e+00	0	43	0	955252736	68	4507
2026-01-24 08:49:30.15	352.77	37.85	-48.2	-50.1	17.5	0.00e+00	0	43	0	957349888	68	4361
2026-01-24 08:49:31.15	352.55	37.64	-47.8	-49.6	17.9	0.00e+00	0	43	0	959447040	67	4347
2026-01-24 08:49:32.16	352.33	37.43	-47.5	-49.3	18.3	0.00e+00	0	43	0	961544192	66	4445
2026-01-24 08:49:33.17	352.12	37.21	-47.5	-49.2	18.3	0.00e+00	0	43	0	963641344	66	4441
2026-01-24 08:49:34.18	351.91	37.00	-47.6	-49.4	18.1	0.00e+00	0	43	0	964689920	66	4504
2026-01-24 08:49:35.19	351.70	36.79	-48.0	-49.9	17.6	0.00e+00	0	43	0	966787072	66	4765
2026-01-24 08:49:36.20	351.49	36.59	-48.1	-50.0	17.4	0.00e+00	0	43	0	968884224	66	4834
2026-01-24 08:49:37.20	351.29	36.38	-48.1	-50.1	17.4	0.00e+00	0	43	0	970981376	66	4894
2026-01-24 08:49:38.21	351.09	36.17	-48.0	-49.9	17.6	0.00e+00	0	43	0	973078528	66	4784
2026-01-24 08:49:39.22	350.89	35.97	-47.9	-49.8	17.7	0.00e+00	0	43	0	974127104	66	4745
2026-01-24 08:49:40.23	350.69	35.76	-48.0	-50.0	17.5	0.00e+00	0	43	0	976224256	66	4820
2026-01-24 08:49:41.24	350.50	35.56	-47.8	-49.6	17.9	0.00e+00	0	43	0	978321408	66	4650
2026-01-24 08:49:42.24	350.31	35.36	-47.7	-49.5	17.9	0.00e+00	0	43	0	980418560	66	4598
2026-01-24 08:49:43.25	350.12	35.15	-47.8	-49.6	17.9	0.00e+00	0	43	0	982515712	66	4635
2026-01-24 08:49:44.26	349.93	34.95	-47.7	-49.5	17.9	0.00e+00	0	43	0	983564288	66	4546
2026-01-24 08:49:45.27	349.75	34.75	-47.6	-49.4	18.0	0.00e+00	0	43	0	985661440	66	4512
2026-01-24 08:49:46.27	349.56	34.56	-47.6	-49.4	18.1	0.00e+00	0	43	0	987758592	66	4501
2026-01-24 08:49:47.28	349.38	34.36	-47.6	-49.4	18.1	0.00e+00	0	43	0	989855744	66	4495
2026-01-24 08:49:48.29	349.21	34.16	-47.7	-49.5	17.9	0.00e+00	0	43	0	991952896	66	4587
2026-01-24 08:49:49.30	349.03	33.96	-47.8	-49.6	17.9	0.00e+00	0	43	0	993001472	66	4639
2026-01-24 08:49:50.31	348.86	33.77	-48.0	-50.0	17.5	0.00e+00	0	43	0	995098624	66	4847
2026-01-24 08:49:51.31	348.69	33.57	-48.2	-50.2	17.3	0.00e+00	0	43	0	997195776	66	4939
2026-01-24 08:49:52.32	348.52	33.38	-48.4	-50.5	17.0	0.00e+00	0	43	0	999292928	67	4844
2026-01-24 08:49:53.33	348.35	33.19	-48.5	-50.6	16.9	0.00e+00	0	43	0	1001390080	67	4901
2026-01-24 08:49:54.34	348.19	33.00	-48.5	-50.7	16.8	0.00e+00	0	43	0	1002438656	67	4975
2026-01-24 08:49:55.35	348.02	32.80	-48.3	-50.4	17.0	0.00e+00	0	43	0	1004535808	67	4771
2026-01-24 08:49:56.36	347.86	32.61	-48.1	-50.1	17.3	0.00e+00	0	43	0	1006632960	67	4606
2026-01-24 08:49:57.37	347.70	32.43	-47.9	-49.9	17.5	0.00e+00	0	43	0	1008730112	67	4499
2026-01-24 08:49:58.38	347.54	32.24	-47.9	-49.8	17.7	0.00e+00	0	43	0	1010827264	67	4446
2026-01-24 08:49:59.39	347.39	32.05	-47.6	-49.4	18.0	0.00e+00	0	43	0	1011875840	67	4262
2026-01-24 08:50:00.37	347.24	31.87	-47.7	-49.5	17.9	0.00e+00	0	43	0	1013972992	67	4300
2026-01-24 08:50:01.38	347.09	31.68	-47.6	-49.4	18.1	0.00e+00	0	43	0	1016070144	67	4270
2026-01-24 08:50:02.39	346.94	31.50	-47.5	-49.3	18.1	0.00e+00	0	43	0	1018167296	67	4221
2026-01-24 08:50:03.40	346.79	31.32	-47.5	-49.2	18.2	0.00e+00	0	43	0	1020264448	66	4416
2026-01-24 08:50:04.41	346.64	31.13	-47.5	-49.3	18.1	0.00e+00	0	43	0	1021313024	66	4465
2026-01-24 08:50:05.42	346.50	30.95	-47.6	-49.4	18.0	0.00e+00	0	43	0	1023410176	66	4497
2026-01-24 08:50:06.43	346.35	30.77	-47.7	-49.5	17.9	0.00e+00	0	43	0	1025507328	66	4583
2026-01-24 08:50:07.43	346.21	30.59	-47.8	-49.7	17.8	0.00e+00	0	43	0	1027604480	66	4656
2026-01-24 08:50:08.44	346.07	30.41	-47.8	-49.7	17.7	0.00e+00	0	43	0	1029701632	66	4687
2026-01-24 08:50:09.45	345.93	30.24	-48.0	-49.9	17.5	0.00e+00	0	43	0	1030750208	66	4792
2026-01-24 08:50:10.46	345.79	30.06	-48.1	-50.1	17.3	0.00e+00	0	43	0	1032847360	66	4901
2026-01-24 08:50:11.47	345.66	29.88	-48.1	-50.1	17.3	0.00e+00	0	43	0	1034944512	66	4916
2026-01-24 08:50:12.48	345.52	29.71	-48.2	-50.2	17.2	0.00e+00	0	43	0	1037041664	66	4969
2026-01-24 08:50:13.48	345.39	29.53	-48.1	-50.2	17.2	0.00e+00	0	43	0	1039138816	66	4928
2026-01-24 08:50:14.49	345.26	29.36	-47.9	-49.9	17.5	0.00e+00	0	43	0	1040187392	66	4772
2026-01-24 08:50:15.50	345.13	29.19	-47.8	-49.7	17.7	0.00e+00	0	43	0	1042284544	66	4663
2026-01-24 08:50:16.51	345.00	29.02	-47.6	-49.5	17.9	0.00e+00	0	43	0	1044381696	66	4563
2026-01-24 08:50:17.52	344.88	28.84	-47.6	-49.4	17.9	0.00e+00	0	43	0	1046478848	66	4516
2026-01-24 08:50:18.53	344.75	28.67	-47.2	-48.9	18.5	0.00e+00	0	43	0	1048576000	66	4252
2026-01-24 08:50:19.54	344.63	28.51	-46.9	-48.5	18.8	0.00e+00	0	43	0	1049624576	65	4318
2026-01-24 08:50:20.54	344.51	28.34	-46.9	-48.5	18.7	0.00e+00	0	43	0	1051721728	65	4336
2026-01-24 08:50:21.55	344.38	28.17	-47.0	-48.7	18.7	0.00e+00	0	43	0	1053818880	65	4409
2026-01-24 08:50:22.56	344.26	28.00	-47.0	-48.7	18.6	0.00e+00	0	43	0	1055916032	65	4403
2026-01-24 08:50:23.57	344.14	27.84	-47.0	-48.6	18.6	0.00e+00	0	43	0	1058013184	65	4380
2026-01-24 08:50:24.57	344.03	27.68	-46.9	-48.6	18.7	0.00e+00	0	43	0	1059061760	65	4356
2026-01-24 08:50:25.58	343.91	27.51	-46.8	-48.4	18.9	0.00e+00	0	43	0	1061158912	65	4248
2026-01-24 08:50:26.59	343.80	27.35	-46.8	-48.4	18.9	0.00e+00	0	43	0	1063256064	65	4246
2026-01-24 08:50:27.60	343.68	27.19	-46.6	-48.1	19.1	0.00e+00	0	43	0	1065353216	65	4129
2026-01-24 08:50:28.61	343.57	27.02	-46.6	-48.1	19.1	0.00e+00	0	43	0	1067450368	65	4138
2026-01-24 08:50:29.62	343.46	26.86	-46.6	-48.1	19.1	0.00e+00	0	43	0	1068498944	65	4127
2026-01-24 08:50:30.63	343.35	26.70	-46.6	-48.2	18.9	0.00e+00	0	43	0	1070596096	65	4171
2026-01-24 08:50:31.64	343.24	26.54	-46.5	-48.0	19.2	0.00e+00	0	43	0	1072693248	65	4093
2026-01-24 08:50:32.65	343.13	26.39	-46.6	-48.1	19.2	0.00e+00	0	43	0	1074790400	64	4379
2026-01-24 08:50:33.65	343.02	26.23	-46.6	-48.1	19.1	0.00e+00	0	43	0	1076887552	64	4359
2026-01-24 08:50:34.66	342.92	26.07	-46.5	-48.1	19.2	0.00e+00	0	43	0	1078984704	64	4356
2026-01-24 08:50:35.67	342.81	25.92	-46.5	-48.0	19.2	0.00e+00	0	43	0	1080033280	64	4302
2026-01-24 08:50:36.68	342.71	25.76	-46.4	-48.0	19.2	0.00e+00	0	43	0	1082130432	64	4292
2026-01-24 08:50:37.69	342.60	25.61	-46.4	-47.9	19.3	0.00e+00	0	43	0	1084227584	64	4255
2026-01-24 08:50:38.69	342.50	25.46	-46.3	-47.7	19.5	0.00e+00	0	43	0	1086324736	64	4184
2026-01-24 08:50:39.70	342.40	25.30	-46.3	-47.8	19.4	0.00e+00	0	43	0	1087373312	64	4210
2026-01-24 08:50:40.71	342.30	25.15	-46.2	-47.6	19.5	0.00e+00	0	43	0	1089470464	64	4123
2026-01-24 08:50:41.72	342.20	25.00	-46.3	-47.8	19.4	0.00e+00	0	43	0	1091567616	64	4206
2026-01-24 08:50:42.73	342.11	24.85	-46.2	-47.6	19.6	0.00e+00	0	43	0	1093664768	64	4125
2026-01-24 08:50:43.73	342.01	24.70	-46.2	-47.7	19.5	0.00e+00	0	43	0	1095761920	64	4166
2026-01-24 08:50:44.74	341.91	24.55	-46.2	-47.7	19.4	0.00e+00	0	43	0	1097859072	64	4157
2026-01-24 08:50:45.75	341.82	24.41	-46.3	-47.8	19.4	0.00e+00	0	43	0	1098907648	64	4232
2026-01-24 08:50:46.76	341.72	24.26	-46.4	-47.8	19.3	0.00e+00	0	43	0	1101004800	64	4242
2026-01-24 08:50:47.77	341.63	24.11	-46.4	-47.9	19.3	0.00e+00	0	43	0	1103101952	64	4275
2026-01-24 08:50:48.77	341.54	23.97	-46.5	-48.1	19.1	0.00e+00	0	43	0	1105199104	64	4352
2026-01-24 08:50:49.78	341.45	23.82	-46.6	-48.1	19.0	0.00e+00	0	43	0	1107296256	64	4377
2026-01-24 08:50:50.79	341.36	23.68	-46.6	-48.2	18.9	0.00e+00	0	43	0	1108344832	64	4432
2026-01-24 08:50:51.80	341.27	23.53	-46.8	-48.4	18.8	0.00e+00	0	43	0	1110441984	64	4511
2026-01-24 08:50:52.81	341.18	23.39	-46.8	-48.5	18.6	0.00e+00	0	43	0	1112539136	64	4553
2026-01-24 08:50:53.82	341.09	23.25	-46.8	-48.4	18.8	0.00e+00	0	43	0	1114636288	64	4509
2026-01-24 08:50:54.83	341.00	23.11	-46.8	-48.5	18.7	0.00e+00	0	43	0	1116733440	64	4551
2026-01-24 08:50:55.83	340.92	22.97	-46.7	-48.3	18.9	0.00e+00	0	43	0	1117782016	64	4446
2026-01-24 08:50:56.84	340.83	22.83	-46.5	-48.1	19.0	0.00e+00	0	43	0	1119879168	64	4363
2026-01-24 08:50:57.85	340.75	22.69	-46.4	-47.9	19.2	0.00e+00	0	43	0	1121976320	64	4262
2026-01-24 08:50:58.86	340.66	22.55	-46.3	-47.8	19.3	0.00e+00	0	43	0	1124073472	64	4221
2026-01-24 08:50:59.87	340.58	22.41	-46.4	-47.9	19.2	0.00e+00	0	43	0	1126170624	64	4261
2026-01-24 08:51:00.88	340.50	22.27	-46.2	-47.7	19.4	0.00e+00	0	43	0	1127219200	64	4166
2026-01-24 08:51:01.88	340.42	22.14	-46.2	-47.7	19.5	0.00e+00	0	43	0	1129316352	64	4165
2026-01-24 08:51:02.89	340.34	22.00	-46.3	-47.8	19.3	0.00e+00	0	43	0	1131413504	64	4212
2026-01-24 08:51:03.90	340.26	21.87	-46.1	-47.6	19.5	0.00e+00	0	43	0	1133510656	64	4121
2026-01-24 08:51:04.91	340.18	21.73	-46.1	-47.5	19.6	0.00e+00	0	43	0	1135607808	64	4083
2026-01-24 08:51:05.92	340.10	21.60	-46.2	-47.7	19.5	0.00e+00	0	43	0	1136656384	63	4417
2026-01-24 08:51:06.93	340.02	21.46	-46.2	-47.7	19.5	0.00e+00	0	43	0	1138753536	63	4428
2026-01-24 08:51:07.93	339.94	21.33	-46.1	-47.5	19.6	0.00e+00	0	43	0	1140850688	63	4323
2026-01-24 08:51:08.94	339.87	21.20	-46.1	-47.5	19.7	0.00e+00	0	43	0	1142947840	63	4325
2026-01-24 08:51:09.95	339.79	21.07	-46.1	-47.6	19.6	0.00e+00	0	43	0	1145044992	63	4362
2026-01-24 08:51:10.96	339.71	20.94	-46.1	-47.5	19.7	0.00e+00	0	43	0	1146093568	63	4326
2026-01-24 08:51:11.97	339.64	20.81	-46.0	-47.4	19.7	0.00e+00	0	43	0	1148190720	63	4283
2026-01-24 08:51:12.97	339.57	20.68	-46.0	-47.4	19.7	0.00e+00	0	43	0	1150287872	63	4287
2026-01-24 08:51:13.98	339.49	20.55	-46.0	-47.4	19.7	0.00e+00	0	43	0	1152385024	63	4263
2026-01-24 08:51:14.99	339.42	20.42	-45.9	-47.4	19.8	0.00e+00	0	43	0	1154482176	63	4253
2026-01-24 08:51:15.99	339.35	20.29	-45.8	-47.2	19.9	0.00e+00	0	43	0	1155530752	63	4160
2026-01-24 08:51:17.00	339.28	20.17	-45.8	-47.2	19.9	0.00e+00	0	43	0	1157627904	63	4188
2026-01-24 08:51:18.01	339.21	20.04	-45.8	-47.2	19.9	0.00e+00	0	43	0	1159725056	63	4157
2026-01-24 08:51:19.02	339.14	19.91	-45.9	-47.2	19.8	0.00e+00	0	43	0	1161822208	63	4190
2026-01-24 08:51:20.03	339.07	19.79	-45.9	-47.3	19.8	0.00e+00	0	43	0	1163919360	63	4241
2026-01-24 08:51:21.03	339.00	19.66	-45.8	-47.2	19.9	0.00e+00	0	43	0	1164967936	63	4162
2026-01-24 08:51:22.04	338.93	19.54	-45.7	-47.1	19.9	0.00e+00	0	43	0	1167065088	63	4134
2026-01-24 08:51:23.05	338.86	19.42	-45.7	-47.1	20.0	0.00e+00	0	43	0	1169162240	63	4134
2026-01-24 08:51:24.06	338.80	19.29	-45.9	-47.3	19.8	0.00e+00	0	43	0	1171259392	63	4207
2026-01-24 08:51:25.07	338.73	19.17	-46.0	-47.4	19.7	0.00e+00	0	43	0	1173356544	63	4263
2026-01-24 08:51:26.07	338.66	19.05	-45.8	-47.2	19.8	0.00e+00	0	43	0	1174405120	63	4192
2026-01-24 08:51:27.08	338.60	18.93	-45.8	-47.2	19.9	0.00e+00	0	43	0	1176502272	63	4164
2026-01-24 08:51:28.09	338.53	18.81	-45.7	-47.0	20.0	0.00e+00	0	43	0	1178599424	63	4086
2026-01-24 08:51:29.10	338.47	18.69	-45.6	-47.0	20.1	0.00e+00	0	43	0	1180696576	63	4056
2026-01-24 08:51:30.11	338.40	18.57	-45.7	-47.0	20.0	0.00e+00	0	43	0	1182793728	63	4082
2026-01-24 08:51:31.12	338.34	18.45	-45.7	-47.1	20.0	0.00e+00	0	43	0	1183842304	63	4117
2026-01-24 08:51:32.13	338.28	18.33	-45.6	-46.9	20.1	0.00e+00	0	43	0	1185939456	63	4044
2026-01-24 08:51:33.13	338.22	18.21	-45.7	-47.0	20.0	0.00e+00	0	43	0	1188036608	63	4097
2026-01-24 08:51:34.14	338.15	18.09	-45.6	-46.9	20.1	0.00e+00	0	43	0	1190133760	63	4026
2026-01-24 08:51:35.15	338.09	17.98	-45.5	-46.9	20.2	0.00e+00	0	43	0	1192230912	63	4008
2026-01-24 08:51:36.16	338.03	17.86	-45.5	-46.9	20.1	0.00e+00	0	43	0	1194328064	63	4017
2026-01-24 08:51:37.17	337.97	17.74	-45.6	-46.9	20.2	0.00e+00	0	43	0	1195376640	63	4020
2026-01-24 08:51:38.17	337.91	17.63	-45.6	-47.0	20.1	0.00e+00	0	43	0	1197473792	63	4052
2026-01-24 08:51:39.18	337.85	17.51	-45.6	-46.9	20.1	0.00e+00	0	43	0	1199570944	63	4049
2026-01-24 08:51:40.19	337.79	17.40	-45.7	-47.0	20.0	0.00e+00	0	43	0	1201668096	63	4082
2026-01-24 08:51:41.20	337.74	17.28	-45.7	-47.1	19.9	0.00e+00	0	43	0	1202716672	63	4133
2026-01-24 08:51:42.21	337.68	17.17	-45.8	-47.2	19.9	0.00e+00	0	43	0	1204813824	63	4153
2026-01-24 08:51:43.21	337.62	17.06	-45.9	-47.3	19.8	0.00e+00	0	43	0	1206910976	63	4207
2026-01-24 08:51:44.22	337.56	16.95	-45.8	-47.2	19.8	0.00e+00	0	43	0	1209008128	63	4190
2026-01-24 08:51:45.23	337.51	16.83	-45.9	-47.3	19.7	0.00e+00	0	43	0	1211105280	63	4241
2026-01-24 08:51:46.24	337.45	16.72	-46.0	-47.4	19.6	0.00e+00	0	43	0	1213202432	63	4291
2026-01-24 08:51:47.25	337.39	16.61	-46.1	-47.6	19.4	0.00e+00	0	43	0	1214251008	63	4371
2026-01-24 08:51:48.25	337.34	16.50	-46.1	-47.5	19.5	1.50e-06	0	43	0	1216348160	63	4331
2026-01-24 08:51:49.26	337.29	16.39	-46.2	-47.7	19.3	0.00e+00	0	43	0	1218445312	63	4418
2026-01-24 08:51:50.27	337.23	16.28	-46.1	-47.6	19.4	0.00e+00	0	43	0	1220542464	63	4382
2026-01-24 08:51:51.28	337.18	16.17	-46.2	-47.7	19.3	0.00e+00	0	43	0	1222639616	63	4429
2026-01-24 08:51:52.29	337.12	16.06	-46.3	-47.8	19.2	3.00e-06	0	43	0	1223688192	63	4464
2026-01-24 08:51:53.30	337.07	15.95	-46.3	-47.9	19.1	3.80e-06	0	43	0	1225785344	63	4496
2026-01-24 08:51:54.31	337.02	15.85	-46.4	-47.9	19.0	2.20e-06	0	43	0	1227882496	63	4525
2026-01-24 08:51:55.32	336.97	15.74	-46.3	-47.8	19.2	0.00e+00	0	43	0	1229979648	63	4472
2026-01-24 08:51:56.32	336.91	15.63	-46.3	-47.9	19.1	0.00e+00	0	43	0	1231028224	63	4498
2026-01-24 08:51:57.33	336.86	15.52	-46.2	-47.7	19.2	0.00e+00	0	43	0	1233125376	63	4429
2026-01-24 08:51:58.34	336.81	15.42	-46.4	-48.0	19.0	0.00e+00	0	43	0	1235222528	63	4548
2026-01-24 08:51:59.35	336.76	15.31	-46.2	-47.8	19.1	4.50e-06	0	43	0	1237319680	63	4449
2026-01-24 08:52:00.36	336.71	15.21	-46.3	-47.9	19.1	0.00e+00	0	43	0	1239416832	63	4508
2026-01-24 08:52:01.36	336.66	15.10	-46.3	-47.8	19.1	0.00e+00	0	43	0	1241513984	63	4467
2026-01-24 08:52:02.37	336.61	15.00	-46.1	-47.6	19.3	0.00e+00	0	43	0	1242562560	63	4357
2026-01-24 08:52:03.38	336.56	14.89	-46.1	-47.6	19.3	0.00e+00	0	43	0	1244659712	63	4375
