passes_logs/2026/01/24/R3.2S_Murmansk/R3.2S_Murmansk__20260124_064113_SUOMI_NPP_rec.log

#Pass ID: 20260124_064113_SUOMI NPP
#Satellite: SUOMI NPP
#Configuration: NPP
#almurnet v.1.7.20251203
#Start time: 2026-01-24 06:41:15

#Version: 2.2.20231116
#Station: R3.2S_Murmansk
#Location: 33.079688 lon 68.888172 lat
#TLE: 1 37849U 11061A   26023.63275593  .00000212  00000+0  12133-3 0  9990
#TLE: 2 37849  98.7820 325.6074 0002234  48.9695 311.1673 14.19528901737937

#Time	Az	El	Level	Level2	SNR	BER	BlckErr	Temp	State	Recorded	gain1	gain2
2026-01-24 06:41:15.15	87.09	2.11	-52.0	-66.9	3.8	1.49e+00	0	42	0	0	74	21467
2026-01-24 06:41:16.16	87.03	2.17	-52.0	-66.9	3.8	1.49e+00	0	42	104	0	74	21501
2026-01-24 06:41:17.17	86.97	2.23	-51.9	-66.9	3.8	1.49e+00	0	42	104	0	74	21494
2026-01-24 06:41:18.18	86.92	2.29	-51.9	-66.9	3.8	1.49e+00	0	42	104	0	74	21466
2026-01-24 06:41:19.19	86.86	2.35	-51.9	-66.9	3.8	1.49e+00	0	42	104	0	74	21421
2026-01-24 06:41:20.20	86.80	2.41	-51.9	-66.9	3.8	1.49e+00	0	42	104	0	74	21343
2026-01-24 06:41:21.20	86.74	2.47	-51.9	-66.9	3.8	1.49e+00	0	42	104	0	74	21345
2026-01-24 06:41:22.21	86.69	2.53	-51.9	-66.9	3.8	1.49e+00	0	42	104	0	74	21409
2026-01-24 06:41:23.22	86.63	2.59	-51.9	-66.9	3.8	1.49e+00	0	42	104	0	74	21410
2026-01-24 06:41:24.23	86.57	2.65	-51.9	-66.9	3.8	1.49e+00	0	42	104	0	74	21405
2026-01-24 06:41:25.24	86.51	2.71	-51.9	-66.9	3.8	1.49e+00	0	42	104	0	74	21401
2026-01-24 06:41:26.25	86.45	2.77	-51.9	-66.9	3.8	1.49e+00	0	42	104	0	74	21392
2026-01-24 06:41:27.26	86.39	2.83	-51.9	-66.9	3.8	1.49e+00	0	42	104	0	74	21393
2026-01-24 06:41:28.27	86.33	2.89	-51.9	-66.9	3.8	1.49e+00	0	42	104	0	74	21367
2026-01-24 06:41:29.27	86.27	2.95	-51.9	-66.9	3.8	1.49e+00	0	42	104	0	74	21338
2026-01-24 06:41:30.28	86.21	3.01	-51.9	-66.9	3.8	1.49e+00	0	42	104	0	74	21345
2026-01-24 06:41:31.29	86.15	3.07	-51.9	-66.9	3.8	1.49e+00	0	42	104	0	74	21306
2026-01-24 06:41:32.30	86.09	3.13	-51.9	-66.9	3.8	1.49e+00	0	42	104	0	74	21329
2026-01-24 06:41:33.31	86.03	3.20	-51.9	-66.9	3.8	1.49e+00	0	42	104	0	74	21360
2026-01-24 06:41:34.32	85.97	3.26	-51.9	-66.9	3.8	1.49e+00	0	42	104	0	74	21366
2026-01-24 06:41:35.32	85.91	3.32	-51.9	-66.9	3.8	1.49e+00	0	42	104	0	74	21403
2026-01-24 06:41:36.34	85.85	3.38	-51.9	-66.9	3.8	1.49e+00	0	42	104	0	74	21319
2026-01-24 06:41:37.34	85.79	3.44	-51.9	-66.9	3.8	1.49e+00	0	42	104	0	74	21266
2026-01-24 06:41:38.35	85.72	3.50	-52.0	-66.8	3.8	1.49e+00	0	42	104	0	74	21207
2026-01-24 06:41:39.36	85.66	3.56	-51.9	-66.8	3.8	1.49e+00	0	42	104	0	74	21188
2026-01-24 06:41:40.37	85.60	3.63	-51.9	-66.9	3.8	1.49e+00	0	42	104	0	74	21312
2026-01-24 06:41:41.38	85.53	3.69	-51.9	-66.9	3.8	1.49e+00	0	42	104	0	74	21315
2026-01-24 06:41:42.38	85.47	3.75	-51.9	-66.8	3.8	1.49e+00	0	42	104	0	74	21252
2026-01-24 06:41:43.39	85.41	3.81	-51.9	-66.7	3.8	1.49e+00	0	42	104	0	74	20887
2026-01-24 06:41:44.40	85.34	3.87	-51.9	-66.2	3.8	1.49e+00	0	42	104	0	74	19823
2026-01-24 06:41:45.41	85.28	3.94	-51.9	-65.5	3.8	1.49e+00	0	43	104	0	74	18294
2026-01-24 06:41:46.42	85.22	4.00	-51.9	-65.2	3.9	1.49e+00	0	43	104	0	74	17487
2026-01-24 06:41:47.42	85.15	4.06	-51.8	-64.4	4.0	1.49e+00	0	42	104	0	74	16064
2026-01-24 06:41:48.43	85.09	4.12	-51.8	-64.0	4.0	1.47e+00	0	43	0	0	74	15265
2026-01-24 06:41:49.44	85.02	4.19	-51.8	-63.9	4.0	1.45e+00	0	42	0	0	74	15199
2026-01-24 06:41:50.45	84.96	4.25	-51.8	-64.3	3.9	1.47e+00	0	43	104	0	74	15835
2026-01-24 06:41:51.45	84.89	4.31	-51.8	-64.1	3.9	1.46e+00	0	42	104	0	74	15572
2026-01-24 06:41:52.46	84.82	4.37	-51.8	-63.3	4.2	1.40e+00	0	43	0	0	74	14184
2026-01-24 06:41:53.47	84.76	4.44	-51.6	-61.8	4.7	1.11e+00	0	43	0	1048576	74	11919
2026-01-24 06:41:54.48	84.69	4.50	-51.4	-60.2	5.7	5.33e-01	0	43	0	2097152	74	9933
2026-01-24 06:41:55.49	84.62	4.56	-51.0	-58.1	7.5	2.70e-01	0	43	0	4194304	73	8184
2026-01-24 06:41:56.50	84.56	4.63	-50.6	-56.5	9.1	3.56e-02	0	43	0	6291456	73	6807
2026-01-24 06:41:57.51	84.49	4.69	-50.2	-55.1	10.5	1.38e-02	0	43	0	8388608	72	6193
2026-01-24 06:41:58.51	84.42	4.75	-50.0	-54.4	11.4	1.88e-03	0	43	0	10485760	71	6002
2026-01-24 06:41:59.52	84.35	4.82	-49.5	-53.4	12.5	2.14e-04	0	43	0	11534336	71	5357
2026-01-24 06:42:00.53	84.28	4.88	-49.5	-53.3	12.5	1.40e-04	0	43	0	13631488	70	5603
2026-01-24 06:42:01.54	84.21	4.95	-49.5	-53.3	12.6	4.73e-05	0	43	0	15728640	70	5602
2026-01-24 06:42:02.55	84.15	5.01	-49.6	-53.7	12.1	1.18e-04	0	43	0	17825792	70	5876
2026-01-24 06:42:03.56	84.08	5.08	-48.8	-51.9	14.0	2.72e-04	0	43	0	19922944	69	5060
2026-01-24 06:42:04.57	84.01	5.14	-48.0	-50.5	15.4	0.00e+00	0	43	0	20971520	67	4858
2026-01-24 06:42:05.58	83.94	5.20	-50.4	-55.5	11.2	9.90e-06	0	43	0	23068672	71	6846
2026-01-24 06:42:06.59	83.86	5.27	-49.9	-54.0	11.5	1.24e+00	0	43	104	24117248	71	5782
2026-01-24 06:42:07.60	83.79	5.33	-48.6	-51.5	14.6	9.53e-05	0	43	0	25165824	68	5143
2026-01-24 06:42:08.60	83.72	5.40	-48.7	-51.7	14.1	1.33e-03	0	43	0	27262976	69	4976
2026-01-24 06:42:09.61	83.65	5.46	-48.1	-50.7	15.2	0.00e+00	0	43	0	29360128	68	4697
2026-01-24 06:42:10.62	83.58	5.53	-48.3	-51.2	14.7	0.00e+00	0	43	0	31457280	67	5225
2026-01-24 06:42:11.62	83.51	5.59	-48.4	-51.3	14.6	7.00e-07	0	43	0	33554432	67	5292
2026-01-24 06:42:12.63	83.44	5.66	-48.3	-51.1	14.8	0.00e+00	0	43	0	34603008	67	5212
2026-01-24 06:42:13.64	83.36	5.72	-48.4	-51.2	14.7	0.00e+00	0	43	0	36700160	67	5277
2026-01-24 06:42:14.65	83.29	5.79	-48.0	-50.6	15.4	0.00e+00	0	43	0	38797312	67	4874
2026-01-24 06:42:15.66	83.22	5.86	-48.4	-51.3	14.8	0.00e+00	0	43	0	40894464	67	5294
2026-01-24 06:42:16.67	83.14	5.92	-48.1	-50.7	15.3	0.00e+00	0	43	0	42991616	67	4968
2026-01-24 06:42:17.68	83.07	5.99	-47.9	-50.5	15.5	0.00e+00	0	43	0	44040192	67	4819
2026-01-24 06:42:18.69	82.99	6.05	-47.8	-50.3	15.7	0.00e+00	0	43	0	46137344	66	5015
2026-01-24 06:42:19.69	82.92	6.12	-48.1	-50.8	15.2	0.00e+00	0	43	0	48234496	66	5305
2026-01-24 06:42:20.70	82.84	6.19	-48.2	-50.8	15.2	0.00e+00	0	43	0	50331648	67	5029
2026-01-24 06:42:21.71	82.77	6.25	-47.8	-50.3	15.7	0.00e+00	0	43	0	52428800	67	4724
2026-01-24 06:42:22.72	82.69	6.32	-47.9	-50.4	15.7	0.00e+00	0	43	0	53477376	67	4774
2026-01-24 06:42:23.73	82.61	6.39	-47.8	-50.4	15.6	0.00e+00	0	43	0	55574528	67	4773
2026-01-24 06:42:24.74	82.54	6.45	-47.6	-50.1	15.9	0.00e+00	0	43	0	57671680	67	4617
2026-01-24 06:42:25.75	82.46	6.52	-47.5	-50.0	16.0	0.00e+00	0	43	0	59768832	66	4830
2026-01-24 06:42:26.76	82.38	6.59	-47.6	-50.2	15.8	0.00e+00	0	43	0	61865984	66	4950
2026-01-24 06:42:27.77	82.30	6.65	-47.5	-49.9	16.0	0.00e+00	0	43	0	62914560	66	4777
2026-01-24 06:42:28.78	82.23	6.72	-47.3	-49.6	16.4	0.00e+00	0	43	0	65011712	66	4610
2026-01-24 06:42:29.78	82.15	6.79	-47.2	-49.5	16.5	0.00e+00	0	43	0	67108864	66	4562
2026-01-24 06:42:30.79	82.07	6.86	-47.0	-49.2	16.7	0.00e+00	0	43	0	69206016	65	4675
2026-01-24 06:42:31.80	81.99	6.92	-46.9	-49.1	16.8	0.00e+00	0	43	0	71303168	65	4620
2026-01-24 06:42:32.81	81.91	6.99	-46.8	-48.9	16.9	0.00e+00	0	43	0	72351744	65	4541
2026-01-24 06:42:33.82	81.83	7.06	-47.0	-49.2	16.7	0.00e+00	0	43	0	74448896	65	4681
2026-01-24 06:42:34.82	81.75	7.13	-46.9	-49.1	16.8	0.00e+00	0	43	0	76546048	65	4644
2026-01-24 06:42:35.83	81.67	7.20	-46.9	-49.1	16.8	0.00e+00	0	43	0	78643200	65	4650
2026-01-24 06:42:36.84	81.59	7.26	-47.0	-49.2	16.7	0.00e+00	0	43	0	80740352	65	4679
2026-01-24 06:42:37.84	81.51	7.33	-47.0	-49.1	16.8	0.00e+00	0	43	0	81788928	65	4647
2026-01-24 06:42:38.86	81.42	7.40	-46.9	-49.1	16.8	0.00e+00	0	43	0	83886080	65	4625
2026-01-24 06:42:39.86	81.34	7.47	-47.0	-49.2	16.7	0.00e+00	0	43	0	85983232	65	4653
2026-01-24 06:42:40.87	81.26	7.54	-46.7	-48.8	17.1	0.00e+00	0	43	0	88080384	65	4462
2026-01-24 06:42:41.88	81.17	7.61	-46.8	-48.9	17.0	0.00e+00	0	43	0	90177536	65	4522
2026-01-24 06:42:42.89	81.09	7.68	-46.9	-49.0	16.9	0.00e+00	0	43	0	91226112	65	4587
2026-01-24 06:42:43.90	81.01	7.75	-46.8	-48.9	17.0	0.00e+00	0	43	0	93323264	65	4502
2026-01-24 06:42:44.91	80.92	7.81	-47.1	-49.3	16.6	0.00e+00	0	43	0	95420416	64	5023
2026-01-24 06:42:45.92	80.84	7.88	-46.9	-49.1	16.8	0.00e+00	0	43	0	97517568	64	4903
2026-01-24 06:42:46.93	80.75	7.95	-46.9	-49.1	16.8	0.00e+00	0	43	0	99614720	64	4876
2026-01-24 06:42:47.94	80.66	8.02	-46.9	-49.1	16.8	0.00e+00	0	43	0	100663296	64	4925
2026-01-24 06:42:48.94	80.58	8.09	-46.9	-49.0	16.9	0.00e+00	0	43	0	102760448	64	4850
2026-01-24 06:42:49.95	80.49	8.16	-46.8	-49.0	17.0	0.00e+00	0	43	0	104857600	64	4821
2026-01-24 06:42:50.96	80.41	8.23	-47.2	-49.4	16.5	0.00e+00	0	43	0	106954752	64	5086
2026-01-24 06:42:51.97	80.32	8.30	-46.9	-49.1	16.8	0.00e+00	0	43	0	109051904	64	4897
2026-01-24 06:42:52.98	80.23	8.37	-47.0	-49.1	16.8	0.00e+00	0	43	0	111149056	64	4925
2026-01-24 06:42:53.99	80.14	8.44	-46.9	-49.0	17.0	0.00e+00	0	43	0	112197632	65	4570
2026-01-24 06:42:55.00	80.05	8.52	-47.0	-49.1	16.9	0.00e+00	0	43	0	114294784	65	4648
2026-01-24 06:42:56.01	79.96	8.59	-47.0	-49.2	16.9	0.00e+00	0	43	0	116391936	65	4657
2026-01-24 06:42:57.02	79.87	8.66	-46.9	-49.0	17.0	0.00e+00	0	43	0	118489088	65	4597
2026-01-24 06:42:58.03	79.78	8.73	-47.0	-49.2	16.9	0.00e+00	0	43	0	119537664	65	4661
2026-01-24 06:42:59.03	79.69	8.80	-46.9	-49.0	17.1	0.00e+00	0	43	0	121634816	65	4549
2026-01-24 06:43:00.04	79.60	8.87	-46.8	-48.8	17.3	0.00e+00	0	43	0	123731968	65	4475
2026-01-24 06:43:01.05	79.51	8.94	-46.9	-49.0	17.1	0.00e+00	0	43	0	125829120	65	4576
2026-01-24 06:43:02.06	79.42	9.01	-46.8	-48.8	17.3	0.00e+00	0	43	0	127926272	65	4474
2026-01-24 06:43:03.07	79.32	9.08	-47.0	-49.1	17.0	0.00e+00	0	43	0	130023424	65	4620
2026-01-24 06:43:04.07	79.23	9.16	-47.4	-49.7	16.5	0.00e+00	0	43	0	131072000	65	4947
2026-01-24 06:43:05.08	79.14	9.23	-47.1	-49.3	16.9	0.00e+00	0	43	0	133169152	65	4713
2026-01-24 06:43:06.09	79.04	9.30	-47.1	-49.3	16.9	0.00e+00	0	43	0	135266304	65	4725
2026-01-24 06:43:07.10	78.95	9.37	-47.2	-49.3	16.8	0.00e+00	0	43	0	137363456	65	4754
2026-01-24 06:43:08.11	78.85	9.44	-47.0	-49.1	17.1	0.00e+00	0	43	0	139460608	65	4625
2026-01-24 06:43:09.11	78.76	9.52	-46.7	-48.7	17.5	0.00e+00	0	43	0	140509184	65	4418
2026-01-24 06:43:10.12	78.66	9.59	-46.9	-49.0	17.2	0.00e+00	0	43	0	142606336	65	4574
2026-01-24 06:43:11.13	78.57	9.66	-46.9	-48.9	17.3	0.00e+00	0	43	0	144703488	65	4527
2026-01-24 06:43:12.14	78.47	9.73	-46.8	-48.9	17.1	0.00e+00	0	43	0	146800640	65	4530
2026-01-24 06:43:13.15	78.37	9.81	-46.9	-49.0	17.2	0.00e+00	0	43	0	147849216	65	4588
2026-01-24 06:43:14.15	78.28	9.88	-47.0	-49.2	17.0	0.00e+00	0	43	0	149946368	65	4668
2026-01-24 06:43:15.16	78.18	9.95	-46.9	-49.1	17.2	0.00e+00	0	43	0	152043520	65	4604
2026-01-24 06:43:16.17	78.08	10.03	-47.1	-49.3	16.9	0.00e+00	0	43	0	154140672	65	4721
2026-01-24 06:43:17.18	77.98	10.10	-47.2	-49.4	16.8	0.00e+00	0	43	0	156237824	65	4793
2026-01-24 06:43:18.19	77.88	10.17	-47.2	-49.5	16.8	0.00e+00	0	43	0	158334976	65	4823
2026-01-24 06:43:19.20	77.78	10.25	-46.8	-48.9	17.3	0.00e+00	0	43	0	159383552	65	4538
2026-01-24 06:43:20.20	77.68	10.32	-47.0	-49.2	17.0	0.00e+00	0	43	0	161480704	65	4668
2026-01-24 06:43:21.21	77.58	10.40	-46.6	-48.6	17.6	0.00e+00	0	43	0	163577856	65	4355
2026-01-24 06:43:22.22	77.47	10.47	-46.7	-48.7	17.5	0.00e+00	0	43	0	165675008	65	4425
2026-01-24 06:43:23.23	77.37	10.54	-46.7	-48.7	17.5	0.00e+00	0	43	0	167772160	65	4412
2026-01-24 06:43:24.24	77.27	10.62	-46.5	-48.5	17.7	0.00e+00	0	43	0	168820736	65	4303
2026-01-24 06:43:25.24	77.16	10.69	-46.6	-48.6	17.6	0.00e+00	0	43	0	170917888	65	4354
2026-01-24 06:43:26.25	77.06	10.77	-46.7	-48.8	17.4	0.00e+00	0	43	0	173015040	65	4459
2026-01-24 06:43:27.26	76.96	10.84	-46.7	-48.8	17.5	0.00e+00	0	43	0	175112192	65	4447
2026-01-24 06:43:28.27	76.85	10.92	-46.9	-49.0	17.3	0.00e+00	0	43	0	177209344	65	4576
2026-01-24 06:43:29.27	76.74	10.99	-46.7	-48.7	17.6	0.00e+00	0	43	0	178257920	65	4399
2026-01-24 06:43:30.28	76.64	11.07	-46.7	-48.7	17.5	0.00e+00	0	43	0	180355072	65	4399
2026-01-24 06:43:31.29	76.53	11.14	-46.5	-48.4	17.8	0.00e+00	0	43	0	182452224	65	4273
2026-01-24 06:43:32.30	76.42	11.22	-46.6	-48.6	17.7	0.00e+00	0	43	0	184549376	65	4344
2026-01-24 06:43:33.31	76.31	11.29	-46.6	-48.6	17.7	0.00e+00	0	43	0	186646528	65	4369
2026-01-24 06:43:34.32	76.21	11.37	-46.7	-48.7	17.6	0.00e+00	0	44	0	187695104	65	4415
2026-01-24 06:43:35.32	76.10	11.45	-46.9	-49.0	17.3	0.00e+00	0	43	0	189792256	65	4582
2026-01-24 06:43:36.33	75.99	11.52	-46.9	-49.0	17.3	0.00e+00	0	43	0	191889408	65	4547
2026-01-24 06:43:37.34	75.88	11.60	-46.8	-48.9	17.4	0.00e+00	0	43	0	193986560	65	4500
2026-01-24 06:43:38.34	75.77	11.67	-46.6	-48.6	17.7	0.00e+00	0	43	0	196083712	65	4383
2026-01-24 06:43:39.35	75.65	11.75	-46.6	-48.6	17.7	0.00e+00	0	43	0	198180864	65	4358
2026-01-24 06:43:40.36	75.54	11.83	-46.6	-48.4	17.9	0.00e+00	0	43	0	199229440	65	4285
2026-01-24 06:43:41.37	75.43	11.90	-46.5	-48.4	17.9	0.00e+00	0	43	0	201326592	64	4511
2026-01-24 06:43:42.38	75.32	11.98	-46.4	-48.2	18.1	0.00e+00	0	43	0	203423744	64	4420
2026-01-24 06:43:43.39	75.20	12.06	-46.4	-48.2	18.1	0.00e+00	0	43	0	205520896	64	4423
2026-01-24 06:43:44.40	75.09	12.13	-46.4	-48.2	18.0	0.00e+00	0	43	0	206569472	64	4440
2026-01-24 06:43:45.40	74.97	12.21	-46.5	-48.4	17.9	0.00e+00	0	43	0	208666624	64	4510
2026-01-24 06:43:46.41	74.86	12.29	-46.5	-48.3	18.0	0.00e+00	0	43	0	210763776	64	4483
2026-01-24 06:43:47.42	74.74	12.37	-46.5	-48.3	18.0	0.00e+00	0	43	0	212860928	64	4483
2026-01-24 06:43:48.42	74.62	12.44	-46.2	-48.0	18.3	0.00e+00	0	43	0	214958080	64	4308
2026-01-24 06:43:49.43	74.51	12.52	-46.1	-47.9	18.6	0.00e+00	0	43	0	216006656	63	4494
2026-01-24 06:43:50.44	74.39	12.60	-46.4	-48.2	18.2	0.00e+00	0	43	0	218103808	63	4659
2026-01-24 06:43:51.45	74.27	12.68	-46.3	-48.1	18.4	0.00e+00	0	43	0	220200960	63	4611
2026-01-24 06:43:52.46	74.15	12.75	-46.3	-48.1	18.4	0.00e+00	0	43	0	222298112	63	4600
2026-01-24 06:43:53.47	74.03	12.83	-46.3	-48.1	18.3	0.00e+00	0	43	0	224395264	63	4608
2026-01-24 06:43:54.47	73.91	12.91	-46.3	-48.1	18.3	0.00e+00	0	43	0	226492416	63	4617
2026-01-24 06:43:55.48	73.79	12.99	-46.7	-48.6	17.8	0.00e+00	0	43	0	227540992	64	4613
2026-01-24 06:43:56.49	73.66	13.07	-46.8	-48.8	17.6	0.00e+00	0	43	0	229638144	64	4743
2026-01-24 06:43:57.50	73.54	13.15	-47.0	-49.1	17.3	0.00e+00	0	43	0	231735296	64	4905
2026-01-24 06:43:58.51	73.42	13.22	-47.0	-49.0	17.4	0.00e+00	0	43	0	233832448	64	4854
2026-01-24 06:43:59.52	73.29	13.30	-46.8	-48.8	17.6	0.00e+00	0	43	0	234881024	64	4746
2026-01-24 06:44:00.52	73.17	13.38	-46.9	-48.9	17.5	0.00e+00	0	43	0	236978176	64	4786
2026-01-24 06:44:01.53	73.04	13.46	-46.8	-48.8	17.6	0.00e+00	0	43	0	239075328	64	4729
2026-01-24 06:44:02.54	72.91	13.54	-46.9	-48.8	17.6	0.00e+00	0	44	0	241172480	64	4756
2026-01-24 06:44:03.55	72.79	13.62	-47.0	-49.0	17.4	0.00e+00	0	43	0	243269632	64	4847
2026-01-24 06:44:04.56	72.66	13.70	-47.0	-49.0	17.6	0.00e+00	0	43	0	245366784	64	4819
2026-01-24 06:44:05.57	72.53	13.78	-46.9	-48.9	17.6	0.00e+00	0	43	0	246415360	64	4764
2026-01-24 06:44:06.57	72.40	13.86	-46.5	-48.4	18.0	0.00e+00	0	43	0	248512512	64	4514
2026-01-24 06:44:07.58	72.27	13.94	-46.4	-48.2	18.2	0.00e+00	0	43	0	250609664	64	4420
2026-01-24 06:44:08.59	72.14	14.02	-46.4	-48.2	18.2	0.00e+00	0	43	0	252706816	64	4411
2026-01-24 06:44:09.60	72.01	14.10	-46.2	-47.9	18.4	0.00e+00	0	43	0	254803968	64	4291
2026-01-24 06:44:10.61	71.88	14.18	-46.0	-47.7	18.7	0.00e+00	0	43	0	255852544	64	4160
2026-01-24 06:44:11.62	71.74	14.26	-46.2	-47.9	18.4	0.00e+00	0	43	0	257949696	64	4289
2026-01-24 06:44:12.63	71.61	14.34	-46.1	-47.8	18.6	0.00e+00	0	43	0	260046848	64	4207
2026-01-24 06:44:13.64	71.48	14.42	-45.8	-47.4	19.0	0.00e+00	0	43	0	262144000	63	4277
2026-01-24 06:44:14.64	71.34	14.50	-45.9	-47.6	18.9	0.00e+00	0	44	0	263192576	63	4356
2026-01-24 06:44:15.66	71.21	14.58	-45.6	-47.2	19.3	0.00e+00	0	43	0	265289728	63	4152
2026-01-24 06:44:16.66	71.07	14.66	-45.6	-47.1	19.3	0.00e+00	0	43	0	267386880	63	4117
2026-01-24 06:44:17.67	70.93	14.74	-45.6	-47.1	19.3	0.00e+00	0	43	0	269484032	63	4127
2026-01-24 06:44:18.68	70.79	14.82	-45.5	-47.1	19.4	0.00e+00	0	43	0	271581184	62	4355
2026-01-24 06:44:19.69	70.66	14.91	-45.7	-47.2	19.2	0.00e+00	0	43	0	273678336	62	4427
2026-01-24 06:44:20.70	70.52	14.99	-45.7	-47.3	19.1	0.00e+00	0	43	0	274726912	62	4481
2026-01-24 06:44:21.71	70.37	15.07	-45.6	-47.1	19.3	0.00e+00	0	43	0	276824064	62	4374
2026-01-24 06:44:22.72	70.23	15.15	-45.6	-47.2	19.3	0.00e+00	0	43	0	278921216	62	4402
2026-01-24 06:44:23.73	70.09	15.23	-45.6	-47.1	19.3	0.00e+00	0	43	0	281018368	62	4388
2026-01-24 06:44:24.74	69.95	15.31	-45.6	-47.2	19.3	0.00e+00	0	43	0	283115520	62	4415
2026-01-24 06:44:25.74	69.81	15.39	-45.5	-47.1	19.3	0.00e+00	0	43	0	284164096	62	4366
2026-01-24 06:44:26.75	69.66	15.48	-45.7	-47.2	19.3	0.00e+00	0	43	0	286261248	62	4431
2026-01-24 06:44:27.76	69.52	15.56	-45.7	-47.2	19.2	0.00e+00	0	43	0	288358400	62	4439
2026-01-24 06:44:28.77	69.37	15.64	-45.7	-47.2	19.2	0.00e+00	0	43	0	290455552	62	4436
2026-01-24 06:44:29.78	69.22	15.72	-45.8	-47.3	19.1	0.00e+00	0	43	0	292552704	62	4490
2026-01-24 06:44:30.79	69.07	15.80	-45.8	-47.3	19.2	0.00e+00	0	43	0	293601280	62	4490
2026-01-24 06:44:31.80	68.93	15.89	-45.4	-46.9	19.6	0.00e+00	0	43	0	295698432	62	4269
2026-01-24 06:44:32.80	68.78	15.97	-45.5	-47.0	19.5	0.00e+00	0	43	0	297795584	62	4303
2026-01-24 06:44:33.81	68.63	16.05	-45.4	-46.9	19.5	0.00e+00	0	43	0	299892736	62	4291
2026-01-24 06:44:34.82	68.48	16.13	-45.5	-47.0	19.5	0.00e+00	0	43	0	301989888	62	4336
2026-01-24 06:44:35.83	68.32	16.22	-45.6	-47.1	19.3	0.00e+00	0	43	0	303038464	62	4380
2026-01-24 06:44:36.84	68.17	16.30	-45.7	-47.3	19.2	0.00e+00	0	43	0	305135616	62	4467
2026-01-24 06:44:37.85	68.02	16.38	-45.7	-47.2	19.3	0.00e+00	0	44	0	307232768	62	4424
2026-01-24 06:44:38.85	67.86	16.46	-45.7	-47.3	19.3	0.00e+00	0	43	0	309329920	62	4445
2026-01-24 06:44:39.86	67.71	16.55	-45.6	-47.1	19.4	0.00e+00	0	44	0	311427072	62	4380
2026-01-24 06:44:40.87	67.55	16.63	-45.7	-47.3	19.2	0.00e+00	0	43	0	312475648	62	4475
2026-01-24 06:44:41.88	67.40	16.71	-45.8	-47.5	19.0	0.00e+00	0	43	0	314572800	62	4553
2026-01-24 06:44:42.89	67.24	16.79	-45.8	-47.4	19.1	0.00e+00	0	43	0	316669952	62	4530
2026-01-24 06:44:43.89	67.08	16.88	-45.8	-47.4	19.1	0.00e+00	0	43	0	318767104	62	4540
2026-01-24 06:44:44.90	66.92	16.96	-45.9	-47.6	19.0	0.00e+00	0	43	0	320864256	62	4640
2026-01-24 06:44:45.91	66.76	17.04	-45.8	-47.5	19.0	0.00e+00	0	43	0	321912832	62	4572
2026-01-24 06:44:46.92	66.60	17.13	-45.8	-47.5	19.0	0.00e+00	0	43	0	324009984	62	4557
2026-01-24 06:44:47.93	66.44	17.21	-45.7	-47.4	19.1	0.00e+00	0	43	0	326107136	62	4498
2026-01-24 06:44:48.94	66.27	17.29	-45.9	-47.6	18.9	0.00e+00	0	43	0	328204288	62	4610
2026-01-24 06:44:49.95	66.11	17.38	-45.8	-47.4	19.0	0.00e+00	0	43	0	330301440	62	4533
2026-01-24 06:44:50.96	65.94	17.46	-46.1	-47.8	18.7	0.00e+00	0	44	0	332398592	62	4728
2026-01-24 06:44:51.96	65.78	17.54	-46.1	-47.8	18.7	0.00e+00	0	43	0	333447168	62	4740
2026-01-24 06:44:52.97	65.61	17.63	-46.4	-48.2	18.2	0.00e+00	0	43	0	335544320	63	4661
2026-01-24 06:44:53.98	65.44	17.71	-46.4	-48.2	18.4	0.00e+00	0	44	0	337641472	63	4668
2026-01-24 06:44:54.99	65.27	17.79	-46.6	-48.4	18.2	0.00e+00	0	43	0	339738624	63	4783
2026-01-24 06:44:55.99	65.10	17.88	-46.6	-48.5	18.0	0.00e+00	0	43	0	340787200	64	4578
2026-01-24 06:44:57.00	64.93	17.96	-46.6	-48.5	18.0	0.00e+00	0	44	0	342884352	64	4590
2026-01-24 06:44:58.01	64.76	18.04	-46.2	-48.0	18.5	0.00e+00	0	44	0	344981504	64	4295
2026-01-24 06:44:59.02	64.59	18.13	-46.3	-48.1	18.4	0.00e+00	0	43	0	347078656	64	4357
2026-01-24 06:45:00.03	64.42	18.21	-46.2	-48.0	18.5	0.00e+00	0	43	0	349175808	64	4324
2026-01-24 06:45:01.03	64.24	18.29	-46.5	-48.3	18.4	0.00e+00	0	43	0	350224384	63	4742
2026-01-24 06:45:02.04	64.07	18.38	-46.3	-48.1	18.5	0.00e+00	0	44	0	352321536	63	4605
2026-01-24 06:45:03.05	63.89	18.46	-46.5	-48.3	18.4	0.00e+00	0	43	0	354418688	63	4713
2026-01-24 06:45:04.06	63.71	18.54	-46.3	-48.1	18.5	0.00e+00	0	44	0	356515840	63	4620
2026-01-24 06:45:05.07	63.53	18.63	-46.2	-48.0	18.7	0.00e+00	0	43	0	358612992	63	4547
2026-01-24 06:45:06.08	63.35	18.71	-46.3	-48.0	18.7	0.00e+00	0	43	0	360710144	63	4574
2026-01-24 06:45:07.09	63.17	18.79	-46.2	-47.9	18.7	0.00e+00	0	43	0	361758720	63	4514
2026-01-24 06:45:08.10	62.99	18.88	-46.2	-47.9	18.7	0.00e+00	0	43	0	363855872	63	4525
2026-01-24 06:45:09.11	62.81	18.96	-46.1	-47.7	18.8	0.00e+00	0	43	0	365953024	63	4424
2026-01-24 06:45:10.12	62.62	19.05	-46.1	-47.7	18.8	0.00e+00	0	43	0	368050176	63	4431
2026-01-24 06:45:11.12	62.44	19.13	-46.0	-47.7	18.9	0.00e+00	0	43	0	369098752	63	4422
2026-01-24 06:45:12.13	62.25	19.21	-46.0	-47.7	18.9	0.00e+00	0	43	0	371195904	63	4406
2026-01-24 06:45:13.14	62.07	19.29	-46.0	-47.6	19.0	0.00e+00	0	43	0	373293056	63	4374
2026-01-24 06:45:14.15	61.88	19.38	-46.2	-48.0	18.6	0.00e+00	0	43	0	375390208	63	4558
2026-01-24 06:45:15.15	61.69	19.46	-46.5	-48.3	18.4	0.00e+00	0	43	0	377487360	63	4736
2026-01-24 06:45:16.16	61.50	19.54	-46.3	-48.0	18.6	0.00e+00	0	43	0	379584512	63	4591
2026-01-24 06:45:17.17	61.31	19.63	-46.3	-48.1	18.6	0.00e+00	0	43	0	380633088	63	4607
2026-01-24 06:45:18.18	61.12	19.71	-46.4	-48.2	18.5	0.00e+00	0	44	0	382730240	63	4688
2026-01-24 06:45:19.19	60.93	19.79	-46.3	-48.0	18.7	0.00e+00	0	43	0	384827392	63	4561
2026-01-24 06:45:20.20	60.73	19.88	-46.2	-47.9	18.8	0.00e+00	0	43	0	386924544	63	4518
2026-01-24 06:45:21.21	60.54	19.96	-45.9	-47.5	19.2	0.00e+00	0	43	0	389021696	63	4304
2026-01-24 06:45:22.22	60.34	20.04	-45.7	-47.2	19.5	0.00e+00	0	43	0	390070272	63	4156
2026-01-24 06:45:23.22	60.15	20.12	-45.5	-47.0	19.6	0.00e+00	0	43	0	392167424	63	4080
2026-01-24 06:45:24.23	59.95	20.21	-45.5	-46.9	19.7	0.00e+00	0	43	0	394264576	62	4279
2026-01-24 06:45:25.24	59.75	20.29	-45.9	-47.5	19.2	0.00e+00	0	43	0	396361728	62	4552
2026-01-24 06:45:26.25	59.55	20.37	-45.7	-47.2	19.5	0.00e+00	0	43	0	397410304	62	4407
2026-01-24 06:45:27.25	59.35	20.45	-45.5	-47.0	19.7	0.00e+00	0	43	0	399507456	62	4303
2026-01-24 06:45:28.26	59.14	20.54	-45.7	-47.2	19.4	0.00e+00	0	43	0	401604608	62	4437
2026-01-24 06:45:29.27	58.94	20.62	-45.8	-47.3	19.4	0.00e+00	0	44	0	403701760	62	4476
2026-01-24 06:45:30.28	58.73	20.70	-45.7	-47.3	19.4	0.00e+00	0	43	0	405798912	62	4445
2026-01-24 06:45:31.29	58.53	20.78	-46.0	-47.6	19.1	0.00e+00	0	43	0	407896064	62	4618
2026-01-24 06:45:32.29	58.32	20.86	-46.1	-47.8	19.0	0.00e+00	0	44	0	408944640	62	4706
2026-01-24 06:45:33.30	58.11	20.94	-46.1	-47.8	18.9	0.00e+00	0	43	0	411041792	63	4457
2026-01-24 06:45:34.31	57.91	21.03	-46.2	-47.9	18.8	0.00e+00	0	44	0	413138944	63	4535
2026-01-24 06:45:35.32	57.69	21.11	-45.9	-47.6	19.1	0.00e+00	0	44	0	415236096	63	4342
2026-01-24 06:45:36.32	57.49	21.19	-45.6	-47.1	19.5	0.00e+00	0	43	0	417333248	63	4140
2026-01-24 06:45:37.33	57.27	21.27	-45.5	-47.0	19.6	0.00e+00	0	44	0	418381824	63	4089
2026-01-24 06:45:38.34	57.06	21.35	-45.1	-46.5	20.2	0.00e+00	0	43	0	420478976	62	4060
2026-01-24 06:45:39.35	56.84	21.43	-44.9	-46.3	20.2	0.00e+00	0	43	0	422576128	61	4234
2026-01-24 06:45:40.36	56.63	21.51	-44.9	-46.3	20.3	0.00e+00	0	44	0	424673280	61	4195
2026-01-24 06:45:41.36	56.41	21.59	-44.4	-45.7	20.8	0.00e+00	0	43	0	426770432	60	4150
2026-01-24 06:45:42.37	56.19	21.67	-44.4	-45.7	20.7	0.00e+00	0	43	0	427819008	60	4190
2026-01-24 06:45:43.37	55.98	21.75	-44.6	-45.9	20.6	0.00e+00	0	44	0	429916160	60	4283
2026-01-24 06:45:44.38	55.75	21.83	-44.6	-46.0	20.5	0.00e+00	0	43	0	432013312	60	4309
2026-01-24 06:45:45.39	55.53	21.91	-44.7	-46.1	20.4	0.00e+00	0	43	0	434110464	60	4362
2026-01-24 06:45:46.40	55.31	21.99	-44.8	-46.2	20.3	0.00e+00	0	43	0	436207616	60	4437
2026-01-24 06:45:47.41	55.09	22.07	-45.0	-46.5	20.1	0.00e+00	0	43	0	437256192	60	4554
2026-01-24 06:45:48.42	54.86	22.15	-45.1	-46.5	20.1	0.00e+00	0	43	0	439353344	60	4591
2026-01-24 06:45:49.42	54.64	22.22	-45.2	-46.7	19.9	0.00e+00	0	43	0	441450496	61	4409
2026-01-24 06:45:50.43	54.41	22.30	-44.9	-46.3	20.2	0.00e+00	0	43	0	443547648	61	4209
2026-01-24 06:45:51.44	54.18	22.38	-44.8	-46.2	20.4	0.00e+00	0	43	0	445644800	61	4151
2026-01-24 06:45:52.45	53.95	22.46	-44.6	-45.9	20.6	0.00e+00	0	43	0	446693376	61	4034
2026-01-24 06:45:53.45	53.72	22.54	-44.4	-45.6	20.2	0.00e+00	0	43	0	448790528	60	4141
2026-01-24 06:45:54.46	53.49	22.61	-44.2	-45.5	21.0	0.00e+00	0	43	0	450887680	60	4070
2026-01-24 06:45:55.47	53.25	22.69	-44.3	-45.5	21.0	0.00e+00	0	43	0	452984832	60	4080
2026-01-24 06:45:56.48	53.02	22.77	-44.3	-45.5	21.0	0.00e+00	0	43	0	455081984	60	4069
2026-01-24 06:45:57.49	52.78	22.84	-44.5	-45.7	20.8	0.00e+00	0	44	0	456130560	60	4184
2026-01-24 06:45:58.50	52.55	22.92	-44.5	-45.8	20.7	0.00e+00	0	43	0	458227712	60	4210
2026-01-24 06:45:59.51	52.31	23.00	-44.5	-45.8	20.7	0.00e+00	0	43	0	460324864	60	4237
2026-01-24 06:46:00.52	52.07	23.07	-44.8	-46.1	20.5	0.00e+00	0	43	0	462422016	60	4364
2026-01-24 06:46:01.52	51.83	23.15	-44.6	-45.8	20.7	0.00e+00	0	44	0	464519168	60	4228
2026-01-24 06:46:02.54	51.59	23.22	-44.1	-45.3	21.2	0.00e+00	0	43	0	465567744	60	3988
2026-01-24 06:46:03.54	51.35	23.30	-44.3	-45.5	21.3	0.00e+00	0	43	0	467664896	59	4296
2026-01-24 06:46:04.55	51.10	23.37	-44.1	-45.3	21.5	0.00e+00	0	43	0	469762048	59	4222
2026-01-24 06:46:05.56	50.86	23.44	-43.9	-45.1	21.6	0.00e+00	0	43	0	471859200	59	4115
2026-01-24 06:46:06.57	50.61	23.52	-44.1	-45.2	21.5	0.00e+00	0	44	0	473956352	59	4189
2026-01-24 06:46:07.58	50.36	23.59	-44.1	-45.3	21.5	0.00e+00	0	43	0	476053504	59	4206
2026-01-24 06:46:08.58	50.12	23.66	-44.3	-45.5	21.3	0.00e+00	0	43	0	477102080	59	4307
2026-01-24 06:46:09.59	49.87	23.73	-44.4	-45.7	21.2	0.00e+00	0	43	0	479199232	59	4405
2026-01-24 06:46:10.60	49.62	23.81	-44.7	-46.0	21.0	0.00e+00	0	44	0	481296384	59	4549
2026-01-24 06:46:11.61	49.36	23.88	-44.4	-45.7	21.0	0.00e+00	0	44	0	483393536	60	4156
2026-01-24 06:46:12.62	49.11	23.95	-44.6	-45.9	20.8	0.00e+00	0	44	0	484442112	60	4280
2026-01-24 06:46:13.63	48.86	24.02	-44.4	-45.7	20.9	0.00e+00	0	43	0	486539264	60	4160
2026-01-24 06:46:14.63	48.60	24.09	-44.3	-45.5	21.1	0.00e+00	0	44	0	488636416	60	4092
2026-01-24 06:46:15.64	48.35	24.16	-44.5	-45.7	20.9	0.00e+00	0	44	0	490733568	60	4180
2026-01-24 06:46:16.65	48.09	24.23	-44.5	-45.8	20.9	0.00e+00	0	44	0	492830720	60	4219
2026-01-24 06:46:17.66	47.83	24.30	-44.8	-46.1	20.6	0.00e+00	0	44	0	494927872	60	4381
2026-01-24 06:46:18.66	47.57	24.37	-44.7	-46.0	20.7	0.00e+00	0	43	0	495976448	60	4330
2026-01-24 06:46:19.67	47.31	24.43	-44.8	-46.2	20.5	0.00e+00	0	44	0	498073600	60	4410
2026-01-24 06:46:20.68	47.05	24.50	-44.9	-46.3	20.4	0.00e+00	0	43	0	500170752	60	4451
2026-01-24 06:46:21.69	46.78	24.57	-44.9	-46.2	20.5	0.00e+00	0	43	0	502267904	60	4426
2026-01-24 06:46:22.70	46.52	24.64	-44.7	-46.0	20.7	0.00e+00	0	43	0	504365056	60	4316
2026-01-24 06:46:23.70	46.26	24.70	-44.8	-46.1	20.6	0.00e+00	0	43	0	505413632	60	4373
2026-01-24 06:46:24.71	45.99	24.77	-44.4	-45.6	21.1	0.00e+00	0	43	0	507510784	60	4118
2026-01-24 06:46:25.72	45.72	24.83	-44.3	-45.5	21.1	0.00e+00	0	43	0	509607936	60	4096
2026-01-24 06:46:26.73	45.45	24.90	-44.3	-45.6	21.0	0.00e+00	0	43	0	511705088	60	4100
2026-01-24 06:46:27.74	45.18	24.96	-44.4	-45.6	21.0	0.00e+00	0	43	0	512753664	60	4130
2026-01-24 06:46:28.74	44.91	25.02	-44.3	-45.6	21.0	0.00e+00	0	43	0	514850816	60	4108
2026-01-24 06:46:29.75	44.64	25.09	-44.0	-45.2	21.3	0.00e+00	0	43	0	516947968	60	3949
2026-01-24 06:46:30.71	44.38	25.15	-44.1	-45.3	21.3	0.00e+00	0	43	0	519045120	60	3970
2026-01-24 06:46:31.71	44.11	25.21	-44.3	-45.5	21.1	0.00e+00	0	43	0	521142272	60	4093
2026-01-24 06:46:32.72	43.83	25.27	-44.5	-45.8	20.9	0.00e+00	0	43	0	523239424	60	4199
2026-01-24 06:46:33.73	43.56	25.33	-44.6	-45.8	20.8	0.00e+00	0	43	0	524288000	60	4234
2026-01-24 06:46:34.74	43.28	25.39	-44.5	-45.8	20.9	0.00e+00	0	43	0	526385152	60	4225
2026-01-24 06:46:35.75	43.00	25.45	-44.0	-45.2	21.5	0.00e+00	0	43	0	528482304	60	3915
2026-01-24 06:46:36.75	42.72	25.51	-44.3	-45.5	21.4	0.00e+00	0	43	0	530579456	59	4339
2026-01-24 06:46:37.76	42.44	25.56	-44.4	-45.6	21.3	0.00e+00	0	43	0	532676608	59	4385
2026-01-24 06:46:38.77	42.16	25.62	-44.2	-45.4	21.5	0.00e+00	0	43	0	533725184	59	4259
2026-01-24 06:46:39.78	41.88	25.68	-44.0	-45.1	21.7	0.00e+00	0	43	0	535822336	59	4139
2026-01-24 06:46:40.79	41.59	25.74	-44.1	-45.2	21.7	0.00e+00	0	43	0	537919488	59	4169
2026-01-24 06:46:41.80	41.31	25.79	-44.2	-45.4	21.5	0.00e+00	0	43	0	540016640	59	4282
2026-01-24 06:46:42.80	41.02	25.85	-44.2	-45.4	21.5	0.00e+00	0	43	0	542113792	59	4277
2026-01-24 06:46:43.81	40.74	25.90	-44.4	-45.6	21.4	0.00e+00	0	43	0	543162368	59	4375
2026-01-24 06:46:44.82	40.45	25.95	-44.5	-45.7	21.3	0.00e+00	0	43	0	545259520	59	4400
2026-01-24 06:46:45.83	40.16	26.01	-44.4	-45.6	21.4	0.00e+00	0	43	0	547356672	59	4347
2026-01-24 06:46:46.84	39.87	26.06	-44.2	-45.4	21.4	0.00e+00	0	44	0	549453824	59	4280
2026-01-24 06:46:47.85	39.58	26.11	-44.4	-45.6	21.4	0.00e+00	0	43	0	551550976	59	4347
2026-01-24 06:46:48.85	39.29	26.16	-44.4	-45.6	21.3	0.00e+00	0	43	0	552599552	59	4386
2026-01-24 06:46:49.86	39.00	26.21	-44.6	-45.8	21.2	0.00e+00	0	43	0	554696704	59	4482
2026-01-24 06:46:50.87	38.70	26.26	-44.4	-45.6	21.1	0.00e+00	0	43	0	556793856	60	4105
2026-01-24 06:46:51.88	38.41	26.31	-44.3	-45.5	21.2	0.00e+00	0	43	0	558891008	60	4063
2026-01-24 06:46:52.89	38.11	26.36	-44.5	-45.8	20.9	0.00e+00	0	44	0	560988160	60	4217
2026-01-24 06:46:53.90	37.82	26.40	-44.8	-46.1	20.7	0.00e+00	0	43	0	562036736	60	4341
2026-01-24 06:46:54.91	37.52	26.45	-45.0	-46.4	20.3	0.00e+00	0	43	0	564133888	60	4522
2026-01-24 06:46:55.91	37.22	26.49	-45.2	-46.6	20.2	0.00e+00	0	44	0	566231040	60	4623
2026-01-24 06:46:56.92	36.93	26.54	-45.5	-47.0	19.9	0.00e+00	0	43	0	568328192	61	4552
2026-01-24 06:46:57.93	36.63	26.58	-45.6	-47.0	19.8	0.00e+00	0	44	0	570425344	61	4594
2026-01-24 06:46:58.94	36.32	26.63	-45.8	-47.3	19.6	0.00e+00	0	44	0	571473920	62	4485
2026-01-24 06:46:59.95	36.02	26.67	-45.9	-47.4	19.4	0.00e+00	0	43	0	573571072	62	4540
2026-01-24 06:47:00.95	35.72	26.71	-45.8	-47.3	19.5	0.00e+00	0	43	0	575668224	62	4475
2026-01-24 06:47:01.96	35.42	26.75	-46.2	-47.8	19.2	0.00e+00	0	43	0	577765376	63	4449
2026-01-24 06:47:02.97	35.12	26.79	-46.1	-47.6	19.3	0.00e+00	0	43	0	579862528	63	4379
2026-01-24 06:47:03.98	34.81	26.83	-45.5	-46.9	19.9	0.00e+00	0	43	0	580911104	63	4042
2026-01-24 06:47:04.99	34.51	26.87	-45.3	-46.7	20.1	0.00e+00	0	43	0	583008256	62	4155
2026-01-24 06:47:06.00	34.20	26.91	-45.1	-46.5	20.3	0.00e+00	0	44	0	585105408	62	4057
2026-01-24 06:47:07.00	33.90	26.94	-45.4	-46.8	20.1	0.00e+00	0	43	0	587202560	62	4208
2026-01-24 06:47:08.01	33.59	26.98	-45.6	-47.0	19.9	0.00e+00	0	43	0	589299712	62	4312
2026-01-24 06:47:09.02	33.28	27.01	-45.7	-47.2	19.7	0.00e+00	0	43	0	590348288	62	4422
2026-01-24 06:47:10.03	32.97	27.05	-45.9	-47.4	19.5	0.00e+00	0	43	0	592445440	62	4524
2026-01-24 06:47:11.04	32.66	27.08	-46.0	-47.6	19.3	0.00e+00	0	44	0	594542592	62	4611
2026-01-24 06:47:12.04	32.36	27.11	-46.2	-47.8	19.2	0.00e+00	0	43	0	596639744	63	4469
2026-01-24 06:47:13.06	32.04	27.14	-46.4	-48.0	18.9	0.00e+00	0	43	0	598736896	63	4590
2026-01-24 06:47:14.06	31.73	27.17	-46.3	-48.0	19.0	0.00e+00	0	44	0	599785472	63	4549
2026-01-24 06:47:15.07	31.42	27.20	-46.0	-47.5	19.4	0.00e+00	0	44	0	601882624	63	4313
2026-01-24 06:47:16.08	31.11	27.23	-45.8	-47.2	19.6	0.00e+00	0	44	0	603979776	63	4186
2026-01-24 06:47:17.09	30.80	27.26	-45.8	-47.3	19.5	0.00e+00	0	44	0	606076928	63	4197
2026-01-24 06:47:18.10	30.48	27.28	-45.7	-47.2	19.7	0.00e+00	0	43	0	608174080	63	4163
2026-01-24 06:47:19.11	30.17	27.31	-45.8	-47.3	19.6	0.00e+00	0	44	0	610271232	63	4217
2026-01-24 06:47:20.11	29.86	27.34	-46.0	-47.6	19.3	0.00e+00	0	43	0	611319808	63	4344
2026-01-24 06:47:21.12	29.54	27.36	-46.0	-47.6	19.2	0.00e+00	0	43	0	613416960	63	4386
2026-01-24 06:47:22.13	29.23	27.38	-46.0	-47.6	19.3	0.00e+00	0	44	0	615514112	63	4385
2026-01-24 06:47:23.14	28.91	27.40	-45.8	-47.3	19.5	0.00e+00	0	43	0	617611264	63	4232
2026-01-24 06:47:24.15	28.60	27.42	-45.8	-47.3	19.5	0.00e+00	0	44	0	618659840	63	4220
2026-01-24 06:47:25.16	28.28	27.45	-45.8	-47.3	19.5	0.00e+00	0	43	0	620756992	63	4218
2026-01-24 06:47:26.17	27.96	27.46	-45.8	-47.4	19.5	0.00e+00	0	43	0	622854144	63	4252
2026-01-24 06:47:27.17	27.65	27.48	-45.6	-47.1	19.7	0.00e+00	0	43	0	624951296	63	4105
2026-01-24 06:47:28.18	27.33	27.50	-45.7	-47.2	19.6	0.00e+00	0	44	0	627048448	63	4148
2026-01-24 06:47:29.19	27.01	27.52	-45.9	-47.5	19.3	0.00e+00	0	44	0	628097024	63	4315
2026-01-24 06:47:30.20	26.69	27.53	-46.0	-47.7	19.1	0.00e+00	0	44	0	630194176	63	4393
2026-01-24 06:47:31.21	26.37	27.55	-46.4	-48.2	18.7	0.00e+00	0	44	0	632291328	63	4673
2026-01-24 06:47:32.22	26.05	27.56	-46.8	-48.6	18.2	0.00e+00	0	43	0	634388480	64	4649
2026-01-24 06:47:33.23	25.74	27.57	-47.0	-49.0	17.9	0.00e+00	0	43	0	636485632	64	4847
2026-01-24 06:47:34.23	25.42	27.58	-47.0	-49.0	17.9	0.00e+00	0	43	0	638582784	64	4820
2026-01-24 06:47:35.24	25.10	27.59	-46.7	-48.5	18.4	0.00e+00	0	43	0	639631360	64	4555
2026-01-24 06:47:36.25	24.78	27.60	-46.4	-48.1	18.7	0.00e+00	0	44	0	641728512	64	4374
2026-01-24 06:47:37.26	24.46	27.61	-46.0	-47.6	19.2	0.00e+00	0	43	0	643825664	64	4116
2026-01-24 06:47:38.27	24.14	27.62	-45.8	-47.3	19.6	0.00e+00	0	43	0	645922816	63	4194
2026-01-24 06:47:39.28	23.82	27.62	-45.3	-46.7	20.1	0.00e+00	0	44	0	646971392	62	4167
2026-01-24 06:47:40.29	23.50	27.63	-45.2	-46.6	20.2	0.00e+00	0	43	0	649068544	62	4119
2026-01-24 06:47:41.30	23.18	27.63	-45.2	-46.5	20.3	0.00e+00	0	43	0	651165696	61	4335
2026-01-24 06:47:42.31	22.86	27.64	-45.3	-46.7	20.1	0.00e+00	0	44	0	653262848	61	4399
2026-01-24 06:47:43.31	22.54	27.64	-45.4	-46.8	20.0	0.00e+00	0	44	0	655360000	61	4467
2026-01-24 06:47:44.32	22.22	27.64	-45.4	-46.7	20.1	0.00e+00	0	43	0	657457152	61	4441
2026-01-24 06:47:45.33	21.90	27.64	-45.8	-47.3	19.7	0.00e+00	0	43	0	658505728	62	4442
2026-01-24 06:47:46.34	21.58	27.64	-46.1	-47.7	19.2	0.00e+00	0	43	0	660602880	62	4658
2026-01-24 06:47:47.35	21.26	27.64	-45.9	-47.4	19.6	0.00e+00	0	43	0	662700032	62	4507
2026-01-24 06:47:48.35	20.94	27.64	-45.7	-47.2	19.8	0.00e+00	0	43	0	664797184	62	4399
2026-01-24 06:47:49.36	20.62	27.63	-45.5	-46.9	20.1	0.00e+00	0	43	0	666894336	62	4258
2026-01-24 06:47:50.37	20.30	27.63	-45.4	-46.8	20.2	0.00e+00	0	43	0	667942912	62	4214
2026-01-24 06:47:51.38	19.98	27.62	-45.4	-46.8	20.2	0.00e+00	0	43	0	670040064	62	4215
2026-01-24 06:47:52.39	19.66	27.62	-45.5	-46.9	20.1	0.00e+00	0	44	0	672137216	62	4291
2026-01-24 06:47:53.39	19.34	27.61	-45.7	-47.2	19.9	0.00e+00	0	43	0	674234368	62	4407
2026-01-24 06:47:54.40	19.02	27.60	-45.7	-47.2	19.8	0.00e+00	0	44	0	676331520	62	4413
2026-01-24 06:47:55.41	18.70	27.59	-45.4	-46.8	20.1	0.00e+00	0	43	0	677380096	62	4228
2026-01-24 06:47:56.42	18.38	27.58	-45.5	-46.9	20.1	0.00e+00	0	43	0	679477248	62	4254
2026-01-24 06:47:57.43	18.06	27.57	-46.0	-47.5	19.5	0.00e+00	0	43	0	681574400	62	4583
2026-01-24 06:47:58.43	17.74	27.56	-46.2	-47.8	19.2	0.00e+00	0	44	0	683671552	63	4487
2026-01-24 06:47:59.44	17.42	27.54	-46.3	-47.9	19.2	0.00e+00	0	43	0	685768704	63	4511
2026-01-24 06:48:00.45	17.11	27.53	-45.8	-47.3	19.7	0.00e+00	0	43	0	686817280	63	4235
2026-01-24 06:48:01.46	16.79	27.51	-45.2	-46.5	20.3	0.00e+00	0	43	0	688914432	62	4098
2026-01-24 06:48:02.47	16.47	27.50	-45.0	-46.3	20.6	0.00e+00	0	43	0	691011584	61	4226
2026-01-24 06:48:03.48	16.15	27.48	-44.1	-45.2	21.5	0.00e+00	0	43	0	693108736	60	3957
2026-01-24 06:48:04.49	15.83	27.46	-44.3	-45.5	21.7	0.00e+00	0	43	0	695205888	59	4292
2026-01-24 06:48:05.49	15.52	27.44	-44.3	-45.4	21.6	0.00e+00	0	43	0	696254464	59	4267
2026-01-24 06:48:06.50	15.20	27.42	-44.5	-45.7	21.3	0.00e+00	0	43	0	698351616	59	4428
2026-01-24 06:48:07.51	14.89	27.40	-44.3	-45.4	21.3	0.00e+00	0	43	0	700448768	60	4038
2026-01-24 06:48:08.52	14.57	27.38	-44.5	-45.7	21.2	0.00e+00	0	43	0	702545920	60	4163
2026-01-24 06:48:09.53	14.26	27.36	-44.3	-45.5	21.2	0.00e+00	0	43	0	704643072	60	4085
2026-01-24 06:48:10.53	13.94	27.33	-44.3	-45.5	21.2	0.00e+00	0	43	0	705691648	60	4085
2026-01-24 06:48:11.54	13.63	27.31	-44.1	-45.2	21.5	0.00e+00	0	43	0	707788800	60	3950
2026-01-24 06:48:12.55	13.32	27.28	-44.0	-45.2	21.5	0.00e+00	0	43	0	709885952	60	3940
2026-01-24 06:48:13.56	13.00	27.26	-44.3	-45.4	21.3	0.00e+00	0	43	0	711983104	60	4051
2026-01-24 06:48:14.57	12.69	27.23	-44.4	-45.7	21.0	0.00e+00	0	43	0	714080256	60	4151
2026-01-24 06:48:15.58	12.38	27.20	-44.8	-46.0	20.8	0.00e+00	0	43	0	715128832	60	4325
2026-01-24 06:48:16.58	12.07	27.17	-44.9	-46.2	20.7	0.00e+00	0	43	0	717225984	60	4419
2026-01-24 06:48:17.59	11.76	27.14	-45.1	-46.4	20.5	0.00e+00	0	43	0	719323136	60	4543
2026-01-24 06:48:18.60	11.45	27.11	-44.9	-46.2	20.7	0.00e+00	0	43	0	721420288	61	4186
2026-01-24 06:48:19.61	11.14	27.08	-44.9	-46.1	20.7	0.00e+00	0	43	0	723517440	61	4135
2026-01-24 06:48:20.62	10.83	27.04	-44.8	-46.1	20.8	0.00e+00	0	43	0	725614592	61	4103
2026-01-24 06:48:21.63	10.52	27.01	-45.0	-46.3	20.5	0.00e+00	0	43	0	726663168	61	4233
2026-01-24 06:48:22.63	10.22	26.97	-45.2	-46.5	20.5	0.00e+00	0	43	0	728760320	61	4312
2026-01-24 06:48:23.64	9.91	26.94	-45.6	-47.0	20.0	0.00e+00	0	43	0	730857472	61	4569
2026-01-24 06:48:24.65	9.60	26.90	-45.5	-46.9	20.0	0.00e+00	0	43	0	732954624	62	4273
2026-01-24 06:48:25.66	9.30	26.86	-45.3	-46.6	20.3	0.00e+00	0	43	0	734003200	62	4122
2026-01-24 06:48:26.67	8.99	26.83	-45.1	-46.4	20.5	0.00e+00	0	43	0	736100352	62	4035
2026-01-24 06:48:27.68	8.69	26.79	-45.0	-46.3	20.6	0.00e+00	0	43	0	738197504	61	4209
2026-01-24 06:48:28.68	8.39	26.75	-45.1	-46.4	20.5	0.00e+00	0	43	0	740294656	61	4272
2026-01-24 06:48:29.69	8.08	26.71	-45.0	-46.2	20.7	0.00e+00	0	44	0	742391808	61	4193
2026-01-24 06:48:30.70	7.78	26.67	-44.9	-46.2	20.8	0.00e+00	0	44	0	744488960	61	4147
2026-01-24 06:48:31.71	7.48	26.62	-44.9	-46.1	20.8	0.00e+00	0	43	0	745537536	61	4145
2026-01-24 06:48:32.71	7.18	26.58	-44.8	-46.1	20.8	0.00e+00	0	43	0	747634688	61	4103
2026-01-24 06:48:33.72	6.88	26.54	-44.9	-46.1	20.8	0.00e+00	0	43	0	749731840	61	4126
2026-01-24 06:48:34.73	6.58	26.49	-45.0	-46.2	20.7	0.00e+00	0	44	0	751828992	61	4193
2026-01-24 06:48:35.74	6.29	26.45	-44.7	-45.9	21.0	0.00e+00	0	43	0	753926144	61	4023
2026-01-24 06:48:36.75	5.99	26.40	-44.7	-45.9	21.0	0.00e+00	0	43	0	754974720	61	4008
2026-01-24 06:48:37.75	5.70	26.35	-44.8	-46.0	20.9	0.00e+00	0	43	0	757071872	60	4306
2026-01-24 06:48:38.76	5.40	26.31	-45.0	-46.3	20.6	0.00e+00	0	44	0	759169024	60	4473
2026-01-24 06:48:39.77	5.11	26.26	-45.4	-46.8	20.2	0.00e+00	0	43	0	761266176	61	4447
2026-01-24 06:48:40.78	4.81	26.21	-45.6	-47.0	20.0	0.00e+00	0	43	0	762314752	61	4552
2026-01-24 06:48:41.79	4.52	26.16	-45.6	-47.0	20.0	0.00e+00	0	44	0	764411904	61	4558
2026-01-24 06:48:42.80	4.23	26.11	-45.7	-47.2	19.9	0.00e+00	0	44	0	766509056	62	4399
2026-01-24 06:48:43.80	3.94	26.06	-45.9	-47.4	19.6	0.00e+00	0	43	0	768606208	62	4517
2026-01-24 06:48:44.81	3.65	26.00	-46.1	-47.6	19.3	0.00e+00	0	43	0	770703360	62	4649
2026-01-24 06:48:45.82	3.36	25.95	-46.3	-47.9	19.1	0.00e+00	0	43	0	772800512	63	4538
2026-01-24 06:48:46.83	3.08	25.90	-46.4	-48.0	19.0	0.00e+00	0	44	0	773849088	63	4594
2026-01-24 06:48:47.84	2.79	25.84	-46.7	-48.4	18.5	0.00e+00	0	43	0	775946240	64	4527
2026-01-24 06:48:48.85	2.50	25.79	-46.7	-48.5	18.5	0.00e+00	0	44	0	778043392	64	4564
2026-01-24 06:48:49.86	2.22	25.73	-46.7	-48.5	18.4	0.00e+00	0	43	0	780140544	64	4563
2026-01-24 06:48:50.87	1.94	25.68	-46.6	-48.4	18.6	0.00e+00	0	44	0	782237696	64	4495
2026-01-24 06:48:51.87	1.66	25.62	-46.5	-48.1	18.7	0.00e+00	0	44	0	783286272	64	4380
2026-01-24 06:48:52.88	1.38	25.56	-46.8	-48.5	18.4	0.00e+00	0	43	0	785383424	64	4579
2026-01-24 06:48:53.89	1.09	25.50	-46.5	-48.2	18.6	0.00e+00	0	43	0	787480576	64	4419
2026-01-24 06:48:54.90	0.82	25.44	-46.2	-47.8	19.0	0.00e+00	0	43	0	789577728	64	4212
2026-01-24 06:48:55.91	0.54	25.38	-46.0	-47.6	19.3	0.00e+00	0	43	0	791674880	64	4110
2026-01-24 06:48:56.91	0.26	25.33	-46.0	-47.5	19.4	0.00e+00	0	43	0	792723456	63	4318
2026-01-24 06:48:57.92	359.99	25.26	-45.9	-47.4	19.5	0.00e+00	0	43	0	794820608	63	4260
2026-01-24 06:48:58.93	359.71	25.20	-45.9	-47.4	19.5	0.00e+00	0	43	0	796917760	63	4243
2026-01-24 06:48:59.94	359.44	25.14	-45.7	-47.2	19.6	0.00e+00	0	43	0	799014912	63	4157
2026-01-24 06:49:00.93	359.17	25.08	-45.5	-46.9	19.9	0.00e+00	0	43	0	801112064	62	4264
2026-01-24 06:49:01.93	358.90	25.02	-45.6	-47.0	19.8	0.00e+00	0	43	0	802160640	62	4323
2026-01-24 06:49:02.94	358.63	24.95	-45.9	-47.4	19.4	0.00e+00	0	43	0	804257792	62	4508
2026-01-24 06:49:03.95	358.36	24.89	-45.8	-47.3	19.5	0.00e+00	0	43	0	806354944	62	4459
2026-01-24 06:49:04.96	358.09	24.83	-45.5	-46.9	19.9	0.00e+00	0	43	0	808452096	62	4286
2026-01-24 06:49:05.97	357.82	24.76	-45.4	-46.8	20.0	0.00e+00	0	43	0	810549248	62	4212
2026-01-24 06:49:06.97	357.56	24.70	-45.2	-46.5	20.2	0.00e+00	0	43	0	811597824	62	4090
2026-01-24 06:49:07.98	357.29	24.63	-45.2	-46.6	20.2	0.00e+00	0	43	0	813694976	61	4361
2026-01-24 06:49:08.99	357.03	24.56	-45.2	-46.6	20.2	0.00e+00	0	43	0	815792128	61	4365
2026-01-24 06:49:09.99	356.77	24.50	-45.5	-47.0	19.9	0.00e+00	0	43	0	817889280	61	4560
2026-01-24 06:49:11.00	356.51	24.43	-45.9	-47.4	19.5	0.00e+00	0	43	0	819986432	62	4522
2026-01-24 06:49:12.01	356.25	24.36	-45.9	-47.4	19.5	0.00e+00	0	43	0	821035008	62	4530
2026-01-24 06:49:13.02	355.99	24.29	-46.3	-48.0	19.0	0.00e+00	0	43	0	823132160	63	4546
2026-01-24 06:49:14.03	355.73	24.22	-46.3	-47.9	18.9	0.00e+00	0	43	0	825229312	63	4545
2026-01-24 06:49:15.03	355.47	24.16	-46.5	-48.3	18.7	0.00e+00	0	43	0	827326464	63	4714
2026-01-24 06:49:16.04	355.22	24.09	-46.4	-48.2	18.7	0.00e+00	0	43	0	829423616	63	4684
2026-01-24 06:49:17.05	354.96	24.01	-46.6	-48.5	18.3	0.00e+00	0	43	0	830472192	64	4582
2026-01-24 06:49:18.06	354.71	23.94	-46.1	-47.8	19.0	0.00e+00	0	44	0	832569344	64	4223
2026-01-24 06:49:19.07	354.46	23.87	-46.1	-47.7	19.2	0.00e+00	0	43	0	834666496	63	4419
2026-01-24 06:49:20.07	354.21	23.80	-45.6	-47.1	19.7	0.00e+00	0	43	0	836763648	63	4126
2026-01-24 06:49:21.08	353.96	23.73	-45.6	-47.1	19.7	0.00e+00	0	43	0	838860800	63	4140
2026-01-24 06:49:22.09	353.71	23.66	-45.5	-47.0	19.8	0.00e+00	0	43	0	839909376	63	4081
2026-01-24 06:49:23.10	353.46	23.59	-45.6	-47.1	19.7	0.00e+00	0	43	0	842006528	62	4368
2026-01-24 06:49:24.10	353.21	23.51	-45.8	-47.3	19.5	0.00e+00	0	43	0	844103680	62	4493
2026-01-24 06:49:25.11	352.97	23.44	-46.0	-47.6	19.2	0.00e+00	0	44	0	846200832	62	4606
2026-01-24 06:49:26.12	352.72	23.37	-46.1	-47.8	19.1	0.00e+00	0	43	0	848297984	62	4721
2026-01-24 06:49:27.13	352.48	23.29	-45.9	-47.5	19.4	0.00e+00	0	43	0	849346560	62	4573
2026-01-24 06:49:28.14	352.24	23.22	-45.9	-47.4	19.4	0.00e+00	0	44	0	851443712	62	4533
2026-01-24 06:49:29.15	352.00	23.14	-45.7	-47.2	19.6	0.00e+00	0	43	0	853540864	62	4435
2026-01-24 06:49:30.15	351.76	23.07	-45.3	-46.7	20.1	0.00e+00	0	43	0	855638016	62	4176
2026-01-24 06:49:31.16	351.52	22.99	-45.0	-46.3	20.4	0.00e+00	0	44	0	857735168	62	3987
2026-01-24 06:49:32.17	351.28	22.92	-44.9	-46.2	20.5	0.00e+00	0	43	0	858783744	61	4159
2026-01-24 06:49:33.18	351.05	22.84	-44.7	-46.1	20.6	0.00e+00	0	43	0	860880896	61	4103
2026-01-24 06:49:34.19	350.81	22.76	-44.6	-45.9	20.8	0.00e+00	0	43	0	862978048	61	4035
2026-01-24 06:49:35.19	350.58	22.69	-44.6	-45.9	20.9	0.00e+00	0	43	0	865075200	61	4017
2026-01-24 06:49:36.20	350.35	22.61	-44.6	-46.0	20.7	0.00e+00	0	43	0	867172352	60	4297
2026-01-24 06:49:37.21	350.11	22.53	-44.6	-45.9	20.8	0.00e+00	0	44	0	868220928	60	4244
2026-01-24 06:49:38.22	349.88	22.46	-44.3	-45.6	21.1	0.00e+00	0	43	0	870318080	60	4114
2026-01-24 06:49:39.23	349.65	22.38	-44.2	-45.4	21.2	0.00e+00	0	43	0	872415232	60	4044
2026-01-24 06:49:40.24	349.43	22.30	-44.1	-45.3	21.2	0.00e+00	0	43	0	874512384	60	3999
2026-01-24 06:49:41.25	349.20	22.22	-44.0	-45.2	21.3	0.00e+00	0	44	0	876609536	60	3946
2026-01-24 06:49:42.25	348.97	22.14	-44.3	-45.5	21.3	0.00e+00	0	44	0	877658112	59	4339
2026-01-24 06:49:43.26	348.75	22.07	-44.3	-45.5	21.4	0.00e+00	0	43	0	879755264	59	4308
2026-01-24 06:49:44.27	348.53	21.99	-44.2	-45.4	21.5	0.00e+00	0	44	0	881852416	59	4255
2026-01-24 06:49:45.28	348.30	21.91	-44.0	-45.2	21.6	0.00e+00	0	44	0	883949568	59	4175
2026-01-24 06:49:46.28	348.08	21.83	-43.9	-45.0	21.7	0.00e+00	0	44	0	886046720	59	4087
2026-01-24 06:49:47.30	347.86	21.75	-44.0	-45.2	21.6	0.00e+00	0	44	0	888143872	59	4168
2026-01-24 06:49:48.30	347.65	21.67	-44.3	-45.5	21.3	0.00e+00	0	44	0	889192448	59	4318
2026-01-24 06:49:49.31	347.43	21.59	-44.7	-46.0	20.9	0.00e+00	0	43	0	891289600	59	4561
2026-01-24 06:49:50.32	347.21	21.51	-44.5	-45.8	20.8	0.00e+00	0	44	0	893386752	60	4228
2026-01-24 06:49:51.33	346.99	21.43	-44.7	-46.1	20.5	0.00e+00	0	44	0	895483904	60	4342
2026-01-24 06:49:52.33	346.78	21.35	-44.8	-46.1	20.5	0.00e+00	0	43	0	896532480	60	4390
2026-01-24 06:49:53.34	346.57	21.27	-44.9	-46.3	20.4	0.00e+00	0	44	0	898629632	60	4470
2026-01-24 06:49:54.35	346.36	21.19	-45.1	-46.6	20.1	0.00e+00	0	44	0	900726784	60	4612
2026-01-24 06:49:55.36	346.15	21.11	-45.2	-46.7	20.0	0.00e+00	0	44	0	902823936	61	4403
2026-01-24 06:49:56.37	345.94	21.02	-45.0	-46.4	20.2	0.00e+00	0	44	0	904921088	61	4279
2026-01-24 06:49:57.37	345.73	20.94	-44.7	-46.0	20.6	0.00e+00	0	44	0	905969664	61	4097
2026-01-24 06:49:58.38	345.52	20.86	-44.4	-45.7	20.9	0.00e+00	0	44	0	908066816	60	4166
2026-01-24 06:49:59.39	345.31	20.78	-44.4	-45.6	21.0	0.00e+00	0	44	0	910163968	60	4134
2026-01-24 06:50:00.40	345.11	20.70	-44.6	-45.9	20.7	0.00e+00	0	44	0	912261120	60	4255
2026-01-24 06:50:01.41	344.90	20.62	-44.8	-46.1	20.6	0.00e+00	0	44	0	914358272	60	4351
2026-01-24 06:50:02.41	344.70	20.54	-45.0	-46.4	20.3	0.00e+00	0	43	0	916455424	60	4502
2026-01-24 06:50:03.42	344.50	20.45	-44.8	-46.1	20.5	0.00e+00	0	43	0	917504000	60	4382
2026-01-24 06:50:04.43	344.30	20.37	-44.6	-45.9	20.8	0.00e+00	0	44	0	919601152	60	4243
2026-01-24 06:50:05.44	344.10	20.29	-44.1	-45.2	21.6	0.00e+00	0	44	0	921698304	59	4193
2026-01-24 06:50:06.45	343.90	20.21	-44.0	-45.1	21.6	0.00e+00	0	44	0	923795456	59	4144
2026-01-24 06:50:07.45	343.70	20.13	-43.7	-44.8	22.0	0.00e+00	0	44	0	924844032	59	3973
2026-01-24 06:50:08.46	343.51	20.04	-43.3	-44.4	22.3	0.00e+00	0	44	0	926941184	58	4028
2026-01-24 06:50:09.47	343.31	19.96	-43.3	-44.4	22.3	0.00e+00	0	44	0	929038336	58	4033
2026-01-24 06:50:10.47	343.12	19.88	-43.5	-44.6	22.2	0.00e+00	0	44	0	931135488	58	4105
2026-01-24 06:50:11.48	342.92	19.80	-43.6	-44.8	22.0	0.00e+00	0	44	0	933232640	58	4194
2026-01-24 06:50:12.49	342.73	19.71	-43.7	-44.8	21.9	0.00e+00	0	44	0	934281216	58	4237
2026-01-24 06:50:13.50	342.54	19.63	-43.9	-45.0	21.8	0.00e+00	0	44	0	936378368	58	4338
2026-01-24 06:50:14.51	342.35	19.55	-44.0	-45.1	21.7	0.00e+00	0	44	0	938475520	58	4377
2026-01-24 06:50:15.51	342.16	19.46	-44.1	-45.2	21.6	0.00e+00	0	44	0	940572672	58	4429
2026-01-24 06:50:16.52	341.97	19.38	-44.1	-45.3	21.5	0.00e+00	0	44	0	942669824	58	4480
2026-01-24 06:50:17.53	341.79	19.30	-44.1	-45.2	21.6	0.00e+00	0	44	0	944766976	58	4426
2026-01-24 06:50:18.54	341.60	19.21	-44.2	-45.4	21.5	0.00e+00	0	44	0	945815552	58	4494
2026-01-24 06:50:19.55	341.42	19.13	-44.2	-45.3	21.5	0.00e+00	0	44	0	947912704	59	4237
2026-01-24 06:50:20.56	341.23	19.05	-44.2	-45.4	21.4	0.00e+00	0	44	0	950009856	59	4263
2026-01-24 06:50:21.57	341.05	18.96	-44.0	-45.1	21.7	0.00e+00	0	44	0	952107008	59	4126
2026-01-24 06:50:22.57	340.87	18.88	-44.1	-45.3	21.5	0.00e+00	0	43	0	953155584	59	4225
2026-01-24 06:50:23.58	340.69	18.80	-44.3	-45.6	21.3	0.00e+00	0	44	0	955252736	59	4349
2026-01-24 06:50:24.59	340.51	18.72	-44.3	-45.5	21.4	0.00e+00	0	44	0	957349888	59	4306
2026-01-24 06:50:25.60	340.33	18.63	-44.5	-45.7	21.2	0.00e+00	0	44	0	959447040	59	4429
2026-01-24 06:50:26.61	340.15	18.55	-44.4	-45.6	21.2	0.00e+00	0	44	0	961544192	59	4388
2026-01-24 06:50:27.62	339.97	18.47	-44.5	-45.7	21.1	0.00e+00	0	44	0	963641344	59	4438
2026-01-24 06:50:28.63	339.79	18.38	-44.4	-45.7	21.2	0.00e+00	0	44	0	964689920	59	4398
2026-01-24 06:50:29.63	339.62	18.30	-44.5	-45.7	21.2	0.00e+00	0	44	0	966787072	59	4401
2026-01-24 06:50:30.64	339.45	18.22	-44.3	-45.5	21.3	0.00e+00	0	44	0	968884224	59	4329
2026-01-24 06:50:31.65	339.27	18.13	-44.3	-45.4	21.4	0.00e+00	0	44	0	970981376	59	4286
2026-01-24 06:50:32.66	339.10	18.05	-44.0	-45.1	21.6	0.00e+00	0	44	0	973078528	59	4137
2026-01-24 06:50:33.67	338.93	17.97	-43.9	-45.0	21.7	0.00e+00	0	44	0	974127104	59	4086
2026-01-24 06:50:34.68	338.76	17.88	-43.7	-44.8	22.0	0.00e+00	0	44	0	976224256	59	3963
2026-01-24 06:50:35.68	338.59	17.80	-43.7	-44.8	21.9	0.00e+00	0	44	0	978321408	59	3960
2026-01-24 06:50:36.69	338.42	17.72	-43.7	-44.8	21.9	0.00e+00	0	44	0	980418560	59	3989
2026-01-24 06:50:37.70	338.26	17.63	-43.9	-45.1	21.7	0.00e+00	0	44	0	982515712	59	4103
2026-01-24 06:50:38.71	338.09	17.55	-44.3	-45.5	21.3	0.00e+00	0	44	0	983564288	59	4300
2026-01-24 06:50:39.72	337.92	17.47	-44.3	-45.5	20.9	0.00e+00	0	43	0	985661440	60	4086
2026-01-24 06:50:40.73	337.76	17.38	-44.6	-45.9	20.7	0.00e+00	0	44	0	987758592	60	4263
2026-01-24 06:50:41.74	337.59	17.30	-45.0	-46.3	20.3	0.00e+00	0	44	0	989855744	60	4486
2026-01-24 06:50:42.74	337.43	17.22	-45.2	-46.6	20.1	0.00e+00	0	44	0	991952896	60	4609
2026-01-24 06:50:43.75	337.27	17.13	-45.0	-46.3	20.3	0.00e+00	0	44	0	993001472	61	4236
2026-01-24 06:50:44.76	337.11	17.05	-44.8	-46.2	20.5	0.00e+00	0	44	0	995098624	61	4154
2026-01-24 06:50:45.77	336.95	16.97	-44.7	-46.0	20.6	0.00e+00	0	44	0	997195776	61	4059
2026-01-24 06:50:46.78	336.79	16.89	-44.6	-45.9	20.7	0.00e+00	0	44	0	999292928	61	4019
2026-01-24 06:50:47.79	336.63	16.80	-44.7	-45.9	20.6	0.00e+00	0	44	0	1001390080	61	4050
2026-01-24 06:50:48.80	336.47	16.72	-44.6	-45.9	20.7	0.00e+00	0	44	0	1003487232	60	4249
2026-01-24 06:50:49.81	336.32	16.64	-44.6	-45.9	20.7	0.00e+00	0	44	0	1004535808	60	4252
2026-01-24 06:50:50.82	336.16	16.55	-44.6	-45.9	20.7	0.00e+00	0	44	0	1006632960	60	4253
2026-01-24 06:50:51.83	336.01	16.47	-44.9	-46.2	20.4	0.00e+00	0	44	0	1008730112	60	4437
2026-01-24 06:50:52.84	335.85	16.39	-45.0	-46.3	20.3	0.00e+00	0	44	0	1010827264	60	4472
2026-01-24 06:50:53.84	335.70	16.31	-45.3	-46.8	19.9	0.00e+00	0	43	0	1011875840	61	4448
2026-01-24 06:50:54.85	335.55	16.22	-45.4	-46.9	19.8	0.00e+00	0	44	0	1013972992	61	4498
2026-01-24 06:50:55.86	335.40	16.14	-45.5	-47.0	19.6	0.00e+00	0	44	0	1016070144	61	4572
2026-01-24 06:50:56.87	335.25	16.06	-45.6	-47.1	19.5	0.00e+00	0	44	0	1018167296	61	4630
2026-01-24 06:50:57.88	335.10	15.98	-45.8	-47.4	19.3	0.00e+00	0	44	0	1020264448	62	4514
2026-01-24 06:50:58.89	334.95	15.90	-46.0	-47.6	19.0	0.00e+00	0	44	0	1021313024	62	4621
2026-01-24 06:50:59.89	334.80	15.81	-46.0	-47.6	19.1	0.00e+00	0	44	0	1023410176	62	4614
2026-01-24 06:51:00.90	334.65	15.73	-45.7	-47.2	19.4	0.00e+00	0	44	0	1025507328	62	4429
2026-01-24 06:51:01.91	334.51	15.65	-45.6	-47.1	19.6	0.00e+00	0	44	0	1027604480	62	4358
2026-01-24 06:51:02.91	334.36	15.57	-45.2	-46.6	20.0	0.00e+00	0	44	0	1029701632	62	4136
2026-01-24 06:51:03.92	334.22	15.49	-44.8	-46.1	20.4	0.00e+00	0	44	0	1031798784	61	4126
2026-01-24 06:51:04.93	334.07	15.41	-44.6	-45.9	20.6	0.00e+00	0	44	0	1032847360	61	4034
2026-01-24 06:51:05.94	333.93	15.32	-44.7	-45.9	20.6	0.00e+00	0	44	0	1034944512	61	4042
2026-01-24 06:51:06.95	333.79	15.24	-44.5	-45.8	20.7	0.00e+00	0	44	0	1037041664	60	4213
2026-01-24 06:51:07.96	333.65	15.16	-44.7	-46.0	20.5	0.00e+00	0	44	0	1039138816	60	4333
2026-01-24 06:51:08.97	333.50	15.08	-44.7	-46.0	20.4	0.00e+00	0	44	0	1040187392	60	4328
2026-01-24 06:51:09.97	333.37	15.00	-44.9	-46.2	20.3	0.00e+00	0	44	0	1042284544	60	4413
2026-01-24 06:51:10.98	333.23	14.92	-45.0	-46.4	20.1	0.00e+00	0	44	0	1044381696	60	4515
2026-01-24 06:51:11.99	333.09	14.84	-45.3	-46.7	19.8	0.00e+00	0	44	0	1046478848	61	4422
2026-01-24 06:51:13.00	332.95	14.76	-45.2	-46.6	19.9	0.00e+00	0	44	0	1048576000	61	4386
2026-01-24 06:51:14.01	332.81	14.68	-45.0	-46.3	20.1	0.00e+00	0	44	0	1050673152	61	4241
2026-01-24 06:51:15.01	332.68	14.60	-45.0	-46.3	20.1	0.00e+00	0	44	0	1051721728	61	4234
2026-01-24 06:51:16.02	332.54	14.51	-45.0	-46.3	20.1	0.00e+00	0	44	0	1053818880	61	4222
2026-01-24 06:51:17.03	332.41	14.43	-44.9	-46.2	20.2	0.00e+00	0	44	0	1055916032	61	4162
2026-01-24 06:51:18.04	332.27	14.35	-44.8	-46.2	20.3	0.00e+00	0	44	0	1058013184	61	4151
2026-01-24 06:51:19.05	332.14	14.27	-44.8	-46.1	20.3	0.00e+00	0	44	0	1060110336	61	4120
2026-01-24 06:51:20.05	332.01	14.19	-44.7	-46.0	20.4	0.00e+00	0	44	0	1061158912	61	4072
2026-01-24 06:51:21.06	331.88	14.11	-44.9	-46.3	20.1	0.00e+00	0	43	0	1063256064	61	4197
2026-01-24 06:51:22.07	331.75	14.03	-44.7	-46.0	20.4	0.00e+00	0	44	0	1065353216	61	4097
2026-01-24 06:51:23.08	331.62	13.95	-44.7	-46.0	20.4	0.00e+00	0	44	0	1067450368	61	4095
2026-01-24 06:51:24.09	331.49	13.87	-44.7	-46.0	20.4	0.00e+00	0	44	0	1068498944	61	4081
2026-01-24 06:51:25.09	331.36	13.80	-44.7	-46.1	20.3	0.00e+00	0	44	0	1070596096	61	4099
2026-01-24 06:51:26.10	331.23	13.72	-44.7	-46.0	20.4	0.00e+00	0	44	0	1072693248	61	4059
2026-01-24 06:51:27.11	331.10	13.64	-44.8	-46.1	20.2	0.00e+00	0	43	0	1074790400	61	4143
2026-01-24 06:51:28.12	330.98	13.56	-45.2	-46.7	19.8	0.00e+00	0	44	0	1076887552	61	4396
2026-01-24 06:51:29.13	330.85	13.48	-45.1	-46.5	19.9	0.00e+00	0	43	0	1078984704	61	4304
2026-01-24 06:51:30.13	330.73	13.40	-45.3	-46.7	19.7	5.30e-06	0	44	0	1080033280	61	4417
2026-01-24 06:51:31.14	330.60	13.32	-45.6	-47.1	19.3	0.00e+00	0	43	0	1082130432	61	4628
2026-01-24 06:51:32.15	330.48	13.24	-45.5	-47.0	19.5	0.00e+00	0	44	0	1084227584	61	4551
2026-01-24 06:51:33.16	330.35	13.16	-45.7	-47.2	19.3	0.00e+00	0	44	0	1086324736	61	4660
2026-01-24 06:51:34.17	330.23	13.08	-45.7	-47.2	19.2	0.00e+00	0	44	0	1088421888	62	4410
2026-01-24 06:51:35.18	330.11	13.01	-45.5	-47.0	19.4	0.00e+00	0	43	0	1089470464	62	4319
2026-01-24 06:51:36.19	329.99	12.93	-45.2	-46.6	19.7	0.00e+00	0	44	0	1091567616	62	4139
2026-01-24 06:51:37.19	329.87	12.85	-45.2	-46.6	19.7	0.00e+00	0	44	0	1093664768	62	4145
2026-01-24 06:51:38.20	329.75	12.77	-45.2	-46.6	19.8	0.00e+00	0	44	0	1095761920	62	4106
2026-01-24 06:51:39.21	329.63	12.69	-45.3	-46.7	19.7	0.00e+00	0	44	0	1097859072	62	4173
2026-01-24 06:51:40.22	329.51	12.62	-45.4	-46.9	19.5	0.00e+00	0	44	0	1098907648	62	4272
2026-01-24 06:51:41.22	329.39	12.54	-45.4	-46.8	19.6	0.00e+00	0	43	0	1101004800	62	4214
2026-01-24 06:51:42.23	329.28	12.46	-45.7	-47.2	19.3	0.00e+00	0	44	0	1103101952	62	4408
2026-01-24 06:51:43.24	329.16	12.38	-45.7	-47.2	19.2	0.00e+00	0	43	0	1105199104	62	4426
2026-01-24 06:51:44.25	329.04	12.31	-46.0	-47.6	18.9	0.00e+00	0	44	0	1107296256	62	4643
2026-01-24 06:51:45.26	328.93	12.23	-46.3	-48.1	18.4	0.00e+00	0	44	0	1108344832	63	4603
2026-01-24 06:51:46.27	328.81	12.15	-46.6	-48.6	18.0	0.00e+00	0	44	0	1110441984	63	4878
2026-01-24 06:51:47.28	328.70	12.08	-46.5	-48.3	18.1	0.00e+00	0	44	0	1112539136	64	4457
2026-01-24 06:51:48.29	328.58	12.00	-46.6	-48.4	18.0	0.00e+00	0	44	0	1114636288	64	4529
2026-01-24 06:51:49.30	328.47	11.92	-46.7	-48.5	17.8	0.00e+00	0	44	0	1116733440	64	4594
2026-01-24 06:51:50.30	328.36	11.85	-46.5	-48.3	18.0	0.00e+00	0	44	0	1117782016	64	4491
2026-01-24 06:51:51.31	328.25	11.77	-46.2	-47.9	18.4	0.00e+00	0	44	0	1119879168	64	4250
2026-01-24 06:51:52.32	328.14	11.69	-46.1	-47.7	18.7	0.00e+00	0	44	0	1121976320	63	4435
2026-01-24 06:51:53.33	328.02	11.62	-45.8	-47.4	19.0	0.00e+00	0	44	0	1124073472	63	4265
2026-01-24 06:51:54.33	327.92	11.54	-45.6	-47.2	19.2	0.00e+00	0	44	0	1126170624	63	4151
2026-01-24 06:51:55.34	327.81	11.47	-45.4	-46.9	19.4	0.00e+00	0	44	0	1127219200	62	4270
2026-01-24 06:51:56.35	327.70	11.39	-45.3	-46.8	19.6	0.00e+00	0	44	0	1129316352	62	4217
2026-01-24 06:51:57.36	327.59	11.31	-45.1	-46.5	19.8	0.00e+00	0	44	0	1131413504	62	4086
2026-01-24 06:51:58.37	327.48	11.24	-45.1	-46.6	19.8	0.00e+00	0	44	0	1133510656	62	4114
2026-01-24 06:51:59.38	327.37	11.16	-45.2	-46.7	19.6	0.00e+00	0	43	0	1135607808	62	4167
2026-01-24 06:52:00.39	327.27	11.09	-45.5	-47.0	19.3	0.00e+00	0	44	0	1136656384	62	4302
2026-01-24 06:52:01.40	327.16	11.01	-45.7	-47.3	19.1	0.00e+00	0	43	0	1138753536	62	4446
2026-01-24 06:52:02.40	327.06	10.94	-45.7	-47.3	19.1	0.00e+00	0	44	0	1140850688	62	4448
2026-01-24 06:52:03.41	326.95	10.86	-45.9	-47.6	18.7	0.00e+00	0	43	0	1142947840	62	4624
2026-01-24 06:52:04.42	326.85	10.79	-46.3	-48.0	18.4	0.00e+00	0	44	0	1145044992	63	4567
2026-01-24 06:52:05.43	326.74	10.71	-46.6	-48.5	18.0	0.00e+00	0	43	0	1146093568	63	4815
2026-01-24 06:52:06.44	326.64	10.64	-46.7	-48.6	17.8	0.00e+00	0	44	0	1148190720	63	4888
2026-01-24 06:52:07.45	326.54	10.57	-46.7	-48.6	17.7	0.00e+00	0	44	0	1150287872	64	4606
2026-01-24 06:52:08.45	326.43	10.49	-46.9	-48.9	17.5	0.00e+00	0	44	0	1152385024	64	4765
2026-01-24 06:52:09.46	326.33	10.42	-46.9	-48.8	17.5	0.00e+00	0	44	0	1154482176	64	4738
2026-01-24 06:52:10.47	326.23	10.34	-47.0	-49.1	17.2	0.00e+00	0	43	0	1155530752	64	4875
2026-01-24 06:52:11.48	326.13	10.27	-46.9	-48.8	17.4	0.00e+00	0	43	0	1157627904	64	4749
2026-01-24 06:52:12.49	326.03	10.20	-46.9	-48.9	17.4	0.00e+00	0	44	0	1159725056	64	4794
2026-01-24 06:52:13.49	325.93	10.12	-46.8	-48.7	17.6	0.00e+00	0	44	0	1161822208	64	4675
2026-01-24 06:52:14.50	325.83	10.05	-46.8	-48.7	17.6	0.00e+00	0	44	0	1163919360	64	4679
2026-01-24 06:52:15.51	325.73	9.98	-46.8	-48.7	17.5	0.00e+00	0	43	0	1166016512	64	4695
2026-01-24 06:52:16.52	325.64	9.90	-46.6	-48.5	17.8	0.00e+00	0	44	0	1167065088	64	4576
2026-01-24 06:52:17.53	325.54	9.83	-46.6	-48.4	17.8	0.00e+00	0	44	0	1169162240	64	4531
2026-01-24 06:52:18.53	325.44	9.76	-46.7	-48.5	17.7	0.00e+00	0	44	0	1171259392	64	4582
2026-01-24 06:52:19.54	325.35	9.69	-46.6	-48.5	17.8	0.00e+00	0	44	0	1173356544	64	4559
2026-01-24 06:52:20.55	325.25	9.61	-46.5	-48.4	17.9	0.00e+00	0	44	0	1174405120	64	4499
2026-01-24 06:52:21.56	325.15	9.54	-46.7	-48.6	17.6	0.00e+00	0	44	0	1176502272	64	4651
2026-01-24 06:52:22.57	325.06	9.47	-46.7	-48.5	17.7	0.00e+00	0	44	0	1178599424	64	4596
2026-01-24 06:52:23.58	324.96	9.40	-46.6	-48.4	17.9	0.00e+00	0	44	0	1180696576	64	4522
2026-01-24 06:52:24.59	324.87	9.32	-46.7	-48.6	17.7	0.00e+00	0	43	0	1182793728	64	4623
2026-01-24 06:52:25.59	324.78	9.25	-46.9	-48.9	17.3	0.00e+00	0	44	0	1183842304	64	4810
2026-01-24 06:52:26.60	324.68	9.18	-47.0	-49.0	17.2	0.00e+00	0	44	0	1185939456	64	4864
2026-01-24 06:52:27.61	324.59	9.11	-47.1	-49.2	17.1	0.00e+00	0	43	0	1188036608	64	4935
2026-01-24 06:52:28.62	324.50	9.04	-47.3	-49.4	16.8	0.00e+00	0	43	0	1190133760	65	4786
2026-01-24 06:52:29.63	324.41	8.97	-47.3	-49.4	16.9	0.00e+00	0	43	0	1192230912	65	4784
2026-01-24 06:52:30.64	324.32	8.89	-47.4	-49.7	16.7	0.00e+00	0	44	0	1194328064	65	4938
2026-01-24 06:52:31.64	324.23	8.82	-47.7	-50.0	16.2	0.00e+00	0	44	0	1195376640	66	4867
2026-01-24 06:52:32.65	324.14	8.75	-47.6	-49.9	16.4	0.00e+00	0	44	0	1197473792	65	5062
2026-01-24 06:52:33.66	324.05	8.68	-47.7	-50.1	16.2	0.00e+00	0	44	0	1199570944	65	5162
2026-01-24 06:52:34.67	323.96	8.61	-47.4	-49.7	16.6	0.00e+00	0	44	0	1201668096	66	4658
2026-01-24 06:52:35.67	323.87	8.54	-47.3	-49.5	16.8	0.00e+00	0	44	0	1202716672	66	4557
2026-01-24 06:52:36.68	323.78	8.47	-47.4	-49.6	16.7	0.00e+00	0	44	0	1204813824	66	4609
2026-01-24 06:52:37.69	323.69	8.40	-47.3	-49.5	16.8	0.00e+00	0	44	0	1206910976	66	4556
2026-01-24 06:52:38.70	323.60	8.33	-47.0	-49.0	17.2	0.00e+00	0	44	0	1209008128	65	4566
2026-01-24 06:52:39.71	323.52	8.26	-46.7	-48.6	17.5	0.00e+00	0	44	0	1211105280	65	4377
2026-01-24 06:52:40.72	323.43	8.19	-46.6	-48.5	17.7	0.00e+00	0	44	0	1213202432	65	4298
2026-01-24 06:52:41.73	323.34	8.12	-46.6	-48.4	17.8	0.00e+00	0	43	0	1214251008	64	4526
2026-01-24 06:52:42.73	323.26	8.05	-46.3	-48.1	18.1	0.00e+00	0	44	0	1216348160	64	4366
2026-01-24 06:52:43.74	323.17	7.98	-46.1	-47.9	18.3	0.00e+00	0	44	0	1218445312	64	4247
2026-01-24 06:52:44.75	323.09	7.91	-46.6	-48.4	17.8	0.00e+00	0	44	0	1220542464	63	4809
2026-01-24 06:52:45.76	323.00	7.84	-46.1	-47.8	18.5	0.00e+00	0	44	0	1222639616	63	4456
2026-01-24 06:52:46.77	322.92	7.77	-45.9	-47.5	18.7	0.00e+00	0	43	0	1223688192	63	4330
2026-01-24 06:52:47.77	322.83	7.70	-46.0	-47.7	18.5	0.00e+00	0	44	0	1225785344	63	4396
2026-01-24 06:52:48.78	322.75	7.64	-46.1	-47.8	18.5	0.00e+00	0	44	0	1227882496	63	4446
2026-01-24 06:52:49.79	322.67	7.57	-46.0	-47.7	18.6	0.00e+00	0	43	0	1229979648	63	4398
2026-01-24 06:52:50.80	322.59	7.50	-45.9	-47.5	18.7	0.00e+00	0	44	0	1232076800	63	4312
2026-01-24 06:52:51.81	322.50	7.43	-46.3	-48.0	18.2	0.00e+00	0	44	0	1233125376	63	4585
2026-01-24 06:52:52.81	322.42	7.36	-46.4	-48.2	17.8	0.00e+00	0	44	0	1235222528	63	4688
