passes_logs/2026/01/24/R3.2S_Murmansk/R3.2S_Murmansk__20260124_070124_NOAA_20_JPSS-1_rec.log

#Pass ID: 20260124_070124_NOAA 20 (JPSS-1)
#Satellite: NOAA 20 (JPSS-1)
#Configuration: NOAA 20
#almurnet v.1.7.20251203
#Start time: 2026-01-24 07:01:24

#Version: 2.2.20231116
#Station: R3.2S_Murmansk
#Location: 33.079688 lon 68.888172 lat
#TLE: 1 43013U 17073A   26023.57676825  .00000205  00000+0  11821-3 0  9990
#TLE: 2 43013  98.7645 324.4259 0001147  27.0566 333.0670 14.19539368423954

#Time	Az	El	Level	Level2	SNR	BER	BlckErr	Temp	State	Recorded	gain1	gain2
2026-01-24 07:01:24.29	95.37	2.01	-51.9	-66.9	3.8	1.49e+00	0	41	0	0	74	21398
2026-01-24 07:01:25.29	95.32	2.07	-51.9	-66.9	3.8	1.49e+00	0	41	104	0	74	21436
2026-01-24 07:01:26.30	95.27	2.13	-51.9	-66.9	3.8	1.49e+00	0	41	104	0	74	21444
2026-01-24 07:01:27.31	95.22	2.19	-51.9	-66.9	3.8	1.49e+00	0	41	104	0	74	21428
2026-01-24 07:01:28.32	95.17	2.25	-51.9	-66.9	3.8	1.49e+00	0	41	104	0	74	21368
2026-01-24 07:01:29.33	95.12	2.31	-51.9	-66.9	3.8	1.49e+00	0	41	104	0	74	21341
2026-01-24 07:01:30.34	95.07	2.37	-51.9	-66.9	3.8	1.49e+00	0	42	104	0	74	21314
2026-01-24 07:01:31.35	95.01	2.43	-51.9	-66.9	3.8	1.49e+00	0	42	104	0	74	21327
2026-01-24 07:01:32.35	94.96	2.49	-51.9	-66.9	3.8	1.49e+00	0	42	104	0	74	21318
2026-01-24 07:01:33.36	94.91	2.56	-51.9	-66.9	3.8	1.49e+00	0	42	104	0	74	21348
2026-01-24 07:01:34.37	94.86	2.62	-51.9	-66.9	3.8	1.49e+00	0	41	104	0	74	21332
2026-01-24 07:01:35.38	94.80	2.68	-51.9	-66.9	3.8	1.49e+00	0	42	104	0	74	21390
2026-01-24 07:01:36.39	94.75	2.74	-51.9	-66.9	3.8	1.49e+00	0	42	104	0	74	21375
2026-01-24 07:01:37.40	94.69	2.80	-51.9	-66.9	3.8	1.49e+00	0	42	104	0	74	21337
2026-01-24 07:01:38.41	94.64	2.86	-51.9	-66.9	3.8	1.49e+00	0	42	104	0	74	21341
2026-01-24 07:01:39.41	94.59	2.92	-51.9	-66.9	3.8	1.49e+00	0	42	104	0	74	21308
2026-01-24 07:01:40.42	94.53	2.99	-51.9	-66.8	3.8	1.49e+00	0	42	104	0	74	21245
2026-01-24 07:01:41.43	94.48	3.05	-51.9	-66.8	3.8	1.49e+00	0	42	104	0	74	21144
2026-01-24 07:01:42.43	94.42	3.11	-51.9	-66.8	3.8	1.49e+00	0	42	104	0	74	21194
2026-01-24 07:01:43.44	94.37	3.17	-51.9	-66.8	3.8	1.49e+00	0	42	104	0	74	21226
2026-01-24 07:01:44.45	94.31	3.23	-52.0	-66.9	3.8	1.49e+00	0	42	104	0	74	21350
2026-01-24 07:01:45.46	94.26	3.30	-51.9	-66.9	3.8	1.49e+00	0	42	104	0	74	21339
2026-01-24 07:01:46.47	94.20	3.36	-51.9	-66.9	3.8	1.49e+00	0	42	104	0	74	21326
2026-01-24 07:01:47.48	94.15	3.42	-51.9	-66.9	3.8	1.49e+00	0	42	104	0	74	21311
2026-01-24 07:01:48.49	94.09	3.49	-51.9	-66.8	3.8	1.49e+00	0	42	104	0	74	21194
2026-01-24 07:01:49.50	94.03	3.55	-51.9	-66.8	3.8	1.49e+00	0	42	104	0	74	21159
2026-01-24 07:01:50.50	93.98	3.61	-51.9	-66.8	3.8	1.49e+00	0	42	104	0	74	21132
2026-01-24 07:01:51.51	93.92	3.67	-51.9	-66.9	3.8	1.49e+00	0	42	104	0	74	21263
2026-01-24 07:01:52.52	93.86	3.74	-51.9	-66.9	3.8	1.49e+00	0	42	104	0	74	21304
2026-01-24 07:01:53.53	93.80	3.80	-51.9	-66.9	3.8	1.49e+00	0	42	104	0	74	21261
2026-01-24 07:01:54.54	93.75	3.86	-51.9	-66.7	3.8	1.49e+00	0	42	104	0	74	20944
2026-01-24 07:01:55.55	93.69	3.93	-51.9	-66.4	3.8	1.49e+00	0	42	104	0	74	20207
2026-01-24 07:01:56.55	93.63	3.99	-51.9	-65.9	3.8	1.49e+00	0	42	104	0	74	19137
2026-01-24 07:01:57.56	93.57	4.05	-51.8	-65.4	3.8	1.49e+00	0	42	104	0	74	17991
2026-01-24 07:01:58.57	93.51	4.12	-51.8	-64.9	3.8	1.49e+00	0	42	104	0	74	17030
2026-01-24 07:01:59.58	93.45	4.18	-51.8	-64.4	4.0	1.48e+00	0	42	104	0	74	15960
2026-01-24 07:02:00.59	93.39	4.25	-51.8	-64.5	3.9	1.48e+00	0	42	104	0	74	16262
2026-01-24 07:02:01.60	93.33	4.31	-51.8	-64.3	4.0	1.47e+00	0	42	104	0	74	15872
2026-01-24 07:02:02.61	93.27	4.38	-51.8	-64.7	3.8	1.48e+00	0	42	104	0	74	16610
2026-01-24 07:02:03.61	93.21	4.44	-51.8	-64.8	3.8	1.48e+00	0	42	104	0	74	16740
2026-01-24 07:02:04.62	93.15	4.50	-51.8	-64.0	3.8	1.49e+00	0	42	104	0	74	15306
2026-01-24 07:02:05.63	93.09	4.57	-51.6	-62.5	4.5	1.34e+00	81	42	0	0	74	12855
2026-01-24 07:02:06.64	93.03	4.63	-51.4	-60.5	5.5	7.10e-01	0	42	0	2097152	74	10290
2026-01-24 07:02:07.65	92.97	4.70	-51.3	-59.4	6.3	3.88e-01	0	42	0	4194304	74	9020
2026-01-24 07:02:08.66	92.91	4.76	-50.9	-57.5	8.0	1.18e-01	0	42	0	5242880	73	7686
2026-01-24 07:02:09.67	92.85	4.83	-50.5	-56.3	9.2	2.13e-02	0	43	0	7340032	73	6683
2026-01-24 07:02:10.67	92.78	4.90	-50.3	-55.6	10.0	1.05e-02	0	42	0	9437184	72	6552
2026-01-24 07:02:11.68	92.72	4.96	-50.0	-54.7	11.0	2.43e-03	0	42	0	11534336	71	6231
2026-01-24 07:02:12.69	92.66	5.03	-49.9	-54.2	11.5	1.03e-03	0	42	0	13631488	71	5922
2026-01-24 07:02:13.70	92.59	5.09	-50.7	-56.5	9.3	7.48e-04	0	42	0	14680064	71	7715
2026-01-24 07:02:14.71	92.53	5.16	-51.2	-58.5	7.3	6.12e-02	0	43	0	16777216	72	9147
2026-01-24 07:02:15.72	92.47	5.22	-50.3	-55.3	10.7	2.16e-02	0	43	0	18874368	71	6705
2026-01-24 07:02:16.73	92.40	5.29	-48.2	-50.8	15.2	3.48e-02	0	42	0	20971520	68	4723
2026-01-24 07:02:17.73	92.34	5.36	-51.7	-61.8	5.3	0.00e+00	0	43	0	23068672	73	12660
2026-01-24 07:02:18.74	92.27	5.42	-48.7	-51.7	14.0	1.34e+00	1	43	104	23068672	69	4932
2026-01-24 07:02:19.75	92.21	5.49	-47.8	-50.3	15.7	0.00e+00	0	42	0	24117248	67	4711
2026-01-24 07:02:20.76	92.14	5.56	-47.9	-50.3	15.7	7.00e-07	0	42	0	26214400	67	4759
2026-01-24 07:02:21.77	92.08	5.62	-47.9	-50.4	15.6	0.00e+00	0	43	0	27262976	67	4789
2026-01-24 07:02:22.77	92.01	5.69	-47.7	-50.1	15.9	0.00e+00	0	42	0	29360128	66	4924
2026-01-24 07:02:23.78	91.95	5.76	-47.9	-50.4	15.6	0.00e+00	0	43	0	31457280	66	5047
2026-01-24 07:02:24.79	91.88	5.82	-47.6	-50.0	15.9	0.00e+00	0	43	0	33554432	66	4852
2026-01-24 07:02:25.80	91.81	5.89	-47.7	-50.2	15.8	0.00e+00	0	42	0	35651584	66	4941
2026-01-24 07:02:26.81	91.74	5.96	-47.8	-50.3	15.6	0.00e+00	0	43	0	37748736	66	5020
2026-01-24 07:02:27.81	91.68	6.03	-47.8	-50.3	15.7	0.00e+00	0	43	0	38797312	66	5033
2026-01-24 07:02:28.82	91.61	6.09	-47.7	-50.2	15.8	0.00e+00	0	43	0	40894464	66	4949
2026-01-24 07:02:29.83	91.54	6.16	-47.7	-50.2	15.8	0.00e+00	0	43	0	42991616	66	4930
2026-01-24 07:02:30.84	91.47	6.23	-47.7	-50.2	15.8	0.00e+00	0	43	0	45088768	66	4954
2026-01-24 07:02:31.85	91.40	6.30	-47.9	-50.4	15.6	0.00e+00	0	43	0	46137344	66	5064
2026-01-24 07:02:32.86	91.33	6.37	-47.5	-49.9	16.1	0.00e+00	0	43	0	48234496	66	4775
2026-01-24 07:02:33.87	91.26	6.44	-47.7	-50.1	15.8	0.00e+00	0	43	0	50331648	66	4889
2026-01-24 07:02:34.88	91.19	6.50	-47.6	-50.0	15.9	0.00e+00	0	43	0	52428800	66	4861
2026-01-24 07:02:35.89	91.12	6.57	-47.9	-50.5	15.5	0.00e+00	0	43	0	54525952	66	5120
2026-01-24 07:02:36.89	91.05	6.64	-47.8	-50.3	15.7	0.00e+00	0	43	0	56623104	66	4985
2026-01-24 07:02:37.90	90.98	6.71	-47.7	-50.1	15.9	0.00e+00	0	43	0	57671680	66	4914
2026-01-24 07:02:38.91	90.91	6.78	-47.7	-50.1	16.0	0.00e+00	0	43	0	59768832	66	4893
2026-01-24 07:02:39.92	90.84	6.85	-48.0	-50.5	15.6	0.00e+00	0	43	0	61865984	66	5121
2026-01-24 07:02:40.93	90.77	6.92	-47.5	-49.8	16.2	0.00e+00	0	43	0	63963136	66	4754
2026-01-24 07:02:41.94	90.69	6.99	-47.7	-50.0	16.0	0.00e+00	0	43	0	66060288	66	4855
2026-01-24 07:02:42.95	90.62	7.06	-47.8	-50.2	15.8	0.00e+00	0	43	0	67108864	66	4982
2026-01-24 07:02:43.95	90.55	7.13	-47.3	-49.5	16.6	0.00e+00	0	43	0	69206016	66	4578
2026-01-24 07:02:44.96	90.48	7.20	-47.5	-49.7	16.4	0.00e+00	0	43	0	71303168	66	4692
2026-01-24 07:02:45.97	90.40	7.27	-47.5	-49.8	16.3	0.00e+00	0	43	0	73400320	66	4733
2026-01-24 07:02:46.98	90.33	7.34	-47.4	-49.6	16.5	0.00e+00	0	43	0	75497472	66	4609
2026-01-24 07:02:47.99	90.25	7.41	-47.4	-49.7	16.5	0.00e+00	0	43	0	76546048	66	4655
2026-01-24 07:02:49.00	90.18	7.48	-47.3	-49.4	16.8	0.00e+00	0	43	0	78643200	66	4509
2026-01-24 07:02:50.01	90.10	7.55	-47.3	-49.5	16.7	0.00e+00	0	43	0	80740352	66	4557
2026-01-24 07:02:51.01	90.03	7.62	-47.4	-49.5	16.7	0.00e+00	0	43	0	82837504	66	4577
2026-01-24 07:02:52.02	89.95	7.69	-47.3	-49.4	16.9	0.00e+00	0	43	0	84934656	66	4518
2026-01-24 07:02:53.03	89.87	7.76	-47.1	-49.2	17.1	0.00e+00	0	43	0	85983232	66	4396
2026-01-24 07:02:54.04	89.80	7.84	-47.3	-49.4	16.9	0.00e+00	0	43	0	88080384	66	4501
2026-01-24 07:02:55.05	89.72	7.91	-47.2	-49.3	17.1	0.00e+00	0	43	0	90177536	66	4453
2026-01-24 07:02:56.05	89.64	7.98	-47.2	-49.2	17.1	0.00e+00	0	43	0	92274688	66	4437
2026-01-24 07:02:57.06	89.56	8.05	-47.3	-49.4	16.9	0.00e+00	0	43	0	94371840	66	4534
2026-01-24 07:02:58.07	89.49	8.12	-47.2	-49.2	17.1	0.00e+00	0	43	0	95420416	66	4415
2026-01-24 07:02:59.08	89.41	8.19	-47.2	-49.2	17.2	0.00e+00	0	43	0	97517568	66	4409
2026-01-24 07:03:00.09	89.33	8.27	-47.1	-49.1	17.3	0.00e+00	0	43	0	99614720	66	4369
2026-01-24 07:03:01.09	89.25	8.34	-47.2	-49.2	17.2	0.00e+00	0	43	0	101711872	66	4422
2026-01-24 07:03:02.10	89.17	8.41	-47.2	-49.2	17.1	0.00e+00	0	43	0	103809024	66	4436
2026-01-24 07:03:03.11	89.09	8.48	-47.2	-49.3	17.1	0.00e+00	0	43	0	104857600	66	4444
2026-01-24 07:03:04.12	89.01	8.56	-47.0	-48.9	17.5	0.00e+00	0	43	0	106954752	65	4525
2026-01-24 07:03:05.13	88.92	8.63	-47.1	-49.1	17.2	0.00e+00	0	43	0	109051904	65	4645
2026-01-24 07:03:06.13	88.84	8.70	-47.1	-49.0	17.4	0.00e+00	0	43	0	111149056	65	4590
2026-01-24 07:03:07.14	88.76	8.78	-47.0	-48.9	17.4	0.00e+00	0	43	0	113246208	65	4534
2026-01-24 07:03:08.15	88.68	8.85	-46.8	-48.7	17.6	0.00e+00	0	43	0	114294784	65	4439
2026-01-24 07:03:09.16	88.59	8.92	-46.9	-48.9	17.5	0.00e+00	0	43	0	116391936	65	4495
2026-01-24 07:03:10.17	88.51	9.00	-46.8	-48.7	17.7	0.00e+00	0	43	0	118489088	65	4398
2026-01-24 07:03:11.17	88.43	9.07	-46.9	-48.8	17.6	0.00e+00	0	43	0	120586240	65	4472
2026-01-24 07:03:12.18	88.34	9.15	-46.9	-48.8	17.6	0.00e+00	0	43	0	122683392	65	4483
2026-01-24 07:03:13.19	88.26	9.22	-46.9	-48.8	17.6	0.00e+00	0	43	0	123731968	65	4461
2026-01-24 07:03:14.20	88.17	9.29	-46.8	-48.7	17.7	0.00e+00	0	43	0	125829120	65	4421
2026-01-24 07:03:15.21	88.09	9.37	-46.9	-48.8	17.6	0.00e+00	0	43	0	127926272	65	4449
2026-01-24 07:03:16.21	88.00	9.44	-46.8	-48.7	17.6	0.00e+00	0	43	0	130023424	65	4421
2026-01-24 07:03:17.22	87.91	9.52	-46.9	-48.7	17.6	0.00e+00	0	43	0	132120576	65	4438
2026-01-24 07:03:18.23	87.83	9.59	-46.8	-48.6	17.8	0.00e+00	0	43	0	133169152	65	4367
2026-01-24 07:03:19.24	87.74	9.67	-46.7	-48.5	17.9	0.00e+00	0	43	0	135266304	65	4317
2026-01-24 07:03:20.25	87.65	9.74	-46.8	-48.7	17.7	0.00e+00	0	43	0	137363456	65	4409
2026-01-24 07:03:21.26	87.56	9.82	-46.7	-48.5	17.9	0.00e+00	0	43	0	139460608	65	4297
2026-01-24 07:03:22.26	87.47	9.90	-46.7	-48.5	17.8	0.00e+00	0	43	0	141557760	65	4336
2026-01-24 07:03:23.27	87.38	9.97	-46.7	-48.6	17.8	0.00e+00	0	43	0	142606336	65	4362
2026-01-24 07:03:24.28	87.29	10.05	-46.8	-48.6	17.8	0.00e+00	0	43	0	144703488	65	4385
2026-01-24 07:03:25.29	87.20	10.12	-46.8	-48.6	17.8	0.00e+00	0	43	0	146800640	65	4373
2026-01-24 07:03:26.29	87.11	10.20	-46.7	-48.6	17.8	0.00e+00	0	43	0	148897792	65	4351
2026-01-24 07:03:27.30	87.02	10.28	-46.6	-48.4	18.0	0.00e+00	0	43	0	150994944	65	4273
2026-01-24 07:03:28.31	86.93	10.35	-46.6	-48.4	18.0	0.00e+00	0	43	0	152043520	65	4271
2026-01-24 07:03:29.32	86.84	10.43	-46.6	-48.4	18.0	0.00e+00	0	43	0	154140672	65	4248
2026-01-24 07:03:30.33	86.74	10.51	-46.6	-48.3	18.0	0.00e+00	0	43	0	156237824	65	4240
2026-01-24 07:03:31.34	86.65	10.59	-46.6	-48.3	18.1	0.00e+00	0	43	0	158334976	65	4232
2026-01-24 07:03:32.35	86.56	10.66	-46.7	-48.5	18.0	0.00e+00	0	43	0	160432128	65	4296
2026-01-24 07:03:33.36	86.46	10.74	-46.6	-48.3	18.1	0.00e+00	0	43	0	161480704	65	4226
2026-01-24 07:03:34.37	86.37	10.82	-46.6	-48.4	18.0	0.00e+00	0	43	0	163577856	65	4270
2026-01-24 07:03:35.37	86.27	10.90	-46.5	-48.3	18.2	0.00e+00	0	43	0	165675008	65	4215
2026-01-24 07:03:36.38	86.18	10.97	-46.6	-48.4	18.0	0.00e+00	0	43	0	167772160	65	4280
2026-01-24 07:03:37.39	86.08	11.05	-46.6	-48.4	18.1	0.00e+00	0	43	0	169869312	65	4265
2026-01-24 07:03:38.40	85.98	11.13	-46.7	-48.5	18.0	0.00e+00	0	43	0	171966464	65	4331
2026-01-24 07:03:39.41	85.88	11.21	-46.7	-48.5	18.0	0.00e+00	0	43	0	173015040	65	4311
2026-01-24 07:03:40.42	85.79	11.29	-46.8	-48.6	18.1	0.00e+00	0	43	0	175112192	65	4344
2026-01-24 07:03:41.43	85.69	11.37	-46.8	-48.6	18.0	0.00e+00	0	43	0	177209344	65	4347
2026-01-24 07:03:42.43	85.59	11.45	-46.7	-48.4	18.1	0.00e+00	0	43	0	179306496	65	4286
2026-01-24 07:03:43.44	85.49	11.52	-46.8	-48.6	18.0	0.00e+00	0	43	0	180355072	65	4356
2026-01-24 07:03:44.45	85.39	11.60	-46.7	-48.4	18.1	0.00e+00	0	43	0	182452224	65	4279
2026-01-24 07:03:45.46	85.29	11.68	-46.6	-48.4	18.2	0.00e+00	0	43	0	184549376	65	4250
2026-01-24 07:03:46.47	85.18	11.76	-46.6	-48.3	18.3	0.00e+00	0	43	0	186646528	65	4226
2026-01-24 07:03:47.47	85.08	11.84	-46.7	-48.4	18.2	0.00e+00	0	43	0	188743680	65	4270
2026-01-24 07:03:48.48	84.98	11.92	-46.6	-48.3	18.3	0.00e+00	0	43	0	190840832	65	4220
2026-01-24 07:03:49.49	84.88	12.00	-46.7	-48.4	18.3	0.00e+00	0	43	0	191889408	65	4263
2026-01-24 07:03:50.50	84.77	12.08	-46.5	-48.2	18.4	0.00e+00	0	43	0	193986560	65	4184
2026-01-24 07:03:51.51	84.67	12.17	-46.8	-48.6	18.1	0.00e+00	0	43	0	196083712	65	4350
2026-01-24 07:03:52.51	84.56	12.25	-46.8	-48.6	18.0	0.00e+00	0	43	0	198180864	65	4377
2026-01-24 07:03:53.52	84.46	12.33	-46.8	-48.6	18.1	0.00e+00	0	43	0	200278016	65	4356
2026-01-24 07:03:54.53	84.35	12.41	-46.9	-48.7	18.0	0.00e+00	0	43	0	201326592	65	4418
2026-01-24 07:03:55.54	84.24	12.49	-46.8	-48.6	18.1	0.00e+00	0	43	0	203423744	65	4350
2026-01-24 07:03:56.54	84.14	12.57	-46.8	-48.6	18.1	0.00e+00	0	43	0	205520896	65	4361
2026-01-24 07:03:57.56	84.03	12.65	-46.7	-48.4	18.3	0.00e+00	0	43	0	207618048	65	4273
2026-01-24 07:03:58.56	83.92	12.73	-46.6	-48.3	18.3	0.00e+00	0	43	0	208666624	65	4235
2026-01-24 07:03:59.57	83.81	12.82	-46.6	-48.3	18.4	0.00e+00	0	43	0	210763776	65	4200
2026-01-24 07:04:00.58	83.70	12.90	-46.4	-48.1	18.6	0.00e+00	0	43	0	212860928	64	4375
2026-01-24 07:04:01.59	83.59	12.98	-46.6	-48.3	18.4	0.00e+00	0	43	0	214958080	64	4442
2026-01-24 07:04:02.60	83.48	13.06	-46.5	-48.2	18.5	0.00e+00	0	43	0	217055232	64	4404
2026-01-24 07:04:03.61	83.37	13.15	-46.5	-48.2	18.5	0.00e+00	0	43	0	219152384	64	4424
2026-01-24 07:04:04.61	83.26	13.23	-46.5	-48.2	18.6	0.00e+00	0	43	0	220200960	64	4408
2026-01-24 07:04:05.62	83.14	13.31	-46.6	-48.3	18.5	0.00e+00	0	43	0	222298112	64	4465
2026-01-24 07:04:06.63	83.03	13.39	-46.7	-48.4	18.4	0.00e+00	0	43	0	224395264	64	4494
2026-01-24 07:04:07.64	82.91	13.48	-46.6	-48.2	18.5	0.00e+00	0	43	0	226492416	64	4434
2026-01-24 07:04:08.64	82.80	13.56	-46.5	-48.2	18.5	0.00e+00	0	43	0	228589568	64	4430
2026-01-24 07:04:09.65	82.68	13.64	-46.6	-48.3	18.4	0.00e+00	0	43	0	229638144	64	4487
2026-01-24 07:04:10.66	82.57	13.73	-46.7	-48.4	18.4	0.00e+00	0	43	0	231735296	64	4503
2026-01-24 07:04:11.67	82.45	13.81	-46.6	-48.3	18.5	0.00e+00	0	43	0	233832448	64	4448
2026-01-24 07:04:12.67	82.33	13.90	-46.6	-48.2	18.5	0.00e+00	0	43	0	235929600	64	4437
2026-01-24 07:04:13.68	82.22	13.98	-46.6	-48.3	18.5	0.00e+00	0	43	0	238026752	64	4447
2026-01-24 07:04:14.69	82.10	14.06	-46.4	-48.1	18.6	0.00e+00	0	43	0	239075328	64	4358
2026-01-24 07:04:15.70	81.98	14.15	-46.4	-48.1	18.6	0.00e+00	0	43	0	241172480	64	4366
2026-01-24 07:04:16.71	81.86	14.23	-46.4	-48.0	18.7	0.00e+00	0	43	0	243269632	64	4312
2026-01-24 07:04:17.72	81.73	14.32	-46.4	-48.0	18.7	0.00e+00	0	43	0	245366784	64	4340
2026-01-24 07:04:18.73	81.61	14.40	-46.5	-48.1	18.6	0.00e+00	0	43	0	247463936	64	4363
2026-01-24 07:04:19.73	81.49	14.49	-46.5	-48.2	18.5	0.00e+00	0	43	0	248512512	64	4420
2026-01-24 07:04:20.74	81.37	14.57	-46.5	-48.1	18.6	0.00e+00	0	43	0	250609664	64	4384
2026-01-24 07:04:21.75	81.24	14.66	-46.4	-47.9	18.8	0.00e+00	0	43	0	252706816	64	4289
2026-01-24 07:04:22.76	81.12	14.75	-46.4	-48.0	18.7	0.00e+00	0	43	0	254803968	64	4337
2026-01-24 07:04:23.76	80.99	14.83	-46.4	-48.1	18.7	0.00e+00	0	43	0	256901120	64	4342
2026-01-24 07:04:24.77	80.87	14.92	-46.3	-47.9	18.9	0.00e+00	0	43	0	257949696	64	4253
2026-01-24 07:04:25.78	80.74	15.00	-46.3	-47.9	18.9	0.00e+00	0	43	0	260046848	64	4267
2026-01-24 07:04:26.79	80.61	15.09	-46.4	-48.1	18.7	0.00e+00	0	43	0	262144000	64	4348
2026-01-24 07:04:27.80	80.48	15.18	-46.4	-48.1	18.7	0.00e+00	0	43	0	264241152	64	4356
2026-01-24 07:04:28.81	80.35	15.26	-46.4	-48.0	18.8	0.00e+00	0	43	0	266338304	64	4292
2026-01-24 07:04:29.81	80.22	15.35	-46.3	-47.8	19.0	0.00e+00	0	43	0	267386880	64	4233
2026-01-24 07:04:30.82	80.09	15.44	-46.4	-48.1	18.7	0.00e+00	0	43	0	269484032	64	4351
2026-01-24 07:04:31.83	79.96	15.53	-46.5	-48.1	18.6	0.00e+00	0	43	0	271581184	64	4384
2026-01-24 07:04:32.84	79.83	15.61	-46.4	-48.1	18.7	0.00e+00	0	43	0	273678336	64	4348
2026-01-24 07:04:33.85	79.69	15.70	-46.5	-48.1	18.7	0.00e+00	0	43	0	275775488	64	4367
2026-01-24 07:04:34.85	79.56	15.79	-46.5	-48.2	18.6	0.00e+00	0	43	0	276824064	64	4410
2026-01-24 07:04:35.86	79.43	15.88	-46.4	-48.1	18.7	0.00e+00	0	43	0	278921216	64	4345
2026-01-24 07:04:36.87	79.29	15.96	-46.3	-47.9	18.8	0.00e+00	0	43	0	281018368	64	4283
2026-01-24 07:04:37.88	79.15	16.05	-46.3	-47.9	18.9	0.00e+00	0	43	0	283115520	64	4281
2026-01-24 07:04:38.89	79.02	16.14	-46.1	-47.7	19.1	0.00e+00	0	43	0	285212672	64	4155
2026-01-24 07:04:39.89	78.88	16.23	-46.1	-47.6	19.2	0.00e+00	0	43	0	287309824	64	4127
2026-01-24 07:04:40.90	78.74	16.32	-46.0	-47.6	19.2	0.00e+00	0	43	0	288358400	64	4106
2026-01-24 07:04:41.91	78.60	16.41	-46.1	-47.6	19.2	0.00e+00	0	43	0	290455552	64	4118
2026-01-24 07:04:42.92	78.46	16.50	-46.0	-47.5	19.4	0.00e+00	0	43	0	292552704	63	4306
2026-01-24 07:04:43.93	78.32	16.58	-46.0	-47.5	19.4	0.00e+00	0	43	0	294649856	63	4312
2026-01-24 07:04:44.93	78.18	16.67	-46.0	-47.4	19.4	0.00e+00	0	43	0	295698432	63	4291
2026-01-24 07:04:45.94	78.03	16.76	-46.0	-47.5	19.4	0.00e+00	0	43	0	297795584	63	4310
2026-01-24 07:04:46.95	77.89	16.85	-46.0	-47.5	19.4	0.00e+00	0	43	0	299892736	63	4304
2026-01-24 07:04:47.96	77.74	16.94	-46.0	-47.5	19.4	0.00e+00	0	43	0	301989888	63	4334
2026-01-24 07:04:48.97	77.60	17.03	-45.9	-47.4	19.5	0.00e+00	0	43	0	304087040	63	4272
2026-01-24 07:04:49.97	77.45	17.12	-46.0	-47.5	19.4	0.00e+00	0	43	0	305135616	63	4333
2026-01-24 07:04:50.98	77.30	17.21	-45.9	-47.4	19.5	0.00e+00	0	43	0	307232768	63	4270
2026-01-24 07:04:51.99	77.15	17.30	-46.0	-47.4	19.5	0.00e+00	0	43	0	309329920	63	4283
2026-01-24 07:04:53.00	77.00	17.39	-45.9	-47.4	19.5	0.00e+00	0	43	0	311427072	62	4513
2026-01-24 07:04:54.00	76.86	17.48	-45.9	-47.3	19.5	0.00e+00	0	43	0	313524224	62	4478
2026-01-24 07:04:55.01	76.70	17.57	-45.8	-47.2	19.7	0.00e+00	0	43	0	315621376	62	4432
2026-01-24 07:04:56.02	76.55	17.66	-45.8	-47.2	19.7	0.00e+00	0	43	0	316669952	62	4432
2026-01-24 07:04:57.03	76.40	17.75	-45.8	-47.2	19.7	0.00e+00	0	43	0	318767104	62	4441
2026-01-24 07:04:58.03	76.25	17.84	-45.8	-47.2	19.7	0.00e+00	0	43	0	320864256	62	4434
2026-01-24 07:04:59.04	76.09	17.94	-45.6	-47.0	19.9	0.00e+00	0	43	0	322961408	62	4326
2026-01-24 07:05:00.05	75.93	18.03	-45.7	-47.1	19.8	0.00e+00	0	43	0	324009984	62	4365
2026-01-24 07:05:01.06	75.78	18.12	-45.8	-47.2	19.8	0.00e+00	0	43	0	326107136	62	4415
2026-01-24 07:05:02.07	75.62	18.21	-45.8	-47.2	19.8	0.00e+00	0	43	0	328204288	62	4407
2026-01-24 07:05:03.07	75.46	18.30	-45.7	-47.1	19.8	0.00e+00	0	43	0	330301440	62	4369
2026-01-24 07:05:04.08	75.30	18.39	-45.6	-47.0	19.9	0.00e+00	0	43	0	332398592	62	4334
2026-01-24 07:05:05.09	75.14	18.48	-45.7	-47.1	19.9	0.00e+00	0	43	0	334495744	62	4348
2026-01-24 07:05:06.10	74.98	18.58	-45.7	-47.1	19.9	0.00e+00	0	43	0	335544320	62	4350
2026-01-24 07:05:07.11	74.82	18.67	-45.5	-46.8	20.1	0.00e+00	0	43	0	337641472	61	4473
2026-01-24 07:05:08.11	74.65	18.76	-45.5	-46.9	20.1	0.00e+00	0	43	0	339738624	61	4511
2026-01-24 07:05:09.12	74.49	18.85	-45.7	-47.2	19.8	0.00e+00	0	43	0	341835776	62	4394
2026-01-24 07:05:10.12	74.32	18.94	-45.8	-47.2	19.7	0.00e+00	0	43	0	343932928	62	4439
2026-01-24 07:05:11.13	74.16	19.03	-45.7	-47.1	19.8	0.00e+00	0	43	0	344981504	62	4382
2026-01-24 07:05:12.14	73.99	19.13	-45.7	-47.1	19.8	0.00e+00	0	43	0	347078656	62	4371
2026-01-24 07:05:13.15	73.82	19.22	-45.7	-47.1	19.9	0.00e+00	0	43	0	349175808	62	4379
2026-01-24 07:05:14.16	73.65	19.31	-45.8	-47.2	19.8	0.00e+00	0	43	0	351272960	62	4408
2026-01-24 07:05:15.16	73.48	19.40	-45.8	-47.2	19.8	0.00e+00	0	43	0	352321536	62	4426
2026-01-24 07:05:16.17	73.31	19.50	-45.9	-47.4	19.6	0.00e+00	0	43	0	354418688	62	4513
2026-01-24 07:05:17.18	73.13	19.59	-45.9	-47.4	19.6	0.00e+00	0	43	0	356515840	62	4495
2026-01-24 07:05:18.19	72.96	19.68	-46.1	-47.6	19.4	0.00e+00	0	43	0	358612992	62	4607
2026-01-24 07:05:19.20	72.78	19.78	-46.1	-47.6	19.4	0.00e+00	0	43	0	360710144	62	4599
2026-01-24 07:05:20.21	72.61	19.87	-46.2	-47.7	19.3	0.00e+00	0	43	0	362807296	62	4704
2026-01-24 07:05:21.21	72.43	19.96	-46.2	-47.7	19.3	0.00e+00	0	43	0	363855872	63	4413
2026-01-24 07:05:22.22	72.25	20.05	-46.2	-47.7	19.3	0.00e+00	0	43	0	365953024	63	4417
2026-01-24 07:05:23.23	72.07	20.15	-46.3	-47.8	19.2	0.00e+00	0	43	0	368050176	63	4463
2026-01-24 07:05:24.24	71.89	20.24	-46.4	-47.9	19.1	0.00e+00	0	43	0	370147328	63	4520
2026-01-24 07:05:25.25	71.71	20.33	-46.3	-47.8	19.2	0.00e+00	0	43	0	372244480	63	4467
2026-01-24 07:05:26.25	71.53	20.43	-46.2	-47.7	19.3	0.00e+00	0	43	0	373293056	63	4437
2026-01-24 07:05:27.26	71.34	20.52	-46.2	-47.7	19.3	0.00e+00	0	43	0	375390208	63	4433
2026-01-24 07:05:28.27	71.16	20.61	-46.2	-47.7	19.4	0.00e+00	0	43	0	377487360	63	4409
2026-01-24 07:05:29.28	70.97	20.71	-46.2	-47.7	19.3	0.00e+00	0	43	0	379584512	63	4432
2026-01-24 07:05:30.28	70.79	20.80	-46.2	-47.8	19.3	0.00e+00	0	43	0	381681664	63	4442
2026-01-24 07:05:31.29	70.60	20.89	-46.3	-47.8	19.3	0.00e+00	0	43	0	382730240	63	4445
2026-01-24 07:05:32.30	70.41	20.99	-46.2	-47.6	19.4	0.00e+00	0	43	0	384827392	63	4390
2026-01-24 07:05:33.31	70.22	21.08	-46.1	-47.6	19.5	0.00e+00	0	43	0	386924544	63	4345
2026-01-24 07:05:34.31	70.03	21.17	-46.1	-47.5	19.6	0.00e+00	0	43	0	389021696	63	4335
2026-01-24 07:05:35.32	69.83	21.27	-46.1	-47.5	19.6	0.00e+00	0	43	0	391118848	63	4333
2026-01-24 07:05:36.33	69.64	21.36	-46.1	-47.6	19.5	0.00e+00	0	43	0	392167424	63	4364
2026-01-24 07:05:37.34	69.44	21.45	-46.0	-47.4	19.6	0.00e+00	0	43	0	394264576	63	4279
2026-01-24 07:05:38.35	69.24	21.55	-45.9	-47.3	19.8	0.00e+00	0	43	0	396361728	63	4223
2026-01-24 07:05:39.35	69.05	21.64	-45.8	-47.2	19.9	0.00e+00	0	43	0	398458880	62	4415
2026-01-24 07:05:40.36	68.85	21.73	-45.8	-47.2	19.9	0.00e+00	0	43	0	400556032	62	4396
2026-01-24 07:05:41.37	68.65	21.83	-45.6	-46.9	20.2	0.00e+00	0	43	0	401604608	62	4263
2026-01-24 07:05:42.38	68.45	21.92	-45.6	-47.0	20.1	0.00e+00	0	43	0	403701760	62	4319
2026-01-24 07:05:43.39	68.24	22.01	-45.7	-47.0	20.1	0.00e+00	0	43	0	405798912	62	4338
2026-01-24 07:05:44.40	68.04	22.10	-45.7	-47.0	20.0	0.00e+00	0	43	0	407896064	62	4338
2026-01-24 07:05:45.40	67.83	22.20	-45.7	-47.1	20.0	0.00e+00	0	43	0	409993216	62	4361
2026-01-24 07:05:46.41	67.63	22.29	-45.7	-47.1	20.1	0.00e+00	0	43	0	411041792	62	4351
2026-01-24 07:05:47.42	67.42	22.38	-45.7	-47.0	20.1	0.00e+00	0	43	0	413138944	62	4335
2026-01-24 07:05:48.43	67.21	22.48	-45.6	-46.9	20.3	0.00e+00	0	43	0	415236096	62	4257
2026-01-24 07:05:49.44	67.00	22.57	-45.6	-47.0	20.2	0.00e+00	0	43	0	417333248	62	4293
2026-01-24 07:05:50.45	66.79	22.66	-45.5	-46.8	20.3	0.00e+00	0	43	0	419430400	62	4225
2026-01-24 07:05:51.46	66.57	22.75	-45.3	-46.6	20.5	0.00e+00	0	43	0	420478976	62	4122
2026-01-24 07:05:52.47	66.36	22.85	-45.3	-46.6	20.5	0.00e+00	0	43	0	422576128	62	4141
2026-01-24 07:05:53.48	66.14	22.94	-45.2	-46.4	20.7	0.00e+00	0	43	0	424673280	61	4286
2026-01-24 07:05:54.48	65.93	23.03	-45.3	-46.6	20.5	0.00e+00	0	43	0	426770432	61	4352
2026-01-24 07:05:55.49	65.71	23.12	-45.2	-46.5	20.6	0.00e+00	0	43	0	428867584	61	4327
2026-01-24 07:05:56.50	65.49	23.22	-45.4	-46.7	20.5	0.00e+00	0	43	0	430964736	61	4412
2026-01-24 07:05:57.51	65.27	23.31	-45.3	-46.6	20.5	0.00e+00	0	43	0	432013312	61	4357
2026-01-24 07:05:58.51	65.05	23.40	-45.1	-46.5	20.6	0.00e+00	0	43	0	434110464	61	4321
2026-01-24 07:05:59.52	64.82	23.49	-45.1	-46.4	20.8	0.00e+00	0	43	0	436207616	61	4248
2026-01-24 07:06:00.53	64.60	23.58	-45.1	-46.4	20.8	0.00e+00	0	43	0	438304768	61	4243
2026-01-24 07:06:01.54	64.37	23.67	-45.0	-46.2	20.9	0.00e+00	0	43	0	439353344	60	4429
2026-01-24 07:06:02.55	64.15	23.76	-44.9	-46.1	21.0	0.00e+00	0	43	0	441450496	60	4378
2026-01-24 07:06:03.56	63.92	23.86	-44.9	-46.1	21.0	0.00e+00	0	43	0	443547648	60	4358
2026-01-24 07:06:04.57	63.69	23.95	-44.9	-46.1	21.1	0.00e+00	0	43	0	445644800	60	4345
2026-01-24 07:06:05.58	63.45	24.04	-44.9	-46.1	21.0	0.00e+00	0	43	0	447741952	60	4367
2026-01-24 07:06:06.59	63.22	24.13	-44.8	-46.0	21.1	0.00e+00	0	43	0	449839104	60	4324
2026-01-24 07:06:07.60	62.99	24.22	-44.9	-46.1	21.1	0.00e+00	0	43	0	450887680	60	4355
2026-01-24 07:06:08.60	62.75	24.31	-44.9	-46.1	21.0	0.00e+00	0	43	0	452984832	60	4383
2026-01-24 07:06:09.61	62.52	24.40	-44.8	-46.0	21.1	0.00e+00	0	43	0	455081984	60	4318
2026-01-24 07:06:10.62	62.28	24.49	-44.9	-46.1	21.1	0.00e+00	0	43	0	457179136	60	4345
2026-01-24 07:06:11.63	62.04	24.58	-44.9	-46.1	21.0	0.00e+00	0	43	0	459276288	60	4388
2026-01-24 07:06:12.64	61.80	24.67	-45.0	-46.2	20.9	0.00e+00	0	43	0	460324864	60	4416
2026-01-24 07:06:13.65	61.55	24.75	-44.9	-46.1	21.0	0.00e+00	0	43	0	462422016	60	4368
2026-01-24 07:06:14.65	61.31	24.84	-44.7	-45.8	21.2	0.00e+00	0	43	0	464519168	60	4239
2026-01-24 07:06:15.66	61.07	24.93	-44.7	-45.9	21.2	0.00e+00	0	43	0	466616320	60	4251
2026-01-24 07:06:16.67	60.82	25.02	-44.8	-46.0	21.1	0.00e+00	0	43	0	467664896	60	4310
2026-01-24 07:06:17.68	60.57	25.11	-44.9	-46.1	21.0	0.00e+00	0	43	0	469762048	60	4351
2026-01-24 07:06:18.69	60.32	25.19	-44.9	-46.1	20.9	0.00e+00	0	43	0	471859200	60	4387
2026-01-24 07:06:19.69	60.07	25.28	-44.9	-46.1	21.0	0.00e+00	0	43	0	473956352	60	4372
2026-01-24 07:06:20.70	59.82	25.37	-45.0	-46.2	20.9	0.00e+00	0	43	0	476053504	60	4413
2026-01-24 07:06:21.71	59.57	25.45	-45.1	-46.4	20.8	0.00e+00	0	43	0	478150656	60	4502
2026-01-24 07:06:22.72	59.31	25.54	-45.3	-46.6	20.6	0.00e+00	0	43	0	479199232	61	4351
2026-01-24 07:06:23.73	59.06	25.63	-45.3	-46.6	20.5	0.00e+00	0	43	0	481296384	61	4375
2026-01-24 07:06:24.74	58.80	25.71	-45.4	-46.6	20.5	0.00e+00	0	43	0	483393536	61	4390
2026-01-24 07:06:25.75	58.54	25.80	-45.4	-46.7	20.5	0.00e+00	0	43	0	485490688	61	4401
2026-01-24 07:06:26.76	58.28	25.88	-45.5	-46.8	20.4	0.00e+00	0	43	0	487587840	61	4469
2026-01-24 07:06:27.77	58.02	25.96	-45.6	-46.9	20.3	0.00e+00	0	43	0	488636416	61	4504
2026-01-24 07:06:28.77	57.76	26.05	-45.5	-46.9	20.3	0.00e+00	0	43	0	490733568	61	4499
2026-01-24 07:06:29.78	57.49	26.13	-45.6	-47.0	20.2	0.00e+00	0	43	0	492830720	61	4557
2026-01-24 07:06:30.79	57.22	26.21	-45.7	-47.0	20.2	0.00e+00	0	43	0	494927872	61	4580
2026-01-24 07:06:31.80	56.96	26.30	-45.7	-47.1	20.2	0.00e+00	0	43	0	497025024	62	4352
2026-01-24 07:06:32.81	56.69	26.38	-45.6	-46.9	20.3	0.00e+00	0	43	0	498073600	62	4270
2026-01-24 07:06:33.81	56.42	26.46	-45.6	-46.9	20.2	0.00e+00	0	43	0	500170752	62	4291
2026-01-24 07:06:34.82	56.15	26.54	-45.6	-46.9	20.4	0.00e+00	0	43	0	502267904	62	4259
2026-01-24 07:06:35.83	55.87	26.62	-45.7	-47.0	20.2	0.00e+00	0	43	0	504365056	62	4321
2026-01-24 07:06:36.84	55.60	26.70	-45.7	-47.1	20.2	0.00e+00	0	43	0	506462208	62	4355
2026-01-24 07:06:37.85	55.32	26.78	-45.9	-47.3	20.0	0.00e+00	0	43	0	507510784	62	4462
2026-01-24 07:06:38.86	55.05	26.86	-46.1	-47.5	19.8	0.00e+00	0	43	0	509607936	62	4574
2026-01-24 07:06:39.86	54.77	26.94	-45.8	-47.1	20.1	0.00e+00	0	43	0	511705088	62	4386
2026-01-24 07:06:40.87	54.49	27.02	-45.7	-47.1	20.2	0.00e+00	0	43	0	513802240	62	4342
2026-01-24 07:06:41.88	54.21	27.10	-45.8	-47.2	20.1	0.00e+00	0	43	0	515899392	62	4395
2026-01-24 07:06:42.89	53.92	27.17	-45.7	-47.1	20.2	0.00e+00	0	43	0	516947968	62	4353
2026-01-24 07:06:43.89	53.64	27.25	-45.9	-47.3	20.0	0.00e+00	0	43	0	519045120	62	4458
2026-01-24 07:06:44.90	53.36	27.32	-45.8	-47.2	20.1	0.00e+00	0	43	0	521142272	62	4395
2026-01-24 07:06:45.91	53.07	27.40	-45.6	-46.9	20.4	0.00e+00	0	43	0	523239424	62	4264
2026-01-24 07:06:46.92	52.78	27.47	-45.7	-47.1	20.2	0.00e+00	0	43	0	525336576	62	4357
2026-01-24 07:06:47.92	52.50	27.55	-45.8	-47.1	20.1	0.00e+00	0	43	0	526385152	62	4365
2026-01-24 07:06:48.93	52.20	27.62	-45.6	-46.8	20.4	0.00e+00	0	43	0	528482304	62	4242
2026-01-24 07:06:49.94	51.91	27.69	-45.5	-46.7	20.5	0.00e+00	0	44	0	530579456	62	4189
2026-01-24 07:06:50.95	51.62	27.77	-45.5	-46.7	20.6	0.00e+00	0	43	0	532676608	62	4186
2026-01-24 07:06:51.96	51.32	27.84	-45.5	-46.8	20.5	0.00e+00	0	43	0	534773760	62	4209
2026-01-24 07:06:52.96	51.03	27.91	-45.6	-47.0	20.3	0.00e+00	0	43	0	535822336	62	4304
2026-01-24 07:06:53.97	50.73	27.98	-45.8	-47.1	20.2	0.00e+00	0	43	0	537919488	62	4367
2026-01-24 07:06:54.98	50.43	28.05	-45.6	-47.0	20.3	0.00e+00	0	43	0	540016640	62	4300
2026-01-24 07:06:55.99	50.13	28.12	-45.6	-46.9	20.3	0.00e+00	0	43	0	542113792	62	4264
2026-01-24 07:06:56.99	49.83	28.19	-45.7	-47.0	20.2	0.00e+00	0	43	0	544210944	62	4339
2026-01-24 07:06:58.00	49.53	28.25	-45.7	-47.1	20.2	0.00e+00	0	43	0	545259520	62	4345
2026-01-24 07:06:59.01	49.23	28.32	-45.4	-47.1	20.2	0.00e+00	0	43	0	547356672	62	4372
2026-01-24 07:07:00.02	48.92	28.39	-45.8	-47.2	20.1	0.00e+00	0	43	0	549453824	62	4410
2026-01-24 07:07:01.02	48.62	28.45	-45.9	-47.3	20.0	0.00e+00	0	44	0	551550976	62	4454
2026-01-24 07:07:02.03	48.31	28.51	-45.9	-47.3	20.0	0.00e+00	0	43	0	553648128	62	4477
2026-01-24 07:07:03.04	48.00	28.58	-46.1	-47.5	19.8	0.00e+00	0	43	0	554696704	62	4581
2026-01-24 07:07:04.05	47.69	28.64	-46.0	-47.4	19.9	0.00e+00	0	43	0	556793856	62	4516
2026-01-24 07:07:05.06	47.38	28.70	-46.0	-47.4	19.9	0.00e+00	0	43	0	558891008	62	4518
2026-01-24 07:07:06.06	47.07	28.76	-45.9	-47.3	20.0	0.00e+00	0	43	0	560988160	62	4477
2026-01-24 07:07:07.07	46.75	28.82	-46.1	-47.5	19.8	0.00e+00	0	44	0	563085312	62	4568
2026-01-24 07:07:08.08	46.44	28.88	-46.0	-47.3	20.0	0.00e+00	0	43	0	564133888	62	4488
2026-01-24 07:07:09.08	46.12	28.94	-46.0	-47.4	19.9	0.00e+00	0	43	0	566231040	62	4511
2026-01-24 07:07:10.09	45.81	29.00	-46.0	-47.4	19.9	0.00e+00	0	43	0	568328192	62	4517
2026-01-24 07:07:11.10	45.49	29.06	-45.9	-47.3	20.0	0.00e+00	0	43	0	570425344	62	4478
2026-01-24 07:07:12.11	45.17	29.11	-46.0	-47.4	19.9	0.00e+00	0	43	0	572522496	62	4537
2026-01-24 07:07:13.12	44.85	29.17	-46.2	-47.6	19.7	0.00e+00	0	43	0	573571072	62	4638
2026-01-24 07:07:14.13	44.52	29.22	-46.5	-48.0	19.4	0.00e+00	0	43	0	575668224	63	4569
2026-01-24 07:07:15.14	44.20	29.28	-46.5	-48.0	19.4	0.00e+00	0	43	0	577765376	63	4549
2026-01-24 07:07:16.15	43.88	29.33	-46.6	-48.1	19.2	0.00e+00	0	43	0	579862528	63	4633
2026-01-24 07:07:17.16	43.55	29.38	-46.6	-48.1	19.2	0.00e+00	0	44	0	581959680	63	4626
2026-01-24 07:07:18.17	43.23	29.43	-46.7	-48.2	19.1	0.00e+00	0	43	0	583008256	63	4688
2026-01-24 07:07:19.17	42.90	29.48	-46.6	-48.1	19.2	0.00e+00	0	43	0	585105408	64	4371
2026-01-24 07:07:20.18	42.57	29.53	-46.4	-48.0	19.3	0.00e+00	0	43	0	587202560	64	4295
2026-01-24 07:07:21.19	42.24	29.58	-46.4	-48.0	19.3	0.00e+00	0	43	0	589299712	64	4297
2026-01-24 07:07:22.20	41.91	29.62	-46.7	-48.2	19.1	0.00e+00	0	43	0	591396864	63	4693
2026-01-24 07:07:23.21	41.58	29.67	-46.6	-48.1	19.2	0.00e+00	0	43	0	593494016	64	4365
2026-01-24 07:07:24.22	41.25	29.71	-46.4	-47.9	19.3	0.00e+00	0	43	0	594542592	64	4288
2026-01-24 07:07:25.23	40.92	29.76	-46.4	-47.8	19.4	0.00e+00	0	43	0	596639744	64	4239
2026-01-24 07:07:26.23	40.59	29.80	-46.4	-47.9	19.4	0.00e+00	0	43	0	598736896	64	4277
2026-01-24 07:07:27.24	40.25	29.84	-46.5	-48.0	19.3	0.00e+00	0	43	0	600834048	64	4307
2026-01-24 07:07:28.25	39.91	29.88	-46.5	-48.0	19.3	0.00e+00	0	43	0	601882624	63	4574
2026-01-24 07:07:29.26	39.58	29.92	-46.4	-47.9	19.5	0.00e+00	0	43	0	603979776	63	4516
2026-01-24 07:07:30.26	39.24	29.96	-46.3	-47.8	19.6	0.00e+00	0	43	0	606076928	63	4445
2026-01-24 07:07:31.27	38.91	30.00	-46.4	-47.8	19.5	0.00e+00	0	43	0	608174080	63	4485
2026-01-24 07:07:32.28	38.57	30.03	-46.4	-47.9	19.4	0.00e+00	0	43	0	610271232	63	4531
2026-01-24 07:07:33.29	38.23	30.07	-46.3	-47.7	19.6	0.00e+00	0	43	0	612368384	63	4435
2026-01-24 07:07:34.30	37.89	30.10	-46.3	-47.7	19.6	0.00e+00	0	43	0	613416960	63	4440
2026-01-24 07:07:35.30	37.55	30.14	-46.4	-47.8	19.5	0.00e+00	0	43	0	615514112	63	4488
2026-01-24 07:07:36.31	37.21	30.17	-46.6	-48.1	19.3	0.00e+00	0	43	0	617611264	63	4604
2026-01-24 07:07:37.31	36.87	30.20	-46.6	-48.2	19.2	0.00e+00	0	43	0	619708416	63	4660
2026-01-24 07:07:38.32	36.52	30.23	-46.7	-48.2	19.1	0.00e+00	0	43	0	621805568	64	4425
2026-01-24 07:07:39.33	36.18	30.26	-46.7	-48.2	19.0	0.00e+00	0	43	0	622854144	64	4427
2026-01-24 07:07:40.34	35.84	30.29	-46.8	-48.3	19.0	0.00e+00	0	43	0	624951296	64	4488
2026-01-24 07:07:41.35	35.49	30.31	-46.9	-48.5	18.8	0.00e+00	0	43	0	627048448	64	4596
2026-01-24 07:07:42.35	35.15	30.34	-46.8	-48.4	18.9	0.00e+00	0	43	0	629145600	64	4530
2026-01-24 07:07:43.36	34.80	30.36	-46.9	-48.5	18.8	0.00e+00	0	43	0	630194176	64	4585
2026-01-24 07:07:44.37	34.46	30.38	-46.9	-48.5	18.8	0.00e+00	0	43	0	632291328	64	4598
2026-01-24 07:07:45.37	34.11	30.41	-47.0	-48.6	18.6	0.00e+00	0	43	0	634388480	64	4642
2026-01-24 07:07:46.38	33.77	30.43	-46.9	-48.6	18.8	0.00e+00	0	43	0	636485632	64	4609
2026-01-24 07:07:47.39	33.42	30.45	-47.2	-48.9	18.4	0.00e+00	0	43	0	638582784	64	4765
2026-01-24 07:07:48.40	33.07	30.46	-47.3	-49.1	18.2	0.00e+00	0	43	0	640679936	65	4602
2026-01-24 07:07:49.41	32.72	30.48	-47.4	-49.1	18.2	0.00e+00	0	43	0	641728512	65	4633
2026-01-24 07:07:50.42	32.37	30.50	-47.3	-49.0	18.3	0.00e+00	0	43	0	643825664	65	4575
2026-01-24 07:07:51.42	32.03	30.51	-47.4	-49.1	18.2	0.00e+00	0	43	0	645922816	65	4623
2026-01-24 07:07:52.43	31.68	30.53	-47.4	-49.1	18.2	0.00e+00	0	43	0	648019968	65	4642
2026-01-24 07:07:53.44	31.33	30.54	-47.5	-49.3	18.0	0.00e+00	0	43	0	650117120	65	4733
2026-01-24 07:07:54.45	30.98	30.55	-47.6	-49.4	17.9	0.00e+00	0	43	0	651165696	65	4800
2026-01-24 07:07:55.45	30.63	30.56	-47.4	-49.2	18.2	0.00e+00	0	43	0	653262848	65	4665
2026-01-24 07:07:56.46	30.28	30.57	-47.2	-49.0	18.3	0.00e+00	0	43	0	655360000	65	4550
2026-01-24 07:07:57.47	29.93	30.57	-47.3	-49.0	18.3	0.00e+00	0	43	0	657457152	65	4593
2026-01-24 07:07:58.48	29.58	30.58	-47.5	-49.2	18.1	0.00e+00	0	44	0	658505728	65	4705
2026-01-24 07:07:59.49	29.23	30.59	-47.5	-49.3	17.9	0.00e+00	0	43	0	660602880	65	4758
2026-01-24 07:08:00.49	28.88	30.59	-47.6	-49.4	18.0	0.00e+00	0	44	0	662700032	65	4792
2026-01-24 07:08:01.50	28.53	30.59	-47.4	-49.2	18.2	0.00e+00	0	43	0	664797184	65	4665
2026-01-24 07:08:02.51	28.18	30.59	-47.3	-49.1	18.3	0.00e+00	0	43	0	666894336	65	4599
2026-01-24 07:08:03.52	27.82	30.59	-47.2	-48.9	18.4	0.00e+00	0	43	0	668991488	65	4536
2026-01-24 07:08:04.52	27.48	30.59	-47.1	-48.8	18.5	0.00e+00	0	43	0	670040064	65	4454
2026-01-24 07:08:05.53	27.13	30.59	-47.1	-48.7	18.6	0.00e+00	0	44	0	672137216	64	4702
2026-01-24 07:08:06.54	26.77	30.59	-47.1	-48.7	18.6	0.00e+00	0	43	0	674234368	64	4681
2026-01-24 07:08:07.55	26.42	30.58	-47.0	-48.6	18.7	0.00e+00	0	44	0	676331520	64	4639
2026-01-24 07:08:08.55	26.08	30.58	-46.9	-48.5	18.8	0.00e+00	0	43	0	678428672	64	4560
2026-01-24 07:08:09.56	25.73	30.57	-46.7	-48.3	19.1	0.00e+00	0	43	0	679477248	64	4450
2026-01-24 07:08:10.57	25.37	30.56	-46.7	-48.2	19.1	0.00e+00	0	43	0	681574400	64	4411
2026-01-24 07:08:11.57	25.03	30.55	-46.5	-48.0	19.3	0.00e+00	0	44	0	683671552	64	4331
2026-01-24 07:08:12.58	24.68	30.54	-46.7	-48.3	19.0	0.00e+00	0	43	0	685768704	64	4462
2026-01-24 07:08:13.59	24.33	30.53	-46.7	-48.3	19.1	0.00e+00	0	43	0	687865856	64	4442
2026-01-24 07:08:14.60	23.98	30.52	-46.6	-48.2	19.2	0.00e+00	0	43	0	688914432	64	4395
2026-01-24 07:08:15.61	23.63	30.50	-46.3	-47.8	19.5	0.00e+00	0	43	0	691011584	64	4215
2026-01-24 07:08:16.61	23.28	30.49	-46.3	-47.7	19.5	0.00e+00	0	43	0	693108736	64	4181
2026-01-24 07:08:17.62	22.93	30.47	-46.5	-48.0	19.5	0.00e+00	0	43	0	695205888	63	4558
2026-01-24 07:08:18.63	22.59	30.45	-46.7	-48.2	19.2	0.00e+00	0	43	0	697303040	63	4694
2026-01-24 07:08:19.64	22.24	30.43	-46.7	-48.3	19.1	0.00e+00	0	43	0	698351616	64	4467
2026-01-24 07:08:20.65	21.89	30.41	-46.8	-48.4	19.0	0.00e+00	0	43	0	700448768	64	4498
2026-01-24 07:08:21.66	21.54	30.39	-46.6	-48.1	19.3	0.00e+00	0	43	0	702545920	64	4352
2026-01-24 07:08:22.66	21.20	30.37	-46.7	-48.2	19.1	0.00e+00	0	43	0	704643072	64	4439
2026-01-24 07:08:23.67	20.85	30.35	-46.8	-48.4	18.9	0.00e+00	0	43	0	706740224	64	4496
2026-01-24 07:08:24.68	20.51	30.32	-46.7	-48.3	19.0	0.00e+00	0	43	0	707788800	64	4474
2026-01-24 07:08:25.68	20.17	30.30	-46.6	-48.2	19.2	0.00e+00	0	43	0	709885952	63	4655
2026-01-24 07:08:26.69	19.82	30.27	-46.5	-48.0	19.5	0.00e+00	0	43	0	711983104	63	4565
2026-01-24 07:08:27.70	19.48	30.24	-46.4	-47.9	19.4	0.00e+00	0	43	0	714080256	64	4275
2026-01-24 07:08:28.71	19.14	30.21	-46.3	-47.8	19.6	0.00e+00	0	43	0	716177408	63	4457
2026-01-24 07:08:29.72	18.79	30.18	-46.4	-47.9	19.5	0.00e+00	0	43	0	717225984	63	4513
2026-01-24 07:08:30.72	18.45	30.15	-46.5	-48.0	19.5	0.00e+00	0	44	0	719323136	63	4549
2026-01-24 07:08:31.73	18.11	30.12	-46.6	-48.1	19.3	0.00e+00	0	43	0	721420288	63	4628
2026-01-24 07:08:32.74	17.77	30.08	-46.7	-48.2	19.3	0.00e+00	0	43	0	723517440	63	4660
2026-01-24 07:08:33.75	17.43	30.05	-46.6	-48.1	19.3	0.00e+00	0	43	0	725614592	64	4345
2026-01-24 07:08:34.75	17.10	30.01	-46.6	-48.1	19.3	0.00e+00	0	43	0	726663168	63	4627
2026-01-24 07:08:35.76	16.76	29.98	-46.6	-48.1	19.4	0.00e+00	0	44	0	728760320	63	4608
2026-01-24 07:08:36.77	16.42	29.94	-46.5	-47.9	19.5	0.00e+00	0	43	0	730857472	63	4520
2026-01-24 07:08:37.78	16.08	29.90	-46.3	-47.7	19.8	0.00e+00	0	43	0	732954624	63	4423
2026-01-24 07:08:38.79	15.75	29.86	-46.3	-47.7	19.8	0.00e+00	0	43	0	735051776	63	4418
2026-01-24 07:08:39.79	15.42	29.82	-45.9	-48.0	19.4	0.00e+00	0	43	0	737148928	63	4574
2026-01-24 07:08:40.80	15.08	29.78	-46.6	-48.1	19.3	0.00e+00	0	43	0	738197504	63	4650
2026-01-24 07:08:41.81	14.75	29.73	-46.6	-48.2	19.2	0.00e+00	0	43	0	740294656	64	4400
2026-01-24 07:08:42.82	14.42	29.69	-46.6	-48.1	19.3	0.00e+00	0	43	0	742391808	63	4651
2026-01-24 07:08:43.83	14.09	29.64	-46.6	-48.1	19.3	0.00e+00	0	43	0	744488960	64	4354
2026-01-24 07:08:44.84	13.76	29.60	-46.7	-48.2	19.2	0.00e+00	0	43	0	745537536	64	4403
2026-01-24 07:08:45.84	13.43	29.55	-46.8	-48.3	19.1	0.00e+00	0	43	0	747634688	64	4488
2026-01-24 07:08:46.85	13.10	29.50	-46.9	-48.4	18.9	0.00e+00	0	43	0	749731840	64	4540
2026-01-24 07:08:47.86	12.77	29.45	-47.0	-48.6	18.7	0.00e+00	0	43	0	751828992	64	4644
2026-01-24 07:08:48.87	12.45	29.40	-47.0	-48.7	18.7	0.00e+00	0	43	0	753926144	64	4666
2026-01-24 07:08:49.88	12.12	29.35	-47.0	-48.7	18.7	0.00e+00	0	43	0	754974720	64	4654
2026-01-24 07:08:50.89	11.80	29.30	-47.1	-48.8	18.6	0.00e+00	0	43	0	757071872	64	4708
2026-01-24 07:08:51.89	11.48	29.25	-47.1	-48.7	18.6	0.00e+00	0	43	0	759169024	64	4698
2026-01-24 07:08:52.90	11.15	29.19	-47.1	-48.8	18.6	0.00e+00	0	43	0	761266176	64	4707
2026-01-24 07:08:53.91	10.83	29.14	-47.1	-48.8	18.5	0.00e+00	0	43	0	763363328	64	4735
2026-01-24 07:08:54.92	10.51	29.08	-47.1	-48.8	18.6	0.00e+00	0	43	0	765460480	64	4723
2026-01-24 07:08:55.93	10.19	29.03	-47.2	-48.8	18.5	0.00e+00	0	43	0	766509056	64	4750
2026-01-24 07:08:56.94	9.88	28.97	-47.2	-48.9	18.5	0.00e+00	0	43	0	768606208	65	4496
2026-01-24 07:08:57.95	9.56	28.91	-47.1	-48.7	18.6	0.00e+00	0	44	0	770703360	64	4697
2026-01-24 07:08:58.96	9.25	28.85	-47.1	-48.7	18.6	0.00e+00	0	43	0	772800512	64	4702
2026-01-24 07:08:59.96	8.93	28.79	-47.1	-48.8	18.5	0.00e+00	0	43	0	773849088	64	4727
2026-01-24 07:09:00.97	8.62	28.73	-47.2	-48.9	18.4	0.00e+00	0	43	0	775946240	65	4529
2026-01-24 07:09:01.98	8.31	28.67	-47.4	-49.2	18.1	0.00e+00	0	43	0	778043392	65	4698
2026-01-24 07:09:02.99	8.00	28.61	-47.6	-49.4	17.9	0.00e+00	0	44	0	780140544	65	4802
2026-01-24 07:09:04.00	7.69	28.54	-47.6	-49.4	17.9	0.00e+00	0	43	0	782237696	65	4778
2026-01-24 07:09:05.01	7.38	28.48	-47.5	-49.3	18.0	0.00e+00	0	44	0	784334848	65	4748
2026-01-24 07:09:06.02	7.07	28.41	-47.4	-49.2	18.2	0.00e+00	0	43	0	785383424	65	4652
2026-01-24 07:09:07.03	6.77	28.35	-47.4	-49.1	18.2	0.00e+00	0	43	0	787480576	65	4636
2026-01-24 07:09:08.03	6.47	28.28	-47.3	-49.0	18.3	0.00e+00	0	43	0	789577728	65	4549
2026-01-24 07:09:09.04	6.16	28.22	-47.2	-48.9	18.5	0.00e+00	0	43	0	791674880	65	4515
2026-01-24 07:09:10.05	5.86	28.15	-47.1	-48.7	18.6	0.00e+00	0	43	0	793772032	65	4421
2026-01-24 07:09:11.06	5.56	28.08	-47.0	-48.6	18.7	0.00e+00	0	43	0	794820608	65	4385
2026-01-24 07:09:12.07	5.26	28.01	-46.8	-48.4	18.9	0.00e+00	0	43	0	796917760	64	4511
2026-01-24 07:09:13.08	4.96	27.94	-46.7	-48.3	19.0	0.00e+00	0	43	0	799014912	64	4461
2026-01-24 07:09:14.09	4.67	27.87	-46.7	-48.2	19.1	0.00e+00	0	43	0	801112064	64	4429
2026-01-24 07:09:15.10	4.37	27.80	-46.8	-48.3	19.0	0.00e+00	0	43	0	803209216	64	4491
2026-01-24 07:09:16.11	4.08	27.73	-46.7	-48.3	19.0	0.00e+00	0	43	0	804257792	64	4466
2026-01-24 07:09:17.12	3.79	27.65	-46.8	-48.4	18.9	0.00e+00	0	43	0	806354944	64	4538
2026-01-24 07:09:18.12	3.50	27.58	-47.0	-48.6	18.7	0.00e+00	0	43	0	808452096	64	4628
2026-01-24 07:09:19.13	3.21	27.51	-46.9	-48.5	18.8	0.00e+00	0	43	0	810549248	64	4589
2026-01-24 07:09:20.14	2.92	27.43	-46.9	-48.5	18.8	0.00e+00	0	43	0	812646400	64	4552
2026-01-24 07:09:21.15	2.63	27.36	-46.5	-48.0	19.3	0.00e+00	0	43	0	813694976	64	4333
2026-01-24 07:09:22.16	2.35	27.28	-46.3	-47.7	19.6	0.00e+00	0	43	0	815792128	64	4175
2026-01-24 07:09:23.17	2.06	27.21	-46.4	-47.8	19.5	0.00e+00	0	43	0	817889280	63	4487
2026-01-24 07:09:24.17	1.78	27.13	-46.3	-47.7	19.7	0.00e+00	0	43	0	819986432	63	4413
2026-01-24 07:09:25.18	1.50	27.05	-46.3	-47.7	19.7	0.00e+00	0	43	0	822083584	63	4430
2026-01-24 07:09:26.19	1.22	26.98	-46.5	-48.0	19.4	0.00e+00	0	43	0	823132160	63	4585
2026-01-24 07:09:27.19	0.94	26.90	-46.7	-48.2	19.2	0.00e+00	0	43	0	825229312	63	4673
2026-01-24 07:09:28.20	0.67	26.82	-46.6	-48.2	19.1	0.00e+00	0	43	0	827326464	64	4394
2026-01-24 07:09:29.21	0.39	26.74	-46.5	-48.0	19.3	0.00e+00	0	43	0	829423616	64	4304
2026-01-24 07:09:30.22	0.11	26.66	-46.3	-47.7	19.5	0.00e+00	0	43	0	831520768	64	4187
2026-01-24 07:09:31.23	359.84	26.58	-46.1	-47.5	19.8	0.00e+00	0	43	0	832569344	64	4059
2026-01-24 07:09:32.23	359.57	26.50	-46.2	-47.7	19.7	0.00e+00	0	43	0	834666496	63	4395
2026-01-24 07:09:33.24	359.30	26.42	-46.3	-47.7	19.7	0.00e+00	0	43	0	836763648	63	4411
2026-01-24 07:09:34.25	359.03	26.34	-46.3	-47.7	19.6	0.00e+00	0	43	0	838860800	63	4419
2026-01-24 07:09:35.26	358.76	26.25	-46.1	-47.5	19.9	0.00e+00	0	43	0	840957952	62	4553
2026-01-24 07:09:36.27	358.50	26.17	-46.1	-47.5	19.8	0.00e+00	0	43	0	842006528	62	4551
2026-01-24 07:09:37.27	358.24	26.09	-46.0	-47.3	20.0	0.00e+00	0	43	0	844103680	62	4488
2026-01-24 07:09:38.28	357.97	26.00	-45.9	-47.2	20.0	0.00e+00	0	43	0	846200832	62	4440
2026-01-24 07:09:39.29	357.71	25.92	-45.9	-47.3	20.0	0.00e+00	0	43	0	848297984	62	4476
2026-01-24 07:09:40.30	357.45	25.84	-46.0	-47.4	19.9	0.00e+00	0	43	0	850395136	62	4517
2026-01-24 07:09:41.31	357.19	25.75	-46.1	-47.5	19.8	0.00e+00	0	43	0	851443712	62	4552
2026-01-24 07:09:42.31	356.93	25.67	-46.0	-47.4	19.9	0.00e+00	0	43	0	853540864	62	4537
2026-01-24 07:09:43.32	356.68	25.58	-45.7	-47.0	20.3	0.00e+00	0	43	0	855638016	62	4334
2026-01-24 07:09:44.33	356.42	25.50	-45.7	-47.1	20.2	0.00e+00	0	43	0	857735168	62	4356
2026-01-24 07:09:45.34	356.17	25.41	-45.7	-47.1	20.3	0.00e+00	0	43	0	859832320	62	4347
2026-01-24 07:09:46.35	355.92	25.32	-45.5	-46.8	20.5	0.00e+00	0	43	0	860880896	61	4489
2026-01-24 07:09:47.35	355.67	25.24	-45.4	-46.7	20.6	0.00e+00	0	43	0	862978048	61	4424
2026-01-24 07:09:48.36	355.42	25.15	-45.4	-46.7	20.6	0.00e+00	0	43	0	865075200	61	4410
2026-01-24 07:09:49.37	355.17	25.06	-45.3	-46.6	20.7	0.00e+00	0	43	0	867172352	61	4363
2026-01-24 07:09:50.38	354.92	24.97	-45.3	-46.6	20.7	0.00e+00	0	43	0	869269504	61	4362
2026-01-24 07:09:51.39	354.68	24.89	-45.2	-46.4	20.9	0.00e+00	0	43	0	871366656	61	4261
2026-01-24 07:09:52.39	354.44	24.80	-45.0	-46.2	21.1	0.00e+00	0	43	0	872415232	60	4399
2026-01-24 07:09:53.40	354.19	24.71	-44.9	-46.0	21.2	0.00e+00	0	43	0	874512384	60	4336
2026-01-24 07:09:54.41	353.95	24.62	-44.8	-46.0	21.2	0.00e+00	0	43	0	876609536	60	4300
2026-01-24 07:09:55.42	353.71	24.53	-44.6	-45.7	21.4	0.00e+00	0	43	0	878706688	60	4185
2026-01-24 07:09:56.43	353.47	24.44	-44.6	-45.7	21.5	0.00e+00	0	43	0	879755264	60	4182
2026-01-24 07:09:57.43	353.24	24.36	-44.4	-45.6	21.6	0.00e+00	0	43	0	881852416	60	4107
2026-01-24 07:09:58.44	353.00	24.27	-44.5	-45.6	21.6	0.00e+00	0	43	0	883949568	60	4143
2026-01-24 07:09:59.45	352.77	24.18	-44.4	-45.5	21.7	0.00e+00	0	43	0	886046720	60	4069
2026-01-24 07:10:00.46	352.53	24.08	-44.1	-45.2	22.0	0.00e+00	0	43	0	888143872	60	3914
2026-01-24 07:10:01.47	352.30	23.99	-44.4	-45.5	22.0	0.00e+00	0	43	0	889192448	59	4324
2026-01-24 07:10:02.47	352.08	23.90	-44.4	-45.6	21.9	0.00e+00	0	43	0	891289600	59	4349
2026-01-24 07:10:03.48	351.85	23.81	-44.6	-45.8	21.8	0.00e+00	0	43	0	893386752	59	4445
2026-01-24 07:10:04.49	351.62	23.72	-44.4	-45.5	21.7	0.00e+00	0	43	0	895483904	60	4076
2026-01-24 07:10:05.50	351.39	23.63	-44.1	-45.2	21.9	0.00e+00	0	43	0	897581056	60	3940
2026-01-24 07:10:06.51	351.17	23.54	-44.3	-45.4	22.0	0.00e+00	0	43	0	899678208	59	4276
2026-01-24 07:10:07.51	350.95	23.45	-44.2	-45.2	22.2	0.00e+00	0	43	0	900726784	59	4189
2026-01-24 07:10:08.52	350.72	23.36	-44.0	-45.0	22.4	0.00e+00	0	43	0	902823936	59	4081
2026-01-24 07:10:09.53	350.50	23.27	-43.8	-44.9	22.5	0.00e+00	0	43	0	904921088	59	4013
2026-01-24 07:10:10.54	350.28	23.17	-43.8	-44.8	22.6	0.00e+00	0	43	0	907018240	59	4003
2026-01-24 07:10:11.55	350.06	23.08	-43.7	-44.7	22.7	0.00e+00	0	43	0	908066816	59	3936
2026-01-24 07:10:12.55	349.85	22.99	-43.8	-44.8	22.6	0.00e+00	0	43	0	910163968	58	4228
2026-01-24 07:10:13.56	349.63	22.90	-43.7	-44.7	22.6	0.00e+00	0	43	0	912261120	58	4163
2026-01-24 07:10:14.57	349.42	22.81	-43.7	-44.7	22.6	0.00e+00	0	43	0	914358272	58	4190
2026-01-24 07:10:15.58	349.20	22.71	-43.8	-44.9	22.5	0.00e+00	0	43	0	916455424	58	4258
2026-01-24 07:10:16.59	348.99	22.62	-43.8	-44.8	22.5	0.00e+00	0	43	0	918552576	58	4230
2026-01-24 07:10:17.60	348.78	22.53	-43.7	-44.8	22.6	0.00e+00	0	43	0	919601152	58	4206
2026-01-24 07:10:18.60	348.57	22.44	-43.7	-44.7	22.6	0.00e+00	0	43	0	921698304	57	4416
2026-01-24 07:10:19.61	348.37	22.34	-43.7	-44.7	22.7	0.00e+00	0	43	0	923795456	58	4167
2026-01-24 07:10:20.62	348.16	22.25	-43.3	-44.5	22.8	0.00e+00	0	43	0	925892608	57	4295
2026-01-24 07:10:21.63	347.95	22.16	-43.5	-44.6	22.8	0.00e+00	0	43	0	927989760	57	4346
2026-01-24 07:10:22.63	347.75	22.07	-43.5	-44.5	22.8	0.00e+00	0	43	0	929038336	57	4313
2026-01-24 07:10:23.64	347.55	21.97	-43.6	-44.6	22.7	0.00e+00	0	43	0	931135488	57	4386
2026-01-24 07:10:24.65	347.35	21.88	-43.7	-44.7	22.6	0.00e+00	0	43	0	933232640	57	4421
2026-01-24 07:10:25.66	347.14	21.79	-43.7	-44.7	22.6	0.00e+00	0	43	0	935329792	58	4179
2026-01-24 07:10:26.67	346.94	21.69	-43.8	-44.9	22.5	0.00e+00	0	43	0	936378368	58	4262
2026-01-24 07:10:27.68	346.75	21.60	-43.8	-44.9	22.5	0.00e+00	0	43	0	938475520	58	4260
2026-01-24 07:10:28.68	346.55	21.51	-43.9	-44.9	22.4	0.00e+00	0	43	0	940572672	58	4288
2026-01-24 07:10:29.69	346.36	21.42	-44.0	-45.1	22.3	0.00e+00	0	43	0	942669824	58	4350
2026-01-24 07:10:30.70	346.16	21.32	-44.0	-45.0	22.3	0.00e+00	0	43	0	944766976	58	4332
2026-01-24 07:10:31.71	345.97	21.23	-43.9	-45.0	22.3	0.00e+00	0	43	0	946864128	58	4318
2026-01-24 07:10:32.71	345.78	21.14	-44.1	-45.2	22.2	0.00e+00	0	43	0	947912704	58	4402
2026-01-24 07:10:33.72	345.59	21.04	-44.1	-45.2	22.2	0.00e+00	0	43	0	950009856	58	4403
2026-01-24 07:10:34.73	345.40	20.95	-44.2	-45.3	22.1	0.00e+00	0	43	0	952107008	58	4445
2026-01-24 07:10:35.74	345.21	20.86	-44.3	-45.4	22.0	0.00e+00	0	43	0	954204160	59	4254
2026-01-24 07:10:36.75	345.02	20.76	-44.4	-45.5	21.8	0.00e+00	0	43	0	956301312	59	4327
2026-01-24 07:10:37.75	344.83	20.67	-44.3	-45.4	22.0	0.00e+00	0	43	0	957349888	59	4281
2026-01-24 07:10:38.76	344.65	20.58	-44.5	-45.6	21.8	0.00e+00	0	43	0	959447040	59	4371
2026-01-24 07:10:39.77	344.46	20.49	-44.4	-45.5	21.9	0.00e+00	0	43	0	961544192	59	4308
2026-01-24 07:10:40.78	344.28	20.39	-44.3	-45.5	21.9	0.00e+00	0	43	0	963641344	59	4292
2026-01-24 07:10:41.79	344.10	20.30	-44.4	-45.5	21.8	0.00e+00	0	43	0	965738496	59	4323
2026-01-24 07:10:42.79	343.92	20.21	-44.5	-45.6	21.8	0.00e+00	0	44	0	966787072	59	4378
2026-01-24 07:10:43.80	343.74	20.11	-44.6	-45.7	21.6	0.00e+00	0	43	0	968884224	59	4440
2026-01-24 07:10:44.81	343.56	20.02	-44.4	-45.6	21.5	0.00e+00	0	43	0	970981376	60	4126
2026-01-24 07:10:45.82	343.38	19.93	-44.6	-45.8	21.3	0.00e+00	0	43	0	973078528	60	4209
2026-01-24 07:10:46.83	343.21	19.84	-44.6	-45.8	21.3	0.00e+00	0	43	0	975175680	60	4222
2026-01-24 07:10:47.83	343.03	19.74	-44.7	-45.9	21.1	0.00e+00	0	43	0	976224256	60	4273
2026-01-24 07:10:48.84	342.86	19.65	-44.6	-45.8	21.3	0.00e+00	0	43	0	978321408	60	4208
2026-01-24 07:10:49.85	342.69	19.56	-44.6	-45.8	21.3	0.00e+00	0	43	0	980418560	60	4210
2026-01-24 07:10:50.86	342.51	19.47	-44.7	-45.9	21.1	0.00e+00	0	43	0	982515712	60	4253
2026-01-24 07:10:51.86	342.34	19.37	-44.6	-45.7	21.3	0.00e+00	0	43	0	984612864	60	4178
2026-01-24 07:10:52.87	342.17	19.28	-44.7	-45.9	21.2	0.00e+00	0	43	0	985661440	60	4250
2026-01-24 07:10:53.88	342.00	19.19	-44.8	-46.0	21.1	0.00e+00	0	43	0	987758592	60	4302
2026-01-24 07:10:54.89	341.84	19.10	-44.7	-45.9	21.1	0.00e+00	0	43	0	989855744	60	4273
2026-01-24 07:10:55.90	341.67	19.00	-44.9	-46.1	21.0	0.00e+00	0	43	0	991952896	60	4368
2026-01-24 07:10:56.91	341.50	18.91	-44.9	-46.2	20.9	0.00e+00	0	43	0	994050048	60	4413
2026-01-24 07:10:57.91	341.34	18.82	-44.9	-46.1	20.9	0.00e+00	0	43	0	995098624	60	4374
2026-01-24 07:10:58.92	341.18	18.73	-45.0	-46.3	20.7	0.00e+00	0	43	0	997195776	60	4472
2026-01-24 07:10:59.93	341.01	18.64	-45.0	-46.3	20.8	0.00e+00	0	43	0	999292928	60	4449
2026-01-24 07:11:00.94	340.85	18.55	-44.7	-46.2	20.9	0.00e+00	0	43	0	1001390080	60	4413
2026-01-24 07:11:01.95	340.69	18.45	-44.9	-46.1	20.9	0.00e+00	0	43	0	1003487232	60	4388
2026-01-24 07:11:02.96	340.53	18.36	-44.9	-46.2	20.9	0.00e+00	0	43	0	1004535808	60	4405
2026-01-24 07:11:03.96	340.37	18.27	-45.0	-46.3	20.8	0.00e+00	0	43	0	1006632960	60	4455
2026-01-24 07:11:04.97	340.21	18.18	-44.9	-46.2	20.9	0.00e+00	0	43	0	1008730112	60	4408
2026-01-24 07:11:05.98	340.06	18.09	-45.1	-46.4	20.7	0.00e+00	0	43	0	1010827264	60	4502
2026-01-24 07:11:06.98	339.90	18.00	-45.1	-46.4	20.7	0.00e+00	0	43	0	1012924416	60	4505
2026-01-24 07:11:08.00	339.75	17.91	-45.1	-46.4	20.6	0.00e+00	0	43	0	1015021568	60	4534
2026-01-24 07:11:09.00	339.59	17.82	-45.3	-46.5	20.5	0.00e+00	0	43	0	1016070144	61	4340
2026-01-24 07:11:10.01	339.44	17.73	-45.3	-46.6	20.5	0.00e+00	0	43	0	1018167296	61	4355
2026-01-24 07:11:11.02	339.29	17.64	-45.3	-46.6	20.5	0.00e+00	0	43	0	1020264448	61	4349
2026-01-24 07:11:12.03	339.14	17.55	-45.3	-46.6	20.4	0.00e+00	0	43	0	1022361600	61	4371
2026-01-24 07:11:13.03	338.99	17.46	-45.3	-46.6	20.4	0.00e+00	0	43	0	1023410176	61	4371
2026-01-24 07:11:14.04	338.84	17.37	-45.1	-46.5	20.5	0.00e+00	0	43	0	1025507328	61	4315
2026-01-24 07:11:15.05	338.69	17.28	-45.0	-46.5	20.5	0.00e+00	0	43	0	1027604480	61	4326
2026-01-24 07:11:16.06	338.54	17.19	-45.1	-46.5	20.4	0.00e+00	0	43	0	1029701632	60	4592
2026-01-24 07:11:17.07	338.39	17.10	-45.1	-46.6	20.3	0.00e+00	0	43	0	1031798784	60	4634
2026-01-24 07:11:18.07	338.25	17.01	-45.2	-46.7	20.3	0.00e+00	0	43	0	1032847360	60	4664
2026-01-24 07:11:19.08	338.10	16.92	-45.3	-46.8	20.2	0.00e+00	0	43	0	1034944512	61	4461
2026-01-24 07:11:20.09	337.96	16.83	-45.5	-46.9	20.1	0.00e+00	0	43	0	1037041664	61	4525
2026-01-24 07:11:21.10	337.82	16.74	-45.7	-47.1	19.8	0.00e+00	0	43	0	1039138816	61	4625
2026-01-24 07:11:22.11	337.67	16.65	-45.7	-47.1	19.9	0.00e+00	0	43	0	1041235968	61	4631
2026-01-24 07:11:23.11	337.53	16.56	-45.8	-47.2	19.9	0.00e+00	0	43	0	1043333120	62	4398
2026-01-24 07:11:24.12	337.39	16.47	-45.7	-47.1	19.9	0.00e+00	0	43	0	1044381696	61	4636
2026-01-24 07:11:25.13	337.25	16.38	-45.7	-47.0	20.0	0.00e+00	0	43	0	1046478848	62	4339
2026-01-24 07:11:26.13	337.12	16.30	-45.8	-47.2	19.9	0.00e+00	0	43	0	1048576000	62	4394
2026-01-24 07:11:27.14	336.98	16.21	-45.7	-47.1	19.9	0.00e+00	0	43	0	1050673152	62	4383
2026-01-24 07:11:28.15	336.84	16.12	-45.9	-47.3	19.7	0.00e+00	0	43	0	1051721728	62	4469
2026-01-24 07:11:29.16	336.70	16.03	-45.7	-47.1	19.9	0.00e+00	0	43	0	1053818880	62	4374
2026-01-24 07:11:30.17	336.57	15.94	-45.8	-47.3	19.8	0.00e+00	0	43	0	1055916032	62	4448
2026-01-24 07:11:31.17	336.43	15.86	-45.9	-47.3	19.8	0.00e+00	0	43	0	1058013184	62	4456
2026-01-24 07:11:32.18	336.30	15.77	-45.9	-47.3	19.8	6.10e-06	0	43	0	1060110336	62	4456
2026-01-24 07:11:33.19	336.17	15.68	-45.9	-47.4	19.7	0.00e+00	0	43	0	1062207488	62	4495
2026-01-24 07:11:34.20	336.03	15.59	-45.9	-47.4	19.6	0.00e+00	0	43	0	1063256064	62	4509
2026-01-24 07:11:35.21	335.90	15.51	-45.9	-47.4	19.6	0.00e+00	0	43	0	1065353216	62	4504
2026-01-24 07:11:36.21	335.77	15.42	-46.0	-47.5	19.5	0.00e+00	0	43	0	1067450368	62	4548
2026-01-24 07:11:37.22	335.64	15.33	-45.9	-47.4	19.6	0.00e+00	0	43	0	1069547520	62	4511
2026-01-24 07:11:38.23	335.51	15.25	-46.0	-47.5	19.5	0.00e+00	0	43	0	1071644672	62	4576
2026-01-24 07:11:39.24	335.38	15.16	-46.0	-47.5	19.5	0.00e+00	0	43	0	1072693248	62	4558
2026-01-24 07:11:40.25	335.26	15.07	-45.9	-47.4	19.6	0.00e+00	0	43	0	1074790400	62	4502
2026-01-24 07:11:41.25	335.13	14.99	-45.9	-47.4	19.6	0.00e+00	0	43	0	1076887552	62	4496
2026-01-24 07:11:42.26	335.00	14.90	-46.0	-47.5	19.5	0.00e+00	0	43	0	1078984704	62	4560
2026-01-24 07:11:43.27	334.88	14.81	-46.1	-47.5	19.4	0.00e+00	0	43	0	1080033280	62	4593
2026-01-24 07:11:44.28	334.75	14.73	-46.0	-47.5	19.4	0.00e+00	0	43	0	1082130432	62	4588
2026-01-24 07:11:45.29	334.63	14.64	-46.1	-47.6	19.4	0.00e+00	0	43	0	1084227584	62	4612
2026-01-24 07:11:46.30	334.51	14.56	-46.2	-47.7	19.3	0.00e+00	0	44	0	1086324736	63	4429
2026-01-24 07:11:47.30	334.38	14.47	-46.2	-47.7	19.3	0.00e+00	0	43	0	1088421888	62	4681
2026-01-24 07:11:48.31	334.26	14.39	-46.3	-47.8	19.1	0.00e+00	0	43	0	1090519040	63	4479
2026-01-24 07:11:49.32	334.14	14.30	-46.2	-47.7	19.3	0.00e+00	0	43	0	1091567616	63	4425
2026-01-24 07:11:50.33	334.02	14.22	-46.3	-47.8	19.1	0.00e+00	0	43	0	1093664768	63	4475
2026-01-24 07:11:51.33	333.90	14.13	-46.2	-47.8	19.2	0.00e+00	0	43	0	1095761920	63	4452
2026-01-24 07:11:52.34	333.78	14.05	-46.2	-47.7	19.2	0.00e+00	0	43	0	1097859072	63	4416
2026-01-24 07:11:53.35	333.66	13.97	-46.2	-47.7	19.3	0.00e+00	0	43	0	1099956224	62	4662
2026-01-24 07:11:54.36	333.55	13.88	-46.1	-47.6	19.3	0.00e+00	0	43	0	1101004800	62	4626
2026-01-24 07:11:55.37	333.43	13.80	-46.0	-47.5	19.4	0.00e+00	0	43	0	1103101952	62	4578
2026-01-24 07:11:56.37	333.31	13.71	-46.0	-47.5	19.4	0.00e+00	0	43	0	1105199104	62	4562
2026-01-24 07:11:57.38	333.20	13.63	-46.1	-47.6	19.3	0.00e+00	0	43	0	1107296256	62	4644
2026-01-24 07:11:58.39	333.08	13.55	-46.1	-47.6	19.3	0.00e+00	0	43	0	1109393408	62	4628
2026-01-24 07:11:59.40	332.97	13.46	-46.2	-47.7	19.2	0.00e+00	0	43	0	1110441984	63	4408
2026-01-24 07:12:00.40	332.86	13.38	-46.2	-47.8	19.1	0.00e+00	0	43	0	1112539136	63	4445
2026-01-24 07:12:01.41	332.74	13.30	-44.8	-47.9	19.0	0.00e+00	0	43	0	1114636288	63	4508
2026-01-24 07:12:02.42	332.63	13.22	-46.3	-47.8	19.0	0.00e+00	0	43	0	1116733440	63	4488
2026-01-24 07:12:03.43	332.52	13.13	-46.5	-48.1	18.8	0.00e+00	0	43	0	1118830592	63	4608
2026-01-24 07:12:04.43	332.41	13.05	-46.4	-48.0	18.9	0.00e+00	0	43	0	1119879168	63	4582
2026-01-24 07:12:05.44	332.30	12.97	-46.6	-48.2	18.7	0.00e+00	0	43	0	1121976320	63	4675
2026-01-24 07:12:06.45	332.19	12.89	-46.5	-48.1	18.8	0.00e+00	0	43	0	1124073472	63	4642
2026-01-24 07:12:07.46	332.08	12.80	-46.6	-48.2	18.7	0.00e+00	0	43	0	1126170624	63	4675
2026-01-24 07:12:08.47	331.97	12.72	-46.6	-48.2	18.6	0.00e+00	0	43	0	1128267776	63	4704
2026-01-24 07:12:09.48	331.86	12.64	-46.5	-48.1	18.7	0.00e+00	0	43	0	1129316352	63	4650
2026-01-24 07:12:10.49	331.75	12.56	-46.6	-48.3	18.6	0.00e+00	0	43	0	1131413504	63	4717
2026-01-24 07:12:11.49	331.65	12.48	-46.6	-48.2	18.6	0.00e+00	0	43	0	1133510656	63	4691
2026-01-24 07:12:12.50	331.54	12.40	-46.5	-48.1	18.8	0.00e+00	0	43	0	1135607808	63	4640
2026-01-24 07:12:13.51	331.44	12.32	-46.6	-48.3	18.6	0.00e+00	0	43	0	1137704960	63	4728
2026-01-24 07:12:14.52	331.33	12.24	-46.4	-48.0	18.8	0.00e+00	0	43	0	1138753536	63	4586
2026-01-24 07:12:15.53	331.23	12.16	-46.5	-48.1	18.7	0.00e+00	0	43	0	1140850688	63	4625
2026-01-24 07:12:16.54	331.12	12.08	-46.5	-48.1	18.7	0.00e+00	0	43	0	1142947840	63	4634
2026-01-24 07:12:17.55	331.02	12.00	-46.5	-48.1	18.7	0.00e+00	0	43	0	1145044992	63	4634
2026-01-24 07:12:18.55	330.92	11.92	-46.7	-48.4	18.5	0.00e+00	0	43	0	1147142144	63	4784
2026-01-24 07:12:19.56	330.82	11.84	-46.6	-48.3	18.4	0.00e+00	0	43	0	1148190720	64	4481
2026-01-24 07:12:20.57	330.71	11.76	-46.7	-48.5	18.3	0.00e+00	0	43	0	1150287872	64	4551
2026-01-24 07:12:21.58	330.61	11.68	-46.8	-48.5	18.2	0.00e+00	0	43	0	1152385024	64	4580
2026-01-24 07:12:22.58	330.51	11.60	-46.8	-48.5	18.2	0.00e+00	0	43	0	1154482176	64	4592
2026-01-24 07:12:23.60	330.41	11.52	-46.9	-48.7	18.0	0.00e+00	0	43	0	1156579328	64	4676
2026-01-24 07:12:24.60	330.31	11.44	-46.9	-48.7	18.0	0.00e+00	0	43	0	1157627904	64	4667
2026-01-24 07:12:25.61	330.22	11.36	-46.9	-48.7	18.0	0.00e+00	0	43	0	1159725056	64	4700
2026-01-24 07:12:26.62	330.12	11.28	-47.0	-48.8	17.9	0.00e+00	0	43	0	1161822208	64	4735
2026-01-24 07:12:27.63	330.02	11.20	-47.0	-48.8	17.9	0.00e+00	0	43	0	1163919360	64	4718
2026-01-24 07:12:28.64	329.92	11.12	-46.8	-48.6	18.2	0.00e+00	0	43	0	1166016512	64	4608
2026-01-24 07:12:29.65	329.83	11.05	-46.8	-48.6	18.1	0.00e+00	0	43	0	1167065088	64	4601
2026-01-24 07:12:30.66	329.73	10.97	-46.7	-48.4	18.3	0.00e+00	0	43	0	1169162240	64	4523
2026-01-24 07:12:31.67	329.64	10.89	-46.5	-48.2	18.5	0.00e+00	0	43	0	1171259392	64	4424
2026-01-24 07:12:32.67	329.54	10.81	-46.7	-48.4	18.3	0.00e+00	0	43	0	1173356544	64	4508
2026-01-24 07:12:33.68	329.45	10.74	-46.6	-48.3	18.5	0.00e+00	0	43	0	1175453696	63	4720
2026-01-24 07:12:34.69	329.35	10.66	-46.5	-48.1	18.6	0.00e+00	0	43	0	1177550848	63	4645
2026-01-24 07:12:35.70	329.26	10.58	-46.6	-48.3	18.5	0.00e+00	0	43	0	1178599424	63	4735
2026-01-24 07:12:36.71	329.17	10.50	-46.6	-48.3	18.5	0.00e+00	0	43	0	1180696576	63	4710
2026-01-24 07:12:37.71	329.07	10.43	-46.6	-48.3	18.4	0.00e+00	0	44	0	1182793728	64	4457
2026-01-24 07:12:38.72	328.98	10.35	-46.6	-48.2	18.4	0.00e+00	0	43	0	1184890880	64	4438
2026-01-24 07:12:39.73	328.89	10.27	-46.8	-48.6	18.1	0.00e+00	0	43	0	1185939456	64	4610
2026-01-24 07:12:40.74	328.80	10.20	-46.6	-48.3	18.3	0.00e+00	0	43	0	1188036608	64	4493
2026-01-24 07:12:41.75	328.71	10.12	-46.7	-48.5	18.2	0.00e+00	0	43	0	1190133760	64	4555
2026-01-24 07:12:42.75	328.62	10.05	-46.8	-48.6	18.1	0.00e+00	0	43	0	1192230912	64	4615
2026-01-24 07:12:43.76	328.53	9.97	-46.8	-48.5	18.1	0.00e+00	0	43	0	1194328064	64	4584
2026-01-24 07:12:44.77	328.44	9.89	-46.8	-48.6	18.0	0.00e+00	0	43	0	1195376640	64	4623
2026-01-24 07:12:45.78	328.35	9.82	-46.8	-48.6	18.0	0.00e+00	0	43	0	1197473792	64	4629
2026-01-24 07:12:46.79	328.27	9.74	-46.9	-48.7	17.9	0.00e+00	0	43	0	1199570944	64	4679
2026-01-24 07:12:47.79	328.18	9.67	-46.9	-48.7	17.9	0.00e+00	0	43	0	1201668096	64	4688
2026-01-24 07:12:48.80	328.09	9.59	-47.0	-48.9	17.8	0.00e+00	0	43	0	1203765248	64	4765
2026-01-24 07:12:49.81	328.01	9.52	-47.0	-48.9	17.7	0.00e+00	0	43	0	1205862400	64	4777
2026-01-24 07:12:50.82	327.92	9.44	-47.1	-49.0	17.6	0.00e+00	0	43	0	1206910976	64	4818
2026-01-24 07:12:51.83	327.83	9.37	-47.2	-49.2	17.4	0.00e+00	0	43	0	1209008128	65	4677
2026-01-24 07:12:52.83	327.75	9.30	-47.0	-48.8	17.8	0.00e+00	0	43	0	1211105280	65	4482
2026-01-24 07:12:53.84	327.66	9.22	-47.0	-48.9	17.6	0.00e+00	0	43	0	1213202432	64	4808
2026-01-24 07:12:54.85	327.58	9.15	-47.1	-49.1	17.5	0.00e+00	0	43	0	1214251008	64	4874
2026-01-24 07:12:55.86	327.50	9.07	-47.1	-49.0	17.6	0.00e+00	0	43	0	1216348160	64	4848
2026-01-24 07:12:56.87	327.41	9.00	-47.3	-49.3	17.2	0.00e+00	0	43	0	1218445312	65	4745
2026-01-24 07:12:57.87	327.33	8.93	-47.2	-49.1	17.4	0.00e+00	0	43	0	1220542464	65	4649
2026-01-24 07:12:58.88	327.25	8.85	-47.3	-49.2	17.3	0.00e+00	0	43	0	1222639616	65	4701
2026-01-24 07:12:59.89	327.17	8.78	-47.4	-49.4	17.2	0.00e+00	0	43	0	1224736768	65	4772
2026-01-24 07:13:00.90	327.08	8.71	-47.3	-49.3	17.2	0.00e+00	0	43	0	1225785344	65	4738
2026-01-24 07:13:01.91	327.00	8.63	-47.3	-49.3	17.2	0.00e+00	0	43	0	1227882496	65	4729
2026-01-24 07:13:02.91	326.92	8.56	-47.4	-49.4	17.1	0.00e+00	0	43	0	1229979648	65	4784
