passes_logs/2026/01/24/R3.2S_Murmansk/R3.2S_Murmansk__20260124_055258_KANOPUS-V_5_rec.log

#Pass ID: 20260124_055258_KANOPUS-V 5
#Satellite: KANOPUS-V 5
#Configuration: KANOPUS-V_8320
#almurnet v.1.7.20251203
#Start time: 2026-01-24 05:52:59

#Version: 2.2.20231116
#Station: R3.2S_Murmansk
#Location: 33.079688 lon 68.888172 lat
#TLE: 1 43876U 18111A   26023.64356892  .00004816  00000+0  20464-3 0  9993
#TLE: 2 43876  97.3677 292.0017 0001813  88.2876 271.8569 15.23520012392780

#Time	Az	El	Level	Level2	SNR	BER	BlckErr	Temp	State	Recorded	gain1	gain2
2026-01-24 05:52:59.64	108.70	2.07	-52.8	-61.6	3.8	7.45e-01	0	41	0	0	77	9787
2026-01-24 05:53:00.64	108.62	2.14	-52.8	-61.6	3.8	7.45e-01	0	42	104	0	76	10353
2026-01-24 05:53:01.65	108.55	2.20	-52.8	-61.6	3.8	7.46e-01	0	42	104	0	76	10334
2026-01-24 05:53:02.65	108.48	2.27	-52.8	-61.6	3.8	7.45e-01	0	42	104	0	76	10321
2026-01-24 05:53:03.66	108.40	2.34	-52.8	-61.6	3.8	7.47e-01	0	42	104	0	76	10311
2026-01-24 05:53:04.67	108.33	2.40	-52.8	-61.6	3.8	7.45e-01	0	42	104	0	76	10310
2026-01-24 05:53:05.68	108.25	2.47	-52.7	-61.6	3.8	7.44e-01	0	42	104	0	76	10346
2026-01-24 05:53:06.69	108.17	2.53	-52.7	-61.5	3.8	7.45e-01	0	42	104	0	76	10293
2026-01-24 05:53:07.70	108.10	2.60	-52.8	-61.6	3.8	7.45e-01	0	42	104	0	76	10338
2026-01-24 05:53:08.71	108.02	2.67	-52.8	-61.5	3.8	7.47e-01	0	42	104	0	76	10288
2026-01-24 05:53:09.72	107.94	2.73	-52.7	-61.5	3.8	7.44e-01	0	42	104	0	76	10268
2026-01-24 05:53:10.73	107.86	2.80	-52.7	-61.5	3.8	7.46e-01	0	42	104	0	76	10255
2026-01-24 05:53:11.74	107.78	2.87	-52.7	-61.5	3.8	7.46e-01	0	42	104	0	76	10265
2026-01-24 05:53:12.74	107.70	2.94	-52.7	-61.5	3.8	7.45e-01	0	42	104	0	76	10254
2026-01-24 05:53:13.75	107.62	3.00	-52.7	-61.6	3.8	7.46e-01	0	42	104	0	76	10304
2026-01-24 05:53:14.76	107.54	3.07	-52.7	-61.6	3.8	7.44e-01	0	42	104	0	76	10297
2026-01-24 05:53:15.77	107.46	3.14	-52.7	-61.5	3.8	7.45e-01	0	42	104	0	76	10276
2026-01-24 05:53:16.77	107.38	3.21	-52.7	-61.5	3.8	7.46e-01	0	42	104	0	76	10258
2026-01-24 05:53:17.78	107.30	3.28	-52.7	-61.5	3.8	7.45e-01	0	42	104	0	76	10228
2026-01-24 05:53:18.79	107.22	3.34	-52.7	-61.5	3.8	7.46e-01	0	42	104	0	76	10258
2026-01-24 05:53:19.80	107.13	3.41	-52.7	-61.5	3.8	7.46e-01	0	42	104	0	76	10234
2026-01-24 05:53:20.81	107.05	3.48	-52.7	-61.5	3.8	7.45e-01	0	42	104	0	76	10256
2026-01-24 05:53:21.82	106.97	3.55	-52.7	-61.5	3.8	7.45e-01	0	42	104	0	76	10178
2026-01-24 05:53:22.83	106.88	3.62	-52.7	-61.5	3.8	7.45e-01	0	42	104	0	76	10176
2026-01-24 05:53:23.84	106.80	3.69	-52.7	-61.4	3.8	7.45e-01	0	42	104	0	76	10170
2026-01-24 05:53:24.85	106.71	3.76	-52.7	-61.5	3.8	7.46e-01	0	42	104	0	76	10218
2026-01-24 05:53:25.86	106.63	3.83	-52.7	-61.5	3.8	7.44e-01	0	42	104	0	76	10218
2026-01-24 05:53:26.86	106.54	3.90	-52.7	-61.5	3.8	7.44e-01	0	42	104	0	76	10190
2026-01-24 05:53:27.87	106.45	3.97	-52.7	-61.4	3.8	7.44e-01	0	42	104	0	76	10168
2026-01-24 05:53:28.88	106.36	4.04	-52.7	-61.5	3.8	7.46e-01	0	42	104	0	76	10192
2026-01-24 05:53:29.89	106.28	4.11	-52.7	-61.5	3.8	7.46e-01	0	43	104	0	76	10210
2026-01-24 05:53:30.89	106.19	4.18	-52.7	-61.5	3.8	7.46e-01	0	42	104	0	76	10217
2026-01-24 05:53:31.90	106.10	4.25	-52.6	-61.3	3.8	7.44e-01	0	43	104	0	76	9977
2026-01-24 05:53:32.91	106.01	4.32	-52.5	-60.9	3.8	7.44e-01	0	43	104	0	76	9559
2026-01-24 05:53:33.92	105.92	4.40	-52.5	-60.6	3.8	7.45e-01	0	43	104	0	76	9187
2026-01-24 05:53:34.93	105.83	4.47	-52.5	-60.5	3.8	7.43e-01	0	43	104	0	76	9087
2026-01-24 05:53:35.94	105.73	4.54	-52.5	-60.6	3.8	7.45e-01	0	43	104	0	76	9259
2026-01-24 05:53:36.94	105.64	4.61	-52.6	-61.0	3.8	7.45e-01	0	43	104	0	76	9632
2026-01-24 05:53:37.95	105.55	4.68	-52.5	-60.5	3.8	7.44e-01	0	43	104	0	76	9147
2026-01-24 05:53:38.96	105.46	4.76	-51.7	-58.3	3.9	7.42e-01	0	43	104	0	75	7507
2026-01-24 05:53:39.97	105.36	4.83	-50.6	-55.3	5.4	6.82e-01	0	43	0	2097152	73	5986
2026-01-24 05:53:40.97	105.27	4.90	-49.2	-52.8	7.4	6.52e-01	0	43	0	16777216	70	5339
2026-01-24 05:53:41.98	105.17	4.97	-48.0	-51.1	9.0	6.28e-01	0	43	0	31457280	68	4874
2026-01-24 05:53:42.99	105.08	5.05	-47.3	-50.1	10.2	6.19e-01	0	43	0	48234496	66	4886
2026-01-24 05:53:44.00	104.98	5.12	-48.4	-51.6	8.8	6.34e-01	0	43	0	62914560	67	5502
2026-01-24 05:53:45.01	104.88	5.19	-47.2	-49.8	10.7	6.16e-01	0	43	0	77594624	65	5038
2026-01-24 05:53:46.02	104.78	5.27	-52.6	-60.6	3.8	7.45e-01	0	43	104	92274688	75	9748
2026-01-24 05:53:47.03	104.68	5.34	-51.9	-57.5	4.4	7.27e-01	0	43	104	92274688	74	7267
2026-01-24 05:53:48.03	104.59	5.42	-45.2	-47.4	13.1	6.08e-01	0	43	0	104857600	61	4784
2026-01-24 05:53:49.04	104.49	5.49	-44.9	-47.1	13.4	6.06e-01	0	43	0	121634816	61	4632
2026-01-24 05:53:50.05	104.39	5.56	-44.7	-46.9	13.6	6.04e-01	0	43	0	138412032	61	4513
2026-01-24 05:53:51.06	104.28	5.64	-44.8	-46.9	13.5	6.04e-01	0	43	0	153092096	61	4539
2026-01-24 05:53:52.07	104.18	5.71	-44.7	-46.9	13.5	6.06e-01	0	43	0	167772160	60	4790
2026-01-24 05:53:53.07	104.08	5.79	-44.8	-46.9	13.5	6.05e-01	0	43	0	184549376	60	4798
2026-01-24 05:53:54.09	103.98	5.87	-44.7	-46.9	13.6	6.07e-01	0	43	0	199229440	60	4781
2026-01-24 05:53:55.09	103.87	5.94	-44.9	-47.1	13.4	6.07e-01	0	43	0	213909504	60	4876
2026-01-24 05:53:56.10	103.77	6.02	-44.7	-46.8	13.6	6.08e-01	0	43	0	230686720	60	4747
2026-01-24 05:53:57.11	103.66	6.09	-44.7	-46.9	13.5	6.06e-01	0	43	0	245366784	60	4777
2026-01-24 05:53:58.12	103.56	6.17	-44.7	-46.8	13.6	6.07e-01	0	43	0	260046848	60	4753
2026-01-24 05:53:59.13	103.45	6.25	-44.7	-46.9	13.6	6.04e-01	0	43	0	276824064	60	4777
2026-01-24 05:54:00.14	103.34	6.32	-44.3	-46.4	14.0	6.05e-01	0	43	0	291504128	60	4530
2026-01-24 05:54:01.14	103.23	6.40	-44.2	-46.3	14.1	6.06e-01	0	43	0	308281344	60	4487
2026-01-24 05:54:02.15	103.12	6.48	-44.3	-46.4	14.1	6.06e-01	0	43	0	322961408	60	4519
2026-01-24 05:54:03.16	103.01	6.56	-44.1	-46.1	14.3	6.06e-01	0	43	0	339738624	60	4378
2026-01-24 05:54:04.17	102.90	6.63	-44.4	-46.5	14.1	6.06e-01	0	43	0	354418688	60	4566
2026-01-24 05:54:05.18	102.79	6.71	-44.3	-46.3	14.2	6.04e-01	0	43	0	369098752	60	4488
2026-01-24 05:54:06.19	102.68	6.79	-44.4	-46.5	14.0	6.06e-01	0	43	0	385875968	60	4572
2026-01-24 05:54:07.19	102.57	6.87	-44.3	-46.4	14.2	6.06e-01	0	43	0	400556032	60	4497
2026-01-24 05:54:08.20	102.45	6.95	-44.0	-46.0	14.5	6.05e-01	0	43	0	415236096	59	4577
2026-01-24 05:54:09.21	102.34	7.03	-43.9	-46.0	14.5	6.05e-01	0	43	0	432013312	59	4582
2026-01-24 05:54:10.22	102.22	7.10	-44.3	-46.4	14.2	6.05e-01	0	43	0	446693376	59	4788
2026-01-24 05:54:11.23	102.11	7.18	-44.0	-46.1	14.4	6.06e-01	0	43	0	461373440	59	4622
2026-01-24 05:54:12.24	101.99	7.26	-43.9	-46.0	14.5	6.04e-01	0	43	0	478150656	59	4583
2026-01-24 05:54:13.25	101.87	7.34	-44.2	-46.2	14.3	6.06e-01	0	43	0	494927872	59	4702
2026-01-24 05:54:14.26	101.75	7.42	-43.9	-45.9	14.6	6.04e-01	0	43	0	509607936	59	4536
2026-01-24 05:54:15.27	101.63	7.50	-43.9	-46.0	14.5	6.04e-01	0	43	0	524288000	59	4580
2026-01-24 05:54:16.27	101.51	7.58	-43.9	-46.0	14.5	6.05e-01	0	43	0	541065216	59	4586
2026-01-24 05:54:17.28	101.39	7.67	-43.8	-45.9	14.6	6.05e-01	0	43	0	555745280	59	4534
2026-01-24 05:54:18.29	101.27	7.75	-43.7	-45.7	14.8	6.04e-01	0	43	0	570425344	59	4432
2026-01-24 05:54:19.30	101.15	7.83	-43.8	-45.9	14.6	6.04e-01	0	43	0	587202560	59	4535
2026-01-24 05:54:20.31	101.02	7.91	-43.8	-45.9	14.7	6.03e-01	0	43	0	601882624	59	4514
2026-01-24 05:54:21.32	100.90	7.99	-43.8	-45.8	14.7	6.03e-01	0	43	0	616562688	59	4489
2026-01-24 05:54:22.33	100.77	8.07	-44.0	-46.1	14.5	6.04e-01	0	43	0	633339904	59	4604
2026-01-24 05:54:23.34	100.64	8.16	-43.8	-45.9	14.7	6.03e-01	0	43	0	648019968	59	4494
2026-01-24 05:54:24.35	100.52	8.24	-43.7	-45.8	14.8	6.02e-01	0	43	0	664797184	59	4470
2026-01-24 05:54:25.36	100.39	8.32	-43.5	-45.5	14.9	6.04e-01	0	43	0	679477248	58	4598
2026-01-24 05:54:26.36	100.26	8.41	-43.6	-45.6	14.9	6.04e-01	0	43	0	696254464	58	4630
2026-01-24 05:54:27.37	100.13	8.49	-43.6	-45.6	14.9	6.04e-01	0	43	0	710934528	58	4616
2026-01-24 05:54:28.38	100.00	8.57	-43.5	-45.6	14.9	6.04e-01	0	43	0	725614592	58	4608
2026-01-24 05:54:29.39	99.87	8.66	-43.6	-45.6	15.0	6.04e-01	0	43	0	742391808	58	4626
2026-01-24 05:54:30.40	99.73	8.74	-43.5	-45.5	15.0	6.05e-01	0	44	0	757071872	58	4595
2026-01-24 05:54:31.41	99.60	8.82	-43.4	-45.4	15.1	6.05e-01	0	43	0	771751936	58	4521
2026-01-24 05:54:32.42	99.46	8.91	-43.3	-45.4	15.2	6.02e-01	0	43	0	788529152	58	4494
2026-01-24 05:54:33.43	99.33	8.99	-43.4	-45.4	15.1	6.04e-01	0	43	0	803209216	58	4508
2026-01-24 05:54:34.43	99.19	9.08	-43.3	-45.3	15.2	6.03e-01	0	43	0	817889280	58	4481
2026-01-24 05:54:35.44	99.05	9.16	-43.4	-45.4	15.1	6.05e-01	0	43	0	834666496	58	4518
2026-01-24 05:54:36.45	98.91	9.25	-43.2	-45.2	15.3	6.03e-01	0	43	0	851443712	58	4393
2026-01-24 05:54:37.46	98.77	9.34	-43.2	-45.2	15.3	6.05e-01	0	43	0	866123776	58	4402
2026-01-24 05:54:38.47	98.63	9.42	-43.0	-45.0	15.4	6.05e-01	0	43	0	880803840	58	4333
2026-01-24 05:54:39.48	98.49	9.51	-43.1	-45.1	15.4	6.04e-01	0	43	0	897581056	58	4388
2026-01-24 05:54:40.48	98.35	9.60	-43.1	-45.2	15.3	6.04e-01	0	43	0	912261120	58	4417
2026-01-24 05:54:41.49	98.20	9.68	-43.2	-45.2	15.3	6.01e-01	0	43	0	926941184	58	4435
2026-01-24 05:54:42.50	98.05	9.77	-43.0	-45.1	15.4	6.02e-01	0	43	0	943718400	58	4368
2026-01-24 05:54:43.51	97.91	9.86	-42.8	-44.9	15.6	6.01e-01	0	43	0	958398464	57	4537
2026-01-24 05:54:44.51	97.76	9.94	-43.0	-45.1	15.3	6.02e-01	0	43	0	973078528	57	4644
2026-01-24 05:54:45.52	97.61	10.03	-42.8	-45.0	15.5	6.00e-01	0	43	0	989855744	57	4551
2026-01-24 05:54:46.53	97.46	10.12	-43.0	-45.1	15.4	6.05e-01	0	43	0	1004535808	57	4638
2026-01-24 05:54:47.54	97.31	10.21	-42.9	-45.0	15.5	6.02e-01	0	43	0	1019215872	57	4557
2026-01-24 05:54:48.54	97.16	10.30	-42.8	-44.9	15.5	6.05e-01	0	43	0	1035993088	57	4513
2026-01-24 05:54:49.55	97.01	10.39	-42.8	-44.9	15.6	6.03e-01	0	43	0	1052770304	57	4527
2026-01-24 05:54:50.56	96.85	10.48	-42.9	-45.0	15.5	6.04e-01	0	43	0	1067450368	57	4590
2026-01-24 05:54:51.57	96.69	10.57	-42.8	-44.9	15.6	6.04e-01	0	43	0	1082130432	57	4516
2026-01-24 05:54:52.58	96.54	10.66	-42.9	-45.0	15.5	6.02e-01	0	43	0	1098907648	57	4574
2026-01-24 05:54:53.59	96.38	10.75	-42.8	-44.9	15.6	6.04e-01	0	43	0	1113587712	57	4509
2026-01-24 05:54:54.60	96.22	10.84	-42.7	-44.7	15.8	6.01e-01	0	43	0	1128267776	57	4407
2026-01-24 05:54:55.61	96.06	10.93	-42.6	-44.5	16.0	6.01e-01	0	43	0	1145044992	57	4325
2026-01-24 05:54:56.62	95.90	11.02	-42.5	-44.4	16.0	6.02e-01	0	43	0	1159725056	57	4285
2026-01-24 05:54:57.63	95.73	11.11	-42.6	-44.6	15.9	6.04e-01	0	43	0	1174405120	56	4602
2026-01-24 05:54:58.64	95.57	11.20	-42.5	-44.4	16.0	6.00e-01	0	43	0	1189085184	56	4518
2026-01-24 05:54:59.64	95.40	11.29	-42.4	-44.3	16.1	6.02e-01	0	44	0	1207959552	56	4470
2026-01-24 05:55:00.65	95.24	11.38	-42.2	-44.2	16.3	6.03e-01	0	44	0	1222639616	56	4397
2026-01-24 05:55:01.66	95.07	11.48	-42.2	-44.1	16.3	6.02e-01	0	44	0	1237319680	56	4376
2026-01-24 05:55:02.67	94.90	11.57	-42.1	-44.0	16.4	6.04e-01	0	43	0	1254096896	56	4297
2026-01-24 05:55:03.68	94.73	11.66	-42.2	-44.0	16.6	6.05e-01	0	44	0	1268776960	55	4587
2026-01-24 05:55:04.68	94.55	11.75	-42.1	-44.0	16.6	6.04e-01	0	43	0	1283457024	55	4565
2026-01-24 05:55:05.69	94.38	11.85	-42.1	-44.0	16.5	6.04e-01	0	43	0	1298137088	55	4589
2026-01-24 05:55:06.70	94.21	11.94	-42.3	-44.2	16.4	6.04e-01	0	44	0	1314914304	55	4662
2026-01-24 05:55:07.71	94.03	12.03	-41.9	-43.8	16.7	6.03e-01	0	44	0	1329594368	55	4471
2026-01-24 05:55:08.72	93.85	12.13	-41.8	-43.7	16.8	6.00e-01	0	43	0	1344274432	55	4438
2026-01-24 05:55:09.73	93.67	12.22	-41.9	-43.8	16.7	6.00e-01	0	43	0	1361051648	55	4491
2026-01-24 05:55:10.74	93.49	12.32	-41.8	-43.8	16.8	6.00e-01	0	43	0	1375731712	55	4442
2026-01-24 05:55:11.74	93.31	12.41	-41.9	-43.8	16.7	6.02e-01	0	44	0	1392508928	55	4463
2026-01-24 05:55:12.75	93.13	12.50	-41.9	-43.8	16.7	6.02e-01	0	44	0	1409286144	55	4467
2026-01-24 05:55:13.76	92.94	12.60	-41.8	-43.8	16.7	6.01e-01	0	43	0	1423966208	55	4455
2026-01-24 05:55:14.77	92.75	12.69	-41.8	-43.8	16.7	6.00e-01	0	44	0	1438646272	55	4471
2026-01-24 05:55:15.77	92.57	12.79	-41.6	-43.6	16.9	6.00e-01	0	44	0	1453326336	55	4361
2026-01-24 05:55:16.78	92.38	12.89	-41.6	-43.6	16.9	6.01e-01	0	44	0	1470103552	55	4356
2026-01-24 05:55:17.79	92.19	12.98	-41.7	-43.6	16.9	5.97e-01	0	44	0	1484783616	55	4382
2026-01-24 05:55:18.80	91.99	13.08	-41.8	-43.7	16.8	6.02e-01	0	43	0	1499463680	55	4423
2026-01-24 05:55:19.81	91.80	13.17	-41.6	-43.6	16.9	5.99e-01	0	43	0	1516240896	55	4352
2026-01-24 05:55:20.81	91.60	13.27	-41.7	-43.6	16.9	5.97e-01	0	44	0	1530920960	55	4359
2026-01-24 05:55:21.82	91.41	13.37	-41.7	-43.6	16.9	6.00e-01	0	44	0	1545601024	55	4376
2026-01-24 05:55:22.83	91.21	13.46	-41.5	-43.4	17.1	5.98e-01	0	44	0	1562378240	55	4282
2026-01-24 05:55:23.84	91.01	13.56	-41.5	-43.4	17.0	6.02e-01	0	44	0	1577058304	55	4288
2026-01-24 05:55:24.85	90.81	13.66	-41.4	-43.4	17.1	6.01e-01	0	44	0	1593835520	54	4496
2026-01-24 05:55:25.86	90.60	13.76	-41.4	-43.3	17.2	6.04e-01	0	44	0	1608515584	54	4483
2026-01-24 05:55:26.86	90.40	13.85	-41.3	-43.2	17.3	6.01e-01	0	44	0	1625292800	54	4408
2026-01-24 05:55:27.87	90.19	13.95	-41.4	-43.2	17.2	5.98e-01	0	44	0	1639972864	54	4436
2026-01-24 05:55:28.88	89.98	14.05	-41.4	-43.2	17.3	5.98e-01	0	43	0	1654652928	54	4428
2026-01-24 05:55:29.89	89.77	14.15	-41.3	-43.1	17.3	6.02e-01	0	44	0	1671430144	54	4361
2026-01-24 05:55:30.90	89.56	14.25	-41.1	-42.9	17.4	6.03e-01	0	44	0	1686110208	54	4285
2026-01-24 05:55:31.91	89.35	14.35	-41.1	-42.9	17.5	6.02e-01	0	44	0	1700790272	54	4257
2026-01-24 05:55:32.92	89.13	14.45	-41.1	-42.8	17.6	6.02e-01	0	44	0	1717567488	54	4229
2026-01-24 05:55:33.92	88.91	14.55	-41.2	-42.9	17.4	6.02e-01	0	43	0	1732247552	54	4289
2026-01-24 05:55:34.94	88.69	14.65	-41.1	-42.9	17.5	5.99e-01	0	44	0	1746927616	54	4259
2026-01-24 05:55:35.94	88.47	14.74	-40.9	-42.7	17.6	6.00e-01	0	44	0	1763704832	53	4426
2026-01-24 05:55:36.95	88.25	14.84	-40.9	-42.7	17.6	5.96e-01	0	44	0	1780482048	53	4432
2026-01-24 05:55:37.96	88.03	14.94	-40.7	-42.5	17.7	5.98e-01	0	44	0	1795162112	53	4339
2026-01-24 05:55:38.97	87.80	15.04	-40.6	-42.5	17.8	5.97e-01	0	44	0	1809842176	53	4310
2026-01-24 05:55:39.98	87.57	15.15	-40.8	-42.7	17.7	6.01e-01	0	44	0	1826619392	53	4410
2026-01-24 05:55:40.99	87.34	15.25	-40.8	-42.7	17.6	6.03e-01	0	44	0	1841299456	53	4393
2026-01-24 05:55:42.00	87.11	15.35	-40.8	-42.7	17.7	6.00e-01	0	44	0	1855979520	53	4409
2026-01-24 05:55:43.01	86.88	15.45	-40.6	-42.5	17.8	6.00e-01	0	44	0	1872756736	53	4296
2026-01-24 05:55:44.02	86.64	15.55	-40.7	-42.5	17.8	6.02e-01	0	44	0	1887436800	53	4321
2026-01-24 05:55:45.02	86.41	15.65	-40.8	-42.7	17.7	6.01e-01	0	44	0	1902116864	53	4403
2026-01-24 05:55:46.03	86.17	15.75	-40.8	-42.7	17.7	5.98e-01	0	44	0	1918894080	53	4395
2026-01-24 05:55:47.04	85.93	15.85	-40.8	-42.6	17.7	6.00e-01	0	44	0	1935671296	53	4376
2026-01-24 05:55:48.05	85.68	15.95	-40.9	-42.7	17.7	5.99e-01	0	44	0	1950351360	53	4413
2026-01-24 05:55:49.06	85.44	16.05	-40.9	-42.8	17.6	5.94e-01	0	44	0	1965031424	53	4475
2026-01-24 05:55:50.07	85.19	16.15	-40.6	-42.5	17.9	5.93e-01	0	44	0	1981808640	53	4318
2026-01-24 05:55:51.08	84.94	16.26	-40.7	-42.6	17.8	5.93e-01	0	44	0	1996488704	53	4353
2026-01-24 05:55:52.09	84.69	16.36	-40.4	-42.3	18.0	5.94e-01	0	44	0	2011168768	52	4465
2026-01-24 05:55:53.10	84.44	16.46	-40.3	-42.2	18.1	5.93e-01	0	44	0	2027945984	52	4402
2026-01-24 05:55:54.10	84.18	16.56	-40.1	-42.0	18.2	5.93e-01	0	44	0	2042626048	52	4295
2026-01-24 05:55:55.11	83.93	16.66	-40.2	-42.1	18.2	5.93e-01	0	44	0	2057306112	52	4351
2026-01-24 05:55:56.12	83.67	16.76	-40.1	-41.9	18.3	5.94e-01	0	44	0	2074083328	52	4251
2026-01-24 05:55:57.13	83.41	16.86	-40.1	-41.9	18.3	5.93e-01	0	44	0	2088763392	52	4255
2026-01-24 05:55:58.13	83.14	16.97	-40.1	-41.9	18.3	5.93e-01	0	44	0	2103443456	52	4269
2026-01-24 05:55:59.14	82.88	17.07	-40.1	-41.9	18.4	5.94e-01	0	44	0	2120220672	51	4497
2026-01-24 05:56:00.15	82.61	17.17	-39.8	-41.6	18.6	5.93e-01	0	44	0	2136997888	51	4378
2026-01-24 05:56:01.16	82.34	17.27	-39.9	-41.7	18.5	5.92e-01	0	44	0	2151677952	51	4420
2026-01-24 05:56:02.17	82.07	17.37	-39.9	-41.7	18.5	5.92e-01	0	44	0	2166358016	51	4434
2026-01-24 05:56:03.17	81.80	17.47	-39.9	-41.8	18.5	5.93e-01	0	44	0	2183135232	51	4447
2026-01-24 05:56:04.18	81.52	17.57	-39.9	-41.8	18.4	5.93e-01	0	44	0	2197815296	51	4452
2026-01-24 05:56:05.19	81.24	17.68	-39.9	-41.8	18.4	5.93e-01	0	44	0	2212495360	51	4469
2026-01-24 05:56:06.20	80.96	17.78	-40.0	-41.9	18.3	5.93e-01	0	44	0	2229272576	51	4512
2026-01-24 05:56:07.21	80.68	17.88	-40.1	-42.0	18.3	5.94e-01	0	44	0	2243952640	51	4581
2026-01-24 05:56:08.22	80.39	17.98	-40.0	-41.9	18.3	5.93e-01	0	44	0	2258632704	51	4524
2026-01-24 05:56:09.23	80.11	18.08	-40.1	-42.0	18.2	5.93e-01	0	44	0	2275409920	51	4586
2026-01-24 05:56:10.23	79.82	18.18	-40.1	-42.0	18.2	5.95e-01	0	44	0	2290089984	51	4573
2026-01-24 05:56:11.24	79.53	18.28	-40.2	-42.1	18.2	5.99e-01	0	44	0	2304770048	51	4602
2026-01-24 05:56:12.25	79.23	18.38	-40.1	-42.0	18.2	5.99e-01	0	44	0	2321547264	51	4568
2026-01-24 05:56:13.26	78.94	18.48	-40.1	-42.0	18.3	5.98e-01	0	44	0	2338324480	51	4570
2026-01-24 05:56:14.27	78.64	18.58	-40.1	-42.0	18.2	5.99e-01	0	44	0	2353004544	51	4568
2026-01-24 05:56:15.27	78.34	18.68	-40.0	-41.9	18.4	5.99e-01	0	44	0	2367684608	51	4511
2026-01-24 05:56:16.28	78.04	18.78	-39.9	-41.8	18.5	5.98e-01	0	44	0	2384461824	51	4442
2026-01-24 05:56:17.29	77.73	18.88	-39.9	-41.8	18.4	5.98e-01	0	44	0	2399141888	51	4455
2026-01-24 05:56:18.30	77.42	18.98	-40.0	-41.8	18.5	5.98e-01	0	44	0	2413821952	51	4457
2026-01-24 05:56:19.30	77.11	19.08	-39.9	-41.6	18.6	5.99e-01	0	44	0	2430599168	51	4373
2026-01-24 05:56:20.31	76.80	19.18	-39.8	-41.6	18.6	6.03e-01	0	44	0	2445279232	51	4361
2026-01-24 05:56:21.32	76.49	19.28	-39.8	-41.6	18.6	6.00e-01	0	44	0	2459959296	51	4346
2026-01-24 05:56:22.33	76.17	19.37	-39.8	-41.6	18.6	6.00e-01	0	44	0	2476736512	51	4351
2026-01-24 05:56:23.33	75.85	19.47	-39.7	-41.6	18.6	5.97e-01	0	44	0	2491416576	51	4358
2026-01-24 05:56:24.34	75.53	19.57	-39.9	-41.7	18.5	6.01e-01	0	44	0	2508193792	51	4436
2026-01-24 05:56:25.35	75.21	19.67	-39.8	-41.7	18.6	6.00e-01	0	44	0	2522873856	51	4406
2026-01-24 05:56:26.36	74.88	19.76	-39.6	-41.6	18.5	6.02e-01	0	44	0	2539651072	51	4383
2026-01-24 05:56:27.37	74.55	19.86	-39.5	-41.6	18.6	6.01e-01	0	44	0	2554331136	51	4342
2026-01-24 05:56:28.38	74.22	19.96	-39.7	-41.7	18.6	6.01e-01	0	44	0	2569011200	51	4403
2026-01-24 05:56:29.38	73.89	20.05	-39.5	-41.5	18.7	6.00e-01	0	44	0	2585788416	50	4546
2026-01-24 05:56:30.39	73.55	20.15	-39.6	-41.6	18.6	6.02e-01	0	44	0	2600468480	50	4622
2026-01-24 05:56:31.40	73.21	20.24	-39.5	-41.4	18.7	6.01e-01	0	44	0	2615148544	50	4524
2026-01-24 05:56:32.41	72.87	20.33	-39.4	-41.2	18.8	6.01e-01	0	44	0	2631925760	50	4424
2026-01-24 05:56:33.41	72.53	20.43	-39.4	-41.2	18.8	6.00e-01	0	44	0	2646605824	50	4407
2026-01-24 05:56:34.42	72.18	20.52	-39.4	-41.1	18.8	5.99e-01	0	44	0	2661285888	50	4387
2026-01-24 05:56:35.42	71.84	20.61	-39.5	-41.3	18.8	6.03e-01	0	44	0	2675965952	50	4443
2026-01-24 05:56:36.43	71.49	20.70	-39.5	-41.3	18.7	6.02e-01	0	44	0	2692743168	50	4488
2026-01-24 05:56:37.44	71.14	20.80	-39.6	-41.4	18.7	6.01e-01	0	44	0	2707423232	50	4509
2026-01-24 05:56:38.45	70.78	20.89	-39.7	-41.5	18.6	6.00e-01	0	44	0	2724200448	50	4577
2026-01-24 05:56:39.45	70.43	20.98	-39.7	-41.5	18.6	6.01e-01	0	44	0	2740977664	50	4589
2026-01-24 05:56:40.46	70.07	21.06	-39.7	-41.6	18.6	6.01e-01	0	44	0	2755657728	50	4614
2026-01-24 05:56:41.47	69.70	21.15	-39.7	-41.6	18.5	6.03e-01	0	44	0	2770337792	50	4624
2026-01-24 05:56:42.48	69.34	21.24	-39.8	-41.7	18.5	6.02e-01	0	44	0	2785017856	50	4673
2026-01-24 05:56:43.49	68.97	21.33	-39.9	-41.8	18.4	6.03e-01	0	44	0	2801795072	50	4713
2026-01-24 05:56:44.49	68.60	21.41	-39.7	-41.5	18.6	6.01e-01	0	44	0	2816475136	50	4591
2026-01-24 05:56:45.50	68.23	21.50	-39.6	-41.5	18.7	6.02e-01	0	44	0	2831155200	50	4554
2026-01-24 05:56:46.51	67.86	21.59	-39.4	-41.4	18.8	6.02e-01	0	44	0	2847932416	50	4504
2026-01-24 05:56:47.52	67.48	21.67	-39.3	-41.2	18.8	6.00e-01	0	44	0	2862612480	50	4403
2026-01-24 05:56:48.53	67.10	21.75	-39.3	-41.2	18.8	6.01e-01	0	44	0	2877292544	50	4423
2026-01-24 05:56:49.54	66.72	21.84	-39.2	-41.2	18.9	5.99e-01	0	44	0	2894069760	50	4413
2026-01-24 05:56:50.54	66.34	21.92	-39.3	-41.3	18.8	6.04e-01	0	44	0	2910846976	50	4456
2026-01-24 05:56:51.55	65.95	22.00	-39.4	-41.3	18.8	5.97e-01	0	44	0	2925527040	50	4483
2026-01-24 05:56:52.56	65.56	22.08	-39.3	-41.2	18.8	6.01e-01	0	44	0	2940207104	50	4434
2026-01-24 05:56:53.57	65.17	22.16	-39.4	-41.3	18.8	6.01e-01	0	44	0	2956984320	50	4484
2026-01-24 05:56:54.58	64.78	22.23	-39.4	-41.3	18.8	6.00e-01	0	44	0	2971664384	50	4475
2026-01-24 05:56:55.59	64.39	22.31	-39.5	-41.4	18.6	5.98e-01	0	44	0	2986344448	50	4539
2026-01-24 05:56:56.59	63.99	22.38	-39.7	-41.6	18.6	5.99e-01	0	44	0	3003121664	50	4616
2026-01-24 05:56:57.60	63.59	22.46	-39.4	-41.4	18.8	6.00e-01	0	44	0	3017801728	50	4501
2026-01-24 05:56:58.61	63.19	22.53	-39.4	-41.4	18.8	6.01e-01	0	44	0	3032481792	50	4537
2026-01-24 05:56:59.62	62.79	22.61	-39.3	-41.3	18.8	6.01e-01	0	44	0	3049259008	50	4468
2026-01-24 05:57:00.63	62.38	22.68	-39.4	-41.5	18.7	6.02e-01	0	44	0	3063939072	50	4562
2026-01-24 05:57:01.63	61.98	22.75	-39.6	-41.7	18.6	6.02e-01	0	44	0	3078619136	50	4670
2026-01-24 05:57:02.64	61.57	22.82	-39.6	-41.7	18.5	6.00e-01	0	44	0	3095396352	50	4693
2026-01-24 05:57:03.65	61.16	22.88	-39.8	-41.8	18.5	6.02e-01	0	44	0	3112173568	50	4752
2026-01-24 05:57:04.66	60.74	22.95	-39.6	-41.6	18.6	6.01e-01	0	44	0	3126853632	50	4636
2026-01-24 05:57:05.67	60.33	23.02	-39.5	-41.6	18.6	6.02e-01	0	44	0	3141533696	50	4629
2026-01-24 05:57:06.68	59.91	23.08	-39.4	-41.6	18.6	6.02e-01	0	44	0	3158310912	50	4603
2026-01-24 05:57:07.68	59.49	23.14	-39.5	-41.6	18.6	6.02e-01	0	44	0	3172990976	50	4645
2026-01-24 05:57:08.69	59.07	23.20	-39.5	-41.6	18.6	6.00e-01	0	44	0	3187671040	50	4616
2026-01-24 05:57:09.70	58.65	23.26	-39.4	-41.4	18.7	6.01e-01	0	44	0	3204448256	50	4543
2026-01-24 05:57:10.71	58.22	23.32	-39.4	-41.3	18.8	6.02e-01	0	44	0	3219128320	50	4490
2026-01-24 05:57:11.71	57.80	23.38	-39.3	-41.3	18.8	6.00e-01	0	44	0	3233808384	50	4458
2026-01-24 05:57:12.72	57.37	23.43	-39.5	-41.5	18.7	6.03e-01	0	44	0	3250585600	50	4568
2026-01-24 05:57:13.73	56.94	23.49	-39.6	-41.7	18.5	6.01e-01	0	44	0	3265265664	50	4682
2026-01-24 05:57:14.74	56.51	23.54	-39.8	-41.9	18.4	6.01e-01	0	44	0	3279945728	50	4813
2026-01-24 05:57:15.75	56.07	23.59	-39.7	-41.9	18.4	6.00e-01	0	44	0	3296722944	50	4764
2026-01-24 05:57:16.76	55.64	23.64	-39.6	-41.7	18.6	6.00e-01	0	44	0	3313500160	50	4670
2026-01-24 05:57:17.76	55.21	23.69	-39.6	-41.7	18.6	6.01e-01	0	44	0	3328180224	50	4659
2026-01-24 05:57:18.77	54.77	23.74	-39.8	-41.9	18.5	6.00e-01	0	44	0	3342860288	50	4771
2026-01-24 05:57:19.78	54.33	23.79	-39.9	-42.0	18.3	5.99e-01	0	44	0	3359637504	50	4839
2026-01-24 05:57:20.79	53.89	23.83	-39.7	-41.9	18.4	6.03e-01	0	44	0	3374317568	50	4761
2026-01-24 05:57:21.79	53.45	23.87	-39.7	-41.9	18.5	6.01e-01	0	44	0	3388997632	50	4768
2026-01-24 05:57:22.80	53.00	23.91	-39.8	-42.0	18.4	6.01e-01	0	44	0	3405774848	50	4820
2026-01-24 05:57:23.81	52.56	23.95	-39.8	-42.0	18.4	6.02e-01	0	44	0	3420454912	50	4825
2026-01-24 05:57:24.82	52.11	23.99	-39.9	-42.0	18.3	6.00e-01	0	44	0	3435134976	50	4854
2026-01-24 05:57:25.82	51.67	24.03	-39.8	-41.9	18.4	6.01e-01	0	44	0	3451912192	50	4791
2026-01-24 05:57:26.83	51.22	24.06	-39.9	-42.0	18.3	6.01e-01	0	44	0	3466592256	50	4852
2026-01-24 05:57:27.84	50.77	24.09	-39.9	-42.0	18.3	6.01e-01	0	44	0	3481272320	50	4860
2026-01-24 05:57:28.85	50.32	24.12	-40.1	-42.2	18.1	6.00e-01	0	44	0	3498049536	50	4966
2026-01-24 05:57:29.86	49.87	24.15	-40.1	-42.3	18.1	6.02e-01	0	44	0	3514826752	50	5003
2026-01-24 05:57:30.86	49.42	24.18	-40.1	-42.3	18.1	6.00e-01	0	44	0	3529506816	50	5028
2026-01-24 05:57:31.87	48.97	24.21	-40.2	-42.4	18.0	5.99e-01	0	44	0	3544186880	51	4806
2026-01-24 05:57:32.88	48.51	24.23	-40.3	-42.6	18.0	6.00e-01	0	44	0	3560964096	51	4883
2026-01-24 05:57:33.89	48.06	24.25	-40.3	-42.6	18.0	6.01e-01	0	44	0	3575644160	51	4872
2026-01-24 05:57:34.89	47.60	24.27	-40.3	-42.6	17.9	5.99e-01	0	44	0	3590324224	51	4919
2026-01-24 05:57:35.90	47.15	24.29	-40.4	-42.7	17.9	6.04e-01	0	44	0	3607101440	51	4943
2026-01-24 05:57:36.91	46.69	24.31	-40.3	-42.6	18.0	6.02e-01	0	44	0	3621781504	51	4879
2026-01-24 05:57:37.92	46.23	24.32	-40.3	-42.6	17.9	6.03e-01	0	44	0	3636461568	51	4883
2026-01-24 05:57:38.93	45.78	24.34	-40.3	-42.5	17.9	6.02e-01	0	44	0	3653238784	51	4865
2026-01-24 05:57:39.94	45.32	24.35	-40.3	-42.6	17.9	6.00e-01	0	44	0	3667918848	51	4880
2026-01-24 05:57:40.95	44.86	24.36	-40.3	-42.8	17.8	6.01e-01	0	44	0	3684696064	51	4988
2026-01-24 05:57:41.96	44.40	24.37	-40.2	-42.7	17.8	6.01e-01	0	44	0	3699376128	51	4928
2026-01-24 05:57:42.96	43.95	24.37	-40.4	-42.8	17.8	6.01e-01	0	44	0	3716153344	51	5018
2026-01-24 05:57:43.97	43.49	24.38	-40.3	-42.7	17.8	6.02e-01	0	44	0	3730833408	51	4970
2026-01-24 05:57:44.98	43.03	24.38	-40.4	-42.9	17.8	6.02e-01	0	44	0	3745513472	51	5051
2026-01-24 05:57:45.99	42.57	24.38	-40.5	-42.9	17.7	6.00e-01	0	44	0	3762290688	51	5069
2026-01-24 05:57:47.00	42.11	24.38	-40.6	-43.0	17.7	6.01e-01	0	44	0	3776970752	51	5119
2026-01-24 05:57:48.01	41.65	24.38	-40.5	-42.9	17.7	6.03e-01	0	44	0	3791650816	51	5075
2026-01-24 05:57:49.01	41.19	24.37	-40.4	-42.8	17.8	6.03e-01	0	44	0	3808428032	51	5009
2026-01-24 05:57:50.02	40.73	24.37	-40.4	-42.8	17.8	5.99e-01	0	44	0	3823108096	51	5008
2026-01-24 05:57:51.03	40.28	24.36	-40.4	-42.7	17.8	6.06e-01	0	44	0	3837788160	51	4971
2026-01-24 05:57:52.04	39.82	24.35	-40.3	-42.7	17.9	6.00e-01	0	44	0	3854565376	51	4944
2026-01-24 05:57:53.05	39.36	24.34	-40.4	-42.8	17.8	6.02e-01	0	44	0	3871342592	51	4993
2026-01-24 05:57:54.06	38.90	24.32	-40.5	-42.9	17.7	6.01e-01	0	44	0	3886022656	51	5071
2026-01-24 05:57:55.07	38.44	24.31	-40.4	-42.8	17.8	6.01e-01	0	44	0	3900702720	51	5024
2026-01-24 05:57:56.08	37.99	24.29	-40.5	-42.9	17.7	6.00e-01	0	44	0	3917479936	51	5047
2026-01-24 05:57:57.09	37.53	24.27	-40.4	-42.8	17.8	6.00e-01	0	44	0	3932160000	51	5025
2026-01-24 05:57:58.09	37.08	24.25	-40.4	-42.8	17.7	6.03e-01	0	44	0	3946840064	51	5009
2026-01-24 05:57:59.10	36.62	24.23	-40.4	-42.7	17.8	6.00e-01	0	44	0	3963617280	51	4975
2026-01-24 05:58:00.11	36.17	24.21	-40.4	-42.8	17.8	6.03e-01	0	44	0	3978297344	51	5001
2026-01-24 05:58:01.12	35.72	24.18	-40.5	-43.0	17.7	6.01e-01	0	44	0	3992977408	51	5109
2026-01-24 05:58:02.13	35.26	24.15	-40.5	-43.0	17.6	6.00e-01	0	44	0	4009754624	51	5120
2026-01-24 05:58:03.14	34.81	24.12	-40.5	-43.0	17.7	6.02e-01	0	44	0	4024434688	51	5105
2026-01-24 05:58:04.14	34.37	24.09	-40.4	-42.8	17.8	6.01e-01	0	44	0	4041211904	51	5031
2026-01-24 05:58:05.15	33.92	24.06	-40.4	-42.7	17.8	5.99e-01	0	44	0	4055891968	51	4957
2026-01-24 05:58:06.16	33.47	24.03	-40.5	-42.8	17.7	6.01e-01	0	44	0	4072669184	51	4997
2026-01-24 05:58:07.17	33.02	23.99	-40.4	-42.8	17.7	6.02e-01	0	44	0	4087349248	51	4987
2026-01-24 05:58:08.17	32.58	23.95	-40.6	-43.0	17.6	5.98e-01	0	44	0	4102029312	51	5107
2026-01-24 05:58:09.18	32.14	23.91	-40.5	-43.0	17.6	6.01e-01	0	44	0	4118806528	51	5132
2026-01-24 05:58:10.19	31.69	23.87	-40.6	-43.1	17.6	6.00e-01	0	44	0	4133486592	51	5206
2026-01-24 05:58:11.19	31.26	23.83	-40.6	-43.2	17.6	6.01e-01	0	44	0	4148166656	51	5219
2026-01-24 05:58:12.20	30.81	23.79	-40.5	-42.9	17.7	6.02e-01	0	44	0	4162846720	51	5088
2026-01-24 05:58:13.21	30.37	23.74	-40.4	-42.8	17.8	6.02e-01	0	44	0	4179623936	51	5006
2026-01-24 05:58:14.22	29.94	23.69	-40.4	-42.8	17.8	6.00e-01	0	44	0	4194304000	51	4992
2026-01-24 05:58:15.23	29.50	23.64	-40.5	-42.8	17.8	6.00e-01	0	44	0	4208984064	51	5018
2026-01-24 05:58:16.23	29.07	23.59	-40.5	-42.9	17.7	6.01e-01	0	44	0	4225761280	51	5097
2026-01-24 05:58:17.24	28.64	23.54	-40.6	-43.0	17.6	6.01e-01	0	44	0	4242538496	51	5157
2026-01-24 05:58:18.25	28.21	23.49	-40.6	-43.0	17.7	6.01e-01	0	44	0	4257218560	51	5126
2026-01-24 05:58:19.26	27.78	23.44	-40.7	-43.0	17.7	6.01e-01	0	44	0	4271898624	51	5144
2026-01-24 05:58:20.27	27.35	23.38	-40.7	-43.0	17.6	6.01e-01	0	44	0	4288675840	52	4861
2026-01-24 05:58:21.27	26.93	23.32	-40.6	-42.9	17.8	6.01e-01	0	44	0	4303355904	52	4770
2026-01-24 05:58:22.28	26.50	23.26	-40.7	-43.0	17.6	6.01e-01	0	44	0	4318035968	52	4861
2026-01-24 05:58:23.29	26.08	23.20	-40.8	-43.1	17.6	5.96e-01	0	44	0	4334813184	52	4914
2026-01-24 05:58:24.30	25.66	23.14	-41.0	-43.3	17.4	6.01e-01	0	44	0	4349493248	52	5028
2026-01-24 05:58:25.31	25.24	23.08	-40.7	-43.0	17.6	6.00e-01	0	44	0	4364173312	52	4870
2026-01-24 05:58:26.32	24.82	23.02	-40.5	-42.8	17.7	5.99e-01	0	44	0	4380950528	52	4726
2026-01-24 05:58:27.32	24.41	22.95	-40.4	-42.7	17.8	5.98e-01	0	44	0	4395630592	52	4685
2026-01-24 05:58:28.33	24.00	22.88	-40.3	-42.6	17.9	5.98e-01	0	44	0	4410310656	52	4624
2026-01-24 05:58:29.34	23.59	22.82	-40.4	-42.6	17.9	6.00e-01	0	44	0	4427087872	52	4637
2026-01-24 05:58:30.35	23.18	22.75	-40.4	-42.6	17.9	5.97e-01	0	44	0	4443865088	52	4647
2026-01-24 05:58:31.36	22.77	22.68	-40.3	-42.7	17.9	5.97e-01	0	44	0	4458545152	52	4664
2026-01-24 05:58:32.36	22.37	22.61	-40.4	-42.8	17.7	5.96e-01	0	44	0	4473225216	52	4754
2026-01-24 05:58:33.37	21.97	22.53	-40.5	-42.9	17.6	5.97e-01	0	44	0	4490002432	52	4788
2026-01-24 05:58:34.38	21.56	22.46	-40.4	-42.8	17.7	6.00e-01	0	44	0	4504682496	52	4730
2026-01-24 05:58:35.39	21.17	22.39	-40.4	-42.8	17.7	6.00e-01	0	44	0	4519362560	52	4744
2026-01-24 05:58:36.40	20.77	22.31	-40.4	-42.7	17.8	6.00e-01	0	44	0	4536139776	52	4691
2026-01-24 05:58:37.40	20.38	22.24	-40.4	-42.6	17.9	5.94e-01	0	44	0	4550819840	52	4629
2026-01-24 05:58:38.41	19.99	22.16	-40.5	-42.7	17.8	5.99e-01	0	44	0	4565499904	52	4655
2026-01-24 05:58:39.42	19.60	22.08	-40.3	-42.5	18.0	5.98e-01	0	44	0	4582277120	52	4554
2026-01-24 05:58:40.43	19.21	22.00	-40.3	-42.5	17.9	5.98e-01	0	44	0	4596957184	52	4580
2026-01-24 05:58:41.44	18.83	21.92	-40.5	-42.7	17.8	5.96e-01	0	44	0	4611637248	52	4663
2026-01-24 05:58:42.44	18.45	21.84	-40.6	-42.8	17.8	5.98e-01	0	44	0	4628414464	52	4719
2026-01-24 05:58:43.45	18.07	21.76	-40.7	-42.9	17.7	5.98e-01	0	44	0	4645191680	52	4785
2026-01-24 05:58:44.46	17.69	21.67	-40.6	-42.8	17.8	5.99e-01	0	44	0	4659871744	52	4732
2026-01-24 05:58:45.46	17.32	21.59	-40.5	-42.7	17.8	5.98e-01	0	44	0	4674551808	52	4691
2026-01-24 05:58:46.47	16.94	21.51	-40.6	-42.8	17.8	5.98e-01	0	44	0	4691329024	52	4711
2026-01-24 05:58:47.48	16.57	21.42	-40.4	-42.6	17.9	5.99e-01	0	44	0	4706009088	52	4622
2026-01-24 05:58:48.49	16.20	21.33	-40.4	-42.6	17.9	5.99e-01	0	44	0	4720689152	52	4621
2026-01-24 05:58:49.49	15.84	21.25	-40.5	-42.7	17.8	5.98e-01	0	44	0	4737466368	52	4675
2026-01-24 05:58:50.50	15.47	21.16	-40.5	-42.8	17.7	6.00e-01	0	44	0	4752146432	52	4732
2026-01-24 05:58:51.51	15.11	21.07	-40.5	-42.8	17.6	6.01e-01	0	44	0	4766826496	52	4753
2026-01-24 05:58:52.52	14.75	20.98	-40.7	-43.1	17.4	5.99e-01	0	44	0	4783603712	52	4882
2026-01-24 05:58:53.53	14.40	20.89	-40.4	-42.8	17.6	5.97e-01	0	44	0	4798283776	52	4756
2026-01-24 05:58:54.54	14.04	20.80	-40.5	-42.8	17.7	5.97e-01	0	44	0	4812963840	52	4759
2026-01-24 05:58:55.54	13.69	20.71	-40.8	-43.0	17.5	5.97e-01	0	44	0	4829741056	52	4856
2026-01-24 05:58:56.55	13.34	20.62	-40.6	-42.9	17.6	5.97e-01	0	44	0	4846518272	52	4777
2026-01-24 05:58:57.56	13.00	20.53	-40.6	-42.8	17.7	5.97e-01	0	44	0	4861198336	52	4748
2026-01-24 05:58:58.57	12.65	20.43	-40.5	-42.7	17.8	5.98e-01	0	44	0	4875878400	52	4684
2026-01-24 05:58:59.58	12.31	20.34	-40.5	-42.7	17.7	5.97e-01	0	44	0	4892655616	52	4704
2026-01-24 05:59:00.58	11.97	20.25	-40.6	-42.9	17.7	6.02e-01	0	44	0	4907335680	52	4766
2026-01-24 05:59:01.59	11.63	20.15	-40.7	-42.9	17.7	5.97e-01	0	44	0	4922015744	52	4763
2026-01-24 05:59:02.60	11.30	20.06	-40.7	-42.9	17.6	5.97e-01	0	44	0	4938792960	52	4796
2026-01-24 05:59:03.61	10.97	19.96	-40.8	-43.1	17.5	5.97e-01	0	44	0	4953473024	52	4892
2026-01-24 05:59:04.62	10.63	19.87	-40.8	-43.0	17.5	6.01e-01	0	44	0	4968153088	52	4859
2026-01-24 05:59:05.62	10.31	19.77	-41.0	-43.2	17.4	5.95e-01	0	44	0	4984930304	52	4955
2026-01-24 05:59:06.63	9.98	19.68	-40.9	-43.1	17.4	5.99e-01	0	44	0	4999610368	52	4888
2026-01-24 05:59:07.64	9.66	19.58	-40.6	-42.9	17.6	5.97e-01	0	44	0	5014290432	52	4761
2026-01-24 05:59:08.65	9.34	19.48	-40.6	-42.8	17.7	6.02e-01	0	44	0	5031067648	52	4746
2026-01-24 05:59:09.65	9.02	19.39	-40.6	-42.8	17.6	6.00e-01	0	44	0	5047844864	52	4753
2026-01-24 05:59:10.66	8.71	19.29	-40.8	-43.0	17.5	5.95e-01	0	44	0	5062524928	52	4856
2026-01-24 05:59:11.67	8.39	19.19	-40.8	-43.1	17.4	5.97e-01	0	44	0	5077204992	52	4909
2026-01-24 05:59:12.68	8.08	19.09	-40.8	-43.1	17.3	5.98e-01	0	44	0	5093982208	52	4918
2026-01-24 05:59:13.69	7.77	18.99	-40.8	-43.1	17.4	5.98e-01	0	44	0	5108662272	52	4878
2026-01-24 05:59:14.69	7.47	18.89	-40.9	-43.2	17.3	5.97e-01	0	44	0	5123342336	52	4974
2026-01-24 05:59:15.70	7.16	18.80	-41.0	-43.3	17.3	5.96e-01	0	44	0	5140119552	52	5024
2026-01-24 05:59:16.72	6.86	18.69	-40.9	-43.2	17.3	5.95e-01	0	44	0	5154799616	52	4980
2026-01-24 05:59:17.72	6.56	18.60	-40.8	-43.1	17.4	5.93e-01	0	44	0	5169479680	52	4885
2026-01-24 05:59:18.73	6.26	18.50	-40.9	-43.2	17.3	5.96e-01	0	44	0	5186256896	52	4969
2026-01-24 05:59:19.74	5.97	18.40	-41.0	-43.3	17.3	5.95e-01	0	44	0	5200936960	52	5003
2026-01-24 05:59:20.75	5.67	18.30	-41.1	-43.3	17.3	5.96e-01	0	44	0	5217714176	52	5027
2026-01-24 05:59:21.75	5.39	18.20	-41.2	-43.4	17.3	5.96e-01	0	44	0	5232394240	52	5052
2026-01-24 05:59:22.76	5.10	18.10	-41.0	-43.2	17.4	5.96e-01	0	44	0	5249171456	52	4946
2026-01-24 05:59:23.77	4.81	17.99	-41.0	-43.2	17.4	5.99e-01	0	44	0	5263851520	52	4962
2026-01-24 05:59:24.78	4.53	17.89	-41.0	-43.2	17.4	5.93e-01	0	44	0	5278531584	52	4953
2026-01-24 05:59:25.79	4.25	17.79	-41.1	-43.3	17.3	5.93e-01	0	44	0	5295308800	52	5030
2026-01-24 05:59:26.79	3.97	17.69	-41.3	-43.5	17.2	5.92e-01	0	44	0	5309988864	53	4830
2026-01-24 05:59:27.80	3.69	17.59	-41.3	-43.6	17.2	5.93e-01	0	44	0	5324668928	53	4873
2026-01-24 05:59:28.81	3.41	17.49	-41.1	-43.4	17.2	5.94e-01	0	44	0	5339348992	53	4776
2026-01-24 05:59:29.82	3.14	17.39	-41.1	-43.3	17.4	5.93e-01	0	44	0	5356126208	53	4729
2026-01-24 05:59:30.83	2.87	17.29	-41.2	-43.5	17.2	5.93e-01	0	44	0	5370806272	53	4838
2026-01-24 05:59:31.83	2.60	17.19	-41.2	-43.4	17.3	5.93e-01	0	44	0	5385486336	53	4791
2026-01-24 05:59:32.84	2.34	17.09	-41.1	-43.3	17.3	5.94e-01	0	44	0	5404360704	53	4750
2026-01-24 05:59:33.85	2.07	16.99	-41.0	-43.2	17.4	5.94e-01	0	44	0	5419040768	53	4677
2026-01-24 05:59:34.86	1.81	16.88	-42.7	-43.5	17.3	5.94e-01	0	44	0	5433720832	55	4306
2026-01-24 05:59:35.87	1.55	16.78	-54.2	-63.1	3.9	7.44e-01	0	44	0	5450498048	69	18411
2026-01-24 05:59:36.88	1.29	16.68	-53.9	-62.8	3.8	7.45e-01	0	44	104	5450498048	78	10538
2026-01-24 05:59:37.88	1.04	16.58	-53.9	-62.7	3.8	7.45e-01	0	44	104	5450498048	78	10499
2026-01-24 05:59:38.89	0.78	16.48	-53.9	-62.7	3.8	7.44e-01	0	44	104	5450498048	78	10431
2026-01-24 05:59:39.90	0.53	16.38	-53.8	-62.7	3.8	7.47e-01	0	44	104	5450498048	78	10427
2026-01-24 05:59:40.91	0.28	16.28	-53.8	-62.7	3.8	7.47e-01	0	44	104	5450498048	78	10414
2026-01-24 05:59:41.91	0.03	16.18	-53.8	-62.6	3.8	7.47e-01	0	44	104	5450498048	78	10387
2026-01-24 05:59:42.92	359.79	16.08	-53.8	-62.6	3.8	7.47e-01	0	44	104	5450498048	78	10371
2026-01-24 05:59:43.93	359.54	15.98	-53.8	-62.6	3.8	7.46e-01	0	44	104	5450498048	78	10336
2026-01-24 05:59:44.94	359.30	15.87	-53.8	-62.6	3.8	7.46e-01	0	44	104	5450498048	78	10385
2026-01-24 05:59:45.95	359.06	15.77	-53.8	-62.6	3.8	7.45e-01	0	44	104	5450498048	78	10329
2026-01-24 05:59:46.96	358.82	15.67	-53.8	-62.6	3.8	7.46e-01	0	44	104	5450498048	78	10323
2026-01-24 05:59:47.96	358.59	15.57	-53.8	-62.6	3.8	7.47e-01	0	44	104	5450498048	78	10330
2026-01-24 05:59:48.97	358.35	15.47	-53.8	-62.6	3.8	7.42e-01	0	44	104	5450498048	78	10373
2026-01-24 05:59:49.98	358.12	15.37	-53.8	-62.6	3.8	7.45e-01	0	44	104	5450498048	78	10321
2026-01-24 05:59:50.99	357.89	15.27	-53.7	-62.6	3.8	7.44e-01	0	44	104	5450498048	78	10316
2026-01-24 05:59:51.99	357.66	15.17	-53.8	-62.6	3.8	7.43e-01	0	44	104	5450498048	78	10305
2026-01-24 05:59:53.00	357.44	15.07	-53.8	-62.6	3.8	7.44e-01	0	44	104	5450498048	78	10318
2026-01-24 05:59:54.01	357.21	14.97	-53.7	-62.5	3.8	7.45e-01	0	44	104	5450498048	78	10264
2026-01-24 05:59:55.02	356.99	14.87	-53.7	-62.6	3.8	7.46e-01	0	44	104	5450498048	78	10306
2026-01-24 05:59:56.03	356.76	14.77	-53.7	-62.5	3.8	7.45e-01	0	44	104	5450498048	78	10238
2026-01-24 05:59:57.03	356.55	14.68	-53.7	-62.5	3.8	7.47e-01	0	44	104	5450498048	78	10268
2026-01-24 05:59:58.04	356.33	14.58	-53.7	-62.5	3.8	7.44e-01	0	44	104	5450498048	78	10215
2026-01-24 05:59:59.05	356.11	14.48	-53.7	-62.5	3.8	7.47e-01	0	44	104	5450498048	78	10231
2026-01-24 06:00:00.06	355.90	14.38	-53.7	-62.5	3.8	7.45e-01	0	44	104	5450498048	78	10213
2026-01-24 06:00:01.07	355.68	14.28	-53.7	-62.6	3.8	7.46e-01	0	44	104	5450498048	78	10297
2026-01-24 06:00:02.07	355.47	14.18	-53.6	-62.5	3.8	7.45e-01	0	44	104	5450498048	78	10185
2026-01-24 06:00:03.08	355.27	14.08	-53.6	-62.4	3.8	7.45e-01	0	44	104	5450498048	78	10173
2026-01-24 06:00:04.09	355.06	13.99	-53.6	-62.5	3.8	7.47e-01	0	44	104	5450498048	78	10204
2026-01-24 06:00:05.10	354.85	13.89	-53.7	-62.5	3.8	7.44e-01	0	44	104	5450498048	78	10197
2026-01-24 06:00:06.11	354.65	13.79	-53.6	-62.5	3.8	7.45e-01	0	44	104	5450498048	78	10209
2026-01-24 06:00:07.12	354.44	13.69	-53.6	-62.5	3.8	7.44e-01	0	44	104	5450498048	78	10199
2026-01-24 06:00:08.12	354.24	13.60	-53.6	-62.5	3.8	7.45e-01	0	44	104	5450498048	78	10200
2026-01-24 06:00:09.13	354.04	13.50	-53.7	-62.5	3.8	7.45e-01	0	44	104	5450498048	78	10192
2026-01-24 06:00:10.14	353.85	13.40	-53.6	-62.4	3.8	7.45e-01	0	44	104	5450498048	78	10158
2026-01-24 06:00:11.15	353.65	13.31	-53.6	-62.4	3.8	7.45e-01	0	44	104	5450498048	78	10166
2026-01-24 06:00:12.15	353.46	13.21	-53.7	-62.5	3.8	7.46e-01	0	44	104	5450498048	78	10198
2026-01-24 06:00:13.16	353.26	13.11	-53.7	-62.5	3.8	7.45e-01	0	44	104	5450498048	78	10247
2026-01-24 06:00:14.17	353.07	13.02	-53.6	-62.4	3.8	7.45e-01	0	44	104	5450498048	78	10151
2026-01-24 06:00:15.18	352.88	12.92	-53.6	-62.4	3.8	7.44e-01	0	44	104	5450498048	78	10128
2026-01-24 06:00:16.19	352.69	12.83	-53.6	-62.4	3.8	7.44e-01	0	44	104	5450498048	78	10157
2026-01-24 06:00:17.20	352.50	12.73	-53.6	-62.5	3.8	7.45e-01	0	44	104	5450498048	78	10208
2026-01-24 06:00:18.21	352.32	12.64	-53.6	-62.4	3.8	7.45e-01	0	44	104	5450498048	78	10166
2026-01-24 06:00:19.21	352.13	12.54	-53.6	-62.4	3.8	7.45e-01	0	44	104	5450498048	78	10129
2026-01-24 06:00:20.22	351.95	12.45	-53.6	-62.4	3.8	7.45e-01	0	44	104	5450498048	78	10144
2026-01-24 06:00:21.23	351.77	12.35	-53.6	-62.4	3.8	7.45e-01	0	44	104	5450498048	78	10171
2026-01-24 06:00:22.24	351.59	12.26	-53.6	-62.4	3.8	7.47e-01	0	44	104	5450498048	78	10117
2026-01-24 06:00:23.25	351.41	12.17	-53.6	-62.4	3.8	7.46e-01	0	44	104	5450498048	78	10071
2026-01-24 06:00:24.25	351.24	12.07	-53.6	-62.4	3.8	7.44e-01	0	44	104	5450498048	78	10120
2026-01-24 06:00:25.26	351.06	11.98	-53.6	-62.4	3.8	7.46e-01	0	44	104	5450498048	78	10101
2026-01-24 06:00:26.27	350.88	11.89	-53.5	-62.3	3.8	7.46e-01	0	44	104	5450498048	78	10040
2026-01-24 06:00:27.28	350.71	11.79	-53.5	-62.4	3.8	7.45e-01	0	44	104	5450498048	78	10072
2026-01-24 06:00:28.29	350.54	11.70	-53.5	-62.4	3.8	7.45e-01	0	44	104	5450498048	78	10103
2026-01-24 06:00:29.29	350.37	11.61	-53.6	-62.4	3.8	7.46e-01	0	44	104	5450498048	78	10067
2026-01-24 06:00:30.30	350.20	11.52	-53.5	-62.3	3.8	7.46e-01	0	44	104	5450498048	78	10024
2026-01-24 06:00:31.31	350.03	11.43	-53.5	-62.3	3.8	7.44e-01	0	44	104	5450498048	78	10048
2026-01-24 06:00:32.32	349.87	11.33	-53.5	-62.4	3.8	7.45e-01	0	44	104	5450498048	78	10067
2026-01-24 06:00:33.32	349.70	11.24	-53.5	-62.4	3.8	7.47e-01	0	44	104	5450498048	78	10078
2026-01-24 06:00:34.33	349.54	11.15	-53.5	-62.2	3.8	7.44e-01	0	44	104	5450498048	78	9940
2026-01-24 06:00:35.34	349.38	11.06	-53.5	-62.3	3.8	7.45e-01	0	44	104	5450498048	78	10005
2026-01-24 06:00:36.34	349.22	10.97	-53.5	-62.3	3.8	7.45e-01	0	44	104	5450498048	78	10039
2026-01-24 06:00:37.35	349.06	10.88	-53.5	-62.3	3.8	7.45e-01	0	44	104	5450498048	78	10050
2026-01-24 06:00:38.36	348.90	10.79	-53.5	-62.3	3.8	7.45e-01	0	44	104	5450498048	78	9954
2026-01-24 06:00:39.37	348.74	10.70	-53.5	-62.3	3.8	7.45e-01	0	44	104	5450498048	78	10001
2026-01-24 06:00:40.38	348.58	10.61	-53.5	-62.3	3.8	7.44e-01	0	44	104	5450498048	78	9999
2026-01-24 06:00:41.38	348.43	10.52	-53.5	-62.3	3.8	7.45e-01	0	44	104	5450498048	78	9972
2026-01-24 06:00:42.39	348.27	10.43	-53.4	-62.2	3.8	7.47e-01	0	44	104	5450498048	78	9935
2026-01-24 06:00:43.40	348.12	10.35	-53.4	-62.3	3.8	7.45e-01	0	44	104	5450498048	78	9950
2026-01-24 06:00:44.40	347.97	10.26	-53.4	-62.3	3.8	7.45e-01	0	44	104	5450498048	78	9962
2026-01-24 06:00:45.41	347.82	10.17	-53.4	-62.3	3.8	7.45e-01	0	44	104	5450498048	78	9961
2026-01-24 06:00:46.42	347.67	10.08	-53.4	-62.2	3.8	7.46e-01	0	44	104	5450498048	78	9869
2026-01-24 06:00:47.43	347.52	9.99	-53.4	-62.2	3.8	7.46e-01	0	44	104	5450498048	78	9895
2026-01-24 06:00:48.44	347.37	9.91	-53.4	-62.2	3.8	7.46e-01	0	44	104	5450498048	78	9904
2026-01-24 06:00:49.44	347.23	9.82	-53.4	-62.2	3.8	7.46e-01	0	44	104	5450498048	78	9884
2026-01-24 06:00:50.45	347.08	9.73	-53.3	-62.2	3.8	7.44e-01	0	44	104	5450498048	78	9831
2026-01-24 06:00:51.46	346.94	9.65	-53.4	-62.2	3.8	7.45e-01	0	44	104	5450498048	78	9860
2026-01-24 06:00:52.47	346.80	9.56	-53.4	-62.2	3.8	7.44e-01	0	44	104	5450498048	78	9904
2026-01-24 06:00:53.48	346.66	9.47	-53.3	-62.2	3.8	7.47e-01	0	44	104	5450498048	78	9857
2026-01-24 06:00:54.49	346.51	9.39	-53.3	-62.1	3.8	7.44e-01	0	44	104	5450498048	78	9781
2026-01-24 06:00:55.49	346.38	9.30	-53.3	-62.2	3.8	7.45e-01	0	44	104	5450498048	78	9846
2026-01-24 06:00:56.50	346.24	9.22	-53.3	-62.2	3.8	7.46e-01	0	44	104	5450498048	78	9842
2026-01-24 06:00:57.51	346.10	9.13	-53.3	-62.1	3.8	7.45e-01	0	44	104	5450498048	78	9799
2026-01-24 06:00:58.52	345.96	9.05	-53.3	-62.1	3.8	7.45e-01	0	44	104	5450498048	78	9776
2026-01-24 06:00:59.53	345.83	8.96	-53.3	-62.1	3.8	7.46e-01	0	44	104	5450498048	78	9773
2026-01-24 06:01:00.54	345.69	8.88	-53.3	-62.1	3.8	7.45e-01	0	44	104	5450498048	78	9814
2026-01-24 06:01:01.54	345.56	8.79	-53.3	-62.1	3.8	7.47e-01	0	44	104	5450498048	78	9732
2026-01-24 06:01:02.55	345.43	8.71	-53.2	-62.0	3.8	7.44e-01	0	44	104	5450498048	78	9686
2026-01-24 06:01:03.56	345.30	8.63	-53.3	-62.1	3.8	7.45e-01	0	44	104	5450498048	78	9799
2026-01-24 06:01:04.57	345.16	8.54	-53.3	-62.1	3.8	7.44e-01	0	44	104	5450498048	78	9791
2026-01-24 06:01:05.57	345.04	8.46	-53.2	-62.0	3.8	7.47e-01	0	44	104	5450498048	78	9681
2026-01-24 06:01:06.58	344.91	8.38	-53.2	-62.0	3.8	7.45e-01	0	44	104	5450498048	78	9664
2026-01-24 06:01:07.59	344.78	8.29	-53.2	-62.0	3.8	7.44e-01	0	44	104	5450498048	78	9705
2026-01-24 06:01:08.60	344.65	8.21	-53.3	-62.1	3.8	7.44e-01	0	44	104	5450498048	78	9741
2026-01-24 06:01:09.61	344.53	8.13	-53.2	-62.0	3.8	7.46e-01	0	44	104	5450498048	78	9608
2026-01-24 06:01:10.62	344.40	8.05	-53.1	-62.0	3.8	7.44e-01	0	44	104	5450498048	78	9623
2026-01-24 06:01:11.62	344.28	7.97	-53.2	-62.0	3.8	7.45e-01	0	44	104	5450498048	78	9669
2026-01-24 06:01:12.63	344.15	7.88	-53.2	-62.1	3.8	7.45e-01	0	44	104	5450498048	78	9741
2026-01-24 06:01:13.64	344.03	7.80	-53.1	-61.9	3.8	7.45e-01	0	44	104	5450498048	78	9581
2026-01-24 06:01:14.64	343.91	7.72	-53.1	-61.9	3.8	7.45e-01	0	44	104	5450498048	78	9569
2026-01-24 06:01:15.65	343.79	7.64	-53.2	-62.0	3.8	7.45e-01	0	44	104	5450498048	78	9655
2026-01-24 06:01:16.66	343.67	7.56	-53.2	-62.0	3.8	7.45e-01	0	44	104	5450498048	78	9680
2026-01-24 06:01:17.67	343.55	7.48	-53.1	-61.9	3.8	7.46e-01	0	44	104	5450498048	78	9534
2026-01-24 06:01:18.67	343.43	7.40	-53.1	-61.9	3.8	7.45e-01	0	44	104	5450498048	78	9499
2026-01-24 06:01:19.68	343.32	7.32	-53.1	-62.0	3.8	7.45e-01	0	44	104	5450498048	78	9624
2026-01-24 06:01:20.69	343.20	7.24	-53.2	-62.0	3.8	7.44e-01	0	44	104	5450498048	78	9647
2026-01-24 06:01:21.70	343.08	7.16	-53.0	-61.8	3.8	7.47e-01	0	44	104	5450498048	78	9493
2026-01-24 06:01:22.70	342.97	7.09	-53.0	-61.8	3.8	7.45e-01	0	44	104	5450498048	78	9485
2026-01-24 06:01:23.71	342.86	7.01	-53.1	-61.9	3.8	7.45e-01	0	44	104	5450498048	78	9579
2026-01-24 06:01:24.72	342.74	6.93	-53.1	-61.9	3.8	7.46e-01	0	44	104	5450498048	78	9572
2026-01-24 06:01:25.73	342.63	6.85	-53.0	-61.8	3.8	7.45e-01	0	44	104	5450498048	78	9423
2026-01-24 06:01:26.73	342.52	6.77	-53.0	-61.8	3.8	7.46e-01	0	44	104	5450498048	77	9973
2026-01-24 06:01:27.74	342.41	6.69	-53.0	-61.8	3.8	7.47e-01	0	44	104	5450498048	77	10024
2026-01-24 06:01:28.75	342.30	6.62	-53.1	-61.9	3.8	7.46e-01	0	44	104	5450498048	77	10080
2026-01-24 06:01:29.76	342.19	6.54	-52.9	-61.7	3.8	7.46e-01	0	44	104	5450498048	77	9885
2026-01-24 06:01:30.77	342.08	6.46	-52.9	-61.7	3.8	7.46e-01	0	44	104	5450498048	77	9901
2026-01-24 06:01:31.77	341.97	6.39	-53.0	-61.8	3.8	7.44e-01	0	44	104	5450498048	77	9980
2026-01-24 06:01:32.78	341.87	6.31	-53.0	-61.8	3.8	7.45e-01	0	44	104	5450498048	77	10012
2026-01-24 06:01:33.79	341.76	6.23	-52.8	-61.7	3.8	7.43e-01	0	44	104	5450498048	77	9873
2026-01-24 06:01:34.80	341.65	6.16	-52.9	-61.7	3.8	7.45e-01	0	44	104	5450498048	77	9859
2026-01-24 06:01:35.81	341.55	6.08	-52.9	-61.7	3.8	7.45e-01	0	44	104	5450498048	77	9908
2026-01-24 06:01:36.81	341.45	6.00	-53.0	-61.8	3.8	7.46e-01	0	44	104	5450498048	77	9998
2026-01-24 06:01:37.82	341.34	5.93	-52.8	-61.6	3.8	7.45e-01	0	44	104	5450498048	77	9810
2026-01-24 06:01:38.83	341.24	5.85	-52.8	-61.6	3.8	7.46e-01	0	44	104	5450498048	77	9797
2026-01-24 06:01:39.84	341.14	5.78	-52.9	-61.7	3.8	7.45e-01	0	44	104	5450498048	77	9881
2026-01-24 06:01:40.84	341.04	5.70	-52.9	-61.7	3.8	7.45e-01	0	44	104	5450498048	77	9928
2026-01-24 06:01:41.85	340.94	5.63	-52.7	-61.5	3.8	7.46e-01	0	44	104	5450498048	77	9680
2026-01-24 06:01:42.86	340.84	5.55	-52.7	-61.5	3.8	7.45e-01	0	44	104	5450498048	77	9700
2026-01-24 06:01:43.87	340.74	5.48	-52.8	-61.7	3.8	7.45e-01	0	44	104	5450498048	77	9838
2026-01-24 06:01:44.88	340.64	5.41	-52.9	-61.7	3.8	7.45e-01	0	44	104	5450498048	77	9873
2026-01-24 06:01:45.89	340.54	5.33	-52.6	-61.4	3.8	7.45e-01	0	44	104	5450498048	77	9592
2026-01-24 06:01:46.90	340.44	5.26	-52.6	-61.4	3.8	7.45e-01	0	44	104	5450498048	77	9593
2026-01-24 06:01:47.91	340.34	5.18	-52.8	-61.6	3.8	7.46e-01	0	44	104	5450498048	77	9726
2026-01-24 06:01:48.91	340.25	5.11	-52.8	-61.6	3.8	7.46e-01	0	44	104	5450498048	77	9761
2026-01-24 06:01:49.92	340.15	5.04	-52.6	-61.4	3.8	7.46e-01	0	44	104	5450498048	77	9543
2026-01-24 06:01:50.93	340.06	4.97	-52.8	-61.6	3.8	7.45e-01	0	44	104	5450498048	77	9790
2026-01-24 06:01:51.94	339.96	4.89	-53.4	-62.2	3.8	7.45e-01	0	44	104	5450498048	77	10477
2026-01-24 06:01:52.95	339.87	4.82	-53.7	-62.5	3.8	7.45e-01	0	44	104	5450498048	77	10839
2026-01-24 06:01:53.96	339.78	4.75	-53.9	-62.7	3.8	7.45e-01	0	44	104	5450498048	78	10504
2026-01-24 06:01:54.97	339.68	4.68	-54.1	-62.9	3.8	7.47e-01	0	44	104	5450498048	78	10738
2026-01-24 06:01:55.98	339.59	4.60	-54.3	-63.1	3.8	7.44e-01	0	44	104	5450498048	79	10355
2026-01-24 06:01:56.99	339.50	4.53	-54.4	-63.2	3.8	7.46e-01	0	44	104	5450498048	79	10519
2026-01-24 06:01:57.99	339.41	4.46	-54.5	-63.4	3.8	7.44e-01	0	44	104	5450498048	79	10667
2026-01-24 06:01:59.00	339.32	4.39	-54.7	-63.5	3.8	7.46e-01	0	44	104	5450498048	79	10805
2026-01-24 06:02:00.01	339.23	4.32	-54.7	-63.5	3.8	7.44e-01	0	44	104	5450498048	80	10221
2026-01-24 06:02:01.02	339.14	4.25	-54.7	-63.6	3.8	7.44e-01	0	44	104	5450498048	80	10296
2026-01-24 06:02:02.03	339.05	4.18	-54.8	-63.6	3.8	7.46e-01	0	44	104	5450498048	80	10357
2026-01-24 06:02:03.04	338.97	4.11	-54.8	-63.6	3.8	7.45e-01	0	44	104	5450498048	80	10394
2026-01-24 06:02:04.05	338.88	4.04	-54.8	-63.7	3.8	7.43e-01	0	44	104	5450498048	80	10429
2026-01-24 06:02:05.06	338.79	3.97	-54.8	-63.6	3.8	7.45e-01	0	44	104	5450498048	80	10407
2026-01-24 06:02:06.06	338.71	3.90	-54.9	-63.8	3.8	7.47e-01	0	44	104	5450498048	80	10546
2026-01-24 06:02:07.07	338.62	3.83	-54.9	-63.7	3.8	7.44e-01	0	44	104	5450498048	80	10495
2026-01-24 06:02:08.08	338.54	3.76	-54.9	-63.7	3.8	7.44e-01	0	44	104	5450498048	80	10453
2026-01-24 06:02:09.09	338.45	3.69	-54.9	-63.7	3.8	7.45e-01	0	44	104	5450498048	80	10503
2026-01-24 06:02:10.10	338.37	3.62	-54.9	-63.7	3.8	7.45e-01	0	44	104	5450498048	80	10462
2026-01-24 06:02:11.11	338.28	3.55	-54.9	-63.7	3.8	7.45e-01	0	44	104	5450498048	80	10447
2026-01-24 06:02:12.12	338.20	3.48	-54.9	-63.7	3.8	7.45e-01	0	44	104	5450498048	80	10472
2026-01-24 06:02:13.12	338.12	3.41	-54.8	-63.7	3.8	7.45e-01	0	44	104	5450498048	80	10434
2026-01-24 06:02:14.14	338.04	3.34	-54.7	-63.6	3.8	7.45e-01	0	44	104	5450498048	80	10334
2026-01-24 06:02:15.14	337.96	3.28	-54.7	-63.6	3.8	7.45e-01	0	44	104	5450498048	80	10325
2026-01-24 06:02:16.15	337.88	3.21	-54.7	-63.5	3.8	7.46e-01	0	44	104	5450498048	80	10238
2026-01-24 06:02:17.16	337.80	3.14	-54.7	-63.5	3.8	7.46e-01	0	44	104	5450498048	80	10238
2026-01-24 06:02:18.16	337.72	3.07	-54.7	-63.5	3.8	7.45e-01	0	44	104	5450498048	80	10212
2026-01-24 06:02:19.17	337.64	3.01	-54.7	-63.5	3.8	7.44e-01	0	44	104	5450498048	80	10215
2026-01-24 06:02:20.18	337.56	2.94	-54.7	-63.5	3.8	7.45e-01	0	44	104	5450498048	80	10240
2026-01-24 06:02:21.19	337.48	2.87	-54.6	-63.5	3.8	7.45e-01	0	44	104	5450498048	80	10184
2026-01-24 06:02:22.20	337.40	2.80	-54.7	-63.5	3.8	7.45e-01	0	44	104	5450498048	80	10204
2026-01-24 06:02:23.21	337.32	2.74	-54.6	-63.5	3.8	7.45e-01	0	44	104	5450498048	80	10211
2026-01-24 06:02:24.22	337.25	2.67	-54.6	-63.5	3.8	7.46e-01	0	44	104	5450498048	80	10210
2026-01-24 06:02:25.23	337.17	2.60	-54.6	-63.4	3.8	7.46e-01	0	44	104	5450498048	80	10156
2026-01-24 06:02:26.24	337.09	2.54	-54.6	-63.5	3.8	7.43e-01	0	44	104	5450498048	80	10195
2026-01-24 06:02:27.25	337.02	2.47	-54.6	-63.4	3.8	7.43e-01	0	44	104	5450498048	80	10139
2026-01-24 06:02:28.26	336.94	2.41	-54.6	-63.4	3.8	7.43e-01	0	44	104	5450498048	80	10132
2026-01-24 06:02:29.26	336.87	2.34	-54.6	-63.4	3.8	7.45e-01	0	44	104	5450498048	80	10148
2026-01-24 06:02:30.27	336.80	2.27	-54.6	-63.4	3.8	7.45e-01	0	44	104	5450498048	80	10130
2026-01-24 06:02:31.28	336.72	2.21	-54.6	-63.4	3.8	7.46e-01	0	44	104	5450498048	80	10132
2026-01-24 06:02:32.29	336.65	2.14	-54.6	-63.4	3.8	7.45e-01	0	44	104	5450498048	80	10116
2026-01-24 06:02:33.30	336.58	2.08	-54.6	-63.4	3.8	7.45e-01	0	44	104	5450498048	80	10109
2026-01-24 06:02:34.30	336.50	2.01	-54.6	-63.4	3.8	7.47e-01	0	44	104	5450498048	80	10093
2026-01-24 06:02:35.31	336.43	1.95	-54.6	-63.4	3.8	7.46e-01	0	44	104	5450498048	80	10146
2026-01-24 06:02:36.32	336.36	1.88	-54.5	-63.4	3.8	7.47e-01	0	44	104	5450498048	80	10083
2026-01-24 06:02:37.33	336.29	1.82	-54.5	-63.4	3.8	7.46e-01	0	44	104	5450498048	80	10081

#Closed at: 2026-01-24 06:02:37
#Recorded file [5450 MB]: D:/lorett/data/31041_260124_085259.dat