passes_logs/2026/01/24/R3.2S_Murmansk/R3.2S_Murmansk__20260124_042045_FENGYUN_3D_rec.log

#Pass ID: 20260124_042045_FENGYUN 3D
#Satellite: FENGYUN 3D
#Configuration: FENGYUN 3D
#almurnet v.1.7.20251203
#Start time: 2026-01-24 04:20:47

#Version: 2.2.20231116
#Station: R3.2S_Murmansk
#Location: 33.079688 lon 68.888172 lat
#TLE: 1 43010U 17072A   26023.60174628  .00000324  00000+0  17481-3 0  9994
#TLE: 2 43010  98.9958 355.5514 0002482  93.7422 266.4037 14.19699955424476

#Time	Az	El	Level	Level2	SNR	BER	BlckErr	Temp	State	Recorded	gain1	gain2
2026-01-24 04:20:47.36	32.86	2.09	-53.3	-65.2	3.8	8.46e-01	0	41	0	0	77	14866
2026-01-24 04:20:48.36	32.83	2.15	-53.3	-65.3	3.8	8.46e-01	0	41	104	0	77	14911
2026-01-24 04:20:49.37	32.80	2.22	-53.3	-65.3	3.8	8.46e-01	0	41	104	0	77	14897
2026-01-24 04:20:50.38	32.77	2.28	-53.3	-65.2	3.8	8.46e-01	0	41	104	0	77	14848
2026-01-24 04:20:51.39	32.73	2.34	-53.3	-65.2	3.8	8.46e-01	0	41	104	0	77	14860
2026-01-24 04:20:52.39	32.70	2.41	-53.3	-65.3	3.8	8.45e-01	0	41	104	0	77	14896
2026-01-24 04:20:53.40	32.66	2.47	-53.2	-65.2	3.8	8.46e-01	0	41	104	0	77	14877
2026-01-24 04:20:54.41	32.63	2.53	-53.3	-65.2	3.8	8.47e-01	0	41	104	0	77	14833
2026-01-24 04:20:55.42	32.60	2.60	-53.3	-65.2	3.8	8.46e-01	0	41	104	0	77	14839
2026-01-24 04:20:56.43	32.56	2.66	-53.3	-65.3	3.8	8.46e-01	0	41	104	0	77	14920
2026-01-24 04:20:57.44	32.53	2.73	-53.3	-65.2	3.8	8.46e-01	0	42	104	0	77	14826
2026-01-24 04:20:58.45	32.49	2.79	-53.3	-65.2	3.8	8.46e-01	0	41	104	0	77	14813
2026-01-24 04:20:59.45	32.46	2.85	-53.3	-65.2	3.8	8.46e-01	0	41	104	0	77	14868
2026-01-24 04:21:00.46	32.42	2.92	-53.3	-65.2	3.8	8.46e-01	0	41	104	0	77	14826
2026-01-24 04:21:01.47	32.39	2.98	-53.3	-65.2	3.8	8.46e-01	0	41	104	0	77	14864
2026-01-24 04:21:02.48	32.35	3.05	-53.3	-65.2	3.8	8.46e-01	0	42	104	0	77	14854
2026-01-24 04:21:03.49	32.32	3.11	-53.3	-65.2	3.8	8.46e-01	0	41	104	0	77	14842
2026-01-24 04:21:04.50	32.28	3.18	-53.3	-65.3	3.8	8.46e-01	0	42	104	0	77	14909
2026-01-24 04:21:05.51	32.25	3.24	-53.3	-65.2	3.8	8.46e-01	0	41	104	0	77	14859
2026-01-24 04:21:06.52	32.21	3.31	-53.3	-65.2	3.8	8.46e-01	0	42	104	0	77	14836
2026-01-24 04:21:07.53	32.17	3.37	-53.3	-65.2	3.8	8.47e-01	0	42	104	0	77	14840
2026-01-24 04:21:08.53	32.14	3.44	-53.3	-65.2	3.8	8.47e-01	0	42	104	0	77	14847
2026-01-24 04:21:09.54	32.10	3.50	-53.3	-65.3	3.8	8.47e-01	0	42	104	0	77	14881
2026-01-24 04:21:10.55	32.06	3.57	-53.3	-65.3	3.8	8.47e-01	0	42	104	0	77	14880
2026-01-24 04:21:11.56	32.03	3.64	-53.3	-65.2	3.8	8.46e-01	0	42	104	0	77	14856
2026-01-24 04:21:12.56	31.99	3.70	-53.3	-65.2	3.8	8.46e-01	0	42	104	0	77	14829
2026-01-24 04:21:13.57	31.95	3.77	-53.2	-65.2	3.8	8.46e-01	0	42	104	0	77	14868
2026-01-24 04:21:14.58	31.92	3.84	-53.3	-65.2	3.8	8.46e-01	0	42	104	0	77	14829
2026-01-24 04:21:15.59	31.88	3.90	-53.3	-65.2	3.8	8.45e-01	0	42	104	0	77	14824
2026-01-24 04:21:16.59	31.84	3.97	-53.2	-65.2	3.8	8.46e-01	0	42	104	0	77	14790
2026-01-24 04:21:17.60	31.80	4.03	-53.3	-65.2	3.8	8.46e-01	0	42	104	0	77	14877
2026-01-24 04:21:18.61	31.76	4.10	-53.3	-65.2	3.8	8.46e-01	0	42	104	0	77	14836
2026-01-24 04:21:19.62	31.73	4.17	-53.3	-65.2	3.8	8.47e-01	0	42	104	0	77	14851
2026-01-24 04:21:20.62	31.69	4.24	-53.3	-65.2	3.8	8.46e-01	0	42	104	0	77	14859
2026-01-24 04:21:21.63	31.65	4.30	-53.3	-65.3	3.8	8.46e-01	0	42	104	0	77	14895
2026-01-24 04:21:22.64	31.61	4.37	-53.3	-65.3	3.8	8.46e-01	0	42	104	0	77	14904
2026-01-24 04:21:23.65	31.57	4.44	-53.3	-65.2	3.8	8.46e-01	0	42	104	0	77	14848
2026-01-24 04:21:24.66	31.53	4.51	-53.3	-65.2	3.8	8.46e-01	0	42	104	0	77	14865
2026-01-24 04:21:25.66	31.49	4.57	-53.3	-65.3	3.8	8.46e-01	0	42	104	0	77	14893
2026-01-24 04:21:26.67	31.45	4.64	-53.3	-65.3	3.8	8.46e-01	0	42	104	0	77	14890
2026-01-24 04:21:27.68	31.41	4.71	-53.3	-65.3	3.8	8.46e-01	0	42	104	0	77	14895
2026-01-24 04:21:28.69	31.37	4.78	-53.3	-65.2	3.8	8.46e-01	0	42	104	0	77	14845
2026-01-24 04:21:29.69	31.33	4.85	-53.3	-65.2	3.8	8.46e-01	0	42	104	0	77	14828
2026-01-24 04:21:30.70	31.29	4.92	-53.3	-65.2	3.8	8.45e-01	0	42	104	0	77	14839
2026-01-24 04:21:31.71	31.25	4.99	-53.2	-65.2	3.8	8.45e-01	0	42	104	0	77	14849
2026-01-24 04:21:32.72	31.21	5.06	-53.3	-65.2	3.8	8.46e-01	0	42	104	0	77	14837
2026-01-24 04:21:33.73	31.17	5.13	-53.3	-65.2	3.8	8.45e-01	0	42	104	0	77	14810
2026-01-24 04:21:34.74	31.12	5.20	-53.3	-65.2	3.8	8.46e-01	0	42	104	0	77	14851
2026-01-24 04:21:35.74	31.08	5.26	-53.3	-65.3	3.8	8.47e-01	0	42	104	0	77	14882
2026-01-24 04:21:36.75	31.04	5.33	-53.2	-65.2	3.8	8.47e-01	0	42	104	0	77	14832
2026-01-24 04:21:37.76	31.00	5.40	-53.3	-65.3	3.8	8.47e-01	0	42	104	0	77	14880
2026-01-24 04:21:38.77	30.96	5.47	-53.3	-65.2	3.8	8.46e-01	0	42	104	0	77	14872
2026-01-24 04:21:39.77	30.91	5.54	-53.3	-65.2	3.8	8.46e-01	0	42	104	0	77	14841
2026-01-24 04:21:40.78	30.87	5.62	-53.3	-65.2	3.8	8.46e-01	0	42	104	0	77	14827
2026-01-24 04:21:41.79	30.83	5.69	-53.3	-65.2	3.8	8.47e-01	0	42	104	0	77	14852
2026-01-24 04:21:42.80	30.78	5.76	-53.3	-65.2	3.8	8.47e-01	0	42	104	0	77	14842
2026-01-24 04:21:43.81	30.74	5.83	-53.3	-65.2	3.8	8.44e-01	0	43	104	0	77	14863
2026-01-24 04:21:44.82	30.70	5.90	-53.3	-65.3	3.8	8.47e-01	0	42	104	0	77	14891
2026-01-24 04:21:45.82	30.65	5.97	-53.3	-65.2	3.8	8.46e-01	0	42	104	0	77	14873
2026-01-24 04:21:46.83	30.61	6.04	-53.3	-65.2	3.8	8.47e-01	0	42	104	0	77	14840
2026-01-24 04:21:47.84	30.56	6.11	-53.3	-65.2	3.8	8.46e-01	0	42	104	0	77	14857
2026-01-24 04:21:48.85	30.52	6.19	-53.3	-65.2	3.8	8.46e-01	0	42	104	0	77	14874
2026-01-24 04:21:49.85	30.48	6.26	-53.3	-65.2	3.8	8.45e-01	0	43	104	0	77	14831
2026-01-24 04:21:50.86	30.43	6.33	-53.3	-65.2	3.8	8.47e-01	0	42	104	0	77	14873
2026-01-24 04:21:51.87	30.38	6.40	-53.3	-65.2	3.8	8.46e-01	0	42	104	0	77	14860
2026-01-24 04:21:52.88	30.34	6.48	-53.3	-65.2	3.8	8.46e-01	0	42	104	0	77	14854
2026-01-24 04:21:53.89	30.29	6.55	-53.3	-65.2	3.8	8.45e-01	0	42	104	0	77	14860
2026-01-24 04:21:54.89	30.25	6.62	-53.3	-65.2	3.8	8.46e-01	0	43	104	0	77	14831
2026-01-24 04:21:55.90	30.20	6.70	-53.3	-65.2	3.8	8.46e-01	0	42	104	0	77	14850
2026-01-24 04:21:56.91	30.15	6.77	-53.2	-65.2	3.8	8.46e-01	0	43	104	0	77	14866
2026-01-24 04:21:57.92	30.11	6.84	-53.2	-65.2	3.8	8.46e-01	0	42	104	0	77	14792
2026-01-24 04:21:58.93	30.06	6.92	-53.3	-65.2	3.8	8.46e-01	0	42	104	0	77	14835
2026-01-24 04:21:59.93	30.01	6.99	-53.2	-65.2	3.8	8.46e-01	0	42	104	0	77	14861
2026-01-24 04:22:00.94	29.96	7.06	-53.3	-65.2	3.8	8.46e-01	0	42	104	0	77	14804
2026-01-24 04:22:01.95	29.92	7.14	-53.2	-65.2	3.8	8.46e-01	0	42	104	0	77	14747
2026-01-24 04:22:02.96	29.87	7.21	-53.3	-65.2	3.8	8.47e-01	0	42	104	0	77	14827
2026-01-24 04:22:03.97	29.82	7.29	-53.2	-65.2	3.8	8.46e-01	0	43	104	0	77	14837
2026-01-24 04:22:04.97	29.77	7.36	-53.3	-65.2	3.8	8.47e-01	0	42	104	0	77	14830
2026-01-24 04:22:05.98	29.72	7.44	-53.3	-65.2	3.8	8.46e-01	0	43	104	0	77	14864
2026-01-24 04:22:06.99	29.67	7.51	-53.2	-65.2	3.8	8.46e-01	0	43	104	0	77	14785
2026-01-24 04:22:08.00	29.62	7.59	-53.2	-65.2	3.8	8.47e-01	0	43	104	0	77	14857
2026-01-24 04:22:09.01	29.57	7.67	-53.2	-65.2	3.8	8.46e-01	0	42	104	0	77	14838
2026-01-24 04:22:10.01	29.52	7.74	-53.3	-65.2	3.8	8.46e-01	0	42	104	0	77	14853
2026-01-24 04:22:11.02	29.47	7.82	-53.3	-65.2	3.8	8.46e-01	0	43	104	0	77	14863
2026-01-24 04:22:12.03	29.42	7.89	-53.3	-65.2	3.8	8.47e-01	0	43	104	0	77	14839
2026-01-24 04:22:13.04	29.37	7.97	-53.3	-65.2	3.8	8.46e-01	0	43	104	0	77	14809
2026-01-24 04:22:14.05	29.32	8.05	-53.3	-65.2	3.8	8.46e-01	0	42	104	0	77	14838
2026-01-24 04:22:15.06	29.27	8.12	-53.2	-65.2	3.8	8.48e-01	0	43	104	0	77	14866
2026-01-24 04:22:16.07	29.21	8.20	-53.3	-65.2	3.8	8.46e-01	0	43	104	0	77	14832
2026-01-24 04:22:17.08	29.16	8.28	-53.3	-65.2	3.8	8.45e-01	0	42	104	0	77	14833
2026-01-24 04:22:18.09	29.11	8.36	-53.3	-65.2	3.8	8.46e-01	0	43	104	0	77	14842
2026-01-24 04:22:19.09	29.06	8.43	-53.3	-65.2	3.8	8.47e-01	0	43	104	0	77	14867
2026-01-24 04:22:20.10	29.00	8.51	-53.3	-65.2	3.8	8.47e-01	0	43	104	0	77	14821
2026-01-24 04:22:21.11	28.95	8.59	-53.3	-65.2	3.8	8.47e-01	0	43	104	0	77	14838
2026-01-24 04:22:22.12	28.90	8.67	-53.3	-65.2	3.8	8.46e-01	0	43	104	0	77	14823
2026-01-24 04:22:23.13	28.84	8.75	-53.2	-65.2	3.8	8.45e-01	0	43	104	0	77	14799
2026-01-24 04:22:24.14	28.79	8.83	-53.3	-65.2	3.8	8.47e-01	0	43	104	0	77	14841
2026-01-24 04:22:25.15	28.73	8.91	-53.3	-65.2	3.8	8.46e-01	0	43	104	0	77	14872
2026-01-24 04:22:26.15	28.68	8.99	-53.3	-65.2	3.8	8.47e-01	0	43	104	0	77	14850
2026-01-24 04:22:27.16	28.62	9.07	-53.3	-65.2	3.8	8.46e-01	0	43	104	0	77	14853
2026-01-24 04:22:28.17	28.57	9.15	-53.3	-65.2	3.8	8.45e-01	0	43	104	0	77	14847
2026-01-24 04:22:29.18	28.51	9.23	-53.3	-65.2	3.8	8.46e-01	0	43	104	0	77	14855
2026-01-24 04:22:30.19	28.45	9.31	-53.3	-65.3	3.8	8.46e-01	0	43	104	0	77	14882
2026-01-24 04:22:31.20	28.40	9.39	-53.3	-65.2	3.8	8.46e-01	0	43	104	0	77	14845
2026-01-24 04:22:32.21	28.34	9.47	-53.3	-65.3	3.8	8.46e-01	0	43	104	0	77	14880
2026-01-24 04:22:33.22	28.28	9.55	-53.3	-65.3	3.8	8.47e-01	0	43	104	0	77	14880
2026-01-24 04:22:34.22	28.23	9.63	-53.3	-65.2	3.8	8.47e-01	0	43	104	0	77	14848
2026-01-24 04:22:35.23	28.17	9.71	-53.3	-65.2	3.8	8.47e-01	0	43	104	0	77	14853
2026-01-24 04:22:36.24	28.11	9.79	-53.3	-65.2	3.8	8.47e-01	0	43	104	0	77	14827
2026-01-24 04:22:37.25	28.05	9.88	-53.3	-65.2	3.8	8.46e-01	0	43	104	0	77	14842
2026-01-24 04:22:38.26	27.99	9.96	-53.3	-65.2	3.8	8.46e-01	0	43	104	0	77	14837
2026-01-24 04:22:39.27	27.93	10.04	-53.3	-65.2	3.8	8.46e-01	0	43	104	0	77	14823
2026-01-24 04:22:40.27	27.87	10.12	-53.3	-65.3	3.8	8.46e-01	0	43	104	0	77	14925
2026-01-24 04:22:41.28	27.81	10.21	-53.3	-65.2	3.8	8.46e-01	0	43	104	0	77	14850
2026-01-24 04:22:42.29	27.75	10.29	-53.3	-65.2	3.8	8.47e-01	0	43	104	0	77	14858
2026-01-24 04:22:43.30	27.69	10.37	-53.3	-65.2	3.8	8.47e-01	0	43	104	0	77	14879
2026-01-24 04:22:44.31	27.63	10.46	-53.3	-65.2	3.8	8.45e-01	0	43	104	0	77	14862
2026-01-24 04:22:45.32	27.57	10.54	-53.3	-65.3	3.8	8.46e-01	0	43	104	0	77	14889
2026-01-24 04:22:46.33	27.50	10.63	-53.3	-65.2	3.8	8.46e-01	0	43	104	0	77	14868
2026-01-24 04:22:47.34	27.44	10.71	-53.3	-65.2	3.8	8.48e-01	0	43	104	0	77	14853
2026-01-24 04:22:48.34	27.38	10.79	-53.3	-65.2	3.8	8.46e-01	0	43	104	0	77	14874
2026-01-24 04:22:49.35	27.32	10.88	-53.3	-65.2	3.8	8.46e-01	0	43	104	0	77	14840
2026-01-24 04:22:50.36	27.25	10.97	-53.3	-65.3	3.8	8.46e-01	0	43	104	0	77	14910
2026-01-24 04:22:51.37	27.19	11.05	-53.3	-65.2	3.8	8.46e-01	0	43	104	0	77	14874
2026-01-24 04:22:52.37	27.12	11.14	-53.3	-65.2	3.8	8.46e-01	0	43	104	0	77	14852
2026-01-24 04:22:53.38	27.06	11.22	-53.3	-65.3	3.8	8.46e-01	0	43	104	0	77	14888
2026-01-24 04:22:54.39	26.99	11.31	-53.3	-65.2	3.8	8.47e-01	0	43	104	0	77	14875
2026-01-24 04:22:55.40	26.93	11.40	-53.3	-65.3	3.8	8.45e-01	0	43	104	0	77	14930
2026-01-24 04:22:56.41	26.86	11.48	-53.3	-65.3	3.8	8.45e-01	0	43	104	0	77	14885
2026-01-24 04:22:57.42	26.80	11.57	-53.3	-65.2	3.8	8.46e-01	0	43	104	0	77	14876
2026-01-24 04:22:58.43	26.73	11.66	-53.3	-65.3	3.8	8.46e-01	0	43	104	0	77	14915
2026-01-24 04:22:59.44	26.66	11.75	-53.3	-65.3	3.8	8.46e-01	0	43	104	0	77	14885
2026-01-24 04:23:00.45	26.59	11.83	-53.3	-65.3	3.8	8.46e-01	0	43	104	0	77	14915
2026-01-24 04:23:01.46	26.53	11.92	-53.3	-65.3	3.8	8.46e-01	0	43	104	0	77	14925
2026-01-24 04:23:02.47	26.46	12.01	-53.3	-65.2	3.8	8.45e-01	0	43	104	0	77	14862
2026-01-24 04:23:03.48	26.39	12.10	-53.3	-65.3	3.8	8.46e-01	0	43	104	0	77	14905
2026-01-24 04:23:04.48	26.32	12.19	-53.3	-65.3	3.8	8.47e-01	0	43	104	0	77	14906
2026-01-24 04:23:05.49	26.25	12.28	-53.3	-65.2	3.8	8.45e-01	0	43	104	0	77	14835
2026-01-24 04:23:06.50	26.18	12.37	-53.3	-65.2	3.8	8.46e-01	0	43	104	0	77	14878
2026-01-24 04:23:07.51	26.11	12.46	-53.3	-65.3	3.8	8.46e-01	0	43	104	0	77	14885
2026-01-24 04:23:08.52	26.04	12.55	-53.3	-65.3	3.8	8.45e-01	0	43	104	0	77	14887
2026-01-24 04:23:09.53	25.96	12.64	-53.3	-65.3	3.8	8.46e-01	0	43	104	0	77	14888
2026-01-24 04:23:10.53	25.89	12.73	-53.3	-65.2	3.8	8.46e-01	0	43	104	0	77	14855
2026-01-24 04:23:11.54	25.82	12.82	-53.3	-65.3	3.8	8.46e-01	0	43	104	0	77	14887
2026-01-24 04:23:12.55	25.75	12.91	-53.3	-65.3	3.8	8.46e-01	0	43	104	0	77	14881
2026-01-24 04:23:13.56	25.67	13.00	-53.3	-65.2	3.8	8.45e-01	0	43	104	0	77	14850
2026-01-24 04:23:14.57	25.60	13.09	-53.3	-65.3	3.8	8.45e-01	0	43	104	0	77	14930
2026-01-24 04:23:15.57	25.53	13.19	-53.3	-65.3	3.8	8.47e-01	0	43	104	0	77	14886
2026-01-24 04:23:16.58	25.45	13.28	-53.3	-65.3	3.8	8.46e-01	0	43	104	0	77	14895
2026-01-24 04:23:17.59	25.37	13.37	-53.3	-65.3	3.8	8.47e-01	0	43	104	0	77	14887
2026-01-24 04:23:18.60	25.30	13.47	-53.3	-65.2	3.8	8.47e-01	0	43	104	0	77	14830
2026-01-24 04:23:19.61	25.22	13.56	-53.3	-65.2	3.8	8.46e-01	0	43	104	0	77	14858
2026-01-24 04:23:20.61	25.15	13.65	-53.3	-65.2	3.8	8.46e-01	0	43	104	0	77	14867
2026-01-24 04:23:21.62	25.07	13.75	-53.3	-65.2	3.8	8.46e-01	0	43	104	0	77	14851
2026-01-24 04:23:22.63	24.99	13.84	-53.3	-65.2	3.8	8.47e-01	0	43	104	0	77	14827
2026-01-24 04:23:23.64	24.91	13.94	-53.3	-65.3	3.8	8.46e-01	0	43	104	0	77	14886
2026-01-24 04:23:24.65	24.83	14.03	-53.3	-65.2	3.8	8.45e-01	0	43	104	0	77	14862
2026-01-24 04:23:25.66	24.75	14.13	-53.3	-65.2	3.8	8.47e-01	0	43	104	0	77	14845
2026-01-24 04:23:26.66	24.67	14.22	-53.3	-65.3	3.8	8.47e-01	0	43	104	0	77	14892
2026-01-24 04:23:27.67	24.59	14.32	-53.3	-65.2	3.8	8.46e-01	0	43	104	0	77	14866
2026-01-24 04:23:28.68	24.51	14.41	-53.3	-65.2	3.8	8.46e-01	0	43	104	0	77	14857
2026-01-24 04:23:29.69	24.43	14.51	-53.3	-65.2	3.8	8.45e-01	0	43	104	0	77	14834
2026-01-24 04:23:30.70	24.34	14.61	-53.3	-65.2	3.8	8.46e-01	0	43	104	0	77	14865
2026-01-24 04:23:31.71	24.26	14.70	-53.3	-65.2	3.8	8.45e-01	0	43	104	0	77	14835
2026-01-24 04:23:32.72	24.18	14.80	-53.3	-65.3	3.8	8.45e-01	0	43	104	0	77	14883
2026-01-24 04:23:33.72	24.09	14.90	-53.3	-65.2	3.8	8.46e-01	0	43	104	0	77	14841
2026-01-24 04:23:34.73	24.01	15.00	-53.3	-65.2	3.8	8.47e-01	0	43	104	0	77	14826
2026-01-24 04:23:35.74	23.92	15.10	-53.3	-65.2	3.8	8.46e-01	0	43	104	0	77	14853
2026-01-24 04:23:36.75	23.84	15.20	-53.3	-65.2	3.8	8.47e-01	0	43	104	0	77	14854
2026-01-24 04:23:37.76	23.75	15.29	-53.3	-65.2	3.8	8.47e-01	0	43	104	0	77	14857
2026-01-24 04:23:38.76	23.67	15.39	-53.3	-65.2	3.8	8.45e-01	0	43	104	0	77	14823
2026-01-24 04:23:39.77	23.58	15.49	-53.3	-65.3	3.8	8.46e-01	0	43	104	0	77	14895
2026-01-24 04:23:40.78	23.49	15.59	-53.3	-65.2	3.8	8.46e-01	0	43	104	0	77	14845
2026-01-24 04:23:41.78	23.40	15.69	-53.3	-65.2	3.8	8.47e-01	0	43	104	0	77	14850
2026-01-24 04:23:42.79	23.31	15.80	-53.3	-65.2	3.8	8.47e-01	0	43	104	0	77	14853
2026-01-24 04:23:43.80	23.22	15.90	-53.3	-65.2	3.8	8.46e-01	0	43	104	0	77	14877
2026-01-24 04:23:44.81	23.13	16.00	-53.3	-65.3	3.8	8.45e-01	0	43	104	0	77	14893
2026-01-24 04:23:45.82	23.04	16.10	-53.3	-65.3	3.8	8.47e-01	0	43	104	0	77	14892
2026-01-24 04:23:46.83	22.95	16.20	-53.3	-65.2	3.8	8.47e-01	0	43	104	0	77	14877
2026-01-24 04:23:47.83	22.85	16.30	-53.3	-65.3	3.8	8.47e-01	0	43	104	0	77	14893
2026-01-24 04:23:48.84	22.76	16.41	-53.3	-65.3	3.8	8.46e-01	0	43	104	0	77	14892
2026-01-24 04:23:49.85	22.67	16.51	-53.3	-65.2	3.8	8.46e-01	0	43	104	0	77	14837
2026-01-24 04:23:50.86	22.57	16.62	-53.3	-65.3	3.8	8.47e-01	0	43	104	0	77	14897
2026-01-24 04:23:51.87	22.47	16.72	-53.3	-65.3	3.8	8.46e-01	0	43	104	0	77	14921
2026-01-24 04:23:52.87	22.38	16.82	-53.3	-65.2	3.8	8.46e-01	0	43	104	0	77	14829
2026-01-24 04:23:53.88	22.28	16.93	-53.3	-65.2	3.8	8.46e-01	0	43	104	0	77	14847
2026-01-24 04:23:54.89	22.18	17.03	-53.3	-65.3	3.8	8.45e-01	0	43	104	0	77	14932
2026-01-24 04:23:55.90	22.09	17.14	-53.3	-65.3	3.8	8.47e-01	0	43	104	0	77	14899
2026-01-24 04:23:56.91	21.99	17.25	-53.3	-65.3	3.8	8.46e-01	0	43	104	0	77	14884
2026-01-24 04:23:57.92	21.89	17.35	-53.3	-65.3	3.8	8.46e-01	0	43	104	0	77	14941
2026-01-24 04:23:58.92	21.79	17.46	-53.3	-65.2	3.8	8.45e-01	0	43	104	0	77	14859
2026-01-24 04:23:59.93	21.69	17.56	-53.3	-65.3	3.8	8.46e-01	0	43	104	0	77	14893
2026-01-24 04:24:00.94	21.58	17.67	-53.3	-65.3	3.8	8.46e-01	0	43	104	0	77	14904
2026-01-24 04:24:01.95	21.48	17.78	-53.3	-65.3	3.8	8.46e-01	0	43	104	0	77	14895
2026-01-24 04:24:02.96	21.38	17.89	-53.3	-65.3	3.8	8.46e-01	0	43	104	0	77	14886
2026-01-24 04:24:03.96	21.27	18.00	-53.3	-65.3	3.8	8.46e-01	0	43	104	0	77	14901
2026-01-24 04:24:04.97	21.17	18.11	-53.3	-65.3	3.8	8.47e-01	0	43	104	0	77	14890
2026-01-24 04:24:05.98	21.06	18.21	-53.3	-65.2	3.8	8.46e-01	0	43	104	0	77	14843
2026-01-24 04:24:06.99	20.96	18.32	-53.3	-65.2	3.8	8.47e-01	0	43	104	0	77	14862
2026-01-24 04:24:07.99	20.85	18.43	-53.3	-65.3	3.8	8.47e-01	0	43	104	0	77	14882
2026-01-24 04:24:09.00	20.74	18.54	-53.3	-65.2	3.8	8.45e-01	0	43	104	0	77	14871
2026-01-24 04:24:10.01	20.63	18.66	-53.3	-65.2	3.8	8.46e-01	0	43	104	0	77	14813
2026-01-24 04:24:11.02	20.52	18.77	-53.3	-65.2	3.8	8.47e-01	0	43	104	0	77	14852
2026-01-24 04:24:12.03	20.41	18.88	-53.3	-65.2	3.8	8.46e-01	0	43	104	0	77	14875
2026-01-24 04:24:13.04	20.30	18.99	-53.3	-65.2	3.8	8.45e-01	0	43	104	0	77	14853
2026-01-24 04:24:14.04	20.19	19.10	-53.3	-65.2	3.8	8.46e-01	0	43	104	0	77	14879
2026-01-24 04:24:15.05	20.07	19.22	-53.3	-65.3	3.8	8.46e-01	0	43	104	0	77	14916
2026-01-24 04:24:16.06	19.96	19.33	-53.3	-65.3	3.8	8.46e-01	0	43	104	0	77	14894
2026-01-24 04:24:17.07	19.85	19.44	-53.3	-65.2	3.8	8.46e-01	0	43	104	0	77	14871
2026-01-24 04:24:18.07	19.73	19.56	-53.3	-65.2	3.8	8.45e-01	0	43	104	0	77	14877
2026-01-24 04:24:19.08	19.61	19.67	-53.3	-65.2	3.8	8.46e-01	0	43	104	0	77	14868
2026-01-24 04:24:20.09	19.50	19.78	-53.3	-65.2	3.8	8.46e-01	0	43	104	0	77	14867
2026-01-24 04:24:21.10	19.38	19.90	-53.3	-65.2	3.8	8.46e-01	0	43	104	0	77	14840
2026-01-24 04:24:22.11	19.26	20.02	-53.3	-65.2	3.8	8.47e-01	0	43	104	0	77	14869
2026-01-24 04:24:23.11	19.14	20.13	-53.3	-65.2	3.8	8.46e-01	0	43	104	0	77	14816
2026-01-24 04:24:24.12	19.02	20.25	-53.3	-65.2	3.8	8.47e-01	0	43	104	0	77	14851
2026-01-24 04:24:25.13	18.89	20.36	-53.3	-65.2	3.8	8.46e-01	0	43	104	0	77	14862
2026-01-24 04:24:26.14	18.77	20.48	-53.3	-65.2	3.8	8.47e-01	0	43	104	0	77	14861
2026-01-24 04:24:27.15	18.65	20.60	-53.3	-65.2	3.8	8.48e-01	0	43	104	0	77	14851
2026-01-24 04:24:28.15	18.52	20.72	-53.3	-65.2	3.8	8.47e-01	0	43	104	0	77	14842
2026-01-24 04:24:29.17	18.39	20.84	-53.3	-65.3	3.8	8.46e-01	0	43	104	0	77	14899
2026-01-24 04:24:30.17	18.27	20.95	-53.3	-65.2	3.8	8.46e-01	0	43	104	0	77	14852
2026-01-24 04:24:31.17	18.14	21.07	-53.3	-65.2	3.8	8.47e-01	0	43	104	0	77	14827
2026-01-24 04:24:32.18	18.01	21.19	-53.3	-65.2	3.8	8.45e-01	0	43	104	0	77	14869
2026-01-24 04:24:33.19	17.88	21.31	-53.3	-65.2	3.8	8.45e-01	0	43	104	0	77	14834
2026-01-24 04:24:34.20	17.75	21.43	-53.3	-65.3	3.8	8.45e-01	0	43	104	0	77	14884
2026-01-24 04:24:35.21	17.62	21.55	-53.3	-65.2	3.8	8.47e-01	0	43	104	0	77	14849
2026-01-24 04:24:36.21	17.48	21.67	-53.3	-65.2	3.8	8.47e-01	0	43	104	0	77	14859
2026-01-24 04:24:37.22	17.35	21.80	-53.3	-65.2	3.8	8.46e-01	0	43	104	0	77	14860
2026-01-24 04:24:38.23	17.21	21.92	-53.3	-65.2	3.8	8.47e-01	0	43	104	0	77	14874
2026-01-24 04:24:39.24	17.08	22.04	-53.3	-65.2	3.8	8.47e-01	0	43	104	0	77	14847
2026-01-24 04:24:40.25	16.94	22.16	-53.3	-65.2	3.8	8.46e-01	0	43	104	0	77	14855
2026-01-24 04:24:41.26	16.80	22.29	-53.3	-65.2	3.8	8.47e-01	0	43	104	0	77	14842
2026-01-24 04:24:42.27	16.66	22.41	-53.3	-65.2	3.8	8.46e-01	0	43	104	0	77	14806
2026-01-24 04:24:43.27	16.52	22.53	-53.3	-65.2	3.8	8.46e-01	0	43	104	0	77	14871
2026-01-24 04:24:44.28	16.38	22.66	-53.3	-65.3	3.8	8.45e-01	0	43	104	0	77	14910
2026-01-24 04:24:45.29	16.23	22.78	-53.3	-65.2	3.8	8.46e-01	0	43	104	0	77	14787
2026-01-24 04:24:46.30	16.09	22.91	-53.2	-65.2	3.8	8.47e-01	0	43	104	0	77	14801
2026-01-24 04:24:47.31	15.94	23.04	-53.3	-65.2	3.8	8.46e-01	0	43	104	0	77	14838
2026-01-24 04:24:48.32	15.79	23.16	-53.3	-65.2	3.8	8.46e-01	0	43	104	0	77	14804
2026-01-24 04:24:49.33	15.65	23.29	-53.3	-65.2	3.8	8.45e-01	0	43	104	0	77	14796
2026-01-24 04:24:50.34	15.50	23.42	-53.3	-65.2	3.8	8.46e-01	0	43	104	0	77	14809
2026-01-24 04:24:51.34	15.35	23.54	-53.3	-65.2	3.8	8.46e-01	0	43	104	0	77	14853
2026-01-24 04:24:52.35	15.19	23.67	-53.3	-65.2	3.8	8.47e-01	0	43	104	0	77	14821
2026-01-24 04:24:53.36	15.04	23.80	-53.3	-65.2	3.8	8.46e-01	0	43	104	0	77	14870
2026-01-24 04:24:54.37	14.89	23.93	-53.3	-65.2	3.8	8.45e-01	0	43	104	0	77	14844
2026-01-24 04:24:55.38	14.73	24.06	-53.3	-65.2	3.8	8.46e-01	0	43	104	0	77	14861
2026-01-24 04:24:56.39	14.57	24.19	-53.3	-65.3	3.8	8.45e-01	0	43	104	0	77	14888
2026-01-24 04:24:57.40	14.41	24.32	-53.3	-65.3	3.8	8.46e-01	0	43	104	0	77	14913
2026-01-24 04:24:58.40	14.25	24.45	-53.3	-65.2	3.8	8.46e-01	0	43	104	0	77	14856
2026-01-24 04:24:59.41	14.09	24.58	-53.3	-65.3	3.8	8.46e-01	0	43	104	0	77	14916
2026-01-24 04:25:00.42	13.93	24.71	-53.3	-65.2	3.8	8.45e-01	0	43	104	0	77	14859
2026-01-24 04:25:01.43	13.76	24.84	-53.3	-65.3	3.8	8.46e-01	0	43	104	0	77	14891
2026-01-24 04:25:02.44	13.60	24.97	-53.3	-65.2	3.8	8.46e-01	0	43	104	0	77	14874
2026-01-24 04:25:03.45	13.43	25.10	-53.3	-65.3	3.8	8.46e-01	0	43	104	0	77	14881
2026-01-24 04:25:04.45	13.26	25.24	-53.3	-65.2	3.8	8.46e-01	0	43	104	0	77	14871
2026-01-24 04:25:05.46	13.09	25.37	-53.3	-65.2	3.8	8.46e-01	0	43	104	0	77	14828
2026-01-24 04:25:06.47	12.92	25.50	-53.3	-65.2	3.8	8.45e-01	0	43	104	0	77	14870
2026-01-24 04:25:07.48	12.75	25.64	-53.3	-65.3	3.8	8.46e-01	0	43	104	0	77	14890
2026-01-24 04:25:08.49	12.58	25.77	-53.3	-65.2	3.8	8.45e-01	0	43	104	0	77	14799
2026-01-24 04:25:09.49	12.40	25.90	-53.3	-65.2	3.8	8.46e-01	0	43	104	0	77	14869
2026-01-24 04:25:10.50	12.22	26.04	-53.3	-65.2	3.8	8.46e-01	0	43	104	0	77	14841
2026-01-24 04:25:11.51	12.04	26.18	-53.3	-65.2	3.8	8.47e-01	0	43	104	0	77	14827
2026-01-24 04:25:12.52	11.86	26.31	-53.3	-65.3	3.8	8.45e-01	0	43	104	0	77	14884
2026-01-24 04:25:13.53	11.68	26.45	-53.3	-65.3	3.8	8.47e-01	0	43	104	0	77	14898
2026-01-24 04:25:14.53	11.50	26.58	-53.3	-65.3	3.8	8.46e-01	0	43	104	0	77	14880
2026-01-24 04:25:15.54	11.31	26.72	-53.3	-65.2	3.8	8.47e-01	0	43	104	0	77	14835
2026-01-24 04:25:16.55	11.13	26.86	-53.3	-65.3	3.8	8.46e-01	0	43	104	0	77	14895
2026-01-24 04:25:17.56	10.94	26.99	-53.3	-65.3	3.8	8.47e-01	0	43	104	0	77	14900
2026-01-24 04:25:18.57	10.75	27.13	-53.3	-65.2	3.8	8.46e-01	0	43	104	0	77	14843
2026-01-24 04:25:19.58	10.56	27.27	-53.3	-65.2	3.8	8.46e-01	0	43	104	0	77	14857
2026-01-24 04:25:20.58	10.36	27.41	-53.3	-65.3	3.8	8.46e-01	0	43	104	0	77	14884
2026-01-24 04:25:21.59	10.17	27.55	-53.3	-65.2	3.8	8.46e-01	0	43	104	0	77	14845
2026-01-24 04:25:22.59	9.97	27.69	-53.3	-65.2	3.8	8.46e-01	0	43	104	0	77	14831
2026-01-24 04:25:23.60	9.77	27.83	-53.3	-65.2	3.8	8.46e-01	0	43	104	0	77	14821
2026-01-24 04:25:24.61	9.57	27.97	-53.3	-65.2	3.8	8.46e-01	0	43	104	0	77	14852
2026-01-24 04:25:25.62	9.37	28.11	-53.3	-65.2	3.8	8.45e-01	0	43	104	0	77	14835
2026-01-24 04:25:26.63	9.17	28.25	-53.3	-65.2	3.8	8.46e-01	0	44	104	0	77	14852
2026-01-24 04:25:27.64	8.96	28.39	-53.3	-65.2	3.8	8.45e-01	0	43	104	0	77	14838
2026-01-24 04:25:28.65	8.75	28.53	-53.3	-65.2	3.8	8.45e-01	0	43	104	0	77	14819
2026-01-24 04:25:29.65	8.54	28.67	-53.3	-65.2	3.8	8.46e-01	0	43	104	0	77	14866
2026-01-24 04:25:30.66	8.33	28.81	-53.3	-65.2	3.8	8.46e-01	0	43	104	0	77	14856
2026-01-24 04:25:31.67	8.12	28.95	-53.3	-65.2	3.8	8.45e-01	0	44	104	0	77	14816
2026-01-24 04:25:32.68	7.90	29.09	-53.3	-65.2	3.8	8.47e-01	0	43	104	0	77	14831
2026-01-24 04:25:33.69	7.68	29.24	-53.3	-65.2	3.8	8.45e-01	0	43	104	0	77	14837
2026-01-24 04:25:34.69	7.47	29.38	-53.3	-65.3	3.8	8.45e-01	0	44	104	0	77	14882
2026-01-24 04:25:35.70	7.24	29.52	-53.3	-65.2	3.8	8.46e-01	0	44	104	0	77	14840
2026-01-24 04:25:36.71	7.02	29.67	-53.3	-65.3	3.8	8.46e-01	0	43	104	0	77	14894
2026-01-24 04:25:37.72	6.80	29.81	-53.3	-65.2	3.8	8.46e-01	0	43	104	0	77	14829
2026-01-24 04:25:38.73	6.57	29.95	-53.3	-65.2	3.8	8.46e-01	0	43	104	0	77	14871
2026-01-24 04:25:39.74	6.34	30.10	-53.3	-65.2	3.8	8.46e-01	0	43	104	0	77	14848
2026-01-24 04:25:40.75	6.11	30.24	-53.3	-65.3	3.8	8.46e-01	0	43	104	0	77	14904
2026-01-24 04:25:41.75	5.87	30.38	-53.3	-65.2	3.8	8.45e-01	0	43	104	0	77	14869
2026-01-24 04:25:42.76	5.64	30.53	-53.3	-65.2	3.8	8.46e-01	0	44	104	0	77	14830
2026-01-24 04:25:43.77	5.40	30.67	-53.3	-65.2	3.8	8.46e-01	0	43	104	0	77	14851
2026-01-24 04:25:44.78	5.16	30.82	-53.3	-65.2	3.8	8.45e-01	0	43	104	0	77	14826
2026-01-24 04:25:45.78	4.92	30.96	-53.3	-65.2	3.8	8.46e-01	0	44	104	0	77	14848
2026-01-24 04:25:46.79	4.67	31.11	-53.3	-65.2	3.8	8.46e-01	0	43	104	0	77	14836
2026-01-24 04:25:47.80	4.43	31.25	-53.3	-65.3	3.8	8.45e-01	0	43	104	0	77	14886
2026-01-24 04:25:48.81	4.18	31.40	-53.3	-65.2	3.8	8.45e-01	0	43	104	0	77	14848
2026-01-24 04:25:49.82	3.93	31.54	-53.3	-65.2	3.8	8.46e-01	0	43	104	0	77	14867
2026-01-24 04:25:50.83	3.67	31.69	-53.3	-65.2	3.8	8.46e-01	0	44	104	0	77	14854
2026-01-24 04:25:51.83	3.42	31.83	-53.3	-65.2	3.8	8.47e-01	0	43	104	0	77	14857
2026-01-24 04:25:52.84	3.16	31.98	-53.3	-65.2	3.8	8.46e-01	0	44	104	0	77	14873
2026-01-24 04:25:53.85	2.90	32.12	-53.3	-65.2	3.8	8.45e-01	0	43	104	0	77	14828
2026-01-24 04:25:54.86	2.64	32.27	-53.3	-65.2	3.8	8.47e-01	0	43	104	0	77	14820
2026-01-24 04:25:55.87	2.37	32.41	-53.3	-65.3	3.8	8.46e-01	0	43	104	0	77	14884
2026-01-24 04:25:56.87	2.11	32.56	-53.3	-65.2	3.8	8.48e-01	0	43	104	0	77	14834
2026-01-24 04:25:57.88	1.84	32.70	-53.3	-65.2	3.8	8.46e-01	0	44	104	0	77	14851
2026-01-24 04:25:58.89	1.56	32.85	-53.3	-65.3	3.8	8.46e-01	0	43	104	0	77	14899
2026-01-24 04:25:59.90	1.29	33.00	-53.3	-65.3	3.8	8.46e-01	0	43	104	0	77	14885
2026-01-24 04:26:00.91	1.01	33.14	-53.3	-65.2	3.8	8.46e-01	0	44	104	0	77	14864
2026-01-24 04:26:01.92	0.73	33.29	-53.3	-65.2	3.8	8.45e-01	0	43	104	0	77	14855
2026-01-24 04:26:02.93	0.45	33.43	-53.3	-65.3	3.8	8.46e-01	0	44	104	0	77	14885
2026-01-24 04:26:03.93	0.16	33.58	-53.3	-65.2	3.8	8.45e-01	0	44	104	0	77	14856
2026-01-24 04:26:04.94	359.87	33.72	-53.3	-65.2	3.8	8.45e-01	0	44	104	0	77	14860
2026-01-24 04:26:05.95	359.58	33.87	-53.3	-65.2	3.8	8.46e-01	0	43	104	0	77	14846
2026-01-24 04:26:06.96	359.29	34.01	-53.3	-65.2	3.8	8.46e-01	0	43	104	0	77	14833
2026-01-24 04:26:07.97	358.99	34.16	-53.3	-65.2	3.8	8.45e-01	0	44	104	0	77	14818
2026-01-24 04:26:08.98	358.70	34.30	-53.2	-65.2	3.8	8.47e-01	0	43	104	0	77	14733
2026-01-24 04:26:09.98	358.40	34.44	-53.3	-65.2	3.8	8.46e-01	0	44	104	0	77	14830
2026-01-24 04:26:10.99	358.09	34.59	-53.3	-65.2	3.8	8.45e-01	0	44	104	0	77	14862
2026-01-24 04:26:12.00	357.79	34.73	-53.3	-65.2	3.8	8.46e-01	0	44	104	0	77	14798
2026-01-24 04:26:13.01	357.48	34.88	-53.2	-65.3	3.8	8.46e-01	0	43	104	0	77	14880
2026-01-24 04:26:14.02	357.16	35.02	-53.3	-65.2	3.8	8.46e-01	0	44	104	0	77	14794
2026-01-24 04:26:15.02	356.85	35.16	-53.3	-65.2	3.8	8.46e-01	0	44	104	0	77	14821
2026-01-24 04:26:16.03	356.53	35.30	-53.3	-65.2	3.8	8.46e-01	0	44	104	0	77	14842
2026-01-24 04:26:17.04	356.21	35.44	-53.3	-65.2	3.8	8.46e-01	0	44	104	0	77	14843
2026-01-24 04:26:18.05	355.89	35.59	-53.2	-65.2	3.8	8.46e-01	0	44	104	0	77	14855
2026-01-24 04:26:19.06	355.56	35.73	-53.3	-65.2	3.8	8.46e-01	0	44	104	0	77	14812
2026-01-24 04:26:20.07	355.24	35.87	-53.3	-65.3	3.8	8.48e-01	0	43	104	0	77	14889
2026-01-24 04:26:21.08	354.90	36.01	-53.3	-65.3	3.8	8.47e-01	0	44	104	0	77	14888
2026-01-24 04:26:22.09	354.57	36.15	-53.3	-65.2	3.8	8.46e-01	0	44	104	0	77	14877
2026-01-24 04:26:23.09	354.23	36.29	-53.3	-65.2	3.8	8.46e-01	0	44	104	0	77	14863
2026-01-24 04:26:24.10	353.89	36.42	-53.3	-65.2	3.8	8.45e-01	0	44	104	0	77	14847
2026-01-24 04:26:25.11	353.55	36.56	-53.3	-65.2	3.8	8.46e-01	0	44	104	0	77	14841
2026-01-24 04:26:26.12	353.20	36.70	-53.3	-65.2	3.8	8.46e-01	0	43	104	0	77	14855
2026-01-24 04:26:27.13	352.85	36.84	-53.3	-65.2	3.8	8.47e-01	0	44	104	0	77	14845
2026-01-24 04:26:28.14	352.50	36.97	-53.3	-65.2	3.8	8.46e-01	0	44	104	0	77	14827
2026-01-24 04:26:29.15	352.14	37.11	-53.3	-65.2	3.8	8.46e-01	0	43	104	0	77	14837
2026-01-24 04:26:30.15	351.79	37.24	-53.3	-65.2	3.8	8.47e-01	0	43	104	0	77	14825
2026-01-24 04:26:31.16	351.43	37.38	-53.3	-65.2	3.8	8.46e-01	0	44	104	0	77	14847
2026-01-24 04:26:32.17	351.06	37.51	-53.3	-65.2	3.8	8.46e-01	0	44	104	0	77	14852
2026-01-24 04:26:33.18	350.70	37.64	-53.3	-65.2	3.8	8.46e-01	0	44	104	0	77	14865
2026-01-24 04:26:34.19	350.33	37.77	-53.3	-65.2	3.8	8.46e-01	0	44	104	0	77	14823
2026-01-24 04:26:35.19	349.96	37.90	-53.3	-65.3	3.8	8.47e-01	0	43	104	0	77	14885
2026-01-24 04:26:36.20	349.58	38.03	-53.3	-65.2	3.8	8.46e-01	0	44	104	0	77	14838
2026-01-24 04:26:37.21	349.20	38.16	-53.3	-65.2	3.8	8.46e-01	0	44	104	0	77	14823
2026-01-24 04:26:38.22	348.82	38.29	-53.3	-65.2	3.8	8.46e-01	0	44	104	0	77	14816
2026-01-24 04:26:39.23	348.43	38.42	-53.3	-65.3	3.8	8.46e-01	0	43	104	0	77	14894
2026-01-24 04:26:40.23	348.05	38.54	-53.3	-65.2	3.8	8.47e-01	0	43	104	0	77	14849
2026-01-24 04:26:41.24	347.65	38.67	-53.3	-65.2	3.8	8.46e-01	0	44	104	0	77	14819
2026-01-24 04:26:42.25	347.26	38.79	-53.3	-65.2	3.8	8.47e-01	0	44	104	0	77	14875
2026-01-24 04:26:43.26	346.86	38.91	-53.2	-65.2	3.8	8.47e-01	0	44	104	0	77	14828
2026-01-24 04:26:44.26	346.46	39.04	-53.3	-65.3	3.8	8.47e-01	0	43	104	0	77	14884
2026-01-24 04:26:45.27	346.06	39.16	-53.2	-65.2	3.8	8.46e-01	0	44	104	0	77	14780
2026-01-24 04:26:46.28	345.65	39.27	-53.3	-65.2	3.8	8.46e-01	0	44	104	0	77	14841
2026-01-24 04:26:47.29	345.24	39.39	-53.3	-65.2	3.8	8.46e-01	0	44	104	0	77	14818
2026-01-24 04:26:48.29	344.84	39.51	-53.3	-65.2	3.8	8.45e-01	0	44	104	0	77	14847
2026-01-24 04:26:49.30	344.42	39.62	-53.2	-65.2	3.8	8.46e-01	0	43	104	0	77	14794
2026-01-24 04:26:50.31	344.00	39.74	-53.3	-65.2	3.8	8.47e-01	0	43	104	0	77	14831
2026-01-24 04:26:51.32	343.58	39.85	-53.3	-65.2	3.8	8.46e-01	0	43	104	0	77	14862
2026-01-24 04:26:52.33	343.15	39.96	-53.2	-65.2	3.8	8.46e-01	0	43	104	0	77	14843
2026-01-24 04:26:53.34	342.73	40.07	-53.2	-65.2	3.8	8.48e-01	0	43	104	0	77	14809
2026-01-24 04:26:54.34	342.30	40.18	-53.3	-65.2	3.8	8.46e-01	0	43	104	0	77	14823
2026-01-24 04:26:55.35	341.87	40.29	-53.3	-65.2	3.8	8.46e-01	0	44	104	0	77	14844
2026-01-24 04:26:56.36	341.43	40.39	-53.2	-65.2	3.8	8.47e-01	0	44	104	0	77	14854
2026-01-24 04:26:57.37	340.99	40.49	-53.2	-65.2	3.8	8.45e-01	0	44	104	0	77	14849
2026-01-24 04:26:58.37	340.55	40.60	-53.2	-65.2	3.8	8.46e-01	0	44	104	0	77	14864
2026-01-24 04:26:59.38	340.11	40.70	-53.3	-65.2	3.8	8.46e-01	0	44	104	0	77	14804
2026-01-24 04:27:00.39	339.66	40.79	-53.3	-65.2	3.8	8.47e-01	0	44	104	0	77	14864
2026-01-24 04:27:01.40	339.21	40.89	-53.2	-65.2	3.8	8.46e-01	0	43	104	0	77	14806
2026-01-24 04:27:02.41	338.76	40.99	-53.3	-65.2	3.8	8.47e-01	0	44	104	0	77	14809
2026-01-24 04:27:03.42	338.30	41.08	-53.2	-65.2	3.8	8.45e-01	0	43	104	0	77	14826
2026-01-24 04:27:04.42	337.85	41.17	-53.3	-65.2	3.8	8.46e-01	0	43	104	0	77	14844
2026-01-24 04:27:05.43	337.39	41.26	-53.2	-65.2	3.8	8.46e-01	0	43	104	0	77	14805
2026-01-24 04:27:06.44	336.93	41.35	-53.2	-65.2	3.8	8.47e-01	0	44	104	0	77	14810
2026-01-24 04:27:07.45	336.46	41.43	-53.2	-65.2	3.8	8.46e-01	0	43	104	0	77	14850
2026-01-24 04:27:08.46	335.99	41.52	-53.2	-65.2	3.8	8.47e-01	0	44	104	0	77	14839
2026-01-24 04:27:09.47	335.52	41.60	-53.3	-65.2	3.8	8.46e-01	0	43	104	0	77	14845
2026-01-24 04:27:10.48	335.05	41.68	-53.3	-65.2	3.8	8.46e-01	0	44	104	0	77	14865
2026-01-24 04:27:11.48	334.58	41.76	-53.3	-65.2	3.8	8.47e-01	0	44	104	0	77	14828
2026-01-24 04:27:12.49	334.10	41.83	-53.3	-65.2	3.8	8.47e-01	0	44	104	0	77	14771
2026-01-24 04:27:13.50	333.62	41.91	-53.3	-65.2	3.8	8.46e-01	0	44	104	0	77	14841
2026-01-24 04:27:14.51	333.14	41.98	-53.3	-65.2	3.8	8.47e-01	0	44	104	0	77	14827
2026-01-24 04:27:15.52	332.65	42.05	-53.3	-65.2	3.8	8.45e-01	0	43	104	0	77	14765
2026-01-24 04:27:16.53	332.17	42.11	-53.3	-65.2	3.8	8.46e-01	0	43	104	0	77	14833
2026-01-24 04:27:17.54	331.68	42.18	-53.3	-65.2	3.8	8.46e-01	0	44	104	0	77	14816
2026-01-24 04:27:18.54	331.19	42.24	-53.3	-65.2	3.8	8.46e-01	0	43	104	0	77	14823
2026-01-24 04:27:19.55	330.70	42.30	-53.2	-65.2	3.8	8.45e-01	0	43	104	0	77	14807
2026-01-24 04:27:20.56	330.21	42.36	-53.3	-65.2	3.8	8.46e-01	0	44	104	0	77	14858
2026-01-24 04:27:21.57	329.71	42.42	-53.3	-65.2	3.8	8.47e-01	0	44	104	0	77	14842
2026-01-24 04:27:22.58	329.22	42.47	-53.3	-65.2	3.8	8.45e-01	0	44	104	0	77	14841
2026-01-24 04:27:23.59	328.72	42.52	-53.2	-65.2	3.8	8.45e-01	0	44	104	0	77	14783
2026-01-24 04:27:24.60	328.22	42.57	-53.3	-65.2	3.8	8.47e-01	0	43	104	0	77	14848
2026-01-24 04:27:25.61	327.71	42.61	-53.3	-65.3	3.8	8.45e-01	0	43	104	0	77	14887
2026-01-24 04:27:26.62	327.21	42.66	-53.3	-65.2	3.8	8.45e-01	0	43	104	0	77	14872
2026-01-24 04:27:27.63	326.71	42.70	-53.3	-65.2	3.8	8.46e-01	0	44	104	0	77	14807
2026-01-24 04:27:28.63	326.20	42.74	-53.3	-65.2	3.8	8.46e-01	0	43	104	0	77	14817
2026-01-24 04:27:29.64	325.70	42.78	-53.2	-65.2	3.8	8.45e-01	0	44	104	0	77	14816
2026-01-24 04:27:30.65	325.19	42.81	-53.3	-65.2	3.8	8.46e-01	0	44	104	0	77	14854
2026-01-24 04:27:31.66	324.68	42.84	-53.3	-65.2	3.8	8.46e-01	0	44	104	0	77	14836
2026-01-24 04:27:32.67	324.17	42.87	-53.2	-65.2	3.8	8.46e-01	0	44	104	0	77	14815
2026-01-24 04:27:33.67	323.66	42.90	-53.2	-65.2	3.8	8.46e-01	0	44	104	0	77	14845
2026-01-24 04:27:34.68	323.15	42.92	-53.3	-65.2	3.8	8.46e-01	0	44	104	0	77	14812
2026-01-24 04:27:35.69	322.64	42.94	-53.2	-65.2	3.8	8.46e-01	0	44	104	0	77	14780
2026-01-24 04:27:36.70	322.12	42.96	-53.2	-65.2	3.8	8.47e-01	0	44	104	0	77	14806
2026-01-24 04:27:37.71	321.61	42.98	-53.2	-65.2	3.8	8.46e-01	0	43	104	0	77	14816
2026-01-24 04:27:38.72	321.09	42.99	-53.2	-65.2	3.8	8.47e-01	0	43	104	0	77	14825
2026-01-24 04:27:39.73	320.58	43.00	-53.2	-65.2	3.8	8.47e-01	0	43	104	0	77	14791
2026-01-24 04:27:40.74	320.06	43.01	-53.3	-65.2	3.8	8.47e-01	0	43	104	0	77	14815
2026-01-24 04:27:41.75	319.55	43.01	-53.2	-65.2	3.8	8.47e-01	0	44	104	0	77	14840
2026-01-24 04:27:42.76	319.03	43.02	-53.2	-65.2	3.8	8.46e-01	0	43	104	0	77	14812
2026-01-24 04:27:43.76	318.52	43.02	-53.2	-65.2	3.8	8.45e-01	0	43	104	0	77	14781
2026-01-24 04:27:44.77	318.01	43.02	-53.3	-65.2	3.8	8.46e-01	0	43	104	0	77	14800
2026-01-24 04:27:45.78	317.49	43.01	-53.2	-65.2	3.8	8.45e-01	0	43	104	0	77	14815
2026-01-24 04:27:46.79	316.97	43.00	-53.2	-65.2	3.8	8.46e-01	0	43	104	0	77	14800
2026-01-24 04:27:47.79	316.46	42.99	-53.2	-65.2	3.8	8.47e-01	0	43	104	0	77	14776
2026-01-24 04:27:48.80	315.95	42.98	-53.2	-65.2	3.8	8.47e-01	0	43	104	0	77	14806
2026-01-24 04:27:49.81	315.44	42.97	-53.2	-65.2	3.8	8.46e-01	0	43	104	0	77	14744
2026-01-24 04:27:50.82	314.92	42.95	-53.2	-65.2	3.8	8.47e-01	0	44	104	0	77	14773
2026-01-24 04:27:51.82	314.41	42.93	-53.2	-65.2	3.8	8.47e-01	0	44	104	0	77	14780
2026-01-24 04:27:52.83	313.90	42.90	-53.2	-65.2	3.8	8.47e-01	0	44	104	0	77	14711
2026-01-24 04:27:53.84	313.39	42.88	-53.2	-65.1	3.8	8.47e-01	0	43	104	0	77	14693
2026-01-24 04:27:54.85	312.88	42.85	-53.2	-65.2	3.8	8.46e-01	0	43	104	0	77	14711
2026-01-24 04:27:55.86	312.37	42.82	-53.2	-65.1	3.8	8.45e-01	0	43	104	0	77	14657
2026-01-24 04:27:56.87	311.86	42.79	-53.2	-65.1	3.8	8.47e-01	0	43	104	0	77	14699
2026-01-24 04:27:57.88	311.35	42.75	-53.2	-65.2	3.8	8.46e-01	0	43	104	0	77	14723
2026-01-24 04:27:58.89	310.84	42.71	-53.2	-65.2	3.8	8.46e-01	0	43	104	0	77	14719
2026-01-24 04:27:59.90	310.34	42.67	-53.2	-65.2	3.8	8.46e-01	0	44	104	0	77	14709
2026-01-24 04:28:00.91	309.83	42.63	-53.2	-65.2	3.8	8.46e-01	0	43	104	0	77	14757
2026-01-24 04:28:01.91	309.34	42.59	-53.2	-65.2	3.8	8.46e-01	0	43	104	0	77	14732
2026-01-24 04:28:02.92	308.83	42.54	-53.2	-65.2	3.8	8.45e-01	0	44	104	0	77	14767
2026-01-24 04:28:03.93	308.33	42.49	-53.2	-65.2	3.8	8.46e-01	0	44	104	0	77	14760
2026-01-24 04:28:04.94	307.84	42.43	-53.2	-65.2	3.8	8.46e-01	0	44	104	0	77	14791
2026-01-24 04:28:05.95	307.34	42.38	-53.2	-65.2	3.8	8.47e-01	0	43	104	0	77	14787
2026-01-24 04:28:06.96	306.84	42.32	-53.2	-65.2	3.8	8.47e-01	0	44	104	0	77	14830
2026-01-24 04:28:07.96	306.36	42.26	-53.2	-65.2	3.8	8.46e-01	0	44	104	0	77	14779
2026-01-24 04:28:08.97	305.87	42.20	-53.2	-65.2	3.8	8.46e-01	0	43	104	0	77	14791
2026-01-24 04:28:09.98	305.38	42.14	-53.2	-65.2	3.8	8.46e-01	0	43	104	0	77	14793
2026-01-24 04:28:10.99	304.89	42.07	-53.2	-65.2	3.8	8.47e-01	0	43	104	0	77	14793
2026-01-24 04:28:11.99	304.41	42.00	-53.2	-65.2	3.8	8.46e-01	0	43	104	0	77	14784
2026-01-24 04:28:13.00	303.92	41.93	-53.2	-65.2	3.8	8.45e-01	0	43	104	0	77	14754
2026-01-24 04:28:14.01	303.44	41.86	-53.2	-65.2	3.8	8.46e-01	0	43	104	0	77	14745
2026-01-24 04:28:15.02	302.96	41.78	-53.2	-65.2	3.8	8.46e-01	0	44	104	0	77	14740
2026-01-24 04:28:16.02	302.49	41.71	-53.2	-65.2	3.8	8.47e-01	0	43	104	0	77	14786
2026-01-24 04:28:17.03	302.02	41.63	-53.2	-65.2	3.8	8.47e-01	0	43	104	0	77	14738
2026-01-24 04:28:18.04	301.55	41.55	-53.2	-65.2	3.8	8.47e-01	0	43	104	0	77	14768
2026-01-24 04:28:19.05	301.08	41.46	-53.2	-65.2	3.8	8.46e-01	0	44	104	0	77	14787
2026-01-24 04:28:20.06	300.61	41.38	-53.2	-65.2	3.8	8.45e-01	0	43	104	0	77	14769
2026-01-24 04:28:21.06	300.15	41.29	-53.2	-65.2	3.8	8.46e-01	0	43	104	0	77	14743
2026-01-24 04:28:22.07	299.69	41.20	-53.2	-65.2	3.8	8.47e-01	0	43	104	0	77	14713
2026-01-24 04:28:23.08	299.23	41.11	-53.2	-65.1	3.8	8.46e-01	0	43	104	0	77	14686
2026-01-24 04:28:24.09	298.77	41.02	-53.2	-65.2	3.8	8.47e-01	0	43	104	0	77	14784
2026-01-24 04:28:25.10	298.32	40.92	-53.2	-65.2	3.8	8.45e-01	0	43	104	0	77	14778
2026-01-24 04:28:26.11	297.86	40.83	-53.3	-65.2	3.8	8.46e-01	0	44	104	0	77	14825
2026-01-24 04:28:27.12	297.42	40.73	-53.3	-65.2	3.8	8.46e-01	0	43	104	0	77	14836
2026-01-24 04:28:28.12	296.97	40.63	-53.3	-65.2	3.8	8.46e-01	0	43	104	0	77	14816
2026-01-24 04:28:29.13	296.53	40.53	-53.2	-65.2	3.8	8.46e-01	0	44	104	0	77	14852
2026-01-24 04:28:30.14	296.09	40.43	-53.3	-65.2	3.8	8.46e-01	0	43	104	0	77	14828
2026-01-24 04:28:31.14	295.66	40.32	-53.3	-65.2	3.8	8.45e-01	0	44	104	0	77	14839
2026-01-24 04:28:32.15	295.22	40.22	-53.3	-65.3	3.8	8.47e-01	0	44	104	0	77	14904
2026-01-24 04:28:33.16	294.79	40.11	-53.3	-65.3	3.8	8.47e-01	0	43	104	0	77	14882
2026-01-24 04:28:34.17	294.36	40.00	-53.3	-65.3	3.8	8.45e-01	0	43	104	0	77	14884
2026-01-24 04:28:35.18	293.93	39.89	-53.3	-65.3	3.8	8.46e-01	0	43	104	0	77	14886
2026-01-24 04:28:36.19	293.51	39.78	-53.3	-65.2	3.8	8.46e-01	0	44	104	0	77	14827
2026-01-24 04:28:37.19	293.09	39.66	-53.3	-65.2	3.8	8.47e-01	0	44	104	0	77	14873
2026-01-24 04:28:38.20	292.68	39.55	-53.3	-65.2	3.8	8.46e-01	0	43	104	0	77	14803
2026-01-24 04:28:39.21	292.26	39.43	-53.3	-65.2	3.8	8.45e-01	0	43	104	0	77	14712
2026-01-24 04:28:40.22	291.85	39.31	-53.3	-65.2	3.8	8.45e-01	0	43	104	0	77	14818
2026-01-24 04:28:41.23	291.44	39.20	-53.3	-65.2	3.8	8.46e-01	0	43	104	0	77	14778
2026-01-24 04:28:42.24	291.04	39.07	-53.3	-65.2	3.8	8.46e-01	0	43	104	0	77	14771
2026-01-24 04:28:43.25	290.63	38.95	-53.3	-65.3	3.8	8.45e-01	0	44	104	0	77	14882
2026-01-24 04:28:44.26	290.23	38.83	-53.3	-65.2	3.8	8.47e-01	0	43	104	0	77	14869
2026-01-24 04:28:45.27	289.84	38.71	-53.3	-65.2	3.8	8.46e-01	0	43	104	0	77	14825
2026-01-24 04:28:46.27	289.45	38.58	-53.3	-65.2	3.8	8.46e-01	0	43	104	0	77	14868
2026-01-24 04:28:47.28	289.06	38.46	-53.3	-65.3	3.8	8.46e-01	0	43	104	0	77	14919
2026-01-24 04:28:48.29	288.67	38.33	-53.3	-65.2	3.8	8.47e-01	0	43	104	0	77	14861
2026-01-24 04:28:49.30	288.29	38.20	-53.2	-65.2	3.8	8.45e-01	0	43	104	0	77	14847
2026-01-24 04:28:50.31	287.91	38.07	-53.3	-65.2	3.8	8.47e-01	0	44	104	0	77	14825
2026-01-24 04:28:51.32	287.53	37.94	-53.3	-65.2	3.8	8.46e-01	0	43	104	0	77	14829
2026-01-24 04:28:52.33	287.15	37.81	-53.3	-65.2	3.8	8.47e-01	0	43	104	0	77	14838
2026-01-24 04:28:53.34	286.78	37.68	-53.3	-65.3	3.8	8.47e-01	0	43	104	0	77	14919
2026-01-24 04:28:54.34	286.41	37.55	-53.3	-65.3	3.8	8.46e-01	0	44	104	0	77	14888
2026-01-24 04:28:55.36	286.04	37.42	-53.3	-65.2	3.8	8.47e-01	0	43	104	0	77	14878
2026-01-24 04:28:56.36	285.68	37.28	-53.3	-65.2	3.8	8.45e-01	0	44	104	0	77	14835
2026-01-24 04:28:57.37	285.32	37.15	-53.3	-65.2	3.8	8.46e-01	0	44	104	0	77	14851
2026-01-24 04:28:58.38	284.97	37.01	-53.3	-65.2	3.8	8.47e-01	0	43	104	0	77	14853
2026-01-24 04:28:59.39	284.61	36.88	-53.3	-65.2	3.8	8.47e-01	0	43	104	0	77	14854
2026-01-24 04:29:00.40	284.26	36.74	-53.3	-65.2	3.8	8.46e-01	0	43	104	0	77	14855
2026-01-24 04:29:01.41	283.91	36.60	-53.3	-65.2	3.8	8.47e-01	0	43	104	0	77	14873
2026-01-24 04:29:02.42	283.57	36.46	-53.3	-65.3	3.8	8.47e-01	0	43	104	0	77	14881
2026-01-24 04:29:03.43	283.23	36.32	-53.3	-65.2	3.8	8.46e-01	0	43	104	0	77	14861
2026-01-24 04:29:04.43	282.89	36.19	-53.3	-65.2	3.8	8.47e-01	0	43	104	0	77	14846
2026-01-24 04:29:05.44	282.55	36.05	-53.3	-65.2	3.8	8.46e-01	0	43	104	0	77	14838
2026-01-24 04:29:06.45	282.22	35.91	-53.3	-65.2	3.8	8.46e-01	0	43	104	0	77	14803
2026-01-24 04:29:07.46	281.89	35.76	-53.3	-65.2	3.8	8.46e-01	0	43	104	0	77	14804
2026-01-24 04:29:08.47	281.56	35.62	-53.3	-65.2	3.8	8.46e-01	0	43	104	0	77	14807
2026-01-24 04:29:09.48	281.24	35.48	-53.2	-65.2	3.8	8.47e-01	0	43	104	0	77	14852
2026-01-24 04:29:10.49	280.91	35.34	-53.3	-65.2	3.8	8.45e-01	0	43	104	0	77	14854
2026-01-24 04:29:11.50	280.59	35.20	-53.3	-65.2	3.8	8.47e-01	0	44	104	0	77	14833
2026-01-24 04:29:12.50	280.28	35.06	-53.3	-65.2	3.8	8.46e-01	0	43	104	0	77	14853
2026-01-24 04:29:13.51	279.97	34.91	-53.3	-65.2	3.8	8.47e-01	0	44	104	0	77	14815
2026-01-24 04:29:14.52	279.66	34.77	-53.3	-65.2	3.8	8.45e-01	0	43	104	0	77	14859
2026-01-24 04:29:15.53	279.35	34.62	-53.3	-65.2	3.8	8.47e-01	0	43	104	0	77	14815
2026-01-24 04:29:16.54	279.04	34.48	-53.3	-65.2	3.8	8.44e-01	0	43	104	0	77	14842
2026-01-24 04:29:17.55	278.74	34.34	-53.3	-65.2	3.8	8.46e-01	0	44	104	0	77	14826
2026-01-24 04:29:18.56	278.44	34.19	-53.3	-65.2	3.8	8.46e-01	0	43	104	0	77	14811
2026-01-24 04:29:19.56	278.14	34.05	-53.3	-65.2	3.8	8.47e-01	0	43	104	0	77	14837
2026-01-24 04:29:20.57	277.85	33.90	-53.3	-65.2	3.8	8.46e-01	0	43	104	0	77	14846
2026-01-24 04:29:21.58	277.56	33.76	-53.3	-65.3	3.8	8.45e-01	0	43	104	0	77	14903
2026-01-24 04:29:22.59	277.27	33.61	-53.3	-65.2	3.8	8.46e-01	0	43	104	0	77	14823
2026-01-24 04:29:23.60	276.98	33.47	-53.3	-65.2	3.8	8.47e-01	0	43	104	0	77	14788
2026-01-24 04:29:24.61	276.70	33.32	-53.3	-65.3	3.8	8.46e-01	0	43	104	0	77	14899
2026-01-24 04:29:25.62	276.41	33.17	-53.3	-65.3	3.8	8.45e-01	0	43	104	0	77	14913
2026-01-24 04:29:26.62	276.14	33.03	-53.3	-65.3	3.8	8.46e-01	0	43	104	0	77	14901
2026-01-24 04:29:27.63	275.86	32.88	-53.3	-65.2	3.8	8.46e-01	0	43	104	0	77	14878
2026-01-24 04:29:28.64	275.59	32.74	-53.3	-65.2	3.8	8.46e-01	0	44	104	0	77	14877
2026-01-24 04:29:29.65	275.31	32.59	-53.3	-65.3	3.8	8.46e-01	0	43	104	0	77	14893
2026-01-24 04:29:30.66	275.04	32.44	-53.3	-65.3	3.8	8.45e-01	0	43	104	0	77	14953
2026-01-24 04:29:31.67	274.78	32.30	-53.3	-65.3	3.8	8.47e-01	0	43	104	0	77	14931
2026-01-24 04:29:32.67	274.52	32.15	-53.3	-65.3	3.8	8.47e-01	0	43	104	0	77	14880
2026-01-24 04:29:33.68	274.25	32.01	-53.3	-65.3	3.8	8.45e-01	0	43	104	0	77	14882
2026-01-24 04:29:34.69	273.99	31.86	-53.3	-65.3	3.8	8.47e-01	0	44	104	0	77	14884
2026-01-24 04:29:35.70	273.74	31.72	-53.3	-65.2	3.8	8.46e-01	0	43	104	0	77	14875
2026-01-24 04:29:36.71	273.48	31.57	-53.3	-65.3	3.8	8.47e-01	0	44	104	0	77	14902
2026-01-24 04:29:37.72	273.23	31.42	-53.3	-65.2	3.8	8.44e-01	0	43	104	0	77	14866
2026-01-24 04:29:38.72	272.98	31.28	-53.3	-65.2	3.8	8.45e-01	0	43	104	0	77	14862
2026-01-24 04:29:39.74	272.73	31.13	-53.3	-65.2	3.8	8.46e-01	0	44	104	0	77	14841
2026-01-24 04:29:40.74	272.48	30.99	-53.3	-65.2	3.8	8.47e-01	0	43	104	0	77	14870
2026-01-24 04:29:41.75	272.24	30.84	-53.3	-65.2	3.8	8.46e-01	0	43	104	0	77	14819
2026-01-24 04:29:42.76	272.00	30.70	-53.3	-65.2	3.8	8.46e-01	0	43	104	0	77	14849
2026-01-24 04:29:43.77	271.76	30.55	-53.3	-65.2	3.8	8.46e-01	0	43	104	0	77	14831
2026-01-24 04:29:44.77	271.52	30.41	-53.3	-65.2	3.8	8.46e-01	0	43	104	0	77	14846
2026-01-24 04:29:45.78	271.29	30.26	-53.3	-65.3	3.8	8.46e-01	0	43	104	0	77	14880
2026-01-24 04:29:46.79	271.06	30.12	-53.3	-65.2	3.8	8.46e-01	0	44	104	0	77	14852
2026-01-24 04:29:47.80	270.83	29.98	-53.3	-65.3	3.8	8.47e-01	0	43	104	0	77	14908
2026-01-24 04:29:48.81	270.60	29.83	-53.3	-65.2	3.8	8.45e-01	0	43	104	0	77	14851
2026-01-24 04:29:49.82	270.37	29.69	-53.3	-65.2	3.8	8.45e-01	0	43	104	0	77	14832
2026-01-24 04:29:50.82	270.15	29.55	-53.3	-65.2	3.8	8.47e-01	0	43	104	0	77	14838
2026-01-24 04:29:51.83	269.92	29.40	-53.2	-65.2	3.8	8.46e-01	0	44	104	0	77	14839
2026-01-24 04:29:52.84	269.70	29.26	-53.3	-65.2	3.8	8.45e-01	0	44	104	0	77	14841
2026-01-24 04:29:53.85	269.48	29.12	-53.3	-65.2	3.8	8.47e-01	0	44	104	0	77	14801
2026-01-24 04:29:54.86	269.27	28.97	-53.3	-65.2	3.8	8.46e-01	0	43	104	0	77	14811
2026-01-24 04:29:55.87	269.05	28.83	-53.3	-65.2	3.8	8.46e-01	0	43	104	0	77	14866
2026-01-24 04:29:56.87	268.84	28.69	-53.2	-65.2	3.8	8.46e-01	0	43	104	0	77	14829
2026-01-24 04:29:57.88	268.63	28.55	-53.2	-65.2	3.8	8.47e-01	0	44	104	0	77	14800
2026-01-24 04:29:58.89	268.42	28.41	-53.2	-65.2	3.8	8.45e-01	0	44	104	0	77	14748
2026-01-24 04:29:59.90	268.21	28.26	-53.3	-65.2	3.8	8.46e-01	0	44	104	0	77	14833
2026-01-24 04:30:00.91	268.01	28.12	-53.3	-65.3	3.8	8.46e-01	0	43	104	0	77	14887
2026-01-24 04:30:01.91	267.81	27.98	-53.3	-65.2	3.8	8.45e-01	0	44	104	0	77	14841
2026-01-24 04:30:02.92	267.60	27.84	-53.3	-65.2	3.8	8.47e-01	0	43	104	0	77	14862
2026-01-24 04:30:03.93	267.40	27.70	-53.3	-65.2	3.8	8.45e-01	0	44	104	0	77	14875
2026-01-24 04:30:04.94	267.21	27.56	-53.3	-65.2	3.8	8.47e-01	0	43	104	0	77	14873
2026-01-24 04:30:05.95	267.01	27.42	-53.3	-65.2	3.8	8.46e-01	0	44	104	0	77	14830
2026-01-24 04:30:06.96	266.81	27.28	-53.2	-65.2	3.8	8.46e-01	0	44	104	0	77	14841
2026-01-24 04:30:07.97	266.62	27.15	-53.3	-65.2	3.8	8.46e-01	0	43	104	0	77	14838
2026-01-24 04:30:08.98	266.43	27.01	-53.2	-65.2	3.8	8.46e-01	0	44	104	0	77	14815
2026-01-24 04:30:09.99	266.24	26.87	-53.2	-65.2	3.8	8.46e-01	0	43	104	0	77	14838
2026-01-24 04:30:11.00	266.05	26.73	-53.2	-65.2	3.8	8.46e-01	0	44	104	0	77	14812
2026-01-24 04:30:12.01	265.87	26.59	-53.2	-65.2	3.8	8.46e-01	0	44	104	0	77	14791
2026-01-24 04:30:13.02	265.68	26.46	-53.2	-65.2	3.8	8.46e-01	0	44	104	0	77	14796
2026-01-24 04:30:14.02	265.50	26.32	-53.2	-65.2	3.8	8.45e-01	0	44	104	0	77	14828
2026-01-24 04:30:15.03	265.32	26.18	-53.2	-65.2	3.8	8.45e-01	0	43	104	0	77	14802
2026-01-24 04:30:16.04	265.14	26.05	-53.3	-65.2	3.8	8.47e-01	0	44	104	0	77	14852
2026-01-24 04:30:17.05	264.96	25.91	-53.3	-65.2	3.8	8.45e-01	0	44	104	0	77	14832
2026-01-24 04:30:18.06	264.78	25.78	-53.2	-65.2	3.8	8.45e-01	0	44	104	0	77	14845
2026-01-24 04:30:19.07	264.61	25.64	-53.3	-65.2	3.8	8.46e-01	0	44	104	0	77	14864
2026-01-24 04:30:20.07	264.43	25.51	-53.2	-65.2	3.8	8.45e-01	0	43	104	0	77	14858
2026-01-24 04:30:21.08	264.26	25.38	-53.2	-65.2	3.8	8.45e-01	0	44	104	0	77	14778
2026-01-24 04:30:22.09	264.09	25.24	-53.2	-65.2	3.8	8.46e-01	0	43	104	0	77	14818
2026-01-24 04:30:23.10	263.92	25.11	-53.3	-65.2	3.8	8.45e-01	0	44	104	0	77	14774
2026-01-24 04:30:24.11	263.75	24.98	-53.3	-65.2	3.8	8.47e-01	0	43	104	0	77	14838
2026-01-24 04:30:25.12	263.59	24.84	-53.3	-65.2	3.8	8.46e-01	0	44	104	0	77	14846
2026-01-24 04:30:26.13	263.42	24.71	-53.3	-65.2	3.8	8.45e-01	0	44	104	0	77	14831
2026-01-24 04:30:27.14	263.26	24.58	-53.3	-65.3	3.8	8.46e-01	0	44	104	0	77	14880
2026-01-24 04:30:28.14	263.10	24.45	-53.2	-65.2	3.8	8.47e-01	0	44	104	0	77	14806
2026-01-24 04:30:29.15	262.93	24.32	-53.3	-65.2	3.8	8.46e-01	0	44	104	0	77	14843
2026-01-24 04:30:30.16	262.77	24.19	-53.3	-65.2	3.8	8.46e-01	0	44	104	0	77	14841
2026-01-24 04:30:31.17	262.62	24.06	-53.3	-65.2	3.8	8.47e-01	0	43	104	0	77	14840
2026-01-24 04:30:32.18	262.46	23.93	-53.3	-65.2	3.8	8.47e-01	0	44	104	0	77	14813
2026-01-24 04:30:33.19	262.30	23.80	-53.3	-65.2	3.8	8.46e-01	0	44	104	0	77	14845
2026-01-24 04:30:34.19	262.15	23.67	-53.3	-65.2	3.8	8.45e-01	0	43	104	0	77	14836
2026-01-24 04:30:35.20	262.00	23.54	-53.3	-65.2	3.8	8.46e-01	0	44	104	0	77	14867
2026-01-24 04:30:36.21	261.84	23.42	-53.3	-65.3	3.8	8.46e-01	0	43	104	0	77	14921
2026-01-24 04:30:37.22	261.69	23.29	-53.3	-65.2	3.8	8.46e-01	0	43	104	0	77	14839
2026-01-24 04:30:38.23	261.54	23.16	-53.3	-65.3	3.8	8.45e-01	0	44	104	0	77	14881
2026-01-24 04:30:39.24	261.40	23.03	-53.3	-65.3	3.8	8.46e-01	0	44	104	0	77	14884
2026-01-24 04:30:40.25	261.25	22.91	-53.3	-65.2	3.8	8.46e-01	0	44	104	0	77	14850
2026-01-24 04:30:41.26	261.10	22.78	-53.3	-65.2	3.8	8.46e-01	0	44	104	0	77	14858
2026-01-24 04:30:42.26	260.96	22.66	-53.3	-65.3	3.8	8.48e-01	0	44	104	0	77	14893
2026-01-24 04:30:43.27	260.82	22.53	-53.3	-65.2	3.8	8.46e-01	0	43	104	0	77	14841
2026-01-24 04:30:44.28	260.67	22.41	-53.3	-65.2	3.8	8.46e-01	0	44	104	0	77	14840
2026-01-24 04:30:45.29	260.53	22.28	-53.3	-65.2	3.8	8.47e-01	0	43	104	0	77	14819
2026-01-24 04:30:46.30	260.39	22.16	-53.3	-65.2	3.8	8.45e-01	0	43	104	0	77	14824
2026-01-24 04:30:47.31	260.25	22.03	-53.3	-65.3	3.8	8.45e-01	0	44	104	0	77	14884
2026-01-24 04:30:48.31	260.12	21.91	-53.3	-65.2	3.8	8.46e-01	0	44	104	0	77	14831
2026-01-24 04:30:49.32	259.98	21.79	-53.3	-65.3	3.8	8.46e-01	0	44	104	0	77	14883
2026-01-24 04:30:50.33	259.85	21.67	-53.3	-65.2	3.8	8.46e-01	0	44	104	0	77	14863
2026-01-24 04:30:51.34	259.71	21.55	-53.3	-65.2	3.8	8.46e-01	0	44	104	0	77	14873
2026-01-24 04:30:52.35	259.58	21.42	-53.2	-65.2	3.8	8.45e-01	0	43	104	0	77	14852
2026-01-24 04:30:53.35	259.45	21.30	-53.2	-65.2	3.8	8.46e-01	0	44	104	0	77	14863
2026-01-24 04:30:54.36	259.32	21.18	-53.3	-65.2	3.8	8.46e-01	0	44	104	0	77	14799
2026-01-24 04:30:55.37	259.19	21.06	-53.3	-65.2	3.8	8.46e-01	0	44	104	0	77	14796
2026-01-24 04:30:56.38	259.06	20.94	-53.3	-65.2	3.8	8.46e-01	0	44	104	0	77	14857
2026-01-24 04:30:57.39	258.93	20.82	-53.3	-65.2	3.8	8.46e-01	0	44	104	0	77	14858
2026-01-24 04:30:58.40	258.80	20.71	-53.3	-65.2	3.8	8.47e-01	0	44	104	0	77	14865
2026-01-24 04:30:59.41	258.68	20.59	-53.3	-65.2	3.8	8.46e-01	0	44	104	0	77	14829
2026-01-24 04:31:00.42	258.55	20.47	-53.3	-65.3	3.8	8.46e-01	0	43	104	0	77	14889
2026-01-24 04:31:01.42	258.43	20.35	-53.3	-65.2	3.8	8.45e-01	0	44	104	0	77	14820
2026-01-24 04:31:02.43	258.30	20.24	-53.3	-65.2	3.8	8.46e-01	0	44	104	0	77	14810
2026-01-24 04:31:03.44	258.18	20.12	-53.3	-65.2	3.8	8.46e-01	0	44	104	0	77	14861
2026-01-24 04:31:04.45	258.06	20.00	-53.3	-65.2	3.8	8.47e-01	0	44	104	0	77	14859
2026-01-24 04:31:05.46	257.94	19.89	-53.3	-65.2	3.8	8.46e-01	0	43	104	0	77	14859
2026-01-24 04:31:06.46	257.82	19.77	-53.3	-65.3	3.8	8.45e-01	0	44	104	0	77	14912
2026-01-24 04:31:07.47	257.70	19.66	-53.3	-65.2	3.8	8.46e-01	0	44	104	0	77	14850
2026-01-24 04:31:08.48	257.59	19.54	-53.3	-65.2	3.8	8.45e-01	0	44	104	0	77	14831
2026-01-24 04:31:09.49	257.47	19.43	-53.3	-65.2	3.8	8.45e-01	0	44	104	0	77	14866
2026-01-24 04:31:10.50	257.35	19.31	-53.3	-65.2	3.8	8.47e-01	0	44	104	0	77	14831
2026-01-24 04:31:11.51	257.24	19.20	-53.3	-65.2	3.8	8.46e-01	0	44	104	0	77	14847
2026-01-24 04:31:12.52	257.12	19.09	-53.3	-65.2	3.8	8.46e-01	0	44	104	0	77	14868
2026-01-24 04:31:13.52	257.01	18.97	-53.3	-65.2	3.8	8.47e-01	0	43	104	0	77	14839
2026-01-24 04:31:14.53	256.90	18.86	-53.3	-65.2	3.8	8.47e-01	0	43	104	0	77	14874
2026-01-24 04:31:15.54	256.79	18.75	-53.3	-65.3	3.8	8.46e-01	0	44	104	0	77	14895
2026-01-24 04:31:16.55	256.68	18.64	-53.3	-65.2	3.8	8.47e-01	0	44	104	0	77	14854
2026-01-24 04:31:17.56	256.57	18.53	-53.3	-65.3	3.8	8.45e-01	0	44	104	0	77	14893
2026-01-24 04:31:18.56	256.46	18.42	-53.3	-65.2	3.8	8.45e-01	0	43	104	0	77	14827
2026-01-24 04:31:19.57	256.35	18.31	-53.3	-65.2	3.8	8.45e-01	0	44	104	0	77	14820
2026-01-24 04:31:20.58	256.24	18.19	-53.3	-65.3	3.8	8.47e-01	0	44	104	0	77	14886
2026-01-24 04:31:21.59	256.14	18.09	-53.3	-65.2	3.8	8.46e-01	0	44	104	0	77	14838
2026-01-24 04:31:22.59	256.03	17.98	-53.3	-65.2	3.8	8.45e-01	0	44	104	0	77	14823
2026-01-24 04:31:23.60	255.93	17.87	-53.3	-65.2	3.8	8.44e-01	0	43	104	0	77	14866
2026-01-24 04:31:24.61	255.82	17.76	-53.3	-65.2	3.8	8.47e-01	0	43	104	0	77	14831
2026-01-24 04:31:25.62	255.72	17.65	-53.3	-65.2	3.8	8.46e-01	0	44	104	0	77	14844
2026-01-24 04:31:26.63	255.62	17.54	-53.3	-65.2	3.8	8.46e-01	0	44	104	0	77	14857
2026-01-24 04:31:27.64	255.51	17.44	-53.3	-65.3	3.8	8.46e-01	0	44	104	0	77	14892
2026-01-24 04:31:28.65	255.41	17.33	-53.3	-65.2	3.8	8.47e-01	0	44	104	0	77	14849
2026-01-24 04:31:29.65	255.31	17.22	-53.3	-65.2	3.8	8.47e-01	0	44	104	0	77	14803
2026-01-24 04:31:30.66	255.21	17.12	-53.3	-65.2	3.8	8.45e-01	0	43	104	0	77	14804
2026-01-24 04:31:31.67	255.11	17.01	-53.3	-65.2	3.8	8.47e-01	0	44	104	0	77	14811
2026-01-24 04:31:32.68	255.02	16.90	-53.3	-65.2	3.8	8.47e-01	0	43	104	0	77	14863
2026-01-24 04:31:33.69	254.92	16.80	-53.3	-65.2	3.8	8.46e-01	0	43	104	0	77	14844
2026-01-24 04:31:34.69	254.82	16.69	-53.3	-65.2	3.8	8.47e-01	0	43	104	0	77	14784
2026-01-24 04:31:35.70	254.73	16.59	-53.3	-65.2	3.8	8.47e-01	0	44	104	0	77	14828
2026-01-24 04:31:36.71	254.63	16.49	-53.3	-65.2	3.8	8.46e-01	0	43	104	0	77	14757
2026-01-24 04:31:37.72	254.54	16.38	-53.3	-65.2	3.8	8.46e-01	0	44	104	0	77	14802
2026-01-24 04:31:38.72	254.44	16.28	-53.3	-65.2	3.8	8.46e-01	0	43	104	0	77	14850
2026-01-24 04:31:39.73	254.35	16.18	-53.3	-65.2	3.8	8.46e-01	0	44	104	0	77	14868
2026-01-24 04:31:40.74	254.26	16.07	-53.3	-65.2	3.8	8.47e-01	0	44	104	0	77	14813
2026-01-24 04:31:41.75	254.16	15.97	-53.2	-65.2	3.8	8.45e-01	0	44	104	0	77	14838
2026-01-24 04:31:42.75	254.07	15.87	-53.3	-65.2	3.8	8.47e-01	0	44	104	0	77	14798
2026-01-24 04:31:43.76	253.98	15.77	-53.3	-65.2	3.8	8.46e-01	0	43	104	0	77	14862
2026-01-24 04:31:44.77	253.89	15.67	-53.3	-65.2	3.8	8.46e-01	0	44	104	0	77	14840
2026-01-24 04:31:45.78	253.80	15.57	-53.3	-65.3	3.8	8.46e-01	0	44	104	0	77	14902
2026-01-24 04:31:46.79	253.71	15.47	-53.3	-65.2	3.8	8.46e-01	0	44	104	0	77	14857
2026-01-24 04:31:47.79	253.62	15.37	-53.3	-65.2	3.8	8.46e-01	0	43	104	0	77	14809
2026-01-24 04:31:48.80	253.54	15.27	-53.3	-65.3	3.8	8.48e-01	0	44	104	0	77	14880
2026-01-24 04:31:49.81	253.45	15.17	-53.3	-65.3	3.8	8.47e-01	0	44	104	0	77	14887
2026-01-24 04:31:50.82	253.36	15.07	-53.3	-65.2	3.8	8.46e-01	0	44	104	0	77	14844
2026-01-24 04:31:51.82	253.28	14.97	-53.3	-65.2	3.8	8.46e-01	0	43	104	0	77	14848
2026-01-24 04:31:52.83	253.19	14.87	-53.3	-65.2	3.8	8.47e-01	0	44	104	0	77	14843
2026-01-24 04:31:53.84	253.11	14.77	-53.3	-65.2	3.8	8.46e-01	0	43	104	0	77	14868
2026-01-24 04:31:54.85	253.02	14.67	-53.3	-65.2	3.8	8.47e-01	0	43	104	0	77	14842
2026-01-24 04:31:55.86	252.94	14.58	-53.3	-65.2	3.8	8.46e-01	0	44	104	0	77	14797
2026-01-24 04:31:56.86	252.86	14.48	-53.3	-65.2	3.8	8.46e-01	0	44	104	0	77	14879
2026-01-24 04:31:57.87	252.77	14.38	-53.3	-65.2	3.8	8.45e-01	0	43	104	0	77	14814
2026-01-24 04:31:58.88	252.69	14.29	-53.3	-65.2	3.8	8.47e-01	0	43	104	0	77	14870
2026-01-24 04:31:59.89	252.61	14.19	-53.3	-65.3	3.8	8.46e-01	0	43	104	0	77	14893
2026-01-24 04:32:00.90	252.53	14.09	-53.3	-65.3	3.8	8.47e-01	0	43	104	0	77	14904
2026-01-24 04:32:01.90	252.45	14.00	-53.3	-65.2	3.8	8.45e-01	0	43	104	0	77	14867
2026-01-24 04:32:02.91	252.37	13.90	-53.3	-65.3	3.8	8.45e-01	0	43	104	0	77	14888
2026-01-24 04:32:03.92	252.29	13.81	-53.3	-65.3	3.8	8.46e-01	0	43	104	0	77	14891
2026-01-24 04:32:04.93	252.21	13.71	-53.3	-65.2	3.8	8.46e-01	0	43	104	0	77	14870
2026-01-24 04:32:05.93	252.13	13.62	-53.3	-65.2	3.8	8.46e-01	0	43	104	0	77	14872
2026-01-24 04:32:06.94	252.06	13.53	-53.3	-65.2	3.8	8.46e-01	0	43	104	0	77	14879
2026-01-24 04:32:07.95	251.98	13.43	-53.3	-65.3	3.8	8.46e-01	0	43	104	0	77	14880
2026-01-24 04:32:08.96	251.90	13.34	-53.3	-65.3	3.8	8.45e-01	0	44	104	0	77	14885
2026-01-24 04:32:09.97	251.83	13.24	-53.3	-65.3	3.8	8.46e-01	0	43	104	0	77	14908
2026-01-24 04:32:10.97	251.75	13.15	-53.3	-65.3	3.8	8.46e-01	0	43	104	0	77	14911
2026-01-24 04:32:11.98	251.68	13.06	-53.3	-65.3	3.8	8.46e-01	0	43	104	0	77	14909
2026-01-24 04:32:12.99	251.60	12.97	-53.3	-65.2	3.8	8.47e-01	0	43	104	0	77	14876
2026-01-24 04:32:14.00	251.53	12.88	-53.3	-65.2	3.8	8.46e-01	0	44	104	0	77	14850
2026-01-24 04:32:15.01	251.45	12.78	-53.3	-65.2	3.8	8.47e-01	0	43	104	0	77	14868
2026-01-24 04:32:16.02	251.38	12.69	-53.3	-65.3	3.8	8.47e-01	0	43	104	0	77	14920
2026-01-24 04:32:17.02	251.31	12.60	-53.3	-65.2	3.8	8.45e-01	0	44	104	0	77	14868
2026-01-24 04:32:18.03	251.23	12.51	-53.3	-65.2	3.8	8.47e-01	0	43	104	0	77	14837
2026-01-24 04:32:19.03	251.16	12.42	-53.3	-65.2	3.8	8.46e-01	0	44	104	0	77	14816
2026-01-24 04:32:20.04	251.09	12.33	-53.3	-65.3	3.8	8.45e-01	0	43	104	0	77	14899
2026-01-24 04:32:21.05	251.02	12.24	-53.3	-65.3	3.8	8.47e-01	0	44	104	0	77	14887
2026-01-24 04:32:22.06	250.95	12.15	-53.3	-65.2	3.8	8.46e-01	0	43	104	0	77	14875
2026-01-24 04:32:23.07	250.88	12.06	-53.3	-65.3	3.8	8.45e-01	0	44	104	0	77	14903
2026-01-24 04:32:24.08	250.81	11.97	-53.3	-65.3	3.8	8.46e-01	0	43	104	0	77	14897
2026-01-24 04:32:25.08	250.74	11.88	-53.3	-65.3	3.8	8.45e-01	0	44	104	0	77	14913
2026-01-24 04:32:26.09	250.67	11.80	-53.3	-65.3	3.8	8.47e-01	0	44	104	0	77	14887
2026-01-24 04:32:27.10	250.60	11.71	-53.3	-65.2	3.8	8.47e-01	0	44	104	0	77	14878
2026-01-24 04:32:28.11	250.54	11.62	-53.3	-65.2	3.8	8.46e-01	0	44	104	0	77	14872
2026-01-24 04:32:29.12	250.47	11.53	-53.3	-65.2	3.8	8.46e-01	0	43	104	0	77	14834
2026-01-24 04:32:30.13	250.40	11.44	-53.3	-65.3	3.8	8.45e-01	0	43	104	0	77	14884
2026-01-24 04:32:31.13	250.34	11.36	-53.3	-65.3	3.8	8.45e-01	0	43	104	0	77	14881
2026-01-24 04:32:32.14	250.27	11.27	-53.3	-65.2	3.8	8.46e-01	0	43	104	0	77	14860
2026-01-24 04:32:33.15	250.20	11.18	-53.3	-65.2	3.8	8.46e-01	0	44	104	0	77	14874
2026-01-24 04:32:34.16	250.14	11.10	-53.3	-65.2	3.8	8.46e-01	0	44	104	0	77	14854
2026-01-24 04:32:35.17	250.07	11.01	-53.3	-65.2	3.8	8.46e-01	0	44	104	0	77	14879
2026-01-24 04:32:36.17	250.01	10.93	-53.3	-65.2	3.8	8.46e-01	0	43	104	0	77	14867
2026-01-24 04:32:37.18	249.94	10.84	-53.3	-65.2	3.8	8.47e-01	0	44	104	0	77	14812
2026-01-24 04:32:38.19	249.88	10.76	-53.3	-65.2	3.8	8.46e-01	0	44	104	0	77	14820
2026-01-24 04:32:39.20	249.82	10.67	-53.3	-65.2	3.8	8.46e-01	0	43	104	0	77	14816
2026-01-24 04:32:40.21	249.75	10.59	-53.3	-65.2	3.8	8.46e-01	0	44	104	0	77	14820
2026-01-24 04:32:41.22	249.69	10.50	-53.3	-65.2	3.8	8.46e-01	0	43	104	0	77	14876
2026-01-24 04:32:42.23	249.63	10.42	-53.3	-65.3	3.8	8.46e-01	0	43	104	0	77	14890
2026-01-24 04:32:43.24	249.57	10.33	-53.3	-65.2	3.8	8.46e-01	0	44	104	0	77	14870
2026-01-24 04:32:44.24	249.51	10.25	-53.3	-65.2	3.8	8.45e-01	0	43	104	0	77	14867
2026-01-24 04:32:45.25	249.44	10.17	-53.3	-65.2	3.8	8.46e-01	0	43	104	0	77	14841
2026-01-24 04:32:46.26	249.38	10.08	-53.3	-65.2	3.8	8.46e-01	0	44	104	0	77	14822
2026-01-24 04:32:47.27	249.32	10.00	-53.3	-65.2	3.8	8.45e-01	0	43	104	0	77	14842
2026-01-24 04:32:48.28	249.26	9.92	-53.3	-65.3	3.8	8.46e-01	0	44	104	0	77	14888
2026-01-24 04:32:49.29	249.20	9.83	-53.3	-65.2	3.8	8.47e-01	0	43	104	0	77	14827
2026-01-24 04:32:50.30	249.14	9.75	-53.3	-65.2	3.8	8.47e-01	0	43	104	0	77	14874
2026-01-24 04:32:51.30	249.08	9.67	-53.3	-65.2	3.8	8.45e-01	0	43	104	0	77	14854
2026-01-24 04:32:52.31	249.03	9.59	-53.3	-65.2	3.8	8.46e-01	0	43	104	0	77	14841
2026-01-24 04:32:53.32	248.97	9.51	-53.3	-65.3	3.8	8.46e-01	0	43	104	0	77	14906
2026-01-24 04:32:54.33	248.91	9.43	-53.3	-65.2	3.8	8.47e-01	0	43	104	0	77	14869
2026-01-24 04:32:55.34	248.85	9.34	-53.3	-65.3	3.8	8.47e-01	0	43	104	0	77	14896
2026-01-24 04:32:56.34	248.79	9.26	-53.3	-65.2	3.8	8.46e-01	0	43	104	0	77	14858
2026-01-24 04:32:57.35	248.74	9.18	-53.3	-65.2	3.8	8.46e-01	0	44	104	0	77	14844
2026-01-24 04:32:58.36	248.68	9.10	-53.3	-65.3	3.8	8.46e-01	0	44	104	0	77	14928
2026-01-24 04:32:59.37	248.62	9.02	-53.3	-65.3	3.8	8.47e-01	0	44	104	0	77	14895
2026-01-24 04:33:00.38	248.57	8.94	-53.3	-65.2	3.8	8.46e-01	0	44	104	0	77	14851
2026-01-24 04:33:01.39	248.51	8.86	-53.3	-65.2	3.8	8.47e-01	0	43	104	0	77	14875
2026-01-24 04:33:02.40	248.46	8.78	-53.3	-65.2	3.8	8.47e-01	0	43	104	0	77	14848
2026-01-24 04:33:03.40	248.40	8.70	-53.3	-65.2	3.8	8.46e-01	0	44	104	0	77	14835
2026-01-24 04:33:04.41	248.35	8.63	-53.3	-65.2	3.8	8.47e-01	0	44	104	0	77	14875
2026-01-24 04:33:05.42	248.29	8.55	-53.3	-65.2	3.8	8.47e-01	0	43	104	0	77	14836
2026-01-24 04:33:06.43	248.24	8.47	-53.3	-65.2	3.8	8.46e-01	0	43	104	0	77	14838
2026-01-24 04:33:07.43	248.19	8.39	-53.3	-65.3	3.8	8.45e-01	0	43	104	0	77	14886
2026-01-24 04:33:08.44	248.13	8.31	-53.3	-65.3	3.8	8.45e-01	0	44	104	0	77	14903
2026-01-24 04:33:09.45	248.08	8.23	-53.3	-65.2	3.8	8.46e-01	0	43	104	0	77	14873
2026-01-24 04:33:10.46	248.03	8.16	-53.3	-65.2	3.8	8.45e-01	0	43	104	0	77	14870
2026-01-24 04:33:11.47	247.97	8.08	-53.3	-65.3	3.8	8.47e-01	0	44	104	0	77	14906
2026-01-24 04:33:12.47	247.92	8.00	-53.3	-65.2	3.8	8.46e-01	0	43	104	0	77	14846
2026-01-24 04:33:13.48	247.87	7.92	-53.3	-65.2	3.8	8.47e-01	0	43	104	0	77	14852
