passes_logs/2026/01/24/R3.2S_Murmansk/R3.2S_Murmansk__20260124_072548_KANOPUS-V_5_rec.log

#Pass ID: 20260124_072548_KANOPUS-V 5
#Satellite: KANOPUS-V 5
#Configuration: KANOPUS-V_8320
#almurnet v.1.7.20251203
#Start time: 2026-01-24 07:25:48

#Version: 2.2.20231116
#Station: R3.2S_Murmansk
#Location: 33.079688 lon 68.888172 lat
#TLE: 1 43876U 18111A   26023.64356892  .00004816  00000+0  20464-3 0  9993
#TLE: 2 43876  97.3677 292.0017 0001813  88.2876 271.8569 15.23520012392780

#Time	Az	El	Level	Level2	SNR	BER	BlckErr	Temp	State	Recorded	gain1	gain2
2026-01-24 07:25:48.89	149.96	2.01	-52.5	-61.3	3.8	7.46e-01	0	42	0	0	76	10033
2026-01-24 07:25:49.89	149.96	2.08	-52.5	-61.4	3.8	7.46e-01	0	42	104	0	76	10077
2026-01-24 07:25:50.90	149.95	2.15	-52.5	-61.3	3.8	7.44e-01	0	42	104	0	76	9985
2026-01-24 07:25:51.91	149.94	2.22	-52.5	-61.3	3.8	7.45e-01	0	42	104	0	76	10015
2026-01-24 07:25:52.91	149.93	2.29	-52.5	-61.3	3.8	7.46e-01	0	42	104	0	76	10045
2026-01-24 07:25:53.92	149.92	2.37	-52.5	-61.3	3.8	7.45e-01	0	42	104	0	76	10037
2026-01-24 07:25:54.93	149.91	2.44	-52.5	-61.3	3.8	7.45e-01	0	42	104	0	76	10030
2026-01-24 07:25:55.94	149.90	2.51	-52.5	-61.3	3.8	7.45e-01	0	42	104	0	76	9990
2026-01-24 07:25:56.95	149.90	2.58	-52.5	-61.3	3.8	7.44e-01	0	42	104	0	76	9989
2026-01-24 07:25:57.96	149.89	2.66	-52.5	-61.3	3.8	7.45e-01	0	42	104	0	76	10001
2026-01-24 07:25:58.97	149.88	2.73	-52.5	-61.3	3.8	7.45e-01	0	42	104	0	76	9989
2026-01-24 07:25:59.98	149.87	2.80	-52.5	-61.3	3.8	7.47e-01	0	42	104	0	76	10009
2026-01-24 07:26:00.99	149.86	2.88	-52.5	-61.3	3.8	7.43e-01	0	42	104	0	76	9987
2026-01-24 07:26:01.99	149.85	2.95	-52.5	-61.3	3.8	7.46e-01	0	42	104	0	76	10005
2026-01-24 07:26:03.00	149.84	3.03	-52.5	-61.3	3.8	7.45e-01	0	42	104	0	76	9992
2026-01-24 07:26:04.01	149.83	3.10	-52.5	-61.3	3.8	7.45e-01	0	43	104	0	76	9977
2026-01-24 07:26:05.02	149.82	3.17	-52.5	-61.2	3.8	7.46e-01	0	42	104	0	76	9928
2026-01-24 07:26:06.03	149.81	3.25	-52.5	-61.2	3.8	7.46e-01	0	42	104	0	76	9929
2026-01-24 07:26:07.04	149.80	3.33	-52.5	-61.2	3.8	7.47e-01	0	43	104	0	76	9931
2026-01-24 07:26:08.05	149.79	3.40	-52.5	-61.2	3.8	7.45e-01	0	43	104	0	76	9941
2026-01-24 07:26:09.05	149.78	3.48	-52.5	-61.2	3.8	7.44e-01	0	42	104	0	76	9880
2026-01-24 07:26:10.06	149.77	3.55	-52.5	-61.2	3.8	7.45e-01	0	42	104	0	76	9933
2026-01-24 07:26:11.07	149.76	3.63	-52.4	-61.2	3.8	7.46e-01	0	43	104	0	76	9869
2026-01-24 07:26:12.08	149.75	3.71	-52.4	-61.1	3.8	7.44e-01	0	43	104	0	76	9778
2026-01-24 07:26:13.09	149.74	3.78	-52.4	-60.8	3.8	7.44e-01	0	43	104	0	76	9462
2026-01-24 07:26:14.09	149.73	3.86	-52.2	-60.3	3.8	7.45e-01	0	42	104	0	76	8896
2026-01-24 07:26:15.10	149.72	3.94	-51.8	-58.9	3.8	7.43e-01	0	43	104	0	75	8063
2026-01-24 07:26:16.11	149.71	4.02	-51.2	-57.0	4.4	7.26e-01	0	43	104	0	74	6828
2026-01-24 07:26:17.12	149.70	4.09	-50.4	-55.2	5.3	7.00e-01	0	43	0	12582912	72	6220
2026-01-24 07:26:18.13	149.69	4.17	-49.8	-53.8	6.5	6.71e-01	0	43	0	29360128	71	5607
2026-01-24 07:26:19.13	149.68	4.25	-48.9	-52.4	7.6	6.45e-01	0	43	0	44040192	69	5381
2026-01-24 07:26:20.14	149.67	4.33	-48.0	-51.0	9.2	6.27e-01	0	43	0	58720256	67	5117
2026-01-24 07:26:21.15	149.66	4.41	-46.7	-49.4	10.7	6.15e-01	0	43	0	75497472	65	4779
2026-01-24 07:26:22.16	149.65	4.49	-46.4	-49.0	11.0	6.09e-01	0	43	0	90177536	64	4835
2026-01-24 07:26:23.16	149.64	4.57	-45.4	-47.8	12.2	6.06e-01	0	43	0	104857600	62	4734
2026-01-24 07:26:24.17	149.63	4.65	-45.3	-47.6	12.4	6.04e-01	0	43	0	121634816	62	4611
2026-01-24 07:26:25.18	149.62	4.73	-45.4	-47.8	12.3	6.04e-01	0	43	0	136314880	62	4716
2026-01-24 07:26:26.19	149.60	4.81	-46.1	-48.5	11.5	6.05e-01	0	43	0	150994944	62	5157
2026-01-24 07:26:27.19	149.59	4.89	-45.6	-48.0	12.1	6.05e-01	0	43	0	167772160	62	4829
2026-01-24 07:26:28.20	149.58	4.97	-46.3	-48.8	11.3	6.04e-01	0	43	0	184549376	63	5041
2026-01-24 07:26:29.21	149.57	5.05	-46.2	-48.7	11.3	6.07e-01	0	43	0	199229440	64	4699
2026-01-24 07:26:30.22	149.56	5.14	-52.5	-59.9	3.8	7.43e-01	0	43	104	207618048	76	8542
2026-01-24 07:26:31.23	149.54	5.22	-48.2	-51.3	8.8	6.27e-01	0	43	0	209715200	68	5040
2026-01-24 07:26:32.24	149.53	5.30	-47.8	-50.7	9.5	6.18e-01	0	43	0	226492416	67	4974
2026-01-24 07:26:33.25	149.52	5.39	-45.2	-47.5	12.8	5.99e-01	0	43	0	241172480	62	4577
2026-01-24 07:26:34.25	149.51	5.47	-51.6	-58.1	3.9	7.42e-01	0	43	104	253755392	74	7769
2026-01-24 07:26:35.26	149.50	5.55	-45.2	-47.4	12.8	6.07e-01	0	43	0	260046848	62	4516
2026-01-24 07:26:36.27	149.48	5.64	-44.7	-47.0	13.2	6.01e-01	0	43	0	276824064	61	4546
2026-01-24 07:26:37.28	149.47	5.72	-45.6	-47.9	12.4	6.02e-01	0	43	0	291504128	61	5057
2026-01-24 07:26:38.29	149.46	5.81	-45.2	-47.4	12.8	6.02e-01	0	43	0	306184192	61	4805
2026-01-24 07:26:39.30	149.45	5.89	-44.8	-47.0	13.4	5.99e-01	0	43	0	322961408	61	4546
2026-01-24 07:26:40.31	149.43	5.98	-44.7	-46.9	13.5	5.99e-01	0	43	0	339738624	61	4507
2026-01-24 07:26:41.32	149.42	6.07	-44.5	-46.7	13.7	5.98e-01	0	43	0	354418688	61	4431
2026-01-24 07:26:42.32	149.41	6.15	-44.8	-47.0	13.3	6.01e-01	0	43	0	369098752	61	4587
2026-01-24 07:26:43.33	149.39	6.24	-44.6	-46.8	13.7	5.99e-01	0	43	0	385875968	61	4445
2026-01-24 07:26:44.34	149.38	6.33	-44.7	-46.9	13.6	5.99e-01	0	43	0	400556032	61	4499
2026-01-24 07:26:45.35	149.37	6.42	-44.7	-46.9	13.5	6.02e-01	0	43	0	415236096	61	4536
2026-01-24 07:26:46.36	149.35	6.50	-44.7	-46.9	13.6	6.02e-01	0	43	0	432013312	61	4510
2026-01-24 07:26:47.37	149.34	6.59	-44.8	-47.0	13.5	6.01e-01	0	43	0	446693376	61	4546
2026-01-24 07:26:48.38	149.32	6.68	-45.2	-47.5	13.1	6.02e-01	0	43	0	461373440	61	4819
2026-01-24 07:26:49.39	149.31	6.77	-44.6	-46.7	13.8	6.02e-01	0	43	0	478150656	61	4441
2026-01-24 07:26:50.40	149.30	6.86	-44.4	-46.5	14.0	6.01e-01	0	43	0	494927872	60	4594
2026-01-24 07:26:51.41	149.28	6.95	-44.4	-46.5	14.0	6.01e-01	0	43	0	509607936	60	4566
2026-01-24 07:26:52.41	149.27	7.04	-44.3	-46.5	14.0	6.02e-01	0	43	0	524288000	60	4549
2026-01-24 07:26:53.42	149.25	7.13	-44.1	-46.2	14.3	5.97e-01	0	43	0	541065216	60	4407
2026-01-24 07:26:54.43	149.24	7.23	-44.2	-46.3	14.2	6.00e-01	0	43	0	555745280	60	4471
2026-01-24 07:26:55.44	149.22	7.32	-44.3	-46.4	14.1	6.01e-01	0	43	0	570425344	60	4513
2026-01-24 07:26:56.45	149.21	7.41	-44.0	-46.1	14.4	6.02e-01	0	43	0	587202560	59	4636
2026-01-24 07:26:57.46	149.19	7.50	-44.0	-46.1	14.4	6.00e-01	0	43	0	601882624	59	4644
2026-01-24 07:26:58.47	149.18	7.60	-44.0	-46.1	14.5	5.97e-01	0	43	0	616562688	59	4604
2026-01-24 07:26:59.48	149.16	7.69	-44.1	-46.1	14.4	5.99e-01	0	44	0	633339904	59	4646
2026-01-24 07:27:00.49	149.14	7.79	-44.0	-46.1	14.5	5.98e-01	0	43	0	648019968	59	4607
2026-01-24 07:27:01.49	149.13	7.88	-44.0	-46.1	14.5	5.99e-01	0	44	0	664797184	59	4604
2026-01-24 07:27:02.50	149.11	7.97	-43.8	-45.8	14.7	6.00e-01	0	44	0	679477248	59	4491
2026-01-24 07:27:03.51	149.10	8.07	-43.8	-45.8	14.7	6.00e-01	0	43	0	696254464	59	4475
2026-01-24 07:27:04.52	149.08	8.17	-43.8	-45.8	14.7	5.99e-01	0	43	0	710934528	59	4486
2026-01-24 07:27:05.53	149.06	8.26	-43.9	-46.0	14.6	6.00e-01	0	43	0	725614592	59	4551
2026-01-24 07:27:06.53	149.05	8.36	-43.6	-45.7	14.9	5.96e-01	0	44	0	742391808	59	4420
2026-01-24 07:27:07.54	149.03	8.46	-43.7	-45.8	14.8	6.00e-01	0	44	0	757071872	59	4452
2026-01-24 07:27:08.55	149.01	8.56	-43.5	-45.6	15.0	5.98e-01	0	44	0	771751936	58	4614
2026-01-24 07:27:09.56	148.99	8.66	-43.5	-45.6	14.9	6.00e-01	0	43	0	788529152	58	4622
2026-01-24 07:27:10.57	148.98	8.76	-43.5	-45.6	14.9	5.99e-01	0	43	0	803209216	58	4640
2026-01-24 07:27:11.58	148.96	8.86	-43.5	-45.6	15.0	5.98e-01	0	44	0	817889280	58	4643
2026-01-24 07:27:12.59	148.94	8.96	-43.4	-45.5	15.1	5.98e-01	0	44	0	834666496	58	4572
2026-01-24 07:27:13.60	148.92	9.06	-43.4	-45.5	15.0	5.98e-01	0	44	0	851443712	58	4590
2026-01-24 07:27:14.61	148.91	9.16	-43.3	-45.4	15.1	5.99e-01	0	44	0	866123776	58	4526
2026-01-24 07:27:15.61	148.89	9.26	-43.3	-45.4	15.2	5.99e-01	0	44	0	880803840	58	4514
2026-01-24 07:27:16.62	148.87	9.36	-43.5	-45.6	15.0	5.99e-01	0	43	0	897581056	58	4603
2026-01-24 07:27:17.63	148.85	9.47	-43.2	-45.3	15.3	6.00e-01	0	44	0	912261120	58	4480
2026-01-24 07:27:18.64	148.83	9.57	-42.9	-45.0	15.6	6.00e-01	0	43	0	926941184	57	4551
2026-01-24 07:27:19.65	148.81	9.68	-43.1	-45.2	15.4	5.98e-01	0	44	0	943718400	57	4675
2026-01-24 07:27:20.66	148.79	9.78	-43.1	-45.2	15.4	5.97e-01	0	44	0	958398464	57	4677
2026-01-24 07:27:21.67	148.77	9.89	-43.2	-45.3	15.3	5.97e-01	0	44	0	973078528	57	4731
2026-01-24 07:27:22.68	148.75	9.99	-42.9	-44.9	15.6	6.00e-01	0	44	0	989855744	57	4544
2026-01-24 07:27:23.69	148.73	10.10	-42.8	-44.9	15.6	5.99e-01	0	44	0	1004535808	57	4521
2026-01-24 07:27:24.69	148.71	10.21	-43.1	-45.2	15.4	5.99e-01	0	44	0	1021313024	57	4680
2026-01-24 07:27:25.70	148.69	10.31	-42.9	-45.0	15.5	6.01e-01	0	43	0	1035993088	57	4564
2026-01-24 07:27:26.71	148.67	10.42	-43.0	-45.1	15.4	5.94e-01	0	43	0	1052770304	57	4647
2026-01-24 07:27:27.71	148.65	10.53	-42.7	-44.8	15.8	5.97e-01	0	44	0	1067450368	57	4444
2026-01-24 07:27:28.72	148.63	10.64	-42.8	-44.8	15.7	6.00e-01	0	44	0	1082130432	57	4485
2026-01-24 07:27:29.73	148.61	10.75	-42.7	-44.8	15.8	6.00e-01	0	44	0	1098907648	57	4442
2026-01-24 07:27:30.74	148.59	10.86	-42.5	-44.6	15.9	5.98e-01	0	44	0	1113587712	57	4344
2026-01-24 07:27:31.75	148.57	10.98	-42.6	-44.6	15.8	5.99e-01	0	44	0	1128267776	56	4628
2026-01-24 07:27:32.75	148.54	11.09	-42.6	-44.6	15.8	6.00e-01	0	44	0	1145044992	56	4646
2026-01-24 07:27:33.76	148.52	11.20	-42.4	-44.4	16.0	6.01e-01	0	44	0	1159725056	56	4545
2026-01-24 07:27:34.77	148.50	11.31	-42.5	-44.5	16.0	5.99e-01	0	44	0	1174405120	56	4595
2026-01-24 07:27:35.78	148.48	11.43	-42.5	-44.6	15.9	6.03e-01	0	44	0	1191182336	56	4611
2026-01-24 07:27:36.78	148.45	11.54	-42.3	-44.4	16.1	5.98e-01	0	44	0	1205862400	56	4506
2026-01-24 07:27:37.79	148.43	11.66	-42.3	-44.3	16.2	6.04e-01	0	44	0	1222639616	56	4472
2026-01-24 07:27:38.80	148.41	11.78	-42.3	-44.3	16.2	6.00e-01	0	44	0	1237319680	56	4493
2026-01-24 07:27:39.81	148.38	11.90	-42.3	-44.4	16.1	6.04e-01	0	44	0	1254096896	56	4501
2026-01-24 07:27:40.81	148.36	12.01	-42.2	-44.2	16.2	5.99e-01	0	44	0	1268776960	56	4441
2026-01-24 07:27:41.82	148.34	12.13	-42.1	-44.2	16.3	6.01e-01	0	44	0	1283457024	56	4396
2026-01-24 07:27:42.83	148.31	12.25	-42.0	-44.0	16.4	5.99e-01	0	44	0	1300234240	56	4336
2026-01-24 07:27:43.84	148.29	12.37	-42.1	-44.1	16.4	5.99e-01	0	44	0	1314914304	56	4372
2026-01-24 07:27:44.85	148.26	12.49	-42.1	-44.1	16.3	6.00e-01	0	44	0	1329594368	56	4380
2026-01-24 07:27:45.86	148.24	12.62	-42.2	-44.2	16.5	6.00e-01	0	44	0	1346371584	55	4661
2026-01-24 07:27:46.86	148.21	12.74	-42.2	-44.2	16.5	5.99e-01	0	44	0	1361051648	55	4654
2026-01-24 07:27:47.87	148.18	12.86	-42.2	-44.2	16.5	6.01e-01	0	44	0	1375731712	55	4672
2026-01-24 07:27:48.88	148.16	12.99	-42.3	-44.3	16.4	5.99e-01	0	44	0	1392508928	55	4709
2026-01-24 07:27:49.89	148.13	13.11	-41.9	-43.9	16.7	5.99e-01	0	44	0	1407188992	55	4522
2026-01-24 07:27:50.90	148.10	13.24	-42.0	-43.9	16.7	6.00e-01	0	44	0	1423966208	55	4544
2026-01-24 07:27:51.91	148.08	13.37	-42.0	-43.9	16.7	6.00e-01	0	44	0	1438646272	55	4536
2026-01-24 07:27:52.92	148.05	13.50	-41.9	-43.9	16.8	5.97e-01	0	44	0	1455423488	55	4496
2026-01-24 07:27:53.92	148.02	13.62	-41.9	-43.8	16.8	6.00e-01	0	44	0	1470103552	55	4450
2026-01-24 07:27:54.93	147.99	13.75	-42.0	-43.9	16.7	6.01e-01	0	44	0	1484783616	55	4523
2026-01-24 07:27:55.94	147.97	13.89	-41.8	-43.7	16.9	5.98e-01	0	44	0	1501560832	55	4407
2026-01-24 07:27:56.95	147.94	14.02	-41.7	-43.6	17.0	5.98e-01	0	44	0	1516240896	55	4371
2026-01-24 07:27:57.96	147.91	14.15	-41.6	-43.4	17.1	5.96e-01	0	44	0	1530920960	55	4276
2026-01-24 07:27:58.97	147.88	14.28	-41.6	-43.5	17.1	5.99e-01	0	44	0	1547698176	55	4313
2026-01-24 07:27:59.98	147.85	14.42	-41.5	-43.3	17.2	5.95e-01	0	44	0	1562378240	54	4489
2026-01-24 07:28:00.99	147.82	14.56	-41.5	-43.3	17.2	5.96e-01	0	44	0	1577058304	54	4472
2026-01-24 07:28:01.99	147.79	14.69	-41.4	-43.2	17.3	5.96e-01	0	44	0	1593835520	54	4440
2026-01-24 07:28:03.00	147.76	14.83	-41.3	-43.1	17.4	5.96e-01	0	44	0	1610612736	54	4382
2026-01-24 07:28:04.01	147.72	14.97	-41.2	-43.0	17.4	5.96e-01	0	44	0	1625292800	54	4335
2026-01-24 07:28:05.02	147.69	15.11	-41.2	-43.0	17.5	5.96e-01	0	44	0	1639972864	54	4294
2026-01-24 07:28:06.03	147.66	15.25	-41.2	-43.0	17.5	5.94e-01	0	44	0	1656750080	54	4319
2026-01-24 07:28:07.04	147.63	15.39	-41.1	-42.9	17.5	5.94e-01	0	44	0	1671430144	54	4269
2026-01-24 07:28:08.04	147.59	15.53	-41.1	-42.8	17.6	5.97e-01	0	44	0	1686110208	54	4227
2026-01-24 07:28:09.05	147.56	15.68	-40.9	-42.7	17.7	5.97e-01	0	44	0	1700790272	53	4402
2026-01-24 07:28:10.06	147.53	15.82	-40.8	-42.6	17.7	6.00e-01	0	44	0	1717567488	53	4363
2026-01-24 07:28:11.07	147.49	15.97	-40.9	-42.6	17.7	5.91e-01	0	43	0	1732247552	53	4389
2026-01-24 07:28:12.07	147.46	16.11	-40.8	-42.6	17.7	5.97e-01	0	44	0	1746927616	53	4371
2026-01-24 07:28:13.08	147.42	16.26	-40.7	-42.5	17.8	6.00e-01	0	44	0	1763704832	53	4331
2026-01-24 07:28:14.09	147.39	16.41	-40.7	-42.5	17.8	5.96e-01	0	44	0	1778384896	53	4311
2026-01-24 07:28:15.10	147.35	16.56	-40.8	-42.6	17.7	6.00e-01	0	44	0	1795162112	53	4376
2026-01-24 07:28:16.11	147.32	16.72	-40.7	-42.5	17.8	5.98e-01	0	44	0	1809842176	53	4310
2026-01-24 07:28:17.11	147.28	16.87	-40.7	-42.5	17.8	5.97e-01	0	44	0	1826619392	53	4326
2026-01-24 07:28:18.12	147.24	17.02	-40.5	-42.4	17.9	5.99e-01	0	44	0	1841299456	53	4249
2026-01-24 07:28:19.13	147.20	17.18	-40.6	-42.5	17.8	5.97e-01	0	44	0	1855979520	53	4305
2026-01-24 07:28:20.14	147.16	17.34	-40.6	-42.5	17.8	5.99e-01	0	44	0	1872756736	53	4315
2026-01-24 07:28:21.15	147.13	17.49	-40.6	-42.5	17.8	6.00e-01	0	44	0	1887436800	53	4303
2026-01-24 07:28:22.16	147.09	17.65	-40.5	-42.4	17.9	5.98e-01	0	44	0	1902116864	53	4278
2026-01-24 07:28:23.16	147.05	17.81	-40.5	-42.4	17.8	6.01e-01	0	44	0	1918894080	53	4278
2026-01-24 07:28:24.17	147.01	17.98	-40.4	-42.3	18.0	6.02e-01	0	44	0	1933574144	52	4474
2026-01-24 07:28:25.18	146.96	18.14	-40.5	-42.4	17.8	5.99e-01	0	44	0	1948254208	52	4524
2026-01-24 07:28:26.19	146.92	18.31	-40.4	-42.3	18.0	6.02e-01	0	44	0	1965031424	52	4489
2026-01-24 07:28:27.20	146.88	18.47	-40.4	-42.3	18.0	5.98e-01	0	44	0	1981808640	52	4481
2026-01-24 07:28:28.21	146.84	18.64	-40.5	-42.4	17.9	6.03e-01	0	44	0	1996488704	52	4531
2026-01-24 07:28:29.22	146.79	18.81	-40.3	-42.2	18.0	6.00e-01	0	44	0	2011168768	52	4423
2026-01-24 07:28:30.23	146.75	18.98	-40.3	-42.2	18.1	6.00e-01	0	44	0	2027945984	52	4414
2026-01-24 07:28:31.24	146.70	19.15	-40.3	-42.2	18.1	6.03e-01	0	44	0	2042626048	52	4418
2026-01-24 07:28:32.25	146.66	19.33	-40.2	-42.1	18.2	5.99e-01	0	44	0	2057306112	52	4349
2026-01-24 07:28:33.25	146.61	19.50	-40.3	-42.2	18.1	5.99e-01	0	44	0	2074083328	52	4398
2026-01-24 07:28:34.26	146.57	19.68	-40.3	-42.1	18.1	6.01e-01	0	44	0	2088763392	52	4377
2026-01-24 07:28:35.27	146.52	19.86	-40.2	-42.0	18.2	6.03e-01	0	44	0	2103443456	52	4332
2026-01-24 07:28:36.28	146.47	20.04	-40.2	-42.0	18.2	6.03e-01	0	44	0	2120220672	52	4314
2026-01-24 07:28:37.29	146.42	20.22	-40.2	-42.0	18.2	5.96e-01	0	44	0	2134900736	52	4313
2026-01-24 07:28:38.30	146.37	20.40	-40.1	-41.9	18.4	6.02e-01	0	44	0	2151677952	52	4254
2026-01-24 07:28:39.31	146.32	20.59	-40.2	-41.9	18.3	6.00e-01	0	44	0	2166358016	52	4279
2026-01-24 07:28:40.32	146.27	20.78	-40.2	-41.9	18.3	6.02e-01	0	44	0	2183135232	52	4289
2026-01-24 07:28:41.32	146.22	20.96	-40.0	-41.7	18.5	6.03e-01	0	44	0	2197815296	52	4174
2026-01-24 07:28:42.33	146.17	21.15	-39.9	-41.7	18.6	5.98e-01	0	44	0	2212495360	51	4395
2026-01-24 07:28:43.34	146.11	21.35	-39.9	-41.6	18.6	5.96e-01	0	44	0	2229272576	51	4382
2026-01-24 07:28:44.35	146.06	21.54	-39.8	-41.5	18.7	6.02e-01	0	44	0	2243952640	51	4310
2026-01-24 07:28:45.36	146.00	21.74	-39.9	-41.6	18.6	6.02e-01	0	44	0	2258632704	51	4366
2026-01-24 07:28:46.36	145.95	21.93	-39.9	-41.6	18.7	5.97e-01	0	44	0	2275409920	51	4349
2026-01-24 07:28:47.37	145.89	22.13	-39.8	-41.5	18.6	5.99e-01	0	44	0	2290089984	51	4308
2026-01-24 07:28:48.38	145.84	22.34	-39.5	-41.2	18.9	6.02e-01	0	44	0	2304770048	51	4165
2026-01-24 07:28:49.39	145.78	22.54	-39.6	-41.2	18.9	6.02e-01	0	44	0	2321547264	51	4169
2026-01-24 07:28:50.40	145.72	22.75	-39.6	-41.2	18.8	6.01e-01	0	44	0	2338324480	51	4182
2026-01-24 07:28:51.41	145.66	22.95	-39.5	-41.2	18.9	6.00e-01	0	44	0	2353004544	51	4156
2026-01-24 07:28:52.42	145.60	23.16	-39.5	-41.1	18.9	6.00e-01	0	44	0	2367684608	50	4383
2026-01-24 07:28:53.43	145.53	23.38	-39.5	-41.2	18.9	6.02e-01	0	44	0	2384461824	50	4402
2026-01-24 07:28:54.43	145.47	23.59	-39.6	-41.3	18.8	5.98e-01	0	44	0	2399141888	50	4462
2026-01-24 07:28:55.44	145.41	23.80	-39.6	-41.4	18.8	5.97e-01	0	44	0	2413821952	50	4509
2026-01-24 07:28:56.45	145.34	24.02	-39.7	-41.5	18.7	5.95e-01	0	44	0	2430599168	50	4549
2026-01-24 07:28:57.46	145.27	24.24	-39.7	-41.6	18.6	6.00e-01	0	44	0	2445279232	50	4607
2026-01-24 07:28:58.47	145.21	24.47	-39.8	-41.6	18.6	6.01e-01	0	44	0	2459959296	50	4642
2026-01-24 07:28:59.48	145.14	24.69	-39.8	-41.7	18.5	5.98e-01	0	44	0	2476736512	50	4700
2026-01-24 07:29:00.49	145.07	24.92	-39.9	-41.8	18.5	6.01e-01	0	44	0	2491416576	50	4756
2026-01-24 07:29:01.49	145.00	25.15	-40.1	-42.0	18.4	6.00e-01	0	44	0	2508193792	50	4851
2026-01-24 07:29:02.50	144.93	25.38	-39.9	-41.8	18.5	6.00e-01	0	44	0	2522873856	50	4751
2026-01-24 07:29:03.51	144.85	25.62	-39.9	-41.8	18.5	6.02e-01	0	44	0	2539651072	50	4718
2026-01-24 07:29:04.52	144.78	25.85	-39.9	-41.7	18.6	6.01e-01	0	44	0	2554331136	50	4673
2026-01-24 07:29:05.53	144.70	26.09	-39.9	-41.7	18.6	5.97e-01	0	44	0	2569011200	50	4654
2026-01-24 07:29:06.53	144.62	26.33	-39.8	-41.6	18.7	5.96e-01	0	44	0	2585788416	50	4617
2026-01-24 07:29:07.54	144.55	26.58	-39.8	-41.5	18.7	5.98e-01	0	44	0	2600468480	50	4589
2026-01-24 07:29:08.55	144.46	26.83	-39.7	-41.4	18.8	6.02e-01	0	44	0	2615148544	50	4540
2026-01-24 07:29:09.56	144.38	27.08	-39.6	-41.3	18.9	5.99e-01	0	44	0	2631925760	50	4482
2026-01-24 07:29:10.57	144.30	27.33	-39.6	-41.3	18.9	5.99e-01	0	44	0	2646605824	50	4486
2026-01-24 07:29:11.57	144.22	27.58	-39.7	-41.4	18.8	5.99e-01	0	44	0	2661285888	50	4534
2026-01-24 07:29:12.58	144.13	27.84	-39.7	-41.5	18.7	6.00e-01	0	44	0	2678063104	50	4565
2026-01-24 07:29:13.59	144.04	28.10	-39.9	-41.7	18.6	5.98e-01	0	44	0	2692743168	50	4676
2026-01-24 07:29:14.60	143.95	28.37	-39.9	-41.8	18.6	6.00e-01	0	44	0	2709520384	50	4713
2026-01-24 07:29:15.60	143.86	28.63	-40.0	-41.9	18.5	5.99e-01	0	44	0	2724200448	50	4776
2026-01-24 07:29:16.61	143.77	28.91	-40.0	-41.8	18.6	5.82e-01	0	44	0	2740977664	50	4759
2026-01-24 07:29:17.62	143.67	29.18	-40.1	-42.0	18.5	5.82e-01	0	44	0	2755657728	50	4836
2026-01-24 07:29:18.63	143.58	29.46	-40.2	-42.1	18.5	5.82e-01	0	44	0	2770337792	50	4871
2026-01-24 07:29:19.64	143.48	29.74	-40.2	-42.0	18.5	5.83e-01	0	44	0	2787115008	51	4597
2026-01-24 07:29:20.65	143.38	30.02	-40.1	-42.0	18.6	5.81e-01	0	44	0	2801795072	51	4563
2026-01-24 07:29:21.66	143.28	30.31	-40.1	-42.1	18.5	5.81e-01	0	44	0	2816475136	51	4615
2026-01-24 07:29:22.67	143.17	30.60	-40.1	-42.1	18.5	5.83e-01	0	44	0	2833252352	51	4605
2026-01-24 07:29:23.67	143.06	30.89	-40.0	-41.9	18.5	5.81e-01	0	44	0	2847932416	51	4537
2026-01-24 07:29:24.68	142.96	31.18	-39.9	-41.9	18.7	5.82e-01	0	44	0	2862612480	51	4495
2026-01-24 07:29:25.69	142.84	31.48	-39.9	-41.9	18.6	5.82e-01	0	44	0	2879389696	51	4500
2026-01-24 07:29:26.70	142.73	31.79	-39.9	-41.9	18.6	5.83e-01	0	44	0	2896166912	51	4520
2026-01-24 07:29:27.70	142.62	32.09	-40.0	-42.0	18.5	5.82e-01	0	44	0	2910846976	51	4585
2026-01-24 07:29:28.71	142.50	32.40	-39.9	-42.0	18.5	5.83e-01	0	44	0	2925527040	51	4553
2026-01-24 07:29:29.72	142.38	32.72	-40.0	-42.1	18.5	5.83e-01	0	44	0	2942304256	51	4623
2026-01-24 07:29:30.73	142.25	33.04	-41.3	-42.0	18.4	5.83e-01	0	44	0	2956984320	53	4094
2026-01-24 07:29:31.73	142.13	33.36	-41.5	-42.3	18.4	5.82e-01	0	44	0	2971664384	53	4195
2026-01-24 07:29:32.74	142.00	33.68	-54.2	-63.2	3.8	7.45e-01	0	44	104	2975858688	79	10443
2026-01-24 07:29:33.75	141.87	34.01	-54.2	-63.1	3.8	7.47e-01	0	44	104	2975858688	79	10365
2026-01-24 07:29:34.76	141.73	34.35	-54.2	-63.1	3.8	7.47e-01	0	44	104	2975858688	79	10326
2026-01-24 07:29:35.76	141.60	34.68	-54.3	-63.1	3.8	7.44e-01	0	44	104	2975858688	79	10379
2026-01-24 07:29:36.77	141.46	35.02	-54.3	-63.1	3.8	7.45e-01	0	44	104	2975858688	79	10350
2026-01-24 07:29:37.78	141.31	35.37	-54.3	-63.1	3.8	7.46e-01	0	44	104	2975858688	79	10373
2026-01-24 07:29:38.79	141.16	35.72	-54.4	-63.2	3.8	7.45e-01	0	44	104	2975858688	79	10453
2026-01-24 07:29:39.80	141.01	36.07	-54.3	-63.2	3.8	7.45e-01	0	44	104	2975858688	79	10434
2026-01-24 07:29:40.80	140.86	36.43	-54.4	-63.2	3.8	7.47e-01	0	44	104	2975858688	79	10468
2026-01-24 07:29:41.81	140.70	36.79	-54.4	-63.2	3.8	7.44e-01	0	44	104	2975858688	79	10453
2026-01-24 07:29:42.82	140.54	37.16	-54.4	-63.2	3.8	7.45e-01	0	44	104	2975858688	79	10495
2026-01-24 07:29:43.83	140.37	37.53	-54.4	-63.2	3.8	7.46e-01	0	44	104	2975858688	79	10428
2026-01-24 07:29:44.84	140.20	37.91	-54.3	-63.2	3.8	7.46e-01	0	44	104	2975858688	79	10421
2026-01-24 07:29:45.85	140.03	38.29	-54.4	-63.2	3.8	7.46e-01	0	44	104	2975858688	79	10480
2026-01-24 07:29:46.85	139.85	38.68	-54.4	-63.2	3.8	7.45e-01	0	44	104	2975858688	79	10522
2026-01-24 07:29:47.86	139.66	39.07	-54.4	-63.2	3.8	7.44e-01	0	44	104	2975858688	79	10477
2026-01-24 07:29:48.87	139.47	39.46	-54.4	-63.2	3.8	7.44e-01	0	44	104	2975858688	79	10485
2026-01-24 07:29:49.87	139.28	39.86	-54.4	-63.2	3.8	7.46e-01	0	44	104	2975858688	79	10463
2026-01-24 07:29:50.88	139.08	40.27	-54.4	-63.2	3.8	7.44e-01	0	44	104	2975858688	79	10489
2026-01-24 07:29:51.89	138.88	40.68	-54.4	-63.2	3.8	7.46e-01	0	44	104	2975858688	79	10466
2026-01-24 07:29:52.90	138.67	41.09	-54.4	-63.2	3.8	7.46e-01	0	44	104	2975858688	79	10492
2026-01-24 07:29:53.91	138.45	41.51	-54.4	-63.3	3.8	7.44e-01	0	44	104	2975858688	79	10536
2026-01-24 07:29:54.92	138.23	41.94	-54.4	-63.2	3.8	7.44e-01	0	44	104	2975858688	79	10533
2026-01-24 07:29:55.92	138.01	42.36	-54.4	-63.2	3.8	7.44e-01	0	44	104	2975858688	79	10513
2026-01-24 07:29:56.93	137.77	42.80	-54.4	-63.2	3.8	7.46e-01	0	44	104	2975858688	79	10516
2026-01-24 07:29:57.94	137.53	43.24	-54.4	-63.3	3.8	7.45e-01	0	44	104	2975858688	79	10550
2026-01-24 07:29:58.95	137.28	43.69	-54.5	-63.3	3.8	7.46e-01	0	44	104	2975858688	79	10546
2026-01-24 07:29:59.96	137.02	44.14	-54.4	-63.3	3.8	7.46e-01	0	44	104	2975858688	79	10537
2026-01-24 07:30:00.97	136.76	44.60	-54.4	-63.2	3.8	7.46e-01	0	44	104	2975858688	79	10532
2026-01-24 07:30:01.97	136.49	45.06	-54.4	-63.3	3.8	7.44e-01	0	44	104	2975858688	79	10547
2026-01-24 07:30:02.98	136.21	45.52	-54.5	-63.3	3.8	7.46e-01	0	44	104	2975858688	79	10595
2026-01-24 07:30:03.98	135.92	45.99	-54.4	-63.3	3.8	7.46e-01	0	44	104	2975858688	79	10558
2026-01-24 07:30:05.00	135.62	46.48	-54.5	-63.3	3.8	7.45e-01	0	44	104	2975858688	79	10589
2026-01-24 07:30:06.00	135.32	46.95	-54.5	-63.3	3.8	7.45e-01	0	44	104	2975858688	79	10597
2026-01-24 07:30:07.01	135.00	47.44	-54.5	-63.3	3.8	7.45e-01	0	44	104	2975858688	79	10593
2026-01-24 07:30:08.02	134.67	47.94	-54.5	-63.3	3.8	7.44e-01	0	44	104	2975858688	79	10597
2026-01-24 07:30:09.03	134.33	48.44	-54.5	-63.3	3.8	7.47e-01	0	44	104	2975858688	79	10590
2026-01-24 07:30:10.03	133.98	48.94	-54.5	-63.3	3.8	7.46e-01	0	44	104	2975858688	79	10591
2026-01-24 07:30:11.04	133.61	49.45	-54.5	-63.3	3.8	7.45e-01	0	44	104	2975858688	79	10648
2026-01-24 07:30:12.05	133.24	49.96	-54.5	-63.3	3.8	7.45e-01	0	44	104	2975858688	79	10613
2026-01-24 07:30:13.06	132.85	50.49	-54.5	-63.3	3.8	7.45e-01	0	44	104	2975858688	79	10611
2026-01-24 07:30:14.06	132.45	51.01	-54.5	-63.3	3.8	7.46e-01	0	44	104	2975858688	79	10620
2026-01-24 07:30:15.07	132.03	51.54	-54.5	-63.3	3.8	7.45e-01	0	44	104	2975858688	79	10644
2026-01-24 07:30:16.08	131.59	52.07	-54.5	-63.3	3.8	7.45e-01	0	44	104	2975858688	79	10619
2026-01-24 07:30:17.09	131.14	52.61	-54.5	-63.3	3.8	7.44e-01	0	44	104	2975858688	79	10624
2026-01-24 07:30:18.10	130.67	53.16	-54.5	-63.3	3.8	7.46e-01	0	44	104	2975858688	79	10616
2026-01-24 07:30:19.11	130.18	53.71	-54.5	-63.4	3.8	7.44e-01	0	44	104	2975858688	79	10679
2026-01-24 07:30:20.12	129.67	54.26	-54.5	-63.3	3.8	7.45e-01	0	44	104	2975858688	79	10614
2026-01-24 07:30:21.12	129.15	54.82	-54.5	-63.3	3.8	7.45e-01	0	44	104	2975858688	79	10634
2026-01-24 07:30:22.13	128.60	55.38	-54.5	-63.3	3.8	7.47e-01	0	44	104	2975858688	79	10650
2026-01-24 07:30:23.14	128.03	55.95	-54.5	-63.3	3.8	7.45e-01	0	44	104	2975858688	79	10652
2026-01-24 07:30:24.15	127.43	56.52	-54.5	-63.3	3.8	7.46e-01	0	44	104	2975858688	79	10639
2026-01-24 07:30:25.15	126.82	57.09	-54.5	-63.3	3.8	7.45e-01	0	44	104	2975858688	79	10631
2026-01-24 07:30:26.16	126.17	57.66	-54.5	-63.4	3.8	7.44e-01	0	44	104	2975858688	79	10674
2026-01-24 07:30:27.17	125.49	58.24	-54.5	-63.4	3.8	7.45e-01	0	44	104	2975858688	79	10678
2026-01-24 07:30:28.18	124.78	58.82	-54.5	-63.3	3.8	7.45e-01	0	44	104	2975858688	79	10604
2026-01-24 07:30:29.19	124.03	59.41	-54.5	-63.3	3.8	7.43e-01	0	44	104	2975858688	79	10651
2026-01-24 07:30:30.19	123.27	59.98	-54.6	-63.4	3.8	7.45e-01	0	44	104	2975858688	79	10671
2026-01-24 07:30:31.20	122.45	60.57	-54.5	-63.4	3.8	7.44e-01	0	44	104	2975858688	79	10687
2026-01-24 07:30:32.21	121.60	61.16	-54.5	-63.3	3.8	7.46e-01	0	44	104	2975858688	79	10618
2026-01-24 07:30:33.22	120.71	61.74	-54.6	-63.4	3.8	7.46e-01	0	44	104	2975858688	79	10700
2026-01-24 07:30:34.23	119.77	62.33	-54.6	-63.4	3.8	7.45e-01	0	44	104	2975858688	79	10663
2026-01-24 07:30:35.23	118.79	62.91	-54.5	-63.4	3.8	7.46e-01	0	44	104	2975858688	79	10671
2026-01-24 07:30:36.24	117.76	63.49	-54.5	-63.4	3.8	7.46e-01	0	44	104	2975858688	79	10656
2026-01-24 07:30:37.25	116.67	64.07	-54.6	-63.4	3.8	7.44e-01	0	44	104	2975858688	79	10720
2026-01-24 07:30:38.26	115.53	64.64	-54.6	-63.4	3.8	7.45e-01	0	44	104	2975858688	79	10707
2026-01-24 07:30:39.27	114.32	65.21	-54.6	-63.4	3.8	7.46e-01	0	44	104	2975858688	79	10700
2026-01-24 07:30:40.27	113.07	65.77	-54.5	-63.4	3.8	7.45e-01	0	44	104	2975858688	79	10680
2026-01-24 07:30:41.28	111.74	66.33	-54.6	-63.4	3.8	7.44e-01	0	44	104	2975858688	79	10665
2026-01-24 07:30:42.29	110.33	66.88	-54.6	-63.4	3.8	7.45e-01	0	44	104	2975858688	79	10713
2026-01-24 07:30:43.30	108.85	67.42	-54.6	-63.4	3.8	7.45e-01	0	44	104	2975858688	79	10676
2026-01-24 07:30:44.31	107.29	67.95	-54.5	-63.4	3.8	7.44e-01	0	44	104	2975858688	79	10693
2026-01-24 07:30:45.31	105.67	68.46	-54.6	-63.4	3.8	7.45e-01	0	44	104	2975858688	79	10720
2026-01-24 07:30:46.32	103.94	68.97	-54.6	-63.4	3.8	7.44e-01	0	44	104	2975858688	79	10761
2026-01-24 07:30:47.33	102.12	69.45	-54.6	-63.4	3.8	7.44e-01	0	44	104	2975858688	79	10709
2026-01-24 07:30:48.33	100.23	69.92	-54.6	-63.4	3.8	7.46e-01	0	44	104	2975858688	79	10709
2026-01-24 07:30:49.34	98.22	70.37	-54.6	-63.4	3.8	7.44e-01	0	44	104	2975858688	79	10758
2026-01-24 07:30:50.35	96.11	70.80	-54.6	-63.5	3.8	7.46e-01	0	44	104	2975858688	79	10798
2026-01-24 07:30:51.36	93.90	71.20	-54.6	-63.4	3.8	7.46e-01	0	44	104	2975858688	79	10703
2026-01-24 07:30:52.37	91.60	71.58	-54.6	-63.4	3.8	7.45e-01	0	44	104	2975858688	79	10713
2026-01-24 07:30:53.38	89.19	71.93	-54.6	-63.4	3.8	7.47e-01	0	44	104	2975858688	79	10769
2026-01-24 07:30:54.38	86.71	72.25	-54.6	-63.4	3.8	7.45e-01	0	44	104	2975858688	79	10765
2026-01-24 07:30:55.39	84.11	72.54	-54.6	-63.5	3.8	7.45e-01	0	44	104	2975858688	79	10798
2026-01-24 07:30:56.40	81.43	72.79	-54.6	-63.4	3.8	7.45e-01	0	44	104	2975858688	79	10762
2026-01-24 07:30:57.41	78.67	73.01	-54.7	-63.5	3.8	7.45e-01	0	44	104	2975858688	79	10788
2026-01-24 07:30:58.41	75.86	73.19	-54.7	-63.5	3.8	7.44e-01	0	44	104	2975858688	79	10816
2026-01-24 07:30:59.42	72.98	73.33	-54.6	-63.5	3.8	7.45e-01	0	44	104	2975858688	79	10796
2026-01-24 07:31:00.43	70.05	73.43	-54.6	-63.4	3.8	7.45e-01	0	44	104	2975858688	79	10748
2026-01-24 07:31:01.44	67.08	73.48	-54.7	-63.5	3.8	7.46e-01	0	44	104	2975858688	79	10873
2026-01-24 07:31:02.45	64.11	73.50	-54.7	-63.5	3.8	7.46e-01	0	44	104	2975858688	79	10880
2026-01-24 07:31:03.45	61.17	73.47	-54.7	-63.5	3.8	7.46e-01	0	44	104	2975858688	79	10829
2026-01-24 07:31:04.46	58.21	73.40	-54.7	-63.5	3.8	7.45e-01	0	44	104	2975858688	79	10811
2026-01-24 07:31:05.47	55.29	73.29	-54.7	-63.5	3.8	7.44e-01	0	44	104	2975858688	79	10848
2026-01-24 07:31:06.48	52.42	73.14	-54.7	-63.5	3.8	7.44e-01	0	44	104	2975858688	79	10890
2026-01-24 07:31:07.49	49.61	72.95	-54.6	-63.4	3.8	7.45e-01	0	44	104	2975858688	80	10163
2026-01-24 07:31:08.49	46.89	72.73	-54.7	-63.5	3.8	7.46e-01	0	44	104	2975858688	80	10216
2026-01-24 07:31:09.50	44.23	72.46	-54.7	-63.5	3.8	7.45e-01	0	44	104	2975858688	80	10260
2026-01-24 07:31:10.51	41.66	72.17	-54.7	-63.5	3.8	7.46e-01	0	44	104	2975858688	80	10260
2026-01-24 07:31:11.52	39.18	71.84	-54.6	-63.5	3.8	7.45e-01	0	44	104	2975858688	80	10193
2026-01-24 07:31:12.53	36.81	71.48	-54.7	-63.5	3.8	7.47e-01	0	44	104	2975858688	80	10207
2026-01-24 07:31:13.53	34.55	71.10	-54.7	-63.5	3.8	7.45e-01	0	44	104	2975858688	80	10254
2026-01-24 07:31:14.54	32.37	70.69	-54.7	-63.6	3.8	7.44e-01	0	44	104	2975858688	80	10319
2026-01-24 07:31:15.55	30.29	70.25	-54.7	-63.5	3.8	7.46e-01	0	44	104	2975858688	80	10207
2026-01-24 07:31:16.56	28.31	69.80	-54.7	-63.5	3.8	7.44e-01	0	44	104	2975858688	80	10243
2026-01-24 07:31:17.57	26.42	69.32	-54.7	-63.5	3.8	7.45e-01	0	44	104	2975858688	80	10285
2026-01-24 07:31:18.58	24.63	68.83	-54.7	-63.6	3.8	7.46e-01	0	44	104	2975858688	80	10297
2026-01-24 07:31:19.59	22.93	68.33	-54.7	-63.5	3.8	7.47e-01	0	44	104	2975858688	80	10217
2026-01-24 07:31:20.59	21.33	67.81	-54.7	-63.5	3.8	7.45e-01	0	44	104	2975858688	80	10255
2026-01-24 07:31:21.60	19.79	67.28	-54.7	-63.5	3.8	7.44e-01	0	44	104	2975858688	80	10265
2026-01-24 07:31:22.61	18.33	66.74	-54.7	-63.5	3.8	7.44e-01	0	44	104	2975858688	80	10265
2026-01-24 07:31:23.62	16.95	66.19	-54.7	-63.5	3.8	7.45e-01	0	44	104	2975858688	80	10254
2026-01-24 07:31:24.62	15.65	65.63	-54.7	-63.5	3.8	7.45e-01	0	44	104	2975858688	80	10238
2026-01-24 07:31:25.63	14.40	65.07	-54.7	-63.5	3.8	7.46e-01	0	44	104	2975858688	80	10227
2026-01-24 07:31:26.64	13.21	64.50	-54.7	-63.5	3.8	7.46e-01	0	44	104	2975858688	80	10270
2026-01-24 07:31:27.65	12.09	63.92	-54.7	-63.5	3.8	7.44e-01	0	44	104	2975858688	80	10211
2026-01-24 07:31:28.66	11.01	63.34	-54.7	-63.5	3.8	7.45e-01	0	44	104	2975858688	80	10230
2026-01-24 07:31:29.66	10.00	62.77	-54.7	-63.5	3.8	7.45e-01	0	44	104	2975858688	80	10260
2026-01-24 07:31:30.67	9.03	62.19	-54.7	-63.5	3.8	7.46e-01	0	44	104	2975858688	80	10254
2026-01-24 07:31:31.68	8.11	61.60	-54.7	-63.5	3.8	7.47e-01	0	44	104	2975858688	80	10199
2026-01-24 07:31:32.69	7.23	61.02	-54.7	-63.5	3.8	7.45e-01	0	44	104	2975858688	80	10242
2026-01-24 07:31:33.70	6.39	60.43	-54.7	-63.5	3.8	7.45e-01	0	44	104	2975858688	80	10257
2026-01-24 07:31:34.71	5.58	59.85	-54.7	-63.5	3.8	7.45e-01	0	44	104	2975858688	80	10225
2026-01-24 07:31:35.71	4.83	59.27	-54.7	-63.5	3.8	7.46e-01	0	44	104	2975858688	80	10214
2026-01-24 07:31:36.72	4.09	58.69	-54.7	-63.5	3.8	7.45e-01	0	44	104	2975858688	80	10248
2026-01-24 07:31:37.73	3.39	58.11	-54.7	-63.5	3.8	7.44e-01	0	44	104	2975858688	80	10215
2026-01-24 07:31:38.74	2.72	57.53	-54.7	-63.5	3.8	7.45e-01	0	44	104	2975858688	80	10220
2026-01-24 07:31:39.74	2.09	56.96	-54.6	-63.4	3.8	7.46e-01	0	44	104	2975858688	80	10169
2026-01-24 07:31:40.75	1.47	56.39	-54.6	-63.5	3.8	7.45e-01	0	44	104	2975858688	80	10198
2026-01-24 07:31:41.76	0.88	55.82	-54.7	-63.5	3.8	7.45e-01	0	44	104	2975858688	80	10266
2026-01-24 07:31:42.77	0.32	55.26	-54.7	-63.5	3.8	7.46e-01	0	44	104	2975858688	80	10232
2026-01-24 07:31:43.78	359.77	54.70	-54.6	-63.4	3.8	7.46e-01	0	44	104	2975858688	80	10154
2026-01-24 07:31:44.78	359.26	54.15	-54.6	-63.5	3.8	7.45e-01	0	44	104	2975858688	80	10196
2026-01-24 07:31:45.79	358.75	53.60	-54.6	-63.5	3.8	7.44e-01	0	44	104	2975858688	80	10198
2026-01-24 07:31:46.80	358.27	53.05	-54.6	-63.4	3.8	7.46e-01	0	44	104	2975858688	80	10161
2026-01-24 07:31:47.81	357.81	52.50	-54.6	-63.4	3.8	7.44e-01	0	44	104	2975858688	80	10108
2026-01-24 07:31:48.81	357.36	51.97	-54.6	-63.4	3.8	7.45e-01	0	44	104	2975858688	80	10102
2026-01-24 07:31:49.82	356.93	51.44	-54.6	-63.4	3.8	7.44e-01	0	44	104	2975858688	80	10118
2026-01-24 07:31:50.83	356.52	50.91	-54.6	-63.4	3.8	7.45e-01	0	44	104	2975858688	80	10153
2026-01-24 07:31:51.84	356.12	50.39	-54.6	-63.4	3.8	7.46e-01	0	44	104	2975858688	80	10089
2026-01-24 07:31:52.85	355.73	49.87	-54.6	-63.4	3.8	7.44e-01	0	44	104	2975858688	80	10137
2026-01-24 07:31:53.85	355.36	49.36	-54.6	-63.4	3.8	7.45e-01	0	44	104	2975858688	80	10155
2026-01-24 07:31:54.86	355.00	48.85	-54.6	-63.4	3.8	7.44e-01	0	44	104	2975858688	80	10130
2026-01-24 07:31:55.87	354.65	48.35	-54.5	-63.4	3.8	7.47e-01	0	44	104	2975858688	80	10063
2026-01-24 07:31:56.88	354.32	47.85	-54.6	-63.4	3.8	7.45e-01	0	44	104	2975858688	80	10091
2026-01-24 07:31:57.89	353.99	47.36	-54.6	-63.4	3.8	7.45e-01	0	44	104	2975858688	80	10091
2026-01-24 07:31:58.89	353.68	46.88	-54.6	-63.4	3.8	7.44e-01	0	44	104	2975858688	80	10065
2026-01-24 07:31:59.90	353.37	46.40	-54.5	-63.4	3.8	7.46e-01	0	44	104	2975858688	80	10080
2026-01-24 07:32:00.91	353.08	45.92	-54.5	-63.4	3.8	7.45e-01	0	44	104	2975858688	80	10067
2026-01-24 07:32:01.92	352.79	45.45	-54.6	-63.4	3.8	7.46e-01	0	44	104	2975858688	80	10121
2026-01-24 07:32:02.93	352.51	44.99	-54.6	-63.4	3.8	7.46e-01	0	44	104	2975858688	80	10077
2026-01-24 07:32:03.93	352.24	44.53	-54.5	-63.4	3.8	7.45e-01	0	44	104	2975858688	80	10065
2026-01-24 07:32:04.94	351.98	44.08	-54.5	-63.4	3.8	7.45e-01	0	44	104	2975858688	80	10094
2026-01-24 07:32:05.95	351.73	43.63	-54.6	-63.4	3.8	7.46e-01	0	44	104	2975858688	80	10097
2026-01-24 07:32:06.96	351.48	43.18	-54.6	-63.3	3.8	7.46e-01	0	44	104	2975858688	80	10052
2026-01-24 07:32:07.97	351.24	42.75	-54.5	-63.3	3.8	7.46e-01	0	44	104	2975858688	80	10015
2026-01-24 07:32:08.98	351.01	42.31	-54.5	-63.3	3.8	7.46e-01	0	44	104	2975858688	80	9995
2026-01-24 07:32:09.99	350.78	41.88	-54.5	-63.4	3.8	7.44e-01	0	44	104	2975858688	80	10085
2026-01-24 07:32:10.99	350.57	41.47	-54.5	-63.3	3.8	7.45e-01	0	44	104	2975858688	80	10050
2026-01-24 07:32:12.00	350.35	41.05	-54.5	-63.3	3.8	7.46e-01	0	44	104	2975858688	80	10020
2026-01-24 07:32:13.01	350.14	40.63	-54.5	-63.3	3.8	7.45e-01	0	44	104	2975858688	80	10011
2026-01-24 07:32:14.02	349.94	40.23	-54.5	-63.3	3.8	7.46e-01	0	44	104	2975858688	80	10053
2026-01-24 07:32:15.03	349.74	39.82	-54.5	-63.3	3.8	7.43e-01	0	44	104	2975858688	80	10023
2026-01-24 07:32:16.03	349.55	39.43	-54.5	-63.3	3.8	7.45e-01	0	44	104	2975858688	80	9988
2026-01-24 07:32:17.04	349.36	39.03	-54.5	-63.3	3.8	7.44e-01	0	44	104	2975858688	80	9955
2026-01-24 07:32:18.05	349.18	38.65	-54.5	-63.3	3.8	7.43e-01	0	44	104	2975858688	80	9986
2026-01-24 07:32:19.06	349.00	38.26	-54.5	-63.3	3.8	7.44e-01	0	44	104	2975858688	80	9950
2026-01-24 07:32:20.06	348.83	37.89	-54.4	-63.3	3.8	7.46e-01	0	44	104	2975858688	80	9972
2026-01-24 07:32:21.07	348.66	37.51	-54.4	-63.3	3.8	7.44e-01	0	44	104	2975858688	80	9968
2026-01-24 07:32:22.07	348.50	37.14	-54.5	-63.3	3.8	7.44e-01	0	44	104	2975858688	80	9988
2026-01-24 07:32:23.08	348.34	36.78	-54.4	-63.3	3.8	7.45e-01	0	44	104	2975858688	80	9948
2026-01-24 07:32:24.09	348.18	36.42	-54.4	-63.3	3.8	7.47e-01	0	44	104	2975858688	80	9946
2026-01-24 07:32:25.10	348.03	36.06	-54.4	-63.2	3.8	7.46e-01	0	44	104	2975858688	80	9931
2026-01-24 07:32:26.11	347.88	35.71	-54.4	-63.3	3.8	7.44e-01	0	44	104	2975858688	80	9955
2026-01-24 07:32:27.11	347.73	35.36	-54.4	-63.2	3.8	7.45e-01	0	44	104	2975858688	80	9909
2026-01-24 07:32:28.12	347.59	35.02	-54.4	-63.2	3.8	7.45e-01	0	44	104	2975858688	80	9909
2026-01-24 07:32:29.13	347.45	34.68	-54.4	-63.2	3.8	7.44e-01	0	44	104	2975858688	80	9847
2026-01-24 07:32:30.14	347.31	34.34	-54.4	-63.2	3.8	7.46e-01	0	44	104	2975858688	80	9890
2026-01-24 07:32:31.15	347.18	34.01	-54.4	-63.2	3.8	7.44e-01	0	44	104	2975858688	80	9875
2026-01-24 07:32:32.16	347.05	33.68	-54.4	-63.2	3.8	7.43e-01	0	44	104	2975858688	80	9861
2026-01-24 07:32:33.16	346.92	33.36	-54.4	-63.2	3.8	7.46e-01	0	44	104	2975858688	80	9850
2026-01-24 07:32:34.17	346.80	33.04	-54.4	-63.2	3.8	7.46e-01	0	44	104	2975858688	80	9880
2026-01-24 07:32:35.18	346.67	32.72	-54.4	-63.2	3.8	7.46e-01	0	44	104	2975858688	80	9863
2026-01-24 07:32:36.19	346.55	32.41	-54.3	-63.2	3.8	7.46e-01	0	44	104	2975858688	80	9831
2026-01-24 07:32:37.19	346.44	32.10	-54.3	-63.1	3.8	7.44e-01	0	44	104	2975858688	80	9825
2026-01-24 07:32:38.20	346.32	31.80	-54.3	-63.2	3.8	7.44e-01	0	44	104	2975858688	80	9867
2026-01-24 07:32:39.21	346.21	31.50	-54.3	-63.1	3.8	7.44e-01	0	44	104	2975858688	80	9810
2026-01-24 07:32:40.22	346.10	31.20	-54.3	-63.1	3.8	7.46e-01	0	44	104	2975858688	80	9785
2026-01-24 07:32:41.23	345.99	30.90	-54.3	-63.1	3.8	7.44e-01	0	44	104	2975858688	80	9788
2026-01-24 07:32:42.23	345.89	30.61	-54.3	-63.1	3.8	7.45e-01	0	44	104	2975858688	80	9785
2026-01-24 07:32:43.24	345.78	30.32	-54.3	-63.1	3.8	7.45e-01	0	44	104	2975858688	80	9741
2026-01-24 07:32:44.25	345.68	30.04	-54.3	-63.1	3.8	7.46e-01	0	44	104	2975858688	80	9773
2026-01-24 07:32:45.26	345.58	29.76	-54.3	-63.1	3.8	7.45e-01	0	44	104	2975858688	80	9736
2026-01-24 07:32:46.27	345.48	29.48	-54.3	-63.1	3.8	7.44e-01	0	44	104	2975858688	80	9742
2026-01-24 07:32:47.27	345.39	29.21	-54.3	-63.1	3.8	7.46e-01	0	44	104	2975858688	80	9738
2026-01-24 07:32:48.28	345.29	28.93	-54.2	-63.1	3.8	7.45e-01	0	44	104	2975858688	80	9738
2026-01-24 07:32:49.29	345.20	28.66	-54.2	-63.1	3.8	7.46e-01	0	44	104	2975858688	80	9763
2026-01-24 07:32:50.30	345.11	28.40	-54.2	-63.1	3.8	7.45e-01	0	44	104	2975858688	80	9766
2026-01-24 07:32:51.31	345.02	28.14	-54.2	-63.1	3.8	7.45e-01	0	44	104	2975858688	80	9734
2026-01-24 07:32:52.31	344.93	27.88	-54.2	-63.0	3.8	7.46e-01	0	44	104	2975858688	80	9706
2026-01-24 07:32:53.32	344.85	27.62	-54.2	-63.0	3.8	7.47e-01	0	44	104	2975858688	80	9673
2026-01-24 07:32:54.33	344.77	27.36	-54.2	-63.0	3.8	7.44e-01	0	44	104	2975858688	80	9698
2026-01-24 07:32:55.34	344.68	27.11	-54.2	-63.0	3.8	7.44e-01	0	44	104	2975858688	80	9682
2026-01-24 07:32:56.35	344.60	26.86	-54.2	-63.0	3.8	7.45e-01	0	44	104	2975858688	80	9698
2026-01-24 07:32:57.35	344.52	26.62	-54.2	-63.0	3.8	7.45e-01	0	44	104	2975858688	80	9668
2026-01-24 07:32:58.36	344.44	26.38	-54.2	-63.0	3.8	7.45e-01	0	44	104	2975858688	80	9681
2026-01-24 07:32:59.37	344.37	26.13	-54.2	-63.0	3.8	7.44e-01	0	44	104	2975858688	80	9630
2026-01-24 07:33:00.38	344.29	25.90	-54.2	-63.0	3.8	7.45e-01	0	44	104	2975858688	80	9643
2026-01-24 07:33:01.39	344.22	25.66	-54.2	-63.0	3.8	7.45e-01	0	44	104	2975858688	80	9647
2026-01-24 07:33:02.39	344.15	25.43	-54.2	-63.0	3.8	7.44e-01	0	44	104	2975858688	80	9624
2026-01-24 07:33:03.40	344.07	25.20	-54.1	-62.9	3.8	7.47e-01	0	44	104	2975858688	80	9592
2026-01-24 07:33:04.41	344.00	24.97	-54.1	-62.9	3.8	7.45e-01	0	44	104	2975858688	80	9593
2026-01-24 07:33:05.42	343.93	24.74	-54.1	-62.9	3.8	7.45e-01	0	44	104	2975858688	80	9602
2026-01-24 07:33:06.43	343.87	24.52	-54.1	-63.0	3.8	7.44e-01	0	44	104	2975858688	80	9649
2026-01-24 07:33:07.43	343.80	24.30	-54.1	-62.9	3.8	7.46e-01	0	44	104	2975858688	80	9586
2026-01-24 07:33:08.44	343.73	24.08	-54.1	-62.9	3.8	7.44e-01	0	44	104	2975858688	80	9605
2026-01-24 07:33:09.45	343.67	23.86	-54.1	-62.9	3.8	7.46e-01	0	44	104	2975858688	80	9590
2026-01-24 07:33:10.46	343.60	23.64	-54.1	-62.9	3.8	7.47e-01	0	44	104	2975858688	80	9593
2026-01-24 07:33:11.46	343.54	23.43	-54.1	-62.9	3.8	7.45e-01	0	44	104	2975858688	80	9545
2026-01-24 07:33:12.47	343.48	23.22	-54.1	-62.9	3.8	7.44e-01	0	44	104	2975858688	80	9564
2026-01-24 07:33:13.48	343.42	23.01	-54.1	-62.9	3.8	7.45e-01	0	44	104	2975858688	80	9541
2026-01-24 07:33:14.49	343.36	22.81	-54.1	-62.9	3.8	7.45e-01	0	44	104	2975858688	80	9573
2026-01-24 07:33:15.50	343.30	22.60	-54.1	-62.9	3.8	7.46e-01	0	44	104	2975858688	80	9531
2026-01-24 07:33:16.51	343.24	22.40	-54.1	-62.9	3.8	7.45e-01	0	44	104	2975858688	80	9517
2026-01-24 07:33:17.51	343.19	22.20	-54.1	-62.9	3.8	7.45e-01	0	44	104	2975858688	80	9524
2026-01-24 07:33:18.52	343.13	22.00	-54.1	-62.9	3.8	7.47e-01	0	44	104	2975858688	80	9530
2026-01-24 07:33:19.53	343.08	21.80	-54.0	-62.9	3.8	7.45e-01	0	44	104	2975858688	80	9521
2026-01-24 07:33:20.54	343.02	21.61	-54.0	-62.8	3.8	7.45e-01	0	44	104	2975858688	80	9486
2026-01-24 07:33:21.55	342.97	21.41	-54.0	-62.8	3.8	7.45e-01	0	44	104	2975858688	80	9495
2026-01-24 07:33:22.55	342.91	21.22	-54.0	-62.8	3.8	7.45e-01	0	44	104	2975858688	80	9485
2026-01-24 07:33:23.56	342.86	21.03	-54.0	-62.8	3.8	7.44e-01	0	44	104	2975858688	80	9464
2026-01-24 07:33:24.57	342.81	20.85	-54.0	-62.8	3.8	7.44e-01	0	44	104	2975858688	80	9486
2026-01-24 07:33:25.58	342.76	20.66	-54.0	-62.8	3.8	7.46e-01	0	44	104	2975858688	80	9484
2026-01-24 07:33:26.59	342.71	20.47	-54.0	-62.9	3.8	7.44e-01	0	44	104	2975858688	80	9499
2026-01-24 07:33:27.60	342.66	20.29	-54.0	-62.9	3.8	7.45e-01	0	44	104	2975858688	80	9502
2026-01-24 07:33:28.60	342.61	20.11	-54.0	-62.8	3.8	7.44e-01	0	44	104	2975858688	80	9451
2026-01-24 07:33:29.61	342.57	19.93	-54.0	-62.8	3.8	7.44e-01	0	44	104	2975858688	80	9441
2026-01-24 07:33:30.62	342.52	19.75	-54.0	-62.8	3.8	7.47e-01	0	44	104	2975858688	80	9440
2026-01-24 07:33:31.63	342.47	19.58	-54.0	-62.9	3.8	7.45e-01	0	44	104	2975858688	79	10102
2026-01-24 07:33:32.64	342.43	19.40	-54.0	-62.9	3.8	7.46e-01	0	44	104	2975858688	79	10095
2026-01-24 07:33:33.65	342.38	19.23	-54.0	-62.8	3.8	7.45e-01	0	44	104	2975858688	79	10040
2026-01-24 07:33:34.66	342.34	19.06	-54.0	-62.8	3.8	7.46e-01	0	44	104	2975858688	79	10026
2026-01-24 07:33:35.67	342.29	18.89	-54.0	-62.8	3.8	7.46e-01	0	44	104	2975858688	79	10024
2026-01-24 07:33:36.67	342.25	18.72	-54.0	-62.8	3.8	7.46e-01	0	44	104	2975858688	79	10016
2026-01-24 07:33:37.68	342.21	18.55	-54.0	-62.8	3.8	7.45e-01	0	44	104	2975858688	79	10024
2026-01-24 07:33:38.69	342.17	18.39	-54.0	-62.8	3.8	7.45e-01	0	44	104	2975858688	79	10028
2026-01-24 07:33:39.70	342.13	18.22	-54.0	-62.8	3.8	7.45e-01	0	44	104	2975858688	79	10011
2026-01-24 07:33:40.71	342.09	18.06	-54.0	-62.8	3.8	7.46e-01	0	44	104	2975858688	79	9988
2026-01-24 07:33:41.72	342.05	17.90	-54.0	-62.8	3.8	7.45e-01	0	44	104	2975858688	79	10001
2026-01-24 07:33:42.73	342.01	17.74	-54.0	-62.8	3.8	7.45e-01	0	44	104	2975858688	79	9985
2026-01-24 07:33:43.73	341.97	17.58	-54.0	-62.8	3.8	7.44e-01	0	44	104	2975858688	79	9967
2026-01-24 07:33:44.74	341.93	17.42	-53.9	-62.8	3.8	7.45e-01	0	44	104	2975858688	79	9954
2026-01-24 07:33:45.75	341.89	17.26	-53.9	-62.7	3.8	7.45e-01	0	44	104	2975858688	79	9905
2026-01-24 07:33:46.76	341.85	17.11	-53.9	-62.7	3.8	7.47e-01	0	44	104	2975858688	79	9927
2026-01-24 07:33:47.77	341.82	16.95	-54.0	-62.8	3.8	7.46e-01	0	44	104	2975858688	79	9977
2026-01-24 07:33:48.77	341.78	16.80	-53.9	-62.8	3.8	7.47e-01	0	44	104	2975858688	79	9945
2026-01-24 07:33:49.77	341.74	16.65	-53.9	-62.7	3.8	7.46e-01	0	44	104	2975858688	79	9918
2026-01-24 07:33:50.78	341.71	16.50	-53.9	-62.7	3.8	7.45e-01	0	44	104	2975858688	79	9943
2026-01-24 07:33:51.79	341.67	16.35	-53.9	-62.7	3.8	7.46e-01	0	44	104	2975858688	79	9901
2026-01-24 07:33:52.80	341.64	16.20	-53.9	-62.7	3.8	7.45e-01	0	44	104	2975858688	79	9885
2026-01-24 07:33:53.81	341.60	16.06	-53.9	-62.7	3.8	7.45e-01	0	44	104	2975858688	79	9879
2026-01-24 07:33:54.81	341.57	15.91	-53.9	-62.7	3.8	7.46e-01	0	44	104	2975858688	79	9848
2026-01-24 07:33:55.82	341.54	15.77	-53.9	-62.7	3.8	7.45e-01	0	44	104	2975858688	79	9888
2026-01-24 07:33:56.83	341.50	15.62	-53.9	-62.7	3.8	7.46e-01	0	44	104	2975858688	79	9872
2026-01-24 07:33:57.83	341.47	15.48	-53.9	-62.7	3.8	7.46e-01	0	44	104	2975858688	79	9835
2026-01-24 07:33:58.84	341.44	15.34	-53.8	-62.6	3.8	7.45e-01	0	44	104	2975858688	79	9815
2026-01-24 07:33:59.85	341.41	15.20	-53.9	-62.7	3.8	7.46e-01	0	44	104	2975858688	79	9853
2026-01-24 07:34:00.86	341.38	15.06	-53.8	-62.6	3.8	7.46e-01	0	44	104	2975858688	79	9785
2026-01-24 07:34:01.87	341.35	14.92	-53.8	-62.6	3.8	7.45e-01	0	44	104	2975858688	79	9814
2026-01-24 07:34:02.87	341.31	14.79	-53.8	-62.6	3.8	7.46e-01	0	44	104	2975858688	79	9794
2026-01-24 07:34:03.88	341.28	14.65	-53.8	-62.7	3.8	7.46e-01	0	44	104	2975858688	79	9831
2026-01-24 07:34:04.89	341.25	14.52	-53.8	-62.6	3.8	7.44e-01	0	44	104	2975858688	79	9799
2026-01-24 07:34:05.89	341.23	14.38	-53.8	-62.6	3.8	7.47e-01	0	44	104	2975858688	79	9768
2026-01-24 07:34:06.90	341.20	14.25	-53.8	-62.6	3.8	7.47e-01	0	44	104	2975858688	79	9766
2026-01-24 07:34:07.91	341.17	14.12	-53.8	-62.6	3.8	7.45e-01	0	44	104	2975858688	79	9789
2026-01-24 07:34:08.92	341.14	13.99	-53.8	-62.6	3.8	7.43e-01	0	44	104	2975858688	79	9770
2026-01-24 07:34:09.93	341.11	13.85	-53.8	-62.6	3.8	7.45e-01	0	44	104	2975858688	79	9765
2026-01-24 07:34:10.93	341.08	13.73	-53.7	-62.6	3.8	7.44e-01	0	44	104	2975858688	79	9749
2026-01-24 07:34:11.94	341.06	13.60	-53.8	-62.6	3.8	7.45e-01	0	44	104	2975858688	79	9774
2026-01-24 07:34:12.95	341.03	13.47	-53.7	-62.5	3.8	7.45e-01	0	44	104	2975858688	79	9667
2026-01-24 07:34:13.95	341.00	13.34	-53.7	-62.5	3.8	7.44e-01	0	44	104	2975858688	79	9710
2026-01-24 07:34:14.96	340.98	13.22	-53.7	-62.5	3.8	7.45e-01	0	44	104	2975858688	79	9656
2026-01-24 07:34:15.97	340.95	13.09	-53.7	-62.5	3.8	7.45e-01	0	44	104	2975858688	79	9716
2026-01-24 07:34:16.98	340.92	12.97	-53.7	-62.5	3.8	7.46e-01	0	44	104	2975858688	79	9659
2026-01-24 07:34:17.99	340.90	12.84	-53.7	-62.5	3.8	7.44e-01	0	44	104	2975858688	79	9684
2026-01-24 07:34:18.99	340.87	12.72	-53.7	-62.5	3.8	7.47e-01	0	44	104	2975858688	79	9613
2026-01-24 07:34:20.00	340.85	12.60	-53.7	-62.6	3.8	7.45e-01	0	44	104	2975858688	79	9718
2026-01-24 07:34:21.01	340.82	12.48	-53.7	-62.5	3.8	7.45e-01	0	44	104	2975858688	79	9607
2026-01-24 07:34:22.02	340.80	12.36	-53.6	-62.5	3.8	7.44e-01	0	44	104	2975858688	79	9617
2026-01-24 07:34:23.03	340.78	12.24	-53.6	-62.4	3.8	7.44e-01	0	44	104	2975858688	79	9600
2026-01-24 07:34:24.04	340.75	12.12	-53.7	-62.5	3.8	7.44e-01	0	44	104	2975858688	79	9640
2026-01-24 07:34:25.05	340.73	12.00	-53.6	-62.4	3.8	7.45e-01	0	44	104	2975858688	79	9567
2026-01-24 07:34:26.05	340.71	11.88	-53.6	-62.4	3.8	7.45e-01	0	44	104	2975858688	79	9597
2026-01-24 07:34:27.06	340.68	11.77	-53.6	-62.4	3.8	7.44e-01	0	44	104	2975858688	79	9588
2026-01-24 07:34:28.07	340.66	11.65	-53.6	-62.5	3.8	7.46e-01	0	44	104	2975858688	79	9625
2026-01-24 07:34:29.08	340.64	11.54	-53.6	-62.4	3.8	7.45e-01	0	44	104	2975858688	79	9569
2026-01-24 07:34:30.09	340.61	11.42	-53.6	-62.4	3.8	7.43e-01	0	44	104	2975858688	79	9572
2026-01-24 07:34:31.09	340.59	11.31	-53.6	-62.4	3.8	7.46e-01	0	44	104	2975858688	79	9528
2026-01-24 07:34:32.10	340.57	11.20	-53.6	-62.4	3.8	7.45e-01	0	44	104	2975858688	79	9574
2026-01-24 07:34:33.11	340.55	11.08	-53.6	-62.4	3.8	7.45e-01	0	44	104	2975858688	79	9595
2026-01-24 07:34:34.12	340.53	10.97	-53.6	-62.4	3.8	7.45e-01	0	44	104	2975858688	79	9511
2026-01-24 07:34:35.13	340.51	10.86	-53.5	-62.4	3.8	7.45e-01	0	44	104	2975858688	79	9518
2026-01-24 07:34:36.13	340.49	10.75	-53.6	-62.4	3.8	7.46e-01	0	44	104	2975858688	79	9538
2026-01-24 07:34:37.14	340.47	10.64	-53.5	-62.3	3.8	7.45e-01	0	44	104	2975858688	79	9494
2026-01-24 07:34:38.15	340.45	10.53	-53.5	-62.4	3.8	7.45e-01	0	44	104	2975858688	79	9506
2026-01-24 07:34:39.16	340.43	10.42	-53.5	-62.3	3.8	7.46e-01	0	44	104	2975858688	79	9447
2026-01-24 07:34:40.17	340.41	10.32	-53.6	-62.4	3.8	7.44e-01	0	44	104	2975858688	79	9525
2026-01-24 07:34:41.17	340.39	10.21	-53.5	-62.3	3.8	7.45e-01	0	44	104	2975858688	79	9446
2026-01-24 07:34:42.18	340.37	10.10	-53.5	-62.3	3.8	7.44e-01	0	44	104	2975858688	79	9475
2026-01-24 07:34:43.19	340.35	10.00	-53.5	-62.3	3.8	7.46e-01	0	44	104	2975858688	78	9982
2026-01-24 07:34:44.20	340.33	9.89	-53.5	-62.4	3.8	7.46e-01	0	44	104	2975858688	78	10090
2026-01-24 07:34:45.21	340.31	9.79	-53.5	-62.3	3.8	7.46e-01	0	44	104	2975858688	78	9980
2026-01-24 07:34:46.21	340.29	9.68	-53.5	-62.3	3.8	7.45e-01	0	44	104	2975858688	78	9957
2026-01-24 07:34:47.22	340.27	9.58	-53.4	-62.3	3.8	7.44e-01	0	44	104	2975858688	78	9958
2026-01-24 07:34:48.23	340.25	9.48	-53.5	-62.3	3.8	7.45e-01	0	44	104	2975858688	78	10018
2026-01-24 07:34:49.23	340.24	9.38	-53.5	-62.3	3.8	7.46e-01	0	44	104	2975858688	78	9979
2026-01-24 07:34:50.24	340.22	9.27	-53.4	-62.2	3.8	7.44e-01	0	44	104	2975858688	78	9925
2026-01-24 07:34:51.25	340.20	9.17	-53.4	-62.2	3.8	7.45e-01	0	44	104	2975858688	78	9923
2026-01-24 07:34:52.26	340.18	9.07	-53.5	-62.3	3.8	7.46e-01	0	44	104	2975858688	78	10009
2026-01-24 07:34:53.27	340.17	8.97	-53.4	-62.3	3.8	7.44e-01	0	44	104	2975858688	78	9946
2026-01-24 07:34:54.27	340.15	8.87	-53.4	-62.2	3.8	7.46e-01	0	44	104	2975858688	78	9928
2026-01-24 07:34:55.28	340.13	8.77	-53.4	-62.2	3.8	7.47e-01	0	44	104	2975858688	78	9866
2026-01-24 07:34:56.29	340.12	8.67	-53.4	-62.2	3.8	7.45e-01	0	44	104	2975858688	78	9938
2026-01-24 07:34:57.30	340.10	8.58	-53.4	-62.2	3.8	7.45e-01	0	44	104	2975858688	78	9863
2026-01-24 07:34:58.31	340.08	8.48	-53.3	-62.2	3.8	7.47e-01	0	44	104	2975858688	78	9834
2026-01-24 07:34:59.31	340.07	8.38	-53.3	-62.1	3.8	7.47e-01	0	44	104	2975858688	78	9823
2026-01-24 07:35:00.32	340.05	8.29	-53.4	-62.2	3.8	7.43e-01	0	44	104	2975858688	78	9877
2026-01-24 07:35:01.33	340.03	8.19	-53.3	-62.1	3.8	7.45e-01	0	44	104	2975858688	78	9828
2026-01-24 07:35:02.34	340.02	8.09	-53.3	-62.1	3.8	7.45e-01	0	44	104	2975858688	78	9824
2026-01-24 07:35:03.35	340.00	8.00	-53.3	-62.1	3.8	7.46e-01	0	44	104	2975858688	78	9761
2026-01-24 07:35:04.35	339.99	7.90	-53.3	-62.2	3.8	7.46e-01	0	44	104	2975858688	78	9846
2026-01-24 07:35:05.36	339.97	7.81	-53.3	-62.1	3.8	7.45e-01	0	44	104	2975858688	78	9742
2026-01-24 07:35:06.37	339.96	7.72	-53.2	-62.1	3.8	7.44e-01	0	44	104	2975858688	78	9739
2026-01-24 07:35:07.38	339.94	7.62	-53.2	-62.0	3.8	7.48e-01	0	44	104	2975858688	78	9701
2026-01-24 07:35:08.38	339.93	7.53	-53.3	-62.1	3.8	7.45e-01	0	44	104	2975858688	78	9764
2026-01-24 07:35:09.39	339.91	7.44	-53.2	-62.1	3.8	7.45e-01	0	44	104	2975858688	78	9731
2026-01-24 07:35:10.40	339.90	7.35	-53.2	-62.0	3.8	7.45e-01	0	44	104	2975858688	78	9690
2026-01-24 07:35:11.41	339.88	7.25	-53.2	-62.1	3.8	7.45e-01	0	44	104	2975858688	78	9739
2026-01-24 07:35:12.42	339.87	7.16	-53.2	-62.0	3.8	7.46e-01	0	44	104	2975858688	78	9704
2026-01-24 07:35:13.42	339.86	7.07	-53.2	-62.0	3.8	7.47e-01	0	44	104	2975858688	78	9683
2026-01-24 07:35:14.43	339.84	6.98	-53.1	-62.0	3.8	7.46e-01	0	44	104	2975858688	78	9624
2026-01-24 07:35:15.44	339.83	6.89	-53.2	-62.0	3.8	7.45e-01	0	44	104	2975858688	78	9649
2026-01-24 07:35:16.45	339.81	6.80	-53.2	-62.0	3.8	7.44e-01	0	44	104	2975858688	78	9710
2026-01-24 07:35:17.46	339.80	6.71	-53.1	-62.0	3.8	7.46e-01	0	44	104	2975858688	78	9622
2026-01-24 07:35:18.46	339.79	6.63	-53.1	-61.9	3.8	7.46e-01	0	44	104	2975858688	78	9546
2026-01-24 07:35:19.47	339.77	6.54	-53.1	-61.9	3.8	7.44e-01	0	44	104	2975858688	78	9575
2026-01-24 07:35:20.48	339.76	6.45	-53.1	-62.0	3.8	7.45e-01	0	44	104	2975858688	78	9616
2026-01-24 07:35:21.49	339.75	6.36	-53.1	-61.9	3.8	7.45e-01	0	44	104	2975858688	78	9568
2026-01-24 07:35:22.49	339.74	6.28	-53.0	-61.8	3.8	7.45e-01	0	44	104	2975858688	78	9477
2026-01-24 07:35:23.50	339.72	6.19	-53.1	-61.9	3.8	7.46e-01	0	44	104	2975858688	78	9536
2026-01-24 07:35:24.51	339.71	6.10	-53.1	-61.9	3.8	7.47e-01	0	44	104	2975858688	78	9560
2026-01-24 07:35:25.52	339.70	6.02	-53.0	-61.9	3.8	7.44e-01	0	44	104	2975858688	78	9507
2026-01-24 07:35:26.52	339.69	5.93	-53.0	-61.8	3.8	7.46e-01	0	44	104	2975858688	78	9437
2026-01-24 07:35:27.53	339.67	5.85	-53.0	-61.8	3.8	7.46e-01	0	44	104	2975858688	77	10018
2026-01-24 07:35:28.54	339.66	5.76	-53.0	-61.9	3.8	7.46e-01	0	44	104	2975858688	77	10079
2026-01-24 07:35:29.55	339.65	5.68	-53.0	-61.8	3.8	7.46e-01	0	44	104	2975858688	77	9998
2026-01-24 07:35:30.55	339.64	5.60	-52.9	-61.7	3.8	7.45e-01	0	44	104	2975858688	77	9890
2026-01-24 07:35:31.56	339.63	5.51	-53.0	-61.8	3.8	7.44e-01	0	44	104	2975858688	77	9990
2026-01-24 07:35:32.57	339.61	5.43	-53.0	-61.8	3.8	7.46e-01	0	44	104	2975858688	77	9988
2026-01-24 07:35:33.58	339.60	5.35	-52.9	-61.7	3.8	7.44e-01	0	44	104	2975858688	77	9918
2026-01-24 07:35:34.59	339.59	5.26	-52.8	-61.6	3.8	7.45e-01	0	44	104	2975858688	77	9828
2026-01-24 07:35:35.59	339.58	5.18	-53.0	-61.8	3.8	7.45e-01	0	44	104	2975858688	77	9961
2026-01-24 07:35:36.60	339.57	5.10	-52.9	-61.8	3.8	7.46e-01	0	44	104	2975858688	77	9948
2026-01-24 07:35:37.61	339.56	5.02	-53.0	-61.8	3.8	7.44e-01	0	44	104	2975858688	77	9978
2026-01-24 07:35:38.61	339.55	4.94	-53.4	-62.2	3.8	7.46e-01	0	44	104	2975858688	77	10503
2026-01-24 07:35:39.62	339.54	4.86	-53.7	-62.5	3.8	7.45e-01	0	44	104	2975858688	77	10852
2026-01-24 07:35:40.63	339.53	4.78	-53.9	-62.7	3.8	7.45e-01	0	44	104	2975858688	78	10515
2026-01-24 07:35:41.64	339.52	4.70	-54.1	-62.9	3.8	7.46e-01	0	44	104	2975858688	78	10762
2026-01-24 07:35:42.65	339.51	4.62	-54.3	-63.1	3.8	7.45e-01	0	44	104	2975858688	79	10382
2026-01-24 07:35:43.65	339.49	4.54	-54.4	-63.2	3.8	7.45e-01	0	44	104	2975858688	79	10464
2026-01-24 07:35:44.66	339.48	4.46	-54.5	-63.3	3.8	7.47e-01	0	44	104	2975858688	79	10559
2026-01-24 07:35:45.67	339.47	4.38	-54.6	-63.4	3.8	7.45e-01	0	44	104	2975858688	79	10739
2026-01-24 07:35:46.68	339.46	4.30	-54.7	-63.5	3.8	7.45e-01	0	44	104	2975858688	79	10793
2026-01-24 07:35:47.69	339.45	4.22	-54.7	-63.5	3.8	7.46e-01	0	44	104	2975858688	80	10245
2026-01-24 07:35:48.69	339.44	4.15	-54.7	-63.5	3.8	7.45e-01	0	44	104	2975858688	80	10282
2026-01-24 07:35:49.70	339.43	4.07	-54.8	-63.6	3.8	7.45e-01	0	44	104	2975858688	80	10300
2026-01-24 07:35:50.71	339.42	3.99	-54.8	-63.6	3.8	7.46e-01	0	44	104	2975858688	80	10395
2026-01-24 07:35:51.72	339.42	3.91	-54.8	-63.7	3.8	7.45e-01	0	44	104	2975858688	80	10432
2026-01-24 07:35:52.73	339.41	3.84	-54.9	-63.7	3.8	7.45e-01	0	44	104	2975858688	80	10499
2026-01-24 07:35:53.73	339.40	3.76	-54.9	-63.7	3.8	7.44e-01	0	44	104	2975858688	80	10511
2026-01-24 07:35:54.74	339.39	3.68	-54.9	-63.8	3.8	7.45e-01	0	44	104	2975858688	80	10556
2026-01-24 07:35:55.75	339.38	3.61	-54.9	-63.8	3.8	7.45e-01	0	44	104	2975858688	80	10543
2026-01-24 07:35:56.76	339.37	3.53	-54.9	-63.7	3.8	7.44e-01	0	44	104	2975858688	80	10523
2026-01-24 07:35:57.77	339.36	3.46	-54.9	-63.7	3.8	7.45e-01	0	44	104	2975858688	80	10467
2026-01-24 07:35:58.77	339.35	3.38	-54.9	-63.7	3.8	7.45e-01	0	44	104	2975858688	80	10457
2026-01-24 07:35:59.78	339.34	3.31	-54.9	-63.7	3.8	7.45e-01	0	44	104	2975858688	80	10511
2026-01-24 07:36:00.79	339.33	3.23	-54.8	-63.6	3.8	7.45e-01	0	44	104	2975858688	80	10403
2026-01-24 07:36:01.80	339.32	3.16	-54.8	-63.6	3.8	7.45e-01	0	44	104	2975858688	80	10346
2026-01-24 07:36:02.81	339.32	3.08	-54.8	-63.6	3.8	7.43e-01	0	44	104	2975858688	80	10349
2026-01-24 07:36:03.81	339.31	3.01	-54.8	-63.6	3.8	7.45e-01	0	44	104	2975858688	80	10378
2026-01-24 07:36:04.82	339.30	2.94	-54.7	-63.6	3.8	7.45e-01	0	44	104	2975858688	80	10314
2026-01-24 07:36:05.83	339.29	2.86	-54.7	-63.5	3.8	7.45e-01	0	44	104	2975858688	80	10291
2026-01-24 07:36:06.84	339.28	2.79	-54.7	-63.5	3.8	7.47e-01	0	44	104	2975858688	80	10288
2026-01-24 07:36:07.85	339.27	2.72	-54.7	-63.5	3.8	7.44e-01	0	44	104	2975858688	80	10225
2026-01-24 07:36:08.85	339.27	2.65	-54.7	-63.5	3.8	7.44e-01	0	44	104	2975858688	80	10203
2026-01-24 07:36:09.86	339.26	2.57	-54.6	-63.4	3.8	7.45e-01	0	44	104	2975858688	80	10106
2026-01-24 07:36:10.87	339.25	2.50	-54.6	-63.4	3.8	7.46e-01	0	44	104	2975858688	80	10170
2026-01-24 07:36:11.88	339.24	2.43	-54.6	-63.4	3.8	7.45e-01	0	44	104	2975858688	80	10122
2026-01-24 07:36:12.89	339.23	2.36	-54.6	-63.4	3.8	7.44e-01	0	44	104	2975858688	80	10086
2026-01-24 07:36:13.90	339.23	2.29	-54.6	-63.4	3.8	7.44e-01	0	44	104	2975858688	80	10088
2026-01-24 07:36:14.91	339.22	2.21	-54.5	-63.3	3.8	7.45e-01	0	44	104	2975858688	80	10028
2026-01-24 07:36:15.92	339.21	2.14	-54.5	-63.4	3.8	7.46e-01	0	44	104	2975858688	80	10077
2026-01-24 07:36:16.93	339.20	2.07	-54.5	-63.3	3.8	7.45e-01	0	44	104	2975858688	80	10053
2026-01-24 07:36:17.93	339.20	2.00	-54.5	-63.3	3.8	7.44e-01	0	44	104	2975858688	80	10052
2026-01-24 07:36:18.94	339.19	1.93	-54.5	-63.4	3.8	7.45e-01	0	44	104	2975858688	80	10062
2026-01-24 07:36:19.95	339.18	1.86	-54.5	-63.4	3.8	7.46e-01	0	44	104	2975858688	80	10088

#Closed at: 2026-01-24 07:36:20
#Recorded file [2975 MB]: D:/lorett/data/31041_260124_102548.dat