passes_logs/2026/01/24/R3.2S_Murmansk/R3.2S_Murmansk__20260124_031010_AQUA_rec.log

#Pass ID: 20260124_031010_AQUA
#Satellite: AQUA
#Configuration: AQUA
#almurnet v.1.7.20251203
#Start time: 2026-01-24 03:10:11

#Version: 2.2.20231116
#Station: R3.2S_Murmansk
#Location: 33.079688 lon 68.888172 lat
#TLE: 1 27424U 02022A   26023.58972979  .00001888  00000+0  38753-3 0  9997
#TLE: 2 27424  98.4100 350.1620 0001948  68.5331  43.0280 14.61852003262140

#Time	Az	El	Level	Level2	SNR	BER	BlckErr	Temp	State	Recorded	gain1	gain2
2026-01-24 03:10:11.34	26.22	2.04	-54.8	-72.6	3.8	7.43e-01	0	41	0	0	80	29062
2026-01-24 03:10:12.34	26.20	2.10	-54.7	-72.6	3.8	7.46e-01	0	41	104	0	80	29181
2026-01-24 03:10:13.35	26.18	2.17	-54.8	-72.6	3.8	7.46e-01	0	41	104	0	80	29095
2026-01-24 03:10:14.36	26.16	2.24	-54.8	-72.6	3.8	7.48e-01	0	41	104	0	80	29109
2026-01-24 03:10:15.37	26.14	2.30	-54.7	-72.6	3.8	7.47e-01	0	41	104	0	80	29013
2026-01-24 03:10:16.38	26.11	2.37	-54.7	-72.6	3.8	7.48e-01	0	41	104	0	80	29053
2026-01-24 03:10:17.39	26.09	2.44	-54.7	-72.5	3.8	7.44e-01	0	41	104	0	80	29009
2026-01-24 03:10:18.39	26.07	2.50	-54.7	-72.5	3.8	7.44e-01	0	41	104	0	80	28983
2026-01-24 03:10:19.40	26.04	2.57	-54.7	-72.6	3.8	7.44e-01	0	41	104	0	80	29021
2026-01-24 03:10:20.41	26.02	2.64	-54.7	-72.5	3.8	7.50e-01	0	41	104	0	80	28980
2026-01-24 03:10:21.42	26.00	2.71	-54.7	-72.6	3.8	7.47e-01	0	41	104	0	80	29014
2026-01-24 03:10:22.43	25.97	2.77	-54.7	-72.6	3.8	7.46e-01	0	41	104	0	80	29060
2026-01-24 03:10:23.44	25.95	2.84	-54.7	-72.5	3.8	7.46e-01	0	41	104	0	80	29009
2026-01-24 03:10:24.44	25.93	2.91	-54.7	-72.6	3.8	7.44e-01	0	41	104	0	80	29028
2026-01-24 03:10:25.45	25.90	2.98	-54.7	-72.6	3.8	7.43e-01	0	41	104	0	80	29042
2026-01-24 03:10:26.46	25.88	3.05	-54.7	-72.6	3.8	7.46e-01	0	41	104	0	80	29014
2026-01-24 03:10:27.47	25.86	3.12	-54.8	-72.6	3.8	7.46e-01	0	41	104	0	80	29022
2026-01-24 03:10:28.47	25.83	3.18	-54.8	-72.5	3.8	7.47e-01	0	41	104	0	80	29000
2026-01-24 03:10:29.48	25.81	3.25	-54.8	-72.5	3.8	7.43e-01	0	41	104	0	80	29004
2026-01-24 03:10:30.49	25.78	3.32	-54.7	-72.6	3.8	7.44e-01	0	41	104	0	80	29030
2026-01-24 03:10:31.50	25.76	3.39	-54.8	-72.6	3.8	7.48e-01	0	41	104	0	80	29103
2026-01-24 03:10:32.51	25.73	3.46	-54.7	-72.5	3.8	7.43e-01	0	42	104	0	80	28985
2026-01-24 03:10:33.51	25.71	3.53	-54.7	-72.5	3.8	7.43e-01	0	42	104	0	80	28992
2026-01-24 03:10:34.52	25.68	3.60	-54.7	-72.5	3.8	7.45e-01	0	42	104	0	80	29002
2026-01-24 03:10:35.53	25.66	3.67	-54.7	-72.6	3.8	7.44e-01	0	41	104	0	80	29024
2026-01-24 03:10:36.54	25.63	3.74	-54.7	-72.6	3.8	7.47e-01	0	42	104	0	80	29044
2026-01-24 03:10:37.54	25.61	3.81	-54.7	-72.6	3.8	7.48e-01	0	42	104	0	80	29043
2026-01-24 03:10:38.55	25.58	3.88	-54.7	-72.6	3.8	7.45e-01	0	42	104	0	80	29059
2026-01-24 03:10:39.56	25.55	3.96	-54.8	-72.6	3.8	7.48e-01	0	42	104	0	80	29045
2026-01-24 03:10:40.57	25.53	4.03	-54.7	-72.6	3.8	7.46e-01	0	42	104	0	80	29031
2026-01-24 03:10:41.58	25.50	4.10	-54.8	-72.6	3.8	7.45e-01	0	42	104	0	80	29044
2026-01-24 03:10:42.59	25.48	4.17	-54.8	-72.6	3.8	7.48e-01	0	42	104	0	80	29027
2026-01-24 03:10:43.59	25.45	4.24	-54.8	-72.6	3.8	7.42e-01	0	42	104	0	80	29094
2026-01-24 03:10:44.60	25.42	4.31	-54.7	-72.6	3.8	7.46e-01	0	42	104	0	80	29044
2026-01-24 03:10:45.61	25.39	4.39	-54.7	-72.5	3.8	7.43e-01	0	42	104	0	80	28985
2026-01-24 03:10:46.62	25.37	4.46	-54.7	-72.6	3.8	7.47e-01	0	42	104	0	80	29046
2026-01-24 03:10:47.63	25.34	4.53	-54.7	-72.5	3.8	7.45e-01	0	42	104	0	80	29006
2026-01-24 03:10:48.64	25.31	4.60	-54.8	-72.6	3.8	7.45e-01	0	42	104	0	80	29052
2026-01-24 03:10:49.65	25.29	4.68	-54.7	-72.5	3.8	7.47e-01	0	42	104	0	80	29000
2026-01-24 03:10:50.65	25.26	4.75	-54.8	-72.5	3.8	7.43e-01	0	42	104	0	80	29004
2026-01-24 03:10:51.66	25.23	4.82	-54.8	-72.5	3.8	7.45e-01	0	42	104	0	80	28979
2026-01-24 03:10:52.67	25.20	4.90	-54.7	-72.6	3.8	7.44e-01	0	42	104	0	80	29092
2026-01-24 03:10:53.68	25.17	4.97	-54.7	-72.5	3.8	7.46e-01	0	42	104	0	80	29010
2026-01-24 03:10:54.69	25.14	5.05	-54.8	-72.6	3.8	7.45e-01	0	42	104	0	80	29022
2026-01-24 03:10:55.70	25.12	5.12	-54.7	-72.6	3.8	7.44e-01	0	42	104	0	80	29051
2026-01-24 03:10:56.71	25.09	5.20	-54.7	-72.5	3.8	7.45e-01	0	42	104	0	80	29002
2026-01-24 03:10:57.72	25.06	5.27	-54.8	-72.6	3.8	7.47e-01	0	42	104	0	80	29104
2026-01-24 03:10:58.72	25.03	5.35	-54.7	-72.6	3.8	7.48e-01	0	42	104	0	80	29021
2026-01-24 03:10:59.73	25.00	5.42	-54.7	-72.6	3.8	7.44e-01	0	42	104	0	80	29016
2026-01-24 03:11:00.74	24.97	5.50	-54.8	-72.5	3.8	7.46e-01	0	42	104	0	80	28998
2026-01-24 03:11:01.75	24.94	5.57	-54.8	-72.6	3.8	7.44e-01	0	42	104	0	80	29055
2026-01-24 03:11:02.76	24.91	5.65	-54.7	-72.5	3.8	7.45e-01	0	42	104	0	80	29011
2026-01-24 03:11:03.77	24.88	5.73	-54.7	-72.6	3.8	7.45e-01	0	42	104	0	80	29019
2026-01-24 03:11:04.77	24.85	5.80	-54.8	-72.6	3.8	7.45e-01	0	42	104	0	80	29047
2026-01-24 03:11:05.78	24.82	5.88	-54.8	-72.6	3.8	7.43e-01	0	42	104	0	80	29037
2026-01-24 03:11:06.79	24.79	5.96	-54.8	-72.6	3.8	7.44e-01	0	42	104	0	80	29031
2026-01-24 03:11:07.80	24.76	6.03	-54.8	-72.6	3.8	7.43e-01	0	42	104	0	80	29060
2026-01-24 03:11:08.81	24.72	6.11	-54.8	-72.6	3.8	7.46e-01	0	42	104	0	80	29108
2026-01-24 03:11:09.82	24.69	6.19	-54.8	-72.5	3.8	7.45e-01	0	42	104	0	80	28990
2026-01-24 03:11:10.82	24.66	6.27	-54.8	-72.6	3.8	7.49e-01	0	42	104	0	80	29130
2026-01-24 03:11:11.83	24.63	6.35	-54.8	-72.6	3.8	7.46e-01	0	42	104	0	80	29020
2026-01-24 03:11:12.84	24.60	6.42	-54.8	-72.6	3.8	7.49e-01	0	42	104	0	80	29070
2026-01-24 03:11:13.84	24.57	6.50	-54.8	-72.6	3.8	7.43e-01	0	42	104	0	80	29084
2026-01-24 03:11:14.85	24.53	6.58	-54.7	-72.6	3.8	7.45e-01	0	43	104	0	80	29087
2026-01-24 03:11:15.86	24.50	6.66	-54.8	-72.6	3.8	7.47e-01	0	42	104	0	80	29027
2026-01-24 03:11:16.87	24.47	6.74	-54.8	-72.6	3.8	7.48e-01	0	42	104	0	80	29087
2026-01-24 03:11:17.88	24.43	6.82	-54.8	-72.6	3.8	7.46e-01	0	42	104	0	80	29093
2026-01-24 03:11:18.89	24.40	6.90	-54.8	-72.6	3.8	7.47e-01	0	42	104	0	80	29137
2026-01-24 03:11:19.90	24.37	6.98	-54.8	-72.6	3.8	7.46e-01	0	42	104	0	80	29095
2026-01-24 03:11:20.91	24.33	7.06	-54.8	-72.6	3.8	7.50e-01	0	42	104	0	80	29096
2026-01-24 03:11:21.92	24.30	7.14	-54.8	-72.6	3.8	7.42e-01	0	42	104	0	80	29064
2026-01-24 03:11:22.92	24.27	7.22	-54.8	-72.6	3.8	7.46e-01	0	42	104	0	80	29118
2026-01-24 03:11:23.93	24.23	7.31	-54.8	-72.6	3.8	7.43e-01	0	42	104	0	80	29079
2026-01-24 03:11:24.94	24.20	7.39	-54.8	-72.6	3.8	7.45e-01	0	43	104	0	80	29099
2026-01-24 03:11:25.94	24.16	7.47	-54.8	-72.6	3.8	7.46e-01	0	42	104	0	80	29075
2026-01-24 03:11:26.95	24.13	7.55	-54.8	-72.6	3.8	7.45e-01	0	42	104	0	80	29037
2026-01-24 03:11:27.96	24.09	7.63	-54.8	-72.6	3.8	7.45e-01	0	42	104	0	80	29095
2026-01-24 03:11:28.97	24.05	7.72	-54.8	-72.6	3.8	7.48e-01	0	42	104	0	80	29041
2026-01-24 03:11:29.98	24.02	7.80	-54.8	-72.6	3.8	7.44e-01	0	42	104	0	80	29109
2026-01-24 03:11:30.99	23.98	7.88	-54.8	-72.6	3.8	7.46e-01	0	43	104	0	80	29064
2026-01-24 03:11:31.99	23.95	7.97	-54.8	-72.6	3.8	7.46e-01	0	42	104	0	80	29072
2026-01-24 03:11:33.00	23.91	8.05	-54.8	-72.6	3.8	7.45e-01	0	42	104	0	80	29049
2026-01-24 03:11:34.01	23.87	8.14	-54.8	-72.6	3.8	7.47e-01	0	42	104	0	80	29104
2026-01-24 03:11:35.02	23.83	8.22	-54.8	-72.6	3.8	7.42e-01	0	43	104	0	80	29080
2026-01-24 03:11:36.03	23.80	8.31	-54.8	-72.6	3.8	7.47e-01	0	42	104	0	80	29026
2026-01-24 03:11:37.04	23.76	8.39	-54.8	-72.6	3.8	7.42e-01	0	42	104	0	80	29103
2026-01-24 03:11:38.05	23.72	8.48	-54.8	-72.6	3.8	7.49e-01	0	42	104	0	80	29036
2026-01-24 03:11:39.06	23.68	8.56	-54.7	-72.6	3.8	7.46e-01	0	43	104	0	80	29108
2026-01-24 03:11:40.06	23.64	8.65	-54.8	-72.6	3.8	7.48e-01	0	42	104	0	80	29052
2026-01-24 03:11:41.07	23.61	8.74	-54.8	-72.6	3.8	7.44e-01	0	42	104	0	80	29051
2026-01-24 03:11:42.08	23.57	8.82	-54.8	-72.6	3.8	7.45e-01	0	43	104	0	80	29088
2026-01-24 03:11:43.09	23.53	8.91	-54.8	-72.6	3.8	7.46e-01	0	43	104	0	80	29128
2026-01-24 03:11:44.09	23.49	9.00	-54.8	-72.6	3.8	7.41e-01	0	42	104	0	80	29114
2026-01-24 03:11:45.10	23.45	9.08	-54.8	-72.6	3.8	7.44e-01	0	42	104	0	80	29080
2026-01-24 03:11:46.11	23.41	9.17	-54.8	-72.6	3.8	7.45e-01	0	42	104	0	80	29142
2026-01-24 03:11:47.12	23.37	9.26	-54.8	-72.6	3.8	7.45e-01	0	43	104	0	80	29155
2026-01-24 03:11:48.13	23.33	9.35	-54.8	-72.6	3.8	7.45e-01	0	43	104	0	80	29070
2026-01-24 03:11:49.13	23.28	9.44	-54.8	-72.6	3.8	7.44e-01	0	43	104	0	80	29026
2026-01-24 03:11:50.14	23.24	9.53	-54.8	-72.6	3.8	7.46e-01	0	42	104	0	80	29085
2026-01-24 03:11:51.15	23.20	9.62	-54.8	-72.6	3.8	7.46e-01	0	42	104	0	80	29040
2026-01-24 03:11:52.16	23.16	9.71	-54.8	-72.6	3.8	7.47e-01	0	43	104	0	80	29088
2026-01-24 03:11:53.17	23.12	9.80	-54.8	-72.6	3.8	7.43e-01	0	43	104	0	80	29119
2026-01-24 03:11:54.17	23.07	9.89	-54.8	-72.6	3.8	7.42e-01	0	42	104	0	80	29121
2026-01-24 03:11:55.18	23.03	9.98	-54.8	-72.6	3.8	7.47e-01	0	42	104	0	80	29232
2026-01-24 03:11:56.19	22.99	10.07	-54.8	-72.6	3.8	7.44e-01	0	43	104	0	80	29154
2026-01-24 03:11:57.20	22.94	10.17	-54.8	-72.6	3.8	7.47e-01	0	43	104	0	80	29157
2026-01-24 03:11:58.21	22.90	10.26	-54.8	-72.6	3.8	7.44e-01	0	43	104	0	80	29148
2026-01-24 03:11:59.22	22.86	10.35	-54.8	-72.6	3.8	7.46e-01	0	43	104	0	80	29051
2026-01-24 03:12:00.23	22.81	10.44	-54.8	-72.6	3.8	7.44e-01	0	42	104	0	80	29172
2026-01-24 03:12:01.24	22.77	10.54	-54.8	-72.6	3.8	7.44e-01	0	42	104	0	80	29077
2026-01-24 03:12:02.25	22.72	10.63	-54.8	-72.6	3.8	7.47e-01	0	42	104	0	80	29058
2026-01-24 03:12:03.26	22.67	10.73	-54.8	-72.6	3.8	7.44e-01	0	42	104	0	80	29168
2026-01-24 03:12:04.26	22.63	10.82	-54.8	-72.6	3.8	7.47e-01	0	43	104	0	80	29130
2026-01-24 03:12:05.27	22.58	10.92	-54.8	-72.6	3.8	7.42e-01	0	43	104	0	80	29083
2026-01-24 03:12:06.28	22.54	11.01	-54.8	-72.6	3.8	7.43e-01	0	43	104	0	80	29103
2026-01-24 03:12:07.29	22.49	11.11	-54.8	-72.6	3.8	7.42e-01	0	43	104	0	80	29132
2026-01-24 03:12:08.30	22.44	11.20	-54.8	-72.6	3.8	7.45e-01	0	43	104	0	80	29135
2026-01-24 03:12:09.31	22.39	11.30	-54.8	-72.6	3.8	7.45e-01	0	43	104	0	80	29085
2026-01-24 03:12:10.32	22.34	11.40	-54.8	-72.6	3.8	7.45e-01	0	43	104	0	80	29051
2026-01-24 03:12:11.32	22.30	11.49	-54.8	-72.6	3.8	7.46e-01	0	43	104	0	80	29067
2026-01-24 03:12:12.33	22.25	11.59	-54.8	-72.6	3.8	7.45e-01	0	43	104	0	80	29020
2026-01-24 03:12:13.33	22.20	11.69	-54.8	-72.6	3.8	7.45e-01	0	43	104	0	80	29145
2026-01-24 03:12:14.34	22.15	11.79	-54.8	-72.6	3.8	7.44e-01	0	43	104	0	80	29077
2026-01-24 03:12:15.35	22.10	11.89	-54.8	-72.6	3.8	7.47e-01	0	43	104	0	80	29051
2026-01-24 03:12:16.36	22.05	11.99	-54.8	-72.6	3.8	7.46e-01	0	43	104	0	80	29104
2026-01-24 03:12:17.37	22.00	12.09	-54.8	-72.6	3.8	7.48e-01	0	43	104	0	80	29105
2026-01-24 03:12:18.37	21.95	12.19	-54.8	-72.6	3.8	7.41e-01	0	43	104	0	80	29181
2026-01-24 03:12:19.38	21.89	12.29	-54.8	-72.6	3.8	7.44e-01	0	43	104	0	80	29141
2026-01-24 03:12:20.39	21.84	12.39	-54.8	-72.6	3.8	7.43e-01	0	43	104	0	80	29136
2026-01-24 03:12:21.40	21.79	12.49	-54.8	-72.6	3.8	7.45e-01	0	42	104	0	80	29080
2026-01-24 03:12:22.41	21.74	12.59	-54.8	-72.6	3.8	7.47e-01	0	43	104	0	80	29131
2026-01-24 03:12:23.42	21.68	12.70	-54.8	-72.6	3.8	7.48e-01	0	42	104	0	80	29038
2026-01-24 03:12:24.42	21.63	12.80	-54.8	-72.6	3.8	7.45e-01	0	42	104	0	80	29115
2026-01-24 03:12:25.43	21.58	12.90	-54.8	-72.6	3.8	7.47e-01	0	43	104	0	80	29162
2026-01-24 03:12:26.44	21.52	13.01	-54.8	-72.6	3.8	7.45e-01	0	43	104	0	80	29105
2026-01-24 03:12:27.45	21.47	13.11	-54.8	-72.6	3.8	7.46e-01	0	43	104	0	80	29067
2026-01-24 03:12:28.46	21.41	13.22	-54.8	-72.6	3.8	7.46e-01	0	43	104	0	80	29052
2026-01-24 03:12:29.46	21.35	13.32	-54.8	-72.6	3.8	7.45e-01	0	42	104	0	80	29064
2026-01-24 03:12:30.47	21.30	13.43	-54.8	-72.6	3.8	7.45e-01	0	43	104	0	80	29069
2026-01-24 03:12:31.48	21.24	13.53	-54.8	-72.6	3.8	7.45e-01	0	43	104	0	80	29057
2026-01-24 03:12:32.49	21.18	13.64	-54.8	-72.6	3.8	7.45e-01	0	43	104	0	80	29093
2026-01-24 03:12:33.49	21.13	13.75	-54.8	-72.6	3.8	7.46e-01	0	43	104	0	80	29126
2026-01-24 03:12:34.50	21.07	13.86	-54.8	-72.6	3.8	7.44e-01	0	43	104	0	80	29116
2026-01-24 03:12:35.51	21.01	13.96	-54.8	-72.6	3.8	7.43e-01	0	43	104	0	80	29219
2026-01-24 03:12:36.52	20.95	14.07	-54.9	-72.7	3.8	7.48e-01	0	43	104	0	80	29393
2026-01-24 03:12:37.53	20.89	14.18	-54.9	-72.7	3.8	7.43e-01	0	43	104	0	80	29439
2026-01-24 03:12:38.53	20.83	14.29	-54.9	-72.7	3.8	7.46e-01	0	43	104	0	80	29408
2026-01-24 03:12:39.54	20.77	14.40	-54.8	-72.7	3.8	7.42e-01	0	43	104	0	80	29394
2026-01-24 03:12:40.55	20.71	14.51	-54.8	-72.6	3.8	7.44e-01	0	43	104	0	80	29295
2026-01-24 03:12:41.56	20.64	14.62	-54.8	-72.6	3.8	7.42e-01	0	43	104	0	80	29311
2026-01-24 03:12:42.57	20.58	14.74	-54.8	-72.6	3.8	7.44e-01	0	43	104	0	80	29307
2026-01-24 03:12:43.58	20.52	14.85	-54.8	-72.6	3.8	7.45e-01	0	43	104	0	80	29307
2026-01-24 03:12:44.59	20.45	14.96	-54.8	-72.6	3.8	7.48e-01	0	43	104	0	80	29232
2026-01-24 03:12:45.60	20.39	15.08	-54.8	-72.6	3.8	7.47e-01	0	43	104	0	80	29236
2026-01-24 03:12:46.61	20.33	15.19	-54.8	-72.6	3.8	7.43e-01	0	43	104	0	80	29296
2026-01-24 03:12:47.61	20.26	15.30	-54.8	-72.6	3.8	7.44e-01	0	43	104	0	80	29243
2026-01-24 03:12:48.62	20.19	15.42	-54.8	-72.6	3.8	7.45e-01	0	43	104	0	80	29265
2026-01-24 03:12:49.63	20.13	15.54	-54.8	-72.6	3.8	7.43e-01	0	43	104	0	80	29323
2026-01-24 03:12:50.64	20.06	15.65	-54.8	-72.6	3.8	7.42e-01	0	43	104	0	80	29248
2026-01-24 03:12:51.65	19.99	15.77	-54.8	-72.6	3.8	7.46e-01	0	43	104	0	80	29188
2026-01-24 03:12:52.66	19.93	15.89	-54.8	-72.6	3.8	7.44e-01	0	43	104	0	80	29170
2026-01-24 03:12:53.67	19.86	16.01	-54.8	-72.6	3.8	7.43e-01	0	43	104	0	80	29162
2026-01-24 03:12:54.68	19.79	16.13	-54.8	-72.6	3.8	7.41e-01	0	43	104	0	80	29175
2026-01-24 03:12:55.69	19.72	16.25	-54.8	-72.6	3.8	7.46e-01	0	43	104	0	80	29189
2026-01-24 03:12:56.70	19.65	16.37	-54.8	-72.6	3.8	7.45e-01	0	43	104	0	80	29285
2026-01-24 03:12:57.70	19.58	16.48	-54.8	-72.6	3.8	7.43e-01	0	43	104	0	80	29219
2026-01-24 03:12:58.71	19.50	16.61	-54.8	-72.6	3.8	7.45e-01	0	43	104	0	80	29292
2026-01-24 03:12:59.72	19.43	16.73	-54.8	-72.6	3.8	7.47e-01	0	43	104	0	80	29228
2026-01-24 03:13:00.73	19.36	16.85	-54.8	-72.6	3.8	7.43e-01	0	43	104	0	80	29261
2026-01-24 03:13:01.74	19.28	16.97	-54.8	-72.6	3.8	7.45e-01	0	43	104	0	80	29220
2026-01-24 03:13:02.75	19.21	17.10	-54.8	-72.6	3.8	7.46e-01	0	43	104	0	80	29278
2026-01-24 03:13:03.75	19.13	17.22	-54.8	-72.6	3.8	7.44e-01	0	43	104	0	80	29235
2026-01-24 03:13:04.76	19.06	17.35	-54.8	-72.6	3.8	7.45e-01	0	43	104	0	80	29218
2026-01-24 03:13:05.77	18.98	17.47	-54.8	-72.6	3.8	7.43e-01	0	43	104	0	80	29179
2026-01-24 03:13:06.78	18.90	17.60	-54.8	-72.6	3.8	7.45e-01	0	43	104	0	80	29137
2026-01-24 03:13:07.79	18.83	17.73	-54.8	-72.6	3.8	7.44e-01	0	43	104	0	80	29121
2026-01-24 03:13:08.80	18.75	17.85	-54.8	-72.6	3.8	7.46e-01	0	43	104	0	80	29218
2026-01-24 03:13:09.81	18.67	17.98	-54.8	-72.6	3.8	7.46e-01	0	43	104	0	80	29168
2026-01-24 03:13:10.82	18.59	18.11	-54.8	-72.6	3.8	7.48e-01	0	43	104	0	80	29177
2026-01-24 03:13:11.83	18.51	18.24	-54.8	-72.6	3.8	7.46e-01	0	43	104	0	80	29235
2026-01-24 03:13:12.84	18.42	18.37	-54.8	-72.6	3.8	7.47e-01	0	43	104	0	80	29243
2026-01-24 03:13:13.84	18.34	18.50	-54.8	-72.6	3.8	7.46e-01	0	43	104	0	80	29269
2026-01-24 03:13:14.85	18.26	18.63	-54.8	-72.6	3.8	7.45e-01	0	43	104	0	80	29232
2026-01-24 03:13:15.86	18.17	18.77	-54.8	-72.6	3.8	7.44e-01	0	43	104	0	80	29135
2026-01-24 03:13:16.87	18.09	18.90	-54.8	-72.6	3.8	7.46e-01	0	43	104	0	80	29153
2026-01-24 03:13:17.88	18.00	19.04	-54.8	-72.6	3.8	7.44e-01	0	43	104	0	80	29161
2026-01-24 03:13:18.89	17.92	19.17	-54.8	-72.6	3.8	7.47e-01	0	43	104	0	80	29193
2026-01-24 03:13:19.89	17.83	19.30	-54.8	-72.6	3.8	7.45e-01	0	43	104	0	80	29175
2026-01-24 03:13:20.90	17.74	19.44	-54.8	-72.6	3.8	7.44e-01	0	43	104	0	80	29195
2026-01-24 03:13:21.91	17.65	19.58	-54.8	-72.6	3.8	7.46e-01	0	43	104	0	80	29172
2026-01-24 03:13:22.92	17.56	19.72	-54.8	-72.6	3.8	7.45e-01	0	43	104	0	80	29178
2026-01-24 03:13:23.93	17.47	19.85	-54.8	-72.6	3.8	7.46e-01	0	43	104	0	80	29168
2026-01-24 03:13:24.94	17.38	19.99	-54.8	-72.6	3.8	7.43e-01	0	43	104	0	80	29171
2026-01-24 03:13:25.94	17.28	20.13	-54.8	-72.6	3.8	7.45e-01	0	43	104	0	80	29215
2026-01-24 03:13:26.95	17.19	20.27	-54.8	-72.6	3.8	7.46e-01	0	43	104	0	80	29204
2026-01-24 03:13:27.96	17.10	20.42	-54.8	-72.6	3.8	7.46e-01	0	43	104	0	80	29191
2026-01-24 03:13:28.97	17.00	20.56	-54.8	-72.6	3.8	7.45e-01	0	43	104	0	80	29205
2026-01-24 03:13:29.97	16.90	20.70	-54.8	-72.6	3.8	7.46e-01	0	43	104	0	80	29203
2026-01-24 03:13:30.98	16.81	20.84	-54.8	-72.6	3.8	7.44e-01	0	43	104	0	80	29209
2026-01-24 03:13:31.99	16.71	20.99	-54.8	-72.6	3.8	7.45e-01	0	43	104	0	80	29231
2026-01-24 03:13:33.00	16.61	21.14	-54.8	-72.6	3.8	7.45e-01	0	43	104	0	80	29207
2026-01-24 03:13:34.01	16.51	21.28	-54.8	-72.6	3.8	7.43e-01	0	43	104	0	80	29246
2026-01-24 03:13:35.02	16.40	21.43	-54.8	-72.6	3.8	7.44e-01	0	43	104	0	80	29251
2026-01-24 03:13:36.03	16.30	21.58	-54.8	-72.6	3.8	7.46e-01	0	43	104	0	80	29246
2026-01-24 03:13:37.04	16.20	21.73	-54.8	-72.6	3.8	7.46e-01	0	43	104	0	80	29245
2026-01-24 03:13:38.04	16.09	21.88	-54.8	-72.6	3.8	7.44e-01	0	43	104	0	80	29247
2026-01-24 03:13:39.05	15.99	22.03	-54.8	-72.6	3.8	7.44e-01	0	43	104	0	80	29244
2026-01-24 03:13:40.06	15.88	22.18	-54.8	-72.6	3.8	7.44e-01	0	43	104	0	80	29228
2026-01-24 03:13:41.07	15.77	22.33	-54.8	-72.6	3.8	7.45e-01	0	43	104	0	80	29207
2026-01-24 03:13:42.07	15.66	22.48	-54.8	-72.6	3.8	7.46e-01	0	43	104	0	80	29228
2026-01-24 03:13:43.08	15.55	22.64	-54.8	-72.6	3.8	7.45e-01	0	43	104	0	80	29259
2026-01-24 03:13:44.09	15.44	22.79	-54.8	-72.6	3.8	7.42e-01	0	43	104	0	80	29308
2026-01-24 03:13:45.10	15.32	22.95	-54.8	-72.7	3.8	7.46e-01	0	43	104	0	80	29349
2026-01-24 03:13:46.11	15.21	23.11	-54.8	-72.6	3.8	7.42e-01	0	43	104	0	80	29314
2026-01-24 03:13:47.12	15.09	23.27	-54.8	-72.6	3.8	7.47e-01	0	43	104	0	80	29212
2026-01-24 03:13:48.12	14.98	23.42	-54.8	-72.6	3.8	7.47e-01	0	43	104	0	80	29304
2026-01-24 03:13:49.13	14.86	23.58	-54.8	-72.6	3.8	7.42e-01	0	43	104	0	80	29298
2026-01-24 03:13:50.14	14.74	23.74	-54.8	-72.6	3.8	7.45e-01	0	43	104	0	80	29256
2026-01-24 03:13:51.15	14.62	23.91	-54.8	-72.6	3.8	7.46e-01	0	43	104	0	80	29207
2026-01-24 03:13:52.16	14.50	24.07	-54.8	-72.6	3.8	7.45e-01	0	43	104	0	80	29190
2026-01-24 03:13:53.16	14.37	24.23	-54.8	-72.6	3.8	7.44e-01	0	43	104	0	80	29236
2026-01-24 03:13:54.17	14.25	24.40	-54.8	-72.6	3.8	7.47e-01	0	43	104	0	80	29238
2026-01-24 03:13:55.18	14.12	24.56	-54.8	-72.6	3.8	7.45e-01	0	43	104	0	80	29150
2026-01-24 03:13:56.19	13.99	24.73	-54.8	-72.6	3.8	7.47e-01	0	43	104	0	80	29197
2026-01-24 03:13:57.20	13.86	24.90	-54.8	-72.6	3.8	7.49e-01	0	43	104	0	80	29266
2026-01-24 03:13:58.21	13.73	25.07	-54.8	-72.6	3.8	7.41e-01	0	43	104	0	80	29232
2026-01-24 03:13:59.22	13.60	25.24	-54.8	-72.6	3.8	7.45e-01	0	43	104	0	80	29220
2026-01-24 03:14:00.23	13.47	25.41	-54.8	-72.6	3.8	7.47e-01	0	43	104	0	80	29186
2026-01-24 03:14:01.23	13.33	25.58	-54.8	-72.6	3.8	7.49e-01	0	43	104	0	80	29215
2026-01-24 03:14:02.24	13.19	25.75	-54.8	-72.6	3.8	7.45e-01	0	43	104	0	80	29212
2026-01-24 03:14:03.25	13.05	25.92	-54.8	-72.6	3.8	7.44e-01	0	43	104	0	80	29190
2026-01-24 03:14:04.26	12.91	26.10	-54.8	-72.6	3.8	7.45e-01	0	43	104	0	80	29203
2026-01-24 03:14:05.27	12.77	26.27	-54.8	-72.6	3.8	7.46e-01	0	43	104	0	80	29215
2026-01-24 03:14:06.28	12.63	26.45	-54.8	-72.6	3.8	7.44e-01	0	43	104	0	80	29174
2026-01-24 03:14:07.29	12.48	26.63	-54.8	-72.6	3.8	7.46e-01	0	43	104	0	80	29217
2026-01-24 03:14:08.29	12.34	26.81	-54.8	-72.6	3.8	7.45e-01	0	43	104	0	80	29244
2026-01-24 03:14:09.30	12.19	26.99	-54.8	-72.6	3.8	7.44e-01	0	43	104	0	80	29155
2026-01-24 03:14:10.31	12.04	27.17	-54.8	-72.6	3.8	7.46e-01	0	43	104	0	80	29219
2026-01-24 03:14:11.32	11.88	27.35	-54.8	-72.6	3.8	7.43e-01	0	43	104	0	80	29230
2026-01-24 03:14:12.33	11.73	27.53	-54.8	-72.6	3.8	7.44e-01	0	43	104	0	80	29145
2026-01-24 03:14:13.33	11.57	27.72	-54.8	-72.6	3.8	7.41e-01	0	43	104	0	80	29193
2026-01-24 03:14:14.34	11.42	27.90	-54.8	-72.6	3.8	7.45e-01	0	43	104	0	80	29068
2026-01-24 03:14:15.35	11.26	28.09	-54.8	-72.6	3.8	7.44e-01	0	43	104	0	80	29166
2026-01-24 03:14:16.36	11.09	28.28	-54.8	-72.6	3.8	7.45e-01	0	43	104	0	80	29174
2026-01-24 03:14:17.37	10.93	28.47	-54.8	-72.6	3.8	7.44e-01	0	43	104	0	80	29156
2026-01-24 03:14:18.38	10.76	28.66	-54.8	-72.6	3.8	7.44e-01	0	43	104	0	80	29136
2026-01-24 03:14:19.39	10.59	28.85	-54.8	-72.6	3.8	7.50e-01	0	43	104	0	80	29114
2026-01-24 03:14:20.40	10.42	29.04	-54.8	-72.6	3.8	7.45e-01	0	43	104	0	80	29116
2026-01-24 03:14:21.40	10.25	29.23	-54.8	-72.6	3.8	7.43e-01	0	43	104	0	80	29106
2026-01-24 03:14:22.41	10.08	29.43	-54.8	-72.6	3.8	7.45e-01	0	43	104	0	80	29120
2026-01-24 03:14:23.42	9.90	29.62	-54.8	-72.6	3.8	7.45e-01	0	43	104	0	80	29194
2026-01-24 03:14:24.43	9.72	29.82	-54.8	-72.6	3.8	7.46e-01	0	43	104	0	80	29221
2026-01-24 03:14:25.43	9.54	30.02	-54.8	-72.6	3.8	7.43e-01	0	43	104	0	80	29248
2026-01-24 03:14:26.44	9.35	30.22	-54.8	-72.6	3.8	7.45e-01	0	43	104	0	80	29141
2026-01-24 03:14:27.45	9.17	30.42	-54.8	-72.6	3.8	7.44e-01	0	43	104	0	80	29155
2026-01-24 03:14:28.46	8.98	30.62	-54.8	-72.6	3.8	7.42e-01	0	43	104	0	80	29234
2026-01-24 03:14:29.47	8.79	30.82	-54.8	-72.6	3.8	7.46e-01	0	43	104	0	80	29142
2026-01-24 03:14:30.48	8.59	31.02	-54.8	-72.6	3.8	7.46e-01	0	43	104	0	80	29221
2026-01-24 03:14:31.48	8.40	31.23	-54.8	-72.6	3.8	7.46e-01	0	43	104	0	80	29266
2026-01-24 03:14:32.49	8.20	31.43	-54.8	-72.6	3.8	7.46e-01	0	43	104	0	80	29216
2026-01-24 03:14:33.50	8.00	31.64	-54.8	-72.6	3.8	7.47e-01	0	43	104	0	80	29179
2026-01-24 03:14:34.51	7.79	31.85	-54.8	-72.6	3.8	7.46e-01	0	43	104	0	80	29171
2026-01-24 03:14:35.51	7.58	32.06	-54.8	-72.6	3.8	7.44e-01	0	43	104	0	80	29140
2026-01-24 03:14:36.52	7.37	32.27	-54.8	-72.6	3.8	7.44e-01	0	43	104	0	80	29211
2026-01-24 03:14:37.53	7.16	32.48	-54.8	-72.6	3.8	7.43e-01	0	43	104	0	80	29135
2026-01-24 03:14:38.54	6.94	32.69	-54.8	-72.6	3.8	7.46e-01	0	43	104	0	80	29185
2026-01-24 03:14:39.55	6.72	32.91	-54.8	-72.6	3.8	7.44e-01	0	43	104	0	80	29161
2026-01-24 03:14:40.55	6.50	33.12	-54.8	-72.6	3.8	7.46e-01	0	43	104	0	80	29168
2026-01-24 03:14:41.56	6.28	33.34	-54.8	-72.6	3.8	7.43e-01	0	43	104	0	80	29206
2026-01-24 03:14:42.57	6.05	33.56	-54.8	-72.6	3.8	7.47e-01	0	43	104	0	80	29179
2026-01-24 03:14:43.58	5.82	33.78	-54.8	-72.6	3.8	7.44e-01	0	43	104	0	80	29170
2026-01-24 03:14:44.59	5.58	34.00	-54.8	-72.6	3.8	7.48e-01	0	43	104	0	80	29197
2026-01-24 03:14:45.60	5.34	34.22	-54.8	-72.6	3.8	7.44e-01	0	43	104	0	80	29174
2026-01-24 03:14:46.60	5.10	34.44	-54.8	-72.6	3.8	7.44e-01	0	43	104	0	80	29196
2026-01-24 03:14:47.61	4.86	34.66	-54.8	-72.6	3.8	7.48e-01	0	43	104	0	80	29157
2026-01-24 03:14:48.62	4.61	34.89	-54.8	-72.6	3.8	7.44e-01	0	43	104	0	80	29193
2026-01-24 03:14:49.63	4.36	35.11	-54.8	-72.6	3.8	7.45e-01	0	43	104	0	80	29175
2026-01-24 03:14:50.63	4.10	35.34	-54.8	-72.6	3.8	7.45e-01	0	43	104	0	80	29087
2026-01-24 03:14:51.64	3.84	35.56	-54.8	-72.6	3.8	7.47e-01	0	43	104	0	80	29062
2026-01-24 03:14:52.65	3.58	35.79	-54.8	-72.6	3.8	7.47e-01	0	43	104	0	80	29178
2026-01-24 03:14:53.66	3.31	36.02	-54.8	-72.6	3.8	7.45e-01	0	43	104	0	80	29285
2026-01-24 03:14:54.67	3.04	36.25	-54.8	-72.6	3.8	7.43e-01	0	43	104	0	80	29172
2026-01-24 03:14:55.67	2.77	36.48	-54.8	-72.6	3.8	7.44e-01	0	43	104	0	80	29185
2026-01-24 03:14:56.68	2.49	36.72	-54.8	-72.6	3.8	7.46e-01	0	43	104	0	80	29212
2026-01-24 03:14:57.69	2.21	36.95	-54.8	-72.6	3.8	7.45e-01	0	43	104	0	80	29136
2026-01-24 03:14:58.70	1.92	37.18	-54.8	-72.6	3.8	7.46e-01	0	43	104	0	80	29203
2026-01-24 03:14:59.70	1.63	37.42	-54.8	-72.6	3.8	7.46e-01	0	43	104	0	80	29218
2026-01-24 03:15:00.71	1.33	37.66	-54.8	-72.6	3.8	7.45e-01	0	43	104	0	80	29244
2026-01-24 03:15:01.72	1.03	37.89	-54.8	-72.6	3.8	7.48e-01	0	43	104	0	80	29239
2026-01-24 03:15:02.73	0.72	38.13	-54.8	-72.6	3.8	7.50e-01	0	43	104	0	80	29147
2026-01-24 03:15:03.74	0.41	38.37	-54.8	-72.6	3.8	7.46e-01	0	43	104	0	80	29093
2026-01-24 03:15:04.75	0.10	38.61	-54.8	-72.6	3.8	7.47e-01	0	43	104	0	80	29117
2026-01-24 03:15:05.76	359.78	38.85	-54.8	-72.6	3.8	7.46e-01	0	43	104	0	80	29149
2026-01-24 03:15:06.77	359.45	39.09	-54.8	-72.6	3.8	7.45e-01	0	43	104	0	80	29230
2026-01-24 03:15:07.77	359.13	39.33	-54.8	-72.6	3.8	7.44e-01	0	43	104	0	80	29189
2026-01-24 03:15:08.78	358.79	39.58	-54.8	-72.6	3.8	7.45e-01	0	43	104	0	80	29199
2026-01-24 03:15:09.79	358.45	39.82	-54.8	-72.6	3.8	7.43e-01	0	43	104	0	80	29209
2026-01-24 03:15:10.80	358.11	40.07	-54.8	-72.6	3.8	7.46e-01	0	43	104	0	80	29215
2026-01-24 03:15:11.81	357.75	40.31	-54.8	-72.6	3.8	7.47e-01	0	43	104	0	80	29166
2026-01-24 03:15:12.82	357.40	40.56	-54.8	-72.6	3.8	7.46e-01	0	43	104	0	80	29190
2026-01-24 03:15:13.83	357.04	40.80	-54.8	-72.6	3.8	7.44e-01	0	43	104	0	80	29246
2026-01-24 03:15:14.83	356.67	41.05	-54.8	-72.6	3.8	7.46e-01	0	43	104	0	80	29170
2026-01-24 03:15:15.84	356.30	41.30	-54.8	-72.6	3.8	7.44e-01	0	43	104	0	80	29215
2026-01-24 03:15:16.85	355.92	41.54	-54.8	-72.6	3.8	7.46e-01	0	43	104	0	80	29260
2026-01-24 03:15:17.86	355.53	41.79	-54.8	-72.6	3.8	7.46e-01	0	43	104	0	80	29150
2026-01-24 03:15:18.87	355.14	42.04	-54.8	-72.6	3.8	7.42e-01	0	43	104	0	80	29235
2026-01-24 03:15:19.88	354.74	42.29	-54.8	-72.6	3.8	7.41e-01	0	43	104	0	80	29199
2026-01-24 03:15:20.88	354.34	42.53	-54.8	-72.6	3.8	7.49e-01	0	43	104	0	80	29264
2026-01-24 03:15:21.89	353.93	42.78	-54.8	-72.6	3.8	7.44e-01	0	43	104	0	80	29174
2026-01-24 03:15:22.90	353.51	43.03	-54.8	-72.6	3.8	7.44e-01	0	43	104	0	80	29240
2026-01-24 03:15:23.91	353.09	43.28	-54.8	-72.6	3.8	7.49e-01	0	43	104	0	80	29187
2026-01-24 03:15:24.92	352.66	43.53	-54.8	-72.6	3.8	7.46e-01	0	43	104	0	80	29244
2026-01-24 03:15:25.92	352.23	43.78	-54.8	-72.6	3.8	7.44e-01	0	43	104	0	80	29202
2026-01-24 03:15:26.93	351.78	44.03	-54.8	-72.6	3.8	7.44e-01	0	43	104	0	80	29095
2026-01-24 03:15:27.94	351.33	44.27	-54.8	-72.6	3.8	7.48e-01	0	43	104	0	80	29210
2026-01-24 03:15:28.95	350.87	44.52	-54.8	-72.6	3.8	7.44e-01	0	43	104	0	80	29227
2026-01-24 03:15:29.96	350.40	44.77	-54.8	-72.6	3.8	7.44e-01	0	43	104	0	80	29182
2026-01-24 03:15:30.97	349.93	45.02	-54.8	-72.6	3.8	7.47e-01	0	43	104	0	80	29249
2026-01-24 03:15:31.97	349.45	45.26	-54.8	-72.6	3.8	7.45e-01	0	43	104	0	80	29193
2026-01-24 03:15:32.98	348.96	45.51	-54.8	-72.6	3.8	7.44e-01	0	43	104	0	80	29174
2026-01-24 03:15:33.99	348.47	45.75	-54.8	-72.6	3.8	7.46e-01	0	43	104	0	80	29172
2026-01-24 03:15:35.00	347.96	45.99	-54.8	-72.6	3.8	7.44e-01	0	43	104	0	80	29162
2026-01-24 03:15:36.01	347.45	46.24	-54.8	-72.6	3.8	7.46e-01	0	43	104	0	80	29152
2026-01-24 03:15:37.02	346.93	46.48	-54.8	-72.6	3.8	7.43e-01	0	43	104	0	80	29196
2026-01-24 03:15:38.03	346.40	46.72	-54.8	-72.6	3.8	7.46e-01	0	43	104	0	80	29180
2026-01-24 03:15:39.03	345.87	46.96	-54.8	-72.6	3.8	7.43e-01	0	43	104	0	80	29163
2026-01-24 03:15:40.04	345.32	47.20	-54.8	-72.6	3.8	7.46e-01	0	43	104	0	80	29214
2026-01-24 03:15:41.05	344.77	47.43	-54.8	-72.6	3.8	7.46e-01	0	43	104	0	80	29186
2026-01-24 03:15:42.06	344.20	47.67	-54.8	-72.6	3.8	7.43e-01	0	43	104	0	80	29176
2026-01-24 03:15:43.07	343.63	47.90	-54.8	-72.6	3.8	7.47e-01	0	43	104	0	80	29183
2026-01-24 03:15:44.08	343.05	48.13	-54.8	-72.6	3.8	7.46e-01	0	43	104	0	80	29180
2026-01-24 03:15:45.08	342.47	48.36	-54.8	-72.6	3.8	7.47e-01	0	43	104	0	80	29258
2026-01-24 03:15:46.09	341.87	48.59	-54.8	-72.6	3.8	7.47e-01	0	43	104	0	80	29199
2026-01-24 03:15:47.10	341.26	48.82	-54.8	-72.6	3.8	7.48e-01	0	43	104	0	80	29160
2026-01-24 03:15:48.11	340.64	49.04	-54.8	-72.6	3.8	7.47e-01	0	43	104	0	80	29190
2026-01-24 03:15:49.11	340.02	49.26	-54.8	-72.6	3.8	7.48e-01	0	43	104	0	80	29197
2026-01-24 03:15:50.12	339.39	49.48	-54.8	-72.6	3.8	7.46e-01	0	43	104	0	80	29166
2026-01-24 03:15:51.13	338.75	49.69	-54.8	-72.6	3.8	7.46e-01	0	43	104	0	80	29218
2026-01-24 03:15:52.14	338.09	49.91	-54.8	-72.6	3.8	7.46e-01	0	43	104	0	80	29154
2026-01-24 03:15:53.14	337.44	50.11	-54.8	-72.6	3.8	7.45e-01	0	43	104	0	80	29207
2026-01-24 03:15:54.15	336.76	50.32	-54.8	-72.6	3.8	7.42e-01	0	43	104	0	80	29216
2026-01-24 03:15:55.16	336.08	50.52	-54.8	-72.6	3.8	7.46e-01	0	43	104	0	80	29155
2026-01-24 03:15:56.17	335.39	50.72	-54.8	-72.6	3.8	7.47e-01	0	43	104	0	80	29254
2026-01-24 03:15:57.18	334.69	50.92	-54.8	-72.6	3.8	7.47e-01	0	43	104	0	80	29133
2026-01-24 03:15:58.18	333.99	51.11	-54.8	-72.6	3.8	7.46e-01	0	43	104	0	80	29247
2026-01-24 03:15:59.19	333.27	51.30	-54.8	-72.6	3.8	7.48e-01	0	43	104	0	80	29235
2026-01-24 03:16:00.20	332.54	51.49	-54.8	-72.6	3.8	7.41e-01	0	43	104	0	80	29184
2026-01-24 03:16:01.21	331.81	51.67	-54.8	-72.6	3.8	7.43e-01	0	43	104	0	80	29176
2026-01-24 03:16:02.22	331.06	51.84	-54.8	-72.6	3.8	7.42e-01	0	43	104	0	80	29133
2026-01-24 03:16:03.23	330.31	52.02	-54.8	-72.6	3.8	7.42e-01	0	43	104	0	80	29274
2026-01-24 03:16:04.23	329.55	52.18	-54.8	-72.6	3.8	7.45e-01	0	43	104	0	80	29206
2026-01-24 03:16:05.24	328.78	52.35	-54.8	-72.6	3.8	7.44e-01	0	43	104	0	80	29216
2026-01-24 03:16:06.24	328.01	52.50	-54.8	-72.6	3.8	7.48e-01	0	43	104	0	80	29221
2026-01-24 03:16:07.25	327.22	52.66	-54.8	-72.6	3.8	7.45e-01	0	43	104	0	80	29215
2026-01-24 03:16:08.26	326.42	52.81	-54.8	-72.6	3.8	7.45e-01	0	43	104	0	80	29210
2026-01-24 03:16:09.27	325.62	52.95	-54.8	-72.6	3.8	7.46e-01	0	43	104	0	80	29161
2026-01-24 03:16:10.28	324.80	53.09	-54.8	-72.6	3.8	7.48e-01	0	43	104	0	80	29216
2026-01-24 03:16:11.29	323.98	53.22	-54.8	-72.6	3.8	7.45e-01	0	43	104	0	80	29197
2026-01-24 03:16:12.29	323.16	53.34	-54.8	-72.6	3.8	7.45e-01	0	43	104	0	80	29178
2026-01-24 03:16:13.30	322.33	53.46	-54.8	-72.6	3.8	7.45e-01	0	43	104	0	80	29179
2026-01-24 03:16:14.31	321.48	53.58	-54.8	-72.6	3.8	7.43e-01	0	43	104	0	80	29180
2026-01-24 03:16:15.32	320.64	53.69	-54.8	-72.6	3.8	7.47e-01	0	43	104	0	80	29196
2026-01-24 03:16:16.33	319.78	53.79	-54.8	-72.6	3.8	7.46e-01	0	43	104	0	80	29212
2026-01-24 03:16:17.34	318.92	53.89	-54.8	-72.6	3.8	7.43e-01	0	43	104	0	80	29173
2026-01-24 03:16:18.35	318.05	53.98	-54.8	-72.6	3.8	7.47e-01	0	43	104	0	80	29207
2026-01-24 03:16:19.36	317.18	54.06	-54.8	-72.6	3.8	7.46e-01	0	43	104	0	80	29182
2026-01-24 03:16:20.36	316.31	54.14	-54.8	-72.6	3.8	7.44e-01	0	43	104	0	80	29251
2026-01-24 03:16:21.37	315.43	54.21	-54.8	-72.6	3.8	7.49e-01	0	43	104	0	80	29168
2026-01-24 03:16:22.38	314.54	54.27	-54.8	-72.6	3.8	7.44e-01	0	43	104	0	80	29138
2026-01-24 03:16:23.39	313.66	54.33	-54.8	-72.6	3.8	7.45e-01	0	43	104	0	80	29233
2026-01-24 03:16:24.39	312.77	54.38	-54.8	-72.6	3.8	7.43e-01	0	43	104	0	80	29211
2026-01-24 03:16:25.40	311.88	54.42	-54.8	-72.6	3.8	7.48e-01	0	43	104	0	80	29258
2026-01-24 03:16:26.41	310.98	54.46	-54.8	-72.6	3.8	7.46e-01	0	43	104	0	80	29220
2026-01-24 03:16:27.42	310.08	54.48	-54.8	-72.6	3.8	7.45e-01	0	43	104	0	80	29232
2026-01-24 03:16:28.43	309.17	54.51	-54.8	-72.6	3.8	7.43e-01	0	43	104	0	80	29234
2026-01-24 03:16:29.44	308.27	54.52	-54.8	-72.6	3.8	7.42e-01	0	43	104	0	80	29275
2026-01-24 03:16:30.44	307.38	54.53	-54.8	-72.6	3.8	7.43e-01	0	43	104	0	80	29216
2026-01-24 03:16:31.45	306.47	54.53	-54.8	-72.6	3.8	7.47e-01	0	43	104	0	80	29259
2026-01-24 03:16:32.46	305.57	54.52	-54.8	-72.6	3.8	7.46e-01	0	43	104	0	80	29212
2026-01-24 03:16:33.47	304.66	54.51	-54.8	-72.6	3.8	7.45e-01	0	43	104	0	80	29202
2026-01-24 03:16:34.47	303.77	54.49	-54.8	-72.6	3.8	7.46e-01	0	43	104	0	80	29203
2026-01-24 03:16:35.48	302.87	54.46	-54.8	-72.6	3.8	7.44e-01	0	43	104	0	80	29203
2026-01-24 03:16:36.49	301.97	54.43	-54.8	-72.6	3.8	7.45e-01	0	43	104	0	80	29167
2026-01-24 03:16:37.50	301.07	54.39	-54.8	-72.6	3.8	7.42e-01	0	43	104	0	80	29153
2026-01-24 03:16:38.51	300.18	54.34	-54.8	-72.6	3.8	7.43e-01	0	43	104	0	80	29217
2026-01-24 03:16:39.52	299.29	54.28	-54.8	-72.6	3.8	7.47e-01	0	43	104	0	80	29189
2026-01-24 03:16:40.53	298.40	54.22	-54.8	-72.6	3.8	7.46e-01	0	43	104	0	80	29144
2026-01-24 03:16:41.54	297.52	54.15	-54.8	-72.6	3.8	7.45e-01	0	43	104	0	80	29194
2026-01-24 03:16:42.54	296.65	54.08	-54.8	-72.6	3.8	7.48e-01	0	43	104	0	80	29184
2026-01-24 03:16:43.55	295.78	54.00	-54.8	-72.6	3.8	7.43e-01	0	43	104	0	80	29150
2026-01-24 03:16:44.56	294.91	53.91	-54.8	-72.6	3.8	7.47e-01	0	43	104	0	80	29111
2026-01-24 03:16:45.57	294.04	53.81	-54.8	-72.6	3.8	7.45e-01	0	43	104	0	80	29232
2026-01-24 03:16:46.58	293.19	53.71	-54.8	-72.6	3.8	7.45e-01	0	43	104	0	80	29228
2026-01-24 03:16:47.59	292.34	53.60	-54.8	-72.6	3.8	7.45e-01	0	43	104	0	80	29202
2026-01-24 03:16:48.59	291.50	53.49	-54.8	-72.6	3.8	7.45e-01	0	43	104	0	80	29148
2026-01-24 03:16:49.60	290.66	53.37	-54.8	-72.6	3.8	7.43e-01	0	43	104	0	80	29239
2026-01-24 03:16:50.61	289.83	53.25	-54.8	-72.6	3.8	7.43e-01	0	43	104	0	80	29195
2026-01-24 03:16:51.62	289.01	53.12	-54.8	-72.6	3.8	7.45e-01	0	43	104	0	80	29233
2026-01-24 03:16:52.63	288.19	52.98	-54.8	-72.6	3.8	7.42e-01	0	43	104	0	80	29201
2026-01-24 03:16:53.63	287.39	52.84	-54.8	-72.6	3.8	7.46e-01	0	43	104	0	80	29191
2026-01-24 03:16:54.64	286.59	52.69	-54.8	-72.6	3.8	7.44e-01	0	43	104	0	80	29203
2026-01-24 03:16:55.65	285.80	52.54	-54.8	-72.6	3.8	7.43e-01	0	43	104	0	80	29220
2026-01-24 03:16:56.66	285.02	52.38	-54.8	-72.6	3.8	7.44e-01	0	43	104	0	80	29304
2026-01-24 03:16:57.67	284.24	52.22	-54.8	-72.6	3.8	7.45e-01	0	43	104	0	80	29235
2026-01-24 03:16:58.67	283.49	52.05	-54.8	-72.6	3.8	7.46e-01	0	43	104	0	80	29243
2026-01-24 03:16:59.68	282.73	51.88	-54.8	-72.6	3.8	7.45e-01	0	43	104	0	80	29265
2026-01-24 03:17:00.69	281.98	51.70	-54.9	-72.7	3.8	7.42e-01	0	43	104	0	80	29425
2026-01-24 03:17:01.70	281.24	51.52	-55.0	-72.8	3.8	7.44e-01	0	43	104	0	80	29734
2026-01-24 03:17:02.71	280.51	51.34	-54.9	-72.8	3.8	7.44e-01	0	43	104	0	80	29769
2026-01-24 03:17:03.71	279.80	51.15	-55.0	-72.8	3.8	7.43e-01	0	43	104	0	80	29804
2026-01-24 03:17:04.72	279.08	50.96	-54.9	-72.7	3.8	7.47e-01	0	43	104	0	80	29580
2026-01-24 03:17:05.73	278.38	50.76	-54.9	-72.7	3.8	7.42e-01	0	43	104	0	80	29548
2026-01-24 03:17:06.74	277.69	50.56	-54.9	-72.7	3.8	7.47e-01	0	43	104	0	80	29442
2026-01-24 03:17:07.75	277.00	50.36	-54.9	-72.7	3.8	7.45e-01	0	43	104	0	80	29685
2026-01-24 03:17:08.75	276.34	50.16	-54.9	-72.7	3.8	7.45e-01	0	43	104	0	80	29557
2026-01-24 03:17:09.76	275.67	49.95	-54.9	-72.7	3.8	7.46e-01	0	43	104	0	80	29496
2026-01-24 03:17:10.77	275.01	49.73	-54.9	-72.7	3.8	7.41e-01	0	43	104	0	80	29444
2026-01-24 03:17:11.77	274.37	49.52	-54.9	-72.7	3.8	7.43e-01	0	43	104	0	80	29423
2026-01-24 03:17:12.78	273.74	49.30	-54.9	-72.7	3.8	7.46e-01	0	43	104	0	80	29434
2026-01-24 03:17:13.79	273.11	49.08	-54.9	-72.7	3.8	7.46e-01	0	43	104	0	80	29441
2026-01-24 03:17:14.80	272.49	48.86	-54.9	-72.7	3.8	7.46e-01	0	43	104	0	80	29448
2026-01-24 03:17:15.81	271.88	48.63	-54.9	-72.7	3.8	7.47e-01	0	43	104	0	80	29474
2026-01-24 03:17:16.82	271.28	48.40	-54.8	-72.7	3.8	7.45e-01	0	43	104	0	80	29413
2026-01-24 03:17:17.83	270.68	48.17	-54.8	-72.6	3.8	7.44e-01	0	43	104	0	80	29329
2026-01-24 03:17:18.83	270.11	47.94	-54.9	-72.6	3.8	7.41e-01	0	43	104	0	80	29331
2026-01-24 03:17:19.84	269.53	47.71	-54.9	-72.7	3.8	7.46e-01	0	43	104	0	80	29593
2026-01-24 03:17:20.85	268.97	47.48	-54.9	-72.7	3.8	7.44e-01	0	43	104	0	80	29474
2026-01-24 03:17:21.86	268.41	47.24	-54.9	-72.7	3.8	7.44e-01	0	43	104	0	80	29384
2026-01-24 03:17:22.87	267.86	47.00	-54.9	-72.7	3.8	7.46e-01	0	43	104	0	80	29429
2026-01-24 03:17:23.87	267.33	46.76	-54.9	-72.7	3.8	7.45e-01	0	43	104	0	80	29385
2026-01-24 03:17:24.88	266.79	46.52	-54.9	-72.7	3.8	7.46e-01	0	43	104	0	80	29438
2026-01-24 03:17:25.89	266.27	46.28	-54.8	-72.7	3.8	7.44e-01	0	43	104	0	80	29376
2026-01-24 03:17:26.90	265.75	46.03	-54.8	-72.7	3.8	7.43e-01	0	43	104	0	80	29386
2026-01-24 03:17:27.91	265.25	45.79	-54.8	-72.6	3.8	7.44e-01	0	43	104	0	80	29328
2026-01-24 03:17:28.91	264.75	45.55	-54.8	-72.7	3.8	7.45e-01	0	43	104	0	80	29366
2026-01-24 03:17:29.92	264.26	45.30	-54.9	-72.7	3.8	7.47e-01	0	43	104	0	80	29393
2026-01-24 03:17:30.93	263.78	45.05	-54.8	-72.7	3.8	7.43e-01	0	43	104	0	80	29445
2026-01-24 03:17:31.94	263.30	44.81	-54.8	-72.7	3.8	7.46e-01	0	43	104	0	80	29391
2026-01-24 03:17:32.95	262.83	44.56	-54.8	-72.6	3.8	7.44e-01	0	43	104	0	80	29317
2026-01-24 03:17:33.96	262.37	44.31	-54.8	-72.6	3.8	7.46e-01	0	43	104	0	80	29299
2026-01-24 03:17:34.96	261.92	44.06	-54.8	-72.6	3.8	7.46e-01	0	43	104	0	80	29327
2026-01-24 03:17:35.97	261.47	43.82	-54.8	-72.7	3.8	7.48e-01	0	43	104	0	80	29392
2026-01-24 03:17:36.98	261.03	43.57	-54.8	-72.6	3.8	7.46e-01	0	43	104	0	80	29335
2026-01-24 03:17:37.99	260.60	43.32	-54.8	-72.6	3.8	7.48e-01	0	43	104	0	80	29284
2026-01-24 03:17:38.99	260.18	43.07	-54.8	-72.6	3.8	7.46e-01	0	43	104	0	80	29320
2026-01-24 03:17:40.00	259.76	42.82	-54.8	-72.6	3.8	7.50e-01	0	43	104	0	80	29249
2026-01-24 03:17:41.01	259.35	42.57	-54.8	-72.6	3.8	7.44e-01	0	43	104	0	80	29316
2026-01-24 03:17:42.02	258.94	42.32	-54.8	-72.7	3.8	7.46e-01	0	43	104	0	80	29371
2026-01-24 03:17:43.03	258.54	42.07	-54.8	-72.6	3.8	7.45e-01	0	43	104	0	80	29250
2026-01-24 03:17:44.04	258.15	41.82	-54.8	-72.6	3.8	7.45e-01	0	43	104	0	80	29263
2026-01-24 03:17:45.04	257.76	41.58	-54.8	-72.7	3.8	7.45e-01	0	43	104	0	80	29352
2026-01-24 03:17:46.05	257.38	41.33	-54.8	-72.6	3.8	7.45e-01	0	43	104	0	80	29265
2026-01-24 03:17:47.06	257.00	41.08	-54.8	-72.6	3.8	7.47e-01	0	43	104	0	80	29274
2026-01-24 03:17:48.07	256.63	40.83	-54.8	-72.6	3.8	7.42e-01	0	43	104	0	80	29256
2026-01-24 03:17:49.07	256.27	40.59	-54.8	-72.6	3.8	7.44e-01	0	43	104	0	80	29251
2026-01-24 03:17:50.08	255.92	40.34	-54.8	-72.6	3.8	7.43e-01	0	43	104	0	80	29273
2026-01-24 03:17:51.09	255.56	40.09	-54.8	-72.6	3.8	7.42e-01	0	43	104	0	80	29175
2026-01-24 03:17:52.10	255.22	39.85	-54.8	-72.6	3.8	7.44e-01	0	43	104	0	80	29249
2026-01-24 03:17:53.11	254.87	39.60	-54.8	-72.6	3.8	7.45e-01	0	43	104	0	80	29235
2026-01-24 03:17:54.11	254.54	39.36	-54.8	-72.6	3.8	7.46e-01	0	43	104	0	80	29281
2026-01-24 03:17:55.12	254.21	39.12	-54.8	-72.6	3.8	7.47e-01	0	43	104	0	80	29261
2026-01-24 03:17:56.13	253.88	38.88	-54.8	-72.6	3.8	7.44e-01	0	43	104	0	80	29242
2026-01-24 03:17:57.14	253.56	38.63	-54.8	-72.6	3.8	7.43e-01	0	43	104	0	80	29334
2026-01-24 03:17:58.15	253.24	38.39	-54.8	-72.6	3.8	7.44e-01	0	43	104	0	80	29247
2026-01-24 03:17:59.15	252.93	38.16	-54.8	-72.6	3.8	7.45e-01	0	43	104	0	80	29286
2026-01-24 03:18:00.16	252.63	37.92	-54.8	-72.6	3.8	7.43e-01	0	43	104	0	80	29284
2026-01-24 03:18:01.17	252.32	37.68	-54.8	-72.6	3.8	7.45e-01	0	43	104	0	80	29283
2026-01-24 03:18:02.18	252.02	37.44	-54.8	-72.6	3.8	7.47e-01	0	43	104	0	80	29268
2026-01-24 03:18:03.18	251.73	37.21	-54.8	-72.6	3.8	7.45e-01	0	43	104	0	80	29201
2026-01-24 03:18:04.19	251.44	36.97	-54.8	-72.6	3.8	7.45e-01	0	43	104	0	80	29215
2026-01-24 03:18:05.20	251.16	36.73	-54.8	-72.6	3.8	7.44e-01	0	43	104	0	80	29272
2026-01-24 03:18:06.21	250.88	36.50	-54.8	-72.6	3.8	7.48e-01	0	43	104	0	80	29290
2026-01-24 03:18:07.22	250.60	36.27	-54.8	-72.6	3.8	7.45e-01	0	43	104	0	80	29200
2026-01-24 03:18:08.22	250.33	36.04	-54.8	-72.6	3.8	7.48e-01	0	43	104	0	80	29190
2026-01-24 03:18:09.23	250.06	35.81	-54.8	-72.6	3.8	7.45e-01	0	43	104	0	80	29274
2026-01-24 03:18:10.24	249.80	35.58	-54.8	-72.6	3.8	7.44e-01	0	43	104	0	80	29229
2026-01-24 03:18:11.25	249.53	35.35	-54.8	-72.6	3.8	7.47e-01	0	43	104	0	80	29283
2026-01-24 03:18:12.26	249.28	35.12	-54.8	-72.6	3.8	7.46e-01	0	43	104	0	80	29322
2026-01-24 03:18:13.27	249.02	34.89	-54.8	-72.6	3.8	7.44e-01	0	43	104	0	80	29292
2026-01-24 03:18:14.28	248.77	34.67	-54.8	-72.6	3.8	7.46e-01	0	43	104	0	80	29267
2026-01-24 03:18:15.29	248.53	34.44	-54.8	-72.6	3.8	7.42e-01	0	43	104	0	80	29281
2026-01-24 03:18:16.30	248.28	34.22	-54.8	-72.7	3.8	7.47e-01	0	43	104	0	80	29378
2026-01-24 03:18:17.31	248.04	34.00	-54.8	-72.6	3.8	7.48e-01	0	43	104	0	80	29307
2026-01-24 03:18:18.32	247.81	33.78	-54.8	-72.7	3.8	7.45e-01	0	43	104	0	80	29363
2026-01-24 03:18:19.32	247.58	33.56	-54.8	-72.6	3.8	7.44e-01	0	43	104	0	80	29275
2026-01-24 03:18:20.33	247.35	33.34	-54.8	-72.6	3.8	7.46e-01	0	43	104	0	80	29282
2026-01-24 03:18:21.34	247.12	33.12	-54.8	-72.6	3.8	7.45e-01	0	43	104	0	80	29315
2026-01-24 03:18:22.35	246.90	32.91	-54.8	-72.6	3.8	7.46e-01	0	43	104	0	80	29340
2026-01-24 03:18:23.36	246.68	32.69	-54.8	-72.6	3.8	7.48e-01	0	43	104	0	80	29292
2026-01-24 03:18:24.37	246.46	32.48	-54.8	-72.6	3.8	7.44e-01	0	43	104	0	80	29321
2026-01-24 03:18:25.37	246.25	32.27	-54.8	-72.6	3.8	7.47e-01	0	43	104	0	80	29219
2026-01-24 03:18:26.38	246.03	32.06	-54.8	-72.6	3.8	7.43e-01	0	43	104	0	80	29224
2026-01-24 03:18:27.39	245.82	31.85	-54.8	-72.6	3.8	7.44e-01	0	43	104	0	80	29237
2026-01-24 03:18:28.40	245.62	31.64	-54.8	-72.6	3.8	7.42e-01	0	43	104	0	80	29280
2026-01-24 03:18:29.41	245.42	31.43	-54.8	-72.6	3.8	7.48e-01	0	43	104	0	80	29207
2026-01-24 03:18:30.42	245.22	31.22	-54.8	-72.6	3.8	7.48e-01	0	43	104	0	80	29298
2026-01-24 03:18:31.43	245.02	31.02	-54.8	-72.6	3.8	7.42e-01	0	43	104	0	80	29256
2026-01-24 03:18:32.43	244.82	30.81	-54.8	-72.6	3.8	7.46e-01	0	43	104	0	80	29279
2026-01-24 03:18:33.44	244.63	30.61	-54.8	-72.6	3.8	7.46e-01	0	43	104	0	80	29305
2026-01-24 03:18:34.45	244.44	30.41	-54.8	-72.6	3.8	7.44e-01	0	43	104	0	80	29304
2026-01-24 03:18:35.46	244.25	30.21	-54.8	-72.6	3.8	7.43e-01	0	43	104	0	80	29251
2026-01-24 03:18:36.47	244.07	30.01	-54.8	-72.6	3.8	7.46e-01	0	43	104	0	80	29223
2026-01-24 03:18:37.48	243.88	29.81	-54.8	-72.6	3.8	7.43e-01	0	43	104	0	80	29250
2026-01-24 03:18:38.49	243.70	29.61	-54.8	-72.6	3.8	7.45e-01	0	43	104	0	80	29248
2026-01-24 03:18:39.50	243.53	29.41	-54.8	-72.6	3.8	7.47e-01	0	43	104	0	80	29233
2026-01-24 03:18:40.50	243.35	29.22	-54.8	-72.6	3.8	7.46e-01	0	43	104	0	80	29252
2026-01-24 03:18:41.51	243.18	29.02	-54.8	-72.6	3.8	7.47e-01	0	43	104	0	80	29175
2026-01-24 03:18:42.52	243.01	28.83	-54.8	-72.6	3.8	7.46e-01	0	43	104	0	80	29232
2026-01-24 03:18:43.53	242.84	28.64	-54.8	-72.6	3.8	7.45e-01	0	43	104	0	80	29203
2026-01-24 03:18:44.53	242.67	28.45	-54.8	-72.6	3.8	7.44e-01	0	43	104	0	80	29273
2026-01-24 03:18:45.54	242.51	28.26	-54.8	-72.6	3.8	7.44e-01	0	43	104	0	80	29208
2026-01-24 03:18:46.55	242.34	28.07	-54.8	-72.6	3.8	7.45e-01	0	43	104	0	80	29300
2026-01-24 03:18:47.56	242.18	27.88	-54.8	-72.6	3.8	7.43e-01	0	43	104	0	80	29312
2026-01-24 03:18:48.57	242.02	27.70	-54.8	-72.6	3.8	7.45e-01	0	43	104	0	80	29281
2026-01-24 03:18:49.58	241.86	27.51	-54.8	-72.6	3.8	7.43e-01	0	43	104	0	80	29185
2026-01-24 03:18:50.58	241.71	27.33	-54.8	-72.6	3.8	7.43e-01	0	43	104	0	80	29214
2026-01-24 03:18:51.59	241.56	27.15	-54.8	-72.6	3.8	7.46e-01	0	43	104	0	80	29255
2026-01-24 03:18:52.60	241.40	26.96	-54.8	-72.6	3.8	7.47e-01	0	43	104	0	80	29324
2026-01-24 03:18:53.61	241.25	26.78	-54.8	-72.6	3.8	7.47e-01	0	43	104	0	80	29203
2026-01-24 03:18:54.62	241.11	26.60	-54.8	-72.6	3.8	7.44e-01	0	43	104	0	80	29260
2026-01-24 03:18:55.62	240.96	26.43	-54.8	-72.6	3.8	7.42e-01	0	43	104	0	80	29278
2026-01-24 03:18:56.63	240.82	26.25	-54.8	-72.6	3.8	7.44e-01	0	43	104	0	80	29281
2026-01-24 03:18:57.64	240.67	26.07	-54.8	-72.6	3.8	7.46e-01	0	43	104	0	80	29268
2026-01-24 03:18:58.65	240.53	25.90	-54.8	-72.6	3.8	7.46e-01	0	43	104	0	80	29255
2026-01-24 03:18:59.66	240.39	25.72	-54.8	-72.6	3.8	7.45e-01	0	43	104	0	80	29240
2026-01-24 03:19:00.67	240.26	25.55	-54.8	-72.6	3.8	7.44e-01	0	43	104	0	80	29265
2026-01-24 03:19:01.67	240.12	25.38	-54.8	-72.6	3.8	7.45e-01	0	43	104	0	80	29324
2026-01-24 03:19:02.68	239.99	25.21	-54.8	-72.6	3.8	7.46e-01	0	43	104	0	80	29254
2026-01-24 03:19:03.69	239.85	25.04	-54.8	-72.6	3.8	7.44e-01	0	43	104	0	80	29226
2026-01-24 03:19:04.70	239.72	24.87	-54.8	-72.6	3.8	7.44e-01	0	43	104	0	80	29226
2026-01-24 03:19:05.71	239.59	24.70	-54.8	-72.6	3.8	7.43e-01	0	43	104	0	80	29222
2026-01-24 03:19:06.72	239.46	24.53	-54.8	-72.6	3.8	7.47e-01	0	43	104	0	80	29274
2026-01-24 03:19:07.73	239.33	24.36	-54.8	-72.6	3.8	7.45e-01	0	43	104	0	80	29268
2026-01-24 03:19:08.74	239.21	24.20	-54.8	-72.6	3.8	7.43e-01	0	43	104	0	80	29199
2026-01-24 03:19:09.74	239.08	24.04	-54.8	-72.6	3.8	7.44e-01	0	43	104	0	80	29256
2026-01-24 03:19:10.75	238.96	23.87	-54.8	-72.6	3.8	7.44e-01	0	43	104	0	80	29237
2026-01-24 03:19:11.76	238.84	23.71	-54.8	-72.6	3.8	7.43e-01	0	43	104	0	80	29184
2026-01-24 03:19:12.77	238.72	23.55	-54.8	-72.6	3.8	7.45e-01	0	43	104	0	80	29206
2026-01-24 03:19:13.77	238.60	23.39	-54.8	-72.6	3.8	7.45e-01	0	43	104	0	80	29304
2026-01-24 03:19:14.78	238.48	23.23	-54.8	-72.6	3.8	7.44e-01	0	43	104	0	80	29217
2026-01-24 03:19:15.79	238.37	23.07	-54.8	-72.6	3.8	7.47e-01	0	43	104	0	80	29220
2026-01-24 03:19:16.80	238.25	22.91	-54.8	-72.6	3.8	7.45e-01	0	43	104	0	80	29242
2026-01-24 03:19:17.81	238.14	22.76	-54.8	-72.6	3.8	7.45e-01	0	43	104	0	80	29249
2026-01-24 03:19:18.81	238.03	22.60	-54.8	-72.6	3.8	7.45e-01	0	43	104	0	80	29233
2026-01-24 03:19:19.82	237.91	22.45	-54.8	-72.6	3.8	7.48e-01	0	43	104	0	80	29312
2026-01-24 03:19:20.83	237.80	22.29	-54.8	-72.6	3.8	7.45e-01	0	43	104	0	80	29244
2026-01-24 03:19:21.84	237.69	22.14	-54.8	-72.6	3.8	7.44e-01	0	43	104	0	80	29172
2026-01-24 03:19:22.84	237.59	21.99	-54.8	-72.6	3.8	7.49e-01	0	43	104	0	80	29243
2026-01-24 03:19:23.85	237.48	21.84	-54.8	-72.6	3.8	7.45e-01	0	43	104	0	80	29199
2026-01-24 03:19:24.86	237.37	21.69	-54.8	-72.6	3.8	7.44e-01	0	43	104	0	80	29217
2026-01-24 03:19:25.87	237.27	21.54	-54.8	-72.6	3.8	7.45e-01	0	43	104	0	80	29261
2026-01-24 03:19:26.88	237.16	21.39	-54.8	-72.6	3.8	7.43e-01	0	43	104	0	80	29256
2026-01-24 03:19:27.89	237.06	21.24	-54.8	-72.6	3.8	7.46e-01	0	43	104	0	80	29257
2026-01-24 03:19:28.89	236.96	21.09	-54.8	-72.6	3.8	7.44e-01	0	43	104	0	80	29267
2026-01-24 03:19:29.90	236.86	20.95	-54.8	-72.6	3.8	7.42e-01	0	43	104	0	80	29232
2026-01-24 03:19:30.91	236.76	20.80	-54.8	-72.6	3.8	7.44e-01	0	43	104	0	80	29343
2026-01-24 03:19:31.92	236.66	20.66	-54.8	-72.6	3.8	7.44e-01	0	43	104	0	80	29251
2026-01-24 03:19:32.93	236.57	20.51	-54.8	-72.6	3.8	7.47e-01	0	43	104	0	80	29287
2026-01-24 03:19:33.93	236.47	20.37	-54.8	-72.6	3.8	7.46e-01	0	43	104	0	80	29250
2026-01-24 03:19:34.94	236.37	20.23	-54.8	-72.6	3.8	7.47e-01	0	43	104	0	80	29236
2026-01-24 03:19:35.94	236.28	20.09	-54.8	-72.6	3.8	7.44e-01	0	43	104	0	80	29286
2026-01-24 03:19:36.95	236.19	19.95	-54.8	-72.6	3.8	7.48e-01	0	43	104	0	80	29285
2026-01-24 03:19:37.96	236.09	19.81	-54.8	-72.6	3.8	7.45e-01	0	43	104	0	80	29231
2026-01-24 03:19:38.97	236.00	19.67	-54.8	-72.6	3.8	7.43e-01	0	43	104	0	80	29229
2026-01-24 03:19:39.98	235.91	19.53	-54.8	-72.6	3.8	7.42e-01	0	43	104	0	80	29241
2026-01-24 03:19:40.99	235.82	19.39	-54.8	-72.6	3.8	7.44e-01	0	43	104	0	80	29211
2026-01-24 03:19:41.99	235.73	19.26	-54.8	-72.6	3.8	7.44e-01	0	43	104	0	80	29203
2026-01-24 03:19:43.00	235.64	19.12	-54.8	-72.6	3.8	7.47e-01	0	43	104	0	80	29267
2026-01-24 03:19:44.01	235.56	18.99	-54.8	-72.6	3.8	7.45e-01	0	43	104	0	80	29220
2026-01-24 03:19:45.02	235.47	18.85	-54.8	-72.6	3.8	7.44e-01	0	43	104	0	80	29254
2026-01-24 03:19:46.03	235.38	18.72	-54.8	-72.6	3.8	7.47e-01	0	43	104	0	80	29251
2026-01-24 03:19:47.04	235.30	18.58	-54.8	-72.6	3.8	7.43e-01	0	43	104	0	80	29212
2026-01-24 03:19:48.05	235.22	18.45	-54.8	-72.6	3.8	7.46e-01	0	43	104	0	80	29218
2026-01-24 03:19:49.06	235.13	18.32	-54.8	-72.6	3.8	7.43e-01	0	43	104	0	80	29221
2026-01-24 03:19:50.07	235.05	18.19	-54.8	-72.6	3.8	7.45e-01	0	43	104	0	80	29237
2026-01-24 03:19:51.07	234.97	18.06	-54.8	-72.6	3.8	7.44e-01	0	43	104	0	80	29202
2026-01-24 03:19:52.08	234.89	17.93	-54.8	-72.6	3.8	7.47e-01	0	43	104	0	80	29227
2026-01-24 03:19:53.10	234.81	17.80	-54.8	-72.6	3.8	7.42e-01	0	43	104	0	80	29261
2026-01-24 03:19:54.10	234.73	17.67	-54.8	-72.6	3.8	7.44e-01	0	43	104	0	80	29285
2026-01-24 03:19:55.11	234.65	17.54	-54.8	-72.6	3.8	7.45e-01	0	43	104	0	80	29211
2026-01-24 03:19:56.12	234.57	17.42	-54.8	-72.6	3.8	7.45e-01	0	43	104	0	80	29209
2026-01-24 03:19:57.13	234.49	17.29	-54.8	-72.6	3.8	7.41e-01	0	43	104	0	80	29262
2026-01-24 03:19:58.13	234.42	17.17	-54.8	-72.6	3.8	7.46e-01	0	43	104	0	80	29244
2026-01-24 03:19:59.14	234.34	17.04	-54.8	-72.6	3.8	7.44e-01	0	43	104	0	80	29222
2026-01-24 03:20:00.15	234.27	16.92	-54.8	-72.6	3.8	7.42e-01	0	43	104	0	80	29273
2026-01-24 03:20:01.16	234.19	16.79	-54.8	-72.6	3.8	7.46e-01	0	43	104	0	80	29229
2026-01-24 03:20:02.17	234.12	16.67	-54.8	-72.6	3.8	7.43e-01	0	43	104	0	80	29220
2026-01-24 03:20:03.18	234.04	16.55	-54.8	-72.6	3.8	7.48e-01	0	43	104	0	80	29298
2026-01-24 03:20:04.19	233.97	16.43	-54.8	-72.6	3.8	7.47e-01	0	43	104	0	80	29259
2026-01-24 03:20:05.20	233.90	16.31	-54.8	-72.6	3.8	7.46e-01	0	43	104	0	80	29188
2026-01-24 03:20:06.20	233.83	16.19	-54.8	-72.6	3.8	7.46e-01	0	43	104	0	80	29265
2026-01-24 03:20:07.21	233.76	16.07	-54.8	-72.6	3.8	7.47e-01	0	43	104	0	80	29254
2026-01-24 03:20:08.22	233.69	15.95	-54.8	-72.6	3.8	7.46e-01	0	43	104	0	80	29162
2026-01-24 03:20:09.23	233.62	15.83	-54.8	-72.6	3.8	7.42e-01	0	43	104	0	80	29229
2026-01-24 03:20:10.24	233.55	15.71	-54.8	-72.6	3.8	7.44e-01	0	43	104	0	80	29224
2026-01-24 03:20:11.25	233.48	15.59	-54.8	-72.6	3.8	7.47e-01	0	43	104	0	80	29202
2026-01-24 03:20:12.26	233.41	15.48	-54.8	-72.6	3.8	7.42e-01	0	43	104	0	80	29248
2026-01-24 03:20:13.27	233.35	15.36	-54.8	-72.6	3.8	7.47e-01	0	43	104	0	80	29231
2026-01-24 03:20:14.27	233.28	15.24	-54.8	-72.6	3.8	7.42e-01	0	43	104	0	80	29277
2026-01-24 03:20:15.28	233.22	15.13	-54.8	-72.6	3.8	7.44e-01	0	43	104	0	80	29195
2026-01-24 03:20:16.29	233.15	15.01	-54.8	-72.6	3.8	7.42e-01	0	43	104	0	80	29155
2026-01-24 03:20:17.30	233.09	14.90	-54.8	-72.6	3.8	7.41e-01	0	43	104	0	80	29187
2026-01-24 03:20:18.31	233.02	14.79	-54.8	-72.6	3.8	7.43e-01	0	43	104	0	80	29232
2026-01-24 03:20:19.32	232.96	14.67	-54.8	-72.6	3.8	7.46e-01	0	43	104	0	80	29207
2026-01-24 03:20:20.33	232.89	14.56	-54.8	-72.6	3.8	7.42e-01	0	43	104	0	80	29185
2026-01-24 03:20:21.34	232.83	14.45	-54.8	-72.6	3.8	7.44e-01	0	43	104	0	80	29184
2026-01-24 03:20:22.34	232.77	14.34	-54.8	-72.6	3.8	7.46e-01	0	43	104	0	80	29298
2026-01-24 03:20:23.35	232.71	14.23	-54.8	-72.6	3.8	7.45e-01	0	43	104	0	80	29204
2026-01-24 03:20:24.36	232.65	14.12	-54.8	-72.6	3.8	7.45e-01	0	43	104	0	80	29205
2026-01-24 03:20:25.37	232.59	14.01	-54.8	-72.6	3.8	7.43e-01	0	43	104	0	80	29266
2026-01-24 03:20:26.37	232.53	13.90	-54.8	-72.6	3.8	7.47e-01	0	43	104	0	80	29217
2026-01-24 03:20:27.38	232.47	13.79	-54.8	-72.6	3.8	7.44e-01	0	43	104	0	80	29201
2026-01-24 03:20:28.39	232.41	13.68	-54.8	-72.6	3.8	7.47e-01	0	43	104	0	80	29221
2026-01-24 03:20:29.40	232.35	13.57	-54.8	-72.6	3.8	7.44e-01	0	43	104	0	80	29247
2026-01-24 03:20:30.41	232.29	13.47	-54.8	-72.6	3.8	7.44e-01	0	43	104	0	80	29220
2026-01-24 03:20:31.41	232.24	13.36	-54.8	-72.6	3.8	7.45e-01	0	43	104	0	80	29197
2026-01-24 03:20:32.42	232.18	13.25	-54.8	-72.6	3.8	7.45e-01	0	43	104	0	80	29209
2026-01-24 03:20:33.43	232.12	13.15	-54.8	-72.6	3.8	7.46e-01	0	43	104	0	80	29245
2026-01-24 03:20:34.44	232.07	13.04	-54.8	-72.6	3.8	7.43e-01	0	43	104	0	80	29138
2026-01-24 03:20:35.45	232.01	12.94	-54.8	-72.6	3.8	7.46e-01	0	43	104	0	80	29222
2026-01-24 03:20:36.46	231.95	12.83	-54.8	-72.6	3.8	7.45e-01	0	43	104	0	80	29247
2026-01-24 03:20:37.47	231.90	12.73	-54.8	-72.6	3.8	7.47e-01	0	43	104	0	80	29185
2026-01-24 03:20:38.47	231.85	12.63	-54.8	-72.6	3.8	7.44e-01	0	43	104	0	80	29192
2026-01-24 03:20:39.48	231.79	12.52	-54.8	-72.6	3.8	7.43e-01	0	43	104	0	80	29227
2026-01-24 03:20:40.49	231.74	12.42	-54.8	-72.6	3.8	7.45e-01	0	43	104	0	80	29248
2026-01-24 03:20:41.49	231.68	12.32	-54.8	-72.6	3.8	7.50e-01	0	43	104	0	80	29272
2026-01-24 03:20:42.50	231.63	12.22	-54.8	-72.6	3.8	7.44e-01	0	43	104	0	80	29238
2026-01-24 03:20:43.51	231.58	12.12	-54.8	-72.6	3.8	7.46e-01	0	43	104	0	80	29224
2026-01-24 03:20:44.52	231.53	12.02	-54.8	-72.6	3.8	7.43e-01	0	43	104	0	80	29192
2026-01-24 03:20:45.53	231.48	11.92	-54.8	-72.6	3.8	7.43e-01	0	43	104	0	80	29130
2026-01-24 03:20:46.53	231.43	11.82	-54.8	-72.6	3.8	7.42e-01	0	43	104	0	80	29250
2026-01-24 03:20:47.54	231.37	11.72	-54.8	-72.6	3.8	7.44e-01	0	43	104	0	80	29217
2026-01-24 03:20:48.55	231.32	11.62	-54.8	-72.6	3.8	7.44e-01	0	43	104	0	80	29253
2026-01-24 03:20:49.56	231.27	11.52	-54.8	-72.6	3.8	7.42e-01	0	43	104	0	80	29208
2026-01-24 03:20:50.57	231.22	11.42	-54.8	-72.6	3.8	7.44e-01	0	43	104	0	80	29156
2026-01-24 03:20:51.58	231.18	11.32	-54.8	-72.6	3.8	7.47e-01	0	43	104	0	80	29235
2026-01-24 03:20:52.59	231.13	11.23	-54.8	-72.6	3.8	7.45e-01	0	43	104	0	80	29224
2026-01-24 03:20:53.59	231.08	11.13	-54.8	-72.6	3.8	7.45e-01	0	43	104	0	80	29191
2026-01-24 03:20:54.60	231.03	11.03	-54.8	-72.6	3.8	7.44e-01	0	43	104	0	80	29187
2026-01-24 03:20:55.61	230.98	10.94	-54.8	-72.6	3.8	7.49e-01	0	43	104	0	80	29183
2026-01-24 03:20:56.62	230.94	10.84	-54.8	-72.6	3.8	7.46e-01	0	43	104	0	80	29203
2026-01-24 03:20:57.62	230.89	10.75	-54.8	-72.6	3.8	7.46e-01	0	43	104	0	80	29200
2026-01-24 03:20:58.63	230.84	10.65	-54.8	-72.6	3.8	7.47e-01	0	43	104	0	80	29240
2026-01-24 03:20:59.64	230.80	10.56	-54.8	-72.6	3.8	7.45e-01	0	43	104	0	80	29181
2026-01-24 03:21:00.64	230.75	10.46	-54.8	-72.6	3.8	7.44e-01	0	43	104	0	80	29208
2026-01-24 03:21:01.65	230.70	10.37	-54.8	-72.6	3.8	7.46e-01	0	43	104	0	80	29138
2026-01-24 03:21:02.66	230.66	10.28	-54.8	-72.6	3.8	7.45e-01	0	43	104	0	80	29208
2026-01-24 03:21:03.67	230.61	10.18	-54.8	-72.6	3.8	7.46e-01	0	43	104	0	80	29137
2026-01-24 03:21:04.68	230.57	10.09	-54.8	-72.6	3.8	7.46e-01	0	43	104	0	80	29165
2026-01-24 03:21:05.69	230.53	10.00	-54.8	-72.6	3.8	7.48e-01	0	43	104	0	80	29150
2026-01-24 03:21:06.69	230.48	9.91	-54.8	-72.6	3.8	7.47e-01	0	43	104	0	80	29190
2026-01-24 03:21:07.70	230.44	9.82	-54.8	-72.6	3.8	7.44e-01	0	43	104	0	80	29238
2026-01-24 03:21:08.71	230.39	9.72	-54.8	-72.6	3.8	7.43e-01	0	43	104	0	80	29275
2026-01-24 03:21:09.72	230.35	9.63	-54.8	-72.6	3.8	7.43e-01	0	43	104	0	80	29176
2026-01-24 03:21:10.73	230.31	9.54	-54.8	-72.6	3.8	7.42e-01	0	43	104	0	80	29197
2026-01-24 03:21:11.74	230.27	9.45	-54.8	-72.6	3.8	7.44e-01	0	43	104	0	80	29209
2026-01-24 03:21:12.74	230.23	9.36	-54.8	-72.6	3.8	7.45e-01	0	43	104	0	80	29232
2026-01-24 03:21:13.75	230.18	9.27	-54.8	-72.6	3.8	7.48e-01	0	43	104	0	80	29243
2026-01-24 03:21:14.76	230.14	9.18	-54.8	-72.6	3.8	7.45e-01	0	43	104	0	80	29166
2026-01-24 03:21:15.77	230.10	9.10	-54.8	-72.6	3.8	7.48e-01	0	43	104	0	80	29219
2026-01-24 03:21:16.78	230.06	9.01	-54.8	-72.6	3.8	7.45e-01	0	43	104	0	80	29248
2026-01-24 03:21:17.79	230.02	8.92	-54.8	-72.6	3.8	7.44e-01	0	43	104	0	80	29275
2026-01-24 03:21:18.79	229.98	8.83	-54.8	-72.6	3.8	7.42e-01	0	43	104	0	80	29269
2026-01-24 03:21:19.80	229.94	8.74	-54.8	-72.6	3.8	7.45e-01	0	43	104	0	80	29198
2026-01-24 03:21:20.81	229.90	8.66	-54.8	-72.6	3.8	7.42e-01	0	43	104	0	80	29207
2026-01-24 03:21:21.82	229.86	8.57	-54.8	-72.6	3.8	7.41e-01	0	43	104	0	80	29168
2026-01-24 03:21:22.83	229.82	8.48	-54.8	-72.6	3.8	7.46e-01	0	43	104	0	80	29198
2026-01-24 03:21:23.83	229.78	8.40	-54.8	-72.6	3.8	7.46e-01	0	43	104	0	80	29199
2026-01-24 03:21:24.84	229.74	8.31	-54.8	-72.6	3.8	7.44e-01	0	43	104	0	80	29229
2026-01-24 03:21:25.85	229.70	8.23	-54.8	-72.6	3.8	7.41e-01	0	43	104	0	80	29268
2026-01-24 03:21:26.86	229.67	8.14	-54.8	-72.6	3.8	7.49e-01	0	43	104	0	80	29229
2026-01-24 03:21:27.87	229.63	8.06	-54.8	-72.6	3.8	7.48e-01	0	43	104	0	80	29254
2026-01-24 03:21:28.87	229.59	7.97	-54.8	-72.6	3.8	7.43e-01	0	43	104	0	80	29186
2026-01-24 03:21:29.88	229.55	7.89	-54.8	-72.6	3.8	7.46e-01	0	43	104	0	80	29247
2026-01-24 03:21:30.89	229.52	7.80	-54.8	-72.6	3.8	7.45e-01	0	43	104	0	80	29238
2026-01-24 03:21:31.90	229.48	7.72	-54.8	-72.6	3.8	7.45e-01	0	43	104	0	80	29261
2026-01-24 03:21:32.91	229.44	7.64	-54.8	-72.6	3.8	7.43e-01	0	43	104	0	80	29208
2026-01-24 03:21:33.91	229.41	7.55	-54.8	-72.6	3.8	7.48e-01	0	43	104	0	80	29200
2026-01-24 03:21:34.92	229.37	7.47	-54.8	-72.6	3.8	7.47e-01	0	43	104	0	80	29247
2026-01-24 03:21:35.93	229.33	7.39	-54.8	-72.6	3.8	7.45e-01	0	43	104	0	80	29293
2026-01-24 03:21:36.94	229.30	7.31	-54.8	-72.6	3.8	7.45e-01	0	43	104	0	80	29195
2026-01-24 03:21:37.95	229.26	7.22	-54.8	-72.6	3.8	7.47e-01	0	43	104	0	80	29216
2026-01-24 03:21:38.96	229.23	7.14	-54.8	-72.6	3.8	7.47e-01	0	43	104	0	80	29188
2026-01-24 03:21:39.96	229.19	7.06	-54.8	-72.6	3.8	7.44e-01	0	43	104	0	80	29266
2026-01-24 03:21:40.97	229.16	6.98	-54.8	-72.6	3.8	7.47e-01	0	43	104	0	80	29171
2026-01-24 03:21:41.98	229.12	6.90	-54.8	-72.6	3.8	7.47e-01	0	43	104	0	80	29241
2026-01-24 03:21:42.99	229.09	6.82	-54.8	-72.6	3.8	7.46e-01	0	43	104	0	80	29303
2026-01-24 03:21:43.99	229.06	6.74	-54.8	-72.6	3.8	7.44e-01	0	43	104	0	80	29258
2026-01-24 03:21:45.00	229.02	6.66	-54.8	-72.6	3.8	7.43e-01	0	43	104	0	80	29226
2026-01-24 03:21:46.01	228.99	6.58	-54.8	-72.6	3.8	7.50e-01	0	43	104	0	80	29288
2026-01-24 03:21:47.02	228.96	6.50	-54.8	-72.6	3.8	7.42e-01	0	43	104	0	80	29327
2026-01-24 03:21:48.03	228.92	6.42	-54.8	-72.6	3.8	7.48e-01	0	43	104	0	80	29296
2026-01-24 03:21:49.04	228.89	6.34	-54.8	-72.6	3.8	7.48e-01	0	43	104	0	80	29283
2026-01-24 03:21:50.05	228.86	6.26	-54.8	-72.6	3.8	7.47e-01	0	43	104	0	80	29252
2026-01-24 03:21:51.05	228.82	6.18	-54.8	-72.6	3.8	7.47e-01	0	43	104	0	80	29274
2026-01-24 03:21:52.06	228.79	6.11	-54.8	-72.6	3.8	7.42e-01	0	43	104	0	80	29279
2026-01-24 03:21:53.07	228.76	6.03	-54.8	-72.6	3.8	7.47e-01	0	43	104	0	80	29347
2026-01-24 03:21:54.08	228.73	5.95	-54.8	-72.6	3.8	7.42e-01	0	43	104	0	80	29272
2026-01-24 03:21:55.09	228.70	5.87	-54.8	-72.6	3.8	7.44e-01	0	43	104	0	80	29282
2026-01-24 03:21:56.09	228.66	5.80	-54.8	-72.6	3.8	7.47e-01	0	43	104	0	80	29233
2026-01-24 03:21:57.10	228.63	5.72	-54.8	-72.6	3.8	7.44e-01	0	43	104	0	80	29332
2026-01-24 03:21:58.11	228.60	5.64	-54.8	-72.6	3.8	7.45e-01	0	43	104	0	80	29339
2026-01-24 03:21:59.12	228.57	5.56	-54.8	-72.6	3.8	7.49e-01	0	43	104	0	80	29272
2026-01-24 03:22:00.13	228.54	5.49	-54.8	-72.6	3.8	7.47e-01	0	43	104	0	80	29226
2026-01-24 03:22:01.14	228.51	5.41	-54.8	-72.6	3.8	7.45e-01	0	43	104	0	80	29284
2026-01-24 03:22:02.15	228.48	5.34	-54.8	-72.6	3.8	7.44e-01	0	43	104	0	80	29291
2026-01-24 03:22:03.15	228.45	5.26	-54.8	-72.6	3.8	7.42e-01	0	43	104	0	80	29236
2026-01-24 03:22:04.16	228.42	5.19	-54.8	-72.6	3.8	7.45e-01	0	43	104	0	80	29200
2026-01-24 03:22:05.17	228.39	5.11	-54.8	-72.6	3.8	7.46e-01	0	43	104	0	80	29260
2026-01-24 03:22:06.18	228.36	5.04	-54.8	-72.6	3.8	7.44e-01	0	43	104	0	80	29259
2026-01-24 03:22:07.19	228.33	4.96	-54.8	-72.6	3.8	7.43e-01	0	43	104	0	80	29206
2026-01-24 03:22:08.19	228.30	4.89	-54.8	-72.6	3.8	7.48e-01	0	43	104	0	80	29230
2026-01-24 03:22:09.20	228.27	4.81	-54.8	-72.6	3.8	7.45e-01	0	43	104	0	80	29214
2026-01-24 03:22:10.21	228.24	4.74	-54.8	-72.6	3.8	7.49e-01	0	43	104	0	80	29251
2026-01-24 03:22:11.22	228.22	4.66	-54.8	-72.6	3.8	7.43e-01	0	43	104	0	80	29269
2026-01-24 03:22:12.22	228.19	4.59	-54.8	-72.6	3.8	7.42e-01	0	43	104	0	80	29219
2026-01-24 03:22:13.24	228.16	4.52	-54.8	-72.6	3.8	7.45e-01	0	43	104	0	80	29293
2026-01-24 03:22:14.24	228.13	4.45	-54.8	-72.6	3.8	7.43e-01	0	43	104	0	80	29249
2026-01-24 03:22:15.25	228.10	4.37	-54.8	-72.6	3.8	7.44e-01	0	43	104	0	80	29217
2026-01-24 03:22:16.26	228.08	4.30	-54.8	-72.6	3.8	7.47e-01	0	43	104	0	80	29281
2026-01-24 03:22:17.27	228.05	4.23	-54.8	-72.6	3.8	7.44e-01	0	43	104	0	80	29311
2026-01-24 03:22:18.28	228.02	4.15	-54.8	-72.6	3.8	7.41e-01	0	43	104	0	80	29225
2026-01-24 03:22:19.29	227.99	4.08	-54.8	-72.6	3.8	7.44e-01	0	43	104	0	80	29241
2026-01-24 03:22:20.29	227.97	4.01	-54.8	-72.6	3.8	7.45e-01	0	43	104	0	80	29299
2026-01-24 03:22:21.30	227.94	3.94	-54.8	-72.6	3.8	7.42e-01	0	43	104	0	80	29277
2026-01-24 03:22:22.31	227.91	3.87	-54.8	-72.6	3.8	7.46e-01	0	43	104	0	80	29177
2026-01-24 03:22:23.32	227.89	3.80	-54.8	-72.6	3.8	7.47e-01	0	43	104	0	80	29277
2026-01-24 03:22:24.33	227.86	3.73	-54.8	-72.6	3.8	7.46e-01	0	43	104	0	80	29264
2026-01-24 03:22:25.34	227.83	3.65	-54.8	-72.6	3.8	7.48e-01	0	43	104	0	80	29261
2026-01-24 03:22:26.34	227.81	3.58	-54.8	-72.6	3.8	7.43e-01	0	43	104	0	80	29266
2026-01-24 03:22:27.36	227.78	3.51	-54.8	-72.6	3.8	7.46e-01	0	43	104	0	80	29286
2026-01-24 03:22:28.36	227.75	3.44	-54.8	-72.6	3.8	7.45e-01	0	43	104	0	80	29208
2026-01-24 03:22:29.37	227.73	3.37	-54.8	-72.6	3.8	7.43e-01	0	43	104	0	80	29251
2026-01-24 03:22:30.38	227.70	3.30	-54.8	-72.6	3.8	7.45e-01	0	43	104	0	80	29259
2026-01-24 03:22:31.39	227.68	3.23	-54.8	-72.6	3.8	7.48e-01	0	43	104	0	80	29303
2026-01-24 03:22:32.39	227.65	3.16	-54.8	-72.6	3.8	7.43e-01	0	43	104	0	80	29222
2026-01-24 03:22:33.40	227.63	3.10	-54.8	-72.6	3.8	7.48e-01	0	43	104	0	80	29250
2026-01-24 03:22:34.41	227.60	3.03	-54.8	-72.6	3.8	7.48e-01	0	43	104	0	80	29272
2026-01-24 03:22:35.42	227.58	2.96	-54.8	-72.6	3.8	7.46e-01	0	43	104	0	80	29194
2026-01-24 03:22:36.42	227.55	2.89	-54.8	-72.6	3.8	7.45e-01	0	43	104	0	80	29216
2026-01-24 03:22:37.43	227.53	2.82	-54.8	-72.6	3.8	7.46e-01	0	43	104	0	80	29257
