passes_logs/2026/01/24/R3.2S_Murmansk/R3.2S_Murmansk__20260124_020334_NOAA_20_JPSS-1_rec.log

#Pass ID: 20260124_020334_NOAA 20 (JPSS-1)
#Satellite: NOAA 20 (JPSS-1)
#Configuration: NOAA 20
#almurnet v.1.7.20251203
#Start time: 2026-01-24 02:03:35

#Version: 2.2.20231116
#Station: R3.2S_Murmansk
#Location: 33.079688 lon 68.888172 lat
#TLE: 1 43013U 17073A   26023.57676825  .00000205  00000+0  11821-3 0  9990
#TLE: 2 43013  98.7645 324.4259 0001147  27.0566 333.0670 14.19539368423954

#Time	Az	El	Level	Level2	SNR	BER	BlckErr	Temp	State	Recorded	gain1	gain2
2026-01-24 02:03:35.73	31.06	2.05	-53.5	-68.5	3.8	1.49e+00	0	41	0	0	77	21656
2026-01-24 02:03:36.73	31.03	2.12	-53.5	-68.5	3.8	1.49e+00	0	41	104	0	77	21732
2026-01-24 02:03:37.74	31.00	2.18	-53.5	-68.5	3.8	1.49e+00	0	41	104	0	77	21644
2026-01-24 02:03:38.75	30.97	2.24	-53.5	-68.5	3.8	1.49e+00	0	41	104	0	77	21628
2026-01-24 02:03:39.76	30.94	2.31	-53.5	-68.5	3.8	1.49e+00	0	41	104	0	77	21644
2026-01-24 02:03:40.76	30.91	2.37	-53.6	-68.6	3.8	1.49e+00	0	41	104	0	77	21940
2026-01-24 02:03:41.77	30.88	2.43	-53.6	-68.6	3.8	1.49e+00	0	42	104	0	77	21800
2026-01-24 02:03:42.78	30.85	2.50	-53.6	-68.6	3.8	1.49e+00	0	41	104	0	77	21821
2026-01-24 02:03:43.79	30.82	2.56	-53.6	-68.6	3.8	1.49e+00	0	41	104	0	77	21775
2026-01-24 02:03:44.79	30.79	2.62	-53.5	-68.5	3.8	1.49e+00	0	41	104	0	77	21690
2026-01-24 02:03:45.80	30.76	2.69	-53.6	-68.6	3.8	1.49e+00	0	41	104	0	77	21790
2026-01-24 02:03:46.81	30.73	2.75	-53.6	-68.5	3.8	1.49e+00	0	41	104	0	77	21733
2026-01-24 02:03:47.82	30.70	2.82	-53.5	-68.5	3.8	1.49e+00	0	42	104	0	77	21699
2026-01-24 02:03:48.83	30.67	2.88	-53.5	-68.5	3.8	1.49e+00	0	41	104	0	77	21725
2026-01-24 02:03:49.83	30.63	2.95	-53.6	-68.5	3.8	1.49e+00	0	41	104	0	77	21728
2026-01-24 02:03:50.84	30.60	3.01	-53.5	-68.6	3.8	1.49e+00	0	42	104	0	77	21775
2026-01-24 02:03:51.85	30.57	3.08	-53.5	-68.5	3.8	1.49e+00	0	42	104	0	77	21750
2026-01-24 02:03:52.86	30.54	3.14	-53.5	-68.5	3.8	1.49e+00	0	42	104	0	77	21603
2026-01-24 02:03:53.87	30.51	3.21	-53.5	-68.5	3.8	1.49e+00	0	42	104	0	77	21722
2026-01-24 02:03:54.87	30.47	3.27	-53.5	-68.5	3.8	1.49e+00	0	42	104	0	77	21705
2026-01-24 02:03:55.88	30.44	3.34	-53.5	-68.5	3.8	1.49e+00	0	42	104	0	77	21685
2026-01-24 02:03:56.89	30.41	3.40	-53.5	-68.5	3.8	1.49e+00	0	41	104	0	77	21709
2026-01-24 02:03:57.90	30.38	3.47	-53.5	-68.6	3.8	1.49e+00	0	42	104	0	77	21757
2026-01-24 02:03:58.91	30.34	3.54	-53.5	-68.5	3.8	1.49e+00	0	42	104	0	77	21673
2026-01-24 02:03:59.92	30.31	3.60	-53.5	-68.5	3.8	1.49e+00	0	42	104	0	77	21646
2026-01-24 02:04:00.93	30.28	3.67	-53.5	-68.5	3.8	1.49e+00	0	42	104	0	77	21622
2026-01-24 02:04:01.94	30.24	3.74	-53.5	-68.5	3.8	1.49e+00	0	42	104	0	77	21660
2026-01-24 02:04:02.94	30.21	3.80	-53.5	-68.5	3.8	1.49e+00	0	42	104	0	77	21681
2026-01-24 02:04:03.95	30.17	3.87	-53.5	-68.5	3.8	1.49e+00	0	42	104	0	77	21714
2026-01-24 02:04:04.96	30.14	3.94	-53.5	-68.5	3.8	1.49e+00	0	42	104	0	77	21668
2026-01-24 02:04:05.97	30.11	4.00	-53.5	-68.5	3.8	1.49e+00	0	42	104	0	77	21670
2026-01-24 02:04:06.98	30.07	4.07	-53.5	-68.5	3.8	1.49e+00	0	42	104	0	77	21699
2026-01-24 02:04:07.99	30.04	4.14	-53.5	-68.5	3.8	1.49e+00	0	42	104	0	77	21717
2026-01-24 02:04:09.00	30.00	4.21	-53.5	-68.5	3.8	1.49e+00	0	42	104	0	77	21696
2026-01-24 02:04:10.01	29.97	4.28	-53.5	-68.5	3.8	1.49e+00	0	42	104	0	77	21636
2026-01-24 02:04:11.02	29.93	4.34	-53.5	-68.5	3.8	1.49e+00	0	42	104	0	77	21683
2026-01-24 02:04:12.03	29.90	4.41	-53.5	-68.5	3.8	1.49e+00	0	42	104	0	77	21665
2026-01-24 02:04:13.04	29.86	4.48	-53.5	-68.5	3.8	1.49e+00	0	42	104	0	77	21644
2026-01-24 02:04:14.04	29.83	4.55	-53.5	-68.5	3.8	1.49e+00	0	42	104	0	77	21713
2026-01-24 02:04:15.05	29.79	4.62	-53.5	-68.5	3.8	1.49e+00	0	42	104	0	77	21661
2026-01-24 02:04:16.06	29.75	4.69	-53.5	-68.5	3.8	1.49e+00	0	42	104	0	77	21637
2026-01-24 02:04:17.07	29.72	4.75	-53.5	-68.5	3.8	1.49e+00	0	42	104	0	77	21651
2026-01-24 02:04:18.07	29.68	4.82	-53.5	-68.5	3.8	1.49e+00	0	42	104	0	77	21681
2026-01-24 02:04:19.08	29.64	4.89	-53.5	-68.5	3.8	1.49e+00	0	42	104	0	77	21584
2026-01-24 02:04:20.09	29.61	4.96	-53.5	-68.5	3.8	1.49e+00	0	42	104	0	77	21661
2026-01-24 02:04:21.10	29.57	5.03	-53.5	-68.5	3.8	1.49e+00	0	42	104	0	77	21632
2026-01-24 02:04:22.11	29.53	5.10	-53.5	-68.5	3.8	1.49e+00	0	42	104	0	77	21587
2026-01-24 02:04:23.12	29.50	5.17	-53.5	-68.5	3.8	1.49e+00	0	42	104	0	77	21624
2026-01-24 02:04:24.12	29.46	5.24	-53.5	-68.5	3.8	1.49e+00	0	42	104	0	77	21677
2026-01-24 02:04:25.13	29.42	5.31	-53.5	-68.5	3.8	1.49e+00	0	42	104	0	77	21627
2026-01-24 02:04:26.14	29.38	5.38	-53.5	-68.5	3.8	1.49e+00	0	42	104	0	77	21635
2026-01-24 02:04:27.15	29.34	5.45	-53.5	-68.5	3.8	1.49e+00	0	42	104	0	77	21659
2026-01-24 02:04:28.16	29.31	5.52	-53.5	-68.5	3.8	1.49e+00	0	42	104	0	77	21693
2026-01-24 02:04:29.16	29.27	5.59	-53.5	-68.5	3.8	1.49e+00	0	42	104	0	77	21674
2026-01-24 02:04:30.17	29.23	5.67	-53.5	-68.5	3.8	1.49e+00	0	42	104	0	77	21630
2026-01-24 02:04:31.18	29.19	5.74	-53.5	-68.5	3.8	1.49e+00	0	42	104	0	77	21607
2026-01-24 02:04:32.19	29.15	5.81	-53.5	-68.5	3.8	1.49e+00	0	42	104	0	77	21694
2026-01-24 02:04:33.19	29.11	5.88	-53.5	-68.5	3.8	1.49e+00	0	42	104	0	77	21660
2026-01-24 02:04:34.20	29.07	5.95	-53.5	-68.5	3.8	1.49e+00	0	42	104	0	77	21640
2026-01-24 02:04:35.21	29.03	6.02	-53.5	-68.5	3.8	1.49e+00	0	42	104	0	77	21648
2026-01-24 02:04:36.22	28.99	6.10	-53.5	-68.5	3.8	1.49e+00	0	42	104	0	77	21679
2026-01-24 02:04:37.23	28.95	6.17	-53.5	-68.5	3.8	1.49e+00	0	43	104	0	77	21675
2026-01-24 02:04:38.23	28.91	6.24	-53.5	-68.5	3.8	1.49e+00	0	43	104	0	77	21646
2026-01-24 02:04:39.24	28.87	6.31	-53.5	-68.5	3.8	1.49e+00	0	42	104	0	77	21659
2026-01-24 02:04:40.25	28.83	6.39	-53.5	-68.5	3.8	1.49e+00	0	42	104	0	77	21661
2026-01-24 02:04:41.26	28.79	6.46	-53.5	-68.5	3.8	1.49e+00	0	42	104	0	77	21695
2026-01-24 02:04:42.27	28.75	6.53	-53.5	-68.5	3.8	1.49e+00	0	42	104	0	77	21625
2026-01-24 02:04:43.28	28.70	6.61	-53.5	-68.5	3.8	1.49e+00	0	43	104	0	77	21659
2026-01-24 02:04:44.28	28.66	6.68	-53.5	-68.5	3.8	1.49e+00	0	43	104	0	77	21675
2026-01-24 02:04:45.29	28.62	6.75	-53.5	-68.5	3.8	1.49e+00	0	42	104	0	77	21660
2026-01-24 02:04:46.30	28.58	6.83	-53.5	-68.5	3.8	1.49e+00	0	42	104	0	77	21664
2026-01-24 02:04:47.31	28.53	6.90	-53.5	-68.5	3.8	1.49e+00	0	42	104	0	77	21604
2026-01-24 02:04:48.32	28.49	6.98	-53.5	-68.5	3.8	1.49e+00	0	43	104	0	77	21685
2026-01-24 02:04:49.32	28.45	7.05	-53.5	-68.5	3.8	1.49e+00	0	42	104	0	77	21650
2026-01-24 02:04:50.33	28.40	7.13	-53.5	-68.5	3.8	1.49e+00	0	43	104	0	77	21639
2026-01-24 02:04:51.34	28.36	7.20	-53.5	-68.5	3.8	1.49e+00	0	43	104	0	77	21679
2026-01-24 02:04:52.35	28.32	7.28	-53.5	-68.5	3.8	1.49e+00	0	43	104	0	77	21606
2026-01-24 02:04:53.36	28.27	7.35	-53.5	-68.5	3.8	1.49e+00	0	43	104	0	77	21668
2026-01-24 02:04:54.36	28.23	7.43	-53.5	-68.5	3.8	1.49e+00	0	42	104	0	77	21612
2026-01-24 02:04:55.37	28.18	7.50	-53.5	-68.5	3.8	1.49e+00	0	42	104	0	77	21601
2026-01-24 02:04:56.38	28.14	7.58	-53.5	-68.5	3.8	1.49e+00	0	43	104	0	77	21671
2026-01-24 02:04:57.39	28.09	7.66	-53.5	-68.5	3.8	1.49e+00	0	43	104	0	77	21688
2026-01-24 02:04:58.39	28.05	7.73	-53.5	-68.5	3.8	1.49e+00	0	43	104	0	77	21617
2026-01-24 02:04:59.40	28.00	7.81	-53.5	-68.5	3.8	1.49e+00	0	43	104	0	77	21682
2026-01-24 02:05:00.41	27.96	7.89	-53.5	-68.5	3.8	1.49e+00	0	43	104	0	77	21635
2026-01-24 02:05:01.42	27.91	7.96	-53.5	-68.5	3.8	1.49e+00	0	43	104	0	77	21617
2026-01-24 02:05:02.43	27.86	8.04	-53.5	-68.5	3.8	1.49e+00	0	43	104	0	77	21581
2026-01-24 02:05:03.43	27.82	8.12	-53.5	-68.5	3.8	1.49e+00	0	42	104	0	77	21593
2026-01-24 02:05:04.44	27.77	8.20	-53.5	-68.5	3.8	1.49e+00	0	43	104	0	77	21698
2026-01-24 02:05:05.45	27.72	8.28	-53.5	-68.5	3.8	1.49e+00	0	43	104	0	77	21694
2026-01-24 02:05:06.46	27.68	8.35	-53.5	-68.5	3.8	1.49e+00	0	43	104	0	77	21650
2026-01-24 02:05:07.47	27.63	8.43	-53.5	-68.5	3.8	1.49e+00	0	43	104	0	77	21632
2026-01-24 02:05:08.48	27.58	8.51	-53.5	-68.5	3.8	1.49e+00	0	43	104	0	77	21626
2026-01-24 02:05:09.49	27.53	8.59	-53.5	-68.5	3.8	1.49e+00	0	43	104	0	77	21641
2026-01-24 02:05:10.50	27.48	8.67	-53.5	-68.5	3.8	1.49e+00	0	43	104	0	77	21627
2026-01-24 02:05:11.51	27.43	8.75	-53.5	-68.5	3.8	1.49e+00	0	43	104	0	77	21625
2026-01-24 02:05:12.51	27.39	8.83	-53.5	-68.5	3.8	1.49e+00	0	43	104	0	77	21647
2026-01-24 02:05:13.52	27.34	8.91	-53.5	-68.5	3.8	1.49e+00	0	43	104	0	77	21654
2026-01-24 02:05:14.53	27.29	8.99	-53.5	-68.5	3.8	1.49e+00	0	43	104	0	77	21650
2026-01-24 02:05:15.54	27.24	9.07	-53.5	-68.5	3.8	1.49e+00	0	43	104	0	77	21672
2026-01-24 02:05:16.55	27.18	9.15	-53.5	-68.5	3.8	1.49e+00	0	43	104	0	77	21648
2026-01-24 02:05:17.56	27.13	9.23	-53.5	-68.5	3.8	1.49e+00	0	43	104	0	77	21682
2026-01-24 02:05:18.57	27.08	9.31	-53.5	-68.5	3.8	1.49e+00	0	43	104	0	77	21640
2026-01-24 02:05:19.58	27.03	9.39	-53.5	-68.5	3.8	1.49e+00	0	43	104	0	77	21640
2026-01-24 02:05:20.58	26.98	9.48	-53.5	-68.5	3.8	1.49e+00	0	43	104	0	77	21606
2026-01-24 02:05:21.59	26.93	9.56	-53.5	-68.5	3.8	1.49e+00	0	43	104	0	77	21661
2026-01-24 02:05:22.60	26.88	9.64	-53.5	-68.5	3.8	1.49e+00	0	43	104	0	77	21698
2026-01-24 02:05:23.61	26.82	9.72	-53.5	-68.5	3.8	1.49e+00	0	43	104	0	77	21620
2026-01-24 02:05:24.62	26.77	9.80	-53.5	-68.5	3.8	1.49e+00	0	43	104	0	77	21616
2026-01-24 02:05:25.62	26.72	9.89	-53.5	-68.5	3.8	1.49e+00	0	43	104	0	77	21636
2026-01-24 02:05:26.63	26.66	9.97	-53.5	-68.5	3.8	1.49e+00	0	43	104	0	77	21598
2026-01-24 02:05:27.64	26.61	10.05	-53.5	-68.5	3.8	1.49e+00	0	43	104	0	77	21609
2026-01-24 02:05:28.65	26.56	10.14	-53.5	-68.5	3.8	1.49e+00	0	43	104	0	77	21671
2026-01-24 02:05:29.65	26.50	10.22	-53.5	-68.5	3.8	1.49e+00	0	43	104	0	77	21617
2026-01-24 02:05:30.66	26.45	10.30	-53.5	-68.5	3.8	1.49e+00	0	43	104	0	77	21618
2026-01-24 02:05:31.67	26.39	10.39	-53.5	-68.5	3.8	1.49e+00	0	43	104	0	77	21619
2026-01-24 02:05:32.68	26.34	10.47	-53.5	-68.5	3.8	1.49e+00	0	43	104	0	77	21592
2026-01-24 02:05:33.69	26.28	10.56	-53.5	-68.5	3.8	1.49e+00	0	43	104	0	77	21668
2026-01-24 02:05:34.70	26.22	10.64	-53.5	-68.5	3.8	1.49e+00	0	43	104	0	77	21634
2026-01-24 02:05:35.71	26.17	10.73	-53.5	-68.5	3.8	1.49e+00	0	43	104	0	77	21628
2026-01-24 02:05:36.72	26.11	10.82	-53.5	-68.5	3.8	1.49e+00	0	43	104	0	77	21601
2026-01-24 02:05:37.72	26.05	10.90	-53.5	-68.5	3.8	1.49e+00	0	43	104	0	77	21663
2026-01-24 02:05:38.73	25.99	10.99	-53.5	-68.5	3.8	1.49e+00	0	43	104	0	77	21677
2026-01-24 02:05:39.74	25.94	11.07	-53.5	-68.5	3.8	1.49e+00	0	43	104	0	77	21607
2026-01-24 02:05:40.75	25.88	11.16	-53.5	-68.5	3.8	1.49e+00	0	43	104	0	77	21699
2026-01-24 02:05:41.75	25.82	11.25	-53.5	-68.5	3.8	1.49e+00	0	43	104	0	77	21670
2026-01-24 02:05:42.76	25.76	11.33	-53.5	-68.5	3.8	1.49e+00	0	43	104	0	77	21575
2026-01-24 02:05:43.77	25.70	11.42	-53.5	-68.5	3.8	1.49e+00	0	43	104	0	77	21638
2026-01-24 02:05:44.78	25.64	11.51	-53.5	-68.5	3.8	1.49e+00	0	43	104	0	77	21609
2026-01-24 02:05:45.79	25.58	11.60	-53.5	-68.5	3.8	1.49e+00	0	43	104	0	77	21641
2026-01-24 02:05:46.79	25.52	11.69	-53.5	-68.5	3.8	1.49e+00	0	43	104	0	77	21644
2026-01-24 02:05:47.80	25.46	11.78	-53.5	-68.5	3.8	1.49e+00	0	43	104	0	77	21619
2026-01-24 02:05:48.81	25.40	11.86	-53.5	-68.5	3.8	1.49e+00	0	43	104	0	77	21584
2026-01-24 02:05:49.82	25.34	11.95	-53.5	-68.5	3.8	1.49e+00	0	43	104	0	77	21619
2026-01-24 02:05:50.83	25.27	12.04	-53.5	-68.5	3.8	1.49e+00	0	43	104	0	77	21619
2026-01-24 02:05:51.84	25.21	12.13	-53.5	-68.5	3.8	1.49e+00	0	43	104	0	77	21581
2026-01-24 02:05:52.84	25.15	12.22	-53.5	-68.5	3.8	1.49e+00	0	43	104	0	77	21649
2026-01-24 02:05:53.85	25.08	12.31	-53.5	-68.5	3.8	1.49e+00	0	43	104	0	77	21578
2026-01-24 02:05:54.86	25.02	12.40	-53.5	-68.5	3.8	1.49e+00	0	43	104	0	77	21619
2026-01-24 02:05:55.87	24.96	12.50	-53.5	-68.5	3.8	1.49e+00	0	43	104	0	77	21647
2026-01-24 02:05:56.87	24.89	12.59	-53.5	-68.5	3.8	1.49e+00	0	43	104	0	77	21623
2026-01-24 02:05:57.88	24.83	12.68	-53.5	-68.5	3.8	1.49e+00	0	43	104	0	77	21613
2026-01-24 02:05:58.89	24.76	12.77	-53.5	-68.5	3.8	1.49e+00	0	43	104	0	77	21579
2026-01-24 02:05:59.90	24.69	12.86	-53.5	-68.5	3.8	1.49e+00	0	43	104	0	77	21650
2026-01-24 02:06:00.91	24.63	12.96	-53.5	-68.5	3.8	1.49e+00	0	43	104	0	77	21577
2026-01-24 02:06:01.91	24.56	13.05	-53.5	-68.5	3.8	1.49e+00	0	43	104	0	77	21582
2026-01-24 02:06:02.92	24.49	13.14	-53.5	-68.5	3.8	1.49e+00	0	43	104	0	77	21660
2026-01-24 02:06:03.93	24.43	13.24	-53.5	-68.5	3.8	1.49e+00	0	43	104	0	77	21668
2026-01-24 02:06:04.94	24.36	13.33	-53.5	-68.5	3.8	1.49e+00	0	43	104	0	77	21613
2026-01-24 02:06:05.95	24.29	13.42	-53.5	-68.5	3.8	1.49e+00	0	43	104	0	77	21601
2026-01-24 02:06:06.96	24.22	13.52	-53.5	-68.5	3.8	1.49e+00	0	43	104	0	77	21620
2026-01-24 02:06:07.97	24.15	13.61	-53.5	-68.5	3.8	1.49e+00	0	43	104	0	77	21643
2026-01-24 02:06:08.98	24.08	13.71	-53.5	-68.5	3.8	1.49e+00	0	43	104	0	77	21609
2026-01-24 02:06:09.99	24.01	13.80	-53.5	-68.5	3.8	1.49e+00	0	43	104	0	77	21583
2026-01-24 02:06:11.00	23.94	13.90	-53.5	-68.5	3.8	1.49e+00	0	43	104	0	77	21630
2026-01-24 02:06:12.01	23.86	14.00	-53.5	-68.5	3.8	1.49e+00	0	43	104	0	77	21628
2026-01-24 02:06:13.02	23.79	14.09	-53.5	-68.5	3.8	1.49e+00	0	43	104	0	77	21590
2026-01-24 02:06:14.03	23.72	14.19	-53.5	-68.5	3.8	1.49e+00	0	43	104	0	77	21562
2026-01-24 02:06:15.04	23.65	14.29	-53.5	-68.5	3.8	1.49e+00	0	43	104	0	77	21563
2026-01-24 02:06:16.04	23.57	14.38	-53.5	-68.5	3.8	1.49e+00	0	43	104	0	77	21603
2026-01-24 02:06:17.05	23.50	14.48	-53.5	-68.5	3.8	1.49e+00	0	43	104	0	77	21593
2026-01-24 02:06:18.06	23.42	14.58	-53.5	-68.5	3.8	1.49e+00	0	43	104	0	77	21655
2026-01-24 02:06:19.07	23.35	14.68	-53.5	-68.5	3.8	1.49e+00	0	43	104	0	77	21631
2026-01-24 02:06:20.08	23.27	14.78	-53.5	-68.5	3.8	1.49e+00	0	43	104	0	77	21633
2026-01-24 02:06:21.09	23.20	14.88	-53.5	-68.5	3.8	1.49e+00	0	43	104	0	77	21669
2026-01-24 02:06:22.10	23.12	14.98	-53.5	-68.5	3.8	1.49e+00	0	43	104	0	77	21598
2026-01-24 02:06:23.11	23.04	15.08	-53.5	-68.5	3.8	1.49e+00	0	43	104	0	77	21612
2026-01-24 02:06:24.12	22.97	15.18	-53.5	-68.5	3.8	1.49e+00	0	43	104	0	77	21632
2026-01-24 02:06:25.13	22.89	15.28	-53.5	-68.5	3.8	1.49e+00	0	43	104	0	77	21600
2026-01-24 02:06:26.14	22.81	15.38	-53.5	-68.5	3.8	1.49e+00	0	43	104	0	77	21575
2026-01-24 02:06:27.15	22.73	15.48	-53.5	-68.5	3.8	1.49e+00	0	43	104	0	77	21639
2026-01-24 02:06:28.15	22.65	15.58	-53.5	-68.5	3.8	1.49e+00	0	43	104	0	77	21614
2026-01-24 02:06:29.16	22.57	15.69	-53.5	-68.5	3.8	1.49e+00	0	43	104	0	77	21661
2026-01-24 02:06:30.17	22.49	15.79	-53.5	-68.5	3.8	1.49e+00	0	43	104	0	77	21672
2026-01-24 02:06:31.18	22.40	15.89	-53.5	-68.5	3.8	1.49e+00	0	43	104	0	77	21674
2026-01-24 02:06:32.19	22.32	15.99	-53.5	-68.5	3.8	1.49e+00	0	43	104	0	77	21637
2026-01-24 02:06:33.19	22.24	16.10	-53.5	-68.5	3.8	1.49e+00	0	43	104	0	77	21673
2026-01-24 02:06:34.20	22.16	16.20	-53.5	-68.5	3.8	1.49e+00	0	43	104	0	77	21633
2026-01-24 02:06:35.21	22.07	16.31	-53.5	-68.5	3.8	1.49e+00	0	43	104	0	77	21583
2026-01-24 02:06:36.21	21.99	16.41	-53.5	-68.5	3.8	1.49e+00	0	43	104	0	77	21616
2026-01-24 02:06:37.22	21.90	16.51	-53.5	-68.5	3.8	1.49e+00	0	43	104	0	77	21660
2026-01-24 02:06:38.23	21.82	16.62	-53.5	-68.5	3.8	1.49e+00	0	43	104	0	77	21608
2026-01-24 02:06:39.24	21.73	16.73	-53.5	-68.5	3.8	1.49e+00	0	43	104	0	77	21619
2026-01-24 02:06:40.25	21.64	16.83	-53.5	-68.5	3.8	1.49e+00	0	43	104	0	77	21597
2026-01-24 02:06:41.26	21.55	16.94	-53.5	-68.5	3.8	1.49e+00	0	43	104	0	77	21617
2026-01-24 02:06:42.27	21.46	17.05	-53.5	-68.5	3.8	1.49e+00	0	43	104	0	77	21686
2026-01-24 02:06:43.28	21.37	17.15	-53.5	-68.5	3.8	1.49e+00	0	43	104	0	77	21631
2026-01-24 02:06:44.28	21.29	17.26	-53.5	-68.5	3.8	1.49e+00	0	43	104	0	77	21598
2026-01-24 02:06:45.29	21.19	17.37	-53.5	-68.5	3.8	1.49e+00	0	43	104	0	77	21624
2026-01-24 02:06:46.30	21.10	17.48	-53.5	-68.5	3.8	1.49e+00	0	43	104	0	77	21621
2026-01-24 02:06:47.31	21.01	17.59	-53.5	-68.5	3.8	1.49e+00	0	43	104	0	77	21634
2026-01-24 02:06:48.32	20.92	17.70	-53.5	-68.5	3.8	1.49e+00	0	43	104	0	77	21628
2026-01-24 02:06:49.32	20.83	17.81	-53.5	-68.5	3.8	1.49e+00	0	43	104	0	77	21605
2026-01-24 02:06:50.33	20.73	17.92	-53.5	-68.5	3.8	1.49e+00	0	43	104	0	77	21599
2026-01-24 02:06:51.34	20.64	18.03	-53.5	-68.5	3.8	1.49e+00	0	43	104	0	77	21600
2026-01-24 02:06:52.35	20.54	18.14	-53.5	-68.5	3.8	1.49e+00	0	43	104	0	77	21635
2026-01-24 02:06:53.36	20.44	18.25	-53.5	-68.5	3.8	1.49e+00	0	43	104	0	77	21637
2026-01-24 02:06:54.37	20.35	18.36	-53.5	-68.5	3.8	1.49e+00	0	43	104	0	77	21655
2026-01-24 02:06:55.37	20.25	18.47	-53.5	-68.5	3.8	1.49e+00	0	43	104	0	77	21650
2026-01-24 02:06:56.38	20.15	18.59	-53.5	-68.5	3.8	1.49e+00	0	43	104	0	77	21653
2026-01-24 02:06:57.39	20.05	18.70	-53.5	-68.5	3.8	1.49e+00	0	43	104	0	77	21598
2026-01-24 02:06:58.40	19.95	18.82	-53.5	-68.5	3.8	1.49e+00	0	43	104	0	77	21637
2026-01-24 02:06:59.41	19.85	18.93	-53.5	-68.5	3.8	1.49e+00	0	43	104	0	77	21696
2026-01-24 02:07:00.42	19.75	19.04	-53.5	-68.5	3.8	1.49e+00	0	43	104	0	77	21669
2026-01-24 02:07:01.42	19.65	19.16	-53.5	-68.5	3.8	1.49e+00	0	43	104	0	77	21641
2026-01-24 02:07:02.43	19.54	19.27	-53.5	-68.5	3.8	1.49e+00	0	43	104	0	77	21665
2026-01-24 02:07:03.44	19.44	19.39	-53.5	-68.5	3.8	1.49e+00	0	43	104	0	77	21633
2026-01-24 02:07:04.45	19.34	19.51	-53.5	-68.5	3.8	1.49e+00	0	43	104	0	77	21625
2026-01-24 02:07:05.46	19.23	19.62	-53.5	-68.5	3.8	1.49e+00	0	43	104	0	77	21592
2026-01-24 02:07:06.47	19.12	19.74	-53.5	-68.5	3.8	1.49e+00	0	43	104	0	77	21672
2026-01-24 02:07:07.48	19.02	19.86	-53.5	-68.5	3.8	1.49e+00	0	43	104	0	77	21634
2026-01-24 02:07:08.48	18.91	19.98	-53.5	-68.5	3.8	1.49e+00	0	43	104	0	77	21655
2026-01-24 02:07:09.49	18.80	20.09	-53.5	-68.5	3.8	1.49e+00	0	43	104	0	77	21660
2026-01-24 02:07:10.50	18.69	20.21	-53.5	-68.5	3.8	1.49e+00	0	43	104	0	77	21671
2026-01-24 02:07:11.51	18.58	20.33	-53.5	-68.5	3.8	1.49e+00	0	43	104	0	77	21619
2026-01-24 02:07:12.52	18.47	20.45	-53.5	-68.5	3.8	1.49e+00	0	43	104	0	77	21629
2026-01-24 02:07:13.53	18.35	20.57	-53.5	-68.5	3.8	1.49e+00	0	43	104	0	77	21634
2026-01-24 02:07:14.53	18.24	20.69	-53.5	-68.5	3.8	1.49e+00	0	43	104	0	77	21681
2026-01-24 02:07:15.54	18.13	20.81	-53.5	-68.5	3.8	1.49e+00	0	43	104	0	77	21610
2026-01-24 02:07:16.55	18.01	20.94	-53.5	-68.5	3.8	1.49e+00	0	43	104	0	77	21648
2026-01-24 02:07:17.56	17.89	21.06	-53.5	-68.5	3.8	1.49e+00	0	43	104	0	77	21626
2026-01-24 02:07:18.57	17.78	21.18	-53.5	-68.5	3.8	1.49e+00	0	43	104	0	77	21594
2026-01-24 02:07:19.58	17.66	21.30	-53.5	-68.5	3.8	1.49e+00	0	43	104	0	77	21636
2026-01-24 02:07:20.59	17.54	21.43	-53.5	-68.5	3.8	1.49e+00	0	43	104	0	77	21551
2026-01-24 02:07:21.60	17.42	21.55	-53.5	-68.5	3.8	1.49e+00	0	43	104	0	77	21543
2026-01-24 02:07:22.60	17.30	21.68	-53.5	-68.5	3.8	1.49e+00	0	43	104	0	77	21571
2026-01-24 02:07:23.61	17.17	21.80	-53.5	-68.5	3.8	1.49e+00	0	43	104	0	77	21669
2026-01-24 02:07:24.62	17.05	21.93	-53.5	-68.5	3.8	1.49e+00	0	43	104	0	77	21650
2026-01-24 02:07:25.63	16.93	22.05	-53.5	-68.5	3.8	1.49e+00	0	43	104	0	77	21574
2026-01-24 02:07:26.64	16.80	22.18	-53.5	-68.5	3.8	1.49e+00	0	43	104	0	77	21588
2026-01-24 02:07:27.65	16.67	22.31	-53.5	-68.5	3.8	1.49e+00	0	43	104	0	77	21588
2026-01-24 02:07:28.66	16.55	22.43	-53.5	-68.5	3.8	1.49e+00	0	43	104	0	77	21617
2026-01-24 02:07:29.67	16.42	22.56	-53.5	-68.5	3.8	1.49e+00	0	43	104	0	77	21627
2026-01-24 02:07:30.67	16.29	22.69	-53.5	-68.5	3.8	1.49e+00	0	43	104	0	77	21569
2026-01-24 02:07:31.68	16.16	22.82	-53.5	-68.5	3.8	1.49e+00	0	43	104	0	77	21588
2026-01-24 02:07:32.69	16.03	22.95	-53.5	-68.5	3.8	1.49e+00	0	43	104	0	77	21597
2026-01-24 02:07:33.70	15.89	23.08	-53.5	-68.5	3.8	1.49e+00	0	43	104	0	77	21632
2026-01-24 02:07:34.71	15.76	23.21	-53.5	-68.5	3.8	1.49e+00	0	43	104	0	77	21607
2026-01-24 02:07:35.72	15.62	23.34	-53.5	-68.5	3.8	1.49e+00	0	43	104	0	77	21590
2026-01-24 02:07:36.73	15.49	23.47	-53.5	-68.5	3.8	1.49e+00	0	43	104	0	77	21624
2026-01-24 02:07:37.73	15.35	23.60	-53.5	-68.5	3.8	1.49e+00	0	43	104	0	77	21624
2026-01-24 02:07:38.74	15.21	23.73	-53.5	-68.5	3.8	1.49e+00	0	43	104	0	77	21616
2026-01-24 02:07:39.75	15.07	23.87	-53.5	-68.5	3.8	1.49e+00	0	43	104	0	77	21621
2026-01-24 02:07:40.76	14.93	24.00	-53.5	-68.5	3.8	1.49e+00	0	43	104	0	77	21624
2026-01-24 02:07:41.77	14.79	24.13	-53.5	-68.5	3.8	1.49e+00	0	43	104	0	77	21618
2026-01-24 02:07:42.78	14.64	24.27	-53.5	-68.5	3.8	1.49e+00	0	43	104	0	77	21596
2026-01-24 02:07:43.78	14.50	24.40	-53.5	-68.5	3.8	1.49e+00	0	43	104	0	77	21571
2026-01-24 02:07:44.79	14.35	24.54	-53.5	-68.5	3.8	1.49e+00	0	43	104	0	77	21652
2026-01-24 02:07:45.80	14.21	24.67	-53.5	-68.5	3.8	1.49e+00	0	43	104	0	77	21577
2026-01-24 02:07:46.81	14.06	24.81	-53.5	-68.5	3.8	1.49e+00	0	43	104	0	77	21600
2026-01-24 02:07:47.82	13.91	24.95	-53.5	-68.5	3.8	1.49e+00	0	43	104	0	77	21614
2026-01-24 02:07:48.82	13.76	25.08	-53.5	-68.5	3.8	1.49e+00	0	43	104	0	77	21608
2026-01-24 02:07:49.83	13.60	25.22	-53.5	-68.5	3.8	1.49e+00	0	43	104	0	77	21562
2026-01-24 02:07:50.84	13.45	25.36	-53.5	-68.5	3.8	1.49e+00	0	43	104	0	77	21602
2026-01-24 02:07:51.85	13.29	25.50	-53.5	-68.5	3.8	1.49e+00	0	43	104	0	77	21603
2026-01-24 02:07:52.86	13.14	25.64	-53.5	-68.5	3.8	1.49e+00	0	43	104	0	77	21580
2026-01-24 02:07:53.86	12.98	25.77	-53.5	-68.5	3.8	1.49e+00	0	43	104	0	77	21584
2026-01-24 02:07:54.87	12.82	25.91	-53.5	-68.5	3.8	1.49e+00	0	43	104	0	77	21604
2026-01-24 02:07:55.88	12.66	26.05	-53.5	-68.5	3.8	1.49e+00	0	43	104	0	77	21610
2026-01-24 02:07:56.89	12.49	26.20	-53.5	-68.5	3.8	1.49e+00	0	43	104	0	77	21580
2026-01-24 02:07:57.90	12.33	26.34	-53.5	-68.5	3.8	1.49e+00	0	43	104	0	77	21574
2026-01-24 02:07:58.91	12.16	26.48	-53.5	-68.5	3.8	1.49e+00	0	43	104	0	77	21617
2026-01-24 02:07:59.92	12.00	26.62	-53.5	-68.5	3.8	1.49e+00	0	43	104	0	77	21599
2026-01-24 02:08:00.93	11.83	26.76	-53.5	-68.5	3.8	1.49e+00	0	43	104	0	77	21646
2026-01-24 02:08:01.93	11.66	26.91	-53.5	-68.5	3.8	1.49e+00	0	43	104	0	77	21651
2026-01-24 02:08:02.94	11.49	27.05	-53.5	-68.5	3.8	1.49e+00	0	43	104	0	77	21677
2026-01-24 02:08:03.95	11.31	27.20	-53.5	-68.5	3.8	1.49e+00	0	43	104	0	77	21671
2026-01-24 02:08:04.96	11.14	27.34	-53.5	-68.5	3.8	1.49e+00	0	43	104	0	77	21644
2026-01-24 02:08:05.97	10.96	27.49	-53.5	-68.5	3.8	1.49e+00	0	43	104	0	77	21581
2026-01-24 02:08:06.98	10.78	27.63	-53.5	-68.5	3.8	1.49e+00	0	43	104	0	77	21596
2026-01-24 02:08:07.99	10.60	27.78	-53.5	-68.5	3.8	1.49e+00	0	43	104	0	77	21619
2026-01-24 02:08:08.99	10.42	27.92	-53.5	-68.5	3.8	1.49e+00	0	43	104	0	77	21619
2026-01-24 02:08:10.00	10.24	28.07	-53.5	-68.5	3.8	1.49e+00	0	43	104	0	77	21563
2026-01-24 02:08:11.01	10.05	28.22	-53.5	-68.5	3.8	1.49e+00	0	43	104	0	77	21601
2026-01-24 02:08:12.02	9.86	28.37	-53.5	-68.5	3.8	1.49e+00	0	43	104	0	77	21679
2026-01-24 02:08:13.03	9.67	28.51	-53.5	-68.5	3.8	1.49e+00	0	43	104	0	77	21608
2026-01-24 02:08:14.04	9.48	28.66	-53.5	-68.5	3.8	1.49e+00	0	43	104	0	77	21629
2026-01-24 02:08:15.05	9.29	28.81	-53.5	-68.5	3.8	1.49e+00	0	43	104	0	77	21628
2026-01-24 02:08:16.06	9.10	28.96	-53.5	-68.5	3.8	1.49e+00	0	43	104	0	77	21645
2026-01-24 02:08:17.07	8.90	29.11	-53.5	-68.5	3.8	1.49e+00	0	43	104	0	77	21592
2026-01-24 02:08:18.07	8.70	29.26	-53.5	-68.5	3.8	1.49e+00	0	43	104	0	77	21668
2026-01-24 02:08:19.08	8.50	29.41	-53.5	-68.5	3.8	1.49e+00	0	43	104	0	77	21611
2026-01-24 02:08:20.09	8.30	29.57	-53.5	-68.5	3.8	1.49e+00	0	43	104	0	77	21582
2026-01-24 02:08:21.10	8.10	29.72	-53.5	-68.5	3.8	1.49e+00	0	43	104	0	77	21650
2026-01-24 02:08:22.11	7.89	29.87	-53.5	-68.5	3.8	1.49e+00	0	43	104	0	77	21599
2026-01-24 02:08:23.12	7.68	30.02	-53.5	-68.5	3.8	1.49e+00	0	43	104	0	77	21627
2026-01-24 02:08:24.12	7.48	30.17	-53.5	-68.5	3.8	1.49e+00	0	43	104	0	77	21656
2026-01-24 02:08:25.13	7.26	30.33	-53.5	-68.5	3.8	1.49e+00	0	43	104	0	77	21626
2026-01-24 02:08:26.14	7.05	30.48	-53.5	-68.5	3.8	1.49e+00	0	43	104	0	77	21655
2026-01-24 02:08:27.15	6.83	30.64	-53.5	-68.5	3.8	1.49e+00	0	44	104	0	77	21648
2026-01-24 02:08:28.16	6.62	30.79	-53.5	-68.5	3.8	1.49e+00	0	43	104	0	77	21661
2026-01-24 02:08:29.16	6.40	30.94	-53.5	-68.5	3.8	1.49e+00	0	43	104	0	77	21658
2026-01-24 02:08:30.17	6.18	31.10	-53.5	-68.5	3.8	1.49e+00	0	43	104	0	77	21663
2026-01-24 02:08:31.18	5.95	31.25	-53.5	-68.5	3.8	1.49e+00	0	43	104	0	77	21599
2026-01-24 02:08:32.19	5.72	31.41	-53.5	-68.5	3.8	1.49e+00	0	43	104	0	77	21682
2026-01-24 02:08:33.20	5.50	31.57	-53.5	-68.5	3.8	1.49e+00	0	43	104	0	77	21562
2026-01-24 02:08:34.20	5.27	31.72	-53.5	-68.5	3.8	1.49e+00	0	43	104	0	77	21626
2026-01-24 02:08:35.21	5.03	31.88	-53.5	-68.5	3.8	1.49e+00	0	43	104	0	77	21573
2026-01-24 02:08:36.22	4.80	32.04	-53.5	-68.5	3.8	1.49e+00	0	43	104	0	77	21652
2026-01-24 02:08:37.23	4.56	32.19	-53.5	-68.5	3.8	1.49e+00	0	43	104	0	77	21611
2026-01-24 02:08:38.23	4.32	32.35	-53.5	-68.5	3.8	1.49e+00	0	43	104	0	77	21628
2026-01-24 02:08:39.24	4.08	32.51	-53.5	-68.5	3.8	1.49e+00	0	43	104	0	77	21640
2026-01-24 02:08:40.25	3.83	32.66	-53.5	-68.5	3.8	1.49e+00	0	43	104	0	77	21580
2026-01-24 02:08:41.26	3.59	32.82	-53.5	-68.5	3.8	1.49e+00	0	43	104	0	77	21624
2026-01-24 02:08:42.26	3.34	32.98	-53.5	-68.5	3.8	1.49e+00	0	43	104	0	77	21596
2026-01-24 02:08:43.27	3.08	33.14	-53.5	-68.5	3.8	1.49e+00	0	43	104	0	77	21593
2026-01-24 02:08:44.28	2.83	33.30	-53.5	-68.5	3.8	1.49e+00	0	43	104	0	77	21582
2026-01-24 02:08:45.29	2.57	33.46	-53.5	-68.5	3.8	1.49e+00	0	43	104	0	77	21661
2026-01-24 02:08:46.30	2.31	33.62	-53.5	-68.5	3.8	1.49e+00	0	43	104	0	77	21614
2026-01-24 02:08:47.31	2.05	33.78	-53.5	-68.5	3.8	1.49e+00	0	43	104	0	77	21623
2026-01-24 02:08:48.31	1.79	33.93	-53.5	-68.5	3.8	1.49e+00	0	43	104	0	77	21624
2026-01-24 02:08:49.32	1.52	34.09	-53.5	-68.5	3.8	1.49e+00	0	43	104	0	77	21563
2026-01-24 02:08:50.32	1.25	34.25	-53.5	-68.5	3.8	1.49e+00	0	43	104	0	77	21579
2026-01-24 02:08:51.33	0.98	34.41	-53.5	-68.5	3.8	1.49e+00	0	43	104	0	77	21652
2026-01-24 02:08:52.34	0.70	34.57	-53.5	-68.5	3.8	1.49e+00	0	43	104	0	77	21567
2026-01-24 02:08:53.35	0.42	34.73	-53.5	-68.5	3.8	1.49e+00	0	43	104	0	77	21591
2026-01-24 02:08:54.36	0.14	34.89	-53.5	-68.5	3.8	1.49e+00	0	43	104	0	77	21620
2026-01-24 02:08:55.37	359.86	35.05	-53.5	-68.5	3.8	1.49e+00	0	43	104	0	77	21583
2026-01-24 02:08:56.38	359.57	35.21	-53.5	-68.5	3.8	1.49e+00	0	43	104	0	77	21610
2026-01-24 02:08:57.38	359.28	35.37	-53.5	-68.5	3.8	1.49e+00	0	43	104	0	77	21631
2026-01-24 02:08:58.39	358.99	35.53	-53.5	-68.5	3.8	1.49e+00	0	43	104	0	77	21617
2026-01-24 02:08:59.40	358.69	35.69	-53.5	-68.5	3.8	1.49e+00	0	43	104	0	77	21609
2026-01-24 02:09:00.41	358.39	35.85	-53.5	-68.5	3.8	1.49e+00	0	43	104	0	77	21627
2026-01-24 02:09:01.42	358.09	36.01	-53.5	-68.5	3.8	1.49e+00	0	43	104	0	77	21611
2026-01-24 02:09:02.42	357.79	36.17	-53.5	-68.5	3.8	1.49e+00	0	43	104	0	77	21589
2026-01-24 02:09:03.43	357.48	36.33	-53.5	-68.5	3.8	1.49e+00	0	43	104	0	77	21664
2026-01-24 02:09:04.44	357.17	36.48	-53.5	-68.5	3.8	1.49e+00	0	43	104	0	77	21619
2026-01-24 02:09:05.45	356.86	36.64	-53.5	-68.5	3.8	1.49e+00	0	43	104	0	77	21655
2026-01-24 02:09:06.46	356.54	36.80	-53.5	-68.5	3.8	1.49e+00	0	43	104	0	77	21579
2026-01-24 02:09:07.47	356.22	36.96	-53.5	-68.5	3.8	1.49e+00	0	43	104	0	77	21590
2026-01-24 02:09:08.48	355.90	37.12	-53.5	-68.5	3.8	1.49e+00	0	43	104	0	77	21593
2026-01-24 02:09:09.48	355.57	37.28	-53.5	-68.5	3.8	1.49e+00	0	43	104	0	77	21612
2026-01-24 02:09:10.49	355.24	37.43	-53.5	-68.5	3.8	1.49e+00	0	43	104	0	77	21590
2026-01-24 02:09:11.49	354.91	37.59	-53.5	-68.5	3.8	1.49e+00	0	43	104	0	77	21653
2026-01-24 02:09:12.50	354.58	37.75	-53.5	-68.5	3.8	1.49e+00	0	43	104	0	77	21627
2026-01-24 02:09:13.51	354.24	37.90	-53.5	-68.5	3.8	1.49e+00	0	43	104	0	77	21564
2026-01-24 02:09:14.52	353.89	38.06	-53.5	-68.5	3.8	1.49e+00	0	43	104	0	77	21625
2026-01-24 02:09:15.53	353.55	38.21	-53.5	-68.5	3.8	1.49e+00	0	43	104	0	77	21623
2026-01-24 02:09:16.54	353.20	38.37	-53.5	-68.5	3.8	1.49e+00	0	44	104	0	77	21610
2026-01-24 02:09:17.55	352.85	38.52	-53.5	-68.5	3.8	1.49e+00	0	43	104	0	77	21584
2026-01-24 02:09:18.55	352.49	38.68	-53.5	-68.5	3.8	1.49e+00	0	43	104	0	77	21644
2026-01-24 02:09:19.56	352.13	38.83	-53.5	-68.5	3.8	1.49e+00	0	43	104	0	77	21579
2026-01-24 02:09:20.57	351.77	38.98	-53.5	-68.5	3.8	1.49e+00	0	43	104	0	77	21637
2026-01-24 02:09:21.58	351.40	39.13	-53.5	-68.5	3.8	1.49e+00	0	43	104	0	77	21600
2026-01-24 02:09:22.59	351.03	39.29	-53.5	-68.5	3.8	1.49e+00	0	43	104	0	77	21596
2026-01-24 02:09:23.60	350.66	39.44	-53.5	-68.5	3.8	1.49e+00	0	43	104	0	77	21594
2026-01-24 02:09:24.61	350.28	39.59	-53.5	-68.5	3.8	1.49e+00	0	43	104	0	77	21622
2026-01-24 02:09:25.62	349.90	39.74	-53.5	-68.5	3.8	1.49e+00	0	43	104	0	77	21601
2026-01-24 02:09:26.63	349.52	39.88	-53.5	-68.5	3.8	1.49e+00	0	43	104	0	77	21578
2026-01-24 02:09:27.64	349.13	40.03	-53.5	-68.5	3.8	1.49e+00	0	43	104	0	77	21573
2026-01-24 02:09:28.64	348.75	40.18	-53.5	-68.5	3.8	1.49e+00	0	43	104	0	77	21592
2026-01-24 02:09:29.65	348.35	40.32	-53.5	-68.5	3.8	1.49e+00	0	43	104	0	77	21624
2026-01-24 02:09:30.66	347.95	40.47	-53.5	-68.5	3.8	1.49e+00	0	43	104	0	77	21611
2026-01-24 02:09:31.67	347.55	40.61	-53.5	-68.5	3.8	1.49e+00	0	43	104	0	77	21609
2026-01-24 02:09:32.67	347.15	40.75	-53.5	-68.5	3.8	1.49e+00	0	43	104	0	77	21620
2026-01-24 02:09:33.68	346.74	40.89	-53.5	-68.5	3.8	1.49e+00	0	43	104	0	77	21647
2026-01-24 02:09:34.69	346.33	41.04	-53.5	-68.5	3.8	1.49e+00	0	43	104	0	77	21619
2026-01-24 02:09:35.70	345.91	41.17	-53.5	-68.5	3.8	1.49e+00	0	43	104	0	77	21625
2026-01-24 02:09:36.71	345.49	41.31	-53.5	-68.5	3.8	1.49e+00	0	43	104	0	77	21610
2026-01-24 02:09:37.72	345.07	41.45	-53.5	-68.5	3.8	1.49e+00	0	43	104	0	77	21613
2026-01-24 02:09:38.73	344.64	41.59	-53.5	-68.5	3.8	1.49e+00	0	43	104	0	77	21650
2026-01-24 02:09:39.74	344.21	41.72	-53.5	-68.5	3.8	1.49e+00	0	43	104	0	77	21639
2026-01-24 02:09:40.75	343.78	41.85	-53.5	-68.5	3.8	1.49e+00	0	43	104	0	77	21626
2026-01-24 02:09:41.76	343.34	41.98	-53.5	-68.5	3.8	1.49e+00	0	43	104	0	77	21636
2026-01-24 02:09:42.76	342.90	42.11	-53.5	-68.5	3.8	1.49e+00	0	43	104	0	77	21584
2026-01-24 02:09:43.77	342.46	42.24	-53.5	-68.5	3.8	1.49e+00	0	43	104	0	77	21620
2026-01-24 02:09:44.78	342.01	42.37	-53.5	-68.5	3.8	1.49e+00	0	43	104	0	77	21583
2026-01-24 02:09:45.79	341.56	42.49	-53.5	-68.5	3.8	1.49e+00	0	43	104	0	77	21562
2026-01-24 02:09:46.80	341.10	42.62	-53.5	-68.5	3.8	1.49e+00	0	43	104	0	77	21580
2026-01-24 02:09:47.81	340.64	42.74	-53.5	-68.5	3.8	1.49e+00	0	43	104	0	77	21523
2026-01-24 02:09:48.82	340.18	42.86	-53.5	-68.5	3.8	1.49e+00	0	43	104	0	77	21577
2026-01-24 02:09:49.82	339.72	42.98	-53.5	-68.5	3.8	1.49e+00	0	43	104	0	77	21567
2026-01-24 02:09:50.83	339.25	43.10	-53.5	-68.5	3.8	1.49e+00	0	43	104	0	77	21605
2026-01-24 02:09:51.84	338.77	43.21	-53.5	-68.5	3.8	1.49e+00	0	43	104	0	77	21633
2026-01-24 02:09:52.85	338.30	43.32	-53.5	-68.5	3.8	1.49e+00	0	43	104	0	77	21583
2026-01-24 02:09:53.86	337.82	43.44	-53.5	-68.5	3.8	1.49e+00	0	44	104	0	77	21627
2026-01-24 02:09:54.87	337.33	43.54	-53.5	-68.5	3.8	1.49e+00	0	43	104	0	77	21625
2026-01-24 02:09:55.88	336.85	43.65	-53.5	-68.5	3.8	1.49e+00	0	43	104	0	77	21666
2026-01-24 02:09:56.88	336.36	43.76	-53.5	-68.5	3.8	1.49e+00	0	43	104	0	77	21642
2026-01-24 02:09:57.89	335.87	43.86	-53.5	-68.5	3.8	1.49e+00	0	43	104	0	77	21609
2026-01-24 02:09:58.90	335.37	43.96	-53.5	-68.5	3.8	1.49e+00	0	43	104	0	77	21608
2026-01-24 02:09:59.91	334.87	44.06	-53.5	-68.5	3.8	1.49e+00	0	43	104	0	77	21637
2026-01-24 02:10:00.92	334.37	44.16	-53.5	-68.5	3.8	1.49e+00	0	43	104	0	77	21611
2026-01-24 02:10:01.92	333.87	44.25	-53.5	-68.5	3.8	1.49e+00	0	43	104	0	77	21574
2026-01-24 02:10:02.94	333.36	44.34	-53.5	-68.5	3.8	1.49e+00	0	43	104	0	77	21590
2026-01-24 02:10:03.94	332.85	44.43	-53.5	-68.5	3.8	1.49e+00	0	43	104	0	77	21628
2026-01-24 02:10:04.95	332.34	44.52	-53.5	-68.5	3.8	1.49e+00	0	44	104	0	77	21612
2026-01-24 02:10:05.96	331.82	44.61	-53.5	-68.5	3.8	1.49e+00	0	44	104	0	77	21591
2026-01-24 02:10:06.97	331.30	44.69	-53.5	-68.5	3.8	1.49e+00	0	43	104	0	77	21584
2026-01-24 02:10:07.97	330.78	44.77	-53.5	-68.5	3.8	1.49e+00	0	43	104	0	77	21602
2026-01-24 02:10:08.98	330.26	44.85	-53.5	-68.5	3.8	1.49e+00	0	43	104	0	77	21607
2026-01-24 02:10:09.99	329.73	44.92	-53.5	-68.5	3.8	1.49e+00	0	43	104	0	77	21618
2026-01-24 02:10:11.00	329.20	44.99	-53.5	-68.5	3.8	1.49e+00	0	43	104	0	77	21601
2026-01-24 02:10:12.01	328.67	45.06	-53.5	-68.5	3.8	1.49e+00	0	43	104	0	77	21619
2026-01-24 02:10:13.02	328.13	45.13	-53.5	-68.5	3.8	1.49e+00	0	43	104	0	77	21600
2026-01-24 02:10:14.02	327.60	45.20	-53.5	-68.5	3.8	1.49e+00	0	43	104	0	77	21577
2026-01-24 02:10:15.03	327.06	45.26	-53.5	-68.5	3.8	1.49e+00	0	43	104	0	77	21560
2026-01-24 02:10:16.04	326.52	45.32	-53.5	-68.5	3.8	1.49e+00	0	44	104	0	77	21587
2026-01-24 02:10:17.05	325.98	45.37	-53.5	-68.5	3.8	1.49e+00	0	43	104	0	77	21603
2026-01-24 02:10:18.05	325.44	45.43	-53.5	-68.5	3.8	1.49e+00	0	43	104	0	77	21590
2026-01-24 02:10:19.06	324.89	45.48	-53.5	-68.5	3.8	1.49e+00	0	43	104	0	77	21671
2026-01-24 02:10:20.07	324.34	45.53	-53.5	-68.5	3.8	1.49e+00	0	43	104	0	77	21571
2026-01-24 02:10:21.08	323.79	45.57	-53.5	-68.5	3.8	1.49e+00	0	43	104	0	77	21572
2026-01-24 02:10:22.08	323.24	45.61	-53.5	-68.5	3.8	1.49e+00	0	43	104	0	77	21583
2026-01-24 02:10:23.09	322.69	45.65	-53.5	-68.5	3.8	1.49e+00	0	44	104	0	77	21630
2026-01-24 02:10:24.10	322.14	45.69	-53.5	-68.5	3.8	1.49e+00	0	43	104	0	77	21560
2026-01-24 02:10:25.11	321.58	45.72	-53.5	-68.5	3.8	1.49e+00	0	43	104	0	77	21617
2026-01-24 02:10:26.12	321.02	45.75	-53.5	-68.5	3.8	1.49e+00	0	43	104	0	77	21583
2026-01-24 02:10:27.13	320.46	45.78	-53.5	-68.5	3.8	1.49e+00	0	43	104	0	77	21576
2026-01-24 02:10:28.13	319.91	45.81	-53.5	-68.5	3.8	1.49e+00	0	43	104	0	77	21639
2026-01-24 02:10:29.14	319.35	45.83	-53.5	-68.5	3.8	1.49e+00	0	43	104	0	77	21611
2026-01-24 02:10:30.15	318.79	45.85	-53.5	-68.5	3.8	1.49e+00	0	44	104	0	77	21616
2026-01-24 02:10:31.16	318.23	45.86	-53.5	-68.5	3.8	1.49e+00	0	43	104	0	77	21588
2026-01-24 02:10:32.17	317.67	45.88	-53.5	-68.5	3.8	1.49e+00	0	43	104	0	77	21547
2026-01-24 02:10:33.18	317.10	45.88	-53.5	-68.5	3.8	1.49e+00	0	43	104	0	77	21591
2026-01-24 02:10:34.19	316.54	45.89	-53.5	-68.5	3.8	1.49e+00	0	43	104	0	77	21538
2026-01-24 02:10:35.19	315.98	45.89	-53.5	-68.5	3.8	1.49e+00	0	44	104	0	77	21595
2026-01-24 02:10:36.20	315.42	45.89	-53.5	-68.5	3.8	1.49e+00	0	43	104	0	77	21597
2026-01-24 02:10:37.21	314.86	45.89	-53.5	-68.5	3.8	1.49e+00	0	43	104	0	77	21612
2026-01-24 02:10:38.22	314.30	45.89	-53.5	-68.5	3.8	1.49e+00	0	43	104	0	77	21603
2026-01-24 02:10:39.23	313.73	45.88	-53.5	-68.5	3.8	1.49e+00	0	43	104	0	77	21586
2026-01-24 02:10:40.23	313.18	45.87	-53.5	-68.5	3.8	1.49e+00	0	43	104	0	77	21567
2026-01-24 02:10:41.24	312.62	45.85	-53.5	-68.5	3.8	1.49e+00	0	43	104	0	77	21583
2026-01-24 02:10:42.25	312.05	45.83	-53.5	-68.5	3.8	1.49e+00	0	43	104	0	77	21542
2026-01-24 02:10:43.26	311.49	45.81	-53.5	-68.5	3.8	1.49e+00	0	43	104	0	77	21545
2026-01-24 02:10:44.27	310.93	45.79	-53.5	-68.5	3.8	1.49e+00	0	43	104	0	77	21593
2026-01-24 02:10:45.27	310.38	45.76	-53.5	-68.5	3.8	1.49e+00	0	43	104	0	77	21605
2026-01-24 02:10:46.28	309.82	45.73	-53.5	-68.5	3.8	1.49e+00	0	43	104	0	77	21574
2026-01-24 02:10:47.29	309.27	45.70	-53.5	-68.5	3.8	1.49e+00	0	43	104	0	77	21613
2026-01-24 02:10:48.30	308.71	45.66	-53.5	-68.5	3.8	1.49e+00	0	43	104	0	77	21658
2026-01-24 02:10:49.31	308.16	45.62	-53.5	-68.5	3.8	1.49e+00	0	43	104	0	77	21569
2026-01-24 02:10:50.31	307.61	45.58	-53.5	-68.5	3.8	1.49e+00	0	43	104	0	77	21604
2026-01-24 02:10:51.32	307.06	45.54	-53.5	-68.5	3.8	1.49e+00	0	43	104	0	77	21617
2026-01-24 02:10:52.33	306.51	45.49	-53.5	-68.5	3.8	1.49e+00	0	43	104	0	77	21690
2026-01-24 02:10:53.34	305.96	45.44	-53.5	-68.5	3.8	1.49e+00	0	44	104	0	77	21609
2026-01-24 02:10:54.35	305.42	45.39	-53.5	-68.5	3.8	1.49e+00	0	44	104	0	77	21589
2026-01-24 02:10:55.36	304.87	45.33	-53.5	-68.5	3.8	1.49e+00	0	43	104	0	77	21601
2026-01-24 02:10:56.36	304.34	45.27	-53.5	-68.5	3.8	1.49e+00	0	43	104	0	77	21567
2026-01-24 02:10:57.38	303.79	45.21	-53.5	-68.5	3.8	1.49e+00	0	44	104	0	77	21637
2026-01-24 02:10:58.38	303.26	45.15	-53.5	-68.5	3.8	1.49e+00	0	44	104	0	77	21599
2026-01-24 02:10:59.39	302.72	45.08	-53.5	-68.5	3.8	1.49e+00	0	43	104	0	77	21626
2026-01-24 02:11:00.40	302.19	45.01	-53.5	-68.5	3.8	1.49e+00	0	43	104	0	77	21567
2026-01-24 02:11:01.41	301.66	44.94	-53.5	-68.5	3.8	1.49e+00	0	44	104	0	77	21552
2026-01-24 02:11:02.42	301.13	44.86	-53.5	-68.5	3.8	1.49e+00	0	44	104	0	77	21596
2026-01-24 02:11:03.43	300.60	44.79	-53.5	-68.5	3.8	1.49e+00	0	43	104	0	77	21549
2026-01-24 02:11:04.44	300.08	44.71	-53.5	-68.5	3.8	1.49e+00	0	44	104	0	77	21532
2026-01-24 02:11:05.45	299.56	44.62	-53.5	-68.5	3.8	1.49e+00	0	43	104	0	77	21561
2026-01-24 02:11:06.46	299.04	44.54	-53.5	-68.5	3.8	1.49e+00	0	43	104	0	77	21554
2026-01-24 02:11:07.47	298.52	44.45	-53.5	-68.5	3.8	1.49e+00	0	44	104	0	77	21589
2026-01-24 02:11:08.47	298.02	44.36	-53.5	-68.5	3.8	1.49e+00	0	44	104	0	77	21576
2026-01-24 02:11:09.48	297.51	44.27	-53.5	-68.5	3.8	1.49e+00	0	44	104	0	77	21564
2026-01-24 02:11:10.50	297.00	44.18	-53.5	-68.5	3.8	1.49e+00	0	43	104	0	77	21567
2026-01-24 02:11:11.50	296.50	44.08	-53.5	-68.5	3.8	1.49e+00	0	43	104	0	77	21561
2026-01-24 02:11:12.51	296.00	43.98	-53.5	-68.5	3.8	1.49e+00	0	43	104	0	77	21573
2026-01-24 02:11:13.52	295.50	43.88	-53.5	-68.5	3.8	1.49e+00	0	44	104	0	77	21622
2026-01-24 02:11:14.53	295.01	43.78	-53.5	-68.5	3.8	1.49e+00	0	43	104	0	77	21581
2026-01-24 02:11:15.54	294.51	43.67	-53.5	-68.5	3.8	1.49e+00	0	43	104	0	77	21591
2026-01-24 02:11:16.55	294.03	43.57	-53.5	-68.5	3.8	1.49e+00	0	43	104	0	77	21577
2026-01-24 02:11:17.56	293.54	43.46	-53.5	-68.5	3.8	1.49e+00	0	43	104	0	77	21582
2026-01-24 02:11:18.57	293.06	43.34	-53.5	-68.5	3.8	1.49e+00	0	43	104	0	77	21580
2026-01-24 02:11:19.58	292.58	43.23	-53.5	-68.5	3.8	1.49e+00	0	43	104	0	77	21615
2026-01-24 02:11:20.58	292.11	43.12	-53.5	-68.4	3.8	1.49e+00	0	44	104	0	77	21505
2026-01-24 02:11:21.59	291.64	43.00	-53.5	-68.4	3.8	1.49e+00	0	44	104	0	77	21506
2026-01-24 02:11:22.60	291.18	42.88	-53.5	-68.5	3.8	1.49e+00	0	44	104	0	77	21565
2026-01-24 02:11:23.61	290.71	42.76	-53.5	-68.5	3.8	1.49e+00	0	43	104	0	77	21587
2026-01-24 02:11:24.61	290.26	42.64	-53.5	-68.5	3.8	1.49e+00	0	43	104	0	77	21509
2026-01-24 02:11:25.62	289.80	42.52	-53.5	-68.5	3.8	1.49e+00	0	43	104	0	77	21575
2026-01-24 02:11:26.63	289.34	42.39	-53.5	-68.5	3.8	1.49e+00	0	44	104	0	77	21572
2026-01-24 02:11:27.64	288.90	42.27	-53.5	-68.5	3.8	1.49e+00	0	43	104	0	77	21561
2026-01-24 02:11:28.65	288.45	42.14	-53.5	-68.4	3.8	1.49e+00	0	43	104	0	77	21496
2026-01-24 02:11:29.65	288.01	42.01	-53.5	-68.5	3.8	1.49e+00	0	44	104	0	77	21567
2026-01-24 02:11:30.66	287.57	41.88	-53.5	-68.5	3.8	1.49e+00	0	44	104	0	77	21577
2026-01-24 02:11:31.67	287.14	41.74	-53.5	-68.5	3.8	1.49e+00	0	43	104	0	77	21624
2026-01-24 02:11:32.68	286.70	41.61	-53.5	-68.5	3.8	1.49e+00	0	44	104	0	77	21553
2026-01-24 02:11:33.69	286.28	41.47	-53.5	-68.5	3.8	1.49e+00	0	43	104	0	77	21617
2026-01-24 02:11:34.69	285.85	41.34	-53.5	-68.5	3.8	1.49e+00	0	44	104	0	77	21643
2026-01-24 02:11:35.70	285.43	41.20	-53.5	-68.5	3.8	1.49e+00	0	43	104	0	77	21592
2026-01-24 02:11:36.71	285.02	41.06	-53.5	-68.5	3.8	1.49e+00	0	43	104	0	77	21607
2026-01-24 02:11:37.72	284.60	40.92	-53.5	-68.5	3.8	1.49e+00	0	43	104	0	77	21550
2026-01-24 02:11:38.73	284.19	40.78	-53.5	-68.5	3.8	1.49e+00	0	43	104	0	77	21632
2026-01-24 02:11:39.74	283.78	40.64	-53.5	-68.5	3.8	1.49e+00	0	43	104	0	77	21596
2026-01-24 02:11:40.74	283.39	40.49	-53.5	-68.5	3.8	1.49e+00	0	43	104	0	77	21522
2026-01-24 02:11:41.75	282.99	40.35	-53.5	-68.5	3.8	1.49e+00	0	43	104	0	77	21516
2026-01-24 02:11:42.76	282.59	40.20	-53.5	-68.5	3.8	1.49e+00	0	44	104	0	77	21540
2026-01-24 02:11:43.77	282.20	40.06	-53.5	-68.5	3.8	1.49e+00	0	43	104	0	77	21560
2026-01-24 02:11:44.78	281.81	39.91	-53.5	-68.5	3.8	1.49e+00	0	43	104	0	77	21633
2026-01-24 02:11:45.79	281.42	39.76	-53.5	-68.5	3.8	1.49e+00	0	43	104	0	77	21525
2026-01-24 02:11:46.80	281.04	39.61	-53.5	-68.5	3.8	1.49e+00	0	43	104	0	77	21557
2026-01-24 02:11:47.81	280.66	39.46	-53.5	-68.5	3.8	1.49e+00	0	43	104	0	77	21594
2026-01-24 02:11:48.82	280.29	39.31	-53.5	-68.5	3.8	1.49e+00	0	43	104	0	77	21605
2026-01-24 02:11:49.83	279.92	39.16	-53.5	-68.5	3.8	1.49e+00	0	43	104	0	77	21552
2026-01-24 02:11:50.84	279.55	39.01	-53.5	-68.5	3.8	1.49e+00	0	43	104	0	77	21582
2026-01-24 02:11:51.85	279.18	38.85	-53.5	-68.5	3.8	1.49e+00	0	43	104	0	77	21610
2026-01-24 02:11:52.86	278.82	38.70	-53.5	-68.5	3.8	1.49e+00	0	43	104	0	77	21587
2026-01-24 02:11:53.86	278.47	38.55	-53.5	-68.5	3.8	1.49e+00	0	43	104	0	77	21571
2026-01-24 02:11:54.87	278.12	38.39	-53.5	-68.5	3.8	1.49e+00	0	43	104	0	77	21556
2026-01-24 02:11:55.88	277.77	38.24	-53.5	-68.5	3.8	1.49e+00	0	43	104	0	77	21580
2026-01-24 02:11:56.89	277.42	38.08	-53.5	-68.5	3.8	1.49e+00	0	43	104	0	77	21556
2026-01-24 02:11:57.89	277.08	37.93	-53.5	-68.5	3.8	1.49e+00	0	43	104	0	77	21599
2026-01-24 02:11:58.90	276.74	37.77	-53.5	-68.5	3.8	1.49e+00	0	43	104	0	77	21515
2026-01-24 02:11:59.91	276.40	37.61	-53.5	-68.5	3.8	1.49e+00	0	43	104	0	77	21567
2026-01-24 02:12:00.92	276.06	37.45	-53.5	-68.5	3.8	1.49e+00	0	44	104	0	77	21559
2026-01-24 02:12:01.93	275.73	37.30	-53.5	-68.5	3.8	1.49e+00	0	43	104	0	77	21541
2026-01-24 02:12:02.94	275.41	37.14	-53.5	-68.5	3.8	1.49e+00	0	43	104	0	77	21545
2026-01-24 02:12:03.95	275.08	36.98	-53.5	-68.5	3.8	1.49e+00	0	43	104	0	77	21557
2026-01-24 02:12:04.96	274.76	36.82	-53.5	-68.5	3.8	1.49e+00	0	43	104	0	77	21542
2026-01-24 02:12:05.96	274.44	36.66	-53.5	-68.5	3.8	1.49e+00	0	43	104	0	77	21599
2026-01-24 02:12:06.97	274.13	36.50	-53.5	-68.5	3.8	1.49e+00	0	43	104	0	77	21543
2026-01-24 02:12:07.98	273.82	36.34	-53.5	-68.5	3.8	1.49e+00	0	43	104	0	77	21566
2026-01-24 02:12:08.99	273.51	36.18	-53.5	-68.5	3.8	1.49e+00	0	43	104	0	77	21585
2026-01-24 02:12:10.00	273.20	36.02	-53.5	-68.5	3.8	1.49e+00	0	43	104	0	77	21608
2026-01-24 02:12:11.01	272.90	35.86	-53.5	-68.5	3.8	1.49e+00	0	43	104	0	77	21611
2026-01-24 02:12:12.01	272.60	35.71	-53.5	-68.5	3.8	1.49e+00	0	43	104	0	77	21541
2026-01-24 02:12:13.02	272.30	35.55	-53.5	-68.5	3.8	1.49e+00	0	43	104	0	77	21537
2026-01-24 02:12:14.03	272.01	35.39	-53.5	-68.5	3.8	1.49e+00	0	43	104	0	77	21545
2026-01-24 02:12:15.04	271.72	35.23	-53.5	-68.5	3.8	1.49e+00	0	43	104	0	77	21593
2026-01-24 02:12:16.05	271.43	35.06	-53.5	-68.5	3.8	1.49e+00	0	43	104	0	77	21542
2026-01-24 02:12:17.06	271.15	34.90	-53.5	-68.5	3.8	1.49e+00	0	43	104	0	77	21513
2026-01-24 02:12:18.06	270.87	34.75	-53.5	-68.5	3.8	1.49e+00	0	43	104	0	77	21548
2026-01-24 02:12:19.07	270.59	34.59	-53.5	-68.5	3.8	1.49e+00	0	43	104	0	77	21537
2026-01-24 02:12:20.08	270.31	34.43	-53.5	-68.5	3.8	1.49e+00	0	43	104	0	77	21532
2026-01-24 02:12:21.09	270.03	34.26	-53.5	-68.5	3.8	1.49e+00	0	43	104	0	77	21517
2026-01-24 02:12:22.10	269.76	34.10	-53.5	-68.5	3.8	1.49e+00	0	43	104	0	77	21574
2026-01-24 02:12:23.11	269.49	33.94	-53.5	-68.5	3.8	1.49e+00	0	43	104	0	77	21530
2026-01-24 02:12:24.12	269.23	33.78	-53.5	-68.5	3.8	1.49e+00	0	43	104	0	77	21574
2026-01-24 02:12:25.13	268.96	33.62	-53.5	-68.5	3.8	1.49e+00	0	43	104	0	77	21576
2026-01-24 02:12:26.14	268.70	33.47	-53.5	-68.5	3.8	1.49e+00	0	43	104	0	77	21522
2026-01-24 02:12:27.15	268.44	33.31	-53.5	-68.5	3.8	1.49e+00	0	43	104	0	77	21594
2026-01-24 02:12:28.15	268.19	33.15	-53.5	-68.5	3.8	1.49e+00	0	43	104	0	77	21529
2026-01-24 02:12:29.16	267.93	32.99	-53.5	-68.5	3.8	1.49e+00	0	43	104	0	77	21543
2026-01-24 02:12:30.17	267.68	32.83	-53.5	-68.5	3.8	1.49e+00	0	43	104	0	77	21548
2026-01-24 02:12:31.18	267.44	32.67	-53.5	-68.5	3.8	1.49e+00	0	43	104	0	77	21592
2026-01-24 02:12:32.19	267.19	32.51	-53.5	-68.4	3.8	1.49e+00	0	43	104	0	77	21504
2026-01-24 02:12:33.19	266.95	32.36	-53.5	-68.5	3.8	1.49e+00	0	43	104	0	77	21602
2026-01-24 02:12:34.20	266.71	32.20	-53.5	-68.5	3.8	1.49e+00	0	43	104	0	77	21531
2026-01-24 02:12:35.21	266.47	32.04	-53.5	-68.5	3.8	1.49e+00	0	43	104	0	77	21573
2026-01-24 02:12:36.22	266.23	31.88	-53.5	-68.5	3.8	1.49e+00	0	43	104	0	77	21544
2026-01-24 02:12:37.22	266.00	31.73	-53.5	-68.5	3.8	1.49e+00	0	43	104	0	77	21539
2026-01-24 02:12:38.23	265.77	31.57	-53.5	-68.5	3.8	1.49e+00	0	43	104	0	77	21582
2026-01-24 02:12:39.24	265.54	31.41	-53.5	-68.5	3.8	1.49e+00	0	43	104	0	77	21595
2026-01-24 02:12:40.25	265.31	31.26	-53.5	-68.5	3.8	1.49e+00	0	43	104	0	77	21571
2026-01-24 02:12:41.26	265.08	31.10	-53.5	-68.5	3.8	1.49e+00	0	43	104	0	77	21516
2026-01-24 02:12:42.26	264.86	30.95	-53.5	-68.5	3.8	1.49e+00	0	43	104	0	77	21575
2026-01-24 02:12:43.27	264.64	30.79	-53.5	-68.5	3.8	1.49e+00	0	43	104	0	77	21552
2026-01-24 02:12:44.28	264.42	30.64	-53.5	-68.5	3.8	1.49e+00	0	43	104	0	77	21518
2026-01-24 02:12:45.29	264.20	30.48	-53.5	-68.5	3.8	1.49e+00	0	43	104	0	77	21578
2026-01-24 02:12:46.30	263.99	30.33	-53.5	-68.4	3.8	1.49e+00	0	43	104	0	77	21501
2026-01-24 02:12:47.31	263.78	30.17	-53.5	-68.5	3.8	1.49e+00	0	43	104	0	77	21606
2026-01-24 02:12:48.32	263.57	30.02	-53.5	-68.5	3.8	1.49e+00	0	43	104	0	77	21550
2026-01-24 02:12:49.32	263.36	29.87	-53.5	-68.5	3.8	1.49e+00	0	43	104	0	77	21572
2026-01-24 02:12:50.33	263.15	29.72	-53.5	-68.5	3.8	1.49e+00	0	43	104	0	77	21540
2026-01-24 02:12:51.34	262.95	29.56	-53.5	-68.5	3.8	1.49e+00	0	43	104	0	77	21511
2026-01-24 02:12:52.35	262.74	29.41	-53.5	-68.4	3.8	1.49e+00	0	43	104	0	77	21499
2026-01-24 02:12:53.36	262.54	29.26	-53.5	-68.5	3.8	1.49e+00	0	43	104	0	77	21522
2026-01-24 02:12:54.37	262.34	29.11	-53.5	-68.5	3.8	1.49e+00	0	43	104	0	77	21536
2026-01-24 02:12:55.38	262.15	28.96	-53.5	-68.4	3.8	1.49e+00	0	43	104	0	77	21501
2026-01-24 02:12:56.38	261.95	28.81	-53.5	-68.5	3.8	1.49e+00	0	43	104	0	77	21527
2026-01-24 02:12:57.39	261.76	28.66	-53.5	-68.5	3.8	1.49e+00	0	43	104	0	77	21520
2026-01-24 02:12:58.40	261.57	28.51	-53.5	-68.4	3.8	1.49e+00	0	43	104	0	77	21496
2026-01-24 02:12:59.42	261.38	28.36	-53.5	-68.4	3.8	1.49e+00	0	43	104	0	77	21497
2026-01-24 02:13:00.42	261.19	28.21	-53.5	-68.5	3.8	1.49e+00	0	43	104	0	77	21528
2026-01-24 02:13:01.43	261.01	28.06	-53.5	-68.5	3.8	1.49e+00	0	43	104	0	77	21526
2026-01-24 02:13:02.44	260.82	27.92	-53.5	-68.5	3.8	1.49e+00	0	43	104	0	77	21529
2026-01-24 02:13:03.45	260.64	27.77	-53.5	-68.5	3.8	1.49e+00	0	43	104	0	77	21543
2026-01-24 02:13:04.45	260.46	27.62	-53.5	-68.5	3.8	1.49e+00	0	43	104	0	77	21539
2026-01-24 02:13:05.46	260.28	27.48	-53.5	-68.4	3.8	1.49e+00	0	43	104	0	77	21493
2026-01-24 02:13:06.47	260.10	27.33	-53.5	-68.5	3.8	1.49e+00	0	43	104	0	77	21566
2026-01-24 02:13:07.48	259.93	27.19	-53.5	-68.5	3.8	1.49e+00	0	43	104	0	77	21544
2026-01-24 02:13:08.49	259.75	27.04	-53.5	-68.4	3.8	1.49e+00	0	43	104	0	77	21497
2026-01-24 02:13:09.49	259.58	26.90	-53.5	-68.4	3.8	1.49e+00	0	43	104	0	77	21484
2026-01-24 02:13:10.50	259.41	26.75	-53.5	-68.5	3.8	1.49e+00	0	43	104	0	77	21573
2026-01-24 02:13:11.51	259.24	26.61	-53.5	-68.5	3.8	1.49e+00	0	43	104	0	77	21553
2026-01-24 02:13:12.52	259.07	26.47	-53.5	-68.5	3.8	1.49e+00	0	43	104	0	77	21529
2026-01-24 02:13:13.53	258.90	26.33	-53.5	-68.4	3.8	1.49e+00	0	43	104	0	77	21497
2026-01-24 02:13:14.54	258.74	26.18	-53.5	-68.5	3.8	1.49e+00	0	43	104	0	77	21566
2026-01-24 02:13:15.55	258.57	26.04	-53.5	-68.5	3.8	1.49e+00	0	43	104	0	77	21588
2026-01-24 02:13:16.55	258.41	25.90	-53.5	-68.4	3.8	1.49e+00	0	43	104	0	77	21504
2026-01-24 02:13:17.56	258.25	25.76	-53.5	-68.4	3.8	1.49e+00	0	43	104	0	77	21502
2026-01-24 02:13:18.57	258.09	25.62	-53.5	-68.5	3.8	1.49e+00	0	43	104	0	77	21516
2026-01-24 02:13:19.58	257.94	25.48	-53.5	-68.5	3.8	1.49e+00	0	43	104	0	77	21574
2026-01-24 02:13:20.59	257.78	25.34	-53.5	-68.4	3.8	1.49e+00	0	43	104	0	77	21500
2026-01-24 02:13:21.59	257.62	25.20	-53.5	-68.5	3.8	1.49e+00	0	43	104	0	77	21514
2026-01-24 02:13:22.60	257.47	25.07	-53.5	-68.5	3.8	1.49e+00	0	43	104	0	77	21536
2026-01-24 02:13:23.61	257.32	24.93	-53.5	-68.4	3.8	1.49e+00	0	43	104	0	77	21500
2026-01-24 02:13:24.62	257.17	24.79	-53.5	-68.5	3.8	1.49e+00	0	43	104	0	77	21593
2026-01-24 02:13:25.63	257.02	24.66	-53.5	-68.5	3.8	1.49e+00	0	43	104	0	77	21532
2026-01-24 02:13:26.63	256.87	24.52	-53.5	-68.5	3.8	1.49e+00	0	44	104	0	77	21657
2026-01-24 02:13:27.64	256.72	24.38	-53.5	-68.5	3.8	1.49e+00	0	43	104	0	77	21653
2026-01-24 02:13:28.65	256.58	24.25	-53.5	-68.5	3.8	1.49e+00	0	43	104	0	77	21638
2026-01-24 02:13:29.66	256.43	24.11	-53.5	-68.5	3.8	1.49e+00	0	43	104	0	77	21624
2026-01-24 02:13:30.67	256.29	23.98	-53.5	-68.5	3.8	1.49e+00	0	43	104	0	77	21637
2026-01-24 02:13:31.68	256.15	23.85	-53.5	-68.5	3.8	1.49e+00	0	43	104	0	77	21623
2026-01-24 02:13:32.68	256.01	23.71	-53.5	-68.5	3.8	1.49e+00	0	43	104	0	77	21560
2026-01-24 02:13:33.69	255.87	23.58	-53.5	-68.5	3.8	1.49e+00	0	43	104	0	77	21542
2026-01-24 02:13:34.70	255.73	23.45	-53.5	-68.5	3.8	1.49e+00	0	43	104	0	77	21605
2026-01-24 02:13:35.71	255.59	23.32	-53.5	-68.5	3.8	1.49e+00	0	43	104	0	77	21550
2026-01-24 02:13:36.72	255.46	23.19	-53.5	-68.5	3.8	1.49e+00	0	43	104	0	77	21574
2026-01-24 02:13:37.72	255.32	23.06	-53.5	-68.5	3.8	1.49e+00	0	43	104	0	77	21524
2026-01-24 02:13:38.73	255.19	22.93	-53.5	-68.5	3.8	1.49e+00	0	43	104	0	77	21576
2026-01-24 02:13:39.74	255.06	22.80	-53.5	-68.5	3.8	1.49e+00	0	43	104	0	77	21537
2026-01-24 02:13:40.75	254.92	22.67	-53.5	-68.5	3.8	1.49e+00	0	43	104	0	77	21513
2026-01-24 02:13:41.76	254.79	22.54	-53.5	-68.5	3.8	1.49e+00	0	43	104	0	77	21540
2026-01-24 02:13:42.77	254.66	22.41	-53.5	-68.5	3.8	1.49e+00	0	44	104	0	77	21589
2026-01-24 02:13:43.78	254.54	22.28	-53.5	-68.5	3.8	1.49e+00	0	43	104	0	77	21526
2026-01-24 02:13:44.79	254.41	22.15	-53.5	-68.5	3.8	1.49e+00	0	43	104	0	77	21560
2026-01-24 02:13:45.79	254.28	22.03	-53.5	-68.5	3.8	1.49e+00	0	43	104	0	77	21569
2026-01-24 02:13:46.80	254.16	21.90	-53.5	-68.5	3.8	1.49e+00	0	43	104	0	77	21582
2026-01-24 02:13:47.81	254.04	21.78	-53.5	-68.4	3.8	1.49e+00	0	43	104	0	77	21500
2026-01-24 02:13:48.82	253.91	21.65	-53.5	-68.5	3.8	1.49e+00	0	43	104	0	77	21643
2026-01-24 02:13:49.83	253.79	21.53	-53.5	-68.5	3.8	1.49e+00	0	43	104	0	77	21641
2026-01-24 02:13:50.84	253.67	21.40	-53.5	-68.5	3.8	1.49e+00	0	44	104	0	77	21666
2026-01-24 02:13:51.85	253.55	21.28	-53.5	-68.5	3.8	1.49e+00	0	43	104	0	77	21629
2026-01-24 02:13:52.86	253.43	21.15	-53.5	-68.5	3.8	1.49e+00	0	43	104	0	77	21626
2026-01-24 02:13:53.87	253.31	21.03	-53.5	-68.5	3.8	1.49e+00	0	44	104	0	77	21582
2026-01-24 02:13:54.87	253.20	20.91	-53.5	-68.5	3.8	1.49e+00	0	44	104	0	77	21551
2026-01-24 02:13:55.88	253.08	20.79	-53.5	-68.5	3.8	1.49e+00	0	43	104	0	77	21574
2026-01-24 02:13:56.89	252.96	20.67	-53.5	-68.5	3.8	1.49e+00	0	43	104	0	77	21596
2026-01-24 02:13:57.90	252.85	20.54	-53.5	-68.5	3.8	1.49e+00	0	43	104	0	77	21549
2026-01-24 02:13:58.91	252.74	20.42	-53.5	-68.5	3.8	1.49e+00	0	43	104	0	77	21565
2026-01-24 02:13:59.92	252.62	20.30	-53.5	-68.5	3.8	1.49e+00	0	43	104	0	77	21589
2026-01-24 02:14:00.93	252.51	20.18	-53.5	-68.5	3.8	1.49e+00	0	43	104	0	77	21571
2026-01-24 02:14:01.94	252.40	20.06	-53.5	-68.5	3.8	1.49e+00	0	43	104	0	77	21575
2026-01-24 02:14:02.95	252.29	19.94	-53.5	-68.5	3.8	1.49e+00	0	43	104	0	77	21579
2026-01-24 02:14:03.96	252.18	19.83	-53.5	-68.5	3.8	1.49e+00	0	43	104	0	77	21588
2026-01-24 02:14:04.96	252.08	19.71	-53.5	-68.5	3.8	1.49e+00	0	43	104	0	77	21600
2026-01-24 02:14:05.97	251.97	19.59	-53.5	-68.5	3.8	1.49e+00	0	43	104	0	77	21545
2026-01-24 02:14:06.98	251.86	19.47	-53.5	-68.5	3.8	1.49e+00	0	44	104	0	77	21587
2026-01-24 02:14:07.99	251.76	19.36	-53.5	-68.5	3.8	1.49e+00	0	43	104	0	77	21601
2026-01-24 02:14:09.00	251.65	19.24	-53.5	-68.5	3.8	1.49e+00	0	43	104	0	77	21570
2026-01-24 02:14:10.01	251.55	19.12	-53.5	-68.5	3.8	1.49e+00	0	43	104	0	77	21527
2026-01-24 02:14:11.01	251.45	19.01	-53.5	-68.5	3.8	1.49e+00	0	43	104	0	77	21572
2026-01-24 02:14:12.02	251.34	18.90	-53.5	-68.5	3.8	1.49e+00	0	43	104	0	77	21554
2026-01-24 02:14:13.03	251.24	18.78	-53.5	-68.5	3.8	1.49e+00	0	43	104	0	77	21539
2026-01-24 02:14:14.03	251.14	18.67	-53.5	-68.5	3.8	1.49e+00	0	44	104	0	77	21578
2026-01-24 02:14:15.04	251.04	18.55	-53.5	-68.5	3.8	1.49e+00	0	43	104	0	77	21531
2026-01-24 02:14:16.05	250.94	18.44	-53.5	-68.5	3.8	1.49e+00	0	44	104	0	77	21545
2026-01-24 02:14:17.06	250.84	18.33	-53.5	-68.5	3.8	1.49e+00	0	43	104	0	77	21559
2026-01-24 02:14:18.07	250.75	18.22	-53.5	-68.5	3.8	1.49e+00	0	43	104	0	77	21588
2026-01-24 02:14:19.08	250.65	18.10	-53.5	-68.5	3.8	1.49e+00	0	44	104	0	77	21565
2026-01-24 02:14:20.09	250.55	17.99	-53.5	-68.5	3.8	1.49e+00	0	43	104	0	77	21540
2026-01-24 02:14:21.09	250.46	17.88	-53.5	-68.5	3.8	1.49e+00	0	43	104	0	77	21587
2026-01-24 02:14:22.10	250.36	17.77	-53.5	-68.4	3.8	1.49e+00	0	43	104	0	77	21481
2026-01-24 02:14:23.11	250.27	17.66	-53.5	-68.5	3.8	1.49e+00	0	44	104	0	77	21533
2026-01-24 02:14:24.12	250.18	17.55	-53.5	-68.5	3.8	1.49e+00	0	43	104	0	77	21537
2026-01-24 02:14:25.13	250.08	17.44	-53.5	-68.5	3.8	1.49e+00	0	43	104	0	77	21541
2026-01-24 02:14:26.14	249.99	17.33	-53.5	-68.5	3.8	1.49e+00	0	43	104	0	77	21598
2026-01-24 02:14:27.15	249.90	17.22	-53.5	-68.5	3.8	1.49e+00	0	43	104	0	77	21567
2026-01-24 02:14:28.15	249.81	17.12	-53.5	-68.5	3.8	1.49e+00	0	43	104	0	77	21532
2026-01-24 02:14:29.16	249.72	17.01	-53.5	-68.5	3.8	1.49e+00	0	43	104	0	77	21535
2026-01-24 02:14:30.17	249.63	16.90	-53.5	-68.5	3.8	1.49e+00	0	43	104	0	77	21571
2026-01-24 02:14:31.18	249.54	16.79	-53.5	-68.5	3.8	1.49e+00	0	43	104	0	77	21538
2026-01-24 02:14:32.19	249.45	16.69	-53.5	-68.5	3.8	1.49e+00	0	43	104	0	77	21534
2026-01-24 02:14:33.19	249.37	16.58	-53.5	-68.5	3.8	1.49e+00	0	43	104	0	77	21552
2026-01-24 02:14:34.20	249.28	16.48	-53.5	-68.5	3.8	1.49e+00	0	43	104	0	77	21553
2026-01-24 02:14:35.21	249.19	16.37	-53.5	-68.5	3.8	1.49e+00	0	43	104	0	77	21516
2026-01-24 02:14:36.22	249.11	16.26	-53.5	-68.5	3.8	1.49e+00	0	43	104	0	77	21518
2026-01-24 02:14:37.23	249.02	16.16	-53.5	-68.5	3.8	1.49e+00	0	43	104	0	77	21549
2026-01-24 02:14:38.24	248.94	16.06	-53.5	-68.5	3.8	1.49e+00	0	43	104	0	77	21516
2026-01-24 02:14:39.25	248.86	15.95	-53.5	-68.4	3.8	1.49e+00	0	43	104	0	77	21470
2026-01-24 02:14:40.26	248.77	15.85	-53.5	-68.5	3.8	1.49e+00	0	43	104	0	77	21512
2026-01-24 02:14:41.26	248.69	15.75	-53.5	-68.5	3.8	1.49e+00	0	43	104	0	77	21543
2026-01-24 02:14:42.27	248.61	15.64	-53.5	-68.5	3.8	1.49e+00	0	43	104	0	77	21550
2026-01-24 02:14:43.28	248.53	15.54	-53.5	-68.5	3.8	1.49e+00	0	43	104	0	77	21544
2026-01-24 02:14:44.29	248.45	15.44	-53.5	-68.4	3.8	1.49e+00	0	43	104	0	77	21491
2026-01-24 02:14:45.30	248.37	15.34	-53.5	-68.5	3.8	1.49e+00	0	43	104	0	77	21528
2026-01-24 02:14:46.31	248.29	15.23	-53.5	-68.5	3.8	1.49e+00	0	43	104	0	77	21533
2026-01-24 02:14:47.31	248.21	15.13	-53.5	-68.5	3.8	1.49e+00	0	43	104	0	77	21533
2026-01-24 02:14:48.32	248.13	15.03	-53.5	-68.5	3.8	1.49e+00	0	43	104	0	77	21519
2026-01-24 02:14:49.33	248.05	14.93	-53.5	-68.5	3.8	1.49e+00	0	43	104	0	77	21555
2026-01-24 02:14:50.34	247.98	14.83	-53.5	-68.4	3.8	1.49e+00	0	43	104	0	77	21480
2026-01-24 02:14:51.35	247.90	14.73	-53.5	-68.5	3.8	1.49e+00	0	43	104	0	77	21525
2026-01-24 02:14:52.35	247.82	14.64	-53.5	-68.5	3.8	1.49e+00	0	43	104	0	77	21580
2026-01-24 02:14:53.36	247.75	14.54	-53.5	-68.5	3.8	1.49e+00	0	43	104	0	77	21533
2026-01-24 02:14:54.37	247.67	14.44	-53.5	-68.4	3.8	1.49e+00	0	43	104	0	77	21494
2026-01-24 02:14:55.38	247.60	14.34	-53.5	-68.5	3.8	1.49e+00	0	44	104	0	77	21507
2026-01-24 02:14:56.38	247.52	14.24	-53.5	-68.5	3.8	1.49e+00	0	44	104	0	77	21553
2026-01-24 02:14:57.39	247.45	14.14	-53.5	-68.4	3.8	1.49e+00	0	44	104	0	77	21490
2026-01-24 02:14:58.40	247.38	14.05	-53.5	-68.5	3.8	1.49e+00	0	43	104	0	77	21560
2026-01-24 02:14:59.41	247.30	13.95	-53.5	-68.5	3.8	1.49e+00	0	43	104	0	77	21507
2026-01-24 02:15:00.42	247.23	13.85	-53.5	-68.4	3.8	1.49e+00	0	43	104	0	77	21506
2026-01-24 02:15:01.43	247.16	13.76	-53.5	-68.5	3.8	1.49e+00	0	43	104	0	77	21513
2026-01-24 02:15:02.43	247.09	13.66	-53.5	-68.4	3.8	1.49e+00	0	43	104	0	77	21453
2026-01-24 02:15:03.44	247.02	13.57	-53.5	-68.5	3.8	1.49e+00	0	44	104	0	77	21531
2026-01-24 02:15:04.45	246.95	13.47	-53.5	-68.5	3.8	1.49e+00	0	44	104	0	77	21527
2026-01-24 02:15:05.46	246.88	13.38	-53.5	-68.4	3.8	1.49e+00	0	43	104	0	77	21505
2026-01-24 02:15:06.47	246.81	13.28	-53.5	-68.5	3.8	1.49e+00	0	44	104	0	77	21545
2026-01-24 02:15:07.48	246.74	13.19	-53.5	-68.5	3.8	1.49e+00	0	44	104	0	77	21514
2026-01-24 02:15:08.48	246.67	13.10	-53.5	-68.5	3.8	1.49e+00	0	43	104	0	77	21533
2026-01-24 02:15:09.49	246.60	13.00	-53.5	-68.4	3.8	1.49e+00	0	43	104	0	77	21496
2026-01-24 02:15:10.50	246.54	12.91	-53.5	-68.4	3.8	1.49e+00	0	43	104	0	77	21471
2026-01-24 02:15:11.51	246.47	12.82	-53.5	-68.5	3.8	1.49e+00	0	43	104	0	77	21518
2026-01-24 02:15:12.52	246.40	12.72	-53.5	-68.4	3.8	1.49e+00	0	44	104	0	77	21482
2026-01-24 02:15:13.53	246.34	12.63	-53.5	-68.5	3.8	1.49e+00	0	43	104	0	77	21531
2026-01-24 02:15:14.53	246.27	12.54	-53.5	-68.4	3.8	1.49e+00	0	43	104	0	77	21503
2026-01-24 02:15:15.54	246.21	12.45	-53.5	-68.5	3.8	1.49e+00	0	44	104	0	77	21517
2026-01-24 02:15:16.55	246.14	12.36	-53.5	-68.5	3.8	1.49e+00	0	44	104	0	77	21545
2026-01-24 02:15:17.56	246.08	12.26	-53.5	-68.5	3.8	1.49e+00	0	44	104	0	77	21533
2026-01-24 02:15:18.57	246.01	12.17	-53.5	-68.5	3.8	1.49e+00	0	44	104	0	77	21560
2026-01-24 02:15:19.57	245.95	12.08	-53.5	-68.4	3.8	1.49e+00	0	43	104	0	77	21475
2026-01-24 02:15:20.58	245.88	11.99	-53.5	-68.5	3.8	1.49e+00	0	44	104	0	77	21570
2026-01-24 02:15:21.59	245.82	11.90	-53.5	-68.5	3.8	1.49e+00	0	43	104	0	77	21543
2026-01-24 02:15:22.60	245.76	11.81	-53.5	-68.4	3.8	1.49e+00	0	44	104	0	77	21481
2026-01-24 02:15:23.61	245.70	11.73	-53.5	-68.5	3.8	1.49e+00	0	43	104	0	77	21513
2026-01-24 02:15:24.62	245.64	11.64	-53.5	-68.4	3.8	1.49e+00	0	44	104	0	77	21487
2026-01-24 02:15:25.62	245.57	11.55	-53.5	-68.4	3.8	1.49e+00	0	44	104	0	77	21481
2026-01-24 02:15:26.63	245.51	11.46	-53.5	-68.4	3.8	1.49e+00	0	44	104	0	77	21501
2026-01-24 02:15:27.64	245.45	11.37	-53.5	-68.5	3.8	1.49e+00	0	43	104	0	77	21510
2026-01-24 02:15:28.65	245.39	11.28	-53.5	-68.5	3.8	1.49e+00	0	44	104	0	77	21529
2026-01-24 02:15:29.66	245.33	11.20	-53.5	-68.5	3.8	1.49e+00	0	43	104	0	77	21587
2026-01-24 02:15:30.67	245.27	11.11	-53.5	-68.4	3.8	1.49e+00	0	43	104	0	77	21481
2026-01-24 02:15:31.68	245.21	11.02	-53.5	-68.5	3.8	1.49e+00	0	43	104	0	77	21541
2026-01-24 02:15:32.69	245.16	10.93	-53.5	-68.4	3.8	1.49e+00	0	43	104	0	77	21479
2026-01-24 02:15:33.70	245.10	10.85	-53.5	-68.5	3.8	1.49e+00	0	43	104	0	77	21583
2026-01-24 02:15:34.71	245.04	10.76	-53.5	-68.5	3.8	1.49e+00	0	43	104	0	77	21535
2026-01-24 02:15:35.71	244.98	10.68	-53.5	-68.5	3.8	1.49e+00	0	43	104	0	77	21528
2026-01-24 02:15:36.72	244.93	10.59	-53.5	-68.5	3.8	1.49e+00	0	44	104	0	77	21521
2026-01-24 02:15:37.73	244.87	10.51	-53.5	-68.5	3.8	1.49e+00	0	43	104	0	77	21586
2026-01-24 02:15:38.74	244.81	10.42	-53.5	-68.5	3.8	1.49e+00	0	43	104	0	77	21510
2026-01-24 02:15:39.75	244.76	10.33	-53.5	-68.5	3.8	1.49e+00	0	43	104	0	77	21544
2026-01-24 02:15:40.76	244.70	10.25	-53.5	-68.5	3.8	1.49e+00	0	43	104	0	77	21515
2026-01-24 02:15:41.76	244.64	10.17	-53.5	-68.5	3.8	1.49e+00	0	43	104	0	77	21562
2026-01-24 02:15:42.77	244.59	10.08	-53.5	-68.5	3.8	1.49e+00	0	43	104	0	77	21560
2026-01-24 02:15:43.78	244.53	10.00	-53.5	-68.5	3.8	1.49e+00	0	43	104	0	77	21543
2026-01-24 02:15:44.79	244.48	9.91	-53.5	-68.5	3.8	1.49e+00	0	43	104	0	77	21537
2026-01-24 02:15:45.80	244.43	9.83	-53.5	-68.5	3.8	1.49e+00	0	44	104	0	77	21540
2026-01-24 02:15:46.80	244.37	9.75	-53.5	-68.5	3.8	1.49e+00	0	43	104	0	77	21524
2026-01-24 02:15:47.81	244.32	9.67	-53.5	-68.4	3.8	1.49e+00	0	43	104	0	77	21458
2026-01-24 02:15:48.82	244.27	9.58	-53.5	-68.5	3.8	1.49e+00	0	43	104	0	77	21537
2026-01-24 02:15:49.83	244.21	9.50	-53.5	-68.5	3.8	1.49e+00	0	43	104	0	77	21532
2026-01-24 02:15:50.84	244.16	9.42	-53.5	-68.5	3.8	1.49e+00	0	43	104	0	77	21583
2026-01-24 02:15:51.84	244.11	9.34	-53.5	-68.5	3.8	1.49e+00	0	44	104	0	77	21562
2026-01-24 02:15:52.86	244.06	9.26	-53.5	-68.5	3.8	1.49e+00	0	44	104	0	77	21552
2026-01-24 02:15:53.86	244.00	9.17	-53.5	-68.5	3.8	1.49e+00	0	44	104	0	77	21556
2026-01-24 02:15:54.87	243.95	9.09	-53.5	-68.4	3.8	1.49e+00	0	43	104	0	77	21502
2026-01-24 02:15:55.88	243.90	9.01	-53.5	-68.5	3.8	1.49e+00	0	43	104	0	77	21546
2026-01-24 02:15:56.89	243.85	8.93	-53.5	-68.5	3.8	1.49e+00	0	43	104	0	77	21554
2026-01-24 02:15:57.90	243.80	8.85	-53.5	-68.5	3.8	1.49e+00	0	44	104	0	77	21555
2026-01-24 02:15:58.91	243.75	8.77	-53.5	-68.4	3.8	1.49e+00	0	43	104	0	77	21476
2026-01-24 02:15:59.92	243.70	8.69	-53.5	-68.5	3.8	1.49e+00	0	43	104	0	77	21572
2026-01-24 02:16:00.92	243.65	8.61	-53.5	-68.5	3.8	1.49e+00	0	43	104	0	77	21599
2026-01-24 02:16:01.93	243.60	8.53	-53.5	-68.5	3.8	1.49e+00	0	44	104	0	77	21520
