passes_logs/2026/01/24/R3.2S_Murmansk/R3.2S_Murmansk__20260124_024030_FENGYUN_3D_rec.log

#Pass ID: 20260124_024030_FENGYUN 3D
#Satellite: FENGYUN 3D
#Configuration: FENGYUN 3D
#almurnet v.1.7.20251203
#Start time: 2026-01-24 02:40:30

#Version: 2.2.20231116
#Station: R3.2S_Murmansk
#Location: 33.079688 lon 68.888172 lat
#TLE: 1 43010U 17072A   26023.60174628  .00000324  00000+0  17481-3 0  9994
#TLE: 2 43010  98.9958 355.5514 0002482  93.7422 266.4037 14.19699955424476

#Time	Az	El	Level	Level2	SNR	BER	BlckErr	Temp	State	Recorded	gain1	gain2
2026-01-24 02:40:30.36	24.71	2.01	-53.4	-65.3	3.8	8.46e-01	0	41	0	0	77	14990
2026-01-24 02:40:31.37	24.71	2.07	-53.4	-65.4	3.8	8.47e-01	0	41	104	0	77	15069
2026-01-24 02:40:32.38	24.72	2.14	-53.4	-65.3	3.8	8.46e-01	0	41	104	0	77	15043
2026-01-24 02:40:33.39	24.73	2.20	-53.4	-65.3	3.8	8.47e-01	0	41	104	0	77	15043
2026-01-24 02:40:34.39	24.74	2.26	-53.4	-65.3	3.8	8.47e-01	0	41	104	0	77	15042
2026-01-24 02:40:35.40	24.74	2.33	-53.4	-65.4	3.8	8.45e-01	0	41	104	0	77	15060
2026-01-24 02:40:36.41	24.75	2.40	-53.4	-65.4	3.8	8.46e-01	0	41	104	0	77	15088
2026-01-24 02:40:37.42	24.76	2.46	-53.4	-65.3	3.8	8.47e-01	0	41	104	0	77	15002
2026-01-24 02:40:38.43	24.77	2.53	-53.4	-65.3	3.8	8.47e-01	0	41	104	0	77	15015
2026-01-24 02:40:39.43	24.77	2.59	-53.4	-65.3	3.8	8.46e-01	0	41	104	0	77	15021
2026-01-24 02:40:40.44	24.78	2.66	-53.4	-65.3	3.8	8.45e-01	0	41	104	0	77	14996
2026-01-24 02:40:41.45	24.79	2.72	-53.4	-65.3	3.8	8.47e-01	0	41	104	0	77	15004
2026-01-24 02:40:42.46	24.80	2.79	-53.3	-65.3	3.8	8.46e-01	0	42	104	0	77	15024
2026-01-24 02:40:43.47	24.80	2.86	-53.4	-65.4	3.8	8.46e-01	0	42	104	0	77	15055
2026-01-24 02:40:44.47	24.81	2.92	-53.4	-65.3	3.8	8.47e-01	0	42	104	0	77	14996
2026-01-24 02:40:45.48	24.82	2.99	-53.4	-65.3	3.8	8.44e-01	0	42	104	0	77	15024
2026-01-24 02:40:46.49	24.83	3.05	-53.4	-65.3	3.8	8.45e-01	0	41	104	0	77	15005
2026-01-24 02:40:47.50	24.83	3.12	-53.4	-65.3	3.8	8.46e-01	0	42	104	0	77	14985
2026-01-24 02:40:48.51	24.84	3.19	-53.4	-65.3	3.8	8.46e-01	0	42	104	0	77	15023
2026-01-24 02:40:49.52	24.85	3.26	-53.4	-65.3	3.8	8.45e-01	0	42	104	0	77	15027
2026-01-24 02:40:50.52	24.86	3.32	-53.4	-65.3	3.8	8.46e-01	0	42	104	0	77	15033
2026-01-24 02:40:51.53	24.86	3.39	-53.4	-65.3	3.8	8.46e-01	0	42	104	0	77	15025
2026-01-24 02:40:52.54	24.87	3.46	-53.4	-65.3	3.8	8.48e-01	0	42	104	0	77	15041
2026-01-24 02:40:53.55	24.88	3.53	-53.4	-65.4	3.8	8.46e-01	0	42	104	0	77	15063
2026-01-24 02:40:54.55	24.89	3.59	-53.4	-65.3	3.8	8.45e-01	0	42	104	0	77	15047
2026-01-24 02:40:55.56	24.89	3.66	-53.4	-65.3	3.8	8.46e-01	0	42	104	0	77	15032
2026-01-24 02:40:56.57	24.90	3.73	-53.4	-65.3	3.8	8.46e-01	0	42	104	0	77	15041
2026-01-24 02:40:57.58	24.91	3.80	-53.4	-65.4	3.8	8.45e-01	0	42	104	0	77	15058
2026-01-24 02:40:58.59	24.92	3.87	-53.4	-65.4	3.8	8.46e-01	0	42	104	0	77	15077
2026-01-24 02:40:59.60	24.93	3.94	-53.4	-65.4	3.8	8.46e-01	0	42	104	0	77	15053
2026-01-24 02:41:00.60	24.93	4.00	-53.4	-65.3	3.8	8.46e-01	0	42	104	0	77	15040
2026-01-24 02:41:01.61	24.94	4.07	-53.4	-65.3	3.8	8.47e-01	0	42	104	0	77	14997
2026-01-24 02:41:02.62	24.95	4.14	-53.4	-65.3	3.8	8.45e-01	0	42	104	0	77	15025
2026-01-24 02:41:03.63	24.96	4.21	-53.4	-65.3	3.8	8.46e-01	0	42	104	0	77	15024
2026-01-24 02:41:04.64	24.96	4.28	-53.4	-65.3	3.8	8.45e-01	0	42	104	0	77	15019
2026-01-24 02:41:05.64	24.97	4.35	-53.4	-65.3	3.8	8.46e-01	0	42	104	0	77	15004
2026-01-24 02:41:06.65	24.98	4.42	-53.4	-65.3	3.8	8.47e-01	0	42	104	0	77	15043
2026-01-24 02:41:07.65	24.99	4.49	-53.4	-65.3	3.8	8.45e-01	0	42	104	0	77	15010
2026-01-24 02:41:08.66	25.00	4.56	-53.4	-65.3	3.8	8.45e-01	0	42	104	0	77	15003
2026-01-24 02:41:09.67	25.00	4.63	-53.4	-65.3	3.8	8.45e-01	0	42	104	0	77	15003
2026-01-24 02:41:10.68	25.01	4.70	-53.4	-65.3	3.8	8.46e-01	0	42	104	0	77	15014
2026-01-24 02:41:11.69	25.02	4.78	-53.4	-65.3	3.8	8.47e-01	0	42	104	0	77	15026
2026-01-24 02:41:12.69	25.03	4.85	-53.4	-65.4	3.8	8.45e-01	0	42	104	0	77	15067
2026-01-24 02:41:13.70	25.04	4.92	-53.4	-65.3	3.8	8.47e-01	0	42	104	0	77	15024
2026-01-24 02:41:14.71	25.04	4.99	-53.4	-65.4	3.8	8.46e-01	0	42	104	0	77	15074
2026-01-24 02:41:15.72	25.05	5.06	-53.4	-65.3	3.8	8.45e-01	0	42	104	0	77	15000
2026-01-24 02:41:16.73	25.06	5.13	-53.4	-65.3	3.8	8.46e-01	0	42	104	0	77	15039
2026-01-24 02:41:17.73	25.07	5.20	-53.4	-65.4	3.8	8.46e-01	0	42	104	0	77	15061
2026-01-24 02:41:18.74	25.08	5.28	-53.4	-65.3	3.8	8.46e-01	0	42	104	0	77	15038
2026-01-24 02:41:19.75	25.08	5.35	-53.4	-65.4	3.8	8.47e-01	0	42	104	0	77	15063
2026-01-24 02:41:20.76	25.09	5.42	-53.4	-65.3	3.8	8.46e-01	0	42	104	0	77	15048
2026-01-24 02:41:21.77	25.10	5.50	-53.4	-65.4	3.8	8.46e-01	0	42	104	0	77	15058
2026-01-24 02:41:22.77	25.11	5.57	-53.4	-65.3	3.8	8.47e-01	0	42	104	0	77	15017
2026-01-24 02:41:23.78	25.12	5.64	-53.4	-65.3	3.8	8.46e-01	0	42	104	0	77	15037
2026-01-24 02:41:24.79	25.12	5.72	-53.4	-65.3	3.8	8.46e-01	0	42	104	0	77	15039
2026-01-24 02:41:25.80	25.13	5.79	-53.4	-65.3	3.8	8.46e-01	0	42	104	0	77	15002
2026-01-24 02:41:26.80	25.14	5.86	-53.4	-65.3	3.8	8.45e-01	0	42	104	0	77	15027
2026-01-24 02:41:27.81	25.15	5.94	-53.4	-65.3	3.8	8.46e-01	0	42	104	0	77	15023
2026-01-24 02:41:28.82	25.16	6.01	-53.4	-65.4	3.8	8.46e-01	0	42	104	0	77	15074
2026-01-24 02:41:29.83	25.17	6.09	-53.4	-65.3	3.8	8.46e-01	0	42	104	0	77	15044
2026-01-24 02:41:30.84	25.17	6.16	-53.4	-65.3	3.8	8.47e-01	0	42	104	0	77	14999
2026-01-24 02:41:31.85	25.18	6.24	-53.4	-65.4	3.8	8.46e-01	0	43	104	0	77	15062
2026-01-24 02:41:32.86	25.19	6.31	-53.4	-65.4	3.8	8.45e-01	0	42	104	0	77	15080
2026-01-24 02:41:33.87	25.20	6.39	-53.4	-65.3	3.8	8.46e-01	0	43	104	0	77	15050
2026-01-24 02:41:34.88	25.21	6.46	-53.4	-65.3	3.8	8.47e-01	0	42	104	0	77	15046
2026-01-24 02:41:35.88	25.22	6.54	-53.4	-65.3	3.8	8.46e-01	0	43	104	0	77	15038
2026-01-24 02:41:36.89	25.22	6.61	-53.4	-65.3	3.8	8.46e-01	0	43	104	0	77	15020
2026-01-24 02:41:37.90	25.23	6.69	-53.4	-65.4	3.8	8.45e-01	0	42	104	0	77	15060
2026-01-24 02:41:38.91	25.24	6.77	-53.4	-65.3	3.8	8.45e-01	0	42	104	0	77	15035
2026-01-24 02:41:39.91	25.25	6.84	-53.4	-65.4	3.8	8.46e-01	0	42	104	0	77	15071
2026-01-24 02:41:40.92	25.26	6.92	-53.4	-65.3	3.8	8.46e-01	0	43	104	0	77	14984
2026-01-24 02:41:41.93	25.27	7.00	-53.4	-65.3	3.8	8.46e-01	0	42	104	0	77	15029
2026-01-24 02:41:42.94	25.27	7.08	-53.4	-65.3	3.8	8.46e-01	0	43	104	0	77	15009
2026-01-24 02:41:43.95	25.28	7.15	-53.4	-65.4	3.8	8.45e-01	0	43	104	0	77	15076
2026-01-24 02:41:44.96	25.29	7.23	-53.4	-65.4	3.8	8.47e-01	0	42	104	0	77	15079
2026-01-24 02:41:45.96	25.30	7.31	-53.4	-65.3	3.8	8.47e-01	0	43	104	0	77	15049
2026-01-24 02:41:46.97	25.31	7.39	-53.4	-65.3	3.8	8.46e-01	0	43	104	0	77	15005
2026-01-24 02:41:47.98	25.32	7.47	-53.4	-65.3	3.8	8.46e-01	0	43	104	0	77	15035
2026-01-24 02:41:48.99	25.33	7.55	-53.4	-65.4	3.8	8.45e-01	0	43	104	0	77	15054
2026-01-24 02:41:50.00	25.33	7.63	-53.4	-65.3	3.8	8.46e-01	0	43	104	0	77	15028
2026-01-24 02:41:51.01	25.34	7.71	-53.4	-65.3	3.8	8.46e-01	0	43	104	0	77	14992
2026-01-24 02:41:52.02	25.35	7.78	-53.4	-65.3	3.8	8.46e-01	0	43	104	0	77	14994
2026-01-24 02:41:53.02	25.36	7.86	-53.4	-65.4	3.8	8.46e-01	0	43	104	0	77	15076
2026-01-24 02:41:54.03	25.37	7.94	-53.4	-65.3	3.8	8.46e-01	0	43	104	0	77	15024
2026-01-24 02:41:55.04	25.38	8.03	-53.4	-65.3	3.8	8.45e-01	0	43	104	0	77	15018
2026-01-24 02:41:56.05	25.39	8.11	-53.4	-65.3	3.8	8.46e-01	0	43	104	0	77	15005
2026-01-24 02:41:57.06	25.40	8.19	-53.4	-65.3	3.8	8.47e-01	0	43	104	0	77	15042
2026-01-24 02:41:58.06	25.40	8.27	-53.4	-65.4	3.8	8.46e-01	0	43	104	0	77	15062
2026-01-24 02:41:59.07	25.41	8.35	-53.4	-65.3	3.8	8.46e-01	0	43	104	0	77	14996
2026-01-24 02:42:00.08	25.42	8.43	-53.4	-65.3	3.8	8.45e-01	0	43	104	0	77	14994
2026-01-24 02:42:01.09	25.43	8.51	-53.4	-65.3	3.8	8.46e-01	0	43	104	0	77	15033
2026-01-24 02:42:02.10	25.44	8.60	-53.4	-65.3	3.8	8.47e-01	0	43	104	0	77	15004
2026-01-24 02:42:03.10	25.45	8.68	-53.4	-65.3	3.8	8.45e-01	0	43	104	0	77	15002
2026-01-24 02:42:04.11	25.46	8.76	-53.4	-65.3	3.8	8.45e-01	0	43	104	0	77	15035
2026-01-24 02:42:05.12	25.47	8.84	-53.4	-65.3	3.8	8.46e-01	0	43	104	0	77	15028
2026-01-24 02:42:06.13	25.48	8.93	-53.4	-65.3	3.8	8.46e-01	0	43	104	0	77	15029
2026-01-24 02:42:07.14	25.49	9.01	-53.4	-65.3	3.8	8.46e-01	0	43	104	0	77	15000
2026-01-24 02:42:08.15	25.49	9.10	-53.4	-65.3	3.8	8.46e-01	0	43	104	0	77	14974
2026-01-24 02:42:09.16	25.50	9.18	-53.4	-65.3	3.8	8.45e-01	0	43	104	0	77	15005
2026-01-24 02:42:10.17	25.51	9.26	-53.4	-65.3	3.8	8.46e-01	0	43	104	0	77	15031
2026-01-24 02:42:11.18	25.52	9.35	-53.4	-65.3	3.8	8.47e-01	0	43	104	0	77	15002
2026-01-24 02:42:12.18	25.53	9.43	-53.4	-65.3	3.8	8.46e-01	0	43	104	0	77	15012
2026-01-24 02:42:13.19	25.54	9.52	-53.4	-65.3	3.8	8.45e-01	0	43	104	0	77	15047
2026-01-24 02:42:14.20	25.55	9.61	-53.4	-65.3	3.8	8.45e-01	0	43	104	0	77	15001
2026-01-24 02:42:15.21	25.56	9.69	-53.4	-65.4	3.8	8.46e-01	0	43	104	0	77	15060
2026-01-24 02:42:16.22	25.57	9.78	-53.4	-65.3	3.8	8.47e-01	0	43	104	0	77	15011
2026-01-24 02:42:17.23	25.58	9.86	-53.4	-65.3	3.8	8.47e-01	0	43	104	0	77	15003
2026-01-24 02:42:18.24	25.59	9.95	-53.4	-65.3	3.8	8.46e-01	0	43	104	0	77	15015
2026-01-24 02:42:19.25	25.60	10.04	-53.4	-65.3	3.8	8.45e-01	0	43	104	0	77	15017
2026-01-24 02:42:20.25	25.61	10.13	-53.4	-65.3	3.8	8.46e-01	0	43	104	0	77	14994
2026-01-24 02:42:21.26	25.62	10.21	-53.4	-65.3	3.8	8.45e-01	0	43	104	0	77	15018
2026-01-24 02:42:22.27	25.63	10.30	-53.4	-65.3	3.8	8.46e-01	0	43	104	0	77	15007
2026-01-24 02:42:23.28	25.63	10.39	-53.4	-65.3	3.8	8.46e-01	0	43	104	0	77	15013
2026-01-24 02:42:24.29	25.64	10.48	-53.4	-65.3	3.8	8.46e-01	0	43	104	0	77	15004
2026-01-24 02:42:25.30	25.65	10.57	-53.4	-65.3	3.8	8.45e-01	0	43	104	0	77	14981
2026-01-24 02:42:26.31	25.66	10.66	-53.4	-65.3	3.8	8.47e-01	0	43	104	0	77	15021
2026-01-24 02:42:27.32	25.67	10.75	-53.4	-65.3	3.8	8.45e-01	0	43	104	0	77	14985
2026-01-24 02:42:28.33	25.68	10.84	-53.4	-65.3	3.8	8.46e-01	0	43	104	0	77	14974
2026-01-24 02:42:29.34	25.69	10.93	-53.4	-65.3	3.8	8.46e-01	0	43	104	0	77	15044
2026-01-24 02:42:30.34	25.70	11.02	-53.4	-65.3	3.8	8.47e-01	0	43	104	0	77	14984
2026-01-24 02:42:31.35	25.71	11.11	-53.4	-65.3	3.8	8.46e-01	0	43	104	0	77	15038
2026-01-24 02:42:32.36	25.72	11.20	-53.4	-65.3	3.8	8.45e-01	0	43	104	0	77	15041
2026-01-24 02:42:33.37	25.73	11.29	-53.4	-65.3	3.8	8.46e-01	0	43	104	0	77	15023
2026-01-24 02:42:34.38	25.74	11.39	-53.4	-65.4	3.8	8.46e-01	0	43	104	0	77	15071
2026-01-24 02:42:35.39	25.75	11.48	-53.4	-65.3	3.8	8.46e-01	0	43	104	0	77	15022
2026-01-24 02:42:36.39	25.76	11.57	-53.4	-65.3	3.8	8.46e-01	0	43	104	0	77	15014
2026-01-24 02:42:37.40	25.77	11.66	-53.4	-65.3	3.8	8.46e-01	0	43	104	0	77	15017
2026-01-24 02:42:38.41	25.78	11.76	-53.4	-65.3	3.8	8.45e-01	0	43	104	0	77	15010
2026-01-24 02:42:39.42	25.79	11.85	-53.4	-65.3	3.8	8.46e-01	0	43	104	0	77	15044
2026-01-24 02:42:40.43	25.80	11.95	-53.4	-65.3	3.8	8.46e-01	0	43	104	0	77	14996
2026-01-24 02:42:41.44	25.81	12.04	-53.4	-65.3	3.8	8.47e-01	0	43	104	0	77	14975
2026-01-24 02:42:42.44	25.82	12.14	-53.4	-65.3	3.8	8.46e-01	0	43	104	0	77	15035
2026-01-24 02:42:43.45	25.83	12.23	-53.4	-65.3	3.8	8.46e-01	0	43	104	0	77	15019
2026-01-24 02:42:44.46	25.84	12.33	-53.4	-65.3	3.8	8.45e-01	0	43	104	0	77	15001
2026-01-24 02:42:45.47	25.85	12.42	-53.4	-65.4	3.8	8.45e-01	0	43	104	0	77	15084
2026-01-24 02:42:46.47	25.86	12.52	-53.4	-65.4	3.8	8.46e-01	0	43	104	0	77	15069
2026-01-24 02:42:47.48	25.87	12.62	-53.4	-65.3	3.8	8.46e-01	0	43	104	0	77	15027
2026-01-24 02:42:48.49	25.88	12.71	-53.4	-65.3	3.8	8.46e-01	0	43	104	0	77	15039
2026-01-24 02:42:49.50	25.89	12.81	-53.4	-65.4	3.8	8.46e-01	0	43	104	0	77	15063
2026-01-24 02:42:50.51	25.91	12.91	-53.4	-65.3	3.8	8.46e-01	0	43	104	0	77	15020
2026-01-24 02:42:51.51	25.92	13.01	-53.4	-65.3	3.8	8.46e-01	0	43	104	0	77	15025
2026-01-24 02:42:52.52	25.93	13.11	-53.4	-65.3	3.8	8.47e-01	0	43	104	0	77	15037
2026-01-24 02:42:53.53	25.94	13.21	-53.4	-65.4	3.8	8.46e-01	0	43	104	0	77	15058
2026-01-24 02:42:54.54	25.95	13.31	-53.4	-65.3	3.8	8.47e-01	0	43	104	0	77	15025
2026-01-24 02:42:55.55	25.96	13.41	-53.4	-65.3	3.8	8.46e-01	0	43	104	0	77	15037
2026-01-24 02:42:56.55	25.97	13.51	-53.4	-65.4	3.8	8.47e-01	0	43	104	0	77	15054
2026-01-24 02:42:57.57	25.98	13.61	-53.4	-65.4	3.8	8.46e-01	0	43	104	0	77	15052
2026-01-24 02:42:58.57	25.99	13.71	-53.4	-65.3	3.8	8.47e-01	0	43	104	0	77	15021
2026-01-24 02:42:59.58	26.00	13.81	-53.4	-65.3	3.8	8.45e-01	0	43	104	0	77	15016
2026-01-24 02:43:00.59	26.01	13.91	-53.4	-65.3	3.8	8.47e-01	0	43	104	0	77	15007
2026-01-24 02:43:01.60	26.02	14.01	-53.4	-65.3	3.8	8.46e-01	0	43	104	0	77	15014
2026-01-24 02:43:02.60	26.03	14.12	-53.4	-65.3	3.8	8.45e-01	0	43	104	0	77	15030
2026-01-24 02:43:03.61	26.05	14.22	-53.4	-65.3	3.8	8.48e-01	0	43	104	0	77	15006
2026-01-24 02:43:04.62	26.06	14.32	-53.4	-65.3	3.8	8.45e-01	0	43	104	0	77	15049
2026-01-24 02:43:05.63	26.07	14.43	-53.4	-65.3	3.8	8.46e-01	0	43	104	0	77	14988
2026-01-24 02:43:06.64	26.08	14.53	-53.4	-65.3	3.8	8.46e-01	0	43	104	0	77	15022
2026-01-24 02:43:07.65	26.09	14.64	-53.4	-65.4	3.8	8.46e-01	0	43	104	0	77	15062
2026-01-24 02:43:08.66	26.10	14.75	-53.4	-65.3	3.8	8.46e-01	0	43	104	0	77	15043
2026-01-24 02:43:09.66	26.11	14.85	-53.4	-65.3	3.8	8.46e-01	0	43	104	0	77	15013
2026-01-24 02:43:10.67	26.12	14.96	-53.4	-65.3	3.8	8.46e-01	0	43	104	0	77	15017
2026-01-24 02:43:11.68	26.14	15.07	-53.4	-65.3	3.8	8.46e-01	0	43	104	0	77	14970
2026-01-24 02:43:12.69	26.15	15.17	-53.4	-65.4	3.8	8.47e-01	0	43	104	0	77	15052
2026-01-24 02:43:13.70	26.16	15.28	-53.4	-65.3	3.8	8.47e-01	0	43	104	0	77	15032
2026-01-24 02:43:14.71	26.17	15.39	-53.4	-65.3	3.8	8.46e-01	0	43	104	0	77	14995
2026-01-24 02:43:15.72	26.18	15.50	-53.4	-65.4	3.8	8.45e-01	0	43	104	0	77	15062
2026-01-24 02:43:16.73	26.19	15.61	-53.4	-65.3	3.8	8.48e-01	0	43	104	0	77	15024
2026-01-24 02:43:17.74	26.21	15.72	-53.4	-65.3	3.8	8.47e-01	0	43	104	0	77	14980
2026-01-24 02:43:18.75	26.22	15.83	-53.4	-65.3	3.8	8.46e-01	0	43	104	0	77	15016
2026-01-24 02:43:19.76	26.23	15.94	-53.4	-65.3	3.8	8.46e-01	0	43	104	0	77	15018
2026-01-24 02:43:20.77	26.24	16.05	-53.4	-65.3	3.8	8.45e-01	0	43	104	0	77	15036
2026-01-24 02:43:21.78	26.25	16.17	-53.4	-65.3	3.8	8.46e-01	0	43	104	0	77	15051
2026-01-24 02:43:22.79	26.27	16.28	-53.4	-65.3	3.8	8.47e-01	0	43	104	0	77	15001
2026-01-24 02:43:23.79	26.28	16.39	-53.4	-65.3	3.8	8.47e-01	0	43	104	0	77	14992
2026-01-24 02:43:24.80	26.29	16.50	-53.4	-65.4	3.8	8.46e-01	0	43	104	0	77	15100
2026-01-24 02:43:25.81	26.30	16.62	-53.4	-65.3	3.8	8.46e-01	0	43	104	0	77	15030
2026-01-24 02:43:26.82	26.31	16.73	-53.4	-65.3	3.8	8.48e-01	0	43	104	0	77	15015
2026-01-24 02:43:27.83	26.33	16.85	-53.4	-65.3	3.8	8.46e-01	0	43	104	0	77	15016
2026-01-24 02:43:28.83	26.34	16.96	-53.4	-65.3	3.8	8.46e-01	0	43	104	0	77	15005
2026-01-24 02:43:29.84	26.35	17.08	-53.4	-65.3	3.8	8.45e-01	0	43	104	0	77	15032
2026-01-24 02:43:30.85	26.36	17.20	-53.4	-65.3	3.8	8.47e-01	0	43	104	0	77	15022
2026-01-24 02:43:31.86	26.38	17.32	-53.4	-65.4	3.8	8.47e-01	0	43	104	0	77	15079
2026-01-24 02:43:32.87	26.39	17.43	-53.4	-65.3	3.8	8.46e-01	0	43	104	0	77	14973
2026-01-24 02:43:33.87	26.40	17.55	-53.4	-65.3	3.8	8.45e-01	0	43	104	0	77	15036
2026-01-24 02:43:34.88	26.41	17.67	-53.4	-65.3	3.8	8.46e-01	0	43	104	0	77	14987
2026-01-24 02:43:35.89	26.43	17.79	-53.4	-65.3	3.8	8.47e-01	0	43	104	0	77	15008
2026-01-24 02:43:36.90	26.44	17.91	-53.4	-65.3	3.8	8.47e-01	0	43	104	0	77	15031
2026-01-24 02:43:37.91	26.45	18.03	-53.4	-65.4	3.8	8.46e-01	0	43	104	0	77	15060
2026-01-24 02:43:38.91	26.47	18.15	-53.4	-65.3	3.8	8.46e-01	0	43	104	0	77	15023
2026-01-24 02:43:39.92	26.48	18.28	-53.4	-65.4	3.8	8.47e-01	0	43	104	0	77	15098
2026-01-24 02:43:40.93	26.49	18.40	-53.4	-65.4	3.8	8.46e-01	0	43	104	0	77	15073
2026-01-24 02:43:41.94	26.51	18.52	-53.4	-65.3	3.8	8.46e-01	0	43	104	0	77	15022
2026-01-24 02:43:42.95	26.52	18.65	-53.4	-65.3	3.8	8.45e-01	0	43	104	0	77	15038
2026-01-24 02:43:43.96	26.53	18.77	-53.4	-65.4	3.8	8.47e-01	0	43	104	0	77	15082
2026-01-24 02:43:44.96	26.55	18.90	-53.4	-65.4	3.8	8.46e-01	0	43	104	0	77	15078
2026-01-24 02:43:45.97	26.56	19.02	-53.4	-65.3	3.8	8.46e-01	0	43	104	0	77	15030
2026-01-24 02:43:46.98	26.57	19.15	-53.4	-65.4	3.8	8.46e-01	0	43	104	0	77	15090
2026-01-24 02:43:47.99	26.59	19.28	-53.4	-65.4	3.8	8.46e-01	0	43	104	0	77	15135
2026-01-24 02:43:49.00	26.60	19.40	-53.4	-65.4	3.8	8.46e-01	0	43	104	0	77	15060
2026-01-24 02:43:50.01	26.62	19.53	-53.4	-65.4	3.8	8.46e-01	0	43	104	0	77	15113
2026-01-24 02:43:51.02	26.63	19.66	-53.4	-65.4	3.8	8.46e-01	0	43	104	0	77	15068
2026-01-24 02:43:52.03	26.64	19.79	-53.4	-65.4	3.8	8.46e-01	0	43	104	0	77	15084
2026-01-24 02:43:53.03	26.66	19.92	-53.4	-65.4	3.8	8.46e-01	0	43	104	0	77	15090
2026-01-24 02:43:54.04	26.67	20.05	-53.4	-65.4	3.8	8.46e-01	0	43	104	0	77	15084
2026-01-24 02:43:55.05	26.69	20.18	-53.4	-65.4	3.8	8.46e-01	0	43	104	0	77	15086
2026-01-24 02:43:56.06	26.70	20.32	-53.4	-65.3	3.8	8.47e-01	0	43	104	0	77	15042
2026-01-24 02:43:57.07	26.71	20.45	-53.4	-65.3	3.8	8.46e-01	0	43	104	0	77	15045
2026-01-24 02:43:58.08	26.73	20.59	-53.4	-65.4	3.8	8.47e-01	0	43	104	0	77	15142
2026-01-24 02:43:59.08	26.74	20.72	-53.4	-65.4	3.8	8.48e-01	0	43	104	0	77	15122
2026-01-24 02:44:00.09	26.76	20.86	-53.4	-65.4	3.8	8.46e-01	0	43	104	0	77	15081
2026-01-24 02:44:01.10	26.77	20.99	-53.4	-65.4	3.8	8.46e-01	0	43	104	0	77	15077
2026-01-24 02:44:02.11	26.79	21.13	-53.4	-65.4	3.8	8.45e-01	0	43	104	0	77	15085
2026-01-24 02:44:03.12	26.80	21.27	-53.4	-65.4	3.8	8.47e-01	0	43	104	0	77	15064
2026-01-24 02:44:04.12	26.82	21.40	-53.4	-65.4	3.8	8.45e-01	0	43	104	0	77	15097
2026-01-24 02:44:05.13	26.83	21.54	-53.4	-65.4	3.8	8.45e-01	0	43	104	0	77	15114
2026-01-24 02:44:06.14	26.85	21.68	-53.4	-65.4	3.8	8.47e-01	0	43	104	0	77	15113
2026-01-24 02:44:07.15	26.86	21.83	-53.4	-65.4	3.8	8.46e-01	0	43	104	0	77	15113
2026-01-24 02:44:08.15	26.88	21.97	-53.4	-65.4	3.8	8.46e-01	0	43	104	0	77	15069
2026-01-24 02:44:09.16	26.90	22.11	-53.4	-65.4	3.8	8.45e-01	0	43	104	0	77	15117
2026-01-24 02:44:10.17	26.91	22.25	-53.4	-65.4	3.8	8.45e-01	0	43	104	0	77	15053
2026-01-24 02:44:11.18	26.93	22.40	-53.4	-65.3	3.8	8.46e-01	0	43	104	0	77	15036
2026-01-24 02:44:12.19	26.94	22.54	-53.4	-65.3	3.8	8.44e-01	0	43	104	0	77	15032
2026-01-24 02:44:13.19	26.96	22.69	-53.4	-65.4	3.8	8.46e-01	0	43	104	0	77	15054
2026-01-24 02:44:14.20	26.98	22.83	-53.4	-65.3	3.8	8.46e-01	0	43	104	0	77	15049
2026-01-24 02:44:15.21	26.99	22.98	-53.4	-65.3	3.8	8.46e-01	0	43	104	0	77	15022
2026-01-24 02:44:16.22	27.01	23.13	-53.4	-65.3	3.8	8.47e-01	0	43	104	0	77	15045
2026-01-24 02:44:17.23	27.02	23.28	-53.4	-65.4	3.8	8.45e-01	0	43	104	0	77	15053
2026-01-24 02:44:18.24	27.04	23.43	-53.4	-65.4	3.8	8.46e-01	0	43	104	0	77	15067
2026-01-24 02:44:19.24	27.06	23.58	-53.4	-65.4	3.8	8.47e-01	0	43	104	0	77	15065
2026-01-24 02:44:20.25	27.08	23.73	-53.4	-65.3	3.8	8.47e-01	0	43	104	0	77	15017
2026-01-24 02:44:21.26	27.09	23.88	-53.4	-65.4	3.8	8.46e-01	0	43	104	0	77	15052
2026-01-24 02:44:22.27	27.11	24.04	-53.4	-65.3	3.8	8.46e-01	0	43	104	0	77	15045
2026-01-24 02:44:23.27	27.13	24.19	-53.4	-65.3	3.8	8.46e-01	0	43	104	0	77	15036
2026-01-24 02:44:24.28	27.14	24.34	-53.4	-65.4	3.8	8.47e-01	0	43	104	0	77	15088
2026-01-24 02:44:25.29	27.16	24.50	-53.4	-65.4	3.8	8.46e-01	0	43	104	0	77	15063
2026-01-24 02:44:26.30	27.18	24.66	-53.4	-65.4	3.8	8.47e-01	0	43	104	0	77	15067
2026-01-24 02:44:27.31	27.20	24.82	-53.4	-65.4	3.8	8.46e-01	0	43	104	0	77	15080
2026-01-24 02:44:28.31	27.21	24.97	-53.4	-65.4	3.8	8.45e-01	0	43	104	0	77	15074
2026-01-24 02:44:29.32	27.23	25.13	-53.4	-65.3	3.8	8.48e-01	0	43	104	0	77	15051
2026-01-24 02:44:30.33	27.25	25.30	-53.4	-65.3	3.8	8.47e-01	0	43	104	0	77	15044
2026-01-24 02:44:31.34	27.27	25.46	-53.4	-65.4	3.8	8.46e-01	0	43	104	0	77	15074
2026-01-24 02:44:32.35	27.29	25.62	-53.4	-65.3	3.8	8.45e-01	0	43	104	0	77	15011
2026-01-24 02:44:33.36	27.31	25.79	-53.4	-65.4	3.8	8.46e-01	0	43	104	0	77	15074
2026-01-24 02:44:34.37	27.33	25.95	-53.4	-65.3	3.8	8.45e-01	0	43	104	0	77	15051
2026-01-24 02:44:35.38	27.34	26.12	-53.4	-65.4	3.8	8.45e-01	0	43	104	0	77	15108
2026-01-24 02:44:36.38	27.36	26.28	-53.4	-65.3	3.8	8.47e-01	0	43	104	0	77	15039
2026-01-24 02:44:37.39	27.38	26.45	-53.4	-65.3	3.8	8.45e-01	0	43	104	0	77	15015
2026-01-24 02:44:38.40	27.40	26.62	-53.4	-65.3	3.8	8.46e-01	0	43	104	0	77	15044
2026-01-24 02:44:39.41	27.42	26.79	-53.4	-65.3	3.8	8.46e-01	0	43	104	0	77	15043
2026-01-24 02:44:40.42	27.44	26.96	-53.4	-65.3	3.8	8.46e-01	0	43	104	0	77	15015
2026-01-24 02:44:41.43	27.46	27.14	-53.4	-65.4	3.8	8.47e-01	0	43	104	0	77	15063
2026-01-24 02:44:42.43	27.48	27.31	-53.4	-65.4	3.8	8.47e-01	0	43	104	0	77	15054
2026-01-24 02:44:43.44	27.50	27.48	-53.4	-65.4	3.8	8.46e-01	0	43	104	0	77	15092
2026-01-24 02:44:44.45	27.52	27.66	-53.4	-65.4	3.8	8.45e-01	0	43	104	0	77	15067
2026-01-24 02:44:45.46	27.54	27.84	-53.4	-65.3	3.8	8.46e-01	0	43	104	0	77	15012
2026-01-24 02:44:46.47	27.56	28.01	-53.4	-65.4	3.8	8.46e-01	0	43	104	0	77	15064
2026-01-24 02:44:47.48	27.58	28.19	-53.4	-65.3	3.8	8.45e-01	0	43	104	0	77	15033
2026-01-24 02:44:48.49	27.61	28.37	-53.4	-65.4	3.8	8.46e-01	0	43	104	0	77	15084
2026-01-24 02:44:49.49	27.63	28.55	-53.4	-65.3	3.8	8.46e-01	0	43	104	0	77	15009
2026-01-24 02:44:50.50	27.65	28.74	-53.4	-65.4	3.8	8.46e-01	0	43	104	0	77	15078
2026-01-24 02:44:51.51	27.67	28.92	-53.4	-65.4	3.8	8.45e-01	0	43	104	0	77	15064
2026-01-24 02:44:52.52	27.69	29.11	-53.4	-65.3	3.8	8.46e-01	0	43	104	0	77	15044
2026-01-24 02:44:53.53	27.71	29.29	-53.4	-65.3	3.8	8.46e-01	0	43	104	0	77	15022
2026-01-24 02:44:54.53	27.74	29.48	-53.4	-65.4	3.8	8.46e-01	0	43	104	0	77	15087
2026-01-24 02:44:55.54	27.76	29.67	-53.4	-65.3	3.8	8.46e-01	0	43	104	0	77	14992
2026-01-24 02:44:56.55	27.78	29.86	-53.4	-65.4	3.8	8.46e-01	0	43	104	0	77	15052
2026-01-24 02:44:57.56	27.80	30.05	-53.4	-65.3	3.8	8.47e-01	0	43	104	0	77	15021
2026-01-24 02:44:58.57	27.83	30.24	-53.4	-65.3	3.8	8.45e-01	0	43	104	0	77	15011
2026-01-24 02:44:59.57	27.85	30.44	-53.4	-65.3	3.8	8.47e-01	0	43	104	0	77	15007
2026-01-24 02:45:00.58	27.88	30.63	-53.4	-65.3	3.8	8.47e-01	0	43	104	0	77	15027
2026-01-24 02:45:01.59	27.90	30.83	-53.4	-65.3	3.8	8.46e-01	0	43	104	0	77	14978
2026-01-24 02:45:02.60	27.92	31.03	-53.4	-65.3	3.8	8.46e-01	0	43	104	0	77	14986
2026-01-24 02:45:03.61	27.95	31.23	-53.4	-65.3	3.8	8.46e-01	0	43	104	0	77	15009
2026-01-24 02:45:04.61	27.97	31.43	-53.4	-65.3	3.8	8.47e-01	0	43	104	0	77	14985
2026-01-24 02:45:05.62	28.00	31.63	-53.4	-65.3	3.8	8.45e-01	0	43	104	0	77	15007
2026-01-24 02:45:06.63	28.02	31.83	-53.4	-65.3	3.8	8.46e-01	0	43	104	0	77	15016
2026-01-24 02:45:07.64	28.05	32.04	-53.4	-65.3	3.8	8.47e-01	0	43	104	0	77	15041
2026-01-24 02:45:08.65	28.07	32.24	-53.4	-65.3	3.8	8.46e-01	0	43	104	0	77	15033
2026-01-24 02:45:09.65	28.10	32.45	-53.4	-65.3	3.8	8.47e-01	0	43	104	0	77	15033
2026-01-24 02:45:10.66	28.13	32.66	-53.4	-65.3	3.8	8.45e-01	0	43	104	0	77	15009
2026-01-24 02:45:11.67	28.15	32.87	-53.4	-65.3	3.8	8.45e-01	0	43	104	0	77	15013
2026-01-24 02:45:12.68	28.18	33.08	-53.4	-65.4	3.8	8.46e-01	0	43	104	0	77	15058
2026-01-24 02:45:13.69	28.21	33.30	-53.4	-65.3	3.8	8.46e-01	0	43	104	0	77	15008
2026-01-24 02:45:14.70	28.23	33.51	-53.4	-65.3	3.8	8.46e-01	0	43	104	0	77	15027
2026-01-24 02:45:15.71	28.26	33.73	-53.4	-65.4	3.8	8.47e-01	0	43	104	0	77	15059
2026-01-24 02:45:16.72	28.29	33.95	-53.4	-65.3	3.8	8.46e-01	0	43	104	0	77	15015
2026-01-24 02:45:17.72	28.32	34.17	-53.4	-65.3	3.8	8.46e-01	0	43	104	0	77	15038
2026-01-24 02:45:18.73	28.35	34.39	-53.4	-65.3	3.8	8.47e-01	0	43	104	0	77	15042
2026-01-24 02:45:19.74	28.38	34.61	-53.4	-65.3	3.8	8.46e-01	0	43	104	0	77	15014
2026-01-24 02:45:20.75	28.41	34.84	-53.4	-65.3	3.8	8.46e-01	0	43	104	0	77	14970
2026-01-24 02:45:21.76	28.44	35.06	-53.4	-65.3	3.8	8.46e-01	0	43	104	0	77	14973
2026-01-24 02:45:22.76	28.47	35.29	-53.4	-65.3	3.8	8.46e-01	0	43	104	0	77	15005
2026-01-24 02:45:23.77	28.50	35.52	-53.4	-65.3	3.8	8.47e-01	0	43	104	0	77	14929
2026-01-24 02:45:24.78	28.53	35.75	-53.4	-65.3	3.8	8.46e-01	0	43	104	0	77	14951
2026-01-24 02:45:25.79	28.56	35.98	-53.4	-65.3	3.8	8.45e-01	0	43	104	0	77	15012
2026-01-24 02:45:26.80	28.59	36.22	-53.4	-65.3	3.8	8.46e-01	0	43	104	0	77	14993
2026-01-24 02:45:27.81	28.62	36.45	-53.4	-65.3	3.8	8.45e-01	0	43	104	0	77	15028
2026-01-24 02:45:28.82	28.65	36.69	-53.4	-65.3	3.8	8.47e-01	0	43	104	0	77	14966
2026-01-24 02:45:29.83	28.69	36.93	-53.4	-65.3	3.8	8.46e-01	0	43	104	0	77	15039
2026-01-24 02:45:30.84	28.72	37.17	-53.4	-65.3	3.8	8.46e-01	0	43	104	0	77	14979
2026-01-24 02:45:31.85	28.76	37.42	-53.4	-65.3	3.8	8.46e-01	0	43	104	0	77	15030
2026-01-24 02:45:32.86	28.79	37.66	-53.4	-65.3	3.8	8.47e-01	0	44	104	0	77	15038
2026-01-24 02:45:33.86	28.82	37.91	-53.4	-65.3	3.8	8.46e-01	0	43	104	0	77	15000
2026-01-24 02:45:34.87	28.86	38.16	-53.4	-65.3	3.8	8.45e-01	0	43	104	0	77	14999
2026-01-24 02:45:35.88	28.89	38.41	-53.4	-65.3	3.8	8.46e-01	0	43	104	0	77	14956
2026-01-24 02:45:36.89	28.93	38.66	-53.4	-65.3	3.8	8.45e-01	0	43	104	0	77	15032
2026-01-24 02:45:37.90	28.97	38.92	-53.4	-65.3	3.8	8.46e-01	0	43	104	0	77	15009
2026-01-24 02:45:38.90	29.00	39.17	-53.4	-65.3	3.8	8.46e-01	0	43	104	0	77	14964
2026-01-24 02:45:39.91	29.04	39.43	-53.4	-65.3	3.8	8.45e-01	0	43	104	0	77	14982
2026-01-24 02:45:40.92	29.08	39.69	-53.4	-65.3	3.8	8.47e-01	0	43	104	0	77	14959
2026-01-24 02:45:41.93	29.12	39.95	-53.4	-65.3	3.8	8.46e-01	0	43	104	0	77	14982
2026-01-24 02:45:42.94	29.16	40.21	-53.4	-65.3	3.8	8.45e-01	0	43	104	0	77	14945
2026-01-24 02:45:43.95	29.20	40.48	-53.4	-65.3	3.8	8.47e-01	0	43	104	0	77	14975
2026-01-24 02:45:44.96	29.24	40.75	-53.4	-65.3	3.8	8.46e-01	0	43	104	0	77	14991
2026-01-24 02:45:45.96	29.28	41.02	-53.4	-65.3	3.8	8.47e-01	0	43	104	0	77	14977
2026-01-24 02:45:46.97	29.32	41.29	-53.4	-65.3	3.8	8.45e-01	0	43	104	0	77	15003
2026-01-24 02:45:47.98	29.36	41.56	-53.4	-65.3	3.8	8.45e-01	0	43	104	0	77	14984
2026-01-24 02:45:48.98	29.41	41.84	-53.4	-65.3	3.8	8.45e-01	0	43	104	0	77	14998
2026-01-24 02:45:49.99	29.45	42.12	-53.4	-65.3	3.8	8.45e-01	0	43	104	0	77	14960
2026-01-24 02:45:51.00	29.49	42.40	-53.4	-65.3	3.8	8.46e-01	0	44	104	0	77	15043
2026-01-24 02:45:52.01	29.54	42.68	-53.4	-65.3	3.8	8.46e-01	0	43	104	0	77	15001
2026-01-24 02:45:53.02	29.59	42.96	-53.4	-65.3	3.8	8.46e-01	0	43	104	0	77	14990
2026-01-24 02:45:54.02	29.63	43.25	-53.4	-65.3	3.8	8.46e-01	0	43	104	0	77	14994
2026-01-24 02:45:55.03	29.68	43.54	-53.4	-65.3	3.8	8.46e-01	0	43	104	0	77	15004
2026-01-24 02:45:56.04	29.73	43.83	-53.4	-65.3	3.8	8.45e-01	0	43	104	0	77	15027
2026-01-24 02:45:57.05	29.78	44.12	-53.4	-65.3	3.8	8.45e-01	0	43	104	0	77	15019
2026-01-24 02:45:58.06	29.83	44.42	-53.4	-65.3	3.8	8.46e-01	0	43	104	0	77	15007
2026-01-24 02:45:59.06	29.88	44.71	-53.4	-65.3	3.8	8.47e-01	0	43	104	0	77	14993
2026-01-24 02:46:00.07	29.93	45.01	-53.4	-65.3	3.8	8.46e-01	0	43	104	0	77	14985
2026-01-24 02:46:01.05	29.98	45.31	-53.4	-65.3	3.8	8.47e-01	0	43	104	0	77	14946
2026-01-24 02:46:02.06	30.03	45.61	-53.4	-65.3	3.8	8.46e-01	0	43	104	0	77	14958
2026-01-24 02:46:03.07	30.09	45.92	-53.4	-65.3	3.8	8.46e-01	0	43	104	0	77	14893
2026-01-24 02:46:04.08	30.14	46.23	-53.4	-65.3	3.8	8.45e-01	0	43	104	0	77	14943
2026-01-24 02:46:05.09	30.20	46.54	-53.4	-65.3	3.8	8.46e-01	0	43	104	0	77	14991
2026-01-24 02:46:06.10	30.25	46.85	-53.4	-65.3	3.8	8.47e-01	0	43	104	0	77	15006
2026-01-24 02:46:07.10	30.31	47.17	-53.4	-65.3	3.8	8.46e-01	0	43	104	0	77	15016
2026-01-24 02:46:08.11	30.37	47.49	-53.4	-65.3	3.8	8.45e-01	0	43	104	0	77	14991
2026-01-24 02:46:09.12	30.43	47.81	-53.4	-65.3	3.8	8.46e-01	0	43	104	0	77	14971
2026-01-24 02:46:10.13	30.49	48.13	-53.4	-65.3	3.8	8.46e-01	0	43	104	0	77	14989
2026-01-24 02:46:11.14	30.56	48.46	-53.4	-65.3	3.8	8.46e-01	0	44	104	0	77	14971
2026-01-24 02:46:12.15	30.62	48.78	-53.4	-65.3	3.8	8.46e-01	0	43	104	0	77	14972
2026-01-24 02:46:13.16	30.69	49.11	-53.4	-65.2	3.8	8.46e-01	0	43	104	0	77	14869
2026-01-24 02:46:14.16	30.75	49.44	-53.4	-65.3	3.8	8.46e-01	0	43	104	0	77	14888
2026-01-24 02:46:15.17	30.82	49.78	-53.4	-65.3	3.8	8.45e-01	0	43	104	0	77	14933
2026-01-24 02:46:16.18	30.89	50.12	-53.4	-65.3	3.8	8.47e-01	0	43	104	0	77	14935
2026-01-24 02:46:17.19	30.96	50.46	-53.4	-65.3	3.8	8.46e-01	0	43	104	0	77	14976
2026-01-24 02:46:18.20	31.04	50.80	-53.4	-65.3	3.8	8.46e-01	0	43	104	0	77	14980
2026-01-24 02:46:19.21	31.11	51.15	-53.4	-65.3	3.8	8.47e-01	0	43	104	0	77	14970
2026-01-24 02:46:20.22	31.19	51.50	-53.4	-65.3	3.8	8.46e-01	0	43	104	0	77	14987
2026-01-24 02:46:21.22	31.26	51.84	-53.4	-65.3	3.8	8.48e-01	0	43	104	0	77	14967
2026-01-24 02:46:22.23	31.34	52.20	-53.4	-65.3	3.8	8.46e-01	0	43	104	0	77	14983
2026-01-24 02:46:23.24	31.43	52.55	-53.4	-65.3	3.8	8.46e-01	0	43	104	0	77	14903
2026-01-24 02:46:24.25	31.51	52.91	-53.4	-65.3	3.8	8.46e-01	0	43	104	0	77	14906
2026-01-24 02:46:25.25	31.59	53.27	-53.4	-65.3	3.8	8.46e-01	0	43	104	0	77	14907
2026-01-24 02:46:26.26	31.68	53.63	-53.4	-65.3	3.8	8.46e-01	0	43	104	0	77	14941
2026-01-24 02:46:27.27	31.77	54.00	-53.4	-65.3	3.8	8.45e-01	0	43	104	0	77	14952
2026-01-24 02:46:28.28	31.86	54.37	-53.4	-65.3	3.8	8.46e-01	0	43	104	0	77	14999
2026-01-24 02:46:29.29	31.96	54.74	-53.4	-65.3	3.8	8.46e-01	0	43	104	0	77	15001
2026-01-24 02:46:30.29	32.05	55.11	-53.4	-65.3	3.8	8.47e-01	0	43	104	0	77	15025
2026-01-24 02:46:31.30	32.15	55.48	-53.4	-65.3	3.8	8.47e-01	0	43	104	0	77	15024
2026-01-24 02:46:32.31	32.25	55.86	-53.4	-65.3	3.8	8.45e-01	0	43	104	0	77	14956
2026-01-24 02:46:33.32	32.35	56.24	-53.4	-65.3	3.8	8.46e-01	0	43	104	0	77	14961
2026-01-24 02:46:34.33	32.46	56.63	-53.4	-65.3	3.8	8.47e-01	0	43	104	0	77	14955
2026-01-24 02:46:35.34	32.57	57.01	-53.4	-65.3	3.8	8.46e-01	0	43	104	0	77	14993
2026-01-24 02:46:36.35	32.68	57.40	-53.4	-65.3	3.8	8.47e-01	0	43	104	0	77	15030
2026-01-24 02:46:37.36	32.80	57.79	-53.4	-65.3	3.8	8.46e-01	0	43	104	0	77	15039
2026-01-24 02:46:38.36	32.92	58.18	-53.4	-65.3	3.8	8.46e-01	0	43	104	0	77	14998
2026-01-24 02:46:39.37	33.04	58.58	-53.4	-65.4	3.8	8.46e-01	0	43	104	0	77	15055
2026-01-24 02:46:40.38	33.17	58.98	-53.4	-65.3	3.8	8.46e-01	0	44	104	0	77	15015
2026-01-24 02:46:41.39	33.30	59.38	-53.4	-65.3	3.8	8.46e-01	0	43	104	0	77	14932
2026-01-24 02:46:42.40	33.43	59.79	-53.4	-65.2	3.8	8.46e-01	0	44	104	0	77	14860
2026-01-24 02:46:43.41	33.57	60.19	-53.4	-65.2	3.8	8.46e-01	0	43	104	0	77	14850
2026-01-24 02:46:44.41	33.71	60.60	-53.4	-65.2	3.8	8.46e-01	0	43	104	0	77	14856
2026-01-24 02:46:45.42	33.86	61.01	-53.4	-65.3	3.8	8.46e-01	0	43	104	0	77	14953
2026-01-24 02:46:46.43	34.01	61.42	-53.4	-65.3	3.8	8.46e-01	0	43	104	0	77	14915
2026-01-24 02:46:47.44	34.16	61.84	-53.4	-65.3	3.8	8.47e-01	0	43	104	0	77	14984
2026-01-24 02:46:48.45	34.33	62.26	-53.4	-65.3	3.8	8.45e-01	0	43	104	0	77	15001
2026-01-24 02:46:49.45	34.49	62.68	-53.4	-65.3	3.8	8.46e-01	0	43	104	0	77	14963
2026-01-24 02:46:50.46	34.67	63.10	-53.4	-65.3	3.8	8.46e-01	0	43	104	0	77	14968
2026-01-24 02:46:51.47	34.84	63.53	-53.4	-65.3	3.8	8.46e-01	0	43	104	0	77	14938
2026-01-24 02:46:52.48	35.03	63.96	-53.4	-65.3	3.8	8.47e-01	0	43	104	0	77	14946
2026-01-24 02:46:53.49	35.22	64.39	-53.4	-65.3	3.8	8.46e-01	0	43	104	0	77	14896
2026-01-24 02:46:54.50	35.42	64.82	-53.4	-65.2	3.8	8.47e-01	0	43	104	0	77	14835
2026-01-24 02:46:55.51	35.63	65.26	-53.3	-65.2	3.8	8.45e-01	0	43	104	0	77	14809
2026-01-24 02:46:56.52	35.85	65.69	-53.4	-65.2	3.8	8.46e-01	0	43	104	0	77	14780
2026-01-24 02:46:57.52	36.07	66.13	-53.4	-65.2	3.8	8.45e-01	0	43	104	0	77	14878
2026-01-24 02:46:58.53	36.30	66.57	-53.4	-65.3	3.8	8.47e-01	0	43	104	0	77	14916
2026-01-24 02:46:59.54	36.55	67.01	-53.4	-65.3	3.8	8.46e-01	0	43	104	0	77	14935
2026-01-24 02:47:00.55	36.80	67.46	-53.4	-65.2	3.8	8.47e-01	0	43	104	0	77	14866
2026-01-24 02:47:01.56	37.07	67.91	-53.4	-65.1	3.8	8.48e-01	0	43	104	0	77	14699
2026-01-24 02:47:02.56	37.34	68.35	-53.3	-65.1	3.8	8.46e-01	0	43	104	0	77	14646
2026-01-24 02:47:03.57	37.63	68.80	-53.3	-65.1	3.8	8.47e-01	0	43	104	0	77	14570
2026-01-24 02:47:04.58	37.93	69.26	-53.3	-65.1	3.8	8.47e-01	0	43	104	0	77	14585
2026-01-24 02:47:05.58	38.24	69.71	-53.3	-65.2	3.8	8.46e-01	0	43	104	0	77	14725
2026-01-24 02:47:06.59	38.58	70.16	-53.3	-65.2	3.8	8.47e-01	0	43	104	0	77	14788
2026-01-24 02:47:07.60	38.92	70.62	-53.3	-65.2	3.8	8.46e-01	0	43	104	0	77	14756
2026-01-24 02:47:08.61	39.29	71.08	-53.3	-65.2	3.8	8.48e-01	0	44	104	0	77	14810
2026-01-24 02:47:09.62	39.68	71.54	-53.4	-65.3	3.8	8.46e-01	0	43	104	0	77	14980
2026-01-24 02:47:10.63	40.08	72.01	-53.4	-65.3	3.8	8.45e-01	0	43	104	0	77	15010
2026-01-24 02:47:11.64	40.51	72.47	-53.4	-65.3	3.8	8.46e-01	0	43	104	0	77	14982
2026-01-24 02:47:12.64	40.96	72.93	-53.4	-65.3	3.8	8.46e-01	0	44	104	0	77	14953
2026-01-24 02:47:13.66	41.45	73.40	-53.4	-65.3	3.8	8.45e-01	0	43	104	0	77	14911
2026-01-24 02:47:14.66	41.95	73.86	-53.4	-65.3	3.8	8.46e-01	0	43	104	0	77	14882
2026-01-24 02:47:15.67	42.49	74.32	-53.4	-65.3	3.8	8.47e-01	0	43	104	0	77	15004
2026-01-24 02:47:16.68	43.06	74.79	-53.4	-65.3	3.8	8.46e-01	0	44	104	0	77	15000
2026-01-24 02:47:17.69	43.67	75.26	-53.4	-65.3	3.8	8.47e-01	0	43	104	0	77	15009
2026-01-24 02:47:18.70	44.33	75.72	-53.4	-65.3	3.8	8.47e-01	0	44	104	0	77	14959
2026-01-24 02:47:19.71	45.02	76.19	-53.4	-65.3	3.8	8.45e-01	0	43	104	0	77	14961
2026-01-24 02:47:20.72	45.77	76.66	-53.4	-65.3	3.8	8.46e-01	0	43	104	0	77	15000
2026-01-24 02:47:21.72	46.57	77.12	-53.4	-65.3	3.8	8.46e-01	0	43	104	0	77	14934
2026-01-24 02:47:22.73	47.43	77.58	-53.4	-65.3	3.8	8.46e-01	0	43	104	0	77	14953
2026-01-24 02:47:23.74	48.37	78.04	-53.4	-65.2	3.8	8.46e-01	0	44	104	0	77	14838
2026-01-24 02:47:24.75	49.38	78.50	-53.4	-65.2	3.8	8.47e-01	0	44	104	0	77	14850
2026-01-24 02:47:25.76	50.47	78.96	-53.4	-65.3	3.8	8.46e-01	0	43	104	0	77	15030
2026-01-24 02:47:26.76	51.65	79.41	-53.4	-65.3	3.8	8.46e-01	0	43	104	0	77	15007
2026-01-24 02:47:27.77	52.95	79.86	-53.4	-65.3	3.8	8.46e-01	0	43	104	0	77	15004
2026-01-24 02:47:28.78	54.37	80.31	-53.3	-65.2	3.8	8.45e-01	0	44	104	0	77	14842
2026-01-24 02:47:29.79	55.93	80.75	-53.4	-65.3	3.8	8.47e-01	0	43	104	0	77	14995
2026-01-24 02:47:30.80	57.65	81.18	-53.4	-65.3	3.8	8.47e-01	0	43	104	0	77	14943
2026-01-24 02:47:31.81	59.54	81.61	-53.4	-65.3	3.8	8.47e-01	0	43	104	0	77	14965
2026-01-24 02:47:32.82	61.64	82.03	-53.4	-65.3	3.8	8.46e-01	0	43	104	0	77	15026
2026-01-24 02:47:33.83	63.96	82.43	-53.4	-65.2	3.8	8.48e-01	0	43	104	0	77	14779
2026-01-24 02:47:34.84	66.55	82.83	-53.4	-65.3	3.8	8.46e-01	0	44	104	0	77	14952
2026-01-24 02:47:35.84	69.41	83.20	-53.3	-65.2	3.8	8.46e-01	0	43	104	0	77	14731
2026-01-24 02:47:36.85	72.63	83.56	-53.4	-65.3	3.8	8.45e-01	0	43	104	0	77	14966
2026-01-24 02:47:37.86	76.21	83.90	-53.4	-65.3	3.8	8.46e-01	0	43	104	0	77	14926
2026-01-24 02:47:38.86	80.16	84.21	-53.4	-65.3	3.8	8.46e-01	0	43	104	0	77	14908
2026-01-24 02:47:39.87	84.58	84.49	-53.3	-65.2	3.8	8.46e-01	0	44	104	0	77	14728
2026-01-24 02:47:40.88	89.44	84.73	-53.4	-65.2	3.8	8.46e-01	0	43	104	0	77	14807
2026-01-24 02:47:41.89	94.74	84.94	-53.3	-65.1	3.8	8.46e-01	0	43	104	0	77	14551
2026-01-24 02:47:42.89	100.37	85.09	-53.4	-65.2	3.8	8.45e-01	0	43	104	0	77	14819
2026-01-24 02:47:43.90	106.38	85.20	-53.3	-65.1	3.8	8.45e-01	0	43	104	0	77	14594
2026-01-24 02:47:44.91	112.58	85.25	-53.3	-64.8	3.8	8.47e-01	0	43	104	0	77	14191
2026-01-24 02:47:45.92	118.86	85.25	-53.2	-64.0	3.8	8.47e-01	0	43	104	0	77	12920
2026-01-24 02:47:46.93	125.05	85.19	-53.2	-63.6	3.8	8.46e-01	0	43	104	0	77	12314
2026-01-24 02:47:47.94	131.02	85.08	-53.3	-65.0	3.8	8.45e-01	0	43	104	0	77	14533
2026-01-24 02:47:48.94	136.61	84.92	-53.4	-65.3	3.8	8.46e-01	0	43	104	0	77	14961
2026-01-24 02:47:49.95	141.86	84.71	-53.3	-65.1	3.8	8.46e-01	0	43	104	0	77	14595
2026-01-24 02:47:50.96	146.67	84.46	-53.3	-65.2	3.8	8.46e-01	0	43	104	0	77	14761
2026-01-24 02:47:51.97	151.04	84.17	-53.4	-65.1	3.8	8.46e-01	0	43	104	0	77	14675
2026-01-24 02:47:52.98	154.98	83.86	-53.4	-65.3	3.8	8.47e-01	0	43	104	0	77	14913
2026-01-24 02:47:53.99	158.51	83.52	-53.3	-65.0	3.8	8.47e-01	0	43	104	0	77	14524
2026-01-24 02:47:55.00	161.69	83.15	-53.4	-65.3	3.8	8.46e-01	0	43	104	0	77	14952
2026-01-24 02:47:56.01	164.53	82.77	-53.4	-65.3	3.8	8.46e-01	0	43	104	0	77	14907
2026-01-24 02:47:57.02	167.08	82.38	-53.4	-65.3	3.8	8.47e-01	0	43	104	0	77	14949
2026-01-24 02:47:58.02	169.35	81.97	-53.3	-65.1	3.8	8.45e-01	0	43	104	0	77	14628
2026-01-24 02:47:59.03	171.42	81.55	-53.4	-65.3	3.8	8.47e-01	0	43	104	0	77	14989
2026-01-24 02:48:00.04	173.29	81.13	-53.4	-65.3	3.8	8.47e-01	0	43	104	0	77	15049
2026-01-24 02:48:01.04	174.97	80.69	-53.3	-65.2	3.8	8.45e-01	0	43	104	0	77	14742
2026-01-24 02:48:02.05	176.52	80.25	-53.4	-65.2	3.8	8.46e-01	0	43	104	0	77	14857
2026-01-24 02:48:03.06	177.92	79.81	-53.4	-65.2	3.8	8.46e-01	0	43	104	0	77	14847
2026-01-24 02:48:04.07	179.21	79.35	-53.4	-65.3	3.8	8.46e-01	0	43	104	0	77	15007
2026-01-24 02:48:05.07	180.37	78.90	-53.4	-65.1	3.8	8.46e-01	0	43	104	0	77	14698
2026-01-24 02:48:06.08	181.46	78.44	-53.4	-65.3	3.8	8.47e-01	0	43	104	0	77	14924
2026-01-24 02:48:07.09	182.46	77.98	-53.4	-65.3	3.8	8.46e-01	0	43	104	0	77	15019
2026-01-24 02:48:08.10	183.38	77.52	-53.4	-65.3	3.8	8.47e-01	0	43	104	0	77	14976
2026-01-24 02:48:09.11	184.24	77.06	-53.4	-65.3	3.8	8.46e-01	0	43	104	0	77	14941
2026-01-24 02:48:10.11	185.03	76.60	-53.4	-65.3	3.8	8.48e-01	0	43	104	0	77	14981
2026-01-24 02:48:11.12	185.77	76.13	-53.4	-65.3	3.8	8.45e-01	0	43	104	0	77	15008
2026-01-24 02:48:12.13	186.47	75.66	-53.4	-65.3	3.8	8.46e-01	0	43	104	0	77	14956
2026-01-24 02:48:13.14	187.11	75.20	-53.4	-65.3	3.8	8.47e-01	0	43	104	0	77	15028
2026-01-24 02:48:14.15	187.72	74.73	-53.4	-65.3	3.8	8.46e-01	0	43	104	0	77	14937
2026-01-24 02:48:15.15	188.28	74.27	-53.4	-65.3	3.8	8.46e-01	0	43	104	0	77	14904
2026-01-24 02:48:16.16	188.82	73.80	-53.4	-65.2	3.8	8.48e-01	0	43	104	0	77	14804
2026-01-24 02:48:17.17	189.33	73.33	-53.4	-65.3	3.8	8.47e-01	0	43	104	0	77	15033
2026-01-24 02:48:18.18	189.80	72.87	-53.4	-65.3	3.8	8.46e-01	0	43	104	0	77	15040
2026-01-24 02:48:19.18	190.25	72.41	-53.4	-65.3	3.8	8.47e-01	0	43	104	0	77	15043
2026-01-24 02:48:20.19	190.67	71.94	-53.4	-65.3	3.8	8.47e-01	0	43	104	0	77	14951
2026-01-24 02:48:21.20	191.08	71.48	-53.4	-65.3	3.8	8.46e-01	0	43	104	0	77	15010
2026-01-24 02:48:22.21	191.46	71.02	-53.4	-65.3	3.8	8.47e-01	0	43	104	0	77	15011
2026-01-24 02:48:23.22	191.83	70.56	-53.4	-65.3	3.8	8.46e-01	0	43	104	0	77	15004
2026-01-24 02:48:24.23	192.17	70.10	-53.4	-65.3	3.8	8.47e-01	0	43	104	0	77	14987
2026-01-24 02:48:25.24	192.50	69.64	-53.4	-65.3	3.8	8.47e-01	0	43	104	0	77	14926
2026-01-24 02:48:26.24	192.82	69.19	-53.4	-65.3	3.8	8.46e-01	0	43	104	0	77	14911
2026-01-24 02:48:27.25	193.12	68.74	-53.4	-65.2	3.8	8.47e-01	0	43	104	0	77	14860
2026-01-24 02:48:28.26	193.40	68.29	-53.4	-65.2	3.8	8.46e-01	0	43	104	0	77	14874
2026-01-24 02:48:29.27	193.68	67.84	-53.4	-65.3	3.8	8.47e-01	0	43	104	0	77	14920
2026-01-24 02:48:30.28	193.94	67.39	-53.4	-65.2	3.8	8.46e-01	0	43	104	0	77	14875
2026-01-24 02:48:31.29	194.19	66.94	-53.4	-65.3	3.8	8.45e-01	0	43	104	0	77	14897
2026-01-24 02:48:32.30	194.44	66.50	-53.4	-65.3	3.8	8.47e-01	0	43	104	0	77	14897
2026-01-24 02:48:33.31	194.67	66.06	-53.4	-65.3	3.8	8.46e-01	0	43	104	0	77	14926
2026-01-24 02:48:34.31	194.89	65.62	-53.3	-65.2	3.8	8.46e-01	0	43	104	0	77	14769
2026-01-24 02:48:35.32	195.11	65.18	-53.3	-65.1	3.8	8.47e-01	0	43	104	0	77	14677
2026-01-24 02:48:36.33	195.31	64.75	-53.3	-65.2	3.8	8.48e-01	0	43	104	0	77	14846
2026-01-24 02:48:37.34	195.51	64.31	-53.4	-65.3	3.8	8.46e-01	0	43	104	0	77	14926
2026-01-24 02:48:38.35	195.70	63.88	-53.4	-65.2	3.8	8.47e-01	0	43	104	0	77	14831
2026-01-24 02:48:39.35	195.89	63.46	-53.3	-65.2	3.8	8.45e-01	0	43	104	0	77	14709
2026-01-24 02:48:40.36	196.06	63.03	-53.3	-65.1	3.8	8.46e-01	0	43	104	0	77	14544
2026-01-24 02:48:41.37	196.24	62.60	-53.4	-65.1	3.8	8.46e-01	0	43	104	0	77	14699
2026-01-24 02:48:42.38	196.40	62.18	-53.4	-65.3	3.8	8.45e-01	0	43	104	0	77	14902
2026-01-24 02:48:43.39	196.57	61.76	-53.4	-65.3	3.8	8.47e-01	0	43	104	0	77	14963
2026-01-24 02:48:44.39	196.72	61.35	-53.4	-65.3	3.8	8.46e-01	0	44	104	0	77	15006
2026-01-24 02:48:45.40	196.87	60.93	-53.4	-65.3	3.8	8.46e-01	0	43	104	0	77	14909
2026-01-24 02:48:46.41	197.02	60.52	-53.4	-65.3	3.8	8.46e-01	0	43	104	0	77	14884
2026-01-24 02:48:47.42	197.16	60.11	-53.4	-65.2	3.8	8.46e-01	0	43	104	0	77	14872
2026-01-24 02:48:48.43	197.30	59.71	-53.4	-65.3	3.8	8.45e-01	0	43	104	0	77	14914
2026-01-24 02:48:49.44	197.43	59.30	-53.4	-65.3	3.8	8.45e-01	0	43	104	0	77	14940
2026-01-24 02:48:50.44	197.56	58.90	-53.4	-65.3	3.8	8.46e-01	0	43	104	0	77	14940
2026-01-24 02:48:51.45	197.68	58.50	-53.4	-65.3	3.8	8.46e-01	0	43	104	0	77	14983
2026-01-24 02:48:52.46	197.81	58.10	-53.4	-65.3	3.8	8.46e-01	0	44	104	0	77	15016
2026-01-24 02:48:53.47	197.92	57.71	-53.4	-65.3	3.8	8.46e-01	0	43	104	0	77	14995
2026-01-24 02:48:54.48	198.04	57.32	-53.4	-65.3	3.8	8.46e-01	0	43	104	0	77	14996
2026-01-24 02:48:55.49	198.15	56.93	-53.4	-65.3	3.8	8.46e-01	0	43	104	0	77	14969
2026-01-24 02:48:56.49	198.26	56.54	-53.4	-65.3	3.8	8.46e-01	0	43	104	0	77	14954
2026-01-24 02:48:57.50	198.37	56.16	-53.4	-65.3	3.8	8.47e-01	0	44	104	0	77	14946
2026-01-24 02:48:58.51	198.47	55.78	-53.4	-65.3	3.8	8.45e-01	0	43	104	0	77	14980
2026-01-24 02:48:59.52	198.57	55.40	-53.4	-65.3	3.8	8.45e-01	0	43	104	0	77	15008
2026-01-24 02:49:00.53	198.67	55.02	-53.4	-65.3	3.8	8.45e-01	0	43	104	0	77	15034
2026-01-24 02:49:01.53	198.76	54.65	-53.4	-65.3	3.8	8.46e-01	0	44	104	0	77	15028
2026-01-24 02:49:02.54	198.86	54.28	-53.4	-65.3	3.8	8.47e-01	0	44	104	0	77	14933
2026-01-24 02:49:03.55	198.95	53.91	-53.4	-65.3	3.8	8.47e-01	0	43	104	0	77	14943
2026-01-24 02:49:04.56	199.04	53.54	-53.4	-65.3	3.8	8.48e-01	0	43	104	0	77	14961
2026-01-24 02:49:05.57	199.12	53.18	-53.4	-65.3	3.8	8.46e-01	0	44	104	0	77	14969
2026-01-24 02:49:06.58	199.21	52.82	-53.4	-65.3	3.8	8.44e-01	0	43	104	0	77	14956
2026-01-24 02:49:07.59	199.29	52.46	-53.4	-65.3	3.8	8.46e-01	0	44	104	0	77	15020
2026-01-24 02:49:08.59	199.37	52.11	-53.4	-65.3	3.8	8.45e-01	0	43	104	0	77	14942
2026-01-24 02:49:09.60	199.45	51.75	-53.4	-65.3	3.8	8.46e-01	0	43	104	0	77	15019
2026-01-24 02:49:10.61	199.53	51.40	-53.4	-65.3	3.8	8.47e-01	0	43	104	0	77	15012
2026-01-24 02:49:11.62	199.60	51.05	-53.4	-65.3	3.8	8.46e-01	0	43	104	0	77	14990
2026-01-24 02:49:12.63	199.68	50.71	-53.4	-65.3	3.8	8.45e-01	0	43	104	0	77	14942
2026-01-24 02:49:13.64	199.75	50.36	-53.4	-65.3	3.8	8.46e-01	0	43	104	0	77	15005
2026-01-24 02:49:14.65	199.82	50.02	-53.4	-65.3	3.8	8.47e-01	0	43	104	0	77	15012
2026-01-24 02:49:15.66	199.89	49.68	-53.4	-65.3	3.8	8.46e-01	0	43	104	0	77	14970
2026-01-24 02:49:16.67	199.96	49.35	-53.4	-65.3	3.8	8.46e-01	0	43	104	0	77	14960
2026-01-24 02:49:17.67	200.03	49.02	-53.4	-65.3	3.8	8.47e-01	0	43	104	0	77	15002
2026-01-24 02:49:18.68	200.09	48.69	-53.4	-65.3	3.8	8.47e-01	0	43	104	0	77	14948
2026-01-24 02:49:19.69	200.16	48.36	-53.4	-65.3	3.8	8.46e-01	0	43	104	0	77	14994
2026-01-24 02:49:20.70	200.22	48.03	-53.4	-65.3	3.8	8.46e-01	0	43	104	0	77	15018
2026-01-24 02:49:21.71	200.28	47.71	-53.4	-65.3	3.8	8.46e-01	0	43	104	0	77	15004
2026-01-24 02:49:22.72	200.34	47.39	-53.4	-65.3	3.8	8.46e-01	0	43	104	0	77	14980
2026-01-24 02:49:23.72	200.40	47.07	-53.4	-65.3	3.8	8.46e-01	0	43	104	0	77	14953
2026-01-24 02:49:24.73	200.46	46.75	-53.4	-65.3	3.8	8.46e-01	0	43	104	0	77	14919
2026-01-24 02:49:25.74	200.51	46.44	-53.4	-65.3	3.8	8.45e-01	0	43	104	0	77	14938
2026-01-24 02:49:26.75	200.57	46.13	-53.4	-65.3	3.8	8.46e-01	0	43	104	0	77	14949
2026-01-24 02:49:27.75	200.62	45.82	-53.4	-65.3	3.8	8.46e-01	0	43	104	0	77	14900
2026-01-24 02:49:28.76	200.68	45.51	-53.4	-65.3	3.8	8.45e-01	0	43	104	0	77	14882
2026-01-24 02:49:29.77	200.73	45.21	-53.4	-65.2	3.8	8.46e-01	0	43	104	0	77	14857
2026-01-24 02:49:30.78	200.78	44.90	-53.3	-65.2	3.8	8.46e-01	0	43	104	0	77	14847
2026-01-24 02:49:31.79	200.83	44.60	-53.4	-65.3	3.8	8.47e-01	0	43	104	0	77	14927
2026-01-24 02:49:32.80	200.89	44.31	-53.4	-65.3	3.8	8.46e-01	0	43	104	0	77	14891
2026-01-24 02:49:33.81	200.93	44.01	-53.4	-65.3	3.8	8.46e-01	0	43	104	0	77	15006
2026-01-24 02:49:34.82	200.98	43.72	-53.4	-65.3	3.8	8.47e-01	0	43	104	0	77	14986
2026-01-24 02:49:35.82	201.03	43.43	-53.4	-65.3	3.8	8.47e-01	0	43	104	0	77	14940
2026-01-24 02:49:36.83	201.08	43.14	-53.4	-65.3	3.8	8.46e-01	0	43	104	0	77	14987
2026-01-24 02:49:37.84	201.12	42.85	-53.4	-65.3	3.8	8.46e-01	0	43	104	0	77	14970
2026-01-24 02:49:38.85	201.17	42.56	-53.4	-65.3	3.8	8.47e-01	0	43	104	0	77	14952
2026-01-24 02:49:39.86	201.21	42.28	-53.4	-65.3	3.8	8.45e-01	0	43	104	0	77	15014
2026-01-24 02:49:40.87	201.26	42.00	-53.4	-65.3	3.8	8.47e-01	0	43	104	0	77	14977
2026-01-24 02:49:41.87	201.30	41.72	-53.4	-65.3	3.8	8.46e-01	0	44	104	0	77	14987
2026-01-24 02:49:42.88	201.34	41.45	-53.4	-65.3	3.8	8.46e-01	0	43	104	0	77	14979
2026-01-24 02:49:43.89	201.39	41.17	-53.4	-65.3	3.8	8.46e-01	0	43	104	0	77	15006
2026-01-24 02:49:44.89	201.43	40.90	-53.4	-65.3	3.8	8.47e-01	0	43	104	0	77	14989
2026-01-24 02:49:45.90	201.47	40.63	-53.4	-65.3	3.8	8.46e-01	0	43	104	0	77	15024
2026-01-24 02:49:46.92	201.51	40.36	-53.4	-65.3	3.8	8.46e-01	0	43	104	0	77	14958
2026-01-24 02:49:47.92	201.55	40.10	-53.4	-65.3	3.8	8.47e-01	0	43	104	0	77	14936
2026-01-24 02:49:48.93	201.59	39.83	-53.4	-65.3	3.8	8.46e-01	0	44	104	0	77	14885
2026-01-24 02:49:49.94	201.63	39.57	-53.4	-65.3	3.8	8.45e-01	0	44	104	0	77	14913
2026-01-24 02:49:50.95	201.66	39.31	-53.4	-65.3	3.8	8.46e-01	0	43	104	0	77	14890
2026-01-24 02:49:51.96	201.70	39.05	-53.4	-65.3	3.8	8.46e-01	0	43	104	0	77	14936
2026-01-24 02:49:52.97	201.74	38.79	-53.4	-65.3	3.8	8.47e-01	0	44	104	0	77	14924
2026-01-24 02:49:53.97	201.77	38.54	-53.4	-65.3	3.8	8.46e-01	0	43	104	0	77	14907
2026-01-24 02:49:54.98	201.81	38.29	-53.3	-65.3	3.8	8.46e-01	0	43	104	0	77	14907
2026-01-24 02:49:55.99	201.84	38.04	-53.4	-65.3	3.8	8.45e-01	0	43	104	0	77	14960
2026-01-24 02:49:57.00	201.88	37.79	-53.4	-65.3	3.8	8.48e-01	0	43	104	0	77	14979
2026-01-24 02:49:58.01	201.91	37.54	-53.4	-65.3	3.8	8.46e-01	0	43	104	0	77	15031
2026-01-24 02:49:59.02	201.95	37.29	-53.4	-65.3	3.8	8.46e-01	0	44	104	0	77	14991
2026-01-24 02:50:00.02	201.98	37.05	-53.4	-65.3	3.8	8.46e-01	0	44	104	0	77	14982
2026-01-24 02:50:01.03	202.01	36.81	-53.4	-65.3	3.8	8.46e-01	0	44	104	0	77	14999
2026-01-24 02:50:02.04	202.05	36.57	-53.4	-65.3	3.8	8.45e-01	0	43	104	0	77	14987
2026-01-24 02:50:03.05	202.08	36.33	-53.4	-65.3	3.8	8.47e-01	0	43	104	0	77	15013
2026-01-24 02:50:04.05	202.11	36.10	-53.4	-65.3	3.8	8.45e-01	0	44	104	0	77	14978
2026-01-24 02:50:05.06	202.14	35.86	-53.4	-65.3	3.8	8.46e-01	0	43	104	0	77	14958
2026-01-24 02:50:06.07	202.17	35.63	-53.4	-65.3	3.8	8.46e-01	0	44	104	0	77	14969
2026-01-24 02:50:07.08	202.20	35.40	-53.4	-65.3	3.8	8.47e-01	0	44	104	0	77	14987
2026-01-24 02:50:08.09	202.23	35.17	-53.4	-65.3	3.8	8.47e-01	0	43	104	0	77	14947
2026-01-24 02:50:09.10	202.26	34.94	-53.4	-65.3	3.8	8.46e-01	0	44	104	0	77	14931
2026-01-24 02:50:10.11	202.29	34.71	-53.4	-65.3	3.8	8.47e-01	0	44	104	0	77	14969
2026-01-24 02:50:11.11	202.32	34.49	-53.4	-65.3	3.8	8.47e-01	0	44	104	0	77	14972
2026-01-24 02:50:12.12	202.35	34.26	-53.4	-65.3	3.8	8.45e-01	0	44	104	0	77	14967
2026-01-24 02:50:13.13	202.38	34.04	-53.4	-65.3	3.8	8.46e-01	0	43	104	0	77	14973
2026-01-24 02:50:14.14	202.41	33.82	-53.4	-65.3	3.8	8.45e-01	0	44	104	0	77	14987
2026-01-24 02:50:15.15	202.44	33.60	-53.4	-65.3	3.8	8.46e-01	0	44	104	0	77	15009
2026-01-24 02:50:16.16	202.46	33.39	-53.4	-65.3	3.8	8.46e-01	0	44	104	0	77	15017
2026-01-24 02:50:17.16	202.49	33.17	-53.4	-65.3	3.8	8.47e-01	0	44	104	0	77	14948
2026-01-24 02:50:18.17	202.52	32.96	-53.4	-65.3	3.8	8.46e-01	0	44	104	0	77	14997
2026-01-24 02:50:19.18	202.54	32.75	-53.4	-65.3	3.8	8.46e-01	0	44	104	0	77	15011
2026-01-24 02:50:20.19	202.57	32.53	-53.4	-65.3	3.8	8.47e-01	0	43	104	0	77	14977
2026-01-24 02:50:21.19	202.60	32.33	-53.4	-65.3	3.8	8.46e-01	0	43	104	0	77	15007
2026-01-24 02:50:22.20	202.62	32.12	-53.4	-65.3	3.8	8.47e-01	0	44	104	0	77	15016
2026-01-24 02:50:23.21	202.65	31.91	-53.4	-65.3	3.8	8.47e-01	0	44	104	0	77	14976
2026-01-24 02:50:24.22	202.67	31.71	-53.4	-65.3	3.8	8.46e-01	0	44	104	0	77	14977
2026-01-24 02:50:25.22	202.70	31.50	-53.4	-65.3	3.8	8.48e-01	0	44	104	0	77	15010
2026-01-24 02:50:26.23	202.72	31.30	-53.4	-65.3	3.8	8.46e-01	0	44	104	0	77	15012
2026-01-24 02:50:27.24	202.75	31.10	-53.4	-65.3	3.8	8.44e-01	0	44	104	0	77	15024
2026-01-24 02:50:28.25	202.77	30.90	-53.4	-65.3	3.8	8.46e-01	0	44	104	0	77	15010
2026-01-24 02:50:29.26	202.79	30.70	-53.4	-65.3	3.8	8.46e-01	0	44	104	0	77	15015
2026-01-24 02:50:30.26	202.82	30.51	-53.4	-65.3	3.8	8.46e-01	0	44	104	0	77	15036
2026-01-24 02:50:31.27	202.84	30.31	-53.4	-65.3	3.8	8.45e-01	0	43	104	0	77	14992
2026-01-24 02:50:32.28	202.86	30.12	-53.4	-65.3	3.8	8.45e-01	0	43	104	0	77	15027
2026-01-24 02:50:33.29	202.89	29.92	-53.4	-65.4	3.8	8.47e-01	0	43	104	0	77	15068
2026-01-24 02:50:34.30	202.91	29.73	-53.4	-65.3	3.8	8.46e-01	0	44	104	0	77	15007
2026-01-24 02:50:35.30	202.93	29.54	-53.4	-65.3	3.8	8.46e-01	0	44	104	0	77	14983
2026-01-24 02:50:36.31	202.95	29.35	-53.4	-65.3	3.8	8.45e-01	0	44	104	0	77	15004
2026-01-24 02:50:37.31	202.98	29.17	-53.4	-65.3	3.8	8.47e-01	0	43	104	0	77	15000
2026-01-24 02:50:38.32	203.00	28.98	-53.4	-65.3	3.8	8.47e-01	0	43	104	0	77	14964
2026-01-24 02:50:39.33	203.02	28.79	-53.4	-65.3	3.8	8.47e-01	0	44	104	0	77	14980
2026-01-24 02:50:40.34	203.04	28.61	-53.4	-65.3	3.8	8.46e-01	0	43	104	0	77	14993
2026-01-24 02:50:41.35	203.06	28.43	-53.4	-65.3	3.8	8.46e-01	0	43	104	0	77	14979
2026-01-24 02:50:42.36	203.08	28.24	-53.4	-65.4	3.8	8.46e-01	0	44	104	0	77	15075
2026-01-24 02:50:43.36	203.10	28.06	-53.4	-65.3	3.8	8.46e-01	0	44	104	0	77	14994
2026-01-24 02:50:44.37	203.12	27.88	-53.3	-65.3	3.8	8.46e-01	0	44	104	0	77	14990
2026-01-24 02:50:45.38	203.14	27.71	-53.4	-65.3	3.8	8.46e-01	0	44	104	0	77	14999
2026-01-24 02:50:46.39	203.16	27.53	-53.4	-65.3	3.8	8.46e-01	0	43	104	0	77	14955
2026-01-24 02:50:47.40	203.18	27.35	-53.3	-65.3	3.8	8.46e-01	0	43	104	0	77	14996
2026-01-24 02:50:48.41	203.20	27.18	-53.4	-65.3	3.8	8.47e-01	0	43	104	0	77	14981
2026-01-24 02:50:49.42	203.22	27.00	-53.4	-65.3	3.8	8.46e-01	0	43	104	0	77	15042
2026-01-24 02:50:50.43	203.24	26.83	-53.4	-65.3	3.8	8.47e-01	0	44	104	0	77	14980
2026-01-24 02:50:51.43	203.26	26.66	-53.4	-65.3	3.8	8.46e-01	0	43	104	0	77	14976
2026-01-24 02:50:52.44	203.28	26.49	-53.4	-65.3	3.8	8.47e-01	0	43	104	0	77	14967
2026-01-24 02:50:53.45	203.30	26.32	-53.4	-65.3	3.8	8.45e-01	0	43	104	0	77	15012
2026-01-24 02:50:54.46	203.32	26.15	-53.3	-65.3	3.8	8.45e-01	0	43	104	0	77	14969
2026-01-24 02:50:55.47	203.34	25.98	-53.4	-65.3	3.8	8.46e-01	0	44	104	0	77	14996
2026-01-24 02:50:56.47	203.36	25.82	-53.4	-65.3	3.8	8.46e-01	0	44	104	0	77	15017
2026-01-24 02:50:57.48	203.38	25.65	-53.4	-65.3	3.8	8.46e-01	0	44	104	0	77	14972
2026-01-24 02:50:58.49	203.39	25.49	-53.4	-65.3	3.8	8.47e-01	0	44	104	0	77	14974
2026-01-24 02:50:59.50	203.41	25.33	-53.4	-65.3	3.8	8.46e-01	0	43	104	0	77	14996
2026-01-24 02:51:00.51	203.43	25.16	-53.4	-65.3	3.8	8.47e-01	0	44	104	0	77	14962
2026-01-24 02:51:01.51	203.45	25.00	-53.4	-65.3	3.8	8.46e-01	0	43	104	0	77	14990
2026-01-24 02:51:02.52	203.47	24.84	-53.4	-65.3	3.8	8.46e-01	0	44	104	0	77	14977
2026-01-24 02:51:03.53	203.48	24.68	-53.4	-65.3	3.8	8.46e-01	0	44	104	0	77	14950
2026-01-24 02:51:04.54	203.50	24.52	-53.4	-65.3	3.8	8.46e-01	0	43	104	0	77	14979
2026-01-24 02:51:05.54	203.52	24.37	-53.4	-65.3	3.8	8.45e-01	0	43	104	0	77	15004
2026-01-24 02:51:06.55	203.53	24.21	-53.4	-65.3	3.8	8.47e-01	0	43	104	0	77	15025
2026-01-24 02:51:07.56	203.55	24.06	-53.4	-65.3	3.8	8.45e-01	0	43	104	0	77	14991
2026-01-24 02:51:08.57	203.57	23.90	-53.4	-65.3	3.8	8.47e-01	0	44	104	0	77	15032
2026-01-24 02:51:09.57	203.58	23.75	-53.4	-65.3	3.8	8.46e-01	0	44	104	0	77	14963
2026-01-24 02:51:10.58	203.60	23.60	-53.4	-65.3	3.8	8.46e-01	0	43	104	0	77	14981
2026-01-24 02:51:11.59	203.62	23.44	-53.4	-65.3	3.8	8.45e-01	0	44	104	0	77	15013
2026-01-24 02:51:12.60	203.63	23.29	-53.4	-65.3	3.8	8.46e-01	0	44	104	0	77	14982
2026-01-24 02:51:13.61	203.65	23.14	-53.4	-65.3	3.8	8.46e-01	0	43	104	0	77	14974
2026-01-24 02:51:14.62	203.67	22.99	-53.4	-65.3	3.8	8.46e-01	0	43	104	0	77	14988
2026-01-24 02:51:15.62	203.68	22.85	-53.4	-65.3	3.8	8.47e-01	0	43	104	0	77	14994
2026-01-24 02:51:16.63	203.70	22.70	-53.4	-65.3	3.8	8.47e-01	0	43	104	0	77	14991
2026-01-24 02:51:17.64	203.71	22.55	-53.4	-65.3	3.8	8.45e-01	0	43	104	0	77	14964
2026-01-24 02:51:18.65	203.73	22.40	-53.4	-65.3	3.8	8.45e-01	0	44	104	0	77	15002
2026-01-24 02:51:19.66	203.75	22.26	-53.4	-65.3	3.8	8.45e-01	0	44	104	0	77	14966
2026-01-24 02:51:20.66	203.76	22.12	-53.4	-65.3	3.8	8.47e-01	0	43	104	0	77	14986
2026-01-24 02:51:21.67	203.78	21.97	-53.4	-65.3	3.8	8.46e-01	0	43	104	0	77	15030
2026-01-24 02:51:22.68	203.79	21.83	-53.4	-65.3	3.8	8.46e-01	0	43	104	0	77	15042
2026-01-24 02:51:23.69	203.81	21.69	-53.4	-65.3	3.8	8.47e-01	0	43	104	0	77	14987
2026-01-24 02:51:24.70	203.82	21.55	-53.4	-65.3	3.8	8.45e-01	0	44	104	0	77	15021
2026-01-24 02:51:25.70	203.84	21.41	-53.4	-65.3	3.8	8.47e-01	0	43	104	0	77	15039
2026-01-24 02:51:26.71	203.85	21.27	-53.4	-65.3	3.8	8.45e-01	0	44	104	0	77	14996
2026-01-24 02:51:27.72	203.87	21.13	-53.4	-65.3	3.8	8.46e-01	0	43	104	0	77	14996
2026-01-24 02:51:28.73	203.88	20.99	-53.4	-65.3	3.8	8.45e-01	0	43	104	0	77	14970
2026-01-24 02:51:29.73	203.90	20.85	-53.4	-65.3	3.8	8.47e-01	0	43	104	0	77	15000
2026-01-24 02:51:30.74	203.91	20.72	-53.4	-65.3	3.8	8.45e-01	0	43	104	0	77	15016
2026-01-24 02:51:31.75	203.92	20.58	-53.4	-65.3	3.8	8.46e-01	0	43	104	0	77	15020
2026-01-24 02:51:32.76	203.94	20.45	-53.4	-65.3	3.8	8.47e-01	0	43	104	0	77	15035
2026-01-24 02:51:33.77	203.95	20.31	-53.4	-65.3	3.8	8.46e-01	0	43	104	0	77	15003
2026-01-24 02:51:34.77	203.97	20.18	-53.4	-65.3	3.8	8.46e-01	0	43	104	0	77	15025
2026-01-24 02:51:35.78	203.98	20.05	-53.4	-65.3	3.8	8.47e-01	0	44	104	0	77	15010
2026-01-24 02:51:36.79	203.99	19.91	-53.4	-65.3	3.8	8.47e-01	0	44	104	0	77	14990
2026-01-24 02:51:37.80	204.01	19.78	-53.4	-65.3	3.8	8.48e-01	0	43	104	0	77	15045
2026-01-24 02:51:38.81	204.02	19.65	-53.4	-65.3	3.8	8.46e-01	0	43	104	0	77	15043
2026-01-24 02:51:39.81	204.04	19.52	-53.4	-65.3	3.8	8.46e-01	0	43	104	0	77	15009
2026-01-24 02:51:40.82	204.05	19.39	-53.4	-65.3	3.8	8.46e-01	0	44	104	0	77	15033
2026-01-24 02:51:41.83	204.06	19.26	-53.4	-65.3	3.8	8.46e-01	0	43	104	0	77	15010
2026-01-24 02:51:42.84	204.08	19.14	-53.4	-65.3	3.8	8.46e-01	0	43	104	0	77	15002
2026-01-24 02:51:43.85	204.09	19.01	-53.4	-65.3	3.8	8.44e-01	0	43	104	0	77	15019
2026-01-24 02:51:44.85	204.10	18.88	-53.4	-65.3	3.8	8.46e-01	0	43	104	0	77	15006
2026-01-24 02:51:45.86	204.11	18.76	-53.4	-65.4	3.8	8.46e-01	0	43	104	0	77	15074
2026-01-24 02:51:46.87	204.13	18.63	-53.4	-65.3	3.8	8.46e-01	0	44	104	0	77	15026
2026-01-24 02:51:47.87	204.14	18.51	-53.4	-65.3	3.8	8.46e-01	0	43	104	0	77	15038
2026-01-24 02:51:48.88	204.15	18.38	-53.4	-65.4	3.8	8.46e-01	0	43	104	0	77	15060
2026-01-24 02:51:49.89	204.17	18.26	-53.4	-65.3	3.8	8.46e-01	0	44	104	0	77	14985
2026-01-24 02:51:50.90	204.18	18.14	-53.4	-65.3	3.8	8.47e-01	0	43	104	0	77	14992
2026-01-24 02:51:51.91	204.19	18.01	-53.4	-65.3	3.8	8.46e-01	0	44	104	0	77	14979
2026-01-24 02:51:52.91	204.20	17.89	-53.4	-65.3	3.8	8.45e-01	0	44	104	0	77	15018
2026-01-24 02:51:53.92	204.22	17.77	-53.4	-65.3	3.8	8.46e-01	0	44	104	0	77	15020
2026-01-24 02:51:54.93	204.23	17.65	-53.4	-65.3	3.8	8.45e-01	0	43	104	0	77	14989
2026-01-24 02:51:55.94	204.24	17.53	-53.4	-65.3	3.8	8.45e-01	0	44	104	0	77	15034
2026-01-24 02:51:56.95	204.25	17.41	-53.4	-65.3	3.8	8.45e-01	0	43	104	0	77	15003
2026-01-24 02:51:57.95	204.27	17.29	-53.4	-65.3	3.8	8.46e-01	0	43	104	0	77	15007
2026-01-24 02:51:58.97	204.28	17.17	-53.4	-65.3	3.8	8.46e-01	0	44	104	0	77	15007
2026-01-24 02:51:59.98	204.29	17.06	-53.4	-65.3	3.8	8.46e-01	0	43	104	0	77	14993
2026-01-24 02:52:00.98	204.30	16.94	-53.4	-65.3	3.8	8.46e-01	0	43	104	0	77	15015
2026-01-24 02:52:01.99	204.31	16.82	-53.4	-65.3	3.8	8.47e-01	0	43	104	0	77	14987
2026-01-24 02:52:03.00	204.33	16.71	-53.4	-65.4	3.8	8.46e-01	0	44	104	0	77	15053
2026-01-24 02:52:04.01	204.34	16.59	-53.4	-65.3	3.8	8.45e-01	0	43	104	0	77	15019
2026-01-24 02:52:05.01	204.35	16.48	-53.4	-65.3	3.8	8.46e-01	0	44	104	0	77	15043
2026-01-24 02:52:06.02	204.36	16.36	-53.4	-65.3	3.8	8.47e-01	0	43	104	0	77	14964
2026-01-24 02:52:07.03	204.37	16.25	-53.4	-65.3	3.8	8.47e-01	0	43	104	0	77	14982
2026-01-24 02:52:08.04	204.39	16.13	-53.4	-65.3	3.8	8.45e-01	0	43	104	0	77	15012
2026-01-24 02:52:09.05	204.40	16.02	-53.4	-65.3	3.8	8.47e-01	0	44	104	0	77	15033
2026-01-24 02:52:10.05	204.41	15.91	-53.4	-65.3	3.8	8.46e-01	0	43	104	0	77	15015
2026-01-24 02:52:11.06	204.42	15.80	-53.4	-65.3	3.8	8.45e-01	0	43	104	0	77	15013
2026-01-24 02:52:12.07	204.43	15.69	-53.4	-65.3	3.8	8.46e-01	0	43	104	0	77	15036
2026-01-24 02:52:13.08	204.44	15.58	-53.4	-65.3	3.8	8.45e-01	0	43	104	0	77	15049
2026-01-24 02:52:14.09	204.45	15.47	-53.4	-65.4	3.8	8.46e-01	0	44	104	0	77	15058
2026-01-24 02:52:15.10	204.46	15.36	-53.4	-65.3	3.8	8.47e-01	0	44	104	0	77	14970
2026-01-24 02:52:16.11	204.48	15.25	-53.4	-65.3	3.8	8.45e-01	0	43	104	0	77	15032
2026-01-24 02:52:17.12	204.49	15.14	-53.4	-65.3	3.8	8.45e-01	0	43	104	0	77	15031
2026-01-24 02:52:18.13	204.50	15.03	-53.4	-65.3	3.8	8.45e-01	0	43	104	0	77	14997
2026-01-24 02:52:19.14	204.51	14.92	-53.4	-65.3	3.8	8.45e-01	0	44	104	0	77	14999
2026-01-24 02:52:20.14	204.52	14.82	-53.3	-65.3	3.8	8.47e-01	0	43	104	0	77	14971
2026-01-24 02:52:21.15	204.53	14.71	-53.4	-65.3	3.8	8.46e-01	0	44	104	0	77	14989
2026-01-24 02:52:22.16	204.54	14.60	-53.4	-65.3	3.8	8.45e-01	0	43	104	0	77	15036
2026-01-24 02:52:23.17	204.55	14.50	-53.4	-65.3	3.8	8.47e-01	0	43	104	0	77	15004
2026-01-24 02:52:24.17	204.56	14.39	-53.4	-65.3	3.8	8.46e-01	0	44	104	0	77	15009
2026-01-24 02:52:25.18	204.57	14.29	-53.4	-65.3	3.8	8.45e-01	0	43	104	0	77	15040
2026-01-24 02:52:26.20	204.58	14.18	-53.4	-65.3	3.8	8.46e-01	0	43	104	0	77	15027
2026-01-24 02:52:27.21	204.60	14.08	-53.3	-65.3	3.8	8.47e-01	0	44	104	0	77	14961
2026-01-24 02:52:28.22	204.61	13.97	-53.4	-65.3	3.8	8.46e-01	0	43	104	0	77	14993
2026-01-24 02:52:29.22	204.62	13.87	-53.4	-65.3	3.8	8.46e-01	0	43	104	0	77	14973
2026-01-24 02:52:30.23	204.63	13.77	-53.4	-65.3	3.8	8.46e-01	0	44	104	0	77	15029
2026-01-24 02:52:31.24	204.64	13.66	-53.4	-65.3	3.8	8.46e-01	0	43	104	0	77	14974
2026-01-24 02:52:32.25	204.65	13.56	-53.4	-65.3	3.8	8.48e-01	0	43	104	0	77	14978
2026-01-24 02:52:33.26	204.66	13.46	-53.3	-65.3	3.8	8.46e-01	0	43	104	0	77	15014
2026-01-24 02:52:34.26	204.67	13.36	-53.3	-65.3	3.8	8.47e-01	0	43	104	0	77	14986
2026-01-24 02:52:35.27	204.68	13.26	-53.3	-65.3	3.8	8.46e-01	0	43	104	0	77	14968
2026-01-24 02:52:36.28	204.69	13.16	-53.3	-65.3	3.8	8.46e-01	0	43	104	0	77	15015
2026-01-24 02:52:37.29	204.70	13.06	-53.3	-65.3	3.8	8.46e-01	0	43	104	0	77	14960
2026-01-24 02:52:38.29	204.71	12.96	-53.4	-65.3	3.8	8.46e-01	0	43	104	0	77	14993
2026-01-24 02:52:39.30	204.72	12.86	-53.4	-65.3	3.8	8.47e-01	0	43	104	0	77	15004
2026-01-24 02:52:40.31	204.73	12.76	-53.4	-65.3	3.8	8.46e-01	0	43	104	0	77	15004
2026-01-24 02:52:41.32	204.74	12.66	-53.3	-65.3	3.8	8.46e-01	0	43	104	0	77	15022
2026-01-24 02:52:42.33	204.75	12.57	-53.4	-65.3	3.8	8.47e-01	0	43	104	0	77	15016
2026-01-24 02:52:43.33	204.76	12.47	-53.4	-65.3	3.8	8.46e-01	0	43	104	0	77	15006
2026-01-24 02:52:44.34	204.77	12.37	-53.3	-65.3	3.8	8.46e-01	0	43	104	0	77	14961
2026-01-24 02:52:45.35	204.78	12.28	-53.4	-65.3	3.8	8.47e-01	0	44	104	0	77	15001
2026-01-24 02:52:46.36	204.79	12.18	-53.3	-65.3	3.8	8.46e-01	0	44	104	0	77	14958
2026-01-24 02:52:47.37	204.80	12.08	-53.3	-65.3	3.8	8.46e-01	0	43	104	0	77	14981
2026-01-24 02:52:48.38	204.81	11.99	-53.4	-65.3	3.8	8.47e-01	0	43	104	0	77	14998
2026-01-24 02:52:49.39	204.82	11.89	-53.4	-65.3	3.8	8.47e-01	0	43	104	0	77	14989
2026-01-24 02:52:50.39	204.83	11.80	-53.4	-65.3	3.8	8.46e-01	0	43	104	0	77	15038
2026-01-24 02:52:51.40	204.84	11.70	-53.4	-65.3	3.8	8.46e-01	0	43	104	0	77	14994
2026-01-24 02:52:52.41	204.84	11.61	-53.3	-65.3	3.8	8.46e-01	0	43	104	0	77	15015
2026-01-24 02:52:53.42	204.85	11.52	-53.4	-65.3	3.8	8.47e-01	0	43	104	0	77	15025
2026-01-24 02:52:54.43	204.86	11.42	-53.4	-65.3	3.8	8.46e-01	0	44	104	0	77	15002
2026-01-24 02:52:55.44	204.87	11.33	-53.4	-65.3	3.8	8.46e-01	0	43	104	0	77	15003
2026-01-24 02:52:56.45	204.88	11.24	-53.4	-65.3	3.8	8.47e-01	0	43	104	0	77	15019
