passes_logs/2026/01/24/R3.2S_Murmansk/R3.2S_Murmansk__20260124_100005_SUOMI_NPP_rec.log

#Pass ID: 20260124_100005_SUOMI NPP
#Satellite: SUOMI NPP
#Configuration: NPP
#almurnet v.1.7.20251203
#Start time: 2026-01-24 10:00:06

#Version: 2.2.20231116
#Station: R3.2S_Murmansk
#Location: 33.079688 lon 68.888172 lat
#TLE: 1 37849U 11061A   26023.63275593  .00000212  00000+0  12133-3 0  9990
#TLE: 2 37849  98.7820 325.6074 0002234  48.9695 311.1673 14.19528901737937

#Time	Az	El	Level	Level2	SNR	BER	BlckErr	Temp	State	Recorded	gain1	gain2
2026-01-24 10:00:06.70	161.37	2.08	-52.0	-66.9	3.8	1.49e+00	0	41	0	0	74	21413
2026-01-24 10:00:07.67	161.39	2.14	-51.9	-66.9	3.8	1.49e+00	0	42	104	0	74	21350
2026-01-24 10:00:08.65	161.40	2.20	-52.0	-66.9	3.8	1.49e+00	0	41	104	0	74	21368
2026-01-24 10:00:09.62	161.41	2.27	-52.0	-66.9	3.8	1.49e+00	0	42	104	0	74	21354
2026-01-24 10:00:10.60	161.43	2.33	-52.0	-66.9	3.8	1.49e+00	0	41	104	0	74	21347
2026-01-24 10:00:11.58	161.44	2.39	-52.0	-66.9	3.8	1.49e+00	0	41	104	0	74	21422
2026-01-24 10:00:12.55	161.45	2.46	-52.0	-66.9	3.8	1.49e+00	0	42	104	0	74	21397
2026-01-24 10:00:13.53	161.47	2.52	-52.0	-66.9	3.8	1.49e+00	0	42	104	0	74	21417
2026-01-24 10:00:14.50	161.48	2.58	-51.9	-66.9	3.8	1.49e+00	0	42	104	0	74	21370
2026-01-24 10:00:15.48	161.50	2.65	-52.0	-66.9	3.8	1.49e+00	0	42	104	0	74	21344
2026-01-24 10:00:16.46	161.51	2.71	-52.0	-66.9	3.8	1.49e+00	0	42	104	0	74	21365
2026-01-24 10:00:17.43	161.52	2.77	-52.0	-66.9	3.8	1.49e+00	0	42	104	0	74	21265
2026-01-24 10:00:18.41	161.54	2.84	-52.0	-66.8	3.8	1.49e+00	0	42	104	0	74	21178
2026-01-24 10:00:19.38	161.55	2.90	-52.0	-66.8	3.8	1.49e+00	0	42	104	0	74	21195
2026-01-24 10:00:20.36	161.57	2.97	-51.9	-66.8	3.8	1.49e+00	0	42	104	0	74	21219
2026-01-24 10:00:21.34	161.58	3.03	-52.0	-66.9	3.8	1.49e+00	0	42	104	0	74	21266
2026-01-24 10:00:22.32	161.60	3.10	-52.0	-66.9	3.8	1.49e+00	0	42	104	0	74	21288
2026-01-24 10:00:23.30	161.61	3.16	-51.9	-66.9	3.8	1.49e+00	0	42	104	0	74	21390
2026-01-24 10:00:24.27	161.63	3.23	-51.9	-66.9	3.8	1.49e+00	0	42	104	0	74	21369
2026-01-24 10:00:25.25	161.64	3.29	-52.0	-66.9	3.8	1.49e+00	0	42	104	0	74	21380
2026-01-24 10:00:26.23	161.65	3.36	-51.9	-66.9	3.9	1.49e+00	0	42	104	0	74	21273
2026-01-24 10:00:27.21	161.67	3.43	-52.0	-66.8	3.8	1.49e+00	0	42	104	0	74	21252
2026-01-24 10:00:28.18	161.68	3.49	-51.9	-66.8	3.8	1.49e+00	0	42	104	0	74	21203
2026-01-24 10:00:29.16	161.70	3.56	-51.9	-66.8	3.8	1.49e+00	0	42	104	0	74	21200
2026-01-24 10:00:30.14	161.71	3.62	-52.0	-66.8	3.8	1.49e+00	0	42	104	0	74	21180
2026-01-24 10:00:31.11	161.73	3.69	-52.0	-66.9	3.8	1.49e+00	0	42	104	0	74	21294
2026-01-24 10:00:32.09	161.74	3.76	-51.9	-66.9	3.8	1.49e+00	0	42	104	0	74	21336
2026-01-24 10:00:33.07	161.76	3.82	-51.9	-66.8	3.8	1.49e+00	0	42	104	0	74	21176
2026-01-24 10:00:34.05	161.77	3.89	-51.9	-66.4	3.8	1.49e+00	0	42	104	0	74	20289
2026-01-24 10:00:35.03	161.79	3.96	-51.9	-65.5	3.8	1.49e+00	0	42	104	0	74	18140
2026-01-24 10:00:36.01	161.80	4.02	-51.8	-64.2	4.0	1.49e+00	0	42	104	0	74	15632
2026-01-24 10:00:36.99	161.82	4.09	-51.7	-63.3	4.2	1.45e+00	0	42	0	0	74	14096
2026-01-24 10:00:37.97	161.83	4.16	-51.5	-61.2	5.1	8.10e-01	0	42	0	1048576	73	11685
2026-01-24 10:00:38.94	161.85	4.23	-51.2	-59.3	6.4	3.73e-01	0	42	0	3145728	73	9424
2026-01-24 10:00:39.92	161.86	4.29	-51.1	-58.3	7.2	1.84e-01	0	42	0	5242880	73	8431
2026-01-24 10:00:40.90	161.88	4.36	-50.5	-56.1	9.6	4.56e-02	0	42	0	6291456	71	7333
2026-01-24 10:00:41.88	161.89	4.43	-50.3	-55.4	10.3	1.36e-02	0	42	0	8388608	71	6757
2026-01-24 10:00:42.86	161.91	4.50	-49.8	-54.2	11.5	1.22e-03	0	42	0	10485760	71	5895
2026-01-24 10:00:43.84	161.93	4.57	-49.4	-53.2	12.6	3.97e-04	0	42	0	12582912	69	5865
2026-01-24 10:00:44.82	161.94	4.64	-49.0	-52.4	13.3	6.71e-05	0	42	0	13631488	69	5378
2026-01-24 10:00:45.79	161.96	4.70	-48.7	-51.9	13.9	5.30e-06	0	42	0	15728640	69	5072
2026-01-24 10:00:46.77	161.97	4.77	-48.4	-51.3	14.5	7.00e-07	0	42	0	17825792	67	5300
2026-01-24 10:00:47.74	161.99	4.84	-48.3	-51.2	14.6	0.00e+00	0	42	0	19922944	67	5220
2026-01-24 10:00:48.72	162.00	4.91	-48.3	-51.2	14.6	0.00e+00	0	42	0	20971520	67	5261
2026-01-24 10:00:49.70	162.02	4.98	-48.5	-51.5	14.2	0.00e+00	0	42	0	23068672	67	5448
2026-01-24 10:00:50.67	162.04	5.05	-49.0	-52.2	13.9	0.00e+00	0	42	0	25165824	68	5555
2026-01-24 10:00:51.65	162.05	5.12	-50.0	-54.4	11.6	2.04e-04	0	42	0	27262976	70	6364
2026-01-24 10:00:52.62	162.07	5.19	-49.0	-52.4	13.8	3.07e-04	0	42	0	28311552	68	5657
2026-01-24 10:00:53.60	162.08	5.26	-50.6	-56.2	9.5	9.08e-02	0	42	0	30408704	72	7028
2026-01-24 10:00:54.57	162.10	5.33	-48.1	-50.7	15.0	6.80e-03	0	42	0	32505856	68	4670
2026-01-24 10:00:55.54	162.12	5.40	-48.1	-50.7	15.2	7.00e-07	0	42	0	33554432	67	4955
2026-01-24 10:00:56.52	162.13	5.47	-47.9	-50.4	15.6	0.00e+00	0	42	0	35651584	67	4782
2026-01-24 10:00:57.50	162.15	5.54	-47.8	-50.2	15.7	0.00e+00	0	42	0	37748736	67	4690
2026-01-24 10:00:58.48	162.17	5.61	-47.9	-50.4	15.5	0.00e+00	0	43	0	39845888	66	5075
2026-01-24 10:00:59.45	162.18	5.69	-47.9	-50.4	15.5	0.00e+00	0	42	0	40894464	66	5087
2026-01-24 10:01:00.43	162.20	5.76	-47.8	-50.3	15.6	0.00e+00	0	43	0	42991616	66	5006
2026-01-24 10:01:01.40	162.21	5.83	-48.2	-50.9	15.0	0.00e+00	0	42	0	45088768	66	5380
2026-01-24 10:01:02.38	162.23	5.90	-47.7	-50.1	15.9	0.00e+00	0	42	0	47185920	66	4882
2026-01-24 10:01:03.36	162.25	5.97	-47.6	-50.0	16.0	0.00e+00	0	42	0	48234496	66	4819
2026-01-24 10:01:04.33	162.26	6.04	-47.6	-49.9	16.0	0.00e+00	0	42	0	50331648	66	4809
2026-01-24 10:01:05.30	162.28	6.12	-47.6	-49.9	16.1	0.00e+00	0	42	0	52428800	66	4794
2026-01-24 10:01:06.28	162.30	6.19	-47.8	-50.2	15.8	0.00e+00	0	42	0	54525952	66	4950
2026-01-24 10:01:07.25	162.32	6.26	-47.6	-49.9	16.1	0.00e+00	0	42	0	55574528	66	4808
2026-01-24 10:01:08.23	162.33	6.34	-47.7	-50.0	16.0	0.00e+00	0	43	0	57671680	66	4862
2026-01-24 10:01:09.21	162.35	6.41	-47.6	-49.9	16.1	0.00e+00	0	43	0	59768832	66	4807
2026-01-24 10:01:10.18	162.37	6.48	-47.6	-49.9	16.1	0.00e+00	0	43	0	61865984	65	5086
2026-01-24 10:01:11.16	162.38	6.56	-47.2	-49.4	16.6	0.00e+00	0	43	0	62914560	65	4775
2026-01-24 10:01:12.13	162.40	6.63	-47.4	-49.7	16.4	0.00e+00	0	43	0	65011712	65	4934
2026-01-24 10:01:13.11	162.42	6.70	-47.1	-49.2	16.9	0.00e+00	0	43	0	67108864	65	4678
2026-01-24 10:01:14.08	162.44	6.78	-47.1	-49.2	16.8	0.00e+00	0	43	0	69206016	65	4684
2026-01-24 10:01:15.05	162.45	6.85	-47.2	-49.3	16.8	0.00e+00	0	43	0	70254592	65	4736
2026-01-24 10:01:16.03	162.47	6.93	-47.4	-49.6	16.5	0.00e+00	0	43	0	72351744	65	4902
2026-01-24 10:01:16.99	162.49	7.00	-47.6	-49.9	16.2	0.00e+00	0	43	0	74448896	65	5060
2026-01-24 10:01:17.97	162.51	7.08	-47.3	-49.5	16.6	0.00e+00	0	43	0	76546048	65	4846
2026-01-24 10:01:18.94	162.52	7.15	-47.2	-49.3	16.8	0.00e+00	0	43	0	77594624	65	4711
2026-01-24 10:01:19.91	162.54	7.23	-47.4	-49.5	16.6	0.00e+00	0	43	0	79691776	65	4860
2026-01-24 10:01:20.88	162.56	7.30	-47.2	-49.3	16.8	0.00e+00	0	43	0	81788928	65	4718
2026-01-24 10:01:21.86	162.58	7.38	-47.3	-49.5	16.6	0.00e+00	0	43	0	83886080	65	4836
2026-01-24 10:01:22.83	162.60	7.45	-47.4	-49.6	16.5	0.00e+00	0	43	0	84934656	65	4891
2026-01-24 10:01:23.80	162.61	7.53	-47.3	-49.5	16.6	0.00e+00	0	43	0	87031808	65	4830
2026-01-24 10:01:24.78	162.63	7.61	-47.7	-50.0	16.1	0.00e+00	0	43	0	89128960	65	5128
2026-01-24 10:01:25.75	162.65	7.68	-47.2	-49.3	16.8	0.00e+00	0	43	0	90177536	65	4752
2026-01-24 10:01:26.72	162.67	7.76	-47.2	-49.3	16.8	0.00e+00	0	43	0	92274688	65	4730
2026-01-24 10:01:27.69	162.69	7.84	-47.0	-49.1	17.0	0.00e+00	0	43	0	94371840	65	4615
2026-01-24 10:01:28.67	162.71	7.92	-47.0	-49.1	17.1	0.00e+00	0	43	0	96468992	65	4600
2026-01-24 10:01:29.64	162.73	7.99	-46.9	-48.9	17.3	0.00e+00	0	43	0	97517568	65	4494
2026-01-24 10:01:30.62	162.74	8.07	-47.0	-49.0	17.1	0.00e+00	0	43	0	99614720	65	4562
2026-01-24 10:01:31.58	162.76	8.15	-46.8	-48.8	17.4	0.00e+00	0	43	0	101711872	65	4442
2026-01-24 10:01:32.55	162.78	8.23	-46.9	-48.8	17.3	0.00e+00	0	43	0	103809024	64	4745
2026-01-24 10:01:33.52	162.80	8.31	-46.8	-48.7	17.4	0.00e+00	0	43	0	104857600	64	4684
2026-01-24 10:01:34.49	162.82	8.38	-46.7	-48.6	17.6	0.00e+00	0	43	0	106954752	64	4600
2026-01-24 10:01:35.46	162.84	8.46	-46.9	-48.9	17.3	0.00e+00	0	43	0	109051904	64	4763
2026-01-24 10:01:36.43	162.86	8.54	-46.9	-48.8	17.3	0.00e+00	0	43	0	111149056	64	4747
2026-01-24 10:01:37.41	162.88	8.62	-46.5	-48.3	17.8	0.00e+00	0	43	0	112197632	64	4487
2026-01-24 10:01:38.38	162.90	8.70	-46.5	-48.3	17.9	0.00e+00	0	43	0	114294784	64	4452
2026-01-24 10:01:39.35	162.92	8.78	-46.5	-48.3	17.8	0.00e+00	0	43	0	116391936	64	4469
2026-01-24 10:01:40.33	162.94	8.86	-46.3	-48.0	18.1	0.00e+00	0	43	0	118489088	64	4324
2026-01-24 10:01:41.30	162.96	8.94	-46.4	-48.2	18.0	0.00e+00	0	43	0	119537664	64	4401
2026-01-24 10:01:42.28	162.98	9.02	-46.2	-47.9	18.3	0.00e+00	0	43	0	121634816	64	4275
2026-01-24 10:01:43.25	162.99	9.11	-46.2	-47.9	18.3	0.00e+00	0	43	0	123731968	64	4269
2026-01-24 10:01:44.23	163.02	9.19	-46.3	-48.0	18.2	0.00e+00	0	43	0	125829120	63	4596
2026-01-24 10:01:45.20	163.03	9.27	-46.4	-48.2	18.1	0.00e+00	0	43	0	126877696	63	4659
2026-01-24 10:01:46.17	163.06	9.35	-46.3	-48.0	18.3	0.00e+00	0	43	0	128974848	63	4570
2026-01-24 10:01:47.15	163.08	9.43	-46.2	-47.8	18.5	0.00e+00	0	43	0	131072000	63	4486
2026-01-24 10:01:48.12	163.10	9.52	-46.3	-47.9	18.4	0.00e+00	0	43	0	133169152	63	4540
2026-01-24 10:01:49.10	163.12	9.60	-46.4	-48.1	18.2	0.00e+00	0	43	0	134217728	63	4645
2026-01-24 10:01:50.07	163.14	9.68	-46.4	-48.1	18.3	0.00e+00	0	43	0	136314880	63	4618
2026-01-24 10:01:51.04	163.16	9.77	-46.0	-47.6	18.7	0.00e+00	0	43	0	138412032	63	4364
2026-01-24 10:01:52.01	163.18	9.85	-45.7	-47.3	19.0	0.00e+00	0	43	0	140509184	63	4198
2026-01-24 10:01:52.99	163.20	9.93	-46.0	-47.6	18.7	0.00e+00	0	43	0	141557760	63	4361
2026-01-24 10:01:53.96	163.22	10.02	-45.9	-47.4	18.9	0.00e+00	0	43	0	143654912	63	4273
2026-01-24 10:01:54.93	163.24	10.10	-45.8	-47.3	19.0	0.00e+00	0	43	0	145752064	63	4227
2026-01-24 10:01:55.91	163.26	10.19	-45.9	-47.4	18.9	0.00e+00	0	43	0	146800640	62	4535
2026-01-24 10:01:56.89	163.28	10.27	-45.9	-47.4	18.9	0.00e+00	0	43	0	148897792	62	4540
2026-01-24 10:01:57.86	163.30	10.36	-45.9	-47.5	18.8	0.00e+00	0	43	0	150994944	62	4567
2026-01-24 10:01:58.83	163.33	10.44	-45.9	-47.5	18.9	0.00e+00	0	43	0	153092096	62	4578
2026-01-24 10:01:59.80	163.35	10.53	-45.7	-47.2	19.2	0.00e+00	0	43	0	154140672	62	4410
2026-01-24 10:02:00.77	163.37	10.61	-45.6	-47.1	19.3	0.00e+00	0	43	0	156237824	62	4364
2026-01-24 10:02:01.75	163.39	10.70	-45.8	-47.3	19.1	0.00e+00	0	43	0	158334976	62	4454
2026-01-24 10:02:02.72	163.41	10.79	-45.7	-47.2	19.2	0.00e+00	0	43	0	160432128	62	4407
2026-01-24 10:02:03.70	163.43	10.88	-45.8	-47.4	19.0	0.00e+00	0	43	0	161480704	62	4500
2026-01-24 10:02:04.67	163.46	10.96	-45.8	-47.3	19.0	0.00e+00	0	43	0	163577856	62	4492
2026-01-24 10:02:05.64	163.48	11.05	-45.6	-47.1	19.3	0.00e+00	0	43	0	165675008	62	4347
2026-01-24 10:02:06.61	163.50	11.14	-45.8	-47.3	19.1	0.00e+00	0	43	0	167772160	62	4468
2026-01-24 10:02:07.59	163.52	11.23	-45.8	-47.3	19.1	0.00e+00	0	43	0	168820736	62	4479
2026-01-24 10:02:08.56	163.55	11.32	-45.6	-47.1	19.3	0.00e+00	0	43	0	170917888	62	4350
2026-01-24 10:02:09.53	163.57	11.41	-45.5	-47.0	19.3	0.00e+00	0	43	0	173015040	62	4323
2026-01-24 10:02:10.51	163.59	11.50	-45.3	-46.8	19.6	0.00e+00	0	43	0	175112192	62	4214
2026-01-24 10:02:11.48	163.61	11.58	-45.3	-46.8	19.6	0.00e+00	0	43	0	176160768	62	4207
2026-01-24 10:02:12.46	163.64	11.68	-45.3	-46.8	19.6	0.00e+00	0	43	0	178257920	62	4232
2026-01-24 10:02:13.43	163.66	11.77	-45.2	-46.7	19.7	0.00e+00	0	43	0	180355072	62	4153
2026-01-24 10:02:14.40	163.68	11.86	-45.3	-46.8	19.6	0.00e+00	0	43	0	182452224	62	4209
2026-01-24 10:02:15.38	163.71	11.95	-45.2	-46.6	19.8	0.00e+00	0	43	0	183500800	62	4113
2026-01-24 10:02:16.35	163.73	12.04	-45.3	-46.7	19.7	0.00e+00	0	43	0	185597952	62	4179
2026-01-24 10:02:17.33	163.75	12.13	-45.2	-46.6	19.8	0.00e+00	0	43	0	187695104	62	4123
2026-01-24 10:02:18.30	163.78	12.22	-45.0	-46.4	20.0	0.00e+00	0	43	0	189792256	62	4010
2026-01-24 10:02:19.27	163.80	12.31	-45.0	-46.4	20.0	0.00e+00	0	43	0	190840832	61	4255
2026-01-24 10:02:20.24	163.83	12.41	-45.0	-46.3	20.1	0.00e+00	0	43	0	192937984	61	4221
2026-01-24 10:02:21.21	163.85	12.50	-44.9	-46.2	20.2	0.00e+00	0	43	0	195035136	61	4148
2026-01-24 10:02:22.19	163.87	12.59	-44.9	-46.2	20.2	0.00e+00	0	43	0	196083712	61	4173
2026-01-24 10:02:23.16	163.90	12.69	-44.9	-46.2	20.2	0.00e+00	0	43	0	198180864	61	4168
2026-01-24 10:02:24.13	163.92	12.78	-44.9	-46.2	20.2	0.00e+00	0	43	0	200278016	61	4173
2026-01-24 10:02:25.10	163.95	12.88	-45.1	-46.4	20.0	0.00e+00	0	43	0	202375168	61	4281
2026-01-24 10:02:26.07	163.97	12.97	-45.1	-46.5	19.9	0.00e+00	0	43	0	203423744	61	4304
2026-01-24 10:02:27.05	164.00	13.07	-45.0	-46.3	20.1	0.00e+00	0	43	0	205520896	61	4239
2026-01-24 10:02:28.02	164.02	13.16	-44.7	-45.9	20.4	0.00e+00	0	43	0	207618048	61	4043
2026-01-24 10:02:28.99	164.05	13.26	-44.9	-46.2	20.3	0.00e+00	0	43	0	209715200	61	4160
2026-01-24 10:02:29.96	164.07	13.35	-44.7	-46.0	20.4	0.00e+00	0	43	0	210763776	61	4062
2026-01-24 10:02:30.94	164.10	13.45	-44.7	-46.0	20.4	0.00e+00	0	43	0	212860928	61	4087
2026-01-24 10:02:31.91	164.12	13.55	-44.6	-45.8	20.6	0.00e+00	0	43	0	214958080	61	3972
2026-01-24 10:02:32.88	164.15	13.64	-44.6	-45.8	20.6	0.00e+00	0	43	0	216006656	61	3986
2026-01-24 10:02:33.86	164.18	13.74	-44.6	-45.9	20.6	0.00e+00	0	43	0	218103808	61	4019
2026-01-24 10:02:34.82	164.20	13.84	-44.6	-45.8	20.6	0.00e+00	0	43	0	220200960	61	3999
2026-01-24 10:02:35.80	164.23	13.94	-44.5	-45.7	20.7	0.00e+00	0	43	0	222298112	60	4164
2026-01-24 10:02:36.77	164.25	14.04	-44.5	-45.7	20.7	0.00e+00	0	43	0	223346688	60	4177
2026-01-24 10:02:37.74	164.28	14.14	-44.5	-45.7	20.7	0.00e+00	0	43	0	225443840	60	4188
2026-01-24 10:02:38.71	164.31	14.24	-43.6	-45.6	20.8	0.00e+00	0	43	0	227540992	60	4117
2026-01-24 10:02:39.68	164.33	14.34	-44.4	-45.6	20.8	0.00e+00	0	43	0	229638144	60	4122
2026-01-24 10:02:40.66	164.36	14.44	-44.5	-45.7	20.7	0.00e+00	0	43	0	230686720	60	4181
2026-01-24 10:02:41.63	164.39	14.54	-44.5	-45.8	20.6	0.00e+00	0	43	0	232783872	60	4208
2026-01-24 10:02:42.60	164.42	14.64	-44.5	-45.7	20.7	0.00e+00	0	43	0	234881024	60	4181
2026-01-24 10:02:43.57	164.44	14.74	-44.4	-45.6	20.8	0.00e+00	0	43	0	236978176	60	4117
2026-01-24 10:02:44.54	164.47	14.84	-44.5	-45.7	20.8	0.00e+00	0	43	0	238026752	60	4154
2026-01-24 10:02:45.52	164.50	14.95	-44.4	-45.6	20.8	0.00e+00	0	43	0	240123904	60	4131
2026-01-24 10:02:46.49	164.53	15.05	-44.5	-45.7	20.8	0.00e+00	0	43	0	242221056	60	4165
2026-01-24 10:02:47.46	164.55	15.15	-44.3	-45.5	20.9	0.00e+00	0	43	0	244318208	60	4070
2026-01-24 10:02:48.44	164.58	15.26	-44.1	-45.3	21.1	0.00e+00	0	43	0	245366784	60	3974
2026-01-24 10:02:49.41	164.61	15.36	-44.2	-45.4	21.0	0.00e+00	0	43	0	247463936	60	4032
2026-01-24 10:02:50.38	164.64	15.47	-44.2	-45.3	21.1	0.00e+00	0	43	0	249561088	60	3988
2026-01-24 10:02:51.36	164.67	15.57	-44.1	-45.2	21.2	0.00e+00	0	43	0	251658240	60	3939
2026-01-24 10:02:52.33	164.70	15.68	-44.1	-45.2	21.2	0.00e+00	0	43	0	252706816	60	3944
2026-01-24 10:02:53.30	164.73	15.79	-44.3	-45.5	20.9	0.00e+00	0	43	0	254803968	60	4079
2026-01-24 10:02:54.28	164.76	15.89	-44.1	-45.3	21.2	0.00e+00	0	43	0	256901120	60	3966
2026-01-24 10:02:55.25	164.79	16.00	-44.2	-45.4	21.1	0.00e+00	0	43	0	258998272	60	4016
2026-01-24 10:02:56.22	164.82	16.11	-44.3	-45.5	21.0	0.00e+00	0	43	0	260046848	60	4054
2026-01-24 10:02:57.18	164.85	16.21	-44.1	-45.2	21.2	0.00e+00	0	43	0	262144000	60	3954
2026-01-24 10:02:58.16	164.88	16.32	-44.5	-45.7	20.8	0.00e+00	0	43	0	264241152	60	4155
2026-01-24 10:02:59.13	164.91	16.43	-44.4	-45.6	20.9	0.00e+00	0	43	0	266338304	60	4128
2026-01-24 10:03:00.10	164.94	16.54	-44.2	-45.4	21.1	0.00e+00	0	43	0	267386880	60	4032
2026-01-24 10:03:01.08	164.97	16.65	-44.2	-45.4	21.1	0.00e+00	0	43	0	269484032	60	4031
2026-01-24 10:03:02.06	165.00	16.76	-44.3	-45.5	21.0	0.00e+00	0	43	0	271581184	60	4086
2026-01-24 10:03:03.03	165.03	16.88	-44.4	-45.6	21.0	0.00e+00	0	43	0	272629760	60	4099
2026-01-24 10:03:04.01	165.06	16.99	-44.5	-45.7	20.8	0.00e+00	0	43	0	274726912	60	4172
2026-01-24 10:03:04.99	165.09	17.10	-44.3	-45.5	21.0	0.00e+00	0	43	0	276824064	60	4089
2026-01-24 10:03:05.97	165.13	17.21	-44.5	-45.8	20.7	0.00e+00	0	43	0	278921216	60	4197
2026-01-24 10:03:06.96	165.16	17.33	-44.6	-45.9	20.6	0.00e+00	0	43	0	279969792	60	4256
2026-01-24 10:03:07.94	165.19	17.44	-44.7	-45.9	20.6	0.00e+00	0	43	0	282066944	60	4276
2026-01-24 10:03:08.92	165.22	17.56	-44.5	-45.8	20.7	0.00e+00	0	43	0	284164096	60	4195
2026-01-24 10:03:09.90	165.26	17.68	-44.7	-45.9	20.6	0.00e+00	0	43	0	286261248	60	4271
2026-01-24 10:03:10.88	165.29	17.79	-44.8	-46.1	20.4	0.00e+00	0	43	0	287309824	60	4378
2026-01-24 10:03:11.85	165.32	17.91	-45.0	-46.3	20.2	0.00e+00	0	43	0	289406976	60	4484
2026-01-24 10:03:12.83	165.36	18.02	-44.9	-46.2	20.3	0.00e+00	0	43	0	291504128	60	4439
2026-01-24 10:03:13.80	165.39	18.14	-45.0	-46.3	20.2	0.00e+00	0	43	0	293601280	60	4487
2026-01-24 10:03:14.77	165.42	18.26	-45.2	-46.6	20.0	0.00e+00	0	43	0	294649856	61	4346
2026-01-24 10:03:15.75	165.46	18.38	-45.0	-46.3	20.3	0.00e+00	0	43	0	296747008	61	4223
2026-01-24 10:03:16.73	165.49	18.50	-45.1	-46.4	20.2	0.00e+00	0	43	0	298844160	61	4272
2026-01-24 10:03:17.70	165.53	18.62	-45.2	-46.6	20.0	0.00e+00	0	43	0	300941312	61	4359
2026-01-24 10:03:18.68	165.56	18.74	-45.0	-46.3	20.3	0.00e+00	0	43	0	301989888	61	4197
2026-01-24 10:03:19.66	165.60	18.86	-45.2	-46.5	20.1	0.00e+00	0	43	0	304087040	61	4334
2026-01-24 10:03:20.63	165.63	18.98	-45.1	-46.4	20.2	0.00e+00	0	43	0	306184192	61	4243
2026-01-24 10:03:21.61	165.67	19.10	-45.2	-46.5	20.1	0.00e+00	0	43	0	308281344	61	4320
2026-01-24 10:03:22.59	165.70	19.22	-45.3	-46.7	19.9	0.00e+00	0	43	0	309329920	61	4418
2026-01-24 10:03:23.56	165.74	19.35	-45.4	-46.7	19.9	0.00e+00	0	43	0	311427072	61	4421
2026-01-24 10:03:24.54	165.77	19.47	-45.4	-46.7	19.9	0.00e+00	0	43	0	313524224	61	4431
2026-01-24 10:03:25.51	165.81	19.59	-45.6	-47.0	19.7	0.00e+00	0	43	0	315621376	61	4581
2026-01-24 10:03:26.49	165.85	19.72	-45.7	-47.1	19.6	0.00e+00	0	43	0	316669952	61	4639
2026-01-24 10:03:27.46	165.89	19.84	-46.0	-47.4	19.3	0.00e+00	0	43	0	318767104	62	4537
2026-01-24 10:03:28.44	165.92	19.97	-45.9	-47.3	19.5	0.00e+00	0	43	0	320864256	62	4477
2026-01-24 10:03:29.41	165.96	20.10	-46.0	-47.4	19.3	0.00e+00	0	43	0	322961408	62	4537
2026-01-24 10:03:30.38	166.00	20.22	-46.0	-47.5	19.3	0.00e+00	0	43	0	324009984	62	4573
2026-01-24 10:03:31.35	166.04	20.35	-46.2	-47.8	19.0	0.00e+00	0	43	0	326107136	63	4471
2026-01-24 10:03:32.33	166.07	20.48	-46.2	-47.7	19.1	0.00e+00	0	43	0	328204288	63	4417
2026-01-24 10:03:33.30	166.11	20.61	-46.2	-47.7	19.1	0.00e+00	0	43	0	330301440	63	4408
2026-01-24 10:03:34.27	166.15	20.74	-46.3	-47.8	18.9	0.00e+00	0	43	0	331350016	63	4493
2026-01-24 10:03:35.24	166.19	20.87	-46.3	-47.8	19.1	0.00e+00	0	43	0	333447168	63	4466
2026-01-24 10:03:36.21	166.23	21.00	-46.3	-47.8	19.0	0.00e+00	0	43	0	335544320	63	4464
2026-01-24 10:03:37.18	166.27	21.13	-46.1	-47.6	19.1	0.00e+00	0	43	0	336592896	63	4378
2026-01-24 10:03:38.15	166.31	21.26	-46.2	-47.7	19.0	0.00e+00	0	43	0	338690048	63	4420
2026-01-24 10:03:39.12	166.35	21.39	-46.2	-47.7	19.1	0.00e+00	0	43	0	340787200	63	4402
2026-01-24 10:03:40.09	166.39	21.53	-46.2	-47.7	19.1	0.00e+00	0	43	0	342884352	63	4405
2026-01-24 10:03:41.06	166.43	21.66	-46.1	-47.6	19.3	0.00e+00	0	43	0	343932928	63	4343
2026-01-24 10:03:42.04	166.47	21.80	-46.2	-47.8	19.0	0.00e+00	0	43	0	346030080	63	4443
2026-01-24 10:03:43.01	166.52	21.93	-46.1	-47.6	19.2	0.00e+00	0	43	0	348127232	63	4372
2026-01-24 10:03:43.98	166.56	22.07	-46.1	-47.6	19.3	0.00e+00	0	43	0	350224384	63	4378
2026-01-24 10:03:44.95	166.60	22.20	-46.2	-47.7	19.2	0.00e+00	0	43	0	351272960	63	4417
2026-01-24 10:03:45.92	166.64	22.34	-46.3	-47.8	19.1	0.00e+00	0	43	0	353370112	63	4445
2026-01-24 10:03:46.90	166.69	22.48	-46.3	-47.8	19.0	0.00e+00	0	43	0	355467264	63	4471
2026-01-24 10:03:47.87	166.73	22.62	-46.3	-47.8	19.1	0.00e+00	0	43	0	357564416	63	4479
2026-01-24 10:03:48.84	166.77	22.76	-45.9	-47.3	19.4	0.00e+00	0	43	0	358612992	63	4235
2026-01-24 10:03:49.82	166.82	22.90	-46.0	-47.4	19.4	0.00e+00	0	43	0	360710144	63	4266
2026-01-24 10:03:50.80	166.86	23.04	-45.9	-47.3	19.5	0.00e+00	0	43	0	362807296	63	4199
2026-01-24 10:03:51.77	166.91	23.19	-45.9	-47.4	19.4	0.00e+00	0	43	0	364904448	63	4256
2026-01-24 10:03:52.74	166.95	23.33	-45.7	-47.1	19.7	0.00e+00	0	43	0	365953024	63	4133
2026-01-24 10:03:53.72	167.00	23.47	-45.6	-46.9	19.9	0.00e+00	0	43	0	368050176	63	4035
2026-01-24 10:03:54.69	167.05	23.62	-45.6	-47.0	19.8	0.00e+00	0	43	0	370147328	62	4314
2026-01-24 10:03:55.66	167.09	23.76	-45.7	-47.1	19.8	0.00e+00	0	43	0	372244480	62	4352
2026-01-24 10:03:56.64	167.14	23.91	-45.6	-47.0	19.8	0.00e+00	0	43	0	373293056	62	4327
2026-01-24 10:03:57.61	167.19	24.06	-46.0	-47.5	19.4	0.00e+00	0	43	0	375390208	62	4556
2026-01-24 10:03:58.58	167.24	24.21	-45.6	-47.0	19.8	0.00e+00	0	43	0	377487360	62	4321
2026-01-24 10:03:59.56	167.28	24.36	-45.7	-47.1	19.7	0.00e+00	0	43	0	379584512	62	4348
2026-01-24 10:04:00.53	167.33	24.51	-45.6	-46.9	19.9	0.00e+00	0	43	0	380633088	62	4284
2026-01-24 10:04:01.51	167.38	24.66	-45.5	-46.9	19.9	0.00e+00	0	43	0	382730240	62	4256
2026-01-24 10:04:02.48	167.43	24.81	-45.7	-47.1	19.8	0.00e+00	0	43	0	384827392	62	4344
2026-01-24 10:04:03.44	167.48	24.96	-45.4	-46.7	20.1	0.00e+00	0	43	0	385875968	62	4184
2026-01-24 10:04:04.42	167.53	25.11	-45.2	-46.5	20.3	0.00e+00	0	43	0	387973120	62	4082
2026-01-24 10:04:05.40	167.58	25.27	-45.5	-46.9	20.0	0.00e+00	0	43	0	390070272	62	4259
2026-01-24 10:04:06.37	167.63	25.42	-45.1	-46.4	20.4	0.00e+00	0	43	0	392167424	62	4017
2026-01-24 10:04:07.35	167.69	25.58	-45.3	-46.6	20.3	0.00e+00	0	43	0	393216000	61	4358
2026-01-24 10:04:08.33	167.74	25.74	-45.2	-46.5	20.4	0.00e+00	0	43	0	395313152	61	4337
2026-01-24 10:04:09.30	167.79	25.89	-45.1	-46.3	20.5	0.00e+00	0	43	0	397410304	61	4241
2026-01-24 10:04:10.27	167.84	26.05	-45.3	-46.7	20.1	0.00e+00	0	43	0	399507456	61	4400
2026-01-24 10:04:11.25	167.90	26.21	-45.3	-46.6	20.3	0.00e+00	0	43	0	400556032	61	4357
2026-01-24 10:04:12.22	167.95	26.37	-45.3	-46.7	20.2	0.00e+00	0	43	0	402653184	61	4401
2026-01-24 10:04:13.20	168.01	26.53	-45.3	-46.6	20.2	0.00e+00	0	43	0	404750336	61	4380
2026-01-24 10:04:14.17	168.06	26.70	-45.4	-46.7	20.1	0.00e+00	0	43	0	406847488	61	4439
2026-01-24 10:04:15.15	168.12	26.86	-45.4	-46.7	20.1	0.00e+00	0	43	0	407896064	61	4430
2026-01-24 10:04:16.13	168.18	27.03	-45.3	-46.6	20.3	0.00e+00	0	43	0	409993216	61	4358
2026-01-24 10:04:17.11	168.23	27.19	-45.5	-46.9	20.0	0.00e+00	0	43	0	412090368	61	4521
2026-01-24 10:04:18.08	168.29	27.36	-45.4	-46.7	20.2	0.00e+00	0	43	0	414187520	61	4416
2026-01-24 10:04:19.06	168.35	27.53	-45.2	-46.5	20.3	0.00e+00	0	43	0	415236096	61	4335
2026-01-24 10:04:20.04	168.41	27.69	-45.5	-46.8	20.1	0.00e+00	0	43	0	417333248	61	4477
2026-01-24 10:04:21.01	168.47	27.86	-45.4	-46.7	20.2	0.00e+00	0	43	0	419430400	62	4185
2026-01-24 10:04:21.99	168.53	28.03	-45.6	-47.0	20.0	0.00e+00	0	43	0	421527552	62	4301
2026-01-24 10:04:22.97	168.59	28.21	-45.6	-47.0	19.9	0.00e+00	0	43	0	422576128	62	4308
2026-01-24 10:04:23.94	168.65	28.38	-45.7	-47.0	19.9	0.00e+00	0	43	0	424673280	62	4329
2026-01-24 10:04:24.92	168.71	28.55	-46.0	-47.5	19.5	0.00e+00	0	43	0	426770432	62	4581
2026-01-24 10:04:25.89	168.77	28.73	-46.1	-47.6	19.3	0.00e+00	0	43	0	428867584	62	4642
2026-01-24 10:04:26.87	168.84	28.90	-46.2	-47.7	19.4	0.00e+00	0	43	0	429916160	62	4660
2026-01-24 10:04:27.85	168.90	29.08	-46.1	-47.6	19.5	0.00e+00	0	43	0	432013312	63	4374
2026-01-24 10:04:28.82	168.96	29.26	-46.0	-47.4	19.5	0.00e+00	0	44	0	434110464	63	4253
2026-01-24 10:04:29.80	169.03	29.44	-46.1	-47.5	19.5	0.00e+00	0	43	0	436207616	63	4308
2026-01-24 10:04:30.78	169.10	29.62	-46.0	-47.4	19.6	0.00e+00	0	43	0	437256192	63	4281
2026-01-24 10:04:31.76	169.16	29.80	-45.9	-47.3	19.7	0.00e+00	0	43	0	439353344	63	4223
2026-01-24 10:04:32.74	169.23	29.98	-45.9	-47.3	19.7	0.00e+00	0	43	0	441450496	63	4235
2026-01-24 10:04:33.72	169.30	30.17	-45.8	-47.2	19.8	0.00e+00	0	43	0	443547648	63	4168
2026-01-24 10:04:34.69	169.37	30.35	-46.5	-48.0	19.1	0.00e+00	0	43	0	444596224	63	4573
2026-01-24 10:04:35.67	169.44	30.54	-46.1	-47.6	19.5	0.00e+00	0	44	0	446693376	63	4351
2026-01-24 10:04:36.65	169.51	30.73	-46.3	-47.7	19.4	0.00e+00	0	43	0	448790528	63	4436
2026-01-24 10:04:37.63	169.58	30.91	-46.5	-48.1	18.9	0.00e+00	0	43	0	450887680	64	4352
2026-01-24 10:04:38.60	169.65	31.10	-46.4	-47.8	19.2	0.00e+00	0	43	0	451936256	64	4225
2026-01-24 10:04:39.58	169.72	31.29	-46.6	-48.1	18.9	0.00e+00	0	43	0	454033408	64	4391
2026-01-24 10:04:40.56	169.79	31.49	-46.4	-47.9	19.1	0.00e+00	0	43	0	456130560	64	4286
2026-01-24 10:04:41.54	169.87	31.68	-46.4	-47.9	19.1	0.00e+00	0	43	0	458227712	64	4259
2026-01-24 10:04:42.51	169.94	31.87	-46.4	-47.9	19.1	0.00e+00	0	43	0	459276288	64	4265
2026-01-24 10:04:43.49	170.02	32.07	-46.4	-47.9	19.1	0.00e+00	0	43	0	461373440	64	4246
2026-01-24 10:04:44.46	170.10	32.27	-46.8	-48.4	18.7	0.00e+00	0	43	0	463470592	64	4531
2026-01-24 10:04:45.44	170.17	32.46	-46.6	-48.1	19.0	0.00e+00	0	43	0	465567744	64	4355
2026-01-24 10:04:46.41	170.25	32.66	-46.9	-48.5	18.6	0.00e+00	0	43	0	466616320	64	4554
2026-01-24 10:04:47.39	170.33	32.86	-46.8	-48.4	18.8	0.00e+00	0	43	0	468713472	64	4498
2026-01-24 10:04:48.37	170.41	33.07	-46.5	-47.9	19.2	0.00e+00	0	43	0	470810624	64	4281
2026-01-24 10:04:49.34	170.49	33.27	-46.7	-48.3	18.9	0.00e+00	0	43	0	472907776	64	4462
2026-01-24 10:04:50.32	170.58	33.47	-46.5	-48.0	19.1	0.00e+00	0	43	0	473956352	64	4310
2026-01-24 10:04:51.30	170.66	33.68	-46.6	-48.1	19.0	0.00e+00	0	43	0	476053504	64	4382
2026-01-24 10:04:52.28	170.74	33.89	-46.6	-48.2	19.0	0.00e+00	0	43	0	478150656	64	4393
2026-01-24 10:04:53.25	170.83	34.09	-46.4	-47.9	19.2	0.00e+00	0	43	0	480247808	64	4259
2026-01-24 10:04:54.24	170.92	34.31	-46.8	-48.4	18.6	0.00e+00	0	43	0	481296384	64	4530
2026-01-24 10:04:55.22	171.00	34.52	-47.1	-48.8	18.3	0.00e+00	0	43	0	483393536	64	4730
2026-01-24 10:04:56.19	171.09	34.73	-46.8	-48.4	18.7	0.00e+00	0	43	0	485490688	64	4537
2026-01-24 10:04:57.17	171.18	34.94	-46.8	-48.4	18.7	0.00e+00	0	43	0	487587840	64	4503
2026-01-24 10:04:58.15	171.27	35.16	-46.9	-48.5	18.6	0.00e+00	0	43	0	488636416	64	4594
2026-01-24 10:04:59.12	171.36	35.38	-46.8	-48.4	18.7	0.00e+00	0	43	0	490733568	64	4506
2026-01-24 10:05:00.10	171.46	35.60	-46.7	-48.3	18.9	0.00e+00	0	43	0	492830720	64	4451
2026-01-24 10:05:01.07	171.55	35.81	-46.6	-48.2	19.0	0.00e+00	0	43	0	493879296	64	4400
2026-01-24 10:05:02.05	171.65	36.03	-46.7	-48.3	18.8	0.00e+00	0	44	0	495976448	64	4483
2026-01-24 10:05:03.03	171.75	36.26	-46.5	-48.0	19.1	0.00e+00	0	43	0	498073600	64	4334
2026-01-24 10:05:04.01	171.84	36.48	-46.6	-48.2	18.9	0.00e+00	0	43	0	500170752	64	4422
2026-01-24 10:05:04.98	171.94	36.71	-46.3	-47.8	19.3	0.00e+00	0	43	0	501219328	64	4237
2026-01-24 10:05:05.96	172.04	36.93	-46.4	-47.9	19.2	0.00e+00	0	43	0	503316480	64	4244
2026-01-24 10:05:06.93	172.15	37.16	-46.9	-48.5	18.7	0.00e+00	0	43	0	505413632	64	4570
2026-01-24 10:05:07.91	172.25	37.39	-46.3	-47.8	19.3	0.00e+00	0	43	0	507510784	64	4212
2026-01-24 10:05:08.89	172.35	37.62	-46.1	-47.4	19.7	0.00e+00	0	43	0	508559360	63	4278
2026-01-24 10:05:09.86	172.46	37.85	-46.2	-47.6	19.6	0.00e+00	0	43	0	510656512	63	4387
2026-01-24 10:05:10.84	172.57	38.09	-46.0	-47.4	19.8	0.00e+00	0	43	0	512753664	63	4267
2026-01-24 10:05:11.81	172.68	38.32	-46.0	-47.4	19.8	0.00e+00	0	43	0	514850816	63	4261
2026-01-24 10:05:12.79	172.79	38.56	-46.3	-47.7	19.5	0.00e+00	0	43	0	515899392	63	4406
2026-01-24 10:05:13.77	172.90	38.80	-46.6	-48.2	19.2	0.00e+00	0	43	0	517996544	63	4661
2026-01-24 10:05:14.74	173.01	39.04	-46.2	-47.7	19.5	0.00e+00	0	43	0	520093696	64	4146
2026-01-24 10:05:15.71	173.13	39.28	-46.6	-48.2	19.0	0.00e+00	0	43	0	522190848	64	4412
2026-01-24 10:05:16.69	173.25	39.53	-46.5	-48.0	19.3	0.00e+00	0	43	0	523239424	64	4310
2026-01-24 10:05:17.66	173.37	39.77	-47.2	-49.0	18.2	0.00e+00	0	43	0	525336576	65	4569
2026-01-24 10:05:18.64	173.49	40.02	-47.6	-49.5	17.8	0.00e+00	0	43	0	527433728	66	4581
2026-01-24 10:05:19.62	173.61	40.27	-47.6	-49.5	17.7	0.00e+00	0	43	0	529530880	66	4575
2026-01-24 10:05:20.59	173.73	40.51	-48.3	-50.4	16.8	0.00e+00	0	43	0	530579456	67	4808
2026-01-24 10:05:21.57	173.86	40.77	-47.9	-49.8	17.5	0.00e+00	0	43	0	532676608	67	4483
2026-01-24 10:05:22.54	173.99	41.02	-47.9	-49.9	17.4	0.00e+00	0	43	0	534773760	67	4524
2026-01-24 10:05:23.52	174.12	41.27	-47.7	-49.5	17.9	0.00e+00	0	43	0	536870912	67	4320
2026-01-24 10:05:24.49	174.25	41.53	-47.6	-49.5	17.8	0.00e+00	0	43	0	537919488	66	4562
2026-01-24 10:05:25.47	174.38	41.79	-47.1	-48.8	18.4	0.00e+00	0	43	0	540016640	66	4221
2026-01-24 10:05:26.44	174.52	42.05	-46.9	-48.5	18.7	0.00e+00	0	43	0	542113792	65	4327
2026-01-24 10:05:27.41	174.66	42.31	-46.4	-47.8	19.3	0.00e+00	0	43	0	544210944	64	4232
2026-01-24 10:05:28.39	174.80	42.57	-46.0	-47.3	19.9	0.00e+00	0	43	0	545259520	63	4223
2026-01-24 10:05:29.36	174.94	42.83	-45.9	-47.2	20.0	0.00e+00	0	44	0	547356672	63	4148
2026-01-24 10:05:30.33	175.09	43.10	-46.1	-47.5	19.7	0.00e+00	0	43	0	549453824	63	4317
2026-01-24 10:05:31.31	175.23	43.37	-45.7	-47.0	20.2	0.00e+00	0	43	0	551550976	62	4329
2026-01-24 10:05:32.28	175.38	43.64	-45.8	-47.1	20.1	0.00e+00	0	43	0	552599552	62	4371
2026-01-24 10:05:33.26	175.54	43.91	-45.9	-47.2	20.1	0.00e+00	0	43	0	554696704	63	4150
2026-01-24 10:05:34.23	175.69	44.18	-46.5	-47.9	19.4	0.00e+00	0	43	0	556793856	63	4541
2026-01-24 10:05:35.20	175.85	44.45	-46.5	-47.9	19.4	0.00e+00	0	43	0	558891008	63	4531
2026-01-24 10:05:36.18	176.01	44.73	-46.7	-48.2	19.0	0.00e+00	0	43	0	559939584	64	4419
2026-01-24 10:05:37.16	176.17	45.01	-46.8	-48.3	19.0	0.00e+00	0	44	0	562036736	64	4467
2026-01-24 10:05:38.13	176.34	45.29	-47.4	-49.1	18.3	0.00e+00	0	44	0	564133888	65	4629
2026-01-24 10:05:39.10	176.50	45.57	-47.2	-48.9	18.5	0.00e+00	0	43	0	566231040	65	4506
2026-01-24 10:05:40.08	176.68	45.85	-46.9	-48.5	18.8	0.00e+00	0	44	0	567279616	65	4326
2026-01-24 10:05:41.05	176.85	46.13	-47.4	-49.2	18.1	0.00e+00	0	43	0	569376768	65	4658
2026-01-24 10:05:42.03	177.03	46.42	-47.3	-49.0	18.3	0.00e+00	0	43	0	571473920	65	4566
2026-01-24 10:05:43.00	177.21	46.71	-47.7	-49.5	17.8	0.00e+00	0	43	0	573571072	66	4585
2026-01-24 10:05:43.97	177.39	47.00	-47.3	-49.0	18.4	0.00e+00	0	43	0	574619648	66	4332
2026-01-24 10:05:44.95	177.58	47.29	-48.1	-50.1	17.6	0.00e+00	0	43	0	576716800	66	4882
2026-01-24 10:05:45.93	177.77	47.59	-48.4	-50.5	17.0	0.00e+00	0	43	0	578813952	67	4842
2026-01-24 10:05:46.91	177.97	47.88	-48.6	-50.8	16.8	0.00e+00	0	43	0	580911104	68	4747
2026-01-24 10:05:47.88	178.16	48.18	-48.8	-51.1	16.4	0.00e+00	0	43	0	581959680	68	4891
2026-01-24 10:05:48.85	178.37	48.47	-48.4	-50.4	16.7	0.00e+00	0	43	0	584056832	68	4541
2026-01-24 10:05:49.83	178.57	48.78	-48.1	-50.1	17.4	0.00e+00	0	43	0	586153984	68	4355
2026-01-24 10:05:50.81	178.78	49.08	-46.9	-48.6	18.7	0.00e+00	0	43	0	588251136	65	4346
2026-01-24 10:05:51.78	179.00	49.38	-46.4	-48.0	19.3	0.00e+00	0	43	0	589299712	64	4295
2026-01-24 10:05:52.76	179.22	49.69	-45.4	-46.7	20.6	0.00e+00	0	43	0	591396864	62	4159
2026-01-24 10:05:53.73	179.44	49.99	-45.1	-46.4	20.8	0.00e+00	0	43	0	593494016	61	4266
2026-01-24 10:05:54.70	179.66	50.30	-44.9	-46.1	21.0	0.00e+00	0	43	0	595591168	61	4117
2026-01-24 10:05:55.67	179.89	50.61	-44.7	-45.9	21.3	0.00e+00	0	43	0	596639744	61	4031
2026-01-24 10:05:56.64	180.13	50.92	-44.7	-45.9	21.3	0.00e+00	0	43	0	598736896	61	4009
2026-01-24 10:05:57.62	180.37	51.23	-44.2	-45.3	21.8	0.00e+00	0	43	0	600834048	60	3960
2026-01-24 10:05:58.59	180.62	51.54	-44.2	-45.3	21.8	0.00e+00	0	43	0	601882624	60	3978
2026-01-24 10:05:59.57	180.87	51.86	-44.1	-45.2	21.9	0.00e+00	0	43	0	603979776	60	3926
2026-01-24 10:06:00.55	181.13	52.18	-44.0	-45.1	21.9	0.00e+00	0	43	0	606076928	60	3892
2026-01-24 10:06:01.52	181.39	52.50	-43.8	-44.8	22.4	0.00e+00	0	43	0	608174080	59	3999
2026-01-24 10:06:02.50	181.66	52.82	-43.6	-44.6	22.7	0.00e+00	0	43	0	609222656	59	3884
2026-01-24 10:06:03.48	181.93	53.14	-43.5	-44.4	22.8	0.00e+00	0	43	0	611319808	59	3811
2026-01-24 10:06:04.46	182.21	53.47	-43.8	-44.8	22.4	0.00e+00	0	43	0	613416960	58	4206
2026-01-24 10:06:05.45	182.50	53.80	-43.9	-44.9	22.4	0.00e+00	0	43	0	615514112	58	4244
2026-01-24 10:06:06.43	182.80	54.13	-43.9	-44.9	22.4	0.00e+00	0	43	0	616562688	58	4256
2026-01-24 10:06:07.41	183.10	54.45	-43.6	-44.5	22.6	0.00e+00	0	43	0	618659840	58	4097
2026-01-24 10:06:08.40	183.41	54.79	-43.1	-44.0	23.1	0.00e+00	0	43	0	620756992	58	3858
2026-01-24 10:06:09.38	183.72	55.12	-42.8	-43.7	23.4	0.00e+00	0	43	0	622854144	57	3917
2026-01-24 10:06:10.35	184.04	55.45	-42.6	-43.4	23.6	0.00e+00	0	43	0	623902720	56	4042
2026-01-24 10:06:11.33	184.37	55.78	-42.7	-43.6	23.6	0.00e+00	0	43	0	625999872	56	4133
2026-01-24 10:06:12.31	184.71	56.12	-42.8	-43.7	23.2	0.00e+00	0	43	0	628097024	56	4190
2026-01-24 10:06:13.29	185.05	56.46	-43.0	-44.0	23.1	0.00e+00	0	43	0	630194176	56	4305
2026-01-24 10:06:14.27	185.41	56.79	-43.1	-44.1	23.0	0.00e+00	0	43	0	631242752	57	4112
2026-01-24 10:06:15.24	185.77	57.13	-43.2	-44.1	23.0	0.00e+00	0	43	0	633339904	57	4130
2026-01-24 10:06:16.22	186.14	57.47	-42.8	-43.7	23.4	0.00e+00	0	43	0	635437056	57	3949
2026-01-24 10:06:17.20	186.52	57.81	-43.1	-44.1	23.0	0.00e+00	0	43	0	637534208	57	4130
2026-01-24 10:06:18.18	186.91	58.15	-43.2	-44.2	23.0	0.00e+00	0	43	0	638582784	57	4165
2026-01-24 10:06:19.15	187.31	58.49	-43.6	-44.6	22.6	0.00e+00	0	43	0	640679936	57	4378
2026-01-24 10:06:20.12	187.71	58.82	-43.7	-44.7	22.6	0.00e+00	0	43	0	642777088	58	4160
2026-01-24 10:06:21.10	188.13	59.17	-43.2	-44.2	23.0	0.00e+00	0	43	0	644874240	58	3937
2026-01-24 10:06:22.07	188.56	59.51	-42.6	-43.5	23.5	0.00e+00	0	43	0	645922816	57	3840
2026-01-24 10:06:23.04	189.00	59.85	-42.2	-43.0	23.9	0.00e+00	0	43	0	648019968	56	3866
2026-01-24 10:06:24.01	189.45	60.19	-42.2	-43.0	23.9	0.00e+00	0	43	0	650117120	56	3868
2026-01-24 10:06:24.98	189.91	60.53	-42.5	-43.4	23.7	0.00e+00	0	43	0	652214272	56	4020
2026-01-24 10:06:25.96	190.39	60.87	-42.3	-43.2	23.7	0.00e+00	0	43	0	653262848	56	3939
2026-01-24 10:06:26.93	190.88	61.21	-42.5	-43.4	23.7	0.00e+00	0	43	0	655360000	56	4027
2026-01-24 10:06:27.91	191.39	61.56	-42.7	-43.6	23.5	0.00e+00	0	43	0	657457152	56	4128
2026-01-24 10:06:28.88	191.90	61.90	-43.4	-44.4	22.8	0.00e+00	0	43	0	658505728	57	4261
2026-01-24 10:06:29.85	192.43	62.24	-44.6	-45.7	21.8	0.00e+00	0	43	0	660602880	59	4427
2026-01-24 10:06:30.82	192.98	62.58	-44.9	-46.1	21.2	0.00e+00	0	43	0	662700032	60	4358
2026-01-24 10:06:31.79	193.54	62.92	-44.6	-45.8	21.5	0.00e+00	0	43	0	664797184	60	4208
2026-01-24 10:06:32.77	194.12	63.26	-44.3	-45.4	22.0	0.00e+00	0	43	0	665845760	59	4268
2026-01-24 10:06:33.73	194.71	63.60	-43.1	-44.1	23.2	0.00e+00	0	43	0	667942912	58	3874
2026-01-24 10:06:34.71	195.33	63.94	-42.6	-43.6	23.5	0.00e+00	0	43	0	670040064	57	3869
2026-01-24 10:06:35.67	195.95	64.27	-42.9	-43.8	23.4	0.00e+00	0	43	0	672137216	57	3985
2026-01-24 10:06:36.64	196.59	64.60	-43.8	-44.8	22.6	0.00e+00	0	43	0	673185792	58	4203
2026-01-24 10:06:37.62	197.27	64.94	-44.3	-45.4	22.0	0.00e+00	0	43	0	675282944	59	4263
2026-01-24 10:06:38.60	197.96	65.27	-44.4	-45.5	21.9	0.00e+00	0	43	0	677380096	59	4312
2026-01-24 10:06:39.57	198.66	65.60	-44.3	-45.4	22.1	0.00e+00	0	43	0	679477248	59	4287
2026-01-24 10:06:40.54	199.39	65.93	-43.6	-44.6	22.7	0.00e+00	0	43	0	680525824	58	4120
2026-01-24 10:06:41.51	200.14	66.26	-43.8	-44.8	22.6	0.00e+00	0	43	0	682622976	58	4205
2026-01-24 10:06:42.48	200.91	66.58	-44.4	-45.5	21.8	0.00e+00	0	43	0	684720128	60	4088
2026-01-24 10:06:43.46	201.72	66.90	-45.5	-46.8	20.6	0.00e+00	0	43	0	686817280	61	4468
2026-01-24 10:06:44.43	202.54	67.22	-46.1	-47.5	20.0	0.00e+00	0	43	0	687865856	63	4310
2026-01-24 10:06:45.40	203.38	67.53	-45.6	-46.9	20.5	0.00e+00	0	43	0	689963008	63	4009
2026-01-24 10:06:46.37	204.25	67.85	-45.6	-46.9	20.5	0.00e+00	0	43	0	692060160	62	4254
2026-01-24 10:06:47.34	205.15	68.15	-45.9	-47.2	20.2	0.00e+00	0	43	0	694157312	62	4398
2026-01-24 10:06:48.31	206.07	68.46	-46.0	-47.3	20.1	0.00e+00	0	43	0	695205888	62	4463
2026-01-24 10:06:49.28	207.03	68.75	-45.0	-46.2	21.2	0.00e+00	0	43	0	697303040	62	3922
2026-01-24 10:06:50.25	208.01	69.05	-45.1	-46.2	21.2	0.00e+00	0	43	0	699400192	61	4190
2026-01-24 10:06:51.22	209.02	69.34	-46.0	-47.4	20.2	0.00e+00	0	43	0	701497344	62	4510
2026-01-24 10:06:52.19	210.06	69.62	-46.5	-48.0	19.4	0.00e+00	0	43	0	702545920	64	4334
2026-01-24 10:06:53.16	211.14	69.90	-46.2	-47.5	19.9	0.00e+00	0	43	0	704643072	64	4095
2026-01-24 10:06:54.13	212.24	70.17	-46.6	-48.0	19.5	0.00e+00	0	44	0	706740224	63	4591
2026-01-24 10:06:55.11	213.39	70.44	-46.7	-48.1	19.2	0.00e+00	0	43	0	708837376	64	4382
2026-01-24 10:06:56.08	214.56	70.70	-46.4	-47.8	19.7	0.00e+00	0	43	0	709885952	64	4195
2026-01-24 10:06:57.05	215.77	70.95	-45.5	-46.7	20.7	0.00e+00	0	43	0	711983104	62	4176
2026-01-24 10:06:58.03	217.02	71.20	-45.9	-47.3	20.2	0.00e+00	0	43	0	714080256	62	4445
2026-01-24 10:06:58.99	218.28	71.43	-47.3	-49.0	18.5	0.00e+00	0	43	0	715128832	65	4583
2026-01-24 10:06:59.97	219.60	71.66	-47.4	-49.2	18.4	0.00e+00	0	43	0	717225984	65	4660
2026-01-24 10:07:00.94	220.94	71.88	-46.6	-48.1	19.3	0.00e+00	0	43	0	719323136	65	4145
2026-01-24 10:07:01.91	222.31	72.09	-45.8	-47.2	20.3	0.00e+00	0	43	0	721420288	63	4148
2026-01-24 10:07:02.88	223.72	72.29	-45.9	-47.3	20.3	0.00e+00	0	43	0	722468864	63	4196
2026-01-24 10:07:03.85	225.16	72.49	-44.7	-45.8	21.4	0.00e+00	0	43	0	724566016	61	3999
2026-01-24 10:07:04.82	226.64	72.67	-45.3	-46.5	20.9	0.00e+00	0	44	0	726663168	61	4328
2026-01-24 10:07:05.80	228.16	72.84	-45.6	-46.8	20.6	0.00e+00	0	43	0	728760320	62	4235
2026-01-24 10:07:06.77	229.69	73.00	-45.8	-47.0	20.4	0.00e+00	0	43	0	729808896	62	4333
2026-01-24 10:07:07.74	231.26	73.14	-45.6	-46.8	20.7	0.00e+00	0	44	0	731906048	62	4207
2026-01-24 10:07:08.71	232.85	73.28	-44.6	-45.6	21.7	0.00e+00	0	43	0	734003200	61	3906
2026-01-24 10:07:09.68	234.47	73.40	-44.4	-45.5	22.0	0.00e+00	0	43	0	735051776	59	4306
2026-01-24 10:07:10.65	236.11	73.51	-45.0	-46.1	21.2	0.00e+00	0	43	0	737148928	60	4391
2026-01-24 10:07:11.62	237.78	73.61	-45.8	-47.1	20.1	0.00e+00	0	43	0	739246080	62	4381
2026-01-24 10:07:12.59	239.46	73.69	-44.5	-45.6	21.7	0.00e+00	0	43	0	741343232	61	3891
2026-01-24 10:07:13.56	241.16	73.76	-44.1	-45.1	22.1	0.00e+00	0	43	0	742391808	60	3889
2026-01-24 10:07:14.53	242.87	73.82	-44.4	-45.5	21.8	0.00e+00	0	43	0	744488960	60	4058
2026-01-24 10:07:15.50	244.60	73.86	-44.3	-45.4	22.1	0.00e+00	0	43	0	746586112	59	4249
2026-01-24 10:07:16.47	246.33	73.89	-43.7	-44.7	22.5	0.00e+00	0	43	0	748683264	59	3931
2026-01-24 10:07:17.45	248.09	73.91	-44.4	-45.5	22.0	0.00e+00	0	43	0	749731840	59	4316
2026-01-24 10:07:18.42	249.83	73.91	-44.7	-45.8	21.9	0.00e+00	0	43	0	751828992	59	4452
2026-01-24 10:07:19.39	251.56	73.89	-45.2	-46.4	21.1	0.00e+00	0	44	0	753926144	60	4497
2026-01-24 10:07:20.36	253.30	73.86	-46.3	-47.8	19.8	0.00e+00	0	43	0	756023296	63	4463
2026-01-24 10:07:21.33	255.02	73.82	-45.8	-47.2	20.4	0.00e+00	0	43	0	757071872	63	4158
2026-01-24 10:07:22.30	256.74	73.77	-44.5	-45.6	21.7	0.00e+00	0	43	0	759169024	60	4123
2026-01-24 10:07:23.27	258.44	73.70	-43.9	-44.9	22.5	0.00e+00	0	43	0	761266176	59	4045
2026-01-24 10:07:24.24	260.12	73.62	-44.1	-45.1	22.3	0.00e+00	0	43	0	763363328	59	4144
2026-01-24 10:07:25.22	261.80	73.52	-44.5	-45.6	21.7	0.00e+00	0	43	0	764411904	60	4119
2026-01-24 10:07:26.19	263.45	73.41	-45.3	-46.4	21.0	0.00e+00	0	44	0	766509056	61	4288
2026-01-24 10:07:27.17	265.08	73.29	-45.6	-46.9	20.7	0.00e+00	0	43	0	768606208	61	4500
2026-01-24 10:07:28.14	266.68	73.15	-46.6	-48.1	19.5	0.00e+00	0	43	0	770703360	64	4350
2026-01-24 10:07:29.11	268.24	73.01	-47.1	-48.7	18.8	0.00e+00	0	43	0	771751936	65	4426
2026-01-24 10:07:30.09	269.80	72.85	-46.6	-48.0	19.5	0.00e+00	0	43	0	773849088	65	4080
2026-01-24 10:07:31.06	271.30	72.68	-46.8	-48.4	19.2	0.00e+00	0	43	0	775946240	64	4505
2026-01-24 10:07:32.02	272.76	72.50	-47.4	-49.1	18.4	0.00e+00	0	43	0	776994816	65	4650
2026-01-24 10:07:32.99	274.20	72.31	-46.3	-47.6	19.8	0.00e+00	0	43	0	779091968	64	4144
2026-01-24 10:07:33.97	275.63	72.11	-46.4	-47.8	19.6	0.00e+00	0	43	0	781189120	64	4201
2026-01-24 10:07:34.93	276.99	71.90	-47.7	-49.5	18.0	0.00e+00	0	43	0	783286272	66	4551
2026-01-24 10:07:35.91	278.35	71.68	-46.5	-47.9	19.6	0.00e+00	0	43	0	784334848	65	4024
2026-01-24 10:07:36.88	279.65	71.45	-46.5	-47.9	19.5	0.00e+00	0	44	0	786432000	64	4283
2026-01-24 10:07:37.84	280.91	71.22	-48.9	-51.1	16.7	0.00e+00	0	43	0	788529152	68	4877
2026-01-24 10:07:38.81	282.15	70.97	-50.5	-53.7	14.3	0.00e+00	0	44	0	790626304	71	5543
2026-01-24 10:07:39.78	283.36	70.72	-50.2	-53.1	14.7	0.00e+00	0	43	0	791674880	71	5210
2026-01-24 10:07:40.75	284.53	70.46	-50.1	-53.0	14.7	0.00e+00	0	44	0	793772032	71	5148
2026-01-24 10:07:41.73	285.68	70.20	-48.9	-51.1	16.6	0.00e+00	0	43	0	795869184	69	4650
2026-01-24 10:07:42.70	286.79	69.93	-47.5	-49.1	18.4	0.00e+00	0	44	0	797966336	66	4378
2026-01-24 10:07:43.68	287.88	69.64	-46.8	-48.3	19.2	0.00e+00	0	43	0	799014912	65	4231
2026-01-24 10:07:44.65	288.92	69.36	-46.6	-48.0	19.5	0.00e+00	0	43	0	801112064	65	4065
2026-01-24 10:07:45.62	289.93	69.07	-47.0	-48.6	19.0	0.00e+00	0	43	0	803209216	65	4359
2026-01-24 10:07:46.60	290.93	68.78	-48.6	-50.8	17.0	0.00e+00	0	43	0	805306368	67	4984
2026-01-24 10:07:47.57	291.88	68.48	-48.5	-50.5	17.2	0.00e+00	0	43	0	806354944	68	4573
2026-01-24 10:07:48.54	292.81	68.18	-47.5	-49.2	18.3	0.00e+00	0	44	0	808452096	67	4174
2026-01-24 10:07:49.51	293.71	67.87	-47.8	-49.6	18.0	0.00e+00	0	43	0	810549248	66	4601
2026-01-24 10:07:50.48	294.58	67.56	-46.7	-48.2	19.3	0.00e+00	0	44	0	811597824	65	4154
2026-01-24 10:07:51.45	295.42	67.25	-46.2	-47.5	20.0	0.00e+00	0	43	0	813694976	63	4316
2026-01-24 10:07:52.42	296.25	66.93	-46.9	-48.5	19.1	0.00e+00	0	44	0	815792128	64	4566
2026-01-24 10:07:53.40	297.05	66.61	-47.1	-48.7	18.8	0.00e+00	0	43	0	817889280	65	4416
2026-01-24 10:07:54.37	297.82	66.29	-46.0	-47.3	20.2	0.00e+00	0	43	0	818937856	63	4211
2026-01-24 10:07:55.34	298.57	65.96	-45.5	-46.8	20.7	0.00e+00	0	43	0	821035008	63	3963
2026-01-24 10:07:56.31	299.30	65.64	-44.5	-45.6	21.6	0.00e+00	0	43	0	823132160	61	3876
2026-01-24 10:07:57.28	300.01	65.31	-43.9	-45.0	22.4	0.00e+00	0	43	0	825229312	59	4057
2026-01-24 10:07:58.26	300.70	64.97	-43.5	-44.5	22.9	0.00e+00	0	43	0	826277888	58	4071
2026-01-24 10:07:59.24	301.37	64.64	-44.0	-45.0	22.4	0.00e+00	0	43	0	828375040	58	4300
2026-01-24 10:08:00.21	302.02	64.30	-44.4	-45.5	22.1	0.00e+00	0	43	0	830472192	59	4295
2026-01-24 10:08:01.18	302.65	63.97	-44.1	-45.1	22.2	0.00e+00	0	43	0	832569344	60	3900
2026-01-24 10:08:02.15	303.26	63.63	-43.6	-44.6	22.8	0.00e+00	0	43	0	833617920	59	3901
2026-01-24 10:08:03.13	303.86	63.29	-42.7	-43.6	23.6	0.00e+00	0	43	0	835715072	57	3898
2026-01-24 10:08:04.10	304.44	62.95	-41.7	-42.6	24.2	0.00e+00	0	43	0	837812224	55	3874
2026-01-24 10:08:05.07	305.00	62.62	-41.8	-42.6	24.3	0.00e+00	0	43	0	839909376	55	3891
2026-01-24 10:08:06.04	305.54	62.28	-42.4	-43.3	23.8	0.00e+00	0	43	0	840957952	55	4198
2026-01-24 10:08:07.01	306.07	61.94	-43.5	-44.6	22.8	0.00e+00	0	43	0	843055104	57	4350
2026-01-24 10:08:07.98	306.59	61.60	-43.7	-44.8	22.6	0.00e+00	0	43	0	845152256	58	4204
2026-01-24 10:08:08.95	307.09	61.26	-43.4	-44.4	23.0	0.00e+00	0	44	0	846200832	58	4016
2026-01-24 10:08:09.92	307.58	60.92	-43.4	-44.4	23.0	0.00e+00	0	44	0	848297984	58	4016
2026-01-24 10:08:10.89	308.06	60.58	-43.7	-44.7	22.7	0.00e+00	0	44	0	850395136	58	4183
2026-01-24 10:08:11.87	308.52	60.23	-43.7	-44.8	22.7	0.00e+00	0	44	0	852492288	58	4196
2026-01-24 10:08:12.84	308.97	59.89	-43.5	-44.5	22.9	0.00e+00	0	43	0	853540864	58	4056
2026-01-24 10:08:13.82	309.42	59.55	-42.4	-43.3	23.7	0.00e+00	0	44	0	855638016	56	3977
2026-01-24 10:08:14.79	309.85	59.21	-42.4	-43.3	23.9	0.00e+00	0	43	0	857735168	56	3978
2026-01-24 10:08:15.77	310.27	58.87	-43.2	-44.1	23.2	0.00e+00	0	43	0	859832320	56	4368
2026-01-24 10:08:16.75	310.68	58.53	-44.5	-45.6	22.0	0.00e+00	0	43	0	860880896	59	4347
2026-01-24 10:08:17.72	311.08	58.19	-44.6	-45.8	21.5	0.00e+00	0	43	0	862978048	60	4198
2026-01-24 10:08:18.69	311.46	57.85	-43.9	-44.9	22.5	0.00e+00	0	43	0	865075200	59	4026
2026-01-24 10:08:19.67	311.84	57.52	-42.8	-43.7	23.5	0.00e+00	0	43	0	867172352	57	3940
2026-01-24 10:08:20.64	312.21	57.18	-42.6	-43.5	23.7	0.00e+00	0	43	0	868220928	57	3857
2026-01-24 10:08:21.62	312.58	56.84	-42.9	-43.9	23.4	0.00e+00	0	43	0	870318080	57	4020
2026-01-24 10:08:22.59	312.93	56.51	-43.2	-44.2	23.1	0.00e+00	0	43	0	872415232	57	4150
2026-01-24 10:08:23.57	313.27	56.17	-43.4	-44.3	23.0	0.00e+00	0	43	0	874512384	57	4239
2026-01-24 10:08:24.54	313.61	55.84	-44.2	-45.3	22.2	0.00e+00	0	43	0	875560960	59	4196
2026-01-24 10:08:25.52	313.94	55.51	-43.9	-44.9	22.6	0.00e+00	0	43	0	877658112	59	4049
2026-01-24 10:08:26.49	314.26	55.18	-43.5	-44.5	22.9	0.00e+00	0	43	0	879755264	59	3847
2026-01-24 10:08:27.47	314.57	54.85	-43.2	-44.2	23.2	0.00e+00	0	43	0	881852416	58	3916
2026-01-24 10:08:28.44	314.88	54.52	-43.5	-44.4	22.9	0.00e+00	0	43	0	882900992	58	4046
2026-01-24 10:08:29.41	315.17	54.20	-44.4	-45.5	22.1	0.00e+00	0	43	0	884998144	59	4314
2026-01-24 10:08:30.39	315.47	53.87	-45.3	-46.5	20.9	0.00e+00	0	44	0	887095296	61	4309
2026-01-24 10:08:31.36	315.75	53.55	-45.5	-46.7	20.8	0.00e+00	0	43	0	889192448	61	4433
2026-01-24 10:08:32.34	316.04	53.23	-44.5	-45.6	21.7	0.00e+00	0	43	0	890241024	61	3875
2026-01-24 10:08:33.31	316.31	52.91	-44.0	-45.0	22.5	0.00e+00	0	43	0	892338176	59	4061
2026-01-24 10:08:34.29	316.58	52.59	-43.6	-44.6	22.8	0.00e+00	0	43	0	894435328	59	3874
2026-01-24 10:08:35.27	316.84	52.27	-44.2	-45.2	22.3	0.00e+00	0	44	0	896532480	59	4172
2026-01-24 10:08:36.25	317.10	51.95	-43.4	-44.3	23.0	0.00e+00	0	43	0	897581056	58	3981
2026-01-24 10:08:37.23	317.35	51.63	-42.9	-43.8	23.4	0.00e+00	0	43	0	899678208	57	4003
2026-01-24 10:08:38.20	317.60	51.32	-43.0	-43.9	23.3	0.00e+00	0	43	0	901775360	57	4048
2026-01-24 10:08:39.18	317.84	51.00	-44.3	-45.4	22.1	0.00e+00	0	43	0	902823936	59	4254
2026-01-24 10:08:40.16	318.08	50.69	-45.3	-46.6	20.8	0.00e+00	0	43	0	904921088	61	4360
2026-01-24 10:08:41.13	318.31	50.38	-44.6	-45.7	21.5	0.00e+00	0	43	0	907018240	61	3958
2026-01-24 10:08:42.11	318.54	50.08	-43.7	-44.6	22.8	0.00e+00	0	43	0	909115392	59	3904
2026-01-24 10:08:43.08	318.76	49.77	-43.7	-44.7	22.7	0.00e+00	0	44	0	910163968	58	4162
2026-01-24 10:08:44.06	318.98	49.47	-44.7	-45.8	21.7	0.00e+00	0	43	0	912261120	60	4212
2026-01-24 10:08:45.03	319.20	49.17	-46.7	-48.2	19.4	0.00e+00	0	43	0	914358272	63	4692
2026-01-24 10:08:46.01	319.41	48.86	-48.1	-50.1	17.6	0.00e+00	0	43	0	916455424	66	4883
2026-01-24 10:08:46.99	319.61	48.56	-48.0	-49.9	17.7	0.00e+00	0	43	0	917504000	67	4507
2026-01-24 10:08:47.96	319.82	48.27	-46.8	-48.4	19.1	0.00e+00	0	44	0	919601152	65	4263
2026-01-24 10:08:48.93	320.01	47.97	-46.1	-47.5	20.1	0.00e+00	0	43	0	921698304	63	4306
2026-01-24 10:08:49.91	320.21	47.68	-46.1	-47.4	20.1	0.00e+00	0	44	0	923795456	63	4275
2026-01-24 10:08:50.89	320.40	47.38	-46.8	-48.3	19.2	0.00e+00	0	43	0	924844032	64	4466
2026-01-24 10:08:51.86	320.59	47.09	-47.2	-48.8	18.7	0.00e+00	0	44	0	926941184	65	4462
2026-01-24 10:08:52.83	320.77	46.81	-46.8	-48.4	19.1	0.00e+00	0	43	0	929038336	65	4247
2026-01-24 10:08:53.80	320.95	46.52	-46.0	-47.3	20.1	0.00e+00	0	43	0	931135488	63	4238
2026-01-24 10:08:54.77	321.13	46.24	-46.7	-48.2	19.4	0.00e+00	0	43	0	932184064	64	4429
2026-01-24 10:08:55.75	321.31	45.95	-47.1	-48.8	18.7	0.00e+00	0	43	0	934281216	65	4447
2026-01-24 10:08:56.72	321.48	45.67	-46.8	-48.4	19.0	0.00e+00	0	43	0	936378368	65	4248
2026-01-24 10:08:57.69	321.65	45.39	-46.0	-47.4	20.0	0.00e+00	0	43	0	938475520	63	4262
2026-01-24 10:08:58.67	321.81	45.11	-45.7	-47.0	20.4	0.00e+00	0	43	0	939524096	63	4093
2026-01-24 10:08:59.64	321.97	44.83	-45.6	-46.8	20.6	0.00e+00	0	43	0	941621248	62	4225
2026-01-24 10:09:00.61	322.13	44.56	-45.8	-47.1	20.4	0.00e+00	0	43	0	943718400	62	4378
2026-01-24 10:09:01.58	322.29	44.29	-46.6	-48.0	19.5	0.00e+00	0	43	0	945815552	63	4597
2026-01-24 10:09:02.55	322.45	44.02	-46.5	-48.0	19.5	0.00e+00	0	43	0	946864128	64	4298
2026-01-24 10:09:03.53	322.60	43.74	-47.5	-49.2	18.3	0.00e+00	0	43	0	948961280	65	4682
2026-01-24 10:09:04.50	322.75	43.48	-47.7	-49.5	18.1	0.00e+00	0	43	0	951058432	66	4580
2026-01-24 10:09:05.48	322.90	43.21	-47.6	-49.4	18.1	0.00e+00	0	43	0	953155584	66	4536
2026-01-24 10:09:06.45	323.04	42.94	-47.4	-49.2	18.4	0.00e+00	0	43	0	954204160	66	4397
2026-01-24 10:09:07.42	323.19	42.68	-46.6	-48.1	19.3	0.00e+00	0	43	0	956301312	65	4129
2026-01-24 10:09:08.40	323.33	42.42	-46.3	-47.7	19.9	0.00e+00	0	43	0	958398464	63	4393
2026-01-24 10:09:09.37	323.46	42.16	-45.3	-46.5	20.9	0.00e+00	0	43	0	959447040	62	4073
2026-01-24 10:09:10.34	323.60	41.90	-44.3	-45.4	21.8	0.00e+00	0	43	0	961544192	60	4006
2026-01-24 10:09:11.31	323.73	41.65	-44.0	-45.0	22.4	0.00e+00	0	43	0	963641344	59	4082
2026-01-24 10:09:12.29	323.87	41.39	-43.9	-44.9	22.5	0.00e+00	0	43	0	965738496	59	4046
2026-01-24 10:09:13.26	324.00	41.14	-44.5	-45.6	22.0	0.00e+00	0	43	0	966787072	59	4343
2026-01-24 10:09:14.23	324.13	40.89	-44.7	-45.8	21.4	0.00e+00	0	43	0	968884224	60	4214
2026-01-24 10:09:15.20	324.25	40.64	-45.6	-46.8	20.6	0.00e+00	0	43	0	970981376	61	4486
2026-01-24 10:09:16.18	324.38	40.39	-45.5	-46.8	20.6	0.00e+00	0	43	0	973078528	62	4216
2026-01-24 10:09:17.15	324.50	40.14	-45.4	-46.7	20.6	0.00e+00	0	43	0	974127104	61	4394
2026-01-24 10:09:18.13	324.62	39.89	-44.9	-46.1	21.2	0.00e+00	0	43	0	976224256	61	4115
2026-01-24 10:09:19.10	324.74	39.65	-44.3	-45.4	21.8	0.00e+00	0	44	0	978321408	60	4018
2026-01-24 10:09:20.07	324.86	39.41	-44.0	-45.0	22.1	0.00e+00	0	43	0	980418560	60	3865
2026-01-24 10:09:21.04	324.97	39.17	-44.3	-45.3	22.1	0.00e+00	0	43	0	981467136	59	4237
2026-01-24 10:09:22.01	325.09	38.93	-44.6	-45.7	21.6	0.00e+00	0	43	0	983564288	60	4169
2026-01-24 10:09:22.98	325.20	38.69	-45.4	-46.7	20.7	0.00e+00	0	43	0	985661440	61	4415
2026-01-24 10:09:23.96	325.31	38.46	-46.7	-48.2	19.4	0.00e+00	0	44	0	987758592	63	4671
2026-01-24 10:09:24.93	325.42	38.22	-47.0	-48.7	18.7	0.00e+00	0	43	0	988807168	65	4400
2026-01-24 10:09:25.90	325.53	37.99	-46.9	-48.5	19.0	0.00e+00	0	43	0	990904320	65	4331
2026-01-24 10:09:26.87	325.63	37.76	-46.5	-48.1	19.4	0.00e+00	0	43	0	993001472	65	4104
2026-01-24 10:09:27.84	325.74	37.53	-46.0	-47.4	20.0	0.00e+00	0	43	0	995098624	63	4254
2026-01-24 10:09:28.81	325.84	37.30	-45.1	-46.4	20.9	0.00e+00	0	44	0	996147200	62	4014
2026-01-24 10:09:29.79	325.94	37.07	-45.0	-46.2	21.1	0.00e+00	0	43	0	998244352	61	4149
2026-01-24 10:09:30.76	326.04	36.85	-44.5	-45.6	21.5	0.00e+00	0	43	0	1000341504	61	3909
2026-01-24 10:09:31.73	326.14	36.62	-44.9	-46.1	21.2	0.00e+00	0	43	0	1002438656	60	4341
2026-01-24 10:09:32.71	326.24	36.40	-44.9	-46.1	21.2	0.00e+00	0	43	0	1003487232	60	4376
2026-01-24 10:09:33.68	326.34	36.18	-45.3	-46.5	20.8	0.00e+00	0	43	0	1005584384	61	4336
2026-01-24 10:09:34.65	326.43	35.96	-45.2	-46.4	20.9	0.00e+00	0	43	0	1007681536	61	4256
2026-01-24 10:09:35.62	326.53	35.74	-45.0	-46.1	21.1	0.00e+00	0	43	0	1009778688	61	4128
2026-01-24 10:09:36.59	326.62	35.53	-45.4	-46.6	20.7	0.00e+00	0	43	0	1010827264	61	4370
2026-01-24 10:09:37.57	326.71	35.31	-45.4	-46.6	20.8	0.00e+00	0	44	0	1012924416	61	4358
2026-01-24 10:09:38.53	326.80	35.10	-45.7	-46.9	20.4	0.00e+00	0	43	0	1015021568	61	4531
2026-01-24 10:09:39.50	326.89	34.89	-46.1	-47.5	19.9	0.00e+00	0	43	0	1016070144	62	4571
2026-01-24 10:09:40.48	326.98	34.67	-46.7	-48.2	19.2	0.00e+00	0	43	0	1018167296	64	4426
2026-01-24 10:09:41.45	327.07	34.46	-47.5	-49.2	18.3	0.00e+00	0	43	0	1020264448	65	4690
2026-01-24 10:09:42.42	327.16	34.25	-47.9	-49.7	17.8	0.00e+00	0	43	0	1022361600	66	4694
2026-01-24 10:09:43.39	327.24	34.05	-48.7	-50.8	16.8	0.00e+00	0	43	0	1023410176	68	4724
2026-01-24 10:09:44.36	327.33	33.84	-48.5	-50.5	17.1	0.00e+00	0	43	0	1025507328	68	4571
2026-01-24 10:09:45.34	327.41	33.64	-48.7	-50.9	16.7	0.00e+00	0	43	0	1027604480	67	5082
2026-01-24 10:09:46.31	327.49	33.43	-48.1	-50.0	17.6	0.00e+00	0	43	0	1029701632	68	4339
2026-01-24 10:09:47.29	327.58	33.23	-47.5	-49.3	18.2	0.00e+00	0	44	0	1030750208	66	4445
2026-01-24 10:09:48.26	327.66	33.03	-47.4	-49.2	18.2	0.00e+00	0	43	0	1032847360	65	4664
2026-01-24 10:09:49.24	327.74	32.83	-46.8	-48.4	18.9	0.00e+00	0	43	0	1034944512	65	4277
2026-01-24 10:09:50.21	327.81	32.63	-46.8	-48.4	19.0	0.00e+00	0	43	0	1037041664	65	4254
2026-01-24 10:09:51.19	327.89	32.43	-46.6	-48.1	19.2	0.00e+00	0	43	0	1038090240	64	4370
2026-01-24 10:09:52.16	327.97	32.24	-46.6	-48.1	19.2	0.00e+00	0	43	0	1040187392	64	4378
2026-01-24 10:09:53.13	328.05	32.04	-46.3	-47.7	19.6	0.00e+00	0	44	0	1042284544	64	4188
2026-01-24 10:09:54.10	328.12	31.85	-46.3	-47.7	19.6	0.00e+00	0	43	0	1044381696	63	4437
2026-01-24 10:09:55.07	328.19	31.66	-46.5	-48.0	19.3	0.00e+00	0	43	0	1045430272	64	4323
2026-01-24 10:09:56.04	328.27	31.47	-46.5	-47.9	19.4	0.00e+00	0	43	0	1047527424	64	4267
2026-01-24 10:09:57.02	328.34	31.28	-47.0	-48.6	18.8	0.00e+00	0	43	0	1049624576	64	4609
2026-01-24 10:09:57.99	328.41	31.09	-47.0	-48.5	18.7	0.00e+00	0	43	0	1050673152	64	4590
2026-01-24 10:09:58.97	328.49	30.90	-46.9	-48.5	18.9	0.00e+00	0	43	0	1052770304	64	4554
2026-01-24 10:09:59.93	328.55	30.72	-47.1	-48.7	18.7	0.00e+00	0	43	0	1054867456	64	4691
2026-01-24 10:10:00.91	328.62	30.53	-46.8	-48.4	18.9	0.00e+00	0	44	0	1056964608	64	4496
2026-01-24 10:10:01.88	328.69	30.35	-46.6	-48.1	19.2	0.00e+00	0	43	0	1058013184	64	4356
2026-01-24 10:10:02.86	328.76	30.16	-46.3	-47.7	19.6	0.00e+00	0	43	0	1060110336	63	4438
2026-01-24 10:10:03.83	328.83	29.98	-46.4	-47.8	19.5	0.00e+00	0	43	0	1062207488	63	4482
2026-01-24 10:10:04.80	328.90	29.80	-46.2	-47.6	19.8	0.00e+00	0	43	0	1064304640	63	4356
2026-01-24 10:10:05.78	328.96	29.62	-46.3	-47.7	19.6	0.00e+00	0	43	0	1065353216	63	4427
2026-01-24 10:10:06.75	329.03	29.44	-46.5	-48.0	19.3	0.00e+00	0	43	0	1067450368	63	4593
2026-01-24 10:10:07.72	329.09	29.27	-46.3	-47.8	19.5	0.00e+00	0	43	0	1069547520	64	4219
2026-01-24 10:10:08.69	329.16	29.09	-46.5	-48.0	19.3	0.00e+00	0	44	0	1071644672	64	4329
2026-01-24 10:10:09.67	329.22	28.91	-46.9	-48.6	18.7	0.00e+00	0	43	0	1072693248	64	4620
2026-01-24 10:10:10.64	329.28	28.74	-46.4	-47.9	19.3	0.00e+00	0	43	0	1074790400	64	4291
2026-01-24 10:10:11.61	329.34	28.57	-46.7	-48.3	18.9	0.00e+00	0	43	0	1076887552	64	4467
2026-01-24 10:10:12.59	329.41	28.39	-46.4	-48.0	19.2	0.00e+00	0	43	0	1077936128	64	4307
2026-01-24 10:10:13.56	329.47	28.22	-46.2	-47.7	19.5	0.00e+00	0	43	0	1080033280	64	4154
2026-01-24 10:10:14.53	329.53	28.05	-46.1	-47.5	19.8	0.00e+00	0	43	0	1082130432	63	4304
2026-01-24 10:10:15.50	329.59	27.89	-45.9	-47.2	20.0	0.00e+00	0	44	0	1084227584	63	4159
2026-01-24 10:10:16.48	329.65	27.72	-45.4	-46.7	20.5	0.00e+00	0	43	0	1085276160	62	4152
2026-01-24 10:10:17.46	329.71	27.55	-45.0	-46.1	21.0	0.00e+00	0	44	0	1087373312	61	4132
2026-01-24 10:10:18.44	329.76	27.38	-44.9	-46.1	21.0	0.00e+00	0	43	0	1089470464	61	4107
2026-01-24 10:10:19.41	329.82	27.22	-44.2	-45.2	21.5	0.00e+00	0	43	0	1091567616	60	3940
2026-01-24 10:10:20.38	329.88	27.05	-44.2	-45.3	22.0	0.00e+00	0	44	0	1092616192	59	4201
2026-01-24 10:10:21.36	329.93	26.89	-44.2	-45.2	22.0	0.00e+00	0	43	0	1094713344	59	4182
2026-01-24 10:10:22.33	329.99	26.73	-44.0	-45.0	22.2	0.00e+00	0	43	0	1096810496	59	4096
2026-01-24 10:10:23.30	330.05	26.57	-43.9	-45.0	22.2	0.00e+00	0	43	0	1098907648	58	4303
2026-01-24 10:10:24.28	330.10	26.40	-44.2	-45.3	22.0	0.00e+00	0	43	0	1099956224	58	4448
2026-01-24 10:10:25.25	330.16	26.25	-44.5	-45.6	21.7	0.00e+00	0	44	0	1102053376	59	4357
2026-01-24 10:10:26.22	330.21	26.09	-44.4	-45.5	21.4	0.00e+00	0	43	0	1104150528	60	4097
2026-01-24 10:10:27.20	330.26	25.93	-45.0	-46.2	20.9	0.00e+00	0	43	0	1106247680	60	4419
2026-01-24 10:10:28.18	330.32	25.77	-45.5	-46.8	20.4	0.00e+00	0	43	0	1107296256	61	4461
2026-01-24 10:10:29.15	330.37	25.62	-46.0	-47.4	19.8	0.00e+00	0	43	0	1109393408	62	4523
2026-01-24 10:10:30.12	330.42	25.46	-46.3	-47.7	19.5	0.00e+00	0	43	0	1111490560	63	4440
2026-01-24 10:10:31.10	330.47	25.31	-46.1	-47.6	19.6	0.00e+00	0	43	0	1113587712	63	4358
2026-01-24 10:10:32.08	330.52	25.15	-46.2	-47.7	19.5	0.00e+00	0	43	0	1114636288	63	4410
2026-01-24 10:10:33.05	330.57	25.00	-46.0	-47.5	19.7	0.00e+00	0	43	0	1116733440	63	4299
2026-01-24 10:10:34.02	330.62	24.85	-45.8	-47.2	20.0	0.00e+00	0	43	0	1118830592	63	4150
2026-01-24 10:10:34.99	330.67	24.70	-45.1	-46.3	20.8	0.00e+00	0	43	0	1120927744	62	3990
2026-01-24 10:10:35.96	330.72	24.55	-45.0	-46.2	20.8	0.00e+00	0	43	0	1121976320	61	4187
2026-01-24 10:10:36.93	330.77	24.40	-44.7	-45.9	21.1	1.50e-06	0	43	0	1124073472	61	4012
2026-01-24 10:10:37.90	330.82	24.26	-44.1	-45.2	21.7	0.00e+00	0	43	0	1126170624	60	3943
2026-01-24 10:10:38.87	330.87	24.11	-44.1	-45.2	21.8	0.00e+00	0	43	0	1128267776	60	3915
2026-01-24 10:10:39.85	330.91	23.96	-44.1	-45.2	22.0	7.60e-06	0	43	0	1129316352	59	4178
2026-01-24 10:10:40.82	330.96	23.82	-44.3	-45.4	21.8	0.00e+00	0	43	0	1131413504	59	4270
2026-01-24 10:10:41.80	331.01	23.67	-44.2	-45.2	21.9	0.00e+00	0	43	0	1133510656	59	4190
2026-01-24 10:10:42.77	331.05	23.53	-44.0	-45.1	22.0	0.00e+00	0	43	0	1134559232	59	4130
2026-01-24 10:10:43.75	331.10	23.38	-44.2	-45.3	21.9	0.00e+00	0	43	0	1136656384	59	4215
2026-01-24 10:10:44.72	331.15	23.24	-44.1	-45.2	21.9	0.00e+00	0	43	0	1138753536	59	4169
2026-01-24 10:10:45.68	331.19	23.10	-44.1	-45.2	21.9	0.00e+00	0	43	0	1140850688	59	4173
2026-01-24 10:10:46.65	331.24	22.96	-44.1	-45.2	22.0	0.00e+00	0	43	0	1141899264	58	4403
2026-01-24 10:10:47.63	331.28	22.82	-44.0	-45.1	22.0	1.44e-05	0	43	0	1143996416	58	4370
2026-01-24 10:10:48.60	331.32	22.68	-44.1	-45.2	22.0	0.00e+00	0	43	0	1146093568	58	4397
2026-01-24 10:10:49.58	331.37	22.54	-44.2	-45.2	21.9	0.00e+00	0	43	0	1148190720	59	4193
2026-01-24 10:10:50.55	331.41	22.40	-44.1	-45.2	21.9	0.00e+00	0	43	0	1149239296	59	4179
2026-01-24 10:10:51.52	331.45	22.27	-44.5	-45.6	21.6	0.00e+00	0	43	0	1151336448	59	4359
2026-01-24 10:10:52.49	331.50	22.13	-44.4	-45.5	21.6	0.00e+00	0	43	0	1153433600	59	4315
2026-01-24 10:10:53.47	331.54	21.99	-44.4	-45.5	21.6	0.00e+00	0	43	0	1155530752	59	4338
2026-01-24 10:10:54.44	331.58	21.86	-44.5	-45.6	21.3	0.00e+00	0	43	0	1156579328	60	4131
2026-01-24 10:10:55.41	331.62	21.72	-44.6	-45.8	21.1	2.20e-06	0	43	0	1158676480	60	4226
2026-01-24 10:10:56.38	331.66	21.59	-44.6	-45.8	21.1	0.00e+00	0	43	0	1160773632	60	4229
2026-01-24 10:10:57.35	331.71	21.46	-44.7	-45.9	21.0	0.00e+00	0	43	0	1162870784	60	4258
2026-01-24 10:10:58.32	331.75	21.33	-45.0	-46.3	20.7	0.00e+00	0	43	0	1163919360	60	4447
2026-01-24 10:10:59.30	331.79	21.19	-45.0	-46.3	20.6	0.00e+00	0	43	0	1166016512	60	4472
2026-01-24 10:11:00.27	331.83	21.06	-44.9	-46.1	20.8	9.90e-06	0	43	0	1168113664	60	4386
2026-01-24 10:11:01.24	331.87	20.93	-45.0	-46.2	20.7	0.00e+00	0	43	0	1170210816	60	4416
2026-01-24 10:11:02.22	331.91	20.80	-44.8	-46.0	20.9	0.00e+00	0	43	0	1171259392	60	4311
2026-01-24 10:11:03.19	331.95	20.68	-44.5	-45.7	21.1	0.00e+00	0	43	0	1173356544	60	4180
2026-01-24 10:11:04.16	331.98	20.55	-44.4	-45.5	21.3	0.00e+00	0	43	0	1175453696	60	4072
2026-01-24 10:11:05.13	332.02	20.42	-44.0	-45.1	21.6	0.00e+00	0	43	0	1177550848	60	3877
2026-01-24 10:11:06.11	332.06	20.29	-44.2	-45.2	21.8	0.00e+00	0	44	0	1178599424	58	4437
2026-01-24 10:11:07.08	332.10	20.17	-43.8	-44.8	22.1	0.00e+00	0	44	0	1180696576	58	4242
2026-01-24 10:11:08.06	332.14	20.04	-43.5	-44.6	22.4	7.00e-07	0	43	0	1182793728	58	4102
2026-01-24 10:11:09.03	332.18	19.91	-43.3	-44.3	22.6	0.00e+00	0	43	0	1184890880	58	3986
2026-01-24 10:11:10.00	332.21	19.79	-43.1	-44.1	22.8	0.00e+00	0	43	0	1185939456	58	3894
2026-01-24 10:11:10.97	332.25	19.67	-43.1	-44.1	22.7	1.50e-06	0	44	0	1188036608	58	3869
2026-01-24 10:11:11.94	332.29	19.54	-43.0	-44.0	22.8	0.00e+00	0	44	0	1190133760	56	4316
2026-01-24 10:11:12.92	332.32	19.42	-42.9	-43.9	22.9	0.00e+00	0	44	0	1191182336	56	4266
2026-01-24 10:11:13.90	332.36	19.30	-43.0	-44.0	22.8	0.00e+00	0	44	0	1193279488	56	4315
2026-01-24 10:11:14.87	332.40	19.18	-43.0	-43.9	22.9	0.00e+00	0	43	0	1195376640	56	4282
