passes_logs/2026/01/24/R3.2S_Murmansk/R3.2S_Murmansk__20260124_061153_NOAA_21_JPSS-2_rec.log

#Pass ID: 20260124_061153_NOAA 21 (JPSS-2)
#Satellite: NOAA 21 (JPSS-2)
#Configuration: NOAA-21
#almurnet v.1.7.20251203
#Start time: 2026-01-24 06:11:53

#Version: 2.2.20231116
#Station: R3.2S_Murmansk
#Location: 33.079688 lon 68.888172 lat
#TLE: 1 54234U 22150A   26023.61190495  .00000215  00000+0  12293-3 0  9993
#TLE: 2 54234  98.7508 324.4078 0000700 226.6110 133.5008 14.19538339166032

#Time	Az	El	Level	Level2	SNR	BER	BlckErr	Temp	State	Recorded	gain1	gain2
2026-01-24 06:11:53.38	79.40	2.01	-51.8	-64.6	3.8	1.49e+00	0	41	0	0	75	15453
2026-01-24 06:11:54.38	79.34	2.06	-51.8	-64.6	3.8	1.49e+00	0	41	104	0	74	16373
2026-01-24 06:11:55.39	79.28	2.12	-51.8	-64.6	3.8	1.49e+00	0	41	104	0	74	16349
2026-01-24 06:11:56.40	79.22	2.18	-51.8	-64.6	3.8	1.49e+00	0	42	104	0	74	16321
2026-01-24 06:11:57.41	79.16	2.24	-51.8	-64.6	3.8	1.49e+00	0	41	104	0	74	16328
2026-01-24 06:11:58.42	79.10	2.30	-51.8	-64.5	3.8	1.49e+00	0	42	104	0	74	16312
2026-01-24 06:11:59.43	79.04	2.36	-51.8	-64.5	3.8	1.49e+00	0	42	104	0	74	16294
2026-01-24 06:12:00.43	78.98	2.42	-51.8	-64.6	3.8	1.49e+00	0	42	104	0	74	16339
2026-01-24 06:12:01.44	78.92	2.47	-51.8	-64.5	3.8	1.49e+00	0	42	104	0	74	16296
2026-01-24 06:12:02.45	78.85	2.53	-51.8	-64.5	3.8	1.49e+00	0	42	104	0	74	16314
2026-01-24 06:12:03.46	78.79	2.59	-51.8	-64.5	3.8	1.49e+00	0	42	104	0	74	16304
2026-01-24 06:12:04.47	78.73	2.65	-51.8	-64.5	3.8	1.49e+00	0	41	104	0	74	16286
2026-01-24 06:12:05.48	78.67	2.71	-51.8	-64.5	3.8	1.49e+00	0	42	104	0	74	16282
2026-01-24 06:12:06.48	78.60	2.77	-51.8	-64.5	3.8	1.49e+00	0	42	104	0	74	16232
2026-01-24 06:12:07.49	78.54	2.83	-51.8	-64.5	3.8	1.49e+00	0	42	104	0	74	16234
2026-01-24 06:12:08.50	78.48	2.89	-51.8	-64.5	3.8	1.49e+00	0	42	104	0	74	16259
2026-01-24 06:12:09.50	78.41	2.95	-51.8	-64.5	3.8	1.49e+00	0	42	104	0	74	16251
2026-01-24 06:12:10.51	78.35	3.01	-51.8	-64.5	3.8	1.49e+00	0	42	104	0	74	16310
2026-01-24 06:12:11.52	78.28	3.07	-51.8	-64.5	3.8	1.49e+00	0	42	104	0	74	16284
2026-01-24 06:12:12.53	78.22	3.13	-51.8	-64.5	3.8	1.49e+00	0	42	104	0	74	16279
2026-01-24 06:12:13.53	78.15	3.19	-51.8	-64.5	3.8	1.49e+00	0	42	104	0	74	16251
2026-01-24 06:12:14.54	78.09	3.25	-51.8	-64.5	3.8	1.49e+00	0	42	104	0	74	16206
2026-01-24 06:12:15.55	78.02	3.31	-51.8	-64.4	3.8	1.49e+00	0	42	104	0	74	16110
2026-01-24 06:12:16.56	77.96	3.37	-51.8	-64.4	3.8	1.49e+00	0	42	104	0	74	16108
2026-01-24 06:12:17.57	77.89	3.43	-51.8	-64.5	3.8	1.49e+00	0	42	104	0	74	16159
2026-01-24 06:12:18.58	77.82	3.49	-51.8	-64.5	3.8	1.49e+00	0	42	104	0	74	16193
2026-01-24 06:12:19.58	77.76	3.55	-51.8	-64.5	3.8	1.49e+00	0	42	104	0	74	16179
2026-01-24 06:12:20.59	77.69	3.61	-51.8	-64.5	3.8	1.49e+00	0	42	104	0	74	16267
2026-01-24 06:12:21.59	77.62	3.67	-51.8	-64.5	3.8	1.49e+00	0	42	104	0	74	16172
2026-01-24 06:12:22.60	77.56	3.73	-51.8	-64.5	3.8	1.49e+00	0	42	104	0	74	16167
2026-01-24 06:12:23.61	77.49	3.79	-51.8	-64.4	3.8	1.49e+00	0	42	104	0	74	16113
2026-01-24 06:12:24.62	77.42	3.85	-51.8	-64.4	3.8	1.49e+00	0	42	104	0	74	16084
2026-01-24 06:12:25.63	77.35	3.91	-51.8	-64.5	3.8	1.49e+00	0	42	104	0	74	16143
2026-01-24 06:12:26.63	77.28	3.97	-51.8	-64.5	3.8	1.49e+00	0	42	104	0	74	16214
2026-01-24 06:12:27.64	77.21	4.03	-51.8	-64.4	3.8	1.49e+00	0	42	104	0	74	16033
2026-01-24 06:12:28.65	77.14	4.10	-51.7	-64.1	3.8	1.49e+00	0	42	104	0	74	15485
2026-01-24 06:12:29.65	77.07	4.16	-51.7	-63.5	3.8	1.49e+00	0	42	104	0	74	14465
2026-01-24 06:12:30.66	77.00	4.22	-51.7	-63.1	3.8	1.49e+00	0	42	104	0	74	13866
2026-01-24 06:12:31.67	76.93	4.28	-51.6	-62.4	3.8	1.49e+00	0	42	104	0	74	12724
2026-01-24 06:12:32.67	76.86	4.34	-51.5	-61.3	4.1	1.47e+00	0	42	104	0	74	11219
2026-01-24 06:12:33.68	76.79	4.40	-51.5	-61.2	4.1	1.47e+00	0	42	104	0	74	11092
2026-01-24 06:12:34.69	76.72	4.47	-51.5	-61.5	4.1	1.47e+00	0	42	104	0	74	11493
2026-01-24 06:12:35.69	76.65	4.53	-51.5	-61.9	4.0	1.48e+00	0	43	104	0	74	11959
2026-01-24 06:12:36.70	76.58	4.59	-51.5	-61.9	4.0	1.48e+00	0	43	104	0	74	11966
2026-01-24 06:12:37.70	76.51	4.65	-51.5	-61.5	4.1	1.48e+00	0	42	104	0	74	11443
2026-01-24 06:12:38.71	76.43	4.71	-51.3	-60.1	4.5	1.46e+00	0	42	104	0	74	9828
2026-01-24 06:12:39.72	76.36	4.78	-51.0	-57.9	5.6	5.77e-01	0	42	0	1048576	74	7615
2026-01-24 06:12:40.73	76.29	4.84	-50.6	-56.4	6.8	2.40e-01	0	43	0	4194304	73	6774
2026-01-24 06:12:41.73	76.21	4.90	-50.0	-54.5	8.8	4.61e-02	0	43	0	7340032	71	6072
2026-01-24 06:12:42.74	76.14	4.96	-49.4	-53.2	10.1	1.34e-02	0	43	0	10485760	70	5569
2026-01-24 06:12:43.75	76.07	5.03	-49.4	-53.2	10.2	6.65e-03	0	43	0	13631488	70	5534
2026-01-24 06:12:44.76	75.99	5.09	-47.6	-50.0	13.6	9.99e-05	0	42	0	16777216	67	4555
2026-01-24 06:12:45.77	75.92	5.15	-46.5	-48.3	15.3	7.00e-07	0	42	0	19922944	65	4207
2026-01-24 06:12:46.78	75.84	5.22	-51.5	-61.2	4.3	9.61e-02	3	43	0	23068672	73	11685
2026-01-24 06:12:47.78	75.77	5.28	-50.0	-54.4	9.1	6.35e-01	0	43	104	23068672	72	5691
2026-01-24 06:12:48.79	75.69	5.34	-45.8	-47.4	16.2	0.00e+00	0	43	0	25165824	63	4269
2026-01-24 06:12:49.80	75.61	5.41	-46.0	-47.7	15.9	0.00e+00	0	43	0	28311552	63	4415
2026-01-24 06:12:50.81	75.54	5.47	-46.0	-47.7	16.0	0.00e+00	0	42	0	31457280	63	4403
2026-01-24 06:12:51.81	75.46	5.53	-45.8	-47.4	16.2	0.00e+00	0	43	0	34603008	63	4266
2026-01-24 06:12:52.82	75.38	5.60	-45.0	-46.4	17.2	0.00e+00	0	43	0	37748736	61	4252
2026-01-24 06:12:53.83	75.31	5.66	-44.8	-46.1	17.5	0.00e+00	0	43	0	40894464	61	4113
2026-01-24 06:12:54.84	75.23	5.72	-45.0	-46.3	17.3	0.00e+00	0	43	0	44040192	61	4238
2026-01-24 06:12:55.85	75.15	5.79	-44.7	-46.0	17.7	0.00e+00	0	43	0	47185920	61	4060
2026-01-24 06:12:56.85	75.07	5.85	-45.1	-46.5	17.2	0.00e+00	0	43	0	50331648	61	4324
2026-01-24 06:12:57.86	74.99	5.92	-45.4	-46.8	16.8	0.00e+00	0	43	0	53477376	61	4469
2026-01-24 06:12:58.87	74.91	5.98	-45.4	-46.9	16.8	0.00e+00	0	43	0	56623104	61	4504
2026-01-24 06:12:59.88	74.83	6.05	-45.1	-46.4	17.2	0.00e+00	0	43	0	59768832	61	4284
2026-01-24 06:13:00.89	74.75	6.11	-45.0	-46.4	17.3	0.00e+00	0	43	0	62914560	61	4281
2026-01-24 06:13:01.89	74.67	6.17	-45.1	-46.5	17.2	0.00e+00	0	43	0	66060288	61	4329
2026-01-24 06:13:02.90	74.59	6.24	-45.1	-46.5	17.3	0.00e+00	0	43	0	69206016	61	4310
2026-01-24 06:13:03.91	74.51	6.30	-44.7	-46.0	17.8	0.00e+00	0	43	0	72351744	61	4071
2026-01-24 06:13:04.92	74.43	6.37	-44.9	-46.2	17.6	0.00e+00	0	43	0	75497472	60	4411
2026-01-24 06:13:05.92	74.35	6.43	-44.6	-45.8	18.0	0.00e+00	0	43	0	78643200	60	4229
2026-01-24 06:13:06.93	74.26	6.50	-44.5	-45.8	18.0	0.00e+00	0	43	0	81788928	60	4198
2026-01-24 06:13:07.94	74.18	6.56	-44.9	-46.2	17.6	0.00e+00	0	43	0	84934656	60	4437
2026-01-24 06:13:08.95	74.10	6.63	-44.5	-45.8	18.0	0.00e+00	0	43	0	88080384	60	4208
2026-01-24 06:13:09.96	74.01	6.70	-44.4	-45.6	18.2	0.00e+00	0	43	0	91226112	60	4141
2026-01-24 06:13:10.97	73.93	6.76	-44.5	-45.7	18.1	0.00e+00	0	43	0	94371840	60	4180
2026-01-24 06:13:11.97	73.85	6.83	-44.5	-45.8	18.1	0.00e+00	0	43	0	97517568	60	4211
2026-01-24 06:13:12.98	73.76	6.89	-44.4	-45.6	18.2	0.00e+00	0	43	0	100663296	60	4136
2026-01-24 06:13:13.99	73.68	6.96	-44.5	-45.8	18.1	0.00e+00	0	43	0	103809024	60	4217
2026-01-24 06:13:14.99	73.59	7.02	-44.5	-45.7	18.1	0.00e+00	0	43	0	106954752	60	4175
2026-01-24 06:13:16.00	73.51	7.09	-44.3	-45.5	18.4	0.00e+00	0	43	0	110100480	60	4071
2026-01-24 06:13:17.01	73.42	7.16	-44.3	-45.4	18.4	0.00e+00	0	43	0	113246208	60	4045
2026-01-24 06:13:18.02	73.33	7.22	-44.2	-45.4	18.5	0.00e+00	0	43	0	116391936	60	4033
2026-01-24 06:13:19.03	73.25	7.29	-44.2	-45.4	18.8	0.00e+00	0	43	0	119537664	59	4268
2026-01-24 06:13:20.03	73.16	7.36	-44.5	-45.7	18.5	0.00e+00	0	43	0	122683392	59	4415
2026-01-24 06:13:21.04	73.07	7.42	-44.6	-45.9	18.4	0.00e+00	0	43	0	125829120	59	4509
2026-01-24 06:13:22.05	72.98	7.49	-44.0	-45.2	18.7	0.00e+00	0	43	0	128974848	60	3915
2026-01-24 06:13:23.06	72.89	7.56	-44.4	-45.6	18.6	0.00e+00	0	43	0	132120576	59	4385
2026-01-24 06:13:24.07	72.80	7.62	-44.5	-45.7	18.5	0.00e+00	0	43	0	135266304	59	4437
2026-01-24 06:13:25.07	72.71	7.69	-44.7	-45.9	18.4	0.00e+00	0	43	0	138412032	59	4521
2026-01-24 06:13:26.08	72.62	7.76	-44.3	-45.4	18.8	0.00e+00	0	43	0	141557760	59	4278
2026-01-24 06:13:27.09	72.53	7.83	-44.3	-45.5	18.8	0.00e+00	0	43	0	144703488	59	4303
2026-01-24 06:13:28.10	72.44	7.89	-44.2	-45.3	18.9	0.00e+00	0	43	0	147849216	59	4238
2026-01-24 06:13:29.11	72.35	7.96	-44.5	-45.7	18.6	0.00e+00	0	43	0	150994944	59	4393
2026-01-24 06:13:30.12	72.26	8.03	-44.1	-45.2	19.1	0.00e+00	0	43	0	154140672	59	4174
2026-01-24 06:13:31.13	72.17	8.10	-44.4	-45.6	18.7	0.00e+00	0	43	0	157286400	59	4359
2026-01-24 06:13:32.13	72.07	8.16	-44.2	-45.4	18.9	0.00e+00	0	43	0	160432128	59	4266
2026-01-24 06:13:33.14	71.98	8.23	-44.3	-45.4	18.9	0.00e+00	0	43	0	163577856	59	4285
2026-01-24 06:13:34.15	71.89	8.30	-44.1	-45.2	19.1	0.00e+00	0	43	0	166723584	59	4162
2026-01-24 06:13:35.15	71.79	8.37	-44.0	-45.1	19.2	0.00e+00	0	43	0	169869312	59	4142
2026-01-24 06:13:36.16	71.70	8.44	-44.0	-45.1	19.2	0.00e+00	0	43	0	173015040	59	4135
2026-01-24 06:13:37.17	71.60	8.51	-44.1	-45.2	19.1	0.00e+00	0	43	0	176160768	59	4166
2026-01-24 06:13:38.18	71.51	8.57	-43.8	-44.9	19.4	0.00e+00	0	43	0	179306496	59	4020
2026-01-24 06:13:39.19	71.41	8.64	-43.9	-45.0	19.3	0.00e+00	0	43	0	183500800	59	4094
2026-01-24 06:13:40.20	71.32	8.71	-43.8	-44.9	19.5	0.00e+00	0	43	0	185597952	59	4010
2026-01-24 06:13:41.21	71.22	8.78	-43.8	-44.9	19.5	0.00e+00	0	43	0	188743680	59	4016
2026-01-24 06:13:42.22	71.12	8.85	-43.7	-44.8	19.5	0.00e+00	0	43	0	191889408	59	3969
2026-01-24 06:13:43.22	71.02	8.92	-43.7	-44.8	19.5	0.00e+00	0	43	0	195035136	59	3978
2026-01-24 06:13:44.23	70.93	8.99	-43.7	-44.8	19.5	0.00e+00	0	43	0	198180864	59	3964
2026-01-24 06:13:45.24	70.83	9.06	-43.7	-44.8	19.5	0.00e+00	0	43	0	201326592	59	3965
2026-01-24 06:13:46.25	70.73	9.13	-43.5	-44.6	19.7	0.00e+00	0	43	0	204472320	59	3875
2026-01-24 06:13:47.26	70.63	9.20	-43.7	-44.7	19.5	0.00e+00	0	43	0	207618048	59	3957
2026-01-24 06:13:48.26	70.53	9.27	-43.8	-44.9	19.5	0.00e+00	0	43	0	210763776	59	4015
2026-01-24 06:13:49.27	70.43	9.34	-43.3	-44.3	19.9	0.00e+00	0	43	0	213909504	58	3999
2026-01-24 06:13:50.28	70.33	9.41	-43.5	-44.5	19.8	0.00e+00	0	43	0	217055232	58	4074
2026-01-24 06:13:51.29	70.22	9.48	-43.5	-44.6	19.7	0.00e+00	0	43	0	221249536	58	4113
2026-01-24 06:13:52.29	70.12	9.55	-43.6	-44.7	19.6	0.00e+00	0	43	0	224395264	58	4149
2026-01-24 06:13:53.30	70.02	9.62	-43.7	-44.8	19.5	0.00e+00	0	43	0	227540992	58	4216
2026-01-24 06:13:54.31	69.92	9.69	-43.3	-44.3	20.0	0.00e+00	0	43	0	230686720	58	3969
2026-01-24 06:13:55.32	69.81	9.76	-43.4	-44.5	19.8	0.00e+00	0	43	0	232783872	58	4061
2026-01-24 06:13:56.33	69.71	9.83	-43.4	-44.4	19.9	0.00e+00	0	43	0	235929600	58	4048
2026-01-24 06:13:57.34	69.60	9.90	-43.4	-44.4	20.0	0.00e+00	0	43	0	239075328	58	4019
2026-01-24 06:13:58.34	69.50	9.97	-43.3	-44.3	20.0	0.00e+00	0	43	0	242221056	58	3984
2026-01-24 06:13:59.36	69.39	10.04	-43.5	-44.5	19.9	0.00e+00	0	43	0	245366784	58	4064
2026-01-24 06:14:00.36	69.28	10.11	-43.2	-44.2	20.2	0.00e+00	0	43	0	248512512	58	3937
2026-01-24 06:14:01.37	69.18	10.18	-43.2	-44.1	20.2	0.00e+00	0	43	0	251658240	58	3913
2026-01-24 06:14:02.38	69.07	10.25	-43.0	-43.9	20.3	0.00e+00	0	43	0	254803968	58	3822
2026-01-24 06:14:03.39	68.96	10.32	-43.4	-44.4	19.9	0.00e+00	0	43	0	258998272	58	4020
2026-01-24 06:14:04.40	68.85	10.40	-43.2	-44.2	20.1	0.00e+00	0	43	0	262144000	58	3931
2026-01-24 06:14:05.41	68.74	10.47	-43.2	-44.2	20.1	0.00e+00	0	43	0	265289728	57	4165
2026-01-24 06:14:06.41	68.64	10.54	-43.0	-44.0	20.3	0.00e+00	0	43	0	268435456	57	4057
2026-01-24 06:14:07.42	68.52	10.61	-42.9	-43.9	20.4	0.00e+00	0	43	0	271581184	57	4005
2026-01-24 06:14:08.43	68.41	10.68	-42.9	-43.9	20.4	0.00e+00	0	43	0	274726912	57	4005
2026-01-24 06:14:09.44	68.30	10.75	-43.0	-44.0	20.2	0.00e+00	0	43	0	277872640	57	4082
2026-01-24 06:14:10.45	68.19	10.83	-43.0	-44.0	20.3	0.00e+00	0	43	0	279969792	57	4059
2026-01-24 06:14:11.45	68.08	10.90	-42.9	-43.8	20.5	0.00e+00	0	43	0	283115520	57	3998
2026-01-24 06:14:12.46	67.97	10.97	-43.0	-43.9	20.4	0.00e+00	0	43	0	286261248	57	4049
2026-01-24 06:14:13.47	67.85	11.04	-43.1	-44.1	20.2	0.00e+00	0	43	0	289406976	57	4123
2026-01-24 06:14:14.48	67.74	11.12	-42.9	-43.8	20.5	0.00e+00	0	43	0	292552704	57	4000
2026-01-24 06:14:15.49	67.62	11.19	-42.8	-43.8	20.5	0.00e+00	0	43	0	296747008	57	3971
2026-01-24 06:14:16.50	67.51	11.26	-42.9	-43.9	20.5	0.00e+00	0	43	0	299892736	57	4007
2026-01-24 06:14:17.51	67.39	11.33	-43.0	-44.0	20.3	0.00e+00	0	43	0	303038464	57	4081
2026-01-24 06:14:18.52	67.27	11.41	-42.8	-43.8	20.6	0.00e+00	0	43	0	306184192	57	3959
2026-01-24 06:14:19.52	67.16	11.48	-43.0	-43.9	20.4	0.00e+00	0	43	0	309329920	57	4033
2026-01-24 06:14:20.53	67.04	11.55	-42.9	-43.8	20.6	0.00e+00	0	43	0	312475648	57	3981
2026-01-24 06:14:21.54	66.92	11.62	-42.9	-43.9	20.5	0.00e+00	0	43	0	315621376	57	4005
2026-01-24 06:14:22.55	66.80	11.70	-43.1	-44.0	20.4	0.00e+00	0	43	0	318767104	57	4086
2026-01-24 06:14:23.56	66.68	11.77	-42.9	-43.8	20.5	0.00e+00	0	43	0	321912832	57	3998
2026-01-24 06:14:24.56	66.56	11.84	-42.7	-43.7	20.6	0.00e+00	0	43	0	325058560	57	3919
2026-01-24 06:14:25.57	66.44	11.92	-42.9	-43.8	20.5	0.00e+00	0	43	0	328204288	57	4004
2026-01-24 06:14:26.58	66.32	11.99	-43.0	-44.0	20.4	0.00e+00	0	43	0	330301440	57	4062
2026-01-24 06:14:27.59	66.20	12.07	-43.0	-44.0	20.4	0.00e+00	0	43	0	334495744	57	4059
2026-01-24 06:14:28.60	66.08	12.14	-42.9	-43.9	20.5	0.00e+00	0	43	0	337641472	57	4005
2026-01-24 06:14:29.61	65.95	12.21	-42.8	-43.7	20.7	0.00e+00	0	43	0	340787200	57	3953
2026-01-24 06:14:30.62	65.83	12.29	-43.0	-43.9	20.5	0.00e+00	0	43	0	343932928	57	4045
2026-01-24 06:14:31.62	65.71	12.36	-42.9	-43.9	20.6	0.00e+00	0	43	0	347078656	57	4015
2026-01-24 06:14:32.63	65.58	12.43	-42.9	-43.8	20.6	0.00e+00	0	43	0	350224384	57	3995
2026-01-24 06:14:33.64	65.45	12.51	-42.7	-43.6	20.8	0.00e+00	0	43	0	353370112	57	3890
2026-01-24 06:14:34.65	65.33	12.58	-42.6	-43.5	20.8	0.00e+00	0	43	0	356515840	57	3860
2026-01-24 06:14:35.66	65.20	12.66	-42.6	-43.5	20.8	0.00e+00	0	43	0	359661568	57	3859
2026-01-24 06:14:36.67	65.07	12.73	-42.6	-43.5	20.9	0.00e+00	0	43	0	362807296	56	4087
2026-01-24 06:14:37.68	64.94	12.81	-42.6	-43.5	20.9	0.00e+00	0	43	0	365953024	56	4071
2026-01-24 06:14:38.68	64.82	12.88	-42.6	-43.5	20.9	0.00e+00	0	43	0	369098752	56	4068
2026-01-24 06:14:39.69	64.69	12.96	-42.6	-43.5	20.8	0.00e+00	0	43	0	372244480	56	4090
2026-01-24 06:14:40.70	64.55	13.03	-42.8	-43.7	20.7	0.00e+00	0	43	0	375390208	56	4169
2026-01-24 06:14:41.71	64.42	13.11	-42.8	-43.7	20.7	0.00e+00	0	43	0	378535936	56	4178
2026-01-24 06:14:42.72	64.29	13.18	-42.7	-43.6	20.8	0.00e+00	0	43	0	381681664	56	4118
2026-01-24 06:14:43.73	64.16	13.26	-42.7	-43.7	20.7	0.00e+00	0	43	0	384827392	56	4165
2026-01-24 06:14:44.73	64.03	13.33	-42.8	-43.7	20.7	0.00e+00	0	43	0	387973120	56	4175
2026-01-24 06:14:45.74	63.89	13.41	-42.8	-43.7	20.6	0.00e+00	0	43	0	391118848	56	4187
2026-01-24 06:14:46.75	63.76	13.48	-42.7	-43.6	20.7	0.00e+00	0	43	0	394264576	56	4143
2026-01-24 06:14:47.76	63.62	13.56	-42.7	-43.6	20.8	0.00e+00	0	43	0	397410304	56	4110
2026-01-24 06:14:48.77	63.49	13.63	-42.5	-43.4	21.0	0.00e+00	0	43	0	400556032	56	4051
2026-01-24 06:14:49.78	63.35	13.71	-42.6	-43.4	21.0	0.00e+00	0	43	0	403701760	56	4049
2026-01-24 06:14:50.78	63.21	13.78	-42.5	-43.4	21.1	0.00e+00	0	43	0	406847488	56	4027
2026-01-24 06:14:51.79	63.07	13.86	-42.5	-43.4	21.1	0.00e+00	0	43	0	409993216	56	4040
2026-01-24 06:14:52.80	62.94	13.93	-42.7	-43.6	20.9	0.00e+00	0	43	0	413138944	56	4118
2026-01-24 06:14:53.81	62.80	14.01	-42.6	-43.5	20.9	0.00e+00	0	43	0	416284672	56	4061
2026-01-24 06:14:54.82	62.66	14.09	-42.6	-43.5	21.0	0.00e+00	0	43	0	419430400	56	4072
2026-01-24 06:14:55.83	62.51	14.16	-42.6	-43.5	20.9	0.00e+00	0	43	0	422576128	56	4098
2026-01-24 06:14:56.83	62.37	14.24	-42.7	-43.6	20.9	0.00e+00	0	43	0	425721856	56	4136
2026-01-24 06:14:57.84	62.23	14.31	-42.7	-43.7	20.9	0.00e+00	0	43	0	428867584	56	4151
2026-01-24 06:14:58.85	62.09	14.39	-42.7	-43.6	20.9	0.00e+00	0	43	0	432013312	56	4121
2026-01-24 06:14:59.86	61.94	14.47	-42.7	-43.6	20.9	0.00e+00	0	43	0	435159040	56	4135
2026-01-24 06:15:00.87	61.80	14.54	-42.8	-43.7	20.9	0.00e+00	0	43	0	438304768	56	4160
2026-01-24 06:15:01.87	61.65	14.62	-42.8	-43.7	20.8	0.00e+00	0	43	0	441450496	56	4191
2026-01-24 06:15:02.89	61.51	14.69	-42.8	-43.7	20.9	0.00e+00	0	43	0	444596224	56	4157
2026-01-24 06:15:03.89	61.36	14.77	-42.8	-43.7	20.8	0.00e+00	0	43	0	447741952	56	4188
2026-01-24 06:15:04.90	61.21	14.85	-42.8	-43.8	20.8	0.00e+00	0	43	0	450887680	56	4201
2026-01-24 06:15:05.91	61.06	14.92	-42.7	-43.6	21.0	0.00e+00	0	43	0	454033408	56	4119
2026-01-24 06:15:06.92	60.91	15.00	-42.9	-43.8	20.8	0.00e+00	0	43	0	457179136	56	4239
2026-01-24 06:15:07.93	60.76	15.08	-42.9	-43.8	20.8	0.00e+00	0	43	0	460324864	56	4228
2026-01-24 06:15:08.94	60.61	15.15	-42.9	-43.8	20.8	0.00e+00	0	43	0	463470592	56	4215
2026-01-24 06:15:09.95	60.46	15.23	-43.0	-43.9	20.7	0.00e+00	0	43	0	466616320	56	4273
2026-01-24 06:15:10.96	60.31	15.31	-43.0	-44.0	20.7	0.00e+00	0	43	0	469762048	56	4297
2026-01-24 06:15:11.96	60.16	15.38	-43.1	-44.0	20.6	0.00e+00	0	43	0	472907776	57	4092
2026-01-24 06:15:12.97	60.00	15.46	-43.2	-44.2	20.5	0.00e+00	0	43	0	476053504	57	4150
2026-01-24 06:15:13.98	59.85	15.54	-43.1	-44.1	20.6	0.00e+00	0	43	0	479199232	57	4104
2026-01-24 06:15:14.99	59.69	15.61	-43.1	-44.0	20.6	0.00e+00	0	43	0	482344960	57	4074
2026-01-24 06:15:16.00	59.53	15.69	-43.1	-44.0	20.7	0.00e+00	0	43	0	485490688	57	4078
2026-01-24 06:15:17.01	59.38	15.77	-43.2	-44.2	20.5	0.00e+00	0	43	0	488636416	57	4154
2026-01-24 06:15:18.02	59.22	15.84	-43.3	-44.2	20.4	0.00e+00	0	43	0	491782144	57	4193
2026-01-24 06:15:19.02	59.06	15.92	-43.0	-43.9	20.7	0.00e+00	0	43	0	494927872	57	4027
2026-01-24 06:15:20.03	58.90	16.00	-43.2	-44.1	20.5	0.00e+00	0	43	0	498073600	57	4127
2026-01-24 06:15:21.04	58.74	16.07	-43.1	-44.1	20.6	0.00e+00	0	43	0	501219328	57	4108
2026-01-24 06:15:22.05	58.58	16.15	-43.1	-44.1	20.6	0.00e+00	0	43	0	504365056	57	4111
2026-01-24 06:15:23.06	58.41	16.23	-43.2	-44.1	20.6	0.00e+00	0	43	0	507510784	57	4132
2026-01-24 06:15:24.07	58.25	16.30	-43.2	-44.2	20.5	0.00e+00	0	43	0	510656512	57	4161
2026-01-24 06:15:25.08	58.09	16.38	-43.2	-44.2	20.5	0.00e+00	0	43	0	513802240	57	4169
2026-01-24 06:15:26.08	57.92	16.46	-43.2	-44.1	20.6	0.00e+00	0	43	0	516947968	57	4134
2026-01-24 06:15:27.09	57.76	16.53	-43.1	-44.0	20.7	0.00e+00	0	43	0	520093696	57	4075
2026-01-24 06:15:28.10	57.59	16.61	-43.1	-44.0	20.7	0.00e+00	0	43	0	523239424	57	4097
2026-01-24 06:15:29.11	57.42	16.69	-43.0	-43.9	20.8	0.00e+00	0	43	0	526385152	57	4038
2026-01-24 06:15:30.11	57.26	16.76	-43.1	-44.0	20.7	0.00e+00	0	43	0	529530880	57	4098
2026-01-24 06:15:31.12	57.09	16.84	-43.0	-43.9	20.8	0.00e+00	0	43	0	532676608	57	4050
2026-01-24 06:15:32.13	56.92	16.92	-43.0	-43.9	20.8	0.00e+00	0	43	0	535822336	57	4022
2026-01-24 06:15:33.14	56.75	16.99	-42.9	-43.8	20.9	0.00e+00	0	43	0	538968064	57	4002
2026-01-24 06:15:34.15	56.57	17.07	-42.8	-43.7	21.0	0.00e+00	0	43	0	542113792	57	3951
2026-01-24 06:15:35.16	56.40	17.15	-42.8	-43.7	21.0	0.00e+00	0	43	0	545259520	57	3937
2026-01-24 06:15:36.17	56.23	17.22	-42.9	-43.8	20.9	0.00e+00	0	43	0	548405248	57	3964
2026-01-24 06:15:37.17	56.05	17.30	-42.7	-43.6	21.1	0.00e+00	0	43	0	551550976	57	3872
2026-01-24 06:15:38.18	55.88	17.38	-42.7	-43.6	21.1	0.00e+00	0	43	0	554696704	57	3908
2026-01-24 06:15:39.19	55.70	17.45	-42.6	-43.5	21.2	0.00e+00	0	43	0	557842432	57	3841
2026-01-24 06:15:40.20	55.52	17.53	-42.6	-43.4	21.2	0.00e+00	0	43	0	560988160	57	3822
2026-01-24 06:15:41.21	55.35	17.61	-42.5	-43.4	21.2	0.00e+00	0	43	0	564133888	57	3814
2026-01-24 06:15:42.22	55.17	17.68	-42.4	-43.3	21.4	0.00e+00	0	43	0	567279616	56	3981
2026-01-24 06:15:43.23	54.99	17.76	-42.4	-43.3	21.4	0.00e+00	0	43	0	570425344	56	3971
2026-01-24 06:15:44.23	54.81	17.84	-42.4	-43.2	21.4	0.00e+00	0	43	0	573571072	56	3946
2026-01-24 06:15:45.24	54.62	17.91	-42.4	-43.2	21.4	0.00e+00	0	43	0	576716800	56	3958
2026-01-24 06:15:46.25	54.44	17.99	-42.3	-43.1	21.5	0.00e+00	0	43	0	579862528	56	3909
2026-01-24 06:15:47.26	54.26	18.06	-42.3	-43.1	21.5	0.00e+00	0	43	0	583008256	56	3898
2026-01-24 06:15:48.27	54.07	18.14	-42.3	-43.1	21.5	0.00e+00	0	43	0	586153984	56	3907
2026-01-24 06:15:49.27	53.89	18.22	-42.2	-43.1	21.5	0.00e+00	0	43	0	589299712	56	3887
2026-01-24 06:15:50.28	53.70	18.29	-42.3	-43.1	21.5	0.00e+00	0	43	0	592445440	56	3905
2026-01-24 06:15:51.29	53.51	18.37	-42.4	-43.2	21.4	0.00e+00	0	43	0	595591168	56	3944
2026-01-24 06:15:52.30	53.32	18.44	-42.6	-43.5	21.2	0.00e+00	0	43	0	598736896	56	4057
2026-01-24 06:15:53.31	53.14	18.52	-42.5	-43.4	21.2	0.00e+00	0	43	0	601882624	56	4041
2026-01-24 06:15:54.32	52.94	18.59	-42.7	-43.6	21.1	0.00e+00	0	43	0	605028352	56	4120
2026-01-24 06:15:55.33	52.75	18.67	-42.7	-43.6	21.2	0.00e+00	0	43	0	608174080	56	4107
2026-01-24 06:15:56.34	52.56	18.74	-42.8	-43.7	21.1	0.00e+00	0	43	0	611319808	56	4152
2026-01-24 06:15:57.34	52.37	18.82	-42.5	-43.4	21.3	0.00e+00	0	43	0	614465536	56	4026
2026-01-24 06:15:58.36	52.17	18.90	-42.5	-43.3	21.4	0.00e+00	0	43	0	617611264	56	3994
2026-01-24 06:15:59.36	51.98	18.97	-42.4	-43.3	21.4	0.00e+00	0	43	0	620756992	56	3974
2026-01-24 06:16:00.37	51.78	19.04	-42.4	-43.3	21.4	0.00e+00	0	43	0	623902720	56	3966
2026-01-24 06:16:01.38	51.59	19.12	-42.3	-43.1	21.5	0.00e+00	0	43	0	627048448	56	3913
2026-01-24 06:16:02.39	51.39	19.19	-42.1	-43.0	21.7	0.00e+00	0	43	0	630194176	56	3829
2026-01-24 06:16:03.40	51.19	19.27	-42.3	-43.2	21.5	0.00e+00	0	43	0	633339904	56	3918
2026-01-24 06:16:04.41	50.99	19.34	-42.2	-43.1	21.6	0.00e+00	0	43	0	636485632	56	3888
2026-01-24 06:16:05.42	50.79	19.42	-42.3	-43.1	21.6	0.00e+00	0	43	0	639631360	56	3899
2026-01-24 06:16:06.42	50.59	19.49	-42.2	-43.1	21.6	0.00e+00	0	43	0	642777088	56	3877
2026-01-24 06:16:07.43	50.38	19.56	-42.1	-42.9	21.7	0.00e+00	0	43	0	645922816	56	3809
2026-01-24 06:16:08.44	50.18	19.64	-42.0	-42.8	21.8	0.00e+00	0	43	0	649068544	56	3769
2026-01-24 06:16:09.45	49.97	19.71	-42.0	-42.9	21.8	0.00e+00	0	43	0	652214272	56	3795
2026-01-24 06:16:10.45	49.77	19.78	-42.1	-42.9	21.7	0.00e+00	0	43	0	655360000	56	3813
2026-01-24 06:16:11.46	49.56	19.86	-42.0	-42.9	21.7	0.00e+00	0	43	0	658505728	56	3789
2026-01-24 06:16:12.47	49.35	19.93	-41.9	-42.7	21.7	0.00e+00	0	43	0	661651456	55	3952
2026-01-24 06:16:13.48	49.14	20.00	-42.0	-42.9	21.6	0.00e+00	0	43	0	664797184	55	4017
2026-01-24 06:16:14.49	48.93	20.08	-41.9	-42.8	21.8	0.00e+00	0	43	0	667942912	55	3962
2026-01-24 06:16:15.50	48.72	20.15	-41.8	-42.7	21.9	0.00e+00	0	43	0	671088640	55	3917
2026-01-24 06:16:16.51	48.51	20.22	-41.9	-42.7	21.8	0.00e+00	0	43	0	674234368	55	3954
2026-01-24 06:16:17.51	48.30	20.29	-42.0	-42.8	21.7	0.00e+00	0	43	0	677380096	55	3986
2026-01-24 06:16:18.52	48.09	20.36	-42.0	-42.9	21.7	0.00e+00	0	43	0	680525824	55	4021
2026-01-24 06:16:19.53	47.87	20.43	-42.1	-42.9	21.7	0.00e+00	0	43	0	683671552	55	4027
2026-01-24 06:16:20.54	47.65	20.51	-41.9	-42.7	21.8	0.00e+00	0	43	0	686817280	55	3949
2026-01-24 06:16:21.55	47.44	20.58	-41.9	-42.7	21.9	0.00e+00	0	43	0	689963008	55	3934
2026-01-24 06:16:22.56	47.22	20.65	-42.0	-42.8	21.8	0.00e+00	0	43	0	693108736	55	3987
2026-01-24 06:16:23.56	47.00	20.72	-41.9	-42.7	21.9	0.00e+00	0	43	0	696254464	55	3955
2026-01-24 06:16:24.57	46.78	20.79	-42.0	-42.9	21.7	0.00e+00	0	43	0	699400192	55	4023
2026-01-24 06:16:25.58	46.56	20.86	-42.0	-42.9	21.7	0.00e+00	0	43	0	702545920	55	4017
2026-01-24 06:16:26.59	46.34	20.93	-42.1	-42.9	21.8	0.00e+00	0	43	0	705691648	55	4027
2026-01-24 06:16:27.60	46.11	21.00	-41.8	-42.7	22.0	0.00e+00	0	43	0	708837376	55	3920
2026-01-24 06:16:28.61	45.89	21.07	-41.9	-42.8	21.9	0.00e+00	0	43	0	711983104	55	3960
2026-01-24 06:16:29.61	45.67	21.14	-42.0	-42.8	21.8	0.00e+00	0	43	0	715128832	55	3979
2026-01-24 06:16:30.62	45.44	21.20	-42.0	-42.9	21.7	0.00e+00	0	43	0	718274560	55	4022
2026-01-24 06:16:31.63	45.21	21.27	-42.0	-42.9	21.7	0.00e+00	0	43	0	721420288	55	4025
2026-01-24 06:16:32.64	44.98	21.34	-42.1	-42.9	21.7	0.00e+00	0	43	0	724566016	55	4040
2026-01-24 06:16:33.65	44.75	21.41	-41.8	-42.6	22.0	0.00e+00	0	43	0	727711744	55	3877
2026-01-24 06:16:34.66	44.52	21.48	-41.8	-42.6	21.9	0.00e+00	0	43	0	730857472	55	3900
2026-01-24 06:16:35.67	44.29	21.54	-41.8	-42.7	21.9	0.00e+00	0	43	0	734003200	55	3921
2026-01-24 06:16:36.68	44.06	21.61	-41.9	-42.7	21.9	0.00e+00	0	43	0	737148928	55	3935
2026-01-24 06:16:37.68	43.83	21.68	-42.0	-42.8	21.8	0.00e+00	0	43	0	740294656	55	3989
2026-01-24 06:16:38.69	43.59	21.74	-42.1	-42.9	21.7	0.00e+00	0	43	0	743440384	55	4028
2026-01-24 06:16:39.70	43.36	21.81	-41.9	-42.8	21.9	0.00e+00	0	43	0	746586112	55	3970
2026-01-24 06:16:40.71	43.12	21.87	-42.0	-42.8	21.8	0.00e+00	0	43	0	749731840	55	3983
2026-01-24 06:16:41.72	42.88	21.94	-41.9	-42.8	21.8	0.00e+00	0	43	0	752877568	55	3968
2026-01-24 06:16:42.72	42.65	22.00	-42.0	-42.8	21.8	0.00e+00	0	43	0	756023296	55	3975
2026-01-24 06:16:43.73	42.41	22.07	-42.0	-42.8	21.8	0.00e+00	0	43	0	759169024	55	3995
2026-01-24 06:16:44.74	42.17	22.13	-42.1	-42.9	21.8	0.00e+00	0	43	0	762314752	55	4033
2026-01-24 06:16:45.75	41.93	22.20	-42.2	-43.0	21.7	0.00e+00	0	43	0	765460480	55	4073
2026-01-24 06:16:46.76	41.68	22.26	-42.0	-42.8	21.8	0.00e+00	0	43	0	768606208	55	3998
2026-01-24 06:16:47.76	41.44	22.32	-41.8	-42.6	22.0	0.00e+00	0	43	0	771751936	55	3911
2026-01-24 06:16:48.77	41.20	22.38	-41.9	-42.7	22.0	0.00e+00	0	43	0	774897664	55	3937
2026-01-24 06:16:49.78	40.95	22.45	-41.8	-42.6	22.1	0.00e+00	0	43	0	778043392	55	3898
2026-01-24 06:16:50.79	40.71	22.51	-41.7	-42.5	22.1	0.00e+00	0	43	0	782237696	55	3863
2026-01-24 06:16:51.80	40.46	22.57	-41.7	-42.5	22.1	0.00e+00	0	43	0	785383424	55	3854
2026-01-24 06:16:52.81	40.21	22.63	-41.7	-42.5	22.0	0.00e+00	0	43	0	787480576	55	3867
2026-01-24 06:16:53.82	39.96	22.69	-41.7	-42.6	22.0	0.00e+00	0	43	0	790626304	55	3869
2026-01-24 06:16:54.82	39.71	22.75	-41.8	-42.6	22.0	0.00e+00	0	43	0	793772032	55	3889
2026-01-24 06:16:55.83	39.46	22.81	-41.9	-42.7	22.0	0.00e+00	0	43	0	796917760	55	3923
2026-01-24 06:16:56.84	39.21	22.87	-41.8	-42.6	22.0	0.00e+00	0	43	0	800063488	55	3884
2026-01-24 06:16:57.85	38.95	22.93	-41.7	-42.5	22.0	0.00e+00	0	43	0	803209216	55	3859
2026-01-24 06:16:58.86	38.70	22.98	-41.8	-42.6	21.9	0.00e+00	0	43	0	806354944	55	3885
2026-01-24 06:16:59.86	38.45	23.04	-41.8	-42.6	21.9	0.00e+00	0	43	0	809500672	55	3896
2026-01-24 06:17:00.87	38.19	23.10	-41.9	-42.8	21.8	0.00e+00	0	43	0	812646400	55	3967
2026-01-24 06:17:01.88	37.93	23.15	-42.0	-42.9	21.7	0.00e+00	0	43	0	815792128	55	4017
2026-01-24 06:17:02.89	37.68	23.21	-42.0	-42.8	21.8	0.00e+00	0	43	0	819986432	55	3984
2026-01-24 06:17:03.90	37.42	23.27	-42.0	-42.8	21.9	0.00e+00	0	43	0	823132160	55	4000
2026-01-24 06:17:04.91	37.16	23.32	-42.0	-42.8	21.9	0.00e+00	0	43	0	826277888	55	3980
2026-01-24 06:17:05.92	36.90	23.38	-42.0	-42.8	21.9	0.00e+00	0	43	0	829423616	55	3987
2026-01-24 06:17:06.92	36.64	23.43	-42.0	-42.8	21.9	0.00e+00	0	43	0	832569344	55	3981
2026-01-24 06:17:07.93	36.37	23.48	-41.8	-42.6	22.1	0.00e+00	0	43	0	834666496	55	3909
2026-01-24 06:17:08.94	36.11	23.54	-41.8	-42.6	22.1	0.00e+00	0	43	0	837812224	55	3890
2026-01-24 06:17:09.95	35.85	23.59	-41.9	-42.7	22.0	0.00e+00	0	43	0	840957952	55	3940
2026-01-24 06:17:10.95	35.58	23.64	-41.8	-42.7	22.0	0.00e+00	0	43	0	844103680	55	3916
2026-01-24 06:17:11.96	35.32	23.69	-41.8	-42.6	22.1	0.00e+00	0	43	0	847249408	55	3885
2026-01-24 06:17:12.97	35.05	23.74	-41.8	-42.6	22.1	0.00e+00	0	43	0	850395136	55	3878
2026-01-24 06:17:13.98	34.78	23.79	-41.8	-42.6	22.0	0.00e+00	0	43	0	853540864	55	3896
2026-01-24 06:17:14.99	34.51	23.84	-41.9	-42.7	22.0	0.00e+00	0	43	0	857735168	55	3924
2026-01-24 06:17:15.99	34.25	23.89	-41.9	-42.7	21.9	0.00e+00	0	43	0	860880896	55	3952
2026-01-24 06:17:17.00	33.98	23.94	-41.9	-42.7	21.9	0.00e+00	0	43	0	864026624	55	3954
2026-01-24 06:17:18.01	33.71	23.99	-41.9	-42.7	21.9	0.00e+00	0	43	0	867172352	55	3954
2026-01-24 06:17:19.02	33.43	24.03	-41.9	-42.7	21.9	0.00e+00	0	43	0	870318080	55	3945
2026-01-24 06:17:20.03	33.16	24.08	-41.9	-42.8	21.9	0.00e+00	0	43	0	873463808	55	3966
2026-01-24 06:17:21.03	32.89	24.12	-41.8	-42.7	22.0	0.00e+00	0	43	0	876609536	55	3918
2026-01-24 06:17:22.04	32.61	24.17	-41.9	-42.7	22.0	0.00e+00	0	43	0	879755264	55	3932
2026-01-24 06:17:23.05	32.34	24.21	-41.8	-42.6	22.0	0.00e+00	0	43	0	881852416	55	3912
2026-01-24 06:17:24.06	32.06	24.26	-42.0	-42.9	21.8	0.00e+00	0	43	0	884998144	55	4008
2026-01-24 06:17:25.07	31.79	24.30	-41.9	-42.7	21.9	0.00e+00	0	43	0	888143872	55	3951
2026-01-24 06:17:26.07	31.51	24.34	-41.9	-42.7	21.9	0.00e+00	0	43	0	891289600	55	3945
2026-01-24 06:17:27.08	31.23	24.39	-41.9	-42.7	22.0	0.00e+00	0	43	0	894435328	55	3944
2026-01-24 06:17:28.09	30.95	24.43	-41.8	-42.6	22.0	0.00e+00	0	43	0	898629632	55	3892
2026-01-24 06:17:29.10	30.67	24.47	-41.8	-42.6	22.1	0.00e+00	0	43	0	901775360	55	3877
2026-01-24 06:17:30.11	30.39	24.51	-41.8	-42.6	22.1	0.00e+00	0	43	0	904921088	55	3869
2026-01-24 06:17:31.11	30.12	24.55	-41.7	-42.5	22.2	0.00e+00	0	43	0	908066816	55	3838
2026-01-24 06:17:32.12	29.83	24.58	-41.7	-42.5	22.2	0.00e+00	0	43	0	911212544	55	3836
2026-01-24 06:17:33.13	29.55	24.62	-41.6	-42.4	22.2	0.00e+00	0	43	0	914358272	55	3801
2026-01-24 06:17:34.14	29.27	24.66	-41.5	-42.3	22.3	0.00e+00	0	43	0	917504000	55	3767
2026-01-24 06:17:35.15	28.98	24.70	-41.4	-42.2	22.4	0.00e+00	0	43	0	920649728	54	3945
2026-01-24 06:17:36.16	28.70	24.73	-41.5	-42.3	22.4	0.00e+00	0	43	0	923795456	54	3959
2026-01-24 06:17:37.16	28.42	24.77	-41.5	-42.3	22.3	0.00e+00	0	43	0	926941184	54	3987
2026-01-24 06:17:38.18	28.13	24.80	-41.5	-42.3	22.3	0.00e+00	0	43	0	929038336	54	3968
2026-01-24 06:17:39.18	27.84	24.83	-41.6	-42.4	22.2	0.00e+00	0	43	0	932184064	54	4042
2026-01-24 06:17:40.20	27.55	24.87	-41.8	-42.6	22.0	0.00e+00	0	43	0	936378368	54	4122
2026-01-24 06:17:41.20	27.27	24.90	-41.8	-42.6	22.0	0.00e+00	0	43	0	939524096	54	4142
2026-01-24 06:17:42.21	26.98	24.93	-41.9	-42.8	21.9	0.00e+00	0	43	0	942669824	54	4199
2026-01-24 06:17:43.22	26.69	24.96	-41.8	-42.7	22.0	0.00e+00	0	43	0	945815552	54	4151
2026-01-24 06:17:44.23	26.40	24.99	-41.8	-42.6	22.0	0.00e+00	0	43	0	948961280	54	4124
2026-01-24 06:17:45.24	26.11	25.02	-41.8	-42.6	22.1	0.00e+00	0	43	0	952107008	54	4141
2026-01-24 06:17:46.24	25.82	25.05	-41.7	-42.5	22.1	0.00e+00	0	43	0	955252736	54	4095
2026-01-24 06:17:47.25	25.53	25.07	-41.7	-42.5	22.1	0.00e+00	0	43	0	958398464	54	4087
2026-01-24 06:17:48.26	25.24	25.10	-41.7	-42.5	22.2	0.00e+00	0	43	0	961544192	54	4089
2026-01-24 06:17:49.27	24.95	25.13	-41.7	-42.5	22.2	0.00e+00	0	43	0	964689920	54	4072
2026-01-24 06:17:50.28	24.66	25.15	-41.5	-42.3	22.3	0.00e+00	0	43	0	967835648	54	3991
2026-01-24 06:17:51.29	24.36	25.18	-41.5	-42.3	22.4	0.00e+00	0	43	0	970981376	54	3991
2026-01-24 06:17:52.30	24.07	25.20	-41.5	-42.3	22.4	0.00e+00	0	43	0	974127104	54	3989
2026-01-24 06:17:53.31	23.78	25.22	-41.5	-42.3	22.4	0.00e+00	0	43	0	977272832	54	3976
2026-01-24 06:17:54.32	23.48	25.24	-41.6	-42.4	22.3	0.00e+00	0	43	0	980418560	54	4025
2026-01-24 06:17:55.32	23.19	25.27	-41.5	-42.3	22.4	0.00e+00	0	43	0	983564288	54	3997
2026-01-24 06:17:56.33	22.90	25.29	-41.5	-42.3	22.4	0.00e+00	0	43	0	986710016	54	3991
2026-01-24 06:17:57.34	22.60	25.31	-41.5	-42.3	22.4	0.00e+00	0	43	0	989855744	54	3984
2026-01-24 06:17:58.35	22.30	25.32	-41.5	-42.3	22.4	0.00e+00	0	43	0	993001472	54	3986
2026-01-24 06:17:59.36	22.01	25.34	-41.6	-42.4	22.4	0.00e+00	0	43	0	996147200	54	4007
2026-01-24 06:18:00.37	21.71	25.36	-41.8	-42.6	22.2	0.00e+00	0	43	0	999292928	54	4123
2026-01-24 06:18:01.38	21.42	25.37	-41.7	-42.5	22.2	0.00e+00	0	43	0	1002438656	54	4081
2026-01-24 06:18:02.38	21.12	25.39	-41.8	-42.6	22.2	0.00e+00	0	43	0	1005584384	54	4125
2026-01-24 06:18:03.39	20.82	25.40	-41.8	-42.6	22.2	0.00e+00	0	43	0	1008730112	54	4114
2026-01-24 06:18:04.40	20.53	25.42	-41.8	-42.6	22.2	0.00e+00	0	43	0	1011875840	54	4102
2026-01-24 06:18:05.41	20.23	25.43	-41.6	-42.4	22.3	0.00e+00	0	43	0	1015021568	54	4010
2026-01-24 06:18:06.42	19.93	25.44	-41.5	-42.3	22.4	0.00e+00	0	43	0	1018167296	54	3992
2026-01-24 06:18:07.43	19.63	25.45	-41.5	-42.2	22.5	0.00e+00	0	43	0	1021313024	54	3956
2026-01-24 06:18:08.43	19.34	25.46	-41.5	-42.3	22.4	0.00e+00	0	43	0	1024458752	54	3969
2026-01-24 06:18:09.44	19.04	25.47	-41.5	-42.3	22.4	0.00e+00	0	43	0	1027604480	54	3982
2026-01-24 06:18:10.45	18.74	25.48	-41.7	-42.5	22.3	0.00e+00	0	43	0	1030750208	54	4060
2026-01-24 06:18:11.46	18.44	25.49	-41.7	-42.5	22.2	0.00e+00	0	43	0	1033895936	54	4061
2026-01-24 06:18:12.47	18.14	25.50	-41.8	-42.6	22.1	0.00e+00	0	43	0	1037041664	54	4137
2026-01-24 06:18:13.47	17.84	25.50	-41.9	-42.7	22.1	0.00e+00	0	43	0	1040187392	54	4161
2026-01-24 06:18:14.48	17.55	25.51	-41.9	-42.8	22.0	0.00e+00	0	43	0	1043333120	54	4204
2026-01-24 06:18:15.49	17.25	25.51	-41.7	-42.5	22.2	0.00e+00	0	43	0	1046478848	54	4079
2026-01-24 06:18:16.50	16.95	25.51	-41.6	-42.4	22.3	0.00e+00	0	43	0	1049624576	54	4035
2026-01-24 06:18:17.51	16.65	25.52	-41.6	-42.4	22.3	0.00e+00	0	43	0	1052770304	54	4038
2026-01-24 06:18:18.52	16.35	25.52	-41.6	-42.4	22.5	0.00e+00	0	43	0	1055916032	54	4012
2026-01-24 06:18:19.53	16.05	25.52	-41.5	-42.3	22.5	0.00e+00	0	43	0	1059061760	54	3962
2026-01-24 06:18:20.53	15.75	25.52	-41.6	-42.3	22.4	0.00e+00	0	43	0	1062207488	54	4001
2026-01-24 06:18:21.54	15.45	25.52	-41.5	-42.3	22.4	0.00e+00	0	43	0	1065353216	54	3988
2026-01-24 06:18:22.55	15.15	25.52	-41.6	-42.4	22.3	0.00e+00	0	43	0	1068498944	54	4028
2026-01-24 06:18:23.56	14.85	25.51	-41.6	-42.4	22.4	0.00e+00	0	43	0	1071644672	54	4013
2026-01-24 06:18:24.57	14.55	25.51	-41.6	-42.4	22.3	0.00e+00	0	43	0	1074790400	54	4007
2026-01-24 06:18:25.58	14.25	25.51	-41.6	-42.4	22.2	0.00e+00	0	43	0	1077936128	54	4039
2026-01-24 06:18:26.59	13.95	25.50	-41.7	-42.5	22.2	0.00e+00	0	43	0	1081081856	54	4089
2026-01-24 06:18:27.59	13.66	25.50	-41.7	-42.4	22.3	0.00e+00	0	43	0	1084227584	54	4051
2026-01-24 06:18:28.60	13.36	25.49	-41.5	-42.3	22.4	0.00e+00	0	43	0	1087373312	54	3965
2026-01-24 06:18:29.61	13.06	25.48	-41.5	-42.3	22.4	0.00e+00	0	43	0	1090519040	54	3985
2026-01-24 06:18:30.62	12.76	25.47	-41.5	-42.3	22.4	0.00e+00	0	43	0	1093664768	54	3977
2026-01-24 06:18:31.62	12.47	25.46	-41.5	-42.3	22.4	0.00e+00	0	43	0	1096810496	54	3968
2026-01-24 06:18:32.63	12.17	25.45	-41.5	-42.3	22.4	0.00e+00	0	43	0	1099956224	54	3977
2026-01-24 06:18:33.64	11.87	25.44	-41.6	-42.4	22.3	0.00e+00	0	43	0	1103101952	54	4016
2026-01-24 06:18:34.65	11.57	25.43	-41.6	-42.4	22.2	0.00e+00	0	43	0	1106247680	54	4039
2026-01-24 06:18:35.66	11.27	25.42	-41.6	-42.4	22.3	0.00e+00	0	43	0	1109393408	54	4027
2026-01-24 06:18:36.67	10.98	25.40	-41.7	-42.5	22.3	0.00e+00	0	43	0	1112539136	54	4053
2026-01-24 06:18:37.68	10.68	25.39	-41.7	-42.5	22.3	0.00e+00	0	43	0	1115684864	54	4065
2026-01-24 06:18:38.69	10.38	25.37	-41.7	-42.6	22.2	0.00e+00	0	43	0	1118830592	54	4102
2026-01-24 06:18:39.69	10.09	25.36	-41.8	-42.6	22.1	0.00e+00	0	43	0	1121976320	54	4132
2026-01-24 06:18:40.70	9.79	25.34	-41.8	-42.6	22.2	0.00e+00	0	43	0	1125122048	54	4116
2026-01-24 06:18:41.71	9.50	25.32	-41.7	-42.5	22.2	0.00e+00	0	43	0	1128267776	54	4093
2026-01-24 06:18:42.72	9.20	25.30	-41.6	-42.4	22.3	0.00e+00	0	43	0	1131413504	54	4031
2026-01-24 06:18:43.72	8.91	25.28	-41.7	-42.5	22.2	0.00e+00	0	43	0	1134559232	54	4068
2026-01-24 06:18:44.73	8.61	25.26	-41.8	-42.6	22.2	0.00e+00	0	43	0	1137704960	54	4100
2026-01-24 06:18:45.74	8.32	25.24	-41.6	-42.4	22.3	0.00e+00	0	43	0	1140850688	54	4045
2026-01-24 06:18:46.75	8.02	25.22	-41.8	-42.6	22.1	0.00e+00	0	43	0	1143996416	54	4126
2026-01-24 06:18:47.76	7.73	25.20	-41.9	-42.8	22.0	0.00e+00	0	43	0	1147142144	54	4204
2026-01-24 06:18:48.77	7.44	25.17	-42.0	-42.9	21.9	0.00e+00	0	43	0	1150287872	54	4246
2026-01-24 06:18:49.78	7.14	25.15	-42.0	-42.8	22.0	0.00e+00	0	43	0	1153433600	54	4211
2026-01-24 06:18:50.78	6.85	25.13	-41.9	-42.7	22.1	0.00e+00	0	43	0	1156579328	54	4189
2026-01-24 06:18:51.80	6.56	25.10	-41.7	-42.5	22.2	0.00e+00	0	43	0	1159725056	54	4086
2026-01-24 06:18:52.80	6.27	25.07	-41.7	-42.5	22.2	0.00e+00	0	43	0	1162870784	54	4095
2026-01-24 06:18:53.81	5.98	25.05	-41.6	-42.4	22.3	0.00e+00	0	43	0	1166016512	54	4050
2026-01-24 06:18:54.82	5.69	25.02	-41.6	-42.4	22.3	0.00e+00	0	43	0	1169162240	54	4035
2026-01-24 06:18:55.83	5.40	24.99	-41.7	-42.5	22.2	0.00e+00	0	43	0	1172307968	54	4081
2026-01-24 06:18:56.84	5.11	24.96	-41.9	-42.7	22.0	0.00e+00	0	43	0	1175453696	54	4181
2026-01-24 06:18:57.85	4.82	24.93	-41.9	-42.8	22.0	0.00e+00	0	43	0	1178599424	54	4194
2026-01-24 06:18:58.86	4.53	24.90	-42.0	-42.8	22.0	0.00e+00	0	43	0	1181745152	54	4219
2026-01-24 06:18:59.86	4.25	24.86	-42.0	-42.9	21.9	0.00e+00	0	43	0	1184890880	54	4255
2026-01-24 06:19:00.88	3.96	24.83	-42.1	-43.0	21.8	0.00e+00	0	43	0	1188036608	54	4293
2026-01-24 06:19:01.88	3.68	24.80	-42.3	-43.2	21.6	0.00e+00	0	43	0	1191182336	55	4170
2026-01-24 06:19:02.89	3.39	24.76	-42.5	-43.3	21.5	0.00e+00	0	43	0	1194328064	55	4238
2026-01-24 06:19:03.90	3.11	24.73	-42.5	-43.4	21.4	0.00e+00	0	43	0	1197473792	55	4247
2026-01-24 06:19:04.91	2.82	24.69	-42.3	-43.2	21.5	0.00e+00	0	43	0	1200619520	55	4152
2026-01-24 06:19:05.91	2.54	24.66	-42.2	-43.0	21.7	0.00e+00	0	43	0	1203765248	55	4080
2026-01-24 06:19:06.92	2.26	24.62	-42.2	-43.0	21.7	0.00e+00	0	43	0	1206910976	55	4072
2026-01-24 06:19:07.93	1.97	24.58	-42.1	-42.9	21.8	0.00e+00	0	43	0	1210056704	55	4035
2026-01-24 06:19:08.94	1.69	24.54	-41.9	-42.7	22.0	0.00e+00	0	43	0	1213202432	55	3926
2026-01-24 06:19:09.95	1.41	24.50	-41.9	-42.8	21.9	0.00e+00	0	43	0	1216348160	55	3963
2026-01-24 06:19:10.96	1.13	24.46	-41.8	-42.6	22.0	0.00e+00	0	43	0	1219493888	55	3884
2026-01-24 06:19:11.96	0.85	24.42	-41.8	-42.7	21.9	0.00e+00	0	43	0	1222639616	55	3919
2026-01-24 06:19:12.97	0.57	24.38	-42.0	-42.8	21.9	0.00e+00	0	43	0	1225785344	55	3968
2026-01-24 06:19:13.98	0.30	24.34	-42.1	-42.9	21.8	0.00e+00	0	43	0	1228931072	55	4041
2026-01-24 06:19:14.99	0.02	24.30	-42.0	-42.8	21.9	0.00e+00	0	43	0	1232076800	55	3979
2026-01-24 06:19:16.00	359.74	24.25	-41.9	-42.7	21.9	0.00e+00	0	43	0	1235222528	55	3942
2026-01-24 06:19:17.01	359.47	24.21	-41.9	-42.8	21.9	0.00e+00	0	43	0	1238368256	55	3969
2026-01-24 06:19:18.02	359.19	24.17	-41.7	-42.5	22.1	0.00e+00	0	43	0	1241513984	55	3868
2026-01-24 06:19:19.02	358.92	24.12	-41.7	-42.5	22.1	0.00e+00	0	43	0	1244659712	55	3836
2026-01-24 06:19:20.03	358.65	24.08	-41.8	-42.6	22.0	0.00e+00	0	43	0	1247805440	55	3886
2026-01-24 06:19:21.04	358.37	24.03	-41.6	-42.4	22.2	0.00e+00	0	43	0	1250951168	55	3793
2026-01-24 06:19:22.05	358.10	23.98	-41.7	-42.5	22.1	0.00e+00	0	43	0	1254096896	55	3839
2026-01-24 06:19:23.06	357.83	23.93	-41.8	-42.6	21.9	0.00e+00	0	43	0	1257242624	55	3909
2026-01-24 06:19:24.06	357.56	23.89	-41.8	-42.6	22.0	0.00e+00	0	43	0	1260388352	55	3891
2026-01-24 06:19:25.07	357.29	23.84	-41.8	-42.6	21.9	0.00e+00	0	43	0	1263534080	55	3910
2026-01-24 06:19:26.08	357.03	23.79	-41.8	-42.6	22.0	0.00e+00	0	43	0	1266679808	55	3874
2026-01-24 06:19:27.09	356.76	23.74	-42.0	-42.8	21.8	0.00e+00	0	43	0	1269825536	55	3984
2026-01-24 06:19:28.10	356.49	23.69	-41.9	-42.8	21.9	0.00e+00	0	43	0	1272971264	55	3965
2026-01-24 06:19:29.11	356.22	23.64	-41.9	-42.7	22.0	0.00e+00	0	43	0	1276116992	55	3937
2026-01-24 06:19:30.12	355.96	23.58	-42.0	-42.8	21.9	0.00e+00	0	43	0	1279262720	55	4003
2026-01-24 06:19:31.13	355.70	23.53	-42.1	-42.9	21.8	0.00e+00	0	43	0	1282408448	55	4045
2026-01-24 06:19:32.13	355.44	23.48	-42.1	-42.9	21.8	0.00e+00	0	43	0	1285554176	55	4033
2026-01-24 06:19:33.14	355.17	23.43	-41.9	-42.7	22.0	0.00e+00	0	43	0	1288699904	55	3954
2026-01-24 06:19:34.15	354.91	23.37	-41.9	-42.7	22.0	0.00e+00	0	43	0	1291845632	55	3948
2026-01-24 06:19:35.16	354.65	23.32	-41.8	-42.6	22.1	0.00e+00	0	43	0	1294991360	55	3896
2026-01-24 06:19:36.17	354.39	23.26	-41.8	-42.6	22.1	0.00e+00	0	43	0	1298137088	55	3877
2026-01-24 06:19:37.17	354.13	23.21	-41.7	-42.5	22.1	0.00e+00	0	43	0	1301282816	55	3861
2026-01-24 06:19:38.18	353.88	23.15	-41.8	-42.6	22.0	0.00e+00	0	43	0	1304428544	55	3895
2026-01-24 06:19:39.19	353.62	23.09	-41.8	-42.7	22.0	0.00e+00	0	43	0	1307574272	55	3917
2026-01-24 06:19:40.20	353.36	23.04	-42.0	-42.8	21.9	0.00e+00	0	43	0	1310720000	55	3976
2026-01-24 06:19:41.20	353.11	22.98	-41.9	-42.7	22.0	0.00e+00	0	43	0	1313865728	55	3937
2026-01-24 06:19:42.21	352.86	22.92	-41.7	-42.5	22.1	0.00e+00	0	43	0	1317011456	55	3856
2026-01-24 06:19:43.22	352.60	22.86	-41.8	-42.6	22.1	0.00e+00	0	43	0	1320157184	55	3903
2026-01-24 06:19:44.23	352.35	22.80	-41.8	-42.6	22.1	0.00e+00	0	43	0	1323302912	55	3881
2026-01-24 06:19:45.24	352.10	22.75	-41.7	-42.5	22.1	0.00e+00	0	43	0	1326448640	55	3840
2026-01-24 06:19:46.25	351.85	22.69	-41.6	-42.4	22.2	0.00e+00	0	43	0	1329594368	55	3805
2026-01-24 06:19:47.26	351.60	22.62	-41.6	-42.4	22.2	0.00e+00	0	43	0	1332740096	55	3797
2026-01-24 06:19:48.27	351.35	22.56	-41.7	-42.5	22.1	0.00e+00	0	43	0	1335885824	55	3840
2026-01-24 06:19:49.27	351.11	22.50	-41.8	-42.6	21.9	0.00e+00	0	43	0	1339031552	55	3897
2026-01-24 06:19:50.28	350.86	22.44	-41.8	-42.7	21.9	0.00e+00	0	43	0	1342177280	55	3926
2026-01-24 06:19:51.29	350.62	22.38	-41.9	-42.7	21.9	0.00e+00	0	43	0	1345323008	55	3943
2026-01-24 06:19:52.30	350.37	22.32	-42.0	-42.8	21.8	0.00e+00	0	43	0	1348468736	55	3995
2026-01-24 06:19:53.31	350.13	22.25	-42.0	-42.8	21.8	0.00e+00	0	43	0	1351614464	55	3982
2026-01-24 06:19:54.32	349.89	22.19	-41.9	-42.8	21.9	0.00e+00	0	43	0	1354760192	55	3963
2026-01-24 06:19:55.33	349.65	22.13	-41.8	-42.6	22.0	0.00e+00	0	43	0	1357905920	55	3886
2026-01-24 06:19:56.34	349.41	22.06	-41.9	-42.7	21.9	0.00e+00	0	43	0	1361051648	55	3932
2026-01-24 06:19:57.34	349.17	22.00	-41.8	-42.6	22.0	0.00e+00	0	43	0	1364197376	55	3895
2026-01-24 06:19:58.35	348.93	21.93	-42.0	-42.8	21.8	0.00e+00	0	43	0	1367343104	55	3981
2026-01-24 06:19:59.36	348.69	21.87	-42.1	-43.0	21.7	0.00e+00	0	43	0	1370488832	55	4071
2026-01-24 06:20:00.37	348.46	21.80	-42.2	-43.0	21.6	0.00e+00	0	43	0	1373634560	55	4086
2026-01-24 06:20:01.37	348.22	21.74	-42.0	-42.9	21.7	0.00e+00	0	43	0	1376780288	55	4014
2026-01-24 06:20:02.38	347.99	21.67	-41.8	-42.6	21.9	0.00e+00	0	43	0	1379926016	55	3899
2026-01-24 06:20:03.39	347.76	21.61	-41.8	-42.6	21.8	0.00e+00	0	43	0	1384120320	55	3895
2026-01-24 06:20:04.40	347.53	21.54	-41.6	-42.4	22.1	0.00e+00	0	43	0	1387266048	55	3793
2026-01-24 06:20:05.41	347.29	21.47	-41.5	-42.3	22.2	0.00e+00	0	43	0	1389363200	55	3770
2026-01-24 06:20:06.41	347.07	21.41	-41.5	-42.3	22.2	0.00e+00	0	43	0	1392508928	55	3768
2026-01-24 06:20:07.42	346.84	21.34	-41.6	-42.4	22.1	0.00e+00	0	43	0	1395654656	55	3795
2026-01-24 06:20:08.43	346.61	21.27	-41.6	-42.4	22.1	0.00e+00	0	43	0	1398800384	55	3821
2026-01-24 06:20:09.44	346.38	21.20	-41.8	-42.6	22.0	0.00e+00	0	43	0	1401946112	55	3901
2026-01-24 06:20:10.45	346.16	21.13	-41.9	-42.7	21.9	0.00e+00	0	43	0	1405091840	55	3948
2026-01-24 06:20:11.46	345.93	21.06	-41.9	-42.8	21.9	0.00e+00	0	43	0	1408237568	55	3962
2026-01-24 06:20:12.47	345.71	20.99	-41.8	-42.6	22.1	0.00e+00	0	43	0	1411383296	55	3895
2026-01-24 06:20:13.48	345.48	20.92	-41.9	-42.7	21.9	0.00e+00	0	43	0	1414529024	55	3920
2026-01-24 06:20:14.49	345.26	20.85	-41.7	-42.5	22.1	0.00e+00	0	43	0	1418723328	55	3836
2026-01-24 06:20:15.49	345.04	20.79	-41.6	-42.4	22.2	0.00e+00	0	43	0	1421869056	55	3789
2026-01-24 06:20:16.50	344.82	20.71	-41.6	-42.4	22.1	0.00e+00	0	43	0	1425014784	55	3808
2026-01-24 06:20:17.51	344.60	20.64	-41.5	-42.3	22.2	0.00e+00	0	43	0	1428160512	55	3780
2026-01-24 06:20:18.52	344.39	20.57	-41.5	-42.3	22.2	0.00e+00	0	43	0	1431306240	55	3768
2026-01-24 06:20:19.53	344.17	20.50	-41.6	-42.4	22.1	0.00e+00	0	43	0	1434451968	55	3811
2026-01-24 06:20:20.54	343.95	20.43	-41.7	-42.5	22.0	0.00e+00	0	43	0	1436549120	55	3846
2026-01-24 06:20:21.54	343.74	20.36	-41.7	-42.5	22.0	0.00e+00	0	43	0	1439694848	55	3859
2026-01-24 06:20:22.55	343.53	20.29	-41.7	-42.5	22.0	0.00e+00	0	43	0	1442840576	55	3864
2026-01-24 06:20:23.56	343.31	20.22	-41.6	-42.4	22.1	0.00e+00	0	43	0	1445986304	55	3804
2026-01-24 06:20:24.58	343.10	20.14	-41.6	-42.4	22.1	0.00e+00	0	43	0	1449132032	55	3798
2026-01-24 06:20:25.58	342.89	20.07	-41.7	-42.5	22.1	0.00e+00	0	43	0	1452277760	55	3858
2026-01-24 06:20:26.59	342.68	20.00	-41.7	-42.5	22.0	0.00e+00	0	43	0	1456472064	55	3863
2026-01-24 06:20:27.60	342.47	19.93	-41.9	-42.7	21.9	0.00e+00	0	43	0	1459617792	55	3958
2026-01-24 06:20:28.61	342.26	19.85	-42.1	-42.9	21.7	0.00e+00	0	43	0	1462763520	55	4026
2026-01-24 06:20:29.62	342.06	19.78	-42.1	-43.0	21.6	0.00e+00	0	43	0	1465909248	55	4070
2026-01-24 06:20:30.62	341.85	19.71	-42.2	-43.1	21.6	0.00e+00	0	43	0	1469054976	55	4102
2026-01-24 06:20:31.64	341.65	19.63	-42.2	-43.0	21.6	0.00e+00	0	43	0	1472200704	55	4094
2026-01-24 06:20:32.64	341.44	19.56	-42.1	-42.9	21.7	0.00e+00	0	43	0	1475346432	55	4039
2026-01-24 06:20:33.65	341.24	19.49	-42.1	-42.9	21.7	0.00e+00	0	43	0	1478492160	55	4036
2026-01-24 06:20:34.66	341.04	19.41	-41.8	-42.6	21.9	0.00e+00	0	43	0	1481637888	55	3890
2026-01-24 06:20:35.67	340.84	19.34	-41.7	-42.5	22.0	0.00e+00	0	43	0	1483735040	55	3862
2026-01-24 06:20:36.67	340.64	19.27	-41.6	-42.4	22.1	0.00e+00	0	43	0	1486880768	55	3808
2026-01-24 06:20:37.68	340.44	19.19	-41.6	-42.4	22.1	0.00e+00	0	43	0	1490026496	55	3789
2026-01-24 06:20:38.69	340.24	19.12	-41.6	-42.4	22.1	0.00e+00	0	43	0	1494220800	55	3807
2026-01-24 06:20:39.70	340.05	19.04	-41.8	-42.6	21.9	0.00e+00	0	43	0	1497366528	55	3882
2026-01-24 06:20:40.70	339.85	18.97	-41.8	-42.6	21.9	0.00e+00	0	43	0	1500512256	55	3908
2026-01-24 06:20:41.71	339.66	18.89	-41.9	-42.8	21.8	0.00e+00	0	43	0	1503657984	55	3963
2026-01-24 06:20:42.72	339.46	18.82	-42.0	-42.8	21.7	0.00e+00	0	43	0	1506803712	55	3985
2026-01-24 06:20:43.73	339.27	18.74	-42.0	-42.9	21.7	0.00e+00	0	43	0	1509949440	55	4005
2026-01-24 06:20:44.74	339.08	18.67	-42.0	-42.8	21.7	0.00e+00	0	43	0	1513095168	55	3992
2026-01-24 06:20:45.74	338.89	18.59	-42.0	-42.8	21.7	0.00e+00	0	43	0	1516240896	55	3975
2026-01-24 06:20:46.75	338.70	18.52	-42.0	-42.8	21.7	0.00e+00	0	43	0	1519386624	55	3976
2026-01-24 06:20:47.76	338.51	18.44	-42.0	-42.9	21.6	0.00e+00	0	43	0	1522532352	55	4018
2026-01-24 06:20:48.77	338.32	18.37	-42.1	-42.9	21.6	0.00e+00	0	43	0	1525678080	55	4034
2026-01-24 06:20:49.78	338.13	18.29	-42.1	-43.0	21.6	0.00e+00	0	43	0	1528823808	55	4055
2026-01-24 06:20:50.79	337.95	18.21	-42.1	-43.0	21.6	0.00e+00	0	43	0	1531969536	55	4068
2026-01-24 06:20:51.79	337.76	18.14	-42.3	-43.2	21.4	0.00e+00	0	43	0	1535115264	55	4151
2026-01-24 06:20:52.80	337.58	18.06	-42.4	-43.3	21.3	0.00e+00	0	43	0	1538260992	55	4214
2026-01-24 06:20:53.81	337.39	17.99	-42.5	-43.3	21.2	0.00e+00	0	43	0	1541406720	55	4238
2026-01-24 06:20:54.82	337.21	17.91	-42.5	-43.4	21.2	0.00e+00	0	43	0	1544552448	55	4251
2026-01-24 06:20:55.83	337.03	17.83	-42.6	-43.5	21.2	0.00e+00	0	43	0	1547698176	55	4298
2026-01-24 06:20:56.84	336.85	17.76	-42.6	-43.5	21.1	0.00e+00	0	43	0	1550843904	55	4326
2026-01-24 06:20:57.85	336.67	17.68	-42.4	-43.3	21.3	0.00e+00	0	43	0	1553989632	55	4218
2026-01-24 06:20:58.86	336.49	17.61	-42.3	-43.1	21.4	0.00e+00	0	43	0	1557135360	55	4141
2026-01-24 06:20:59.86	336.31	17.53	-42.3	-43.2	21.4	0.00e+00	0	43	0	1560281088	55	4162
2026-01-24 06:21:00.87	336.14	17.45	-42.5	-43.4	21.2	0.00e+00	0	43	0	1563426816	55	4244
2026-01-24 06:21:01.88	335.96	17.38	-42.3	-43.2	21.4	0.00e+00	0	43	0	1566572544	55	4168
2026-01-24 06:21:02.89	335.78	17.30	-42.4	-43.3	21.3	0.00e+00	0	43	0	1569718272	55	4211
2026-01-24 06:21:03.89	335.61	17.22	-42.4	-43.3	21.3	0.00e+00	0	43	0	1572864000	55	4228
2026-01-24 06:21:04.90	335.44	17.15	-42.5	-43.4	21.3	0.00e+00	0	43	0	1576009728	55	4244
2026-01-24 06:21:05.91	335.27	17.07	-42.4	-43.3	21.3	0.00e+00	0	43	0	1579155456	55	4233
2026-01-24 06:21:06.92	335.09	16.99	-42.5	-43.4	21.2	0.00e+00	0	43	0	1582301184	55	4261
2026-01-24 06:21:07.93	334.92	16.92	-42.3	-43.2	21.4	0.00e+00	0	43	0	1585446912	55	4176
2026-01-24 06:21:08.93	334.75	16.84	-42.4	-43.3	21.2	0.00e+00	0	43	0	1588592640	55	4228
2026-01-24 06:21:09.94	334.59	16.76	-42.4	-43.3	21.3	0.00e+00	0	43	0	1591738368	55	4200
2026-01-24 06:21:10.95	334.42	16.69	-42.2	-43.1	21.4	0.00e+00	0	43	0	1594884096	55	4113
2026-01-24 06:21:11.96	334.25	16.61	-42.3	-43.2	21.4	0.00e+00	0	43	0	1598029824	55	4149
2026-01-24 06:21:12.97	334.08	16.53	-42.2	-43.0	21.5	0.00e+00	0	43	0	1601175552	55	4095
2026-01-24 06:21:13.98	333.92	16.46	-42.3	-43.1	21.4	0.00e+00	0	43	0	1604321280	55	4145
2026-01-24 06:21:14.98	333.75	16.38	-42.3	-43.2	21.4	0.00e+00	0	43	0	1607467008	55	4147
2026-01-24 06:21:15.99	333.59	16.30	-42.2	-43.1	21.4	0.00e+00	0	43	0	1610612736	55	4122
2026-01-24 06:21:17.00	333.43	16.23	-42.2	-43.1	21.4	0.00e+00	0	43	0	1613758464	55	4109
2026-01-24 06:21:18.01	333.26	16.15	-42.3	-43.2	21.3	0.00e+00	0	43	0	1616904192	55	4165
2026-01-24 06:21:19.02	333.10	16.07	-42.4	-43.3	21.2	0.00e+00	0	43	0	1620049920	55	4222
2026-01-24 06:21:20.02	332.94	16.00	-42.3	-43.2	21.3	0.00e+00	0	43	0	1623195648	55	4181
2026-01-24 06:21:21.03	332.78	15.92	-42.5	-43.4	21.1	0.00e+00	0	43	0	1626341376	55	4252
2026-01-24 06:21:22.04	332.63	15.84	-42.4	-43.3	21.2	0.00e+00	0	43	0	1629487104	55	4223
2026-01-24 06:21:23.05	332.47	15.77	-42.6	-43.5	21.1	0.00e+00	0	43	0	1632632832	55	4312
2026-01-24 06:21:24.06	332.31	15.69	-42.5	-43.4	21.2	0.00e+00	0	43	0	1635778560	55	4263
2026-01-24 06:21:25.07	332.15	15.61	-42.6	-43.5	21.0	0.00e+00	0	43	0	1638924288	55	4322
2026-01-24 06:21:26.08	332.00	15.54	-42.8	-43.7	21.0	0.00e+00	0	43	0	1642070016	56	4169
2026-01-24 06:21:27.09	331.84	15.46	-42.9	-43.8	20.8	0.00e+00	0	43	0	1645215744	56	4239
2026-01-24 06:21:28.09	331.69	15.38	-42.9	-43.8	20.8	0.00e+00	0	43	0	1648361472	56	4227
2026-01-24 06:21:29.10	331.54	15.31	-42.9	-43.9	20.8	0.00e+00	0	43	0	1651507200	56	4249
2026-01-24 06:21:30.11	331.39	15.23	-42.8	-43.7	20.9	0.00e+00	0	43	0	1654652928	56	4192
2026-01-24 06:21:31.12	331.23	15.15	-42.7	-43.6	21.0	0.00e+00	0	43	0	1657798656	56	4112
2026-01-24 06:21:32.13	331.08	15.08	-42.6	-43.5	21.1	0.00e+00	0	43	0	1660944384	56	4068
2026-01-24 06:21:33.14	330.93	15.00	-42.5	-43.4	21.1	0.00e+00	0	44	0	1664090112	56	4034
2026-01-24 06:21:34.15	330.78	14.93	-42.6	-43.5	21.1	0.00e+00	0	43	0	1667235840	56	4054
2026-01-24 06:21:35.15	330.64	14.85	-42.4	-43.3	21.2	0.00e+00	0	43	0	1670381568	56	3979
2026-01-24 06:21:36.16	330.49	14.77	-42.5	-43.3	21.2	0.00e+00	0	43	0	1673527296	56	4000
2026-01-24 06:21:37.17	330.34	14.70	-42.6	-43.5	21.1	0.00e+00	0	43	0	1676673024	56	4060
2026-01-24 06:21:38.18	330.20	14.62	-42.6	-43.5	21.0	0.00e+00	0	44	0	1679818752	56	4084
2026-01-24 06:21:39.19	330.05	14.54	-42.7	-43.6	21.0	0.00e+00	0	43	0	1682964480	56	4121
2026-01-24 06:21:40.19	329.91	14.47	-42.9	-43.8	20.8	0.00e+00	0	44	0	1686110208	56	4217
2026-01-24 06:21:41.20	329.76	14.39	-43.0	-43.9	20.7	0.00e+00	0	44	0	1689255936	56	4290
2026-01-24 06:21:42.21	329.62	14.32	-43.2	-44.1	20.5	0.00e+00	0	43	0	1692401664	56	4381
2026-01-24 06:21:43.22	329.48	14.24	-43.2	-44.2	20.4	0.00e+00	0	44	0	1695547392	57	4174
2026-01-24 06:21:44.23	329.34	14.16	-43.4	-44.4	20.2	0.00e+00	0	43	0	1698693120	57	4271
2026-01-24 06:21:45.24	329.20	14.09	-43.4	-44.4	20.1	0.00e+00	0	43	0	1701838848	57	4278
2026-01-24 06:21:46.25	329.05	14.01	-43.3	-44.2	20.2	0.00e+00	0	43	0	1704984576	57	4186
2026-01-24 06:21:47.25	328.92	13.94	-43.3	-44.2	20.2	0.00e+00	0	43	0	1708130304	57	4187
2026-01-24 06:21:48.26	328.78	13.86	-43.2	-44.2	20.3	0.00e+00	0	43	0	1711276032	57	4173
2026-01-24 06:21:49.27	328.64	13.79	-43.1	-44.0	20.5	0.00e+00	0	44	0	1714421760	57	4077
2026-01-24 06:21:50.28	328.50	13.71	-43.0	-43.9	20.5	0.00e+00	0	43	0	1717567488	57	4047
2026-01-24 06:21:51.29	328.37	13.64	-42.8	-43.7	20.8	0.00e+00	0	43	0	1720713216	57	3927
2026-01-24 06:21:52.29	328.23	13.56	-42.9	-43.8	20.7	0.00e+00	0	44	0	1723858944	57	3996
2026-01-24 06:21:53.30	328.10	13.49	-43.0	-43.9	20.6	0.00e+00	0	44	0	1727004672	57	4024
2026-01-24 06:21:54.31	327.96	13.41	-43.1	-44.1	20.5	0.00e+00	0	44	0	1730150400	57	4110
2026-01-24 06:21:55.32	327.83	13.34	-43.3	-44.2	20.3	0.00e+00	0	43	0	1733296128	57	4179
2026-01-24 06:21:56.33	327.70	13.26	-43.5	-44.5	20.1	0.00e+00	0	44	0	1736441856	57	4309
2026-01-24 06:21:57.34	327.56	13.18	-43.7	-44.7	19.9	0.00e+00	0	43	0	1739587584	57	4417
2026-01-24 06:21:58.35	327.43	13.11	-43.8	-44.8	19.8	0.00e+00	0	44	0	1742733312	58	4217
2026-01-24 06:21:59.35	327.30	13.04	-43.9	-45.0	19.6	0.00e+00	0	43	0	1745879040	58	4299
2026-01-24 06:22:00.36	327.17	12.96	-43.8	-44.9	19.7	0.00e+00	0	44	0	1749024768	58	4272
2026-01-24 06:22:01.37	327.04	12.89	-43.7	-44.8	19.8	0.00e+00	0	44	0	1752170496	58	4207
2026-01-24 06:22:02.38	326.91	12.81	-43.9	-44.9	19.7	0.00e+00	0	44	0	1755316224	58	4276
2026-01-24 06:22:03.39	326.78	12.74	-43.6	-44.6	20.0	0.00e+00	0	44	0	1758461952	58	4118
2026-01-24 06:22:04.40	326.66	12.66	-43.5	-44.6	20.0	0.00e+00	0	44	0	1761607680	58	4101
2026-01-24 06:22:05.41	326.53	12.59	-43.3	-44.3	20.3	0.00e+00	0	44	0	1764753408	58	3964
2026-01-24 06:22:06.42	326.40	12.51	-43.1	-44.1	20.4	0.00e+00	0	43	0	1767899136	58	3884
2026-01-24 06:22:07.43	326.28	12.44	-43.1	-44.1	20.4	0.00e+00	0	44	0	1771044864	58	3873
2026-01-24 06:22:08.44	326.15	12.37	-43.1	-44.1	20.4	0.00e+00	0	44	0	1774190592	58	3870
2026-01-24 06:22:09.45	326.03	12.29	-43.1	-44.0	20.5	0.00e+00	0	43	0	1777336320	58	3856
2026-01-24 06:22:10.46	325.90	12.22	-43.2	-44.2	20.3	0.00e+00	0	44	0	1780482048	58	3937
2026-01-24 06:22:11.47	325.78	12.14	-43.3	-44.3	20.2	0.00e+00	0	43	0	1783627776	58	3996
2026-01-24 06:22:12.47	325.66	12.07	-43.4	-44.5	20.1	0.00e+00	0	44	0	1786773504	58	4052
2026-01-24 06:22:13.48	325.54	12.00	-43.4	-44.4	20.1	0.00e+00	0	44	0	1789919232	58	4021
2026-01-24 06:22:14.49	325.42	11.92	-43.5	-44.5	20.0	0.00e+00	0	43	0	1793064960	58	4086
2026-01-24 06:22:15.50	325.30	11.85	-43.6	-44.7	19.8	0.00e+00	0	43	0	1796210688	58	4151
2026-01-24 06:22:16.51	325.18	11.78	-43.7	-44.7	19.8	0.00e+00	0	44	0	1799356416	58	4175
2026-01-24 06:22:17.52	325.06	11.70	-43.7	-44.7	19.7	0.00e+00	0	44	0	1802502144	58	4188
2026-01-24 06:22:18.52	324.94	11.63	-43.8	-44.9	19.6	0.00e+00	0	44	0	1805647872	58	4243
2026-01-24 06:22:19.53	324.82	11.56	-43.7	-44.8	19.6	0.00e+00	0	43	0	1808793600	58	4216
2026-01-24 06:22:20.54	324.70	11.48	-43.7	-44.8	19.6	0.00e+00	0	44	0	1811939328	58	4208
2026-01-24 06:22:21.55	324.59	11.41	-43.5	-44.5	19.8	0.00e+00	0	44	0	1815085056	58	4092
2026-01-24 06:22:22.55	324.47	11.34	-43.2	-44.2	20.1	0.00e+00	0	44	0	1818230784	58	3930
2026-01-24 06:22:23.56	324.35	11.27	-43.2	-44.1	20.1	0.00e+00	0	44	0	1821376512	58	3908
2026-01-24 06:22:24.57	324.24	11.19	-43.2	-44.2	20.1	0.00e+00	0	44	0	1824522240	58	3943
2026-01-24 06:22:25.58	324.12	11.12	-43.2	-44.2	20.1	0.00e+00	0	43	0	1827667968	58	3920
2026-01-24 06:22:26.59	324.01	11.05	-42.8	-43.8	20.5	0.00e+00	0	43	0	1830813696	57	3960
2026-01-24 06:22:27.59	323.90	10.98	-42.7	-43.6	20.6	0.00e+00	0	43	0	1833959424	57	3913
2026-01-24 06:22:28.60	323.79	10.90	-42.7	-43.6	20.6	0.00e+00	0	43	0	1837105152	57	3912
2026-01-24 06:22:29.61	323.67	10.83	-42.9	-43.9	20.4	0.00e+00	0	43	0	1840250880	57	4028
2026-01-24 06:22:30.62	323.56	10.76	-42.9	-43.8	20.5	0.00e+00	0	44	0	1843396608	57	3997
2026-01-24 06:22:31.63	323.45	10.69	-43.1	-44.1	20.3	0.00e+00	0	44	0	1846542336	57	4105
2026-01-24 06:22:32.64	323.34	10.62	-43.3	-44.2	20.1	0.00e+00	0	43	0	1849688064	57	4192
2026-01-24 06:22:33.65	323.23	10.55	-43.5	-44.5	19.9	0.00e+00	0	44	0	1852833792	57	4306
2026-01-24 06:22:34.66	323.12	10.47	-43.7	-44.7	19.7	0.00e+00	0	43	0	1855979520	57	4434
2026-01-24 06:22:35.66	323.01	10.40	-43.9	-45.0	19.5	0.00e+00	0	43	0	1859125248	58	4311
2026-01-24 06:22:36.67	322.90	10.33	-44.0	-45.1	19.3	0.00e+00	0	44	0	1862270976	58	4351
2026-01-24 06:22:37.68	322.80	10.26	-44.0	-45.1	19.4	0.00e+00	0	43	0	1865416704	58	4358
2026-01-24 06:22:38.69	322.69	10.19	-44.0	-45.1	19.3	0.00e+00	0	43	0	1868562432	58	4350
2026-01-24 06:22:39.70	322.58	10.12	-44.1	-45.3	19.1	0.00e+00	0	44	0	1871708160	58	4450
2026-01-24 06:22:40.71	322.47	10.05	-44.2	-45.4	19.0	0.00e+00	0	43	0	1874853888	59	4256
2026-01-24 06:22:41.71	322.37	9.98	-44.0	-45.0	19.3	0.00e+00	0	43	0	1877999616	59	4097
2026-01-24 06:22:42.72	322.27	9.91	-44.1	-45.2	19.1	0.00e+00	0	44	0	1881145344	59	4160
2026-01-24 06:22:43.73	322.16	9.83	-43.9	-45.0	19.2	0.00e+00	0	44	0	1884291072	59	4092
2026-01-24 06:22:44.74	322.06	9.76	-43.7	-44.8	19.5	0.00e+00	0	44	0	1887436800	59	3976
2026-01-24 06:22:45.75	321.95	9.69	-43.4	-44.4	19.8	0.00e+00	0	44	0	1890582528	58	4015
2026-01-24 06:22:46.76	321.85	9.62	-43.5	-44.6	19.7	0.00e+00	0	44	0	1893728256	58	4107
2026-01-24 06:22:47.77	321.75	9.55	-43.3	-44.3	19.9	0.00e+00	0	44	0	1896873984	58	3991
2026-01-24 06:22:48.78	321.64	9.48	-43.3	-44.3	20.0	0.00e+00	0	43	0	1900019712	58	3966
2026-01-24 06:22:49.78	321.54	9.41	-43.4	-44.4	19.8	0.00e+00	0	44	0	1903165440	58	4029
2026-01-24 06:22:50.79	321.44	9.34	-43.4	-44.4	19.9	0.00e+00	0	44	0	1906311168	58	4009
2026-01-24 06:22:51.80	321.34	9.27	-43.4	-44.4	19.9	0.00e+00	0	43	0	1909456896	58	4041
2026-01-24 06:22:52.81	321.24	9.20	-43.3	-44.2	20.0	0.00e+00	0	43	0	1912602624	58	3957
2026-01-24 06:22:53.82	321.14	9.13	-43.6	-44.7	19.6	0.00e+00	0	43	0	1915748352	58	4159
2026-01-24 06:22:54.83	321.04	9.07	-43.7	-44.8	19.5	0.00e+00	0	44	0	1918894080	58	4211
2026-01-24 06:22:55.84	320.94	9.00	-44.0	-45.2	19.2	0.00e+00	0	43	0	1922039808	58	4393
2026-01-24 06:22:56.85	320.85	8.93	-43.9	-45.0	19.3	0.00e+00	0	43	0	1925185536	58	4330
2026-01-24 06:22:57.86	320.75	8.86	-44.1	-45.3	19.1	0.00e+00	0	43	0	1928331264	58	4453
2026-01-24 06:22:58.87	320.65	8.79	-44.4	-45.5	18.8	0.00e+00	0	43	0	1931476992	59	4325
2026-01-24 06:22:59.87	320.56	8.72	-44.5	-45.7	18.6	0.00e+00	0	44	0	1934622720	59	4417
2026-01-24 06:23:00.88	320.46	8.65	-44.5	-45.7	18.6	0.00e+00	0	44	0	1937768448	59	4409
2026-01-24 06:23:01.89	320.36	8.58	-44.5	-45.7	18.7	0.00e+00	0	44	0	1940914176	59	4396
2026-01-24 06:23:02.90	320.27	8.51	-44.4	-45.6	18.7	0.00e+00	0	43	0	1944059904	59	4345
2026-01-24 06:23:03.91	320.17	8.45	-44.5	-45.7	18.6	0.00e+00	0	44	0	1947205632	59	4415
2026-01-24 06:23:04.92	320.08	8.38	-44.7	-45.9	18.3	0.00e+00	0	43	0	1950351360	59	4521
2026-01-24 06:23:05.93	319.98	8.31	-44.5	-45.7	18.5	0.00e+00	0	44	0	1953497088	59	4428
2026-01-24 06:23:06.94	319.89	8.24	-44.5	-45.7	18.5	0.00e+00	0	44	0	1956642816	59	4427
2026-01-24 06:23:07.95	319.80	8.17	-44.4	-45.6	18.6	0.00e+00	0	43	0	1959788544	59	4365
2026-01-24 06:23:08.96	319.71	8.10	-44.3	-45.5	18.6	0.00e+00	0	44	0	1962934272	59	4331
2026-01-24 06:23:09.96	319.61	8.04	-44.2	-45.3	18.8	0.00e+00	0	44	0	1966080000	59	4233
2026-01-24 06:23:10.97	319.52	7.97	-44.3	-45.4	18.7	0.00e+00	0	44	0	1969225728	59	4276
2026-01-24 06:23:11.98	319.43	7.90	-44.2	-45.4	18.7	0.00e+00	0	44	0	1972371456	59	4271
2026-01-24 06:23:12.99	319.34	7.83	-44.3	-45.5	18.7	0.00e+00	0	43	0	1976565760	59	4295
2026-01-24 06:23:14.00	319.25	7.77	-44.1	-45.2	19.0	0.00e+00	0	43	0	1979711488	59	4164
2026-01-24 06:23:15.01	319.16	7.70	-44.4	-45.6	18.6	0.00e+00	0	44	0	1982857216	59	4346
2026-01-24 06:23:16.02	319.07	7.63	-44.3	-45.5	18.7	0.00e+00	0	43	0	1986002944	59	4293
2026-01-24 06:23:17.02	318.98	7.57	-44.3	-45.5	18.7	0.00e+00	0	44	0	1988100096	59	4305
2026-01-24 06:23:18.04	318.89	7.50	-44.6	-45.8	18.3	0.00e+00	0	43	0	1991245824	59	4493
2026-01-24 06:23:19.04	318.81	7.43	-44.2	-45.3	18.8	0.00e+00	0	43	0	1994391552	59	4237
2026-01-24 06:23:20.05	318.72	7.36	-44.2	-45.4	18.8	0.00e+00	0	43	0	1997537280	59	4253
2026-01-24 06:23:21.06	318.63	7.30	-44.5	-45.8	18.4	0.00e+00	0	43	0	2000683008	59	4446
2026-01-24 06:23:22.07	318.54	7.23	-44.6	-45.9	18.3	0.00e+00	0	43	0	2003828736	59	4503
2026-01-24 06:23:23.08	318.46	7.17	-44.4	-45.6	18.2	0.00e+00	0	43	0	2006974464	60	4126
2026-01-24 06:23:24.09	318.37	7.10	-44.4	-45.7	18.2	0.00e+00	0	43	0	2011168768	60	4161
2026-01-24 06:23:25.10	318.28	7.03	-44.4	-45.6	18.2	0.00e+00	0	44	0	2014314496	60	4138
2026-01-24 06:23:26.11	318.20	6.97	-44.5	-45.8	18.1	0.00e+00	0	43	0	2017460224	60	4205
2026-01-24 06:23:27.12	318.11	6.90	-44.7	-46.0	17.9	0.00e+00	0	44	0	2020605952	60	4311
2026-01-24 06:23:28.12	318.03	6.84	-44.7	-46.0	17.9	0.00e+00	0	44	0	2023751680	60	4298
2026-01-24 06:23:29.13	317.95	6.77	-44.7	-46.0	17.9	0.00e+00	0	44	0	2026897408	60	4312
