passes_logs/2026/01/24/R3.2S_Murmansk/R3.2S_Murmansk__20260124_003521_ZKG05_rec.log

#Pass ID: 20260124_003521_ZKG05
#Satellite: ZKG05
#Configuration: ZKG05
#almurnet v.1.7.20251203
#Start time: 2026-01-24 00:35:21

#Version: 2.2.20231116
#Station: R3.2S_Murmansk
#Location: 33.079688 lon 68.888172 lat
#TLE: 1 65263U 25180E   26022.95928453  .00000683  00000-0  38596-4 0  9997
#TLE: 2 65263  97.4777 152.0845 0001589  87.5050 272.6364 15.16349981 23718

#Time	Az	El	Level	Level2	SNR	BER	BlckErr	Temp	State	Recorded	gain1	gain2
2026-01-24 00:35:21.73	220.97	2.03	-52.5	-54.6	6.2	0.00e+00	0	50	0	0	77	17536
2026-01-24 00:35:22.74	221.07	2.09	-52.5	-54.7	6.2	0.00e+00	0	50	104	0	76	18688
2026-01-24 00:35:23.75	221.18	2.15	-52.5	-54.6	6.2	0.00e+00	0	50	104	0	76	18577
2026-01-24 00:35:24.75	221.29	2.20	-52.5	-54.6	6.2	0.00e+00	0	50	104	0	76	18577
2026-01-24 00:35:25.76	221.40	2.26	-52.5	-54.6	6.2	0.00e+00	0	50	104	0	76	18529
2026-01-24 00:35:26.77	221.51	2.32	-52.5	-54.6	6.2	0.00e+00	0	50	104	0	76	18547
2026-01-24 00:35:27.78	221.63	2.37	-52.5	-54.6	6.2	0.00e+00	0	50	104	0	76	18547
2026-01-24 00:35:28.79	221.74	2.43	-52.5	-54.6	6.2	0.00e+00	0	50	104	0	76	18530
2026-01-24 00:35:29.80	221.85	2.49	-52.5	-54.6	6.2	0.00e+00	0	50	104	0	76	18538
2026-01-24 00:35:30.81	221.96	2.55	-52.5	-54.6	6.2	0.00e+00	0	50	104	0	76	18545
2026-01-24 00:35:31.81	222.08	2.60	-52.5	-54.6	6.2	0.00e+00	0	50	104	0	76	18520
2026-01-24 00:35:32.82	222.19	2.66	-52.5	-54.6	6.2	0.00e+00	0	50	104	0	76	18504
2026-01-24 00:35:33.83	222.30	2.72	-52.5	-54.6	6.2	0.00e+00	0	51	104	0	76	18522
2026-01-24 00:35:34.84	222.42	2.78	-52.5	-54.6	6.2	0.00e+00	0	51	104	0	76	18580
2026-01-24 00:35:35.85	222.54	2.84	-52.5	-54.6	6.2	0.00e+00	0	50	104	0	76	18551
2026-01-24 00:35:36.86	222.65	2.89	-52.5	-54.6	6.2	0.00e+00	0	51	104	0	76	18525
2026-01-24 00:35:37.86	222.77	2.95	-52.5	-54.6	6.2	0.00e+00	0	51	104	0	76	18548
2026-01-24 00:35:38.87	222.89	3.01	-52.5	-54.6	6.2	0.00e+00	0	51	104	0	76	18502
2026-01-24 00:35:39.88	223.00	3.07	-52.5	-54.6	6.2	0.00e+00	0	51	104	0	76	18523
2026-01-24 00:35:40.89	223.12	3.13	-52.5	-54.6	6.2	0.00e+00	0	51	104	0	76	18575
2026-01-24 00:35:41.90	223.24	3.19	-52.5	-54.6	6.2	0.00e+00	0	51	104	0	76	18551
2026-01-24 00:35:42.91	223.36	3.24	-52.5	-54.6	6.2	0.00e+00	0	51	104	0	76	18514
2026-01-24 00:35:43.92	223.48	3.30	-52.5	-54.6	6.2	0.00e+00	0	51	104	0	76	18557
2026-01-24 00:35:44.92	223.60	3.36	-52.5	-54.6	6.2	0.00e+00	0	51	104	0	76	18580
2026-01-24 00:35:45.93	223.72	3.42	-52.5	-54.6	6.2	0.00e+00	0	51	104	0	76	18569
2026-01-24 00:35:46.94	223.85	3.48	-52.5	-54.6	6.2	0.00e+00	0	51	104	0	76	18519
2026-01-24 00:35:47.95	223.97	3.54	-52.5	-54.6	6.2	0.00e+00	0	51	104	0	76	18541
2026-01-24 00:35:48.96	224.09	3.60	-52.5	-54.6	6.2	0.00e+00	0	51	104	0	76	18510
2026-01-24 00:35:49.97	224.21	3.65	-52.5	-54.6	6.2	0.00e+00	0	51	104	0	76	18523
2026-01-24 00:35:50.98	224.34	3.71	-52.5	-54.6	6.2	0.00e+00	0	52	104	0	76	18513
2026-01-24 00:35:51.99	224.46	3.77	-52.5	-54.6	6.2	0.00e+00	0	51	104	0	76	18516
2026-01-24 00:35:52.99	224.59	3.83	-52.5	-54.6	6.2	0.00e+00	0	51	104	0	76	18527
2026-01-24 00:35:54.00	224.72	3.89	-52.5	-54.6	6.2	0.00e+00	0	52	104	0	76	18490
2026-01-24 00:35:55.01	224.84	3.95	-52.5	-54.6	6.2	0.00e+00	0	52	104	0	76	18531
2026-01-24 00:35:56.02	224.97	4.01	-52.5	-54.6	6.2	0.00e+00	0	52	104	0	76	18463
2026-01-24 00:35:57.02	225.10	4.07	-52.5	-54.6	6.2	0.00e+00	0	52	104	0	76	18556
2026-01-24 00:35:58.03	225.23	4.13	-52.5	-54.6	6.2	0.00e+00	0	52	104	0	76	18442
2026-01-24 00:35:59.04	225.36	4.19	-52.5	-54.6	6.2	0.00e+00	0	52	104	0	76	18489
2026-01-24 00:36:00.05	225.49	4.25	-52.5	-54.6	6.2	0.00e+00	0	52	104	0	76	18534
2026-01-24 00:36:01.06	225.62	4.31	-52.5	-54.6	6.2	0.00e+00	0	52	104	0	76	18567
2026-01-24 00:36:02.07	225.75	4.37	-52.5	-54.6	6.2	0.00e+00	0	52	104	0	76	18571
2026-01-24 00:36:03.07	225.88	4.43	-52.5	-54.6	6.2	0.00e+00	0	52	104	0	76	18492
2026-01-24 00:36:04.08	226.01	4.49	-52.5	-54.6	6.2	0.00e+00	0	52	104	0	76	18560
2026-01-24 00:36:05.09	226.14	4.55	-52.5	-54.6	6.2	0.00e+00	0	52	104	0	76	18476
2026-01-24 00:36:06.10	226.28	4.61	-52.5	-54.6	6.2	0.00e+00	0	52	104	0	76	18490
2026-01-24 00:36:07.11	226.41	4.67	-52.5	-54.6	6.2	0.00e+00	0	52	104	0	76	18519
2026-01-24 00:36:08.12	226.55	4.73	-52.5	-54.6	6.2	0.00e+00	0	52	104	0	76	18581
2026-01-24 00:36:09.12	226.68	4.79	-52.5	-54.6	6.2	0.00e+00	0	52	104	0	76	18525
2026-01-24 00:36:10.13	226.82	4.85	-52.5	-54.6	6.2	0.00e+00	0	52	104	0	76	18417
2026-01-24 00:36:11.14	226.96	4.91	-52.5	-54.6	6.2	0.00e+00	0	52	104	0	76	18481
2026-01-24 00:36:12.15	227.10	4.97	-52.5	-54.6	6.2	0.00e+00	0	52	104	0	76	18445
2026-01-24 00:36:13.16	227.23	5.03	-52.5	-54.6	6.2	0.00e+00	0	52	104	0	76	18531
2026-01-24 00:36:14.17	227.37	5.09	-52.7	-54.8	6.2	0.00e+00	0	52	104	0	76	18946
2026-01-24 00:36:15.18	227.51	5.15	-52.5	-54.6	6.2	0.00e+00	0	52	104	0	76	18428
2026-01-24 00:36:16.18	227.65	5.21	-52.7	-54.8	6.2	0.00e+00	0	52	104	0	76	18993
2026-01-24 00:36:17.20	227.80	5.27	-52.6	-54.7	6.2	0.00e+00	0	53	104	0	76	18718
2026-01-24 00:36:18.20	227.94	5.33	-52.5	-54.7	6.2	0.00e+00	0	52	104	0	76	18637
2026-01-24 00:36:19.21	228.08	5.40	-52.5	-54.6	6.2	0.00e+00	0	52	104	0	76	18465
2026-01-24 00:36:20.22	228.22	5.46	-52.7	-54.8	6.2	0.00e+00	0	52	104	0	76	18996
2026-01-24 00:36:21.23	228.37	5.52	-52.6	-54.7	6.2	0.00e+00	0	52	104	0	76	18767
2026-01-24 00:36:22.24	228.51	5.58	-52.5	-54.7	6.2	0.00e+00	0	53	104	0	76	18636
2026-01-24 00:36:23.25	228.66	5.64	-52.5	-54.6	6.2	0.00e+00	0	53	104	0	76	18580
2026-01-24 00:36:24.26	228.81	5.70	-52.7	-54.8	6.2	0.00e+00	0	52	104	0	76	19016
2026-01-24 00:36:25.26	228.95	5.76	-52.6	-54.8	6.2	0.00e+00	0	53	104	0	76	18861
2026-01-24 00:36:26.27	229.10	5.82	-52.6	-54.7	6.2	0.00e+00	0	52	104	0	76	18773
2026-01-24 00:36:27.28	229.25	5.88	-52.6	-54.7	6.2	0.00e+00	0	53	104	0	76	18748
2026-01-24 00:36:28.29	229.40	5.95	-52.7	-54.9	6.2	0.00e+00	0	53	104	0	76	19098
2026-01-24 00:36:29.30	229.55	6.01	-52.7	-54.8	6.2	0.00e+00	0	53	104	0	76	19003
2026-01-24 00:36:30.31	229.70	6.07	-52.6	-54.8	6.2	0.00e+00	0	53	104	0	76	18846
2026-01-24 00:36:31.31	229.85	6.13	-52.6	-54.7	6.2	0.00e+00	0	53	104	0	76	18817
2026-01-24 00:36:32.32	230.00	6.19	-52.8	-54.9	6.2	0.00e+00	0	53	104	0	76	19062
2026-01-24 00:36:33.33	230.16	6.25	-52.7	-54.8	6.2	0.00e+00	0	53	104	0	76	18977
2026-01-24 00:36:34.34	230.31	6.32	-52.7	-54.8	6.2	0.00e+00	0	53	104	0	76	18928
2026-01-24 00:36:35.35	230.47	6.38	-52.7	-54.8	6.2	0.00e+00	0	53	104	0	76	18913
2026-01-24 00:36:36.36	230.62	6.44	-52.7	-54.9	6.2	0.00e+00	0	53	104	0	76	19046
2026-01-24 00:36:37.37	230.78	6.50	-52.7	-54.8	6.2	0.00e+00	0	53	104	0	76	18967
2026-01-24 00:36:38.37	230.94	6.56	-52.7	-54.8	6.2	0.00e+00	0	53	104	0	76	18957
2026-01-24 00:36:39.38	231.09	6.62	-52.7	-54.8	6.2	0.00e+00	0	53	104	0	76	18960
2026-01-24 00:36:40.39	231.25	6.69	-52.8	-54.9	6.2	0.00e+00	0	53	104	0	76	19153
2026-01-24 00:36:41.40	231.41	6.75	-52.7	-54.9	6.2	0.00e+00	0	53	104	0	76	19073
2026-01-24 00:36:42.41	231.57	6.81	-52.7	-54.8	6.2	0.00e+00	0	53	104	0	76	18893
2026-01-24 00:36:43.41	231.73	6.87	-52.7	-54.8	6.2	0.00e+00	0	53	104	0	76	18957
2026-01-24 00:36:44.42	231.90	6.93	-52.8	-54.9	6.2	0.00e+00	0	53	104	0	76	19217
2026-01-24 00:36:45.43	232.06	7.00	-52.7	-54.8	6.2	0.00e+00	0	53	104	0	76	18998
2026-01-24 00:36:46.44	232.22	7.06	-52.7	-54.8	6.2	0.00e+00	0	53	104	0	76	18902
2026-01-24 00:36:47.45	232.39	7.12	-52.7	-54.9	6.2	0.00e+00	0	53	104	0	76	19036
2026-01-24 00:36:48.46	232.55	7.18	-52.8	-55.0	6.2	0.00e+00	0	53	104	0	76	19300
2026-01-24 00:36:49.47	232.72	7.25	-52.7	-54.9	6.2	0.00e+00	0	53	104	0	76	19113
2026-01-24 00:36:50.47	232.89	7.31	-52.7	-54.9	6.2	0.00e+00	0	53	104	0	76	19039
2026-01-24 00:36:51.48	233.06	7.37	-52.7	-54.9	6.2	0.00e+00	0	53	104	0	76	19107
2026-01-24 00:36:52.49	233.22	7.43	-52.9	-55.0	6.2	0.00e+00	0	53	104	0	76	19334
2026-01-24 00:36:53.50	233.39	7.49	-52.8	-54.9	6.2	0.00e+00	0	53	104	0	76	19199
2026-01-24 00:36:54.51	233.57	7.56	-52.8	-54.9	6.2	0.00e+00	0	53	104	0	76	19161
2026-01-24 00:36:55.51	233.74	7.62	-52.8	-54.9	6.2	0.00e+00	0	53	104	0	76	19178
2026-01-24 00:36:56.52	233.91	7.68	-52.9	-55.0	6.2	0.00e+00	0	53	104	0	76	19395
2026-01-24 00:36:57.53	234.08	7.74	-52.8	-54.9	6.2	0.00e+00	0	53	104	0	76	19242
2026-01-24 00:36:58.54	234.26	7.81	-51.7	-53.4	6.3	0.00e+00	0	53	104	0	75	17136
2026-01-24 00:36:59.55	234.43	7.87	-50.6	-51.9	6.6	0.00e+00	0	53	104	0	73	16080
2026-01-24 00:37:00.56	234.61	7.93	-36.8	-36.6	11.5	0.00e+00	0	53	104	0	45	13917
2026-01-24 00:37:01.57	234.78	7.99	-33.4	-33.3	16.1	0.00e+00	0	55	0	58720256	38	14167
2026-01-24 00:37:02.57	234.96	8.06	-33.8	-33.6	14.7	2.57e-02	0	55	0	167772160	39	13865
2026-01-24 00:37:03.58	235.14	8.12	-33.3	-33.2	14.4	2.57e-02	0	55	0	285212672	38	13954
2026-01-24 00:37:04.59	235.32	8.18	-33.2	-33.0	14.4	2.57e-02	0	55	0	394264576	38	13780
2026-01-24 00:37:05.60	235.50	8.24	-32.8	-32.7	14.5	6.71e-02	0	55	0	503316480	37	13964
2026-01-24 00:37:06.61	235.68	8.31	-33.3	-33.1	14.4	6.71e-02	0	55	0	620756992	37	14756
2026-01-24 00:37:07.62	235.86	8.37	-32.9	-32.8	14.4	6.62e-02	0	56	0	729808896	37	14208
2026-01-24 00:37:08.63	236.05	8.43	-32.7	-32.6	14.4	6.62e-02	0	56	0	855638016	37	13867
2026-01-24 00:37:09.64	236.23	8.49	-32.8	-32.6	14.4	6.62e-02	0	56	0	964689920	37	13906
2026-01-24 00:37:10.65	236.42	8.55	-32.9	-32.8	14.4	6.61e-02	0	56	0	1082130432	37	14135
2026-01-24 00:37:11.66	236.60	8.62	-32.8	-32.6	14.4	6.61e-02	0	55	0	1191182336	37	13947
2026-01-24 00:37:12.67	236.79	8.68	-33.1	-33.0	14.4	6.61e-02	0	56	0	1308622848	37	14521
2026-01-24 00:37:13.67	236.98	8.74	-32.6	-32.5	14.4	6.44e-02	0	56	0	1417674752	37	13721
2026-01-24 00:37:14.68	237.17	8.80	-32.7	-32.6	14.4	6.44e-02	0	56	0	1526726656	37	13824
2026-01-24 00:37:15.69	237.36	8.87	-32.6	-32.5	14.5	6.44e-02	0	56	0	1644167168	37	13689
2026-01-24 00:37:16.70	237.55	8.93	-32.8	-32.6	14.4	6.23e-02	0	56	0	1753219072	37	13937
2026-01-24 00:37:17.71	237.74	8.99	-32.6	-32.4	14.5	6.23e-02	0	56	0	1870659584	37	13585
2026-01-24 00:37:18.71	237.93	9.05	-32.6	-32.5	14.5	6.29e-02	0	56	0	1979711488	37	13674
2026-01-24 00:37:19.72	238.13	9.11	-32.5	-32.4	14.5	6.29e-02	0	56	0	2088763392	36	14285
2026-01-24 00:37:20.73	238.32	9.18	-32.5	-32.4	14.4	6.29e-02	0	56	0	2214592512	36	14324
2026-01-24 00:37:21.74	238.52	9.24	-32.4	-32.3	14.4	6.04e-02	0	56	0	2332033024	36	14160
2026-01-24 00:37:22.75	238.71	9.30	-32.5	-32.3	14.4	6.04e-02	0	56	0	2441084928	36	14255
2026-01-24 00:37:23.75	238.91	9.36	-32.5	-32.4	14.5	4.34e-02	0	56	0	2550136832	36	14358
2026-01-24 00:37:24.76	239.11	9.42	-32.6	-32.4	14.5	4.34e-02	0	57	0	2667577344	36	14429
2026-01-24 00:37:25.77	239.31	9.48	-32.4	-32.3	14.6	4.80e-02	0	56	0	2776629248	36	14130
2026-01-24 00:37:26.78	239.51	9.55	-32.5	-32.4	14.5	4.80e-02	0	57	0	2894069760	36	14285
2026-01-24 00:37:27.79	239.71	9.61	-32.2	-32.1	14.6	4.80e-02	0	57	0	3003121664	36	13898
2026-01-24 00:37:28.79	239.91	9.67	-32.2	-32.1	14.6	4.80e-02	0	57	0	3120562176	36	13858
2026-01-24 00:37:29.80	240.12	9.73	-32.5	-32.3	14.5	3.41e-02	0	57	0	3229614080	36	14242
2026-01-24 00:37:30.81	240.32	9.79	-32.3	-32.1	14.6	3.41e-02	0	57	0	3338665984	36	13920
2026-01-24 00:37:31.82	240.53	9.85	-32.4	-32.3	14.6	3.41e-02	0	57	0	3456106496	36	14152
2026-01-24 00:37:32.83	240.73	9.91	-32.2	-32.1	14.6	3.31e-02	0	57	0	3581935616	36	13884
2026-01-24 00:37:33.83	240.94	9.97	-32.8	-32.6	14.5	3.31e-02	0	57	0	3690987520	36	14757
2026-01-24 00:37:34.84	241.15	10.04	-32.3	-32.1	14.7	3.31e-02	0	57	0	3800039424	36	13912
2026-01-24 00:37:35.85	241.36	10.10	-32.2	-32.0	14.7	2.90e-02	0	57	0	3917479936	36	13757
2026-01-24 00:37:36.86	241.57	10.16	-32.2	-32.1	14.7	2.90e-02	0	57	0	4026531840	36	13867
2026-01-24 00:37:37.87	241.78	10.22	-32.3	-32.1	14.7	2.90e-02	0	57	0	4143972352	36	13903
2026-01-24 00:37:38.88	242.00	10.28	-32.3	-32.1	14.6	2.78e-02	0	57	0	4253024256	36	13934
2026-01-24 00:37:39.88	242.21	10.34	-32.1	-32.0	14.7	2.78e-02	0	57	0	4362076160	36	13698
2026-01-24 00:37:40.89	242.42	10.40	-32.2	-32.0	14.7	3.01e-02	0	57	0	4479516672	36	13781
2026-01-24 00:37:41.90	242.64	10.46	-32.1	-32.0	14.7	3.01e-02	0	57	0	4588568576	36	13730
2026-01-24 00:37:42.90	242.86	10.52	-32.2	-32.0	14.7	3.01e-02	0	57	0	4706009088	36	13752
2026-01-24 00:37:43.91	243.07	10.58	-32.1	-32.0	14.7	3.01e-02	0	57	0	4815060992	36	13709
2026-01-24 00:37:44.92	243.29	10.64	-29.7	-29.6	14.6	3.18e-02	0	57	0	4924112896	31	13855
2026-01-24 00:37:45.93	243.51	10.70	-29.8	-29.6	14.6	3.18e-02	0	57	0	5049942016	31	13930
2026-01-24 00:37:46.94	243.74	10.76	-29.9	-29.8	14.6	3.31e-02	0	58	0	5167382528	31	14181
2026-01-24 00:37:47.95	243.96	10.82	-29.6	-29.5	14.7	3.31e-02	0	57	0	5276434432	31	13743
2026-01-24 00:37:48.96	244.18	10.88	-29.6	-29.5	14.8	3.11e-02	0	57	0	5385486336	31	13633
2026-01-24 00:37:49.97	244.41	10.94	-29.7	-29.6	14.8	3.11e-02	0	57	0	5502926848	31	13851
2026-01-24 00:37:50.97	244.63	10.99	-29.5	-29.4	14.8	3.11e-02	0	57	0	5611978752	31	13585
2026-01-24 00:37:51.98	244.86	11.05	-29.6	-29.5	14.8	2.62e-02	0	58	0	5729419264	31	13699
2026-01-24 00:37:52.99	245.09	11.11	-29.6	-29.5	14.8	2.62e-02	0	57	0	5838471168	31	13733
2026-01-24 00:37:54.00	245.31	11.17	-29.5	-29.4	14.8	2.62e-02	0	57	0	5955911680	31	13574
2026-01-24 00:37:55.01	245.54	11.23	-29.6	-29.5	14.8	2.37e-02	0	57	0	6064963584	31	13643
2026-01-24 00:37:56.02	245.78	11.29	-29.5	-29.3	14.8	2.37e-02	0	58	0	6174015488	30	14250
2026-01-24 00:37:57.03	246.01	11.34	-29.5	-29.4	14.7	2.37e-02	0	58	0	6299844608	30	14281
2026-01-24 00:37:58.03	246.24	11.40	-29.6	-29.4	14.7	2.33e-02	0	58	0	6408896512	30	14396
2026-01-24 00:37:59.04	246.47	11.46	-29.7	-29.5	14.6	2.33e-02	0	58	0	6526337024	30	14563
2026-01-24 00:38:00.05	246.71	11.52	-29.6	-29.4	14.6	2.33e-02	0	58	0	6635388928	30	14428
2026-01-24 00:38:01.06	246.95	11.57	-29.4	-29.3	14.7	2.25e-02	0	58	0	6752829440	30	14173
2026-01-24 00:38:02.07	247.18	11.63	-29.5	-29.4	14.6	2.25e-02	0	58	0	6861881344	30	14358
2026-01-24 00:38:03.08	247.42	11.69	-29.5	-29.3	14.7	2.25e-02	0	58	0	6979321856	30	14241
2026-01-24 00:38:04.09	247.66	11.74	-29.3	-29.2	14.7	2.01e-02	0	58	0	7088373760	30	13990
2026-01-24 00:38:05.10	247.90	11.80	-29.3	-29.2	14.7	2.01e-02	0	58	0	7197425664	30	14018
2026-01-24 00:38:06.10	248.14	11.86	-29.3	-29.2	14.6	2.01e-02	0	58	0	7314866176	30	13998
2026-01-24 00:38:07.11	248.38	11.91	-29.5	-29.3	14.6	2.01e-02	0	58	0	7423918080	30	14247
2026-01-24 00:38:08.12	248.63	11.97	-29.5	-29.4	14.6	1.83e-02	0	58	0	7541358592	30	14279
2026-01-24 00:38:09.13	248.87	12.02	-29.4	-29.3	14.6	1.83e-02	0	58	0	7658799104	30	14159
2026-01-24 00:38:10.14	249.12	12.08	-29.4	-29.2	14.6	1.83e-02	0	58	0	7776239616	30	14083
2026-01-24 00:38:11.15	249.37	12.13	-29.3	-29.2	14.6	1.86e-02	0	58	0	7885291520	30	14067
2026-01-24 00:38:12.16	249.62	12.19	-29.2	-29.1	14.5	1.86e-02	0	58	0	8002732032	30	13909
2026-01-24 00:38:13.17	249.87	12.24	-29.5	-29.4	14.5	1.76e-02	0	58	0	8111783936	30	14348
2026-01-24 00:38:14.17	250.11	12.29	-29.6	-29.5	14.5	1.76e-02	0	58	0	8220835840	30	14542
2026-01-24 00:38:15.18	250.36	12.35	-29.5	-29.4	14.5	1.76e-02	0	58	0	8338276352	30	14317
2026-01-24 00:38:16.19	250.62	12.40	-29.5	-29.4	14.5	1.83e-02	0	58	0	8447328256	30	14321
2026-01-24 00:38:17.20	250.87	12.46	-29.2	-29.1	14.5	1.83e-02	0	58	0	8564768768	30	13843
2026-01-24 00:38:18.21	251.13	12.51	-29.3	-29.2	14.5	1.83e-02	0	58	0	8673820672	30	13974
2026-01-24 00:38:19.21	251.38	12.56	-29.3	-29.2	14.5	1.62e-02	0	58	0	8782872576	30	14043
2026-01-24 00:38:20.22	251.64	12.61	-29.3	-29.2	14.5	1.62e-02	0	58	0	8900313088	30	14050
2026-01-24 00:38:21.23	251.89	12.66	-29.2	-29.1	14.5	1.71e-02	0	58	0	9026142208	30	13903
2026-01-24 00:38:22.24	252.15	12.72	-29.3	-29.2	14.4	1.71e-02	0	58	0	9135194112	30	13963
2026-01-24 00:38:23.25	252.41	12.77	-29.4	-29.2	14.4	1.71e-02	0	58	0	9244246016	30	14080
2026-01-24 00:38:24.25	252.67	12.82	-29.4	-29.3	14.3	1.71e-02	0	58	0	9361686528	30	14188
2026-01-24 00:38:25.26	252.93	12.87	-29.2	-29.1	14.4	1.71e-02	0	58	0	9470738432	30	13812
2026-01-24 00:38:26.27	253.20	12.92	-29.3	-29.2	14.4	1.81e-02	0	58	0	9588178944	30	13973
2026-01-24 00:38:27.28	253.46	12.97	-29.3	-29.2	14.4	1.81e-02	0	58	0	9697230848	30	14052
2026-01-24 00:38:28.29	253.73	13.02	-29.3	-29.2	14.3	1.81e-02	0	58	0	9806282752	30	14014
2026-01-24 00:38:29.30	253.99	13.07	-29.4	-29.3	14.4	1.81e-02	0	58	0	9923723264	30	14125
2026-01-24 00:38:30.31	254.26	13.12	-29.2	-29.1	14.4	1.71e-02	0	58	0	10032775168	30	13883
2026-01-24 00:38:31.32	254.53	13.16	-29.3	-29.1	14.3	1.71e-02	0	58	0	10150215680	30	13947
2026-01-24 00:38:32.33	254.80	13.21	-29.4	-29.3	14.4	1.71e-02	0	58	0	10267656192	30	14160
2026-01-24 00:38:33.33	255.06	13.26	-29.4	-29.3	14.4	1.77e-02	0	59	0	10385096704	30	14124
2026-01-24 00:38:34.34	255.34	13.31	-29.3	-29.2	14.4	1.77e-02	0	58	0	10494148608	30	14002
2026-01-24 00:38:35.35	255.61	13.35	-29.3	-29.1	14.5	1.77e-02	0	58	0	10611589120	30	13925
2026-01-24 00:38:36.36	255.88	13.40	-29.4	-29.2	14.4	1.64e-02	0	58	0	10720641024	30	14099
2026-01-24 00:38:37.37	256.16	13.44	-29.3	-29.2	14.4	1.64e-02	0	58	0	10838081536	30	14001
2026-01-24 00:38:38.38	256.43	13.49	-29.3	-29.1	14.4	1.64e-02	0	58	0	10947133440	30	13904
2026-01-24 00:38:39.39	256.71	13.54	-29.3	-29.2	14.4	1.59e-02	0	58	0	11056185344	30	14037
2026-01-24 00:38:40.40	256.98	13.58	-29.2	-29.1	14.4	1.59e-02	0	58	0	11173625856	30	13901
2026-01-24 00:38:41.41	257.26	13.62	-29.2	-29.1	14.4	1.59e-02	0	59	0	11282677760	30	13813
2026-01-24 00:38:42.41	257.54	13.67	-29.2	-29.0	14.4	1.52e-02	0	58	0	11400118272	30	13757
2026-01-24 00:38:43.42	257.82	13.71	-29.2	-29.1	14.4	1.52e-02	0	58	0	11509170176	30	13804
2026-01-24 00:38:44.43	258.10	13.75	-29.3	-29.2	14.4	1.38e-02	0	58	0	11634999296	30	13988
2026-01-24 00:38:45.44	258.38	13.80	-29.5	-29.3	14.4	1.38e-02	0	58	0	11744051200	30	14246
2026-01-24 00:38:46.45	258.66	13.84	-29.4	-29.2	14.3	1.55e-02	0	58	0	11861491712	30	14097
2026-01-24 00:38:47.45	258.94	13.88	-29.3	-29.2	14.4	1.55e-02	0	58	0	11970543616	30	14050
2026-01-24 00:38:48.46	259.23	13.92	-29.2	-29.0	14.4	1.55e-02	0	58	0	12079595520	30	13788
2026-01-24 00:38:49.47	259.51	13.96	-29.2	-29.1	14.4	1.55e-02	0	59	0	12197036032	30	13831
2026-01-24 00:38:50.48	259.80	14.00	-29.0	-28.9	14.4	1.48e-02	0	59	0	12306087936	30	13500
2026-01-24 00:38:51.49	260.09	14.04	-29.1	-28.9	14.4	1.48e-02	0	58	0	12423528448	30	13602
2026-01-24 00:38:52.50	260.38	14.08	-28.9	-28.8	14.4	1.32e-02	0	59	0	12532580352	29	14214
2026-01-24 00:38:53.50	260.66	14.12	-29.3	-29.2	14.3	1.32e-02	0	59	0	12641632256	29	14809
2026-01-24 00:38:54.51	260.95	14.15	-29.2	-29.1	14.4	1.32e-02	0	58	0	12759072768	29	14673
2026-01-24 00:38:55.52	261.24	14.19	-29.3	-29.1	14.4	1.47e-02	0	58	0	12868124672	29	14762
2026-01-24 00:38:56.53	261.53	14.23	-28.9	-28.8	14.4	1.47e-02	0	58	0	12993953792	29	14230
2026-01-24 00:38:57.54	261.83	14.27	-29.0	-28.9	14.4	1.47e-02	0	59	0	13103005696	29	14280
2026-01-24 00:38:58.55	262.12	14.30	-29.2	-29.1	14.4	1.47e-02	0	58	0	13220446208	29	14654
2026-01-24 00:38:59.55	262.41	14.34	-29.2	-29.1	14.4	1.47e-02	0	59	0	13329498112	29	14694
2026-01-24 00:39:00.56	262.71	14.37	-28.9	-28.8	14.4	1.47e-02	0	59	0	13446938624	29	14201
2026-01-24 00:39:01.57	263.00	14.40	-29.1	-29.0	14.3	1.55e-02	0	58	0	13555990528	29	14485
2026-01-24 00:39:02.58	263.30	14.44	-28.8	-28.7	14.4	1.55e-02	0	59	0	13665042432	29	14030
2026-01-24 00:39:03.59	263.60	14.47	-29.1	-29.0	14.4	1.46e-02	0	59	0	13782482944	29	14522
2026-01-24 00:39:04.60	263.89	14.50	-29.1	-29.0	14.4	1.46e-02	0	59	0	13891534848	29	14508
2026-01-24 00:39:05.61	264.19	14.54	-29.1	-29.0	14.4	1.46e-02	0	58	0	14008975360	29	14511
2026-01-24 00:39:06.61	264.49	14.57	-28.9	-28.8	14.4	1.50e-02	0	59	0	14118027264	29	14218
2026-01-24 00:39:07.62	264.79	14.60	-29.1	-29.0	14.3	1.50e-02	0	59	0	14235467776	29	14457
2026-01-24 00:39:08.63	265.09	14.63	-29.3	-29.2	14.3	1.50e-02	0	59	0	14352908288	29	14841
2026-01-24 00:39:09.64	265.39	14.66	-29.1	-29.0	14.4	1.51e-02	0	59	0	14470348800	29	14443
2026-01-24 00:39:10.65	265.69	14.68	-29.2	-29.0	14.4	1.51e-02	0	59	0	14579400704	29	14605
2026-01-24 00:39:11.66	265.99	14.71	-29.1	-29.0	14.4	1.47e-02	0	59	0	14696841216	29	14460
2026-01-24 00:39:12.67	266.30	14.74	-29.0	-28.9	14.4	1.47e-02	0	59	0	14805893120	29	14276
2026-01-24 00:39:13.68	266.60	14.77	-29.4	-29.3	14.3	1.47e-02	0	59	0	14914945024	29	14951
2026-01-24 00:39:14.69	266.91	14.79	-29.2	-29.1	14.4	1.47e-02	0	59	0	15032385536	29	14715
2026-01-24 00:39:15.69	267.21	14.82	-29.5	-29.4	14.4	1.54e-02	0	59	0	15141437440	30	14319
2026-01-24 00:39:16.70	267.51	14.84	-29.7	-29.6	14.5	1.54e-02	0	59	0	15258877952	30	14614
2026-01-24 00:39:17.71	267.82	14.87	-29.5	-29.4	14.4	1.67e-02	0	59	0	15367929856	30	14344
2026-01-24 00:39:18.72	268.13	14.89	-29.0	-28.9	14.5	1.67e-02	0	59	0	15476981760	30	13504
2026-01-24 00:39:19.73	268.43	14.92	-29.1	-29.0	14.4	1.67e-02	0	59	0	15602810880	29	14443
2026-01-24 00:39:20.74	268.74	14.94	-29.1	-28.9	14.4	1.32e-02	0	59	0	15720251392	29	14409
2026-01-24 00:39:21.75	269.05	14.96	-28.9	-28.8	14.5	1.32e-02	0	59	0	15829303296	29	14159
2026-01-24 00:39:22.75	269.36	14.98	-29.0	-28.8	14.5	1.32e-02	0	59	0	15938355200	29	14269
2026-01-24 00:39:23.76	269.67	15.00	-29.1	-28.9	14.4	1.32e-02	0	59	0	16055795712	29	14397
2026-01-24 00:39:24.77	269.98	15.02	-29.3	-29.2	14.4	1.32e-02	0	59	0	16164847616	29	14794
2026-01-24 00:39:25.78	270.29	15.04	-29.4	-29.3	14.4	1.32e-02	0	59	0	16282288128	29	15030
2026-01-24 00:39:26.79	270.60	15.06	-29.7	-29.6	14.5	1.50e-02	0	58	0	16391340032	30	14702
2026-01-24 00:39:27.79	270.91	15.07	-29.7	-29.6	14.5	1.50e-02	0	59	0	16500391936	30	14723
2026-01-24 00:39:28.80	271.22	15.09	-28.8	-28.7	14.6	1.50e-02	0	59	0	16617832448	29	14054
2026-01-24 00:39:29.81	271.53	15.11	-29.6	-29.4	14.4	1.37e-02	0	59	0	16726884352	29	15276
2026-01-24 00:39:30.82	271.84	15.12	-29.7	-29.6	14.4	1.37e-02	0	59	0	16844324864	29	15483
2026-01-24 00:39:31.83	272.15	15.14	-29.3	-29.1	14.4	1.37e-02	0	59	0	16961765376	29	14765
2026-01-24 00:39:32.84	272.47	15.15	-28.9	-28.8	14.3	1.42e-02	0	59	0	17079205888	29	14150
2026-01-24 00:39:33.84	272.78	15.17	-29.0	-28.9	14.4	1.42e-02	0	59	0	17188257792	29	14381
2026-01-24 00:39:34.85	273.09	15.18	-30.0	-29.9	14.4	1.42e-02	0	59	0	17305698304	30	15157
2026-01-24 00:39:35.86	273.41	15.19	-29.4	-29.3	14.5	1.50e-02	0	59	0	17414750208	30	14122
2026-01-24 00:39:36.87	273.72	15.20	-28.9	-28.8	14.5	1.50e-02	0	59	0	17523802112	29	14225
2026-01-24 00:39:37.87	274.03	15.21	-29.0	-28.9	14.4	1.50e-02	0	59	0	17641242624	29	14364
2026-01-24 00:39:38.88	274.35	15.22	-29.3	-29.2	14.4	1.36e-02	0	59	0	17750294528	29	14872
2026-01-24 00:39:39.89	274.66	15.23	-29.5	-29.3	14.4	1.36e-02	0	59	0	17867735040	29	15082
2026-01-24 00:39:40.90	274.98	15.24	-29.3	-29.1	14.5	1.62e-02	0	59	0	17976786944	29	14763
2026-01-24 00:39:41.91	275.29	15.25	-28.7	-28.5	14.4	1.62e-02	0	59	0	18094227456	29	13775
2026-01-24 00:39:42.92	275.61	15.26	-28.8	-28.7	14.4	1.62e-02	0	59	0	18203279360	29	14027
2026-01-24 00:39:43.93	275.92	15.26	-28.8	-28.6	14.4	1.31e-02	0	59	0	18329108480	29	13946
2026-01-24 00:39:44.93	276.24	15.27	-29.0	-28.8	14.4	1.31e-02	0	59	0	18438160384	29	14264
2026-01-24 00:39:45.94	276.55	15.27	-28.9	-28.7	14.4	1.31e-02	0	59	0	18555600896	29	14088
2026-01-24 00:39:46.95	276.87	15.28	-28.8	-28.7	14.5	1.35e-02	0	59	0	18664652800	29	14016
2026-01-24 00:39:47.96	277.18	15.28	-28.8	-28.6	14.5	1.35e-02	0	59	0	18773704704	29	13905
2026-01-24 00:39:48.97	277.50	15.28	-28.7	-28.6	14.4	1.35e-02	0	59	0	18891145216	29	13869
2026-01-24 00:39:49.97	277.81	15.28	-28.8	-28.7	14.3	1.35e-02	0	59	0	19000197120	29	13979
2026-01-24 00:39:50.98	278.13	15.29	-28.7	-28.6	14.3	1.24e-02	0	59	0	19117637632	29	13819
2026-01-24 00:39:51.99	278.45	15.29	-28.7	-28.6	14.3	1.24e-02	0	59	0	19226689536	29	13842
2026-01-24 00:39:53.00	278.76	15.29	-28.8	-28.7	14.3	1.29e-02	0	59	0	19335741440	29	13997
2026-01-24 00:39:54.01	279.08	15.28	-28.9	-28.8	14.4	1.29e-02	0	59	0	19453181952	29	14119
2026-01-24 00:39:55.01	279.39	15.28	-29.0	-28.9	14.5	1.29e-02	0	59	0	19562233856	29	14300
2026-01-24 00:39:56.02	279.71	15.28	-28.9	-28.8	14.4	1.30e-02	0	59	0	19679674368	29	14119
2026-01-24 00:39:57.03	280.02	15.28	-29.0	-28.9	14.4	1.30e-02	0	59	0	19797114880	29	14299
2026-01-24 00:39:58.04	280.34	15.27	-28.8	-28.6	14.3	1.30e-02	0	59	0	19914555392	29	13890
2026-01-24 00:39:59.05	280.66	15.27	-28.9	-28.7	14.4	1.16e-02	0	59	0	20023607296	29	14075
2026-01-24 00:40:00.06	280.97	15.26	-28.7	-28.6	14.3	1.16e-02	0	59	0	20141047808	29	13876
2026-01-24 00:40:01.07	281.29	15.26	-29.1	-29.0	14.3	1.19e-02	0	59	0	20250099712	29	14536
2026-01-24 00:40:02.07	281.60	15.25	-29.0	-28.8	14.4	1.19e-02	0	59	0	20359151616	29	14247
2026-01-24 00:40:03.08	281.91	15.24	-29.1	-29.0	14.4	1.19e-02	0	59	0	20476592128	29	14463
2026-01-24 00:40:04.09	282.23	15.23	-29.2	-29.0	14.4	1.21e-02	0	59	0	20585644032	29	14544
2026-01-24 00:40:05.10	282.54	15.23	-28.8	-28.7	14.5	1.21e-02	0	59	0	20703084544	29	14005
2026-01-24 00:40:06.11	282.86	15.22	-29.1	-29.0	14.4	1.21e-02	0	59	0	20812136448	29	14533
2026-01-24 00:40:07.12	283.17	15.21	-28.8	-28.7	14.5	1.18e-02	0	59	0	20929576960	29	14027
2026-01-24 00:40:08.13	283.49	15.19	-29.1	-29.0	14.5	1.18e-02	0	59	0	21047017472	29	14507
2026-01-24 00:40:09.13	283.80	15.18	-29.2	-29.1	14.4	1.18e-02	0	59	0	21164457984	29	14703
2026-01-24 00:40:10.14	284.11	15.17	-29.1	-28.9	14.4	1.15e-02	0	59	0	21273509888	29	14416
2026-01-24 00:40:11.15	284.42	15.16	-29.0	-28.8	14.4	1.15e-02	0	59	0	21382561792	29	14234
2026-01-24 00:40:12.16	284.74	15.14	-29.1	-28.9	14.4	1.15e-02	0	59	0	21500002304	29	14395
2026-01-24 00:40:13.17	285.05	15.13	-28.8	-28.7	14.4	1.17e-02	0	59	0	21609054208	29	13978
2026-01-24 00:40:14.17	285.36	15.11	-29.1	-29.0	14.3	1.17e-02	0	59	0	21726494720	29	14447
2026-01-24 00:40:15.18	285.67	15.10	-29.0	-28.9	14.3	1.24e-02	0	59	0	21835546624	29	14377
2026-01-24 00:40:16.19	285.98	15.08	-29.2	-29.0	14.4	1.24e-02	0	59	0	21952987136	29	14577
2026-01-24 00:40:17.20	286.29	15.06	-29.1	-29.0	14.5	1.24e-02	0	59	0	22062039040	29	14531
2026-01-24 00:40:18.21	286.60	15.05	-28.9	-28.8	14.4	1.26e-02	0	59	0	22171090944	29	14182
2026-01-24 00:40:19.21	286.91	15.03	-28.9	-28.8	14.4	1.26e-02	0	59	0	22288531456	29	14171
2026-01-24 00:40:20.22	287.22	15.01	-29.1	-29.0	14.3	1.26e-02	0	59	0	22397583360	29	14460
2026-01-24 00:40:21.23	287.53	14.99	-29.2	-29.1	14.4	1.27e-02	0	59	0	22523412480	29	14702
2026-01-24 00:40:22.24	287.84	14.97	-29.0	-28.8	14.3	1.27e-02	0	59	0	22632464384	29	14264
2026-01-24 00:40:23.24	288.14	14.95	-28.9	-28.8	14.4	1.27e-02	0	59	0	22749904896	29	14211
2026-01-24 00:40:24.25	288.45	14.92	-29.2	-29.1	14.3	1.27e-02	0	59	0	22858956800	29	14743
2026-01-24 00:40:25.26	288.76	14.90	-29.1	-29.0	14.4	1.27e-02	0	59	0	22976397312	29	14482
2026-01-24 00:40:26.27	289.06	14.88	-29.2	-29.1	14.3	1.27e-02	0	59	0	23085449216	29	14666
2026-01-24 00:40:27.28	289.37	14.85	-29.1	-29.0	14.4	1.32e-02	0	59	0	23194501120	29	14449
2026-01-24 00:40:28.29	289.68	14.83	-29.1	-28.9	14.5	1.32e-02	0	59	0	23311941632	29	14435
2026-01-24 00:40:29.30	289.98	14.80	-29.2	-29.1	14.5	1.32e-02	0	59	0	23420993536	29	14705
2026-01-24 00:40:30.31	290.28	14.78	-29.0	-28.9	14.5	1.30e-02	0	59	0	23538434048	29	14309
2026-01-24 00:40:31.32	290.59	14.75	-29.0	-28.9	14.4	1.30e-02	0	59	0	23647485952	29	14383
2026-01-24 00:40:32.33	290.89	14.72	-29.2	-29.1	14.5	1.30e-02	0	59	0	23773315072	29	14608
2026-01-24 00:40:33.34	291.19	14.70	-29.0	-28.8	14.4	1.27e-02	0	59	0	23882366976	29	14250
2026-01-24 00:40:34.34	291.49	14.67	-29.0	-28.9	14.3	1.27e-02	0	59	0	23999807488	29	14320
2026-01-24 00:40:35.35	291.79	14.64	-29.3	-29.2	14.4	1.27e-02	0	59	0	24108859392	29	14805
2026-01-24 00:40:36.36	292.09	14.61	-29.2	-29.1	14.4	1.22e-02	0	59	0	24217911296	29	14629
2026-01-24 00:40:37.37	292.39	14.58	-29.2	-29.1	14.5	1.22e-02	0	59	0	24335351808	29	14662
2026-01-24 00:40:38.38	292.69	14.55	-29.1	-28.9	14.5	1.22e-02	0	59	0	24444403712	29	14397
2026-01-24 00:40:39.38	292.98	14.52	-29.3	-29.2	14.4	1.23e-02	0	59	0	24561844224	29	14785
2026-01-24 00:40:40.39	293.28	14.48	-29.1	-29.0	14.4	1.23e-02	0	59	0	24670896128	29	14498
2026-01-24 00:40:41.40	293.58	14.45	-29.2	-29.0	14.5	1.23e-02	0	59	0	24779948032	29	14564
2026-01-24 00:40:42.41	293.87	14.42	-29.3	-29.1	14.5	1.21e-02	0	59	0	24897388544	29	14747
2026-01-24 00:40:43.42	294.17	14.38	-29.0	-28.8	14.5	1.21e-02	0	59	0	25006440448	29	14260
2026-01-24 00:40:44.43	294.46	14.35	-29.0	-28.9	14.5	1.21e-02	0	59	0	25132269568	29	14324
2026-01-24 00:40:45.43	294.75	14.32	-29.1	-29.0	14.4	1.23e-02	0	59	0	25241321472	29	14470
2026-01-24 00:40:46.44	295.05	14.28	-29.3	-29.1	14.4	1.23e-02	0	59	0	25358761984	29	14761
2026-01-24 00:40:47.45	295.34	14.24	-29.3	-29.2	14.4	1.23e-02	0	59	0	25467813888	29	14815
2026-01-24 00:40:48.46	295.63	14.21	-29.3	-29.2	14.4	1.35e-02	0	59	0	25585254400	29	14789
2026-01-24 00:40:49.47	295.92	14.17	-29.1	-29.0	14.3	1.35e-02	0	59	0	25694306304	29	14457
2026-01-24 00:40:50.47	296.21	14.13	-29.2	-29.1	14.3	1.35e-02	0	59	0	25811746816	29	14640
2026-01-24 00:40:51.48	296.49	14.10	-29.2	-29.1	14.3	1.21e-02	0	59	0	25920798720	29	14698
2026-01-24 00:40:52.49	296.78	14.06	-29.0	-28.9	14.3	1.21e-02	0	59	0	26029850624	29	14351
2026-01-24 00:40:53.50	297.07	14.02	-29.3	-29.2	14.3	1.21e-02	0	59	0	26147291136	29	14820
2026-01-24 00:40:54.51	297.35	13.98	-29.3	-29.2	14.4	1.21e-02	0	59	0	26256343040	29	14800
2026-01-24 00:40:55.51	297.64	13.94	-29.4	-29.3	14.4	1.36e-02	0	59	0	26373783552	29	14977
2026-01-24 00:40:56.52	297.92	13.90	-29.4	-29.2	14.4	1.36e-02	0	59	0	26482835456	29	14938
2026-01-24 00:40:57.53	298.20	13.86	-29.3	-29.1	14.4	1.36e-02	0	59	0	26608664576	29	14760
2026-01-24 00:40:58.54	298.48	13.82	-29.3	-29.1	14.4	1.36e-02	0	59	0	26717716480	29	14751
2026-01-24 00:40:59.55	298.77	13.77	-29.4	-29.3	14.4	1.39e-02	0	59	0	26835156992	29	14971
2026-01-24 00:41:00.55	299.04	13.73	-29.2	-29.1	14.5	1.39e-02	0	59	0	26944208896	29	14701
2026-01-24 00:41:01.56	299.32	13.69	-29.4	-29.3	14.4	1.39e-02	0	59	0	27053260800	29	15036
2026-01-24 00:41:02.57	299.60	13.64	-29.3	-29.2	14.5	1.43e-02	0	59	0	27170701312	29	14870
2026-01-24 00:41:03.57	299.88	13.60	-29.4	-29.3	14.4	1.43e-02	0	59	0	27279753216	29	15079
2026-01-24 00:41:04.58	300.15	13.56	-29.2	-29.1	14.4	1.43e-02	0	59	0	27397193728	29	14687
2026-01-24 00:41:05.59	300.43	13.51	-29.2	-29.1	14.4	1.41e-02	0	59	0	27506245632	29	14666
2026-01-24 00:41:06.60	300.70	13.47	-29.2	-29.0	14.4	1.41e-02	0	59	0	27615297536	29	14585
2026-01-24 00:41:07.61	300.98	13.42	-29.1	-29.0	14.5	1.42e-02	0	59	0	27732738048	29	14550
2026-01-24 00:41:08.62	301.25	13.38	-29.2	-29.1	14.4	1.42e-02	0	59	0	27841789952	29	14698
2026-01-24 00:41:09.62	301.52	13.33	-29.3	-29.2	14.4	1.42e-02	0	59	0	27959230464	29	14790
2026-01-24 00:41:10.63	301.79	13.28	-29.3	-29.2	14.4	1.42e-02	0	59	0	28076670976	29	14871
2026-01-24 00:41:11.64	302.06	13.24	-29.3	-29.2	14.4	1.47e-02	0	59	0	28194111488	29	14812
2026-01-24 00:41:12.64	302.32	13.19	-29.4	-29.2	14.4	1.47e-02	0	59	0	28303163392	29	14916
2026-01-24 00:41:13.65	302.59	13.14	-29.4	-29.3	14.4	1.31e-02	0	59	0	28420603904	29	14958
2026-01-24 00:41:14.66	302.86	13.09	-29.4	-29.2	14.4	1.31e-02	0	59	0	28529655808	29	14915
2026-01-24 00:41:15.67	303.12	13.04	-29.4	-29.3	14.3	1.31e-02	0	59	0	28638707712	29	14999
2026-01-24 00:41:16.68	303.39	12.99	-29.4	-29.3	14.3	1.31e-02	0	59	0	28756148224	29	15092
2026-01-24 00:41:17.69	303.65	12.95	-29.5	-29.3	14.3	1.27e-02	0	59	0	28865200128	29	15108
2026-01-24 00:41:18.69	303.91	12.90	-29.6	-29.4	14.3	1.27e-02	0	59	0	28982640640	29	15250
2026-01-24 00:41:19.70	304.17	12.85	-29.5	-29.4	14.3	1.40e-02	0	59	0	29091692544	29	15152
2026-01-24 00:41:20.71	304.43	12.80	-29.6	-29.4	14.4	1.40e-02	0	59	0	29209133056	29	15295
2026-01-24 00:41:21.72	304.69	12.74	-29.7	-29.6	14.4	1.40e-02	0	59	0	29318184960	29	15475
2026-01-24 00:41:22.73	304.95	12.69	-29.7	-29.5	14.5	1.43e-02	0	59	0	29444014080	29	15470
2026-01-24 00:41:23.73	305.20	12.64	-29.7	-29.5	14.5	1.43e-02	0	59	0	29553065984	29	15465
2026-01-24 00:41:24.74	305.46	12.59	-29.8	-29.7	14.5	1.48e-02	0	59	0	29670506496	30	14836
2026-01-24 00:41:25.75	305.71	12.54	-29.9	-29.8	14.6	1.48e-02	0	59	0	29779558400	30	15020
2026-01-24 00:41:26.76	305.97	12.49	-30.0	-29.9	14.6	1.50e-02	0	59	0	29888610304	30	15160
2026-01-24 00:41:27.77	306.22	12.43	-30.0	-29.9	14.7	1.50e-02	0	59	0	30006050816	30	15183
2026-01-24 00:41:28.77	306.47	12.38	-30.0	-29.9	14.8	1.50e-02	0	59	0	30115102720	30	15128
2026-01-24 00:41:29.78	306.72	12.33	-30.0	-29.9	14.7	1.57e-02	0	59	0	30232543232	30	15152
2026-01-24 00:41:30.79	306.97	12.27	-30.1	-30.0	14.7	1.57e-02	0	59	0	30341595136	30	15362
2026-01-24 00:41:31.80	307.22	12.22	-30.0	-29.9	14.7	1.57e-02	0	59	0	30450647040	30	15204
2026-01-24 00:41:32.81	307.47	12.17	-30.2	-30.0	14.6	1.97e-02	0	59	0	30568087552	30	15465
2026-01-24 00:41:33.81	307.71	12.11	-30.1	-30.0	14.6	1.97e-02	0	59	0	30677139456	30	15433
2026-01-24 00:41:34.82	307.96	12.06	-30.2	-30.0	14.5	1.97e-02	0	59	0	30794579968	30	15427
2026-01-24 00:41:35.83	308.20	12.00	-30.3	-30.2	14.5	2.15e-02	0	59	0	30912020480	31	14821
2026-01-24 00:41:36.83	308.44	11.95	-30.2	-30.0	14.5	2.15e-02	0	59	0	31029460992	31	14562
2026-01-24 00:41:37.84	308.69	11.89	-30.3	-30.1	14.4	2.15e-02	0	59	0	31138512896	31	14774
2026-01-24 00:41:38.84	308.92	11.84	-30.2	-30.1	14.5	2.15e-02	0	59	0	31255953408	31	14635
2026-01-24 00:41:39.85	309.16	11.78	-30.2	-30.1	14.5	2.28e-02	0	59	0	31365005312	31	14698
2026-01-24 00:41:40.85	309.40	11.73	-30.4	-30.3	14.5	2.28e-02	0	59	0	31474057216	31	15002
2026-01-24 00:41:41.86	309.64	11.67	-30.4	-30.3	14.5	2.28e-02	0	59	0	31591497728	31	15012
2026-01-24 00:41:42.87	309.88	11.61	-30.3	-30.2	14.5	2.24e-02	0	59	0	31700549632	31	14813
2026-01-24 00:41:43.88	310.11	11.56	-30.4	-30.3	14.5	2.24e-02	0	59	0	31817990144	31	14953
2026-01-24 00:41:44.89	310.35	11.50	-30.5	-30.4	14.4	2.24e-02	0	59	0	31927042048	31	15124
2026-01-24 00:41:45.90	310.58	11.44	-30.4	-30.3	14.5	2.29e-02	0	59	0	32044482560	31	15011
2026-01-24 00:41:46.90	310.81	11.39	-30.6	-30.5	14.6	2.29e-02	0	59	0	32153534464	31	15351
2026-01-24 00:41:47.91	311.04	11.33	-30.6	-30.5	14.6	2.48e-02	0	59	0	32262586368	31	15380
2026-01-24 00:41:48.92	311.27	11.27	-30.6	-30.5	14.6	2.48e-02	0	59	0	32380026880	31	15370
2026-01-24 00:41:49.93	311.50	11.21	-30.6	-30.5	14.7	2.48e-02	0	59	0	32497467392	32	14454
2026-01-24 00:41:50.93	311.73	11.16	-30.7	-30.6	14.6	2.53e-02	0	59	0	32614907904	32	14669
2026-01-24 00:41:51.94	311.96	11.10	-30.7	-30.6	14.6	2.53e-02	0	59	0	32723959808	32	14650
2026-01-24 00:41:52.95	312.18	11.04	-30.6	-30.5	14.6	2.53e-02	0	59	0	32841400320	32	14469
2026-01-24 00:41:53.96	312.41	10.98	-30.6	-30.5	14.6	2.81e-02	0	59	0	32950452224	32	14486
2026-01-24 00:41:54.97	312.63	10.92	-30.6	-30.5	14.6	2.81e-02	0	59	0	33067892736	32	14504
2026-01-24 00:41:55.98	312.85	10.86	-30.8	-30.7	14.6	2.81e-02	0	59	0	33176944640	32	14802
2026-01-24 00:41:56.99	313.08	10.81	-30.9	-30.8	14.5	2.74e-02	0	59	0	33285996544	32	14973
2026-01-24 00:41:57.99	313.30	10.75	-30.8	-30.7	14.6	2.74e-02	0	59	0	33403437056	32	14791
2026-01-24 00:41:59.00	313.52	10.69	-30.8	-30.7	14.6	2.74e-02	0	59	0	33512488960	32	14917
2026-01-24 00:42:00.01	313.73	10.63	-30.9	-30.8	14.5	2.77e-02	0	59	0	33629929472	32	14984
2026-01-24 00:42:01.02	313.95	10.57	-30.9	-30.8	14.6	2.77e-02	0	59	0	33738981376	32	15057
2026-01-24 00:42:02.03	314.17	10.51	-31.1	-30.9	14.5	2.77e-02	0	59	0	33864810496	32	15267
2026-01-24 00:42:03.03	314.38	10.45	-31.1	-31.0	14.5	2.77e-02	0	59	0	33973862400	32	15325
2026-01-24 00:42:04.04	314.60	10.39	-31.0	-30.9	14.5	2.80e-02	0	59	0	34091302912	32	15235
2026-01-24 00:42:05.05	314.81	10.33	-31.2	-31.1	14.5	2.80e-02	0	59	0	34200354816	33	14744
2026-01-24 00:42:06.06	315.02	10.27	-31.3	-31.2	14.5	3.07e-02	0	59	0	34309406720	33	14842
2026-01-24 00:42:07.07	315.24	10.21	-31.1	-31.0	14.5	3.07e-02	0	59	0	34426847232	33	14481
2026-01-24 00:42:08.07	315.44	10.15	-31.3	-31.2	14.4	3.07e-02	0	59	0	34535899136	33	14810
2026-01-24 00:42:09.08	315.65	10.09	-31.3	-31.1	14.5	3.45e-02	0	59	0	34653339648	33	14768
2026-01-24 00:42:10.09	315.86	10.03	-31.3	-31.2	14.4	3.45e-02	0	59	0	34762391552	33	14839
2026-01-24 00:42:11.10	316.07	9.97	-31.3	-31.2	14.4	3.45e-02	0	59	0	34871443456	33	14935
2026-01-24 00:42:12.11	316.28	9.91	-31.3	-31.2	14.4	3.55e-02	0	59	0	34988883968	33	14815
2026-01-24 00:42:13.11	316.48	9.85	-31.2	-31.1	14.6	3.55e-02	0	59	0	35097935872	33	14681
2026-01-24 00:42:14.12	316.68	9.79	-31.4	-31.3	14.5	3.55e-02	0	59	0	35215376384	33	15030
2026-01-24 00:42:15.13	316.89	9.73	-31.4	-31.3	14.6	3.58e-02	0	59	0	35332816896	33	15054
2026-01-24 00:42:16.14	317.09	9.66	-31.4	-31.3	14.6	3.58e-02	0	59	0	35450257408	33	15058
2026-01-24 00:42:17.15	317.29	9.60	-31.6	-31.5	14.7	3.58e-02	0	59	0	35559309312	33	15314
2026-01-24 00:42:18.15	317.49	9.54	-31.7	-31.6	14.7	3.35e-02	0	59	0	35676749824	34	14693
2026-01-24 00:42:19.16	317.69	9.48	-31.6	-31.4	14.7	3.35e-02	0	59	0	35785801728	34	14427
2026-01-24 00:42:20.17	317.89	9.42	-31.6	-31.4	14.7	3.35e-02	0	59	0	35894853632	34	14437
2026-01-24 00:42:21.18	318.08	9.36	-31.6	-31.5	14.6	3.02e-02	0	59	0	36012294144	34	14520
2026-01-24 00:42:22.18	318.28	9.30	-31.7	-31.6	14.6	3.02e-02	0	59	0	36121346048	34	14648
2026-01-24 00:42:23.19	318.47	9.24	-31.7	-31.5	14.7	3.02e-02	0	59	0	36238786560	34	14586
2026-01-24 00:42:24.20	318.67	9.17	-31.8	-31.7	14.7	3.08e-02	0	59	0	36347838464	34	14905
2026-01-24 00:42:25.21	318.86	9.11	-32.0	-31.9	14.7	3.08e-02	0	59	0	36465278976	34	15142
2026-01-24 00:42:26.22	319.06	9.05	-31.9	-31.8	14.7	3.08e-02	0	59	0	36574330880	34	15107
2026-01-24 00:42:27.22	319.25	8.99	-31.8	-31.7	14.7	3.00e-02	0	59	0	36700160000	34	14875
2026-01-24 00:42:28.23	319.44	8.93	-31.8	-31.7	14.6	3.00e-02	0	59	0	36809211904	34	14809
2026-01-24 00:42:29.24	319.63	8.87	-31.8	-31.7	14.6	3.00e-02	0	59	0	36926652416	34	14817
2026-01-24 00:42:30.25	319.81	8.81	-31.8	-31.7	14.6	2.57e-02	0	59	0	37035704320	34	14868
2026-01-24 00:42:31.25	320.00	8.74	-32.0	-31.9	14.7	2.57e-02	0	59	0	37144756224	34	15140
2026-01-24 00:42:32.26	320.19	8.68	-32.1	-32.0	14.6	2.76e-02	0	59	0	37262196736	34	15306
2026-01-24 00:42:33.27	320.37	8.62	-32.0	-31.9	14.7	2.76e-02	0	59	0	37371248640	34	15293
2026-01-24 00:42:34.28	320.56	8.56	-32.0	-31.9	14.7	2.76e-02	0	59	0	37488689152	34	15191
2026-01-24 00:42:35.28	320.74	8.50	-32.0	-31.9	14.7	3.13e-02	0	59	0	37597741056	34	15267
2026-01-24 00:42:36.29	320.92	8.44	-32.1	-32.0	14.6	3.13e-02	0	59	0	37706792960	34	15439
2026-01-24 00:42:37.30	321.11	8.37	-32.1	-32.0	14.7	3.30e-02	0	59	0	37824233472	34	15454
2026-01-24 00:42:38.31	321.29	8.31	-32.0	-31.9	14.7	3.30e-02	0	59	0	37933285376	34	15243
2026-01-24 00:42:39.32	321.47	8.25	-32.2	-32.1	14.6	3.30e-02	0	59	0	38050725888	34	15529
2026-01-24 00:42:40.33	321.65	8.19	-32.3	-32.2	14.6	3.33e-02	0	59	0	38168166400	35	14824
2026-01-24 00:42:41.33	321.82	8.13	-32.2	-32.1	14.6	3.33e-02	0	59	0	38285606912	35	14758
2026-01-24 00:42:42.34	322.00	8.06	-32.4	-32.3	14.7	3.33e-02	0	59	0	38394658816	35	15055
2026-01-24 00:42:43.35	322.18	8.00	-32.4	-32.3	14.7	3.33e-02	0	59	0	38512099328	35	15009
2026-01-24 00:42:44.36	322.35	7.94	-32.6	-32.4	14.7	3.25e-02	0	59	0	38621151232	35	15294
2026-01-24 00:42:45.36	322.53	7.88	-32.6	-32.5	14.7	3.25e-02	0	59	0	38730203136	35	15419
2026-01-24 00:42:46.37	322.70	7.82	-32.3	-32.2	14.8	3.08e-02	0	59	0	38847643648	35	14897
2026-01-24 00:42:47.38	322.87	7.76	-32.5	-32.4	14.7	3.08e-02	0	59	0	38956695552	35	15264
2026-01-24 00:42:48.39	323.05	7.69	-32.5	-32.4	14.9	3.08e-02	0	59	0	39074136064	35	15279
2026-01-24 00:42:49.40	323.22	7.63	-35.2	-35.1	14.7	3.01e-02	0	59	0	39183187968	41	14677
2026-01-24 00:42:50.41	323.39	7.57	-35.1	-35.0	14.6	3.01e-02	0	59	0	39292239872	41	14510
2026-01-24 00:42:51.41	323.56	7.51	-50.1	-51.2	6.8	3.01e-02	0	58	104	39392903168	70	17623
2026-01-24 00:42:52.42	323.73	7.45	-52.9	-55.2	6.2	3.05e-02	0	57	104	39392903168	76	19778
2026-01-24 00:42:53.43	323.89	7.38	-52.9	-55.1	6.2	3.05e-02	0	57	104	39392903168	76	19670
2026-01-24 00:42:54.44	324.06	7.32	-53.0	-55.1	6.2	3.05e-02	0	58	104	39392903168	76	19681
2026-01-24 00:42:55.45	324.23	7.26	-53.0	-55.1	6.2	3.05e-02	0	57	104	39392903168	76	19687
2026-01-24 00:42:56.45	324.39	7.20	-53.0	-55.1	6.2	3.05e-02	0	57	104	39392903168	76	19562
2026-01-24 00:42:57.46	324.56	7.14	-53.0	-55.1	6.2	3.05e-02	0	57	104	39392903168	76	19642
2026-01-24 00:42:58.47	324.72	7.08	-53.0	-55.1	6.2	3.05e-02	0	57	104	39392903168	76	19675
2026-01-24 00:42:59.47	324.88	7.02	-53.0	-55.1	6.2	0.00e+00	0	57	104	39392903168	76	19616
2026-01-24 00:43:00.48	325.04	6.95	-53.0	-55.1	6.2	0.00e+00	0	57	104	39392903168	76	19521
2026-01-24 00:43:01.49	325.20	6.89	-53.0	-55.1	6.2	0.00e+00	0	57	104	39392903168	76	19616
2026-01-24 00:43:02.50	325.36	6.83	-53.0	-55.1	6.2	0.00e+00	0	57	104	39392903168	76	19643
2026-01-24 00:43:03.51	325.52	6.77	-52.9	-55.1	6.2	0.00e+00	0	57	104	39392903168	76	19512
2026-01-24 00:43:04.52	325.68	6.71	-52.9	-55.0	6.2	0.00e+00	0	57	104	39392903168	76	19478
2026-01-24 00:43:05.52	325.84	6.65	-52.9	-55.0	6.2	0.00e+00	0	57	104	39392903168	76	19464
2026-01-24 00:43:06.53	326.00	6.58	-52.9	-55.0	6.2	0.00e+00	0	57	104	39392903168	76	19459
2026-01-24 00:43:07.54	326.15	6.52	-52.9	-55.0	6.2	0.00e+00	0	57	104	39392903168	76	19446
2026-01-24 00:43:08.54	326.31	6.46	-52.9	-55.0	6.2	0.00e+00	0	57	104	39392903168	76	19429
2026-01-24 00:43:09.55	326.46	6.40	-52.9	-55.1	6.2	0.00e+00	0	57	104	39392903168	76	19518
2026-01-24 00:43:10.56	326.62	6.34	-52.9	-55.0	6.2	0.00e+00	0	57	104	39392903168	76	19426
2026-01-24 00:43:11.57	326.77	6.28	-52.9	-55.0	6.2	0.00e+00	0	57	104	39392903168	76	19325
2026-01-24 00:43:12.58	326.92	6.22	-52.9	-55.0	6.2	0.00e+00	0	57	104	39392903168	76	19315
2026-01-24 00:43:13.58	327.07	6.16	-52.9	-55.0	6.2	0.00e+00	0	56	104	39392903168	76	19392
2026-01-24 00:43:14.59	327.22	6.10	-52.8	-55.0	6.2	0.00e+00	0	56	104	39392903168	76	19297
2026-01-24 00:43:15.60	327.37	6.03	-52.8	-55.0	6.2	0.00e+00	0	56	104	39392903168	76	19300
2026-01-24 00:43:16.61	327.52	5.97	-52.8	-54.9	6.2	0.00e+00	0	57	104	39392903168	76	19147
2026-01-24 00:43:17.62	327.67	5.91	-52.8	-54.9	6.2	0.00e+00	0	57	104	39392903168	76	19246
2026-01-24 00:43:18.63	327.82	5.85	-52.8	-54.9	6.2	0.00e+00	0	57	104	39392903168	76	19116
2026-01-24 00:43:19.63	327.97	5.79	-52.8	-54.9	6.2	0.00e+00	0	56	104	39392903168	76	19064
2026-01-24 00:43:20.64	328.11	5.73	-52.8	-54.9	6.2	0.00e+00	0	56	104	39392903168	76	19049
2026-01-24 00:43:21.65	328.26	5.67	-52.8	-55.0	6.2	0.00e+00	0	56	104	39392903168	76	19261
2026-01-24 00:43:22.66	328.40	5.61	-52.7	-54.9	6.2	0.00e+00	0	56	104	39392903168	76	19093
2026-01-24 00:43:23.67	328.55	5.55	-52.7	-54.9	6.2	0.00e+00	0	56	104	39392903168	76	19083
2026-01-24 00:43:24.67	328.69	5.49	-52.7	-54.8	6.2	0.00e+00	0	56	104	39392903168	76	18935
2026-01-24 00:43:25.68	328.83	5.43	-52.8	-54.9	6.2	0.00e+00	0	56	104	39392903168	76	19152
2026-01-24 00:43:26.69	328.98	5.37	-52.7	-54.8	6.2	0.00e+00	0	56	104	39392903168	76	18922
2026-01-24 00:43:27.70	329.12	5.31	-52.7	-54.8	6.2	0.00e+00	0	56	104	39392903168	76	18960
2026-01-24 00:43:28.71	329.26	5.25	-52.6	-54.7	6.2	0.00e+00	0	56	104	39392903168	76	18732
2026-01-24 00:43:29.72	329.40	5.19	-52.7	-54.8	6.2	0.00e+00	0	56	104	39392903168	76	18937
2026-01-24 00:43:30.73	329.54	5.13	-52.6	-54.7	6.2	0.00e+00	0	56	104	39392903168	76	18762
2026-01-24 00:43:31.73	329.67	5.07	-52.6	-54.7	6.2	0.00e+00	0	56	104	39392903168	76	18782
2026-01-24 00:43:32.74	329.81	5.01	-52.8	-54.9	6.2	0.00e+00	0	56	104	39392903168	76	19086
2026-01-24 00:43:33.75	329.95	4.95	-53.2	-55.3	6.2	0.00e+00	0	56	104	39392903168	77	19009
2026-01-24 00:43:34.76	330.09	4.89	-53.6	-55.6	6.2	0.00e+00	0	56	104	39392903168	77	19698
2026-01-24 00:43:35.77	330.22	4.83	-53.8	-55.9	6.2	0.00e+00	0	56	104	39392903168	78	19115
2026-01-24 00:43:36.78	330.36	4.77	-54.0	-56.0	6.2	0.00e+00	0	56	104	39392903168	78	19429
2026-01-24 00:43:37.78	330.49	4.71	-54.1	-56.2	6.2	0.00e+00	0	56	104	39392903168	78	19796
2026-01-24 00:43:38.79	330.63	4.65	-54.2	-56.3	6.2	0.00e+00	0	56	104	39392903168	78	20094
2026-01-24 00:43:39.79	330.76	4.59	-54.3	-56.4	6.2	0.00e+00	0	56	104	39392903168	79	19120
2026-01-24 00:43:40.80	330.89	4.53	-54.4	-56.5	6.2	0.00e+00	0	56	104	39392903168	79	19470
2026-01-24 00:43:41.81	331.02	4.47	-54.5	-56.5	6.2	0.00e+00	0	56	104	39392903168	79	19472
2026-01-24 00:43:42.82	331.15	4.41	-54.5	-56.6	6.2	0.00e+00	0	56	104	39392903168	79	19632
2026-01-24 00:43:43.83	331.28	4.35	-54.6	-56.6	6.2	0.00e+00	0	55	104	39392903168	79	19651
2026-01-24 00:43:44.84	331.41	4.29	-54.6	-56.7	6.2	0.00e+00	0	56	104	39392903168	79	19814
2026-01-24 00:43:45.85	331.54	4.23	-54.6	-56.7	6.2	0.00e+00	0	56	104	39392903168	79	19889
2026-01-24 00:43:46.86	331.67	4.17	-54.7	-56.8	6.2	0.00e+00	0	56	104	39392903168	79	19973
2026-01-24 00:43:47.86	331.80	4.11	-54.7	-56.8	6.2	0.00e+00	0	55	104	39392903168	79	19948
2026-01-24 00:43:48.87	331.93	4.05	-54.7	-56.8	6.2	0.00e+00	0	56	104	39392903168	79	20016
2026-01-24 00:43:49.88	332.05	3.99	-54.7	-56.8	6.2	0.00e+00	0	56	104	39392903168	79	20043
2026-01-24 00:43:50.89	332.18	3.94	-54.7	-56.8	6.2	0.00e+00	0	56	104	39392903168	79	20027
2026-01-24 00:43:51.90	332.31	3.88	-54.7	-56.8	6.2	0.00e+00	0	56	104	39392903168	79	20000
2026-01-24 00:43:52.91	332.43	3.82	-54.7	-56.8	6.2	0.00e+00	0	56	104	39392903168	79	20072
2026-01-24 00:43:53.91	332.56	3.76	-54.7	-56.8	6.2	0.00e+00	0	56	104	39392903168	79	20009
2026-01-24 00:43:54.92	332.68	3.70	-54.7	-56.8	6.2	0.00e+00	0	56	104	39392903168	79	19936
2026-01-24 00:43:55.93	332.80	3.64	-54.6	-56.7	6.2	0.00e+00	0	55	104	39392903168	79	19916
2026-01-24 00:43:56.94	332.93	3.58	-54.6	-56.7	6.2	0.00e+00	0	56	104	39392903168	79	19866
2026-01-24 00:43:57.95	333.05	3.53	-54.6	-56.7	6.2	0.00e+00	0	55	104	39392903168	79	19837
2026-01-24 00:43:58.96	333.17	3.47	-54.6	-56.7	6.2	0.00e+00	0	56	104	39392903168	79	19795
2026-01-24 00:43:59.96	333.29	3.41	-54.6	-56.7	6.2	0.00e+00	0	56	104	39392903168	79	19744
2026-01-24 00:44:00.97	333.41	3.35	-54.6	-56.6	6.2	0.00e+00	0	56	104	39392903168	79	19699
2026-01-24 00:44:01.98	333.53	3.29	-54.6	-56.7	6.2	0.00e+00	0	56	104	39392903168	79	19770
2026-01-24 00:44:02.99	333.65	3.24	-54.6	-56.6	6.2	0.00e+00	0	56	104	39392903168	79	19684
2026-01-24 00:44:03.99	333.77	3.18	-54.6	-56.7	6.2	0.00e+00	0	55	104	39392903168	79	19749
2026-01-24 00:44:05.00	333.88	3.12	-54.6	-56.7	6.2	0.00e+00	0	56	104	39392903168	79	19729
2026-01-24 00:44:06.01	334.00	3.06	-54.6	-56.7	6.2	0.00e+00	0	55	104	39392903168	79	19733
2026-01-24 00:44:07.02	334.12	3.00	-54.5	-56.6	6.2	0.00e+00	0	55	104	39392903168	79	19644
2026-01-24 00:44:08.03	334.24	2.95	-54.5	-56.6	6.2	0.00e+00	0	55	104	39392903168	79	19570
2026-01-24 00:44:09.04	334.35	2.89	-54.5	-56.6	6.2	0.00e+00	0	55	104	39392903168	79	19551
2026-01-24 00:44:10.05	334.47	2.83	-54.5	-56.6	6.2	0.00e+00	0	55	104	39392903168	79	19589
2026-01-24 00:44:11.05	334.58	2.77	-54.5	-56.6	6.2	0.00e+00	0	55	104	39392903168	79	19582
2026-01-24 00:44:12.06	334.70	2.72	-54.5	-56.6	6.2	0.00e+00	0	55	104	39392903168	79	19559
2026-01-24 00:44:13.07	334.81	2.66	-54.5	-56.6	6.2	0.00e+00	0	55	104	39392903168	79	19481
2026-01-24 00:44:14.08	334.92	2.60	-54.4	-56.5	6.2	0.00e+00	0	55	104	39392903168	79	19397
2026-01-24 00:44:15.08	335.03	2.55	-54.4	-56.5	6.2	0.00e+00	0	55	104	39392903168	79	19418
2026-01-24 00:44:16.09	335.15	2.49	-54.4	-56.5	6.2	0.00e+00	0	55	104	39392903168	79	19347
2026-01-24 00:44:17.10	335.26	2.43	-54.4	-56.5	6.2	0.00e+00	0	55	104	39392903168	79	19400
2026-01-24 00:44:18.11	335.37	2.38	-54.4	-56.5	6.2	0.00e+00	0	55	104	39392903168	79	19314
2026-01-24 00:44:19.12	335.48	2.32	-54.4	-56.5	6.2	0.00e+00	0	55	104	39392903168	79	19304
2026-01-24 00:44:20.13	335.59	2.26	-54.4	-56.5	6.2	0.00e+00	0	56	104	39392903168	79	19278
2026-01-24 00:44:21.13	335.70	2.21	-54.4	-56.5	6.2	0.00e+00	0	55	104	39392903168	79	19334
2026-01-24 00:44:22.14	335.81	2.15	-54.4	-56.4	6.2	0.00e+00	0	55	104	39392903168	79	19230
2026-01-24 00:44:23.15	335.92	2.09	-54.4	-56.5	6.2	0.00e+00	0	55	104	39392903168	79	19288
2026-01-24 00:44:24.16	336.02	2.04	-54.4	-56.4	6.2	0.00e+00	0	55	104	39392903168	79	19228
2026-01-24 00:44:25.16	336.13	1.98	-54.3	-56.4	6.2	0.00e+00	0	55	104	39392903168	79	19196
2026-01-24 00:44:26.17	336.24	1.92	-54.4	-56.4	6.2	0.00e+00	0	55	104	39392903168	79	19200

#Closed at: 2026-01-24 00:44:26
#Recorded file [39392 MB]: D:/lorett/data/31041_260124_033521.dat