passes_logs/2026/01/24/R3.2S_Murmansk/R3.2S_Murmansk__20260124_132539_SUOMI_NPP_rec.log

#Pass ID: 20260124_132539_SUOMI NPP
#Satellite: SUOMI NPP
#Configuration: NPP
#almurnet v.1.7.20251203
#Start time: 2026-01-24 13:25:41

#Version: 2.2.20231116
#Station: R3.2S_Murmansk
#Location: 33.079688 lon 68.888172 lat
#TLE: 1 37849U 11061A   26023.63275593  .00000212  00000+0  12133-3 0  9990
#TLE: 2 37849  98.7820 325.6074 0002234  48.9695 311.1673 14.19528901737937

#Time	Az	El	Level	Level2	SNR	BER	BlckErr	Temp	State	Recorded	gain1	gain2
2026-01-24 13:25:41.74	253.50	2.08	-52.2	-67.2	3.8	1.49e+00	0	41	0	0	76	19739
2026-01-24 13:25:42.74	253.61	2.12	-52.2	-67.2	3.8	1.49e+00	0	41	104	0	74	22157
2026-01-24 13:25:43.75	253.72	2.16	-52.2	-67.2	3.8	1.49e+00	0	41	104	0	74	22056
2026-01-24 13:25:44.75	253.83	2.20	-52.2	-67.2	3.8	1.49e+00	0	41	104	0	74	22078
2026-01-24 13:25:45.76	253.94	2.24	-52.2	-67.2	3.8	1.49e+00	0	41	104	0	74	22087
2026-01-24 13:25:46.77	254.05	2.28	-52.2	-67.2	3.8	1.49e+00	0	41	104	0	74	22019
2026-01-24 13:25:47.78	254.16	2.32	-52.2	-67.1	3.8	1.49e+00	0	41	104	0	74	21998
2026-01-24 13:25:48.79	254.27	2.36	-52.2	-67.2	3.8	1.49e+00	0	41	104	0	74	22044
2026-01-24 13:25:49.79	254.38	2.40	-52.2	-67.1	3.8	1.49e+00	0	41	104	0	74	21991
2026-01-24 13:25:50.80	254.49	2.44	-52.2	-67.2	3.8	1.49e+00	0	41	104	0	74	22038
2026-01-24 13:25:51.81	254.60	2.48	-52.2	-67.2	3.8	1.49e+00	0	41	104	0	74	22018
2026-01-24 13:25:52.82	254.71	2.52	-52.2	-67.2	3.8	1.49e+00	0	41	104	0	74	22053
2026-01-24 13:25:53.83	254.82	2.56	-52.2	-67.2	3.8	1.49e+00	0	41	104	0	74	22059
2026-01-24 13:25:54.84	254.94	2.60	-52.2	-67.2	3.8	1.49e+00	0	41	104	0	74	22055
2026-01-24 13:25:55.85	255.05	2.64	-52.2	-67.2	3.8	1.49e+00	0	41	104	0	74	22062
2026-01-24 13:25:56.85	255.16	2.68	-52.2	-67.2	3.8	1.49e+00	0	41	104	0	74	22055
2026-01-24 13:25:57.86	255.27	2.72	-52.2	-67.2	3.8	1.49e+00	0	41	104	0	74	22021
2026-01-24 13:25:58.87	255.39	2.76	-52.2	-67.2	3.8	1.49e+00	0	42	104	0	74	22057
2026-01-24 13:25:59.88	255.50	2.80	-52.2	-67.2	3.8	1.49e+00	0	42	104	0	74	22057
2026-01-24 13:26:00.89	255.62	2.84	-52.2	-67.2	3.8	1.49e+00	0	42	104	0	74	22054
2026-01-24 13:26:01.89	255.73	2.88	-52.2	-67.2	3.8	1.49e+00	0	42	104	0	74	22040
2026-01-24 13:26:02.90	255.84	2.92	-52.2	-67.2	3.8	1.49e+00	0	42	104	0	74	22049
2026-01-24 13:26:03.91	255.96	2.96	-52.2	-67.2	3.8	1.49e+00	0	42	104	0	74	22031
2026-01-24 13:26:04.92	256.07	3.00	-52.2	-67.2	3.8	1.49e+00	0	42	104	0	74	22057
2026-01-24 13:26:05.92	256.19	3.04	-52.2	-67.2	3.8	1.49e+00	0	42	104	0	74	22034
2026-01-24 13:26:06.93	256.30	3.08	-52.2	-67.1	3.8	1.49e+00	0	42	104	0	74	22004
2026-01-24 13:26:07.94	256.42	3.12	-52.2	-67.2	3.8	1.49e+00	0	42	104	0	74	22023
2026-01-24 13:26:08.95	256.54	3.16	-52.2	-67.2	3.8	1.49e+00	0	42	104	0	74	22063
2026-01-24 13:26:09.96	256.65	3.20	-52.2	-67.2	3.8	1.49e+00	0	42	104	0	74	22086
2026-01-24 13:26:10.97	256.77	3.24	-52.2	-67.1	3.8	1.49e+00	0	42	104	0	74	21949
2026-01-24 13:26:11.97	256.89	3.27	-52.2	-67.1	3.8	1.49e+00	0	42	104	0	74	21936
2026-01-24 13:26:12.98	257.00	3.31	-52.2	-67.1	3.8	1.49e+00	0	42	104	0	74	21976
2026-01-24 13:26:13.99	257.12	3.35	-52.2	-67.1	3.8	1.49e+00	0	42	104	0	74	21985
2026-01-24 13:26:15.00	257.24	3.39	-52.2	-67.1	3.8	1.49e+00	0	42	104	0	74	21979
2026-01-24 13:26:16.01	257.36	3.43	-52.2	-67.2	3.8	1.49e+00	0	42	104	0	74	22093
2026-01-24 13:26:17.01	257.47	3.47	-52.2	-67.2	3.8	1.49e+00	0	42	104	0	74	22089
2026-01-24 13:26:18.02	257.59	3.51	-52.2	-67.2	3.8	1.49e+00	0	42	104	0	74	22010
2026-01-24 13:26:19.03	257.71	3.55	-52.2	-67.2	3.8	1.49e+00	0	42	104	0	74	22066
2026-01-24 13:26:20.04	257.83	3.59	-52.2	-67.2	3.8	1.49e+00	0	42	104	0	74	22053
2026-01-24 13:26:21.05	257.95	3.63	-52.2	-67.2	3.8	1.49e+00	0	42	104	0	74	22010
2026-01-24 13:26:22.05	258.07	3.67	-52.2	-67.1	3.8	1.49e+00	0	42	104	0	74	21973
2026-01-24 13:26:23.06	258.19	3.71	-52.2	-67.2	3.8	1.49e+00	0	42	104	0	74	22096
2026-01-24 13:26:24.07	258.31	3.74	-52.2	-67.1	3.8	1.49e+00	0	42	104	0	74	21990
2026-01-24 13:26:25.08	258.43	3.78	-52.2	-67.1	3.8	1.49e+00	0	42	104	0	74	21964
2026-01-24 13:26:26.08	258.56	3.82	-52.2	-67.1	3.8	1.49e+00	0	42	104	0	74	21961
2026-01-24 13:26:27.09	258.68	3.86	-52.2	-67.1	3.8	1.49e+00	0	42	104	0	74	21874
2026-01-24 13:26:28.10	258.80	3.90	-52.2	-67.1	3.8	1.49e+00	0	42	104	0	74	21896
2026-01-24 13:26:29.11	258.92	3.94	-52.2	-67.1	3.8	1.49e+00	0	42	104	0	74	21842
2026-01-24 13:26:30.12	259.04	3.98	-52.2	-67.1	3.8	1.49e+00	0	42	104	0	74	21858
2026-01-24 13:26:31.13	259.17	4.02	-52.2	-67.1	3.8	1.49e+00	0	42	104	0	74	21855
2026-01-24 13:26:32.14	259.29	4.05	-52.2	-67.1	3.8	1.49e+00	0	42	104	0	74	22000
2026-01-24 13:26:33.15	259.41	4.09	-52.2	-67.2	3.8	1.49e+00	0	42	104	0	74	22034
2026-01-24 13:26:34.16	259.54	4.13	-52.2	-67.2	3.8	1.49e+00	0	42	104	0	74	22028
2026-01-24 13:26:35.17	259.66	4.17	-52.2	-67.1	3.8	1.49e+00	0	42	104	0	74	21954
2026-01-24 13:26:36.17	259.79	4.21	-52.2	-67.1	3.8	1.49e+00	0	42	104	0	74	21949
2026-01-24 13:26:37.18	259.91	4.25	-52.2	-67.1	3.8	1.49e+00	0	42	104	0	74	21880
2026-01-24 13:26:38.19	260.04	4.28	-52.2	-67.0	3.8	1.49e+00	0	42	104	0	74	21598
2026-01-24 13:26:39.20	260.16	4.32	-52.2	-66.9	3.8	1.49e+00	0	42	104	0	74	21458
2026-01-24 13:26:40.21	260.29	4.36	-52.2	-67.0	3.8	1.49e+00	0	42	104	0	74	21565
2026-01-24 13:26:41.22	260.41	4.40	-52.2	-67.0	3.8	1.49e+00	0	42	104	0	74	21716
2026-01-24 13:26:42.23	260.54	4.44	-52.2	-67.1	3.8	1.49e+00	0	42	104	0	74	21884
2026-01-24 13:26:43.23	260.67	4.47	-52.2	-67.1	3.8	1.49e+00	0	42	104	0	74	21878
2026-01-24 13:26:44.24	260.79	4.51	-52.2	-67.1	3.8	1.49e+00	0	42	104	0	74	21866
2026-01-24 13:26:45.25	260.92	4.55	-52.2	-67.1	3.8	1.49e+00	0	42	104	0	74	21874
2026-01-24 13:26:46.26	261.05	4.59	-52.2	-67.1	3.8	1.49e+00	0	42	104	0	74	21859
2026-01-24 13:26:47.27	261.18	4.63	-52.2	-66.9	3.8	1.49e+00	0	42	104	0	74	21371
2026-01-24 13:26:48.27	261.30	4.66	-52.2	-66.4	3.8	1.49e+00	0	42	104	0	74	20263
2026-01-24 13:26:49.28	261.43	4.70	-52.1	-65.9	3.8	1.49e+00	0	42	104	0	74	19011
2026-01-24 13:26:50.29	261.56	4.74	-52.1	-65.6	3.8	1.49e+00	0	42	104	0	74	18390
2026-01-24 13:26:51.30	261.69	4.78	-52.1	-65.7	3.8	1.49e+00	0	42	104	0	74	18602
2026-01-24 13:26:52.31	261.82	4.81	-52.1	-65.5	3.8	1.49e+00	0	42	104	0	74	18235
2026-01-24 13:26:53.32	261.95	4.85	-51.9	-62.9	4.4	1.43e+00	63	42	0	0	74	13542
2026-01-24 13:26:54.32	262.08	4.89	-51.5	-59.3	6.6	6.24e-01	0	42	0	1048576	74	8914
2026-01-24 13:26:55.33	262.21	4.92	-50.5	-55.5	10.4	7.63e-02	0	43	0	3145728	73	6067
2026-01-24 13:26:56.34	262.34	4.96	-49.5	-53.0	13.0	3.04e-04	0	42	0	5242880	71	5142
2026-01-24 13:26:57.35	262.47	5.00	-48.5	-51.2	14.9	3.80e-06	0	42	0	7340032	69	4677
2026-01-24 13:26:58.36	262.60	5.04	-47.8	-50.1	15.9	0.00e+00	0	42	0	9437184	66	4910
2026-01-24 13:26:59.37	262.74	5.07	-48.0	-50.5	15.6	0.00e+00	0	42	0	10485760	66	5134
2026-01-24 13:27:00.37	262.87	5.11	-48.8	-51.7	14.2	2.65e-03	0	42	0	12582912	69	4963
2026-01-24 13:27:01.38	263.00	5.15	-48.2	-50.9	15.3	0.00e+00	0	42	0	14680064	66	5359
2026-01-24 13:27:02.39	263.13	5.18	-49.0	-52.1	13.6	5.43e-02	0	42	0	16777216	70	4874
2026-01-24 13:27:03.40	263.26	5.22	-48.2	-50.8	15.4	0.00e+00	0	43	0	18874368	68	4724
2026-01-24 13:27:04.41	263.40	5.26	-46.8	-48.7	17.3	0.00e+00	0	42	0	19922944	65	4399
2026-01-24 13:27:05.42	263.53	5.29	-46.7	-48.6	17.4	0.00e+00	0	42	0	22020096	65	4384
2026-01-24 13:27:06.42	263.66	5.33	-46.5	-48.4	17.6	0.00e+00	0	42	0	24117248	64	4506
2026-01-24 13:27:07.43	263.80	5.36	-46.9	-48.9	17.2	0.00e+00	0	42	0	26214400	64	4763
2026-01-24 13:27:08.43	263.93	5.40	-46.7	-48.6	17.5	0.00e+00	0	42	0	28311552	64	4604
2026-01-24 13:27:09.44	264.07	5.44	-46.7	-48.6	17.4	0.00e+00	0	42	0	30408704	64	4650
2026-01-24 13:27:10.45	264.20	5.47	-47.1	-49.1	17.0	0.00e+00	0	42	0	31457280	64	4891
2026-01-24 13:27:11.46	264.34	5.51	-47.1	-49.2	16.9	0.00e+00	0	42	0	33554432	64	4942
2026-01-24 13:27:12.46	264.47	5.54	-46.8	-48.7	17.3	0.00e+00	0	42	0	35651584	64	4678
2026-01-24 13:27:13.47	264.61	5.58	-46.9	-48.8	17.1	0.00e+00	0	42	0	37748736	64	4759
2026-01-24 13:27:14.48	264.75	5.62	-46.9	-48.8	17.1	0.00e+00	0	42	0	38797312	64	4755
2026-01-24 13:27:15.49	264.88	5.65	-47.1	-49.1	17.0	0.00e+00	0	42	0	40894464	64	4905
2026-01-24 13:27:16.50	265.02	5.69	-47.1	-49.2	16.9	0.00e+00	0	43	0	42991616	65	4676
2026-01-24 13:27:17.50	265.16	5.72	-47.1	-49.2	16.9	0.00e+00	0	42	0	45088768	65	4661
2026-01-24 13:27:18.51	265.29	5.76	-47.1	-49.2	16.9	0.00e+00	0	42	0	47185920	65	4684
2026-01-24 13:27:19.52	265.43	5.79	-47.2	-49.3	16.8	0.00e+00	0	42	0	48234496	65	4720
2026-01-24 13:27:20.53	265.57	5.83	-47.0	-49.1	17.1	0.00e+00	0	42	0	50331648	65	4605
2026-01-24 13:27:21.54	265.71	5.86	-46.9	-48.9	17.2	0.00e+00	0	43	0	52428800	65	4520
2026-01-24 13:27:22.55	265.85	5.90	-47.5	-49.7	16.5	0.00e+00	0	42	0	54525952	65	4947
2026-01-24 13:27:23.55	265.99	5.93	-47.0	-49.0	17.1	0.00e+00	0	42	0	56623104	65	4562
2026-01-24 13:27:24.56	266.13	5.97	-47.1	-49.1	17.0	0.00e+00	0	42	0	58720256	65	4640
2026-01-24 13:27:25.57	266.27	6.00	-46.9	-48.9	17.2	0.00e+00	0	43	0	59768832	65	4519
2026-01-24 13:27:26.58	266.41	6.04	-46.8	-48.7	17.3	0.00e+00	0	42	0	61865984	65	4432
2026-01-24 13:27:27.59	266.55	6.07	-47.1	-49.2	17.0	0.00e+00	0	43	0	63963136	65	4669
2026-01-24 13:27:28.60	266.69	6.11	-47.1	-49.1	17.0	0.00e+00	0	43	0	66060288	65	4637
2026-01-24 13:27:29.61	266.83	6.14	-47.2	-49.3	16.9	0.00e+00	0	43	0	67108864	65	4732
2026-01-24 13:27:30.61	266.97	6.17	-47.2	-49.3	16.9	0.00e+00	0	43	0	69206016	65	4725
2026-01-24 13:27:31.62	267.11	6.21	-47.2	-49.2	16.9	0.00e+00	0	42	0	71303168	65	4694
2026-01-24 13:27:32.63	267.26	6.24	-47.4	-49.5	16.6	0.00e+00	0	43	0	73400320	65	4858
2026-01-24 13:27:33.64	267.40	6.28	-47.6	-49.8	16.4	0.00e+00	0	43	0	75497472	65	5002
2026-01-24 13:27:34.65	267.54	6.31	-47.7	-50.0	16.2	0.00e+00	0	42	0	77594624	66	4866
2026-01-24 13:27:35.65	267.68	6.34	-47.9	-50.3	15.8	0.00e+00	0	43	0	78643200	66	5029
2026-01-24 13:27:36.66	267.83	6.38	-48.3	-50.9	15.2	0.00e+00	0	42	0	80740352	67	5084
2026-01-24 13:27:37.67	267.97	6.41	-48.4	-51.2	14.9	0.00e+00	0	43	0	82837504	67	5228
2026-01-24 13:27:38.68	268.12	6.44	-48.7	-51.7	14.3	0.00e+00	0	42	0	84934656	67	5550
2026-01-24 13:27:39.69	268.26	6.48	-48.9	-52.1	13.9	7.00e-07	0	42	0	87031808	68	5497
2026-01-24 13:27:40.69	268.40	6.51	-49.0	-52.3	13.5	5.30e-06	0	42	0	88080384	68	5654
2026-01-24 13:27:41.70	268.55	6.54	-49.1	-52.6	13.2	2.36e-05	0	43	0	90177536	69	5492
2026-01-24 13:27:42.71	268.70	6.58	-49.3	-53.1	12.6	5.03e-05	0	43	0	92274688	69	5846
2026-01-24 13:27:43.72	268.84	6.61	-49.3	-53.0	12.6	1.23e-04	0	43	0	94371840	69	5772
2026-01-24 13:27:44.72	268.99	6.64	-49.4	-53.4	12.2	1.31e-04	0	43	0	95420416	69	6006
2026-01-24 13:27:45.73	269.13	6.67	-49.4	-53.4	12.2	2.10e-04	0	43	0	97517568	69	6047
2026-01-24 13:27:46.74	269.28	6.71	-49.4	-53.4	12.3	2.10e-04	0	43	0	99614720	69	6035
2026-01-24 13:27:47.74	269.42	6.74	-49.4	-53.3	12.5	1.04e-04	0	43	0	101711872	69	5931
2026-01-24 13:27:48.75	269.57	6.77	-49.3	-53.1	12.7	6.86e-05	0	43	0	103809024	69	5814
2026-01-24 13:27:49.76	269.72	6.80	-49.3	-53.0	12.8	5.72e-05	0	43	0	105906176	69	5772
2026-01-24 13:27:50.77	269.87	6.84	-48.9	-52.1	13.7	1.67e-05	0	43	0	106954752	69	5217
2026-01-24 13:27:51.78	270.02	6.87	-48.8	-51.9	14.0	3.00e-06	0	43	0	109051904	69	5065
2026-01-24 13:27:52.79	270.17	6.90	-48.5	-51.3	14.6	1.50e-06	0	43	0	111149056	69	4755
2026-01-24 13:27:53.80	270.31	6.93	-48.2	-50.8	15.2	0.00e+00	0	43	0	113246208	68	4720
2026-01-24 13:27:54.81	270.46	6.96	-47.9	-50.4	15.5	0.00e+00	0	43	0	115343360	67	4791
2026-01-24 13:27:55.81	270.61	6.99	-47.7	-50.1	15.9	0.00e+00	0	43	0	116391936	67	4605
2026-01-24 13:27:56.82	270.76	7.02	-47.9	-50.3	15.8	0.00e+00	0	43	0	118489088	67	4731
2026-01-24 13:27:57.83	270.91	7.06	-47.7	-50.0	16.1	0.00e+00	0	43	0	120586240	67	4571
2026-01-24 13:27:58.84	271.06	7.09	-47.8	-50.1	16.1	0.00e+00	0	43	0	122683392	67	4640
2026-01-24 13:27:59.85	271.21	7.12	-47.7	-50.0	16.2	0.00e+00	0	43	0	124780544	67	4578
2026-01-24 13:28:00.86	271.36	7.15	-47.8	-50.1	16.1	0.00e+00	0	43	0	125829120	67	4633
2026-01-24 13:28:01.87	271.52	7.18	-47.7	-50.0	16.3	0.00e+00	0	43	0	127926272	67	4556
2026-01-24 13:28:02.88	271.67	7.21	-47.7	-49.9	16.4	0.00e+00	0	43	0	130023424	67	4517
2026-01-24 13:28:03.88	271.82	7.24	-47.7	-49.9	16.5	0.00e+00	0	43	0	132120576	67	4512
2026-01-24 13:28:04.89	271.97	7.27	-47.5	-49.6	16.7	0.00e+00	0	43	0	134217728	66	4647
2026-01-24 13:28:05.90	272.12	7.30	-47.4	-49.5	16.8	0.00e+00	0	43	0	135266304	66	4590
2026-01-24 13:28:06.91	272.28	7.33	-47.4	-49.5	16.8	0.00e+00	0	43	0	137363456	66	4584
2026-01-24 13:28:07.92	272.43	7.36	-47.4	-49.5	16.9	0.00e+00	0	43	0	139460608	66	4554
2026-01-24 13:28:08.92	272.58	7.39	-47.4	-49.5	16.8	0.00e+00	0	43	0	141557760	66	4595
2026-01-24 13:28:09.93	272.74	7.42	-47.3	-49.3	17.1	0.00e+00	0	43	0	143654912	66	4473
2026-01-24 13:28:10.94	272.89	7.45	-47.2	-49.3	17.1	0.00e+00	0	43	0	144703488	66	4447
2026-01-24 13:28:11.95	273.04	7.48	-47.2	-49.2	17.1	0.00e+00	0	43	0	146800640	66	4434
2026-01-24 13:28:12.96	273.20	7.51	-47.2	-49.2	17.2	0.00e+00	0	43	0	148897792	66	4410
2026-01-24 13:28:13.97	273.35	7.54	-47.1	-49.0	17.4	0.00e+00	0	43	0	150994944	66	4318
2026-01-24 13:28:14.98	273.51	7.56	-47.2	-49.2	17.2	0.00e+00	0	43	0	153092096	65	4667
2026-01-24 13:28:15.99	273.67	7.59	-47.3	-49.4	17.0	0.00e+00	0	43	0	154140672	65	4776
2026-01-24 13:28:17.00	273.82	7.62	-47.3	-49.3	17.1	0.00e+00	0	43	0	156237824	65	4732
2026-01-24 13:28:18.01	273.98	7.65	-47.4	-49.4	17.0	0.00e+00	0	43	0	158334976	65	4784
2026-01-24 13:28:19.01	274.13	7.68	-47.5	-49.6	16.8	0.00e+00	0	43	0	160432128	65	4923
2026-01-24 13:28:20.02	274.29	7.71	-47.7	-49.9	16.5	0.00e+00	0	43	0	162529280	65	5068
2026-01-24 13:28:21.03	274.45	7.73	-47.5	-49.6	16.8	0.00e+00	0	43	0	163577856	65	4896
2026-01-24 13:28:22.04	274.60	7.76	-47.5	-49.6	16.9	0.00e+00	0	43	0	165675008	65	4877
2026-01-24 13:28:23.05	274.76	7.79	-47.5	-49.6	16.8	0.00e+00	0	42	0	167772160	65	4878
2026-01-24 13:28:24.05	274.92	7.82	-47.3	-49.3	17.1	0.00e+00	0	43	0	169869312	65	4749
2026-01-24 13:28:25.06	275.08	7.84	-47.3	-49.3	17.0	0.00e+00	0	43	0	171966464	65	4744
2026-01-24 13:28:26.07	275.23	7.87	-47.1	-49.1	17.3	0.00e+00	0	43	0	173015040	65	4606
2026-01-24 13:28:27.08	275.39	7.90	-47.1	-49.1	17.3	0.00e+00	0	43	0	175112192	65	4616
2026-01-24 13:28:28.09	275.55	7.93	-47.1	-49.1	17.4	0.00e+00	0	43	0	177209344	65	4620
2026-01-24 13:28:29.10	275.71	7.95	-46.8	-48.6	17.8	0.00e+00	0	43	0	179306496	65	4366
2026-01-24 13:28:30.11	275.87	7.98	-47.1	-49.0	17.4	0.00e+00	0	43	0	181403648	65	4591
2026-01-24 13:28:31.12	276.03	8.00	-47.1	-49.1	17.3	0.00e+00	0	43	0	182452224	65	4600
2026-01-24 13:28:32.13	276.19	8.03	-47.2	-49.2	17.2	0.00e+00	0	43	0	184549376	65	4670
2026-01-24 13:28:33.13	276.35	8.06	-47.5	-49.6	16.8	0.00e+00	0	43	0	186646528	65	4919
2026-01-24 13:28:34.14	276.51	8.08	-47.6	-49.8	16.7	0.00e+00	0	43	0	188743680	65	5004
2026-01-24 13:28:35.15	276.67	8.11	-47.7	-49.9	16.5	0.00e+00	0	43	0	190840832	65	5050
2026-01-24 13:28:36.16	276.83	8.13	-47.6	-49.7	16.7	0.00e+00	0	43	0	192937984	66	4681
2026-01-24 13:28:37.16	276.99	8.16	-47.6	-49.7	16.7	0.00e+00	0	43	0	193986560	66	4705
2026-01-24 13:28:38.17	277.16	8.18	-47.5	-49.6	16.8	0.00e+00	0	43	0	196083712	66	4621
2026-01-24 13:28:39.18	277.32	8.21	-47.5	-49.5	16.9	0.00e+00	0	43	0	198180864	66	4577
2026-01-24 13:28:40.19	277.48	8.23	-47.5	-49.6	16.8	0.00e+00	0	43	0	200278016	66	4621
2026-01-24 13:28:41.20	277.64	8.26	-47.5	-49.5	16.9	0.00e+00	0	43	0	202375168	66	4584
2026-01-24 13:28:42.21	277.81	8.28	-47.5	-49.6	16.7	0.00e+00	0	43	0	203423744	66	4639
2026-01-24 13:28:43.21	277.97	8.31	-47.7	-49.8	16.6	0.00e+00	0	43	0	205520896	66	4728
2026-01-24 13:28:44.22	278.13	8.33	-47.6	-49.7	16.8	0.00e+00	0	43	0	207618048	66	4686
2026-01-24 13:28:45.23	278.29	8.36	-47.6	-49.7	16.7	0.00e+00	0	43	0	209715200	66	4668
2026-01-24 13:28:46.24	278.46	8.38	-47.5	-49.5	16.9	0.00e+00	0	43	0	210763776	66	4594
2026-01-24 13:28:47.25	278.62	8.40	-47.4	-49.4	17.0	0.00e+00	0	43	0	212860928	66	4519
2026-01-24 13:28:48.25	278.79	8.43	-47.3	-49.2	17.2	0.00e+00	0	43	0	214958080	66	4426
2026-01-24 13:28:49.26	278.95	8.45	-47.2	-49.2	17.3	0.00e+00	0	43	0	217055232	66	4407
2026-01-24 13:28:50.27	279.12	8.47	-47.1	-49.0	17.5	0.00e+00	0	43	0	219152384	66	4316
2026-01-24 13:28:51.28	279.28	8.50	-46.9	-48.8	17.7	0.00e+00	0	43	0	221249536	65	4448
2026-01-24 13:28:52.29	279.45	8.52	-47.1	-49.0	17.5	0.00e+00	0	43	0	222298112	65	4564
2026-01-24 13:28:53.30	279.61	8.54	-47.2	-49.1	17.4	0.00e+00	0	43	0	224395264	65	4644
2026-01-24 13:28:54.31	279.78	8.56	-47.3	-49.2	17.2	0.00e+00	0	43	0	226492416	65	4692
2026-01-24 13:28:55.31	279.94	8.59	-47.6	-49.6	16.9	0.00e+00	0	43	0	228589568	65	4922
2026-01-24 13:28:56.32	280.11	8.61	-47.8	-50.0	16.5	0.00e+00	0	43	0	230686720	66	4844
2026-01-24 13:28:57.33	280.28	8.63	-48.2	-50.6	16.0	0.00e+00	0	43	0	231735296	66	5160
2026-01-24 13:28:58.34	280.44	8.65	-48.2	-50.6	16.0	0.00e+00	0	43	0	233832448	67	4872
2026-01-24 13:28:59.35	280.61	8.67	-48.6	-51.1	15.4	0.00e+00	0	43	0	235929600	67	5194
2026-01-24 13:29:00.35	280.78	8.69	-48.5	-51.0	15.6	0.00e+00	0	43	0	238026752	67	5148
2026-01-24 13:29:01.36	280.94	8.71	-48.4	-50.9	15.7	0.00e+00	0	43	0	240123904	67	5071
2026-01-24 13:29:02.37	281.11	8.74	-48.4	-50.9	15.7	0.00e+00	0	43	0	241172480	67	5050
2026-01-24 13:29:03.37	281.28	8.76	-48.1	-50.4	16.2	0.00e+00	0	43	0	243269632	67	4783
2026-01-24 13:29:04.38	281.45	8.78	-47.9	-50.1	16.5	0.00e+00	0	43	0	245366784	67	4609
2026-01-24 13:29:05.39	281.61	8.80	-47.8	-50.0	16.6	0.00e+00	0	43	0	247463936	67	4558
2026-01-24 13:29:06.40	281.78	8.82	-47.7	-49.8	16.7	0.00e+00	0	43	0	249561088	67	4463
2026-01-24 13:29:07.40	281.95	8.84	-47.5	-49.6	17.0	0.00e+00	0	43	0	250609664	66	4604
2026-01-24 13:29:08.41	282.12	8.86	-47.4	-49.4	17.1	0.00e+00	0	43	0	252706816	66	4542
2026-01-24 13:29:09.42	282.29	8.88	-47.6	-49.7	16.9	0.00e+00	0	43	0	254803968	66	4684
2026-01-24 13:29:10.43	282.46	8.89	-47.6	-49.7	16.8	0.00e+00	0	43	0	256901120	66	4692
2026-01-24 13:29:11.44	282.63	8.91	-47.8	-49.9	16.7	0.00e+00	0	43	0	258998272	66	4789
2026-01-24 13:29:12.45	282.80	8.93	-47.8	-50.0	16.6	0.00e+00	0	43	0	260046848	66	4833
2026-01-24 13:29:13.45	282.97	8.95	-47.6	-49.6	16.9	0.00e+00	0	43	0	262144000	66	4631
2026-01-24 13:29:14.46	283.14	8.97	-47.1	-49.0	17.6	0.00e+00	0	43	0	264241152	66	4308
2026-01-24 13:29:15.47	283.31	8.99	-47.2	-49.0	17.5	0.00e+00	0	43	0	266338304	66	4325
2026-01-24 13:29:16.48	283.48	9.01	-46.9	-48.6	17.8	0.00e+00	0	43	0	268435456	65	4389
2026-01-24 13:29:17.49	283.65	9.02	-47.1	-49.0	17.6	0.00e+00	0	43	0	269484032	65	4562
2026-01-24 13:29:18.50	283.82	9.04	-47.3	-49.3	17.3	0.00e+00	0	43	0	271581184	65	4732
2026-01-24 13:29:19.51	283.99	9.06	-47.5	-49.5	17.1	0.00e+00	0	43	0	273678336	65	4828
2026-01-24 13:29:20.52	284.16	9.08	-47.7	-49.7	16.9	0.00e+00	0	43	0	275775488	66	4705
2026-01-24 13:29:21.53	284.34	9.09	-47.9	-50.1	16.5	0.00e+00	0	43	0	277872640	66	4915
2026-01-24 13:29:22.53	284.51	9.11	-48.1	-50.3	16.3	0.00e+00	0	43	0	278921216	66	5017
2026-01-24 13:29:23.54	284.68	9.13	-47.8	-50.0	16.7	0.00e+00	0	43	0	281018368	66	4819
2026-01-24 13:29:24.55	284.85	9.14	-47.8	-50.0	16.7	0.00e+00	0	43	0	283115520	66	4820
2026-01-24 13:29:25.56	285.02	9.16	-47.4	-49.4	17.2	0.00e+00	0	43	0	285212672	66	4514
2026-01-24 13:29:26.57	285.20	9.18	-47.4	-49.4	17.3	0.00e+00	0	43	0	287309824	66	4508
2026-01-24 13:29:27.57	285.37	9.19	-47.3	-49.2	17.5	0.00e+00	0	43	0	288358400	66	4408
2026-01-24 13:29:28.58	285.54	9.21	-47.5	-49.4	17.2	0.00e+00	0	43	0	290455552	66	4538
2026-01-24 13:29:29.59	285.71	9.22	-47.8	-49.9	16.8	0.00e+00	0	43	0	292552704	66	4776
2026-01-24 13:29:30.60	285.89	9.24	-47.6	-49.6	17.1	0.00e+00	0	43	0	294649856	66	4636
2026-01-24 13:29:31.61	286.06	9.25	-48.0	-50.2	16.5	0.00e+00	0	43	0	296747008	66	4931
2026-01-24 13:29:32.61	286.23	9.27	-47.9	-50.0	16.7	0.00e+00	0	43	0	297795584	66	4841
2026-01-24 13:29:33.62	286.41	9.28	-47.7	-49.8	16.9	0.00e+00	0	43	0	299892736	66	4713
2026-01-24 13:29:34.63	286.58	9.29	-47.4	-49.3	17.4	0.00e+00	0	43	0	301989888	66	4486
2026-01-24 13:29:35.64	286.76	9.31	-47.3	-49.2	17.5	0.00e+00	0	43	0	304087040	66	4429
2026-01-24 13:29:36.64	286.93	9.32	-47.0	-48.8	17.9	0.00e+00	0	43	0	306184192	66	4224
2026-01-24 13:29:37.65	287.10	9.34	-46.9	-48.7	18.1	0.00e+00	0	43	0	308281344	65	4392
2026-01-24 13:29:38.66	287.28	9.35	-47.0	-48.7	18.0	0.00e+00	0	43	0	309329920	65	4441
2026-01-24 13:29:39.67	287.45	9.36	-46.7	-48.4	18.3	0.00e+00	0	43	0	311427072	65	4283
2026-01-24 13:29:40.67	287.63	9.38	-47.1	-48.9	17.9	0.00e+00	0	43	0	313524224	65	4510
2026-01-24 13:29:41.68	287.80	9.39	-47.1	-48.9	17.8	0.00e+00	0	43	0	315621376	65	4531
2026-01-24 13:29:42.69	287.98	9.40	-47.2	-49.0	17.7	0.00e+00	0	43	0	316669952	65	4586
2026-01-24 13:29:43.70	288.15	9.41	-47.4	-49.3	17.4	0.00e+00	0	43	0	318767104	65	4755
2026-01-24 13:29:44.71	288.33	9.42	-47.3	-49.2	17.6	0.00e+00	0	43	0	320864256	65	4674
2026-01-24 13:29:45.71	288.50	9.44	-47.4	-49.2	17.5	0.00e+00	0	43	0	322961408	65	4700
2026-01-24 13:29:46.72	288.68	9.45	-47.3	-49.1	17.6	0.00e+00	0	43	0	325058560	65	4650
2026-01-24 13:29:47.73	288.85	9.46	-47.5	-49.5	17.3	0.00e+00	0	43	0	326107136	65	4842
2026-01-24 13:29:48.74	289.03	9.47	-47.6	-49.7	17.1	0.00e+00	0	43	0	328204288	65	4933
2026-01-24 13:29:49.75	289.21	9.48	-48.0	-50.2	16.7	0.00e+00	0	43	0	330301440	66	4936
2026-01-24 13:29:50.76	289.38	9.49	-48.4	-50.7	16.1	0.00e+00	0	43	0	332398592	67	4973
2026-01-24 13:29:51.76	289.56	9.50	-48.6	-51.1	15.8	0.00e+00	0	43	0	334495744	67	5183
2026-01-24 13:29:52.77	289.73	9.51	-48.9	-51.5	15.5	0.00e+00	0	43	0	336592896	68	5104
2026-01-24 13:29:53.78	289.91	9.52	-48.9	-51.5	15.5	0.00e+00	0	43	0	337641472	68	5133
2026-01-24 13:29:54.79	290.09	9.53	-48.9	-51.5	15.5	0.00e+00	0	43	0	339738624	68	5135
2026-01-24 13:29:55.80	290.26	9.54	-49.0	-51.7	15.3	0.00e+00	0	43	0	341835776	68	5234
2026-01-24 13:29:56.81	290.44	9.55	-48.9	-51.5	15.4	0.00e+00	0	43	0	343932928	68	5114
2026-01-24 13:29:57.81	290.62	9.56	-48.9	-51.4	15.6	0.00e+00	0	43	0	344981504	68	5054
2026-01-24 13:29:58.82	290.79	9.57	-48.8	-51.3	15.7	0.00e+00	0	43	0	347078656	68	5023
2026-01-24 13:29:59.83	290.97	9.58	-48.9	-51.3	15.6	0.00e+00	0	43	0	349175808	68	5036
2026-01-24 13:30:00.84	291.15	9.58	-49.0	-51.6	15.4	0.00e+00	0	43	0	351272960	68	5172
2026-01-24 13:30:01.84	291.32	9.59	-49.1	-51.7	15.3	0.00e+00	0	43	0	353370112	68	5241
2026-01-24 13:30:02.85	291.50	9.60	-48.9	-51.4	15.5	0.00e+00	0	43	0	355467264	68	5094
2026-01-24 13:30:03.86	291.68	9.61	-49.0	-51.5	15.4	0.00e+00	0	43	0	356515840	68	5155
2026-01-24 13:30:04.87	291.86	9.61	-49.0	-51.6	15.3	0.00e+00	0	43	0	358612992	68	5205
2026-01-24 13:30:05.88	292.04	9.62	-48.7	-51.2	15.8	0.00e+00	0	43	0	360710144	68	4945
2026-01-24 13:30:06.89	292.21	9.63	-48.7	-51.1	15.9	0.00e+00	0	43	0	362807296	68	4899
2026-01-24 13:30:07.90	292.39	9.64	-48.6	-51.0	16.0	0.00e+00	0	43	0	364904448	68	4845
2026-01-24 13:30:08.90	292.57	9.64	-48.5	-50.9	16.1	0.00e+00	0	43	0	365953024	68	4766
2026-01-24 13:30:09.91	292.75	9.65	-48.5	-50.8	16.2	0.00e+00	0	43	0	368050176	68	4709
2026-01-24 13:30:10.92	292.93	9.65	-48.7	-51.1	15.9	0.00e+00	0	43	0	370147328	68	4902
2026-01-24 13:30:11.93	293.10	9.66	-48.4	-50.7	16.2	0.00e+00	0	43	0	372244480	68	4697
2026-01-24 13:30:12.94	293.28	9.66	-48.5	-50.8	16.1	0.00e+00	0	43	0	373293056	68	4739
2026-01-24 13:30:13.95	293.46	9.67	-48.3	-50.6	16.4	0.00e+00	0	43	0	375390208	68	4620
2026-01-24 13:30:14.95	293.64	9.67	-48.3	-50.6	16.4	0.00e+00	0	43	0	377487360	68	4612
2026-01-24 13:30:15.96	293.82	9.68	-48.2	-50.4	16.5	0.00e+00	0	43	0	379584512	68	4529
2026-01-24 13:30:16.97	293.99	9.68	-48.1	-50.2	16.7	0.00e+00	0	43	0	381681664	68	4408
2026-01-24 13:30:17.98	294.17	9.69	-47.8	-49.9	16.9	0.00e+00	0	43	0	383778816	67	4513
2026-01-24 13:30:18.99	294.35	9.69	-47.8	-49.8	17.0	0.00e+00	0	43	0	384827392	67	4466
2026-01-24 13:30:19.99	294.53	9.70	-47.9	-50.0	16.9	0.00e+00	0	43	0	386924544	67	4555
2026-01-24 13:30:21.00	294.71	9.70	-47.9	-49.9	16.9	0.00e+00	0	43	0	389021696	67	4523
2026-01-24 13:30:22.01	294.89	9.70	-47.8	-49.8	17.0	0.00e+00	0	43	0	391118848	67	4482
2026-01-24 13:30:23.02	295.07	9.71	-48.0	-50.1	16.7	0.00e+00	0	43	0	393216000	67	4614
2026-01-24 13:30:24.03	295.24	9.71	-47.8	-49.9	16.9	0.00e+00	0	43	0	394264576	67	4525
2026-01-24 13:30:25.04	295.42	9.71	-48.0	-50.1	16.7	0.00e+00	0	43	0	396361728	67	4608
2026-01-24 13:30:26.05	295.60	9.71	-47.8	-49.8	17.0	0.00e+00	0	43	0	398458880	67	4458
2026-01-24 13:30:27.05	295.78	9.72	-47.7	-49.7	17.1	0.00e+00	0	43	0	400556032	67	4422
2026-01-24 13:30:28.06	295.96	9.72	-47.6	-49.5	17.2	0.00e+00	0	43	0	402653184	67	4332
2026-01-24 13:30:29.07	296.14	9.72	-47.5	-49.5	17.2	0.00e+00	0	43	0	403701760	67	4322
2026-01-24 13:30:30.08	296.32	9.72	-47.6	-49.5	17.2	0.00e+00	0	43	0	405798912	67	4336
2026-01-24 13:30:31.09	296.50	9.72	-47.7	-49.7	17.0	0.00e+00	0	43	0	407896064	67	4411
2026-01-24 13:30:32.09	296.67	9.72	-47.6	-49.6	17.1	0.00e+00	0	43	0	409993216	67	4389
2026-01-24 13:30:33.10	296.85	9.72	-47.7	-49.7	17.1	0.00e+00	0	43	0	412090368	67	4413
2026-01-24 13:30:34.11	297.03	9.72	-47.9	-49.9	16.8	0.00e+00	0	43	0	413138944	67	4539
2026-01-24 13:30:35.12	297.21	9.72	-47.9	-50.0	16.8	0.00e+00	0	43	0	415236096	67	4575
2026-01-24 13:30:36.13	297.39	9.72	-47.8	-49.9	16.8	0.00e+00	0	43	0	417333248	67	4515
2026-01-24 13:30:37.14	297.57	9.72	-47.6	-49.6	17.2	0.00e+00	0	43	0	419430400	67	4361
2026-01-24 13:30:38.15	297.75	9.72	-47.5	-49.4	17.3	0.00e+00	0	43	0	421527552	67	4281
2026-01-24 13:30:39.15	297.92	9.72	-47.2	-49.1	17.7	0.00e+00	0	43	0	423624704	66	4365
2026-01-24 13:30:40.16	298.10	9.72	-47.1	-49.0	17.8	0.00e+00	0	43	0	424673280	66	4294
2026-01-24 13:30:41.17	298.28	9.72	-47.1	-48.9	17.8	0.00e+00	0	43	0	426770432	66	4253
2026-01-24 13:30:42.18	298.46	9.72	-46.9	-48.7	18.0	0.00e+00	0	43	0	428867584	65	4425
2026-01-24 13:30:43.19	298.64	9.71	-46.9	-48.7	18.0	0.00e+00	0	43	0	430964736	65	4427
2026-01-24 13:30:44.19	298.82	9.71	-47.1	-49.0	17.7	0.00e+00	0	43	0	432013312	65	4554
2026-01-24 13:30:45.20	299.00	9.71	-46.9	-48.6	18.1	0.00e+00	0	43	0	434110464	65	4371
2026-01-24 13:30:46.21	299.18	9.71	-46.8	-48.5	18.2	0.00e+00	0	43	0	436207616	65	4324
2026-01-24 13:30:47.22	299.35	9.70	-46.5	-48.1	18.5	0.00e+00	0	43	0	438304768	65	4120
2026-01-24 13:30:48.22	299.53	9.70	-46.4	-48.0	18.7	0.00e+00	0	43	0	440401920	64	4298
2026-01-24 13:30:49.23	299.71	9.70	-46.2	-47.7	19.0	0.00e+00	0	43	0	441450496	64	4180
2026-01-24 13:30:50.24	299.89	9.69	-46.3	-47.8	18.8	0.00e+00	0	43	0	443547648	64	4234
2026-01-24 13:30:51.25	300.07	9.69	-46.4	-48.1	18.6	0.00e+00	0	43	0	445644800	64	4352
2026-01-24 13:30:52.26	300.25	9.69	-46.6	-48.3	18.4	0.00e+00	0	43	0	447741952	64	4483
2026-01-24 13:30:53.27	300.42	9.68	-46.6	-48.2	18.5	0.00e+00	0	43	0	449839104	64	4429
2026-01-24 13:30:54.28	300.60	9.68	-46.9	-48.6	18.1	0.00e+00	0	43	0	451936256	64	4643
2026-01-24 13:30:55.29	300.78	9.67	-46.9	-48.6	18.1	0.00e+00	0	43	0	452984832	64	4636
2026-01-24 13:30:56.29	300.96	9.67	-47.1	-49.0	17.7	0.00e+00	0	43	0	455081984	64	4816
2026-01-24 13:30:57.30	301.14	9.66	-47.0	-48.8	17.9	0.00e+00	0	43	0	457179136	64	4720
2026-01-24 13:30:58.31	301.31	9.66	-46.8	-48.5	18.2	0.00e+00	0	43	0	459276288	64	4559
2026-01-24 13:30:59.32	301.49	9.65	-46.7	-48.5	18.2	0.00e+00	0	43	0	460324864	64	4546
2026-01-24 13:31:00.33	301.67	9.65	-46.7	-48.4	18.2	0.00e+00	0	43	0	462422016	64	4525
2026-01-24 13:31:01.34	301.85	9.64	-46.7	-48.4	18.3	0.00e+00	0	43	0	464519168	64	4521
2026-01-24 13:31:02.35	302.03	9.63	-47.1	-48.9	17.9	0.00e+00	0	43	0	466616320	64	4781
2026-01-24 13:31:03.35	302.20	9.63	-47.0	-48.8	17.9	0.00e+00	0	43	0	468713472	64	4749
2026-01-24 13:31:04.36	302.38	9.62	-47.2	-49.0	17.7	0.00e+00	0	43	0	470810624	64	4859
2026-01-24 13:31:05.37	302.56	9.61	-47.2	-49.1	17.7	0.00e+00	0	43	0	471859200	65	4610
2026-01-24 13:31:06.38	302.74	9.61	-47.1	-49.0	17.7	0.00e+00	0	43	0	473956352	65	4559
2026-01-24 13:31:07.39	302.91	9.60	-47.1	-49.0	17.7	0.00e+00	0	43	0	476053504	65	4574
2026-01-24 13:31:08.40	303.09	9.59	-47.2	-49.1	17.6	0.00e+00	0	43	0	478150656	65	4621
2026-01-24 13:31:09.41	303.27	9.58	-47.0	-48.8	17.9	0.00e+00	0	43	0	480247808	65	4458
2026-01-24 13:31:10.41	303.44	9.57	-46.7	-48.4	18.3	0.00e+00	0	43	0	481296384	65	4269
2026-01-24 13:31:11.42	303.62	9.57	-46.5	-48.2	18.6	0.00e+00	0	43	0	483393536	65	4152
2026-01-24 13:31:12.43	303.80	9.56	-46.5	-48.2	18.4	0.00e+00	0	43	0	485490688	65	4176
2026-01-24 13:31:13.44	303.98	9.55	-46.5	-48.1	18.5	0.00e+00	0	43	0	487587840	64	4380
2026-01-24 13:31:14.45	304.15	9.54	-46.6	-48.4	18.3	0.00e+00	0	43	0	489684992	64	4501
2026-01-24 13:31:15.46	304.33	9.53	-46.6	-48.2	18.4	0.00e+00	0	43	0	490733568	64	4438
2026-01-24 13:31:16.46	304.50	9.52	-46.7	-48.4	18.3	0.00e+00	0	43	0	492830720	64	4506
2026-01-24 13:31:17.47	304.68	9.51	-46.8	-48.6	18.1	0.00e+00	0	43	0	494927872	64	4604
2026-01-24 13:31:18.48	304.86	9.50	-46.4	-48.0	18.6	0.00e+00	0	43	0	497025024	64	4319
2026-01-24 13:31:19.49	305.03	9.49	-46.4	-48.0	18.6	0.00e+00	0	43	0	499122176	64	4313
2026-01-24 13:31:20.50	305.21	9.48	-46.0	-47.5	19.1	0.00e+00	0	43	0	500170752	64	4089
2026-01-24 13:31:21.51	305.39	9.47	-45.9	-47.4	19.2	0.00e+00	0	43	0	502267904	63	4278
2026-01-24 13:31:22.52	305.56	9.46	-45.8	-47.3	19.4	0.00e+00	0	43	0	504365056	63	4211
2026-01-24 13:31:23.53	305.74	9.44	-45.6	-47.1	19.5	0.00e+00	0	43	0	506462208	63	4108
2026-01-24 13:31:24.53	305.91	9.43	-45.7	-47.1	19.5	0.00e+00	0	43	0	508559360	63	4122
2026-01-24 13:31:25.54	306.09	9.42	-45.7	-47.1	19.6	0.00e+00	0	43	0	509607936	63	4112
2026-01-24 13:31:26.55	306.26	9.41	-45.8	-47.2	19.4	0.00e+00	0	43	0	511705088	63	4184
2026-01-24 13:31:27.56	306.44	9.40	-45.9	-47.4	19.2	0.00e+00	0	43	0	513802240	63	4246
2026-01-24 13:31:28.57	306.61	9.38	-46.0	-47.5	19.2	0.00e+00	0	43	0	515899392	63	4306
2026-01-24 13:31:29.57	306.78	9.37	-46.2	-47.8	18.9	0.00e+00	0	43	0	517996544	63	4443
2026-01-24 13:31:30.58	306.96	9.36	-46.1	-47.7	19.0	0.00e+00	0	43	0	519045120	63	4413
2026-01-24 13:31:31.59	307.13	9.35	-46.4	-48.1	18.6	0.00e+00	0	43	0	521142272	63	4602
2026-01-24 13:31:32.60	307.31	9.33	-46.4	-48.0	18.6	0.00e+00	0	43	0	523239424	63	4591
2026-01-24 13:31:33.60	307.48	9.32	-46.2	-47.7	18.9	0.00e+00	0	43	0	525336576	63	4436
2026-01-24 13:31:34.61	307.65	9.31	-46.2	-47.8	18.9	0.00e+00	0	43	0	527433728	63	4445
2026-01-24 13:31:35.62	307.83	9.29	-46.2	-47.7	18.9	0.00e+00	0	43	0	528482304	63	4424
2026-01-24 13:31:36.63	308.00	9.28	-46.2	-47.8	18.8	0.00e+00	0	43	0	530579456	63	4451
2026-01-24 13:31:37.63	308.17	9.26	-46.3	-47.9	18.7	0.00e+00	0	43	0	532676608	63	4530
2026-01-24 13:31:38.64	308.35	9.25	-46.3	-47.9	18.7	0.00e+00	0	43	0	534773760	63	4535
2026-01-24 13:31:39.65	308.52	9.23	-46.3	-47.9	18.8	0.00e+00	0	43	0	536870912	63	4510
2026-01-24 13:31:40.66	308.69	9.22	-46.3	-47.9	18.7	0.00e+00	0	43	0	537919488	63	4536
2026-01-24 13:31:41.67	308.87	9.20	-46.1	-47.9	18.7	0.00e+00	0	43	0	540016640	63	4543
2026-01-24 13:31:42.67	309.04	9.19	-46.0	-47.8	18.8	0.00e+00	0	43	0	542113792	63	4472
2026-01-24 13:31:43.68	309.21	9.17	-46.1	-47.8	18.8	0.00e+00	0	43	0	544210944	63	4480
2026-01-24 13:31:44.69	309.38	9.16	-46.2	-47.8	18.8	0.00e+00	0	43	0	546308096	63	4483
2026-01-24 13:31:45.70	309.56	9.14	-46.1	-47.6	18.9	0.00e+00	0	43	0	547356672	63	4384
2026-01-24 13:31:46.70	309.73	9.12	-46.0	-47.6	19.0	0.00e+00	0	43	0	549453824	63	4357
2026-01-24 13:31:47.71	309.90	9.11	-46.0	-47.5	19.1	0.00e+00	0	43	0	551550976	63	4310
2026-01-24 13:31:48.72	310.07	9.09	-45.9	-47.4	19.2	0.00e+00	0	43	0	553648128	63	4274
2026-01-24 13:31:49.73	310.24	9.07	-46.4	-48.0	18.6	0.00e+00	0	43	0	555745280	63	4573
2026-01-24 13:31:50.74	310.41	9.06	-46.4	-48.0	18.6	0.00e+00	0	43	0	556793856	63	4570
2026-01-24 13:31:51.75	310.58	9.04	-46.4	-48.0	18.6	0.00e+00	0	43	0	558891008	63	4582
2026-01-24 13:31:52.75	310.75	9.02	-46.7	-48.4	18.1	0.00e+00	0	43	0	560988160	64	4535
2026-01-24 13:31:53.76	310.92	9.00	-46.8	-48.6	17.9	0.00e+00	0	43	0	563085312	64	4633
2026-01-24 13:31:54.77	311.09	8.99	-46.7	-48.4	18.1	0.00e+00	0	43	0	565182464	64	4520
2026-01-24 13:31:55.78	311.26	8.97	-46.8	-48.6	18.0	0.00e+00	0	43	0	566231040	64	4601
2026-01-24 13:31:56.78	311.43	8.95	-46.8	-48.6	17.9	0.00e+00	0	43	0	568328192	64	4635
2026-01-24 13:31:57.79	311.60	8.93	-46.9	-48.7	17.8	0.00e+00	0	43	0	570425344	64	4692
2026-01-24 13:31:58.80	311.77	8.91	-46.8	-48.6	18.0	0.00e+00	0	43	0	572522496	64	4611
2026-01-24 13:31:59.81	311.94	8.89	-46.7	-48.5	18.0	0.00e+00	0	43	0	574619648	64	4576
2026-01-24 13:32:00.82	312.11	8.87	-46.6	-48.3	18.2	0.00e+00	0	43	0	575668224	64	4479
2026-01-24 13:32:01.83	312.28	8.85	-46.4	-48.1	18.3	0.00e+00	0	43	0	577765376	64	4373
2026-01-24 13:32:02.84	312.45	8.83	-46.5	-48.2	18.3	0.00e+00	0	43	0	579862528	64	4421
2026-01-24 13:32:03.85	312.62	8.81	-46.1	-47.7	18.8	0.00e+00	0	43	0	581959680	64	4164
2026-01-24 13:32:04.85	312.78	8.79	-46.0	-47.6	18.9	0.00e+00	0	43	0	584056832	63	4360
2026-01-24 13:32:05.86	312.95	8.77	-45.7	-47.2	19.3	0.00e+00	0	43	0	586153984	63	4180
2026-01-24 13:32:06.87	313.12	8.75	-45.6	-47.0	19.4	0.00e+00	0	43	0	587202560	63	4089
2026-01-24 13:32:07.88	313.29	8.73	-45.4	-46.8	19.7	0.00e+00	0	43	0	589299712	62	4205
2026-01-24 13:32:08.89	313.45	8.71	-45.2	-46.6	19.9	0.00e+00	0	43	0	591396864	62	4101
2026-01-24 13:32:09.90	313.62	8.69	-45.0	-46.3	20.1	0.00e+00	0	43	0	593494016	61	4230
2026-01-24 13:32:10.91	313.79	8.67	-45.0	-46.3	20.1	0.00e+00	0	43	0	594542592	61	4218
2026-01-24 13:32:11.91	313.95	8.65	-45.0	-46.3	20.0	0.00e+00	0	43	0	596639744	61	4238
2026-01-24 13:32:12.92	314.12	8.63	-45.0	-46.4	20.0	0.00e+00	0	43	0	598736896	61	4258
2026-01-24 13:32:13.93	314.28	8.61	-45.2	-46.5	19.9	0.00e+00	0	43	0	600834048	61	4336
2026-01-24 13:32:14.94	314.45	8.58	-45.4	-46.8	19.6	0.00e+00	0	43	0	602931200	61	4451
2026-01-24 13:32:15.95	314.62	8.56	-45.5	-46.9	19.5	0.00e+00	0	43	0	605028352	61	4525
2026-01-24 13:32:16.96	314.78	8.54	-45.5	-47.0	19.4	0.00e+00	0	43	0	606076928	61	4568
2026-01-24 13:32:17.96	314.95	8.52	-45.4	-46.9	19.5	0.00e+00	0	43	0	608174080	61	4504
2026-01-24 13:32:18.97	315.11	8.49	-45.6	-47.1	19.3	0.00e+00	0	43	0	610271232	61	4616
2026-01-24 13:32:19.98	315.27	8.47	-45.7	-47.2	19.2	0.00e+00	0	43	0	612368384	61	4656
2026-01-24 13:32:20.99	315.44	8.45	-45.6	-47.1	19.3	0.00e+00	0	43	0	614465536	62	4356
2026-01-24 13:32:21.99	315.60	8.43	-45.6	-47.1	19.3	0.00e+00	0	43	0	615514112	62	4365
2026-01-24 13:32:23.00	315.77	8.40	-45.7	-47.2	19.3	0.00e+00	0	43	0	617611264	62	4402
2026-01-24 13:32:24.01	315.93	8.38	-45.8	-47.3	19.1	0.00e+00	0	43	0	619708416	62	4447
2026-01-24 13:32:25.02	316.09	8.35	-45.7	-47.1	19.2	0.00e+00	0	43	0	621805568	62	4390
2026-01-24 13:32:26.03	316.26	8.33	-45.7	-47.2	19.2	0.00e+00	0	43	0	622854144	62	4396
2026-01-24 13:32:27.03	316.42	8.31	-45.7	-47.1	19.3	0.00e+00	0	43	0	624951296	62	4386
2026-01-24 13:32:28.04	316.58	8.28	-45.7	-47.2	19.2	0.00e+00	0	43	0	627048448	62	4418
2026-01-24 13:32:29.05	316.74	8.26	-45.8	-47.3	19.1	0.00e+00	0	43	0	629145600	62	4460
2026-01-24 13:32:30.06	316.90	8.23	-45.7	-47.2	19.2	0.00e+00	0	43	0	631242752	62	4420
2026-01-24 13:32:31.07	317.07	8.21	-45.9	-47.5	18.9	0.00e+00	0	43	0	633339904	62	4550
2026-01-24 13:32:32.07	317.23	8.18	-46.2	-47.8	18.6	0.00e+00	0	43	0	634388480	62	4739
2026-01-24 13:32:33.08	317.39	8.16	-46.4	-48.0	18.4	0.00e+00	0	43	0	636485632	63	4595
2026-01-24 13:32:34.09	317.55	8.13	-46.3	-47.9	18.5	0.00e+00	0	43	0	638582784	63	4529
2026-01-24 13:32:35.10	317.71	8.11	-46.0	-47.6	18.8	0.00e+00	0	43	0	640679936	63	4377
2026-01-24 13:32:36.11	317.87	8.08	-45.9	-47.4	18.9	0.00e+00	0	43	0	642777088	63	4289
2026-01-24 13:32:37.11	318.03	8.06	-45.9	-47.4	19.0	0.00e+00	0	43	0	643825664	63	4273
2026-01-24 13:32:38.12	318.19	8.03	-45.6	-47.0	19.3	0.00e+00	0	43	0	645922816	63	4089
2026-01-24 13:32:39.13	318.35	8.00	-45.3	-46.7	19.6	0.00e+00	0	43	0	648019968	62	4187
2026-01-24 13:32:40.14	318.51	7.98	-45.0	-46.4	19.9	0.00e+00	0	43	0	650117120	62	4005
2026-01-24 13:32:41.14	318.66	7.95	-45.1	-46.5	19.8	0.00e+00	0	43	0	652214272	61	4301
2026-01-24 13:32:42.15	318.82	7.93	-45.2	-46.6	19.6	0.00e+00	0	43	0	653262848	61	4383
2026-01-24 13:32:43.16	318.98	7.90	-45.5	-46.9	19.4	0.00e+00	0	43	0	655360000	61	4536
2026-01-24 13:32:44.17	319.14	7.87	-45.7	-47.2	19.1	0.00e+00	0	43	0	657457152	62	4423
2026-01-24 13:32:45.18	319.30	7.85	-45.8	-47.4	18.9	0.00e+00	0	43	0	659554304	62	4494
2026-01-24 13:32:46.19	319.46	7.82	-45.9	-47.5	18.8	0.00e+00	0	43	0	661651456	62	4567
2026-01-24 13:32:47.20	319.61	7.79	-45.9	-47.5	18.8	0.00e+00	0	43	0	662700032	62	4560
2026-01-24 13:32:48.20	319.77	7.76	-46.0	-47.6	18.6	0.00e+00	0	43	0	664797184	62	4650
2026-01-24 13:32:49.21	319.93	7.74	-46.1	-47.7	18.7	0.00e+00	0	43	0	666894336	62	4664
2026-01-24 13:32:50.22	320.08	7.71	-46.1	-47.7	18.6	0.00e+00	0	43	0	668991488	62	4673
2026-01-24 13:32:51.22	320.24	7.68	-45.8	-47.3	19.0	0.00e+00	0	43	0	671088640	62	4471
2026-01-24 13:32:52.23	320.39	7.65	-46.0	-47.6	18.7	0.00e+00	0	43	0	672137216	62	4621
2026-01-24 13:32:53.24	320.55	7.62	-46.1	-47.7	18.6	0.00e+00	0	43	0	674234368	62	4669
2026-01-24 13:32:54.25	320.70	7.60	-46.0	-47.6	18.7	0.00e+00	0	43	0	676331520	62	4631
2026-01-24 13:32:55.26	320.86	7.57	-46.2	-47.9	18.4	0.00e+00	0	43	0	678428672	63	4509
2026-01-24 13:32:56.26	321.01	7.54	-46.3	-47.9	18.4	0.00e+00	0	43	0	680525824	63	4533
2026-01-24 13:32:57.27	321.17	7.51	-46.3	-48.0	18.3	0.00e+00	0	43	0	681574400	63	4567
2026-01-24 13:32:58.28	321.32	7.48	-46.5	-48.2	18.1	0.00e+00	0	43	0	683671552	63	4697
2026-01-24 13:32:59.29	321.47	7.45	-46.5	-48.3	18.2	0.00e+00	0	43	0	685768704	63	4707
2026-01-24 13:33:00.29	321.63	7.42	-46.7	-48.5	17.7	0.00e+00	0	43	0	687865856	64	4597
2026-01-24 13:33:01.30	321.78	7.39	-46.8	-48.7	17.6	0.00e+00	0	43	0	689963008	64	4671
2026-01-24 13:33:02.31	321.93	7.36	-47.0	-48.9	17.3	0.00e+00	0	43	0	691011584	64	4788
2026-01-24 13:33:03.32	322.09	7.33	-46.9	-48.7	17.5	0.00e+00	0	43	0	693108736	64	4693
2026-01-24 13:33:04.33	322.24	7.30	-47.2	-49.2	17.1	0.00e+00	0	43	0	695205888	64	4929
2026-01-24 13:33:05.33	322.39	7.27	-46.9	-48.8	17.4	0.00e+00	0	43	0	697303040	64	4750
2026-01-24 13:33:06.34	322.54	7.24	-47.0	-49.0	17.3	0.00e+00	0	43	0	699400192	64	4825
2026-01-24 13:33:07.35	322.69	7.21	-47.1	-49.1	17.1	0.00e+00	0	43	0	701497344	64	4904
2026-01-24 13:33:08.36	322.84	7.18	-47.3	-49.3	17.0	0.00e+00	0	43	0	702545920	65	4734
2026-01-24 13:33:09.37	322.99	7.15	-47.2	-49.2	17.1	0.00e+00	0	43	0	704643072	65	4670
2026-01-24 13:33:10.37	323.14	7.12	-47.1	-49.1	17.1	0.00e+00	0	43	0	706740224	65	4630
2026-01-24 13:33:11.38	323.29	7.09	-47.3	-49.3	17.0	0.00e+00	0	43	0	708837376	65	4741
2026-01-24 13:33:12.39	323.44	7.06	-47.5	-49.7	16.6	0.00e+00	0	43	0	709885952	65	4937
2026-01-24 13:33:13.40	323.59	7.03	-47.5	-49.6	16.6	0.00e+00	0	43	0	711983104	65	4926
2026-01-24 13:33:14.41	323.74	7.00	-47.5	-49.6	16.7	0.00e+00	0	43	0	714080256	65	4905
2026-01-24 13:33:15.41	323.89	6.97	-47.2	-49.3	16.9	0.00e+00	0	43	0	716177408	65	4734
2026-01-24 13:33:16.42	324.04	6.94	-47.2	-49.2	17.0	0.00e+00	0	43	0	718274560	65	4678
2026-01-24 13:33:17.43	324.19	6.91	-47.1	-49.1	17.1	0.00e+00	0	43	0	719323136	65	4639
2026-01-24 13:33:18.44	324.33	6.87	-47.2	-49.3	16.9	0.00e+00	0	43	0	721420288	65	4728
2026-01-24 13:33:19.45	324.48	6.84	-47.1	-49.1	17.2	0.00e+00	0	43	0	723517440	65	4610
2026-01-24 13:33:20.45	324.63	6.81	-47.0	-49.0	17.2	0.00e+00	0	43	0	725614592	65	4570
2026-01-24 13:33:21.46	324.78	6.78	-47.1	-49.1	17.2	0.00e+00	0	43	0	727711744	65	4607
2026-01-24 13:33:22.47	324.92	6.75	-47.3	-49.4	16.8	0.00e+00	0	43	0	729808896	65	4804
2026-01-24 13:33:23.48	325.07	6.71	-47.5	-49.7	16.6	0.00e+00	0	43	0	730857472	65	4942
2026-01-24 13:33:24.49	325.22	6.68	-47.7	-49.9	16.3	0.00e+00	0	43	0	732954624	66	4798
2026-01-24 13:33:25.49	325.36	6.65	-47.5	-49.6	16.6	0.00e+00	0	43	0	735051776	66	4625
2026-01-24 13:33:26.50	325.51	6.62	-47.5	-49.7	16.5	0.00e+00	0	43	0	737148928	66	4693
2026-01-24 13:33:27.51	325.65	6.59	-47.6	-49.8	16.5	0.00e+00	0	43	0	738197504	66	4739
2026-01-24 13:33:28.52	325.80	6.55	-47.4	-49.6	16.6	0.00e+00	0	43	0	740294656	66	4608
2026-01-24 13:33:29.53	325.94	6.52	-47.7	-50.0	16.2	0.00e+00	0	43	0	742391808	66	4837
2026-01-24 13:33:30.53	326.08	6.49	-47.8	-50.1	16.1	0.00e+00	0	43	0	744488960	66	4907
2026-01-24 13:33:31.54	326.23	6.45	-47.9	-50.3	16.0	0.00e+00	0	43	0	746586112	66	5007
2026-01-24 13:33:32.55	326.37	6.42	-48.0	-50.4	15.8	0.00e+00	0	43	0	748683264	66	5091
2026-01-24 13:33:33.56	326.51	6.39	-48.4	-51.1	15.1	0.00e+00	0	43	0	749731840	67	5204
2026-01-24 13:33:34.57	326.66	6.35	-48.6	-51.3	14.9	7.00e-07	0	43	0	751828992	67	5317
2026-01-24 13:33:35.57	326.80	6.32	-49.0	-52.0	14.3	0.00e+00	0	43	0	753926144	68	5420
2026-01-24 13:33:36.58	326.94	6.29	-49.1	-52.2	14.1	0.00e+00	0	43	0	756023296	68	5537
2026-01-24 13:33:37.59	327.08	6.25	-49.0	-52.0	14.3	7.00e-07	0	43	0	758120448	68	5437
2026-01-24 13:33:38.60	327.23	6.22	-49.1	-52.2	14.2	2.20e-06	0	43	0	759169024	68	5535
2026-01-24 13:33:39.61	327.37	6.19	-48.8	-51.7	14.6	0.00e+00	0	43	0	761266176	68	5253
2026-01-24 13:33:40.61	327.51	6.15	-48.8	-51.7	14.6	0.00e+00	0	43	0	763363328	68	5250
2026-01-24 13:33:41.62	327.65	6.12	-48.6	-51.4	14.9	0.00e+00	0	43	0	765460480	68	5047
2026-01-24 13:33:42.63	327.79	6.08	-48.3	-50.9	15.4	0.00e+00	0	43	0	766509056	68	4787
2026-01-24 13:33:43.63	327.93	6.05	-48.3	-50.9	15.4	0.00e+00	0	43	0	768606208	68	4784
2026-01-24 13:33:44.64	328.07	6.02	-48.4	-51.1	15.2	0.00e+00	0	43	0	770703360	68	4884
2026-01-24 13:33:45.65	328.21	5.98	-48.3	-50.9	15.3	0.00e+00	0	43	0	772800512	68	4795
2026-01-24 13:33:46.66	328.35	5.95	-48.2	-50.8	15.5	0.00e+00	0	43	0	774897664	68	4714
2026-01-24 13:33:47.67	328.48	5.91	-48.2	-50.7	15.5	0.00e+00	0	43	0	776994816	68	4675
2026-01-24 13:33:48.67	328.62	5.88	-48.1	-50.6	15.7	0.00e+00	0	43	0	778043392	68	4614
2026-01-24 13:33:49.68	328.76	5.84	-48.1	-50.6	15.6	0.00e+00	0	43	0	780140544	68	4618
2026-01-24 13:33:50.69	328.90	5.81	-47.9	-50.4	15.7	0.00e+00	0	43	0	782237696	67	4775
2026-01-24 13:33:51.69	329.03	5.77	-48.2	-50.8	15.2	0.00e+00	0	43	0	784334848	67	5037
2026-01-24 13:33:52.70	329.17	5.74	-48.4	-51.1	15.0	0.00e+00	0	43	0	786432000	67	5181
2026-01-24 13:33:53.71	329.31	5.70	-48.3	-50.9	15.1	0.00e+00	0	43	0	787480576	67	5095
2026-01-24 13:33:54.72	329.45	5.67	-48.4	-51.1	14.9	0.00e+00	0	43	0	789577728	67	5218
2026-01-24 13:33:55.73	329.58	5.63	-48.4	-51.2	14.9	0.00e+00	0	43	0	791674880	67	5250
2026-01-24 13:33:56.73	329.72	5.60	-48.5	-51.4	14.7	0.00e+00	0	43	0	793772032	67	5366
2026-01-24 13:33:57.74	329.85	5.56	-48.5	-51.3	14.8	0.00e+00	0	43	0	795869184	67	5282
2026-01-24 13:33:58.75	329.99	5.53	-48.7	-51.6	14.5	1.50e-06	0	43	0	796917760	67	5492
2026-01-24 13:33:59.76	330.12	5.49	-48.4	-51.2	14.8	0.00e+00	0	43	0	799014912	67	5269
2026-01-24 13:34:00.77	330.26	5.45	-48.6	-51.6	14.4	0.00e+00	0	43	0	801112064	67	5470
2026-01-24 13:34:01.77	330.39	5.42	-48.1	-50.7	15.3	0.00e+00	0	43	0	803209216	67	4955
2026-01-24 13:34:02.78	330.53	5.38	-48.2	-50.8	15.2	0.00e+00	0	43	0	805306368	67	4996
2026-01-24 13:34:03.79	330.66	5.35	-48.1	-50.7	15.4	0.00e+00	0	43	0	806354944	67	4936
2026-01-24 13:34:04.80	330.79	5.31	-47.7	-50.1	15.9	0.00e+00	0	43	0	808452096	67	4626
2026-01-24 13:34:05.81	330.93	5.27	-47.8	-50.1	15.8	0.00e+00	0	43	0	810549248	67	4651
2026-01-24 13:34:06.82	331.06	5.24	-47.7	-50.1	15.9	0.00e+00	0	43	0	812646400	67	4614
2026-01-24 13:34:07.83	331.19	5.20	-47.7	-50.0	16.0	0.00e+00	0	43	0	814743552	66	4860
2026-01-24 13:34:08.84	331.32	5.17	-48.1	-50.7	15.3	0.00e+00	0	43	0	815792128	66	5227
2026-01-24 13:34:09.84	331.46	5.13	-48.0	-50.6	15.5	0.00e+00	0	43	0	817889280	66	5171
2026-01-24 13:34:10.85	331.59	5.09	-47.9	-50.4	15.6	7.00e-07	0	43	0	819986432	67	4762
2026-01-24 13:34:11.86	331.72	5.06	-47.9	-50.4	15.6	0.00e+00	0	43	0	822083584	67	4793
2026-01-24 13:34:12.87	331.85	5.02	-48.0	-50.5	15.5	0.00e+00	0	43	0	824180736	67	4837
2026-01-24 13:34:13.88	331.98	4.98	-52.3	-66.9	3.8	7.00e-07	10	43	0	825229312	75	20200
2026-01-24 13:34:14.89	332.11	4.95	-52.8	-67.8	3.8	1.49e+00	0	43	104	825229312	76	21087
2026-01-24 13:34:15.89	332.24	4.91	-53.1	-68.1	3.8	1.49e+00	0	43	104	825229312	76	21857
2026-01-24 13:34:16.90	332.37	4.87	-53.3	-68.3	3.8	1.49e+00	0	43	104	825229312	77	21090
2026-01-24 13:34:17.91	332.50	4.84	-53.5	-68.4	3.8	1.49e+00	0	43	104	825229312	77	21502
2026-01-24 13:34:18.92	332.63	4.80	-53.5	-67.6	3.8	1.49e+00	0	43	104	825229312	77	19612
2026-01-24 13:34:19.93	332.76	4.76	-53.7	-68.7	3.8	1.49e+00	0	43	104	825229312	78	20879
2026-01-24 13:34:20.93	332.88	4.72	-53.8	-68.8	3.8	1.49e+00	0	43	104	825229312	78	21237
2026-01-24 13:34:21.94	333.01	4.69	-53.9	-68.9	3.8	1.49e+00	0	43	104	825229312	78	21482
2026-01-24 13:34:22.95	333.14	4.65	-54.0	-69.0	3.8	1.49e+00	0	43	104	825229312	78	21688
2026-01-24 13:34:23.96	333.27	4.61	-54.1	-69.1	3.8	1.49e+00	0	43	104	825229312	78	21803
2026-01-24 13:34:24.97	333.39	4.57	-54.1	-69.1	3.8	1.49e+00	0	43	104	825229312	78	21973
2026-01-24 13:34:25.97	333.52	4.54	-54.2	-69.2	3.8	1.49e+00	0	43	104	825229312	79	20980
2026-01-24 13:34:26.98	333.65	4.50	-54.3	-69.4	3.8	1.49e+00	0	43	104	825229312	79	21304
2026-01-24 13:34:27.99	333.77	4.46	-54.3	-69.3	3.8	1.49e+00	0	43	104	825229312	79	21133
2026-01-24 13:34:29.00	333.90	4.42	-54.3	-69.3	3.8	1.49e+00	0	43	104	825229312	79	21102
2026-01-24 13:34:30.00	334.02	4.39	-54.3	-69.3	3.8	1.49e+00	0	43	104	825229312	79	21094
2026-01-24 13:34:31.01	334.15	4.35	-54.3	-69.3	3.8	1.49e+00	0	43	104	825229312	79	21210
2026-01-24 13:34:32.02	334.27	4.31	-54.3	-69.3	3.8	1.49e+00	0	43	104	825229312	79	21161
2026-01-24 13:34:33.03	334.40	4.27	-54.2	-69.3	3.8	1.49e+00	0	43	104	825229312	79	21049
2026-01-24 13:34:34.04	334.52	4.24	-54.2	-69.2	3.8	1.49e+00	0	43	104	825229312	79	20909
2026-01-24 13:34:35.05	334.65	4.20	-54.2	-69.2	3.8	1.49e+00	0	43	104	825229312	79	20785
2026-01-24 13:34:36.06	334.77	4.16	-54.1	-69.1	3.8	1.49e+00	0	43	104	825229312	79	20654
2026-01-24 13:34:37.07	334.90	4.12	-54.0	-69.0	3.8	1.49e+00	0	44	104	825229312	79	20514
2026-01-24 13:34:38.08	335.02	4.08	-54.0	-69.0	3.8	1.49e+00	0	43	104	825229312	79	20390
2026-01-24 13:34:39.08	335.14	4.05	-54.1	-69.1	3.8	1.49e+00	0	43	104	825229312	79	20571
2026-01-24 13:34:40.09	335.26	4.01	-53.9	-69.0	3.8	1.49e+00	0	43	104	825229312	79	20308
2026-01-24 13:34:41.10	335.38	3.97	-53.9	-68.9	3.8	1.49e+00	0	43	104	825229312	79	20240
2026-01-24 13:34:42.11	335.51	3.93	-53.9	-68.9	3.8	1.49e+00	0	43	104	825229312	79	20146
2026-01-24 13:34:43.12	335.63	3.89	-53.9	-68.9	3.8	1.49e+00	0	43	104	825229312	79	20097
2026-01-24 13:34:44.13	335.75	3.85	-53.8	-68.8	3.8	1.49e+00	0	43	104	825229312	79	20056
2026-01-24 13:34:45.14	335.87	3.81	-53.8	-68.8	3.8	1.49e+00	0	43	104	825229312	79	20063
2026-01-24 13:34:46.15	335.99	3.78	-53.8	-68.8	3.8	1.49e+00	0	43	104	825229312	79	20026
2026-01-24 13:34:47.15	336.11	3.74	-53.8	-68.9	3.8	1.49e+00	0	43	104	825229312	79	20095
2026-01-24 13:34:48.16	336.23	3.70	-53.8	-68.8	3.8	1.49e+00	0	43	104	825229312	79	19905
2026-01-24 13:34:49.17	336.35	3.66	-53.8	-68.8	3.8	1.49e+00	0	43	104	825229312	79	19994
2026-01-24 13:34:50.18	336.47	3.62	-53.8	-68.8	3.8	1.49e+00	0	43	104	825229312	79	19909
2026-01-24 13:34:51.19	336.59	3.58	-53.8	-68.8	3.8	1.49e+00	0	43	104	825229312	79	19927
2026-01-24 13:34:52.20	336.71	3.54	-53.8	-68.8	3.8	1.49e+00	0	43	104	825229312	79	19898
2026-01-24 13:34:53.21	336.83	3.50	-53.8	-68.8	3.8	1.49e+00	0	43	104	825229312	79	19843
2026-01-24 13:34:54.21	336.95	3.47	-53.8	-68.8	3.8	1.49e+00	0	43	104	825229312	79	19885
2026-01-24 13:34:55.22	337.06	3.43	-53.8	-68.8	3.8	1.49e+00	0	43	104	825229312	79	19844
2026-01-24 13:34:56.23	337.18	3.39	-53.8	-68.7	3.8	1.49e+00	0	43	104	825229312	79	19813
2026-01-24 13:34:57.24	337.30	3.35	-53.8	-68.8	3.8	1.49e+00	0	43	104	825229312	79	19923
2026-01-24 13:34:58.25	337.42	3.31	-53.8	-68.8	3.8	1.49e+00	0	43	104	825229312	79	19901
2026-01-24 13:34:59.26	337.53	3.27	-53.8	-68.8	3.8	1.49e+00	0	43	104	825229312	79	19885
2026-01-24 13:35:00.27	337.65	3.23	-53.8	-68.8	3.8	1.49e+00	0	43	104	825229312	79	19879
2026-01-24 13:35:01.27	337.76	3.19	-53.8	-68.8	3.8	1.49e+00	0	43	104	825229312	79	19855
2026-01-24 13:35:02.28	337.88	3.15	-53.8	-68.8	3.8	1.49e+00	0	43	104	825229312	79	19887
2026-01-24 13:35:03.29	338.00	3.11	-53.8	-68.8	3.8	1.49e+00	0	43	104	825229312	79	19846
2026-01-24 13:35:04.30	338.11	3.08	-53.8	-68.8	3.8	1.49e+00	0	43	104	825229312	79	19846
2026-01-24 13:35:05.31	338.23	3.04	-53.7	-68.7	3.8	1.49e+00	0	43	104	825229312	79	19777
2026-01-24 13:35:06.32	338.34	3.00	-53.7	-68.7	3.8	1.49e+00	0	43	104	825229312	79	19787
2026-01-24 13:35:07.33	338.46	2.96	-53.7	-68.7	3.8	1.49e+00	0	43	104	825229312	79	19774
2026-01-24 13:35:08.33	338.57	2.92	-53.7	-68.7	3.8	1.49e+00	0	43	104	825229312	79	19787
2026-01-24 13:35:09.34	338.68	2.88	-53.7	-68.7	3.8	1.49e+00	0	43	104	825229312	79	19829
2026-01-24 13:35:10.34	338.80	2.84	-53.7	-68.7	3.8	1.49e+00	0	43	104	825229312	79	19785
2026-01-24 13:35:11.36	338.91	2.80	-53.7	-68.7	3.8	1.49e+00	0	43	104	825229312	79	19744
2026-01-24 13:35:12.37	339.02	2.76	-53.7	-68.7	3.8	1.49e+00	0	43	104	825229312	79	19735
2026-01-24 13:35:13.37	339.13	2.72	-53.7	-68.7	3.8	1.49e+00	0	43	104	825229312	79	19803
2026-01-24 13:35:14.38	339.25	2.68	-53.7	-68.7	3.8	1.49e+00	0	43	104	825229312	79	19761
2026-01-24 13:35:15.39	339.36	2.64	-53.7	-68.7	3.8	1.49e+00	0	43	104	825229312	79	19702
2026-01-24 13:35:16.40	339.47	2.60	-53.7	-68.7	3.8	1.49e+00	0	43	104	825229312	79	19728
2026-01-24 13:35:17.41	339.58	2.56	-53.7	-68.7	3.8	1.49e+00	0	43	104	825229312	79	19691
2026-01-24 13:35:18.42	339.69	2.52	-53.7	-68.7	3.8	1.49e+00	0	43	104	825229312	79	19710
2026-01-24 13:35:19.43	339.81	2.48	-53.7	-68.7	3.8	1.49e+00	0	43	104	825229312	79	19654
2026-01-24 13:35:20.44	339.92	2.44	-53.7	-68.7	3.8	1.49e+00	0	43	104	825229312	79	19702
2026-01-24 13:35:21.45	340.03	2.40	-53.7	-68.7	3.8	1.49e+00	0	43	104	825229312	79	19732
2026-01-24 13:35:22.45	340.14	2.36	-53.7	-68.7	3.8	1.49e+00	0	43	104	825229312	79	19707
2026-01-24 13:35:23.46	340.25	2.32	-53.7	-68.7	3.8	1.49e+00	0	43	104	825229312	79	19734
2026-01-24 13:35:24.47	340.36	2.28	-53.7	-68.7	3.8	1.49e+00	0	43	104	825229312	79	19631
2026-01-24 13:35:25.48	340.46	2.24	-53.7	-68.7	3.8	1.49e+00	0	43	104	825229312	79	19671
2026-01-24 13:35:26.49	340.57	2.20	-53.7	-68.7	3.8	1.49e+00	0	43	104	825229312	79	19714
2026-01-24 13:35:27.49	340.68	2.16	-53.7	-68.7	3.8	1.49e+00	0	43	104	825229312	79	19706
2026-01-24 13:35:28.51	340.79	2.12	-53.7	-68.7	3.8	1.49e+00	0	44	104	825229312	79	19686
2026-01-24 13:35:29.51	340.90	2.08	-53.7	-68.7	3.8	1.49e+00	0	43	104	825229312	79	19740
2026-01-24 13:35:30.52	341.01	2.04	-53.7	-68.7	3.8	1.49e+00	0	44	104	825229312	79	19780
2026-01-24 13:35:31.53	341.11	2.00	-53.7	-68.7	3.8	1.49e+00	0	44	104	825229312	79	19716

#Closed at: 2026-01-24 13:35:31
#Recorded file [825 MB]: D:/lorett/data/31041_260124_162541.dat