passes_logs/2026/01/24/R3.2S_Murmansk/R3.2S_Murmansk__20260124_075042_NOAA_21_JPSS-2_rec.log

#Pass ID: 20260124_075042_NOAA 21 (JPSS-2)
#Satellite: NOAA 21 (JPSS-2)
#Configuration: NOAA-21
#almurnet v.1.7.20251203
#Start time: 2026-01-24 07:52:30

#Version: 2.2.20231116
#Station: R3.2S_Murmansk
#Location: 33.079688 lon 68.888172 lat
#TLE: 1 54234U 22150A   26023.61190495  .00000215  00000+0  12293-3 0  9993
#TLE: 2 54234  98.7508 324.4078 0000700 226.6110 133.5008 14.19538339166032

#Time	Az	El	Level	Level2	SNR	BER	BlckErr	Temp	State	Recorded	gain1	gain2
2026-01-24 07:52:30.06	107.73	9.55	-53.8	-65.7	3.8	8.46e-01	0	43	0	0	79	13992
2026-01-24 07:52:31.06	107.67	9.63	-54.2	-67.1	3.8	1.49e+00	0	43	104	0	79	16318
2026-01-24 07:52:32.07	107.60	9.71	-54.2	-67.0	3.8	1.49e+00	0	43	104	0	79	16269
2026-01-24 07:52:33.07	107.54	9.79	-54.3	-67.0	3.8	1.49e+00	0	43	104	0	79	16234
2026-01-24 07:52:34.08	107.47	9.87	-54.2	-67.0	3.8	1.49e+00	0	44	104	0	79	16169
2026-01-24 07:52:35.09	107.41	9.95	-54.2	-67.0	3.8	1.49e+00	0	43	104	0	79	16128
2026-01-24 07:52:36.10	107.34	10.04	-54.1	-66.9	3.8	1.49e+00	0	43	104	0	79	16051
2026-01-24 07:52:37.11	107.27	10.12	-54.1	-66.9	3.8	1.49e+00	0	44	104	0	79	15993
2026-01-24 07:52:38.12	107.21	10.20	-54.0	-66.8	3.8	1.49e+00	0	43	104	0	79	15824
2026-01-24 07:52:39.13	107.14	10.28	-54.0	-66.8	3.8	1.49e+00	0	43	104	0	79	15764
2026-01-24 07:52:40.14	107.07	10.36	-54.0	-66.7	3.8	1.49e+00	0	43	104	0	79	15691
2026-01-24 07:52:41.15	107.01	10.45	-53.9	-66.7	3.8	1.49e+00	0	43	104	0	79	15695
2026-01-24 07:52:42.16	106.94	10.53	-53.9	-66.6	3.8	1.49e+00	0	43	104	0	79	15562
2026-01-24 07:52:43.17	106.87	10.61	-53.8	-66.6	3.8	1.49e+00	0	43	104	0	79	15502
2026-01-24 07:52:44.17	106.80	10.70	-53.8	-66.6	3.8	1.49e+00	0	43	104	0	79	15451
2026-01-24 07:52:45.18	106.73	10.78	-53.7	-66.5	3.8	1.49e+00	0	44	104	0	79	15335
2026-01-24 07:52:46.19	106.66	10.87	-53.7	-66.4	3.8	1.49e+00	0	44	104	0	79	15223
2026-01-24 07:52:47.20	106.59	10.95	-53.6	-66.4	3.8	1.49e+00	0	43	104	0	79	15084
2026-01-24 07:52:48.21	106.52	11.03	-53.6	-66.3	3.8	1.49e+00	0	43	104	0	79	14966
2026-01-24 07:52:49.22	106.45	11.12	-53.5	-66.3	3.8	1.49e+00	0	43	104	0	79	14908
2026-01-24 07:52:50.23	106.38	11.20	-53.4	-66.1	3.8	1.49e+00	0	43	104	0	78	15488
2026-01-24 07:52:51.23	106.30	11.29	-53.3	-66.1	3.8	1.49e+00	0	43	104	0	78	15412
2026-01-24 07:52:52.24	106.23	11.37	-53.2	-65.8	3.8	1.49e+00	0	43	104	0	78	14957
2026-01-24 07:52:53.25	106.16	11.46	-53.1	-65.7	3.8	1.49e+00	0	43	104	0	78	14771
2026-01-24 07:52:54.26	106.09	11.55	-53.0	-65.7	3.8	1.49e+00	0	44	104	0	78	14821
2026-01-24 07:52:55.27	106.01	11.63	-53.0	-65.7	3.8	1.49e+00	0	44	104	0	78	14810
2026-01-24 07:52:56.28	105.94	11.72	-53.0	-65.7	3.8	1.49e+00	0	43	104	0	78	14811
2026-01-24 07:52:57.29	105.86	11.81	-53.0	-65.7	3.8	1.49e+00	0	43	104	0	78	14771
2026-01-24 07:52:58.29	105.79	11.89	-53.0	-65.7	3.8	1.49e+00	0	44	104	0	78	14732
2026-01-24 07:52:59.30	105.71	11.98	-53.0	-65.5	3.8	1.49e+00	0	43	104	0	78	14520
2026-01-24 07:53:00.31	105.64	12.07	-52.9	-65.4	3.8	1.49e+00	0	43	104	0	77	15078
2026-01-24 07:53:01.32	105.56	12.16	-52.9	-65.2	3.8	1.49e+00	0	43	104	0	77	14847
2026-01-24 07:53:02.33	105.48	12.24	-52.9	-65.1	3.8	1.49e+00	0	44	104	0	77	14684
2026-01-24 07:53:03.34	105.41	12.33	-52.5	-65.2	3.8	1.49e+00	0	44	104	0	77	14737
2026-01-24 07:53:04.34	105.33	12.42	-51.4	-65.2	3.8	1.49e+00	0	44	104	0	74	17531
2026-01-24 07:53:05.35	105.25	12.51	-50.7	-65.2	3.8	1.49e+00	0	44	104	0	73	18702
2026-01-24 07:53:06.36	105.17	12.60	-51.2	-65.3	3.8	1.49e+00	0	43	104	0	73	18900
2026-01-24 07:53:07.37	105.09	12.69	-52.4	-65.4	3.8	1.49e+00	0	44	104	0	75	16978
2026-01-24 07:53:08.37	105.01	12.78	-52.8	-65.4	3.8	1.49e+00	0	44	104	0	76	16084
2026-01-24 07:53:09.38	104.93	12.87	-52.9	-65.4	3.8	1.49e+00	0	44	104	0	76	16019
2026-01-24 07:53:10.39	104.85	12.96	-52.9	-65.4	3.8	1.49e+00	0	44	104	0	76	16092
2026-01-24 07:53:11.40	104.77	13.05	-52.9	-65.1	3.8	1.49e+00	0	43	104	0	76	15577
2026-01-24 07:53:12.41	104.69	13.14	-52.8	-64.3	3.8	1.49e+00	0	44	104	0	76	14154
2026-01-24 07:53:13.41	104.60	13.23	-52.7	-62.8	4.0	1.48e+00	0	44	104	0	76	11894
2026-01-24 07:53:14.42	104.52	13.32	-52.6	-62.2	4.2	1.47e+00	0	44	104	0	76	11092
2026-01-24 07:53:15.43	104.44	13.41	-52.7	-62.7	4.1	1.47e+00	0	43	104	0	76	11763
2026-01-24 07:53:16.44	104.35	13.51	-52.8	-64.5	3.8	1.49e+00	0	44	104	0	76	14467
2026-01-24 07:53:17.45	104.27	13.60	-52.7	-64.0	3.8	1.49e+00	0	43	104	0	76	13687
2026-01-24 07:53:18.45	104.18	13.69	-51.9	-58.2	6.2	4.72e-01	0	43	104	0	75	7410
2026-01-24 07:53:19.46	104.10	13.78	-50.0	-53.2	11.1	5.52e-03	0	43	0	3145728	72	4961
2026-01-24 07:53:20.47	104.01	13.88	-47.9	-49.8	14.7	6.10e-06	0	43	0	6291456	67	4488
2026-01-24 07:53:21.48	103.92	13.97	-46.0	-47.4	17.0	0.00e+00	0	43	0	9437184	64	4033
2026-01-24 07:53:22.49	103.84	14.06	-44.6	-45.8	18.7	0.00e+00	0	43	0	12582912	61	3969
2026-01-24 07:53:23.49	103.75	14.16	-44.0	-45.0	19.7	0.00e+00	0	43	0	15728640	59	4071
2026-01-24 07:53:24.50	103.66	14.25	-43.8	-44.8	19.9	0.00e+00	0	43	0	18874368	59	3978
2026-01-24 07:53:25.51	103.57	14.35	-45.6	-47.0	17.8	0.00e+00	0	44	0	22020096	61	4557
2026-01-24 07:53:26.52	103.48	14.44	-43.8	-44.8	19.8	3.80e-06	0	44	0	25165824	59	3995
2026-01-24 07:53:27.52	103.39	14.53	-43.2	-44.2	20.5	0.00e+00	0	43	0	28311552	58	3927
2026-01-24 07:53:28.53	103.30	14.63	-43.1	-44.1	20.7	0.00e+00	0	43	0	31457280	57	4106
2026-01-24 07:53:29.54	103.21	14.73	-45.3	-46.5	18.0	3.73e-05	0	44	0	34603008	62	4081
2026-01-24 07:53:30.55	103.12	14.82	-42.6	-43.5	21.2	0.00e+00	0	43	0	37748736	57	3847
2026-01-24 07:53:31.56	103.02	14.92	-42.7	-43.6	21.0	0.00e+00	0	43	0	40894464	57	3910
2026-01-24 07:53:32.57	102.93	15.02	-42.6	-43.4	21.2	0.00e+00	0	43	0	44040192	57	3819
2026-01-24 07:53:33.57	102.84	15.11	-42.6	-43.5	21.1	0.00e+00	0	43	0	47185920	57	3859
2026-01-24 07:53:34.58	102.74	15.21	-42.7	-43.6	21.0	0.00e+00	0	43	0	50331648	57	3911
2026-01-24 07:53:35.59	102.65	15.31	-42.6	-43.5	21.1	0.00e+00	0	44	0	53477376	57	3851
2026-01-24 07:53:36.60	102.55	15.40	-42.8	-43.7	21.0	0.00e+00	0	43	0	56623104	57	3933
2026-01-24 07:53:37.61	102.45	15.50	-42.7	-43.6	21.1	0.00e+00	0	43	0	59768832	57	3892
2026-01-24 07:53:38.61	102.36	15.60	-42.7	-43.6	21.0	0.00e+00	0	43	0	62914560	57	3906
2026-01-24 07:53:39.62	102.26	15.70	-42.8	-43.7	21.0	0.00e+00	0	44	0	66060288	57	3936
2026-01-24 07:53:40.63	102.16	15.80	-42.8	-43.7	21.0	0.00e+00	0	43	0	69206016	57	3953
2026-01-24 07:53:41.64	102.06	15.90	-42.9	-43.8	20.9	0.00e+00	0	43	0	72351744	57	3989
2026-01-24 07:53:42.65	101.96	16.00	-42.9	-43.8	20.9	0.00e+00	0	43	0	75497472	57	3990
2026-01-24 07:53:43.65	101.86	16.10	-42.9	-43.8	20.9	0.00e+00	0	43	0	78643200	57	4004
2026-01-24 07:53:44.66	101.76	16.20	-42.9	-43.8	20.9	0.00e+00	0	44	0	81788928	57	3970
2026-01-24 07:53:45.67	101.66	16.30	-42.9	-43.8	20.9	0.00e+00	0	43	0	84934656	57	4002
2026-01-24 07:53:46.68	101.56	16.40	-42.9	-43.8	21.0	0.00e+00	0	43	0	88080384	57	3974
2026-01-24 07:53:47.69	101.45	16.50	-42.9	-43.9	20.8	0.00e+00	0	43	0	91226112	57	4007
2026-01-24 07:53:48.69	101.35	16.60	-42.9	-43.8	20.9	0.00e+00	0	43	0	94371840	57	3983
2026-01-24 07:53:49.70	101.24	16.70	-42.9	-43.8	20.9	0.00e+00	0	43	0	97517568	57	3988
2026-01-24 07:53:50.71	101.14	16.81	-43.0	-43.9	20.9	0.00e+00	0	43	0	100663296	57	4037
2026-01-24 07:53:51.71	101.03	16.91	-43.0	-43.9	20.8	0.00e+00	0	44	0	103809024	57	4047
2026-01-24 07:53:52.72	100.93	17.01	-42.9	-43.8	21.0	0.00e+00	0	43	0	106954752	57	3992
2026-01-24 07:53:53.73	100.82	17.12	-43.0	-43.9	20.9	0.00e+00	0	43	0	110100480	57	4027
2026-01-24 07:53:54.74	100.71	17.22	-43.0	-43.9	20.9	0.00e+00	0	43	0	113246208	57	4036
2026-01-24 07:53:55.75	100.60	17.32	-43.0	-43.9	20.9	0.00e+00	0	43	0	116391936	57	4012
2026-01-24 07:53:56.76	100.49	17.43	-43.0	-43.9	20.9	0.00e+00	0	43	0	119537664	57	4023
2026-01-24 07:53:57.77	100.38	17.53	-43.0	-43.9	20.8	0.00e+00	0	43	0	122683392	57	4039
2026-01-24 07:53:58.77	100.27	17.64	-43.0	-43.9	20.8	0.00e+00	0	43	0	125829120	57	4048
2026-01-24 07:53:59.78	100.15	17.74	-43.1	-44.0	20.7	0.00e+00	0	43	0	128974848	57	4084
2026-01-24 07:54:00.79	100.04	17.85	-43.0	-44.0	20.8	0.00e+00	0	43	0	132120576	57	4054
2026-01-24 07:54:01.80	99.93	17.95	-43.1	-44.0	20.8	0.00e+00	0	43	0	135266304	57	4078
2026-01-24 07:54:02.81	99.81	18.06	-43.1	-44.0	20.8	0.00e+00	0	43	0	138412032	57	4061
2026-01-24 07:54:03.82	99.69	18.17	-43.1	-44.0	20.8	0.00e+00	0	43	0	141557760	57	4094
2026-01-24 07:54:04.83	99.58	18.27	-43.3	-44.2	20.6	0.00e+00	0	43	0	144703488	57	4171
2026-01-24 07:54:05.83	99.46	18.38	-43.1	-44.1	20.8	0.00e+00	0	43	0	147849216	57	4107
2026-01-24 07:54:06.84	99.34	18.49	-43.2	-44.1	20.7	0.00e+00	0	44	0	150994944	57	4133
2026-01-24 07:54:07.85	99.22	18.60	-43.1	-44.0	20.8	0.00e+00	0	43	0	154140672	57	4075
2026-01-24 07:54:08.86	99.10	18.70	-43.1	-44.0	20.8	0.00e+00	0	43	0	157286400	57	4071
2026-01-24 07:54:09.87	98.98	18.81	-43.0	-43.9	21.0	0.00e+00	0	43	0	160432128	57	4025
2026-01-24 07:54:10.88	98.86	18.92	-42.7	-43.6	21.3	0.00e+00	0	43	0	163577856	57	3869
2026-01-24 07:54:11.89	98.74	19.03	-42.6	-43.4	21.4	0.00e+00	0	44	0	166723584	57	3818
2026-01-24 07:54:12.90	98.61	19.14	-42.5	-43.4	21.4	0.00e+00	0	44	0	169869312	56	4011
2026-01-24 07:54:13.90	98.49	19.25	-42.3	-43.2	21.6	0.00e+00	0	43	0	173015040	56	3930
2026-01-24 07:54:14.91	98.36	19.36	-42.4	-43.2	21.5	0.00e+00	0	43	0	176160768	56	3950
2026-01-24 07:54:15.92	98.24	19.47	-42.4	-43.3	21.5	0.00e+00	0	43	0	179306496	56	3969
2026-01-24 07:54:16.93	98.11	19.58	-42.3	-43.2	21.6	0.00e+00	0	43	0	182452224	56	3924
2026-01-24 07:54:17.94	97.98	19.70	-42.3	-43.2	21.5	0.00e+00	0	43	0	185597952	56	3934
2026-01-24 07:54:18.95	97.85	19.81	-42.3	-43.1	21.5	0.00e+00	0	44	0	188743680	56	3912
2026-01-24 07:54:19.95	97.72	19.92	-42.4	-43.3	21.4	0.00e+00	0	43	0	191889408	56	3967
2026-01-24 07:54:20.96	97.59	20.03	-42.6	-43.5	21.3	0.00e+00	0	43	0	195035136	56	4056
2026-01-24 07:54:21.97	97.46	20.14	-42.4	-43.3	21.4	0.00e+00	0	43	0	198180864	56	3971
2026-01-24 07:54:22.98	97.33	20.26	-42.4	-43.3	21.5	0.00e+00	0	44	0	201326592	56	3970
2026-01-24 07:54:23.99	97.19	20.37	-42.4	-43.2	21.5	0.00e+00	0	43	0	204472320	56	3947
2026-01-24 07:54:25.00	97.06	20.48	-42.2	-43.1	21.6	0.00e+00	0	43	0	207618048	56	3886
2026-01-24 07:54:26.00	96.92	20.60	-42.1	-43.0	21.7	0.00e+00	0	43	0	210763776	56	3847
2026-01-24 07:54:27.01	96.78	20.71	-42.2	-43.1	21.7	0.00e+00	0	43	0	213909504	56	3879
2026-01-24 07:54:28.02	96.65	20.83	-42.1	-42.9	21.8	0.00e+00	0	44	0	217055232	56	3799
2026-01-24 07:54:29.02	96.51	20.94	-41.9	-42.7	21.9	0.00e+00	0	44	0	220200960	55	3957
2026-01-24 07:54:30.03	96.37	21.06	-41.9	-42.8	21.9	0.00e+00	0	43	0	223346688	55	3970
2026-01-24 07:54:31.04	96.22	21.17	-41.7	-42.5	22.0	0.00e+00	0	43	0	226492416	55	3858
2026-01-24 07:54:32.05	96.08	21.29	-41.7	-42.5	22.0	0.00e+00	0	44	0	229638144	55	3863
2026-01-24 07:54:33.05	95.94	21.41	-41.7	-42.5	22.1	0.00e+00	0	43	0	232783872	55	3833
2026-01-24 07:54:34.06	95.79	21.52	-41.6	-42.4	22.0	0.00e+00	0	44	0	235929600	55	3824
2026-01-24 07:54:35.07	95.65	21.64	-41.6	-42.4	22.0	0.00e+00	0	44	0	239075328	55	3818
2026-01-24 07:54:36.08	95.50	21.76	-41.7	-42.5	22.0	0.00e+00	0	43	0	242221056	55	3864
2026-01-24 07:54:37.09	95.35	21.88	-41.7	-42.5	22.0	0.00e+00	0	44	0	245366784	55	3831
2026-01-24 07:54:38.09	95.20	21.99	-41.6	-42.4	22.1	0.00e+00	0	44	0	248512512	55	3799
2026-01-24 07:54:39.10	95.05	22.11	-41.5	-42.3	22.2	0.00e+00	0	44	0	251658240	55	3771
2026-01-24 07:54:40.11	94.90	22.23	-41.5	-42.3	22.2	0.00e+00	0	43	0	254803968	55	3763
2026-01-24 07:54:41.11	94.75	22.35	-41.5	-42.3	22.2	0.00e+00	0	43	0	257949696	55	3766
2026-01-24 07:54:42.12	94.60	22.47	-41.6	-42.4	22.1	0.00e+00	0	44	0	261095424	54	4049
2026-01-24 07:54:43.13	94.44	22.59	-41.4	-42.2	22.3	0.00e+00	0	43	0	264241152	54	3928
2026-01-24 07:54:44.14	94.28	22.71	-41.4	-42.2	22.3	0.00e+00	0	43	0	267386880	54	3937
2026-01-24 07:54:45.15	94.13	22.83	-41.5	-42.3	22.2	0.00e+00	0	43	0	270532608	54	3969
2026-01-24 07:54:46.15	93.97	22.95	-41.4	-42.2	22.3	0.00e+00	0	43	0	273678336	54	3922
2026-01-24 07:54:47.16	93.81	23.07	-41.3	-42.1	22.4	0.00e+00	0	44	0	276824064	54	3894
2026-01-24 07:54:48.17	93.65	23.19	-41.4	-42.2	22.3	0.00e+00	0	43	0	279969792	54	3915
2026-01-24 07:54:49.18	93.48	23.31	-41.4	-42.2	22.3	0.00e+00	0	44	0	283115520	54	3943
2026-01-24 07:54:50.19	93.32	23.44	-41.6	-42.4	22.1	0.00e+00	0	43	0	286261248	54	4034
2026-01-24 07:54:51.20	93.15	23.56	-41.7	-42.5	22.1	0.00e+00	0	43	0	289406976	54	4078
2026-01-24 07:54:52.20	92.99	23.68	-41.7	-42.5	22.1	0.00e+00	0	44	0	292552704	54	4067
2026-01-24 07:54:53.21	92.82	23.80	-41.6	-42.4	22.2	0.00e+00	0	44	0	295698432	54	4030
2026-01-24 07:54:54.22	92.65	23.93	-41.6	-42.4	22.2	0.00e+00	0	43	0	298844160	54	4028
2026-01-24 07:54:55.23	92.48	24.05	-41.7	-42.5	22.1	0.00e+00	0	44	0	301989888	54	4068
2026-01-24 07:54:56.24	92.31	24.18	-41.7	-42.5	22.1	0.00e+00	0	43	0	305135616	54	4068
2026-01-24 07:54:57.24	92.14	24.30	-41.6	-42.4	22.1	0.00e+00	0	43	0	308281344	54	4050
2026-01-24 07:54:58.25	91.96	24.42	-41.7	-42.5	22.1	0.00e+00	0	44	0	311427072	54	4089
2026-01-24 07:54:59.26	91.78	24.55	-41.7	-42.5	22.1	0.00e+00	0	44	0	314572800	54	4092
2026-01-24 07:55:00.27	91.61	24.68	-41.8	-42.7	22.0	0.00e+00	0	43	0	317718528	54	4146
2026-01-24 07:55:01.28	91.43	24.80	-41.9	-42.7	22.0	0.00e+00	0	44	0	320864256	54	4184
2026-01-24 07:55:02.28	91.25	24.93	-41.9	-42.7	22.0	0.00e+00	0	43	0	324009984	54	4161
2026-01-24 07:55:03.29	91.06	25.05	-41.9	-42.7	22.0	0.00e+00	0	43	0	327155712	54	4155
2026-01-24 07:55:04.30	90.88	25.18	-42.0	-42.8	21.9	0.00e+00	0	44	0	330301440	54	4215
2026-01-24 07:55:05.31	90.70	25.31	-41.9	-42.7	22.0	0.00e+00	0	44	0	333447168	54	4180
2026-01-24 07:55:06.31	90.51	25.43	-42.0	-42.8	21.9	0.00e+00	0	43	0	336592896	54	4207
2026-01-24 07:55:07.32	90.32	25.56	-42.1	-42.9	21.8	0.00e+00	0	44	0	339738624	54	4279
2026-01-24 07:55:08.33	90.13	25.69	-42.4	-43.2	21.6	0.00e+00	0	43	0	342884352	55	4180
2026-01-24 07:55:09.34	89.94	25.81	-42.4	-43.3	21.5	0.00e+00	0	44	0	346030080	55	4226
2026-01-24 07:55:10.35	89.75	25.94	-42.7	-43.6	21.3	0.00e+00	0	44	0	349175808	55	4348
2026-01-24 07:55:11.35	89.56	26.07	-42.6	-43.5	21.4	0.00e+00	0	44	0	352321536	55	4304
2026-01-24 07:55:12.36	89.36	26.20	-42.5	-43.4	21.4	0.00e+00	0	44	0	355467264	55	4270
2026-01-24 07:55:13.37	89.16	26.33	-42.5	-43.4	21.5	0.00e+00	0	44	0	358612992	55	4257
2026-01-24 07:55:14.38	88.96	26.46	-42.5	-43.3	21.5	0.00e+00	0	43	0	361758720	55	4242
2026-01-24 07:55:15.39	88.76	26.59	-42.5	-43.4	21.5	0.00e+00	0	44	0	364904448	55	4247
2026-01-24 07:55:16.39	88.56	26.71	-42.2	-43.0	21.8	0.00e+00	0	43	0	368050176	55	4088
2026-01-24 07:55:17.40	88.36	26.84	-42.0	-42.8	21.9	0.00e+00	0	44	0	371195904	55	3987
2026-01-24 07:55:18.41	88.15	26.97	-42.1	-42.9	21.8	0.00e+00	0	44	0	374341632	55	4039
2026-01-24 07:55:19.42	87.94	27.10	-42.3	-43.1	21.7	0.00e+00	0	43	0	377487360	55	4133
2026-01-24 07:55:20.43	87.73	27.23	-42.3	-43.1	21.7	0.00e+00	0	43	0	380633088	55	4141
2026-01-24 07:55:21.43	87.52	27.36	-42.5	-43.4	21.5	0.00e+00	0	44	0	383778816	55	4244
2026-01-24 07:55:22.44	87.31	27.49	-42.6	-43.5	21.4	0.00e+00	0	44	0	386924544	55	4295
2026-01-24 07:55:23.45	87.10	27.62	-42.5	-43.3	21.5	0.00e+00	0	43	0	390070272	55	4230
2026-01-24 07:55:24.46	86.88	27.76	-42.3	-43.2	21.6	0.00e+00	0	44	0	393216000	55	4146
2026-01-24 07:55:25.47	86.66	27.89	-42.4	-43.2	21.6	0.00e+00	0	44	0	396361728	55	4172
2026-01-24 07:55:26.47	86.44	28.02	-42.2	-43.0	21.8	0.00e+00	0	44	0	399507456	55	4095
2026-01-24 07:55:27.48	86.22	28.15	-42.2	-43.1	21.7	0.00e+00	0	44	0	402653184	55	4110
2026-01-24 07:55:28.49	86.00	28.28	-42.4	-43.2	21.5	0.00e+00	0	43	0	405798912	55	4187
2026-01-24 07:55:29.50	85.77	28.41	-42.5	-43.4	21.4	0.00e+00	0	44	0	408944640	55	4253
2026-01-24 07:55:30.50	85.55	28.54	-42.5	-43.4	21.3	0.00e+00	0	44	0	412090368	55	4272
2026-01-24 07:55:31.51	85.32	28.67	-42.7	-43.5	21.3	0.00e+00	0	44	0	415236096	55	4338
2026-01-24 07:55:32.52	85.09	28.81	-42.7	-43.6	21.3	0.00e+00	0	43	0	418381824	56	4122
2026-01-24 07:55:33.53	84.85	28.94	-42.7	-43.5	21.4	0.00e+00	0	44	0	421527552	56	4097
2026-01-24 07:55:34.54	84.62	29.07	-42.7	-43.6	21.4	0.00e+00	0	44	0	424673280	56	4114
2026-01-24 07:55:35.55	84.38	29.20	-42.7	-43.6	21.3	0.00e+00	0	43	0	427819008	56	4124
2026-01-24 07:55:36.55	84.14	29.33	-42.7	-43.6	21.3	0.00e+00	0	44	0	430964736	56	4113
2026-01-24 07:55:37.56	83.90	29.47	-42.5	-43.3	21.5	0.00e+00	0	44	0	434110464	56	3996
2026-01-24 07:55:38.57	83.66	29.60	-42.7	-43.6	21.3	0.00e+00	0	44	0	437256192	56	4099
2026-01-24 07:55:39.58	83.41	29.73	-42.6	-43.4	21.4	0.00e+00	0	44	0	440401920	56	4041
2026-01-24 07:55:40.59	83.17	29.86	-42.6	-43.4	21.4	0.00e+00	0	44	0	443547648	56	4033
2026-01-24 07:55:41.59	82.92	30.00	-42.6	-43.5	21.5	0.00e+00	0	44	0	446693376	56	4060
2026-01-24 07:55:42.60	82.67	30.13	-42.7	-43.6	21.4	0.00e+00	0	44	0	449839104	56	4119
2026-01-24 07:55:43.61	82.41	30.26	-42.8	-43.6	21.4	0.00e+00	0	43	0	452984832	56	4132
2026-01-24 07:55:44.62	82.16	30.39	-42.8	-43.7	21.3	0.00e+00	0	43	0	456130560	56	4166
2026-01-24 07:55:45.63	81.90	30.53	-42.9	-43.8	21.3	0.00e+00	0	44	0	459276288	56	4214
2026-01-24 07:55:46.63	81.64	30.66	-42.8	-43.7	21.3	0.00e+00	0	44	0	462422016	56	4157
2026-01-24 07:55:47.64	81.38	30.79	-42.8	-43.6	21.4	0.00e+00	0	44	0	465567744	56	4139
2026-01-24 07:55:48.65	81.12	30.92	-42.8	-43.7	21.4	0.00e+00	0	44	0	468713472	56	4154
2026-01-24 07:55:49.66	80.85	31.05	-42.7	-43.6	21.4	0.00e+00	0	43	0	471859200	56	4121
2026-01-24 07:55:50.67	80.58	31.19	-42.5	-43.3	21.6	0.00e+00	0	44	0	476053504	56	3995
2026-01-24 07:55:51.67	80.32	31.32	-42.5	-43.4	21.6	0.00e+00	0	44	0	479199232	56	4027
2026-01-24 07:55:52.68	80.04	31.45	-42.7	-43.5	21.5	0.00e+00	0	44	0	481296384	56	4097
2026-01-24 07:55:53.69	79.77	31.58	-42.6	-43.4	21.6	0.00e+00	0	44	0	484442112	56	4031
2026-01-24 07:55:54.70	79.49	31.71	-42.6	-43.5	21.5	0.00e+00	0	44	0	487587840	56	4071
2026-01-24 07:55:55.71	79.21	31.84	-42.7	-43.6	21.4	0.00e+00	0	44	0	490733568	56	4123
2026-01-24 07:55:56.71	78.93	31.97	-42.8	-43.7	21.4	0.00e+00	0	43	0	493879296	56	4154
2026-01-24 07:55:57.72	78.65	32.10	-42.9	-43.8	21.3	0.00e+00	0	44	0	497025024	56	4226
2026-01-24 07:55:58.73	78.36	32.23	-43.0	-43.9	21.2	0.00e+00	0	43	0	500170752	56	4264
2026-01-24 07:55:59.74	78.07	32.36	-43.1	-44.0	21.1	0.00e+00	0	44	0	503316480	56	4295
2026-01-24 07:56:00.75	77.78	32.49	-43.1	-44.0	21.1	0.00e+00	0	44	0	506462208	56	4332
2026-01-24 07:56:01.75	77.49	32.62	-43.3	-44.2	20.9	0.00e+00	0	44	0	509607936	57	4163
2026-01-24 07:56:02.76	77.19	32.75	-43.4	-44.4	20.8	0.00e+00	0	44	0	513802240	57	4254
2026-01-24 07:56:03.77	76.90	32.88	-43.3	-44.2	20.9	0.00e+00	0	44	0	516947968	57	4189
2026-01-24 07:56:04.78	76.59	33.01	-43.3	-44.2	20.9	0.00e+00	0	43	0	520093696	57	4186
2026-01-24 07:56:05.79	76.29	33.14	-43.2	-44.0	21.1	0.00e+00	0	44	0	523239424	57	4098
2026-01-24 07:56:06.79	75.99	33.27	-43.1	-44.0	21.1	0.00e+00	0	44	0	526385152	57	4088
2026-01-24 07:56:07.80	75.68	33.39	-43.1	-44.0	21.1	0.00e+00	0	43	0	528482304	57	4075
2026-01-24 07:56:08.81	75.37	33.52	-43.2	-44.1	21.0	0.00e+00	0	43	0	531628032	57	4114
2026-01-24 07:56:09.82	75.06	33.65	-43.3	-44.2	20.9	0.00e+00	0	44	0	534773760	57	4189
2026-01-24 07:56:10.83	74.74	33.77	-43.1	-44.0	21.1	0.00e+00	0	44	0	537919488	57	4061
2026-01-24 07:56:11.84	74.43	33.90	-43.1	-43.9	21.1	0.00e+00	0	43	0	541065216	57	4049
2026-01-24 07:56:12.85	74.11	34.03	-43.2	-44.1	21.0	0.00e+00	0	44	0	544210944	57	4132
2026-01-24 07:56:13.85	73.79	34.15	-43.3	-44.2	20.9	0.00e+00	0	44	0	547356672	57	4184
2026-01-24 07:56:14.86	73.46	34.27	-43.3	-44.2	20.9	0.00e+00	0	44	0	551550976	57	4182
2026-01-24 07:56:15.87	73.13	34.40	-43.5	-44.4	20.8	0.00e+00	0	44	0	554696704	57	4265
2026-01-24 07:56:16.88	72.80	34.52	-43.6	-44.6	20.6	0.00e+00	0	44	0	557842432	57	4352
2026-01-24 07:56:17.89	72.47	34.64	-43.8	-44.8	20.5	0.00e+00	0	44	0	560988160	58	4204
2026-01-24 07:56:18.89	72.14	34.76	-43.8	-44.8	20.4	0.00e+00	0	44	0	564133888	58	4215
2026-01-24 07:56:19.90	71.80	34.89	-43.9	-44.8	20.4	0.00e+00	0	44	0	567279616	58	4226
2026-01-24 07:56:20.91	71.46	35.01	-43.8	-44.8	20.5	0.00e+00	0	43	0	570425344	58	4213
2026-01-24 07:56:21.91	71.12	35.12	-43.8	-44.8	20.5	0.00e+00	0	44	0	573571072	58	4211
2026-01-24 07:56:22.92	70.78	35.24	-43.9	-44.8	20.5	0.00e+00	0	44	0	575668224	58	4235
2026-01-24 07:56:23.93	70.43	35.36	-44.0	-45.0	20.4	0.00e+00	0	44	0	578813952	58	4329
2026-01-24 07:56:24.94	70.08	35.48	-43.9	-44.9	20.5	0.00e+00	0	44	0	581959680	58	4268
2026-01-24 07:56:25.95	69.72	35.60	-43.9	-44.8	20.5	0.00e+00	0	44	0	585105408	58	4223
2026-01-24 07:56:26.95	69.37	35.71	-44.0	-45.0	20.4	0.00e+00	0	44	0	588251136	58	4303
2026-01-24 07:56:27.96	69.01	35.83	-43.9	-44.9	20.5	0.00e+00	0	44	0	592445440	58	4249
2026-01-24 07:56:28.97	68.65	35.94	-43.7	-44.8	20.6	0.00e+00	0	44	0	595591168	58	4194
2026-01-24 07:56:29.98	68.29	36.05	-41.9	-44.5	20.5	0.00e+00	0	44	0	598736896	55	4843
2026-01-24 07:56:30.99	67.93	36.17	-40.9	-44.4	20.3	0.00e+00	0	44	0	601882624	53	5347
2026-01-24 07:56:32.00	67.56	36.28	-43.7	-44.7	20.4	0.00e+00	0	44	0	605028352	57	4392
2026-01-24 07:56:33.01	67.19	36.39	-43.8	-44.7	20.6	0.00e+00	0	44	0	608174080	58	4168
2026-01-24 07:56:34.01	66.82	36.50	-43.7	-44.6	20.7	0.00e+00	0	43	0	611319808	58	4119
2026-01-24 07:56:35.02	66.44	36.61	-43.5	-44.5	20.8	0.00e+00	0	44	0	614465536	58	4052
2026-01-24 07:56:36.03	66.06	36.71	-43.4	-44.3	21.0	0.00e+00	0	43	0	617611264	58	3982
2026-01-24 07:56:37.04	65.68	36.82	-43.5	-44.4	20.8	0.00e+00	0	43	0	620756992	58	4021
2026-01-24 07:56:38.05	65.30	36.92	-43.6	-44.5	20.7	0.00e+00	0	43	0	622854144	58	4097
2026-01-24 07:56:39.05	64.92	37.03	-44.0	-44.9	20.3	0.00e+00	0	44	0	625999872	58	4288
2026-01-24 07:56:40.06	64.53	37.13	-44.1	-45.1	20.2	0.00e+00	0	43	0	630194176	58	4381
2026-01-24 07:56:41.07	64.14	37.23	-44.2	-45.2	20.2	0.00e+00	0	43	0	633339904	59	4151
2026-01-24 07:56:42.08	63.75	37.33	-43.9	-44.9	20.4	0.00e+00	0	43	0	636485632	59	4027
2026-01-24 07:56:43.09	63.35	37.43	-44.0	-44.9	20.4	0.00e+00	0	44	0	639631360	59	4037
2026-01-24 07:56:44.09	62.96	37.53	-43.9	-44.8	20.5	0.00e+00	0	44	0	642777088	59	4002
2026-01-24 07:56:45.10	62.56	37.62	-43.9	-44.9	20.4	0.00e+00	0	44	0	645922816	59	4013
2026-01-24 07:56:46.11	62.16	37.72	-43.8	-44.7	20.6	0.00e+00	0	43	0	649068544	59	3955
2026-01-24 07:56:47.12	61.75	37.81	-43.6	-44.5	20.8	0.00e+00	0	43	0	652214272	59	3847
2026-01-24 07:56:48.13	61.34	37.91	-43.4	-44.3	21.0	0.00e+00	0	43	0	655360000	58	3978
2026-01-24 07:56:49.14	60.93	38.00	-43.3	-44.2	21.1	0.00e+00	0	44	0	658505728	58	3921
2026-01-24 07:56:50.15	60.52	38.09	-43.5	-44.4	20.8	0.00e+00	0	44	0	661651456	58	4027
2026-01-24 07:56:51.15	60.11	38.17	-43.9	-44.9	20.3	0.00e+00	0	44	0	664797184	58	4261
2026-01-24 07:56:52.16	59.70	38.26	-44.3	-45.3	19.8	0.00e+00	0	43	0	667942912	59	4216
2026-01-24 07:56:53.17	59.28	38.35	-44.6	-45.6	19.6	0.00e+00	0	44	0	671088640	59	4376
2026-01-24 07:56:54.18	58.86	38.43	-44.4	-45.5	19.8	0.00e+00	0	44	0	674234368	59	4309
2026-01-24 07:56:55.19	58.44	38.51	-44.2	-45.2	19.9	0.00e+00	0	44	0	677380096	59	4173
2026-01-24 07:56:56.20	58.01	38.59	-44.3	-45.3	19.9	0.00e+00	0	43	0	680525824	59	4217
2026-01-24 07:56:57.20	57.59	38.67	-44.4	-45.4	19.8	0.00e+00	0	44	0	683671552	59	4274
2026-01-24 07:56:58.21	57.16	38.75	-44.6	-45.6	19.7	0.00e+00	0	43	0	686817280	59	4365
2026-01-24 07:56:59.22	56.73	38.82	-44.7	-45.7	19.6	0.00e+00	0	44	0	689963008	59	4424
2026-01-24 07:57:00.23	56.29	38.90	-44.3	-45.3	19.7	0.00e+00	0	44	0	693108736	60	3990
2026-01-24 07:57:01.23	55.86	38.97	-44.5	-45.6	19.5	0.00e+00	0	44	0	696254464	60	4109
2026-01-24 07:57:02.24	55.43	39.04	-44.5	-45.6	19.5	0.00e+00	0	44	0	699400192	60	4116
2026-01-24 07:57:03.25	54.99	39.11	-44.5	-45.5	19.5	0.00e+00	0	44	0	702545920	60	4086
2026-01-24 07:57:04.26	54.55	39.18	-44.5	-45.5	19.5	0.00e+00	0	44	0	705691648	60	4079
2026-01-24 07:57:05.26	54.11	39.24	-44.4	-45.4	19.7	0.00e+00	0	44	0	708837376	60	4042
2026-01-24 07:57:06.27	53.67	39.30	-44.2	-45.2	19.8	0.00e+00	0	44	0	711983104	60	3952
2026-01-24 07:57:07.28	53.22	39.37	-44.3	-45.3	19.8	0.00e+00	0	44	0	715128832	60	3991
2026-01-24 07:57:08.29	52.77	39.42	-44.2	-45.2	19.9	0.00e+00	0	43	0	718274560	60	3946
2026-01-24 07:57:09.29	52.33	39.48	-44.2	-45.2	19.8	0.00e+00	0	43	0	721420288	60	3948
2026-01-24 07:57:10.30	51.88	39.54	-44.3	-45.4	19.6	0.00e+00	0	43	0	724566016	60	4016
2026-01-24 07:57:11.31	51.43	39.59	-44.5	-45.6	19.5	0.00e+00	0	43	0	727711744	60	4114
2026-01-24 07:57:12.32	50.97	39.64	-44.7	-45.8	19.2	0.00e+00	0	44	0	730857472	60	4231
2026-01-24 07:57:13.33	50.52	39.69	-44.7	-45.8	19.3	0.00e+00	0	44	0	734003200	60	4230
2026-01-24 07:57:14.33	50.06	39.74	-44.6	-45.6	19.4	0.00e+00	0	44	0	737148928	60	4136
2026-01-24 07:57:15.34	49.61	39.79	-44.6	-45.7	19.4	0.00e+00	0	44	0	740294656	60	4176
2026-01-24 07:57:16.35	49.15	39.83	-44.5	-45.6	19.5	0.00e+00	0	43	0	743440384	60	4113
2026-01-24 07:57:17.36	48.69	39.87	-44.4	-45.5	19.6	0.00e+00	0	44	0	746586112	60	4071
2026-01-24 07:57:18.37	48.23	39.91	-44.7	-45.8	19.4	0.00e+00	0	43	0	749731840	60	4224
2026-01-24 07:57:19.37	47.77	39.95	-45.0	-46.1	19.1	0.00e+00	0	44	0	752877568	60	4375
2026-01-24 07:57:20.38	47.30	39.98	-44.7	-45.8	19.3	0.00e+00	0	44	0	756023296	60	4221
2026-01-24 07:57:21.39	46.84	40.02	-44.5	-45.6	19.6	0.00e+00	0	43	0	759169024	60	4103
2026-01-24 07:57:22.40	46.37	40.05	-44.5	-45.5	19.6	0.00e+00	0	44	0	762314752	60	4072
2026-01-24 07:57:23.41	45.91	40.08	-44.2	-45.2	19.8	0.00e+00	0	44	0	765460480	60	3917
2026-01-24 07:57:24.41	45.45	40.11	-44.0	-45.0	20.0	0.00e+00	0	43	0	768606208	60	3848
2026-01-24 07:57:25.42	44.98	40.13	-44.4	-45.4	20.0	0.00e+00	0	43	0	771751936	59	4279
2026-01-24 07:57:26.43	44.51	40.15	-44.3	-45.3	20.1	0.00e+00	0	44	0	774897664	59	4210
2026-01-24 07:57:27.44	44.04	40.17	-44.5	-45.5	19.8	0.00e+00	0	44	0	778043392	59	4337
2026-01-24 07:57:28.45	43.57	40.19	-44.4	-45.4	19.7	0.00e+00	0	44	0	781189120	60	4029
2026-01-24 07:57:29.46	43.10	40.21	-44.6	-45.6	19.5	0.00e+00	0	43	0	784334848	60	4123
2026-01-24 07:57:30.46	42.63	40.22	-44.6	-45.6	19.4	0.00e+00	0	44	0	787480576	60	4136
2026-01-24 07:57:31.47	42.16	40.23	-44.7	-45.8	19.3	0.00e+00	0	43	0	790626304	60	4194
2026-01-24 07:57:32.48	41.69	40.24	-44.6	-45.6	19.5	0.00e+00	0	43	0	793772032	60	4139
2026-01-24 07:57:33.49	41.22	40.25	-44.5	-45.6	19.6	0.00e+00	0	44	0	796917760	60	4103
2026-01-24 07:57:34.49	40.75	40.26	-44.7	-45.8	19.3	0.00e+00	0	43	0	800063488	60	4203
2026-01-24 07:57:35.50	40.28	40.26	-44.8	-45.9	19.2	0.00e+00	0	43	0	803209216	60	4275
2026-01-24 07:57:36.51	39.81	40.26	-44.6	-45.7	19.5	0.00e+00	0	43	0	806354944	60	4163
2026-01-24 07:57:37.52	39.34	40.26	-44.5	-45.5	19.7	0.00e+00	0	43	0	809500672	60	4077
2026-01-24 07:57:38.53	38.87	40.26	-44.6	-45.6	19.5	0.00e+00	0	43	0	812646400	60	4136
2026-01-24 07:57:39.53	38.40	40.25	-44.4	-45.5	19.7	0.00e+00	0	43	0	815792128	60	4062
2026-01-24 07:57:40.54	37.93	40.24	-44.5	-45.5	19.6	0.00e+00	0	44	0	818937856	60	4087
2026-01-24 07:57:41.55	37.46	40.23	-44.5	-45.6	19.6	0.00e+00	0	44	0	822083584	60	4099
2026-01-24 07:57:42.56	36.99	40.22	-44.5	-45.6	19.5	0.00e+00	0	44	0	825229312	60	4115
2026-01-24 07:57:43.57	36.52	40.21	-44.6	-45.7	19.3	0.00e+00	0	43	0	828375040	60	4173
2026-01-24 07:57:44.57	36.05	40.19	-44.4	-45.4	19.6	0.00e+00	0	43	0	831520768	60	4048
2026-01-24 07:57:45.58	35.58	40.17	-44.2	-45.2	19.9	0.00e+00	0	43	0	834666496	60	3923
2026-01-24 07:57:46.59	35.11	40.15	-44.4	-45.4	20.0	0.00e+00	0	44	0	837812224	59	4243
2026-01-24 07:57:47.60	34.64	40.13	-44.3	-45.3	20.1	0.00e+00	0	43	0	840957952	59	4199
2026-01-24 07:57:48.60	34.18	40.10	-44.2	-45.2	20.2	0.00e+00	0	43	0	844103680	59	4171
2026-01-24 07:57:49.61	33.71	40.07	-44.4	-45.4	20.0	0.00e+00	0	43	0	847249408	59	4280
2026-01-24 07:57:50.62	33.25	40.04	-44.4	-45.4	20.0	0.00e+00	0	43	0	850395136	59	4281
2026-01-24 07:57:51.63	32.78	40.01	-44.5	-45.6	19.9	0.00e+00	0	43	0	853540864	59	4343
2026-01-24 07:57:52.63	32.32	39.98	-44.4	-45.4	19.9	0.00e+00	0	43	0	856686592	59	4289
2026-01-24 07:57:53.64	31.86	39.94	-44.3	-45.3	20.0	0.00e+00	0	43	0	859832320	59	4213
2026-01-24 07:57:54.65	31.40	39.91	-44.3	-45.2	20.1	0.00e+00	0	44	0	862978048	59	4190
2026-01-24 07:57:55.66	30.94	39.86	-44.3	-45.3	20.0	0.00e+00	0	43	0	866123776	59	4219
2026-01-24 07:57:56.67	30.48	39.82	-44.4	-45.4	20.0	0.00e+00	0	43	0	869269504	59	4254
2026-01-24 07:57:57.68	30.02	39.78	-44.5	-45.5	19.9	0.00e+00	0	44	0	872415232	59	4305
2026-01-24 07:57:58.68	29.57	39.73	-44.4	-45.5	19.6	0.00e+00	0	43	0	875560960	60	4055
2026-01-24 07:57:59.69	29.11	39.68	-44.6	-45.7	19.4	0.00e+00	0	43	0	878706688	60	4159
2026-01-24 07:58:00.70	28.66	39.63	-44.6	-45.6	19.5	0.00e+00	0	44	0	881852416	60	4139
2026-01-24 07:58:01.71	28.20	39.58	-44.5	-45.5	19.4	0.00e+00	0	44	0	884998144	60	4093
2026-01-24 07:58:02.72	27.75	39.53	-44.1	-45.1	19.7	0.00e+00	0	43	0	888143872	60	3888
2026-01-24 07:58:03.73	27.30	39.47	-44.2	-45.2	19.8	0.00e+00	0	43	0	891289600	59	4170
2026-01-24 07:58:04.73	26.86	39.41	-44.3	-45.3	19.7	0.00e+00	0	44	0	894435328	59	4217
2026-01-24 07:58:05.74	26.41	39.35	-44.5	-45.6	19.7	0.00e+00	0	44	0	897581056	59	4342
2026-01-24 07:58:06.75	25.96	39.29	-44.5	-45.5	19.8	0.00e+00	0	44	0	900726784	59	4300
2026-01-24 07:58:07.76	25.52	39.23	-44.6	-45.6	19.8	0.00e+00	0	43	0	903872512	59	4361
2026-01-24 07:58:08.77	25.08	39.16	-44.6	-45.7	19.7	0.00e+00	0	43	0	907018240	59	4395
2026-01-24 07:58:09.78	24.64	39.10	-44.6	-45.6	19.8	0.00e+00	0	44	0	910163968	59	4379
2026-01-24 07:58:10.79	24.20	39.03	-44.6	-45.6	19.7	0.00e+00	0	44	0	913309696	59	4379
2026-01-24 07:58:11.79	23.77	38.96	-44.3	-45.2	20.1	0.00e+00	0	43	0	916455424	59	4185
2026-01-24 07:58:12.80	23.34	38.89	-43.5	-44.4	20.9	0.00e+00	0	43	0	919601152	59	3810
2026-01-24 07:58:13.81	22.90	38.81	-43.7	-44.6	20.7	0.00e+00	0	43	0	922746880	58	4129
2026-01-24 07:58:14.82	22.47	38.74	-44.2	-45.2	20.1	0.00e+00	0	44	0	925892608	59	4183
2026-01-24 07:58:15.83	22.05	38.66	-44.6	-45.7	19.7	0.00e+00	0	44	0	929038336	59	4393
2026-01-24 07:58:16.83	21.62	38.58	-44.4	-45.4	19.6	0.00e+00	0	43	0	932184064	60	4041
2026-01-24 07:58:17.84	21.20	38.50	-44.3	-45.4	19.7	0.00e+00	0	44	0	935329792	60	4009
2026-01-24 07:58:18.85	20.78	38.42	-44.3	-45.3	20.1	0.00e+00	0	43	0	938475520	59	4204
2026-01-24 07:58:19.86	20.36	38.33	-43.7	-44.7	20.5	0.00e+00	0	44	0	941621248	59	3915
2026-01-24 07:58:20.87	19.94	38.25	-43.6	-44.5	20.6	0.00e+00	0	43	0	944766976	59	3841
2026-01-24 07:58:21.87	19.53	38.16	-43.9	-44.9	20.5	0.00e+00	0	44	0	947912704	59	4018
2026-01-24 07:58:22.88	19.12	38.07	-43.8	-44.7	20.5	0.00e+00	0	44	0	951058432	59	3954
2026-01-24 07:58:23.89	18.71	37.98	-44.1	-45.1	20.3	0.00e+00	0	43	0	954204160	59	4107
2026-01-24 07:58:24.90	18.30	37.89	-44.1	-45.1	20.3	0.00e+00	0	44	0	957349888	59	4126
2026-01-24 07:58:25.91	17.89	37.80	-44.1	-45.0	20.3	0.00e+00	0	43	0	960495616	59	4090
2026-01-24 07:58:26.91	17.49	37.71	-44.0	-45.0	20.4	0.00e+00	0	44	0	963641344	59	4059
2026-01-24 07:58:27.92	17.09	37.61	-43.9	-44.9	20.5	0.00e+00	0	44	0	966787072	59	4012
2026-01-24 07:58:28.93	16.69	37.51	-43.9	-44.8	20.6	0.00e+00	0	43	0	969932800	59	3980
2026-01-24 07:58:29.94	16.29	37.42	-44.3	-45.4	20.1	0.00e+00	0	43	0	973078528	59	4255
2026-01-24 07:58:30.95	15.90	37.32	-44.5	-45.6	19.5	0.00e+00	0	44	0	976224256	60	4135
2026-01-24 07:58:31.95	15.51	37.22	-44.8	-45.9	19.2	0.00e+00	0	44	0	979369984	60	4288
2026-01-24 07:58:32.96	15.12	37.12	-44.5	-45.6	19.4	0.00e+00	0	43	0	982515712	60	4126
2026-01-24 07:58:33.97	14.73	37.01	-44.1	-45.0	19.9	0.00e+00	0	43	0	985661440	60	3865
2026-01-24 07:58:34.98	14.35	36.91	-43.9	-44.8	20.4	0.00e+00	0	44	0	988807168	59	3988
2026-01-24 07:58:35.98	13.97	36.80	-43.0	-43.8	21.3	0.00e+00	0	43	0	991952896	58	3772
2026-01-24 07:58:36.99	13.59	36.70	-42.8	-43.7	21.5	0.00e+00	0	43	0	995098624	57	3917
2026-01-24 07:58:38.00	13.22	36.59	-43.5	-44.4	20.8	0.00e+00	0	43	0	998244352	57	4260
2026-01-24 07:58:39.00	12.84	36.48	-44.3	-45.3	20.0	0.00e+00	0	44	0	1001390080	59	4197
2026-01-24 07:58:40.01	12.47	36.37	-44.5	-45.6	19.5	0.00e+00	0	44	0	1004535808	60	4105
2026-01-24 07:58:41.02	12.10	36.26	-44.6	-45.7	19.4	0.00e+00	0	44	0	1007681536	60	4176
2026-01-24 07:58:42.03	11.74	36.15	-44.2	-45.2	19.9	0.00e+00	0	44	0	1010827264	60	3931
2026-01-24 07:58:43.04	11.37	36.04	-44.0	-44.9	20.4	0.00e+00	0	44	0	1013972992	59	4041
2026-01-24 07:58:44.05	11.01	35.93	-43.6	-44.5	20.8	0.00e+00	0	44	0	1017118720	59	3859
2026-01-24 07:58:45.05	10.65	35.81	-43.5	-44.4	20.9	0.00e+00	0	43	0	1020264448	59	3824
2026-01-24 07:58:46.06	10.30	35.70	-43.7	-44.7	20.6	0.00e+00	0	43	0	1023410176	58	4153
2026-01-24 07:58:47.07	9.94	35.58	-43.9	-44.8	20.5	0.00e+00	0	43	0	1026555904	58	4221
2026-01-24 07:58:48.08	9.59	35.47	-44.3	-45.3	19.9	0.00e+00	0	43	0	1029701632	59	4236
2026-01-24 07:58:49.09	9.24	35.35	-44.2	-45.2	20.0	0.00e+00	0	43	0	1032847360	59	4161
2026-01-24 07:58:50.09	8.90	35.23	-43.8	-44.8	20.4	0.00e+00	0	43	0	1035993088	59	3959
2026-01-24 07:58:51.10	8.55	35.11	-43.4	-44.3	20.9	0.00e+00	0	44	0	1039138816	58	3994
2026-01-24 07:58:52.11	8.21	34.99	-43.4	-44.3	20.9	0.00e+00	0	43	0	1042284544	58	3979
2026-01-24 07:58:53.12	7.87	34.87	-43.1	-44.0	21.2	0.00e+00	0	44	0	1045430272	58	3865
2026-01-24 07:58:54.13	7.54	34.75	-43.2	-44.2	21.1	0.00e+00	0	44	0	1048576000	58	3918
2026-01-24 07:58:55.14	7.20	34.63	-43.8	-44.8	20.5	0.00e+00	0	43	0	1051721728	58	4209
2026-01-24 07:58:56.15	6.87	34.51	-44.0	-45.0	20.2	0.00e+00	0	44	0	1054867456	58	4338
2026-01-24 07:58:57.15	6.54	34.38	-43.9	-44.9	20.1	0.00e+00	0	43	0	1058013184	58	4265
2026-01-24 07:58:58.16	6.22	34.26	-43.6	-44.5	20.3	0.00e+00	0	44	0	1061158912	58	4094
2026-01-24 07:58:59.17	5.89	34.14	-43.4	-44.3	20.5	0.00e+00	0	44	0	1064304640	58	3969
2026-01-24 07:59:00.18	5.57	34.01	-43.2	-44.1	20.9	0.00e+00	0	43	0	1067450368	58	3881
2026-01-24 07:59:01.19	5.25	33.89	-42.7	-43.6	21.4	0.00e+00	0	43	0	1070596096	57	3888
2026-01-24 07:59:02.20	4.94	33.76	-42.7	-43.5	21.5	0.00e+00	0	43	0	1073741824	57	3851
2026-01-24 07:59:03.21	4.62	33.64	-42.9	-43.8	21.4	0.00e+00	0	43	0	1076887552	57	3963
2026-01-24 07:59:04.22	4.31	33.51	-43.1	-44.0	21.1	0.00e+00	0	44	0	1080033280	57	4082
2026-01-24 07:59:05.23	4.00	33.38	-43.2	-44.1	21.0	0.00e+00	0	44	0	1083179008	57	4121
2026-01-24 07:59:06.23	3.70	33.26	-43.1	-44.0	21.1	0.00e+00	0	43	0	1086324736	57	4077
2026-01-24 07:59:07.24	3.39	33.13	-43.1	-44.0	21.1	0.00e+00	0	43	0	1089470464	57	4081
2026-01-24 07:59:08.25	3.09	33.00	-43.2	-44.1	21.1	0.00e+00	0	43	0	1092616192	57	4118
2026-01-24 07:59:09.26	2.79	32.87	-42.8	-43.6	21.5	0.00e+00	0	43	0	1095761920	57	3903
2026-01-24 07:59:10.27	2.49	32.74	-42.7	-43.5	21.6	0.00e+00	0	43	0	1098907648	57	3860
2026-01-24 07:59:11.27	2.20	32.61	-42.8	-43.6	21.4	0.00e+00	0	44	0	1102053376	57	3907
2026-01-24 07:59:12.28	1.91	32.48	-43.0	-43.8	21.2	0.00e+00	0	43	0	1105199104	57	3996
2026-01-24 07:59:13.29	1.62	32.35	-43.1	-44.0	21.1	0.00e+00	0	43	0	1108344832	57	4094
2026-01-24 07:59:14.30	1.33	32.22	-43.2	-44.2	21.0	0.00e+00	0	43	0	1111490560	57	4150
2026-01-24 07:59:15.31	1.05	32.09	-43.1	-44.0	21.2	0.00e+00	0	44	0	1114636288	57	4076
2026-01-24 07:59:16.31	0.76	31.96	-42.8	-43.7	21.3	0.00e+00	0	43	0	1117782016	57	3945
2026-01-24 07:59:17.32	0.48	31.83	-42.7	-43.6	21.4	0.00e+00	0	44	0	1120927744	57	3870
2026-01-24 07:59:18.33	0.21	31.70	-42.4	-43.2	21.7	0.00e+00	0	44	0	1124073472	56	3936
2026-01-24 07:59:19.34	359.93	31.57	-42.5	-43.3	21.7	0.00e+00	0	43	0	1127219200	56	3987
2026-01-24 07:59:20.35	359.65	31.44	-42.7	-43.6	21.5	0.00e+00	0	44	0	1130364928	56	4119
2026-01-24 07:59:21.35	359.39	31.31	-43.0	-43.9	21.2	0.00e+00	0	44	0	1133510656	56	4257
2026-01-24 07:59:22.36	359.12	31.18	-43.1	-44.0	21.1	0.00e+00	0	43	0	1136656384	56	4314
2026-01-24 07:59:23.37	358.85	31.05	-42.9	-43.8	21.2	0.00e+00	0	44	0	1139802112	56	4235
2026-01-24 07:59:24.38	358.58	30.91	-42.8	-43.6	21.4	0.00e+00	0	44	0	1142947840	56	4145
2026-01-24 07:59:25.39	358.32	30.78	-42.4	-43.2	21.8	0.00e+00	0	43	0	1146093568	56	3924
2026-01-24 07:59:26.40	358.06	30.65	-42.3	-43.1	21.8	0.00e+00	0	43	0	1149239296	56	3896
2026-01-24 07:59:27.41	357.80	30.52	-42.2	-43.0	21.9	0.00e+00	0	43	0	1152385024	56	3858
2026-01-24 07:59:28.41	357.55	30.39	-42.1	-42.9	22.0	0.00e+00	0	44	0	1155530752	56	3817
2026-01-24 07:59:29.42	357.29	30.26	-42.1	-42.9	22.0	0.00e+00	0	44	0	1158676480	56	3795
2026-01-24 07:59:30.43	357.04	30.12	-42.2	-43.0	21.9	0.00e+00	0	44	0	1161822208	56	3856
2026-01-24 07:59:31.44	356.79	29.99	-42.3	-43.1	21.9	0.00e+00	0	43	0	1164967936	56	3886
2026-01-24 07:59:32.45	356.54	29.86	-42.2	-43.0	21.9	0.00e+00	0	44	0	1168113664	56	3846
2026-01-24 07:59:33.45	356.30	29.73	-42.2	-43.0	21.9	0.00e+00	0	43	0	1171259392	56	3867
2026-01-24 07:59:34.46	356.05	29.60	-42.2	-43.0	21.8	0.00e+00	0	44	0	1174405120	56	3849
2026-01-24 07:59:35.47	355.81	29.46	-42.3	-43.1	21.7	0.00e+00	0	43	0	1177550848	56	3883
2026-01-24 07:59:36.47	355.57	29.33	-42.1	-42.9	21.9	0.00e+00	0	44	0	1180696576	56	3811
2026-01-24 07:59:37.48	355.33	29.20	-42.1	-42.9	21.9	0.00e+00	0	43	0	1183842304	56	3808
2026-01-24 07:59:38.49	355.10	29.07	-42.1	-42.9	21.9	0.00e+00	0	44	0	1186988032	56	3810
2026-01-24 07:59:39.50	354.86	28.94	-42.2	-43.0	21.9	0.00e+00	0	43	0	1190133760	56	3851
2026-01-24 07:59:40.51	354.63	28.80	-42.4	-43.3	21.6	0.00e+00	0	43	0	1193279488	56	3984
2026-01-24 07:59:41.51	354.40	28.67	-42.7	-43.6	21.3	0.00e+00	0	43	0	1196425216	56	4128
2026-01-24 07:59:42.52	354.17	28.54	-42.9	-43.8	21.2	0.00e+00	0	43	0	1199570944	56	4228
2026-01-24 07:59:43.53	353.95	28.41	-43.0	-44.0	21.1	0.00e+00	0	43	0	1202716672	56	4299
2026-01-24 07:59:44.54	353.72	28.28	-43.0	-43.9	21.1	0.00e+00	0	43	0	1205862400	56	4283
2026-01-24 07:59:45.55	353.50	28.15	-42.8	-43.7	21.2	0.00e+00	0	43	0	1209008128	56	4179
2026-01-24 07:59:46.55	353.28	28.02	-42.7	-43.6	21.3	0.00e+00	0	43	0	1212153856	56	4100
2026-01-24 07:59:47.56	353.06	27.89	-42.4	-43.2	21.6	0.00e+00	0	43	0	1216348160	56	3942
2026-01-24 07:59:48.57	352.84	27.76	-42.0	-42.9	21.9	0.00e+00	0	43	0	1219493888	56	3787
2026-01-24 07:59:49.58	352.63	27.63	-41.9	-42.7	22.0	0.00e+00	0	44	0	1221591040	55	3926
2026-01-24 07:59:50.58	352.42	27.50	-42.0	-42.8	21.9	0.00e+00	0	44	0	1224736768	55	3973
2026-01-24 07:59:51.59	352.20	27.37	-42.1	-42.9	21.8	0.00e+00	0	43	0	1227882496	55	4040
2026-01-24 07:59:52.60	351.99	27.24	-42.1	-43.0	21.8	0.00e+00	0	43	0	1231028224	55	4060
2026-01-24 07:59:53.61	351.79	27.11	-42.3	-43.1	21.7	0.00e+00	0	43	0	1234173952	55	4142
2026-01-24 07:59:54.62	351.58	26.98	-42.3	-43.2	21.6	0.00e+00	0	44	0	1237319680	55	4162
2026-01-24 07:59:55.63	351.37	26.85	-42.4	-43.3	21.5	0.00e+00	0	43	0	1240465408	55	4197
2026-01-24 07:59:56.63	351.17	26.72	-42.3	-43.2	21.6	0.00e+00	0	43	0	1243611136	55	4173
2026-01-24 07:59:57.64	350.97	26.59	-42.3	-43.1	21.6	0.00e+00	0	44	0	1246756864	55	4141
2026-01-24 07:59:58.65	350.77	26.46	-42.2	-43.0	21.7	0.00e+00	0	43	0	1249902592	55	4093
2026-01-24 07:59:59.66	350.57	26.33	-42.2	-43.0	21.7	0.00e+00	0	43	0	1253048320	55	4092
2026-01-24 08:00:00.66	350.38	26.20	-42.0	-42.9	21.8	0.00e+00	0	43	0	1257242624	55	4012
2026-01-24 08:00:01.67	350.18	26.08	-42.1	-42.9	21.8	0.00e+00	0	43	0	1260388352	55	4038
2026-01-24 08:00:02.68	349.99	25.95	-42.1	-42.9	21.8	0.00e+00	0	43	0	1263534080	55	4035
2026-01-24 08:00:03.69	349.79	25.82	-42.0	-42.8	21.9	0.00e+00	0	43	0	1266679808	55	3994
2026-01-24 08:00:04.69	349.61	25.69	-42.0	-42.9	21.9	0.00e+00	0	43	0	1269825536	55	4012
2026-01-24 08:00:05.70	349.42	25.57	-42.1	-43.0	21.8	0.00e+00	0	43	0	1271922688	55	4059
2026-01-24 08:00:06.71	349.23	25.44	-42.2	-43.1	21.6	0.00e+00	0	43	0	1275068416	55	4122
2026-01-24 08:00:07.72	349.04	25.31	-42.2	-43.1	21.6	0.00e+00	0	43	0	1278214144	55	4115
2026-01-24 08:00:08.73	348.86	25.19	-42.3	-43.2	21.5	0.00e+00	0	43	0	1281359872	55	4149
2026-01-24 08:00:09.73	348.68	25.06	-42.3	-43.2	21.5	0.00e+00	0	43	0	1284505600	55	4156
2026-01-24 08:00:10.74	348.50	24.94	-42.4	-43.3	21.5	0.00e+00	0	43	0	1287651328	55	4201
2026-01-24 08:00:11.75	348.32	24.81	-42.2	-43.0	21.6	0.00e+00	0	43	0	1290797056	55	4096
2026-01-24 08:00:12.76	348.14	24.68	-42.1	-43.0	21.7	0.00e+00	0	43	0	1293942784	55	4065
2026-01-24 08:00:13.76	347.96	24.56	-42.0	-42.8	21.8	0.00e+00	0	43	0	1298137088	55	4001
2026-01-24 08:00:14.77	347.79	24.44	-41.9	-42.7	22.0	0.00e+00	0	44	0	1301282816	55	3932
2026-01-24 08:00:15.78	347.61	24.31	-41.8	-42.7	22.0	0.00e+00	0	44	0	1304428544	55	3915
2026-01-24 08:00:16.78	347.44	24.19	-41.9	-42.7	22.0	0.00e+00	0	44	0	1307574272	55	3926
2026-01-24 08:00:17.79	347.27	24.06	-41.9	-42.7	22.0	0.00e+00	0	43	0	1310720000	55	3949
2026-01-24 08:00:18.80	347.10	23.94	-41.8	-42.6	22.1	0.00e+00	0	43	0	1313865728	55	3911
2026-01-24 08:00:19.81	346.93	23.82	-41.8	-42.6	22.0	0.00e+00	0	43	0	1317011456	55	3908
2026-01-24 08:00:20.82	346.76	23.70	-41.9	-42.7	22.0	0.00e+00	0	43	0	1319108608	55	3956
2026-01-24 08:00:21.83	346.60	23.57	-42.1	-42.9	21.9	0.00e+00	0	43	0	1322254336	55	4019
2026-01-24 08:00:22.83	346.43	23.45	-42.1	-42.9	21.8	0.00e+00	0	43	0	1325400064	55	4051
2026-01-24 08:00:23.84	346.27	23.33	-42.1	-43.0	21.7	0.00e+00	0	43	0	1328545792	55	4054
2026-01-24 08:00:24.85	346.11	23.21	-42.0	-42.8	21.8	0.00e+00	0	43	0	1331691520	55	3999
2026-01-24 08:00:25.86	345.95	23.09	-42.0	-42.8	21.8	0.00e+00	0	43	0	1335885824	55	3990
2026-01-24 08:00:26.87	345.79	22.97	-42.0	-42.8	21.9	0.00e+00	0	43	0	1339031552	55	3972
2026-01-24 08:00:27.88	345.63	22.84	-42.0	-42.8	21.9	0.00e+00	0	43	0	1342177280	55	3976
2026-01-24 08:00:28.88	345.47	22.73	-42.2	-43.0	21.7	0.00e+00	0	43	0	1345323008	55	4078
2026-01-24 08:00:29.89	345.32	22.61	-42.0	-42.8	21.8	0.00e+00	0	43	0	1348468736	55	3994
2026-01-24 08:00:30.90	345.16	22.49	-42.0	-42.9	21.8	0.00e+00	0	44	0	1351614464	55	4016
2026-01-24 08:00:31.91	345.01	22.37	-42.2	-43.0	21.7	0.00e+00	0	43	0	1354760192	55	4082
2026-01-24 08:00:32.92	344.85	22.25	-42.2	-43.1	21.6	0.00e+00	0	43	0	1357905920	55	4115
2026-01-24 08:00:33.92	344.71	22.13	-42.3	-43.1	21.6	0.00e+00	0	43	0	1361051648	55	4130
2026-01-24 08:00:34.93	344.56	22.01	-42.3	-43.2	21.6	0.00e+00	0	43	0	1364197376	55	4163
2026-01-24 08:00:35.94	344.41	21.89	-42.4	-43.2	21.5	0.00e+00	0	43	0	1366294528	55	4186
2026-01-24 08:00:36.95	344.26	21.78	-42.2	-43.0	21.7	0.00e+00	0	43	0	1369440256	55	4094
2026-01-24 08:00:37.96	344.11	21.66	-42.1	-42.9	21.7	0.00e+00	0	44	0	1372585984	55	4044
2026-01-24 08:00:38.97	343.97	21.54	-41.9	-42.8	21.9	0.00e+00	0	44	0	1376780288	55	3964
2026-01-24 08:00:39.97	343.82	21.43	-42.0	-42.8	21.8	0.00e+00	0	43	0	1379926016	55	4002
2026-01-24 08:00:40.98	343.68	21.31	-41.9	-42.7	21.9	0.00e+00	0	43	0	1383071744	55	3925
2026-01-24 08:00:41.99	343.54	21.19	-41.8	-42.6	22.1	0.00e+00	0	43	0	1386217472	55	3882
2026-01-24 08:00:43.00	343.40	21.08	-41.9	-42.7	21.9	0.00e+00	0	43	0	1389363200	55	3941
2026-01-24 08:00:44.00	343.26	20.96	-41.8	-42.6	22.0	0.00e+00	0	43	0	1392508928	55	3906
2026-01-24 08:00:45.01	343.12	20.85	-41.8	-42.7	22.0	0.00e+00	0	43	0	1395654656	55	3921
2026-01-24 08:00:46.02	342.98	20.73	-41.9	-42.7	21.9	0.00e+00	0	43	0	1398800384	55	3939
2026-01-24 08:00:47.03	342.85	20.62	-41.9	-42.7	21.9	0.00e+00	0	43	0	1401946112	55	3940
2026-01-24 08:00:48.04	342.71	20.51	-42.0	-42.9	21.8	0.00e+00	0	44	0	1405091840	55	4007
2026-01-24 08:00:49.05	342.57	20.39	-41.9	-42.7	21.8	0.00e+00	0	43	0	1408237568	55	3958
2026-01-24 08:00:50.05	342.44	20.28	-41.9	-42.8	21.8	0.00e+00	0	44	0	1411383296	55	3965
2026-01-24 08:00:51.06	342.31	20.17	-41.9	-42.8	21.8	0.00e+00	0	43	0	1414529024	55	3964
2026-01-24 08:00:52.07	342.18	20.05	-41.7	-42.5	22.0	0.00e+00	0	43	0	1417674752	55	3866
2026-01-24 08:00:53.08	342.05	19.94	-41.8	-42.6	21.9	0.00e+00	0	44	0	1420820480	55	3873
2026-01-24 08:00:54.09	341.92	19.83	-41.6	-42.3	22.1	0.00e+00	0	43	0	1423966208	55	3779
2026-01-24 08:00:55.09	341.79	19.72	-41.7	-42.5	22.0	0.00e+00	0	43	0	1427111936	55	3853
2026-01-24 08:00:56.10	341.66	19.61	-41.5	-42.3	22.2	0.00e+00	0	43	0	1430257664	54	3965
2026-01-24 08:00:57.11	341.53	19.50	-41.4	-42.1	22.2	0.00e+00	0	43	0	1433403392	54	3912
2026-01-24 08:00:58.12	341.41	19.39	-41.4	-42.2	22.2	0.00e+00	0	43	0	1436549120	54	3943
2026-01-24 08:00:59.12	341.29	19.28	-41.4	-42.2	22.2	0.00e+00	0	43	0	1439694848	54	3952
2026-01-24 08:01:00.13	341.16	19.17	-41.5	-42.3	22.1	0.00e+00	0	43	0	1442840576	54	3994
2026-01-24 08:01:01.14	341.04	19.06	-41.7	-42.5	22.0	0.00e+00	0	43	0	1445986304	54	4064
2026-01-24 08:01:02.15	340.92	18.95	-41.8	-42.6	21.9	0.00e+00	0	43	0	1449132032	54	4132
2026-01-24 08:01:03.16	340.79	18.84	-41.9	-42.7	21.8	0.00e+00	0	43	0	1452277760	54	4178
2026-01-24 08:01:04.17	340.67	18.73	-42.0	-42.8	21.7	0.00e+00	0	44	0	1455423488	54	4223
2026-01-24 08:01:05.18	340.55	18.62	-42.0	-42.9	21.6	0.00e+00	0	43	0	1458569216	54	4252
2026-01-24 08:01:06.19	340.44	18.52	-42.0	-42.9	21.6	0.00e+00	0	43	0	1461714944	54	4257
2026-01-24 08:01:07.19	340.32	18.41	-42.2	-43.0	21.5	0.00e+00	0	43	0	1464860672	54	4316
2026-01-24 08:01:08.20	340.20	18.30	-42.2	-43.1	21.4	0.00e+00	0	43	0	1468006400	55	4109
2026-01-24 08:01:09.21	340.09	18.20	-42.2	-43.1	21.4	0.00e+00	0	43	0	1471152128	55	4124
2026-01-24 08:01:10.22	339.97	18.09	-42.3	-43.2	21.4	0.00e+00	0	43	0	1474297856	55	4157
2026-01-24 08:01:11.23	339.86	17.98	-42.3	-43.2	21.3	0.00e+00	0	43	0	1477443584	55	4178
2026-01-24 08:01:12.24	339.74	17.88	-42.5	-43.4	21.1	0.00e+00	0	43	0	1480589312	55	4264
2026-01-24 08:01:13.25	339.63	17.77	-42.4	-43.3	21.1	0.00e+00	0	43	0	1483735040	55	4231
2026-01-24 08:01:14.25	339.52	17.67	-42.4	-43.3	21.1	0.00e+00	0	43	0	1486880768	55	4240
2026-01-24 08:01:15.26	339.41	17.56	-42.3	-43.2	21.1	0.00e+00	0	43	0	1490026496	55	4172
2026-01-24 08:01:16.27	339.30	17.46	-42.4	-43.2	21.1	0.00e+00	0	43	0	1493172224	55	4193
2026-01-24 08:01:17.28	339.19	17.35	-42.4	-43.3	21.1	0.00e+00	0	43	0	1496317952	55	4196
2026-01-24 08:01:18.29	339.08	17.25	-42.2	-43.1	21.2	0.00e+00	0	44	0	1499463680	55	4108
2026-01-24 08:01:19.30	338.97	17.15	-42.2	-43.1	21.3	0.00e+00	0	43	0	1502609408	55	4103
2026-01-24 08:01:20.31	338.86	17.04	-42.1	-43.0	21.3	0.00e+00	0	43	0	1505755136	55	4062
2026-01-24 08:01:21.31	338.76	16.94	-42.1	-42.9	21.4	0.00e+00	0	43	0	1508900864	55	4041
2026-01-24 08:01:22.32	338.65	16.84	-42.0	-42.9	21.5	0.00e+00	0	43	0	1512046592	55	4012
2026-01-24 08:01:23.33	338.54	16.74	-41.9	-42.8	21.6	0.00e+00	0	43	0	1515192320	55	3968
2026-01-24 08:01:24.34	338.44	16.64	-42.0	-42.8	21.6	0.00e+00	0	43	0	1518338048	55	3995
2026-01-24 08:01:25.35	338.34	16.53	-42.1	-42.9	21.4	0.00e+00	0	43	0	1521483776	55	4038
2026-01-24 08:01:26.36	338.23	16.43	-42.0	-42.8	21.6	0.00e+00	0	43	0	1524629504	55	3975
2026-01-24 08:01:27.37	338.13	16.33	-42.1	-43.0	21.5	0.00e+00	0	43	0	1527775232	55	4055
2026-01-24 08:01:28.37	338.03	16.23	-42.2	-43.0	21.4	0.00e+00	0	43	0	1530920960	55	4075
2026-01-24 08:01:29.38	337.93	16.13	-42.2	-43.1	21.4	0.00e+00	0	44	0	1534066688	55	4118
2026-01-24 08:01:30.39	337.83	16.03	-42.4	-43.3	21.2	7.00e-07	0	43	0	1537212416	55	4207
2026-01-24 08:01:31.40	337.73	15.93	-42.5	-43.4	21.1	0.00e+00	0	43	0	1540358144	55	4247
2026-01-24 08:01:32.41	337.63	15.83	-42.5	-43.4	21.1	0.00e+00	0	43	0	1543503872	55	4263
2026-01-24 08:01:33.41	337.53	15.74	-42.6	-43.6	21.0	0.00e+00	0	43	0	1546649600	55	4341
2026-01-24 08:01:34.42	337.44	15.64	-42.7	-43.6	20.9	0.00e+00	0	43	0	1549795328	55	4364
2026-01-24 08:01:35.43	337.34	15.54	-42.7	-43.6	20.9	0.00e+00	0	43	0	1552941056	55	4386
2026-01-24 08:01:36.44	337.24	15.44	-42.8	-43.7	20.9	0.00e+00	0	43	0	1556086784	56	4166
2026-01-24 08:01:37.44	337.15	15.34	-42.9	-43.8	20.8	0.00e+00	0	43	0	1559232512	56	4228
2026-01-24 08:01:38.45	337.05	15.25	-42.9	-43.8	20.8	0.00e+00	0	44	0	1562378240	56	4214
2026-01-24 08:01:39.46	336.96	15.15	-42.7	-43.6	21.0	0.00e+00	0	43	0	1565523968	56	4131
2026-01-24 08:01:40.47	336.87	15.05	-42.6	-43.5	21.0	0.00e+00	0	43	0	1568669696	56	4074
2026-01-24 08:01:41.47	336.77	14.96	-42.6	-43.5	21.0	0.00e+00	0	43	0	1571815424	56	4083
2026-01-24 08:01:42.48	336.68	14.86	-42.5	-43.4	21.1	0.00e+00	0	43	0	1574961152	56	4019
2026-01-24 08:01:43.49	336.59	14.76	-42.4	-43.3	21.2	0.00e+00	0	43	0	1578106880	56	3979
2026-01-24 08:01:44.50	336.50	14.67	-42.4	-43.3	21.2	0.00e+00	0	44	0	1581252608	56	3964
2026-01-24 08:01:45.51	336.41	14.57	-42.6	-43.5	21.0	0.00e+00	0	43	0	1584398336	56	4060
2026-01-24 08:01:46.52	336.32	14.48	-42.4	-43.3	21.2	0.00e+00	0	43	0	1587544064	56	3960
2026-01-24 08:01:47.53	336.23	14.38	-42.4	-43.3	21.2	0.00e+00	0	44	0	1590689792	56	3968
2026-01-24 08:01:48.53	336.14	14.29	-42.2	-43.0	21.4	0.00e+00	0	43	0	1593835520	56	3860
2026-01-24 08:01:49.54	336.05	14.20	-42.3	-43.2	21.3	0.00e+00	0	43	0	1596981248	56	3933
2026-01-24 08:01:50.55	335.97	14.10	-42.4	-43.2	21.2	0.00e+00	0	43	0	1600126976	56	3956
2026-01-24 08:01:51.56	335.88	14.01	-42.5	-43.4	21.1	0.00e+00	0	43	0	1603272704	56	4008
2026-01-24 08:01:52.57	335.79	13.92	-42.5	-43.3	21.1	0.00e+00	0	43	0	1606418432	56	4004
2026-01-24 08:01:53.57	335.71	13.82	-42.5	-43.4	21.1	1.37e-05	0	43	0	1609564160	56	4006
2026-01-24 08:01:54.58	335.62	13.73	-42.5	-43.4	21.1	0.00e+00	0	43	0	1612709888	56	4022
2026-01-24 08:01:55.59	335.54	13.64	-42.5	-43.4	21.1	0.00e+00	0	43	0	1615855616	56	4023
2026-01-24 08:01:56.60	335.45	13.55	-42.6	-43.5	21.0	0.00e+00	0	43	0	1619001344	56	4061
2026-01-24 08:01:57.61	335.37	13.45	-42.6	-43.5	21.0	0.00e+00	0	44	0	1622147072	56	4068
2026-01-24 08:01:58.62	335.29	13.36	-42.6	-43.5	21.0	0.00e+00	0	43	0	1625292800	56	4093
2026-01-24 08:01:59.63	335.20	13.27	-42.6	-43.5	21.0	7.00e-07	0	43	0	1628438528	56	4081
2026-01-24 08:02:00.63	335.12	13.18	-42.7	-43.6	20.9	1.29e-05	0	43	0	1631584256	56	4130
2026-01-24 08:02:01.64	335.04	13.09	-42.6	-43.5	20.9	0.00e+00	0	44	0	1634729984	56	4097
2026-01-24 08:02:02.65	334.96	13.00	-42.7	-43.6	20.9	0.00e+00	0	43	0	1637875712	56	4137
2026-01-24 08:02:03.66	334.88	12.91	-42.8	-43.7	20.8	0.00e+00	0	44	0	1641021440	56	4154
2026-01-24 08:02:04.67	334.80	12.82	-42.6	-43.6	20.9	7.00e-07	0	44	0	1644167168	56	4100
2026-01-24 08:02:05.67	334.72	12.73	-42.7	-43.6	20.9	0.00e+00	0	43	0	1647312896	56	4132
2026-01-24 08:02:06.68	334.64	12.64	-42.8	-43.7	20.8	0.00e+00	0	43	0	1650458624	56	4168
2026-01-24 08:02:07.69	334.56	12.55	-42.7	-43.6	20.8	0.00e+00	0	43	0	1653604352	56	4142
2026-01-24 08:02:08.70	334.48	12.46	-42.9	-43.8	20.7	0.00e+00	0	44	0	1656750080	56	4218
2026-01-24 08:02:09.70	334.41	12.38	-43.0	-44.0	20.5	0.00e+00	0	43	0	1659895808	56	4322
2026-01-24 08:02:10.71	334.33	12.29	-43.1	-44.1	20.4	0.00e+00	0	43	0	1663041536	56	4358
2026-01-24 08:02:11.72	334.25	12.20	-43.1	-44.1	20.4	0.00e+00	0	43	0	1666187264	57	4121
2026-01-24 08:02:12.73	334.18	12.11	-43.1	-44.1	20.4	0.00e+00	0	43	0	1669332992	57	4108
2026-01-24 08:02:13.74	334.10	12.02	-43.2	-44.2	20.3	0.00e+00	0	44	0	1672478720	57	4164
2026-01-24 08:02:14.75	334.03	11.94	-43.1	-44.0	20.4	0.00e+00	0	43	0	1675624448	57	4089
2026-01-24 08:02:15.76	333.95	11.85	-43.3	-44.2	20.2	0.00e+00	0	43	0	1678770176	57	4191
2026-01-24 08:02:16.77	333.88	11.76	-43.4	-44.4	20.1	0.00e+00	0	43	0	1681915904	57	4246
2026-01-24 08:02:17.77	333.81	11.68	-43.5	-44.5	20.1	0.00e+00	0	43	0	1685061632	57	4299
2026-01-24 08:02:18.78	333.73	11.59	-43.3	-44.3	20.2	0.00e+00	0	44	0	1688207360	57	4231
2026-01-24 08:02:19.79	333.66	11.51	-43.7	-44.8	19.8	0.00e+00	0	43	0	1691353088	57	4442
2026-01-24 08:02:20.80	333.59	11.42	-43.5	-44.5	20.0	0.00e+00	0	43	0	1694498816	58	4093
2026-01-24 08:02:21.81	333.52	11.33	-43.5	-44.5	20.0	0.00e+00	0	43	0	1697644544	58	4087
2026-01-24 08:02:22.82	333.44	11.25	-43.5	-44.5	20.1	0.00e+00	0	43	0	1700790272	58	4063
2026-01-24 08:02:23.83	333.37	11.16	-43.5	-44.5	20.0	0.00e+00	0	43	0	1703936000	58	4077
2026-01-24 08:02:24.84	333.30	11.08	-43.7	-44.7	19.9	0.00e+00	0	43	0	1707081728	58	4173
2026-01-24 08:02:25.85	333.23	11.00	-43.6	-44.6	20.0	0.00e+00	0	43	0	1710227456	58	4108
2026-01-24 08:02:26.85	333.16	10.91	-43.6	-44.6	19.9	7.00e-07	0	43	0	1713373184	58	4120
2026-01-24 08:02:27.86	333.09	10.83	-43.8	-44.8	19.7	0.00e+00	0	44	0	1716518912	58	4240
2026-01-24 08:02:28.87	333.02	10.74	-43.7	-44.8	19.8	0.00e+00	0	43	0	1719664640	58	4197
2026-01-24 08:02:29.88	332.96	10.66	-43.7	-44.8	19.8	0.00e+00	0	43	0	1722810368	58	4208
2026-01-24 08:02:30.89	332.89	10.58	-43.7	-44.8	19.8	0.00e+00	0	43	0	1725956096	58	4196
2026-01-24 08:02:31.90	332.82	10.49	-43.8	-44.9	19.7	0.00e+00	0	43	0	1729101824	58	4252
2026-01-24 08:02:32.91	332.75	10.41	-43.7	-44.8	19.7	0.00e+00	0	43	0	1732247552	58	4198
2026-01-24 08:02:33.92	332.69	10.33	-43.7	-44.8	19.7	0.00e+00	0	43	0	1735393280	58	4214
2026-01-24 08:02:34.93	332.62	10.25	-43.9	-44.9	19.6	0.00e+00	0	43	0	1738539008	58	4291
2026-01-24 08:02:35.94	332.55	10.16	-43.9	-44.9	19.6	8.30e-06	0	43	0	1741684736	58	4268
2026-01-24 08:02:36.94	332.49	10.08	-44.0	-45.1	19.5	0.00e+00	0	43	0	1744830464	58	4347
2026-01-24 08:02:37.95	332.42	10.00	-43.8	-44.8	19.7	0.00e+00	0	43	0	1747976192	58	4225
2026-01-24 08:02:38.96	332.36	9.92	-43.9	-45.0	19.6	0.00e+00	0	44	0	1751121920	58	4294
2026-01-24 08:02:39.97	332.29	9.84	-44.0	-45.1	19.4	0.00e+00	0	43	0	1754267648	58	4352
2026-01-24 08:02:40.97	332.23	9.76	-43.8	-44.9	19.6	0.00e+00	0	43	0	1757413376	58	4272
2026-01-24 08:02:41.98	332.17	9.68	-44.1	-45.2	19.3	0.00e+00	0	43	0	1760559104	58	4411
2026-01-24 08:02:42.99	332.10	9.60	-44.0	-45.1	19.3	1.06e-05	0	43	0	1763704832	58	4384
2026-01-24 08:02:44.00	332.04	9.52	-44.1	-45.2	19.3	0.00e+00	0	44	0	1766850560	58	4420
2026-01-24 08:02:45.01	331.98	9.44	-44.0	-45.0	19.4	0.00e+00	0	43	0	1769996288	59	4095
2026-01-24 08:02:46.01	331.91	9.36	-44.1	-45.2	19.2	0.00e+00	0	43	0	1773142016	59	4192
2026-01-24 08:02:47.02	331.85	9.28	-44.1	-45.3	19.2	0.00e+00	0	43	0	1776287744	59	4202
2026-01-24 08:02:48.03	331.79	9.20	-44.2	-45.3	19.2	0.00e+00	0	43	0	1779433472	59	4205
2026-01-24 08:02:49.04	331.73	9.12	-44.3	-45.4	19.1	0.00e+00	0	43	0	1782579200	59	4264
2026-01-24 08:02:50.05	331.67	9.04	-44.3	-45.4	19.0	0.00e+00	0	43	0	1785724928	59	4282
2026-01-24 08:02:51.05	331.61	8.96	-44.4	-45.5	19.0	0.00e+00	0	43	0	1788870656	59	4318
2026-01-24 08:02:52.06	331.55	8.89	-44.2	-45.4	19.1	0.00e+00	0	43	0	1792016384	59	4243
2026-01-24 08:02:53.07	331.49	8.81	-44.7	-45.8	18.6	0.00e+00	0	43	0	1795162112	59	4490
2026-01-24 08:02:54.08	331.43	8.73	-44.5	-45.6	18.5	0.00e+00	0	43	0	1798307840	60	4139
2026-01-24 08:02:55.09	331.37	8.65	-44.2	-45.3	18.8	0.00e+00	0	43	0	1801453568	60	3977
2026-01-24 08:02:56.10	331.31	8.57	-44.2	-45.3	18.8	0.00e+00	0	43	0	1804599296	60	3982
2026-01-24 08:02:57.10	331.25	8.50	-44.2	-45.3	18.8	0.00e+00	0	43	0	1807745024	60	3996
2026-01-24 08:02:58.11	331.19	8.42	-44.2	-45.3	18.9	0.00e+00	0	43	0	1810890752	60	3979
2026-01-24 08:02:59.12	331.14	8.34	-44.2	-45.3	18.8	0.00e+00	0	43	0	1814036480	60	3987
2026-01-24 08:03:00.13	331.08	8.27	-44.2	-45.3	18.8	0.00e+00	0	43	0	1817182208	60	3982
2026-01-24 08:03:01.13	331.02	8.19	-44.0	-45.1	19.0	0.00e+00	0	43	0	1820327936	60	3896
2026-01-24 08:03:02.14	330.97	8.11	-44.5	-45.6	18.8	0.00e+00	0	43	0	1823473664	59	4376
2026-01-24 08:03:03.15	330.91	8.04	-44.6	-45.7	18.7	0.00e+00	0	43	0	1826619392	59	4428
2026-01-24 08:03:04.16	330.85	7.96	-44.5	-45.7	18.7	0.00e+00	0	43	0	1829765120	59	4427
2026-01-24 08:03:05.17	330.80	7.88	-44.3	-45.5	18.6	0.00e+00	0	43	0	1832910848	60	4074
2026-01-24 08:03:06.17	330.74	7.81	-44.3	-45.5	18.6	0.00e+00	0	43	0	1836056576	60	4052
2026-01-24 08:03:07.18	330.69	7.73	-44.1	-45.3	18.8	0.00e+00	0	43	0	1839202304	60	3965
2026-01-24 08:03:08.19	330.63	7.66	-44.3	-45.5	18.6	0.00e+00	0	43	0	1842348032	60	4059
2026-01-24 08:03:09.19	330.58	7.58	-44.5	-45.7	18.4	0.00e+00	0	43	0	1845493760	60	4167
2026-01-24 08:03:10.20	330.52	7.51	-44.6	-45.8	18.3	0.00e+00	0	43	0	1848639488	60	4214
2026-01-24 08:03:11.21	330.47	7.44	-44.5	-45.7	18.3	0.00e+00	0	43	0	1851785216	60	4170
2026-01-24 08:03:12.22	330.41	7.36	-44.3	-45.5	18.5	0.00e+00	0	43	0	1854930944	60	4066
2026-01-24 08:03:13.23	330.36	7.29	-44.5	-45.8	18.2	0.00e+00	0	43	0	1858076672	60	4194
2026-01-24 08:03:14.24	330.31	7.21	-44.5	-45.7	18.3	0.00e+00	0	43	0	1861222400	60	4185
2026-01-24 08:03:15.25	330.25	7.14	-44.7	-45.9	18.1	0.00e+00	0	43	0	1864368128	60	4277
2026-01-24 08:03:16.25	330.20	7.07	-44.3	-45.5	18.5	0.00e+00	0	43	0	1867513856	60	4081
2026-01-24 08:03:17.26	330.15	6.99	-44.3	-45.4	18.5	0.00e+00	0	43	0	1870659584	60	4047
2026-01-24 08:03:18.27	330.10	6.92	-44.5	-45.7	18.2	0.00e+00	0	43	0	1873805312	60	4188
2026-01-24 08:03:19.28	330.05	6.85	-44.4	-45.5	18.4	0.00e+00	0	43	0	1876951040	60	4097
2026-01-24 08:03:20.29	329.99	6.77	-44.5	-45.7	18.3	0.00e+00	0	43	0	1880096768	60	4172
2026-01-24 08:03:21.29	329.94	6.70	-44.4	-45.7	18.3	0.00e+00	0	43	0	1883242496	60	4147
2026-01-24 08:03:22.30	329.89	6.63	-44.6	-45.9	18.1	0.00e+00	0	43	0	1886388224	60	4257
2026-01-24 08:03:23.31	329.84	6.56	-44.6	-45.8	18.1	0.00e+00	0	44	0	1889533952	60	4240
2026-01-24 08:03:24.32	329.79	6.48	-44.5	-45.8	18.2	0.00e+00	0	43	0	1892679680	60	4202
2026-01-24 08:03:25.33	329.74	6.41	-44.8	-46.1	17.8	0.00e+00	0	43	0	1895825408	60	4369
2026-01-24 08:03:26.33	329.69	6.34	-44.3	-45.5	18.5	0.00e+00	0	43	0	1898971136	60	4060
2026-01-24 08:03:27.34	329.64	6.27	-44.6	-45.9	18.0	0.00e+00	0	43	0	1902116864	60	4249
2026-01-24 08:03:28.35	329.59	6.20	-44.9	-46.2	17.7	0.00e+00	0	43	0	1905262592	60	4399
2026-01-24 08:03:29.36	329.54	6.13	-44.8	-46.1	17.8	0.00e+00	0	43	0	1908408320	60	4345
2026-01-24 08:03:30.37	329.49	6.05	-44.9	-46.2	17.6	0.00e+00	0	43	0	1912602624	60	4436
2026-01-24 08:03:31.37	329.45	5.98	-44.6	-45.8	18.0	0.00e+00	0	43	0	1915748352	60	4242
2026-01-24 08:03:32.38	329.40	5.91	-44.7	-46.0	17.9	0.00e+00	0	43	0	1917845504	60	4308
2026-01-24 08:03:33.39	329.35	5.84	-44.8	-46.1	17.7	0.00e+00	0	43	0	1920991232	60	4387
2026-01-24 08:03:34.40	329.30	5.77	-44.9	-46.2	17.7	0.00e+00	0	43	0	1924136960	60	4404
2026-01-24 08:03:35.41	329.25	5.70	-44.7	-46.0	17.8	0.00e+00	0	43	0	1927282688	60	4320
2026-01-24 08:03:36.42	329.21	5.63	-45.2	-46.6	17.2	0.00e+00	0	43	0	1930428416	61	4381
2026-01-24 08:03:37.42	329.16	5.56	-45.0	-46.4	17.4	0.00e+00	0	43	0	1933574144	61	4256
2026-01-24 08:03:38.43	329.11	5.49	-45.2	-46.6	17.3	0.00e+00	0	44	0	1936719872	61	4354
2026-01-24 08:03:39.44	329.07	5.42	-44.8	-46.1	17.7	0.00e+00	0	43	0	1939865600	61	4139
2026-01-24 08:03:40.45	329.02	5.35	-44.5	-45.8	18.0	0.00e+00	0	43	0	1943011328	61	3967
2026-01-24 08:03:41.46	328.97	5.28	-45.2	-46.6	17.2	0.00e+00	0	43	0	1946157056	61	4380
2026-01-24 08:03:42.47	328.93	5.21	-45.1	-46.5	17.3	0.00e+00	0	43	0	1950351360	61	4315
2026-01-24 08:03:43.47	328.88	5.15	-45.0	-46.3	17.4	0.00e+00	0	43	0	1953497088	61	4226
2026-01-24 08:03:44.48	328.84	5.08	-45.1	-46.4	17.3	0.00e+00	0	43	0	1956642816	61	4287
2026-01-24 08:03:45.49	328.79	5.01	-46.0	-47.6	16.3	0.00e+00	0	43	0	1959788544	62	4639
2026-01-24 08:03:46.50	328.75	4.94	-52.5	-65.3	3.8	1.49e+00	0	44	104	1959788544	75	16808
2026-01-24 08:03:47.51	328.70	4.87	-52.9	-65.7	3.8	1.49e+00	0	43	104	1959788544	76	16604
2026-01-24 08:03:48.51	328.66	4.80	-53.1	-65.9	3.8	1.49e+00	0	43	104	1959788544	76	16891
2026-01-24 08:03:49.52	328.61	4.74	-53.2	-66.0	3.8	1.49e+00	0	44	104	1959788544	76	17100
2026-01-24 08:03:50.53	328.57	4.67	-53.4	-66.1	3.8	1.49e+00	0	43	104	1959788544	77	16378
2026-01-24 08:03:51.54	328.53	4.60	-53.5	-66.3	3.8	1.49e+00	0	44	104	1959788544	77	16770
2026-01-24 08:03:52.55	328.48	4.53	-53.6	-66.4	3.8	1.49e+00	0	43	104	1959788544	77	17053
2026-01-24 08:03:53.55	328.44	4.46	-53.8	-66.6	3.8	1.49e+00	0	44	104	1959788544	78	16399
2026-01-24 08:03:54.56	328.40	4.40	-54.0	-66.7	3.8	1.49e+00	0	44	104	1959788544	78	16678
2026-01-24 08:03:55.57	328.35	4.33	-54.1	-66.8	3.8	1.49e+00	0	44	104	1959788544	78	16886
2026-01-24 08:03:56.58	328.31	4.26	-54.1	-66.8	3.8	1.49e+00	0	44	104	1959788544	78	16852
2026-01-24 08:03:57.59	328.27	4.20	-54.2	-67.0	3.8	1.49e+00	0	44	104	1959788544	78	17150
2026-01-24 08:03:58.60	328.23	4.13	-54.3	-67.1	3.8	1.49e+00	0	44	104	1959788544	79	16462
2026-01-24 08:03:59.60	328.18	4.06	-54.3	-67.1	3.8	1.49e+00	0	43	104	1959788544	79	16496
2026-01-24 08:04:00.61	328.14	4.00	-54.4	-67.1	3.8	1.49e+00	0	44	104	1959788544	79	16456
2026-01-24 08:04:01.62	328.10	3.93	-54.4	-67.2	3.8	1.49e+00	0	43	104	1959788544	79	16511
2026-01-24 08:04:02.63	328.06	3.86	-54.4	-67.2	3.8	1.49e+00	0	44	104	1959788544	79	16602
