passes_logs/2026/01/24/R3.2S_Murmansk/R3.2S_Murmansk__20260124_091822_FENGYUN_3D_rec.log

#Pass ID: 20260124_091822_FENGYUN 3D
#Satellite: FENGYUN 3D
#Configuration: FENGYUN 3D
#almurnet v.1.7.20251203
#Start time: 2026-01-24 09:18:24

#Version: 2.2.20231116
#Station: R3.2S_Murmansk
#Location: 33.079688 lon 68.888172 lat
#TLE: 1 43010U 17072A   26023.60174628  .00000324  00000+0  17481-3 0  9994
#TLE: 2 43010  98.9958 355.5514 0002482  93.7422 266.4037 14.19699955424476

#Time	Az	El	Level	Level2	SNR	BER	BlckErr	Temp	State	Recorded	gain1	gain2
2026-01-24 09:18:24.36	100.06	2.10	-51.9	-63.9	3.8	8.46e-01	0	41	0	0	75	14215
2026-01-24 09:18:25.36	100.02	2.16	-51.9	-63.9	3.8	8.46e-01	0	41	104	0	74	15086
2026-01-24 09:18:26.37	99.97	2.22	-51.9	-63.8	3.8	8.46e-01	0	41	104	0	74	15009
2026-01-24 09:18:27.38	99.92	2.28	-51.9	-63.8	3.8	8.46e-01	0	41	104	0	74	14969
2026-01-24 09:18:28.39	99.87	2.34	-51.9	-63.8	3.8	8.46e-01	0	41	104	0	74	15022
2026-01-24 09:18:29.39	99.83	2.40	-51.9	-63.8	3.8	8.47e-01	0	41	104	0	74	14974
2026-01-24 09:18:30.40	99.78	2.46	-51.9	-63.8	3.8	8.46e-01	0	41	104	0	74	14986
2026-01-24 09:18:31.41	99.73	2.53	-51.9	-63.8	3.8	8.45e-01	0	41	104	0	74	15039
2026-01-24 09:18:32.42	99.68	2.59	-51.9	-63.8	3.8	8.47e-01	0	41	104	0	74	15049
2026-01-24 09:18:33.43	99.63	2.65	-51.9	-63.8	3.8	8.47e-01	0	41	104	0	74	14970
2026-01-24 09:18:34.43	99.58	2.71	-51.9	-63.8	3.8	8.46e-01	0	41	104	0	74	14961
2026-01-24 09:18:35.44	99.54	2.77	-51.9	-63.8	3.8	8.45e-01	0	41	104	0	74	14953
2026-01-24 09:18:36.45	99.49	2.84	-51.9	-63.7	3.8	8.46e-01	0	41	104	0	74	14818
2026-01-24 09:18:37.46	99.44	2.90	-51.9	-63.7	3.8	8.46e-01	0	41	104	0	74	14782
2026-01-24 09:18:38.46	99.39	2.96	-51.9	-63.7	3.8	8.46e-01	0	41	104	0	74	14717
2026-01-24 09:18:39.47	99.34	3.02	-51.9	-63.6	3.8	8.47e-01	0	41	104	0	74	14624
2026-01-24 09:18:40.48	99.29	3.09	-51.9	-63.7	3.8	8.46e-01	0	41	104	0	74	14826
2026-01-24 09:18:41.49	99.24	3.15	-51.9	-63.8	3.8	8.46e-01	0	42	104	0	74	14912
2026-01-24 09:18:42.49	99.19	3.21	-51.9	-63.8	3.8	8.47e-01	0	41	104	0	74	14997
2026-01-24 09:18:43.50	99.14	3.28	-51.9	-63.8	3.8	8.46e-01	0	41	104	0	74	15041
2026-01-24 09:18:44.51	99.08	3.34	-51.9	-63.8	3.8	8.46e-01	0	41	104	0	74	15050
2026-01-24 09:18:45.52	99.03	3.40	-51.9	-63.8	3.8	8.46e-01	0	41	104	0	74	14924
2026-01-24 09:18:46.53	98.98	3.47	-51.9	-63.7	3.8	8.46e-01	0	42	104	0	74	14850
2026-01-24 09:18:47.53	98.93	3.53	-51.9	-63.7	3.8	8.46e-01	0	42	104	0	74	14795
2026-01-24 09:18:48.54	98.88	3.59	-51.9	-63.7	3.8	8.46e-01	0	41	104	0	74	14807
2026-01-24 09:18:49.55	98.83	3.66	-51.9	-63.8	3.8	8.46e-01	0	42	104	0	74	15025
2026-01-24 09:18:50.56	98.77	3.72	-51.9	-63.8	3.8	8.46e-01	0	41	104	0	74	14901
2026-01-24 09:18:51.57	98.72	3.79	-51.9	-63.6	3.8	8.45e-01	0	41	104	0	74	14605
2026-01-24 09:18:52.58	98.67	3.85	-51.8	-63.1	3.8	8.46e-01	0	42	104	0	74	13874
2026-01-24 09:18:53.59	98.61	3.92	-51.8	-62.4	3.8	8.46e-01	0	42	104	0	74	12710
2026-01-24 09:18:54.60	98.56	3.98	-51.7	-61.7	3.8	8.45e-01	0	42	104	0	74	11718
2026-01-24 09:18:55.61	98.51	4.05	-51.6	-60.9	4.1	8.41e-01	0	42	0	0	74	10694
2026-01-24 09:18:56.61	98.45	4.11	-51.5	-60.1	4.2	8.39e-01	0	42	0	0	74	9745
2026-01-24 09:18:57.62	98.40	4.18	-51.4	-59.6	4.4	8.29e-01	0	42	0	0	74	9185
2026-01-24 09:18:58.63	98.34	4.24	-51.5	-59.9	4.3	8.30e-01	0	42	0	0	74	9594
2026-01-24 09:18:59.64	98.29	4.31	-51.5	-60.1	4.2	8.34e-01	0	42	0	0	74	9751
2026-01-24 09:19:00.65	98.23	4.37	-51.5	-60.3	4.2	8.37e-01	0	42	0	0	74	10003
2026-01-24 09:19:01.65	98.18	4.44	-51.4	-59.6	4.4	8.31e-01	0	42	0	0	74	9260
2026-01-24 09:19:02.66	98.12	4.50	-51.1	-57.9	5.2	7.65e-01	0	42	0	0	74	7591
2026-01-24 09:19:03.67	98.07	4.57	-50.5	-55.9	6.7	4.08e-01	0	42	0	2097152	73	6381
2026-01-24 09:19:04.68	98.01	4.63	-49.8	-54.0	8.6	6.66e-02	0	42	0	8388608	71	5723
2026-01-24 09:19:05.69	97.95	4.70	-48.7	-51.8	10.9	6.72e-03	0	42	0	13631488	69	5012
2026-01-24 09:19:06.69	97.90	4.77	-48.1	-50.7	12.1	4.18e-04	0	42	0	19922944	68	4655
2026-01-24 09:19:07.70	97.84	4.83	-46.9	-49.0	13.7	1.18e-04	0	42	0	25165824	65	4568
2026-01-24 09:19:08.71	97.78	4.90	-46.4	-48.3	14.4	4.50e-06	0	42	0	30408704	64	4492
2026-01-24 09:19:09.72	97.73	4.97	-45.7	-47.4	15.4	0.00e+00	0	42	0	36700160	63	4265
2026-01-24 09:19:10.73	97.67	5.03	-46.1	-47.9	14.9	0.00e+00	0	42	0	41943040	63	4535
2026-01-24 09:19:11.73	97.61	5.10	-47.8	-50.3	12.6	3.40e-06	0	42	0	47185920	66	4991
2026-01-24 09:19:12.74	97.55	5.17	-44.0	-45.2	17.8	4.23e-05	0	42	0	53477376	60	3930
2026-01-24 09:19:13.75	97.49	5.23	-50.9	-56.7	6.4	5.03e-05	0	42	0	59768832	72	7444
2026-01-24 09:19:14.76	97.44	5.30	-47.5	-49.7	13.3	6.00e-01	0	42	104	59768832	66	4658
2026-01-24 09:19:15.77	97.38	5.37	-44.2	-45.4	18.0	0.00e+00	0	42	0	65011712	58	4519
2026-01-24 09:19:16.77	97.32	5.44	-43.5	-44.6	18.6	0.00e+00	0	42	0	70254592	59	3910
2026-01-24 09:19:17.78	97.26	5.50	-43.5	-44.7	18.6	0.00e+00	0	42	0	76546048	58	4157
2026-01-24 09:19:18.79	97.20	5.57	-43.4	-44.6	18.7	0.00e+00	0	42	0	81788928	58	4118
2026-01-24 09:19:19.80	97.14	5.64	-43.3	-44.4	18.8	0.00e+00	0	42	0	88080384	57	4289
2026-01-24 09:19:20.81	97.08	5.71	-43.5	-44.7	18.7	0.00e+00	0	42	0	93323264	58	4162
2026-01-24 09:19:21.81	97.02	5.78	-43.0	-44.1	19.3	0.00e+00	0	42	0	98566144	58	3891
2026-01-24 09:19:22.82	96.95	5.85	-42.8	-43.9	19.5	0.00e+00	0	42	0	104857600	57	4017
2026-01-24 09:19:23.83	96.89	5.91	-42.6	-43.7	19.7	0.00e+00	0	42	0	110100480	57	3933
2026-01-24 09:19:24.84	96.83	5.98	-43.0	-44.1	19.3	0.00e+00	0	42	0	115343360	56	4347
2026-01-24 09:19:25.85	96.77	6.05	-42.8	-43.8	19.5	0.00e+00	0	42	0	121634816	56	4223
2026-01-24 09:19:26.85	96.71	6.12	-42.8	-43.8	19.5	0.00e+00	0	42	0	127926272	56	4236
2026-01-24 09:19:27.86	96.64	6.19	-42.6	-43.6	19.8	0.00e+00	0	42	0	133169152	56	4119
2026-01-24 09:19:28.87	96.58	6.26	-42.9	-44.0	19.3	0.00e+00	0	42	0	138412032	56	4336
2026-01-24 09:19:29.88	96.52	6.33	-42.6	-43.7	19.7	0.00e+00	0	42	0	144703488	56	4148
2026-01-24 09:19:30.89	96.45	6.40	-42.7	-43.7	19.6	0.00e+00	0	42	0	149946368	56	4178
2026-01-24 09:19:31.89	96.39	6.47	-42.7	-43.8	19.5	0.00e+00	0	42	0	155189248	56	4221
2026-01-24 09:19:32.90	96.33	6.54	-42.5	-43.5	19.8	0.00e+00	0	42	0	161480704	56	4095
2026-01-24 09:19:33.91	96.26	6.61	-42.7	-43.8	19.6	0.00e+00	0	42	0	166723584	56	4199
2026-01-24 09:19:34.92	96.20	6.68	-42.7	-43.8	19.5	0.00e+00	0	42	0	173015040	56	4222
2026-01-24 09:19:35.93	96.13	6.75	-42.6	-43.7	19.7	0.00e+00	0	43	0	178257920	56	4162
2026-01-24 09:19:36.93	96.06	6.82	-42.6	-43.6	19.8	0.00e+00	0	42	0	183500800	56	4119
2026-01-24 09:19:37.94	96.00	6.89	-42.8	-43.9	19.5	0.00e+00	0	42	0	189792256	56	4278
2026-01-24 09:19:38.95	95.93	6.96	-42.5	-43.6	19.8	0.00e+00	0	42	0	195035136	56	4102
2026-01-24 09:19:39.96	95.87	7.03	-42.1	-43.1	20.2	0.00e+00	0	42	0	201326592	56	3910
2026-01-24 09:19:40.97	95.80	7.10	-42.6	-43.6	19.8	0.00e+00	0	42	0	206569472	56	4120
2026-01-24 09:19:41.97	95.73	7.18	-42.6	-43.7	19.7	0.00e+00	0	42	0	212860928	56	4153
2026-01-24 09:19:42.98	95.66	7.25	-42.8	-43.8	19.6	0.00e+00	0	42	0	218103808	56	4234
2026-01-24 09:19:43.99	95.60	7.32	-42.6	-43.7	19.8	0.00e+00	0	42	0	223346688	56	4155
2026-01-24 09:19:45.00	95.53	7.39	-42.8	-43.9	19.5	0.00e+00	0	42	0	229638144	56	4261
2026-01-24 09:19:46.01	95.46	7.46	-42.8	-43.9	19.5	0.00e+00	0	42	0	234881024	56	4269
2026-01-24 09:19:47.01	95.39	7.53	-42.7	-43.8	19.6	0.00e+00	0	42	0	240123904	56	4212
2026-01-24 09:19:48.02	95.32	7.61	-42.6	-43.6	19.8	0.00e+00	0	42	0	246415360	56	4110
2026-01-24 09:19:49.03	95.25	7.68	-42.6	-43.7	19.7	0.00e+00	0	42	0	251658240	56	4163
2026-01-24 09:19:50.03	95.18	7.75	-42.4	-43.5	20.0	0.00e+00	0	42	0	257949696	56	4055
2026-01-24 09:19:51.04	95.11	7.82	-42.7	-43.7	19.7	0.00e+00	0	42	0	263192576	56	4174
2026-01-24 09:19:52.05	95.04	7.90	-42.6	-43.6	19.8	0.00e+00	0	42	0	269484032	56	4133
2026-01-24 09:19:53.06	94.97	7.97	-42.2	-43.2	20.2	0.00e+00	0	42	0	274726912	56	3945
2026-01-24 09:19:54.07	94.90	8.04	-42.5	-43.5	19.9	0.00e+00	0	43	0	281018368	56	4075
2026-01-24 09:19:55.07	94.82	8.12	-42.2	-43.2	20.1	0.00e+00	0	42	0	286261248	56	3950
2026-01-24 09:19:56.08	94.75	8.19	-42.3	-43.3	20.1	0.00e+00	0	42	0	291504128	56	3986
2026-01-24 09:19:57.09	94.68	8.27	-42.1	-43.0	20.4	0.00e+00	0	42	0	297795584	56	3861
2026-01-24 09:19:58.10	94.60	8.34	-42.4	-43.4	20.0	0.00e+00	0	42	0	303038464	56	4042
2026-01-24 09:19:59.11	94.53	8.41	-42.4	-43.4	20.1	0.00e+00	0	42	0	308281344	56	4021
2026-01-24 09:20:00.11	94.46	8.49	-42.4	-43.4	20.1	0.00e+00	0	42	0	314572800	56	4029
2026-01-24 09:20:01.12	94.38	8.56	-42.4	-43.4	20.1	0.00e+00	0	42	0	319815680	56	4005
2026-01-24 09:20:02.13	94.31	8.64	-42.5	-43.5	20.0	0.00e+00	0	42	0	325058560	56	4068
2026-01-24 09:20:03.14	94.23	8.71	-41.9	-42.8	20.6	0.00e+00	0	42	0	331350016	55	3988
2026-01-24 09:20:04.15	94.16	8.79	-42.1	-43.0	20.4	0.00e+00	0	43	0	337641472	55	4091
2026-01-24 09:20:05.16	94.08	8.86	-42.2	-43.2	20.2	0.00e+00	0	42	0	342884352	55	4161
2026-01-24 09:20:06.17	94.00	8.94	-42.4	-43.4	20.1	0.00e+00	0	42	0	348127232	55	4252
2026-01-24 09:20:07.17	93.93	9.01	-41.9	-42.8	20.6	0.00e+00	0	42	0	354418688	55	3993
2026-01-24 09:20:08.18	93.85	9.09	-41.7	-42.6	20.8	0.00e+00	0	43	0	359661568	55	3908
2026-01-24 09:20:09.19	93.77	9.17	-41.8	-42.8	20.7	0.00e+00	0	42	0	365953024	55	3963
2026-01-24 09:20:10.20	93.69	9.24	-41.7	-42.7	20.8	0.00e+00	0	43	0	371195904	55	3920
2026-01-24 09:20:11.21	93.62	9.32	-41.7	-42.7	20.8	0.00e+00	0	42	0	376438784	55	3935
2026-01-24 09:20:12.21	93.54	9.40	-41.8	-42.7	20.7	0.00e+00	0	42	0	382730240	55	3952
2026-01-24 09:20:13.22	93.46	9.47	-42.1	-43.1	20.4	0.00e+00	0	43	0	387973120	55	4140
2026-01-24 09:20:14.23	93.38	9.55	-41.8	-42.7	20.7	0.00e+00	0	43	0	393216000	55	3954
2026-01-24 09:20:15.24	93.30	9.63	-41.8	-42.8	20.7	0.00e+00	0	43	0	399507456	55	3961
2026-01-24 09:20:16.25	93.22	9.70	-42.0	-43.0	20.5	0.00e+00	0	43	0	404750336	55	4076
2026-01-24 09:20:17.25	93.14	9.78	-41.8	-42.8	20.7	0.00e+00	0	43	0	411041792	55	3984
2026-01-24 09:20:18.26	93.05	9.86	-41.9	-42.9	20.7	0.00e+00	0	43	0	416284672	55	4012
2026-01-24 09:20:19.27	92.97	9.94	-42.0	-42.9	20.6	0.00e+00	0	42	0	422576128	55	4046
2026-01-24 09:20:20.28	92.89	10.01	-42.0	-42.9	20.7	0.00e+00	0	42	0	427819008	55	4036
2026-01-24 09:20:21.29	92.81	10.09	-42.1	-43.1	20.6	0.00e+00	0	43	0	433061888	55	4106
2026-01-24 09:20:22.30	92.72	10.17	-41.9	-42.9	20.7	0.00e+00	0	43	0	439353344	55	4030
2026-01-24 09:20:23.30	92.64	10.25	-42.1	-43.1	20.5	0.00e+00	0	43	0	444596224	55	4123
2026-01-24 09:20:24.31	92.56	10.33	-42.1	-43.1	20.5	0.00e+00	0	42	0	450887680	55	4103
2026-01-24 09:20:25.32	92.47	10.41	-41.9	-42.9	20.6	0.00e+00	0	43	0	456130560	55	4026
2026-01-24 09:20:26.33	92.39	10.49	-42.1	-43.1	20.5	0.00e+00	0	43	0	461373440	55	4105
2026-01-24 09:20:27.34	92.30	10.57	-42.3	-43.3	20.3	0.00e+00	0	42	0	467664896	55	4197
2026-01-24 09:20:28.35	92.21	10.65	-42.4	-43.4	20.2	0.00e+00	0	42	0	472907776	55	4258
2026-01-24 09:20:29.35	92.13	10.72	-42.0	-43.0	20.6	0.00e+00	0	43	0	479199232	55	4053
2026-01-24 09:20:30.36	92.04	10.80	-41.7	-42.7	21.0	0.00e+00	0	43	0	484442112	55	3914
2026-01-24 09:20:31.37	91.95	10.88	-41.6	-42.5	21.0	0.00e+00	0	43	0	490733568	55	3865
2026-01-24 09:20:32.38	91.86	10.97	-41.8	-42.7	20.9	0.00e+00	0	42	0	495976448	55	3952
2026-01-24 09:20:33.39	91.77	11.05	-41.7	-42.6	21.0	0.00e+00	0	43	0	501219328	55	3902
2026-01-24 09:20:34.40	91.68	11.13	-41.8	-42.7	20.9	0.00e+00	0	43	0	507510784	55	3939
2026-01-24 09:20:35.40	91.60	11.21	-41.9	-42.8	20.8	0.00e+00	0	43	0	512753664	55	3993
2026-01-24 09:20:36.41	91.51	11.29	-42.1	-43.1	20.5	0.00e+00	0	43	0	517996544	55	4128
2026-01-24 09:20:37.42	91.41	11.37	-41.8	-42.8	20.8	0.00e+00	0	43	0	524288000	55	3985
2026-01-24 09:20:38.43	91.32	11.45	-41.6	-42.5	21.1	0.00e+00	0	43	0	529530880	55	3855
2026-01-24 09:20:39.44	91.23	11.53	-41.6	-42.5	21.0	0.00e+00	0	43	0	535822336	55	3863
2026-01-24 09:20:40.45	91.14	11.62	-41.5	-42.5	21.1	0.00e+00	0	43	0	541065216	55	3830
2026-01-24 09:20:41.46	91.05	11.70	-41.8	-42.8	20.9	0.00e+00	0	43	0	547356672	55	3977
2026-01-24 09:20:42.46	90.95	11.78	-41.8	-42.7	21.0	0.00e+00	0	43	0	552599552	55	3948
2026-01-24 09:20:43.47	90.86	11.86	-41.5	-42.4	21.3	0.00e+00	0	43	0	558891008	55	3801
2026-01-24 09:20:44.48	90.76	11.94	-41.3	-42.3	21.4	0.00e+00	0	43	0	564133888	54	3963
2026-01-24 09:20:45.49	90.67	12.03	-41.4	-42.3	21.5	0.00e+00	0	43	0	569376768	54	3974
2026-01-24 09:20:46.50	90.57	12.11	-41.3	-42.3	21.6	0.00e+00	0	43	0	575668224	54	3960
2026-01-24 09:20:47.51	90.48	12.19	-41.4	-42.3	21.5	0.00e+00	0	43	0	580911104	54	3979
2026-01-24 09:20:48.52	90.38	12.28	-41.4	-42.3	21.4	0.00e+00	0	43	0	586153984	54	3967
2026-01-24 09:20:49.53	90.28	12.36	-41.3	-42.2	21.5	0.00e+00	0	43	0	592445440	54	3936
2026-01-24 09:20:50.53	90.18	12.44	-41.1	-42.0	21.7	0.00e+00	0	43	0	597688320	54	3857
2026-01-24 09:20:51.54	90.09	12.53	-41.2	-42.1	21.7	0.00e+00	0	43	0	602931200	54	3872
2026-01-24 09:20:52.55	89.99	12.61	-41.3	-42.2	21.6	0.00e+00	0	43	0	609222656	54	3923
2026-01-24 09:20:53.56	89.89	12.70	-41.2	-42.1	21.6	0.00e+00	0	43	0	615514112	54	3881
2026-01-24 09:20:54.57	89.79	12.78	-41.1	-41.9	21.7	0.00e+00	0	43	0	620756992	54	3823
2026-01-24 09:20:55.57	89.69	12.87	-41.2	-42.1	21.6	0.00e+00	0	43	0	625999872	54	3884
2026-01-24 09:20:56.58	89.58	12.95	-41.2	-42.1	21.5	0.00e+00	0	42	0	632291328	54	3907
2026-01-24 09:20:57.59	89.48	13.04	-41.0	-41.9	21.7	0.00e+00	0	43	0	637534208	54	3824
2026-01-24 09:20:58.60	89.38	13.12	-41.1	-42.0	21.6	0.00e+00	0	43	0	643825664	54	3861
2026-01-24 09:20:59.61	89.28	13.21	-41.0	-41.9	21.7	0.00e+00	0	43	0	649068544	54	3813
2026-01-24 09:21:00.61	89.17	13.29	-40.9	-41.8	21.9	0.00e+00	0	43	0	654311424	53	3963
2026-01-24 09:21:01.62	89.07	13.38	-40.7	-41.5	22.0	0.00e+00	0	43	0	660602880	53	3867
2026-01-24 09:21:02.63	88.96	13.47	-40.6	-41.5	22.1	0.00e+00	0	43	0	665845760	53	3832
2026-01-24 09:21:03.64	88.86	13.55	-40.7	-41.6	22.0	0.00e+00	0	43	0	671088640	53	3884
2026-01-24 09:21:04.65	88.75	13.64	-40.9	-41.7	21.9	0.00e+00	0	43	0	677380096	53	3946
2026-01-24 09:21:05.66	88.64	13.73	-40.7	-41.6	22.0	0.00e+00	0	43	0	683671552	53	3874
2026-01-24 09:21:06.67	88.54	13.82	-40.6	-41.5	22.1	0.00e+00	0	43	0	688914432	53	3835
2026-01-24 09:21:07.68	88.43	13.90	-40.7	-41.5	22.1	0.00e+00	0	43	0	694157312	53	3859
2026-01-24 09:21:08.69	88.32	13.99	-40.6	-41.5	22.1	0.00e+00	0	43	0	700448768	53	3843
2026-01-24 09:21:09.70	88.21	14.08	-40.6	-41.4	22.2	0.00e+00	0	43	0	705691648	53	3811
2026-01-24 09:21:10.71	88.10	14.17	-40.6	-41.4	22.2	0.00e+00	0	43	0	710934528	53	3814
2026-01-24 09:21:11.71	87.99	14.26	-40.5	-41.4	22.2	0.00e+00	0	43	0	717225984	52	4008
2026-01-24 09:21:12.72	87.88	14.34	-40.5	-41.4	22.2	0.00e+00	0	43	0	722468864	52	4015
2026-01-24 09:21:13.73	87.76	14.43	-40.4	-41.3	22.3	0.00e+00	0	43	0	728760320	52	3969
2026-01-24 09:21:14.74	87.65	14.52	-40.5	-41.4	22.2	0.00e+00	0	43	0	734003200	52	4019
2026-01-24 09:21:15.75	87.54	14.61	-40.5	-41.4	22.3	0.00e+00	0	43	0	740294656	52	4005
2026-01-24 09:21:16.76	87.42	14.70	-40.4	-41.3	22.3	0.00e+00	0	43	0	745537536	52	3984
2026-01-24 09:21:17.77	87.31	14.79	-40.6	-41.5	22.2	0.00e+00	0	43	0	751828992	52	4052
2026-01-24 09:21:18.78	87.19	14.88	-40.7	-41.6	22.1	0.00e+00	0	43	0	757071872	52	4116
2026-01-24 09:21:19.79	87.07	14.97	-40.7	-41.5	22.4	0.00e+00	0	43	0	762314752	52	4089
2026-01-24 09:21:20.79	86.96	15.06	-40.7	-41.5	22.4	0.00e+00	0	43	0	768606208	52	4091
2026-01-24 09:21:21.80	86.84	15.15	-40.5	-41.3	22.5	0.00e+00	0	43	0	773849088	52	4001
2026-01-24 09:21:22.81	86.72	15.24	-40.4	-41.2	22.7	0.00e+00	0	43	0	779091968	52	3944
2026-01-24 09:21:23.82	86.60	15.33	-40.4	-41.2	22.7	0.00e+00	0	43	0	785383424	52	3939
2026-01-24 09:21:24.83	86.48	15.42	-40.4	-41.2	22.7	0.00e+00	0	43	0	790626304	52	3918
2026-01-24 09:21:25.83	86.36	15.51	-40.6	-41.4	22.5	0.00e+00	0	43	0	795869184	52	4034
2026-01-24 09:21:26.84	86.24	15.60	-40.4	-41.2	22.8	0.00e+00	0	43	0	802160640	52	3930
2026-01-24 09:21:27.85	86.11	15.70	-40.3	-41.1	22.8	0.00e+00	0	43	0	808452096	52	3891
2026-01-24 09:21:28.86	85.99	15.79	-40.2	-41.0	22.9	0.00e+00	0	43	0	813694976	52	3841
2026-01-24 09:21:29.87	85.87	15.88	-40.2	-41.0	22.9	0.00e+00	0	43	0	818937856	52	3844
2026-01-24 09:21:30.88	85.74	15.97	-40.4	-41.2	22.9	0.00e+00	0	43	0	825229312	52	3939
2026-01-24 09:21:31.89	85.61	16.07	-40.4	-41.2	22.9	0.00e+00	0	43	0	830472192	52	3940
2026-01-24 09:21:32.90	85.49	16.16	-40.4	-41.3	22.8	0.00e+00	0	43	0	836763648	52	3959
2026-01-24 09:21:33.91	85.36	16.25	-40.2	-41.0	23.0	0.00e+00	0	43	0	842006528	52	3851
2026-01-24 09:21:34.92	85.23	16.34	-40.1	-40.9	23.1	0.00e+00	0	43	0	847249408	52	3818
2026-01-24 09:21:35.92	85.10	16.44	-40.2	-40.9	23.0	0.00e+00	0	43	0	853540864	52	3819
2026-01-24 09:21:36.93	84.97	16.53	-40.0	-40.8	23.2	0.00e+00	0	43	0	858783744	51	3986
2026-01-24 09:21:37.94	84.84	16.63	-40.0	-40.8	23.4	0.00e+00	0	43	0	864026624	51	3974
2026-01-24 09:21:38.95	84.71	16.72	-39.9	-40.7	23.5	0.00e+00	0	43	0	870318080	51	3935
2026-01-24 09:21:39.96	84.58	16.81	-39.9	-40.6	23.4	0.00e+00	0	43	0	876609536	51	3898
2026-01-24 09:21:40.96	84.45	16.91	-39.9	-40.6	23.4	0.00e+00	0	43	0	881852416	51	3900
2026-01-24 09:21:41.97	84.31	17.00	-40.0	-40.7	23.3	0.00e+00	0	43	0	887095296	51	3949
2026-01-24 09:21:42.98	84.18	17.10	-39.9	-40.7	23.4	0.00e+00	0	43	0	893386752	51	3937
2026-01-24 09:21:43.99	84.04	17.19	-39.9	-40.6	23.4	0.00e+00	0	43	0	898629632	51	3900
2026-01-24 09:21:44.99	83.91	17.29	-40.1	-40.8	23.2	0.00e+00	0	43	0	903872512	51	4003
2026-01-24 09:21:46.00	83.77	17.38	-40.1	-40.9	23.1	0.00e+00	0	43	0	910163968	51	4024
2026-01-24 09:21:47.01	83.63	17.48	-40.0	-40.8	23.3	0.00e+00	0	43	0	915406848	51	3977
2026-01-24 09:21:48.02	83.49	17.57	-40.0	-40.8	23.4	0.00e+00	0	43	0	921698304	51	3982
2026-01-24 09:21:49.03	83.35	17.67	-40.2	-40.9	23.3	0.00e+00	0	43	0	926941184	51	4042
2026-01-24 09:21:50.04	83.21	17.77	-39.8	-40.6	23.6	0.00e+00	0	43	0	932184064	51	3888
2026-01-24 09:21:51.05	83.07	17.86	-39.9	-40.7	23.5	0.00e+00	0	43	0	938475520	51	3914
2026-01-24 09:21:52.05	82.92	17.96	-39.8	-40.5	23.6	0.00e+00	0	43	0	944766976	51	3863
2026-01-24 09:21:53.06	82.78	18.05	-39.6	-40.4	23.7	0.00e+00	0	43	0	950009856	51	3795
2026-01-24 09:21:54.07	82.64	18.15	-39.5	-40.2	23.9	0.00e+00	0	43	0	955252736	51	3726
2026-01-24 09:21:55.08	82.49	18.25	-39.4	-40.2	23.9	0.00e+00	0	43	0	961544192	50	3929
2026-01-24 09:21:56.08	82.34	18.35	-39.4	-40.2	23.9	0.00e+00	0	43	0	966787072	50	3918
2026-01-24 09:21:57.09	82.20	18.44	-39.6	-40.3	23.8	0.00e+00	0	43	0	972029952	50	3998
2026-01-24 09:21:58.10	82.05	18.54	-39.7	-40.4	23.8	0.00e+00	0	43	0	978321408	50	4028
2026-01-24 09:21:59.11	81.90	18.64	-39.6	-40.4	23.8	0.00e+00	0	43	0	983564288	50	4018
2026-01-24 09:22:00.12	81.75	18.74	-39.7	-40.4	23.7	0.00e+00	0	43	0	988807168	50	4036
2026-01-24 09:22:01.13	81.60	18.83	-39.4	-40.2	23.9	0.00e+00	0	43	0	995098624	50	3928
2026-01-24 09:22:02.13	81.44	18.93	-39.6	-40.3	23.8	0.00e+00	0	43	0	1000341504	50	4001
2026-01-24 09:22:03.14	81.29	19.03	-39.8	-40.5	23.7	0.00e+00	0	43	0	1006632960	50	4098
2026-01-24 09:22:04.15	81.14	19.13	-39.9	-40.6	23.5	0.00e+00	0	43	0	1011875840	50	4130
2026-01-24 09:22:05.16	80.98	19.23	-39.6	-40.4	23.7	0.00e+00	0	43	0	1018167296	50	4013
2026-01-24 09:22:06.16	80.82	19.33	-39.5	-40.3	23.8	0.00e+00	0	43	0	1023410176	50	3961
2026-01-24 09:22:07.17	80.67	19.43	-39.2	-40.0	24.0	0.00e+00	0	43	0	1029701632	50	3830
2026-01-24 09:22:08.18	80.51	19.53	-39.3	-40.0	24.0	0.00e+00	0	43	0	1034944512	50	3858
2026-01-24 09:22:09.19	80.35	19.63	-39.2	-39.9	24.1	0.00e+00	0	43	0	1040187392	50	3798
2026-01-24 09:22:10.20	80.19	19.73	-39.2	-39.9	24.1	0.00e+00	0	43	0	1046478848	50	3820
2026-01-24 09:22:11.21	80.02	19.83	-39.1	-39.8	24.2	0.00e+00	0	43	0	1051721728	50	3763
2026-01-24 09:22:12.21	79.86	19.92	-39.3	-40.0	24.0	0.00e+00	0	43	0	1056964608	50	3853
2026-01-24 09:22:13.22	79.70	20.03	-38.9	-39.7	24.3	0.00e+00	0	43	0	1063256064	49	3923
2026-01-24 09:22:14.23	79.53	20.13	-39.0	-39.8	24.2	0.00e+00	0	43	0	1068498944	49	3962
2026-01-24 09:22:15.24	79.37	20.23	-39.3	-40.0	24.2	0.00e+00	0	43	0	1073741824	49	4074
2026-01-24 09:22:16.25	79.20	20.33	-39.2	-39.9	24.2	0.00e+00	0	43	0	1080033280	49	4034
2026-01-24 09:22:17.25	79.03	20.43	-39.1	-39.9	24.2	0.00e+00	0	43	0	1086324736	49	4012
2026-01-24 09:22:18.26	78.86	20.53	-39.3	-40.0	24.1	0.00e+00	0	43	0	1091567616	49	4067
2026-01-24 09:22:19.27	78.69	20.63	-39.3	-40.0	24.1	0.00e+00	0	43	0	1096810496	49	4088
2026-01-24 09:22:20.28	78.52	20.73	-39.3	-40.0	24.1	0.00e+00	0	43	0	1103101952	49	4082
2026-01-24 09:22:21.29	78.35	20.83	-39.4	-40.1	24.0	0.00e+00	0	42	0	1108344832	49	4128
2026-01-24 09:22:22.30	78.17	20.93	-39.4	-40.1	24.0	0.00e+00	0	43	0	1114636288	49	4134
2026-01-24 09:22:23.31	78.00	21.04	-39.2	-40.0	24.0	0.00e+00	0	43	0	1119879168	49	4069
2026-01-24 09:22:24.31	77.82	21.14	-39.3	-40.0	24.0	0.00e+00	0	43	0	1125122048	49	4088
2026-01-24 09:22:25.32	77.64	21.24	-39.3	-40.0	24.0	0.00e+00	0	43	0	1131413504	49	4090
2026-01-24 09:22:26.33	77.46	21.34	-39.2	-39.9	24.2	0.00e+00	0	43	0	1136656384	49	4038
2026-01-24 09:22:27.34	77.28	21.44	-39.0	-39.8	24.3	0.00e+00	0	43	0	1141899264	49	3967
2026-01-24 09:22:28.35	77.10	21.54	-39.2	-40.0	24.1	0.00e+00	0	43	0	1148190720	49	4063
2026-01-24 09:22:29.35	76.92	21.65	-38.8	-39.5	24.5	0.00e+00	0	43	0	1154482176	49	3866
2026-01-24 09:22:30.36	76.74	21.75	-38.8	-39.6	24.5	0.00e+00	0	43	0	1159725056	49	3871
2026-01-24 09:22:31.37	76.55	21.85	-38.9	-39.7	24.3	0.00e+00	0	43	0	1164967936	49	3930
2026-01-24 09:22:32.38	76.36	21.95	-38.8	-39.5	24.5	0.00e+00	0	43	0	1171259392	49	3853
2026-01-24 09:22:33.39	76.18	22.06	-38.8	-39.5	24.5	0.00e+00	0	43	0	1176502272	49	3865
2026-01-24 09:22:34.39	75.99	22.16	-38.8	-39.5	24.5	0.00e+00	0	43	0	1181745152	49	3860
2026-01-24 09:22:35.40	75.80	22.26	-38.8	-39.5	24.5	0.00e+00	0	43	0	1188036608	49	3857
2026-01-24 09:22:36.41	75.61	22.36	-38.7	-39.4	24.6	0.00e+00	0	43	0	1193279488	49	3816
2026-01-24 09:22:37.42	75.41	22.47	-38.9	-39.6	24.4	0.00e+00	0	43	0	1199570944	49	3894
2026-01-24 09:22:38.43	75.22	22.57	-38.6	-39.3	24.7	0.00e+00	0	43	0	1204813824	49	3762
2026-01-24 09:22:39.44	75.02	22.67	-38.6	-39.3	24.6	0.00e+00	0	43	0	1210056704	49	3778
2026-01-24 09:22:40.44	74.83	22.78	-38.5	-39.3	24.7	0.00e+00	0	43	0	1216348160	49	3742
2026-01-24 09:22:41.45	74.63	22.88	-38.6	-39.3	24.7	0.00e+00	0	43	0	1222639616	49	3766
2026-01-24 09:22:42.46	74.43	22.98	-38.6	-39.3	24.9	0.00e+00	0	43	0	1227882496	49	3757
2026-01-24 09:22:43.47	74.23	23.09	-38.6	-39.3	24.9	0.00e+00	0	43	0	1233125376	48	3982
2026-01-24 09:22:44.48	74.03	23.19	-38.5	-39.2	24.9	0.00e+00	0	43	0	1239416832	48	3922
2026-01-24 09:22:45.48	73.83	23.29	-38.5	-39.2	24.8	0.00e+00	0	43	0	1244659712	48	3944
2026-01-24 09:22:46.49	73.62	23.39	-38.5	-39.2	24.8	0.00e+00	0	43	0	1249902592	48	3954
2026-01-24 09:22:47.50	73.42	23.50	-38.7	-39.5	24.6	0.00e+00	0	43	0	1256194048	48	4059
2026-01-24 09:22:48.50	73.21	23.60	-38.6	-39.3	24.8	0.00e+00	0	43	0	1261436928	48	3986
2026-01-24 09:22:49.51	73.00	23.70	-38.7	-39.4	24.7	0.00e+00	0	43	0	1266679808	48	4031
2026-01-24 09:22:50.52	72.79	23.81	-38.8	-39.5	24.6	0.00e+00	0	43	0	1272971264	48	4061
2026-01-24 09:22:51.53	72.58	23.91	-38.7	-39.4	24.6	0.00e+00	0	43	0	1278214144	48	4051
2026-01-24 09:22:52.54	72.37	24.01	-38.7	-39.4	24.7	0.00e+00	0	43	0	1284505600	48	4039
2026-01-24 09:22:53.55	72.15	24.12	-38.8	-39.5	24.5	0.00e+00	0	43	0	1289748480	48	4076
2026-01-24 09:22:54.56	71.94	24.22	-38.6	-39.3	24.8	0.00e+00	0	43	0	1296039936	48	3982
2026-01-24 09:22:55.57	71.72	24.32	-38.5	-39.2	24.8	0.00e+00	0	43	0	1301282816	48	3936
2026-01-24 09:22:56.57	71.50	24.43	-38.6	-39.3	24.7	0.00e+00	0	43	0	1307574272	48	3990
2026-01-24 09:22:57.58	71.28	24.53	-38.4	-39.1	24.9	0.00e+00	0	43	0	1312817152	48	3904
2026-01-24 09:22:58.59	71.06	24.63	-38.3	-39.0	25.0	0.00e+00	0	43	0	1318060032	48	3861
2026-01-24 09:22:59.60	70.84	24.73	-38.4	-39.1	24.9	0.00e+00	0	43	0	1324351488	48	3893
2026-01-24 09:23:00.60	70.61	24.84	-38.2	-38.9	25.1	0.00e+00	0	43	0	1329594368	48	3820
2026-01-24 09:23:01.61	70.39	24.94	-38.2	-38.9	25.1	0.00e+00	0	43	0	1334837248	48	3811
2026-01-24 09:23:02.62	70.16	25.04	-38.1	-38.8	25.2	0.00e+00	0	43	0	1341128704	48	3759
2026-01-24 09:23:03.63	69.93	25.14	-38.1	-38.8	25.2	0.00e+00	0	43	0	1346371584	48	3768
2026-01-24 09:23:04.63	69.70	25.25	-38.2	-38.9	25.1	0.00e+00	0	43	0	1351614464	48	3787
2026-01-24 09:23:05.64	69.47	25.35	-38.1	-38.8	25.2	0.00e+00	0	43	0	1357905920	48	3747
2026-01-24 09:23:06.65	69.24	25.45	-38.1	-38.8	25.2	0.00e+00	0	43	0	1364197376	48	3772
2026-01-24 09:23:07.66	69.00	25.55	-38.0	-38.7	25.2	0.00e+00	0	43	0	1369440256	48	3734
2026-01-24 09:23:08.66	68.77	25.65	-38.0	-38.7	25.3	0.00e+00	0	43	0	1374683136	48	3705
2026-01-24 09:23:09.67	68.53	25.76	-38.1	-38.8	25.2	0.00e+00	0	43	0	1380974592	48	3764
2026-01-24 09:23:10.68	68.29	25.86	-38.1	-38.8	25.2	0.00e+00	0	43	0	1386217472	48	3766
2026-01-24 09:23:11.69	68.05	25.96	-38.1	-38.8	25.2	0.00e+00	0	43	0	1392508928	48	3776
2026-01-24 09:23:12.70	67.80	26.06	-37.6	-38.3	25.2	0.00e+00	0	43	0	1397751808	47	3765
2026-01-24 09:23:13.70	67.56	26.16	-37.7	-38.4	25.1	0.00e+00	0	43	0	1402994688	47	3814
2026-01-24 09:23:14.71	67.32	26.26	-37.7	-38.4	25.1	0.00e+00	0	43	0	1409286144	47	3787
2026-01-24 09:23:15.72	67.07	26.36	-37.7	-38.4	25.1	0.00e+00	0	43	0	1414529024	47	3818
2026-01-24 09:23:16.73	66.82	26.46	-37.6	-38.3	25.2	0.00e+00	0	43	0	1419771904	47	3750
2026-01-24 09:23:17.73	66.57	26.56	-37.8	-38.5	25.0	0.00e+00	0	43	0	1426063360	47	3836
2026-01-24 09:23:18.74	66.32	26.66	-37.9	-38.6	24.9	0.00e+00	0	43	0	1431306240	47	3898
2026-01-24 09:23:19.75	66.06	26.76	-37.8	-38.6	25.0	0.00e+00	0	43	0	1437597696	47	3872
2026-01-24 09:23:20.76	65.81	26.86	-37.9	-38.6	24.9	0.00e+00	0	43	0	1442840576	47	3904
2026-01-24 09:23:21.77	65.55	26.96	-37.8	-38.5	25.0	0.00e+00	0	43	0	1449132032	47	3867
2026-01-24 09:23:22.77	65.29	27.06	-37.7	-38.4	25.1	0.00e+00	0	43	0	1454374912	47	3805
2026-01-24 09:23:23.78	65.03	27.16	-37.8	-38.5	25.0	0.00e+00	0	43	0	1459617792	47	3852
2026-01-24 09:23:24.79	64.77	27.26	-37.5	-38.2	25.3	0.00e+00	0	43	0	1465909248	47	3713
2026-01-24 09:23:25.80	64.51	27.35	-37.4	-38.1	25.4	0.00e+00	0	43	0	1471152128	46	3893
2026-01-24 09:23:26.81	64.24	27.45	-37.5	-38.2	25.3	0.00e+00	0	43	0	1477443584	46	3931
2026-01-24 09:23:27.82	63.97	27.55	-37.6	-38.3	25.2	0.00e+00	0	43	0	1482686464	46	3991
2026-01-24 09:23:28.83	63.71	27.65	-37.6	-38.4	25.2	0.00e+00	0	43	0	1487929344	46	4005
2026-01-24 09:23:29.83	63.44	27.74	-37.8	-38.5	25.0	0.00e+00	0	43	0	1494220800	46	4084
2026-01-24 09:23:30.84	63.17	27.84	-37.6	-38.4	25.1	0.00e+00	0	43	0	1499463680	46	4005
2026-01-24 09:23:31.85	62.89	27.93	-37.5	-38.2	25.3	0.00e+00	0	43	0	1505755136	46	3937
2026-01-24 09:23:32.86	62.62	28.03	-37.6	-38.3	25.2	0.00e+00	0	43	0	1510998016	46	4002
2026-01-24 09:23:33.86	62.34	28.12	-37.7	-38.4	25.1	0.00e+00	0	43	0	1517289472	46	4049
2026-01-24 09:23:34.87	62.06	28.22	-37.7	-38.4	25.1	0.00e+00	0	43	0	1522532352	46	4026
2026-01-24 09:23:35.88	61.78	28.31	-37.6	-38.4	25.2	0.00e+00	0	43	0	1527775232	46	4008
2026-01-24 09:23:36.89	61.50	28.41	-37.7	-38.5	25.1	0.00e+00	0	43	0	1534066688	46	4052
2026-01-24 09:23:37.90	61.22	28.50	-37.3	-38.0	25.5	0.00e+00	0	43	0	1539309568	46	3840
2026-01-24 09:23:38.91	60.93	28.59	-37.2	-37.9	25.6	0.00e+00	0	43	0	1544552448	46	3783
2026-01-24 09:23:39.92	60.65	28.69	-37.3	-37.9	25.5	0.00e+00	0	43	0	1550843904	46	3822
2026-01-24 09:23:40.93	60.36	28.78	-37.3	-38.0	25.5	0.00e+00	0	43	0	1556086784	46	3863
2026-01-24 09:23:41.93	60.07	28.87	-37.4	-38.1	25.4	0.00e+00	0	43	0	1562378240	46	3897
2026-01-24 09:23:42.94	59.78	28.96	-37.5	-38.2	25.3	0.00e+00	0	43	0	1567621120	46	3938
2026-01-24 09:23:43.95	59.48	29.05	-37.5	-38.2	25.3	0.00e+00	0	43	0	1573912576	46	3923
2026-01-24 09:23:44.96	59.19	29.14	-37.5	-38.2	25.3	0.00e+00	0	43	0	1579155456	46	3940
2026-01-24 09:23:45.97	58.89	29.23	-37.6	-38.3	25.2	0.00e+00	0	43	0	1585446912	46	3984
2026-01-24 09:23:46.98	58.59	29.32	-37.6	-38.4	25.1	0.00e+00	0	43	0	1590689792	46	4014
2026-01-24 09:23:47.98	58.30	29.40	-37.5	-38.3	25.3	0.00e+00	0	43	0	1595932672	46	3960
2026-01-24 09:23:48.99	57.99	29.49	-37.4	-38.1	25.4	0.00e+00	0	43	0	1602224128	46	3906
2026-01-24 09:23:50.00	57.69	29.58	-37.4	-38.1	25.4	0.00e+00	0	43	0	1607467008	46	3902
2026-01-24 09:23:51.01	57.39	29.66	-37.4	-38.1	25.4	0.00e+00	0	43	0	1612709888	46	3884
2026-01-24 09:23:52.02	57.08	29.75	-37.3	-38.0	25.4	0.00e+00	0	43	0	1619001344	46	3861
2026-01-24 09:23:53.03	56.77	29.83	-37.3	-38.0	25.5	0.00e+00	0	43	0	1624244224	46	3851
2026-01-24 09:23:54.04	56.46	29.92	-37.4	-38.1	25.4	0.00e+00	0	43	0	1630535680	46	3876
2026-01-24 09:23:55.05	56.15	30.00	-37.4	-38.1	25.4	0.00e+00	0	43	0	1635778560	46	3895
2026-01-24 09:23:56.05	55.84	30.08	-37.4	-38.1	25.4	0.00e+00	0	43	0	1642070016	46	3886
2026-01-24 09:23:57.06	55.52	30.16	-37.5	-38.2	25.3	0.00e+00	0	43	0	1647312896	46	3954
2026-01-24 09:23:58.07	55.21	30.24	-37.5	-38.2	25.4	0.00e+00	0	43	0	1652555776	46	3922
2026-01-24 09:23:59.08	54.89	30.32	-37.4	-38.1	25.5	0.00e+00	0	43	0	1658847232	46	3879
2026-01-24 09:24:00.09	54.57	30.40	-37.3	-38.0	25.5	0.00e+00	0	43	0	1664090112	46	3850
2026-01-24 09:24:01.10	54.25	30.48	-37.4	-38.1	25.4	0.00e+00	0	43	0	1670381568	46	3890
2026-01-24 09:24:02.11	53.93	30.56	-37.2	-37.9	25.6	0.00e+00	0	43	0	1675624448	46	3784
2026-01-24 09:24:03.11	53.60	30.64	-37.0	-37.7	25.8	0.00e+00	0	43	0	1680867328	46	3722
2026-01-24 09:24:04.12	53.28	30.71	-36.9	-37.6	25.8	0.00e+00	0	43	0	1687158784	45	3901
2026-01-24 09:24:05.13	52.95	30.79	-36.8	-37.5	25.9	0.00e+00	0	43	0	1692401664	45	3845
2026-01-24 09:24:06.14	52.62	30.86	-36.9	-37.5	25.9	0.00e+00	0	43	0	1697644544	45	3865
2026-01-24 09:24:07.15	52.29	30.94	-37.1	-37.8	25.7	0.00e+00	0	43	0	1703936000	45	3977
2026-01-24 09:24:08.16	51.96	31.01	-37.1	-37.8	25.7	0.00e+00	0	43	0	1710227456	45	3984
2026-01-24 09:24:09.17	51.63	31.08	-37.2	-37.9	25.6	0.00e+00	0	43	0	1715470336	45	4015
2026-01-24 09:24:10.18	51.29	31.15	-37.1	-37.8	25.7	0.00e+00	0	43	0	1720713216	45	3980
2026-01-24 09:24:11.19	50.95	31.22	-37.0	-37.7	25.8	0.00e+00	0	43	0	1727004672	45	3949
2026-01-24 09:24:12.20	50.62	31.29	-36.8	-37.5	26.0	0.00e+00	0	43	0	1732247552	45	3831
2026-01-24 09:24:13.21	50.28	31.36	-36.7	-37.4	26.1	0.00e+00	0	43	0	1737490432	45	3784
2026-01-24 09:24:14.21	49.94	31.43	-36.6	-37.3	26.1	0.00e+00	0	43	0	1743781888	45	3745
2026-01-24 09:24:15.22	49.60	31.49	-36.7	-37.4	26.1	0.00e+00	0	43	0	1749024768	45	3815
2026-01-24 09:24:16.23	49.25	31.56	-36.9	-37.5	25.9	0.00e+00	0	43	0	1755316224	45	3868
2026-01-24 09:24:17.24	48.91	31.62	-37.0	-37.7	25.8	0.00e+00	0	43	0	1760559104	45	3940
2026-01-24 09:24:18.25	48.56	31.68	-36.8	-37.5	26.0	0.00e+00	0	43	0	1765801984	45	3864
2026-01-24 09:24:19.25	48.22	31.75	-36.8	-37.5	26.0	0.00e+00	0	43	0	1772093440	45	3852
2026-01-24 09:24:20.26	47.87	31.81	-36.9	-37.5	25.9	0.00e+00	0	43	0	1778384896	45	3863
2026-01-24 09:24:21.27	47.52	31.87	-36.8	-37.5	26.0	0.00e+00	0	43	0	1783627776	45	3856
2026-01-24 09:24:22.28	47.17	31.93	-36.8	-37.5	26.0	0.00e+00	0	43	0	1788870656	45	3854
2026-01-24 09:24:23.29	46.82	31.98	-36.9	-37.6	25.9	0.00e+00	0	43	0	1795162112	45	3886
2026-01-24 09:24:24.29	46.47	32.04	-36.8	-37.5	26.0	0.00e+00	0	43	0	1800404992	45	3839
2026-01-24 09:24:25.30	46.11	32.09	-36.8	-37.5	26.0	0.00e+00	0	43	0	1805647872	45	3826
2026-01-24 09:24:26.31	45.75	32.15	-36.5	-37.2	26.2	0.00e+00	0	43	0	1811939328	45	3708
2026-01-24 09:24:27.32	45.40	32.20	-36.5	-37.2	26.2	0.00e+00	0	43	0	1817182208	45	3718
2026-01-24 09:24:28.32	45.04	32.25	-36.5	-37.2	26.2	0.00e+00	0	43	0	1823473664	45	3720
2026-01-24 09:24:29.33	44.68	32.30	-36.8	-37.5	26.0	0.00e+00	0	43	0	1828716544	45	3833
2026-01-24 09:24:30.34	44.32	32.35	-36.9	-37.6	25.9	0.00e+00	0	43	0	1833959424	45	3869
2026-01-24 09:24:31.35	43.96	32.40	-36.8	-37.5	25.9	0.00e+00	0	43	0	1840250880	45	3846
2026-01-24 09:24:32.36	43.59	32.45	-36.8	-37.5	25.9	0.00e+00	0	43	0	1845493760	45	3843
2026-01-24 09:24:33.37	43.23	32.49	-36.9	-37.5	25.9	0.00e+00	0	43	0	1851785216	45	3867
2026-01-24 09:24:34.38	42.87	32.54	-36.7	-37.4	26.0	0.00e+00	0	43	0	1857028096	45	3816
2026-01-24 09:24:35.38	42.50	32.58	-36.6	-37.3	26.1	0.00e+00	0	43	0	1863319552	45	3759
2026-01-24 09:24:36.39	42.14	32.62	-36.6	-37.3	26.1	0.00e+00	0	43	0	1868562432	45	3764
2026-01-24 09:24:37.40	41.77	32.66	-36.5	-37.2	26.2	0.00e+00	0	43	0	1873805312	45	3721
2026-01-24 09:24:38.40	41.40	32.70	-36.5	-37.2	26.2	0.00e+00	0	43	0	1880096768	45	3700
2026-01-24 09:24:39.41	41.03	32.74	-36.6	-37.3	26.1	0.00e+00	0	43	0	1885339648	45	3738
2026-01-24 09:24:40.42	40.66	32.78	-36.7	-37.3	26.1	0.00e+00	0	43	0	1890582528	45	3779
2026-01-24 09:24:41.43	40.29	32.81	-36.6	-37.3	26.1	0.00e+00	0	43	0	1896873984	45	3759
2026-01-24 09:24:42.44	39.92	32.85	-36.8	-37.5	26.0	0.00e+00	0	43	0	1902116864	45	3835
2026-01-24 09:24:43.45	39.54	32.88	-36.9	-37.6	25.9	0.00e+00	0	43	0	1908408320	45	3871
2026-01-24 09:24:44.45	39.17	32.91	-36.7	-37.4	26.0	0.00e+00	0	43	0	1913651200	45	3809
2026-01-24 09:24:45.46	38.80	32.94	-36.7	-37.4	26.0	0.00e+00	0	43	0	1919942656	45	3818
2026-01-24 09:24:46.47	38.42	32.97	-36.7	-37.4	26.0	0.00e+00	0	43	0	1925185536	45	3816
2026-01-24 09:24:47.47	38.05	33.00	-36.7	-37.4	26.1	0.00e+00	0	43	0	1930428416	45	3790
2026-01-24 09:24:48.48	37.68	33.02	-36.7	-37.4	26.1	0.00e+00	0	43	0	1936719872	45	3792
2026-01-24 09:24:49.49	37.30	33.05	-36.5	-37.2	26.2	0.00e+00	0	43	0	1941962752	45	3704
2026-01-24 09:24:50.50	36.92	33.07	-36.7	-37.4	26.1	0.00e+00	0	43	0	1948254208	45	3790
2026-01-24 09:24:51.51	36.54	33.09	-36.8	-37.5	25.9	0.00e+00	0	43	0	1953497088	45	3859
2026-01-24 09:24:52.51	36.17	33.11	-36.9	-37.5	25.9	0.00e+00	0	43	0	1958739968	45	3868
2026-01-24 09:24:53.52	35.79	33.13	-36.6	-37.3	26.1	0.00e+00	0	43	0	1965031424	45	3773
2026-01-24 09:24:54.53	35.41	33.15	-36.6	-37.2	26.2	0.00e+00	0	43	0	1970274304	45	3724
2026-01-24 09:24:55.54	35.03	33.17	-36.5	-37.2	26.2	0.00e+00	0	43	0	1975517184	45	3725
2026-01-24 09:24:56.55	34.65	33.18	-36.6	-37.3	26.1	0.00e+00	0	43	0	1981808640	44	3975
2026-01-24 09:24:57.56	34.27	33.19	-36.6	-37.3	26.1	0.00e+00	0	43	0	1988100096	44	3978
2026-01-24 09:24:58.56	33.89	33.21	-36.6	-37.3	26.1	0.00e+00	0	43	0	1993342976	44	3992
2026-01-24 09:24:59.57	33.51	33.22	-36.7	-37.4	26.0	0.00e+00	0	43	0	1998585856	44	4030
2026-01-24 09:25:00.58	33.13	33.23	-36.7	-37.4	26.1	0.00e+00	0	43	0	2004877312	44	4019
2026-01-24 09:25:01.59	32.75	33.23	-36.6	-37.3	26.1	0.00e+00	0	43	0	2010120192	44	3990
2026-01-24 09:25:02.60	32.36	33.24	-36.5	-37.2	26.2	0.00e+00	0	43	0	2016411648	44	3934
2026-01-24 09:25:03.61	31.98	33.24	-36.4	-37.0	26.4	0.00e+00	0	43	0	2021654528	44	3862
2026-01-24 09:25:04.61	31.60	33.25	-36.4	-37.0	26.3	0.00e+00	0	43	0	2026897408	44	3868
2026-01-24 09:25:05.62	31.22	33.25	-36.4	-37.1	26.3	0.00e+00	0	43	0	2033188864	44	3912
2026-01-24 09:25:06.63	30.84	33.25	-36.3	-37.0	26.4	0.00e+00	0	43	0	2038431744	44	3841
2026-01-24 09:25:07.64	30.46	33.25	-36.3	-37.0	26.4	0.00e+00	0	43	0	2043674624	44	3843
2026-01-24 09:25:08.65	30.08	33.25	-36.4	-37.1	26.3	0.00e+00	0	43	0	2049966080	44	3891
2026-01-24 09:25:09.65	29.70	33.24	-36.6	-37.3	26.2	0.00e+00	0	43	0	2056257536	44	3992
2026-01-24 09:25:10.66	29.32	33.24	-36.6	-37.3	26.2	0.00e+00	0	43	0	2061500416	44	3968
2026-01-24 09:25:11.67	28.93	33.23	-36.7	-37.4	26.0	0.00e+00	0	43	0	2066743296	44	4030
2026-01-24 09:25:12.68	28.55	33.22	-36.7	-37.3	26.1	0.00e+00	0	43	0	2073034752	44	3999
2026-01-24 09:25:13.69	28.17	33.21	-36.8	-37.4	26.0	0.00e+00	0	43	0	2078277632	44	4049
2026-01-24 09:25:14.69	27.79	33.20	-36.9	-37.6	25.9	0.00e+00	0	43	0	2083520512	44	4113
2026-01-24 09:25:15.70	27.41	33.19	-36.8	-37.5	26.0	0.00e+00	0	43	0	2089811968	44	4073
2026-01-24 09:25:16.72	27.03	33.18	-36.7	-37.4	26.0	0.00e+00	0	43	0	2095054848	44	4039
2026-01-24 09:25:17.73	26.65	33.16	-36.7	-37.4	26.0	0.00e+00	0	43	0	2101346304	44	4033
2026-01-24 09:25:18.74	26.27	33.14	-36.7	-37.4	26.0	0.00e+00	0	43	0	2106589184	44	4037
2026-01-24 09:25:19.75	25.89	33.12	-36.8	-37.5	26.0	0.00e+00	0	43	0	2111832064	44	4075
2026-01-24 09:25:20.75	25.51	33.11	-36.8	-37.5	26.0	0.00e+00	0	43	0	2118123520	44	4056
2026-01-24 09:25:21.76	25.14	33.08	-36.9	-37.6	26.0	0.00e+00	0	43	0	2123366400	44	4105
2026-01-24 09:25:22.77	24.76	33.06	-36.7	-37.3	26.1	0.00e+00	0	43	0	2129657856	44	3996
2026-01-24 09:25:23.78	24.38	33.04	-36.7	-37.3	26.1	0.00e+00	0	43	0	2134900736	44	4000
2026-01-24 09:25:24.79	24.00	33.01	-36.5	-37.2	26.2	0.00e+00	0	43	0	2141192192	44	3917
2026-01-24 09:25:25.79	23.63	32.99	-36.4	-37.1	26.3	0.00e+00	0	43	0	2146435072	44	3882
2026-01-24 09:25:26.80	23.26	32.96	-36.6	-37.3	26.2	0.00e+00	0	43	0	2151677952	44	3959
2026-01-24 09:25:27.81	22.88	32.93	-36.5	-37.2	26.3	0.00e+00	0	43	0	2157969408	44	3930
2026-01-24 09:25:28.82	22.51	32.90	-36.5	-37.1	26.3	0.00e+00	0	43	0	2163212288	44	3909
2026-01-24 09:25:29.83	22.13	32.87	-36.5	-37.2	26.3	0.00e+00	0	43	0	2168455168	44	3921
2026-01-24 09:25:30.84	21.76	32.83	-36.5	-37.1	26.3	0.00e+00	0	43	0	2174746624	44	3901
2026-01-24 09:25:31.85	21.39	32.80	-36.6	-37.3	26.1	0.00e+00	0	43	0	2179989504	44	3981
2026-01-24 09:25:32.85	21.02	32.76	-36.7	-37.4	26.1	0.00e+00	0	43	0	2186280960	44	4028
2026-01-24 09:25:33.86	20.65	32.72	-36.8	-37.5	26.0	0.00e+00	0	43	0	2191523840	44	4057
2026-01-24 09:25:34.87	20.28	32.69	-36.8	-37.5	26.0	0.00e+00	0	43	0	2197815296	44	4060
2026-01-24 09:25:35.88	19.91	32.65	-36.7	-37.4	26.1	0.00e+00	0	43	0	2203058176	44	4012
2026-01-24 09:25:36.89	19.55	32.60	-36.8	-37.5	26.0	0.00e+00	0	43	0	2209349632	44	4087
2026-01-24 09:25:37.90	19.18	32.56	-36.8	-37.5	26.0	0.00e+00	0	43	0	2214592512	44	4087
2026-01-24 09:25:38.91	18.81	32.52	-36.9	-37.5	25.9	0.00e+00	0	43	0	2219835392	44	4096
2026-01-24 09:25:39.91	18.45	32.47	-36.7	-37.4	26.0	0.00e+00	0	43	0	2226126848	44	4031
2026-01-24 09:25:40.92	18.09	32.43	-36.5	-37.2	26.2	0.00e+00	0	43	0	2231369728	44	3941
2026-01-24 09:25:41.93	17.73	32.38	-36.6	-37.3	26.2	0.00e+00	0	43	0	2236612608	44	3971
2026-01-24 09:25:42.94	17.37	32.33	-36.5	-37.2	26.2	0.00e+00	0	43	0	2242904064	44	3947
2026-01-24 09:25:43.95	17.01	32.28	-36.6	-37.3	26.1	0.00e+00	0	43	0	2248146944	44	3997
2026-01-24 09:25:44.96	16.65	32.23	-36.7	-37.4	26.1	0.00e+00	0	43	0	2254438400	44	4019
2026-01-24 09:25:45.96	16.29	32.18	-36.7	-37.4	26.1	0.00e+00	0	43	0	2259681280	44	4032
2026-01-24 09:25:46.97	15.94	32.13	-36.7	-37.4	26.1	0.00e+00	0	43	0	2265972736	44	4016
2026-01-24 09:25:47.98	15.58	32.07	-36.6	-37.3	26.2	0.00e+00	0	43	0	2271215616	44	3978
2026-01-24 09:25:48.99	15.23	32.01	-36.6	-37.3	26.2	0.00e+00	0	43	0	2276458496	44	3977
2026-01-24 09:25:49.99	14.88	31.96	-36.6	-37.3	26.2	0.00e+00	0	43	0	2282749952	44	3961
2026-01-24 09:25:51.00	14.52	31.90	-36.6	-37.2	26.2	0.00e+00	0	43	0	2287992832	44	3950
2026-01-24 09:25:52.01	14.17	31.84	-36.6	-37.2	26.2	0.00e+00	0	43	0	2294284288	44	3950
2026-01-24 09:25:53.02	13.82	31.78	-36.6	-37.3	26.1	0.00e+00	0	43	0	2299527168	44	3988
2026-01-24 09:25:54.03	13.48	31.72	-36.8	-37.5	26.0	0.00e+00	0	43	0	2304770048	44	4060
2026-01-24 09:25:55.04	13.13	31.66	-36.8	-37.6	25.9	0.00e+00	0	43	0	2311061504	44	4099
2026-01-24 09:25:56.05	12.78	31.59	-36.8	-37.5	26.1	0.00e+00	0	43	0	2316304384	44	4070
2026-01-24 09:25:57.05	12.44	31.53	-36.8	-37.4	26.1	0.00e+00	0	43	0	2322595840	44	4042
2026-01-24 09:25:58.06	12.10	31.46	-36.7	-37.3	26.1	0.00e+00	0	43	0	2327838720	44	3998
2026-01-24 09:25:59.07	11.76	31.40	-36.7	-37.4	26.1	0.00e+00	0	43	0	2334130176	44	4026
2026-01-24 09:26:00.08	11.42	31.33	-36.7	-37.4	26.1	0.00e+00	0	43	0	2339373056	44	4036
2026-01-24 09:26:01.09	11.08	31.26	-36.7	-37.4	26.0	0.00e+00	0	43	0	2344615936	44	4030
2026-01-24 09:26:02.09	10.75	31.19	-36.7	-37.4	26.0	0.00e+00	0	43	0	2350907392	44	4034
2026-01-24 09:26:03.10	10.41	31.12	-36.7	-37.4	26.0	0.00e+00	0	43	0	2356150272	44	4024
2026-01-24 09:26:04.11	10.08	31.05	-36.8	-37.5	26.0	0.00e+00	0	43	0	2361393152	44	4077
2026-01-24 09:26:05.12	9.75	30.98	-36.8	-37.5	26.0	0.00e+00	0	43	0	2367684608	44	4068
2026-01-24 09:26:06.13	9.42	30.91	-36.8	-37.4	26.1	0.00e+00	0	43	0	2372927488	44	4049
2026-01-24 09:26:07.14	9.09	30.83	-36.8	-37.5	26.0	0.00e+00	0	43	0	2379218944	44	4066
2026-01-24 09:26:08.14	8.76	30.76	-36.8	-37.5	26.0	0.00e+00	0	43	0	2384461824	44	4062
2026-01-24 09:26:09.15	8.44	30.68	-36.9	-37.6	26.0	0.00e+00	0	43	0	2390753280	44	4100
2026-01-24 09:26:10.16	8.11	30.61	-36.8	-37.5	25.9	0.00e+00	0	43	0	2395996160	44	4085
2026-01-24 09:26:11.17	7.79	30.53	-37.0	-37.7	25.8	0.00e+00	0	43	0	2402287616	44	4150
2026-01-24 09:26:12.18	7.47	30.45	-37.1	-37.9	25.7	0.00e+00	0	43	0	2407530496	44	4243
2026-01-24 09:26:13.19	7.15	30.37	-37.3	-38.0	25.5	0.00e+00	0	43	0	2412773376	45	4095
2026-01-24 09:26:14.19	6.83	30.29	-37.3	-38.0	25.5	0.00e+00	0	43	0	2419064832	45	4057
2026-01-24 09:26:15.20	6.51	30.21	-37.0	-37.7	25.8	0.00e+00	0	43	0	2424307712	45	3933
2026-01-24 09:26:16.21	6.20	30.13	-36.9	-37.6	25.9	0.00e+00	0	43	0	2429550592	45	3901
2026-01-24 09:26:17.22	5.88	30.05	-36.9	-37.6	25.9	0.00e+00	0	43	0	2435842048	45	3874
2026-01-24 09:26:18.23	5.57	29.97	-36.8	-37.5	26.0	0.00e+00	0	43	0	2441084928	45	3841
2026-01-24 09:26:19.23	5.26	29.88	-36.9	-37.6	25.9	0.00e+00	0	43	0	2446327808	45	3880
2026-01-24 09:26:20.24	4.96	29.80	-36.8	-37.5	25.9	0.00e+00	0	43	0	2452619264	45	3850
2026-01-24 09:26:21.25	4.65	29.71	-36.8	-37.4	26.0	0.00e+00	0	43	0	2458910720	45	3824
2026-01-24 09:26:22.26	4.34	29.63	-36.8	-37.5	25.9	0.00e+00	0	43	0	2464153600	45	3854
2026-01-24 09:26:23.27	4.04	29.54	-36.8	-37.5	25.9	0.00e+00	0	43	0	2469396480	45	3834
2026-01-24 09:26:24.28	3.74	29.46	-36.8	-37.5	25.9	0.00e+00	0	43	0	2475687936	45	3854
2026-01-24 09:26:25.28	3.44	29.37	-37.0	-37.7	25.8	0.00e+00	0	43	0	2480930816	45	3930
2026-01-24 09:26:26.29	3.14	29.28	-37.2	-37.9	25.7	0.00e+00	0	43	0	2487222272	45	4007
2026-01-24 09:26:27.30	2.84	29.19	-37.1	-37.9	25.6	0.00e+00	0	43	0	2492465152	45	4007
2026-01-24 09:26:28.31	2.55	29.10	-37.2	-37.9	25.6	0.00e+00	0	43	0	2497708032	45	4018
2026-01-24 09:26:29.31	2.26	29.02	-37.1	-37.8	25.6	0.00e+00	0	43	0	2503999488	45	3998
2026-01-24 09:26:30.32	1.96	28.92	-37.1	-37.8	25.7	0.00e+00	0	43	0	2509242368	45	3975
2026-01-24 09:26:31.33	1.67	28.83	-37.2	-37.9	25.6	0.00e+00	0	43	0	2514485248	45	4013
2026-01-24 09:26:32.34	1.38	28.74	-37.1	-37.8	25.6	0.00e+00	0	43	0	2520776704	45	3997
2026-01-24 09:26:33.35	1.10	28.65	-36.9	-37.5	25.9	0.00e+00	0	43	0	2526019584	45	3868
2026-01-24 09:26:34.36	0.81	28.56	-36.8	-37.5	25.9	0.00e+00	0	43	0	2532311040	45	3851
2026-01-24 09:26:35.36	0.53	28.47	-36.9	-37.6	25.9	0.00e+00	0	43	0	2537553920	45	3877
2026-01-24 09:26:36.37	0.25	28.37	-36.9	-37.6	25.9	0.00e+00	0	43	0	2543845376	45	3885
2026-01-24 09:26:37.38	359.97	28.28	-37.0	-37.7	25.7	0.00e+00	0	43	0	2549088256	45	3953
2026-01-24 09:26:38.39	359.69	28.18	-37.0	-37.7	25.7	0.00e+00	0	43	0	2554331136	45	3929
2026-01-24 09:26:39.40	359.41	28.09	-37.0	-37.7	25.8	0.00e+00	0	43	0	2560622592	45	3937
2026-01-24 09:26:40.40	359.14	28.00	-37.0	-37.7	25.7	0.00e+00	0	43	0	2565865472	45	3947
2026-01-24 09:26:41.41	358.86	27.90	-37.1	-37.8	25.7	0.00e+00	0	43	0	2572156928	45	3981
2026-01-24 09:26:42.42	358.59	27.80	-37.0	-37.6	25.8	0.00e+00	0	43	0	2577399808	45	3909
2026-01-24 09:26:43.43	358.32	27.71	-37.0	-37.7	25.7	0.00e+00	0	43	0	2582642688	45	3930
2026-01-24 09:26:44.43	358.05	27.61	-37.2	-37.9	25.6	0.00e+00	0	43	0	2588934144	45	4017
2026-01-24 09:26:45.44	357.78	27.52	-37.2	-37.9	25.6	0.00e+00	0	43	0	2594177024	45	4031
2026-01-24 09:26:46.45	357.52	27.42	-37.3	-38.1	25.4	0.00e+00	0	43	0	2599419904	45	4101
2026-01-24 09:26:47.45	357.26	27.32	-37.3	-38.0	25.5	0.00e+00	0	43	0	2605711360	45	4056
2026-01-24 09:26:48.46	356.99	27.22	-37.3	-38.0	25.4	0.00e+00	0	44	0	2612002816	45	4078
2026-01-24 09:26:49.47	356.73	27.13	-37.3	-38.0	25.5	0.00e+00	0	43	0	2617245696	45	4069
2026-01-24 09:26:50.48	356.47	27.03	-37.3	-38.0	25.4	0.00e+00	0	43	0	2622488576	45	4052
2026-01-24 09:26:51.49	356.21	26.93	-37.3	-38.0	25.4	0.00e+00	0	43	0	2628780032	45	4093
2026-01-24 09:26:52.50	355.96	26.83	-37.3	-38.0	25.4	0.00e+00	0	43	0	2634022912	45	4086
2026-01-24 09:26:53.51	355.70	26.73	-37.1	-37.8	25.6	0.00e+00	0	43	0	2639265792	45	4004
2026-01-24 09:26:54.51	355.45	26.63	-37.2	-37.8	25.6	0.00e+00	0	43	0	2645557248	45	4004
2026-01-24 09:26:55.52	355.20	26.53	-37.1	-37.8	25.6	0.00e+00	0	44	0	2650800128	45	3988
2026-01-24 09:26:56.53	354.95	26.43	-37.1	-37.8	25.6	0.00e+00	0	43	0	2657091584	45	3968
2026-01-24 09:26:57.54	354.70	26.33	-37.3	-37.9	25.5	0.00e+00	0	44	0	2662334464	45	4048
2026-01-24 09:26:58.55	354.46	26.23	-37.4	-38.1	25.3	0.00e+00	0	43	0	2667577344	45	4127
2026-01-24 09:26:59.56	354.21	26.13	-37.5	-38.2	25.2	0.00e+00	0	43	0	2673868800	45	4187
2026-01-24 09:27:00.56	353.97	26.03	-37.7	-38.4	25.1	0.00e+00	0	43	0	2680160256	46	4030
2026-01-24 09:27:01.57	353.73	25.93	-37.7	-38.4	25.1	0.00e+00	0	43	0	2685403136	46	4045
2026-01-24 09:27:02.58	353.49	25.83	-37.6	-38.3	25.2	0.00e+00	0	43	0	2690646016	46	3998
2026-01-24 09:27:03.59	353.25	25.72	-37.6	-38.3	25.1	0.00e+00	0	43	0	2696937472	46	3990
2026-01-24 09:27:04.60	353.01	25.62	-37.7	-38.4	25.1	0.00e+00	0	43	0	2702180352	46	4046
2026-01-24 09:27:05.61	352.78	25.52	-37.8	-38.5	25.0	0.00e+00	0	44	0	2707423232	46	4095
2026-01-24 09:27:06.62	352.54	25.42	-37.6	-38.3	25.1	0.00e+00	0	43	0	2713714688	46	4003
2026-01-24 09:27:07.63	352.31	25.32	-37.5	-38.2	25.2	0.00e+00	0	43	0	2718957568	46	3949
2026-01-24 09:27:08.63	352.08	25.21	-37.5	-38.2	25.3	0.00e+00	0	43	0	2724200448	46	3935
2026-01-24 09:27:09.64	351.85	25.11	-37.6	-38.3	25.2	0.00e+00	0	43	0	2730491904	46	3997
2026-01-24 09:27:10.65	351.62	25.01	-37.7	-38.4	25.1	0.00e+00	0	43	0	2736783360	46	4015
2026-01-24 09:27:11.66	351.40	24.91	-37.8	-38.5	25.0	0.00e+00	0	44	0	2742026240	46	4064
2026-01-24 09:27:12.67	351.17	24.80	-37.9	-38.7	24.9	0.00e+00	0	43	0	2747269120	46	4152
2026-01-24 09:27:13.67	350.95	24.70	-38.1	-38.8	24.7	0.00e+00	0	44	0	2753560576	46	4234
2026-01-24 09:27:14.68	350.73	24.60	-38.1	-38.8	24.7	0.00e+00	0	44	0	2758803456	46	4226
2026-01-24 09:27:15.69	350.51	24.50	-37.7	-38.4	25.1	0.00e+00	0	43	0	2765094912	46	4035
2026-01-24 09:27:16.70	350.29	24.39	-37.6	-38.3	25.1	0.00e+00	0	44	0	2770337792	46	3995
2026-01-24 09:27:17.71	350.07	24.29	-37.6	-38.3	25.2	0.00e+00	0	44	0	2775580672	46	3975
2026-01-24 09:27:18.71	349.86	24.19	-37.7	-38.4	25.1	0.00e+00	0	43	0	2781872128	46	4023
2026-01-24 09:27:19.72	349.64	24.09	-37.7	-38.4	25.0	0.00e+00	0	44	0	2787115008	46	4050
2026-01-24 09:27:20.73	349.43	23.98	-37.6	-38.3	25.2	0.00e+00	0	43	0	2792357888	46	3978
2026-01-24 09:27:21.74	349.22	23.88	-37.7	-38.5	25.0	0.00e+00	0	43	0	2798649344	46	4059
2026-01-24 09:27:22.75	349.00	23.78	-37.8	-38.5	24.9	0.00e+00	0	43	0	2803892224	46	4081
2026-01-24 09:27:23.75	348.80	23.67	-37.8	-38.6	24.9	0.00e+00	0	44	0	2810183680	46	4101
2026-01-24 09:27:24.76	348.59	23.57	-37.8	-38.5	25.0	0.00e+00	0	43	0	2815426560	46	4079
2026-01-24 09:27:25.77	348.38	23.47	-37.9	-38.6	24.9	0.00e+00	0	43	0	2821718016	46	4119
2026-01-24 09:27:26.78	348.18	23.36	-37.8	-38.5	24.9	0.00e+00	0	43	0	2826960896	46	4079
2026-01-24 09:27:27.79	347.97	23.26	-37.8	-38.5	24.9	0.00e+00	0	44	0	2832203776	46	4093
2026-01-24 09:27:28.79	347.77	23.16	-37.8	-38.5	25.0	0.00e+00	0	43	0	2838495232	46	4071
2026-01-24 09:27:29.80	347.57	23.06	-37.8	-38.5	25.0	0.00e+00	0	43	0	2843738112	46	4073
2026-01-24 09:27:30.81	347.37	22.95	-37.8	-38.5	25.0	0.00e+00	0	43	0	2850029568	46	4075
2026-01-24 09:27:31.82	347.17	22.85	-37.9	-38.6	24.9	0.00e+00	0	44	0	2855272448	46	4113
2026-01-24 09:27:32.83	346.98	22.75	-37.8	-38.5	24.9	0.00e+00	0	43	0	2860515328	46	4093
2026-01-24 09:27:33.83	346.78	22.65	-37.9	-38.6	24.9	0.00e+00	0	43	0	2866806784	46	4143
2026-01-24 09:27:34.84	346.59	22.54	-38.0	-38.7	24.8	0.00e+00	0	43	0	2872049664	46	4165
2026-01-24 09:27:35.85	346.40	22.44	-38.0	-38.8	24.7	0.00e+00	0	43	0	2878341120	46	4207
2026-01-24 09:27:36.86	346.20	22.34	-38.0	-38.7	24.8	0.00e+00	0	43	0	2883584000	46	4174
2026-01-24 09:27:37.87	346.01	22.23	-37.9	-38.6	24.9	0.00e+00	0	43	0	2889875456	46	4113
2026-01-24 09:27:38.87	345.83	22.13	-37.9	-38.6	24.9	0.00e+00	0	44	0	2895118336	46	4102
2026-01-24 09:27:39.88	345.64	22.03	-38.1	-38.8	24.7	0.00e+00	0	44	0	2900361216	46	4215
2026-01-24 09:27:40.89	345.45	21.93	-37.8	-38.5	24.9	0.00e+00	0	43	0	2906652672	46	4090
2026-01-24 09:27:41.90	345.27	21.82	-37.8	-38.5	25.0	0.00e+00	0	43	0	2911895552	46	4061
2026-01-24 09:27:42.91	345.08	21.72	-37.9	-38.6	24.9	0.00e+00	0	43	0	2917138432	46	4116
2026-01-24 09:27:43.91	344.90	21.62	-37.8	-38.5	24.9	0.00e+00	0	44	0	2923429888	46	4074
2026-01-24 09:27:44.92	344.72	21.52	-37.9	-38.6	24.8	0.00e+00	0	43	0	2928672768	46	4124
2026-01-24 09:27:45.93	344.54	21.42	-37.9	-38.6	24.8	0.00e+00	0	43	0	2934964224	46	4116
2026-01-24 09:27:46.94	344.36	21.32	-37.9	-38.6	24.9	0.00e+00	0	43	0	2940207104	46	4124
2026-01-24 09:27:47.95	344.18	21.21	-37.9	-38.7	24.8	0.00e+00	0	43	0	2945449984	46	4148
2026-01-24 09:27:48.95	344.00	21.11	-37.8	-38.5	24.9	0.00e+00	0	43	0	2951741440	46	4068
2026-01-24 09:27:49.96	343.83	21.01	-37.8	-38.5	24.9	0.00e+00	0	43	0	2956984320	46	4085
2026-01-24 09:27:50.97	343.65	20.91	-37.9	-38.6	24.8	0.00e+00	0	43	0	2963275776	46	4127
2026-01-24 09:27:51.97	343.48	20.81	-38.0	-38.7	24.7	0.00e+00	0	44	0	2968518656	46	4164
2026-01-24 09:27:52.98	343.31	20.71	-37.9	-38.6	24.8	0.00e+00	0	44	0	2974810112	46	4137
2026-01-24 09:27:53.99	343.14	20.61	-37.9	-38.6	24.8	0.00e+00	0	44	0	2980052992	46	4127
2026-01-24 09:27:55.00	342.97	20.51	-37.9	-38.7	24.7	0.00e+00	0	44	0	2985295872	46	4151
2026-01-24 09:27:56.01	342.80	20.41	-38.0	-38.7	24.7	0.00e+00	0	43	0	2991587328	46	4184
2026-01-24 09:27:57.02	342.63	20.30	-38.0	-38.8	24.6	0.00e+00	0	44	0	2996830208	46	4200
2026-01-24 09:27:58.03	342.46	20.20	-38.1	-38.8	24.6	0.00e+00	0	44	0	3002073088	46	4213
2026-01-24 09:27:59.03	342.30	20.11	-38.2	-38.9	24.5	0.00e+00	0	43	0	3008364544	46	4277
2026-01-24 09:28:00.04	342.14	20.00	-38.2	-39.0	24.5	0.00e+00	0	44	0	3013607424	47	4055
2026-01-24 09:28:01.05	341.97	19.90	-38.3	-39.0	24.4	0.00e+00	0	44	0	3019898880	47	4083
2026-01-24 09:28:02.06	341.81	19.80	-38.3	-39.0	24.4	0.00e+00	0	43	0	3025141760	47	4075
2026-01-24 09:28:03.07	341.65	19.71	-38.2	-38.9	24.5	0.00e+00	0	43	0	3031433216	47	4050
2026-01-24 09:28:04.07	341.49	19.61	-38.2	-38.9	24.5	0.00e+00	0	44	0	3036676096	47	4051
2026-01-24 09:28:05.08	341.33	19.51	-38.3	-39.0	24.4	0.00e+00	0	43	0	3042967552	47	4079
2026-01-24 09:28:06.09	341.17	19.41	-38.3	-39.0	24.4	0.00e+00	0	43	0	3048210432	47	4092
2026-01-24 09:28:07.10	341.02	19.31	-38.4	-39.1	24.3	0.00e+00	0	44	0	3053453312	47	4118
2026-01-24 09:28:08.11	340.86	19.21	-38.3	-39.0	24.4	0.00e+00	0	44	0	3059744768	47	4080
2026-01-24 09:28:09.11	340.71	19.11	-38.5	-39.2	24.3	0.00e+00	0	44	0	3064987648	47	4171
2026-01-24 09:28:10.12	340.55	19.01	-38.5	-39.3	24.2	0.00e+00	0	44	0	3070230528	47	4197
2026-01-24 09:28:11.13	340.40	18.92	-38.5	-39.3	24.2	0.00e+00	0	44	0	3076521984	47	4203
2026-01-24 09:28:12.14	340.25	18.82	-38.6	-39.4	24.1	0.00e+00	0	43	0	3081764864	47	4274
2026-01-24 09:28:13.14	340.10	18.72	-38.9	-39.7	24.3	0.00e+00	0	44	0	3087007744	48	4165
2026-01-24 09:28:14.15	339.95	18.62	-39.0	-39.7	24.2	0.00e+00	0	43	0	3093299200	48	4167
2026-01-24 09:28:15.16	339.80	18.52	-38.9	-39.6	24.4	0.00e+00	0	43	0	3099590656	48	4132
2026-01-24 09:28:16.17	339.65	18.43	-38.9	-39.6	24.3	0.00e+00	0	44	0	3104833536	48	4131
2026-01-24 09:28:17.17	339.51	18.33	-39.0	-39.7	24.2	0.00e+00	0	44	0	3110076416	48	4162
2026-01-24 09:28:18.18	339.36	18.23	-39.0	-39.7	24.2	0.00e+00	0	43	0	3116367872	48	4179
2026-01-24 09:28:19.19	339.21	18.14	-39.1	-39.8	24.1	0.00e+00	0	43	0	3121610752	48	4209
2026-01-24 09:28:20.20	339.07	18.04	-39.2	-40.0	24.0	1.10e-06	0	44	0	3127902208	49	4073
2026-01-24 09:28:21.21	338.93	17.94	-39.3	-40.0	23.9	0.00e+00	0	44	0	3133145088	49	4077
2026-01-24 09:28:22.21	338.79	17.85	-39.3	-40.1	23.9	0.00e+00	0	44	0	3138387968	49	4121
2026-01-24 09:28:23.22	338.64	17.75	-39.3	-40.0	24.0	0.00e+00	0	43	0	3144679424	49	4079
2026-01-24 09:28:24.23	338.50	17.66	-39.2	-40.0	24.0	0.00e+00	0	44	0	3149922304	49	4055
2026-01-24 09:28:25.24	338.36	17.56	-39.1	-39.9	24.1	0.00e+00	0	44	0	3155165184	49	4011
2026-01-24 09:28:26.25	338.23	17.46	-39.1	-39.8	24.1	0.00e+00	0	44	0	3161456640	49	4000
2026-01-24 09:28:27.25	338.09	17.37	-39.1	-39.9	24.0	0.00e+00	0	44	0	3167748096	49	4014
2026-01-24 09:28:28.26	337.95	17.27	-39.2	-40.0	24.0	0.00e+00	0	43	0	3172990976	49	4063
2026-01-24 09:28:29.27	337.82	17.18	-39.3	-40.0	23.9	0.00e+00	0	44	0	3178233856	49	4086
2026-01-24 09:28:30.28	337.68	17.08	-39.3	-40.0	23.9	0.00e+00	0	44	0	3184525312	49	4084
2026-01-24 09:28:31.29	337.55	16.99	-39.4	-40.1	23.8	0.00e+00	0	44	0	3189768192	49	4135
2026-01-24 09:28:32.29	337.41	16.90	-39.4	-40.2	23.8	0.00e+00	0	44	0	3195011072	49	4149
2026-01-24 09:28:33.30	337.28	16.80	-39.6	-40.3	23.6	0.00e+00	0	44	0	3201302528	49	4231
2026-01-24 09:28:34.31	337.15	16.71	-39.7	-40.5	23.5	0.00e+00	0	43	0	3206545408	49	4292
2026-01-24 09:28:35.32	337.02	16.61	-39.7	-40.5	23.5	0.00e+00	0	44	0	3212836864	50	4071
2026-01-24 09:28:36.33	336.89	16.52	-39.7	-40.5	23.5	0.00e+00	0	43	0	3218079744	50	4077
2026-01-24 09:28:37.33	336.76	16.43	-39.8	-40.6	23.4	0.00e+00	0	44	0	3223322624	50	4126
2026-01-24 09:28:38.34	336.63	16.33	-39.7	-40.5	23.5	0.00e+00	0	43	0	3229614080	50	4053
2026-01-24 09:28:39.35	336.51	16.24	-39.9	-40.6	23.3	0.00e+00	0	44	0	3235905536	50	4136
2026-01-24 09:28:40.36	336.38	16.15	-39.9	-40.6	23.4	0.00e+00	0	43	0	3241148416	50	4136
2026-01-24 09:28:41.37	336.25	16.06	-40.0	-40.7	23.3	3.40e-06	0	44	0	3246391296	50	4177
2026-01-24 09:28:42.38	336.13	15.96	-40.0	-40.8	23.2	0.00e+00	0	44	0	3252682752	50	4212
2026-01-24 09:28:43.39	336.00	15.87	-40.1	-40.9	23.2	0.00e+00	0	44	0	3257925632	50	4252
2026-01-24 09:28:44.39	335.88	15.78	-40.1	-40.8	23.2	0.00e+00	0	44	0	3263168512	50	4239
2026-01-24 09:28:45.40	335.76	15.69	-40.1	-40.9	23.1	0.00e+00	0	43	0	3269459968	51	4032
2026-01-24 09:28:46.41	335.64	15.60	-40.2	-41.0	23.1	0.00e+00	0	44	0	3274702848	51	4055
2026-01-24 09:28:47.42	335.51	15.51	-40.2	-41.0	23.0	0.00e+00	0	43	0	3279945728	51	4069
2026-01-24 09:28:48.43	335.39	15.42	-40.1	-40.9	23.1	0.00e+00	0	43	0	3286237184	51	4035
2026-01-24 09:28:49.43	335.28	15.33	-40.1	-40.9	23.1	0.00e+00	0	43	0	3291480064	51	4028
2026-01-24 09:28:50.44	335.16	15.23	-40.2	-41.0	23.0	0.00e+00	0	44	0	3297771520	51	4061
2026-01-24 09:28:51.45	335.04	15.14	-40.2	-41.0	23.0	0.00e+00	0	43	0	3303014400	51	4067
2026-01-24 09:28:52.46	334.92	15.05	-40.3	-41.1	22.9	0.00e+00	0	43	0	3309305856	51	4103
2026-01-24 09:28:53.47	334.80	14.96	-40.4	-41.2	22.8	0.00e+00	0	44	0	3314548736	51	4157
2026-01-24 09:28:54.48	334.69	14.87	-40.1	-40.9	23.1	0.00e+00	0	44	0	3320840192	51	4018
2026-01-24 09:28:55.49	334.57	14.78	-40.2	-41.0	22.9	0.00e+00	0	44	0	3326083072	51	4078
2026-01-24 09:28:56.50	334.46	14.69	-40.3	-41.1	22.8	0.00e+00	0	44	0	3331325952	51	4109
2026-01-24 09:28:57.51	334.34	14.61	-40.4	-41.2	22.8	0.00e+00	0	44	0	3337617408	51	4166
2026-01-24 09:28:58.51	334.23	14.52	-40.4	-41.2	22.7	0.00e+00	0	44	0	3342860288	51	4172
2026-01-24 09:28:59.52	334.12	14.43	-40.5	-41.3	22.7	0.00e+00	0	44	0	3348103168	51	4201
2026-01-24 09:29:00.53	334.01	14.34	-40.2	-41.0	23.0	0.00e+00	0	44	0	3354394624	51	4066
2026-01-24 09:29:01.53	333.90	14.25	-40.1	-40.9	23.0	0.00e+00	0	43	0	3359637504	51	4029
2026-01-24 09:29:02.54	333.79	14.16	-40.2	-41.0	22.9	2.20e-06	0	44	0	3364880384	51	4088
2026-01-24 09:29:03.55	333.68	14.08	-40.3	-41.1	22.9	0.00e+00	0	44	0	3371171840	51	4105
2026-01-24 09:29:04.56	333.57	13.99	-40.2	-41.0	22.9	0.00e+00	0	44	0	3377463296	51	4079
2026-01-24 09:29:05.57	333.46	13.90	-40.3	-41.1	22.8	0.00e+00	0	44	0	3382706176	51	4129
2026-01-24 09:29:06.57	333.35	13.81	-40.4	-41.2	22.7	0.00e+00	0	44	0	3387949056	51	4153
2026-01-24 09:29:07.58	333.24	13.73	-40.4	-41.2	22.7	0.00e+00	0	44	0	3394240512	51	4155
2026-01-24 09:29:08.59	333.14	13.64	-40.4	-41.2	22.7	0.00e+00	0	43	0	3399483392	51	4154
2026-01-24 09:29:09.60	333.03	13.55	-40.3	-41.1	22.8	0.00e+00	0	44	0	3405774848	51	4126
2026-01-24 09:29:10.61	332.93	13.47	-40.3	-41.1	22.8	0.00e+00	0	43	0	3411017728	51	4128
2026-01-24 09:29:11.62	332.82	13.38	-40.3	-41.1	22.8	0.00e+00	0	44	0	3416260608	51	4112
2026-01-24 09:29:12.63	332.72	13.30	-40.4	-41.2	22.7	0.00e+00	0	44	0	3422552064	51	4184
2026-01-24 09:29:13.64	332.61	13.21	-40.5	-41.3	22.6	0.00e+00	0	43	0	3427794944	51	4216
2026-01-24 09:29:14.64	332.51	13.12	-40.6	-41.4	22.5	0.00e+00	0	44	0	3433037824	51	4259
2026-01-24 09:29:15.65	332.41	13.04	-40.6	-41.4	22.4	0.00e+00	0	44	0	3439329280	52	4032
2026-01-24 09:29:16.66	332.31	12.95	-40.6	-41.5	22.4	0.00e+00	0	44	0	3445620736	52	4053
2026-01-24 09:29:17.67	332.21	12.87	-40.6	-41.4	22.4	0.00e+00	0	43	0	3450863616	52	4035
2026-01-24 09:29:18.68	332.11	12.78	-40.6	-41.4	22.4	0.00e+00	0	43	0	3456106496	52	4034
2026-01-24 09:29:19.69	332.01	12.70	-40.7	-41.5	22.3	0.00e+00	0	44	0	3462397952	52	4078
2026-01-24 09:29:20.70	331.91	12.61	-40.8	-41.6	22.2	0.00e+00	0	44	0	3467640832	52	4116
2026-01-24 09:29:21.71	331.81	12.53	-40.9	-41.7	22.1	0.00e+00	0	44	0	3472883712	52	4175
2026-01-24 09:29:22.72	331.71	12.45	-40.8	-41.6	22.2	0.00e+00	0	44	0	3479175168	52	4132
2026-01-24 09:29:23.73	331.61	12.36	-41.0	-41.9	22.0	0.00e+00	0	44	0	3484418048	52	4251
2026-01-24 09:29:24.73	331.52	12.28	-41.0	-41.8	22.0	0.00e+00	0	44	0	3490709504	52	4230
2026-01-24 09:29:25.74	331.42	12.20	-40.9	-41.7	22.1	0.00e+00	0	44	0	3495952384	52	4176
2026-01-24 09:29:26.75	331.33	12.11	-41.0	-41.9	22.0	0.00e+00	0	44	0	3502243840	52	4246
2026-01-24 09:29:27.76	331.23	12.03	-41.2	-42.1	21.8	0.00e+00	0	44	0	3507486720	52	4341
2026-01-24 09:29:28.77	331.14	11.95	-40.9	-41.7	22.1	0.00e+00	0	43	0	3512729600	52	4174
2026-01-24 09:29:29.77	331.04	11.87	-41.0	-41.8	21.9	0.00e+00	0	44	0	3519021056	52	4231
2026-01-24 09:29:30.78	330.95	11.78	-40.9	-41.8	22.0	0.00e+00	0	44	0	3524263936	52	4200
2026-01-24 09:29:31.79	330.86	11.70	-40.8	-41.7	22.1	0.00e+00	0	43	0	3530555392	52	4152
2026-01-24 09:29:32.80	330.76	11.62	-40.9	-41.7	22.1	0.00e+00	0	44	0	3535798272	52	4170
2026-01-24 09:29:33.81	330.67	11.54	-41.0	-41.8	21.9	0.00e+00	0	44	0	3541041152	52	4238
2026-01-24 09:29:34.81	330.58	11.46	-40.9	-41.8	22.0	0.00e+00	0	44	0	3547332608	52	4210
2026-01-24 09:29:35.82	330.49	11.37	-41.2	-42.0	21.8	0.00e+00	0	44	0	3552575488	53	4098
2026-01-24 09:29:36.83	330.40	11.29	-41.3	-42.1	21.7	0.00e+00	0	44	0	3557818368	53	4122
2026-01-24 09:29:37.84	330.31	11.21	-41.2	-42.0	21.7	0.00e+00	0	44	0	3564109824	53	4095
2026-01-24 09:29:38.85	330.22	11.13	-41.0	-41.8	21.9	0.00e+00	0	44	0	3569352704	53	3993
2026-01-24 09:29:39.86	330.13	11.05	-41.1	-41.9	21.9	0.00e+00	0	44	0	3575644160	53	4028
2026-01-24 09:29:40.87	330.04	10.97	-41.1	-42.0	21.8	0.00e+00	0	44	0	3580887040	53	4072
2026-01-24 09:29:41.87	329.96	10.89	-41.2	-42.0	21.7	0.00e+00	0	44	0	3587178496	53	4083
2026-01-24 09:29:42.88	329.87	10.81	-41.5	-42.4	21.4	0.00e+00	0	44	0	3592421376	53	4247
2026-01-24 09:29:43.89	329.78	10.73	-41.6	-42.5	21.3	0.00e+00	0	44	0	3598712832	53	4305
2026-01-24 09:29:44.90	329.70	10.65	-41.4	-42.3	21.4	0.00e+00	0	44	0	3603955712	53	4234
2026-01-24 09:29:45.91	329.61	10.57	-41.3	-42.2	21.5	0.00e+00	0	44	0	3609198592	53	4176
2026-01-24 09:29:46.91	329.53	10.49	-41.2	-42.1	21.7	0.00e+00	0	44	0	3615490048	53	4109
2026-01-24 09:29:47.92	329.44	10.41	-41.3	-42.2	21.5	0.00e+00	0	44	0	3620732928	53	4171
2026-01-24 09:29:48.93	329.36	10.34	-41.1	-42.0	21.7	0.00e+00	0	44	0	3625975808	53	4078
2026-01-24 09:29:49.94	329.27	10.26	-41.2	-42.0	21.7	0.00e+00	0	44	0	3632267264	53	4086
2026-01-24 09:29:50.95	329.19	10.18	-41.1	-42.0	21.8	0.00e+00	0	44	0	3637510144	53	4064
2026-01-24 09:29:51.96	329.11	10.10	-41.2	-42.1	21.6	0.00e+00	0	44	0	3643801600	53	4132
2026-01-24 09:29:52.97	329.03	10.02	-41.2	-42.1	21.6	0.00e+00	0	44	0	3649044480	53	4135
2026-01-24 09:29:53.97	328.94	9.94	-41.4	-42.3	21.5	0.00e+00	0	44	0	3655335936	53	4195
2026-01-24 09:29:54.98	328.86	9.87	-41.3	-42.2	21.5	0.00e+00	0	44	0	3660578816	53	4161
2026-01-24 09:29:55.99	328.78	9.79	-41.2	-42.1	21.6	0.00e+00	0	44	0	3665821696	53	4126
2026-01-24 09:29:57.00	328.70	9.71	-41.2	-42.1	21.6	0.00e+00	0	44	0	3672113152	53	4115
2026-01-24 09:29:58.01	328.62	9.63	-41.5	-42.4	21.3	0.00e+00	0	44	0	3677356032	53	4274
