passes_logs/2026/01/24/R3.2S_Murmansk/R3.2S_Murmansk__20260124_222351_NOAA_20_JPSS-1_rec.log

#Pass ID: 20260124_222351_NOAA 20 (JPSS-1)
#Satellite: NOAA 20 (JPSS-1)
#Configuration: NOAA 20
#almurnet v.1.7.20251203
#Start time: 2026-01-24 22:23:53

#Version: 2.2.20231116
#Station: R3.2S_Murmansk
#Location: 33.079688 lon 68.888172 lat
#TLE: 1 43013U 17073A   26024.42258823  .00000183  00000+0  10747-3 0  9990
#TLE: 2 43013  98.7646 325.2629 0001105  25.8644 334.2587 14.19539754424075

#Time	Az	El	Level	Level2	SNR	BER	BlckErr	Temp	State	Recorded	gain1	gain2
2026-01-24 22:23:53.84	19.01	2.12	-53.3	-68.3	3.8	1.49e+00	0	41	0	0	77	21044
2026-01-24 22:23:54.83	19.08	2.18	-53.3	-68.3	3.8	1.49e+00	0	41	104	0	77	21077
2026-01-24 22:23:55.84	19.15	2.23	-53.3	-68.3	3.8	1.49e+00	0	41	104	0	77	21068
2026-01-24 22:23:56.85	19.22	2.29	-53.3	-68.3	3.8	1.49e+00	0	41	104	0	77	21018
2026-01-24 22:23:57.86	19.29	2.34	-53.3	-68.3	3.8	1.49e+00	0	41	104	0	77	21058
2026-01-24 22:23:58.86	19.36	2.40	-53.3	-68.3	3.8	1.49e+00	0	41	104	0	77	21044
2026-01-24 22:23:59.87	19.43	2.46	-53.3	-68.2	3.8	1.49e+00	0	41	104	0	77	20995
2026-01-24 22:24:00.88	19.50	2.51	-53.3	-68.2	3.8	1.49e+00	0	41	104	0	77	20951
2026-01-24 22:24:01.89	19.57	2.57	-53.3	-68.2	3.8	1.49e+00	0	41	104	0	77	20994
2026-01-24 22:24:02.89	19.64	2.62	-53.3	-68.2	3.8	1.49e+00	0	41	104	0	77	21011
2026-01-24 22:24:03.90	19.71	2.68	-53.3	-68.2	3.8	1.49e+00	0	41	104	0	77	20947
2026-01-24 22:24:04.91	19.79	2.74	-53.3	-68.3	3.8	1.49e+00	0	41	104	0	77	21035
2026-01-24 22:24:05.92	19.86	2.80	-53.3	-68.2	3.8	1.49e+00	0	41	104	0	77	21012
2026-01-24 22:24:06.92	19.93	2.85	-53.3	-68.2	3.8	1.49e+00	0	41	104	0	77	21012
2026-01-24 22:24:07.93	20.00	2.91	-53.3	-68.2	3.8	1.49e+00	0	41	104	0	77	20995
2026-01-24 22:24:08.94	20.08	2.97	-53.3	-68.3	3.8	1.49e+00	0	41	104	0	77	21039
2026-01-24 22:24:09.95	20.15	3.02	-53.3	-68.3	3.8	1.49e+00	0	42	104	0	77	21031
2026-01-24 22:24:10.96	20.22	3.08	-53.3	-68.3	3.8	1.49e+00	0	42	104	0	77	21033
2026-01-24 22:24:11.96	20.30	3.14	-53.3	-68.3	3.8	1.49e+00	0	41	104	0	77	21044
2026-01-24 22:24:12.97	20.37	3.19	-53.3	-68.2	3.8	1.49e+00	0	42	104	0	77	21017
2026-01-24 22:24:13.98	20.45	3.25	-53.3	-68.3	3.8	1.49e+00	0	41	104	0	77	21020
2026-01-24 22:24:14.98	20.52	3.31	-53.3	-68.3	3.8	1.49e+00	0	42	104	0	77	21020
2026-01-24 22:24:15.99	20.59	3.37	-53.3	-68.2	3.8	1.49e+00	0	42	104	0	77	21014
2026-01-24 22:24:17.00	20.67	3.42	-53.3	-68.2	3.8	1.49e+00	0	42	104	0	77	21016
2026-01-24 22:24:18.01	20.74	3.48	-53.3	-68.3	3.8	1.49e+00	0	42	104	0	77	21051
2026-01-24 22:24:19.02	20.82	3.54	-53.3	-68.2	3.8	1.49e+00	0	42	104	0	77	21006
2026-01-24 22:24:20.02	20.90	3.60	-53.3	-68.3	3.8	1.49e+00	0	42	104	0	77	21057
2026-01-24 22:24:21.03	20.97	3.65	-53.3	-68.3	3.8	1.49e+00	0	42	104	0	77	21045
2026-01-24 22:24:22.04	21.05	3.71	-53.3	-68.3	3.8	1.49e+00	0	42	104	0	77	21022
2026-01-24 22:24:23.04	21.12	3.77	-53.3	-68.2	3.8	1.49e+00	0	42	104	0	77	20976
2026-01-24 22:24:24.05	21.20	3.83	-53.3	-68.2	3.8	1.49e+00	0	42	104	0	77	20970
2026-01-24 22:24:25.06	21.28	3.89	-53.3	-68.2	3.8	1.49e+00	0	42	104	0	77	21008
2026-01-24 22:24:26.07	21.36	3.95	-53.3	-68.3	3.8	1.49e+00	0	42	104	0	77	21050
2026-01-24 22:24:27.08	21.43	4.00	-53.3	-68.3	3.8	1.49e+00	0	42	104	0	77	21032
2026-01-24 22:24:28.09	21.51	4.06	-53.3	-68.3	3.8	1.49e+00	0	42	104	0	77	21039
2026-01-24 22:24:29.10	21.59	4.12	-53.3	-68.3	3.8	1.49e+00	0	42	104	0	77	21022
2026-01-24 22:24:30.10	21.67	4.18	-53.3	-68.2	3.8	1.49e+00	0	42	104	0	77	20975
2026-01-24 22:24:31.11	21.75	4.24	-53.3	-68.2	3.8	1.49e+00	0	42	104	0	77	21015
2026-01-24 22:24:32.12	21.83	4.30	-53.3	-68.2	3.8	1.49e+00	0	42	104	0	77	20976
2026-01-24 22:24:33.13	21.91	4.36	-53.3	-68.2	3.8	1.49e+00	0	42	104	0	77	21005
2026-01-24 22:24:34.14	21.99	4.42	-53.3	-68.3	3.8	1.49e+00	0	42	104	0	77	21049
2026-01-24 22:24:35.14	22.07	4.48	-53.3	-68.3	3.8	1.49e+00	0	42	104	0	77	21051
2026-01-24 22:24:36.15	22.15	4.53	-53.3	-68.2	3.8	1.49e+00	0	42	104	0	77	21007
2026-01-24 22:24:37.16	22.23	4.59	-53.3	-68.2	3.8	1.49e+00	0	42	104	0	77	20979
2026-01-24 22:24:38.17	22.31	4.65	-53.3	-68.2	3.8	1.49e+00	0	42	104	0	77	21003
2026-01-24 22:24:39.17	22.39	4.71	-53.3	-68.2	3.8	1.49e+00	0	42	104	0	77	20960
2026-01-24 22:24:40.18	22.47	4.77	-53.3	-68.2	3.8	1.49e+00	0	42	104	0	77	21004
2026-01-24 22:24:41.19	22.56	4.83	-53.3	-68.3	3.8	1.49e+00	0	42	104	0	77	21018
2026-01-24 22:24:42.20	22.64	4.89	-53.3	-68.3	3.8	1.49e+00	0	42	104	0	77	21058
2026-01-24 22:24:43.21	22.72	4.95	-53.3	-68.3	3.8	1.49e+00	0	42	104	0	77	21044
2026-01-24 22:24:44.22	22.80	5.01	-53.3	-68.3	3.8	1.49e+00	0	42	104	0	77	21066
2026-01-24 22:24:45.22	22.89	5.07	-53.3	-68.3	3.8	1.49e+00	0	42	104	0	77	21038
2026-01-24 22:24:46.23	22.97	5.13	-53.3	-68.2	3.8	1.49e+00	0	42	104	0	77	20976
2026-01-24 22:24:47.24	23.05	5.19	-53.3	-68.3	3.8	1.49e+00	0	42	104	0	77	21032
2026-01-24 22:24:48.25	23.14	5.25	-53.3	-68.2	3.8	1.49e+00	0	42	104	0	77	20996
2026-01-24 22:24:49.26	23.22	5.31	-53.3	-68.3	3.8	1.49e+00	0	42	104	0	77	21040
2026-01-24 22:24:50.26	23.31	5.37	-53.3	-68.3	3.8	1.49e+00	0	42	104	0	77	21033
2026-01-24 22:24:51.27	23.39	5.43	-53.3	-68.3	3.8	1.49e+00	0	42	104	0	77	21025
2026-01-24 22:24:52.28	23.48	5.49	-53.3	-68.2	3.8	1.49e+00	0	42	104	0	77	21009
2026-01-24 22:24:53.29	23.57	5.56	-53.3	-68.3	3.8	1.49e+00	0	42	104	0	77	21041
2026-01-24 22:24:54.29	23.65	5.62	-53.3	-68.2	3.8	1.49e+00	0	42	104	0	77	20953
2026-01-24 22:24:55.30	23.74	5.68	-53.3	-68.2	3.8	1.49e+00	0	42	104	0	77	20971
2026-01-24 22:24:56.31	23.83	5.74	-53.3	-68.2	3.8	1.49e+00	0	42	104	0	77	21017
2026-01-24 22:24:57.32	23.91	5.80	-53.3	-68.2	3.8	1.49e+00	0	42	104	0	77	21017
2026-01-24 22:24:58.33	24.00	5.86	-53.3	-68.2	3.8	1.49e+00	0	42	104	0	77	21005
2026-01-24 22:24:59.33	24.09	5.92	-53.3	-68.3	3.8	1.49e+00	0	42	104	0	77	21025
2026-01-24 22:25:00.34	24.18	5.98	-53.3	-68.2	3.8	1.49e+00	0	42	104	0	77	20956
2026-01-24 22:25:01.35	24.27	6.04	-53.3	-68.2	3.8	1.49e+00	0	42	104	0	77	20991
2026-01-24 22:25:02.36	24.35	6.11	-53.3	-68.2	3.8	1.49e+00	0	42	104	0	77	21009
2026-01-24 22:25:03.37	24.44	6.17	-53.3	-68.2	3.8	1.49e+00	0	42	104	0	77	21011
2026-01-24 22:25:04.37	24.53	6.23	-53.3	-68.2	3.8	1.49e+00	0	42	104	0	77	20997
2026-01-24 22:25:05.38	24.62	6.29	-53.3	-68.3	3.8	1.49e+00	0	42	104	0	77	21044
2026-01-24 22:25:06.39	24.71	6.35	-53.3	-68.2	3.8	1.49e+00	0	42	104	0	77	21004
2026-01-24 22:25:07.40	24.81	6.42	-53.3	-68.3	3.8	1.49e+00	0	42	104	0	77	21030
2026-01-24 22:25:08.40	24.90	6.48	-53.3	-68.2	3.8	1.49e+00	0	42	104	0	77	20979
2026-01-24 22:25:09.41	24.99	6.54	-53.3	-68.2	3.8	1.49e+00	0	43	104	0	77	21014
2026-01-24 22:25:10.42	25.08	6.60	-53.3	-68.2	3.8	1.49e+00	0	42	104	0	77	21006
2026-01-24 22:25:11.43	25.17	6.66	-53.3	-68.3	3.8	1.49e+00	0	42	104	0	77	21020
2026-01-24 22:25:12.43	25.26	6.73	-53.3	-68.3	3.8	1.49e+00	0	42	104	0	77	21027
2026-01-24 22:25:13.44	25.36	6.79	-53.3	-68.3	3.8	1.49e+00	0	42	104	0	77	21056
2026-01-24 22:25:14.45	25.45	6.85	-53.3	-68.3	3.8	1.49e+00	0	42	104	0	77	21043
2026-01-24 22:25:15.46	25.55	6.91	-53.3	-68.2	3.8	1.49e+00	0	42	104	0	77	20997
2026-01-24 22:25:16.47	25.64	6.98	-53.3	-68.3	3.8	1.49e+00	0	42	104	0	77	21020
2026-01-24 22:25:17.48	25.73	7.04	-53.3	-68.2	3.8	1.49e+00	0	43	104	0	77	21015
2026-01-24 22:25:18.48	25.83	7.10	-53.3	-68.3	3.8	1.49e+00	0	42	104	0	77	21037
2026-01-24 22:25:19.49	25.92	7.17	-53.3	-68.2	3.8	1.49e+00	0	42	104	0	77	20989
2026-01-24 22:25:20.50	26.02	7.23	-53.3	-68.3	3.8	1.49e+00	0	42	104	0	77	21026
2026-01-24 22:25:21.51	26.12	7.29	-53.3	-68.3	3.8	1.49e+00	0	43	104	0	77	21025
2026-01-24 22:25:22.52	26.21	7.36	-53.3	-68.2	3.8	1.49e+00	0	43	104	0	77	20975
2026-01-24 22:25:23.52	26.31	7.42	-53.3	-68.3	3.8	1.49e+00	0	42	104	0	77	21031
2026-01-24 22:25:24.53	26.41	7.48	-53.3	-68.2	3.8	1.49e+00	0	43	104	0	77	20988
2026-01-24 22:25:25.54	26.51	7.55	-53.3	-68.2	3.8	1.49e+00	0	42	104	0	77	20990
2026-01-24 22:25:26.55	26.60	7.61	-53.3	-68.3	3.8	1.49e+00	0	43	104	0	77	21068
2026-01-24 22:25:27.55	26.70	7.67	-53.3	-68.3	3.8	1.49e+00	0	43	104	0	77	21068
2026-01-24 22:25:28.56	26.80	7.74	-53.3	-68.3	3.8	1.49e+00	0	43	104	0	77	21058
2026-01-24 22:25:29.57	26.90	7.80	-53.3	-68.3	3.8	1.49e+00	0	43	104	0	77	21022
2026-01-24 22:25:30.58	27.00	7.87	-53.3	-68.3	3.8	1.49e+00	0	43	104	0	77	21108
2026-01-24 22:25:31.58	27.10	7.93	-53.3	-68.2	3.8	1.49e+00	0	43	104	0	77	21000
2026-01-24 22:25:32.59	27.20	7.99	-53.3	-68.3	3.8	1.49e+00	0	43	104	0	77	21058
2026-01-24 22:25:33.60	27.30	8.06	-53.3	-68.2	3.8	1.49e+00	0	43	104	0	77	20976
2026-01-24 22:25:34.61	27.40	8.12	-53.3	-68.3	3.8	1.49e+00	0	42	104	0	77	21031
2026-01-24 22:25:35.62	27.51	8.19	-53.3	-68.2	3.8	1.49e+00	0	43	104	0	77	21004
2026-01-24 22:25:36.62	27.61	8.25	-53.3	-68.2	3.8	1.49e+00	0	43	104	0	77	20943
2026-01-24 22:25:37.63	27.71	8.32	-53.3	-68.3	3.8	1.49e+00	0	42	104	0	77	21025
2026-01-24 22:25:38.64	27.81	8.38	-53.3	-68.3	3.8	1.49e+00	0	43	104	0	77	21056
2026-01-24 22:25:39.65	27.92	8.45	-53.3	-68.3	3.8	1.49e+00	0	43	104	0	77	21065
2026-01-24 22:25:40.65	28.02	8.51	-53.3	-68.3	3.8	1.49e+00	0	43	104	0	77	21045
2026-01-24 22:25:41.66	28.13	8.58	-53.3	-68.3	3.8	1.49e+00	0	43	104	0	77	21060
2026-01-24 22:25:42.67	28.23	8.64	-53.3	-68.2	3.8	1.49e+00	0	43	104	0	77	20986
2026-01-24 22:25:43.67	28.34	8.71	-53.3	-68.3	3.8	1.49e+00	0	43	104	0	77	21029
2026-01-24 22:25:44.68	28.44	8.77	-53.3	-68.2	3.8	1.49e+00	0	43	104	0	77	20953
2026-01-24 22:25:45.69	28.55	8.84	-53.3	-68.2	3.8	1.49e+00	0	43	104	0	77	20960
2026-01-24 22:25:46.70	28.66	8.90	-53.3	-68.2	3.8	1.49e+00	0	43	104	0	77	20992
2026-01-24 22:25:47.71	28.76	8.97	-53.3	-68.3	3.8	1.49e+00	0	43	104	0	77	21108
2026-01-24 22:25:48.71	28.87	9.03	-53.3	-68.2	3.8	1.49e+00	0	43	104	0	77	21005
2026-01-24 22:25:49.72	28.98	9.10	-53.3	-68.2	3.8	1.49e+00	0	43	104	0	77	21002
2026-01-24 22:25:50.73	29.09	9.17	-53.3	-68.3	3.8	1.49e+00	0	43	104	0	77	21071
2026-01-24 22:25:51.74	29.20	9.23	-53.3	-68.3	3.8	1.49e+00	0	43	104	0	77	21064
2026-01-24 22:25:52.75	29.31	9.30	-53.3	-68.3	3.8	1.49e+00	0	43	104	0	77	21019
2026-01-24 22:25:53.76	29.42	9.37	-53.3	-68.3	3.8	1.49e+00	0	43	104	0	77	21033
2026-01-24 22:25:54.77	29.53	9.43	-53.3	-68.2	3.8	1.49e+00	0	43	104	0	77	20970
2026-01-24 22:25:55.78	29.64	9.50	-53.3	-68.2	3.8	1.49e+00	0	43	104	0	77	20976
2026-01-24 22:25:56.78	29.75	9.56	-53.3	-68.2	3.8	1.49e+00	0	43	104	0	77	20997
2026-01-24 22:25:57.79	29.86	9.63	-53.3	-68.3	3.8	1.49e+00	0	43	104	0	77	21031
2026-01-24 22:25:58.80	29.97	9.70	-53.3	-68.2	3.8	1.49e+00	0	43	104	0	77	20994
2026-01-24 22:25:59.81	30.09	9.76	-53.3	-68.2	3.8	1.49e+00	0	43	104	0	77	21003
2026-01-24 22:26:00.82	30.20	9.83	-53.3	-68.3	3.8	1.49e+00	0	43	104	0	77	21036
2026-01-24 22:26:01.82	30.31	9.90	-53.3	-68.3	3.8	1.49e+00	0	43	104	0	77	21056
2026-01-24 22:26:02.83	30.43	9.96	-53.3	-68.2	3.8	1.49e+00	0	43	104	0	77	20963
2026-01-24 22:26:03.84	30.54	10.03	-53.3	-68.3	3.8	1.49e+00	0	43	104	0	77	21074
2026-01-24 22:26:04.85	30.66	10.10	-53.3	-68.2	3.8	1.49e+00	0	43	104	0	77	20996
2026-01-24 22:26:05.86	30.78	10.17	-53.3	-68.3	3.8	1.49e+00	0	43	104	0	77	21025
2026-01-24 22:26:06.86	30.89	10.23	-53.3	-68.3	3.8	1.49e+00	0	43	104	0	77	21057
2026-01-24 22:26:07.87	31.01	10.30	-53.3	-68.3	3.8	1.49e+00	0	43	104	0	77	21031
2026-01-24 22:26:08.88	31.13	10.37	-53.3	-68.2	3.8	1.49e+00	0	43	104	0	77	21011
2026-01-24 22:26:09.88	31.24	10.44	-53.3	-68.3	3.8	1.49e+00	0	43	104	0	77	21022
2026-01-24 22:26:10.89	31.36	10.50	-53.3	-68.2	3.8	1.49e+00	0	43	104	0	77	20975
2026-01-24 22:26:11.90	31.48	10.57	-53.3	-68.2	3.8	1.49e+00	0	43	104	0	77	20989
2026-01-24 22:26:12.91	31.60	10.64	-53.3	-68.2	3.8	1.49e+00	0	43	104	0	77	20987
2026-01-24 22:26:13.91	31.72	10.71	-53.3	-68.3	3.8	1.49e+00	0	43	104	0	77	21050
2026-01-24 22:26:14.92	31.84	10.77	-53.3	-68.2	3.8	1.49e+00	0	43	104	0	77	20993
2026-01-24 22:26:15.93	31.96	10.84	-53.3	-68.3	3.8	1.49e+00	0	43	104	0	77	21053
2026-01-24 22:26:16.94	32.09	10.91	-53.3	-68.3	3.8	1.49e+00	0	43	104	0	77	21025
2026-01-24 22:26:17.94	32.21	10.98	-53.3	-68.3	3.8	1.49e+00	0	43	104	0	77	21020
2026-01-24 22:26:18.95	32.33	11.05	-53.3	-68.2	3.8	1.49e+00	0	43	104	0	77	21000
2026-01-24 22:26:19.96	32.45	11.12	-53.3	-68.3	3.8	1.49e+00	0	43	104	0	77	21018
2026-01-24 22:26:20.97	32.58	11.18	-53.3	-68.2	3.8	1.49e+00	0	43	104	0	77	21013
2026-01-24 22:26:21.98	32.70	11.25	-53.3	-68.3	3.8	1.49e+00	0	43	104	0	77	21056
2026-01-24 22:26:22.99	32.83	11.32	-53.3	-68.2	3.8	1.49e+00	0	43	104	0	77	21016
2026-01-24 22:26:24.00	32.95	11.39	-53.3	-68.2	3.8	1.49e+00	0	43	104	0	77	21013
2026-01-24 22:26:25.00	33.08	11.46	-53.3	-68.3	3.8	1.49e+00	0	43	104	0	77	21030
2026-01-24 22:26:26.01	33.21	11.53	-53.3	-68.3	3.8	1.49e+00	0	43	104	0	77	21043
2026-01-24 22:26:27.02	33.33	11.60	-53.3	-68.3	3.8	1.49e+00	0	43	104	0	77	21028
2026-01-24 22:26:28.03	33.46	11.66	-53.3	-68.3	3.8	1.49e+00	0	43	104	0	77	21032
2026-01-24 22:26:29.04	33.59	11.73	-53.3	-68.3	3.8	1.49e+00	0	43	104	0	77	21042
2026-01-24 22:26:30.04	33.72	11.80	-53.3	-68.2	3.8	1.49e+00	0	43	104	0	77	20991
2026-01-24 22:26:31.05	33.85	11.87	-53.3	-68.2	3.8	1.49e+00	0	43	104	0	77	21013
2026-01-24 22:26:32.06	33.98	11.94	-53.3	-68.3	3.8	1.49e+00	0	43	104	0	77	21020
2026-01-24 22:26:33.07	34.11	12.01	-53.3	-68.2	3.8	1.49e+00	0	43	104	0	77	20984
2026-01-24 22:26:34.07	34.24	12.08	-53.3	-68.2	3.8	1.49e+00	0	43	104	0	77	21011
2026-01-24 22:26:35.08	34.37	12.15	-53.3	-68.3	3.8	1.49e+00	0	43	104	0	77	21037
2026-01-24 22:26:36.09	34.51	12.22	-53.3	-68.3	3.8	1.49e+00	0	43	104	0	77	21018
2026-01-24 22:26:37.10	34.64	12.29	-53.3	-68.3	3.8	1.49e+00	0	43	104	0	77	21069
2026-01-24 22:26:38.11	34.77	12.36	-53.3	-68.3	3.8	1.49e+00	0	43	104	0	77	21028
2026-01-24 22:26:39.12	34.91	12.43	-53.3	-68.2	3.8	1.49e+00	0	43	104	0	77	20994
2026-01-24 22:26:40.12	35.04	12.50	-53.3	-68.2	3.8	1.49e+00	0	43	104	0	77	20968
2026-01-24 22:26:41.13	35.18	12.57	-53.3	-68.2	3.8	1.49e+00	0	43	104	0	77	20988
2026-01-24 22:26:42.14	35.32	12.64	-53.3	-68.3	3.8	1.49e+00	0	43	104	0	77	21026
2026-01-24 22:26:43.15	35.45	12.71	-53.3	-68.2	3.8	1.49e+00	0	43	104	0	77	20987
2026-01-24 22:26:44.15	35.59	12.78	-53.3	-68.2	3.8	1.49e+00	0	43	104	0	77	21008
2026-01-24 22:26:45.16	35.73	12.85	-53.3	-68.2	3.8	1.49e+00	0	43	104	0	77	21003
2026-01-24 22:26:46.17	35.87	12.92	-53.3	-68.3	3.8	1.49e+00	0	43	104	0	77	21045
2026-01-24 22:26:47.18	36.01	12.99	-53.3	-68.2	3.8	1.49e+00	0	43	104	0	77	21003
2026-01-24 22:26:48.18	36.15	13.06	-53.3	-68.2	3.8	1.49e+00	0	43	104	0	77	20988
2026-01-24 22:26:49.19	36.29	13.13	-53.3	-68.3	3.8	1.49e+00	0	43	104	0	77	21021
2026-01-24 22:26:50.20	36.43	13.20	-53.3	-68.2	3.8	1.49e+00	0	43	104	0	77	21014
2026-01-24 22:26:51.21	36.57	13.27	-53.3	-68.3	3.8	1.49e+00	0	43	104	0	77	21025
2026-01-24 22:26:52.22	36.71	13.34	-53.3	-68.3	3.8	1.49e+00	0	43	104	0	77	21042
2026-01-24 22:26:53.22	36.86	13.41	-53.3	-68.3	3.8	1.49e+00	0	43	104	0	77	21034
2026-01-24 22:26:54.23	37.00	13.48	-53.3	-68.3	3.8	1.49e+00	0	43	104	0	77	21024
2026-01-24 22:26:55.24	37.15	13.55	-53.3	-68.3	3.8	1.49e+00	0	43	104	0	77	21043
2026-01-24 22:26:56.25	37.29	13.62	-53.3	-68.3	3.8	1.49e+00	0	43	104	0	77	21068
2026-01-24 22:26:57.25	37.44	13.69	-53.3	-68.3	3.8	1.49e+00	0	43	104	0	77	21054
2026-01-24 22:26:58.26	37.58	13.76	-53.3	-68.3	3.8	1.49e+00	0	43	104	0	77	21039
2026-01-24 22:26:59.27	37.73	13.83	-53.3	-68.3	3.8	1.49e+00	0	43	104	0	77	21052
2026-01-24 22:27:00.28	37.88	13.90	-53.3	-68.2	3.8	1.49e+00	0	43	104	0	77	20991
2026-01-24 22:27:01.29	38.03	13.97	-53.3	-68.3	3.8	1.49e+00	0	43	104	0	77	21060
2026-01-24 22:27:02.30	38.18	14.04	-53.3	-68.3	3.8	1.49e+00	0	43	104	0	77	21018
2026-01-24 22:27:03.30	38.33	14.11	-53.3	-68.3	3.8	1.49e+00	0	43	104	0	77	21030
2026-01-24 22:27:04.31	38.48	14.18	-53.3	-68.2	3.8	1.49e+00	0	43	104	0	77	20990
2026-01-24 22:27:05.32	38.63	14.25	-53.3	-68.2	3.8	1.49e+00	0	43	104	0	77	20984
2026-01-24 22:27:06.33	38.78	14.33	-53.3	-68.2	3.8	1.49e+00	0	43	104	0	77	20961
2026-01-24 22:27:07.34	38.93	14.40	-53.3	-68.3	3.8	1.49e+00	0	43	104	0	77	21059
2026-01-24 22:27:08.34	39.09	14.47	-53.3	-68.3	3.8	1.49e+00	0	43	104	0	77	21020
2026-01-24 22:27:09.35	39.24	14.54	-53.3	-68.3	3.8	1.49e+00	0	43	104	0	77	21054
2026-01-24 22:27:10.36	39.40	14.61	-53.3	-68.3	3.8	1.49e+00	0	43	104	0	77	21076
2026-01-24 22:27:11.37	39.55	14.68	-53.3	-68.3	3.8	1.49e+00	0	43	104	0	77	21045
2026-01-24 22:27:12.37	39.71	14.75	-53.3	-68.2	3.8	1.49e+00	0	43	104	0	77	20985
2026-01-24 22:27:13.38	39.87	14.82	-53.3	-68.3	3.8	1.49e+00	0	43	104	0	77	21019
2026-01-24 22:27:14.39	40.02	14.89	-53.3	-68.3	3.8	1.49e+00	0	43	104	0	77	21045
2026-01-24 22:27:15.40	40.18	14.96	-53.3	-68.2	3.8	1.49e+00	0	43	104	0	77	21014
2026-01-24 22:27:16.40	40.34	15.03	-53.3	-68.2	3.8	1.49e+00	0	43	104	0	77	21004
2026-01-24 22:27:17.41	40.50	15.11	-53.3	-68.3	3.8	1.49e+00	0	43	104	0	77	21043
2026-01-24 22:27:18.42	40.66	15.18	-53.3	-68.3	3.8	1.49e+00	0	43	104	0	77	21042
2026-01-24 22:27:19.43	40.82	15.25	-53.3	-68.2	3.8	1.49e+00	0	43	104	0	77	21016
2026-01-24 22:27:20.43	40.99	15.32	-53.3	-68.3	3.8	1.49e+00	0	43	104	0	77	21079
2026-01-24 22:27:21.44	41.15	15.39	-53.3	-68.3	3.8	1.49e+00	0	43	104	0	77	21026
2026-01-24 22:27:22.45	41.31	15.46	-53.3	-68.3	3.8	1.49e+00	0	43	104	0	77	21038
2026-01-24 22:27:23.46	41.48	15.53	-53.3	-68.3	3.8	1.49e+00	0	43	104	0	77	21038
2026-01-24 22:27:24.47	41.64	15.60	-53.3	-68.3	3.8	1.49e+00	0	43	104	0	77	21022
2026-01-24 22:27:25.47	41.81	15.67	-53.3	-68.3	3.8	1.49e+00	0	43	104	0	77	21036
2026-01-24 22:27:26.48	41.98	15.74	-53.3	-68.3	3.8	1.49e+00	0	43	104	0	77	21058
2026-01-24 22:27:27.49	42.14	15.81	-53.3	-68.2	3.8	1.49e+00	0	43	104	0	77	21009
2026-01-24 22:27:28.50	42.31	15.89	-53.3	-68.3	3.8	1.49e+00	0	43	104	0	77	21089
2026-01-24 22:27:29.51	42.48	15.96	-53.3	-68.3	3.8	1.49e+00	0	43	104	0	77	21057
2026-01-24 22:27:30.52	42.65	16.03	-53.3	-68.3	3.8	1.49e+00	0	43	104	0	77	21041
2026-01-24 22:27:31.52	42.82	16.10	-53.3	-68.3	3.8	1.49e+00	0	43	104	0	77	21029
2026-01-24 22:27:32.53	42.99	16.17	-53.3	-68.3	3.8	1.49e+00	0	43	104	0	77	21052
2026-01-24 22:27:33.54	43.17	16.24	-53.3	-68.3	3.8	1.49e+00	0	43	104	0	77	21034
2026-01-24 22:27:34.55	43.34	16.31	-53.3	-68.3	3.8	1.49e+00	0	43	104	0	77	21068
2026-01-24 22:27:35.55	43.51	16.38	-53.3	-68.2	3.8	1.49e+00	0	43	104	0	77	21017
2026-01-24 22:27:36.56	43.69	16.45	-53.3	-68.3	3.8	1.49e+00	0	43	104	0	77	21058
2026-01-24 22:27:37.57	43.86	16.52	-53.3	-68.3	3.8	1.49e+00	0	43	104	0	77	21057
2026-01-24 22:27:38.57	44.04	16.59	-53.3	-68.3	3.8	1.49e+00	0	43	104	0	77	21060
2026-01-24 22:27:39.58	44.22	16.66	-53.3	-68.3	3.8	1.49e+00	0	43	104	0	77	21035
2026-01-24 22:27:40.59	44.39	16.73	-53.3	-68.3	3.8	1.49e+00	0	43	104	0	77	21052
2026-01-24 22:27:41.60	44.57	16.80	-53.3	-68.3	3.8	1.49e+00	0	43	104	0	77	21062
2026-01-24 22:27:42.61	44.75	16.87	-53.3	-68.3	3.8	1.49e+00	0	43	104	0	77	21039
2026-01-24 22:27:43.62	44.93	16.94	-53.3	-68.3	3.8	1.49e+00	0	43	104	0	77	21021
2026-01-24 22:27:44.62	45.11	17.01	-53.3	-68.3	3.8	1.49e+00	0	43	104	0	77	21018
2026-01-24 22:27:45.63	45.29	17.08	-53.3	-68.3	3.8	1.49e+00	0	43	104	0	77	21020
2026-01-24 22:27:46.64	45.48	17.15	-53.3	-68.2	3.8	1.49e+00	0	43	104	0	77	20996
2026-01-24 22:27:47.65	45.66	17.22	-53.3	-68.2	3.8	1.49e+00	0	43	104	0	77	20975
2026-01-24 22:27:48.65	45.85	17.29	-53.3	-68.3	3.8	1.49e+00	0	43	104	0	77	21078
2026-01-24 22:27:49.66	46.03	17.36	-53.3	-68.2	3.8	1.49e+00	0	43	104	0	77	20976
2026-01-24 22:27:50.67	46.22	17.43	-53.3	-68.2	3.8	1.49e+00	0	43	104	0	77	20976
2026-01-24 22:27:51.68	46.40	17.50	-53.3	-68.2	3.8	1.49e+00	0	43	104	0	77	20996
2026-01-24 22:27:52.69	46.59	17.57	-53.3	-68.2	3.8	1.49e+00	0	43	104	0	77	20976
2026-01-24 22:27:53.69	46.78	17.64	-53.3	-68.2	3.8	1.49e+00	0	43	104	0	77	21012
2026-01-24 22:27:54.70	46.97	17.71	-53.3	-68.2	3.8	1.49e+00	0	43	104	0	77	20982
2026-01-24 22:27:55.71	47.16	17.78	-53.3	-68.3	3.8	1.49e+00	0	43	104	0	77	21079
2026-01-24 22:27:56.72	47.35	17.85	-53.3	-68.2	3.8	1.49e+00	0	43	104	0	77	20990
2026-01-24 22:27:57.73	47.54	17.92	-53.3	-68.2	3.8	1.49e+00	0	43	104	0	77	20988
2026-01-24 22:27:58.74	47.74	17.99	-53.3	-68.2	3.8	1.49e+00	0	43	104	0	77	20990
2026-01-24 22:27:59.74	47.93	18.06	-53.3	-68.2	3.8	1.49e+00	0	43	104	0	77	20989
2026-01-24 22:28:00.75	48.12	18.12	-53.3	-68.3	3.8	1.49e+00	0	43	104	0	77	21053
2026-01-24 22:28:01.76	48.32	18.19	-53.3	-68.3	3.8	1.49e+00	0	43	104	0	77	21050
2026-01-24 22:28:02.76	48.52	18.26	-53.3	-68.3	3.8	1.49e+00	0	43	104	0	77	21027
2026-01-24 22:28:03.77	48.71	18.33	-53.3	-68.3	3.8	1.49e+00	0	43	104	0	77	21072
2026-01-24 22:28:04.78	48.91	18.40	-53.3	-68.3	3.8	1.49e+00	0	43	104	0	77	21025
2026-01-24 22:28:05.79	49.11	18.47	-53.3	-68.3	3.8	1.49e+00	0	43	104	0	77	21023
2026-01-24 22:28:06.80	49.31	18.53	-53.3	-68.2	3.8	1.49e+00	0	43	104	0	77	21006
2026-01-24 22:28:07.80	49.51	18.60	-53.3	-68.3	3.8	1.49e+00	0	43	104	0	77	21080
2026-01-24 22:28:08.81	49.71	18.67	-53.3	-68.3	3.8	1.49e+00	0	43	104	0	77	21058
2026-01-24 22:28:09.82	49.91	18.74	-53.3	-68.3	3.8	1.49e+00	0	43	104	0	77	21024
2026-01-24 22:28:10.83	50.12	18.80	-53.3	-68.2	3.8	1.49e+00	0	43	104	0	77	20989
2026-01-24 22:28:11.84	50.32	18.87	-53.3	-68.3	3.8	1.49e+00	0	43	104	0	77	21041
2026-01-24 22:28:12.84	50.53	18.94	-53.3	-68.3	3.8	1.49e+00	0	43	104	0	77	21028
2026-01-24 22:28:13.85	50.73	19.00	-53.3	-68.2	3.8	1.49e+00	0	43	104	0	77	21000
2026-01-24 22:28:14.86	50.94	19.07	-53.3	-68.3	3.8	1.49e+00	0	43	104	0	77	21046
2026-01-24 22:28:15.87	51.15	19.14	-53.3	-68.2	3.8	1.49e+00	0	43	104	0	77	20969
2026-01-24 22:28:16.88	51.36	19.20	-53.3	-68.3	3.8	1.49e+00	0	43	104	0	77	21067
2026-01-24 22:28:17.88	51.56	19.27	-53.3	-68.3	3.8	1.49e+00	0	43	104	0	77	21078
2026-01-24 22:28:18.89	51.77	19.33	-53.3	-68.3	3.8	1.49e+00	0	43	104	0	77	21046
2026-01-24 22:28:19.90	51.99	19.40	-53.3	-68.3	3.8	1.49e+00	0	43	104	0	77	21045
2026-01-24 22:28:20.91	52.20	19.47	-53.3	-68.3	3.8	1.49e+00	0	43	104	0	77	21049
2026-01-24 22:28:21.91	52.41	19.53	-53.3	-68.2	3.8	1.49e+00	0	43	104	0	77	21009
2026-01-24 22:28:22.92	52.62	19.59	-53.3	-68.3	3.8	1.49e+00	0	43	104	0	77	21022
2026-01-24 22:28:23.93	52.84	19.66	-53.3	-68.3	3.8	1.49e+00	0	43	104	0	77	21025
2026-01-24 22:28:24.94	53.06	19.72	-53.3	-68.3	3.8	1.49e+00	0	43	104	0	77	21081
2026-01-24 22:28:25.94	53.27	19.79	-53.3	-68.3	3.8	1.49e+00	0	43	104	0	77	21060
2026-01-24 22:28:26.95	53.49	19.85	-53.3	-68.3	3.8	1.49e+00	0	43	104	0	77	21035
2026-01-24 22:28:27.96	53.71	19.92	-53.3	-68.3	3.8	1.49e+00	0	43	104	0	77	21068
2026-01-24 22:28:28.97	53.93	19.98	-53.3	-68.3	3.8	1.49e+00	0	43	104	0	77	21033
2026-01-24 22:28:29.97	54.14	20.04	-53.3	-68.3	3.8	1.49e+00	0	43	104	0	77	21035
2026-01-24 22:28:30.98	54.37	20.11	-53.3	-68.3	3.8	1.49e+00	0	43	104	0	77	21020
2026-01-24 22:28:31.99	54.59	20.17	-53.3	-68.3	3.8	1.49e+00	0	43	104	0	77	21031
2026-01-24 22:28:33.00	54.81	20.23	-53.3	-68.3	3.8	1.49e+00	0	43	104	0	77	21031
2026-01-24 22:28:34.01	55.04	20.29	-53.3	-68.3	3.8	1.49e+00	0	43	104	0	77	21052
2026-01-24 22:28:35.02	55.26	20.36	-53.3	-68.3	3.8	1.49e+00	0	43	104	0	77	21043
2026-01-24 22:28:36.02	55.48	20.42	-53.3	-68.3	3.8	1.49e+00	0	43	104	0	77	21019
2026-01-24 22:28:37.03	55.71	20.48	-53.3	-68.2	3.8	1.49e+00	0	43	104	0	77	21011
2026-01-24 22:28:38.04	55.94	20.54	-53.3	-68.2	3.8	1.49e+00	0	43	104	0	77	21006
2026-01-24 22:28:39.04	56.16	20.60	-53.3	-68.3	3.8	1.49e+00	0	43	104	0	77	21070
2026-01-24 22:28:40.05	56.39	20.66	-53.3	-68.2	3.8	1.49e+00	0	43	104	0	77	21012
2026-01-24 22:28:41.06	56.62	20.72	-53.3	-68.3	3.8	1.49e+00	0	43	104	0	77	21046
2026-01-24 22:28:42.07	56.86	20.78	-53.3	-68.2	3.8	1.49e+00	0	43	104	0	77	20948
2026-01-24 22:28:43.08	57.09	20.84	-53.3	-68.2	3.8	1.49e+00	0	43	104	0	77	20989
2026-01-24 22:28:44.08	57.32	20.90	-53.3	-68.2	3.8	1.49e+00	0	43	104	0	77	21014
2026-01-24 22:28:45.09	57.55	20.96	-53.3	-68.2	3.8	1.49e+00	0	43	104	0	77	21008
2026-01-24 22:28:46.10	57.79	21.02	-53.3	-68.2	3.8	1.49e+00	0	43	104	0	77	20976
2026-01-24 22:28:47.11	58.02	21.08	-53.3	-68.3	3.8	1.49e+00	0	43	104	0	77	21061
2026-01-24 22:28:48.11	58.26	21.13	-53.3	-68.3	3.8	1.49e+00	0	43	104	0	77	21035
2026-01-24 22:28:49.12	58.49	21.19	-53.3	-68.3	3.8	1.49e+00	0	43	104	0	77	21055
2026-01-24 22:28:50.13	58.73	21.25	-53.3	-68.3	3.8	1.49e+00	0	43	104	0	77	21061
2026-01-24 22:28:51.14	58.97	21.30	-53.3	-68.2	3.8	1.49e+00	0	43	104	0	77	20999
2026-01-24 22:28:52.15	59.21	21.36	-53.3	-68.2	3.8	1.49e+00	0	43	104	0	77	21012
2026-01-24 22:28:53.15	59.45	21.42	-53.3	-68.2	3.8	1.49e+00	0	43	104	0	77	20984
2026-01-24 22:28:54.16	59.69	21.47	-53.3	-68.2	3.8	1.49e+00	0	43	104	0	77	20994
2026-01-24 22:28:55.17	59.93	21.53	-53.3	-68.2	3.8	1.49e+00	0	43	104	0	77	20965
2026-01-24 22:28:56.18	60.18	21.58	-53.3	-68.2	3.8	1.49e+00	0	43	104	0	77	21007
2026-01-24 22:28:57.18	60.42	21.64	-53.3	-68.3	3.8	1.49e+00	0	43	104	0	77	21058
2026-01-24 22:28:58.19	60.66	21.69	-53.3	-68.3	3.8	1.49e+00	0	43	104	0	77	21026
2026-01-24 22:28:59.20	60.91	21.74	-53.3	-68.3	3.8	1.49e+00	0	43	104	0	77	21035
2026-01-24 22:29:00.21	61.15	21.80	-53.3	-68.2	3.8	1.49e+00	0	43	104	0	77	21016
2026-01-24 22:29:01.21	61.40	21.85	-53.3	-68.2	3.8	1.49e+00	0	43	104	0	77	21012
2026-01-24 22:29:02.22	61.65	21.90	-53.3	-68.3	3.8	1.49e+00	0	43	104	0	77	21033
2026-01-24 22:29:03.23	61.90	21.96	-53.3	-68.3	3.8	1.49e+00	0	43	104	0	77	21052
2026-01-24 22:29:04.24	62.15	22.01	-53.3	-68.2	3.8	1.49e+00	0	43	104	0	77	20985
2026-01-24 22:29:05.25	62.40	22.06	-53.3	-68.3	3.8	1.49e+00	0	43	104	0	77	21055
2026-01-24 22:29:06.26	62.65	22.11	-53.3	-68.3	3.8	1.49e+00	0	43	104	0	77	21018
2026-01-24 22:29:07.26	62.90	22.16	-53.3	-68.2	3.8	1.49e+00	0	43	104	0	77	20993
2026-01-24 22:29:08.27	63.15	22.21	-53.3	-68.2	3.8	1.49e+00	0	43	104	0	77	20971
2026-01-24 22:29:09.28	63.41	22.26	-53.3	-68.2	3.8	1.49e+00	0	43	104	0	77	20989
2026-01-24 22:29:10.29	63.66	22.31	-53.3	-68.2	3.8	1.49e+00	0	43	104	0	77	21014
2026-01-24 22:29:11.30	63.92	22.36	-53.3	-68.3	3.8	1.49e+00	0	43	104	0	77	21050
2026-01-24 22:29:12.30	64.17	22.40	-53.3	-68.2	3.8	1.49e+00	0	43	104	0	77	21007
2026-01-24 22:29:13.31	64.43	22.45	-53.3	-68.2	3.8	1.49e+00	0	43	104	0	77	20972
2026-01-24 22:29:14.32	64.68	22.50	-53.3	-68.3	3.8	1.49e+00	0	43	104	0	77	21035
2026-01-24 22:29:15.32	64.94	22.54	-53.3	-68.3	3.8	1.49e+00	0	43	104	0	77	21018
2026-01-24 22:29:16.33	65.20	22.59	-53.3	-68.2	3.8	1.49e+00	0	43	104	0	77	20980
2026-01-24 22:29:17.34	65.46	22.64	-53.3	-68.3	3.8	1.49e+00	0	43	104	0	77	21018
2026-01-24 22:29:18.35	65.72	22.68	-53.3	-68.3	3.8	1.49e+00	0	43	104	0	77	21066
2026-01-24 22:29:19.36	65.98	22.72	-53.3	-68.2	3.8	1.49e+00	0	43	104	0	77	21011
2026-01-24 22:29:20.36	66.24	22.77	-53.3	-68.3	3.8	1.49e+00	0	43	104	0	77	21043
2026-01-24 22:29:21.37	66.50	22.81	-53.3	-68.2	3.8	1.49e+00	0	43	104	0	77	21010
2026-01-24 22:29:22.38	66.77	22.85	-53.3	-68.2	3.8	1.49e+00	0	43	104	0	77	20981
2026-01-24 22:29:23.39	67.03	22.90	-53.3	-68.3	3.8	1.49e+00	0	43	104	0	77	21044
2026-01-24 22:29:24.40	67.30	22.94	-53.3	-68.2	3.8	1.49e+00	0	43	104	0	77	21017
2026-01-24 22:29:25.40	67.56	22.98	-53.3	-68.2	3.8	1.49e+00	0	43	104	0	77	21008
2026-01-24 22:29:26.41	67.83	23.02	-53.3	-68.3	3.8	1.49e+00	0	43	104	0	77	21034
2026-01-24 22:29:27.42	68.09	23.06	-53.3	-68.3	3.8	1.49e+00	0	43	104	0	77	21023
2026-01-24 22:29:28.43	68.36	23.10	-53.3	-68.2	3.8	1.49e+00	0	43	104	0	77	21015
2026-01-24 22:29:29.43	68.63	23.14	-53.3	-68.2	3.8	1.49e+00	0	43	104	0	77	20994
2026-01-24 22:29:30.44	68.90	23.18	-53.3	-68.3	3.8	1.49e+00	0	43	104	0	77	21034
2026-01-24 22:29:31.45	69.17	23.21	-53.3	-68.3	3.8	1.49e+00	0	43	104	0	77	21038
2026-01-24 22:29:32.46	69.44	23.25	-53.3	-68.3	3.8	1.49e+00	0	43	104	0	77	21075
2026-01-24 22:29:33.47	69.71	23.29	-53.3	-68.3	3.8	1.49e+00	0	43	104	0	77	21075
2026-01-24 22:29:34.47	69.98	23.32	-53.3	-68.2	3.8	1.49e+00	0	43	104	0	77	20979
2026-01-24 22:29:35.48	70.25	23.36	-53.3	-68.2	3.8	1.49e+00	0	43	104	0	77	21014
2026-01-24 22:29:36.49	70.52	23.39	-53.3	-68.3	3.8	1.49e+00	0	43	104	0	77	21030
2026-01-24 22:29:37.50	70.80	23.43	-53.3	-68.2	3.8	1.49e+00	0	43	104	0	77	20964
2026-01-24 22:29:38.51	71.07	23.46	-53.3	-68.2	3.8	1.49e+00	0	43	104	0	77	21006
2026-01-24 22:29:39.52	71.34	23.49	-53.3	-68.2	3.8	1.49e+00	0	43	104	0	77	20962
2026-01-24 22:29:40.52	71.62	23.53	-53.3	-68.3	3.8	1.49e+00	0	43	104	0	77	21022
2026-01-24 22:29:41.53	71.89	23.56	-53.3	-68.3	3.8	1.49e+00	0	43	104	0	77	21023
2026-01-24 22:29:42.54	72.17	23.59	-53.3	-68.3	3.8	1.49e+00	0	43	104	0	77	21021
2026-01-24 22:29:43.55	72.45	23.62	-53.3	-68.2	3.8	1.49e+00	0	43	104	0	77	21004
2026-01-24 22:29:44.56	72.72	23.65	-53.3	-68.3	3.8	1.49e+00	0	43	104	0	77	21046
2026-01-24 22:29:45.57	73.00	23.68	-53.3	-68.3	3.8	1.49e+00	0	43	104	0	77	21064
2026-01-24 22:29:46.58	73.28	23.71	-53.3	-68.3	3.8	1.49e+00	0	43	104	0	77	21024
2026-01-24 22:29:47.58	73.56	23.73	-53.3	-68.3	3.8	1.49e+00	0	43	104	0	77	21076
2026-01-24 22:29:48.59	73.83	23.76	-53.3	-68.3	3.8	1.49e+00	0	43	104	0	77	21050
2026-01-24 22:29:49.60	74.11	23.79	-53.3	-68.3	3.8	1.49e+00	0	43	104	0	77	21075
2026-01-24 22:29:50.61	74.40	23.81	-53.3	-68.3	3.8	1.49e+00	0	43	104	0	77	21074
2026-01-24 22:29:51.61	74.67	23.84	-53.3	-68.3	3.8	1.49e+00	0	43	104	0	77	21031
2026-01-24 22:29:52.62	74.95	23.86	-53.3	-68.3	3.8	1.49e+00	0	43	104	0	77	21033
2026-01-24 22:29:53.63	75.24	23.89	-53.3	-68.3	3.8	1.49e+00	0	43	104	0	77	21066
2026-01-24 22:29:54.64	75.52	23.91	-53.3	-68.2	3.8	1.49e+00	0	43	104	0	77	21005
2026-01-24 22:29:55.65	75.80	23.93	-53.3	-68.3	3.8	1.49e+00	0	43	104	0	77	21079
2026-01-24 22:29:56.65	76.08	23.95	-53.3	-68.3	3.8	1.49e+00	0	43	104	0	77	21051
2026-01-24 22:29:57.66	76.36	23.97	-53.3	-68.3	3.8	1.49e+00	0	43	104	0	77	21108
2026-01-24 22:29:58.67	76.65	23.99	-53.3	-68.3	3.8	1.49e+00	0	43	104	0	77	21033
2026-01-24 22:29:59.68	76.93	24.01	-53.3	-68.3	3.8	1.49e+00	0	43	104	0	77	21039
2026-01-24 22:30:00.69	77.22	24.03	-53.3	-68.3	3.8	1.49e+00	0	43	104	0	77	21020
2026-01-24 22:30:01.69	77.50	24.05	-53.3	-68.3	3.8	1.49e+00	0	43	104	0	77	21038
2026-01-24 22:30:02.70	77.78	24.07	-53.3	-68.3	3.8	1.49e+00	0	43	104	0	77	21051
2026-01-24 22:30:03.71	78.07	24.08	-53.3	-68.3	3.8	1.49e+00	0	43	104	0	77	21037
2026-01-24 22:30:04.72	78.35	24.10	-53.3	-68.2	3.8	1.49e+00	0	43	104	0	77	21011
2026-01-24 22:30:05.73	78.64	24.12	-53.3	-68.2	3.8	1.49e+00	0	43	104	0	77	21001
2026-01-24 22:30:06.73	78.92	24.13	-53.3	-68.2	3.8	1.49e+00	0	43	104	0	77	20998
2026-01-24 22:30:07.74	79.21	24.14	-53.3	-68.3	3.8	1.49e+00	0	43	104	0	77	21033
2026-01-24 22:30:08.75	79.49	24.16	-53.3	-68.2	3.8	1.49e+00	0	43	104	0	77	21014
2026-01-24 22:30:09.76	79.78	24.17	-53.3	-68.3	3.8	1.49e+00	0	43	104	0	77	21088
2026-01-24 22:30:10.77	80.07	24.18	-53.3	-68.3	3.8	1.49e+00	0	43	104	0	77	21022
2026-01-24 22:30:11.78	80.36	24.19	-53.3	-68.3	3.8	1.49e+00	0	43	104	0	77	21025
2026-01-24 22:30:12.79	80.64	24.20	-53.3	-68.3	3.8	1.49e+00	0	43	104	0	77	21045
2026-01-24 22:30:13.79	80.93	24.21	-53.3	-68.3	3.8	1.49e+00	0	43	104	0	77	21039
2026-01-24 22:30:14.80	81.22	24.22	-53.3	-68.3	3.8	1.49e+00	0	43	104	0	77	21054
2026-01-24 22:30:15.81	81.50	24.23	-53.3	-68.3	3.8	1.49e+00	0	43	104	0	77	21039
2026-01-24 22:30:16.82	81.79	24.24	-53.3	-68.3	3.8	1.49e+00	0	43	104	0	77	21062
2026-01-24 22:30:17.82	82.08	24.24	-53.3	-68.3	3.8	1.49e+00	0	43	104	0	77	21053
2026-01-24 22:30:18.83	82.37	24.25	-53.3	-68.3	3.8	1.49e+00	0	43	104	0	77	21050
2026-01-24 22:30:19.84	82.65	24.25	-53.3	-68.2	3.8	1.49e+00	0	43	104	0	77	21001
2026-01-24 22:30:20.85	82.94	24.26	-53.3	-68.2	3.8	1.49e+00	0	43	104	0	77	20977
2026-01-24 22:30:21.86	83.23	24.26	-53.3	-68.3	3.8	1.49e+00	0	43	104	0	77	21036
2026-01-24 22:30:22.87	83.52	24.26	-53.3	-68.2	3.8	1.49e+00	0	43	104	0	77	20997
2026-01-24 22:30:23.88	83.81	24.27	-53.3	-68.2	3.8	1.49e+00	0	43	104	0	77	20984
2026-01-24 22:30:24.88	84.09	24.27	-53.3	-68.2	3.8	1.49e+00	0	43	104	0	77	20986
2026-01-24 22:30:25.89	84.38	24.27	-53.3	-68.2	3.8	1.49e+00	0	43	104	0	77	21014
2026-01-24 22:30:26.90	84.67	24.27	-53.3	-68.2	3.8	1.49e+00	0	43	104	0	77	21013
2026-01-24 22:30:27.91	84.96	24.27	-53.3	-68.3	3.8	1.49e+00	0	43	104	0	77	21100
2026-01-24 22:30:28.92	85.25	24.26	-53.3	-68.2	3.8	1.49e+00	0	43	104	0	77	20996
2026-01-24 22:30:29.92	85.54	24.26	-53.3	-68.3	3.8	1.49e+00	0	43	104	0	77	21046
2026-01-24 22:30:30.93	85.82	24.26	-53.3	-68.2	3.8	1.49e+00	0	43	104	0	77	21005
2026-01-24 22:30:31.94	86.11	24.25	-53.3	-68.3	3.8	1.49e+00	0	43	104	0	77	21062
2026-01-24 22:30:32.95	86.40	24.25	-53.3	-68.3	3.8	1.49e+00	0	43	104	0	77	21033
2026-01-24 22:30:33.96	86.69	24.24	-53.3	-68.3	3.8	1.49e+00	0	43	104	0	77	21041
2026-01-24 22:30:34.96	86.97	24.24	-53.3	-68.3	3.8	1.49e+00	0	43	104	0	77	21045
2026-01-24 22:30:35.97	87.26	24.23	-53.3	-68.2	3.8	1.49e+00	0	43	104	0	77	20998
2026-01-24 22:30:36.98	87.55	24.22	-53.3	-68.3	3.8	1.49e+00	0	43	104	0	77	21033
2026-01-24 22:30:37.99	87.84	24.22	-53.3	-68.2	3.8	1.49e+00	0	43	104	0	77	21014
2026-01-24 22:30:39.00	88.13	24.21	-53.3	-68.3	3.8	1.49e+00	0	43	104	0	77	21030
2026-01-24 22:30:40.01	88.41	24.20	-53.3	-68.3	3.8	1.49e+00	0	43	104	0	77	21045
2026-01-24 22:30:41.01	88.70	24.19	-53.3	-68.3	3.8	1.49e+00	0	43	104	0	77	21022
2026-01-24 22:30:42.02	88.99	24.17	-53.3	-68.2	3.8	1.49e+00	0	43	104	0	77	21011
2026-01-24 22:30:43.03	89.27	24.16	-53.3	-68.3	3.8	1.49e+00	0	43	104	0	77	21088
2026-01-24 22:30:44.04	89.56	24.15	-53.3	-68.2	3.8	1.49e+00	0	43	104	0	77	21009
2026-01-24 22:30:45.04	89.84	24.14	-53.3	-68.2	3.8	1.49e+00	0	43	104	0	77	20989
2026-01-24 22:30:46.05	90.13	24.12	-53.3	-68.3	3.8	1.49e+00	0	43	104	0	77	21019
2026-01-24 22:30:47.06	90.42	24.11	-53.3	-68.3	3.8	1.49e+00	0	43	104	0	77	21048
2026-01-24 22:30:48.07	90.70	24.09	-53.3	-68.3	3.8	1.49e+00	0	43	104	0	77	21025
2026-01-24 22:30:49.08	90.99	24.07	-53.3	-68.3	3.8	1.49e+00	0	43	104	0	77	21026
2026-01-24 22:30:50.08	91.27	24.06	-53.3	-68.3	3.8	1.49e+00	0	43	104	0	77	21032
2026-01-24 22:30:51.09	91.56	24.04	-53.3	-68.2	3.8	1.49e+00	0	43	104	0	77	21008
2026-01-24 22:30:52.10	91.84	24.02	-53.3	-68.3	3.8	1.49e+00	0	43	104	0	77	21037
2026-01-24 22:30:53.11	92.12	24.00	-53.3	-68.2	3.8	1.49e+00	0	43	104	0	77	20989
2026-01-24 22:30:54.12	92.41	23.98	-53.3	-68.3	3.8	1.49e+00	0	43	104	0	77	21046
2026-01-24 22:30:55.12	92.69	23.96	-53.3	-68.3	3.8	1.49e+00	0	43	104	0	77	21033
2026-01-24 22:30:56.13	92.97	23.94	-53.3	-68.3	3.8	1.49e+00	0	43	104	0	77	21032
2026-01-24 22:30:57.14	93.26	23.92	-53.3	-68.3	3.8	1.49e+00	0	43	104	0	77	21019
2026-01-24 22:30:58.15	93.54	23.89	-53.3	-68.2	3.8	1.49e+00	0	43	104	0	77	20996
2026-01-24 22:30:59.16	93.82	23.87	-53.3	-68.2	3.8	1.49e+00	0	43	104	0	77	20983
2026-01-24 22:31:00.16	94.10	23.85	-53.3	-68.2	3.8	1.49e+00	0	43	104	0	77	20978
2026-01-24 22:31:01.17	94.38	23.82	-53.3	-68.2	3.8	1.49e+00	0	43	104	0	77	21001
2026-01-24 22:31:02.18	94.66	23.80	-53.2	-68.3	3.8	1.49e+00	0	43	104	0	77	21023
2026-01-24 22:31:03.19	94.94	23.77	-53.3	-68.3	3.8	1.49e+00	0	43	104	0	77	21057
2026-01-24 22:31:04.19	95.22	23.74	-53.3	-68.2	3.8	1.49e+00	0	43	104	0	77	20974
2026-01-24 22:31:05.20	95.50	23.72	-53.3	-68.3	3.8	1.49e+00	0	43	104	0	77	21029
2026-01-24 22:31:06.21	95.78	23.69	-53.3	-68.2	3.8	1.49e+00	0	43	104	0	77	21014
2026-01-24 22:31:07.22	96.06	23.66	-53.3	-68.2	3.8	1.49e+00	0	43	104	0	77	20979
2026-01-24 22:31:08.22	96.33	23.63	-53.3	-68.3	3.8	1.49e+00	0	43	104	0	77	21054
2026-01-24 22:31:09.23	96.61	23.60	-53.3	-68.2	3.8	1.49e+00	0	43	104	0	77	20995
2026-01-24 22:31:10.24	96.89	23.57	-53.3	-68.3	3.8	1.49e+00	0	43	104	0	77	21063
2026-01-24 22:31:11.25	97.16	23.54	-53.3	-68.3	3.8	1.49e+00	0	43	104	0	77	21099
2026-01-24 22:31:12.26	97.44	23.51	-53.3	-68.2	3.8	1.49e+00	0	43	104	0	77	21008
2026-01-24 22:31:13.26	97.71	23.47	-53.3	-68.3	3.8	1.49e+00	0	43	104	0	77	21050
2026-01-24 22:31:14.27	97.99	23.44	-53.3	-68.2	3.8	1.49e+00	0	43	104	0	77	21005
2026-01-24 22:31:15.28	98.26	23.41	-53.3	-68.3	3.8	1.49e+00	0	43	104	0	77	21031
2026-01-24 22:31:16.29	98.53	23.37	-53.3	-68.3	3.8	1.49e+00	0	43	104	0	77	21020
2026-01-24 22:31:17.29	98.80	23.34	-53.3	-68.2	3.8	1.49e+00	0	43	104	0	77	21012
2026-01-24 22:31:18.30	99.08	23.30	-53.3	-68.2	3.8	1.49e+00	0	43	104	0	77	20975
2026-01-24 22:31:19.31	99.35	23.26	-53.3	-68.2	3.8	1.49e+00	0	43	104	0	77	20985
2026-01-24 22:31:20.32	99.62	23.23	-53.3	-68.3	3.8	1.49e+00	0	43	104	0	77	21049
2026-01-24 22:31:21.32	99.89	23.19	-53.3	-68.2	3.8	1.49e+00	0	43	104	0	77	20994
2026-01-24 22:31:22.33	100.16	23.15	-53.3	-68.2	3.8	1.49e+00	0	43	104	0	77	21001
2026-01-24 22:31:23.34	100.43	23.11	-53.3	-68.2	3.8	1.49e+00	0	43	104	0	77	21013
2026-01-24 22:31:24.35	100.69	23.07	-53.3	-68.2	3.8	1.49e+00	0	43	104	0	77	21008
2026-01-24 22:31:25.36	100.96	23.03	-53.3	-68.3	3.8	1.49e+00	0	43	104	0	77	21075
2026-01-24 22:31:26.36	101.23	22.99	-53.3	-68.3	3.8	1.49e+00	0	43	104	0	77	21086
2026-01-24 22:31:27.37	101.49	22.95	-53.3	-68.2	3.8	1.49e+00	0	43	104	0	77	20994
2026-01-24 22:31:28.38	101.76	22.91	-53.3	-68.3	3.8	1.49e+00	0	43	104	0	77	21042
2026-01-24 22:31:29.39	102.02	22.87	-53.3	-68.3	3.8	1.49e+00	0	43	104	0	77	21021
2026-01-24 22:31:30.39	102.29	22.83	-53.3	-68.3	3.8	1.49e+00	0	43	104	0	77	21056
2026-01-24 22:31:31.40	102.55	22.78	-53.3	-68.3	3.8	1.49e+00	0	43	104	0	77	21079
2026-01-24 22:31:32.41	102.81	22.74	-53.3	-68.2	3.8	1.49e+00	0	43	104	0	77	21008
2026-01-24 22:31:33.42	103.08	22.69	-53.3	-68.3	3.8	1.49e+00	0	43	104	0	77	21056
2026-01-24 22:31:34.43	103.34	22.65	-53.3	-68.2	3.8	1.49e+00	0	43	104	0	77	20999
2026-01-24 22:31:35.44	103.60	22.60	-53.3	-68.3	3.8	1.49e+00	0	43	104	0	77	21074
2026-01-24 22:31:36.44	103.86	22.56	-53.3	-68.2	3.8	1.49e+00	0	43	104	0	77	20992
2026-01-24 22:31:37.45	104.12	22.51	-53.3	-68.3	3.8	1.49e+00	0	43	104	0	77	21060
2026-01-24 22:31:38.46	104.37	22.46	-53.3	-68.2	3.8	1.49e+00	0	43	104	0	77	20979
2026-01-24 22:31:39.46	104.63	22.42	-53.3	-68.3	3.8	1.49e+00	0	43	104	0	77	21060
2026-01-24 22:31:40.48	104.89	22.37	-53.3	-68.3	3.8	1.49e+00	0	43	104	0	77	21035
2026-01-24 22:31:41.48	105.14	22.32	-53.3	-68.3	3.8	1.49e+00	0	43	104	0	77	21065
2026-01-24 22:31:42.49	105.40	22.27	-53.3	-68.2	3.8	1.49e+00	0	43	104	0	77	21005
2026-01-24 22:31:43.50	105.65	22.22	-53.3	-68.3	3.8	1.49e+00	0	43	104	0	77	21060
2026-01-24 22:31:44.50	105.91	22.17	-53.3	-68.3	3.8	1.49e+00	0	43	104	0	77	21036
2026-01-24 22:31:45.51	106.16	22.12	-53.3	-68.3	3.8	1.49e+00	0	43	104	0	77	21027
2026-01-24 22:31:46.52	106.41	22.07	-53.3	-68.3	3.8	1.49e+00	0	43	104	0	77	21047
2026-01-24 22:31:47.53	106.66	22.02	-53.3	-68.3	3.8	1.49e+00	0	43	104	0	77	21032
2026-01-24 22:31:48.54	106.91	21.97	-53.3	-68.2	3.8	1.49e+00	0	43	104	0	77	21007
2026-01-24 22:31:49.54	107.16	21.92	-53.3	-68.3	3.8	1.49e+00	0	43	104	0	77	21035
2026-01-24 22:31:50.55	107.41	21.86	-53.3	-68.3	3.8	1.49e+00	0	43	104	0	77	21062
2026-01-24 22:31:51.56	107.66	21.81	-53.3	-68.3	3.8	1.49e+00	0	43	104	0	77	21053
2026-01-24 22:31:52.57	107.91	21.76	-53.3	-68.3	3.8	1.49e+00	0	43	104	0	77	21047
2026-01-24 22:31:53.58	108.15	21.70	-53.3	-68.3	3.8	1.49e+00	0	43	104	0	77	21061
2026-01-24 22:31:54.58	108.40	21.65	-53.3	-68.2	3.8	1.49e+00	0	43	104	0	77	21017
2026-01-24 22:31:55.59	108.64	21.60	-53.3	-68.3	3.8	1.49e+00	0	43	104	0	77	21058
2026-01-24 22:31:56.60	108.89	21.54	-53.3	-68.2	3.8	1.49e+00	0	43	104	0	77	21009
2026-01-24 22:31:57.61	109.13	21.48	-53.3	-68.2	3.8	1.49e+00	0	43	104	0	77	21013
2026-01-24 22:31:58.61	109.37	21.43	-53.3	-68.2	3.8	1.49e+00	0	43	104	0	77	20985
2026-01-24 22:31:59.62	109.61	21.37	-53.3	-68.3	3.8	1.49e+00	0	43	104	0	77	21022
2026-01-24 22:32:00.63	109.85	21.32	-53.3	-68.3	3.8	1.49e+00	0	43	104	0	77	21040
2026-01-24 22:32:01.64	110.09	21.26	-53.3	-68.3	3.8	1.49e+00	0	43	104	0	77	21106
2026-01-24 22:32:02.65	110.33	21.20	-53.3	-68.2	3.8	1.49e+00	0	43	104	0	77	21013
2026-01-24 22:32:03.65	110.57	21.14	-53.3	-68.3	3.8	1.49e+00	0	43	104	0	77	21036
2026-01-24 22:32:04.66	110.80	21.09	-53.3	-68.2	3.8	1.49e+00	0	43	104	0	77	20998
2026-01-24 22:32:05.67	111.04	21.03	-53.3	-68.3	3.8	1.49e+00	0	43	104	0	77	21052
2026-01-24 22:32:06.68	111.28	20.97	-53.3	-68.3	3.8	1.49e+00	0	43	104	0	77	21050
2026-01-24 22:32:07.69	111.51	20.91	-53.3	-68.3	3.8	1.49e+00	0	43	104	0	77	21056
2026-01-24 22:32:08.70	111.74	20.85	-53.3	-68.3	3.8	1.49e+00	0	43	104	0	77	21026
2026-01-24 22:32:09.70	111.97	20.79	-53.3	-68.3	3.8	1.49e+00	0	43	104	0	77	21039
2026-01-24 22:32:10.71	112.21	20.73	-53.3	-68.3	3.8	1.49e+00	0	43	104	0	77	21093
2026-01-24 22:32:11.72	112.44	20.67	-53.3	-68.3	3.8	1.49e+00	0	43	104	0	77	21060
2026-01-24 22:32:12.73	112.67	20.61	-53.3	-68.3	3.8	1.49e+00	0	43	104	0	77	21031
2026-01-24 22:32:13.73	112.90	20.55	-53.3	-68.2	3.8	1.49e+00	0	43	104	0	77	20997
2026-01-24 22:32:14.74	113.12	20.49	-53.3	-68.3	3.8	1.49e+00	0	43	104	0	77	21042
2026-01-24 22:32:15.75	113.35	20.43	-53.3	-68.3	3.8	1.49e+00	0	43	104	0	77	21025
2026-01-24 22:32:16.76	113.58	20.36	-53.3	-68.3	3.8	1.49e+00	0	43	104	0	77	21045
2026-01-24 22:32:17.77	113.80	20.30	-53.3	-68.3	3.8	1.49e+00	0	43	104	0	77	21041
2026-01-24 22:32:18.77	114.03	20.24	-53.3	-68.3	3.8	1.49e+00	0	43	104	0	77	21051
2026-01-24 22:32:19.78	114.25	20.18	-53.3	-68.3	3.8	1.49e+00	0	43	104	0	77	21033
2026-01-24 22:32:20.79	114.47	20.11	-53.3	-68.2	3.8	1.49e+00	0	43	104	0	77	20983
2026-01-24 22:32:21.79	114.69	20.05	-53.3	-68.3	3.8	1.49e+00	0	43	104	0	77	21025
2026-01-24 22:32:22.80	114.92	19.99	-53.3	-68.2	3.8	1.49e+00	0	43	104	0	77	20963
2026-01-24 22:32:23.81	115.14	19.92	-53.3	-68.2	3.8	1.49e+00	0	43	104	0	77	20983
2026-01-24 22:32:24.82	115.36	19.86	-53.3	-68.3	3.8	1.49e+00	0	43	104	0	77	21060
2026-01-24 22:32:25.83	115.58	19.79	-53.3	-68.2	3.8	1.49e+00	0	43	104	0	77	20960
2026-01-24 22:32:26.83	115.79	19.73	-53.3	-68.2	3.8	1.49e+00	0	43	104	0	77	20957
2026-01-24 22:32:27.84	116.01	19.67	-53.3	-68.2	3.8	1.49e+00	0	43	104	0	77	20961
2026-01-24 22:32:28.85	116.22	19.60	-53.3	-68.3	3.8	1.49e+00	0	43	104	0	77	21022
2026-01-24 22:32:29.86	116.44	19.54	-53.3	-68.2	3.8	1.49e+00	0	43	104	0	77	21001
2026-01-24 22:32:30.86	116.65	19.47	-53.3	-68.3	3.8	1.49e+00	0	43	104	0	77	21022
2026-01-24 22:32:31.87	116.87	19.40	-53.3	-68.2	3.8	1.49e+00	0	43	104	0	77	20986
2026-01-24 22:32:32.88	117.08	19.34	-53.3	-68.3	3.8	1.49e+00	0	43	104	0	77	21067
2026-01-24 22:32:33.89	117.29	19.27	-53.3	-68.2	3.8	1.49e+00	0	43	104	0	77	21012
2026-01-24 22:32:34.89	117.50	19.21	-53.3	-68.2	3.8	1.49e+00	0	43	104	0	77	20975
2026-01-24 22:32:35.90	117.71	19.14	-53.3	-68.2	3.8	1.49e+00	0	43	104	0	77	21014
2026-01-24 22:32:36.91	117.92	19.07	-53.3	-68.2	3.8	1.49e+00	0	43	104	0	77	21016
2026-01-24 22:32:37.92	118.12	19.01	-53.3	-68.3	3.8	1.49e+00	0	43	104	0	77	21044
2026-01-24 22:32:38.93	118.33	18.94	-53.3	-68.2	3.8	1.49e+00	0	43	104	0	77	21011
2026-01-24 22:32:39.94	118.54	18.87	-53.3	-68.3	3.8	1.49e+00	0	43	104	0	77	21044
2026-01-24 22:32:40.94	118.74	18.81	-53.3	-68.2	3.8	1.49e+00	0	43	104	0	77	21004
2026-01-24 22:32:41.95	118.95	18.74	-53.3	-68.2	3.8	1.49e+00	0	43	104	0	77	21015
2026-01-24 22:32:42.96	119.15	18.67	-53.3	-68.2	3.8	1.49e+00	0	43	104	0	77	21008
2026-01-24 22:32:43.96	119.35	18.60	-53.3	-68.3	3.8	1.49e+00	0	43	104	0	77	21047
2026-01-24 22:32:44.97	119.55	18.53	-53.3	-68.2	3.8	1.49e+00	0	43	104	0	77	20997
2026-01-24 22:32:45.98	119.75	18.47	-53.3	-68.3	3.8	1.49e+00	0	43	104	0	77	21023
2026-01-24 22:32:46.99	119.95	18.40	-53.3	-68.3	3.8	1.49e+00	0	43	104	0	77	21054
2026-01-24 22:32:48.00	120.15	18.33	-53.3	-68.2	3.8	1.49e+00	0	43	104	0	77	20989
2026-01-24 22:32:49.00	120.35	18.26	-53.3	-68.3	3.8	1.49e+00	0	43	104	0	77	21023
2026-01-24 22:32:50.01	120.55	18.19	-53.3	-68.2	3.8	1.49e+00	0	43	104	0	77	20999
2026-01-24 22:32:51.02	120.74	18.12	-53.3	-68.3	3.8	1.49e+00	0	43	104	0	77	21030
2026-01-24 22:32:52.03	120.94	18.05	-53.3	-68.3	3.8	1.49e+00	0	43	104	0	77	21063
2026-01-24 22:32:53.03	121.13	17.99	-53.3	-68.2	3.8	1.49e+00	0	43	104	0	77	20990
2026-01-24 22:32:54.04	121.33	17.92	-53.3	-68.3	3.8	1.49e+00	0	43	104	0	77	21067
2026-01-24 22:32:55.05	121.52	17.85	-53.3	-68.3	3.8	1.49e+00	0	43	104	0	77	21050
2026-01-24 22:32:56.06	121.71	17.78	-53.3	-68.3	3.8	1.49e+00	0	43	104	0	77	21024
2026-01-24 22:32:57.07	121.90	17.71	-53.3	-68.3	3.8	1.49e+00	0	43	104	0	77	21045
2026-01-24 22:32:58.08	122.10	17.64	-53.3	-68.3	3.8	1.49e+00	0	43	104	0	77	21044
2026-01-24 22:32:59.08	122.28	17.57	-53.3	-68.3	3.8	1.49e+00	0	43	104	0	77	21093
2026-01-24 22:33:00.09	122.47	17.50	-53.3	-68.3	3.8	1.49e+00	0	43	104	0	77	21101
2026-01-24 22:33:01.10	122.66	17.43	-53.3	-68.2	3.8	1.49e+00	0	43	104	0	77	20992
2026-01-24 22:33:02.11	122.85	17.36	-53.3	-68.3	3.8	1.49e+00	0	43	104	0	77	21025
2026-01-24 22:33:03.11	123.03	17.29	-53.3	-68.2	3.8	1.49e+00	0	43	104	0	77	21015
2026-01-24 22:33:04.12	123.22	17.22	-53.3	-68.2	3.8	1.49e+00	0	43	104	0	77	21002
2026-01-24 22:33:05.13	123.40	17.15	-53.3	-68.3	3.8	1.49e+00	0	43	104	0	77	21063
2026-01-24 22:33:06.14	123.59	17.08	-53.3	-68.2	3.8	1.49e+00	0	43	104	0	77	20996
2026-01-24 22:33:07.15	123.77	17.01	-53.3	-68.2	3.8	1.49e+00	0	43	104	0	77	20990
2026-01-24 22:33:08.15	123.95	16.94	-53.3	-68.3	3.8	1.49e+00	0	43	104	0	77	21066
2026-01-24 22:33:09.16	124.13	16.86	-53.3	-68.3	3.8	1.49e+00	0	43	104	0	77	21064
2026-01-24 22:33:10.16	124.31	16.79	-53.3	-68.3	3.8	1.49e+00	0	43	104	0	77	21038
2026-01-24 22:33:11.17	124.49	16.72	-53.3	-68.2	3.8	1.49e+00	0	43	104	0	77	20976
2026-01-24 22:33:12.18	124.67	16.65	-53.3	-68.3	3.8	1.49e+00	0	43	104	0	77	21053
2026-01-24 22:33:13.19	124.85	16.58	-53.3	-68.2	3.8	1.49e+00	0	43	104	0	77	20993
2026-01-24 22:33:14.19	125.02	16.51	-53.3	-68.2	3.8	1.49e+00	0	43	104	0	77	21000
2026-01-24 22:33:15.19	125.20	16.44	-53.3	-68.3	3.8	1.49e+00	0	43	104	0	77	21037
2026-01-24 22:33:16.20	125.37	16.37	-53.3	-68.3	3.8	1.49e+00	0	43	104	0	77	21019
2026-01-24 22:33:17.21	125.55	16.30	-53.3	-68.3	3.8	1.49e+00	0	43	104	0	77	21033
2026-01-24 22:33:18.21	125.72	16.23	-53.3	-68.3	3.8	1.49e+00	0	43	104	0	77	21060
2026-01-24 22:33:19.22	125.90	16.16	-53.3	-68.3	3.8	1.49e+00	0	43	104	0	77	21021
2026-01-24 22:33:20.23	126.07	16.09	-53.3	-68.3	3.8	1.49e+00	0	43	104	0	77	21078
2026-01-24 22:33:21.23	126.24	16.01	-53.3	-68.2	3.8	1.49e+00	0	43	104	0	77	20991
2026-01-24 22:33:22.24	126.41	15.94	-53.3	-68.3	3.8	1.49e+00	0	43	104	0	77	21057
2026-01-24 22:33:23.24	126.58	15.87	-53.3	-68.3	3.8	1.49e+00	0	43	104	0	77	21044
2026-01-24 22:33:24.25	126.75	15.80	-53.3	-68.3	3.8	1.49e+00	0	43	104	0	77	21112
2026-01-24 22:33:25.26	126.92	15.73	-53.3	-68.2	3.8	1.49e+00	0	43	104	0	77	20988
2026-01-24 22:33:26.27	127.08	15.66	-53.3	-68.3	3.8	1.49e+00	0	43	104	0	77	21061
2026-01-24 22:33:27.27	127.25	15.59	-53.3	-68.2	3.8	1.49e+00	0	43	104	0	77	20990
2026-01-24 22:33:28.27	127.41	15.52	-53.3	-68.3	3.8	1.49e+00	0	43	104	0	77	21046
2026-01-24 22:33:29.28	127.58	15.44	-53.3	-68.3	3.8	1.49e+00	0	43	104	0	77	21049
2026-01-24 22:33:30.28	127.74	15.37	-53.3	-68.3	3.8	1.49e+00	0	43	104	0	77	21048
2026-01-24 22:33:31.29	127.91	15.30	-53.3	-68.3	3.8	1.49e+00	0	44	104	0	77	21037
2026-01-24 22:33:32.30	128.07	15.23	-53.3	-68.3	3.8	1.49e+00	0	44	104	0	77	21026
2026-01-24 22:33:33.30	128.23	15.16	-53.3	-68.3	3.8	1.49e+00	0	43	104	0	77	21018
2026-01-24 22:33:34.31	128.39	15.09	-53.3	-68.3	3.8	1.49e+00	0	43	104	0	77	21035
2026-01-24 22:33:35.32	128.55	15.02	-53.3	-68.3	3.8	1.49e+00	0	43	104	0	77	21029
2026-01-24 22:33:36.33	128.71	14.95	-53.3	-68.3	3.8	1.49e+00	0	43	104	0	77	21046
2026-01-24 22:33:37.33	128.87	14.87	-53.3	-68.2	3.8	1.49e+00	0	43	104	0	77	21009
2026-01-24 22:33:38.34	129.03	14.80	-53.3	-68.3	3.8	1.49e+00	0	43	104	0	77	21063
2026-01-24 22:33:39.35	129.19	14.73	-53.3	-68.2	3.8	1.49e+00	0	44	104	0	77	21004
2026-01-24 22:33:40.35	129.34	14.66	-53.3	-68.2	3.8	1.49e+00	0	44	104	0	77	21008
2026-01-24 22:33:41.36	129.50	14.59	-53.3	-68.2	3.8	1.49e+00	0	44	104	0	77	21003
2026-01-24 22:33:42.37	129.66	14.52	-53.3	-68.3	3.8	1.49e+00	0	43	104	0	77	21060
2026-01-24 22:33:43.38	129.81	14.45	-53.3	-68.3	3.8	1.49e+00	0	43	104	0	77	21053
2026-01-24 22:33:44.39	129.97	14.37	-53.3	-68.2	3.8	1.49e+00	0	43	104	0	77	20996
2026-01-24 22:33:45.40	130.12	14.30	-53.3	-68.3	3.8	1.49e+00	0	44	104	0	77	21039
2026-01-24 22:33:46.40	130.27	14.23	-53.3	-68.3	3.8	1.49e+00	0	44	104	0	77	21019
2026-01-24 22:33:47.41	130.42	14.16	-53.3	-68.2	3.8	1.49e+00	0	44	104	0	77	20992
2026-01-24 22:33:48.42	130.58	14.09	-53.3	-68.3	3.8	1.49e+00	0	44	104	0	77	21024
2026-01-24 22:33:49.43	130.73	14.02	-53.3	-68.2	3.8	1.49e+00	0	44	104	0	77	21016
2026-01-24 22:33:50.43	130.88	13.95	-53.3	-68.3	3.8	1.49e+00	0	44	104	0	77	21036
2026-01-24 22:33:51.44	131.03	13.88	-53.3	-68.3	3.8	1.49e+00	0	44	104	0	77	21025
2026-01-24 22:33:52.45	131.17	13.80	-53.3	-68.3	3.8	1.49e+00	0	44	104	0	77	21051
2026-01-24 22:33:53.45	131.32	13.73	-53.3	-68.2	3.8	1.49e+00	0	44	104	0	77	20992
2026-01-24 22:33:54.47	131.47	13.66	-53.3	-68.3	3.8	1.49e+00	0	44	104	0	77	21044
2026-01-24 22:33:55.47	131.62	13.59	-53.3	-68.3	3.8	1.49e+00	0	44	104	0	77	21044
2026-01-24 22:33:56.48	131.76	13.52	-53.3	-68.3	3.8	1.49e+00	0	44	104	0	77	21045
2026-01-24 22:33:57.49	131.91	13.45	-53.3	-68.3	3.8	1.49e+00	0	43	104	0	77	21030
2026-01-24 22:33:58.50	132.05	13.38	-53.3	-68.3	3.8	1.49e+00	0	44	104	0	77	21021
2026-01-24 22:33:59.50	132.19	13.31	-53.3	-68.3	3.8	1.49e+00	0	44	104	0	77	21056
2026-01-24 22:34:00.51	132.34	13.24	-53.3	-68.3	3.8	1.49e+00	0	44	104	0	77	21070
2026-01-24 22:34:01.52	132.48	13.17	-53.3	-68.2	3.8	1.49e+00	0	43	104	0	77	21008
2026-01-24 22:34:02.53	132.62	13.10	-53.3	-68.3	3.8	1.49e+00	0	44	104	0	77	21045
2026-01-24 22:34:03.53	132.76	13.03	-53.3	-68.3	3.8	1.49e+00	0	44	104	0	77	21070
2026-01-24 22:34:04.54	132.90	12.95	-53.3	-68.3	3.8	1.49e+00	0	44	104	0	77	21082
2026-01-24 22:34:05.55	133.04	12.88	-53.3	-68.3	3.8	1.49e+00	0	44	104	0	77	21022
2026-01-24 22:34:06.56	133.18	12.81	-53.3	-68.2	3.8	1.49e+00	0	44	104	0	77	20988
2026-01-24 22:34:07.56	133.32	12.74	-53.3	-68.2	3.8	1.49e+00	0	44	104	0	77	20950
2026-01-24 22:34:08.57	133.46	12.67	-53.3	-68.2	3.8	1.49e+00	0	44	104	0	77	20981
2026-01-24 22:34:09.58	133.60	12.60	-53.3	-68.2	3.8	1.49e+00	0	44	104	0	77	21013
2026-01-24 22:34:10.59	133.73	12.53	-53.3	-68.2	3.8	1.49e+00	0	43	104	0	77	21003
2026-01-24 22:34:11.60	133.87	12.46	-53.3	-68.2	3.8	1.49e+00	0	44	104	0	77	21005
2026-01-24 22:34:12.60	134.01	12.39	-53.3	-68.3	3.8	1.49e+00	0	44	104	0	77	21030
2026-01-24 22:34:13.61	134.14	12.32	-53.3	-68.2	3.8	1.49e+00	0	44	104	0	77	20990
2026-01-24 22:34:14.62	134.27	12.25	-53.3	-68.3	3.8	1.49e+00	0	44	104	0	77	21077
2026-01-24 22:34:15.63	134.41	12.18	-53.3	-68.3	3.8	1.49e+00	0	44	104	0	77	21048
2026-01-24 22:34:16.64	134.54	12.11	-53.3	-68.2	3.8	1.49e+00	0	44	104	0	77	21013
2026-01-24 22:34:17.64	134.67	12.04	-53.3	-68.3	3.8	1.49e+00	0	44	104	0	77	21035
2026-01-24 22:34:18.65	134.81	11.97	-53.3	-68.3	3.8	1.49e+00	0	44	104	0	77	21046
2026-01-24 22:34:19.66	134.94	11.90	-53.3	-68.2	3.8	1.49e+00	0	44	104	0	77	21014
2026-01-24 22:34:20.67	135.07	11.83	-53.3	-68.3	3.8	1.49e+00	0	44	104	0	77	21034
2026-01-24 22:34:21.67	135.20	11.76	-53.3	-68.3	3.8	1.49e+00	0	43	104	0	77	21019
2026-01-24 22:34:22.68	135.33	11.69	-53.3	-68.2	3.8	1.49e+00	0	44	104	0	77	20978
2026-01-24 22:34:23.68	135.45	11.62	-53.3	-68.2	3.8	1.49e+00	0	44	104	0	77	21012
2026-01-24 22:34:24.69	135.58	11.56	-53.3	-68.2	3.8	1.49e+00	0	44	104	0	77	21002
2026-01-24 22:34:25.70	135.71	11.49	-53.3	-68.3	3.8	1.49e+00	0	44	104	0	77	21040
2026-01-24 22:34:26.71	135.84	11.42	-53.3	-68.3	3.8	1.49e+00	0	44	104	0	77	21043
2026-01-24 22:34:27.72	135.96	11.35	-53.3	-68.3	3.8	1.49e+00	0	44	104	0	77	21040
2026-01-24 22:34:28.72	136.09	11.28	-53.3	-68.2	3.8	1.49e+00	0	44	104	0	77	21009
2026-01-24 22:34:29.73	136.22	11.21	-53.3	-68.2	3.8	1.49e+00	0	44	104	0	77	20982
2026-01-24 22:34:30.74	136.34	11.14	-53.3	-68.2	3.8	1.49e+00	0	44	104	0	77	21015
2026-01-24 22:34:31.75	136.47	11.07	-53.3	-68.3	3.8	1.49e+00	0	43	104	0	77	21057
2026-01-24 22:34:32.76	136.59	11.00	-53.3	-68.3	3.8	1.49e+00	0	43	104	0	77	21030
2026-01-24 22:34:33.76	136.71	10.93	-53.3	-68.3	3.8	1.49e+00	0	44	104	0	77	21041
2026-01-24 22:34:34.77	136.83	10.87	-53.3	-68.3	3.8	1.49e+00	0	44	104	0	77	21029
2026-01-24 22:34:35.78	136.96	10.80	-53.3	-68.3	3.8	1.49e+00	0	43	104	0	77	21025
2026-01-24 22:34:36.78	137.08	10.73	-53.3	-68.3	3.8	1.49e+00	0	43	104	0	77	21024
2026-01-24 22:34:37.79	137.20	10.66	-53.3	-68.2	3.8	1.49e+00	0	44	104	0	77	21009
2026-01-24 22:34:38.80	137.32	10.59	-53.3	-68.2	3.8	1.49e+00	0	44	104	0	77	21013
2026-01-24 22:34:39.81	137.44	10.52	-53.3	-68.2	3.8	1.49e+00	0	44	104	0	77	20983
2026-01-24 22:34:40.82	137.56	10.45	-53.3	-68.3	3.8	1.49e+00	0	44	104	0	77	21032
2026-01-24 22:34:41.82	137.68	10.39	-53.3	-68.3	3.8	1.49e+00	0	44	104	0	77	21036
2026-01-24 22:34:42.83	137.79	10.32	-53.3	-68.3	3.8	1.49e+00	0	43	104	0	77	21043
2026-01-24 22:34:43.84	137.91	10.25	-53.3	-68.3	3.8	1.49e+00	0	44	104	0	77	21018
2026-01-24 22:34:44.85	138.03	10.18	-53.3	-68.3	3.8	1.49e+00	0	44	104	0	77	21048
2026-01-24 22:34:45.86	138.15	10.11	-53.3	-68.2	3.8	1.49e+00	0	44	104	0	77	20994
2026-01-24 22:34:46.86	138.26	10.05	-53.3	-68.2	3.8	1.49e+00	0	43	104	0	77	20985
2026-01-24 22:34:47.87	138.38	9.98	-53.3	-68.3	3.8	1.49e+00	0	44	104	0	77	21034
2026-01-24 22:34:48.88	138.49	9.91	-53.3	-68.3	3.8	1.49e+00	0	44	104	0	77	21045
2026-01-24 22:34:49.89	138.61	9.84	-53.3	-68.2	3.8	1.49e+00	0	43	104	0	77	20982
2026-01-24 22:34:50.90	138.72	9.78	-53.3	-68.3	3.8	1.49e+00	0	44	104	0	77	21029
2026-01-24 22:34:51.90	138.84	9.71	-53.3	-68.3	3.8	1.49e+00	0	44	104	0	77	21039
2026-01-24 22:34:52.91	138.95	9.64	-53.3	-68.2	3.8	1.49e+00	0	44	104	0	77	21015
2026-01-24 22:34:53.92	139.06	9.58	-53.3	-68.3	3.8	1.49e+00	0	44	104	0	77	21038
2026-01-24 22:34:54.93	139.17	9.51	-53.3	-68.3	3.8	1.49e+00	0	44	104	0	77	21035
2026-01-24 22:34:55.94	139.29	9.44	-53.3	-68.3	3.8	1.49e+00	0	44	104	0	77	21058
2026-01-24 22:34:56.94	139.40	9.38	-53.3	-68.2	3.8	1.49e+00	0	44	104	0	77	20988
2026-01-24 22:34:57.95	139.51	9.31	-53.3	-68.3	3.8	1.49e+00	0	44	104	0	77	21038
2026-01-24 22:34:58.96	139.62	9.24	-53.3	-68.2	3.8	1.49e+00	0	44	104	0	77	21007
2026-01-24 22:34:59.96	139.73	9.18	-53.3	-68.3	3.8	1.49e+00	0	44	104	0	77	21021
2026-01-24 22:35:00.97	139.84	9.11	-53.3	-68.3	3.8	1.49e+00	0	44	104	0	77	21072
2026-01-24 22:35:01.98	139.95	9.04	-53.3	-68.3	3.8	1.49e+00	0	44	104	0	77	21049
2026-01-24 22:35:02.99	140.05	8.98	-53.3	-68.3	3.8	1.49e+00	0	44	104	0	77	21078
2026-01-24 22:35:03.99	140.16	8.91	-53.3	-68.2	3.8	1.49e+00	0	44	104	0	77	21014
2026-01-24 22:35:05.00	140.27	8.84	-53.3	-68.3	3.8	1.49e+00	0	44	104	0	77	21074
2026-01-24 22:35:06.01	140.38	8.78	-53.3	-68.3	3.8	1.49e+00	0	44	104	0	77	21085
2026-01-24 22:35:07.02	140.48	8.71	-53.3	-68.2	3.8	1.49e+00	0	44	104	0	77	21015
2026-01-24 22:35:08.03	140.59	8.65	-53.3	-68.3	3.8	1.49e+00	0	44	104	0	77	21029
2026-01-24 22:35:09.03	140.69	8.58	-53.3	-68.2	3.8	1.49e+00	0	44	104	0	77	21002
2026-01-24 22:35:10.04	140.80	8.51	-53.3	-68.3	3.8	1.49e+00	0	44	104	0	77	21037
2026-01-24 22:35:11.05	140.90	8.45	-53.3	-68.3	3.8	1.49e+00	0	44	104	0	77	21039
2026-01-24 22:35:12.06	141.01	8.38	-53.3	-68.3	3.8	1.49e+00	0	44	104	0	77	21031
2026-01-24 22:35:13.07	141.11	8.32	-53.3	-68.2	3.8	1.49e+00	0	44	104	0	77	21017
2026-01-24 22:35:14.07	141.21	8.25	-53.3	-68.3	3.8	1.49e+00	0	44	104	0	77	21035
2026-01-24 22:35:15.08	141.32	8.19	-53.3	-68.2	3.8	1.49e+00	0	44	104	0	77	21016
2026-01-24 22:35:16.09	141.42	8.12	-53.3	-68.3	3.8	1.49e+00	0	44	104	0	77	21073
2026-01-24 22:35:17.10	141.52	8.06	-53.3	-68.3	3.8	1.49e+00	0	44	104	0	77	21047
2026-01-24 22:35:18.11	141.62	7.99	-53.3	-68.3	3.8	1.49e+00	0	43	104	0	77	21056
2026-01-24 22:35:19.12	141.72	7.93	-53.3	-68.2	3.8	1.49e+00	0	43	104	0	77	20998
2026-01-24 22:35:20.12	141.82	7.86	-53.3	-68.3	3.8	1.49e+00	0	44	104	0	77	21051
2026-01-24 22:35:21.13	141.92	7.80	-53.3	-68.3	3.8	1.49e+00	0	44	104	0	77	21052
2026-01-24 22:35:22.14	142.02	7.73	-53.3	-68.2	3.8	1.49e+00	0	44	104	0	77	21006
2026-01-24 22:35:23.15	142.12	7.67	-53.3	-68.3	3.8	1.49e+00	0	44	104	0	77	21058
2026-01-24 22:35:24.16	142.22	7.60	-53.3	-68.3	3.8	1.49e+00	0	43	104	0	77	21066
2026-01-24 22:35:25.17	142.32	7.54	-53.3	-68.3	3.8	1.49e+00	0	44	104	0	77	21052
2026-01-24 22:35:26.17	142.42	7.48	-53.3	-68.3	3.8	1.49e+00	0	44	104	0	77	21051
2026-01-24 22:35:27.18	142.52	7.41	-53.3	-68.2	3.8	1.49e+00	0	44	104	0	77	21005
2026-01-24 22:35:28.19	142.62	7.35	-53.3	-68.2	3.8	1.49e+00	0	44	104	0	77	20976
2026-01-24 22:35:29.20	142.71	7.28	-53.3	-68.3	3.8	1.49e+00	0	44	104	0	77	21061
2026-01-24 22:35:30.21	142.81	7.22	-53.3	-68.3	3.8	1.49e+00	0	44	104	0	77	21063
2026-01-24 22:35:31.22	142.91	7.16	-53.3	-68.3	3.8	1.49e+00	0	44	104	0	77	21073
2026-01-24 22:35:32.22	143.00	7.09	-53.3	-68.3	3.8	1.49e+00	0	44	104	0	77	21038
2026-01-24 22:35:33.23	143.10	7.03	-53.3	-68.3	3.8	1.49e+00	0	44	104	0	77	21053
2026-01-24 22:35:34.24	143.19	6.97	-53.3	-68.3	3.8	1.49e+00	0	43	104	0	77	21048
2026-01-24 22:35:35.25	143.29	6.90	-53.3	-68.3	3.8	1.49e+00	0	43	104	0	77	21034
2026-01-24 22:35:36.26	143.38	6.84	-53.3	-68.2	3.8	1.49e+00	0	43	104	0	77	21001
2026-01-24 22:35:37.26	143.47	6.78	-53.3	-68.2	3.8	1.49e+00	0	44	104	0	77	20995
2026-01-24 22:35:38.27	143.57	6.71	-53.3	-68.3	3.8	1.49e+00	0	43	104	0	77	21039
2026-01-24 22:35:39.28	143.66	6.65	-53.3	-68.3	3.8	1.49e+00	0	44	104	0	77	21033
2026-01-24 22:35:40.29	143.75	6.59	-53.3	-68.3	3.8	1.49e+00	0	44	104	0	77	21049
2026-01-24 22:35:41.29	143.84	6.52	-53.3	-68.3	3.8	1.49e+00	0	43	104	0	77	21070
2026-01-24 22:35:42.30	143.94	6.46	-53.3	-68.3	3.8	1.49e+00	0	44	104	0	77	21022
2026-01-24 22:35:43.31	144.03	6.40	-53.3	-68.3	3.8	1.49e+00	0	43	104	0	77	21061
2026-01-24 22:35:44.32	144.12	6.34	-53.3	-68.3	3.8	1.49e+00	0	44	104	0	77	21019
2026-01-24 22:35:45.33	144.21	6.27	-53.3	-68.2	3.8	1.49e+00	0	43	104	0	77	20978
2026-01-24 22:35:46.34	144.30	6.21	-53.3	-68.2	3.8	1.49e+00	0	43	104	0	77	20997
2026-01-24 22:35:47.34	144.39	6.15	-53.3	-68.3	3.8	1.49e+00	0	44	104	0	77	21042
2026-01-24 22:35:48.35	144.48	6.09	-53.3	-68.3	3.8	1.49e+00	0	43	104	0	77	21053
2026-01-24 22:35:49.36	144.57	6.02	-53.3	-68.3	3.8	1.49e+00	0	43	104	0	77	21073
2026-01-24 22:35:50.37	144.66	5.96	-53.3	-68.2	3.8	1.49e+00	0	43	104	0	77	21012
2026-01-24 22:35:51.37	144.75	5.90	-53.3	-68.3	3.8	1.49e+00	0	43	104	0	77	21049
2026-01-24 22:35:52.38	144.83	5.84	-53.3	-68.3	3.8	1.49e+00	0	43	104	0	77	21058
2026-01-24 22:35:53.39	144.92	5.78	-53.3	-68.3	3.8	1.49e+00	0	43	104	0	77	21046
2026-01-24 22:35:54.40	145.01	5.72	-53.3	-68.2	3.8	1.49e+00	0	43	104	0	77	21002
2026-01-24 22:35:55.41	145.10	5.65	-53.3	-68.2	3.8	1.49e+00	0	43	104	0	77	20992
2026-01-24 22:35:56.41	145.18	5.59	-53.3	-68.2	3.8	1.49e+00	0	43	104	0	77	21017
2026-01-24 22:35:57.42	145.27	5.53	-53.3	-68.2	3.8	1.49e+00	0	44	104	0	77	20995
2026-01-24 22:35:58.43	145.36	5.47	-53.3	-68.3	3.8	1.49e+00	0	43	104	0	77	21022
2026-01-24 22:35:59.43	145.44	5.41	-53.3	-68.2	3.8	1.49e+00	0	44	104	0	77	21001
2026-01-24 22:36:00.44	145.53	5.35	-53.3	-68.3	3.8	1.49e+00	0	44	104	0	77	21057
2026-01-24 22:36:01.45	145.61	5.29	-53.3	-68.3	3.8	1.49e+00	0	44	104	0	77	21052
2026-01-24 22:36:02.46	145.70	5.23	-53.3	-68.3	3.8	1.49e+00	0	44	104	0	77	21020
2026-01-24 22:36:03.47	145.78	5.16	-53.3	-68.3	3.8	1.49e+00	0	44	104	0	77	21045
2026-01-24 22:36:04.48	145.87	5.10	-53.3	-68.2	3.8	1.49e+00	0	44	104	0	77	20989
2026-01-24 22:36:05.48	145.95	5.04	-53.3	-68.2	3.8	1.49e+00	0	44	104	0	77	21001
2026-01-24 22:36:06.49	146.03	4.98	-53.3	-68.3	3.8	1.49e+00	0	44	104	0	77	21075
2026-01-24 22:36:07.50	146.12	4.92	-53.3	-68.2	3.8	1.49e+00	0	44	104	0	77	21006
2026-01-24 22:36:08.50	146.20	4.86	-53.3	-68.3	3.8	1.49e+00	0	44	104	0	77	21036
2026-01-24 22:36:09.51	146.28	4.80	-53.3	-68.3	3.8	1.49e+00	0	43	104	0	77	21045
2026-01-24 22:36:10.52	146.36	4.74	-53.3	-68.3	3.8	1.49e+00	0	44	104	0	77	21020
2026-01-24 22:36:11.53	146.44	4.68	-53.3	-68.2	3.8	1.49e+00	0	44	104	0	77	21008
2026-01-24 22:36:12.54	146.53	4.62	-53.3	-68.2	3.8	1.49e+00	0	43	104	0	77	21000
2026-01-24 22:36:13.54	146.61	4.56	-53.3	-68.2	3.8	1.49e+00	0	44	104	0	77	21011
2026-01-24 22:36:14.55	146.69	4.50	-53.3	-68.3	3.8	1.49e+00	0	44	104	0	77	21041
2026-01-24 22:36:15.56	146.77	4.44	-53.3	-68.2	3.8	1.49e+00	0	44	104	0	77	21007
2026-01-24 22:36:16.57	146.85	4.38	-53.3	-68.3	3.8	1.49e+00	0	44	104	0	77	21072
2026-01-24 22:36:17.58	146.93	4.32	-53.3	-68.2	3.8	1.49e+00	0	44	104	0	77	20974
2026-01-24 22:36:18.58	147.01	4.26	-53.3	-68.3	3.8	1.49e+00	0	44	104	0	77	21072
2026-01-24 22:36:19.59	147.09	4.20	-53.3	-68.3	3.8	1.49e+00	0	44	104	0	77	21100
2026-01-24 22:36:20.60	147.17	4.14	-53.3	-68.2	3.8	1.49e+00	0	43	104	0	77	21016
2026-01-24 22:36:21.61	147.25	4.09	-53.3	-68.3	3.8	1.49e+00	0	44	104	0	77	21034
