passes_logs/2026/01/24/R3.2S_Murmansk/R3.2S_Murmansk__20260124_103626_KANOPUS-V_5_rec.log

#Pass ID: 20260124_103626_KANOPUS-V 5
#Satellite: KANOPUS-V 5
#Configuration: KANOPUS-V_8320
#almurnet v.1.7.20251203
#Start time: 2026-01-24 10:36:26

#Version: 2.2.20231116
#Station: R3.2S_Murmansk
#Location: 33.079688 lon 68.888172 lat
#TLE: 1 43876U 18111A   26023.64356892  .00004816  00000+0  20464-3 0  9993
#TLE: 2 43876  97.3677 292.0017 0001813  88.2876 271.8569 15.23520012392780

#Time	Az	El	Level	Level2	SNR	BER	BlckErr	Temp	State	Recorded	gain1	gain2
2026-01-24 10:36:26.27	246.41	1.99	-53.1	-61.9	3.8	7.45e-01	0	44	0	0	78	9591
2026-01-24 10:36:27.28	246.56	2.03	-53.1	-62.0	3.8	7.44e-01	0	44	104	0	77	10211
2026-01-24 10:36:28.29	246.71	2.07	-53.1	-61.9	3.8	7.47e-01	0	44	104	0	77	10142
2026-01-24 10:36:29.29	246.85	2.12	-53.1	-61.9	3.8	7.45e-01	0	44	104	0	77	10152
2026-01-24 10:36:30.30	247.00	2.16	-53.1	-61.9	3.8	7.44e-01	0	44	104	0	77	10154
2026-01-24 10:36:31.31	247.15	2.21	-53.1	-61.9	3.8	7.44e-01	0	44	104	0	77	10140
2026-01-24 10:36:32.32	247.30	2.25	-53.1	-61.9	3.8	7.44e-01	0	43	104	0	77	10130
2026-01-24 10:36:33.33	247.45	2.30	-53.1	-61.9	3.8	7.46e-01	0	44	104	0	77	10168
2026-01-24 10:36:34.33	247.60	2.34	-53.1	-61.9	3.8	7.46e-01	0	44	104	0	77	10126
2026-01-24 10:36:35.34	247.75	2.39	-53.1	-61.9	3.8	7.46e-01	0	44	104	0	77	10100
2026-01-24 10:36:36.35	247.90	2.43	-53.1	-61.9	3.8	7.45e-01	0	44	104	0	77	10079
2026-01-24 10:36:37.36	248.05	2.47	-53.1	-61.9	3.8	7.45e-01	0	44	104	0	77	10122
2026-01-24 10:36:38.37	248.20	2.52	-53.1	-61.9	3.8	7.44e-01	0	44	104	0	77	10084
2026-01-24 10:36:39.38	248.35	2.56	-53.1	-61.9	3.8	7.46e-01	0	44	104	0	77	10110
2026-01-24 10:36:40.39	248.51	2.61	-53.1	-61.9	3.8	7.46e-01	0	44	104	0	77	10100
2026-01-24 10:36:41.39	248.66	2.65	-53.1	-61.9	3.8	7.45e-01	0	44	104	0	77	10105
2026-01-24 10:36:42.40	248.81	2.69	-53.1	-61.9	3.8	7.45e-01	0	44	104	0	77	10107
2026-01-24 10:36:43.41	248.97	2.74	-53.1	-61.9	3.8	7.46e-01	0	44	104	0	77	10090
2026-01-24 10:36:44.42	249.12	2.78	-53.1	-61.9	3.8	7.45e-01	0	44	104	0	77	10138
2026-01-24 10:36:45.43	249.28	2.83	-53.1	-61.9	3.8	7.46e-01	0	44	104	0	77	10111
2026-01-24 10:36:46.43	249.44	2.87	-53.1	-61.9	3.8	7.44e-01	0	44	104	0	77	10143
2026-01-24 10:36:47.44	249.59	2.91	-53.1	-61.9	3.8	7.45e-01	0	44	104	0	77	10098
2026-01-24 10:36:48.45	249.75	2.96	-53.1	-61.9	3.8	7.44e-01	0	44	104	0	77	10088
2026-01-24 10:36:49.46	249.91	3.00	-53.1	-61.9	3.8	7.46e-01	0	44	104	0	77	10098
2026-01-24 10:36:50.47	250.07	3.04	-53.1	-61.9	3.8	7.44e-01	0	44	104	0	77	10109
2026-01-24 10:36:51.47	250.23	3.09	-53.1	-61.9	3.8	7.45e-01	0	44	104	0	77	10098
2026-01-24 10:36:52.48	250.39	3.13	-53.0	-61.9	3.8	7.46e-01	0	44	104	0	77	10089
2026-01-24 10:36:53.49	250.55	3.17	-53.1	-61.9	3.8	7.44e-01	0	44	104	0	77	10090
2026-01-24 10:36:54.50	250.71	3.22	-53.0	-61.9	3.8	7.45e-01	0	44	104	0	77	10101
2026-01-24 10:36:55.51	250.87	3.26	-53.1	-61.9	3.8	7.46e-01	0	44	104	0	77	10070
2026-01-24 10:36:56.51	251.03	3.30	-53.0	-61.9	3.8	7.44e-01	0	44	104	0	77	10100
2026-01-24 10:36:57.52	251.20	3.35	-53.0	-61.9	3.8	7.45e-01	0	44	104	0	77	10066
2026-01-24 10:36:58.53	251.36	3.39	-53.1	-61.9	3.8	7.46e-01	0	44	104	0	77	10097
2026-01-24 10:36:59.54	251.52	3.43	-53.0	-61.9	3.8	7.44e-01	0	44	104	0	77	10114
2026-01-24 10:37:00.55	251.69	3.48	-53.0	-61.9	3.8	7.46e-01	0	44	104	0	77	10071
2026-01-24 10:37:01.55	251.85	3.52	-53.1	-61.9	3.8	7.44e-01	0	44	104	0	77	10072
2026-01-24 10:37:02.56	252.02	3.56	-53.1	-61.9	3.8	7.46e-01	0	44	104	0	77	10105
2026-01-24 10:37:03.57	252.19	3.60	-53.1	-61.8	3.8	7.47e-01	0	44	104	0	77	10053
2026-01-24 10:37:04.58	252.35	3.65	-53.0	-61.9	3.8	7.45e-01	0	44	104	0	77	10065
2026-01-24 10:37:05.59	252.52	3.69	-53.0	-61.8	3.8	7.43e-01	0	44	104	0	77	10024
2026-01-24 10:37:06.60	252.69	3.73	-53.0	-61.9	3.8	7.46e-01	0	44	104	0	77	10074
2026-01-24 10:37:07.61	252.86	3.77	-53.0	-61.9	3.8	7.45e-01	0	44	104	0	77	10076
2026-01-24 10:37:08.61	253.03	3.82	-53.0	-61.9	3.8	7.45e-01	0	44	104	0	77	10079
2026-01-24 10:37:09.62	253.20	3.86	-53.0	-61.8	3.8	7.44e-01	0	44	104	0	77	10050
2026-01-24 10:37:10.63	253.37	3.90	-53.0	-61.8	3.8	7.44e-01	0	44	104	0	77	10019
2026-01-24 10:37:11.64	253.54	3.94	-53.0	-61.8	3.8	7.45e-01	0	44	104	0	77	10024
2026-01-24 10:37:12.65	253.71	3.98	-53.0	-61.8	3.8	7.45e-01	0	44	104	0	77	10018
2026-01-24 10:37:13.65	253.88	4.03	-53.0	-61.8	3.8	7.45e-01	0	44	104	0	77	10041
2026-01-24 10:37:14.66	254.06	4.07	-53.0	-61.8	3.8	7.46e-01	0	44	104	0	77	10020
2026-01-24 10:37:15.67	254.23	4.11	-53.0	-61.8	3.8	7.43e-01	0	44	104	0	77	10035
2026-01-24 10:37:16.68	254.41	4.15	-53.0	-61.8	3.8	7.44e-01	0	44	104	0	77	9999
2026-01-24 10:37:17.69	254.58	4.19	-53.0	-61.8	3.8	7.46e-01	0	44	104	0	77	10051
2026-01-24 10:37:18.70	254.76	4.23	-53.0	-61.8	3.8	7.46e-01	0	44	104	0	77	10057
2026-01-24 10:37:19.71	254.93	4.27	-53.0	-61.8	3.8	7.46e-01	0	44	104	0	77	10058
2026-01-24 10:37:20.72	255.11	4.32	-53.0	-61.8	3.8	7.45e-01	0	44	104	0	77	10029
2026-01-24 10:37:21.72	255.29	4.36	-53.0	-61.8	3.8	7.45e-01	0	44	104	0	77	9970
2026-01-24 10:37:22.73	255.47	4.40	-53.0	-61.8	3.8	7.46e-01	0	44	104	0	77	10022
2026-01-24 10:37:23.74	255.65	4.44	-53.0	-61.8	3.8	7.46e-01	0	44	104	0	77	10006
2026-01-24 10:37:24.75	255.82	4.48	-53.0	-61.8	3.8	7.44e-01	0	44	104	0	77	9991
2026-01-24 10:37:25.75	256.00	4.52	-53.0	-61.8	3.8	7.45e-01	0	44	104	0	77	10013
2026-01-24 10:37:26.76	256.18	4.56	-53.0	-61.8	3.8	7.44e-01	0	44	104	0	77	10006
2026-01-24 10:37:27.77	256.37	4.60	-53.0	-61.8	3.8	7.47e-01	0	44	104	0	77	10011
2026-01-24 10:37:28.78	256.55	4.64	-53.0	-61.8	3.8	7.46e-01	0	44	104	0	77	10024
2026-01-24 10:37:29.79	256.73	4.68	-53.0	-61.8	3.8	7.44e-01	0	44	104	0	77	10022
2026-01-24 10:37:30.80	256.91	4.72	-53.0	-61.8	3.8	7.44e-01	0	44	104	0	77	10018
2026-01-24 10:37:31.81	257.10	4.76	-53.0	-61.8	3.8	7.45e-01	0	44	104	0	77	10002
2026-01-24 10:37:32.81	257.28	4.80	-53.0	-61.8	3.8	7.45e-01	0	44	104	0	77	10005
2026-01-24 10:37:33.82	257.47	4.84	-53.0	-61.8	3.8	7.44e-01	0	44	104	0	77	10011
2026-01-24 10:37:34.83	257.65	4.88	-53.0	-61.8	3.8	7.45e-01	0	44	104	0	77	9979
2026-01-24 10:37:35.84	257.84	4.92	-53.0	-61.8	3.8	7.45e-01	0	44	104	0	77	10019
2026-01-24 10:37:36.84	258.02	4.96	-53.0	-61.8	3.8	7.46e-01	0	44	104	0	77	10018
2026-01-24 10:37:37.85	258.21	5.00	-53.0	-61.8	3.8	7.45e-01	0	44	104	0	77	9995
2026-01-24 10:37:38.86	258.40	5.04	-53.0	-61.9	3.8	7.43e-01	0	44	104	0	77	10087
2026-01-24 10:37:39.87	258.59	5.07	-53.0	-61.8	3.8	7.45e-01	0	44	104	0	77	9995
2026-01-24 10:37:40.87	258.78	5.11	-53.3	-62.1	3.8	7.47e-01	0	44	104	0	77	10405
2026-01-24 10:37:41.88	258.97	5.15	-53.1	-61.9	3.8	7.46e-01	0	44	104	0	77	10170
2026-01-24 10:37:42.89	259.16	5.19	-53.1	-61.9	3.8	7.46e-01	0	44	104	0	77	10144
2026-01-24 10:37:43.90	259.35	5.23	-53.0	-61.8	3.8	7.46e-01	0	44	104	0	77	10012
2026-01-24 10:37:44.91	259.54	5.27	-53.3	-62.1	3.8	7.45e-01	0	44	104	0	77	10325
2026-01-24 10:37:45.92	259.73	5.30	-53.2	-62.0	3.8	7.45e-01	0	44	104	0	77	10210
2026-01-24 10:37:46.93	259.93	5.34	-53.1	-61.9	3.8	7.44e-01	0	44	104	0	77	10146
2026-01-24 10:37:47.93	260.12	5.38	-53.0	-61.8	3.8	7.46e-01	0	44	104	0	77	9979
2026-01-24 10:37:48.94	260.31	5.42	-53.3	-62.1	3.8	7.44e-01	0	44	104	0	77	10351
2026-01-24 10:37:49.95	260.51	5.45	-53.2	-62.0	3.8	7.45e-01	0	44	104	0	77	10221
2026-01-24 10:37:50.95	260.70	5.49	-53.1	-61.9	3.8	7.44e-01	0	44	104	0	77	10127
2026-01-24 10:37:51.96	260.90	5.53	-53.0	-61.8	3.8	7.45e-01	0	44	104	0	77	10015
2026-01-24 10:37:52.97	261.09	5.56	-53.3	-62.1	3.8	7.45e-01	0	44	104	0	77	10331
2026-01-24 10:37:53.98	261.29	5.60	-53.2	-62.0	3.8	7.46e-01	0	44	104	0	77	10235
2026-01-24 10:37:54.99	261.49	5.64	-53.1	-62.0	3.8	7.45e-01	0	44	104	0	77	10177
2026-01-24 10:37:55.99	261.69	5.67	-53.0	-61.8	3.8	7.44e-01	0	44	104	0	77	10056
2026-01-24 10:37:57.00	261.89	5.71	-53.3	-62.1	3.8	7.45e-01	0	44	104	0	77	10368
2026-01-24 10:37:58.01	262.09	5.74	-53.2	-62.0	3.8	7.45e-01	0	44	104	0	77	10216
2026-01-24 10:37:59.02	262.29	5.78	-53.1	-61.9	3.8	7.44e-01	0	44	104	0	77	10122
2026-01-24 10:38:00.02	262.49	5.82	-53.1	-61.9	3.8	7.45e-01	0	44	104	0	77	10115
2026-01-24 10:38:01.03	262.69	5.85	-53.3	-62.1	3.8	7.45e-01	0	44	104	0	77	10359
2026-01-24 10:38:02.04	262.89	5.89	-53.2	-62.0	3.8	7.46e-01	0	44	104	0	77	10218
2026-01-24 10:38:03.05	263.09	5.92	-53.1	-62.0	3.8	7.45e-01	0	44	104	0	77	10193
2026-01-24 10:38:04.06	263.30	5.96	-53.1	-61.9	3.8	7.46e-01	0	44	104	0	77	10137
2026-01-24 10:38:05.07	263.50	5.99	-53.3	-62.1	3.8	7.44e-01	0	44	104	0	77	10313
2026-01-24 10:38:06.08	263.70	6.03	-53.2	-62.0	3.8	7.44e-01	0	44	104	0	77	10233
2026-01-24 10:38:07.09	263.91	6.06	-53.2	-62.0	3.8	7.45e-01	0	44	104	0	77	10219
2026-01-24 10:38:08.10	264.12	6.09	-53.1	-61.9	3.8	7.46e-01	0	44	104	0	77	10107
2026-01-24 10:38:09.10	264.32	6.13	-53.3	-62.1	3.8	7.46e-01	0	44	104	0	77	10351
2026-01-24 10:38:10.11	264.53	6.16	-53.2	-62.0	3.8	7.46e-01	0	44	104	0	77	10212
2026-01-24 10:38:11.12	264.74	6.19	-53.2	-62.0	3.8	7.46e-01	0	44	104	0	77	10255
2026-01-24 10:38:12.12	264.94	6.23	-53.1	-61.9	3.8	7.45e-01	0	44	104	0	77	10137
2026-01-24 10:38:13.13	265.15	6.26	-53.3	-62.1	3.8	7.46e-01	0	44	104	0	77	10339
2026-01-24 10:38:14.14	265.36	6.29	-53.2	-62.0	3.8	7.45e-01	0	44	104	0	77	10269
2026-01-24 10:38:15.15	265.57	6.32	-53.2	-62.0	3.8	7.47e-01	0	44	104	0	77	10244
2026-01-24 10:38:16.15	265.78	6.36	-53.1	-61.9	3.8	7.46e-01	0	44	104	0	77	10160
2026-01-24 10:38:17.16	265.99	6.39	-53.3	-62.1	3.8	7.46e-01	0	44	104	0	77	10365
2026-01-24 10:38:18.17	266.20	6.42	-53.2	-62.0	3.8	7.46e-01	0	44	104	0	77	10250
2026-01-24 10:38:19.18	266.41	6.45	-53.2	-62.0	3.8	7.45e-01	0	44	104	0	77	10255
2026-01-24 10:38:20.19	266.63	6.48	-53.1	-61.9	3.8	7.45e-01	0	44	104	0	77	10166
2026-01-24 10:38:21.19	266.84	6.51	-53.3	-62.1	3.8	7.46e-01	0	44	104	0	77	10369
2026-01-24 10:38:22.20	267.05	6.55	-53.1	-61.9	3.8	7.47e-01	0	44	104	0	77	10149
2026-01-24 10:38:23.21	267.27	6.58	-53.2	-62.0	3.8	7.46e-01	0	44	104	0	77	10205
2026-01-24 10:38:24.22	267.48	6.61	-53.1	-61.9	3.8	7.46e-01	0	44	104	0	77	10084
2026-01-24 10:38:25.23	267.70	6.64	-52.9	-61.8	3.8	7.45e-01	0	44	104	0	77	9970
2026-01-24 10:38:26.23	267.91	6.67	-52.8	-61.6	3.8	7.44e-01	0	44	104	0	77	9809
2026-01-24 10:38:27.24	268.13	6.70	-53.0	-61.8	3.8	7.46e-01	0	44	104	0	77	9994
2026-01-24 10:38:28.25	268.34	6.73	-52.8	-61.6	3.8	7.46e-01	0	44	104	0	77	9803
2026-01-24 10:38:29.26	268.56	6.75	-52.4	-61.3	3.8	7.45e-01	0	44	104	0	76	9988
2026-01-24 10:38:30.27	268.78	6.78	-52.7	-61.5	3.8	7.47e-01	0	44	104	0	76	10217
2026-01-24 10:38:31.28	269.00	6.81	-52.6	-61.5	3.8	7.45e-01	0	44	104	0	76	10222
2026-01-24 10:38:32.29	269.22	6.84	-52.8	-61.6	3.8	7.45e-01	0	44	104	0	76	10341
2026-01-24 10:38:33.29	269.43	6.87	-52.6	-61.4	3.8	7.43e-01	0	44	104	0	76	10172
2026-01-24 10:38:34.30	269.66	6.90	-52.9	-61.7	3.8	7.45e-01	0	44	104	0	76	10459
2026-01-24 10:38:35.31	269.88	6.92	-52.8	-61.6	3.8	7.46e-01	0	44	104	0	76	10412
2026-01-24 10:38:36.32	270.10	6.95	-52.9	-61.7	3.8	7.45e-01	0	44	104	0	76	10495
2026-01-24 10:38:37.33	270.32	6.98	-52.9	-61.7	3.8	7.43e-01	0	44	104	0	76	10515
2026-01-24 10:38:38.33	270.54	7.01	-53.1	-61.9	3.8	7.46e-01	0	44	104	0	76	10744
2026-01-24 10:38:39.34	270.76	7.03	-53.0	-61.8	3.8	7.46e-01	0	44	104	0	76	10624
2026-01-24 10:38:40.35	270.99	7.06	-53.1	-61.9	3.8	7.47e-01	0	44	104	0	76	10763
2026-01-24 10:38:41.36	271.21	7.08	-53.3	-62.1	3.8	7.45e-01	0	44	104	0	77	10394
2026-01-24 10:38:42.36	271.43	7.11	-53.3	-62.1	3.8	7.45e-01	0	44	104	0	77	10322
2026-01-24 10:38:43.37	271.66	7.13	-53.2	-62.0	3.8	7.45e-01	0	44	104	0	77	10283
2026-01-24 10:38:44.38	271.88	7.16	-53.3	-62.1	3.8	7.46e-01	0	44	104	0	77	10311
2026-01-24 10:38:45.39	272.11	7.18	-53.3	-62.2	3.8	7.46e-01	0	44	104	0	77	10427
2026-01-24 10:38:46.39	272.33	7.21	-53.3	-62.1	3.8	7.46e-01	0	44	104	0	77	10374
2026-01-24 10:38:47.40	272.56	7.23	-53.3	-62.1	3.8	7.44e-01	0	44	104	0	77	10340
2026-01-24 10:38:48.41	272.78	7.26	-53.3	-62.1	3.8	7.45e-01	0	44	104	0	77	10335
2026-01-24 10:38:49.42	273.01	7.28	-53.4	-62.2	3.8	7.45e-01	0	44	104	0	77	10418
2026-01-24 10:38:50.43	273.24	7.30	-53.3	-62.1	3.8	7.46e-01	0	44	104	0	77	10388
2026-01-24 10:38:51.43	273.47	7.33	-53.3	-62.1	3.8	7.45e-01	0	44	104	0	77	10371
2026-01-24 10:38:52.44	273.69	7.35	-53.3	-62.1	3.8	7.45e-01	0	44	104	0	77	10359
2026-01-24 10:38:53.45	273.92	7.37	-53.4	-62.2	3.8	7.46e-01	0	44	104	0	77	10482
2026-01-24 10:38:54.46	274.15	7.39	-53.3	-62.2	3.8	7.45e-01	0	44	104	0	77	10430
2026-01-24 10:38:55.47	274.38	7.42	-53.3	-62.1	3.8	7.44e-01	0	44	104	0	77	10331
2026-01-24 10:38:56.48	274.61	7.44	-53.3	-62.1	3.8	7.44e-01	0	44	104	0	77	10388
2026-01-24 10:38:57.49	274.84	7.46	-53.4	-62.2	3.8	7.46e-01	0	44	104	0	77	10449
2026-01-24 10:38:58.49	275.07	7.48	-53.3	-62.1	3.8	7.44e-01	0	44	104	0	77	10374
2026-01-24 10:38:59.50	275.31	7.50	-53.3	-62.1	3.8	7.46e-01	0	44	104	0	77	10338
2026-01-24 10:39:00.51	275.54	7.52	-53.3	-62.2	3.8	7.45e-01	0	44	104	0	77	10413
2026-01-24 10:39:01.52	275.77	7.54	-53.4	-62.2	3.8	7.45e-01	0	44	104	0	77	10462
2026-01-24 10:39:02.53	276.00	7.56	-53.3	-62.1	3.8	7.45e-01	0	44	104	0	77	10412
2026-01-24 10:39:03.54	276.24	7.58	-53.3	-62.1	3.8	7.46e-01	0	44	104	0	77	10368
2026-01-24 10:39:04.55	276.47	7.60	-53.4	-62.2	3.8	7.44e-01	0	44	104	0	77	10437
2026-01-24 10:39:05.55	276.70	7.62	-53.4	-62.2	3.8	7.46e-01	0	44	104	0	77	10508
2026-01-24 10:39:06.56	276.94	7.64	-53.4	-62.1	3.8	7.46e-01	0	44	104	0	77	10412
2026-01-24 10:39:07.57	277.17	7.65	-53.3	-62.1	3.8	7.46e-01	0	44	104	0	77	10390
2026-01-24 10:39:08.58	277.41	7.67	-53.4	-62.2	3.8	7.47e-01	0	44	104	0	77	10514
2026-01-24 10:39:09.59	277.64	7.69	-53.4	-62.2	3.8	7.44e-01	0	44	104	0	77	10489
2026-01-24 10:39:10.59	277.87	7.71	-53.4	-62.2	3.8	7.44e-01	0	44	104	0	77	10448
2026-01-24 10:39:11.60	278.11	7.72	-53.3	-62.1	3.8	7.44e-01	0	44	104	0	77	10369
2026-01-24 10:39:12.61	278.35	7.74	-53.4	-62.2	3.8	7.45e-01	0	44	104	0	77	10460
2026-01-24 10:39:13.62	278.58	7.75	-53.4	-62.2	3.8	7.45e-01	0	44	104	0	77	10505
2026-01-24 10:39:14.63	278.82	7.77	-53.4	-62.2	3.8	7.46e-01	0	44	104	0	77	10459
2026-01-24 10:39:15.64	279.06	7.78	-53.3	-62.1	3.8	7.45e-01	0	44	104	0	77	10380
2026-01-24 10:39:16.64	279.29	7.80	-53.4	-62.2	3.8	7.44e-01	0	44	104	0	77	10484
2026-01-24 10:39:17.65	279.53	7.81	-53.4	-62.3	3.8	7.45e-01	0	44	104	0	77	10554
2026-01-24 10:39:18.66	279.77	7.83	-53.4	-62.3	3.8	7.45e-01	0	44	104	0	77	10534
2026-01-24 10:39:19.67	280.01	7.84	-53.4	-62.2	3.8	7.45e-01	0	44	104	0	77	10460
2026-01-24 10:39:20.68	280.25	7.86	-53.5	-62.3	3.8	7.45e-01	0	44	104	0	77	10576
2026-01-24 10:39:21.69	280.49	7.87	-53.5	-62.3	3.8	7.45e-01	0	44	104	0	77	10589
2026-01-24 10:39:22.69	280.72	7.88	-53.4	-62.3	3.8	7.46e-01	0	44	104	0	77	10556
2026-01-24 10:39:23.70	280.96	7.89	-53.4	-62.2	3.8	7.46e-01	0	44	104	0	77	10436
2026-01-24 10:39:24.71	281.20	7.91	-53.5	-62.3	3.8	7.44e-01	0	44	104	0	77	10616
2026-01-24 10:39:25.72	281.44	7.92	-53.5	-62.3	3.8	7.44e-01	0	44	104	0	77	10609
2026-01-24 10:39:26.73	281.68	7.93	-53.5	-62.3	3.8	7.45e-01	0	44	104	0	77	10539
2026-01-24 10:39:27.73	281.92	7.94	-53.4	-62.2	3.8	7.46e-01	0	44	104	0	77	10484
2026-01-24 10:39:28.74	282.16	7.95	-53.6	-62.4	3.8	7.45e-01	0	44	104	0	77	10728
2026-01-24 10:39:29.75	282.40	7.96	-53.5	-62.3	3.8	7.46e-01	0	44	104	0	77	10640
2026-01-24 10:39:30.76	282.64	7.97	-53.5	-62.3	3.8	7.46e-01	0	44	104	0	77	10631
2026-01-24 10:39:31.76	282.88	7.98	-53.4	-62.2	3.8	7.44e-01	0	44	104	0	77	10515
2026-01-24 10:39:32.77	283.12	7.99	-53.6	-62.5	3.8	7.47e-01	0	44	104	0	77	10813
2026-01-24 10:39:33.78	283.36	8.00	-53.5	-62.4	3.8	7.45e-01	0	44	104	0	77	10661
2026-01-24 10:39:34.79	283.60	8.01	-53.5	-62.4	3.8	7.45e-01	0	44	104	0	77	10682
2026-01-24 10:39:35.80	283.85	8.01	-53.4	-62.3	3.8	7.46e-01	0	44	104	0	77	10534
2026-01-24 10:39:36.80	284.09	8.02	-53.7	-62.5	3.8	7.45e-01	0	44	104	0	77	10841
2026-01-24 10:39:37.81	284.33	8.03	-53.6	-62.4	3.8	7.46e-01	0	44	104	0	77	10748
2026-01-24 10:39:38.82	284.57	8.04	-53.6	-62.4	3.8	7.46e-01	0	44	104	0	77	10705
2026-01-24 10:39:39.83	284.81	8.04	-53.5	-62.3	3.8	7.45e-01	0	44	104	0	77	10577
2026-01-24 10:39:40.84	285.06	8.05	-53.7	-62.5	3.8	7.47e-01	0	44	104	0	77	10872
2026-01-24 10:39:41.84	285.30	8.06	-53.7	-62.5	3.8	7.46e-01	0	44	104	0	77	10786
2026-01-24 10:39:42.85	285.54	8.06	-53.7	-62.5	3.8	7.46e-01	0	44	104	0	77	10831
2026-01-24 10:39:43.86	285.78	8.07	-53.5	-62.4	3.8	7.44e-01	0	44	104	0	77	10673
2026-01-24 10:39:44.87	286.02	8.07	-53.8	-62.6	3.8	7.44e-01	0	44	104	0	78	10391
2026-01-24 10:39:45.88	286.27	8.07	-53.7	-62.6	3.8	7.45e-01	0	44	104	0	78	10307
2026-01-24 10:39:46.89	286.51	8.08	-53.7	-62.5	3.8	7.46e-01	0	44	104	0	78	10269
2026-01-24 10:39:47.90	286.75	8.08	-53.6	-62.4	3.8	7.44e-01	0	44	104	0	78	10128
2026-01-24 10:39:48.90	286.99	8.09	-53.8	-62.6	3.8	7.47e-01	0	44	104	0	78	10381
2026-01-24 10:39:49.91	287.24	8.09	-53.8	-62.6	3.8	7.45e-01	0	44	104	0	78	10325
2026-01-24 10:39:50.92	287.48	8.09	-53.8	-62.6	3.8	7.45e-01	0	44	104	0	78	10336
2026-01-24 10:39:51.93	287.72	8.09	-53.7	-62.5	3.8	7.47e-01	0	44	104	0	78	10235
2026-01-24 10:39:52.94	287.97	8.09	-53.8	-62.7	3.8	7.45e-01	0	44	104	0	78	10418
2026-01-24 10:39:53.95	288.21	8.10	-53.8	-62.6	3.8	7.45e-01	0	44	104	0	78	10343
2026-01-24 10:39:54.95	288.45	8.10	-53.8	-62.6	3.8	7.46e-01	0	44	104	0	78	10315
2026-01-24 10:39:55.96	288.70	8.10	-53.7	-62.5	3.8	7.44e-01	0	44	104	0	78	10269
2026-01-24 10:39:56.97	288.94	8.10	-53.8	-62.7	3.8	7.46e-01	0	44	104	0	78	10422
2026-01-24 10:39:57.98	289.18	8.10	-53.8	-62.6	3.8	7.44e-01	0	44	104	0	78	10357
2026-01-24 10:39:58.99	289.43	8.10	-53.8	-62.6	3.8	7.46e-01	0	44	104	0	78	10380
2026-01-24 10:39:59.99	289.67	8.10	-53.7	-62.6	3.8	7.45e-01	0	44	104	0	78	10307
2026-01-24 10:40:01.00	289.91	8.09	-53.8	-62.6	3.8	7.44e-01	0	44	104	0	78	10406
2026-01-24 10:40:02.01	290.15	8.09	-53.8	-62.7	3.8	7.46e-01	0	44	104	0	78	10421
2026-01-24 10:40:03.01	290.40	8.09	-53.8	-62.7	3.8	7.45e-01	0	44	104	0	78	10415
2026-01-24 10:40:04.02	290.64	8.09	-53.7	-62.6	3.8	7.46e-01	0	44	104	0	78	10336
2026-01-24 10:40:05.03	290.88	8.08	-53.8	-62.7	3.8	7.45e-01	0	44	104	0	78	10420
2026-01-24 10:40:06.04	291.12	8.08	-53.8	-62.6	3.8	7.45e-01	0	44	104	0	78	10376
2026-01-24 10:40:07.05	291.37	8.08	-53.8	-62.6	3.8	7.45e-01	0	44	104	0	78	10403
2026-01-24 10:40:08.05	291.61	8.07	-53.7	-62.5	3.8	7.46e-01	0	44	104	0	78	10284
2026-01-24 10:40:09.06	291.85	8.07	-53.8	-62.6	3.8	7.46e-01	0	44	104	0	78	10400
2026-01-24 10:40:10.07	292.09	8.06	-53.8	-62.6	3.8	7.45e-01	0	44	104	0	78	10304
2026-01-24 10:40:11.08	292.34	8.06	-53.8	-62.6	3.8	7.45e-01	0	44	104	0	78	10398
2026-01-24 10:40:12.09	292.58	8.05	-53.7	-62.5	3.8	7.45e-01	0	44	104	0	78	10278
2026-01-24 10:40:13.09	292.82	8.05	-53.8	-62.6	3.8	7.46e-01	0	44	104	0	78	10347
2026-01-24 10:40:14.10	293.06	8.04	-53.8	-62.6	3.8	7.46e-01	0	44	104	0	78	10313
2026-01-24 10:40:15.11	293.30	8.03	-53.8	-62.6	3.8	7.44e-01	0	44	104	0	78	10334
2026-01-24 10:40:16.12	293.55	8.03	-53.7	-62.5	3.8	7.45e-01	0	44	104	0	78	10243
2026-01-24 10:40:17.13	293.79	8.02	-53.8	-62.6	3.8	7.45e-01	0	44	104	0	78	10389
2026-01-24 10:40:18.13	294.03	8.01	-53.7	-62.5	3.8	7.45e-01	0	44	104	0	78	10264
2026-01-24 10:40:19.14	294.27	8.00	-53.8	-62.6	3.8	7.44e-01	0	44	104	0	78	10351
2026-01-24 10:40:20.15	294.51	8.00	-53.7	-62.4	3.8	7.45e-01	0	44	104	0	78	10173
2026-01-24 10:40:21.16	294.75	7.99	-53.8	-62.6	3.8	7.46e-01	0	44	104	0	78	10356
2026-01-24 10:40:22.17	294.99	7.98	-53.7	-62.5	3.8	7.45e-01	0	44	104	0	78	10283
2026-01-24 10:40:23.18	295.23	7.97	-53.7	-62.6	3.8	7.46e-01	0	44	104	0	78	10295
2026-01-24 10:40:24.19	295.47	7.96	-53.7	-62.5	3.8	7.45e-01	0	44	104	0	78	10193
2026-01-24 10:40:25.19	295.71	7.95	-53.8	-62.6	3.8	7.46e-01	0	44	104	0	78	10325
2026-01-24 10:40:26.20	295.95	7.94	-53.7	-62.5	3.8	7.45e-01	0	44	104	0	78	10238
2026-01-24 10:40:27.20	296.19	7.93	-53.7	-62.5	3.8	7.46e-01	0	44	104	0	78	10245
2026-01-24 10:40:28.21	296.43	7.91	-53.6	-62.4	3.8	7.45e-01	0	44	104	0	78	10118
2026-01-24 10:40:29.22	296.67	7.90	-53.7	-62.5	3.8	7.47e-01	0	44	104	0	78	10229
2026-01-24 10:40:30.23	296.91	7.89	-53.7	-62.5	3.8	7.44e-01	0	44	104	0	78	10221
2026-01-24 10:40:31.24	297.15	7.88	-53.6	-62.4	3.8	7.45e-01	0	44	104	0	78	10165
2026-01-24 10:40:32.25	297.38	7.87	-53.6	-62.4	3.8	7.46e-01	0	44	104	0	78	10093
2026-01-24 10:40:33.25	297.62	7.85	-53.7	-62.5	3.8	7.45e-01	0	44	104	0	78	10275
2026-01-24 10:40:34.26	297.86	7.84	-53.6	-62.5	3.8	7.45e-01	0	44	104	0	78	10179
2026-01-24 10:40:35.27	298.10	7.82	-53.6	-62.5	3.8	7.45e-01	0	44	104	0	78	10207
2026-01-24 10:40:36.28	298.33	7.81	-53.6	-62.4	3.8	7.46e-01	0	44	104	0	78	10149
2026-01-24 10:40:37.29	298.57	7.80	-53.7	-62.5	3.8	7.44e-01	0	44	104	0	78	10267
2026-01-24 10:40:38.29	298.81	7.78	-53.6	-62.5	3.8	7.46e-01	0	44	104	0	78	10180
2026-01-24 10:40:39.30	299.04	7.77	-53.7	-62.5	3.8	7.45e-01	0	44	104	0	78	10213
2026-01-24 10:40:40.31	299.28	7.75	-53.7	-62.5	3.8	7.45e-01	0	44	104	0	78	10230
2026-01-24 10:40:41.32	299.52	7.73	-53.7	-62.6	3.8	7.43e-01	0	44	104	0	78	10299
2026-01-24 10:40:42.33	299.75	7.72	-53.7	-62.5	3.8	7.44e-01	0	44	104	0	78	10214
2026-01-24 10:40:43.33	299.98	7.70	-53.7	-62.5	3.8	7.44e-01	0	44	104	0	78	10241
2026-01-24 10:40:44.34	300.22	7.68	-53.6	-62.5	3.8	7.46e-01	0	44	104	0	78	10181
2026-01-24 10:40:45.35	300.45	7.67	-53.7	-62.6	3.8	7.46e-01	0	44	104	0	78	10302
2026-01-24 10:40:46.36	300.69	7.65	-53.6	-62.4	3.8	7.46e-01	0	44	104	0	78	10172
2026-01-24 10:40:47.37	300.92	7.63	-53.6	-62.4	3.8	7.44e-01	0	44	104	0	78	10144
2026-01-24 10:40:48.38	301.16	7.61	-53.6	-62.5	3.8	7.45e-01	0	44	104	0	78	10179
2026-01-24 10:40:49.38	301.39	7.59	-53.7	-62.5	3.8	7.45e-01	0	44	104	0	78	10248
2026-01-24 10:40:50.39	301.62	7.58	-53.6	-62.4	3.8	7.46e-01	0	44	104	0	78	10129
2026-01-24 10:40:51.40	301.85	7.56	-53.6	-62.4	3.8	7.45e-01	0	44	104	0	78	10088
2026-01-24 10:40:52.41	302.08	7.54	-53.6	-62.4	3.8	7.46e-01	0	44	104	0	78	10092
2026-01-24 10:40:53.42	302.32	7.52	-53.7	-62.5	3.8	7.46e-01	0	44	104	0	78	10239
2026-01-24 10:40:54.43	302.55	7.50	-53.6	-62.4	3.8	7.45e-01	0	44	104	0	78	10094
2026-01-24 10:40:55.43	302.78	7.48	-53.5	-62.4	3.8	7.45e-01	0	44	104	0	78	10074
2026-01-24 10:40:56.44	303.01	7.46	-53.5	-62.4	3.8	7.46e-01	0	44	104	0	78	10075
2026-01-24 10:40:57.45	303.24	7.43	-53.6	-62.4	3.8	7.46e-01	0	44	104	0	78	10124
2026-01-24 10:40:58.46	303.47	7.41	-53.5	-62.3	3.8	7.45e-01	0	44	104	0	78	10003
2026-01-24 10:40:59.47	303.70	7.39	-53.5	-62.3	3.8	7.45e-01	0	44	104	0	78	10025
2026-01-24 10:41:00.48	303.93	7.37	-53.5	-62.4	3.8	7.44e-01	0	44	104	0	78	10098
2026-01-24 10:41:01.49	304.15	7.35	-53.6	-62.4	3.8	7.46e-01	0	44	104	0	78	10140
2026-01-24 10:41:02.49	304.38	7.32	-53.5	-62.4	3.8	7.46e-01	0	44	104	0	78	10081
2026-01-24 10:41:03.50	304.61	7.30	-53.5	-62.3	3.8	7.46e-01	0	44	104	0	78	9976
2026-01-24 10:41:04.51	304.83	7.28	-53.5	-62.3	3.8	7.44e-01	0	44	104	0	78	10010
2026-01-24 10:41:05.52	305.06	7.25	-53.5	-62.3	3.8	7.44e-01	0	44	104	0	78	10049
2026-01-24 10:41:06.53	305.29	7.23	-53.4	-62.2	3.8	7.44e-01	0	44	104	0	78	9943
2026-01-24 10:41:07.53	305.51	7.21	-53.4	-62.2	3.8	7.45e-01	0	44	104	0	78	9941
2026-01-24 10:41:08.54	305.74	7.18	-53.5	-62.3	3.8	7.45e-01	0	44	104	0	78	10025
2026-01-24 10:41:09.55	305.96	7.16	-53.5	-62.3	3.8	7.45e-01	0	44	104	0	78	9987
2026-01-24 10:41:10.55	306.18	7.13	-53.4	-62.2	3.8	7.44e-01	0	44	104	0	78	9933
2026-01-24 10:41:11.56	306.41	7.11	-53.4	-62.2	3.8	7.46e-01	0	44	104	0	78	9884
2026-01-24 10:41:12.57	306.63	7.08	-53.5	-62.3	3.8	7.46e-01	0	44	104	0	78	10004
2026-01-24 10:41:13.58	306.85	7.05	-53.4	-62.3	3.8	7.46e-01	0	44	104	0	78	9992
2026-01-24 10:41:14.59	307.07	7.03	-53.4	-62.2	3.8	7.45e-01	0	44	104	0	78	9923
2026-01-24 10:41:15.59	307.29	7.00	-53.4	-62.2	3.8	7.46e-01	0	44	104	0	78	9899
2026-01-24 10:41:16.60	307.52	6.97	-53.4	-62.3	3.8	7.43e-01	0	44	104	0	78	9956
2026-01-24 10:41:17.61	307.74	6.95	-53.4	-62.2	3.8	7.45e-01	0	44	104	0	78	9932
2026-01-24 10:41:18.62	307.96	6.92	-53.4	-62.2	3.8	7.45e-01	0	44	104	0	78	9864
2026-01-24 10:41:19.63	308.18	6.89	-53.3	-62.2	3.8	7.47e-01	0	44	104	0	78	9849
2026-01-24 10:41:20.64	308.40	6.87	-53.4	-62.3	3.8	7.46e-01	0	44	104	0	78	9972
2026-01-24 10:41:21.65	308.61	6.84	-53.4	-62.2	3.8	7.45e-01	0	44	104	0	78	9900
2026-01-24 10:41:22.65	308.83	6.81	-53.3	-62.2	3.8	7.46e-01	0	44	104	0	78	9836
2026-01-24 10:41:23.66	309.05	6.78	-53.3	-62.1	3.8	7.46e-01	0	44	104	0	78	9799
2026-01-24 10:41:24.67	309.27	6.75	-53.4	-62.2	3.8	7.45e-01	0	44	104	0	78	9920
2026-01-24 10:41:25.68	309.48	6.72	-53.4	-62.2	3.8	7.47e-01	0	44	104	0	78	9844
2026-01-24 10:41:26.69	309.70	6.69	-53.3	-62.1	3.8	7.45e-01	0	44	104	0	78	9826
2026-01-24 10:41:27.69	309.91	6.66	-53.3	-62.1	3.8	7.45e-01	0	44	104	0	78	9767
2026-01-24 10:41:28.70	310.13	6.63	-53.4	-62.2	3.8	7.45e-01	0	44	104	0	78	9925
2026-01-24 10:41:29.71	310.34	6.60	-53.3	-62.2	3.8	7.45e-01	0	44	104	0	78	9835
2026-01-24 10:41:30.72	310.56	6.57	-53.3	-62.1	3.8	7.46e-01	0	44	104	0	78	9793
2026-01-24 10:41:31.73	310.77	6.54	-53.3	-62.1	3.8	7.46e-01	0	44	104	0	78	9755
2026-01-24 10:41:32.73	310.98	6.51	-53.4	-62.2	3.8	7.46e-01	0	44	104	0	78	9901
2026-01-24 10:41:33.74	311.19	6.48	-53.3	-62.1	3.8	7.45e-01	0	44	104	0	78	9828
2026-01-24 10:41:34.75	311.40	6.45	-53.3	-62.1	3.8	7.46e-01	0	44	104	0	78	9727
2026-01-24 10:41:35.76	311.61	6.42	-53.2	-62.0	3.8	7.46e-01	0	44	104	0	78	9691
2026-01-24 10:41:36.76	311.82	6.39	-53.3	-62.1	3.8	7.43e-01	0	44	104	0	78	9827
2026-01-24 10:41:37.77	312.03	6.36	-53.2	-62.1	3.8	7.45e-01	0	44	104	0	78	9723
2026-01-24 10:41:38.78	312.24	6.32	-53.2	-62.0	3.8	7.45e-01	0	44	104	0	78	9679
2026-01-24 10:41:39.79	312.45	6.29	-53.2	-62.0	3.8	7.45e-01	0	44	104	0	78	9643
2026-01-24 10:41:40.80	312.66	6.26	-53.3	-62.1	3.8	7.45e-01	0	44	104	0	78	9808
2026-01-24 10:41:41.80	312.87	6.23	-53.2	-62.0	3.8	7.45e-01	0	44	104	0	78	9673
2026-01-24 10:41:42.81	313.07	6.19	-53.2	-62.0	3.8	7.45e-01	0	44	104	0	78	9656
2026-01-24 10:41:43.82	313.28	6.16	-53.1	-62.0	3.8	7.44e-01	0	44	104	0	78	9633
2026-01-24 10:41:44.83	313.49	6.13	-53.3	-62.1	3.8	7.45e-01	0	44	104	0	78	9792
2026-01-24 10:41:45.84	313.69	6.09	-53.2	-62.0	3.8	7.44e-01	0	44	104	0	78	9676
2026-01-24 10:41:46.85	313.90	6.06	-53.2	-62.0	3.8	7.44e-01	0	44	104	0	78	9618
2026-01-24 10:41:47.86	314.10	6.02	-53.1	-61.9	3.8	7.46e-01	0	44	104	0	78	9568
2026-01-24 10:41:48.86	314.30	5.99	-53.3	-62.1	3.8	7.46e-01	0	44	104	0	78	9745
2026-01-24 10:41:49.87	314.50	5.96	-53.2	-62.0	3.8	7.45e-01	0	44	104	0	78	9612
2026-01-24 10:41:50.88	314.71	5.92	-53.1	-62.0	3.8	7.45e-01	0	44	104	0	78	9634
2026-01-24 10:41:51.89	314.91	5.89	-53.1	-61.9	3.8	7.45e-01	0	44	104	0	78	9541
2026-01-24 10:41:52.89	315.11	5.85	-53.3	-62.1	3.8	7.45e-01	0	44	104	0	78	9781
2026-01-24 10:41:53.90	315.31	5.82	-53.2	-61.9	3.8	7.46e-01	0	44	104	0	78	9604
2026-01-24 10:41:54.91	315.51	5.78	-53.1	-61.9	3.8	7.44e-01	0	44	104	0	78	9589
2026-01-24 10:41:55.92	315.71	5.75	-53.1	-61.9	3.8	7.46e-01	0	44	104	0	78	9524
2026-01-24 10:41:56.93	315.91	5.71	-53.3	-62.1	3.8	7.44e-01	0	44	104	0	78	9762
2026-01-24 10:41:57.93	316.10	5.68	-53.1	-61.9	3.8	7.45e-01	0	44	104	0	78	9604
2026-01-24 10:41:58.94	316.30	5.64	-53.1	-61.9	3.8	7.46e-01	0	44	104	0	78	9571
2026-01-24 10:41:59.95	316.50	5.60	-53.0	-61.9	3.8	7.46e-01	0	44	104	0	78	9516
2026-01-24 10:42:00.96	316.69	5.57	-53.2	-62.0	3.8	7.45e-01	0	44	104	0	78	9710
2026-01-24 10:42:01.97	316.89	5.53	-53.1	-61.9	3.8	7.46e-01	0	44	104	0	78	9589
2026-01-24 10:42:02.98	317.09	5.49	-53.1	-61.9	3.8	7.45e-01	0	44	104	0	78	9539
2026-01-24 10:42:03.99	317.28	5.46	-53.0	-61.8	3.8	7.44e-01	0	44	104	0	78	9444
2026-01-24 10:42:05.00	317.47	5.42	-53.2	-62.0	3.8	7.45e-01	0	44	104	0	78	9651
2026-01-24 10:42:06.01	317.67	5.38	-53.1	-61.9	3.8	7.44e-01	0	44	104	0	78	9503
2026-01-24 10:42:07.01	317.86	5.34	-53.0	-61.9	3.8	7.46e-01	0	44	104	0	78	9531
2026-01-24 10:42:08.02	318.05	5.31	-52.9	-61.7	3.8	7.46e-01	0	44	104	0	77	9943
2026-01-24 10:42:09.03	318.24	5.27	-53.1	-61.9	3.8	7.45e-01	0	44	104	0	77	10168
2026-01-24 10:42:10.04	318.43	5.23	-53.0	-61.8	3.8	7.46e-01	0	44	104	0	77	10037
2026-01-24 10:42:11.05	318.62	5.19	-53.0	-61.8	3.8	7.45e-01	0	44	104	0	77	10002
2026-01-24 10:42:12.05	318.81	5.16	-52.9	-61.7	3.8	7.46e-01	0	44	104	0	77	9912
2026-01-24 10:42:13.06	319.00	5.12	-53.1	-62.0	3.8	7.46e-01	0	44	104	0	77	10182
2026-01-24 10:42:14.07	319.19	5.08	-53.0	-61.8	3.8	7.47e-01	0	44	104	0	77	10008
2026-01-24 10:42:15.08	319.38	5.04	-53.0	-61.8	3.8	7.47e-01	0	44	104	0	77	10033
2026-01-24 10:42:16.09	319.56	5.00	-52.9	-61.7	3.8	7.44e-01	0	44	104	0	77	9922
2026-01-24 10:42:17.09	319.75	4.96	-53.1	-61.9	3.8	7.45e-01	0	44	104	0	77	10169
2026-01-24 10:42:18.10	319.93	4.92	-53.5	-62.3	3.8	7.45e-01	0	44	104	0	77	10570
2026-01-24 10:42:19.11	320.12	4.89	-53.8	-62.6	3.8	7.45e-01	0	44	104	0	78	10335
2026-01-24 10:42:20.12	320.30	4.85	-54.0	-62.8	3.8	7.46e-01	0	44	104	0	78	10648
2026-01-24 10:42:21.13	320.49	4.81	-54.2	-63.1	3.8	7.44e-01	0	44	104	0	78	10931
2026-01-24 10:42:22.14	320.67	4.77	-54.4	-63.2	3.8	7.45e-01	0	44	104	0	79	10489
2026-01-24 10:42:23.14	320.85	4.73	-54.5	-63.3	3.8	7.45e-01	0	44	104	0	79	10638
2026-01-24 10:42:24.15	321.04	4.69	-54.7	-63.5	3.8	7.43e-01	0	44	104	0	79	10856
2026-01-24 10:42:25.16	321.22	4.65	-54.7	-63.5	3.8	7.43e-01	0	44	104	0	80	10252
2026-01-24 10:42:26.17	321.40	4.61	-54.8	-63.6	3.8	7.46e-01	0	44	104	0	80	10306
2026-01-24 10:42:27.18	321.58	4.57	-54.9	-63.7	3.8	7.45e-01	0	44	104	0	80	10459
2026-01-24 10:42:28.19	321.76	4.53	-54.9	-63.8	3.8	7.44e-01	0	44	104	0	80	10542
2026-01-24 10:42:29.20	321.94	4.49	-55.0	-63.8	3.8	7.44e-01	0	44	104	0	80	10639
2026-01-24 10:42:30.21	322.12	4.45	-55.0	-63.8	3.8	7.46e-01	0	44	104	0	80	10636
2026-01-24 10:42:31.22	322.29	4.41	-55.1	-63.9	3.8	7.45e-01	0	44	104	0	80	10749
2026-01-24 10:42:32.23	322.47	4.37	-55.1	-63.9	3.8	7.45e-01	0	44	104	0	80	10691
2026-01-24 10:42:33.24	322.65	4.33	-55.2	-64.0	3.8	7.47e-01	0	44	104	0	80	10826
2026-01-24 10:42:34.24	322.82	4.28	-55.2	-64.0	3.8	7.46e-01	0	44	104	0	81	10291
2026-01-24 10:42:35.25	323.00	4.24	-55.2	-64.0	3.8	7.46e-01	0	44	104	0	81	10288
2026-01-24 10:42:36.26	323.17	4.20	-55.1	-63.9	3.8	7.43e-01	0	44	104	0	81	10154
2026-01-24 10:42:37.27	323.35	4.16	-55.1	-63.9	3.8	7.46e-01	0	44	104	0	81	10135
2026-01-24 10:42:38.28	323.52	4.12	-55.0	-63.9	3.8	7.45e-01	0	44	104	0	81	10070
2026-01-24 10:42:39.29	323.69	4.08	-54.9	-63.8	3.8	7.45e-01	0	44	104	0	81	9961
2026-01-24 10:42:40.29	323.86	4.04	-54.8	-63.7	3.8	7.45e-01	0	44	104	0	81	9839
2026-01-24 10:42:41.30	324.04	4.00	-54.8	-63.6	3.8	7.45e-01	0	44	104	0	81	9822
2026-01-24 10:42:42.31	324.21	3.95	-54.8	-63.6	3.8	7.47e-01	0	44	104	0	81	9810
2026-01-24 10:42:43.32	324.38	3.91	-54.8	-63.7	3.8	7.46e-01	0	44	104	0	81	9839
2026-01-24 10:42:44.33	324.55	3.87	-54.8	-63.6	3.8	7.45e-01	0	44	104	0	81	9783
2026-01-24 10:42:45.33	324.72	3.83	-54.7	-63.5	3.8	7.44e-01	0	44	104	0	81	9706
2026-01-24 10:42:46.34	324.89	3.79	-54.7	-63.5	3.8	7.44e-01	0	44	104	0	81	9692
2026-01-24 10:42:47.35	325.05	3.75	-54.7	-63.6	3.8	7.45e-01	0	44	104	0	81	9727
2026-01-24 10:42:48.36	325.22	3.70	-54.7	-63.5	3.8	7.46e-01	0	44	104	0	81	9675
2026-01-24 10:42:49.37	325.39	3.66	-54.7	-63.5	3.8	7.45e-01	0	44	104	0	81	9681
2026-01-24 10:42:50.37	325.55	3.62	-54.7	-63.5	3.8	7.44e-01	0	44	104	0	81	9632
2026-01-24 10:42:51.38	325.72	3.58	-54.7	-63.5	3.8	7.45e-01	0	44	104	0	81	9634
2026-01-24 10:42:52.39	325.88	3.53	-54.7	-63.5	3.8	7.44e-01	0	44	104	0	81	9628
2026-01-24 10:42:53.40	326.05	3.49	-54.7	-63.5	3.8	7.46e-01	0	44	104	0	81	9661
2026-01-24 10:42:54.41	326.21	3.45	-54.6	-63.5	3.8	7.46e-01	0	44	104	0	81	9651
2026-01-24 10:42:55.41	326.37	3.41	-54.7	-63.5	3.8	7.45e-01	0	44	104	0	81	9642
2026-01-24 10:42:56.42	326.54	3.36	-54.7	-63.5	3.8	7.46e-01	0	44	104	0	81	9618
2026-01-24 10:42:57.43	326.70	3.32	-54.6	-63.5	3.8	7.44e-01	0	44	104	0	81	9635
2026-01-24 10:42:58.44	326.86	3.28	-54.6	-63.5	3.8	7.45e-01	0	44	104	0	81	9628
2026-01-24 10:42:59.45	327.02	3.24	-54.6	-63.5	3.8	7.43e-01	0	44	104	0	81	9654
2026-01-24 10:43:00.46	327.18	3.19	-54.6	-63.5	3.8	7.44e-01	0	44	104	0	81	9630
2026-01-24 10:43:01.47	327.34	3.15	-54.6	-63.5	3.8	7.44e-01	0	44	104	0	81	9666
2026-01-24 10:43:02.48	327.50	3.11	-54.6	-63.4	3.8	7.46e-01	0	44	104	0	81	9602
2026-01-24 10:43:03.49	327.66	3.06	-54.6	-63.4	3.8	7.45e-01	0	44	104	0	81	9564
2026-01-24 10:43:04.49	327.82	3.02	-54.6	-63.4	3.8	7.44e-01	0	44	104	0	81	9569
2026-01-24 10:43:05.50	327.98	2.98	-54.6	-63.4	3.8	7.45e-01	0	44	104	0	81	9555
2026-01-24 10:43:06.51	328.13	2.93	-54.6	-63.4	3.8	7.45e-01	0	44	104	0	81	9542
2026-01-24 10:43:07.52	328.29	2.89	-54.6	-63.4	3.8	7.45e-01	0	44	104	0	81	9502
2026-01-24 10:43:08.53	328.45	2.85	-54.6	-63.4	3.8	7.45e-01	0	44	104	0	81	9532
2026-01-24 10:43:09.53	328.60	2.80	-54.5	-63.4	3.8	7.46e-01	0	44	104	0	81	9511
2026-01-24 10:43:10.54	328.75	2.76	-54.5	-63.4	3.8	7.46e-01	0	44	104	0	81	9523
2026-01-24 10:43:11.55	328.91	2.72	-54.6	-63.4	3.8	7.45e-01	0	44	104	0	81	9557
2026-01-24 10:43:12.56	329.06	2.67	-54.6	-63.5	3.8	7.45e-01	0	44	104	0	81	9615
2026-01-24 10:43:13.57	329.21	2.63	-54.6	-63.4	3.8	7.46e-01	0	44	104	0	81	9518
2026-01-24 10:43:14.58	329.37	2.58	-54.5	-63.4	3.8	7.46e-01	0	44	104	0	81	9550
2026-01-24 10:43:15.59	329.52	2.54	-54.6	-63.4	3.8	7.46e-01	0	44	104	0	81	9525
2026-01-24 10:43:16.60	329.67	2.50	-54.5	-63.4	3.8	7.45e-01	0	44	104	0	81	9509
2026-01-24 10:43:17.60	329.82	2.45	-54.5	-63.4	3.8	7.44e-01	0	44	104	0	81	9511
2026-01-24 10:43:18.61	329.97	2.41	-54.5	-63.4	3.8	7.44e-01	0	44	104	0	81	9497
2026-01-24 10:43:19.62	330.12	2.37	-54.5	-63.3	3.8	7.45e-01	0	44	104	0	81	9491
2026-01-24 10:43:20.63	330.27	2.32	-54.5	-63.3	3.8	7.44e-01	0	44	104	0	81	9492
2026-01-24 10:43:21.64	330.42	2.28	-54.5	-63.4	3.8	7.45e-01	0	44	104	0	81	9500
2026-01-24 10:43:22.65	330.57	2.23	-54.5	-63.3	3.8	7.47e-01	0	44	104	0	81	9491
2026-01-24 10:43:23.65	330.71	2.19	-54.5	-63.4	3.8	7.47e-01	0	44	104	0	81	9501
2026-01-24 10:43:24.66	330.86	2.15	-54.5	-63.3	3.8	7.44e-01	0	44	104	0	81	9491
2026-01-24 10:43:25.67	331.00	2.10	-54.5	-63.3	3.8	7.46e-01	0	44	104	0	81	9475
2026-01-24 10:43:26.68	331.15	2.06	-54.5	-63.3	3.8	7.45e-01	0	44	104	0	81	9492
2026-01-24 10:43:27.69	331.30	2.01	-54.5	-63.4	3.8	7.45e-01	0	44	104	0	81	9544
2026-01-24 10:43:28.70	331.44	1.97	-54.5	-63.3	3.8	7.45e-01	0	44	104	0	81	9475
2026-01-24 10:43:29.71	331.58	1.92	-54.5	-63.3	3.8	7.44e-01	0	44	104	0	81	9471

#Closed at: 2026-01-24 10:43:30
#Recorded file [0 MB]: D:/lorett/data/31041_260124_133626.dat