passes_logs/2026/01/24/R3.2S_Murmansk/R3.2S_Murmansk__20260124_213327_NOAA_21_JPSS-2_rec.log

#Pass ID: 20260124_213327_NOAA 21 (JPSS-2)
#Satellite: NOAA 21 (JPSS-2)
#Configuration: NOAA-21
#almurnet v.1.7.20251203
#Start time: 2026-01-24 21:33:27

#Version: 2.2.20231116
#Station: R3.2S_Murmansk
#Location: 33.079688 lon 68.888172 lat
#TLE: 1 54234U 22150A   26024.45772595  .00000201  00000+0  11607-3 0  9996
#TLE: 2 54234  98.7508 325.2435 0000728 220.7365 139.3757 14.19538765166156

#Time	Az	El	Level	Level2	SNR	BER	BlckErr	Temp	State	Recorded	gain1	gain2
2026-01-24 21:33:27.48	18.25	1.98	-53.3	-66.0	3.8	1.49e+00	0	41	0	0	77	16254
2026-01-24 21:33:28.48	18.34	2.03	-53.3	-66.1	3.8	1.49e+00	0	41	104	0	77	16374
2026-01-24 21:33:29.48	18.43	2.08	-53.3	-66.1	3.8	1.49e+00	0	41	104	0	77	16375
2026-01-24 21:33:30.49	18.52	2.12	-53.3	-66.1	3.8	1.49e+00	0	41	104	0	77	16319
2026-01-24 21:33:31.50	18.61	2.17	-53.3	-66.1	3.8	1.49e+00	0	41	104	0	77	16349
2026-01-24 21:33:32.51	18.70	2.22	-53.3	-66.0	3.8	1.49e+00	0	41	104	0	77	16271
2026-01-24 21:33:33.52	18.80	2.27	-53.3	-66.1	3.8	1.49e+00	0	41	104	0	77	16323
2026-01-24 21:33:34.52	18.89	2.32	-53.3	-66.0	3.8	1.49e+00	0	41	104	0	77	16270
2026-01-24 21:33:35.53	18.98	2.36	-53.3	-66.1	3.8	1.49e+00	0	41	104	0	77	16335
2026-01-24 21:33:36.54	19.08	2.41	-53.3	-66.0	3.8	1.49e+00	0	41	104	0	77	16311
2026-01-24 21:33:37.55	19.17	2.46	-53.3	-66.1	3.8	1.49e+00	0	41	104	0	77	16349
2026-01-24 21:33:38.55	19.26	2.51	-53.3	-66.1	3.8	1.49e+00	0	41	104	0	77	16331
2026-01-24 21:33:39.56	19.36	2.56	-53.3	-66.1	3.8	1.49e+00	0	41	104	0	77	16325
2026-01-24 21:33:40.57	19.45	2.60	-53.3	-66.0	3.8	1.49e+00	0	41	104	0	77	16261
2026-01-24 21:33:41.58	19.55	2.65	-53.3	-66.0	3.8	1.49e+00	0	41	104	0	77	16288
2026-01-24 21:33:42.59	19.65	2.70	-53.3	-66.0	3.8	1.49e+00	0	42	104	0	77	16254
2026-01-24 21:33:43.60	19.74	2.75	-53.3	-66.0	3.8	1.49e+00	0	42	104	0	77	16300
2026-01-24 21:33:44.60	19.84	2.80	-53.3	-66.0	3.8	1.49e+00	0	41	104	0	77	16283
2026-01-24 21:33:45.61	19.93	2.85	-53.3	-66.0	3.8	1.49e+00	0	42	104	0	77	16259
2026-01-24 21:33:46.62	20.03	2.89	-53.3	-66.0	3.8	1.49e+00	0	42	104	0	77	16273
2026-01-24 21:33:47.63	20.13	2.94	-53.3	-66.1	3.8	1.49e+00	0	42	104	0	77	16349
2026-01-24 21:33:48.64	20.22	2.99	-53.3	-66.0	3.8	1.49e+00	0	42	104	0	77	16289
2026-01-24 21:33:49.64	20.32	3.04	-53.3	-66.0	3.8	1.49e+00	0	42	104	0	77	16286
2026-01-24 21:33:50.65	20.42	3.09	-53.3	-66.0	3.8	1.49e+00	0	42	104	0	77	16282
2026-01-24 21:33:51.66	20.52	3.14	-53.3	-66.1	3.8	1.49e+00	0	42	104	0	77	16326
2026-01-24 21:33:52.67	20.62	3.18	-53.3	-66.0	3.8	1.49e+00	0	42	104	0	77	16303
2026-01-24 21:33:53.68	20.72	3.23	-53.3	-66.0	3.8	1.49e+00	0	42	104	0	77	16258
2026-01-24 21:33:54.69	20.81	3.28	-53.3	-66.1	3.8	1.49e+00	0	42	104	0	77	16348
2026-01-24 21:33:55.70	20.91	3.33	-53.3	-66.0	3.8	1.49e+00	0	42	104	0	77	16266
2026-01-24 21:33:56.70	21.01	3.38	-53.3	-66.0	3.8	1.49e+00	0	42	104	0	77	16289
2026-01-24 21:33:57.71	21.11	3.43	-53.3	-66.0	3.8	1.49e+00	0	42	104	0	77	16306
2026-01-24 21:33:58.72	21.21	3.47	-53.3	-66.1	3.8	1.49e+00	0	42	104	0	77	16321
2026-01-24 21:33:59.73	21.31	3.52	-53.3	-66.0	3.8	1.49e+00	0	42	104	0	77	16272
2026-01-24 21:34:00.74	21.42	3.57	-53.3	-66.1	3.8	1.49e+00	0	42	104	0	77	16334
2026-01-24 21:34:01.74	21.52	3.62	-53.3	-66.1	3.8	1.49e+00	0	42	104	0	77	16318
2026-01-24 21:34:02.75	21.62	3.67	-53.3	-66.1	3.8	1.49e+00	0	42	104	0	77	16337
2026-01-24 21:34:03.76	21.72	3.72	-53.3	-66.0	3.8	1.49e+00	0	42	104	0	77	16300
2026-01-24 21:34:04.77	21.82	3.77	-53.3	-66.0	3.8	1.49e+00	0	42	104	0	77	16313
2026-01-24 21:34:05.77	21.92	3.81	-53.3	-66.1	3.8	1.49e+00	0	42	104	0	77	16329
2026-01-24 21:34:06.78	22.03	3.86	-53.3	-66.0	3.8	1.49e+00	0	42	104	0	77	16284
2026-01-24 21:34:07.79	22.13	3.91	-53.3	-66.0	3.8	1.49e+00	0	42	104	0	77	16256
2026-01-24 21:34:08.80	22.23	3.96	-53.3	-66.0	3.8	1.49e+00	0	42	104	0	77	16292
2026-01-24 21:34:09.81	22.34	4.01	-53.3	-66.0	3.8	1.49e+00	0	42	104	0	77	16314
2026-01-24 21:34:10.81	22.44	4.06	-53.3	-66.1	3.8	1.49e+00	0	42	104	0	77	16327
2026-01-24 21:34:11.82	22.55	4.11	-53.3	-66.1	3.8	1.49e+00	0	42	104	0	77	16344
2026-01-24 21:34:12.83	22.65	4.16	-53.3	-66.0	3.8	1.49e+00	0	42	104	0	77	16298
2026-01-24 21:34:13.84	22.76	4.20	-53.3	-66.0	3.8	1.49e+00	0	42	104	0	77	16281
2026-01-24 21:34:14.85	22.86	4.25	-53.3	-66.0	3.8	1.49e+00	0	42	104	0	77	16301
2026-01-24 21:34:15.86	22.97	4.30	-53.3	-66.0	3.8	1.49e+00	0	42	104	0	77	16300
2026-01-24 21:34:16.86	23.07	4.35	-53.3	-66.1	3.8	1.49e+00	0	42	104	0	77	16334
2026-01-24 21:34:17.87	23.18	4.40	-53.3	-66.0	3.8	1.49e+00	0	42	104	0	77	16275
2026-01-24 21:34:18.88	23.29	4.45	-53.3	-66.0	3.8	1.49e+00	0	42	104	0	77	16295
2026-01-24 21:34:19.88	23.39	4.50	-53.3	-66.1	3.8	1.49e+00	0	42	104	0	77	16315
2026-01-24 21:34:20.90	23.50	4.55	-53.3	-66.0	3.8	1.49e+00	0	42	104	0	77	16280
2026-01-24 21:34:21.90	23.61	4.59	-53.3	-66.1	3.8	1.49e+00	0	42	104	0	77	16365
2026-01-24 21:34:22.91	23.72	4.64	-53.3	-66.1	3.8	1.49e+00	0	42	104	0	77	16349
2026-01-24 21:34:23.91	23.83	4.69	-53.3	-66.1	3.8	1.49e+00	0	42	104	0	77	16337
2026-01-24 21:34:24.92	23.93	4.74	-53.3	-66.0	3.8	1.49e+00	0	42	104	0	77	16292
2026-01-24 21:34:25.93	24.04	4.79	-53.3	-66.1	3.8	1.49e+00	0	42	104	0	77	16350
2026-01-24 21:34:26.93	24.15	4.84	-53.3	-66.1	3.8	1.49e+00	0	42	104	0	77	16340
2026-01-24 21:34:27.94	24.26	4.89	-53.3	-66.0	3.8	1.49e+00	0	42	104	0	77	16277
2026-01-24 21:34:28.95	24.37	4.94	-53.3	-66.1	3.8	1.49e+00	0	42	104	0	77	16359
2026-01-24 21:34:29.96	24.48	4.98	-53.3	-66.0	3.8	1.49e+00	0	42	104	0	77	16288
2026-01-24 21:34:30.97	24.60	5.03	-53.3	-66.0	3.8	1.49e+00	0	42	104	0	77	16271
2026-01-24 21:34:31.98	24.71	5.08	-53.3	-66.0	3.8	1.49e+00	0	42	104	0	77	16269
2026-01-24 21:34:32.98	24.82	5.13	-53.3	-66.0	3.8	1.49e+00	0	42	104	0	77	16292
2026-01-24 21:34:33.99	24.93	5.18	-53.3	-66.0	3.8	1.49e+00	0	42	104	0	77	16302
2026-01-24 21:34:35.00	25.04	5.23	-53.3	-66.1	3.8	1.49e+00	0	42	104	0	77	16318
2026-01-24 21:34:36.01	25.16	5.28	-53.3	-66.0	3.8	1.49e+00	0	42	104	0	77	16305
2026-01-24 21:34:37.02	25.27	5.33	-53.3	-66.1	3.8	1.49e+00	0	42	104	0	77	16330
2026-01-24 21:34:38.02	25.38	5.38	-53.3	-66.1	3.8	1.49e+00	0	42	104	0	77	16336
2026-01-24 21:34:39.03	25.50	5.42	-53.3	-66.1	3.8	1.49e+00	0	42	104	0	77	16315
2026-01-24 21:34:40.04	25.61	5.47	-53.3	-66.1	3.8	1.49e+00	0	42	104	0	77	16328
2026-01-24 21:34:41.05	25.72	5.52	-53.3	-66.0	3.8	1.49e+00	0	42	104	0	77	16304
2026-01-24 21:34:42.06	25.84	5.57	-53.3	-66.0	3.8	1.49e+00	0	43	104	0	77	16305
2026-01-24 21:34:43.06	25.95	5.62	-53.3	-66.1	3.8	1.49e+00	0	43	104	0	77	16319
2026-01-24 21:34:44.07	26.07	5.67	-53.3	-66.0	3.8	1.49e+00	0	42	104	0	77	16308
2026-01-24 21:34:45.08	26.19	5.72	-53.3	-66.1	3.8	1.49e+00	0	42	104	0	77	16329
2026-01-24 21:34:46.09	26.30	5.77	-53.3	-66.0	3.8	1.49e+00	0	42	104	0	77	16293
2026-01-24 21:34:47.09	26.42	5.81	-53.3	-66.1	3.8	1.49e+00	0	43	104	0	77	16354
2026-01-24 21:34:48.10	26.54	5.86	-53.3	-66.0	3.8	1.49e+00	0	43	104	0	77	16285
2026-01-24 21:34:49.11	26.65	5.91	-53.3	-66.1	3.8	1.49e+00	0	42	104	0	77	16322
2026-01-24 21:34:50.12	26.77	5.96	-53.3	-66.1	3.8	1.49e+00	0	43	104	0	77	16316
2026-01-24 21:34:51.13	26.89	6.01	-53.3	-66.0	3.8	1.49e+00	0	42	104	0	77	16308
2026-01-24 21:34:52.14	27.01	6.06	-53.3	-66.0	3.8	1.49e+00	0	43	104	0	77	16288
2026-01-24 21:34:53.14	27.13	6.11	-53.3	-66.0	3.8	1.49e+00	0	43	104	0	77	16314
2026-01-24 21:34:54.15	27.25	6.16	-53.3	-66.1	3.8	1.49e+00	0	42	104	0	77	16362
2026-01-24 21:34:55.16	27.37	6.21	-53.3	-66.0	3.8	1.49e+00	0	43	104	0	77	16280
2026-01-24 21:34:56.16	27.49	6.25	-53.3	-66.1	3.8	1.49e+00	0	42	104	0	77	16343
2026-01-24 21:34:57.17	27.61	6.30	-53.3	-66.0	3.8	1.49e+00	0	42	104	0	77	16301
2026-01-24 21:34:58.18	27.73	6.35	-53.3	-66.0	3.8	1.49e+00	0	43	104	0	77	16261
2026-01-24 21:34:59.19	27.85	6.40	-53.3	-66.0	3.8	1.49e+00	0	43	104	0	77	16283
2026-01-24 21:35:00.20	27.97	6.45	-53.3	-66.1	3.8	1.49e+00	0	43	104	0	77	16351
2026-01-24 21:35:01.20	28.09	6.50	-53.3	-66.0	3.8	1.49e+00	0	43	104	0	77	16283
2026-01-24 21:35:02.21	28.22	6.55	-53.3	-66.0	3.8	1.49e+00	0	43	104	0	77	16267
2026-01-24 21:35:03.21	28.34	6.59	-53.3	-66.1	3.8	1.49e+00	0	42	104	0	77	16329
2026-01-24 21:35:04.22	28.46	6.64	-53.3	-66.0	3.8	1.49e+00	0	43	104	0	77	16282
2026-01-24 21:35:05.23	28.59	6.69	-53.3	-66.1	3.8	1.49e+00	0	43	104	0	77	16352
2026-01-24 21:35:06.24	28.71	6.74	-53.3	-66.0	3.8	1.49e+00	0	43	104	0	77	16253
2026-01-24 21:35:07.24	28.83	6.79	-53.3	-66.0	3.8	1.49e+00	0	43	104	0	77	16261
2026-01-24 21:35:08.25	28.96	6.84	-53.3	-66.0	3.8	1.49e+00	0	43	104	0	77	16309
2026-01-24 21:35:09.26	29.08	6.89	-53.3	-66.0	3.8	1.49e+00	0	43	104	0	77	16273
2026-01-24 21:35:10.27	29.21	6.94	-53.3	-66.0	3.8	1.49e+00	0	43	104	0	77	16251
2026-01-24 21:35:11.27	29.34	6.98	-53.3	-66.0	3.8	1.49e+00	0	43	104	0	77	16305
2026-01-24 21:35:12.28	29.46	7.03	-53.3	-66.0	3.8	1.49e+00	0	43	104	0	77	16281
2026-01-24 21:35:13.29	29.59	7.08	-53.3	-66.0	3.8	1.49e+00	0	43	104	0	77	16286
2026-01-24 21:35:14.30	29.72	7.13	-53.3	-66.0	3.8	1.49e+00	0	43	104	0	77	16286
2026-01-24 21:35:15.31	29.84	7.18	-53.3	-66.0	3.8	1.49e+00	0	43	104	0	77	16268
2026-01-24 21:35:16.31	29.97	7.23	-53.3	-66.1	3.8	1.49e+00	0	43	104	0	77	16319
2026-01-24 21:35:17.32	30.10	7.27	-53.3	-66.1	3.8	1.49e+00	0	43	104	0	77	16316
2026-01-24 21:35:18.33	30.23	7.32	-53.3	-66.0	3.8	1.49e+00	0	43	104	0	77	16278
2026-01-24 21:35:19.34	30.36	7.37	-53.3	-66.0	3.8	1.49e+00	0	43	104	0	77	16275
2026-01-24 21:35:20.35	30.49	7.42	-53.3	-66.0	3.8	1.49e+00	0	43	104	0	77	16297
2026-01-24 21:35:21.36	30.62	7.47	-53.3	-66.0	3.8	1.49e+00	0	43	104	0	77	16261
2026-01-24 21:35:22.36	30.75	7.52	-53.3	-66.0	3.8	1.49e+00	0	43	104	0	77	16272
2026-01-24 21:35:23.37	30.88	7.56	-53.3	-66.0	3.8	1.49e+00	0	43	104	0	77	16260
2026-01-24 21:35:24.38	31.01	7.61	-53.3	-66.0	3.8	1.49e+00	0	43	104	0	77	16224
2026-01-24 21:35:25.39	31.14	7.66	-53.3	-66.0	3.8	1.49e+00	0	43	104	0	77	16282
2026-01-24 21:35:26.39	31.28	7.71	-53.3	-66.0	3.8	1.49e+00	0	43	104	0	77	16291
2026-01-24 21:35:27.40	31.41	7.76	-53.3	-66.0	3.8	1.49e+00	0	43	104	0	77	16301
2026-01-24 21:35:28.41	31.54	7.80	-53.3	-66.0	3.8	1.49e+00	0	43	104	0	77	16274
2026-01-24 21:35:29.41	31.67	7.85	-53.3	-66.0	3.8	1.49e+00	0	43	104	0	77	16292
2026-01-24 21:35:30.42	31.81	7.90	-53.3	-66.0	3.8	1.49e+00	0	43	104	0	77	16288
2026-01-24 21:35:31.43	31.94	7.95	-53.3	-66.0	3.8	1.49e+00	0	43	104	0	77	16308
2026-01-24 21:35:32.44	32.08	8.00	-53.3	-66.0	3.8	1.49e+00	0	43	104	0	77	16267
2026-01-24 21:35:33.45	32.21	8.04	-53.3	-66.0	3.8	1.49e+00	0	43	104	0	77	16285
2026-01-24 21:35:34.46	32.35	8.09	-53.3	-66.0	3.8	1.49e+00	0	43	104	0	77	16303
2026-01-24 21:35:35.46	32.48	8.14	-53.3	-66.0	3.8	1.49e+00	0	43	104	0	77	16261
2026-01-24 21:35:36.47	32.62	8.19	-53.3	-66.0	3.8	1.49e+00	0	43	104	0	77	16262
2026-01-24 21:35:37.48	32.76	8.23	-53.3	-66.0	3.8	1.49e+00	0	43	104	0	77	16300
2026-01-24 21:35:38.49	32.90	8.28	-53.3	-66.0	3.8	1.49e+00	0	43	104	0	77	16277
2026-01-24 21:35:39.50	33.03	8.33	-53.3	-66.0	3.8	1.49e+00	0	43	104	0	77	16281
2026-01-24 21:35:40.50	33.17	8.38	-53.3	-66.0	3.8	1.49e+00	0	43	104	0	77	16255
2026-01-24 21:35:41.51	33.31	8.42	-53.3	-66.1	3.8	1.49e+00	0	43	104	0	77	16321
2026-01-24 21:35:42.52	33.45	8.47	-53.3	-66.0	3.8	1.49e+00	0	43	104	0	77	16293
2026-01-24 21:35:43.53	33.59	8.52	-53.3	-66.0	3.8	1.49e+00	0	43	104	0	77	16241
2026-01-24 21:35:44.53	33.73	8.57	-53.3	-66.0	3.8	1.49e+00	0	43	104	0	77	16280
2026-01-24 21:35:45.54	33.87	8.61	-53.3	-66.0	3.8	1.49e+00	0	43	104	0	77	16285
2026-01-24 21:35:46.55	34.01	8.66	-53.3	-66.0	3.8	1.49e+00	0	43	104	0	77	16283
2026-01-24 21:35:47.56	34.15	8.71	-53.3	-66.0	3.8	1.49e+00	0	43	104	0	77	16285
2026-01-24 21:35:48.57	34.29	8.75	-53.3	-66.0	3.8	1.49e+00	0	43	104	0	77	16245
2026-01-24 21:35:49.58	34.44	8.80	-53.3	-66.0	3.8	1.49e+00	0	43	104	0	77	16266
2026-01-24 21:35:50.58	34.58	8.85	-53.3	-66.0	3.8	1.49e+00	0	43	104	0	77	16247
2026-01-24 21:35:51.59	34.72	8.89	-53.3	-66.0	3.8	1.49e+00	0	43	104	0	77	16262
2026-01-24 21:35:52.60	34.87	8.94	-53.3	-66.0	3.8	1.49e+00	0	43	104	0	77	16271
2026-01-24 21:35:53.60	35.01	8.99	-53.3	-66.0	3.8	1.49e+00	0	43	104	0	77	16306
2026-01-24 21:35:54.61	35.15	9.03	-53.3	-66.0	3.8	1.49e+00	0	43	104	0	77	16273
2026-01-24 21:35:55.62	35.30	9.08	-53.3	-66.0	3.8	1.49e+00	0	43	104	0	77	16267
2026-01-24 21:35:56.63	35.44	9.13	-53.3	-66.0	3.8	1.49e+00	0	43	104	0	77	16254
2026-01-24 21:35:57.63	35.59	9.17	-53.3	-66.0	3.8	1.49e+00	0	43	104	0	77	16278
2026-01-24 21:35:58.64	35.73	9.22	-53.3	-66.0	3.8	1.49e+00	0	43	104	0	77	16230
2026-01-24 21:35:59.65	35.88	9.27	-53.3	-66.0	3.8	1.49e+00	0	43	104	0	77	16304
2026-01-24 21:36:00.66	36.03	9.31	-53.3	-66.0	3.8	1.49e+00	0	43	104	0	77	16274
2026-01-24 21:36:01.67	36.18	9.36	-53.3	-66.0	3.8	1.49e+00	0	43	104	0	77	16301
2026-01-24 21:36:02.67	36.32	9.41	-53.3	-66.0	3.8	1.49e+00	0	43	104	0	77	16313
2026-01-24 21:36:03.68	36.47	9.45	-53.3	-66.0	3.8	1.49e+00	0	43	104	0	77	16266
2026-01-24 21:36:04.69	36.62	9.50	-53.3	-66.0	3.8	1.49e+00	0	43	104	0	77	16264
2026-01-24 21:36:05.70	36.77	9.54	-53.3	-66.0	3.8	1.49e+00	0	43	104	0	77	16275
2026-01-24 21:36:06.71	36.92	9.59	-53.3	-66.0	3.8	1.49e+00	0	43	104	0	77	16250
2026-01-24 21:36:07.71	37.07	9.63	-53.3	-66.0	3.8	1.49e+00	0	43	104	0	77	16299
2026-01-24 21:36:08.72	37.22	9.68	-53.3	-66.0	3.8	1.49e+00	0	43	104	0	77	16259
2026-01-24 21:36:09.73	37.37	9.73	-53.3	-66.0	3.8	1.49e+00	0	43	104	0	77	16254
2026-01-24 21:36:10.74	37.52	9.77	-53.3	-66.0	3.8	1.49e+00	0	43	104	0	77	16247
2026-01-24 21:36:11.75	37.68	9.82	-53.3	-66.0	3.8	1.49e+00	0	43	104	0	77	16246
2026-01-24 21:36:12.76	37.83	9.86	-53.3	-66.0	3.8	1.49e+00	0	43	104	0	77	16287
2026-01-24 21:36:13.76	37.98	9.91	-53.3	-66.0	3.8	1.49e+00	0	43	104	0	77	16245
2026-01-24 21:36:14.77	38.13	9.95	-53.3	-66.1	3.8	1.49e+00	0	43	104	0	77	16326
2026-01-24 21:36:15.78	38.29	10.00	-53.3	-66.0	3.8	1.49e+00	0	43	104	0	77	16258
2026-01-24 21:36:16.79	38.44	10.04	-53.3	-66.0	3.8	1.49e+00	0	43	104	0	77	16277
2026-01-24 21:36:17.80	38.60	10.09	-53.3	-66.0	3.8	1.49e+00	0	43	104	0	77	16259
2026-01-24 21:36:18.80	38.75	10.13	-53.3	-66.0	3.8	1.49e+00	0	43	104	0	77	16283
2026-01-24 21:36:19.81	38.91	10.18	-53.3	-66.0	3.8	1.49e+00	0	43	104	0	77	16295
2026-01-24 21:36:20.82	39.07	10.22	-53.3	-66.0	3.8	1.49e+00	0	43	104	0	77	16271
2026-01-24 21:36:21.83	39.22	10.26	-53.3	-66.0	3.8	1.49e+00	0	43	104	0	77	16294
2026-01-24 21:36:22.83	39.38	10.31	-53.3	-66.0	3.8	1.49e+00	0	43	104	0	77	16292
2026-01-24 21:36:23.84	39.54	10.35	-53.3	-66.0	3.8	1.49e+00	0	43	104	0	77	16264
2026-01-24 21:36:24.85	39.69	10.40	-53.3	-66.0	3.8	1.49e+00	0	43	104	0	77	16282
2026-01-24 21:36:25.86	39.85	10.44	-53.3	-66.0	3.8	1.49e+00	0	43	104	0	77	16269
2026-01-24 21:36:26.87	40.01	10.48	-53.3	-66.0	3.8	1.49e+00	0	43	104	0	77	16299
2026-01-24 21:36:27.87	40.17	10.53	-53.3	-66.0	3.8	1.49e+00	0	43	104	0	77	16288
2026-01-24 21:36:28.88	40.33	10.57	-53.3	-66.0	3.8	1.49e+00	0	43	104	0	77	16284
2026-01-24 21:36:29.89	40.49	10.61	-53.3	-66.0	3.8	1.49e+00	0	43	104	0	77	16267
2026-01-24 21:36:30.90	40.65	10.66	-53.3	-66.0	3.8	1.49e+00	0	43	104	0	77	16278
2026-01-24 21:36:31.91	40.81	10.70	-53.3	-66.0	3.8	1.49e+00	0	43	104	0	77	16238
2026-01-24 21:36:32.92	40.98	10.74	-53.3	-66.0	3.8	1.49e+00	0	43	104	0	77	16219
2026-01-24 21:36:33.92	41.14	10.79	-53.3	-66.0	3.8	1.49e+00	0	43	104	0	77	16255
2026-01-24 21:36:34.93	41.30	10.83	-53.3	-66.1	3.8	1.49e+00	0	43	104	0	77	16321
2026-01-24 21:36:35.94	41.46	10.87	-53.3	-66.0	3.8	1.49e+00	0	43	104	0	77	16265
2026-01-24 21:36:36.95	41.63	10.92	-53.3	-66.0	3.8	1.49e+00	0	43	104	0	77	16263
2026-01-24 21:36:37.95	41.79	10.96	-53.3	-66.0	3.8	1.49e+00	0	43	104	0	77	16295
2026-01-24 21:36:38.96	41.95	11.00	-53.3	-66.0	3.8	1.49e+00	0	43	104	0	77	16246
2026-01-24 21:36:39.97	42.12	11.04	-53.3	-66.0	3.8	1.49e+00	0	43	104	0	77	16245
2026-01-24 21:36:40.98	42.28	11.08	-53.3	-66.0	3.8	1.49e+00	0	43	104	0	77	16276
2026-01-24 21:36:41.99	42.45	11.13	-53.3	-66.0	3.8	1.49e+00	0	43	104	0	77	16299
2026-01-24 21:36:43.00	42.62	11.17	-53.3	-66.0	3.8	1.49e+00	0	43	104	0	77	16263
2026-01-24 21:36:44.00	42.78	11.21	-53.3	-66.0	3.8	1.49e+00	0	43	104	0	77	16284
2026-01-24 21:36:45.01	42.95	11.25	-53.3	-66.0	3.8	1.49e+00	0	43	104	0	77	16282
2026-01-24 21:36:46.02	43.12	11.29	-53.3	-66.0	3.8	1.49e+00	0	43	104	0	77	16267
2026-01-24 21:36:47.03	43.29	11.33	-53.3	-66.0	3.8	1.49e+00	0	43	104	0	77	16291
2026-01-24 21:36:48.03	43.45	11.37	-53.3	-66.0	3.8	1.49e+00	0	43	104	0	77	16223
2026-01-24 21:36:49.04	43.62	11.41	-53.3	-66.0	3.8	1.49e+00	0	43	104	0	77	16269
2026-01-24 21:36:50.05	43.79	11.46	-53.3	-66.0	3.8	1.49e+00	0	43	104	0	77	16256
2026-01-24 21:36:51.06	43.96	11.50	-53.3	-66.0	3.8	1.49e+00	0	43	104	0	77	16302
2026-01-24 21:36:52.06	44.13	11.54	-53.3	-66.0	3.8	1.49e+00	0	43	104	0	77	16242
2026-01-24 21:36:53.07	44.30	11.58	-53.3	-66.0	3.8	1.49e+00	0	43	104	0	77	16294
2026-01-24 21:36:54.08	44.48	11.62	-53.3	-66.0	3.8	1.49e+00	0	43	104	0	77	16285
2026-01-24 21:36:55.09	44.65	11.66	-53.3	-66.0	3.8	1.49e+00	0	43	104	0	77	16270
2026-01-24 21:36:56.10	44.82	11.70	-53.3	-66.0	3.8	1.49e+00	0	43	104	0	77	16241
2026-01-24 21:36:57.11	44.99	11.74	-53.3	-66.0	3.8	1.49e+00	0	43	104	0	77	16267
2026-01-24 21:36:58.12	45.17	11.78	-53.3	-66.0	3.8	1.49e+00	0	43	104	0	77	16291
2026-01-24 21:36:59.12	45.34	11.81	-53.3	-66.0	3.8	1.49e+00	0	43	104	0	77	16261
2026-01-24 21:37:00.13	45.51	11.85	-53.3	-66.0	3.8	1.49e+00	0	43	104	0	77	16247
2026-01-24 21:37:01.14	45.69	11.89	-53.3	-66.0	3.8	1.49e+00	0	43	104	0	77	16245
2026-01-24 21:37:02.14	45.86	11.93	-53.3	-66.1	3.8	1.49e+00	0	43	104	0	77	16330
2026-01-24 21:37:03.15	46.04	11.97	-53.3	-66.1	3.8	1.49e+00	0	43	104	0	77	16350
2026-01-24 21:37:04.16	46.21	12.01	-53.3	-66.0	3.8	1.49e+00	0	43	104	0	77	16222
2026-01-24 21:37:05.17	46.39	12.05	-53.3	-66.0	3.8	1.49e+00	0	43	104	0	77	16302
2026-01-24 21:37:06.17	46.57	12.08	-53.3	-66.0	3.8	1.49e+00	0	43	104	0	77	16291
2026-01-24 21:37:07.18	46.74	12.12	-53.3	-66.0	3.8	1.49e+00	0	43	104	0	77	16234
2026-01-24 21:37:08.19	46.92	12.16	-53.3	-66.0	3.8	1.49e+00	0	43	104	0	77	16261
2026-01-24 21:37:09.20	47.10	12.20	-53.3	-66.0	3.8	1.49e+00	0	43	104	0	77	16293
2026-01-24 21:37:10.21	47.28	12.23	-53.3	-66.0	3.8	1.49e+00	0	43	104	0	77	16263
2026-01-24 21:37:11.21	47.46	12.27	-53.3	-66.0	3.8	1.49e+00	0	43	104	0	77	16270
2026-01-24 21:37:12.22	47.64	12.31	-53.3	-66.0	3.8	1.49e+00	0	43	104	0	77	16277
2026-01-24 21:37:13.23	47.82	12.35	-53.3	-66.0	3.8	1.49e+00	0	43	104	0	77	16290
2026-01-24 21:37:14.24	48.00	12.38	-53.3	-66.0	3.8	1.49e+00	0	43	104	0	77	16268
2026-01-24 21:37:15.24	48.18	12.42	-53.3	-66.0	3.8	1.49e+00	0	43	104	0	77	16301
2026-01-24 21:37:16.25	48.36	12.45	-53.3	-66.0	3.8	1.49e+00	0	43	104	0	77	16293
2026-01-24 21:37:17.26	48.54	12.49	-53.3	-66.0	3.8	1.49e+00	0	43	104	0	77	16262
2026-01-24 21:37:18.27	48.72	12.53	-53.3	-66.0	3.8	1.49e+00	0	43	104	0	77	16303
2026-01-24 21:37:19.28	48.90	12.56	-53.3	-66.0	3.8	1.49e+00	0	43	104	0	77	16261
2026-01-24 21:37:20.28	49.09	12.60	-53.3	-66.0	3.8	1.49e+00	0	43	104	0	77	16254
2026-01-24 21:37:21.29	49.27	12.63	-53.3	-66.0	3.8	1.49e+00	0	43	104	0	77	16300
2026-01-24 21:37:22.30	49.45	12.67	-53.3	-66.0	3.8	1.49e+00	0	43	104	0	77	16288
2026-01-24 21:37:23.31	49.64	12.70	-53.3	-66.0	3.8	1.49e+00	0	43	104	0	77	16244
2026-01-24 21:37:24.31	49.82	12.73	-53.3	-66.0	3.8	1.49e+00	0	43	104	0	77	16263
2026-01-24 21:37:25.32	50.01	12.77	-53.3	-66.0	3.8	1.49e+00	0	43	104	0	77	16300
2026-01-24 21:37:26.33	50.19	12.80	-53.3	-66.0	3.8	1.49e+00	0	43	104	0	77	16304
2026-01-24 21:37:27.34	50.38	12.84	-53.3	-66.0	3.8	1.49e+00	0	43	104	0	77	16304
2026-01-24 21:37:28.35	50.56	12.87	-53.3	-66.1	3.8	1.49e+00	0	43	104	0	77	16327
2026-01-24 21:37:29.36	50.75	12.90	-53.3	-66.0	3.8	1.49e+00	0	43	104	0	77	16304
2026-01-24 21:37:30.36	50.94	12.94	-53.3	-66.0	3.8	1.49e+00	0	43	104	0	77	16303
2026-01-24 21:37:31.37	51.12	12.97	-53.3	-66.0	3.8	1.49e+00	0	43	104	0	77	16280
2026-01-24 21:37:32.38	51.31	13.00	-53.3	-66.1	3.8	1.49e+00	0	43	104	0	77	16329
2026-01-24 21:37:33.39	51.50	13.03	-53.3	-66.0	3.8	1.49e+00	0	43	104	0	77	16285
2026-01-24 21:37:34.39	51.69	13.07	-53.3	-66.0	3.8	1.49e+00	0	43	104	0	77	16297
2026-01-24 21:37:35.40	51.88	13.10	-53.3	-66.0	3.8	1.49e+00	0	43	104	0	77	16304
2026-01-24 21:37:36.41	52.07	13.13	-53.3	-66.0	3.8	1.49e+00	0	43	104	0	77	16297
2026-01-24 21:37:37.42	52.26	13.16	-53.3	-66.0	3.8	1.49e+00	0	43	104	0	77	16296
2026-01-24 21:37:38.43	52.45	13.19	-53.3	-66.0	3.8	1.49e+00	0	43	104	0	77	16255
2026-01-24 21:37:39.44	52.64	13.22	-53.3	-66.0	3.8	1.49e+00	0	43	104	0	77	16264
2026-01-24 21:37:40.44	52.83	13.25	-53.3	-66.0	3.8	1.49e+00	0	43	104	0	77	16261
2026-01-24 21:37:41.45	53.02	13.28	-53.3	-66.0	3.8	1.49e+00	0	43	104	0	77	16301
2026-01-24 21:37:42.46	53.21	13.31	-53.3	-66.1	3.8	1.49e+00	0	43	104	0	77	16330
2026-01-24 21:37:43.47	53.40	13.34	-53.3	-66.0	3.8	1.49e+00	0	43	104	0	77	16297
2026-01-24 21:37:44.48	53.60	13.37	-53.3	-66.1	3.8	1.49e+00	0	43	104	0	77	16334
2026-01-24 21:37:45.49	53.79	13.40	-53.3	-66.0	3.8	1.49e+00	0	43	104	0	77	16278
2026-01-24 21:37:46.49	53.98	13.43	-53.3	-66.0	3.8	1.49e+00	0	43	104	0	77	16257
2026-01-24 21:37:47.50	54.18	13.46	-53.3	-66.0	3.8	1.49e+00	0	43	104	0	77	16262
2026-01-24 21:37:48.51	54.37	13.49	-53.3	-66.0	3.8	1.49e+00	0	43	104	0	77	16267
2026-01-24 21:37:49.52	54.57	13.52	-53.3	-66.0	3.8	1.49e+00	0	43	104	0	77	16259
2026-01-24 21:37:50.53	54.76	13.55	-53.3	-66.0	3.8	1.49e+00	0	43	104	0	77	16305
2026-01-24 21:37:51.54	54.96	13.57	-53.3	-66.0	3.8	1.49e+00	0	43	104	0	77	16304
2026-01-24 21:37:52.54	55.15	13.60	-53.3	-66.0	3.8	1.49e+00	0	43	104	0	77	16304
2026-01-24 21:37:53.55	55.35	13.63	-53.3	-66.0	3.8	1.49e+00	0	43	104	0	77	16263
2026-01-24 21:37:54.56	55.54	13.66	-53.3	-66.0	3.8	1.49e+00	0	43	104	0	77	16304
2026-01-24 21:37:55.57	55.74	13.68	-53.3	-66.0	3.8	1.49e+00	0	43	104	0	77	16258
2026-01-24 21:37:56.58	55.94	13.71	-53.3	-66.0	3.8	1.49e+00	0	43	104	0	77	16306
2026-01-24 21:37:57.58	56.13	13.74	-53.3	-66.0	3.8	1.49e+00	0	43	104	0	77	16305
2026-01-24 21:37:58.59	56.33	13.76	-53.3	-66.0	3.8	1.49e+00	0	43	104	0	77	16291
2026-01-24 21:37:59.59	56.53	13.79	-53.3	-66.1	3.8	1.49e+00	0	43	104	0	77	16323
2026-01-24 21:38:00.60	56.73	13.81	-53.3	-66.0	3.8	1.49e+00	0	43	104	0	77	16298
2026-01-24 21:38:01.61	56.92	13.84	-53.3	-66.0	3.8	1.49e+00	0	43	104	0	77	16279
2026-01-24 21:38:02.62	57.12	13.86	-53.3	-66.0	3.8	1.49e+00	0	43	104	0	77	16304
2026-01-24 21:38:03.63	57.32	13.89	-53.3	-66.0	3.8	1.49e+00	0	43	104	0	77	16306
2026-01-24 21:38:04.64	57.52	13.91	-53.3	-66.0	3.8	1.49e+00	0	43	104	0	77	16248
2026-01-24 21:38:05.64	57.72	13.93	-53.3	-66.0	3.8	1.49e+00	0	43	104	0	77	16288
2026-01-24 21:38:06.65	57.92	13.96	-53.3	-66.0	3.8	1.49e+00	0	43	104	0	77	16268
2026-01-24 21:38:07.66	58.12	13.98	-53.3	-66.1	3.8	1.49e+00	0	43	104	0	77	16331
2026-01-24 21:38:08.67	58.32	14.00	-53.3	-66.0	3.8	1.49e+00	0	43	104	0	77	16297
2026-01-24 21:38:09.68	58.53	14.03	-53.3	-66.1	3.8	1.49e+00	0	43	104	0	77	16326
2026-01-24 21:38:10.68	58.72	14.05	-53.3	-66.0	3.8	1.49e+00	0	43	104	0	77	16264
2026-01-24 21:38:11.69	58.93	14.07	-53.3	-66.1	3.8	1.49e+00	0	43	104	0	77	16317
2026-01-24 21:38:12.70	59.13	14.09	-53.3	-66.0	3.8	1.49e+00	0	43	104	0	77	16290
2026-01-24 21:38:13.71	59.33	14.11	-53.3	-66.0	3.8	1.49e+00	0	43	104	0	77	16266
2026-01-24 21:38:14.71	59.53	14.13	-53.3	-66.0	3.8	1.49e+00	0	43	104	0	77	16267
2026-01-24 21:38:15.72	59.74	14.16	-53.3	-66.0	3.8	1.49e+00	0	43	104	0	77	16259
2026-01-24 21:38:16.73	59.94	14.18	-53.3	-66.0	3.8	1.49e+00	0	43	104	0	77	16249
2026-01-24 21:38:17.74	60.14	14.20	-53.3	-66.1	3.8	1.49e+00	0	43	104	0	77	16322
2026-01-24 21:38:18.75	60.35	14.22	-53.3	-66.0	3.8	1.49e+00	0	43	104	0	77	16290
2026-01-24 21:38:19.76	60.55	14.24	-53.3	-66.1	3.8	1.49e+00	0	43	104	0	77	16324
2026-01-24 21:38:20.76	60.75	14.25	-53.3	-66.1	3.8	1.49e+00	0	43	104	0	77	16326
2026-01-24 21:38:21.77	60.96	14.27	-53.3	-66.0	3.8	1.49e+00	0	43	104	0	77	16278
2026-01-24 21:38:22.77	61.16	14.29	-53.3	-66.0	3.8	1.49e+00	0	43	104	0	77	16276
2026-01-24 21:38:23.78	61.37	14.31	-53.3	-66.0	3.8	1.49e+00	0	43	104	0	77	16296
2026-01-24 21:38:24.79	61.57	14.33	-53.3	-66.1	3.8	1.49e+00	0	43	104	0	77	16325
2026-01-24 21:38:25.80	61.78	14.35	-53.3	-66.0	3.8	1.49e+00	0	43	104	0	77	16302
2026-01-24 21:38:26.81	61.98	14.36	-53.3	-66.0	3.8	1.49e+00	0	43	104	0	77	16291
2026-01-24 21:38:27.82	62.19	14.38	-53.3	-66.0	3.8	1.49e+00	0	43	104	0	77	16314
2026-01-24 21:38:28.83	62.40	14.40	-53.3	-66.1	3.8	1.49e+00	0	43	104	0	77	16340
2026-01-24 21:38:29.84	62.60	14.41	-53.3	-66.0	3.8	1.49e+00	0	43	104	0	77	16272
2026-01-24 21:38:30.84	62.81	14.43	-53.3	-66.0	3.8	1.49e+00	0	43	104	0	77	16250
2026-01-24 21:38:31.85	63.02	14.44	-53.3	-66.0	3.8	1.49e+00	0	43	104	0	77	16292
2026-01-24 21:38:32.86	63.22	14.46	-53.3	-66.1	3.8	1.49e+00	0	43	104	0	77	16328
2026-01-24 21:38:33.87	63.43	14.47	-53.3	-66.1	3.8	1.49e+00	0	43	104	0	77	16333
2026-01-24 21:38:34.88	63.64	14.49	-53.3	-66.0	3.8	1.49e+00	0	43	104	0	77	16301
2026-01-24 21:38:35.88	63.84	14.50	-53.3	-66.1	3.8	1.49e+00	0	43	104	0	77	16319
2026-01-24 21:38:36.89	64.05	14.52	-53.3	-66.0	3.8	1.49e+00	0	43	104	0	77	16298
2026-01-24 21:38:37.90	64.26	14.53	-53.3	-66.0	3.8	1.49e+00	0	43	104	0	77	16297
2026-01-24 21:38:38.90	64.47	14.54	-53.3	-66.0	3.8	1.49e+00	0	43	104	0	77	16291
2026-01-24 21:38:39.91	64.68	14.56	-53.3	-66.0	3.8	1.49e+00	0	43	104	0	77	16268
2026-01-24 21:38:40.92	64.88	14.57	-53.3	-66.0	3.8	1.49e+00	0	43	104	0	77	16279
2026-01-24 21:38:41.93	65.09	14.58	-53.3	-66.1	3.8	1.49e+00	0	43	104	0	77	16330
2026-01-24 21:38:42.94	65.30	14.59	-53.3	-66.0	3.8	1.49e+00	0	43	104	0	77	16300
2026-01-24 21:38:43.94	65.51	14.61	-53.3	-66.0	3.8	1.49e+00	0	43	104	0	77	16302
2026-01-24 21:38:44.95	65.72	14.62	-53.3	-66.0	3.8	1.49e+00	0	43	104	0	77	16275
2026-01-24 21:38:45.96	65.93	14.63	-53.3	-66.1	3.8	1.49e+00	0	43	104	0	77	16338
2026-01-24 21:38:46.97	66.14	14.64	-53.3	-66.0	3.8	1.49e+00	0	43	104	0	77	16262
2026-01-24 21:38:47.97	66.35	14.65	-53.3	-66.1	3.8	1.49e+00	0	43	104	0	77	16326
2026-01-24 21:38:48.98	66.56	14.66	-53.3	-66.0	3.8	1.49e+00	0	43	104	0	77	16293
2026-01-24 21:38:49.99	66.77	14.67	-53.3	-66.0	3.8	1.49e+00	0	43	104	0	77	16288
2026-01-24 21:38:51.00	66.98	14.68	-53.3	-66.0	3.8	1.49e+00	0	43	104	0	77	16257
2026-01-24 21:38:52.01	67.19	14.69	-53.3	-66.1	3.8	1.49e+00	0	43	104	0	77	16324
2026-01-24 21:38:53.02	67.40	14.69	-53.3	-66.0	3.8	1.49e+00	0	43	104	0	77	16308
2026-01-24 21:38:54.02	67.61	14.70	-53.3	-66.0	3.8	1.49e+00	0	43	104	0	77	16302
2026-01-24 21:38:55.03	67.82	14.71	-53.3	-66.0	3.8	1.49e+00	0	43	104	0	77	16302
2026-01-24 21:38:56.04	68.03	14.72	-53.3	-66.0	3.8	1.49e+00	0	43	104	0	77	16271
2026-01-24 21:38:57.05	68.24	14.72	-53.3	-66.0	3.8	1.49e+00	0	43	104	0	77	16287
2026-01-24 21:38:58.06	68.45	14.73	-53.3	-66.0	3.8	1.49e+00	0	43	104	0	77	16289
2026-01-24 21:38:59.06	68.66	14.74	-53.3	-66.0	3.8	1.49e+00	0	43	104	0	77	16296
2026-01-24 21:39:00.07	68.87	14.74	-53.3	-66.1	3.8	1.49e+00	0	43	104	0	77	16381
2026-01-24 21:39:01.08	69.08	14.75	-53.3	-66.1	3.8	1.49e+00	0	43	104	0	77	16330
2026-01-24 21:39:02.09	69.30	14.75	-53.3	-66.0	3.8	1.49e+00	0	43	104	0	77	16272
2026-01-24 21:39:03.09	69.51	14.76	-53.3	-66.0	3.8	1.49e+00	0	43	104	0	77	16257
2026-01-24 21:39:04.10	69.72	14.76	-53.3	-66.0	3.8	1.49e+00	0	43	104	0	77	16279
2026-01-24 21:39:05.11	69.93	14.77	-53.3	-66.0	3.8	1.49e+00	0	43	104	0	77	16313
2026-01-24 21:39:06.12	70.14	14.77	-53.3	-66.0	3.8	1.49e+00	0	43	104	0	77	16286
2026-01-24 21:39:07.12	70.35	14.77	-53.3	-66.0	3.8	1.49e+00	0	43	104	0	77	16274
2026-01-24 21:39:08.13	70.56	14.78	-53.3	-66.0	3.8	1.49e+00	0	43	104	0	77	16301
2026-01-24 21:39:09.14	70.77	14.78	-53.3	-66.1	3.8	1.49e+00	0	43	104	0	77	16338
2026-01-24 21:39:10.15	70.99	14.78	-53.3	-66.0	3.8	1.49e+00	0	43	104	0	77	16293
2026-01-24 21:39:11.16	71.20	14.78	-53.3	-66.0	3.8	1.49e+00	0	43	104	0	77	16252
2026-01-24 21:39:12.16	71.41	14.78	-53.3	-66.0	3.8	1.49e+00	0	43	104	0	77	16312
2026-01-24 21:39:13.17	71.62	14.79	-53.3	-66.0	3.8	1.49e+00	0	43	104	0	77	16275
2026-01-24 21:39:14.18	71.83	14.79	-53.3	-66.0	3.8	1.49e+00	0	43	104	0	77	16301
2026-01-24 21:39:15.19	72.04	14.79	-53.3	-66.0	3.8	1.49e+00	0	43	104	0	77	16293
2026-01-24 21:39:16.19	72.25	14.79	-53.3	-66.0	3.8	1.49e+00	0	43	104	0	77	16287
2026-01-24 21:39:17.20	72.47	14.79	-53.3	-66.0	3.8	1.49e+00	0	44	104	0	77	16267
2026-01-24 21:39:18.21	72.68	14.79	-53.3	-66.0	3.8	1.49e+00	0	43	104	0	77	16306
2026-01-24 21:39:19.22	72.89	14.79	-53.3	-66.0	3.8	1.49e+00	0	43	104	0	77	16314
2026-01-24 21:39:20.23	73.10	14.78	-53.3	-66.0	3.8	1.49e+00	0	43	104	0	77	16276
2026-01-24 21:39:21.23	73.31	14.78	-53.3	-66.1	3.8	1.49e+00	0	43	104	0	77	16323
2026-01-24 21:39:22.24	73.53	14.78	-53.3	-66.0	3.8	1.49e+00	0	44	104	0	77	16262
2026-01-24 21:39:23.25	73.74	14.78	-53.3	-66.0	3.8	1.49e+00	0	43	104	0	77	16308
2026-01-24 21:39:24.26	73.95	14.77	-53.3	-66.0	3.8	1.49e+00	0	43	104	0	77	16293
2026-01-24 21:39:25.27	74.16	14.77	-53.3	-66.0	3.8	1.49e+00	0	43	104	0	77	16295
2026-01-24 21:39:26.28	74.37	14.77	-53.3	-66.0	3.8	1.49e+00	0	43	104	0	77	16309
2026-01-24 21:39:27.28	74.58	14.76	-53.3	-66.1	3.8	1.49e+00	0	43	104	0	77	16323
2026-01-24 21:39:28.29	74.79	14.76	-53.3	-66.0	3.8	1.49e+00	0	43	104	0	77	16263
2026-01-24 21:39:29.30	75.01	14.76	-53.3	-66.0	3.8	1.49e+00	0	43	104	0	77	16306
2026-01-24 21:39:30.31	75.22	14.75	-53.3	-66.1	3.8	1.49e+00	0	43	104	0	77	16349
2026-01-24 21:39:31.31	75.43	14.75	-53.3	-66.0	3.8	1.49e+00	0	43	104	0	77	16292
2026-01-24 21:39:32.32	75.64	14.74	-53.3	-66.0	3.8	1.49e+00	0	44	104	0	77	16286
2026-01-24 21:39:33.33	75.85	14.73	-53.3	-66.0	3.8	1.49e+00	0	44	104	0	77	16276
2026-01-24 21:39:34.34	76.06	14.73	-53.3	-66.0	3.8	1.49e+00	0	44	104	0	77	16288
2026-01-24 21:39:35.35	76.27	14.72	-53.3	-66.0	3.8	1.49e+00	0	43	104	0	77	16313
2026-01-24 21:39:36.35	76.48	14.71	-53.3	-66.0	3.8	1.49e+00	0	44	104	0	77	16277
2026-01-24 21:39:37.36	76.69	14.71	-53.3	-66.1	3.8	1.49e+00	0	43	104	0	77	16323
2026-01-24 21:39:38.37	76.90	14.70	-53.3	-66.0	3.8	1.49e+00	0	44	104	0	77	16283
2026-01-24 21:39:39.38	77.12	14.69	-53.3	-66.0	3.8	1.49e+00	0	44	104	0	77	16309
2026-01-24 21:39:40.39	77.33	14.68	-53.3	-66.0	3.8	1.49e+00	0	44	104	0	77	16312
2026-01-24 21:39:41.40	77.54	14.67	-53.3	-66.1	3.8	1.49e+00	0	43	104	0	77	16324
2026-01-24 21:39:42.40	77.75	14.66	-53.3	-66.0	3.8	1.49e+00	0	43	104	0	77	16274
2026-01-24 21:39:43.41	77.96	14.65	-53.3	-66.0	3.8	1.49e+00	0	43	104	0	77	16261
2026-01-24 21:39:44.42	78.17	14.64	-53.3	-66.0	3.8	1.49e+00	0	43	104	0	77	16297
2026-01-24 21:39:45.43	78.38	14.63	-53.3	-66.0	3.8	1.49e+00	0	43	104	0	77	16268
2026-01-24 21:39:46.43	78.58	14.62	-53.3	-66.1	3.8	1.49e+00	0	43	104	0	77	16323
2026-01-24 21:39:47.44	78.79	14.61	-53.3	-66.0	3.8	1.49e+00	0	44	104	0	77	16305
2026-01-24 21:39:48.45	79.00	14.60	-53.3	-66.1	3.8	1.49e+00	0	44	104	0	77	16335
2026-01-24 21:39:49.46	79.21	14.59	-53.3	-66.1	3.8	1.49e+00	0	44	104	0	77	16316
2026-01-24 21:39:50.46	79.42	14.58	-53.3	-66.0	3.8	1.49e+00	0	43	104	0	77	16291
2026-01-24 21:39:51.47	79.63	14.56	-53.3	-66.1	3.8	1.49e+00	0	43	104	0	77	16324
2026-01-24 21:39:52.48	79.84	14.55	-53.3	-66.0	3.8	1.49e+00	0	44	104	0	77	16240
2026-01-24 21:39:53.49	80.05	14.54	-53.3	-66.1	3.8	1.49e+00	0	43	104	0	77	16322
2026-01-24 21:39:54.50	80.26	14.52	-53.3	-66.1	3.8	1.49e+00	0	44	104	0	77	16336
2026-01-24 21:39:55.50	80.46	14.51	-53.3	-66.0	3.8	1.49e+00	0	44	104	0	77	16291
2026-01-24 21:39:56.51	80.67	14.50	-53.3	-66.1	3.8	1.49e+00	0	44	104	0	77	16320
2026-01-24 21:39:57.52	80.88	14.48	-53.3	-66.0	3.8	1.49e+00	0	43	104	0	77	16291
2026-01-24 21:39:58.53	81.09	14.47	-53.3	-66.0	3.8	1.49e+00	0	44	104	0	77	16266
2026-01-24 21:39:59.53	81.29	14.45	-53.3	-66.0	3.8	1.49e+00	0	44	104	0	77	16288
2026-01-24 21:40:00.54	81.50	14.44	-53.3	-66.1	3.8	1.49e+00	0	44	104	0	77	16331
2026-01-24 21:40:01.55	81.71	14.42	-53.3	-66.1	3.8	1.49e+00	0	43	104	0	77	16326
2026-01-24 21:40:02.56	81.92	14.41	-53.3	-66.0	3.8	1.49e+00	0	44	104	0	77	16282
2026-01-24 21:40:03.57	82.12	14.39	-53.3	-66.1	3.8	1.49e+00	0	43	104	0	77	16316
2026-01-24 21:40:04.57	82.33	14.37	-53.3	-66.0	3.8	1.49e+00	0	44	104	0	77	16293
2026-01-24 21:40:05.58	82.53	14.35	-53.3	-66.0	3.8	1.49e+00	0	43	104	0	77	16305
2026-01-24 21:40:06.59	82.74	14.34	-53.3	-66.0	3.8	1.49e+00	0	44	104	0	77	16262
2026-01-24 21:40:07.60	82.95	14.32	-53.3	-66.0	3.8	1.49e+00	0	43	104	0	77	16308
2026-01-24 21:40:08.61	83.15	14.30	-53.3	-66.0	3.8	1.49e+00	0	43	104	0	77	16311
2026-01-24 21:40:09.62	83.36	14.28	-53.3	-66.0	3.8	1.49e+00	0	44	104	0	77	16305
2026-01-24 21:40:10.62	83.56	14.26	-53.3	-66.1	3.8	1.49e+00	0	43	104	0	77	16315
2026-01-24 21:40:11.63	83.77	14.25	-53.3	-66.1	3.8	1.49e+00	0	43	104	0	77	16321
2026-01-24 21:40:12.64	83.97	14.23	-53.3	-66.0	3.8	1.49e+00	0	43	104	0	77	16297
2026-01-24 21:40:13.64	84.17	14.21	-53.3	-66.1	3.8	1.49e+00	0	43	104	0	77	16329
2026-01-24 21:40:14.65	84.38	14.19	-53.3	-66.0	3.8	1.49e+00	0	43	104	0	77	16292
2026-01-24 21:40:15.66	84.58	14.17	-53.3	-66.1	3.8	1.49e+00	0	44	104	0	77	16318
2026-01-24 21:40:16.67	84.79	14.15	-53.3	-66.0	3.8	1.49e+00	0	44	104	0	77	16289
2026-01-24 21:40:17.68	84.99	14.12	-53.3	-66.1	3.8	1.49e+00	0	43	104	0	77	16327
2026-01-24 21:40:18.68	85.19	14.10	-53.3	-66.1	3.8	1.49e+00	0	44	104	0	77	16315
2026-01-24 21:40:19.69	85.39	14.08	-53.3	-66.1	3.8	1.49e+00	0	43	104	0	77	16322
2026-01-24 21:40:20.70	85.60	14.06	-53.3	-66.1	3.8	1.49e+00	0	43	104	0	77	16325
2026-01-24 21:40:21.71	85.80	14.04	-53.3	-66.0	3.8	1.49e+00	0	44	104	0	77	16274
2026-01-24 21:40:22.71	86.00	14.01	-53.3	-66.0	3.8	1.49e+00	0	44	104	0	77	16292
2026-01-24 21:40:23.72	86.20	13.99	-53.3	-66.1	3.8	1.49e+00	0	43	104	0	77	16331
2026-01-24 21:40:24.73	86.40	13.97	-53.3	-66.0	3.8	1.49e+00	0	43	104	0	77	16311
2026-01-24 21:40:25.74	86.60	13.95	-53.3	-66.1	3.8	1.49e+00	0	43	104	0	77	16341
2026-01-24 21:40:26.75	86.80	13.92	-53.3	-66.1	3.8	1.49e+00	0	44	104	0	77	16377
2026-01-24 21:40:27.76	87.00	13.90	-53.3	-66.1	3.8	1.49e+00	0	43	104	0	77	16371
2026-01-24 21:40:28.76	87.20	13.87	-53.3	-66.1	3.8	1.49e+00	0	44	104	0	77	16329
2026-01-24 21:40:29.77	87.40	13.85	-53.3	-66.1	3.8	1.49e+00	0	44	104	0	77	16341
2026-01-24 21:40:30.78	87.60	13.82	-53.3	-66.1	3.8	1.49e+00	0	44	104	0	77	16358
2026-01-24 21:40:31.79	87.80	13.80	-53.3	-66.1	3.8	1.49e+00	0	44	104	0	77	16317
2026-01-24 21:40:32.79	88.00	13.77	-53.3	-66.1	3.8	1.49e+00	0	44	104	0	77	16340
2026-01-24 21:40:33.80	88.20	13.75	-53.3	-66.1	3.8	1.49e+00	0	44	104	0	77	16341
2026-01-24 21:40:34.81	88.40	13.72	-53.3	-66.1	3.8	1.49e+00	0	43	104	0	77	16371
2026-01-24 21:40:35.82	88.59	13.69	-53.3	-66.0	3.8	1.49e+00	0	43	104	0	77	16304
2026-01-24 21:40:36.83	88.79	13.67	-53.3	-66.0	3.8	1.49e+00	0	43	104	0	77	16271
2026-01-24 21:40:37.84	88.99	13.64	-53.3	-66.1	3.8	1.49e+00	0	44	104	0	77	16356
2026-01-24 21:40:38.84	89.18	13.61	-53.3	-66.1	3.8	1.49e+00	0	43	104	0	77	16358
2026-01-24 21:40:39.85	89.38	13.59	-53.3	-66.0	3.8	1.49e+00	0	43	104	0	77	16292
2026-01-24 21:40:40.86	89.58	13.56	-53.3	-66.1	3.8	1.49e+00	0	43	104	0	77	16345
2026-01-24 21:40:41.87	89.77	13.53	-53.3	-66.0	3.8	1.49e+00	0	44	104	0	77	16305
2026-01-24 21:40:42.88	89.97	13.50	-53.3	-66.1	3.8	1.49e+00	0	43	104	0	77	16358
2026-01-24 21:40:43.88	90.16	13.47	-53.3	-66.0	3.8	1.49e+00	0	43	104	0	77	16299
2026-01-24 21:40:44.89	90.35	13.44	-53.3	-66.1	3.8	1.49e+00	0	43	104	0	77	16323
2026-01-24 21:40:45.90	90.55	13.42	-53.3	-66.1	3.8	1.49e+00	0	43	104	0	77	16317
2026-01-24 21:40:46.91	90.74	13.39	-53.3	-66.1	3.8	1.49e+00	0	44	104	0	77	16337
2026-01-24 21:40:47.92	90.94	13.36	-53.3	-66.0	3.8	1.49e+00	0	43	104	0	77	16264
2026-01-24 21:40:48.92	91.13	13.33	-53.3	-66.1	3.8	1.49e+00	0	43	104	0	77	16336
2026-01-24 21:40:49.93	91.32	13.30	-53.3	-66.1	3.8	1.49e+00	0	43	104	0	77	16378
2026-01-24 21:40:50.94	91.51	13.27	-53.3	-66.1	3.8	1.49e+00	0	43	104	0	77	16355
2026-01-24 21:40:51.95	91.71	13.24	-53.3	-66.1	3.8	1.49e+00	0	43	104	0	77	16387
2026-01-24 21:40:52.96	91.90	13.20	-53.3	-66.1	3.8	1.49e+00	0	43	104	0	77	16360
2026-01-24 21:40:53.96	92.09	13.17	-53.3	-66.1	3.8	1.49e+00	0	43	104	0	77	16362
2026-01-24 21:40:54.97	92.28	13.14	-53.3	-66.1	3.8	1.49e+00	0	43	104	0	77	16372
2026-01-24 21:40:55.98	92.47	13.11	-53.3	-66.1	3.8	1.49e+00	0	43	104	0	77	16362
2026-01-24 21:40:56.99	92.66	13.08	-53.3	-66.1	3.8	1.49e+00	0	43	104	0	77	16351
2026-01-24 21:40:57.99	92.85	13.05	-53.3	-66.1	3.8	1.49e+00	0	43	104	0	77	16342
2026-01-24 21:40:59.00	93.04	13.01	-53.3	-66.1	3.8	1.49e+00	0	43	104	0	77	16414
2026-01-24 21:41:00.01	93.23	12.98	-53.3	-66.1	3.8	1.49e+00	0	43	104	0	77	16356
2026-01-24 21:41:01.02	93.41	12.95	-53.3	-66.1	3.8	1.49e+00	0	43	104	0	77	16330
2026-01-24 21:41:02.03	93.60	12.92	-53.3	-66.1	3.8	1.49e+00	0	43	104	0	77	16356
2026-01-24 21:41:03.04	93.79	12.88	-53.3	-66.1	3.8	1.49e+00	0	43	104	0	77	16352
2026-01-24 21:41:04.05	93.98	12.85	-53.3	-66.0	3.8	1.49e+00	0	43	104	0	77	16313
2026-01-24 21:41:05.06	94.16	12.81	-53.3	-66.1	3.8	1.49e+00	0	43	104	0	77	16342
2026-01-24 21:41:06.06	94.35	12.78	-53.3	-66.1	3.8	1.49e+00	0	43	104	0	77	16369
2026-01-24 21:41:07.07	94.53	12.75	-53.3	-66.1	3.8	1.49e+00	0	43	104	0	77	16319
2026-01-24 21:41:08.08	94.72	12.71	-53.3	-66.1	3.8	1.49e+00	0	43	104	0	77	16399
2026-01-24 21:41:09.09	94.91	12.68	-53.3	-66.1	3.8	1.49e+00	0	43	104	0	77	16330
2026-01-24 21:41:10.10	95.09	12.64	-53.3	-66.1	3.8	1.49e+00	0	44	104	0	77	16361
2026-01-24 21:41:11.10	95.27	12.61	-53.3	-66.1	3.8	1.49e+00	0	43	104	0	77	16359
2026-01-24 21:41:12.11	95.46	12.57	-53.3	-66.1	3.8	1.49e+00	0	44	104	0	77	16360
2026-01-24 21:41:13.12	95.64	12.54	-53.3	-66.1	3.8	1.49e+00	0	43	104	0	77	16374
2026-01-24 21:41:14.13	95.82	12.50	-53.3	-66.0	3.8	1.49e+00	0	43	104	0	77	16297
2026-01-24 21:41:15.13	96.01	12.46	-53.3	-66.1	3.8	1.49e+00	0	43	104	0	77	16342
2026-01-24 21:41:16.14	96.19	12.43	-53.3	-66.1	3.8	1.49e+00	0	43	104	0	77	16355
2026-01-24 21:41:17.15	96.37	12.39	-53.3	-66.1	3.8	1.49e+00	0	44	104	0	77	16339
2026-01-24 21:41:18.16	96.55	12.36	-53.3	-66.1	3.8	1.49e+00	0	43	104	0	77	16333
2026-01-24 21:41:19.17	96.73	12.32	-53.3	-66.1	3.8	1.49e+00	0	43	104	0	77	16352
2026-01-24 21:41:20.18	96.91	12.28	-53.3	-66.1	3.8	1.49e+00	0	43	104	0	77	16359
2026-01-24 21:41:21.18	97.09	12.24	-53.3	-66.1	3.8	1.49e+00	0	43	104	0	77	16320
2026-01-24 21:41:22.19	97.27	12.21	-53.3	-66.1	3.8	1.49e+00	0	43	104	0	77	16355
2026-01-24 21:41:23.20	97.45	12.17	-53.3	-66.1	3.8	1.49e+00	0	43	104	0	77	16361
2026-01-24 21:41:24.21	97.63	12.13	-53.3	-66.1	3.8	1.49e+00	0	43	104	0	77	16385
2026-01-24 21:41:25.22	97.81	12.09	-53.3	-66.1	3.8	1.49e+00	0	43	104	0	77	16326
2026-01-24 21:41:26.22	97.98	12.06	-53.3	-66.1	3.8	1.49e+00	0	44	104	0	77	16338
2026-01-24 21:41:27.23	98.16	12.02	-53.3	-66.1	3.8	1.49e+00	0	44	104	0	77	16370
2026-01-24 21:41:28.24	98.34	11.98	-53.3	-66.1	3.8	1.49e+00	0	44	104	0	77	16366
2026-01-24 21:41:29.24	98.51	11.94	-53.3	-66.1	3.8	1.49e+00	0	44	104	0	77	16358
2026-01-24 21:41:30.25	98.69	11.90	-53.3	-66.1	3.8	1.49e+00	0	43	104	0	77	16318
2026-01-24 21:41:31.26	98.86	11.86	-53.3	-66.1	3.8	1.49e+00	0	44	104	0	77	16395
2026-01-24 21:41:32.27	99.04	11.82	-53.3	-66.1	3.8	1.49e+00	0	43	104	0	77	16355
2026-01-24 21:41:33.28	99.21	11.78	-53.3	-66.1	3.8	1.49e+00	0	43	104	0	77	16348
2026-01-24 21:41:34.28	99.39	11.74	-53.3	-66.1	3.8	1.49e+00	0	43	104	0	77	16355
2026-01-24 21:41:35.29	99.56	11.70	-53.3	-66.0	3.8	1.49e+00	0	43	104	0	77	16312
2026-01-24 21:41:36.30	99.73	11.66	-53.3	-66.1	3.8	1.49e+00	0	43	104	0	77	16320
2026-01-24 21:41:37.31	99.91	11.62	-53.3	-66.1	3.8	1.49e+00	0	43	104	0	77	16318
2026-01-24 21:41:38.32	100.08	11.58	-53.3	-66.1	3.8	1.49e+00	0	43	104	0	77	16362
2026-01-24 21:41:39.32	100.25	11.54	-53.3	-66.1	3.8	1.49e+00	0	43	104	0	77	16343
2026-01-24 21:41:40.33	100.42	11.50	-53.3	-66.1	3.8	1.49e+00	0	43	104	0	77	16338
2026-01-24 21:41:41.34	100.59	11.46	-53.3	-66.1	3.8	1.49e+00	0	44	104	0	77	16372
2026-01-24 21:41:42.35	100.76	11.42	-53.3	-66.1	3.8	1.49e+00	0	43	104	0	77	16363
2026-01-24 21:41:43.36	100.93	11.38	-53.3	-66.1	3.8	1.49e+00	0	43	104	0	77	16383
2026-01-24 21:41:44.36	101.10	11.34	-53.3	-66.1	3.8	1.49e+00	0	43	104	0	77	16369
2026-01-24 21:41:45.37	101.27	11.30	-53.3	-66.1	3.8	1.49e+00	0	43	104	0	77	16351
2026-01-24 21:41:46.38	101.44	11.26	-53.3	-66.1	3.8	1.49e+00	0	43	104	0	77	16369
2026-01-24 21:41:47.39	101.61	11.21	-53.3	-66.1	3.8	1.49e+00	0	43	104	0	77	16366
2026-01-24 21:41:48.40	101.78	11.17	-53.3	-66.1	3.8	1.49e+00	0	43	104	0	77	16368
2026-01-24 21:41:49.40	101.94	11.13	-53.3	-66.1	3.8	1.49e+00	0	43	104	0	77	16329
2026-01-24 21:41:50.41	102.11	11.09	-53.3	-66.1	3.8	1.49e+00	0	43	104	0	77	16323
2026-01-24 21:41:51.42	102.28	11.05	-53.3	-66.1	3.8	1.49e+00	0	43	104	0	77	16331
2026-01-24 21:41:52.42	102.44	11.00	-53.3	-66.1	3.8	1.49e+00	0	43	104	0	77	16321
2026-01-24 21:41:53.43	102.61	10.96	-53.3	-66.1	3.8	1.49e+00	0	43	104	0	77	16378
2026-01-24 21:41:54.44	102.77	10.92	-53.3	-66.0	3.8	1.49e+00	0	43	104	0	77	16302
2026-01-24 21:41:55.45	102.94	10.88	-53.3	-66.1	3.8	1.49e+00	0	43	104	0	77	16364
2026-01-24 21:41:56.45	103.10	10.83	-53.3	-66.1	3.8	1.49e+00	0	43	104	0	77	16329
2026-01-24 21:41:57.46	103.26	10.79	-53.3	-66.1	3.8	1.49e+00	0	43	104	0	77	16376
2026-01-24 21:41:58.47	103.43	10.75	-53.3	-66.0	3.8	1.49e+00	0	43	104	0	77	16274
2026-01-24 21:41:59.48	103.59	10.70	-53.3	-66.1	3.8	1.49e+00	0	43	104	0	77	16320
2026-01-24 21:42:00.49	103.75	10.66	-53.3	-66.1	3.8	1.49e+00	0	44	104	0	77	16368
2026-01-24 21:42:01.50	103.91	10.62	-53.3	-66.1	3.8	1.49e+00	0	43	104	0	77	16328
2026-01-24 21:42:02.50	104.07	10.57	-53.3	-66.1	3.8	1.49e+00	0	44	104	0	77	16322
2026-01-24 21:42:03.51	104.23	10.53	-53.3	-66.1	3.8	1.49e+00	0	43	104	0	77	16388
2026-01-24 21:42:04.52	104.39	10.49	-53.3	-66.1	3.8	1.49e+00	0	43	104	0	77	16368
2026-01-24 21:42:05.53	104.55	10.44	-53.3	-66.1	3.8	1.49e+00	0	43	104	0	77	16355
2026-01-24 21:42:06.54	104.71	10.40	-53.3	-66.1	3.8	1.49e+00	0	43	104	0	77	16392
2026-01-24 21:42:07.54	104.87	10.35	-53.3	-66.1	3.8	1.49e+00	0	43	104	0	77	16331
2026-01-24 21:42:08.55	105.03	10.31	-53.3	-66.1	3.8	1.49e+00	0	43	104	0	77	16367
2026-01-24 21:42:09.56	105.19	10.26	-53.3	-66.1	3.8	1.49e+00	0	43	104	0	77	16350
2026-01-24 21:42:10.57	105.35	10.22	-53.3	-66.1	3.8	1.49e+00	0	43	104	0	77	16338
2026-01-24 21:42:11.57	105.50	10.17	-53.3	-66.1	3.8	1.49e+00	0	43	104	0	77	16367
2026-01-24 21:42:12.58	105.66	10.13	-53.3	-66.1	3.8	1.49e+00	0	43	104	0	77	16366
2026-01-24 21:42:13.59	105.82	10.08	-53.3	-66.1	3.8	1.49e+00	0	43	104	0	77	16361
2026-01-24 21:42:14.60	105.97	10.04	-53.3	-66.1	3.8	1.49e+00	0	43	104	0	77	16340
2026-01-24 21:42:15.61	106.13	9.99	-53.3	-66.0	3.8	1.49e+00	0	43	104	0	77	16311
2026-01-24 21:42:16.62	106.28	9.95	-53.3	-66.1	3.8	1.49e+00	0	43	104	0	77	16319
2026-01-24 21:42:17.62	106.43	9.90	-53.3	-66.1	3.8	1.49e+00	0	43	104	0	77	16357
2026-01-24 21:42:18.63	106.59	9.86	-53.3	-66.1	3.8	1.49e+00	0	43	104	0	77	16394
2026-01-24 21:42:19.64	106.74	9.81	-53.3	-66.1	3.8	1.49e+00	0	43	104	0	77	16359
2026-01-24 21:42:20.64	106.89	9.77	-53.3	-66.1	3.8	1.49e+00	0	43	104	0	77	16342
2026-01-24 21:42:21.65	107.05	9.72	-53.3	-66.1	3.8	1.49e+00	0	43	104	0	77	16318
2026-01-24 21:42:22.66	107.20	9.68	-53.3	-66.1	3.8	1.49e+00	0	43	104	0	77	16355
2026-01-24 21:42:23.67	107.35	9.63	-53.3	-66.1	3.8	1.49e+00	0	43	104	0	77	16381
2026-01-24 21:42:24.67	107.50	9.58	-53.3	-66.1	3.8	1.49e+00	0	43	104	0	77	16354
2026-01-24 21:42:25.68	107.65	9.54	-53.3	-66.1	3.8	1.49e+00	0	43	104	0	77	16404
2026-01-24 21:42:26.69	107.80	9.49	-53.3	-66.1	3.8	1.49e+00	0	43	104	0	77	16404
2026-01-24 21:42:27.70	107.95	9.45	-53.3	-66.1	3.8	1.49e+00	0	43	104	0	77	16339
2026-01-24 21:42:28.71	108.10	9.40	-53.3	-66.1	3.8	1.49e+00	0	43	104	0	77	16356
2026-01-24 21:42:29.71	108.25	9.35	-53.3	-66.1	3.8	1.49e+00	0	43	104	0	77	16383
2026-01-24 21:42:30.72	108.40	9.31	-53.3	-66.1	3.8	1.49e+00	0	43	104	0	77	16347
2026-01-24 21:42:31.73	108.55	9.26	-53.3	-66.1	3.8	1.49e+00	0	43	104	0	77	16358
2026-01-24 21:42:32.74	108.69	9.21	-53.3	-66.1	3.8	1.49e+00	0	43	104	0	77	16340
2026-01-24 21:42:33.75	108.84	9.17	-53.3	-66.1	3.8	1.49e+00	0	43	104	0	77	16354
2026-01-24 21:42:34.76	108.99	9.12	-53.3	-66.0	3.8	1.49e+00	0	43	104	0	77	16312
2026-01-24 21:42:35.76	109.13	9.07	-53.3	-66.0	3.8	1.49e+00	0	43	104	0	77	16308
2026-01-24 21:42:36.77	109.28	9.03	-53.3	-66.1	3.8	1.49e+00	0	43	104	0	77	16349
2026-01-24 21:42:37.78	109.42	8.98	-53.3	-66.0	3.8	1.49e+00	0	43	104	0	77	16293
2026-01-24 21:42:38.78	109.57	8.93	-53.3	-66.0	3.8	1.49e+00	0	43	104	0	77	16291
2026-01-24 21:42:39.79	109.71	8.89	-53.3	-66.1	3.8	1.49e+00	0	43	104	0	77	16329
2026-01-24 21:42:40.80	109.85	8.84	-53.3	-66.0	3.8	1.49e+00	0	43	104	0	77	16302
2026-01-24 21:42:41.81	110.00	8.79	-53.3	-66.1	3.8	1.49e+00	0	43	104	0	77	16351
2026-01-24 21:42:42.82	110.14	8.74	-53.3	-66.1	3.8	1.49e+00	0	43	104	0	77	16334
2026-01-24 21:42:43.82	110.28	8.70	-53.3	-66.1	3.8	1.49e+00	0	43	104	0	77	16339
2026-01-24 21:42:44.83	110.43	8.65	-53.3	-66.1	3.8	1.49e+00	0	43	104	0	77	16317
2026-01-24 21:42:45.84	110.57	8.60	-53.3	-66.1	3.8	1.49e+00	0	43	104	0	77	16367
2026-01-24 21:42:46.85	110.71	8.55	-53.3	-66.1	3.8	1.49e+00	0	43	104	0	77	16385
2026-01-24 21:42:47.86	110.85	8.51	-53.3	-66.1	3.8	1.49e+00	0	43	104	0	77	16336
2026-01-24 21:42:48.86	110.99	8.46	-53.3	-66.1	3.8	1.49e+00	0	43	104	0	77	16367
2026-01-24 21:42:49.87	111.13	8.41	-53.3	-66.1	3.8	1.49e+00	0	43	104	0	77	16338
2026-01-24 21:42:50.88	111.27	8.36	-53.3	-66.0	3.8	1.49e+00	0	43	104	0	77	16306
2026-01-24 21:42:51.88	111.41	8.32	-53.3	-66.1	3.8	1.49e+00	0	43	104	0	77	16322
2026-01-24 21:42:52.89	111.54	8.27	-53.3	-66.1	3.8	1.49e+00	0	43	104	0	77	16387
2026-01-24 21:42:53.90	111.68	8.22	-53.3	-66.1	3.8	1.49e+00	0	43	104	0	77	16373
2026-01-24 21:42:54.91	111.82	8.17	-53.3	-66.1	3.8	1.49e+00	0	43	104	0	77	16346
2026-01-24 21:42:55.92	111.96	8.12	-53.3	-66.1	3.8	1.49e+00	0	43	104	0	77	16386
2026-01-24 21:42:56.92	112.09	8.08	-53.3	-66.0	3.8	1.49e+00	0	43	104	0	77	16313
2026-01-24 21:42:57.93	112.23	8.03	-53.3	-66.1	3.8	1.49e+00	0	43	104	0	77	16375
2026-01-24 21:42:58.94	112.37	7.98	-53.3	-66.0	3.8	1.49e+00	0	43	104	0	77	16293
2026-01-24 21:42:59.95	112.50	7.93	-53.3	-66.1	3.8	1.49e+00	0	43	104	0	77	16328
2026-01-24 21:43:00.96	112.64	7.88	-53.3	-66.1	3.8	1.49e+00	0	43	104	0	77	16362
2026-01-24 21:43:01.96	112.77	7.83	-53.3	-66.1	3.8	1.49e+00	0	43	104	0	77	16331
2026-01-24 21:43:02.97	112.91	7.79	-53.3	-66.1	3.8	1.49e+00	0	43	104	0	77	16354
2026-01-24 21:43:03.98	113.04	7.74	-53.3	-66.1	3.8	1.49e+00	0	43	104	0	77	16347
2026-01-24 21:43:04.99	113.17	7.69	-53.3	-66.1	3.8	1.49e+00	0	43	104	0	77	16331
2026-01-24 21:43:05.99	113.31	7.64	-53.3	-66.1	3.8	1.49e+00	0	43	104	0	77	16354
2026-01-24 21:43:07.00	113.44	7.59	-53.3	-66.1	3.8	1.49e+00	0	43	104	0	77	16339
2026-01-24 21:43:08.01	113.57	7.54	-53.3	-66.1	3.8	1.49e+00	0	43	104	0	77	16340
2026-01-24 21:43:09.02	113.70	7.49	-53.3	-66.1	3.8	1.49e+00	0	43	104	0	77	16316
2026-01-24 21:43:10.02	113.83	7.45	-53.3	-66.0	3.8	1.49e+00	0	43	104	0	77	16306
2026-01-24 21:43:11.03	113.96	7.40	-53.3	-66.1	3.8	1.49e+00	0	43	104	0	77	16371
2026-01-24 21:43:12.04	114.09	7.35	-53.3	-66.1	3.8	1.49e+00	0	43	104	0	77	16323
2026-01-24 21:43:13.05	114.22	7.30	-53.3	-66.1	3.8	1.49e+00	0	43	104	0	77	16321
2026-01-24 21:43:14.06	114.35	7.25	-53.3	-66.1	3.8	1.49e+00	0	43	104	0	77	16389
2026-01-24 21:43:15.06	114.48	7.20	-53.3	-66.1	3.8	1.49e+00	0	43	104	0	77	16366
2026-01-24 21:43:16.07	114.61	7.15	-53.3	-66.0	3.8	1.49e+00	0	43	104	0	77	16255
2026-01-24 21:43:17.08	114.74	7.11	-53.3	-66.0	3.8	1.49e+00	0	43	104	0	77	16293
2026-01-24 21:43:18.08	114.87	7.06	-53.3	-66.1	3.8	1.49e+00	0	43	104	0	77	16330
2026-01-24 21:43:19.09	114.99	7.01	-53.3	-66.1	3.8	1.49e+00	0	43	104	0	77	16352
2026-01-24 21:43:20.10	115.12	6.96	-53.3	-66.1	3.8	1.49e+00	0	43	104	0	77	16378
2026-01-24 21:43:21.11	115.25	6.91	-53.3	-66.1	3.8	1.49e+00	0	43	104	0	77	16357
2026-01-24 21:43:22.12	115.37	6.86	-53.3	-66.0	3.8	1.49e+00	0	43	104	0	77	16301
2026-01-24 21:43:23.12	115.50	6.81	-53.3	-66.1	3.8	1.49e+00	0	43	104	0	77	16372
2026-01-24 21:43:24.13	115.62	6.76	-53.3	-66.1	3.8	1.49e+00	0	43	104	0	77	16349
2026-01-24 21:43:25.14	115.75	6.71	-53.3	-66.1	3.8	1.49e+00	0	43	104	0	77	16351
2026-01-24 21:43:26.15	115.88	6.66	-53.3	-66.1	3.8	1.49e+00	0	43	104	0	77	16382
2026-01-24 21:43:27.16	116.00	6.62	-53.3	-66.1	3.8	1.49e+00	0	43	104	0	77	16320
2026-01-24 21:43:28.16	116.12	6.57	-53.3	-66.0	3.8	1.49e+00	0	43	104	0	77	16314
2026-01-24 21:43:29.17	116.25	6.52	-53.3	-66.1	3.8	1.49e+00	0	43	104	0	77	16322
2026-01-24 21:43:30.18	116.37	6.47	-53.3	-66.0	3.8	1.49e+00	0	43	104	0	77	16314
2026-01-24 21:43:31.19	116.49	6.42	-53.3	-66.1	3.8	1.49e+00	0	43	104	0	77	16326
2026-01-24 21:43:32.20	116.61	6.37	-53.3	-66.0	3.8	1.49e+00	0	43	104	0	77	16313
2026-01-24 21:43:33.20	116.74	6.32	-53.3	-66.1	3.8	1.49e+00	0	43	104	0	77	16324
2026-01-24 21:43:34.21	116.86	6.27	-53.3	-66.1	3.8	1.49e+00	0	43	104	0	77	16330
2026-01-24 21:43:35.22	116.98	6.22	-53.3	-66.1	3.8	1.49e+00	0	43	104	0	77	16343
2026-01-24 21:43:36.22	117.10	6.17	-53.3	-66.1	3.8	1.49e+00	0	43	104	0	77	16323
2026-01-24 21:43:37.23	117.22	6.12	-53.3	-66.1	3.8	1.49e+00	0	43	104	0	77	16400
2026-01-24 21:43:38.24	117.34	6.08	-53.3	-66.1	3.8	1.49e+00	0	43	104	0	77	16354
2026-01-24 21:43:39.25	117.46	6.03	-53.3	-66.1	3.8	1.49e+00	0	43	104	0	77	16348
2026-01-24 21:43:40.26	117.58	5.98	-53.3	-66.0	3.8	1.49e+00	0	43	104	0	77	16303
2026-01-24 21:43:41.26	117.70	5.93	-53.3	-66.1	3.8	1.49e+00	0	43	104	0	77	16325
2026-01-24 21:43:42.27	117.81	5.88	-53.3	-66.1	3.8	1.49e+00	0	43	104	0	77	16329
2026-01-24 21:43:43.28	117.93	5.83	-53.3	-66.1	3.8	1.49e+00	0	43	104	0	77	16386
2026-01-24 21:43:44.29	118.05	5.78	-53.3	-66.1	3.8	1.49e+00	0	43	104	0	77	16334
2026-01-24 21:43:45.29	118.17	5.73	-53.3	-66.1	3.8	1.49e+00	0	43	104	0	77	16316
2026-01-24 21:43:46.30	118.28	5.68	-53.3	-66.1	3.8	1.49e+00	0	43	104	0	77	16334
2026-01-24 21:43:47.31	118.40	5.63	-53.3	-66.1	3.8	1.49e+00	0	43	104	0	77	16352
2026-01-24 21:43:48.32	118.52	5.58	-53.3	-66.1	3.8	1.49e+00	0	43	104	0	77	16317
2026-01-24 21:43:49.33	118.63	5.53	-53.3	-66.1	3.8	1.49e+00	0	43	104	0	77	16334
2026-01-24 21:43:50.33	118.75	5.48	-53.3	-66.0	3.8	1.49e+00	0	43	104	0	77	16309
2026-01-24 21:43:51.34	118.86	5.43	-53.3	-66.1	3.8	1.49e+00	0	43	104	0	77	16377
2026-01-24 21:43:52.35	118.98	5.39	-53.3	-66.1	3.8	1.49e+00	0	43	104	0	77	16360
2026-01-24 21:43:53.36	119.09	5.34	-53.3	-66.0	3.8	1.49e+00	0	43	104	0	77	16305
2026-01-24 21:43:54.37	119.21	5.29	-53.3	-66.1	3.8	1.49e+00	0	43	104	0	77	16362
2026-01-24 21:43:55.38	119.32	5.24	-53.3	-66.1	3.8	1.49e+00	0	43	104	0	77	16341
2026-01-24 21:43:56.38	119.43	5.19	-53.3	-66.1	3.8	1.49e+00	0	43	104	0	77	16337
2026-01-24 21:43:57.39	119.54	5.14	-53.3	-66.1	3.8	1.49e+00	0	43	104	0	77	16390
2026-01-24 21:43:58.40	119.66	5.09	-53.3	-66.1	3.8	1.49e+00	0	43	104	0	77	16369
2026-01-24 21:43:59.40	119.77	5.04	-53.3	-66.1	3.8	1.49e+00	0	43	104	0	77	16339
2026-01-24 21:44:00.41	119.88	4.99	-53.3	-66.1	3.8	1.49e+00	0	43	104	0	77	16353
2026-01-24 21:44:01.42	119.99	4.94	-53.3	-66.1	3.8	1.49e+00	0	43	104	0	77	16366
2026-01-24 21:44:02.43	120.10	4.89	-53.3	-66.1	3.8	1.49e+00	0	43	104	0	77	16363
2026-01-24 21:44:03.43	120.21	4.84	-53.3	-66.1	3.8	1.49e+00	0	43	104	0	77	16371
2026-01-24 21:44:04.44	120.32	4.79	-53.3	-66.1	3.8	1.49e+00	0	43	104	0	77	16342
2026-01-24 21:44:05.45	120.43	4.74	-53.3	-66.1	3.8	1.49e+00	0	43	104	0	77	16360
2026-01-24 21:44:06.46	120.54	4.70	-53.3	-66.1	3.8	1.49e+00	0	43	104	0	77	16345
2026-01-24 21:44:07.47	120.65	4.65	-53.3	-66.1	3.8	1.49e+00	0	43	104	0	77	16341
2026-01-24 21:44:08.47	120.76	4.60	-53.3	-66.0	3.8	1.49e+00	0	43	104	0	77	16286
2026-01-24 21:44:09.48	120.87	4.55	-53.3	-66.1	3.8	1.49e+00	0	43	104	0	77	16321
2026-01-24 21:44:10.49	120.98	4.50	-53.3	-66.1	3.8	1.49e+00	0	43	104	0	77	16328
2026-01-24 21:44:11.50	121.08	4.45	-53.3	-66.1	3.8	1.49e+00	0	43	104	0	77	16339
2026-01-24 21:44:12.50	121.19	4.40	-53.3	-66.1	3.8	1.49e+00	0	43	104	0	77	16355
2026-01-24 21:44:13.51	121.30	4.35	-53.3	-66.0	3.8	1.49e+00	0	43	104	0	77	16306
2026-01-24 21:44:14.52	121.41	4.30	-53.3	-66.1	3.8	1.49e+00	0	43	104	0	77	16349
2026-01-24 21:44:15.53	121.51	4.25	-53.3	-66.1	3.8	1.49e+00	0	43	104	0	77	16343
2026-01-24 21:44:16.53	121.62	4.20	-53.3	-66.1	3.8	1.49e+00	0	43	104	0	77	16334
2026-01-24 21:44:17.54	121.72	4.15	-53.3	-66.0	3.8	1.49e+00	0	43	104	0	77	16314
2026-01-24 21:44:18.55	121.83	4.11	-53.3	-66.1	3.8	1.49e+00	0	43	104	0	77	16343
2026-01-24 21:44:19.56	121.93	4.06	-53.3	-66.1	3.8	1.49e+00	0	43	104	0	77	16332
2026-01-24 21:44:20.57	122.04	4.01	-53.3	-66.0	3.8	1.49e+00	0	43	104	0	77	16286
2026-01-24 21:44:21.57	122.14	3.96	-53.3	-66.0	3.8	1.49e+00	0	43	104	0	77	16312
2026-01-24 21:44:22.58	122.25	3.91	-53.3	-66.1	3.8	1.49e+00	0	43	104	0	77	16332
2026-01-24 21:44:23.59	122.35	3.86	-53.3	-66.0	3.8	1.49e+00	0	43	104	0	77	16311
2026-01-24 21:44:24.60	122.45	3.81	-53.3	-66.1	3.8	1.49e+00	0	43	104	0	77	16340
2026-01-24 21:44:25.61	122.56	3.76	-53.3	-66.0	3.8	1.49e+00	0	43	104	0	77	16308
2026-01-24 21:44:26.62	122.66	3.71	-53.3	-66.1	3.8	1.49e+00	0	43	104	0	77	16344
2026-01-24 21:44:27.62	122.76	3.66	-53.3	-66.1	3.8	1.49e+00	0	43	104	0	77	16372
2026-01-24 21:44:28.63	122.86	3.61	-53.3	-66.0	3.8	1.49e+00	0	43	104	0	77	16307
2026-01-24 21:44:29.64	122.97	3.57	-53.3	-66.1	3.8	1.49e+00	0	43	104	0	77	16332
2026-01-24 21:44:30.65	123.07	3.52	-53.3	-66.1	3.8	1.49e+00	0	43	104	0	77	16328
2026-01-24 21:44:31.66	123.17	3.47	-53.3	-66.0	3.8	1.49e+00	0	43	104	0	77	16264
2026-01-24 21:44:32.66	123.27	3.42	-53.3	-66.1	3.8	1.49e+00	0	43	104	0	77	16354
2026-01-24 21:44:33.67	123.37	3.37	-53.3	-66.0	3.8	1.49e+00	0	43	104	0	77	16309
2026-01-24 21:44:34.68	123.47	3.32	-53.3	-66.1	3.8	1.49e+00	0	43	104	0	77	16342
2026-01-24 21:44:35.69	123.57	3.27	-53.3	-66.0	3.8	1.49e+00	0	43	104	0	77	16291
2026-01-24 21:44:36.70	123.67	3.22	-53.3	-66.0	3.8	1.49e+00	0	43	104	0	77	16299
2026-01-24 21:44:37.70	123.77	3.17	-53.3	-66.0	3.8	1.49e+00	0	43	104	0	77	16294
2026-01-24 21:44:38.71	123.87	3.12	-53.3	-66.1	3.8	1.49e+00	0	43	104	0	77	16329
2026-01-24 21:44:39.72	123.97	3.08	-53.3	-66.1	3.8	1.49e+00	0	43	104	0	77	16337
2026-01-24 21:44:40.73	124.06	3.03	-53.3	-66.0	3.8	1.49e+00	0	43	104	0	77	16289
2026-01-24 21:44:41.73	124.16	2.98	-53.3	-66.1	3.8	1.49e+00	0	43	104	0	77	16359
2026-01-24 21:44:42.74	124.26	2.93	-53.3	-66.1	3.8	1.49e+00	0	43	104	0	77	16332
2026-01-24 21:44:43.75	124.36	2.88	-53.3	-66.1	3.8	1.49e+00	0	43	104	0	77	16332
2026-01-24 21:44:44.76	124.45	2.83	-53.3	-66.0	3.8	1.49e+00	0	43	104	0	77	16278
2026-01-24 21:44:45.77	124.55	2.78	-53.3	-66.1	3.8	1.49e+00	0	43	104	0	77	16327
2026-01-24 21:44:46.77	124.65	2.73	-53.3	-66.1	3.8	1.49e+00	0	43	104	0	77	16317
2026-01-24 21:44:47.78	124.74	2.69	-53.3	-66.0	3.8	1.49e+00	0	43	104	0	77	16304
2026-01-24 21:44:48.79	124.84	2.64	-53.3	-66.1	3.8	1.49e+00	0	43	104	0	77	16327
2026-01-24 21:44:49.80	124.94	2.59	-53.3	-66.0	3.8	1.49e+00	0	43	104	0	77	16297
2026-01-24 21:44:50.81	125.03	2.54	-53.3	-66.1	3.8	1.49e+00	0	43	104	0	77	16329
2026-01-24 21:44:51.82	125.13	2.49	-53.3	-66.1	3.8	1.49e+00	0	43	104	0	77	16340
2026-01-24 21:44:52.82	125.22	2.44	-53.3	-66.0	3.8	1.49e+00	0	43	104	0	77	16312
2026-01-24 21:44:53.83	125.31	2.39	-53.3	-66.1	3.8	1.49e+00	0	43	104	0	77	16318
2026-01-24 21:44:54.84	125.41	2.35	-53.3	-66.1	3.8	1.49e+00	0	43	104	0	77	16322
2026-01-24 21:44:55.84	125.50	2.30	-53.3	-66.0	3.8	1.49e+00	0	43	104	0	77	16286
2026-01-24 21:44:56.85	125.59	2.25	-53.3	-66.1	3.8	1.49e+00	0	43	104	0	77	16325
2026-01-24 21:44:57.86	125.69	2.20	-53.3	-66.1	3.8	1.49e+00	0	43	104	0	77	16338
2026-01-24 21:44:58.87	125.78	2.15	-53.3	-66.0	3.8	1.49e+00	0	43	104	0	77	16302
2026-01-24 21:44:59.87	125.87	2.10	-53.3	-66.1	3.8	1.49e+00	0	43	104	0	77	16331
2026-01-24 21:45:00.88	125.97	2.06	-53.3	-66.1	3.8	1.49e+00	0	43	104	0	77	16338
2026-01-24 21:45:01.89	126.06	2.01	-53.3	-66.1	3.8	1.49e+00	0	43	104	0	77	16348

#Closed at: 2026-01-24 21:45:02
#Recorded file [0 MB]: D:/lorett/data/31041_260125_003327.dat