passes_logs/2026/01/24/R3.2S_Murmansk/R3.2S_Murmansk__20260124_214731_KANOPUS-V_5_rec.log

#Pass ID: 20260124_214731_KANOPUS-V 5
#Satellite: KANOPUS-V 5
#Configuration: KANOPUS-V_8320
#almurnet v.1.7.20251203
#Start time: 2026-01-24 21:47:31

#Version: 2.2.20231116
#Station: R3.2S_Murmansk
#Location: 33.079688 lon 68.888172 lat
#TLE: 1 43876U 18111A   26024.56308124  .00005576  00000+0  23637-3 0  9999
#TLE: 2 43876  97.3675 292.9046 0001836  88.4349 271.7099 15.23529556392926

#Time	Az	El	Level	Level2	SNR	BER	BlckErr	Temp	State	Recorded	gain1	gain2
2026-01-24 21:47:31.77	20.83	1.99	-54.1	-62.9	3.8	7.45e-01	0	42	0	0	78	10774
2026-01-24 21:47:32.78	20.86	2.06	-54.1	-63.0	3.8	7.45e-01	0	42	104	0	79	10191
2026-01-24 21:47:33.79	20.89	2.13	-54.1	-63.0	3.8	7.46e-01	0	42	104	0	79	10207
2026-01-24 21:47:34.79	20.91	2.20	-54.1	-63.0	3.8	7.46e-01	0	42	104	0	79	10181
2026-01-24 21:47:35.80	20.94	2.27	-54.1	-63.0	3.8	7.45e-01	0	42	104	0	79	10195
2026-01-24 21:47:36.81	20.97	2.34	-54.1	-63.0	3.8	7.45e-01	0	42	104	0	79	10189
2026-01-24 21:47:37.82	21.00	2.41	-54.1	-62.9	3.8	7.45e-01	0	42	104	0	79	10160
2026-01-24 21:47:38.83	21.03	2.48	-54.1	-63.0	3.8	7.44e-01	0	42	104	0	79	10212
2026-01-24 21:47:39.83	21.06	2.55	-54.1	-63.0	3.8	7.46e-01	0	42	104	0	79	10179
2026-01-24 21:47:40.84	21.08	2.63	-54.1	-63.0	3.8	7.44e-01	0	42	104	0	79	10193
2026-01-24 21:47:41.86	21.11	2.70	-54.1	-62.9	3.8	7.44e-01	0	42	104	0	79	10149
2026-01-24 21:47:42.86	21.14	2.77	-54.1	-63.0	3.8	7.47e-01	0	42	104	0	79	10194
2026-01-24 21:47:43.87	21.17	2.84	-54.1	-63.0	3.8	7.46e-01	0	42	104	0	79	10206
2026-01-24 21:47:44.88	21.20	2.91	-54.1	-62.9	3.8	7.45e-01	0	42	104	0	79	10139
2026-01-24 21:47:45.89	21.23	2.99	-54.1	-62.9	3.8	7.45e-01	0	42	104	0	79	10150
2026-01-24 21:47:46.89	21.26	3.06	-54.1	-62.9	3.8	7.45e-01	0	42	104	0	79	10162
2026-01-24 21:47:47.90	21.29	3.13	-54.1	-62.9	3.8	7.47e-01	0	42	104	0	79	10168
2026-01-24 21:47:48.91	21.32	3.21	-54.1	-62.9	3.8	7.43e-01	0	42	104	0	79	10169
2026-01-24 21:47:49.92	21.35	3.28	-54.1	-63.0	3.8	7.45e-01	0	42	104	0	79	10177
2026-01-24 21:47:50.93	21.38	3.35	-54.1	-62.9	3.8	7.44e-01	0	43	104	0	79	10161
2026-01-24 21:47:51.93	21.41	3.43	-54.1	-63.0	3.8	7.45e-01	0	42	104	0	79	10199
2026-01-24 21:47:52.94	21.44	3.50	-54.1	-63.0	3.8	7.45e-01	0	43	104	0	79	10182
2026-01-24 21:47:53.95	21.47	3.58	-54.1	-63.0	3.8	7.46e-01	0	43	104	0	79	10179
2026-01-24 21:47:54.96	21.50	3.65	-54.1	-63.0	3.8	7.45e-01	0	42	104	0	79	10181
2026-01-24 21:47:55.97	21.53	3.73	-54.1	-63.0	3.8	7.44e-01	0	42	104	0	79	10181
2026-01-24 21:47:56.97	21.56	3.80	-54.1	-62.9	3.8	7.47e-01	0	43	104	0	79	10151
2026-01-24 21:47:57.98	21.60	3.88	-54.1	-62.9	3.8	7.46e-01	0	43	104	0	79	10167
2026-01-24 21:47:58.99	21.63	3.95	-54.1	-63.0	3.8	7.45e-01	0	43	104	0	79	10182
2026-01-24 21:48:00.00	21.66	4.03	-54.1	-63.0	3.8	7.46e-01	0	43	104	0	79	10181
2026-01-24 21:48:01.01	21.69	4.11	-54.1	-62.9	3.8	7.46e-01	0	43	104	0	79	10140
2026-01-24 21:48:02.02	21.72	4.18	-54.1	-62.9	3.8	7.45e-01	0	42	104	0	79	10161
2026-01-24 21:48:03.02	21.76	4.26	-54.1	-63.0	3.8	7.43e-01	0	42	104	0	79	10201
2026-01-24 21:48:04.03	21.79	4.34	-54.1	-63.0	3.8	7.45e-01	0	43	104	0	79	10184
2026-01-24 21:48:05.04	21.82	4.42	-54.1	-62.9	3.8	7.45e-01	0	43	104	0	79	10173
2026-01-24 21:48:06.05	21.85	4.50	-54.1	-63.0	3.8	7.44e-01	0	43	104	0	79	10198
2026-01-24 21:48:07.06	21.89	4.57	-54.1	-62.9	3.8	7.46e-01	0	43	104	0	79	10134
2026-01-24 21:48:08.06	21.92	4.65	-54.1	-63.0	3.8	7.45e-01	0	43	104	0	79	10202
2026-01-24 21:48:09.07	21.95	4.73	-54.1	-63.0	3.8	7.46e-01	0	43	104	0	79	10193
2026-01-24 21:48:10.08	21.99	4.81	-54.1	-63.0	3.8	7.44e-01	0	43	104	0	79	10189
2026-01-24 21:48:11.09	22.02	4.89	-54.1	-62.9	3.8	7.45e-01	0	43	104	0	79	10167
2026-01-24 21:48:12.10	22.06	4.97	-54.1	-62.9	3.8	7.46e-01	0	43	104	0	79	10162
2026-01-24 21:48:13.10	22.09	5.05	-54.1	-63.0	3.8	7.45e-01	0	43	104	0	79	10176
2026-01-24 21:48:14.11	22.13	5.13	-54.1	-63.0	3.8	7.46e-01	0	43	104	0	79	10193
2026-01-24 21:48:15.12	22.16	5.21	-54.1	-63.0	3.8	7.45e-01	0	43	104	0	79	10198
2026-01-24 21:48:16.13	22.20	5.29	-54.1	-63.0	3.8	7.44e-01	0	43	104	0	79	10189
2026-01-24 21:48:17.13	22.23	5.37	-54.1	-63.0	3.8	7.46e-01	0	43	104	0	79	10183
2026-01-24 21:48:18.14	22.27	5.46	-54.1	-62.9	3.8	7.45e-01	0	43	104	0	79	10175
2026-01-24 21:48:19.15	22.30	5.54	-54.1	-63.0	3.8	7.45e-01	0	43	104	0	79	10200
2026-01-24 21:48:20.16	22.34	5.62	-54.1	-62.9	3.8	7.47e-01	0	43	104	0	79	10174
2026-01-24 21:48:21.17	22.37	5.70	-54.1	-62.9	3.8	7.44e-01	0	43	104	0	79	10171
2026-01-24 21:48:22.18	22.41	5.79	-54.1	-63.0	3.8	7.45e-01	0	43	104	0	79	10216
2026-01-24 21:48:23.18	22.45	5.87	-54.1	-63.0	3.8	7.45e-01	0	43	104	0	79	10194
2026-01-24 21:48:24.19	22.48	5.95	-54.1	-62.9	3.8	7.45e-01	0	43	104	0	79	10152
2026-01-24 21:48:25.20	22.52	6.04	-54.1	-62.9	3.8	7.45e-01	0	43	104	0	79	10161
2026-01-24 21:48:26.21	22.56	6.12	-54.1	-63.0	3.8	7.45e-01	0	43	104	0	79	10177
2026-01-24 21:48:27.21	22.59	6.21	-54.1	-62.9	3.8	7.45e-01	0	43	104	0	79	10174
2026-01-24 21:48:28.22	22.63	6.29	-54.1	-63.0	3.8	7.46e-01	0	42	104	0	79	10197
2026-01-24 21:48:29.23	22.67	6.38	-54.1	-62.9	3.8	7.46e-01	0	43	104	0	79	10149
2026-01-24 21:48:30.24	22.71	6.47	-54.1	-63.0	3.8	7.46e-01	0	43	104	0	79	10193
2026-01-24 21:48:31.25	22.75	6.55	-54.1	-62.9	3.8	7.45e-01	0	43	104	0	79	10171
2026-01-24 21:48:32.25	22.79	6.64	-54.1	-62.9	3.8	7.46e-01	0	43	104	0	79	10159
2026-01-24 21:48:33.26	22.82	6.73	-54.1	-62.9	3.8	7.45e-01	0	43	104	0	79	10148
2026-01-24 21:48:34.27	22.86	6.81	-54.1	-63.0	3.8	7.44e-01	0	43	104	0	79	10185
2026-01-24 21:48:35.28	22.90	6.90	-54.1	-63.0	3.8	7.45e-01	0	43	104	0	79	10195
2026-01-24 21:48:36.29	22.94	6.99	-54.1	-63.0	3.8	7.46e-01	0	43	104	0	79	10190
2026-01-24 21:48:37.29	22.98	7.08	-54.1	-62.9	3.8	7.45e-01	0	43	104	0	79	10164
2026-01-24 21:48:38.30	23.02	7.17	-54.1	-62.9	3.8	7.46e-01	0	43	104	0	79	10167
2026-01-24 21:48:39.31	23.06	7.26	-54.1	-62.9	3.8	7.45e-01	0	43	104	0	79	10151
2026-01-24 21:48:40.31	23.11	7.35	-54.1	-62.9	3.8	7.46e-01	0	43	104	0	79	10164
2026-01-24 21:48:41.32	23.15	7.44	-54.1	-63.0	3.8	7.45e-01	0	43	104	0	79	10188
2026-01-24 21:48:42.33	23.19	7.53	-54.1	-62.9	3.8	7.45e-01	0	43	104	0	79	10174
2026-01-24 21:48:43.34	23.23	7.62	-54.1	-63.0	3.8	7.44e-01	0	43	104	0	79	10182
2026-01-24 21:48:44.35	23.27	7.71	-54.1	-63.0	3.8	7.47e-01	0	43	104	0	79	10187
2026-01-24 21:48:45.36	23.31	7.81	-54.1	-63.0	3.8	7.46e-01	0	43	104	0	79	10199
2026-01-24 21:48:46.37	23.36	7.90	-54.1	-62.9	3.8	7.48e-01	0	43	104	0	79	10142
2026-01-24 21:48:47.37	23.40	7.99	-54.1	-63.0	3.8	7.46e-01	0	43	104	0	79	10180
2026-01-24 21:48:48.38	23.44	8.09	-54.1	-63.0	3.8	7.45e-01	0	43	104	0	79	10179
2026-01-24 21:48:49.38	23.49	8.18	-54.1	-62.9	3.8	7.45e-01	0	43	104	0	79	10165
2026-01-24 21:48:50.39	23.53	8.27	-54.1	-62.9	3.8	7.45e-01	0	43	104	0	79	10170
2026-01-24 21:48:51.40	23.58	8.37	-54.1	-63.0	3.8	7.44e-01	0	43	104	0	79	10196
2026-01-24 21:48:52.40	23.62	8.46	-54.1	-62.9	3.8	7.47e-01	0	43	104	0	79	10174
2026-01-24 21:48:53.41	23.66	8.56	-54.1	-62.9	3.8	7.44e-01	0	43	104	0	79	10152
2026-01-24 21:48:54.42	23.71	8.66	-54.1	-62.9	3.8	7.47e-01	0	43	104	0	79	10147
2026-01-24 21:48:55.43	23.76	8.75	-54.1	-62.9	3.8	7.46e-01	0	43	104	0	79	10169
2026-01-24 21:48:56.43	23.80	8.85	-54.1	-63.0	3.8	7.44e-01	0	43	104	0	79	10206
2026-01-24 21:48:57.44	23.85	8.95	-54.1	-62.9	3.8	7.48e-01	0	43	104	0	79	10165
2026-01-24 21:48:58.45	23.89	9.05	-54.1	-63.0	3.8	7.46e-01	0	43	104	0	79	10201
2026-01-24 21:48:59.46	23.94	9.15	-54.1	-63.0	3.8	7.47e-01	0	43	104	0	79	10185
2026-01-24 21:49:00.46	23.99	9.25	-54.1	-63.0	3.8	7.45e-01	0	43	104	0	79	10196
2026-01-24 21:49:01.47	24.04	9.35	-54.1	-63.0	3.8	7.46e-01	0	43	104	0	79	10192
2026-01-24 21:49:02.48	24.08	9.45	-54.1	-63.0	3.8	7.44e-01	0	43	104	0	79	10181
2026-01-24 21:49:03.49	24.13	9.55	-54.1	-63.0	3.8	7.44e-01	0	43	104	0	79	10214
2026-01-24 21:49:04.50	24.18	9.65	-54.1	-63.0	3.8	7.46e-01	0	43	104	0	79	10186
2026-01-24 21:49:05.50	24.23	9.75	-54.1	-62.9	3.8	7.45e-01	0	43	104	0	79	10171
2026-01-24 21:49:06.51	24.28	9.86	-54.1	-62.9	3.8	7.45e-01	0	43	104	0	79	10168
2026-01-24 21:49:07.52	24.33	9.96	-54.1	-63.0	3.8	7.44e-01	0	43	104	0	79	10195
2026-01-24 21:49:08.53	24.38	10.06	-54.1	-62.9	3.8	7.45e-01	0	43	104	0	79	10164
2026-01-24 21:49:09.54	24.43	10.17	-54.1	-62.9	3.8	7.46e-01	0	43	104	0	79	10158
2026-01-24 21:49:10.54	24.48	10.27	-54.1	-63.0	3.8	7.47e-01	0	43	104	0	79	10216
2026-01-24 21:49:11.55	24.53	10.38	-54.1	-63.0	3.8	7.45e-01	0	43	104	0	79	10199
2026-01-24 21:49:12.56	24.59	10.48	-54.1	-63.0	3.8	7.45e-01	0	43	104	0	79	10210
2026-01-24 21:49:13.57	24.64	10.59	-54.1	-63.0	3.8	7.47e-01	0	43	104	0	79	10217
2026-01-24 21:49:14.58	24.69	10.70	-54.1	-63.0	3.8	7.46e-01	0	43	104	0	79	10203
2026-01-24 21:49:15.58	24.75	10.81	-54.1	-63.0	3.8	7.45e-01	0	43	104	0	79	10197
2026-01-24 21:49:16.59	24.80	10.91	-54.1	-63.0	3.8	7.45e-01	0	43	104	0	79	10195
2026-01-24 21:49:17.60	24.85	11.02	-54.1	-63.0	3.8	7.44e-01	0	43	104	0	79	10210
2026-01-24 21:49:18.60	24.91	11.13	-54.1	-63.0	3.8	7.46e-01	0	43	104	0	79	10194
2026-01-24 21:49:19.61	24.96	11.24	-54.1	-62.9	3.8	7.46e-01	0	43	104	0	79	10165
2026-01-24 21:49:20.62	25.02	11.36	-54.1	-63.0	3.8	7.46e-01	0	43	104	0	79	10190
2026-01-24 21:49:21.63	25.08	11.47	-54.1	-62.9	3.8	7.46e-01	0	43	104	0	79	10175
2026-01-24 21:49:22.63	25.13	11.58	-54.1	-62.9	3.8	7.45e-01	0	43	104	0	79	10164
2026-01-24 21:49:23.64	25.19	11.69	-54.1	-63.0	3.8	7.46e-01	0	43	104	0	79	10190
2026-01-24 21:49:24.65	25.25	11.81	-54.1	-63.0	3.8	7.44e-01	0	43	104	0	79	10205
2026-01-24 21:49:25.66	25.30	11.92	-54.1	-63.0	3.8	7.45e-01	0	43	104	0	79	10189
2026-01-24 21:49:26.67	25.36	12.04	-54.1	-63.0	3.8	7.46e-01	0	43	104	0	79	10216
2026-01-24 21:49:27.67	25.42	12.15	-54.1	-63.0	3.8	7.44e-01	0	43	104	0	79	10196
2026-01-24 21:49:28.68	25.48	12.27	-54.1	-62.9	3.8	7.46e-01	0	43	104	0	79	10172
2026-01-24 21:49:29.69	25.54	12.39	-54.1	-62.9	3.8	7.45e-01	0	43	104	0	79	10168
2026-01-24 21:49:30.70	25.60	12.51	-54.1	-62.9	3.8	7.44e-01	0	43	104	0	79	10156
2026-01-24 21:49:31.71	25.66	12.62	-54.1	-62.9	3.8	7.44e-01	0	43	104	0	79	10153
2026-01-24 21:49:32.71	25.73	12.74	-54.1	-62.9	3.8	7.45e-01	0	43	104	0	79	10175
2026-01-24 21:49:33.72	25.79	12.86	-54.1	-63.0	3.8	7.45e-01	0	43	104	0	79	10209
2026-01-24 21:49:34.73	25.85	12.99	-54.1	-62.9	3.8	7.45e-01	0	43	104	0	79	10158
2026-01-24 21:49:35.74	25.92	13.11	-54.1	-63.0	3.8	7.45e-01	0	43	104	0	79	10189
2026-01-24 21:49:36.75	25.98	13.23	-54.1	-63.0	3.8	7.45e-01	0	43	104	0	79	10181
2026-01-24 21:49:37.75	26.04	13.35	-54.1	-63.0	3.8	7.46e-01	0	43	104	0	79	10198
2026-01-24 21:49:38.76	26.11	13.48	-54.1	-63.0	3.8	7.46e-01	0	43	104	0	79	10199
2026-01-24 21:49:39.77	26.18	13.60	-54.1	-63.0	3.8	7.46e-01	0	43	104	0	79	10180
2026-01-24 21:49:40.78	26.24	13.73	-54.1	-63.0	3.8	7.45e-01	0	43	104	0	79	10186
2026-01-24 21:49:41.79	26.31	13.86	-54.1	-63.0	3.8	7.45e-01	0	43	104	0	79	10196
2026-01-24 21:49:42.79	26.38	13.98	-54.1	-63.0	3.8	7.43e-01	0	43	104	0	79	10185
2026-01-24 21:49:43.80	26.45	14.11	-54.1	-62.9	3.8	7.44e-01	0	43	104	0	79	10157
2026-01-24 21:49:44.81	26.52	14.24	-54.1	-62.9	3.8	7.47e-01	0	43	104	0	79	10170
2026-01-24 21:49:45.82	26.59	14.37	-54.1	-63.0	3.8	7.45e-01	0	43	104	0	79	10184
2026-01-24 21:49:46.82	26.66	14.50	-54.1	-63.0	3.8	7.45e-01	0	43	104	0	79	10218
2026-01-24 21:49:47.83	26.73	14.64	-54.1	-62.9	3.8	7.44e-01	0	43	104	0	79	10163
2026-01-24 21:49:48.84	26.80	14.77	-54.1	-62.9	3.8	7.44e-01	0	43	104	0	79	10129
2026-01-24 21:49:49.85	26.87	14.90	-54.1	-62.9	3.8	7.46e-01	0	43	104	0	79	10170
2026-01-24 21:49:50.86	26.95	15.04	-54.1	-63.0	3.8	7.47e-01	0	43	104	0	79	10180
2026-01-24 21:49:51.87	27.02	15.17	-54.1	-62.9	3.8	7.47e-01	0	43	104	0	79	10161
2026-01-24 21:49:52.88	27.10	15.31	-54.1	-62.9	3.8	7.46e-01	0	43	104	0	79	10174
2026-01-24 21:49:53.88	27.17	15.45	-54.1	-63.0	3.8	7.46e-01	0	43	104	0	79	10202
2026-01-24 21:49:54.89	27.25	15.59	-54.1	-62.9	3.8	7.46e-01	0	43	104	0	79	10124
2026-01-24 21:49:55.90	27.33	15.73	-54.1	-63.0	3.8	7.47e-01	0	43	104	0	79	10194
2026-01-24 21:49:56.90	27.40	15.87	-54.1	-62.9	3.8	7.48e-01	0	43	104	0	79	10167
2026-01-24 21:49:57.91	27.48	16.01	-54.1	-63.0	3.8	7.45e-01	0	43	104	0	79	10189
2026-01-24 21:49:58.92	27.56	16.15	-54.1	-63.0	3.8	7.44e-01	0	43	104	0	79	10178
2026-01-24 21:49:59.93	27.64	16.30	-54.1	-62.9	3.8	7.45e-01	0	43	104	0	79	10170
2026-01-24 21:50:00.94	27.73	16.44	-54.1	-62.9	3.8	7.45e-01	0	43	104	0	79	10145
2026-01-24 21:50:01.94	27.81	16.59	-54.1	-62.9	3.8	7.46e-01	0	43	104	0	79	10165
2026-01-24 21:50:02.95	27.89	16.73	-54.1	-63.0	3.8	7.44e-01	0	43	104	0	79	10193
2026-01-24 21:50:03.96	27.98	16.88	-54.1	-62.9	3.8	7.46e-01	0	44	104	0	79	10165
2026-01-24 21:50:04.96	28.06	17.03	-54.1	-63.0	3.8	7.46e-01	0	43	104	0	79	10185
2026-01-24 21:50:05.97	28.15	17.18	-54.1	-63.0	3.8	7.44e-01	0	43	104	0	79	10191
2026-01-24 21:50:06.98	28.23	17.33	-54.1	-62.9	3.8	7.45e-01	0	43	104	0	79	10169
2026-01-24 21:50:07.98	28.32	17.49	-54.1	-63.0	3.8	7.44e-01	0	43	104	0	79	10182
2026-01-24 21:50:08.99	28.41	17.64	-54.1	-62.9	3.8	7.44e-01	0	44	104	0	79	10160
2026-01-24 21:50:10.00	28.50	17.80	-54.1	-63.0	3.8	7.44e-01	0	44	104	0	79	10178
2026-01-24 21:50:11.01	28.59	17.95	-54.1	-63.0	3.8	7.44e-01	0	44	104	0	79	10177
2026-01-24 21:50:12.01	28.68	18.11	-54.1	-62.9	3.8	7.46e-01	0	43	104	0	79	10127
2026-01-24 21:50:13.02	28.78	18.27	-54.1	-63.0	3.8	7.44e-01	0	43	104	0	79	10195
2026-01-24 21:50:14.03	28.87	18.43	-54.1	-63.0	3.8	7.45e-01	0	43	104	0	79	10192
2026-01-24 21:50:15.04	28.97	18.59	-54.1	-62.9	3.8	7.45e-01	0	44	104	0	79	10173
2026-01-24 21:50:16.05	29.06	18.75	-54.1	-62.9	3.8	7.45e-01	0	44	104	0	79	10157
2026-01-24 21:50:17.06	29.16	18.92	-54.1	-62.9	3.8	7.46e-01	0	43	104	0	79	10172
2026-01-24 21:50:18.06	29.26	19.08	-54.1	-62.9	3.8	7.45e-01	0	43	104	0	79	10170
2026-01-24 21:50:19.07	29.36	19.25	-54.1	-62.9	3.8	7.45e-01	0	43	104	0	79	10166
2026-01-24 21:50:20.08	29.46	19.42	-54.1	-62.9	3.8	7.45e-01	0	44	104	0	79	10154
2026-01-24 21:50:21.09	29.57	19.59	-54.1	-63.0	3.8	7.45e-01	0	43	104	0	79	10188
2026-01-24 21:50:22.10	29.67	19.76	-54.1	-63.0	3.8	7.44e-01	0	43	104	0	79	10206
2026-01-24 21:50:23.10	29.77	19.93	-54.1	-62.9	3.8	7.45e-01	0	43	104	0	79	10164
2026-01-24 21:50:24.11	29.88	20.10	-54.1	-63.0	3.8	7.45e-01	0	43	104	0	79	10184
2026-01-24 21:50:25.12	29.99	20.28	-54.1	-63.0	3.8	7.44e-01	0	44	104	0	79	10190
2026-01-24 21:50:26.13	30.10	20.46	-54.1	-62.9	3.8	7.46e-01	0	43	104	0	79	10174
2026-01-24 21:50:27.14	30.21	20.64	-54.1	-63.0	3.8	7.45e-01	0	44	104	0	79	10180
2026-01-24 21:50:28.14	30.32	20.81	-54.1	-63.0	3.8	7.46e-01	0	43	104	0	79	10178
2026-01-24 21:50:29.15	30.43	21.00	-54.1	-63.0	3.8	7.45e-01	0	43	104	0	79	10234
2026-01-24 21:50:30.16	30.55	21.18	-54.1	-62.9	3.8	7.46e-01	0	43	104	0	79	10148
2026-01-24 21:50:31.17	30.67	21.36	-54.1	-63.0	3.8	7.47e-01	0	43	104	0	79	10199
2026-01-24 21:50:32.18	30.78	21.55	-54.1	-63.0	3.8	7.45e-01	0	44	104	0	79	10183
2026-01-24 21:50:33.19	30.90	21.74	-54.1	-62.9	3.8	7.45e-01	0	43	104	0	79	10158
2026-01-24 21:50:34.20	31.03	21.93	-54.1	-62.9	3.8	7.45e-01	0	43	104	0	79	10167
2026-01-24 21:50:35.21	31.15	22.12	-54.1	-63.0	3.8	7.46e-01	0	43	104	0	79	10212
2026-01-24 21:50:36.22	31.27	22.31	-54.1	-63.0	3.8	7.47e-01	0	43	104	0	79	10210
2026-01-24 21:50:37.22	31.40	22.51	-54.1	-63.0	3.8	7.42e-01	0	43	104	0	79	10183
2026-01-24 21:50:38.23	31.53	22.70	-54.1	-63.0	3.8	7.46e-01	0	44	104	0	79	10204
2026-01-24 21:50:39.24	31.66	22.90	-54.1	-63.0	3.8	7.45e-01	0	43	104	0	79	10198
2026-01-24 21:50:40.25	31.79	23.10	-54.1	-62.9	3.8	7.45e-01	0	43	104	0	79	10171
2026-01-24 21:50:41.25	31.92	23.30	-54.1	-63.0	3.8	7.46e-01	0	43	104	0	79	10191
2026-01-24 21:50:42.26	32.06	23.50	-54.1	-63.0	3.8	7.45e-01	0	44	104	0	79	10184
2026-01-24 21:50:43.27	32.19	23.71	-54.1	-63.0	3.8	7.45e-01	0	43	104	0	79	10208
2026-01-24 21:50:44.28	32.33	23.92	-54.1	-63.0	3.8	7.46e-01	0	43	104	0	79	10180
2026-01-24 21:50:45.28	32.47	24.12	-54.1	-63.0	3.8	7.46e-01	0	44	104	0	79	10211
2026-01-24 21:50:46.29	32.62	24.34	-54.1	-63.0	3.8	7.45e-01	0	43	104	0	79	10179
2026-01-24 21:50:47.30	32.76	24.55	-54.1	-62.9	3.8	7.46e-01	0	44	104	0	79	10165
2026-01-24 21:50:48.31	32.91	24.76	-54.1	-63.0	3.8	7.46e-01	0	43	104	0	79	10184
2026-01-24 21:50:49.32	33.06	24.98	-54.1	-63.0	3.8	7.44e-01	0	43	104	0	79	10206
2026-01-24 21:50:50.32	33.21	25.20	-54.1	-62.9	3.8	7.46e-01	0	44	104	0	79	10169
2026-01-24 21:50:51.33	33.37	25.42	-54.2	-62.9	3.8	7.45e-01	0	43	104	0	79	10174
2026-01-24 21:50:52.34	33.52	25.64	-54.1	-62.9	3.8	7.45e-01	0	43	104	0	79	10170
2026-01-24 21:50:53.35	33.68	25.87	-54.1	-63.0	3.8	7.46e-01	0	43	104	0	79	10176
2026-01-24 21:50:54.36	33.84	26.10	-54.1	-63.0	3.8	7.44e-01	0	44	104	0	79	10191
2026-01-24 21:50:55.36	34.01	26.32	-54.1	-62.9	3.8	7.44e-01	0	43	104	0	79	10150
2026-01-24 21:50:56.37	34.17	26.56	-54.1	-63.0	3.8	7.46e-01	0	43	104	0	79	10190
2026-01-24 21:50:57.38	34.34	26.79	-54.1	-63.0	3.8	7.44e-01	0	43	104	0	79	10197
2026-01-24 21:50:58.39	34.52	27.03	-54.1	-63.0	3.8	7.45e-01	0	44	104	0	79	10207
2026-01-24 21:50:59.39	34.69	27.26	-54.1	-62.9	3.8	7.45e-01	0	44	104	0	79	10171
2026-01-24 21:51:00.40	34.87	27.50	-54.1	-63.0	3.8	7.46e-01	0	43	104	0	79	10202
2026-01-24 21:51:01.41	35.05	27.75	-54.1	-63.0	3.8	7.45e-01	0	44	104	0	79	10219
2026-01-24 21:51:02.42	35.23	27.99	-54.1	-63.0	3.8	7.46e-01	0	43	104	0	79	10201
2026-01-24 21:51:03.42	35.42	28.24	-54.1	-63.0	3.8	7.45e-01	0	44	104	0	79	10186
2026-01-24 21:51:04.43	35.61	28.49	-54.1	-63.0	3.8	7.45e-01	0	44	104	0	79	10180
2026-01-24 21:51:05.44	35.80	28.74	-54.1	-63.0	3.8	7.46e-01	0	43	104	0	79	10194
2026-01-24 21:51:06.45	36.00	29.00	-54.1	-63.0	3.8	7.45e-01	0	43	104	0	79	10217
2026-01-24 21:51:07.46	36.19	29.26	-54.1	-63.0	3.8	7.46e-01	0	43	104	0	79	10176
2026-01-24 21:51:08.46	36.40	29.51	-54.1	-63.0	3.8	7.47e-01	0	43	104	0	79	10213
2026-01-24 21:51:09.47	36.60	29.78	-54.1	-63.0	3.8	7.46e-01	0	44	104	0	79	10201
2026-01-24 21:51:10.48	36.81	30.04	-54.1	-63.0	3.8	7.46e-01	0	43	104	0	79	10195
2026-01-24 21:51:11.48	37.03	30.31	-54.1	-63.0	3.8	7.46e-01	0	43	104	0	79	10216
2026-01-24 21:51:12.49	37.24	30.58	-54.1	-63.0	3.8	7.45e-01	0	43	104	0	79	10181
2026-01-24 21:51:13.50	37.46	30.85	-54.1	-63.0	3.8	7.44e-01	0	44	104	0	79	10203
2026-01-24 21:51:14.51	37.69	31.13	-54.1	-63.0	3.8	7.46e-01	0	43	104	0	79	10232
2026-01-24 21:51:15.52	37.92	31.40	-54.1	-63.0	3.8	7.45e-01	0	43	104	0	79	10224
2026-01-24 21:51:16.52	38.15	31.68	-54.1	-63.0	3.8	7.48e-01	0	44	104	0	79	10194
2026-01-24 21:51:17.53	38.39	31.97	-54.1	-62.9	3.8	7.47e-01	0	43	104	0	79	10158
2026-01-24 21:51:18.54	38.63	32.25	-54.1	-63.0	3.8	7.46e-01	0	44	104	0	79	10189
2026-01-24 21:51:19.55	38.88	32.54	-54.1	-63.0	3.8	7.45e-01	0	43	104	0	79	10196
2026-01-24 21:51:20.56	39.13	32.83	-54.1	-62.9	3.8	7.44e-01	0	43	104	0	79	10168
2026-01-24 21:51:21.56	39.39	33.13	-54.1	-63.0	3.8	7.45e-01	0	43	104	0	79	10225
2026-01-24 21:51:22.57	39.65	33.42	-54.1	-63.0	3.8	7.46e-01	0	44	104	0	79	10194
2026-01-24 21:51:23.58	39.92	33.72	-54.2	-63.0	3.8	7.46e-01	0	44	104	0	79	10198
2026-01-24 21:51:24.59	40.19	34.03	-54.1	-62.9	3.8	7.45e-01	0	44	104	0	79	10160
2026-01-24 21:51:25.59	40.47	34.33	-54.1	-63.0	3.8	7.47e-01	0	44	104	0	79	10206
2026-01-24 21:51:26.60	40.75	34.64	-54.1	-62.9	3.8	7.45e-01	0	44	104	0	79	10164
2026-01-24 21:51:27.61	41.04	34.95	-54.1	-62.9	3.8	7.44e-01	0	44	104	0	79	10166
2026-01-24 21:51:28.62	41.33	35.27	-54.1	-63.0	3.8	7.46e-01	0	43	104	0	79	10176
2026-01-24 21:51:29.62	41.63	35.58	-54.1	-62.9	3.8	7.45e-01	0	44	104	0	79	10164
2026-01-24 21:51:30.63	41.94	35.90	-54.1	-63.0	3.8	7.44e-01	0	43	104	0	79	10195
2026-01-24 21:51:31.64	42.25	36.22	-54.1	-63.0	3.8	7.46e-01	0	44	104	0	79	10177
2026-01-24 21:51:32.65	42.57	36.55	-54.1	-63.0	3.8	7.48e-01	0	43	104	0	79	10227
2026-01-24 21:51:33.65	42.90	36.88	-54.1	-63.0	3.8	7.44e-01	0	44	104	0	79	10213
2026-01-24 21:51:34.66	43.23	37.21	-54.1	-62.9	3.8	7.45e-01	0	43	104	0	79	10154
2026-01-24 21:51:35.67	43.57	37.54	-54.1	-62.9	3.8	7.47e-01	0	44	104	0	79	10172
2026-01-24 21:51:36.68	43.92	37.88	-54.1	-62.9	3.8	7.45e-01	0	44	104	0	79	10175
2026-01-24 21:51:37.69	44.28	38.22	-54.1	-63.0	3.8	7.45e-01	0	44	104	0	79	10186
2026-01-24 21:51:38.69	44.64	38.56	-54.1	-63.0	3.8	7.45e-01	0	43	104	0	79	10216
2026-01-24 21:51:39.70	45.01	38.91	-54.1	-63.0	3.8	7.47e-01	0	43	104	0	79	10176
2026-01-24 21:51:40.71	45.39	39.25	-54.1	-62.9	3.8	7.46e-01	0	43	104	0	79	10164
2026-01-24 21:51:41.72	45.78	39.61	-54.1	-63.0	3.8	7.47e-01	0	43	104	0	79	10222
2026-01-24 21:51:42.73	46.18	39.96	-54.1	-63.0	3.8	7.44e-01	0	44	104	0	79	10176
2026-01-24 21:51:43.74	46.58	40.32	-54.1	-63.0	3.8	7.45e-01	0	44	104	0	79	10176
2026-01-24 21:51:44.74	46.99	40.67	-54.1	-63.0	3.8	7.45e-01	0	43	104	0	79	10176
2026-01-24 21:51:45.75	47.42	41.03	-54.1	-62.9	3.8	7.44e-01	0	44	104	0	79	10168
2026-01-24 21:51:46.76	47.86	41.40	-54.1	-62.9	3.8	7.47e-01	0	43	104	0	79	10171
2026-01-24 21:51:47.76	48.30	41.76	-54.1	-63.0	3.8	7.45e-01	0	44	104	0	79	10208
2026-01-24 21:51:48.78	48.76	42.13	-54.1	-63.0	3.8	7.45e-01	0	43	104	0	79	10214
2026-01-24 21:51:49.78	49.22	42.50	-54.1	-62.9	3.8	7.46e-01	0	43	104	0	79	10155
2026-01-24 21:51:50.79	49.70	42.87	-54.1	-63.0	3.8	7.46e-01	0	44	104	0	79	10226
2026-01-24 21:51:51.80	50.19	43.25	-54.1	-62.9	3.8	7.46e-01	0	43	104	0	79	10162
2026-01-24 21:51:52.81	50.70	43.63	-54.1	-62.9	3.8	7.44e-01	0	44	104	0	79	10151
2026-01-24 21:51:53.82	51.21	44.00	-54.1	-62.9	3.8	7.45e-01	0	43	104	0	79	10165
2026-01-24 21:51:54.82	51.73	44.38	-54.1	-63.0	3.8	7.45e-01	0	43	104	0	79	10180
2026-01-24 21:51:55.83	52.28	44.76	-54.1	-63.0	3.8	7.44e-01	0	43	104	0	79	10202
2026-01-24 21:51:56.84	52.83	45.15	-54.1	-63.0	3.8	7.45e-01	0	43	104	0	79	10197
2026-01-24 21:51:57.85	53.40	45.53	-54.1	-63.0	3.8	7.46e-01	0	44	104	0	79	10195
2026-01-24 21:51:58.85	53.98	45.91	-54.1	-63.0	3.8	7.45e-01	0	43	104	0	79	10205
2026-01-24 21:51:59.86	54.57	46.30	-54.1	-63.0	3.8	7.45e-01	0	43	104	0	79	10185
2026-01-24 21:52:00.87	55.19	46.69	-54.1	-63.0	3.8	7.44e-01	0	43	104	0	79	10176
2026-01-24 21:52:01.88	55.82	47.08	-54.1	-63.0	3.8	7.48e-01	0	43	104	0	79	10184
2026-01-24 21:52:02.89	56.46	47.47	-54.1	-63.0	3.8	7.44e-01	0	44	104	0	79	10186
2026-01-24 21:52:03.89	57.12	47.85	-54.1	-63.0	3.8	7.43e-01	0	43	104	0	79	10222
2026-01-24 21:52:04.90	57.80	48.24	-54.1	-63.0	3.8	7.44e-01	0	43	104	0	79	10205
2026-01-24 21:52:05.91	58.49	48.63	-54.1	-63.0	3.8	7.45e-01	0	43	104	0	79	10218
2026-01-24 21:52:06.92	59.21	49.02	-54.1	-63.0	3.8	7.46e-01	0	44	104	0	79	10201
2026-01-24 21:52:07.93	59.94	49.40	-54.1	-63.0	3.8	7.44e-01	0	44	104	0	79	10201
2026-01-24 21:52:08.93	60.68	49.78	-54.1	-62.9	3.8	7.45e-01	0	44	104	0	79	10174
2026-01-24 21:52:09.94	61.46	50.17	-54.1	-62.9	3.8	7.46e-01	0	43	104	0	79	10162
2026-01-24 21:52:10.95	62.25	50.55	-54.1	-63.0	3.8	7.45e-01	0	43	104	0	79	10201
2026-01-24 21:52:11.96	63.06	50.93	-54.1	-63.0	3.8	7.46e-01	0	43	104	0	79	10187
2026-01-24 21:52:12.97	63.90	51.31	-54.2	-63.0	3.8	7.46e-01	0	44	104	0	79	10219
2026-01-24 21:52:13.98	64.75	51.68	-54.1	-62.9	3.8	7.46e-01	0	44	104	0	79	10165
2026-01-24 21:52:14.98	65.62	52.05	-54.1	-63.0	3.8	7.46e-01	0	43	104	0	79	10232
2026-01-24 21:52:15.99	66.52	52.42	-54.1	-63.0	3.8	7.46e-01	0	43	104	0	79	10190
2026-01-24 21:52:17.00	67.44	52.78	-54.1	-63.0	3.8	7.45e-01	0	43	104	0	79	10189
2026-01-24 21:52:18.00	68.38	53.13	-54.1	-62.9	3.8	7.46e-01	0	44	104	0	79	10173
2026-01-24 21:52:19.01	69.35	53.49	-54.1	-62.9	3.8	7.46e-01	0	43	104	0	79	10148
2026-01-24 21:52:20.02	70.35	53.83	-54.1	-63.0	3.8	7.46e-01	0	43	104	0	79	10202
2026-01-24 21:52:21.03	71.36	54.18	-54.2	-63.0	3.8	7.44e-01	0	44	104	0	79	10201
2026-01-24 21:52:22.04	72.41	54.51	-54.1	-62.9	3.8	7.44e-01	0	44	104	0	79	10173
2026-01-24 21:52:23.04	73.46	54.84	-54.1	-62.9	3.8	7.46e-01	0	44	104	0	79	10170
2026-01-24 21:52:24.05	74.56	55.16	-54.1	-63.0	3.8	7.44e-01	0	43	104	0	79	10181
2026-01-24 21:52:25.06	75.68	55.47	-54.1	-63.0	3.8	7.45e-01	0	44	104	0	79	10221
2026-01-24 21:52:26.06	76.81	55.77	-54.1	-63.0	3.8	7.45e-01	0	43	104	0	79	10204
2026-01-24 21:52:27.07	77.97	56.06	-54.1	-63.0	3.8	7.47e-01	0	43	104	0	79	10209
2026-01-24 21:52:28.08	79.17	56.35	-54.1	-63.0	3.8	7.46e-01	0	43	104	0	79	10190
2026-01-24 21:52:29.09	80.39	56.62	-54.1	-63.0	3.8	7.45e-01	0	43	104	0	79	10204
2026-01-24 21:52:30.10	81.63	56.89	-54.1	-63.0	3.8	7.44e-01	0	44	104	0	79	10184
2026-01-24 21:52:31.10	82.88	57.13	-54.1	-62.9	3.8	7.45e-01	0	43	104	0	79	10155
2026-01-24 21:52:32.11	84.17	57.37	-54.1	-63.0	3.8	7.44e-01	0	43	104	0	79	10182
2026-01-24 21:52:33.12	85.48	57.60	-54.1	-62.9	3.8	7.44e-01	0	43	104	0	79	10161
2026-01-24 21:52:34.13	86.81	57.81	-54.1	-63.0	3.8	7.46e-01	0	44	104	0	79	10197
2026-01-24 21:52:35.13	88.15	58.01	-54.2	-63.0	3.8	7.45e-01	0	43	104	0	79	10178
2026-01-24 21:52:36.14	89.53	58.20	-54.1	-63.0	3.8	7.44e-01	0	44	104	0	79	10184
2026-01-24 21:52:37.15	90.92	58.37	-54.1	-62.9	3.8	7.46e-01	0	44	104	0	79	10161
2026-01-24 21:52:38.16	92.33	58.53	-54.1	-63.0	3.8	7.46e-01	0	43	104	0	79	10222
2026-01-24 21:52:39.17	93.76	58.67	-54.1	-63.0	3.8	7.44e-01	0	44	104	0	79	10188
2026-01-24 21:52:40.18	95.20	58.79	-54.1	-63.0	3.8	7.47e-01	0	43	104	0	79	10207
2026-01-24 21:52:41.18	96.64	58.90	-54.1	-63.0	3.8	7.44e-01	0	44	104	0	79	10184
2026-01-24 21:52:42.19	98.10	58.99	-54.1	-63.0	3.8	7.44e-01	0	44	104	0	79	10182
2026-01-24 21:52:43.20	99.57	59.07	-54.1	-63.0	3.8	7.43e-01	0	44	104	0	79	10206
2026-01-24 21:52:44.21	101.06	59.13	-54.1	-62.9	3.8	7.46e-01	0	43	104	0	79	10173
2026-01-24 21:52:45.22	102.54	59.17	-54.1	-63.0	3.8	7.45e-01	0	44	104	0	79	10183
2026-01-24 21:52:46.22	104.02	59.19	-54.1	-62.9	3.8	7.45e-01	0	43	104	0	79	10131
2026-01-24 21:52:47.23	105.51	59.20	-54.1	-62.9	3.8	7.44e-01	0	43	104	0	79	10164
2026-01-24 21:52:48.24	107.01	59.19	-54.1	-63.0	3.8	7.45e-01	0	43	104	0	79	10181
2026-01-24 21:52:49.25	108.50	59.16	-54.1	-63.0	3.8	7.46e-01	0	43	104	0	79	10181
2026-01-24 21:52:50.26	109.99	59.11	-54.1	-62.9	3.8	7.44e-01	0	43	104	0	79	10134
2026-01-24 21:52:51.26	111.45	59.05	-54.1	-63.0	3.8	7.45e-01	0	43	104	0	79	10199
2026-01-24 21:52:52.27	112.92	58.97	-54.1	-62.9	3.8	7.45e-01	0	44	104	0	79	10172
2026-01-24 21:52:53.28	114.39	58.87	-54.1	-63.0	3.8	7.47e-01	0	44	104	0	79	10177
2026-01-24 21:52:54.29	115.84	58.76	-54.1	-63.0	3.8	7.45e-01	0	43	104	0	79	10191
2026-01-24 21:52:55.30	117.28	58.63	-54.1	-62.9	3.8	7.44e-01	0	44	104	0	79	10166
2026-01-24 21:52:56.30	118.68	58.49	-54.1	-63.0	3.8	7.45e-01	0	44	104	0	79	10198
2026-01-24 21:52:57.31	120.09	58.33	-54.1	-62.9	3.8	7.46e-01	0	44	104	0	79	10159
2026-01-24 21:52:58.32	121.48	58.15	-54.1	-62.9	3.8	7.45e-01	0	43	104	0	79	10165
2026-01-24 21:52:59.33	122.85	57.96	-54.1	-63.0	3.8	7.46e-01	0	44	104	0	79	10182
2026-01-24 21:53:00.33	124.19	57.76	-54.1	-62.9	3.8	7.45e-01	0	43	104	0	79	10173
2026-01-24 21:53:01.34	125.52	57.54	-54.1	-62.9	3.8	7.45e-01	0	43	104	0	79	10175
2026-01-24 21:53:02.35	126.82	57.31	-54.1	-63.0	3.8	7.44e-01	0	43	104	0	79	10223
2026-01-24 21:53:03.36	128.11	57.07	-54.1	-62.9	3.8	7.45e-01	0	43	104	0	79	10173
2026-01-24 21:53:04.37	129.37	56.82	-54.1	-62.9	3.8	7.45e-01	0	43	104	0	79	10159
2026-01-24 21:53:05.38	130.61	56.55	-54.1	-62.9	3.8	7.44e-01	0	43	104	0	79	10135
2026-01-24 21:53:06.38	131.81	56.27	-54.1	-62.9	3.8	7.45e-01	0	44	104	0	79	10158
2026-01-24 21:53:07.39	132.99	55.99	-54.1	-63.0	3.8	7.44e-01	0	43	104	0	79	10177
2026-01-24 21:53:08.40	134.16	55.69	-54.1	-63.0	3.8	7.45e-01	0	43	104	0	79	10186
2026-01-24 21:53:09.41	135.30	55.38	-54.1	-63.0	3.8	7.45e-01	0	43	104	0	79	10189
2026-01-24 21:53:10.42	136.41	55.07	-54.1	-62.9	3.8	7.45e-01	0	44	104	0	79	10165
2026-01-24 21:53:11.42	137.49	54.75	-54.1	-63.0	3.8	7.45e-01	0	44	104	0	79	10204
2026-01-24 21:53:12.43	138.55	54.42	-54.1	-63.0	3.8	7.46e-01	0	43	104	0	79	10191
2026-01-24 21:53:13.44	139.59	54.08	-54.1	-63.0	3.8	7.47e-01	0	44	104	0	79	10176
2026-01-24 21:53:14.45	140.60	53.74	-54.1	-63.0	3.8	7.48e-01	0	43	104	0	79	10220
2026-01-24 21:53:15.46	141.59	53.39	-54.1	-63.0	3.8	7.44e-01	0	44	104	0	79	10205
2026-01-24 21:53:16.46	142.55	53.03	-54.1	-63.0	3.8	7.44e-01	0	43	104	0	79	10201
2026-01-24 21:53:17.47	143.49	52.67	-54.1	-62.9	3.8	7.45e-01	0	44	104	0	79	10161
2026-01-24 21:53:18.48	144.41	52.31	-54.1	-63.0	3.8	7.46e-01	0	43	104	0	79	10194
2026-01-24 21:53:19.49	145.30	51.94	-54.1	-62.9	3.8	7.45e-01	0	43	104	0	79	10168
2026-01-24 21:53:20.49	146.17	51.57	-54.1	-63.0	3.8	7.46e-01	0	43	104	0	79	10194
2026-01-24 21:53:21.50	147.02	51.19	-54.1	-62.9	3.8	7.45e-01	0	44	104	0	79	10163
2026-01-24 21:53:22.51	147.85	50.81	-54.1	-62.9	3.8	7.45e-01	0	43	104	0	79	10155
2026-01-24 21:53:23.52	148.66	50.43	-54.1	-62.9	3.8	7.44e-01	0	44	104	0	79	10172
2026-01-24 21:53:24.53	149.44	50.05	-54.1	-63.0	3.8	7.45e-01	0	43	104	0	79	10214
2026-01-24 21:53:25.53	150.20	49.67	-54.1	-63.0	3.8	7.45e-01	0	44	104	0	79	10208
2026-01-24 21:53:26.54	150.95	49.28	-54.1	-62.9	3.8	7.45e-01	0	44	104	0	79	10171
2026-01-24 21:53:27.55	151.68	48.89	-54.1	-63.0	3.8	7.44e-01	0	43	104	0	79	10177
2026-01-24 21:53:28.56	152.39	48.50	-54.1	-63.0	3.8	7.43e-01	0	43	104	0	79	10176
2026-01-24 21:53:29.57	153.09	48.11	-54.1	-63.0	3.8	7.45e-01	0	43	104	0	79	10191
2026-01-24 21:53:30.58	153.76	47.72	-54.1	-63.0	3.8	7.45e-01	0	44	104	0	79	10199
2026-01-24 21:53:31.58	154.41	47.34	-54.1	-63.0	3.8	7.43e-01	0	44	104	0	79	10209
2026-01-24 21:53:32.59	155.06	46.95	-54.1	-62.9	3.8	7.45e-01	0	43	104	0	79	10171
2026-01-24 21:53:33.60	155.68	46.56	-54.1	-63.0	3.8	7.44e-01	0	44	104	0	79	10204
2026-01-24 21:53:34.61	156.29	46.17	-54.1	-63.0	3.8	7.46e-01	0	43	104	0	79	10184
2026-01-24 21:53:35.62	156.89	45.78	-54.1	-62.9	3.8	7.44e-01	0	44	104	0	79	10159
2026-01-24 21:53:36.63	157.47	45.39	-54.1	-63.0	3.8	7.46e-01	0	43	104	0	79	10183
2026-01-24 21:53:37.63	158.03	45.01	-54.1	-62.9	3.8	7.46e-01	0	44	104	0	79	10157
2026-01-24 21:53:38.64	158.58	44.63	-54.1	-63.0	3.8	7.46e-01	0	43	104	0	79	10203
2026-01-24 21:53:39.65	159.12	44.24	-54.1	-63.0	3.8	7.45e-01	0	43	104	0	79	10184
2026-01-24 21:53:40.66	159.64	43.86	-54.1	-62.9	3.8	7.46e-01	0	43	104	0	79	10152
2026-01-24 21:53:41.67	160.15	43.48	-54.1	-63.0	3.8	7.46e-01	0	44	104	0	79	10187
2026-01-24 21:53:42.67	160.65	43.11	-54.1	-63.0	3.8	7.46e-01	0	44	104	0	79	10213
2026-01-24 21:53:43.68	161.14	42.73	-54.1	-63.0	3.8	7.47e-01	0	44	104	0	79	10176
2026-01-24 21:53:44.69	161.61	42.36	-54.1	-63.0	3.8	7.45e-01	0	43	104	0	79	10188
2026-01-24 21:53:45.70	162.08	41.99	-54.2	-63.0	3.8	7.44e-01	0	43	104	0	79	10195
2026-01-24 21:53:46.71	162.53	41.62	-54.1	-63.0	3.8	7.46e-01	0	44	104	0	79	10185
2026-01-24 21:53:47.71	162.97	41.25	-54.1	-62.9	3.8	7.42e-01	0	44	104	0	79	10175
2026-01-24 21:53:48.72	163.41	40.89	-54.1	-62.9	3.8	7.44e-01	0	44	104	0	79	10167
2026-01-24 21:53:49.73	163.83	40.53	-54.1	-62.9	3.8	7.44e-01	0	43	104	0	79	10175
2026-01-24 21:53:50.74	164.25	40.17	-54.1	-62.9	3.8	7.44e-01	0	43	104	0	79	10147
2026-01-24 21:53:51.75	164.65	39.81	-54.1	-63.0	3.8	7.46e-01	0	43	104	0	79	10194
2026-01-24 21:53:52.75	165.04	39.46	-54.1	-63.0	3.8	7.44e-01	0	44	104	0	79	10217
2026-01-24 21:53:53.76	165.43	39.11	-54.1	-63.0	3.8	7.45e-01	0	43	104	0	79	10239
2026-01-24 21:53:54.77	165.81	38.76	-54.1	-63.0	3.8	7.47e-01	0	43	104	0	79	10204
2026-01-24 21:53:55.78	166.18	38.41	-54.1	-63.0	3.8	7.45e-01	0	43	104	0	79	10186
2026-01-24 21:53:56.79	166.54	38.07	-54.1	-63.0	3.8	7.45e-01	0	43	104	0	79	10209
2026-01-24 21:53:57.79	166.89	37.73	-54.1	-62.9	3.8	7.47e-01	0	44	104	0	79	10161
2026-01-24 21:53:58.80	167.24	37.39	-54.1	-63.0	3.8	7.46e-01	0	43	104	0	79	10208
2026-01-24 21:53:59.81	167.58	37.06	-54.1	-62.9	3.8	7.44e-01	0	43	104	0	79	10172
2026-01-24 21:54:00.82	167.91	36.72	-54.1	-62.9	3.8	7.44e-01	0	44	104	0	79	10172
2026-01-24 21:54:01.83	168.24	36.40	-54.1	-63.0	3.8	7.45e-01	0	43	104	0	79	10202
2026-01-24 21:54:02.84	168.56	36.07	-54.1	-63.0	3.8	7.46e-01	0	43	104	0	79	10210
2026-01-24 21:54:03.85	168.87	35.74	-54.1	-63.0	3.8	7.45e-01	0	44	104	0	79	10186
2026-01-24 21:54:04.85	169.17	35.43	-54.1	-63.0	3.8	7.44e-01	0	43	104	0	79	10177
2026-01-24 21:54:05.86	169.47	35.11	-54.1	-62.9	3.8	7.45e-01	0	43	104	0	79	10155
2026-01-24 21:54:06.87	169.76	34.79	-54.1	-63.0	3.8	7.45e-01	0	44	104	0	79	10204
2026-01-24 21:54:07.88	170.05	34.48	-54.1	-63.0	3.8	7.44e-01	0	43	104	0	79	10180
2026-01-24 21:54:08.89	170.33	34.17	-54.1	-62.9	3.8	7.45e-01	0	43	104	0	79	10163
2026-01-24 21:54:09.90	170.61	33.87	-54.1	-63.0	3.8	7.44e-01	0	44	104	0	79	10184
2026-01-24 21:54:10.90	170.88	33.57	-54.1	-63.0	3.8	7.44e-01	0	43	104	0	79	10178
2026-01-24 21:54:11.91	171.14	33.27	-54.1	-63.0	3.8	7.45e-01	0	43	104	0	79	10180
2026-01-24 21:54:12.92	171.41	32.97	-54.1	-62.9	3.8	7.44e-01	0	43	104	0	79	10168
2026-01-24 21:54:13.93	171.66	32.67	-54.1	-63.0	3.8	7.45e-01	0	44	104	0	79	10181
2026-01-24 21:54:14.93	171.91	32.38	-54.1	-63.0	3.8	7.44e-01	0	44	104	0	79	10187
2026-01-24 21:54:15.94	172.16	32.09	-54.1	-63.0	3.8	7.46e-01	0	44	104	0	79	10185
2026-01-24 21:54:16.95	172.40	31.81	-54.1	-62.9	3.8	7.45e-01	0	43	104	0	79	10172
2026-01-24 21:54:17.96	172.64	31.52	-54.1	-62.9	3.8	7.44e-01	0	44	104	0	79	10161
2026-01-24 21:54:18.97	172.87	31.24	-54.1	-63.0	3.8	7.46e-01	0	43	104	0	79	10184
2026-01-24 21:54:19.98	173.10	30.96	-54.1	-63.0	3.8	7.45e-01	0	43	104	0	79	10204
2026-01-24 21:54:20.99	173.32	30.69	-54.1	-62.9	3.8	7.45e-01	0	43	104	0	79	10174
2026-01-24 21:54:22.00	173.54	30.41	-54.1	-63.0	3.8	7.44e-01	0	44	104	0	79	10190
2026-01-24 21:54:23.00	173.76	30.15	-54.1	-62.9	3.8	7.46e-01	0	44	104	0	79	10159
2026-01-24 21:54:24.01	173.97	29.88	-54.1	-63.0	3.8	7.46e-01	0	43	104	0	79	10194
2026-01-24 21:54:25.02	174.18	29.61	-54.1	-63.0	3.8	7.45e-01	0	43	104	0	79	10178
2026-01-24 21:54:26.03	174.39	29.35	-54.1	-63.0	3.8	7.45e-01	0	43	104	0	79	10183
2026-01-24 21:54:27.04	174.59	29.09	-54.1	-62.9	3.8	7.46e-01	0	44	104	0	79	10160
2026-01-24 21:54:28.04	174.78	28.83	-54.1	-63.0	3.8	7.44e-01	0	44	104	0	79	10176
2026-01-24 21:54:29.05	174.98	28.58	-54.1	-63.0	3.8	7.46e-01	0	44	104	0	79	10199
2026-01-24 21:54:30.06	175.17	28.33	-54.1	-62.9	3.8	7.45e-01	0	44	104	0	79	10175
2026-01-24 21:54:31.07	175.36	28.07	-54.1	-63.0	3.8	7.45e-01	0	44	104	0	79	10228
2026-01-24 21:54:32.07	175.55	27.83	-54.1	-63.0	3.8	7.46e-01	0	44	104	0	79	10186
2026-01-24 21:54:33.08	175.73	27.58	-54.1	-62.9	3.8	7.44e-01	0	43	104	0	79	10173
2026-01-24 21:54:34.09	175.91	27.34	-54.1	-63.0	3.8	7.45e-01	0	43	104	0	79	10187
2026-01-24 21:54:35.10	176.09	27.10	-54.1	-63.0	3.8	7.47e-01	0	43	104	0	79	10200
2026-01-24 21:54:36.11	176.26	26.86	-54.1	-63.0	3.8	7.44e-01	0	44	104	0	79	10202
2026-01-24 21:54:37.12	176.43	26.62	-54.1	-62.9	3.8	7.45e-01	0	44	104	0	79	10111
2026-01-24 21:54:38.12	176.60	26.39	-54.1	-62.9	3.8	7.44e-01	0	43	104	0	79	10165
2026-01-24 21:54:39.13	176.76	26.16	-54.1	-63.0	3.8	7.45e-01	0	43	104	0	79	10204
2026-01-24 21:54:40.14	176.93	25.93	-54.1	-62.9	3.8	7.47e-01	0	44	104	0	79	10172
2026-01-24 21:54:41.15	177.09	25.70	-54.1	-63.0	3.8	7.46e-01	0	43	104	0	79	10188
2026-01-24 21:54:42.16	177.25	25.48	-54.1	-63.0	3.8	7.47e-01	0	43	104	0	79	10198
2026-01-24 21:54:43.16	177.40	25.25	-54.1	-63.0	3.8	7.46e-01	0	44	104	0	79	10213
2026-01-24 21:54:44.17	177.56	25.03	-54.2	-63.0	3.8	7.46e-01	0	43	104	0	79	10213
2026-01-24 21:54:45.18	177.71	24.81	-54.1	-63.0	3.8	7.45e-01	0	43	104	0	79	10181
2026-01-24 21:54:46.19	177.86	24.60	-54.1	-63.0	3.8	7.44e-01	0	43	104	0	79	10183
2026-01-24 21:54:47.20	178.00	24.38	-54.1	-63.0	3.8	7.46e-01	0	43	104	0	79	10178
2026-01-24 21:54:48.20	178.15	24.17	-54.1	-62.9	3.8	7.46e-01	0	43	104	0	79	10169
2026-01-24 21:54:49.21	178.29	23.96	-54.1	-62.9	3.8	7.44e-01	0	44	104	0	79	10163
2026-01-24 21:54:50.22	178.43	23.75	-54.1	-62.9	3.8	7.45e-01	0	44	104	0	79	10151
2026-01-24 21:54:51.23	178.57	23.54	-54.1	-63.0	3.8	7.45e-01	0	44	104	0	79	10198
2026-01-24 21:54:52.23	178.70	23.34	-54.1	-63.0	3.8	7.45e-01	0	43	104	0	79	10208
2026-01-24 21:54:53.24	178.84	23.13	-54.1	-63.0	3.8	7.44e-01	0	43	104	0	79	10204
2026-01-24 21:54:54.25	178.97	22.93	-54.1	-63.0	3.8	7.48e-01	0	44	104	0	79	10211
2026-01-24 21:54:55.25	179.10	22.73	-54.1	-62.9	3.8	7.46e-01	0	43	104	0	79	10123
2026-01-24 21:54:56.26	179.23	22.54	-54.1	-62.9	3.8	7.44e-01	0	43	104	0	79	10159
2026-01-24 21:54:57.27	179.36	22.34	-54.1	-62.9	3.8	7.46e-01	0	44	104	0	79	10149
2026-01-24 21:54:58.28	179.48	22.14	-54.1	-63.0	3.8	7.45e-01	0	43	104	0	79	10205
2026-01-24 21:54:59.29	179.61	21.95	-54.1	-62.9	3.8	7.46e-01	0	43	104	0	79	10140
2026-01-24 21:55:00.30	179.73	21.76	-54.1	-63.0	3.8	7.46e-01	0	43	104	0	79	10191
2026-01-24 21:55:01.30	179.85	21.57	-54.1	-62.9	3.8	7.46e-01	0	44	104	0	79	10162
2026-01-24 21:55:02.31	179.97	21.38	-54.1	-62.9	3.8	7.45e-01	0	44	104	0	79	10167
2026-01-24 21:55:03.32	180.09	21.20	-54.1	-63.0	3.8	7.46e-01	0	44	104	0	79	10180
2026-01-24 21:55:04.33	180.20	21.01	-54.1	-63.0	3.8	7.45e-01	0	44	104	0	79	10178
2026-01-24 21:55:05.33	180.32	20.83	-54.1	-63.0	3.8	7.46e-01	0	43	104	0	79	10176
2026-01-24 21:55:06.34	180.43	20.65	-54.1	-62.9	3.8	7.46e-01	0	43	104	0	79	10175
2026-01-24 21:55:07.35	180.54	20.47	-54.1	-63.0	3.8	7.45e-01	0	43	104	0	79	10177
2026-01-24 21:55:08.36	180.65	20.29	-54.1	-63.0	3.8	7.46e-01	0	43	104	0	79	10177
2026-01-24 21:55:09.36	180.76	20.11	-54.1	-63.0	3.8	7.44e-01	0	44	104	0	79	10208
2026-01-24 21:55:10.37	180.87	19.94	-54.1	-63.0	3.8	7.46e-01	0	43	104	0	79	10183
2026-01-24 21:55:11.38	180.97	19.76	-54.1	-63.0	3.8	7.46e-01	0	43	104	0	79	10193
2026-01-24 21:55:12.39	181.08	19.59	-54.1	-62.9	3.8	7.45e-01	0	43	104	0	79	10174
2026-01-24 21:55:13.40	181.18	19.42	-54.1	-63.0	3.8	7.46e-01	0	44	104	0	79	10194
2026-01-24 21:55:14.40	181.28	19.25	-54.1	-62.9	3.8	7.44e-01	0	43	104	0	79	10158
2026-01-24 21:55:15.41	181.38	19.08	-54.1	-63.0	3.8	7.46e-01	0	43	104	0	79	10216
2026-01-24 21:55:16.42	181.48	18.92	-54.1	-63.0	3.8	7.46e-01	0	43	104	0	79	10181
2026-01-24 21:55:17.43	181.58	18.75	-54.1	-63.0	3.8	7.45e-01	0	44	104	0	79	10216
2026-01-24 21:55:18.44	181.68	18.59	-54.1	-62.9	3.8	7.45e-01	0	44	104	0	79	10161
2026-01-24 21:55:19.44	181.78	18.42	-54.1	-63.0	3.8	7.45e-01	0	43	104	0	79	10183
2026-01-24 21:55:20.45	181.87	18.26	-54.1	-63.0	3.8	7.44e-01	0	43	104	0	79	10180
2026-01-24 21:55:21.46	181.96	18.10	-54.1	-63.0	3.8	7.45e-01	0	44	104	0	79	10178
2026-01-24 21:55:22.47	182.06	17.94	-54.1	-62.9	3.8	7.44e-01	0	43	104	0	79	10153
2026-01-24 21:55:23.47	182.15	17.79	-54.1	-62.9	3.8	7.45e-01	0	43	104	0	79	10166
2026-01-24 21:55:24.48	182.24	17.63	-54.1	-63.0	3.8	7.46e-01	0	43	104	0	79	10186
2026-01-24 21:55:25.49	182.33	17.47	-54.1	-62.9	3.8	7.45e-01	0	43	104	0	79	10165
2026-01-24 21:55:26.50	182.42	17.32	-54.1	-62.9	3.8	7.45e-01	0	43	104	0	79	10147
2026-01-24 21:55:27.50	182.50	17.17	-54.1	-62.9	3.8	7.47e-01	0	43	104	0	79	10145
2026-01-24 21:55:28.51	182.59	17.01	-54.1	-63.0	3.8	7.45e-01	0	43	104	0	79	10182
2026-01-24 21:55:29.52	182.68	16.86	-54.1	-63.0	3.8	7.45e-01	0	43	104	0	79	10201
2026-01-24 21:55:30.53	182.76	16.71	-54.1	-62.9	3.8	7.45e-01	0	44	104	0	79	10158
2026-01-24 21:55:31.54	182.85	16.57	-54.1	-63.0	3.8	7.45e-01	0	44	104	0	79	10220
2026-01-24 21:55:32.54	182.93	16.42	-54.1	-63.0	3.8	7.45e-01	0	43	104	0	79	10192
2026-01-24 21:55:33.55	183.01	16.27	-54.1	-63.0	3.8	7.45e-01	0	43	104	0	79	10192
2026-01-24 21:55:34.56	183.09	16.13	-54.1	-63.0	3.8	7.45e-01	0	44	104	0	79	10212
2026-01-24 21:55:35.57	183.17	15.98	-54.1	-63.0	3.8	7.45e-01	0	43	104	0	79	10184
2026-01-24 21:55:36.57	183.25	15.84	-54.1	-62.9	3.8	7.44e-01	0	43	104	0	79	10156
2026-01-24 21:55:37.58	183.33	15.70	-54.1	-63.0	3.8	7.45e-01	0	43	104	0	79	10177
2026-01-24 21:55:38.59	183.41	15.56	-54.1	-63.0	3.8	7.46e-01	0	44	104	0	79	10253
2026-01-24 21:55:39.60	183.48	15.42	-54.1	-63.0	3.8	7.47e-01	0	43	104	0	79	10206
2026-01-24 21:55:40.61	183.56	15.28	-54.1	-63.0	3.8	7.45e-01	0	43	104	0	79	10226
2026-01-24 21:55:41.61	183.64	15.14	-54.1	-62.9	3.8	7.45e-01	0	43	104	0	79	10164
2026-01-24 21:55:42.62	183.71	15.00	-54.1	-63.0	3.8	7.46e-01	0	43	104	0	79	10221
2026-01-24 21:55:43.63	183.78	14.87	-54.1	-62.9	3.8	7.45e-01	0	43	104	0	79	10172
2026-01-24 21:55:44.64	183.86	14.73	-54.1	-63.0	3.8	7.45e-01	0	43	104	0	79	10189
2026-01-24 21:55:45.65	183.93	14.60	-54.1	-63.0	3.8	7.46e-01	0	44	104	0	79	10181
2026-01-24 21:55:46.66	184.00	14.47	-54.1	-63.0	3.8	7.44e-01	0	43	104	0	79	10200
2026-01-24 21:55:47.67	184.07	14.33	-54.1	-63.0	3.8	7.47e-01	0	44	104	0	79	10199
2026-01-24 21:55:48.68	184.14	14.20	-54.1	-63.0	3.8	7.45e-01	0	44	104	0	79	10195
2026-01-24 21:55:49.68	184.21	14.07	-54.1	-63.0	3.8	7.45e-01	0	44	104	0	79	10195
2026-01-24 21:55:50.69	184.28	13.94	-54.1	-63.0	3.8	7.45e-01	0	44	104	0	79	10193
2026-01-24 21:55:51.70	184.35	13.81	-54.1	-62.9	3.8	7.46e-01	0	43	104	0	79	10157
2026-01-24 21:55:52.71	184.42	13.69	-54.1	-63.0	3.8	7.45e-01	0	43	104	0	79	10215
2026-01-24 21:55:53.71	184.48	13.56	-54.1	-63.0	3.8	7.43e-01	0	44	104	0	79	10186
2026-01-24 21:55:54.72	184.55	13.43	-54.2	-63.0	3.8	7.46e-01	0	43	104	0	79	10182
2026-01-24 21:55:55.73	184.61	13.31	-54.1	-62.9	3.8	7.44e-01	0	43	104	0	79	10172
2026-01-24 21:55:56.74	184.68	13.18	-54.1	-63.0	3.8	7.46e-01	0	44	104	0	79	10185
2026-01-24 21:55:57.74	184.74	13.06	-54.1	-63.0	3.8	7.47e-01	0	44	104	0	79	10176
2026-01-24 21:55:58.75	184.81	12.94	-54.1	-63.0	3.8	7.45e-01	0	43	104	0	79	10176
2026-01-24 21:55:59.76	184.87	12.82	-54.1	-62.9	3.8	7.45e-01	0	44	104	0	79	10160
2026-01-24 21:56:00.77	184.93	12.69	-54.2	-63.0	3.8	7.45e-01	0	44	104	0	79	10183
2026-01-24 21:56:01.77	184.99	12.57	-54.1	-62.9	3.8	7.46e-01	0	44	104	0	79	10170
2026-01-24 21:56:02.78	185.06	12.45	-54.1	-63.0	3.8	7.45e-01	0	44	104	0	79	10192
2026-01-24 21:56:03.79	185.12	12.33	-54.1	-63.0	3.8	7.46e-01	0	44	104	0	79	10184
2026-01-24 21:56:04.80	185.18	12.22	-54.1	-63.0	3.8	7.45e-01	0	44	104	0	79	10182
2026-01-24 21:56:05.81	185.24	12.10	-54.1	-63.0	3.8	7.47e-01	0	43	104	0	79	10217
2026-01-24 21:56:06.82	185.30	11.98	-54.1	-63.0	3.8	7.46e-01	0	44	104	0	79	10195
2026-01-24 21:56:07.82	185.35	11.87	-54.1	-62.9	3.8	7.46e-01	0	44	104	0	79	10160
2026-01-24 21:56:08.83	185.41	11.75	-54.1	-63.0	3.8	7.46e-01	0	44	104	0	79	10183
2026-01-24 21:56:09.84	185.47	11.64	-54.1	-63.0	3.8	7.45e-01	0	44	104	0	79	10183
2026-01-24 21:56:10.85	185.53	11.52	-54.1	-63.0	3.8	7.44e-01	0	44	104	0	79	10184
2026-01-24 21:56:11.85	185.58	11.41	-54.1	-63.0	3.8	7.44e-01	0	43	104	0	79	10189
2026-01-24 21:56:12.86	185.64	11.30	-54.1	-63.0	3.8	7.45e-01	0	44	104	0	79	10191
2026-01-24 21:56:13.87	185.69	11.18	-54.1	-63.0	3.8	7.45e-01	0	44	104	0	79	10205
2026-01-24 21:56:14.88	185.75	11.07	-54.1	-62.9	3.8	7.44e-01	0	43	104	0	79	10158
2026-01-24 21:56:15.88	185.80	10.96	-54.1	-63.0	3.8	7.46e-01	0	44	104	0	79	10206
2026-01-24 21:56:16.89	185.86	10.85	-54.1	-63.0	3.8	7.46e-01	0	43	104	0	79	10210
2026-01-24 21:56:17.90	185.91	10.74	-54.1	-63.0	3.8	7.45e-01	0	44	104	0	79	10190
2026-01-24 21:56:18.91	185.97	10.63	-54.1	-63.0	3.8	7.46e-01	0	43	104	0	79	10198
2026-01-24 21:56:19.92	186.02	10.53	-54.1	-62.9	3.8	7.46e-01	0	43	104	0	79	10157
2026-01-24 21:56:20.92	186.07	10.42	-54.1	-62.9	3.8	7.45e-01	0	44	104	0	79	10169
2026-01-24 21:56:21.93	186.12	10.31	-54.1	-62.9	3.8	7.46e-01	0	43	104	0	79	10160
2026-01-24 21:56:22.94	186.17	10.21	-54.1	-63.0	3.8	7.43e-01	0	43	104	0	79	10206
2026-01-24 21:56:23.95	186.23	10.10	-54.1	-63.0	3.8	7.43e-01	0	44	104	0	79	10195
2026-01-24 21:56:24.95	186.28	10.00	-54.1	-63.0	3.8	7.46e-01	0	44	104	0	79	10179
2026-01-24 21:56:25.96	186.33	9.89	-54.1	-62.9	3.8	7.46e-01	0	44	104	0	79	10171
2026-01-24 21:56:26.97	186.38	9.79	-54.1	-62.9	3.8	7.44e-01	0	44	104	0	79	10165
2026-01-24 21:56:27.98	186.43	9.68	-54.1	-63.0	3.8	7.43e-01	0	43	104	0	79	10187
2026-01-24 21:56:28.99	186.47	9.58	-54.1	-63.0	3.8	7.45e-01	0	43	104	0	79	10194
2026-01-24 21:56:30.00	186.52	9.48	-54.1	-63.0	3.8	7.45e-01	0	44	104	0	79	10194
2026-01-24 21:56:31.00	186.57	9.38	-54.1	-63.0	3.8	7.45e-01	0	43	104	0	79	10194
2026-01-24 21:56:32.01	186.62	9.28	-54.1	-62.9	3.8	7.46e-01	0	43	104	0	79	10158
2026-01-24 21:56:33.02	186.67	9.17	-54.1	-62.9	3.8	7.46e-01	0	44	104	0	79	10145
2026-01-24 21:56:34.03	186.71	9.07	-54.1	-63.0	3.8	7.44e-01	0	44	104	0	79	10180
2026-01-24 21:56:35.03	186.76	8.98	-54.1	-62.9	3.8	7.45e-01	0	43	104	0	79	10116
2026-01-24 21:56:36.04	186.81	8.88	-54.1	-63.0	3.8	7.43e-01	0	43	104	0	79	10192
2026-01-24 21:56:37.05	186.85	8.78	-54.1	-63.0	3.8	7.44e-01	0	44	104	0	79	10200
2026-01-24 21:56:38.06	186.90	8.68	-54.1	-63.0	3.8	7.45e-01	0	43	104	0	79	10212
2026-01-24 21:56:39.07	186.94	8.58	-54.1	-63.0	3.8	7.46e-01	0	43	104	0	79	10215
2026-01-24 21:56:40.07	186.99	8.48	-54.1	-63.0	3.8	7.46e-01	0	43	104	0	79	10203
2026-01-24 21:56:41.08	187.03	8.39	-54.1	-63.0	3.8	7.46e-01	0	43	104	0	79	10186
2026-01-24 21:56:42.09	187.08	8.29	-54.1	-63.0	3.8	7.44e-01	0	43	104	0	79	10201
2026-01-24 21:56:43.10	187.12	8.20	-54.1	-62.9	3.8	7.45e-01	0	44	104	0	79	10148
2026-01-24 21:56:44.11	187.17	8.10	-54.1	-63.0	3.8	7.44e-01	0	44	104	0	79	10177
2026-01-24 21:56:45.12	187.21	8.01	-54.1	-63.0	3.8	7.46e-01	0	44	104	0	79	10181
2026-01-24 21:56:46.12	187.25	7.91	-54.1	-63.0	3.8	7.46e-01	0	43	104	0	79	10187
2026-01-24 21:56:47.13	187.30	7.82	-54.1	-62.9	3.8	7.47e-01	0	43	104	0	79	10167
2026-01-24 21:56:48.14	187.34	7.73	-54.1	-63.0	3.8	7.46e-01	0	43	104	0	79	10229
2026-01-24 21:56:49.15	187.38	7.63	-54.1	-63.0	3.8	7.44e-01	0	44	104	0	79	10216
2026-01-24 21:56:50.16	187.42	7.54	-54.1	-62.9	3.8	7.46e-01	0	44	104	0	79	10154
2026-01-24 21:56:51.16	187.46	7.45	-54.1	-63.0	3.8	7.45e-01	0	44	104	0	79	10177
2026-01-24 21:56:52.17	187.50	7.36	-54.1	-63.0	3.8	7.45e-01	0	44	104	0	79	10190
2026-01-24 21:56:53.18	187.55	7.27	-54.1	-63.0	3.8	7.45e-01	0	43	104	0	79	10208
2026-01-24 21:56:54.19	187.59	7.17	-54.1	-62.9	3.8	7.43e-01	0	43	104	0	79	10164
2026-01-24 21:56:55.20	187.63	7.08	-54.1	-63.0	3.8	7.48e-01	0	44	104	0	79	10189
2026-01-24 21:56:56.20	187.67	7.00	-54.1	-63.0	3.8	7.46e-01	0	43	104	0	79	10177
2026-01-24 21:56:57.21	187.71	6.91	-54.1	-62.9	3.8	7.44e-01	0	44	104	0	79	10160
2026-01-24 21:56:58.22	187.75	6.82	-54.1	-63.0	3.8	7.43e-01	0	44	104	0	79	10203
2026-01-24 21:56:59.22	187.78	6.73	-54.1	-63.0	3.8	7.46e-01	0	44	104	0	79	10180
2026-01-24 21:57:00.23	187.82	6.64	-54.1	-63.0	3.8	7.48e-01	0	43	104	0	79	10199
2026-01-24 21:57:01.24	187.86	6.55	-54.1	-63.0	3.8	7.43e-01	0	43	104	0	79	10203
2026-01-24 21:57:02.25	187.90	6.46	-54.1	-63.0	3.8	7.45e-01	0	44	104	0	79	10222
2026-01-24 21:57:03.26	187.94	6.38	-54.1	-63.0	3.8	7.45e-01	0	44	104	0	79	10198
2026-01-24 21:57:04.26	187.98	6.29	-54.1	-63.0	3.8	7.47e-01	0	44	104	0	79	10180
2026-01-24 21:57:05.27	188.01	6.21	-54.1	-63.0	3.8	7.44e-01	0	43	104	0	79	10193
2026-01-24 21:57:06.28	188.05	6.12	-54.1	-63.0	3.8	7.45e-01	0	44	104	0	79	10188
2026-01-24 21:57:07.29	188.09	6.03	-54.1	-63.0	3.8	7.47e-01	0	43	104	0	79	10177
2026-01-24 21:57:08.30	188.13	5.95	-54.1	-63.0	3.8	7.45e-01	0	44	104	0	79	10223
2026-01-24 21:57:09.31	188.16	5.86	-54.1	-63.0	3.8	7.45e-01	0	43	104	0	79	10196
2026-01-24 21:57:10.32	188.20	5.78	-54.1	-63.0	3.8	7.47e-01	0	44	104	0	79	10214
2026-01-24 21:57:11.32	188.23	5.70	-54.1	-63.0	3.8	7.45e-01	0	44	104	0	79	10183
2026-01-24 21:57:12.33	188.27	5.61	-54.1	-63.0	3.8	7.45e-01	0	44	104	0	79	10182
2026-01-24 21:57:13.34	188.31	5.53	-54.1	-62.9	3.8	7.45e-01	0	43	104	0	79	10170
2026-01-24 21:57:14.35	188.34	5.44	-54.1	-63.0	3.8	7.45e-01	0	43	104	0	79	10196
2026-01-24 21:57:15.36	188.38	5.36	-54.1	-63.0	3.8	7.46e-01	0	44	104	0	79	10185
2026-01-24 21:57:16.36	188.41	5.28	-54.1	-63.0	3.8	7.45e-01	0	43	104	0	79	10188
2026-01-24 21:57:17.37	188.45	5.20	-54.1	-63.0	3.8	7.45e-01	0	44	104	0	79	10189
2026-01-24 21:57:18.38	188.48	5.12	-54.1	-62.9	3.8	7.45e-01	0	43	104	0	79	10137
2026-01-24 21:57:19.39	188.52	5.04	-54.1	-63.0	3.8	7.46e-01	0	43	104	0	79	10193
2026-01-24 21:57:20.40	188.55	4.95	-54.1	-62.9	3.8	7.44e-01	0	44	104	0	79	10170
2026-01-24 21:57:21.40	188.58	4.87	-54.1	-63.0	3.8	7.45e-01	0	44	104	0	79	10200
2026-01-24 21:57:22.41	188.62	4.79	-54.1	-63.0	3.8	7.44e-01	0	43	104	0	79	10218
2026-01-24 21:57:23.41	188.65	4.71	-54.1	-63.0	3.8	7.47e-01	0	43	104	0	79	10181
2026-01-24 21:57:24.42	188.68	4.63	-54.1	-63.0	3.8	7.45e-01	0	43	104	0	79	10216
2026-01-24 21:57:25.43	188.72	4.55	-54.1	-62.9	3.8	7.45e-01	0	43	104	0	79	10153
2026-01-24 21:57:26.44	188.75	4.48	-54.1	-63.0	3.8	7.45e-01	0	43	104	0	79	10182
2026-01-24 21:57:27.45	188.78	4.40	-54.1	-62.9	3.8	7.45e-01	0	43	104	0	79	10158
2026-01-24 21:57:28.46	188.82	4.32	-54.1	-63.0	3.8	7.46e-01	0	43	104	0	79	10184
2026-01-24 21:57:29.46	188.85	4.24	-54.1	-63.0	3.8	7.45e-01	0	43	104	0	79	10178
2026-01-24 21:57:30.47	188.88	4.16	-54.1	-63.0	3.8	7.46e-01	0	43	104	0	79	10183
2026-01-24 21:57:31.48	188.91	4.08	-54.1	-63.0	3.8	7.45e-01	0	43	104	0	79	10186
2026-01-24 21:57:32.49	188.94	4.01	-54.1	-63.0	3.8	7.46e-01	0	43	104	0	79	10202
2026-01-24 21:57:33.49	188.97	3.93	-54.1	-63.0	3.8	7.45e-01	0	44	104	0	79	10189
2026-01-24 21:57:34.50	189.01	3.85	-54.1	-62.9	3.8	7.46e-01	0	43	104	0	79	10172
2026-01-24 21:57:35.51	189.04	3.78	-54.1	-63.0	3.8	7.46e-01	0	44	104	0	79	10198
2026-01-24 21:57:36.52	189.07	3.70	-54.1	-63.0	3.8	7.45e-01	0	43	104	0	79	10188
2026-01-24 21:57:37.53	189.10	3.63	-54.1	-63.0	3.8	7.45e-01	0	43	104	0	79	10193
2026-01-24 21:57:38.53	189.13	3.55	-54.1	-63.0	3.8	7.47e-01	0	43	104	0	79	10187
2026-01-24 21:57:39.54	189.16	3.47	-54.1	-63.0	3.8	7.47e-01	0	43	104	0	79	10205
2026-01-24 21:57:40.55	189.19	3.40	-54.1	-63.0	3.8	7.46e-01	0	43	104	0	79	10187
2026-01-24 21:57:41.56	189.22	3.32	-54.1	-63.0	3.8	7.45e-01	0	43	104	0	79	10180
2026-01-24 21:57:42.56	189.25	3.25	-54.1	-63.0	3.8	7.46e-01	0	43	104	0	79	10202
2026-01-24 21:57:43.58	189.28	3.18	-54.1	-63.0	3.8	7.47e-01	0	44	104	0	79	10199
2026-01-24 21:57:44.58	189.31	3.10	-54.1	-62.9	3.8	7.46e-01	0	43	104	0	79	10175
2026-01-24 21:57:45.59	189.34	3.03	-54.1	-62.9	3.8	7.45e-01	0	43	104	0	79	10155
2026-01-24 21:57:46.60	189.37	2.96	-54.1	-63.0	3.8	7.45e-01	0	43	104	0	79	10212
2026-01-24 21:57:47.61	189.40	2.88	-54.1	-63.0	3.8	7.44e-01	0	43	104	0	79	10178
2026-01-24 21:57:48.62	189.43	2.81	-54.1	-63.0	3.8	7.44e-01	0	43	104	0	79	10191
2026-01-24 21:57:49.62	189.46	2.74	-54.1	-62.9	3.8	7.45e-01	0	44	104	0	79	10162
2026-01-24 21:57:50.63	189.48	2.66	-54.1	-63.0	3.8	7.44e-01	0	43	104	0	79	10194
2026-01-24 21:57:51.64	189.51	2.59	-54.1	-63.0	3.8	7.45e-01	0	43	104	0	79	10176
2026-01-24 21:57:52.65	189.54	2.52	-54.1	-62.9	3.8	7.45e-01	0	43	104	0	79	10157
2026-01-24 21:57:53.65	189.57	2.45	-54.1	-63.0	3.8	7.45e-01	0	43	104	0	79	10181
2026-01-24 21:57:54.66	189.60	2.38	-54.1	-63.0	3.8	7.44e-01	0	44	104	0	79	10190
2026-01-24 21:57:55.67	189.62	2.31	-54.1	-62.9	3.8	7.47e-01	0	43	104	0	79	10172
2026-01-24 21:57:56.68	189.65	2.23	-54.1	-63.0	3.8	7.44e-01	0	43	104	0	79	10233
2026-01-24 21:57:57.69	189.68	2.16	-54.1	-63.0	3.8	7.47e-01	0	43	104	0	79	10202
2026-01-24 21:57:58.70	189.71	2.09	-54.1	-63.0	3.8	7.47e-01	0	43	104	0	79	10228
2026-01-24 21:57:59.70	189.73	2.02	-54.1	-63.0	3.8	7.47e-01	0	43	104	0	79	10184

#Closed at: 2026-01-24 21:58:00
#Recorded file [0 MB]: D:/lorett/data/31041_260125_004731.dat