passes_logs/2026/01/24/R3.2S_Murmansk/R3.2S_Murmansk__20260124_204329_NOAA_20_JPSS-1_rec.log

#Pass ID: 20260124_204329_NOAA 20 (JPSS-1)
#Satellite: NOAA 20 (JPSS-1)
#Configuration: NOAA 20
#almurnet v.1.7.20251203
#Start time: 2026-01-24 20:43:30

#Version: 2.2.20231116
#Station: R3.2S_Murmansk
#Location: 33.079688 lon 68.888172 lat
#TLE: 1 43013U 17073A   26024.42258823  .00000183  00000+0  10747-3 0  9990
#TLE: 2 43013  98.7646 325.2629 0001105  25.8644 334.2587 14.19539754424075

#Time	Az	El	Level	Level2	SNR	BER	BlckErr	Temp	State	Recorded	gain1	gain2
2026-01-24 20:43:30.47	19.35	2.05	-52.1	-67.1	3.8	1.49e+00	0	47	0	0	76	19419
2026-01-24 20:43:31.48	19.46	2.09	-52.1	-67.1	3.8	1.49e+00	0	46	104	0	74	21815
2026-01-24 20:43:32.49	19.57	2.13	-52.1	-67.0	3.8	1.49e+00	0	46	104	0	74	21750
2026-01-24 20:43:33.50	19.69	2.16	-52.1	-67.1	3.8	1.49e+00	0	46	104	0	74	21797
2026-01-24 20:43:34.51	19.80	2.20	-52.1	-67.0	3.8	1.49e+00	0	46	104	0	74	21755
2026-01-24 20:43:35.52	19.91	2.24	-52.1	-67.0	3.8	1.49e+00	0	46	104	0	74	21705
2026-01-24 20:43:36.53	20.03	2.27	-52.1	-67.0	3.8	1.49e+00	0	46	104	0	74	21742
2026-01-24 20:43:37.54	20.14	2.31	-52.1	-67.0	3.8	1.49e+00	0	46	104	0	74	21706
2026-01-24 20:43:38.54	20.26	2.35	-52.1	-67.0	3.8	1.49e+00	0	46	104	0	74	21744
2026-01-24 20:43:39.55	20.37	2.38	-52.1	-67.1	3.8	1.49e+00	0	46	104	0	74	21794
2026-01-24 20:43:40.56	20.49	2.42	-52.1	-67.0	3.8	1.49e+00	0	46	104	0	74	21713
2026-01-24 20:43:41.57	20.60	2.46	-52.1	-67.0	3.8	1.49e+00	0	46	104	0	74	21735
2026-01-24 20:43:42.57	20.72	2.49	-52.1	-67.0	3.8	1.49e+00	0	46	104	0	74	21750
2026-01-24 20:43:43.58	20.83	2.53	-52.1	-67.0	3.8	1.49e+00	0	46	104	0	74	21735
2026-01-24 20:43:44.59	20.95	2.57	-52.1	-67.0	3.8	1.49e+00	0	46	104	0	74	21724
2026-01-24 20:43:45.60	21.07	2.60	-52.1	-67.0	3.8	1.49e+00	0	45	104	0	74	21699
2026-01-24 20:43:46.61	21.18	2.64	-52.1	-67.0	3.8	1.49e+00	0	46	104	0	74	21700
2026-01-24 20:43:47.61	21.30	2.67	-52.1	-67.0	3.8	1.49e+00	0	46	104	0	74	21656
2026-01-24 20:43:48.62	21.42	2.71	-52.1	-67.0	3.8	1.49e+00	0	45	104	0	74	21734
2026-01-24 20:43:49.63	21.53	2.75	-52.1	-67.0	3.8	1.49e+00	0	45	104	0	74	21669
2026-01-24 20:43:50.64	21.65	2.78	-52.1	-67.0	3.8	1.49e+00	0	45	104	0	74	21668
2026-01-24 20:43:51.65	21.77	2.82	-52.1	-67.0	3.8	1.49e+00	0	45	104	0	74	21679
2026-01-24 20:43:52.65	21.89	2.85	-52.1	-67.0	3.8	1.49e+00	0	45	104	0	74	21631
2026-01-24 20:43:53.66	22.01	2.89	-52.1	-67.0	3.8	1.49e+00	0	45	104	0	74	21646
2026-01-24 20:43:54.67	22.13	2.93	-52.1	-67.0	3.8	1.49e+00	0	45	104	0	74	21594
2026-01-24 20:43:55.68	22.25	2.96	-52.1	-67.0	3.8	1.49e+00	0	45	104	0	74	21631
2026-01-24 20:43:56.69	22.37	3.00	-52.1	-67.0	3.8	1.49e+00	0	45	104	0	74	21589
2026-01-24 20:43:57.70	22.49	3.03	-52.1	-67.0	3.8	1.49e+00	0	45	104	0	74	21585
2026-01-24 20:43:58.70	22.61	3.07	-52.1	-67.0	3.8	1.49e+00	0	45	104	0	74	21528
2026-01-24 20:43:59.71	22.73	3.10	-52.1	-67.0	3.8	1.49e+00	0	45	104	0	74	21576
2026-01-24 20:44:00.72	22.85	3.14	-52.1	-66.9	3.8	1.49e+00	0	45	104	0	74	21414
2026-01-24 20:44:01.73	22.97	3.18	-52.1	-66.9	3.8	1.49e+00	0	45	104	0	74	21443
2026-01-24 20:44:02.73	23.09	3.21	-52.1	-66.8	3.8	1.49e+00	0	45	104	0	74	21221
2026-01-24 20:44:03.74	23.21	3.25	-52.1	-66.9	3.8	1.49e+00	0	45	104	0	74	21284
2026-01-24 20:44:04.75	23.33	3.28	-52.1	-66.8	3.8	1.49e+00	0	45	104	0	74	21146
2026-01-24 20:44:05.76	23.45	3.32	-52.1	-66.9	3.8	1.49e+00	0	45	104	0	74	21315
2026-01-24 20:44:06.77	23.58	3.35	-52.0	-66.9	3.8	1.49e+00	0	45	104	0	74	21350
2026-01-24 20:44:07.77	23.70	3.39	-52.1	-66.9	3.8	1.49e+00	0	45	104	0	74	21411
2026-01-24 20:44:08.78	23.82	3.42	-52.0	-67.0	3.8	1.49e+00	0	45	104	0	74	21592
2026-01-24 20:44:09.79	23.94	3.46	-52.1	-67.0	3.8	1.49e+00	0	45	104	0	74	21523
2026-01-24 20:44:10.80	24.07	3.49	-52.1	-67.0	3.8	1.49e+00	0	45	104	0	74	21532
2026-01-24 20:44:11.80	24.19	3.53	-52.1	-67.0	3.8	1.49e+00	0	45	104	0	74	21570
2026-01-24 20:44:12.81	24.32	3.56	-52.0	-67.0	3.8	1.49e+00	0	45	104	0	74	21531
2026-01-24 20:44:13.82	24.44	3.60	-52.0	-66.9	3.8	1.49e+00	0	45	104	0	74	21448
2026-01-24 20:44:14.82	24.56	3.63	-52.0	-67.0	3.8	1.49e+00	0	45	104	0	74	21509
2026-01-24 20:44:15.83	24.69	3.67	-52.0	-67.0	3.8	1.49e+00	0	45	104	0	74	21508
2026-01-24 20:44:16.84	24.81	3.70	-52.0	-67.0	3.8	1.49e+00	0	45	104	0	74	21518
2026-01-24 20:44:17.85	24.94	3.74	-52.1	-67.0	3.8	1.49e+00	0	45	104	0	74	21556
2026-01-24 20:44:18.86	25.07	3.77	-52.0	-67.0	3.8	1.49e+00	0	45	104	0	74	21572
2026-01-24 20:44:19.86	25.19	3.80	-52.0	-67.0	3.8	1.49e+00	0	45	104	0	74	21590
2026-01-24 20:44:20.87	25.32	3.84	-52.0	-67.0	3.8	1.49e+00	0	45	104	0	74	21663
2026-01-24 20:44:21.88	25.44	3.87	-52.1	-67.0	3.8	1.49e+00	0	45	104	0	74	21613
2026-01-24 20:44:22.88	25.57	3.91	-52.1	-67.0	3.8	1.49e+00	0	45	104	0	74	21571
2026-01-24 20:44:23.89	25.70	3.94	-52.0	-67.0	3.8	1.49e+00	0	44	104	0	74	21523
2026-01-24 20:44:24.90	25.82	3.98	-52.0	-67.0	3.8	1.49e+00	0	45	104	0	74	21551
2026-01-24 20:44:25.91	25.95	4.01	-52.0	-66.9	3.8	1.49e+00	0	44	104	0	74	21475
2026-01-24 20:44:26.92	26.08	4.04	-52.0	-67.0	3.8	1.49e+00	0	45	104	0	74	21573
2026-01-24 20:44:27.92	26.21	4.08	-52.0	-67.0	3.8	1.49e+00	0	45	104	0	74	21548
2026-01-24 20:44:28.93	26.34	4.11	-52.0	-67.0	3.8	1.49e+00	0	44	104	0	74	21633
2026-01-24 20:44:29.93	26.46	4.14	-52.0	-67.0	3.8	1.49e+00	0	44	104	0	74	21636
2026-01-24 20:44:30.94	26.59	4.18	-52.0	-67.0	3.8	1.49e+00	0	44	104	0	74	21666
2026-01-24 20:44:31.95	26.72	4.21	-52.0	-67.0	3.8	1.49e+00	0	45	104	0	74	21616
2026-01-24 20:44:32.96	26.85	4.24	-52.0	-67.0	3.8	1.49e+00	0	44	104	0	74	21657
2026-01-24 20:44:33.97	26.98	4.28	-52.0	-67.0	3.8	1.49e+00	0	44	104	0	74	21633
2026-01-24 20:44:34.98	27.11	4.31	-52.0	-67.0	3.8	1.49e+00	0	44	104	0	74	21550
2026-01-24 20:44:35.98	27.24	4.34	-52.0	-66.9	3.8	1.49e+00	0	44	104	0	74	21487
2026-01-24 20:44:36.99	27.37	4.38	-52.0	-67.0	3.8	1.49e+00	0	44	104	0	74	21548
2026-01-24 20:44:37.99	27.50	4.41	-52.0	-67.0	3.8	1.49e+00	0	45	104	0	74	21634
2026-01-24 20:44:38.99	27.63	4.44	-52.0	-67.0	3.8	1.49e+00	0	44	104	0	74	21651
2026-01-24 20:44:39.98	27.76	4.48	-52.0	-67.0	3.8	1.49e+00	0	44	104	0	74	21656
2026-01-24 20:44:40.97	27.89	4.51	-52.0	-67.0	3.8	1.49e+00	0	44	104	0	74	21585
2026-01-24 20:44:41.96	28.02	4.54	-52.0	-67.0	3.8	1.49e+00	0	44	104	0	74	21562
2026-01-24 20:44:42.94	28.15	4.57	-52.0	-67.0	3.8	1.49e+00	0	44	104	0	74	21554
2026-01-24 20:44:43.92	28.28	4.60	-52.0	-66.8	3.8	1.49e+00	0	44	104	0	74	21117
2026-01-24 20:44:44.90	28.41	4.63	-52.0	-66.3	3.8	1.49e+00	0	44	104	0	74	19967
2026-01-24 20:44:45.86	28.54	4.67	-52.0	-65.6	3.8	1.49e+00	0	44	104	0	74	18517
2026-01-24 20:44:46.83	28.67	4.70	-51.9	-64.9	3.9	1.49e+00	0	44	104	0	74	16925
2026-01-24 20:44:47.80	28.79	4.73	-51.9	-63.8	4.1	1.48e+00	0	44	104	0	74	14954
2026-01-24 20:44:48.77	28.92	4.76	-51.8	-62.4	4.6	1.36e+00	2	44	0	0	74	12756
2026-01-24 20:44:49.74	29.05	4.79	-51.5	-60.2	5.7	7.71e-01	0	44	0	2097152	74	9889
2026-01-24 20:44:50.71	29.18	4.82	-51.1	-58.0	7.6	1.47e-01	0	44	0	4194304	74	7679
2026-01-24 20:44:51.68	29.31	4.85	-50.5	-55.9	9.8	2.90e-02	0	44	0	5242880	73	6391
2026-01-24 20:44:52.66	29.44	4.88	-50.1	-54.7	11.1	4.01e-03	0	44	0	7340032	72	5888
2026-01-24 20:44:53.63	29.57	4.91	-49.7	-53.6	12.3	7.24e-04	0	44	0	9437184	71	5487
2026-01-24 20:44:54.60	29.70	4.94	-49.6	-53.4	12.6	1.07e-04	0	44	0	11534336	71	5377
2026-01-24 20:44:55.57	29.84	4.97	-49.8	-53.9	12.1	1.67e-04	0	44	0	12582912	71	5660
2026-01-24 20:44:56.55	29.97	5.00	-50.1	-54.7	11.3	5.61e-04	0	44	0	14680064	71	6261
2026-01-24 20:44:57.51	30.10	5.03	-48.6	-51.6	14.3	2.91e-03	0	44	0	16777216	69	4875
2026-01-24 20:44:58.48	30.23	5.06	-48.8	-51.2	15.1	0.00e+00	0	44	0	18874368	67	5270
2026-01-24 20:44:59.46	30.36	5.09	-49.8	-53.9	12.3	8.16e-05	0	44	0	19922944	70	6029
2026-01-24 20:45:00.43	30.50	5.12	-51.7	-62.4	4.6	8.87e-01	0	44	0	22020096	74	12697
2026-01-24 20:45:01.40	30.63	5.15	-51.2	-58.4	4.8	1.49e+00	0	44	104	22020096	74	8029
2026-01-24 20:45:02.38	30.76	5.18	-47.0	-49.0	16.9	0.00e+00	0	44	0	23068672	66	4334
2026-01-24 20:45:03.35	30.90	5.21	-47.4	-49.5	16.6	0.00e+00	0	44	0	24117248	66	4596
2026-01-24 20:45:04.32	31.03	5.24	-47.0	-49.1	16.9	0.00e+00	0	44	0	26214400	66	4362
2026-01-24 20:45:05.29	31.16	5.27	-47.1	-49.2	17.0	0.00e+00	0	44	0	28311552	65	4660
2026-01-24 20:45:06.26	31.30	5.30	-47.1	-49.2	16.9	0.00e+00	0	44	0	29360128	65	4655
2026-01-24 20:45:07.23	31.43	5.33	-47.2	-49.3	16.8	0.00e+00	0	44	0	31457280	65	4735
2026-01-24 20:45:08.20	31.56	5.36	-47.4	-49.6	16.5	0.00e+00	0	44	0	33554432	65	4926
2026-01-24 20:45:09.17	31.70	5.39	-47.3	-49.5	16.6	0.00e+00	0	44	0	35651584	65	4834
2026-01-24 20:45:10.14	31.83	5.42	-47.4	-49.6	16.6	0.00e+00	0	44	0	36700160	65	4887
2026-01-24 20:45:11.11	31.97	5.45	-47.3	-49.5	16.7	0.00e+00	0	44	0	38797312	65	4856
2026-01-24 20:45:12.08	32.10	5.48	-47.2	-49.3	16.9	0.00e+00	0	44	0	40894464	65	4721
2026-01-24 20:45:13.05	32.24	5.51	-47.4	-49.6	16.6	0.00e+00	0	44	0	42991616	65	4925
2026-01-24 20:45:14.02	32.37	5.53	-47.4	-49.6	16.5	0.00e+00	0	44	0	44040192	65	4876
2026-01-24 20:45:14.99	32.51	5.56	-47.4	-49.6	16.5	0.00e+00	0	44	0	46137344	65	4884
2026-01-24 20:45:15.96	32.65	5.59	-47.3	-49.5	16.6	0.00e+00	0	44	0	48234496	65	4823
2026-01-24 20:45:16.93	32.78	5.62	-47.5	-49.7	16.5	0.00e+00	0	44	0	50331648	65	4979
2026-01-24 20:45:17.90	32.92	5.65	-47.4	-49.6	16.6	0.00e+00	0	44	0	51380224	65	4875
2026-01-24 20:45:18.87	33.06	5.67	-47.4	-49.6	16.4	0.00e+00	0	44	0	53477376	65	4871
2026-01-24 20:45:19.84	33.20	5.70	-47.3	-49.5	16.6	0.00e+00	0	44	0	55574528	65	4849
2026-01-24 20:45:20.81	33.33	5.73	-47.4	-49.6	16.5	0.00e+00	0	44	0	57671680	65	4926
2026-01-24 20:45:21.78	33.47	5.76	-47.5	-49.8	16.5	0.00e+00	0	44	0	58720256	65	4997
2026-01-24 20:45:22.74	33.61	5.79	-47.5	-49.8	16.5	0.00e+00	0	44	0	60817408	65	5011
2026-01-24 20:45:23.71	33.75	5.81	-47.4	-49.6	16.6	0.00e+00	0	44	0	62914560	65	4887
2026-01-24 20:45:24.69	33.89	5.84	-47.6	-49.9	16.3	0.00e+00	0	44	0	65011712	65	5066
2026-01-24 20:45:25.66	34.02	5.87	-47.3	-49.5	16.5	0.00e+00	0	44	0	66060288	65	4845
2026-01-24 20:45:26.63	34.16	5.90	-47.6	-49.9	16.4	0.00e+00	0	44	0	68157440	65	5070
2026-01-24 20:45:27.60	34.30	5.92	-47.6	-49.9	16.3	0.00e+00	0	44	0	70254592	66	4782
2026-01-24 20:45:28.57	34.44	5.95	-47.7	-50.0	16.3	0.00e+00	0	44	0	71303168	66	4840
2026-01-24 20:45:29.54	34.58	5.98	-47.6	-49.9	16.4	0.00e+00	0	44	0	73400320	66	4785
2026-01-24 20:45:30.51	34.72	6.00	-47.7	-49.9	16.3	0.00e+00	0	44	0	75497472	66	4810
2026-01-24 20:45:31.49	34.86	6.03	-47.5	-49.7	16.4	0.00e+00	0	44	0	77594624	66	4702
2026-01-24 20:45:32.46	35.01	6.06	-47.6	-49.9	16.3	0.00e+00	0	44	0	78643200	66	4760
2026-01-24 20:45:33.43	35.15	6.08	-47.6	-49.9	16.2	0.00e+00	0	44	0	80740352	66	4791
2026-01-24 20:45:34.40	35.29	6.11	-47.7	-50.0	16.3	0.00e+00	0	44	0	82837504	66	4827
2026-01-24 20:45:35.37	35.43	6.14	-47.6	-49.9	16.4	0.00e+00	0	44	0	84934656	66	4775
2026-01-24 20:45:36.34	35.57	6.16	-47.6	-49.9	16.4	0.00e+00	0	44	0	85983232	66	4797
2026-01-24 20:45:37.31	35.71	6.19	-47.6	-49.8	16.3	0.00e+00	0	44	0	88080384	66	4752
2026-01-24 20:45:38.28	35.85	6.21	-47.5	-49.7	16.5	0.00e+00	0	44	0	90177536	66	4666
2026-01-24 20:45:39.25	36.00	6.24	-47.6	-49.8	16.4	0.00e+00	0	44	0	91226112	66	4725
2026-01-24 20:45:40.21	36.14	6.26	-47.6	-49.9	16.4	0.00e+00	0	44	0	93323264	66	4773
2026-01-24 20:45:41.19	36.28	6.29	-47.5	-49.7	16.5	0.00e+00	0	44	0	95420416	66	4705
2026-01-24 20:45:42.16	36.42	6.32	-47.2	-49.3	16.9	0.00e+00	0	44	0	97517568	66	4467
2026-01-24 20:45:43.13	36.57	6.34	-47.2	-49.3	17.0	0.00e+00	0	44	0	98566144	66	4457
2026-01-24 20:45:44.10	36.71	6.37	-47.4	-49.5	16.8	0.00e+00	0	44	0	100663296	66	4572
2026-01-24 20:45:45.07	36.86	6.39	-47.2	-49.2	17.0	0.00e+00	0	44	0	102760448	66	4422
2026-01-24 20:45:46.04	37.00	6.42	-47.2	-49.3	16.9	0.00e+00	0	44	0	104857600	66	4481
2026-01-24 20:45:47.01	37.14	6.44	-47.4	-49.6	16.7	0.00e+00	0	44	0	105906176	66	4624
2026-01-24 20:45:47.98	37.29	6.46	-47.4	-49.6	16.7	0.00e+00	0	44	0	108003328	66	4611
2026-01-24 20:45:48.95	37.43	6.49	-47.4	-49.6	16.7	0.00e+00	0	44	0	110100480	66	4605
2026-01-24 20:45:49.92	37.58	6.51	-47.5	-49.7	16.6	0.00e+00	0	44	0	112197632	66	4678
2026-01-24 20:45:50.90	37.72	6.54	-47.5	-49.7	16.6	0.00e+00	0	44	0	113246208	66	4704
2026-01-24 20:45:51.87	37.87	6.56	-47.6	-49.8	16.5	0.00e+00	0	44	0	115343360	66	4722
2026-01-24 20:45:52.84	38.02	6.59	-47.6	-49.8	16.4	0.00e+00	0	44	0	117440512	66	4707
2026-01-24 20:45:53.81	38.16	6.61	-47.6	-49.9	16.4	0.00e+00	0	44	0	119537664	66	4778
2026-01-24 20:45:54.78	38.31	6.63	-47.7	-50.0	16.3	0.00e+00	0	44	0	120586240	66	4836
2026-01-24 20:45:55.75	38.45	6.66	-47.5	-49.7	16.7	0.00e+00	0	44	0	122683392	66	4697
2026-01-24 20:45:56.72	38.60	6.68	-47.4	-49.5	16.7	0.00e+00	0	44	0	124780544	66	4576
2026-01-24 20:45:57.69	38.75	6.70	-47.4	-49.5	16.8	0.00e+00	0	44	0	126877696	66	4597
2026-01-24 20:45:58.67	38.90	6.73	-47.3	-49.4	16.9	0.00e+00	0	44	0	127926272	66	4522
2026-01-24 20:45:59.64	39.04	6.75	-47.4	-49.5	16.8	0.00e+00	0	44	0	130023424	66	4588
2026-01-24 20:46:00.61	39.19	6.77	-47.4	-49.5	16.8	0.00e+00	0	44	0	132120576	66	4575
2026-01-24 20:46:01.58	39.34	6.80	-47.5	-49.7	16.7	0.00e+00	0	44	0	134217728	66	4686
2026-01-24 20:46:02.54	39.48	6.82	-47.5	-49.7	16.7	0.00e+00	0	44	0	135266304	66	4668
2026-01-24 20:46:03.51	39.63	6.84	-47.5	-49.7	16.6	0.00e+00	0	43	0	137363456	66	4696
2026-01-24 20:46:04.48	39.78	6.86	-47.7	-50.0	16.4	0.00e+00	0	44	0	139460608	66	4816
2026-01-24 20:46:05.45	39.93	6.88	-47.5	-49.7	16.6	0.00e+00	0	43	0	140509184	66	4661
2026-01-24 20:46:06.42	40.08	6.91	-47.6	-49.8	16.5	0.00e+00	0	43	0	142606336	66	4714
2026-01-24 20:46:07.38	40.23	6.93	-47.7	-49.9	16.5	0.00e+00	0	44	0	144703488	66	4777
2026-01-24 20:46:08.36	40.38	6.95	-47.6	-49.8	16.5	0.00e+00	0	44	0	145752064	66	4716
2026-01-24 20:46:09.33	40.53	6.97	-47.6	-49.8	16.5	0.00e+00	0	43	0	147849216	66	4744
2026-01-24 20:46:10.30	40.68	6.99	-47.5	-49.6	16.7	0.00e+00	0	44	0	149946368	66	4621
2026-01-24 20:46:11.27	40.83	7.01	-47.5	-49.7	16.7	0.00e+00	0	44	0	152043520	66	4692
2026-01-24 20:46:12.24	40.98	7.04	-47.4	-49.6	16.7	0.00e+00	0	44	0	153092096	66	4599
2026-01-24 20:46:13.21	41.13	7.06	-47.4	-49.6	16.7	0.00e+00	0	44	0	155189248	66	4602
2026-01-24 20:46:14.18	41.28	7.08	-47.5	-49.7	16.7	0.00e+00	0	44	0	157286400	66	4672
2026-01-24 20:46:15.16	41.43	7.10	-47.6	-49.7	16.7	0.00e+00	0	44	0	159383552	66	4694
2026-01-24 20:46:16.13	41.58	7.12	-47.6	-49.8	16.5	0.00e+00	0	43	0	160432128	66	4715
2026-01-24 20:46:17.10	41.73	7.14	-47.6	-49.8	16.6	0.00e+00	0	44	0	162529280	66	4736
2026-01-24 20:46:18.07	41.88	7.16	-47.4	-49.6	16.7	0.00e+00	0	44	0	164626432	66	4622
2026-01-24 20:46:19.04	42.03	7.18	-47.6	-49.7	16.6	0.00e+00	0	44	0	166723584	66	4701
2026-01-24 20:46:20.02	42.19	7.20	-47.5	-49.6	16.6	0.00e+00	0	43	0	167772160	66	4635
2026-01-24 20:46:20.99	42.34	7.22	-47.4	-49.5	16.9	0.00e+00	0	44	0	169869312	66	4578
2026-01-24 20:46:21.96	42.49	7.24	-47.4	-49.5	16.8	0.00e+00	0	43	0	171966464	66	4589
2026-01-24 20:46:22.93	42.64	7.26	-47.5	-49.6	16.7	0.00e+00	0	44	0	174063616	66	4634
2026-01-24 20:46:23.90	42.80	7.28	-47.6	-49.7	16.6	0.00e+00	0	43	0	175112192	66	4690
2026-01-24 20:46:24.87	42.95	7.30	-47.6	-49.9	16.5	0.00e+00	0	44	0	177209344	66	4765
2026-01-24 20:46:25.84	43.10	7.32	-47.6	-49.8	16.5	0.00e+00	0	44	0	179306496	66	4726
2026-01-24 20:46:26.81	43.25	7.34	-47.6	-49.9	16.5	0.00e+00	0	44	0	181403648	66	4763
2026-01-24 20:46:27.79	43.41	7.35	-47.6	-49.8	16.6	0.00e+00	0	43	0	182452224	66	4745
2026-01-24 20:46:28.75	43.56	7.37	-47.5	-49.7	16.6	0.00e+00	0	44	0	184549376	66	4675
2026-01-24 20:46:29.73	43.72	7.39	-47.7	-50.0	16.4	0.00e+00	0	43	0	186646528	66	4845
2026-01-24 20:46:30.70	43.87	7.41	-47.6	-49.9	16.6	0.00e+00	0	44	0	188743680	66	4761
2026-01-24 20:46:31.66	44.02	7.43	-47.6	-49.8	16.5	0.00e+00	0	43	0	189792256	66	4756
2026-01-24 20:46:32.64	44.18	7.45	-47.6	-49.8	16.5	0.00e+00	0	44	0	191889408	66	4727
2026-01-24 20:46:33.61	44.33	7.46	-47.5	-49.6	16.7	0.00e+00	0	44	0	193986560	66	4626
2026-01-24 20:46:34.58	44.49	7.48	-47.5	-49.7	16.6	0.00e+00	0	44	0	196083712	66	4686
2026-01-24 20:46:35.55	44.64	7.50	-47.5	-49.6	16.7	0.00e+00	0	44	0	197132288	66	4612
2026-01-24 20:46:36.52	44.80	7.52	-47.4	-49.5	16.8	0.00e+00	0	44	0	199229440	66	4578
2026-01-24 20:46:37.49	44.95	7.53	-47.4	-49.6	16.7	0.00e+00	0	44	0	201326592	66	4611
2026-01-24 20:46:38.46	45.11	7.55	-47.4	-49.5	16.8	0.00e+00	0	44	0	202375168	66	4564
2026-01-24 20:46:39.43	45.26	7.57	-47.3	-49.4	16.9	0.00e+00	0	44	0	204472320	66	4518
2026-01-24 20:46:40.40	45.42	7.58	-47.4	-49.4	16.9	0.00e+00	0	44	0	206569472	66	4545
2026-01-24 20:46:41.37	45.57	7.60	-47.3	-49.4	17.0	0.00e+00	0	43	0	207618048	66	4532
2026-01-24 20:46:42.34	45.73	7.61	-47.4	-49.5	17.0	0.00e+00	0	43	0	209715200	66	4550
2026-01-24 20:46:43.31	45.89	7.63	-47.4	-49.5	16.9	0.00e+00	0	44	0	211812352	66	4563
2026-01-24 20:46:44.28	46.04	7.65	-47.4	-49.5	16.8	0.00e+00	0	44	0	213909504	66	4556
2026-01-24 20:46:45.25	46.20	7.66	-47.5	-49.6	16.8	0.00e+00	0	44	0	214958080	66	4649
2026-01-24 20:46:46.22	46.36	7.68	-47.5	-49.6	16.7	0.00e+00	0	44	0	217055232	66	4646
2026-01-24 20:46:47.19	46.51	7.69	-47.6	-49.7	16.6	0.00e+00	0	44	0	219152384	66	4700
2026-01-24 20:46:48.16	46.67	7.71	-47.5	-49.6	16.8	0.00e+00	0	44	0	221249536	66	4612
2026-01-24 20:46:49.13	46.83	7.72	-47.4	-49.6	16.8	0.00e+00	0	44	0	222298112	66	4605
2026-01-24 20:46:50.10	46.98	7.74	-47.4	-49.5	16.9	0.00e+00	0	43	0	224395264	66	4569
2026-01-24 20:46:51.08	47.14	7.75	-47.4	-49.5	16.8	0.00e+00	0	44	0	226492416	66	4564
2026-01-24 20:46:52.05	47.30	7.77	-47.2	-49.2	17.2	0.00e+00	0	44	0	228589568	66	4419
2026-01-24 20:46:53.02	47.46	7.78	-47.2	-49.2	17.1	0.00e+00	0	44	0	229638144	66	4435
2026-01-24 20:46:53.99	47.62	7.80	-47.3	-49.4	17.0	0.00e+00	0	44	0	231735296	66	4528
2026-01-24 20:46:54.96	47.78	7.81	-47.3	-49.3	17.1	0.00e+00	0	43	0	233832448	66	4477
2026-01-24 20:46:55.93	47.93	7.82	-47.3	-49.4	17.0	0.00e+00	0	44	0	235929600	66	4501
2026-01-24 20:46:56.90	48.09	7.84	-47.2	-49.2	17.2	0.00e+00	0	44	0	236978176	66	4432
2026-01-24 20:46:57.88	48.25	7.85	-47.4	-49.4	17.0	0.00e+00	0	44	0	239075328	66	4523
2026-01-24 20:46:58.85	48.41	7.86	-47.4	-49.4	16.9	0.00e+00	0	44	0	241172480	66	4523
2026-01-24 20:46:59.82	48.57	7.88	-47.4	-49.5	16.8	0.00e+00	0	43	0	243269632	66	4579
2026-01-24 20:47:00.79	48.73	7.89	-47.5	-49.7	16.7	0.00e+00	0	44	0	244318208	66	4654
2026-01-24 20:47:01.76	48.89	7.90	-47.6	-49.8	16.6	0.00e+00	0	44	0	246415360	66	4710
2026-01-24 20:47:02.73	49.05	7.92	-47.4	-49.5	16.8	0.00e+00	0	44	0	248512512	66	4593
2026-01-24 20:47:03.70	49.21	7.93	-47.5	-49.7	16.7	0.00e+00	0	44	0	250609664	66	4658
2026-01-24 20:47:04.67	49.37	7.94	-47.4	-49.5	16.8	0.00e+00	0	44	0	251658240	66	4570
2026-01-24 20:47:05.64	49.52	7.95	-47.6	-49.7	16.7	0.00e+00	0	44	0	253755392	66	4680
2026-01-24 20:47:06.61	49.68	7.96	-47.6	-49.8	16.6	0.00e+00	0	44	0	255852544	66	4717
2026-01-24 20:47:07.58	49.84	7.98	-47.8	-50.0	16.3	0.00e+00	0	44	0	257949696	66	4839
2026-01-24 20:47:08.55	50.00	7.99	-47.8	-50.1	16.4	0.00e+00	0	44	0	258998272	66	4872
2026-01-24 20:47:09.52	50.16	8.00	-47.9	-50.3	16.1	0.00e+00	0	43	0	261095424	66	4999
2026-01-24 20:47:10.50	50.33	8.01	-47.9	-50.2	16.2	0.00e+00	0	44	0	263192576	66	4927
2026-01-24 20:47:11.47	50.49	8.02	-47.9	-50.2	16.3	0.00e+00	0	44	0	265289728	66	4943
2026-01-24 20:47:12.44	50.65	8.03	-47.9	-50.2	16.2	0.00e+00	0	44	0	266338304	66	4927
2026-01-24 20:47:13.41	50.81	8.04	-47.8	-50.1	16.3	0.00e+00	0	44	0	268435456	66	4901
2026-01-24 20:47:14.37	50.97	8.05	-47.9	-50.2	16.2	0.00e+00	0	44	0	270532608	66	4973
2026-01-24 20:47:15.35	51.13	8.06	-47.9	-50.2	16.2	0.00e+00	0	44	0	271581184	66	4958
2026-01-24 20:47:16.32	51.29	8.07	-47.6	-49.8	16.6	0.00e+00	0	44	0	273678336	66	4715
2026-01-24 20:47:17.29	51.45	8.08	-47.6	-49.8	16.5	0.00e+00	0	44	0	275775488	66	4753
2026-01-24 20:47:18.26	51.61	8.09	-47.7	-49.9	16.5	0.00e+00	0	44	0	276824064	66	4766
2026-01-24 20:47:19.24	51.78	8.10	-47.6	-49.8	16.6	0.00e+00	0	44	0	278921216	66	4723
2026-01-24 20:47:20.21	51.94	8.11	-47.5	-49.7	16.8	0.00e+00	0	44	0	281018368	66	4663
2026-01-24 20:47:21.18	52.10	8.12	-47.6	-49.8	16.6	0.00e+00	0	44	0	283115520	66	4735
2026-01-24 20:47:22.15	52.26	8.13	-47.7	-49.9	16.5	0.00e+00	0	44	0	284164096	66	4804
2026-01-24 20:47:23.12	52.42	8.14	-47.7	-49.9	16.4	0.00e+00	0	44	0	286261248	66	4795
2026-01-24 20:47:24.09	52.58	8.14	-47.9	-50.2	16.2	0.00e+00	0	44	0	288358400	66	4966
2026-01-24 20:47:25.06	52.74	8.15	-48.0	-50.4	15.9	0.00e+00	0	44	0	290455552	66	5089
2026-01-24 20:47:26.03	52.91	8.16	-48.1	-50.5	15.9	0.00e+00	0	44	0	291504128	66	5118
2026-01-24 20:47:27.00	53.07	8.17	-48.1	-50.6	15.7	0.00e+00	0	44	0	293601280	66	5193
2026-01-24 20:47:27.97	53.23	8.18	-48.1	-50.6	15.8	0.00e+00	0	44	0	295698432	66	5189
2026-01-24 20:47:28.95	53.39	8.18	-48.2	-50.6	15.7	0.00e+00	0	44	0	297795584	67	4901
2026-01-24 20:47:29.92	53.56	8.19	-48.1	-50.5	15.8	0.00e+00	0	44	0	298844160	67	4855
2026-01-24 20:47:30.89	53.72	8.20	-48.0	-50.4	16.0	0.00e+00	0	44	0	300941312	67	4789
2026-01-24 20:47:31.85	53.88	8.21	-48.0	-50.3	16.0	0.00e+00	0	44	0	303038464	67	4747
2026-01-24 20:47:32.82	54.04	8.21	-48.0	-50.4	16.0	0.00e+00	0	44	0	305135616	67	4794
2026-01-24 20:47:33.80	54.21	8.22	-48.0	-50.3	16.1	0.00e+00	0	44	0	306184192	67	4746
2026-01-24 20:47:34.77	54.37	8.22	-47.9	-50.3	16.2	0.00e+00	0	44	0	308281344	67	4708
2026-01-24 20:47:35.74	54.53	8.23	-47.8	-50.1	16.3	0.00e+00	0	44	0	310378496	67	4640
2026-01-24 20:47:36.71	54.69	8.24	-47.7	-50.0	16.4	0.00e+00	0	44	0	312475648	67	4553
2026-01-24 20:47:37.68	54.86	8.24	-47.8	-50.1	16.4	0.00e+00	0	44	0	313524224	67	4605
2026-01-24 20:47:38.65	55.02	8.25	-47.7	-49.9	16.5	0.00e+00	0	44	0	315621376	67	4510
2026-01-24 20:47:39.62	55.18	8.25	-47.6	-49.8	16.6	0.00e+00	0	44	0	317718528	67	4445
2026-01-24 20:47:40.59	55.35	8.26	-47.5	-49.6	16.8	0.00e+00	0	44	0	319815680	67	4390
2026-01-24 20:47:41.56	55.51	8.26	-47.5	-49.6	16.7	0.00e+00	0	44	0	320864256	66	4635
2026-01-24 20:47:42.53	55.67	8.27	-47.5	-49.6	16.7	0.00e+00	0	44	0	322961408	66	4651
2026-01-24 20:47:43.51	55.84	8.27	-47.6	-49.8	16.6	0.00e+00	0	44	0	325058560	66	4748
2026-01-24 20:47:44.48	56.00	8.28	-47.5	-49.7	16.6	0.00e+00	0	44	0	327155712	66	4666
2026-01-24 20:47:45.45	56.16	8.28	-47.4	-49.5	16.9	0.00e+00	0	44	0	328204288	66	4570
2026-01-24 20:47:46.42	56.33	8.28	-47.5	-49.7	16.7	0.00e+00	0	44	0	330301440	66	4654
2026-01-24 20:47:47.39	56.49	8.29	-47.5	-49.7	16.7	0.00e+00	0	44	0	332398592	66	4661
2026-01-24 20:47:48.36	56.65	8.29	-47.5	-49.7	16.7	0.00e+00	0	44	0	333447168	66	4661
2026-01-24 20:47:49.33	56.82	8.30	-47.6	-49.8	16.6	0.00e+00	0	44	0	335544320	66	4747
2026-01-24 20:47:50.30	56.98	8.30	-47.5	-49.6	16.8	0.00e+00	0	44	0	337641472	66	4632
2026-01-24 20:47:51.27	57.14	8.30	-47.5	-49.6	16.8	0.00e+00	0	44	0	338690048	66	4604
2026-01-24 20:47:52.24	57.31	8.30	-47.4	-49.5	16.9	0.00e+00	0	44	0	340787200	66	4548
2026-01-24 20:47:53.22	57.47	8.31	-47.4	-49.4	17.0	0.00e+00	0	44	0	342884352	66	4536
2026-01-24 20:47:54.19	57.64	8.31	-47.3	-49.3	17.0	0.00e+00	0	44	0	344981504	66	4454
2026-01-24 20:47:55.15	57.80	8.31	-47.3	-49.3	17.1	0.00e+00	0	44	0	346030080	66	4461
2026-01-24 20:47:56.12	57.96	8.31	-47.2	-49.3	17.2	0.00e+00	0	44	0	348127232	66	4447
2026-01-24 20:47:57.10	58.13	8.31	-47.1	-49.0	17.4	0.00e+00	0	44	0	350224384	66	4335
2026-01-24 20:47:58.06	58.29	8.32	-46.9	-48.9	17.5	0.00e+00	0	44	0	352321536	65	4496
2026-01-24 20:47:59.03	58.45	8.32	-46.9	-48.9	17.5	0.00e+00	0	44	0	353370112	65	4501
2026-01-24 20:48:00.00	58.62	8.32	-46.9	-48.8	17.7	0.00e+00	0	44	0	355467264	65	4457
2026-01-24 20:48:00.97	58.78	8.32	-46.9	-48.8	17.6	0.00e+00	0	44	0	357564416	65	4442
2026-01-24 20:48:01.95	58.94	8.32	-46.9	-48.9	17.4	0.00e+00	0	44	0	359661568	65	4494
2026-01-24 20:48:02.93	59.11	8.32	-47.0	-48.9	17.5	0.00e+00	0	44	0	360710144	65	4535
2026-01-24 20:48:03.89	59.27	8.32	-47.1	-49.0	17.3	0.00e+00	0	44	0	362807296	65	4586
2026-01-24 20:48:04.86	59.44	8.32	-47.1	-49.1	17.3	0.00e+00	0	44	0	364904448	65	4605
2026-01-24 20:48:05.83	59.60	8.32	-47.0	-48.9	17.5	0.00e+00	0	44	0	367001600	65	4529
2026-01-24 20:48:06.80	59.76	8.32	-47.0	-49.0	17.4	0.00e+00	0	44	0	368050176	65	4558
2026-01-24 20:48:07.77	59.93	8.32	-46.9	-48.9	17.5	0.00e+00	0	44	0	370147328	65	4497
2026-01-24 20:48:08.75	60.09	8.32	-46.9	-48.8	17.6	0.00e+00	0	44	0	372244480	65	4490
2026-01-24 20:48:09.72	60.26	8.32	-46.6	-48.4	17.9	0.00e+00	0	44	0	374341632	65	4287
2026-01-24 20:48:10.69	60.42	8.32	-46.5	-48.2	18.2	0.00e+00	0	44	0	375390208	64	4438
2026-01-24 20:48:11.66	60.58	8.32	-46.6	-48.4	18.1	0.00e+00	0	44	0	377487360	64	4496
2026-01-24 20:48:12.63	60.75	8.32	-46.4	-48.1	18.1	0.00e+00	0	44	0	379584512	64	4372
2026-01-24 20:48:13.61	60.91	8.31	-46.3	-48.0	18.4	0.00e+00	0	44	0	381681664	64	4303
2026-01-24 20:48:14.58	61.08	8.31	-46.3	-48.0	18.3	0.00e+00	0	44	0	382730240	64	4301
2026-01-24 20:48:15.55	61.24	8.31	-46.3	-48.0	18.3	0.00e+00	0	44	0	384827392	64	4292
2026-01-24 20:48:16.52	61.40	8.31	-46.3	-48.0	18.3	0.00e+00	0	44	0	386924544	64	4316
2026-01-24 20:48:17.49	61.57	8.31	-46.4	-48.2	18.2	0.00e+00	0	44	0	389021696	64	4393
2026-01-24 20:48:18.47	61.73	8.30	-46.5	-48.2	18.2	0.00e+00	0	44	0	390070272	64	4434
2026-01-24 20:48:19.44	61.90	8.30	-46.5	-48.2	18.1	0.00e+00	0	44	0	392167424	64	4441
2026-01-24 20:48:20.41	62.06	8.30	-46.6	-48.4	17.9	0.00e+00	0	44	0	394264576	64	4537
2026-01-24 20:48:21.38	62.22	8.29	-46.7	-48.5	17.8	0.00e+00	0	44	0	395313152	64	4576
2026-01-24 20:48:22.35	62.39	8.29	-46.7	-48.5	17.8	0.00e+00	0	44	0	397410304	64	4597
2026-01-24 20:48:23.32	62.55	8.29	-46.6	-48.5	17.9	0.00e+00	0	44	0	399507456	64	4548
2026-01-24 20:48:24.29	62.71	8.28	-46.6	-48.4	18.0	0.00e+00	0	44	0	401604608	64	4505
2026-01-24 20:48:25.26	62.88	8.28	-46.6	-48.4	17.9	0.00e+00	0	44	0	402653184	64	4538
2026-01-24 20:48:26.23	63.04	8.27	-46.6	-48.4	18.0	0.00e+00	0	44	0	404750336	64	4519
2026-01-24 20:48:27.20	63.20	8.27	-46.5	-48.3	18.0	0.00e+00	0	44	0	406847488	64	4454
2026-01-24 20:48:28.17	63.37	8.26	-46.5	-48.2	18.1	0.00e+00	0	44	0	408944640	64	4423
2026-01-24 20:48:29.14	63.53	8.26	-46.4	-48.1	18.2	0.00e+00	0	44	0	409993216	64	4387
2026-01-24 20:48:30.11	63.69	8.25	-46.3	-48.0	18.3	0.00e+00	0	44	0	412090368	64	4297
2026-01-24 20:48:31.08	63.86	8.25	-46.2	-47.8	18.5	0.00e+00	0	44	0	414187520	64	4239
2026-01-24 20:48:32.05	64.02	8.24	-46.3	-48.0	18.3	0.00e+00	0	44	0	415236096	64	4336
2026-01-24 20:48:33.03	64.18	8.24	-46.4	-48.1	18.4	0.00e+00	0	44	0	417333248	64	4351
2026-01-24 20:48:34.00	64.35	8.23	-46.2	-47.9	18.4	0.00e+00	0	44	0	419430400	64	4263
2026-01-24 20:48:34.97	64.51	8.23	-46.2	-47.9	18.4	0.00e+00	0	44	0	421527552	64	4255
2026-01-24 20:48:35.94	64.67	8.22	-46.4	-48.2	18.3	0.00e+00	0	44	0	422576128	64	4392
2026-01-24 20:48:36.91	64.83	8.21	-46.4	-48.1	18.2	0.00e+00	0	44	0	424673280	64	4387
2026-01-24 20:48:37.88	65.00	8.21	-46.5	-48.2	18.2	0.00e+00	0	44	0	426770432	64	4429
2026-01-24 20:48:38.85	65.16	8.20	-46.4	-48.1	18.2	0.00e+00	0	44	0	428867584	64	4391
2026-01-24 20:48:39.82	65.32	8.19	-46.6	-48.4	18.1	0.00e+00	0	44	0	429916160	64	4522
2026-01-24 20:48:40.79	65.48	8.19	-46.5	-48.3	18.0	0.00e+00	0	44	0	432013312	64	4452
2026-01-24 20:48:41.76	65.65	8.18	-46.6	-48.3	18.1	0.00e+00	0	44	0	434110464	64	4482
2026-01-24 20:48:42.73	65.81	8.17	-46.4	-48.1	18.2	0.00e+00	0	44	0	436207616	64	4374
2026-01-24 20:48:43.70	65.97	8.16	-46.4	-48.2	18.3	0.00e+00	0	44	0	437256192	64	4403
2026-01-24 20:48:44.67	66.13	8.16	-46.3	-48.0	18.4	0.00e+00	0	44	0	439353344	64	4328
2026-01-24 20:48:45.64	66.30	8.15	-46.5	-48.3	18.2	0.00e+00	0	44	0	441450496	64	4472
2026-01-24 20:48:46.62	66.46	8.14	-46.5	-48.3	18.1	0.00e+00	0	44	0	443547648	64	4454
2026-01-24 20:48:47.58	66.62	8.13	-46.5	-48.2	18.1	0.00e+00	0	44	0	444596224	64	4419
2026-01-24 20:48:48.56	66.78	8.12	-46.6	-48.5	17.9	0.00e+00	0	44	0	446693376	64	4555
2026-01-24 20:48:49.53	66.94	8.11	-46.7	-48.5	17.8	0.00e+00	0	44	0	448790528	64	4563
2026-01-24 20:48:50.50	67.11	8.10	-46.7	-48.5	17.8	0.00e+00	0	44	0	450887680	64	4570
2026-01-24 20:48:51.46	67.27	8.09	-46.8	-48.7	17.7	0.00e+00	0	44	0	451936256	64	4665
2026-01-24 20:48:52.44	67.43	8.08	-46.8	-48.6	17.7	0.00e+00	0	44	0	454033408	64	4630
2026-01-24 20:48:53.41	67.59	8.07	-46.9	-48.8	17.5	0.00e+00	0	44	0	456130560	64	4754
2026-01-24 20:48:54.38	67.75	8.07	-46.8	-48.7	17.7	0.00e+00	0	44	0	458227712	64	4675
2026-01-24 20:48:55.35	67.91	8.05	-46.6	-48.4	18.0	0.00e+00	0	44	0	459276288	64	4516
2026-01-24 20:48:56.32	68.07	8.04	-46.5	-48.3	18.1	0.00e+00	0	44	0	461373440	64	4455
2026-01-24 20:48:57.29	68.23	8.03	-46.5	-48.3	18.0	0.00e+00	0	44	0	463470592	64	4466
2026-01-24 20:48:58.26	68.39	8.02	-46.5	-48.2	18.1	0.00e+00	0	44	0	464519168	64	4432
2026-01-24 20:48:59.24	68.56	8.01	-46.5	-48.3	18.1	0.00e+00	0	44	0	466616320	64	4477
2026-01-24 20:49:00.21	68.72	8.00	-46.6	-48.4	17.9	0.00e+00	0	44	0	468713472	64	4534
2026-01-24 20:49:01.18	68.88	7.99	-46.6	-48.3	18.1	0.00e+00	0	44	0	470810624	64	4483
2026-01-24 20:49:02.15	69.04	7.98	-46.6	-48.4	18.0	0.00e+00	0	44	0	471859200	64	4501
2026-01-24 20:49:03.12	69.20	7.97	-46.6	-48.4	18.0	0.00e+00	0	44	0	473956352	64	4536
2026-01-24 20:49:04.09	69.36	7.96	-46.5	-48.3	18.1	0.00e+00	0	44	0	476053504	64	4451
2026-01-24 20:49:05.06	69.52	7.94	-46.4	-48.2	18.1	0.00e+00	0	44	0	477102080	64	4407
2026-01-24 20:49:06.03	69.68	7.93	-46.4	-48.1	18.2	0.00e+00	0	44	0	479199232	64	4374
2026-01-24 20:49:07.01	69.84	7.92	-46.6	-48.4	18.0	0.00e+00	0	44	0	481296384	64	4497
2026-01-24 20:49:07.98	70.00	7.91	-46.3	-48.0	18.3	0.00e+00	0	44	0	483393536	64	4328
2026-01-24 20:49:08.95	70.16	7.89	-46.4	-48.2	18.2	0.00e+00	0	44	0	484442112	64	4409
2026-01-24 20:49:09.92	70.32	7.88	-46.4	-48.2	18.2	0.00e+00	0	44	0	486539264	64	4398
2026-01-24 20:49:10.89	70.48	7.87	-46.5	-48.2	18.2	0.00e+00	0	44	0	488636416	64	4404
2026-01-24 20:49:11.86	70.63	7.85	-46.5	-48.3	18.2	0.00e+00	0	44	0	490733568	64	4444
2026-01-24 20:49:12.83	70.79	7.84	-46.6	-48.4	17.9	0.00e+00	0	44	0	491782144	64	4536
2026-01-24 20:49:13.80	70.95	7.83	-46.8	-48.7	17.6	0.00e+00	0	44	0	493879296	64	4682
2026-01-24 20:49:14.77	71.11	7.81	-46.7	-48.5	17.8	0.00e+00	0	44	0	495976448	64	4583
2026-01-24 20:49:15.74	71.27	7.80	-46.8	-48.6	17.7	0.00e+00	0	44	0	498073600	64	4642
2026-01-24 20:49:16.71	71.43	7.79	-46.9	-48.8	17.5	0.00e+00	0	44	0	499122176	64	4742
2026-01-24 20:49:17.68	71.59	7.77	-47.0	-49.0	17.4	0.00e+00	0	44	0	501219328	64	4833
2026-01-24 20:49:18.66	71.74	7.76	-46.9	-48.9	17.5	0.00e+00	0	44	0	503316480	64	4767
2026-01-24 20:49:19.63	71.90	7.74	-46.9	-48.8	17.6	0.00e+00	0	44	0	505413632	64	4756
2026-01-24 20:49:20.60	72.06	7.73	-46.8	-48.7	17.6	0.00e+00	0	44	0	506462208	64	4672
2026-01-24 20:49:21.56	72.22	7.71	-46.8	-48.7	17.7	0.00e+00	0	44	0	508559360	64	4654
2026-01-24 20:49:22.53	72.37	7.70	-46.8	-48.6	17.8	0.00e+00	0	44	0	510656512	64	4630
2026-01-24 20:49:23.50	72.53	7.68	-46.7	-48.5	17.9	0.00e+00	0	44	0	512753664	64	4576
2026-01-24 20:49:24.48	72.69	7.67	-46.7	-48.5	17.8	0.00e+00	0	44	0	513802240	64	4598
2026-01-24 20:49:25.45	72.85	7.65	-46.7	-48.6	17.7	0.00e+00	0	44	0	515899392	64	4622
2026-01-24 20:49:26.42	73.00	7.63	-46.6	-48.4	18.0	0.00e+00	0	44	0	517996544	64	4511
2026-01-24 20:49:27.39	73.16	7.62	-46.6	-48.5	17.8	0.00e+00	0	44	0	520093696	64	4555
2026-01-24 20:49:28.36	73.32	7.60	-46.6	-48.4	17.9	0.00e+00	0	44	0	521142272	64	4516
2026-01-24 20:49:29.33	73.47	7.59	-46.4	-48.1	18.1	0.00e+00	0	44	0	523239424	64	4361
2026-01-24 20:49:30.30	73.63	7.57	-46.4	-48.2	18.1	0.00e+00	0	44	0	525336576	64	4420
2026-01-24 20:49:31.27	73.78	7.55	-46.2	-47.8	18.4	0.00e+00	0	44	0	526385152	64	4235
2026-01-24 20:49:32.24	73.94	7.54	-46.1	-47.7	18.6	0.00e+00	0	44	0	528482304	64	4190
2026-01-24 20:49:33.21	74.09	7.52	-46.0	-47.7	18.6	0.00e+00	0	44	0	530579456	64	4149
2026-01-24 20:49:34.18	74.25	7.50	-46.1	-47.7	18.5	0.00e+00	0	44	0	532676608	64	4190
2026-01-24 20:49:35.15	74.41	7.48	-46.0	-47.6	18.6	0.00e+00	0	44	0	533725184	64	4143
2026-01-24 20:49:36.12	74.56	7.47	-46.1	-47.7	18.8	0.00e+00	0	44	0	535822336	63	4395
2026-01-24 20:49:37.09	74.72	7.45	-46.0	-47.6	18.8	0.00e+00	0	44	0	537919488	63	4367
2026-01-24 20:49:38.06	74.87	7.43	-46.0	-47.7	18.7	0.00e+00	0	44	0	538968064	63	4397
2026-01-24 20:49:39.04	75.03	7.41	-46.1	-47.8	18.6	0.00e+00	0	44	0	541065216	63	4453
2026-01-24 20:49:40.01	75.18	7.39	-46.1	-47.7	18.6	0.00e+00	0	44	0	543162368	63	4431
2026-01-24 20:49:40.99	75.34	7.38	-46.2	-47.8	18.6	0.00e+00	0	44	0	545259520	63	4482
2026-01-24 20:49:41.96	75.49	7.36	-46.2	-47.9	18.5	0.00e+00	0	44	0	546308096	63	4509
2026-01-24 20:49:42.93	75.64	7.34	-46.2	-47.9	18.5	0.00e+00	0	44	0	548405248	63	4506
2026-01-24 20:49:43.90	75.80	7.32	-46.4	-48.1	18.3	0.00e+00	0	44	0	550502400	63	4638
2026-01-24 20:49:44.87	75.95	7.30	-46.4	-48.1	18.2	0.00e+00	0	44	0	552599552	63	4615
2026-01-24 20:49:45.84	76.10	7.28	-46.5	-48.3	18.0	0.00e+00	0	44	0	553648128	63	4744
2026-01-24 20:49:46.81	76.26	7.26	-46.4	-48.1	18.2	0.00e+00	0	44	0	555745280	63	4623
2026-01-24 20:49:47.78	76.41	7.24	-46.4	-48.2	18.2	0.00e+00	0	44	0	557842432	63	4661
2026-01-24 20:49:48.75	76.56	7.22	-46.4	-48.2	18.2	0.00e+00	0	44	0	559939584	63	4652
2026-01-24 20:49:49.72	76.71	7.20	-46.3	-48.0	18.3	0.00e+00	0	44	0	560988160	63	4561
2026-01-24 20:49:50.69	76.87	7.18	-46.1	-47.8	18.6	0.00e+00	0	44	0	563085312	63	4451
2026-01-24 20:49:51.66	77.02	7.16	-46.2	-47.9	18.4	0.00e+00	0	44	0	565182464	63	4521
2026-01-24 20:49:52.63	77.17	7.14	-46.2	-47.9	18.4	0.00e+00	0	44	0	567279616	63	4539
2026-01-24 20:49:53.60	77.32	7.12	-46.3	-48.0	18.4	0.00e+00	0	44	0	568328192	63	4562
2026-01-24 20:49:54.58	77.47	7.10	-46.5	-48.2	18.2	0.00e+00	0	44	0	570425344	63	4702
2026-01-24 20:49:55.55	77.63	7.08	-46.1	-47.7	18.6	0.00e+00	0	44	0	572522496	63	4430
2026-01-24 20:49:56.52	77.78	7.06	-46.2	-47.9	18.5	0.00e+00	0	44	0	574619648	63	4509
2026-01-24 20:49:57.49	77.93	7.04	-46.1	-47.8	18.5	0.00e+00	0	44	0	575668224	63	4452
2026-01-24 20:49:58.46	78.08	7.02	-46.0	-47.7	18.7	0.00e+00	0	44	0	577765376	63	4400
2026-01-24 20:49:59.43	78.23	7.00	-46.1	-47.7	18.5	0.00e+00	0	44	0	579862528	63	4437
2026-01-24 20:50:00.40	78.38	6.97	-46.2	-47.9	18.4	0.00e+00	0	44	0	581959680	63	4531
2026-01-24 20:50:01.37	78.53	6.95	-46.2	-47.9	18.5	0.00e+00	0	44	0	583008256	63	4495
2026-01-24 20:50:02.35	78.68	6.93	-46.2	-47.9	18.5	0.00e+00	0	44	0	585105408	63	4534
2026-01-24 20:50:03.32	78.83	6.91	-46.4	-48.1	18.2	0.00e+00	0	44	0	587202560	63	4617
2026-01-24 20:50:04.30	78.98	6.89	-46.5	-48.3	18.0	0.00e+00	0	44	0	588251136	63	4742
2026-01-24 20:50:05.27	79.13	6.86	-46.6	-48.5	17.7	0.00e+00	0	44	0	590348288	64	4548
2026-01-24 20:50:06.24	79.28	6.84	-46.8	-48.8	17.5	0.00e+00	0	44	0	592445440	64	4718
2026-01-24 20:50:07.21	79.43	6.82	-46.9	-48.9	17.3	0.00e+00	0	44	0	594542592	64	4800
2026-01-24 20:50:08.18	79.57	6.80	-47.0	-49.0	17.2	0.00e+00	0	44	0	595591168	64	4849
2026-01-24 20:50:09.15	79.72	6.77	-46.8	-48.8	17.4	0.00e+00	0	44	0	597688320	64	4708
2026-01-24 20:50:10.12	79.87	6.75	-46.9	-48.9	17.3	0.00e+00	0	44	0	599785472	64	4804
2026-01-24 20:50:11.10	80.02	6.73	-47.0	-49.1	17.1	0.00e+00	0	44	0	601882624	64	4872
2026-01-24 20:50:12.07	80.17	6.70	-46.8	-48.8	17.4	0.00e+00	0	44	0	602931200	64	4726
2026-01-24 20:50:13.04	80.31	6.68	-46.7	-48.6	17.5	0.00e+00	0	44	0	605028352	64	4616
2026-01-24 20:50:14.00	80.46	6.66	-46.7	-48.6	17.6	0.00e+00	0	44	0	607125504	64	4605
2026-01-24 20:50:14.97	80.61	6.63	-46.6	-48.5	17.7	0.00e+00	0	44	0	609222656	64	4548
2026-01-24 20:50:15.94	80.75	6.61	-46.6	-48.5	17.8	0.00e+00	0	44	0	610271232	64	4555
2026-01-24 20:50:16.91	80.90	6.59	-46.5	-48.3	17.9	0.00e+00	0	44	0	612368384	64	4492
2026-01-24 20:50:17.88	81.04	6.56	-46.5	-48.3	17.8	0.00e+00	0	44	0	614465536	64	4474
2026-01-24 20:50:18.85	81.19	6.54	-46.7	-48.5	17.7	0.00e+00	0	44	0	615514112	64	4591
2026-01-24 20:50:19.82	81.34	6.51	-46.8	-48.7	17.4	0.00e+00	0	44	0	617611264	64	4689
2026-01-24 20:50:20.80	81.48	6.49	-46.8	-48.7	17.4	0.00e+00	0	44	0	619708416	64	4701
2026-01-24 20:50:21.77	81.63	6.47	-46.8	-48.8	17.4	0.00e+00	0	44	0	621805568	64	4706
2026-01-24 20:50:22.74	81.77	6.44	-46.9	-48.9	17.4	0.00e+00	0	44	0	622854144	64	4771
2026-01-24 20:50:23.71	81.92	6.42	-46.8	-48.7	17.4	0.00e+00	0	44	0	624951296	64	4677
2026-01-24 20:50:24.68	82.06	6.39	-47.0	-49.1	17.0	0.00e+00	0	44	0	627048448	64	4885
2026-01-24 20:50:25.65	82.21	6.37	-47.0	-49.0	17.2	0.00e+00	0	44	0	629145600	64	4819
2026-01-24 20:50:26.62	82.35	6.34	-47.1	-49.2	17.0	0.00e+00	0	44	0	630194176	64	4945
2026-01-24 20:50:27.59	82.49	6.32	-47.1	-49.1	17.0	0.00e+00	0	44	0	632291328	64	4898
2026-01-24 20:50:28.56	82.64	6.29	-47.3	-49.4	16.6	0.00e+00	0	44	0	634388480	65	4800
2026-01-24 20:50:29.53	82.78	6.26	-47.5	-49.7	16.4	0.00e+00	0	44	0	636485632	65	4955
2026-01-24 20:50:30.51	82.93	6.24	-47.7	-50.1	16.1	0.00e+00	0	44	0	637534208	65	5161
2026-01-24 20:50:31.48	83.07	6.21	-48.0	-50.6	15.6	7.00e-07	0	44	0	639631360	66	5168
2026-01-24 20:50:32.45	83.21	6.19	-48.2	-50.8	15.2	0.00e+00	0	44	0	641728512	66	5330
2026-01-24 20:50:33.42	83.35	6.16	-48.2	-50.9	15.2	0.00e+00	0	44	0	643825664	67	5079
2026-01-24 20:50:34.39	83.50	6.13	-48.3	-51.0	15.1	0.00e+00	0	44	0	644874240	67	5142
2026-01-24 20:50:35.36	83.64	6.11	-48.3	-51.0	15.1	0.00e+00	0	44	0	646971392	67	5124
2026-01-24 20:50:36.33	83.78	6.08	-48.3	-51.0	15.0	0.00e+00	0	44	0	649068544	67	5159
2026-01-24 20:50:37.30	83.92	6.06	-48.2	-50.9	15.2	0.00e+00	0	44	0	651165696	67	5062
2026-01-24 20:50:38.27	84.06	6.03	-48.1	-50.7	15.4	0.00e+00	0	44	0	652214272	67	4954
2026-01-24 20:50:39.24	84.20	6.00	-48.1	-50.7	15.3	0.00e+00	0	44	0	654311424	67	4971
2026-01-24 20:50:40.21	84.34	5.97	-48.0	-50.6	15.5	0.00e+00	0	44	0	656408576	67	4885
2026-01-24 20:50:41.18	84.48	5.95	-48.0	-50.5	15.6	0.00e+00	0	44	0	657457152	67	4843
2026-01-24 20:50:42.16	84.62	5.92	-48.1	-50.6	15.5	0.00e+00	0	44	0	659554304	67	4917
2026-01-24 20:50:43.13	84.76	5.89	-47.9	-50.4	15.7	0.00e+00	0	44	0	661651456	67	4802
2026-01-24 20:50:44.10	84.90	5.87	-47.7	-50.1	15.9	0.00e+00	0	44	0	663748608	67	4645
2026-01-24 20:50:45.08	85.04	5.84	-47.7	-50.1	16.0	0.00e+00	0	44	0	664797184	67	4621
2026-01-24 20:50:46.05	85.18	5.81	-47.6	-50.0	16.1	0.00e+00	0	44	0	666894336	67	4559
2026-01-24 20:50:47.02	85.32	5.78	-47.5	-49.9	16.2	0.00e+00	0	44	0	668991488	67	4497
2026-01-24 20:50:47.99	85.46	5.76	-47.6	-49.9	16.2	0.00e+00	0	44	0	671088640	66	4762
2026-01-24 20:50:48.97	85.60	5.73	-47.7	-50.0	16.0	0.00e+00	0	44	0	672137216	66	4859
2026-01-24 20:50:49.94	85.74	5.70	-47.7	-50.1	15.9	0.00e+00	0	44	0	674234368	66	4903
2026-01-24 20:50:50.92	85.88	5.67	-47.8	-50.2	15.8	0.00e+00	0	44	0	676331520	66	4941
2026-01-24 20:50:51.89	86.02	5.64	-47.9	-50.4	15.6	0.00e+00	0	44	0	678428672	66	5046
2026-01-24 20:50:52.86	86.15	5.61	-48.0	-50.6	15.4	0.00e+00	0	44	0	679477248	66	5175
2026-01-24 20:50:53.83	86.29	5.59	-48.1	-50.7	15.3	0.00e+00	0	44	0	681574400	66	5263
2026-01-24 20:50:54.80	86.43	5.56	-48.5	-51.3	14.7	0.00e+00	0	44	0	683671552	67	5333
2026-01-24 20:50:55.77	86.56	5.53	-48.7	-51.8	14.2	0.00e+00	0	44	0	685768704	67	5617
2026-01-24 20:50:56.75	86.70	5.50	-49.0	-52.2	13.8	2.20e-06	0	44	0	686817280	68	5570
2026-01-24 20:50:57.72	86.84	5.47	-49.1	-52.5	13.5	6.10e-06	0	44	0	688914432	68	5737
2026-01-24 20:50:58.69	86.97	5.44	-49.2	-52.7	13.3	1.14e-05	0	44	0	691011584	69	5588
2026-01-24 20:50:59.66	87.11	5.41	-49.2	-52.6	13.4	2.74e-05	0	44	0	692060160	69	5523
2026-01-24 20:51:00.63	87.24	5.38	-49.2	-52.6	13.4	1.44e-05	0	44	0	694157312	69	5504
2026-01-24 20:51:01.60	87.38	5.35	-49.3	-52.8	13.1	2.13e-05	0	44	0	696254464	69	5636
2026-01-24 20:51:02.57	87.51	5.32	-49.4	-53.0	13.0	1.83e-05	0	44	0	698351616	69	5742
2026-01-24 20:51:03.55	87.65	5.30	-49.4	-53.0	13.0	3.81e-05	0	44	0	699400192	69	5740
2026-01-24 20:51:04.52	87.78	5.27	-49.3	-52.9	13.1	2.59e-05	0	44	0	701497344	69	5699
2026-01-24 20:51:05.49	87.92	5.24	-49.1	-52.4	13.6	1.44e-05	0	44	0	703594496	69	5376
2026-01-24 20:51:06.46	88.05	5.21	-49.3	-52.8	13.0	1.98e-05	0	44	0	705691648	69	5627
2026-01-24 20:51:07.43	88.18	5.18	-49.1	-52.4	13.6	1.52e-05	0	44	0	706740224	69	5362
2026-01-24 20:51:08.40	88.32	5.15	-49.2	-52.6	13.4	1.22e-05	0	44	0	708837376	69	5498
2026-01-24 20:51:09.37	88.45	5.12	-49.1	-52.6	13.4	9.90e-06	0	44	0	710934528	69	5474
2026-01-24 20:51:10.34	88.58	5.09	-49.0	-52.2	13.7	1.60e-05	0	44	0	713031680	69	5278
2026-01-24 20:51:11.31	88.71	5.06	-49.0	-52.4	13.5	1.14e-05	0	44	0	714080256	69	5358
2026-01-24 20:51:12.28	88.85	5.03	-48.9	-52.1	13.9	3.80e-06	0	44	0	716177408	69	5198
2026-01-24 20:51:13.25	88.98	5.00	-48.8	-52.0	13.9	7.00e-07	0	44	0	718274560	69	5113
2026-01-24 20:51:14.22	89.11	4.96	-52.2	-67.4	3.8	1.23e+00	0	44	104	719323136	75	21322
2026-01-24 20:51:15.19	89.24	4.93	-52.7	-67.6	3.8	1.49e+00	0	44	104	719323136	75	21952
2026-01-24 20:51:16.17	89.37	4.90	-52.9	-67.9	3.8	1.49e+00	0	44	104	719323136	76	21274
2026-01-24 20:51:17.14	89.50	4.87	-53.1	-68.1	3.8	1.49e+00	0	44	104	719323136	76	21773
2026-01-24 20:51:18.10	89.63	4.84	-53.2	-68.2	3.8	1.49e+00	0	44	104	719323136	77	20916
2026-01-24 20:51:19.08	89.77	4.81	-53.4	-68.4	3.8	1.49e+00	0	44	104	719323136	77	21306
2026-01-24 20:51:20.05	89.90	4.78	-53.5	-68.5	3.8	1.49e+00	0	44	104	719323136	77	21624
2026-01-24 20:51:21.02	90.03	4.75	-53.6	-68.6	3.8	1.49e+00	0	44	104	719323136	77	21835
2026-01-24 20:51:21.99	90.15	4.72	-53.7	-68.7	3.8	1.49e+00	0	44	104	719323136	77	22054
2026-01-24 20:51:22.96	90.28	4.69	-53.8	-68.8	3.8	1.49e+00	0	44	104	719323136	78	21056
2026-01-24 20:51:23.93	90.41	4.66	-53.9	-68.8	3.8	1.49e+00	0	44	104	719323136	78	21236
2026-01-24 20:51:24.89	90.54	4.62	-54.0	-68.9	3.8	1.49e+00	0	44	104	719323136	78	21427
2026-01-24 20:51:25.86	90.67	4.59	-54.0	-68.9	3.8	1.49e+00	0	44	104	719323136	78	21487
2026-01-24 20:51:26.84	90.80	4.56	-54.0	-69.0	3.8	1.49e+00	0	44	104	719323136	78	21623
2026-01-24 20:51:27.81	90.93	4.53	-54.0	-69.0	3.8	1.49e+00	0	44	104	719323136	78	21583
2026-01-24 20:51:28.78	91.05	4.50	-54.0	-69.0	3.8	1.49e+00	0	44	104	719323136	78	21554
2026-01-24 20:51:29.75	91.18	4.47	-54.0	-69.0	3.8	1.49e+00	0	44	104	719323136	78	21599
2026-01-24 20:51:30.72	91.31	4.43	-54.0	-69.0	3.8	1.49e+00	0	44	104	719323136	78	21642
2026-01-24 20:51:31.69	91.44	4.40	-54.0	-69.0	3.8	1.49e+00	0	44	104	719323136	78	21652
2026-01-24 20:51:32.66	91.56	4.37	-54.0	-69.0	3.8	1.49e+00	0	44	104	719323136	78	21604
2026-01-24 20:51:33.63	91.69	4.34	-54.1	-69.0	3.8	1.49e+00	0	44	104	719323136	78	21648
2026-01-24 20:51:34.60	91.81	4.31	-54.0	-69.0	3.8	1.49e+00	0	44	104	719323136	78	21708
2026-01-24 20:51:35.56	91.94	4.27	-54.1	-69.0	3.8	1.49e+00	0	44	104	719323136	78	21744
2026-01-24 20:51:36.53	92.06	4.24	-54.1	-69.0	3.8	1.49e+00	0	44	104	719323136	78	21715
2026-01-24 20:51:37.50	92.19	4.21	-54.1	-69.0	3.8	1.49e+00	0	44	104	719323136	78	21725
2026-01-24 20:51:38.47	92.31	4.18	-54.0	-69.0	3.8	1.49e+00	0	44	104	719323136	78	21627
2026-01-24 20:51:39.44	92.44	4.14	-54.0	-68.9	3.8	1.49e+00	0	44	104	719323136	78	21453
2026-01-24 20:51:40.42	92.56	4.11	-53.9	-68.9	3.8	1.49e+00	0	44	104	719323136	78	21434
2026-01-24 20:51:41.39	92.69	4.08	-53.9	-68.9	3.8	1.49e+00	0	44	104	719323136	78	21413
2026-01-24 20:51:42.36	92.81	4.05	-53.9	-68.9	3.8	1.49e+00	0	44	104	719323136	78	21385
2026-01-24 20:51:43.33	92.94	4.01	-53.9	-68.8	3.8	1.49e+00	0	44	104	719323136	78	21258
2026-01-24 20:51:44.30	93.06	3.98	-53.9	-68.9	3.8	1.49e+00	0	44	104	719323136	78	21269
2026-01-24 20:51:45.27	93.18	3.95	-53.9	-68.8	3.8	1.49e+00	0	44	104	719323136	78	21250
2026-01-24 20:51:46.24	93.31	3.91	-53.9	-68.8	3.8	1.49e+00	0	44	104	719323136	78	21223
2026-01-24 20:51:47.21	93.43	3.88	-53.8	-68.8	3.8	1.49e+00	0	44	104	719323136	78	21190
2026-01-24 20:51:48.18	93.55	3.85	-53.9	-68.8	3.8	1.49e+00	0	44	104	719323136	78	21220
2026-01-24 20:51:49.15	93.67	3.81	-53.8	-68.8	3.8	1.49e+00	0	44	104	719323136	78	21108
2026-01-24 20:51:50.12	93.79	3.78	-53.8	-68.8	3.8	1.49e+00	0	44	104	719323136	78	21112
2026-01-24 20:51:51.09	93.92	3.75	-53.8	-68.8	3.8	1.49e+00	0	44	104	719323136	78	21162
2026-01-24 20:51:52.07	94.04	3.71	-53.8	-68.8	3.8	1.49e+00	0	44	104	719323136	78	21062
2026-01-24 20:51:53.04	94.16	3.68	-53.8	-68.8	3.8	1.49e+00	0	44	104	719323136	78	21068
2026-01-24 20:51:54.01	94.28	3.65	-53.8	-68.8	3.8	1.49e+00	0	44	104	719323136	78	21060
2026-01-24 20:51:54.98	94.40	3.61	-53.8	-68.8	3.8	1.49e+00	0	44	104	719323136	78	21045
2026-01-24 20:51:55.96	94.52	3.58	-53.8	-68.7	3.8	1.49e+00	0	44	104	719323136	78	20975
2026-01-24 20:51:56.93	94.64	3.55	-53.8	-68.7	3.8	1.49e+00	0	44	104	719323136	78	20998
2026-01-24 20:51:57.90	94.76	3.51	-53.8	-68.7	3.8	1.49e+00	0	44	104	719323136	78	20999
2026-01-24 20:51:58.87	94.88	3.48	-53.8	-68.7	3.8	1.49e+00	0	44	104	719323136	78	20922
2026-01-24 20:51:59.85	95.00	3.44	-53.8	-68.7	3.8	1.49e+00	0	44	104	719323136	78	20996
2026-01-24 20:52:00.82	95.12	3.41	-53.8	-68.8	3.8	1.49e+00	0	44	104	719323136	78	21037
2026-01-24 20:52:01.79	95.24	3.38	-53.8	-68.8	3.8	1.49e+00	0	44	104	719323136	78	21022
2026-01-24 20:52:02.76	95.36	3.34	-53.8	-68.7	3.8	1.49e+00	0	44	104	719323136	78	20970
2026-01-24 20:52:03.74	95.48	3.31	-53.8	-68.7	3.8	1.49e+00	0	44	104	719323136	78	20966
2026-01-24 20:52:04.71	95.59	3.27	-53.8	-68.7	3.8	1.49e+00	0	44	104	719323136	78	20997
2026-01-24 20:52:05.68	95.71	3.24	-53.8	-68.7	3.8	1.49e+00	0	44	104	719323136	78	20989
2026-01-24 20:52:06.65	95.83	3.20	-53.8	-68.7	3.8	1.49e+00	0	44	104	719323136	78	20990
2026-01-24 20:52:07.61	95.95	3.17	-53.8	-68.7	3.8	1.49e+00	0	44	104	719323136	78	20961
2026-01-24 20:52:08.59	96.06	3.14	-53.8	-68.7	3.8	1.49e+00	0	44	104	719323136	78	20985
2026-01-24 20:52:09.56	96.18	3.10	-53.7	-68.7	3.8	1.49e+00	0	44	104	719323136	78	20950
2026-01-24 20:52:10.53	96.30	3.07	-53.8	-68.7	3.8	1.49e+00	0	44	104	719323136	78	20993
2026-01-24 20:52:11.50	96.41	3.03	-53.8	-68.7	3.8	1.49e+00	0	44	104	719323136	78	20954
2026-01-24 20:52:12.47	96.53	3.00	-53.7	-68.7	3.8	1.49e+00	0	44	104	719323136	78	20936
2026-01-24 20:52:13.44	96.64	2.96	-53.7	-68.7	3.8	1.49e+00	0	44	104	719323136	78	20927
2026-01-24 20:52:14.41	96.76	2.93	-53.7	-68.7	3.8	1.49e+00	0	44	104	719323136	78	20923
2026-01-24 20:52:15.38	96.87	2.89	-53.7	-68.7	3.8	1.49e+00	0	44	104	719323136	78	20937
2026-01-24 20:52:16.35	96.99	2.86	-53.7	-68.7	3.8	1.49e+00	0	44	104	719323136	78	20914
2026-01-24 20:52:17.32	97.10	2.82	-53.7	-68.7	3.8	1.49e+00	0	44	104	719323136	78	20892
2026-01-24 20:52:18.30	97.22	2.79	-53.7	-68.7	3.8	1.49e+00	0	44	104	719323136	78	20933
2026-01-24 20:52:19.26	97.33	2.75	-53.7	-68.7	3.8	1.49e+00	0	44	104	719323136	78	20875
2026-01-24 20:52:20.24	97.45	2.72	-53.7	-68.7	3.8	1.49e+00	0	44	104	719323136	78	20932
2026-01-24 20:52:21.21	97.56	2.68	-53.7	-68.7	3.8	1.49e+00	0	44	104	719323136	78	20953
2026-01-24 20:52:22.18	97.67	2.65	-53.7	-68.7	3.8	1.49e+00	0	44	104	719323136	78	20892
2026-01-24 20:52:23.16	97.79	2.61	-53.7	-68.7	3.8	1.49e+00	0	44	104	719323136	78	20940
2026-01-24 20:52:24.13	97.90	2.58	-53.7	-68.7	3.8	1.49e+00	0	44	104	719323136	78	20941
2026-01-24 20:52:25.11	98.01	2.54	-53.7	-68.7	3.8	1.49e+00	0	44	104	719323136	78	20914
2026-01-24 20:52:26.08	98.13	2.51	-53.7	-68.7	3.8	1.49e+00	0	44	104	719323136	78	20906
2026-01-24 20:52:27.05	98.24	2.47	-53.7	-68.7	3.8	1.49e+00	0	44	104	719323136	78	20865
2026-01-24 20:52:28.02	98.35	2.44	-53.7	-68.7	3.8	1.49e+00	0	44	104	719323136	78	20894
2026-01-24 20:52:28.99	98.46	2.40	-53.7	-68.7	3.8	1.49e+00	0	44	104	719323136	78	20919
2026-01-24 20:52:29.97	98.57	2.37	-53.7	-68.7	3.8	1.49e+00	0	44	104	719323136	78	20879
2026-01-24 20:52:30.94	98.68	2.33	-53.7	-68.7	3.8	1.49e+00	0	44	104	719323136	78	20889
2026-01-24 20:52:31.91	98.79	2.29	-53.7	-68.7	3.8	1.49e+00	0	44	104	719323136	78	20867
2026-01-24 20:52:32.88	98.90	2.26	-53.7	-68.7	3.8	1.49e+00	0	44	104	719323136	78	20851
2026-01-24 20:52:33.85	99.01	2.22	-53.7	-68.7	3.8	1.49e+00	0	44	104	719323136	78	20861
2026-01-24 20:52:34.83	99.13	2.19	-53.7	-68.7	3.8	1.49e+00	0	44	104	719323136	78	20872
2026-01-24 20:52:35.80	99.23	2.15	-53.7	-68.7	3.8	1.49e+00	0	44	104	719323136	78	20885
2026-01-24 20:52:36.77	99.34	2.12	-53.7	-68.7	3.8	1.49e+00	0	44	104	719323136	78	20828
2026-01-24 20:52:37.75	99.45	2.08	-53.7	-68.7	3.8	1.49e+00	0	44	104	719323136	78	20836
2026-01-24 20:52:38.72	99.56	2.04	-53.7	-68.7	3.8	1.49e+00	0	44	104	719323136	78	20899
2026-01-24 20:52:39.70	99.67	2.01	-53.7	-68.7	3.8	1.49e+00	0	44	104	719323136	78	20842
2026-01-24 20:52:40.67	99.78	1.97	-53.7	-68.7	3.8	1.49e+00	0	44	104	719323136	78	20861

#Closed at: 2026-01-24 20:52:41
#Recorded file [719 MB]: D:/lorett/data/31041_260124_234330.dat