passes_logs/2026/01/24/R3.2S_Murmansk/R3.2S_Murmansk__20260124_052238_NOAA_20_JPSS-1_rec.log

#Pass ID: 20260124_052238_NOAA 20 (JPSS-1)
#Satellite: NOAA 20 (JPSS-1)
#Configuration: NOAA 20
#almurnet v.1.7.20251203
#Start time: 2026-01-24 05:22:39

#Version: 2.2.20231116
#Station: R3.2S_Murmansk
#Location: 33.079688 lon 68.888172 lat
#TLE: 1 43013U 17073A   26023.57676825  .00000205  00000+0  11821-3 0  9990
#TLE: 2 43013  98.7645 324.4259 0001147  27.0566 333.0670 14.19539368423954

#Time	Az	El	Level	Level2	SNR	BER	BlckErr	Temp	State	Recorded	gain1	gain2
2026-01-24 05:22:39.80	65.33	2.06	-51.9	-66.9	3.8	1.49e+00	0	41	0	0	75	20135
2026-01-24 05:22:40.81	65.26	2.11	-51.9	-66.9	3.8	1.49e+00	0	41	104	0	74	21395
2026-01-24 05:22:41.81	65.20	2.17	-51.9	-66.9	3.8	1.49e+00	0	41	104	0	74	21430
2026-01-24 05:22:42.82	65.13	2.23	-51.9	-66.9	3.8	1.49e+00	0	41	104	0	74	21423
2026-01-24 05:22:43.83	65.07	2.29	-51.9	-66.9	3.8	1.49e+00	0	41	104	0	74	21272
2026-01-24 05:22:44.84	65.00	2.34	-51.9	-66.9	3.8	1.49e+00	0	41	104	0	74	21353
2026-01-24 05:22:45.85	64.94	2.40	-51.9	-66.9	3.8	1.49e+00	0	41	104	0	74	21345
2026-01-24 05:22:46.85	64.87	2.46	-51.9	-66.9	3.8	1.49e+00	0	41	104	0	74	21392
2026-01-24 05:22:47.86	64.80	2.52	-51.9	-66.9	3.8	1.49e+00	0	42	104	0	74	21343
2026-01-24 05:22:48.87	64.74	2.57	-51.9	-66.9	3.8	1.49e+00	0	41	104	0	74	21348
2026-01-24 05:22:49.88	64.67	2.63	-51.9	-66.9	3.8	1.49e+00	0	41	104	0	74	21312
2026-01-24 05:22:50.89	64.60	2.69	-51.9	-66.9	3.8	1.49e+00	0	41	104	0	74	21330
2026-01-24 05:22:51.89	64.54	2.75	-51.9	-66.9	3.8	1.49e+00	0	41	104	0	74	21305
2026-01-24 05:22:52.90	64.47	2.81	-51.9	-66.9	3.8	1.49e+00	0	41	104	0	74	21290
2026-01-24 05:22:53.91	64.40	2.87	-51.9	-66.9	3.8	1.49e+00	0	41	104	0	74	21335
2026-01-24 05:22:54.92	64.33	2.92	-51.9	-66.9	3.8	1.49e+00	0	42	104	0	74	21330
2026-01-24 05:22:55.93	64.26	2.98	-51.9	-66.9	3.8	1.49e+00	0	41	104	0	74	21343
2026-01-24 05:22:56.94	64.19	3.04	-51.9	-66.9	3.8	1.49e+00	0	42	104	0	74	21323
2026-01-24 05:22:57.95	64.13	3.10	-51.9	-66.9	3.8	1.49e+00	0	41	104	0	74	21276
2026-01-24 05:22:58.96	64.06	3.16	-51.9	-66.9	3.8	1.49e+00	0	42	104	0	74	21287
2026-01-24 05:22:59.96	63.99	3.22	-51.9	-66.8	3.8	1.49e+00	0	42	104	0	74	21188
2026-01-24 05:23:00.97	63.92	3.28	-51.9	-66.8	3.8	1.49e+00	0	42	104	0	74	21197
2026-01-24 05:23:01.98	63.85	3.33	-51.9	-66.8	3.8	1.49e+00	0	42	104	0	74	21182
2026-01-24 05:23:02.99	63.78	3.39	-51.9	-66.9	3.8	1.49e+00	0	42	104	0	74	21301
2026-01-24 05:23:03.99	63.71	3.45	-51.9	-66.9	3.8	1.49e+00	0	42	104	0	74	21269
2026-01-24 05:23:05.00	63.63	3.51	-51.9	-66.8	3.8	1.49e+00	0	42	104	0	74	21246
2026-01-24 05:23:06.01	63.56	3.57	-51.9	-66.8	3.8	1.49e+00	0	42	104	0	74	21130
2026-01-24 05:23:07.02	63.49	3.63	-51.9	-66.8	3.8	1.49e+00	0	42	104	0	74	21205
2026-01-24 05:23:08.03	63.42	3.69	-51.9	-66.8	3.8	1.49e+00	0	42	104	0	74	21158
2026-01-24 05:23:09.03	63.35	3.75	-51.9	-66.8	3.8	1.49e+00	0	42	104	0	74	21227
2026-01-24 05:23:10.04	63.27	3.81	-51.9	-66.8	3.8	1.49e+00	0	42	104	0	74	21216
2026-01-24 05:23:11.05	63.20	3.87	-51.9	-66.8	3.8	1.49e+00	0	42	104	0	74	21122
2026-01-24 05:23:12.06	63.13	3.93	-51.9	-66.6	3.8	1.49e+00	0	42	104	0	74	20572
2026-01-24 05:23:13.07	63.05	3.99	-51.9	-66.2	3.8	1.49e+00	0	42	104	0	74	19764
2026-01-24 05:23:14.07	62.98	4.05	-51.8	-65.7	3.8	1.49e+00	0	42	104	0	74	18556
2026-01-24 05:23:15.08	62.91	4.11	-51.8	-65.1	3.8	1.49e+00	0	42	104	0	74	17293
2026-01-24 05:23:16.09	62.83	4.17	-51.8	-64.7	3.9	1.49e+00	0	42	104	0	74	16608
2026-01-24 05:23:17.10	62.76	4.23	-51.7	-64.3	4.0	1.48e+00	0	42	104	0	74	15923
2026-01-24 05:23:18.11	62.68	4.29	-51.8	-64.5	3.8	1.48e+00	0	42	104	0	74	16305
2026-01-24 05:23:19.12	62.60	4.35	-51.8	-64.7	3.8	1.48e+00	0	42	104	0	74	16679
2026-01-24 05:23:20.12	62.53	4.41	-51.8	-64.3	4.0	1.48e+00	0	42	104	0	74	15833
2026-01-24 05:23:21.13	62.45	4.47	-51.7	-63.4	4.2	1.43e+00	0	42	0	0	74	14347
2026-01-24 05:23:22.14	62.38	4.53	-51.5	-61.7	4.8	1.16e+00	0	42	0	0	74	11698
2026-01-24 05:23:23.15	62.30	4.59	-51.3	-59.9	5.9	5.85e-01	0	42	0	2097152	74	9508
2026-01-24 05:23:24.16	62.22	4.65	-51.0	-58.3	7.1	1.81e-01	0	42	0	4194304	74	7974
2026-01-24 05:23:25.16	62.14	4.71	-50.6	-56.6	8.9	3.90e-02	0	42	0	6291456	73	6922
2026-01-24 05:23:26.17	62.07	4.77	-50.3	-55.8	9.8	1.18e-02	0	42	0	8388608	72	6663
2026-01-24 05:23:27.18	61.99	4.84	-50.0	-54.7	10.9	5.47e-03	0	42	0	9437184	72	5918
2026-01-24 05:23:28.18	61.91	4.90	-49.9	-54.5	11.3	1.30e-03	0	42	0	11534336	71	6102
2026-01-24 05:23:29.19	61.83	4.96	-49.9	-54.3	11.5	1.30e-03	0	42	0	13631488	71	5942
2026-01-24 05:23:30.20	61.75	5.02	-49.9	-54.3	11.3	1.22e-03	0	42	0	15728640	71	5974
2026-01-24 05:23:31.21	61.67	5.08	-48.5	-51.5	14.4	1.50e-06	0	42	0	17825792	69	4817
2026-01-24 05:23:32.21	61.59	5.14	-48.0	-50.6	15.4	0.00e+00	0	42	0	19922944	68	4610
2026-01-24 05:23:33.22	61.51	5.20	-51.8	-65.6	3.8	5.00e-01	0	42	104	19922944	74	18509
2026-01-24 05:23:34.23	61.43	5.27	-49.5	-53.2	12.6	6.35e-04	0	42	0	19922944	71	5247
2026-01-24 05:23:35.24	61.35	5.33	-49.4	-53.3	12.5	4.57e-05	0	42	0	22020096	69	5941
2026-01-24 05:23:36.25	61.27	5.39	-48.2	-50.9	15.1	7.00e-07	0	42	0	24117248	68	4783
2026-01-24 05:23:37.25	61.19	5.45	-48.2	-50.9	15.1	0.00e+00	0	42	0	25165824	68	4788
2026-01-24 05:23:38.26	61.11	5.51	-47.9	-50.4	15.5	0.00e+00	0	43	0	27262976	67	4805
2026-01-24 05:23:39.27	61.02	5.58	-48.0	-50.6	15.4	0.00e+00	0	42	0	29360128	67	4900
2026-01-24 05:23:40.28	60.94	5.64	-47.9	-50.4	15.6	0.00e+00	0	42	0	31457280	67	4804
2026-01-24 05:23:41.28	60.86	5.70	-48.1	-50.8	15.2	0.00e+00	0	42	0	32505856	67	5007
2026-01-24 05:23:42.29	60.77	5.76	-47.9	-50.4	15.7	0.00e+00	0	42	0	34603008	67	4764
2026-01-24 05:23:43.30	60.69	5.82	-47.9	-50.4	15.6	0.00e+00	0	42	0	36700160	67	4795
2026-01-24 05:23:44.31	60.60	5.89	-48.1	-50.7	15.3	0.00e+00	0	42	0	38797312	67	4966
2026-01-24 05:23:45.31	60.52	5.95	-48.1	-50.6	15.5	7.00e-07	0	42	0	40894464	67	4906
2026-01-24 05:23:46.32	60.44	6.01	-47.9	-50.4	15.7	0.00e+00	0	42	0	42991616	67	4781
2026-01-24 05:23:47.33	60.35	6.08	-47.9	-50.3	15.8	0.00e+00	0	43	0	44040192	67	4741
2026-01-24 05:23:48.33	60.26	6.14	-47.8	-50.2	15.9	0.00e+00	0	42	0	46137344	67	4698
2026-01-24 05:23:49.34	60.18	6.20	-47.8	-50.2	15.9	0.00e+00	0	42	0	48234496	67	4691
2026-01-24 05:23:50.35	60.09	6.26	-47.7	-50.1	16.1	0.00e+00	0	42	0	50331648	67	4628
2026-01-24 05:23:51.36	60.00	6.33	-47.8	-50.2	16.0	0.00e+00	0	42	0	52428800	67	4663
2026-01-24 05:23:52.37	59.92	6.39	-47.8	-50.2	16.0	0.00e+00	0	43	0	53477376	67	4685
2026-01-24 05:23:53.37	59.83	6.45	-47.7	-50.0	16.1	0.00e+00	0	43	0	55574528	67	4586
2026-01-24 05:23:54.38	59.74	6.52	-47.8	-50.1	16.1	0.00e+00	0	42	0	57671680	67	4627
2026-01-24 05:23:55.39	59.65	6.58	-47.7	-50.0	16.2	0.00e+00	0	43	0	59768832	67	4583
2026-01-24 05:23:56.40	59.56	6.65	-47.6	-49.9	16.3	0.00e+00	0	43	0	61865984	67	4509
2026-01-24 05:23:57.41	59.47	6.71	-47.8	-50.1	16.1	0.00e+00	0	43	0	62914560	67	4624
2026-01-24 05:23:58.42	59.38	6.77	-47.8	-50.2	16.1	0.00e+00	0	43	0	65011712	67	4663
2026-01-24 05:23:59.42	59.29	6.84	-47.8	-50.1	16.1	0.00e+00	0	43	0	67108864	67	4650
2026-01-24 05:24:00.43	59.20	6.90	-47.7	-50.0	16.3	0.00e+00	0	43	0	69206016	67	4556
2026-01-24 05:24:01.44	59.11	6.97	-47.6	-49.8	16.4	0.00e+00	0	42	0	71303168	67	4475
2026-01-24 05:24:02.45	59.02	7.03	-47.8	-50.2	16.1	0.00e+00	0	43	0	72351744	67	4672
2026-01-24 05:24:03.45	58.93	7.09	-47.8	-50.2	16.1	0.00e+00	0	43	0	74448896	67	4660
2026-01-24 05:24:04.46	58.84	7.16	-47.7	-50.0	16.3	0.00e+00	0	43	0	76546048	67	4556
2026-01-24 05:24:05.47	58.74	7.22	-47.9	-50.2	16.1	0.00e+00	0	43	0	78643200	67	4685
2026-01-24 05:24:06.47	58.65	7.29	-47.7	-50.0	16.3	0.00e+00	0	43	0	80740352	67	4572
2026-01-24 05:24:07.48	58.56	7.35	-47.7	-49.9	16.4	0.00e+00	0	42	0	81788928	67	4528
2026-01-24 05:24:08.49	58.46	7.42	-47.8	-50.1	16.3	0.00e+00	0	43	0	83886080	67	4627
2026-01-24 05:24:09.50	58.37	7.48	-47.9	-50.2	16.1	0.00e+00	0	43	0	85983232	67	4696
2026-01-24 05:24:10.51	58.27	7.55	-47.7	-49.9	16.4	0.00e+00	0	43	0	88080384	67	4520
2026-01-24 05:24:11.52	58.18	7.61	-47.6	-49.9	16.5	0.00e+00	0	43	0	90177536	67	4501
2026-01-24 05:24:12.52	58.08	7.68	-47.7	-50.0	16.4	0.00e+00	0	43	0	91226112	67	4575
2026-01-24 05:24:13.53	57.99	7.74	-47.8	-50.1	16.2	0.00e+00	0	43	0	93323264	67	4650
2026-01-24 05:24:14.54	57.89	7.81	-47.8	-50.1	16.3	0.00e+00	0	42	0	95420416	67	4611
2026-01-24 05:24:15.55	57.79	7.87	-47.8	-50.1	16.4	0.00e+00	0	43	0	97517568	67	4605
2026-01-24 05:24:16.56	57.70	7.94	-47.7	-50.0	16.5	0.00e+00	0	43	0	99614720	67	4551
2026-01-24 05:24:17.56	57.60	8.00	-47.9	-50.1	16.3	0.00e+00	0	43	0	100663296	67	4650
2026-01-24 05:24:18.57	57.50	8.07	-47.8	-50.0	16.4	0.00e+00	0	43	0	102760448	67	4575
2026-01-24 05:24:19.58	57.40	8.13	-47.7	-50.0	16.4	0.00e+00	0	43	0	104857600	67	4550
2026-01-24 05:24:20.58	57.30	8.20	-47.4	-49.4	17.0	0.00e+00	0	43	0	106954752	66	4535
2026-01-24 05:24:21.59	57.20	8.27	-47.3	-49.4	17.0	0.00e+00	0	43	0	109051904	66	4496
2026-01-24 05:24:22.60	57.10	8.33	-47.2	-49.1	17.3	0.00e+00	0	43	0	110100480	66	4381
2026-01-24 05:24:23.61	57.00	8.40	-47.2	-49.2	17.2	0.00e+00	0	43	0	112197632	66	4438
2026-01-24 05:24:24.62	56.90	8.46	-47.4	-49.4	17.0	0.00e+00	0	43	0	114294784	66	4522
2026-01-24 05:24:25.63	56.80	8.53	-47.1	-49.1	17.3	0.00e+00	0	43	0	116391936	66	4361
2026-01-24 05:24:26.63	56.70	8.60	-47.3	-49.4	17.1	0.00e+00	0	43	0	118489088	66	4512
2026-01-24 05:24:27.64	56.59	8.66	-47.2	-49.2	17.3	0.00e+00	0	43	0	119537664	66	4397
2026-01-24 05:24:28.65	56.49	8.73	-47.3	-49.3	17.1	0.00e+00	0	43	0	121634816	66	4464
2026-01-24 05:24:29.66	56.39	8.80	-47.4	-49.4	17.0	0.00e+00	0	43	0	123731968	66	4540
2026-01-24 05:24:30.67	56.28	8.86	-47.1	-49.1	17.4	0.00e+00	0	43	0	125829120	66	4343
2026-01-24 05:24:31.68	56.18	8.93	-47.1	-49.1	17.4	0.00e+00	0	43	0	127926272	66	4369
2026-01-24 05:24:32.69	56.07	9.00	-47.2	-49.2	17.3	0.00e+00	0	43	0	128974848	66	4395
2026-01-24 05:24:33.69	55.97	9.06	-47.1	-49.1	17.4	0.00e+00	0	43	0	131072000	66	4349
2026-01-24 05:24:34.70	55.86	9.13	-47.3	-49.3	17.2	0.00e+00	0	43	0	133169152	66	4460
2026-01-24 05:24:35.71	55.75	9.20	-47.3	-49.3	17.2	0.00e+00	0	43	0	135266304	66	4464
2026-01-24 05:24:36.72	55.65	9.27	-47.2	-49.2	17.3	0.00e+00	0	43	0	137363456	66	4410
2026-01-24 05:24:37.73	55.54	9.33	-47.2	-49.2	17.3	0.00e+00	0	43	0	138412032	66	4416
2026-01-24 05:24:38.73	55.43	9.40	-47.3	-49.3	17.3	0.00e+00	0	43	0	140509184	66	4462
2026-01-24 05:24:39.74	55.32	9.47	-47.2	-49.2	17.4	0.00e+00	0	43	0	142606336	66	4427
2026-01-24 05:24:40.75	55.21	9.54	-47.3	-49.3	17.2	0.00e+00	0	43	0	144703488	66	4491
2026-01-24 05:24:41.76	55.10	9.60	-47.2	-49.2	17.4	0.00e+00	0	43	0	146800640	66	4407
2026-01-24 05:24:42.77	54.99	9.67	-47.3	-49.3	17.3	0.00e+00	0	43	0	147849216	66	4462
2026-01-24 05:24:43.78	54.88	9.74	-47.3	-49.3	17.3	0.00e+00	0	43	0	149946368	66	4458
2026-01-24 05:24:44.79	54.77	9.81	-47.4	-49.4	17.2	0.00e+00	0	43	0	152043520	66	4506
2026-01-24 05:24:45.79	54.66	9.87	-47.4	-49.4	17.2	0.00e+00	0	43	0	154140672	66	4527
2026-01-24 05:24:46.80	54.55	9.94	-47.3	-49.3	17.3	0.00e+00	0	43	0	156237824	66	4470
2026-01-24 05:24:47.81	54.43	10.01	-47.4	-49.3	17.3	0.00e+00	0	43	0	158334976	66	4488
2026-01-24 05:24:48.82	54.32	10.08	-47.4	-49.4	17.3	0.00e+00	0	43	0	159383552	66	4496
2026-01-24 05:24:49.83	54.20	10.15	-47.2	-49.1	17.4	0.00e+00	0	43	0	161480704	66	4391
2026-01-24 05:24:50.84	54.09	10.22	-47.2	-49.2	17.5	0.00e+00	0	43	0	163577856	66	4394
2026-01-24 05:24:51.85	53.97	10.28	-47.2	-49.2	17.5	0.00e+00	0	43	0	165675008	66	4404
2026-01-24 05:24:52.86	53.86	10.35	-47.4	-49.3	17.3	0.00e+00	0	43	0	166723584	66	4482
2026-01-24 05:24:53.87	53.74	10.42	-47.3	-49.3	17.4	0.00e+00	0	43	0	168820736	66	4452
2026-01-24 05:24:54.88	53.62	10.49	-47.3	-49.3	17.3	0.00e+00	0	43	0	170917888	66	4477
2026-01-24 05:24:55.89	53.51	10.56	-47.2	-49.1	17.6	0.00e+00	0	43	0	173015040	66	4359
2026-01-24 05:24:56.89	53.39	10.63	-47.3	-49.2	17.5	0.00e+00	0	43	0	175112192	66	4412
2026-01-24 05:24:57.90	53.27	10.70	-47.1	-49.0	17.6	0.00e+00	0	43	0	177209344	66	4323
2026-01-24 05:24:58.91	53.15	10.77	-47.1	-49.0	17.7	0.00e+00	0	43	0	178257920	66	4300
2026-01-24 05:24:59.92	53.03	10.83	-47.0	-48.8	17.8	0.00e+00	0	43	0	180355072	66	4241
2026-01-24 05:25:00.93	52.91	10.90	-47.0	-48.8	17.9	0.00e+00	0	43	0	182452224	65	4463
2026-01-24 05:25:01.94	52.79	10.97	-47.0	-48.8	17.8	0.00e+00	0	43	0	184549376	65	4489
2026-01-24 05:25:02.95	52.67	11.04	-47.0	-48.8	17.9	0.00e+00	0	43	0	186646528	65	4457
2026-01-24 05:25:03.96	52.55	11.11	-46.9	-48.7	17.9	0.00e+00	0	43	0	187695104	65	4437
2026-01-24 05:25:04.96	52.43	11.18	-47.0	-48.9	17.8	0.00e+00	0	43	0	189792256	65	4509
2026-01-24 05:25:05.97	52.30	11.25	-46.9	-48.7	18.0	0.00e+00	0	43	0	191889408	65	4434
2026-01-24 05:25:06.98	52.18	11.32	-47.0	-48.9	17.8	0.00e+00	0	43	0	193986560	65	4497
2026-01-24 05:25:07.99	52.05	11.39	-46.9	-48.7	17.9	0.00e+00	0	43	0	195035136	65	4433
2026-01-24 05:25:08.99	51.93	11.46	-46.7	-48.5	18.2	0.00e+00	0	43	0	197132288	65	4310
2026-01-24 05:25:10.00	51.80	11.53	-46.7	-48.4	18.3	0.00e+00	0	43	0	199229440	65	4256
2026-01-24 05:25:11.01	51.68	11.60	-46.8	-48.5	18.2	0.00e+00	0	43	0	201326592	65	4315
2026-01-24 05:25:12.02	51.55	11.67	-46.6	-48.3	18.4	0.00e+00	0	43	0	203423744	65	4212
2026-01-24 05:25:13.03	51.42	11.74	-46.7	-48.5	18.2	0.00e+00	0	43	0	205520896	65	4298
2026-01-24 05:25:14.04	51.29	11.81	-46.6	-48.3	18.4	0.00e+00	0	43	0	206569472	65	4206
2026-01-24 05:25:15.05	51.17	11.88	-46.7	-48.4	18.4	0.00e+00	0	43	0	208666624	65	4256
2026-01-24 05:25:16.06	51.04	11.95	-46.7	-48.4	18.3	0.00e+00	0	43	0	210763776	65	4290
2026-01-24 05:25:17.06	50.91	12.02	-46.7	-48.4	18.3	0.00e+00	0	43	0	212860928	65	4285
2026-01-24 05:25:18.07	50.78	12.09	-46.7	-48.4	18.3	0.00e+00	0	43	0	214958080	65	4287
2026-01-24 05:25:19.08	50.64	12.16	-46.6	-48.3	18.4	0.00e+00	0	43	0	216006656	65	4233
2026-01-24 05:25:20.09	50.51	12.23	-46.6	-48.3	18.4	0.00e+00	0	43	0	218103808	65	4215
2026-01-24 05:25:21.09	50.38	12.30	-46.8	-48.5	18.3	0.00e+00	0	43	0	220200960	65	4309
2026-01-24 05:25:22.10	50.25	12.37	-46.7	-48.4	18.4	0.00e+00	0	43	0	222298112	65	4254
2026-01-24 05:25:23.11	50.11	12.44	-46.7	-48.4	18.4	0.00e+00	0	43	0	224395264	65	4263
2026-01-24 05:25:24.12	49.98	12.51	-46.5	-48.1	18.6	0.00e+00	0	43	0	225443840	65	4130
2026-01-24 05:25:25.13	49.84	12.58	-46.5	-48.1	18.6	0.00e+00	0	43	0	227540992	64	4386
2026-01-24 05:25:26.13	49.71	12.65	-46.4	-48.1	18.7	0.00e+00	0	43	0	229638144	64	4362
2026-01-24 05:25:27.14	49.57	12.72	-46.5	-48.2	18.5	0.00e+00	0	43	0	231735296	64	4402
2026-01-24 05:25:28.15	49.44	12.79	-46.4	-48.1	18.6	0.00e+00	0	43	0	233832448	64	4360
2026-01-24 05:25:29.16	49.30	12.86	-46.4	-48.1	18.6	0.00e+00	0	43	0	234881024	64	4357
2026-01-24 05:25:30.17	49.16	12.93	-46.3	-47.8	18.9	0.00e+00	0	43	0	236978176	64	4236
2026-01-24 05:25:31.18	49.02	13.00	-46.3	-47.8	18.9	0.00e+00	0	43	0	239075328	64	4233
2026-01-24 05:25:32.19	48.88	13.07	-46.2	-47.8	19.0	0.00e+00	0	43	0	241172480	64	4206
2026-01-24 05:25:33.20	48.74	13.15	-46.1	-47.7	19.0	0.00e+00	0	43	0	243269632	64	4160
2026-01-24 05:25:34.21	48.60	13.22	-46.0	-47.6	19.2	0.00e+00	0	43	0	245366784	64	4105
2026-01-24 05:25:35.22	48.45	13.29	-46.2	-47.8	18.9	0.00e+00	0	43	0	246415360	64	4207
2026-01-24 05:25:36.23	48.31	13.36	-46.0	-47.5	19.3	0.00e+00	0	43	0	248512512	64	4073
2026-01-24 05:25:37.23	48.17	13.43	-46.3	-47.8	19.0	0.00e+00	0	43	0	250609664	63	4484
2026-01-24 05:25:38.24	48.03	13.50	-46.2	-47.7	19.1	0.00e+00	0	43	0	252706816	63	4436
2026-01-24 05:25:39.25	47.88	13.57	-46.2	-47.7	19.2	0.00e+00	0	43	0	253755392	63	4421
2026-01-24 05:25:40.26	47.74	13.64	-46.1	-47.6	19.2	0.00e+00	0	43	0	255852544	63	4380
2026-01-24 05:25:41.27	47.59	13.71	-46.2	-47.7	19.2	0.00e+00	0	43	0	257949696	63	4401
2026-01-24 05:25:42.27	47.44	13.78	-46.1	-47.6	19.3	0.00e+00	0	43	0	260046848	63	4350
2026-01-24 05:25:43.28	47.30	13.85	-46.2	-47.7	19.2	0.00e+00	0	43	0	262144000	63	4415
2026-01-24 05:25:44.29	47.15	13.92	-46.1	-47.7	19.2	0.00e+00	0	43	0	263192576	63	4400
2026-01-24 05:25:45.30	47.00	14.00	-46.3	-47.8	19.0	0.00e+00	0	43	0	265289728	63	4488
2026-01-24 05:25:46.31	46.85	14.07	-46.2	-47.8	19.1	0.00e+00	0	43	0	267386880	63	4463
2026-01-24 05:25:47.32	46.70	14.14	-46.3	-47.9	19.0	0.00e+00	0	43	0	269484032	63	4514
2026-01-24 05:25:48.32	46.55	14.21	-46.3	-47.8	19.1	0.00e+00	0	43	0	271581184	63	4486
2026-01-24 05:25:49.33	46.39	14.28	-46.3	-47.9	19.0	0.00e+00	0	43	0	273678336	63	4499
2026-01-24 05:25:50.33	46.24	14.35	-46.4	-48.0	18.9	0.00e+00	0	43	0	274726912	63	4574
2026-01-24 05:25:51.34	46.09	14.42	-46.4	-48.0	18.9	0.00e+00	0	43	0	276824064	63	4551
2026-01-24 05:25:52.35	45.94	14.49	-46.4	-48.0	18.9	0.00e+00	0	43	0	278921216	63	4578
2026-01-24 05:25:53.36	45.78	14.56	-46.6	-48.2	18.7	0.00e+00	0	43	0	281018368	63	4676
2026-01-24 05:25:54.37	45.62	14.64	-46.7	-48.3	18.6	0.00e+00	0	43	0	282066944	63	4734
2026-01-24 05:25:55.37	45.47	14.71	-46.7	-48.3	18.6	0.00e+00	0	43	0	284164096	63	4745
2026-01-24 05:25:56.38	45.31	14.78	-46.4	-48.0	18.7	0.00e+00	0	43	0	286261248	64	4328
2026-01-24 05:25:57.39	45.15	14.85	-46.3	-47.9	18.9	0.00e+00	0	43	0	288358400	64	4281
2026-01-24 05:25:58.40	44.99	14.92	-46.5	-48.1	18.7	0.00e+00	0	43	0	290455552	64	4380
2026-01-24 05:25:59.41	44.83	14.99	-46.5	-48.2	18.7	0.00e+00	0	43	0	292552704	64	4398
2026-01-24 05:26:00.42	44.67	15.06	-46.7	-48.4	18.5	0.00e+00	0	43	0	293601280	64	4496
2026-01-24 05:26:01.43	44.51	15.13	-46.7	-48.4	18.5	0.00e+00	0	43	0	295698432	64	4513
2026-01-24 05:26:02.43	44.35	15.20	-46.7	-48.4	18.5	0.00e+00	0	43	0	297795584	64	4496
2026-01-24 05:26:03.44	44.19	15.27	-46.7	-48.4	18.4	0.00e+00	0	43	0	299892736	64	4533
2026-01-24 05:26:04.45	44.03	15.34	-46.8	-48.5	18.3	0.00e+00	0	43	0	301989888	64	4580
2026-01-24 05:26:05.46	43.86	15.42	-46.8	-48.5	18.4	0.00e+00	0	43	0	303038464	64	4582
2026-01-24 05:26:06.46	43.70	15.49	-47.0	-48.7	18.2	0.00e+00	0	43	0	305135616	64	4700
2026-01-24 05:26:07.47	43.53	15.56	-46.9	-48.6	18.3	0.00e+00	0	43	0	307232768	64	4614
2026-01-24 05:26:08.48	43.37	15.63	-46.7	-48.3	18.6	0.00e+00	0	43	0	309329920	64	4475
2026-01-24 05:26:09.49	43.20	15.70	-46.6	-48.3	18.6	0.00e+00	0	43	0	310378496	64	4461
2026-01-24 05:26:10.49	43.03	15.77	-46.6	-48.2	18.7	0.00e+00	0	43	0	312475648	64	4425
2026-01-24 05:26:11.50	42.86	15.84	-46.6	-48.3	18.6	0.00e+00	0	43	0	314572800	64	4460
2026-01-24 05:26:12.51	42.69	15.91	-46.7	-48.4	18.5	0.00e+00	0	43	0	316669952	64	4521
2026-01-24 05:26:13.52	42.52	15.98	-46.7	-48.4	18.5	0.00e+00	0	43	0	318767104	64	4508
2026-01-24 05:26:14.52	42.35	16.05	-46.6	-48.2	18.6	0.00e+00	0	43	0	320864256	64	4439
2026-01-24 05:26:15.53	42.18	16.12	-46.8	-48.5	18.4	0.00e+00	0	43	0	321912832	64	4585
2026-01-24 05:26:16.54	42.00	16.19	-46.9	-48.6	18.3	0.00e+00	0	43	0	324009984	64	4622
2026-01-24 05:26:17.55	41.83	16.26	-46.9	-48.5	18.4	0.00e+00	0	43	0	326107136	64	4598
2026-01-24 05:26:18.56	41.66	16.33	-46.9	-48.6	18.4	0.00e+00	0	43	0	328204288	64	4651
2026-01-24 05:26:19.57	41.48	16.40	-47.0	-48.7	18.3	0.00e+00	0	43	0	330301440	64	4675
2026-01-24 05:26:20.58	41.30	16.47	-47.0	-48.7	18.3	0.00e+00	0	43	0	331350016	64	4676
2026-01-24 05:26:21.59	41.13	16.54	-46.9	-48.7	18.3	0.00e+00	0	43	0	333447168	64	4655
2026-01-24 05:26:22.59	40.95	16.61	-46.9	-48.6	18.4	0.00e+00	0	43	0	335544320	64	4600
2026-01-24 05:26:23.60	40.77	16.68	-46.8	-48.5	18.5	0.00e+00	0	43	0	337641472	64	4546
2026-01-24 05:26:24.61	40.59	16.75	-46.8	-48.5	18.5	0.00e+00	0	43	0	339738624	64	4571
2026-01-24 05:26:25.62	40.41	16.82	-46.7	-48.4	18.6	0.00e+00	0	43	0	340787200	64	4506
2026-01-24 05:26:26.62	40.23	16.89	-46.9	-48.5	18.4	0.00e+00	0	43	0	342884352	64	4595
2026-01-24 05:26:27.63	40.05	16.96	-46.9	-48.6	18.4	0.00e+00	0	43	0	344981504	64	4611
2026-01-24 05:26:28.64	39.86	17.03	-46.7	-48.3	18.6	0.00e+00	0	43	0	347078656	64	4493
2026-01-24 05:26:29.65	39.68	17.10	-46.7	-48.4	18.6	0.00e+00	0	43	0	349175808	64	4514
2026-01-24 05:26:30.66	39.49	17.17	-46.8	-48.5	18.5	0.00e+00	0	43	0	350224384	64	4547
2026-01-24 05:26:31.67	39.31	17.24	-46.7	-48.4	18.6	0.00e+00	0	43	0	352321536	64	4511
2026-01-24 05:26:32.67	39.12	17.30	-46.8	-48.5	18.5	0.00e+00	0	43	0	354418688	64	4574
2026-01-24 05:26:33.68	38.94	17.37	-46.7	-48.4	18.6	0.00e+00	0	43	0	356515840	64	4503
2026-01-24 05:26:34.69	38.75	17.44	-46.8	-48.4	18.6	0.00e+00	0	43	0	358612992	64	4537
2026-01-24 05:26:35.70	38.56	17.51	-46.5	-48.1	18.9	0.00e+00	0	43	0	359661568	64	4376
2026-01-24 05:26:36.71	38.37	17.58	-46.4	-48.0	19.0	0.00e+00	0	43	0	361758720	64	4302
2026-01-24 05:26:37.72	38.18	17.65	-46.3	-47.8	19.2	0.00e+00	0	43	0	363855872	64	4222
2026-01-24 05:26:38.72	37.99	17.71	-46.3	-47.8	19.1	0.00e+00	0	43	0	365953024	64	4227
2026-01-24 05:26:39.73	37.79	17.78	-46.1	-47.5	19.4	0.00e+00	0	43	0	368050176	64	4090
2026-01-24 05:26:40.74	37.60	17.85	-46.1	-47.5	19.5	0.00e+00	0	43	0	369098752	63	4321
2026-01-24 05:26:41.75	37.40	17.92	-45.9	-47.4	19.7	0.00e+00	0	43	0	371195904	63	4246
2026-01-24 05:26:42.75	37.21	17.98	-45.9	-47.3	19.7	0.00e+00	0	43	0	373293056	63	4213
2026-01-24 05:26:43.75	37.02	18.05	-45.7	-47.1	20.0	0.00e+00	0	43	0	375390208	63	4104
2026-01-24 05:26:44.76	36.82	18.12	-45.6	-46.9	20.1	0.00e+00	0	43	0	377487360	63	4038
2026-01-24 05:26:45.77	36.62	18.18	-45.6	-46.9	20.1	0.00e+00	0	43	0	378535936	63	4040
2026-01-24 05:26:46.78	36.42	18.25	-45.5	-46.8	20.3	0.00e+00	0	43	0	380633088	63	4001
2026-01-24 05:26:47.78	36.22	18.32	-45.4	-46.7	20.5	0.00e+00	0	43	0	382730240	62	4153
2026-01-24 05:26:48.79	36.02	18.38	-45.2	-46.5	20.6	0.00e+00	0	43	0	384827392	62	4068
2026-01-24 05:26:49.80	35.82	18.45	-45.2	-46.5	20.5	0.00e+00	0	43	0	386924544	62	4086
2026-01-24 05:26:50.81	35.62	18.52	-45.2	-46.4	20.6	0.00e+00	0	43	0	387973120	62	4045
2026-01-24 05:26:51.82	35.41	18.58	-45.2	-46.4	20.6	0.00e+00	0	43	0	390070272	62	4041
2026-01-24 05:26:52.82	35.21	18.65	-44.9	-46.1	20.9	0.00e+00	0	43	0	392167424	61	4136
2026-01-24 05:26:53.83	35.01	18.71	-44.9	-46.1	20.9	0.00e+00	0	43	0	394264576	61	4134
2026-01-24 05:26:54.84	34.80	18.78	-44.9	-46.1	20.9	0.00e+00	0	43	0	396361728	61	4119
2026-01-24 05:26:55.85	34.59	18.84	-44.9	-46.1	20.9	0.00e+00	0	43	0	397410304	61	4123
2026-01-24 05:26:56.86	34.39	18.91	-45.0	-46.2	20.8	0.00e+00	0	43	0	399507456	61	4179
2026-01-24 05:26:57.86	34.18	18.97	-44.9	-46.1	20.9	0.00e+00	0	43	0	401604608	61	4129
2026-01-24 05:26:58.88	33.97	19.04	-44.7	-45.9	21.1	0.00e+00	0	43	0	403701760	61	4039
2026-01-24 05:26:59.88	33.76	19.10	-44.6	-45.8	21.2	0.00e+00	0	43	0	405798912	61	3977
2026-01-24 05:27:00.89	33.55	19.16	-44.7	-45.9	21.2	0.00e+00	0	43	0	406847488	61	4013
2026-01-24 05:27:01.90	33.33	19.23	-44.6	-45.8	21.2	0.00e+00	0	43	0	408944640	61	3985
2026-01-24 05:27:02.91	33.12	19.29	-44.7	-45.9	21.2	0.00e+00	0	43	0	411041792	61	4009
2026-01-24 05:27:03.92	32.91	19.35	-44.6	-45.8	21.3	0.00e+00	0	43	0	413138944	61	3976
2026-01-24 05:27:04.93	32.69	19.42	-44.7	-45.8	21.2	0.00e+00	0	43	0	415236096	61	3999
2026-01-24 05:27:05.93	32.48	19.48	-44.6	-45.8	21.2	0.00e+00	0	43	0	416284672	61	3988
2026-01-24 05:27:06.94	32.26	19.54	-44.5	-45.7	21.3	0.00e+00	0	43	0	418381824	61	3937
2026-01-24 05:27:07.95	32.04	19.60	-44.4	-45.5	21.5	0.00e+00	0	43	0	420478976	60	4093
2026-01-24 05:27:08.96	31.82	19.67	-44.3	-45.4	21.6	0.00e+00	0	43	0	422576128	60	4040
2026-01-24 05:27:09.97	31.60	19.73	-44.3	-45.5	21.5	0.00e+00	0	43	0	424673280	60	4070
2026-01-24 05:27:10.97	31.39	19.79	-44.4	-45.5	21.5	0.00e+00	0	43	0	425721856	60	4092
2026-01-24 05:27:11.98	31.16	19.85	-44.4	-45.5	21.5	0.00e+00	0	43	0	427819008	60	4086
2026-01-24 05:27:12.99	30.94	19.91	-44.3	-45.4	21.6	0.00e+00	0	43	0	429916160	60	4028
2026-01-24 05:27:14.00	30.72	19.97	-44.3	-45.4	21.6	0.00e+00	0	43	0	432013312	60	4024
2026-01-24 05:27:15.01	30.50	20.03	-44.3	-45.4	21.6	0.00e+00	0	43	0	434110464	60	4048
2026-01-24 05:27:16.01	30.27	20.09	-44.3	-45.5	21.6	0.00e+00	0	43	0	436207616	60	4053
2026-01-24 05:27:17.02	30.05	20.15	-44.3	-45.4	21.6	0.00e+00	0	43	0	437256192	60	4025
2026-01-24 05:27:18.03	29.82	20.21	-44.4	-45.6	21.5	0.00e+00	0	43	0	439353344	60	4105
2026-01-24 05:27:19.04	29.59	20.26	-44.4	-45.6	21.4	0.00e+00	0	43	0	441450496	60	4101
2026-01-24 05:27:20.04	29.37	20.32	-44.4	-45.5	21.5	0.00e+00	0	43	0	443547648	60	4091
2026-01-24 05:27:21.05	29.14	20.38	-44.4	-45.6	21.5	0.00e+00	0	43	0	444596224	60	4116
2026-01-24 05:27:22.06	28.91	20.44	-44.4	-45.6	21.5	0.00e+00	0	43	0	446693376	60	4105
2026-01-24 05:27:23.07	28.68	20.49	-44.6	-45.8	21.3	0.00e+00	0	43	0	448790528	60	4199
2026-01-24 05:27:24.08	28.44	20.55	-44.6	-45.7	21.3	0.00e+00	0	43	0	450887680	60	4179
2026-01-24 05:27:25.09	28.21	20.61	-44.7	-45.9	21.2	0.00e+00	0	43	0	452984832	60	4256
2026-01-24 05:27:26.09	27.98	20.66	-44.5	-45.7	21.4	0.00e+00	0	43	0	454033408	60	4149
2026-01-24 05:27:27.10	27.75	20.72	-44.6	-45.8	21.3	0.00e+00	0	43	0	456130560	60	4203
2026-01-24 05:27:28.11	27.51	20.77	-44.6	-45.8	21.3	0.00e+00	0	43	0	458227712	60	4198
2026-01-24 05:27:29.12	27.27	20.83	-44.6	-45.7	21.3	0.00e+00	0	43	0	460324864	60	4176
2026-01-24 05:27:30.13	27.04	20.88	-44.6	-45.8	21.3	0.00e+00	0	43	0	462422016	60	4205
2026-01-24 05:27:31.13	26.80	20.94	-44.7	-45.9	21.2	0.00e+00	0	43	0	464519168	60	4247
2026-01-24 05:27:32.14	26.56	20.99	-44.4	-45.6	21.5	0.00e+00	0	43	0	465567744	60	4108
2026-01-24 05:27:33.15	26.32	21.04	-44.3	-45.4	21.6	0.00e+00	0	43	0	467664896	60	4043
2026-01-24 05:27:34.16	26.08	21.10	-44.2	-45.4	21.7	0.00e+00	0	43	0	469762048	60	4009
2026-01-24 05:27:35.17	25.84	21.15	-44.2	-45.3	21.8	0.00e+00	0	43	0	471859200	60	3970
2026-01-24 05:27:36.18	25.60	21.20	-44.1	-45.2	21.7	0.00e+00	0	43	0	472907776	60	3958
2026-01-24 05:27:37.19	25.36	21.25	-44.3	-45.4	21.9	0.00e+00	0	43	0	475004928	59	4270
2026-01-24 05:27:38.20	25.11	21.31	-44.3	-45.4	21.9	0.00e+00	0	43	0	477102080	59	4286
2026-01-24 05:27:39.20	24.87	21.36	-44.1	-45.1	22.2	0.00e+00	0	43	0	479199232	59	4139
2026-01-24 05:27:40.21	24.63	21.41	-44.2	-45.3	22.0	0.00e+00	0	43	0	481296384	59	4228
2026-01-24 05:27:41.22	24.38	21.46	-44.2	-45.3	22.1	0.00e+00	0	43	0	483393536	59	4206
2026-01-24 05:27:42.23	24.13	21.50	-44.2	-45.3	22.0	0.00e+00	0	43	0	484442112	59	4228
2026-01-24 05:27:43.24	23.89	21.55	-44.3	-45.5	21.9	0.00e+00	0	43	0	486539264	59	4294
2026-01-24 05:27:44.25	23.64	21.60	-44.5	-45.6	21.7	0.00e+00	0	43	0	488636416	59	4370
2026-01-24 05:27:45.26	23.39	21.65	-44.3	-45.5	21.9	0.00e+00	0	43	0	490733568	59	4296
2026-01-24 05:27:46.26	23.14	21.70	-44.1	-45.2	22.1	0.00e+00	0	43	0	492830720	59	4182
2026-01-24 05:27:47.27	22.89	21.74	-44.1	-45.2	22.1	0.00e+00	0	43	0	493879296	59	4171
2026-01-24 05:27:48.28	22.64	21.79	-44.0	-45.1	22.2	0.00e+00	0	43	0	495976448	59	4130
2026-01-24 05:27:49.29	22.39	21.84	-44.1	-45.2	22.2	0.00e+00	0	43	0	498073600	59	4149
2026-01-24 05:27:50.29	22.13	21.88	-44.1	-45.2	22.1	0.00e+00	0	43	0	500170752	59	4156
2026-01-24 05:27:51.30	21.88	21.93	-44.0	-45.1	22.2	0.00e+00	0	43	0	502267904	59	4126
2026-01-24 05:27:52.31	21.63	21.97	-44.1	-45.2	22.1	0.00e+00	0	43	0	503316480	59	4190
2026-01-24 05:27:53.32	21.37	22.01	-44.2	-45.3	22.0	0.00e+00	0	43	0	505413632	59	4228
2026-01-24 05:27:54.33	21.12	22.06	-44.4	-45.5	21.9	0.00e+00	0	43	0	507510784	59	4304
2026-01-24 05:27:55.34	20.86	22.10	-44.1	-45.1	22.2	0.00e+00	0	43	0	509607936	59	4137
2026-01-24 05:27:56.35	20.60	22.14	-44.0	-45.1	22.2	0.00e+00	0	43	0	511705088	59	4124
2026-01-24 05:27:57.35	20.35	22.18	-44.1	-45.2	22.2	0.00e+00	0	43	0	512753664	59	4180
2026-01-24 05:27:58.36	20.09	22.22	-44.3	-45.4	22.0	0.00e+00	0	43	0	514850816	59	4272
2026-01-24 05:27:59.37	19.83	22.26	-44.5	-45.7	21.7	0.00e+00	0	43	0	516947968	59	4398
2026-01-24 05:28:00.38	19.57	22.30	-44.6	-45.8	21.6	0.00e+00	0	43	0	519045120	59	4455
2026-01-24 05:28:01.39	19.31	22.34	-44.5	-45.6	21.8	0.00e+00	0	43	0	521142272	59	4389
2026-01-24 05:28:02.39	19.05	22.38	-44.4	-45.5	21.9	0.00e+00	0	43	0	522190848	59	4321
2026-01-24 05:28:03.40	18.79	22.42	-44.5	-45.6	21.8	0.00e+00	0	43	0	524288000	59	4374
2026-01-24 05:28:04.42	18.52	22.46	-44.3	-45.4	22.0	0.00e+00	0	43	0	526385152	59	4252
2026-01-24 05:28:05.42	18.26	22.49	-44.4	-45.5	21.9	0.00e+00	0	43	0	528482304	59	4325
2026-01-24 05:28:06.43	18.00	22.53	-44.4	-45.5	21.9	0.00e+00	0	43	0	530579456	59	4301
2026-01-24 05:28:07.44	17.73	22.57	-44.5	-45.6	21.8	0.00e+00	0	43	0	531628032	59	4363
2026-01-24 05:28:08.45	17.47	22.60	-44.5	-45.6	21.8	0.00e+00	0	43	0	533725184	59	4371
2026-01-24 05:28:09.46	17.20	22.64	-44.6	-45.8	21.7	0.00e+00	0	43	0	535822336	59	4453
2026-01-24 05:28:10.47	16.93	22.67	-44.5	-45.7	21.4	0.00e+00	0	43	0	537919488	60	4166
2026-01-24 05:28:11.48	16.67	22.70	-44.8	-46.0	21.1	0.00e+00	0	43	0	540016640	60	4324
2026-01-24 05:28:12.49	16.40	22.74	-45.1	-46.3	20.9	0.00e+00	0	43	0	541065216	60	4482
2026-01-24 05:28:13.49	16.13	22.77	-45.2	-46.4	20.7	0.00e+00	0	43	0	543162368	60	4537
2026-01-24 05:28:14.50	15.87	22.80	-45.1	-46.4	20.8	0.00e+00	0	43	0	545259520	61	4246
2026-01-24 05:28:15.51	15.60	22.83	-45.0	-46.2	21.0	0.00e+00	0	43	0	547356672	61	4162
2026-01-24 05:28:16.52	15.33	22.86	-45.0	-46.2	20.9	0.00e+00	0	43	0	549453824	61	4175
2026-01-24 05:28:17.53	15.06	22.89	-45.1	-46.3	20.8	0.00e+00	0	43	0	551550976	61	4229
2026-01-24 05:28:18.54	14.79	22.92	-45.3	-46.6	20.6	0.00e+00	0	43	0	552599552	61	4359
2026-01-24 05:28:19.55	14.51	22.95	-45.3	-46.6	20.6	0.00e+00	0	43	0	554696704	61	4354
2026-01-24 05:28:20.56	14.24	22.97	-45.4	-46.7	20.5	0.00e+00	0	43	0	556793856	61	4395
2026-01-24 05:28:21.56	13.97	23.00	-45.4	-46.7	20.5	0.00e+00	0	43	0	558891008	61	4427
2026-01-24 05:28:22.57	13.70	23.03	-45.3	-46.6	20.6	0.00e+00	0	43	0	559939584	61	4368
2026-01-24 05:28:23.58	13.43	23.05	-45.4	-46.7	20.5	0.00e+00	0	43	0	562036736	61	4427
2026-01-24 05:28:24.59	13.15	23.08	-45.6	-46.9	20.3	0.00e+00	0	43	0	564133888	61	4513
2026-01-24 05:28:25.59	12.88	23.10	-45.8	-47.1	20.1	0.00e+00	0	43	0	566231040	62	4388
2026-01-24 05:28:26.60	12.61	23.13	-45.8	-47.2	20.1	0.00e+00	0	43	0	568328192	62	4400
2026-01-24 05:28:27.61	12.33	23.15	-45.8	-47.2	20.0	0.00e+00	0	43	0	570425344	62	4426
2026-01-24 05:28:28.62	12.06	23.17	-45.9	-47.3	19.9	0.00e+00	0	43	0	571473920	62	4478
2026-01-24 05:28:29.63	11.78	23.19	-45.9	-47.3	20.0	0.00e+00	0	43	0	573571072	62	4453
2026-01-24 05:28:30.64	11.51	23.21	-46.1	-47.6	19.7	0.00e+00	0	43	0	575668224	62	4611
2026-01-24 05:28:31.64	11.23	23.23	-46.1	-47.6	19.7	0.00e+00	0	43	0	577765376	62	4600
2026-01-24 05:28:32.65	10.96	23.25	-46.0	-47.5	19.8	0.00e+00	0	43	0	579862528	62	4553
2026-01-24 05:28:33.66	10.68	23.27	-45.9	-47.3	19.9	0.00e+00	0	43	0	580911104	62	4467
2026-01-24 05:28:34.67	10.40	23.29	-46.0	-47.4	19.9	0.00e+00	0	43	0	583008256	62	4500
2026-01-24 05:28:35.68	10.12	23.30	-46.0	-47.4	19.9	0.00e+00	0	43	0	585105408	62	4498
2026-01-24 05:28:36.68	9.85	23.32	-46.0	-47.4	19.9	0.00e+00	0	43	0	587202560	62	4522
2026-01-24 05:28:37.69	9.57	23.34	-46.1	-47.5	19.8	0.00e+00	0	43	0	588251136	62	4569
2026-01-24 05:28:38.70	9.29	23.35	-45.9	-47.3	20.0	0.00e+00	0	43	0	590348288	62	4472
2026-01-24 05:28:39.71	9.01	23.37	-45.9	-47.2	20.0	0.00e+00	0	43	0	592445440	62	4440
2026-01-24 05:28:40.72	8.73	23.38	-45.8	-47.1	20.1	0.00e+00	0	43	0	594542592	62	4387
2026-01-24 05:28:41.72	8.46	23.39	-45.7	-47.0	20.2	0.00e+00	0	43	0	596639744	62	4321
2026-01-24 05:28:42.73	8.18	23.40	-45.7	-47.0	20.2	0.00e+00	0	43	0	598736896	62	4335
2026-01-24 05:28:43.74	7.90	23.42	-45.9	-47.3	19.9	0.00e+00	0	43	0	599785472	62	4479
2026-01-24 05:28:44.75	7.62	23.43	-46.0	-47.4	19.9	0.00e+00	0	43	0	601882624	62	4522
2026-01-24 05:28:45.76	7.34	23.44	-46.0	-47.4	19.8	0.00e+00	0	43	0	603979776	62	4529
2026-01-24 05:28:46.77	7.06	23.45	-46.0	-47.4	19.9	0.00e+00	0	43	0	606076928	62	4530
2026-01-24 05:28:47.77	6.78	23.45	-45.9	-47.3	20.0	0.00e+00	0	43	0	608174080	62	4448
2026-01-24 05:28:48.78	6.50	23.46	-45.7	-47.1	20.1	0.00e+00	0	43	0	609222656	62	4363
2026-01-24 05:28:49.79	6.22	23.47	-45.8	-47.1	20.2	0.00e+00	0	43	0	611319808	62	4378
2026-01-24 05:28:50.80	5.94	23.47	-45.9	-47.2	20.1	0.00e+00	0	43	0	613416960	62	4440
2026-01-24 05:28:51.81	5.66	23.48	-45.8	-47.1	20.1	0.00e+00	0	43	0	615514112	62	4389
2026-01-24 05:28:52.82	5.38	23.48	-45.7	-47.0	20.2	0.00e+00	0	43	0	617611264	62	4334
2026-01-24 05:28:53.82	5.10	23.49	-45.7	-47.0	20.3	0.00e+00	0	43	0	618659840	62	4322
2026-01-24 05:28:54.83	4.82	23.49	-45.5	-46.8	20.4	0.00e+00	0	43	0	620756992	62	4236
2026-01-24 05:28:55.84	4.53	23.49	-45.5	-46.9	20.4	0.00e+00	0	43	0	622854144	62	4243
2026-01-24 05:28:56.85	4.25	23.50	-45.6	-47.0	20.3	0.00e+00	0	43	0	624951296	62	4308
2026-01-24 05:28:57.85	3.98	23.50	-45.7	-47.0	20.2	0.00e+00	0	43	0	627048448	62	4320
2026-01-24 05:28:58.86	3.69	23.50	-45.5	-46.8	20.5	0.00e+00	0	43	0	628097024	62	4202
2026-01-24 05:28:59.87	3.41	23.50	-45.6	-46.9	20.4	0.00e+00	0	43	0	630194176	62	4251
2026-01-24 05:29:00.88	3.13	23.50	-45.4	-46.7	20.5	0.00e+00	0	43	0	632291328	62	4178
2026-01-24 05:29:01.89	2.85	23.49	-45.3	-46.6	20.6	0.00e+00	0	43	0	634388480	62	4121
2026-01-24 05:29:02.89	2.57	23.49	-45.4	-46.7	20.5	0.00e+00	0	43	0	636485632	62	4193
2026-01-24 05:29:03.90	2.29	23.49	-45.1	-46.4	20.9	0.00e+00	0	43	0	637534208	62	4005
2026-01-24 05:29:04.91	2.01	23.48	-45.1	-46.3	20.9	0.00e+00	0	43	0	639631360	62	3986
2026-01-24 05:29:05.92	1.73	23.48	-45.0	-46.2	21.0	0.00e+00	0	43	0	641728512	61	4166
2026-01-24 05:29:06.92	1.45	23.47	-45.0	-46.3	21.0	0.00e+00	0	43	0	643825664	61	4196
2026-01-24 05:29:07.93	1.17	23.47	-45.0	-46.2	21.0	0.00e+00	0	43	0	645922816	61	4166
2026-01-24 05:29:08.94	0.89	23.46	-45.1	-46.3	20.9	0.00e+00	0	43	0	646971392	61	4223
2026-01-24 05:29:09.95	0.61	23.45	-44.9	-46.1	21.1	0.00e+00	0	43	0	649068544	61	4128
2026-01-24 05:29:10.96	0.33	23.44	-44.8	-46.0	21.2	0.00e+00	0	43	0	651165696	61	4081
2026-01-24 05:29:11.96	0.05	23.43	-44.6	-45.7	21.4	0.00e+00	0	43	0	653262848	61	3954
2026-01-24 05:29:12.97	359.77	23.42	-44.5	-45.6	21.6	0.00e+00	0	43	0	655360000	60	4127
2026-01-24 05:29:13.98	359.49	23.41	-44.4	-45.5	21.6	0.00e+00	0	43	0	656408576	60	4075
2026-01-24 05:29:14.99	359.21	23.40	-44.3	-45.5	21.7	0.00e+00	0	43	0	658505728	60	4065
2026-01-24 05:29:15.99	358.93	23.39	-44.3	-45.5	21.7	0.00e+00	0	43	0	660602880	60	4054
2026-01-24 05:29:17.00	358.66	23.38	-44.1	-45.2	21.9	0.00e+00	0	43	0	662700032	60	3934
2026-01-24 05:29:18.01	358.38	23.36	-44.5	-45.6	21.9	0.00e+00	0	43	0	664797184	59	4368
2026-01-24 05:29:19.02	358.10	23.35	-44.4	-45.5	22.1	0.00e+00	0	43	0	665845760	59	4311
2026-01-24 05:29:20.02	357.82	23.33	-44.3	-45.3	22.2	0.00e+00	0	43	0	667942912	59	4242
2026-01-24 05:29:21.03	357.54	23.32	-44.2	-45.3	22.1	0.00e+00	0	43	0	670040064	59	4232
2026-01-24 05:29:22.04	357.27	23.30	-44.1	-45.2	22.2	0.00e+00	0	43	0	672137216	59	4183
2026-01-24 05:29:23.05	356.99	23.28	-44.0	-45.1	22.3	0.00e+00	0	43	0	674234368	59	4118
2026-01-24 05:29:24.06	356.71	23.26	-43.9	-45.0	22.4	0.00e+00	0	43	0	675282944	59	4071
2026-01-24 05:29:25.07	356.43	23.24	-44.0	-45.0	22.4	0.00e+00	0	43	0	677380096	59	4077
2026-01-24 05:29:26.07	356.16	23.23	-44.0	-45.0	22.3	0.00e+00	0	43	0	679477248	59	4097
2026-01-24 05:29:27.08	355.88	23.21	-44.0	-45.1	22.3	0.00e+00	0	43	0	681574400	59	4117
2026-01-24 05:29:28.09	355.61	23.18	-44.0	-45.1	22.3	0.00e+00	0	43	0	683671552	59	4114
2026-01-24 05:29:29.10	355.33	23.16	-43.8	-44.8	22.6	0.00e+00	0	43	0	685768704	59	4003
2026-01-24 05:29:30.11	355.06	23.14	-43.8	-44.8	22.6	0.00e+00	0	43	0	686817280	59	3986
2026-01-24 05:29:31.12	354.78	23.12	-43.7	-44.7	22.7	0.00e+00	0	43	0	688914432	59	3941
2026-01-24 05:29:32.13	354.51	23.09	-43.4	-44.4	22.9	0.00e+00	0	43	0	691011584	58	4022
2026-01-24 05:29:33.13	354.24	23.07	-43.5	-44.5	22.8	0.00e+00	0	43	0	693108736	58	4095
2026-01-24 05:29:34.14	353.96	23.04	-43.6	-44.7	22.7	0.00e+00	0	43	0	694157312	58	4150
2026-01-24 05:29:35.15	353.69	23.02	-43.7	-44.7	22.6	0.00e+00	0	43	0	696254464	58	4191
2026-01-24 05:29:36.16	353.42	22.99	-43.9	-45.0	22.4	0.00e+00	0	43	0	698351616	58	4293
2026-01-24 05:29:37.17	353.15	22.97	-44.1	-45.1	22.3	0.00e+00	0	43	0	700448768	58	4391
2026-01-24 05:29:38.17	352.88	22.94	-44.1	-45.2	22.2	0.00e+00	0	43	0	702545920	58	4416
2026-01-24 05:29:39.18	352.61	22.91	-44.0	-45.1	22.3	0.00e+00	0	43	0	703594496	58	4375
2026-01-24 05:29:40.19	352.34	22.88	-44.0	-45.0	22.3	0.00e+00	0	43	0	705691648	58	4332
2026-01-24 05:29:41.20	352.07	22.85	-43.9	-45.0	22.4	0.00e+00	0	43	0	707788800	58	4301
2026-01-24 05:29:42.21	351.80	22.82	-43.9	-45.0	22.4	0.00e+00	0	43	0	709885952	58	4313
2026-01-24 05:29:43.21	351.53	22.79	-43.9	-45.0	22.4	0.00e+00	0	43	0	711983104	58	4317
2026-01-24 05:29:44.22	351.26	22.76	-44.1	-45.2	22.2	0.00e+00	0	43	0	714080256	58	4405
2026-01-24 05:29:45.23	350.99	22.73	-44.3	-45.4	22.0	0.00e+00	0	43	0	715128832	59	4286
2026-01-24 05:29:46.24	350.73	22.69	-44.4	-45.5	21.9	0.00e+00	0	43	0	717225984	59	4328
2026-01-24 05:29:47.25	350.46	22.66	-44.4	-45.6	21.9	0.00e+00	0	43	0	719323136	59	4349
2026-01-24 05:29:48.25	350.20	22.63	-44.5	-45.6	21.8	0.00e+00	0	43	0	721420288	59	4387
2026-01-24 05:29:49.26	349.93	22.59	-44.6	-45.7	21.7	0.00e+00	0	43	0	722468864	59	4429
2026-01-24 05:29:50.27	349.67	22.56	-44.7	-45.8	21.6	0.00e+00	0	43	0	724566016	59	4473
2026-01-24 05:29:51.28	349.40	22.52	-44.5	-45.6	21.5	0.00e+00	0	43	0	726663168	60	4130
2026-01-24 05:29:52.28	349.14	22.48	-44.4	-45.5	21.6	0.00e+00	0	43	0	728760320	60	4076
2026-01-24 05:29:53.29	348.88	22.45	-44.4	-45.6	21.6	0.00e+00	0	43	0	730857472	60	4109
2026-01-24 05:29:54.30	348.62	22.41	-44.4	-45.6	21.5	0.00e+00	0	43	0	732954624	60	4106
2026-01-24 05:29:55.31	348.35	22.37	-44.6	-45.8	21.4	0.00e+00	0	43	0	734003200	60	4205
2026-01-24 05:29:56.32	348.09	22.33	-44.6	-45.8	21.4	0.00e+00	0	43	0	736100352	60	4219
2026-01-24 05:29:57.32	347.83	22.29	-44.7	-45.9	21.3	0.00e+00	0	43	0	738197504	60	4248
2026-01-24 05:29:58.33	347.57	22.25	-44.8	-45.9	21.2	0.00e+00	0	43	0	740294656	60	4289
2026-01-24 05:29:59.34	347.32	22.21	-44.8	-46.0	21.1	0.00e+00	0	43	0	742391808	60	4315
2026-01-24 05:30:00.35	347.06	22.17	-44.8	-46.0	21.1	0.00e+00	0	43	0	743440384	60	4323
2026-01-24 05:30:01.36	346.80	22.13	-45.0	-46.2	21.0	0.00e+00	0	43	0	745537536	60	4414
2026-01-24 05:30:02.36	346.54	22.09	-45.3	-46.5	20.7	0.00e+00	0	43	0	747634688	61	4340
2026-01-24 05:30:03.37	346.29	22.04	-45.3	-46.5	20.7	0.00e+00	0	43	0	749731840	61	4324
2026-01-24 05:30:04.38	346.03	22.00	-45.3	-46.6	20.7	0.00e+00	0	43	0	750780416	61	4351
2026-01-24 05:30:05.39	345.78	21.96	-45.3	-46.5	20.7	0.00e+00	0	43	0	752877568	61	4321
2026-01-24 05:30:06.39	345.53	21.91	-45.2	-46.4	20.8	0.00e+00	0	43	0	754974720	61	4267
2026-01-24 05:30:07.40	345.27	21.87	-45.0	-46.2	20.9	0.00e+00	0	43	0	757071872	61	4179
2026-01-24 05:30:08.41	345.02	21.82	-45.1	-46.4	20.8	0.00e+00	0	43	0	759169024	61	4247
2026-01-24 05:30:09.42	344.77	21.78	-45.3	-46.6	20.6	0.00e+00	0	43	0	761266176	61	4373
2026-01-24 05:30:10.42	344.52	21.73	-45.3	-46.6	20.6	0.00e+00	0	43	0	762314752	61	4355
2026-01-24 05:30:11.43	344.27	21.68	-45.4	-46.6	20.5	0.00e+00	0	43	0	764411904	61	4389
2026-01-24 05:30:12.44	344.02	21.64	-45.4	-46.7	20.5	0.00e+00	0	43	0	766509056	61	4429
2026-01-24 05:30:13.45	343.77	21.59	-45.5	-46.8	20.4	0.00e+00	0	43	0	768606208	61	4472
2026-01-24 05:30:14.45	343.52	21.54	-45.5	-46.9	20.3	0.00e+00	0	43	0	770703360	61	4507
2026-01-24 05:30:15.46	343.28	21.49	-45.6	-47.0	20.2	0.00e+00	0	43	0	771751936	61	4551
2026-01-24 05:30:16.47	343.03	21.44	-45.6	-46.9	20.3	0.00e+00	0	43	0	773849088	61	4509
2026-01-24 05:30:17.48	342.79	21.39	-45.6	-46.9	20.3	0.00e+00	0	43	0	775946240	61	4509
2026-01-24 05:30:18.49	342.54	21.34	-45.7	-47.1	20.1	0.00e+00	0	43	0	778043392	62	4363
2026-01-24 05:30:19.50	342.30	21.29	-45.8	-47.2	20.0	0.00e+00	0	43	0	780140544	62	4401
2026-01-24 05:30:20.51	342.05	21.24	-45.7	-47.1	20.1	0.00e+00	0	43	0	781189120	62	4354
2026-01-24 05:30:21.52	341.81	21.19	-45.5	-46.8	20.4	0.00e+00	0	43	0	783286272	62	4212
2026-01-24 05:30:22.52	341.57	21.14	-45.4	-46.7	20.5	0.00e+00	0	43	0	785383424	62	4146
2026-01-24 05:30:23.53	341.33	21.08	-45.3	-46.6	20.6	0.00e+00	0	43	0	787480576	62	4105
2026-01-24 05:30:24.54	341.09	21.03	-45.5	-46.8	20.4	0.00e+00	0	43	0	789577728	62	4221
2026-01-24 05:30:25.55	340.85	20.98	-45.7	-47.0	20.2	0.00e+00	0	43	0	790626304	62	4310
2026-01-24 05:30:26.55	340.62	20.92	-45.9	-47.3	19.9	0.00e+00	0	43	0	792723456	62	4455
2026-01-24 05:30:27.56	340.38	20.87	-45.9	-47.3	19.9	0.00e+00	0	43	0	794820608	62	4455
2026-01-24 05:30:28.57	340.14	20.81	-45.8	-47.2	20.0	0.00e+00	0	43	0	796917760	62	4408
2026-01-24 05:30:29.58	339.91	20.76	-45.6	-46.9	20.3	0.00e+00	0	43	0	799014912	62	4269
2026-01-24 05:30:30.59	339.67	20.70	-45.4	-46.7	20.4	0.00e+00	0	43	0	800063488	62	4193
2026-01-24 05:30:31.59	339.44	20.65	-45.4	-46.7	20.4	0.00e+00	0	43	0	802160640	62	4166
2026-01-24 05:30:32.60	339.21	20.59	-45.4	-46.7	20.5	0.00e+00	0	43	0	804257792	62	4155
2026-01-24 05:30:33.61	338.97	20.54	-45.5	-46.8	20.4	0.00e+00	0	43	0	806354944	62	4220
2026-01-24 05:30:34.62	338.74	20.48	-45.5	-46.9	20.3	0.00e+00	0	43	0	808452096	62	4248
2026-01-24 05:30:35.62	338.51	20.42	-45.5	-46.8	20.3	0.00e+00	0	43	0	809500672	62	4236
2026-01-24 05:30:36.63	338.28	20.36	-45.5	-46.8	20.3	0.00e+00	0	43	0	811597824	62	4223
2026-01-24 05:30:37.64	338.05	20.31	-45.5	-46.8	20.3	0.00e+00	0	43	0	813694976	62	4203
2026-01-24 05:30:38.65	337.83	20.25	-45.6	-46.9	20.2	0.00e+00	0	43	0	815792128	62	4261
2026-01-24 05:30:39.66	337.60	20.19	-45.5	-46.8	20.3	0.00e+00	0	43	0	817889280	62	4218
2026-01-24 05:30:40.66	337.37	20.13	-45.5	-46.8	20.3	0.00e+00	0	43	0	818937856	62	4218
2026-01-24 05:30:41.67	337.15	20.07	-45.2	-46.4	20.7	0.00e+00	0	43	0	821035008	62	4044
2026-01-24 05:30:42.68	336.92	20.01	-45.2	-46.5	20.6	0.00e+00	0	43	0	823132160	62	4075
2026-01-24 05:30:43.69	336.70	19.95	-45.2	-46.4	20.7	0.00e+00	0	43	0	825229312	62	4048
2026-01-24 05:30:44.70	336.48	19.89	-45.2	-46.5	20.6	0.00e+00	0	43	0	827326464	62	4060
2026-01-24 05:30:45.70	336.26	19.83	-45.2	-46.5	20.5	0.00e+00	0	43	0	829423616	62	4089
2026-01-24 05:30:46.71	336.04	19.77	-45.2	-46.5	20.6	0.00e+00	0	43	0	830472192	62	4083
2026-01-24 05:30:47.72	335.82	19.71	-45.3	-46.5	20.6	0.00e+00	0	43	0	832569344	62	4096
2026-01-24 05:30:48.73	335.60	19.65	-45.2	-46.4	20.7	0.00e+00	0	43	0	834666496	62	4048
2026-01-24 05:30:49.73	335.38	19.59	-45.1	-46.3	20.8	0.00e+00	0	43	0	836763648	62	3987
2026-01-24 05:30:50.74	335.16	19.52	-45.2	-46.4	20.5	0.00e+00	0	43	0	837812224	61	4286
2026-01-24 05:30:51.75	334.95	19.46	-45.3	-46.6	20.5	0.00e+00	0	43	0	839909376	61	4344
2026-01-24 05:30:52.76	334.73	19.40	-45.2	-46.5	20.5	0.00e+00	0	43	0	842006528	61	4320
2026-01-24 05:30:53.77	334.52	19.34	-45.3	-46.6	20.4	0.00e+00	0	43	0	844103680	61	4389
2026-01-24 05:30:54.78	334.30	19.27	-45.3	-46.6	20.5	0.00e+00	0	43	0	846200832	61	4358
2026-01-24 05:30:55.78	334.09	19.21	-45.3	-46.6	20.5	0.00e+00	0	43	0	847249408	61	4376
2026-01-24 05:30:56.79	333.88	19.15	-45.3	-46.6	20.5	0.00e+00	0	43	0	849346560	61	4356
2026-01-24 05:30:57.80	333.67	19.08	-45.3	-46.5	20.5	0.00e+00	0	43	0	851443712	61	4337
2026-01-24 05:30:58.81	333.46	19.02	-45.3	-46.6	20.5	3.00e-06	0	43	0	853540864	61	4349
2026-01-24 05:30:59.82	333.25	18.95	-45.2	-46.4	20.6	0.00e+00	0	43	0	855638016	61	4283
2026-01-24 05:31:00.83	333.04	18.89	-45.0	-46.3	20.7	0.00e+00	0	43	0	857735168	61	4214
2026-01-24 05:31:01.83	332.84	18.83	-45.2	-46.4	20.6	0.00e+00	0	43	0	858783744	61	4290
2026-01-24 05:31:02.84	332.63	18.76	-45.2	-46.5	20.5	0.00e+00	0	43	0	860880896	61	4299
2026-01-24 05:31:03.85	332.42	18.70	-45.3	-46.5	20.5	0.00e+00	0	43	0	862978048	61	4340
2026-01-24 05:31:04.85	332.22	18.63	-45.2	-46.5	20.5	0.00e+00	0	43	0	865075200	61	4311
2026-01-24 05:31:05.86	332.02	18.57	-45.2	-46.5	20.5	0.00e+00	0	43	0	866123776	61	4326
2026-01-24 05:31:06.88	331.81	18.50	-45.3	-46.6	20.5	0.00e+00	0	43	0	868220928	61	4343
2026-01-24 05:31:07.88	331.61	18.43	-45.3	-46.6	20.5	0.00e+00	0	43	0	870318080	61	4349
2026-01-24 05:31:08.89	331.41	18.37	-45.3	-46.6	20.4	0.00e+00	0	43	0	872415232	61	4359
2026-01-24 05:31:09.90	331.21	18.30	-45.2	-46.5	20.5	0.00e+00	0	43	0	874512384	61	4320
2026-01-24 05:31:10.91	331.01	18.23	-45.4	-46.7	20.4	0.00e+00	0	43	0	876609536	61	4398
2026-01-24 05:31:11.91	330.81	18.17	-45.3	-46.6	20.4	0.00e+00	0	43	0	877658112	61	4388
2026-01-24 05:31:12.92	330.62	18.10	-45.4	-46.7	20.3	0.00e+00	0	43	0	879755264	61	4415
2026-01-24 05:31:13.92	330.42	18.03	-45.4	-46.7	20.3	0.00e+00	0	43	0	881852416	61	4408
2026-01-24 05:31:14.93	330.22	17.97	-45.5	-46.8	20.2	0.00e+00	0	43	0	883949568	61	4483
2026-01-24 05:31:15.94	330.03	17.90	-45.4	-46.7	20.3	0.00e+00	0	43	0	886046720	61	4418
2026-01-24 05:31:16.95	329.83	17.83	-45.4	-46.7	20.3	0.00e+00	0	43	0	887095296	61	4422
2026-01-24 05:31:17.96	329.64	17.76	-45.4	-46.7	20.4	0.00e+00	0	43	0	889192448	61	4399
2026-01-24 05:31:18.96	329.45	17.70	-45.3	-46.6	20.4	0.00e+00	0	43	0	891289600	61	4350
2026-01-24 05:31:19.97	329.26	17.63	-45.3	-46.6	20.4	0.00e+00	0	43	0	893386752	61	4372
2026-01-24 05:31:20.98	329.07	17.56	-45.3	-46.6	20.3	0.00e+00	0	43	0	894435328	61	4391
2026-01-24 05:31:21.99	328.88	17.49	-45.2	-46.5	20.5	0.00e+00	0	43	0	896532480	61	4309
2026-01-24 05:31:23.00	328.69	17.42	-45.2	-46.5	20.5	0.00e+00	0	43	0	898629632	61	4300
2026-01-24 05:31:24.00	328.50	17.36	-45.2	-46.4	20.5	0.00e+00	0	43	0	900726784	61	4283
2026-01-24 05:31:25.01	328.32	17.29	-45.3	-46.6	20.4	0.00e+00	0	43	0	902823936	61	4379
2026-01-24 05:31:26.02	328.13	17.22	-45.2	-46.5	20.5	0.00e+00	0	43	0	904921088	61	4298
2026-01-24 05:31:27.03	327.94	17.15	-45.1	-46.4	20.5	0.00e+00	0	43	0	905969664	61	4283
2026-01-24 05:31:28.04	327.76	17.08	-45.2	-46.5	20.4	0.00e+00	0	43	0	908066816	61	4307
2026-01-24 05:31:29.05	327.57	17.01	-45.2	-46.5	20.4	0.00e+00	0	43	0	910163968	61	4325
2026-01-24 05:31:30.06	327.39	16.94	-45.2	-46.5	20.4	0.00e+00	0	43	0	912261120	61	4333
2026-01-24 05:31:31.06	327.21	16.87	-45.1	-46.4	20.5	0.00e+00	0	43	0	914358272	61	4263
2026-01-24 05:31:32.07	327.03	16.80	-45.1	-46.4	20.6	1.50e-06	0	43	0	915406848	61	4250
2026-01-24 05:31:33.08	326.85	16.73	-45.1	-46.4	20.5	0.00e+00	0	43	0	917504000	61	4270
2026-01-24 05:31:34.09	326.67	16.66	-44.9	-46.1	20.8	0.00e+00	0	43	0	919601152	60	4385
2026-01-24 05:31:35.10	326.49	16.59	-45.0	-46.2	20.7	0.00e+00	0	43	0	921698304	60	4424
2026-01-24 05:31:36.10	326.31	16.52	-44.7	-45.9	21.0	0.00e+00	0	43	0	923795456	60	4262
2026-01-24 05:31:37.11	326.14	16.45	-44.7	-46.0	20.9	0.00e+00	0	43	0	924844032	60	4293
2026-01-24 05:31:38.12	325.96	16.38	-44.7	-45.9	21.0	0.00e+00	0	43	0	926941184	60	4255
2026-01-24 05:31:39.13	325.79	16.31	-44.8	-46.1	20.9	0.00e+00	0	43	0	929038336	60	4343
2026-01-24 05:31:40.13	325.61	16.24	-44.8	-46.0	20.8	0.00e+00	0	43	0	931135488	60	4337
2026-01-24 05:31:41.14	325.44	16.17	-44.8	-46.1	20.8	0.00e+00	0	43	0	933232640	60	4351
2026-01-24 05:31:42.15	325.27	16.10	-44.9	-46.1	20.8	0.00e+00	0	43	0	934281216	60	4377
2026-01-24 05:31:43.16	325.09	16.03	-44.9	-46.2	20.8	0.00e+00	0	43	0	936378368	60	4397
2026-01-24 05:31:44.17	324.92	15.96	-44.8	-46.0	20.8	0.00e+00	0	43	0	938475520	60	4327
2026-01-24 05:31:45.18	324.75	15.89	-44.8	-46.1	20.8	0.00e+00	0	43	0	940572672	60	4358
2026-01-24 05:31:46.18	324.58	15.82	-44.7	-45.9	20.9	0.00e+00	0	43	0	942669824	60	4271
2026-01-24 05:31:47.19	324.42	15.75	-44.7	-46.0	20.9	0.00e+00	0	43	0	943718400	60	4302
2026-01-24 05:31:48.20	324.25	15.68	-44.5	-45.7	21.1	0.00e+00	0	43	0	945815552	60	4187
2026-01-24 05:31:49.21	324.08	15.61	-44.5	-45.7	21.2	0.00e+00	0	43	0	947912704	60	4159
2026-01-24 05:31:50.21	323.92	15.54	-44.5	-45.7	21.2	0.00e+00	0	43	0	950009856	60	4161
2026-01-24 05:31:51.22	323.75	15.47	-44.3	-45.5	21.4	0.00e+00	0	43	0	952107008	60	4073
2026-01-24 05:31:52.23	323.58	15.40	-44.4	-45.5	21.4	0.00e+00	0	43	0	953155584	60	4093
2026-01-24 05:31:53.24	323.42	15.33	-44.6	-45.8	21.0	0.00e+00	0	43	0	955252736	60	4228
2026-01-24 05:31:54.24	323.26	15.26	-44.6	-45.8	21.1	0.00e+00	0	43	0	957349888	60	4213
2026-01-24 05:31:55.25	323.10	15.19	-44.5	-45.7	21.2	0.00e+00	0	43	0	959447040	60	4153
2026-01-24 05:31:56.26	322.93	15.12	-44.6	-45.8	20.8	0.00e+00	0	43	0	961544192	60	4211
2026-01-24 05:31:57.27	322.77	15.04	-44.5	-45.7	21.1	0.00e+00	0	43	0	962592768	60	4166
2026-01-24 05:31:58.27	322.62	14.97	-44.6	-45.8	21.1	0.00e+00	0	43	0	964689920	60	4221
2026-01-24 05:31:59.28	322.46	14.90	-44.6	-45.8	21.1	0.00e+00	0	43	0	966787072	60	4198
2026-01-24 05:32:00.29	322.30	14.83	-44.5	-45.7	21.2	0.00e+00	0	43	0	968884224	60	4158
2026-01-24 05:32:01.30	322.14	14.76	-44.4	-45.6	21.2	0.00e+00	0	43	0	970981376	60	4119
2026-01-24 05:32:02.31	321.98	14.69	-44.5	-45.7	21.2	0.00e+00	0	43	0	973078528	60	4146
2026-01-24 05:32:03.31	321.83	14.62	-44.4	-45.6	21.2	0.00e+00	0	43	0	974127104	60	4104
2026-01-24 05:32:04.32	321.67	14.55	-44.4	-45.6	21.2	0.00e+00	0	43	0	976224256	60	4130
2026-01-24 05:32:05.33	321.52	14.48	-44.4	-45.6	21.2	0.00e+00	0	43	0	978321408	60	4117
2026-01-24 05:32:06.34	321.36	14.41	-44.6	-45.9	21.0	0.00e+00	0	43	0	980418560	60	4243
2026-01-24 05:32:07.35	321.21	14.33	-44.5	-45.7	21.1	0.00e+00	0	43	0	981467136	60	4161
2026-01-24 05:32:08.35	321.06	14.26	-44.5	-45.7	21.1	0.00e+00	0	43	0	983564288	60	4186
2026-01-24 05:32:09.36	320.91	14.19	-44.6	-45.8	21.0	0.00e+00	0	43	0	985661440	60	4223
2026-01-24 05:32:10.37	320.76	14.12	-44.7	-45.9	20.9	0.00e+00	0	43	0	987758592	60	4263
2026-01-24 05:32:11.38	320.61	14.05	-44.6	-45.8	21.0	0.00e+00	0	43	0	989855744	60	4239
2026-01-24 05:32:12.39	320.46	13.98	-44.7	-45.9	20.9	0.00e+00	0	43	0	990904320	60	4284
2026-01-24 05:32:13.39	320.31	13.91	-44.8	-46.0	20.8	0.00e+00	0	43	0	993001472	60	4328
2026-01-24 05:32:14.40	320.16	13.84	-44.6	-45.9	20.9	0.00e+00	0	43	0	995098624	60	4254
2026-01-24 05:32:15.41	320.01	13.77	-44.8	-46.0	20.8	0.00e+00	0	43	0	997195776	60	4324
2026-01-24 05:32:16.41	319.87	13.70	-44.9	-46.1	20.7	0.00e+00	0	43	0	999292928	60	4378
2026-01-24 05:32:17.42	319.72	13.63	-44.7	-46.0	20.8	0.00e+00	0	43	0	1000341504	60	4313
2026-01-24 05:32:18.43	319.58	13.55	-44.7	-46.0	20.8	0.00e+00	0	43	0	1002438656	60	4311
2026-01-24 05:32:19.44	319.43	13.48	-44.9	-46.2	20.6	0.00e+00	0	43	0	1004535808	60	4399
2026-01-24 05:32:20.45	319.29	13.41	-45.0	-46.3	20.5	0.00e+00	0	43	0	1006632960	60	4457
2026-01-24 05:32:21.46	319.14	13.34	-45.3	-46.6	20.2	0.00e+00	0	43	0	1008730112	61	4387
2026-01-24 05:32:22.46	319.00	13.27	-45.3	-46.7	20.1	0.00e+00	0	43	0	1009778688	61	4401
2026-01-24 05:32:23.47	318.86	13.20	-45.2	-46.5	20.3	0.00e+00	0	43	0	1011875840	61	4334
2026-01-24 05:32:24.48	318.72	13.13	-45.1	-46.5	20.3	0.00e+00	0	43	0	1013972992	61	4304
2026-01-24 05:32:25.49	318.58	13.06	-45.2	-46.5	20.3	0.00e+00	0	43	0	1016070144	61	4318
2026-01-24 05:32:26.50	318.44	12.99	-45.3	-46.6	20.2	0.00e+00	0	43	0	1018167296	61	4384
2026-01-24 05:32:27.50	318.30	12.92	-45.0	-46.3	20.5	0.00e+00	0	43	0	1020264448	61	4200
2026-01-24 05:32:28.51	318.16	12.85	-45.1	-46.4	20.4	0.00e+00	0	43	0	1021313024	61	4251
2026-01-24 05:32:29.52	318.03	12.78	-45.1	-46.4	20.3	0.00e+00	0	43	0	1023410176	61	4277
2026-01-24 05:32:30.53	317.89	12.71	-45.0	-46.3	20.4	0.00e+00	0	43	0	1025507328	61	4238
2026-01-24 05:32:31.54	317.75	12.64	-45.1	-46.4	20.3	0.00e+00	0	43	0	1027604480	61	4281
2026-01-24 05:32:32.55	317.62	12.57	-45.0	-46.3	20.3	0.00e+00	0	43	0	1029701632	61	4234
2026-01-24 05:32:33.56	317.48	12.49	-45.1	-46.4	20.3	0.00e+00	0	43	0	1030750208	61	4276
2026-01-24 05:32:34.56	317.35	12.43	-45.1	-46.4	20.3	0.00e+00	0	43	0	1032847360	61	4288
2026-01-24 05:32:35.57	317.22	12.35	-45.2	-46.6	20.1	0.00e+00	0	43	0	1034944512	61	4372
2026-01-24 05:32:36.58	317.08	12.28	-45.4	-46.8	20.0	0.00e+00	0	43	0	1037041664	61	4443
2026-01-24 05:32:37.59	316.95	12.21	-45.4	-46.8	20.0	0.00e+00	0	43	0	1038090240	61	4449
2026-01-24 05:32:38.59	316.82	12.14	-45.5	-46.9	19.8	0.00e+00	0	43	0	1040187392	61	4503
2026-01-24 05:32:39.60	316.69	12.07	-45.6	-47.0	19.8	0.00e+00	0	43	0	1042284544	61	4580
2026-01-24 05:32:40.61	316.56	12.00	-45.6	-47.0	19.7	0.00e+00	0	43	0	1044381696	62	4309
2026-01-24 05:32:41.62	316.43	11.93	-45.5	-46.9	19.8	0.00e+00	0	43	0	1046478848	62	4266
2026-01-24 05:32:42.63	316.30	11.86	-45.5	-46.9	19.8	0.00e+00	0	43	0	1048576000	62	4260
2026-01-24 05:32:43.64	316.17	11.79	-45.4	-46.9	19.9	0.00e+00	0	43	0	1049624576	62	4243
2026-01-24 05:32:44.65	316.04	11.72	-45.6	-47.0	19.7	0.00e+00	0	43	0	1051721728	62	4324
2026-01-24 05:32:45.66	315.91	11.65	-45.6	-47.0	19.7	0.00e+00	0	43	0	1053818880	61	4568
2026-01-24 05:32:46.67	315.79	11.58	-45.7	-47.1	19.6	0.00e+00	0	43	0	1055916032	61	4633
2026-01-24 05:32:47.67	315.66	11.52	-45.7	-47.1	19.6	0.00e+00	0	43	0	1058013184	61	4639
2026-01-24 05:32:48.68	315.54	11.45	-45.8	-47.2	19.5	0.00e+00	0	43	0	1059061760	62	4435
2026-01-24 05:32:49.69	315.41	11.38	-45.6	-47.0	19.6	0.00e+00	0	43	0	1061158912	62	4340
2026-01-24 05:32:50.70	315.29	11.31	-45.6	-47.0	19.7	0.00e+00	0	43	0	1063256064	62	4335
2026-01-24 05:32:51.71	315.16	11.24	-45.6	-47.0	19.7	0.00e+00	0	43	0	1065353216	61	4575
2026-01-24 05:32:52.72	315.04	11.17	-45.5	-46.9	19.8	0.00e+00	0	43	0	1067450368	61	4525
2026-01-24 05:32:53.72	314.92	11.10	-45.6	-47.0	19.6	0.00e+00	0	43	0	1068498944	61	4583
2026-01-24 05:32:54.73	314.80	11.03	-45.5	-47.0	19.7	0.00e+00	0	43	0	1070596096	62	4296
2026-01-24 05:32:55.74	314.68	10.96	-45.8	-47.2	19.4	0.00e+00	0	43	0	1072693248	62	4436
2026-01-24 05:32:56.75	314.56	10.89	-45.8	-47.2	19.4	0.00e+00	0	43	0	1074790400	62	4438
2026-01-24 05:32:57.75	314.44	10.82	-45.9	-47.4	19.3	0.00e+00	0	43	0	1076887552	62	4517
2026-01-24 05:32:58.76	314.32	10.75	-45.9	-47.4	19.3	0.00e+00	0	43	0	1077936128	62	4515
2026-01-24 05:32:59.77	314.20	10.68	-45.9	-47.4	19.2	0.00e+00	0	43	0	1080033280	62	4533
2026-01-24 05:33:00.78	314.08	10.62	-46.1	-47.7	19.0	0.00e+00	0	43	0	1082130432	62	4665
2026-01-24 05:33:01.79	313.96	10.55	-46.1	-47.6	19.0	0.00e+00	0	43	0	1084227584	62	4649
2026-01-24 05:33:02.79	313.85	10.48	-46.3	-47.9	18.8	0.00e+00	0	43	0	1086324736	63	4499
2026-01-24 05:33:03.80	313.73	10.41	-46.2	-47.8	18.8	0.00e+00	0	43	0	1087373312	63	4475
2026-01-24 05:33:04.81	313.61	10.34	-46.3	-47.9	18.8	0.00e+00	0	43	0	1089470464	63	4503
2026-01-24 05:33:05.82	313.50	10.27	-46.1	-47.7	18.9	0.00e+00	0	43	0	1091567616	63	4422
2026-01-24 05:33:06.83	313.38	10.20	-46.1	-47.6	19.0	0.00e+00	0	43	0	1093664768	63	4386
2026-01-24 05:33:07.83	313.27	10.14	-46.3	-47.9	18.8	0.00e+00	0	43	0	1095761920	63	4508
2026-01-24 05:33:08.84	313.15	10.07	-46.1	-47.7	18.9	0.00e+00	0	43	0	1096810496	62	4659
2026-01-24 05:33:09.85	313.04	10.00	-45.9	-47.5	19.1	0.00e+00	0	43	0	1098907648	62	4554
2026-01-24 05:33:10.86	312.93	9.93	-46.1	-47.7	18.9	0.00e+00	0	43	0	1101004800	62	4687
2026-01-24 05:33:11.87	312.82	9.86	-46.1	-47.7	18.9	0.00e+00	0	43	0	1103101952	62	4690
2026-01-24 05:33:12.88	312.70	9.80	-46.0	-47.5	19.1	0.00e+00	0	43	0	1105199104	62	4579
2026-01-24 05:33:13.88	312.59	9.73	-46.1	-47.7	18.9	0.00e+00	0	43	0	1106247680	63	4423
2026-01-24 05:33:14.89	312.48	9.66	-46.1	-47.7	18.9	0.00e+00	0	43	0	1108344832	62	4675
2026-01-24 05:33:15.90	312.37	9.59	-46.3	-47.9	18.7	0.00e+00	0	43	0	1110441984	63	4516
2026-01-24 05:33:16.91	312.26	9.53	-46.2	-47.9	18.7	0.00e+00	0	43	0	1112539136	63	4514
2026-01-24 05:33:17.92	312.15	9.46	-46.2	-47.8	18.8	0.00e+00	0	43	0	1114636288	63	4471
2026-01-24 05:33:18.93	312.05	9.39	-46.4	-48.1	18.5	0.00e+00	0	43	0	1115684864	63	4605
2026-01-24 05:33:19.94	311.94	9.32	-46.4	-48.1	18.6	0.00e+00	0	43	0	1117782016	63	4601
2026-01-24 05:33:20.94	311.83	9.26	-46.6	-48.3	18.3	0.00e+00	0	43	0	1119879168	63	4731
2026-01-24 05:33:21.95	311.72	9.19	-46.7	-48.4	18.1	0.00e+00	0	43	0	1121976320	64	4541
2026-01-24 05:33:22.96	311.62	9.12	-46.6	-48.3	18.3	0.00e+00	0	43	0	1124073472	63	4747
2026-01-24 05:33:23.97	311.51	9.05	-46.7	-48.4	18.2	0.00e+00	0	43	0	1125122048	63	4793
2026-01-24 05:33:24.98	311.41	8.99	-46.6	-48.4	18.2	0.00e+00	0	43	0	1127219200	63	4779
2026-01-24 05:33:25.98	311.30	8.92	-46.8	-48.6	17.9	0.00e+00	0	43	0	1129316352	64	4616
2026-01-24 05:33:26.99	311.20	8.85	-46.6	-48.4	18.1	0.00e+00	0	43	0	1131413504	64	4512
2026-01-24 05:33:27.99	311.09	8.79	-46.8	-48.6	17.9	0.00e+00	0	43	0	1133510656	64	4619
2026-01-24 05:33:29.00	310.99	8.72	-47.0	-48.9	17.5	0.00e+00	0	43	0	1135607808	64	4804
2026-01-24 05:33:30.01	310.89	8.65	-47.0	-48.9	17.5	0.00e+00	0	43	0	1136656384	64	4807
2026-01-24 05:33:31.02	310.78	8.59	-47.0	-48.9	17.6	0.00e+00	0	43	0	1138753536	64	4767
2026-01-24 05:33:32.03	310.68	8.52	-47.1	-49.0	17.4	0.00e+00	0	43	0	1140850688	64	4853
2026-01-24 05:33:33.03	310.58	8.46	-47.2	-49.2	17.3	0.00e+00	0	43	0	1142947840	65	4659
2026-01-24 05:33:34.04	310.48	8.39	-47.3	-49.3	17.1	0.00e+00	0	43	0	1143996416	65	4738
2026-01-24 05:33:35.05	310.38	8.32	-47.2	-49.3	17.2	0.00e+00	0	43	0	1146093568	65	4722
2026-01-24 05:33:36.06	310.28	8.26	-47.2	-49.2	17.2	0.00e+00	0	43	0	1148190720	65	4702
2026-01-24 05:33:37.07	310.18	8.19	-47.3	-49.4	17.0	0.00e+00	0	43	0	1150287872	65	4798
2026-01-24 05:33:38.08	310.08	8.13	-47.2	-49.3	17.1	0.00e+00	0	43	0	1152385024	65	4709
2026-01-24 05:33:39.08	309.98	8.06	-47.4	-49.5	16.9	0.00e+00	0	43	0	1153433600	65	4853
2026-01-24 05:33:40.09	309.88	8.00	-47.1	-49.1	17.2	0.00e+00	0	43	0	1155530752	64	4924
2026-01-24 05:33:41.10	309.79	7.93	-47.2	-49.2	17.1	0.00e+00	0	43	0	1157627904	65	4699
2026-01-24 05:33:42.11	309.69	7.86	-47.3	-49.3	17.1	0.00e+00	0	43	0	1159725056	65	4736
2026-01-24 05:33:43.12	309.59	7.80	-47.5	-49.6	16.8	0.00e+00	0	43	0	1161822208	65	4905
2026-01-24 05:33:44.12	309.50	7.73	-47.1	-49.1	17.3	0.00e+00	0	43	0	1163919360	65	4599
2026-01-24 05:33:45.13	309.40	7.67	-47.1	-49.0	17.3	0.00e+00	0	43	0	1164967936	65	4596
2026-01-24 05:33:46.14	309.30	7.60	-47.0	-49.0	17.4	0.00e+00	0	43	0	1167065088	65	4553
2026-01-24 05:33:47.15	309.21	7.54	-47.0	-49.0	17.4	0.00e+00	0	43	0	1169162240	65	4558
2026-01-24 05:33:48.16	309.11	7.47	-47.0	-49.0	17.4	0.00e+00	0	43	0	1171259392	65	4550
2026-01-24 05:33:49.16	309.02	7.41	-46.8	-48.6	17.7	0.00e+00	0	43	0	1172307968	64	4646
2026-01-24 05:33:50.17	308.93	7.34	-46.8	-48.7	17.6	0.00e+00	0	43	0	1174405120	64	4697
2026-01-24 05:33:51.18	308.83	7.28	-47.1	-49.1	17.3	0.00e+00	0	43	0	1176502272	64	4889
2026-01-24 05:33:52.19	308.74	7.21	-47.2	-49.2	17.1	0.00e+00	0	43	0	1178599424	65	4694
2026-01-24 05:33:53.19	308.65	7.15	-47.2	-49.3	17.0	0.00e+00	0	43	0	1180696576	65	4728
2026-01-24 05:33:54.20	308.55	7.09	-47.3	-49.4	17.0	0.00e+00	0	43	0	1182793728	65	4762
2026-01-24 05:33:55.21	308.46	7.02	-47.5	-49.6	16.8	0.00e+00	0	43	0	1183842304	65	4899
2026-01-24 05:33:56.22	308.37	6.96	-47.4	-49.5	16.8	0.00e+00	0	43	0	1185939456	65	4854
2026-01-24 05:33:57.23	308.28	6.89	-47.6	-49.8	16.5	0.00e+00	0	43	0	1188036608	65	5008
2026-01-24 05:33:58.24	308.19	6.83	-47.4	-49.5	16.8	0.00e+00	0	43	0	1190133760	65	4849
2026-01-24 05:33:59.25	308.10	6.77	-47.5	-49.7	16.6	0.00e+00	0	43	0	1192230912	65	4956
2026-01-24 05:34:00.25	308.01	6.70	-47.5	-49.7	16.6	0.00e+00	0	43	0	1193279488	65	4968
2026-01-24 05:34:01.26	307.92	6.64	-47.4	-49.6	16.7	0.00e+00	0	43	0	1195376640	65	4882
2026-01-24 05:34:02.27	307.83	6.57	-47.7	-49.9	16.3	0.00e+00	0	43	0	1197473792	65	5090
2026-01-24 05:34:03.28	307.74	6.51	-47.7	-49.9	16.4	0.00e+00	0	43	0	1199570944	65	5095
2026-01-24 05:34:04.29	307.66	6.45	-47.7	-50.0	16.3	0.00e+00	0	43	0	1200619520	66	4826
2026-01-24 05:34:05.30	307.57	6.38	-47.7	-50.0	16.3	0.00e+00	0	43	0	1202716672	66	4839
2026-01-24 05:34:06.31	307.48	6.32	-47.4	-49.5	16.7	0.00e+00	0	43	0	1204813824	66	4589
2026-01-24 05:34:07.31	307.39	6.26	-47.6	-49.9	16.3	0.00e+00	0	43	0	1206910976	66	4786
2026-01-24 05:34:08.32	307.31	6.19	-47.7	-50.0	16.2	0.00e+00	0	43	0	1209008128	66	4833
2026-01-24 05:34:09.33	307.22	6.13	-47.7	-49.9	16.3	0.00e+00	0	43	0	1211105280	65	5089
2026-01-24 05:34:10.34	307.14	6.07	-47.5	-49.7	16.4	0.00e+00	0	43	0	1212153856	65	4978
2026-01-24 05:34:11.35	307.05	6.01	-47.6	-49.9	16.3	0.00e+00	0	43	0	1214251008	65	5064
2026-01-24 05:34:12.35	306.97	5.94	-47.8	-50.2	16.1	0.00e+00	0	43	0	1216348160	66	4928
2026-01-24 05:34:13.36	306.88	5.88	-47.9	-50.3	15.9	0.00e+00	0	43	0	1218445312	66	5019
2026-01-24 05:34:14.37	306.80	5.82	-47.9	-50.3	15.9	0.00e+00	0	43	0	1220542464	66	4998
2026-01-24 05:34:15.38	306.71	5.75	-47.8	-50.2	16.0	0.00e+00	0	43	0	1221591040	66	4942
2026-01-24 05:34:16.38	306.63	5.69	-47.8	-50.3	15.9	0.00e+00	0	43	0	1223688192	66	4986
2026-01-24 05:34:17.39	306.55	5.63	-47.9	-50.4	15.8	0.00e+00	0	43	0	1225785344	66	5065
