passes_logs/2026/01/24/R3.2S_Murmansk/R3.2S_Murmansk__20260124_062411_AQUA_rec.log

#Pass ID: 20260124_062411_AQUA
#Satellite: AQUA
#Configuration: AQUA
#almurnet v.1.7.20251203
#Start time: 2026-01-24 06:24:57

#Version: 2.2.20231116
#Station: R3.2S_Murmansk
#Location: 33.079688 lon 68.888172 lat
#TLE: 1 27424U 02022A   26023.58972979  .00001888  00000+0  38753-3 0  9997
#TLE: 2 27424  98.4100 350.1620 0001948  68.5331  43.0280 14.61852003262140

#Time	Az	El	Level	Level2	SNR	BER	BlckErr	Temp	State	Recorded	gain1	gain2
2026-01-24 06:24:57.07	47.29	4.66	-53.7	-66.5	3.8	1.49e+00	0	43	0	0	78	16134
2026-01-24 06:24:58.07	47.19	4.72	-55.6	-73.4	3.8	7.44e-01	0	44	104	0	81	30317
2026-01-24 06:24:59.08	47.09	4.78	-55.6	-73.4	3.8	7.44e-01	0	43	104	0	81	30244
2026-01-24 06:25:00.09	46.99	4.84	-55.6	-73.4	3.8	7.43e-01	0	43	104	0	81	30114
2026-01-24 06:25:01.09	46.89	4.90	-55.6	-73.4	3.8	7.46e-01	0	44	104	0	81	30107
2026-01-24 06:25:02.10	46.79	4.96	-55.6	-73.4	3.8	7.45e-01	0	44	104	0	81	30197
2026-01-24 06:25:03.11	46.69	5.02	-55.6	-73.4	3.8	7.45e-01	0	43	104	0	81	30176
2026-01-24 06:25:04.12	46.59	5.08	-55.5	-73.2	3.8	7.42e-01	0	43	104	0	81	29666
2026-01-24 06:25:05.13	46.48	5.15	-55.5	-73.3	3.8	7.45e-01	0	43	104	0	81	29884
2026-01-24 06:25:06.14	46.38	5.21	-55.4	-73.2	3.8	7.44e-01	0	43	104	0	81	29626
2026-01-24 06:25:07.15	46.28	5.27	-55.4	-73.2	3.8	7.42e-01	0	43	104	0	81	29461
2026-01-24 06:25:08.16	46.17	5.33	-55.3	-73.1	3.8	7.46e-01	0	43	104	0	81	29191
2026-01-24 06:25:09.16	46.07	5.39	-55.2	-73.0	3.8	7.41e-01	0	43	104	0	81	28713
2026-01-24 06:25:10.17	45.97	5.45	-55.1	-72.9	3.8	7.49e-01	0	43	104	0	81	28451
2026-01-24 06:25:11.18	45.86	5.51	-55.0	-72.8	3.8	7.43e-01	0	43	104	0	81	28250
2026-01-24 06:25:12.19	45.75	5.58	-54.9	-72.6	3.8	7.43e-01	0	44	104	0	81	27451
2026-01-24 06:25:13.20	45.65	5.64	-54.7	-71.8	3.8	7.42e-01	0	44	104	0	81	25205
2026-01-24 06:25:14.21	45.54	5.70	-54.4	-72.1	3.8	7.45e-01	0	43	104	0	80	27608
2026-01-24 06:25:15.21	45.43	5.76	-54.1	-71.8	3.8	7.44e-01	0	43	104	0	80	26661
2026-01-24 06:25:16.22	45.33	5.82	-54.0	-71.8	3.8	7.44e-01	0	44	104	0	80	26649
2026-01-24 06:25:17.23	45.22	5.88	-54.0	-71.8	3.8	7.45e-01	0	43	104	0	80	26607
2026-01-24 06:25:18.24	45.11	5.95	-54.0	-71.8	3.8	7.43e-01	0	43	104	0	80	26666
2026-01-24 06:25:19.25	45.00	6.01	-54.0	-71.8	3.8	7.42e-01	0	44	104	0	80	26592
2026-01-24 06:25:20.26	44.89	6.07	-54.0	-71.8	3.8	7.47e-01	0	43	104	0	80	26596
2026-01-24 06:25:21.27	44.78	6.13	-54.0	-71.8	3.8	7.48e-01	0	44	104	0	80	26471
2026-01-24 06:25:22.27	44.67	6.19	-54.0	-71.8	3.8	7.46e-01	0	44	104	0	80	26467
2026-01-24 06:25:23.28	44.56	6.26	-54.0	-71.7	3.8	7.46e-01	0	44	104	0	80	26289
2026-01-24 06:25:24.29	44.44	6.32	-54.0	-71.7	3.8	7.46e-01	0	43	104	0	80	26306
2026-01-24 06:25:25.30	44.33	6.38	-54.0	-71.6	3.8	7.46e-01	0	44	104	0	80	26142
2026-01-24 06:25:26.31	44.22	6.44	-54.0	-71.7	3.8	7.44e-01	0	44	104	0	80	26247
2026-01-24 06:25:27.32	44.10	6.51	-54.0	-71.8	3.8	7.45e-01	0	44	104	0	79	28211
2026-01-24 06:25:28.33	43.99	6.57	-54.0	-71.8	3.8	7.43e-01	0	44	104	0	79	28164
2026-01-24 06:25:29.34	43.88	6.63	-54.0	-71.8	3.8	7.50e-01	0	44	104	0	79	28257
2026-01-24 06:25:30.35	43.76	6.70	-54.0	-71.8	3.8	7.46e-01	0	43	104	0	79	28298
2026-01-24 06:25:31.36	43.64	6.76	-54.0	-71.8	3.8	7.46e-01	0	44	104	0	79	28157
2026-01-24 06:25:32.36	43.53	6.82	-54.0	-71.7	3.8	7.44e-01	0	44	104	0	79	27937
2026-01-24 06:25:33.37	43.41	6.88	-54.0	-71.6	3.8	7.42e-01	0	43	104	0	79	27581
2026-01-24 06:25:34.38	43.29	6.95	-54.0	-71.7	3.8	7.44e-01	0	44	104	0	79	27723
2026-01-24 06:25:35.39	43.17	7.01	-54.0	-71.7	3.8	7.43e-01	0	44	104	0	79	27893
2026-01-24 06:25:36.40	43.06	7.07	-54.0	-71.8	3.8	7.45e-01	0	43	104	0	79	28165
2026-01-24 06:25:37.41	42.94	7.14	-54.0	-71.8	3.8	7.45e-01	0	44	104	0	79	28260
2026-01-24 06:25:38.42	42.82	7.20	-54.0	-71.8	3.8	7.44e-01	0	44	104	0	79	28253
2026-01-24 06:25:39.42	42.70	7.26	-54.0	-71.8	3.8	7.43e-01	0	43	104	0	79	28205
2026-01-24 06:25:40.44	42.57	7.33	-54.0	-71.8	3.8	7.48e-01	0	44	104	0	79	28148
2026-01-24 06:25:41.44	42.45	7.39	-54.0	-71.7	3.8	7.44e-01	0	44	104	0	79	27787
2026-01-24 06:25:42.45	42.33	7.45	-53.9	-71.3	3.8	7.43e-01	0	43	104	0	79	26519
2026-01-24 06:25:43.46	42.21	7.52	-53.8	-70.6	3.8	7.44e-01	0	43	104	0	79	24692
2026-01-24 06:25:44.47	42.08	7.58	-53.6	-70.0	3.8	7.43e-01	0	44	104	0	79	23008
2026-01-24 06:25:45.48	41.96	7.65	-53.6	-69.8	3.8	7.45e-01	0	44	104	0	79	22311
2026-01-24 06:25:46.48	41.84	7.71	-53.7	-70.1	3.8	7.46e-01	0	43	104	0	79	23308
2026-01-24 06:25:47.49	41.71	7.77	-53.7	-70.2	3.8	7.46e-01	0	44	104	0	79	23444
2026-01-24 06:25:48.50	41.59	7.84	-53.4	-69.1	3.8	7.45e-01	0	44	104	0	78	21823
2026-01-24 06:25:49.51	41.46	7.90	-52.4	-66.4	3.8	7.48e-01	0	44	104	0	76	18080
2026-01-24 06:25:50.52	41.33	7.97	-51.3	-64.3	3.8	7.45e-01	0	44	104	0	74	15838
2026-01-24 06:25:51.53	41.20	8.03	-50.4	-62.7	3.8	7.47e-01	0	43	104	0	72	14731
2026-01-24 06:25:52.54	41.07	8.09	-47.7	-59.0	3.8	7.45e-01	0	43	104	0	67	12946
2026-01-24 06:25:53.54	40.95	8.16	-50.3	-62.3	3.8	7.45e-01	0	43	104	0	70	15881
2026-01-24 06:25:54.55	40.82	8.22	-53.0	-68.1	3.9	7.42e-01	0	44	104	0	78	19546
2026-01-24 06:25:55.56	40.69	8.29	-47.7	-59.1	3.8	7.44e-01	0	44	104	0	67	12975
2026-01-24 06:25:56.57	40.56	8.35	-45.5	-56.4	3.8	7.47e-01	0	44	104	0	63	12040
2026-01-24 06:25:57.58	40.42	8.42	-45.4	-56.3	3.8	7.44e-01	0	43	104	0	62	12637
2026-01-24 06:25:58.59	40.29	8.48	-45.3	-56.2	3.8	7.48e-01	0	43	104	0	62	12392
2026-01-24 06:25:59.59	40.16	8.54	-45.2	-56.1	3.8	7.46e-01	0	43	104	0	62	12296
2026-01-24 06:26:00.60	40.03	8.61	-47.0	-58.1	3.8	7.44e-01	0	43	104	0	64	13840
2026-01-24 06:26:01.61	39.89	8.67	-51.4	-64.5	3.8	7.45e-01	0	43	104	0	73	17201
2026-01-24 06:26:02.62	39.76	8.74	-48.0	-59.3	3.8	7.47e-01	0	43	104	0	68	12659
2026-01-24 06:26:03.63	39.62	8.80	-51.9	-65.5	3.8	7.47e-01	0	43	104	0	74	18115
2026-01-24 06:26:04.64	39.48	8.87	-49.5	-61.5	3.9	7.47e-01	0	44	104	0	71	13696
2026-01-24 06:26:05.65	39.35	8.93	-45.9	-56.9	3.8	7.47e-01	0	44	104	0	63	12732
2026-01-24 06:26:06.66	39.21	9.00	-45.7	-56.7	3.8	7.43e-01	0	43	104	0	63	12422
2026-01-24 06:26:07.66	39.07	9.06	-49.7	-61.5	3.8	7.46e-01	0	44	104	0	69	15374
2026-01-24 06:26:08.67	38.93	9.13	-47.0	-58.2	3.9	7.46e-01	0	43	104	0	66	12385
2026-01-24 06:26:09.68	38.79	9.19	-53.6	-70.0	3.7	7.49e-01	0	44	104	0	77	25641
2026-01-24 06:26:10.69	38.65	9.26	-52.7	-67.1	3.8	7.44e-01	0	43	104	0	77	18345
2026-01-24 06:26:11.69	38.51	9.32	-45.9	-56.8	3.9	7.45e-01	0	43	104	0	63	12629
2026-01-24 06:26:12.70	38.37	9.39	-45.9	-56.8	3.8	7.42e-01	0	43	104	0	63	12563
2026-01-24 06:26:13.71	38.23	9.45	-45.8	-56.8	3.8	7.42e-01	0	44	104	0	63	12584
2026-01-24 06:26:14.72	38.09	9.52	-45.6	-56.5	3.8	7.47e-01	0	43	104	0	63	12215
2026-01-24 06:26:15.73	37.94	9.58	-46.5	-57.6	3.8	7.41e-01	0	43	104	0	63	13811
2026-01-24 06:26:16.74	37.80	9.65	-48.9	-60.6	3.8	7.46e-01	0	43	104	0	68	14569
2026-01-24 06:26:17.74	37.65	9.71	-52.9	-67.6	3.8	7.45e-01	0	43	104	0	76	20634
2026-01-24 06:26:18.75	37.51	9.78	-48.4	-59.7	3.9	7.44e-01	0	43	104	0	68	13230
2026-01-24 06:26:19.76	37.36	9.84	-53.7	-69.9	3.7	7.48e-01	0	44	104	0	77	25370
2026-01-24 06:26:20.77	37.21	9.91	-48.4	-60.0	3.9	7.44e-01	0	43	104	0	69	12871
2026-01-24 06:26:21.78	37.07	9.97	-46.6	-57.6	3.8	7.45e-01	0	44	104	0	65	12304
2026-01-24 06:26:22.79	36.92	10.04	-46.4	-57.4	3.8	7.43e-01	0	43	104	0	64	12734
2026-01-24 06:26:23.79	36.77	10.10	-51.6	-64.6	3.8	7.45e-01	0	44	104	0	73	17437
2026-01-24 06:26:24.80	36.62	10.17	-46.9	-58.0	3.8	7.41e-01	0	44	104	0	65	12896
2026-01-24 06:26:25.81	36.47	10.23	-53.9	-71.2	3.8	7.48e-01	0	43	104	0	78	27810
2026-01-24 06:26:26.82	36.31	10.30	-52.6	-66.7	3.8	7.45e-01	0	43	104	0	77	17650
2026-01-24 06:26:27.83	36.16	10.36	-45.4	-56.2	3.9	7.44e-01	0	43	104	0	62	12511
2026-01-24 06:26:28.84	36.01	10.43	-45.6	-56.5	3.8	7.43e-01	0	43	104	0	62	12834
2026-01-24 06:26:29.85	35.85	10.49	-45.4	-56.3	3.8	7.41e-01	0	43	104	0	62	12643
2026-01-24 06:26:30.86	35.70	10.56	-45.2	-56.0	3.8	7.43e-01	0	43	104	0	62	12199
2026-01-24 06:26:31.87	35.54	10.62	-44.8	-55.6	3.8	7.47e-01	0	43	104	0	61	12313
2026-01-24 06:26:32.87	35.39	10.69	-48.2	-59.6	3.8	7.49e-01	0	44	104	0	66	14621
2026-01-24 06:26:33.88	35.23	10.75	-53.4	-69.2	3.8	7.44e-01	0	44	104	0	77	23349
2026-01-24 06:26:34.89	35.07	10.82	-46.8	-57.9	3.8	7.46e-01	0	44	104	0	65	12686
2026-01-24 06:26:35.90	34.91	10.88	-54.0	-71.2	3.8	7.43e-01	0	44	104	0	78	27876
2026-01-24 06:26:36.90	34.76	10.95	-46.9	-57.7	3.8	7.42e-01	0	44	104	0	65	12460
2026-01-24 06:26:37.91	34.60	11.01	-46.4	-57.4	3.8	7.41e-01	0	43	104	0	64	12810
2026-01-24 06:26:38.92	34.44	11.08	-46.0	-57.0	3.9	7.44e-01	0	43	104	0	64	12163
2026-01-24 06:26:39.93	34.27	11.14	-50.1	-62.2	3.8	7.49e-01	0	44	104	0	70	15594
2026-01-24 06:26:40.93	34.11	11.21	-47.0	-58.1	3.8	7.46e-01	0	43	104	0	66	12297
2026-01-24 06:26:41.94	33.95	11.27	-54.0	-71.2	3.8	7.46e-01	0	43	104	0	78	27962
2026-01-24 06:26:42.95	33.78	11.34	-52.6	-66.7	3.8	7.43e-01	0	44	104	0	76	18606
2026-01-24 06:26:43.96	33.62	11.40	-44.9	-55.7	3.8	7.43e-01	0	43	104	0	61	12377
2026-01-24 06:26:44.97	33.45	11.47	-45.0	-55.8	3.8	7.43e-01	0	43	104	0	61	12601
2026-01-24 06:26:45.97	33.29	11.53	-45.2	-56.0	3.8	7.44e-01	0	43	104	0	61	12940
2026-01-24 06:26:46.98	33.12	11.60	-45.3	-56.2	3.8	7.46e-01	0	44	104	0	61	13228
2026-01-24 06:26:47.99	32.95	11.66	-46.6	-57.7	3.8	7.45e-01	0	44	104	0	63	14013
2026-01-24 06:26:49.00	32.78	11.73	-49.0	-60.7	3.8	7.45e-01	0	44	104	0	68	14842
2026-01-24 06:26:50.01	32.61	11.79	-53.6	-69.6	3.8	7.46e-01	0	43	104	0	77	24605
2026-01-24 06:26:51.02	32.44	11.86	-46.5	-57.5	3.9	7.46e-01	0	43	104	0	65	12116
2026-01-24 06:26:52.02	32.27	11.92	-54.0	-71.0	3.8	7.46e-01	0	43	104	0	78	27372
2026-01-24 06:26:53.03	32.10	11.99	-46.7	-57.8	3.8	7.42e-01	0	43	104	0	65	12548
2026-01-24 06:26:54.04	31.93	12.05	-46.3	-57.3	3.8	7.44e-01	0	43	104	0	64	12604
2026-01-24 06:26:55.05	31.75	12.12	-46.2	-57.2	3.8	7.42e-01	0	43	104	0	64	12439
2026-01-24 06:26:56.05	31.58	12.18	-50.4	-62.7	3.8	7.45e-01	0	44	104	0	71	15715
2026-01-24 06:26:57.06	31.40	12.25	-47.0	-58.1	3.8	7.43e-01	0	43	104	0	66	12346
2026-01-24 06:26:58.07	31.23	12.31	-54.0	-71.1	3.8	7.46e-01	0	44	104	0	78	27669
2026-01-24 06:26:59.08	31.05	12.37	-52.2	-65.7	3.8	7.43e-01	0	43	104	0	76	16576
2026-01-24 06:27:00.09	30.87	12.44	-45.0	-55.8	3.8	7.43e-01	0	43	104	0	61	12557
2026-01-24 06:27:01.10	30.69	12.50	-44.7	-55.5	3.8	7.46e-01	0	43	104	0	61	12206
2026-01-24 06:27:02.11	30.51	12.57	-44.9	-55.8	3.8	7.42e-01	0	43	104	0	61	12556
2026-01-24 06:27:03.11	30.33	12.63	-45.1	-55.9	3.8	7.47e-01	0	43	104	0	61	12764
2026-01-24 06:27:04.12	30.15	12.69	-46.5	-57.5	3.8	7.48e-01	0	43	104	0	63	13694
2026-01-24 06:27:05.13	29.97	12.76	-48.5	-60.0	3.8	7.45e-01	0	43	104	0	67	14444
2026-01-24 06:27:06.14	29.79	12.82	-53.6	-69.5	3.8	7.43e-01	0	43	104	0	78	22994
2026-01-24 06:27:07.15	29.60	12.89	-45.1	-56.0	3.8	7.46e-01	0	44	104	0	62	12098
2026-01-24 06:27:08.15	29.42	12.95	-53.9	-70.7	3.8	7.47e-01	0	43	104	0	78	26302
2026-01-24 06:27:09.16	29.23	13.01	-45.3	-56.1	3.8	7.45e-01	0	43	104	0	62	12352
2026-01-24 06:27:10.17	29.04	13.08	-45.2	-56.1	3.8	7.46e-01	0	43	104	0	62	12342
2026-01-24 06:27:11.18	28.86	13.14	-44.7	-55.5	3.9	7.46e-01	0	44	104	0	61	12145
2026-01-24 06:27:12.18	28.67	13.20	-47.6	-58.9	3.9	7.46e-01	0	43	104	0	67	12788
2026-01-24 06:27:13.19	28.48	13.27	-48.3	-59.8	3.9	7.46e-01	0	43	104	0	67	14072
2026-01-24 06:27:14.20	28.29	13.33	-53.2	-68.2	3.9	7.42e-01	0	43	104	0	77	20794
2026-01-24 06:27:15.21	28.10	13.39	-45.2	-56.1	3.9	7.42e-01	0	43	104	0	62	12286
2026-01-24 06:27:16.22	27.91	13.45	-53.9	-70.7	3.8	7.43e-01	0	44	104	0	78	26302
2026-01-24 06:27:17.23	27.71	13.52	-46.1	-57.0	3.8	7.45e-01	0	43	104	0	63	12891
2026-01-24 06:27:18.23	27.52	13.58	-46.0	-56.9	3.8	7.45e-01	0	43	104	0	63	12761
2026-01-24 06:27:19.24	27.33	13.64	-45.9	-56.8	3.8	7.45e-01	0	43	104	0	63	12653
2026-01-24 06:27:20.25	27.13	13.70	-53.3	-68.7	3.8	7.43e-01	0	43	104	0	77	22035
2026-01-24 06:27:21.26	26.93	13.77	-48.0	-59.2	3.8	7.46e-01	0	43	104	0	67	13202
2026-01-24 06:27:22.27	26.74	13.83	-53.1	-68.2	3.9	7.43e-01	0	43	104	0	77	20804
2026-01-24 06:27:23.28	26.54	13.89	-44.5	-55.3	3.9	7.44e-01	0	43	104	0	60	12567
2026-01-24 06:27:24.28	26.34	13.95	-53.5	-69.2	3.8	7.46e-01	0	43	104	0	78	22226
2026-01-24 06:27:25.29	26.14	14.01	-44.8	-55.6	3.8	7.42e-01	0	43	104	0	61	12245
2026-01-24 06:27:26.30	25.94	14.07	-44.4	-55.3	3.8	7.42e-01	0	43	104	0	60	12541
2026-01-24 06:27:27.31	25.74	14.13	-44.7	-55.5	3.8	7.43e-01	0	44	104	0	60	12879
2026-01-24 06:27:28.32	25.53	14.20	-50.9	-63.2	3.9	7.42e-01	0	43	104	0	73	14739
2026-01-24 06:27:29.32	25.33	14.26	-46.4	-57.4	3.8	7.44e-01	0	43	104	0	64	12795
2026-01-24 06:27:30.33	25.13	14.32	-54.1	-71.2	3.8	7.43e-01	0	44	104	0	78	27883
2026-01-24 06:27:31.34	24.92	14.38	-51.1	-63.8	3.9	7.45e-01	0	43	104	0	74	15022
2026-01-24 06:27:32.35	24.72	14.44	-45.5	-56.3	3.8	7.45e-01	0	44	104	0	62	12619
2026-01-24 06:27:33.35	24.51	14.50	-45.3	-56.2	3.8	7.44e-01	0	44	104	0	62	12433
2026-01-24 06:27:34.36	24.30	14.56	-44.8	-55.7	3.9	7.44e-01	0	43	104	0	61	12400
2026-01-24 06:27:35.37	24.09	14.62	-44.3	-55.0	3.8	7.44e-01	0	44	104	0	60	12213
2026-01-24 06:27:36.38	23.88	14.68	-44.6	-55.4	3.8	7.43e-01	0	43	104	0	60	12685
2026-01-24 06:27:37.38	23.67	14.74	-48.3	-59.9	3.8	7.46e-01	0	43	104	0	67	14218
2026-01-24 06:27:38.39	23.46	14.79	-50.5	-62.9	3.9	7.41e-01	0	43	104	0	73	14326
2026-01-24 06:27:39.40	23.25	14.85	-45.8	-56.5	3.8	7.46e-01	0	43	104	0	61	13618
2026-01-24 06:27:40.41	23.03	14.91	-51.9	-65.4	3.9	7.43e-01	0	44	104	0	76	16019
2026-01-24 06:27:41.42	22.82	14.97	-44.6	-55.3	3.9	7.44e-01	0	43	104	0	61	11900
2026-01-24 06:27:42.42	22.61	15.03	-44.6	-55.4	3.9	7.45e-01	0	43	104	0	60	12746
2026-01-24 06:27:43.43	22.39	15.09	-44.7	-55.4	3.8	7.46e-01	0	43	104	0	60	12734
2026-01-24 06:27:44.44	22.17	15.14	-45.4	-56.4	3.8	7.46e-01	0	43	104	0	63	12057
2026-01-24 06:27:45.45	21.95	15.20	-48.3	-60.0	3.9	7.45e-01	0	43	104	0	67	14387
2026-01-24 06:27:46.46	21.73	15.26	-50.4	-62.7	3.9	7.45e-01	0	43	104	0	73	14012
2026-01-24 06:27:47.46	21.52	15.31	-45.4	-56.1	3.8	7.45e-01	0	43	104	0	61	13109
2026-01-24 06:27:48.47	21.30	15.37	-52.5	-66.5	3.9	7.43e-01	0	43	104	0	77	17161
2026-01-24 06:27:49.48	21.07	15.43	-45.1	-55.9	3.8	7.43e-01	0	43	104	0	62	12009
2026-01-24 06:27:50.49	20.85	15.48	-44.9	-55.7	3.8	7.45e-01	0	43	104	0	61	12414
2026-01-24 06:27:51.49	20.63	15.54	-45.6	-56.4	3.8	7.46e-01	0	43	104	0	61	13464
2026-01-24 06:27:52.50	20.40	15.60	-44.5	-55.3	3.8	7.47e-01	0	43	104	0	61	11926
2026-01-24 06:27:53.51	20.18	15.65	-49.7	-61.5	3.8	7.46e-01	0	43	104	0	69	15381
2026-01-24 06:27:54.52	19.95	15.71	-47.5	-58.8	3.9	7.46e-01	0	43	104	0	67	12532
2026-01-24 06:27:55.53	19.73	15.76	-47.3	-58.3	3.8	7.45e-01	0	43	104	0	64	14097
2026-01-24 06:27:56.54	19.50	15.81	-49.0	-60.7	3.9	7.41e-01	0	43	104	0	70	13146
2026-01-24 06:27:57.54	19.27	15.87	-44.3	-55.1	3.8	7.44e-01	0	43	104	0	60	12256
2026-01-24 06:27:58.55	19.04	15.92	-44.3	-55.1	3.8	7.41e-01	0	43	104	0	60	12251
2026-01-24 06:27:59.56	18.81	15.98	-46.6	-57.6	3.8	7.45e-01	0	43	104	0	63	13764
2026-01-24 06:28:00.57	18.58	16.03	-49.9	-61.7	3.9	7.43e-01	0	43	104	0	71	13902
2026-01-24 06:28:01.57	18.35	16.08	-51.5	-64.3	3.8	7.46e-01	0	43	104	0	73	16813
2026-01-24 06:28:02.58	18.11	16.13	-46.8	-57.8	3.8	7.47e-01	0	43	104	0	65	12521
2026-01-24 06:28:03.59	17.88	16.19	-50.2	-62.1	3.8	7.46e-01	0	43	104	0	70	15486
2026-01-24 06:28:04.59	17.65	16.24	-48.1	-59.4	3.9	7.45e-01	0	43	104	0	68	12781
2026-01-24 06:28:05.60	17.41	16.29	-45.4	-56.2	3.8	7.45e-01	0	43	104	0	62	12414
2026-01-24 06:28:06.61	17.17	16.34	-44.9	-55.6	3.8	7.45e-01	0	43	104	0	61	12358
2026-01-24 06:28:07.62	16.93	16.39	-45.5	-56.3	3.8	7.41e-01	0	43	104	0	61	13409
2026-01-24 06:28:08.62	16.70	16.44	-44.6	-55.3	3.8	7.42e-01	0	43	104	0	60	12597
2026-01-24 06:28:09.63	16.46	16.49	-51.5	-64.2	3.8	7.46e-01	0	43	104	0	73	16687
2026-01-24 06:28:10.64	16.22	16.54	-46.7	-57.7	3.8	7.44e-01	0	44	104	0	65	12486
2026-01-24 06:28:11.65	15.98	16.59	-50.9	-62.7	3.8	7.45e-01	0	43	104	0	71	15662
2026-01-24 06:28:12.66	15.73	16.64	-48.0	-59.3	3.9	7.45e-01	0	44	104	0	68	12664
2026-01-24 06:28:13.66	15.49	16.69	-45.3	-56.1	3.8	7.43e-01	0	43	104	0	62	12310
2026-01-24 06:28:14.67	15.25	16.73	-44.9	-55.7	3.9	7.45e-01	0	43	104	0	61	12405
2026-01-24 06:28:15.68	15.01	16.78	-51.9	-65.1	3.8	7.45e-01	0	43	104	0	74	17314
2026-01-24 06:28:16.69	14.76	16.83	-48.3	-59.6	3.8	7.45e-01	0	43	104	0	68	13017
2026-01-24 06:28:17.70	14.51	16.88	-52.9	-67.0	3.8	7.45e-01	0	43	104	0	76	19335
2026-01-24 06:28:18.71	14.27	16.92	-46.0	-57.0	3.8	7.44e-01	0	43	104	0	64	12138
2026-01-24 06:28:19.72	14.02	16.97	-52.5	-66.1	3.8	7.47e-01	0	44	104	0	75	18419
2026-01-24 06:28:20.73	13.77	17.01	-46.5	-57.6	3.8	7.43e-01	0	43	104	0	65	12238
2026-01-24 06:28:21.74	13.52	17.06	-45.1	-55.9	3.8	7.46e-01	0	43	104	0	62	12061
2026-01-24 06:28:22.74	13.27	17.10	-45.1	-55.9	3.8	7.45e-01	0	43	104	0	61	12693
2026-01-24 06:28:23.75	13.02	17.15	-47.2	-58.2	3.9	7.45e-01	0	43	104	0	64	13982
2026-01-24 06:28:24.76	12.77	17.19	-45.2	-56.0	3.8	7.46e-01	0	43	104	0	60	13578
2026-01-24 06:28:25.77	12.52	17.24	-53.7	-69.2	3.8	7.44e-01	0	43	104	0	77	23495
2026-01-24 06:28:26.78	12.26	17.28	-45.0	-55.7	3.9	7.44e-01	0	43	104	0	62	11805
2026-01-24 06:28:27.79	12.01	17.32	-53.5	-68.5	3.7	7.47e-01	0	43	104	0	77	21660
2026-01-24 06:28:28.80	11.75	17.36	-45.5	-56.4	3.8	7.44e-01	0	43	104	0	63	11963
2026-01-24 06:28:29.81	11.50	17.40	-44.6	-55.4	3.8	7.46e-01	0	43	104	0	61	12073
2026-01-24 06:28:30.82	11.24	17.45	-44.5	-55.3	3.8	7.46e-01	0	43	104	0	60	12603
2026-01-24 06:28:31.83	10.98	17.49	-48.4	-59.8	3.8	7.45e-01	0	43	104	0	67	14119
2026-01-24 06:28:32.83	10.73	17.53	-45.9	-56.8	3.8	7.45e-01	0	43	104	0	62	13366
2026-01-24 06:28:33.84	10.47	17.57	-53.8	-69.6	3.8	7.44e-01	0	43	104	0	78	23218
2026-01-24 06:28:34.85	10.21	17.60	-45.1	-55.9	3.8	7.43e-01	0	43	104	0	62	12025
2026-01-24 06:28:35.86	9.95	17.64	-53.4	-68.2	3.7	7.49e-01	0	43	104	0	77	21013
2026-01-24 06:28:36.87	9.69	17.68	-45.4	-56.1	3.8	7.42e-01	0	43	104	0	62	12315
2026-01-24 06:28:37.87	9.43	17.72	-44.6	-55.3	3.8	7.42e-01	0	43	104	0	61	11900
2026-01-24 06:28:38.88	9.17	17.75	-44.4	-55.1	3.8	7.46e-01	0	43	104	0	60	12331
2026-01-24 06:28:39.89	8.90	17.79	-48.9	-60.4	3.9	7.43e-01	0	43	104	0	68	14331
2026-01-24 06:28:40.90	8.64	17.83	-46.5	-57.5	3.8	7.46e-01	0	43	104	0	63	13580
2026-01-24 06:28:41.91	8.38	17.86	-54.0	-70.2	3.8	7.48e-01	0	43	104	0	78	24839
2026-01-24 06:28:42.91	8.11	17.90	-45.2	-56.0	3.9	7.45e-01	0	43	104	0	62	12225
2026-01-24 06:28:43.92	7.85	17.93	-53.9	-69.7	3.7	7.44e-01	0	43	104	0	78	23429
2026-01-24 06:28:44.93	7.58	17.97	-45.1	-55.9	3.8	7.45e-01	0	43	104	0	62	12018
2026-01-24 06:28:45.94	7.31	18.00	-44.8	-55.5	3.8	7.41e-01	0	43	104	0	61	12234
2026-01-24 06:28:46.95	7.05	18.03	-44.6	-55.3	3.8	7.46e-01	0	43	104	0	61	11949
2026-01-24 06:28:47.95	6.78	18.06	-51.9	-64.9	3.8	7.45e-01	0	44	104	0	74	17033
2026-01-24 06:28:48.96	6.51	18.09	-46.9	-57.8	3.9	7.43e-01	0	43	104	0	65	12608
2026-01-24 06:28:49.97	6.24	18.12	-54.0	-70.2	3.8	7.46e-01	0	43	104	0	78	24793
2026-01-24 06:28:50.98	5.97	18.15	-45.4	-56.3	3.8	7.47e-01	0	43	104	0	62	12554
2026-01-24 06:28:51.99	5.70	18.18	-54.0	-70.0	3.8	7.44e-01	0	43	104	0	78	24203
2026-01-24 06:28:53.00	5.43	18.21	-44.8	-55.6	3.8	7.44e-01	0	43	104	0	61	12346
2026-01-24 06:28:54.01	5.16	18.24	-44.9	-55.7	3.8	7.45e-01	0	44	104	0	61	12505
2026-01-24 06:28:55.02	4.89	18.27	-44.7	-55.4	3.8	7.48e-01	0	43	104	0	61	12092
2026-01-24 06:28:56.02	4.62	18.30	-48.1	-59.5	3.8	7.43e-01	0	43	104	0	66	14450
2026-01-24 06:28:57.03	4.35	18.32	-46.7	-57.8	3.8	7.45e-01	0	44	104	0	63	14071
2026-01-24 06:28:58.04	4.07	18.35	-54.0	-70.2	3.8	7.45e-01	0	43	104	0	78	24945
2026-01-24 06:28:59.05	3.80	18.38	-45.9	-56.7	3.8	7.46e-01	0	43	104	0	63	12500
2026-01-24 06:29:00.06	3.52	18.40	-54.1	-70.5	3.8	7.46e-01	0	43	104	0	78	25610
2026-01-24 06:29:01.07	3.25	18.42	-45.1	-55.9	3.8	7.45e-01	0	43	104	0	62	12083
2026-01-24 06:29:02.08	2.97	18.45	-45.5	-56.3	3.8	7.41e-01	0	43	104	0	62	12615
2026-01-24 06:29:03.09	2.70	18.47	-45.3	-56.1	3.8	7.44e-01	0	44	104	0	62	12371
2026-01-24 06:29:04.09	2.42	18.49	-47.4	-58.6	3.8	7.44e-01	0	43	104	0	66	13056
2026-01-24 06:29:05.10	2.15	18.51	-46.5	-57.5	3.8	7.44e-01	0	44	104	0	63	13661
2026-01-24 06:29:06.11	1.87	18.54	-54.0	-69.9	3.8	7.44e-01	0	43	104	0	78	23921
2026-01-24 06:29:07.12	1.59	18.56	-45.6	-56.5	3.8	7.46e-01	0	43	104	0	63	12122
2026-01-24 06:29:08.13	1.31	18.58	-54.0	-70.2	3.8	7.42e-01	0	43	104	0	78	24727
2026-01-24 06:29:09.14	1.03	18.59	-45.3	-56.2	3.8	7.42e-01	0	43	104	0	62	12406
2026-01-24 06:29:10.14	0.76	18.61	-45.1	-55.9	3.8	7.44e-01	0	43	104	0	62	12079
2026-01-24 06:29:11.15	0.48	18.63	-44.9	-55.6	3.8	7.44e-01	0	43	104	0	61	12371
2026-01-24 06:29:12.15	0.20	18.65	-47.1	-58.3	3.8	7.46e-01	0	43	104	0	65	13319
2026-01-24 06:29:13.16	359.92	18.66	-46.4	-57.3	3.8	7.45e-01	0	43	104	0	63	13363
2026-01-24 06:29:14.17	359.64	18.68	-53.9	-69.8	3.8	7.41e-01	0	43	104	0	78	23644
2026-01-24 06:29:15.18	359.36	18.69	-44.8	-55.6	3.8	7.44e-01	0	43	104	0	61	12360
2026-01-24 06:29:16.19	359.08	18.71	-53.4	-68.4	3.9	7.41e-01	0	43	104	0	78	20140
2026-01-24 06:29:17.19	358.80	18.72	-44.9	-55.7	3.8	7.46e-01	0	43	104	0	61	12425
2026-01-24 06:29:18.20	358.52	18.74	-44.7	-55.5	3.8	7.45e-01	0	43	104	0	61	12177
2026-01-24 06:29:19.21	358.24	18.75	-44.7	-55.4	3.8	7.45e-01	0	43	104	0	61	12079
2026-01-24 06:29:20.22	357.96	18.76	-48.4	-59.9	3.9	7.48e-01	0	43	104	0	69	12671
2026-01-24 06:29:21.23	357.68	18.77	-46.4	-57.4	3.9	7.43e-01	0	43	104	0	63	13460
2026-01-24 06:29:22.24	357.39	18.78	-53.3	-68.1	3.9	7.41e-01	0	43	104	0	78	19393
2026-01-24 06:29:23.24	357.11	18.79	-45.0	-55.8	3.8	7.43e-01	0	43	104	0	62	11929
2026-01-24 06:29:24.25	356.83	18.80	-53.5	-68.3	3.9	7.44e-01	0	43	104	0	78	19994
2026-01-24 06:29:25.26	356.55	18.81	-44.9	-55.7	3.9	7.43e-01	0	43	104	0	61	12378
2026-01-24 06:29:26.27	356.27	18.82	-44.9	-55.7	3.8	7.43e-01	0	43	104	0	61	12413
2026-01-24 06:29:27.28	355.98	18.82	-44.8	-55.6	3.8	7.46e-01	0	43	104	0	61	12243
2026-01-24 06:29:28.28	355.70	18.83	-47.3	-58.3	3.8	7.42e-01	0	44	104	0	66	12553
2026-01-24 06:29:29.29	355.42	18.83	-46.7	-57.9	3.8	7.42e-01	0	43	104	0	64	13423
2026-01-24 06:29:30.30	355.14	18.84	-52.2	-65.6	3.9	7.43e-01	0	44	104	0	76	16374
2026-01-24 06:29:31.31	354.85	18.84	-44.8	-55.6	3.8	7.45e-01	0	43	104	0	61	12270
2026-01-24 06:29:32.32	354.57	18.85	-52.2	-65.6	3.9	7.42e-01	0	43	104	0	76	16388
2026-01-24 06:29:33.32	354.29	18.85	-45.0	-55.8	3.8	7.46e-01	0	43	104	0	62	11907
2026-01-24 06:29:34.33	354.00	18.85	-44.8	-55.5	3.8	7.46e-01	0	43	104	0	61	12201
2026-01-24 06:29:35.34	353.72	18.85	-44.8	-55.5	3.8	7.42e-01	0	44	104	0	61	12206
2026-01-24 06:29:36.35	353.44	18.85	-46.8	-57.7	3.9	7.45e-01	0	43	104	0	65	12486
2026-01-24 06:29:37.36	353.15	18.85	-46.7	-57.7	3.8	7.46e-01	0	43	104	0	63	14016
2026-01-24 06:29:38.36	352.87	18.85	-52.6	-66.4	3.9	7.45e-01	0	43	104	0	77	16945
2026-01-24 06:29:39.37	352.59	18.85	-45.1	-55.9	3.8	7.45e-01	0	43	104	0	61	12726
2026-01-24 06:29:40.38	352.30	18.85	-50.3	-62.2	3.9	7.40e-01	0	44	104	0	72	14009
2026-01-24 06:29:41.39	352.02	18.85	-44.8	-55.5	3.8	7.45e-01	0	43	104	0	61	12214
2026-01-24 06:29:42.40	351.74	18.84	-44.7	-55.6	3.8	7.45e-01	0	43	104	0	61	12264
2026-01-24 06:29:43.41	351.45	18.84	-45.6	-56.4	3.8	7.49e-01	0	44	104	0	61	13482
2026-01-24 06:29:44.42	351.17	18.83	-49.1	-60.7	3.8	7.45e-01	0	44	104	0	70	13129
2026-01-24 06:29:45.43	350.89	18.83	-47.5	-58.6	3.8	7.45e-01	0	43	104	0	65	13800
2026-01-24 06:29:46.43	350.61	18.82	-51.1	-63.6	3.9	7.44e-01	0	43	104	0	74	14682
2026-01-24 06:29:47.44	350.32	18.82	-45.5	-56.4	3.8	7.44e-01	0	43	104	0	62	12670
2026-01-24 06:29:48.45	350.04	18.81	-50.4	-62.6	3.9	7.41e-01	0	44	104	0	73	13797
2026-01-24 06:29:49.46	349.76	18.80	-45.3	-56.1	3.8	7.43e-01	0	43	104	0	62	12291
2026-01-24 06:29:50.47	349.47	18.79	-45.0	-55.7	3.8	7.46e-01	0	43	104	0	61	12515
2026-01-24 06:29:51.47	349.20	18.78	-46.8	-57.7	3.8	7.47e-01	0	43	104	0	63	13972
2026-01-24 06:29:52.48	348.91	18.77	-45.5	-56.4	3.8	7.44e-01	0	43	104	0	63	12069
2026-01-24 06:29:53.49	348.63	18.76	-50.0	-61.9	3.8	7.47e-01	0	43	104	0	70	15214
2026-01-24 06:29:54.50	348.35	18.75	-48.3	-59.5	3.8	7.44e-01	0	43	104	0	68	12933
2026-01-24 06:29:55.51	348.07	18.73	-46.2	-57.1	3.8	7.46e-01	0	43	104	0	62	13740
2026-01-24 06:29:56.52	347.79	18.72	-49.3	-60.7	3.9	7.44e-01	0	43	104	0	70	13219
2026-01-24 06:29:57.52	347.51	18.71	-46.0	-56.8	3.8	7.46e-01	0	43	104	0	63	12661
2026-01-24 06:29:58.53	347.23	18.69	-45.8	-56.8	3.8	7.50e-01	0	43	104	0	63	12533
2026-01-24 06:29:59.54	346.95	18.68	-45.6	-56.4	3.8	7.47e-01	0	43	104	0	62	12752
2026-01-24 06:30:00.55	346.67	18.66	-45.5	-56.4	3.8	7.42e-01	0	44	104	0	63	12037
2026-01-24 06:30:01.55	346.39	18.65	-49.7	-61.3	3.8	7.45e-01	0	43	104	0	69	15004
2026-01-24 06:30:02.56	346.11	18.63	-48.3	-59.4	3.9	7.43e-01	0	43	104	0	68	12790
2026-01-24 06:30:03.57	345.83	18.61	-46.2	-57.0	3.8	7.47e-01	0	43	104	0	62	13704
2026-01-24 06:30:04.58	345.55	18.59	-46.3	-57.2	3.8	7.43e-01	0	43	104	0	64	12451
2026-01-24 06:30:05.59	345.27	18.57	-44.9	-55.8	3.8	7.44e-01	0	44	104	0	61	12561
2026-01-24 06:30:06.59	345.00	18.55	-45.0	-55.9	3.8	7.45e-01	0	43	104	0	61	12731
2026-01-24 06:30:07.60	344.72	18.53	-48.2	-59.5	3.8	7.40e-01	0	43	104	0	66	14433
2026-01-24 06:30:08.61	344.44	18.51	-47.1	-58.3	3.9	7.46e-01	0	43	104	0	66	12586
2026-01-24 06:30:09.62	344.17	18.49	-52.4	-65.9	3.8	7.48e-01	0	43	104	0	75	17905
2026-01-24 06:30:10.62	343.89	18.47	-47.1	-58.1	3.8	7.47e-01	0	43	104	0	66	12330
2026-01-24 06:30:11.63	343.62	18.45	-48.7	-60.0	3.8	7.44e-01	0	43	104	0	67	14510
2026-01-24 06:30:12.64	343.34	18.42	-46.2	-57.2	3.9	7.43e-01	0	43	104	0	64	12376
2026-01-24 06:30:13.65	343.07	18.40	-44.9	-55.7	3.8	7.44e-01	0	43	104	0	61	12467
2026-01-24 06:30:14.66	342.79	18.37	-44.8	-55.6	3.8	7.48e-01	0	43	104	0	61	12264
2026-01-24 06:30:15.67	342.52	18.35	-46.7	-57.7	3.8	7.44e-01	0	43	104	0	63	13988
2026-01-24 06:30:16.67	342.25	18.32	-44.9	-55.6	3.8	7.42e-01	0	43	104	0	61	12353
2026-01-24 06:30:17.68	341.97	18.29	-53.6	-68.4	3.7	7.46e-01	0	43	104	0	77	21473
2026-01-24 06:30:18.69	341.70	18.27	-46.8	-57.8	3.8	7.42e-01	0	43	104	0	65	12634
2026-01-24 06:30:19.70	341.43	18.24	-50.8	-63.3	3.8	7.45e-01	0	43	104	0	72	15865
2026-01-24 06:30:20.71	341.16	18.21	-45.6	-56.5	3.8	7.43e-01	0	44	104	0	63	12201
2026-01-24 06:30:21.72	340.89	18.18	-44.9	-55.9	3.8	7.42e-01	0	44	104	0	61	12699
2026-01-24 06:30:22.72	340.62	18.15	-45.1	-55.9	3.8	7.45e-01	0	43	104	0	61	12680
2026-01-24 06:30:23.73	340.35	18.12	-49.1	-60.5	3.8	7.47e-01	0	43	104	0	68	14499
2026-01-24 06:30:24.74	340.08	18.09	-46.1	-57.2	3.8	7.45e-01	0	43	104	0	64	12474
2026-01-24 06:30:25.75	339.81	18.06	-53.5	-68.3	3.8	7.48e-01	0	43	104	0	77	21236
2026-01-24 06:30:26.76	339.54	18.03	-46.8	-57.8	3.9	7.46e-01	0	43	104	0	65	12650
2026-01-24 06:30:27.76	339.28	17.99	-50.8	-62.9	3.8	7.48e-01	0	43	104	0	71	16007
2026-01-24 06:30:28.77	339.01	17.96	-46.7	-57.8	3.8	7.44e-01	0	44	104	0	65	12544
2026-01-24 06:30:29.78	338.74	17.93	-45.6	-56.4	3.8	7.44e-01	0	44	104	0	63	12072
2026-01-24 06:30:30.79	338.48	17.89	-45.1	-56.0	3.8	7.46e-01	0	43	104	0	62	12104
2026-01-24 06:30:31.80	338.21	17.86	-47.0	-58.0	3.8	7.43e-01	0	43	104	0	64	13651
2026-01-24 06:30:32.81	337.95	17.82	-45.2	-55.9	3.8	7.44e-01	0	43	104	0	61	12791
2026-01-24 06:30:33.82	337.69	17.79	-53.9	-69.6	3.8	7.46e-01	0	43	104	0	78	23197
2026-01-24 06:30:34.83	337.42	17.75	-46.6	-57.5	3.8	7.47e-01	0	43	104	0	65	12201
2026-01-24 06:30:35.83	337.16	17.71	-52.2	-65.4	3.8	7.50e-01	0	44	104	0	74	18024
2026-01-24 06:30:36.84	336.90	17.68	-45.9	-56.9	3.9	7.42e-01	0	43	104	0	63	12767
2026-01-24 06:30:37.85	336.64	17.64	-44.9	-55.6	3.8	7.47e-01	0	43	104	0	61	12264
2026-01-24 06:30:38.86	336.38	17.60	-44.8	-55.7	3.8	7.44e-01	0	44	104	0	61	12392
2026-01-24 06:30:39.87	336.12	17.56	-49.8	-61.6	3.9	7.41e-01	0	44	104	0	69	15435
2026-01-24 06:30:40.87	335.87	17.52	-45.5	-56.2	3.8	7.47e-01	0	43	104	0	63	11730
2026-01-24 06:30:41.88	335.61	17.48	-53.9	-69.7	3.8	7.45e-01	0	43	104	0	78	23384
2026-01-24 06:30:42.89	335.35	17.44	-46.9	-58.1	3.8	7.43e-01	0	44	104	0	65	12974
2026-01-24 06:30:43.90	335.09	17.40	-52.9	-66.8	3.8	7.46e-01	0	43	104	0	76	18795
2026-01-24 06:30:44.91	334.84	17.36	-45.5	-56.5	3.8	7.47e-01	0	44	104	0	63	12170
2026-01-24 06:30:45.92	334.58	17.32	-45.6	-56.7	3.8	7.42e-01	0	44	104	0	62	13151
2026-01-24 06:30:46.93	334.33	17.27	-45.4	-56.0	3.8	7.45e-01	0	43	104	0	62	12173
2026-01-24 06:30:47.93	334.08	17.23	-45.3	-56.5	3.8	7.42e-01	0	43	104	0	61	13628
2026-01-24 06:30:48.94	333.82	17.19	-45.3	-56.2	3.8	7.43e-01	0	43	104	0	61	13134
2026-01-24 06:30:49.95	333.57	17.14	-53.8	-69.3	3.8	7.43e-01	0	44	104	0	78	22354
2026-01-24 06:30:50.96	333.32	17.10	-46.9	-58.6	3.8	7.44e-01	0	43	104	0	65	13744
2026-01-24 06:30:51.97	333.07	17.05	-52.8	-66.9	3.8	7.47e-01	0	43	104	0	76	19142
2026-01-24 06:30:52.97	332.82	17.01	-45.1	-55.2	3.8	7.44e-01	0	43	104	0	62	11127
2026-01-24 06:30:53.99	332.57	16.96	-45.2	-56.7	3.8	7.47e-01	0	44	104	0	62	13111
2026-01-24 06:30:55.00	332.32	16.92	-45.2	-56.0	3.8	7.40e-01	0	44	104	0	62	12120
2026-01-24 06:30:56.01	332.08	16.87	-50.8	-62.8	3.8	7.48e-01	0	43	104	0	72	14922
2026-01-24 06:30:57.01	331.83	16.82	-45.3	-57.0	3.8	7.48e-01	0	43	104	0	62	13716
2026-01-24 06:30:58.02	331.59	16.78	-53.8	-69.0	3.8	7.45e-01	0	44	104	0	78	21675
2026-01-24 06:30:59.03	331.34	16.73	-47.1	-58.2	3.8	7.46e-01	0	43	104	0	65	13137
2026-01-24 06:31:00.04	331.10	16.68	-52.9	-67.7	3.9	7.45e-01	0	43	104	0	76	20794
2026-01-24 06:31:01.04	330.86	16.63	-44.9	-55.0	3.8	7.47e-01	0	44	104	0	61	11437
2026-01-24 06:31:02.05	330.62	16.58	-45.3	-56.5	3.8	7.44e-01	0	43	104	0	61	13708
2026-01-24 06:31:03.06	330.38	16.53	-45.6	-56.5	3.8	7.45e-01	0	43	104	0	61	13669
2026-01-24 06:31:04.07	330.13	16.49	-52.2	-65.2	3.8	7.46e-01	0	44	104	0	75	16576
2026-01-24 06:31:05.07	329.90	16.44	-45.6	-57.0	3.8	7.45e-01	0	43	104	0	63	12855
2026-01-24 06:31:06.08	329.66	16.39	-53.7	-69.1	3.8	7.47e-01	0	43	104	0	78	21851
2026-01-24 06:31:07.09	329.42	16.33	-46.9	-58.0	3.8	7.43e-01	0	44	104	0	65	12830
2026-01-24 06:31:08.10	329.18	16.28	-52.4	-66.4	3.8	7.41e-01	0	44	104	0	76	17895
2026-01-24 06:31:09.11	328.95	16.23	-44.4	-45.5	15.4	5.97e-01	0	43	104	0	60	4094
2026-01-24 06:31:10.12	328.71	16.18	-44.8	-46.1	24.6	6.03e-01	0	43	0	1048576	60	4351
2026-01-24 06:31:11.13	328.48	16.13	-44.5	-45.7	25.5	6.01e-01	0	43	0	3145728	60	4164
2026-01-24 06:31:12.13	328.25	16.08	-44.4	-45.6	25.5	6.03e-01	0	43	0	4718592	60	4118
2026-01-24 06:31:13.14	328.01	16.02	-44.5	-45.7	25.4	5.99e-01	0	43	0	6815744	60	4152
2026-01-24 06:31:14.15	327.78	15.97	-44.8	-46.1	25.0	6.00e-01	0	43	0	8388608	60	4387
2026-01-24 06:31:15.16	327.55	15.92	-44.9	-46.2	25.1	6.02e-01	0	43	0	10485760	60	4416
2026-01-24 06:31:16.17	327.32	15.86	-44.6	-45.9	25.1	6.03e-01	0	43	0	12582912	61	4015
2026-01-24 06:31:17.18	327.09	15.81	-45.1	-46.4	24.7	5.99e-01	0	43	0	14680064	61	4285
2026-01-24 06:31:18.18	326.87	15.75	-45.1	-46.4	24.8	6.03e-01	0	43	0	16252928	61	4243
2026-01-24 06:31:19.19	326.64	15.70	-45.3	-46.6	24.5	6.01e-01	0	43	0	18350080	61	4369
2026-01-24 06:31:20.20	326.41	15.64	-44.9	-46.2	24.9	5.99e-01	0	43	0	19922944	61	4176
2026-01-24 06:31:21.21	326.19	15.59	-45.0	-46.3	24.8	6.00e-01	0	44	0	22020096	61	4205
2026-01-24 06:31:22.22	325.96	15.53	-44.8	-46.0	25.1	6.02e-01	0	43	0	23592960	61	4089
2026-01-24 06:31:23.22	325.74	15.48	-44.3	-45.5	25.4	6.02e-01	0	43	0	25690112	60	4081
2026-01-24 06:31:24.23	325.52	15.42	-44.5	-45.7	25.3	6.00e-01	0	43	0	27787264	60	4158
2026-01-24 06:31:25.24	325.30	15.36	-44.1	-45.3	25.7	6.03e-01	0	43	0	29360128	60	3983
2026-01-24 06:31:26.25	325.08	15.31	-44.5	-45.8	25.3	5.98e-01	0	44	0	31457280	60	4195
2026-01-24 06:31:27.25	324.86	15.25	-44.1	-45.2	25.8	6.02e-01	0	43	0	33030144	60	3943
2026-01-24 06:31:28.26	324.64	15.19	-44.6	-45.9	25.0	6.01e-01	0	43	0	35127296	60	4245
2026-01-24 06:31:29.27	324.42	15.14	-44.3	-45.5	25.4	6.00e-01	0	44	0	36700160	59	4293
2026-01-24 06:31:30.28	324.20	15.08	-44.0	-45.1	25.6	6.03e-01	0	43	0	38797312	60	3907
2026-01-24 06:31:31.29	323.99	15.02	-44.7	-46.1	25.0	6.01e-01	0	43	0	40894464	60	4347
2026-01-24 06:31:32.30	323.77	14.96	-44.0	-45.2	25.7	6.01e-01	0	43	0	42991616	59	4160
2026-01-24 06:31:33.30	323.56	14.90	-44.6	-45.8	25.1	6.03e-01	0	43	0	44564480	59	4467
2026-01-24 06:31:34.31	323.34	14.85	-44.3	-45.6	25.4	5.99e-01	0	43	0	46661632	59	4346
2026-01-24 06:31:35.32	323.13	14.79	-44.3	-45.5	25.4	6.01e-01	0	43	0	48234496	59	4324
2026-01-24 06:31:36.33	322.92	14.73	-44.7	-46.0	25.0	6.01e-01	0	43	0	50331648	60	4293
2026-01-24 06:31:37.34	322.71	14.67	-44.4	-45.6	25.4	6.00e-01	0	43	0	51904512	60	4112
2026-01-24 06:31:38.35	322.50	14.61	-44.9	-46.2	24.7	6.02e-01	0	43	0	54001664	60	4400
2026-01-24 06:31:39.36	322.29	14.55	-44.8	-46.0	25.0	6.04e-01	0	43	0	56098816	60	4325
2026-01-24 06:31:40.36	322.08	14.49	-44.8	-46.1	24.8	6.04e-01	0	43	0	57671680	61	4114
2026-01-24 06:31:41.37	321.87	14.43	-45.2	-46.5	24.6	6.03e-01	0	43	0	59768832	60	4573
2026-01-24 06:31:42.38	321.67	14.37	-44.6	-45.8	25.3	6.00e-01	0	43	0	61865984	61	3981
2026-01-24 06:31:43.39	321.46	14.31	-45.1	-46.5	24.7	6.03e-01	0	43	0	63438848	61	4302
2026-01-24 06:31:44.39	321.26	14.25	-44.1	-45.3	25.8	6.02e-01	0	43	0	65536000	60	3979
2026-01-24 06:31:45.40	321.06	14.19	-44.6	-45.8	25.1	6.01e-01	0	43	0	67108864	60	4232
2026-01-24 06:31:46.41	320.85	14.13	-44.5	-45.8	25.2	6.02e-01	0	43	0	69206016	60	4210
2026-01-24 06:31:47.42	320.65	14.07	-44.6	-45.8	25.0	6.03e-01	0	43	0	71303168	60	4237
2026-01-24 06:31:48.43	320.45	14.00	-44.8	-46.1	25.0	6.02e-01	0	43	0	72876032	60	4367
2026-01-24 06:31:49.44	320.25	13.94	-44.3	-45.5	25.4	6.00e-01	0	43	0	74973184	60	4078
2026-01-24 06:31:50.45	320.05	13.88	-44.6	-45.8	25.3	6.05e-01	0	43	0	76546048	60	4241
2026-01-24 06:31:51.45	319.85	13.82	-44.3	-45.5	25.5	6.01e-01	0	43	0	78643200	60	4080
2026-01-24 06:31:52.46	319.66	13.76	-44.9	-46.2	24.8	6.04e-01	0	43	0	80216064	60	4433
2026-01-24 06:31:53.47	319.46	13.70	-44.0	-45.1	25.8	6.01e-01	0	43	0	82313216	59	4139
2026-01-24 06:31:54.48	319.26	13.63	-44.8	-46.1	24.7	6.05e-01	0	43	0	84410368	60	4356
2026-01-24 06:31:55.49	319.07	13.57	-44.3	-45.5	25.5	6.03e-01	0	44	0	86507520	60	4059
2026-01-24 06:31:56.49	318.88	13.51	-45.0	-46.4	24.7	6.00e-01	0	43	0	88080384	60	4496
2026-01-24 06:31:57.50	318.68	13.45	-44.2	-45.3	25.7	6.02e-01	0	43	0	90177536	60	4002
2026-01-24 06:31:58.51	318.49	13.38	-44.7	-46.0	25.1	6.01e-01	0	43	0	91750400	60	4300
2026-01-24 06:31:59.52	318.30	13.32	-44.1	-45.3	25.7	6.01e-01	0	43	0	93847552	60	3994
2026-01-24 06:32:00.53	318.11	13.26	-44.6	-45.8	25.2	6.01e-01	0	43	0	95420416	60	4221
2026-01-24 06:32:01.53	317.92	13.19	-44.4	-45.7	25.4	6.03e-01	0	43	0	97517568	60	4155
2026-01-24 06:32:02.54	317.73	13.13	-44.4	-45.7	25.3	6.02e-01	0	43	0	99614720	60	4149
2026-01-24 06:32:03.55	317.55	13.07	-44.5	-45.8	25.2	6.01e-01	0	43	0	101187584	60	4216
2026-01-24 06:32:04.56	317.36	13.00	-44.5	-45.7	25.2	6.03e-01	0	43	0	103284736	60	4178
2026-01-24 06:32:05.57	317.17	12.94	-44.5	-45.8	25.3	6.01e-01	0	43	0	104857600	60	4202
2026-01-24 06:32:06.58	316.99	12.88	-44.7	-46.0	25.0	6.01e-01	0	43	0	106954752	60	4299
2026-01-24 06:32:07.59	316.80	12.81	-44.6	-45.8	25.3	6.03e-01	0	43	0	109051904	60	4219
2026-01-24 06:32:08.60	316.62	12.75	-44.6	-45.9	25.1	6.02e-01	0	43	0	110624768	60	4247
2026-01-24 06:32:09.61	316.44	12.69	-44.5	-45.8	25.3	6.02e-01	0	43	0	112721920	60	4207
2026-01-24 06:32:10.62	316.26	12.62	-44.5	-45.8	25.3	6.01e-01	0	43	0	114819072	60	4197
2026-01-24 06:32:11.62	316.08	12.56	-44.4	-45.7	25.4	6.03e-01	0	43	0	116391936	60	4155
2026-01-24 06:32:12.63	315.90	12.49	-44.9	-46.2	24.8	5.98e-01	0	43	0	118489088	60	4439
2026-01-24 06:32:13.64	315.72	12.43	-44.5	-45.7	25.2	6.02e-01	0	43	0	120061952	60	4189
2026-01-24 06:32:14.65	315.54	12.36	-44.8	-46.1	24.9	5.99e-01	0	43	0	122159104	60	4385
2026-01-24 06:32:15.66	315.36	12.30	-44.6	-45.9	24.8	6.03e-01	0	43	0	123731968	60	4264
2026-01-24 06:32:16.66	315.19	12.24	-44.2	-45.4	25.5	6.00e-01	0	43	0	125829120	60	4029
2026-01-24 06:32:17.67	315.01	12.17	-45.0	-46.3	24.7	6.04e-01	0	43	0	127926272	60	4467
2026-01-24 06:32:18.68	314.84	12.11	-44.4	-45.7	25.3	6.02e-01	0	43	0	129499136	60	4149
2026-01-24 06:32:19.69	314.66	12.04	-44.8	-46.1	24.9	6.01e-01	0	43	0	131596288	60	4352
2026-01-24 06:32:20.69	314.49	11.98	-45.1	-46.5	24.6	6.02e-01	0	43	0	133693440	60	4549
2026-01-24 06:32:21.70	314.32	11.91	-44.4	-45.6	25.3	6.03e-01	0	43	0	135266304	60	4125
2026-01-24 06:32:22.71	314.15	11.85	-44.5	-45.7	25.3	6.01e-01	0	43	0	137363456	60	4184
2026-01-24 06:32:23.72	313.98	11.78	-44.8	-46.1	24.9	6.01e-01	0	43	0	138936320	60	4371
2026-01-24 06:32:24.73	313.81	11.72	-44.6	-45.8	25.2	6.01e-01	0	43	0	141033472	60	4213
2026-01-24 06:32:25.73	313.64	11.65	-45.0	-46.4	24.7	6.00e-01	0	43	0	143130624	60	4497
2026-01-24 06:32:26.74	313.47	11.59	-44.9	-46.2	24.8	6.02e-01	0	43	0	144703488	60	4407
2026-01-24 06:32:27.75	313.30	11.52	-44.8	-46.1	24.9	6.01e-01	0	43	0	146800640	60	4370
2026-01-24 06:32:28.75	313.14	11.46	-44.8	-46.1	24.9	6.03e-01	0	43	0	148373504	60	4357
2026-01-24 06:32:29.76	312.97	11.39	-44.6	-45.9	25.1	6.01e-01	0	43	0	150470656	60	4255
2026-01-24 06:32:30.77	312.81	11.33	-44.6	-45.8	25.2	6.00e-01	0	43	0	152567808	60	4242
2026-01-24 06:32:31.78	312.64	11.26	-44.7	-46.0	25.0	6.05e-01	0	43	0	154140672	60	4292
2026-01-24 06:32:32.79	312.48	11.20	-44.5	-45.7	25.2	6.04e-01	0	43	0	156237824	60	4180
2026-01-24 06:32:33.80	312.32	11.13	-45.1	-46.5	24.6	6.00e-01	0	43	0	157810688	60	4549
2026-01-24 06:32:34.81	312.16	11.07	-45.0	-46.3	24.5	5.99e-01	0	43	0	159907840	61	4220
2026-01-24 06:32:35.82	311.99	11.00	-44.4	-45.6	25.4	6.02e-01	0	43	0	162004992	60	4111
2026-01-24 06:32:36.83	311.83	10.94	-45.1	-46.5	24.5	6.01e-01	0	43	0	163577856	60	4552
2026-01-24 06:32:37.83	311.68	10.87	-45.1	-46.5	24.3	6.03e-01	0	43	0	165675008	61	4297
2026-01-24 06:32:38.84	311.52	10.81	-44.7	-45.9	25.1	6.00e-01	0	43	0	167247872	61	4043
2026-01-24 06:32:39.85	311.36	10.74	-45.1	-46.4	24.5	6.01e-01	0	43	0	169345024	61	4268
2026-01-24 06:32:40.86	311.20	10.68	-45.2	-46.6	24.3	6.02e-01	0	43	0	171442176	61	4380
2026-01-24 06:32:41.87	311.05	10.61	-44.7	-45.9	24.9	6.00e-01	0	43	0	173015040	61	4044
2026-01-24 06:32:42.88	310.89	10.55	-44.8	-46.1	24.8	6.00e-01	0	43	0	175112192	61	4107
2026-01-24 06:32:43.89	310.74	10.48	-45.4	-46.8	24.2	6.03e-01	0	43	0	177209344	61	4474
2026-01-24 06:32:44.89	310.58	10.42	-44.7	-45.9	24.9	6.00e-01	0	43	0	178782208	61	4040
2026-01-24 06:32:45.90	310.43	10.35	-44.8	-46.0	24.9	6.02e-01	0	43	0	180879360	61	4094
2026-01-24 06:32:46.92	310.28	10.29	-45.4	-46.8	24.2	6.01e-01	0	43	0	182452224	61	4474
2026-01-24 06:32:47.92	310.12	10.22	-45.2	-46.5	24.2	6.01e-01	0	43	0	184549376	61	4323
2026-01-24 06:32:48.93	309.97	10.16	-45.0	-46.3	24.6	6.01e-01	0	43	0	186122240	61	4216
2026-01-24 06:32:49.94	309.82	10.09	-45.6	-47.0	23.9	6.00e-01	0	43	0	188219392	61	4585
2026-01-24 06:32:50.95	309.67	10.03	-45.5	-46.9	23.9	6.00e-01	0	43	0	190316544	62	4253
2026-01-24 06:32:51.96	309.52	9.96	-44.8	-46.1	24.8	5.99e-01	0	43	0	191889408	61	4132
2026-01-24 06:32:52.96	309.38	9.90	-45.3	-46.6	24.3	5.98e-01	0	43	0	193986560	61	4370
2026-01-24 06:32:53.97	309.23	9.83	-45.7	-47.2	23.7	6.02e-01	0	43	0	195559424	61	4653
2026-01-24 06:32:54.98	309.08	9.76	-45.1	-46.4	24.3	6.02e-01	0	43	0	197656576	61	4273
2026-01-24 06:32:55.99	308.94	9.70	-45.0	-46.3	24.6	5.98e-01	0	43	0	199753728	61	4204
2026-01-24 06:32:57.00	308.79	9.63	-45.2	-46.6	24.3	6.00e-01	0	43	0	201326592	61	4358
2026-01-24 06:32:58.01	308.65	9.57	-45.3	-46.7	24.1	5.98e-01	0	44	0	203423744	61	4435
2026-01-24 06:32:59.02	308.50	9.50	-45.1	-46.4	24.5	6.01e-01	0	43	0	205520896	61	4259
2026-01-24 06:33:00.02	308.36	9.44	-45.1	-46.4	24.5	5.99e-01	0	43	0	207093760	61	4287
2026-01-24 06:33:01.03	308.22	9.37	-45.9	-47.4	23.6	6.02e-01	0	43	0	209190912	62	4511
2026-01-24 06:33:02.04	308.08	9.31	-45.7	-47.2	23.7	6.03e-01	0	43	0	210763776	62	4417
2026-01-24 06:33:03.05	307.94	9.24	-45.0	-46.2	24.6	6.00e-01	0	43	0	212860928	61	4183
2026-01-24 06:33:04.06	307.80	9.18	-45.2	-46.6	24.3	6.01e-01	0	43	0	214433792	61	4356
2026-01-24 06:33:05.06	307.66	9.12	-45.7	-47.2	23.8	6.02e-01	0	43	0	216530944	62	4420
2026-01-24 06:33:06.07	307.52	9.05	-45.3	-46.7	24.0	6.03e-01	0	43	0	218628096	62	4164
2026-01-24 06:33:07.08	307.38	8.99	-44.8	-46.0	24.9	6.01e-01	0	43	0	220725248	61	4084
2026-01-24 06:33:08.09	307.24	8.92	-45.5	-46.9	23.9	6.02e-01	0	43	0	222298112	61	4532
2026-01-24 06:33:09.10	307.11	8.86	-46.0	-47.6	23.4	5.99e-01	0	43	0	224395264	62	4633
2026-01-24 06:33:10.11	306.97	8.79	-45.6	-47.1	23.6	6.02e-01	0	43	0	225968128	62	4344
2026-01-24 06:33:11.12	306.83	8.73	-45.3	-46.6	24.3	6.01e-01	0	43	0	228065280	62	4125
2026-01-24 06:33:12.12	306.70	8.66	-45.6	-47.0	23.7	6.00e-01	0	43	0	229638144	62	4327
2026-01-24 06:33:13.13	306.57	8.60	-46.0	-47.6	23.5	6.02e-01	0	43	0	231735296	62	4603
2026-01-24 06:33:14.14	306.43	8.53	-46.0	-47.5	23.2	6.02e-01	0	43	0	233832448	62	4572
2026-01-24 06:33:15.15	306.30	8.47	-45.8	-47.2	23.6	6.00e-01	0	43	0	235405312	62	4435
2026-01-24 06:33:16.15	306.17	8.40	-45.7	-47.1	23.8	6.03e-01	0	43	0	237502464	62	4353
2026-01-24 06:33:17.16	306.04	8.34	-46.2	-47.7	23.2	6.04e-01	0	43	0	239075328	62	4671
2026-01-24 06:33:18.17	305.90	8.28	-46.5	-48.1	22.8	6.03e-01	0	44	0	241172480	63	4624
2026-01-24 06:33:19.18	305.77	8.21	-45.4	-46.8	23.8	6.02e-01	0	43	0	243269632	62	4221
2026-01-24 06:33:20.19	305.64	8.15	-45.2	-46.5	24.4	6.01e-01	0	43	0	244842496	62	4069
2026-01-24 06:33:21.19	305.52	8.08	-45.4	-46.8	24.0	6.01e-01	0	43	0	246939648	62	4211
2026-01-24 06:33:22.20	305.39	8.02	-45.8	-47.2	23.7	6.00e-01	0	43	0	249036800	62	4440
2026-01-24 06:33:23.21	305.26	7.96	-45.7	-47.2	23.7	5.99e-01	0	43	0	250609664	62	4407
2026-01-24 06:33:24.22	305.13	7.89	-45.3	-46.6	24.1	6.02e-01	0	43	0	252706816	62	4134
2026-01-24 06:33:25.23	305.01	7.83	-45.1	-46.4	24.5	6.02e-01	0	43	0	254279680	62	4037
2026-01-24 06:33:26.23	304.88	7.76	-45.2	-46.6	24.2	6.02e-01	0	43	0	256376832	62	4103
2026-01-24 06:33:27.24	304.76	7.70	-45.7	-47.2	23.6	6.01e-01	0	43	0	257949696	62	4433
2026-01-24 06:33:28.25	304.63	7.64	-45.9	-47.4	23.4	6.00e-01	0	43	0	260046848	62	4543
2026-01-24 06:33:29.26	304.51	7.57	-45.6	-47.1	23.7	6.03e-01	0	43	0	262144000	62	4342
2026-01-24 06:33:30.27	304.38	7.51	-45.5	-46.9	24.1	6.03e-01	0	43	0	263716864	62	4245
2026-01-24 06:33:31.27	304.26	7.44	-45.3	-46.7	24.1	6.00e-01	0	43	0	265814016	62	4168
2026-01-24 06:33:32.28	304.14	7.38	-45.9	-47.4	23.5	6.02e-01	0	43	0	267911168	62	4508
2026-01-24 06:33:33.29	304.02	7.32	-45.9	-47.4	23.5	6.00e-01	0	43	0	269484032	62	4545
2026-01-24 06:33:34.30	303.90	7.25	-45.8	-47.3	23.6	6.01e-01	0	43	0	271581184	62	4454
2026-01-24 06:33:35.31	303.78	7.19	-45.4	-46.8	24.0	6.00e-01	0	43	0	273154048	62	4223
2026-01-24 06:33:36.32	303.66	7.13	-45.3	-46.7	24.2	6.03e-01	0	43	0	275251200	62	4155
2026-01-24 06:33:37.32	303.54	7.06	-45.6	-47.0	23.8	6.02e-01	0	43	0	277348352	62	4319
2026-01-24 06:33:38.33	303.42	7.00	-45.8	-47.3	23.5	6.01e-01	0	43	0	278921216	62	4467
2026-01-24 06:33:39.34	303.30	6.94	-46.0	-47.6	23.3	6.02e-01	0	44	0	281018368	62	4603
2026-01-24 06:33:40.35	303.18	6.87	-45.9	-47.5	23.3	6.03e-01	0	43	0	282591232	62	4563
2026-01-24 06:33:41.35	303.07	6.81	-45.7	-47.2	23.5	6.04e-01	0	43	0	284688384	62	4412
2026-01-24 06:33:42.36	302.95	6.75	-45.8	-47.2	23.5	5.99e-01	0	43	0	286261248	62	4421
2026-01-24 06:33:43.37	302.83	6.69	-45.7	-47.1	23.7	6.02e-01	0	43	0	288358400	62	4391
2026-01-24 06:33:44.38	302.72	6.62	-45.7	-47.2	23.6	6.01e-01	0	43	0	290455552	62	4422
2026-01-24 06:33:45.39	302.60	6.56	-45.9	-47.4	23.3	6.00e-01	0	43	0	292552704	62	4544
2026-01-24 06:33:46.39	302.49	6.50	-46.0	-47.5	23.2	6.01e-01	0	44	0	294125568	62	4591
2026-01-24 06:33:47.40	302.38	6.44	-45.8	-47.2	23.5	5.97e-01	0	43	0	296222720	62	4429
2026-01-24 06:33:48.41	302.26	6.37	-45.7	-47.1	23.6	6.00e-01	0	44	0	297795584	62	4391
2026-01-24 06:33:49.42	302.15	6.31	-45.6	-47.0	23.7	5.97e-01	0	44	0	299892736	62	4329
2026-01-24 06:33:50.43	302.04	6.25	-45.7	-47.1	23.6	6.02e-01	0	43	0	301465600	62	4391
2026-01-24 06:33:51.44	301.93	6.19	-45.8	-47.3	23.5	6.00e-01	0	43	0	303562752	62	4460
2026-01-24 06:33:52.45	301.81	6.12	-46.2	-47.8	23.1	6.01e-01	0	43	0	305659904	62	4712
2026-01-24 06:33:53.46	301.70	6.06	-46.2	-47.7	23.1	6.02e-01	0	43	0	307232768	63	4422
2026-01-24 06:33:54.46	301.59	6.00	-45.8	-47.3	23.5	6.01e-01	0	43	0	309329920	63	4197
2026-01-24 06:33:55.47	301.49	5.94	-46.0	-47.5	23.2	6.00e-01	0	43	0	310902784	63	4337
2026-01-24 06:33:56.48	301.38	5.88	-46.3	-47.9	22.9	6.02e-01	0	43	0	312999936	63	4512
2026-01-24 06:33:57.49	301.27	5.81	-46.3	-47.9	22.9	6.02e-01	0	44	0	315097088	63	4512
2026-01-24 06:33:58.50	301.16	5.75	-46.3	-47.9	22.9	5.99e-01	0	43	0	316669952	63	4504
2026-01-24 06:33:59.51	301.05	5.69	-46.6	-48.3	22.4	6.03e-01	0	43	0	318767104	63	4735
2026-01-24 06:34:00.52	300.95	5.63	-46.4	-48.0	22.7	5.99e-01	0	43	0	320864256	63	4584
2026-01-24 06:34:01.52	300.84	5.57	-46.4	-48.0	22.7	6.01e-01	0	43	0	322437120	63	4556
2026-01-24 06:34:02.53	300.73	5.50	-46.5	-48.1	22.6	6.02e-01	0	44	0	324534272	63	4609
2026-01-24 06:34:03.54	300.63	5.44	-46.4	-48.0	22.7	6.00e-01	0	43	0	326107136	63	4572
2026-01-24 06:34:04.55	300.52	5.38	-46.3	-47.9	22.8	5.99e-01	0	43	0	328204288	63	4500
2026-01-24 06:34:05.56	300.42	5.32	-46.5	-48.2	22.5	5.98e-01	0	43	0	329777152	63	4665
2026-01-24 06:34:06.56	300.32	5.26	-46.6	-48.3	22.3	6.03e-01	0	43	0	331874304	63	4734
2026-01-24 06:34:07.57	300.21	5.20	-46.3	-47.9	22.7	6.02e-01	0	43	0	333971456	63	4530
2026-01-24 06:34:08.58	300.11	5.14	-46.7	-48.4	22.1	5.98e-01	0	43	0	336068608	64	4510
2026-01-24 06:34:09.59	300.01	5.08	-46.7	-48.4	22.1	5.98e-01	0	44	0	337641472	64	4540
2026-01-24 06:34:10.59	299.91	5.02	-49.4	-52.2	19.3	6.00e-01	0	43	0	339738624	69	5219
2026-01-24 06:34:11.60	299.80	4.95	-54.1	-71.8	3.8	7.44e-01	0	44	104	340262912	78	29897
2026-01-24 06:34:12.61	299.70	4.89	-54.3	-72.0	3.8	7.48e-01	0	44	104	340262912	79	28729
2026-01-24 06:34:13.62	299.60	4.83	-54.6	-72.2	3.8	7.46e-01	0	44	104	340262912	79	29536
2026-01-24 06:34:14.63	299.50	4.77	-54.7	-72.5	3.8	7.44e-01	0	43	104	340262912	80	28754
2026-01-24 06:34:15.63	299.40	4.71	-54.8	-72.6	3.8	7.45e-01	0	43	104	340262912	80	29280
2026-01-24 06:34:16.64	299.30	4.65	-54.9	-72.7	3.8	7.45e-01	0	44	104	340262912	80	29658
2026-01-24 06:34:17.65	299.21	4.59	-55.1	-72.8	3.8	7.44e-01	0	44	104	340262912	80	29992
2026-01-24 06:34:18.66	299.11	4.53	-55.2	-73.0	3.8	7.43e-01	0	44	104	340262912	80	30511
2026-01-24 06:34:19.67	299.01	4.47	-55.3	-73.2	3.8	7.46e-01	0	44	104	340262912	81	29380
2026-01-24 06:34:20.68	298.91	4.41	-55.4	-73.2	3.8	7.44e-01	0	44	104	340262912	81	29559
2026-01-24 06:34:21.69	298.81	4.35	-55.5	-73.3	3.8	7.45e-01	0	44	104	340262912	81	29840
2026-01-24 06:34:22.69	298.72	4.29	-55.5	-73.3	3.8	7.45e-01	0	44	104	340262912	81	29949
2026-01-24 06:34:23.70	298.62	4.23	-55.6	-73.4	3.8	7.46e-01	0	44	104	340262912	81	30131
2026-01-24 06:34:24.71	298.53	4.17	-55.7	-73.4	3.8	7.48e-01	0	44	104	340262912	81	30362
2026-01-24 06:34:25.72	298.43	4.11	-55.7	-73.5	3.8	7.46e-01	0	44	104	340262912	81	30455
2026-01-24 06:34:26.72	298.34	4.05	-55.7	-73.5	3.8	7.46e-01	0	43	104	340262912	81	30560
2026-01-24 06:34:27.73	298.24	3.99	-55.7	-73.5	3.8	7.43e-01	0	44	104	340262912	81	30485
2026-01-24 06:34:28.74	298.15	3.93	-55.7	-73.5	3.8	7.45e-01	0	44	104	340262912	81	30634
2026-01-24 06:34:29.75	298.06	3.87	-55.7	-73.5	3.8	7.41e-01	0	44	104	340262912	82	28982
2026-01-24 06:34:30.76	297.96	3.81	-55.7	-73.6	3.8	7.46e-01	0	43	104	340262912	82	29048
2026-01-24 06:34:31.77	297.87	3.75	-55.7	-73.5	3.8	7.45e-01	0	44	104	340262912	82	28965
2026-01-24 06:34:32.78	297.78	3.69	-55.7	-73.5	3.8	7.40e-01	0	44	104	340262912	82	28916
2026-01-24 06:34:33.79	297.69	3.63	-55.7	-73.5	3.8	7.45e-01	0	43	104	340262912	82	28869
2026-01-24 06:34:34.79	297.60	3.58	-55.7	-73.5	3.8	7.42e-01	0	43	104	340262912	82	28756
2026-01-24 06:34:35.80	297.51	3.52	-55.6	-73.4	3.8	7.45e-01	0	43	104	340262912	82	28655
2026-01-24 06:34:36.81	297.42	3.46	-55.6	-73.4	3.8	7.45e-01	0	43	104	340262912	82	28614
2026-01-24 06:34:37.82	297.33	3.40	-55.6	-73.4	3.8	7.49e-01	0	44	104	340262912	82	28563
2026-01-24 06:34:38.83	297.24	3.34	-55.5	-73.4	3.8	7.44e-01	0	43	104	340262912	82	28436
2026-01-24 06:34:39.83	297.15	3.28	-55.5	-73.3	3.8	7.46e-01	0	44	104	340262912	82	28232
2026-01-24 06:34:40.84	297.06	3.22	-55.5	-73.3	3.8	7.44e-01	0	44	104	340262912	82	28133
2026-01-24 06:34:41.85	296.97	3.16	-55.4	-73.3	3.8	7.50e-01	0	44	104	340262912	82	28109
2026-01-24 06:34:42.86	296.88	3.11	-55.5	-73.3	3.8	7.45e-01	0	43	104	340262912	82	28147
2026-01-24 06:34:43.87	296.80	3.05	-55.4	-73.2	3.8	7.45e-01	0	43	104	340262912	82	27825
2026-01-24 06:34:44.88	296.71	2.99	-55.3	-73.2	3.8	7.45e-01	0	44	104	340262912	82	27752
2026-01-24 06:34:45.89	296.62	2.93	-55.3	-73.1	3.8	7.45e-01	0	44	104	340262912	82	27667
2026-01-24 06:34:46.90	296.53	2.87	-55.3	-73.1	3.8	7.43e-01	0	44	104	340262912	82	27630
2026-01-24 06:34:47.91	296.45	2.81	-55.3	-73.1	3.8	7.45e-01	0	43	104	340262912	82	27662
2026-01-24 06:34:48.91	296.36	2.76	-55.3	-73.1	3.8	7.45e-01	0	44	104	340262912	82	27666
2026-01-24 06:34:49.92	296.28	2.70	-55.3	-73.1	3.8	7.46e-01	0	44	104	340262912	82	27577
2026-01-24 06:34:50.93	296.19	2.64	-55.3	-73.1	3.8	7.46e-01	0	44	104	340262912	82	27532
2026-01-24 06:34:51.94	296.11	2.58	-55.2	-73.1	3.8	7.44e-01	0	44	104	340262912	82	27514
2026-01-24 06:34:52.95	296.02	2.52	-55.3	-73.1	3.8	7.49e-01	0	44	104	340262912	82	27458
2026-01-24 06:34:53.95	295.94	2.47	-55.2	-73.0	3.8	7.45e-01	0	44	104	340262912	82	27381
2026-01-24 06:34:54.97	295.86	2.41	-55.2	-73.1	3.8	7.45e-01	0	44	104	340262912	82	27401
2026-01-24 06:34:55.97	295.78	2.35	-55.2	-73.0	3.8	7.45e-01	0	44	104	340262912	82	27366
2026-01-24 06:34:56.99	295.69	2.29	-55.2	-73.0	3.8	7.47e-01	0	44	104	340262912	82	27304
2026-01-24 06:34:57.99	295.61	2.24	-55.2	-73.0	3.8	7.46e-01	0	44	104	340262912	82	27240
2026-01-24 06:34:59.00	295.53	2.18	-55.2	-73.0	3.8	7.48e-01	0	44	104	340262912	82	27303
2026-01-24 06:35:00.01	295.45	2.12	-55.2	-73.0	3.8	7.48e-01	0	44	104	340262912	82	27271
2026-01-24 06:35:01.02	295.37	2.07	-55.2	-73.0	3.8	7.43e-01	0	44	104	340262912	82	27280
2026-01-24 06:35:02.03	295.28	2.01	-55.2	-73.0	3.8	7.43e-01	0	44	104	340262912	82	27184

#Closed at: 2026-01-24 06:35:02
#Recorded file [340 MB]: D:/lorett/data/31041_260124_092456.dat