passes_logs/2026/01/24/R3.2S_Murmansk/R3.2S_Murmansk__20260124_230038_FENGYUN_3D_rec.log

#Pass ID: 20260124_230038_FENGYUN 3D
#Satellite: FENGYUN 3D
#Configuration: FENGYUN 3D
#almurnet v.1.7.20251203
#Start time: 2026-01-24 23:00:40

#Version: 2.2.20231116
#Station: R3.2S_Murmansk
#Location: 33.079688 lon 68.888172 lat
#TLE: 1 43010U 17072A   26024.51794477  .00000040  00000+0  40682-4 0  9990
#TLE: 2 43010  98.9961 356.4820 0002494  91.2631 268.8830 14.19699550424601

#Time	Az	El	Level	Level2	SNR	BER	BlckErr	Temp	State	Recorded	gain1	gain2
2026-01-24 23:00:40.81	19.98	2.09	-53.2	-65.2	3.8	8.47e-01	0	42	0	0	77	14772
2026-01-24 23:00:41.81	20.08	2.13	-53.2	-65.2	3.8	8.46e-01	0	41	104	0	77	14859
2026-01-24 23:00:42.82	20.19	2.17	-53.2	-65.2	3.8	8.46e-01	0	41	104	0	77	14836
2026-01-24 23:00:43.82	20.30	2.21	-53.2	-65.2	3.8	8.46e-01	0	41	104	0	77	14793
2026-01-24 23:00:44.83	20.41	2.24	-53.2	-65.2	3.8	8.47e-01	0	42	104	0	77	14791
2026-01-24 23:00:45.84	20.53	2.28	-53.2	-65.2	3.8	8.46e-01	0	42	104	0	77	14777
2026-01-24 23:00:46.85	20.64	2.32	-53.2	-65.2	3.8	8.46e-01	0	42	104	0	77	14802
2026-01-24 23:00:47.86	20.75	2.36	-53.2	-65.2	3.8	8.45e-01	0	42	104	0	77	14819
2026-01-24 23:00:48.86	20.86	2.40	-53.2	-65.2	3.8	8.48e-01	0	42	104	0	77	14787
2026-01-24 23:00:49.87	20.97	2.44	-53.2	-65.2	3.8	8.46e-01	0	42	104	0	77	14792
2026-01-24 23:00:50.88	21.08	2.48	-53.2	-65.2	3.8	8.47e-01	0	42	104	0	77	14842
2026-01-24 23:00:51.89	21.19	2.52	-53.2	-65.2	3.8	8.45e-01	0	42	104	0	77	14777
2026-01-24 23:00:52.89	21.31	2.56	-53.2	-65.2	3.8	8.46e-01	0	42	104	0	77	14788
2026-01-24 23:00:53.90	21.42	2.60	-53.2	-65.2	3.8	8.45e-01	0	42	104	0	77	14776
2026-01-24 23:00:54.91	21.53	2.63	-53.2	-65.2	3.8	8.46e-01	0	42	104	0	77	14764
2026-01-24 23:00:55.92	21.65	2.67	-53.2	-65.2	3.8	8.48e-01	0	42	104	0	77	14755
2026-01-24 23:00:56.93	21.76	2.71	-53.2	-65.2	3.8	8.46e-01	0	42	104	0	77	14801
2026-01-24 23:00:57.93	21.87	2.75	-53.2	-65.2	3.8	8.46e-01	0	42	104	0	77	14783
2026-01-24 23:00:58.94	21.99	2.79	-53.2	-65.2	3.8	8.46e-01	0	42	104	0	77	14764
2026-01-24 23:00:59.95	22.10	2.83	-53.2	-65.2	3.8	8.46e-01	0	42	104	0	77	14792
2026-01-24 23:01:00.93	22.21	2.87	-53.2	-65.2	3.8	8.45e-01	0	42	104	0	77	14779
2026-01-24 23:01:01.93	22.33	2.90	-53.2	-65.2	3.8	8.45e-01	0	42	104	0	77	14755
2026-01-24 23:01:02.94	22.44	2.94	-53.2	-65.2	3.8	8.46e-01	0	42	104	0	77	14778
2026-01-24 23:01:03.95	22.56	2.98	-53.2	-65.2	3.8	8.46e-01	0	42	104	0	77	14779
2026-01-24 23:01:04.96	22.68	3.02	-53.3	-65.2	3.8	8.47e-01	0	42	104	0	77	14788
2026-01-24 23:01:05.97	22.79	3.06	-53.3	-65.2	3.8	8.46e-01	0	42	104	0	77	14780
2026-01-24 23:01:06.97	22.91	3.10	-53.3	-65.2	3.8	8.45e-01	0	42	104	0	77	14802
2026-01-24 23:01:07.98	23.02	3.14	-53.2	-65.2	3.8	8.46e-01	0	42	104	0	77	14803
2026-01-24 23:01:08.99	23.14	3.17	-53.2	-65.2	3.8	8.46e-01	0	42	104	0	77	14820
2026-01-24 23:01:10.00	23.26	3.21	-53.2	-65.2	3.8	8.46e-01	0	42	104	0	77	14791
2026-01-24 23:01:11.01	23.38	3.25	-53.2	-65.2	3.8	8.46e-01	0	42	104	0	77	14781
2026-01-24 23:01:12.01	23.49	3.29	-53.2	-65.2	3.8	8.45e-01	0	42	104	0	77	14807
2026-01-24 23:01:13.02	23.61	3.33	-53.2	-65.2	3.8	8.45e-01	0	42	104	0	77	14793
2026-01-24 23:01:14.03	23.73	3.37	-53.2	-65.2	3.8	8.46e-01	0	42	104	0	77	14835
2026-01-24 23:01:15.04	23.85	3.40	-53.2	-65.2	3.8	8.46e-01	0	42	104	0	77	14792
2026-01-24 23:01:16.04	23.97	3.44	-53.2	-65.2	3.8	8.45e-01	0	42	104	0	77	14822
2026-01-24 23:01:17.05	24.09	3.48	-53.3	-65.2	3.8	8.45e-01	0	42	104	0	77	14808
2026-01-24 23:01:18.06	24.21	3.52	-53.2	-65.2	3.8	8.46e-01	0	43	104	0	77	14800
2026-01-24 23:01:19.07	24.33	3.56	-53.3	-65.2	3.8	8.46e-01	0	42	104	0	77	14763
2026-01-24 23:01:20.07	24.45	3.59	-53.2	-65.2	3.8	8.45e-01	0	43	104	0	77	14801
2026-01-24 23:01:21.08	24.57	3.63	-53.2	-65.2	3.8	8.46e-01	0	42	104	0	77	14773
2026-01-24 23:01:22.09	24.69	3.67	-53.2	-65.2	3.8	8.45e-01	0	42	104	0	77	14791
2026-01-24 23:01:23.10	24.81	3.71	-53.2	-65.2	3.8	8.46e-01	0	42	104	0	77	14784
2026-01-24 23:01:24.10	24.93	3.74	-53.3	-65.2	3.8	8.45e-01	0	42	104	0	77	14830
2026-01-24 23:01:25.11	25.05	3.78	-53.3	-65.2	3.8	8.46e-01	0	42	104	0	77	14804
2026-01-24 23:01:26.12	25.18	3.82	-53.2	-65.2	3.8	8.46e-01	0	43	104	0	77	14803
2026-01-24 23:01:27.13	25.30	3.86	-53.2	-65.2	3.8	8.47e-01	0	42	104	0	77	14822
2026-01-24 23:01:28.13	25.42	3.89	-53.2	-65.2	3.8	8.47e-01	0	42	104	0	77	14790
2026-01-24 23:01:29.14	25.55	3.93	-53.3	-65.2	3.8	8.45e-01	0	43	104	0	77	14825
2026-01-24 23:01:30.15	25.67	3.97	-53.2	-65.2	3.8	8.46e-01	0	43	104	0	77	14768
2026-01-24 23:01:31.16	25.79	4.01	-53.2	-65.2	3.8	8.47e-01	0	43	104	0	77	14788
2026-01-24 23:01:32.16	25.92	4.04	-53.2	-65.2	3.8	8.45e-01	0	42	104	0	77	14769
2026-01-24 23:01:33.17	26.04	4.08	-53.3	-65.2	3.8	8.46e-01	0	43	104	0	77	14784
2026-01-24 23:01:34.18	26.16	4.12	-53.2	-65.2	3.8	8.47e-01	0	43	104	0	77	14826
2026-01-24 23:01:35.19	26.29	4.15	-53.2	-65.2	3.8	8.46e-01	0	43	104	0	77	14839
2026-01-24 23:01:36.20	26.42	4.19	-53.2	-65.2	3.8	8.46e-01	0	43	104	0	77	14816
2026-01-24 23:01:37.20	26.54	4.23	-53.3	-65.2	3.8	8.46e-01	0	43	104	0	77	14785
2026-01-24 23:01:38.21	26.67	4.27	-53.2	-65.2	3.8	8.46e-01	0	43	104	0	77	14787
2026-01-24 23:01:39.22	26.79	4.30	-53.2	-65.2	3.8	8.46e-01	0	43	104	0	77	14817
2026-01-24 23:01:40.23	26.92	4.34	-53.3	-65.2	3.8	8.46e-01	0	43	104	0	77	14783
2026-01-24 23:01:41.24	27.05	4.38	-53.3	-65.2	3.8	8.46e-01	0	43	104	0	77	14810
2026-01-24 23:01:42.24	27.17	4.41	-53.2	-65.2	3.8	8.46e-01	0	43	104	0	77	14804
2026-01-24 23:01:43.25	27.30	4.45	-53.3	-65.2	3.8	8.46e-01	0	43	104	0	77	14824
2026-01-24 23:01:44.26	27.43	4.49	-53.2	-65.2	3.8	8.47e-01	0	43	104	0	77	14771
2026-01-24 23:01:45.27	27.56	4.52	-53.3	-65.2	3.8	8.47e-01	0	43	104	0	77	14811
2026-01-24 23:01:46.27	27.68	4.56	-53.2	-65.2	3.8	8.47e-01	0	43	104	0	77	14825
2026-01-24 23:01:47.28	27.81	4.59	-53.2	-65.2	3.8	8.45e-01	0	43	104	0	77	14767
2026-01-24 23:01:48.29	27.94	4.63	-53.2	-65.2	3.8	8.46e-01	0	43	104	0	77	14797
2026-01-24 23:01:49.30	28.07	4.67	-53.3	-65.2	3.8	8.46e-01	0	43	104	0	77	14810
2026-01-24 23:01:50.31	28.20	4.70	-53.3	-65.2	3.8	8.45e-01	0	43	104	0	77	14812
2026-01-24 23:01:51.32	28.33	4.74	-53.3	-65.2	3.8	8.46e-01	0	43	104	0	77	14786
2026-01-24 23:01:52.32	28.46	4.78	-53.3	-65.2	3.8	8.46e-01	0	43	104	0	77	14791
2026-01-24 23:01:53.33	28.59	4.81	-53.3	-65.2	3.8	8.46e-01	0	43	104	0	77	14817
2026-01-24 23:01:54.34	28.72	4.85	-53.3	-65.2	3.8	8.46e-01	0	43	104	0	77	14850
2026-01-24 23:01:55.34	28.85	4.88	-53.2	-65.2	3.8	8.46e-01	0	43	104	0	77	14775
2026-01-24 23:01:56.35	28.98	4.92	-53.2	-65.2	3.8	8.46e-01	0	43	104	0	77	14811
2026-01-24 23:01:57.36	29.11	4.95	-53.3	-65.2	3.8	8.46e-01	0	43	104	0	77	14840
2026-01-24 23:01:58.37	29.25	4.99	-53.3	-65.2	3.8	8.47e-01	0	43	104	0	77	14839
2026-01-24 23:01:59.37	29.38	5.03	-53.2	-65.2	3.8	8.46e-01	0	43	104	0	77	14796
2026-01-24 23:02:00.38	29.51	5.06	-53.2	-65.2	3.8	8.47e-01	0	43	104	0	77	14774
2026-01-24 23:02:01.39	29.64	5.10	-53.3	-65.2	3.8	8.46e-01	0	43	104	0	77	14804
2026-01-24 23:02:02.40	29.78	5.13	-53.2	-65.2	3.8	8.48e-01	0	43	104	0	77	14754
2026-01-24 23:02:03.41	29.91	5.17	-53.3	-65.2	3.8	8.46e-01	0	43	104	0	77	14821
2026-01-24 23:02:04.42	30.04	5.20	-53.3	-65.2	3.8	8.46e-01	0	43	104	0	77	14778
2026-01-24 23:02:05.43	30.18	5.24	-53.2	-65.2	3.8	8.46e-01	0	43	104	0	77	14820
2026-01-24 23:02:06.44	30.31	5.27	-53.3	-65.2	3.8	8.45e-01	0	43	104	0	77	14777
2026-01-24 23:02:07.44	30.45	5.31	-53.2	-65.2	3.8	8.47e-01	0	43	104	0	77	14764
2026-01-24 23:02:08.45	30.58	5.34	-53.3	-65.2	3.8	8.47e-01	0	43	104	0	77	14803
2026-01-24 23:02:09.46	30.72	5.38	-53.3	-65.2	3.8	8.46e-01	0	43	104	0	77	14777
2026-01-24 23:02:10.47	30.85	5.41	-53.2	-65.2	3.8	8.46e-01	0	43	104	0	77	14770
2026-01-24 23:02:11.48	30.99	5.45	-53.2	-65.2	3.8	8.45e-01	0	43	104	0	77	14763
2026-01-24 23:02:12.48	31.12	5.48	-53.3	-65.2	3.8	8.46e-01	0	43	104	0	77	14822
2026-01-24 23:02:13.49	31.26	5.51	-53.3	-65.2	3.8	8.46e-01	0	43	104	0	77	14816
2026-01-24 23:02:14.50	31.40	5.55	-53.3	-65.2	3.8	8.46e-01	0	43	104	0	77	14763
2026-01-24 23:02:15.51	31.54	5.58	-53.3	-65.2	3.8	8.47e-01	0	43	104	0	77	14844
2026-01-24 23:02:16.52	31.67	5.62	-53.3	-65.2	3.8	8.46e-01	0	43	104	0	77	14784
2026-01-24 23:02:17.52	31.81	5.65	-53.3	-65.2	3.8	8.46e-01	0	43	104	0	77	14813
2026-01-24 23:02:18.53	31.95	5.68	-53.3	-65.2	3.8	8.46e-01	0	43	104	0	77	14846
2026-01-24 23:02:19.54	32.09	5.72	-53.3	-65.2	3.8	8.47e-01	0	43	104	0	77	14807
2026-01-24 23:02:20.55	32.23	5.75	-53.3	-65.2	3.8	8.47e-01	0	43	104	0	77	14839
2026-01-24 23:02:21.56	32.36	5.79	-53.3	-65.2	3.8	8.46e-01	0	43	104	0	77	14820
2026-01-24 23:02:22.56	32.50	5.82	-53.3	-65.2	3.8	8.47e-01	0	43	104	0	77	14791
2026-01-24 23:02:23.57	32.64	5.85	-53.3	-65.2	3.8	8.46e-01	0	43	104	0	77	14804
2026-01-24 23:02:24.58	32.78	5.89	-53.3	-65.2	3.8	8.47e-01	0	43	104	0	77	14807
2026-01-24 23:02:25.59	32.92	5.92	-53.3	-65.2	3.8	8.45e-01	0	43	104	0	77	14813
2026-01-24 23:02:26.59	33.06	5.95	-53.3	-65.2	3.8	8.46e-01	0	43	104	0	77	14821
2026-01-24 23:02:27.60	33.20	5.98	-53.3	-65.2	3.8	8.46e-01	0	43	104	0	77	14824
2026-01-24 23:02:28.61	33.35	6.02	-53.3	-65.2	3.8	8.46e-01	0	43	104	0	77	14839
2026-01-24 23:02:29.62	33.49	6.05	-53.3	-65.2	3.8	8.45e-01	0	43	104	0	77	14781
2026-01-24 23:02:30.63	33.63	6.08	-53.3	-65.2	3.8	8.46e-01	0	43	104	0	77	14814
2026-01-24 23:02:31.64	33.77	6.12	-53.3	-65.2	3.8	8.47e-01	0	43	104	0	77	14857
2026-01-24 23:02:32.65	33.91	6.15	-53.3	-65.2	3.8	8.46e-01	0	43	104	0	77	14819
2026-01-24 23:02:33.66	34.06	6.18	-53.3	-65.2	3.8	8.45e-01	0	43	104	0	77	14812
2026-01-24 23:02:34.66	34.20	6.21	-53.2	-65.2	3.8	8.47e-01	0	43	104	0	77	14763
2026-01-24 23:02:35.67	34.34	6.25	-53.3	-65.2	3.8	8.47e-01	0	43	104	0	77	14794
2026-01-24 23:02:36.68	34.49	6.28	-53.2	-65.2	3.8	8.47e-01	0	43	104	0	77	14804
2026-01-24 23:02:37.69	34.63	6.31	-53.3	-65.2	3.8	8.47e-01	0	43	104	0	77	14801
2026-01-24 23:02:38.70	34.78	6.34	-53.3	-65.2	3.8	8.46e-01	0	43	104	0	77	14817
2026-01-24 23:02:39.70	34.92	6.37	-53.3	-65.2	3.8	8.47e-01	0	43	104	0	77	14823
2026-01-24 23:02:40.71	35.06	6.40	-53.2	-65.2	3.8	8.46e-01	0	43	104	0	77	14825
2026-01-24 23:02:41.72	35.21	6.44	-53.3	-65.2	3.8	8.47e-01	0	43	104	0	77	14807
2026-01-24 23:02:42.73	35.36	6.47	-53.3	-65.2	3.8	8.47e-01	0	43	104	0	77	14808
2026-01-24 23:02:43.74	35.50	6.50	-53.2	-65.2	3.8	8.47e-01	0	43	104	0	77	14822
2026-01-24 23:02:44.74	35.65	6.53	-53.3	-65.2	3.8	8.45e-01	0	43	104	0	77	14820
2026-01-24 23:02:45.75	35.79	6.56	-53.3	-65.2	3.8	8.46e-01	0	43	104	0	77	14761
2026-01-24 23:02:46.76	35.94	6.59	-53.3	-65.2	3.8	8.46e-01	0	43	104	0	77	14761
2026-01-24 23:02:47.77	36.09	6.62	-53.3	-65.2	3.8	8.46e-01	0	43	104	0	77	14788
2026-01-24 23:02:48.77	36.23	6.65	-53.3	-65.2	3.8	8.45e-01	0	43	104	0	77	14796
2026-01-24 23:02:49.78	36.38	6.68	-53.2	-65.2	3.8	8.46e-01	0	43	104	0	77	14761
2026-01-24 23:02:50.79	36.53	6.71	-53.3	-65.2	3.8	8.46e-01	0	43	104	0	77	14828
2026-01-24 23:02:51.80	36.68	6.75	-53.3	-65.2	3.8	8.46e-01	0	43	104	0	77	14825
2026-01-24 23:02:52.81	36.83	6.78	-53.3	-65.2	3.8	8.47e-01	0	43	104	0	77	14834
2026-01-24 23:02:53.81	36.97	6.81	-53.3	-65.2	3.8	8.46e-01	0	43	104	0	77	14808
2026-01-24 23:02:54.82	37.12	6.84	-53.3	-65.2	3.8	8.47e-01	0	43	104	0	77	14812
2026-01-24 23:02:55.83	37.27	6.87	-53.3	-65.2	3.8	8.46e-01	0	43	104	0	77	14820
2026-01-24 23:02:56.84	37.42	6.90	-53.3	-65.2	3.8	8.46e-01	0	43	104	0	77	14819
2026-01-24 23:02:57.85	37.57	6.92	-53.2	-65.2	3.8	8.46e-01	0	43	104	0	77	14805
2026-01-24 23:02:58.85	37.72	6.95	-53.3	-65.2	3.8	8.46e-01	0	43	104	0	77	14800
2026-01-24 23:02:59.86	37.87	6.98	-53.3	-65.2	3.8	8.46e-01	0	43	104	0	77	14846
2026-01-24 23:03:00.87	38.02	7.01	-53.3	-65.2	3.8	8.46e-01	0	43	104	0	77	14797
2026-01-24 23:03:01.87	38.17	7.04	-53.3	-65.2	3.8	8.47e-01	0	43	104	0	77	14765
2026-01-24 23:03:02.88	38.33	7.07	-53.3	-65.2	3.8	8.47e-01	0	43	104	0	77	14806
2026-01-24 23:03:03.89	38.48	7.10	-53.3	-65.2	3.8	8.47e-01	0	43	104	0	77	14783
2026-01-24 23:03:04.90	38.63	7.13	-53.3	-65.2	3.8	8.46e-01	0	43	104	0	77	14823
2026-01-24 23:03:05.91	38.78	7.16	-53.3	-65.2	3.8	8.46e-01	0	43	104	0	77	14809
2026-01-24 23:03:06.92	38.93	7.18	-53.3	-65.2	3.8	8.45e-01	0	43	104	0	77	14806
2026-01-24 23:03:07.92	39.09	7.21	-53.2	-65.2	3.8	8.46e-01	0	43	104	0	77	14812
2026-01-24 23:03:08.93	39.24	7.24	-53.3	-65.2	3.8	8.47e-01	0	43	104	0	77	14781
2026-01-24 23:03:09.94	39.39	7.27	-53.3	-65.2	3.8	8.47e-01	0	43	104	0	77	14765
2026-01-24 23:03:10.94	39.55	7.30	-53.3	-65.2	3.8	8.45e-01	0	43	104	0	77	14784
2026-01-24 23:03:11.95	39.70	7.32	-53.3	-65.2	3.8	8.47e-01	0	43	104	0	77	14760
2026-01-24 23:03:12.96	39.85	7.35	-53.3	-65.2	3.8	8.46e-01	0	43	104	0	77	14802
2026-01-24 23:03:13.97	40.01	7.38	-53.3	-65.2	3.8	8.45e-01	0	43	104	0	77	14801
2026-01-24 23:03:14.98	40.16	7.41	-53.3	-65.2	3.8	8.45e-01	0	43	104	0	77	14769
2026-01-24 23:03:15.98	40.32	7.43	-53.3	-65.2	3.8	8.45e-01	0	43	104	0	77	14806
2026-01-24 23:03:16.99	40.47	7.46	-53.3	-65.2	3.8	8.47e-01	0	43	104	0	77	14791
2026-01-24 23:03:18.00	40.63	7.49	-53.3	-65.2	3.8	8.46e-01	0	43	104	0	77	14806
2026-01-24 23:03:19.01	40.79	7.51	-53.3	-65.2	3.8	8.46e-01	0	43	104	0	77	14774
2026-01-24 23:03:20.02	40.94	7.54	-53.3	-65.2	3.8	8.46e-01	0	43	104	0	77	14779
2026-01-24 23:03:21.02	41.10	7.57	-53.3	-65.2	3.8	8.46e-01	0	43	104	0	77	14787
2026-01-24 23:03:22.03	41.26	7.59	-53.3	-65.2	3.8	8.46e-01	0	43	104	0	77	14822
2026-01-24 23:03:23.04	41.41	7.62	-53.3	-65.2	3.8	8.45e-01	0	43	104	0	77	14810
2026-01-24 23:03:24.05	41.57	7.65	-53.3	-65.2	3.8	8.46e-01	0	43	104	0	77	14802
2026-01-24 23:03:25.06	41.73	7.67	-53.3	-65.2	3.8	8.47e-01	0	43	104	0	77	14801
2026-01-24 23:03:26.06	41.88	7.70	-53.3	-65.2	3.8	8.46e-01	0	43	104	0	77	14801
2026-01-24 23:03:27.07	42.04	7.72	-53.3	-65.2	3.8	8.46e-01	0	43	104	0	77	14793
2026-01-24 23:03:28.08	42.20	7.75	-53.3	-65.2	3.8	8.46e-01	0	43	104	0	77	14795
2026-01-24 23:03:29.09	42.36	7.77	-53.3	-65.2	3.8	8.46e-01	0	43	104	0	77	14833
2026-01-24 23:03:30.10	42.52	7.80	-53.2	-65.2	3.8	8.46e-01	0	44	104	0	77	14776
2026-01-24 23:03:31.11	42.68	7.82	-53.3	-65.2	3.8	8.46e-01	0	44	104	0	77	14818
2026-01-24 23:03:32.12	42.84	7.85	-53.3	-65.2	3.8	8.46e-01	0	43	104	0	77	14815
2026-01-24 23:03:33.12	43.00	7.87	-53.3	-65.2	3.8	8.46e-01	0	43	104	0	77	14845
2026-01-24 23:03:34.13	43.16	7.90	-53.3	-65.2	3.8	8.47e-01	0	43	104	0	77	14793
2026-01-24 23:03:35.14	43.32	7.92	-53.2	-65.2	3.8	8.46e-01	0	44	104	0	77	14790
2026-01-24 23:03:36.15	43.48	7.94	-53.3	-65.2	3.8	8.46e-01	0	43	104	0	77	14808
2026-01-24 23:03:37.16	43.64	7.97	-53.3	-65.2	3.8	8.46e-01	0	43	104	0	77	14781
2026-01-24 23:03:38.16	43.80	7.99	-53.3	-65.2	3.8	8.46e-01	0	43	104	0	77	14788
2026-01-24 23:03:39.17	43.96	8.01	-53.3	-65.2	3.8	8.47e-01	0	43	104	0	77	14830
2026-01-24 23:03:40.18	44.12	8.04	-53.3	-65.2	3.8	8.46e-01	0	43	104	0	77	14818
2026-01-24 23:03:41.18	44.28	8.06	-53.3	-65.2	3.8	8.45e-01	0	43	104	0	77	14824
2026-01-24 23:03:42.19	44.45	8.08	-53.3	-65.2	3.8	8.46e-01	0	43	104	0	77	14802
2026-01-24 23:03:43.20	44.61	8.11	-53.3	-65.2	3.8	8.46e-01	0	43	104	0	77	14812
2026-01-24 23:03:44.21	44.77	8.13	-53.3	-65.2	3.8	8.46e-01	0	43	104	0	77	14792
2026-01-24 23:03:45.22	44.93	8.15	-53.3	-65.2	3.8	8.46e-01	0	43	104	0	77	14797
2026-01-24 23:03:46.22	45.10	8.17	-53.3	-65.2	3.8	8.46e-01	0	44	104	0	77	14792
2026-01-24 23:03:47.23	45.26	8.20	-53.3	-65.2	3.8	8.46e-01	0	43	104	0	77	14818
2026-01-24 23:03:48.24	45.42	8.22	-53.3	-65.2	3.8	8.46e-01	0	43	104	0	77	14836
2026-01-24 23:03:49.25	45.59	8.24	-53.3	-65.2	3.8	8.46e-01	0	43	104	0	77	14824
2026-01-24 23:03:50.25	45.75	8.26	-53.3	-65.2	3.8	8.46e-01	0	43	104	0	77	14860
2026-01-24 23:03:51.26	45.91	8.28	-53.3	-65.2	3.8	8.46e-01	0	44	104	0	77	14818
2026-01-24 23:03:52.27	46.08	8.30	-53.3	-65.2	3.8	8.46e-01	0	43	104	0	77	14808
2026-01-24 23:03:53.28	46.24	8.32	-53.3	-65.2	3.8	8.47e-01	0	44	104	0	77	14816
2026-01-24 23:03:54.29	46.41	8.34	-53.3	-65.2	3.8	8.46e-01	0	43	104	0	77	14808
2026-01-24 23:03:55.29	46.57	8.36	-53.3	-65.2	3.8	8.45e-01	0	43	104	0	77	14781
2026-01-24 23:03:56.30	46.74	8.39	-53.3	-65.2	3.8	8.46e-01	0	43	104	0	77	14835
2026-01-24 23:03:57.31	46.90	8.41	-53.3	-65.2	3.8	8.45e-01	0	44	104	0	77	14828
2026-01-24 23:03:58.31	47.07	8.43	-53.3	-65.2	3.8	8.46e-01	0	44	104	0	77	14801
2026-01-24 23:03:59.32	47.24	8.45	-53.3	-65.2	3.8	8.45e-01	0	43	104	0	77	14824
2026-01-24 23:04:00.33	47.40	8.46	-53.3	-65.2	3.8	8.46e-01	0	43	104	0	77	14791
2026-01-24 23:04:01.34	47.57	8.48	-53.3	-65.2	3.8	8.45e-01	0	43	104	0	77	14789
2026-01-24 23:04:02.34	47.73	8.50	-53.3	-65.2	3.8	8.46e-01	0	43	104	0	77	14808
2026-01-24 23:04:03.35	47.90	8.52	-53.3	-65.2	3.8	8.46e-01	0	43	104	0	77	14787
2026-01-24 23:04:04.36	48.07	8.54	-53.3	-65.2	3.8	8.46e-01	0	43	104	0	77	14815
2026-01-24 23:04:05.37	48.24	8.56	-53.2	-65.2	3.8	8.46e-01	0	44	104	0	77	14823
2026-01-24 23:04:06.38	48.40	8.58	-53.2	-65.2	3.8	8.45e-01	0	44	104	0	77	14784
2026-01-24 23:04:07.38	48.57	8.60	-53.3	-65.2	3.8	8.45e-01	0	43	104	0	77	14761
2026-01-24 23:04:08.39	48.74	8.62	-53.3	-65.2	3.8	8.46e-01	0	43	104	0	77	14828
2026-01-24 23:04:09.40	48.91	8.63	-53.3	-65.2	3.8	8.46e-01	0	43	104	0	77	14781
2026-01-24 23:04:10.41	49.08	8.65	-53.3	-65.2	3.8	8.45e-01	0	44	104	0	77	14796
2026-01-24 23:04:11.41	49.24	8.67	-53.3	-65.2	3.8	8.47e-01	0	44	104	0	77	14768
2026-01-24 23:04:12.42	49.41	8.69	-53.2	-65.2	3.8	8.46e-01	0	44	104	0	77	14804
2026-01-24 23:04:13.43	49.58	8.70	-53.3	-65.2	3.8	8.46e-01	0	44	104	0	77	14811
2026-01-24 23:04:14.43	49.75	8.72	-53.3	-65.2	3.8	8.45e-01	0	43	104	0	77	14812
2026-01-24 23:04:15.44	49.92	8.74	-53.3	-65.2	3.8	8.47e-01	0	44	104	0	77	14779
2026-01-24 23:04:16.45	50.09	8.75	-53.3	-65.2	3.8	8.46e-01	0	43	104	0	77	14782
2026-01-24 23:04:17.46	50.26	8.77	-53.3	-65.2	3.8	8.46e-01	0	44	104	0	77	14830
2026-01-24 23:04:18.47	50.43	8.79	-53.2	-65.2	3.8	8.45e-01	0	43	104	0	77	14813
2026-01-24 23:04:19.47	50.60	8.80	-53.3	-65.2	3.8	8.47e-01	0	44	104	0	77	14817
2026-01-24 23:04:20.48	50.77	8.82	-53.3	-65.2	3.8	8.46e-01	0	44	104	0	77	14827
2026-01-24 23:04:21.49	50.94	8.83	-53.3	-65.2	3.8	8.46e-01	0	44	104	0	77	14810
2026-01-24 23:04:22.50	51.11	8.85	-53.3	-65.2	3.8	8.47e-01	0	43	104	0	77	14787
2026-01-24 23:04:23.50	51.28	8.86	-53.3	-65.2	3.8	8.46e-01	0	44	104	0	77	14836
2026-01-24 23:04:24.51	51.45	8.88	-53.3	-65.2	3.8	8.45e-01	0	43	104	0	77	14800
2026-01-24 23:04:25.52	51.62	8.89	-53.3	-65.2	3.8	8.47e-01	0	43	104	0	77	14800
2026-01-24 23:04:26.52	51.79	8.91	-53.3	-65.2	3.8	8.47e-01	0	43	104	0	77	14838
2026-01-24 23:04:27.53	51.96	8.92	-53.3	-65.2	3.8	8.47e-01	0	44	104	0	77	14824
2026-01-24 23:04:28.54	52.13	8.93	-53.3	-65.2	3.8	8.46e-01	0	44	104	0	77	14792
2026-01-24 23:04:29.55	52.31	8.95	-53.3	-65.2	3.8	8.46e-01	0	44	104	0	77	14771
2026-01-24 23:04:30.56	52.48	8.96	-53.3	-65.2	3.8	8.47e-01	0	44	104	0	77	14779
2026-01-24 23:04:31.56	52.65	8.97	-53.3	-65.2	3.8	8.46e-01	0	44	104	0	77	14754
2026-01-24 23:04:32.57	52.82	8.99	-53.3	-65.2	3.8	8.46e-01	0	44	104	0	77	14786
2026-01-24 23:04:33.58	52.99	9.00	-53.3	-65.2	3.8	8.47e-01	0	43	104	0	77	14775
2026-01-24 23:04:34.59	53.17	9.01	-53.3	-65.2	3.8	8.47e-01	0	43	104	0	77	14810
2026-01-24 23:04:35.60	53.34	9.03	-53.3	-65.2	3.8	8.45e-01	0	43	104	0	77	14833
2026-01-24 23:04:36.60	53.51	9.04	-53.3	-65.2	3.8	8.46e-01	0	43	104	0	77	14796
2026-01-24 23:04:37.61	53.68	9.05	-53.3	-65.2	3.8	8.46e-01	0	44	104	0	77	14813
2026-01-24 23:04:38.62	53.86	9.06	-53.3	-65.2	3.8	8.45e-01	0	44	104	0	77	14845
2026-01-24 23:04:39.63	54.03	9.07	-53.3	-65.2	3.8	8.46e-01	0	44	104	0	77	14833
2026-01-24 23:04:40.63	54.20	9.09	-53.3	-65.2	3.8	8.47e-01	0	43	104	0	77	14791
2026-01-24 23:04:41.64	54.38	9.10	-53.3	-65.2	3.8	8.46e-01	0	44	104	0	77	14801
2026-01-24 23:04:42.65	54.55	9.11	-53.3	-65.2	3.8	8.46e-01	0	44	104	0	77	14831
2026-01-24 23:04:43.66	54.73	9.12	-53.3	-65.2	3.8	8.46e-01	0	44	104	0	77	14849
2026-01-24 23:04:44.67	54.90	9.13	-53.3	-65.2	3.8	8.46e-01	0	44	104	0	77	14824
2026-01-24 23:04:45.67	55.07	9.14	-53.3	-65.2	3.8	8.45e-01	0	44	104	0	77	14828
2026-01-24 23:04:46.68	55.25	9.15	-53.3	-65.2	3.8	8.47e-01	0	43	104	0	77	14824
2026-01-24 23:04:47.69	55.42	9.16	-53.3	-65.2	3.8	8.47e-01	0	44	104	0	77	14803
2026-01-24 23:04:48.70	55.60	9.17	-53.3	-65.2	3.8	8.46e-01	0	44	104	0	77	14824
2026-01-24 23:04:49.71	55.77	9.18	-53.3	-65.2	3.8	8.47e-01	0	43	104	0	77	14823
2026-01-24 23:04:50.71	55.94	9.19	-53.3	-65.2	3.8	8.45e-01	0	43	104	0	77	14798
2026-01-24 23:04:51.72	56.12	9.20	-53.3	-65.2	3.8	8.47e-01	0	43	104	0	77	14848
2026-01-24 23:04:52.73	56.29	9.20	-53.3	-65.2	3.8	8.46e-01	0	43	104	0	77	14862
2026-01-24 23:04:53.74	56.47	9.21	-53.3	-65.2	3.8	8.45e-01	0	43	104	0	77	14824
2026-01-24 23:04:54.74	56.64	9.22	-53.3	-65.2	3.8	8.47e-01	0	43	104	0	77	14764
2026-01-24 23:04:55.75	56.82	9.23	-53.3	-65.2	3.8	8.47e-01	0	44	104	0	77	14808
2026-01-24 23:04:56.76	56.99	9.24	-53.3	-65.2	3.8	8.46e-01	0	44	104	0	77	14847
2026-01-24 23:04:57.77	57.17	9.24	-53.3	-65.2	3.8	8.46e-01	0	44	104	0	77	14836
2026-01-24 23:04:58.77	57.34	9.25	-53.3	-65.2	3.8	8.47e-01	0	44	104	0	77	14784
2026-01-24 23:04:59.78	57.52	9.26	-53.3	-65.2	3.8	8.46e-01	0	44	104	0	77	14831
2026-01-24 23:05:00.79	57.69	9.27	-53.3	-65.2	3.8	8.45e-01	0	44	104	0	77	14804
2026-01-24 23:05:01.80	57.87	9.27	-53.3	-65.2	3.8	8.46e-01	0	44	104	0	77	14838
2026-01-24 23:05:02.80	58.04	9.28	-53.3	-65.2	3.8	8.46e-01	0	44	104	0	77	14830
2026-01-24 23:05:03.81	58.22	9.29	-53.3	-65.2	3.8	8.46e-01	0	44	104	0	77	14801
2026-01-24 23:05:04.82	58.40	9.29	-53.3	-65.2	3.8	8.46e-01	0	44	104	0	77	14820
2026-01-24 23:05:05.83	58.57	9.30	-53.3	-65.2	3.8	8.46e-01	0	44	104	0	77	14824
2026-01-24 23:05:06.84	58.75	9.30	-53.3	-65.2	3.8	8.47e-01	0	44	104	0	77	14786
2026-01-24 23:05:07.84	58.92	9.31	-53.2	-65.2	3.8	8.46e-01	0	44	104	0	77	14777
2026-01-24 23:05:08.85	59.10	9.31	-53.3	-65.2	3.8	8.46e-01	0	44	104	0	77	14781
2026-01-24 23:05:09.86	59.28	9.32	-53.3	-65.2	3.8	8.47e-01	0	44	104	0	77	14824
2026-01-24 23:05:10.87	59.45	9.32	-53.3	-65.2	3.8	8.46e-01	0	44	104	0	77	14810
2026-01-24 23:05:11.87	59.63	9.33	-53.3	-65.2	3.8	8.45e-01	0	44	104	0	77	14839
2026-01-24 23:05:12.88	59.80	9.33	-53.2	-65.2	3.8	8.46e-01	0	44	104	0	77	14782
2026-01-24 23:05:13.89	59.98	9.33	-53.3	-65.2	3.8	8.46e-01	0	44	104	0	77	14828
2026-01-24 23:05:14.90	60.16	9.34	-53.3	-65.2	3.8	8.47e-01	0	44	104	0	77	14808
2026-01-24 23:05:15.91	60.33	9.34	-53.3	-65.2	3.8	8.47e-01	0	44	104	0	77	14831
2026-01-24 23:05:16.91	60.51	9.34	-53.3	-65.2	3.8	8.46e-01	0	44	104	0	77	14807
2026-01-24 23:05:17.92	60.69	9.35	-53.3	-65.2	3.8	8.46e-01	0	43	104	0	77	14765
2026-01-24 23:05:18.93	60.86	9.35	-53.2	-65.2	3.8	8.45e-01	0	44	104	0	77	14780
2026-01-24 23:05:19.94	61.04	9.35	-53.3	-65.2	3.8	8.46e-01	0	44	104	0	77	14813
2026-01-24 23:05:20.94	61.21	9.35	-53.3	-65.2	3.8	8.46e-01	0	44	104	0	77	14819
2026-01-24 23:05:21.95	61.39	9.36	-53.3	-65.2	3.8	8.47e-01	0	44	104	0	77	14793
2026-01-24 23:05:22.96	61.57	9.36	-53.3	-65.2	3.8	8.47e-01	0	44	104	0	77	14804
2026-01-24 23:05:23.97	61.75	9.36	-53.3	-65.2	3.8	8.45e-01	0	44	104	0	77	14797
2026-01-24 23:05:24.98	61.92	9.36	-53.3	-65.2	3.8	8.46e-01	0	44	104	0	77	14832
2026-01-24 23:05:25.98	62.10	9.36	-53.3	-65.2	3.8	8.45e-01	0	44	104	0	77	14808
2026-01-24 23:05:26.99	62.28	9.36	-53.3	-65.2	3.8	8.46e-01	0	44	104	0	77	14798
2026-01-24 23:05:28.00	62.45	9.36	-53.3	-65.2	3.8	8.46e-01	0	44	104	0	77	14785
2026-01-24 23:05:29.01	62.63	9.36	-53.3	-65.2	3.8	8.47e-01	0	44	104	0	77	14842
2026-01-24 23:05:30.01	62.80	9.36	-53.3	-65.2	3.8	8.45e-01	0	44	104	0	77	14817
2026-01-24 23:05:31.02	62.98	9.36	-53.3	-65.2	3.8	8.47e-01	0	44	104	0	77	14794
2026-01-24 23:05:32.03	63.16	9.36	-53.3	-65.2	3.8	8.46e-01	0	44	104	0	77	14780
2026-01-24 23:05:33.04	63.34	9.36	-53.3	-65.2	3.8	8.45e-01	0	44	104	0	77	14820
2026-01-24 23:05:34.05	63.51	9.36	-53.3	-65.2	3.8	8.46e-01	0	44	104	0	77	14817
2026-01-24 23:05:35.06	63.69	9.36	-53.3	-65.2	3.8	8.47e-01	0	44	104	0	77	14792
2026-01-24 23:05:36.06	63.87	9.36	-53.3	-65.2	3.8	8.46e-01	0	44	104	0	77	14811
2026-01-24 23:05:37.07	64.04	9.36	-53.3	-65.2	3.8	8.47e-01	0	44	104	0	77	14827
2026-01-24 23:05:38.08	64.22	9.36	-53.3	-65.2	3.8	8.46e-01	0	44	104	0	77	14805
2026-01-24 23:05:39.09	64.40	9.35	-53.3	-65.2	3.8	8.46e-01	0	44	104	0	77	14829
2026-01-24 23:05:40.09	64.57	9.35	-53.3	-65.2	3.8	8.46e-01	0	44	104	0	77	14782
2026-01-24 23:05:41.11	64.75	9.35	-53.3	-65.2	3.8	8.46e-01	0	44	104	0	77	14823
2026-01-24 23:05:42.11	64.93	9.35	-53.3	-65.2	3.8	8.45e-01	0	44	104	0	77	14827
2026-01-24 23:05:43.12	65.10	9.34	-53.3	-65.2	3.8	8.46e-01	0	44	104	0	77	14792
2026-01-24 23:05:44.13	65.28	9.34	-53.3	-65.2	3.8	8.46e-01	0	44	104	0	77	14837
2026-01-24 23:05:45.14	65.46	9.34	-53.3	-65.2	3.8	8.47e-01	0	44	104	0	77	14838
2026-01-24 23:05:46.15	65.63	9.33	-53.3	-65.2	3.8	8.46e-01	0	44	104	0	77	14797
2026-01-24 23:05:47.15	65.81	9.33	-53.3	-65.2	3.8	8.46e-01	0	44	104	0	77	14825
2026-01-24 23:05:48.16	65.98	9.33	-53.3	-65.2	3.8	8.46e-01	0	44	104	0	77	14763
2026-01-24 23:05:49.17	66.16	9.32	-53.3	-65.2	3.8	8.47e-01	0	44	104	0	77	14857
2026-01-24 23:05:50.18	66.34	9.32	-53.3	-65.2	3.8	8.46e-01	0	44	104	0	77	14790
2026-01-24 23:05:51.19	66.51	9.31	-53.3	-65.2	3.8	8.46e-01	0	44	104	0	77	14851
2026-01-24 23:05:52.20	66.69	9.31	-53.3	-65.2	3.8	8.46e-01	0	44	104	0	77	14806
2026-01-24 23:05:53.20	66.87	9.30	-53.3	-65.2	3.8	8.46e-01	0	44	104	0	77	14809
2026-01-24 23:05:54.21	67.04	9.30	-53.3	-65.2	3.8	8.45e-01	0	44	104	0	77	14803
2026-01-24 23:05:55.22	67.22	9.29	-53.3	-65.2	3.8	8.47e-01	0	44	104	0	77	14792
2026-01-24 23:05:56.23	67.39	9.28	-53.3	-65.2	3.8	8.46e-01	0	44	104	0	77	14819
2026-01-24 23:05:57.24	67.57	9.28	-53.3	-65.2	3.8	8.46e-01	0	44	104	0	77	14801
2026-01-24 23:05:58.24	67.74	9.27	-53.3	-65.2	3.8	8.46e-01	0	44	104	0	77	14820
2026-01-24 23:05:59.25	67.92	9.26	-53.3	-65.2	3.8	8.47e-01	0	44	104	0	77	14801
2026-01-24 23:06:00.26	68.10	9.26	-53.3	-65.2	3.8	8.47e-01	0	44	104	0	77	14826
2026-01-24 23:06:01.26	68.27	9.25	-53.3	-65.2	3.8	8.45e-01	0	44	104	0	77	14837
2026-01-24 23:06:02.27	68.45	9.24	-53.3	-65.2	3.8	8.46e-01	0	44	104	0	77	14816
2026-01-24 23:06:03.28	68.62	9.24	-53.3	-65.2	3.8	8.46e-01	0	44	104	0	77	14879
2026-01-24 23:06:04.29	68.80	9.23	-53.3	-65.2	3.8	8.46e-01	0	44	104	0	77	14795
2026-01-24 23:06:05.30	68.97	9.22	-53.3	-65.2	3.8	8.46e-01	0	44	104	0	77	14864
2026-01-24 23:06:06.30	69.15	9.21	-53.3	-65.2	3.8	8.46e-01	0	44	104	0	77	14845
2026-01-24 23:06:07.31	69.32	9.20	-53.3	-65.2	3.8	8.45e-01	0	44	104	0	77	14790
2026-01-24 23:06:08.32	69.50	9.19	-53.3	-65.2	3.8	8.45e-01	0	44	104	0	77	14851
2026-01-24 23:06:09.33	69.67	9.18	-53.3	-65.2	3.8	8.45e-01	0	44	104	0	77	14783
2026-01-24 23:06:10.34	69.85	9.18	-53.3	-65.2	3.8	8.45e-01	0	44	104	0	77	14816
2026-01-24 23:06:11.34	70.02	9.17	-53.3	-65.2	3.8	8.46e-01	0	44	104	0	77	14826
2026-01-24 23:06:12.35	70.20	9.16	-53.3	-65.2	3.8	8.46e-01	0	44	104	0	77	14824
2026-01-24 23:06:13.36	70.37	9.15	-53.3	-65.2	3.8	8.46e-01	0	44	104	0	77	14780
2026-01-24 23:06:14.37	70.55	9.14	-53.3	-65.2	3.8	8.47e-01	0	44	104	0	77	14803
2026-01-24 23:06:15.37	70.72	9.13	-53.3	-65.2	3.8	8.45e-01	0	44	104	0	77	14833
2026-01-24 23:06:16.38	70.89	9.12	-53.3	-65.2	3.8	8.46e-01	0	44	104	0	77	14805
2026-01-24 23:06:17.39	71.07	9.10	-53.3	-65.2	3.8	8.45e-01	0	44	104	0	77	14816
2026-01-24 23:06:18.40	71.24	9.09	-53.3	-65.2	3.8	8.48e-01	0	44	104	0	77	14834
2026-01-24 23:06:19.41	71.41	9.08	-53.3	-65.2	3.8	8.46e-01	0	44	104	0	77	14807
2026-01-24 23:06:20.42	71.59	9.07	-53.3	-65.2	3.8	8.46e-01	0	44	104	0	77	14848
2026-01-24 23:06:21.42	71.76	9.06	-53.3	-65.2	3.8	8.46e-01	0	44	104	0	77	14834
2026-01-24 23:06:22.43	71.93	9.05	-53.3	-65.2	3.8	8.46e-01	0	44	104	0	77	14772
2026-01-24 23:06:23.44	72.11	9.04	-53.3	-65.2	3.8	8.46e-01	0	44	104	0	77	14814
2026-01-24 23:06:24.45	72.28	9.02	-53.3	-65.2	3.8	8.46e-01	0	44	104	0	77	14797
2026-01-24 23:06:25.45	72.45	9.01	-53.3	-65.2	3.8	8.46e-01	0	44	104	0	77	14847
2026-01-24 23:06:26.46	72.63	9.00	-53.3	-65.2	3.8	8.45e-01	0	44	104	0	77	14807
2026-01-24 23:06:27.47	72.80	8.98	-53.3	-65.2	3.8	8.47e-01	0	44	104	0	77	14777
2026-01-24 23:06:28.48	72.97	8.97	-53.3	-65.2	3.8	8.45e-01	0	44	104	0	77	14819
2026-01-24 23:06:29.48	73.14	8.96	-53.3	-65.2	3.8	8.46e-01	0	44	104	0	77	14810
2026-01-24 23:06:30.49	73.31	8.94	-53.3	-65.2	3.8	8.45e-01	0	44	104	0	77	14848
2026-01-24 23:06:31.50	73.49	8.93	-53.3	-65.3	3.8	8.46e-01	0	44	104	0	77	14904
2026-01-24 23:06:32.51	73.66	8.92	-53.3	-65.2	3.8	8.46e-01	0	44	104	0	77	14832
2026-01-24 23:06:33.52	73.83	8.90	-53.3	-65.2	3.8	8.47e-01	0	44	104	0	77	14795
2026-01-24 23:06:34.52	74.00	8.89	-53.3	-65.2	3.8	8.46e-01	0	44	104	0	77	14850
2026-01-24 23:06:35.53	74.17	8.87	-53.2	-65.2	3.8	8.47e-01	0	44	104	0	77	14780
2026-01-24 23:06:36.54	74.34	8.86	-53.3	-65.2	3.8	8.45e-01	0	44	104	0	77	14792
2026-01-24 23:06:37.55	74.51	8.84	-53.3	-65.2	3.8	8.45e-01	0	44	104	0	77	14782
2026-01-24 23:06:38.55	74.68	8.83	-53.3	-65.2	3.8	8.46e-01	0	44	104	0	77	14805
2026-01-24 23:06:39.56	74.86	8.81	-53.3	-65.2	3.8	8.47e-01	0	44	104	0	77	14828
2026-01-24 23:06:40.57	75.03	8.80	-53.3	-65.2	3.8	8.46e-01	0	44	104	0	77	14824
2026-01-24 23:06:41.58	75.20	8.78	-53.3	-65.2	3.8	8.45e-01	0	44	104	0	77	14836
2026-01-24 23:06:42.59	75.37	8.76	-53.3	-65.2	3.8	8.48e-01	0	44	104	0	77	14842
2026-01-24 23:06:43.60	75.54	8.75	-53.3	-65.2	3.8	8.46e-01	0	44	104	0	77	14780
2026-01-24 23:06:44.60	75.71	8.73	-53.3	-65.2	3.8	8.46e-01	0	44	104	0	77	14860
2026-01-24 23:06:45.61	75.88	8.71	-53.3	-65.2	3.8	8.47e-01	0	44	104	0	77	14812
2026-01-24 23:06:46.62	76.05	8.70	-53.3	-65.2	3.8	8.47e-01	0	44	104	0	77	14828
2026-01-24 23:06:47.63	76.21	8.68	-53.3	-65.2	3.8	8.46e-01	0	44	104	0	77	14837
2026-01-24 23:06:48.64	76.38	8.66	-53.3	-65.2	3.8	8.47e-01	0	44	104	0	77	14834
2026-01-24 23:06:49.65	76.55	8.65	-53.3	-65.2	3.8	8.46e-01	0	44	104	0	77	14803
2026-01-24 23:06:50.66	76.72	8.63	-53.3	-65.2	3.8	8.45e-01	0	44	104	0	77	14824
2026-01-24 23:06:51.66	76.89	8.61	-53.3	-65.2	3.8	8.47e-01	0	44	104	0	77	14799
2026-01-24 23:06:52.67	77.06	8.59	-53.3	-65.2	3.8	8.47e-01	0	44	104	0	77	14788
2026-01-24 23:06:53.68	77.23	8.57	-53.3	-65.2	3.8	8.46e-01	0	44	104	0	77	14792
2026-01-24 23:06:54.69	77.39	8.55	-53.3	-65.2	3.8	8.46e-01	0	44	104	0	77	14847
2026-01-24 23:06:55.70	77.56	8.54	-53.3	-65.2	3.8	8.45e-01	0	44	104	0	77	14799
2026-01-24 23:06:56.70	77.73	8.52	-53.3	-65.2	3.8	8.46e-01	0	44	104	0	77	14811
2026-01-24 23:06:57.71	77.90	8.50	-53.3	-65.2	3.8	8.46e-01	0	44	104	0	77	14803
2026-01-24 23:06:58.72	78.06	8.48	-53.3	-65.2	3.8	8.46e-01	0	44	104	0	77	14812
2026-01-24 23:06:59.73	78.23	8.46	-53.3	-65.2	3.8	8.46e-01	0	44	104	0	77	14836
2026-01-24 23:07:00.73	78.40	8.44	-53.3	-65.2	3.8	8.47e-01	0	44	104	0	77	14805
2026-01-24 23:07:01.74	78.56	8.42	-53.3	-65.2	3.8	8.47e-01	0	44	104	0	77	14815
2026-01-24 23:07:02.75	78.73	8.40	-53.3	-65.2	3.8	8.45e-01	0	44	104	0	77	14830
2026-01-24 23:07:03.76	78.89	8.38	-53.3	-65.2	3.8	8.46e-01	0	44	104	0	77	14798
2026-01-24 23:07:04.77	79.06	8.36	-53.3	-65.2	3.8	8.46e-01	0	44	104	0	77	14792
2026-01-24 23:07:05.77	79.22	8.34	-53.2	-65.2	3.8	8.46e-01	0	44	104	0	77	14784
2026-01-24 23:07:06.78	79.39	8.32	-53.3	-65.2	3.8	8.45e-01	0	44	104	0	77	14774
2026-01-24 23:07:07.79	79.56	8.29	-53.3	-65.2	3.8	8.47e-01	0	44	104	0	77	14815
2026-01-24 23:07:08.80	79.72	8.27	-53.3	-65.2	3.8	8.46e-01	0	44	104	0	77	14856
2026-01-24 23:07:09.80	79.88	8.25	-53.3	-65.2	3.8	8.46e-01	0	44	104	0	77	14791
2026-01-24 23:07:10.81	80.05	8.23	-53.3	-65.2	3.8	8.48e-01	0	44	104	0	77	14816
2026-01-24 23:07:11.82	80.21	8.21	-53.3	-65.2	3.8	8.46e-01	0	44	104	0	77	14809
2026-01-24 23:07:12.83	80.38	8.19	-53.3	-65.2	3.8	8.46e-01	0	44	104	0	77	14875
2026-01-24 23:07:13.84	80.54	8.16	-53.3	-65.2	3.8	8.46e-01	0	44	104	0	77	14795
2026-01-24 23:07:14.84	80.70	8.14	-53.3	-65.2	3.8	8.46e-01	0	44	104	0	77	14844
2026-01-24 23:07:15.85	80.87	8.12	-53.3	-65.2	3.8	8.46e-01	0	44	104	0	77	14829
2026-01-24 23:07:16.86	81.03	8.10	-53.3	-65.2	3.8	8.45e-01	0	44	104	0	77	14774
2026-01-24 23:07:17.87	81.19	8.07	-53.3	-65.2	3.8	8.46e-01	0	44	104	0	77	14804
2026-01-24 23:07:18.88	81.35	8.05	-53.3	-65.2	3.8	8.46e-01	0	44	104	0	77	14781
2026-01-24 23:07:19.88	81.52	8.03	-53.3	-65.2	3.8	8.46e-01	0	44	104	0	77	14811
2026-01-24 23:07:20.89	81.68	8.00	-53.3	-65.2	3.8	8.46e-01	0	44	104	0	77	14827
2026-01-24 23:07:21.90	81.84	7.98	-53.3	-65.2	3.8	8.46e-01	0	44	104	0	77	14841
2026-01-24 23:07:22.90	82.00	7.96	-53.3	-65.2	3.8	8.46e-01	0	44	104	0	77	14780
2026-01-24 23:07:23.91	82.16	7.93	-53.3	-65.2	3.8	8.46e-01	0	44	104	0	77	14803
2026-01-24 23:07:24.92	82.32	7.91	-53.3	-65.2	3.8	8.45e-01	0	44	104	0	77	14844
2026-01-24 23:07:25.93	82.48	7.88	-53.3	-65.2	3.8	8.46e-01	0	44	104	0	77	14817
2026-01-24 23:07:26.94	82.64	7.86	-53.3	-65.2	3.8	8.46e-01	0	44	104	0	77	14806
2026-01-24 23:07:27.94	82.80	7.84	-53.3	-65.2	3.8	8.46e-01	0	44	104	0	77	14842
2026-01-24 23:07:28.95	82.96	7.81	-53.3	-65.2	3.8	8.46e-01	0	44	104	0	77	14831
2026-01-24 23:07:29.96	83.12	7.79	-53.3	-65.2	3.8	8.45e-01	0	44	104	0	77	14835
2026-01-24 23:07:30.96	83.28	7.76	-53.3	-65.2	3.8	8.46e-01	0	44	104	0	77	14807
2026-01-24 23:07:31.97	83.44	7.74	-53.3	-65.2	3.8	8.45e-01	0	44	104	0	77	14807
2026-01-24 23:07:32.98	83.60	7.71	-53.3	-65.2	3.8	8.47e-01	0	44	104	0	77	14796
2026-01-24 23:07:33.99	83.76	7.68	-53.2	-65.2	3.8	8.45e-01	0	44	104	0	77	14853
2026-01-24 23:07:35.00	83.92	7.66	-53.3	-65.2	3.8	8.45e-01	0	44	104	0	77	14829
2026-01-24 23:07:36.00	84.07	7.63	-53.3	-65.2	3.8	8.45e-01	0	44	104	0	77	14836
2026-01-24 23:07:37.01	84.23	7.61	-53.3	-65.2	3.8	8.46e-01	0	44	104	0	77	14789
2026-01-24 23:07:38.02	84.39	7.58	-53.3	-65.2	3.8	8.46e-01	0	44	104	0	77	14807
2026-01-24 23:07:39.03	84.55	7.55	-53.3	-65.2	3.8	8.46e-01	0	44	104	0	77	14808
2026-01-24 23:07:40.03	84.70	7.53	-53.3	-65.2	3.8	8.47e-01	0	44	104	0	77	14787
2026-01-24 23:07:41.04	84.86	7.50	-53.3	-65.2	3.8	8.46e-01	0	44	104	0	77	14807
2026-01-24 23:07:42.05	85.01	7.47	-53.2	-65.2	3.8	8.46e-01	0	44	104	0	77	14772
2026-01-24 23:07:43.06	85.17	7.45	-53.3	-65.2	3.8	8.46e-01	0	44	104	0	77	14825
2026-01-24 23:07:44.07	85.33	7.42	-53.3	-65.2	3.8	8.45e-01	0	44	104	0	77	14839
2026-01-24 23:07:45.07	85.48	7.39	-53.3	-65.2	3.8	8.46e-01	0	44	104	0	77	14792
2026-01-24 23:07:46.08	85.64	7.37	-53.3	-65.2	3.8	8.46e-01	0	44	104	0	77	14817
2026-01-24 23:07:47.09	85.79	7.34	-53.3	-65.2	3.8	8.45e-01	0	44	104	0	77	14797
2026-01-24 23:07:48.10	85.95	7.31	-53.3	-65.2	3.8	8.47e-01	0	44	104	0	77	14790
2026-01-24 23:07:49.11	86.10	7.28	-53.3	-65.2	3.8	8.46e-01	0	44	104	0	77	14807
2026-01-24 23:07:50.11	86.25	7.25	-53.3	-65.2	3.8	8.46e-01	0	44	104	0	77	14809
2026-01-24 23:07:51.12	86.41	7.23	-53.3	-65.2	3.8	8.46e-01	0	44	104	0	77	14836
2026-01-24 23:07:52.13	86.56	7.20	-53.3	-65.2	3.8	8.47e-01	0	44	104	0	77	14807
2026-01-24 23:07:53.14	86.72	7.17	-53.3	-65.2	3.8	8.47e-01	0	44	104	0	77	14764
2026-01-24 23:07:54.14	86.87	7.14	-53.3	-65.2	3.8	8.47e-01	0	44	104	0	77	14824
2026-01-24 23:07:55.15	87.02	7.11	-53.3	-65.2	3.8	8.47e-01	0	44	104	0	77	14846
2026-01-24 23:07:56.16	87.17	7.08	-53.3	-65.2	3.8	8.46e-01	0	44	104	0	77	14799
2026-01-24 23:07:57.17	87.33	7.05	-53.3	-65.2	3.8	8.46e-01	0	44	104	0	77	14825
2026-01-24 23:07:58.17	87.48	7.03	-53.3	-65.2	3.8	8.46e-01	0	44	104	0	77	14822
2026-01-24 23:07:59.18	87.63	7.00	-53.3	-65.2	3.8	8.45e-01	0	44	104	0	77	14807
2026-01-24 23:08:00.19	87.78	6.97	-53.3	-65.2	3.8	8.46e-01	0	44	104	0	77	14796
2026-01-24 23:08:01.20	87.93	6.94	-53.3	-65.2	3.8	8.47e-01	0	44	104	0	77	14768
2026-01-24 23:08:02.21	88.08	6.91	-53.3	-65.2	3.8	8.45e-01	0	44	104	0	77	14849
2026-01-24 23:08:03.21	88.23	6.88	-53.3	-65.2	3.8	8.46e-01	0	44	104	0	77	14812
2026-01-24 23:08:04.22	88.38	6.85	-53.3	-65.2	3.8	8.47e-01	0	44	104	0	77	14772
2026-01-24 23:08:05.23	88.53	6.82	-53.3	-65.2	3.8	8.46e-01	0	44	104	0	77	14833
2026-01-24 23:08:06.24	88.68	6.79	-53.3	-65.2	3.8	8.47e-01	0	44	104	0	77	14837
2026-01-24 23:08:07.25	88.83	6.76	-53.3	-65.2	3.8	8.46e-01	0	44	104	0	77	14790
2026-01-24 23:08:08.26	88.98	6.73	-53.3	-65.2	3.8	8.46e-01	0	44	104	0	77	14837
2026-01-24 23:08:09.26	89.13	6.70	-53.3	-65.2	3.8	8.47e-01	0	44	104	0	77	14797
2026-01-24 23:08:10.27	89.28	6.67	-53.3	-65.2	3.8	8.45e-01	0	44	104	0	77	14786
2026-01-24 23:08:11.28	89.42	6.63	-53.3	-65.2	3.8	8.46e-01	0	44	104	0	77	14793
2026-01-24 23:08:12.29	89.57	6.60	-53.3	-65.2	3.8	8.47e-01	0	44	104	0	77	14808
2026-01-24 23:08:13.29	89.72	6.57	-53.3	-65.2	3.8	8.46e-01	0	44	104	0	77	14805
2026-01-24 23:08:14.30	89.86	6.54	-53.3	-65.2	3.8	8.46e-01	0	44	104	0	77	14808
2026-01-24 23:08:15.31	90.01	6.51	-53.3	-65.2	3.8	8.46e-01	0	44	104	0	77	14853
2026-01-24 23:08:16.32	90.16	6.48	-53.3	-65.2	3.8	8.48e-01	0	44	104	0	77	14790
2026-01-24 23:08:17.33	90.30	6.45	-53.3	-65.2	3.8	8.46e-01	0	44	104	0	77	14787
2026-01-24 23:08:18.33	90.45	6.42	-53.3	-65.2	3.8	8.46e-01	0	44	104	0	77	14817
2026-01-24 23:08:19.34	90.60	6.38	-53.3	-65.2	3.8	8.46e-01	0	44	104	0	77	14804
2026-01-24 23:08:20.35	90.74	6.35	-53.3	-65.2	3.8	8.46e-01	0	44	104	0	77	14808
2026-01-24 23:08:21.36	90.89	6.32	-53.3	-65.2	3.8	8.47e-01	0	44	104	0	77	14820
2026-01-24 23:08:22.37	91.03	6.29	-53.3	-65.2	3.8	8.46e-01	0	44	104	0	77	14835
2026-01-24 23:08:23.38	91.18	6.26	-53.3	-65.2	3.8	8.46e-01	0	44	104	0	77	14803
2026-01-24 23:08:24.38	91.32	6.22	-53.3	-65.2	3.8	8.46e-01	0	44	104	0	77	14820
2026-01-24 23:08:25.39	91.46	6.19	-53.3	-65.2	3.8	8.46e-01	0	44	104	0	77	14795
2026-01-24 23:08:26.40	91.61	6.16	-53.3	-65.2	3.8	8.45e-01	0	44	104	0	77	14849
2026-01-24 23:08:27.40	91.75	6.13	-53.3	-65.2	3.8	8.45e-01	0	44	104	0	77	14794
2026-01-24 23:08:28.41	91.89	6.09	-53.3	-65.2	3.8	8.46e-01	0	44	104	0	77	14816
2026-01-24 23:08:29.42	92.03	6.06	-53.3	-65.2	3.8	8.45e-01	0	44	104	0	77	14780
2026-01-24 23:08:30.43	92.18	6.03	-53.3	-65.2	3.8	8.46e-01	0	44	104	0	77	14772
2026-01-24 23:08:31.44	92.32	5.99	-53.3	-65.2	3.8	8.47e-01	0	44	104	0	77	14816
2026-01-24 23:08:32.44	92.46	5.96	-53.3	-65.2	3.8	8.45e-01	0	44	104	0	77	14803
2026-01-24 23:08:33.45	92.60	5.93	-53.3	-65.2	3.8	8.45e-01	0	44	104	0	77	14823
2026-01-24 23:08:34.46	92.74	5.89	-53.3	-65.2	3.8	8.47e-01	0	44	104	0	77	14842
2026-01-24 23:08:35.46	92.88	5.86	-53.3	-65.2	3.8	8.46e-01	0	44	104	0	77	14815
2026-01-24 23:08:36.47	93.02	5.83	-53.3	-65.2	3.8	8.47e-01	0	44	104	0	77	14839
2026-01-24 23:08:37.48	93.16	5.79	-53.3	-65.2	3.8	8.47e-01	0	44	104	0	77	14812
2026-01-24 23:08:38.49	93.30	5.76	-53.3	-65.2	3.8	8.46e-01	0	44	104	0	77	14801
2026-01-24 23:08:39.50	93.44	5.73	-53.3	-65.2	3.8	8.48e-01	0	44	104	0	77	14797
2026-01-24 23:08:40.50	93.58	5.69	-53.3	-65.3	3.8	8.46e-01	0	44	104	0	77	14889
2026-01-24 23:08:41.51	93.72	5.66	-53.3	-65.2	3.8	8.46e-01	0	44	104	0	77	14879
2026-01-24 23:08:42.52	93.86	5.62	-53.3	-65.2	3.8	8.45e-01	0	44	104	0	77	14820
2026-01-24 23:08:43.53	93.99	5.59	-53.3	-65.2	3.8	8.47e-01	0	44	104	0	77	14814
2026-01-24 23:08:44.54	94.13	5.56	-53.3	-65.2	3.8	8.46e-01	0	44	104	0	77	14802
2026-01-24 23:08:45.55	94.27	5.52	-53.3	-65.2	3.8	8.45e-01	0	44	104	0	77	14815
2026-01-24 23:08:46.56	94.41	5.49	-53.3	-65.2	3.8	8.46e-01	0	44	104	0	77	14824
2026-01-24 23:08:47.56	94.54	5.45	-53.3	-65.2	3.8	8.46e-01	0	44	104	0	77	14849
2026-01-24 23:08:48.57	94.68	5.42	-53.3	-65.2	3.8	8.45e-01	0	44	104	0	77	14843
2026-01-24 23:08:49.58	94.82	5.38	-53.3	-65.2	3.8	8.46e-01	0	44	104	0	77	14813
2026-01-24 23:08:50.59	94.95	5.35	-53.3	-65.2	3.8	8.46e-01	0	44	104	0	77	14814
2026-01-24 23:08:51.60	95.09	5.31	-53.3	-65.2	3.8	8.46e-01	0	44	104	0	77	14855
2026-01-24 23:08:52.60	95.22	5.28	-53.3	-65.2	3.8	8.46e-01	0	44	104	0	77	14847
2026-01-24 23:08:53.61	95.36	5.24	-53.3	-65.2	3.8	8.47e-01	0	44	104	0	77	14820
2026-01-24 23:08:54.62	95.49	5.21	-53.3	-65.2	3.8	8.46e-01	0	44	104	0	77	14762
2026-01-24 23:08:55.63	95.63	5.17	-53.3	-65.2	3.8	8.46e-01	0	44	104	0	77	14792
2026-01-24 23:08:56.64	95.76	5.14	-53.3	-65.2	3.8	8.46e-01	0	44	104	0	77	14834
2026-01-24 23:08:57.64	95.90	5.10	-53.3	-65.2	3.8	8.47e-01	0	44	104	0	77	14832
2026-01-24 23:08:58.65	96.03	5.07	-53.3	-65.2	3.8	8.46e-01	0	44	104	0	77	14841
2026-01-24 23:08:59.66	96.16	5.03	-53.3	-65.2	3.8	8.46e-01	0	44	104	0	77	14815
2026-01-24 23:09:00.67	96.30	4.99	-53.3	-65.2	3.8	8.46e-01	0	44	104	0	77	14769
2026-01-24 23:09:01.67	96.43	4.96	-53.3	-65.2	3.8	8.47e-01	0	44	104	0	77	14782
2026-01-24 23:09:02.68	96.56	4.92	-53.3	-65.2	3.8	8.47e-01	0	44	104	0	77	14816
2026-01-24 23:09:03.69	96.69	4.89	-53.3	-65.2	3.8	8.46e-01	0	44	104	0	77	14797
2026-01-24 23:09:04.70	96.82	4.85	-53.3	-65.2	3.8	8.46e-01	0	44	104	0	77	14839
2026-01-24 23:09:05.71	96.95	4.81	-53.3	-65.2	3.8	8.46e-01	0	44	104	0	77	14872
2026-01-24 23:09:06.71	97.08	4.78	-53.3	-65.2	3.8	8.46e-01	0	44	104	0	77	14808
2026-01-24 23:09:07.72	97.22	4.74	-53.3	-65.2	3.8	8.46e-01	0	44	104	0	77	14767
2026-01-24 23:09:08.73	97.35	4.71	-53.3	-65.2	3.8	8.46e-01	0	44	104	0	77	14855
2026-01-24 23:09:09.74	97.48	4.67	-53.3	-65.2	3.8	8.46e-01	0	44	104	0	77	14831
2026-01-24 23:09:10.75	97.61	4.63	-53.3	-65.2	3.8	8.45e-01	0	44	104	0	77	14829
2026-01-24 23:09:11.76	97.74	4.60	-53.3	-65.2	3.8	8.46e-01	0	44	104	0	77	14798
2026-01-24 23:09:12.76	97.86	4.56	-53.3	-65.2	3.8	8.47e-01	0	44	104	0	77	14807
2026-01-24 23:09:13.77	97.99	4.52	-53.3	-65.2	3.8	8.47e-01	0	44	104	0	77	14800
2026-01-24 23:09:14.78	98.12	4.49	-53.3	-65.2	3.8	8.47e-01	0	44	104	0	77	14837
2026-01-24 23:09:15.79	98.25	4.45	-53.3	-65.2	3.8	8.45e-01	0	44	104	0	77	14812
2026-01-24 23:09:16.80	98.38	4.41	-53.3	-65.2	3.8	8.46e-01	0	44	104	0	77	14842
2026-01-24 23:09:17.80	98.51	4.38	-53.3	-65.2	3.8	8.46e-01	0	44	104	0	77	14800
2026-01-24 23:09:18.81	98.63	4.34	-53.3	-65.2	3.8	8.47e-01	0	44	104	0	77	14803
2026-01-24 23:09:19.82	98.76	4.30	-53.3	-65.2	3.8	8.46e-01	0	44	104	0	77	14809
2026-01-24 23:09:20.83	98.89	4.26	-53.3	-65.2	3.8	8.47e-01	0	44	104	0	77	14807
2026-01-24 23:09:21.84	99.01	4.23	-53.3	-65.2	3.8	8.46e-01	0	44	104	0	77	14754
2026-01-24 23:09:22.84	99.14	4.19	-53.3	-65.2	3.8	8.45e-01	0	44	104	0	77	14789
2026-01-24 23:09:23.85	99.26	4.15	-53.3	-65.2	3.8	8.46e-01	0	44	104	0	77	14820
2026-01-24 23:09:24.86	99.39	4.12	-53.3	-65.2	3.8	8.45e-01	0	44	104	0	77	14822
2026-01-24 23:09:25.86	99.51	4.08	-53.3	-65.2	3.8	8.46e-01	0	44	104	0	77	14764
2026-01-24 23:09:26.87	99.64	4.04	-53.3	-65.2	3.8	8.46e-01	0	44	104	0	77	14830
2026-01-24 23:09:27.88	99.76	4.00	-53.3	-65.2	3.8	8.47e-01	0	44	104	0	77	14836
2026-01-24 23:09:28.89	99.89	3.97	-53.3	-65.2	3.8	8.48e-01	0	44	104	0	77	14793
2026-01-24 23:09:29.90	100.01	3.93	-53.3	-65.2	3.8	8.46e-01	0	44	104	0	77	14786
2026-01-24 23:09:30.91	100.14	3.89	-53.3	-65.2	3.8	8.46e-01	0	44	104	0	77	14841
2026-01-24 23:09:31.91	100.26	3.85	-53.3	-65.2	3.8	8.46e-01	0	44	104	0	77	14804
2026-01-24 23:09:32.92	100.38	3.81	-53.3	-65.2	3.8	8.46e-01	0	44	104	0	77	14811
2026-01-24 23:09:33.93	100.50	3.78	-53.3	-65.2	3.8	8.45e-01	0	44	104	0	77	14811
2026-01-24 23:09:34.94	100.63	3.74	-53.3	-65.2	3.8	8.46e-01	0	44	104	0	77	14806
2026-01-24 23:09:35.94	100.75	3.70	-53.3	-65.2	3.8	8.47e-01	0	44	104	0	77	14830
2026-01-24 23:09:36.95	100.87	3.66	-53.3	-65.2	3.8	8.46e-01	0	44	104	0	77	14826
2026-01-24 23:09:37.96	100.99	3.63	-53.3	-65.2	3.8	8.47e-01	0	44	104	0	77	14793
2026-01-24 23:09:38.97	101.11	3.59	-53.3	-65.2	3.8	8.45e-01	0	44	104	0	77	14828
2026-01-24 23:09:39.97	101.23	3.55	-53.3	-65.2	3.8	8.46e-01	0	44	104	0	77	14788
2026-01-24 23:09:40.98	101.35	3.51	-53.3	-65.2	3.8	8.47e-01	0	44	104	0	77	14810
2026-01-24 23:09:41.99	101.47	3.47	-53.3	-65.2	3.8	8.47e-01	0	44	104	0	77	14807
2026-01-24 23:09:43.00	101.59	3.43	-53.2	-65.2	3.8	8.46e-01	0	44	104	0	77	14774
2026-01-24 23:09:44.01	101.71	3.40	-53.3	-65.2	3.8	8.46e-01	0	44	104	0	77	14784
2026-01-24 23:09:45.02	101.83	3.36	-53.3	-65.2	3.8	8.47e-01	0	44	104	0	77	14831
2026-01-24 23:09:46.02	101.95	3.32	-53.3	-65.2	3.8	8.45e-01	0	44	104	0	77	14826
2026-01-24 23:09:47.03	102.07	3.28	-53.3	-65.2	3.8	8.48e-01	0	44	104	0	77	14834
2026-01-24 23:09:48.04	102.19	3.24	-53.3	-65.2	3.8	8.48e-01	0	44	104	0	77	14849
2026-01-24 23:09:49.05	102.31	3.20	-53.3	-65.2	3.8	8.47e-01	0	44	104	0	77	14834
2026-01-24 23:09:50.06	102.43	3.16	-53.3	-65.2	3.8	8.46e-01	0	44	104	0	77	14818
2026-01-24 23:09:51.06	102.54	3.13	-53.3	-65.2	3.8	8.46e-01	0	44	104	0	77	14818
2026-01-24 23:09:52.07	102.66	3.09	-53.3	-65.2	3.8	8.45e-01	0	44	104	0	77	14827
2026-01-24 23:09:53.08	102.78	3.05	-53.3	-65.2	3.8	8.47e-01	0	44	104	0	77	14821
2026-01-24 23:09:54.09	102.89	3.01	-53.3	-65.2	3.8	8.46e-01	0	44	104	0	77	14853
2026-01-24 23:09:55.10	103.01	2.97	-53.3	-65.2	3.8	8.45e-01	0	44	104	0	77	14859
2026-01-24 23:09:56.11	103.13	2.93	-53.3	-65.2	3.8	8.46e-01	0	44	104	0	77	14826
2026-01-24 23:09:57.12	103.24	2.89	-53.3	-65.2	3.8	8.47e-01	0	44	104	0	77	14829
2026-01-24 23:09:58.12	103.36	2.85	-53.3	-65.2	3.8	8.46e-01	0	44	104	0	77	14832
2026-01-24 23:09:59.13	103.47	2.82	-53.3	-65.2	3.8	8.46e-01	0	44	104	0	77	14824
2026-01-24 23:10:00.14	103.59	2.78	-53.3	-65.2	3.8	8.46e-01	0	44	104	0	77	14801
2026-01-24 23:10:01.15	103.70	2.74	-53.3	-65.2	3.8	8.45e-01	0	44	104	0	77	14788
2026-01-24 23:10:02.16	103.82	2.70	-53.3	-65.2	3.8	8.46e-01	0	44	104	0	77	14827
2026-01-24 23:10:03.16	103.93	2.66	-53.3	-65.2	3.8	8.47e-01	0	44	104	0	77	14841
2026-01-24 23:10:04.17	104.05	2.62	-53.3	-65.2	3.8	8.46e-01	0	44	104	0	77	14819
2026-01-24 23:10:05.18	104.16	2.58	-53.3	-65.2	3.8	8.46e-01	0	44	104	0	77	14807
2026-01-24 23:10:06.19	104.27	2.54	-53.3	-65.2	3.8	8.46e-01	0	44	104	0	77	14819
2026-01-24 23:10:07.20	104.39	2.50	-53.3	-65.2	3.8	8.45e-01	0	44	104	0	77	14799
2026-01-24 23:10:08.20	104.50	2.46	-53.3	-65.2	3.8	8.46e-01	0	44	104	0	77	14768
2026-01-24 23:10:09.21	104.61	2.42	-53.3	-65.2	3.8	8.47e-01	0	44	104	0	77	14835
2026-01-24 23:10:10.22	104.72	2.38	-53.3	-65.2	3.8	8.45e-01	0	44	104	0	77	14818
2026-01-24 23:10:11.23	104.83	2.34	-53.3	-65.2	3.8	8.46e-01	0	44	104	0	77	14774
2026-01-24 23:10:12.24	104.95	2.30	-53.3	-65.2	3.8	8.46e-01	0	44	104	0	77	14783
2026-01-24 23:10:13.24	105.06	2.27	-53.3	-65.2	3.8	8.47e-01	0	44	104	0	77	14828
2026-01-24 23:10:14.25	105.17	2.23	-53.3	-65.2	3.8	8.47e-01	0	44	104	0	77	14814
2026-01-24 23:10:15.26	105.28	2.19	-53.3	-65.2	3.8	8.46e-01	0	44	104	0	77	14862
2026-01-24 23:10:16.26	105.39	2.15	-53.3	-65.2	3.8	8.47e-01	0	44	104	0	77	14853
2026-01-24 23:10:17.27	105.50	2.11	-53.3	-65.2	3.8	8.46e-01	0	44	104	0	77	14827
2026-01-24 23:10:18.28	105.61	2.07	-53.3	-65.2	3.8	8.46e-01	0	44	104	0	77	14805
2026-01-24 23:10:19.29	105.72	2.03	-53.3	-65.2	3.8	8.45e-01	0	44	104	0	77	14809
2026-01-24 23:10:20.30	105.83	1.99	-53.3	-65.2	3.8	8.46e-01	0	44	104	0	77	14787
2026-01-24 23:10:21.30	105.93	1.95	-53.3	-65.2	3.8	8.46e-01	0	44	104	0	77	14833

#Closed at: 2026-01-24 23:10:21
#Recorded file [0 MB]: D:/lorett/data/31041_260125_020040.dat