passes_logs/2026/01/24/R3.2S_Murmansk/R3.2S_Murmansk__20260124_090005_KANOPUS-V_5_rec.log

#Pass ID: 20260124_090005_KANOPUS-V 5
#Satellite: KANOPUS-V 5
#Configuration: KANOPUS-V_8320
#almurnet v.1.7.20251203
#Start time: 2026-01-24 09:00:06

#Version: 2.2.20231116
#Station: R3.2S_Murmansk
#Location: 33.079688 lon 68.888172 lat
#TLE: 1 43876U 18111A   26023.64356892  .00004816  00000+0  20464-3 0  9993
#TLE: 2 43876  97.3677 292.0017 0001813  88.2876 271.8569 15.23520012392780

#Time	Az	El	Level	Level2	SNR	BER	BlckErr	Temp	State	Recorded	gain1	gain2
2026-01-24 09:00:06.60	194.73	2.07	-52.9	-61.7	3.8	7.45e-01	0	41	0	0	77	9914
2026-01-24 09:00:07.61	194.80	2.13	-52.9	-61.8	3.8	7.44e-01	0	42	104	0	77	9950
2026-01-24 09:00:08.62	194.87	2.20	-52.9	-61.7	3.8	7.45e-01	0	42	104	0	77	9921
2026-01-24 09:00:09.62	194.94	2.27	-52.9	-61.7	3.8	7.45e-01	0	42	104	0	77	9903
2026-01-24 09:00:10.63	195.01	2.33	-52.9	-61.8	3.8	7.44e-01	0	42	104	0	77	9950
2026-01-24 09:00:11.64	195.08	2.40	-52.9	-61.7	3.8	7.45e-01	0	41	104	0	77	9916
2026-01-24 09:00:12.65	195.15	2.47	-52.9	-61.7	3.8	7.45e-01	0	42	104	0	77	9913
2026-01-24 09:00:13.65	195.22	2.53	-52.9	-61.7	3.8	7.45e-01	0	42	104	0	77	9871
2026-01-24 09:00:14.66	195.30	2.60	-52.9	-61.7	3.8	7.44e-01	0	42	104	0	77	9881
2026-01-24 09:00:15.67	195.37	2.67	-52.9	-61.7	3.8	7.45e-01	0	42	104	0	77	9914
2026-01-24 09:00:16.68	195.44	2.74	-52.9	-61.7	3.8	7.45e-01	0	42	104	0	77	9928
2026-01-24 09:00:17.69	195.52	2.81	-52.9	-61.7	3.8	7.46e-01	0	42	104	0	77	9885
2026-01-24 09:00:18.69	195.59	2.87	-52.9	-61.7	3.8	7.46e-01	0	42	104	0	77	9929
2026-01-24 09:00:19.70	195.67	2.94	-52.9	-61.7	3.8	7.44e-01	0	42	104	0	77	9879
2026-01-24 09:00:20.71	195.74	3.01	-52.9	-61.7	3.8	7.45e-01	0	42	104	0	77	9920
2026-01-24 09:00:21.72	195.82	3.08	-52.9	-61.7	3.8	7.46e-01	0	42	104	0	77	9879
2026-01-24 09:00:22.72	195.89	3.15	-52.9	-61.7	3.8	7.45e-01	0	42	104	0	77	9898
2026-01-24 09:00:23.73	195.97	3.22	-52.9	-61.7	3.8	7.43e-01	0	42	104	0	77	9896
2026-01-24 09:00:24.74	196.05	3.29	-52.9	-61.7	3.8	7.47e-01	0	42	104	0	77	9855
2026-01-24 09:00:25.75	196.12	3.36	-52.9	-61.7	3.8	7.46e-01	0	42	104	0	77	9836
2026-01-24 09:00:26.76	196.20	3.43	-52.9	-61.7	3.8	7.45e-01	0	42	104	0	77	9855
2026-01-24 09:00:27.77	196.28	3.50	-52.9	-61.7	3.8	7.45e-01	0	42	104	0	77	9833
2026-01-24 09:00:28.77	196.36	3.57	-52.9	-61.7	3.8	7.44e-01	0	42	104	0	77	9882
2026-01-24 09:00:29.78	196.44	3.64	-52.9	-61.7	3.8	7.47e-01	0	42	104	0	77	9905
2026-01-24 09:00:30.79	196.52	3.71	-52.9	-61.7	3.8	7.45e-01	0	42	104	0	77	9911
2026-01-24 09:00:31.80	196.60	3.78	-52.9	-61.7	3.8	7.44e-01	0	42	104	0	77	9870
2026-01-24 09:00:32.81	196.68	3.85	-52.9	-61.7	3.8	7.46e-01	0	42	104	0	77	9845
2026-01-24 09:00:33.81	196.76	3.92	-52.9	-61.7	3.8	7.44e-01	0	42	104	0	77	9874
2026-01-24 09:00:34.82	196.84	3.99	-52.9	-61.7	3.8	7.44e-01	0	42	104	0	77	9835
2026-01-24 09:00:35.83	196.92	4.06	-52.8	-61.6	3.8	7.45e-01	0	42	104	0	77	9759
2026-01-24 09:00:36.84	197.00	4.13	-52.8	-61.3	3.8	7.44e-01	0	42	104	0	77	9493
2026-01-24 09:00:37.85	197.09	4.21	-52.7	-61.1	3.8	7.45e-01	0	42	104	0	77	9220
2026-01-24 09:00:38.85	197.17	4.28	-52.7	-60.9	3.8	7.46e-01	0	42	104	0	77	9050
2026-01-24 09:00:39.86	197.26	4.35	-52.7	-60.9	3.8	7.46e-01	0	42	104	0	77	9018
2026-01-24 09:00:40.87	197.34	4.42	-52.7	-60.9	3.8	7.45e-01	0	42	104	0	77	9069
2026-01-24 09:00:41.87	197.42	4.50	-52.6	-60.6	3.8	7.47e-01	0	42	104	0	77	8692
2026-01-24 09:00:42.88	197.51	4.57	-52.1	-58.7	4.0	7.37e-01	0	42	104	0	76	7453
2026-01-24 09:00:43.89	197.60	4.64	-51.3	-56.6	4.7	7.17e-01	0	42	0	2097152	74	6539
2026-01-24 09:00:44.90	197.68	4.72	-50.2	-54.4	6.3	6.57e-01	0	43	0	18874368	72	5722
2026-01-24 09:00:45.91	197.77	4.79	-49.7	-53.6	7.1	6.35e-01	0	43	0	35651584	71	5523
2026-01-24 09:00:46.92	197.86	4.87	-48.3	-51.5	9.0	6.03e-01	0	42	0	50331648	68	5147
2026-01-24 09:00:47.92	197.95	4.94	-47.6	-50.5	10.2	5.92e-01	0	42	0	65011712	67	4837
2026-01-24 09:00:48.93	198.03	5.01	-46.8	-49.6	11.0	5.88e-01	0	42	0	81788928	65	4891
2026-01-24 09:00:49.94	198.12	5.09	-53.1	-61.5	3.8	7.45e-01	0	42	104	92274688	76	10192
2026-01-24 09:00:50.95	198.21	5.16	-52.3	-58.3	4.3	7.27e-01	0	42	0	94371840	74	7971
2026-01-24 09:00:51.96	198.30	5.24	-45.7	-48.2	12.5	5.85e-01	0	43	0	96468992	62	4940
2026-01-24 09:00:52.97	198.40	5.31	-50.7	-55.2	6.0	6.62e-01	0	43	0	113246208	71	6600
2026-01-24 09:00:53.97	198.49	5.39	-46.3	-48.9	11.9	5.87e-01	0	43	0	127926272	63	5047
2026-01-24 09:00:54.98	198.58	5.47	-45.5	-47.9	12.8	5.86e-01	0	43	0	142606336	62	4771
2026-01-24 09:00:55.99	198.67	5.54	-45.2	-47.5	13.1	5.83e-01	0	43	0	159383552	62	4592
2026-01-24 09:00:57.00	198.77	5.62	-45.4	-47.8	12.8	5.84e-01	0	43	0	176160768	62	4746
2026-01-24 09:00:58.01	198.86	5.70	-44.9	-47.2	13.4	5.83e-01	0	43	0	190840832	61	4699
2026-01-24 09:00:59.01	198.95	5.77	-45.2	-47.6	13.1	5.84e-01	0	43	0	205520896	61	4891
2026-01-24 09:01:00.02	199.05	5.85	-44.9	-47.3	13.4	5.82e-01	0	43	0	222298112	61	4733
2026-01-24 09:01:01.03	199.14	5.93	-45.3	-47.7	13.0	5.83e-01	0	43	0	236978176	61	4961
2026-01-24 09:01:02.04	199.24	6.01	-45.0	-47.5	13.2	5.85e-01	0	43	0	251658240	61	4826
2026-01-24 09:01:03.05	199.34	6.08	-45.1	-47.5	13.1	5.84e-01	0	43	0	268435456	61	4869
2026-01-24 09:01:04.05	199.43	6.16	-44.8	-47.3	13.4	5.83e-01	0	43	0	283115520	61	4713
2026-01-24 09:01:05.06	199.53	6.24	-44.9	-47.3	13.4	5.83e-01	0	43	0	297795584	61	4749
2026-01-24 09:01:06.07	199.63	6.32	-44.8	-47.2	13.5	5.84e-01	0	43	0	314572800	61	4700
2026-01-24 09:01:07.08	199.73	6.40	-44.8	-47.2	13.5	5.83e-01	0	43	0	329252864	61	4659
2026-01-24 09:01:08.09	199.83	6.48	-45.0	-47.4	13.3	5.83e-01	0	43	0	343932928	61	4813
2026-01-24 09:01:09.09	199.93	6.56	-45.0	-47.4	13.3	5.83e-01	0	43	0	360710144	61	4787
2026-01-24 09:01:10.10	200.03	6.64	-44.8	-47.2	13.5	5.84e-01	0	43	0	377487360	61	4691
2026-01-24 09:01:11.11	200.14	6.72	-44.8	-47.2	13.5	5.82e-01	0	43	0	392167424	61	4672
2026-01-24 09:01:12.12	200.24	6.80	-44.9	-47.3	13.5	5.82e-01	0	43	0	406847488	61	4719
2026-01-24 09:01:13.13	200.34	6.88	-44.8	-47.2	13.5	5.82e-01	0	43	0	423624704	61	4678
2026-01-24 09:01:14.13	200.45	6.96	-45.5	-48.0	12.9	5.84e-01	0	43	0	438304768	61	5140
2026-01-24 09:01:15.14	200.55	7.04	-44.6	-47.0	13.7	5.98e-01	0	43	0	452984832	61	4551
2026-01-24 09:01:16.15	200.66	7.12	-44.7	-47.1	13.5	5.97e-01	0	43	0	469762048	61	4640
2026-01-24 09:01:17.16	200.76	7.20	-44.6	-47.0	13.7	5.94e-01	0	43	0	484442112	61	4571
2026-01-24 09:01:18.16	200.87	7.28	-44.5	-46.9	13.7	5.95e-01	0	43	0	499122176	61	4520
2026-01-24 09:01:19.17	200.98	7.37	-44.4	-46.8	13.8	5.99e-01	0	43	0	513802240	60	4709
2026-01-24 09:01:20.18	201.09	7.45	-44.5	-46.8	13.8	6.00e-01	0	43	0	530579456	60	4759
2026-01-24 09:01:21.19	201.20	7.53	-44.4	-46.8	13.8	5.99e-01	0	43	0	545259520	60	4723
2026-01-24 09:01:22.19	201.31	7.62	-44.4	-46.7	14.0	5.95e-01	0	43	0	559939584	60	4670
2026-01-24 09:01:23.20	201.42	7.70	-44.3	-46.6	14.0	6.01e-01	0	43	0	578813952	60	4644
2026-01-24 09:01:24.21	201.53	7.78	-44.2	-46.5	14.2	6.00e-01	0	43	0	593494016	60	4557
2026-01-24 09:01:25.22	201.64	7.87	-44.2	-46.5	14.1	5.97e-01	0	43	0	608174080	60	4577
2026-01-24 09:01:26.23	201.76	7.95	-44.2	-46.5	14.1	5.97e-01	0	43	0	622854144	60	4584
2026-01-24 09:01:27.23	201.87	8.04	-44.2	-46.5	14.1	5.97e-01	0	43	0	639631360	59	4845
2026-01-24 09:01:28.24	201.98	8.12	-44.2	-46.5	14.2	5.98e-01	0	43	0	654311424	59	4829
2026-01-24 09:01:29.25	202.10	8.21	-44.2	-46.4	14.2	6.00e-01	0	43	0	668991488	59	4801
2026-01-24 09:01:30.26	202.22	8.29	-44.2	-46.4	14.2	5.97e-01	0	43	0	685768704	59	4802
2026-01-24 09:01:31.27	202.33	8.38	-44.2	-46.5	14.2	5.98e-01	0	43	0	700448768	59	4825
2026-01-24 09:01:32.28	202.45	8.47	-43.9	-46.1	14.5	5.99e-01	0	43	0	715128832	59	4638
2026-01-24 09:01:33.29	202.57	8.55	-44.0	-46.2	14.5	5.98e-01	0	43	0	731906048	59	4686
2026-01-24 09:01:34.29	202.69	8.64	-44.1	-46.3	14.3	5.99e-01	0	43	0	746586112	59	4757
2026-01-24 09:01:35.30	202.81	8.73	-44.0	-46.2	14.5	6.05e-01	0	43	0	763363328	59	4686
2026-01-24 09:01:36.31	202.93	8.81	-43.9	-46.0	14.6	6.00e-01	0	43	0	778043392	59	4595
2026-01-24 09:01:37.32	203.06	8.90	-44.0	-46.2	14.4	5.97e-01	0	43	0	794820608	59	4702
2026-01-24 09:01:38.33	203.18	8.99	-44.0	-46.2	14.4	5.97e-01	0	43	0	809500672	59	4688
2026-01-24 09:01:39.34	203.30	9.08	-43.8	-46.0	14.7	5.98e-01	0	43	0	824180736	59	4554
2026-01-24 09:01:40.35	203.43	9.17	-43.6	-45.7	14.9	5.99e-01	0	43	0	840957952	59	4427
2026-01-24 09:01:41.35	203.55	9.26	-43.7	-45.8	14.8	5.97e-01	0	43	0	855638016	59	4476
2026-01-24 09:01:42.36	203.68	9.35	-43.7	-45.9	14.8	5.99e-01	0	43	0	870318080	59	4503
2026-01-24 09:01:43.37	203.81	9.44	-43.7	-45.9	14.8	5.97e-01	0	43	0	887095296	59	4523
2026-01-24 09:01:44.37	203.94	9.52	-43.6	-45.8	14.9	5.97e-01	0	43	0	901775360	59	4454
2026-01-24 09:01:45.38	204.07	9.62	-43.6	-45.7	14.9	5.97e-01	0	43	0	916455424	58	4702
2026-01-24 09:01:46.39	204.20	9.71	-43.5	-45.7	14.9	5.99e-01	0	43	0	933232640	58	4680
2026-01-24 09:01:47.40	204.33	9.80	-43.5	-45.7	15.0	5.99e-01	0	43	0	950009856	58	4664
2026-01-24 09:01:48.40	204.46	9.89	-43.5	-45.7	14.9	5.98e-01	0	43	0	964689920	58	4681
2026-01-24 09:01:49.41	204.60	9.98	-43.6	-45.8	14.9	5.98e-01	0	43	0	979369984	58	4711
2026-01-24 09:01:50.42	204.73	10.07	-43.5	-45.7	15.0	5.98e-01	0	43	0	996147200	58	4695
2026-01-24 09:01:51.43	204.87	10.17	-43.4	-45.6	15.1	5.96e-01	0	43	0	1010827264	58	4630
2026-01-24 09:01:52.43	205.00	10.26	-43.5	-45.7	15.1	5.97e-01	0	43	0	1025507328	58	4661
2026-01-24 09:01:53.44	205.14	10.35	-43.4	-45.6	15.1	5.96e-01	0	43	0	1042284544	58	4621
2026-01-24 09:01:54.45	205.28	10.44	-43.5	-45.7	15.0	5.98e-01	0	43	0	1056964608	58	4661
2026-01-24 09:01:55.46	205.42	10.54	-43.5	-45.8	14.9	6.01e-01	0	43	0	1071644672	58	4720
2026-01-24 09:01:56.47	205.56	10.63	-43.3	-45.5	15.2	5.98e-01	0	43	0	1088421888	58	4551
2026-01-24 09:01:57.48	205.70	10.73	-43.3	-45.5	15.2	5.98e-01	0	43	0	1103101952	58	4577
2026-01-24 09:01:58.48	205.85	10.82	-43.3	-45.6	15.1	5.98e-01	0	43	0	1117782016	58	4604
2026-01-24 09:01:59.49	205.99	10.92	-43.3	-45.5	15.2	5.98e-01	0	43	0	1134559232	58	4584
2026-01-24 09:02:00.50	206.14	11.01	-43.4	-45.6	15.1	5.98e-01	0	43	0	1151336448	58	4647
2026-01-24 09:02:01.51	206.28	11.11	-43.3	-45.5	15.2	5.99e-01	0	43	0	1166016512	58	4568
2026-01-24 09:02:02.51	206.43	11.21	-43.1	-45.2	15.5	5.98e-01	0	43	0	1180696576	58	4418
2026-01-24 09:02:03.52	206.58	11.30	-42.9	-45.0	15.7	5.98e-01	0	43	0	1197473792	57	4552
2026-01-24 09:02:04.53	206.73	11.40	-42.8	-44.9	15.7	5.99e-01	0	43	0	1212153856	57	4498
2026-01-24 09:02:05.53	206.88	11.50	-42.9	-45.0	15.7	5.97e-01	0	43	0	1226833920	57	4546
2026-01-24 09:02:06.54	207.03	11.59	-42.7	-44.7	15.8	5.98e-01	0	43	0	1243611136	57	4438
2026-01-24 09:02:07.55	207.18	11.69	-42.8	-44.8	15.8	5.98e-01	0	43	0	1258291200	57	4456
2026-01-24 09:02:08.56	207.34	11.79	-42.8	-44.8	15.8	5.97e-01	0	43	0	1272971264	57	4469
2026-01-24 09:02:09.57	207.50	11.89	-42.8	-44.8	15.9	5.98e-01	0	43	0	1289748480	57	4468
2026-01-24 09:02:10.57	207.65	11.99	-42.7	-44.8	15.9	6.01e-01	0	43	0	1304428544	57	4448
2026-01-24 09:02:11.58	207.81	12.09	-42.8	-44.8	15.8	5.95e-01	0	43	0	1319108608	57	4487
2026-01-24 09:02:12.59	207.97	12.19	-42.6	-44.6	16.0	5.96e-01	0	44	0	1335885824	57	4370
2026-01-24 09:02:13.60	208.13	12.29	-42.7	-44.8	16.0	5.97e-01	0	43	0	1352663040	57	4448
2026-01-24 09:02:14.61	208.30	12.39	-42.6	-44.6	16.0	5.95e-01	0	43	0	1367343104	57	4372
2026-01-24 09:02:15.62	208.46	12.49	-42.5	-44.6	16.1	5.96e-01	0	44	0	1382023168	57	4360
2026-01-24 09:02:16.62	208.62	12.59	-42.5	-44.5	16.1	5.96e-01	0	43	0	1398800384	56	4579
2026-01-24 09:02:17.63	208.79	12.69	-42.5	-44.5	16.1	5.99e-01	0	43	0	1413480448	56	4571
2026-01-24 09:02:18.64	208.96	12.80	-42.4	-44.5	16.1	5.97e-01	0	43	0	1428160512	56	4573
2026-01-24 09:02:19.65	209.13	12.90	-42.3	-44.4	16.2	5.97e-01	0	43	0	1444937728	56	4522
2026-01-24 09:02:20.65	209.30	13.00	-42.3	-44.4	16.2	5.98e-01	0	43	0	1459617792	56	4518
2026-01-24 09:02:21.66	209.47	13.11	-42.3	-44.4	16.2	5.97e-01	0	43	0	1474297856	56	4539
2026-01-24 09:02:22.67	209.64	13.21	-42.3	-44.5	16.2	5.98e-01	0	44	0	1491075072	56	4578
2026-01-24 09:02:23.68	209.82	13.31	-42.3	-44.5	16.1	5.99e-01	0	43	0	1505755136	56	4566
2026-01-24 09:02:24.69	209.99	13.42	-42.2	-44.4	16.3	5.97e-01	0	43	0	1520435200	56	4512
2026-01-24 09:02:25.69	210.17	13.52	-42.2	-44.4	16.2	6.01e-01	0	43	0	1537212416	56	4523
2026-01-24 09:02:26.70	210.35	13.63	-42.2	-44.4	16.2	5.99e-01	0	43	0	1553989632	56	4521
2026-01-24 09:02:27.71	210.53	13.73	-42.0	-44.2	16.4	5.95e-01	0	43	0	1568669696	56	4438
2026-01-24 09:02:28.72	210.71	13.84	-42.0	-44.2	16.4	5.97e-01	0	43	0	1583349760	56	4405
2026-01-24 09:02:29.73	210.90	13.95	-42.1	-44.3	16.5	5.98e-01	0	43	0	1600126976	55	4744
2026-01-24 09:02:30.73	211.08	14.05	-42.0	-44.3	16.5	5.95e-01	0	43	0	1614807040	55	4726
2026-01-24 09:02:31.74	211.27	14.16	-42.0	-44.3	16.5	5.97e-01	0	43	0	1629487104	55	4713
2026-01-24 09:02:32.75	211.46	14.27	-42.0	-44.2	16.6	5.95e-01	0	43	0	1646264320	55	4697
2026-01-24 09:02:33.76	211.65	14.38	-42.1	-44.3	16.5	5.97e-01	0	43	0	1660944384	55	4747
2026-01-24 09:02:34.77	211.84	14.49	-41.7	-44.0	16.8	5.94e-01	0	43	0	1675624448	55	4548
2026-01-24 09:02:35.78	212.03	14.59	-41.7	-43.9	16.8	5.97e-01	0	43	0	1692401664	55	4540
2026-01-24 09:02:36.78	212.23	14.70	-41.6	-43.8	16.9	5.97e-01	0	43	0	1707081728	55	4477
2026-01-24 09:02:37.79	212.42	14.81	-41.5	-43.7	17.0	5.97e-01	0	43	0	1721761792	55	4418
2026-01-24 09:02:38.80	212.62	14.92	-41.5	-43.7	17.0	5.98e-01	0	43	0	1738539008	55	4401
2026-01-24 09:02:39.81	212.82	15.03	-41.5	-43.6	17.1	5.95e-01	0	44	0	1755316224	55	4383
2026-01-24 09:02:40.81	213.02	15.14	-41.4	-43.5	17.1	5.97e-01	0	44	0	1769996288	54	4563
2026-01-24 09:02:41.82	213.22	15.25	-41.5	-43.7	17.0	5.96e-01	0	43	0	1784676352	54	4660
2026-01-24 09:02:42.83	213.43	15.36	-41.3	-43.4	17.2	5.96e-01	0	43	0	1801453568	54	4532
2026-01-24 09:02:43.84	213.64	15.48	-41.4	-43.6	17.1	5.98e-01	0	43	0	1816133632	54	4603
2026-01-24 09:02:44.85	213.85	15.59	-41.5	-43.6	17.1	5.95e-01	0	44	0	1830813696	54	4630
2026-01-24 09:02:45.85	214.06	15.70	-41.3	-43.4	17.2	5.96e-01	0	44	0	1847590912	54	4524
2026-01-24 09:02:46.86	214.27	15.81	-41.3	-43.3	17.2	5.96e-01	0	44	0	1862270976	54	4491
2026-01-24 09:02:47.87	214.48	15.93	-41.3	-43.4	17.3	5.97e-01	0	43	0	1876951040	54	4520
2026-01-24 09:02:48.88	214.70	16.04	-41.3	-43.4	17.3	5.95e-01	0	44	0	1891631104	54	4500
2026-01-24 09:02:49.89	214.92	16.15	-41.3	-43.4	17.2	5.95e-01	0	44	0	1908408320	54	4523
2026-01-24 09:02:50.89	215.14	16.27	-41.3	-43.5	17.2	5.97e-01	0	44	0	1923088384	54	4554
2026-01-24 09:02:51.90	215.36	16.38	-41.3	-43.5	17.2	5.97e-01	0	44	0	1939865600	54	4558
2026-01-24 09:02:52.91	215.58	16.50	-41.4	-43.5	17.1	5.95e-01	0	44	0	1956642816	54	4579
2026-01-24 09:02:53.92	215.81	16.61	-41.3	-43.5	17.2	5.95e-01	0	44	0	1971322880	54	4550
2026-01-24 09:02:54.93	216.04	16.73	-41.4	-43.5	17.1	5.97e-01	0	44	0	1986002944	54	4583
2026-01-24 09:02:55.93	216.26	16.84	-41.3	-43.4	17.2	5.99e-01	0	44	0	2000683008	54	4514
2026-01-24 09:02:56.94	216.50	16.96	-41.1	-43.2	17.4	5.95e-01	0	44	0	2017460224	54	4394
2026-01-24 09:02:57.95	216.73	17.08	-41.1	-43.1	17.4	5.97e-01	0	44	0	2032140288	54	4387
2026-01-24 09:02:58.96	216.97	17.19	-41.1	-43.1	17.4	5.97e-01	0	44	0	2046820352	54	4389
2026-01-24 09:02:59.97	217.21	17.31	-40.9	-43.0	17.5	5.95e-01	0	44	0	2063597568	53	4547
2026-01-24 09:03:00.97	217.44	17.43	-40.9	-43.0	17.5	5.94e-01	0	44	0	2078277632	53	4597
2026-01-24 09:03:01.98	217.69	17.54	-40.8	-42.9	17.6	5.95e-01	0	44	0	2092957696	53	4516
2026-01-24 09:03:02.99	217.93	17.66	-40.7	-42.8	17.6	5.95e-01	0	44	0	2109734912	53	4493
2026-01-24 09:03:04.00	218.18	17.78	-40.5	-42.6	17.8	5.83e-01	0	44	0	2126512128	53	4382
2026-01-24 09:03:05.01	218.43	17.90	-40.5	-42.6	17.8	5.83e-01	0	44	0	2141192192	52	4613
2026-01-24 09:03:06.01	218.68	18.02	-40.6	-42.7	17.7	5.83e-01	0	44	0	2155872256	52	4682
2026-01-24 09:03:07.02	218.93	18.14	-40.6	-42.7	17.7	5.83e-01	0	44	0	2172649472	52	4683
2026-01-24 09:03:08.03	219.19	18.26	-40.7	-42.9	17.7	5.82e-01	0	44	0	2187329536	52	4778
2026-01-24 09:03:09.04	219.44	18.38	-40.7	-42.9	17.6	5.81e-01	0	44	0	2202009600	52	4793
2026-01-24 09:03:10.05	219.70	18.50	-40.8	-43.0	17.5	5.82e-01	0	44	0	2218786816	52	4862
2026-01-24 09:03:11.05	219.97	18.61	-40.9	-43.2	17.4	5.82e-01	0	44	0	2233466880	52	4946
2026-01-24 09:03:12.06	220.23	18.73	-40.8	-43.0	17.5	5.81e-01	0	44	0	2248146944	52	4832
2026-01-24 09:03:13.07	220.50	18.86	-40.8	-43.0	17.6	5.81e-01	0	44	0	2264924160	52	4833
2026-01-24 09:03:14.08	220.77	18.98	-40.8	-42.9	17.6	5.82e-01	0	44	0	2279604224	52	4807
2026-01-24 09:03:15.09	221.04	19.10	-40.5	-42.7	17.8	5.82e-01	0	44	0	2294284288	52	4670
2026-01-24 09:03:16.09	221.31	19.22	-40.5	-42.6	17.8	5.82e-01	0	44	0	2311061504	52	4619
2026-01-24 09:03:17.10	221.59	19.34	-40.3	-42.4	18.1	5.82e-01	0	44	0	2327838720	52	4501
2026-01-24 09:03:18.11	221.87	19.46	-40.2	-42.2	18.2	5.83e-01	0	44	0	2342518784	52	4407
2026-01-24 09:03:19.12	222.15	19.58	-40.1	-42.2	18.2	5.82e-01	0	44	0	2357198848	52	4397
2026-01-24 09:03:20.13	222.44	19.70	-40.2	-42.4	18.0	5.82e-01	0	44	0	2373976064	52	4506
2026-01-24 09:03:21.14	222.73	19.83	-40.4	-42.6	17.9	5.82e-01	0	44	0	2388656128	52	4634
2026-01-24 09:03:22.14	223.01	19.95	-40.5	-42.8	17.7	5.82e-01	0	44	0	2403336192	52	4720
2026-01-24 09:03:23.15	223.31	20.07	-40.3	-42.6	17.9	5.83e-01	0	44	0	2420113408	52	4649
2026-01-24 09:03:24.16	223.60	20.19	-40.4	-42.7	17.9	5.82e-01	0	44	0	2434793472	52	4666
2026-01-24 09:03:25.17	223.90	20.31	-40.4	-42.6	17.8	5.82e-01	0	44	0	2449473536	52	4646
2026-01-24 09:03:26.17	224.20	20.43	-40.5	-42.8	17.8	5.83e-01	0	44	0	2466250752	52	4712
2026-01-24 09:03:27.18	224.50	20.56	-40.3	-42.6	17.9	5.82e-01	0	44	0	2480930816	52	4605
2026-01-24 09:03:28.19	224.81	20.68	-40.4	-42.5	17.9	5.82e-01	0	44	0	2495610880	52	4590
2026-01-24 09:03:29.19	225.11	20.80	-40.3	-42.4	18.0	5.83e-01	0	44	0	2512388096	52	4513
2026-01-24 09:03:30.20	225.42	20.92	-40.0	-42.0	18.2	6.01e-01	0	44	0	2529165312	52	4319
2026-01-24 09:03:31.21	225.74	21.04	-40.1	-42.0	18.3	6.04e-01	0	44	0	2543845376	51	4596
2026-01-24 09:03:32.22	226.05	21.17	-40.0	-42.0	18.2	6.01e-01	0	44	0	2558525440	51	4595
2026-01-24 09:03:33.23	226.37	21.29	-40.2	-42.3	18.1	6.02e-01	0	44	0	2575302656	51	4706
2026-01-24 09:03:34.23	226.69	21.41	-40.2	-42.3	18.1	6.00e-01	0	44	0	2589982720	51	4752
2026-01-24 09:03:35.24	227.02	21.53	-40.3	-42.4	18.0	6.03e-01	0	44	0	2604662784	51	4813
2026-01-24 09:03:36.25	227.35	21.65	-40.4	-42.7	17.8	6.04e-01	0	44	0	2621440000	51	4940
2026-01-24 09:03:37.26	227.68	21.77	-40.5	-42.8	17.7	6.02e-01	0	44	0	2636120064	51	5010
2026-01-24 09:03:38.27	228.01	21.90	-40.5	-42.8	17.8	6.00e-01	0	44	0	2650800128	51	5000
2026-01-24 09:03:39.27	228.35	22.02	-40.4	-42.6	17.9	6.03e-01	0	44	0	2667577344	51	4899
2026-01-24 09:03:40.28	228.69	22.14	-40.3	-42.4	18.0	6.03e-01	0	44	0	2682257408	51	4785
2026-01-24 09:03:41.29	229.03	22.26	-40.0	-42.0	18.4	6.02e-01	0	44	0	2696937472	51	4561
2026-01-24 09:03:42.30	229.38	22.38	-39.7	-41.6	18.6	6.01e-01	0	44	0	2713714688	51	4388
2026-01-24 09:03:43.31	229.73	22.50	-39.8	-41.7	18.6	6.03e-01	0	44	0	2730491904	51	4392
2026-01-24 09:03:44.31	230.07	22.62	-40.0	-41.9	18.4	6.02e-01	0	44	0	2745171968	51	4543
2026-01-24 09:03:45.32	230.43	22.74	-40.2	-42.2	18.2	6.02e-01	0	44	0	2759852032	51	4685
2026-01-24 09:03:46.33	230.79	22.86	-40.4	-42.5	18.0	6.02e-01	0	44	0	2776629248	51	4846
2026-01-24 09:03:47.34	231.15	22.98	-40.4	-42.7	17.9	6.02e-01	0	44	0	2791309312	51	4929
2026-01-24 09:03:48.35	231.51	23.10	-40.4	-42.7	17.9	6.02e-01	0	44	0	2805989376	51	4971
2026-01-24 09:03:49.35	231.88	23.21	-40.5	-42.9	17.7	6.01e-01	0	44	0	2822766592	51	5046
2026-01-24 09:03:50.36	232.25	23.33	-40.5	-42.8	17.8	6.02e-01	0	44	0	2837446656	51	5007
2026-01-24 09:03:51.37	232.62	23.45	-40.5	-42.8	17.8	6.01e-01	0	44	0	2852126720	51	4997
2026-01-24 09:03:52.38	233.00	23.57	-40.3	-42.6	18.0	6.02e-01	0	44	0	2868903936	51	4877
2026-01-24 09:03:53.39	233.38	23.68	-40.3	-42.5	18.1	6.02e-01	0	44	0	2883584000	51	4822
2026-01-24 09:03:54.40	233.76	23.80	-40.3	-42.4	18.2	5.98e-01	0	44	0	2900361216	51	4762
2026-01-24 09:03:55.41	234.14	23.92	-40.0	-42.0	18.4	6.03e-01	0	44	0	2915041280	51	4568
2026-01-24 09:03:56.41	234.53	24.03	-40.1	-42.1	18.3	6.01e-01	0	44	0	2931818496	51	4615
2026-01-24 09:03:57.42	234.92	24.14	-40.2	-42.2	18.2	6.01e-01	0	44	0	2946498560	51	4692
2026-01-24 09:03:58.43	235.32	24.26	-40.3	-42.5	18.0	6.00e-01	0	44	0	2961178624	51	4820
2026-01-24 09:03:59.44	235.71	24.37	-40.3	-42.6	17.9	6.01e-01	0	44	0	2977955840	51	4913
2026-01-24 09:04:00.45	236.12	24.48	-40.4	-42.8	17.8	5.99e-01	0	44	0	2992635904	51	4991
2026-01-24 09:04:01.45	236.52	24.59	-40.5	-42.9	17.8	6.02e-01	0	44	0	3007315968	51	5053
2026-01-24 09:04:02.46	236.92	24.70	-40.5	-42.9	17.8	6.01e-01	0	44	0	3024093184	51	5052
2026-01-24 09:04:03.47	237.33	24.81	-40.3	-42.6	18.0	6.00e-01	0	44	0	3038773248	51	4874
2026-01-24 09:04:04.48	237.75	24.92	-40.2	-42.5	18.1	6.01e-01	0	44	0	3053453312	51	4817
2026-01-24 09:04:05.49	238.17	25.03	-40.1	-42.2	18.2	6.01e-01	0	44	0	3070230528	51	4697
2026-01-24 09:04:06.49	238.58	25.13	-39.9	-41.9	18.4	6.03e-01	0	44	0	3084910592	51	4543
2026-01-24 09:04:07.50	239.00	25.24	-39.8	-41.9	18.4	6.01e-01	0	44	0	3101687808	51	4531
2026-01-24 09:04:08.51	239.43	25.35	-40.0	-42.2	18.2	6.00e-01	0	44	0	3116367872	51	4659
2026-01-24 09:04:09.52	239.86	25.45	-40.1	-42.3	18.2	6.01e-01	0	44	0	3133145088	51	4717
2026-01-24 09:04:10.53	240.29	25.55	-40.3	-42.5	18.0	6.03e-01	0	44	0	3147825152	51	4860
2026-01-24 09:04:11.53	240.72	25.65	-40.6	-42.9	17.8	6.01e-01	0	44	0	3162505216	51	5053
2026-01-24 09:04:12.54	241.16	25.75	-40.6	-42.9	17.7	6.02e-01	0	44	0	3179282432	51	5062
2026-01-24 09:04:13.55	241.60	25.85	-40.6	-43.0	17.6	6.01e-01	0	44	0	3193962496	51	5139
2026-01-24 09:04:14.56	242.05	25.95	-40.6	-43.2	17.6	6.00e-01	0	44	0	3208642560	51	5245
2026-01-24 09:04:15.57	242.50	26.05	-40.6	-43.2	17.5	6.02e-01	0	44	0	3225419776	51	5247
2026-01-24 09:04:16.57	242.94	26.14	-40.8	-43.3	17.4	6.01e-01	0	44	0	3240099840	52	4997
2026-01-24 09:04:17.58	243.40	26.24	-40.6	-43.0	17.6	6.00e-01	0	44	0	3254779904	52	4848
2026-01-24 09:04:18.59	243.85	26.33	-40.4	-42.7	17.8	6.00e-01	0	44	0	3269459968	52	4681
2026-01-24 09:04:19.60	244.31	26.42	-40.2	-42.5	18.0	6.00e-01	0	44	0	3288334336	52	4562
2026-01-24 09:04:20.61	244.77	26.51	-40.3	-42.5	18.0	6.00e-01	0	44	0	3303014400	52	4583
2026-01-24 09:04:21.61	245.23	26.60	-40.2	-42.4	18.1	6.01e-01	0	44	0	3317694464	52	4539
2026-01-24 09:04:22.62	245.70	26.69	-40.3	-42.5	18.1	6.02e-01	0	44	0	3334471680	52	4550
2026-01-24 09:04:23.63	246.17	26.77	-40.3	-42.4	18.1	6.02e-01	0	44	0	3349151744	52	4536
2026-01-24 09:04:24.64	246.64	26.86	-40.4	-42.6	18.0	6.02e-01	0	44	0	3363831808	52	4614
2026-01-24 09:04:25.65	247.12	26.94	-40.6	-43.0	17.7	6.03e-01	0	44	0	3378511872	52	4823
2026-01-24 09:04:26.65	247.59	27.02	-40.6	-43.0	17.7	6.01e-01	0	44	0	3395289088	52	4862
2026-01-24 09:04:27.66	248.08	27.10	-40.5	-43.0	17.6	6.01e-01	0	44	0	3409969152	52	4864
2026-01-24 09:04:28.67	248.56	27.18	-40.5	-43.1	17.6	5.99e-01	0	44	0	3424649216	52	4900
2026-01-24 09:04:29.68	249.05	27.25	-40.6	-43.2	17.5	6.02e-01	0	44	0	3441426432	52	4972
2026-01-24 09:04:30.69	249.53	27.33	-40.7	-43.3	17.5	6.03e-01	0	44	0	3456106496	52	5021
2026-01-24 09:04:31.70	250.03	27.40	-40.6	-43.2	17.5	6.00e-01	0	44	0	3470786560	52	4978
2026-01-24 09:04:32.70	250.51	27.47	-40.5	-43.0	17.7	6.02e-01	0	44	0	3487563776	52	4824
2026-01-24 09:04:33.71	251.01	27.54	-40.7	-43.1	17.6	6.01e-01	0	44	0	3504340992	52	4894
2026-01-24 09:04:34.72	251.51	27.60	-40.3	-42.8	17.8	6.01e-01	0	44	0	3519021056	52	4732
2026-01-24 09:04:35.73	252.01	27.67	-40.2	-42.7	17.9	6.03e-01	0	44	0	3533701120	52	4664
2026-01-24 09:04:36.73	252.50	27.73	-40.2	-42.5	18.0	6.02e-01	0	44	0	3550478336	52	4595
2026-01-24 09:04:37.74	253.01	27.79	-40.3	-42.5	18.0	6.02e-01	0	44	0	3565158400	52	4589
2026-01-24 09:04:38.75	253.52	27.85	-40.2	-42.6	18.0	6.01e-01	0	44	0	3579838464	52	4618
2026-01-24 09:04:39.76	254.02	27.90	-40.4	-42.7	17.8	6.03e-01	0	44	0	3596615680	52	4687
2026-01-24 09:04:40.77	254.53	27.96	-40.4	-42.7	17.8	6.06e-01	0	44	0	3611295744	52	4688
2026-01-24 09:04:41.77	255.04	28.01	-40.4	-42.8	17.9	6.02e-01	0	44	0	3625975808	52	4713
2026-01-24 09:04:42.78	255.55	28.06	-40.5	-42.8	17.9	6.02e-01	0	44	0	3642753024	52	4750
2026-01-24 09:04:43.79	256.07	28.11	-40.5	-42.9	17.8	6.02e-01	0	44	0	3657433088	52	4779
2026-01-24 09:04:44.80	256.59	28.15	-40.6	-43.1	17.6	6.03e-01	0	44	0	3674210304	52	4913
2026-01-24 09:04:45.81	257.11	28.20	-40.7	-43.3	17.4	6.03e-01	0	44	0	3688890368	52	4997
2026-01-24 09:04:46.81	257.62	28.24	-40.8	-43.3	17.4	6.03e-01	0	44	0	3705667584	52	5011
2026-01-24 09:04:47.82	258.14	28.28	-40.8	-43.3	17.4	6.03e-01	0	44	0	3720347648	52	5009
2026-01-24 09:04:48.83	258.67	28.31	-40.9	-43.4	17.5	6.02e-01	0	44	0	3735027712	52	5063
2026-01-24 09:04:49.84	259.19	28.35	-40.9	-43.5	17.3	6.04e-01	0	44	0	3751804928	52	5105
2026-01-24 09:04:50.85	259.71	28.38	-40.9	-43.4	17.4	6.03e-01	0	44	0	3766484992	52	5078
2026-01-24 09:04:51.85	260.24	28.41	-40.9	-43.5	17.3	6.04e-01	0	44	0	3781165056	52	5115
2026-01-24 09:04:52.86	260.76	28.44	-41.0	-43.6	17.3	6.04e-01	0	44	0	3797942272	52	5168
2026-01-24 09:04:53.87	261.29	28.46	-40.8	-43.3	17.5	6.01e-01	0	44	0	3812622336	52	5015
2026-01-24 09:04:54.88	261.82	28.48	-40.6	-43.0	17.7	6.04e-01	0	44	0	3827302400	52	4855
2026-01-24 09:04:55.89	262.35	28.50	-40.6	-43.0	17.7	6.05e-01	0	44	0	3844079616	52	4852
2026-01-24 09:04:56.90	262.88	28.52	-40.5	-43.0	17.7	6.02e-01	0	44	0	3858759680	52	4818
2026-01-24 09:04:57.90	263.40	28.53	-40.6	-43.1	17.7	5.99e-01	0	44	0	3875536896	52	4878
2026-01-24 09:04:58.91	263.94	28.55	-40.6	-43.1	17.6	6.01e-01	0	44	0	3890216960	52	4924
2026-01-24 09:04:59.92	264.47	28.56	-40.6	-43.2	17.6	6.02e-01	0	44	0	3906994176	52	4928
2026-01-24 09:05:00.93	265.00	28.56	-40.7	-43.2	17.6	6.02e-01	0	44	0	3921674240	52	4944
2026-01-24 09:05:01.94	265.53	28.57	-40.6	-43.0	17.8	6.04e-01	0	44	0	3936354304	52	4859
2026-01-24 09:05:02.95	266.06	28.57	-40.5	-43.0	17.7	6.02e-01	0	44	0	3953131520	52	4815
2026-01-24 09:05:03.95	266.59	28.57	-40.4	-42.9	17.7	6.02e-01	0	44	0	3967811584	52	4796
2026-01-24 09:05:04.96	267.12	28.57	-40.5	-43.0	17.8	6.02e-01	0	44	0	3982491648	52	4829
2026-01-24 09:05:05.97	267.66	28.57	-40.5	-43.0	17.8	6.02e-01	0	44	0	3999268864	52	4841
2026-01-24 09:05:06.98	268.19	28.56	-40.3	-42.8	17.9	6.03e-01	0	44	0	4013948928	52	4735
2026-01-24 09:05:07.99	268.72	28.55	-40.4	-42.8	17.9	6.02e-01	0	44	0	4028628992	52	4733
2026-01-24 09:05:08.99	269.24	28.54	-40.5	-42.8	17.9	6.03e-01	0	44	0	4045406208	52	4720
2026-01-24 09:05:10.00	269.78	28.52	-40.5	-42.9	17.8	6.03e-01	0	44	0	4062183424	52	4767
2026-01-24 09:05:11.01	270.31	28.51	-40.5	-42.9	17.9	6.03e-01	0	44	0	4076863488	52	4770
2026-01-24 09:05:12.02	270.84	28.49	-40.4	-42.8	17.9	6.03e-01	0	44	0	4091543552	52	4733
2026-01-24 09:05:13.03	271.36	28.46	-40.2	-42.5	18.1	6.00e-01	0	44	0	4108320768	52	4592
2026-01-24 09:05:14.04	271.89	28.44	-40.2	-42.6	18.0	6.02e-01	0	44	0	4123000832	52	4629
2026-01-24 09:05:15.04	272.41	28.41	-40.3	-42.7	18.0	6.02e-01	0	44	0	4137680896	52	4679
2026-01-24 09:05:16.05	272.94	28.38	-40.4	-42.6	18.0	6.02e-01	0	44	0	4154458112	52	4641
2026-01-24 09:05:17.06	273.46	28.35	-40.4	-42.5	18.1	6.02e-01	0	44	0	4169138176	52	4592
2026-01-24 09:05:18.07	273.99	28.32	-40.5	-42.6	18.0	6.03e-01	0	44	0	4183818240	52	4631
2026-01-24 09:05:19.08	274.51	28.28	-40.4	-42.6	18.1	6.04e-01	0	44	0	4200595456	52	4638
2026-01-24 09:05:20.09	275.03	28.25	-40.3	-42.6	18.1	6.02e-01	0	44	0	4215275520	52	4640
2026-01-24 09:05:21.10	275.55	28.20	-40.4	-42.7	18.0	6.02e-01	0	44	0	4232052736	52	4701
2026-01-24 09:05:22.11	276.07	28.16	-40.5	-42.7	18.0	6.03e-01	0	44	0	4246732800	52	4666
2026-01-24 09:05:23.12	276.59	28.12	-40.2	-42.3	18.3	6.03e-01	0	44	0	4263510016	52	4450
2026-01-24 09:05:24.13	277.10	28.07	-40.1	-42.2	18.4	6.03e-01	0	44	0	4278190080	52	4415
2026-01-24 09:05:25.13	277.61	28.02	-40.2	-42.4	18.2	6.04e-01	0	44	0	4292870144	52	4500
2026-01-24 09:05:26.14	278.12	27.97	-40.2	-42.3	18.3	6.04e-01	0	44	0	4309647360	52	4483
2026-01-24 09:05:27.15	278.63	27.92	-40.3	-42.4	18.3	6.02e-01	0	44	0	4324327424	52	4503
2026-01-24 09:05:28.16	279.14	27.86	-40.3	-42.4	18.3	6.01e-01	0	44	0	4339007488	52	4498
2026-01-24 09:05:29.17	279.64	27.80	-40.2	-42.3	18.3	6.03e-01	0	43	0	4355784704	52	4477
2026-01-24 09:05:30.18	280.15	27.74	-40.0	-42.1	18.5	6.02e-01	0	44	0	4370464768	52	4344
2026-01-24 09:05:31.19	280.65	27.68	-40.1	-42.1	18.4	6.03e-01	0	44	0	4385144832	51	4630
2026-01-24 09:05:32.20	281.15	27.62	-40.1	-42.2	18.3	6.03e-01	0	44	0	4401922048	51	4658
2026-01-24 09:05:33.21	281.65	27.55	-40.1	-42.2	18.4	6.02e-01	0	44	0	4418699264	51	4686
2026-01-24 09:05:34.21	282.14	27.48	-40.1	-42.2	18.5	6.04e-01	0	44	0	4433379328	51	4670
2026-01-24 09:05:35.22	282.63	27.41	-40.0	-42.0	18.6	6.04e-01	0	43	0	4448059392	51	4590
2026-01-24 09:05:36.23	283.12	27.34	-40.1	-42.1	18.5	5.99e-01	0	44	0	4464836608	51	4628
2026-01-24 09:05:37.24	283.61	27.27	-39.9	-41.9	18.6	6.04e-01	0	44	0	4479516672	51	4522
2026-01-24 09:05:38.24	284.09	27.19	-39.9	-42.0	18.5	6.01e-01	0	43	0	4494196736	51	4566
2026-01-24 09:05:39.25	284.57	27.12	-40.1	-42.3	18.4	5.82e-01	0	43	0	4510973952	51	4728
2026-01-24 09:05:40.26	285.05	27.04	-40.3	-42.5	18.3	5.82e-01	0	43	0	4525654016	51	4822
2026-01-24 09:05:41.27	285.53	26.96	-40.4	-42.6	18.3	5.82e-01	0	44	0	4540334080	51	4879
2026-01-24 09:05:42.28	286.00	26.88	-40.4	-42.4	18.3	5.83e-01	0	44	0	4557111296	51	4776
2026-01-24 09:05:43.29	286.48	26.79	-40.1	-42.1	18.5	5.82e-01	0	43	0	4571791360	51	4634
2026-01-24 09:05:44.30	286.95	26.71	-40.2	-42.2	18.5	5.83e-01	0	44	0	4586471424	51	4662
2026-01-24 09:05:45.31	287.41	26.62	-40.1	-42.1	18.6	5.82e-01	0	44	0	4603248640	51	4603
2026-01-24 09:05:46.31	287.87	26.53	-40.0	-42.0	18.6	5.82e-01	0	44	0	4620025856	51	4552
2026-01-24 09:05:47.32	288.33	26.44	-39.9	-42.0	18.6	5.82e-01	0	44	0	4634705920	51	4567
2026-01-24 09:05:48.33	288.79	26.35	-39.9	-41.9	18.7	5.83e-01	0	44	0	4649385984	51	4517
2026-01-24 09:05:49.34	289.25	26.26	-41.1	-41.7	18.7	5.83e-01	0	43	0	4666163200	52	4189
2026-01-24 09:05:50.35	289.70	26.17	-41.0	-41.7	18.7	5.81e-01	0	44	0	4680843264	52	4182
2026-01-24 09:05:51.36	290.15	26.07	-54.4	-63.3	3.8	7.45e-01	0	43	104	4689231872	79	10647
2026-01-24 09:05:52.37	290.60	25.97	-54.4	-63.3	3.8	7.47e-01	0	43	104	4689231872	79	10581
2026-01-24 09:05:53.38	291.04	25.88	-54.4	-63.3	3.8	7.46e-01	0	44	104	4689231872	79	10542
2026-01-24 09:05:54.38	291.48	25.78	-54.4	-63.2	3.8	7.45e-01	0	43	104	4689231872	79	10475
2026-01-24 09:05:55.39	291.91	25.68	-54.4	-63.2	3.8	7.46e-01	0	44	104	4689231872	79	10514
2026-01-24 09:05:56.40	292.35	25.58	-54.4	-63.3	3.8	7.44e-01	0	43	104	4689231872	79	10557
2026-01-24 09:05:57.41	292.78	25.48	-54.4	-63.2	3.8	7.45e-01	0	44	104	4689231872	79	10478
2026-01-24 09:05:58.42	293.21	25.37	-54.4	-63.2	3.8	7.47e-01	0	44	104	4689231872	79	10512
2026-01-24 09:05:59.43	293.63	25.27	-54.5	-63.3	3.8	7.47e-01	0	43	104	4689231872	79	10581
2026-01-24 09:06:00.44	294.06	25.16	-54.4	-63.2	3.8	7.45e-01	0	44	104	4689231872	79	10501
2026-01-24 09:06:01.45	294.48	25.06	-54.4	-63.2	3.8	7.46e-01	0	43	104	4689231872	79	10499
2026-01-24 09:06:02.45	294.89	24.95	-54.4	-63.2	3.8	7.45e-01	0	44	104	4689231872	79	10521
2026-01-24 09:06:03.46	295.30	24.84	-54.4	-63.3	3.8	7.45e-01	0	43	104	4689231872	79	10555
2026-01-24 09:06:04.47	295.71	24.73	-54.4	-63.2	3.8	7.46e-01	0	44	104	4689231872	79	10511
2026-01-24 09:06:05.48	296.12	24.62	-54.4	-63.2	3.8	7.45e-01	0	43	104	4689231872	79	10459
2026-01-24 09:06:06.49	296.52	24.51	-54.4	-63.2	3.8	7.45e-01	0	43	104	4689231872	79	10515
2026-01-24 09:06:07.50	296.92	24.40	-54.4	-63.3	3.8	7.45e-01	0	44	104	4689231872	79	10541
2026-01-24 09:06:08.50	297.32	24.29	-54.4	-63.3	3.8	7.45e-01	0	43	104	4689231872	79	10552
2026-01-24 09:06:09.51	297.71	24.18	-54.4	-63.2	3.8	7.45e-01	0	43	104	4689231872	79	10509
2026-01-24 09:06:10.52	298.10	24.06	-54.4	-63.2	3.8	7.44e-01	0	44	104	4689231872	79	10503
2026-01-24 09:06:11.53	298.49	23.95	-54.5	-63.3	3.8	7.45e-01	0	43	104	4689231872	79	10577
2026-01-24 09:06:12.54	298.87	23.84	-54.4	-63.2	3.8	7.46e-01	0	43	104	4689231872	79	10498
2026-01-24 09:06:13.55	299.26	23.72	-54.4	-63.2	3.8	7.45e-01	0	44	104	4689231872	79	10505
2026-01-24 09:06:14.56	299.63	23.60	-54.4	-63.2	3.8	7.44e-01	0	44	104	4689231872	79	10509
2026-01-24 09:06:15.57	300.01	23.49	-54.4	-63.3	3.8	7.47e-01	0	43	104	4689231872	79	10586
2026-01-24 09:06:16.57	300.38	23.37	-54.4	-63.2	3.8	7.45e-01	0	43	104	4689231872	79	10520
2026-01-24 09:06:17.58	300.75	23.25	-54.4	-63.2	3.8	7.45e-01	0	44	104	4689231872	79	10511
2026-01-24 09:06:18.59	301.11	23.14	-54.4	-63.2	3.8	7.45e-01	0	44	104	4689231872	79	10495
2026-01-24 09:06:19.60	301.48	23.02	-54.4	-63.2	3.8	7.46e-01	0	44	104	4689231872	79	10481
2026-01-24 09:06:20.61	301.84	22.90	-54.4	-63.2	3.8	7.46e-01	0	43	104	4689231872	79	10444
2026-01-24 09:06:21.61	302.19	22.78	-54.4	-63.2	3.8	7.46e-01	0	43	104	4689231872	79	10466
2026-01-24 09:06:22.62	302.55	22.66	-54.4	-63.2	3.8	7.48e-01	0	43	104	4689231872	79	10475
2026-01-24 09:06:23.63	302.90	22.54	-54.4	-63.2	3.8	7.45e-01	0	44	104	4689231872	79	10446
2026-01-24 09:06:24.64	303.24	22.42	-54.4	-63.2	3.8	7.45e-01	0	43	104	4689231872	79	10488
2026-01-24 09:06:25.64	303.59	22.31	-54.4	-63.1	3.8	7.44e-01	0	43	104	4689231872	79	10399
2026-01-24 09:06:26.65	303.93	22.19	-54.4	-63.2	3.8	7.45e-01	0	43	104	4689231872	79	10426
2026-01-24 09:06:27.66	304.27	22.06	-54.4	-63.2	3.8	7.45e-01	0	44	104	4689231872	79	10478
2026-01-24 09:06:28.67	304.60	21.94	-54.4	-63.2	3.8	7.44e-01	0	44	104	4689231872	79	10462
2026-01-24 09:06:29.68	304.94	21.82	-54.3	-63.2	3.8	7.45e-01	0	43	104	4689231872	79	10438
2026-01-24 09:06:30.69	305.27	21.70	-54.3	-63.1	3.8	7.45e-01	0	43	104	4689231872	79	10402
2026-01-24 09:06:31.70	305.60	21.58	-54.4	-63.2	3.8	7.45e-01	0	43	104	4689231872	79	10513
2026-01-24 09:06:32.71	305.92	21.46	-54.3	-63.2	3.8	7.47e-01	0	43	104	4689231872	79	10437
2026-01-24 09:06:33.72	306.24	21.34	-54.3	-63.1	3.8	7.45e-01	0	43	104	4689231872	79	10405
2026-01-24 09:06:34.73	306.56	21.22	-54.3	-63.1	3.8	7.45e-01	0	44	104	4689231872	79	10330
2026-01-24 09:06:35.73	306.88	21.10	-54.3	-63.1	3.8	7.46e-01	0	43	104	4689231872	79	10406
2026-01-24 09:06:36.74	307.19	20.98	-54.4	-63.2	3.8	7.44e-01	0	44	104	4689231872	79	10454
2026-01-24 09:06:37.75	307.50	20.85	-54.3	-63.1	3.8	7.45e-01	0	43	104	4689231872	79	10399
2026-01-24 09:06:38.76	307.81	20.73	-54.3	-63.2	3.8	7.47e-01	0	43	104	4689231872	79	10421
2026-01-24 09:06:39.77	308.11	20.61	-54.3	-63.1	3.8	7.44e-01	0	43	104	4689231872	79	10361
2026-01-24 09:06:40.78	308.42	20.49	-54.3	-63.1	3.8	7.46e-01	0	43	104	4689231872	79	10382
2026-01-24 09:06:41.79	308.72	20.37	-54.3	-63.1	3.8	7.45e-01	0	43	104	4689231872	79	10337
2026-01-24 09:06:42.79	309.01	20.25	-54.3	-63.1	3.8	7.46e-01	0	43	104	4689231872	79	10344
2026-01-24 09:06:43.80	309.30	20.13	-54.3	-63.1	3.8	7.46e-01	0	43	104	4689231872	79	10309
2026-01-24 09:06:44.81	309.60	20.00	-54.3	-63.1	3.8	7.46e-01	0	44	104	4689231872	79	10314
2026-01-24 09:06:45.82	309.89	19.88	-54.2	-63.1	3.8	7.44e-01	0	43	104	4689231872	79	10294
2026-01-24 09:06:46.83	310.17	19.76	-54.2	-63.0	3.8	7.44e-01	0	43	104	4689231872	79	10257
2026-01-24 09:06:47.83	310.45	19.64	-54.2	-63.0	3.8	7.44e-01	0	43	104	4689231872	79	10290
2026-01-24 09:06:48.84	310.74	19.52	-54.2	-63.0	3.8	7.45e-01	0	44	104	4689231872	79	10240
2026-01-24 09:06:49.85	311.02	19.40	-54.2	-63.0	3.8	7.45e-01	0	43	104	4689231872	79	10203
2026-01-24 09:06:50.86	311.29	19.28	-54.2	-63.0	3.8	7.44e-01	0	43	104	4689231872	79	10266
2026-01-24 09:06:51.87	311.57	19.16	-54.2	-63.1	3.8	7.48e-01	0	43	104	4689231872	79	10294
2026-01-24 09:06:52.88	311.84	19.04	-54.2	-63.0	3.8	7.46e-01	0	43	104	4689231872	79	10243
2026-01-24 09:06:53.89	312.11	18.92	-54.2	-63.0	3.8	7.44e-01	0	43	104	4689231872	79	10276
2026-01-24 09:06:54.89	312.37	18.80	-54.2	-63.0	3.8	7.43e-01	0	43	104	4689231872	79	10277
2026-01-24 09:06:55.90	312.64	18.68	-54.2	-63.0	3.8	7.45e-01	0	44	104	4689231872	79	10231
2026-01-24 09:06:56.91	312.90	18.56	-54.2	-63.0	3.8	7.45e-01	0	44	104	4689231872	79	10221
2026-01-24 09:06:57.92	313.16	18.44	-54.2	-63.0	3.8	7.46e-01	0	43	104	4689231872	79	10200
2026-01-24 09:06:58.93	313.42	18.32	-54.2	-63.0	3.8	7.45e-01	0	43	104	4689231872	79	10207
2026-01-24 09:06:59.94	313.67	18.20	-54.2	-63.0	3.8	7.44e-01	0	43	104	4689231872	79	10245
2026-01-24 09:07:00.95	313.93	18.09	-54.1	-62.9	3.8	7.46e-01	0	44	104	4689231872	79	10174
2026-01-24 09:07:01.96	314.18	17.97	-54.1	-62.9	3.8	7.45e-01	0	44	104	4689231872	79	10166
2026-01-24 09:07:02.97	314.43	17.85	-54.1	-62.9	3.8	7.47e-01	0	43	104	4689231872	79	10162
2026-01-24 09:07:03.97	314.67	17.73	-54.1	-63.0	3.8	7.45e-01	0	43	104	4689231872	79	10200
2026-01-24 09:07:04.98	314.91	17.62	-54.1	-62.9	3.8	7.43e-01	0	43	104	4689231872	79	10152
2026-01-24 09:07:05.99	315.16	17.50	-54.1	-62.9	3.8	7.44e-01	0	43	104	4689231872	79	10132
2026-01-24 09:07:07.00	315.40	17.38	-54.1	-63.0	3.8	7.46e-01	0	43	104	4689231872	79	10211
2026-01-24 09:07:08.01	315.63	17.27	-54.1	-62.9	3.8	7.45e-01	0	44	104	4689231872	79	10154
2026-01-24 09:07:09.02	315.87	17.15	-54.1	-62.9	3.8	7.45e-01	0	43	104	4689231872	79	10145
2026-01-24 09:07:10.03	316.10	17.03	-54.1	-62.9	3.8	7.45e-01	0	43	104	4689231872	79	10155
2026-01-24 09:07:11.04	316.34	16.92	-54.1	-62.9	3.8	7.44e-01	0	43	104	4689231872	79	10122
2026-01-24 09:07:12.05	316.57	16.80	-54.1	-62.9	3.8	7.45e-01	0	43	104	4689231872	79	10132
2026-01-24 09:07:13.05	316.79	16.69	-54.1	-62.9	3.8	7.45e-01	0	43	104	4689231872	79	10136
2026-01-24 09:07:14.06	317.02	16.57	-54.0	-62.9	3.8	7.46e-01	0	43	104	4689231872	79	10094
2026-01-24 09:07:15.07	317.24	16.46	-54.1	-62.9	3.8	7.45e-01	0	43	104	4689231872	79	10096
2026-01-24 09:07:16.08	317.46	16.35	-54.0	-62.8	3.8	7.44e-01	0	44	104	4689231872	79	10052
2026-01-24 09:07:17.09	317.68	16.23	-54.0	-62.8	3.8	7.45e-01	0	43	104	4689231872	79	10050
2026-01-24 09:07:18.10	317.90	16.12	-54.0	-62.8	3.8	7.45e-01	0	44	104	4689231872	79	10000
2026-01-24 09:07:19.11	318.12	16.01	-54.0	-62.9	3.8	7.46e-01	0	43	104	4689231872	79	10071
2026-01-24 09:07:20.11	318.33	15.89	-54.0	-62.8	3.8	7.44e-01	0	43	104	4689231872	79	10028
2026-01-24 09:07:21.12	318.54	15.78	-54.0	-62.8	3.8	7.45e-01	0	43	104	4689231872	79	10015
2026-01-24 09:07:22.13	318.75	15.67	-54.0	-62.8	3.8	7.46e-01	0	43	104	4689231872	79	9998
2026-01-24 09:07:23.14	318.96	15.56	-54.0	-62.8	3.8	7.45e-01	0	43	104	4689231872	79	10016
2026-01-24 09:07:24.15	319.17	15.45	-54.0	-62.8	3.8	7.44e-01	0	43	104	4689231872	79	9981
2026-01-24 09:07:25.16	319.37	15.34	-54.0	-62.8	3.8	7.45e-01	0	43	104	4689231872	79	9968
2026-01-24 09:07:26.17	319.58	15.23	-53.9	-62.7	3.8	7.45e-01	0	43	104	4689231872	79	9909
2026-01-24 09:07:27.18	319.78	15.12	-53.9	-62.8	3.8	7.46e-01	0	44	104	4689231872	79	9953
2026-01-24 09:07:28.19	319.98	15.01	-53.9	-62.7	3.8	7.46e-01	0	43	104	4689231872	79	9901
2026-01-24 09:07:29.20	320.18	14.90	-53.9	-62.7	3.8	7.43e-01	0	43	104	4689231872	79	9905
2026-01-24 09:07:30.20	320.37	14.79	-53.9	-62.7	3.8	7.44e-01	0	43	104	4689231872	79	9881
2026-01-24 09:07:31.21	320.56	14.68	-53.9	-62.7	3.8	7.45e-01	0	43	104	4689231872	79	9912
2026-01-24 09:07:32.22	320.76	14.57	-53.9	-62.7	3.8	7.46e-01	0	43	104	4689231872	79	9865
2026-01-24 09:07:33.23	320.95	14.46	-53.8	-62.7	3.8	7.46e-01	0	43	104	4689231872	79	9873
2026-01-24 09:07:34.24	321.14	14.36	-53.8	-62.6	3.8	7.44e-01	0	43	104	4689231872	79	9804
2026-01-24 09:07:35.25	321.33	14.25	-53.9	-62.7	3.8	7.47e-01	0	43	104	4689231872	79	9869
2026-01-24 09:07:36.25	321.51	14.14	-53.8	-62.6	3.8	7.44e-01	0	43	104	4689231872	79	9805
2026-01-24 09:07:37.26	321.70	14.04	-53.8	-62.6	3.8	7.47e-01	0	43	104	4689231872	79	9794
2026-01-24 09:07:38.27	321.88	13.93	-53.8	-62.6	3.8	7.46e-01	0	43	104	4689231872	79	9781
2026-01-24 09:07:39.28	322.06	13.83	-53.8	-62.6	3.8	7.46e-01	0	43	104	4689231872	79	9797
2026-01-24 09:07:40.29	322.25	13.72	-53.8	-62.6	3.8	7.47e-01	0	43	104	4689231872	79	9795
2026-01-24 09:07:41.29	322.42	13.62	-53.8	-62.6	3.8	7.46e-01	0	43	104	4689231872	79	9718
2026-01-24 09:07:42.30	322.60	13.51	-53.8	-62.6	3.8	7.44e-01	0	43	104	4689231872	79	9787
2026-01-24 09:07:43.31	322.78	13.41	-53.8	-62.6	3.8	7.43e-01	0	43	104	4689231872	79	9806
2026-01-24 09:07:44.31	322.95	13.30	-53.8	-62.6	3.8	7.46e-01	0	43	104	4689231872	79	9726
2026-01-24 09:07:45.32	323.12	13.20	-53.8	-62.6	3.8	7.44e-01	0	43	104	4689231872	79	9767
2026-01-24 09:07:46.33	323.30	13.10	-53.7	-62.6	3.8	7.46e-01	0	43	104	4689231872	79	9749
2026-01-24 09:07:47.34	323.47	13.00	-53.8	-62.6	3.8	7.44e-01	0	43	104	4689231872	79	9760
2026-01-24 09:07:48.35	323.64	12.89	-53.8	-62.5	3.8	7.45e-01	0	43	104	4689231872	79	9702
2026-01-24 09:07:49.35	323.80	12.79	-53.7	-62.5	3.8	7.46e-01	0	44	104	4689231872	79	9717
2026-01-24 09:07:50.36	323.97	12.69	-53.7	-62.6	3.8	7.45e-01	0	43	104	4689231872	79	9757
2026-01-24 09:07:51.37	324.13	12.59	-53.7	-62.6	3.8	7.45e-01	0	43	104	4689231872	79	9724
2026-01-24 09:07:52.38	324.30	12.49	-53.7	-62.5	3.8	7.45e-01	0	43	104	4689231872	79	9696
2026-01-24 09:07:53.39	324.46	12.39	-53.7	-62.5	3.8	7.45e-01	0	43	104	4689231872	79	9690
2026-01-24 09:07:54.39	324.62	12.29	-53.7	-62.5	3.8	7.46e-01	0	43	104	4689231872	79	9712
2026-01-24 09:07:55.40	324.78	12.19	-53.7	-62.6	3.8	7.45e-01	0	43	104	4689231872	79	9725
2026-01-24 09:07:56.41	324.94	12.09	-53.7	-62.5	3.8	7.46e-01	0	43	104	4689231872	79	9691
2026-01-24 09:07:57.42	325.10	11.99	-53.7	-62.5	3.8	7.45e-01	0	43	104	4689231872	79	9654
2026-01-24 09:07:58.43	325.25	11.89	-53.7	-62.5	3.8	7.46e-01	0	43	104	4689231872	79	9671
2026-01-24 09:07:59.43	325.41	11.80	-53.7	-62.5	3.8	7.44e-01	0	43	104	4689231872	79	9669
2026-01-24 09:08:00.44	325.56	11.70	-53.7	-62.5	3.8	7.45e-01	0	43	104	4689231872	79	9646
2026-01-24 09:08:01.45	325.71	11.60	-53.6	-62.4	3.8	7.45e-01	0	43	104	4689231872	79	9567
2026-01-24 09:08:02.46	325.86	11.50	-53.6	-62.5	3.8	7.43e-01	0	43	104	4689231872	79	9638
2026-01-24 09:08:03.46	326.01	11.41	-53.6	-62.5	3.8	7.46e-01	0	43	104	4689231872	79	9621
2026-01-24 09:08:04.47	326.16	11.31	-53.6	-62.4	3.8	7.45e-01	0	43	104	4689231872	79	9606
2026-01-24 09:08:05.48	326.31	11.21	-53.6	-62.4	3.8	7.44e-01	0	43	104	4689231872	79	9589
2026-01-24 09:08:06.49	326.46	11.12	-53.6	-62.4	3.8	7.46e-01	0	43	104	4689231872	79	9558
2026-01-24 09:08:07.50	326.60	11.02	-53.6	-62.5	3.8	7.46e-01	0	43	104	4689231872	79	9614
2026-01-24 09:08:08.51	326.75	10.93	-53.6	-62.5	3.8	7.45e-01	0	43	104	4689231872	79	9627
2026-01-24 09:08:09.51	326.89	10.83	-53.6	-62.4	3.8	7.45e-01	0	43	104	4689231872	79	9567
2026-01-24 09:08:10.52	327.03	10.74	-53.6	-62.4	3.8	7.43e-01	0	43	104	4689231872	79	9587
2026-01-24 09:08:11.53	327.17	10.65	-53.6	-62.4	3.8	7.44e-01	0	43	104	4689231872	79	9551
2026-01-24 09:08:12.54	327.31	10.55	-53.6	-62.4	3.8	7.46e-01	0	43	104	4689231872	79	9570
2026-01-24 09:08:13.55	327.45	10.46	-53.5	-62.4	3.8	7.44e-01	0	43	104	4689231872	79	9512
2026-01-24 09:08:14.56	327.59	10.37	-53.6	-62.5	3.8	7.44e-01	0	43	104	4689231872	79	9617
2026-01-24 09:08:15.57	327.73	10.27	-53.6	-62.4	3.8	7.46e-01	0	43	104	4689231872	79	9536
2026-01-24 09:08:16.58	327.86	10.18	-53.5	-62.4	3.8	7.45e-01	0	43	104	4689231872	79	9509
2026-01-24 09:08:17.58	328.00	10.09	-53.5	-62.3	3.8	7.46e-01	0	43	104	4689231872	79	9487
2026-01-24 09:08:18.59	328.13	10.00	-53.5	-62.4	3.8	7.45e-01	0	43	104	4689231872	79	9502
2026-01-24 09:08:19.60	328.26	9.91	-53.5	-62.3	3.8	7.45e-01	0	43	104	4689231872	79	9489
2026-01-24 09:08:20.61	328.39	9.82	-53.5	-62.3	3.8	7.46e-01	0	43	104	4689231872	79	9473
2026-01-24 09:08:21.62	328.53	9.73	-53.5	-62.3	3.8	7.43e-01	0	43	104	4689231872	78	9972
2026-01-24 09:08:22.63	328.66	9.64	-53.5	-62.3	3.8	7.44e-01	0	43	104	4689231872	78	10052
2026-01-24 09:08:23.63	328.78	9.55	-53.5	-62.3	3.8	7.45e-01	0	43	104	4689231872	78	10003
2026-01-24 09:08:24.64	328.91	9.46	-53.5	-62.3	3.8	7.46e-01	0	43	104	4689231872	78	9996
2026-01-24 09:08:25.65	329.04	9.37	-53.4	-62.2	3.8	7.44e-01	0	43	104	4689231872	78	9904
2026-01-24 09:08:26.66	329.17	9.28	-53.5	-62.3	3.8	7.45e-01	0	43	104	4689231872	78	9983
2026-01-24 09:08:27.67	329.29	9.19	-53.4	-62.2	3.8	7.43e-01	0	43	104	4689231872	78	9918
2026-01-24 09:08:28.67	329.41	9.10	-53.4	-62.2	3.8	7.46e-01	0	43	104	4689231872	78	9929
2026-01-24 09:08:29.68	329.54	9.02	-53.4	-62.2	3.8	7.46e-01	0	43	104	4689231872	78	9904
2026-01-24 09:08:30.69	329.66	8.93	-53.4	-62.2	3.8	7.45e-01	0	43	104	4689231872	78	9906
2026-01-24 09:08:31.70	329.78	8.84	-53.4	-62.2	3.8	7.47e-01	0	43	104	4689231872	78	9878
2026-01-24 09:08:32.70	329.90	8.76	-53.4	-62.2	3.8	7.45e-01	0	43	104	4689231872	78	9861
2026-01-24 09:08:33.71	330.02	8.67	-53.3	-62.2	3.8	7.45e-01	0	43	104	4689231872	78	9857
2026-01-24 09:08:34.72	330.14	8.58	-53.4	-62.2	3.8	7.45e-01	0	43	104	4689231872	78	9913
2026-01-24 09:08:35.73	330.26	8.50	-53.3	-62.1	3.8	7.43e-01	0	43	104	4689231872	78	9817
2026-01-24 09:08:36.74	330.38	8.41	-53.4	-62.2	3.8	7.46e-01	0	43	104	4689231872	78	9884
2026-01-24 09:08:37.75	330.49	8.33	-53.3	-62.1	3.8	7.47e-01	0	43	104	4689231872	78	9821
2026-01-24 09:08:38.75	330.61	8.24	-53.4	-62.2	3.8	7.47e-01	0	43	104	4689231872	78	9847
2026-01-24 09:08:39.76	330.72	8.16	-53.3	-62.1	3.8	7.44e-01	0	43	104	4689231872	78	9805
2026-01-24 09:08:40.77	330.84	8.07	-53.3	-62.1	3.8	7.47e-01	0	43	104	4689231872	78	9813
2026-01-24 09:08:41.78	330.95	7.99	-53.3	-62.1	3.8	7.45e-01	0	43	104	4689231872	78	9752
2026-01-24 09:08:42.79	331.07	7.90	-53.3	-62.1	3.8	7.47e-01	0	43	104	4689231872	78	9786
2026-01-24 09:08:43.80	331.18	7.82	-53.3	-62.1	3.8	7.46e-01	0	43	104	4689231872	78	9778
2026-01-24 09:08:44.80	331.29	7.74	-53.3	-62.1	3.8	7.46e-01	0	43	104	4689231872	78	9823
2026-01-24 09:08:45.81	331.40	7.66	-53.2	-62.0	3.8	7.48e-01	0	43	104	4689231872	78	9709
2026-01-24 09:08:46.82	331.51	7.57	-53.3	-62.1	3.8	7.45e-01	0	43	104	4689231872	78	9801
2026-01-24 09:08:47.83	331.62	7.49	-53.2	-62.1	3.8	7.44e-01	0	43	104	4689231872	78	9721
2026-01-24 09:08:48.84	331.73	7.41	-53.2	-62.1	3.8	7.43e-01	0	43	104	4689231872	78	9727
2026-01-24 09:08:49.85	331.83	7.33	-53.2	-62.0	3.8	7.46e-01	0	43	104	4689231872	78	9648
2026-01-24 09:08:50.86	331.94	7.24	-53.3	-62.1	3.8	7.45e-01	0	43	104	4689231872	78	9749
2026-01-24 09:08:51.86	332.05	7.16	-53.2	-62.0	3.8	7.44e-01	0	43	104	4689231872	78	9647
2026-01-24 09:08:52.87	332.15	7.08	-53.2	-62.0	3.8	7.47e-01	0	43	104	4689231872	78	9668
2026-01-24 09:08:53.88	332.26	7.00	-53.1	-61.9	3.8	7.46e-01	0	43	104	4689231872	78	9565
2026-01-24 09:08:54.89	332.36	6.92	-53.2	-62.0	3.8	7.45e-01	0	43	104	4689231872	78	9711
2026-01-24 09:08:55.90	332.46	6.84	-53.1	-62.0	3.8	7.45e-01	0	43	104	4689231872	78	9614
2026-01-24 09:08:56.91	332.57	6.76	-53.2	-62.0	3.8	7.45e-01	0	43	104	4689231872	78	9665
2026-01-24 09:08:57.91	332.67	6.68	-53.1	-61.9	3.8	7.46e-01	0	43	104	4689231872	78	9539
2026-01-24 09:08:58.92	332.77	6.60	-53.2	-62.0	3.8	7.46e-01	0	43	104	4689231872	78	9694
2026-01-24 09:08:59.93	332.87	6.52	-53.1	-61.9	3.8	7.44e-01	0	43	104	4689231872	78	9541
2026-01-24 09:09:00.94	332.97	6.45	-53.1	-61.9	3.8	7.45e-01	0	43	104	4689231872	78	9599
2026-01-24 09:09:01.95	333.07	6.37	-53.0	-61.9	3.8	7.46e-01	0	43	104	4689231872	78	9514
2026-01-24 09:09:02.95	333.17	6.29	-53.2	-62.1	3.8	7.44e-01	0	43	104	4689231872	78	9723
2026-01-24 09:09:03.96	333.26	6.21	-53.1	-61.9	3.8	7.43e-01	0	43	104	4689231872	78	9577
2026-01-24 09:09:04.97	333.36	6.13	-53.2	-62.0	3.8	7.46e-01	0	43	104	4689231872	78	9643
2026-01-24 09:09:05.98	333.46	6.06	-53.0	-61.8	3.8	7.45e-01	0	43	104	4689231872	78	9489
2026-01-24 09:09:06.99	333.55	5.98	-53.2	-62.0	3.8	7.45e-01	0	43	104	4689231872	78	9664
2026-01-24 09:09:08.00	333.65	5.90	-52.9	-61.7	3.8	7.46e-01	0	43	104	4689231872	77	9923
2026-01-24 09:09:09.00	333.74	5.83	-53.1	-61.9	3.8	7.45e-01	0	43	104	4689231872	77	10073
2026-01-24 09:09:10.01	333.84	5.75	-52.8	-61.6	3.8	7.46e-01	0	43	104	4689231872	77	9827
2026-01-24 09:09:11.02	333.93	5.67	-53.1	-61.9	3.8	7.46e-01	0	43	104	4689231872	77	10095
2026-01-24 09:09:12.03	334.03	5.60	-52.6	-61.4	3.8	7.46e-01	0	43	104	4689231872	77	9506
2026-01-24 09:09:13.04	334.12	5.52	-52.9	-61.8	3.8	7.45e-01	0	43	104	4689231872	77	9955
2026-01-24 09:09:14.05	334.21	5.45	-52.7	-61.4	3.8	7.46e-01	0	43	104	4689231872	77	9588
2026-01-24 09:09:15.05	334.30	5.37	-52.9	-61.7	3.8	7.44e-01	0	43	104	4689231872	77	9944
2026-01-24 09:09:16.06	334.39	5.30	-51.7	-60.5	3.8	7.45e-01	0	43	104	4689231872	75	9622
2026-01-24 09:09:17.07	334.48	5.22	-52.8	-61.6	3.8	7.47e-01	0	43	104	4689231872	76	10328
2026-01-24 09:09:18.08	334.57	5.15	-51.5	-60.3	3.8	7.47e-01	0	43	104	4689231872	75	9438
2026-01-24 09:09:19.09	334.66	5.07	-51.4	-60.3	3.8	7.44e-01	0	43	104	4689231872	74	9960
2026-01-24 09:09:20.10	334.75	5.00	-51.3	-60.1	3.8	7.44e-01	0	43	104	4689231872	74	9808
2026-01-24 09:09:21.11	334.84	4.92	-53.1	-61.9	3.8	7.45e-01	0	43	104	4689231872	76	10683
2026-01-24 09:09:22.11	334.92	4.85	-53.4	-62.4	3.8	7.43e-01	0	43	104	4689231872	77	10689
2026-01-24 09:09:23.12	335.01	4.78	-53.8	-62.7	3.8	7.45e-01	0	43	104	4689231872	78	10472
2026-01-24 09:09:24.13	335.10	4.70	-54.0	-62.9	3.8	7.45e-01	0	43	104	4689231872	78	10666
2026-01-24 09:09:25.14	335.18	4.63	-54.2	-63.0	3.8	7.45e-01	0	43	104	4689231872	78	10844
2026-01-24 09:09:26.15	335.27	4.56	-54.4	-63.2	3.8	7.45e-01	0	43	104	4689231872	79	10444
2026-01-24 09:09:27.15	335.35	4.49	-54.5	-63.3	3.8	7.46e-01	0	43	104	4689231872	79	10587
2026-01-24 09:09:28.16	335.44	4.41	-54.6	-63.4	3.8	7.45e-01	0	43	104	4689231872	79	10688
2026-01-24 09:09:29.17	335.52	4.34	-54.7	-63.5	3.8	7.44e-01	0	43	104	4689231872	79	10805
2026-01-24 09:09:30.18	335.61	4.27	-54.7	-63.5	3.8	7.45e-01	0	43	104	4689231872	80	10265
2026-01-24 09:09:31.19	335.69	4.20	-54.7	-63.6	3.8	7.45e-01	0	43	104	4689231872	80	10332
2026-01-24 09:09:32.19	335.77	4.13	-54.8	-63.7	3.8	7.45e-01	0	43	104	4689231872	80	10493
2026-01-24 09:09:33.20	335.85	4.06	-55.0	-63.8	3.8	7.48e-01	0	43	104	4689231872	80	10544
2026-01-24 09:09:34.21	335.94	3.99	-55.0	-63.8	3.8	7.45e-01	0	43	104	4689231872	80	10614
2026-01-24 09:09:35.22	336.02	3.91	-55.0	-63.8	3.8	7.44e-01	0	43	104	4689231872	80	10628
2026-01-24 09:09:36.23	336.10	3.84	-55.0	-63.8	3.8	7.45e-01	0	43	104	4689231872	80	10634
2026-01-24 09:09:37.23	336.18	3.77	-55.0	-63.9	3.8	7.45e-01	0	43	104	4689231872	80	10679
2026-01-24 09:09:38.24	336.26	3.70	-55.2	-64.0	3.8	7.45e-01	0	43	104	4689231872	80	10826
2026-01-24 09:09:39.25	336.34	3.63	-55.1	-63.9	3.8	7.45e-01	0	43	104	4689231872	80	10756
2026-01-24 09:09:40.26	336.41	3.56	-55.1	-63.9	3.8	7.45e-01	0	43	104	4689231872	80	10704
2026-01-24 09:09:41.27	336.49	3.49	-55.1	-63.9	3.8	7.46e-01	0	43	104	4689231872	80	10726
2026-01-24 09:09:42.27	336.57	3.43	-55.0	-63.8	3.8	7.46e-01	0	43	104	4689231872	80	10587
2026-01-24 09:09:43.28	336.65	3.36	-54.9	-63.7	3.8	7.44e-01	0	43	104	4689231872	80	10496
2026-01-24 09:09:44.29	336.72	3.29	-54.8	-63.6	3.8	7.45e-01	0	43	104	4689231872	80	10365
2026-01-24 09:09:45.30	336.80	3.22	-54.7	-63.5	3.8	7.45e-01	0	43	104	4689231872	80	10276
2026-01-24 09:09:46.31	336.88	3.15	-54.7	-63.5	3.8	7.45e-01	0	43	104	4689231872	80	10237
2026-01-24 09:09:47.31	336.95	3.08	-54.7	-63.5	3.8	7.46e-01	0	43	104	4689231872	80	10261
2026-01-24 09:09:48.32	337.03	3.01	-54.7	-63.5	3.8	7.45e-01	0	43	104	4689231872	80	10235
2026-01-24 09:09:49.33	337.10	2.95	-54.6	-63.4	3.8	7.45e-01	0	43	104	4689231872	80	10159
2026-01-24 09:09:50.34	337.18	2.88	-54.6	-63.4	3.8	7.46e-01	0	43	104	4689231872	80	10167
2026-01-24 09:09:51.35	337.25	2.81	-54.6	-63.5	3.8	7.46e-01	0	43	104	4689231872	80	10188
2026-01-24 09:09:52.35	337.32	2.74	-54.6	-63.4	3.8	7.44e-01	0	43	104	4689231872	80	10096
2026-01-24 09:09:53.36	337.40	2.68	-54.6	-63.4	3.8	7.45e-01	0	43	104	4689231872	80	10108
2026-01-24 09:09:54.37	337.47	2.61	-54.6	-63.4	3.8	7.47e-01	0	43	104	4689231872	80	10063
2026-01-24 09:09:55.38	337.54	2.54	-54.5	-63.4	3.8	7.46e-01	0	43	104	4689231872	80	10069
2026-01-24 09:09:56.39	337.61	2.48	-54.5	-63.3	3.8	7.44e-01	0	43	104	4689231872	80	10034
2026-01-24 09:09:57.40	337.69	2.41	-54.5	-63.3	3.8	7.45e-01	0	43	104	4689231872	80	10022
2026-01-24 09:09:58.40	337.76	2.34	-54.5	-63.3	3.8	7.45e-01	0	43	104	4689231872	80	10045
2026-01-24 09:09:59.41	337.83	2.28	-54.5	-63.3	3.8	7.43e-01	0	43	104	4689231872	80	10022
2026-01-24 09:10:00.42	337.90	2.21	-54.5	-63.3	3.8	7.46e-01	0	44	104	4689231872	80	10024
2026-01-24 09:10:01.43	337.97	2.15	-54.5	-63.4	3.8	7.46e-01	0	43	104	4689231872	80	10068
2026-01-24 09:10:02.43	338.04	2.08	-54.5	-63.4	3.8	7.45e-01	0	43	104	4689231872	80	10064
2026-01-24 09:10:03.44	338.11	2.01	-54.5	-63.3	3.8	7.44e-01	0	43	104	4689231872	80	10052
2026-01-24 09:10:04.45	338.18	1.95	-54.5	-63.3	3.8	7.45e-01	0	43	104	4689231872	80	10033
2026-01-24 09:10:05.46	338.24	1.88	-54.5	-63.3	3.8	7.45e-01	0	43	104	4689231872	80	10020

#Closed at: 2026-01-24 09:10:05
#Recorded file [4689 MB]: D:/lorett/data/31041_260124_120006.dat