passes_logs/2026/01/24/R3.2S_Murmansk/R3.2S_Murmansk__20260124_120256_NOAA_20_JPSS-1_rec.log

#Pass ID: 20260124_120256_NOAA 20 (JPSS-1)
#Satellite: NOAA 20 (JPSS-1)
#Configuration: NOAA 20
#almurnet v.1.7.20251203
#Start time: 2026-01-24 12:02:56

#Version: 2.2.20231116
#Station: R3.2S_Murmansk
#Location: 33.079688 lon 68.888172 lat
#TLE: 1 43013U 17073A   26023.57676825  .00000205  00000+0  11821-3 0  9990
#TLE: 2 43013  98.7645 324.4259 0001147  27.0566 333.0670 14.19539368423954

#Time	Az	El	Level	Level2	SNR	BER	BlckErr	Temp	State	Recorded	gain1	gain2
2026-01-24 12:02:56.91	215.71	2.00	-52.3	-67.3	3.8	1.49e+00	0	41	0	0	76	19928
2026-01-24 12:02:57.92	215.78	2.06	-52.3	-67.3	3.8	1.49e+00	0	41	104	0	75	21187
2026-01-24 12:02:58.93	215.86	2.11	-52.3	-67.3	3.8	1.49e+00	0	41	104	0	75	21154
2026-01-24 12:02:59.94	215.93	2.17	-52.3	-67.3	3.8	1.49e+00	0	41	104	0	75	21148
2026-01-24 12:03:00.95	216.01	2.22	-52.3	-67.3	3.8	1.49e+00	0	41	104	0	75	21122
2026-01-24 12:03:01.95	216.09	2.28	-52.3	-67.3	3.8	1.49e+00	0	41	104	0	75	21093
2026-01-24 12:03:02.96	216.16	2.33	-52.3	-67.3	3.8	1.49e+00	0	41	104	0	75	21091
2026-01-24 12:03:03.97	216.24	2.39	-52.3	-67.3	3.8	1.49e+00	0	41	104	0	75	21063
2026-01-24 12:03:04.98	216.31	2.44	-52.3	-67.3	3.8	1.49e+00	0	41	104	0	75	21063
2026-01-24 12:03:05.99	216.39	2.50	-52.3	-67.2	3.8	1.49e+00	0	41	104	0	75	21009
2026-01-24 12:03:07.00	216.47	2.55	-52.3	-67.3	3.8	1.49e+00	0	41	104	0	75	21036
2026-01-24 12:03:08.00	216.55	2.61	-52.3	-67.3	3.8	1.49e+00	0	41	104	0	75	21021
2026-01-24 12:03:09.01	216.62	2.66	-52.3	-67.3	3.8	1.49e+00	0	41	104	0	75	21037
2026-01-24 12:03:10.02	216.70	2.72	-52.3	-67.3	3.8	1.49e+00	0	42	104	0	75	21044
2026-01-24 12:03:11.03	216.78	2.77	-52.3	-67.3	3.8	1.49e+00	0	41	104	0	75	21046
2026-01-24 12:03:12.03	216.86	2.83	-52.3	-67.2	3.8	1.49e+00	0	41	104	0	75	21002
2026-01-24 12:03:13.04	216.94	2.88	-52.3	-67.2	3.8	1.49e+00	0	41	104	0	75	20974
2026-01-24 12:03:14.05	217.02	2.94	-52.3	-67.3	3.8	1.49e+00	0	41	104	0	75	21089
2026-01-24 12:03:15.06	217.10	3.00	-52.3	-67.3	3.8	1.49e+00	0	42	104	0	75	21041
2026-01-24 12:03:16.07	217.17	3.05	-52.3	-67.2	3.8	1.49e+00	0	42	104	0	75	21007
2026-01-24 12:03:17.08	217.25	3.11	-52.3	-67.3	3.8	1.49e+00	0	42	104	0	75	21091
2026-01-24 12:03:18.09	217.34	3.16	-52.3	-67.3	3.8	1.49e+00	0	42	104	0	75	21051
2026-01-24 12:03:19.10	217.42	3.22	-52.3	-67.3	3.8	1.49e+00	0	42	104	0	75	21023
2026-01-24 12:03:20.10	217.50	3.28	-52.3	-67.3	3.8	1.49e+00	0	42	104	0	75	21049
2026-01-24 12:03:21.11	217.58	3.33	-52.3	-67.3	3.8	1.49e+00	0	42	104	0	75	21027
2026-01-24 12:03:22.12	217.66	3.39	-52.3	-67.2	3.8	1.49e+00	0	42	104	0	75	20935
2026-01-24 12:03:23.13	217.74	3.44	-52.3	-67.2	3.8	1.49e+00	0	42	104	0	75	20949
2026-01-24 12:03:24.13	217.82	3.50	-52.3	-67.2	3.8	1.49e+00	0	42	104	0	75	20796
2026-01-24 12:03:25.14	217.90	3.56	-52.3	-67.1	3.8	1.49e+00	0	42	104	0	75	20754
2026-01-24 12:03:26.15	217.99	3.61	-52.3	-67.1	3.8	1.49e+00	0	42	104	0	75	20751
2026-01-24 12:03:27.16	218.07	3.67	-52.3	-67.1	3.8	1.49e+00	0	42	104	0	75	20717
2026-01-24 12:03:28.17	218.15	3.73	-52.3	-67.2	3.8	1.49e+00	0	42	104	0	75	20873
2026-01-24 12:03:29.18	218.24	3.78	-52.3	-67.2	3.8	1.49e+00	0	42	104	0	75	20902
2026-01-24 12:03:30.19	218.32	3.84	-52.3	-67.2	3.8	1.49e+00	0	42	104	0	75	20962
2026-01-24 12:03:31.20	218.40	3.90	-52.3	-67.2	3.8	1.49e+00	0	42	104	0	75	20979
2026-01-24 12:03:32.20	218.49	3.95	-52.3	-67.2	3.8	1.49e+00	0	42	104	0	75	20924
2026-01-24 12:03:33.21	218.57	4.01	-52.3	-67.2	3.8	1.49e+00	0	42	104	0	75	20868
2026-01-24 12:03:34.22	218.66	4.07	-52.3	-67.2	3.8	1.49e+00	0	42	104	0	75	20952
2026-01-24 12:03:35.23	218.74	4.13	-52.3	-67.2	3.8	1.49e+00	0	42	104	0	75	20888
2026-01-24 12:03:36.23	218.83	4.18	-52.3	-67.1	3.8	1.49e+00	0	42	104	0	75	20700
2026-01-24 12:03:37.24	218.92	4.24	-52.2	-66.8	3.8	1.49e+00	0	42	104	0	75	20047
2026-01-24 12:03:38.25	219.00	4.30	-52.2	-66.5	3.8	1.49e+00	0	42	104	0	75	19302
2026-01-24 12:03:39.26	219.09	4.36	-52.2	-66.0	3.8	1.49e+00	0	42	104	0	75	18227
2026-01-24 12:03:40.27	219.18	4.41	-52.2	-66.1	3.8	1.49e+00	0	42	104	0	75	18327
2026-01-24 12:03:41.28	219.26	4.47	-52.2	-66.0	3.8	1.49e+00	0	42	104	0	75	18128
2026-01-24 12:03:42.29	219.35	4.53	-52.2	-66.3	3.8	1.49e+00	0	42	104	0	75	18821
2026-01-24 12:03:43.30	219.44	4.59	-52.2	-65.6	3.8	1.49e+00	0	42	104	0	75	17478
2026-01-24 12:03:44.30	219.53	4.64	-52.1	-63.7	4.2	1.44e+00	0	42	104	0	75	14037
2026-01-24 12:03:45.31	219.62	4.70	-51.7	-60.0	6.1	7.16e-01	0	42	0	1048576	75	9168
2026-01-24 12:03:46.32	219.70	4.76	-51.1	-57.3	8.6	1.23e-01	0	42	0	3145728	74	7055
2026-01-24 12:03:47.33	219.79	4.82	-50.2	-54.6	11.4	2.49e-03	0	42	0	5242880	72	5850
2026-01-24 12:03:48.34	219.88	4.88	-49.5	-52.9	13.2	3.83e-04	0	42	0	6291456	71	5097
2026-01-24 12:03:49.35	219.97	4.93	-49.3	-52.6	13.5	5.30e-06	0	42	0	8388608	70	5208
2026-01-24 12:03:50.36	220.06	4.99	-48.3	-50.8	15.4	7.00e-07	0	42	0	10485760	68	4754
2026-01-24 12:03:51.37	220.15	5.05	-47.8	-50.1	16.0	0.00e+00	0	42	0	12582912	67	4645
2026-01-24 12:03:52.37	220.24	5.11	-49.2	-51.9	14.5	0.00e+00	0	42	0	14680064	68	5400
2026-01-24 12:03:53.38	220.34	5.17	-50.1	-54.3	11.3	5.28e-02	0	42	0	15728640	72	5626
2026-01-24 12:03:54.39	220.43	5.23	-49.2	-52.4	14.1	0.00e+00	0	42	0	17825792	68	5666
2026-01-24 12:03:55.40	220.52	5.28	-49.5	-53.0	13.2	2.15e-02	0	42	0	19922944	71	5103
2026-01-24 12:03:56.41	220.61	5.34	-47.8	-50.2	16.0	0.00e+00	0	42	0	22020096	67	4665
2026-01-24 12:03:57.41	220.70	5.40	-47.5	-49.7	16.5	0.00e+00	0	42	0	24117248	67	4419
2026-01-24 12:03:58.42	220.80	5.46	-47.1	-49.2	17.1	0.00e+00	0	42	0	25165824	66	4392
2026-01-24 12:03:59.43	220.89	5.52	-47.3	-49.4	16.8	0.00e+00	0	42	0	27262976	66	4541
2026-01-24 12:04:00.44	220.99	5.58	-47.4	-49.5	16.8	0.00e+00	0	42	0	29360128	66	4572
2026-01-24 12:04:01.45	221.08	5.64	-47.3	-49.4	16.9	0.00e+00	0	42	0	31457280	66	4515
2026-01-24 12:04:02.46	221.17	5.70	-47.5	-49.7	16.6	0.00e+00	0	42	0	33554432	66	4676
2026-01-24 12:04:03.47	221.27	5.76	-47.5	-49.8	16.5	0.00e+00	0	42	0	34603008	66	4707
2026-01-24 12:04:04.48	221.36	5.82	-47.3	-49.5	16.8	0.00e+00	0	42	0	36700160	66	4553
2026-01-24 12:04:05.48	221.46	5.87	-47.4	-49.6	16.7	0.00e+00	0	43	0	38797312	66	4613
2026-01-24 12:04:06.49	221.56	5.93	-47.6	-49.8	16.5	0.00e+00	0	42	0	40894464	66	4754
2026-01-24 12:04:07.50	221.65	5.99	-47.3	-49.4	16.9	0.00e+00	0	42	0	42991616	66	4525
2026-01-24 12:04:08.51	221.75	6.05	-47.4	-49.6	16.8	0.00e+00	0	42	0	45088768	66	4614
2026-01-24 12:04:09.52	221.85	6.11	-47.4	-49.5	16.9	0.00e+00	0	42	0	46137344	66	4551
2026-01-24 12:04:10.53	221.94	6.17	-47.4	-49.5	16.9	0.00e+00	0	42	0	48234496	66	4583
2026-01-24 12:04:11.53	222.04	6.23	-47.3	-49.3	17.1	0.00e+00	0	42	0	50331648	66	4477
2026-01-24 12:04:12.54	222.14	6.29	-47.7	-49.9	16.5	0.00e+00	0	42	0	52428800	66	4812
2026-01-24 12:04:13.55	222.24	6.35	-47.3	-49.3	17.1	0.00e+00	0	42	0	53477376	66	4476
2026-01-24 12:04:14.56	222.34	6.41	-47.2	-49.2	17.3	0.00e+00	0	42	0	55574528	66	4395
2026-01-24 12:04:15.56	222.44	6.47	-47.3	-49.4	17.0	0.00e+00	0	42	0	57671680	66	4520
2026-01-24 12:04:16.57	222.54	6.53	-47.3	-49.3	17.1	0.00e+00	0	42	0	59768832	66	4489
2026-01-24 12:04:17.58	222.64	6.59	-47.7	-49.9	16.6	0.00e+00	0	42	0	61865984	66	4760
2026-01-24 12:04:18.58	222.74	6.65	-47.6	-49.8	16.6	0.00e+00	0	42	0	62914560	66	4743
2026-01-24 12:04:19.59	222.84	6.71	-47.8	-50.0	16.5	0.00e+00	0	43	0	65011712	66	4838
2026-01-24 12:04:20.60	222.94	6.77	-47.8	-50.1	16.4	0.00e+00	0	43	0	67108864	66	4905
2026-01-24 12:04:21.61	223.04	6.83	-47.2	-49.2	17.3	0.00e+00	0	43	0	69206016	66	4424
2026-01-24 12:04:22.62	223.14	6.89	-47.2	-49.1	17.4	0.00e+00	0	42	0	71303168	66	4369
2026-01-24 12:04:23.62	223.25	6.95	-47.1	-49.0	17.5	0.00e+00	0	42	0	73400320	66	4318
2026-01-24 12:04:24.63	223.35	7.01	-47.3	-49.2	17.3	0.00e+00	0	42	0	74448896	66	4439
2026-01-24 12:04:25.63	223.45	7.07	-47.2	-49.2	17.3	0.00e+00	0	43	0	76546048	66	4420
2026-01-24 12:04:26.64	223.56	7.13	-47.1	-49.0	17.5	0.00e+00	0	43	0	78643200	66	4333
2026-01-24 12:04:27.65	223.66	7.19	-47.3	-49.3	17.2	0.00e+00	0	42	0	80740352	66	4491
2026-01-24 12:04:28.66	223.76	7.26	-47.0	-48.9	17.6	0.00e+00	0	42	0	81788928	66	4259
2026-01-24 12:04:29.67	223.87	7.32	-47.0	-48.9	17.6	0.00e+00	0	43	0	83886080	66	4280
2026-01-24 12:04:30.67	223.97	7.38	-47.1	-49.1	17.5	0.00e+00	0	42	0	85983232	66	4351
2026-01-24 12:04:31.68	224.08	7.44	-47.0	-48.9	17.7	0.00e+00	0	42	0	88080384	65	4528
2026-01-24 12:04:32.69	224.19	7.50	-47.2	-49.1	17.5	0.00e+00	0	43	0	90177536	65	4613
2026-01-24 12:04:33.69	224.29	7.56	-47.0	-48.9	17.6	0.00e+00	0	42	0	91226112	65	4528
2026-01-24 12:04:34.70	224.40	7.62	-47.2	-49.1	17.5	0.00e+00	0	43	0	93323264	65	4626
2026-01-24 12:04:35.71	224.51	7.68	-47.2	-49.1	17.5	0.00e+00	0	42	0	95420416	65	4640
2026-01-24 12:04:36.72	224.62	7.74	-47.2	-49.1	17.5	0.00e+00	0	43	0	97517568	65	4632
2026-01-24 12:04:37.72	224.72	7.81	-47.1	-49.0	17.6	0.00e+00	0	42	0	99614720	65	4559
2026-01-24 12:04:38.73	224.83	7.87	-47.1	-49.0	17.6	0.00e+00	0	43	0	101711872	65	4549
2026-01-24 12:04:39.74	224.94	7.93	-47.1	-48.9	17.6	0.00e+00	0	43	0	102760448	65	4545
2026-01-24 12:04:40.75	225.05	7.99	-47.0	-48.9	17.7	0.00e+00	0	43	0	104857600	65	4510
2026-01-24 12:04:41.75	225.16	8.05	-46.9	-48.7	17.9	0.00e+00	0	43	0	106954752	65	4434
2026-01-24 12:04:42.76	225.27	8.11	-46.8	-48.6	18.0	0.00e+00	0	43	0	109051904	65	4365
2026-01-24 12:04:43.77	225.38	8.18	-47.1	-48.9	17.7	0.00e+00	0	42	0	110100480	65	4527
2026-01-24 12:04:44.77	225.50	8.24	-46.9	-48.8	17.9	0.00e+00	0	42	0	112197632	65	4451
2026-01-24 12:04:45.78	225.61	8.30	-47.1	-49.0	17.7	0.00e+00	0	43	0	114294784	65	4565
2026-01-24 12:04:46.79	225.72	8.36	-47.4	-49.4	17.4	0.00e+00	0	43	0	116391936	65	4769
2026-01-24 12:04:47.79	225.83	8.42	-47.2	-49.1	17.5	0.00e+00	0	43	0	118489088	65	4628
2026-01-24 12:04:48.80	225.95	8.48	-46.9	-48.8	17.9	0.00e+00	0	43	0	119537664	65	4450
2026-01-24 12:04:49.80	226.06	8.55	-47.0	-48.8	17.8	0.00e+00	0	43	0	121634816	65	4484
2026-01-24 12:04:50.81	226.17	8.61	-47.1	-48.9	17.8	0.00e+00	0	43	0	123731968	65	4520
2026-01-24 12:04:51.82	226.29	8.67	-46.8	-48.6	18.1	0.00e+00	0	43	0	125829120	65	4360
2026-01-24 12:04:52.82	226.40	8.73	-46.7	-48.5	18.2	0.00e+00	0	43	0	127926272	65	4313
2026-01-24 12:04:53.83	226.52	8.79	-46.7	-48.5	18.2	0.00e+00	0	43	0	130023424	65	4295
2026-01-24 12:04:54.83	226.63	8.86	-46.8	-48.5	18.1	0.00e+00	0	43	0	131072000	65	4339
2026-01-24 12:04:55.84	226.75	8.92	-46.7	-48.5	18.2	0.00e+00	0	43	0	133169152	65	4305
2026-01-24 12:04:56.85	226.87	8.98	-46.6	-48.3	18.4	0.00e+00	0	43	0	135266304	65	4236
2026-01-24 12:04:57.86	226.99	9.04	-46.7	-48.4	18.3	0.00e+00	0	43	0	137363456	65	4268
2026-01-24 12:04:58.87	227.10	9.11	-46.6	-48.3	18.4	0.00e+00	0	43	0	138412032	65	4239
2026-01-24 12:04:59.88	227.22	9.17	-46.5	-48.2	18.5	0.00e+00	0	43	0	140509184	64	4413
2026-01-24 12:05:00.89	227.34	9.23	-46.6	-48.3	18.4	0.00e+00	0	43	0	142606336	64	4448
2026-01-24 12:05:01.89	227.46	9.30	-46.4	-48.1	18.6	0.00e+00	0	43	0	144703488	64	4360
2026-01-24 12:05:02.90	227.58	9.36	-46.7	-48.4	18.3	0.00e+00	0	43	0	146800640	64	4513
2026-01-24 12:05:03.91	227.70	9.42	-46.4	-48.1	18.6	0.00e+00	0	43	0	148897792	64	4350
2026-01-24 12:05:04.92	227.82	9.48	-46.4	-48.0	18.7	0.00e+00	0	43	0	149946368	64	4331
2026-01-24 12:05:05.93	227.95	9.55	-46.4	-48.0	18.8	0.00e+00	0	43	0	152043520	64	4297
2026-01-24 12:05:06.93	228.07	9.61	-46.2	-47.8	18.9	0.00e+00	0	43	0	154140672	64	4219
2026-01-24 12:05:07.94	228.19	9.67	-46.2	-47.8	18.9	0.00e+00	0	43	0	156237824	64	4235
2026-01-24 12:05:08.95	228.31	9.74	-46.2	-47.8	18.9	0.00e+00	0	43	0	158334976	64	4202
2026-01-24 12:05:09.96	228.44	9.80	-46.2	-47.8	18.9	0.00e+00	0	43	0	159383552	64	4214
2026-01-24 12:05:10.97	228.56	9.86	-46.2	-47.7	19.1	0.00e+00	0	43	0	161480704	63	4418
2026-01-24 12:05:11.97	228.69	9.93	-46.2	-47.8	19.0	0.00e+00	0	43	0	163577856	63	4471
2026-01-24 12:05:12.98	228.81	9.99	-46.2	-47.8	19.1	0.00e+00	0	43	0	165675008	63	4453
2026-01-24 12:05:13.99	228.94	10.05	-46.1	-47.6	19.3	0.00e+00	0	43	0	166723584	63	4363
2026-01-24 12:05:15.00	229.06	10.12	-46.3	-47.9	18.9	0.00e+00	0	43	0	168820736	63	4522
2026-01-24 12:05:16.00	229.19	10.18	-46.3	-47.9	19.0	0.00e+00	0	43	0	170917888	63	4501
2026-01-24 12:05:17.01	229.32	10.24	-46.4	-48.0	18.9	0.00e+00	0	43	0	173015040	63	4570
2026-01-24 12:05:18.02	229.45	10.31	-46.3	-47.8	19.0	0.00e+00	0	43	0	175112192	63	4481
2026-01-24 12:05:19.03	229.57	10.37	-46.4	-48.0	18.9	0.00e+00	0	43	0	177209344	63	4575
2026-01-24 12:05:20.03	229.70	10.43	-46.3	-47.8	19.1	0.00e+00	0	43	0	178257920	63	4470
2026-01-24 12:05:21.04	229.83	10.50	-46.3	-47.9	19.0	0.00e+00	0	43	0	180355072	63	4514
2026-01-24 12:05:22.05	229.96	10.56	-46.2	-47.7	19.2	0.00e+00	0	43	0	182452224	63	4419
2026-01-24 12:05:23.06	230.09	10.62	-46.4	-47.9	18.9	0.00e+00	0	43	0	184549376	63	4542
2026-01-24 12:05:24.07	230.22	10.69	-46.4	-48.0	18.9	0.00e+00	0	43	0	186646528	63	4560
2026-01-24 12:05:25.07	230.35	10.75	-46.2	-47.8	19.1	0.00e+00	0	43	0	187695104	63	4461
2026-01-24 12:05:26.08	230.49	10.82	-46.3	-47.9	19.0	0.00e+00	0	43	0	189792256	63	4523
2026-01-24 12:05:27.09	230.62	10.88	-46.2	-47.8	19.1	0.00e+00	0	43	0	191889408	63	4446
2026-01-24 12:05:28.10	230.75	10.94	-46.2	-47.8	19.1	0.00e+00	0	43	0	193986560	63	4453
2026-01-24 12:05:29.11	230.89	11.01	-46.3	-47.8	19.1	0.00e+00	0	43	0	196083712	63	4481
2026-01-24 12:05:30.11	231.02	11.07	-46.3	-47.8	19.1	0.00e+00	0	43	0	197132288	63	4483
2026-01-24 12:05:31.12	231.16	11.14	-46.2	-47.7	19.2	0.00e+00	0	43	0	199229440	63	4409
2026-01-24 12:05:32.13	231.29	11.20	-46.1	-47.6	19.4	0.00e+00	0	43	0	201326592	63	4344
2026-01-24 12:05:33.14	231.43	11.26	-46.1	-47.6	19.3	0.00e+00	0	43	0	203423744	63	4346
2026-01-24 12:05:34.15	231.57	11.33	-46.1	-47.6	19.3	0.00e+00	0	43	0	205520896	63	4359
2026-01-24 12:05:35.15	231.70	11.39	-45.9	-47.4	19.5	0.00e+00	0	43	0	206569472	63	4251
2026-01-24 12:05:36.16	231.84	11.46	-46.0	-47.5	19.5	0.00e+00	0	43	0	208666624	63	4297
2026-01-24 12:05:37.17	231.98	11.52	-46.0	-47.5	19.4	0.00e+00	0	43	0	210763776	63	4315
2026-01-24 12:05:38.17	232.12	11.58	-45.9	-47.4	19.5	0.00e+00	0	43	0	212860928	63	4276
2026-01-24 12:05:39.18	232.26	11.65	-45.9	-47.4	19.5	0.00e+00	0	43	0	214958080	63	4270
2026-01-24 12:05:40.19	232.40	11.71	-46.0	-47.5	19.4	0.00e+00	0	43	0	216006656	63	4305
2026-01-24 12:05:41.20	232.54	11.78	-46.0	-47.5	19.5	0.00e+00	0	43	0	218103808	63	4296
2026-01-24 12:05:42.21	232.68	11.84	-45.9	-47.4	19.5	0.00e+00	0	43	0	220200960	63	4267
2026-01-24 12:05:43.22	232.82	11.90	-45.9	-47.4	19.6	0.00e+00	0	43	0	222298112	63	4265
2026-01-24 12:05:44.22	232.96	11.97	-45.8	-47.2	19.7	0.00e+00	0	43	0	224395264	63	4178
2026-01-24 12:05:45.23	233.11	12.03	-45.8	-47.3	19.7	0.00e+00	0	43	0	225443840	63	4199
2026-01-24 12:05:46.24	233.25	12.10	-46.0	-47.4	19.5	0.00e+00	0	43	0	227540992	63	4277
2026-01-24 12:05:47.25	233.40	12.16	-45.8	-47.3	19.7	0.00e+00	0	43	0	229638144	63	4205
2026-01-24 12:05:48.25	233.54	12.23	-45.8	-47.2	19.8	0.00e+00	0	43	0	231735296	63	4171
2026-01-24 12:05:49.26	233.69	12.29	-45.9	-47.3	19.6	0.00e+00	0	43	0	233832448	63	4233
2026-01-24 12:05:50.27	233.83	12.35	-45.9	-47.3	19.7	0.00e+00	0	43	0	234881024	63	4220
2026-01-24 12:05:51.28	233.98	12.42	-45.8	-47.2	19.7	0.00e+00	0	43	0	236978176	63	4166
2026-01-24 12:05:52.29	234.13	12.48	-45.9	-47.3	19.6	0.00e+00	0	43	0	239075328	63	4219
2026-01-24 12:05:53.29	234.27	12.55	-46.0	-47.4	19.5	0.00e+00	0	43	0	241172480	63	4274
2026-01-24 12:05:54.30	234.42	12.61	-45.9	-47.3	19.6	0.00e+00	0	43	0	243269632	63	4242
2026-01-24 12:05:55.31	234.57	12.68	-46.1	-47.5	19.4	0.00e+00	0	43	0	245366784	63	4337
2026-01-24 12:05:56.32	234.72	12.74	-45.9	-47.3	19.6	0.00e+00	0	43	0	246415360	63	4228
2026-01-24 12:05:57.33	234.87	12.80	-45.9	-47.3	19.7	0.00e+00	0	43	0	248512512	63	4214
2026-01-24 12:05:58.34	235.03	12.87	-45.9	-47.3	19.7	0.00e+00	0	43	0	250609664	63	4221
2026-01-24 12:05:59.34	235.18	12.93	-45.9	-47.3	19.7	0.00e+00	0	43	0	252706816	63	4207
2026-01-24 12:06:00.35	235.33	13.00	-45.8	-47.3	19.7	0.00e+00	0	43	0	253755392	63	4200
2026-01-24 12:06:01.36	235.48	13.06	-45.7	-47.0	19.9	0.00e+00	0	43	0	255852544	63	4093
2026-01-24 12:06:02.37	235.64	13.12	-45.8	-47.2	19.8	0.00e+00	0	43	0	257949696	63	4153
2026-01-24 12:06:03.37	235.79	13.19	-45.8	-47.2	19.8	0.00e+00	0	43	0	260046848	63	4190
2026-01-24 12:06:04.38	235.94	13.25	-45.7	-47.1	19.9	0.00e+00	0	43	0	262144000	63	4133
2026-01-24 12:06:05.39	236.10	13.32	-45.8	-47.3	19.7	0.00e+00	0	43	0	263192576	63	4200
2026-01-24 12:06:06.40	236.26	13.38	-46.1	-47.6	19.4	0.00e+00	0	43	0	265289728	63	4360
2026-01-24 12:06:07.41	236.41	13.45	-46.0	-47.5	19.5	0.00e+00	0	43	0	267386880	63	4299
2026-01-24 12:06:08.41	236.57	13.51	-46.0	-47.5	19.5	0.00e+00	0	43	0	269484032	63	4314
2026-01-24 12:06:09.42	236.73	13.57	-46.0	-47.5	19.5	0.00e+00	0	43	0	271581184	63	4302
2026-01-24 12:06:10.43	236.89	13.64	-45.8	-47.2	19.8	0.00e+00	0	43	0	273678336	63	4172
2026-01-24 12:06:11.44	237.05	13.70	-45.8	-47.2	19.8	0.00e+00	0	43	0	274726912	63	4154
2026-01-24 12:06:12.45	237.21	13.77	-45.8	-47.3	19.7	0.00e+00	0	43	0	276824064	63	4199
2026-01-24 12:06:13.45	237.37	13.83	-45.7	-47.1	19.9	0.00e+00	0	43	0	278921216	63	4129
2026-01-24 12:06:14.46	237.53	13.89	-45.7	-47.1	19.9	0.00e+00	0	43	0	281018368	63	4115
2026-01-24 12:06:15.47	237.69	13.96	-45.9	-47.3	19.7	0.00e+00	0	43	0	282066944	63	4234
2026-01-24 12:06:16.48	237.86	14.02	-45.7	-47.1	19.8	0.00e+00	0	43	0	284164096	63	4143
2026-01-24 12:06:17.49	238.02	14.08	-45.8	-47.2	19.9	0.00e+00	0	43	0	286261248	63	4157
2026-01-24 12:06:18.49	238.18	14.15	-45.8	-47.2	19.8	0.00e+00	0	43	0	288358400	63	4150
2026-01-24 12:06:19.50	238.35	14.21	-45.6	-47.0	20.0	0.00e+00	0	43	0	290455552	63	4081
2026-01-24 12:06:20.51	238.52	14.27	-45.8	-47.2	19.8	0.00e+00	0	43	0	292552704	63	4175
2026-01-24 12:06:21.52	238.68	14.34	-45.6	-46.9	20.0	0.00e+00	0	43	0	293601280	63	4048
2026-01-24 12:06:22.53	238.85	14.40	-45.8	-47.2	19.8	0.00e+00	0	43	0	295698432	63	4161
2026-01-24 12:06:23.53	239.02	14.46	-45.8	-47.2	19.8	0.00e+00	0	43	0	297795584	63	4164
2026-01-24 12:06:24.54	239.19	14.53	-45.8	-47.2	19.8	0.00e+00	0	43	0	299892736	63	4169
2026-01-24 12:06:25.55	239.36	14.59	-45.9	-47.3	19.7	0.00e+00	0	43	0	300941312	63	4229
2026-01-24 12:06:26.56	239.53	14.65	-45.8	-47.2	19.8	0.00e+00	0	43	0	303038464	63	4170
2026-01-24 12:06:27.57	239.70	14.72	-45.9	-47.3	19.7	0.00e+00	0	43	0	305135616	63	4228
2026-01-24 12:06:28.57	239.87	14.78	-45.9	-47.3	19.7	0.00e+00	0	43	0	307232768	63	4239
2026-01-24 12:06:29.58	240.04	14.84	-45.9	-47.4	19.7	0.00e+00	0	43	0	309329920	63	4250
2026-01-24 12:06:30.59	240.21	14.91	-45.8	-47.3	19.8	0.00e+00	0	43	0	310378496	63	4201
2026-01-24 12:06:31.60	240.39	14.97	-45.8	-47.2	19.8	0.00e+00	0	43	0	312475648	63	4183
2026-01-24 12:06:32.61	240.56	15.03	-45.8	-47.3	19.8	0.00e+00	0	43	0	314572800	63	4197
2026-01-24 12:06:33.61	240.73	15.09	-45.9	-47.3	19.7	0.00e+00	0	43	0	316669952	63	4202
2026-01-24 12:06:34.62	240.91	15.16	-45.8	-47.2	19.9	0.00e+00	0	43	0	318767104	63	4157
2026-01-24 12:06:35.63	241.09	15.22	-45.9	-47.3	19.8	0.00e+00	0	43	0	320864256	63	4206
2026-01-24 12:06:36.64	241.26	15.28	-45.8	-47.2	19.7	0.00e+00	0	43	0	321912832	63	4192
2026-01-24 12:06:37.65	241.44	15.34	-45.8	-47.1	19.9	0.00e+00	0	43	0	324009984	63	4145
2026-01-24 12:06:38.65	241.62	15.41	-45.7	-47.1	19.9	0.00e+00	0	43	0	326107136	63	4140
2026-01-24 12:06:39.66	241.80	15.47	-45.6	-47.0	20.1	0.00e+00	0	43	0	328204288	63	4062
2026-01-24 12:06:40.67	241.98	15.53	-45.6	-47.0	20.0	0.00e+00	0	43	0	330301440	63	4078
2026-01-24 12:06:41.67	242.16	15.59	-45.5	-46.9	20.1	0.00e+00	0	43	0	331350016	63	4026
2026-01-24 12:06:42.68	242.34	15.65	-45.7	-47.0	20.0	0.00e+00	0	43	0	333447168	63	4091
2026-01-24 12:06:43.69	242.52	15.72	-45.6	-47.0	20.0	0.00e+00	0	43	0	335544320	63	4075
2026-01-24 12:06:44.70	242.70	15.78	-45.4	-46.7	20.3	0.00e+00	0	43	0	337641472	62	4179
2026-01-24 12:06:45.70	242.89	15.84	-45.4	-46.7	20.4	0.00e+00	0	43	0	339738624	62	4172
2026-01-24 12:06:46.71	243.07	15.90	-45.4	-46.7	20.4	0.00e+00	0	43	0	340787200	62	4175
2026-01-24 12:06:47.72	243.26	15.96	-45.3	-46.6	20.4	0.00e+00	0	43	0	342884352	62	4136
2026-01-24 12:06:48.73	243.44	16.02	-45.1	-46.4	20.6	0.00e+00	0	43	0	344981504	62	4033
2026-01-24 12:06:49.74	243.63	16.08	-45.2	-46.4	20.6	0.00e+00	0	43	0	347078656	62	4039
2026-01-24 12:06:50.75	243.82	16.14	-45.0	-46.3	20.8	0.00e+00	0	43	0	349175808	62	3968
2026-01-24 12:06:51.75	244.00	16.20	-45.2	-46.5	20.6	0.00e+00	0	43	0	350224384	62	4070
2026-01-24 12:06:52.76	244.19	16.26	-45.3	-46.6	20.5	0.00e+00	0	43	0	352321536	62	4125
2026-01-24 12:06:53.77	244.38	16.33	-45.0	-46.3	20.8	0.00e+00	0	43	0	354418688	62	3972
2026-01-24 12:06:54.78	244.57	16.39	-45.1	-46.3	20.7	0.00e+00	0	43	0	356515840	62	4000
2026-01-24 12:06:55.79	244.76	16.45	-45.0	-46.2	20.8	0.00e+00	0	43	0	358612992	62	3946
2026-01-24 12:06:56.80	244.96	16.51	-44.8	-46.0	21.1	0.00e+00	0	43	0	359661568	61	4065
2026-01-24 12:06:57.81	245.15	16.57	-44.8	-46.0	21.0	0.00e+00	0	43	0	361758720	61	4054
2026-01-24 12:06:58.81	245.34	16.62	-44.6	-45.8	21.2	0.00e+00	0	43	0	363855872	61	3972
2026-01-24 12:06:59.82	245.53	16.68	-44.7	-45.9	21.2	0.00e+00	0	43	0	365953024	61	4011
2026-01-24 12:07:00.83	245.73	16.74	-44.7	-45.9	21.1	0.00e+00	0	43	0	368050176	61	4051
2026-01-24 12:07:01.84	245.92	16.80	-44.8	-46.0	21.0	0.00e+00	0	43	0	369098752	61	4081
2026-01-24 12:07:02.85	246.12	16.86	-44.8	-46.0	21.0	0.00e+00	0	43	0	371195904	61	4078
2026-01-24 12:07:03.85	246.32	16.92	-44.8	-46.0	21.0	0.00e+00	0	43	0	373293056	61	4085
2026-01-24 12:07:04.86	246.51	16.98	-44.8	-46.0	21.0	0.00e+00	0	43	0	375390208	61	4098
2026-01-24 12:07:05.87	246.71	17.04	-44.8	-46.0	21.1	0.00e+00	0	43	0	377487360	61	4079
2026-01-24 12:07:06.88	246.91	17.10	-44.8	-46.1	21.0	0.00e+00	0	43	0	378535936	61	4101
2026-01-24 12:07:07.89	247.11	17.15	-44.8	-46.0	21.0	0.00e+00	0	43	0	380633088	61	4081
2026-01-24 12:07:08.89	247.31	17.21	-44.9	-46.1	21.0	0.00e+00	0	43	0	382730240	61	4119
2026-01-24 12:07:09.90	247.51	17.27	-45.0	-46.2	20.8	0.00e+00	0	43	0	384827392	61	4184
2026-01-24 12:07:10.91	247.71	17.33	-44.8	-46.0	21.0	0.00e+00	0	43	0	386924544	61	4081
2026-01-24 12:07:11.91	247.92	17.38	-44.8	-46.0	21.0	0.00e+00	0	43	0	387973120	61	4068
2026-01-24 12:07:12.92	248.12	17.44	-44.9	-46.1	21.0	0.00e+00	0	43	0	390070272	61	4107
2026-01-24 12:07:13.93	248.32	17.50	-45.0	-46.2	20.8	0.00e+00	0	43	0	392167424	61	4181
2026-01-24 12:07:14.94	248.53	17.55	-45.1	-46.4	20.7	0.00e+00	0	43	0	394264576	61	4251
2026-01-24 12:07:15.94	248.73	17.61	-45.2	-46.5	20.6	0.00e+00	0	43	0	396361728	61	4325
2026-01-24 12:07:16.95	248.94	17.67	-45.2	-46.5	20.6	0.00e+00	0	43	0	397410304	61	4328
2026-01-24 12:07:17.96	249.15	17.72	-45.4	-46.7	20.4	0.00e+00	0	43	0	399507456	61	4399
2026-01-24 12:07:18.97	249.36	17.78	-45.4	-46.7	20.4	0.00e+00	0	43	0	401604608	61	4439
2026-01-24 12:07:19.97	249.56	17.83	-45.5	-46.8	20.4	0.00e+00	0	43	0	403701760	61	4458
2026-01-24 12:07:20.98	249.77	17.89	-45.5	-46.8	20.3	0.00e+00	0	43	0	405798912	61	4465
2026-01-24 12:07:21.99	249.98	17.94	-45.4	-46.7	20.4	0.00e+00	0	43	0	406847488	61	4428
2026-01-24 12:07:23.00	250.19	18.00	-45.4	-46.7	20.4	0.00e+00	0	43	0	408944640	61	4396
2026-01-24 12:07:24.01	250.41	18.05	-45.3	-46.6	20.5	0.00e+00	0	44	0	411041792	61	4367
2026-01-24 12:07:25.01	250.62	18.11	-45.4	-46.7	20.4	0.00e+00	0	43	0	413138944	61	4426
2026-01-24 12:07:26.02	250.83	18.16	-45.4	-46.8	20.3	0.00e+00	0	43	0	415236096	61	4442
2026-01-24 12:07:27.03	251.05	18.21	-45.6	-47.0	20.2	0.00e+00	0	43	0	416284672	61	4546
2026-01-24 12:07:28.04	251.26	18.27	-45.6	-47.0	20.2	0.00e+00	0	43	0	418381824	61	4549
2026-01-24 12:07:29.05	251.48	18.32	-45.8	-47.1	20.0	0.00e+00	0	43	0	420478976	62	4386
2026-01-24 12:07:30.05	251.69	18.37	-45.9	-47.3	19.9	0.00e+00	0	43	0	422576128	62	4463
2026-01-24 12:07:31.06	251.91	18.42	-45.9	-47.3	19.9	0.00e+00	0	43	0	424673280	62	4461
2026-01-24 12:07:32.07	252.13	18.48	-46.0	-47.5	19.7	0.00e+00	0	43	0	425721856	62	4563
2026-01-24 12:07:33.08	252.34	18.53	-46.2	-47.6	19.6	0.00e+00	0	43	0	427819008	62	4634
2026-01-24 12:07:34.08	252.56	18.58	-46.3	-47.7	19.4	0.00e+00	0	43	0	429916160	63	4433
2026-01-24 12:07:35.09	252.78	18.63	-46.4	-47.9	19.3	0.00e+00	0	43	0	432013312	63	4509
2026-01-24 12:07:36.10	253.00	18.68	-46.4	-47.9	19.3	0.00e+00	0	43	0	434110464	63	4538
2026-01-24 12:07:37.11	253.22	18.73	-46.6	-48.1	19.1	0.00e+00	0	43	0	436207616	63	4625
2026-01-24 12:07:38.11	253.44	18.78	-46.6	-48.1	19.0	0.00e+00	0	43	0	437256192	63	4646
2026-01-24 12:07:39.12	253.67	18.83	-46.6	-48.2	19.0	0.00e+00	0	43	0	439353344	63	4671
2026-01-24 12:07:40.13	253.89	18.88	-46.6	-48.2	18.9	0.00e+00	0	43	0	441450496	64	4408
2026-01-24 12:07:41.14	254.11	18.93	-46.7	-48.3	18.8	0.00e+00	0	43	0	443547648	64	4446
2026-01-24 12:07:42.14	254.34	18.98	-46.6	-48.2	18.9	0.00e+00	0	43	0	444596224	64	4419
2026-01-24 12:07:43.15	254.56	19.03	-46.8	-48.4	18.8	0.00e+00	0	43	0	446693376	64	4498
2026-01-24 12:07:44.16	254.79	19.08	-46.8	-48.4	18.7	0.00e+00	0	43	0	448790528	64	4497
2026-01-24 12:07:45.17	255.02	19.13	-46.8	-48.4	18.7	0.00e+00	0	43	0	450887680	64	4526
2026-01-24 12:07:46.18	255.24	19.18	-46.9	-48.5	18.6	0.00e+00	0	43	0	452984832	64	4588
2026-01-24 12:07:47.18	255.47	19.22	-47.0	-48.6	18.5	0.00e+00	0	43	0	454033408	64	4643
2026-01-24 12:07:48.19	255.70	19.27	-47.0	-48.7	18.5	0.00e+00	0	43	0	456130560	64	4657
2026-01-24 12:07:49.20	255.93	19.32	-47.0	-48.7	18.4	0.00e+00	0	43	0	458227712	64	4696
2026-01-24 12:07:50.21	256.16	19.36	-47.0	-48.7	18.4	0.00e+00	0	43	0	460324864	64	4702
2026-01-24 12:07:51.21	256.39	19.41	-46.9	-48.6	18.6	0.00e+00	0	43	0	462422016	64	4611
2026-01-24 12:07:52.22	256.62	19.45	-46.7	-48.3	18.8	0.00e+00	0	43	0	464519168	64	4484
2026-01-24 12:07:53.23	256.85	19.50	-46.7	-48.3	18.8	0.00e+00	0	43	0	465567744	64	4487
2026-01-24 12:07:54.24	257.09	19.54	-46.5	-48.0	19.1	0.00e+00	0	43	0	467664896	64	4313
2026-01-24 12:07:55.25	257.32	19.59	-46.3	-47.9	19.3	0.00e+00	0	43	0	469762048	64	4246
2026-01-24 12:07:56.26	257.55	19.63	-46.3	-47.8	19.3	0.00e+00	0	43	0	471859200	64	4223
2026-01-24 12:07:57.27	257.79	19.68	-46.2	-47.7	19.4	0.00e+00	0	43	0	472907776	64	4186
2026-01-24 12:07:58.27	258.02	19.72	-46.3	-47.8	19.3	0.00e+00	0	43	0	475004928	64	4230
2026-01-24 12:07:59.28	258.26	19.76	-46.4	-48.0	19.1	0.00e+00	0	43	0	477102080	64	4311
2026-01-24 12:08:00.29	258.50	19.81	-46.4	-47.9	19.2	0.00e+00	0	43	0	479199232	64	4279
2026-01-24 12:08:01.30	258.73	19.85	-46.4	-48.0	19.2	0.00e+00	0	43	0	481296384	64	4302
2026-01-24 12:08:02.31	258.97	19.89	-46.5	-48.1	19.0	0.00e+00	0	43	0	483393536	64	4351
2026-01-24 12:08:03.31	259.21	19.93	-46.5	-48.1	19.0	0.00e+00	0	43	0	484442112	64	4347
2026-01-24 12:08:04.32	259.45	19.97	-46.3	-47.9	19.2	0.00e+00	0	43	0	486539264	64	4243
2026-01-24 12:08:05.33	259.69	20.01	-46.4	-47.9	19.2	0.00e+00	0	43	0	488636416	64	4264
2026-01-24 12:08:06.34	259.93	20.05	-46.5	-48.0	19.1	0.00e+00	0	43	0	490733568	64	4309
2026-01-24 12:08:07.35	260.17	20.09	-46.4	-48.0	19.1	0.00e+00	0	43	0	492830720	64	4308
2026-01-24 12:08:08.35	260.41	20.13	-46.3	-47.8	19.3	0.00e+00	0	43	0	493879296	64	4194
2026-01-24 12:08:09.36	260.65	20.17	-46.2	-47.6	19.5	0.00e+00	0	43	0	495976448	64	4137
2026-01-24 12:08:10.37	260.90	20.21	-46.1	-47.6	19.5	0.00e+00	0	43	0	498073600	64	4122
2026-01-24 12:08:11.38	261.14	20.25	-46.2	-47.7	19.5	0.00e+00	0	43	0	500170752	64	4159
2026-01-24 12:08:12.38	261.38	20.28	-46.2	-47.7	19.4	0.00e+00	0	43	0	501219328	64	4157
2026-01-24 12:08:13.39	261.63	20.32	-46.2	-47.6	19.5	0.00e+00	0	43	0	503316480	64	4140
2026-01-24 12:08:14.40	261.87	20.36	-46.2	-47.7	19.4	0.00e+00	0	43	0	505413632	64	4172
2026-01-24 12:08:15.41	262.12	20.39	-46.4	-47.9	19.2	0.00e+00	0	43	0	507510784	64	4274
2026-01-24 12:08:16.42	262.37	20.43	-46.3	-47.9	19.3	0.00e+00	0	43	0	509607936	64	4244
2026-01-24 12:08:17.43	262.61	20.46	-46.4	-47.9	19.2	0.00e+00	0	43	0	511705088	64	4269
2026-01-24 12:08:18.43	262.86	20.50	-46.3	-47.8	19.2	0.00e+00	0	43	0	512753664	64	4242
2026-01-24 12:08:19.44	263.11	20.53	-46.3	-47.8	19.3	0.00e+00	0	43	0	514850816	64	4239
2026-01-24 12:08:20.45	263.36	20.56	-46.3	-47.8	19.3	0.00e+00	0	43	0	516947968	64	4216
2026-01-24 12:08:21.46	263.61	20.60	-46.0	-47.5	19.7	0.00e+00	0	43	0	519045120	64	4059
2026-01-24 12:08:22.47	263.86	20.63	-46.0	-47.4	19.8	0.00e+00	0	43	0	521142272	63	4282
2026-01-24 12:08:23.48	264.11	20.66	-46.0	-47.4	19.8	0.00e+00	0	43	0	522190848	63	4286
2026-01-24 12:08:24.48	264.35	20.69	-45.9	-47.3	19.9	0.00e+00	0	43	0	524288000	63	4221
2026-01-24 12:08:25.49	264.61	20.72	-45.8	-47.2	20.1	0.00e+00	0	43	0	526385152	63	4158
2026-01-24 12:08:26.50	264.86	20.75	-45.8	-47.1	20.1	0.00e+00	0	43	0	528482304	63	4136
2026-01-24 12:08:27.51	265.11	20.78	-45.8	-47.2	20.0	0.00e+00	0	43	0	530579456	63	4174
2026-01-24 12:08:28.51	265.36	20.81	-45.8	-47.2	20.0	0.00e+00	0	43	0	531628032	63	4172
2026-01-24 12:08:29.52	265.61	20.84	-45.8	-47.2	20.0	0.00e+00	0	43	0	533725184	63	4159
2026-01-24 12:08:30.53	265.87	20.87	-45.9	-47.2	20.0	0.00e+00	0	43	0	535822336	63	4182
2026-01-24 12:08:31.54	266.12	20.90	-45.7	-47.1	20.2	0.00e+00	0	43	0	537919488	63	4113
2026-01-24 12:08:32.55	266.38	20.93	-45.7	-47.0	20.2	0.00e+00	0	43	0	540016640	63	4092
2026-01-24 12:08:33.55	266.63	20.95	-45.6	-46.9	20.3	0.00e+00	0	43	0	541065216	63	4024
2026-01-24 12:08:34.56	266.88	20.98	-45.6	-47.0	20.2	0.00e+00	0	43	0	543162368	63	4064
2026-01-24 12:08:35.57	267.14	21.01	-45.7	-47.0	20.2	0.00e+00	0	43	0	545259520	63	4092
2026-01-24 12:08:36.58	267.40	21.03	-45.5	-46.8	20.4	0.00e+00	0	43	0	547356672	62	4226
2026-01-24 12:08:37.58	267.65	21.06	-45.6	-46.9	20.3	0.00e+00	0	43	0	549453824	62	4260
2026-01-24 12:08:38.59	267.91	21.08	-45.5	-46.8	20.5	0.00e+00	0	43	0	550502400	62	4196
2026-01-24 12:08:39.60	268.16	21.10	-45.5	-46.8	20.4	0.00e+00	0	43	0	552599552	62	4225
2026-01-24 12:08:40.61	268.42	21.13	-45.6	-46.9	20.3	0.00e+00	0	43	0	554696704	62	4278
2026-01-24 12:08:41.61	268.68	21.15	-45.6	-46.9	20.3	0.00e+00	0	43	0	556793856	62	4271
2026-01-24 12:08:42.62	268.94	21.17	-45.6	-46.9	20.3	0.00e+00	0	43	0	558891008	62	4272
2026-01-24 12:08:43.63	269.20	21.19	-45.7	-47.0	20.2	0.00e+00	0	43	0	559939584	62	4316
2026-01-24 12:08:44.64	269.45	21.21	-45.7	-47.0	20.2	0.00e+00	0	43	0	562036736	62	4324
2026-01-24 12:08:45.65	269.71	21.23	-45.8	-47.1	20.1	0.00e+00	0	43	0	564133888	62	4389
2026-01-24 12:08:46.65	269.97	21.25	-45.7	-47.0	20.2	0.00e+00	0	43	0	566231040	62	4330
2026-01-24 12:08:47.66	270.23	21.27	-45.8	-47.2	20.1	0.00e+00	0	43	0	568328192	62	4410
2026-01-24 12:08:48.67	270.49	21.29	-45.9	-47.3	20.0	0.00e+00	0	43	0	569376768	62	4451
2026-01-24 12:08:49.68	270.75	21.31	-46.1	-47.5	19.8	0.00e+00	0	43	0	571473920	62	4565
2026-01-24 12:08:50.69	271.01	21.33	-46.1	-47.5	19.7	0.00e+00	0	43	0	573571072	62	4598
2026-01-24 12:08:51.70	271.28	21.34	-46.4	-47.8	19.5	0.00e+00	0	43	0	575668224	63	4482
2026-01-24 12:08:52.71	271.54	21.36	-46.5	-48.0	19.3	0.00e+00	0	43	0	577765376	63	4547
2026-01-24 12:08:53.71	271.80	21.37	-46.6	-48.1	19.2	0.00e+00	0	43	0	579862528	63	4624
2026-01-24 12:08:54.72	272.06	21.39	-46.6	-48.1	19.1	0.00e+00	0	43	0	580911104	63	4645
2026-01-24 12:08:55.73	272.32	21.40	-46.6	-48.1	19.2	0.00e+00	0	43	0	583008256	63	4641
2026-01-24 12:08:56.74	272.58	21.42	-46.6	-48.2	19.1	0.00e+00	0	43	0	585105408	63	4671
2026-01-24 12:08:57.75	272.85	21.43	-46.3	-47.8	19.5	0.00e+00	0	43	0	587202560	63	4466
2026-01-24 12:08:58.76	273.11	21.44	-46.0	-47.4	19.9	0.00e+00	0	43	0	588251136	63	4262
2026-01-24 12:08:59.76	273.37	21.46	-45.8	-47.2	20.1	0.00e+00	0	43	0	590348288	63	4163
2026-01-24 12:09:00.77	273.63	21.47	-45.7	-47.0	20.3	0.00e+00	0	43	0	592445440	63	4076
2026-01-24 12:09:01.78	273.90	21.48	-45.8	-47.2	20.1	0.00e+00	0	43	0	594542592	63	4164
2026-01-24 12:09:02.79	274.16	21.49	-45.9	-47.3	20.0	0.00e+00	0	43	0	596639744	63	4194
2026-01-24 12:09:03.80	274.42	21.50	-46.0	-47.4	19.9	0.00e+00	0	43	0	597688320	63	4278
2026-01-24 12:09:04.81	274.69	21.51	-46.3	-47.7	19.6	0.00e+00	0	43	0	599785472	63	4409
2026-01-24 12:09:05.81	274.95	21.51	-46.5	-48.0	19.4	0.00e+00	0	43	0	601882624	63	4552
2026-01-24 12:09:06.82	275.21	21.52	-46.6	-48.1	19.2	0.00e+00	0	43	0	603979776	63	4624
2026-01-24 12:09:07.83	275.48	21.53	-46.6	-48.2	19.2	0.00e+00	0	43	0	606076928	63	4660
2026-01-24 12:09:08.84	275.74	21.54	-46.6	-48.2	19.2	0.00e+00	0	43	0	608174080	63	4654
2026-01-24 12:09:09.85	276.01	21.54	-46.5	-48.0	19.3	0.00e+00	0	43	0	609222656	63	4590
2026-01-24 12:09:10.86	276.27	21.55	-46.4	-47.9	19.5	0.00e+00	0	43	0	611319808	63	4495
2026-01-24 12:09:11.87	276.54	21.55	-46.2	-47.6	19.7	0.00e+00	0	43	0	613416960	63	4352
2026-01-24 12:09:12.87	276.80	21.56	-46.0	-47.4	19.9	0.00e+00	0	43	0	615514112	63	4270
2026-01-24 12:09:13.88	277.07	21.56	-46.1	-47.6	19.8	0.00e+00	0	43	0	616562688	63	4347
2026-01-24 12:09:14.89	277.33	21.56	-46.3	-47.8	19.6	0.00e+00	0	43	0	618659840	63	4444
2026-01-24 12:09:15.90	277.60	21.57	-46.5	-47.9	19.4	0.00e+00	0	43	0	620756992	63	4543
2026-01-24 12:09:16.91	277.86	21.57	-46.7	-48.2	19.2	0.00e+00	0	43	0	622854144	63	4688
2026-01-24 12:09:17.91	278.12	21.57	-46.6	-48.1	19.2	0.00e+00	0	43	0	624951296	64	4356
2026-01-24 12:09:18.92	278.39	21.57	-46.6	-48.1	19.2	0.00e+00	0	43	0	627048448	64	4351
2026-01-24 12:09:19.93	278.65	21.57	-46.6	-48.2	19.1	0.00e+00	0	43	0	628097024	64	4398
2026-01-24 12:09:20.94	278.92	21.57	-46.4	-47.8	19.5	0.00e+00	0	43	0	630194176	64	4231
2026-01-24 12:09:21.95	279.18	21.57	-46.4	-47.8	19.4	0.00e+00	0	43	0	632291328	64	4237
2026-01-24 12:09:22.95	279.45	21.57	-46.3	-47.8	19.5	0.00e+00	0	43	0	634388480	64	4198
2026-01-24 12:09:23.96	279.71	21.56	-46.0	-47.4	19.9	0.00e+00	0	43	0	636485632	63	4269
2026-01-24 12:09:24.97	279.98	21.56	-45.9	-47.2	20.1	0.00e+00	0	43	0	637534208	63	4166
2026-01-24 12:09:25.98	280.24	21.56	-45.8	-47.1	20.3	0.00e+00	0	43	0	639631360	63	4128
2026-01-24 12:09:26.98	280.50	21.55	-45.6	-46.9	20.4	0.00e+00	0	43	0	641728512	63	4041
2026-01-24 12:09:27.99	280.77	21.55	-45.6	-46.9	20.5	0.00e+00	0	43	0	643825664	63	4012
2026-01-24 12:09:29.00	281.03	21.54	-45.7	-47.0	20.3	0.00e+00	0	43	0	644874240	63	4089
2026-01-24 12:09:30.01	281.30	21.53	-45.9	-47.3	20.1	0.00e+00	0	43	0	646971392	63	4199
2026-01-24 12:09:31.02	281.56	21.53	-46.0	-47.4	19.9	0.00e+00	0	43	0	649068544	63	4274
2026-01-24 12:09:32.03	281.83	21.52	-46.2	-47.6	19.8	0.00e+00	0	43	0	651165696	63	4360
2026-01-24 12:09:33.03	282.09	21.51	-46.4	-47.8	19.6	0.00e+00	0	43	0	653262848	63	4476
2026-01-24 12:09:34.04	282.35	21.50	-46.4	-47.9	19.5	0.00e+00	0	43	0	655360000	63	4499
2026-01-24 12:09:35.05	282.62	21.49	-46.3	-47.8	19.5	0.00e+00	0	43	0	656408576	63	4454
2026-01-24 12:09:36.06	282.88	21.48	-46.5	-48.0	19.4	0.00e+00	0	43	0	658505728	63	4567
2026-01-24 12:09:37.07	283.14	21.47	-46.6	-48.1	19.4	0.00e+00	0	43	0	660602880	63	4608
2026-01-24 12:09:38.07	283.40	21.46	-46.5	-48.0	19.4	0.00e+00	0	43	0	662700032	63	4578
2026-01-24 12:09:39.08	283.67	21.45	-46.6	-48.1	19.3	0.00e+00	0	43	0	664797184	63	4608
2026-01-24 12:09:40.09	283.93	21.44	-46.4	-47.9	19.5	0.00e+00	0	43	0	665845760	63	4524
2026-01-24 12:09:41.10	284.19	21.43	-46.4	-47.9	19.6	0.00e+00	0	43	0	667942912	63	4525
2026-01-24 12:09:42.11	284.45	21.41	-46.5	-48.0	19.4	0.00e+00	0	43	0	670040064	63	4549
2026-01-24 12:09:43.11	284.71	21.40	-46.3	-47.8	19.6	0.00e+00	0	43	0	672137216	63	4465
2026-01-24 12:09:44.12	284.98	21.38	-46.3	-47.7	19.7	0.00e+00	0	43	0	674234368	63	4414
2026-01-24 12:09:45.13	285.24	21.37	-46.3	-47.7	19.7	0.00e+00	0	43	0	675282944	63	4405
2026-01-24 12:09:46.14	285.50	21.35	-46.3	-47.8	19.6	0.00e+00	0	43	0	677380096	63	4466
2026-01-24 12:09:47.15	285.76	21.34	-46.4	-47.9	19.6	0.00e+00	0	43	0	679477248	63	4500
2026-01-24 12:09:48.15	286.02	21.32	-46.5	-48.0	19.4	0.00e+00	0	43	0	681574400	63	4567
2026-01-24 12:09:49.16	286.28	21.30	-46.6	-48.1	19.3	0.00e+00	0	43	0	683671552	63	4618
2026-01-24 12:09:50.17	286.54	21.29	-46.6	-48.1	19.4	0.00e+00	0	43	0	684720128	63	4615
2026-01-24 12:09:51.18	286.80	21.27	-46.5	-47.9	19.5	0.00e+00	0	43	0	686817280	63	4536
2026-01-24 12:09:52.19	287.06	21.25	-46.3	-47.7	19.7	0.00e+00	0	43	0	688914432	63	4411
2026-01-24 12:09:53.19	287.32	21.23	-46.0	-47.4	20.0	0.00e+00	0	43	0	691011584	63	4261
2026-01-24 12:09:54.20	287.58	21.21	-46.0	-47.3	20.1	0.00e+00	0	43	0	693108736	63	4235
2026-01-24 12:09:55.21	287.84	21.19	-46.0	-47.4	20.1	0.00e+00	0	43	0	694157312	63	4245
2026-01-24 12:09:56.22	288.09	21.16	-46.0	-47.3	20.1	0.00e+00	0	43	0	696254464	63	4228
2026-01-24 12:09:57.23	288.35	21.14	-46.0	-47.3	20.1	0.00e+00	0	43	0	698351616	63	4226
2026-01-24 12:09:58.23	288.61	21.12	-46.1	-47.4	20.0	0.00e+00	0	43	0	700448768	63	4289
2026-01-24 12:09:59.24	288.86	21.10	-46.1	-47.5	20.0	0.00e+00	0	43	0	702545920	63	4300
2026-01-24 12:10:00.25	289.12	21.07	-46.1	-47.5	20.0	0.00e+00	0	43	0	703594496	63	4294
2026-01-24 12:10:01.26	289.38	21.05	-46.0	-47.4	20.1	0.00e+00	0	43	0	705691648	63	4246
2026-01-24 12:10:02.27	289.63	21.02	-45.9	-47.3	20.2	0.00e+00	0	43	0	707788800	63	4219
2026-01-24 12:10:03.27	289.89	21.00	-45.8	-47.2	20.3	0.00e+00	0	43	0	709885952	63	4155
2026-01-24 12:10:04.28	290.14	20.97	-45.7	-47.0	20.4	0.00e+00	0	43	0	711983104	63	4079
2026-01-24 12:10:05.29	290.40	20.95	-45.7	-47.1	20.4	0.00e+00	0	43	0	713031680	63	4100
2026-01-24 12:10:06.29	290.65	20.92	-45.7	-47.0	20.4	0.00e+00	0	43	0	715128832	63	4091
2026-01-24 12:10:07.30	290.90	20.89	-45.7	-47.0	20.4	0.00e+00	0	43	0	717225984	63	4060
2026-01-24 12:10:08.31	291.16	20.86	-45.5	-46.8	20.6	0.00e+00	0	43	0	719323136	63	3971
2026-01-24 12:10:09.32	291.41	20.84	-45.3	-46.6	20.8	0.00e+00	0	43	0	721420288	62	4100
2026-01-24 12:10:10.33	291.66	20.81	-45.4	-46.6	20.8	0.00e+00	0	43	0	722468864	62	4118
2026-01-24 12:10:11.34	291.91	20.78	-45.3	-46.6	20.8	0.00e+00	0	43	0	724566016	62	4104
2026-01-24 12:10:12.35	292.17	20.75	-45.4	-46.7	20.7	0.00e+00	0	43	0	726663168	62	4149
2026-01-24 12:10:13.35	292.41	20.72	-45.7	-47.0	20.4	0.00e+00	0	43	0	728760320	62	4299
2026-01-24 12:10:14.36	292.67	20.69	-45.8	-47.2	20.3	0.00e+00	0	43	0	730857472	62	4408
2026-01-24 12:10:15.37	292.92	20.65	-45.9	-47.2	20.2	0.00e+00	0	43	0	731906048	62	4415
2026-01-24 12:10:16.38	293.17	20.62	-45.9	-47.2	20.2	0.00e+00	0	43	0	734003200	62	4428
2026-01-24 12:10:17.39	293.41	20.59	-45.8	-47.1	20.3	0.00e+00	0	43	0	736100352	62	4358
2026-01-24 12:10:18.39	293.66	20.56	-45.5	-46.8	20.6	0.00e+00	0	43	0	738197504	62	4213
2026-01-24 12:10:19.40	293.91	20.52	-45.5	-46.7	20.7	0.00e+00	0	43	0	740294656	62	4181
2026-01-24 12:10:20.41	294.16	20.49	-45.4	-46.6	20.8	0.00e+00	0	43	0	742391808	62	4141
2026-01-24 12:10:21.42	294.40	20.45	-45.2	-46.5	20.9	0.00e+00	0	43	0	743440384	62	4061
2026-01-24 12:10:22.43	294.65	20.42	-45.0	-46.2	21.2	0.00e+00	0	43	0	745537536	62	3939
2026-01-24 12:10:23.43	294.89	20.38	-44.9	-46.1	21.3	0.00e+00	0	43	0	747634688	61	4109
2026-01-24 12:10:24.44	295.14	20.35	-44.8	-46.0	21.4	0.00e+00	0	43	0	749731840	61	4053
2026-01-24 12:10:25.45	295.38	20.31	-44.5	-45.7	21.6	0.00e+00	0	43	0	750780416	61	3921
2026-01-24 12:10:26.46	295.63	20.28	-44.2	-45.2	22.0	0.00e+00	0	43	0	752877568	60	3958
2026-01-24 12:10:27.46	295.87	20.24	-44.3	-45.4	21.9	0.00e+00	0	43	0	754974720	60	4014
2026-01-24 12:10:28.47	296.11	20.20	-44.3	-45.4	21.9	0.00e+00	0	43	0	757071872	60	4029
2026-01-24 12:10:29.48	296.35	20.16	-44.6	-45.7	21.5	0.00e+00	0	43	0	759169024	60	4180
2026-01-24 12:10:30.49	296.60	20.12	-44.8	-45.9	21.4	0.00e+00	0	43	0	760217600	60	4287
2026-01-24 12:10:31.50	296.84	20.08	-44.8	-46.0	21.3	0.00e+00	0	43	0	762314752	60	4315
2026-01-24 12:10:32.51	297.08	20.05	-45.0	-46.2	21.2	0.00e+00	0	43	0	764411904	60	4399
2026-01-24 12:10:33.51	297.32	20.01	-44.9	-46.1	21.2	0.00e+00	0	43	0	766509056	60	4387
2026-01-24 12:10:34.52	297.56	19.97	-44.9	-46.1	21.2	0.00e+00	0	43	0	768606208	60	4383
2026-01-24 12:10:35.53	297.79	19.92	-45.0	-46.2	21.1	0.00e+00	0	43	0	770703360	60	4409
2026-01-24 12:10:36.54	298.03	19.88	-44.9	-46.1	21.2	0.00e+00	0	43	0	771751936	60	4355
2026-01-24 12:10:37.55	298.27	19.84	-44.9	-46.0	21.3	0.00e+00	0	43	0	773849088	60	4340
2026-01-24 12:10:38.55	298.50	19.80	-44.7	-45.9	21.3	0.00e+00	0	43	0	775946240	60	4268
2026-01-24 12:10:39.56	298.74	19.76	-44.6	-45.7	21.5	0.00e+00	0	43	0	778043392	60	4174
2026-01-24 12:10:40.57	298.98	19.71	-44.5	-45.6	21.6	0.00e+00	0	43	0	779091968	60	4134
2026-01-24 12:10:41.58	299.21	19.67	-44.5	-45.6	21.6	0.00e+00	0	43	0	781189120	60	4113
2026-01-24 12:10:42.59	299.45	19.63	-44.1	-45.2	22.0	0.00e+00	0	43	0	783286272	60	3945
2026-01-24 12:10:43.59	299.68	19.58	-44.0	-45.1	22.1	0.00e+00	0	43	0	785383424	60	3896
2026-01-24 12:10:44.60	299.91	19.54	-44.0	-45.1	22.1	0.00e+00	0	43	0	787480576	60	3890
2026-01-24 12:10:45.61	300.14	19.49	-44.3	-45.4	22.1	0.00e+00	0	43	0	789577728	59	4247
2026-01-24 12:10:46.62	300.37	19.45	-44.3	-45.4	22.2	0.00e+00	0	43	0	790626304	59	4263
2026-01-24 12:10:47.63	300.60	19.40	-44.3	-45.4	22.1	0.00e+00	0	43	0	792723456	59	4283
2026-01-24 12:10:48.63	300.83	19.36	-44.3	-45.4	22.1	0.00e+00	0	43	0	794820608	59	4286
2026-01-24 12:10:49.64	301.06	19.31	-44.3	-45.4	22.1	0.00e+00	0	43	0	796917760	59	4270
2026-01-24 12:10:50.65	301.29	19.27	-44.4	-45.5	22.0	0.00e+00	0	43	0	799014912	59	4335
2026-01-24 12:10:51.66	301.52	19.22	-44.5	-45.6	21.9	0.00e+00	0	43	0	800063488	59	4372
2026-01-24 12:10:52.67	301.75	19.17	-44.6	-45.7	21.8	0.00e+00	0	43	0	802160640	59	4430
2026-01-24 12:10:53.67	301.97	19.12	-44.4	-45.5	21.7	0.00e+00	0	43	0	804257792	60	4084
2026-01-24 12:10:54.68	302.20	19.08	-44.7	-45.8	21.4	0.00e+00	0	43	0	806354944	60	4223
2026-01-24 12:10:55.69	302.42	19.03	-44.7	-45.9	21.3	0.00e+00	0	43	0	807403520	60	4252
2026-01-24 12:10:56.70	302.65	18.98	-44.7	-45.9	21.3	0.00e+00	0	43	0	809500672	60	4253
2026-01-24 12:10:57.71	302.87	18.93	-44.8	-46.0	21.2	0.00e+00	0	43	0	811597824	60	4308
2026-01-24 12:10:58.71	303.09	18.88	-44.7	-45.8	21.4	0.00e+00	0	43	0	813694976	60	4241
2026-01-24 12:10:59.72	303.32	18.83	-44.8	-46.0	21.2	0.00e+00	0	43	0	815792128	60	4318
2026-01-24 12:11:00.73	303.54	18.78	-44.7	-45.9	21.3	0.00e+00	0	43	0	817889280	60	4260
2026-01-24 12:11:01.74	303.76	18.73	-44.8	-45.9	21.3	0.00e+00	0	43	0	818937856	60	4280
2026-01-24 12:11:02.75	303.98	18.68	-44.9	-46.1	21.1	0.00e+00	0	43	0	821035008	60	4366
2026-01-24 12:11:03.76	304.20	18.63	-44.8	-46.0	21.2	0.00e+00	0	43	0	823132160	60	4316
2026-01-24 12:11:04.76	304.42	18.58	-44.9	-46.1	21.1	0.00e+00	0	43	0	825229312	60	4387
2026-01-24 12:11:05.77	304.64	18.53	-44.8	-46.0	21.1	0.00e+00	0	43	0	827326464	60	4325
2026-01-24 12:11:06.78	304.85	18.48	-44.8	-46.0	21.1	0.00e+00	0	43	0	828375040	60	4324
2026-01-24 12:11:07.79	305.07	18.42	-44.9	-46.1	21.1	0.00e+00	0	43	0	830472192	60	4361
2026-01-24 12:11:08.80	305.29	18.37	-44.9	-46.1	21.0	0.00e+00	0	43	0	832569344	60	4381
2026-01-24 12:11:09.81	305.50	18.32	-45.2	-46.4	20.8	0.00e+00	0	43	0	834666496	60	4530
2026-01-24 12:11:10.82	305.72	18.27	-45.3	-46.6	20.5	0.00e+00	0	43	0	836763648	61	4379
2026-01-24 12:11:11.83	305.93	18.21	-45.5	-46.8	20.4	0.00e+00	0	43	0	837812224	61	4489
2026-01-24 12:11:12.84	306.14	18.16	-45.6	-47.0	20.2	0.00e+00	0	43	0	839909376	61	4559
2026-01-24 12:11:13.85	306.36	18.10	-45.7	-47.1	20.1	0.00e+00	0	43	0	842006528	62	4349
2026-01-24 12:11:14.86	306.57	18.05	-45.8	-47.2	20.0	0.00e+00	0	43	0	844103680	62	4398
2026-01-24 12:11:15.87	306.78	18.00	-45.8	-47.2	20.0	0.00e+00	0	43	0	846200832	62	4431
2026-01-24 12:11:16.87	306.99	17.94	-45.9	-47.3	19.9	0.00e+00	0	43	0	847249408	62	4463
2026-01-24 12:11:17.88	307.20	17.89	-46.0	-47.4	19.8	0.00e+00	0	43	0	849346560	62	4525
2026-01-24 12:11:18.89	307.41	17.83	-46.1	-47.6	19.7	0.00e+00	0	43	0	851443712	62	4605
2026-01-24 12:11:19.90	307.61	17.78	-46.0	-47.4	19.8	0.00e+00	0	43	0	853540864	62	4504
2026-01-24 12:11:20.91	307.82	17.72	-46.1	-47.5	19.8	0.00e+00	0	43	0	855638016	62	4557
2026-01-24 12:11:21.92	308.03	17.67	-46.1	-47.5	19.7	0.00e+00	0	43	0	857735168	62	4585
2026-01-24 12:11:22.93	308.23	17.61	-46.0	-47.4	19.8	0.00e+00	0	43	0	858783744	62	4545
2026-01-24 12:11:23.93	308.44	17.56	-46.0	-47.5	19.7	0.00e+00	0	43	0	860880896	62	4550
2026-01-24 12:11:24.94	308.64	17.50	-46.0	-47.5	19.8	0.00e+00	0	43	0	862978048	62	4550
2026-01-24 12:11:25.95	308.84	17.44	-46.0	-47.5	19.7	0.00e+00	0	43	0	865075200	62	4558
2026-01-24 12:11:26.96	309.05	17.39	-45.9	-47.3	19.9	0.00e+00	0	43	0	866123776	62	4486
2026-01-24 12:11:27.97	309.25	17.33	-46.0	-47.4	19.9	0.00e+00	0	43	0	868220928	62	4508
2026-01-24 12:11:28.98	309.45	17.27	-45.9	-47.3	20.0	0.00e+00	0	43	0	870318080	62	4447
2026-01-24 12:11:29.99	309.65	17.21	-45.9	-47.3	19.9	0.00e+00	0	43	0	872415232	62	4445
2026-01-24 12:11:31.00	309.85	17.16	-45.9	-47.3	20.0	0.00e+00	0	43	0	874512384	62	4444
2026-01-24 12:11:32.01	310.05	17.10	-45.9	-47.3	19.8	0.00e+00	0	43	0	876609536	62	4491
2026-01-24 12:11:33.01	310.25	17.04	-45.9	-47.3	19.9	0.00e+00	0	43	0	877658112	62	4488
2026-01-24 12:11:34.02	310.44	16.98	-46.1	-47.5	19.7	0.00e+00	0	43	0	879755264	62	4571
2026-01-24 12:11:35.03	310.64	16.92	-46.1	-47.6	19.6	0.00e+00	0	43	0	881852416	62	4624
2026-01-24 12:11:36.04	310.84	16.87	-46.1	-47.5	19.6	0.00e+00	0	43	0	883949568	62	4592
2026-01-24 12:11:37.05	311.03	16.81	-46.1	-47.5	19.6	0.00e+00	0	43	0	886046720	62	4579
2026-01-24 12:11:38.05	311.23	16.75	-46.1	-47.5	19.7	0.00e+00	0	43	0	887095296	62	4577
2026-01-24 12:11:39.06	311.42	16.69	-46.1	-47.6	19.6	0.00e+00	0	43	0	889192448	62	4612
2026-01-24 12:11:40.07	311.61	16.63	-46.0	-47.4	19.7	0.00e+00	0	43	0	891289600	62	4519
2026-01-24 12:11:41.08	311.81	16.57	-45.8	-47.1	20.0	0.00e+00	0	43	0	893386752	62	4386
2026-01-24 12:11:42.09	312.00	16.51	-45.6	-46.9	20.3	0.00e+00	0	43	0	894435328	62	4264
2026-01-24 12:11:43.10	312.19	16.45	-45.5	-46.8	20.3	0.00e+00	0	43	0	896532480	62	4227
2026-01-24 12:11:44.10	312.38	16.39	-45.4	-46.7	20.4	0.00e+00	0	43	0	898629632	62	4165
2026-01-24 12:11:45.11	312.57	16.33	-45.4	-46.7	20.4	0.00e+00	0	43	0	900726784	62	4156
2026-01-24 12:11:46.12	312.76	16.27	-45.3	-46.6	20.5	0.00e+00	0	43	0	902823936	62	4122
2026-01-24 12:11:47.13	312.94	16.21	-45.3	-46.6	20.5	0.00e+00	0	43	0	904921088	62	4131
2026-01-24 12:11:48.13	313.13	16.15	-45.4	-46.7	20.3	0.00e+00	0	43	0	905969664	62	4178
2026-01-24 12:11:49.14	313.32	16.09	-45.4	-46.7	20.4	0.00e+00	0	43	0	908066816	62	4175
2026-01-24 12:11:50.15	313.50	16.03	-45.5	-46.8	20.3	0.00e+00	0	43	0	910163968	62	4226
2026-01-24 12:11:51.15	313.68	15.97	-45.3	-46.6	20.5	0.00e+00	0	43	0	912261120	62	4145
2026-01-24 12:11:52.16	313.87	15.91	-45.5	-46.8	20.2	0.00e+00	0	43	0	914358272	62	4238
2026-01-24 12:11:53.17	314.05	15.85	-45.6	-47.0	20.1	0.00e+00	0	43	0	915406848	62	4321
2026-01-24 12:11:54.18	314.24	15.79	-45.7	-47.1	20.0	0.00e+00	0	43	0	917504000	62	4364
2026-01-24 12:11:55.19	314.42	15.73	-46.0	-47.5	19.6	0.00e+00	0	43	0	919601152	62	4558
2026-01-24 12:11:56.20	314.60	15.67	-46.3	-47.9	19.3	0.00e+00	0	43	0	921698304	63	4498
2026-01-24 12:11:57.21	314.78	15.60	-46.5	-48.1	19.0	0.00e+00	0	43	0	923795456	63	4619
2026-01-24 12:11:58.22	314.96	15.54	-46.5	-48.1	19.0	0.00e+00	0	43	0	924844032	63	4649
2026-01-24 12:11:59.23	315.14	15.48	-46.5	-48.0	19.1	0.00e+00	0	43	0	926941184	63	4580
2026-01-24 12:12:00.23	315.32	15.42	-46.1	-47.6	19.5	0.00e+00	0	43	0	929038336	63	4343
2026-01-24 12:12:01.24	315.49	15.36	-45.9	-47.3	19.7	0.00e+00	0	43	0	931135488	63	4231
2026-01-24 12:12:02.25	315.67	15.30	-45.8	-47.2	19.8	0.00e+00	0	43	0	933232640	63	4189
2026-01-24 12:12:03.26	315.85	15.23	-45.6	-47.0	20.0	0.00e+00	0	43	0	934281216	63	4074
2026-01-24 12:12:04.27	316.02	15.17	-45.5	-46.8	20.2	0.00e+00	0	43	0	936378368	62	4229
2026-01-24 12:12:05.28	316.20	15.11	-45.5	-46.8	20.2	0.00e+00	0	43	0	938475520	62	4242
2026-01-24 12:12:06.28	316.37	15.05	-45.6	-47.0	20.0	0.00e+00	0	43	0	940572672	62	4327
2026-01-24 12:12:07.29	316.55	14.99	-45.7	-47.1	19.9	0.00e+00	0	43	0	942669824	62	4380
2026-01-24 12:12:08.30	316.72	14.92	-45.9	-47.4	19.7	0.00e+00	0	43	0	943718400	62	4499
2026-01-24 12:12:09.30	316.89	14.86	-45.8	-47.3	19.8	0.00e+00	0	43	0	945815552	62	4446
2026-01-24 12:12:10.31	317.06	14.80	-45.7	-47.1	19.9	0.00e+00	0	43	0	947912704	62	4369
2026-01-24 12:12:11.32	317.23	14.74	-45.5	-46.8	20.2	0.00e+00	0	43	0	950009856	62	4242
2026-01-24 12:12:12.33	317.40	14.67	-45.5	-46.8	20.2	0.00e+00	0	43	0	952107008	62	4215
2026-01-24 12:12:13.34	317.57	14.61	-45.5	-46.8	20.2	0.00e+00	0	43	0	953155584	62	4224
2026-01-24 12:12:14.35	317.74	14.55	-45.5	-46.8	20.2	0.00e+00	0	43	0	955252736	62	4224
2026-01-24 12:12:15.36	317.91	14.48	-45.5	-46.9	20.1	0.00e+00	0	43	0	957349888	62	4262
2026-01-24 12:12:16.37	318.08	14.42	-45.7	-47.1	19.9	0.00e+00	0	43	0	959447040	62	4367
2026-01-24 12:12:17.38	318.24	14.36	-45.8	-47.2	19.8	0.00e+00	0	43	0	961544192	62	4394
2026-01-24 12:12:18.38	318.41	14.30	-46.0	-47.4	19.6	0.00e+00	0	43	0	962592768	62	4534
2026-01-24 12:12:19.39	318.57	14.23	-45.8	-47.3	19.8	0.00e+00	0	43	0	964689920	62	4446
2026-01-24 12:12:20.40	318.74	14.17	-45.9	-47.3	19.7	0.00e+00	0	43	0	966787072	62	4479
2026-01-24 12:12:21.41	318.90	14.11	-45.5	-46.8	20.2	0.00e+00	0	43	0	968884224	62	4232
2026-01-24 12:12:22.41	319.06	14.04	-45.3	-46.6	20.3	0.00e+00	0	43	0	970981376	62	4138
2026-01-24 12:12:23.42	319.22	13.98	-45.2	-46.5	20.4	0.00e+00	0	43	0	972029952	62	4093
2026-01-24 12:12:24.44	319.39	13.92	-45.1	-46.4	20.6	0.00e+00	0	43	0	974127104	62	4030
2026-01-24 12:12:25.44	319.55	13.85	-45.2	-46.5	20.4	0.00e+00	0	43	0	976224256	62	4083
2026-01-24 12:12:26.45	319.71	13.79	-45.4	-46.8	20.2	0.00e+00	0	43	0	978321408	62	4207
2026-01-24 12:12:27.46	319.87	13.73	-45.6	-47.0	19.9	0.00e+00	0	43	0	980418560	62	4316
2026-01-24 12:12:28.47	320.03	13.66	-45.7	-47.1	19.9	0.00e+00	0	43	0	981467136	62	4354
2026-01-24 12:12:29.48	320.19	13.60	-45.7	-47.2	19.8	0.00e+00	0	43	0	983564288	62	4404
2026-01-24 12:12:30.48	320.34	13.54	-45.9	-47.3	19.6	0.00e+00	0	43	0	985661440	62	4470
2026-01-24 12:12:31.50	320.50	13.47	-45.8	-47.3	19.6	0.00e+00	0	43	0	987758592	62	4464
2026-01-24 12:12:32.50	320.66	13.41	-45.9	-47.4	19.5	0.00e+00	0	43	0	989855744	62	4526
2026-01-24 12:12:33.51	320.81	13.35	-45.5	-46.8	20.1	0.00e+00	0	43	0	991952896	62	4230
2026-01-24 12:12:34.52	320.97	13.28	-45.3	-46.6	20.3	0.00e+00	0	43	0	993001472	62	4121
2026-01-24 12:12:35.53	321.12	13.22	-45.2	-46.5	20.3	0.00e+00	0	43	0	995098624	62	4068
2026-01-24 12:12:36.53	321.28	13.15	-45.2	-46.5	20.4	0.00e+00	0	43	0	997195776	62	4073
2026-01-24 12:12:37.54	321.43	13.09	-45.3	-46.6	20.2	0.00e+00	0	43	0	999292928	62	4142
2026-01-24 12:12:38.55	321.58	13.03	-45.7	-47.1	19.8	0.00e+00	0	43	0	1000341504	62	4367
2026-01-24 12:12:39.56	321.73	12.96	-45.6	-47.0	19.9	0.00e+00	0	43	0	1002438656	62	4313
2026-01-24 12:12:40.57	321.89	12.90	-45.8	-47.3	19.6	0.00e+00	0	43	0	1004535808	62	4444
2026-01-24 12:12:41.57	322.04	12.84	-45.9	-47.3	19.5	0.00e+00	0	43	0	1006632960	62	4486
2026-01-24 12:12:42.58	322.19	12.77	-46.0	-47.5	19.4	0.00e+00	0	43	0	1008730112	62	4581
2026-01-24 12:12:43.59	322.34	12.71	-46.1	-47.6	19.3	0.00e+00	0	43	0	1009778688	62	4618
2026-01-24 12:12:44.60	322.48	12.64	-45.9	-47.4	19.5	0.00e+00	0	43	0	1011875840	62	4513
2026-01-24 12:12:45.61	322.63	12.58	-45.9	-47.4	19.5	0.00e+00	0	43	0	1013972992	62	4515
2026-01-24 12:12:46.61	322.78	12.52	-45.9	-47.4	19.5	0.00e+00	0	43	0	1016070144	62	4501
2026-01-24 12:12:47.62	322.93	12.45	-45.7	-47.2	19.7	0.00e+00	0	43	0	1018167296	62	4396
2026-01-24 12:12:48.63	323.07	12.39	-45.7	-47.2	19.7	0.00e+00	0	43	0	1020264448	62	4406
2026-01-24 12:12:49.63	323.22	12.33	-45.8	-47.2	19.6	0.00e+00	0	43	0	1021313024	62	4412
2026-01-24 12:12:50.64	323.36	12.26	-45.8	-47.2	19.6	0.00e+00	0	43	0	1023410176	62	4438
2026-01-24 12:12:51.65	323.51	12.20	-45.9	-47.4	19.4	0.00e+00	0	43	0	1025507328	62	4533
2026-01-24 12:12:52.66	323.65	12.13	-46.1	-47.6	19.3	0.00e+00	0	43	0	1027604480	62	4615
2026-01-24 12:12:53.67	323.79	12.07	-46.2	-47.7	19.1	0.00e+00	0	43	0	1028653056	62	4703
2026-01-24 12:12:54.68	323.94	12.01	-46.2	-47.8	19.0	0.00e+00	0	43	0	1030750208	63	4478
2026-01-24 12:12:55.69	324.08	11.94	-46.3	-47.9	18.9	0.00e+00	0	43	0	1032847360	63	4523
2026-01-24 12:12:56.69	324.22	11.88	-46.1	-47.7	19.1	0.00e+00	0	43	0	1034944512	63	4412
2026-01-24 12:12:57.70	324.36	11.82	-46.0	-47.6	19.2	0.00e+00	0	43	0	1037041664	63	4343
2026-01-24 12:12:58.71	324.50	11.75	-46.0	-47.5	19.2	0.00e+00	0	43	0	1039138816	63	4338
2026-01-24 12:12:59.72	324.64	11.69	-45.9	-47.3	19.4	0.00e+00	0	43	0	1040187392	63	4242
2026-01-24 12:13:00.73	324.78	11.62	-45.8	-47.2	19.6	0.00e+00	0	43	0	1042284544	63	4174
2026-01-24 12:13:01.73	324.92	11.56	-46.0	-47.5	19.4	0.00e+00	0	43	0	1044381696	63	4297
2026-01-24 12:13:02.74	325.06	11.50	-46.0	-47.5	19.3	0.00e+00	0	43	0	1046478848	63	4328
2026-01-24 12:13:03.75	325.19	11.43	-46.2	-47.7	19.1	0.00e+00	0	43	0	1048576000	63	4418
2026-01-24 12:13:04.76	325.33	11.37	-46.2	-47.7	19.0	0.00e+00	0	43	0	1049624576	63	4440
2026-01-24 12:13:05.76	325.47	11.31	-46.4	-48.0	18.8	0.00e+00	0	43	0	1051721728	63	4552
2026-01-24 12:13:06.77	325.60	11.24	-46.7	-48.3	18.4	0.00e+00	0	43	0	1053818880	63	4759
2026-01-24 12:13:07.78	325.74	11.18	-46.6	-48.2	18.6	0.00e+00	0	43	0	1055916032	63	4697
2026-01-24 12:13:08.79	325.87	11.12	-46.6	-48.2	18.5	0.00e+00	0	43	0	1056964608	63	4702
2026-01-24 12:13:09.80	326.01	11.05	-46.4	-48.0	18.8	0.00e+00	0	43	0	1059061760	63	4569
2026-01-24 12:13:10.81	326.14	10.99	-46.2	-47.8	18.9	0.00e+00	0	43	0	1061158912	63	4493
2026-01-24 12:13:11.81	326.27	10.93	-46.2	-47.8	18.9	0.00e+00	0	43	0	1063256064	63	4475
2026-01-24 12:13:12.82	326.41	10.86	-46.2	-47.7	19.0	0.00e+00	0	43	0	1065353216	63	4439
2026-01-24 12:13:13.83	326.54	10.80	-46.2	-47.7	19.0	0.00e+00	0	43	0	1067450368	63	4436
2026-01-24 12:13:14.84	326.67	10.74	-46.2	-47.8	18.9	0.00e+00	0	43	0	1068498944	63	4478
2026-01-24 12:13:15.85	326.80	10.67	-46.1	-47.7	19.0	0.00e+00	0	43	0	1070596096	63	4419
2026-01-24 12:13:16.85	326.93	10.61	-46.4	-48.0	18.7	0.00e+00	0	43	0	1072693248	63	4597
2026-01-24 12:13:17.86	327.06	10.55	-46.4	-48.1	18.7	0.00e+00	0	43	0	1074790400	63	4604
2026-01-24 12:13:18.87	327.19	10.48	-46.4	-48.0	18.7	0.00e+00	0	43	0	1076887552	63	4556
2026-01-24 12:13:19.88	327.32	10.42	-46.4	-48.1	18.7	0.00e+00	0	43	0	1077936128	63	4599
2026-01-24 12:13:20.88	327.44	10.36	-46.4	-48.0	18.7	7.00e-07	0	43	0	1080033280	63	4581
2026-01-24 12:13:21.89	327.57	10.30	-46.5	-48.2	18.5	0.00e+00	0	43	0	1082130432	63	4666
2026-01-24 12:13:22.90	327.70	10.23	-46.5	-48.1	18.5	1.50e-06	0	43	0	1084227584	63	4648
2026-01-24 12:13:23.91	327.83	10.17	-46.5	-48.2	18.5	0.00e+00	0	43	0	1086324736	63	4662
2026-01-24 12:13:24.91	327.95	10.11	-46.4	-48.0	18.7	0.00e+00	0	43	0	1087373312	63	4584
2026-01-24 12:13:25.92	328.08	10.04	-46.4	-48.0	18.6	0.00e+00	0	43	0	1089470464	63	4578
2026-01-24 12:13:26.93	328.20	9.98	-46.4	-48.0	18.6	0.00e+00	0	43	0	1091567616	63	4588
2026-01-24 12:13:27.94	328.33	9.92	-46.4	-48.0	18.6	0.00e+00	0	43	0	1093664768	63	4576
2026-01-24 12:13:28.95	328.45	9.86	-46.5	-48.2	18.5	0.00e+00	0	43	0	1095761920	63	4660
2026-01-24 12:13:29.95	328.57	9.79	-46.6	-48.3	18.4	0.00e+00	0	43	0	1096810496	63	4709
2026-01-24 12:13:30.96	328.70	9.73	-46.6	-48.4	18.3	7.00e-07	0	43	0	1098907648	63	4776
2026-01-24 12:13:31.97	328.82	9.67	-46.8	-48.6	17.9	0.00e+00	0	43	0	1101004800	64	4648
2026-01-24 12:13:32.98	328.94	9.60	-46.9	-48.7	17.8	0.00e+00	0	43	0	1103101952	64	4680
2026-01-24 12:13:33.99	329.06	9.54	-47.0	-48.8	17.7	0.00e+00	0	43	0	1105199104	64	4744
2026-01-24 12:13:35.00	329.18	9.48	-47.1	-49.0	17.6	0.00e+00	0	43	0	1106247680	64	4837
2026-01-24 12:13:36.01	329.30	9.42	-47.0	-48.9	17.6	0.00e+00	0	43	0	1108344832	64	4793
2026-01-24 12:13:37.01	329.42	9.36	-47.0	-48.9	17.6	0.00e+00	0	43	0	1110441984	64	4792
2026-01-24 12:13:38.02	329.54	9.29	-47.1	-49.0	17.5	0.00e+00	0	43	0	1112539136	64	4866
2026-01-24 12:13:39.03	329.66	9.23	-46.7	-48.5	18.0	0.00e+00	0	43	0	1114636288	64	4562
2026-01-24 12:13:40.03	329.78	9.17	-46.6	-48.3	18.1	0.00e+00	0	43	0	1115684864	64	4488
2026-01-24 12:13:41.04	329.90	9.11	-46.6	-48.4	18.1	0.00e+00	0	43	0	1117782016	64	4522
2026-01-24 12:13:42.05	330.01	9.04	-46.5	-48.3	18.2	0.00e+00	0	43	0	1119879168	64	4449
2026-01-24 12:13:43.06	330.13	8.98	-46.5	-48.3	18.2	0.00e+00	0	43	0	1121976320	64	4449
2026-01-24 12:13:44.07	330.25	8.92	-46.3	-48.0	18.5	0.00e+00	0	43	0	1124073472	64	4293
2026-01-24 12:13:45.07	330.36	8.86	-46.3	-48.0	18.4	0.00e+00	0	43	0	1125122048	64	4295
2026-01-24 12:13:46.08	330.48	8.80	-46.3	-47.9	18.5	0.00e+00	0	43	0	1127219200	64	4274
2026-01-24 12:13:47.09	330.59	8.74	-46.3	-48.0	18.4	0.00e+00	0	43	0	1129316352	64	4330
2026-01-24 12:13:48.10	330.71	8.67	-46.4	-48.2	18.3	0.00e+00	0	43	0	1131413504	64	4403
2026-01-24 12:13:49.11	330.82	8.61	-46.5	-48.3	18.1	0.00e+00	0	43	0	1133510656	64	4462
2026-01-24 12:13:50.11	330.94	8.55	-46.7	-48.6	17.8	0.00e+00	0	43	0	1135607808	64	4616
2026-01-24 12:13:51.12	331.05	8.49	-46.8	-48.6	17.7	0.00e+00	0	43	0	1136656384	64	4650
2026-01-24 12:13:52.13	331.16	8.43	-46.6	-48.4	17.9	0.00e+00	0	43	0	1138753536	64	4529
2026-01-24 12:13:53.14	331.28	8.37	-46.6	-48.4	18.0	0.00e+00	0	43	0	1140850688	64	4544
2026-01-24 12:13:54.14	331.39	8.30	-46.7	-48.6	17.8	0.00e+00	0	43	0	1142947840	64	4616
2026-01-24 12:13:55.15	331.50	8.24	-46.7	-48.6	17.8	0.00e+00	0	43	0	1143996416	64	4603
2026-01-24 12:13:56.16	331.61	8.18	-46.8	-48.6	17.7	0.00e+00	0	43	0	1146093568	64	4649
2026-01-24 12:13:57.17	331.72	8.12	-46.7	-48.6	17.8	0.00e+00	0	43	0	1148190720	64	4623
2026-01-24 12:13:58.18	331.83	8.06	-46.7	-48.6	17.7	0.00e+00	0	43	0	1150287872	64	4619
2026-01-24 12:13:59.19	331.94	8.00	-47.0	-48.9	17.5	0.00e+00	0	43	0	1152385024	64	4775
2026-01-24 12:14:00.19	332.05	7.94	-47.0	-48.9	17.5	0.00e+00	0	43	0	1153433600	64	4787
2026-01-24 12:14:01.20	332.16	7.88	-47.0	-48.9	17.4	0.00e+00	0	43	0	1155530752	64	4786
2026-01-24 12:14:02.21	332.27	7.82	-47.2	-49.2	17.2	0.00e+00	0	43	0	1157627904	64	4937
2026-01-24 12:14:03.22	332.37	7.75	-47.2	-49.3	17.1	0.00e+00	0	43	0	1159725056	64	4985
2026-01-24 12:14:04.22	332.48	7.69	-47.3	-49.3	17.0	0.00e+00	0	43	0	1161822208	65	4750
2026-01-24 12:14:05.23	332.59	7.63	-47.4	-49.5	16.8	0.00e+00	0	43	0	1163919360	65	4835
2026-01-24 12:14:06.24	332.70	7.57	-47.3	-49.4	16.9	0.00e+00	0	43	0	1164967936	65	4778
2026-01-24 12:14:07.25	332.80	7.51	-47.5	-49.7	16.6	0.00e+00	0	43	0	1167065088	65	4931
2026-01-24 12:14:08.26	332.91	7.45	-47.3	-49.4	16.8	0.00e+00	0	43	0	1169162240	65	4781
2026-01-24 12:14:09.27	333.01	7.39	-47.3	-49.4	16.9	0.00e+00	0	43	0	1171259392	65	4806
2026-01-24 12:14:10.28	333.12	7.33	-47.3	-49.4	16.9	0.00e+00	0	43	0	1172307968	65	4777
2026-01-24 12:14:11.29	333.22	7.27	-47.2	-49.2	17.0	0.00e+00	0	43	0	1174405120	65	4693
2026-01-24 12:14:12.29	333.33	7.21	-47.0	-49.0	17.2	0.00e+00	0	43	0	1176502272	65	4586
2026-01-24 12:14:13.30	333.43	7.15	-47.1	-49.2	17.1	0.00e+00	0	43	0	1178599424	65	4654
2026-01-24 12:14:14.31	333.53	7.09	-47.1	-49.1	17.1	0.00e+00	0	43	0	1180696576	65	4632
2026-01-24 12:14:15.32	333.64	7.03	-47.1	-49.1	17.1	0.00e+00	0	43	0	1182793728	65	4606
2026-01-24 12:14:16.33	333.74	6.97	-47.1	-49.2	17.0	0.00e+00	0	43	0	1183842304	65	4665
2026-01-24 12:14:17.34	333.84	6.91	-47.1	-49.2	17.0	0.00e+00	0	43	0	1185939456	65	4684
2026-01-24 12:14:18.34	333.94	6.85	-47.2	-49.3	16.9	0.00e+00	0	43	0	1188036608	65	4742
2026-01-24 12:14:19.35	334.04	6.79	-47.3	-49.4	16.8	0.00e+00	0	43	0	1190133760	65	4780
2026-01-24 12:14:20.36	334.15	6.73	-47.3	-49.5	16.7	0.00e+00	0	43	0	1192230912	65	4837
2026-01-24 12:14:21.37	334.25	6.67	-47.4	-49.6	16.6	0.00e+00	0	43	0	1193279488	65	4905
2026-01-24 12:14:22.37	334.35	6.61	-47.6	-49.9	16.2	0.00e+00	0	43	0	1195376640	65	5098
2026-01-24 12:14:23.38	334.45	6.55	-47.5	-49.8	16.3	0.00e+00	0	43	0	1197473792	65	5002
2026-01-24 12:14:24.39	334.55	6.49	-47.5	-49.8	16.3	0.00e+00	0	43	0	1199570944	65	5009
2026-01-24 12:14:25.39	334.64	6.43	-47.8	-50.2	15.9	0.00e+00	0	43	0	1200619520	66	4948
2026-01-24 12:14:26.40	334.74	6.37	-47.8	-50.2	15.9	0.00e+00	0	43	0	1202716672	66	4965
2026-01-24 12:14:27.41	334.84	6.31	-47.9	-50.3	15.8	0.00e+00	0	43	0	1204813824	66	5041
2026-01-24 12:14:28.42	334.94	6.25	-47.9	-50.3	15.8	0.00e+00	0	43	0	1206910976	66	5011
2026-01-24 12:14:29.43	335.04	6.20	-47.7	-50.0	16.1	0.00e+00	0	43	0	1209008128	66	4866
2026-01-24 12:14:30.43	335.13	6.14	-47.8	-50.2	15.9	0.00e+00	0	43	0	1211105280	66	4973
