passes_logs/2026/01/24/R3.2S_Murmansk/R3.2S_Murmansk__20260124_201629_TY-39_rec.log

#Pass ID: 20260124_201629_TY-39
#Satellite: TY-39
#Configuration: TY-39
#almurnet v.1.7.20251203
#Start time: 2026-01-24 20:16:30

#Version: 2.2.20231116
#Station: R3.2S_Murmansk
#Location: 33.079688 lon 68.888172 lat
#TLE: 1 51832U 22019J   26023.97945810  .00002735  00000-0  13114-3 0  9999
#TLE: 2 51832  97.3628  90.4494 0009158  24.5204 335.6465 15.19705812215892

#Time	Az	El	Level	Level2	SNR	BER	BlckErr	Temp	State	Recorded	gain1	gain2
2026-01-24 20:16:30.15	216.93	2.08	-52.6	-54.7	3.7	0.00e+00	0	46	0	0	75	19882
2026-01-24 20:16:31.16	217.03	2.14	-52.6	-54.8	3.7	0.00e+00	0	46	104	0	77	17845
2026-01-24 20:16:32.17	217.14	2.20	-52.6	-54.7	3.7	0.00e+00	0	46	104	0	75	19897
2026-01-24 20:16:33.18	217.24	2.25	-52.6	-54.7	3.7	0.00e+00	0	46	104	0	75	19813
2026-01-24 20:16:34.18	217.35	2.31	-52.6	-54.7	3.7	0.00e+00	0	47	104	0	75	19765
2026-01-24 20:16:35.19	217.46	2.37	-52.6	-54.7	3.7	0.00e+00	0	46	104	0	75	19836
2026-01-24 20:16:36.20	217.56	2.43	-52.6	-54.7	3.7	0.00e+00	0	46	104	0	75	19814
2026-01-24 20:16:37.21	217.67	2.49	-52.6	-54.7	3.7	0.00e+00	0	46	104	0	75	19828
2026-01-24 20:16:38.22	217.78	2.55	-52.6	-54.7	3.7	0.00e+00	0	46	104	0	75	19825
2026-01-24 20:16:39.22	217.89	2.61	-52.6	-54.7	3.7	0.00e+00	0	47	104	0	75	19833
2026-01-24 20:16:40.23	218.00	2.67	-52.6	-54.7	3.7	0.00e+00	0	46	104	0	75	19826
2026-01-24 20:16:41.24	218.11	2.73	-52.6	-54.7	3.7	0.00e+00	0	46	104	0	75	19827
2026-01-24 20:16:42.25	218.22	2.79	-52.6	-54.7	3.7	0.00e+00	0	47	104	0	75	19824
2026-01-24 20:16:43.25	218.33	2.85	-52.6	-54.7	3.7	0.00e+00	0	47	104	0	75	19751
2026-01-24 20:16:44.26	218.44	2.91	-52.6	-54.7	3.7	0.00e+00	0	47	104	0	75	19790
2026-01-24 20:16:45.27	218.56	2.97	-52.6	-54.7	3.7	0.00e+00	0	47	104	0	75	19788
2026-01-24 20:16:46.28	218.67	3.03	-52.6	-54.7	3.7	0.00e+00	0	47	104	0	75	19834
2026-01-24 20:16:47.29	218.78	3.09	-52.6	-54.7	3.7	0.00e+00	0	47	104	0	75	19775
2026-01-24 20:16:48.30	218.90	3.15	-52.6	-54.7	3.7	0.00e+00	0	47	104	0	75	19807
2026-01-24 20:16:49.30	219.01	3.21	-52.6	-54.7	3.7	0.00e+00	0	47	104	0	75	19753
2026-01-24 20:16:50.31	219.13	3.28	-52.5	-54.7	3.7	0.00e+00	0	47	104	0	75	19768
2026-01-24 20:16:51.32	219.24	3.34	-52.5	-54.7	3.7	0.00e+00	0	47	104	0	75	19725
2026-01-24 20:16:52.32	219.36	3.40	-52.6	-54.7	3.7	0.00e+00	0	47	104	0	75	19777
2026-01-24 20:16:53.33	219.47	3.46	-52.6	-54.7	3.7	0.00e+00	0	47	104	0	75	19817
2026-01-24 20:16:54.34	219.59	3.52	-52.6	-54.7	3.7	0.00e+00	0	47	104	0	75	19810
2026-01-24 20:16:55.34	219.71	3.58	-52.6	-54.7	3.7	0.00e+00	0	47	104	0	75	19841
2026-01-24 20:16:56.35	219.83	3.64	-52.6	-54.7	3.7	0.00e+00	0	47	104	0	75	19778
2026-01-24 20:16:57.36	219.95	3.70	-52.6	-54.7	3.7	0.00e+00	0	47	104	0	75	19768
2026-01-24 20:16:58.37	220.07	3.77	-52.6	-54.7	3.7	0.00e+00	0	47	104	0	75	19817
2026-01-24 20:16:59.38	220.19	3.83	-52.6	-54.7	3.7	0.00e+00	0	47	104	0	75	19732
2026-01-24 20:17:00.39	220.31	3.89	-52.6	-54.7	3.7	0.00e+00	0	47	104	0	75	19830
2026-01-24 20:17:01.40	220.43	3.95	-52.5	-54.7	3.7	0.00e+00	0	47	104	0	75	19769
2026-01-24 20:17:02.40	220.56	4.01	-52.5	-54.7	3.7	0.00e+00	0	47	104	0	75	19740
2026-01-24 20:17:03.41	220.68	4.07	-52.6	-54.7	3.7	0.00e+00	0	47	104	0	75	19761
2026-01-24 20:17:04.42	220.80	4.14	-52.6	-54.7	3.7	0.00e+00	0	47	104	0	75	19816
2026-01-24 20:17:05.43	220.93	4.20	-52.6	-54.7	3.7	0.00e+00	0	48	104	0	75	19813
2026-01-24 20:17:06.43	221.05	4.26	-52.6	-54.7	3.7	0.00e+00	0	47	104	0	75	19824
2026-01-24 20:17:07.44	221.18	4.32	-52.6	-54.7	3.7	0.00e+00	0	47	104	0	75	19726
2026-01-24 20:17:08.45	221.30	4.39	-52.5	-54.7	3.7	0.00e+00	0	47	104	0	75	19807
2026-01-24 20:17:09.46	221.43	4.45	-52.5	-54.7	3.7	0.00e+00	0	47	104	0	75	19808
2026-01-24 20:17:10.46	221.56	4.51	-52.5	-54.7	3.7	0.00e+00	0	48	104	0	75	19802
2026-01-24 20:17:11.47	221.69	4.58	-52.6	-54.7	3.7	0.00e+00	0	47	104	0	75	19783
2026-01-24 20:17:12.48	221.82	4.64	-52.5	-54.7	3.7	0.00e+00	0	47	104	0	75	19755
2026-01-24 20:17:13.49	221.95	4.70	-52.6	-54.7	3.7	0.00e+00	0	48	104	0	75	19799
2026-01-24 20:17:14.50	222.08	4.77	-52.6	-54.7	3.7	0.00e+00	0	48	104	0	75	19763
2026-01-24 20:17:15.50	222.21	4.83	-52.5	-54.7	3.7	0.00e+00	0	48	104	0	75	19763
2026-01-24 20:17:16.51	222.34	4.89	-52.5	-54.7	3.7	0.00e+00	0	48	104	0	75	19739
2026-01-24 20:17:17.52	222.47	4.95	-52.5	-54.7	3.7	0.00e+00	0	47	104	0	75	19774
2026-01-24 20:17:18.53	222.61	5.02	-52.6	-54.7	3.7	0.00e+00	0	48	104	0	75	19776
2026-01-24 20:17:19.53	222.74	5.08	-52.7	-54.8	3.7	0.00e+00	0	48	104	0	75	20141
2026-01-24 20:17:20.54	222.87	5.15	-52.7	-54.8	3.7	0.00e+00	0	48	104	0	76	18895
2026-01-24 20:17:21.55	223.01	5.21	-52.7	-54.8	3.7	0.00e+00	0	48	104	0	76	18907
2026-01-24 20:17:22.56	223.15	5.27	-52.7	-54.9	3.7	0.00e+00	0	48	104	0	76	19050
2026-01-24 20:17:23.57	223.28	5.34	-52.6	-54.8	3.7	0.00e+00	0	48	104	0	76	18834
2026-01-24 20:17:24.58	223.42	5.40	-52.5	-54.7	3.7	0.00e+00	0	48	104	0	75	19762
2026-01-24 20:17:25.58	223.56	5.47	-52.6	-54.8	3.7	0.00e+00	0	48	104	0	75	20050
2026-01-24 20:17:26.59	223.70	5.53	-52.7	-54.9	3.7	0.00e+00	0	48	104	0	76	19086
2026-01-24 20:17:27.60	223.84	5.60	-52.6	-54.8	3.7	0.00e+00	0	48	104	0	75	19955
2026-01-24 20:17:28.61	223.98	5.66	-52.6	-54.7	3.7	0.00e+00	0	48	104	0	75	19801
2026-01-24 20:17:29.62	224.12	5.72	-52.7	-54.8	3.7	0.00e+00	0	48	104	0	75	20022
2026-01-24 20:17:30.62	224.26	5.79	-52.8	-54.9	3.7	0.00e+00	0	48	104	0	76	19123
2026-01-24 20:17:31.63	224.41	5.85	-52.7	-54.8	3.7	0.00e+00	0	48	104	0	76	18964
2026-01-24 20:17:32.64	224.55	5.92	-52.6	-54.7	3.7	0.00e+00	0	48	104	0	75	19870
2026-01-24 20:17:33.65	224.69	5.98	-52.8	-54.9	3.7	0.00e+00	0	48	104	0	76	19090
2026-01-24 20:17:34.66	224.84	6.05	-52.8	-54.9	3.7	0.00e+00	0	48	104	0	76	19175
2026-01-24 20:17:35.66	224.99	6.11	-52.7	-54.8	3.7	0.00e+00	0	48	104	0	75	20101
2026-01-24 20:17:36.67	225.13	6.18	-52.6	-54.7	3.7	0.00e+00	0	48	104	0	75	19928
2026-01-24 20:17:37.68	225.28	6.24	-52.8	-54.9	3.7	0.00e+00	0	48	104	0	76	19196
2026-01-24 20:17:38.69	225.43	6.31	-52.8	-54.9	3.7	0.00e+00	0	48	104	0	76	19252
2026-01-24 20:17:39.70	225.58	6.38	-52.7	-54.9	3.7	0.00e+00	0	48	104	0	76	19095
2026-01-24 20:17:40.70	225.73	6.44	-52.7	-54.8	3.7	0.00e+00	0	48	104	0	76	18946
2026-01-24 20:17:41.70	225.88	6.51	-52.8	-55.0	3.7	0.00e+00	0	48	104	0	76	19262
2026-01-24 20:17:42.71	226.03	6.57	-43.8	-43.3	8.8	0.00e+00	62	48	104	0	57	15058
2026-01-24 20:17:43.72	226.18	6.64	-38.7	-38.6	13.4	2.99e-02	0	49	0	50331648	49	13841
2026-01-24 20:17:44.73	226.34	6.70	-38.8	-38.7	13.3	2.77e-05	0	49	0	125829120	49	13982
2026-01-24 20:17:45.73	226.49	6.77	-38.6	-38.5	13.4	6.90e-06	0	49	0	201326592	49	13758
2026-01-24 20:17:46.74	226.64	6.83	-37.1	-37.0	13.4	0.00e+00	0	49	0	276824064	46	13762
2026-01-24 20:17:47.75	226.80	6.90	-37.0	-36.9	13.5	0.00e+00	0	49	0	360710144	46	13560
2026-01-24 20:17:48.76	226.96	6.97	-36.8	-36.8	13.6	6.90e-06	0	49	0	436207616	45	14113
2026-01-24 20:17:49.77	227.12	7.03	-36.9	-36.8	13.5	0.00e+00	0	49	0	511705088	45	14240
2026-01-24 20:17:50.78	227.27	7.10	-36.8	-36.8	13.6	0.00e+00	0	49	0	587202560	45	14115
2026-01-24 20:17:51.78	227.43	7.17	-36.6	-36.5	13.7	6.90e-06	0	49	0	662700032	45	13776
2026-01-24 20:17:52.79	227.59	7.23	-36.9	-36.8	13.6	0.00e+00	0	49	0	729808896	45	14215
2026-01-24 20:17:53.80	227.75	7.30	-36.6	-36.5	13.7	0.00e+00	0	49	0	805306368	45	13755
2026-01-24 20:17:54.81	227.92	7.37	-36.7	-36.6	13.7	0.00e+00	0	49	0	880803840	44	14706
2026-01-24 20:17:55.81	228.08	7.43	-36.6	-36.6	13.7	6.90e-06	0	49	0	956301312	44	14650
2026-01-24 20:17:56.82	228.24	7.50	-36.6	-36.5	13.7	0.00e+00	0	49	0	1031798784	44	14539
2026-01-24 20:17:57.83	228.41	7.57	-36.7	-36.7	13.7	0.00e+00	0	49	0	1107296256	44	14816
2026-01-24 20:17:58.84	228.57	7.63	-36.6	-36.5	13.7	0.00e+00	0	49	0	1182793728	44	14558
2026-01-24 20:17:59.85	228.74	7.70	-36.6	-36.5	13.8	0.00e+00	0	49	0	1266679808	44	14499
2026-01-24 20:18:00.85	228.91	7.77	-36.5	-36.4	13.8	0.00e+00	0	49	0	1342177280	44	14359
2026-01-24 20:18:01.86	229.08	7.83	-36.5	-36.4	13.8	0.00e+00	0	49	0	1417674752	44	14394
2026-01-24 20:18:02.87	229.25	7.90	-36.7	-36.6	13.7	0.00e+00	0	49	0	1493172224	44	14686
2026-01-24 20:18:03.88	229.42	7.97	-36.5	-36.4	13.8	0.00e+00	0	49	0	1568669696	44	14391
2026-01-24 20:18:04.89	229.59	8.04	-36.4	-36.3	13.9	0.00e+00	0	49	0	1644167168	44	14206
2026-01-24 20:18:05.90	229.76	8.10	-36.3	-36.2	14.0	0.00e+00	0	49	0	1719664640	44	14050
2026-01-24 20:18:06.90	229.93	8.17	-36.5	-36.4	13.8	0.00e+00	0	49	0	1795162112	44	14413
2026-01-24 20:18:07.91	230.11	8.24	-36.4	-36.4	13.9	0.00e+00	0	50	0	1862270976	44	14289
2026-01-24 20:18:08.92	230.28	8.30	-36.3	-36.2	14.0	0.00e+00	0	50	0	1937768448	44	14099
2026-01-24 20:18:09.92	230.46	8.37	-36.4	-36.3	13.9	0.00e+00	0	50	0	2013265920	44	14163
2026-01-24 20:18:10.93	230.63	8.44	-36.3	-36.3	13.9	0.00e+00	0	50	0	2088763392	44	14124
2026-01-24 20:18:11.94	230.81	8.51	-36.4	-36.3	14.0	0.00e+00	0	50	0	2164260864	44	14169
2026-01-24 20:18:12.95	230.99	8.57	-36.4	-36.4	13.9	0.00e+00	0	50	0	2248146944	44	14318
2026-01-24 20:18:13.96	231.17	8.64	-36.3	-36.2	14.0	0.00e+00	0	50	0	2323644416	44	14059
2026-01-24 20:18:14.96	231.35	8.71	-36.3	-36.3	14.0	0.00e+00	0	50	0	2399141888	44	14129
2026-01-24 20:18:15.97	231.53	8.78	-36.1	-36.0	14.1	0.00e+00	0	49	0	2474639360	44	13715
2026-01-24 20:18:16.98	231.72	8.84	-36.3	-36.2	14.0	0.00e+00	0	50	0	2550136832	44	14099
2026-01-24 20:18:17.98	231.90	8.91	-36.1	-36.0	14.1	0.00e+00	0	50	0	2625634304	44	13755
2026-01-24 20:18:18.99	232.09	8.98	-36.2	-36.1	14.1	0.00e+00	0	50	0	2701131776	44	13836
2026-01-24 20:18:20.00	232.27	9.05	-36.2	-36.1	14.1	0.00e+00	0	50	0	2776629248	44	13906
2026-01-24 20:18:21.01	232.46	9.12	-36.3	-36.2	14.0	0.00e+00	0	50	0	2852126720	44	14014
2026-01-24 20:18:22.02	232.65	9.18	-36.1	-36.1	14.1	0.00e+00	0	50	0	2927624192	44	13798
2026-01-24 20:18:23.02	232.84	9.25	-36.1	-36.0	14.2	0.00e+00	0	50	0	2994733056	44	13689
2026-01-24 20:18:24.03	233.03	9.32	-36.1	-36.0	14.1	0.00e+00	0	50	0	3070230528	44	13737
2026-01-24 20:18:25.04	233.22	9.39	-36.1	-36.0	14.2	0.00e+00	0	50	0	3145728000	43	14586
2026-01-24 20:18:26.05	233.41	9.45	-36.1	-36.0	14.2	0.00e+00	0	50	0	3229614080	43	14524
2026-01-24 20:18:27.05	233.60	9.52	-36.0	-35.9	14.2	0.00e+00	0	50	0	3305111552	43	14410
2026-01-24 20:18:28.06	233.80	9.59	-36.0	-35.9	14.3	0.00e+00	0	50	0	3380609024	43	14388
2026-01-24 20:18:29.07	233.99	9.66	-36.0	-36.0	14.2	0.00e+00	0	50	0	3456106496	43	14452
2026-01-24 20:18:30.08	234.19	9.73	-36.1	-36.0	14.2	0.00e+00	0	50	0	3531603968	43	14571
2026-01-24 20:18:31.09	234.39	9.79	-36.0	-35.9	14.3	0.00e+00	0	50	0	3607101440	43	14405
2026-01-24 20:18:32.10	234.59	9.86	-36.0	-35.9	14.3	0.00e+00	0	50	0	3682598912	43	14363
2026-01-24 20:18:33.10	234.79	9.93	-36.1	-36.0	14.2	0.00e+00	0	50	0	3758096384	43	14550
2026-01-24 20:18:34.11	234.99	10.00	-36.1	-36.0	14.3	0.00e+00	0	50	0	3833593856	43	14476
2026-01-24 20:18:35.12	235.19	10.06	-36.0	-36.0	14.2	0.00e+00	0	50	0	3909091328	43	14452
2026-01-24 20:18:36.13	235.40	10.13	-35.8	-35.7	14.4	0.00e+00	0	50	0	3984588800	43	14043
2026-01-24 20:18:37.14	235.60	10.20	-35.8	-35.7	14.4	0.00e+00	0	50	0	4060086272	43	14096
2026-01-24 20:18:38.14	235.80	10.27	-35.8	-35.7	14.4	0.00e+00	0	50	0	4127195136	43	14035
2026-01-24 20:18:39.15	236.01	10.33	-35.8	-35.7	14.4	0.00e+00	0	50	0	4211081216	43	14048
2026-01-24 20:18:40.16	236.22	10.40	-35.7	-35.6	14.4	0.00e+00	0	50	0	4286578688	43	13925
2026-01-24 20:18:41.16	236.43	10.47	-35.6	-35.5	14.5	0.00e+00	0	50	0	4362076160	43	13721
2026-01-24 20:18:42.17	236.64	10.54	-35.7	-35.7	14.4	0.00e+00	0	50	0	4437573632	43	13953
2026-01-24 20:18:43.18	236.85	10.60	-35.8	-35.7	14.4	0.00e+00	0	50	0	4513071104	43	13994
2026-01-24 20:18:44.19	237.06	10.67	-35.7	-35.7	14.4	0.00e+00	0	50	0	4588568576	43	13968
2026-01-24 20:18:45.20	237.28	10.74	-35.5	-35.5	14.5	0.00e+00	0	50	0	4664066048	43	13653
2026-01-24 20:18:46.20	237.49	10.81	-35.7	-35.6	14.4	0.00e+00	0	50	0	4739563520	43	13858
2026-01-24 20:18:47.21	237.71	10.87	-35.5	-35.5	14.5	0.00e+00	0	50	0	4815060992	43	13647
2026-01-24 20:18:48.22	237.92	10.94	-35.6	-35.5	14.5	0.00e+00	0	50	0	4890558464	43	13741
2026-01-24 20:18:49.23	238.14	11.01	-35.5	-35.4	14.5	0.00e+00	0	50	0	4966055936	42	14350
2026-01-24 20:18:50.24	238.36	11.07	-35.5	-35.4	14.5	0.00e+00	0	50	0	5041553408	42	14367
2026-01-24 20:18:51.24	238.58	11.14	-35.5	-35.4	14.5	0.00e+00	0	50	0	5117050880	42	14415
2026-01-24 20:18:52.25	238.80	11.21	-35.4	-35.3	14.6	0.00e+00	0	50	0	5192548352	42	14265
2026-01-24 20:18:53.26	239.03	11.27	-35.4	-35.3	14.6	0.00e+00	0	50	0	5268045824	42	14241
2026-01-24 20:18:54.26	239.25	11.34	-35.4	-35.3	14.6	0.00e+00	0	50	0	5343543296	42	14154
2026-01-24 20:18:55.27	239.48	11.41	-35.5	-35.4	14.6	0.00e+00	0	50	0	5419040768	42	14368
2026-01-24 20:18:56.28	239.70	11.47	-35.2	-35.1	14.7	0.00e+00	0	50	0	5494538240	42	13928
2026-01-24 20:18:57.29	239.93	11.54	-35.4	-35.3	14.6	0.00e+00	0	50	0	5570035712	42	14214
2026-01-24 20:18:58.29	240.16	11.60	-35.4	-35.3	14.6	0.00e+00	0	50	0	5645533184	42	14200
2026-01-24 20:18:59.30	240.39	11.67	-35.2	-35.1	14.7	0.00e+00	0	50	0	5721030656	42	13893
2026-01-24 20:19:00.31	240.62	11.74	-35.3	-35.2	14.7	0.00e+00	0	50	0	5796528128	42	13990
2026-01-24 20:19:01.32	240.85	11.80	-35.3	-35.2	14.6	0.00e+00	0	50	0	5872025600	42	14040
2026-01-24 20:19:02.33	241.09	11.87	-35.5	-35.4	14.6	0.00e+00	0	51	0	5947523072	42	14314
2026-01-24 20:19:03.34	241.33	11.93	-35.3	-35.3	14.6	0.00e+00	0	50	0	6023020544	42	14127
2026-01-24 20:19:04.34	241.56	12.00	-35.4	-35.3	14.7	0.00e+00	0	50	0	6098518016	42	14145
2026-01-24 20:19:05.35	241.80	12.06	-35.2	-35.1	14.7	0.00e+00	0	51	0	6182404096	42	13796
2026-01-24 20:19:06.36	242.04	12.13	-35.4	-35.3	14.6	0.00e+00	0	50	0	6257901568	42	14200
2026-01-24 20:19:07.37	242.28	12.19	-35.4	-35.3	14.6	0.00e+00	0	50	0	6325010432	42	14236
2026-01-24 20:19:08.37	242.52	12.26	-35.5	-35.4	14.5	0.00e+00	0	50	0	6400507904	42	14395
2026-01-24 20:19:09.38	242.76	12.32	-35.2	-35.1	14.7	0.00e+00	0	50	0	6476005376	42	13888
2026-01-24 20:19:10.39	243.00	12.39	-35.1	-35.0	14.7	0.00e+00	0	50	0	6551502848	42	13777
2026-01-24 20:19:11.40	243.25	12.45	-35.2	-35.1	14.7	0.00e+00	0	50	0	6627000320	42	13859
2026-01-24 20:19:12.41	243.50	12.52	-34.9	-34.8	14.8	0.00e+00	0	50	0	6702497792	41	14213
2026-01-24 20:19:13.42	243.75	12.58	-35.1	-35.0	14.8	0.00e+00	0	51	0	6777995264	41	14475
2026-01-24 20:19:14.42	243.99	12.64	-34.9	-34.8	14.9	0.00e+00	0	51	0	6853492736	41	14145
2026-01-24 20:19:15.43	244.24	12.71	-35.1	-35.0	14.8	0.00e+00	0	51	0	6928990208	41	14469
2026-01-24 20:19:16.44	244.49	12.77	-35.0	-34.9	14.4	1.38e-05	0	50	0	7004487680	41	14350
2026-01-24 20:19:17.45	244.75	12.83	-35.0	-34.9	14.5	2.77e-05	0	50	0	7088373760	41	14319
2026-01-24 20:19:18.46	245.00	12.89	-34.8	-34.7	14.6	6.90e-06	0	50	0	7163871232	41	14100
2026-01-24 20:19:19.46	245.26	12.96	-34.8	-34.7	14.6	1.38e-05	0	51	0	7239368704	41	14053
2026-01-24 20:19:20.47	245.51	13.02	-34.9	-34.8	14.7	2.08e-05	0	51	0	7314866176	41	14216
2026-01-24 20:19:21.48	245.77	13.08	-34.9	-34.8	14.6	0.00e+00	0	51	0	7390363648	41	14228
2026-01-24 20:19:22.48	246.03	13.14	-34.8	-34.7	14.7	0.00e+00	0	51	0	7457472512	41	14056
2026-01-24 20:19:23.49	246.29	13.20	-34.8	-34.8	14.7	0.00e+00	0	51	0	7532969984	41	14116
2026-01-24 20:19:24.50	246.55	13.26	-34.7	-34.7	14.8	0.00e+00	0	51	0	7608467456	41	13951
2026-01-24 20:19:25.51	246.81	13.32	-34.8	-34.7	14.7	0.00e+00	0	51	0	7683964928	41	13984
2026-01-24 20:19:26.52	247.08	13.38	-34.7	-34.6	14.8	6.90e-06	0	51	0	7759462400	41	13881
2026-01-24 20:19:27.52	247.34	13.44	-34.7	-34.6	14.8	0.00e+00	0	51	0	7834959872	41	13831
2026-01-24 20:19:28.53	247.61	13.50	-34.8	-34.7	14.8	0.00e+00	0	51	0	7910457344	41	13987
2026-01-24 20:19:29.54	247.88	13.56	-34.7	-34.6	14.9	0.00e+00	0	51	0	7985954816	41	13930
2026-01-24 20:19:30.55	248.15	13.62	-34.8	-34.7	14.9	0.00e+00	0	51	0	8069840896	41	14018
2026-01-24 20:19:31.56	248.42	13.68	-34.7	-34.6	15.0	0.00e+00	0	51	0	8145338368	41	13872
2026-01-24 20:19:32.56	248.69	13.74	-34.6	-34.5	15.0	0.00e+00	0	51	0	8220835840	41	13764
2026-01-24 20:19:33.57	248.96	13.80	-34.6	-34.6	15.0	0.00e+00	0	51	0	8296333312	41	13821
2026-01-24 20:19:34.58	249.23	13.86	-34.6	-34.5	15.0	0.00e+00	0	51	0	8371830784	41	13654
2026-01-24 20:19:35.59	249.51	13.91	-34.6	-34.5	15.1	0.00e+00	0	51	0	8447328256	41	13711
2026-01-24 20:19:36.60	249.79	13.97	-34.7	-34.6	15.0	0.00e+00	0	51	0	8522825728	41	13921
2026-01-24 20:19:37.60	250.06	14.03	-34.6	-34.5	15.0	0.00e+00	0	51	0	8589934592	41	13694
2026-01-24 20:19:38.61	250.34	14.08	-34.5	-34.4	15.1	0.00e+00	0	51	0	8665432064	41	13557
2026-01-24 20:19:39.62	250.62	14.14	-34.5	-34.4	15.1	0.00e+00	0	51	0	8740929536	40	14405
2026-01-24 20:19:40.63	250.90	14.20	-34.5	-34.4	15.1	0.00e+00	0	51	0	8816427008	40	14402
2026-01-24 20:19:41.64	251.19	14.25	-34.5	-34.4	15.1	0.00e+00	0	51	0	8891924480	40	14320
2026-01-24 20:19:42.65	251.47	14.31	-34.5	-34.4	15.1	0.00e+00	0	51	0	8967421952	40	14392
2026-01-24 20:19:43.66	251.76	14.36	-34.5	-34.4	15.1	0.00e+00	0	51	0	9051308032	40	14301
2026-01-24 20:19:44.66	252.04	14.41	-34.7	-34.6	15.0	0.00e+00	0	51	0	9126805504	40	14701
2026-01-24 20:19:45.67	252.33	14.47	-34.5	-34.4	15.1	0.00e+00	0	51	0	9202302976	40	14381
2026-01-24 20:19:46.68	252.62	14.52	-34.4	-34.3	15.1	0.00e+00	0	51	0	9277800448	40	14231
2026-01-24 20:19:47.69	252.91	14.57	-34.4	-34.3	15.2	0.00e+00	0	51	0	9353297920	40	14165
2026-01-24 20:19:48.69	253.20	14.63	-34.5	-34.4	15.1	0.00e+00	0	51	0	9428795392	40	14304
2026-01-24 20:19:49.70	253.49	14.68	-34.3	-34.2	15.2	0.00e+00	0	51	0	9504292864	40	14069
2026-01-24 20:19:50.71	253.78	14.73	-34.4	-34.3	15.1	0.00e+00	0	51	0	9579790336	40	14158
2026-01-24 20:19:51.72	254.08	14.78	-34.4	-34.3	15.2	0.00e+00	0	51	0	9655287808	40	14172
2026-01-24 20:19:52.73	254.37	14.83	-34.4	-34.3	15.1	0.00e+00	0	51	0	9722396672	40	14169
2026-01-24 20:19:53.74	254.67	14.88	-34.4	-34.3	15.2	0.00e+00	0	51	0	9797894144	40	14141
2026-01-24 20:19:54.74	254.97	14.93	-34.4	-34.3	15.2	0.00e+00	0	51	0	9873391616	40	14140
2026-01-24 20:19:55.75	255.27	14.98	-34.3	-34.2	15.2	0.00e+00	0	51	0	9957277696	40	14073
2026-01-24 20:19:56.76	255.57	15.03	-34.2	-34.1	15.3	0.00e+00	0	51	0	10032775168	40	13882
2026-01-24 20:19:57.76	255.86	15.07	-34.3	-34.2	15.2	0.00e+00	0	51	0	10108272640	40	14094
2026-01-24 20:19:58.77	256.17	15.12	-34.2	-34.1	15.3	0.00e+00	0	51	0	10183770112	40	13849
2026-01-24 20:19:59.78	256.47	15.17	-34.2	-34.1	15.2	0.00e+00	0	51	0	10259267584	40	13931
2026-01-24 20:20:00.79	256.78	15.21	-34.2	-34.1	15.2	0.00e+00	0	51	0	10334765056	40	13883
2026-01-24 20:20:01.79	257.08	15.26	-34.2	-34.1	15.2	0.00e+00	0	51	0	10410262528	40	13942
2026-01-24 20:20:02.80	257.39	15.30	-34.3	-34.2	15.2	0.00e+00	0	51	0	10485760000	40	14044
2026-01-24 20:20:03.81	257.70	15.35	-34.2	-34.1	15.2	0.00e+00	0	51	0	10561257472	40	13881
2026-01-24 20:20:04.82	258.00	15.39	-34.2	-34.1	15.2	0.00e+00	0	51	0	10636754944	40	13873
2026-01-24 20:20:05.82	258.31	15.43	-34.3	-34.2	15.2	0.00e+00	0	51	0	10712252416	40	13964
2026-01-24 20:20:06.83	258.62	15.48	-34.2	-34.1	15.2	0.00e+00	0	51	0	10787749888	40	13814
2026-01-24 20:20:07.84	258.94	15.52	-34.1	-34.0	15.2	0.00e+00	0	51	0	10854858752	40	13774
2026-01-24 20:20:08.85	259.25	15.56	-34.1	-34.0	15.0	0.00e+00	0	51	0	10930356224	40	13707
2026-01-24 20:20:09.86	259.56	15.60	-34.1	-34.0	14.9	0.00e+00	0	51	0	11014242304	40	13734
2026-01-24 20:20:10.86	259.87	15.64	-34.1	-34.0	14.9	0.00e+00	0	51	0	11089739776	40	13738
2026-01-24 20:20:11.87	260.19	15.68	-34.1	-34.0	14.8	6.90e-06	0	51	0	11165237248	40	13756
2026-01-24 20:20:12.88	260.51	15.72	-34.0	-33.9	14.8	1.38e-05	0	51	0	11240734720	40	13584
2026-01-24 20:20:13.89	260.83	15.76	-34.1	-34.0	14.7	2.08e-05	0	51	0	11316232192	40	13766
2026-01-24 20:20:14.89	261.14	15.79	-34.2	-34.1	14.8	2.08e-05	0	51	0	11391729664	40	13897
2026-01-24 20:20:15.90	261.46	15.83	-34.3	-34.2	14.7	6.90e-06	0	51	0	11467227136	40	13976
2026-01-24 20:20:16.91	261.78	15.87	-34.2	-34.1	14.8	0.00e+00	0	51	0	11542724608	40	13862
2026-01-24 20:20:17.92	262.10	15.90	-34.3	-34.2	14.8	0.00e+00	0	51	0	11618222080	40	14015
2026-01-24 20:20:18.93	262.43	15.94	-34.1	-34.0	15.0	1.38e-05	0	51	0	11693719552	40	13712
2026-01-24 20:20:19.94	262.75	15.97	-34.0	-33.9	15.0	0.00e+00	0	51	0	11769217024	40	13590
2026-01-24 20:20:20.94	263.07	16.00	-34.2	-34.1	15.0	0.00e+00	0	51	0	11844714496	39	14632
2026-01-24 20:20:21.95	263.40	16.04	-34.1	-34.0	15.2	0.00e+00	0	51	0	11920211968	39	14507
2026-01-24 20:20:22.96	263.72	16.07	-34.1	-34.0	15.3	0.00e+00	0	51	0	11995709440	39	14519
2026-01-24 20:20:23.96	264.04	16.10	-34.1	-34.0	15.3	0.00e+00	0	51	0	12071206912	39	14550
2026-01-24 20:20:24.97	264.37	16.13	-34.1	-34.0	15.3	0.00e+00	0	51	0	12146704384	39	14480
2026-01-24 20:20:25.98	264.70	16.16	-34.2	-34.1	15.3	0.00e+00	0	51	0	12222201856	39	14642
2026-01-24 20:20:26.99	265.03	16.19	-34.1	-34.0	15.3	0.00e+00	0	51	0	12297699328	39	14525
2026-01-24 20:20:27.99	265.35	16.22	-34.1	-34.0	15.3	0.00e+00	0	51	0	12373196800	39	14556
2026-01-24 20:20:29.00	265.68	16.24	-34.0	-33.9	15.4	0.00e+00	0	51	0	12448694272	39	14311
2026-01-24 20:20:30.01	266.02	16.27	-34.1	-34.0	15.3	0.00e+00	0	51	0	12524191744	39	14554
2026-01-24 20:20:31.02	266.35	16.30	-34.0	-33.9	15.4	0.00e+00	0	51	0	12599689216	39	14315
2026-01-24 20:20:32.03	266.68	16.32	-34.1	-34.0	15.3	0.00e+00	0	51	0	12675186688	39	14511
2026-01-24 20:20:33.03	267.01	16.35	-34.1	-34.0	15.3	0.00e+00	0	51	0	12750684160	39	14483
2026-01-24 20:20:34.04	267.34	16.37	-33.9	-33.8	15.4	0.00e+00	0	51	0	12826181632	39	14229
2026-01-24 20:20:35.05	267.68	16.39	-34.0	-33.9	15.4	0.00e+00	0	51	0	12910067712	39	14362
2026-01-24 20:20:36.06	268.01	16.41	-34.2	-34.1	15.3	0.00e+00	0	51	0	12985565184	39	14639
2026-01-24 20:20:37.06	268.34	16.44	-34.1	-34.0	15.4	0.00e+00	0	51	0	13052674048	39	14459
2026-01-24 20:20:38.07	268.68	16.46	-33.9	-33.8	15.4	0.00e+00	0	51	0	13128171520	39	14263
2026-01-24 20:20:39.08	269.01	16.48	-33.9	-33.9	15.4	0.00e+00	0	51	0	13203668992	39	14281
2026-01-24 20:20:40.09	269.35	16.49	-34.0	-33.9	15.4	0.00e+00	0	51	0	13279166464	39	14393
2026-01-24 20:20:41.10	269.69	16.51	-34.0	-33.9	15.4	0.00e+00	0	51	0	13354663936	39	14347
2026-01-24 20:20:42.10	270.02	16.53	-34.0	-33.9	15.4	0.00e+00	0	51	0	13430161408	39	14313
2026-01-24 20:20:43.11	270.36	16.55	-34.0	-33.9	15.4	0.00e+00	0	51	0	13505658880	39	14399
2026-01-24 20:20:44.12	270.70	16.56	-33.9	-33.8	15.4	0.00e+00	0	51	0	13581156352	39	14224
2026-01-24 20:20:45.13	271.04	16.58	-34.0	-33.9	15.4	0.00e+00	0	51	0	13656653824	39	14347
2026-01-24 20:20:46.14	271.37	16.59	-33.9	-33.8	15.4	0.00e+00	0	51	0	13732151296	39	14230
2026-01-24 20:20:47.14	271.71	16.60	-34.0	-33.9	15.4	0.00e+00	0	51	0	13807648768	39	14318
2026-01-24 20:20:48.14	272.05	16.61	-34.0	-34.0	15.4	0.00e+00	0	51	0	13883146240	39	14451
2026-01-24 20:20:49.15	272.39	16.63	-34.0	-33.9	15.3	0.00e+00	0	51	0	13967032320	39	14436
2026-01-24 20:20:50.16	272.73	16.64	-34.0	-33.9	15.4	0.00e+00	0	51	0	14042529792	39	14398
2026-01-24 20:20:51.17	273.07	16.65	-34.2	-34.1	15.3	0.00e+00	0	51	0	14118027264	39	14628
2026-01-24 20:20:52.18	273.41	16.65	-34.1	-34.0	15.3	0.00e+00	0	51	0	14185136128	39	14563
2026-01-24 20:20:53.18	273.74	16.66	-34.2	-34.2	15.3	0.00e+00	0	51	0	14260633600	39	14786
2026-01-24 20:20:54.19	274.08	16.67	-34.3	-34.2	15.3	0.00e+00	0	51	0	14336131072	39	14819
2026-01-24 20:20:55.20	274.43	16.67	-34.1	-34.0	15.3	0.00e+00	0	51	0	14411628544	39	14507
2026-01-24 20:20:56.21	274.77	16.68	-34.0	-33.9	15.4	0.00e+00	0	51	0	14487126016	39	14383
2026-01-24 20:20:57.22	275.11	16.68	-34.0	-33.9	15.4	0.00e+00	0	51	0	14562623488	39	14406
2026-01-24 20:20:58.22	275.45	16.69	-34.0	-33.8	15.4	0.00e+00	0	51	0	14638120960	39	14268
2026-01-24 20:20:59.23	275.79	16.69	-34.1	-34.0	15.4	0.00e+00	0	51	0	14713618432	39	14469
2026-01-24 20:21:00.24	276.13	16.69	-34.0	-33.9	15.4	0.00e+00	0	51	0	14789115904	39	14340
2026-01-24 20:21:01.25	276.47	16.69	-34.1	-34.0	15.4	0.00e+00	0	51	0	14864613376	39	14474
2026-01-24 20:21:02.25	276.81	16.69	-34.1	-34.0	15.4	0.00e+00	0	51	0	14948499456	39	14461
2026-01-24 20:21:03.26	277.15	16.69	-34.0	-33.9	15.4	0.00e+00	0	51	0	15023996928	39	14293
2026-01-24 20:21:04.27	277.49	16.69	-34.2	-34.1	15.3	0.00e+00	0	51	0	15099494400	39	14719
2026-01-24 20:21:05.28	277.83	16.69	-34.1	-34.0	15.3	0.00e+00	0	51	0	15174991872	39	14458
2026-01-24 20:21:06.29	278.17	16.69	-34.1	-34.0	15.4	0.00e+00	0	51	0	15250489344	39	14461
2026-01-24 20:21:07.29	278.51	16.68	-34.1	-34.0	15.3	0.00e+00	0	51	0	15317598208	39	14464
2026-01-24 20:21:08.30	278.85	16.68	-34.0	-33.9	15.4	0.00e+00	0	51	0	15393095680	39	14375
2026-01-24 20:21:09.31	279.19	16.67	-34.1	-34.0	15.3	0.00e+00	0	51	0	15468593152	39	14533
2026-01-24 20:21:10.32	279.53	16.66	-34.2	-34.1	15.3	0.00e+00	0	51	0	15544090624	39	14702
2026-01-24 20:21:11.33	279.87	16.66	-34.1	-34.0	15.4	0.00e+00	0	51	0	15619588096	39	14499
2026-01-24 20:21:12.34	280.21	16.65	-34.1	-34.0	15.3	0.00e+00	0	51	0	15695085568	39	14540
2026-01-24 20:21:13.34	280.55	16.64	-34.2	-34.1	15.3	0.00e+00	0	51	0	15770583040	39	14720
2026-01-24 20:21:14.35	280.89	16.63	-34.2	-34.1	15.3	0.00e+00	0	51	0	15854469120	39	14686
2026-01-24 20:21:15.36	281.23	16.62	-34.3	-34.2	15.3	0.00e+00	0	51	0	15929966592	39	14860
2026-01-24 20:21:16.36	281.57	16.60	-34.2	-34.1	15.3	0.00e+00	0	51	0	16005464064	39	14696
2026-01-24 20:21:17.37	281.90	16.59	-34.3	-34.2	15.3	0.00e+00	0	51	0	16080961536	39	14813
2026-01-24 20:21:18.38	282.24	16.58	-34.2	-34.1	15.3	0.00e+00	0	51	0	16156459008	39	14643
2026-01-24 20:21:19.39	282.58	16.56	-34.3	-34.2	15.3	0.00e+00	0	51	0	16231956480	39	14936
2026-01-24 20:21:20.39	282.92	16.55	-34.2	-34.1	15.3	0.00e+00	0	51	0	16307453952	39	14745
2026-01-24 20:21:21.40	283.25	16.53	-34.4	-34.3	15.3	0.00e+00	0	51	0	16382951424	39	15006
2026-01-24 20:21:22.41	283.59	16.52	-34.2	-34.1	15.3	0.00e+00	0	51	0	16450060288	39	14757
2026-01-24 20:21:23.42	283.93	16.50	-34.2	-34.1	15.4	0.00e+00	0	51	0	16525557760	39	14775
2026-01-24 20:21:24.43	284.26	16.48	-34.4	-34.3	15.2	0.00e+00	0	51	0	16601055232	39	15098
2026-01-24 20:21:25.44	284.60	16.46	-34.3	-34.2	15.3	0.00e+00	0	51	0	16676552704	39	14848
2026-01-24 20:21:26.45	284.93	16.44	-34.2	-34.1	15.4	0.00e+00	0	51	0	16760438784	39	14704
2026-01-24 20:21:27.46	285.27	16.42	-34.2	-34.1	15.3	0.00e+00	0	51	0	16835936256	39	14700
2026-01-24 20:21:28.46	285.60	16.40	-34.3	-34.2	15.3	0.00e+00	0	51	0	16911433728	39	14844
2026-01-24 20:21:29.47	285.93	16.38	-34.2	-34.1	15.4	0.00e+00	0	51	0	16986931200	39	14608
2026-01-24 20:21:30.48	286.26	16.35	-34.2	-34.1	15.4	0.00e+00	0	51	0	17062428672	39	14740
2026-01-24 20:21:31.49	286.59	16.33	-34.2	-34.1	15.3	0.00e+00	0	51	0	17137926144	39	14706
2026-01-24 20:21:32.49	286.92	16.30	-34.3	-34.2	15.3	0.00e+00	0	51	0	17213423616	39	14903
2026-01-24 20:21:33.50	287.25	16.28	-34.2	-34.1	15.3	0.00e+00	0	51	0	17288921088	39	14706
2026-01-24 20:21:34.51	287.58	16.25	-34.3	-34.1	15.3	0.00e+00	0	51	0	17364418560	39	14767
2026-01-24 20:21:35.52	287.91	16.22	-34.2	-34.1	15.2	0.00e+00	0	51	0	17439916032	39	14742
2026-01-24 20:21:36.52	288.24	16.20	-34.3	-34.2	15.2	0.00e+00	0	51	0	17515413504	39	14837
2026-01-24 20:21:37.53	288.56	16.17	-34.3	-34.2	15.2	0.00e+00	0	51	0	17582522368	39	14889
2026-01-24 20:21:38.54	288.89	16.14	-34.3	-34.2	15.3	0.00e+00	0	51	0	17658019840	39	14915
2026-01-24 20:21:39.55	289.22	16.11	-34.2	-34.2	15.3	0.00e+00	0	51	0	17741905920	39	14783
2026-01-24 20:21:40.56	289.54	16.08	-34.3	-34.2	15.3	0.00e+00	0	51	0	17817403392	39	14869
2026-01-24 20:21:41.57	289.87	16.05	-34.4	-34.3	15.2	0.00e+00	0	51	0	17892900864	39	15054
2026-01-24 20:21:42.57	290.19	16.01	-34.4	-34.3	15.2	0.00e+00	0	51	0	17968398336	39	15042
2026-01-24 20:21:43.58	290.51	15.98	-34.4	-34.3	15.1	0.00e+00	0	51	0	18043895808	39	14971
2026-01-24 20:21:44.59	290.83	15.95	-34.5	-34.4	15.1	0.00e+00	0	51	0	18119393280	39	15149
2026-01-24 20:21:45.60	291.16	15.91	-34.5	-34.4	15.1	0.00e+00	0	51	0	18194890752	39	15188
2026-01-24 20:21:46.60	291.47	15.88	-34.5	-34.4	15.1	0.00e+00	0	51	0	18270388224	39	15272
2026-01-24 20:21:47.61	291.79	15.84	-34.4	-34.3	15.2	0.00e+00	0	51	0	18345885696	39	15033
2026-01-24 20:21:48.62	292.11	15.80	-34.4	-34.3	15.2	0.00e+00	0	51	0	18421383168	39	15095
2026-01-24 20:21:49.63	292.43	15.77	-34.4	-34.3	15.1	0.00e+00	0	51	0	18496880640	39	15109
2026-01-24 20:21:50.63	292.74	15.73	-34.4	-34.3	15.2	0.00e+00	0	51	0	18572378112	39	15076
2026-01-24 20:21:51.64	293.06	15.69	-34.5	-34.4	15.2	0.00e+00	0	51	0	18647875584	39	15175
2026-01-24 20:21:52.65	293.37	15.65	-34.4	-34.4	15.2	0.00e+00	0	51	0	18723373056	39	15144
2026-01-24 20:21:53.66	293.69	15.61	-34.4	-34.3	15.2	0.00e+00	0	51	0	18798870528	39	15120
2026-01-24 20:21:54.67	294.00	15.57	-34.5	-34.4	15.1	0.00e+00	0	51	0	18874368000	39	15150
2026-01-24 20:21:55.67	294.31	15.53	-34.5	-34.4	15.1	0.00e+00	0	51	0	18949865472	39	15215
2026-01-24 20:21:56.68	294.62	15.49	-34.3	-34.2	15.2	0.00e+00	0	51	0	19025362944	39	14899
2026-01-24 20:21:57.69	294.93	15.45	-34.4	-34.3	15.2	0.00e+00	0	51	0	19100860416	39	15111
2026-01-24 20:21:58.70	295.24	15.41	-34.6	-34.5	15.1	0.00e+00	0	51	0	19176357888	39	15302
2026-01-24 20:21:59.70	295.54	15.36	-34.6	-34.4	15.1	0.00e+00	0	51	0	19251855360	39	15283
2026-01-24 20:22:00.71	295.85	15.32	-34.5	-34.4	15.1	0.00e+00	0	51	0	19327352832	39	15191
2026-01-24 20:22:01.72	296.16	15.27	-34.5	-34.4	15.2	0.00e+00	0	51	0	19402850304	39	15180
2026-01-24 20:22:02.73	296.46	15.23	-34.5	-34.5	15.2	0.00e+00	0	51	0	19478347776	39	15302
2026-01-24 20:22:03.73	296.76	15.18	-34.5	-34.4	15.2	0.00e+00	0	51	0	19553845248	39	15170
2026-01-24 20:22:04.74	297.06	15.14	-34.6	-34.5	15.2	0.00e+00	0	51	0	19629342720	39	15329
2026-01-24 20:22:05.75	297.37	15.09	-34.5	-34.4	15.2	0.00e+00	0	51	0	19704840192	39	15254
2026-01-24 20:22:06.76	297.67	15.04	-34.6	-34.5	15.2	0.00e+00	0	51	0	19780337664	39	15339
2026-01-24 20:22:07.77	297.96	15.00	-34.6	-34.5	15.1	0.00e+00	0	51	0	19855835136	40	14586
2026-01-24 20:22:08.78	298.26	14.95	-34.5	-34.4	15.2	0.00e+00	0	51	0	19931332608	40	14381
2026-01-24 20:22:09.78	298.56	14.90	-34.5	-34.4	15.1	0.00e+00	0	51	0	20006830080	40	14372
2026-01-24 20:22:10.79	298.85	14.85	-34.5	-34.4	15.2	0.00e+00	0	51	0	20082327552	40	14289
2026-01-24 20:22:11.80	299.15	14.80	-34.5	-34.4	15.1	0.00e+00	0	51	0	20157825024	40	14339
2026-01-24 20:22:12.81	299.44	14.75	-34.6	-34.5	15.1	0.00e+00	0	51	0	20233322496	40	14574
2026-01-24 20:22:13.81	299.73	14.70	-34.6	-34.5	15.1	0.00e+00	0	51	0	20308819968	40	14559
2026-01-24 20:22:14.82	300.02	14.65	-34.6	-34.5	15.1	0.00e+00	0	51	0	20384317440	40	14574
2026-01-24 20:22:15.83	300.31	14.60	-34.7	-34.5	15.1	0.00e+00	0	51	0	20459814912	40	14603
2026-01-24 20:22:16.83	300.60	14.54	-34.8	-34.7	15.1	0.00e+00	0	51	0	20535312384	40	14840
2026-01-24 20:22:17.84	300.88	14.49	-34.6	-34.5	15.1	0.00e+00	0	51	0	20610809856	40	14549
2026-01-24 20:22:18.85	301.17	14.44	-34.8	-34.6	15.0	0.00e+00	0	51	0	20694695936	40	14768
2026-01-24 20:22:19.86	301.46	14.38	-34.8	-34.7	15.0	0.00e+00	0	51	0	20770193408	40	14841
2026-01-24 20:22:20.86	301.74	14.33	-34.7	-34.7	15.0	0.00e+00	0	51	0	20837302272	40	14781
2026-01-24 20:22:21.87	302.02	14.28	-34.8	-34.7	15.0	0.00e+00	0	51	0	20912799744	40	14865
2026-01-24 20:22:22.88	302.30	14.22	-34.7	-34.6	15.0	0.00e+00	0	51	0	20988297216	40	14724
2026-01-24 20:22:23.89	302.58	14.17	-34.7	-34.6	15.1	0.00e+00	0	51	0	21063794688	40	14737
2026-01-24 20:22:24.90	302.86	14.11	-34.8	-34.7	15.0	0.00e+00	0	51	0	21139292160	40	14799
2026-01-24 20:22:25.90	303.14	14.06	-34.8	-34.7	15.0	0.00e+00	0	51	0	21214789632	40	14939
2026-01-24 20:22:26.91	303.41	14.00	-34.8	-34.7	15.0	0.00e+00	0	51	0	21290287104	40	14831
2026-01-24 20:22:27.92	303.69	13.94	-34.9	-34.8	15.0	0.00e+00	0	51	0	21365784576	40	14975
2026-01-24 20:22:28.93	303.96	13.89	-35.0	-34.9	14.9	0.00e+00	0	51	0	21441282048	40	15275
2026-01-24 20:22:29.93	304.23	13.83	-34.9	-34.8	15.0	0.00e+00	0	51	0	21516779520	40	15002
2026-01-24 20:22:30.94	304.50	13.77	-35.1	-35.0	14.9	0.00e+00	0	51	0	21592276992	40	15350
2026-01-24 20:22:31.95	304.77	13.71	-35.1	-35.0	14.9	0.00e+00	0	51	0	21676163072	40	15303
2026-01-24 20:22:32.96	305.04	13.66	-35.0	-34.9	14.9	0.00e+00	0	51	0	21751660544	40	15214
2026-01-24 20:22:33.97	305.31	13.60	-35.0	-34.9	14.9	0.00e+00	0	51	0	21827158016	40	15289
2026-01-24 20:22:34.98	305.58	13.54	-34.9	-34.8	14.9	0.00e+00	0	51	0	21902655488	40	15120
2026-01-24 20:22:35.98	305.84	13.48	-35.0	-35.0	14.9	0.00e+00	0	51	0	21969764352	40	15346
2026-01-24 20:22:36.99	306.10	13.42	-35.1	-35.1	14.8	0.00e+00	0	51	0	22045261824	40	15484
2026-01-24 20:22:38.00	306.37	13.36	-35.2	-35.2	14.8	0.00e+00	0	51	0	22120759296	41	14793
2026-01-24 20:22:39.01	306.63	13.30	-35.0	-35.0	14.9	0.00e+00	0	51	0	22196256768	41	14468
2026-01-24 20:22:40.01	306.89	13.24	-35.2	-35.1	14.8	0.00e+00	0	51	0	22271754240	41	14641
2026-01-24 20:22:41.02	307.15	13.18	-35.2	-35.1	14.8	0.00e+00	0	51	0	22347251712	41	14710
2026-01-24 20:22:42.03	307.40	13.12	-35.1	-35.0	14.9	0.00e+00	0	51	0	22422749184	41	14601
2026-01-24 20:22:43.04	307.66	13.06	-35.2	-35.1	14.8	0.00e+00	0	51	0	22498246656	41	14761
2026-01-24 20:22:44.05	307.92	13.00	-35.1	-35.1	14.8	0.00e+00	0	51	0	22573744128	41	14620
2026-01-24 20:22:45.06	308.17	12.93	-35.2	-35.1	14.8	0.00e+00	0	51	0	22657630208	41	14719
2026-01-24 20:22:46.06	308.42	12.87	-35.1	-35.0	14.8	0.00e+00	0	51	0	22733127680	41	14550
2026-01-24 20:22:47.07	308.67	12.81	-35.2	-35.1	14.8	0.00e+00	0	51	0	22808625152	41	14710
2026-01-24 20:22:48.08	308.92	12.75	-35.2	-35.1	14.8	0.00e+00	0	51	0	22884122624	41	14762
2026-01-24 20:22:49.08	309.17	12.69	-35.4	-35.3	14.7	0.00e+00	0	52	0	22959620096	41	15062
2026-01-24 20:22:50.09	309.42	12.62	-35.4	-35.3	14.7	0.00e+00	0	51	0	23035117568	41	15001
2026-01-24 20:22:51.10	309.66	12.56	-35.3	-35.2	14.8	0.00e+00	0	51	0	23102226432	41	14923
2026-01-24 20:22:52.11	309.91	12.50	-35.5	-35.4	14.6	0.00e+00	0	51	0	23177723904	41	15249
2026-01-24 20:22:53.11	310.15	12.43	-35.3	-35.2	14.7	0.00e+00	0	51	0	23253221376	41	14907
2026-01-24 20:22:54.12	310.39	12.37	-35.3	-35.2	14.8	0.00e+00	0	51	0	23328718848	41	14828
2026-01-24 20:22:55.13	310.63	12.31	-35.4	-35.3	14.7	0.00e+00	0	51	0	23404216320	41	15057
2026-01-24 20:22:56.14	310.87	12.24	-35.5	-35.4	14.6	0.00e+00	0	51	0	23479713792	41	15256
2026-01-24 20:22:57.15	311.11	12.18	-35.5	-35.4	14.6	0.00e+00	0	51	0	23563599872	41	15279
2026-01-24 20:22:58.16	311.35	12.11	-35.6	-35.5	14.6	0.00e+00	0	51	0	23639097344	41	15393
2026-01-24 20:22:59.16	311.59	12.05	-35.7	-35.7	14.5	0.00e+00	0	51	0	23714594816	42	14885
2026-01-24 20:23:00.17	311.82	11.98	-35.7	-35.7	14.5	0.00e+00	0	52	0	23790092288	42	14814
2026-01-24 20:23:01.17	312.05	11.92	-35.5	-35.5	14.6	0.00e+00	0	52	0	23865589760	42	14498
2026-01-24 20:23:02.18	312.29	11.86	-35.6	-35.6	14.6	0.00e+00	0	51	0	23941087232	42	14692
2026-01-24 20:23:03.19	312.52	11.79	-35.7	-35.7	14.5	0.00e+00	0	51	0	24016584704	42	14810
2026-01-24 20:23:04.20	312.75	11.73	-35.5	-35.5	14.6	0.00e+00	0	51	0	24092082176	42	14459
2026-01-24 20:23:05.21	312.98	11.66	-35.5	-35.5	14.6	0.00e+00	0	52	0	24167579648	42	14458
2026-01-24 20:23:06.21	313.20	11.60	-35.5	-35.5	14.6	0.00e+00	0	51	0	24234688512	42	14507
2026-01-24 20:23:07.22	313.43	11.53	-35.6	-35.6	14.5	0.00e+00	0	51	0	24310185984	42	14645
2026-01-24 20:23:08.23	313.66	11.46	-35.6	-35.5	14.6	0.00e+00	0	51	0	24385683456	42	14567
2026-01-24 20:23:09.24	313.88	11.40	-35.6	-35.6	14.6	0.00e+00	0	51	0	24461180928	42	14610
2026-01-24 20:23:10.24	314.10	11.33	-35.5	-35.5	14.6	0.00e+00	0	51	0	24536678400	42	14546
2026-01-24 20:23:11.25	314.32	11.27	-35.7	-35.7	14.5	0.00e+00	0	51	0	24620564480	42	14834
2026-01-24 20:23:12.26	314.55	11.20	-35.6	-35.6	14.5	0.00e+00	0	52	0	24696061952	42	14730
2026-01-24 20:23:13.27	314.77	11.13	-35.7	-35.6	14.5	0.00e+00	0	51	0	24771559424	42	14733
2026-01-24 20:23:14.28	314.98	11.07	-35.8	-35.7	14.5	0.00e+00	0	51	0	24847056896	42	14853
2026-01-24 20:23:15.28	315.20	11.00	-35.7	-35.7	14.5	0.00e+00	0	51	0	24922554368	42	14798
2026-01-24 20:23:16.29	315.42	10.94	-35.9	-35.8	14.4	0.00e+00	0	51	0	24998051840	42	15094
2026-01-24 20:23:17.30	315.63	10.87	-35.8	-35.8	14.4	0.00e+00	0	51	0	25073549312	42	14962
2026-01-24 20:23:18.31	315.84	10.80	-35.9	-35.8	14.4	0.00e+00	0	52	0	25149046784	42	15066
2026-01-24 20:23:19.32	316.06	10.74	-35.9	-35.9	14.4	0.00e+00	0	51	0	25224544256	42	15136
2026-01-24 20:23:20.32	316.27	10.67	-35.9	-35.8	14.4	0.00e+00	0	52	0	25300041728	42	15058
2026-01-24 20:23:21.33	316.48	10.60	-35.9	-35.9	14.4	0.00e+00	0	51	0	25375539200	42	15141
2026-01-24 20:23:22.34	316.69	10.54	-36.0	-35.9	14.4	0.00e+00	0	52	0	25442648064	42	15182
2026-01-24 20:23:23.35	316.89	10.47	-36.0	-35.9	14.3	0.00e+00	0	51	0	25526534144	42	15253
2026-01-24 20:23:24.36	317.10	10.40	-36.0	-35.9	14.3	0.00e+00	0	51	0	25602031616	42	15209
2026-01-24 20:23:25.36	317.30	10.34	-36.0	-35.9	14.3	0.00e+00	0	51	0	25677529088	42	15242
2026-01-24 20:23:26.37	317.51	10.27	-36.0	-35.9	14.3	0.00e+00	0	51	0	25753026560	42	15284
2026-01-24 20:23:27.38	317.71	10.20	-36.0	-36.0	14.3	0.00e+00	0	52	0	25828524032	42	15346
2026-01-24 20:23:28.39	317.92	10.14	-36.1	-36.0	14.3	0.00e+00	0	51	0	25904021504	42	15444
2026-01-24 20:23:29.40	318.12	10.07	-36.1	-36.1	14.2	0.00e+00	0	51	0	25979518976	42	15490
2026-01-24 20:23:30.40	318.32	10.00	-36.3	-36.2	14.2	0.00e+00	0	52	0	26055016448	43	14863
2026-01-24 20:23:31.41	318.51	9.93	-36.2	-36.1	14.2	0.00e+00	0	52	0	26130513920	43	14743
2026-01-24 20:23:32.42	318.71	9.87	-36.1	-36.0	14.3	0.00e+00	0	51	0	26206011392	43	14505
2026-01-24 20:23:33.43	318.91	9.80	-36.2	-36.1	14.2	0.00e+00	0	52	0	26281508864	43	14647
2026-01-24 20:23:34.44	319.11	9.73	-36.4	-36.3	14.1	0.00e+00	0	52	0	26357006336	43	15047
2026-01-24 20:23:35.44	319.30	9.67	-36.3	-36.3	14.1	0.00e+00	0	52	0	26432503808	43	14953
2026-01-24 20:23:36.45	319.49	9.60	-36.3	-36.3	14.1	0.00e+00	0	52	0	26508001280	43	14963
2026-01-24 20:23:37.46	319.69	9.53	-36.4	-36.3	14.1	0.00e+00	0	51	0	26583498752	43	15058
2026-01-24 20:23:38.47	319.88	9.47	-36.3	-36.2	14.1	0.00e+00	0	51	0	26658996224	43	14901
2026-01-24 20:23:39.47	320.07	9.40	-36.5	-36.4	14.0	0.00e+00	0	51	0	26734493696	43	15221
2026-01-24 20:23:40.48	320.26	9.33	-36.4	-36.3	14.1	0.00e+00	0	51	0	26809991168	43	15060
2026-01-24 20:23:41.49	320.44	9.26	-36.1	-36.1	14.2	0.00e+00	0	51	0	26885488640	43	14633
2026-01-24 20:23:42.50	320.63	9.20	-36.4	-36.3	14.1	0.00e+00	0	52	0	26960986112	43	15012
2026-01-24 20:23:43.50	320.82	9.13	-36.4	-36.3	14.1	0.00e+00	0	52	0	27036483584	43	15099
2026-01-24 20:23:44.51	321.00	9.06	-36.4	-36.3	14.1	0.00e+00	0	52	0	27111981056	43	15109
2026-01-24 20:23:45.52	321.19	9.00	-36.4	-36.3	14.1	0.00e+00	0	52	0	27187478528	43	15068
2026-01-24 20:23:46.53	321.37	8.93	-36.6	-36.5	13.9	0.00e+00	0	51	0	27262976000	43	15445
2026-01-24 20:23:47.54	321.55	8.86	-36.5	-36.5	13.9	0.00e+00	0	51	0	27338473472	44	14464
2026-01-24 20:23:48.54	321.73	8.80	-36.4	-36.3	14.0	0.00e+00	0	51	0	27413970944	44	14193
2026-01-24 20:23:49.55	321.91	8.73	-36.4	-36.3	14.0	0.00e+00	0	51	0	27497857024	44	14151
2026-01-24 20:23:50.56	322.09	8.66	-36.5	-36.5	13.9	0.00e+00	0	51	0	27564965888	44	14480
2026-01-24 20:23:51.57	322.27	8.60	-36.6	-36.6	13.9	0.00e+00	0	51	0	27640463360	44	14651
2026-01-24 20:23:52.57	322.44	8.53	-36.6	-36.5	13.9	0.00e+00	0	51	0	27715960832	44	14499
2026-01-24 20:23:53.58	322.62	8.46	-36.4	-36.4	14.0	0.00e+00	0	52	0	27791458304	44	14292
2026-01-24 20:23:54.59	322.80	8.40	-36.6	-36.5	13.9	0.00e+00	0	51	0	27866955776	44	14575
2026-01-24 20:23:55.60	322.97	8.33	-36.5	-36.5	13.9	0.00e+00	0	51	0	27942453248	44	14498
2026-01-24 20:23:56.61	323.14	8.26	-36.8	-36.8	13.7	0.00e+00	0	52	0	28017950720	44	14960
2026-01-24 20:23:57.62	323.32	8.20	-36.5	-36.4	13.9	2.08e-05	0	51	0	28093448192	44	14319
2026-01-24 20:23:58.62	323.49	8.13	-36.7	-36.6	13.8	0.00e+00	0	52	0	28168945664	44	14700
2026-01-24 20:23:59.63	323.66	8.06	-36.9	-36.8	13.7	0.00e+00	0	51	0	28244443136	44	15070
2026-01-24 20:24:00.64	323.83	8.00	-36.9	-36.8	13.7	0.00e+00	0	51	0	28319940608	44	15024
2026-01-24 20:24:01.65	324.00	7.93	-37.1	-37.0	13.5	0.00e+00	0	51	0	28403826688	44	15418
2026-01-24 20:24:02.66	324.16	7.86	-37.2	-37.1	13.5	0.00e+00	0	51	0	28479324160	44	15553
2026-01-24 20:24:03.66	324.33	7.80	-37.0	-36.9	13.6	6.90e-06	0	51	0	28554821632	44	15198
2026-01-24 20:24:04.67	324.50	7.73	-36.7	-36.7	13.7	0.00e+00	0	52	0	28630319104	44	14811
2026-01-24 20:24:05.68	324.66	7.67	-36.9	-36.8	13.6	6.90e-06	0	51	0	28697427968	44	15075
2026-01-24 20:24:06.69	324.82	7.60	-36.9	-36.8	13.6	6.90e-06	0	51	0	28772925440	44	15043
2026-01-24 20:24:07.70	324.99	7.53	-36.8	-36.8	13.6	0.00e+00	0	51	0	28848422912	44	15005
2026-01-24 20:24:08.70	325.15	7.47	-37.1	-37.1	13.4	0.00e+00	0	52	0	28923920384	44	15536
2026-01-24 20:24:09.71	325.31	7.40	-37.2	-37.1	13.4	6.90e-06	0	51	0	28999417856	44	15575
2026-01-24 20:24:10.72	325.47	7.34	-37.1	-37.1	13.4	1.38e-05	0	51	0	29074915328	45	14632
2026-01-24 20:24:11.72	325.63	7.27	-37.1	-37.0	13.5	0.00e+00	0	51	0	29150412800	45	14552
2026-01-24 20:24:12.73	325.79	7.20	-37.2	-37.1	13.4	0.00e+00	0	51	0	29225910272	45	14776
2026-01-24 20:24:13.74	325.95	7.14	-37.0	-36.9	13.5	6.90e-06	0	51	0	29301407744	45	14362
2026-01-24 20:24:14.75	326.10	7.07	-36.9	-36.9	13.5	0.00e+00	0	51	0	29385293824	45	14315
2026-01-24 20:24:15.76	326.26	7.01	-37.3	-37.2	13.3	0.00e+00	0	51	0	29460791296	45	14857
2026-01-24 20:24:16.76	326.41	6.94	-37.2	-37.2	13.3	2.08e-05	0	52	0	29536288768	45	14823
2026-01-24 20:24:17.77	326.57	6.88	-37.0	-36.9	13.5	0.00e+00	0	51	0	29611786240	45	14396
2026-01-24 20:24:18.78	326.72	6.81	-37.2	-37.2	13.4	6.90e-06	0	51	0	29687283712	45	14831
2026-01-24 20:24:19.78	326.87	6.75	-37.4	-37.3	13.3	1.38e-05	0	51	0	29762781184	45	15026
2026-01-24 20:24:20.79	327.03	6.68	-37.4	-37.3	13.3	6.90e-06	0	51	0	29829890048	45	15101
2026-01-24 20:24:21.80	327.18	6.62	-37.3	-37.2	13.3	0.00e+00	0	51	0	29905387520	45	14944
2026-01-24 20:24:22.81	327.33	6.55	-37.5	-37.4	13.2	0.00e+00	0	51	0	29980884992	45	15257
2026-01-24 20:24:23.82	327.48	6.49	-37.3	-37.3	13.2	0.00e+00	0	51	0	30056382464	45	15018
2026-01-24 20:24:24.83	327.63	6.42	-37.4	-37.4	13.2	6.90e-06	0	51	0	30131879936	45	15157
2026-01-24 20:24:25.84	327.77	6.36	-37.5	-37.5	13.1	2.08e-05	0	51	0	30207377408	45	15307
2026-01-24 20:24:26.84	327.92	6.29	-37.4	-37.3	13.2	2.77e-05	0	52	0	30282874880	46	14266
2026-01-24 20:24:27.85	328.07	6.23	-37.5	-37.4	13.2	1.38e-05	0	51	0	30366760960	46	14407
2026-01-24 20:24:28.86	328.21	6.16	-37.3	-37.3	13.2	6.90e-06	0	52	0	30442258432	46	14164
2026-01-24 20:24:29.87	328.36	6.10	-37.4	-37.4	13.2	0.00e+00	0	52	0	30517755904	46	14302
2026-01-24 20:24:30.88	328.50	6.03	-37.6	-37.6	13.0	6.90e-06	0	52	0	30593253376	46	14685
2026-01-24 20:24:31.88	328.64	5.97	-37.6	-37.6	13.0	0.00e+00	0	51	0	30668750848	46	14631
2026-01-24 20:24:32.89	328.79	5.91	-37.6	-37.6	13.0	6.90e-06	0	52	0	30744248320	46	14687
2026-01-24 20:24:33.90	328.93	5.84	-37.7	-37.6	13.0	2.08e-05	0	52	0	30819745792	46	14767
2026-01-24 20:24:34.91	329.07	5.78	-37.8	-37.8	12.8	1.38e-05	0	51	0	30895243264	46	15039
2026-01-24 20:24:35.92	329.21	5.71	-37.7	-37.7	12.9	2.08e-05	0	52	0	30962352128	46	14824
2026-01-24 20:24:36.93	329.35	5.65	-37.7	-37.6	13.0	2.08e-05	0	52	0	31037849600	46	14685
2026-01-24 20:24:37.94	329.49	5.59	-37.8	-37.7	12.9	6.90e-06	0	52	0	31113347072	46	14942
2026-01-24 20:24:38.94	329.62	5.52	-38.0	-37.9	12.7	4.16e-05	0	52	0	31188844544	46	15230
2026-01-24 20:24:39.95	329.76	5.46	-37.6	-37.6	13.0	4.16e-05	0	51	0	31272730624	46	14636
2026-01-24 20:24:40.96	329.90	5.40	-37.9	-37.9	12.7	2.08e-05	0	51	0	31348228096	46	15174
2026-01-24 20:24:41.97	330.03	5.33	-37.8	-37.7	12.9	2.08e-05	0	52	0	31423725568	46	14917
2026-01-24 20:24:42.97	330.17	5.27	-37.7	-37.7	12.9	0.00e+00	0	52	0	31499223040	46	14785
2026-01-24 20:24:43.98	330.30	5.21	-37.8	-37.7	12.8	2.08e-05	0	52	0	31574720512	46	14945
2026-01-24 20:24:44.99	330.44	5.14	-37.7	-37.6	12.9	6.90e-06	0	51	0	31650217984	46	14741
2026-01-24 20:24:46.00	330.57	5.08	-37.9	-37.9	12.7	4.16e-05	0	51	0	31725715456	46	15165
2026-01-24 20:24:47.01	330.70	5.02	-37.9	-37.8	12.7	2.77e-05	0	52	0	31801212928	46	15090
2026-01-24 20:24:48.02	330.83	4.95	-52.5	-54.7	3.7	9.78e-03	0	51	104	31859933184	75	19715
2026-01-24 20:24:49.02	330.96	4.89	-53.2	-55.4	3.7	9.78e-03	0	51	104	31859933184	77	19195
2026-01-24 20:24:50.03	331.09	4.83	-53.5	-55.7	3.7	9.78e-03	0	51	104	31859933184	77	19844
2026-01-24 20:24:51.04	331.22	4.77	-53.8	-55.9	3.7	9.78e-03	0	51	104	31859933184	78	19167
2026-01-24 20:24:52.05	331.35	4.71	-53.9	-56.1	3.7	9.78e-03	0	51	104	31859933184	78	19517
2026-01-24 20:24:53.06	331.48	4.64	-54.1	-56.2	3.7	9.78e-03	0	51	104	31859933184	78	19819
2026-01-24 20:24:54.06	331.61	4.58	-54.1	-56.3	3.7	9.78e-03	0	51	104	31859933184	78	19996
2026-01-24 20:24:55.07	331.73	4.52	-54.2	-56.3	3.7	9.78e-03	0	51	104	31859933184	78	20154
2026-01-24 20:24:56.07	331.86	4.46	-54.3	-56.4	3.7	9.78e-03	0	50	104	31859933184	79	19170
2026-01-24 20:24:57.08	331.98	4.40	-54.4	-56.5	3.7	9.78e-03	0	50	104	31859933184	79	19273
2026-01-24 20:24:58.09	332.11	4.33	-54.4	-56.5	3.7	9.78e-03	0	50	104	31859933184	79	19435
2026-01-24 20:24:59.10	332.23	4.27	-54.4	-56.5	3.7	9.78e-03	0	50	104	31859933184	79	19411
2026-01-24 20:25:00.10	332.36	4.21	-54.4	-56.5	3.7	9.78e-03	0	51	104	31859933184	79	19436
2026-01-24 20:25:01.11	332.48	4.15	-54.4	-56.5	3.7	9.78e-03	0	50	104	31859933184	79	19475
2026-01-24 20:25:02.12	332.60	4.09	-54.4	-56.5	3.6	9.78e-03	0	50	104	31859933184	79	19462
2026-01-24 20:25:03.13	332.72	4.03	-54.4	-56.5	3.7	9.78e-03	0	50	104	31859933184	79	19420
2026-01-24 20:25:04.14	332.84	3.96	-54.4	-56.5	3.7	9.78e-03	0	51	104	31859933184	79	19404
2026-01-24 20:25:05.14	332.96	3.90	-54.3	-56.5	3.7	9.78e-03	0	50	104	31859933184	79	19292
2026-01-24 20:25:06.15	333.08	3.84	-54.3	-56.4	3.7	9.78e-03	0	50	104	31859933184	79	19244
2026-01-24 20:25:07.16	333.20	3.78	-54.2	-56.4	3.7	9.78e-03	0	50	104	31859933184	79	19091
2026-01-24 20:25:08.17	333.32	3.72	-54.2	-56.3	3.7	9.78e-03	0	50	104	31859933184	79	18920
2026-01-24 20:25:09.18	333.44	3.66	-54.2	-56.3	3.7	9.78e-03	0	50	104	31859933184	79	18929
2026-01-24 20:25:10.18	333.56	3.60	-54.1	-56.2	3.7	9.78e-03	0	50	104	31859933184	79	18787
2026-01-24 20:25:11.19	333.67	3.54	-54.1	-56.2	3.7	9.78e-03	0	50	104	31859933184	79	18724
2026-01-24 20:25:12.20	333.79	3.48	-54.1	-56.2	3.7	9.78e-03	0	50	104	31859933184	79	18647
2026-01-24 20:25:13.21	333.91	3.42	-54.1	-56.2	3.7	9.78e-03	0	50	104	31859933184	79	18669
2026-01-24 20:25:14.22	334.02	3.36	-54.0	-56.2	3.7	9.78e-03	0	50	104	31859933184	79	18635
2026-01-24 20:25:15.23	334.14	3.30	-54.0	-56.2	3.7	9.78e-03	0	50	104	31859933184	79	18604
2026-01-24 20:25:16.24	334.25	3.24	-54.0	-56.1	3.7	9.78e-03	0	50	104	31859933184	79	18588
2026-01-24 20:25:17.24	334.36	3.18	-54.0	-56.1	3.7	9.78e-03	0	50	104	31859933184	79	18590
2026-01-24 20:25:18.25	334.48	3.12	-54.0	-56.1	3.7	9.78e-03	0	50	104	31859933184	79	18540
2026-01-24 20:25:19.26	334.59	3.06	-54.0	-56.1	3.7	9.78e-03	0	50	104	31859933184	79	18499
2026-01-24 20:25:20.27	334.70	3.00	-54.0	-56.1	3.7	9.78e-03	0	50	104	31859933184	79	18591
2026-01-24 20:25:21.28	334.81	2.94	-54.0	-56.1	3.7	9.78e-03	0	50	104	31859933184	79	18479
2026-01-24 20:25:22.28	334.92	2.88	-54.0	-56.1	3.7	9.78e-03	0	50	104	31859933184	79	18532
2026-01-24 20:25:23.29	335.03	2.82	-54.0	-56.1	3.7	9.78e-03	0	50	104	31859933184	79	18478
2026-01-24 20:25:24.30	335.14	2.76	-54.0	-56.1	3.7	9.78e-03	0	50	104	31859933184	79	18458
2026-01-24 20:25:25.31	335.25	2.70	-54.0	-56.1	3.7	0.00e+00	0	50	104	31859933184	79	18437
2026-01-24 20:25:26.31	335.36	2.64	-54.0	-56.1	3.7	0.00e+00	0	50	104	31859933184	79	18448
2026-01-24 20:25:27.32	335.47	2.58	-53.9	-56.1	3.7	0.00e+00	0	50	104	31859933184	79	18420
2026-01-24 20:25:28.33	335.57	2.52	-53.9	-56.1	3.7	0.00e+00	0	50	104	31859933184	79	18413
2026-01-24 20:25:29.34	335.68	2.46	-53.9	-56.0	3.7	0.00e+00	0	50	104	31859933184	79	18388
2026-01-24 20:25:30.34	335.79	2.41	-53.9	-56.1	3.7	0.00e+00	0	50	104	31859933184	79	18411
2026-01-24 20:25:31.35	335.89	2.35	-53.9	-56.1	3.7	0.00e+00	0	50	104	31859933184	79	18405
2026-01-24 20:25:32.36	336.00	2.29	-53.9	-56.1	3.7	0.00e+00	0	50	104	31859933184	79	18391
2026-01-24 20:25:33.37	336.10	2.23	-53.9	-56.0	3.7	0.00e+00	0	50	104	31859933184	79	18368
2026-01-24 20:25:34.38	336.21	2.17	-53.9	-56.0	3.7	0.00e+00	0	50	104	31859933184	79	18388
2026-01-24 20:25:35.39	336.31	2.11	-53.9	-56.0	3.7	0.00e+00	0	50	104	31859933184	79	18388
2026-01-24 20:25:36.40	336.41	2.06	-53.9	-56.1	3.7	0.00e+00	0	50	104	31859933184	79	18399
2026-01-24 20:25:37.40	336.52	2.00	-53.9	-56.0	3.7	0.00e+00	0	50	104	31859933184	79	18287

#Closed at: 2026-01-24 20:25:37
#Recorded file [31859 MB]: D:/lorett/data/31041_260124_231629.dat