passes_logs/2026/01/24/R3.2S_Murmansk/R3.2S_Murmansk__20260124_093924_TY-42_rec.log

#Pass ID: 20260124_093924_TY-42
#Satellite: TY-42
#Configuration: TY-42_900M
#almurnet v.1.7.20251203
#Start time: 2026-01-24 09:39:24

#Version: 2.2.20231116
#Station: R3.2S_Murmansk
#Location: 33.079688 lon 68.888172 lat
#TLE: 1 64048U 25103A   26023.93556713  .00008007  00000-0  38191-3 0 09995
#TLE: 2 64048 097.4116 099.1849 0001849 091.5787 326.2147 15.19153894 38171

#Time	Az	El	Level	Level2	SNR	BER	BlckErr	Temp	State	Recorded	gain1	gain2
2026-01-24 09:39:24.75	20.97	2.03	-52.4	-54.5	6.3	0.00e+00	0	49	0	0	75	19439
2026-01-24 09:39:25.75	20.96	2.10	-52.4	-54.6	6.2	0.00e+00	0	49	104	0	76	18477
2026-01-24 09:39:26.76	20.95	2.17	-52.4	-54.6	6.2	0.00e+00	0	49	104	0	76	18422
2026-01-24 09:39:27.77	20.94	2.24	-52.4	-54.5	6.2	0.00e+00	0	49	104	0	75	19357
2026-01-24 09:39:28.78	20.94	2.31	-52.4	-54.5	6.2	0.00e+00	0	49	104	0	75	19343
2026-01-24 09:39:29.78	20.93	2.38	-52.4	-54.5	6.2	0.00e+00	0	50	104	0	75	19384
2026-01-24 09:39:30.79	20.92	2.45	-52.4	-54.5	6.2	0.00e+00	0	49	104	0	75	19426
2026-01-24 09:39:31.80	20.91	2.52	-52.4	-54.5	6.2	0.00e+00	0	50	104	0	75	19364
2026-01-24 09:39:32.81	20.90	2.60	-52.4	-54.5	6.2	0.00e+00	0	50	104	0	75	19358
2026-01-24 09:39:33.82	20.90	2.67	-52.4	-54.5	6.2	0.00e+00	0	50	104	0	75	19343
2026-01-24 09:39:34.83	20.89	2.74	-52.4	-54.5	6.2	0.00e+00	0	50	104	0	75	19369
2026-01-24 09:39:35.83	20.88	2.81	-52.3	-54.5	6.2	0.00e+00	0	50	104	0	75	19342
2026-01-24 09:39:36.84	20.87	2.89	-52.3	-54.5	6.2	0.00e+00	0	50	104	0	75	19366
2026-01-24 09:39:37.85	20.86	2.96	-52.3	-54.5	6.2	0.00e+00	0	50	104	0	75	19303
2026-01-24 09:39:38.86	20.86	3.03	-52.4	-54.5	6.2	0.00e+00	0	50	104	0	75	19383
2026-01-24 09:39:39.87	20.85	3.11	-52.4	-54.5	6.2	0.00e+00	0	50	104	0	75	19299
2026-01-24 09:39:40.87	20.84	3.18	-52.4	-54.5	6.2	0.00e+00	0	50	104	0	75	19390
2026-01-24 09:39:41.88	20.83	3.25	-52.4	-54.5	6.2	0.00e+00	0	50	104	0	75	19323
2026-01-24 09:39:42.89	20.82	3.33	-52.3	-54.5	6.2	0.00e+00	0	50	104	0	75	19301
2026-01-24 09:39:43.90	20.81	3.40	-52.3	-54.5	6.2	0.00e+00	0	50	104	0	75	19358
2026-01-24 09:39:44.91	20.80	3.48	-52.3	-54.5	6.2	0.00e+00	0	51	104	0	75	19289
2026-01-24 09:39:45.91	20.80	3.55	-52.4	-54.5	6.2	0.00e+00	0	50	104	0	75	19346
2026-01-24 09:39:46.92	20.79	3.63	-52.3	-54.5	6.2	0.00e+00	0	51	104	0	75	19312
2026-01-24 09:39:47.93	20.78	3.70	-52.3	-54.5	6.2	0.00e+00	0	50	104	0	75	19304
2026-01-24 09:39:48.94	20.77	3.78	-52.3	-54.5	6.2	0.00e+00	0	51	104	0	75	19305
2026-01-24 09:39:49.95	20.76	3.85	-52.3	-54.5	6.2	0.00e+00	0	51	104	0	75	19331
2026-01-24 09:39:50.96	20.75	3.93	-52.4	-54.5	6.2	0.00e+00	0	51	104	0	75	19332
2026-01-24 09:39:51.97	20.74	4.01	-52.4	-54.5	6.2	0.00e+00	0	51	104	0	75	19335
2026-01-24 09:39:52.98	20.73	4.09	-52.4	-54.5	6.2	0.00e+00	0	51	104	0	75	19370
2026-01-24 09:39:53.99	20.72	4.16	-52.3	-54.5	6.2	0.00e+00	0	51	104	0	75	19311
2026-01-24 09:39:54.99	20.71	4.24	-52.4	-54.5	6.2	0.00e+00	0	51	104	0	75	19334
2026-01-24 09:39:56.00	20.70	4.32	-52.4	-54.5	6.2	0.00e+00	0	51	104	0	75	19373
2026-01-24 09:39:57.01	20.69	4.40	-52.3	-54.5	6.2	0.00e+00	0	51	104	0	75	19280
2026-01-24 09:39:58.02	20.68	4.48	-52.3	-54.5	6.2	0.00e+00	0	51	104	0	75	19313
2026-01-24 09:39:59.03	20.67	4.55	-52.4	-54.5	6.2	0.00e+00	0	51	104	0	75	19323
2026-01-24 09:40:00.04	20.66	4.63	-52.4	-54.5	6.2	0.00e+00	0	51	104	0	75	19306
2026-01-24 09:40:01.05	20.65	4.71	-52.4	-54.5	6.2	0.00e+00	0	51	104	0	75	19311
2026-01-24 09:40:02.05	20.64	4.79	-52.4	-54.5	6.2	0.00e+00	0	51	104	0	75	19385
2026-01-24 09:40:03.06	20.63	4.87	-52.4	-54.5	6.2	0.00e+00	0	51	104	0	75	19345
2026-01-24 09:40:04.07	20.62	4.95	-52.3	-54.5	6.2	0.00e+00	0	51	104	0	75	19334
2026-01-24 09:40:05.08	20.61	5.03	-52.4	-54.5	6.2	0.00e+00	0	51	104	0	75	19330
2026-01-24 09:40:06.09	20.60	5.11	-52.5	-54.6	6.2	0.00e+00	0	52	104	0	75	19574
2026-01-24 09:40:07.10	20.59	5.20	-52.5	-54.6	6.2	0.00e+00	0	52	104	0	75	19654
2026-01-24 09:40:08.11	20.58	5.28	-52.3	-54.4	6.2	0.00e+00	0	52	104	0	75	19189
2026-01-24 09:40:09.11	20.57	5.36	-52.4	-54.6	6.2	0.00e+00	0	52	104	0	75	19528
2026-01-24 09:40:10.12	20.56	5.44	-52.4	-54.5	6.2	0.00e+00	0	51	104	0	75	19465
2026-01-24 09:40:11.13	20.54	5.52	-52.5	-54.7	6.2	0.00e+00	0	52	104	0	75	19762
2026-01-24 09:40:12.13	20.53	5.61	-51.9	-53.8	6.2	0.00e+00	0	52	104	0	74	18892
2026-01-24 09:40:13.14	20.52	5.69	-38.7	-38.6	11.8	0.00e+00	11022	54	104	0	49	13825
2026-01-24 09:40:14.15	20.51	5.77	-51.6	-53.3	6.3	7.76e-02	0	53	104	50331648	73	18925
2026-01-24 09:40:15.16	20.50	5.86	-38.6	-38.5	13.3	5.58e-02	0	54	0	83886080	49	13667
2026-01-24 09:40:16.17	20.49	5.94	-38.2	-38.1	13.6	5.58e-02	0	54	0	192937984	48	13887
2026-01-24 09:40:17.18	20.47	6.03	-37.0	-36.9	13.4	5.58e-02	0	54	0	310378496	45	14339
2026-01-24 09:40:18.19	20.46	6.11	-36.6	-36.5	13.6	7.50e-02	0	54	0	419430400	45	13760
2026-01-24 09:40:19.19	20.45	6.20	-36.3	-36.3	13.7	7.50e-02	0	54	0	536870912	44	14126
2026-01-24 09:40:20.20	20.44	6.28	-36.7	-36.7	13.5	7.50e-02	0	54	0	645922816	44	14801
2026-01-24 09:40:21.21	20.42	6.37	-36.8	-36.7	13.5	4.33e-02	0	54	0	763363328	44	14859
2026-01-24 09:40:22.22	20.41	6.46	-36.6	-36.6	13.6	4.33e-02	0	54	0	872415232	44	14609
2026-01-24 09:40:23.23	20.40	6.54	-36.6	-36.5	13.6	4.33e-02	0	54	0	981467136	44	14546
2026-01-24 09:40:24.24	20.39	6.63	-36.3	-36.3	13.8	4.25e-02	0	55	0	1098907648	44	14115
2026-01-24 09:40:25.25	20.37	6.72	-37.0	-36.9	13.4	4.25e-02	0	55	0	1207959552	44	15285
2026-01-24 09:40:26.26	20.36	6.81	-36.2	-36.1	13.9	4.25e-02	0	54	0	1333788672	44	13857
2026-01-24 09:40:27.27	20.35	6.90	-36.1	-36.0	13.8	3.63e-02	0	54	0	1442840576	44	13724
2026-01-24 09:40:28.28	20.33	6.99	-35.9	-35.8	14.0	3.63e-02	0	54	0	1560281088	43	14244
2026-01-24 09:40:29.29	20.32	7.08	-36.4	-36.3	13.7	3.63e-02	0	55	0	1669332992	43	15034
2026-01-24 09:40:30.29	20.31	7.17	-36.0	-35.9	13.9	3.04e-02	0	54	0	1786773504	43	14368
2026-01-24 09:40:31.30	20.29	7.26	-35.9	-35.8	14.0	3.04e-02	0	55	0	1895825408	43	14260
2026-01-24 09:40:32.31	20.28	7.35	-35.9	-35.8	14.0	2.51e-02	0	55	0	2004877312	43	14265
2026-01-24 09:40:33.32	20.26	7.44	-35.9	-35.9	14.0	2.51e-02	0	55	0	2122317824	43	14298
2026-01-24 09:40:34.33	20.25	7.53	-35.9	-35.9	14.0	2.51e-02	0	55	0	2231369728	43	14292
2026-01-24 09:40:35.33	20.24	7.62	-35.8	-35.7	14.0	2.48e-02	0	55	0	2348810240	43	14001
2026-01-24 09:40:36.34	20.22	7.71	-36.0	-35.9	14.0	2.48e-02	0	55	0	2457862144	43	14383
2026-01-24 09:40:37.35	20.21	7.81	-35.9	-35.8	14.0	2.48e-02	0	55	0	2566914048	43	14211
2026-01-24 09:40:38.36	20.19	7.90	-35.8	-35.7	14.0	2.34e-02	0	55	0	2692743168	43	14071
2026-01-24 09:40:39.37	20.18	7.99	-35.7	-35.6	14.1	2.34e-02	0	55	0	2810183680	43	13944
2026-01-24 09:40:40.37	20.16	8.09	-35.4	-35.3	14.2	2.34e-02	0	55	0	2919235584	42	14271
2026-01-24 09:40:41.38	20.15	8.18	-35.6	-35.6	14.1	2.34e-02	0	55	0	3028287488	42	14617
2026-01-24 09:40:42.39	20.13	8.28	-35.5	-35.4	14.2	2.10e-02	0	55	0	3145728000	42	14329
2026-01-24 09:40:43.40	20.12	8.37	-35.9	-35.8	14.0	2.10e-02	0	55	0	3254779904	42	15001
2026-01-24 09:40:44.40	20.10	8.47	-35.8	-35.7	14.0	2.10e-02	0	55	0	3372220416	42	14930
2026-01-24 09:40:45.41	20.08	8.57	-35.4	-35.3	14.2	2.11e-02	0	55	0	3481272320	42	14264
2026-01-24 09:40:46.42	20.07	8.66	-35.4	-35.4	14.2	2.11e-02	0	56	0	3598712832	42	14311
2026-01-24 09:40:47.43	20.05	8.76	-35.3	-35.2	14.3	1.84e-02	0	55	0	3707764736	42	14092
2026-01-24 09:40:48.44	20.04	8.86	-35.4	-35.3	14.3	1.84e-02	0	55	0	3816816640	42	14139
2026-01-24 09:40:49.45	20.02	8.96	-35.3	-35.2	14.3	1.84e-02	0	55	0	3934257152	42	14111
2026-01-24 09:40:50.45	20.00	9.06	-35.1	-35.0	14.4	1.52e-02	0	56	0	4060086272	42	13727
2026-01-24 09:40:51.46	19.99	9.16	-35.1	-35.0	14.4	1.52e-02	0	56	0	4169138176	42	13762
2026-01-24 09:40:52.47	19.97	9.26	-35.2	-35.1	14.3	1.52e-02	0	56	0	4278190080	41	14708
2026-01-24 09:40:53.48	19.95	9.36	-35.0	-34.9	14.4	1.34e-02	0	56	0	4395630592	41	14401
2026-01-24 09:40:54.49	19.93	9.46	-35.0	-34.9	14.4	1.34e-02	0	56	0	4504682496	41	14331
2026-01-24 09:40:55.49	19.92	9.56	-35.1	-35.0	14.4	1.34e-02	0	56	0	4622123008	41	14516
2026-01-24 09:40:56.50	19.90	9.66	-35.0	-34.9	14.4	1.26e-02	0	56	0	4731174912	41	14422
2026-01-24 09:40:57.51	19.88	9.77	-34.9	-34.8	14.5	1.26e-02	0	56	0	4840226816	41	14148
2026-01-24 09:40:58.52	19.86	9.87	-34.9	-34.8	14.5	1.22e-02	0	56	0	4957667328	41	14140
2026-01-24 09:40:59.53	19.84	9.97	-34.9	-34.8	14.5	1.22e-02	0	56	0	5066719232	41	14192
2026-01-24 09:41:00.53	19.82	10.08	-34.8	-34.7	14.5	1.22e-02	0	56	0	5184159744	41	14040
2026-01-24 09:41:01.54	19.81	10.18	-34.8	-34.7	14.5	1.03e-02	0	56	0	5293211648	41	14005
2026-01-24 09:41:02.55	19.79	10.29	-34.5	-34.4	14.7	1.03e-02	0	56	0	5402263552	41	13605
2026-01-24 09:41:03.56	19.77	10.40	-34.6	-34.5	14.6	1.03e-02	0	56	0	5528092672	41	13660
2026-01-24 09:41:04.56	19.75	10.50	-34.7	-34.6	14.6	9.07e-03	0	56	0	5645533184	41	13859
2026-01-24 09:41:05.57	19.73	10.61	-34.6	-34.6	14.6	9.07e-03	0	56	0	5754585088	41	13816
2026-01-24 09:41:06.58	19.71	10.72	-34.5	-34.4	14.7	9.07e-03	0	56	0	5863636992	40	14354
2026-01-24 09:41:07.59	19.69	10.83	-34.4	-34.3	14.7	9.07e-03	0	56	0	5981077504	40	14173
2026-01-24 09:41:08.60	19.67	10.94	-34.3	-34.2	14.8	8.44e-03	0	56	0	6090129408	40	13999
2026-01-24 09:41:09.60	19.65	11.05	-34.2	-34.1	14.8	8.44e-03	0	56	0	6207569920	40	13914
2026-01-24 09:41:10.61	19.63	11.16	-34.2	-34.1	14.8	7.18e-03	0	56	0	6316621824	40	13934
2026-01-24 09:41:11.62	19.61	11.27	-34.3	-34.2	14.8	7.18e-03	0	56	0	6425673728	40	14073
2026-01-24 09:41:12.63	19.58	11.38	-34.2	-34.1	14.8	7.18e-03	0	56	0	6543114240	40	13866
2026-01-24 09:41:13.63	19.56	11.49	-34.3	-34.2	14.8	6.45e-03	0	56	0	6652166144	40	14096
2026-01-24 09:41:14.64	19.54	11.61	-34.2	-34.1	14.8	6.45e-03	0	57	0	6769606656	40	13876
2026-01-24 09:41:15.65	19.52	11.72	-34.1	-34.0	14.9	6.45e-03	0	57	0	6878658560	40	13642
2026-01-24 09:41:16.66	19.50	11.84	-34.1	-34.1	14.9	6.54e-03	0	56	0	7004487680	39	14624
2026-01-24 09:41:17.67	19.47	11.95	-34.1	-34.0	14.9	6.54e-03	0	57	0	7113539584	39	14545
2026-01-24 09:41:18.67	19.45	12.07	-34.3	-34.2	14.8	6.54e-03	0	57	0	7230980096	39	14905
2026-01-24 09:41:19.68	19.43	12.19	-34.2	-34.1	14.9	5.59e-03	0	57	0	7340032000	39	14692
2026-01-24 09:41:20.69	19.41	12.30	-34.0	-33.9	15.0	5.59e-03	0	57	0	7457472512	39	14291
2026-01-24 09:41:21.70	19.38	12.42	-33.9	-33.9	15.0	5.59e-03	0	57	0	7566524416	39	14288
2026-01-24 09:41:22.71	19.36	12.54	-33.8	-33.7	15.0	5.12e-03	0	57	0	7675576320	39	14079
2026-01-24 09:41:23.72	19.33	12.66	-33.9	-33.8	15.0	5.12e-03	0	57	0	7793016832	39	14151
2026-01-24 09:41:24.73	19.31	12.78	-33.9	-33.8	15.0	4.11e-03	0	57	0	7902068736	39	14173
2026-01-24 09:41:25.74	19.29	12.91	-34.0	-33.9	15.0	4.11e-03	0	57	0	8019509248	39	14392
2026-01-24 09:41:26.74	19.26	13.03	-34.1	-34.0	14.9	4.11e-03	0	57	0	8128561152	39	14598
2026-01-24 09:41:27.75	19.24	13.15	-33.7	-33.6	15.1	4.13e-03	0	57	0	8254390272	39	13916
2026-01-24 09:41:28.76	19.21	13.27	-33.8	-33.7	15.1	4.13e-03	0	57	0	8363442176	39	14092
2026-01-24 09:41:29.77	19.18	13.40	-33.5	-33.4	15.2	4.13e-03	0	57	0	8480882688	39	13618
2026-01-24 09:41:30.78	19.16	13.53	-33.5	-33.4	15.2	3.51e-03	0	57	0	8589934592	39	13618
2026-01-24 09:41:31.79	19.13	13.65	-33.4	-33.3	15.2	3.51e-03	0	57	0	8698986496	38	14147
2026-01-24 09:41:32.80	19.11	13.78	-33.1	-33.0	15.3	2.77e-03	0	57	0	8816427008	38	13744
2026-01-24 09:41:33.80	19.08	13.91	-33.2	-33.1	15.3	2.77e-03	0	57	0	8925478912	38	13865
2026-01-24 09:41:34.81	19.05	14.04	-33.0	-32.9	15.3	2.77e-03	0	57	0	9042919424	37	14419
2026-01-24 09:41:35.82	19.02	14.17	-32.9	-32.8	15.4	2.07e-03	0	57	0	9151971328	37	14236
2026-01-24 09:41:36.83	19.00	14.30	-33.0	-32.9	15.3	2.07e-03	0	57	0	9261023232	37	14408
2026-01-24 09:41:37.84	18.97	14.43	-32.8	-32.7	15.4	1.78e-03	0	57	0	9378463744	37	14101
2026-01-24 09:41:38.85	18.94	14.56	-32.9	-32.8	15.4	1.78e-03	0	57	0	9487515648	37	14123
2026-01-24 09:41:39.86	18.91	14.70	-32.9	-32.8	15.4	1.78e-03	0	57	0	9613344768	37	14174
2026-01-24 09:41:40.87	18.88	14.83	-32.7	-32.6	15.4	1.55e-03	0	57	0	9722396672	37	13909
2026-01-24 09:41:41.87	18.85	14.97	-32.6	-32.5	15.5	1.55e-03	0	57	0	9839837184	37	13752
2026-01-24 09:41:42.88	18.82	15.10	-32.6	-32.5	15.5	1.55e-03	0	57	0	9948889088	37	13679
2026-01-24 09:41:43.89	18.79	15.24	-32.6	-32.5	15.5	1.55e-03	0	57	0	10066329600	37	13655
2026-01-24 09:41:44.90	18.76	15.38	-32.5	-32.4	15.5	1.43e-03	0	57	0	10175381504	37	13571
2026-01-24 09:41:45.91	18.73	15.52	-32.3	-32.2	15.6	1.43e-03	0	57	0	10284433408	36	14095
2026-01-24 09:41:46.91	18.70	15.66	-32.6	-32.5	15.5	1.13e-03	0	57	0	10401873920	36	14587
2026-01-24 09:41:47.92	18.66	15.80	-32.6	-32.5	15.5	1.13e-03	0	57	0	10510925824	36	14572
2026-01-24 09:41:48.93	18.63	15.94	-32.3	-32.2	15.6	1.13e-03	0	58	0	10628366336	36	14099
2026-01-24 09:41:49.94	18.60	16.09	-32.3	-32.2	15.6	1.23e-03	0	57	0	10737418240	36	14044
2026-01-24 09:41:50.94	18.57	16.23	-32.2	-32.1	15.6	1.23e-03	0	57	0	10854858752	36	13827
2026-01-24 09:41:51.96	18.53	16.38	-32.1	-32.0	15.6	6.91e-04	0	58	0	10972299264	36	13769
2026-01-24 09:41:52.96	18.50	16.53	-32.2	-32.1	15.6	6.91e-04	0	57	0	11089739776	36	13829
2026-01-24 09:41:53.97	18.46	16.67	-32.1	-32.0	15.7	6.91e-04	0	58	0	11198791680	36	13665
2026-01-24 09:41:54.98	18.43	16.82	-29.6	-29.5	15.3	7.39e-04	0	58	0	11316232192	31	13677
2026-01-24 09:41:55.98	18.39	16.97	-29.5	-29.4	15.3	7.39e-04	0	58	0	11425284096	31	13592
2026-01-24 09:41:56.99	18.36	17.12	-29.3	-29.2	15.4	2.43e-03	0	58	0	11534336000	30	14111
2026-01-24 09:41:58.00	18.32	17.28	-29.5	-29.4	15.3	2.43e-03	0	58	0	11651776512	30	14311
2026-01-24 09:41:59.01	18.28	17.43	-29.5	-29.4	15.3	2.43e-03	0	58	0	11760828416	30	14307
2026-01-24 09:42:00.02	18.25	17.59	-29.2	-29.1	15.4	2.01e-03	0	58	0	11878268928	30	13879
2026-01-24 09:42:01.03	18.21	17.75	-29.3	-29.2	15.4	2.01e-03	0	58	0	11987320832	30	14048
2026-01-24 09:42:02.03	18.17	17.90	-29.1	-29.0	15.5	2.01e-03	0	58	0	12096372736	30	13775
2026-01-24 09:42:03.04	18.13	18.06	-29.1	-29.0	15.5	1.87e-03	0	58	0	12213813248	30	13717
2026-01-24 09:42:04.05	18.09	18.22	-29.2	-29.1	15.4	1.87e-03	0	58	0	12322865152	30	13904
2026-01-24 09:42:05.05	18.05	18.38	-29.3	-29.2	15.4	1.43e-03	0	58	0	12448694272	30	14056
2026-01-24 09:42:06.06	18.01	18.55	-29.1	-29.0	15.5	1.43e-03	0	58	0	12557746176	30	13710
2026-01-24 09:42:07.07	17.97	18.71	-28.7	-28.6	15.6	1.43e-03	0	58	0	12675186688	29	13832
2026-01-24 09:42:08.08	17.93	18.88	-28.7	-28.6	15.6	1.42e-03	0	58	0	12784238592	29	13841
2026-01-24 09:42:09.09	17.89	19.04	-28.7	-28.6	15.6	1.42e-03	0	58	0	12901679104	29	13829
2026-01-24 09:42:10.09	17.84	19.21	-28.7	-28.6	15.6	8.73e-04	0	58	0	13010731008	29	13875
2026-01-24 09:42:11.10	17.80	19.38	-28.7	-28.6	15.6	8.73e-04	0	58	0	13119782912	29	13872
2026-01-24 09:42:12.11	17.76	19.55	-28.5	-28.4	15.6	8.15e-04	0	58	0	13237223424	28	14392
2026-01-24 09:42:13.12	17.71	19.73	-28.5	-28.4	15.6	8.15e-04	0	58	0	13346275328	28	14434
2026-01-24 09:42:14.13	17.67	19.90	-28.4	-28.3	15.7	8.15e-04	0	58	0	13463715840	28	14246
2026-01-24 09:42:15.14	17.62	20.08	-28.3	-28.2	15.7	7.77e-04	0	58	0	13572767744	28	14030
2026-01-24 09:42:16.15	17.57	20.26	-28.2	-28.1	15.8	7.77e-04	0	58	0	13681819648	28	13841
2026-01-24 09:42:17.15	17.53	20.43	-28.0	-27.9	15.8	7.77e-04	0	58	0	13807648768	28	13628
2026-01-24 09:42:18.16	17.48	20.62	-28.0	-27.9	15.8	5.01e-04	0	58	0	13925089280	28	13594
2026-01-24 09:42:19.17	17.43	20.80	-28.0	-28.0	15.8	5.01e-04	0	58	0	14034141184	27	14464
2026-01-24 09:42:20.18	17.38	20.98	-28.0	-27.9	15.8	4.15e-04	0	58	0	14143193088	27	14379
2026-01-24 09:42:21.19	17.33	21.17	-27.9	-27.9	15.8	4.15e-04	0	58	0	14260633600	27	14294
2026-01-24 09:42:22.20	17.28	21.36	-27.9	-27.8	15.8	4.15e-04	0	58	0	14369685504	27	14153
2026-01-24 09:42:23.20	17.23	21.55	-27.9	-27.8	15.8	3.91e-04	0	58	0	14487126016	27	14212
2026-01-24 09:42:24.21	17.18	21.74	-27.6	-27.5	15.9	3.91e-04	0	58	0	14596177920	27	13785
2026-01-24 09:42:25.22	17.12	21.93	-27.6	-27.5	15.9	3.91e-04	0	58	0	14713618432	27	13694
2026-01-24 09:42:26.23	17.07	22.12	-27.6	-27.5	15.9	2.62e-04	0	58	0	14822670336	27	13755
2026-01-24 09:42:27.23	17.02	22.32	-27.4	-27.3	16.0	2.62e-04	0	58	0	14931722240	26	14139
2026-01-24 09:42:28.24	16.96	22.52	-27.3	-27.2	16.0	2.62e-04	0	58	0	15049162752	26	14004
2026-01-24 09:42:29.25	16.90	22.72	-27.3	-27.2	16.0	1.76e-04	0	58	0	15158214656	26	13983
2026-01-24 09:42:30.26	16.85	22.92	-27.1	-27.0	16.1	1.76e-04	0	58	0	15284043776	26	13734
2026-01-24 09:42:31.27	16.79	23.13	-27.1	-27.0	16.1	1.86e-04	0	58	0	15393095680	26	13732
2026-01-24 09:42:32.28	16.73	23.33	-27.0	-27.0	16.1	1.86e-04	0	58	0	15510536192	26	13636
2026-01-24 09:42:33.28	16.67	23.54	-26.8	-26.7	16.2	1.86e-04	0	58	0	15619588096	25	14037
2026-01-24 09:42:34.30	16.61	23.75	-26.7	-26.6	16.2	1.19e-04	0	58	0	15737028608	25	13915
2026-01-24 09:42:35.30	16.55	23.96	-26.6	-26.5	16.2	1.19e-04	0	58	0	15846080512	25	13732
2026-01-24 09:42:36.31	16.48	24.18	-26.6	-26.5	16.2	7.62e-05	0	58	0	15955132416	25	13685
2026-01-24 09:42:37.32	16.42	24.39	-26.4	-26.3	16.2	7.62e-05	0	58	0	16072572928	24	14201
2026-01-24 09:42:38.33	16.35	24.61	-26.3	-26.2	16.3	7.62e-05	0	58	0	16181624832	24	14047
2026-01-24 09:42:39.33	16.29	24.83	-26.2	-26.1	16.3	2.38e-05	0	58	0	16299065344	24	13927
2026-01-24 09:42:40.34	16.22	25.05	-26.2	-26.1	16.3	2.38e-05	0	58	0	16408117248	24	13831
2026-01-24 09:42:41.35	16.15	25.28	-26.3	-26.2	16.3	2.38e-05	0	58	0	16517169152	24	14018
2026-01-24 09:42:42.36	16.08	25.51	-26.3	-26.2	16.3	1.43e-05	0	58	0	16642998272	24	13969
2026-01-24 09:42:43.36	16.01	25.73	-25.9	-25.8	16.4	1.43e-05	0	58	0	16760438784	23	14193
2026-01-24 09:42:44.38	15.94	25.97	-25.7	-25.7	16.4	1.90e-05	0	58	0	16869490688	23	13961
2026-01-24 09:42:45.38	15.87	26.20	-25.8	-25.7	16.5	1.90e-05	0	58	0	16978542592	23	14093
2026-01-24 09:42:46.39	15.79	26.44	-25.7	-25.6	16.5	1.90e-05	0	58	0	17095983104	23	13814
2026-01-24 09:42:47.40	15.72	26.68	-25.4	-25.3	16.5	9.50e-06	0	58	0	17205035008	22	14222
2026-01-24 09:42:48.40	15.64	26.92	-25.4	-25.3	16.5	9.50e-06	0	58	0	17322475520	22	14210
2026-01-24 09:42:49.41	15.56	27.16	-25.3	-25.2	16.5	9.50e-06	0	58	0	17431527424	22	14049
2026-01-24 09:42:50.42	15.48	27.41	-25.0	-24.9	16.6	4.70e-06	0	58	0	17548967936	22	13611
2026-01-24 09:42:51.43	15.40	27.66	-25.0	-24.9	16.6	4.70e-06	0	58	0	17658019840	22	13626
2026-01-24 09:42:52.44	15.32	27.91	-24.9	-24.8	16.5	4.70e-06	0	58	0	17767071744	21	14233
2026-01-24 09:42:53.45	15.23	28.17	-24.7	-24.6	16.6	4.70e-06	0	58	0	17884512256	21	13888
2026-01-24 09:42:54.45	15.15	28.43	-24.6	-24.5	16.7	4.70e-06	0	58	0	18001952768	21	13767
2026-01-24 09:42:55.46	15.06	28.69	-24.7	-24.6	16.7	0.00e+00	0	58	0	18119393280	21	13887
2026-01-24 09:42:56.47	14.97	28.95	-24.6	-24.5	16.7	0.00e+00	0	58	0	18228445184	21	13706
2026-01-24 09:42:57.48	14.88	29.22	-24.4	-24.3	16.7	0.00e+00	0	58	0	18345885696	20	14178
2026-01-24 09:42:58.49	14.79	29.49	-24.4	-24.3	16.7	0.00e+00	0	58	0	18454937600	20	14131
2026-01-24 09:42:59.50	14.69	29.76	-24.5	-24.4	16.7	0.00e+00	0	58	0	18572378112	20	14301
2026-01-24 09:43:00.51	14.60	30.04	-24.3	-24.2	16.7	0.00e+00	0	58	0	18681430016	20	14085
2026-01-24 09:43:01.51	14.50	30.31	-24.0	-23.9	16.8	0.00e+00	0	58	0	18790481920	20	13621
2026-01-24 09:43:02.52	14.40	30.60	-24.0	-23.9	16.8	0.00e+00	0	58	0	18907922432	20	13547
2026-01-24 09:43:03.53	14.30	30.88	-24.1	-24.0	16.8	0.00e+00	0	58	0	19016974336	20	13679
2026-01-24 09:43:04.54	14.19	31.17	-23.9	-23.8	16.9	0.00e+00	0	58	0	19134414848	19	14246
2026-01-24 09:43:05.55	14.09	31.46	-24.1	-24.0	16.9	9.50e-06	0	58	0	19243466752	19	14516
2026-01-24 09:43:06.56	13.98	31.76	-23.9	-23.8	16.9	9.50e-06	0	58	0	19369295872	19	14244
2026-01-24 09:43:07.56	13.87	32.05	-23.6	-23.5	16.9	9.50e-06	0	58	0	19478347776	19	13696
2026-01-24 09:43:08.57	13.75	32.36	-23.3	-23.2	17.0	4.70e-06	0	58	0	19595788288	18	13988
2026-01-24 09:43:09.58	13.64	32.66	-23.3	-23.3	17.0	4.70e-06	0	58	0	19704840192	18	14114
2026-01-24 09:43:10.59	13.52	32.97	-23.3	-23.2	17.0	0.00e+00	0	58	0	19813892096	18	14044
2026-01-24 09:43:11.59	13.40	33.28	-23.1	-23.0	17.0	0.00e+00	0	58	0	19931332608	18	13680
2026-01-24 09:43:12.60	13.28	33.60	-23.0	-22.9	17.0	0.00e+00	0	58	0	20040384512	17	14337
2026-01-24 09:43:13.61	13.15	33.92	-22.8	-22.7	17.1	4.70e-06	0	58	0	20157825024	17	13967
2026-01-24 09:43:14.62	13.03	34.24	-22.7	-22.6	17.1	4.70e-06	0	58	0	20266876928	17	13893
2026-01-24 09:43:15.63	12.90	34.57	-22.6	-22.5	17.1	4.70e-06	0	58	0	20375928832	17	13651
2026-01-24 09:43:16.64	12.76	34.90	-22.6	-22.5	17.1	0.00e+00	0	58	0	20493369344	17	13638
2026-01-24 09:43:17.65	12.62	35.24	-22.4	-22.3	17.1	0.00e+00	0	58	0	20602421248	16	14141
2026-01-24 09:43:18.66	12.48	35.58	-22.3	-22.2	17.1	0.00e+00	0	58	0	20728250368	16	14074
2026-01-24 09:43:19.67	12.34	35.92	-22.1	-22.0	17.2	0.00e+00	0	58	0	20837302272	16	13677
2026-01-24 09:43:20.67	12.20	36.26	-22.0	-21.9	17.2	0.00e+00	0	58	0	20954742784	16	13603
2026-01-24 09:43:21.68	12.05	36.61	-22.1	-22.0	17.2	0.00e+00	0	58	0	21063794688	16	13705
2026-01-24 09:43:22.69	11.89	36.97	-22.1	-22.0	17.2	0.00e+00	0	58	0	21181235200	16	13721
2026-01-24 09:43:23.69	11.74	37.33	-21.9	-21.8	17.2	0.00e+00	0	58	0	21290287104	15	14123
2026-01-24 09:43:24.70	11.57	37.69	-21.6	-21.5	17.2	0.00e+00	0	58	0	21407727616	15	13770
2026-01-24 09:43:25.71	11.41	38.06	-21.5	-21.4	17.2	0.00e+00	0	58	0	21516779520	15	13613
2026-01-24 09:43:26.72	11.24	38.43	-21.4	-21.3	17.3	0.00e+00	0	58	0	21625831424	14	14195
2026-01-24 09:43:27.73	11.07	38.81	-21.4	-21.3	17.3	0.00e+00	0	58	0	21743271936	14	14124
2026-01-24 09:43:28.74	10.89	39.19	-21.5	-21.4	17.3	0.00e+00	0	58	0	21852323840	14	14294
2026-01-24 09:43:29.74	10.71	39.58	-21.3	-21.2	17.3	0.00e+00	0	58	0	21969764352	14	13986
2026-01-24 09:43:30.75	10.52	39.97	-21.1	-21.0	17.4	0.00e+00	0	58	0	22087204864	14	13678
2026-01-24 09:43:31.76	10.33	40.36	-20.9	-20.8	17.4	0.00e+00	0	58	0	22204645376	13	14163
2026-01-24 09:43:32.77	10.13	40.76	-20.8	-20.7	17.4	0.00e+00	0	58	0	22313697280	13	13956
2026-01-24 09:43:33.78	9.93	41.17	-20.8	-20.7	17.4	0.00e+00	0	58	0	22431137792	13	13977
2026-01-24 09:43:34.79	9.72	41.58	-20.5	-20.4	17.4	0.00e+00	0	58	0	22540189696	13	13594
2026-01-24 09:43:35.80	9.51	41.99	-20.6	-20.5	17.5	0.00e+00	0	58	0	22649241600	13	13700
2026-01-24 09:43:36.80	9.29	42.41	-20.4	-20.3	17.5	0.00e+00	0	58	0	22766682112	12	14239
2026-01-24 09:43:37.81	9.06	42.83	-20.3	-20.1	17.5	0.00e+00	0	58	0	22875734016	12	13928
2026-01-24 09:43:38.82	8.83	43.26	-20.2	-20.1	17.4	0.00e+00	0	58	0	22993174528	12	13906
2026-01-24 09:43:39.83	8.59	43.70	-20.2	-20.1	17.4	0.00e+00	0	58	0	23102226432	12	13888
2026-01-24 09:43:40.83	8.35	44.13	-20.1	-20.0	17.5	0.00e+00	0	57	0	23211278336	12	13731
2026-01-24 09:43:41.84	8.10	44.58	-20.3	-20.2	17.5	0.00e+00	0	58	0	23328718848	12	14006
2026-01-24 09:43:42.85	7.84	45.03	-20.3	-20.1	17.5	0.00e+00	0	58	0	23437770752	12	13929
2026-01-24 09:43:43.85	7.57	45.48	-20.1	-20.0	17.5	0.00e+00	0	58	0	23563599872	11	14529
2026-01-24 09:43:44.86	7.29	45.94	-19.8	-19.7	17.6	0.00e+00	0	58	0	23672651776	11	13974
2026-01-24 09:43:45.87	7.01	46.40	-19.8	-19.7	17.6	0.00e+00	0	58	0	23790092288	11	13992
2026-01-24 09:43:46.88	6.71	46.87	-19.9	-19.8	17.6	0.00e+00	0	58	0	23899144192	11	14209
2026-01-24 09:43:47.89	6.41	47.35	-19.5	-19.4	17.6	0.00e+00	0	58	0	24016584704	11	13578
2026-01-24 09:43:48.89	6.10	47.82	-19.4	-19.2	17.6	0.00e+00	0	58	0	24125636608	10	14106
2026-01-24 09:43:49.90	5.78	48.31	-19.5	-19.4	17.6	0.00e+00	0	58	0	24234688512	10	14303
2026-01-24 09:43:50.91	5.44	48.80	-19.4	-19.3	17.6	0.00e+00	0	57	0	24352129024	10	14200
2026-01-24 09:43:51.92	5.10	49.30	-19.2	-19.1	17.6	0.00e+00	0	58	0	24461180928	10	13811
2026-01-24 09:43:52.93	4.74	49.80	-19.0	-18.9	17.6	0.00e+00	0	57	0	24578621440	10	13539
2026-01-24 09:43:53.93	4.37	50.30	-19.0	-18.8	17.6	0.00e+00	0	58	0	24687673344	9	14237
2026-01-24 09:43:54.94	3.99	50.81	-19.0	-18.8	17.6	0.00e+00	0	58	0	24805113856	9	14248
2026-01-24 09:43:55.95	3.59	51.32	-18.7	-18.6	17.7	0.00e+00	0	58	0	24914165760	9	13865
2026-01-24 09:43:56.96	3.18	51.84	-18.7	-18.5	17.7	0.00e+00	0	57	0	25039994880	9	13742
2026-01-24 09:43:57.96	2.76	52.36	-18.6	-18.5	17.7	0.00e+00	0	57	0	25149046784	9	13702
2026-01-24 09:43:58.97	2.32	52.89	-18.6	-18.4	17.7	0.00e+00	0	58	0	25266487296	9	13628
2026-01-24 09:43:59.98	1.86	53.42	-18.3	-18.2	17.7	0.00e+00	0	57	0	25375539200	8	14055
2026-01-24 09:44:00.99	1.38	53.96	-18.3	-18.1	17.7	0.00e+00	0	58	0	25484591104	8	13935
2026-01-24 09:44:02.00	0.88	54.50	-18.1	-18.0	17.7	0.00e+00	0	58	0	25602031616	8	13679
2026-01-24 09:44:03.00	0.37	55.05	-18.2	-18.1	17.7	0.00e+00	0	57	0	25711083520	8	13794
2026-01-24 09:44:04.01	359.84	55.60	-18.0	-17.8	17.8	0.00e+00	0	58	0	25828524032	8	13448
2026-01-24 09:44:05.02	359.28	56.15	-17.9	-17.8	17.8	0.00e+00	0	57	0	25937575936	7	14188
2026-01-24 09:44:06.03	358.70	56.71	-17.9	-17.8	17.8	0.00e+00	0	58	0	26046627840	7	14154
2026-01-24 09:44:07.03	358.10	57.26	-17.8	-17.7	17.8	0.00e+00	0	57	0	26164068352	7	14012
2026-01-24 09:44:08.04	357.46	57.82	-17.8	-17.6	17.8	0.00e+00	0	57	0	26273120256	7	13897
2026-01-24 09:44:09.05	356.80	58.39	-17.7	-17.6	17.9	0.00e+00	0	57	0	26390560768	7	13806
2026-01-24 09:44:10.05	356.12	58.95	-17.6	-17.5	17.9	0.00e+00	0	57	0	26508001280	7	13637
2026-01-24 09:44:11.06	355.40	59.52	-17.4	-17.3	17.9	0.00e+00	0	57	0	26625441792	6	14120
2026-01-24 09:44:12.07	354.65	60.09	-17.6	-17.5	17.9	0.00e+00	0	57	0	26734493696	6	14486
2026-01-24 09:44:13.08	353.86	60.67	-17.3	-17.2	17.9	0.00e+00	0	57	0	26851934208	6	13997
2026-01-24 09:44:14.09	353.04	61.24	-17.5	-17.4	18.0	0.00e+00	0	57	0	26960986112	6	14276
2026-01-24 09:44:15.09	352.18	61.81	-17.3	-17.2	17.8	0.00e+00	0	57	0	27070038016	6	13973
2026-01-24 09:44:16.10	351.28	62.38	-17.4	-17.2	17.9	0.00e+00	0	57	0	27187478528	6	14074
2026-01-24 09:44:17.11	350.33	62.95	-17.3	-17.1	17.9	0.00e+00	0	57	0	27296530432	6	13939
2026-01-24 09:44:18.12	349.33	63.52	-17.3	-17.1	17.9	0.00e+00	0	57	0	27413970944	6	13949
2026-01-24 09:44:19.13	348.29	64.09	-17.1	-17.0	17.9	0.00e+00	0	57	0	27523022848	6	13666
2026-01-24 09:44:20.13	347.20	64.64	-17.1	-17.0	17.9	0.00e+00	0	57	0	27640463360	6	13727
2026-01-24 09:44:21.14	346.04	65.20	-17.2	-17.1	17.9	0.00e+00	0	57	0	27749515264	6	13808
2026-01-24 09:44:22.15	344.83	65.76	-17.0	-16.8	17.9	0.00e+00	0	57	0	27858567168	6	13473
2026-01-24 09:44:23.16	343.55	66.30	-16.9	-16.8	17.9	0.00e+00	0	58	0	27984396288	5	14130
2026-01-24 09:44:24.17	342.20	66.85	-16.8	-16.7	17.9	0.00e+00	0	57	0	28093448192	5	14031
2026-01-24 09:44:25.18	340.78	67.38	-16.9	-16.7	17.9	0.00e+00	0	57	0	28210888704	5	14090
2026-01-24 09:44:26.19	339.29	67.90	-16.7	-16.6	17.9	0.00e+00	0	57	0	28319940608	5	13877
2026-01-24 09:44:27.19	337.74	68.41	-16.8	-16.6	17.9	0.00e+00	0	57	0	28437381120	5	13884
2026-01-24 09:44:28.20	336.09	68.90	-16.8	-16.7	17.9	0.00e+00	0	57	0	28546433024	5	14026
2026-01-24 09:44:29.21	334.35	69.39	-16.7	-16.5	17.9	0.00e+00	0	57	0	28663873536	5	13783
2026-01-24 09:44:30.22	332.52	69.86	-16.6	-16.5	17.9	0.00e+00	0	57	0	28772925440	5	13679
2026-01-24 09:44:31.23	330.60	70.31	-16.7	-16.6	17.9	0.00e+00	0	57	0	28881977344	5	13808
2026-01-24 09:44:32.23	328.61	70.74	-16.7	-16.6	17.9	0.00e+00	0	57	0	28999417856	5	13796
2026-01-24 09:44:33.24	326.50	71.15	-16.7	-16.6	17.9	0.00e+00	0	57	0	29108469760	5	13854
2026-01-24 09:44:34.25	324.29	71.53	-16.8	-16.6	17.9	0.00e+00	0	57	0	29225910272	5	13926
2026-01-24 09:44:35.26	321.99	71.89	-16.8	-16.7	17.9	0.00e+00	0	57	0	29343350784	5	13959
2026-01-24 09:44:36.27	319.59	72.23	-16.9	-16.8	17.9	0.00e+00	0	57	0	29460791296	5	14128
2026-01-24 09:44:37.27	317.12	72.53	-16.8	-16.7	17.9	0.00e+00	0	57	0	29569843200	5	13954
2026-01-24 09:44:38.28	314.54	72.80	-16.8	-16.6	17.9	0.00e+00	0	57	0	29687283712	5	13946
2026-01-24 09:44:39.29	311.87	73.04	-16.7	-16.5	17.9	0.00e+00	0	57	0	29796335616	5	13719
2026-01-24 09:44:40.30	309.14	73.24	-16.7	-16.5	17.9	0.00e+00	0	57	0	29905387520	5	13746
2026-01-24 09:44:41.31	306.33	73.41	-16.6	-16.5	17.9	0.00e+00	0	57	0	30022828032	5	13682
2026-01-24 09:44:42.31	303.51	73.54	-16.5	-16.4	17.9	0.00e+00	0	57	0	30131879936	5	13489
2026-01-24 09:44:43.32	300.61	73.62	-16.5	-16.3	17.9	0.00e+00	0	57	0	30249320448	4	14215
2026-01-24 09:44:44.33	297.69	73.67	-16.5	-16.3	17.9	0.00e+00	0	57	0	30358372352	4	14264
2026-01-24 09:44:45.34	294.76	73.68	-16.5	-16.3	17.9	0.00e+00	0	57	0	30467424256	4	14244
2026-01-24 09:44:46.35	291.83	73.65	-16.4	-16.3	17.8	0.00e+00	0	57	0	30584864768	4	14155
2026-01-24 09:44:47.35	288.95	73.58	-16.4	-16.3	17.9	0.00e+00	0	57	0	30710693888	4	14116
2026-01-24 09:44:48.36	286.08	73.46	-16.5	-16.3	17.9	0.00e+00	0	57	0	30819745792	4	14232
2026-01-24 09:44:49.37	283.25	73.31	-16.5	-16.4	17.9	0.00e+00	0	57	0	30928797696	4	14316
2026-01-24 09:44:50.38	280.49	73.12	-16.4	-16.3	17.8	0.00e+00	0	57	0	31046238208	4	14123
2026-01-24 09:44:51.39	277.79	72.90	-16.5	-16.4	17.8	0.00e+00	0	57	0	31155290112	4	14311
2026-01-24 09:44:52.39	275.21	72.64	-16.5	-16.3	17.8	0.00e+00	0	57	0	31272730624	4	14211
2026-01-24 09:44:53.40	272.68	72.35	-16.4	-16.3	17.8	0.00e+00	0	57	0	31381782528	4	14218
2026-01-24 09:44:54.41	270.24	72.02	-16.6	-16.5	17.8	0.00e+00	0	57	0	31490834432	4	14521
2026-01-24 09:44:55.42	267.89	71.67	-16.6	-16.5	17.8	0.00e+00	0	57	0	31608274944	4	14482
2026-01-24 09:44:56.43	265.65	71.30	-16.6	-16.5	17.8	0.00e+00	0	57	0	31717326848	4	14451
2026-01-24 09:44:57.43	263.52	70.90	-16.7	-16.5	17.8	0.00e+00	0	57	0	31834767360	4	14568
2026-01-24 09:44:58.44	261.47	70.48	-16.7	-16.6	17.7	0.00e+00	0	57	0	31943819264	4	14644
2026-01-24 09:44:59.45	259.51	70.03	-16.6	-16.5	17.7	0.00e+00	0	57	0	32061259776	4	14515
2026-01-24 09:45:00.46	257.65	69.57	-16.6	-16.5	17.7	0.00e+00	0	57	0	32178700288	4	14511
2026-01-24 09:45:01.46	255.89	69.09	-16.7	-16.6	17.7	0.00e+00	0	57	0	32296140800	4	14671
2026-01-24 09:45:02.47	254.21	68.60	-16.7	-16.5	17.7	0.00e+00	0	57	0	32405192704	4	14560
2026-01-24 09:45:03.48	252.60	68.09	-16.8	-16.7	17.7	0.00e+00	0	57	0	32522633216	4	14854
2026-01-24 09:45:04.49	251.08	67.57	-16.8	-16.7	17.7	0.00e+00	0	57	0	32631685120	4	14801
2026-01-24 09:45:05.49	249.65	67.05	-17.0	-16.9	17.7	0.00e+00	0	57	0	32740737024	4	15179
2026-01-24 09:45:06.50	248.27	66.51	-16.9	-16.7	17.7	0.00e+00	0	57	0	32858177536	4	14890
2026-01-24 09:45:07.51	246.97	65.97	-17.0	-16.8	17.9	0.00e+00	0	57	0	32967229440	4	15085
2026-01-24 09:45:08.52	245.73	65.41	-16.9	-16.7	17.9	0.00e+00	0	57	0	33084669952	4	14911
2026-01-24 09:45:09.53	244.55	64.85	-17.0	-16.8	18.0	0.00e+00	0	57	0	33193721856	4	15114
2026-01-24 09:45:10.53	243.44	64.30	-17.1	-16.9	18.0	0.00e+00	0	57	0	33302773760	4	15230
2026-01-24 09:45:11.54	242.37	63.73	-17.1	-16.9	17.9	0.00e+00	0	57	0	33420214272	4	15256
2026-01-24 09:45:12.55	241.35	63.16	-17.2	-17.0	17.9	0.00e+00	0	57	0	33529266176	4	15424
2026-01-24 09:45:13.56	240.38	62.59	-17.3	-17.2	18.0	0.00e+00	0	57	0	33655095296	5	14821
2026-01-24 09:45:14.57	239.46	62.02	-17.5	-17.3	18.0	0.00e+00	0	57	0	33764147200	5	15089
2026-01-24 09:45:15.57	238.59	61.45	-17.4	-17.3	18.0	0.00e+00	0	57	0	33881587712	5	15057
2026-01-24 09:45:16.58	237.75	60.87	-51.9	-47.1	4.4	0.00e+00	0	57	104	33973862400	39	65535
2026-01-24 09:45:17.59	236.94	60.30	-54.3	-56.6	6.2	0.00e+00	0	56	104	33973862400	79	19521
2026-01-24 09:45:18.60	236.18	59.73	-54.3	-56.5	6.2	0.00e+00	0	56	104	33973862400	79	19341
2026-01-24 09:45:19.61	235.44	59.15	-54.3	-56.5	6.2	0.00e+00	0	56	104	33973862400	79	19325
2026-01-24 09:45:20.61	234.75	58.59	-54.3	-56.5	6.2	0.00e+00	0	56	104	33973862400	79	19352
2026-01-24 09:45:21.62	234.08	58.02	-54.4	-56.5	6.2	0.00e+00	0	56	104	33973862400	79	19356
2026-01-24 09:45:22.63	233.43	57.46	-54.3	-56.4	6.2	0.00e+00	0	56	104	33973862400	79	19182
2026-01-24 09:45:23.64	232.82	56.89	-54.3	-56.4	6.2	0.00e+00	0	56	104	33973862400	79	19208
2026-01-24 09:45:24.65	232.23	56.33	-54.3	-56.5	6.2	0.00e+00	0	56	104	33973862400	79	19268
2026-01-24 09:45:25.65	231.67	55.78	-54.3	-56.5	6.2	0.00e+00	0	56	104	33973862400	79	19270
2026-01-24 09:45:26.66	231.12	55.23	-54.3	-56.4	6.2	0.00e+00	0	56	104	33973862400	79	19149
2026-01-24 09:45:27.67	230.60	54.68	-54.3	-56.4	6.2	0.00e+00	0	56	104	33973862400	79	19162
2026-01-24 09:45:28.68	230.09	54.14	-54.3	-56.4	6.2	0.00e+00	0	56	104	33973862400	79	19166
2026-01-24 09:45:29.69	229.61	53.60	-54.3	-56.4	6.2	0.00e+00	0	56	104	33973862400	79	19107
2026-01-24 09:45:30.69	229.15	53.06	-54.2	-56.4	6.2	0.00e+00	0	56	104	33973862400	79	19043
2026-01-24 09:45:31.70	228.70	52.53	-54.3	-56.4	6.2	0.00e+00	0	55	104	33973862400	79	19095
2026-01-24 09:45:32.71	228.26	52.00	-54.2	-56.3	6.2	0.00e+00	0	55	104	33973862400	79	19019
2026-01-24 09:45:33.72	227.85	51.48	-54.2	-56.3	6.2	0.00e+00	0	55	104	33973862400	79	19022
2026-01-24 09:45:34.73	227.44	50.96	-54.2	-56.3	6.2	0.00e+00	0	55	104	33973862400	79	18883
2026-01-24 09:45:35.73	227.06	50.45	-54.2	-56.3	6.2	0.00e+00	0	55	104	33973862400	79	18900
2026-01-24 09:45:36.74	226.68	49.94	-54.2	-56.3	6.2	0.00e+00	0	55	104	33973862400	79	18988
2026-01-24 09:45:37.75	226.32	49.44	-54.2	-56.3	6.2	0.00e+00	0	55	104	33973862400	79	19025
2026-01-24 09:45:38.75	225.97	48.95	-54.2	-56.3	6.2	0.00e+00	0	55	104	33973862400	79	18914
2026-01-24 09:45:39.76	225.63	48.45	-54.1	-56.3	6.2	0.00e+00	0	55	104	33973862400	79	18903
2026-01-24 09:45:40.77	225.30	47.96	-54.2	-56.3	6.2	0.00e+00	0	55	104	33973862400	79	18883
2026-01-24 09:45:41.78	224.99	47.48	-54.1	-56.3	6.2	0.00e+00	0	55	104	33973862400	79	18879
2026-01-24 09:45:42.79	224.68	47.00	-54.1	-56.2	6.2	0.00e+00	0	55	104	33973862400	79	18810
2026-01-24 09:45:43.79	224.38	46.53	-54.1	-56.2	6.2	0.00e+00	0	55	104	33973862400	79	18790
2026-01-24 09:45:44.80	224.09	46.07	-54.1	-56.3	6.2	0.00e+00	0	55	104	33973862400	79	18863
2026-01-24 09:45:45.81	223.81	45.60	-54.2	-56.3	6.2	0.00e+00	0	55	104	33973862400	79	18946
2026-01-24 09:45:46.82	223.54	45.14	-54.1	-56.2	6.2	0.00e+00	0	55	104	33973862400	79	18802
2026-01-24 09:45:47.83	223.28	44.69	-54.1	-56.2	6.2	0.00e+00	0	55	104	33973862400	78	19890
2026-01-24 09:45:48.83	223.03	44.25	-54.1	-56.2	6.2	0.00e+00	0	55	104	33973862400	78	19911
2026-01-24 09:45:49.84	222.78	43.81	-54.1	-56.2	6.2	0.00e+00	0	55	104	33973862400	78	19903
2026-01-24 09:45:50.85	222.53	43.37	-54.1	-56.2	6.2	0.00e+00	0	55	104	33973862400	78	19791
2026-01-24 09:45:51.86	222.30	42.94	-54.1	-56.2	6.2	0.00e+00	0	55	104	33973862400	78	19801
2026-01-24 09:45:52.87	222.07	42.51	-54.1	-56.2	6.2	0.00e+00	0	55	104	33973862400	78	19826
2026-01-24 09:45:53.87	221.85	42.09	-54.1	-56.2	6.2	0.00e+00	0	55	104	33973862400	78	19802
2026-01-24 09:45:54.88	221.64	41.67	-54.0	-56.1	6.2	0.00e+00	0	55	104	33973862400	78	19690
2026-01-24 09:45:55.89	221.43	41.26	-54.0	-56.2	6.2	0.00e+00	0	55	104	33973862400	78	19720
2026-01-24 09:45:56.90	221.22	40.85	-54.0	-56.1	6.2	0.00e+00	0	55	104	33973862400	78	19691
2026-01-24 09:45:57.91	221.02	40.45	-54.0	-56.1	6.2	0.00e+00	0	55	104	33973862400	78	19640
2026-01-24 09:45:58.91	220.83	40.05	-54.0	-56.1	6.2	0.00e+00	0	55	104	33973862400	78	19617
2026-01-24 09:45:59.92	220.64	39.66	-54.0	-56.1	6.2	0.00e+00	0	54	104	33973862400	78	19527
2026-01-24 09:46:00.93	220.45	39.27	-54.0	-56.1	6.2	0.00e+00	0	55	104	33973862400	78	19531
2026-01-24 09:46:01.94	220.28	38.88	-54.0	-56.1	6.2	0.00e+00	0	55	104	33973862400	78	19529
2026-01-24 09:46:02.95	220.10	38.50	-54.0	-56.1	6.2	0.00e+00	0	54	104	33973862400	78	19511
2026-01-24 09:46:03.95	219.93	38.13	-53.9	-56.1	6.2	0.00e+00	0	54	104	33973862400	78	19528
2026-01-24 09:46:04.96	219.76	37.76	-53.9	-56.0	6.2	0.00e+00	0	54	104	33973862400	78	19425
2026-01-24 09:46:05.97	219.60	37.39	-53.9	-56.0	6.2	0.00e+00	0	55	104	33973862400	78	19458
2026-01-24 09:46:06.98	219.44	37.03	-53.9	-56.0	6.2	0.00e+00	0	54	104	33973862400	78	19477
2026-01-24 09:46:07.99	219.29	36.67	-53.9	-56.0	6.2	0.00e+00	0	55	104	33973862400	78	19380
2026-01-24 09:46:08.99	219.14	36.32	-53.9	-56.0	6.2	0.00e+00	0	55	104	33973862400	78	19427
2026-01-24 09:46:10.00	218.99	35.97	-53.9	-56.0	6.2	0.00e+00	0	54	104	33973862400	78	19418
2026-01-24 09:46:11.01	218.84	35.62	-53.9	-56.0	6.2	0.00e+00	0	54	104	33973862400	78	19368
2026-01-24 09:46:12.02	218.70	35.28	-53.9	-56.0	6.2	0.00e+00	0	54	104	33973862400	78	19391
2026-01-24 09:46:13.03	218.56	34.94	-53.9	-56.0	6.2	0.00e+00	0	54	104	33973862400	78	19420
2026-01-24 09:46:14.03	218.43	34.61	-53.9	-56.0	6.2	0.00e+00	0	54	104	33973862400	78	19353
2026-01-24 09:46:15.04	218.30	34.28	-53.8	-56.0	6.2	0.00e+00	0	54	104	33973862400	78	19324
2026-01-24 09:46:16.05	218.17	33.96	-53.8	-56.0	6.2	0.00e+00	0	54	104	33973862400	78	19279
2026-01-24 09:46:17.06	218.04	33.64	-53.8	-55.9	6.2	0.00e+00	0	54	104	33973862400	78	19249
2026-01-24 09:46:18.07	217.92	33.32	-53.8	-56.0	6.2	0.00e+00	0	54	104	33973862400	78	19293
2026-01-24 09:46:19.07	217.80	33.01	-53.8	-55.9	6.2	0.00e+00	0	54	104	33973862400	78	19233
2026-01-24 09:46:20.08	217.68	32.69	-53.8	-55.9	6.2	0.00e+00	0	54	104	33973862400	78	19148
2026-01-24 09:46:21.09	217.56	32.39	-53.8	-56.0	6.2	0.00e+00	0	54	104	33973862400	78	19289
2026-01-24 09:46:22.10	217.45	32.08	-53.8	-55.9	6.2	0.00e+00	0	54	104	33973862400	78	19202
2026-01-24 09:46:23.11	217.33	31.78	-53.8	-55.9	6.2	0.00e+00	0	54	104	33973862400	78	19185
2026-01-24 09:46:24.11	217.23	31.49	-53.8	-55.9	6.2	0.00e+00	0	54	104	33973862400	78	19117
2026-01-24 09:46:25.12	217.12	31.19	-53.8	-55.9	6.2	0.00e+00	0	54	104	33973862400	78	19159
2026-01-24 09:46:26.13	217.01	30.90	-53.7	-55.8	6.2	0.00e+00	0	54	104	33973862400	78	19034
2026-01-24 09:46:27.13	216.91	30.62	-53.7	-55.9	6.2	0.00e+00	0	54	104	33973862400	78	19087
2026-01-24 09:46:28.14	216.81	30.33	-53.7	-55.8	6.2	0.00e+00	0	54	104	33973862400	78	19033
2026-01-24 09:46:29.15	216.71	30.05	-53.7	-55.8	6.2	0.00e+00	0	54	104	33973862400	78	18988
2026-01-24 09:46:30.16	216.61	29.77	-53.7	-55.8	6.2	0.00e+00	0	54	104	33973862400	78	18977
2026-01-24 09:46:31.17	216.52	29.50	-53.7	-55.8	6.2	0.00e+00	0	54	104	33973862400	78	18930
2026-01-24 09:46:32.18	216.42	29.23	-53.7	-55.8	6.2	0.00e+00	0	54	104	33973862400	78	18922
2026-01-24 09:46:33.19	216.33	28.96	-53.7	-55.8	6.2	0.00e+00	0	54	104	33973862400	78	18916
2026-01-24 09:46:34.19	216.24	28.69	-53.7	-55.8	6.2	0.00e+00	0	54	104	33973862400	78	18900
2026-01-24 09:46:35.20	216.15	28.43	-53.6	-55.8	6.2	0.00e+00	0	54	104	33973862400	78	18834
2026-01-24 09:46:36.21	216.07	28.17	-53.6	-55.7	6.2	0.00e+00	0	54	104	33973862400	78	18788
2026-01-24 09:46:37.22	215.98	27.91	-53.6	-55.8	6.2	0.00e+00	0	54	104	33973862400	78	18850
2026-01-24 09:46:38.23	215.90	27.66	-53.6	-55.7	6.2	0.00e+00	0	54	104	33973862400	78	18764
2026-01-24 09:46:39.24	215.82	27.41	-53.6	-55.7	6.2	0.00e+00	0	54	104	33973862400	78	18787
2026-01-24 09:46:40.25	215.74	27.16	-53.6	-55.7	6.2	0.00e+00	0	54	104	33973862400	78	18726
2026-01-24 09:46:41.25	215.66	26.91	-53.6	-55.7	6.2	0.00e+00	0	54	104	33973862400	78	18719
2026-01-24 09:46:42.26	215.58	26.67	-53.6	-55.7	6.2	0.00e+00	0	54	104	33973862400	78	18784
2026-01-24 09:46:43.27	215.50	26.43	-53.6	-55.7	6.2	0.00e+00	0	54	104	33973862400	78	18637
2026-01-24 09:46:44.27	215.43	26.19	-53.6	-55.7	6.2	0.00e+00	0	54	104	33973862400	78	18650
2026-01-24 09:46:45.28	215.35	25.96	-53.5	-55.7	6.2	0.00e+00	0	54	104	33973862400	77	19769
2026-01-24 09:46:46.29	215.28	25.72	-53.5	-55.7	6.2	0.00e+00	0	54	104	33973862400	77	19747
2026-01-24 09:46:47.30	215.21	25.49	-53.5	-55.7	6.2	0.00e+00	0	54	104	33973862400	77	19783
2026-01-24 09:46:48.31	215.14	25.26	-53.5	-55.6	6.2	0.00e+00	0	54	104	33973862400	77	19665
2026-01-24 09:46:49.32	215.07	25.03	-53.5	-55.6	6.2	0.00e+00	0	54	104	33973862400	77	19666
2026-01-24 09:46:50.33	215.00	24.81	-53.5	-55.6	6.2	0.00e+00	0	54	104	33973862400	77	19664
2026-01-24 09:46:51.33	214.93	24.59	-53.5	-55.6	6.2	0.00e+00	0	54	104	33973862400	77	19678
2026-01-24 09:46:52.34	214.87	24.37	-53.5	-55.6	6.2	0.00e+00	0	54	104	33973862400	77	19564
2026-01-24 09:46:53.35	214.80	24.15	-53.5	-55.6	6.2	0.00e+00	0	54	104	33973862400	77	19582
2026-01-24 09:46:54.36	214.74	23.93	-53.5	-55.6	6.2	0.00e+00	0	54	104	33973862400	77	19613
2026-01-24 09:46:55.37	214.68	23.72	-53.5	-55.6	6.2	0.00e+00	0	54	104	33973862400	77	19544
2026-01-24 09:46:56.37	214.62	23.51	-53.4	-55.6	6.2	0.00e+00	0	54	104	33973862400	77	19523
2026-01-24 09:46:57.38	214.56	23.30	-53.5	-55.6	6.2	0.00e+00	0	54	104	33973862400	77	19572
2026-01-24 09:46:58.39	214.50	23.09	-53.4	-55.6	6.2	0.00e+00	0	54	104	33973862400	77	19568
2026-01-24 09:46:59.40	214.44	22.89	-53.4	-55.6	6.2	0.00e+00	0	54	104	33973862400	77	19507
2026-01-24 09:47:00.41	214.38	22.69	-53.4	-55.5	6.2	0.00e+00	0	54	104	33973862400	77	19445
2026-01-24 09:47:01.41	214.32	22.49	-53.4	-55.5	6.2	0.00e+00	0	54	104	33973862400	77	19436
2026-01-24 09:47:02.42	214.27	22.29	-53.4	-55.5	6.2	0.00e+00	0	54	104	33973862400	77	19435
2026-01-24 09:47:03.43	214.21	22.09	-53.4	-55.5	6.2	0.00e+00	0	54	104	33973862400	77	19411
2026-01-24 09:47:04.44	214.16	21.89	-53.4	-55.5	6.2	0.00e+00	0	54	104	33973862400	77	19365
2026-01-24 09:47:05.45	214.10	21.70	-53.4	-55.5	6.2	0.00e+00	0	54	104	33973862400	77	19400
2026-01-24 09:47:06.45	214.05	21.51	-53.4	-55.5	6.2	0.00e+00	0	54	104	33973862400	77	19427
2026-01-24 09:47:07.46	214.00	21.32	-53.4	-55.5	6.2	0.00e+00	0	54	104	33973862400	77	19408
2026-01-24 09:47:08.47	213.95	21.13	-53.4	-55.5	6.2	0.00e+00	0	54	104	33973862400	77	19331
2026-01-24 09:47:09.48	213.89	20.94	-53.4	-55.5	6.2	0.00e+00	0	54	104	33973862400	77	19395
2026-01-24 09:47:10.49	213.84	20.76	-53.4	-55.5	6.2	0.00e+00	0	54	104	33973862400	77	19302
2026-01-24 09:47:11.49	213.80	20.57	-53.4	-55.5	6.2	0.00e+00	0	54	104	33973862400	77	19300
2026-01-24 09:47:12.50	213.75	20.39	-53.4	-55.5	6.2	0.00e+00	0	54	104	33973862400	77	19312
2026-01-24 09:47:13.51	213.70	20.21	-53.4	-55.5	6.2	0.00e+00	0	54	104	33973862400	77	19323
2026-01-24 09:47:14.52	213.65	20.03	-53.4	-55.5	6.2	0.00e+00	0	54	104	33973862400	77	19306
2026-01-24 09:47:15.53	213.61	19.85	-53.3	-55.5	6.2	0.00e+00	0	54	104	33973862400	77	19310
2026-01-24 09:47:16.53	213.56	19.68	-53.3	-55.4	6.2	0.00e+00	0	54	104	33973862400	77	19235
2026-01-24 09:47:17.54	213.52	19.51	-53.3	-55.4	6.2	0.00e+00	0	54	104	33973862400	77	19236
2026-01-24 09:47:18.55	213.47	19.33	-53.3	-55.5	6.2	0.00e+00	0	54	104	33973862400	77	19276
2026-01-24 09:47:19.56	213.43	19.16	-53.3	-55.4	6.2	0.00e+00	0	54	104	33973862400	77	19211
2026-01-24 09:47:20.56	213.38	18.99	-53.3	-55.4	6.2	0.00e+00	0	54	104	33973862400	77	19243
2026-01-24 09:47:21.58	213.34	18.82	-53.3	-55.4	6.2	0.00e+00	0	54	104	33973862400	77	19255
2026-01-24 09:47:22.58	213.30	18.66	-53.3	-55.4	6.2	0.00e+00	0	54	104	33973862400	77	19215
2026-01-24 09:47:23.59	213.26	18.49	-53.3	-55.4	6.2	0.00e+00	0	54	104	33973862400	77	19161
2026-01-24 09:47:24.60	213.22	18.33	-53.3	-55.4	6.2	0.00e+00	0	54	104	33973862400	77	19212
2026-01-24 09:47:25.61	213.18	18.16	-53.3	-55.4	6.2	0.00e+00	0	54	104	33973862400	77	19187
2026-01-24 09:47:26.62	213.14	18.00	-53.3	-55.4	6.2	0.00e+00	0	54	104	33973862400	77	19172
2026-01-24 09:47:27.63	213.10	17.84	-53.3	-55.4	6.2	0.00e+00	0	54	104	33973862400	77	19152
2026-01-24 09:47:28.63	213.06	17.69	-53.3	-55.4	6.2	0.00e+00	0	54	104	33973862400	77	19193
2026-01-24 09:47:29.64	213.02	17.53	-53.3	-55.4	6.2	0.00e+00	0	54	104	33973862400	77	19144
2026-01-24 09:47:30.65	212.98	17.37	-53.3	-55.4	6.2	0.00e+00	0	54	104	33973862400	77	19147
2026-01-24 09:47:31.66	212.94	17.22	-53.3	-55.4	6.2	0.00e+00	0	54	104	33973862400	77	19076
2026-01-24 09:47:32.67	212.91	17.06	-53.3	-55.4	6.2	0.00e+00	0	54	104	33973862400	77	19202
2026-01-24 09:47:33.67	212.87	16.91	-53.3	-55.4	6.2	0.00e+00	0	54	104	33973862400	77	19118
2026-01-24 09:47:34.68	212.83	16.76	-53.3	-55.4	6.2	0.00e+00	0	54	104	33973862400	77	19128
2026-01-24 09:47:35.69	212.80	16.61	-53.3	-55.4	6.2	0.00e+00	0	54	104	33973862400	77	19099
2026-01-24 09:47:36.70	212.76	16.46	-53.3	-55.4	6.2	0.00e+00	0	54	104	33973862400	77	19133
2026-01-24 09:47:37.71	212.73	16.31	-53.3	-55.4	6.2	0.00e+00	0	54	104	33973862400	77	19150
2026-01-24 09:47:38.72	212.69	16.16	-53.3	-55.4	6.2	0.00e+00	0	54	104	33973862400	77	19147
2026-01-24 09:47:39.73	212.66	16.02	-53.2	-55.4	6.2	0.00e+00	0	54	104	33973862400	77	19088
2026-01-24 09:47:40.73	212.63	15.88	-53.3	-55.4	6.2	0.00e+00	0	54	104	33973862400	77	19102
2026-01-24 09:47:41.74	212.59	15.73	-53.2	-55.4	6.2	0.00e+00	0	54	104	33973862400	77	19087
2026-01-24 09:47:42.75	212.56	15.59	-53.2	-55.4	6.2	0.00e+00	0	54	104	33973862400	77	19085
2026-01-24 09:47:43.76	212.53	15.45	-53.2	-55.3	6.2	0.00e+00	0	54	104	33973862400	77	19012
2026-01-24 09:47:44.77	212.50	15.31	-53.2	-55.3	6.2	0.00e+00	0	54	104	33973862400	77	19008
2026-01-24 09:47:45.78	212.47	15.17	-53.2	-55.3	6.2	0.00e+00	0	54	104	33973862400	76	20008
2026-01-24 09:47:46.79	212.44	15.03	-53.2	-55.4	6.2	0.00e+00	0	54	104	33973862400	76	20187
2026-01-24 09:47:47.79	212.41	14.89	-53.2	-55.3	6.2	0.00e+00	0	53	104	33973862400	77	18964
2026-01-24 09:47:48.80	212.38	14.76	-53.2	-55.3	6.2	0.00e+00	0	54	104	33973862400	77	18931
2026-01-24 09:47:49.81	212.35	14.62	-53.2	-55.3	6.2	0.00e+00	0	53	104	33973862400	77	18910
2026-01-24 09:47:50.82	212.32	14.49	-53.2	-55.3	6.2	0.00e+00	0	54	104	33973862400	77	18946
2026-01-24 09:47:51.83	212.29	14.35	-53.2	-55.3	6.2	0.00e+00	0	54	104	33973862400	77	18861
2026-01-24 09:47:52.83	212.26	14.22	-53.1	-55.3	6.2	0.00e+00	0	54	104	33973862400	77	18903
2026-01-24 09:47:53.84	212.23	14.09	-53.1	-55.3	6.2	0.00e+00	0	53	104	33973862400	77	18873
2026-01-24 09:47:54.85	212.20	13.96	-53.2	-55.3	6.2	0.00e+00	0	54	104	33973862400	77	18931
2026-01-24 09:47:55.86	212.17	13.83	-53.1	-55.3	6.2	0.00e+00	0	54	104	33973862400	77	18866
2026-01-24 09:47:56.86	212.15	13.70	-53.1	-55.3	6.2	0.00e+00	0	54	104	33973862400	77	18886
2026-01-24 09:47:57.87	212.12	13.57	-53.1	-55.3	6.2	0.00e+00	0	53	104	33973862400	76	19937
2026-01-24 09:47:58.88	212.09	13.45	-53.2	-55.2	6.2	0.00e+00	0	54	104	33973862400	76	19929
2026-01-24 09:47:59.89	212.07	13.32	-53.1	-55.2	6.2	0.00e+00	0	54	104	33973862400	76	19930
2026-01-24 09:48:00.89	212.04	13.20	-53.1	-55.2	6.2	0.00e+00	0	54	104	33973862400	76	19882
2026-01-24 09:48:01.90	212.01	13.07	-53.1	-55.2	6.2	0.00e+00	0	54	104	33973862400	76	19861
2026-01-24 09:48:02.91	211.99	12.95	-53.1	-55.2	6.2	0.00e+00	0	54	104	33973862400	76	19886
2026-01-24 09:48:03.92	211.96	12.82	-53.1	-55.2	6.2	0.00e+00	0	54	104	33973862400	76	19884
2026-01-24 09:48:04.93	211.94	12.70	-53.1	-55.2	6.2	0.00e+00	0	54	104	33973862400	76	19825
2026-01-24 09:48:05.93	211.91	12.58	-53.1	-55.2	6.2	0.00e+00	0	54	104	33973862400	76	19819
2026-01-24 09:48:06.94	211.89	12.46	-53.1	-55.2	6.2	0.00e+00	0	53	104	33973862400	76	19918
2026-01-24 09:48:07.95	211.86	12.34	-53.1	-55.2	6.2	0.00e+00	0	54	104	33973862400	76	19779
2026-01-24 09:48:08.96	211.84	12.22	-53.1	-55.2	6.2	0.00e+00	0	53	104	33973862400	76	19742
2026-01-24 09:48:09.97	211.82	12.10	-53.1	-55.2	6.2	0.00e+00	0	54	104	33973862400	76	19902
2026-01-24 09:48:10.98	211.79	11.98	-53.1	-55.2	6.2	0.00e+00	0	53	104	33973862400	76	19800
2026-01-24 09:48:11.98	211.77	11.87	-53.1	-55.2	6.2	0.00e+00	0	54	104	33973862400	76	19756
2026-01-24 09:48:12.99	211.75	11.75	-53.0	-55.2	6.2	0.00e+00	0	54	104	33973862400	76	19803
2026-01-24 09:48:14.00	211.72	11.64	-53.0	-55.2	6.2	0.00e+00	0	54	104	33973862400	76	19706
2026-01-24 09:48:15.01	211.70	11.52	-53.1	-55.2	6.2	0.00e+00	0	53	104	33973862400	76	19821
2026-01-24 09:48:16.02	211.68	11.41	-53.0	-55.2	6.2	0.00e+00	0	53	104	33973862400	76	19746
2026-01-24 09:48:17.03	211.66	11.29	-53.0	-55.1	6.2	0.00e+00	0	53	104	33973862400	76	19704
2026-01-24 09:48:18.03	211.63	11.18	-53.0	-55.1	6.2	0.00e+00	0	54	104	33973862400	76	19671
2026-01-24 09:48:19.04	211.61	11.07	-53.1	-55.2	6.2	0.00e+00	0	54	104	33973862400	76	19793
2026-01-24 09:48:20.05	211.59	10.96	-53.0	-55.1	6.2	0.00e+00	0	54	104	33973862400	76	19648
2026-01-24 09:48:21.06	211.57	10.85	-53.0	-55.1	6.2	0.00e+00	0	53	104	33973862400	76	19664
2026-01-24 09:48:22.07	211.55	10.74	-53.0	-55.1	6.2	0.00e+00	0	53	104	33973862400	76	19589
2026-01-24 09:48:23.07	211.53	10.63	-53.0	-55.2	6.2	0.00e+00	0	53	104	33973862400	76	19721
2026-01-24 09:48:24.08	211.51	10.52	-53.0	-55.1	6.2	0.00e+00	0	54	104	33973862400	76	19635
2026-01-24 09:48:25.09	211.49	10.41	-53.0	-55.1	6.2	0.00e+00	0	53	104	33973862400	76	19536
2026-01-24 09:48:26.10	211.47	10.30	-52.9	-55.0	6.2	0.00e+00	0	53	104	33973862400	76	19478
2026-01-24 09:48:27.10	211.45	10.20	-53.0	-55.1	6.2	0.00e+00	0	54	104	33973862400	76	19617
2026-01-24 09:48:28.11	211.43	10.09	-52.9	-55.1	6.2	0.00e+00	0	54	104	33973862400	76	19536
2026-01-24 09:48:29.12	211.41	9.99	-52.9	-55.0	6.2	0.00e+00	0	53	104	33973862400	76	19421
2026-01-24 09:48:30.13	211.39	9.88	-52.9	-55.0	6.2	0.00e+00	0	53	104	33973862400	76	19348
2026-01-24 09:48:31.13	211.37	9.78	-53.0	-55.1	6.2	0.00e+00	0	53	104	33973862400	76	19541
2026-01-24 09:48:32.14	211.35	9.67	-52.9	-55.0	6.2	0.00e+00	0	53	104	33973862400	76	19432
2026-01-24 09:48:33.15	211.33	9.57	-52.9	-55.0	6.2	0.00e+00	0	53	104	33973862400	76	19312
2026-01-24 09:48:34.16	211.32	9.47	-52.8	-55.0	6.2	0.00e+00	0	53	104	33973862400	76	19263
2026-01-24 09:48:35.17	211.30	9.36	-52.9	-55.0	6.2	0.00e+00	0	54	104	33973862400	76	19474
2026-01-24 09:48:36.17	211.28	9.26	-52.8	-55.0	6.2	0.00e+00	0	53	104	33973862400	76	19321
2026-01-24 09:48:37.18	211.26	9.16	-52.8	-54.9	6.2	0.00e+00	0	54	104	33973862400	76	19222
2026-01-24 09:48:38.19	211.24	9.06	-52.8	-54.9	6.2	0.00e+00	0	54	104	33973862400	76	19174
2026-01-24 09:48:39.20	211.23	8.96	-52.9	-55.0	6.2	0.00e+00	0	54	104	33973862400	76	19347
2026-01-24 09:48:40.21	211.21	8.86	-52.8	-54.9	6.2	0.00e+00	0	53	104	33973862400	76	19211
2026-01-24 09:48:41.21	211.19	8.76	-52.8	-54.9	6.2	0.00e+00	0	53	104	33973862400	76	19171
2026-01-24 09:48:42.22	211.18	8.67	-52.8	-54.9	6.2	0.00e+00	0	54	104	33973862400	76	19095
2026-01-24 09:48:43.23	211.16	8.57	-52.8	-54.9	6.2	0.00e+00	0	53	104	33973862400	76	19226
2026-01-24 09:48:44.24	211.14	8.47	-52.8	-54.9	6.2	0.00e+00	0	54	104	33973862400	76	19090
2026-01-24 09:48:45.25	211.13	8.37	-52.7	-54.9	6.2	0.00e+00	0	53	104	33973862400	76	19055
2026-01-24 09:48:46.25	211.11	8.28	-52.7	-54.9	6.2	0.00e+00	0	53	104	33973862400	76	19043
2026-01-24 09:48:47.26	211.09	8.18	-52.8	-54.9	6.2	0.00e+00	0	53	104	33973862400	76	19150
2026-01-24 09:48:48.27	211.08	8.08	-52.7	-54.8	6.2	0.00e+00	0	53	104	33973862400	76	19022
2026-01-24 09:48:49.27	211.06	7.99	-52.7	-54.8	6.2	0.00e+00	0	53	104	33973862400	76	18920
2026-01-24 09:48:50.28	211.05	7.90	-52.7	-54.8	6.2	0.00e+00	0	53	104	33973862400	76	18930
2026-01-24 09:48:51.29	211.03	7.80	-52.8	-54.9	6.2	0.00e+00	0	53	104	33973862400	76	19122
2026-01-24 09:48:52.30	211.01	7.71	-52.7	-54.8	6.2	0.00e+00	0	54	104	33973862400	76	18986
2026-01-24 09:48:53.31	211.00	7.61	-52.7	-54.8	6.2	0.00e+00	0	53	104	33973862400	76	18931
2026-01-24 09:48:54.31	210.98	7.52	-52.6	-54.7	6.2	0.00e+00	0	53	104	33973862400	76	18806
2026-01-24 09:48:55.32	210.97	7.43	-52.7	-54.8	6.2	0.00e+00	0	53	104	33973862400	75	20029
2026-01-24 09:48:56.33	210.95	7.34	-52.6	-54.8	6.2	0.00e+00	0	53	104	33973862400	75	19965
2026-01-24 09:48:57.34	210.94	7.25	-52.6	-54.7	6.2	0.00e+00	0	53	104	33973862400	75	19849
2026-01-24 09:48:58.35	210.93	7.15	-52.5	-54.7	6.2	0.00e+00	0	53	104	33973862400	75	19771
2026-01-24 09:48:59.35	210.91	7.07	-52.6	-54.7	6.2	0.00e+00	0	53	104	33973862400	75	19924
2026-01-24 09:49:00.36	210.90	6.97	-52.5	-54.7	6.2	0.00e+00	0	53	104	33973862400	75	19752
2026-01-24 09:49:01.37	210.88	6.88	-52.5	-54.6	6.2	0.00e+00	0	53	104	33973862400	75	19574
2026-01-24 09:49:02.38	210.87	6.80	-52.5	-54.6	6.2	0.00e+00	0	53	104	33973862400	75	19632
2026-01-24 09:49:03.38	210.86	6.71	-52.5	-54.7	6.2	0.00e+00	0	53	104	33973862400	75	19786
2026-01-24 09:49:04.39	210.84	6.62	-52.5	-54.6	6.2	0.00e+00	0	53	104	33973862400	75	19560
2026-01-24 09:49:05.40	210.83	6.53	-52.4	-54.6	6.2	0.00e+00	0	53	104	33973862400	75	19565
2026-01-24 09:49:06.41	210.81	6.44	-52.5	-54.6	6.2	0.00e+00	0	53	104	33973862400	75	19540
2026-01-24 09:49:07.42	210.80	6.35	-52.5	-54.6	6.2	0.00e+00	0	53	104	33973862400	75	19695
2026-01-24 09:49:08.43	210.79	6.27	-52.4	-54.6	6.2	0.00e+00	0	53	104	33973862400	75	19523
2026-01-24 09:49:09.43	210.78	6.18	-52.4	-54.5	6.2	0.00e+00	0	53	104	33973862400	75	19389
2026-01-24 09:49:10.44	210.76	6.10	-52.4	-54.5	6.2	0.00e+00	0	53	104	33973862400	75	19452
2026-01-24 09:49:11.45	210.75	6.01	-52.5	-54.6	6.2	0.00e+00	0	53	104	33973862400	75	19568
2026-01-24 09:49:12.46	210.74	5.92	-52.4	-54.5	6.2	0.00e+00	0	53	104	33973862400	75	19353
2026-01-24 09:49:13.47	210.72	5.84	-52.3	-54.4	6.2	0.00e+00	0	53	104	33973862400	75	19216
2026-01-24 09:49:14.47	210.71	5.75	-52.4	-54.5	6.2	0.00e+00	0	53	104	33973862400	75	19343
2026-01-24 09:49:15.48	210.70	5.67	-52.4	-54.5	6.2	0.00e+00	0	53	104	33973862400	75	19341
2026-01-24 09:49:16.49	210.69	5.59	-52.3	-54.4	6.2	0.00e+00	0	54	104	33973862400	75	19217
2026-01-24 09:49:17.50	210.67	5.50	-52.2	-54.4	6.2	0.00e+00	0	53	104	33973862400	75	19082
2026-01-24 09:49:18.51	210.66	5.42	-52.3	-54.4	6.2	0.00e+00	0	53	104	33973862400	75	19187
2026-01-24 09:49:19.51	210.65	5.34	-52.3	-54.4	6.2	0.00e+00	0	54	104	33973862400	75	19213
2026-01-24 09:49:20.52	210.64	5.25	-52.2	-54.4	6.2	0.00e+00	0	53	104	33973862400	75	19112
2026-01-24 09:49:21.53	210.63	5.17	-52.2	-54.3	6.2	0.00e+00	0	54	104	33973862400	75	18981
2026-01-24 09:49:22.54	210.62	5.09	-52.2	-54.4	6.2	0.00e+00	0	54	104	33973862400	75	19115
2026-01-24 09:49:23.54	210.60	5.01	-52.4	-54.5	6.2	0.00e+00	0	54	104	33973862400	75	19414
2026-01-24 09:49:24.55	210.59	4.93	-52.9	-55.0	6.2	0.00e+00	0	54	104	33973862400	76	19368
2026-01-24 09:49:25.56	210.58	4.85	-53.2	-55.3	6.2	0.00e+00	0	54	104	33973862400	76	20099
2026-01-24 09:49:26.57	210.57	4.77	-53.4	-55.5	6.2	0.00e+00	0	53	104	33973862400	77	19370
2026-01-24 09:49:27.57	210.56	4.69	-53.5	-55.6	6.2	0.00e+00	0	53	104	33973862400	77	19678
2026-01-24 09:49:28.58	210.55	4.61	-53.7	-55.8	6.2	0.00e+00	0	53	104	33973862400	77	20058
2026-01-24 09:49:29.59	210.54	4.53	-53.8	-56.0	6.2	0.00e+00	0	54	104	33973862400	78	19269
2026-01-24 09:49:30.60	210.53	4.45	-54.0	-56.1	6.2	0.00e+00	0	54	104	33973862400	78	19622
2026-01-24 09:49:31.61	210.52	4.37	-54.1	-56.2	6.2	0.00e+00	0	54	104	33973862400	78	19841
2026-01-24 09:49:32.61	210.51	4.29	-54.2	-56.3	6.2	0.00e+00	0	53	104	33973862400	78	19958
2026-01-24 09:49:33.62	210.50	4.21	-54.3	-56.4	6.2	0.00e+00	0	54	104	33973862400	79	19087
2026-01-24 09:49:34.63	210.48	4.13	-54.3	-56.4	6.2	0.00e+00	0	53	104	33973862400	79	19184
2026-01-24 09:49:35.64	210.47	4.05	-54.4	-56.5	6.2	0.00e+00	0	53	104	33973862400	79	19303
2026-01-24 09:49:36.65	210.46	3.98	-54.4	-56.5	6.2	0.00e+00	0	54	104	33973862400	79	19441
2026-01-24 09:49:37.66	210.45	3.90	-54.4	-56.5	6.2	0.00e+00	0	53	104	33973862400	79	19403
2026-01-24 09:49:38.66	210.44	3.82	-54.5	-56.6	6.2	0.00e+00	0	54	104	33973862400	79	19574
2026-01-24 09:49:39.67	210.43	3.75	-54.5	-56.6	6.2	0.00e+00	0	53	104	33973862400	79	19614
2026-01-24 09:49:40.68	210.42	3.67	-54.5	-56.6	6.2	0.00e+00	0	53	104	33973862400	79	19601
2026-01-24 09:49:41.69	210.41	3.59	-54.5	-56.6	6.2	0.00e+00	0	54	104	33973862400	79	19608
2026-01-24 09:49:42.69	210.40	3.52	-54.5	-56.6	6.2	0.00e+00	0	54	104	33973862400	79	19660
2026-01-24 09:49:43.70	210.40	3.44	-54.5	-56.6	6.2	0.00e+00	0	53	104	33973862400	79	19600
2026-01-24 09:49:44.71	210.39	3.37	-54.5	-56.6	6.2	0.00e+00	0	54	104	33973862400	79	19666
2026-01-24 09:49:45.72	210.38	3.29	-54.5	-56.6	6.2	0.00e+00	0	54	104	33973862400	79	19686
2026-01-24 09:49:46.73	210.37	3.22	-54.4	-56.6	6.2	0.00e+00	0	54	104	33973862400	79	19539
2026-01-24 09:49:47.73	210.36	3.14	-54.3	-56.5	6.2	0.00e+00	0	53	104	33973862400	79	19273
2026-01-24 09:49:48.74	210.35	3.07	-54.3	-56.4	6.2	0.00e+00	0	53	104	33973862400	79	19132
2026-01-24 09:49:49.75	210.34	2.99	-54.3	-56.4	6.2	0.00e+00	0	53	104	33973862400	79	19087
2026-01-24 09:49:50.76	210.33	2.92	-54.2	-56.4	6.2	0.00e+00	0	53	104	33973862400	79	19078
2026-01-24 09:49:51.76	210.32	2.85	-54.2	-56.4	6.2	0.00e+00	0	54	104	33973862400	79	19051
2026-01-24 09:49:52.77	210.31	2.77	-54.2	-56.4	6.2	0.00e+00	0	53	104	33973862400	79	19037
2026-01-24 09:49:53.78	210.30	2.70	-54.2	-56.3	6.2	0.00e+00	0	53	104	33973862400	79	18899
2026-01-24 09:49:54.79	210.30	2.63	-54.2	-56.3	6.2	0.00e+00	0	54	104	33973862400	79	18872
2026-01-24 09:49:55.80	210.29	2.56	-54.2	-56.3	6.2	0.00e+00	0	53	104	33973862400	79	18872
2026-01-24 09:49:56.81	210.28	2.48	-54.3	-56.4	6.2	0.00e+00	0	53	104	33973862400	79	19241
2026-01-24 09:49:57.81	210.27	2.41	-54.2	-56.3	6.2	0.00e+00	0	54	104	33973862400	79	19011
2026-01-24 09:49:58.82	210.26	2.34	-54.2	-56.3	6.2	0.00e+00	0	54	104	33973862400	79	18986
2026-01-24 09:49:59.83	210.25	2.27	-54.1	-56.3	6.2	0.00e+00	0	53	104	33973862400	79	18841
2026-01-24 09:50:00.84	210.24	2.20	-54.1	-56.2	6.2	0.00e+00	0	53	104	33973862400	79	18818
2026-01-24 09:50:01.85	210.24	2.13	-54.1	-56.3	6.2	0.00e+00	0	53	104	33973862400	79	18875
2026-01-24 09:50:02.85	210.23	2.06	-54.4	-56.5	6.2	0.00e+00	0	53	104	33973862400	79	19388
2026-01-24 09:50:03.86	210.22	1.99	-54.3	-56.4	6.2	0.00e+00	0	54	104	33973862400	79	19207
2026-01-24 09:50:04.87	210.21	1.91	-54.3	-56.4	6.2	0.00e+00	0	53	104	33973862400	79	19107

#Closed at: 2026-01-24 09:50:05
#Recorded file [33973 MB]: D:/lorett/data/31041_260124_123924.dat