passes_logs/2026/01/24/R3.2S_Murmansk/R3.2S_Murmansk__20260124_105735_FENGYUN_3D_rec.log

#Pass ID: 20260124_105735_FENGYUN 3D
#Satellite: FENGYUN 3D
#Configuration: FENGYUN 3D
#almurnet v.1.7.20251203
#Start time: 2026-01-24 10:57:35

#Version: 2.2.20231116
#Station: R3.2S_Murmansk
#Location: 33.079688 lon 68.888172 lat
#TLE: 1 43010U 17072A   26023.60174628  .00000324  00000+0  17481-3 0  9994
#TLE: 2 43010  98.9958 355.5514 0002482  93.7422 266.4037 14.19699955424476

#Time	Az	El	Level	Level2	SNR	BER	BlckErr	Temp	State	Recorded	gain1	gain2
2026-01-24 10:57:35.37	136.87	1.97	-51.7	-63.6	3.8	8.47e-01	0	41	0	0	73	15534
2026-01-24 10:57:36.38	136.86	2.04	-51.7	-63.7	3.8	8.46e-01	0	41	104	0	73	15582
2026-01-24 10:57:37.39	136.85	2.10	-51.7	-63.6	3.8	8.47e-01	0	41	104	0	73	15529
2026-01-24 10:57:38.40	136.83	2.17	-51.7	-63.6	3.8	8.45e-01	0	41	104	0	73	15476
2026-01-24 10:57:39.41	136.82	2.23	-51.6	-63.6	3.8	8.47e-01	0	41	104	0	73	15446
2026-01-24 10:57:40.41	136.81	2.30	-51.6	-63.6	3.8	8.45e-01	0	41	104	0	73	15434
2026-01-24 10:57:41.42	136.79	2.36	-51.6	-63.6	3.8	8.46e-01	0	41	104	0	73	15442
2026-01-24 10:57:42.43	136.78	2.43	-50.9	-63.6	3.8	8.45e-01	0	41	104	0	73	15418
2026-01-24 10:57:43.44	136.77	2.49	-51.6	-63.5	3.8	8.45e-01	0	41	104	0	73	15368
2026-01-24 10:57:44.45	136.75	2.56	-51.6	-63.5	3.8	8.47e-01	0	41	104	0	73	15393
2026-01-24 10:57:45.46	136.74	2.63	-51.6	-63.5	3.8	8.46e-01	0	41	104	0	73	15332
2026-01-24 10:57:46.47	136.73	2.69	-51.6	-63.5	3.8	8.47e-01	0	41	104	0	73	15262
2026-01-24 10:57:47.48	136.72	2.76	-51.6	-63.5	3.8	8.46e-01	0	41	104	0	73	15252
2026-01-24 10:57:48.49	136.70	2.83	-51.6	-63.4	3.8	8.45e-01	0	41	104	0	73	15174
2026-01-24 10:57:49.49	136.69	2.89	-51.6	-63.4	3.8	8.45e-01	0	41	104	0	73	15161
2026-01-24 10:57:50.50	136.67	2.96	-51.6	-63.4	3.8	8.45e-01	0	42	104	0	73	15185
2026-01-24 10:57:51.51	136.66	3.02	-51.6	-63.4	3.8	8.46e-01	0	41	104	0	73	15223
2026-01-24 10:57:52.52	136.65	3.09	-51.6	-63.4	3.8	8.45e-01	0	41	104	0	73	15133
2026-01-24 10:57:53.53	136.63	3.16	-51.6	-63.4	3.8	8.46e-01	0	41	104	0	73	15085
2026-01-24 10:57:54.53	136.62	3.23	-51.6	-63.3	3.8	8.46e-01	0	41	104	0	73	14950
2026-01-24 10:57:55.54	136.61	3.29	-51.6	-63.3	3.8	8.46e-01	0	42	104	0	73	15011
2026-01-24 10:57:56.55	136.59	3.36	-51.6	-63.2	3.8	8.45e-01	0	42	104	0	73	14841
2026-01-24 10:57:57.56	136.58	3.43	-51.6	-63.1	3.8	8.45e-01	0	42	104	0	73	14694
2026-01-24 10:57:58.57	136.56	3.50	-51.6	-63.0	3.8	8.47e-01	0	42	104	0	73	14481
2026-01-24 10:57:59.57	136.55	3.56	-51.5	-63.0	3.8	8.46e-01	0	42	104	0	73	14508
2026-01-24 10:58:00.58	136.54	3.63	-51.6	-63.2	3.8	8.47e-01	0	42	104	0	73	14793
2026-01-24 10:58:01.59	136.52	3.70	-51.6	-63.3	3.8	8.46e-01	0	42	104	0	73	14956
2026-01-24 10:58:02.60	136.51	3.77	-51.5	-62.8	3.9	8.47e-01	0	42	104	0	73	14113
2026-01-24 10:58:03.61	136.49	3.84	-51.4	-61.2	3.8	8.45e-01	0	42	104	0	73	11710
2026-01-24 10:58:04.61	136.48	3.91	-51.0	-58.4	4.7	8.21e-01	0	42	0	0	73	8519
2026-01-24 10:58:05.62	136.46	3.98	-50.3	-55.8	6.6	3.80e-01	0	42	0	2097152	71	7064
2026-01-24 10:58:06.63	136.45	4.05	-49.4	-53.4	8.8	5.49e-02	0	42	0	7340032	71	5388
2026-01-24 10:58:07.64	136.43	4.12	-48.1	-50.9	11.5	3.24e-03	0	42	0	13631488	68	4779
2026-01-24 10:58:08.65	136.42	4.19	-47.2	-49.6	12.8	2.76e-04	0	42	0	18874368	65	4871
2026-01-24 10:58:09.65	136.40	4.25	-46.3	-48.2	14.2	3.40e-06	0	42	0	25165824	64	4412
2026-01-24 10:58:10.66	136.39	4.32	-45.7	-47.4	15.2	1.10e-06	0	42	0	30408704	63	4251
2026-01-24 10:58:11.67	136.37	4.39	-45.4	-47.1	15.5	0.00e+00	0	42	0	36700160	62	4343
2026-01-24 10:58:12.68	136.36	4.47	-44.3	-45.6	17.2	0.00e+00	0	42	0	41943040	59	4390
2026-01-24 10:58:13.69	136.34	4.54	-44.3	-45.6	17.2	0.00e+00	0	42	0	48234496	59	4368
2026-01-24 10:58:14.69	136.33	4.61	-44.0	-45.3	17.6	0.00e+00	0	42	0	53477376	58	4454
2026-01-24 10:58:15.70	136.31	4.68	-43.4	-44.6	18.3	0.00e+00	0	42	0	58720256	58	4107
2026-01-24 10:58:16.71	136.29	4.75	-43.3	-44.5	18.4	0.00e+00	0	42	0	65011712	58	4075
2026-01-24 10:58:17.72	136.28	4.82	-43.7	-44.9	17.9	0.00e+00	0	42	0	70254592	58	4270
2026-01-24 10:58:18.73	136.26	4.89	-43.9	-45.2	17.7	0.00e+00	0	42	0	75497472	58	4402
2026-01-24 10:58:19.74	136.25	4.96	-44.2	-45.5	17.4	0.00e+00	0	42	0	81788928	58	4577
2026-01-24 10:58:20.75	136.23	5.04	-44.5	-45.9	16.6	0.00e+00	0	42	0	87031808	60	4259
2026-01-24 10:58:21.76	136.21	5.11	-45.5	-47.1	15.7	0.00e+00	0	42	0	92274688	61	4641
2026-01-24 10:58:22.77	136.20	5.18	-43.7	-45.0	18.1	0.00e+00	0	42	0	98566144	57	4552
2026-01-24 10:58:23.77	136.18	5.25	-47.8	-50.5	12.1	1.60e-05	0	42	0	104857600	66	5141
2026-01-24 10:58:24.78	136.17	5.32	-44.0	-45.2	18.0	0.00e+00	0	42	0	110100480	59	4180
2026-01-24 10:58:25.79	136.15	5.40	-48.6	-51.9	10.7	0.00e+00	0	42	0	115343360	67	5690
2026-01-24 10:58:26.80	136.13	5.47	-44.1	-45.4	17.7	2.56e-04	0	42	0	121634816	59	4251
2026-01-24 10:58:27.81	136.12	5.54	-43.8	-45.0	18.1	0.00e+00	0	42	0	126877696	59	4091
2026-01-24 10:58:28.82	136.10	5.62	-43.4	-44.6	18.5	0.00e+00	0	42	0	133169152	57	4381
2026-01-24 10:58:29.83	136.08	5.69	-43.1	-44.2	18.9	0.00e+00	0	42	0	138412032	57	4188
2026-01-24 10:58:30.84	136.06	5.76	-43.0	-44.2	19.0	0.00e+00	0	42	0	143654912	57	4150
2026-01-24 10:58:31.85	136.05	5.84	-42.8	-43.9	19.3	0.00e+00	0	42	0	149946368	56	4246
2026-01-24 10:58:32.85	136.03	5.91	-42.9	-44.1	19.2	0.00e+00	0	42	0	155189248	56	4343
2026-01-24 10:58:33.86	136.01	5.99	-42.7	-43.8	19.4	0.00e+00	0	42	0	160432128	56	4205
2026-01-24 10:58:34.87	135.99	6.06	-42.7	-43.8	19.4	0.00e+00	0	42	0	166723584	56	4216
2026-01-24 10:58:35.88	135.98	6.14	-42.6	-43.7	19.6	0.00e+00	0	42	0	173015040	56	4151
2026-01-24 10:58:36.89	135.96	6.21	-42.8	-43.8	19.4	0.00e+00	0	42	0	178257920	56	4234
2026-01-24 10:58:37.90	135.94	6.29	-42.9	-44.0	19.2	0.00e+00	0	42	0	183500800	56	4322
2026-01-24 10:58:38.91	135.92	6.36	-42.5	-43.5	19.7	0.00e+00	0	42	0	189792256	56	4096
2026-01-24 10:58:39.92	135.91	6.44	-42.7	-43.8	19.5	0.00e+00	0	42	0	195035136	56	4227
2026-01-24 10:58:40.92	135.89	6.51	-42.5	-43.5	19.7	0.00e+00	0	42	0	200278016	55	4322
2026-01-24 10:58:41.93	135.87	6.59	-42.4	-43.4	19.8	0.00e+00	0	42	0	206569472	55	4290
2026-01-24 10:58:42.94	135.85	6.67	-42.8	-43.9	19.4	0.00e+00	0	42	0	211812352	56	4263
2026-01-24 10:58:43.95	135.83	6.74	-42.9	-44.0	19.4	0.00e+00	0	42	0	218103808	56	4295
2026-01-24 10:58:44.96	135.81	6.82	-42.7	-43.8	19.5	0.00e+00	0	42	0	223346688	56	4227
2026-01-24 10:58:45.96	135.79	6.90	-42.6	-43.6	19.6	0.00e+00	0	42	0	228589568	55	4384
2026-01-24 10:58:46.97	135.78	6.98	-42.4	-43.4	19.9	0.00e+00	0	42	0	234881024	55	4270
2026-01-24 10:58:47.98	135.76	7.05	-42.5	-43.5	19.8	0.00e+00	0	42	0	241172480	55	4313
2026-01-24 10:58:48.99	135.74	7.13	-42.6	-43.6	19.6	0.00e+00	0	42	0	246415360	55	4390
2026-01-24 10:58:49.99	135.72	7.21	-42.4	-43.5	19.8	0.00e+00	0	42	0	251658240	55	4309
2026-01-24 10:58:51.00	135.70	7.29	-42.6	-43.7	19.6	0.00e+00	0	42	0	257949696	55	4394
2026-01-24 10:58:52.01	135.68	7.36	-42.5	-43.6	19.8	0.00e+00	0	42	0	263192576	56	4116
2026-01-24 10:58:53.02	135.66	7.44	-42.5	-43.6	19.8	0.00e+00	0	43	0	268435456	56	4103
2026-01-24 10:58:54.03	135.64	7.52	-42.4	-43.5	20.0	0.00e+00	0	42	0	274726912	56	4056
2026-01-24 10:58:55.04	135.62	7.60	-42.3	-43.3	20.0	0.00e+00	0	43	0	279969792	55	4237
2026-01-24 10:58:56.05	135.60	7.68	-42.2	-43.2	20.2	0.00e+00	0	42	0	286261248	55	4174
2026-01-24 10:58:57.05	135.58	7.76	-42.1	-43.2	20.2	0.00e+00	0	43	0	291504128	55	4146
2026-01-24 10:58:58.06	135.56	7.84	-42.2	-43.2	20.2	0.00e+00	0	42	0	296747008	54	4399
2026-01-24 10:58:59.07	135.54	7.92	-42.0	-43.0	20.4	0.00e+00	0	42	0	303038464	55	4068
2026-01-24 10:59:00.08	135.52	8.00	-42.3	-43.4	20.0	0.00e+00	0	42	0	308281344	55	4270
2026-01-24 10:59:01.09	135.50	8.08	-42.3	-43.3	20.1	0.00e+00	0	43	0	314572800	55	4222
2026-01-24 10:59:02.09	135.48	8.16	-42.0	-43.0	20.4	0.00e+00	0	42	0	319815680	55	4069
2026-01-24 10:59:03.10	135.46	8.24	-42.0	-43.0	20.4	0.00e+00	0	43	0	326107136	55	4076
2026-01-24 10:59:04.11	135.44	8.33	-42.0	-42.9	20.5	0.00e+00	0	42	0	331350016	55	4051
2026-01-24 10:59:05.12	135.42	8.41	-42.2	-43.2	20.2	0.00e+00	0	43	0	336592896	55	4175
2026-01-24 10:59:06.13	135.39	8.49	-42.2	-43.2	20.3	0.00e+00	0	42	0	342884352	55	4165
2026-01-24 10:59:07.13	135.37	8.57	-42.0	-43.0	20.4	0.00e+00	0	43	0	348127232	55	4085
2026-01-24 10:59:08.14	135.35	8.65	-42.1	-43.1	20.4	0.00e+00	0	42	0	353370112	55	4103
2026-01-24 10:59:09.15	135.33	8.74	-41.9	-42.8	20.6	0.00e+00	0	43	0	359661568	54	4226
2026-01-24 10:59:10.16	135.31	8.82	-42.0	-43.0	20.5	0.00e+00	0	43	0	364904448	54	4323
2026-01-24 10:59:11.17	135.29	8.90	-41.8	-42.8	20.7	0.00e+00	0	43	0	371195904	54	4217
2026-01-24 10:59:12.18	135.26	8.99	-41.8	-42.8	20.7	0.00e+00	0	42	0	376438784	54	4222
2026-01-24 10:59:13.18	135.24	9.07	-41.7	-42.7	20.8	0.00e+00	0	42	0	382730240	54	4149
2026-01-24 10:59:14.19	135.22	9.15	-41.8	-42.8	20.7	0.00e+00	0	42	0	387973120	54	4216
2026-01-24 10:59:15.20	135.20	9.24	-41.7	-42.7	20.8	0.00e+00	0	42	0	394264576	54	4163
2026-01-24 10:59:16.21	135.17	9.32	-41.8	-42.7	20.8	0.00e+00	0	42	0	399507456	54	4181
2026-01-24 10:59:17.22	135.15	9.41	-41.8	-42.7	20.8	0.00e+00	0	43	0	404750336	54	4193
2026-01-24 10:59:18.23	135.13	9.49	-41.5	-42.4	21.1	0.00e+00	0	42	0	411041792	54	4039
2026-01-24 10:59:19.23	135.10	9.58	-41.7	-42.7	20.9	0.00e+00	0	43	0	416284672	54	4157
2026-01-24 10:59:20.24	135.08	9.67	-41.7	-42.7	20.9	0.00e+00	0	43	0	421527552	54	4154
2026-01-24 10:59:21.25	135.06	9.75	-41.6	-42.6	21.0	0.00e+00	0	43	0	427819008	54	4110
2026-01-24 10:59:22.26	135.03	9.84	-41.7	-42.6	20.9	0.00e+00	0	43	0	433061888	54	4140
2026-01-24 10:59:23.27	135.01	9.93	-41.6	-42.5	21.0	0.00e+00	0	42	0	439353344	54	4076
2026-01-24 10:59:24.28	134.99	10.01	-41.5	-42.4	21.1	0.00e+00	0	43	0	444596224	54	4051
2026-01-24 10:59:25.29	134.96	10.10	-41.4	-42.3	21.2	0.00e+00	0	43	0	450887680	54	3991
2026-01-24 10:59:26.29	134.94	10.19	-41.6	-42.5	21.0	0.00e+00	0	42	0	456130560	54	4094
2026-01-24 10:59:27.30	134.91	10.27	-41.4	-42.3	21.3	0.00e+00	0	43	0	461373440	54	3965
2026-01-24 10:59:28.31	134.89	10.36	-41.3	-42.3	21.3	0.00e+00	0	43	0	467664896	54	3961
2026-01-24 10:59:29.32	134.86	10.45	-41.2	-42.1	21.4	0.00e+00	0	43	0	472907776	54	3912
2026-01-24 10:59:30.33	134.84	10.54	-41.1	-41.9	21.6	0.00e+00	0	43	0	479199232	54	3824
2026-01-24 10:59:31.33	134.81	10.63	-41.2	-42.1	21.5	0.00e+00	0	43	0	484442112	54	3907
2026-01-24 10:59:32.34	134.79	10.72	-41.0	-41.9	21.7	0.00e+00	0	43	0	489684992	53	4037
2026-01-24 10:59:33.35	134.76	10.81	-41.0	-41.9	21.7	0.00e+00	0	43	0	495976448	53	4011
2026-01-24 10:59:34.36	134.74	10.90	-41.0	-41.9	21.7	0.00e+00	0	43	0	501219328	53	4008
2026-01-24 10:59:35.37	134.71	10.99	-41.0	-41.9	21.7	0.00e+00	0	43	0	507510784	52	4257
2026-01-24 10:59:36.37	134.69	11.08	-40.9	-41.8	21.8	0.00e+00	0	43	0	512753664	52	4223
2026-01-24 10:59:37.38	134.66	11.17	-40.9	-41.8	21.8	0.00e+00	0	43	0	519045120	52	4213
2026-01-24 10:59:38.39	134.63	11.26	-41.0	-41.9	21.7	0.00e+00	0	43	0	524288000	52	4243
2026-01-24 10:59:39.40	134.61	11.36	-41.0	-41.9	21.7	0.00e+00	0	43	0	529530880	52	4260
2026-01-24 10:59:40.41	134.58	11.45	-40.4	-41.9	21.7	0.00e+00	0	43	0	535822336	52	4246
2026-01-24 10:59:41.42	134.55	11.54	-40.7	-41.6	21.9	0.00e+00	0	43	0	541065216	52	4129
2026-01-24 10:59:42.43	134.52	11.63	-40.8	-41.7	21.9	0.00e+00	0	43	0	546308096	52	4153
2026-01-24 10:59:43.43	134.50	11.73	-40.7	-41.6	22.0	0.00e+00	0	43	0	552599552	52	4110
2026-01-24 10:59:44.44	134.47	11.82	-40.9	-41.8	21.8	0.00e+00	0	43	0	557842432	52	4211
2026-01-24 10:59:45.45	134.44	11.91	-40.8	-41.7	21.9	0.00e+00	0	43	0	564133888	52	4172
2026-01-24 10:59:46.45	134.41	12.01	-40.7	-41.5	22.1	0.00e+00	0	43	0	569376768	52	4098
2026-01-24 10:59:47.46	134.39	12.10	-40.8	-41.7	21.9	0.00e+00	0	43	0	574619648	52	4151
2026-01-24 10:59:48.47	134.36	12.20	-40.8	-41.7	21.9	0.00e+00	0	43	0	580911104	52	4160
2026-01-24 10:59:49.48	134.33	12.29	-40.8	-41.7	21.9	0.00e+00	0	43	0	587202560	52	4166
2026-01-24 10:59:50.49	134.30	12.39	-40.8	-41.7	21.9	0.00e+00	0	43	0	592445440	52	4161
2026-01-24 10:59:51.50	134.27	12.48	-40.8	-41.7	21.9	0.00e+00	0	43	0	597688320	52	4177
2026-01-24 10:59:52.51	134.24	12.58	-40.9	-41.8	21.9	0.00e+00	0	43	0	603979776	52	4194
2026-01-24 10:59:53.51	134.21	12.68	-40.9	-41.8	21.8	0.00e+00	0	43	0	609222656	52	4195
2026-01-24 10:59:54.52	134.18	12.77	-40.9	-41.8	21.9	0.00e+00	0	43	0	614465536	52	4210
2026-01-24 10:59:55.53	134.15	12.87	-40.8	-41.7	21.9	0.00e+00	0	43	0	620756992	52	4148
2026-01-24 10:59:56.54	134.12	12.97	-40.8	-41.7	22.0	0.00e+00	0	43	0	625999872	52	4146
2026-01-24 10:59:57.55	134.09	13.07	-40.7	-41.5	22.1	0.00e+00	0	43	0	631242752	52	4098
2026-01-24 10:59:58.55	134.06	13.17	-41.0	-41.8	21.8	0.00e+00	0	43	0	637534208	52	4242
2026-01-24 10:59:59.56	134.03	13.27	-40.8	-41.7	22.0	0.00e+00	0	43	0	642777088	52	4155
2026-01-24 11:00:00.57	134.00	13.37	-40.7	-41.6	22.1	0.00e+00	0	43	0	649068544	52	4102
2026-01-24 11:00:01.58	133.97	13.47	-40.8	-41.7	22.0	0.00e+00	0	43	0	654311424	52	4158
2026-01-24 11:00:02.59	133.94	13.57	-40.8	-41.6	22.0	0.00e+00	0	43	0	660602880	52	4139
2026-01-24 11:00:03.59	133.91	13.67	-40.8	-41.7	21.9	0.00e+00	0	43	0	665845760	52	4182
2026-01-24 11:00:04.60	133.88	13.77	-40.7	-41.5	22.1	0.00e+00	0	43	0	672137216	52	4090
2026-01-24 11:00:05.61	133.84	13.87	-40.7	-41.6	22.1	0.00e+00	0	43	0	677380096	52	4103
2026-01-24 11:00:06.62	133.81	13.97	-40.7	-41.6	22.1	0.00e+00	0	43	0	682622976	52	4111
2026-01-24 11:00:07.63	133.78	14.07	-40.7	-41.6	22.0	0.00e+00	0	43	0	688914432	52	4121
2026-01-24 11:00:08.63	133.75	14.18	-40.6	-41.5	22.2	0.00e+00	0	43	0	694157312	52	4063
2026-01-24 11:00:09.64	133.71	14.28	-40.4	-41.2	22.4	0.00e+00	0	43	0	699400192	52	3939
2026-01-24 11:00:10.65	133.68	14.38	-40.6	-41.5	22.1	0.00e+00	0	43	0	705691648	52	4070
2026-01-24 11:00:11.66	133.64	14.49	-40.6	-41.4	22.2	0.00e+00	0	43	0	710934528	52	4034
2026-01-24 11:00:12.67	133.61	14.59	-40.4	-41.3	22.4	0.00e+00	0	43	0	717225984	52	3969
2026-01-24 11:00:13.67	133.58	14.70	-40.3	-41.1	22.5	0.00e+00	0	43	0	722468864	52	3896
2026-01-24 11:00:14.68	133.54	14.80	-40.3	-41.2	22.5	0.00e+00	0	43	0	728760320	52	3924
2026-01-24 11:00:15.69	133.51	14.91	-40.1	-40.9	22.7	0.00e+00	0	43	0	734003200	52	3824
2026-01-24 11:00:16.70	133.47	15.01	-40.4	-41.2	22.4	0.00e+00	0	43	0	739246080	52	3956
2026-01-24 11:00:17.71	133.44	15.12	-40.3	-41.1	22.5	0.00e+00	0	43	0	745537536	52	3912
2026-01-24 11:00:18.71	133.40	15.23	-40.2	-41.0	22.6	0.00e+00	0	43	0	750780416	52	3865
2026-01-24 11:00:19.72	133.37	15.34	-40.1	-41.0	22.7	0.00e+00	0	43	0	757071872	52	3837
2026-01-24 11:00:20.73	133.33	15.44	-40.2	-41.0	22.6	0.00e+00	0	43	0	762314752	52	3849
2026-01-24 11:00:21.74	133.29	15.55	-40.1	-40.9	22.8	0.00e+00	0	43	0	767557632	52	3804
2026-01-24 11:00:22.75	133.26	15.66	-40.2	-41.0	22.7	0.00e+00	0	43	0	773849088	52	3837
2026-01-24 11:00:23.75	133.22	15.77	-40.1	-40.9	22.8	0.00e+00	0	43	0	779091968	51	4033
2026-01-24 11:00:24.76	133.18	15.88	-40.2	-41.0	22.7	0.00e+00	0	43	0	784334848	51	4082
2026-01-24 11:00:25.77	133.15	15.99	-40.3	-41.1	22.6	0.00e+00	0	43	0	790626304	51	4131
2026-01-24 11:00:26.78	133.11	16.10	-40.2	-41.0	22.7	0.00e+00	0	43	0	796917760	51	4095
2026-01-24 11:00:27.79	133.07	16.21	-39.9	-40.7	23.0	0.00e+00	0	43	0	802160640	51	3920
2026-01-24 11:00:28.80	133.03	16.33	-39.9	-40.7	23.0	0.00e+00	0	43	0	807403520	51	3917
2026-01-24 11:00:29.81	132.99	16.44	-39.8	-40.6	23.1	0.00e+00	0	43	0	813694976	51	3891
2026-01-24 11:00:30.82	132.95	16.55	-39.8	-40.6	23.1	0.00e+00	0	43	0	818937856	51	3909
2026-01-24 11:00:31.82	132.91	16.66	-39.8	-40.5	23.2	0.00e+00	0	43	0	824180736	51	3867
2026-01-24 11:00:32.83	132.87	16.78	-39.7	-40.5	23.2	0.00e+00	0	43	0	830472192	51	3850
2026-01-24 11:00:33.84	132.83	16.89	-39.7	-40.5	23.2	0.00e+00	0	43	0	835715072	51	3851
2026-01-24 11:00:34.85	132.79	17.01	-39.7	-40.5	23.2	0.00e+00	0	43	0	842006528	51	3849
2026-01-24 11:00:35.85	132.75	17.12	-39.5	-40.3	23.4	0.00e+00	0	43	0	847249408	50	3985
2026-01-24 11:00:36.86	132.71	17.24	-39.8	-40.6	23.2	0.00e+00	0	43	0	852492288	50	4109
2026-01-24 11:00:37.87	132.67	17.36	-39.7	-40.4	23.3	0.00e+00	0	43	0	858783744	50	4049
2026-01-24 11:00:38.88	132.63	17.47	-39.4	-40.1	23.5	0.00e+00	0	43	0	865075200	50	3907
2026-01-24 11:00:39.89	132.59	17.59	-39.4	-40.2	23.5	0.00e+00	0	43	0	870318080	50	3919
2026-01-24 11:00:40.90	132.54	17.71	-39.4	-40.2	23.5	0.00e+00	0	43	0	875560960	50	3925
2026-01-24 11:00:41.90	132.50	17.83	-39.3	-40.1	23.6	0.00e+00	0	43	0	881852416	50	3887
2026-01-24 11:00:42.91	132.46	17.95	-39.3	-40.1	23.6	0.00e+00	0	43	0	887095296	50	3904
2026-01-24 11:00:43.92	132.41	18.07	-39.3	-40.0	23.7	0.00e+00	0	43	0	892338176	50	3859
2026-01-24 11:00:44.93	132.37	18.19	-39.3	-40.1	23.6	0.00e+00	0	43	0	898629632	50	3901
2026-01-24 11:00:45.94	132.33	18.31	-39.3	-40.1	23.6	0.00e+00	0	43	0	903872512	50	3889
2026-01-24 11:00:46.95	132.28	18.43	-39.4	-40.2	23.5	0.00e+00	0	43	0	909115392	50	3919
2026-01-24 11:00:47.95	132.24	18.55	-39.3	-40.0	23.7	0.00e+00	0	43	0	915406848	50	3860
2026-01-24 11:00:48.96	132.19	18.68	-39.3	-40.1	23.6	0.00e+00	0	43	0	920649728	50	3898
2026-01-24 11:00:49.97	132.14	18.80	-39.3	-40.1	23.7	0.00e+00	0	43	0	926941184	50	3874
2026-01-24 11:00:50.98	132.10	18.93	-39.2	-39.9	23.8	0.00e+00	0	43	0	932184064	50	3818
2026-01-24 11:00:51.99	132.05	19.05	-39.1	-39.9	23.8	0.00e+00	0	43	0	938475520	50	3798
2026-01-24 11:00:53.00	132.00	19.18	-39.3	-40.0	23.7	0.00e+00	0	43	0	943718400	50	3857
2026-01-24 11:00:54.01	131.96	19.30	-39.2	-40.0	23.7	0.00e+00	0	43	0	950009856	50	3851
2026-01-24 11:00:55.02	131.91	19.43	-39.2	-40.0	23.8	0.00e+00	0	43	0	955252736	50	3832
2026-01-24 11:00:56.02	131.86	19.55	-39.0	-39.8	23.9	0.00e+00	0	43	0	960495616	50	3743
2026-01-24 11:00:57.03	131.81	19.68	-39.0	-39.8	23.9	0.00e+00	0	43	0	966787072	49	3977
2026-01-24 11:00:58.04	131.76	19.81	-38.9	-39.7	24.0	0.00e+00	0	43	0	972029952	49	3936
2026-01-24 11:00:59.05	131.71	19.94	-38.9	-39.7	24.0	0.00e+00	0	43	0	977272832	49	3940
2026-01-24 11:01:00.06	131.66	20.07	-39.0	-39.8	24.0	0.00e+00	0	43	0	983564288	49	3964
2026-01-24 11:01:01.06	131.61	20.20	-38.9	-39.6	24.1	0.00e+00	0	43	0	988807168	49	3908
2026-01-24 11:01:02.07	131.56	20.33	-38.9	-39.6	24.0	0.00e+00	0	43	0	995098624	49	3912
2026-01-24 11:01:03.08	131.51	20.46	-39.0	-39.8	23.9	0.00e+00	0	43	0	1000341504	49	3988
2026-01-24 11:01:04.09	131.46	20.60	-38.9	-39.6	24.1	0.00e+00	0	43	0	1006632960	49	3906
2026-01-24 11:01:05.09	131.41	20.73	-38.9	-39.6	24.1	0.00e+00	0	43	0	1011875840	49	3907
2026-01-24 11:01:06.10	131.35	20.86	-38.8	-39.6	24.1	0.00e+00	0	43	0	1017118720	49	3892
2026-01-24 11:01:07.11	131.30	21.00	-38.8	-39.6	24.1	0.00e+00	0	43	0	1023410176	49	3894
2026-01-24 11:01:08.12	131.24	21.13	-38.8	-39.6	24.1	0.00e+00	0	43	0	1028653056	49	3887
2026-01-24 11:01:09.13	131.19	21.27	-38.7	-39.5	24.3	0.00e+00	0	43	0	1034944512	49	3829
2026-01-24 11:01:10.13	131.14	21.40	-38.8	-39.6	24.1	0.00e+00	0	43	0	1040187392	49	3880
2026-01-24 11:01:11.14	131.08	21.54	-38.7	-39.5	24.2	0.00e+00	0	43	0	1045430272	49	3836
2026-01-24 11:01:12.15	131.02	21.68	-38.7	-39.5	24.3	0.00e+00	0	43	0	1051721728	49	3839
2026-01-24 11:01:13.16	130.97	21.82	-38.7	-39.5	24.2	0.00e+00	0	43	0	1056964608	49	3844
2026-01-24 11:01:14.16	130.91	21.96	-38.8	-39.5	24.2	0.00e+00	0	43	0	1062207488	49	3854
2026-01-24 11:01:15.17	130.85	22.10	-38.7	-39.5	24.2	0.00e+00	0	43	0	1068498944	49	3834
2026-01-24 11:01:16.18	130.80	22.24	-38.7	-39.5	24.3	0.00e+00	0	43	0	1074790400	49	3829
2026-01-24 11:01:17.19	130.74	22.38	-38.8	-39.6	24.2	0.00e+00	0	43	0	1080033280	49	3884
2026-01-24 11:01:18.19	130.68	22.52	-38.7	-39.5	24.3	0.00e+00	0	43	0	1085276160	49	3833
2026-01-24 11:01:19.20	130.62	22.66	-38.6	-39.4	24.4	0.00e+00	0	43	0	1091567616	49	3798
2026-01-24 11:01:20.21	130.56	22.81	-38.7	-39.5	24.3	0.00e+00	0	43	0	1096810496	49	3835
2026-01-24 11:01:21.22	130.50	22.95	-38.6	-39.3	24.4	0.00e+00	0	43	0	1102053376	49	3779
2026-01-24 11:01:22.23	130.43	23.10	-38.5	-39.3	24.5	0.00e+00	0	43	0	1108344832	49	3742
2026-01-24 11:01:23.24	130.37	23.24	-38.6	-39.3	24.4	0.00e+00	0	43	0	1113587712	49	3767
2026-01-24 11:01:24.24	130.31	23.39	-38.6	-39.4	24.4	0.00e+00	0	43	0	1119879168	49	3790
2026-01-24 11:01:25.25	130.25	23.54	-38.4	-39.2	24.5	0.00e+00	0	43	0	1125122048	48	3921
2026-01-24 11:01:26.26	130.18	23.69	-38.4	-39.1	24.6	0.00e+00	0	43	0	1130364928	48	3908
2026-01-24 11:01:27.27	130.12	23.84	-38.4	-39.2	24.5	0.00e+00	0	43	0	1136656384	48	3935
2026-01-24 11:01:28.28	130.05	23.99	-38.5	-39.3	24.5	0.00e+00	0	43	0	1142947840	48	3964
2026-01-24 11:01:29.29	129.99	24.14	-38.5	-39.2	24.5	0.00e+00	0	43	0	1148190720	48	3940
2026-01-24 11:01:30.30	129.92	24.29	-38.3	-39.0	24.7	0.00e+00	0	43	0	1153433600	48	3865
2026-01-24 11:01:31.31	129.85	24.44	-38.2	-39.0	24.8	0.00e+00	0	43	0	1159725056	48	3835
2026-01-24 11:01:32.31	129.78	24.60	-38.3	-39.1	24.7	0.00e+00	0	43	0	1164967936	48	3884
2026-01-24 11:01:33.32	129.71	24.75	-38.3	-39.0	24.7	0.00e+00	0	43	0	1170210816	48	3847
2026-01-24 11:01:34.33	129.64	24.91	-38.3	-39.0	24.7	0.00e+00	0	43	0	1176502272	48	3842
2026-01-24 11:01:35.33	129.57	25.06	-38.3	-39.1	24.7	0.00e+00	0	43	0	1181745152	48	3880
2026-01-24 11:01:36.34	129.50	25.22	-38.3	-39.1	24.7	0.00e+00	0	43	0	1186988032	48	3881
2026-01-24 11:01:37.35	129.43	25.38	-38.1	-38.8	24.9	0.00e+00	0	43	0	1193279488	48	3757
2026-01-24 11:01:38.36	129.36	25.54	-38.0	-38.7	25.0	0.00e+00	0	43	0	1198522368	48	3727
2026-01-24 11:01:39.37	129.29	25.70	-37.8	-38.5	24.6	0.00e+00	0	43	0	1204813824	47	3863
2026-01-24 11:01:40.37	129.21	25.86	-37.7	-38.5	24.7	0.00e+00	0	43	0	1210056704	47	3845
2026-01-24 11:01:41.38	129.14	26.02	-37.8	-38.6	24.6	0.00e+00	0	43	0	1216348160	47	3898
2026-01-24 11:01:42.39	129.06	26.18	-37.9	-38.7	24.5	0.00e+00	0	43	0	1221591040	47	3946
2026-01-24 11:01:43.40	128.99	26.34	-37.9	-38.7	24.5	0.00e+00	0	43	0	1227882496	47	3947
2026-01-24 11:01:44.41	128.91	26.51	-37.9	-38.6	24.5	0.00e+00	0	43	0	1233125376	47	3906
2026-01-24 11:01:45.41	128.83	26.67	-37.9	-38.6	24.6	0.00e+00	0	43	0	1238368256	47	3902
2026-01-24 11:01:46.42	128.75	26.84	-38.0	-38.7	24.5	0.00e+00	0	43	0	1244659712	47	3953
2026-01-24 11:01:47.43	128.67	27.01	-37.9	-38.6	24.6	0.00e+00	0	43	0	1249902592	47	3906
2026-01-24 11:01:48.44	128.59	27.18	-37.9	-38.7	24.5	0.00e+00	0	43	0	1255145472	47	3950
2026-01-24 11:01:49.45	128.51	27.35	-38.0	-38.8	24.5	0.00e+00	0	43	0	1261436928	47	3966
2026-01-24 11:01:50.45	128.43	27.51	-38.0	-38.7	24.5	0.00e+00	0	43	0	1266679808	47	3950
2026-01-24 11:01:51.46	128.34	27.69	-37.7	-38.5	24.7	0.00e+00	0	43	0	1271922688	47	3837
2026-01-24 11:01:52.47	128.26	27.86	-37.6	-38.4	24.8	0.00e+00	0	43	0	1278214144	47	3797
2026-01-24 11:01:53.48	128.17	28.03	-37.7	-38.5	24.7	0.00e+00	0	43	0	1284505600	47	3851
2026-01-24 11:01:54.49	128.09	28.21	-37.8	-38.5	24.7	0.00e+00	0	43	0	1289748480	47	3862
2026-01-24 11:01:55.50	128.00	28.38	-37.6	-38.4	24.8	0.00e+00	0	43	0	1294991360	47	3781
2026-01-24 11:01:56.51	127.91	28.56	-37.6	-38.4	24.8	0.00e+00	0	43	0	1301282816	47	3800
2026-01-24 11:01:57.51	127.82	28.73	-37.6	-38.4	24.8	0.00e+00	0	43	0	1306525696	47	3805
2026-01-24 11:01:58.52	127.73	28.91	-37.6	-38.4	24.8	0.00e+00	0	43	0	1312817152	47	3786
2026-01-24 11:01:59.53	127.64	29.09	-37.7	-38.5	24.7	0.00e+00	0	43	0	1318060032	47	3838
2026-01-24 11:02:00.54	127.55	29.27	-37.7	-38.5	24.7	0.00e+00	0	43	0	1323302912	47	3834
2026-01-24 11:02:01.55	127.45	29.45	-37.6	-38.4	24.8	0.00e+00	0	43	0	1329594368	47	3783
2026-01-24 11:02:02.55	127.36	29.64	-37.5	-38.3	24.9	0.00e+00	0	43	0	1334837248	47	3753
2026-01-24 11:02:03.56	127.27	29.82	-37.6	-38.4	24.8	0.00e+00	0	43	0	1340080128	47	3805
2026-01-24 11:02:04.57	127.17	30.00	-37.7	-38.5	24.7	0.00e+00	0	43	0	1346371584	47	3835
2026-01-24 11:02:05.58	127.07	30.19	-37.6	-38.4	24.8	0.00e+00	0	43	0	1352663040	47	3807
2026-01-24 11:02:06.59	126.97	30.38	-37.7	-38.5	24.8	0.00e+00	0	43	0	1357905920	47	3828
2026-01-24 11:02:07.60	126.87	30.57	-37.5	-38.3	24.9	0.00e+00	0	43	0	1363148800	47	3756
2026-01-24 11:02:08.61	126.77	30.76	-37.5	-38.3	24.9	0.00e+00	0	43	0	1369440256	47	3756
2026-01-24 11:02:09.61	126.67	30.95	-37.3	-38.0	25.1	0.00e+00	0	43	0	1374683136	46	3861
2026-01-24 11:02:10.62	126.56	31.14	-37.4	-38.1	25.0	0.00e+00	0	43	0	1379926016	46	3902
2026-01-24 11:02:11.63	126.46	31.33	-37.3	-38.1	25.1	0.00e+00	0	43	0	1386217472	46	3883
2026-01-24 11:02:12.64	126.35	31.52	-37.4	-38.1	25.0	0.00e+00	0	43	0	1391460352	46	3899
2026-01-24 11:02:13.65	126.24	31.72	-37.2	-37.9	25.2	0.00e+00	0	43	0	1397751808	46	3818
2026-01-24 11:02:14.65	126.13	31.91	-37.2	-38.0	25.2	0.00e+00	0	43	0	1402994688	46	3827
2026-01-24 11:02:15.66	126.02	32.11	-37.4	-38.1	25.5	0.00e+00	0	43	0	1408237568	46	3888
2026-01-24 11:02:16.67	125.91	32.31	-37.4	-38.1	25.5	0.00e+00	0	43	0	1414529024	46	3901
2026-01-24 11:02:17.68	125.80	32.51	-37.4	-38.1	25.5	0.00e+00	0	43	0	1420820480	46	3884
2026-01-24 11:02:18.69	125.68	32.71	-37.5	-38.2	25.4	0.00e+00	0	43	0	1426063360	46	3936
2026-01-24 11:02:19.69	125.57	32.91	-37.2	-37.9	25.7	0.00e+00	0	43	0	1431306240	46	3788
2026-01-24 11:02:20.70	125.45	33.12	-37.3	-38.0	25.6	0.00e+00	0	43	0	1437597696	46	3832
2026-01-24 11:02:21.71	125.33	33.32	-37.2	-37.9	25.7	0.00e+00	0	43	0	1442840576	46	3801
2026-01-24 11:02:22.72	125.21	33.53	-37.2	-37.9	25.7	0.00e+00	0	43	0	1448083456	46	3791
2026-01-24 11:02:23.73	125.08	33.73	-37.3	-38.0	25.6	0.00e+00	0	43	0	1454374912	46	3832
2026-01-24 11:02:24.73	124.96	33.94	-37.2	-37.9	25.7	0.00e+00	0	43	0	1459617792	46	3786
2026-01-24 11:02:25.74	124.84	34.15	-37.3	-37.9	25.7	0.00e+00	0	43	0	1464860672	46	3822
2026-01-24 11:02:26.75	124.71	34.36	-37.2	-37.9	25.7	0.00e+00	0	43	0	1471152128	46	3809
2026-01-24 11:02:27.76	124.58	34.57	-37.2	-37.9	25.7	0.00e+00	0	43	0	1476395008	46	3817
2026-01-24 11:02:28.77	124.45	34.79	-37.3	-38.0	25.6	0.00e+00	0	43	0	1482686464	46	3848
2026-01-24 11:02:29.77	124.32	35.00	-37.2	-37.9	25.7	0.00e+00	0	43	0	1487929344	46	3784
2026-01-24 11:02:30.78	124.18	35.22	-37.2	-37.9	25.7	0.00e+00	0	43	0	1494220800	46	3809
2026-01-24 11:02:31.79	124.04	35.44	-37.1	-37.8	25.8	0.00e+00	0	43	0	1499463680	46	3773
2026-01-24 11:02:32.80	123.91	35.65	-37.1	-37.8	25.8	0.00e+00	0	43	0	1505755136	46	3760
2026-01-24 11:02:33.81	123.77	35.87	-37.1	-37.8	25.8	0.00e+00	0	43	0	1510998016	46	3738
2026-01-24 11:02:34.81	123.62	36.09	-37.1	-37.8	25.8	0.00e+00	0	43	0	1516240896	46	3741
2026-01-24 11:02:35.82	123.48	36.32	-37.1	-37.8	25.8	0.00e+00	0	43	0	1522532352	46	3742
2026-01-24 11:02:36.83	123.33	36.54	-37.3	-38.0	25.6	0.00e+00	0	43	0	1527775232	46	3844
2026-01-24 11:02:37.84	123.19	36.77	-37.3	-38.0	25.7	0.00e+00	0	43	0	1533018112	46	3838
2026-01-24 11:02:38.85	123.03	36.99	-37.3	-38.0	25.6	0.00e+00	0	43	0	1539309568	46	3854
2026-01-24 11:02:39.85	122.88	37.22	-37.3	-38.0	25.7	0.00e+00	0	43	0	1544552448	46	3835
2026-01-24 11:02:40.86	122.73	37.45	-37.3	-38.0	25.6	0.00e+00	0	43	0	1549795328	46	3849
2026-01-24 11:02:41.87	122.57	37.68	-37.4	-38.1	25.6	0.00e+00	0	43	0	1556086784	46	3886
2026-01-24 11:02:42.88	122.41	37.91	-37.5	-38.2	25.5	0.00e+00	0	43	0	1562378240	46	3938
2026-01-24 11:02:43.89	122.25	38.14	-37.4	-38.1	25.5	0.00e+00	0	43	0	1567621120	46	3911
2026-01-24 11:02:44.89	122.09	38.38	-37.5	-38.2	25.5	0.00e+00	0	43	0	1572864000	46	3939
2026-01-24 11:02:45.90	121.92	38.61	-37.5	-38.2	25.4	0.00e+00	0	43	0	1579155456	46	3932
2026-01-24 11:02:46.91	121.75	38.85	-37.5	-38.2	25.4	0.00e+00	0	43	0	1584398336	46	3954
2026-01-24 11:02:47.92	121.58	39.09	-37.5	-38.2	25.4	0.00e+00	0	43	0	1590689792	46	3940
2026-01-24 11:02:48.93	121.41	39.33	-37.5	-38.2	25.4	0.00e+00	0	43	0	1595932672	46	3944
2026-01-24 11:02:49.94	121.23	39.57	-37.4	-38.2	25.5	0.00e+00	0	43	0	1601175552	46	3920
2026-01-24 11:02:50.95	121.05	39.81	-37.4	-38.1	25.6	0.00e+00	0	43	0	1607467008	46	3902
2026-01-24 11:02:51.95	120.87	40.06	-37.4	-38.1	25.6	0.00e+00	0	43	0	1612709888	46	3878
2026-01-24 11:02:52.96	120.68	40.30	-37.4	-38.1	25.5	0.00e+00	0	43	0	1617952768	46	3905
2026-01-24 11:02:53.97	120.50	40.55	-37.6	-38.3	25.4	0.00e+00	0	43	0	1624244224	46	4002
2026-01-24 11:02:54.98	120.31	40.80	-37.8	-38.5	25.2	0.00e+00	0	43	0	1630535680	46	4093
2026-01-24 11:02:55.99	120.11	41.05	-37.9	-38.6	25.2	0.00e+00	0	43	0	1635778560	46	4123
2026-01-24 11:02:56.99	119.92	41.30	-37.9	-38.6	25.2	0.00e+00	0	43	0	1641021440	46	4126
2026-01-24 11:02:58.00	119.72	41.55	-37.7	-38.4	25.4	0.00e+00	0	43	0	1647312896	46	4018
2026-01-24 11:02:59.01	119.51	41.80	-37.6	-38.3	25.4	0.00e+00	0	43	0	1652555776	46	3978
2026-01-24 11:03:00.02	119.31	42.06	-37.8	-38.5	25.3	0.00e+00	0	43	0	1657798656	46	4054
2026-01-24 11:03:01.03	119.10	42.31	-37.7	-38.4	25.3	0.00e+00	0	43	0	1664090112	46	4048
2026-01-24 11:03:02.03	118.89	42.57	-37.8	-38.6	25.2	0.00e+00	0	43	0	1669332992	46	4107
2026-01-24 11:03:03.04	118.67	42.83	-37.8	-38.5	25.2	0.00e+00	0	43	0	1675624448	46	4090
2026-01-24 11:03:04.05	118.45	43.09	-37.9	-38.6	25.1	0.00e+00	0	43	0	1680867328	46	4127
2026-01-24 11:03:05.06	118.22	43.35	-37.8	-38.5	25.2	0.00e+00	0	43	0	1686110208	46	4085
2026-01-24 11:03:06.06	118.00	43.61	-37.9	-38.6	25.1	0.00e+00	0	43	0	1692401664	46	4134
2026-01-24 11:03:07.07	117.77	43.88	-37.8	-38.6	25.2	0.00e+00	0	43	0	1698693120	46	4102
2026-01-24 11:03:08.08	117.53	44.14	-37.8	-38.6	25.2	0.00e+00	0	43	0	1703936000	46	4099
2026-01-24 11:03:09.09	117.29	44.41	-38.0	-38.7	25.1	0.00e+00	0	43	0	1709178880	46	4152
2026-01-24 11:03:10.09	117.05	44.67	-38.1	-38.8	25.0	0.00e+00	0	43	0	1715470336	46	4216
2026-01-24 11:03:11.10	116.80	44.94	-38.0	-38.7	25.0	0.00e+00	0	43	0	1720713216	46	4188
2026-01-24 11:03:12.11	116.55	45.21	-37.9	-38.6	25.1	0.00e+00	0	43	0	1725956096	46	4139
2026-01-24 11:03:13.12	116.29	45.49	-37.7	-38.4	25.3	0.00e+00	0	43	0	1732247552	46	4037
2026-01-24 11:03:14.13	116.03	45.76	-37.6	-38.3	25.3	0.00e+00	0	43	0	1737490432	46	4004
2026-01-24 11:03:15.13	115.77	46.03	-37.6	-38.3	25.4	0.00e+00	0	43	0	1742733312	46	3983
2026-01-24 11:03:16.14	115.50	46.30	-37.7	-38.3	25.4	0.00e+00	0	43	0	1749024768	46	4004
2026-01-24 11:03:17.15	115.23	46.58	-37.8	-38.5	25.3	0.00e+00	0	43	0	1754267648	46	4072
2026-01-24 11:03:18.16	114.95	46.86	-38.0	-38.8	25.0	0.00e+00	0	43	0	1760559104	46	4194
2026-01-24 11:03:19.17	114.66	47.14	-38.1	-38.9	24.9	0.00e+00	0	43	0	1765801984	46	4251
2026-01-24 11:03:20.18	114.37	47.42	-38.3	-39.0	24.8	0.00e+00	0	43	0	1772093440	47	4087
2026-01-24 11:03:21.19	114.07	47.70	-38.4	-39.1	24.7	0.00e+00	0	43	0	1777336320	47	4120
2026-01-24 11:03:22.20	113.77	47.98	-38.1	-38.8	24.9	0.00e+00	0	43	0	1783627776	47	3997
2026-01-24 11:03:23.20	113.47	48.26	-38.2	-38.9	24.9	0.00e+00	0	43	0	1788870656	47	4040
2026-01-24 11:03:24.21	113.16	48.54	-38.3	-39.0	24.8	0.00e+00	0	43	0	1794113536	47	4082
2026-01-24 11:03:25.22	112.84	48.83	-38.6	-39.3	24.5	0.00e+00	0	43	0	1800404992	47	4223
2026-01-24 11:03:26.23	112.51	49.11	-38.5	-39.2	24.6	0.00e+00	0	43	0	1805647872	47	4190
2026-01-24 11:03:27.24	112.18	49.40	-38.4	-39.2	24.7	0.00e+00	0	43	0	1810890752	47	4148
2026-01-24 11:03:28.25	111.85	49.68	-38.3	-39.1	24.8	0.00e+00	0	43	0	1817182208	47	4099
2026-01-24 11:03:29.26	111.50	49.97	-38.7	-39.4	24.5	0.00e+00	0	43	0	1822425088	47	4274
2026-01-24 11:03:30.27	111.15	50.26	-39.2	-40.0	24.4	0.00e+00	0	43	0	1828716544	49	4070
2026-01-24 11:03:31.27	110.80	50.55	-39.1	-39.8	24.6	0.00e+00	0	43	0	1833959424	49	3982
2026-01-24 11:03:32.28	110.44	50.83	-39.0	-39.7	24.7	0.00e+00	0	43	0	1840250880	49	3939
2026-01-24 11:03:33.29	110.07	51.12	-39.0	-39.7	24.7	0.00e+00	0	43	0	1845493760	49	3953
2026-01-24 11:03:34.30	109.69	51.41	-39.1	-39.8	24.7	0.00e+00	0	43	0	1850736640	49	3973
2026-01-24 11:03:35.31	109.30	51.71	-39.0	-39.7	24.7	0.00e+00	0	43	0	1857028096	49	3943
2026-01-24 11:03:36.32	108.91	52.00	-38.9	-39.6	24.9	0.00e+00	0	43	0	1862270976	49	3880
2026-01-24 11:03:37.33	108.51	52.29	-39.0	-39.7	24.8	0.00e+00	0	43	0	1868562432	49	3914
2026-01-24 11:03:38.34	108.10	52.58	-38.7	-39.4	25.0	0.00e+00	0	43	0	1873805312	49	3784
2026-01-24 11:03:39.35	107.69	52.87	-38.5	-39.2	25.2	0.00e+00	0	43	0	1879048192	48	3924
2026-01-24 11:03:40.35	107.26	53.16	-38.8	-39.5	25.0	0.00e+00	0	43	0	1885339648	48	4063
2026-01-24 11:03:41.36	106.83	53.45	-39.0	-39.8	24.7	0.00e+00	0	43	0	1890582528	48	4197
2026-01-24 11:03:42.37	106.39	53.75	-39.0	-39.7	24.7	0.00e+00	0	43	0	1896873984	48	4188
2026-01-24 11:03:43.38	105.93	54.04	-38.8	-39.5	24.9	0.00e+00	0	43	0	1902116864	48	4091
2026-01-24 11:03:44.39	105.47	54.33	-38.6	-39.3	25.1	0.00e+00	0	43	0	1908408320	48	3982
2026-01-24 11:03:45.40	105.00	54.62	-38.4	-39.1	25.3	0.00e+00	0	43	0	1913651200	48	3892
2026-01-24 11:03:46.41	104.52	54.91	-38.5	-39.2	25.2	0.00e+00	0	43	0	1918894080	48	3939
2026-01-24 11:03:47.41	104.04	55.20	-38.6	-39.3	25.1	0.00e+00	0	43	0	1925185536	48	3992
2026-01-24 11:03:48.42	103.54	55.49	-38.5	-39.2	25.2	0.00e+00	0	43	0	1930428416	48	3947
2026-01-24 11:03:49.43	103.02	55.78	-38.7	-39.5	25.0	0.00e+00	0	43	0	1935671296	48	4053
2026-01-24 11:03:50.44	102.50	56.07	-39.2	-39.9	24.9	0.00e+00	0	43	0	1941962752	48	4287
2026-01-24 11:03:51.45	101.97	56.36	-39.4	-40.1	24.6	0.00e+00	0	43	0	1947205632	49	4135
2026-01-24 11:03:52.46	101.42	56.64	-39.3	-40.0	24.6	0.00e+00	0	43	0	1953497088	49	4085
2026-01-24 11:03:53.46	100.87	56.93	-38.9	-39.6	25.0	0.00e+00	0	43	0	1958739968	49	3913
2026-01-24 11:03:54.47	100.31	57.21	-38.8	-39.5	25.1	0.00e+00	0	43	0	1965031424	49	3864
2026-01-24 11:03:55.48	99.73	57.49	-38.8	-39.5	25.1	0.00e+00	0	43	0	1970274304	49	3835
2026-01-24 11:03:56.49	99.14	57.77	-38.7	-39.5	25.1	0.00e+00	0	43	0	1976565760	49	3829
2026-01-24 11:03:57.50	98.53	58.05	-38.8	-39.5	25.0	0.00e+00	0	43	0	1981808640	49	3860
2026-01-24 11:03:58.51	97.92	58.33	-38.9	-39.6	25.0	0.00e+00	0	43	0	1987051520	49	3887
2026-01-24 11:03:59.52	97.29	58.61	-38.6	-39.3	25.2	0.00e+00	0	43	0	1993342976	49	3774
2026-01-24 11:04:00.53	96.64	58.88	-38.6	-39.2	25.3	0.00e+00	0	43	0	1998585856	49	3735
2026-01-24 11:04:01.53	95.99	59.15	-38.6	-39.3	25.3	0.00e+00	0	43	0	2003828736	49	3750
2026-01-24 11:04:02.54	95.32	59.42	-38.7	-39.4	25.1	0.00e+00	0	43	0	2010120192	49	3814
2026-01-24 11:04:03.56	94.63	59.69	-38.9	-39.6	25.0	0.00e+00	0	43	0	2015363072	49	3883
2026-01-24 11:04:04.56	93.94	59.95	-38.8	-39.5	25.0	0.00e+00	0	43	0	2020605952	49	3857
2026-01-24 11:04:05.57	93.23	60.22	-38.6	-39.3	25.2	0.00e+00	0	43	0	2026897408	49	3773
2026-01-24 11:04:06.58	92.50	60.48	-38.6	-39.2	25.3	0.00e+00	0	43	0	2033188864	49	3729
2026-01-24 11:04:07.59	91.76	60.73	-38.8	-39.5	25.1	0.00e+00	0	43	0	2038431744	48	4061
2026-01-24 11:04:08.60	91.00	60.98	-38.5	-39.3	25.3	0.00e+00	0	43	0	2043674624	48	3964
2026-01-24 11:04:09.61	90.23	61.23	-38.3	-39.0	25.5	0.00e+00	0	43	0	2049966080	48	3868
2026-01-24 11:04:10.62	89.44	61.48	-38.3	-39.0	25.5	0.00e+00	0	43	0	2055208960	48	3837
2026-01-24 11:04:11.62	88.64	61.72	-37.6	-38.3	25.6	0.00e+00	0	43	0	2061500416	47	3758
2026-01-24 11:04:12.63	87.82	61.95	-37.6	-38.3	25.6	0.00e+00	0	43	0	2066743296	47	3746
2026-01-24 11:04:13.64	86.99	62.19	-37.7	-38.5	25.6	0.00e+00	0	43	0	2071986176	47	3825
2026-01-24 11:04:14.64	86.14	62.41	-37.8	-38.5	25.5	0.00e+00	0	43	0	2078277632	47	3858
2026-01-24 11:04:15.65	85.28	62.63	-38.0	-38.7	25.5	0.00e+00	0	43	0	2083520512	47	3938
2026-01-24 11:04:16.66	84.39	62.85	-37.3	-38.0	25.9	0.00e+00	0	43	0	2088763392	46	3860
2026-01-24 11:04:17.67	83.49	63.07	-36.9	-37.6	26.2	0.00e+00	0	43	0	2095054848	45	3892
2026-01-24 11:04:18.68	82.58	63.27	-37.3	-38.0	25.9	0.00e+00	0	43	0	2101346304	45	4073
2026-01-24 11:04:19.69	81.64	63.48	-37.2	-37.9	26.0	0.00e+00	0	43	0	2106589184	45	4038
2026-01-24 11:04:20.69	80.71	63.67	-37.0	-37.7	26.1	0.00e+00	0	43	0	2111832064	45	3943
2026-01-24 11:04:21.70	79.74	63.86	-37.0	-37.7	26.1	0.00e+00	0	43	0	2118123520	45	3938
2026-01-24 11:04:22.71	78.76	64.05	-37.2	-37.9	25.9	0.00e+00	0	43	0	2123366400	45	4045
2026-01-24 11:04:23.72	77.77	64.22	-37.1	-37.8	26.1	0.00e+00	0	43	0	2128609280	45	3978
2026-01-24 11:04:24.73	76.76	64.39	-36.5	-37.2	26.6	0.00e+00	0	43	0	2134900736	45	3703
2026-01-24 11:04:25.73	75.74	64.56	-36.4	-37.0	26.7	0.00e+00	0	43	0	2140143616	44	3861
2026-01-24 11:04:26.74	74.70	64.71	-36.7	-37.4	26.4	0.00e+00	0	43	0	2146435072	44	4027
2026-01-24 11:04:27.75	73.65	64.86	-37.0	-37.7	26.1	0.00e+00	0	43	0	2151677952	44	4175
2026-01-24 11:04:28.76	72.58	65.01	-36.6	-37.3	26.4	0.00e+00	0	43	0	2156920832	44	3989
2026-01-24 11:04:29.77	71.50	65.14	-36.6	-37.2	26.5	0.00e+00	0	43	0	2163212288	44	3948
2026-01-24 11:04:30.78	70.41	65.27	-36.7	-37.3	26.4	0.00e+00	0	43	0	2169503744	44	3999
2026-01-24 11:04:31.79	69.31	65.39	-36.5	-37.2	26.6	0.00e+00	0	43	0	2174746624	44	3937
2026-01-24 11:04:32.79	68.20	65.50	-36.6	-37.3	26.5	0.00e+00	0	43	0	2179989504	44	3976
2026-01-24 11:04:33.80	67.07	65.60	-36.5	-37.2	26.5	0.00e+00	0	43	0	2186280960	44	3938
2026-01-24 11:04:34.81	65.93	65.69	-36.7	-37.4	26.4	0.00e+00	0	43	0	2191523840	44	4038
2026-01-24 11:04:35.82	64.79	65.78	-36.6	-37.3	26.4	0.00e+00	0	43	0	2196766720	44	3975
2026-01-24 11:04:36.83	63.63	65.85	-36.5	-37.1	26.7	0.00e+00	0	43	0	2203058176	44	3901
2026-01-24 11:04:37.84	62.47	65.92	-36.4	-37.0	26.8	0.00e+00	0	43	0	2208301056	44	3848
2026-01-24 11:04:38.85	61.30	65.98	-36.1	-36.8	26.9	0.00e+00	0	43	0	2213543936	44	3752
2026-01-24 11:04:39.85	60.14	66.03	-36.4	-37.1	26.7	0.00e+00	0	43	0	2219835392	44	3879
2026-01-24 11:04:40.86	58.96	66.07	-36.4	-37.1	26.7	0.00e+00	0	43	0	2225078272	44	3879
2026-01-24 11:04:41.87	57.77	66.10	-36.5	-37.2	26.6	0.00e+00	0	43	0	2231369728	44	3943
2026-01-24 11:04:42.88	56.59	66.12	-36.6	-37.2	26.6	0.00e+00	0	43	0	2236612608	44	3949
2026-01-24 11:04:43.89	55.40	66.13	-36.3	-37.0	26.7	0.00e+00	0	43	0	2242904064	44	3843
2026-01-24 11:04:44.90	54.21	66.13	-36.4	-37.1	26.6	0.00e+00	0	43	0	2248146944	44	3889
2026-01-24 11:04:45.90	53.03	66.13	-36.5	-37.2	26.6	0.00e+00	0	43	0	2254438400	44	3944
2026-01-24 11:04:46.91	51.84	66.11	-36.6	-37.3	26.5	0.00e+00	0	43	0	2259681280	44	3971
2026-01-24 11:04:47.92	50.66	66.09	-36.5	-37.2	26.6	0.00e+00	0	43	0	2264924160	44	3930
2026-01-24 11:04:48.93	49.47	66.05	-36.5	-37.2	26.6	0.00e+00	0	43	0	2271215616	44	3920
2026-01-24 11:04:49.94	48.30	66.01	-36.3	-37.0	26.7	0.00e+00	0	43	0	2276458496	44	3837
2026-01-24 11:04:50.95	47.12	65.95	-36.3	-37.0	26.8	0.00e+00	0	43	0	2281701376	44	3833
2026-01-24 11:04:51.96	45.96	65.89	-36.4	-37.1	26.7	0.00e+00	0	43	0	2287992832	44	3878
2026-01-24 11:04:52.97	44.80	65.82	-36.6	-37.2	26.6	0.00e+00	0	43	0	2294284288	44	3956
2026-01-24 11:04:53.97	43.66	65.74	-36.4	-37.1	26.7	0.00e+00	0	43	0	2299527168	44	3873
2026-01-24 11:04:54.98	42.51	65.65	-36.3	-36.9	26.8	0.00e+00	0	43	0	2304770048	44	3813
2026-01-24 11:04:55.99	41.38	65.56	-36.3	-37.0	26.8	0.00e+00	0	43	0	2311061504	44	3829
2026-01-24 11:04:57.00	40.26	65.45	-36.5	-37.2	26.5	0.00e+00	0	43	0	2316304384	44	3939
2026-01-24 11:04:58.01	39.15	65.34	-36.6	-37.3	26.4	0.00e+00	0	43	0	2321547264	44	3991
2026-01-24 11:04:59.01	38.06	65.22	-36.6	-37.3	26.4	0.00e+00	0	43	0	2327838720	44	3989
2026-01-24 11:05:00.02	36.97	65.09	-36.7	-37.4	26.4	0.00e+00	0	43	0	2333081600	44	4024
2026-01-24 11:05:01.03	35.90	64.95	-37.1	-37.8	26.1	0.00e+00	0	43	0	2339373056	44	4201
2026-01-24 11:05:02.04	34.84	64.80	-37.2	-37.9	26.0	0.00e+00	0	43	0	2344615936	45	4022
2026-01-24 11:05:03.05	33.79	64.65	-37.3	-37.9	25.9	0.00e+00	0	43	0	2349858816	45	4045
2026-01-24 11:05:04.06	32.76	64.49	-37.2	-37.9	26.0	0.00e+00	0	43	0	2356150272	45	4034
2026-01-24 11:05:05.07	31.74	64.32	-37.3	-38.0	26.0	0.00e+00	0	43	0	2362441728	45	4076
2026-01-24 11:05:06.07	30.75	64.15	-37.1	-37.8	26.1	0.00e+00	0	43	0	2367684608	45	3987
2026-01-24 11:05:07.08	29.76	63.97	-37.1	-37.8	26.1	0.00e+00	0	43	0	2372927488	45	3992
2026-01-24 11:05:08.09	28.79	63.78	-37.1	-37.8	26.1	0.00e+00	0	43	0	2379218944	45	3965
2026-01-24 11:05:09.10	27.83	63.59	-37.1	-37.8	26.1	0.00e+00	0	43	0	2384461824	45	3974
2026-01-24 11:05:10.10	26.90	63.39	-37.0	-37.7	26.1	0.00e+00	0	43	0	2389704704	45	3948
2026-01-24 11:05:11.11	25.97	63.19	-36.9	-37.6	26.3	0.00e+00	0	43	0	2395996160	45	3875
2026-01-24 11:05:12.12	25.07	62.98	-37.1	-37.8	26.0	0.00e+00	0	43	0	2401239040	45	3989
2026-01-24 11:05:13.13	24.17	62.76	-37.6	-38.3	25.6	0.00e+00	0	43	0	2406481920	45	4230
2026-01-24 11:05:14.14	23.30	62.54	-37.7	-38.4	25.5	0.00e+00	0	43	0	2412773376	46	4022
2026-01-24 11:05:15.15	22.44	62.32	-37.4	-38.0	25.8	0.00e+00	0	43	0	2418016256	46	3867
2026-01-24 11:05:16.16	21.59	62.09	-37.2	-37.8	26.0	0.00e+00	0	43	0	2424307712	46	3774
2026-01-24 11:05:17.17	20.77	61.86	-37.4	-38.1	25.8	0.00e+00	0	43	0	2429550592	46	3897
2026-01-24 11:05:18.17	19.96	61.62	-37.3	-38.0	25.9	0.00e+00	0	43	0	2435842048	46	3837
2026-01-24 11:05:19.18	19.17	61.38	-37.2	-37.9	26.0	0.00e+00	0	43	0	2441084928	46	3807
2026-01-24 11:05:20.19	18.38	61.13	-37.3	-38.0	25.9	0.00e+00	0	43	0	2447376384	46	3841
2026-01-24 11:05:21.20	17.62	60.88	-37.7	-38.4	25.5	0.00e+00	0	43	0	2452619264	46	4032
2026-01-24 11:05:22.21	16.87	60.63	-38.1	-38.8	25.2	0.00e+00	0	43	0	2457862144	46	4222
2026-01-24 11:05:23.21	16.14	60.37	-37.8	-38.6	25.4	0.00e+00	0	43	0	2464153600	46	4103
2026-01-24 11:05:24.22	15.42	60.11	-37.8	-38.5	25.5	0.00e+00	0	43	0	2469396480	46	4062
2026-01-24 11:05:25.23	14.71	59.85	-37.8	-38.5	25.5	0.00e+00	0	43	0	2474639360	46	4082
2026-01-24 11:05:26.24	14.02	59.59	-37.8	-38.5	25.5	0.00e+00	0	43	0	2480930816	46	4095
2026-01-24 11:05:27.25	13.34	59.32	-37.9	-38.6	25.5	0.00e+00	0	43	0	2486173696	46	4110
2026-01-24 11:05:28.25	12.69	59.05	-37.9	-38.5	25.5	0.00e+00	0	43	0	2491416576	46	4098
2026-01-24 11:05:29.26	12.04	58.78	-37.7	-38.4	25.6	0.00e+00	0	43	0	2497708032	46	4006
2026-01-24 11:05:30.27	11.40	58.50	-37.6	-38.3	25.7	0.00e+00	0	43	0	2503999488	46	3992
2026-01-24 11:05:31.28	10.78	58.23	-37.7	-38.4	25.6	0.00e+00	0	43	0	2509242368	46	4022
2026-01-24 11:05:32.29	10.16	57.95	-37.8	-38.5	25.6	0.00e+00	0	43	0	2514485248	46	4066
2026-01-24 11:05:33.30	9.57	57.67	-38.1	-38.8	25.2	0.00e+00	0	43	0	2520776704	46	4234
2026-01-24 11:05:34.31	8.98	57.39	-38.4	-39.1	25.0	0.00e+00	0	43	0	2526019584	47	4131
2026-01-24 11:05:35.32	8.41	57.10	-38.4	-39.1	24.9	0.00e+00	0	43	0	2532311040	47	4123
2026-01-24 11:05:36.32	7.85	56.82	-38.3	-39.1	25.0	0.00e+00	0	43	0	2537553920	47	4107
2026-01-24 11:05:37.33	7.30	56.54	-38.3	-39.0	25.1	0.00e+00	0	43	0	2542796800	47	4062
2026-01-24 11:05:38.34	6.76	56.25	-38.1	-38.9	25.2	0.00e+00	0	43	0	2549088256	47	4012
2026-01-24 11:05:39.35	6.23	55.96	-37.9	-38.6	25.3	0.00e+00	0	43	0	2554331136	47	3908
2026-01-24 11:05:40.35	5.72	55.68	-38.0	-38.6	25.3	0.00e+00	0	43	0	2559574016	47	3906
2026-01-24 11:05:41.36	5.22	55.39	-38.0	-38.7	25.3	0.00e+00	0	43	0	2565865472	47	3930
2026-01-24 11:05:42.37	4.72	55.10	-38.3	-39.1	25.0	0.00e+00	0	43	0	2572156928	47	4111
2026-01-24 11:05:43.38	4.23	54.81	-38.6	-39.3	24.9	0.00e+00	0	43	0	2577399808	47	4239
2026-01-24 11:05:44.39	3.76	54.52	-38.5	-39.2	25.1	0.00e+00	0	43	0	2582642688	47	4169
2026-01-24 11:05:45.40	3.29	54.22	-38.3	-39.0	25.1	0.00e+00	0	43	0	2588934144	47	4085
2026-01-24 11:05:46.41	2.83	53.93	-38.1	-38.8	25.3	0.00e+00	0	43	0	2594177024	47	3993
2026-01-24 11:05:47.41	2.39	53.65	-38.5	-39.2	24.9	0.00e+00	0	43	0	2599419904	47	4163
2026-01-24 11:05:48.42	1.95	53.35	-39.2	-39.9	24.8	0.00e+00	0	43	0	2605711360	48	4288
2026-01-24 11:05:49.43	1.52	53.06	-39.3	-40.0	24.8	0.00e+00	0	43	0	2610954240	49	4066
2026-01-24 11:05:50.44	1.10	52.77	-38.9	-39.6	25.1	0.00e+00	0	43	0	2617245696	49	3900
2026-01-24 11:05:51.45	0.69	52.48	-38.6	-39.3	25.4	0.00e+00	0	43	0	2622488576	49	3763
2026-01-24 11:05:52.45	0.29	52.19	-38.7	-39.4	25.3	0.00e+00	0	43	0	2627731456	49	3798
2026-01-24 11:05:53.46	359.89	51.90	-38.8	-39.4	25.2	0.00e+00	0	43	0	2634022912	49	3824
2026-01-24 11:05:54.47	359.50	51.61	-38.3	-39.0	25.6	0.00e+00	0	43	0	2640314368	48	3827
2026-01-24 11:05:55.48	359.12	51.32	-38.3	-38.9	25.6	0.00e+00	0	43	0	2645557248	48	3820
2026-01-24 11:05:56.49	358.74	51.03	-38.4	-39.1	25.5	0.00e+00	0	43	0	2650800128	48	3882
2026-01-24 11:05:57.50	358.38	50.74	-38.5	-39.2	25.4	0.00e+00	0	43	0	2657091584	48	3946
2026-01-24 11:05:58.51	358.02	50.45	-38.3	-39.0	25.5	0.00e+00	0	43	0	2662334464	48	3846
2026-01-24 11:05:59.51	357.67	50.17	-38.1	-38.8	25.7	0.00e+00	0	43	0	2667577344	48	3762
2026-01-24 11:06:00.52	357.32	49.88	-37.6	-38.3	25.6	0.00e+00	0	43	0	2673868800	47	3765
2026-01-24 11:06:01.53	356.98	49.59	-37.5	-38.2	25.8	0.00e+00	0	43	0	2679111680	46	3920
2026-01-24 11:06:02.54	356.65	49.31	-37.5	-38.2	25.7	0.00e+00	0	43	0	2684354560	46	3935
2026-01-24 11:06:03.55	356.32	49.02	-37.6	-38.3	25.6	0.00e+00	0	43	0	2690646016	46	3991
2026-01-24 11:06:04.55	356.00	48.74	-37.7	-38.4	25.5	0.00e+00	0	43	0	2695888896	46	4043
2026-01-24 11:06:05.56	355.69	48.46	-37.8	-38.5	25.4	0.00e+00	0	43	0	2702180352	46	4073
2026-01-24 11:06:06.57	355.38	48.18	-37.8	-38.5	25.4	0.00e+00	0	43	0	2707423232	46	4081
2026-01-24 11:06:07.58	355.07	47.90	-37.5	-38.2	25.7	0.00e+00	0	43	0	2713714688	46	3942
2026-01-24 11:06:08.59	354.77	47.61	-37.4	-38.1	25.8	0.00e+00	0	43	0	2718957568	46	3886
2026-01-24 11:06:09.59	354.48	47.34	-37.3	-38.0	25.8	0.00e+00	0	43	0	2725249024	46	3851
2026-01-24 11:06:10.60	354.19	47.06	-37.3	-38.0	25.8	0.00e+00	0	43	0	2730491904	46	3860
2026-01-24 11:06:11.61	353.91	46.78	-37.3	-38.0	25.9	0.00e+00	0	42	0	2735734784	46	3831
2026-01-24 11:06:12.62	353.63	46.51	-37.2	-37.9	26.0	0.00e+00	0	43	0	2742026240	46	3799
2026-01-24 11:06:13.63	353.36	46.23	-37.2	-37.9	26.0	0.00e+00	0	42	0	2747269120	46	3796
2026-01-24 11:06:14.63	353.10	45.96	-37.1	-37.7	26.1	0.00e+00	0	42	0	2752512000	46	3726
2026-01-24 11:06:15.64	352.83	45.69	-37.1	-37.7	26.0	0.00e+00	0	43	0	2758803456	46	3732
2026-01-24 11:06:16.65	352.57	45.41	-37.3	-38.0	25.8	0.00e+00	0	43	0	2764046336	46	3837
2026-01-24 11:06:17.66	352.32	45.14	-37.3	-38.0	25.8	0.00e+00	0	43	0	2769289216	46	3863
2026-01-24 11:06:18.67	352.07	44.87	-37.4	-38.1	25.8	0.00e+00	0	43	0	2775580672	46	3877
2026-01-24 11:06:19.67	351.83	44.61	-37.4	-38.1	25.7	0.00e+00	0	43	0	2781872128	46	3893
2026-01-24 11:06:20.68	351.58	44.34	-37.3	-38.0	25.9	0.00e+00	0	43	0	2787115008	46	3832
2026-01-24 11:06:21.69	351.35	44.08	-37.3	-38.0	25.9	0.00e+00	0	43	0	2792357888	46	3849
2026-01-24 11:06:22.70	351.11	43.81	-37.5	-38.2	25.6	0.00e+00	0	43	0	2798649344	46	3946
2026-01-24 11:06:23.70	350.89	43.55	-37.3	-38.0	25.8	0.00e+00	0	43	0	2803892224	46	3864
2026-01-24 11:06:24.71	350.66	43.29	-37.3	-38.0	25.8	0.00e+00	0	43	0	2810183680	46	3854
2026-01-24 11:06:25.72	350.44	43.03	-37.3	-38.0	25.8	0.00e+00	0	43	0	2815426560	46	3868
2026-01-24 11:06:26.73	350.22	42.77	-37.3	-38.0	25.8	0.00e+00	0	43	0	2820669440	46	3844
2026-01-24 11:06:27.74	350.00	42.51	-37.1	-37.8	26.0	0.00e+00	0	42	0	2826960896	46	3746
2026-01-24 11:06:28.75	349.79	42.26	-36.9	-37.6	26.1	0.00e+00	0	43	0	2832203776	45	3898
2026-01-24 11:06:29.76	349.58	42.00	-36.9	-37.5	26.2	0.00e+00	0	43	0	2837446656	45	3861
2026-01-24 11:06:30.77	349.38	41.75	-36.8	-37.5	26.3	0.00e+00	0	43	0	2843738112	45	3831
2026-01-24 11:06:31.77	349.18	41.50	-36.7	-37.4	26.3	0.00e+00	0	43	0	2850029568	45	3790
2026-01-24 11:06:32.78	348.98	41.24	-36.8	-37.5	26.2	0.00e+00	0	43	0	2855272448	45	3849
2026-01-24 11:06:33.79	348.79	40.99	-36.8	-37.5	26.3	0.00e+00	0	43	0	2860515328	45	3829
2026-01-24 11:06:34.80	348.59	40.75	-36.9	-37.6	26.2	0.00e+00	0	43	0	2866806784	45	3878
2026-01-24 11:06:35.81	348.40	40.50	-37.0	-37.7	26.0	0.00e+00	0	43	0	2872049664	45	3931
2026-01-24 11:06:36.81	348.22	40.25	-37.1	-37.8	25.9	0.00e+00	0	43	0	2877292544	45	3979
2026-01-24 11:06:37.82	348.04	40.01	-37.0	-37.7	26.0	0.00e+00	0	43	0	2883584000	45	3948
2026-01-24 11:06:38.83	347.85	39.77	-37.0	-37.7	26.0	0.00e+00	0	43	0	2888826880	45	3939
2026-01-24 11:06:39.84	347.68	39.53	-37.0	-37.7	26.0	0.00e+00	0	43	0	2895118336	45	3948
2026-01-24 11:06:40.84	347.50	39.29	-37.1	-37.8	26.0	0.00e+00	0	43	0	2900361216	45	3976
2026-01-24 11:06:41.85	347.33	39.05	-36.9	-37.6	26.1	0.00e+00	0	43	0	2905604096	45	3875
2026-01-24 11:06:42.86	347.16	38.81	-36.8	-37.5	26.2	0.00e+00	0	43	0	2911895552	45	3856
2026-01-24 11:06:43.87	346.99	38.57	-36.9	-37.5	26.2	0.00e+00	0	43	0	2918187008	45	3862
2026-01-24 11:06:44.88	346.83	38.34	-36.9	-37.5	26.1	0.00e+00	0	43	0	2923429888	45	3865
2026-01-24 11:06:45.89	346.66	38.10	-36.9	-37.6	26.2	0.00e+00	0	43	0	2928672768	45	3869
2026-01-24 11:06:46.89	346.51	37.87	-37.0	-37.7	26.0	0.00e+00	0	43	0	2934964224	45	3945
2026-01-24 11:06:47.90	346.35	37.64	-36.9	-37.6	26.1	0.00e+00	0	43	0	2940207104	45	3874
2026-01-24 11:06:48.91	346.19	37.41	-36.8	-37.5	26.2	0.00e+00	0	43	0	2945449984	45	3826
2026-01-24 11:06:49.92	346.04	37.19	-36.8	-37.4	26.2	0.00e+00	0	43	0	2951741440	45	3822
2026-01-24 11:06:50.92	345.89	36.96	-36.7	-37.4	26.3	0.00e+00	0	43	0	2956984320	45	3806
2026-01-24 11:06:51.93	345.74	36.73	-36.7	-37.4	26.3	0.00e+00	0	43	0	2962227200	45	3786
2026-01-24 11:06:52.94	345.59	36.51	-36.8	-37.4	26.2	0.00e+00	0	43	0	2968518656	45	3820
2026-01-24 11:06:53.95	345.45	36.29	-36.9	-37.6	26.1	0.00e+00	0	43	0	2973761536	45	3893
2026-01-24 11:06:54.95	345.30	36.07	-37.1	-37.8	25.9	0.00e+00	0	43	0	2980052992	45	3965
2026-01-24 11:06:55.96	345.16	35.85	-37.2	-37.9	25.9	0.00e+00	0	43	0	2985295872	45	4015
2026-01-24 11:06:56.97	345.02	35.63	-37.1	-37.8	25.9	0.00e+00	0	43	0	2991587328	45	4000
2026-01-24 11:06:57.98	344.89	35.41	-37.0	-37.7	26.0	0.00e+00	0	43	0	2996830208	45	3942
2026-01-24 11:06:58.99	344.75	35.19	-37.1	-37.7	25.9	0.00e+00	0	43	0	3003121664	45	3956
2026-01-24 11:07:00.00	344.62	34.98	-37.0	-37.7	26.0	0.00e+00	0	43	0	3008364544	45	3924
2026-01-24 11:07:01.00	344.49	34.77	-37.1	-37.8	25.9	0.00e+00	0	42	0	3013607424	45	3970
2026-01-24 11:07:02.01	344.36	34.55	-37.2	-37.9	25.8	0.00e+00	0	43	0	3019898880	45	4006
2026-01-24 11:07:03.02	344.23	34.34	-37.3	-38.0	25.7	0.00e+00	0	43	0	3025141760	45	4052
2026-01-24 11:07:04.03	344.10	34.13	-37.3	-38.0	25.7	0.00e+00	0	43	0	3030384640	45	4096
2026-01-24 11:07:05.04	343.98	33.92	-37.4	-38.1	25.6	0.00e+00	0	43	0	3036676096	45	4132
2026-01-24 11:07:06.05	343.85	33.72	-37.3	-38.1	25.7	0.00e+00	0	43	0	3041918976	45	4101
2026-01-24 11:07:07.06	343.73	33.51	-37.2	-37.9	25.8	0.00e+00	0	43	0	3047161856	45	4014
2026-01-24 11:07:08.07	343.61	33.30	-37.3	-38.0	25.6	0.00e+00	0	43	0	3053453312	45	4092
2026-01-24 11:07:09.08	343.49	33.10	-37.2	-37.9	25.8	0.00e+00	0	43	0	3059744768	45	4030
2026-01-24 11:07:10.08	343.38	32.90	-37.2	-37.9	25.7	0.00e+00	0	43	0	3064987648	45	4043
2026-01-24 11:07:11.09	343.26	32.70	-37.1	-37.8	25.8	0.00e+00	0	43	0	3070230528	45	3986
2026-01-24 11:07:12.10	343.15	32.50	-37.1	-37.8	25.9	0.00e+00	0	43	0	3076521984	45	3966
2026-01-24 11:07:13.11	343.03	32.30	-37.1	-37.8	25.9	0.00e+00	0	43	0	3081764864	45	3973
2026-01-24 11:07:14.12	342.92	32.10	-37.0	-37.7	25.9	0.00e+00	0	43	0	3088056320	45	3936
2026-01-24 11:07:15.13	342.81	31.90	-37.1	-37.8	25.8	0.00e+00	0	43	0	3093299200	45	3982
2026-01-24 11:07:16.14	342.70	31.71	-37.1	-37.8	25.8	0.00e+00	0	42	0	3098542080	45	3963
2026-01-24 11:07:17.15	342.60	31.51	-37.0	-37.7	25.9	0.00e+00	0	43	0	3104833536	45	3920
2026-01-24 11:07:18.16	342.49	31.32	-37.0	-37.6	26.0	0.00e+00	0	43	0	3110076416	45	3910
2026-01-24 11:07:19.17	342.38	31.13	-37.0	-37.7	25.9	0.00e+00	0	43	0	3116367872	45	3940
2026-01-24 11:07:20.17	342.28	30.94	-37.1	-37.7	25.8	0.00e+00	0	43	0	3121610752	45	3957
2026-01-24 11:07:21.18	342.18	30.75	-37.1	-37.8	25.8	0.00e+00	0	43	0	3127902208	45	3967
2026-01-24 11:07:22.19	342.08	30.56	-37.1	-37.8	25.8	0.00e+00	0	43	0	3133145088	45	3998
2026-01-24 11:07:23.20	341.98	30.37	-37.1	-37.8	25.8	0.00e+00	0	43	0	3138387968	45	3999
2026-01-24 11:07:24.21	341.88	30.19	-37.2	-37.9	25.7	0.00e+00	0	43	0	3144679424	45	4039
2026-01-24 11:07:25.22	341.78	30.00	-37.2	-37.9	25.7	0.00e+00	0	43	0	3149922304	45	4029
2026-01-24 11:07:26.23	341.69	29.82	-37.2	-38.0	25.7	0.00e+00	0	43	0	3155165184	45	4053
2026-01-24 11:07:27.23	341.59	29.64	-37.3	-38.0	25.6	0.00e+00	0	43	0	3161456640	45	4076
2026-01-24 11:07:28.24	341.50	29.45	-37.3	-38.0	25.6	0.00e+00	0	43	0	3166699520	45	4083
2026-01-24 11:07:29.25	341.41	29.27	-37.3	-38.0	25.6	0.00e+00	0	43	0	3172990976	45	4073
2026-01-24 11:07:30.26	341.32	29.09	-37.3	-38.0	25.6	0.00e+00	0	43	0	3178233856	45	4056
2026-01-24 11:07:31.27	341.22	28.91	-37.3	-38.0	25.6	0.00e+00	0	43	0	3184525312	45	4068
2026-01-24 11:07:32.27	341.14	28.74	-37.3	-38.0	25.6	0.00e+00	0	43	0	3189768192	45	4097
2026-01-24 11:07:33.28	341.05	28.56	-37.2	-37.9	25.6	0.00e+00	0	43	0	3196059648	45	4044
2026-01-24 11:07:34.29	340.96	28.39	-37.1	-37.8	25.8	0.00e+00	0	43	0	3201302528	45	3965
2026-01-24 11:07:35.30	340.87	28.21	-37.1	-37.8	25.7	0.00e+00	0	43	0	3206545408	45	3987
2026-01-24 11:07:36.31	340.79	28.04	-37.1	-37.8	25.8	0.00e+00	0	43	0	3212836864	45	3981
2026-01-24 11:07:37.32	340.70	27.87	-37.1	-37.8	25.8	0.00e+00	0	43	0	3218079744	45	3982
2026-01-24 11:07:38.33	340.62	27.69	-37.0	-37.7	25.8	0.00e+00	0	43	0	3223322624	45	3928
2026-01-24 11:07:39.34	340.54	27.52	-37.2	-37.9	25.7	0.00e+00	0	43	0	3229614080	45	4018
2026-01-24 11:07:40.35	340.45	27.35	-37.3	-38.0	25.6	0.00e+00	0	43	0	3234856960	45	4063
2026-01-24 11:07:41.35	340.37	27.19	-37.3	-38.0	25.6	0.00e+00	0	43	0	3240099840	45	4065
2026-01-24 11:07:42.36	340.29	27.02	-37.3	-38.0	25.6	0.00e+00	0	43	0	3246391296	45	4073
2026-01-24 11:07:43.37	340.21	26.85	-37.4	-38.1	25.5	0.00e+00	0	43	0	3252682752	45	4105
2026-01-24 11:07:44.38	340.14	26.69	-37.4	-38.1	25.4	0.00e+00	0	43	0	3257925632	45	4142
2026-01-24 11:07:45.39	340.06	26.52	-37.5	-38.2	25.4	0.00e+00	0	43	0	3263168512	45	4156
2026-01-24 11:07:46.39	339.98	26.36	-37.5	-38.2	25.4	0.00e+00	0	43	0	3269459968	45	4162
2026-01-24 11:07:47.40	339.91	26.20	-37.4	-38.1	25.4	0.00e+00	0	43	0	3274702848	45	4126
2026-01-24 11:07:48.41	339.83	26.03	-37.5	-38.2	25.3	0.00e+00	0	43	0	3280994304	45	4192
2026-01-24 11:07:49.42	339.76	25.87	-37.5	-38.2	25.3	0.00e+00	0	43	0	3286237184	45	4185
2026-01-24 11:07:50.43	339.68	25.71	-37.4	-38.1	25.4	0.00e+00	0	43	0	3291480064	45	4131
2026-01-24 11:07:51.43	339.61	25.55	-37.4	-38.1	25.4	0.00e+00	0	43	0	3297771520	45	4121
2026-01-24 11:07:52.44	339.54	25.40	-37.4	-38.1	25.4	0.00e+00	0	43	0	3303014400	45	4134
2026-01-24 11:07:53.45	339.47	25.24	-37.6	-38.2	25.4	0.00e+00	0	43	0	3308257280	45	4185
2026-01-24 11:07:54.46	339.40	25.08	-37.5	-38.2	25.4	0.00e+00	0	43	0	3314548736	45	4171
2026-01-24 11:07:55.47	339.33	24.93	-37.6	-38.2	25.3	0.00e+00	0	43	0	3320840192	45	4184
2026-01-24 11:07:56.48	339.26	24.77	-37.7	-38.4	25.2	0.00e+00	0	43	0	3326083072	45	4260
2026-01-24 11:07:57.49	339.19	24.62	-37.7	-38.4	25.2	0.00e+00	0	43	0	3331325952	46	4041
2026-01-24 11:07:58.50	339.12	24.46	-37.8	-38.6	25.0	0.00e+00	0	43	0	3337617408	46	4102
2026-01-24 11:07:59.51	339.06	24.31	-38.0	-38.7	24.9	0.00e+00	0	43	0	3342860288	46	4187
2026-01-24 11:08:00.52	338.99	24.16	-38.1	-38.8	24.8	0.00e+00	0	43	0	3348103168	46	4217
2026-01-24 11:08:01.53	338.93	24.01	-38.1	-38.9	24.8	0.00e+00	0	43	0	3354394624	46	4253
2026-01-24 11:08:02.53	338.86	23.86	-38.2	-38.9	24.7	0.00e+00	0	43	0	3359637504	46	4291
2026-01-24 11:08:03.54	338.80	23.71	-38.3	-39.0	24.6	0.00e+00	0	43	0	3365928960	47	4098
2026-01-24 11:08:04.55	338.73	23.56	-38.3	-39.0	24.7	0.00e+00	0	43	0	3371171840	47	4077
2026-01-24 11:08:05.56	338.67	23.42	-38.2	-38.9	24.7	0.00e+00	0	43	0	3376414720	47	4036
2026-01-24 11:08:06.57	338.61	23.27	-38.0	-38.8	24.8	0.00e+00	0	43	0	3382706176	47	3978
2026-01-24 11:08:07.58	338.55	23.12	-38.3	-39.0	24.6	0.00e+00	0	43	0	3388997632	47	4079
2026-01-24 11:08:08.58	338.49	22.98	-37.9	-38.7	24.9	0.00e+00	0	43	0	3394240512	47	3926
2026-01-24 11:08:09.59	338.43	22.84	-38.1	-38.8	24.8	0.00e+00	0	43	0	3399483392	47	3974
2026-01-24 11:08:10.60	338.37	22.69	-38.0	-38.7	24.9	0.00e+00	0	43	0	3405774848	47	3955
2026-01-24 11:08:11.60	338.31	22.55	-37.9	-38.6	25.0	0.00e+00	0	43	0	3411017728	47	3906
2026-01-24 11:08:12.61	338.25	22.41	-37.9	-38.6	24.9	0.00e+00	0	43	0	3416260608	47	3912
2026-01-24 11:08:13.62	338.19	22.27	-38.0	-38.7	24.9	0.00e+00	0	43	0	3422552064	47	3926
2026-01-24 11:08:14.63	338.13	22.13	-37.9	-38.6	25.0	0.00e+00	0	43	0	3427794944	47	3886
2026-01-24 11:08:15.64	338.07	21.99	-38.0	-38.7	24.9	0.00e+00	0	43	0	3433037824	47	3940
2026-01-24 11:08:16.65	338.02	21.85	-38.0	-38.8	24.8	0.00e+00	0	43	0	3439329280	47	3961
2026-01-24 11:08:17.65	337.96	21.71	-37.9	-38.6	24.9	0.00e+00	0	43	0	3444572160	47	3911
2026-01-24 11:08:18.66	337.91	21.57	-38.1	-38.9	24.7	0.00e+00	0	43	0	3450863616	47	4007
2026-01-24 11:08:19.67	337.85	21.44	-38.2	-38.9	24.7	0.00e+00	0	43	0	3456106496	47	4022
2026-01-24 11:08:20.68	337.80	21.30	-38.2	-38.9	24.6	0.00e+00	0	43	0	3462397952	47	4043
2026-01-24 11:08:21.69	337.74	21.17	-38.2	-38.9	24.7	0.00e+00	0	43	0	3467640832	47	4021
2026-01-24 11:08:22.69	337.69	21.03	-38.2	-38.9	24.6	0.00e+00	0	43	0	3473932288	47	4036
2026-01-24 11:08:23.70	337.64	20.90	-38.3	-39.1	24.5	0.00e+00	0	43	0	3479175168	47	4104
2026-01-24 11:08:24.71	337.59	20.76	-38.3	-39.1	24.5	0.00e+00	0	43	0	3484418048	47	4107
2026-01-24 11:08:25.72	337.53	20.63	-38.4	-39.2	24.4	0.00e+00	0	43	0	3490709504	47	4153
2026-01-24 11:08:26.72	337.48	20.50	-38.5	-39.3	24.3	0.00e+00	0	43	0	3495952384	47	4208
2026-01-24 11:08:27.73	337.43	20.37	-38.5	-39.2	24.4	0.00e+00	0	43	0	3501195264	47	4176
2026-01-24 11:08:28.74	337.38	20.24	-38.4	-39.2	24.4	0.00e+00	0	43	0	3507486720	47	4153
2026-01-24 11:08:29.75	337.33	20.11	-38.6	-39.3	24.3	0.00e+00	0	43	0	3512729600	47	4231
2026-01-24 11:08:30.76	337.28	19.98	-38.6	-39.3	24.3	0.00e+00	0	43	0	3517972480	47	4234
2026-01-24 11:08:31.77	337.23	19.85	-38.5	-39.2	24.3	0.00e+00	0	43	0	3524263936	47	4193
2026-01-24 11:08:32.77	337.18	19.72	-38.5	-39.2	24.4	0.00e+00	0	43	0	3530555392	47	4164
2026-01-24 11:08:33.78	337.14	19.60	-38.6	-39.3	24.3	0.00e+00	0	43	0	3535798272	47	4226
2026-01-24 11:08:34.79	337.09	19.47	-39.0	-39.8	24.4	0.00e+00	0	43	0	3541041152	48	4196
2026-01-24 11:08:35.80	337.04	19.34	-38.9	-39.6	24.5	0.00e+00	0	43	0	3547332608	48	4126
2026-01-24 11:08:36.80	336.99	19.22	-39.0	-39.7	24.4	0.00e+00	0	43	0	3552575488	48	4185
2026-01-24 11:08:37.81	336.95	19.09	-39.1	-39.9	24.2	0.00e+00	0	43	0	3558866944	48	4247
2026-01-24 11:08:38.82	336.90	18.97	-39.1	-39.8	24.3	0.00e+00	0	43	0	3564109824	48	4210
2026-01-24 11:08:39.83	336.86	18.85	-39.1	-39.8	24.3	0.00e+00	0	43	0	3569352704	48	4223
2026-01-24 11:08:40.84	336.81	18.72	-39.1	-39.8	24.3	0.00e+00	0	43	0	3575644160	48	4205
2026-01-24 11:08:41.84	336.77	18.60	-39.2	-40.0	24.2	0.00e+00	0	43	0	3580887040	49	4054
2026-01-24 11:08:42.85	336.72	18.48	-39.3	-40.0	24.1	0.00e+00	0	43	0	3586129920	49	4076
2026-01-24 11:08:43.86	336.68	18.36	-39.3	-40.1	24.1	0.00e+00	0	43	0	3592421376	49	4106
2026-01-24 11:08:44.87	336.63	18.24	-39.4	-40.1	24.0	0.00e+00	0	43	0	3598712832	49	4145
2026-01-24 11:08:45.88	336.59	18.12	-39.4	-40.1	24.0	0.00e+00	0	43	0	3603955712	49	4142
2026-01-24 11:08:46.89	336.55	18.00	-39.5	-40.2	23.9	0.00e+00	0	43	0	3609198592	49	4192
2026-01-24 11:08:47.89	336.50	17.88	-39.6	-40.4	23.9	0.00e+00	0	43	0	3615490048	49	4247
2026-01-24 11:08:48.90	336.46	17.76	-39.6	-40.4	23.8	0.00e+00	0	43	0	3620732928	49	4249
2026-01-24 11:08:49.91	336.42	17.64	-39.6	-40.3	23.8	0.00e+00	0	43	0	3625975808	49	4241
2026-01-24 11:08:50.91	336.38	17.52	-39.7	-40.4	23.7	0.00e+00	0	43	0	3632267264	50	4039
2026-01-24 11:08:51.92	336.34	17.41	-39.7	-40.5	23.7	0.00e+00	0	43	0	3637510144	50	4068
2026-01-24 11:08:52.93	336.30	17.29	-39.7	-40.4	23.7	0.00e+00	0	43	0	3643801600	50	4051
2026-01-24 11:08:53.94	336.26	17.18	-39.7	-40.5	23.7	0.00e+00	0	43	0	3649044480	50	4053
2026-01-24 11:08:54.95	336.22	17.06	-39.7	-40.5	23.7	0.00e+00	0	43	0	3654287360	50	4064
2026-01-24 11:08:55.96	336.18	16.95	-39.7	-40.4	23.7	0.00e+00	0	43	0	3660578816	50	4042
2026-01-24 11:08:56.97	336.14	16.83	-39.8	-40.6	23.5	0.00e+00	0	43	0	3666870272	50	4117
2026-01-24 11:08:57.97	336.10	16.72	-39.9	-40.7	23.5	0.00e+00	0	43	0	3672113152	50	4150
2026-01-24 11:08:58.98	336.06	16.60	-39.8	-40.6	23.5	0.00e+00	0	43	0	3677356032	50	4120
2026-01-24 11:08:59.99	336.02	16.49	-39.9	-40.7	23.4	0.00e+00	0	43	0	3683647488	50	4169
2026-01-24 11:09:01.00	335.98	16.38	-39.9	-40.7	23.4	0.00e+00	0	43	0	3688890368	50	4158
2026-01-24 11:09:02.01	335.94	16.27	-39.9	-40.7	23.4	0.00e+00	0	43	0	3694133248	50	4163
2026-01-24 11:09:03.01	335.91	16.16	-39.9	-40.7	23.4	0.00e+00	0	43	0	3700424704	50	4171
2026-01-24 11:09:04.02	335.87	16.05	-40.0	-40.8	23.3	0.00e+00	0	43	0	3705667584	50	4208
