passes_logs/2026/01/24/R3.2S_Murmansk/R3.2S_Murmansk__20260124_231359_NOAA_21_JPSS-2_rec.log

#Pass ID: 20260124_231359_NOAA 21 (JPSS-2)
#Satellite: NOAA 21 (JPSS-2)
#Configuration: NOAA-21
#almurnet v.1.7.20251203
#Start time: 2026-01-24 23:13:59

#Version: 2.2.20231116
#Station: R3.2S_Murmansk
#Location: 33.079688 lon 68.888172 lat
#TLE: 1 54234U 22150A   26024.45772595  .00000201  00000+0  11607-3 0  9996
#TLE: 2 54234  98.7508 325.2435 0000728 220.7365 139.3757 14.19538765166156

#Time	Az	El	Level	Level2	SNR	BER	BlckErr	Temp	State	Recorded	gain1	gain2
2026-01-24 23:13:59.85	20.23	2.02	-53.3	-66.0	3.8	1.49e+00	0	42	0	0	77	16202
2026-01-24 23:14:00.86	20.27	2.08	-53.3	-66.1	3.8	1.49e+00	0	42	104	0	77	16341
2026-01-24 23:14:01.87	20.32	2.14	-53.3	-66.0	3.8	1.49e+00	0	42	104	0	77	16283
2026-01-24 23:14:02.88	20.36	2.20	-53.3	-66.0	3.8	1.49e+00	0	42	104	0	77	16254
2026-01-24 23:14:03.89	20.41	2.26	-53.3	-66.0	3.8	1.49e+00	0	42	104	0	77	16250
2026-01-24 23:14:04.90	20.45	2.32	-53.3	-66.0	3.8	1.49e+00	0	42	104	0	77	16251
2026-01-24 23:14:05.90	20.50	2.38	-53.3	-66.0	3.8	1.49e+00	0	42	104	0	77	16216
2026-01-24 23:14:06.91	20.55	2.44	-53.3	-66.0	3.8	1.49e+00	0	42	104	0	77	16262
2026-01-24 23:14:07.92	20.59	2.51	-53.3	-66.0	3.8	1.49e+00	0	42	104	0	77	16220
2026-01-24 23:14:08.93	20.64	2.57	-53.3	-66.0	3.8	1.49e+00	0	42	104	0	77	16274
2026-01-24 23:14:09.93	20.68	2.63	-53.3	-66.0	3.8	1.49e+00	0	42	104	0	77	16259
2026-01-24 23:14:10.94	20.73	2.69	-53.3	-66.0	3.8	1.49e+00	0	42	104	0	77	16208
2026-01-24 23:14:11.95	20.78	2.75	-53.2	-66.0	3.8	1.49e+00	0	42	104	0	77	16248
2026-01-24 23:14:12.96	20.82	2.82	-53.2	-66.0	3.8	1.49e+00	0	42	104	0	77	16248
2026-01-24 23:14:13.97	20.87	2.88	-53.2	-66.0	3.8	1.49e+00	0	42	104	0	77	16222
2026-01-24 23:14:14.98	20.92	2.94	-53.3	-66.0	3.8	1.49e+00	0	42	104	0	77	16234
2026-01-24 23:14:15.98	20.96	3.00	-53.3	-66.0	3.8	1.49e+00	0	42	104	0	77	16229
2026-01-24 23:14:16.99	21.01	3.07	-53.2	-66.0	3.8	1.49e+00	0	42	104	0	77	16233
2026-01-24 23:14:18.00	21.06	3.13	-53.3	-66.0	3.8	1.49e+00	0	42	104	0	77	16282
2026-01-24 23:14:19.00	21.11	3.19	-53.3	-66.0	3.8	1.49e+00	0	42	104	0	77	16271
2026-01-24 23:14:20.01	21.16	3.26	-53.3	-66.0	3.8	1.49e+00	0	43	104	0	77	16255
2026-01-24 23:14:21.02	21.20	3.32	-53.3	-66.0	3.8	1.49e+00	0	43	104	0	77	16245
2026-01-24 23:14:22.03	21.25	3.38	-53.3	-66.0	3.8	1.49e+00	0	43	104	0	77	16274
2026-01-24 23:14:23.03	21.30	3.45	-53.2	-66.0	3.8	1.49e+00	0	42	104	0	77	16228
2026-01-24 23:14:24.04	21.35	3.51	-53.3	-66.0	3.8	1.49e+00	0	43	104	0	77	16224
2026-01-24 23:14:25.05	21.40	3.57	-53.2	-66.0	3.8	1.49e+00	0	42	104	0	77	16233
2026-01-24 23:14:26.06	21.45	3.64	-53.2	-66.0	3.8	1.49e+00	0	42	104	0	77	16211
2026-01-24 23:14:27.07	21.50	3.70	-53.3	-66.0	3.8	1.49e+00	0	42	104	0	77	16301
2026-01-24 23:14:28.07	21.55	3.77	-53.3	-66.0	3.8	1.49e+00	0	43	104	0	77	16244
2026-01-24 23:14:29.08	21.60	3.83	-53.3	-66.0	3.8	1.49e+00	0	43	104	0	77	16283
2026-01-24 23:14:30.09	21.65	3.90	-53.3	-66.0	3.8	1.49e+00	0	43	104	0	77	16293
2026-01-24 23:14:31.10	21.70	3.96	-53.3	-66.0	3.8	1.49e+00	0	43	104	0	77	16211
2026-01-24 23:14:32.11	21.75	4.03	-53.3	-66.0	3.8	1.49e+00	0	43	104	0	77	16284
2026-01-24 23:14:33.11	21.80	4.09	-53.3	-66.0	3.8	1.49e+00	0	43	104	0	77	16267
2026-01-24 23:14:34.12	21.85	4.16	-53.3	-66.0	3.8	1.49e+00	0	43	104	0	77	16270
2026-01-24 23:14:35.13	21.90	4.22	-53.3	-66.0	3.8	1.49e+00	0	43	104	0	77	16275
2026-01-24 23:14:36.14	21.95	4.29	-53.3	-66.0	3.8	1.49e+00	0	43	104	0	77	16231
2026-01-24 23:14:37.14	22.00	4.35	-53.3	-66.0	3.8	1.49e+00	0	43	104	0	77	16282
2026-01-24 23:14:38.15	22.05	4.42	-53.3	-66.0	3.8	1.49e+00	0	43	104	0	77	16252
2026-01-24 23:14:39.16	22.10	4.48	-53.3	-66.0	3.8	1.49e+00	0	43	104	0	77	16253
2026-01-24 23:14:40.17	22.16	4.55	-53.3	-66.0	3.8	1.49e+00	0	43	104	0	77	16264
2026-01-24 23:14:41.18	22.21	4.61	-53.3	-66.0	3.8	1.49e+00	0	43	104	0	77	16209
2026-01-24 23:14:42.18	22.26	4.68	-53.3	-66.0	3.8	1.49e+00	0	43	104	0	77	16247
2026-01-24 23:14:43.19	22.31	4.75	-53.3	-66.0	3.8	1.49e+00	0	43	104	0	77	16274
2026-01-24 23:14:44.20	22.37	4.81	-53.3	-66.0	3.8	1.49e+00	0	43	104	0	77	16231
2026-01-24 23:14:45.21	22.42	4.88	-53.3	-66.0	3.8	1.49e+00	0	43	104	0	77	16303
2026-01-24 23:14:46.21	22.47	4.95	-53.3	-66.0	3.8	1.49e+00	0	43	104	0	77	16246
2026-01-24 23:14:47.22	22.53	5.01	-53.3	-66.0	3.8	1.49e+00	0	43	104	0	77	16286
2026-01-24 23:14:48.23	22.58	5.08	-53.3	-66.0	3.8	1.49e+00	0	43	104	0	77	16256
2026-01-24 23:14:49.24	22.63	5.15	-53.3	-66.0	3.8	1.49e+00	0	43	104	0	77	16297
2026-01-24 23:14:50.25	22.69	5.22	-53.3	-66.0	3.8	1.49e+00	0	43	104	0	77	16302
2026-01-24 23:14:51.26	22.74	5.28	-53.3	-66.0	3.8	1.49e+00	0	43	104	0	77	16233
2026-01-24 23:14:52.27	22.80	5.35	-53.3	-66.0	3.8	1.49e+00	0	43	104	0	77	16232
2026-01-24 23:14:53.27	22.85	5.42	-53.3	-66.0	3.8	1.49e+00	0	43	104	0	77	16237
2026-01-24 23:14:54.28	22.91	5.49	-53.3	-66.0	3.8	1.49e+00	0	43	104	0	77	16232
2026-01-24 23:14:55.29	22.96	5.56	-53.3	-66.0	3.8	1.49e+00	0	43	104	0	77	16239
2026-01-24 23:14:56.30	23.02	5.62	-53.3	-66.0	3.8	1.49e+00	0	43	104	0	77	16285
2026-01-24 23:14:57.30	23.07	5.69	-53.3	-66.0	3.8	1.49e+00	0	43	104	0	77	16223
2026-01-24 23:14:58.31	23.13	5.76	-53.3	-66.0	3.8	1.49e+00	0	43	104	0	77	16250
2026-01-24 23:14:59.32	23.19	5.83	-53.3	-66.0	3.8	1.49e+00	0	43	104	0	77	16277
2026-01-24 23:15:00.33	23.24	5.90	-53.3	-66.0	3.8	1.49e+00	0	43	104	0	77	16256
2026-01-24 23:15:01.33	23.30	5.97	-53.3	-66.0	3.8	1.49e+00	0	43	104	0	77	16232
2026-01-24 23:15:02.34	23.36	6.04	-53.3	-66.0	3.8	1.49e+00	0	43	104	0	77	16261
2026-01-24 23:15:03.35	23.41	6.11	-53.3	-66.0	3.8	1.49e+00	0	43	104	0	77	16292
2026-01-24 23:15:04.36	23.47	6.18	-53.3	-66.0	3.8	1.49e+00	0	43	104	0	77	16287
2026-01-24 23:15:05.37	23.53	6.25	-53.3	-66.0	3.8	1.49e+00	0	43	104	0	77	16197
2026-01-24 23:15:06.37	23.59	6.32	-53.3	-66.0	3.8	1.49e+00	0	43	104	0	77	16227
2026-01-24 23:15:07.38	23.64	6.39	-53.3	-66.0	3.8	1.49e+00	0	43	104	0	77	16291
2026-01-24 23:15:08.39	23.70	6.46	-53.3	-66.0	3.8	1.49e+00	0	43	104	0	77	16249
2026-01-24 23:15:09.40	23.76	6.53	-53.3	-66.0	3.8	1.49e+00	0	43	104	0	77	16240
2026-01-24 23:15:10.41	23.82	6.60	-53.3	-66.0	3.8	1.49e+00	0	43	104	0	77	16275
2026-01-24 23:15:11.42	23.88	6.67	-53.3	-66.0	3.8	1.49e+00	0	43	104	0	77	16250
2026-01-24 23:15:12.42	23.94	6.74	-53.3	-66.0	3.8	1.49e+00	0	43	104	0	77	16265
2026-01-24 23:15:13.43	24.00	6.81	-53.3	-66.0	3.8	1.49e+00	0	43	104	0	77	16220
2026-01-24 23:15:14.44	24.06	6.88	-53.3	-66.0	3.8	1.49e+00	0	43	104	0	77	16263
2026-01-24 23:15:15.45	24.12	6.95	-53.3	-66.0	3.8	1.49e+00	0	43	104	0	77	16270
2026-01-24 23:15:16.46	24.18	7.03	-53.3	-66.0	3.8	1.49e+00	0	43	104	0	77	16249
2026-01-24 23:15:17.46	24.24	7.10	-53.3	-66.0	3.8	1.49e+00	0	43	104	0	77	16288
2026-01-24 23:15:18.47	24.30	7.17	-53.3	-66.0	3.8	1.49e+00	0	43	104	0	77	16302
2026-01-24 23:15:19.48	24.36	7.24	-53.3	-66.0	3.8	1.49e+00	0	43	104	0	77	16241
2026-01-24 23:15:20.49	24.43	7.31	-53.3	-66.0	3.8	1.49e+00	0	43	104	0	77	16245
2026-01-24 23:15:21.50	24.49	7.39	-53.3	-66.0	3.8	1.49e+00	0	43	104	0	77	16245
2026-01-24 23:15:22.50	24.55	7.46	-53.3	-66.0	3.8	1.49e+00	0	43	104	0	77	16245
2026-01-24 23:15:23.51	24.61	7.53	-53.3	-66.0	3.8	1.49e+00	0	43	104	0	77	16268
2026-01-24 23:15:24.52	24.68	7.61	-53.3	-66.0	3.8	1.49e+00	0	43	104	0	77	16249
2026-01-24 23:15:25.53	24.74	7.68	-53.3	-66.0	3.8	1.49e+00	0	43	104	0	77	16289
2026-01-24 23:15:26.53	24.80	7.75	-53.3	-66.0	3.8	1.49e+00	0	43	104	0	77	16226
2026-01-24 23:15:27.54	24.87	7.83	-53.3	-66.0	3.8	1.49e+00	0	43	104	0	77	16268
2026-01-24 23:15:28.55	24.93	7.90	-53.3	-66.0	3.8	1.49e+00	0	43	104	0	77	16250
2026-01-24 23:15:29.55	24.99	7.97	-53.3	-66.0	3.8	1.49e+00	0	43	104	0	77	16258
2026-01-24 23:15:30.56	25.06	8.05	-53.3	-66.0	3.8	1.49e+00	0	43	104	0	77	16208
2026-01-24 23:15:31.57	25.12	8.12	-53.3	-66.0	3.8	1.49e+00	0	43	104	0	77	16251
2026-01-24 23:15:32.58	25.19	8.20	-53.3	-66.0	3.8	1.49e+00	0	43	104	0	77	16235
2026-01-24 23:15:33.59	25.25	8.27	-53.3	-66.0	3.8	1.49e+00	0	43	104	0	77	16276
2026-01-24 23:15:34.60	25.32	8.35	-53.3	-66.0	3.8	1.49e+00	0	43	104	0	77	16257
2026-01-24 23:15:35.60	25.39	8.42	-53.3	-66.0	3.8	1.49e+00	0	43	104	0	77	16240
2026-01-24 23:15:36.61	25.45	8.50	-53.3	-66.0	3.8	1.49e+00	0	43	104	0	77	16266
2026-01-24 23:15:37.62	25.52	8.57	-53.3	-66.0	3.8	1.49e+00	0	43	104	0	77	16281
2026-01-24 23:15:38.63	25.59	8.65	-53.3	-66.0	3.8	1.49e+00	0	43	104	0	77	16264
2026-01-24 23:15:39.64	25.66	8.73	-53.3	-66.0	3.8	1.49e+00	0	43	104	0	77	16262
2026-01-24 23:15:40.64	25.72	8.80	-53.3	-66.0	3.8	1.49e+00	0	43	104	0	77	16264
2026-01-24 23:15:41.65	25.79	8.88	-53.3	-66.0	3.8	1.49e+00	0	43	104	0	77	16277
2026-01-24 23:15:42.66	25.86	8.96	-53.3	-66.0	3.8	1.49e+00	0	43	104	0	77	16279
2026-01-24 23:15:43.67	25.93	9.03	-53.3	-66.0	3.8	1.49e+00	0	43	104	0	77	16221
2026-01-24 23:15:44.68	26.00	9.11	-53.3	-66.0	3.8	1.49e+00	0	43	104	0	77	16276
2026-01-24 23:15:45.68	26.07	9.19	-53.3	-66.0	3.8	1.49e+00	0	43	104	0	77	16246
2026-01-24 23:15:46.69	26.14	9.26	-53.3	-66.0	3.8	1.49e+00	0	43	104	0	77	16289
2026-01-24 23:15:47.70	26.21	9.34	-53.3	-66.0	3.8	1.49e+00	0	43	104	0	77	16255
2026-01-24 23:15:48.71	26.28	9.42	-53.3	-66.0	3.8	1.49e+00	0	43	104	0	77	16264
2026-01-24 23:15:49.72	26.35	9.50	-53.3	-66.0	3.8	1.49e+00	0	43	104	0	77	16277
2026-01-24 23:15:50.72	26.42	9.58	-53.3	-66.0	3.8	1.49e+00	0	43	104	0	77	16303
2026-01-24 23:15:51.73	26.49	9.65	-53.3	-66.0	3.8	1.49e+00	0	43	104	0	77	16230
2026-01-24 23:15:52.74	26.56	9.73	-53.3	-66.0	3.8	1.49e+00	0	43	104	0	77	16273
2026-01-24 23:15:53.75	26.64	9.81	-53.3	-66.0	3.8	1.49e+00	0	43	104	0	77	16256
2026-01-24 23:15:54.75	26.71	9.89	-53.3	-66.1	3.8	1.49e+00	0	43	104	0	77	16319
2026-01-24 23:15:55.76	26.78	9.97	-53.3	-66.0	3.8	1.49e+00	0	43	104	0	77	16251
2026-01-24 23:15:56.77	26.86	10.05	-53.3	-66.0	3.8	1.49e+00	0	43	104	0	77	16232
2026-01-24 23:15:57.78	26.93	10.13	-53.3	-66.0	3.8	1.49e+00	0	44	104	0	77	16257
2026-01-24 23:15:58.79	27.00	10.21	-53.3	-66.1	3.8	1.49e+00	0	43	104	0	77	16333
2026-01-24 23:15:59.79	27.08	10.29	-53.3	-66.0	3.8	1.49e+00	0	43	104	0	77	16287
2026-01-24 23:16:00.80	27.15	10.37	-53.3	-66.0	3.8	1.49e+00	0	43	104	0	77	16285
2026-01-24 23:16:01.81	27.23	10.45	-53.3	-66.0	3.8	1.49e+00	0	43	104	0	77	16272
2026-01-24 23:16:02.82	27.30	10.53	-53.3	-66.0	3.8	1.49e+00	0	43	104	0	77	16223
2026-01-24 23:16:03.82	27.38	10.61	-53.3	-66.0	3.8	1.49e+00	0	43	104	0	77	16285
2026-01-24 23:16:04.83	27.46	10.69	-53.3	-66.0	3.8	1.49e+00	0	43	104	0	77	16280
2026-01-24 23:16:05.84	27.53	10.78	-53.3	-66.0	3.8	1.49e+00	0	43	104	0	77	16203
2026-01-24 23:16:06.85	27.61	10.86	-53.3	-66.0	3.8	1.49e+00	0	43	104	0	77	16252
2026-01-24 23:16:07.86	27.69	10.94	-53.3	-66.0	3.8	1.49e+00	0	43	104	0	77	16268
2026-01-24 23:16:08.86	27.77	11.02	-53.3	-66.0	3.8	1.49e+00	0	43	104	0	77	16244
2026-01-24 23:16:09.87	27.85	11.10	-53.3	-66.0	3.8	1.49e+00	0	43	104	0	77	16301
2026-01-24 23:16:10.88	27.92	11.19	-53.3	-66.0	3.8	1.49e+00	0	43	104	0	77	16223
2026-01-24 23:16:11.89	28.00	11.27	-53.3	-66.0	3.8	1.49e+00	0	43	104	0	77	16250
2026-01-24 23:16:12.90	28.08	11.35	-53.3	-66.0	3.8	1.49e+00	0	43	104	0	77	16283
2026-01-24 23:16:13.90	28.16	11.44	-53.3	-66.0	3.8	1.49e+00	0	43	104	0	77	16249
2026-01-24 23:16:14.91	28.24	11.52	-53.3	-66.0	3.8	1.49e+00	0	43	104	0	77	16250
2026-01-24 23:16:15.92	28.33	11.60	-53.3	-66.0	3.8	1.49e+00	0	43	104	0	77	16259
2026-01-24 23:16:16.93	28.41	11.69	-53.3	-66.0	3.8	1.49e+00	0	43	104	0	77	16262
2026-01-24 23:16:17.94	28.49	11.77	-53.3	-66.0	3.8	1.49e+00	0	43	104	0	77	16256
2026-01-24 23:16:18.94	28.57	11.86	-53.3	-66.0	3.8	1.49e+00	0	43	104	0	77	16267
2026-01-24 23:16:19.95	28.65	11.94	-53.3	-66.0	3.8	1.49e+00	0	43	104	0	77	16244
2026-01-24 23:16:20.96	28.74	12.03	-53.3	-66.0	3.8	1.49e+00	0	43	104	0	77	16268
2026-01-24 23:16:21.97	28.82	12.11	-53.3	-66.0	3.8	1.49e+00	0	43	104	0	77	16265
2026-01-24 23:16:22.98	28.91	12.20	-53.3	-66.0	3.8	1.49e+00	0	43	104	0	77	16288
2026-01-24 23:16:23.98	28.99	12.28	-53.3	-66.0	3.8	1.49e+00	0	43	104	0	77	16243
2026-01-24 23:16:24.99	29.08	12.37	-53.3	-66.0	3.8	1.49e+00	0	44	104	0	77	16234
2026-01-24 23:16:26.00	29.16	12.46	-53.3	-66.0	3.8	1.49e+00	0	43	104	0	77	16268
2026-01-24 23:16:27.00	29.25	12.54	-53.3	-66.0	3.8	1.49e+00	0	43	104	0	77	16262
2026-01-24 23:16:28.01	29.33	12.63	-53.3	-66.0	3.8	1.49e+00	0	43	104	0	77	16287
2026-01-24 23:16:29.02	29.42	12.72	-53.3	-66.0	3.8	1.49e+00	0	43	104	0	77	16236
2026-01-24 23:16:30.03	29.51	12.81	-53.3	-66.0	3.8	1.49e+00	0	44	104	0	77	16297
2026-01-24 23:16:31.04	29.60	12.89	-53.3	-66.0	3.8	1.49e+00	0	43	104	0	77	16285
2026-01-24 23:16:32.04	29.69	12.98	-53.3	-66.0	3.8	1.49e+00	0	43	104	0	77	16280
2026-01-24 23:16:33.05	29.77	13.07	-53.3	-66.0	3.8	1.49e+00	0	43	104	0	77	16303
2026-01-24 23:16:34.06	29.86	13.16	-53.3	-66.0	3.8	1.49e+00	0	43	104	0	77	16235
2026-01-24 23:16:35.07	29.95	13.25	-53.3	-66.0	3.8	1.49e+00	0	43	104	0	77	16248
2026-01-24 23:16:36.08	30.05	13.34	-53.3	-66.0	3.8	1.49e+00	0	44	104	0	77	16255
2026-01-24 23:16:37.08	30.14	13.42	-53.3	-66.0	3.8	1.49e+00	0	43	104	0	77	16257
2026-01-24 23:16:38.09	30.23	13.51	-53.3	-66.0	3.8	1.49e+00	0	43	104	0	77	16255
2026-01-24 23:16:39.10	30.32	13.60	-53.3	-66.0	3.8	1.49e+00	0	44	104	0	77	16249
2026-01-24 23:16:40.11	30.41	13.69	-53.3	-66.0	3.8	1.49e+00	0	43	104	0	77	16245
2026-01-24 23:16:41.12	30.51	13.78	-53.3	-66.0	3.8	1.49e+00	0	43	104	0	77	16239
2026-01-24 23:16:42.13	30.60	13.87	-53.3	-66.0	3.8	1.49e+00	0	43	104	0	77	16239
2026-01-24 23:16:43.13	30.69	13.96	-53.3	-66.0	3.8	1.49e+00	0	43	104	0	77	16241
2026-01-24 23:16:44.14	30.79	14.06	-53.3	-66.0	3.8	1.49e+00	0	43	104	0	77	16262
2026-01-24 23:16:45.15	30.88	14.15	-53.3	-66.0	3.8	1.49e+00	0	43	104	0	77	16217
2026-01-24 23:16:46.16	30.98	14.24	-53.3	-66.0	3.8	1.49e+00	0	43	104	0	77	16283
2026-01-24 23:16:47.17	31.08	14.33	-53.3	-66.0	3.8	1.49e+00	0	43	104	0	77	16288
2026-01-24 23:16:48.17	31.17	14.42	-53.3	-66.0	3.8	1.49e+00	0	44	104	0	77	16220
2026-01-24 23:16:49.18	31.27	14.52	-53.3	-66.0	3.8	1.49e+00	0	43	104	0	77	16231
2026-01-24 23:16:50.19	31.37	14.61	-53.3	-66.0	3.8	1.49e+00	0	43	104	0	77	16256
2026-01-24 23:16:51.20	31.47	14.70	-53.3	-66.0	3.8	1.49e+00	0	44	104	0	77	16273
2026-01-24 23:16:52.21	31.57	14.80	-53.3	-66.0	3.8	1.49e+00	0	43	104	0	77	16250
2026-01-24 23:16:53.22	31.67	14.89	-53.3	-66.0	3.8	1.49e+00	0	43	104	0	77	16243
2026-01-24 23:16:54.22	31.77	14.98	-53.3	-66.0	3.8	1.49e+00	0	44	104	0	77	16270
2026-01-24 23:16:55.23	31.87	15.08	-53.3	-66.0	3.8	1.49e+00	0	43	104	0	77	16273
2026-01-24 23:16:56.24	31.97	15.17	-53.3	-66.0	3.8	1.49e+00	0	43	104	0	77	16271
2026-01-24 23:16:57.25	32.08	15.27	-53.3	-66.0	3.8	1.49e+00	0	43	104	0	77	16299
2026-01-24 23:16:58.25	32.18	15.36	-53.3	-66.0	3.8	1.49e+00	0	43	104	0	77	16257
2026-01-24 23:16:59.26	32.28	15.46	-53.3	-66.0	3.8	1.49e+00	0	44	104	0	77	16225
2026-01-24 23:17:00.27	32.39	15.55	-53.3	-66.0	3.8	1.49e+00	0	43	104	0	77	16276
2026-01-24 23:17:01.28	32.49	15.65	-53.3	-66.0	3.8	1.49e+00	0	44	104	0	77	16220
2026-01-24 23:17:02.29	32.60	15.74	-53.3	-66.0	3.8	1.49e+00	0	43	104	0	77	16278
2026-01-24 23:17:03.30	32.70	15.84	-53.3	-66.0	3.8	1.49e+00	0	43	104	0	77	16259
2026-01-24 23:17:04.30	32.81	15.94	-53.3	-66.0	3.8	1.49e+00	0	44	104	0	77	16242
2026-01-24 23:17:05.31	32.92	16.03	-53.3	-66.0	3.8	1.49e+00	0	44	104	0	77	16301
2026-01-24 23:17:06.32	33.03	16.13	-53.3	-66.0	3.8	1.49e+00	0	43	104	0	77	16260
2026-01-24 23:17:07.33	33.14	16.23	-53.3	-66.0	3.8	1.49e+00	0	43	104	0	77	16226
2026-01-24 23:17:08.33	33.24	16.33	-53.3	-66.0	3.8	1.49e+00	0	44	104	0	77	16284
2026-01-24 23:17:09.34	33.36	16.43	-53.3	-66.0	3.8	1.49e+00	0	43	104	0	77	16240
2026-01-24 23:17:10.35	33.47	16.52	-53.3	-66.0	3.8	1.49e+00	0	43	104	0	77	16293
2026-01-24 23:17:11.36	33.58	16.62	-53.3	-66.0	3.8	1.49e+00	0	43	104	0	77	16265
2026-01-24 23:17:12.36	33.69	16.72	-53.3	-66.0	3.8	1.49e+00	0	43	104	0	77	16276
2026-01-24 23:17:13.37	33.80	16.82	-53.3	-66.0	3.8	1.49e+00	0	44	104	0	77	16265
2026-01-24 23:17:14.38	33.92	16.92	-53.3	-66.0	3.8	1.49e+00	0	43	104	0	77	16309
2026-01-24 23:17:15.39	34.03	17.02	-53.3	-66.0	3.8	1.49e+00	0	43	104	0	77	16234
2026-01-24 23:17:16.40	34.15	17.12	-53.3	-66.0	3.8	1.49e+00	0	43	104	0	77	16281
2026-01-24 23:17:17.40	34.26	17.22	-53.3	-66.0	3.8	1.49e+00	0	43	104	0	77	16276
2026-01-24 23:17:18.41	34.38	17.32	-53.3	-66.0	3.8	1.49e+00	0	44	104	0	77	16271
2026-01-24 23:17:19.42	34.50	17.43	-53.3	-66.0	3.8	1.49e+00	0	43	104	0	77	16262
2026-01-24 23:17:20.43	34.62	17.53	-53.3	-66.0	3.8	1.49e+00	0	44	104	0	77	16239
2026-01-24 23:17:21.44	34.74	17.63	-53.3	-66.0	3.8	1.49e+00	0	44	104	0	77	16281
2026-01-24 23:17:22.44	34.85	17.73	-53.3	-66.0	3.8	1.49e+00	0	44	104	0	77	16222
2026-01-24 23:17:23.45	34.98	17.83	-53.3	-66.0	3.8	1.49e+00	0	43	104	0	77	16277
2026-01-24 23:17:24.46	35.10	17.94	-53.3	-66.0	3.8	1.49e+00	0	44	104	0	77	16258
2026-01-24 23:17:25.47	35.22	18.04	-53.3	-66.0	3.8	1.49e+00	0	44	104	0	77	16253
2026-01-24 23:17:26.47	35.34	18.14	-53.3	-66.0	3.8	1.49e+00	0	43	104	0	77	16239
2026-01-24 23:17:27.48	35.47	18.25	-53.3	-66.0	3.8	1.49e+00	0	44	104	0	77	16208
2026-01-24 23:17:28.49	35.59	18.35	-53.3	-66.0	3.8	1.49e+00	0	44	104	0	77	16275
2026-01-24 23:17:29.49	35.72	18.46	-53.3	-66.1	3.8	1.49e+00	0	44	104	0	77	16325
2026-01-24 23:17:30.50	35.84	18.56	-53.3	-66.0	3.8	1.49e+00	0	43	104	0	77	16291
2026-01-24 23:17:31.51	35.97	18.67	-53.3	-66.0	3.8	1.49e+00	0	44	104	0	77	16272
2026-01-24 23:17:32.52	36.10	18.77	-53.3	-66.0	3.8	1.49e+00	0	43	104	0	77	16250
2026-01-24 23:17:33.53	36.23	18.88	-53.3	-66.0	3.8	1.49e+00	0	44	104	0	77	16259
2026-01-24 23:17:34.54	36.36	18.98	-53.3	-66.0	3.8	1.49e+00	0	43	104	0	77	16263
2026-01-24 23:17:35.54	36.49	19.09	-53.3	-66.0	3.8	1.49e+00	0	44	104	0	77	16270
2026-01-24 23:17:36.55	36.62	19.20	-53.3	-66.0	3.8	1.49e+00	0	44	104	0	77	16287
2026-01-24 23:17:37.56	36.75	19.30	-53.3	-66.0	3.8	1.49e+00	0	44	104	0	77	16261
2026-01-24 23:17:38.57	36.88	19.41	-53.3	-66.0	3.8	1.49e+00	0	44	104	0	77	16294
2026-01-24 23:17:39.58	37.02	19.52	-53.3	-66.0	3.8	1.49e+00	0	44	104	0	77	16248
2026-01-24 23:17:40.58	37.15	19.63	-53.3	-66.0	3.8	1.49e+00	0	44	104	0	77	16292
2026-01-24 23:17:41.59	37.29	19.73	-53.3	-66.0	3.8	1.49e+00	0	44	104	0	77	16250
2026-01-24 23:17:42.60	37.43	19.84	-53.3	-66.0	3.8	1.49e+00	0	44	104	0	77	16267
2026-01-24 23:17:43.61	37.56	19.95	-53.3	-66.0	3.8	1.49e+00	0	44	104	0	77	16208
2026-01-24 23:17:44.61	37.70	20.06	-53.3	-66.0	3.8	1.49e+00	0	44	104	0	77	16282
2026-01-24 23:17:45.62	37.84	20.17	-53.3	-66.0	3.8	1.49e+00	0	44	104	0	77	16260
2026-01-24 23:17:46.63	37.98	20.28	-53.3	-66.0	3.8	1.49e+00	0	43	104	0	77	16305
2026-01-24 23:17:47.64	38.13	20.39	-53.3	-66.0	3.8	1.49e+00	0	44	104	0	77	16251
2026-01-24 23:17:48.65	38.27	20.50	-53.3	-66.0	3.8	1.49e+00	0	44	104	0	77	16233
2026-01-24 23:17:49.66	38.41	20.61	-53.3	-66.0	3.8	1.49e+00	0	44	104	0	77	16292
2026-01-24 23:17:50.66	38.56	20.72	-53.3	-66.0	3.8	1.49e+00	0	44	104	0	77	16309
2026-01-24 23:17:51.67	38.70	20.83	-53.3	-66.0	3.8	1.49e+00	0	44	104	0	77	16261
2026-01-24 23:17:52.68	38.85	20.95	-53.3	-66.0	3.8	1.49e+00	0	43	104	0	77	16239
2026-01-24 23:17:53.68	39.00	21.06	-53.3	-66.0	3.8	1.49e+00	0	44	104	0	77	16256
2026-01-24 23:17:54.69	39.15	21.17	-53.3	-66.0	3.8	1.49e+00	0	44	104	0	77	16297
2026-01-24 23:17:55.70	39.30	21.28	-53.3	-66.0	3.8	1.49e+00	0	43	104	0	77	16274
2026-01-24 23:17:56.71	39.45	21.40	-53.3	-66.0	3.8	1.49e+00	0	44	104	0	77	16295
2026-01-24 23:17:57.72	39.60	21.51	-53.3	-66.0	3.8	1.49e+00	0	43	104	0	77	16249
2026-01-24 23:17:58.72	39.75	21.62	-53.3	-66.0	3.8	1.49e+00	0	44	104	0	77	16245
2026-01-24 23:17:59.73	39.91	21.74	-53.3	-66.0	3.8	1.49e+00	0	44	104	0	77	16266
2026-01-24 23:18:00.74	40.06	21.85	-53.3	-66.0	3.8	1.49e+00	0	44	104	0	77	16267
2026-01-24 23:18:01.75	40.22	21.97	-53.3	-66.0	3.8	1.49e+00	0	44	104	0	77	16247
2026-01-24 23:18:02.76	40.38	22.08	-53.3	-66.0	3.8	1.49e+00	0	43	104	0	77	16303
2026-01-24 23:18:03.76	40.53	22.20	-53.3	-66.0	3.8	1.49e+00	0	44	104	0	77	16239
2026-01-24 23:18:04.77	40.69	22.31	-53.3	-66.0	3.8	1.49e+00	0	44	104	0	77	16271
2026-01-24 23:18:05.78	40.85	22.43	-53.3	-66.0	3.8	1.49e+00	0	43	104	0	77	16258
2026-01-24 23:18:06.78	41.02	22.54	-53.3	-66.0	3.8	1.49e+00	0	44	104	0	77	16257
2026-01-24 23:18:07.79	41.18	22.66	-53.3	-66.0	3.8	1.49e+00	0	44	104	0	77	16278
2026-01-24 23:18:08.80	41.34	22.78	-53.3	-66.1	3.8	1.49e+00	0	44	104	0	77	16317
2026-01-24 23:18:09.80	41.51	22.89	-53.3	-66.0	3.8	1.49e+00	0	44	104	0	77	16270
2026-01-24 23:18:10.81	41.68	23.01	-53.3	-66.0	3.8	1.49e+00	0	43	104	0	77	16273
2026-01-24 23:18:11.82	41.84	23.13	-53.3	-66.0	3.8	1.49e+00	0	44	104	0	77	16224
2026-01-24 23:18:12.83	42.01	23.25	-53.3	-66.0	3.8	1.49e+00	0	44	104	0	77	16243
2026-01-24 23:18:13.84	42.19	23.37	-53.3	-66.0	3.8	1.49e+00	0	44	104	0	77	16293
2026-01-24 23:18:14.85	42.36	23.48	-53.3	-66.0	3.8	1.49e+00	0	43	104	0	77	16242
2026-01-24 23:18:15.85	42.53	23.60	-53.3	-66.0	3.8	1.49e+00	0	44	104	0	77	16248
2026-01-24 23:18:16.86	42.70	23.72	-53.3	-66.0	3.8	1.49e+00	0	44	104	0	77	16288
2026-01-24 23:18:17.87	42.88	23.84	-53.3	-66.0	3.8	1.49e+00	0	43	104	0	77	16275
2026-01-24 23:18:18.87	43.06	23.96	-53.3	-66.0	3.8	1.49e+00	0	43	104	0	77	16244
2026-01-24 23:18:19.88	43.23	24.08	-53.3	-66.0	3.8	1.49e+00	0	44	104	0	77	16277
2026-01-24 23:18:20.89	43.41	24.20	-53.3	-66.0	3.8	1.49e+00	0	43	104	0	77	16218
2026-01-24 23:18:21.90	43.60	24.32	-53.3	-66.0	3.8	1.49e+00	0	43	104	0	77	16282
2026-01-24 23:18:22.91	43.78	24.44	-53.3	-66.0	3.8	1.49e+00	0	44	104	0	77	16249
2026-01-24 23:18:23.92	43.96	24.56	-53.3	-66.0	3.8	1.49e+00	0	43	104	0	77	16277
2026-01-24 23:18:24.92	44.15	24.68	-53.3	-66.0	3.8	1.49e+00	0	44	104	0	77	16263
2026-01-24 23:18:25.93	44.33	24.80	-53.3	-66.0	3.8	1.49e+00	0	43	104	0	77	16284
2026-01-24 23:18:26.94	44.52	24.93	-53.3	-66.0	3.8	1.49e+00	0	44	104	0	77	16230
2026-01-24 23:18:27.95	44.71	25.05	-53.3	-66.0	3.8	1.49e+00	0	44	104	0	77	16287
2026-01-24 23:18:28.96	44.90	25.17	-53.3	-66.0	3.8	1.49e+00	0	44	104	0	77	16271
2026-01-24 23:18:29.96	45.09	25.29	-53.3	-66.0	3.8	1.49e+00	0	43	104	0	77	16258
2026-01-24 23:18:30.97	45.29	25.42	-53.3	-66.0	3.8	1.49e+00	0	44	104	0	77	16269
2026-01-24 23:18:31.98	45.48	25.54	-53.3	-66.0	3.8	1.49e+00	0	43	104	0	77	16273
2026-01-24 23:18:32.99	45.68	25.66	-53.3	-66.0	3.8	1.49e+00	0	44	104	0	77	16263
2026-01-24 23:18:34.00	45.88	25.79	-53.3	-66.1	3.8	1.49e+00	0	43	104	0	77	16316
2026-01-24 23:18:35.00	46.08	25.91	-53.3	-66.0	3.8	1.49e+00	0	44	104	0	77	16291
2026-01-24 23:18:36.01	46.28	26.03	-53.3	-66.0	3.8	1.49e+00	0	43	104	0	77	16267
2026-01-24 23:18:37.02	46.48	26.16	-53.3	-66.0	3.8	1.49e+00	0	44	104	0	77	16244
2026-01-24 23:18:38.03	46.69	26.28	-53.3	-66.0	3.8	1.49e+00	0	43	104	0	77	16245
2026-01-24 23:18:39.04	46.89	26.41	-53.3	-66.0	3.8	1.49e+00	0	44	104	0	77	16244
2026-01-24 23:18:40.04	47.10	26.53	-53.3	-66.0	3.8	1.49e+00	0	44	104	0	77	16235
2026-01-24 23:18:41.05	47.31	26.66	-53.3	-66.0	3.8	1.49e+00	0	44	104	0	77	16232
2026-01-24 23:18:42.06	47.52	26.78	-53.3	-66.0	3.8	1.49e+00	0	44	104	0	77	16288
2026-01-24 23:18:43.07	47.73	26.91	-53.3	-66.0	3.8	1.49e+00	0	44	104	0	77	16307
2026-01-24 23:18:44.08	47.95	27.03	-53.3	-66.0	3.8	1.49e+00	0	44	104	0	77	16305
2026-01-24 23:18:45.08	48.16	27.16	-53.3	-66.0	3.8	1.49e+00	0	43	104	0	77	16235
2026-01-24 23:18:46.09	48.38	27.28	-53.3	-66.0	3.8	1.49e+00	0	44	104	0	77	16251
2026-01-24 23:18:47.10	48.60	27.41	-53.3	-66.0	3.8	1.49e+00	0	43	104	0	77	16258
2026-01-24 23:18:48.11	48.82	27.53	-53.3	-66.0	3.8	1.49e+00	0	44	104	0	77	16243
2026-01-24 23:18:49.12	49.04	27.66	-53.3	-66.0	3.8	1.49e+00	0	44	104	0	77	16241
2026-01-24 23:18:50.12	49.26	27.79	-53.3	-66.0	3.8	1.49e+00	0	44	104	0	77	16287
2026-01-24 23:18:51.13	49.49	27.91	-53.3	-66.0	3.8	1.49e+00	0	44	104	0	77	16270
2026-01-24 23:18:52.14	49.72	28.04	-53.3	-66.0	3.8	1.49e+00	0	44	104	0	77	16268
2026-01-24 23:18:53.15	49.95	28.17	-53.3	-66.0	3.8	1.49e+00	0	44	104	0	77	16272
2026-01-24 23:18:54.15	50.18	28.29	-53.3	-66.0	3.8	1.49e+00	0	44	104	0	77	16235
2026-01-24 23:18:55.16	50.41	28.42	-53.3	-66.0	3.8	1.49e+00	0	44	104	0	77	16295
2026-01-24 23:18:56.17	50.64	28.55	-53.3	-66.0	3.8	1.49e+00	0	44	104	0	77	16280
2026-01-24 23:18:57.18	50.88	28.67	-53.3	-66.0	3.8	1.49e+00	0	44	104	0	77	16259
2026-01-24 23:18:58.19	51.12	28.80	-53.3	-66.0	3.8	1.49e+00	0	44	104	0	77	16260
2026-01-24 23:18:59.19	51.36	28.93	-53.3	-66.0	3.8	1.49e+00	0	43	104	0	77	16245
2026-01-24 23:19:00.20	51.60	29.05	-53.3	-66.0	3.8	1.49e+00	0	44	104	0	77	16289
2026-01-24 23:19:01.21	51.85	29.18	-53.3	-66.0	3.8	1.49e+00	0	44	104	0	77	16254
2026-01-24 23:19:02.22	52.09	29.31	-53.3	-66.0	3.8	1.49e+00	0	44	104	0	77	16251
2026-01-24 23:19:03.23	52.34	29.44	-53.3	-66.0	3.8	1.49e+00	0	44	104	0	77	16242
2026-01-24 23:19:04.24	52.59	29.56	-53.3	-66.0	3.8	1.49e+00	0	44	104	0	77	16284
2026-01-24 23:19:05.24	52.84	29.69	-53.3	-66.0	3.8	1.49e+00	0	43	104	0	77	16254
2026-01-24 23:19:06.25	53.09	29.82	-53.3	-66.0	3.8	1.49e+00	0	43	104	0	77	16257
2026-01-24 23:19:07.26	53.35	29.94	-53.3	-66.0	3.8	1.49e+00	0	43	104	0	77	16264
2026-01-24 23:19:08.27	53.61	30.07	-53.3	-66.0	3.8	1.49e+00	0	44	104	0	77	16250
2026-01-24 23:19:09.27	53.87	30.20	-53.3	-66.0	3.8	1.49e+00	0	44	104	0	77	16313
2026-01-24 23:19:10.28	54.13	30.32	-53.3	-66.0	3.8	1.49e+00	0	43	104	0	77	16231
2026-01-24 23:19:11.29	54.39	30.45	-53.3	-66.0	3.8	1.49e+00	0	43	104	0	77	16272
2026-01-24 23:19:12.30	54.66	30.58	-53.3	-66.0	3.8	1.49e+00	0	43	104	0	77	16256
2026-01-24 23:19:13.30	54.92	30.70	-53.3	-66.0	3.8	1.49e+00	0	44	104	0	77	16229
2026-01-24 23:19:14.31	55.19	30.83	-53.3	-66.0	3.8	1.49e+00	0	44	104	0	77	16247
2026-01-24 23:19:15.32	55.47	30.96	-53.3	-66.0	3.8	1.49e+00	0	44	104	0	77	16261
2026-01-24 23:19:16.33	55.74	31.08	-53.3	-66.0	3.8	1.49e+00	0	43	104	0	77	16269
2026-01-24 23:19:17.34	56.02	31.21	-53.3	-66.0	3.8	1.49e+00	0	44	104	0	77	16256
2026-01-24 23:19:18.34	56.29	31.33	-53.3	-66.0	3.8	1.49e+00	0	44	104	0	77	16246
2026-01-24 23:19:19.35	56.57	31.46	-53.3	-66.0	3.8	1.49e+00	0	43	104	0	77	16240
2026-01-24 23:19:20.36	56.86	31.59	-53.3	-66.0	3.8	1.49e+00	0	43	104	0	77	16269
2026-01-24 23:19:21.37	57.14	31.71	-53.3	-66.0	3.8	1.49e+00	0	44	104	0	77	16268
2026-01-24 23:19:22.37	57.43	31.84	-53.3	-66.0	3.8	1.49e+00	0	44	104	0	77	16220
2026-01-24 23:19:23.38	57.72	31.96	-53.3	-66.0	3.8	1.49e+00	0	44	104	0	77	16267
2026-01-24 23:19:24.39	58.01	32.09	-53.3	-66.0	3.8	1.49e+00	0	44	104	0	77	16277
2026-01-24 23:19:25.40	58.30	32.21	-53.3	-66.0	3.8	1.49e+00	0	43	104	0	77	16247
2026-01-24 23:19:26.41	58.60	32.33	-53.3	-66.0	3.8	1.49e+00	0	43	104	0	77	16241
2026-01-24 23:19:27.42	58.90	32.46	-53.3	-66.0	3.8	1.49e+00	0	44	104	0	77	16267
2026-01-24 23:19:28.42	59.19	32.58	-53.3	-66.0	3.8	1.49e+00	0	44	104	0	77	16278
2026-01-24 23:19:29.43	59.50	32.70	-53.3	-66.0	3.8	1.49e+00	0	44	104	0	77	16313
2026-01-24 23:19:30.44	59.80	32.83	-53.3	-66.0	3.8	1.49e+00	0	44	104	0	77	16246
2026-01-24 23:19:31.45	60.11	32.95	-53.3	-66.0	3.8	1.49e+00	0	43	104	0	77	16221
2026-01-24 23:19:32.45	60.42	33.07	-53.3	-66.0	3.8	1.49e+00	0	44	104	0	77	16290
2026-01-24 23:19:33.46	60.73	33.19	-53.3	-66.0	3.8	1.49e+00	0	44	104	0	77	16252
2026-01-24 23:19:34.47	61.04	33.31	-53.3	-66.0	3.8	1.49e+00	0	44	104	0	77	16270
2026-01-24 23:19:35.48	61.36	33.43	-53.3	-66.0	3.8	1.49e+00	0	44	104	0	77	16249
2026-01-24 23:19:36.49	61.68	33.55	-53.3	-66.0	3.8	1.49e+00	0	44	104	0	77	16261
2026-01-24 23:19:37.50	62.00	33.67	-53.3	-66.0	3.8	1.49e+00	0	44	104	0	77	16272
2026-01-24 23:19:38.50	62.32	33.79	-53.3	-66.0	3.8	1.49e+00	0	43	104	0	77	16242
2026-01-24 23:19:39.51	62.64	33.91	-53.3	-66.0	3.8	1.49e+00	0	43	104	0	77	16233
2026-01-24 23:19:40.52	62.97	34.03	-53.3	-66.0	3.8	1.49e+00	0	44	104	0	77	16271
2026-01-24 23:19:41.53	63.30	34.15	-53.3	-66.0	3.8	1.49e+00	0	44	104	0	77	16230
2026-01-24 23:19:42.54	63.64	34.26	-53.3	-66.0	3.8	1.49e+00	0	44	104	0	77	16255
2026-01-24 23:19:43.55	63.97	34.38	-53.3	-66.0	3.8	1.49e+00	0	43	104	0	77	16253
2026-01-24 23:19:44.56	64.31	34.50	-53.3	-66.0	3.8	1.49e+00	0	44	104	0	77	16280
2026-01-24 23:19:45.57	64.65	34.61	-53.3	-66.0	3.8	1.49e+00	0	44	104	0	77	16264
2026-01-24 23:19:46.58	64.99	34.72	-53.3	-66.0	3.8	1.49e+00	0	44	104	0	77	16240
2026-01-24 23:19:47.58	65.33	34.84	-53.3	-66.0	3.8	1.49e+00	0	43	104	0	77	16269
2026-01-24 23:19:48.59	65.68	34.95	-53.3	-66.0	3.8	1.49e+00	0	44	104	0	77	16244
2026-01-24 23:19:49.60	66.03	35.06	-53.3	-66.0	3.8	1.49e+00	0	43	104	0	77	16230
2026-01-24 23:19:50.61	66.38	35.17	-53.3	-66.0	3.8	1.49e+00	0	44	104	0	77	16262
2026-01-24 23:19:51.62	66.73	35.28	-53.3	-66.0	3.8	1.49e+00	0	43	104	0	77	16277
2026-01-24 23:19:52.62	67.09	35.39	-53.3	-66.0	3.8	1.49e+00	0	43	104	0	77	16269
2026-01-24 23:19:53.63	67.45	35.50	-53.3	-66.0	3.8	1.49e+00	0	44	104	0	77	16256
2026-01-24 23:19:54.64	67.81	35.61	-53.3	-66.0	3.8	1.49e+00	0	44	104	0	77	16246
2026-01-24 23:19:55.65	68.17	35.72	-53.3	-66.0	3.8	1.49e+00	0	43	104	0	77	16256
2026-01-24 23:19:56.66	68.54	35.82	-53.3	-66.0	3.8	1.49e+00	0	44	104	0	77	16288
2026-01-24 23:19:57.66	68.90	35.93	-53.3	-66.0	3.8	1.49e+00	0	43	104	0	77	16242
2026-01-24 23:19:58.67	69.27	36.03	-53.3	-66.0	3.8	1.49e+00	0	43	104	0	77	16302
2026-01-24 23:19:59.68	69.65	36.14	-53.3	-66.0	3.8	1.49e+00	0	44	104	0	77	16227
2026-01-24 23:20:00.69	70.02	36.24	-53.3	-66.0	3.8	1.49e+00	0	44	104	0	77	16265
2026-01-24 23:20:01.70	70.40	36.34	-53.3	-66.0	3.8	1.49e+00	0	44	104	0	77	16244
2026-01-24 23:20:02.70	70.78	36.44	-53.3	-66.0	3.8	1.49e+00	0	44	104	0	77	16241
2026-01-24 23:20:03.71	71.16	36.54	-53.3	-66.0	3.8	1.49e+00	0	43	104	0	77	16296
2026-01-24 23:20:04.72	71.54	36.64	-53.3	-66.0	3.8	1.49e+00	0	44	104	0	77	16256
2026-01-24 23:20:05.73	71.93	36.73	-53.3	-66.0	3.8	1.49e+00	0	44	104	0	77	16293
2026-01-24 23:20:06.74	72.32	36.83	-53.3	-66.0	3.8	1.49e+00	0	44	104	0	77	16285
2026-01-24 23:20:07.74	72.71	36.92	-53.3	-66.0	3.8	1.49e+00	0	44	104	0	77	16254
2026-01-24 23:20:08.75	73.10	37.02	-53.3	-66.0	3.8	1.49e+00	0	44	104	0	77	16278
2026-01-24 23:20:09.76	73.50	37.11	-53.3	-66.0	3.8	1.49e+00	0	44	104	0	77	16249
2026-01-24 23:20:10.77	73.89	37.20	-53.3	-66.0	3.8	1.49e+00	0	44	104	0	77	16268
2026-01-24 23:20:11.78	74.29	37.29	-53.3	-66.0	3.8	1.49e+00	0	44	104	0	77	16253
2026-01-24 23:20:12.78	74.69	37.38	-53.3	-66.0	3.8	1.49e+00	0	44	104	0	77	16263
2026-01-24 23:20:13.79	75.10	37.47	-53.3	-66.0	3.8	1.49e+00	0	43	104	0	77	16270
2026-01-24 23:20:14.80	75.50	37.55	-53.3	-66.0	3.8	1.49e+00	0	44	104	0	77	16310
2026-01-24 23:20:15.81	75.91	37.64	-53.3	-66.0	3.8	1.49e+00	0	44	104	0	77	16238
2026-01-24 23:20:16.81	76.32	37.72	-53.3	-66.0	3.8	1.49e+00	0	43	104	0	77	16265
2026-01-24 23:20:17.82	76.73	37.80	-53.3	-66.0	3.8	1.49e+00	0	44	104	0	77	16264
2026-01-24 23:20:18.83	77.15	37.88	-53.3	-66.0	3.8	1.49e+00	0	44	104	0	77	16239
2026-01-24 23:20:19.84	77.56	37.96	-53.3	-66.0	3.8	1.49e+00	0	44	104	0	77	16266
2026-01-24 23:20:20.85	77.98	38.04	-53.3	-66.0	3.8	1.49e+00	0	44	104	0	77	16235
2026-01-24 23:20:21.86	78.40	38.11	-53.3	-66.0	3.8	1.49e+00	0	44	104	0	77	16246
2026-01-24 23:20:22.86	78.82	38.18	-53.3	-66.0	3.8	1.49e+00	0	43	104	0	77	16294
2026-01-24 23:20:23.87	79.25	38.26	-53.3	-66.0	3.8	1.49e+00	0	44	104	0	77	16274
2026-01-24 23:20:24.88	79.67	38.33	-53.3	-66.0	3.8	1.49e+00	0	44	104	0	77	16263
2026-01-24 23:20:25.89	80.10	38.40	-53.3	-66.0	3.8	1.49e+00	0	44	104	0	77	16256
2026-01-24 23:20:26.89	80.53	38.46	-53.3	-66.0	3.8	1.49e+00	0	44	104	0	77	16292
2026-01-24 23:20:27.90	80.96	38.53	-53.3	-66.0	3.8	1.49e+00	0	44	104	0	77	16291
2026-01-24 23:20:28.91	81.39	38.60	-53.3	-66.0	3.8	1.49e+00	0	44	104	0	77	16252
2026-01-24 23:20:29.92	81.83	38.66	-53.3	-66.0	3.8	1.49e+00	0	44	104	0	77	16246
2026-01-24 23:20:30.93	82.27	38.72	-53.3	-66.0	3.8	1.49e+00	0	44	104	0	77	16303
2026-01-24 23:20:31.94	82.70	38.78	-53.3	-66.0	3.8	1.49e+00	0	43	104	0	77	16264
2026-01-24 23:20:32.94	83.14	38.84	-53.3	-66.0	3.8	1.49e+00	0	44	104	0	77	16196
2026-01-24 23:20:33.95	83.58	38.89	-53.3	-66.0	3.8	1.49e+00	0	44	104	0	77	16289
2026-01-24 23:20:34.96	84.03	38.95	-53.3	-66.0	3.8	1.49e+00	0	44	104	0	77	16249
2026-01-24 23:20:35.97	84.47	39.00	-53.3	-66.0	3.8	1.49e+00	0	44	104	0	77	16261
2026-01-24 23:20:36.97	84.91	39.05	-53.3	-66.0	3.8	1.49e+00	0	44	104	0	77	16271
2026-01-24 23:20:37.98	85.36	39.10	-53.3	-66.0	3.8	1.49e+00	0	44	104	0	77	16277
2026-01-24 23:20:38.99	85.81	39.14	-53.3	-66.0	3.8	1.49e+00	0	44	104	0	77	16251
2026-01-24 23:20:40.00	86.26	39.19	-53.3	-66.0	3.8	1.49e+00	0	43	104	0	77	16271
2026-01-24 23:20:41.01	86.71	39.23	-53.3	-66.0	3.8	1.49e+00	0	44	104	0	77	16242
2026-01-24 23:20:42.01	87.16	39.27	-53.3	-66.0	3.8	1.49e+00	0	44	104	0	77	16252
2026-01-24 23:20:43.02	87.61	39.31	-53.3	-66.0	3.8	1.49e+00	0	44	104	0	77	16272
2026-01-24 23:20:44.03	88.06	39.35	-53.3	-66.0	3.8	1.49e+00	0	44	104	0	77	16265
2026-01-24 23:20:45.04	88.52	39.38	-53.3	-66.0	3.8	1.49e+00	0	44	104	0	77	16301
2026-01-24 23:20:46.05	88.98	39.42	-53.3	-66.0	3.8	1.49e+00	0	44	104	0	77	16238
2026-01-24 23:20:47.06	89.43	39.45	-53.3	-66.0	3.8	1.49e+00	0	44	104	0	77	16213
2026-01-24 23:20:48.06	89.89	39.48	-53.3	-66.0	3.8	1.49e+00	0	44	104	0	77	16254
2026-01-24 23:20:49.07	90.35	39.50	-53.3	-66.0	3.8	1.49e+00	0	44	104	0	77	16261
2026-01-24 23:20:50.08	90.81	39.53	-53.3	-66.0	3.8	1.49e+00	0	44	104	0	77	16244
2026-01-24 23:20:51.09	91.27	39.55	-53.3	-66.0	3.8	1.49e+00	0	44	104	0	77	16296
2026-01-24 23:20:52.09	91.72	39.57	-53.3	-66.0	3.8	1.49e+00	0	44	104	0	77	16271
2026-01-24 23:20:53.10	92.18	39.59	-53.3	-66.0	3.8	1.49e+00	0	44	104	0	77	16304
2026-01-24 23:20:54.11	92.65	39.61	-53.3	-66.0	3.8	1.49e+00	0	44	104	0	77	16236
2026-01-24 23:20:55.12	93.11	39.63	-53.3	-66.0	3.8	1.49e+00	0	44	104	0	77	16265
2026-01-24 23:20:56.13	93.57	39.64	-53.3	-66.0	3.8	1.49e+00	0	44	104	0	77	16285
2026-01-24 23:20:57.13	94.03	39.65	-53.3	-66.0	3.8	1.49e+00	0	44	104	0	77	16222
2026-01-24 23:20:58.14	94.49	39.66	-53.3	-66.0	3.8	1.49e+00	0	44	104	0	77	16254
2026-01-24 23:20:59.15	94.96	39.67	-53.3	-66.0	3.8	1.49e+00	0	44	104	0	77	16257
2026-01-24 23:21:00.16	95.42	39.67	-53.3	-66.0	3.8	1.49e+00	0	44	104	0	77	16294
2026-01-24 23:21:01.17	95.89	39.67	-53.3	-66.0	3.8	1.49e+00	0	44	104	0	77	16230
2026-01-24 23:21:02.18	96.35	39.68	-53.3	-66.0	3.8	1.49e+00	0	44	104	0	77	16287
2026-01-24 23:21:03.19	96.82	39.67	-53.3	-66.0	3.8	1.49e+00	0	44	104	0	77	16252
2026-01-24 23:21:04.20	97.28	39.67	-53.3	-66.0	3.8	1.49e+00	0	44	104	0	77	16299
2026-01-24 23:21:05.20	97.74	39.67	-53.3	-66.0	3.8	1.49e+00	0	44	104	0	77	16312
2026-01-24 23:21:06.21	98.20	39.66	-53.3	-66.0	3.8	1.49e+00	0	44	104	0	77	16267
2026-01-24 23:21:07.22	98.67	39.65	-53.3	-66.0	3.8	1.49e+00	0	44	104	0	77	16229
2026-01-24 23:21:08.23	99.13	39.64	-53.3	-66.0	3.8	1.49e+00	0	44	104	0	77	16235
2026-01-24 23:21:09.24	99.59	39.62	-53.3	-66.0	3.8	1.49e+00	0	44	104	0	77	16290
2026-01-24 23:21:10.24	100.05	39.61	-53.3	-66.0	3.8	1.49e+00	0	44	104	0	77	16284
2026-01-24 23:21:11.25	100.51	39.59	-53.3	-66.0	3.8	1.49e+00	0	44	104	0	77	16251
2026-01-24 23:21:12.26	100.98	39.57	-53.3	-66.0	3.8	1.49e+00	0	44	104	0	77	16267
2026-01-24 23:21:13.27	101.44	39.55	-53.3	-66.0	3.8	1.49e+00	0	44	104	0	77	16308
2026-01-24 23:21:14.27	101.89	39.53	-53.3	-66.0	3.8	1.49e+00	0	44	104	0	77	16275
2026-01-24 23:21:15.28	102.35	39.50	-53.3	-66.0	3.8	1.49e+00	0	44	104	0	77	16259
2026-01-24 23:21:16.29	102.81	39.47	-53.3	-66.0	3.8	1.49e+00	0	44	104	0	77	16259
2026-01-24 23:21:17.30	103.27	39.44	-53.3	-66.0	3.8	1.49e+00	0	44	104	0	77	16259
2026-01-24 23:21:18.30	103.72	39.41	-53.3	-66.0	3.8	1.49e+00	0	44	104	0	77	16252
2026-01-24 23:21:19.31	104.18	39.38	-53.3	-66.0	3.8	1.49e+00	0	44	104	0	77	16310
2026-01-24 23:21:20.32	104.64	39.34	-53.3	-66.0	3.8	1.49e+00	0	44	104	0	77	16257
2026-01-24 23:21:21.33	105.09	39.30	-53.3	-66.0	3.8	1.49e+00	0	44	104	0	77	16275
2026-01-24 23:21:22.34	105.54	39.26	-53.3	-66.1	3.8	1.49e+00	0	44	104	0	77	16327
2026-01-24 23:21:23.34	105.99	39.22	-53.3	-66.0	3.8	1.49e+00	0	44	104	0	77	16276
2026-01-24 23:21:24.35	106.44	39.18	-53.3	-66.0	3.8	1.49e+00	0	44	104	0	77	16261
2026-01-24 23:21:25.36	106.89	39.13	-53.3	-66.0	3.8	1.49e+00	0	44	104	0	77	16262
2026-01-24 23:21:26.37	107.34	39.09	-53.3	-66.0	3.8	1.49e+00	0	44	104	0	77	16275
2026-01-24 23:21:27.38	107.79	39.04	-53.3	-66.0	3.8	1.49e+00	0	44	104	0	77	16254
2026-01-24 23:21:28.38	108.23	38.99	-53.3	-66.0	3.8	1.49e+00	0	44	104	0	77	16257
2026-01-24 23:21:29.39	108.68	38.93	-53.3	-66.0	3.8	1.49e+00	0	44	104	0	77	16288
2026-01-24 23:21:30.40	109.12	38.88	-53.3	-66.0	3.8	1.49e+00	0	44	104	0	77	16241
2026-01-24 23:21:31.41	109.56	38.82	-53.3	-66.0	3.8	1.49e+00	0	44	104	0	77	16216
2026-01-24 23:21:32.42	110.00	38.77	-53.3	-66.0	3.8	1.49e+00	0	44	104	0	77	16302
2026-01-24 23:21:33.42	110.44	38.71	-53.3	-66.0	3.8	1.49e+00	0	44	104	0	77	16281
2026-01-24 23:21:34.43	110.87	38.65	-53.3	-66.0	3.8	1.49e+00	0	44	104	0	77	16243
2026-01-24 23:21:35.44	111.31	38.58	-53.3	-66.0	3.8	1.49e+00	0	44	104	0	77	16247
2026-01-24 23:21:36.45	111.74	38.52	-53.3	-66.0	3.8	1.49e+00	0	44	104	0	77	16296
2026-01-24 23:21:37.46	112.18	38.45	-53.3	-66.0	3.8	1.49e+00	0	44	104	0	77	16284
2026-01-24 23:21:38.46	112.60	38.38	-53.3	-66.0	3.8	1.49e+00	0	44	104	0	77	16254
2026-01-24 23:21:39.47	113.03	38.31	-53.3	-66.0	3.8	1.49e+00	0	44	104	0	77	16256
2026-01-24 23:21:40.48	113.46	38.24	-53.3	-66.0	3.8	1.49e+00	0	44	104	0	77	16301
2026-01-24 23:21:41.49	113.88	38.17	-53.3	-66.0	3.8	1.49e+00	0	44	104	0	77	16277
2026-01-24 23:21:42.50	114.31	38.09	-53.3	-66.0	3.8	1.49e+00	0	44	104	0	77	16304
2026-01-24 23:21:43.50	114.72	38.02	-53.3	-66.0	3.8	1.49e+00	0	44	104	0	77	16289
2026-01-24 23:21:44.51	115.14	37.94	-53.3	-66.0	3.8	1.49e+00	0	44	104	0	77	16253
2026-01-24 23:21:45.52	115.56	37.86	-53.3	-66.0	3.8	1.49e+00	0	44	104	0	77	16281
2026-01-24 23:21:46.53	115.98	37.78	-53.3	-66.0	3.8	1.49e+00	0	44	104	0	77	16229
2026-01-24 23:21:47.54	116.39	37.70	-53.3	-66.0	3.8	1.49e+00	0	44	104	0	77	16312
2026-01-24 23:21:48.54	116.80	37.62	-53.3	-66.0	3.8	1.49e+00	0	44	104	0	77	16241
2026-01-24 23:21:49.55	117.21	37.53	-53.3	-66.0	3.8	1.49e+00	0	44	104	0	77	16309
2026-01-24 23:21:50.56	117.61	37.44	-53.3	-66.0	3.8	1.49e+00	0	44	104	0	77	16254
2026-01-24 23:21:51.57	118.02	37.36	-53.3	-66.0	3.8	1.49e+00	0	44	104	0	77	16264
2026-01-24 23:21:52.57	118.42	37.27	-53.3	-66.1	3.8	1.49e+00	0	44	104	0	77	16319
2026-01-24 23:21:53.58	118.82	37.18	-53.3	-66.0	3.8	1.49e+00	0	44	104	0	77	16274
2026-01-24 23:21:54.59	119.22	37.09	-53.3	-66.0	3.8	1.49e+00	0	44	104	0	77	16283
2026-01-24 23:21:55.60	119.61	36.99	-53.3	-66.0	3.8	1.49e+00	0	44	104	0	77	16233
2026-01-24 23:21:56.61	120.01	36.90	-53.3	-66.0	3.8	1.49e+00	0	44	104	0	77	16287
2026-01-24 23:21:57.61	120.39	36.81	-53.3	-66.1	3.8	1.49e+00	0	44	104	0	77	16324
2026-01-24 23:21:58.62	120.78	36.71	-53.3	-66.0	3.8	1.49e+00	0	44	104	0	77	16243
2026-01-24 23:21:59.63	121.17	36.61	-53.3	-66.0	3.8	1.49e+00	0	44	104	0	77	16235
2026-01-24 23:22:00.64	121.56	36.51	-53.3	-66.0	3.8	1.49e+00	0	44	104	0	77	16302
2026-01-24 23:22:01.64	121.93	36.41	-53.3	-66.0	3.8	1.49e+00	0	44	104	0	77	16270
2026-01-24 23:22:02.65	122.31	36.31	-53.3	-66.0	3.8	1.49e+00	0	44	104	0	77	16275
2026-01-24 23:22:03.66	122.69	36.21	-53.3	-66.0	3.8	1.49e+00	0	44	104	0	77	16282
2026-01-24 23:22:04.67	123.07	36.11	-53.3	-66.0	3.8	1.49e+00	0	44	104	0	77	16221
2026-01-24 23:22:05.68	123.44	36.00	-53.3	-66.0	3.8	1.49e+00	0	44	104	0	77	16257
2026-01-24 23:22:06.69	123.81	35.90	-53.3	-66.0	3.8	1.49e+00	0	44	104	0	77	16242
2026-01-24 23:22:07.70	124.18	35.79	-53.3	-66.0	3.8	1.49e+00	0	44	104	0	77	16276
2026-01-24 23:22:08.70	124.54	35.69	-53.3	-66.0	3.8	1.49e+00	0	44	104	0	77	16245
2026-01-24 23:22:09.71	124.91	35.58	-53.3	-66.0	3.8	1.49e+00	0	44	104	0	77	16254
2026-01-24 23:22:10.72	125.27	35.47	-53.3	-66.0	3.8	1.49e+00	0	44	104	0	77	16267
2026-01-24 23:22:11.73	125.63	35.36	-53.3	-66.0	3.8	1.49e+00	0	44	104	0	77	16285
2026-01-24 23:22:12.74	125.99	35.25	-53.3	-66.0	3.8	1.49e+00	0	44	104	0	77	16271
2026-01-24 23:22:13.74	126.34	35.14	-53.3	-66.1	3.8	1.49e+00	0	44	104	0	77	16336
2026-01-24 23:22:14.75	126.69	35.03	-53.3	-66.0	3.8	1.49e+00	0	44	104	0	77	16306
2026-01-24 23:22:15.76	127.04	34.91	-53.3	-66.0	3.8	1.49e+00	0	44	104	0	77	16293
2026-01-24 23:22:16.77	127.39	34.80	-53.3	-66.0	3.8	1.49e+00	0	44	104	0	77	16261
2026-01-24 23:22:17.78	127.73	34.69	-53.3	-66.0	3.8	1.49e+00	0	44	104	0	77	16253
2026-01-24 23:22:18.78	128.07	34.57	-53.3	-66.0	3.8	1.49e+00	0	44	104	0	77	16279
2026-01-24 23:22:19.79	128.41	34.46	-53.3	-66.0	3.8	1.49e+00	0	44	104	0	77	16284
2026-01-24 23:22:20.80	128.75	34.34	-53.3	-66.0	3.8	1.49e+00	0	44	104	0	77	16226
2026-01-24 23:22:21.81	129.09	34.22	-53.3	-66.0	3.8	1.49e+00	0	44	104	0	77	16226
2026-01-24 23:22:22.81	129.42	34.11	-53.3	-66.0	3.8	1.49e+00	0	44	104	0	77	16237
2026-01-24 23:22:23.82	129.75	33.99	-53.3	-66.0	3.8	1.49e+00	0	44	104	0	77	16243
2026-01-24 23:22:24.83	130.08	33.87	-53.3	-66.0	3.8	1.49e+00	0	44	104	0	77	16303
2026-01-24 23:22:25.83	130.40	33.75	-53.3	-66.0	3.8	1.49e+00	0	44	104	0	77	16254
2026-01-24 23:22:26.84	130.72	33.63	-53.3	-66.0	3.8	1.49e+00	0	44	104	0	77	16302
2026-01-24 23:22:27.85	131.04	33.51	-53.3	-66.0	3.8	1.49e+00	0	44	104	0	77	16258
2026-01-24 23:22:28.86	131.36	33.39	-53.3	-66.0	3.8	1.49e+00	0	44	104	0	77	16247
2026-01-24 23:22:29.87	131.68	33.27	-53.3	-66.0	3.8	1.49e+00	0	44	104	0	77	16274
2026-01-24 23:22:30.88	131.99	33.15	-53.3	-66.0	3.8	1.49e+00	0	44	104	0	77	16260
2026-01-24 23:22:31.88	132.30	33.03	-53.3	-66.0	3.8	1.49e+00	0	44	104	0	77	16278
2026-01-24 23:22:32.89	132.61	32.90	-53.3	-66.0	3.8	1.49e+00	0	44	104	0	77	16244
2026-01-24 23:22:33.90	132.92	32.78	-53.3	-66.0	3.8	1.49e+00	0	44	104	0	77	16247
2026-01-24 23:22:34.90	133.22	32.66	-53.3	-66.0	3.8	1.49e+00	0	44	104	0	77	16294
2026-01-24 23:22:35.91	133.53	32.53	-53.3	-66.0	3.8	1.49e+00	0	44	104	0	77	16236
2026-01-24 23:22:36.92	133.83	32.41	-53.3	-66.0	3.8	1.49e+00	0	44	104	0	77	16218
2026-01-24 23:22:37.93	134.13	32.28	-53.3	-66.0	3.8	1.49e+00	0	44	104	0	77	16252
2026-01-24 23:22:38.94	134.42	32.16	-53.3	-66.0	3.8	1.49e+00	0	44	104	0	77	16239
2026-01-24 23:22:39.94	134.71	32.04	-53.3	-66.0	3.8	1.49e+00	0	44	104	0	77	16274
2026-01-24 23:22:40.95	135.01	31.91	-53.3	-66.0	3.8	1.49e+00	0	44	104	0	77	16236
2026-01-24 23:22:41.96	135.30	31.78	-53.3	-66.0	3.8	1.49e+00	0	44	104	0	77	16254
2026-01-24 23:22:42.97	135.58	31.66	-53.3	-66.1	3.8	1.49e+00	0	44	104	0	77	16322
2026-01-24 23:22:43.98	135.87	31.53	-53.3	-66.0	3.8	1.49e+00	0	44	104	0	77	16267
2026-01-24 23:22:44.98	136.15	31.41	-53.3	-66.0	3.8	1.49e+00	0	44	104	0	77	16256
2026-01-24 23:22:45.99	136.43	31.28	-53.3	-66.1	3.8	1.49e+00	0	44	104	0	77	16317
2026-01-24 23:22:47.00	136.71	31.15	-53.3	-66.0	3.8	1.49e+00	0	44	104	0	77	16310
2026-01-24 23:22:48.01	136.99	31.03	-53.3	-66.0	3.8	1.49e+00	0	44	104	0	77	16223
2026-01-24 23:22:49.02	137.26	30.90	-53.3	-66.0	3.8	1.49e+00	0	44	104	0	77	16278
2026-01-24 23:22:50.02	137.53	30.77	-53.3	-66.0	3.8	1.49e+00	0	44	104	0	77	16250
2026-01-24 23:22:51.03	137.80	30.65	-53.3	-66.0	3.8	1.49e+00	0	44	104	0	77	16249
2026-01-24 23:22:52.04	138.07	30.52	-53.3	-66.0	3.8	1.49e+00	0	44	104	0	77	16278
2026-01-24 23:22:53.05	138.34	30.39	-53.3	-66.0	3.8	1.49e+00	0	44	104	0	77	16255
2026-01-24 23:22:54.06	138.60	30.26	-53.3	-66.0	3.8	1.49e+00	0	44	104	0	77	16198
2026-01-24 23:22:55.06	138.86	30.14	-53.3	-66.0	3.8	1.49e+00	0	44	104	0	77	16256
2026-01-24 23:22:56.07	139.12	30.01	-53.3	-66.0	3.8	1.49e+00	0	44	104	0	77	16271
2026-01-24 23:22:57.08	139.38	29.88	-53.3	-66.0	3.8	1.49e+00	0	44	104	0	77	16259
2026-01-24 23:22:58.08	139.63	29.75	-53.3	-66.0	3.8	1.49e+00	0	44	104	0	77	16265
2026-01-24 23:22:59.09	139.89	29.63	-53.3	-66.0	3.8	1.49e+00	0	44	104	0	77	16256
2026-01-24 23:23:00.10	140.14	29.50	-53.3	-66.0	3.8	1.49e+00	0	44	104	0	77	16264
2026-01-24 23:23:01.11	140.39	29.37	-53.3	-66.0	3.8	1.49e+00	0	44	104	0	77	16274
2026-01-24 23:23:02.11	140.64	29.24	-53.3	-66.0	3.8	1.49e+00	0	44	104	0	77	16247
2026-01-24 23:23:03.12	140.88	29.11	-53.3	-66.0	3.8	1.49e+00	0	44	104	0	77	16215
2026-01-24 23:23:04.13	141.13	28.99	-53.3	-66.0	3.8	1.49e+00	0	44	104	0	77	16251
2026-01-24 23:23:05.14	141.37	28.86	-53.3	-66.0	3.8	1.49e+00	0	44	104	0	77	16308
2026-01-24 23:23:06.15	141.61	28.73	-53.3	-66.0	3.8	1.49e+00	0	44	104	0	77	16269
2026-01-24 23:23:07.15	141.85	28.60	-53.3	-66.0	3.8	1.49e+00	0	43	104	0	77	16252
2026-01-24 23:23:08.16	142.09	28.48	-53.3	-66.0	3.8	1.49e+00	0	44	104	0	77	16230
2026-01-24 23:23:09.17	142.32	28.35	-53.3	-66.0	3.8	1.49e+00	0	44	104	0	77	16248
2026-01-24 23:23:10.18	142.55	28.22	-53.3	-66.0	3.8	1.49e+00	0	44	104	0	77	16289
2026-01-24 23:23:11.19	142.79	28.09	-53.3	-66.0	3.8	1.49e+00	0	44	104	0	77	16301
2026-01-24 23:23:12.20	143.02	27.97	-53.3	-66.0	3.8	1.49e+00	0	44	104	0	77	16236
2026-01-24 23:23:13.20	143.24	27.84	-53.3	-66.0	3.8	1.49e+00	0	44	104	0	77	16278
2026-01-24 23:23:14.21	143.47	27.71	-53.3	-66.0	3.8	1.49e+00	0	44	104	0	77	16277
2026-01-24 23:23:15.22	143.69	27.59	-53.3	-66.0	3.8	1.49e+00	0	44	104	0	77	16284
2026-01-24 23:23:16.23	143.92	27.46	-53.3	-66.0	3.8	1.49e+00	0	44	104	0	77	16313
2026-01-24 23:23:17.23	144.13	27.33	-53.3	-66.0	3.8	1.49e+00	0	44	104	0	77	16254
2026-01-24 23:23:18.24	144.35	27.21	-53.3	-66.0	3.8	1.49e+00	0	44	104	0	77	16289
2026-01-24 23:23:19.25	144.57	27.08	-53.3	-66.0	3.8	1.49e+00	0	44	104	0	77	16258
2026-01-24 23:23:20.26	144.79	26.95	-53.3	-66.0	3.8	1.49e+00	0	44	104	0	77	16291
2026-01-24 23:23:21.26	145.00	26.83	-53.3	-66.0	3.8	1.49e+00	0	44	104	0	77	16230
2026-01-24 23:23:22.27	145.21	26.70	-53.3	-66.0	3.8	1.49e+00	0	44	104	0	77	16233
2026-01-24 23:23:23.28	145.42	26.58	-53.3	-66.0	3.8	1.49e+00	0	44	104	0	77	16289
2026-01-24 23:23:24.29	145.63	26.45	-53.3	-66.0	3.8	1.49e+00	0	44	104	0	77	16302
2026-01-24 23:23:25.30	145.84	26.32	-53.3	-66.0	3.8	1.49e+00	0	44	104	0	77	16271
2026-01-24 23:23:26.30	146.05	26.20	-53.3	-66.0	3.8	1.49e+00	0	44	104	0	77	16291
2026-01-24 23:23:27.31	146.25	26.07	-53.3	-66.0	3.8	1.49e+00	0	44	104	0	77	16218
2026-01-24 23:23:28.32	146.45	25.95	-53.3	-66.1	3.8	1.49e+00	0	44	104	0	77	16324
2026-01-24 23:23:29.33	146.66	25.83	-53.3	-66.0	3.8	1.49e+00	0	44	104	0	77	16303
2026-01-24 23:23:30.34	146.86	25.70	-53.3	-66.0	3.8	1.49e+00	0	44	104	0	77	16220
2026-01-24 23:23:31.34	147.05	25.58	-53.3	-66.0	3.8	1.49e+00	0	44	104	0	77	16291
2026-01-24 23:23:32.35	147.25	25.45	-53.3	-66.0	3.8	1.49e+00	0	44	104	0	77	16293
2026-01-24 23:23:33.36	147.45	25.33	-53.3	-66.0	3.8	1.49e+00	0	44	104	0	77	16264
2026-01-24 23:23:34.37	147.64	25.21	-53.3	-66.0	3.8	1.49e+00	0	44	104	0	77	16246
2026-01-24 23:23:35.38	147.83	25.08	-53.3	-66.0	3.8	1.49e+00	0	44	104	0	77	16252
2026-01-24 23:23:36.38	148.02	24.96	-53.3	-66.0	3.8	1.49e+00	0	44	104	0	77	16248
2026-01-24 23:23:37.39	148.21	24.84	-53.3	-66.0	3.8	1.49e+00	0	44	104	0	77	16279
2026-01-24 23:23:38.40	148.40	24.72	-53.3	-66.0	3.8	1.49e+00	0	44	104	0	77	16291
2026-01-24 23:23:39.40	148.59	24.59	-53.3	-66.0	3.8	1.49e+00	0	44	104	0	77	16226
2026-01-24 23:23:40.41	148.77	24.47	-53.3	-66.0	3.8	1.49e+00	0	44	104	0	77	16231
2026-01-24 23:23:41.42	148.96	24.35	-53.3	-66.0	3.8	1.49e+00	0	44	104	0	77	16254
2026-01-24 23:23:42.43	149.14	24.23	-53.3	-66.0	3.8	1.49e+00	0	44	104	0	77	16278
2026-01-24 23:23:43.44	149.32	24.11	-53.3	-66.0	3.8	1.49e+00	0	44	104	0	77	16265
2026-01-24 23:23:44.44	149.50	23.99	-53.3	-66.0	3.8	1.49e+00	0	44	104	0	77	16269
2026-01-24 23:23:45.45	149.68	23.87	-53.3	-66.0	3.8	1.49e+00	0	44	104	0	77	16300
2026-01-24 23:23:46.46	149.85	23.75	-53.3	-66.0	3.8	1.49e+00	0	43	104	0	77	16266
2026-01-24 23:23:47.47	150.03	23.63	-53.3	-66.0	3.8	1.49e+00	0	44	104	0	77	16274
2026-01-24 23:23:48.47	150.20	23.51	-53.3	-66.0	3.8	1.49e+00	0	44	104	0	77	16261
2026-01-24 23:23:49.48	150.38	23.39	-53.3	-66.0	3.8	1.49e+00	0	44	104	0	77	16289
2026-01-24 23:23:50.49	150.55	23.27	-53.3	-66.0	3.8	1.49e+00	0	44	104	0	77	16251
2026-01-24 23:23:51.50	150.72	23.15	-53.3	-66.0	3.8	1.49e+00	0	44	104	0	77	16242
2026-01-24 23:23:52.50	150.89	23.03	-53.3	-66.0	3.8	1.49e+00	0	44	104	0	77	16227
2026-01-24 23:23:53.51	151.06	22.91	-53.3	-66.0	3.8	1.49e+00	0	44	104	0	77	16220
2026-01-24 23:23:54.52	151.22	22.79	-53.3	-66.0	3.8	1.49e+00	0	44	104	0	77	16238
2026-01-24 23:23:55.53	151.39	22.68	-53.3	-66.0	3.8	1.49e+00	0	44	104	0	77	16254
2026-01-24 23:23:56.53	151.55	22.56	-53.3	-66.0	3.8	1.49e+00	0	44	104	0	77	16260
2026-01-24 23:23:57.54	151.72	22.44	-53.3	-66.0	3.8	1.49e+00	0	44	104	0	77	16257
2026-01-24 23:23:58.55	151.88	22.33	-53.3	-66.0	3.8	1.49e+00	0	44	104	0	77	16280
2026-01-24 23:23:59.56	152.04	22.21	-53.3	-66.0	3.8	1.49e+00	0	44	104	0	77	16231
2026-01-24 23:24:00.56	152.20	22.09	-53.3	-66.0	3.8	1.49e+00	0	44	104	0	77	16246
2026-01-24 23:24:01.57	152.36	21.98	-53.3	-66.0	3.8	1.49e+00	0	44	104	0	77	16222
2026-01-24 23:24:02.58	152.52	21.86	-53.3	-66.0	3.8	1.49e+00	0	44	104	0	77	16229
2026-01-24 23:24:03.59	152.67	21.75	-53.3	-66.0	3.8	1.49e+00	0	44	104	0	77	16260
2026-01-24 23:24:04.60	152.83	21.63	-53.3	-66.0	3.8	1.49e+00	0	44	104	0	77	16236
2026-01-24 23:24:05.60	152.98	21.52	-53.3	-66.0	3.8	1.49e+00	0	44	104	0	77	16288
2026-01-24 23:24:06.61	153.13	21.40	-53.3	-66.0	3.8	1.49e+00	0	44	104	0	77	16280
2026-01-24 23:24:07.62	153.29	21.29	-53.3	-66.0	3.8	1.49e+00	0	44	104	0	77	16260
2026-01-24 23:24:08.63	153.44	21.18	-53.3	-66.0	3.8	1.49e+00	0	44	104	0	77	16226
2026-01-24 23:24:09.63	153.59	21.06	-53.3	-66.0	3.8	1.49e+00	0	44	104	0	77	16282
2026-01-24 23:24:10.64	153.73	20.95	-53.3	-66.0	3.8	1.49e+00	0	44	104	0	77	16262
2026-01-24 23:24:11.65	153.88	20.84	-53.3	-66.0	3.8	1.49e+00	0	44	104	0	77	16243
2026-01-24 23:24:12.66	154.03	20.72	-53.3	-66.0	3.8	1.49e+00	0	44	104	0	77	16217
2026-01-24 23:24:13.67	154.18	20.61	-53.3	-66.0	3.8	1.49e+00	0	44	104	0	77	16286
2026-01-24 23:24:14.67	154.32	20.50	-53.3	-66.0	3.8	1.49e+00	0	44	104	0	77	16230
2026-01-24 23:24:15.68	154.46	20.39	-53.3	-66.0	3.8	1.49e+00	0	43	104	0	77	16243
2026-01-24 23:24:16.69	154.61	20.28	-53.3	-66.0	3.8	1.49e+00	0	44	104	0	77	16311
2026-01-24 23:24:17.70	154.75	20.17	-53.3	-66.0	3.8	1.49e+00	0	44	104	0	77	16306
2026-01-24 23:24:18.70	154.89	20.06	-53.3	-66.0	3.8	1.49e+00	0	44	104	0	77	16234
2026-01-24 23:24:19.71	155.03	19.95	-53.3	-66.0	3.8	1.49e+00	0	44	104	0	77	16236
2026-01-24 23:24:20.72	155.17	19.84	-53.3	-66.0	3.8	1.49e+00	0	44	104	0	77	16301
2026-01-24 23:24:21.73	155.30	19.73	-53.3	-66.0	3.8	1.49e+00	0	44	104	0	77	16279
2026-01-24 23:24:22.73	155.44	19.62	-53.3	-66.0	3.8	1.49e+00	0	44	104	0	77	16246
2026-01-24 23:24:23.74	155.58	19.51	-53.3	-66.0	3.8	1.49e+00	0	43	104	0	77	16290
2026-01-24 23:24:24.75	155.71	19.40	-53.3	-66.0	3.8	1.49e+00	0	44	104	0	77	16270
2026-01-24 23:24:25.76	155.85	19.29	-53.3	-66.0	3.8	1.49e+00	0	44	104	0	77	16279
2026-01-24 23:24:26.77	155.98	19.19	-53.3	-66.0	3.8	1.49e+00	0	44	104	0	77	16230
2026-01-24 23:24:27.77	156.11	19.08	-53.3	-66.0	3.8	1.49e+00	0	44	104	0	77	16270
2026-01-24 23:24:28.78	156.24	18.97	-53.3	-66.0	3.8	1.49e+00	0	44	104	0	77	16231
2026-01-24 23:24:29.79	156.37	18.86	-53.3	-66.0	3.8	1.49e+00	0	44	104	0	77	16273
2026-01-24 23:24:30.80	156.50	18.76	-53.3	-66.0	3.8	1.49e+00	0	44	104	0	77	16245
2026-01-24 23:24:31.81	156.63	18.65	-53.3	-66.0	3.8	1.49e+00	0	44	104	0	77	16262
2026-01-24 23:24:32.81	156.76	18.55	-53.3	-66.0	3.8	1.49e+00	0	44	104	0	77	16256
2026-01-24 23:24:33.82	156.88	18.44	-53.3	-66.0	3.8	1.49e+00	0	44	104	0	77	16177
2026-01-24 23:24:34.83	157.01	18.33	-53.3	-66.0	3.8	1.49e+00	0	43	104	0	77	16226
2026-01-24 23:24:35.84	157.14	18.23	-53.3	-66.0	3.8	1.49e+00	0	44	104	0	77	16308
2026-01-24 23:24:36.85	157.26	18.12	-53.3	-66.0	3.8	1.49e+00	0	44	104	0	77	16290
2026-01-24 23:24:37.86	157.39	18.02	-53.3	-66.0	3.8	1.49e+00	0	44	104	0	77	16230
2026-01-24 23:24:38.86	157.51	17.92	-53.3	-66.0	3.8	1.49e+00	0	44	104	0	77	16287
2026-01-24 23:24:39.87	157.63	17.81	-53.3	-66.0	3.8	1.49e+00	0	43	104	0	77	16288
2026-01-24 23:24:40.88	157.75	17.71	-53.3	-66.0	3.8	1.49e+00	0	44	104	0	77	16180
2026-01-24 23:24:41.89	157.87	17.61	-53.3	-66.0	3.8	1.49e+00	0	44	104	0	77	16272
2026-01-24 23:24:42.89	157.99	17.50	-53.3	-66.0	3.8	1.49e+00	0	44	104	0	77	16237
2026-01-24 23:24:43.90	158.11	17.40	-53.3	-66.0	3.8	1.49e+00	0	44	104	0	77	16241
2026-01-24 23:24:44.90	158.23	17.30	-53.3	-66.0	3.8	1.49e+00	0	44	104	0	77	16289
2026-01-24 23:24:45.91	158.34	17.20	-53.3	-66.0	3.8	1.49e+00	0	44	104	0	77	16313
2026-01-24 23:24:46.92	158.46	17.10	-53.3	-66.0	3.8	1.49e+00	0	44	104	0	77	16273
2026-01-24 23:24:47.93	158.58	17.00	-53.3	-66.0	3.8	1.49e+00	0	44	104	0	77	16269
2026-01-24 23:24:48.93	158.69	16.89	-53.3	-66.0	3.8	1.49e+00	0	44	104	0	77	16229
2026-01-24 23:24:49.94	158.81	16.79	-53.3	-66.0	3.8	1.49e+00	0	44	104	0	77	16289
2026-01-24 23:24:50.95	158.92	16.69	-53.3	-66.0	3.8	1.49e+00	0	44	104	0	77	16302
2026-01-24 23:24:51.96	159.03	16.59	-53.3	-66.0	3.8	1.49e+00	0	44	104	0	77	16288
2026-01-24 23:24:52.97	159.14	16.49	-53.3	-66.0	3.8	1.49e+00	0	44	104	0	77	16246
2026-01-24 23:24:53.98	159.26	16.39	-53.3	-66.0	3.8	1.49e+00	0	44	104	0	77	16273
2026-01-24 23:24:54.98	159.37	16.30	-53.3	-66.0	3.8	1.49e+00	0	44	104	0	77	16284
2026-01-24 23:24:55.99	159.48	16.20	-53.3	-66.0	3.8	1.49e+00	0	44	104	0	77	16253
2026-01-24 23:24:57.00	159.59	16.10	-53.3	-66.0	3.8	1.49e+00	0	44	104	0	77	16266
2026-01-24 23:24:58.00	159.69	16.00	-53.3	-66.0	3.8	1.49e+00	0	44	104	0	77	16236
2026-01-24 23:24:59.01	159.80	15.90	-53.3	-66.0	3.8	1.49e+00	0	44	104	0	77	16310
2026-01-24 23:25:00.02	159.91	15.80	-53.3	-66.0	3.8	1.49e+00	0	43	104	0	77	16281
2026-01-24 23:25:01.03	160.02	15.71	-53.3	-66.0	3.8	1.49e+00	0	44	104	0	77	16282
2026-01-24 23:25:02.03	160.12	15.61	-53.3	-66.0	3.8	1.49e+00	0	44	104	0	77	16281
2026-01-24 23:25:03.04	160.23	15.51	-53.3	-66.0	3.8	1.49e+00	0	44	104	0	77	16254
2026-01-24 23:25:04.05	160.33	15.42	-53.3	-66.0	3.8	1.49e+00	0	44	104	0	77	16256
2026-01-24 23:25:05.06	160.44	15.32	-53.3	-66.0	3.8	1.49e+00	0	44	104	0	77	16244
2026-01-24 23:25:06.06	160.54	15.23	-53.3	-66.0	3.8	1.49e+00	0	44	104	0	77	16283
2026-01-24 23:25:07.07	160.64	15.13	-53.3	-66.0	3.8	1.49e+00	0	44	104	0	77	16263
2026-01-24 23:25:08.08	160.74	15.04	-53.3	-66.0	3.8	1.49e+00	0	44	104	0	77	16219
2026-01-24 23:25:09.09	160.85	14.94	-53.3	-66.0	3.8	1.49e+00	0	44	104	0	77	16236
2026-01-24 23:25:10.10	160.95	14.85	-53.3	-66.0	3.8	1.49e+00	0	44	104	0	77	16290
2026-01-24 23:25:11.10	161.05	14.75	-53.3	-66.0	3.8	1.49e+00	0	44	104	0	77	16238
2026-01-24 23:25:12.11	161.15	14.66	-53.3	-66.0	3.8	1.49e+00	0	44	104	0	77	16244
2026-01-24 23:25:13.12	161.25	14.56	-53.3	-66.0	3.8	1.49e+00	0	44	104	0	77	16267
2026-01-24 23:25:14.13	161.34	14.47	-53.3	-66.0	3.8	1.49e+00	0	44	104	0	77	16264
2026-01-24 23:25:15.13	161.44	14.38	-53.3	-66.0	3.8	1.49e+00	0	43	104	0	77	16258
2026-01-24 23:25:16.14	161.54	14.28	-53.3	-66.0	3.8	1.49e+00	0	44	104	0	77	16251
2026-01-24 23:25:17.15	161.64	14.19	-53.3	-66.0	3.8	1.49e+00	0	44	104	0	77	16272
2026-01-24 23:25:18.16	161.73	14.10	-53.3	-66.0	3.8	1.49e+00	0	44	104	0	77	16278
2026-01-24 23:25:19.17	161.83	14.01	-53.3	-66.0	3.8	1.49e+00	0	44	104	0	77	16267
2026-01-24 23:25:20.18	161.92	13.91	-53.3	-66.0	3.8	1.49e+00	0	44	104	0	77	16230
2026-01-24 23:25:21.18	162.02	13.82	-53.3	-66.0	3.8	1.49e+00	0	44	104	0	77	16299
2026-01-24 23:25:22.19	162.11	13.73	-53.3	-66.0	3.8	1.49e+00	0	44	104	0	77	16256
2026-01-24 23:25:23.20	162.21	13.64	-53.3	-66.0	3.8	1.49e+00	0	44	104	0	77	16237
2026-01-24 23:25:24.20	162.30	13.55	-53.3	-66.0	3.8	1.49e+00	0	44	104	0	77	16237
2026-01-24 23:25:25.21	162.39	13.46	-53.3	-66.0	3.8	1.49e+00	0	44	104	0	77	16274
2026-01-24 23:25:26.22	162.48	13.37	-53.3	-66.0	3.8	1.49e+00	0	44	104	0	77	16238
2026-01-24 23:25:27.23	162.57	13.28	-53.3	-66.0	3.8	1.49e+00	0	44	104	0	77	16242
2026-01-24 23:25:28.24	162.66	13.19	-53.3	-66.0	3.8	1.49e+00	0	44	104	0	77	16228
2026-01-24 23:25:29.24	162.75	13.10	-53.3	-66.0	3.8	1.49e+00	0	44	104	0	77	16264
2026-01-24 23:25:30.25	162.84	13.01	-53.3	-66.0	3.8	1.49e+00	0	44	104	0	77	16250
2026-01-24 23:25:31.26	162.93	12.92	-53.3	-66.0	3.8	1.49e+00	0	44	104	0	77	16231
2026-01-24 23:25:32.27	163.02	12.84	-53.3	-66.0	3.8	1.49e+00	0	44	104	0	77	16302
2026-01-24 23:25:33.28	163.11	12.75	-53.3	-66.0	3.8	1.49e+00	0	44	104	0	77	16238
2026-01-24 23:25:34.28	163.20	12.66	-53.3	-66.0	3.8	1.49e+00	0	44	104	0	77	16266
2026-01-24 23:25:35.29	163.28	12.57	-53.3	-66.0	3.8	1.49e+00	0	44	104	0	77	16267
2026-01-24 23:25:36.30	163.37	12.48	-53.3	-66.0	3.8	1.49e+00	0	44	104	0	77	16278
2026-01-24 23:25:37.31	163.46	12.40	-53.3	-66.0	3.8	1.49e+00	0	44	104	0	77	16257
2026-01-24 23:25:38.32	163.54	12.31	-53.3	-66.0	3.8	1.49e+00	0	44	104	0	77	16277
2026-01-24 23:25:39.32	163.63	12.22	-53.3	-66.0	3.8	1.49e+00	0	44	104	0	77	16269
2026-01-24 23:25:40.33	163.71	12.14	-53.3	-66.0	3.8	1.49e+00	0	43	104	0	77	16201
2026-01-24 23:25:41.34	163.80	12.05	-53.3	-66.0	3.8	1.49e+00	0	44	104	0	77	16273
2026-01-24 23:25:42.35	163.88	11.96	-53.3	-66.0	3.8	1.49e+00	0	44	104	0	77	16304
2026-01-24 23:25:43.36	163.96	11.88	-53.3	-66.0	3.8	1.49e+00	0	44	104	0	77	16230
2026-01-24 23:25:44.36	164.05	11.79	-53.3	-66.0	3.8	1.49e+00	0	44	104	0	77	16233
2026-01-24 23:25:45.37	164.13	11.71	-53.3	-66.0	3.8	1.49e+00	0	44	104	0	77	16215
2026-01-24 23:25:46.38	164.21	11.62	-53.3	-66.0	3.8	1.49e+00	0	44	104	0	77	16292
2026-01-24 23:25:47.39	164.29	11.54	-53.3	-66.0	3.8	1.49e+00	0	44	104	0	77	16262
2026-01-24 23:25:48.40	164.37	11.45	-53.3	-66.0	3.8	1.49e+00	0	44	104	0	77	16260
2026-01-24 23:25:49.40	164.45	11.37	-53.3	-66.0	3.8	1.49e+00	0	44	104	0	77	16298
2026-01-24 23:25:50.41	164.53	11.28	-53.3	-66.0	3.8	1.49e+00	0	44	104	0	77	16236
2026-01-24 23:25:51.42	164.61	11.20	-53.3	-66.0	3.8	1.49e+00	0	44	104	0	77	16244
2026-01-24 23:25:52.43	164.69	11.12	-53.3	-66.0	3.8	1.49e+00	0	44	104	0	77	16252
2026-01-24 23:25:53.44	164.77	11.03	-53.3	-66.0	3.8	1.49e+00	0	44	104	0	77	16225
2026-01-24 23:25:54.44	164.85	10.95	-53.3	-66.0	3.8	1.49e+00	0	44	104	0	77	16252
2026-01-24 23:25:55.45	164.93	10.87	-53.3	-66.0	3.8	1.49e+00	0	44	104	0	77	16269
2026-01-24 23:25:56.46	165.01	10.79	-53.3	-66.0	3.8	1.49e+00	0	44	104	0	77	16219
2026-01-24 23:25:57.47	165.08	10.70	-53.3	-66.0	3.8	1.49e+00	0	44	104	0	77	16242
2026-01-24 23:25:58.48	165.16	10.62	-53.3	-66.0	3.8	1.49e+00	0	44	104	0	77	16225
2026-01-24 23:25:59.48	165.24	10.54	-53.3	-66.0	3.8	1.49e+00	0	44	104	0	77	16238
2026-01-24 23:26:00.49	165.31	10.46	-53.3	-66.0	3.8	1.49e+00	0	44	104	0	77	16249
2026-01-24 23:26:01.50	165.39	10.38	-53.3	-66.0	3.8	1.49e+00	0	44	104	0	77	16224
2026-01-24 23:26:02.51	165.46	10.29	-53.3	-66.0	3.8	1.49e+00	0	44	104	0	77	16272
2026-01-24 23:26:03.52	165.54	10.21	-53.3	-66.0	3.8	1.49e+00	0	44	104	0	77	16269
2026-01-24 23:26:04.52	165.61	10.13	-53.3	-66.0	3.8	1.49e+00	0	44	104	0	77	16199
2026-01-24 23:26:05.53	165.69	10.05	-53.3	-66.1	3.8	1.49e+00	0	44	104	0	77	16323
2026-01-24 23:26:06.54	165.76	9.97	-53.3	-66.0	3.8	1.49e+00	0	44	104	0	77	16306
2026-01-24 23:26:07.55	165.84	9.89	-53.3	-66.0	3.8	1.49e+00	0	44	104	0	77	16239
2026-01-24 23:26:08.55	165.91	9.81	-53.3	-66.0	3.8	1.49e+00	0	44	104	0	77	16262
2026-01-24 23:26:09.56	165.98	9.73	-53.3	-66.0	3.8	1.49e+00	0	44	104	0	77	16276
2026-01-24 23:26:10.57	166.05	9.65	-53.3	-66.0	3.8	1.49e+00	0	44	104	0	77	16262
2026-01-24 23:26:11.58	166.12	9.57	-53.3	-66.0	3.8	1.49e+00	0	44	104	0	77	16282
2026-01-24 23:26:12.58	166.20	9.49	-53.3	-66.0	3.8	1.49e+00	0	44	104	0	77	16246
2026-01-24 23:26:13.59	166.27	9.42	-53.3	-66.0	3.8	1.49e+00	0	44	104	0	77	16290
2026-01-24 23:26:14.60	166.34	9.34	-53.3	-66.0	3.8	1.49e+00	0	44	104	0	77	16263
2026-01-24 23:26:15.61	166.41	9.26	-53.3	-66.0	3.8	1.49e+00	0	44	104	0	77	16278
2026-01-24 23:26:16.62	166.48	9.18	-53.3	-66.0	3.8	1.49e+00	0	44	104	0	77	16305
2026-01-24 23:26:17.62	166.55	9.10	-53.3	-66.0	3.8	1.49e+00	0	43	104	0	77	16277
2026-01-24 23:26:18.63	166.62	9.02	-53.3	-66.0	3.8	1.49e+00	0	44	104	0	77	16268
2026-01-24 23:26:19.64	166.69	8.95	-53.3	-66.0	3.8	1.49e+00	0	44	104	0	77	16281
2026-01-24 23:26:20.65	166.75	8.87	-53.3	-66.0	3.8	1.49e+00	0	44	104	0	77	16217
2026-01-24 23:26:21.66	166.82	8.79	-53.3	-66.0	3.8	1.49e+00	0	44	104	0	77	16261
2026-01-24 23:26:22.66	166.89	8.72	-53.3	-66.0	3.8	1.49e+00	0	44	104	0	77	16259
2026-01-24 23:26:23.67	166.96	8.64	-53.3	-66.0	3.8	1.49e+00	0	43	104	0	77	16266
2026-01-24 23:26:24.68	167.03	8.56	-53.3	-66.0	3.8	1.49e+00	0	44	104	0	77	16267
2026-01-24 23:26:25.69	167.09	8.49	-53.3	-66.0	3.8	1.49e+00	0	44	104	0	77	16267
