passes_logs/2026/01/24/R3.2S_Murmansk/R3.2S_Murmansk__20260124_123806_FENGYUN_3D_rec.log

#Pass ID: 20260124_123806_FENGYUN 3D
#Satellite: FENGYUN 3D
#Configuration: FENGYUN 3D
#almurnet v.1.7.20251203
#Start time: 2026-01-24 12:38:05

#Version: 2.2.20231116
#Station: R3.2S_Murmansk
#Location: 33.079688 lon 68.888172 lat
#TLE: 1 43010U 17072A   26023.60174628  .00000324  00000+0  17481-3 0  9994
#TLE: 2 43010  98.9958 355.5514 0002482  93.7422 266.4037 14.19699955424476

#Time	Az	El	Level	Level2	SNR	BER	BlckErr	Temp	State	Recorded	gain1	gain2
2026-01-24 12:38:05.91	177.35	1.99	-52.1	-64.0	3.8	8.46e-01	0	41	0	0	76	13603
2026-01-24 12:38:06.92	177.38	2.06	-52.1	-64.0	3.8	8.46e-01	0	41	104	0	74	15363
2026-01-24 12:38:07.93	177.41	2.12	-52.0	-64.0	3.8	8.46e-01	0	41	104	0	74	15239
2026-01-24 12:38:08.93	177.45	2.18	-52.0	-63.9	3.8	8.46e-01	0	41	104	0	74	15193
2026-01-24 12:38:09.94	177.48	2.25	-52.0	-63.9	3.8	8.46e-01	0	41	104	0	74	15124
2026-01-24 12:38:10.95	177.51	2.31	-52.0	-63.9	3.8	8.47e-01	0	41	104	0	74	15157
2026-01-24 12:38:11.96	177.55	2.37	-52.0	-63.9	3.8	8.45e-01	0	41	104	0	74	15066
2026-01-24 12:38:12.97	177.58	2.44	-52.0	-63.8	3.8	8.44e-01	0	41	104	0	74	14991
2026-01-24 12:38:13.98	177.61	2.50	-52.0	-63.8	3.8	8.46e-01	0	41	104	0	74	15024
2026-01-24 12:38:14.98	177.65	2.56	-51.9	-63.8	3.8	8.46e-01	0	41	104	0	74	14963
2026-01-24 12:38:15.99	177.68	2.63	-52.0	-63.8	3.8	8.47e-01	0	41	104	0	74	14996
2026-01-24 12:38:17.00	177.72	2.69	-51.9	-63.9	3.8	8.47e-01	0	41	104	0	74	15055
2026-01-24 12:38:18.01	177.75	2.76	-52.0	-63.9	3.8	8.47e-01	0	41	104	0	74	15107
2026-01-24 12:38:19.02	177.79	2.82	-52.0	-63.9	3.8	8.46e-01	0	41	104	0	74	15142
2026-01-24 12:38:20.03	177.82	2.89	-52.0	-63.9	3.8	8.45e-01	0	42	104	0	74	15101
2026-01-24 12:38:21.04	177.86	2.95	-52.0	-63.8	3.8	8.47e-01	0	42	104	0	74	15015
2026-01-24 12:38:22.05	177.89	3.02	-51.9	-63.7	3.8	8.46e-01	0	42	104	0	74	14814
2026-01-24 12:38:23.05	177.93	3.08	-51.9	-63.6	3.8	8.47e-01	0	41	104	0	74	14683
2026-01-24 12:38:24.06	177.96	3.15	-51.9	-63.5	3.8	8.46e-01	0	42	104	0	74	14530
2026-01-24 12:38:25.07	178.00	3.21	-51.9	-63.5	3.8	8.46e-01	0	41	104	0	74	14385
2026-01-24 12:38:26.08	178.04	3.28	-51.9	-63.6	3.8	8.47e-01	0	42	104	0	74	14647
2026-01-24 12:38:27.09	178.07	3.35	-51.9	-63.6	3.8	8.46e-01	0	42	104	0	74	14671
2026-01-24 12:38:28.09	178.11	3.41	-51.9	-63.8	3.8	8.47e-01	0	41	104	0	74	14912
2026-01-24 12:38:29.10	178.14	3.48	-51.9	-63.9	3.8	8.46e-01	0	42	104	0	74	15095
2026-01-24 12:38:30.11	178.18	3.54	-51.9	-63.9	3.8	8.46e-01	0	42	104	0	74	15081
2026-01-24 12:38:31.12	178.22	3.61	-51.9	-63.8	3.8	8.47e-01	0	42	104	0	74	14916
2026-01-24 12:38:32.13	178.25	3.68	-51.9	-63.6	3.8	8.46e-01	0	42	104	0	74	14611
2026-01-24 12:38:33.13	178.29	3.74	-51.9	-63.4	3.8	8.47e-01	0	42	104	0	74	14316
2026-01-24 12:38:34.14	178.33	3.81	-51.9	-63.2	3.8	8.45e-01	0	42	104	0	74	14040
2026-01-24 12:38:35.15	178.36	3.88	-51.9	-63.4	3.8	8.47e-01	0	42	104	0	74	14343
2026-01-24 12:38:36.16	178.40	3.94	-51.9	-63.8	3.8	8.46e-01	0	42	104	0	74	14880
2026-01-24 12:38:37.17	178.44	4.01	-51.9	-63.8	3.8	8.46e-01	0	42	104	0	74	14969
2026-01-24 12:38:38.18	178.48	4.08	-51.9	-63.1	3.8	8.46e-01	0	42	104	0	74	13774
2026-01-24 12:38:39.18	178.51	4.15	-51.7	-61.8	3.8	8.46e-01	0	42	104	0	74	11879
2026-01-24 12:38:40.19	178.55	4.21	-51.4	-59.5	4.4	8.28e-01	0	42	0	0	74	9166
2026-01-24 12:38:41.20	178.59	4.28	-50.7	-56.2	6.5	5.05e-01	0	42	0	2097152	73	6615
2026-01-24 12:38:42.21	178.63	4.35	-50.0	-54.3	8.3	1.10e-01	0	42	0	8388608	71	5966
2026-01-24 12:38:43.22	178.67	4.42	-49.2	-52.6	10.1	1.19e-02	0	42	0	13631488	70	5192
2026-01-24 12:38:44.23	178.71	4.49	-47.4	-49.7	13.0	2.28e-04	0	42	0	18874368	66	4664
2026-01-24 12:38:45.24	178.74	4.56	-47.1	-49.2	13.5	2.74e-05	0	42	0	25165824	66	4406
2026-01-24 12:38:46.25	178.78	4.63	-46.3	-48.2	14.6	2.20e-06	0	42	0	30408704	64	4395
2026-01-24 12:38:47.26	178.82	4.69	-44.7	-46.1	16.8	0.00e+00	0	42	0	35651584	61	4122
2026-01-24 12:38:48.26	178.86	4.76	-44.2	-45.6	17.3	0.00e+00	0	42	0	41943040	60	4099
2026-01-24 12:38:49.27	178.90	4.83	-44.0	-45.3	17.5	0.00e+00	0	42	0	47185920	60	3998
2026-01-24 12:38:50.28	178.94	4.90	-43.6	-44.8	18.4	0.00e+00	0	42	0	52428800	59	4000
2026-01-24 12:38:51.29	178.98	4.97	-43.9	-45.1	18.0	0.00e+00	0	42	0	58720256	59	4142
2026-01-24 12:38:52.30	179.02	5.04	-44.1	-45.4	17.8	0.00e+00	0	42	0	63963136	59	4257
2026-01-24 12:38:53.31	179.06	5.11	-44.6	-46.0	17.3	0.00e+00	0	42	0	70254592	59	4565
2026-01-24 12:38:54.31	179.10	5.18	-44.4	-45.7	17.2	0.00e+00	0	42	0	75497472	60	4161
2026-01-24 12:38:55.32	179.14	5.25	-48.3	-51.2	11.5	1.71e-03	0	42	0	81788928	67	5223
2026-01-24 12:38:56.33	179.18	5.32	-47.8	-50.2	12.4	6.67e-02	0	42	0	87031808	67	4652
2026-01-24 12:38:57.34	179.22	5.39	-43.0	-44.1	19.1	0.00e+00	0	42	0	93323264	58	3909
2026-01-24 12:38:58.35	179.26	5.46	-42.8	-43.9	19.4	0.00e+00	0	42	0	98566144	57	4010
2026-01-24 12:38:59.36	179.30	5.54	-42.9	-44.0	19.3	0.00e+00	0	42	0	103809024	57	4061
2026-01-24 12:39:00.37	179.35	5.61	-43.0	-44.1	19.2	0.00e+00	0	42	0	110100480	57	4103
2026-01-24 12:39:01.37	179.39	5.68	-43.0	-44.1	19.2	0.00e+00	0	42	0	115343360	57	4109
2026-01-24 12:39:02.38	179.43	5.75	-42.9	-44.0	19.2	0.00e+00	0	42	0	120586240	57	4093
2026-01-24 12:39:03.39	179.47	5.82	-43.1	-44.2	19.1	0.00e+00	0	42	0	126877696	57	4171
2026-01-24 12:39:04.40	179.51	5.89	-42.7	-43.7	19.6	0.00e+00	0	42	0	132120576	57	3950
2026-01-24 12:39:05.41	179.55	5.97	-42.6	-43.7	19.6	0.00e+00	0	42	0	138412032	57	3931
2026-01-24 12:39:06.41	179.60	6.04	-42.9	-44.0	19.4	0.00e+00	0	42	0	143654912	56	4297
2026-01-24 12:39:07.42	179.64	6.11	-42.6	-43.6	19.7	0.00e+00	0	42	0	149946368	56	4132
2026-01-24 12:39:08.43	179.68	6.18	-42.7	-43.8	19.6	0.00e+00	0	42	0	155189248	56	4212
2026-01-24 12:39:09.44	179.73	6.26	-42.4	-43.4	20.0	0.00e+00	0	42	0	160432128	56	4023
2026-01-24 12:39:10.45	179.77	6.33	-42.7	-43.8	19.6	0.00e+00	0	42	0	166723584	56	4222
2026-01-24 12:39:11.46	179.81	6.40	-42.7	-43.8	19.6	0.00e+00	0	42	0	171966464	56	4215
2026-01-24 12:39:12.47	179.86	6.48	-42.7	-43.8	19.7	0.00e+00	0	43	0	178257920	56	4208
2026-01-24 12:39:13.47	179.90	6.55	-42.7	-43.8	19.7	0.00e+00	0	42	0	183500800	56	4194
2026-01-24 12:39:14.48	179.94	6.62	-42.4	-43.4	20.0	0.00e+00	0	42	0	188743680	56	4039
2026-01-24 12:39:15.49	179.99	6.70	-42.9	-44.0	19.5	0.00e+00	0	42	0	195035136	56	4317
2026-01-24 12:39:16.50	180.03	6.77	-42.5	-43.6	19.9	0.00e+00	0	42	0	200278016	56	4111
2026-01-24 12:39:17.51	180.08	6.85	-42.3	-43.3	20.2	0.00e+00	0	42	0	206569472	56	3993
2026-01-24 12:39:18.51	180.12	6.92	-42.6	-43.7	19.9	0.00e+00	0	42	0	211812352	56	4152
2026-01-24 12:39:19.52	180.17	7.00	-42.6	-43.7	19.9	0.00e+00	0	42	0	218103808	56	4150
2026-01-24 12:39:20.53	180.21	7.07	-42.7	-43.7	19.9	0.00e+00	0	42	0	223346688	56	4178
2026-01-24 12:39:21.54	180.26	7.15	-42.8	-43.8	19.8	0.00e+00	0	43	0	228589568	56	4216
2026-01-24 12:39:22.55	180.30	7.22	-42.7	-43.7	19.8	0.00e+00	0	43	0	234881024	56	4189
2026-01-24 12:39:23.55	180.35	7.30	-42.3	-43.3	20.2	0.00e+00	0	43	0	240123904	56	3987
2026-01-24 12:39:24.56	180.40	7.37	-42.3	-43.2	20.3	0.00e+00	0	43	0	245366784	56	3958
2026-01-24 12:39:25.57	180.44	7.45	-42.5	-43.5	20.1	0.00e+00	0	42	0	251658240	56	4086
2026-01-24 12:39:26.58	180.49	7.53	-42.3	-43.3	20.4	0.00e+00	0	42	0	256901120	56	3970
2026-01-24 12:39:27.59	180.54	7.60	-41.9	-42.9	20.7	0.00e+00	0	43	0	263192576	55	4011
2026-01-24 12:39:28.59	180.58	7.68	-42.1	-43.1	20.5	0.00e+00	0	43	0	268435456	55	4129
2026-01-24 12:39:29.60	180.63	7.76	-42.2	-43.2	20.4	0.00e+00	0	43	0	273678336	55	4166
2026-01-24 12:39:30.61	180.68	7.83	-41.7	-42.6	20.9	0.00e+00	0	43	0	279969792	55	3912
2026-01-24 12:39:31.62	180.73	7.91	-42.2	-43.2	20.3	0.00e+00	0	42	0	286261248	55	4180
2026-01-24 12:39:32.63	180.77	7.99	-41.8	-42.8	20.8	0.00e+00	0	43	0	291504128	55	3962
2026-01-24 12:39:33.63	180.82	8.07	-41.8	-42.8	20.8	0.00e+00	0	42	0	296747008	55	3976
2026-01-24 12:39:34.64	180.87	8.15	-41.7	-42.6	20.9	0.00e+00	0	43	0	303038464	55	3905
2026-01-24 12:39:35.65	180.92	8.22	-41.8	-42.7	20.9	0.00e+00	0	43	0	308281344	55	3946
2026-01-24 12:39:36.66	180.97	8.30	-41.6	-42.6	21.0	0.00e+00	0	43	0	313524224	55	3875
2026-01-24 12:39:37.67	181.02	8.38	-41.4	-42.3	21.2	0.00e+00	0	43	0	319815680	54	3993
2026-01-24 12:39:38.67	181.07	8.46	-41.5	-42.4	21.1	0.00e+00	0	43	0	325058560	54	4039
2026-01-24 12:39:39.68	181.12	8.54	-41.6	-42.5	21.1	0.00e+00	0	43	0	330301440	54	4063
2026-01-24 12:39:40.69	181.17	8.62	-41.5	-42.4	21.1	0.00e+00	0	42	0	336592896	54	4040
2026-01-24 12:39:41.70	181.22	8.70	-41.6	-42.5	21.1	0.00e+00	0	43	0	341835776	54	4073
2026-01-24 12:39:42.71	181.27	8.78	-41.3	-42.2	21.4	0.00e+00	0	43	0	348127232	54	3941
2026-01-24 12:39:43.71	181.32	8.86	-41.3	-42.1	21.4	0.00e+00	0	43	0	353370112	54	3912
2026-01-24 12:39:44.72	181.37	8.94	-41.5	-42.4	21.2	0.00e+00	0	43	0	359661568	54	4037
2026-01-24 12:39:45.73	181.42	9.02	-41.5	-42.4	21.2	0.00e+00	0	43	0	364904448	54	4027
2026-01-24 12:39:46.74	181.47	9.10	-41.3	-42.2	21.4	0.00e+00	0	43	0	371195904	54	3941
2026-01-24 12:39:47.75	181.52	9.18	-41.3	-42.2	21.4	0.00e+00	0	43	0	376438784	54	3921
2026-01-24 12:39:48.75	181.58	9.26	-41.5	-42.4	21.2	0.00e+00	0	43	0	381681664	54	4046
2026-01-24 12:39:49.76	181.63	9.35	-41.4	-42.3	21.4	0.00e+00	0	43	0	387973120	54	3962
2026-01-24 12:39:50.77	181.68	9.43	-41.4	-42.3	21.3	0.00e+00	0	43	0	393216000	54	3983
2026-01-24 12:39:51.78	181.73	9.51	-41.4	-42.3	21.3	0.00e+00	0	43	0	398458880	54	3998
2026-01-24 12:39:52.79	181.79	9.59	-41.4	-42.3	21.3	0.00e+00	0	43	0	404750336	54	3998
2026-01-24 12:39:53.80	181.84	9.68	-41.5	-42.4	21.2	0.00e+00	0	43	0	409993216	54	4024
2026-01-24 12:39:54.81	181.89	9.76	-41.4	-42.3	21.3	0.00e+00	0	43	0	416284672	54	4001
2026-01-24 12:39:55.82	181.95	9.84	-41.5	-42.4	21.3	0.00e+00	0	43	0	421527552	54	4026
2026-01-24 12:39:56.83	182.00	9.93	-41.4	-42.4	21.3	0.00e+00	0	43	0	427819008	54	4008
2026-01-24 12:39:57.83	182.06	10.01	-41.6	-42.5	21.2	0.00e+00	0	43	0	433061888	54	4078
2026-01-24 12:39:58.84	182.11	10.09	-41.7	-42.6	21.1	0.00e+00	0	43	0	438304768	54	4126
2026-01-24 12:39:59.85	182.17	10.18	-41.2	-42.1	21.5	0.00e+00	0	43	0	444596224	54	3911
2026-01-24 12:40:00.86	182.22	10.26	-41.5	-42.4	21.3	0.00e+00	0	43	0	449839104	54	4036
2026-01-24 12:40:01.87	182.28	10.35	-41.6	-42.5	21.2	0.00e+00	0	43	0	456130560	54	4090
2026-01-24 12:40:02.88	182.33	10.43	-41.4	-42.3	21.5	0.00e+00	0	43	0	461373440	54	3970
2026-01-24 12:40:03.89	182.39	10.52	-41.6	-42.5	21.3	0.00e+00	0	43	0	466616320	54	4066
2026-01-24 12:40:04.89	182.45	10.60	-41.5	-42.4	21.3	0.00e+00	0	43	0	472907776	54	4048
2026-01-24 12:40:05.90	182.50	10.69	-41.5	-42.5	21.3	0.00e+00	0	43	0	478150656	54	4059
2026-01-24 12:40:06.91	182.56	10.78	-41.6	-42.5	21.2	0.00e+00	0	43	0	484442112	54	4085
2026-01-24 12:40:07.92	182.62	10.86	-41.5	-42.4	21.4	0.00e+00	0	43	0	489684992	54	4025
2026-01-24 12:40:08.93	182.68	10.95	-41.4	-42.3	21.4	0.00e+00	0	43	0	495976448	54	4002
2026-01-24 12:40:09.93	182.74	11.04	-41.2	-42.1	21.7	0.00e+00	0	43	0	501219328	54	3881
2026-01-24 12:40:10.94	182.79	11.12	-41.4	-42.3	21.4	0.00e+00	0	43	0	506462208	54	3995
2026-01-24 12:40:11.95	182.85	11.21	-41.3	-42.2	21.6	0.00e+00	0	43	0	512753664	54	3918
2026-01-24 12:40:12.96	182.91	11.30	-41.1	-42.0	21.8	0.00e+00	0	43	0	517996544	54	3842
2026-01-24 12:40:13.97	182.97	11.39	-41.2	-42.1	21.7	0.00e+00	0	43	0	523239424	54	3870
2026-01-24 12:40:14.98	183.03	11.48	-41.2	-42.1	21.6	0.00e+00	0	43	0	529530880	53	4111
2026-01-24 12:40:15.99	183.09	11.57	-41.0	-41.9	21.8	0.00e+00	0	43	0	534773760	53	4046
2026-01-24 12:40:16.99	183.15	11.65	-41.1	-42.0	21.8	0.00e+00	0	43	0	541065216	53	4053
2026-01-24 12:40:18.00	183.21	11.74	-41.0	-41.9	21.8	0.00e+00	0	43	0	546308096	53	4028
2026-01-24 12:40:19.01	183.28	11.83	-40.9	-41.7	22.0	0.00e+00	0	43	0	552599552	53	3958
2026-01-24 12:40:20.02	183.34	11.92	-40.8	-41.7	22.1	0.00e+00	0	43	0	557842432	53	3925
2026-01-24 12:40:21.03	183.40	12.02	-40.8	-41.7	22.0	0.00e+00	0	43	0	564133888	53	3946
2026-01-24 12:40:22.03	183.46	12.10	-41.1	-41.9	21.8	0.00e+00	0	43	0	569376768	53	4046
2026-01-24 12:40:23.04	183.52	12.20	-41.0	-41.9	21.8	0.00e+00	0	43	0	574619648	53	4023
2026-01-24 12:40:24.05	183.59	12.29	-41.1	-42.0	21.8	0.00e+00	0	43	0	580911104	53	4068
2026-01-24 12:40:25.06	183.65	12.38	-41.2	-42.1	21.7	0.00e+00	0	43	0	586153984	53	4117
2026-01-24 12:40:26.07	183.71	12.47	-41.1	-42.0	21.8	0.00e+00	0	43	0	591396864	53	4082
2026-01-24 12:40:27.07	183.78	12.56	-41.0	-41.8	22.0	0.00e+00	0	43	0	597688320	53	3992
2026-01-24 12:40:28.08	183.84	12.66	-41.0	-41.9	21.9	0.00e+00	0	43	0	602931200	53	4036
2026-01-24 12:40:29.09	183.91	12.75	-41.1	-42.0	21.8	0.00e+00	0	43	0	608174080	53	4057
2026-01-24 12:40:30.10	183.97	12.84	-41.1	-42.0	21.8	0.00e+00	0	43	0	614465536	53	4062
2026-01-24 12:40:31.11	184.04	12.94	-40.8	-41.7	22.2	0.00e+00	0	43	0	620756992	53	3918
2026-01-24 12:40:32.11	184.10	13.03	-40.8	-41.7	22.1	0.00e+00	0	43	0	625999872	53	3924
2026-01-24 12:40:33.12	184.17	13.12	-40.9	-41.8	22.0	0.00e+00	0	43	0	631242752	53	3960
2026-01-24 12:40:34.13	184.24	13.22	-40.8	-41.7	22.1	0.00e+00	0	43	0	637534208	53	3938
2026-01-24 12:40:35.14	184.31	13.31	-40.8	-41.7	22.1	0.00e+00	0	43	0	642777088	53	3931
2026-01-24 12:40:36.15	184.37	13.41	-40.8	-41.6	22.2	0.00e+00	0	43	0	649068544	53	3904
2026-01-24 12:40:37.15	184.44	13.50	-40.6	-41.5	22.3	0.00e+00	0	43	0	654311424	53	3842
2026-01-24 12:40:38.16	184.51	13.60	-40.5	-41.4	22.4	0.00e+00	0	43	0	659554304	53	3793
2026-01-24 12:40:39.17	184.58	13.70	-40.7	-41.5	22.3	0.00e+00	0	43	0	665845760	53	3858
2026-01-24 12:40:40.18	184.65	13.79	-40.6	-41.4	22.4	0.00e+00	0	43	0	671088640	53	3816
2026-01-24 12:40:41.19	184.72	13.89	-40.5	-41.4	22.4	0.00e+00	0	43	0	676331520	53	3791
2026-01-24 12:40:42.20	184.79	13.99	-40.7	-41.5	22.3	0.00e+00	0	43	0	682622976	53	3854
2026-01-24 12:40:43.21	184.86	14.08	-40.7	-41.5	22.3	0.00e+00	0	43	0	687865856	53	3866
2026-01-24 12:40:44.21	184.93	14.18	-40.7	-41.6	22.2	0.00e+00	0	43	0	694157312	52	4105
2026-01-24 12:40:45.22	185.00	14.28	-40.4	-41.3	22.5	0.00e+00	0	43	0	699400192	52	3970
2026-01-24 12:40:46.23	185.07	14.38	-40.6	-41.4	22.4	0.00e+00	0	43	0	705691648	52	4034
2026-01-24 12:40:47.24	185.15	14.48	-40.5	-41.3	22.5	0.00e+00	0	43	0	710934528	52	3997
2026-01-24 12:40:48.25	185.22	14.58	-40.6	-41.4	22.4	0.00e+00	0	43	0	716177408	52	4035
2026-01-24 12:40:49.26	185.29	14.68	-40.5	-41.3	22.5	0.00e+00	0	43	0	722468864	52	3998
2026-01-24 12:40:50.27	185.37	14.78	-40.4	-41.2	22.5	0.00e+00	0	43	0	727711744	52	3958
2026-01-24 12:40:51.28	185.44	14.88	-40.3	-41.1	22.7	0.00e+00	0	43	0	734003200	52	3906
2026-01-24 12:40:52.29	185.52	14.98	-40.4	-41.2	22.6	0.00e+00	0	43	0	739246080	52	3947
2026-01-24 12:40:53.29	185.59	15.08	-40.4	-41.2	22.6	0.00e+00	0	43	0	744488960	52	3944
2026-01-24 12:40:54.30	185.67	15.18	-40.3	-41.1	22.7	0.00e+00	0	43	0	750780416	52	3891
2026-01-24 12:40:55.31	185.74	15.28	-40.2	-41.0	22.8	0.00e+00	0	43	0	757071872	52	3856
2026-01-24 12:40:56.32	185.82	15.39	-40.1	-40.9	22.9	0.00e+00	0	43	0	762314752	52	3796
2026-01-24 12:40:57.33	185.90	15.49	-40.0	-40.8	22.9	0.00e+00	0	43	0	767557632	51	3999
2026-01-24 12:40:58.34	185.98	15.59	-40.1	-40.9	22.9	0.00e+00	0	43	0	773849088	51	4038
2026-01-24 12:40:59.35	186.05	15.70	-40.1	-40.9	23.0	0.00e+00	0	43	0	779091968	51	4013
2026-01-24 12:41:00.36	186.13	15.80	-39.9	-40.7	23.1	0.00e+00	0	43	0	784334848	51	3940
2026-01-24 12:41:01.37	186.21	15.91	-40.0	-40.8	23.0	0.00e+00	0	43	0	790626304	51	3968
2026-01-24 12:41:02.37	186.29	16.01	-40.0	-40.8	23.0	0.00e+00	0	43	0	795869184	51	3984
2026-01-24 12:41:03.38	186.37	16.12	-40.0	-40.8	23.0	0.00e+00	0	43	0	801112064	51	3977
2026-01-24 12:41:04.39	186.45	16.22	-40.0	-40.8	23.0	0.00e+00	0	43	0	807403520	51	3989
2026-01-24 12:41:05.40	186.54	16.33	-40.0	-40.8	23.0	0.00e+00	0	43	0	812646400	51	3999
2026-01-24 12:41:06.41	186.62	16.43	-39.8	-40.6	23.2	0.00e+00	0	43	0	818937856	51	3902
2026-01-24 12:41:07.42	186.70	16.54	-39.9	-40.7	23.1	0.00e+00	0	43	0	824180736	51	3957
2026-01-24 12:41:08.43	186.78	16.65	-39.8	-40.6	23.2	0.00e+00	0	43	0	830472192	51	3903
2026-01-24 12:41:09.44	186.87	16.76	-39.7	-40.5	23.4	0.00e+00	0	43	0	835715072	51	3837
2026-01-24 12:41:10.45	186.95	16.87	-39.7	-40.5	23.4	0.00e+00	0	43	0	842006528	51	3830
2026-01-24 12:41:11.46	187.04	16.97	-39.5	-40.3	23.5	0.00e+00	0	43	0	847249408	50	3975
2026-01-24 12:41:12.47	187.12	17.08	-39.4	-40.2	23.6	0.00e+00	0	43	0	852492288	50	3933
2026-01-24 12:41:13.48	187.21	17.19	-39.2	-40.0	23.8	0.00e+00	0	43	0	858783744	50	3839
2026-01-24 12:41:14.49	187.30	17.30	-39.2	-39.9	23.9	0.00e+00	0	43	0	864026624	50	3812
2026-01-24 12:41:15.49	187.38	17.41	-39.0	-39.8	24.0	0.00e+00	0	43	0	869269504	50	3747
2026-01-24 12:41:16.50	187.47	17.52	-39.0	-39.7	24.0	0.00e+00	0	43	0	875560960	49	3956
2026-01-24 12:41:17.51	187.56	17.63	-39.0	-39.7	24.0	0.00e+00	0	43	0	881852416	49	3949
2026-01-24 12:41:18.52	187.65	17.75	-39.0	-39.7	24.0	0.00e+00	0	43	0	887095296	49	3958
2026-01-24 12:41:19.53	187.74	17.86	-39.0	-39.8	23.9	0.00e+00	0	43	0	892338176	49	3982
2026-01-24 12:41:20.54	187.83	17.97	-39.2	-39.9	23.8	0.00e+00	0	43	0	898629632	49	4043
2026-01-24 12:41:21.55	187.92	18.08	-39.2	-40.0	23.8	0.00e+00	0	44	0	903872512	49	4084
2026-01-24 12:41:22.56	188.01	18.20	-39.2	-40.0	23.8	0.00e+00	0	43	0	909115392	49	4076
2026-01-24 12:41:23.57	188.10	18.31	-39.3	-40.1	23.7	0.00e+00	0	43	0	915406848	49	4123
2026-01-24 12:41:24.58	188.20	18.43	-39.4	-40.2	23.6	0.00e+00	0	43	0	920649728	49	4157
2026-01-24 12:41:25.59	188.29	18.54	-39.2	-40.0	23.7	0.00e+00	0	43	0	926941184	49	4082
2026-01-24 12:41:26.60	188.39	18.66	-39.3	-40.0	23.7	0.00e+00	0	43	0	932184064	49	4092
2026-01-24 12:41:27.61	188.48	18.77	-39.2	-40.0	23.7	0.00e+00	0	43	0	937426944	49	4085
2026-01-24 12:41:28.61	188.58	18.89	-39.3	-40.1	23.7	0.00e+00	0	44	0	943718400	49	4099
2026-01-24 12:41:29.62	188.67	19.00	-39.2	-40.0	23.8	0.00e+00	0	43	0	950009856	49	4077
2026-01-24 12:41:30.63	188.77	19.12	-39.1	-39.9	23.9	0.00e+00	0	44	0	955252736	49	4027
2026-01-24 12:41:31.64	188.87	19.24	-39.2	-39.9	23.9	0.00e+00	0	44	0	960495616	49	4046
2026-01-24 12:41:32.65	188.97	19.36	-39.2	-39.9	23.9	0.00e+00	0	43	0	966787072	49	4049
2026-01-24 12:41:33.66	189.07	19.48	-39.3	-40.0	23.8	0.00e+00	0	44	0	972029952	49	4096
2026-01-24 12:41:34.67	189.17	19.60	-39.1	-39.9	23.9	0.00e+00	0	43	0	977272832	49	4040
2026-01-24 12:41:35.67	189.27	19.71	-39.1	-39.9	23.9	0.00e+00	0	43	0	983564288	49	4040
2026-01-24 12:41:36.68	189.37	19.83	-39.2	-40.0	23.8	0.00e+00	0	43	0	988807168	49	4056
2026-01-24 12:41:37.69	189.47	19.96	-39.0	-39.8	24.0	0.00e+00	0	43	0	994050048	49	3978
2026-01-24 12:41:38.70	189.57	20.08	-38.9	-39.7	24.1	0.00e+00	0	43	0	1000341504	49	3919
2026-01-24 12:41:39.71	189.68	20.20	-38.8	-39.6	24.2	0.00e+00	0	44	0	1005584384	49	3882
2026-01-24 12:41:40.72	189.78	20.32	-38.8	-39.5	24.3	0.00e+00	0	44	0	1011875840	49	3856
2026-01-24 12:41:41.73	189.89	20.44	-38.7	-39.5	24.3	0.00e+00	0	43	0	1017118720	49	3839
2026-01-24 12:41:42.73	189.99	20.57	-38.7	-39.4	24.3	0.00e+00	0	43	0	1023410176	49	3810
2026-01-24 12:41:43.74	190.10	20.69	-38.6	-39.3	24.4	0.00e+00	0	43	0	1028653056	49	3777
2026-01-24 12:41:44.75	190.21	20.81	-38.7	-39.5	24.3	0.00e+00	0	43	0	1034944512	49	3829
2026-01-24 12:41:45.76	190.32	20.94	-38.8	-39.5	24.3	0.00e+00	0	43	0	1040187392	49	3856
2026-01-24 12:41:46.77	190.43	21.06	-38.6	-39.4	24.4	0.00e+00	0	43	0	1045430272	49	3782
2026-01-24 12:41:47.78	190.54	21.19	-38.6	-39.3	24.5	0.00e+00	0	43	0	1051721728	49	3763
2026-01-24 12:41:48.79	190.65	21.32	-38.7	-39.4	24.3	0.00e+00	0	43	0	1056964608	49	3807
2026-01-24 12:41:49.79	190.76	21.44	-38.6	-39.4	24.4	0.00e+00	0	43	0	1062207488	49	3785
2026-01-24 12:41:50.80	190.88	21.57	-38.6	-39.3	24.4	0.00e+00	0	43	0	1068498944	49	3766
2026-01-24 12:41:51.81	190.99	21.70	-38.5	-39.3	24.5	0.00e+00	0	43	0	1074790400	49	3739
2026-01-24 12:41:52.82	191.10	21.83	-38.6	-39.3	24.4	0.00e+00	0	43	0	1080033280	49	3760
2026-01-24 12:41:53.83	191.22	21.96	-38.6	-39.4	24.4	0.00e+00	0	43	0	1085276160	49	3786
2026-01-24 12:41:54.83	191.34	22.08	-38.5	-39.2	24.5	0.00e+00	0	44	0	1091567616	49	3723
2026-01-24 12:41:55.84	191.45	22.21	-38.4	-39.1	24.6	0.00e+00	0	43	0	1096810496	48	3908
2026-01-24 12:41:56.85	191.57	22.34	-38.3	-39.1	24.6	0.00e+00	0	43	0	1102053376	48	3878
2026-01-24 12:41:57.86	191.69	22.48	-38.4	-39.2	24.6	0.00e+00	0	43	0	1108344832	48	3924
2026-01-24 12:41:58.87	191.81	22.61	-38.3	-39.1	24.7	0.00e+00	0	43	0	1113587712	48	3869
2026-01-24 12:41:59.88	191.94	22.74	-38.4	-39.2	24.5	0.00e+00	0	44	0	1119879168	48	3934
2026-01-24 12:42:00.89	192.06	22.87	-38.4	-39.1	24.6	0.00e+00	0	43	0	1125122048	48	3893
2026-01-24 12:42:01.89	192.18	23.00	-38.4	-39.1	24.6	0.00e+00	0	43	0	1130364928	48	3910
2026-01-24 12:42:02.90	192.31	23.14	-38.3	-39.0	24.7	0.00e+00	0	44	0	1136656384	48	3847
2026-01-24 12:42:03.91	192.43	23.27	-38.3	-39.1	24.7	0.00e+00	0	43	0	1142947840	48	3875
2026-01-24 12:42:04.92	192.56	23.41	-38.3	-39.0	24.7	0.00e+00	0	43	0	1148190720	48	3866
2026-01-24 12:42:05.93	192.69	23.54	-38.2	-38.9	24.8	0.00e+00	0	43	0	1153433600	48	3815
2026-01-24 12:42:06.94	192.82	23.68	-38.3	-39.0	24.8	0.00e+00	0	43	0	1159725056	48	3845
2026-01-24 12:42:07.95	192.95	23.82	-38.1	-38.9	24.9	0.00e+00	0	43	0	1164967936	48	3787
2026-01-24 12:42:08.96	193.08	23.96	-37.6	-38.4	24.8	0.00e+00	0	43	0	1170210816	47	3795
2026-01-24 12:42:09.97	193.21	24.09	-37.7	-38.4	24.8	0.00e+00	0	43	0	1176502272	47	3817
2026-01-24 12:42:10.98	193.34	24.23	-37.7	-38.5	24.7	0.00e+00	0	43	0	1181745152	47	3836
2026-01-24 12:42:11.99	193.48	24.37	-37.8	-38.5	24.7	0.00e+00	0	43	0	1188036608	47	3866
2026-01-24 12:42:13.00	193.61	24.51	-37.9	-38.6	24.9	0.00e+00	0	43	0	1193279488	47	3909
2026-01-24 12:42:14.01	193.75	24.65	-37.8	-38.5	25.0	0.00e+00	0	44	0	1198522368	47	3846
2026-01-24 12:42:15.01	193.89	24.79	-37.8	-38.6	25.0	0.00e+00	0	43	0	1204813824	47	3874
2026-01-24 12:42:16.02	194.03	24.93	-37.8	-38.5	25.0	0.00e+00	0	43	0	1210056704	47	3850
2026-01-24 12:42:17.03	194.17	25.07	-38.0	-38.7	24.9	0.00e+00	0	43	0	1216348160	47	3929
2026-01-24 12:42:18.04	194.31	25.22	-37.9	-38.6	25.0	0.00e+00	0	43	0	1221591040	47	3889
2026-01-24 12:42:19.05	194.45	25.36	-37.9	-38.6	24.9	0.00e+00	0	43	0	1227882496	47	3898
2026-01-24 12:42:20.05	194.60	25.50	-38.0	-38.7	24.9	0.00e+00	0	43	0	1233125376	47	3927
2026-01-24 12:42:21.06	194.74	25.65	-37.8	-38.5	25.1	0.00e+00	0	43	0	1238368256	47	3833
2026-01-24 12:42:22.07	194.89	25.79	-37.8	-38.5	25.0	0.00e+00	0	43	0	1244659712	47	3852
2026-01-24 12:42:23.08	195.04	25.94	-37.6	-38.4	25.2	0.00e+00	0	43	0	1249902592	47	3781
2026-01-24 12:42:24.09	195.19	26.08	-37.8	-38.5	25.1	0.00e+00	0	43	0	1255145472	47	3839
2026-01-24 12:42:25.10	195.34	26.23	-37.8	-38.5	25.1	0.00e+00	0	43	0	1261436928	47	3832
2026-01-24 12:42:26.11	195.49	26.38	-37.6	-38.3	25.2	0.00e+00	0	43	0	1267728384	47	3772
2026-01-24 12:42:27.12	195.64	26.53	-37.6	-38.4	25.2	0.00e+00	0	43	0	1272971264	47	3787
2026-01-24 12:42:28.13	195.80	26.68	-37.7	-38.4	25.2	0.00e+00	0	43	0	1278214144	47	3798
2026-01-24 12:42:29.13	195.95	26.82	-37.6	-38.3	25.2	0.00e+00	0	43	0	1284505600	47	3777
2026-01-24 12:42:30.14	196.11	26.97	-37.6	-38.3	25.2	0.00e+00	0	43	0	1289748480	47	3773
2026-01-24 12:42:31.15	196.27	27.12	-37.6	-38.3	25.2	0.00e+00	0	43	0	1294991360	47	3745
2026-01-24 12:42:32.16	196.43	27.28	-37.7	-38.4	25.1	0.00e+00	0	43	0	1301282816	47	3809
2026-01-24 12:42:33.17	196.59	27.43	-37.7	-38.4	25.1	0.00e+00	0	43	0	1306525696	47	3806
2026-01-24 12:42:34.17	196.76	27.58	-37.6	-38.3	25.2	0.00e+00	0	43	0	1312817152	47	3769
2026-01-24 12:42:35.18	196.92	27.73	-37.5	-38.2	25.3	0.00e+00	0	43	0	1318060032	47	3728
2026-01-24 12:42:36.19	197.09	27.88	-37.6	-38.3	25.3	0.00e+00	0	43	0	1323302912	47	3740
2026-01-24 12:42:37.20	197.26	28.04	-37.4	-38.1	25.4	0.00e+00	0	43	0	1329594368	46	3896
2026-01-24 12:42:38.21	197.43	28.19	-37.4	-38.1	25.4	0.00e+00	0	43	0	1335885824	46	3888
2026-01-24 12:42:39.22	197.60	28.35	-37.5	-38.2	25.3	0.00e+00	0	43	0	1341128704	46	3927
2026-01-24 12:42:40.23	197.77	28.50	-37.6	-38.3	25.3	0.00e+00	0	43	0	1346371584	46	3972
2026-01-24 12:42:41.24	197.95	28.66	-37.6	-38.3	25.3	0.00e+00	0	43	0	1352663040	46	3982
2026-01-24 12:42:42.25	198.12	28.82	-37.6	-38.3	25.2	0.00e+00	0	43	0	1357905920	46	3989
2026-01-24 12:42:43.25	198.30	28.97	-37.6	-38.3	25.2	0.00e+00	0	43	0	1363148800	46	3994
2026-01-24 12:42:44.26	198.48	29.13	-37.6	-38.4	25.2	0.00e+00	0	43	0	1369440256	46	4014
2026-01-24 12:42:45.27	198.66	29.29	-37.7	-38.4	25.2	0.00e+00	0	43	0	1374683136	46	4046
2026-01-24 12:42:46.28	198.84	29.45	-37.6	-38.3	25.2	0.00e+00	0	43	0	1380974592	46	4002
2026-01-24 12:42:47.29	199.03	29.61	-37.6	-38.3	25.3	0.00e+00	0	43	0	1386217472	46	3988
2026-01-24 12:42:48.29	199.21	29.77	-37.6	-38.3	25.2	0.00e+00	0	43	0	1391460352	46	3992
2026-01-24 12:42:49.30	199.40	29.93	-37.6	-38.3	25.3	0.00e+00	0	43	0	1397751808	46	3986
2026-01-24 12:42:50.31	199.59	30.09	-37.5	-38.2	25.4	0.00e+00	0	43	0	1404043264	46	3937
2026-01-24 12:42:51.32	199.79	30.26	-37.4	-38.1	25.5	0.00e+00	0	43	0	1409286144	46	3870
2026-01-24 12:42:52.33	199.98	30.42	-37.4	-38.0	25.5	0.00e+00	0	43	0	1414529024	46	3867
2026-01-24 12:42:53.33	200.18	30.58	-37.3	-38.0	25.5	0.00e+00	0	43	0	1420820480	46	3855
2026-01-24 12:42:54.34	200.37	30.75	-38.5	-39.3	24.4	0.00e+00	0	43	0	1426063360	47	4197
2026-01-24 12:42:55.35	200.57	30.91	-37.4	-38.1	25.5	0.00e+00	0	43	0	1431306240	46	3878
2026-01-24 12:42:56.36	200.78	31.08	-37.4	-38.1	25.4	0.00e+00	0	43	0	1437597696	46	3905
2026-01-24 12:42:57.37	200.98	31.24	-37.6	-38.3	25.3	0.00e+00	0	43	0	1442840576	46	3975
2026-01-24 12:42:58.38	201.19	31.41	-37.5	-38.2	25.4	0.00e+00	0	43	0	1448083456	46	3929
2026-01-24 12:42:59.39	201.40	31.57	-37.6	-38.3	25.3	0.00e+00	0	43	0	1454374912	46	3974
2026-01-24 12:43:00.40	201.61	31.74	-37.5	-38.2	25.3	0.00e+00	0	43	0	1459617792	46	3958
2026-01-24 12:43:01.41	201.82	31.91	-37.4	-38.1	25.4	0.00e+00	0	43	0	1465909248	46	3895
2026-01-24 12:43:02.41	202.03	32.08	-37.5	-38.2	25.3	0.00e+00	0	43	0	1471152128	46	3953
2026-01-24 12:43:03.42	202.25	32.25	-37.3	-38.0	25.5	0.00e+00	0	43	0	1477443584	46	3856
2026-01-24 12:43:04.43	202.47	32.42	-37.2	-37.9	25.6	0.00e+00	0	43	0	1482686464	46	3821
2026-01-24 12:43:05.44	202.69	32.59	-37.2	-37.9	25.6	0.00e+00	0	43	0	1488977920	46	3798
2026-01-24 12:43:06.45	202.91	32.76	-37.1	-37.8	25.7	0.00e+00	0	43	0	1494220800	46	3778
2026-01-24 12:43:07.46	203.14	32.93	-37.2	-37.9	25.6	0.00e+00	0	43	0	1499463680	46	3794
2026-01-24 12:43:08.47	203.37	33.10	-37.3	-38.0	25.6	0.00e+00	0	44	0	1505755136	46	3831
2026-01-24 12:43:09.48	203.60	33.27	-37.5	-38.2	25.4	0.00e+00	0	43	0	1510998016	46	3928
2026-01-24 12:43:10.48	203.83	33.44	-37.6	-38.3	25.3	0.00e+00	0	43	0	1516240896	46	3974
2026-01-24 12:43:11.50	204.07	33.62	-37.6	-38.4	25.3	0.00e+00	0	43	0	1522532352	46	4007
2026-01-24 12:43:12.50	204.30	33.79	-37.6	-38.3	25.3	0.00e+00	0	43	0	1527775232	46	3964
2026-01-24 12:43:13.51	204.54	33.96	-37.3	-38.0	25.5	0.00e+00	0	43	0	1534066688	46	3847
2026-01-24 12:43:14.52	204.79	34.14	-37.3	-38.0	25.5	0.00e+00	0	43	0	1539309568	46	3857
2026-01-24 12:43:15.53	205.03	34.31	-37.3	-38.0	25.5	0.00e+00	0	43	0	1545601024	46	3862
2026-01-24 12:43:16.54	205.28	34.49	-37.0	-37.7	25.8	0.00e+00	0	43	0	1550843904	46	3714
2026-01-24 12:43:17.55	205.53	34.66	-37.0	-37.7	25.9	0.00e+00	0	43	0	1556086784	45	3919
2026-01-24 12:43:18.56	205.78	34.84	-36.9	-37.5	26.0	0.00e+00	0	43	0	1562378240	45	3867
2026-01-24 12:43:19.57	206.04	35.01	-37.0	-37.7	25.9	0.00e+00	0	43	0	1567621120	45	3917
2026-01-24 12:43:20.58	206.30	35.19	-37.1	-37.8	25.7	0.00e+00	0	43	0	1573912576	45	3995
2026-01-24 12:43:21.59	206.56	35.37	-37.2	-37.9	25.6	0.00e+00	0	43	0	1579155456	45	4042
2026-01-24 12:43:22.59	206.82	35.54	-37.3	-38.0	25.5	0.00e+00	0	43	0	1584398336	45	4095
2026-01-24 12:43:23.60	207.09	35.72	-37.3	-38.0	25.6	0.00e+00	0	43	0	1590689792	45	4069
2026-01-24 12:43:24.61	207.36	35.90	-37.4	-38.1	25.5	0.00e+00	0	43	0	1596981248	45	4099
2026-01-24 12:43:25.62	207.63	36.08	-37.1	-37.8	25.8	0.00e+00	0	43	0	1602224128	45	3985
2026-01-24 12:43:26.63	207.91	36.25	-37.1	-37.8	25.7	0.00e+00	0	43	0	1607467008	45	3998
2026-01-24 12:43:27.63	208.19	36.43	-37.1	-37.8	25.8	0.00e+00	0	43	0	1613758464	45	3981
2026-01-24 12:43:28.64	208.47	36.61	-37.0	-37.7	25.8	0.00e+00	0	43	0	1619001344	45	3957
2026-01-24 12:43:29.65	208.75	36.79	-37.0	-37.7	25.8	0.00e+00	0	43	0	1624244224	45	3942
2026-01-24 12:43:30.65	209.04	36.97	-37.0	-37.7	25.8	0.00e+00	0	43	0	1630535680	45	3947
2026-01-24 12:43:31.66	209.33	37.15	-36.7	-37.4	26.1	0.00e+00	0	43	0	1635778560	45	3783
2026-01-24 12:43:32.67	209.63	37.33	-36.7	-37.4	26.1	0.00e+00	0	43	0	1641021440	45	3799
2026-01-24 12:43:33.68	209.92	37.51	-36.8	-37.5	26.0	0.00e+00	0	43	0	1647312896	45	3862
2026-01-24 12:43:34.69	210.22	37.69	-36.8	-37.5	26.0	0.00e+00	0	43	0	1652555776	45	3831
2026-01-24 12:43:35.70	210.53	37.87	-36.9	-37.5	26.0	0.00e+00	0	43	0	1657798656	45	3868
2026-01-24 12:43:36.70	210.83	38.04	-36.7	-37.4	26.1	0.00e+00	0	43	0	1664090112	45	3803
2026-01-24 12:43:37.71	211.14	38.23	-36.7	-37.4	26.1	0.00e+00	0	43	0	1670381568	45	3797
2026-01-24 12:43:38.72	211.46	38.41	-36.8	-37.5	26.1	0.00e+00	0	43	0	1675624448	45	3835
2026-01-24 12:43:39.73	211.78	38.59	-36.9	-37.5	26.0	0.00e+00	0	43	0	1681915904	45	3860
2026-01-24 12:43:40.74	212.10	38.77	-36.9	-37.6	26.0	0.00e+00	0	43	0	1687158784	45	3901
2026-01-24 12:43:41.75	212.42	38.95	-37.0	-37.7	25.9	0.00e+00	0	43	0	1692401664	45	3954
2026-01-24 12:43:42.76	212.75	39.13	-37.1	-37.8	25.8	0.00e+00	0	43	0	1698693120	45	3998
2026-01-24 12:43:43.77	213.08	39.31	-37.1	-37.8	25.8	0.00e+00	0	43	0	1703936000	45	3967
2026-01-24 12:43:44.78	213.42	39.49	-36.9	-37.6	26.0	0.00e+00	0	43	0	1709178880	45	3873
2026-01-24 12:43:45.79	213.76	39.67	-36.8	-37.5	26.1	0.00e+00	0	43	0	1715470336	45	3854
2026-01-24 12:43:46.79	214.10	39.84	-36.9	-37.5	26.1	0.00e+00	0	43	0	1720713216	45	3855
2026-01-24 12:43:47.80	214.44	40.02	-36.9	-37.6	26.0	0.00e+00	0	43	0	1725956096	45	3900
2026-01-24 12:43:48.81	214.79	40.20	-37.2	-37.9	25.8	0.00e+00	0	43	0	1732247552	45	4010
2026-01-24 12:43:49.82	215.15	40.38	-37.2	-37.9	25.8	0.00e+00	0	43	0	1738539008	45	4045
2026-01-24 12:43:50.83	215.51	40.56	-37.3	-38.0	25.7	0.00e+00	0	43	0	1743781888	45	4071
2026-01-24 12:43:51.84	215.87	40.74	-37.4	-38.1	25.6	0.00e+00	0	43	0	1749024768	45	4111
2026-01-24 12:43:52.85	216.23	40.91	-37.0	-37.7	25.9	0.00e+00	0	43	0	1755316224	45	3943
2026-01-24 12:43:53.86	216.60	41.09	-36.9	-37.6	26.1	0.00e+00	0	43	0	1760559104	45	3876
2026-01-24 12:43:54.87	216.98	41.27	-37.0	-37.7	25.9	0.00e+00	0	43	0	1766850560	45	3940
2026-01-24 12:43:55.88	217.35	41.44	-37.0	-37.7	25.9	0.00e+00	0	43	0	1772093440	45	3943
2026-01-24 12:43:56.88	217.73	41.62	-37.3	-38.0	25.7	0.00e+00	0	43	0	1777336320	45	4066
2026-01-24 12:43:57.90	218.12	41.80	-37.4	-38.1	25.6	0.00e+00	0	43	0	1783627776	45	4122
2026-01-24 12:43:58.90	218.51	41.97	-37.5	-38.2	25.6	0.00e+00	0	43	0	1788870656	45	4159
2026-01-24 12:43:59.91	218.90	42.14	-37.2	-37.9	25.8	0.00e+00	0	43	0	1795162112	45	4017
2026-01-24 12:44:00.92	219.30	42.32	-37.2	-37.9	25.8	0.00e+00	0	43	0	1800404992	45	4025
2026-01-24 12:44:01.93	219.71	42.49	-37.1	-37.7	25.9	0.00e+00	0	43	0	1806696448	45	3954
2026-01-24 12:44:02.94	220.11	42.66	-37.2	-37.9	25.8	0.00e+00	0	43	0	1811939328	45	4008
2026-01-24 12:44:03.95	220.52	42.83	-37.4	-38.1	25.7	0.00e+00	0	43	0	1817182208	45	4105
2026-01-24 12:44:04.95	220.94	43.00	-37.4	-38.2	25.5	0.00e+00	0	43	0	1823473664	45	4152
2026-01-24 12:44:05.96	221.36	43.17	-37.3	-38.0	25.7	0.00e+00	0	43	0	1828716544	45	4077
2026-01-24 12:44:06.97	221.78	43.34	-37.3	-38.0	25.7	0.00e+00	0	43	0	1833959424	45	4077
2026-01-24 12:44:07.98	222.21	43.51	-37.3	-38.0	25.7	0.00e+00	0	43	0	1840250880	45	4057
2026-01-24 12:44:08.99	222.64	43.67	-37.3	-38.0	25.7	0.00e+00	0	43	0	1845493760	45	4090
2026-01-24 12:44:10.00	223.08	43.84	-37.3	-38.0	25.7	0.00e+00	0	43	0	1851785216	45	4082
2026-01-24 12:44:11.01	223.52	44.00	-37.4	-38.0	25.7	0.00e+00	0	43	0	1857028096	45	4094
2026-01-24 12:44:12.02	223.97	44.16	-37.4	-38.1	25.7	0.00e+00	0	43	0	1863319552	45	4111
2026-01-24 12:44:13.03	224.42	44.33	-37.4	-38.2	25.6	0.00e+00	0	43	0	1868562432	45	4146
2026-01-24 12:44:14.04	224.88	44.49	-37.5	-38.2	25.6	0.00e+00	0	44	0	1874853888	45	4149
2026-01-24 12:44:15.05	225.34	44.64	-37.6	-38.3	25.5	0.00e+00	0	43	0	1880096768	45	4209
2026-01-24 12:44:16.06	225.80	44.80	-37.6	-38.3	25.5	0.00e+00	0	43	0	1885339648	45	4223
2026-01-24 12:44:17.07	226.27	44.96	-37.7	-38.4	25.4	0.00e+00	0	43	0	1891631104	45	4261
2026-01-24 12:44:18.07	226.74	45.11	-37.5	-38.2	25.6	0.00e+00	0	43	0	1896873984	45	4179
2026-01-24 12:44:19.08	227.22	45.27	-37.5	-38.2	25.5	0.00e+00	0	43	0	1902116864	45	4185
2026-01-24 12:44:20.09	227.70	45.42	-37.8	-38.5	25.3	0.00e+00	0	44	0	1908408320	46	4060
2026-01-24 12:44:21.10	228.19	45.57	-37.7	-38.5	25.4	0.00e+00	0	43	0	1913651200	46	4055
2026-01-24 12:44:22.11	228.68	45.71	-37.8	-38.5	25.4	0.00e+00	0	43	0	1919942656	46	4071
2026-01-24 12:44:23.11	229.17	45.86	-37.7	-38.4	25.4	0.00e+00	0	43	0	1925185536	46	4032
2026-01-24 12:44:24.12	229.67	46.00	-37.8	-38.5	25.3	0.00e+00	0	43	0	1931476992	46	4082
2026-01-24 12:44:25.13	230.18	46.15	-37.7	-38.4	25.4	0.00e+00	0	43	0	1936719872	46	4014
2026-01-24 12:44:26.14	230.69	46.29	-37.7	-38.4	25.5	0.00e+00	0	43	0	1941962752	46	4010
2026-01-24 12:44:27.15	231.20	46.43	-37.7	-38.4	25.4	0.00e+00	0	43	0	1948254208	46	4041
2026-01-24 12:44:28.16	231.72	46.56	-37.7	-38.4	25.4	0.00e+00	0	43	0	1953497088	46	4030
2026-01-24 12:44:29.17	232.25	46.70	-37.7	-38.4	25.5	0.00e+00	0	43	0	1959788544	46	4005
2026-01-24 12:44:30.18	232.78	46.83	-37.6	-38.3	25.5	0.00e+00	0	43	0	1965031424	46	3992
2026-01-24 12:44:31.18	233.30	46.96	-37.5	-38.2	25.6	0.00e+00	0	43	0	1970274304	46	3936
2026-01-24 12:44:32.19	233.84	47.09	-37.5	-38.2	25.6	0.00e+00	0	43	0	1976565760	46	3937
2026-01-24 12:44:33.20	234.38	47.21	-37.8	-38.5	25.4	0.00e+00	0	44	0	1981808640	46	4064
2026-01-24 12:44:34.21	234.93	47.34	-37.9	-38.6	25.2	0.00e+00	0	43	0	1988100096	46	4119
2026-01-24 12:44:35.21	235.47	47.46	-37.8	-38.5	25.3	0.00e+00	0	43	0	1993342976	46	4096
2026-01-24 12:44:36.22	236.03	47.58	-38.0	-38.7	25.2	0.00e+00	0	43	0	1999634432	46	4159
2026-01-24 12:44:37.23	236.58	47.69	-37.7	-38.4	25.4	0.00e+00	0	43	0	2004877312	46	4047
2026-01-24 12:44:38.24	237.15	47.81	-37.5	-38.2	25.6	0.00e+00	0	43	0	2010120192	46	3916
2026-01-24 12:44:39.25	237.71	47.92	-37.5	-38.2	25.6	0.00e+00	0	43	0	2016411648	46	3928
2026-01-24 12:44:40.25	238.28	48.02	-37.5	-38.2	25.7	0.00e+00	0	43	0	2021654528	46	3916
2026-01-24 12:44:41.26	238.85	48.13	-37.6	-38.3	25.6	0.00e+00	0	43	0	2026897408	46	3961
2026-01-24 12:44:42.27	239.43	48.23	-37.4	-38.1	25.7	0.00e+00	0	43	0	2033188864	46	3894
2026-01-24 12:44:43.28	240.01	48.33	-37.5	-38.2	25.6	0.00e+00	0	43	0	2038431744	46	3934
2026-01-24 12:44:44.29	240.59	48.43	-37.5	-38.2	25.6	0.00e+00	0	43	0	2044723200	46	3953
2026-01-24 12:44:45.30	241.18	48.52	-37.6	-38.3	25.5	0.00e+00	0	43	0	2049966080	46	3984
2026-01-24 12:44:46.31	241.78	48.61	-37.6	-38.3	25.5	0.00e+00	0	43	0	2055208960	46	3999
2026-01-24 12:44:47.31	242.37	48.70	-37.7	-38.4	25.5	0.00e+00	0	43	0	2061500416	46	4009
2026-01-24 12:44:48.32	242.96	48.78	-37.6	-38.3	25.6	0.00e+00	0	43	0	2067791872	46	3986
2026-01-24 12:44:49.33	243.57	48.87	-37.7	-38.4	25.5	0.00e+00	0	43	0	2073034752	46	4014
2026-01-24 12:44:50.34	244.17	48.94	-37.8	-38.5	25.4	0.00e+00	0	43	0	2078277632	46	4054
2026-01-24 12:44:51.35	244.78	49.02	-37.8	-38.5	25.4	0.00e+00	0	43	0	2084569088	46	4055
2026-01-24 12:44:52.36	245.39	49.09	-37.9	-38.6	25.3	0.00e+00	0	43	0	2089811968	46	4139
2026-01-24 12:44:53.37	246.01	49.16	-37.7	-38.4	25.5	0.00e+00	0	43	0	2095054848	46	4018
2026-01-24 12:44:54.37	246.62	49.22	-37.6	-38.3	25.6	0.00e+00	0	43	0	2101346304	46	3971
2026-01-24 12:44:55.38	247.23	49.29	-37.6	-38.3	25.5	0.00e+00	0	43	0	2106589184	46	3983
2026-01-24 12:44:56.39	247.86	49.34	-37.8	-38.5	25.4	0.00e+00	0	43	0	2111832064	46	4086
2026-01-24 12:44:57.40	248.48	49.40	-37.7	-38.4	25.5	0.00e+00	0	43	0	2118123520	46	4031
2026-01-24 12:44:58.41	249.11	49.45	-37.8	-38.5	25.4	0.00e+00	0	43	0	2124414976	46	4057
2026-01-24 12:44:59.42	249.73	49.50	-37.5	-38.2	25.6	0.00e+00	0	43	0	2129657856	46	3942
2026-01-24 12:45:00.43	250.36	49.54	-37.6	-38.3	25.6	0.00e+00	0	43	0	2134900736	46	3959
2026-01-24 12:45:01.44	250.99	49.58	-37.6	-38.3	25.6	0.00e+00	0	43	0	2141192192	46	3981
2026-01-24 12:45:02.45	251.63	49.62	-37.9	-38.6	25.3	0.00e+00	0	43	0	2146435072	46	4119
2026-01-24 12:45:03.45	252.26	49.65	-38.0	-38.7	25.2	0.00e+00	0	43	0	2152726528	46	4183
2026-01-24 12:45:04.46	252.89	49.68	-38.1	-38.8	25.1	0.00e+00	0	43	0	2157969408	46	4205
2026-01-24 12:45:05.47	253.53	49.71	-37.8	-38.5	25.4	0.00e+00	0	43	0	2163212288	46	4085
2026-01-24 12:45:06.48	254.17	49.73	-37.9	-38.6	25.3	0.00e+00	0	43	0	2169503744	46	4128
2026-01-24 12:45:07.49	254.80	49.75	-37.9	-38.6	25.3	0.00e+00	0	43	0	2174746624	46	4128
2026-01-24 12:45:08.49	255.44	49.76	-37.9	-38.6	25.3	0.00e+00	0	43	0	2179989504	46	4122
2026-01-24 12:45:09.50	256.08	49.77	-38.0	-38.7	25.3	0.00e+00	0	43	0	2186280960	46	4156
2026-01-24 12:45:10.51	256.72	49.78	-37.7	-38.4	25.5	0.00e+00	0	43	0	2192572416	46	4035
2026-01-24 12:45:11.52	257.36	49.79	-37.8	-38.5	25.4	0.00e+00	0	43	0	2197815296	46	4093
2026-01-24 12:45:12.53	258.00	49.79	-38.2	-39.0	25.0	0.00e+00	0	44	0	2203058176	47	4060
2026-01-24 12:45:13.54	258.64	49.78	-38.4	-39.1	24.9	0.00e+00	0	43	0	2209349632	47	4131
2026-01-24 12:45:14.55	259.28	49.77	-37.8	-38.5	25.4	0.00e+00	0	43	0	2214592512	47	3847
2026-01-24 12:45:15.55	259.91	49.76	-37.8	-38.4	25.4	0.00e+00	0	43	0	2219835392	47	3823
2026-01-24 12:45:16.56	260.55	49.75	-37.9	-38.6	25.3	0.00e+00	0	43	0	2226126848	47	3897
2026-01-24 12:45:17.57	261.19	49.73	-38.0	-38.8	25.2	0.00e+00	0	43	0	2231369728	47	3970
2026-01-24 12:45:18.58	261.83	49.71	-37.9	-38.6	25.4	0.00e+00	0	43	0	2237661184	47	3883
2026-01-24 12:45:19.59	262.46	49.68	-37.9	-38.6	25.4	0.00e+00	0	43	0	2242904064	47	3887
2026-01-24 12:45:20.59	263.09	49.65	-38.0	-38.7	25.3	0.00e+00	0	43	0	2248146944	47	3939
2026-01-24 12:45:21.60	263.73	49.62	-37.9	-38.6	25.4	0.00e+00	0	43	0	2254438400	47	3892
2026-01-24 12:45:22.61	264.36	49.58	-38.0	-38.7	25.3	0.00e+00	0	43	0	2260729856	47	3933
2026-01-24 12:45:23.62	264.99	49.54	-38.1	-38.8	25.1	0.00e+00	0	43	0	2265972736	47	4004
2026-01-24 12:45:24.63	265.62	49.50	-38.0	-38.8	25.2	0.00e+00	0	44	0	2271215616	47	3961
2026-01-24 12:45:25.64	266.25	49.45	-38.0	-38.8	25.2	0.00e+00	0	43	0	2277507072	47	3965
2026-01-24 12:45:26.65	266.87	49.40	-37.9	-38.6	25.4	0.00e+00	0	43	0	2282749952	47	3895
2026-01-24 12:45:27.65	267.49	49.35	-37.7	-38.4	25.5	0.00e+00	0	43	0	2287992832	47	3810
2026-01-24 12:45:28.66	268.11	49.29	-37.6	-38.3	25.6	0.00e+00	0	44	0	2294284288	47	3758
2026-01-24 12:45:29.67	268.73	49.23	-37.8	-38.5	25.4	0.00e+00	0	43	0	2299527168	47	3828
2026-01-24 12:45:30.68	269.35	49.16	-38.0	-38.7	25.2	0.00e+00	0	43	0	2304770048	47	3955
2026-01-24 12:45:31.69	269.96	49.09	-38.1	-38.8	25.2	0.00e+00	0	43	0	2311061504	47	3976
2026-01-24 12:45:32.69	270.57	49.02	-38.1	-38.8	25.1	0.00e+00	0	43	0	2316304384	47	4000
2026-01-24 12:45:33.70	271.17	48.95	-38.0	-38.7	25.3	0.00e+00	0	43	0	2322595840	47	3950
2026-01-24 12:45:34.71	271.78	48.87	-37.6	-38.3	25.6	0.00e+00	0	43	0	2327838720	47	3762
2026-01-24 12:45:35.72	272.38	48.79	-37.6	-38.3	25.7	0.00e+00	0	43	0	2334130176	47	3742
2026-01-24 12:45:36.73	272.98	48.70	-37.4	-38.1	25.8	0.00e+00	0	43	0	2339373056	46	3890
2026-01-24 12:45:37.73	273.57	48.62	-37.6	-38.3	25.6	0.00e+00	0	43	0	2345664512	46	4001
2026-01-24 12:45:38.74	274.16	48.53	-37.7	-38.4	25.5	0.00e+00	0	43	0	2350907392	46	4019
2026-01-24 12:45:39.75	274.75	48.43	-37.7	-38.4	25.5	0.00e+00	0	43	0	2356150272	46	4033
2026-01-24 12:45:40.76	275.33	48.34	-37.7	-38.4	25.5	0.00e+00	0	43	0	2362441728	46	4016
2026-01-24 12:45:41.77	275.91	48.24	-37.8	-38.5	25.4	0.00e+00	0	43	0	2367684608	46	4067
2026-01-24 12:45:42.77	276.48	48.14	-38.3	-39.0	25.0	0.00e+00	0	43	0	2372927488	47	4074
2026-01-24 12:45:43.78	277.06	48.03	-38.3	-39.1	24.9	0.00e+00	0	43	0	2379218944	47	4117
2026-01-24 12:45:44.79	277.63	47.92	-38.2	-38.9	25.0	0.00e+00	0	43	0	2384461824	47	4041
2026-01-24 12:45:45.80	278.19	47.81	-38.1	-38.8	25.2	0.00e+00	0	43	0	2389704704	47	3973
2026-01-24 12:45:46.81	278.76	47.70	-37.9	-38.6	25.3	0.00e+00	0	43	0	2395996160	47	3902
2026-01-24 12:45:47.81	279.31	47.59	-37.9	-38.6	25.3	0.00e+00	0	43	0	2402287616	47	3910
2026-01-24 12:45:48.82	279.86	47.47	-38.0	-38.8	25.2	0.00e+00	0	43	0	2407530496	47	3968
2026-01-24 12:45:49.83	280.41	47.35	-38.0	-38.7	25.2	0.00e+00	0	43	0	2412773376	47	3929
2026-01-24 12:45:50.84	280.95	47.22	-37.8	-38.5	25.4	0.00e+00	0	43	0	2419064832	47	3847
2026-01-24 12:45:51.85	281.50	47.10	-37.7	-38.4	25.5	0.00e+00	0	44	0	2424307712	47	3786
2026-01-24 12:45:52.86	282.03	46.97	-37.6	-38.3	25.6	0.00e+00	0	43	0	2430599168	47	3770
2026-01-24 12:45:53.87	282.56	46.84	-37.7	-38.4	25.5	0.00e+00	0	43	0	2435842048	47	3810
2026-01-24 12:45:54.87	283.09	46.71	-38.0	-38.7	25.2	0.00e+00	0	43	0	2441084928	47	3944
2026-01-24 12:45:55.88	283.61	46.58	-38.2	-38.9	25.1	0.00e+00	0	43	0	2447376384	47	4032
2026-01-24 12:45:56.89	284.13	46.44	-38.2	-39.0	25.0	0.00e+00	0	43	0	2452619264	47	4061
2026-01-24 12:45:57.90	284.64	46.30	-38.0	-38.7	25.2	0.00e+00	0	43	0	2457862144	47	3945
2026-01-24 12:45:58.91	285.15	46.16	-37.8	-38.5	25.4	0.00e+00	0	43	0	2464153600	47	3834
2026-01-24 12:45:59.92	285.66	46.02	-37.8	-38.5	25.5	0.00e+00	0	43	0	2470445056	47	3839
2026-01-24 12:46:00.93	286.16	45.87	-38.0	-38.7	25.2	0.00e+00	0	44	0	2475687936	47	3936
2026-01-24 12:46:01.94	286.65	45.73	-38.0	-38.7	25.3	0.00e+00	0	43	0	2480930816	47	3934
2026-01-24 12:46:02.95	287.15	45.58	-38.2	-38.9	25.1	0.00e+00	0	43	0	2487222272	47	4024
2026-01-24 12:46:03.96	287.63	45.43	-37.8	-38.5	25.4	0.00e+00	0	43	0	2492465152	47	3852
2026-01-24 12:46:04.96	288.11	45.28	-37.9	-38.6	25.3	0.00e+00	0	43	0	2497708032	47	3912
2026-01-24 12:46:05.97	288.59	45.13	-37.8	-38.5	25.4	0.00e+00	0	43	0	2503999488	47	3862
2026-01-24 12:46:06.98	289.06	44.97	-37.7	-38.4	25.5	0.00e+00	0	43	0	2509242368	47	3816
2026-01-24 12:46:07.99	289.53	44.82	-37.9	-38.6	25.4	0.00e+00	0	43	0	2515533824	47	3873
2026-01-24 12:46:09.00	289.99	44.66	-38.1	-38.9	25.1	0.00e+00	0	43	0	2520776704	47	4005
2026-01-24 12:46:10.01	290.45	44.50	-38.3	-39.1	24.9	0.00e+00	0	43	0	2527068160	47	4105
2026-01-24 12:46:11.01	290.90	44.34	-38.3	-39.1	24.9	0.00e+00	0	43	0	2532311040	47	4119
2026-01-24 12:46:12.02	291.36	44.18	-38.1	-38.8	25.1	0.00e+00	0	43	0	2538602496	47	3983
2026-01-24 12:46:13.03	291.80	44.02	-37.9	-38.6	25.3	0.00e+00	0	44	0	2543845376	47	3875
2026-01-24 12:46:14.04	292.24	43.86	-37.8	-38.5	25.4	0.00e+00	0	43	0	2549088256	47	3851
2026-01-24 12:46:15.05	292.68	43.69	-37.8	-38.5	25.4	0.00e+00	0	44	0	2555379712	47	3854
2026-01-24 12:46:16.05	293.11	43.53	-37.9	-38.6	25.3	0.00e+00	0	43	0	2560622592	47	3894
2026-01-24 12:46:17.06	293.54	43.36	-38.1	-38.8	25.2	0.00e+00	0	43	0	2565865472	47	3975
2026-01-24 12:46:18.07	293.96	43.19	-38.1	-38.8	25.1	0.00e+00	0	43	0	2572156928	47	3993
2026-01-24 12:46:19.08	294.38	43.03	-38.1	-38.8	25.2	0.00e+00	0	43	0	2577399808	47	3972
2026-01-24 12:46:20.09	294.80	42.86	-37.9	-38.6	25.3	0.00e+00	0	43	0	2582642688	47	3885
2026-01-24 12:46:21.09	295.20	42.69	-37.9	-38.6	25.3	0.00e+00	0	44	0	2588934144	47	3873
2026-01-24 12:46:22.10	295.61	42.52	-37.8	-38.5	25.4	0.00e+00	0	43	0	2594177024	47	3851
2026-01-24 12:46:23.11	296.01	42.34	-37.8	-38.6	25.3	0.00e+00	0	43	0	2600468480	47	3874
2026-01-24 12:46:24.12	296.41	42.17	-37.8	-38.5	25.4	0.00e+00	0	43	0	2605711360	47	3864
2026-01-24 12:46:25.13	296.80	42.00	-37.7	-38.4	25.4	0.00e+00	0	43	0	2612002816	47	3816
2026-01-24 12:46:26.14	297.19	41.82	-37.6	-38.3	25.5	0.00e+00	0	43	0	2617245696	47	3778
2026-01-24 12:46:27.15	297.58	41.65	-37.5	-38.2	25.7	0.00e+00	0	43	0	2623537152	46	3915
2026-01-24 12:46:28.15	297.96	41.48	-37.6	-38.3	25.6	0.00e+00	0	44	0	2628780032	46	3982
2026-01-24 12:46:29.16	298.34	41.30	-37.6	-38.3	25.6	0.00e+00	0	43	0	2634022912	46	3984
2026-01-24 12:46:30.17	298.71	41.12	-37.5	-38.2	25.6	0.00e+00	0	43	0	2640314368	46	3941
2026-01-24 12:46:31.11	299.05	40.96	-37.5	-38.2	25.6	0.00e+00	0	43	0	2645557248	46	3945
2026-01-24 12:46:32.12	299.42	40.78	-37.6	-38.3	25.6	0.00e+00	0	43	0	2650800128	46	3974
2026-01-24 12:46:33.13	299.78	40.61	-37.7	-38.4	25.5	0.00e+00	0	43	0	2657091584	46	4037
2026-01-24 12:46:34.14	300.14	40.43	-37.6	-38.4	25.5	0.00e+00	0	43	0	2662334464	46	4006
2026-01-24 12:46:35.15	300.49	40.25	-37.6	-38.3	25.5	0.00e+00	0	43	0	2668625920	46	4002
2026-01-24 12:46:36.15	300.84	40.07	-37.6	-38.3	25.5	0.00e+00	0	43	0	2673868800	46	3996
2026-01-24 12:46:37.16	301.19	39.90	-37.4	-38.1	25.7	0.00e+00	0	43	0	2680160256	46	3893
2026-01-24 12:46:38.17	301.53	39.72	-37.4	-38.1	25.7	0.00e+00	0	43	0	2685403136	46	3895
2026-01-24 12:46:39.18	301.87	39.54	-37.4	-38.1	25.7	0.00e+00	0	43	0	2690646016	46	3901
2026-01-24 12:46:40.19	302.20	39.36	-37.3	-38.0	25.8	0.00e+00	0	43	0	2696937472	46	3836
2026-01-24 12:46:41.20	302.53	39.18	-37.2	-37.9	25.8	0.00e+00	0	43	0	2702180352	46	3817
2026-01-24 12:46:42.21	302.86	39.00	-37.2	-37.9	25.9	0.00e+00	0	43	0	2708471808	46	3801
2026-01-24 12:46:43.22	303.19	38.82	-37.2	-37.9	25.9	0.00e+00	0	43	0	2713714688	46	3782
2026-01-24 12:46:44.22	303.51	38.64	-37.0	-37.7	26.1	0.00e+00	0	43	0	2718957568	46	3729
2026-01-24 12:46:45.23	303.82	38.46	-37.1	-37.7	26.0	0.00e+00	0	43	0	2725249024	46	3737
2026-01-24 12:46:46.24	304.14	38.28	-37.0	-37.7	26.1	0.00e+00	0	43	0	2730491904	46	3706
2026-01-24 12:46:47.25	304.45	38.10	-37.1	-37.8	26.0	0.00e+00	0	43	0	2736783360	46	3756
2026-01-24 12:46:48.25	304.75	37.93	-37.3	-38.0	25.9	0.00e+00	0	43	0	2742026240	46	3836
2026-01-24 12:46:49.26	305.06	37.75	-37.4	-38.1	25.8	0.00e+00	0	43	0	2748317696	46	3883
2026-01-24 12:46:50.27	305.36	37.57	-37.5	-38.2	25.7	0.00e+00	0	43	0	2753560576	46	3930
2026-01-24 12:46:51.28	305.66	37.39	-37.5	-38.2	25.7	0.00e+00	0	43	0	2758803456	46	3947
2026-01-24 12:46:52.29	305.95	37.21	-37.4	-38.1	25.8	0.00e+00	0	43	0	2765094912	46	3898
2026-01-24 12:46:53.29	306.24	37.03	-37.4	-38.1	25.8	0.00e+00	0	43	0	2770337792	46	3879
2026-01-24 12:46:54.30	306.53	36.85	-37.3	-38.0	25.9	0.00e+00	0	43	0	2775580672	46	3845
2026-01-24 12:46:55.31	306.81	36.68	-37.0	-37.7	26.1	0.00e+00	0	43	0	2781872128	46	3718
2026-01-24 12:46:56.32	307.09	36.50	-37.1	-37.7	26.1	0.00e+00	0	43	0	2787115008	46	3724
2026-01-24 12:46:57.33	307.37	36.32	-37.1	-37.8	26.0	0.00e+00	0	43	0	2793406464	46	3747
2026-01-24 12:46:58.34	307.65	36.14	-37.3	-37.9	25.9	0.00e+00	0	43	0	2798649344	46	3821
2026-01-24 12:46:59.35	307.92	35.96	-37.4	-38.1	25.8	0.00e+00	0	43	0	2804940800	46	3876
2026-01-24 12:47:00.35	308.19	35.79	-37.4	-38.1	25.7	0.00e+00	0	44	0	2810183680	46	3893
2026-01-24 12:47:01.36	308.46	35.61	-37.4	-38.1	25.7	0.00e+00	0	43	0	2816475136	46	3902
2026-01-24 12:47:02.37	308.72	35.43	-37.4	-38.1	25.8	0.00e+00	0	43	0	2821718016	46	3876
2026-01-24 12:47:03.38	308.98	35.26	-37.3	-37.9	25.8	0.00e+00	0	43	0	2826960896	46	3824
2026-01-24 12:47:04.38	309.24	35.08	-37.3	-38.0	25.8	0.00e+00	0	43	0	2833252352	46	3851
2026-01-24 12:47:05.39	309.50	34.91	-37.5	-38.2	25.6	0.00e+00	0	43	0	2838495232	46	3939
2026-01-24 12:47:06.40	309.75	34.73	-37.5	-38.2	25.7	0.00e+00	0	43	0	2843738112	46	3929
2026-01-24 12:47:07.41	310.00	34.56	-37.4	-38.2	25.7	0.00e+00	0	43	0	2850029568	46	3917
2026-01-24 12:47:08.42	310.25	34.38	-37.4	-38.1	25.7	0.00e+00	0	43	0	2855272448	46	3875
2026-01-24 12:47:09.43	310.50	34.21	-37.4	-38.1	25.7	0.00e+00	0	43	0	2860515328	46	3907
2026-01-24 12:47:10.43	310.74	34.04	-37.4	-38.0	25.8	0.00e+00	0	43	0	2866806784	46	3868
2026-01-24 12:47:11.44	310.98	33.87	-37.1	-37.8	26.0	0.00e+00	0	43	0	2873098240	46	3741
2026-01-24 12:47:12.45	311.22	33.69	-37.2	-37.9	25.9	0.00e+00	0	43	0	2878341120	46	3797
2026-01-24 12:47:13.46	311.45	33.52	-37.3	-37.9	25.8	0.00e+00	0	43	0	2883584000	46	3821
2026-01-24 12:47:14.46	311.68	33.35	-37.3	-38.0	25.8	0.00e+00	0	44	0	2889875456	46	3861
2026-01-24 12:47:15.47	311.91	33.18	-37.5	-38.2	25.6	0.00e+00	0	43	0	2895118336	46	3930
2026-01-24 12:47:16.48	312.14	33.01	-37.5	-38.2	25.6	0.00e+00	0	43	0	2901409792	46	3948
2026-01-24 12:47:17.49	312.37	32.84	-37.5	-38.3	25.6	0.00e+00	0	43	0	2906652672	46	3960
2026-01-24 12:47:18.49	312.59	32.67	-37.5	-38.2	25.6	0.00e+00	0	43	0	2911895552	46	3944
2026-01-24 12:47:19.50	312.81	32.50	-37.5	-38.2	25.6	0.00e+00	0	43	0	2918187008	46	3938
2026-01-24 12:47:20.51	313.03	32.33	-37.6	-38.2	25.6	0.00e+00	0	43	0	2923429888	46	3958
2026-01-24 12:47:21.52	313.25	32.16	-37.5	-38.1	25.6	0.00e+00	0	43	0	2928672768	46	3905
2026-01-24 12:47:22.53	313.46	31.99	-37.5	-38.2	25.6	0.00e+00	0	43	0	2934964224	46	3922
2026-01-24 12:47:23.54	313.68	31.83	-37.5	-38.2	25.5	0.00e+00	0	43	0	2940207104	46	3950
2026-01-24 12:47:24.55	313.89	31.66	-37.6	-38.3	25.5	0.00e+00	0	43	0	2946498560	46	3975
2026-01-24 12:47:25.56	314.10	31.49	-37.6	-38.3	25.5	0.00e+00	0	43	0	2951741440	46	3977
2026-01-24 12:47:26.57	314.30	31.33	-37.5	-38.2	25.6	0.00e+00	0	43	0	2958032896	46	3949
2026-01-24 12:47:27.57	314.50	31.16	-37.6	-38.3	25.5	0.00e+00	0	43	0	2963275776	46	3970
2026-01-24 12:47:28.58	314.71	31.00	-37.5	-38.2	25.5	0.00e+00	0	43	0	2968518656	46	3942
2026-01-24 12:47:29.59	314.91	30.84	-37.5	-38.2	25.5	0.00e+00	0	43	0	2974810112	46	3945
2026-01-24 12:47:30.60	315.11	30.67	-37.6	-38.2	25.5	0.00e+00	0	43	0	2980052992	46	3956
2026-01-24 12:47:31.61	315.30	30.51	-37.4	-38.1	25.7	0.00e+00	0	43	0	2986344448	46	3881
2026-01-24 12:47:32.61	315.50	30.35	-37.4	-38.1	25.7	0.00e+00	0	43	0	2991587328	46	3907
2026-01-24 12:47:33.62	315.69	30.19	-37.5	-38.2	25.6	0.00e+00	0	43	0	2996830208	46	3915
2026-01-24 12:47:34.63	315.88	30.03	-37.5	-38.1	25.6	0.00e+00	0	43	0	3003121664	46	3911
2026-01-24 12:47:35.64	316.07	29.86	-37.6	-38.3	25.5	0.00e+00	0	43	0	3008364544	46	3960
2026-01-24 12:47:36.65	316.25	29.70	-37.7	-38.4	25.4	0.00e+00	0	43	0	3014656000	46	4026
2026-01-24 12:47:37.65	316.44	29.55	-37.8	-38.5	25.3	0.00e+00	0	43	0	3019898880	46	4084
2026-01-24 12:47:38.66	316.62	29.39	-37.8	-38.5	25.2	0.00e+00	0	43	0	3026190336	46	4092
2026-01-24 12:47:39.67	316.80	29.23	-37.8	-38.5	25.3	0.00e+00	0	44	0	3031433216	46	4085
2026-01-24 12:47:40.68	316.98	29.07	-37.7	-38.5	25.3	0.00e+00	0	43	0	3036676096	46	4057
2026-01-24 12:47:41.69	317.16	28.91	-37.7	-38.4	25.3	0.00e+00	0	43	0	3042967552	46	4039
2026-01-24 12:47:42.69	317.34	28.76	-37.7	-38.4	25.3	0.00e+00	0	43	0	3048210432	46	4039
2026-01-24 12:47:43.70	317.51	28.60	-37.6	-38.3	25.4	0.00e+00	0	43	0	3053453312	46	4003
2026-01-24 12:47:44.71	317.69	28.45	-37.5	-38.2	25.5	0.00e+00	0	43	0	3059744768	46	3930
2026-01-24 12:47:45.72	317.86	28.29	-37.4	-38.1	25.6	0.00e+00	0	43	0	3064987648	46	3897
2026-01-24 12:47:46.73	318.03	28.14	-37.6	-38.3	25.5	0.00e+00	0	43	0	3071279104	46	3962
2026-01-24 12:47:47.73	318.20	27.99	-37.6	-38.3	25.4	0.00e+00	0	43	0	3076521984	46	3994
2026-01-24 12:47:48.74	318.36	27.83	-37.4	-38.1	25.6	0.00e+00	0	43	0	3082813440	46	3889
2026-01-24 12:47:49.75	318.53	27.68	-37.3	-38.0	25.7	0.00e+00	0	44	0	3088056320	46	3839
2026-01-24 12:47:50.76	318.69	27.53	-37.4	-38.1	25.6	0.00e+00	0	43	0	3094347776	46	3901
2026-01-24 12:47:51.77	318.85	27.38	-37.5	-38.1	25.5	0.00e+00	0	43	0	3099590656	46	3911
2026-01-24 12:47:52.78	319.02	27.23	-37.4	-38.1	25.6	0.00e+00	0	43	0	3104833536	46	3910
2026-01-24 12:47:53.79	319.18	27.08	-37.5	-38.2	25.5	0.00e+00	0	43	0	3111124992	46	3936
2026-01-24 12:47:54.79	319.33	26.93	-37.6	-38.3	25.4	0.00e+00	0	43	0	3116367872	46	3984
2026-01-24 12:47:55.80	319.49	26.78	-37.6	-38.3	25.4	0.00e+00	0	43	0	3121610752	46	3988
2026-01-24 12:47:56.81	319.64	26.63	-37.6	-38.3	25.4	0.00e+00	0	43	0	3127902208	46	4004
2026-01-24 12:47:57.82	319.80	26.49	-37.7	-38.4	25.3	0.00e+00	0	43	0	3133145088	46	4051
2026-01-24 12:47:58.83	319.95	26.34	-37.8	-38.5	25.2	0.00e+00	0	43	0	3138387968	46	4082
2026-01-24 12:47:59.84	320.10	26.19	-37.9	-38.6	25.1	0.00e+00	0	43	0	3144679424	46	4138
2026-01-24 12:48:00.85	320.25	26.05	-37.9	-38.7	25.1	0.00e+00	0	43	0	3150970880	46	4149
2026-01-24 12:48:01.85	320.40	25.90	-37.8	-38.5	25.2	0.00e+00	0	43	0	3156213760	46	4072
2026-01-24 12:48:02.86	320.55	25.76	-37.8	-38.5	25.1	0.00e+00	0	43	0	3161456640	46	4097
2026-01-24 12:48:03.87	320.69	25.61	-37.8	-38.5	25.1	0.00e+00	0	43	0	3167748096	46	4097
2026-01-24 12:48:04.88	320.84	25.47	-37.8	-38.5	25.2	0.00e+00	0	44	0	3172990976	46	4068
2026-01-24 12:48:05.89	320.98	25.33	-37.8	-38.5	25.2	0.00e+00	0	43	0	3179282432	46	4081
2026-01-24 12:48:06.89	321.12	25.19	-37.8	-38.5	25.2	0.00e+00	0	43	0	3184525312	46	4070
2026-01-24 12:48:07.90	321.26	25.04	-37.8	-38.5	25.2	0.00e+00	0	43	0	3189768192	46	4062
2026-01-24 12:48:08.91	321.40	24.90	-37.8	-38.5	25.2	0.00e+00	0	43	0	3196059648	46	4077
2026-01-24 12:48:09.92	321.54	24.76	-37.9	-38.6	25.1	0.00e+00	0	43	0	3201302528	46	4101
2026-01-24 12:48:10.93	321.68	24.62	-37.9	-38.6	25.1	0.00e+00	0	43	0	3206545408	46	4107
2026-01-24 12:48:11.93	321.81	24.49	-38.0	-38.7	25.0	0.00e+00	0	43	0	3212836864	46	4170
2026-01-24 12:48:12.94	321.95	24.35	-38.0	-38.8	25.0	0.00e+00	0	43	0	3219128320	46	4196
2026-01-24 12:48:13.95	322.08	24.21	-37.9	-38.6	25.1	0.00e+00	0	43	0	3224371200	46	4122
2026-01-24 12:48:14.96	322.21	24.07	-38.0	-38.7	25.0	0.00e+00	0	44	0	3229614080	46	4156
2026-01-24 12:48:15.97	322.35	23.93	-38.0	-38.7	25.0	0.00e+00	0	44	0	3235905536	46	4172
2026-01-24 12:48:16.98	322.48	23.80	-38.0	-38.7	25.0	0.00e+00	0	43	0	3241148416	46	4175
2026-01-24 12:48:17.99	322.61	23.66	-38.1	-38.8	24.9	0.00e+00	0	43	0	3246391296	46	4234
2026-01-24 12:48:18.99	322.73	23.53	-38.1	-38.8	24.9	0.00e+00	0	43	0	3252682752	46	4230
2026-01-24 12:48:20.00	322.86	23.39	-38.2	-39.0	24.6	0.00e+00	0	43	0	3257925632	47	4061
2026-01-24 12:48:21.01	322.99	23.26	-38.2	-38.9	24.8	0.00e+00	0	43	0	3264217088	47	4029
2026-01-24 12:48:22.02	323.11	23.12	-38.3	-39.0	24.7	0.00e+00	0	43	0	3269459968	47	4077
2026-01-24 12:48:23.03	323.24	22.99	-38.3	-39.1	24.6	0.00e+00	0	44	0	3274702848	47	4100
2026-01-24 12:48:24.04	323.36	22.86	-38.3	-39.0	24.7	0.00e+00	0	43	0	3280994304	47	4079
2026-01-24 12:48:25.05	323.48	22.73	-38.5	-39.2	24.5	0.00e+00	0	43	0	3287285760	47	4168
2026-01-24 12:48:26.05	323.60	22.60	-38.5	-39.2	24.5	0.00e+00	0	44	0	3292528640	47	4181
2026-01-24 12:48:27.06	323.72	22.47	-38.4	-39.2	24.6	0.00e+00	0	43	0	3297771520	47	4149
2026-01-24 12:48:28.07	323.84	22.34	-38.5	-39.3	24.5	0.00e+00	0	43	0	3304062976	47	4194
2026-01-24 12:48:29.08	323.96	22.21	-38.5	-39.2	24.5	0.00e+00	0	43	0	3309305856	47	4191
2026-01-24 12:48:30.09	324.08	22.08	-38.6	-39.3	24.4	0.00e+00	0	43	0	3314548736	47	4220
2026-01-24 12:48:31.09	324.19	21.95	-38.6	-39.4	24.4	0.00e+00	0	43	0	3320840192	47	4244
2026-01-24 12:48:32.10	324.31	21.82	-38.6	-39.4	24.3	0.00e+00	0	43	0	3326083072	47	4261
2026-01-24 12:48:33.11	324.42	21.69	-38.6	-39.3	24.4	0.00e+00	0	43	0	3331325952	47	4223
2026-01-24 12:48:34.12	324.54	21.57	-38.6	-39.4	24.3	0.00e+00	0	43	0	3337617408	47	4266
2026-01-24 12:48:35.13	324.65	21.44	-38.9	-39.6	24.5	0.00e+00	0	43	0	3342860288	48	4141
2026-01-24 12:48:36.13	324.76	21.32	-39.0	-39.7	24.6	0.00e+00	0	43	0	3349151744	48	4153
2026-01-24 12:48:37.14	324.87	21.19	-39.0	-39.8	24.5	0.00e+00	0	43	0	3354394624	48	4194
2026-01-24 12:48:38.15	324.98	21.07	-38.9	-39.6	24.6	0.00e+00	0	43	0	3360686080	48	4116
2026-01-24 12:48:39.16	325.09	20.94	-38.9	-39.6	24.6	0.00e+00	0	43	0	3365928960	48	4141
2026-01-24 12:48:40.17	325.20	20.82	-39.0	-39.7	24.5	0.00e+00	0	43	0	3372220416	48	4189
2026-01-24 12:48:41.17	325.30	20.69	-39.0	-39.7	24.5	0.00e+00	0	43	0	3377463296	48	4177
2026-01-24 12:48:42.18	325.41	20.57	-39.1	-39.8	24.4	0.00e+00	0	43	0	3382706176	48	4237
2026-01-24 12:48:43.19	325.52	20.45	-39.2	-39.9	24.3	0.00e+00	0	43	0	3388997632	49	4037
2026-01-24 12:48:44.20	325.62	20.33	-39.2	-39.9	24.4	0.00e+00	0	43	0	3394240512	49	4015
2026-01-24 12:48:45.21	325.73	20.21	-39.3	-40.0	24.2	0.00e+00	0	43	0	3399483392	49	4084
2026-01-24 12:48:46.21	325.83	20.09	-39.3	-40.1	24.1	0.00e+00	0	43	0	3405774848	49	4103
2026-01-24 12:48:47.22	325.93	19.97	-39.1	-39.9	24.3	0.00e+00	0	43	0	3411017728	49	4010
2026-01-24 12:48:48.23	326.04	19.85	-39.2	-39.9	24.3	0.00e+00	0	43	0	3416260608	49	4035
2026-01-24 12:48:49.24	326.14	19.73	-39.2	-40.0	24.2	0.00e+00	0	43	0	3422552064	49	4055
2026-01-24 12:48:50.25	326.24	19.61	-39.3	-40.0	24.2	0.00e+00	0	44	0	3428843520	49	4085
2026-01-24 12:48:51.25	326.34	19.49	-39.4	-40.2	24.0	0.00e+00	0	43	0	3434086400	49	4156
2026-01-24 12:48:52.26	326.44	19.37	-39.3	-40.1	24.1	0.00e+00	0	43	0	3439329280	49	4102
2026-01-24 12:48:53.27	326.53	19.25	-39.4	-40.2	24.0	0.00e+00	0	43	0	3445620736	49	4147
2026-01-24 12:48:54.28	326.63	19.14	-39.3	-40.1	24.1	0.00e+00	0	44	0	3450863616	49	4120
2026-01-24 12:48:55.29	326.73	19.02	-39.4	-40.1	24.0	0.00e+00	0	43	0	3457155072	49	4142
2026-01-24 12:48:56.29	326.82	18.91	-39.4	-40.2	24.0	0.00e+00	0	44	0	3462397952	49	4147
2026-01-24 12:48:57.30	326.92	18.79	-39.5	-40.3	23.9	0.00e+00	0	43	0	3467640832	49	4220
2026-01-24 12:48:58.31	327.01	18.68	-39.5	-40.2	24.0	0.00e+00	0	44	0	3473932288	49	4186
2026-01-24 12:48:59.32	327.11	18.56	-39.4	-40.1	24.0	0.00e+00	0	43	0	3479175168	49	4137
2026-01-24 12:49:00.33	327.20	18.45	-39.5	-40.2	23.9	0.00e+00	0	43	0	3484418048	49	4191
2026-01-24 12:49:01.33	327.29	18.33	-39.6	-40.3	23.9	0.00e+00	0	44	0	3490709504	49	4222
2026-01-24 12:49:02.34	327.39	18.22	-39.7	-40.4	23.8	0.00e+00	0	44	0	3495952384	49	4269
2026-01-24 12:49:03.35	327.48	18.11	-39.7	-40.4	23.8	0.00e+00	0	43	0	3502243840	50	4027
2026-01-24 12:49:04.36	327.57	18.00	-39.7	-40.4	23.8	0.00e+00	0	44	0	3507486720	50	4032
2026-01-24 12:49:05.37	327.66	17.88	-39.8	-40.5	23.7	0.00e+00	0	44	0	3513778176	50	4086
2026-01-24 12:49:06.38	327.75	17.77	-39.9	-40.6	23.6	0.00e+00	0	43	0	3519021056	50	4142
2026-01-24 12:49:07.38	327.84	17.66	-39.8	-40.5	23.6	0.00e+00	0	44	0	3524263936	50	4097
2026-01-24 12:49:08.39	327.93	17.55	-39.9	-40.7	23.5	0.00e+00	0	44	0	3530555392	50	4170
2026-01-24 12:49:09.40	328.01	17.44	-39.9	-40.6	23.6	0.00e+00	0	43	0	3535798272	50	4127
2026-01-24 12:49:10.41	328.10	17.33	-39.9	-40.7	23.5	0.00e+00	0	44	0	3542089728	50	4156
2026-01-24 12:49:11.41	328.19	17.22	-40.0	-40.7	23.5	0.00e+00	0	44	0	3547332608	50	4179
2026-01-24 12:49:12.42	328.27	17.11	-40.0	-40.7	23.5	0.00e+00	0	44	0	3552575488	50	4183
2026-01-24 12:49:13.43	328.36	17.01	-40.0	-40.8	23.4	0.00e+00	0	44	0	3558866944	50	4219
2026-01-24 12:49:14.44	328.44	16.90	-40.0	-40.8	23.4	0.00e+00	0	44	0	3564109824	50	4215
2026-01-24 12:49:15.45	328.53	16.79	-40.1	-40.9	23.3	0.00e+00	0	44	0	3570401280	50	4265
2026-01-24 12:49:16.45	328.61	16.68	-40.2	-41.0	23.2	0.00e+00	0	44	0	3575644160	50	4300
2026-01-24 12:49:17.46	328.70	16.58	-40.1	-40.9	23.3	0.00e+00	0	44	0	3581935616	50	4266
2026-01-24 12:49:18.47	328.78	16.47	-40.1	-40.9	23.3	0.00e+00	0	43	0	3587178496	50	4246
2026-01-24 12:49:19.48	328.86	16.37	-40.2	-41.0	23.2	0.00e+00	0	44	0	3592421376	51	4072
2026-01-24 12:49:20.48	328.94	16.26	-40.3	-41.0	23.1	0.00e+00	0	44	0	3598712832	51	4093
2026-01-24 12:49:21.49	329.02	16.16	-40.2	-41.0	23.2	0.00e+00	0	44	0	3603955712	51	4074
2026-01-24 12:49:22.50	329.10	16.05	-40.2	-41.0	23.2	0.00e+00	0	44	0	3609198592	51	4063
2026-01-24 12:49:23.51	329.18	15.95	-40.2	-41.0	23.2	0.00e+00	0	44	0	3615490048	51	4070
2026-01-24 12:49:24.52	329.26	15.84	-40.3	-41.1	23.0	0.00e+00	0	44	0	3620732928	51	4137
2026-01-24 12:49:25.53	329.34	15.74	-40.3	-41.1	23.0	0.00e+00	0	44	0	3627024384	51	4115
2026-01-24 12:49:26.53	329.42	15.64	-40.3	-41.1	23.0	0.00e+00	0	44	0	3632267264	51	4138
2026-01-24 12:49:27.54	329.50	15.53	-40.3	-41.1	23.0	0.00e+00	0	43	0	3637510144	51	4136
2026-01-24 12:49:28.55	329.57	15.43	-40.3	-41.1	23.1	0.00e+00	0	44	0	3643801600	51	4100
2026-01-24 12:49:29.56	329.65	15.33	-40.4	-41.2	22.9	0.00e+00	0	44	0	3650093056	51	4172
2026-01-24 12:49:30.57	329.73	15.23	-40.4	-41.2	22.9	0.00e+00	0	44	0	3655335936	51	4177
2026-01-24 12:49:31.57	329.80	15.13	-40.5	-41.3	22.8	0.00e+00	0	43	0	3660578816	51	4214
2026-01-24 12:49:32.58	329.88	15.03	-40.5	-41.3	22.8	0.00e+00	0	44	0	3666870272	51	4209
