passes_logs/2026/01/24/R3.2S_Murmansk/R3.2S_Murmansk__20260124_220314_SUOMI_NPP_rec.log

#Pass ID: 20260124_220314_SUOMI NPP
#Satellite: SUOMI NPP
#Configuration: NPP
#almurnet v.1.7.20251203
#Start time: 2026-01-24 22:03:15

#Version: 2.2.20231116
#Station: R3.2S_Murmansk
#Location: 33.079688 lon 68.888172 lat
#TLE: 1 37849U 11061A   26024.54906732  .00000185  00000+0  10878-3 0  9990
#TLE: 2 37849  98.7821 326.5159 0002200  47.3746 312.7615 14.19529340738061

#Time	Az	El	Level	Level2	SNR	BER	BlckErr	Temp	State	Recorded	gain1	gain2
2026-01-24 22:03:15.51	18.61	2.04	-53.3	-68.3	3.8	1.49e+00	0	41	0	0	77	21040
2026-01-24 22:03:16.52	18.70	2.10	-53.3	-68.3	3.8	1.49e+00	0	41	104	0	77	21079
2026-01-24 22:03:17.53	18.78	2.15	-53.3	-68.3	3.8	1.49e+00	0	41	104	0	77	21067
2026-01-24 22:03:18.54	18.86	2.20	-53.3	-68.3	3.8	1.49e+00	0	41	104	0	77	21047
2026-01-24 22:03:19.55	18.94	2.25	-53.3	-68.2	3.8	1.49e+00	0	41	104	0	77	20991
2026-01-24 22:03:20.56	19.02	2.31	-53.3	-68.3	3.8	1.49e+00	0	41	104	0	77	21033
2026-01-24 22:03:21.56	19.10	2.36	-53.3	-68.2	3.8	1.49e+00	0	41	104	0	77	20961
2026-01-24 22:03:22.57	19.19	2.41	-53.3	-68.3	3.8	1.49e+00	0	41	104	0	77	21024
2026-01-24 22:03:23.58	19.27	2.46	-53.3	-68.2	3.8	1.49e+00	0	41	104	0	77	20968
2026-01-24 22:03:24.59	19.35	2.52	-53.3	-68.3	3.8	1.49e+00	0	41	104	0	77	21039
2026-01-24 22:03:25.60	19.44	2.57	-53.3	-68.3	3.8	1.49e+00	0	41	104	0	77	21054
2026-01-24 22:03:26.60	19.52	2.62	-53.3	-68.2	3.8	1.49e+00	0	41	104	0	77	20989
2026-01-24 22:03:27.61	19.60	2.67	-53.3	-68.3	3.8	1.49e+00	0	41	104	0	77	21026
2026-01-24 22:03:28.62	19.69	2.73	-53.3	-68.3	3.8	1.49e+00	0	41	104	0	77	21055
2026-01-24 22:03:29.63	19.77	2.78	-53.3	-68.3	3.8	1.49e+00	0	41	104	0	77	21035
2026-01-24 22:03:30.63	19.86	2.83	-53.3	-68.3	3.8	1.49e+00	0	41	104	0	77	21027
2026-01-24 22:03:31.64	19.94	2.89	-53.3	-68.3	3.8	1.49e+00	0	42	104	0	77	21046
2026-01-24 22:03:32.65	20.03	2.94	-53.3	-68.3	3.8	1.49e+00	0	41	104	0	77	21047
2026-01-24 22:03:33.67	20.11	2.99	-53.3	-68.3	3.8	1.49e+00	0	42	104	0	77	21031
2026-01-24 22:03:34.67	20.20	3.04	-53.3	-68.2	3.8	1.49e+00	0	41	104	0	77	20997
2026-01-24 22:03:35.68	20.29	3.10	-53.3	-68.2	3.8	1.49e+00	0	42	104	0	77	21015
2026-01-24 22:03:36.69	20.37	3.15	-53.3	-68.3	3.8	1.49e+00	0	42	104	0	77	21080
2026-01-24 22:03:37.70	20.46	3.20	-53.3	-68.3	3.8	1.49e+00	0	42	104	0	77	21062
2026-01-24 22:03:38.70	20.55	3.26	-53.3	-68.2	3.8	1.49e+00	0	41	104	0	77	21012
2026-01-24 22:03:39.71	20.63	3.31	-53.3	-68.3	3.8	1.49e+00	0	42	104	0	77	21027
2026-01-24 22:03:40.72	20.72	3.36	-53.3	-68.3	3.8	1.49e+00	0	42	104	0	77	21093
2026-01-24 22:03:41.73	20.81	3.42	-53.3	-68.3	3.8	1.49e+00	0	42	104	0	77	21071
2026-01-24 22:03:42.74	20.90	3.47	-53.3	-68.2	3.8	1.49e+00	0	42	104	0	77	20990
2026-01-24 22:03:43.74	20.99	3.52	-53.3	-68.3	3.8	1.49e+00	0	42	104	0	77	21020
2026-01-24 22:03:44.75	21.07	3.58	-53.3	-68.3	3.8	1.49e+00	0	42	104	0	77	21021
2026-01-24 22:03:45.76	21.16	3.63	-53.3	-68.2	3.8	1.49e+00	0	42	104	0	77	21002
2026-01-24 22:03:46.76	21.25	3.69	-53.3	-68.3	3.8	1.49e+00	0	42	104	0	77	21025
2026-01-24 22:03:47.77	21.34	3.74	-53.3	-68.3	3.8	1.49e+00	0	42	104	0	77	21029
2026-01-24 22:03:48.78	21.43	3.79	-53.3	-68.2	3.8	1.49e+00	0	42	104	0	77	21001
2026-01-24 22:03:49.79	21.52	3.85	-52.1	-67.5	3.9	1.50e+00	0	42	104	0	75	21678
2026-01-24 22:03:50.79	21.61	3.90	-51.7	-67.5	4.0	1.50e+00	0	42	104	0	75	21560
2026-01-24 22:03:51.80	21.71	3.95	-51.2	-67.3	4.0	1.50e+00	0	42	104	0	74	22407
2026-01-24 22:03:52.81	21.80	4.01	-51.1	-67.2	4.0	1.50e+00	0	42	104	0	73	23514
2026-01-24 22:03:53.82	21.89	4.06	-51.0	-67.3	4.0	1.50e+00	0	42	104	0	73	23639
2026-01-24 22:03:54.82	21.98	4.12	-51.4	-67.3	4.1	1.50e+00	0	42	104	0	74	22434
2026-01-24 22:03:55.83	22.07	4.17	-52.4	-67.4	4.0	1.50e+00	0	42	104	0	75	21355
2026-01-24 22:03:56.84	22.17	4.23	-53.1	-67.7	3.9	1.50e+00	0	42	104	0	76	20956
2026-01-24 22:03:57.85	22.26	4.28	-52.8	-67.5	4.0	1.49e+00	0	42	104	0	76	20326
2026-01-24 22:03:58.86	22.35	4.33	-51.5	-67.3	4.0	1.50e+00	0	42	104	0	74	22343
2026-01-24 22:03:59.87	22.45	4.39	-49.1	-67.2	4.0	1.50e+00	0	42	104	0	70	27996
2026-01-24 22:04:00.87	22.54	4.44	-48.0	-66.9	4.0	1.51e+00	0	42	104	0	66	33953
2026-01-24 22:04:01.88	22.63	4.50	-46.0	-66.9	4.0	1.51e+00	0	42	104	0	62	42581
2026-01-24 22:04:02.89	22.73	4.55	-44.6	-67.5	4.0	1.51e+00	0	42	104	0	59	54250
2026-01-24 22:04:03.90	22.82	4.61	-42.4	-66.7	4.0	1.51e+00	0	42	104	0	56	59105
2026-01-24 22:04:04.91	22.92	4.66	-41.3	-66.6	4.0	1.51e+00	0	42	104	0	54	65462
2026-01-24 22:04:05.92	23.01	4.72	-41.1	-66.1	3.9	1.52e+00	0	42	104	0	53	65534
2026-01-24 22:04:06.92	23.11	4.77	-41.0	-65.1	3.7	1.54e+00	0	42	104	0	51	65451
2026-01-24 22:04:07.93	23.21	4.83	-40.4	-65.6	3.8	1.53e+00	0	42	104	0	52	65535
2026-01-24 22:04:08.94	23.30	4.88	-40.9	-66.1	3.9	1.52e+00	0	42	104	0	53	65535
2026-01-24 22:04:09.95	23.40	4.93	-41.7	-67.0	3.9	1.51e+00	0	42	104	0	55	64234
2026-01-24 22:04:10.96	23.50	4.99	-42.6	-67.1	4.0	1.51e+00	0	42	104	0	56	61938
2026-01-24 22:04:11.96	23.60	5.04	-42.4	-67.1	4.0	1.51e+00	0	42	104	0	56	61344
2026-01-24 22:04:12.97	23.69	5.10	-44.7	-67.1	3.9	1.50e+00	0	42	104	0	59	51623
2026-01-24 22:04:13.98	23.79	5.15	-44.9	-66.8	4.1	1.51e+00	0	42	104	0	61	44733
2026-01-24 22:04:14.99	23.89	5.21	-46.3	-67.0	4.0	1.50e+00	0	42	104	0	64	38660
2026-01-24 22:04:16.00	23.99	5.27	-48.5	-67.0	4.0	1.50e+00	0	42	104	0	67	32533
2026-01-24 22:04:17.00	24.09	5.32	-49.6	-67.3	3.9	1.50e+00	0	42	104	0	71	26619
2026-01-24 22:04:18.01	24.19	5.38	-53.3	-68.3	3.8	1.49e+00	0	42	104	0	77	21097
2026-01-24 22:04:19.02	24.29	5.43	-53.3	-68.3	3.8	1.49e+00	0	42	104	0	77	21066
2026-01-24 22:04:20.03	24.39	5.49	-53.3	-68.3	3.8	1.49e+00	0	42	104	0	77	21022
2026-01-24 22:04:21.03	24.49	5.54	-53.3	-68.3	3.8	1.49e+00	0	42	104	0	77	21021
2026-01-24 22:04:22.04	24.59	5.60	-53.3	-68.3	3.8	1.49e+00	0	42	104	0	77	21054
2026-01-24 22:04:23.05	24.69	5.65	-53.3	-68.3	3.8	1.49e+00	0	42	104	0	77	21071
2026-01-24 22:04:24.05	24.79	5.71	-53.3	-68.3	3.8	1.49e+00	0	42	104	0	77	21052
2026-01-24 22:04:25.06	24.90	5.76	-53.3	-68.2	3.8	1.49e+00	0	42	104	0	77	21006
2026-01-24 22:04:26.07	25.00	5.82	-53.3	-68.3	3.8	1.49e+00	0	42	104	0	77	21051
2026-01-24 22:04:27.08	25.10	5.87	-53.3	-68.3	3.8	1.49e+00	0	42	104	0	77	21029
2026-01-24 22:04:28.09	25.21	5.93	-53.3	-68.3	3.8	1.49e+00	0	42	104	0	77	21038
2026-01-24 22:04:29.10	25.31	5.99	-53.3	-68.3	3.8	1.49e+00	0	42	104	0	77	21024
2026-01-24 22:04:30.10	25.41	6.04	-53.3	-68.3	3.8	1.49e+00	0	42	104	0	77	21025
2026-01-24 22:04:31.11	25.52	6.10	-53.3	-68.2	3.8	1.49e+00	0	42	104	0	77	20983
2026-01-24 22:04:32.12	25.62	6.15	-53.3	-68.3	3.8	1.49e+00	0	42	104	0	77	21029
2026-01-24 22:04:33.13	25.73	6.21	-53.3	-68.3	3.8	1.49e+00	0	42	104	0	77	21061
2026-01-24 22:04:34.14	25.84	6.27	-53.3	-68.2	3.8	1.49e+00	0	42	104	0	77	20968
2026-01-24 22:04:35.14	25.94	6.32	-53.3	-68.2	3.8	1.49e+00	0	42	104	0	77	21017
2026-01-24 22:04:36.15	26.05	6.38	-53.3	-68.3	3.8	1.49e+00	0	42	104	0	77	21059
2026-01-24 22:04:37.16	26.16	6.43	-53.3	-68.2	3.8	1.49e+00	0	42	104	0	77	21011
2026-01-24 22:04:38.17	26.26	6.49	-53.3	-68.2	3.8	1.49e+00	0	42	104	0	77	21011
2026-01-24 22:04:39.18	26.37	6.55	-53.3	-68.3	3.8	1.49e+00	0	42	104	0	77	21059
2026-01-24 22:04:40.18	26.48	6.60	-53.3	-68.2	3.8	1.49e+00	0	42	104	0	77	20996
2026-01-24 22:04:41.20	26.59	6.66	-53.3	-68.2	3.8	1.49e+00	0	42	104	0	77	21010
2026-01-24 22:04:42.20	26.70	6.71	-53.3	-68.3	3.8	1.49e+00	0	42	104	0	77	21065
2026-01-24 22:04:43.21	26.81	6.77	-53.3	-68.3	3.8	1.49e+00	0	42	104	0	77	21046
2026-01-24 22:04:44.22	26.92	6.83	-53.3	-68.3	3.8	1.49e+00	0	42	104	0	77	21058
2026-01-24 22:04:45.23	27.03	6.88	-53.3	-68.3	3.8	1.49e+00	0	42	104	0	77	21080
2026-01-24 22:04:46.23	27.14	6.94	-53.3	-68.3	3.8	1.49e+00	0	42	104	0	77	21029
2026-01-24 22:04:47.24	27.25	7.00	-53.3	-68.3	3.8	1.49e+00	0	42	104	0	77	21069
2026-01-24 22:04:48.25	27.36	7.05	-53.3	-68.3	3.8	1.49e+00	0	42	104	0	77	21070
2026-01-24 22:04:49.26	27.47	7.11	-53.3	-68.3	3.8	1.49e+00	0	43	104	0	77	21021
2026-01-24 22:04:50.27	27.58	7.17	-53.3	-68.3	3.8	1.49e+00	0	43	104	0	77	21039
2026-01-24 22:04:51.27	27.69	7.22	-51.5	-67.7	3.9	1.49e+00	0	42	104	0	74	23415
2026-01-24 22:04:52.28	27.81	7.28	-51.2	-67.5	4.0	1.50e+00	0	42	104	0	74	22979
2026-01-24 22:04:53.29	27.92	7.34	-51.3	-67.6	4.0	1.50e+00	0	42	104	0	74	23128
2026-01-24 22:04:54.30	28.04	7.39	-51.4	-67.5	4.0	1.50e+00	0	42	104	0	74	22901
2026-01-24 22:04:55.30	28.15	7.45	-51.3	-67.4	4.0	1.50e+00	0	42	104	0	74	22722
2026-01-24 22:04:56.31	28.26	7.51	-51.7	-67.5	4.0	1.50e+00	0	42	104	0	74	22992
2026-01-24 22:04:57.32	28.38	7.56	-52.1	-67.6	4.0	1.50e+00	0	42	104	0	74	23288
2026-01-24 22:04:58.33	28.49	7.62	-52.2	-67.7	3.9	1.50e+00	0	43	104	0	75	22176
2026-01-24 22:04:59.34	28.61	7.68	-52.5	-67.8	3.9	1.49e+00	0	43	104	0	75	22518
2026-01-24 22:05:00.34	28.73	7.73	-52.4	-68.0	3.8	1.49e+00	0	42	104	0	75	22813
2026-01-24 22:05:01.35	28.84	7.79	-52.3	-67.8	3.9	1.49e+00	0	42	104	0	75	22431
2026-01-24 22:05:02.36	28.96	7.85	-52.3	-67.8	3.9	1.50e+00	0	43	104	0	75	22304
2026-01-24 22:05:03.37	29.08	7.90	-52.4	-67.8	3.9	1.50e+00	0	42	104	0	75	22293
2026-01-24 22:05:04.38	29.20	7.96	-52.5	-67.7	4.0	1.50e+00	0	42	104	0	75	22052
2026-01-24 22:05:05.39	29.32	8.02	-52.6	-67.8	3.9	1.49e+00	0	42	104	0	75	22404
2026-01-24 22:05:06.40	29.44	8.08	-52.4	-67.8	3.9	1.49e+00	0	42	104	0	75	22319
2026-01-24 22:05:07.40	29.55	8.13	-52.2	-67.6	4.0	1.50e+00	0	43	104	0	75	21943
2026-01-24 22:05:08.41	29.67	8.19	-52.2	-67.5	4.0	1.50e+00	0	43	104	0	75	21727
2026-01-24 22:05:09.42	29.80	8.25	-52.3	-67.6	4.0	1.50e+00	0	42	104	0	75	21879
2026-01-24 22:05:10.43	29.92	8.30	-52.4	-67.6	4.0	1.50e+00	0	42	104	0	75	21897
2026-01-24 22:05:11.44	30.04	8.36	-52.7	-67.8	4.0	1.50e+00	0	42	104	0	76	21025
2026-01-24 22:05:12.45	30.16	8.42	-52.9	-67.8	3.9	1.49e+00	0	43	104	0	76	21068
2026-01-24 22:05:13.46	30.28	8.48	-53.0	-67.8	3.9	1.50e+00	0	43	104	0	76	21138
2026-01-24 22:05:14.46	30.40	8.53	-53.1	-67.9	3.9	1.49e+00	0	43	104	0	76	21499
2026-01-24 22:05:15.47	30.53	8.59	-53.1	-68.0	3.8	1.49e+00	0	43	104	0	76	21724
2026-01-24 22:05:16.48	30.65	8.65	-53.1	-68.1	3.8	1.49e+00	0	42	104	0	76	21760
2026-01-24 22:05:17.49	30.78	8.70	-53.2	-68.0	3.8	1.49e+00	0	43	104	0	76	21694
2026-01-24 22:05:18.50	30.90	8.76	-53.2	-68.1	3.8	1.49e+00	0	42	104	0	76	21929
2026-01-24 22:05:19.50	31.02	8.82	-53.2	-68.2	3.8	1.49e+00	0	42	104	0	77	20864
2026-01-24 22:05:20.51	31.15	8.88	-53.3	-68.2	3.8	1.49e+00	0	43	104	0	77	20964
2026-01-24 22:05:21.52	31.28	8.93	-53.3	-68.2	3.8	1.49e+00	0	42	104	0	77	20994
2026-01-24 22:05:22.53	31.40	8.99	-53.3	-68.2	3.8	1.49e+00	0	43	104	0	77	20973
2026-01-24 22:05:23.54	31.53	9.05	-53.3	-68.2	3.8	1.49e+00	0	43	104	0	77	20991
2026-01-24 22:05:24.54	31.66	9.11	-53.3	-68.2	3.8	1.49e+00	0	42	104	0	77	20977
2026-01-24 22:05:25.55	31.78	9.16	-53.2	-68.2	3.8	1.49e+00	0	43	104	0	77	20821
2026-01-24 22:05:26.56	31.91	9.22	-53.3	-68.3	3.8	1.49e+00	0	43	104	0	77	21051
2026-01-24 22:05:27.57	32.04	9.28	-53.3	-68.3	3.8	1.49e+00	0	43	104	0	77	21088
2026-01-24 22:05:28.58	32.17	9.34	-53.3	-68.3	3.8	1.49e+00	0	43	104	0	77	21057
2026-01-24 22:05:29.58	32.30	9.39	-53.3	-68.3	3.8	1.49e+00	0	43	104	0	77	21049
2026-01-24 22:05:30.59	32.43	9.45	-53.3	-68.2	3.8	1.49e+00	0	43	104	0	77	21012
2026-01-24 22:05:31.60	32.56	9.51	-53.3	-68.3	3.8	1.49e+00	0	43	104	0	77	21020
2026-01-24 22:05:32.60	32.69	9.57	-53.3	-68.3	3.8	1.49e+00	0	43	104	0	77	21024
2026-01-24 22:05:33.61	32.83	9.62	-53.3	-68.2	3.8	1.49e+00	0	43	104	0	77	20994
2026-01-24 22:05:34.62	32.96	9.68	-53.3	-68.3	3.8	1.49e+00	0	43	104	0	77	21037
2026-01-24 22:05:35.63	33.09	9.74	-53.3	-68.2	3.8	1.49e+00	0	43	104	0	77	21007
2026-01-24 22:05:36.63	33.22	9.80	-53.3	-68.3	3.8	1.49e+00	0	43	104	0	77	21039
2026-01-24 22:05:37.64	33.36	9.85	-53.3	-68.3	3.8	1.49e+00	0	43	104	0	77	21087
2026-01-24 22:05:38.65	33.49	9.91	-53.3	-68.3	3.8	1.49e+00	0	43	104	0	77	21063
2026-01-24 22:05:39.66	33.63	9.97	-53.3	-68.3	3.8	1.49e+00	0	43	104	0	77	21065
2026-01-24 22:05:40.67	33.76	10.03	-53.3	-68.3	3.8	1.49e+00	0	43	104	0	77	21028
2026-01-24 22:05:41.68	33.90	10.08	-53.3	-68.3	3.8	1.49e+00	0	43	104	0	77	21070
2026-01-24 22:05:42.69	34.04	10.14	-53.3	-68.3	3.8	1.49e+00	0	43	104	0	77	21051
2026-01-24 22:05:43.70	34.17	10.20	-53.3	-68.3	3.8	1.49e+00	0	43	104	0	77	21021
2026-01-24 22:05:44.70	34.31	10.26	-53.3	-68.3	3.8	1.49e+00	0	43	104	0	77	21052
2026-01-24 22:05:45.71	34.45	10.31	-53.3	-68.3	3.8	1.49e+00	0	43	104	0	77	21088
2026-01-24 22:05:46.72	34.59	10.37	-53.3	-68.3	3.8	1.49e+00	0	43	104	0	77	21067
2026-01-24 22:05:47.73	34.72	10.43	-53.3	-68.3	3.8	1.49e+00	0	43	104	0	77	21018
2026-01-24 22:05:48.74	34.86	10.49	-53.3	-68.3	3.8	1.49e+00	0	43	104	0	77	21033
2026-01-24 22:05:49.74	35.00	10.54	-53.3	-68.3	3.8	1.49e+00	0	43	104	0	77	21035
2026-01-24 22:05:50.75	35.14	10.60	-53.3	-68.3	3.8	1.49e+00	0	43	104	0	77	21025
2026-01-24 22:05:51.76	35.29	10.66	-53.3	-68.3	3.8	1.49e+00	0	42	104	0	77	21048
2026-01-24 22:05:52.76	35.43	10.71	-53.3	-68.3	3.8	1.49e+00	0	43	104	0	77	21083
2026-01-24 22:05:53.77	35.57	10.77	-53.3	-68.3	3.8	1.49e+00	0	43	104	0	77	21020
2026-01-24 22:05:54.78	35.71	10.83	-53.3	-68.2	3.8	1.49e+00	0	43	104	0	77	20981
2026-01-24 22:05:55.79	35.86	10.89	-53.3	-68.3	3.8	1.49e+00	0	43	104	0	77	21031
2026-01-24 22:05:56.80	36.00	10.94	-53.3	-68.3	3.8	1.49e+00	0	43	104	0	77	21038
2026-01-24 22:05:57.81	36.14	11.00	-53.3	-68.3	3.8	1.49e+00	0	43	104	0	77	21079
2026-01-24 22:05:58.82	36.29	11.06	-53.3	-68.3	3.8	1.49e+00	0	43	104	0	77	21072
2026-01-24 22:05:59.82	36.43	11.12	-53.3	-68.3	3.8	1.49e+00	0	43	104	0	77	21021
2026-01-24 22:06:00.83	36.58	11.17	-53.3	-68.3	3.8	1.49e+00	0	43	104	0	77	21040
2026-01-24 22:06:01.84	36.73	11.23	-53.3	-68.3	3.8	1.49e+00	0	43	104	0	77	21059
2026-01-24 22:06:02.85	36.87	11.29	-53.3	-68.2	3.8	1.49e+00	0	43	104	0	77	20994
2026-01-24 22:06:03.85	37.02	11.34	-53.3	-68.3	3.8	1.49e+00	0	43	104	0	77	21087
2026-01-24 22:06:04.86	37.17	11.40	-53.3	-68.3	3.8	1.49e+00	0	43	104	0	77	21076
2026-01-24 22:06:05.87	37.32	11.46	-53.3	-68.3	3.8	1.49e+00	0	43	104	0	77	21034
2026-01-24 22:06:06.88	37.47	11.52	-53.3	-68.3	3.8	1.49e+00	0	43	104	0	77	21078
2026-01-24 22:06:07.88	37.62	11.57	-53.3	-68.3	3.8	1.49e+00	0	43	104	0	77	21034
2026-01-24 22:06:08.89	37.77	11.63	-53.3	-68.2	3.8	1.49e+00	0	43	104	0	77	20990
2026-01-24 22:06:09.90	37.92	11.69	-53.3	-68.3	3.8	1.49e+00	0	43	104	0	77	21101
2026-01-24 22:06:10.91	38.07	11.74	-53.3	-68.3	3.8	1.49e+00	0	42	104	0	77	21077
2026-01-24 22:06:11.92	38.22	11.80	-53.3	-68.3	3.8	1.49e+00	0	43	104	0	77	21046
2026-01-24 22:06:12.92	38.37	11.86	-53.3	-68.3	3.8	1.49e+00	0	43	104	0	77	21071
2026-01-24 22:06:13.93	38.53	11.91	-53.3	-68.2	3.8	1.49e+00	0	43	104	0	77	21010
2026-01-24 22:06:14.94	38.68	11.97	-53.3	-68.3	3.8	1.49e+00	0	43	104	0	77	21024
2026-01-24 22:06:15.95	38.84	12.03	-53.3	-68.3	3.8	1.49e+00	0	43	104	0	77	21034
2026-01-24 22:06:16.96	38.99	12.08	-53.3	-68.3	3.8	1.49e+00	0	43	104	0	77	21020
2026-01-24 22:06:17.97	39.15	12.14	-53.3	-68.3	3.8	1.49e+00	0	43	104	0	77	21019
2026-01-24 22:06:18.98	39.30	12.20	-53.3	-68.3	3.8	1.49e+00	0	43	104	0	77	21024
2026-01-24 22:06:19.98	39.46	12.25	-53.3	-68.3	3.8	1.49e+00	0	43	104	0	77	21019
2026-01-24 22:06:20.99	39.62	12.31	-53.3	-68.2	3.8	1.49e+00	0	43	104	0	77	21011
2026-01-24 22:06:22.00	39.78	12.37	-53.3	-68.3	3.8	1.49e+00	0	43	104	0	77	21032
2026-01-24 22:06:23.01	39.93	12.42	-53.3	-68.2	3.8	1.49e+00	0	43	104	0	77	21016
2026-01-24 22:06:24.02	40.09	12.48	-53.3	-68.3	3.8	1.49e+00	0	43	104	0	77	21018
2026-01-24 22:06:25.02	40.25	12.53	-53.3	-68.3	3.8	1.49e+00	0	43	104	0	77	21030
2026-01-24 22:06:26.03	40.41	12.59	-53.3	-68.2	3.8	1.49e+00	0	43	104	0	77	21001
2026-01-24 22:06:27.04	40.57	12.65	-53.3	-68.3	3.8	1.49e+00	0	43	104	0	77	21028
2026-01-24 22:06:28.05	40.74	12.70	-53.3	-68.3	3.8	1.49e+00	0	43	104	0	77	21020
2026-01-24 22:06:29.06	40.90	12.76	-53.3	-68.3	3.8	1.49e+00	0	43	104	0	77	21044
2026-01-24 22:06:30.06	41.06	12.81	-53.3	-68.3	3.8	1.49e+00	0	43	104	0	77	21067
2026-01-24 22:06:31.07	41.22	12.87	-53.3	-68.3	3.8	1.49e+00	0	43	104	0	77	21021
2026-01-24 22:06:32.08	41.39	12.92	-53.3	-68.2	3.8	1.49e+00	0	43	104	0	77	20995
2026-01-24 22:06:33.09	41.55	12.98	-53.3	-68.3	3.8	1.49e+00	0	43	104	0	77	21032
2026-01-24 22:06:34.10	41.72	13.03	-53.3	-68.3	3.8	1.49e+00	0	43	104	0	77	21053
2026-01-24 22:06:35.10	41.88	13.09	-53.3	-68.3	3.8	1.49e+00	0	43	104	0	77	21023
2026-01-24 22:06:36.11	42.05	13.14	-53.3	-68.3	3.8	1.49e+00	0	43	104	0	77	21061
2026-01-24 22:06:37.12	42.21	13.20	-53.3	-68.3	3.8	1.49e+00	0	43	104	0	77	21088
2026-01-24 22:06:38.13	42.38	13.26	-53.3	-68.3	3.8	1.49e+00	0	43	104	0	77	21041
2026-01-24 22:06:39.13	42.55	13.31	-53.3	-68.3	3.8	1.49e+00	0	43	104	0	77	21061
2026-01-24 22:06:40.14	42.72	13.36	-53.3	-68.3	3.8	1.49e+00	0	43	104	0	77	21046
2026-01-24 22:06:41.15	42.89	13.42	-53.3	-68.3	3.8	1.49e+00	0	43	104	0	77	21059
2026-01-24 22:06:42.16	43.06	13.47	-53.3	-68.2	3.8	1.49e+00	0	43	104	0	77	21003
2026-01-24 22:06:43.16	43.23	13.53	-53.3	-68.3	3.8	1.49e+00	0	43	104	0	77	21020
2026-01-24 22:06:44.17	43.40	13.58	-53.3	-68.3	3.8	1.49e+00	0	43	104	0	77	21103
2026-01-24 22:06:45.18	43.57	13.64	-53.3	-68.3	3.8	1.49e+00	0	43	104	0	77	21063
2026-01-24 22:06:46.19	43.74	13.69	-53.3	-68.3	3.8	1.49e+00	0	43	104	0	77	21060
2026-01-24 22:06:47.20	43.92	13.75	-53.3	-68.3	3.8	1.49e+00	0	43	104	0	77	21084
2026-01-24 22:06:48.20	44.09	13.80	-53.3	-68.3	3.8	1.49e+00	0	43	104	0	77	21020
2026-01-24 22:06:49.21	44.26	13.85	-53.3	-68.3	3.8	1.49e+00	0	43	104	0	77	21018
2026-01-24 22:06:50.22	44.44	13.91	-53.3	-68.3	3.8	1.49e+00	0	43	104	0	77	21039
2026-01-24 22:06:51.22	44.61	13.96	-53.3	-68.2	3.8	1.49e+00	0	43	104	0	77	21010
2026-01-24 22:06:52.23	44.79	14.01	-53.3	-68.3	3.8	1.49e+00	0	43	104	0	77	21022
2026-01-24 22:06:53.24	44.96	14.07	-53.3	-68.3	3.8	1.49e+00	0	43	104	0	77	21041
2026-01-24 22:06:54.25	45.14	14.12	-53.3	-68.3	3.8	1.49e+00	0	43	104	0	77	21036
2026-01-24 22:06:55.25	45.32	14.17	-53.3	-68.3	3.8	1.49e+00	0	43	104	0	77	21073
2026-01-24 22:06:56.26	45.50	14.23	-53.3	-68.2	3.8	1.49e+00	0	43	104	0	77	21016
2026-01-24 22:06:57.27	45.68	14.28	-53.3	-68.3	3.8	1.49e+00	0	43	104	0	77	21034
2026-01-24 22:06:58.28	45.86	14.33	-53.3	-68.3	3.8	1.49e+00	0	43	104	0	77	21083
2026-01-24 22:06:59.29	46.04	14.38	-53.3	-68.3	3.8	1.49e+00	0	43	104	0	77	21031
2026-01-24 22:07:00.30	46.22	14.44	-53.3	-68.2	3.8	1.49e+00	0	43	104	0	77	20998
2026-01-24 22:07:01.30	46.40	14.49	-53.3	-68.3	3.8	1.49e+00	0	43	104	0	77	21036
2026-01-24 22:07:02.31	46.58	14.54	-53.3	-68.3	3.8	1.49e+00	0	43	104	0	77	21028
2026-01-24 22:07:03.32	46.76	14.59	-53.3	-68.3	3.8	1.49e+00	0	43	104	0	77	21071
2026-01-24 22:07:04.33	46.95	14.64	-53.3	-68.3	3.8	1.49e+00	0	43	104	0	77	21058
2026-01-24 22:07:05.34	47.13	14.70	-53.3	-68.3	3.8	1.49e+00	0	43	104	0	77	21076
2026-01-24 22:07:06.34	47.31	14.75	-53.3	-68.3	3.8	1.49e+00	0	43	104	0	77	21041
2026-01-24 22:07:07.35	47.50	14.80	-53.3	-68.3	3.8	1.49e+00	0	43	104	0	77	21069
2026-01-24 22:07:08.36	47.69	14.85	-53.3	-68.3	3.8	1.49e+00	0	43	104	0	77	21041
2026-01-24 22:07:09.37	47.87	14.90	-53.3	-68.3	3.8	1.49e+00	0	43	104	0	77	21062
2026-01-24 22:07:10.38	48.06	14.95	-53.3	-68.3	3.8	1.49e+00	0	43	104	0	77	21036
2026-01-24 22:07:11.38	48.25	15.00	-53.3	-68.3	3.8	1.49e+00	0	43	104	0	77	21060
2026-01-24 22:07:12.39	48.44	15.05	-53.3	-68.3	3.8	1.49e+00	0	43	104	0	77	21072
2026-01-24 22:07:13.40	48.63	15.10	-53.3	-68.3	3.8	1.49e+00	0	43	104	0	77	21035
2026-01-24 22:07:14.40	48.81	15.15	-53.3	-68.3	3.8	1.49e+00	0	43	104	0	77	21062
2026-01-24 22:07:15.41	49.00	15.20	-53.3	-68.3	3.8	1.49e+00	0	43	104	0	77	21058
2026-01-24 22:07:16.42	49.19	15.25	-53.3	-68.3	3.8	1.49e+00	0	43	104	0	77	21060
2026-01-24 22:07:17.43	49.39	15.30	-53.3	-68.3	3.8	1.49e+00	0	43	104	0	77	21070
2026-01-24 22:07:18.44	49.58	15.35	-53.3	-68.3	3.8	1.49e+00	0	43	104	0	77	21076
2026-01-24 22:07:19.44	49.77	15.40	-53.3	-68.3	3.8	1.49e+00	0	43	104	0	77	21057
2026-01-24 22:07:20.45	49.96	15.45	-53.3	-68.3	3.8	1.49e+00	0	43	104	0	77	21093
2026-01-24 22:07:21.46	50.16	15.50	-53.3	-68.3	3.8	1.49e+00	0	43	104	0	77	21035
2026-01-24 22:07:22.47	50.35	15.54	-53.3	-68.2	3.8	1.49e+00	0	43	104	0	77	21008
2026-01-24 22:07:23.47	50.55	15.59	-53.3	-68.3	3.8	1.49e+00	0	43	104	0	77	21082
2026-01-24 22:07:24.48	50.74	15.64	-53.3	-68.3	3.8	1.49e+00	0	43	104	0	77	21039
2026-01-24 22:07:25.49	50.94	15.69	-53.3	-68.3	3.8	1.49e+00	0	43	104	0	77	21029
2026-01-24 22:07:26.50	51.14	15.74	-53.3	-68.3	3.8	1.49e+00	0	43	104	0	77	21069
2026-01-24 22:07:27.51	51.33	15.78	-53.3	-68.3	3.8	1.49e+00	0	43	104	0	77	21071
2026-01-24 22:07:28.52	51.53	15.83	-53.3	-68.3	3.8	1.49e+00	0	43	104	0	77	21082
2026-01-24 22:07:29.52	51.73	15.88	-53.3	-68.3	3.8	1.49e+00	0	43	104	0	77	21109
2026-01-24 22:07:30.53	51.93	15.92	-53.3	-68.3	3.8	1.49e+00	0	43	104	0	77	21033
2026-01-24 22:07:31.54	52.13	15.97	-53.3	-68.3	3.8	1.49e+00	0	43	104	0	77	21026
2026-01-24 22:07:32.55	52.33	16.02	-53.3	-68.3	3.8	1.49e+00	0	43	104	0	77	21084
2026-01-24 22:07:33.55	52.53	16.06	-53.3	-68.3	3.8	1.49e+00	0	43	104	0	77	21024
2026-01-24 22:07:34.56	52.73	16.11	-53.3	-68.3	3.8	1.49e+00	0	43	104	0	77	21093
2026-01-24 22:07:35.57	52.94	16.15	-53.3	-68.3	3.8	1.49e+00	0	43	104	0	77	21027
2026-01-24 22:07:36.57	53.14	16.20	-53.3	-68.3	3.8	1.49e+00	0	43	104	0	77	21023
2026-01-24 22:07:37.58	53.34	16.24	-53.3	-68.3	3.8	1.49e+00	0	43	104	0	77	21044
2026-01-24 22:07:38.59	53.55	16.29	-53.3	-68.3	3.8	1.49e+00	0	43	104	0	77	21068
2026-01-24 22:07:39.60	53.75	16.33	-53.3	-68.3	3.8	1.49e+00	0	43	104	0	77	21043
2026-01-24 22:07:40.61	53.96	16.38	-53.3	-68.3	3.8	1.49e+00	0	43	104	0	77	21028
2026-01-24 22:07:41.62	54.16	16.42	-53.3	-68.3	3.8	1.49e+00	0	43	104	0	77	21089
2026-01-24 22:07:42.62	54.37	16.46	-53.3	-68.3	3.8	1.49e+00	0	43	104	0	77	21044
2026-01-24 22:07:43.63	54.58	16.51	-53.3	-68.3	3.8	1.49e+00	0	43	104	0	77	21037
2026-01-24 22:07:44.64	54.78	16.55	-53.3	-68.3	3.8	1.49e+00	0	43	104	0	77	21119
2026-01-24 22:07:45.65	54.99	16.59	-53.3	-68.3	3.8	1.49e+00	0	43	104	0	77	21032
2026-01-24 22:07:46.65	55.20	16.63	-53.3	-68.3	3.8	1.49e+00	0	43	104	0	77	21072
2026-01-24 22:07:47.66	55.41	16.68	-53.3	-68.3	3.8	1.49e+00	0	43	104	0	77	21035
2026-01-24 22:07:48.67	55.62	16.72	-53.3	-68.3	3.8	1.49e+00	0	43	104	0	77	21040
2026-01-24 22:07:49.67	55.83	16.76	-53.3	-68.3	3.8	1.49e+00	0	43	104	0	77	21077
2026-01-24 22:07:50.68	56.04	16.80	-53.3	-68.3	3.8	1.49e+00	0	43	104	0	77	21025
2026-01-24 22:07:51.69	56.25	16.84	-53.3	-68.3	3.8	1.49e+00	0	43	104	0	77	21050
2026-01-24 22:07:52.70	56.46	16.88	-53.3	-68.3	3.8	1.49e+00	0	43	104	0	77	21070
2026-01-24 22:07:53.71	56.68	16.92	-53.3	-68.3	3.8	1.49e+00	0	43	104	0	77	21076
2026-01-24 22:07:54.71	56.89	16.96	-53.3	-68.3	3.8	1.49e+00	0	43	104	0	77	21053
2026-01-24 22:07:55.72	57.10	17.00	-53.3	-68.3	3.8	1.49e+00	0	43	104	0	77	21037
2026-01-24 22:07:56.73	57.32	17.04	-53.3	-68.3	3.8	1.49e+00	0	43	104	0	77	21053
2026-01-24 22:07:57.74	57.53	17.08	-53.3	-68.3	3.8	1.49e+00	0	43	104	0	77	21035
2026-01-24 22:07:58.75	57.75	17.12	-53.3	-68.3	3.8	1.49e+00	0	43	104	0	77	21030
2026-01-24 22:07:59.76	57.97	17.16	-53.3	-68.3	3.8	1.49e+00	0	43	104	0	77	21020
2026-01-24 22:08:00.76	58.18	17.20	-53.3	-68.3	3.8	1.49e+00	0	43	104	0	77	21047
2026-01-24 22:08:01.77	58.40	17.24	-53.3	-68.3	3.8	1.49e+00	0	43	104	0	77	21074
2026-01-24 22:08:02.78	58.62	17.27	-53.3	-68.3	3.8	1.49e+00	0	43	104	0	77	21034
2026-01-24 22:08:03.79	58.84	17.31	-53.3	-68.3	3.8	1.49e+00	0	43	104	0	77	21071
2026-01-24 22:08:04.80	59.05	17.35	-53.3	-68.3	3.8	1.49e+00	0	43	104	0	77	21021
2026-01-24 22:08:05.80	59.27	17.38	-53.3	-68.3	3.8	1.49e+00	0	43	104	0	77	21058
2026-01-24 22:08:06.81	59.49	17.42	-53.3	-68.3	3.8	1.49e+00	0	43	104	0	77	21048
2026-01-24 22:08:07.82	59.71	17.46	-53.3	-68.3	3.8	1.49e+00	0	43	104	0	77	21044
2026-01-24 22:08:08.83	59.93	17.49	-53.3	-68.3	3.8	1.49e+00	0	43	104	0	77	21107
2026-01-24 22:08:09.83	60.15	17.53	-53.3	-68.3	3.8	1.49e+00	0	43	104	0	77	21096
2026-01-24 22:08:10.84	60.38	17.56	-53.3	-68.3	3.8	1.49e+00	0	43	104	0	77	21065
2026-01-24 22:08:11.85	60.60	17.59	-53.3	-68.3	3.8	1.49e+00	0	43	104	0	77	21067
2026-01-24 22:08:12.86	60.82	17.63	-53.3	-68.3	3.8	1.49e+00	0	43	104	0	77	21042
2026-01-24 22:08:13.87	61.05	17.66	-53.3	-68.2	3.8	1.49e+00	0	43	104	0	77	21013
2026-01-24 22:08:14.88	61.27	17.70	-53.3	-68.3	3.8	1.49e+00	0	43	104	0	77	21044
2026-01-24 22:08:15.89	61.50	17.73	-53.3	-68.3	3.8	1.49e+00	0	43	104	0	77	21132
2026-01-24 22:08:16.89	61.72	17.76	-53.3	-68.3	3.8	1.49e+00	0	43	104	0	77	21038
2026-01-24 22:08:17.90	61.94	17.79	-53.3	-68.3	3.8	1.49e+00	0	43	104	0	77	21049
2026-01-24 22:08:18.91	62.17	17.83	-53.3	-68.3	3.8	1.49e+00	0	43	104	0	77	21038
2026-01-24 22:08:19.92	62.40	17.86	-53.3	-68.3	3.8	1.49e+00	0	43	104	0	77	21028
2026-01-24 22:08:20.93	62.62	17.89	-53.3	-68.3	3.8	1.49e+00	0	43	104	0	77	21028
2026-01-24 22:08:21.94	62.85	17.92	-53.3	-68.3	3.8	1.49e+00	0	43	104	0	77	21087
2026-01-24 22:08:22.94	63.08	17.95	-53.3	-68.3	3.8	1.49e+00	0	43	104	0	77	21088
2026-01-24 22:08:23.95	63.31	17.98	-53.3	-68.3	3.8	1.49e+00	0	43	104	0	77	21066
2026-01-24 22:08:24.96	63.53	18.01	-53.3	-68.3	3.8	1.49e+00	0	43	104	0	77	21072
2026-01-24 22:08:25.97	63.76	18.04	-53.3	-68.3	3.8	1.49e+00	0	43	104	0	77	21045
2026-01-24 22:08:26.97	63.99	18.06	-53.3	-68.3	3.8	1.49e+00	0	43	104	0	77	21084
2026-01-24 22:08:27.98	64.22	18.09	-53.3	-68.3	3.8	1.49e+00	0	43	104	0	77	21098
2026-01-24 22:08:28.99	64.45	18.12	-53.3	-68.3	3.8	1.49e+00	0	43	104	0	77	21137
2026-01-24 22:08:30.00	64.68	18.15	-53.3	-68.3	3.8	1.49e+00	0	43	104	0	77	21028
2026-01-24 22:08:31.01	64.91	18.18	-53.3	-68.3	3.8	1.49e+00	0	43	104	0	77	21063
2026-01-24 22:08:32.02	65.15	18.20	-53.3	-68.3	3.8	1.49e+00	0	43	104	0	77	21067
2026-01-24 22:08:33.02	65.38	18.23	-53.3	-68.3	3.8	1.49e+00	0	43	104	0	77	21089
2026-01-24 22:08:34.03	65.61	18.25	-53.3	-68.3	3.8	1.49e+00	0	43	104	0	77	21064
2026-01-24 22:08:35.04	65.84	18.28	-53.3	-68.3	3.8	1.49e+00	0	43	104	0	77	21084
2026-01-24 22:08:36.05	66.07	18.30	-53.3	-68.3	3.8	1.49e+00	0	43	104	0	77	21064
2026-01-24 22:08:37.06	66.31	18.33	-53.3	-68.3	3.8	1.49e+00	0	43	104	0	77	21049
2026-01-24 22:08:38.06	66.54	18.35	-53.3	-68.3	3.8	1.49e+00	0	43	104	0	77	21090
2026-01-24 22:08:39.07	66.77	18.37	-53.3	-68.3	3.8	1.49e+00	0	43	104	0	77	21056
2026-01-24 22:08:40.08	67.01	18.40	-53.3	-68.3	3.8	1.49e+00	0	43	104	0	77	21075
2026-01-24 22:08:41.09	67.24	18.42	-53.3	-68.3	3.8	1.49e+00	0	43	104	0	77	21080
2026-01-24 22:08:42.09	67.48	18.44	-53.3	-68.3	3.8	1.49e+00	0	43	104	0	77	21094
2026-01-24 22:08:43.10	67.71	18.46	-53.3	-68.3	3.8	1.49e+00	0	43	104	0	77	21048
2026-01-24 22:08:44.11	67.95	18.49	-53.3	-68.3	3.8	1.49e+00	0	43	104	0	77	21069
2026-01-24 22:08:45.12	68.19	18.51	-53.3	-68.3	3.8	1.49e+00	0	43	104	0	77	21063
2026-01-24 22:08:46.13	68.42	18.53	-53.3	-68.3	3.8	1.49e+00	0	43	104	0	77	21039
2026-01-24 22:08:47.14	68.66	18.55	-53.3	-68.3	3.8	1.49e+00	0	43	104	0	77	21069
2026-01-24 22:08:48.15	68.90	18.57	-53.3	-68.3	3.8	1.49e+00	0	43	104	0	77	21046
2026-01-24 22:08:49.16	69.13	18.59	-53.3	-68.3	3.8	1.49e+00	0	43	104	0	77	21088
2026-01-24 22:08:50.16	69.37	18.60	-53.3	-68.3	3.8	1.49e+00	0	43	104	0	77	21057
2026-01-24 22:08:51.17	69.61	18.62	-53.3	-68.3	3.8	1.49e+00	0	43	104	0	77	21032
2026-01-24 22:08:52.18	69.85	18.64	-53.3	-68.3	3.8	1.49e+00	0	43	104	0	77	21116
2026-01-24 22:08:53.18	70.08	18.66	-53.3	-68.2	3.8	1.49e+00	0	43	104	0	77	21016
2026-01-24 22:08:54.19	70.32	18.67	-53.3	-68.3	3.8	1.49e+00	0	43	104	0	77	21080
2026-01-24 22:08:55.20	70.56	18.69	-53.3	-68.3	3.8	1.49e+00	0	43	104	0	77	21042
2026-01-24 22:08:56.21	70.80	18.71	-53.3	-68.3	3.8	1.49e+00	0	43	104	0	77	21028
2026-01-24 22:08:57.22	71.04	18.72	-53.3	-68.3	3.8	1.49e+00	0	43	104	0	77	21062
2026-01-24 22:08:58.22	71.28	18.73	-53.3	-68.3	3.8	1.49e+00	0	43	104	0	77	21054
2026-01-24 22:08:59.23	71.52	18.75	-53.3	-68.3	3.8	1.49e+00	0	43	104	0	77	21058
2026-01-24 22:09:00.24	71.76	18.76	-53.3	-68.3	3.8	1.49e+00	0	43	104	0	77	21033
2026-01-24 22:09:01.25	72.00	18.78	-53.3	-68.3	3.8	1.49e+00	0	43	104	0	77	21113
2026-01-24 22:09:02.25	72.24	18.79	-53.3	-68.3	3.8	1.49e+00	0	43	104	0	77	21067
2026-01-24 22:09:03.26	72.48	18.80	-53.3	-68.3	3.8	1.49e+00	0	43	104	0	77	21036
2026-01-24 22:09:04.27	72.72	18.81	-53.3	-68.3	3.8	1.49e+00	0	43	104	0	77	21059
2026-01-24 22:09:05.28	72.96	18.82	-53.3	-68.3	3.8	1.49e+00	0	43	104	0	77	21071
2026-01-24 22:09:06.29	73.20	18.84	-53.3	-68.3	3.8	1.49e+00	0	43	104	0	77	21036
2026-01-24 22:09:07.30	73.45	18.85	-53.3	-68.3	3.8	1.49e+00	0	43	104	0	77	21036
2026-01-24 22:09:08.30	73.69	18.86	-53.3	-68.3	3.8	1.49e+00	0	43	104	0	77	21067
2026-01-24 22:09:09.31	73.93	18.87	-53.3	-68.3	3.8	1.49e+00	0	43	104	0	77	21102
2026-01-24 22:09:10.32	74.17	18.87	-53.3	-68.2	3.8	1.49e+00	0	43	104	0	77	21015
2026-01-24 22:09:11.32	74.41	18.88	-53.3	-68.3	3.8	1.49e+00	0	43	104	0	77	21065
2026-01-24 22:09:12.33	74.65	18.89	-53.3	-68.3	3.8	1.49e+00	0	43	104	0	77	21058
2026-01-24 22:09:13.34	74.89	18.90	-53.3	-68.3	3.8	1.49e+00	0	43	104	0	77	21032
2026-01-24 22:09:14.35	75.14	18.91	-53.3	-68.3	3.8	1.49e+00	0	43	104	0	77	21062
2026-01-24 22:09:15.36	75.38	18.91	-53.3	-68.3	3.8	1.49e+00	0	43	104	0	77	21029
2026-01-24 22:09:16.37	75.62	18.92	-53.3	-68.2	3.8	1.49e+00	0	43	104	0	77	20983
2026-01-24 22:09:17.37	75.86	18.92	-53.3	-68.3	3.8	1.49e+00	0	43	104	0	77	21077
2026-01-24 22:09:18.38	76.11	18.93	-53.3	-68.3	3.8	1.49e+00	0	43	104	0	77	21086
2026-01-24 22:09:19.39	76.35	18.93	-53.3	-68.3	3.8	1.49e+00	0	43	104	0	77	21083
2026-01-24 22:09:20.40	76.59	18.94	-53.3	-68.2	3.8	1.49e+00	0	43	104	0	77	20997
2026-01-24 22:09:21.41	76.84	18.94	-53.3	-68.3	3.8	1.49e+00	0	43	104	0	77	21061
2026-01-24 22:09:22.41	77.08	18.94	-53.3	-68.3	3.8	1.49e+00	0	43	104	0	77	21089
2026-01-24 22:09:23.42	77.32	18.95	-53.3	-68.3	3.8	1.49e+00	0	43	104	0	77	21038
2026-01-24 22:09:24.44	77.57	18.95	-53.3	-68.3	3.8	1.49e+00	0	43	104	0	77	21100
2026-01-24 22:09:25.44	77.81	18.95	-53.3	-68.3	3.8	1.49e+00	0	43	104	0	77	21058
2026-01-24 22:09:26.45	78.05	18.95	-53.3	-68.3	3.8	1.49e+00	0	43	104	0	77	21067
2026-01-24 22:09:27.46	78.30	18.95	-53.3	-68.3	3.8	1.49e+00	0	43	104	0	77	21044
2026-01-24 22:09:28.47	78.54	18.95	-53.3	-68.3	3.8	1.49e+00	0	43	104	0	77	21063
2026-01-24 22:09:29.47	78.78	18.95	-53.3	-68.3	3.8	1.49e+00	0	43	104	0	77	21100
2026-01-24 22:09:30.48	79.02	18.95	-53.3	-68.3	3.8	1.49e+00	0	43	104	0	77	21067
2026-01-24 22:09:31.49	79.27	18.95	-53.3	-68.3	3.8	1.49e+00	0	43	104	0	77	21066
2026-01-24 22:09:32.50	79.51	18.94	-53.3	-68.3	3.8	1.49e+00	0	43	104	0	77	21083
2026-01-24 22:09:33.51	79.76	18.94	-53.3	-68.3	3.8	1.49e+00	0	43	104	0	77	21067
2026-01-24 22:09:34.51	80.00	18.94	-53.3	-68.3	3.8	1.49e+00	0	43	104	0	77	21098
2026-01-24 22:09:35.52	80.24	18.94	-53.3	-68.3	3.8	1.49e+00	0	43	104	0	77	21024
2026-01-24 22:09:36.53	80.48	18.93	-53.3	-68.3	3.8	1.49e+00	0	43	104	0	77	21100
2026-01-24 22:09:37.54	80.73	18.93	-53.3	-68.3	3.8	1.49e+00	0	43	104	0	77	21051
2026-01-24 22:09:38.54	80.97	18.92	-53.3	-68.3	3.8	1.49e+00	0	43	104	0	77	21080
2026-01-24 22:09:39.55	81.21	18.92	-53.3	-68.3	3.8	1.49e+00	0	43	104	0	77	21020
2026-01-24 22:09:40.56	81.45	18.91	-53.3	-68.3	3.8	1.49e+00	0	43	104	0	77	21095
2026-01-24 22:09:41.57	81.70	18.90	-53.3	-68.3	3.8	1.49e+00	0	43	104	0	77	21062
2026-01-24 22:09:42.57	81.94	18.90	-53.3	-68.3	3.8	1.49e+00	0	43	104	0	77	21092
2026-01-24 22:09:43.58	82.18	18.89	-53.3	-68.3	3.8	1.49e+00	0	43	104	0	77	21036
2026-01-24 22:09:44.59	82.42	18.88	-53.3	-68.3	3.8	1.49e+00	0	43	104	0	77	21048
2026-01-24 22:09:45.60	82.66	18.87	-53.3	-68.3	3.8	1.49e+00	0	43	104	0	77	21062
2026-01-24 22:09:46.61	82.91	18.86	-53.3	-68.3	3.8	1.49e+00	0	43	104	0	77	21022
2026-01-24 22:09:47.61	83.15	18.85	-53.3	-68.3	3.8	1.49e+00	0	43	104	0	77	21071
2026-01-24 22:09:48.62	83.39	18.84	-53.3	-68.3	3.8	1.49e+00	0	43	104	0	77	21069
2026-01-24 22:09:49.63	83.63	18.83	-53.3	-68.3	3.8	1.49e+00	0	43	104	0	77	21058
2026-01-24 22:09:50.64	83.87	18.82	-53.3	-68.2	3.8	1.49e+00	0	43	104	0	77	20996
2026-01-24 22:09:51.65	84.11	18.81	-53.3	-68.3	3.8	1.49e+00	0	43	104	0	77	21044
2026-01-24 22:09:52.66	84.36	18.80	-53.3	-68.3	3.8	1.49e+00	0	43	104	0	77	21086
2026-01-24 22:09:53.66	84.59	18.79	-53.3	-68.3	3.8	1.49e+00	0	43	104	0	77	21045
2026-01-24 22:09:54.68	84.84	18.77	-53.3	-68.3	3.8	1.49e+00	0	43	104	0	77	21088
2026-01-24 22:09:55.68	85.08	18.76	-53.3	-68.3	3.8	1.49e+00	0	43	104	0	77	21085
2026-01-24 22:09:56.69	85.32	18.75	-53.3	-68.3	3.8	1.49e+00	0	43	104	0	77	21101
2026-01-24 22:09:57.70	85.56	18.73	-53.3	-68.3	3.8	1.49e+00	0	43	104	0	77	21029
2026-01-24 22:09:58.71	85.80	18.72	-53.3	-68.3	3.8	1.49e+00	0	43	104	0	77	21071
2026-01-24 22:09:59.71	86.04	18.70	-53.3	-68.3	3.8	1.49e+00	0	43	104	0	77	21052
2026-01-24 22:10:00.72	86.28	18.69	-53.3	-68.3	3.8	1.49e+00	0	43	104	0	77	21086
2026-01-24 22:10:01.73	86.51	18.67	-53.3	-68.3	3.8	1.49e+00	0	43	104	0	77	21096
2026-01-24 22:10:02.74	86.75	18.65	-53.3	-68.3	3.8	1.49e+00	0	43	104	0	77	21064
2026-01-24 22:10:03.75	86.99	18.64	-53.3	-68.3	3.8	1.49e+00	0	43	104	0	77	21112
2026-01-24 22:10:04.76	87.23	18.62	-53.3	-68.3	3.8	1.49e+00	0	43	104	0	77	21073
2026-01-24 22:10:05.76	87.47	18.60	-53.3	-68.3	3.8	1.49e+00	0	43	104	0	77	21054
2026-01-24 22:10:06.77	87.71	18.58	-53.3	-68.3	3.8	1.49e+00	0	43	104	0	77	21037
2026-01-24 22:10:07.78	87.94	18.56	-53.3	-68.3	3.8	1.49e+00	0	43	104	0	77	21055
2026-01-24 22:10:08.78	88.18	18.54	-53.3	-68.3	3.8	1.49e+00	0	43	104	0	77	21043
2026-01-24 22:10:09.79	88.42	18.52	-53.3	-68.3	3.8	1.49e+00	0	43	104	0	77	21124
2026-01-24 22:10:10.80	88.65	18.50	-53.3	-68.3	3.8	1.49e+00	0	43	104	0	77	21045
2026-01-24 22:10:11.81	88.89	18.48	-53.3	-68.2	3.8	1.49e+00	0	43	104	0	77	21012
2026-01-24 22:10:12.82	89.13	18.46	-53.3	-68.3	3.8	1.49e+00	0	43	104	0	77	21089
2026-01-24 22:10:13.82	89.36	18.44	-53.3	-68.3	3.8	1.49e+00	0	43	104	0	77	21088
2026-01-24 22:10:14.83	89.60	18.42	-53.3	-68.3	3.8	1.49e+00	0	43	104	0	77	21054
2026-01-24 22:10:15.84	89.83	18.39	-53.3	-68.3	3.8	1.49e+00	0	43	104	0	77	21120
2026-01-24 22:10:16.85	90.07	18.37	-53.3	-68.3	3.8	1.49e+00	0	43	104	0	77	21097
2026-01-24 22:10:17.86	90.30	18.35	-53.3	-68.3	3.8	1.49e+00	0	43	104	0	77	21024
2026-01-24 22:10:18.86	90.53	18.32	-53.3	-68.3	3.8	1.49e+00	0	43	104	0	77	21027
2026-01-24 22:10:19.87	90.77	18.30	-53.3	-68.3	3.8	1.49e+00	0	43	104	0	77	21075
2026-01-24 22:10:20.88	91.00	18.27	-53.3	-68.3	3.8	1.49e+00	0	43	104	0	77	21049
2026-01-24 22:10:21.89	91.23	18.25	-53.3	-68.3	3.8	1.49e+00	0	43	104	0	77	21069
2026-01-24 22:10:22.90	91.47	18.22	-53.3	-68.3	3.8	1.49e+00	0	43	104	0	77	21044
2026-01-24 22:10:23.90	91.70	18.20	-53.3	-68.3	3.8	1.49e+00	0	43	104	0	77	21044
2026-01-24 22:10:24.91	91.93	18.17	-53.3	-68.3	3.8	1.49e+00	0	43	104	0	77	21090
2026-01-24 22:10:25.92	92.16	18.14	-53.3	-68.3	3.8	1.49e+00	0	43	104	0	77	21045
2026-01-24 22:10:26.92	92.39	18.11	-53.3	-68.3	3.8	1.49e+00	0	43	104	0	77	21037
2026-01-24 22:10:27.93	92.62	18.09	-53.3	-68.3	3.8	1.49e+00	0	43	104	0	77	21107
2026-01-24 22:10:28.94	92.85	18.06	-53.3	-68.3	3.8	1.49e+00	0	43	104	0	77	21093
2026-01-24 22:10:29.95	93.08	18.03	-53.3	-68.3	3.8	1.49e+00	0	43	104	0	77	21042
2026-01-24 22:10:30.96	93.31	18.00	-53.3	-68.3	3.8	1.49e+00	0	43	104	0	77	21077
2026-01-24 22:10:31.96	93.54	17.97	-53.3	-68.3	3.8	1.49e+00	0	43	104	0	77	21055
2026-01-24 22:10:32.97	93.77	17.94	-53.3	-68.3	3.8	1.49e+00	0	43	104	0	77	21049
2026-01-24 22:10:33.98	93.99	17.91	-53.3	-68.3	3.8	1.49e+00	0	43	104	0	77	21059
2026-01-24 22:10:34.99	94.22	17.88	-53.3	-68.3	3.8	1.49e+00	0	43	104	0	77	21087
2026-01-24 22:10:36.00	94.45	17.85	-53.3	-68.3	3.8	1.49e+00	0	43	104	0	77	21018
2026-01-24 22:10:37.00	94.68	17.82	-53.3	-68.3	3.8	1.49e+00	0	43	104	0	77	21069
2026-01-24 22:10:38.01	94.90	17.78	-53.3	-68.3	3.8	1.49e+00	0	43	104	0	77	21060
2026-01-24 22:10:39.02	95.13	17.75	-53.3	-68.3	3.8	1.49e+00	0	43	104	0	77	21090
2026-01-24 22:10:40.02	95.35	17.72	-53.3	-68.3	3.8	1.49e+00	0	43	104	0	77	21084
2026-01-24 22:10:41.03	95.58	17.69	-53.3	-68.3	3.8	1.49e+00	0	43	104	0	77	21046
2026-01-24 22:10:42.04	95.80	17.65	-53.3	-68.3	3.8	1.49e+00	0	43	104	0	77	21108
2026-01-24 22:10:43.05	96.02	17.62	-53.3	-68.3	3.8	1.49e+00	0	43	104	0	77	21059
2026-01-24 22:10:44.06	96.25	17.59	-53.3	-68.3	3.8	1.49e+00	0	43	104	0	77	21123
2026-01-24 22:10:45.06	96.47	17.55	-53.3	-68.3	3.8	1.49e+00	0	43	104	0	77	21062
2026-01-24 22:10:46.07	96.69	17.52	-53.3	-68.3	3.8	1.49e+00	0	43	104	0	77	21075
2026-01-24 22:10:47.08	96.91	17.48	-53.3	-68.3	3.8	1.49e+00	0	43	104	0	77	21025
2026-01-24 22:10:48.09	97.14	17.45	-53.3	-68.3	3.8	1.49e+00	0	43	104	0	77	21100
2026-01-24 22:10:49.10	97.36	17.41	-53.3	-68.3	3.8	1.49e+00	0	43	104	0	77	21019
2026-01-24 22:10:50.10	97.58	17.37	-53.3	-68.3	3.8	1.49e+00	0	43	104	0	77	21040
2026-01-24 22:10:51.11	97.80	17.34	-53.3	-68.3	3.8	1.49e+00	0	43	104	0	77	21043
2026-01-24 22:10:52.12	98.02	17.30	-53.3	-68.3	3.8	1.49e+00	0	43	104	0	77	21080
2026-01-24 22:10:53.12	98.23	17.26	-53.3	-68.3	3.8	1.49e+00	0	43	104	0	77	21101
2026-01-24 22:10:54.13	98.45	17.22	-53.3	-68.3	3.8	1.49e+00	0	43	104	0	77	21062
2026-01-24 22:10:55.14	98.67	17.19	-53.3	-68.3	3.8	1.49e+00	0	43	104	0	77	21044
2026-01-24 22:10:56.14	98.88	17.15	-53.3	-68.3	3.8	1.49e+00	0	43	104	0	77	21059
2026-01-24 22:10:57.15	99.10	17.11	-53.3	-68.3	3.8	1.49e+00	0	43	104	0	77	21058
2026-01-24 22:10:58.16	99.32	17.07	-53.3	-68.3	3.8	1.49e+00	0	43	104	0	77	21073
2026-01-24 22:10:59.17	99.53	17.03	-53.3	-68.3	3.8	1.49e+00	0	43	104	0	77	21033
2026-01-24 22:11:00.18	99.75	16.99	-53.3	-68.3	3.8	1.49e+00	0	43	104	0	77	21042
2026-01-24 22:11:01.19	99.96	16.95	-53.3	-68.3	3.8	1.49e+00	0	43	104	0	77	21035
2026-01-24 22:11:02.19	100.18	16.91	-53.3	-68.3	3.8	1.49e+00	0	43	104	0	77	21065
2026-01-24 22:11:03.20	100.39	16.87	-53.3	-68.3	3.8	1.49e+00	0	43	104	0	77	21061
2026-01-24 22:11:04.21	100.60	16.83	-53.3	-68.2	3.8	1.49e+00	0	43	104	0	77	20990
2026-01-24 22:11:05.22	100.81	16.79	-53.3	-68.3	3.8	1.49e+00	0	43	104	0	77	21112
2026-01-24 22:11:06.22	101.02	16.75	-53.3	-68.3	3.8	1.49e+00	0	43	104	0	77	21041
2026-01-24 22:11:07.23	101.24	16.70	-53.3	-68.3	3.8	1.49e+00	0	43	104	0	77	21042
2026-01-24 22:11:08.23	101.44	16.66	-53.3	-68.3	3.8	1.49e+00	0	43	104	0	77	21079
2026-01-24 22:11:09.24	101.66	16.62	-53.3	-68.2	3.8	1.49e+00	0	43	104	0	77	21017
2026-01-24 22:11:10.25	101.86	16.58	-53.3	-68.3	3.8	1.49e+00	0	43	104	0	77	21038
2026-01-24 22:11:11.26	102.07	16.53	-53.3	-68.3	3.8	1.49e+00	0	43	104	0	77	21057
2026-01-24 22:11:12.27	102.28	16.49	-53.3	-68.3	3.8	1.49e+00	0	43	104	0	77	21052
2026-01-24 22:11:13.28	102.49	16.45	-53.3	-68.3	3.8	1.49e+00	0	43	104	0	77	21079
2026-01-24 22:11:14.28	102.70	16.40	-53.3	-68.3	3.8	1.49e+00	0	43	104	0	77	21051
2026-01-24 22:11:15.29	102.90	16.36	-53.3	-68.3	3.8	1.49e+00	0	43	104	0	77	21024
2026-01-24 22:11:16.30	103.11	16.32	-53.3	-68.3	3.8	1.49e+00	0	43	104	0	77	21030
2026-01-24 22:11:17.31	103.31	16.27	-53.3	-68.3	3.8	1.49e+00	0	43	104	0	77	21067
2026-01-24 22:11:18.32	103.52	16.23	-53.3	-68.3	3.8	1.49e+00	0	43	104	0	77	21030
2026-01-24 22:11:19.32	103.72	16.18	-53.3	-68.3	3.8	1.49e+00	0	43	104	0	77	21089
2026-01-24 22:11:20.33	103.93	16.13	-53.3	-68.3	3.8	1.49e+00	0	43	104	0	77	21038
2026-01-24 22:11:21.34	104.13	16.09	-53.3	-68.3	3.8	1.49e+00	0	43	104	0	77	21075
2026-01-24 22:11:22.35	104.33	16.04	-53.3	-68.3	3.8	1.49e+00	0	43	104	0	77	21046
2026-01-24 22:11:23.36	104.53	16.00	-53.3	-68.3	3.8	1.49e+00	0	43	104	0	77	21100
2026-01-24 22:11:24.37	104.73	15.95	-53.3	-68.3	3.8	1.49e+00	0	43	104	0	77	21066
2026-01-24 22:11:25.38	104.94	15.90	-53.3	-68.3	3.8	1.49e+00	0	43	104	0	77	21055
2026-01-24 22:11:26.38	105.13	15.86	-53.3	-68.3	3.8	1.49e+00	0	43	104	0	77	21055
2026-01-24 22:11:27.39	105.33	15.81	-53.3	-68.3	3.8	1.49e+00	0	43	104	0	77	21112
2026-01-24 22:11:28.40	105.53	15.76	-53.3	-68.3	3.8	1.49e+00	0	43	104	0	77	21109
2026-01-24 22:11:29.41	105.73	15.71	-53.3	-68.3	3.8	1.49e+00	0	43	104	0	77	21064
2026-01-24 22:11:30.42	105.93	15.67	-53.3	-68.3	3.8	1.49e+00	0	43	104	0	77	21097
2026-01-24 22:11:31.42	106.12	15.62	-53.3	-68.3	3.8	1.49e+00	0	43	104	0	77	21097
2026-01-24 22:11:32.43	106.32	15.57	-53.3	-68.3	3.8	1.49e+00	0	43	104	0	77	21045
2026-01-24 22:11:33.44	106.52	15.52	-53.3	-68.3	3.8	1.49e+00	0	43	104	0	77	21066
2026-01-24 22:11:34.45	106.71	15.47	-53.3	-68.3	3.8	1.49e+00	0	43	104	0	77	21074
2026-01-24 22:11:35.45	106.90	15.42	-53.3	-68.3	3.8	1.49e+00	0	43	104	0	77	21124
2026-01-24 22:11:36.46	107.10	15.38	-53.3	-68.3	3.8	1.49e+00	0	43	104	0	77	21065
2026-01-24 22:11:37.47	107.29	15.33	-53.3	-68.3	3.8	1.49e+00	0	43	104	0	77	21041
2026-01-24 22:11:38.48	107.48	15.28	-53.3	-68.3	3.8	1.49e+00	0	43	104	0	77	21091
2026-01-24 22:11:39.48	107.67	15.23	-53.3	-68.3	3.8	1.49e+00	0	43	104	0	77	21055
2026-01-24 22:11:40.49	107.87	15.18	-53.3	-68.3	3.8	1.49e+00	0	43	104	0	77	21069
2026-01-24 22:11:41.50	108.06	15.13	-53.3	-68.3	3.8	1.49e+00	0	43	104	0	77	21039
2026-01-24 22:11:42.51	108.25	15.08	-53.3	-68.3	3.8	1.49e+00	0	43	104	0	77	21055
2026-01-24 22:11:43.52	108.44	15.03	-53.3	-68.3	3.8	1.49e+00	0	43	104	0	77	21042
2026-01-24 22:11:44.52	108.62	14.98	-53.3	-68.3	3.8	1.49e+00	0	43	104	0	77	21142
2026-01-24 22:11:45.53	108.81	14.92	-53.3	-68.2	3.8	1.49e+00	0	43	104	0	77	21008
2026-01-24 22:11:46.54	109.00	14.87	-53.3	-68.3	3.8	1.49e+00	0	43	104	0	77	21087
2026-01-24 22:11:47.55	109.19	14.82	-53.3	-68.3	3.8	1.49e+00	0	43	104	0	77	21067
2026-01-24 22:11:48.56	109.37	14.77	-53.3	-68.3	3.8	1.49e+00	0	43	104	0	77	21065
2026-01-24 22:11:49.56	109.56	14.72	-53.3	-68.3	3.8	1.49e+00	0	43	104	0	77	21083
2026-01-24 22:11:50.57	109.74	14.67	-53.3	-68.3	3.8	1.49e+00	0	43	104	0	77	21065
2026-01-24 22:11:51.58	109.93	14.62	-53.3	-68.3	3.8	1.49e+00	0	43	104	0	77	21068
2026-01-24 22:11:52.59	110.11	14.56	-53.3	-68.3	3.8	1.49e+00	0	43	104	0	77	21029
2026-01-24 22:11:53.59	110.29	14.51	-53.3	-68.3	3.8	1.49e+00	0	43	104	0	77	21062
2026-01-24 22:11:54.60	110.48	14.46	-53.3	-68.3	3.8	1.49e+00	0	43	104	0	77	21066
2026-01-24 22:11:55.61	110.66	14.41	-53.3	-68.3	3.8	1.49e+00	0	43	104	0	77	21076
2026-01-24 22:11:56.62	110.84	14.35	-53.3	-68.3	3.8	1.49e+00	0	43	104	0	77	21114
2026-01-24 22:11:57.63	111.02	14.30	-53.3	-68.3	3.8	1.49e+00	0	43	104	0	77	21067
2026-01-24 22:11:58.63	111.20	14.25	-53.3	-68.3	3.8	1.49e+00	0	43	104	0	77	21073
2026-01-24 22:11:59.64	111.38	14.20	-53.3	-68.3	3.8	1.49e+00	0	43	104	0	77	21084
2026-01-24 22:12:00.65	111.56	14.14	-53.3	-68.3	3.8	1.49e+00	0	43	104	0	77	21070
2026-01-24 22:12:01.66	111.74	14.09	-53.3	-68.3	3.8	1.49e+00	0	43	104	0	77	21041
2026-01-24 22:12:02.67	111.92	14.03	-53.3	-68.2	3.8	1.49e+00	0	43	104	0	77	21000
2026-01-24 22:12:03.68	112.09	13.98	-53.3	-68.3	3.8	1.49e+00	0	43	104	0	77	21082
2026-01-24 22:12:04.68	112.27	13.93	-53.3	-68.3	3.8	1.49e+00	0	43	104	0	77	21046
2026-01-24 22:12:05.69	112.44	13.87	-53.3	-68.3	3.8	1.49e+00	0	43	104	0	77	21058
2026-01-24 22:12:06.70	112.62	13.82	-53.3	-68.3	3.8	1.49e+00	0	43	104	0	77	21056
2026-01-24 22:12:07.71	112.79	13.77	-53.3	-68.3	3.8	1.49e+00	0	43	104	0	77	21049
2026-01-24 22:12:08.72	112.97	13.71	-53.3	-68.3	3.8	1.49e+00	0	43	104	0	77	21084
2026-01-24 22:12:09.73	113.14	13.66	-53.3	-68.3	3.8	1.49e+00	0	43	104	0	77	21033
2026-01-24 22:12:10.74	113.32	13.60	-53.3	-68.3	3.8	1.49e+00	0	43	104	0	77	21036
2026-01-24 22:12:11.74	113.49	13.55	-53.3	-68.3	3.8	1.49e+00	0	43	104	0	77	21062
2026-01-24 22:12:12.75	113.66	13.49	-53.3	-68.3	3.8	1.49e+00	0	43	104	0	77	21085
2026-01-24 22:12:13.76	113.83	13.44	-53.3	-68.3	3.8	1.49e+00	0	43	104	0	77	21018
2026-01-24 22:12:14.77	114.00	13.38	-53.3	-68.3	3.8	1.49e+00	0	43	104	0	77	21102
2026-01-24 22:12:15.78	114.17	13.33	-53.3	-68.3	3.8	1.49e+00	0	43	104	0	77	21108
2026-01-24 22:12:16.78	114.34	13.27	-53.3	-68.3	3.8	1.49e+00	0	43	104	0	77	21078
2026-01-24 22:12:17.79	114.51	13.22	-53.3	-68.3	3.8	1.49e+00	0	43	104	0	77	21061
2026-01-24 22:12:18.80	114.67	13.16	-53.3	-68.3	3.8	1.49e+00	0	43	104	0	77	21078
2026-01-24 22:12:19.81	114.84	13.11	-53.3	-68.3	3.8	1.49e+00	0	43	104	0	77	21088
2026-01-24 22:12:20.81	115.01	13.05	-53.3	-68.3	3.8	1.49e+00	0	43	104	0	77	21050
2026-01-24 22:12:21.82	115.17	13.00	-53.3	-68.3	3.8	1.49e+00	0	43	104	0	77	21080
2026-01-24 22:12:22.83	115.34	12.94	-53.3	-68.3	3.8	1.49e+00	0	43	104	0	77	21068
2026-01-24 22:12:23.84	115.50	12.88	-53.3	-68.3	3.8	1.49e+00	0	43	104	0	77	21025
2026-01-24 22:12:24.85	115.67	12.83	-53.3	-68.2	3.8	1.49e+00	0	43	104	0	77	21017
2026-01-24 22:12:25.85	115.83	12.77	-53.3	-68.3	3.8	1.49e+00	0	43	104	0	77	21021
2026-01-24 22:12:26.86	115.99	12.72	-53.3	-68.3	3.8	1.49e+00	0	43	104	0	77	21047
2026-01-24 22:12:27.87	116.16	12.66	-53.3	-68.3	3.8	1.49e+00	0	43	104	0	77	21084
2026-01-24 22:12:28.88	116.32	12.60	-53.3	-68.3	3.8	1.49e+00	0	43	104	0	77	21047
2026-01-24 22:12:29.89	116.48	12.55	-53.3	-68.3	3.8	1.49e+00	0	43	104	0	77	21110
2026-01-24 22:12:30.90	116.64	12.49	-53.3	-68.3	3.8	1.49e+00	0	43	104	0	77	21053
2026-01-24 22:12:31.90	116.80	12.43	-53.3	-68.2	3.8	1.49e+00	0	43	104	0	77	21017
2026-01-24 22:12:32.91	116.96	12.38	-53.3	-68.3	3.8	1.49e+00	0	43	104	0	77	21042
2026-01-24 22:12:33.92	117.12	12.32	-53.3	-68.3	3.8	1.49e+00	0	43	104	0	77	21026
2026-01-24 22:12:34.93	117.28	12.26	-53.3	-68.3	3.8	1.49e+00	0	43	104	0	77	21070
2026-01-24 22:12:35.93	117.43	12.21	-53.3	-68.3	3.8	1.49e+00	0	43	104	0	77	21062
2026-01-24 22:12:36.94	117.59	12.15	-53.3	-68.3	3.8	1.49e+00	0	43	104	0	77	21059
2026-01-24 22:12:37.95	117.75	12.09	-53.3	-68.3	3.8	1.49e+00	0	43	104	0	77	21070
2026-01-24 22:12:38.96	117.90	12.04	-53.3	-68.3	3.8	1.49e+00	0	43	104	0	77	21068
2026-01-24 22:12:39.97	118.06	11.98	-53.3	-68.3	3.8	1.49e+00	0	43	104	0	77	21047
2026-01-24 22:12:40.97	118.21	11.92	-53.3	-68.3	3.8	1.49e+00	0	43	104	0	77	21037
2026-01-24 22:12:41.98	118.37	11.87	-53.3	-68.3	3.8	1.49e+00	0	43	104	0	77	21074
2026-01-24 22:12:42.99	118.52	11.81	-53.3	-68.3	3.8	1.49e+00	0	43	104	0	77	21086
2026-01-24 22:12:44.00	118.67	11.75	-53.3	-68.3	3.8	1.49e+00	0	43	104	0	77	21027
2026-01-24 22:12:45.01	118.82	11.69	-53.3	-68.2	3.8	1.49e+00	0	43	104	0	77	21008
2026-01-24 22:12:46.02	118.98	11.64	-53.3	-68.2	3.8	1.49e+00	0	43	104	0	77	21012
2026-01-24 22:12:47.02	119.13	11.58	-53.3	-68.2	3.8	1.49e+00	0	43	104	0	77	21015
2026-01-24 22:12:48.03	119.28	11.52	-53.3	-68.3	3.8	1.49e+00	0	43	104	0	77	21070
2026-01-24 22:12:49.04	119.43	11.47	-53.3	-68.3	3.8	1.49e+00	0	43	104	0	77	21083
2026-01-24 22:12:50.05	119.58	11.41	-53.3	-68.3	3.8	1.49e+00	0	43	104	0	77	21044
2026-01-24 22:12:51.05	119.73	11.35	-53.3	-68.3	3.8	1.49e+00	0	43	104	0	77	21022
2026-01-24 22:12:52.06	119.87	11.29	-53.3	-68.3	3.8	1.49e+00	0	43	104	0	77	21076
2026-01-24 22:12:53.07	120.02	11.24	-53.3	-68.3	3.8	1.49e+00	0	43	104	0	77	21097
2026-01-24 22:12:54.08	120.17	11.18	-53.3	-68.3	3.8	1.49e+00	0	43	104	0	77	21029
2026-01-24 22:12:55.09	120.32	11.12	-53.3	-68.2	3.8	1.49e+00	0	43	104	0	77	21000
2026-01-24 22:12:56.10	120.46	11.06	-53.3	-68.3	3.8	1.49e+00	0	43	104	0	77	21065
2026-01-24 22:12:57.10	120.61	11.01	-53.3	-68.3	3.8	1.49e+00	0	43	104	0	77	21024
2026-01-24 22:12:58.11	120.75	10.95	-53.3	-68.3	3.8	1.49e+00	0	43	104	0	77	21037
2026-01-24 22:12:59.12	120.90	10.89	-53.3	-68.3	3.8	1.49e+00	0	43	104	0	77	21031
2026-01-24 22:13:00.13	121.04	10.83	-53.3	-68.3	3.8	1.49e+00	0	43	104	0	77	21102
2026-01-24 22:13:01.14	121.19	10.77	-53.3	-68.3	3.8	1.49e+00	0	43	104	0	77	21081
2026-01-24 22:13:02.14	121.33	10.72	-53.3	-68.3	3.8	1.49e+00	0	43	104	0	77	21053
2026-01-24 22:13:03.15	121.47	10.66	-53.3	-68.3	3.8	1.49e+00	0	43	104	0	77	21064
2026-01-24 22:13:04.16	121.61	10.60	-53.3	-68.3	3.8	1.49e+00	0	43	104	0	77	21025
2026-01-24 22:13:05.17	121.75	10.54	-53.3	-68.3	3.8	1.49e+00	0	43	104	0	77	21085
2026-01-24 22:13:06.18	121.90	10.49	-53.3	-68.3	3.8	1.49e+00	0	43	104	0	77	21032
2026-01-24 22:13:07.18	122.03	10.43	-53.3	-68.3	3.8	1.49e+00	0	43	104	0	77	21020
2026-01-24 22:13:08.19	122.17	10.37	-53.3	-68.3	3.8	1.49e+00	0	43	104	0	77	21025
2026-01-24 22:13:09.20	122.31	10.31	-53.3	-68.3	3.8	1.49e+00	0	43	104	0	77	21049
2026-01-24 22:13:10.21	122.45	10.25	-53.3	-68.3	3.8	1.49e+00	0	43	104	0	77	21074
2026-01-24 22:13:11.22	122.59	10.20	-53.3	-68.3	3.8	1.49e+00	0	43	104	0	77	21033
2026-01-24 22:13:12.22	122.73	10.14	-53.3	-68.3	3.8	1.49e+00	0	43	104	0	77	21030
2026-01-24 22:13:13.23	122.86	10.08	-53.3	-68.3	3.8	1.49e+00	0	43	104	0	77	21052
2026-01-24 22:13:14.24	123.00	10.02	-53.3	-68.3	3.8	1.49e+00	0	43	104	0	77	21032
2026-01-24 22:13:15.25	123.14	9.96	-53.3	-68.3	3.8	1.49e+00	0	43	104	0	77	21062
2026-01-24 22:13:16.25	123.27	9.91	-53.3	-68.3	3.8	1.49e+00	0	43	104	0	77	21025
2026-01-24 22:13:17.27	123.41	9.85	-53.3	-68.3	3.8	1.49e+00	0	43	104	0	77	21040
2026-01-24 22:13:18.27	123.54	9.79	-53.3	-68.2	3.8	1.49e+00	0	43	104	0	77	20972
2026-01-24 22:13:19.28	123.68	9.73	-53.3	-68.3	3.8	1.49e+00	0	43	104	0	77	21025
2026-01-24 22:13:20.29	123.81	9.68	-53.3	-68.2	3.8	1.49e+00	0	43	104	0	77	21013
2026-01-24 22:13:21.30	123.94	9.62	-53.3	-68.2	3.8	1.49e+00	0	43	104	0	77	21017
2026-01-24 22:13:22.30	124.07	9.56	-53.3	-68.3	3.8	1.49e+00	0	43	104	0	77	21034
2026-01-24 22:13:23.31	124.21	9.50	-53.3	-68.3	3.8	1.49e+00	0	43	104	0	77	21023
2026-01-24 22:13:24.32	124.34	9.44	-53.3	-68.3	3.8	1.49e+00	0	43	104	0	77	21057
2026-01-24 22:13:25.33	124.47	9.39	-53.3	-68.3	3.8	1.49e+00	0	43	104	0	77	21048
2026-01-24 22:13:26.34	124.60	9.33	-53.3	-68.3	3.8	1.49e+00	0	43	104	0	77	21034
2026-01-24 22:13:27.34	124.73	9.27	-53.3	-68.3	3.8	1.49e+00	0	43	104	0	77	21058
2026-01-24 22:13:28.35	124.86	9.21	-53.3	-68.3	3.8	1.49e+00	0	43	104	0	77	21058
2026-01-24 22:13:29.36	124.99	9.15	-53.3	-68.3	3.8	1.49e+00	0	43	104	0	77	21040
2026-01-24 22:13:30.37	125.12	9.10	-53.3	-68.3	3.8	1.49e+00	0	43	104	0	77	21033
2026-01-24 22:13:31.38	125.24	9.04	-53.3	-68.3	3.8	1.49e+00	0	43	104	0	77	21068
2026-01-24 22:13:32.38	125.37	8.98	-53.3	-68.3	3.8	1.49e+00	0	43	104	0	77	21058
2026-01-24 22:13:33.40	125.50	8.92	-53.3	-68.3	3.8	1.49e+00	0	43	104	0	77	21031
2026-01-24 22:13:34.40	125.62	8.87	-53.3	-68.3	3.8	1.49e+00	0	43	104	0	77	21046
2026-01-24 22:13:35.41	125.75	8.81	-53.3	-68.3	3.8	1.49e+00	0	43	104	0	77	21055
2026-01-24 22:13:36.42	125.88	8.75	-53.3	-68.3	3.8	1.49e+00	0	43	104	0	77	21055
2026-01-24 22:13:37.42	126.00	8.69	-53.3	-68.3	3.8	1.49e+00	0	43	104	0	77	21057
2026-01-24 22:13:38.43	126.13	8.63	-53.3	-68.3	3.8	1.49e+00	0	43	104	0	77	21035
2026-01-24 22:13:39.44	126.25	8.58	-53.3	-68.3	3.8	1.49e+00	0	43	104	0	77	21069
2026-01-24 22:13:40.45	126.37	8.52	-53.3	-68.3	3.8	1.49e+00	0	43	104	0	77	21079
2026-01-24 22:13:41.45	126.50	8.46	-53.3	-68.3	3.8	1.49e+00	0	43	104	0	77	21078
2026-01-24 22:13:42.46	126.62	8.40	-53.3	-68.3	3.8	1.49e+00	0	43	104	0	77	21097
2026-01-24 22:13:43.47	126.74	8.35	-53.3	-68.3	3.8	1.49e+00	0	43	104	0	77	21042
2026-01-24 22:13:44.48	126.86	8.29	-53.3	-68.2	3.8	1.49e+00	0	43	104	0	77	20993
2026-01-24 22:13:45.49	126.98	8.23	-53.3	-68.3	3.8	1.49e+00	0	43	104	0	77	21055
2026-01-24 22:13:46.50	127.11	8.17	-53.3	-68.3	3.8	1.49e+00	0	43	104	0	77	21057
2026-01-24 22:13:47.50	127.23	8.12	-53.3	-68.3	3.8	1.49e+00	0	43	104	0	77	21057
2026-01-24 22:13:48.51	127.35	8.06	-53.3	-68.3	3.8	1.49e+00	0	43	104	0	77	21075
2026-01-24 22:13:49.52	127.47	8.00	-53.3	-68.3	3.8	1.49e+00	0	43	104	0	77	21025
2026-01-24 22:13:50.52	127.58	7.94	-53.3	-68.3	3.8	1.49e+00	0	43	104	0	77	21072
2026-01-24 22:13:51.53	127.70	7.89	-53.3	-68.3	3.8	1.49e+00	0	43	104	0	77	21037
2026-01-24 22:13:52.54	127.82	7.83	-53.3	-68.3	3.8	1.49e+00	0	43	104	0	77	21030
2026-01-24 22:13:53.55	127.94	7.77	-53.3	-68.3	3.8	1.49e+00	0	43	104	0	77	21058
2026-01-24 22:13:54.56	128.06	7.71	-53.3	-68.3	3.8	1.49e+00	0	43	104	0	77	21042
2026-01-24 22:13:55.56	128.17	7.66	-53.3	-68.3	3.8	1.49e+00	0	43	104	0	77	21071
2026-01-24 22:13:56.57	128.29	7.60	-53.3	-68.3	3.8	1.49e+00	0	43	104	0	77	21088
2026-01-24 22:13:57.58	128.40	7.54	-53.3	-68.3	3.8	1.49e+00	0	43	104	0	77	21091
2026-01-24 22:13:58.59	128.52	7.48	-53.3	-68.3	3.8	1.49e+00	0	43	104	0	77	21073
2026-01-24 22:13:59.60	128.64	7.43	-53.3	-68.3	3.8	1.49e+00	0	43	104	0	77	21059
2026-01-24 22:14:00.60	128.75	7.37	-53.3	-68.3	3.8	1.49e+00	0	43	104	0	77	21053
2026-01-24 22:14:01.61	128.86	7.31	-53.3	-68.3	3.8	1.49e+00	0	43	104	0	77	21047
2026-01-24 22:14:02.62	128.98	7.26	-53.3	-68.3	3.8	1.49e+00	0	43	104	0	77	21117
2026-01-24 22:14:03.63	129.09	7.20	-53.3	-68.3	3.8	1.49e+00	0	43	104	0	77	21068
2026-01-24 22:14:04.63	129.20	7.14	-53.3	-68.3	3.8	1.49e+00	0	43	104	0	77	21041
2026-01-24 22:14:05.64	129.32	7.09	-53.3	-68.3	3.8	1.49e+00	0	43	104	0	77	21052
2026-01-24 22:14:06.65	129.43	7.03	-53.3	-68.3	3.8	1.49e+00	0	43	104	0	77	21042
2026-01-24 22:14:07.66	129.54	6.97	-53.3	-68.3	3.8	1.49e+00	0	43	104	0	77	21112
2026-01-24 22:14:08.66	129.65	6.91	-53.3	-68.3	3.8	1.49e+00	0	43	104	0	77	21051
2026-01-24 22:14:09.67	129.76	6.86	-53.3	-68.3	3.8	1.49e+00	0	43	104	0	77	21049
2026-01-24 22:14:10.68	129.87	6.80	-53.3	-68.3	3.8	1.49e+00	0	43	104	0	77	21056
2026-01-24 22:14:11.69	129.98	6.74	-53.3	-68.3	3.8	1.49e+00	0	43	104	0	77	21037
2026-01-24 22:14:12.70	130.09	6.69	-53.3	-68.2	3.8	1.49e+00	0	43	104	0	77	20984
2026-01-24 22:14:13.70	130.20	6.63	-53.3	-68.3	3.8	1.49e+00	0	43	104	0	77	21069
2026-01-24 22:14:14.71	130.31	6.57	-53.3	-68.3	3.8	1.49e+00	0	43	104	0	77	21024
2026-01-24 22:14:15.72	130.42	6.52	-53.3	-68.2	3.8	1.49e+00	0	43	104	0	77	20979
2026-01-24 22:14:16.73	130.53	6.46	-53.3	-68.3	3.8	1.49e+00	0	43	104	0	77	21049
2026-01-24 22:14:17.73	130.63	6.40	-53.3	-68.3	3.8	1.49e+00	0	43	104	0	77	21047
2026-01-24 22:14:18.74	130.74	6.35	-53.3	-68.2	3.8	1.49e+00	0	43	104	0	77	20982
2026-01-24 22:14:19.75	130.85	6.29	-53.3	-68.3	3.8	1.49e+00	0	43	104	0	77	21055
2026-01-24 22:14:20.76	130.95	6.23	-53.3	-68.3	3.8	1.49e+00	0	43	104	0	77	21057
2026-01-24 22:14:21.77	131.06	6.18	-53.3	-68.3	3.8	1.49e+00	0	43	104	0	77	21100
2026-01-24 22:14:22.77	131.16	6.12	-53.3	-68.3	3.8	1.49e+00	0	43	104	0	77	21089
2026-01-24 22:14:23.78	131.27	6.07	-53.3	-68.3	3.8	1.49e+00	0	43	104	0	77	21057
2026-01-24 22:14:24.79	131.37	6.01	-53.3	-68.3	3.8	1.49e+00	0	43	104	0	77	21025
2026-01-24 22:14:25.79	131.48	5.95	-53.3	-68.2	3.8	1.49e+00	0	43	104	0	77	20986
2026-01-24 22:14:26.80	131.58	5.90	-53.3	-68.2	3.8	1.49e+00	0	43	104	0	77	20997
2026-01-24 22:14:27.81	131.69	5.84	-53.3	-68.2	3.8	1.49e+00	0	43	104	0	77	20996
2026-01-24 22:14:28.82	131.79	5.79	-53.3	-68.3	3.8	1.49e+00	0	43	104	0	77	21100
2026-01-24 22:14:29.83	131.89	5.73	-53.3	-68.3	3.8	1.49e+00	0	43	104	0	77	21064
2026-01-24 22:14:30.84	132.00	5.67	-53.3	-68.3	3.8	1.49e+00	0	43	104	0	77	21080
2026-01-24 22:14:31.84	132.10	5.62	-53.3	-68.3	3.8	1.49e+00	0	43	104	0	77	21054
2026-01-24 22:14:32.85	132.20	5.56	-53.3	-68.3	3.8	1.49e+00	0	43	104	0	77	21051
2026-01-24 22:14:33.86	132.30	5.51	-53.3	-68.2	3.8	1.49e+00	0	43	104	0	77	20999
2026-01-24 22:14:34.86	132.40	5.45	-53.3	-68.3	3.8	1.49e+00	0	43	104	0	77	21084
2026-01-24 22:14:35.87	132.50	5.39	-53.3	-68.3	3.8	1.49e+00	0	43	104	0	77	21042
2026-01-24 22:14:36.88	132.60	5.34	-53.3	-68.3	3.8	1.49e+00	0	43	104	0	77	21048
2026-01-24 22:14:37.88	132.70	5.28	-53.3	-68.3	3.8	1.49e+00	0	43	104	0	77	21051
2026-01-24 22:14:38.89	132.80	5.23	-53.3	-68.2	3.8	1.49e+00	0	43	104	0	77	20999
2026-01-24 22:14:39.90	132.90	5.17	-53.3	-68.3	3.8	1.49e+00	0	43	104	0	77	21075
2026-01-24 22:14:40.91	133.00	5.12	-53.3	-68.3	3.8	1.49e+00	0	43	104	0	77	21074
2026-01-24 22:14:41.92	133.10	5.06	-53.3	-68.3	3.8	1.49e+00	0	43	104	0	77	21031
2026-01-24 22:14:42.92	133.20	5.01	-53.3	-68.3	3.8	1.49e+00	0	43	104	0	77	21067
2026-01-24 22:14:43.93	133.29	4.95	-53.3	-68.3	3.8	1.49e+00	0	43	104	0	77	21077
2026-01-24 22:14:44.94	133.39	4.89	-53.3	-68.3	3.8	1.49e+00	0	43	104	0	77	21082
2026-01-24 22:14:45.95	133.49	4.84	-53.3	-68.3	3.8	1.49e+00	0	43	104	0	77	21101
2026-01-24 22:14:46.96	133.59	4.78	-53.3	-68.3	3.8	1.49e+00	0	43	104	0	77	21020
2026-01-24 22:14:47.96	133.68	4.73	-53.3	-68.3	3.8	1.49e+00	0	43	104	0	77	21045
2026-01-24 22:14:48.97	133.78	4.67	-53.3	-68.2	3.8	1.49e+00	0	43	104	0	77	20981
2026-01-24 22:14:49.98	133.87	4.62	-53.3	-68.3	3.8	1.49e+00	0	43	104	0	77	21027
2026-01-24 22:14:50.99	133.97	4.56	-53.3	-68.3	3.8	1.49e+00	0	43	104	0	77	21052
2026-01-24 22:14:52.00	134.06	4.51	-53.3	-68.3	3.8	1.49e+00	0	43	104	0	77	21067
2026-01-24 22:14:53.00	134.16	4.45	-53.3	-68.3	3.8	1.49e+00	0	43	104	0	77	21085
2026-01-24 22:14:54.01	134.25	4.40	-53.3	-68.2	3.8	1.49e+00	0	43	104	0	77	21008
2026-01-24 22:14:55.02	134.35	4.34	-53.3	-68.2	3.8	1.49e+00	0	43	104	0	77	20992
2026-01-24 22:14:56.03	134.44	4.29	-53.3	-68.2	3.8	1.49e+00	0	43	104	0	77	21011
2026-01-24 22:14:57.03	134.53	4.23	-53.3	-68.3	3.8	1.49e+00	0	43	104	0	77	21054
2026-01-24 22:14:58.04	134.63	4.18	-53.3	-68.3	3.8	1.49e+00	0	43	104	0	77	21060
2026-01-24 22:14:59.05	134.72	4.12	-53.3	-68.3	3.8	1.49e+00	0	43	104	0	77	21049
2026-01-24 22:15:00.05	134.81	4.07	-53.3	-68.3	3.8	1.49e+00	0	43	104	0	77	21073
2026-01-24 22:15:01.06	134.90	4.02	-53.3	-68.3	3.8	1.49e+00	0	43	104	0	77	21049
2026-01-24 22:15:02.07	134.99	3.96	-53.3	-68.2	3.8	1.49e+00	0	43	104	0	77	20999
2026-01-24 22:15:03.08	135.09	3.91	-53.3	-68.3	3.8	1.49e+00	0	43	104	0	77	21076
2026-01-24 22:15:04.08	135.18	3.85	-53.3	-68.3	3.8	1.49e+00	0	43	104	0	77	21056
2026-01-24 22:15:05.09	135.27	3.80	-53.3	-68.3	3.8	1.49e+00	0	43	104	0	77	21042
2026-01-24 22:15:06.10	135.36	3.74	-53.3	-68.3	3.8	1.49e+00	0	43	104	0	77	21081
2026-01-24 22:15:07.11	135.45	3.69	-53.3	-68.3	3.8	1.49e+00	0	43	104	0	77	21089
2026-01-24 22:15:08.12	135.54	3.64	-53.3	-68.2	3.8	1.49e+00	0	43	104	0	77	21007
2026-01-24 22:15:09.12	135.63	3.58	-53.3	-68.3	3.8	1.49e+00	0	43	104	0	77	21067
2026-01-24 22:15:10.13	135.72	3.53	-53.3	-68.3	3.8	1.49e+00	0	43	104	0	77	21052
2026-01-24 22:15:11.14	135.81	3.47	-53.3	-68.2	3.8	1.49e+00	0	43	104	0	77	21000
2026-01-24 22:15:12.14	135.89	3.42	-53.3	-68.3	3.8	1.49e+00	0	43	104	0	77	21030
2026-01-24 22:15:13.15	135.98	3.37	-53.3	-68.3	3.8	1.49e+00	0	43	104	0	77	21044
2026-01-24 22:15:14.16	136.07	3.31	-53.3	-68.3	3.8	1.49e+00	0	43	104	0	77	21026
2026-01-24 22:15:15.17	136.16	3.26	-53.3	-68.3	3.8	1.49e+00	0	43	104	0	77	21052
2026-01-24 22:15:16.18	136.25	3.20	-53.3	-68.3	3.8	1.49e+00	0	43	104	0	77	21093
2026-01-24 22:15:17.18	136.33	3.15	-53.3	-68.3	3.8	1.49e+00	0	43	104	0	77	21055
2026-01-24 22:15:18.19	136.42	3.10	-53.3	-68.3	3.8	1.49e+00	0	43	104	0	77	21060
2026-01-24 22:15:19.20	136.50	3.04	-53.3	-68.2	3.8	1.49e+00	0	43	104	0	77	21015
2026-01-24 22:15:20.21	136.59	2.99	-53.3	-68.3	3.8	1.49e+00	0	43	104	0	77	21090
2026-01-24 22:15:21.22	136.68	2.94	-53.3	-68.2	3.8	1.49e+00	0	43	104	0	77	21011
2026-01-24 22:15:22.22	136.76	2.88	-53.3	-68.3	3.8	1.49e+00	0	43	104	0	77	21033
2026-01-24 22:15:23.23	136.85	2.83	-53.3	-68.3	3.8	1.49e+00	0	43	104	0	77	21064
2026-01-24 22:15:24.24	136.93	2.78	-53.3	-68.3	3.8	1.49e+00	0	43	104	0	77	21070
2026-01-24 22:15:25.24	137.02	2.72	-53.3	-68.2	3.8	1.49e+00	0	43	104	0	77	21015
2026-01-24 22:15:26.25	137.10	2.67	-53.3	-68.3	3.8	1.49e+00	0	43	104	0	77	21069
2026-01-24 22:15:27.26	137.19	2.62	-53.3	-68.3	3.8	1.49e+00	0	43	104	0	77	21081
2026-01-24 22:15:28.27	137.27	2.56	-53.3	-68.3	3.8	1.49e+00	0	43	104	0	77	21049
2026-01-24 22:15:29.28	137.35	2.51	-53.3	-68.3	3.8	1.49e+00	0	43	104	0	77	21092
2026-01-24 22:15:30.28	137.44	2.46	-53.3	-68.3	3.8	1.49e+00	0	43	104	0	77	21038
2026-01-24 22:15:31.29	137.52	2.40	-53.3	-68.3	3.8	1.49e+00	0	43	104	0	77	21058
2026-01-24 22:15:32.30	137.60	2.35	-53.3	-68.3	3.8	1.49e+00	0	43	104	0	77	21106
2026-01-24 22:15:33.31	137.68	2.30	-53.3	-68.3	3.8	1.49e+00	0	43	104	0	77	21045
2026-01-24 22:15:34.31	137.76	2.25	-53.3	-68.3	3.8	1.49e+00	0	43	104	0	77	21037
2026-01-24 22:15:35.32	137.85	2.19	-53.3	-68.3	3.8	1.49e+00	0	43	104	0	77	21021
2026-01-24 22:15:36.33	137.93	2.14	-53.3	-68.3	3.8	1.49e+00	0	43	104	0	77	21049
2026-01-24 22:15:37.34	138.01	2.09	-53.3	-68.3	3.8	1.49e+00	0	43	104	0	77	21082
2026-01-24 22:15:38.35	138.09	2.03	-53.3	-68.3	3.8	1.49e+00	0	43	104	0	77	21031
2026-01-24 22:15:39.36	138.17	1.98	-53.3	-68.2	3.8	1.49e+00	0	43	104	0	77	21008
2026-01-24 22:15:40.36	138.25	1.93	-53.3	-68.3	3.8	1.49e+00	0	43	104	0	77	21083
2026-01-24 22:15:41.37	138.33	1.88	-53.3	-68.3	3.8	1.49e+00	0	43	104	0	77	21053

#Closed at: 2026-01-24 22:15:41
#Recorded file [0 MB]: D:/lorett/data/31041_260125_010315.dat