passes_logs/2026/01/24/R3.2S_Murmansk/R3.2S_Murmansk__20260124_082009_SUOMI_NPP_rec.log

#Pass ID: 20260124_082009_SUOMI NPP
#Satellite: SUOMI NPP
#Configuration: NPP
#almurnet v.1.7.20251203
#Start time: 2026-01-24 08:20:10

#Version: 2.2.20231116
#Station: R3.2S_Murmansk
#Location: 33.079688 lon 68.888172 lat
#TLE: 1 37849U 11061A   26023.63275593  .00000212  00000+0  12133-3 0  9990
#TLE: 2 37849  98.7820 325.6074 0002234  48.9695 311.1673 14.19528901737937

#Time	Az	El	Level	Level2	SNR	BER	BlckErr	Temp	State	Recorded	gain1	gain2
2026-01-24 08:20:10.03	122.13	2.05	-51.6	-66.6	3.8	1.49e+00	0	41	0	0	75	19585
2026-01-24 08:20:11.03	122.11	2.11	-51.6	-66.6	3.8	1.49e+00	0	41	104	0	73	21964
2026-01-24 08:20:12.04	122.08	2.18	-51.6	-66.6	3.8	1.49e+00	0	41	104	0	73	21912
2026-01-24 08:20:13.05	122.05	2.24	-51.6	-66.6	3.8	1.49e+00	0	41	104	0	73	21886
2026-01-24 08:20:14.05	122.02	2.30	-51.6	-66.6	3.8	1.49e+00	0	41	104	0	73	21862
2026-01-24 08:20:15.06	121.99	2.37	-51.6	-66.6	3.8	1.49e+00	0	41	104	0	73	21893
2026-01-24 08:20:16.07	121.96	2.43	-51.6	-66.6	3.8	1.49e+00	0	41	104	0	73	21819
2026-01-24 08:20:17.08	121.93	2.50	-51.6	-66.6	3.8	1.49e+00	0	41	104	0	73	21899
2026-01-24 08:20:18.09	121.90	2.56	-51.6	-66.6	3.8	1.49e+00	0	41	104	0	73	21856
2026-01-24 08:20:19.09	121.87	2.63	-51.6	-66.6	3.8	1.49e+00	0	41	104	0	73	21871
2026-01-24 08:20:20.10	121.84	2.69	-51.6	-66.6	3.8	1.49e+00	0	41	104	0	73	21885
2026-01-24 08:20:21.11	121.81	2.76	-51.6	-66.6	3.8	1.49e+00	0	41	104	0	73	21888
2026-01-24 08:20:22.12	121.78	2.82	-51.6	-66.6	3.8	1.49e+00	0	42	104	0	73	21869
2026-01-24 08:20:23.13	121.75	2.89	-51.6	-66.6	3.8	1.49e+00	0	42	104	0	73	21860
2026-01-24 08:20:24.14	121.72	2.95	-51.6	-66.6	3.8	1.49e+00	0	41	104	0	73	21869
2026-01-24 08:20:25.15	121.69	3.02	-51.6	-66.6	3.8	1.49e+00	0	42	104	0	73	21832
2026-01-24 08:20:26.16	121.66	3.08	-51.6	-66.6	3.8	1.49e+00	0	42	104	0	73	21837
2026-01-24 08:20:27.17	121.63	3.15	-51.6	-66.5	3.8	1.49e+00	0	42	104	0	73	21711
2026-01-24 08:20:28.17	121.60	3.21	-51.6	-66.5	3.8	1.49e+00	0	42	104	0	73	21638
2026-01-24 08:20:29.18	121.57	3.28	-51.6	-66.4	3.8	1.49e+00	0	42	104	0	73	21469
2026-01-24 08:20:30.19	121.54	3.35	-51.6	-66.4	3.8	1.49e+00	0	42	104	0	73	21395
2026-01-24 08:20:31.20	121.51	3.41	-51.6	-66.3	3.8	1.49e+00	0	42	104	0	73	21234
2026-01-24 08:20:32.21	121.48	3.48	-51.6	-66.2	3.8	1.49e+00	0	42	104	0	73	20934
2026-01-24 08:20:33.22	121.45	3.55	-51.6	-66.0	3.8	1.49e+00	0	42	104	0	73	20521
2026-01-24 08:20:34.23	121.41	3.61	-51.6	-66.0	3.8	1.49e+00	0	42	104	0	73	20404
2026-01-24 08:20:35.23	121.38	3.68	-51.6	-66.0	3.8	1.49e+00	0	42	104	0	73	20382
2026-01-24 08:20:36.24	121.35	3.75	-51.6	-66.0	3.8	1.49e+00	0	42	104	0	73	20417
2026-01-24 08:20:37.25	121.32	3.81	-51.6	-65.9	3.8	1.49e+00	0	42	104	0	73	20264
2026-01-24 08:20:38.26	121.28	3.88	-51.6	-66.0	3.8	1.49e+00	0	42	104	0	73	20358
2026-01-24 08:20:39.27	121.25	3.95	-51.5	-64.9	3.8	1.49e+00	0	42	104	0	73	17962
2026-01-24 08:20:40.28	121.22	4.02	-51.4	-63.2	4.2	1.49e+00	0	42	104	0	73	14743
2026-01-24 08:20:41.29	121.19	4.09	-51.2	-60.8	5.1	8.38e-01	0	42	0	1048576	73	11176
2026-01-24 08:20:42.29	121.15	4.15	-50.8	-57.9	7.3	3.64e-01	0	42	0	2097152	73	8068
2026-01-24 08:20:43.30	121.12	4.22	-50.4	-56.4	8.9	6.44e-02	0	42	0	4194304	72	7132
2026-01-24 08:20:44.31	121.09	4.29	-49.5	-53.6	11.9	1.46e-03	0	42	0	6291456	70	5854
2026-01-24 08:20:45.32	121.05	4.36	-49.1	-52.8	12.7	2.87e-04	0	42	0	8388608	70	5288
2026-01-24 08:20:46.33	121.02	4.43	-48.0	-50.9	14.6	6.10e-06	0	42	0	10485760	68	4783
2026-01-24 08:20:47.34	120.99	4.50	-47.6	-50.2	15.2	0.00e+00	0	42	0	11534336	67	4686
2026-01-24 08:20:48.34	120.95	4.57	-47.5	-50.0	15.5	0.00e+00	0	42	0	13631488	66	4842
2026-01-24 08:20:49.35	120.92	4.63	-46.9	-49.2	16.2	0.00e+00	0	42	0	15728640	65	4665
2026-01-24 08:20:50.36	120.88	4.70	-46.7	-48.8	16.5	0.00e+00	0	42	0	17825792	65	4487
2026-01-24 08:20:51.37	120.85	4.77	-46.7	-48.9	16.5	0.00e+00	0	42	0	19922944	64	4806
2026-01-24 08:20:52.38	120.81	4.84	-46.4	-48.5	16.9	0.00e+00	0	42	0	20971520	64	4554
2026-01-24 08:20:53.38	120.78	4.91	-46.8	-49.1	16.4	0.00e+00	0	42	0	23068672	64	4897
2026-01-24 08:20:54.39	120.74	4.98	-47.1	-49.6	15.9	0.00e+00	0	42	0	25165824	64	5165
2026-01-24 08:20:55.40	120.71	5.05	-47.3	-49.8	15.7	0.00e+00	0	42	0	27262976	65	4995
2026-01-24 08:20:56.41	120.67	5.12	-47.1	-49.4	16.1	0.00e+00	0	42	0	29360128	65	4808
2026-01-24 08:20:57.41	120.64	5.19	-46.6	-48.7	16.9	0.00e+00	0	42	0	30408704	65	4421
2026-01-24 08:20:58.42	120.60	5.27	-49.5	-53.7	11.7	1.13e-01	0	42	0	32505856	71	5563
2026-01-24 08:20:59.43	120.56	5.34	-46.4	-48.4	17.3	7.00e-07	0	42	0	34603008	64	4496
2026-01-24 08:21:00.44	120.53	5.41	-47.6	-50.1	15.3	5.72e-05	0	42	0	36700160	67	4621
2026-01-24 08:21:01.45	120.49	5.48	-46.0	-47.8	17.8	0.00e+00	0	42	0	38797312	64	4226
2026-01-24 08:21:02.45	120.46	5.55	-46.4	-48.4	17.3	0.00e+00	0	42	0	39845888	64	4514
2026-01-24 08:21:03.46	120.42	5.62	-46.3	-48.1	17.5	0.00e+00	0	42	0	41943040	64	4374
2026-01-24 08:21:04.47	120.38	5.69	-46.3	-48.2	17.5	0.00e+00	0	42	0	44040192	64	4423
2026-01-24 08:21:05.48	120.34	5.77	-46.9	-49.0	16.7	0.00e+00	0	42	0	46137344	64	4829
2026-01-24 08:21:06.49	120.31	5.84	-46.1	-47.9	17.8	0.00e+00	0	42	0	48234496	64	4290
2026-01-24 08:21:07.49	120.27	5.91	-46.3	-48.1	17.6	0.00e+00	0	42	0	49283072	64	4375
2026-01-24 08:21:08.50	120.23	5.98	-46.3	-48.1	17.6	0.00e+00	0	42	0	51380224	64	4377
2026-01-24 08:21:09.51	120.19	6.06	-46.5	-48.4	17.4	0.00e+00	0	42	0	53477376	64	4514
2026-01-24 08:21:10.52	120.15	6.13	-46.1	-47.9	17.9	0.00e+00	0	42	0	55574528	64	4280
2026-01-24 08:21:11.52	120.12	6.20	-46.5	-48.4	17.5	0.00e+00	0	42	0	57671680	64	4527
2026-01-24 08:21:12.53	120.08	6.28	-46.5	-48.4	17.5	0.00e+00	0	43	0	59768832	64	4525
2026-01-24 08:21:13.54	120.04	6.35	-46.2	-48.1	17.8	0.00e+00	0	42	0	60817408	64	4358
2026-01-24 08:21:14.55	120.00	6.42	-46.2	-48.1	17.8	0.00e+00	0	42	0	62914560	64	4345
2026-01-24 08:21:15.56	119.96	6.50	-46.4	-48.3	17.5	0.00e+00	0	42	0	65011712	64	4490
2026-01-24 08:21:16.57	119.92	6.57	-46.2	-48.1	17.8	0.00e+00	0	43	0	67108864	64	4350
2026-01-24 08:21:17.57	119.88	6.65	-46.2	-48.0	17.9	0.00e+00	0	43	0	68157440	64	4305
2026-01-24 08:21:18.58	119.84	6.72	-46.3	-48.2	17.8	0.00e+00	0	42	0	70254592	64	4399
2026-01-24 08:21:19.59	119.80	6.80	-46.4	-48.2	17.7	0.00e+00	0	42	0	72351744	64	4416
2026-01-24 08:21:20.60	119.76	6.87	-46.3	-48.1	17.8	0.00e+00	0	42	0	74448896	64	4359
2026-01-24 08:21:21.61	119.72	6.95	-46.1	-47.9	18.0	0.00e+00	0	42	0	76546048	64	4265
2026-01-24 08:21:22.61	119.68	7.02	-46.4	-48.2	17.7	0.00e+00	0	42	0	77594624	64	4408
2026-01-24 08:21:23.62	119.64	7.10	-46.2	-48.0	18.0	0.00e+00	0	42	0	79691776	64	4306
2026-01-24 08:21:24.63	119.60	7.17	-46.1	-47.8	18.2	0.00e+00	0	42	0	81788928	64	4217
2026-01-24 08:21:25.63	119.55	7.25	-46.1	-47.8	18.2	0.00e+00	0	43	0	83886080	64	4216
2026-01-24 08:21:26.64	119.51	7.32	-46.2	-48.0	18.0	0.00e+00	0	43	0	85983232	64	4308
2026-01-24 08:21:27.65	119.47	7.40	-46.3	-48.1	17.9	0.00e+00	0	43	0	88080384	64	4377
2026-01-24 08:21:28.66	119.43	7.48	-46.2	-48.0	18.0	0.00e+00	0	43	0	89128960	64	4332
2026-01-24 08:21:29.67	119.38	7.56	-46.4	-48.2	17.8	0.00e+00	0	43	0	91226112	64	4399
2026-01-24 08:21:30.67	119.34	7.63	-46.5	-48.3	17.7	0.00e+00	0	43	0	93323264	64	4459
2026-01-24 08:21:31.68	119.30	7.71	-46.3	-48.1	18.0	0.00e+00	0	43	0	95420416	64	4352
2026-01-24 08:21:32.68	119.26	7.79	-46.1	-47.8	18.3	0.00e+00	0	42	0	96468992	64	4214
2026-01-24 08:21:33.69	119.21	7.86	-46.0	-47.6	18.6	0.00e+00	0	42	0	98566144	63	4365
2026-01-24 08:21:34.70	119.17	7.94	-46.3	-48.0	18.2	0.00e+00	0	42	0	100663296	63	4561
2026-01-24 08:21:35.71	119.12	8.02	-46.1	-47.8	18.5	0.00e+00	0	43	0	102760448	63	4456
2026-01-24 08:21:36.72	119.08	8.10	-46.0	-47.7	18.5	0.00e+00	0	43	0	104857600	63	4405
2026-01-24 08:21:37.73	119.04	8.18	-46.1	-47.8	18.4	0.00e+00	0	43	0	105906176	63	4470
2026-01-24 08:21:38.73	118.99	8.26	-46.4	-48.1	18.1	0.00e+00	0	43	0	108003328	63	4635
2026-01-24 08:21:39.74	118.95	8.34	-46.1	-47.7	18.5	0.00e+00	0	43	0	110100480	63	4427
2026-01-24 08:21:40.75	118.90	8.42	-46.3	-48.1	18.2	0.00e+00	0	43	0	112197632	63	4603
2026-01-24 08:21:41.76	118.85	8.49	-46.1	-47.7	18.6	0.00e+00	0	43	0	114294784	63	4439
2026-01-24 08:21:42.76	118.81	8.57	-46.1	-47.8	18.5	0.00e+00	0	43	0	116391936	63	4454
2026-01-24 08:21:43.77	118.76	8.65	-46.1	-47.8	18.6	0.00e+00	0	43	0	117440512	63	4460
2026-01-24 08:21:44.78	118.72	8.73	-46.3	-48.0	18.4	0.00e+00	0	43	0	119537664	63	4555
2026-01-24 08:21:45.79	118.67	8.82	-46.0	-47.6	18.7	0.00e+00	0	43	0	121634816	63	4389
2026-01-24 08:21:46.79	118.62	8.90	-46.0	-47.6	18.8	0.00e+00	0	43	0	123731968	63	4341
2026-01-24 08:21:47.80	118.58	8.98	-45.9	-47.5	18.8	0.00e+00	0	43	0	124780544	63	4306
2026-01-24 08:21:48.81	118.53	9.06	-45.9	-47.5	18.9	0.00e+00	0	43	0	126877696	63	4294
2026-01-24 08:21:49.82	118.48	9.14	-46.0	-47.6	18.8	0.00e+00	0	43	0	128974848	63	4352
2026-01-24 08:21:50.83	118.43	9.22	-46.0	-47.6	18.8	0.00e+00	0	43	0	131072000	63	4351
2026-01-24 08:21:51.84	118.38	9.30	-46.1	-47.7	18.7	0.00e+00	0	43	0	133169152	63	4406
2026-01-24 08:21:52.85	118.33	9.39	-46.0	-47.6	18.8	0.00e+00	0	43	0	135266304	63	4363
2026-01-24 08:21:53.85	118.29	9.47	-46.0	-47.6	18.8	0.00e+00	0	43	0	136314880	63	4366
2026-01-24 08:21:54.86	118.24	9.55	-46.0	-47.6	18.8	0.00e+00	0	43	0	138412032	63	4372
2026-01-24 08:21:55.87	118.19	9.63	-45.9	-47.5	19.0	0.00e+00	0	43	0	140509184	63	4299
2026-01-24 08:21:56.88	118.14	9.72	-46.0	-47.6	18.9	0.00e+00	0	43	0	142606336	63	4359
2026-01-24 08:21:57.89	118.09	9.80	-45.8	-47.3	19.1	0.00e+00	0	43	0	144703488	63	4235
2026-01-24 08:21:58.90	118.04	9.89	-45.8	-47.3	19.1	0.00e+00	0	43	0	145752064	63	4228
2026-01-24 08:21:59.91	117.99	9.97	-45.7	-47.2	19.2	0.00e+00	0	43	0	147849216	63	4171
2026-01-24 08:22:00.91	117.93	10.05	-45.8	-47.3	19.2	0.00e+00	0	43	0	149946368	63	4208
2026-01-24 08:22:01.92	117.88	10.14	-45.7	-47.1	19.3	0.00e+00	0	43	0	152043520	63	4135
2026-01-24 08:22:02.93	117.83	10.22	-45.8	-47.3	19.2	0.00e+00	0	43	0	154140672	63	4207
2026-01-24 08:22:03.94	117.78	10.31	-45.7	-47.2	19.2	0.00e+00	0	43	0	155189248	63	4166
2026-01-24 08:22:04.95	117.73	10.39	-45.9	-47.4	19.0	0.00e+00	0	43	0	157286400	63	4280
2026-01-24 08:22:05.96	117.67	10.48	-45.9	-47.5	19.0	0.00e+00	0	43	0	159383552	63	4314
2026-01-24 08:22:06.97	117.62	10.57	-45.9	-47.5	19.1	0.00e+00	0	43	0	161480704	63	4293
2026-01-24 08:22:07.98	117.57	10.65	-45.8	-47.3	19.2	0.00e+00	0	43	0	163577856	63	4206
2026-01-24 08:22:08.98	117.51	10.74	-46.1	-47.7	18.8	0.00e+00	0	43	0	164626432	63	4435
2026-01-24 08:22:09.99	117.46	10.82	-45.8	-47.4	19.2	0.00e+00	0	43	0	166723584	63	4245
2026-01-24 08:22:11.00	117.41	10.91	-45.8	-47.3	19.2	0.00e+00	0	43	0	168820736	63	4212
2026-01-24 08:22:12.01	117.35	11.00	-45.7	-47.2	19.3	0.00e+00	0	43	0	170917888	63	4163
2026-01-24 08:22:13.01	117.30	11.09	-45.6	-47.0	19.5	0.00e+00	0	43	0	173015040	63	4095
2026-01-24 08:22:14.02	117.24	11.17	-45.6	-47.0	19.5	0.00e+00	0	43	0	174063616	63	4069
2026-01-24 08:22:15.03	117.18	11.26	-45.6	-47.0	19.5	0.00e+00	0	43	0	176160768	62	4323
2026-01-24 08:22:16.04	117.13	11.35	-45.5	-47.0	19.6	0.00e+00	0	43	0	178257920	62	4296
2026-01-24 08:22:17.05	117.07	11.44	-45.5	-47.0	19.5	0.00e+00	0	43	0	180355072	62	4296
2026-01-24 08:22:18.05	117.02	11.53	-45.5	-46.9	19.5	0.00e+00	0	43	0	182452224	62	4280
2026-01-24 08:22:19.06	116.96	11.62	-45.7	-47.3	19.2	0.00e+00	0	43	0	183500800	62	4459
2026-01-24 08:22:20.07	116.90	11.71	-45.7	-47.3	19.2	0.00e+00	0	43	0	185597952	62	4447
2026-01-24 08:22:21.08	116.84	11.80	-45.6	-47.2	19.3	0.00e+00	0	43	0	187695104	62	4404
2026-01-24 08:22:22.09	116.78	11.89	-45.9	-47.5	19.0	0.00e+00	0	43	0	189792256	62	4590
2026-01-24 08:22:23.10	116.73	11.98	-45.7	-47.2	19.2	0.00e+00	0	43	0	191889408	62	4432
2026-01-24 08:22:24.11	116.67	12.07	-45.5	-47.0	19.5	0.00e+00	0	43	0	192937984	62	4336
2026-01-24 08:22:25.12	116.61	12.16	-45.5	-47.1	19.5	0.00e+00	0	43	0	195035136	62	4348
2026-01-24 08:22:26.13	116.55	12.25	-45.5	-47.0	19.5	0.00e+00	0	43	0	197132288	62	4333
2026-01-24 08:22:27.13	116.49	12.34	-45.2	-46.6	19.8	0.00e+00	0	43	0	199229440	62	4132
2026-01-24 08:22:28.14	116.43	12.44	-45.4	-46.9	19.7	0.00e+00	0	43	0	201326592	62	4244
2026-01-24 08:22:29.15	116.36	12.53	-45.2	-46.7	19.8	0.00e+00	0	43	0	202375168	62	4146
2026-01-24 08:22:30.16	116.30	12.62	-45.3	-46.8	19.7	0.00e+00	0	43	0	204472320	62	4204
2026-01-24 08:22:31.17	116.24	12.72	-45.5	-47.0	19.5	0.00e+00	0	43	0	206569472	62	4293
2026-01-24 08:22:32.18	116.18	12.81	-45.5	-47.1	19.4	0.00e+00	0	43	0	208666624	62	4364
2026-01-24 08:22:33.19	116.12	12.90	-45.6	-47.1	19.4	0.00e+00	0	43	0	210763776	62	4383
2026-01-24 08:22:34.19	116.05	13.00	-45.6	-47.2	19.4	0.00e+00	0	43	0	211812352	62	4413
2026-01-24 08:22:35.20	115.99	13.09	-45.6	-47.2	19.4	0.00e+00	0	43	0	213909504	62	4422
2026-01-24 08:22:36.21	115.93	13.19	-45.6	-47.2	19.4	0.00e+00	0	43	0	216006656	62	4403
2026-01-24 08:22:37.22	115.86	13.28	-45.3	-46.8	19.8	0.00e+00	0	43	0	218103808	62	4207
2026-01-24 08:22:38.23	115.80	13.38	-45.6	-47.1	19.5	0.00e+00	0	43	0	220200960	62	4370
2026-01-24 08:22:39.23	115.73	13.47	-45.5	-47.0	19.6	0.00e+00	0	43	0	222298112	62	4322
2026-01-24 08:22:40.24	115.67	13.57	-45.4	-46.9	19.7	0.00e+00	0	43	0	223346688	62	4248
2026-01-24 08:22:41.25	115.60	13.66	-45.4	-46.8	19.7	0.00e+00	0	43	0	225443840	62	4239
2026-01-24 08:22:42.26	115.53	13.76	-45.5	-47.1	19.4	0.00e+00	0	43	0	227540992	62	4363
2026-01-24 08:22:43.27	115.46	13.86	-45.5	-47.0	19.6	0.00e+00	0	43	0	229638144	62	4327
2026-01-24 08:22:44.27	115.40	13.95	-45.6	-47.1	19.4	0.00e+00	0	43	0	230686720	62	4391
2026-01-24 08:22:45.28	115.33	14.05	-45.5	-47.1	19.5	0.00e+00	0	43	0	232783872	62	4352
2026-01-24 08:22:46.29	115.26	14.15	-45.8	-47.4	19.3	0.00e+00	0	43	0	234881024	62	4494
2026-01-24 08:22:47.30	115.19	14.25	-45.5	-47.1	19.5	0.00e+00	0	43	0	236978176	62	4348
2026-01-24 08:22:48.31	115.12	14.35	-45.6	-47.2	19.4	0.00e+00	0	43	0	239075328	62	4408
2026-01-24 08:22:49.31	115.05	14.45	-45.3	-46.8	19.8	0.00e+00	0	43	0	240123904	62	4209
2026-01-24 08:22:50.32	114.98	14.55	-45.2	-46.6	19.9	0.00e+00	0	43	0	242221056	62	4125
2026-01-24 08:22:51.33	114.91	14.65	-45.2	-46.6	20.0	0.00e+00	0	43	0	244318208	62	4125
2026-01-24 08:22:52.34	114.84	14.75	-45.1	-46.5	20.1	0.00e+00	0	43	0	246415360	62	4080
2026-01-24 08:22:53.35	114.77	14.85	-45.1	-46.5	20.1	0.00e+00	0	43	0	248512512	62	4063
2026-01-24 08:22:54.35	114.70	14.95	-45.0	-46.4	20.2	0.00e+00	0	43	0	250609664	61	4256
2026-01-24 08:22:55.36	114.62	15.05	-45.0	-46.4	20.1	0.00e+00	0	43	0	251658240	61	4287
2026-01-24 08:22:56.37	114.55	15.15	-45.0	-46.5	20.1	0.00e+00	0	43	0	253755392	61	4295
2026-01-24 08:22:57.38	114.48	15.25	-45.1	-46.5	20.1	0.00e+00	0	43	0	255852544	61	4308
2026-01-24 08:22:58.39	114.40	15.36	-45.2	-46.6	20.0	0.00e+00	0	43	0	257949696	61	4363
2026-01-24 08:22:59.40	114.33	15.46	-45.3	-46.8	19.8	0.00e+00	0	43	0	258998272	61	4475
2026-01-24 08:23:00.41	114.25	15.56	-45.3	-46.8	19.8	0.00e+00	0	43	0	261095424	61	4481
2026-01-24 08:23:01.42	114.17	15.67	-45.3	-46.8	19.8	0.00e+00	0	43	0	263192576	61	4477
2026-01-24 08:23:02.43	114.10	15.77	-45.3	-46.7	19.9	0.00e+00	0	43	0	265289728	61	4414
2026-01-24 08:23:03.44	114.02	15.88	-45.2	-46.6	20.0	0.00e+00	0	43	0	267386880	61	4371
2026-01-24 08:23:04.45	113.94	15.98	-45.2	-46.6	20.1	0.00e+00	0	43	0	269484032	61	4370
2026-01-24 08:23:05.46	113.86	16.09	-45.1	-46.5	20.1	0.00e+00	0	43	0	270532608	61	4331
2026-01-24 08:23:06.47	113.78	16.19	-45.1	-46.5	20.2	0.00e+00	0	43	0	272629760	61	4298
2026-01-24 08:23:07.47	113.70	16.30	-45.2	-46.7	20.0	0.00e+00	0	43	0	274726912	61	4401
2026-01-24 08:23:08.48	113.62	16.40	-45.2	-46.6	20.1	0.00e+00	0	43	0	276824064	61	4358
2026-01-24 08:23:09.49	113.54	16.51	-45.3	-46.7	20.0	0.00e+00	0	43	0	278921216	61	4434
2026-01-24 08:23:10.50	113.46	16.62	-45.3	-46.8	19.9	0.00e+00	0	43	0	279969792	61	4471
2026-01-24 08:23:11.51	113.38	16.73	-45.2	-46.6	20.1	0.00e+00	0	43	0	282066944	61	4364
2026-01-24 08:23:12.52	113.30	16.83	-45.1	-46.5	20.1	0.00e+00	0	43	0	284164096	61	4324
2026-01-24 08:23:13.53	113.21	16.94	-45.0	-46.4	20.3	0.00e+00	0	43	0	286261248	61	4255
2026-01-24 08:23:14.53	113.13	17.05	-44.6	-45.9	20.8	0.00e+00	0	43	0	288358400	61	4006
2026-01-24 08:23:15.54	113.05	17.16	-44.8	-46.1	20.5	0.00e+00	0	43	0	289406976	61	4111
2026-01-24 08:23:16.55	112.96	17.27	-44.8	-46.1	20.5	0.00e+00	0	43	0	291504128	61	4142
2026-01-24 08:23:17.56	112.88	17.38	-44.8	-46.1	20.5	0.00e+00	0	43	0	293601280	61	4115
2026-01-24 08:23:18.57	112.79	17.49	-44.7	-46.0	20.6	0.00e+00	0	43	0	295698432	61	4066
2026-01-24 08:23:19.58	112.70	17.60	-44.9	-46.3	20.4	0.00e+00	0	43	0	297795584	61	4217
2026-01-24 08:23:20.59	112.61	17.71	-45.0	-46.3	20.3	0.00e+00	0	43	0	298844160	61	4234
2026-01-24 08:23:21.59	112.53	17.82	-44.9	-46.3	20.4	0.00e+00	0	43	0	300941312	61	4209
2026-01-24 08:23:22.60	112.44	17.94	-45.0	-46.3	20.3	0.00e+00	0	43	0	303038464	61	4237
2026-01-24 08:23:23.61	112.35	18.05	-45.2	-46.6	20.1	0.00e+00	0	43	0	305135616	61	4390
2026-01-24 08:23:24.62	112.26	18.16	-44.9	-46.2	20.5	0.00e+00	0	43	0	307232768	61	4170
2026-01-24 08:23:25.62	112.17	18.28	-44.9	-46.3	20.4	0.00e+00	0	43	0	308281344	61	4208
2026-01-24 08:23:26.63	112.07	18.39	-44.9	-46.3	20.4	0.00e+00	0	43	0	310378496	61	4221
2026-01-24 08:23:27.64	111.98	18.51	-45.0	-46.4	20.3	0.00e+00	0	43	0	312475648	61	4261
2026-01-24 08:23:28.65	111.89	18.62	-45.1	-46.5	20.2	0.00e+00	0	43	0	314572800	61	4318
2026-01-24 08:23:29.66	111.79	18.74	-45.2	-46.6	20.1	0.00e+00	0	43	0	316669952	61	4385
2026-01-24 08:23:30.66	111.70	18.85	-45.5	-46.9	19.8	0.00e+00	0	43	0	317718528	61	4534
2026-01-24 08:23:31.68	111.60	18.97	-45.4	-46.8	19.9	0.00e+00	0	43	0	319815680	61	4483
2026-01-24 08:23:32.68	111.51	19.09	-45.5	-47.0	19.8	0.00e+00	0	43	0	321912832	61	4566
2026-01-24 08:23:33.69	111.41	19.20	-45.4	-46.8	19.9	0.00e+00	0	43	0	324009984	61	4487
2026-01-24 08:23:34.70	111.31	19.32	-45.4	-46.9	19.9	0.00e+00	0	43	0	326107136	61	4511
2026-01-24 08:23:35.71	111.21	19.44	-45.6	-47.1	19.7	0.00e+00	0	43	0	327155712	61	4625
2026-01-24 08:23:36.72	111.12	19.56	-45.6	-47.0	19.7	0.00e+00	0	43	0	329252864	61	4595
2026-01-24 08:23:37.73	111.01	19.68	-45.6	-47.1	19.7	0.00e+00	0	43	0	331350016	61	4621
2026-01-24 08:23:38.74	110.91	19.80	-45.7	-47.2	19.6	0.00e+00	0	43	0	333447168	62	4397
2026-01-24 08:23:39.75	110.81	19.92	-45.7	-47.1	19.7	0.00e+00	0	43	0	335544320	62	4390
2026-01-24 08:23:40.75	110.71	20.04	-46.2	-47.8	19.3	0.00e+00	0	43	0	337641472	62	4714
2026-01-24 08:23:41.76	110.61	20.16	-46.2	-47.8	19.2	0.00e+00	0	43	0	338690048	63	4457
2026-01-24 08:23:42.77	110.50	20.28	-45.9	-47.5	19.4	0.00e+00	0	43	0	340787200	63	4310
2026-01-24 08:23:43.78	110.40	20.40	-46.0	-47.6	19.3	0.00e+00	0	43	0	342884352	63	4346
2026-01-24 08:23:44.79	110.29	20.53	-46.0	-47.6	19.3	0.00e+00	0	43	0	344981504	63	4366
2026-01-24 08:23:45.79	110.18	20.65	-46.1	-47.6	19.3	0.00e+00	0	43	0	346030080	63	4370
2026-01-24 08:23:46.80	110.08	20.77	-45.8	-47.2	19.6	0.00e+00	0	43	0	348127232	63	4193
2026-01-24 08:23:47.81	109.97	20.90	-45.8	-47.3	19.6	0.00e+00	0	43	0	350224384	63	4231
2026-01-24 08:23:48.82	109.86	21.02	-45.8	-47.2	19.7	0.00e+00	0	43	0	352321536	63	4174
2026-01-24 08:23:49.83	109.75	21.15	-45.8	-47.3	19.6	0.00e+00	0	43	0	354418688	63	4210
2026-01-24 08:23:50.84	109.64	21.27	-45.8	-47.2	19.7	0.00e+00	0	43	0	356515840	63	4191
2026-01-24 08:23:51.84	109.52	21.40	-45.8	-47.3	19.6	0.00e+00	0	43	0	357564416	63	4212
2026-01-24 08:23:52.85	109.41	21.52	-45.5	-46.9	19.9	0.00e+00	0	43	0	359661568	63	4049
2026-01-24 08:23:53.86	109.30	21.65	-45.4	-46.7	20.1	0.00e+00	0	43	0	361758720	62	4178
2026-01-24 08:23:54.87	109.18	21.78	-45.4	-46.8	20.1	0.00e+00	0	43	0	363855872	62	4195
2026-01-24 08:23:55.88	109.07	21.91	-45.3	-46.7	20.2	0.00e+00	0	43	0	365953024	62	4155
2026-01-24 08:23:56.89	108.95	22.04	-45.4	-46.8	20.1	0.00e+00	0	43	0	367001600	62	4206
2026-01-24 08:23:57.89	108.83	22.16	-45.7	-47.2	19.7	0.00e+00	0	43	0	369098752	62	4404
2026-01-24 08:23:58.90	108.71	22.29	-45.8	-47.3	19.6	0.00e+00	0	43	0	371195904	62	4459
2026-01-24 08:23:59.91	108.59	22.42	-46.1	-47.7	19.2	0.00e+00	0	43	0	373293056	62	4689
2026-01-24 08:24:00.92	108.47	22.56	-46.1	-47.7	19.2	0.00e+00	0	43	0	374341632	63	4406
2026-01-24 08:24:01.92	108.35	22.69	-46.1	-47.7	19.2	0.00e+00	0	43	0	376438784	63	4401
2026-01-24 08:24:02.93	108.23	22.82	-46.2	-47.8	19.1	0.00e+00	0	43	0	378535936	63	4485
2026-01-24 08:24:03.94	108.10	22.95	-46.2	-47.8	19.1	0.00e+00	0	43	0	380633088	63	4458
2026-01-24 08:24:04.95	107.97	23.08	-46.6	-48.3	18.7	0.00e+00	0	43	0	382730240	63	4728
2026-01-24 08:24:05.96	107.85	23.22	-46.8	-48.6	18.3	0.00e+00	0	43	0	384827392	64	4635
2026-01-24 08:24:06.96	107.72	23.35	-46.9	-48.7	18.1	0.00e+00	0	43	0	385875968	64	4683
2026-01-24 08:24:07.97	107.59	23.48	-46.7	-48.5	18.4	0.00e+00	0	43	0	387973120	64	4548
2026-01-24 08:24:08.98	107.46	23.62	-46.7	-48.5	18.4	0.00e+00	0	43	0	390070272	64	4565
2026-01-24 08:24:09.99	107.33	23.76	-46.2	-47.9	18.9	0.00e+00	0	43	0	392167424	64	4276
2026-01-24 08:24:11.00	107.20	23.89	-46.5	-48.2	18.8	0.00e+00	0	43	0	394264576	63	4696
2026-01-24 08:24:12.00	107.07	24.03	-46.1	-47.6	19.3	0.00e+00	0	43	0	395313152	63	4391
2026-01-24 08:24:13.01	106.93	24.16	-46.3	-47.9	19.1	0.00e+00	0	43	0	397410304	63	4545
2026-01-24 08:24:14.02	106.80	24.30	-46.1	-47.8	19.2	0.00e+00	0	43	0	399507456	63	4443
2026-01-24 08:24:15.02	106.66	24.44	-46.4	-48.1	18.9	0.00e+00	0	43	0	401604608	63	4599
2026-01-24 08:24:16.03	106.52	24.58	-46.6	-48.3	18.5	0.00e+00	0	43	0	403701760	64	4491
2026-01-24 08:24:17.04	106.38	24.72	-46.4	-48.1	18.7	0.00e+00	0	43	0	404750336	64	4383
2026-01-24 08:24:18.05	106.24	24.86	-46.2	-47.9	18.9	0.00e+00	0	43	0	406847488	64	4254
2026-01-24 08:24:19.06	106.10	25.00	-46.1	-47.7	19.1	0.00e+00	0	43	0	408944640	64	4169
2026-01-24 08:24:20.07	105.95	25.14	-46.1	-47.7	19.2	0.00e+00	0	43	0	411041792	63	4431
2026-01-24 08:24:21.07	105.81	25.28	-46.6	-48.3	18.7	0.00e+00	0	43	0	413138944	63	4722
2026-01-24 08:24:22.08	105.66	25.42	-46.1	-47.7	19.2	0.00e+00	0	43	0	414187520	63	4425
2026-01-24 08:24:23.09	105.52	25.57	-45.9	-47.5	19.3	0.00e+00	0	43	0	416284672	63	4321
2026-01-24 08:24:24.10	105.37	25.71	-46.0	-47.6	19.3	0.00e+00	0	43	0	418381824	63	4343
2026-01-24 08:24:25.10	105.22	25.85	-45.7	-47.2	19.6	0.00e+00	0	43	0	420478976	63	4192
2026-01-24 08:24:26.11	105.07	26.00	-45.4	-46.8	20.0	0.00e+00	0	43	0	422576128	62	4221
2026-01-24 08:24:27.12	104.91	26.14	-45.4	-46.8	20.0	0.00e+00	0	43	0	423624704	62	4207
2026-01-24 08:24:28.13	104.76	26.29	-45.1	-46.5	20.3	0.00e+00	0	43	0	425721856	62	4068
2026-01-24 08:24:29.14	104.60	26.43	-45.6	-47.1	19.7	0.00e+00	0	43	0	427819008	62	4381
2026-01-24 08:24:30.15	104.45	26.58	-45.6	-47.1	19.8	0.00e+00	0	43	0	429916160	62	4347
2026-01-24 08:24:31.16	104.29	26.73	-46.0	-47.7	19.3	0.00e+00	0	43	0	432013312	62	4653
2026-01-24 08:24:32.17	104.13	26.88	-46.0	-47.7	19.2	0.00e+00	0	43	0	433061888	63	4401
2026-01-24 08:24:33.17	103.97	27.02	-46.4	-48.1	18.8	0.00e+00	0	43	0	435159040	63	4647
2026-01-24 08:24:34.18	103.80	27.17	-46.3	-48.0	18.8	0.00e+00	0	43	0	437256192	63	4592
2026-01-24 08:24:35.19	103.64	27.32	-46.0	-47.6	19.3	0.00e+00	0	43	0	439353344	63	4366
2026-01-24 08:24:36.20	103.47	27.47	-45.8	-47.4	19.5	0.00e+00	0	43	0	441450496	63	4259
2026-01-24 08:24:37.21	103.30	27.62	-46.1	-47.8	19.1	0.00e+00	0	43	0	442499072	63	4455
2026-01-24 08:24:38.21	103.13	27.77	-45.9	-47.5	19.4	0.00e+00	0	43	0	444596224	63	4320
2026-01-24 08:24:39.22	102.96	27.92	-46.2	-47.9	19.0	0.00e+00	0	43	0	446693376	63	4497
2026-01-24 08:24:40.23	102.79	28.08	-46.0	-47.7	19.2	0.00e+00	0	43	0	448790528	63	4404
2026-01-24 08:24:41.24	102.61	28.23	-46.4	-48.1	18.8	0.00e+00	0	43	0	450887680	63	4635
2026-01-24 08:24:42.25	102.44	28.38	-46.5	-48.3	18.8	0.00e+00	0	43	0	451936256	63	4716
2026-01-24 08:24:43.25	102.26	28.53	-46.1	-47.6	19.3	0.00e+00	0	43	0	454033408	63	4387
2026-01-24 08:24:44.26	102.08	28.69	-46.1	-47.7	19.2	0.00e+00	0	43	0	456130560	63	4432
2026-01-24 08:24:45.27	101.90	28.84	-46.2	-47.9	19.1	0.00e+00	0	43	0	458227712	63	4498
2026-01-24 08:24:46.28	101.72	29.00	-46.3	-48.0	19.0	0.00e+00	0	43	0	460324864	63	4565
2026-01-24 08:24:47.29	101.53	29.16	-46.3	-47.9	19.1	0.00e+00	0	43	0	461373440	63	4522
2026-01-24 08:24:48.29	101.35	29.31	-46.3	-48.0	19.0	0.00e+00	0	43	0	463470592	63	4554
2026-01-24 08:24:49.30	101.16	29.47	-46.3	-47.9	19.0	0.00e+00	0	43	0	465567744	63	4538
2026-01-24 08:24:50.31	100.97	29.63	-46.3	-47.9	19.1	0.00e+00	0	43	0	467664896	63	4510
2026-01-24 08:24:51.32	100.77	29.78	-46.1	-47.7	19.3	0.00e+00	0	43	0	469762048	63	4403
2026-01-24 08:24:52.33	100.58	29.94	-46.1	-47.7	19.2	0.00e+00	0	43	0	470810624	63	4425
2026-01-24 08:24:53.33	100.38	30.10	-46.5	-48.2	18.7	0.00e+00	0	43	0	472907776	63	4700
2026-01-24 08:24:54.34	100.18	30.26	-46.5	-48.2	18.8	0.00e+00	0	43	0	475004928	63	4680
2026-01-24 08:24:55.35	99.98	30.42	-46.5	-48.3	18.7	0.00e+00	0	43	0	477102080	63	4707
2026-01-24 08:24:56.36	99.78	30.58	-46.6	-48.3	18.6	0.00e+00	0	43	0	479199232	64	4482
2026-01-24 08:24:57.37	99.58	30.74	-46.8	-48.7	18.3	0.00e+00	0	43	0	480247808	64	4675
2026-01-24 08:24:58.37	99.37	30.90	-47.0	-48.9	18.1	0.00e+00	0	43	0	482344960	64	4775
2026-01-24 08:24:59.38	99.16	31.06	-47.0	-48.9	18.1	0.00e+00	0	43	0	484442112	64	4778
2026-01-24 08:25:00.39	98.95	31.22	-47.0	-49.0	18.0	0.00e+00	0	43	0	486539264	64	4819
2026-01-24 08:25:01.40	98.74	31.39	-47.2	-49.2	17.8	0.00e+00	0	43	0	488636416	64	4960
2026-01-24 08:25:02.41	98.52	31.55	-47.1	-49.1	17.9	0.00e+00	0	43	0	489684992	65	4623
2026-01-24 08:25:03.42	98.30	31.71	-47.4	-49.5	17.5	0.00e+00	0	43	0	491782144	65	4837
2026-01-24 08:25:04.43	98.08	31.88	-47.2	-49.2	17.8	0.00e+00	0	43	0	493879296	65	4673
2026-01-24 08:25:05.43	97.86	32.04	-47.4	-49.4	17.6	0.00e+00	0	43	0	495976448	65	4810
2026-01-24 08:25:06.44	97.64	32.21	-47.0	-48.9	18.1	0.00e+00	0	43	0	498073600	65	4502
2026-01-24 08:25:07.45	97.41	32.37	-47.1	-49.0	18.1	0.00e+00	0	43	0	500170752	65	4550
2026-01-24 08:25:08.46	97.18	32.54	-46.9	-48.7	18.2	0.00e+00	0	43	0	501219328	65	4414
2026-01-24 08:25:09.47	96.95	32.70	-46.8	-48.6	18.4	0.00e+00	0	43	0	503316480	65	4361
2026-01-24 08:25:10.48	96.72	32.87	-46.7	-48.4	18.6	0.00e+00	0	43	0	505413632	65	4281
2026-01-24 08:25:11.48	96.49	33.04	-46.8	-48.4	18.5	0.00e+00	0	43	0	507510784	64	4542
2026-01-24 08:25:12.49	96.25	33.20	-46.8	-48.5	18.5	0.00e+00	0	43	0	508559360	64	4598
2026-01-24 08:25:13.50	96.01	33.37	-47.1	-48.9	18.2	0.00e+00	0	43	0	510656512	64	4761
2026-01-24 08:25:14.51	95.76	33.54	-46.5	-48.2	18.8	0.00e+00	0	43	0	512753664	64	4392
2026-01-24 08:25:15.51	95.52	33.71	-46.9	-48.7	18.4	0.00e+00	0	43	0	514850816	64	4658
2026-01-24 08:25:16.52	95.27	33.87	-46.8	-48.5	18.5	0.00e+00	0	43	0	516947968	64	4582
2026-01-24 08:25:17.53	95.02	34.04	-46.9	-48.7	18.3	0.00e+00	0	43	0	519045120	64	4693
2026-01-24 08:25:18.54	94.76	34.21	-46.9	-48.7	18.3	0.00e+00	0	43	0	520093696	64	4671
2026-01-24 08:25:19.55	94.51	34.38	-47.0	-48.8	18.4	0.00e+00	0	43	0	522190848	64	4723
2026-01-24 08:25:20.55	94.25	34.55	-47.1	-49.0	18.0	0.00e+00	0	43	0	524288000	64	4858
2026-01-24 08:25:21.56	93.99	34.72	-47.0	-48.9	18.1	0.00e+00	0	43	0	526385152	65	4507
2026-01-24 08:25:22.57	93.72	34.89	-47.4	-49.5	17.6	0.00e+00	0	43	0	528482304	65	4825
2026-01-24 08:25:23.58	93.45	35.06	-48.0	-50.3	16.8	0.00e+00	0	43	0	529530880	67	4726
2026-01-24 08:25:24.58	93.19	35.23	-48.3	-50.8	16.3	0.00e+00	0	43	0	531628032	67	5024
2026-01-24 08:25:25.59	92.91	35.40	-48.6	-51.2	15.9	0.00e+00	0	43	0	533725184	67	5246
2026-01-24 08:25:26.60	92.64	35.57	-48.1	-50.5	16.7	0.00e+00	0	43	0	535822336	67	4816
2026-01-24 08:25:27.61	92.36	35.74	-48.1	-50.3	16.9	0.00e+00	0	43	0	536870912	67	4748
2026-01-24 08:25:28.61	92.08	35.91	-47.8	-49.9	17.2	0.00e+00	0	43	0	538968064	67	4531
2026-01-24 08:25:29.62	91.79	36.08	-47.9	-50.1	17.0	0.00e+00	0	43	0	541065216	67	4624
2026-01-24 08:25:30.63	91.50	36.25	-47.3	-49.1	18.0	0.00e+00	0	43	0	543162368	66	4388
2026-01-24 08:25:31.64	91.21	36.43	-46.8	-48.6	18.5	0.00e+00	0	43	0	545259520	65	4348
2026-01-24 08:25:32.65	90.92	36.60	-46.4	-48.1	18.9	0.00e+00	0	43	0	547356672	64	4352
2026-01-24 08:25:33.65	90.62	36.77	-46.2	-47.7	19.4	0.00e+00	0	43	0	548405248	64	4170
2026-01-24 08:25:34.66	90.32	36.94	-46.0	-47.5	19.4	0.00e+00	0	43	0	550502400	64	4079
2026-01-24 08:25:35.67	90.02	37.11	-46.7	-48.4	18.7	0.00e+00	0	43	0	552599552	64	4522
2026-01-24 08:25:36.68	89.71	37.28	-46.6	-48.3	18.7	0.00e+00	0	43	0	554696704	64	4488
2026-01-24 08:25:37.69	89.40	37.45	-46.8	-48.6	18.5	0.00e+00	0	43	0	556793856	64	4611
2026-01-24 08:25:38.70	89.09	37.62	-46.6	-48.3	18.7	0.00e+00	0	43	0	557842432	64	4492
2026-01-24 08:25:39.71	88.77	37.80	-46.9	-48.7	18.4	0.00e+00	0	43	0	559939584	64	4690
2026-01-24 08:25:40.71	88.45	37.96	-47.0	-49.0	18.1	0.00e+00	0	43	0	562036736	64	4846
2026-01-24 08:25:41.72	88.13	38.14	-47.2	-49.3	17.9	0.00e+00	0	43	0	564133888	65	4719
2026-01-24 08:25:42.73	87.80	38.31	-47.5	-49.8	17.4	0.00e+00	0	43	0	566231040	65	4991
2026-01-24 08:25:43.74	87.47	38.48	-47.5	-49.7	17.5	0.00e+00	0	43	0	567279616	65	4937
2026-01-24 08:25:44.75	87.14	38.65	-47.4	-49.5	17.7	0.00e+00	0	43	0	569376768	65	4817
2026-01-24 08:25:45.75	86.80	38.81	-47.4	-49.4	17.7	0.00e+00	0	43	0	571473920	65	4814
2026-01-24 08:25:46.76	86.46	38.98	-47.8	-50.0	17.1	0.00e+00	0	43	0	573571072	66	4849
2026-01-24 08:25:47.77	86.12	39.15	-48.0	-50.3	16.8	0.00e+00	0	43	0	575668224	66	5028
2026-01-24 08:25:48.78	85.77	39.32	-48.1	-50.4	16.6	0.00e+00	0	43	0	576716800	67	4787
2026-01-24 08:25:49.79	85.41	39.49	-46.9	-48.8	18.2	0.00e+00	0	43	0	578813952	65	4456
2026-01-24 08:25:50.79	85.06	39.66	-46.4	-48.1	18.9	0.00e+00	0	43	0	580911104	64	4344
2026-01-24 08:25:51.80	84.70	39.82	-45.9	-47.4	19.6	0.00e+00	0	43	0	583008256	63	4266
2026-01-24 08:25:52.81	84.34	39.99	-46.1	-47.7	19.2	0.00e+00	0	43	0	585105408	63	4427
2026-01-24 08:25:53.82	83.97	40.16	-47.0	-49.0	18.1	0.00e+00	0	43	0	586153984	64	4815
2026-01-24 08:25:54.83	83.60	40.32	-47.9	-50.2	16.8	0.00e+00	0	43	0	588251136	66	4982
2026-01-24 08:25:55.84	83.23	40.49	-48.0	-50.4	16.6	0.00e+00	0	43	0	590348288	66	5091
2026-01-24 08:25:56.85	82.85	40.65	-47.9	-50.2	16.8	0.00e+00	0	43	0	592445440	67	4676
2026-01-24 08:25:57.85	82.47	40.82	-46.8	-48.6	18.3	0.00e+00	0	43	0	594542592	65	4375
2026-01-24 08:25:58.86	82.08	40.98	-45.9	-47.4	19.5	0.00e+00	0	43	0	595591168	63	4278
2026-01-24 08:25:59.87	81.69	41.14	-45.8	-47.3	19.6	0.00e+00	0	43	0	597688320	63	4228
2026-01-24 08:26:00.88	81.30	41.30	-45.9	-47.4	19.6	0.00e+00	0	43	0	599785472	63	4279
2026-01-24 08:26:01.89	80.90	41.46	-46.6	-48.3	18.9	0.00e+00	0	43	0	601882624	63	4708
2026-01-24 08:26:02.90	80.50	41.62	-46.3	-48.0	19.0	0.00e+00	0	43	0	603979776	64	4294
2026-01-24 08:26:03.91	80.09	41.78	-46.5	-48.2	18.8	0.00e+00	0	43	0	605028352	64	4406
2026-01-24 08:26:04.91	79.69	41.94	-46.6	-48.4	18.6	0.00e+00	0	43	0	607125504	64	4518
2026-01-24 08:26:05.92	79.27	42.10	-47.0	-48.9	18.2	0.00e+00	0	43	0	609222656	64	4784
2026-01-24 08:26:06.93	78.85	42.25	-47.4	-49.5	17.6	0.00e+00	0	43	0	611319808	65	4857
2026-01-24 08:26:07.94	78.43	42.41	-47.1	-49.0	18.1	0.00e+00	0	43	0	613416960	65	4566
2026-01-24 08:26:08.95	78.00	42.56	-46.5	-48.2	18.9	0.00e+00	0	43	0	615514112	65	4153
2026-01-24 08:26:09.96	77.57	42.71	-45.9	-47.4	19.6	0.00e+00	0	43	0	616562688	63	4276
2026-01-24 08:26:10.97	77.14	42.86	-45.4	-46.7	20.3	0.00e+00	0	43	0	618659840	62	4184
2026-01-24 08:26:11.97	76.71	43.01	-44.5	-45.7	21.2	0.00e+00	0	43	0	620756992	60	4179
2026-01-24 08:26:12.98	76.26	43.16	-44.2	-45.4	21.4	0.00e+00	0	43	0	622854144	60	4021
2026-01-24 08:26:13.99	75.82	43.31	-44.6	-45.8	21.1	0.00e+00	0	43	0	623902720	60	4218
2026-01-24 08:26:15.00	75.36	43.46	-45.7	-47.2	19.8	0.00e+00	0	43	0	625999872	61	4681
2026-01-24 08:26:16.01	74.91	43.60	-46.4	-48.1	18.9	0.00e+00	0	43	0	628097024	63	4651
2026-01-24 08:26:17.01	74.45	43.74	-46.3	-48.0	19.0	0.00e+00	0	43	0	630194176	63	4588
2026-01-24 08:26:18.02	73.99	43.88	-46.2	-47.9	19.2	0.00e+00	0	43	0	632291328	63	4503
2026-01-24 08:26:19.03	73.52	44.02	-45.7	-47.3	19.7	0.00e+00	0	43	0	634388480	63	4196
2026-01-24 08:26:20.04	73.05	44.16	-45.6	-47.1	19.9	0.00e+00	0	43	0	635437056	62	4362
2026-01-24 08:26:21.05	72.58	44.30	-44.9	-46.2	20.7	0.00e+00	0	43	0	637534208	61	4170
2026-01-24 08:26:22.05	72.10	44.43	-45.0	-46.4	20.5	0.00e+00	0	43	0	639631360	61	4250
2026-01-24 08:26:23.06	71.62	44.56	-45.2	-46.6	20.2	0.00e+00	0	43	0	641728512	61	4367
2026-01-24 08:26:24.07	71.13	44.69	-45.1	-46.4	20.5	0.00e+00	0	43	0	643825664	61	4272
2026-01-24 08:26:25.07	70.64	44.82	-44.5	-45.7	21.2	0.00e+00	0	43	0	644874240	60	4153
2026-01-24 08:26:26.08	70.15	44.95	-44.4	-45.6	21.3	0.00e+00	0	43	0	646971392	60	4112
2026-01-24 08:26:27.09	69.65	45.07	-44.6	-45.8	21.1	0.00e+00	0	43	0	649068544	60	4237
2026-01-24 08:26:28.10	69.14	45.20	-45.3	-46.6	20.4	0.00e+00	0	43	0	651165696	61	4390
2026-01-24 08:26:29.11	68.64	45.32	-45.8	-47.3	19.8	0.00e+00	0	43	0	652214272	62	4486
2026-01-24 08:26:30.11	68.13	45.44	-46.3	-47.9	19.2	0.00e+00	0	43	0	654311424	63	4541
2026-01-24 08:26:31.12	67.61	45.55	-46.9	-48.8	18.3	0.00e+00	0	43	0	656408576	64	4716
2026-01-24 08:26:32.13	67.10	45.67	-47.7	-50.0	17.2	0.00e+00	0	43	0	658505728	65	5107
2026-01-24 08:26:33.14	66.57	45.78	-48.1	-50.6	16.5	0.00e+00	0	43	0	660602880	67	4879
2026-01-24 08:26:34.15	66.05	45.89	-48.7	-51.6	15.8	0.00e+00	0	43	0	662700032	67	5472
2026-01-24 08:26:35.15	65.52	45.99	-48.7	-51.4	15.9	0.00e+00	0	43	0	663748608	68	5065
2026-01-24 08:26:36.16	64.99	46.10	-49.0	-51.9	15.2	0.00e+00	0	43	0	665845760	68	5401
2026-01-24 08:26:37.17	64.45	46.20	-48.9	-51.6	15.7	0.00e+00	0	43	0	667942912	69	4910
2026-01-24 08:26:38.18	63.91	46.30	-47.9	-50.0	17.2	0.00e+00	0	43	0	670040064	67	4567
2026-01-24 08:26:39.19	63.37	46.40	-47.2	-49.0	18.1	0.00e+00	0	43	0	672137216	66	4331
2026-01-24 08:26:40.19	62.82	46.49	-47.2	-49.1	18.1	0.00e+00	0	43	0	673185792	65	4623
2026-01-24 08:26:41.20	62.27	46.58	-47.3	-49.2	17.9	0.00e+00	0	43	0	675282944	65	4698
2026-01-24 08:26:42.21	61.72	46.67	-47.3	-49.3	17.8	0.00e+00	0	43	0	677380096	65	4740
2026-01-24 08:26:43.22	61.16	46.76	-47.5	-49.5	17.7	0.00e+00	0	43	0	679477248	66	4567
2026-01-24 08:26:44.23	60.60	46.84	-46.8	-48.5	18.5	0.00e+00	0	43	0	681574400	65	4330
2026-01-24 08:26:45.24	60.04	46.92	-46.6	-48.2	18.9	0.00e+00	0	43	0	682622976	64	4421
2026-01-24 08:26:46.25	59.47	47.00	-46.7	-48.5	18.7	0.00e+00	0	43	0	684720128	64	4553
2026-01-24 08:26:47.25	58.91	47.08	-47.4	-49.4	17.7	0.00e+00	0	43	0	686817280	65	4785
2026-01-24 08:26:48.26	58.34	47.15	-47.7	-49.9	17.4	0.00e+00	0	43	0	688914432	66	4775
2026-01-24 08:26:49.27	57.77	47.22	-46.4	-48.5	18.3	0.00e+00	0	43	0	691011584	65	4299
2026-01-24 08:26:50.28	57.19	47.28	-47.0	-48.9	18.2	0.00e+00	0	43	0	692060160	65	4523
2026-01-24 08:26:51.29	56.61	47.34	-46.3	-47.9	19.0	0.00e+00	0	43	0	694157312	64	4291
2026-01-24 08:26:52.29	56.04	47.40	-46.1	-47.8	19.4	0.00e+00	0	43	0	696254464	63	4442
2026-01-24 08:26:53.30	55.45	47.46	-45.6	-47.2	19.9	0.00e+00	0	43	0	698351616	63	4159
2026-01-24 08:26:54.31	54.87	47.51	-46.6	-48.4	18.8	0.00e+00	0	43	0	700448768	63	4814
2026-01-24 08:26:55.32	54.28	47.56	-47.4	-49.6	17.6	0.00e+00	0	43	0	701497344	65	4901
2026-01-24 08:26:56.33	53.69	47.61	-47.1	-49.1	17.8	0.00e+00	0	44	0	703594496	65	4650
2026-01-24 08:26:57.34	53.10	47.65	-46.3	-48.1	18.9	0.00e+00	0	43	0	705691648	64	4344
2026-01-24 08:26:58.35	52.51	47.69	-46.0	-47.7	19.4	0.00e+00	0	43	0	707788800	63	4392
2026-01-24 08:26:59.35	51.92	47.73	-46.2	-47.9	19.1	0.00e+00	0	43	0	709885952	63	4543
2026-01-24 08:27:00.36	51.33	47.76	-45.6	-47.2	19.7	0.00e+00	0	43	0	710934528	63	4183
2026-01-24 08:27:01.37	50.73	47.79	-44.6	-45.9	20.9	0.00e+00	0	43	0	713031680	61	4026
2026-01-24 08:27:02.38	50.13	47.82	-44.8	-46.1	20.8	0.00e+00	0	43	0	715128832	60	4388
2026-01-24 08:27:03.38	49.54	47.84	-45.4	-46.9	20.0	0.00e+00	0	43	0	717225984	61	4537
2026-01-24 08:27:04.39	48.94	47.86	-46.2	-48.0	19.0	0.00e+00	0	43	0	719323136	63	4575
2026-01-24 08:27:05.40	48.34	47.88	-46.0	-48.3	18.8	0.00e+00	0	43	0	720371712	63	4739
2026-01-24 08:27:06.41	47.74	47.89	-46.0	-48.9	18.2	0.00e+00	0	43	0	722468864	63	5059
2026-01-24 08:27:07.41	47.15	47.90	-46.9	-49.8	17.2	0.00e+00	0	43	0	724566016	64	5286
2026-01-24 08:27:08.42	46.55	47.91	-46.9	-49.0	17.8	0.00e+00	0	43	0	726663168	64	4861
2026-01-24 08:27:09.43	45.94	47.91	-45.8	-47.4	19.3	0.00e+00	0	43	0	728760320	63	4271
2026-01-24 08:27:10.44	45.34	47.91	-45.9	-47.7	19.1	0.00e+00	0	43	0	729808896	63	4392
2026-01-24 08:27:11.45	44.74	47.91	-46.3	-48.2	18.6	0.00e+00	0	43	0	731906048	63	4674
2026-01-24 08:27:12.45	44.15	47.90	-45.8	-47.5	19.3	0.00e+00	0	43	0	734003200	63	4305
2026-01-24 08:27:13.46	43.55	47.89	-45.1	-46.6	20.1	0.00e+00	0	43	0	736100352	62	4129
2026-01-24 08:27:14.47	42.95	47.88	-45.1	-46.5	20.3	0.00e+00	0	43	0	738197504	61	4336
2026-01-24 08:27:15.48	42.35	47.86	-45.2	-46.6	20.2	0.00e+00	0	43	0	739246080	61	4388
2026-01-24 08:27:16.49	41.75	47.84	-44.9	-46.2	20.5	0.00e+00	0	43	0	741343232	61	4183
2026-01-24 08:27:17.49	41.16	47.82	-44.5	-45.8	20.9	0.00e+00	0	43	0	743440384	60	4220
2026-01-24 08:27:18.50	40.56	47.79	-44.4	-45.7	21.0	0.00e+00	0	43	0	745537536	60	4161
2026-01-24 08:27:19.51	39.96	47.76	-44.4	-45.8	20.9	0.00e+00	0	43	0	747634688	60	4195
2026-01-24 08:27:20.51	39.37	47.72	-44.8	-46.2	20.5	0.00e+00	0	43	0	748683264	60	4413
2026-01-24 08:27:21.52	38.78	47.69	-45.7	-47.3	19.6	0.00e+00	0	43	0	750780416	62	4489
2026-01-24 08:27:22.53	38.19	47.64	-46.2	-48.0	19.1	0.00e+00	0	44	0	752877568	63	4551
2026-01-24 08:27:23.54	37.60	47.60	-46.3	-48.2	18.7	0.00e+00	0	43	0	754974720	64	4430
2026-01-24 08:27:24.55	37.01	47.55	-46.4	-48.3	18.6	0.00e+00	0	43	0	757071872	64	4466
2026-01-24 08:27:25.55	36.43	47.50	-46.6	-48.5	18.4	0.00e+00	0	43	0	758120448	64	4575
2026-01-24 08:27:26.56	35.85	47.45	-46.6	-48.5	18.4	0.00e+00	0	43	0	760217600	64	4582
2026-01-24 08:27:27.57	35.26	47.39	-46.4	-48.2	18.9	0.00e+00	0	44	0	762314752	64	4403
2026-01-24 08:27:28.58	34.68	47.33	-46.4	-48.1	18.9	0.00e+00	0	44	0	764411904	63	4634
2026-01-24 08:27:29.59	34.11	47.27	-46.4	-48.1	18.9	0.00e+00	0	43	0	766509056	63	4636
2026-01-24 08:27:30.60	33.53	47.20	-46.7	-48.6	18.4	0.00e+00	0	44	0	767557632	64	4647
2026-01-24 08:27:31.61	32.96	47.13	-46.5	-48.2	18.6	0.00e+00	0	43	0	769654784	64	4439
2026-01-24 08:27:32.61	32.39	47.06	-46.1	-47.8	19.0	0.00e+00	0	43	0	771751936	64	4202
2026-01-24 08:27:33.62	31.83	46.98	-46.0	-47.5	19.4	0.00e+00	0	43	0	773849088	63	4335
2026-01-24 08:27:34.63	31.26	46.91	-45.7	-47.2	19.7	0.00e+00	0	44	0	775946240	63	4169
2026-01-24 08:27:35.64	30.70	46.83	-45.9	-47.4	19.5	0.00e+00	0	43	0	778043392	63	4273
2026-01-24 08:27:36.65	30.14	46.74	-46.7	-48.5	18.5	0.00e+00	0	43	0	779091968	63	4850
2026-01-24 08:27:37.65	29.59	46.66	-46.5	-48.3	18.6	0.00e+00	0	43	0	781189120	64	4465
2026-01-24 08:27:38.66	29.04	46.57	-46.3	-48.0	19.0	0.00e+00	0	43	0	783286272	64	4330
2026-01-24 08:27:39.67	28.49	46.47	-46.5	-48.3	18.8	0.00e+00	0	43	0	785383424	64	4457
2026-01-24 08:27:40.68	27.94	46.38	-47.3	-49.4	17.7	0.00e+00	0	43	0	786432000	65	4806
2026-01-24 08:27:41.68	27.41	46.28	-47.5	-49.7	17.4	0.00e+00	0	44	0	788529152	66	4684
2026-01-24 08:27:42.69	26.87	46.18	-47.3	-49.4	17.6	0.00e+00	0	43	0	790626304	66	4535
2026-01-24 08:27:43.70	26.33	46.08	-45.9	-47.4	19.4	0.00e+00	0	43	0	792723456	63	4277
2026-01-24 08:27:44.71	25.80	45.97	-45.8	-47.3	19.6	0.00e+00	0	43	0	794820608	63	4232
2026-01-24 08:27:45.72	25.27	45.87	-45.4	-46.9	20.0	0.00e+00	0	43	0	795869184	62	4257
2026-01-24 08:27:46.73	24.74	45.76	-45.5	-46.9	20.0	0.00e+00	0	43	0	797966336	62	4284
2026-01-24 08:27:47.73	24.23	45.65	-45.6	-47.2	19.8	0.00e+00	0	43	0	800063488	62	4393
2026-01-24 08:27:48.74	23.71	45.53	-45.8	-47.5	19.4	0.00e+00	0	43	0	802160640	62	4552
2026-01-24 08:27:49.75	23.20	45.41	-45.7	-47.2	19.8	0.00e+00	0	43	0	804257792	62	4419
2026-01-24 08:27:50.76	22.69	45.29	-45.7	-47.2	19.7	0.00e+00	0	43	0	806354944	62	4439
2026-01-24 08:27:51.77	22.18	45.17	-46.5	-48.2	18.7	0.00e+00	0	43	0	807403520	64	4438
2026-01-24 08:27:52.77	21.68	45.05	-46.1	-47.8	19.1	0.00e+00	0	44	0	809500672	64	4225
2026-01-24 08:27:53.78	21.19	44.93	-45.8	-47.3	19.8	0.00e+00	0	43	0	811597824	63	4197
2026-01-24 08:27:54.79	20.69	44.80	-45.9	-47.5	19.5	0.00e+00	0	43	0	813694976	62	4554
2026-01-24 08:27:55.80	20.20	44.67	-46.0	-47.6	19.3	0.00e+00	0	43	0	814743552	62	4628
2026-01-24 08:27:56.81	19.72	44.54	-46.0	-47.7	19.3	0.00e+00	0	43	0	816840704	62	4678
2026-01-24 08:27:57.81	19.24	44.41	-45.5	-47.1	19.9	0.00e+00	0	43	0	818937856	62	4341
2026-01-24 08:27:58.82	18.76	44.27	-45.2	-46.7	20.3	0.00e+00	0	44	0	821035008	62	4151
2026-01-24 08:27:59.83	18.29	44.14	-44.9	-46.2	20.7	0.00e+00	0	43	0	823132160	61	4185
2026-01-24 08:28:00.84	17.82	44.00	-44.9	-46.3	20.7	0.00e+00	0	43	0	825229312	61	4226
2026-01-24 08:28:01.85	17.35	43.86	-44.7	-45.9	21.0	0.00e+00	0	44	0	826277888	61	4039
2026-01-24 08:28:02.85	16.89	43.72	-44.6	-45.9	21.2	0.00e+00	0	43	0	828375040	60	4252
2026-01-24 08:28:03.86	16.44	43.57	-44.7	-46.0	21.0	0.00e+00	0	44	0	830472192	60	4311
2026-01-24 08:28:04.87	15.98	43.43	-45.0	-46.3	20.7	0.00e+00	0	43	0	832569344	60	4471
2026-01-24 08:28:05.88	15.53	43.28	-44.8	-46.1	20.8	0.00e+00	0	43	0	834666496	60	4384
2026-01-24 08:28:06.89	15.09	43.14	-44.5	-45.7	21.2	0.00e+00	0	43	0	835715072	60	4153
2026-01-24 08:28:07.89	14.65	42.99	-44.4	-45.5	21.4	0.00e+00	0	44	0	837812224	60	4087
2026-01-24 08:28:08.90	14.21	42.84	-44.5	-45.7	21.1	0.00e+00	0	43	0	839909376	60	4181
2026-01-24 08:28:09.91	13.78	42.69	-44.6	-45.9	21.1	0.00e+00	0	43	0	842006528	60	4271
2026-01-24 08:28:10.92	13.35	42.54	-44.8	-46.1	20.8	0.00e+00	0	43	0	843055104	60	4361
2026-01-24 08:28:11.92	12.93	42.38	-45.0	-46.3	20.6	0.00e+00	0	43	0	845152256	60	4489
2026-01-24 08:28:12.93	12.51	42.23	-44.5	-45.7	21.2	0.00e+00	0	44	0	847249408	60	4178
2026-01-24 08:28:13.94	12.09	42.07	-45.2	-46.5	20.5	0.00e+00	0	44	0	849346560	60	4571
2026-01-24 08:28:14.95	11.68	41.92	-45.9	-47.4	19.7	0.00e+00	0	43	0	851443712	62	4527
2026-01-24 08:28:15.95	11.28	41.76	-45.8	-47.3	19.7	0.00e+00	0	43	0	853540864	62	4482
2026-01-24 08:28:16.96	10.87	41.60	-44.6	-45.9	21.0	0.00e+00	0	43	0	854589440	61	4009
2026-01-24 08:28:17.97	10.47	41.44	-44.0	-45.1	22.0	0.00e+00	0	43	0	856686592	59	4104
2026-01-24 08:28:18.98	10.07	41.28	-43.6	-44.7	22.4	0.00e+00	0	43	0	858783744	58	4173
2026-01-24 08:28:19.99	9.68	41.12	-44.2	-45.3	21.8	0.00e+00	0	43	0	860880896	58	4481
2026-01-24 08:28:20.99	9.30	40.96	-44.5	-45.7	21.2	0.00e+00	0	44	0	862978048	60	4188
2026-01-24 08:28:22.00	8.91	40.80	-44.8	-46.2	20.8	0.00e+00	0	43	0	864026624	60	4412
2026-01-24 08:28:23.01	8.53	40.63	-45.2	-46.6	20.4	0.00e+00	0	44	0	866123776	61	4368
2026-01-24 08:28:24.02	8.15	40.47	-45.5	-47.1	20.0	0.00e+00	0	43	0	868220928	61	4609
2026-01-24 08:28:25.03	7.78	40.30	-45.0	-46.4	20.6	0.00e+00	0	43	0	870318080	61	4254
2026-01-24 08:28:26.03	7.42	40.14	-44.8	-46.0	20.9	0.00e+00	0	43	0	872415232	61	4092
2026-01-24 08:28:27.04	7.05	39.97	-45.2	-46.5	20.5	0.00e+00	0	44	0	873463808	61	4325
2026-01-24 08:28:28.05	6.69	39.81	-46.1	-47.7	19.4	0.00e+00	0	43	0	875560960	62	4660
2026-01-24 08:28:29.06	6.33	39.64	-46.9	-48.8	18.2	0.00e+00	0	44	0	877658112	64	4711
2026-01-24 08:28:30.07	5.98	39.47	-47.4	-49.4	17.7	0.00e+00	0	43	0	879755264	65	4807
2026-01-24 08:28:31.08	5.62	39.30	-46.8	-48.6	18.6	0.00e+00	0	43	0	881852416	65	4373
2026-01-24 08:28:32.08	5.28	39.14	-46.4	-48.1	19.1	0.00e+00	0	43	0	882900992	64	4343
2026-01-24 08:28:33.09	4.94	38.97	-46.3	-47.9	19.2	0.00e+00	0	43	0	884998144	64	4268
2026-01-24 08:28:34.10	4.60	38.80	-46.5	-48.1	19.1	0.00e+00	0	44	0	887095296	64	4352
2026-01-24 08:28:35.11	4.26	38.63	-46.4	-48.0	19.2	0.00e+00	0	44	0	889192448	64	4292
2026-01-24 08:28:36.12	3.93	38.46	-46.4	-48.0	19.1	0.00e+00	0	43	0	891289600	64	4314
2026-01-24 08:28:37.13	3.60	38.29	-46.9	-48.6	18.6	0.00e+00	0	43	0	892338176	64	4599
2026-01-24 08:28:38.13	3.28	38.12	-47.3	-49.1	17.9	0.00e+00	0	43	0	894435328	65	4644
2026-01-24 08:28:39.14	2.95	37.95	-47.7	-49.8	17.4	0.00e+00	0	44	0	896532480	65	5012
2026-01-24 08:28:40.15	2.63	37.78	-47.5	-49.5	17.7	0.00e+00	0	43	0	898629632	66	4562
2026-01-24 08:28:41.16	2.32	37.61	-47.5	-49.5	17.7	0.00e+00	0	43	0	900726784	66	4593
2026-01-24 08:28:42.17	2.01	37.44	-47.5	-49.5	17.7	0.00e+00	0	43	0	901775360	66	4552
2026-01-24 08:28:43.17	1.70	37.27	-47.4	-49.4	17.8	0.00e+00	0	43	0	903872512	66	4510
2026-01-24 08:28:44.18	1.39	37.10	-47.2	-49.2	18.0	0.00e+00	0	43	0	905969664	66	4396
2026-01-24 08:28:45.19	1.09	36.93	-47.4	-49.4	17.7	0.00e+00	0	43	0	908066816	66	4531
2026-01-24 08:28:46.20	0.79	36.76	-48.2	-50.5	16.6	0.00e+00	0	43	0	910163968	66	5144
2026-01-24 08:28:47.21	0.50	36.59	-49.2	-52.1	15.3	0.00e+00	0	43	0	911212544	68	5477
2026-01-24 08:28:48.21	0.21	36.42	-49.0	-51.8	15.6	0.00e+00	0	44	0	913309696	69	5009
2026-01-24 08:28:49.22	359.92	36.25	-48.3	-50.6	16.6	0.00e+00	0	44	0	915406848	68	4648
2026-01-24 08:28:50.23	359.63	36.08	-47.5	-49.5	17.6	0.00e+00	0	43	0	917504000	66	4571
2026-01-24 08:28:51.24	359.34	35.90	-47.9	-50.1	17.1	0.00e+00	0	43	0	919601152	66	4875
2026-01-24 08:28:52.25	359.06	35.73	-49.4	-52.4	14.9	0.00e+00	0	44	0	921698304	69	5350
2026-01-24 08:28:53.26	358.79	35.56	-50.8	-55.4	11.8	5.26e-05	0	44	0	922746880	72	6378
2026-01-24 08:28:54.26	358.51	35.39	-50.7	-55.1	12.0	6.66e-04	0	43	0	924844032	72	6186
2026-01-24 08:28:55.27	358.24	35.22	-49.7	-52.8	14.5	7.78e-05	0	43	0	926941184	71	5034
2026-01-24 08:28:56.28	357.97	35.05	-48.4	-50.7	16.5	0.00e+00	0	43	0	929038336	68	4660
2026-01-24 08:28:57.29	357.70	34.88	-47.7	-49.7	17.5	0.00e+00	0	44	0	930086912	67	4409
2026-01-24 08:28:58.30	357.44	34.72	-47.3	-49.1	18.0	0.00e+00	0	43	0	932184064	66	4375
2026-01-24 08:28:59.30	357.18	34.55	-47.1	-48.9	18.3	0.00e+00	0	43	0	934281216	65	4544
2026-01-24 08:29:00.31	356.92	34.38	-47.3	-49.1	18.1	0.00e+00	0	43	0	936378368	65	4621
2026-01-24 08:29:01.32	356.67	34.21	-47.2	-48.9	18.3	0.00e+00	0	43	0	938475520	65	4541
2026-01-24 08:29:02.33	356.42	34.04	-47.1	-48.8	18.4	0.00e+00	0	44	0	939524096	65	4462
2026-01-24 08:29:03.33	356.17	33.87	-47.2	-49.0	18.2	0.00e+00	0	43	0	941621248	65	4554
2026-01-24 08:29:04.34	355.92	33.71	-46.8	-48.4	18.7	0.00e+00	0	43	0	943718400	65	4266
2026-01-24 08:29:05.35	355.67	33.54	-46.2	-47.7	19.3	0.00e+00	0	43	0	945815552	64	4179
2026-01-24 08:29:06.36	355.43	33.37	-45.9	-47.2	19.9	0.00e+00	0	43	0	947912704	63	4186
2026-01-24 08:29:07.37	355.19	33.20	-46.1	-47.5	19.7	0.00e+00	0	43	0	950009856	63	4312
2026-01-24 08:29:08.37	354.96	33.04	-46.5	-48.1	19.0	0.00e+00	0	43	0	951058432	64	4357
2026-01-24 08:29:09.38	354.72	32.87	-47.5	-49.5	17.7	0.00e+00	0	43	0	953155584	65	4844
2026-01-24 08:29:10.39	354.49	32.71	-48.2	-50.4	16.8	0.00e+00	0	43	0	955252736	66	5056
2026-01-24 08:29:11.40	354.26	32.54	-48.1	-50.2	17.0	0.00e+00	0	43	0	957349888	67	4688
2026-01-24 08:29:12.40	354.03	32.38	-48.0	-50.2	17.0	0.00e+00	0	43	0	958398464	67	4652
2026-01-24 08:29:13.41	353.81	32.21	-47.8	-49.7	17.4	0.00e+00	0	43	0	960495616	67	4428
2026-01-24 08:29:14.42	353.58	32.05	-47.7	-49.7	17.5	0.00e+00	0	43	0	962592768	66	4699
2026-01-24 08:29:15.43	353.36	31.88	-47.9	-49.9	17.3	0.00e+00	0	43	0	964689920	66	4812
2026-01-24 08:29:16.44	353.14	31.72	-47.7	-49.7	17.4	0.00e+00	0	44	0	966787072	66	4699
2026-01-24 08:29:17.45	352.93	31.56	-47.1	-48.9	18.2	0.00e+00	0	43	0	968884224	66	4269
2026-01-24 08:29:18.45	352.71	31.40	-47.0	-48.7	18.4	0.00e+00	0	43	0	969932800	65	4435
2026-01-24 08:29:19.46	352.50	31.23	-47.1	-48.9	18.3	0.00e+00	0	43	0	972029952	65	4519
2026-01-24 08:29:20.47	352.29	31.07	-47.5	-49.5	17.7	0.00e+00	0	43	0	974127104	65	4819
2026-01-24 08:29:21.48	352.08	30.91	-47.9	-50.0	17.2	0.00e+00	0	43	0	976224256	66	4824
2026-01-24 08:29:22.49	351.88	30.75	-48.9	-51.5	15.8	0.00e+00	0	43	0	978321408	68	5149
2026-01-24 08:29:23.49	351.68	30.59	-49.4	-52.5	14.8	0.00e+00	0	44	0	979369984	69	5437
2026-01-24 08:29:24.50	351.47	30.43	-49.7	-52.9	14.5	1.50e-06	0	43	0	981467136	70	5344
2026-01-24 08:29:25.51	351.27	30.27	-49.0	-51.7	15.4	0.00e+00	0	43	0	983564288	70	4702
2026-01-24 08:29:26.52	351.08	30.11	-48.3	-50.5	16.6	0.00e+00	0	43	0	985661440	68	4582
2026-01-24 08:29:27.52	350.88	29.96	-47.5	-49.5	17.6	0.00e+00	0	43	0	986710016	67	4294
2026-01-24 08:29:28.53	350.69	29.80	-46.8	-48.4	18.6	0.00e+00	0	43	0	988807168	65	4283
2026-01-24 08:29:29.54	350.50	29.64	-46.0	-47.4	19.6	0.00e+00	0	43	0	990904320	63	4278
2026-01-24 08:29:30.55	350.31	29.48	-45.6	-46.9	20.1	0.00e+00	0	43	0	993001472	63	4037
2026-01-24 08:29:31.56	350.12	29.33	-45.4	-46.8	20.2	0.00e+00	0	43	0	995098624	62	4197
2026-01-24 08:29:32.57	349.93	29.17	-45.8	-47.2	19.8	0.00e+00	0	43	0	997195776	62	4413
2026-01-24 08:29:33.57	349.75	29.02	-46.7	-48.5	18.6	0.00e+00	0	43	0	998244352	64	4550
2026-01-24 08:29:34.58	349.57	28.86	-47.4	-49.4	17.7	0.00e+00	0	43	0	1000341504	65	4761
2026-01-24 08:29:35.59	349.39	28.71	-48.0	-50.2	16.8	0.00e+00	0	43	0	1002438656	67	4683
2026-01-24 08:29:36.60	349.21	28.55	-48.6	-51.1	16.1	0.00e+00	0	43	0	1004535808	67	5172
2026-01-24 08:29:37.61	349.03	28.40	-48.3	-50.6	16.5	0.00e+00	0	43	0	1006632960	67	4898
2026-01-24 08:29:38.61	348.86	28.25	-47.5	-49.4	17.7	0.00e+00	0	43	0	1007681536	66	4521
2026-01-24 08:29:39.62	348.68	28.10	-47.1	-48.9	18.1	0.00e+00	0	43	0	1009778688	66	4249
2026-01-24 08:29:40.63	348.51	27.95	-46.7	-48.4	18.7	0.00e+00	0	43	0	1011875840	65	4254
2026-01-24 08:29:41.64	348.34	27.79	-46.4	-48.0	18.9	0.00e+00	0	43	0	1013972992	64	4333
2026-01-24 08:29:42.64	348.17	27.65	-46.0	-47.5	19.5	0.00e+00	0	43	0	1016070144	63	4322
2026-01-24 08:29:43.65	348.00	27.50	-46.1	-47.6	19.5	0.00e+00	0	43	0	1017118720	63	4378
2026-01-24 08:29:44.66	347.84	27.35	-45.7	-47.1	19.9	0.00e+00	0	43	0	1019215872	63	4138
2026-01-24 08:29:45.67	347.67	27.20	-45.8	-47.2	19.7	0.00e+00	0	43	0	1021313024	63	4168
2026-01-24 08:29:46.67	347.51	27.05	-45.8	-47.2	19.8	0.00e+00	0	43	0	1023410176	63	4173
2026-01-24 08:29:47.68	347.35	26.90	-46.2	-47.7	19.3	0.00e+00	0	43	0	1025507328	63	4406
2026-01-24 08:29:48.69	347.19	26.75	-46.1	-47.6	19.4	0.00e+00	0	43	0	1026555904	63	4383
2026-01-24 08:29:49.70	347.03	26.61	-45.8	-47.2	19.8	0.00e+00	0	43	0	1028653056	63	4177
2026-01-24 08:29:50.71	346.88	26.46	-45.9	-47.3	19.7	0.00e+00	0	43	0	1030750208	63	4220
2026-01-24 08:29:51.72	346.72	26.32	-45.6	-47.0	19.9	0.00e+00	0	43	0	1032847360	63	4077
2026-01-24 08:29:52.73	346.57	26.17	-45.9	-47.3	19.7	0.00e+00	0	43	0	1034944512	63	4225
2026-01-24 08:29:53.73	346.42	26.03	-46.2	-47.7	19.5	0.00e+00	0	43	0	1035993088	63	4411
2026-01-24 08:29:54.74	346.27	25.88	-46.6	-48.3	18.7	0.00e+00	0	43	0	1038090240	64	4462
2026-01-24 08:29:55.75	346.12	25.74	-46.8	-48.6	18.4	0.00e+00	0	43	0	1040187392	64	4611
2026-01-24 08:29:56.76	345.97	25.60	-47.3	-49.2	17.9	0.00e+00	0	43	0	1042284544	65	4702
2026-01-24 08:29:57.77	345.82	25.45	-47.7	-49.8	17.3	0.00e+00	0	43	0	1044381696	66	4747
2026-01-24 08:29:58.77	345.68	25.31	-47.8	-49.9	17.2	0.00e+00	0	43	0	1045430272	66	4792
2026-01-24 08:29:59.78	345.53	25.17	-47.4	-49.4	17.6	0.00e+00	0	43	0	1047527424	66	4520
2026-01-24 08:30:00.79	345.39	25.03	-47.0	-48.7	18.2	0.00e+00	0	43	0	1049624576	65	4440
2026-01-24 08:30:01.80	345.25	24.89	-46.6	-48.2	18.7	0.00e+00	0	43	0	1051721728	65	4172
2026-01-24 08:30:02.81	345.11	24.75	-46.2	-47.8	19.1	0.00e+00	0	43	0	1053818880	64	4196
2026-01-24 08:30:03.81	344.97	24.61	-46.1	-47.6	19.3	0.00e+00	0	43	0	1054867456	64	4125
2026-01-24 08:30:04.82	344.83	24.48	-46.0	-47.5	19.4	0.00e+00	0	43	0	1056964608	63	4339
2026-01-24 08:30:05.83	344.70	24.34	-46.2	-47.7	19.3	0.00e+00	0	43	0	1059061760	63	4430
2026-01-24 08:30:06.84	344.56	24.20	-45.8	-47.3	19.7	0.00e+00	0	43	0	1061158912	63	4198
2026-01-24 08:30:07.85	344.43	24.06	-45.7	-47.1	19.9	0.00e+00	0	43	0	1063256064	63	4123
2026-01-24 08:30:08.85	344.29	23.93	-45.5	-46.9	20.0	0.00e+00	0	43	0	1064304640	63	4038
2026-01-24 08:30:09.86	344.16	23.79	-45.6	-47.0	20.0	0.00e+00	0	43	0	1066401792	63	4069
2026-01-24 08:30:10.87	344.03	23.66	-45.7	-47.1	19.8	0.00e+00	0	43	0	1068498944	62	4353
2026-01-24 08:30:11.88	343.90	23.52	-45.8	-47.2	19.8	0.00e+00	0	43	0	1070596096	62	4432
2026-01-24 08:30:12.89	343.77	23.39	-45.6	-47.1	19.8	0.00e+00	0	43	0	1072693248	62	4350
2026-01-24 08:30:13.89	343.65	23.26	-46.1	-47.6	19.4	0.00e+00	0	43	0	1073741824	62	4636
2026-01-24 08:30:14.90	343.52	23.12	-46.3	-48.0	19.0	0.00e+00	0	43	0	1075838976	63	4556
2026-01-24 08:30:15.91	343.40	22.99	-46.1	-47.7	19.2	0.00e+00	0	43	0	1077936128	63	4433
2026-01-24 08:30:16.92	343.27	22.86	-46.2	-47.8	19.1	0.00e+00	0	43	0	1080033280	63	4474
2026-01-24 08:30:17.92	343.15	22.73	-46.0	-47.5	19.4	0.00e+00	0	43	0	1082130432	63	4296
2026-01-24 08:30:18.93	343.03	22.60	-45.8	-47.2	19.7	0.00e+00	0	43	0	1084227584	63	4167
2026-01-24 08:30:19.94	342.91	22.47	-45.8	-47.2	19.7	0.00e+00	0	43	0	1085276160	63	4171
2026-01-24 08:30:20.95	342.79	22.34	-45.6	-47.0	19.8	0.00e+00	0	43	0	1087373312	63	4087
2026-01-24 08:30:21.96	342.67	22.21	-45.6	-47.0	19.9	0.00e+00	0	43	0	1089470464	63	4069
2026-01-24 08:30:22.97	342.55	22.08	-45.7	-47.1	19.7	0.00e+00	0	43	0	1091567616	63	4137
2026-01-24 08:30:23.97	342.44	21.95	-45.9	-47.3	19.6	0.00e+00	0	44	0	1092616192	63	4215
2026-01-24 08:30:24.98	342.32	21.82	-46.2	-47.7	19.2	0.00e+00	0	43	0	1094713344	63	4408
2026-01-24 08:30:25.99	342.21	21.70	-46.3	-47.8	19.1	0.00e+00	0	43	0	1096810496	63	4470
2026-01-24 08:30:27.00	342.09	21.57	-46.2	-47.7	19.2	0.00e+00	0	43	0	1098907648	63	4414
2026-01-24 08:30:28.01	341.98	21.44	-46.1	-47.7	19.2	0.00e+00	0	43	0	1101004800	63	4400
2026-01-24 08:30:29.01	341.87	21.32	-46.3	-48.0	19.0	0.00e+00	0	43	0	1102053376	63	4547
2026-01-24 08:30:30.02	341.76	21.19	-46.1	-47.6	19.2	0.00e+00	0	43	0	1104150528	63	4390
2026-01-24 08:30:31.03	341.65	21.07	-45.9	-47.4	19.5	0.00e+00	0	43	0	1106247680	63	4274
2026-01-24 08:30:32.04	341.54	20.94	-46.0	-47.6	19.3	0.00e+00	0	43	0	1108344832	63	4347
2026-01-24 08:30:33.05	341.43	20.82	-45.9	-47.4	19.4	0.00e+00	0	44	0	1110441984	63	4287
2026-01-24 08:30:34.05	341.33	20.70	-46.0	-47.5	19.3	0.00e+00	0	43	0	1112539136	63	4323
2026-01-24 08:30:35.06	341.22	20.57	-46.1	-47.6	19.3	0.00e+00	0	43	0	1113587712	63	4366
2026-01-24 08:30:36.07	341.11	20.45	-46.1	-47.6	19.3	0.00e+00	0	43	0	1115684864	63	4370
2026-01-24 08:30:37.08	341.01	20.33	-45.9	-47.4	19.5	0.00e+00	0	43	0	1117782016	63	4263
2026-01-24 08:30:38.09	340.91	20.21	-46.2	-47.7	19.2	0.00e+00	0	44	0	1119879168	63	4419
2026-01-24 08:30:39.09	340.80	20.09	-46.0	-47.6	19.3	0.00e+00	0	43	0	1120927744	63	4341
2026-01-24 08:30:40.10	340.70	19.97	-46.0	-47.4	19.6	0.00e+00	0	43	0	1123024896	63	4279
2026-01-24 08:30:41.11	340.60	19.85	-46.0	-47.4	19.5	0.00e+00	0	43	0	1125122048	63	4288
2026-01-24 08:30:42.12	340.50	19.73	-45.9	-47.3	19.6	0.00e+00	0	43	0	1127219200	63	4221
2026-01-24 08:30:43.13	340.40	19.61	-45.8	-47.2	19.6	0.00e+00	0	43	0	1129316352	63	4188
2026-01-24 08:30:44.14	340.30	19.49	-45.8	-47.2	19.7	0.00e+00	0	43	0	1131413504	63	4187
2026-01-24 08:30:45.14	340.20	19.37	-45.8	-47.2	19.7	0.00e+00	0	43	0	1132462080	63	4167
2026-01-24 08:30:46.15	340.11	19.26	-45.7	-47.2	19.7	0.00e+00	0	43	0	1134559232	63	4146
2026-01-24 08:30:47.16	340.01	19.14	-45.7	-47.2	19.7	0.00e+00	0	43	0	1136656384	63	4150
2026-01-24 08:30:48.17	339.91	19.02	-45.8	-47.3	19.5	0.00e+00	0	43	0	1138753536	63	4215
2026-01-24 08:30:49.18	339.82	18.91	-45.8	-47.2	19.6	0.00e+00	0	43	0	1140850688	63	4188
2026-01-24 08:30:50.19	339.73	18.79	-45.7	-47.2	19.6	0.00e+00	0	43	0	1141899264	63	4162
2026-01-24 08:30:51.19	339.63	18.68	-45.7	-47.2	19.6	0.00e+00	0	43	0	1143996416	63	4168
2026-01-24 08:30:52.20	339.54	18.56	-45.7	-47.2	19.6	0.00e+00	0	43	0	1146093568	63	4163
2026-01-24 08:30:53.21	339.45	18.45	-45.9	-47.4	19.4	0.00e+00	0	43	0	1148190720	63	4267
2026-01-24 08:30:54.22	339.36	18.33	-46.1	-47.7	19.2	0.00e+00	0	43	0	1149239296	63	4408
2026-01-24 08:30:55.23	339.27	18.22	-46.2	-47.8	19.0	0.00e+00	0	43	0	1151336448	63	4486
2026-01-24 08:30:56.24	339.18	18.11	-46.4	-48.0	18.9	0.00e+00	0	43	0	1153433600	63	4561
2026-01-24 08:30:57.25	339.09	17.99	-46.5	-48.1	18.7	7.00e-07	0	43	0	1155530752	63	4649
2026-01-24 08:30:58.25	339.00	17.88	-46.4	-48.0	18.8	0.00e+00	0	43	0	1157627904	63	4571
2026-01-24 08:30:59.26	338.91	17.77	-46.4	-48.1	18.7	0.00e+00	0	43	0	1159725056	63	4618
2026-01-24 08:31:00.27	338.82	17.66	-46.6	-48.3	18.6	0.00e+00	0	43	0	1160773632	63	4709
2026-01-24 08:31:01.28	338.74	17.55	-46.2	-47.7	19.0	0.00e+00	0	43	0	1162870784	63	4435
2026-01-24 08:31:02.29	338.65	17.44	-46.1	-47.6	19.2	0.00e+00	0	43	0	1164967936	63	4366
2026-01-24 08:31:03.30	338.57	17.33	-46.0	-47.5	19.3	0.00e+00	0	43	0	1167065088	63	4317
2026-01-24 08:31:04.31	338.48	17.22	-45.6	-47.0	19.7	0.00e+00	0	43	0	1169162240	63	4066
2026-01-24 08:31:05.31	338.40	17.11	-45.7	-47.1	19.6	0.00e+00	0	43	0	1170210816	63	4144
2026-01-24 08:31:06.32	338.32	17.00	-45.5	-46.9	19.9	0.00e+00	0	43	0	1172307968	63	4036
2026-01-24 08:31:07.33	338.23	16.89	-45.4	-46.8	19.9	0.00e+00	0	43	0	1174405120	62	4199
2026-01-24 08:31:08.34	338.15	16.79	-45.1	-46.4	20.3	0.00e+00	0	43	0	1176502272	62	4024
2026-01-24 08:31:09.35	338.07	16.68	-44.9	-46.2	20.5	0.00e+00	0	43	0	1178599424	61	4166
2026-01-24 08:31:10.36	337.99	16.57	-44.7	-46.0	20.6	0.00e+00	0	43	0	1179648000	61	4065
2026-01-24 08:31:11.37	337.91	16.47	-44.8	-46.1	20.6	0.00e+00	0	43	0	1181745152	61	4106
2026-01-24 08:31:12.38	337.83	16.36	-45.0	-46.3	20.3	0.00e+00	0	43	0	1183842304	61	4215
2026-01-24 08:31:13.38	337.75	16.25	-44.9	-46.2	20.4	0.00e+00	0	43	0	1185939456	61	4183
2026-01-24 08:31:14.39	337.67	16.15	-45.2	-46.6	20.0	0.00e+00	0	43	0	1188036608	61	4369
2026-01-24 08:31:15.40	337.59	16.04	-45.5	-46.9	19.8	0.00e+00	0	43	0	1189085184	61	4517
2026-01-24 08:31:16.41	337.52	15.94	-45.7	-47.1	19.6	0.00e+00	0	43	0	1191182336	61	4634
2026-01-24 08:31:17.41	337.44	15.84	-46.1	-47.6	19.1	0.00e+00	0	43	0	1193279488	62	4631
2026-01-24 08:31:18.42	337.36	15.73	-46.4	-48.0	18.7	7.00e-07	0	43	0	1195376640	63	4577
2026-01-24 08:31:19.43	337.29	15.63	-46.6	-48.3	18.4	0.00e+00	0	43	0	1197473792	63	4733
2026-01-24 08:31:20.44	337.21	15.53	-46.8	-48.6	18.0	0.00e+00	0	43	0	1199570944	64	4637
2026-01-24 08:31:21.45	337.14	15.42	-47.0	-48.9	17.7	3.00e-06	0	43	0	1200619520	64	4813
2026-01-24 08:31:22.45	337.06	15.32	-47.2	-49.2	17.5	0.00e+00	0	43	0	1202716672	65	4666
2026-01-24 08:31:23.46	336.99	15.22	-47.5	-49.5	17.2	0.00e+00	0	43	0	1204813824	65	4861
2026-01-24 08:31:24.47	336.92	15.12	-47.7	-49.8	16.8	0.00e+00	0	43	0	1206910976	65	5037
2026-01-24 08:31:25.48	336.85	15.02	-47.6	-49.8	17.0	0.00e+00	0	43	0	1207959552	66	4717
2026-01-24 08:31:26.49	336.77	14.92	-47.7	-49.9	16.8	0.00e+00	0	44	0	1210056704	66	4806
2026-01-24 08:31:27.49	336.70	14.82	-47.7	-49.9	16.7	0.00e+00	0	43	0	1212153856	66	4805
2026-01-24 08:31:28.50	336.63	14.72	-47.7	-49.8	16.9	0.00e+00	0	43	0	1214251008	66	4744
2026-01-24 08:31:29.51	336.56	14.62	-47.4	-49.5	17.2	0.00e+00	0	43	0	1216348160	66	4576
2026-01-24 08:31:30.52	336.49	14.52	-47.1	-49.0	17.6	0.00e+00	0	43	0	1217396736	66	4340
2026-01-24 08:31:31.53	336.42	14.42	-47.2	-49.2	17.5	5.30e-06	0	43	0	1219493888	66	4401
2026-01-24 08:31:32.53	336.35	14.32	-47.1	-49.0	17.6	0.00e+00	0	43	0	1221591040	66	4319
2026-01-24 08:31:33.54	336.28	14.22	-46.9	-48.7	17.9	0.00e+00	0	43	0	1223688192	65	4430
2026-01-24 08:31:34.55	336.22	14.12	-46.9	-48.8	17.8	9.90e-06	0	43	0	1225785344	65	4454
2026-01-24 08:31:35.56	336.15	14.03	-47.0	-48.9	17.7	0.00e+00	0	43	0	1227882496	65	4512
2026-01-24 08:31:36.56	336.08	13.93	-46.8	-48.7	17.9	0.00e+00	0	43	0	1228931072	65	4405
2026-01-24 08:31:37.57	336.02	13.83	-46.7	-48.5	18.1	0.00e+00	0	43	0	1231028224	65	4300
2026-01-24 08:31:38.58	335.95	13.74	-46.8	-48.6	17.9	0.00e+00	0	43	0	1233125376	65	4386
2026-01-24 08:31:39.59	335.88	13.64	-46.8	-48.6	18.1	0.00e+00	0	43	0	1235222528	65	4355
2026-01-24 08:31:40.60	335.82	13.54	-46.7	-48.6	18.0	0.00e+00	0	43	0	1236271104	65	4341
2026-01-24 08:31:41.60	335.75	13.45	-47.0	-48.8	17.7	0.00e+00	0	43	0	1238368256	65	4491
2026-01-24 08:31:42.61	335.69	13.35	-46.9	-48.7	17.8	0.00e+00	0	43	0	1240465408	65	4426
2026-01-24 08:31:43.62	335.63	13.26	-46.8	-48.6	17.9	0.00e+00	0	43	0	1242562560	65	4391
2026-01-24 08:31:44.63	335.56	13.16	-47.1	-49.0	17.6	0.00e+00	0	43	0	1244659712	65	4593
