passes_logs/2026/01/24/R3.2S_Murmansk/R3.2S_Murmansk__20260124_102048_NOAA_20_JPSS-1_rec.log

#Pass ID: 20260124_102048_NOAA 20 (JPSS-1)
#Satellite: NOAA 20 (JPSS-1)
#Configuration: NOAA 20
#almurnet v.1.7.20251203
#Start time: 2026-01-24 10:20:48

#Version: 2.2.20231116
#Station: R3.2S_Murmansk
#Location: 33.079688 lon 68.888172 lat
#TLE: 1 43013U 17073A   26023.57676825  .00000205  00000+0  11821-3 0  9990
#TLE: 2 43013  98.7645 324.4259 0001147  27.0566 333.0670 14.19539368423954

#Time	Az	El	Level	Level2	SNR	BER	BlckErr	Temp	State	Recorded	gain1	gain2
2026-01-24 10:20:48.30	171.66	1.99	-52.1	-67.1	3.8	1.49e+00	0	41	0	0	74	21864
2026-01-24 10:20:49.31	171.68	2.05	-52.1	-67.1	3.8	1.49e+00	0	42	104	0	74	21944
2026-01-24 10:20:50.32	171.71	2.12	-52.1	-67.1	3.8	1.49e+00	0	41	104	0	74	21813
2026-01-24 10:20:51.33	171.73	2.18	-52.1	-67.1	3.8	1.49e+00	0	41	104	0	74	21837
2026-01-24 10:20:52.34	171.76	2.24	-52.1	-67.1	3.8	1.49e+00	0	42	104	0	74	21851
2026-01-24 10:20:53.35	171.79	2.31	-52.1	-67.1	3.8	1.49e+00	0	41	104	0	74	21800
2026-01-24 10:20:54.36	171.81	2.37	-52.1	-67.0	3.8	1.49e+00	0	42	104	0	74	21753
2026-01-24 10:20:55.36	171.84	2.44	-52.1	-67.0	3.8	1.49e+00	0	42	104	0	74	21748
2026-01-24 10:20:56.37	171.87	2.50	-52.5	-67.2	3.8	1.49e+00	0	42	104	0	72	24700
2026-01-24 10:20:57.38	171.89	2.57	-52.1	-67.0	3.8	1.49e+00	0	42	104	0	74	21726
2026-01-24 10:20:58.39	171.92	2.63	-52.1	-67.1	3.8	1.49e+00	0	42	104	0	74	21783
2026-01-24 10:20:59.39	171.95	2.70	-52.1	-67.1	3.8	1.49e+00	0	42	104	0	74	21817
2026-01-24 10:21:00.40	171.97	2.76	-52.1	-67.1	3.8	1.49e+00	0	42	104	0	74	21857
2026-01-24 10:21:01.41	172.00	2.83	-52.1	-67.0	3.8	1.49e+00	0	42	104	0	74	21731
2026-01-24 10:21:02.42	172.03	2.89	-52.1	-67.0	3.8	1.49e+00	0	42	104	0	74	21616
2026-01-24 10:21:03.43	172.05	2.96	-52.1	-66.9	3.8	1.49e+00	0	42	104	0	74	21438
2026-01-24 10:21:04.44	172.08	3.02	-52.1	-66.9	3.8	1.49e+00	0	42	104	0	74	21433
2026-01-24 10:21:05.45	172.11	3.09	-52.1	-66.9	3.8	1.49e+00	0	42	104	0	74	21403
2026-01-24 10:21:06.46	172.14	3.16	-52.1	-66.9	3.8	1.49e+00	0	42	104	0	74	21330
2026-01-24 10:21:07.46	172.16	3.22	-52.1	-66.9	3.8	1.49e+00	0	42	104	0	74	21301
2026-01-24 10:21:08.47	172.19	3.29	-52.1	-66.9	3.8	1.49e+00	0	42	104	0	74	21340
2026-01-24 10:21:09.48	172.22	3.36	-52.1	-67.0	3.8	1.49e+00	0	42	104	0	74	21522
2026-01-24 10:21:10.49	172.25	3.42	-52.1	-67.0	3.8	1.49e+00	0	42	104	0	74	21723
2026-01-24 10:21:11.50	172.28	3.49	-52.1	-67.1	3.8	1.49e+00	0	42	104	0	74	21769
2026-01-24 10:21:12.51	172.30	3.56	-52.1	-67.0	3.8	1.49e+00	0	42	104	0	74	21690
2026-01-24 10:21:13.52	172.33	3.62	-52.1	-67.0	3.8	1.49e+00	0	42	104	0	74	21532
2026-01-24 10:21:14.53	172.36	3.69	-52.1	-66.9	3.8	1.49e+00	0	42	104	0	74	21294
2026-01-24 10:21:15.54	172.39	3.76	-52.1	-66.8	3.8	1.49e+00	0	42	104	0	74	21227
2026-01-24 10:21:16.55	172.42	3.83	-52.1	-67.0	3.7	1.49e+00	0	42	104	0	74	21600
2026-01-24 10:21:17.55	172.45	3.90	-52.0	-66.9	3.8	1.49e+00	0	42	104	0	74	21350
2026-01-24 10:21:18.56	172.48	3.96	-52.1	-67.0	3.8	1.49e+00	0	42	104	0	74	21615
2026-01-24 10:21:19.57	172.51	4.03	-52.1	-66.9	3.8	1.49e+00	0	42	104	0	74	21338
2026-01-24 10:21:20.58	172.54	4.10	-52.0	-65.9	3.8	1.49e+00	0	42	104	0	74	19097
2026-01-24 10:21:21.59	172.56	4.17	-51.9	-64.1	4.0	1.49e+00	0	42	104	0	74	15426
2026-01-24 10:21:22.60	172.59	4.24	-51.7	-61.6	4.9	9.48e-01	0	42	0	0	74	11585
2026-01-24 10:21:23.61	172.62	4.31	-51.3	-59.2	6.6	3.58e-01	0	42	0	2097152	74	8767
2026-01-24 10:21:24.61	172.65	4.38	-50.9	-57.0	8.7	1.12e-01	0	42	0	4194304	73	7238
2026-01-24 10:21:25.62	172.68	4.45	-50.4	-55.4	10.4	5.80e-03	0	42	0	6291456	71	6766
2026-01-24 10:21:26.63	172.71	4.51	-49.8	-53.9	12.0	9.90e-04	0	42	0	8388608	71	5697
2026-01-24 10:21:27.64	172.74	4.58	-49.1	-52.5	13.5	3.66e-05	0	42	0	9437184	70	5119
2026-01-24 10:21:28.65	172.77	4.65	-48.7	-51.7	14.3	5.30e-06	0	42	0	11534336	68	5250
2026-01-24 10:21:29.65	172.80	4.72	-48.4	-51.1	14.9	0.00e+00	0	42	0	13631488	68	4926
2026-01-24 10:21:30.66	172.83	4.79	-47.8	-50.3	15.6	0.00e+00	0	43	0	15728640	67	4746
2026-01-24 10:21:31.67	172.86	4.86	-47.7	-50.1	15.9	0.00e+00	0	43	0	17825792	65	5180
2026-01-24 10:21:32.68	172.90	4.94	-47.4	-49.7	16.3	0.00e+00	0	43	0	18874368	65	4966
2026-01-24 10:21:33.69	172.93	5.01	-47.4	-49.6	16.3	0.00e+00	0	42	0	20971520	65	4909
2026-01-24 10:21:34.70	172.96	5.08	-47.7	-50.1	15.9	0.00e+00	0	42	0	23068672	65	5196
2026-01-24 10:21:35.71	172.99	5.15	-50.0	-54.5	11.6	1.06e-05	0	43	0	25165824	70	6453
2026-01-24 10:21:36.71	173.02	5.22	-47.1	-49.1	17.0	1.43e-03	0	43	0	27262976	64	4908
2026-01-24 10:21:37.72	173.05	5.29	-49.6	-53.2	13.2	0.00e+00	0	42	0	29360128	69	5876
2026-01-24 10:21:38.73	173.08	5.36	-47.8	-50.2	16.1	0.00e+00	0	42	0	30408704	65	5220
2026-01-24 10:21:39.74	173.11	5.43	-47.0	-49.0	17.0	9.10e-06	0	43	0	32505856	65	4566
2026-01-24 10:21:40.75	173.15	5.51	-46.9	-48.9	17.1	0.00e+00	0	43	0	34603008	65	4532
2026-01-24 10:21:41.75	173.18	5.58	-47.0	-49.1	16.9	0.00e+00	0	43	0	36700160	65	4627
2026-01-24 10:21:42.76	173.21	5.65	-47.0	-49.0	17.1	0.00e+00	0	43	0	37748736	64	4844
2026-01-24 10:21:43.77	173.24	5.72	-46.7	-48.6	17.4	0.00e+00	0	42	0	39845888	64	4646
2026-01-24 10:21:44.78	173.27	5.80	-46.6	-48.5	17.7	0.00e+00	0	43	0	41943040	64	4551
2026-01-24 10:21:45.79	173.31	5.87	-46.7	-48.6	17.5	0.00e+00	0	43	0	44040192	64	4625
2026-01-24 10:21:46.79	173.34	5.94	-46.8	-48.7	17.5	0.00e+00	0	43	0	46137344	64	4662
2026-01-24 10:21:47.80	173.37	6.02	-46.7	-48.6	17.6	0.00e+00	0	43	0	48234496	64	4599
2026-01-24 10:21:48.81	173.41	6.09	-46.8	-48.7	17.5	0.00e+00	0	43	0	49283072	64	4671
2026-01-24 10:21:49.82	173.44	6.16	-46.7	-48.6	17.6	0.00e+00	0	43	0	51380224	64	4617
2026-01-24 10:21:50.83	173.47	6.24	-46.7	-48.6	17.5	0.00e+00	0	43	0	53477376	64	4637
2026-01-24 10:21:51.83	173.50	6.31	-46.9	-48.9	17.3	0.00e+00	0	43	0	55574528	64	4765
2026-01-24 10:21:52.84	173.54	6.39	-47.0	-49.0	17.3	0.00e+00	0	42	0	57671680	64	4818
2026-01-24 10:21:53.85	173.57	6.46	-46.8	-48.7	17.5	0.00e+00	0	43	0	58720256	64	4691
2026-01-24 10:21:54.86	173.61	6.54	-46.8	-48.7	17.6	0.00e+00	0	43	0	60817408	64	4680
2026-01-24 10:21:55.87	173.64	6.61	-46.9	-48.9	17.4	0.00e+00	0	43	0	62914560	64	4786
2026-01-24 10:21:56.87	173.67	6.69	-46.7	-48.6	17.6	0.00e+00	0	43	0	65011712	64	4651
2026-01-24 10:21:57.88	173.71	6.76	-47.0	-48.9	17.3	0.00e+00	0	43	0	66060288	64	4809
2026-01-24 10:21:58.89	173.74	6.84	-46.9	-48.9	17.4	0.00e+00	0	43	0	68157440	64	4782
2026-01-24 10:21:59.90	173.78	6.91	-47.0	-48.9	17.4	0.00e+00	0	43	0	70254592	64	4800
2026-01-24 10:22:00.91	173.81	6.99	-46.8	-48.6	17.7	0.00e+00	0	43	0	72351744	64	4649
2026-01-24 10:22:01.91	173.85	7.06	-46.4	-48.2	18.2	0.00e+00	0	43	0	74448896	64	4395
2026-01-24 10:22:02.92	173.88	7.14	-46.4	-48.1	18.3	0.00e+00	0	43	0	76546048	64	4354
2026-01-24 10:22:03.93	173.92	7.22	-46.4	-48.2	18.1	0.00e+00	0	43	0	77594624	64	4404
2026-01-24 10:22:04.94	173.95	7.30	-46.3	-48.0	18.4	0.00e+00	0	43	0	79691776	64	4300
2026-01-24 10:22:05.95	173.99	7.37	-46.3	-48.0	18.4	0.00e+00	0	43	0	81788928	64	4324
2026-01-24 10:22:06.95	174.02	7.45	-46.3	-48.0	18.4	0.00e+00	0	43	0	83886080	64	4305
2026-01-24 10:22:07.96	174.06	7.53	-46.3	-48.0	18.4	0.00e+00	0	43	0	85983232	64	4321
2026-01-24 10:22:08.97	174.10	7.61	-46.5	-48.2	18.3	0.00e+00	0	43	0	87031808	63	4679
2026-01-24 10:22:09.97	174.13	7.68	-46.4	-48.0	18.5	0.00e+00	0	43	0	89128960	63	4592
2026-01-24 10:22:10.98	174.17	7.76	-46.3	-48.0	18.6	0.00e+00	0	43	0	91226112	63	4551
2026-01-24 10:22:11.99	174.21	7.84	-46.2	-47.9	18.7	0.00e+00	0	43	0	93323264	63	4494
2026-01-24 10:22:12.99	174.24	7.92	-46.4	-48.1	18.5	0.00e+00	0	43	0	94371840	63	4621
2026-01-24 10:22:14.00	174.28	8.00	-46.4	-48.0	18.5	0.00e+00	0	43	0	96468992	63	4595
2026-01-24 10:22:15.01	174.32	8.08	-46.5	-48.1	18.4	0.00e+00	0	43	0	98566144	63	4648
2026-01-24 10:22:16.02	174.35	8.16	-46.4	-48.1	18.5	0.00e+00	0	43	0	100663296	63	4630
2026-01-24 10:22:17.03	174.39	8.24	-46.4	-48.2	18.4	0.00e+00	0	43	0	102760448	63	4654
2026-01-24 10:22:18.03	174.43	8.32	-46.4	-48.0	18.6	0.00e+00	0	43	0	104857600	63	4595
2026-01-24 10:22:19.04	174.47	8.40	-46.3	-48.0	18.6	0.00e+00	0	43	0	105906176	63	4569
2026-01-24 10:22:20.05	174.51	8.48	-46.4	-48.1	18.5	0.00e+00	0	43	0	108003328	63	4613
2026-01-24 10:22:21.06	174.54	8.56	-46.1	-47.7	18.9	0.00e+00	0	43	0	110100480	63	4434
2026-01-24 10:22:22.07	174.58	8.64	-46.2	-47.9	18.8	0.00e+00	0	43	0	112197632	63	4496
2026-01-24 10:22:23.07	174.62	8.72	-46.3	-48.0	18.7	0.00e+00	0	43	0	114294784	63	4549
2026-01-24 10:22:24.08	174.66	8.80	-46.3	-48.0	18.6	0.00e+00	0	43	0	115343360	63	4563
2026-01-24 10:22:25.09	174.70	8.88	-46.3	-47.9	18.7	0.00e+00	0	43	0	117440512	63	4529
2026-01-24 10:22:26.10	174.74	8.97	-46.2	-47.8	18.9	0.00e+00	0	43	0	119537664	63	4447
2026-01-24 10:22:27.11	174.78	9.05	-46.1	-47.7	19.0	0.00e+00	0	43	0	121634816	63	4404
2026-01-24 10:22:28.11	174.82	9.13	-46.1	-47.7	19.0	0.00e+00	0	43	0	123731968	63	4394
2026-01-24 10:22:29.12	174.86	9.21	-46.1	-47.7	19.0	0.00e+00	0	43	0	124780544	63	4401
2026-01-24 10:22:30.13	174.90	9.30	-46.1	-47.6	19.0	0.00e+00	0	43	0	126877696	63	4377
2026-01-24 10:22:31.13	174.94	9.38	-46.0	-47.5	19.2	0.00e+00	0	43	0	128974848	63	4311
2026-01-24 10:22:32.14	174.98	9.46	-46.0	-47.6	19.1	0.00e+00	0	43	0	131072000	63	4354
2026-01-24 10:22:33.15	175.02	9.55	-46.0	-47.5	19.2	0.00e+00	0	43	0	133169152	63	4318
2026-01-24 10:22:34.15	175.06	9.63	-45.9	-47.4	19.3	0.00e+00	0	43	0	134217728	63	4267
2026-01-24 10:22:35.16	175.10	9.72	-45.9	-47.4	19.3	0.00e+00	0	43	0	136314880	63	4257
2026-01-24 10:22:36.17	175.14	9.80	-45.9	-47.4	19.3	0.00e+00	0	43	0	138412032	63	4272
2026-01-24 10:22:37.18	175.18	9.89	-46.0	-47.5	19.2	0.00e+00	0	43	0	140509184	63	4316
2026-01-24 10:22:38.19	175.23	9.97	-46.1	-47.6	19.1	0.00e+00	0	43	0	142606336	63	4380
2026-01-24 10:22:39.19	175.27	10.06	-45.9	-47.4	19.3	0.00e+00	0	43	0	143654912	63	4279
2026-01-24 10:22:40.20	175.31	10.14	-45.9	-47.4	19.4	0.00e+00	0	43	0	145752064	63	4246
2026-01-24 10:22:41.21	175.35	10.23	-45.7	-47.1	19.6	0.00e+00	0	43	0	147849216	63	4139
2026-01-24 10:22:42.22	175.40	10.31	-45.8	-47.3	19.5	0.00e+00	0	43	0	149946368	63	4196
2026-01-24 10:22:43.23	175.44	10.40	-45.8	-47.2	19.5	0.00e+00	0	43	0	152043520	62	4421
2026-01-24 10:22:44.23	175.48	10.49	-45.8	-47.2	19.5	0.00e+00	0	43	0	153092096	62	4437
2026-01-24 10:22:45.24	175.53	10.58	-45.9	-47.3	19.4	0.00e+00	0	43	0	155189248	62	4493
2026-01-24 10:22:46.25	175.57	10.66	-45.9	-47.4	19.3	0.00e+00	0	43	0	157286400	62	4528
2026-01-24 10:22:47.26	175.61	10.75	-45.7	-47.1	19.6	0.00e+00	0	43	0	159383552	62	4379
2026-01-24 10:22:48.27	175.66	10.84	-45.7	-47.2	19.6	0.00e+00	0	43	0	161480704	62	4393
2026-01-24 10:22:49.27	175.70	10.93	-45.7	-47.1	19.6	0.00e+00	0	43	0	162529280	62	4370
2026-01-24 10:22:50.28	175.75	11.02	-45.6	-47.0	19.8	0.00e+00	0	43	0	164626432	62	4327
2026-01-24 10:22:51.29	175.79	11.11	-45.6	-47.0	19.8	0.00e+00	0	43	0	166723584	62	4319
2026-01-24 10:22:52.30	175.84	11.20	-45.6	-47.0	19.8	0.00e+00	0	43	0	168820736	62	4323
2026-01-24 10:22:53.31	175.88	11.29	-45.7	-47.1	19.6	0.00e+00	0	43	0	170917888	62	4381
2026-01-24 10:22:54.31	175.93	11.37	-45.7	-47.1	19.7	0.00e+00	0	43	0	171966464	62	4348
2026-01-24 10:22:55.32	175.97	11.47	-45.6	-47.0	19.8	0.00e+00	0	43	0	174063616	62	4309
2026-01-24 10:22:56.33	176.02	11.56	-45.6	-47.0	19.8	0.00e+00	0	43	0	176160768	62	4328
2026-01-24 10:22:57.34	176.07	11.65	-45.6	-47.0	19.8	0.00e+00	0	43	0	178257920	62	4313
2026-01-24 10:22:58.35	176.11	11.74	-45.6	-47.0	19.8	0.00e+00	0	43	0	180355072	62	4323
2026-01-24 10:22:59.35	176.16	11.83	-45.5	-46.9	19.9	0.00e+00	0	43	0	181403648	62	4289
2026-01-24 10:23:00.36	176.21	11.92	-45.5	-46.9	19.9	0.00e+00	0	43	0	183500800	62	4247
2026-01-24 10:23:01.37	176.25	12.01	-45.5	-46.9	19.9	0.00e+00	0	43	0	185597952	62	4268
2026-01-24 10:23:02.38	176.30	12.11	-45.7	-47.1	19.7	0.00e+00	0	43	0	187695104	62	4360
2026-01-24 10:23:03.39	176.35	12.20	-45.7	-47.1	19.7	0.00e+00	0	43	0	189792256	62	4388
2026-01-24 10:23:04.39	176.40	12.29	-45.7	-47.1	19.8	0.00e+00	0	43	0	190840832	62	4362
2026-01-24 10:23:05.40	176.45	12.39	-45.5	-46.9	19.9	0.00e+00	0	43	0	192937984	62	4284
2026-01-24 10:23:06.41	176.50	12.48	-45.6	-47.0	19.8	0.00e+00	0	43	0	195035136	62	4337
2026-01-24 10:23:07.42	176.55	12.58	-45.7	-47.1	19.8	0.00e+00	0	43	0	197132288	62	4367
2026-01-24 10:23:08.42	176.59	12.67	-45.6	-47.0	19.9	0.00e+00	0	43	0	199229440	62	4303
2026-01-24 10:23:09.43	176.64	12.77	-45.6	-47.0	19.8	0.00e+00	0	43	0	200278016	62	4336
2026-01-24 10:23:10.44	176.69	12.86	-45.6	-47.0	19.9	0.00e+00	0	43	0	202375168	62	4294
2026-01-24 10:23:11.45	176.75	12.96	-45.6	-47.0	19.9	0.00e+00	0	43	0	204472320	62	4322
2026-01-24 10:23:12.46	176.80	13.05	-45.5	-46.8	20.0	0.00e+00	0	43	0	206569472	62	4234
2026-01-24 10:23:13.47	176.85	13.15	-45.5	-46.9	20.0	0.00e+00	0	43	0	208666624	62	4243
2026-01-24 10:23:14.47	176.90	13.25	-45.5	-46.8	20.0	0.00e+00	0	43	0	209715200	62	4241
2026-01-24 10:23:15.48	176.95	13.34	-45.5	-46.8	20.0	0.00e+00	0	43	0	211812352	62	4241
2026-01-24 10:23:16.49	177.00	13.44	-45.6	-46.9	20.0	0.00e+00	0	43	0	213909504	62	4280
2026-01-24 10:23:17.50	177.05	13.54	-45.3	-46.7	20.2	0.00e+00	0	43	0	216006656	61	4401
2026-01-24 10:23:18.51	177.11	13.64	-45.4	-46.8	20.1	0.00e+00	0	43	0	218103808	61	4455
2026-01-24 10:23:19.52	177.16	13.74	-45.4	-46.7	20.2	0.00e+00	0	43	0	220200960	61	4433
2026-01-24 10:23:20.52	177.21	13.84	-45.5	-46.8	20.1	0.00e+00	0	43	0	221249536	61	4476
2026-01-24 10:23:21.53	177.27	13.94	-45.5	-46.8	20.0	0.00e+00	0	43	0	223346688	61	4489
2026-01-24 10:23:22.54	177.32	14.04	-45.5	-46.9	20.0	0.00e+00	0	43	0	225443840	61	4507
2026-01-24 10:23:23.55	177.37	14.14	-45.4	-46.8	20.1	0.00e+00	0	43	0	227540992	61	4472
2026-01-24 10:23:24.56	177.43	14.24	-45.4	-46.8	20.2	0.00e+00	0	43	0	228589568	61	4443
2026-01-24 10:23:25.57	177.48	14.34	-45.4	-46.8	20.1	0.00e+00	0	43	0	230686720	61	4462
2026-01-24 10:23:26.57	177.54	14.44	-45.5	-46.8	20.1	0.00e+00	0	43	0	232783872	61	4471
2026-01-24 10:23:27.58	177.60	14.54	-45.6	-47.0	19.9	0.00e+00	0	43	0	234881024	61	4586
2026-01-24 10:23:28.59	177.65	14.64	-45.6	-47.0	19.9	0.00e+00	0	43	0	236978176	61	4587
2026-01-24 10:23:29.60	177.71	14.75	-45.5	-46.9	20.0	0.00e+00	0	43	0	238026752	61	4531
2026-01-24 10:23:30.61	177.76	14.85	-45.5	-46.8	20.2	0.00e+00	0	43	0	240123904	61	4464
2026-01-24 10:23:31.62	177.82	14.95	-45.4	-46.8	20.2	0.00e+00	0	43	0	242221056	61	4454
2026-01-24 10:23:32.63	177.88	15.06	-45.5	-46.9	20.1	0.00e+00	0	43	0	244318208	61	4514
2026-01-24 10:23:33.64	177.94	15.16	-45.5	-46.8	20.2	0.00e+00	0	43	0	246415360	61	4471
2026-01-24 10:23:34.65	178.00	15.27	-45.5	-46.8	20.1	0.00e+00	0	43	0	248512512	61	4481
2026-01-24 10:23:35.66	178.05	15.37	-45.5	-46.8	20.2	0.00e+00	0	43	0	249561088	61	4468
2026-01-24 10:23:36.67	178.11	15.48	-45.5	-46.8	20.1	0.00e+00	0	43	0	251658240	61	4481
2026-01-24 10:23:37.67	178.17	15.58	-45.4	-46.8	20.2	0.00e+00	0	43	0	253755392	61	4453
2026-01-24 10:23:38.68	178.23	15.69	-45.3	-46.7	20.3	0.00e+00	0	43	0	255852544	61	4396
2026-01-24 10:23:39.69	178.29	15.80	-45.3	-46.6	20.3	0.00e+00	0	43	0	256901120	61	4391
2026-01-24 10:23:40.70	178.35	15.91	-45.5	-46.8	20.2	0.00e+00	0	43	0	258998272	61	4467
2026-01-24 10:23:41.70	178.41	16.01	-45.5	-46.8	20.2	0.00e+00	0	43	0	261095424	61	4465
2026-01-24 10:23:42.71	178.48	16.12	-45.4	-46.7	20.3	0.00e+00	0	43	0	263192576	61	4414
2026-01-24 10:23:43.72	178.54	16.23	-45.3	-46.6	20.4	0.00e+00	0	43	0	265289728	61	4382
2026-01-24 10:23:44.73	178.60	16.34	-45.4	-46.8	20.3	0.00e+00	0	43	0	267386880	61	4452
2026-01-24 10:23:45.74	178.66	16.45	-45.5	-46.8	20.2	0.00e+00	0	43	0	268435456	61	4467
2026-01-24 10:23:46.75	178.73	16.56	-45.5	-46.8	20.2	0.00e+00	0	43	0	270532608	61	4489
2026-01-24 10:23:47.75	178.79	16.67	-45.5	-46.9	20.1	0.00e+00	0	43	0	272629760	61	4513
2026-01-24 10:23:48.76	178.85	16.78	-45.5	-46.8	20.2	0.00e+00	0	43	0	274726912	61	4471
2026-01-24 10:23:49.77	178.92	16.89	-45.5	-46.9	20.2	0.00e+00	0	43	0	276824064	61	4497
2026-01-24 10:23:50.78	178.98	17.01	-45.5	-46.9	20.2	0.00e+00	0	43	0	277872640	61	4514
2026-01-24 10:23:51.79	179.05	17.12	-45.6	-47.0	20.1	0.00e+00	0	43	0	279969792	61	4550
2026-01-24 10:23:52.80	179.11	17.23	-45.5	-46.9	20.2	0.00e+00	0	43	0	282066944	61	4496
2026-01-24 10:23:53.81	179.18	17.35	-45.6	-46.9	20.1	0.00e+00	0	43	0	284164096	61	4536
2026-01-24 10:23:54.81	179.25	17.46	-45.5	-46.8	20.2	0.00e+00	0	43	0	286261248	61	4484
2026-01-24 10:23:55.82	179.31	17.57	-45.6	-47.0	20.1	0.00e+00	0	43	0	287309824	61	4549
2026-01-24 10:23:56.83	179.38	17.69	-45.5	-46.8	20.2	0.00e+00	0	43	0	289406976	61	4480
2026-01-24 10:23:57.84	179.45	17.80	-45.5	-46.8	20.2	0.00e+00	0	43	0	291504128	61	4469
2026-01-24 10:23:58.85	179.52	17.92	-45.5	-46.9	20.2	0.00e+00	0	43	0	293601280	61	4514
2026-01-24 10:23:59.85	179.59	18.04	-45.6	-46.9	20.1	0.00e+00	0	43	0	295698432	61	4529
2026-01-24 10:24:00.86	179.66	18.15	-45.7	-47.1	20.0	0.00e+00	0	43	0	296747008	62	4349
2026-01-24 10:24:01.87	179.73	18.27	-45.5	-46.8	20.3	0.00e+00	0	43	0	298844160	62	4231
2026-01-24 10:24:02.88	179.80	18.39	-45.5	-46.9	20.2	0.00e+00	0	43	0	300941312	62	4258
2026-01-24 10:24:03.89	179.87	18.51	-45.5	-46.9	20.2	0.00e+00	0	43	0	303038464	62	4262
2026-01-24 10:24:04.90	179.94	18.63	-45.6	-47.0	20.1	0.00e+00	0	43	0	305135616	62	4309
2026-01-24 10:24:05.91	180.01	18.75	-45.6	-46.9	20.2	0.00e+00	0	43	0	307232768	62	4275
2026-01-24 10:24:06.91	180.09	18.87	-45.6	-46.9	20.2	0.00e+00	0	43	0	308281344	62	4270
2026-01-24 10:24:07.92	180.16	18.99	-45.5	-46.8	20.3	0.00e+00	0	43	0	310378496	62	4205
2026-01-24 10:24:08.93	180.23	19.11	-45.4	-46.8	20.4	0.00e+00	0	43	0	312475648	62	4196
2026-01-24 10:24:09.94	180.31	19.23	-45.5	-46.8	20.3	0.00e+00	0	43	0	314572800	62	4220
2026-01-24 10:24:10.95	180.38	19.36	-45.5	-46.8	20.3	0.00e+00	0	43	0	315621376	62	4239
2026-01-24 10:24:11.96	180.46	19.48	-45.5	-46.8	20.3	0.00e+00	0	43	0	317718528	62	4238
2026-01-24 10:24:12.96	180.53	19.60	-45.5	-46.8	20.3	0.00e+00	0	43	0	319815680	61	4485
2026-01-24 10:24:13.97	180.61	19.73	-45.5	-46.8	20.3	0.00e+00	0	43	0	321912832	61	4477
2026-01-24 10:24:14.98	180.69	19.85	-45.6	-46.9	20.2	0.00e+00	0	43	0	324009984	61	4522
2026-01-24 10:24:15.99	180.77	19.98	-45.6	-46.9	20.2	0.00e+00	0	43	0	325058560	61	4533
2026-01-24 10:24:17.00	180.85	20.10	-45.4	-46.7	20.4	0.00e+00	0	43	0	327155712	61	4421
2026-01-24 10:24:18.01	180.92	20.23	-45.3	-46.7	20.4	0.00e+00	0	43	0	329252864	61	4417
2026-01-24 10:24:19.02	181.00	20.36	-45.4	-46.8	20.4	0.00e+00	0	43	0	331350016	61	4448
2026-01-24 10:24:20.03	181.09	20.49	-45.2	-46.4	20.7	0.00e+00	0	43	0	333447168	61	4282
2026-01-24 10:24:21.03	181.17	20.61	-45.2	-46.5	20.6	0.00e+00	0	43	0	335544320	61	4304
2026-01-24 10:24:22.04	181.25	20.74	-45.0	-46.3	20.8	0.00e+00	0	43	0	336592896	61	4214
2026-01-24 10:24:23.05	181.33	20.87	-45.0	-46.3	20.9	0.00e+00	0	43	0	338690048	61	4202
2026-01-24 10:24:24.05	181.41	21.00	-45.1	-46.3	20.8	0.00e+00	0	43	0	340787200	61	4220
2026-01-24 10:24:25.06	181.50	21.13	-45.2	-46.4	20.7	0.00e+00	0	43	0	342884352	61	4278
2026-01-24 10:24:26.07	181.58	21.26	-44.8	-46.0	21.1	0.00e+00	0	43	0	343932928	61	4062
2026-01-24 10:24:27.08	181.67	21.40	-44.8	-46.0	21.1	0.00e+00	0	43	0	346030080	60	4310
2026-01-24 10:24:28.09	181.75	21.53	-44.6	-45.8	21.3	0.00e+00	0	43	0	348127232	60	4198
2026-01-24 10:24:29.10	181.84	21.66	-44.6	-45.8	21.3	0.00e+00	0	43	0	350224384	60	4228
2026-01-24 10:24:30.10	181.92	21.79	-44.6	-45.8	21.4	0.00e+00	0	43	0	352321536	60	4194
2026-01-24 10:24:31.11	182.01	21.93	-44.4	-45.5	21.6	0.00e+00	0	43	0	354418688	60	4084
2026-01-24 10:24:32.12	182.10	22.07	-44.4	-45.5	21.6	0.00e+00	0	43	0	355467264	60	4068
2026-01-24 10:24:33.13	182.19	22.20	-44.2	-45.3	21.7	0.00e+00	0	43	0	357564416	60	4000
2026-01-24 10:24:34.13	182.28	22.34	-44.2	-45.3	21.8	0.00e+00	0	43	0	359661568	60	3973
2026-01-24 10:24:35.14	182.37	22.47	-44.1	-45.2	21.9	0.00e+00	0	43	0	361758720	60	3919
2026-01-24 10:24:36.15	182.46	22.61	-44.4	-45.6	21.9	0.00e+00	0	43	0	363855872	59	4342
2026-01-24 10:24:37.15	182.56	22.75	-44.4	-45.6	21.9	0.00e+00	0	43	0	364904448	59	4350
2026-01-24 10:24:38.16	182.65	22.89	-44.3	-45.4	22.0	0.00e+00	0	43	0	367001600	59	4282
2026-01-24 10:24:39.17	182.74	23.03	-44.3	-45.3	22.1	0.00e+00	0	43	0	369098752	59	4238
2026-01-24 10:24:40.18	182.84	23.17	-44.2	-45.3	22.1	0.00e+00	0	43	0	371195904	59	4210
2026-01-24 10:24:41.19	182.93	23.31	-44.2	-45.3	22.2	0.00e+00	0	43	0	372244480	59	4197
2026-01-24 10:24:42.19	183.03	23.45	-44.1	-45.2	22.2	0.00e+00	0	43	0	374341632	59	4174
2026-01-24 10:24:43.20	183.13	23.60	-44.1	-45.2	22.2	0.00e+00	0	43	0	376438784	59	4156
2026-01-24 10:24:44.21	183.22	23.74	-44.2	-45.3	22.1	0.00e+00	0	43	0	378535936	59	4217
2026-01-24 10:24:45.22	183.32	23.88	-44.3	-45.4	22.0	0.00e+00	0	43	0	380633088	59	4265
2026-01-24 10:24:46.23	183.42	24.03	-44.2	-45.3	22.1	0.00e+00	0	43	0	382730240	59	4216
2026-01-24 10:24:47.24	183.52	24.18	-44.1	-45.2	22.2	0.00e+00	0	43	0	383778816	59	4177
2026-01-24 10:24:48.24	183.63	24.32	-44.2	-45.2	22.2	0.00e+00	0	43	0	385875968	59	4188
2026-01-24 10:24:49.25	183.73	24.47	-44.1	-45.2	22.2	0.00e+00	0	43	0	387973120	59	4159
2026-01-24 10:24:50.26	183.83	24.62	-44.1	-45.2	22.2	0.00e+00	0	43	0	390070272	59	4179
2026-01-24 10:24:51.27	183.94	24.76	-44.1	-45.2	22.3	0.00e+00	0	43	0	392167424	59	4148
2026-01-24 10:24:52.28	184.04	24.91	-44.1	-45.2	22.2	0.00e+00	0	43	0	393216000	59	4149
2026-01-24 10:24:53.28	184.15	25.06	-44.2	-45.3	22.2	0.00e+00	0	43	0	395313152	59	4194
2026-01-24 10:24:54.29	184.26	25.21	-44.2	-45.2	22.2	0.00e+00	0	43	0	397410304	59	4188
2026-01-24 10:24:55.30	184.36	25.37	-44.1	-45.1	22.3	0.00e+00	0	43	0	399507456	59	4131
2026-01-24 10:24:56.31	184.47	25.52	-44.2	-45.3	22.2	0.00e+00	0	43	0	401604608	59	4199
2026-01-24 10:24:57.32	184.58	25.67	-44.1	-45.2	22.3	0.00e+00	0	43	0	402653184	59	4156
2026-01-24 10:24:58.33	184.70	25.83	-44.0	-45.2	22.2	0.00e+00	0	43	0	404750336	58	4398
2026-01-24 10:24:59.33	184.81	25.98	-44.2	-45.3	22.1	0.00e+00	0	43	0	406847488	58	4463
2026-01-24 10:25:00.34	184.92	26.13	-44.2	-45.3	22.2	0.00e+00	0	43	0	408944640	59	4195
2026-01-24 10:25:01.35	185.04	26.29	-44.3	-45.4	22.0	0.00e+00	0	43	0	411041792	59	4262
2026-01-24 10:25:02.36	185.15	26.45	-44.4	-45.5	22.0	0.00e+00	0	43	0	412090368	59	4292
2026-01-24 10:25:03.36	185.27	26.60	-44.4	-45.5	21.9	0.00e+00	0	43	0	414187520	59	4319
2026-01-24 10:25:04.37	185.39	26.76	-44.5	-45.6	21.8	0.00e+00	0	43	0	416284672	59	4390
2026-01-24 10:25:05.38	185.50	26.92	-44.5	-45.6	21.8	0.00e+00	0	43	0	418381824	59	4383
2026-01-24 10:25:06.39	185.62	27.08	-44.6	-45.7	21.8	0.00e+00	0	43	0	420478976	59	4421
2026-01-24 10:25:07.40	185.75	27.25	-44.5	-45.6	21.9	0.00e+00	0	43	0	421527552	59	4388
2026-01-24 10:25:08.41	185.87	27.41	-44.7	-45.8	21.7	0.00e+00	0	43	0	423624704	59	4458
2026-01-24 10:25:09.41	185.99	27.57	-44.4	-45.5	21.7	0.00e+00	0	43	0	425721856	60	4059
2026-01-24 10:25:10.42	186.12	27.73	-44.4	-45.5	21.7	0.00e+00	0	43	0	427819008	60	4075
2026-01-24 10:25:11.43	186.24	27.90	-44.5	-45.6	21.6	0.00e+00	0	43	0	429916160	60	4119
2026-01-24 10:25:12.44	186.37	28.06	-44.6	-45.7	21.5	0.00e+00	0	43	0	430964736	60	4168
2026-01-24 10:25:13.45	186.50	28.23	-44.7	-45.9	21.3	0.00e+00	0	43	0	433061888	60	4268
2026-01-24 10:25:14.45	186.63	28.39	-44.9	-46.1	21.1	0.00e+00	0	43	0	435159040	60	4387
2026-01-24 10:25:15.46	186.76	28.56	-45.1	-46.3	20.9	0.00e+00	0	43	0	437256192	60	4488
2026-01-24 10:25:16.47	186.89	28.73	-45.3	-46.6	20.7	0.00e+00	0	43	0	439353344	61	4362
2026-01-24 10:25:17.48	187.03	28.90	-45.6	-46.9	20.4	0.00e+00	0	43	0	440401920	61	4528
2026-01-24 10:25:18.49	187.16	29.07	-45.7	-47.0	20.3	0.00e+00	0	43	0	442499072	61	4576
2026-01-24 10:25:19.49	187.30	29.24	-45.9	-47.2	20.1	0.00e+00	0	43	0	444596224	62	4437
2026-01-24 10:25:20.50	187.44	29.41	-46.1	-47.5	19.8	0.00e+00	0	43	0	446693376	62	4573
2026-01-24 10:25:21.51	187.58	29.59	-46.2	-47.7	19.7	0.00e+00	0	43	0	448790528	63	4395
2026-01-24 10:25:22.52	187.72	29.76	-46.4	-47.8	19.5	0.00e+00	0	43	0	449839104	63	4489
2026-01-24 10:25:23.52	187.86	29.94	-46.6	-48.1	19.3	0.00e+00	0	43	0	451936256	63	4607
2026-01-24 10:25:24.53	188.00	30.11	-46.7	-48.3	19.1	0.00e+00	0	43	0	454033408	64	4446
2026-01-24 10:25:25.54	188.15	30.29	-46.9	-48.6	18.7	0.00e+00	0	43	0	456130560	64	4611
2026-01-24 10:25:26.55	188.30	30.47	-47.1	-48.8	18.5	0.00e+00	0	43	0	458227712	64	4720
2026-01-24 10:25:27.56	188.45	30.64	-47.3	-49.1	18.3	0.00e+00	0	43	0	459276288	65	4610
2026-01-24 10:25:28.56	188.60	30.82	-47.5	-49.3	18.1	0.00e+00	0	43	0	461373440	65	4719
2026-01-24 10:25:29.57	188.75	31.00	-47.6	-49.5	17.9	0.00e+00	0	43	0	463470592	65	4827
2026-01-24 10:25:30.58	188.90	31.18	-47.8	-49.6	17.7	0.00e+00	0	43	0	465567744	66	4648
2026-01-24 10:25:31.59	189.06	31.37	-47.9	-49.9	17.5	0.00e+00	0	43	0	467664896	66	4774
2026-01-24 10:25:32.60	189.22	31.55	-48.0	-49.9	17.5	0.00e+00	0	43	0	468713472	66	4781
2026-01-24 10:25:33.61	189.37	31.73	-48.1	-50.2	17.2	0.00e+00	0	43	0	470810624	66	4928
2026-01-24 10:25:34.61	189.53	31.92	-48.0	-50.0	17.4	0.00e+00	0	43	0	472907776	66	4846
2026-01-24 10:25:35.62	189.70	32.10	-47.9	-49.8	17.6	0.00e+00	0	43	0	475004928	66	4730
2026-01-24 10:25:36.63	189.86	32.29	-47.9	-49.7	17.7	0.00e+00	0	43	0	477102080	66	4689
2026-01-24 10:25:37.64	190.03	32.48	-47.9	-49.7	17.7	0.00e+00	0	43	0	478150656	66	4693
2026-01-24 10:25:38.65	190.20	32.66	-47.7	-49.5	17.9	0.00e+00	0	43	0	480247808	65	4838
2026-01-24 10:25:39.65	190.36	32.85	-47.4	-49.1	18.3	0.00e+00	0	43	0	482344960	65	4638
2026-01-24 10:25:40.66	190.54	33.04	-47.2	-48.9	18.5	0.00e+00	0	43	0	484442112	65	4531
2026-01-24 10:25:41.67	190.71	33.23	-47.0	-48.6	18.8	0.00e+00	0	43	0	486539264	64	4631
2026-01-24 10:25:42.68	190.89	33.43	-47.0	-48.7	18.7	0.00e+00	0	43	0	487587840	64	4654
2026-01-24 10:25:43.68	191.06	33.62	-46.8	-48.4	19.0	0.00e+00	0	43	0	489684992	64	4522
2026-01-24 10:25:44.69	191.24	33.81	-46.7	-48.2	19.2	0.00e+00	0	43	0	491782144	64	4437
2026-01-24 10:25:45.70	191.42	34.01	-46.8	-48.4	19.1	0.00e+00	0	43	0	493879296	64	4502
2026-01-24 10:25:46.71	191.61	34.20	-46.8	-48.4	19.0	0.00e+00	0	43	0	495976448	64	4510
2026-01-24 10:25:47.72	191.79	34.40	-46.9	-48.5	18.9	0.00e+00	0	43	0	498073600	64	4562
2026-01-24 10:25:48.72	191.98	34.60	-46.8	-48.4	19.0	0.00e+00	0	43	0	499122176	64	4512
2026-01-24 10:25:49.73	192.17	34.79	-46.9	-48.5	18.9	0.00e+00	0	43	0	501219328	64	4557
2026-01-24 10:25:50.74	192.37	34.99	-47.0	-48.6	18.8	0.00e+00	0	43	0	503316480	64	4621
2026-01-24 10:25:51.75	192.56	35.19	-46.9	-48.5	18.8	0.00e+00	0	43	0	505413632	64	4568
2026-01-24 10:25:52.75	192.76	35.39	-47.0	-48.6	18.7	0.00e+00	0	43	0	506462208	64	4637
2026-01-24 10:25:53.76	192.96	35.60	-46.9	-48.5	18.9	0.00e+00	0	43	0	508559360	64	4578
2026-01-24 10:25:54.77	193.16	35.80	-46.9	-48.5	18.9	0.00e+00	0	43	0	510656512	64	4550
2026-01-24 10:25:55.78	193.37	36.00	-46.6	-48.1	19.3	0.00e+00	0	43	0	512753664	64	4362
2026-01-24 10:25:56.78	193.57	36.21	-46.4	-47.9	19.5	0.00e+00	0	43	0	514850816	64	4247
2026-01-24 10:25:57.79	193.78	36.41	-46.3	-47.7	19.7	0.00e+00	0	43	0	515899392	64	4182
2026-01-24 10:25:58.80	193.99	36.62	-46.2	-47.6	19.8	0.00e+00	0	43	0	517996544	63	4381
2026-01-24 10:25:59.81	194.21	36.83	-46.2	-47.6	19.9	0.00e+00	0	43	0	520093696	63	4344
2026-01-24 10:26:00.82	194.43	37.04	-46.1	-47.4	20.0	0.00e+00	0	43	0	522190848	63	4291
2026-01-24 10:26:01.83	194.65	37.25	-46.1	-47.5	20.0	0.00e+00	0	43	0	524288000	63	4293
2026-01-24 10:26:02.83	194.87	37.45	-46.1	-47.5	20.0	0.00e+00	0	43	0	526385152	63	4294
2026-01-24 10:26:03.84	195.10	37.67	-46.3	-47.7	19.8	0.00e+00	0	43	0	527433728	63	4411
2026-01-24 10:26:04.85	195.33	37.88	-46.2	-47.6	20.0	0.00e+00	0	43	0	529530880	63	4343
2026-01-24 10:26:05.86	195.56	38.09	-46.3	-47.7	19.9	0.00e+00	0	43	0	531628032	63	4400
2026-01-24 10:26:06.87	195.80	38.30	-46.4	-47.8	19.7	0.00e+00	0	43	0	533725184	63	4460
2026-01-24 10:26:07.87	196.03	38.52	-46.5	-48.0	19.5	0.00e+00	0	43	0	534773760	63	4565
2026-01-24 10:26:08.88	196.27	38.73	-46.5	-48.0	19.6	0.00e+00	0	43	0	536870912	63	4559
2026-01-24 10:26:09.89	196.52	38.95	-46.4	-47.8	19.7	0.00e+00	0	43	0	538968064	63	4475
2026-01-24 10:26:10.90	196.77	39.16	-46.1	-47.5	20.0	0.00e+00	0	43	0	541065216	63	4326
2026-01-24 10:26:11.91	197.02	39.38	-46.0	-47.4	20.1	0.00e+00	0	43	0	543162368	63	4254
2026-01-24 10:26:12.91	197.27	39.60	-45.9	-47.2	20.2	0.00e+00	0	43	0	545259520	63	4191
2026-01-24 10:26:13.92	197.53	39.82	-45.4	-46.7	20.8	0.00e+00	0	43	0	546308096	62	4158
2026-01-24 10:26:14.93	197.79	40.04	-45.1	-46.3	21.2	0.00e+00	0	43	0	548405248	62	3962
2026-01-24 10:26:15.94	198.05	40.26	-45.0	-46.2	21.3	0.00e+00	0	43	0	550502400	61	4159
2026-01-24 10:26:16.94	198.32	40.48	-44.9	-46.0	21.4	0.00e+00	0	43	0	552599552	61	4096
2026-01-24 10:26:17.95	198.59	40.70	-44.9	-46.1	21.3	0.00e+00	0	43	0	554696704	61	4100
2026-01-24 10:26:18.96	198.87	40.92	-45.0	-46.3	21.1	0.00e+00	0	43	0	555745280	61	4230
2026-01-24 10:26:19.97	199.15	41.15	-45.3	-46.6	20.9	0.00e+00	0	43	0	557842432	61	4353
2026-01-24 10:26:20.98	199.43	41.37	-45.4	-46.7	20.8	0.00e+00	0	43	0	559939584	61	4410
2026-01-24 10:26:21.99	199.72	41.59	-45.4	-46.6	20.9	0.00e+00	0	43	0	562036736	61	4367
2026-01-24 10:26:23.00	200.01	41.82	-45.3	-46.6	20.9	0.00e+00	0	43	0	563085312	61	4353
2026-01-24 10:26:24.00	200.30	42.04	-45.2	-46.3	21.1	0.00e+00	0	43	0	565182464	61	4242
2026-01-24 10:26:25.01	200.60	42.27	-45.2	-46.3	21.1	0.00e+00	0	43	0	567279616	62	4003
2026-01-24 10:26:26.02	200.90	42.50	-45.2	-46.3	21.1	0.00e+00	0	43	0	569376768	62	4003
2026-01-24 10:26:27.03	201.21	42.72	-45.3	-46.5	21.0	0.00e+00	0	43	0	571473920	62	4055
2026-01-24 10:26:28.04	201.52	42.95	-45.6	-46.9	20.6	0.00e+00	0	43	0	573571072	62	4272
2026-01-24 10:26:29.04	201.84	43.18	-45.6	-46.9	20.6	0.00e+00	0	43	0	574619648	62	4271
2026-01-24 10:26:30.05	202.16	43.41	-45.6	-46.9	20.6	0.00e+00	0	43	0	576716800	62	4252
2026-01-24 10:26:31.06	202.48	43.63	-45.6	-46.8	20.7	0.00e+00	0	43	0	578813952	62	4237
2026-01-24 10:26:32.07	202.81	43.86	-45.5	-46.8	20.8	0.00e+00	0	43	0	580911104	62	4201
2026-01-24 10:26:33.08	203.15	44.09	-45.7	-47.0	20.5	0.00e+00	0	43	0	583008256	62	4318
2026-01-24 10:26:34.09	203.49	44.32	-46.1	-47.4	20.2	0.00e+00	0	43	0	584056832	62	4533
2026-01-24 10:26:35.09	203.83	44.55	-46.2	-47.6	20.0	0.00e+00	0	43	0	586153984	63	4349
2026-01-24 10:26:36.10	204.18	44.78	-46.7	-48.1	19.5	0.00e+00	0	43	0	588251136	63	4634
2026-01-24 10:26:37.11	204.53	45.01	-46.7	-48.2	19.2	0.00e+00	0	43	0	590348288	64	4437
2026-01-24 10:26:38.12	204.89	45.24	-47.0	-48.6	19.0	0.00e+00	0	43	0	592445440	64	4636
2026-01-24 10:26:39.13	205.25	45.47	-47.1	-48.7	18.8	0.00e+00	0	43	0	593494016	64	4698
2026-01-24 10:26:40.13	205.62	45.70	-47.1	-48.7	18.8	0.00e+00	0	43	0	595591168	64	4692
2026-01-24 10:26:41.14	206.00	45.93	-47.3	-48.9	18.7	0.00e+00	0	43	0	597688320	65	4518
2026-01-24 10:26:42.15	206.38	46.16	-47.5	-49.2	18.4	0.00e+00	0	43	0	599785472	65	4689
2026-01-24 10:26:43.16	206.76	46.39	-47.4	-49.1	18.5	0.00e+00	0	43	0	601882624	65	4607
2026-01-24 10:26:44.17	207.15	46.63	-47.8	-49.6	18.1	0.00e+00	0	43	0	602931200	66	4614
2026-01-24 10:26:45.17	207.55	46.85	-48.1	-50.0	17.6	0.00e+00	0	43	0	605028352	66	4866
2026-01-24 10:26:46.18	207.95	47.08	-48.9	-51.1	16.7	0.00e+00	0	43	0	607125504	68	4878
2026-01-24 10:26:47.19	208.36	47.31	-49.3	-51.7	16.0	0.00e+00	0	43	0	609222656	69	4943
2026-01-24 10:26:48.20	208.77	47.54	-49.6	-52.1	15.7	0.00e+00	0	43	0	611319808	69	5180
2026-01-24 10:26:49.20	209.19	47.77	-49.6	-52.2	15.5	0.00e+00	0	43	0	613416960	69	5253
2026-01-24 10:26:50.21	209.62	48.00	-49.4	-51.8	15.9	0.00e+00	0	43	0	614465536	69	5022
2026-01-24 10:26:51.22	210.05	48.23	-49.2	-51.5	16.2	0.00e+00	0	43	0	616562688	69	4844
2026-01-24 10:26:52.23	210.49	48.46	-49.5	-52.0	15.7	0.00e+00	0	43	0	618659840	69	5110
2026-01-24 10:26:53.23	210.93	48.68	-50.0	-52.8	15.0	0.00e+00	0	43	0	620756992	70	5298
2026-01-24 10:26:54.25	211.39	48.91	-50.4	-53.4	14.3	0.00e+00	0	43	0	621805568	71	5377
2026-01-24 10:26:55.25	211.85	49.13	-50.0	-52.7	15.0	0.00e+00	0	43	0	623902720	71	4976
2026-01-24 10:26:56.26	212.31	49.36	-49.3	-51.6	16.1	0.00e+00	0	43	0	625999872	70	4643
2026-01-24 10:26:57.27	212.79	49.58	-48.7	-50.8	16.9	0.00e+00	0	43	0	628097024	69	4480
2026-01-24 10:26:58.28	213.27	49.81	-48.2	-50.0	17.7	0.00e+00	0	43	0	630194176	68	4314
2026-01-24 10:26:59.29	213.75	50.03	-47.8	-49.6	18.0	0.00e+00	0	43	0	631242752	67	4363
2026-01-24 10:27:00.29	214.24	50.25	-48.0	-49.8	17.8	0.00e+00	0	43	0	633339904	66	4726
2026-01-24 10:27:01.30	214.74	50.47	-48.1	-50.0	17.7	0.00e+00	0	43	0	635437056	66	4835
2026-01-24 10:27:02.31	215.25	50.68	-48.0	-49.8	17.8	0.00e+00	0	43	0	637534208	66	4741
2026-01-24 10:27:03.32	215.77	50.90	-47.4	-49.0	18.7	0.00e+00	0	43	0	639631360	66	4324
2026-01-24 10:27:04.33	216.29	51.12	-46.9	-48.5	19.2	0.00e+00	0	43	0	641728512	65	4301
2026-01-24 10:27:05.33	216.81	51.33	-46.6	-48.0	19.6	0.00e+00	0	43	0	642777088	64	4326
2026-01-24 10:27:06.34	217.35	51.54	-46.0	-47.3	20.2	0.00e+00	0	43	0	644874240	64	3985
2026-01-24 10:27:07.35	217.90	51.75	-45.9	-47.2	20.5	0.00e+00	0	43	0	646971392	63	4164
2026-01-24 10:27:08.36	218.45	51.96	-45.8	-47.1	20.5	0.00e+00	0	43	0	649068544	63	4120
2026-01-24 10:27:09.36	219.01	52.17	-45.9	-47.2	20.5	0.00e+00	0	43	0	650117120	63	4158
2026-01-24 10:27:10.37	219.57	52.37	-46.1	-47.4	20.3	0.00e+00	0	43	0	652214272	63	4263
2026-01-24 10:27:11.38	220.15	52.58	-45.7	-47.0	20.7	0.00e+00	0	43	0	654311424	63	4078
2026-01-24 10:27:12.39	220.74	52.78	-45.3	-46.5	21.2	0.00e+00	0	43	0	656408576	62	4098
2026-01-24 10:27:13.40	221.33	52.98	-44.9	-46.0	21.5	0.00e+00	0	43	0	658505728	61	4096
2026-01-24 10:27:14.41	221.93	53.17	-45.2	-46.4	21.2	0.00e+00	0	43	0	660602880	61	4267
2026-01-24 10:27:15.41	222.53	53.37	-45.6	-46.8	20.9	0.00e+00	0	43	0	661651456	61	4477
2026-01-24 10:27:16.42	223.15	53.56	-45.5	-46.8	20.9	0.00e+00	0	43	0	663748608	61	4452
2026-01-24 10:27:17.43	223.77	53.75	-45.3	-46.5	21.2	0.00e+00	0	43	0	665845760	61	4297
2026-01-24 10:27:18.44	224.40	53.93	-45.1	-46.2	21.4	0.00e+00	0	43	0	667942912	61	4190
2026-01-24 10:27:19.45	225.05	54.12	-44.9	-46.1	21.6	0.00e+00	0	43	0	670040064	61	4113
2026-01-24 10:27:20.45	225.69	54.30	-44.9	-46.1	21.6	0.00e+00	0	43	0	671088640	61	4123
2026-01-24 10:27:21.46	226.34	54.48	-45.0	-46.2	21.4	0.00e+00	0	43	0	673185792	61	4164
2026-01-24 10:27:22.47	227.01	54.65	-45.4	-46.6	21.0	0.00e+00	0	43	0	675282944	61	4387
2026-01-24 10:27:23.48	227.68	54.82	-45.5	-46.7	21.0	0.00e+00	0	43	0	677380096	61	4415
2026-01-24 10:27:24.49	228.36	54.99	-45.1	-46.3	21.4	0.00e+00	0	43	0	678428672	61	4203
2026-01-24 10:27:25.49	229.04	55.15	-44.6	-45.7	21.9	0.00e+00	0	43	0	680525824	61	3944
2026-01-24 10:27:26.50	229.74	55.31	-44.6	-45.7	21.9	0.00e+00	0	43	0	682622976	61	3946
2026-01-24 10:27:27.51	230.45	55.47	-45.0	-46.2	21.4	0.00e+00	0	43	0	684720128	61	4173
2026-01-24 10:27:28.52	231.16	55.62	-45.6	-46.8	20.9	0.00e+00	0	43	0	686817280	61	4468
2026-01-24 10:27:29.53	231.88	55.77	-45.7	-47.0	20.7	0.00e+00	0	43	0	688914432	62	4319
2026-01-24 10:27:30.53	232.60	55.92	-45.5	-46.8	21.0	0.00e+00	0	43	0	689963008	62	4198
2026-01-24 10:27:31.54	233.33	56.06	-45.1	-46.3	21.4	0.00e+00	0	43	0	692060160	62	3959
2026-01-24 10:27:32.55	234.07	56.20	-45.0	-46.2	21.4	0.00e+00	0	43	0	694157312	61	4162
2026-01-24 10:27:33.56	234.82	56.33	-45.3	-46.4	21.2	0.00e+00	0	43	0	696254464	61	4288
2026-01-24 10:27:34.57	235.58	56.46	-45.4	-46.7	21.1	0.00e+00	0	43	0	698351616	61	4397
2026-01-24 10:27:35.57	236.34	56.58	-45.6	-46.8	20.9	0.00e+00	0	43	0	699400192	61	4476
2026-01-24 10:27:36.58	237.10	56.70	-45.7	-46.9	20.8	0.00e+00	0	43	0	701497344	61	4525
2026-01-24 10:27:37.59	237.88	56.81	-45.4	-46.6	21.1	0.00e+00	0	43	0	703594496	61	4377
2026-01-24 10:27:38.60	238.66	56.92	-45.3	-46.4	21.3	0.00e+00	0	43	0	705691648	61	4278
2026-01-24 10:27:39.61	239.45	57.03	-45.6	-46.8	20.9	0.00e+00	0	43	0	707788800	61	4489
2026-01-24 10:27:40.61	240.24	57.13	-45.8	-47.0	20.8	0.00e+00	0	43	0	708837376	62	4321
2026-01-24 10:27:41.62	241.04	57.22	-46.1	-47.4	20.4	0.00e+00	0	43	0	710934528	62	4513
2026-01-24 10:27:42.63	241.84	57.31	-46.6	-48.1	19.7	0.00e+00	0	43	0	713031680	63	4603
2026-01-24 10:27:43.64	242.66	57.40	-46.9	-48.4	19.4	0.00e+00	0	43	0	715128832	64	4508
2026-01-24 10:27:44.65	243.47	57.48	-46.8	-48.3	19.3	0.00e+00	0	43	0	717225984	64	4484
2026-01-24 10:27:45.65	244.28	57.55	-47.0	-48.5	19.3	0.00e+00	0	43	0	718274560	64	4567
2026-01-24 10:27:46.66	245.11	57.62	-47.7	-49.5	18.4	0.00e+00	0	43	0	720371712	65	4826
2026-01-24 10:27:47.67	245.94	57.68	-48.8	-50.9	16.9	0.00e+00	0	44	0	722468864	68	4805
2026-01-24 10:27:48.67	246.76	57.74	-48.7	-50.8	17.0	0.00e+00	0	43	0	724566016	68	4732
2026-01-24 10:27:49.68	247.59	57.79	-48.5	-50.5	17.4	0.00e+00	0	44	0	726663168	68	4549
2026-01-24 10:27:50.69	248.43	57.84	-48.1	-49.9	17.9	0.00e+00	0	43	0	727711744	68	4271
2026-01-24 10:27:51.70	249.27	57.88	-47.8	-49.6	18.2	0.00e+00	0	43	0	729808896	66	4626
2026-01-24 10:27:52.71	250.12	57.92	-48.0	-49.7	18.1	0.00e+00	0	44	0	731906048	66	4695
2026-01-24 10:27:53.71	250.95	57.94	-48.6	-50.6	17.2	0.00e+00	0	43	0	734003200	67	4879
2026-01-24 10:27:54.72	251.80	57.97	-48.4	-50.4	17.5	0.00e+00	0	44	0	736100352	68	4496
2026-01-24 10:27:55.73	252.65	57.99	-47.9	-49.6	18.2	0.00e+00	0	44	0	737148928	67	4359
2026-01-24 10:27:56.74	253.50	58.00	-48.1	-50.0	17.8	0.00e+00	0	43	0	739246080	67	4569
2026-01-24 10:27:57.74	254.34	58.00	-48.5	-50.4	17.3	0.00e+00	0	43	0	741343232	67	4814
2026-01-24 10:27:58.75	255.19	58.00	-48.4	-50.4	17.4	0.00e+00	0	43	0	743440384	67	4798
2026-01-24 10:27:59.76	256.04	58.00	-48.1	-50.3	17.5	0.00e+00	0	43	0	745537536	67	4719
2026-01-24 10:28:00.77	256.89	57.99	-48.5	-50.5	17.4	0.00e+00	0	43	0	746586112	67	4853
2026-01-24 10:28:01.77	257.73	57.97	-48.3	-50.2	17.7	0.00e+00	0	44	0	748683264	67	4699
2026-01-24 10:28:02.78	258.58	57.95	-47.6	-49.2	18.5	0.00e+00	0	43	0	750780416	66	4434
2026-01-24 10:28:03.79	259.42	57.92	-47.0	-48.5	19.2	0.00e+00	0	44	0	752877568	66	4088
2026-01-24 10:28:04.80	260.27	57.89	-46.6	-48.0	19.7	0.00e+00	0	43	0	754974720	65	4075
2026-01-24 10:28:05.81	261.11	57.85	-46.1	-47.4	20.4	0.00e+00	0	44	0	757071872	63	4262
2026-01-24 10:28:06.82	261.95	57.80	-46.0	-47.2	20.6	0.00e+00	0	43	0	758120448	63	4187
2026-01-24 10:28:07.82	262.77	57.75	-46.9	-48.4	19.4	0.00e+00	0	44	0	760217600	64	4509
2026-01-24 10:28:08.83	263.60	57.69	-47.3	-49.0	18.8	0.00e+00	0	44	0	762314752	65	4554
2026-01-24 10:28:09.84	264.43	57.63	-47.2	-48.8	18.9	0.00e+00	0	43	0	764411904	65	4458
2026-01-24 10:28:10.85	265.26	57.56	-47.2	-48.8	19.0	0.00e+00	0	44	0	765460480	65	4444
2026-01-24 10:28:11.86	266.08	57.49	-47.8	-49.6	18.2	0.00e+00	0	44	0	767557632	66	4620
2026-01-24 10:28:12.87	266.89	57.41	-48.5	-50.6	17.3	0.00e+00	0	43	0	769654784	67	4874
2026-01-24 10:28:13.87	267.70	57.33	-49.4	-51.8	16.2	0.00e+00	0	43	0	771751936	69	5010
2026-01-24 10:28:14.88	268.50	57.24	-50.0	-52.8	15.2	0.00e+00	0	44	0	773849088	70	5295
2026-01-24 10:28:15.89	269.30	57.14	-50.1	-52.9	15.1	0.00e+00	0	43	0	774897664	70	5354
2026-01-24 10:28:16.90	270.10	57.04	-49.9	-52.5	15.4	1.50e-06	0	44	0	776994816	70	5129
2026-01-24 10:28:17.91	270.89	56.94	-50.0	-52.8	15.1	0.00e+00	0	43	0	779091968	70	5288
2026-01-24 10:28:18.91	271.66	56.83	-49.4	-51.7	16.1	0.00e+00	0	44	0	781189120	70	4705
2026-01-24 10:28:19.92	272.44	56.72	-48.2	-50.1	17.6	0.00e+00	0	44	0	783286272	67	4619
2026-01-24 10:28:20.93	273.21	56.60	-47.9	-49.6	18.2	0.00e+00	0	43	0	785383424	67	4361
2026-01-24 10:28:21.94	273.97	56.48	-48.0	-49.8	18.0	0.00e+00	0	43	0	786432000	67	4488
2026-01-24 10:28:22.95	274.73	56.35	-48.4	-50.4	17.4	0.00e+00	0	44	0	788529152	67	4780
2026-01-24 10:28:23.95	275.47	56.22	-48.2	-50.0	17.8	0.00e+00	0	44	0	790626304	67	4578
2026-01-24 10:28:24.96	276.21	56.08	-47.4	-49.0	18.7	0.00e+00	0	44	0	792723456	66	4334
2026-01-24 10:28:25.97	276.95	55.94	-46.9	-48.4	19.4	0.00e+00	0	44	0	793772032	65	4258
2026-01-24 10:28:26.98	277.67	55.80	-46.8	-48.3	19.5	0.00e+00	0	44	0	795869184	65	4235
2026-01-24 10:28:27.99	278.39	55.65	-47.1	-48.7	19.1	0.00e+00	0	44	0	797966336	65	4428
2026-01-24 10:28:29.00	279.11	55.50	-46.2	-47.6	20.1	0.00e+00	0	44	0	800063488	64	4117
2026-01-24 10:28:30.01	279.81	55.34	-45.1	-46.2	21.5	0.00e+00	0	43	0	802160640	62	3941
2026-01-24 10:28:31.01	280.50	55.18	-44.4	-45.4	22.2	0.00e+00	0	44	0	804257792	60	4029
2026-01-24 10:28:32.02	281.19	55.02	-44.2	-45.3	22.4	0.00e+00	0	44	0	805306368	60	3960
2026-01-24 10:28:33.03	281.87	54.85	-44.3	-45.3	22.6	0.00e+00	0	44	0	807403520	59	4217
2026-01-24 10:28:34.04	282.54	54.68	-43.7	-44.6	23.2	0.00e+00	0	44	0	809500672	59	3904
2026-01-24 10:28:35.05	283.21	54.51	-43.3	-44.2	23.6	0.00e+00	0	44	0	811597824	58	3955
2026-01-24 10:28:36.06	283.87	54.33	-43.0	-43.9	23.9	0.00e+00	0	44	0	813694976	58	3814
2026-01-24 10:28:37.06	284.51	54.15	-42.7	-43.6	24.1	0.00e+00	0	44	0	814743552	57	3899
2026-01-24 10:28:38.07	285.15	53.97	-42.8	-43.7	24.1	0.00e+00	0	44	0	816840704	57	3934
2026-01-24 10:28:39.08	285.78	53.78	-43.0	-44.0	23.9	0.00e+00	0	44	0	818937856	57	4053
2026-01-24 10:28:40.09	286.41	53.60	-42.9	-43.9	23.9	0.00e+00	0	43	0	821035008	57	4008
2026-01-24 10:28:41.09	287.02	53.41	-42.7	-43.6	24.2	0.00e+00	0	44	0	822083584	57	3896
2026-01-24 10:28:42.10	287.63	53.21	-42.6	-43.5	24.2	0.00e+00	0	44	0	824180736	57	3854
2026-01-24 10:28:43.11	288.23	53.02	-42.7	-43.6	24.1	0.00e+00	0	44	0	826277888	57	3893
2026-01-24 10:28:44.12	288.82	52.82	-43.3	-44.2	23.6	0.00e+00	0	43	0	828375040	57	4163
2026-01-24 10:28:45.13	289.40	52.62	-43.9	-44.9	22.9	0.00e+00	0	44	0	830472192	58	4266
2026-01-24 10:28:46.13	289.98	52.42	-44.5	-45.6	22.4	0.00e+00	0	43	0	832569344	59	4350
2026-01-24 10:28:47.14	290.55	52.21	-44.6	-45.7	22.3	0.00e+00	0	44	0	833617920	59	4407
2026-01-24 10:28:48.15	291.11	52.01	-44.3	-45.3	22.3	0.00e+00	0	44	0	835715072	60	3997
2026-01-24 10:28:49.16	291.66	51.80	-44.7	-45.8	21.9	0.00e+00	0	44	0	837812224	60	4199
2026-01-24 10:28:50.16	292.20	51.59	-45.8	-47.1	20.7	0.00e+00	0	44	0	839909376	62	4362
2026-01-24 10:28:51.17	292.74	51.38	-47.0	-48.6	19.2	0.00e+00	0	43	0	842006528	64	4623
2026-01-24 10:28:52.18	293.27	51.16	-47.2	-48.8	19.0	0.00e+00	0	44	0	843055104	65	4460
2026-01-24 10:28:53.19	293.79	50.95	-46.3	-47.6	20.0	0.00e+00	0	44	0	845152256	64	4139
2026-01-24 10:28:54.20	294.31	50.73	-46.0	-47.3	20.5	0.00e+00	0	44	0	847249408	63	4209
2026-01-24 10:28:55.21	294.82	50.52	-46.9	-48.4	19.4	0.00e+00	0	44	0	849346560	64	4502
2026-01-24 10:28:56.21	295.31	50.30	-48.9	-51.0	16.8	0.00e+00	0	44	0	851443712	68	4865
2026-01-24 10:28:57.22	295.81	50.08	-50.1	-53.0	14.9	0.00e+00	0	44	0	852492288	70	5453
2026-01-24 10:28:58.23	296.30	49.86	-48.6	-50.7	17.1	0.00e+00	0	44	0	854589440	69	4404
2026-01-24 10:28:59.24	296.78	49.64	-47.8	-49.5	18.3	0.00e+00	0	44	0	856686592	67	4323
2026-01-24 10:29:00.25	297.25	49.41	-48.0	-49.9	17.9	0.00e+00	0	44	0	858783744	67	4519
2026-01-24 10:29:01.25	297.71	49.19	-48.7	-50.7	17.1	0.00e+00	0	44	0	860880896	67	4965
2026-01-24 10:29:02.26	298.17	48.97	-49.2	-51.5	16.5	0.00e+00	0	44	0	861929472	68	5106
2026-01-24 10:29:03.27	298.62	48.74	-49.2	-51.5	16.4	0.00e+00	0	44	0	864026624	69	4864
2026-01-24 10:29:04.28	299.07	48.51	-48.7	-50.8	17.1	0.00e+00	0	44	0	866123776	69	4457
2026-01-24 10:29:05.29	299.51	48.29	-48.1	-49.9	18.0	0.00e+00	0	44	0	868220928	68	4269
2026-01-24 10:29:06.30	299.94	48.06	-47.4	-49.0	18.8	0.00e+00	0	44	0	870318080	65	4551
2026-01-24 10:29:07.30	300.37	47.83	-47.2	-48.8	19.0	0.00e+00	0	44	0	871366656	65	4457
2026-01-24 10:29:08.31	300.79	47.60	-48.7	-50.7	17.1	0.00e+00	0	44	0	873463808	67	4983
2026-01-24 10:29:09.32	301.20	47.38	-49.6	-52.2	15.7	0.00e+00	0	44	0	875560960	69	5236
2026-01-24 10:29:10.33	301.61	47.15	-48.8	-50.9	17.0	0.00e+00	0	44	0	877658112	69	4500
2026-01-24 10:29:11.34	302.02	46.92	-47.6	-49.3	18.4	0.00e+00	0	44	0	879755264	67	4235
2026-01-24 10:29:12.35	302.42	46.69	-47.3	-48.9	18.9	0.00e+00	0	44	0	880803840	65	4518
2026-01-24 10:29:13.35	302.80	46.46	-47.5	-49.1	18.6	0.00e+00	0	44	0	882900992	65	4647
2026-01-24 10:29:14.36	303.19	46.23	-48.5	-50.5	17.3	0.00e+00	0	44	0	884998144	67	4855
2026-01-24 10:29:15.37	303.57	46.00	-49.2	-51.6	16.4	0.00e+00	0	44	0	887095296	69	4890
2026-01-24 10:29:16.38	303.95	45.77	-49.2	-51.5	16.4	0.00e+00	0	44	0	889192448	69	4821
2026-01-24 10:29:17.39	304.32	45.54	-48.0	-49.8	18.0	0.00e+00	0	44	0	890241024	68	4229
2026-01-24 10:29:18.40	304.68	45.31	-47.3	-48.8	18.9	0.00e+00	0	44	0	892338176	66	4242
2026-01-24 10:29:19.41	305.04	45.08	-47.1	-48.6	19.1	0.00e+00	0	44	0	894435328	65	4369
2026-01-24 10:29:20.41	305.39	44.85	-47.6	-49.3	18.5	0.00e+00	0	44	0	896532480	65	4724
2026-01-24 10:29:21.42	305.74	44.62	-48.3	-50.2	17.6	0.00e+00	0	44	0	898629632	67	4699
2026-01-24 10:29:22.43	306.08	44.39	-48.5	-50.5	17.2	0.00e+00	0	44	0	899678208	67	4862
2026-01-24 10:29:23.44	306.42	44.17	-48.4	-50.4	17.5	0.00e+00	0	44	0	901775360	67	4762
2026-01-24 10:29:24.45	306.76	43.94	-47.6	-49.2	18.5	0.00e+00	0	44	0	903872512	67	4184
2026-01-24 10:29:25.46	307.09	43.71	-47.5	-49.1	18.6	0.00e+00	0	44	0	905969664	66	4384
2026-01-24 10:29:26.46	307.41	43.48	-48.0	-49.9	17.9	0.00e+00	0	44	0	908066816	66	4771
2026-01-24 10:29:27.47	307.73	43.25	-48.1	-49.9	17.9	0.00e+00	0	44	0	909115392	67	4527
2026-01-24 10:29:28.48	308.05	43.03	-47.4	-49.0	18.7	0.00e+00	0	44	0	911212544	66	4340
2026-01-24 10:29:29.49	308.36	42.80	-46.9	-48.4	19.4	0.00e+00	0	44	0	913309696	65	4268
2026-01-24 10:29:30.49	308.67	42.58	-47.2	-48.7	19.0	0.00e+00	0	44	0	915406848	65	4418
2026-01-24 10:29:31.50	308.97	42.35	-48.4	-50.3	17.5	0.00e+00	0	44	0	917504000	67	4742
2026-01-24 10:29:32.51	309.27	42.12	-49.2	-51.4	16.5	0.00e+00	0	44	0	919601152	68	5091
2026-01-24 10:29:33.52	309.57	41.90	-48.6	-50.6	17.3	0.00e+00	0	44	0	920649728	68	4605
2026-01-24 10:29:34.53	309.86	41.68	-47.5	-49.1	18.7	0.00e+00	0	44	0	922746880	66	4361
2026-01-24 10:29:35.53	310.14	41.45	-47.0	-48.5	19.2	0.00e+00	0	44	0	924844032	65	4320
2026-01-24 10:29:36.54	310.42	41.23	-46.6	-48.1	19.6	0.00e+00	0	43	0	926941184	65	4107
2026-01-24 10:29:37.55	310.70	41.01	-47.4	-49.0	18.8	0.00e+00	0	44	0	927989760	65	4590
2026-01-24 10:29:38.56	310.98	40.79	-48.0	-49.8	18.0	0.00e+00	0	44	0	930086912	66	4718
2026-01-24 10:29:39.57	311.25	40.56	-48.5	-50.5	17.3	0.00e+00	0	44	0	932184064	67	4834
2026-01-24 10:29:40.58	311.52	40.34	-48.7	-50.8	17.0	0.00e+00	0	44	0	934281216	67	4986
2026-01-24 10:29:41.59	311.79	40.12	-49.0	-51.1	16.7	0.00e+00	0	44	0	936378368	68	4919
2026-01-24 10:29:42.60	312.05	39.91	-48.3	-50.2	17.6	0.00e+00	0	44	0	937426944	68	4393
2026-01-24 10:29:43.60	312.30	39.69	-47.0	-48.5	19.2	0.00e+00	0	44	0	939524096	65	4306
2026-01-24 10:29:44.61	312.56	39.47	-46.3	-47.7	20.0	0.00e+00	0	44	0	941621248	64	4151
2026-01-24 10:29:45.62	312.81	39.25	-46.0	-47.3	20.3	0.00e+00	0	44	0	943718400	64	3967
2026-01-24 10:29:46.63	313.06	39.04	-46.6	-48.0	19.7	0.00e+00	0	43	0	945815552	63	4591
2026-01-24 10:29:47.64	313.30	38.82	-47.9	-49.7	18.0	0.00e+00	0	44	0	947912704	66	4682
2026-01-24 10:29:48.65	313.55	38.61	-49.3	-51.7	16.1	0.00e+00	0	44	0	948961280	69	4956
2026-01-24 10:29:49.66	313.78	38.39	-48.7	-50.8	16.8	0.00e+00	0	44	0	951058432	69	4482
2026-01-24 10:29:50.66	314.02	38.18	-47.3	-48.9	18.8	0.00e+00	0	44	0	953155584	66	4253
2026-01-24 10:29:51.67	314.25	37.97	-46.6	-48.1	19.5	0.00e+00	0	44	0	955252736	65	4119
2026-01-24 10:29:52.68	314.48	37.76	-46.0	-47.3	20.3	0.00e+00	0	44	0	956301312	64	3960
2026-01-24 10:29:53.69	314.71	37.55	-45.9	-47.2	20.5	0.00e+00	0	44	0	958398464	63	4174
2026-01-24 10:29:54.69	314.93	37.34	-46.8	-48.3	19.3	0.00e+00	0	44	0	960495616	64	4468
2026-01-24 10:29:55.70	315.15	37.13	-48.1	-50.0	17.7	0.00e+00	0	44	0	962592768	66	4823
2026-01-24 10:29:56.71	315.37	36.93	-48.4	-50.4	17.3	0.00e+00	0	44	0	964689920	67	4788
2026-01-24 10:29:57.72	315.59	36.72	-48.2	-50.2	17.5	0.00e+00	0	44	0	966787072	67	4653
2026-01-24 10:29:58.73	315.80	36.51	-47.3	-48.9	18.8	0.00e+00	0	44	0	967835648	66	4262
2026-01-24 10:29:59.73	316.01	36.31	-46.2	-47.6	20.0	0.00e+00	0	44	0	969932800	64	4122
2026-01-24 10:30:00.74	316.21	36.11	-45.7	-46.9	20.8	0.00e+00	0	44	0	972029952	63	4023
2026-01-24 10:30:01.75	316.42	35.90	-45.0	-46.1	21.4	0.00e+00	0	44	0	974127104	62	3908
2026-01-24 10:30:02.76	316.62	35.70	-44.8	-45.9	21.6	0.00e+00	0	44	0	976224256	61	4045
2026-01-24 10:30:03.77	316.82	35.50	-44.8	-45.9	21.7	0.00e+00	0	44	0	977272832	60	4255
2026-01-24 10:30:04.77	317.02	35.30	-45.3	-46.5	21.2	0.00e+00	0	44	0	979369984	61	4298
2026-01-24 10:30:05.78	317.22	35.10	-45.9	-47.2	20.4	0.00e+00	0	44	0	981467136	62	4436
2026-01-24 10:30:06.79	317.41	34.90	-46.7	-48.2	19.5	0.00e+00	0	44	0	983564288	63	4675
2026-01-24 10:30:07.80	317.60	34.70	-47.4	-49.1	18.6	0.00e+00	0	44	0	984612864	65	4623
2026-01-24 10:30:08.81	317.79	34.50	-47.5	-49.2	18.4	0.00e+00	0	44	0	986710016	65	4677
2026-01-24 10:30:09.81	317.97	34.31	-47.4	-49.1	18.5	0.00e+00	0	44	0	988807168	65	4648
2026-01-24 10:30:10.82	318.16	34.11	-47.3	-49.0	18.6	0.00e+00	0	44	0	990904320	65	4552
2026-01-24 10:30:11.83	318.34	33.92	-47.1	-48.7	18.9	0.00e+00	0	44	0	993001472	65	4436
2026-01-24 10:30:12.84	318.52	33.73	-46.6	-48.0	19.5	0.00e+00	0	44	0	995098624	64	4333
2026-01-24 10:30:13.84	318.70	33.54	-46.5	-48.0	19.7	0.00e+00	0	44	0	996147200	64	4295
2026-01-24 10:30:14.85	318.88	33.34	-46.7	-48.2	19.4	0.00e+00	0	44	0	998244352	64	4399
2026-01-24 10:30:15.86	319.05	33.15	-46.9	-48.4	19.2	0.00e+00	0	44	0	1000341504	64	4541
2026-01-24 10:30:16.87	319.22	32.96	-47.3	-49.0	18.6	0.00e+00	0	44	0	1002438656	65	4558
2026-01-24 10:30:17.87	319.39	32.78	-47.2	-48.8	18.7	0.00e+00	0	44	0	1004535808	65	4492
2026-01-24 10:30:18.88	319.56	32.59	-47.3	-49.0	18.6	0.00e+00	0	44	0	1005584384	65	4584
2026-01-24 10:30:19.89	319.73	32.40	-47.6	-49.4	18.2	0.00e+00	0	44	0	1007681536	65	4798
2026-01-24 10:30:20.90	319.89	32.22	-47.6	-49.3	18.2	0.00e+00	0	44	0	1009778688	65	4755
2026-01-24 10:30:21.91	320.05	32.03	-47.8	-49.6	18.0	0.00e+00	0	44	0	1011875840	66	4631
2026-01-24 10:30:22.91	320.21	31.85	-47.8	-49.6	18.0	0.00e+00	0	44	0	1013972992	66	4633
2026-01-24 10:30:23.92	320.37	31.66	-47.8	-49.7	17.9	0.00e+00	0	44	0	1015021568	66	4662
2026-01-24 10:30:24.93	320.53	31.48	-47.7	-49.5	18.1	0.00e+00	0	44	0	1017118720	66	4590
2026-01-24 10:30:25.94	320.69	31.30	-47.6	-49.4	18.2	0.00e+00	0	44	0	1019215872	66	4509
2026-01-24 10:30:26.95	320.84	31.12	-47.4	-49.1	18.4	0.00e+00	0	44	0	1021313024	65	4644
2026-01-24 10:30:27.95	320.99	30.94	-47.1	-48.7	18.8	0.00e+00	0	44	0	1023410176	65	4408
2026-01-24 10:30:28.96	321.14	30.76	-46.8	-48.4	19.1	0.00e+00	0	44	0	1024458752	65	4247
2026-01-24 10:30:29.97	321.29	30.59	-46.7	-48.2	19.3	0.00e+00	0	44	0	1026555904	65	4155
2026-01-24 10:30:30.98	321.44	30.41	-46.7	-48.2	19.4	0.00e+00	0	44	0	1028653056	65	4149
2026-01-24 10:30:31.99	321.59	30.23	-46.8	-48.3	19.3	0.00e+00	0	44	0	1030750208	65	4209
2026-01-24 10:30:33.00	321.73	30.06	-46.9	-48.4	19.1	0.00e+00	0	44	0	1032847360	64	4530
2026-01-24 10:30:34.00	321.87	29.88	-47.2	-48.8	18.7	0.00e+00	0	44	0	1034944512	64	4740
2026-01-24 10:30:35.01	322.01	29.71	-47.3	-49.0	18.5	0.00e+00	0	44	0	1035993088	65	4568
2026-01-24 10:30:36.02	322.15	29.54	-47.3	-49.0	18.5	0.00e+00	0	43	0	1038090240	65	4583
2026-01-24 10:30:37.03	322.29	29.37	-47.2	-48.9	18.6	0.00e+00	0	44	0	1040187392	65	4525
2026-01-24 10:30:38.03	322.43	29.20	-47.4	-49.1	18.4	0.00e+00	0	44	0	1042284544	65	4628
2026-01-24 10:30:39.03	322.56	29.03	-47.1	-48.7	18.8	0.00e+00	0	44	0	1043333120	65	4434
2026-01-24 10:30:40.04	322.70	28.86	-46.9	-48.5	19.0	0.00e+00	0	44	0	1045430272	65	4319
2026-01-24 10:30:41.05	322.83	28.69	-46.8	-48.3	19.2	0.00e+00	0	44	0	1047527424	63	4737
2026-01-24 10:30:42.06	322.96	28.52	-46.5	-47.9	19.7	0.00e+00	0	44	0	1049624576	64	4254
2026-01-24 10:30:43.07	323.09	28.36	-46.5	-48.0	19.6	0.00e+00	0	44	0	1051721728	64	4301
2026-01-24 10:30:44.07	323.22	28.19	-46.5	-48.0	19.6	0.00e+00	0	44	0	1052770304	63	4547
2026-01-24 10:30:45.08	323.35	28.03	-46.5	-47.9	19.6	0.00e+00	0	44	0	1054867456	63	4545
2026-01-24 10:30:46.09	323.48	27.86	-46.6	-48.1	19.5	0.00e+00	0	44	0	1056964608	63	4612
2026-01-24 10:30:47.10	323.60	27.70	-46.6	-48.1	19.4	0.00e+00	0	44	0	1059061760	64	4348
2026-01-24 10:30:48.10	323.73	27.54	-46.8	-48.3	19.2	0.00e+00	0	44	0	1061158912	64	4493
2026-01-24 10:30:49.11	323.85	27.38	-47.0	-48.6	18.9	0.00e+00	0	44	0	1063256064	64	4604
2026-01-24 10:30:50.12	323.97	27.22	-47.1	-48.8	18.7	0.00e+00	0	44	0	1064304640	64	4731
2026-01-24 10:30:51.13	324.09	27.06	-47.3	-49.0	18.5	0.00e+00	0	44	0	1066401792	65	4553
2026-01-24 10:30:52.14	324.21	26.90	-47.4	-49.2	18.3	0.00e+00	0	44	0	1068498944	65	4674
2026-01-24 10:30:53.15	324.33	26.74	-47.5	-49.3	18.1	0.00e+00	0	44	0	1070596096	65	4753
2026-01-24 10:30:54.15	324.45	26.58	-47.5	-49.3	18.2	0.00e+00	0	44	0	1071644672	65	4711
2026-01-24 10:30:55.16	324.56	26.43	-47.5	-49.2	18.2	0.00e+00	0	44	0	1073741824	65	4692
2026-01-24 10:30:56.17	324.68	26.27	-47.4	-49.2	18.3	0.00e+00	0	44	0	1075838976	65	4671
2026-01-24 10:30:57.18	324.79	26.11	-47.3	-49.0	18.4	0.00e+00	0	44	0	1077936128	65	4577
2026-01-24 10:30:58.19	324.90	25.96	-47.3	-49.0	18.3	0.00e+00	0	44	0	1080033280	65	4563
2026-01-24 10:30:59.20	325.02	25.81	-47.0	-48.7	18.8	0.00e+00	0	43	0	1081081856	65	4393
2026-01-24 10:31:00.20	325.13	25.65	-46.9	-48.5	18.9	0.00e+00	0	44	0	1083179008	65	4316
2026-01-24 10:31:01.21	325.24	25.50	-46.8	-48.4	19.0	0.00e+00	0	44	0	1085276160	64	4515
2026-01-24 10:31:02.22	325.34	25.35	-46.6	-48.1	19.3	0.00e+00	0	44	0	1087373312	64	4374
2026-01-24 10:31:03.22	325.45	25.20	-46.4	-47.9	19.5	0.00e+00	0	44	0	1089470464	64	4260
2026-01-24 10:31:04.23	325.56	25.05	-46.4	-47.8	19.7	0.00e+00	0	44	0	1091567616	63	4459
2026-01-24 10:31:05.24	325.66	24.90	-46.2	-47.6	19.8	0.00e+00	0	44	0	1092616192	63	4372
2026-01-24 10:31:06.25	325.77	24.75	-46.1	-47.5	19.9	0.00e+00	0	44	0	1094713344	63	4308
2026-01-24 10:31:07.25	325.87	24.61	-45.9	-47.2	20.2	0.00e+00	0	43	0	1096810496	62	4410
2026-01-24 10:31:08.26	325.98	24.46	-45.7	-47.0	20.4	0.00e+00	0	44	0	1098907648	62	4315
2026-01-24 10:31:09.27	326.08	24.32	-45.7	-47.0	20.4	0.00e+00	0	44	0	1099956224	62	4323
2026-01-24 10:31:10.28	326.18	24.17	-45.7	-47.0	20.5	0.00e+00	0	44	0	1102053376	62	4293
2026-01-24 10:31:11.29	326.28	24.03	-45.8	-47.1	20.3	0.00e+00	0	44	0	1104150528	62	4362
2026-01-24 10:31:12.29	326.38	23.88	-45.9	-47.2	20.2	0.00e+00	0	44	0	1106247680	62	4440
2026-01-24 10:31:13.30	326.48	23.74	-46.0	-47.4	20.0	0.00e+00	0	44	0	1108344832	62	4524
2026-01-24 10:31:14.31	326.58	23.60	-46.2	-47.7	19.8	0.00e+00	0	44	0	1110441984	63	4400
2026-01-24 10:31:15.32	326.67	23.46	-46.4	-47.9	19.5	0.00e+00	0	44	0	1111490560	63	4506
2026-01-24 10:31:16.33	326.77	23.31	-46.5	-48.0	19.5	0.00e+00	0	44	0	1113587712	63	4583
2026-01-24 10:31:17.33	326.86	23.17	-46.7	-48.2	19.3	0.00e+00	0	44	0	1115684864	63	4667
2026-01-24 10:31:18.34	326.96	23.04	-46.5	-48.0	19.5	0.00e+00	0	44	0	1117782016	63	4561
2026-01-24 10:31:19.35	327.05	22.90	-46.4	-47.9	19.5	0.00e+00	0	44	0	1119879168	63	4518
2026-01-24 10:31:20.36	327.14	22.76	-46.5	-47.9	19.5	0.00e+00	0	43	0	1120927744	63	4536
2026-01-24 10:31:21.37	327.24	22.62	-45.4	-47.6	19.8	0.00e+00	0	44	0	1123024896	63	4362
2026-01-24 10:31:22.37	327.33	22.48	-45.9	-47.3	20.1	0.00e+00	0	44	0	1125122048	62	4448
2026-01-24 10:31:23.38	327.42	22.35	-45.8	-47.2	20.2	0.00e+00	0	44	0	1127219200	62	4395
2026-01-24 10:31:24.39	327.51	22.21	-45.6	-46.9	20.4	0.00e+00	0	44	0	1128267776	61	4530
2026-01-24 10:31:25.40	327.60	22.08	-45.7	-47.0	20.4	0.00e+00	0	44	0	1130364928	61	4560
2026-01-24 10:31:26.41	327.69	21.94	-45.5	-46.8	20.6	0.00e+00	0	44	0	1132462080	61	4461
2026-01-24 10:31:27.41	327.77	21.81	-45.7	-47.0	20.3	0.00e+00	0	43	0	1134559232	61	4559
2026-01-24 10:31:28.42	327.86	21.68	-45.6	-46.9	20.4	0.00e+00	0	43	0	1136656384	61	4524
2026-01-24 10:31:29.43	327.95	21.54	-45.6	-47.0	20.4	0.00e+00	0	43	0	1138753536	61	4547
2026-01-24 10:31:30.44	328.03	21.41	-45.6	-46.9	20.4	0.00e+00	0	44	0	1139802112	61	4541
2026-01-24 10:31:31.45	328.12	21.28	-45.6	-46.9	20.4	0.00e+00	0	43	0	1141899264	61	4533
2026-01-24 10:31:32.46	328.20	21.15	-45.6	-46.9	20.4	0.00e+00	0	44	0	1143996416	61	4542
2026-01-24 10:31:33.47	328.28	21.02	-45.8	-47.1	20.2	0.00e+00	0	44	0	1146093568	62	4360
2026-01-24 10:31:34.47	328.37	20.89	-45.7	-47.0	20.3	0.00e+00	0	44	0	1148190720	62	4338
2026-01-24 10:31:35.48	328.45	20.76	-45.9	-47.2	20.2	0.00e+00	0	44	0	1149239296	62	4430
2026-01-24 10:31:36.49	328.53	20.63	-45.8	-47.2	20.2	0.00e+00	0	44	0	1151336448	62	4402
2026-01-24 10:31:37.50	328.61	20.51	-45.8	-47.1	20.2	0.00e+00	0	43	0	1153433600	62	4369
2026-01-24 10:31:38.51	328.69	20.38	-45.7	-47.0	20.3	0.00e+00	0	44	0	1155530752	62	4333
2026-01-24 10:31:39.51	328.77	20.26	-45.7	-47.0	20.3	0.00e+00	0	43	0	1157627904	62	4330
2026-01-24 10:31:40.52	328.85	20.13	-45.6	-46.9	20.4	0.00e+00	0	44	0	1158676480	62	4270
2026-01-24 10:31:41.53	328.93	20.00	-45.5	-46.8	20.5	0.00e+00	0	43	0	1160773632	61	4463
2026-01-24 10:31:42.54	329.01	19.88	-45.3	-46.6	20.7	0.00e+00	0	43	0	1162870784	61	4350
2026-01-24 10:31:43.55	329.08	19.76	-45.4	-46.6	20.6	0.00e+00	0	44	0	1164967936	61	4388
2026-01-24 10:31:44.55	329.16	19.63	-45.3	-46.5	20.7	0.00e+00	0	44	0	1167065088	61	4330
2026-01-24 10:31:45.56	329.24	19.51	-45.0	-46.3	20.9	0.00e+00	0	44	0	1168113664	61	4206
2026-01-24 10:31:46.57	329.31	19.39	-45.0	-46.2	21.0	0.00e+00	0	43	0	1170210816	61	4161
2026-01-24 10:31:47.58	329.39	19.27	-45.0	-46.2	20.9	0.00e+00	0	44	0	1172307968	61	4173
2026-01-24 10:31:48.58	329.46	19.15	-44.8	-46.0	21.2	0.00e+00	0	43	0	1174405120	61	4069
2026-01-24 10:31:49.59	329.53	19.02	-44.9	-46.1	21.1	0.00e+00	0	43	0	1176502272	61	4113
2026-01-24 10:31:50.60	329.61	18.90	-44.7	-45.9	21.2	0.00e+00	0	43	0	1177550848	60	4262
2026-01-24 10:31:51.61	329.68	18.78	-44.8	-46.0	21.1	0.00e+00	0	43	0	1179648000	60	4328
2026-01-24 10:31:52.61	329.75	18.67	-44.8	-46.0	21.1	0.00e+00	0	43	0	1181745152	60	4314
2026-01-24 10:31:53.62	329.82	18.55	-44.9	-46.1	21.1	0.00e+00	0	43	0	1183842304	60	4350
2026-01-24 10:31:54.63	329.90	18.43	-44.7	-45.8	21.3	0.00e+00	0	43	0	1185939456	60	4234
2026-01-24 10:31:55.64	329.97	18.31	-44.6	-45.8	21.3	0.00e+00	0	44	0	1186988032	60	4221
2026-01-24 10:31:56.65	330.04	18.20	-44.7	-45.9	21.2	0.00e+00	0	43	0	1189085184	60	4269
2026-01-24 10:31:57.66	330.11	18.08	-44.6	-45.7	21.3	0.00e+00	0	43	0	1191182336	60	4189
2026-01-24 10:31:58.67	330.18	17.96	-44.6	-45.8	21.3	0.00e+00	0	43	0	1193279488	60	4217
2026-01-24 10:31:59.67	330.24	17.85	-44.7	-45.9	21.2	0.00e+00	0	43	0	1195376640	60	4252
2026-01-24 10:32:00.68	330.31	17.73	-44.8	-46.0	21.1	0.00e+00	0	43	0	1196425216	60	4313
2026-01-24 10:32:01.69	330.38	17.62	-44.8	-46.1	21.0	0.00e+00	0	44	0	1198522368	60	4354
2026-01-24 10:32:02.70	330.45	17.51	-45.0	-46.3	20.8	0.00e+00	0	43	0	1200619520	60	4450
2026-01-24 10:32:03.71	330.51	17.39	-45.1	-46.3	20.7	0.00e+00	0	43	0	1202716672	60	4473
2026-01-24 10:32:04.72	330.58	17.28	-45.3	-46.6	20.5	0.00e+00	0	43	0	1204813824	61	4354
2026-01-24 10:32:05.72	330.65	17.17	-45.4	-46.7	20.4	0.00e+00	0	43	0	1205862400	61	4416
2026-01-24 10:32:06.73	330.71	17.06	-45.2	-46.5	20.5	0.00e+00	0	43	0	1207959552	61	4328
2026-01-24 10:32:07.74	330.78	16.94	-45.5	-46.8	20.3	0.00e+00	0	44	0	1210056704	61	4468
2026-01-24 10:32:08.75	330.84	16.83	-45.5	-46.8	20.2	0.00e+00	0	43	0	1212153856	61	4486
2026-01-24 10:32:09.76	330.91	16.72	-45.5	-46.9	20.2	0.00e+00	0	43	0	1214251008	61	4505
2026-01-24 10:32:10.77	330.97	16.61	-45.7	-47.0	20.0	0.00e+00	0	44	0	1215299584	61	4594
2026-01-24 10:32:11.78	331.03	16.50	-45.7	-47.1	19.9	0.00e+00	0	43	0	1217396736	61	4610
2026-01-24 10:32:12.79	331.10	16.39	-45.8	-47.2	19.9	0.00e+00	0	43	0	1219493888	62	4395
2026-01-24 10:32:13.80	331.16	16.28	-45.7	-47.0	20.0	0.00e+00	0	43	0	1221591040	62	4336
2026-01-24 10:32:14.81	331.22	16.18	-45.7	-47.1	20.0	0.00e+00	0	43	0	1223688192	62	4347
2026-01-24 10:32:15.81	331.28	16.07	-45.6	-46.9	20.1	0.00e+00	0	43	0	1225785344	62	4271
2026-01-24 10:32:16.82	331.34	15.96	-45.5	-46.8	20.2	0.00e+00	0	43	0	1226833920	61	4471
2026-01-24 10:32:17.83	331.40	15.85	-45.4	-46.7	20.3	0.00e+00	0	43	0	1228931072	61	4435
2026-01-24 10:32:18.84	331.46	15.75	-45.4	-46.7	20.3	0.00e+00	0	44	0	1231028224	61	4412
2026-01-24 10:32:19.85	331.52	15.64	-45.3	-46.6	20.4	0.00e+00	0	43	0	1233125376	61	4357
