passes_logs/2026/01/24/R3.2S_Murmansk/R3.2S_Murmansk__20260124_014301_SUOMI_NPP_rec.log

#Pass ID: 20260124_014301_SUOMI NPP
#Satellite: SUOMI NPP
#Configuration: NPP
#almurnet v.1.7.20251203
#Start time: 2026-01-24 01:43:02

#Version: 2.2.20231116
#Station: R3.2S_Murmansk
#Location: 33.079688 lon 68.888172 lat
#TLE: 1 37849U 11061A   26023.63275593  .00000212  00000+0  12133-3 0  9990
#TLE: 2 37849  98.7820 325.6074 0002234  48.9695 311.1673 14.19528901737937

#Time	Az	El	Level	Level2	SNR	BER	BlckErr	Temp	State	Recorded	gain1	gain2
2026-01-24 01:43:02.56	28.78	2.04	-53.7	-68.7	3.8	1.49e+00	0	41	0	0	78	20827
2026-01-24 01:43:03.56	28.76	2.11	-53.7	-68.7	3.8	1.49e+00	0	41	104	0	77	22109
2026-01-24 01:43:04.57	28.74	2.17	-53.7	-68.7	3.8	1.49e+00	0	41	104	0	77	22107
2026-01-24 01:43:05.58	28.72	2.23	-53.7	-68.7	3.8	1.49e+00	0	41	104	0	77	22062
2026-01-24 01:43:06.59	28.70	2.30	-53.7	-68.7	3.8	1.49e+00	0	41	104	0	77	22009
2026-01-24 01:43:07.60	28.68	2.36	-53.7	-68.6	3.8	1.49e+00	0	41	104	0	77	21996
2026-01-24 01:43:08.61	28.66	2.43	-53.7	-68.6	3.8	1.49e+00	0	41	104	0	77	22001
2026-01-24 01:43:09.62	28.64	2.49	-53.7	-68.6	3.8	1.49e+00	0	41	104	0	77	21964
2026-01-24 01:43:10.63	28.62	2.56	-53.7	-68.6	3.8	1.49e+00	0	41	104	0	77	22006
2026-01-24 01:43:11.64	28.60	2.62	-53.6	-68.6	3.8	1.49e+00	0	41	104	0	77	21993
2026-01-24 01:43:12.64	28.58	2.69	-53.7	-68.7	3.8	1.49e+00	0	41	104	0	77	22024
2026-01-24 01:43:13.65	28.55	2.75	-53.7	-68.6	3.8	1.49e+00	0	41	104	0	77	21961
2026-01-24 01:43:14.66	28.53	2.82	-53.7	-68.7	3.8	1.49e+00	0	41	104	0	77	22043
2026-01-24 01:43:15.67	28.51	2.88	-53.7	-68.7	3.8	1.49e+00	0	41	104	0	77	22008
2026-01-24 01:43:16.68	28.49	2.95	-53.6	-68.6	3.8	1.49e+00	0	41	104	0	77	21977
2026-01-24 01:43:17.69	28.47	3.01	-53.6	-68.6	3.8	1.49e+00	0	41	104	0	77	21961
2026-01-24 01:43:18.70	28.45	3.08	-53.7	-68.7	3.8	1.49e+00	0	42	104	0	77	22049
2026-01-24 01:43:19.71	28.42	3.15	-53.7	-68.6	3.8	1.49e+00	0	41	104	0	77	21978
2026-01-24 01:43:20.72	28.40	3.21	-53.6	-68.6	3.8	1.49e+00	0	41	104	0	77	21958
2026-01-24 01:43:21.73	28.38	3.28	-53.6	-68.6	3.8	1.49e+00	0	42	104	0	77	21992
2026-01-24 01:43:22.73	28.36	3.35	-53.6	-68.6	3.8	1.49e+00	0	42	104	0	77	21945
2026-01-24 01:43:23.74	28.33	3.41	-53.6	-68.6	3.8	1.49e+00	0	42	104	0	77	21994
2026-01-24 01:43:24.75	28.31	3.48	-53.6	-68.7	3.8	1.49e+00	0	42	104	0	77	22045
2026-01-24 01:43:25.76	28.29	3.55	-53.6	-68.7	3.8	1.49e+00	0	42	104	0	77	22037
2026-01-24 01:43:26.77	28.27	3.62	-53.6	-68.7	3.8	1.49e+00	0	41	104	0	77	22034
2026-01-24 01:43:27.78	28.24	3.68	-53.6	-68.6	3.8	1.49e+00	0	42	104	0	77	21955
2026-01-24 01:43:28.79	28.22	3.75	-53.6	-68.6	3.8	1.49e+00	0	41	104	0	77	21953
2026-01-24 01:43:29.79	28.20	3.82	-53.6	-68.6	3.8	1.49e+00	0	42	104	0	77	21941
2026-01-24 01:43:30.80	28.17	3.89	-53.6	-68.6	3.8	1.49e+00	0	42	104	0	77	21962
2026-01-24 01:43:31.81	28.15	3.95	-53.6	-68.6	3.8	1.49e+00	0	42	104	0	77	21972
2026-01-24 01:43:32.82	28.13	4.02	-53.6	-68.6	3.8	1.49e+00	0	42	104	0	77	21912
2026-01-24 01:43:33.83	28.10	4.09	-53.6	-68.6	3.8	1.49e+00	0	42	104	0	77	21949
2026-01-24 01:43:34.84	28.08	4.16	-53.6	-68.6	3.8	1.49e+00	0	42	104	0	77	21920
2026-01-24 01:43:35.85	28.05	4.23	-53.6	-68.6	3.8	1.49e+00	0	42	104	0	77	21950
2026-01-24 01:43:36.86	28.03	4.30	-53.6	-68.6	3.8	1.49e+00	0	42	104	0	77	21971
2026-01-24 01:43:37.87	28.01	4.37	-53.6	-68.6	3.8	1.49e+00	0	42	104	0	77	21940
2026-01-24 01:43:38.87	27.98	4.43	-53.6	-68.6	3.8	1.49e+00	0	42	104	0	77	21926
2026-01-24 01:43:39.88	27.96	4.50	-53.6	-68.6	3.8	1.49e+00	0	42	104	0	77	21905
2026-01-24 01:43:40.89	27.93	4.57	-53.6	-68.6	3.8	1.49e+00	0	42	104	0	77	21899
2026-01-24 01:43:41.90	27.91	4.64	-53.6	-68.6	3.8	1.49e+00	0	42	104	0	77	21968
2026-01-24 01:43:42.91	27.88	4.71	-53.6	-68.6	3.8	1.49e+00	0	42	104	0	77	21956
2026-01-24 01:43:43.91	27.86	4.78	-53.6	-68.6	3.8	1.49e+00	0	42	104	0	77	21859
2026-01-24 01:43:44.92	27.83	4.85	-53.6	-68.6	3.8	1.49e+00	0	42	104	0	77	21915
2026-01-24 01:43:45.93	27.81	4.92	-53.6	-68.6	3.8	1.49e+00	0	42	104	0	77	21946
2026-01-24 01:43:46.94	27.78	5.00	-53.6	-68.6	3.8	1.49e+00	0	42	104	0	77	21914
2026-01-24 01:43:47.95	27.76	5.07	-53.6	-68.6	3.8	1.49e+00	0	42	104	0	77	21919
2026-01-24 01:43:48.95	27.73	5.14	-53.6	-68.6	3.8	1.49e+00	0	42	104	0	77	21865
2026-01-24 01:43:49.96	27.70	5.21	-53.6	-68.6	3.8	1.49e+00	0	42	104	0	77	21948
2026-01-24 01:43:50.97	27.68	5.28	-53.6	-68.6	3.8	1.49e+00	0	42	104	0	77	21961
2026-01-24 01:43:51.98	27.65	5.35	-53.6	-68.6	3.8	1.49e+00	0	42	104	0	77	21963
2026-01-24 01:43:52.98	27.63	5.42	-53.6	-68.6	3.8	1.49e+00	0	42	104	0	77	21961
2026-01-24 01:43:53.99	27.60	5.49	-53.6	-68.6	3.8	1.49e+00	0	42	104	0	77	21912
2026-01-24 01:43:55.00	27.57	5.57	-53.6	-68.6	3.8	1.49e+00	0	42	104	0	77	21928
2026-01-24 01:43:56.01	27.55	5.64	-53.6	-68.6	3.8	1.49e+00	0	42	104	0	77	21924
2026-01-24 01:43:57.02	27.52	5.71	-53.6	-68.6	3.8	1.49e+00	0	42	104	0	77	21883
2026-01-24 01:43:58.03	27.49	5.78	-53.6	-68.6	3.8	1.49e+00	0	42	104	0	77	21871
2026-01-24 01:43:59.04	27.46	5.86	-53.6	-68.6	3.8	1.49e+00	0	42	104	0	77	21946
2026-01-24 01:44:00.05	27.44	5.93	-53.6	-68.6	3.8	1.49e+00	0	42	104	0	77	21858
2026-01-24 01:44:01.06	27.41	6.00	-53.6	-68.6	3.8	1.49e+00	0	42	104	0	77	21871
2026-01-24 01:44:02.07	27.38	6.08	-53.7	-68.7	3.8	1.49e+00	0	42	104	0	77	22058
2026-01-24 01:44:03.08	27.35	6.15	-53.6	-68.6	3.8	1.49e+00	0	42	104	0	77	21967
2026-01-24 01:44:04.08	27.32	6.23	-53.6	-68.7	3.8	1.49e+00	0	42	104	0	77	22008
2026-01-24 01:44:05.09	27.30	6.30	-53.6	-68.6	3.8	1.49e+00	0	42	104	0	77	21915
2026-01-24 01:44:06.10	27.27	6.37	-53.6	-68.6	3.8	1.49e+00	0	43	104	0	77	21925
2026-01-24 01:44:07.11	27.24	6.45	-53.6	-68.6	3.8	1.49e+00	0	42	104	0	77	21918
2026-01-24 01:44:08.12	27.21	6.52	-53.6	-68.6	3.8	1.49e+00	0	42	104	0	77	21937
2026-01-24 01:44:09.13	27.18	6.60	-53.6	-68.6	3.8	1.49e+00	0	42	104	0	77	21981
2026-01-24 01:44:10.14	27.15	6.67	-53.6	-68.6	3.8	1.49e+00	0	42	104	0	77	21845
2026-01-24 01:44:11.14	27.12	6.75	-53.6	-68.6	3.8	1.49e+00	0	43	104	0	77	21945
2026-01-24 01:44:12.15	27.09	6.82	-53.6	-68.6	3.8	1.49e+00	0	43	104	0	77	21941
2026-01-24 01:44:13.16	27.06	6.90	-53.6	-68.6	3.8	1.49e+00	0	43	104	0	77	21908
2026-01-24 01:44:14.17	27.03	6.98	-53.6	-68.6	3.8	1.49e+00	0	43	104	0	77	21920
2026-01-24 01:44:15.17	27.00	7.05	-53.6	-68.6	3.8	1.49e+00	0	43	104	0	77	21888
2026-01-24 01:44:16.18	26.97	7.13	-53.6	-68.6	3.8	1.49e+00	0	43	104	0	77	21877
2026-01-24 01:44:17.19	26.94	7.21	-53.6	-68.6	3.8	1.49e+00	0	43	104	0	77	21868
2026-01-24 01:44:18.20	26.91	7.28	-53.6	-68.6	3.8	1.49e+00	0	43	104	0	77	21873
2026-01-24 01:44:19.21	26.88	7.36	-53.6	-68.6	3.8	1.49e+00	0	43	104	0	77	21874
2026-01-24 01:44:20.22	26.85	7.44	-53.6	-68.6	3.8	1.49e+00	0	43	104	0	77	21889
2026-01-24 01:44:21.23	26.82	7.51	-53.6	-68.6	3.8	1.49e+00	0	43	104	0	77	21878
2026-01-24 01:44:22.24	26.79	7.59	-53.6	-68.6	3.8	1.49e+00	0	43	104	0	77	21915
2026-01-24 01:44:23.24	26.76	7.67	-53.6	-68.6	3.8	1.49e+00	0	43	104	0	77	21883
2026-01-24 01:44:24.25	26.73	7.75	-53.6	-68.6	3.8	1.49e+00	0	43	104	0	77	21895
2026-01-24 01:44:25.26	26.69	7.83	-53.6	-68.6	3.8	1.49e+00	0	43	104	0	77	21924
2026-01-24 01:44:26.27	26.66	7.91	-53.6	-68.6	3.8	1.49e+00	0	43	104	0	77	21874
2026-01-24 01:44:27.28	26.63	7.98	-53.6	-68.6	3.8	1.49e+00	0	43	104	0	77	21902
2026-01-24 01:44:28.28	26.60	8.06	-53.6	-68.6	3.8	1.49e+00	0	43	104	0	77	21900
2026-01-24 01:44:29.29	26.56	8.14	-53.6	-68.6	3.8	1.49e+00	0	43	104	0	77	21844
2026-01-24 01:44:30.30	26.53	8.22	-53.6	-68.6	3.8	1.49e+00	0	43	104	0	77	21900
2026-01-24 01:44:31.31	26.50	8.30	-53.6	-68.6	3.8	1.49e+00	0	43	104	0	77	21874
2026-01-24 01:44:32.31	26.46	8.38	-53.6	-68.6	3.8	1.49e+00	0	43	104	0	77	21927
2026-01-24 01:44:33.32	26.43	8.46	-53.6	-68.6	3.8	1.49e+00	0	43	104	0	77	21994
2026-01-24 01:44:34.33	26.40	8.54	-53.6	-68.6	3.8	1.49e+00	0	43	104	0	77	21901
2026-01-24 01:44:35.34	26.36	8.62	-53.6	-68.6	3.8	1.49e+00	0	43	104	0	77	21881
2026-01-24 01:44:36.35	26.33	8.71	-53.6	-68.6	3.8	1.49e+00	0	43	104	0	77	21892
2026-01-24 01:44:37.36	26.30	8.79	-53.6	-68.6	3.8	1.49e+00	0	43	104	0	77	21882
2026-01-24 01:44:38.36	26.26	8.87	-53.6	-68.6	3.8	1.49e+00	0	43	104	0	77	21883
2026-01-24 01:44:39.37	26.23	8.95	-53.6	-68.6	3.8	1.49e+00	0	43	104	0	77	21878
2026-01-24 01:44:40.38	26.19	9.03	-53.6	-68.6	3.8	1.49e+00	0	43	104	0	77	21890
2026-01-24 01:44:41.39	26.16	9.11	-53.6	-68.6	3.8	1.49e+00	0	43	104	0	77	21925
2026-01-24 01:44:42.40	26.12	9.20	-53.6	-68.6	3.8	1.49e+00	0	43	104	0	77	21869
2026-01-24 01:44:43.41	26.08	9.28	-53.6	-68.6	3.8	1.49e+00	0	43	104	0	77	21855
2026-01-24 01:44:44.42	26.05	9.36	-53.6	-68.6	3.8	1.49e+00	0	43	104	0	77	21850
2026-01-24 01:44:45.43	26.01	9.45	-53.6	-68.6	3.8	1.49e+00	0	43	104	0	77	21835
2026-01-24 01:44:46.44	25.98	9.53	-53.6	-68.6	3.8	1.49e+00	0	43	104	0	77	21892
2026-01-24 01:44:47.44	25.94	9.61	-53.6	-68.6	3.8	1.49e+00	0	43	104	0	77	21923
2026-01-24 01:44:48.45	25.90	9.70	-53.6	-68.6	3.8	1.49e+00	0	43	104	0	77	21851
2026-01-24 01:44:49.46	25.87	9.78	-53.6	-68.6	3.8	1.49e+00	0	43	104	0	77	21933
2026-01-24 01:44:50.47	25.83	9.87	-53.6	-68.6	3.8	1.49e+00	0	43	104	0	77	21909
2026-01-24 01:44:51.48	25.79	9.95	-53.6	-68.6	3.8	1.49e+00	0	43	104	0	77	21855
2026-01-24 01:44:52.48	25.75	10.04	-53.6	-68.6	3.8	1.49e+00	0	43	104	0	77	21820
2026-01-24 01:44:53.49	25.72	10.12	-53.6	-68.6	3.8	1.49e+00	0	43	104	0	77	21851
2026-01-24 01:44:54.50	25.68	10.21	-53.6	-68.6	3.8	1.49e+00	0	43	104	0	77	21846
2026-01-24 01:44:55.51	25.64	10.30	-53.6	-68.6	3.8	1.49e+00	0	43	104	0	77	21910
2026-01-24 01:44:56.52	25.60	10.38	-53.6	-68.6	3.8	1.49e+00	0	43	104	0	77	21850
2026-01-24 01:44:57.53	25.56	10.47	-53.6	-68.6	3.8	1.49e+00	0	43	104	0	77	21872
2026-01-24 01:44:58.54	25.52	10.56	-53.6	-68.6	3.8	1.49e+00	0	43	104	0	77	21868
2026-01-24 01:44:59.55	25.48	10.65	-53.6	-68.6	3.8	1.49e+00	0	43	104	0	77	21854
2026-01-24 01:45:00.53	25.44	10.73	-53.6	-68.6	3.8	1.49e+00	0	43	104	0	77	21914
2026-01-24 01:45:01.54	25.40	10.82	-53.6	-68.6	3.8	1.49e+00	0	43	104	0	77	21905
2026-01-24 01:45:02.55	25.36	10.91	-53.6	-68.6	3.8	1.49e+00	0	43	104	0	77	21876
2026-01-24 01:45:03.56	25.32	11.00	-53.6	-68.6	3.8	1.49e+00	0	43	104	0	77	21880
2026-01-24 01:45:04.57	25.28	11.09	-53.6	-68.6	3.8	1.49e+00	0	43	104	0	77	21866
2026-01-24 01:45:05.57	25.24	11.17	-53.6	-68.6	3.8	1.49e+00	0	43	104	0	77	21867
2026-01-24 01:45:06.58	25.20	11.26	-53.6	-68.6	3.8	1.49e+00	0	43	104	0	77	21830
2026-01-24 01:45:07.59	25.16	11.35	-53.6	-68.6	3.8	1.49e+00	0	43	104	0	77	21829
2026-01-24 01:45:08.60	25.11	11.44	-53.6	-68.6	3.8	1.49e+00	0	43	104	0	77	21831
2026-01-24 01:45:09.61	25.07	11.53	-53.6	-68.6	3.8	1.49e+00	0	43	104	0	77	21831
2026-01-24 01:45:10.62	25.03	11.62	-53.6	-68.6	3.8	1.49e+00	0	43	104	0	77	21805
2026-01-24 01:45:11.62	24.99	11.72	-53.6	-68.6	3.8	1.49e+00	0	43	104	0	77	21847
2026-01-24 01:45:12.63	24.94	11.81	-53.6	-68.6	3.8	1.49e+00	0	43	104	0	77	21783
2026-01-24 01:45:13.64	24.90	11.90	-53.6	-68.6	3.8	1.49e+00	0	43	104	0	77	21840
2026-01-24 01:45:14.65	24.86	11.99	-53.6	-68.6	3.8	1.49e+00	0	43	104	0	77	21801
2026-01-24 01:45:15.66	24.81	12.08	-53.6	-68.6	3.8	1.49e+00	0	43	104	0	77	21818
2026-01-24 01:45:16.67	24.77	12.18	-53.6	-68.6	3.8	1.49e+00	0	43	104	0	77	21795
2026-01-24 01:45:17.68	24.72	12.27	-53.6	-68.6	3.8	1.49e+00	0	43	104	0	77	21794
2026-01-24 01:45:18.68	24.68	12.36	-53.6	-68.6	3.8	1.49e+00	0	43	104	0	77	21801
2026-01-24 01:45:19.69	24.63	12.46	-53.6	-68.6	3.8	1.49e+00	0	43	104	0	77	21971
2026-01-24 01:45:20.70	24.59	12.55	-53.6	-68.6	3.8	1.49e+00	0	43	104	0	77	21805
2026-01-24 01:45:21.71	24.54	12.64	-53.6	-68.6	3.8	1.49e+00	0	43	104	0	77	21805
2026-01-24 01:45:22.72	24.50	12.74	-53.6	-68.6	3.8	1.49e+00	0	43	104	0	77	21802
2026-01-24 01:45:23.72	24.45	12.83	-53.6	-68.6	3.8	1.49e+00	0	43	104	0	77	21788
2026-01-24 01:45:24.73	24.40	12.93	-53.6	-68.6	3.8	1.49e+00	0	43	104	0	77	21806
2026-01-24 01:45:25.74	24.36	13.03	-53.6	-68.6	3.8	1.49e+00	0	43	104	0	77	21819
2026-01-24 01:45:26.75	24.31	13.12	-53.6	-68.5	3.8	1.49e+00	0	43	104	0	77	21744
2026-01-24 01:45:27.75	24.26	13.22	-53.6	-68.6	3.8	1.49e+00	0	43	104	0	77	21796
2026-01-24 01:45:28.76	24.21	13.31	-53.6	-68.6	3.8	1.49e+00	0	43	104	0	77	21781
2026-01-24 01:45:29.77	24.16	13.41	-53.6	-68.6	3.8	1.49e+00	0	43	104	0	77	21787
2026-01-24 01:45:30.78	24.11	13.51	-53.6	-68.5	3.8	1.49e+00	0	43	104	0	77	21725
2026-01-24 01:45:31.79	24.06	13.61	-53.6	-68.6	3.8	1.49e+00	0	43	104	0	77	21760
2026-01-24 01:45:32.80	24.02	13.71	-53.6	-68.6	3.8	1.49e+00	0	43	104	0	77	21804
2026-01-24 01:45:33.80	23.97	13.80	-53.6	-68.6	3.8	1.49e+00	0	43	104	0	77	21791
2026-01-24 01:45:34.81	23.92	13.90	-53.6	-68.5	3.8	1.49e+00	0	43	104	0	77	21752
2026-01-24 01:45:35.82	23.86	14.00	-53.6	-68.6	3.8	1.49e+00	0	43	104	0	77	21813
2026-01-24 01:45:36.83	23.81	14.10	-53.6	-68.6	3.8	1.49e+00	0	43	104	0	77	21818
2026-01-24 01:45:37.83	23.76	14.20	-53.6	-68.5	3.8	1.49e+00	0	43	104	0	77	21755
2026-01-24 01:45:38.84	23.71	14.30	-53.6	-68.6	3.8	1.49e+00	0	43	104	0	77	21786
2026-01-24 01:45:39.85	23.66	14.41	-53.6	-68.6	3.8	1.49e+00	0	43	104	0	77	21769
2026-01-24 01:45:40.86	23.61	14.51	-53.6	-68.6	3.8	1.49e+00	0	43	104	0	77	21789
2026-01-24 01:45:41.87	23.55	14.61	-53.6	-68.6	3.8	1.49e+00	0	43	104	0	77	21768
2026-01-24 01:45:42.87	23.50	14.71	-53.6	-68.5	3.8	1.49e+00	0	43	104	0	77	21736
2026-01-24 01:45:43.88	23.45	14.81	-53.6	-68.6	3.8	1.49e+00	0	43	104	0	77	21768
2026-01-24 01:45:44.89	23.39	14.92	-53.6	-68.5	3.8	1.49e+00	0	43	104	0	77	21738
2026-01-24 01:45:45.90	23.34	15.02	-53.6	-68.6	3.8	1.49e+00	0	43	104	0	77	21795
2026-01-24 01:45:46.91	23.28	15.12	-53.6	-68.5	3.8	1.49e+00	0	43	104	0	77	21726
2026-01-24 01:45:47.92	23.23	15.23	-53.6	-68.6	3.8	1.49e+00	0	43	104	0	77	21798
2026-01-24 01:45:48.93	23.17	15.33	-53.6	-68.6	3.8	1.49e+00	0	43	104	0	77	21810
2026-01-24 01:45:49.94	23.11	15.44	-53.6	-68.6	3.8	1.49e+00	0	43	104	0	77	21817
2026-01-24 01:45:50.95	23.06	15.54	-53.6	-68.5	3.8	1.49e+00	0	43	104	0	77	21729
2026-01-24 01:45:51.96	23.00	15.65	-53.6	-68.6	3.8	1.49e+00	0	43	104	0	77	21773
2026-01-24 01:45:52.96	22.94	15.76	-53.6	-68.6	3.8	1.49e+00	0	43	104	0	77	21783
2026-01-24 01:45:53.97	22.89	15.86	-53.6	-68.6	3.8	1.49e+00	0	43	104	0	77	21797
2026-01-24 01:45:54.98	22.83	15.97	-53.6	-68.6	3.8	1.49e+00	0	43	104	0	77	21804
2026-01-24 01:45:55.99	22.77	16.08	-53.6	-68.5	3.8	1.49e+00	0	43	104	0	77	21744
2026-01-24 01:45:57.00	22.71	16.19	-53.6	-68.6	3.8	1.49e+00	0	43	104	0	77	21767
2026-01-24 01:45:58.01	22.65	16.30	-53.6	-68.6	3.8	1.49e+00	0	43	104	0	77	21761
2026-01-24 01:45:59.02	22.59	16.40	-53.6	-68.5	3.8	1.49e+00	0	43	104	0	77	21742
2026-01-24 01:46:00.02	22.53	16.51	-53.6	-68.5	3.8	1.49e+00	0	43	104	0	77	21755
2026-01-24 01:46:01.03	22.47	16.62	-53.6	-68.6	3.8	1.49e+00	0	44	104	0	77	21779
2026-01-24 01:46:02.04	22.41	16.73	-53.6	-68.6	3.8	1.49e+00	0	43	104	0	77	21796
2026-01-24 01:46:03.05	22.34	16.85	-53.6	-68.6	3.8	1.49e+00	0	43	104	0	77	21777
2026-01-24 01:46:04.06	22.28	16.96	-53.6	-68.5	3.8	1.49e+00	0	43	104	0	77	21744
2026-01-24 01:46:05.07	22.22	17.07	-53.6	-68.6	3.8	1.49e+00	0	43	104	0	77	21774
2026-01-24 01:46:06.08	22.15	17.18	-53.6	-68.6	3.8	1.49e+00	0	43	104	0	77	21758
2026-01-24 01:46:07.09	22.09	17.29	-53.6	-68.6	3.8	1.49e+00	0	44	104	0	77	21788
2026-01-24 01:46:08.10	22.02	17.41	-53.6	-68.6	3.8	1.49e+00	0	43	104	0	77	21840
2026-01-24 01:46:09.11	21.96	17.52	-53.6	-68.6	3.8	1.49e+00	0	43	104	0	77	21817
2026-01-24 01:46:10.12	21.89	17.64	-53.6	-68.6	3.8	1.49e+00	0	43	104	0	77	21807
2026-01-24 01:46:11.12	21.83	17.75	-53.6	-68.6	3.8	1.49e+00	0	43	104	0	77	21812
2026-01-24 01:46:12.13	21.76	17.87	-53.6	-68.6	3.8	1.49e+00	0	43	104	0	77	21763
2026-01-24 01:46:13.14	21.69	17.98	-53.6	-68.6	3.8	1.49e+00	0	43	104	0	77	21819
2026-01-24 01:46:14.15	21.63	18.10	-53.6	-68.6	3.8	1.49e+00	0	43	104	0	77	21819
2026-01-24 01:46:15.16	21.56	18.22	-53.6	-68.6	3.8	1.49e+00	0	43	104	0	77	21796
2026-01-24 01:46:16.17	21.49	18.33	-53.6	-68.6	3.8	1.49e+00	0	43	104	0	77	21827
2026-01-24 01:46:17.17	21.42	18.45	-53.6	-68.5	3.8	1.49e+00	0	43	104	0	77	21742
2026-01-24 01:46:18.18	21.35	18.57	-53.6	-68.6	3.8	1.49e+00	0	43	104	0	77	21877
2026-01-24 01:46:19.19	21.28	18.69	-53.6	-68.6	3.8	1.49e+00	0	43	104	0	77	21806
2026-01-24 01:46:20.20	21.21	18.81	-53.6	-68.6	3.8	1.49e+00	0	44	104	0	77	21835
2026-01-24 01:46:21.21	21.14	18.93	-53.6	-68.6	3.8	1.49e+00	0	43	104	0	77	21821
2026-01-24 01:46:22.22	21.06	19.05	-53.6	-68.6	3.8	1.49e+00	0	44	104	0	77	21783
2026-01-24 01:46:23.23	20.99	19.17	-53.6	-68.6	3.8	1.49e+00	0	43	104	0	77	21793
2026-01-24 01:46:24.24	20.92	19.29	-53.6	-68.6	3.8	1.49e+00	0	43	104	0	77	21817
2026-01-24 01:46:25.24	20.84	19.41	-53.6	-68.6	3.8	1.49e+00	0	43	104	0	77	21823
2026-01-24 01:46:26.25	20.77	19.53	-53.6	-68.6	3.8	1.49e+00	0	43	104	0	77	21846
2026-01-24 01:46:27.26	20.69	19.66	-53.6	-68.6	3.8	1.49e+00	0	44	104	0	77	21773
2026-01-24 01:46:28.27	20.62	19.78	-53.6	-68.6	3.8	1.49e+00	0	43	104	0	77	21810
2026-01-24 01:46:29.28	20.54	19.91	-53.6	-68.6	3.8	1.49e+00	0	44	104	0	77	21780
2026-01-24 01:46:30.29	20.46	20.03	-53.6	-68.5	3.8	1.49e+00	0	44	104	0	77	21733
2026-01-24 01:46:31.30	20.38	20.16	-53.6	-68.5	3.8	1.49e+00	0	43	104	0	77	21735
2026-01-24 01:46:32.31	20.30	20.28	-53.6	-68.5	3.8	1.49e+00	0	43	104	0	77	21729
2026-01-24 01:46:33.31	20.23	20.41	-53.6	-68.6	3.8	1.49e+00	0	43	104	0	77	21795
2026-01-24 01:46:34.32	20.15	20.54	-53.6	-68.6	3.8	1.49e+00	0	43	104	0	77	21781
2026-01-24 01:46:35.33	20.06	20.66	-53.6	-68.6	3.8	1.49e+00	0	43	104	0	77	21777
2026-01-24 01:46:36.34	19.98	20.79	-53.6	-68.6	3.8	1.49e+00	0	44	104	0	77	21799
2026-01-24 01:46:37.35	19.90	20.92	-53.6	-68.6	3.8	1.49e+00	0	43	104	0	77	21791
2026-01-24 01:46:38.36	19.82	21.05	-53.6	-68.6	3.8	1.49e+00	0	43	104	0	77	21804
2026-01-24 01:46:39.37	19.73	21.18	-53.6	-68.6	3.8	1.49e+00	0	43	104	0	77	21777
2026-01-24 01:46:40.38	19.65	21.31	-53.6	-68.5	3.8	1.49e+00	0	43	104	0	77	21748
2026-01-24 01:46:41.39	19.56	21.44	-53.6	-68.5	3.8	1.49e+00	0	44	104	0	77	21726
2026-01-24 01:46:42.40	19.48	21.58	-53.6	-68.5	3.8	1.49e+00	0	43	104	0	77	21746
2026-01-24 01:46:43.41	19.39	21.71	-53.6	-68.6	3.8	1.49e+00	0	44	104	0	77	21779
2026-01-24 01:46:44.41	19.30	21.84	-53.6	-68.6	3.8	1.49e+00	0	43	104	0	77	21789
2026-01-24 01:46:45.42	19.21	21.98	-53.6	-68.6	3.8	1.49e+00	0	43	104	0	77	21793
2026-01-24 01:46:46.43	19.13	22.11	-53.6	-68.6	3.8	1.49e+00	0	44	104	0	77	21777
2026-01-24 01:46:47.44	19.04	22.25	-53.6	-68.6	3.8	1.49e+00	0	43	104	0	77	21763
2026-01-24 01:46:48.45	18.94	22.38	-53.6	-68.6	3.8	1.49e+00	0	43	104	0	77	21814
2026-01-24 01:46:49.45	18.85	22.52	-53.6	-68.6	3.8	1.49e+00	0	43	104	0	77	21776
2026-01-24 01:46:50.46	18.76	22.65	-53.6	-68.6	3.8	1.49e+00	0	43	104	0	77	21804
2026-01-24 01:46:51.47	18.67	22.79	-53.6	-68.6	3.8	1.49e+00	0	44	104	0	77	21822
2026-01-24 01:46:52.48	18.57	22.93	-53.6	-68.6	3.8	1.49e+00	0	44	104	0	77	21804
2026-01-24 01:46:53.49	18.48	23.07	-53.6	-68.5	3.8	1.49e+00	0	43	104	0	77	21734
2026-01-24 01:46:54.49	18.38	23.21	-53.6	-68.6	3.8	1.49e+00	0	43	104	0	77	21845
2026-01-24 01:46:55.50	18.29	23.35	-53.6	-68.6	3.8	1.49e+00	0	44	104	0	77	21797
2026-01-24 01:46:56.51	18.19	23.49	-53.6	-68.6	3.8	1.49e+00	0	44	104	0	77	21822
2026-01-24 01:46:57.52	18.09	23.63	-53.6	-68.6	3.8	1.49e+00	0	43	104	0	77	21784
2026-01-24 01:46:58.53	17.99	23.77	-53.6	-68.6	3.8	1.49e+00	0	43	104	0	77	21773
2026-01-24 01:46:59.53	17.89	23.92	-53.6	-68.6	3.8	1.49e+00	0	43	104	0	77	21788
2026-01-24 01:47:00.54	17.79	24.06	-53.6	-68.6	3.8	1.49e+00	0	43	104	0	77	21799
2026-01-24 01:47:01.55	17.69	24.20	-53.6	-68.6	3.8	1.49e+00	0	43	104	0	77	21800
2026-01-24 01:47:02.56	17.58	24.35	-53.6	-68.6	3.8	1.49e+00	0	43	104	0	77	21816
2026-01-24 01:47:03.57	17.48	24.50	-53.6	-68.6	3.8	1.49e+00	0	44	104	0	77	21768
2026-01-24 01:47:04.57	17.37	24.64	-53.6	-68.6	3.8	1.49e+00	0	44	104	0	77	21783
2026-01-24 01:47:05.58	17.27	24.79	-53.6	-68.6	3.8	1.49e+00	0	43	104	0	77	21763
2026-01-24 01:47:06.59	17.16	24.94	-53.6	-68.6	3.8	1.49e+00	0	43	104	0	77	21776
2026-01-24 01:47:07.60	17.05	25.09	-53.6	-68.5	3.8	1.49e+00	0	43	104	0	77	21753
2026-01-24 01:47:08.61	16.94	25.24	-53.6	-68.6	3.8	1.49e+00	0	44	104	0	77	21777
2026-01-24 01:47:09.62	16.83	25.39	-53.6	-68.6	3.8	1.49e+00	0	44	104	0	77	21765
2026-01-24 01:47:10.62	16.72	25.54	-53.6	-68.6	3.8	1.49e+00	0	44	104	0	77	21814
2026-01-24 01:47:11.63	16.61	25.69	-53.6	-68.6	3.8	1.49e+00	0	44	104	0	77	21780
2026-01-24 01:47:12.64	16.49	25.84	-53.6	-68.6	3.8	1.49e+00	0	43	104	0	77	21813
2026-01-24 01:47:13.65	16.38	25.99	-53.6	-68.5	3.8	1.49e+00	0	44	104	0	77	21743
2026-01-24 01:47:14.65	16.26	26.15	-53.6	-68.6	3.8	1.49e+00	0	43	104	0	77	21781
2026-01-24 01:47:15.66	16.14	26.30	-53.6	-68.6	3.8	1.49e+00	0	43	104	0	77	21781
2026-01-24 01:47:16.67	16.03	26.46	-53.6	-68.5	3.8	1.49e+00	0	44	104	0	77	21748
2026-01-24 01:47:17.68	15.91	26.61	-53.6	-68.6	3.8	1.49e+00	0	43	104	0	77	21840
2026-01-24 01:47:18.69	15.78	26.77	-53.6	-68.6	3.8	1.49e+00	0	44	104	0	77	21810
2026-01-24 01:47:19.70	15.66	26.93	-53.6	-68.6	3.8	1.49e+00	0	44	104	0	77	21813
2026-01-24 01:47:20.70	15.54	27.08	-53.6	-68.6	3.8	1.49e+00	0	43	104	0	77	21864
2026-01-24 01:47:21.72	15.41	27.25	-53.6	-68.6	3.8	1.49e+00	0	44	104	0	77	21765
2026-01-24 01:47:22.72	15.29	27.40	-53.6	-68.6	3.8	1.49e+00	0	43	104	0	77	21790
2026-01-24 01:47:23.73	15.16	27.56	-53.6	-68.6	3.8	1.49e+00	0	44	104	0	77	21767
2026-01-24 01:47:24.74	15.03	27.73	-53.6	-68.6	3.8	1.49e+00	0	44	104	0	77	21822
2026-01-24 01:47:25.75	14.90	27.89	-53.6	-68.6	3.8	1.49e+00	0	43	104	0	77	21811
2026-01-24 01:47:26.75	14.77	28.05	-53.6	-68.6	3.8	1.49e+00	0	44	104	0	77	21798
2026-01-24 01:47:27.76	14.64	28.22	-53.6	-68.6	3.8	1.49e+00	0	43	104	0	77	21765
2026-01-24 01:47:28.77	14.50	28.38	-53.6	-68.6	3.8	1.49e+00	0	43	104	0	77	21778
2026-01-24 01:47:29.78	14.37	28.55	-53.6	-68.5	3.8	1.49e+00	0	43	104	0	77	21750
2026-01-24 01:47:30.79	14.23	28.71	-53.6	-68.5	3.8	1.49e+00	0	44	104	0	77	21724
2026-01-24 01:47:31.80	14.09	28.88	-53.6	-68.5	3.8	1.49e+00	0	43	104	0	77	21735
2026-01-24 01:47:32.81	13.95	29.05	-53.6	-68.6	3.8	1.49e+00	0	43	104	0	77	21771
2026-01-24 01:47:33.81	13.81	29.21	-53.6	-68.6	3.8	1.49e+00	0	43	104	0	77	21798
2026-01-24 01:47:34.82	13.67	29.38	-53.6	-68.6	3.8	1.49e+00	0	43	104	0	77	21761
2026-01-24 01:47:35.83	13.52	29.56	-53.6	-68.5	3.8	1.49e+00	0	43	104	0	77	21740
2026-01-24 01:47:36.84	13.38	29.73	-53.6	-68.6	3.8	1.49e+00	0	44	104	0	77	21762
2026-01-24 01:47:37.85	13.23	29.90	-53.6	-68.6	3.8	1.49e+00	0	43	104	0	77	21767
2026-01-24 01:47:38.85	13.08	30.07	-53.6	-68.5	3.8	1.49e+00	0	44	104	0	77	21750
2026-01-24 01:47:39.86	12.93	30.24	-53.6	-68.6	3.8	1.49e+00	0	43	104	0	77	21765
2026-01-24 01:47:40.87	12.78	30.42	-53.6	-68.5	3.8	1.49e+00	0	43	104	0	77	21741
2026-01-24 01:47:41.88	12.62	30.59	-53.6	-68.6	3.8	1.49e+00	0	44	104	0	77	21768
2026-01-24 01:47:42.89	12.46	30.77	-53.6	-68.6	3.8	1.49e+00	0	43	104	0	77	21768
2026-01-24 01:47:43.90	12.31	30.95	-53.6	-68.5	3.8	1.49e+00	0	44	104	0	77	21736
2026-01-24 01:47:44.91	12.15	31.13	-53.6	-68.6	3.8	1.49e+00	0	43	104	0	77	21765
2026-01-24 01:47:45.91	11.99	31.30	-53.6	-68.5	3.8	1.49e+00	0	44	104	0	77	21721
2026-01-24 01:47:46.92	11.82	31.48	-53.6	-68.6	3.8	1.49e+00	0	43	104	0	77	21775
2026-01-24 01:47:47.93	11.66	31.66	-53.6	-68.5	3.8	1.49e+00	0	43	104	0	77	21719
2026-01-24 01:47:48.94	11.49	31.84	-53.6	-68.6	3.8	1.49e+00	0	44	104	0	77	21768
2026-01-24 01:47:49.95	11.32	32.03	-53.6	-68.5	3.8	1.49e+00	0	43	104	0	77	21709
2026-01-24 01:47:50.96	11.15	32.21	-53.6	-68.5	3.8	1.49e+00	0	44	104	0	77	21717
2026-01-24 01:47:51.97	10.98	32.39	-53.6	-68.6	3.8	1.49e+00	0	43	104	0	77	21762
2026-01-24 01:47:52.98	10.80	32.58	-53.6	-68.6	3.8	1.49e+00	0	44	104	0	77	21765
2026-01-24 01:47:53.99	10.62	32.76	-53.6	-68.6	3.8	1.49e+00	0	43	104	0	77	21816
2026-01-24 01:47:55.00	10.44	32.95	-53.6	-68.6	3.8	1.49e+00	0	43	104	0	77	21791
2026-01-24 01:47:56.01	10.26	33.14	-53.6	-68.6	3.8	1.49e+00	0	43	104	0	77	21776
2026-01-24 01:47:57.02	10.08	33.32	-53.6	-68.5	3.8	1.49e+00	0	44	104	0	77	21744
2026-01-24 01:47:58.02	9.89	33.51	-53.6	-68.6	3.8	1.49e+00	0	43	104	0	77	21774
2026-01-24 01:47:59.03	9.71	33.70	-53.6	-68.6	3.8	1.49e+00	0	43	104	0	77	21767
2026-01-24 01:48:00.04	9.52	33.89	-53.6	-68.6	3.8	1.49e+00	0	43	104	0	77	21773
2026-01-24 01:48:01.05	9.32	34.08	-53.6	-68.5	3.8	1.49e+00	0	44	104	0	77	21689
2026-01-24 01:48:02.06	9.13	34.27	-53.6	-68.6	3.8	1.49e+00	0	43	104	0	77	21786
2026-01-24 01:48:03.06	8.93	34.47	-53.6	-68.6	3.8	1.49e+00	0	43	104	0	77	21784
2026-01-24 01:48:04.07	8.73	34.66	-53.6	-68.5	3.8	1.49e+00	0	43	104	0	77	21720
2026-01-24 01:48:05.08	8.53	34.85	-53.6	-68.5	3.8	1.49e+00	0	43	104	0	77	21724
2026-01-24 01:48:06.09	8.33	35.05	-53.6	-68.5	3.8	1.49e+00	0	44	104	0	77	21744
2026-01-24 01:48:07.10	8.12	35.24	-53.6	-68.6	3.8	1.49e+00	0	43	104	0	77	21758
2026-01-24 01:48:08.11	7.91	35.44	-53.6	-68.6	3.8	1.49e+00	0	43	104	0	77	21759
2026-01-24 01:48:09.12	7.70	35.64	-53.6	-68.5	3.8	1.49e+00	0	43	104	0	77	21734
2026-01-24 01:48:10.12	7.49	35.83	-53.5	-68.6	3.8	1.49e+00	0	43	104	0	77	21775
2026-01-24 01:48:11.13	7.27	36.03	-53.6	-68.6	3.8	1.49e+00	0	44	104	0	77	21826
2026-01-24 01:48:12.14	7.05	36.23	-53.6	-68.5	3.8	1.49e+00	0	43	104	0	77	21739
2026-01-24 01:48:13.14	6.83	36.43	-53.5	-68.5	3.8	1.49e+00	0	43	104	0	77	21745
2026-01-24 01:48:14.15	6.60	36.63	-53.6	-68.5	3.8	1.49e+00	0	44	104	0	77	21737
2026-01-24 01:48:15.16	6.37	36.84	-53.6	-68.6	3.8	1.49e+00	0	43	104	0	77	21756
2026-01-24 01:48:16.17	6.14	37.04	-53.6	-68.5	3.8	1.49e+00	0	43	104	0	77	21747
2026-01-24 01:48:17.17	5.91	37.24	-53.5	-68.6	3.8	1.49e+00	0	43	104	0	77	21765
2026-01-24 01:48:18.18	5.67	37.44	-53.6	-68.6	3.8	1.49e+00	0	43	104	0	77	21761
2026-01-24 01:48:19.19	5.43	37.65	-53.6	-68.6	3.8	1.49e+00	0	43	104	0	77	21796
2026-01-24 01:48:20.20	5.19	37.85	-53.6	-68.5	3.8	1.49e+00	0	43	104	0	77	21733
2026-01-24 01:48:21.21	4.94	38.06	-53.6	-68.5	3.8	1.49e+00	0	43	104	0	77	21725
2026-01-24 01:48:22.22	4.69	38.27	-53.5	-68.5	3.8	1.49e+00	0	43	104	0	77	21739
2026-01-24 01:48:23.22	4.44	38.47	-53.6	-68.6	3.8	1.49e+00	0	43	104	0	77	21761
2026-01-24 01:48:24.23	4.18	38.68	-53.6	-68.5	3.8	1.49e+00	0	43	104	0	77	21744
2026-01-24 01:48:25.24	3.93	38.89	-53.5	-68.5	3.8	1.49e+00	0	43	104	0	77	21754
2026-01-24 01:48:26.25	3.66	39.10	-53.6	-68.5	3.8	1.49e+00	0	44	104	0	77	21715
2026-01-24 01:48:27.26	3.40	39.31	-53.6	-68.5	3.8	1.49e+00	0	44	104	0	77	21656
2026-01-24 01:48:28.26	3.13	39.52	-53.6	-68.5	3.8	1.49e+00	0	44	104	0	77	21741
2026-01-24 01:48:29.27	2.85	39.73	-53.6	-68.6	3.8	1.49e+00	0	43	104	0	77	21756
2026-01-24 01:48:30.28	2.58	39.94	-53.5	-68.5	3.8	1.49e+00	0	43	104	0	77	21713
2026-01-24 01:48:31.29	2.30	40.15	-53.5	-68.5	3.8	1.49e+00	0	43	104	0	77	21722
2026-01-24 01:48:32.30	2.01	40.36	-53.6	-68.5	3.8	1.49e+00	0	43	104	0	77	21704
2026-01-24 01:48:33.30	1.73	40.57	-53.6	-68.5	3.8	1.49e+00	0	43	104	0	77	21711
2026-01-24 01:48:34.31	1.43	40.79	-53.5	-68.5	3.8	1.49e+00	0	43	104	0	77	21698
2026-01-24 01:48:35.32	1.14	41.00	-53.5	-68.6	3.8	1.49e+00	0	43	104	0	77	21763
2026-01-24 01:48:36.33	0.84	41.21	-53.5	-68.5	3.8	1.49e+00	0	43	104	0	77	21720
2026-01-24 01:48:37.33	0.54	41.43	-53.6	-68.6	3.8	1.49e+00	0	43	104	0	77	21761
2026-01-24 01:48:38.34	0.23	41.64	-53.6	-68.5	3.8	1.49e+00	0	44	104	0	77	21739
2026-01-24 01:48:39.35	359.92	41.86	-53.5	-68.5	3.8	1.49e+00	0	44	104	0	77	21725
2026-01-24 01:48:40.36	359.60	42.07	-53.6	-68.6	3.8	1.49e+00	0	43	104	0	77	21783
2026-01-24 01:48:41.37	359.28	42.29	-53.6	-68.5	3.8	1.49e+00	0	43	104	0	77	21712
2026-01-24 01:48:42.37	358.96	42.50	-53.6	-68.5	3.8	1.49e+00	0	43	104	0	77	21719
2026-01-24 01:48:43.38	358.63	42.72	-53.6	-68.5	3.8	1.49e+00	0	44	104	0	77	21749
2026-01-24 01:48:44.39	358.29	42.93	-53.5	-68.5	3.8	1.49e+00	0	43	104	0	77	21705
2026-01-24 01:48:45.40	357.95	43.15	-53.6	-68.5	3.8	1.49e+00	0	43	104	0	77	21734
2026-01-24 01:48:46.41	357.61	43.36	-53.5	-68.5	3.8	1.49e+00	0	43	104	0	77	21704
2026-01-24 01:48:47.42	357.26	43.58	-53.5	-68.5	3.8	1.49e+00	0	43	104	0	77	21740
2026-01-24 01:48:48.42	356.91	43.80	-53.6	-68.5	3.8	1.49e+00	0	43	104	0	77	21728
2026-01-24 01:48:49.43	356.56	44.01	-53.6	-68.6	3.8	1.49e+00	0	43	104	0	77	21777
2026-01-24 01:48:50.44	356.19	44.23	-53.6	-68.5	3.8	1.49e+00	0	44	104	0	77	21736
2026-01-24 01:48:51.45	355.82	44.44	-53.5	-68.5	3.8	1.49e+00	0	43	104	0	77	21652
2026-01-24 01:48:52.45	355.46	44.66	-53.5	-68.5	3.8	1.49e+00	0	43	104	0	77	21718
2026-01-24 01:48:53.46	355.08	44.87	-53.5	-68.5	3.8	1.49e+00	0	43	104	0	77	21719
2026-01-24 01:48:54.47	354.69	45.09	-53.5	-68.5	3.8	1.49e+00	0	43	104	0	77	21703
2026-01-24 01:48:55.48	354.31	45.30	-53.6	-68.5	3.8	1.49e+00	0	43	104	0	77	21715
2026-01-24 01:48:56.49	353.91	45.52	-53.5	-68.5	3.8	1.49e+00	0	43	104	0	77	21708
2026-01-24 01:48:57.49	353.52	45.73	-53.5	-68.5	3.8	1.49e+00	0	43	104	0	77	21709
2026-01-24 01:48:58.50	353.11	45.95	-53.5	-68.5	3.8	1.49e+00	0	43	104	0	77	21706
2026-01-24 01:48:59.51	352.70	46.16	-53.6	-68.5	3.8	1.49e+00	0	43	104	0	77	21674
2026-01-24 01:49:00.52	352.29	46.37	-53.6	-68.6	3.8	1.49e+00	0	43	104	0	77	21757
2026-01-24 01:49:01.53	351.87	46.58	-53.5	-68.5	3.8	1.49e+00	0	43	104	0	77	21661
2026-01-24 01:49:02.54	351.44	46.80	-53.5	-68.5	3.8	1.49e+00	0	43	104	0	77	21695
2026-01-24 01:49:03.54	351.01	47.01	-53.5	-68.5	3.8	1.49e+00	0	43	104	0	77	21713
2026-01-24 01:49:04.55	350.57	47.22	-53.5	-68.5	3.8	1.49e+00	0	43	104	0	77	21744
2026-01-24 01:49:05.56	350.13	47.43	-53.5	-68.6	3.8	1.49e+00	0	43	104	0	77	21757
2026-01-24 01:49:06.56	349.68	47.63	-53.5	-68.5	3.8	1.49e+00	0	43	104	0	77	21716
2026-01-24 01:49:07.57	349.22	47.84	-53.5	-68.5	3.8	1.49e+00	0	44	104	0	77	21719
2026-01-24 01:49:08.58	348.76	48.05	-53.5	-68.5	3.8	1.49e+00	0	43	104	0	77	21721
2026-01-24 01:49:09.59	348.29	48.25	-53.6	-68.5	3.8	1.49e+00	0	43	104	0	77	21732
2026-01-24 01:49:10.60	347.81	48.46	-53.5	-68.5	3.8	1.49e+00	0	43	104	0	77	21734
2026-01-24 01:49:11.61	347.33	48.66	-53.5	-68.5	3.8	1.49e+00	0	43	104	0	77	21703
2026-01-24 01:49:12.61	346.85	48.86	-53.5	-68.5	3.8	1.49e+00	0	43	104	0	77	21709
2026-01-24 01:49:13.62	346.35	49.06	-53.6	-68.5	3.8	1.49e+00	0	43	104	0	77	21721
2026-01-24 01:49:14.63	345.85	49.26	-53.5	-68.5	3.8	1.49e+00	0	43	104	0	77	21743
2026-01-24 01:49:15.64	345.34	49.46	-53.5	-68.5	3.8	1.49e+00	0	43	104	0	77	21700
2026-01-24 01:49:16.65	344.83	49.65	-53.5	-68.6	3.8	1.49e+00	0	43	104	0	77	21757
2026-01-24 01:49:17.65	344.31	49.85	-53.5	-68.5	3.8	1.49e+00	0	43	104	0	77	21633
2026-01-24 01:49:18.66	343.78	50.04	-53.5	-68.5	3.8	1.49e+00	0	43	104	0	77	21715
2026-01-24 01:49:19.67	343.25	50.23	-53.5	-68.5	3.8	1.49e+00	0	43	104	0	77	21699
2026-01-24 01:49:20.68	342.71	50.42	-53.5	-68.5	3.8	1.49e+00	0	43	104	0	77	21657
2026-01-24 01:49:21.69	342.16	50.60	-53.5	-68.5	3.8	1.49e+00	0	43	104	0	77	21745
2026-01-24 01:49:22.69	341.61	50.79	-53.5	-68.5	3.8	1.49e+00	0	43	104	0	77	21706
2026-01-24 01:49:23.70	341.04	50.97	-53.6	-68.5	3.8	1.49e+00	0	43	104	0	77	21713
2026-01-24 01:49:24.71	340.48	51.15	-53.5	-68.5	3.8	1.49e+00	0	43	104	0	77	21683
2026-01-24 01:49:25.72	339.90	51.33	-53.5	-68.5	3.8	1.49e+00	0	43	104	0	77	21692
2026-01-24 01:49:26.73	339.32	51.50	-53.5	-68.5	3.8	1.49e+00	0	43	104	0	77	21741
2026-01-24 01:49:27.74	338.73	51.68	-53.5	-68.5	3.8	1.49e+00	0	43	104	0	77	21731
2026-01-24 01:49:28.75	338.13	51.85	-53.5	-68.5	3.8	1.49e+00	0	43	104	0	77	21750
2026-01-24 01:49:29.75	337.53	52.01	-53.5	-68.5	3.8	1.49e+00	0	43	104	0	77	21722
2026-01-24 01:49:30.76	336.92	52.18	-53.6	-68.5	3.8	1.49e+00	0	43	104	0	77	21722
2026-01-24 01:49:31.77	336.31	52.34	-53.5	-68.5	3.8	1.49e+00	0	43	104	0	77	21712
2026-01-24 01:49:32.78	335.68	52.50	-53.5	-68.6	3.8	1.49e+00	0	44	104	0	77	21787
2026-01-24 01:49:33.79	335.05	52.66	-53.5	-68.6	3.8	1.49e+00	0	43	104	0	77	21778
2026-01-24 01:49:34.80	334.41	52.81	-53.6	-68.5	3.8	1.49e+00	0	43	104	0	77	21684
2026-01-24 01:49:35.81	333.77	52.96	-53.5	-68.5	3.8	1.49e+00	0	43	104	0	77	21724
2026-01-24 01:49:36.82	333.12	53.11	-53.5	-68.5	3.8	1.49e+00	0	43	104	0	77	21717
2026-01-24 01:49:37.83	332.46	53.25	-53.5	-68.5	3.8	1.49e+00	0	43	104	0	77	21728
2026-01-24 01:49:38.84	331.80	53.39	-53.5	-68.5	3.8	1.49e+00	0	43	104	0	77	21713
2026-01-24 01:49:39.84	331.13	53.52	-53.5	-68.5	3.8	1.49e+00	0	43	104	0	77	21740
2026-01-24 01:49:40.85	330.46	53.66	-53.5	-68.5	3.8	1.49e+00	0	44	104	0	77	21731
2026-01-24 01:49:41.86	329.78	53.79	-53.5	-68.6	3.8	1.49e+00	0	43	104	0	77	21762
2026-01-24 01:49:42.87	329.09	53.91	-53.5	-68.5	3.8	1.49e+00	0	43	104	0	77	21693
2026-01-24 01:49:43.88	328.39	54.03	-53.5	-68.5	3.8	1.49e+00	0	43	104	0	77	21698
2026-01-24 01:49:44.89	327.69	54.15	-53.5	-68.5	3.8	1.49e+00	0	44	104	0	77	21717
2026-01-24 01:49:45.90	326.99	54.26	-53.6	-68.5	3.8	1.49e+00	0	43	104	0	77	21700
2026-01-24 01:49:46.91	326.27	54.37	-53.5	-68.5	3.8	1.49e+00	0	43	104	0	77	21675
2026-01-24 01:49:47.91	325.57	54.47	-53.5	-68.5	3.8	1.49e+00	0	43	104	0	77	21709
2026-01-24 01:49:48.92	324.84	54.57	-53.5	-68.5	3.8	1.49e+00	0	43	104	0	77	21735
2026-01-24 01:49:49.93	324.12	54.67	-53.5	-68.5	3.8	1.49e+00	0	43	104	0	77	21701
2026-01-24 01:49:50.94	323.39	54.76	-53.5	-68.5	3.8	1.49e+00	0	43	104	0	77	21694
2026-01-24 01:49:51.95	322.65	54.85	-53.5	-68.5	3.8	1.49e+00	0	43	104	0	77	21715
2026-01-24 01:49:52.95	321.92	54.93	-53.5	-68.5	3.8	1.49e+00	0	43	104	0	77	21701
2026-01-24 01:49:53.96	321.17	55.01	-53.5	-68.5	3.8	1.49e+00	0	43	104	0	77	21679
2026-01-24 01:49:54.97	320.42	55.08	-53.5	-68.5	3.8	1.49e+00	0	43	104	0	77	21709
2026-01-24 01:49:55.98	319.67	55.15	-53.5	-68.5	3.8	1.49e+00	0	43	104	0	77	21702
2026-01-24 01:49:56.99	318.91	55.21	-53.5	-68.6	3.8	1.49e+00	0	43	104	0	77	21765
2026-01-24 01:49:58.00	318.15	55.27	-53.5	-68.5	3.8	1.49e+00	0	43	104	0	77	21719
2026-01-24 01:49:59.01	317.39	55.32	-53.5	-68.5	3.8	1.49e+00	0	43	104	0	77	21717
2026-01-24 01:50:00.02	316.63	55.37	-53.5	-68.5	3.8	1.49e+00	0	43	104	0	77	21713
2026-01-24 01:50:01.03	315.86	55.41	-53.5	-68.5	3.8	1.49e+00	0	43	104	0	77	21655
2026-01-24 01:50:02.04	315.09	55.45	-53.5	-68.5	3.8	1.49e+00	0	43	104	0	77	21699
2026-01-24 01:50:03.04	314.33	55.48	-53.5	-68.5	3.8	1.49e+00	0	43	104	0	77	21701
2026-01-24 01:50:04.05	313.55	55.51	-53.5	-68.5	3.8	1.49e+00	0	43	104	0	77	21701
2026-01-24 01:50:05.06	312.78	55.53	-53.5	-68.5	3.8	1.49e+00	0	43	104	0	77	21651
2026-01-24 01:50:06.07	312.00	55.55	-53.5	-68.5	3.8	1.49e+00	0	43	104	0	77	21633
2026-01-24 01:50:07.08	311.23	55.56	-53.5	-68.5	3.8	1.49e+00	0	43	104	0	77	21638
2026-01-24 01:50:08.09	310.45	55.57	-53.5	-68.5	3.8	1.49e+00	0	43	104	0	77	21674
2026-01-24 01:50:09.10	309.67	55.57	-53.5	-68.5	3.8	1.49e+00	0	43	104	0	77	21652
2026-01-24 01:50:10.11	308.89	55.57	-53.5	-68.5	3.8	1.49e+00	0	43	104	0	77	21719
2026-01-24 01:50:11.12	308.12	55.56	-53.5	-68.5	3.8	1.49e+00	0	43	104	0	77	21719
2026-01-24 01:50:12.12	307.35	55.55	-53.5	-68.5	3.8	1.49e+00	0	43	104	0	77	21690
2026-01-24 01:50:13.13	306.57	55.53	-53.5	-68.5	3.8	1.49e+00	0	43	104	0	77	21655
2026-01-24 01:50:14.14	305.80	55.50	-53.5	-68.5	3.8	1.49e+00	0	43	104	0	77	21675
2026-01-24 01:50:15.15	305.02	55.47	-53.5	-68.5	3.8	1.49e+00	0	43	104	0	77	21693
2026-01-24 01:50:16.16	304.25	55.44	-53.5	-68.5	3.8	1.49e+00	0	43	104	0	77	21673
2026-01-24 01:50:17.16	303.49	55.40	-53.5	-68.5	3.8	1.49e+00	0	43	104	0	77	21612
2026-01-24 01:50:18.17	302.72	55.36	-53.5	-68.5	3.8	1.49e+00	0	43	104	0	77	21678
2026-01-24 01:50:19.18	301.96	55.31	-53.5	-68.5	3.8	1.49e+00	0	43	104	0	77	21632
2026-01-24 01:50:20.19	301.20	55.25	-53.5	-68.5	3.8	1.49e+00	0	43	104	0	77	21598
2026-01-24 01:50:21.20	300.44	55.19	-53.5	-68.5	3.8	1.49e+00	0	43	104	0	77	21623
2026-01-24 01:50:22.21	299.68	55.13	-53.5	-68.5	3.8	1.49e+00	0	43	104	0	77	21674
2026-01-24 01:50:23.22	298.93	55.06	-53.5	-68.5	3.8	1.49e+00	0	43	104	0	77	21614
2026-01-24 01:50:24.23	298.18	54.99	-53.6	-68.5	3.8	1.49e+00	0	43	104	0	77	21706
2026-01-24 01:50:25.23	297.45	54.91	-53.5	-68.5	3.8	1.49e+00	0	43	104	0	77	21740
2026-01-24 01:50:26.24	296.71	54.82	-53.5	-68.5	3.8	1.49e+00	0	43	104	0	77	21716
2026-01-24 01:50:27.25	295.97	54.74	-53.5	-68.5	3.8	1.49e+00	0	43	104	0	77	21696
2026-01-24 01:50:28.26	295.24	54.64	-53.5	-68.5	3.8	1.49e+00	0	43	104	0	77	21716
2026-01-24 01:50:29.27	294.51	54.55	-53.5	-68.6	3.8	1.49e+00	0	44	104	0	77	21768
2026-01-24 01:50:30.28	293.79	54.45	-53.5	-68.5	3.8	1.49e+00	0	43	104	0	77	21699
2026-01-24 01:50:31.29	293.08	54.34	-53.5	-68.5	3.8	1.49e+00	0	43	104	0	77	21681
2026-01-24 01:50:32.29	292.38	54.23	-53.5	-68.5	3.8	1.49e+00	0	43	104	0	77	21703
2026-01-24 01:50:33.30	291.67	54.12	-53.5	-68.5	3.8	1.49e+00	0	43	104	0	77	21600
2026-01-24 01:50:34.31	290.97	54.00	-53.5	-68.5	3.8	1.49e+00	0	43	104	0	77	21546
2026-01-24 01:50:35.32	290.28	53.88	-53.5	-68.5	3.8	1.49e+00	0	43	104	0	77	21607
2026-01-24 01:50:36.33	289.59	53.75	-53.5	-68.5	3.8	1.49e+00	0	43	104	0	77	21649
2026-01-24 01:50:37.33	288.92	53.62	-53.5	-68.5	3.8	1.49e+00	0	43	104	0	77	21668
2026-01-24 01:50:38.34	288.24	53.49	-53.5	-68.5	3.8	1.49e+00	0	43	104	0	77	21699
2026-01-24 01:50:39.35	287.57	53.35	-53.5	-68.5	3.8	1.49e+00	0	43	104	0	77	21641
2026-01-24 01:50:40.36	286.91	53.21	-53.5	-68.5	3.8	1.49e+00	0	43	104	0	77	21729
2026-01-24 01:50:41.37	286.25	53.07	-53.5	-68.5	3.8	1.49e+00	0	43	104	0	77	21710
2026-01-24 01:50:42.38	285.60	52.92	-53.5	-68.5	3.8	1.49e+00	0	43	104	0	77	21718
2026-01-24 01:50:43.38	284.97	52.77	-53.5	-68.5	3.8	1.49e+00	0	43	104	0	77	21643
2026-01-24 01:50:44.39	284.33	52.62	-53.5	-68.5	3.8	1.49e+00	0	43	104	0	77	21625
2026-01-24 01:50:45.40	283.70	52.46	-53.5	-68.5	3.8	1.49e+00	0	43	104	0	77	21621
2026-01-24 01:50:46.41	283.08	52.30	-53.5	-68.5	3.8	1.49e+00	0	43	104	0	77	21703
2026-01-24 01:50:47.42	282.46	52.14	-53.5	-68.5	3.8	1.49e+00	0	43	104	0	77	21698
2026-01-24 01:50:48.43	281.85	51.97	-53.5	-68.5	3.8	1.49e+00	0	43	104	0	77	21693
2026-01-24 01:50:49.43	281.26	51.80	-53.5	-68.5	3.8	1.49e+00	0	43	104	0	77	21692
2026-01-24 01:50:50.44	280.66	51.63	-53.5	-68.5	3.8	1.49e+00	0	43	104	0	77	21715
2026-01-24 01:50:51.45	280.07	51.46	-53.5	-68.5	3.8	1.49e+00	0	43	104	0	77	21704
2026-01-24 01:50:52.46	279.49	51.28	-53.5	-68.5	3.8	1.49e+00	0	43	104	0	77	21713
2026-01-24 01:50:53.47	278.91	51.10	-53.5	-68.5	3.8	1.49e+00	0	43	104	0	77	21710
2026-01-24 01:50:54.48	278.35	50.92	-53.5	-68.5	3.8	1.49e+00	0	43	104	0	77	21735
2026-01-24 01:50:55.48	277.79	50.74	-53.5	-68.5	3.8	1.49e+00	0	43	104	0	77	21706
2026-01-24 01:50:56.49	277.24	50.55	-53.5	-68.5	3.8	1.49e+00	0	43	104	0	77	21696
2026-01-24 01:50:57.50	276.69	50.37	-53.5	-68.5	3.8	1.49e+00	0	43	104	0	77	21739
2026-01-24 01:50:58.51	276.15	50.18	-53.5	-68.5	3.8	1.49e+00	0	43	104	0	77	21669
2026-01-24 01:50:59.52	275.61	49.99	-53.5	-68.5	3.8	1.49e+00	0	43	104	0	77	21695
2026-01-24 01:51:00.52	275.09	49.79	-53.5	-68.5	3.8	1.49e+00	0	43	104	0	77	21708
2026-01-24 01:51:01.53	274.57	49.60	-53.5	-68.6	3.8	1.49e+00	0	43	104	0	77	21765
2026-01-24 01:51:02.54	274.06	49.40	-53.5	-68.5	3.8	1.49e+00	0	43	104	0	77	21612
2026-01-24 01:51:03.55	273.55	49.20	-53.5	-68.5	3.8	1.49e+00	0	43	104	0	77	21687
2026-01-24 01:51:04.55	273.05	49.01	-53.5	-68.5	3.8	1.49e+00	0	43	104	0	77	21686
2026-01-24 01:51:05.56	272.56	48.80	-53.5	-68.5	3.8	1.49e+00	0	43	104	0	77	21680
2026-01-24 01:51:06.57	272.07	48.60	-53.5	-68.5	3.8	1.49e+00	0	43	104	0	77	21699
2026-01-24 01:51:07.58	271.59	48.40	-53.5	-68.5	3.8	1.49e+00	0	43	104	0	77	21661
2026-01-24 01:51:08.59	271.12	48.19	-53.5	-68.5	3.8	1.49e+00	0	43	104	0	77	21713
2026-01-24 01:51:09.60	270.65	47.99	-53.5	-68.5	3.8	1.49e+00	0	43	104	0	77	21682
2026-01-24 01:51:10.61	270.19	47.78	-53.5	-68.5	3.8	1.49e+00	0	43	104	0	77	21694
2026-01-24 01:51:11.62	269.73	47.57	-53.5	-68.5	3.8	1.49e+00	0	43	104	0	77	21726
2026-01-24 01:51:12.62	269.28	47.36	-53.5	-68.5	3.8	1.49e+00	0	43	104	0	77	21744
2026-01-24 01:51:13.63	268.84	47.15	-53.5	-68.5	3.8	1.49e+00	0	43	104	0	77	21712
2026-01-24 01:51:14.64	268.40	46.94	-53.5	-68.5	3.8	1.49e+00	0	43	104	0	77	21678
2026-01-24 01:51:15.65	267.97	46.73	-53.5	-68.5	3.8	1.49e+00	0	43	104	0	77	21697
2026-01-24 01:51:16.66	267.54	46.52	-53.5	-68.5	3.8	1.49e+00	0	43	104	0	77	21732
2026-01-24 01:51:17.67	267.12	46.31	-53.5	-68.5	3.8	1.49e+00	0	43	104	0	77	21723
2026-01-24 01:51:18.68	266.71	46.09	-53.5	-68.5	3.8	1.49e+00	0	43	104	0	77	21752
2026-01-24 01:51:19.68	266.30	45.88	-53.5	-68.5	3.8	1.49e+00	0	43	104	0	77	21729
2026-01-24 01:51:20.69	265.90	45.67	-53.5	-68.5	3.8	1.49e+00	0	43	104	0	77	21667
2026-01-24 01:51:21.70	265.50	45.45	-53.5	-68.5	3.8	1.49e+00	0	43	104	0	77	21696
2026-01-24 01:51:22.71	265.11	45.23	-53.5	-68.5	3.8	1.49e+00	0	43	104	0	77	21675
2026-01-24 01:51:23.71	264.72	45.02	-53.5	-68.5	3.8	1.49e+00	0	43	104	0	77	21676
2026-01-24 01:51:24.72	264.34	44.80	-53.5	-68.5	3.8	1.49e+00	0	43	104	0	77	21724
2026-01-24 01:51:25.73	263.96	44.59	-53.5	-68.5	3.8	1.49e+00	0	43	104	0	77	21709
2026-01-24 01:51:26.74	263.59	44.37	-53.5	-68.5	3.8	1.49e+00	0	43	104	0	77	21661
2026-01-24 01:51:27.75	263.22	44.16	-53.6	-68.6	3.8	1.49e+00	0	43	104	0	77	21765
2026-01-24 01:51:28.75	262.87	43.94	-53.5	-68.5	3.8	1.49e+00	0	43	104	0	77	21729
2026-01-24 01:51:29.76	262.51	43.72	-53.5	-68.5	3.8	1.49e+00	0	43	104	0	77	21684
2026-01-24 01:51:30.78	262.15	43.51	-53.5	-68.5	3.8	1.49e+00	0	43	104	0	77	21737
2026-01-24 01:51:31.79	261.81	43.29	-53.5	-68.5	3.8	1.49e+00	0	43	104	0	77	21679
2026-01-24 01:51:32.79	261.47	43.07	-53.5	-68.5	3.8	1.49e+00	0	43	104	0	77	21746
2026-01-24 01:51:33.80	261.13	42.86	-53.5	-68.5	3.8	1.49e+00	0	43	104	0	77	21717
2026-01-24 01:51:34.81	260.79	42.64	-53.5	-68.5	3.8	1.49e+00	0	43	104	0	77	21700
2026-01-24 01:51:35.82	260.47	42.42	-53.5	-68.5	3.8	1.49e+00	0	43	104	0	77	21743
2026-01-24 01:51:36.83	260.14	42.21	-53.5	-68.5	3.8	1.49e+00	0	43	104	0	77	21746
2026-01-24 01:51:37.84	259.82	41.99	-53.5	-68.5	3.8	1.49e+00	0	43	104	0	77	21689
2026-01-24 01:51:38.84	259.51	41.78	-53.5	-68.5	3.8	1.49e+00	0	43	104	0	77	21697
2026-01-24 01:51:39.85	259.20	41.56	-53.5	-68.5	3.8	1.49e+00	0	43	104	0	77	21691
2026-01-24 01:51:40.86	258.89	41.35	-53.5	-68.6	3.8	1.49e+00	0	43	104	0	77	21758
2026-01-24 01:51:41.87	258.58	41.13	-53.5	-68.5	3.8	1.49e+00	0	43	104	0	77	21747
2026-01-24 01:51:42.88	258.29	40.92	-53.5	-68.5	3.8	1.49e+00	0	43	104	0	77	21753
2026-01-24 01:51:43.88	257.99	40.71	-53.5	-68.5	3.8	1.49e+00	0	43	104	0	77	21715
2026-01-24 01:51:44.89	257.70	40.49	-53.5	-68.5	3.8	1.49e+00	0	43	104	0	77	21737
2026-01-24 01:51:45.90	257.41	40.28	-53.5	-68.5	3.8	1.49e+00	0	43	104	0	77	21714
2026-01-24 01:51:46.91	257.13	40.07	-53.5	-68.5	3.8	1.49e+00	0	43	104	0	77	21664
2026-01-24 01:51:47.91	256.85	39.86	-53.5	-68.5	3.8	1.49e+00	0	43	104	0	77	21696
2026-01-24 01:51:48.92	256.57	39.65	-53.5	-68.5	3.8	1.49e+00	0	43	104	0	77	21684
2026-01-24 01:51:49.93	256.30	39.43	-53.5	-68.5	3.8	1.49e+00	0	43	104	0	77	21656
2026-01-24 01:51:50.94	256.03	39.22	-53.5	-68.5	3.8	1.49e+00	0	44	104	0	77	21662
2026-01-24 01:51:51.94	255.77	39.02	-53.5	-68.5	3.8	1.49e+00	0	43	104	0	77	21754
2026-01-24 01:51:52.96	255.50	38.80	-53.5	-68.5	3.8	1.49e+00	0	43	104	0	77	21715
2026-01-24 01:51:53.96	255.25	38.60	-53.5	-68.5	3.8	1.49e+00	0	43	104	0	77	21632
2026-01-24 01:51:54.97	254.99	38.39	-53.5	-68.5	3.8	1.49e+00	0	43	104	0	77	21744
2026-01-24 01:51:55.98	254.74	38.18	-53.5	-68.5	3.8	1.49e+00	0	43	104	0	77	21673
2026-01-24 01:51:56.99	254.49	37.97	-53.5	-68.5	3.8	1.49e+00	0	43	104	0	77	21698
2026-01-24 01:51:57.99	254.25	37.77	-53.5	-68.5	3.8	1.49e+00	0	43	104	0	77	21716
2026-01-24 01:51:59.00	254.00	37.56	-53.5	-68.5	3.8	1.49e+00	0	43	104	0	77	21738
2026-01-24 01:52:00.01	253.76	37.36	-53.5	-68.5	3.8	1.49e+00	0	44	104	0	77	21713
2026-01-24 01:52:01.02	253.52	37.16	-53.5	-68.5	3.8	1.49e+00	0	44	104	0	77	21702
2026-01-24 01:52:02.03	253.29	36.95	-53.5	-68.5	3.8	1.49e+00	0	43	104	0	77	21657
2026-01-24 01:52:03.03	253.06	36.75	-53.5	-68.5	3.8	1.49e+00	0	43	104	0	77	21670
2026-01-24 01:52:04.04	252.83	36.55	-53.5	-68.5	3.8	1.49e+00	0	43	104	0	77	21691
2026-01-24 01:52:05.05	252.61	36.35	-53.5	-68.5	3.8	1.49e+00	0	43	104	0	77	21678
2026-01-24 01:52:06.06	252.39	36.15	-53.5	-68.5	3.8	1.49e+00	0	43	104	0	77	21709
2026-01-24 01:52:07.06	252.17	35.95	-53.5	-68.5	3.8	1.49e+00	0	43	104	0	77	21683
2026-01-24 01:52:08.07	251.95	35.75	-53.5	-68.5	3.8	1.49e+00	0	43	104	0	77	21635
2026-01-24 01:52:09.08	251.74	35.55	-53.5	-68.5	3.8	1.49e+00	0	43	104	0	77	21700
2026-01-24 01:52:10.09	251.52	35.35	-53.5	-68.5	3.8	1.49e+00	0	43	104	0	77	21654
2026-01-24 01:52:11.09	251.32	35.16	-53.5	-68.5	3.8	1.49e+00	0	43	104	0	77	21686
2026-01-24 01:52:12.10	251.11	34.96	-53.5	-68.5	3.8	1.49e+00	0	43	104	0	77	21717
2026-01-24 01:52:13.11	250.91	34.77	-53.5	-68.5	3.8	1.49e+00	0	43	104	0	77	21721
2026-01-24 01:52:14.12	250.70	34.57	-53.5	-68.5	3.8	1.49e+00	0	43	104	0	77	21729
2026-01-24 01:52:15.13	250.51	34.38	-53.5	-68.5	3.8	1.49e+00	0	43	104	0	77	21688
2026-01-24 01:52:16.14	250.31	34.18	-53.5	-68.5	3.8	1.49e+00	0	44	104	0	77	21666
2026-01-24 01:52:17.15	250.11	33.99	-53.5	-68.5	3.8	1.49e+00	0	43	104	0	77	21686
2026-01-24 01:52:18.15	249.92	33.80	-53.5	-68.5	3.8	1.49e+00	0	43	104	0	77	21700
2026-01-24 01:52:19.16	249.73	33.61	-53.5	-68.5	3.8	1.49e+00	0	44	104	0	77	21742
2026-01-24 01:52:20.18	249.54	33.42	-53.5	-68.5	3.8	1.49e+00	0	43	104	0	77	21724
2026-01-24 01:52:21.18	249.36	33.23	-53.5	-68.5	3.8	1.49e+00	0	43	104	0	77	21641
2026-01-24 01:52:22.19	249.18	33.04	-53.5	-68.5	3.8	1.49e+00	0	43	104	0	77	21747
2026-01-24 01:52:23.20	248.99	32.86	-53.5	-68.5	3.8	1.49e+00	0	43	104	0	77	21671
2026-01-24 01:52:24.21	248.82	32.67	-53.5	-68.5	3.8	1.49e+00	0	43	104	0	77	21639
2026-01-24 01:52:25.22	248.64	32.49	-53.5	-68.5	3.8	1.49e+00	0	43	104	0	77	21715
2026-01-24 01:52:26.23	248.46	32.30	-53.5	-68.5	3.8	1.49e+00	0	43	104	0	77	21666
2026-01-24 01:52:27.24	248.29	32.12	-53.5	-68.5	3.8	1.49e+00	0	43	104	0	77	21723
2026-01-24 01:52:28.24	248.12	31.94	-53.5	-68.5	3.8	1.49e+00	0	43	104	0	77	21675
2026-01-24 01:52:29.25	247.95	31.75	-53.5	-68.5	3.8	1.49e+00	0	43	104	0	77	21710
2026-01-24 01:52:30.26	247.78	31.57	-53.5	-68.5	3.8	1.49e+00	0	43	104	0	77	21714
2026-01-24 01:52:31.27	247.62	31.39	-53.5	-68.5	3.8	1.49e+00	0	43	104	0	77	21682
2026-01-24 01:52:32.27	247.46	31.21	-53.5	-68.5	3.8	1.49e+00	0	43	104	0	77	21735
2026-01-24 01:52:33.28	247.29	31.03	-53.5	-68.5	3.8	1.49e+00	0	43	104	0	77	21721
2026-01-24 01:52:34.29	247.13	30.86	-53.5	-68.5	3.8	1.49e+00	0	43	104	0	77	21676
2026-01-24 01:52:35.30	246.98	30.68	-53.5	-68.5	3.8	1.49e+00	0	43	104	0	77	21648
2026-01-24 01:52:36.31	246.82	30.50	-53.5	-68.5	3.8	1.49e+00	0	43	104	0	77	21720
2026-01-24 01:52:37.32	246.67	30.33	-53.5	-68.5	3.8	1.49e+00	0	43	104	0	77	21608
2026-01-24 01:52:38.33	246.51	30.15	-53.5	-68.5	3.8	1.49e+00	0	43	104	0	77	21715
2026-01-24 01:52:39.34	246.36	29.98	-53.5	-68.5	3.8	1.49e+00	0	43	104	0	77	21679
2026-01-24 01:52:40.35	246.21	29.80	-53.5	-68.5	3.8	1.49e+00	0	43	104	0	77	21669
2026-01-24 01:52:41.35	246.07	29.63	-53.5	-68.5	3.8	1.49e+00	0	43	104	0	77	21707
2026-01-24 01:52:42.36	245.92	29.46	-53.5	-68.5	3.8	1.49e+00	0	43	104	0	77	21707
2026-01-24 01:52:43.37	245.77	29.29	-53.5	-68.5	3.8	1.49e+00	0	43	104	0	77	21696
2026-01-24 01:52:44.38	245.63	29.12	-53.5	-68.5	3.8	1.49e+00	0	43	104	0	77	21738
2026-01-24 01:52:45.39	245.49	28.95	-53.5	-68.5	3.8	1.49e+00	0	43	104	0	77	21668
2026-01-24 01:52:46.39	245.35	28.79	-53.5	-68.5	3.8	1.49e+00	0	43	104	0	77	21696
2026-01-24 01:52:47.40	245.21	28.62	-53.5	-68.5	3.8	1.49e+00	0	43	104	0	77	21691
2026-01-24 01:52:48.41	245.07	28.45	-53.5	-68.5	3.8	1.49e+00	0	43	104	0	77	21700
2026-01-24 01:52:49.41	244.94	28.29	-53.5	-68.5	3.8	1.49e+00	0	43	104	0	77	21739
2026-01-24 01:52:50.42	244.80	28.12	-53.5	-68.5	3.8	1.49e+00	0	43	104	0	77	21674
2026-01-24 01:52:51.43	244.67	27.96	-53.5	-68.5	3.8	1.49e+00	0	43	104	0	77	21663
2026-01-24 01:52:52.44	244.54	27.79	-53.5	-68.5	3.8	1.49e+00	0	43	104	0	77	21724
2026-01-24 01:52:53.45	244.41	27.63	-53.5	-68.5	3.8	1.49e+00	0	43	104	0	77	21689
2026-01-24 01:52:54.46	244.28	27.47	-53.5	-68.5	3.8	1.49e+00	0	43	104	0	77	21653
2026-01-24 01:52:55.47	244.15	27.31	-53.5	-68.5	3.8	1.49e+00	0	43	104	0	77	21691
2026-01-24 01:52:56.47	244.03	27.15	-53.5	-68.5	3.8	1.49e+00	0	43	104	0	77	21699
2026-01-24 01:52:57.48	243.90	26.99	-53.5	-68.5	3.8	1.49e+00	0	43	104	0	77	21719
2026-01-24 01:52:58.49	243.78	26.83	-53.5	-68.5	3.8	1.49e+00	0	43	104	0	77	21659
2026-01-24 01:52:59.50	243.66	26.67	-53.5	-68.5	3.8	1.49e+00	0	43	104	0	77	21721
2026-01-24 01:53:00.51	243.54	26.52	-53.5	-68.5	3.8	1.49e+00	0	43	104	0	77	21663
2026-01-24 01:53:01.51	243.42	26.36	-53.5	-68.5	3.8	1.49e+00	0	43	104	0	77	21672
2026-01-24 01:53:02.52	243.30	26.21	-53.5	-68.5	3.8	1.49e+00	0	43	104	0	77	21640
2026-01-24 01:53:03.53	243.18	26.05	-53.5	-68.5	3.8	1.49e+00	0	43	104	0	77	21671
2026-01-24 01:53:04.54	243.06	25.90	-53.5	-68.5	3.8	1.49e+00	0	43	104	0	77	21685
2026-01-24 01:53:05.55	242.95	25.74	-53.5	-68.5	3.8	1.49e+00	0	43	104	0	77	21652
2026-01-24 01:53:06.56	242.83	25.59	-53.5	-68.6	3.8	1.49e+00	0	43	104	0	77	21785
2026-01-24 01:53:07.57	242.72	25.44	-53.5	-68.5	3.8	1.49e+00	0	43	104	0	77	21677
2026-01-24 01:53:08.58	242.61	25.29	-53.5	-68.5	3.8	1.49e+00	0	43	104	0	77	21658
2026-01-24 01:53:09.59	242.50	25.14	-53.5	-68.5	3.8	1.49e+00	0	43	104	0	77	21717
2026-01-24 01:53:10.59	242.39	24.99	-53.5	-68.5	3.8	1.49e+00	0	43	104	0	77	21708
2026-01-24 01:53:11.60	242.28	24.84	-53.5	-68.5	3.8	1.49e+00	0	43	104	0	77	21747
2026-01-24 01:53:12.61	242.17	24.69	-53.5	-68.5	3.8	1.49e+00	0	43	104	0	77	21699
2026-01-24 01:53:13.62	242.07	24.54	-53.5	-68.5	3.8	1.49e+00	0	43	104	0	77	21640
2026-01-24 01:53:14.63	241.96	24.40	-53.5	-68.5	3.8	1.49e+00	0	43	104	0	77	21684
2026-01-24 01:53:15.64	241.86	24.25	-53.5	-68.5	3.8	1.49e+00	0	43	104	0	77	21658
2026-01-24 01:53:16.65	241.75	24.11	-53.5	-68.5	3.8	1.49e+00	0	43	104	0	77	21668
2026-01-24 01:53:17.65	241.65	23.96	-53.5	-68.5	3.8	1.49e+00	0	43	104	0	77	21713
2026-01-24 01:53:18.66	241.55	23.82	-53.5	-68.5	3.8	1.49e+00	0	43	104	0	77	21645
2026-01-24 01:53:19.67	241.45	23.67	-53.5	-68.5	3.8	1.49e+00	0	43	104	0	77	21650
2026-01-24 01:53:20.68	241.35	23.53	-53.5	-68.5	3.8	1.49e+00	0	43	104	0	77	21711
2026-01-24 01:53:21.69	241.25	23.39	-53.5	-68.5	3.8	1.49e+00	0	43	104	0	77	21675
2026-01-24 01:53:22.70	241.15	23.25	-53.5	-68.5	3.8	1.49e+00	0	43	104	0	77	21670
2026-01-24 01:53:23.70	241.05	23.11	-53.5	-68.5	3.8	1.49e+00	0	43	104	0	77	21673
2026-01-24 01:53:24.71	240.96	22.97	-53.5	-68.5	3.8	1.49e+00	0	43	104	0	77	21708
2026-01-24 01:53:25.72	240.86	22.83	-53.5	-68.5	3.8	1.49e+00	0	43	104	0	77	21692
2026-01-24 01:53:26.73	240.77	22.69	-53.5	-68.5	3.8	1.49e+00	0	43	104	0	77	21666
2026-01-24 01:53:27.74	240.68	22.55	-53.5	-68.5	3.8	1.49e+00	0	43	104	0	77	21729
2026-01-24 01:53:28.75	240.58	22.42	-53.5	-68.6	3.8	1.49e+00	0	43	104	0	77	21770
2026-01-24 01:53:29.75	240.49	22.28	-53.5	-68.5	3.8	1.49e+00	0	43	104	0	77	21643
2026-01-24 01:53:30.76	240.40	22.14	-53.5	-68.5	3.8	1.49e+00	0	43	104	0	77	21716
2026-01-24 01:53:31.77	240.31	22.01	-53.5	-68.5	3.8	1.49e+00	0	43	104	0	77	21679
2026-01-24 01:53:32.78	240.22	21.87	-53.5	-68.5	3.8	1.49e+00	0	43	104	0	77	21631
2026-01-24 01:53:33.79	240.13	21.74	-53.5	-68.5	3.8	1.49e+00	0	43	104	0	77	21670
2026-01-24 01:53:34.80	240.04	21.61	-53.5	-68.5	3.8	1.49e+00	0	43	104	0	77	21673
2026-01-24 01:53:35.80	239.96	21.48	-53.5	-68.5	3.8	1.49e+00	0	43	104	0	77	21709
2026-01-24 01:53:36.81	239.87	21.34	-53.5	-68.5	3.8	1.49e+00	0	43	104	0	77	21676
2026-01-24 01:53:37.82	239.79	21.21	-53.5	-68.5	3.8	1.49e+00	0	43	104	0	77	21649
2026-01-24 01:53:38.83	239.70	21.08	-53.5	-68.5	3.8	1.49e+00	0	43	104	0	77	21717
2026-01-24 01:53:39.83	239.62	20.95	-53.5	-68.5	3.8	1.49e+00	0	43	104	0	77	21644
2026-01-24 01:53:40.84	239.53	20.82	-53.5	-68.6	3.8	1.49e+00	0	43	104	0	77	21759
2026-01-24 01:53:41.85	239.45	20.69	-53.5	-68.5	3.8	1.49e+00	0	43	104	0	77	21687
2026-01-24 01:53:42.86	239.37	20.56	-53.5	-68.5	3.8	1.49e+00	0	43	104	0	77	21662
2026-01-24 01:53:43.87	239.29	20.44	-53.5	-68.5	3.8	1.49e+00	0	43	104	0	77	21646
2026-01-24 01:53:44.87	239.21	20.31	-53.5	-68.5	3.8	1.49e+00	0	43	104	0	77	21663
2026-01-24 01:53:45.88	239.13	20.18	-53.5	-68.5	3.8	1.49e+00	0	43	104	0	77	21660
2026-01-24 01:53:46.89	239.05	20.06	-53.5	-68.5	3.8	1.49e+00	0	43	104	0	77	21663
2026-01-24 01:53:47.90	238.97	19.93	-53.5	-68.5	3.8	1.49e+00	0	43	104	0	77	21652
2026-01-24 01:53:48.91	238.89	19.81	-53.5	-68.5	3.8	1.49e+00	0	43	104	0	77	21715
2026-01-24 01:53:49.91	238.82	19.68	-53.5	-68.5	3.8	1.49e+00	0	43	104	0	77	21678
2026-01-24 01:53:50.92	238.74	19.56	-53.5	-68.5	3.8	1.49e+00	0	43	104	0	77	21635
2026-01-24 01:53:51.93	238.67	19.43	-53.5	-68.5	3.8	1.49e+00	0	43	104	0	77	21670
2026-01-24 01:53:52.94	238.59	19.31	-53.5	-68.5	3.8	1.49e+00	0	43	104	0	77	21682
2026-01-24 01:53:53.95	238.52	19.19	-53.5	-68.5	3.8	1.49e+00	0	43	104	0	77	21671
2026-01-24 01:53:54.95	238.44	19.07	-53.5	-68.5	3.8	1.49e+00	0	43	104	0	77	21671
2026-01-24 01:53:55.96	238.37	18.95	-53.5	-68.5	3.8	1.49e+00	0	43	104	0	77	21673
2026-01-24 01:53:56.97	238.30	18.83	-53.5	-68.5	3.8	1.49e+00	0	43	104	0	77	21637
2026-01-24 01:53:57.98	238.22	18.71	-53.5	-68.5	3.8	1.49e+00	0	43	104	0	77	21646
2026-01-24 01:53:58.99	238.15	18.59	-53.5	-68.5	3.8	1.49e+00	0	43	104	0	77	21681
2026-01-24 01:53:59.99	238.08	18.47	-53.5	-68.5	3.8	1.49e+00	0	43	104	0	77	21699
2026-01-24 01:54:01.00	238.01	18.35	-53.5	-68.5	3.8	1.49e+00	0	43	104	0	77	21676
2026-01-24 01:54:02.01	237.94	18.23	-53.5	-68.5	3.8	1.49e+00	0	43	104	0	77	21728
2026-01-24 01:54:03.02	237.87	18.11	-53.5	-68.5	3.8	1.49e+00	0	43	104	0	77	21724
2026-01-24 01:54:04.03	237.80	18.00	-53.5	-68.5	3.8	1.49e+00	0	43	104	0	77	21689
2026-01-24 01:54:05.03	237.74	17.88	-53.5	-68.5	3.8	1.49e+00	0	43	104	0	77	21677
2026-01-24 01:54:06.04	237.67	17.77	-53.5	-68.5	3.8	1.49e+00	0	43	104	0	77	21661
2026-01-24 01:54:07.05	237.60	17.65	-53.5	-68.5	3.8	1.49e+00	0	43	104	0	77	21711
2026-01-24 01:54:08.06	237.54	17.54	-53.5	-68.5	3.8	1.49e+00	0	43	104	0	77	21636
2026-01-24 01:54:09.06	237.47	17.42	-53.5	-68.5	3.8	1.49e+00	0	43	104	0	77	21651
2026-01-24 01:54:10.07	237.40	17.31	-53.5	-68.5	3.8	1.49e+00	0	43	104	0	77	21677
2026-01-24 01:54:11.08	237.34	17.19	-53.5	-68.5	3.8	1.49e+00	0	43	104	0	77	21691
2026-01-24 01:54:12.08	237.28	17.08	-53.5	-68.5	3.8	1.49e+00	0	43	104	0	77	21675
2026-01-24 01:54:13.09	237.21	16.97	-53.5	-68.5	3.8	1.49e+00	0	43	104	0	77	21746
2026-01-24 01:54:14.10	237.15	16.86	-53.5	-68.5	3.8	1.49e+00	0	43	104	0	77	21746
2026-01-24 01:54:15.11	237.08	16.75	-53.5	-68.5	3.8	1.49e+00	0	43	104	0	77	21729
2026-01-24 01:54:16.12	237.02	16.64	-53.5	-68.5	3.8	1.49e+00	0	43	104	0	77	21604
2026-01-24 01:54:17.13	236.96	16.52	-53.5	-68.5	3.8	1.49e+00	0	43	104	0	77	21677
2026-01-24 01:54:18.14	236.90	16.41	-53.5	-68.5	3.8	1.49e+00	0	43	104	0	77	21679
2026-01-24 01:54:19.14	236.84	16.31	-53.5	-68.5	3.8	1.49e+00	0	43	104	0	77	21690
2026-01-24 01:54:20.15	236.78	16.20	-53.5	-68.5	3.8	1.49e+00	0	43	104	0	77	21688
2026-01-24 01:54:21.16	236.72	16.09	-53.5	-68.5	3.8	1.49e+00	0	43	104	0	77	21677
2026-01-24 01:54:22.17	236.66	15.98	-53.5	-68.5	3.8	1.49e+00	0	43	104	0	77	21705
2026-01-24 01:54:23.18	236.60	15.87	-53.5	-68.5	3.8	1.49e+00	0	43	104	0	77	21722
2026-01-24 01:54:24.19	236.54	15.76	-53.5	-68.5	3.8	1.49e+00	0	43	104	0	77	21652
2026-01-24 01:54:25.20	236.48	15.66	-53.5	-68.5	3.8	1.49e+00	0	43	104	0	77	21681
2026-01-24 01:54:26.21	236.42	15.55	-53.5	-68.5	3.8	1.49e+00	0	43	104	0	77	21638
2026-01-24 01:54:27.22	236.37	15.44	-53.5	-68.5	3.8	1.49e+00	0	43	104	0	77	21649
2026-01-24 01:54:28.22	236.31	15.34	-53.5	-68.5	3.8	1.49e+00	0	43	104	0	77	21684
2026-01-24 01:54:29.24	236.25	15.23	-53.5	-68.5	3.8	1.49e+00	0	43	104	0	77	21656
2026-01-24 01:54:30.24	236.20	15.13	-53.5	-68.5	3.8	1.49e+00	0	43	104	0	77	21691
2026-01-24 01:54:31.25	236.14	15.02	-53.5	-68.5	3.8	1.49e+00	0	43	104	0	77	21668
2026-01-24 01:54:32.26	236.09	14.92	-53.5	-68.5	3.8	1.49e+00	0	44	104	0	77	21665
2026-01-24 01:54:33.27	236.03	14.82	-53.5	-68.5	3.8	1.49e+00	0	43	104	0	77	21672
2026-01-24 01:54:34.28	235.98	14.71	-53.5	-68.5	3.8	1.49e+00	0	43	104	0	77	21689
2026-01-24 01:54:35.29	235.92	14.61	-53.5	-68.5	3.8	1.49e+00	0	43	104	0	77	21707
2026-01-24 01:54:36.30	235.87	14.51	-53.5	-68.5	3.8	1.49e+00	0	43	104	0	77	21708
2026-01-24 01:54:37.30	235.81	14.41	-53.5	-68.5	3.8	1.49e+00	0	43	104	0	77	21678
2026-01-24 01:54:38.31	235.76	14.30	-53.5	-68.5	3.8	1.49e+00	0	43	104	0	77	21670
2026-01-24 01:54:39.32	235.71	14.20	-53.5	-68.5	3.8	1.49e+00	0	43	104	0	77	21650
2026-01-24 01:54:40.33	235.66	14.10	-53.5	-68.5	3.8	1.49e+00	0	43	104	0	77	21688
2026-01-24 01:54:41.34	235.60	14.00	-53.5	-68.5	3.8	1.49e+00	0	43	104	0	77	21661
2026-01-24 01:54:42.35	235.55	13.90	-53.5	-68.5	3.8	1.49e+00	0	43	104	0	77	21679
2026-01-24 01:54:43.36	235.50	13.80	-53.5	-68.5	3.8	1.49e+00	0	43	104	0	77	21690
2026-01-24 01:54:44.36	235.45	13.70	-53.5	-68.5	3.8	1.49e+00	0	43	104	0	77	21689
2026-01-24 01:54:45.37	235.40	13.60	-53.5	-68.5	3.8	1.49e+00	0	43	104	0	77	21699
2026-01-24 01:54:46.38	235.35	13.51	-53.5	-68.5	3.8	1.49e+00	0	43	104	0	77	21737
2026-01-24 01:54:47.39	235.30	13.41	-53.5	-68.5	3.8	1.49e+00	0	43	104	0	77	21680
2026-01-24 01:54:48.39	235.25	13.31	-53.5	-68.5	3.8	1.49e+00	0	43	104	0	77	21680
2026-01-24 01:54:49.40	235.20	13.21	-53.5	-68.5	3.8	1.49e+00	0	43	104	0	77	21688
2026-01-24 01:54:50.41	235.15	13.12	-53.5	-68.5	3.8	1.49e+00	0	43	104	0	77	21711
2026-01-24 01:54:51.42	235.11	13.02	-53.5	-68.5	3.8	1.49e+00	0	43	104	0	77	21649
2026-01-24 01:54:52.43	235.06	12.92	-53.5	-68.5	3.8	1.49e+00	0	43	104	0	77	21705
2026-01-24 01:54:53.44	235.01	12.83	-53.5	-68.5	3.8	1.49e+00	0	44	104	0	77	21658
2026-01-24 01:54:54.45	234.96	12.73	-53.5	-68.5	3.8	1.49e+00	0	43	104	0	77	21669
2026-01-24 01:54:55.45	234.92	12.64	-53.5	-68.5	3.8	1.49e+00	0	43	104	0	77	21681
2026-01-24 01:54:56.46	234.87	12.54	-53.5	-68.5	3.8	1.49e+00	0	43	104	0	77	21684
2026-01-24 01:54:57.47	234.82	12.45	-53.5	-68.5	3.8	1.49e+00	0	43	104	0	77	21662
2026-01-24 01:54:58.48	234.78	12.35	-53.5	-68.5	3.8	1.49e+00	0	43	104	0	77	21712
2026-01-24 01:54:59.49	234.73	12.26	-53.5	-68.5	3.8	1.49e+00	0	43	104	0	77	21686
2026-01-24 01:55:00.50	234.69	12.17	-53.5	-68.5	3.8	1.49e+00	0	43	104	0	77	21651
2026-01-24 01:55:01.51	234.64	12.07	-53.5	-68.5	3.8	1.49e+00	0	43	104	0	77	21688
2026-01-24 01:55:02.51	234.60	11.98	-53.5	-68.5	3.8	1.49e+00	0	43	104	0	77	21685
2026-01-24 01:55:03.52	234.55	11.89	-53.5	-68.5	3.8	1.49e+00	0	43	104	0	77	21680
2026-01-24 01:55:04.53	234.51	11.80	-53.5	-68.5	3.8	1.49e+00	0	43	104	0	77	21699
2026-01-24 01:55:05.54	234.46	11.70	-53.5	-68.5	3.8	1.49e+00	0	43	104	0	77	21716
2026-01-24 01:55:06.55	234.42	11.61	-53.5	-68.5	3.8	1.49e+00	0	43	104	0	77	21734
2026-01-24 01:55:07.56	234.38	11.52	-53.5	-68.5	3.8	1.49e+00	0	43	104	0	77	21710
2026-01-24 01:55:08.57	234.33	11.43	-53.5	-68.5	3.8	1.49e+00	0	43	104	0	77	21652
2026-01-24 01:55:09.57	234.29	11.34	-53.5	-68.5	3.8	1.49e+00	0	43	104	0	77	21696
2026-01-24 01:55:10.58	234.25	11.25	-53.5	-68.5	3.8	1.49e+00	0	43	104	0	77	21728
2026-01-24 01:55:11.59	234.21	11.16	-53.5	-68.5	3.8	1.49e+00	0	43	104	0	77	21700
2026-01-24 01:55:12.60	234.17	11.07	-53.5	-68.5	3.8	1.49e+00	0	43	104	0	77	21649
2026-01-24 01:55:13.61	234.12	10.98	-53.5	-68.5	3.8	1.49e+00	0	43	104	0	77	21654
2026-01-24 01:55:14.62	234.08	10.89	-53.5	-68.5	3.8	1.49e+00	0	43	104	0	77	21663
2026-01-24 01:55:15.62	234.04	10.80	-53.5	-68.5	3.8	1.49e+00	0	43	104	0	77	21581
2026-01-24 01:55:16.63	234.00	10.72	-53.5	-68.5	3.8	1.49e+00	0	43	104	0	77	21701
2026-01-24 01:55:17.64	233.96	10.63	-53.5	-68.5	3.8	1.49e+00	0	43	104	0	77	21682
2026-01-24 01:55:18.65	233.92	10.54	-53.5	-68.5	3.8	1.49e+00	0	43	104	0	77	21639
2026-01-24 01:55:19.66	233.88	10.45	-53.5	-68.5	3.8	1.49e+00	0	43	104	0	77	21612
2026-01-24 01:55:20.66	233.84	10.37	-53.5	-68.5	3.8	1.49e+00	0	43	104	0	77	21692
2026-01-24 01:55:21.67	233.80	10.28	-53.5	-68.5	3.8	1.49e+00	0	43	104	0	77	21674
2026-01-24 01:55:22.68	233.76	10.19	-53.5	-68.5	3.8	1.49e+00	0	43	104	0	77	21650
2026-01-24 01:55:23.69	233.72	10.11	-53.5	-68.5	3.8	1.49e+00	0	43	104	0	77	21647
2026-01-24 01:55:24.69	233.68	10.02	-53.5	-68.5	3.8	1.49e+00	0	43	104	0	77	21634
2026-01-24 01:55:25.70	233.65	9.93	-53.5	-68.5	3.8	1.49e+00	0	43	104	0	77	21628
2026-01-24 01:55:26.71	233.61	9.85	-53.5	-68.5	3.8	1.49e+00	0	43	104	0	77	21658
2026-01-24 01:55:27.72	233.57	9.76	-53.5	-68.5	3.8	1.49e+00	0	43	104	0	77	21701
2026-01-24 01:55:28.73	233.53	9.68	-53.5	-68.5	3.8	1.49e+00	0	43	104	0	77	21608
