passes_logs/2026/01/24/R3.2S_Murmansk/R3.2S_Murmansk__20260124_114143_SUOMI_NPP_rec.log

#Pass ID: 20260124_114143_SUOMI NPP
#Satellite: SUOMI NPP
#Configuration: NPP
#almurnet v.1.7.20251203
#Start time: 2026-01-24 11:41:44

#Version: 2.2.20231116
#Station: R3.2S_Murmansk
#Location: 33.079688 lon 68.888172 lat
#TLE: 1 37849U 11061A   26023.63275593  .00000212  00000+0  12133-3 0  9990
#TLE: 2 37849  98.7820 325.6074 0002234  48.9695 311.1673 14.19528901737937

#Time	Az	El	Level	Level2	SNR	BER	BlckErr	Temp	State	Recorded	gain1	gain2
2026-01-24 11:41:44.81	204.35	2.10	-52.2	-67.2	3.8	1.49e+00	0	41	0	0	75	20883
2026-01-24 11:41:45.82	204.42	2.16	-52.2	-67.2	3.8	1.49e+00	0	41	104	0	74	22167
2026-01-24 11:41:46.83	204.48	2.21	-52.2	-67.2	3.8	1.49e+00	0	41	104	0	74	22079
2026-01-24 11:41:47.84	204.54	2.27	-52.2	-67.2	3.8	1.49e+00	0	41	104	0	74	22063
2026-01-24 11:41:48.85	204.61	2.33	-52.2	-67.2	3.8	1.49e+00	0	41	104	0	74	22126
2026-01-24 11:41:49.85	204.67	2.39	-52.2	-67.2	3.8	1.49e+00	0	41	104	0	74	22022
2026-01-24 11:41:50.87	204.74	2.45	-52.2	-67.1	3.8	1.49e+00	0	41	104	0	74	21999
2026-01-24 11:41:51.87	204.80	2.51	-52.2	-67.2	3.8	1.49e+00	0	41	104	0	74	22054
2026-01-24 11:41:52.88	204.87	2.56	-52.2	-67.2	3.8	1.49e+00	0	41	104	0	74	22022
2026-01-24 11:41:53.89	204.93	2.62	-52.2	-67.1	3.8	1.49e+00	0	41	104	0	74	21972
2026-01-24 11:41:54.90	205.00	2.68	-52.2	-67.1	3.8	1.49e+00	0	41	104	0	74	22002
2026-01-24 11:41:55.91	205.06	2.74	-52.2	-67.2	3.8	1.49e+00	0	41	104	0	74	22048
2026-01-24 11:41:56.91	205.13	2.80	-52.2	-67.2	3.8	1.49e+00	0	41	104	0	74	22044
2026-01-24 11:41:57.92	205.19	2.86	-52.2	-67.1	3.8	1.49e+00	0	42	104	0	74	21992
2026-01-24 11:41:58.93	205.26	2.92	-52.2	-67.2	3.8	1.49e+00	0	41	104	0	74	22036
2026-01-24 11:41:59.94	205.33	2.98	-52.2	-67.2	3.8	1.49e+00	0	42	104	0	74	22063
2026-01-24 11:42:00.95	205.39	3.04	-52.2	-67.2	3.8	1.49e+00	0	42	104	0	74	22081
2026-01-24 11:42:01.96	205.46	3.10	-52.2	-67.2	3.8	1.49e+00	0	42	104	0	74	22019
2026-01-24 11:42:02.97	205.53	3.16	-52.2	-67.2	3.8	1.49e+00	0	41	104	0	74	22059
2026-01-24 11:42:03.98	205.60	3.22	-52.2	-67.1	3.8	1.49e+00	0	41	104	0	74	21946
2026-01-24 11:42:04.99	205.66	3.28	-52.2	-67.1	3.8	1.49e+00	0	42	104	0	74	21862
2026-01-24 11:42:06.00	205.73	3.34	-52.2	-67.1	3.8	1.49e+00	0	42	104	0	74	21927
2026-01-24 11:42:07.00	205.80	3.40	-52.2	-67.1	3.8	1.49e+00	0	41	104	0	74	21911
2026-01-24 11:42:08.01	205.87	3.46	-52.2	-67.2	3.8	1.49e+00	0	42	104	0	74	22009
2026-01-24 11:42:09.02	205.94	3.52	-52.2	-67.1	3.8	1.49e+00	0	42	104	0	74	21999
2026-01-24 11:42:10.03	206.01	3.58	-52.2	-67.2	3.8	1.49e+00	0	42	104	0	74	22045
2026-01-24 11:42:11.04	206.08	3.64	-52.2	-67.2	3.8	1.49e+00	0	42	104	0	74	22055
2026-01-24 11:42:12.05	206.15	3.70	-52.2	-67.1	3.8	1.49e+00	0	42	104	0	74	21987
2026-01-24 11:42:13.05	206.22	3.76	-52.2	-67.1	3.8	1.49e+00	0	42	104	0	74	21960
2026-01-24 11:42:14.06	206.29	3.82	-52.2	-67.1	3.8	1.49e+00	0	42	104	0	74	21997
2026-01-24 11:42:15.07	206.36	3.88	-52.2	-67.1	3.8	1.49e+00	0	42	104	0	74	21902
2026-01-24 11:42:16.08	206.43	3.94	-52.2	-67.1	3.8	1.49e+00	0	42	104	0	74	22002
2026-01-24 11:42:17.09	206.50	4.00	-52.2	-67.1	3.8	1.49e+00	0	42	104	0	74	21897
2026-01-24 11:42:18.10	206.57	4.06	-52.2	-67.0	3.8	1.49e+00	0	42	104	0	74	21519
2026-01-24 11:42:19.11	206.64	4.12	-52.2	-66.7	3.8	1.49e+00	0	42	104	0	74	20984
2026-01-24 11:42:20.12	206.72	4.19	-52.2	-66.7	3.8	1.49e+00	0	42	104	0	74	20818
2026-01-24 11:42:21.13	206.79	4.25	-52.2	-66.5	3.8	1.49e+00	0	42	104	0	74	20373
2026-01-24 11:42:22.13	206.86	4.31	-52.2	-66.5	3.8	1.49e+00	0	42	104	0	74	20501
2026-01-24 11:42:23.14	206.93	4.37	-52.2	-66.8	3.8	1.49e+00	0	42	104	0	74	21223
2026-01-24 11:42:24.15	207.01	4.43	-52.2	-66.8	3.8	1.49e+00	0	42	104	0	74	21242
2026-01-24 11:42:25.16	207.08	4.49	-52.2	-66.1	3.8	1.49e+00	0	42	104	0	74	19469
2026-01-24 11:42:26.17	207.15	4.56	-52.0	-64.2	3.9	1.49e+00	0	42	104	0	74	15760
2026-01-24 11:42:27.17	207.23	4.62	-51.8	-61.6	5.0	1.01e+00	0	42	0	0	74	11657
2026-01-24 11:42:28.18	207.30	4.68	-51.4	-58.6	7.2	3.33e-01	0	42	0	2097152	74	8226
2026-01-24 11:42:29.19	207.38	4.74	-51.0	-57.1	8.7	3.85e-02	0	42	0	4194304	74	6938
2026-01-24 11:42:30.20	207.45	4.80	-50.0	-54.3	11.5	6.35e-03	0	42	0	6291456	72	5650
2026-01-24 11:42:31.21	207.53	4.87	-49.5	-53.0	13.1	9.30e-05	0	42	0	8388608	70	5431
2026-01-24 11:42:32.21	207.60	4.93	-48.8	-51.8	14.3	6.80e-06	0	42	0	10485760	69	5037
2026-01-24 11:42:33.22	207.68	4.99	-48.3	-50.9	15.2	7.00e-07	0	42	0	11534336	68	4788
2026-01-24 11:42:34.23	207.75	5.05	-48.3	-50.9	15.2	0.00e+00	0	42	0	13631488	68	4798
2026-01-24 11:42:35.24	207.83	5.12	-48.9	-52.0	14.2	7.00e-07	0	42	0	15728640	68	5411
2026-01-24 11:42:36.25	207.91	5.18	-49.9	-54.0	11.9	5.22e-03	0	42	0	17825792	71	5748
2026-01-24 11:42:37.25	207.98	5.24	-49.8	-53.9	12.3	0.00e+00	0	42	0	19922944	70	6003
2026-01-24 11:42:38.26	208.06	5.31	-51.4	-58.9	6.7	1.22e-01	0	42	0	20971520	74	8468
2026-01-24 11:42:39.27	208.14	5.37	-48.0	-50.5	15.5	0.00e+00	0	42	0	23068672	67	4835
2026-01-24 11:42:40.28	208.22	5.43	-47.5	-49.7	16.4	0.00e+00	0	42	0	25165824	66	4677
2026-01-24 11:42:41.29	208.29	5.50	-47.5	-49.8	16.4	0.00e+00	0	42	0	27262976	66	4710
2026-01-24 11:42:42.30	208.37	5.56	-47.3	-49.5	16.6	0.00e+00	0	42	0	28311552	66	4563
2026-01-24 11:42:43.30	208.45	5.62	-47.3	-49.4	16.6	0.00e+00	0	42	0	30408704	66	4535
2026-01-24 11:42:44.31	208.53	5.69	-47.4	-49.5	16.6	0.00e+00	0	42	0	32505856	66	4598
2026-01-24 11:42:45.32	208.61	5.75	-47.0	-49.0	17.1	0.00e+00	0	42	0	34603008	66	4306
2026-01-24 11:42:46.33	208.69	5.82	-46.9	-48.8	17.3	0.00e+00	0	42	0	36700160	65	4483
2026-01-24 11:42:47.33	208.77	5.88	-47.0	-49.0	17.1	0.00e+00	0	42	0	38797312	65	4555
2026-01-24 11:42:48.34	208.85	5.95	-47.0	-49.0	17.1	0.00e+00	0	42	0	39845888	65	4598
2026-01-24 11:42:49.35	208.93	6.01	-47.1	-49.1	17.0	0.00e+00	0	42	0	41943040	65	4618
2026-01-24 11:42:50.36	209.01	6.07	-47.1	-49.1	17.0	0.00e+00	0	42	0	44040192	65	4617
2026-01-24 11:42:51.37	209.10	6.14	-46.8	-48.7	17.4	0.00e+00	0	42	0	46137344	65	4420
2026-01-24 11:42:52.38	209.18	6.20	-46.8	-48.7	17.5	0.00e+00	0	42	0	48234496	65	4416
2026-01-24 11:42:53.38	209.26	6.27	-46.6	-48.5	17.7	0.00e+00	0	42	0	49283072	64	4554
2026-01-24 11:42:54.39	209.34	6.33	-46.6	-48.5	17.7	0.00e+00	0	42	0	51380224	64	4551
2026-01-24 11:42:55.40	209.43	6.40	-46.7	-48.5	17.6	0.00e+00	0	42	0	53477376	64	4590
2026-01-24 11:42:56.41	209.51	6.46	-46.5	-48.2	17.9	0.00e+00	0	42	0	55574528	64	4439
2026-01-24 11:42:57.41	209.59	6.53	-46.8	-48.7	17.5	0.00e+00	0	42	0	57671680	64	4700
2026-01-24 11:42:58.42	209.68	6.60	-46.6	-48.4	17.8	0.00e+00	0	42	0	58720256	64	4522
2026-01-24 11:42:59.43	209.76	6.66	-46.6	-48.4	17.8	0.00e+00	0	42	0	60817408	64	4502
2026-01-24 11:43:00.43	209.85	6.73	-46.7	-48.5	17.7	0.00e+00	0	42	0	62914560	64	4575
2026-01-24 11:43:01.44	209.93	6.79	-46.6	-48.4	17.8	0.00e+00	0	42	0	65011712	64	4514
2026-01-24 11:43:02.45	210.02	6.86	-46.2	-47.9	18.3	0.00e+00	0	42	0	67108864	64	4272
2026-01-24 11:43:03.46	210.10	6.92	-46.2	-47.9	18.3	0.00e+00	0	43	0	68157440	64	4267
2026-01-24 11:43:04.47	210.19	6.99	-46.3	-48.0	18.2	0.00e+00	0	42	0	70254592	64	4323
2026-01-24 11:43:05.47	210.28	7.06	-46.3	-48.1	18.1	0.00e+00	0	43	0	72351744	64	4349
2026-01-24 11:43:06.48	210.36	7.12	-46.3	-48.0	18.2	0.00e+00	0	42	0	74448896	64	4298
2026-01-24 11:43:07.49	210.45	7.19	-46.1	-47.7	18.5	0.00e+00	0	42	0	76546048	64	4161
2026-01-24 11:43:08.50	210.54	7.26	-46.2	-47.8	18.5	0.00e+00	0	42	0	77594624	63	4481
2026-01-24 11:43:09.51	210.63	7.32	-46.1	-47.7	18.6	0.00e+00	0	42	0	79691776	63	4430
2026-01-24 11:43:10.51	210.71	7.39	-46.2	-47.9	18.5	0.00e+00	0	42	0	81788928	63	4504
2026-01-24 11:43:11.52	210.80	7.46	-46.2	-47.8	18.5	0.00e+00	0	42	0	83886080	63	4487
2026-01-24 11:43:12.53	210.89	7.52	-46.2	-47.8	18.6	0.00e+00	0	43	0	85983232	63	4488
2026-01-24 11:43:13.53	210.98	7.59	-46.1	-47.7	18.6	0.00e+00	0	43	0	87031808	63	4406
2026-01-24 11:43:14.54	211.07	7.66	-46.3	-48.0	18.4	0.00e+00	0	43	0	89128960	63	4554
2026-01-24 11:43:15.55	211.16	7.73	-45.8	-47.4	18.9	0.00e+00	0	43	0	91226112	63	4265
2026-01-24 11:43:16.56	211.25	7.79	-46.3	-48.0	18.5	0.00e+00	0	43	0	93323264	63	4559
2026-01-24 11:43:17.57	211.35	7.86	-46.2	-47.8	18.6	0.00e+00	0	43	0	95420416	63	4467
2026-01-24 11:43:18.57	211.44	7.93	-46.4	-48.1	18.2	0.00e+00	0	43	0	96468992	63	4649
2026-01-24 11:43:19.58	211.53	8.00	-46.3	-48.0	18.4	0.00e+00	0	43	0	98566144	63	4578
2026-01-24 11:43:20.59	211.62	8.07	-46.3	-47.9	18.5	0.00e+00	0	43	0	100663296	63	4540
2026-01-24 11:43:21.60	211.71	8.13	-46.3	-48.0	18.4	0.00e+00	0	42	0	102760448	63	4565
2026-01-24 11:43:22.61	211.81	8.20	-46.4	-48.2	18.2	0.00e+00	0	43	0	104857600	63	4661
2026-01-24 11:43:23.61	211.90	8.27	-46.5	-48.2	18.2	0.00e+00	0	43	0	105906176	63	4691
2026-01-24 11:43:24.62	212.00	8.34	-46.4	-48.1	18.3	0.00e+00	0	43	0	108003328	63	4628
2026-01-24 11:43:25.63	212.09	8.41	-46.3	-48.1	18.4	0.00e+00	0	43	0	110100480	63	4599
2026-01-24 11:43:26.63	212.19	8.48	-46.4	-48.1	18.3	0.00e+00	0	43	0	112197632	63	4636
2026-01-24 11:43:27.64	212.28	8.55	-45.9	-47.5	18.9	0.00e+00	0	43	0	114294784	63	4317
2026-01-24 11:43:28.65	212.38	8.61	-46.1	-47.7	18.7	0.00e+00	0	43	0	115343360	63	4440
2026-01-24 11:43:29.66	212.47	8.68	-46.2	-47.8	18.6	0.00e+00	0	43	0	117440512	63	4493
2026-01-24 11:43:30.67	212.57	8.75	-46.0	-47.6	18.9	0.00e+00	0	43	0	119537664	63	4363
2026-01-24 11:43:31.68	212.67	8.82	-45.9	-47.5	19.0	0.00e+00	0	43	0	121634816	63	4293
2026-01-24 11:43:32.69	212.77	8.89	-45.9	-47.4	19.0	0.00e+00	0	43	0	123731968	63	4284
2026-01-24 11:43:33.69	212.86	8.96	-45.9	-47.5	19.0	0.00e+00	0	43	0	124780544	63	4300
2026-01-24 11:43:34.70	212.96	9.03	-46.0	-47.5	18.9	0.00e+00	0	43	0	126877696	63	4339
2026-01-24 11:43:35.71	213.06	9.10	-45.9	-47.5	19.0	0.00e+00	0	43	0	128974848	63	4301
2026-01-24 11:43:36.72	213.16	9.17	-45.8	-47.3	19.2	0.00e+00	0	43	0	131072000	63	4205
2026-01-24 11:43:37.73	213.26	9.24	-45.9	-47.5	19.1	0.00e+00	0	43	0	133169152	63	4297
2026-01-24 11:43:38.73	213.36	9.31	-45.9	-47.5	19.0	0.00e+00	0	43	0	135266304	63	4301
2026-01-24 11:43:39.74	213.46	9.38	-46.1	-47.6	18.9	0.00e+00	0	43	0	136314880	63	4383
2026-01-24 11:43:40.75	213.56	9.45	-46.1	-47.7	18.8	0.00e+00	0	43	0	138412032	63	4428
2026-01-24 11:43:41.76	213.67	9.52	-45.9	-47.4	19.0	0.00e+00	0	43	0	140509184	63	4279
2026-01-24 11:43:42.77	213.77	9.60	-46.0	-47.5	19.0	0.00e+00	0	43	0	142606336	63	4307
2026-01-24 11:43:43.77	213.87	9.67	-46.0	-47.6	19.0	0.00e+00	0	43	0	143654912	63	4373
2026-01-24 11:43:44.78	213.97	9.74	-46.0	-47.5	19.0	0.00e+00	0	43	0	145752064	63	4335
2026-01-24 11:43:45.79	214.08	9.81	-45.9	-47.4	19.1	0.00e+00	0	43	0	147849216	63	4280
2026-01-24 11:43:46.79	214.18	9.88	-46.1	-47.7	18.9	0.00e+00	0	43	0	149946368	63	4398
2026-01-24 11:43:47.80	214.29	9.95	-46.0	-47.5	19.0	0.00e+00	0	43	0	152043520	63	4338
2026-01-24 11:43:48.81	214.39	10.02	-46.1	-47.7	18.9	0.00e+00	0	43	0	154140672	63	4399
2026-01-24 11:43:49.82	214.50	10.09	-46.3	-48.0	18.6	0.00e+00	0	43	0	155189248	63	4558
2026-01-24 11:43:50.83	214.60	10.17	-46.0	-47.5	19.0	0.00e+00	0	43	0	157286400	63	4319
2026-01-24 11:43:51.84	214.71	10.24	-46.0	-47.5	19.1	0.00e+00	0	43	0	159383552	63	4316
2026-01-24 11:43:52.85	214.82	10.31	-46.0	-47.5	19.0	0.00e+00	0	43	0	161480704	63	4316
2026-01-24 11:43:53.85	214.92	10.38	-45.9	-47.5	19.2	0.00e+00	0	43	0	163577856	63	4293
2026-01-24 11:43:54.86	215.03	10.46	-45.9	-47.4	19.2	0.00e+00	0	43	0	164626432	63	4255
2026-01-24 11:43:55.87	215.14	10.53	-45.7	-47.1	19.4	0.00e+00	0	43	0	166723584	63	4124
2026-01-24 11:43:56.88	215.25	10.60	-45.7	-47.1	19.5	0.00e+00	0	43	0	168820736	63	4137
2026-01-24 11:43:57.89	215.36	10.67	-45.5	-47.0	19.6	0.00e+00	0	43	0	170917888	63	4055
2026-01-24 11:43:58.89	215.47	10.75	-45.5	-47.0	19.6	0.00e+00	0	43	0	171966464	63	4055
2026-01-24 11:43:59.90	215.58	10.82	-45.5	-46.8	19.7	0.00e+00	0	43	0	174063616	62	4236
2026-01-24 11:44:00.91	215.69	10.89	-45.4	-46.7	19.8	0.00e+00	0	43	0	176160768	62	4193
2026-01-24 11:44:01.92	215.81	10.97	-45.5	-46.8	19.7	0.00e+00	0	43	0	178257920	62	4240
2026-01-24 11:44:02.93	215.92	11.04	-45.5	-46.9	19.6	0.00e+00	0	43	0	180355072	62	4274
2026-01-24 11:44:03.94	216.03	11.11	-45.7	-47.1	19.4	0.00e+00	0	43	0	182452224	62	4387
2026-01-24 11:44:04.95	216.15	11.19	-45.6	-47.0	19.6	0.00e+00	0	43	0	183500800	62	4318
2026-01-24 11:44:05.95	216.26	11.26	-45.6	-47.0	19.5	0.00e+00	0	43	0	185597952	62	4335
2026-01-24 11:44:06.96	216.37	11.33	-45.7	-47.2	19.4	0.00e+00	0	43	0	187695104	62	4401
2026-01-24 11:44:07.97	216.49	11.41	-45.7	-47.2	19.5	0.00e+00	0	43	0	189792256	62	4394
2026-01-24 11:44:08.98	216.60	11.48	-45.9	-47.4	19.3	0.00e+00	0	43	0	191889408	62	4513
2026-01-24 11:44:09.99	216.72	11.56	-45.9	-47.4	19.3	0.00e+00	0	43	0	192937984	62	4505
2026-01-24 11:44:11.00	216.84	11.63	-46.0	-47.5	19.2	0.00e+00	0	43	0	195035136	62	4570
2026-01-24 11:44:12.01	216.96	11.70	-46.1	-47.7	19.0	0.00e+00	0	43	0	197132288	62	4664
2026-01-24 11:44:13.01	217.07	11.78	-46.0	-47.6	19.1	0.00e+00	0	43	0	199229440	62	4609
2026-01-24 11:44:14.02	217.19	11.85	-46.4	-48.0	18.7	0.00e+00	0	43	0	201326592	63	4581
2026-01-24 11:44:15.03	217.31	11.93	-46.1	-47.7	19.0	0.00e+00	0	43	0	202375168	63	4397
2026-01-24 11:44:16.04	217.43	12.00	-46.1	-47.7	19.0	0.00e+00	0	43	0	204472320	63	4393
2026-01-24 11:44:17.05	217.55	12.08	-46.1	-47.7	19.0	0.00e+00	0	43	0	206569472	63	4404
2026-01-24 11:44:18.06	217.67	12.15	-46.2	-47.7	19.0	0.00e+00	0	43	0	208666624	63	4420
2026-01-24 11:44:19.07	217.80	12.23	-45.9	-47.3	19.4	0.00e+00	0	43	0	210763776	63	4229
2026-01-24 11:44:20.08	217.92	12.31	-46.0	-47.6	19.1	0.00e+00	0	43	0	211812352	63	4346
2026-01-24 11:44:21.08	218.04	12.38	-46.0	-47.5	19.1	0.00e+00	0	43	0	213909504	63	4336
2026-01-24 11:44:22.10	218.16	12.46	-46.0	-47.5	19.2	0.00e+00	0	43	0	216006656	63	4333
2026-01-24 11:44:23.10	218.29	12.53	-46.0	-47.5	19.1	0.00e+00	0	43	0	218103808	63	4340
2026-01-24 11:44:24.10	218.41	12.61	-46.1	-47.6	19.1	0.00e+00	0	43	0	220200960	63	4384
2026-01-24 11:44:25.11	218.54	12.68	-46.0	-47.5	19.2	0.00e+00	0	43	0	221249536	63	4326
2026-01-24 11:44:26.12	218.66	12.76	-45.9	-47.3	19.4	0.00e+00	0	43	0	223346688	63	4226
2026-01-24 11:44:27.13	218.79	12.84	-46.0	-47.6	19.1	0.00e+00	0	43	0	225443840	63	4341
2026-01-24 11:44:28.14	218.92	12.91	-45.9	-47.4	19.3	0.00e+00	0	43	0	227540992	63	4250
2026-01-24 11:44:29.15	219.04	12.99	-46.0	-47.4	19.2	0.00e+00	0	43	0	229638144	63	4291
2026-01-24 11:44:30.15	219.17	13.06	-45.9	-47.4	19.3	0.00e+00	0	43	0	230686720	63	4271
2026-01-24 11:44:31.16	219.30	13.14	-45.9	-47.4	19.3	0.00e+00	0	43	0	232783872	63	4254
2026-01-24 11:44:32.17	219.43	13.22	-45.8	-47.3	19.4	0.00e+00	0	43	0	234881024	63	4207
2026-01-24 11:44:33.18	219.56	13.30	-45.9	-47.4	19.3	0.00e+00	0	43	0	236978176	63	4256
2026-01-24 11:44:34.18	219.69	13.37	-45.7	-47.2	19.5	0.00e+00	0	43	0	239075328	63	4162
2026-01-24 11:44:35.20	219.82	13.45	-45.7	-47.1	19.5	0.00e+00	0	43	0	240123904	63	4134
2026-01-24 11:44:36.20	219.96	13.53	-45.7	-47.1	19.5	0.00e+00	0	43	0	242221056	63	4145
2026-01-24 11:44:37.21	220.09	13.60	-45.8	-47.2	19.5	0.00e+00	0	43	0	244318208	63	4190
2026-01-24 11:44:38.22	220.22	13.68	-45.6	-47.0	19.6	0.00e+00	0	43	0	246415360	63	4083
2026-01-24 11:44:39.23	220.36	13.76	-45.6	-47.0	19.7	0.00e+00	0	43	0	248512512	63	4055
2026-01-24 11:44:40.23	220.49	13.84	-45.4	-46.8	19.9	0.00e+00	0	43	0	249561088	62	4213
2026-01-24 11:44:41.24	220.63	13.91	-45.5	-46.9	19.8	0.00e+00	0	43	0	251658240	62	4262
2026-01-24 11:44:42.25	220.76	13.99	-45.5	-46.8	19.8	0.00e+00	0	43	0	253755392	62	4235
2026-01-24 11:44:43.25	220.90	14.07	-45.4	-46.8	19.9	0.00e+00	0	43	0	255852544	62	4213
2026-01-24 11:44:44.26	221.04	14.15	-45.4	-46.8	19.9	0.00e+00	0	43	0	257949696	62	4214
2026-01-24 11:44:45.27	221.18	14.23	-45.6	-47.0	19.7	0.00e+00	0	43	0	258998272	62	4317
2026-01-24 11:44:46.28	221.32	14.30	-45.6	-47.0	19.7	0.00e+00	0	43	0	261095424	62	4298
2026-01-24 11:44:47.28	221.45	14.38	-45.7	-47.1	19.6	0.00e+00	0	43	0	263192576	62	4380
2026-01-24 11:44:48.29	221.59	14.46	-45.8	-47.3	19.5	0.00e+00	0	43	0	265289728	62	4450
2026-01-24 11:44:49.30	221.74	14.54	-45.7	-47.1	19.7	0.00e+00	0	43	0	267386880	62	4353
2026-01-24 11:44:50.31	221.88	14.62	-45.9	-47.4	19.4	0.00e+00	0	43	0	269484032	62	4503
2026-01-24 11:44:51.32	222.02	14.70	-46.0	-47.5	19.3	0.00e+00	0	43	0	270532608	62	4574
2026-01-24 11:44:52.33	222.17	14.78	-46.2	-47.7	19.1	0.00e+00	0	43	0	272629760	62	4674
2026-01-24 11:44:53.34	222.31	14.85	-46.1	-47.6	19.2	0.00e+00	0	43	0	274726912	62	4604
2026-01-24 11:44:54.35	222.45	14.93	-46.2	-47.7	19.1	0.00e+00	0	43	0	276824064	62	4666
2026-01-24 11:44:55.36	222.60	15.01	-46.2	-47.8	19.0	0.00e+00	0	43	0	277872640	63	4446
2026-01-24 11:44:56.37	222.75	15.09	-46.0	-47.5	19.3	0.00e+00	0	43	0	279969792	63	4318
2026-01-24 11:44:57.37	222.89	15.17	-46.1	-47.6	19.2	0.00e+00	0	43	0	282066944	63	4372
2026-01-24 11:44:58.38	223.04	15.25	-46.1	-47.6	19.2	0.00e+00	0	43	0	284164096	63	4358
2026-01-24 11:44:59.39	223.19	15.33	-46.0	-47.4	19.3	0.00e+00	0	43	0	286261248	63	4277
2026-01-24 11:45:00.40	223.34	15.41	-45.9	-47.4	19.4	0.00e+00	0	43	0	287309824	63	4278
2026-01-24 11:45:01.41	223.49	15.49	-45.8	-47.3	19.5	0.00e+00	0	43	0	289406976	63	4200
2026-01-24 11:45:02.41	223.64	15.57	-45.9	-47.3	19.5	0.00e+00	0	43	0	291504128	63	4213
2026-01-24 11:45:03.42	223.79	15.65	-45.7	-47.2	19.7	0.00e+00	0	43	0	293601280	63	4151
2026-01-24 11:45:04.43	223.95	15.73	-45.6	-47.0	19.8	0.00e+00	0	43	0	295698432	63	4090
2026-01-24 11:45:05.44	224.10	15.81	-45.5	-46.9	19.9	0.00e+00	0	43	0	297795584	62	4245
2026-01-24 11:45:06.45	224.25	15.89	-45.3	-46.7	20.1	0.00e+00	0	43	0	298844160	62	4150
2026-01-24 11:45:07.45	224.41	15.97	-45.4	-46.7	20.1	0.00e+00	0	43	0	300941312	62	4173
2026-01-24 11:45:08.46	224.56	16.05	-45.2	-46.5	20.2	0.00e+00	0	43	0	303038464	62	4095
2026-01-24 11:45:09.47	224.72	16.13	-45.3	-46.7	20.1	0.00e+00	0	43	0	305135616	62	4153
2026-01-24 11:45:10.48	224.88	16.21	-45.1	-46.4	20.4	0.00e+00	0	43	0	306184192	62	4005
2026-01-24 11:45:11.49	225.04	16.29	-45.2	-46.5	20.3	0.00e+00	0	43	0	308281344	62	4068
2026-01-24 11:45:12.50	225.20	16.37	-45.0	-46.3	20.5	0.00e+00	0	43	0	310378496	61	4202
2026-01-24 11:45:13.50	225.35	16.45	-44.9	-46.1	20.6	0.00e+00	0	43	0	312475648	61	4138
2026-01-24 11:45:14.51	225.51	16.53	-44.8	-46.0	20.7	0.00e+00	0	43	0	314572800	61	4078
2026-01-24 11:45:15.51	225.68	16.61	-44.6	-45.8	20.9	0.00e+00	0	43	0	316669952	61	3988
2026-01-24 11:45:16.52	225.84	16.69	-44.6	-45.8	20.8	0.00e+00	0	43	0	317718528	61	4003
2026-01-24 11:45:17.53	226.00	16.77	-44.5	-45.7	21.0	0.00e+00	0	43	0	319815680	61	3934
2026-01-24 11:45:18.54	226.17	16.85	-44.5	-45.7	21.0	0.00e+00	0	43	0	321912832	61	3949
2026-01-24 11:45:19.55	226.33	16.93	-44.7	-45.9	20.8	0.00e+00	0	43	0	324009984	61	4051
2026-01-24 11:45:20.56	226.50	17.01	-44.8	-46.0	20.7	0.00e+00	0	43	0	326107136	60	4324
2026-01-24 11:45:21.57	226.66	17.09	-44.8	-46.1	20.7	0.00e+00	0	43	0	327155712	60	4365
2026-01-24 11:45:22.57	226.83	17.18	-44.9	-46.1	20.6	0.00e+00	0	43	0	329252864	60	4381
2026-01-24 11:45:23.58	227.00	17.26	-45.0	-46.3	20.5	0.00e+00	0	43	0	331350016	60	4459
2026-01-24 11:45:24.59	227.17	17.34	-44.9	-46.1	20.7	0.00e+00	0	43	0	333447168	60	4388
2026-01-24 11:45:25.60	227.34	17.42	-45.0	-46.3	20.4	0.00e+00	0	43	0	334495744	60	4477
2026-01-24 11:45:26.61	227.51	17.50	-45.0	-46.3	20.5	0.00e+00	0	43	0	336592896	61	4232
2026-01-24 11:45:27.61	227.68	17.58	-45.0	-46.3	20.6	0.00e+00	0	43	0	338690048	61	4194
2026-01-24 11:45:28.62	227.85	17.66	-45.0	-46.3	20.5	0.00e+00	0	43	0	340787200	61	4204
2026-01-24 11:45:29.63	228.03	17.74	-45.0	-46.3	20.5	0.00e+00	0	43	0	342884352	61	4217
2026-01-24 11:45:30.64	228.20	17.82	-45.0	-46.2	20.5	0.00e+00	0	43	0	344981504	61	4189
2026-01-24 11:45:31.65	228.38	17.90	-44.9	-46.1	20.7	0.00e+00	0	43	0	346030080	61	4144
2026-01-24 11:45:32.65	228.55	17.98	-44.7	-45.9	20.8	0.00e+00	0	43	0	348127232	61	4044
2026-01-24 11:45:33.66	228.73	18.07	-44.5	-45.7	21.0	0.00e+00	0	43	0	350224384	61	3948
2026-01-24 11:45:34.67	228.91	18.15	-44.5	-45.7	21.0	0.00e+00	0	43	0	352321536	61	3926
2026-01-24 11:45:35.68	229.09	18.23	-44.5	-45.7	21.0	0.00e+00	0	43	0	354418688	60	4153
2026-01-24 11:45:36.69	229.27	18.31	-44.6	-45.8	20.9	0.00e+00	0	43	0	355467264	60	4232
2026-01-24 11:45:37.70	229.45	18.39	-44.5	-45.7	21.0	0.00e+00	0	43	0	357564416	60	4185
2026-01-24 11:45:38.71	229.63	18.47	-44.4	-45.5	21.2	0.00e+00	0	43	0	359661568	60	4094
2026-01-24 11:45:39.71	229.81	18.55	-44.2	-45.3	21.4	0.00e+00	0	43	0	361758720	60	3982
2026-01-24 11:45:40.72	230.00	18.63	-44.3	-45.4	21.3	0.00e+00	0	43	0	363855872	60	4045
2026-01-24 11:45:41.73	230.18	18.71	-44.1	-45.2	21.5	0.00e+00	0	43	0	364904448	60	3939
2026-01-24 11:45:42.73	230.37	18.79	-44.6	-45.7	21.3	0.00e+00	0	43	0	367001600	59	4435
2026-01-24 11:45:43.74	230.55	18.88	-44.6	-45.8	21.3	0.00e+00	0	43	0	369098752	59	4453
2026-01-24 11:45:44.75	230.74	18.96	-44.6	-45.8	21.2	0.00e+00	0	43	0	371195904	59	4473
2026-01-24 11:45:45.76	230.93	19.04	-44.4	-45.5	21.2	0.00e+00	0	43	0	373293056	60	4080
2026-01-24 11:45:46.77	231.12	19.12	-44.5	-45.6	21.1	0.00e+00	0	43	0	374341632	60	4140
2026-01-24 11:45:47.77	231.31	19.20	-44.5	-45.7	21.0	0.00e+00	0	43	0	376438784	60	4170
2026-01-24 11:45:48.78	231.50	19.28	-44.5	-45.6	21.1	0.00e+00	0	43	0	378535936	60	4135
2026-01-24 11:45:49.79	231.69	19.36	-44.7	-45.9	20.9	0.00e+00	0	43	0	380633088	60	4264
2026-01-24 11:45:50.80	231.89	19.44	-44.5	-45.7	21.1	0.00e+00	0	43	0	382730240	60	4165
2026-01-24 11:45:51.81	232.08	19.52	-44.4	-45.6	21.1	0.00e+00	0	43	0	384827392	60	4125
2026-01-24 11:45:52.82	232.28	19.60	-44.5	-45.6	21.1	0.00e+00	0	43	0	385875968	60	4137
2026-01-24 11:45:53.83	232.48	19.68	-44.3	-45.4	21.3	0.00e+00	0	43	0	387973120	60	4026
2026-01-24 11:45:54.83	232.67	19.76	-44.4	-45.6	21.2	0.00e+00	0	43	0	390070272	60	4124
2026-01-24 11:45:55.84	232.87	19.84	-44.6	-45.8	21.1	0.00e+00	0	43	0	392167424	60	4198
2026-01-24 11:45:56.85	233.07	19.92	-44.6	-45.8	21.0	0.00e+00	0	43	0	393216000	60	4227
2026-01-24 11:45:57.86	233.27	20.00	-44.6	-45.8	21.0	0.00e+00	0	43	0	395313152	60	4228
2026-01-24 11:45:58.87	233.47	20.08	-44.8	-46.0	20.8	0.00e+00	0	43	0	397410304	60	4310
2026-01-24 11:45:59.88	233.68	20.16	-44.5	-45.7	21.1	0.00e+00	0	43	0	399507456	60	4159
2026-01-24 11:46:00.89	233.88	20.24	-44.5	-45.7	21.1	0.00e+00	0	43	0	401604608	60	4146
2026-01-24 11:46:01.89	234.08	20.32	-44.5	-45.7	21.1	0.00e+00	0	43	0	402653184	60	4176
2026-01-24 11:46:02.90	234.29	20.40	-44.3	-45.4	21.3	0.00e+00	0	43	0	404750336	60	4041
2026-01-24 11:46:03.91	234.50	20.48	-44.6	-45.8	21.1	0.00e+00	0	43	0	406847488	60	4201
2026-01-24 11:46:04.92	234.71	20.56	-44.6	-45.8	21.0	0.00e+00	0	43	0	408944640	60	4214
2026-01-24 11:46:05.93	234.91	20.64	-44.6	-45.8	21.0	0.00e+00	0	43	0	411041792	60	4215
2026-01-24 11:46:06.93	235.12	20.72	-44.6	-45.8	21.1	0.00e+00	0	43	0	413138944	60	4211
2026-01-24 11:46:07.94	235.33	20.80	-44.5	-45.7	21.1	0.00e+00	0	43	0	414187520	60	4168
2026-01-24 11:46:08.94	235.54	20.88	-44.3	-45.5	21.3	0.00e+00	0	43	0	416284672	60	4064
2026-01-24 11:46:09.95	235.76	20.96	-44.3	-45.5	21.3	0.00e+00	0	43	0	418381824	60	4070
2026-01-24 11:46:10.96	235.97	21.04	-44.2	-45.3	21.4	0.00e+00	0	43	0	420478976	60	3987
2026-01-24 11:46:11.97	236.19	21.11	-44.4	-45.6	21.5	0.00e+00	0	43	0	421527552	59	4350
2026-01-24 11:46:12.98	236.40	21.19	-44.5	-45.7	21.5	0.00e+00	0	43	0	423624704	59	4405
2026-01-24 11:46:13.99	236.62	21.27	-44.6	-45.8	21.3	0.00e+00	0	43	0	425721856	59	4472
2026-01-24 11:46:15.00	236.84	21.35	-44.4	-45.6	21.3	0.00e+00	0	43	0	427819008	60	4101
2026-01-24 11:46:16.01	237.06	21.43	-44.1	-45.2	21.5	0.00e+00	0	43	0	429916160	60	3948
2026-01-24 11:46:17.02	237.28	21.50	-44.0	-45.1	21.7	0.00e+00	0	43	0	432013312	60	3886
2026-01-24 11:46:18.03	237.50	21.58	-44.4	-45.5	21.6	0.00e+00	0	43	0	433061888	59	4306
2026-01-24 11:46:19.03	237.72	21.66	-44.5	-45.6	21.5	0.00e+00	0	43	0	435159040	59	4387
2026-01-24 11:46:20.04	237.95	21.74	-44.3	-45.5	21.6	0.00e+00	0	43	0	437256192	59	4300
2026-01-24 11:46:21.05	238.17	21.81	-44.4	-45.5	21.6	0.00e+00	0	43	0	439353344	59	4318
2026-01-24 11:46:22.05	238.40	21.89	-44.3	-45.4	21.6	0.00e+00	0	43	0	441450496	59	4287
2026-01-24 11:46:23.06	238.63	21.97	-44.6	-45.7	21.4	0.00e+00	0	43	0	442499072	59	4426
2026-01-24 11:46:24.07	238.85	22.04	-44.5	-45.6	21.5	0.00e+00	0	43	0	444596224	59	4369
2026-01-24 11:46:25.08	239.08	22.12	-44.3	-45.4	21.6	0.00e+00	0	43	0	446693376	59	4287
2026-01-24 11:46:26.09	239.31	22.19	-44.2	-45.3	21.8	0.00e+00	0	43	0	448790528	59	4212
2026-01-24 11:46:27.09	239.54	22.27	-44.4	-45.6	21.5	0.00e+00	0	43	0	449839104	59	4347
2026-01-24 11:46:28.10	239.78	22.34	-44.4	-45.5	21.6	0.00e+00	0	43	0	451936256	59	4309
2026-01-24 11:46:29.11	240.01	22.42	-44.4	-45.6	21.6	0.00e+00	0	43	0	454033408	59	4348
2026-01-24 11:46:30.12	240.25	22.49	-44.4	-45.5	21.5	0.00e+00	0	43	0	456130560	59	4340
2026-01-24 11:46:31.12	240.48	22.57	-44.3	-45.4	21.8	0.00e+00	0	43	0	458227712	59	4265
2026-01-24 11:46:32.13	240.72	22.64	-44.4	-45.5	21.6	0.00e+00	0	43	0	460324864	59	4306
2026-01-24 11:46:33.14	240.96	22.72	-44.2	-45.3	21.7	0.00e+00	0	43	0	461373440	59	4237
2026-01-24 11:46:34.15	241.19	22.79	-44.1	-45.2	21.9	0.00e+00	0	43	0	463470592	59	4152
2026-01-24 11:46:35.16	241.44	22.86	-44.1	-45.2	21.9	0.00e+00	0	43	0	465567744	59	4161
2026-01-24 11:46:36.16	241.67	22.93	-44.2	-45.3	21.8	0.00e+00	0	43	0	467664896	59	4227
2026-01-24 11:46:37.17	241.92	23.01	-44.3	-45.4	21.7	0.00e+00	0	43	0	469762048	59	4278
2026-01-24 11:46:38.18	242.16	23.08	-44.6	-45.8	21.4	0.00e+00	0	43	0	470810624	59	4447
2026-01-24 11:46:39.19	242.41	23.15	-44.3	-45.5	21.4	0.00e+00	0	43	0	472907776	60	4064
2026-01-24 11:46:40.19	242.65	23.22	-44.6	-45.8	21.1	0.00e+00	0	43	0	475004928	60	4194
2026-01-24 11:46:41.20	242.90	23.29	-44.6	-45.8	21.1	0.00e+00	0	43	0	477102080	60	4203
2026-01-24 11:46:42.21	243.15	23.37	-44.6	-45.7	21.1	0.00e+00	0	43	0	479199232	60	4189
2026-01-24 11:46:43.22	243.39	23.44	-44.5	-45.6	21.2	0.00e+00	0	43	0	480247808	60	4134
2026-01-24 11:46:44.23	243.65	23.51	-44.3	-45.5	21.3	0.00e+00	0	43	0	482344960	60	4062
2026-01-24 11:46:45.23	243.89	23.58	-44.3	-45.4	21.4	0.00e+00	0	43	0	484442112	60	4039
2026-01-24 11:46:46.24	244.15	23.65	-44.3	-45.4	21.4	0.00e+00	0	43	0	486539264	60	4040
2026-01-24 11:46:47.25	244.40	23.72	-44.3	-45.4	21.4	0.00e+00	0	43	0	488636416	60	4034
2026-01-24 11:46:48.26	244.66	23.78	-44.2	-45.3	21.5	0.00e+00	0	43	0	489684992	60	3974
2026-01-24 11:46:49.27	244.91	23.85	-44.1	-45.2	21.6	0.00e+00	0	43	0	491782144	60	3942
2026-01-24 11:46:50.28	245.17	23.92	-44.3	-45.4	21.7	0.00e+00	0	43	0	493879296	59	4273
2026-01-24 11:46:51.28	245.42	23.99	-44.7	-45.8	21.4	0.00e+00	0	43	0	495976448	59	4479
2026-01-24 11:46:52.29	245.68	24.05	-44.5	-45.7	21.2	0.00e+00	0	43	0	498073600	60	4168
2026-01-24 11:46:53.30	245.94	24.12	-44.8	-46.0	20.9	0.00e+00	0	43	0	499122176	60	4331
2026-01-24 11:46:54.31	246.20	24.19	-45.1	-46.4	20.5	0.00e+00	0	43	0	501219328	60	4513
2026-01-24 11:46:55.31	246.46	24.25	-44.8	-46.1	20.9	0.00e+00	0	43	0	503316480	60	4355
2026-01-24 11:46:56.32	246.73	24.32	-44.3	-45.5	21.4	0.00e+00	0	43	0	505413632	60	4063
2026-01-24 11:46:57.33	246.99	24.38	-44.2	-45.3	21.5	0.00e+00	0	43	0	507510784	60	3992
2026-01-24 11:46:58.34	247.26	24.45	-44.3	-45.4	21.7	0.00e+00	0	43	0	508559360	59	4259
2026-01-24 11:46:59.35	247.52	24.51	-44.6	-45.8	21.4	0.00e+00	0	43	0	510656512	59	4445
2026-01-24 11:47:00.35	247.79	24.58	-44.7	-45.9	20.9	0.00e+00	0	43	0	512753664	60	4244
2026-01-24 11:47:01.36	248.06	24.64	-45.1	-46.4	20.5	0.00e+00	0	43	0	514850816	60	4532
2026-01-24 11:47:02.37	248.33	24.70	-45.8	-47.1	19.9	0.00e+00	0	43	0	516947968	62	4390
2026-01-24 11:47:03.38	248.60	24.76	-45.7	-47.1	19.9	0.00e+00	0	43	0	517996544	62	4365
2026-01-24 11:47:04.38	248.87	24.82	-45.9	-47.3	19.7	0.00e+00	0	43	0	520093696	62	4489
2026-01-24 11:47:05.39	249.14	24.89	-46.0	-47.4	19.6	0.00e+00	0	43	0	522190848	62	4535
2026-01-24 11:47:06.40	249.41	24.95	-45.9	-47.3	19.8	0.00e+00	0	43	0	524288000	62	4455
2026-01-24 11:47:07.41	249.69	25.01	-46.1	-47.6	19.5	0.00e+00	0	43	0	526385152	62	4608
2026-01-24 11:47:08.41	249.96	25.06	-46.1	-47.6	19.6	0.00e+00	0	43	0	527433728	62	4599
2026-01-24 11:47:09.42	250.24	25.12	-45.8	-47.2	19.9	0.00e+00	0	43	0	529530880	62	4408
2026-01-24 11:47:10.43	250.52	25.18	-45.6	-47.0	20.1	0.00e+00	0	43	0	531628032	62	4315
2026-01-24 11:47:11.44	250.80	25.24	-45.4	-46.7	20.3	0.00e+00	0	43	0	533725184	62	4166
2026-01-24 11:47:12.45	251.08	25.30	-45.6	-47.0	20.0	0.00e+00	0	43	0	535822336	62	4301
2026-01-24 11:47:13.45	251.35	25.35	-45.7	-47.0	20.0	0.00e+00	0	43	0	536870912	62	4316
2026-01-24 11:47:14.46	251.64	25.41	-46.0	-47.5	19.6	0.00e+00	0	43	0	538968064	62	4550
2026-01-24 11:47:15.47	251.92	25.46	-46.2	-47.7	19.4	0.00e+00	0	43	0	541065216	63	4413
2026-01-24 11:47:16.48	252.20	25.52	-46.7	-48.3	18.9	0.00e+00	0	43	0	543162368	63	4706
2026-01-24 11:47:17.48	252.49	25.57	-47.0	-48.7	18.4	0.00e+00	0	43	0	545259520	64	4677
2026-01-24 11:47:18.49	252.77	25.63	-47.2	-48.9	18.2	0.00e+00	0	43	0	546308096	64	4793
2026-01-24 11:47:19.50	253.06	25.68	-47.2	-48.9	18.2	0.00e+00	0	43	0	548405248	65	4519
2026-01-24 11:47:20.51	253.35	25.73	-47.1	-48.8	18.3	0.00e+00	0	43	0	550502400	65	4468
2026-01-24 11:47:21.51	253.63	25.78	-46.7	-48.3	18.7	0.00e+00	0	43	0	552599552	65	4223
2026-01-24 11:47:22.52	253.92	25.83	-46.7	-48.2	18.8	0.00e+00	0	43	0	554696704	65	4191
2026-01-24 11:47:23.53	254.21	25.88	-46.6	-48.2	18.8	0.00e+00	0	43	0	555745280	65	4192
2026-01-24 11:47:24.54	254.50	25.93	-46.7	-48.4	18.7	0.00e+00	0	43	0	557842432	65	4245
2026-01-24 11:47:25.55	254.79	25.98	-47.4	-49.2	18.0	0.00e+00	0	43	0	559939584	65	4684
2026-01-24 11:47:26.55	255.08	26.03	-47.7	-49.6	17.5	0.00e+00	0	43	0	562036736	66	4632
2026-01-24 11:47:27.56	255.38	26.08	-47.7	-49.7	17.5	0.00e+00	0	43	0	564133888	66	4668
2026-01-24 11:47:28.57	255.67	26.12	-47.6	-49.4	17.7	0.00e+00	0	43	0	565182464	66	4527
2026-01-24 11:47:29.58	255.97	26.17	-47.1	-48.8	18.2	0.00e+00	0	43	0	567279616	66	4228
2026-01-24 11:47:30.59	256.26	26.21	-46.6	-48.1	19.0	0.00e+00	0	43	0	569376768	65	4125
2026-01-24 11:47:31.59	256.56	26.26	-46.3	-47.7	19.3	0.00e+00	0	43	0	571473920	64	4193
2026-01-24 11:47:32.60	256.86	26.30	-46.3	-47.8	19.2	0.00e+00	0	43	0	573571072	64	4242
2026-01-24 11:47:33.61	257.15	26.35	-46.7	-48.4	18.7	0.00e+00	0	43	0	575668224	64	4513
2026-01-24 11:47:34.62	257.45	26.39	-47.0	-48.7	18.4	0.00e+00	0	43	0	576716800	64	4701
2026-01-24 11:47:35.62	257.75	26.43	-46.9	-48.6	18.5	0.00e+00	0	43	0	578813952	64	4628
2026-01-24 11:47:36.63	258.05	26.47	-46.6	-48.2	18.9	0.00e+00	0	43	0	580911104	64	4394
2026-01-24 11:47:37.64	258.35	26.51	-46.6	-48.2	18.9	0.00e+00	0	43	0	583008256	64	4401
2026-01-24 11:47:38.65	258.66	26.55	-46.9	-48.5	18.6	0.00e+00	0	43	0	584056832	64	4565
2026-01-24 11:47:39.66	258.96	26.59	-47.6	-49.4	17.8	0.00e+00	0	43	0	586153984	65	4800
2026-01-24 11:47:40.67	259.26	26.63	-47.9	-49.8	17.3	0.00e+00	0	43	0	588251136	66	4754
2026-01-24 11:47:41.67	259.57	26.66	-48.1	-50.2	17.0	0.00e+00	0	43	0	590348288	66	4940
2026-01-24 11:47:42.68	259.87	26.70	-47.6	-49.5	17.7	0.00e+00	0	43	0	592445440	66	4550
2026-01-24 11:47:43.69	260.18	26.73	-47.3	-49.0	18.1	0.00e+00	0	43	0	593494016	66	4302
2026-01-24 11:47:44.70	260.48	26.77	-47.4	-49.2	18.0	0.00e+00	0	43	0	595591168	66	4416
2026-01-24 11:47:45.70	260.79	26.80	-47.9	-49.9	17.4	0.00e+00	0	43	0	597688320	66	4763
2026-01-24 11:47:46.71	261.10	26.84	-48.6	-50.8	16.4	0.00e+00	0	43	0	599785472	67	5019
2026-01-24 11:47:47.72	261.40	26.87	-48.6	-50.9	16.4	0.00e+00	0	43	0	601882624	67	5049
2026-01-24 11:47:48.73	261.71	26.90	-48.3	-50.4	16.8	0.00e+00	0	43	0	603979776	67	4797
2026-01-24 11:47:49.74	262.02	26.93	-48.0	-50.0	17.3	0.00e+00	0	43	0	605028352	67	4566
2026-01-24 11:47:50.75	262.33	26.96	-47.2	-48.9	18.2	0.00e+00	0	43	0	607125504	66	4288
2026-01-24 11:47:51.75	262.64	26.99	-46.8	-48.4	18.7	0.00e+00	0	43	0	609222656	65	4262
2026-01-24 11:47:52.76	262.95	27.01	-47.1	-48.8	18.4	0.00e+00	0	43	0	611319808	65	4447
2026-01-24 11:47:53.77	263.26	27.04	-46.9	-48.5	18.6	0.00e+00	0	43	0	612368384	65	4334
2026-01-24 11:47:54.78	263.58	27.07	-47.1	-48.8	18.3	0.00e+00	0	43	0	614465536	65	4489
2026-01-24 11:47:55.79	263.89	27.09	-47.1	-48.8	18.4	0.00e+00	0	43	0	616562688	65	4462
2026-01-24 11:47:56.79	264.20	27.12	-47.5	-49.3	17.9	0.00e+00	0	43	0	618659840	65	4726
2026-01-24 11:47:57.80	264.51	27.14	-48.1	-50.1	17.2	0.00e+00	0	43	0	620756992	66	4876
2026-01-24 11:47:58.81	264.83	27.16	-48.4	-50.6	16.7	0.00e+00	0	43	0	622854144	67	4901
2026-01-24 11:47:59.82	265.14	27.19	-48.4	-50.6	16.6	0.00e+00	0	43	0	623902720	67	4886
2026-01-24 11:48:00.82	265.45	27.21	-48.5	-50.8	16.5	0.00e+00	0	43	0	625999872	67	4991
2026-01-24 11:48:01.83	265.77	27.23	-48.3	-50.3	16.9	0.00e+00	0	43	0	628097024	67	4741
2026-01-24 11:48:02.84	266.09	27.24	-47.7	-49.5	17.7	0.00e+00	0	43	0	630194176	67	4311
2026-01-24 11:48:03.85	266.40	27.26	-47.6	-49.4	17.8	0.00e+00	0	43	0	632291328	67	4270
2026-01-24 11:48:04.86	266.72	27.28	-47.2	-48.9	18.4	0.00e+00	0	43	0	633339904	66	4258
2026-01-24 11:48:05.87	267.03	27.30	-47.4	-49.2	18.0	0.00e+00	0	43	0	635437056	66	4431
2026-01-24 11:48:06.87	267.35	27.31	-47.7	-49.5	17.7	0.00e+00	0	43	0	637534208	66	4583
2026-01-24 11:48:07.88	267.67	27.33	-47.7	-49.6	17.7	0.00e+00	0	43	0	639631360	66	4599
2026-01-24 11:48:08.89	267.98	27.34	-47.8	-49.8	17.5	0.00e+00	0	43	0	640679936	66	4708
2026-01-24 11:48:09.90	268.30	27.35	-47.9	-49.9	17.4	0.00e+00	0	43	0	642777088	66	4782
2026-01-24 11:48:10.91	268.62	27.36	-47.6	-49.5	17.8	0.00e+00	0	43	0	644874240	66	4554
2026-01-24 11:48:11.92	268.94	27.38	-47.4	-49.2	18.1	0.00e+00	0	43	0	646971392	66	4407
2026-01-24 11:48:12.92	269.25	27.39	-47.3	-49.0	18.3	0.00e+00	0	43	0	649068544	66	4306
2026-01-24 11:48:13.93	269.57	27.39	-47.1	-48.8	18.4	0.00e+00	0	43	0	651165696	65	4491
2026-01-24 11:48:14.94	269.89	27.40	-47.0	-48.7	18.5	0.00e+00	0	43	0	652214272	65	4405
2026-01-24 11:48:15.95	270.21	27.41	-46.9	-48.5	18.7	0.00e+00	0	43	0	654311424	65	4309
2026-01-24 11:48:16.96	270.53	27.42	-47.0	-48.6	18.6	0.00e+00	0	43	0	656408576	65	4368
2026-01-24 11:48:17.96	270.85	27.42	-46.7	-48.3	18.9	0.00e+00	0	43	0	658505728	65	4221
2026-01-24 11:48:18.97	271.16	27.42	-46.8	-48.4	18.8	0.00e+00	0	43	0	660602880	65	4277
2026-01-24 11:48:19.98	271.48	27.43	-46.8	-48.4	18.9	0.00e+00	0	43	0	661651456	65	4251
2026-01-24 11:48:20.99	271.80	27.43	-47.0	-48.6	18.6	0.00e+00	0	43	0	663748608	65	4388
2026-01-24 11:48:21.99	272.12	27.43	-47.2	-48.9	18.3	0.00e+00	0	43	0	665845760	65	4533
2026-01-24 11:48:23.00	272.44	27.43	-47.4	-49.2	18.1	0.00e+00	0	43	0	667942912	65	4685
2026-01-24 11:48:24.01	272.76	27.43	-47.7	-49.5	17.7	0.00e+00	0	43	0	670040064	66	4584
2026-01-24 11:48:25.02	273.08	27.43	-47.7	-49.5	17.8	0.00e+00	0	43	0	671088640	66	4564
2026-01-24 11:48:26.03	273.40	27.43	-47.8	-49.7	17.6	0.00e+00	0	43	0	673185792	66	4694
2026-01-24 11:48:27.04	273.72	27.43	-47.9	-49.9	17.4	0.00e+00	0	43	0	675282944	66	4772
2026-01-24 11:48:28.05	274.04	27.42	-48.3	-50.4	16.9	0.00e+00	0	43	0	677380096	67	4805
2026-01-24 11:48:29.05	274.35	27.42	-48.2	-50.3	17.1	0.00e+00	0	43	0	679477248	67	4714
2026-01-24 11:48:30.06	274.67	27.41	-48.3	-50.4	17.0	0.00e+00	0	43	0	680525824	67	4790
2026-01-24 11:48:31.07	274.99	27.40	-48.0	-50.0	17.4	0.00e+00	0	43	0	682622976	67	4549
2026-01-24 11:48:32.08	275.31	27.40	-47.2	-48.8	18.4	0.00e+00	0	43	0	684720128	66	4240
2026-01-24 11:48:33.09	275.63	27.39	-46.6	-48.2	19.1	0.00e+00	0	43	0	686817280	65	4150
2026-01-24 11:48:34.09	275.94	27.38	-46.4	-47.8	19.4	0.00e+00	0	43	0	688914432	64	4241
2026-01-24 11:48:35.10	276.26	27.37	-46.2	-47.7	19.6	0.00e+00	0	43	0	689963008	64	4150
2026-01-24 11:48:36.11	276.58	27.35	-46.0	-47.4	19.7	0.00e+00	0	43	0	692060160	64	4050
2026-01-24 11:48:37.12	276.90	27.34	-45.8	-47.2	20.1	0.00e+00	0	43	0	694157312	63	4147
2026-01-24 11:48:38.13	277.21	27.33	-45.8	-47.1	20.1	0.00e+00	0	43	0	696254464	63	4140
2026-01-24 11:48:39.14	277.53	27.31	-46.1	-47.5	19.8	0.00e+00	0	43	0	698351616	63	4319
2026-01-24 11:48:40.15	277.85	27.30	-46.4	-47.8	19.5	0.00e+00	0	44	0	699400192	63	4470
2026-01-24 11:48:41.15	278.16	27.28	-46.8	-48.3	18.9	0.00e+00	0	43	0	701497344	64	4482
2026-01-24 11:48:42.16	278.48	27.27	-47.1	-48.8	18.5	0.00e+00	0	43	0	703594496	65	4480
2026-01-24 11:48:43.17	278.79	27.25	-47.2	-48.9	18.4	0.00e+00	0	43	0	705691648	65	4500
2026-01-24 11:48:44.18	279.11	27.23	-47.3	-49.0	18.3	0.00e+00	0	43	0	707788800	65	4571
2026-01-24 11:48:45.19	279.42	27.21	-47.1	-48.7	18.5	0.00e+00	0	43	0	708837376	65	4432
2026-01-24 11:48:46.19	279.74	27.19	-47.0	-48.5	18.7	0.00e+00	0	43	0	710934528	65	4334
2026-01-24 11:48:47.20	280.05	27.17	-46.7	-48.2	19.0	0.00e+00	0	43	0	713031680	65	4163
2026-01-24 11:48:48.21	280.36	27.14	-46.6	-48.0	19.2	0.00e+00	0	44	0	715128832	65	4084
2026-01-24 11:48:49.22	280.68	27.12	-46.6	-48.1	19.2	0.00e+00	0	43	0	717225984	65	4099
2026-01-24 11:48:50.23	280.99	27.10	-46.6	-48.1	19.2	0.00e+00	0	43	0	719323136	65	4104
2026-01-24 11:48:51.23	281.30	27.07	-46.4	-47.9	19.4	0.00e+00	0	43	0	720371712	64	4246
2026-01-24 11:48:52.24	281.61	27.05	-46.5	-48.0	19.4	0.00e+00	0	43	0	722468864	64	4310
2026-01-24 11:48:53.25	281.92	27.02	-46.4	-47.9	19.3	0.00e+00	0	43	0	724566016	64	4275
2026-01-24 11:48:54.26	282.23	26.99	-46.2	-47.6	19.6	0.00e+00	0	43	0	726663168	64	4113
2026-01-24 11:48:55.27	282.55	26.96	-46.2	-47.6	19.6	0.00e+00	0	43	0	727711744	64	4116
2026-01-24 11:48:56.27	282.85	26.93	-46.3	-47.7	19.5	0.00e+00	0	43	0	729808896	63	4411
2026-01-24 11:48:57.28	283.16	26.90	-46.5	-48.0	19.4	0.00e+00	0	43	0	731906048	63	4585
2026-01-24 11:48:58.29	283.47	26.87	-46.5	-47.9	19.4	0.00e+00	0	43	0	734003200	63	4543
2026-01-24 11:48:59.30	283.78	26.84	-46.6	-48.1	19.2	0.00e+00	0	43	0	736100352	63	4622
2026-01-24 11:49:00.30	284.08	26.81	-46.4	-47.8	19.5	0.00e+00	0	43	0	737148928	63	4461
2026-01-24 11:49:01.31	284.39	26.78	-46.0	-47.3	19.9	0.00e+00	0	44	0	739246080	63	4240
2026-01-24 11:49:02.32	284.70	26.74	-45.4	-46.7	20.5	0.00e+00	0	43	0	741343232	62	4169
2026-01-24 11:49:03.33	285.00	26.71	-45.3	-46.5	20.6	0.00e+00	0	43	0	743440384	62	4093
2026-01-24 11:49:04.34	285.31	26.67	-45.4	-46.6	20.6	0.00e+00	0	43	0	745537536	62	4134
2026-01-24 11:49:05.35	285.61	26.63	-45.7	-47.0	20.2	0.00e+00	0	43	0	747634688	62	4331
2026-01-24 11:49:06.36	285.91	26.60	-46.2	-47.6	19.7	0.00e+00	0	43	0	748683264	62	4622
2026-01-24 11:49:07.36	286.21	26.56	-46.7	-48.2	19.2	0.00e+00	0	44	0	750780416	63	4689
2026-01-24 11:49:08.37	286.52	26.52	-46.8	-48.4	18.9	0.00e+00	0	43	0	752877568	64	4508
2026-01-24 11:49:09.37	286.81	26.48	-46.6	-48.1	19.1	0.00e+00	0	43	0	754974720	64	4379
2026-01-24 11:49:10.38	287.11	26.44	-46.3	-47.7	19.5	0.00e+00	0	43	0	756023296	64	4178
2026-01-24 11:49:11.39	287.41	26.40	-46.0	-47.3	19.9	0.00e+00	0	43	0	758120448	63	4218
2026-01-24 11:49:12.40	287.71	26.35	-45.6	-46.9	20.3	0.00e+00	0	43	0	760217600	63	4045
2026-01-24 11:49:13.41	288.01	26.31	-45.5	-46.7	20.5	0.00e+00	0	43	0	762314752	62	4192
2026-01-24 11:49:14.42	288.31	26.27	-45.1	-46.4	20.8	0.00e+00	0	43	0	764411904	62	4013
2026-01-24 11:49:15.42	288.60	26.22	-44.8	-46.0	21.2	0.00e+00	0	44	0	766509056	61	4055
2026-01-24 11:49:16.43	288.90	26.18	-44.4	-45.5	21.6	0.00e+00	0	43	0	767557632	60	4077
2026-01-24 11:49:17.44	289.19	26.13	-44.1	-45.1	21.9	0.00e+00	0	43	0	769654784	60	3909
2026-01-24 11:49:18.45	289.49	26.09	-44.2	-45.3	22.0	0.00e+00	0	43	0	771751936	59	4203
2026-01-24 11:49:19.45	289.78	26.04	-44.4	-45.5	21.8	0.00e+00	0	43	0	773849088	59	4294
2026-01-24 11:49:20.46	290.07	25.99	-44.5	-45.6	21.5	0.00e+00	0	43	0	775946240	60	4121
2026-01-24 11:49:21.47	290.36	25.94	-45.1	-46.3	20.9	0.00e+00	0	43	0	776994816	60	4448
2026-01-24 11:49:22.48	290.65	25.89	-45.5	-46.8	20.5	0.00e+00	0	43	0	779091968	61	4450
2026-01-24 11:49:23.49	290.94	25.84	-45.2	-46.4	20.8	0.00e+00	0	43	0	781189120	61	4281
2026-01-24 11:49:24.50	291.23	25.79	-44.9	-46.1	21.1	0.00e+00	0	43	0	783286272	61	4124
2026-01-24 11:49:25.51	291.52	25.74	-44.3	-45.4	21.6	0.00e+00	0	43	0	785383424	60	4051
2026-01-24 11:49:26.51	291.80	25.69	-44.1	-45.2	21.9	0.00e+00	0	43	0	786432000	60	3920
2026-01-24 11:49:27.52	292.09	25.64	-44.3	-45.4	21.9	0.00e+00	0	43	0	788529152	59	4279
2026-01-24 11:49:28.53	292.37	25.59	-44.4	-45.5	21.8	0.00e+00	0	43	0	790626304	59	4321
2026-01-24 11:49:29.54	292.66	25.53	-44.4	-45.5	21.9	0.00e+00	0	43	0	792723456	59	4306
2026-01-24 11:49:30.55	292.94	25.48	-44.1	-45.2	22.1	0.00e+00	0	43	0	794820608	59	4174
2026-01-24 11:49:31.55	293.22	25.42	-43.9	-45.0	22.3	0.00e+00	0	43	0	795869184	59	4052
2026-01-24 11:49:32.56	293.50	25.37	-43.8	-44.8	22.4	0.00e+00	0	43	0	797966336	59	3982
2026-01-24 11:49:33.57	293.78	25.31	-43.5	-44.5	22.8	0.00e+00	0	43	0	800063488	58	4054
2026-01-24 11:49:34.58	294.06	25.25	-43.4	-44.3	22.8	0.00e+00	0	43	0	802160640	58	3998
2026-01-24 11:49:35.58	294.34	25.20	-43.5	-44.4	22.7	0.00e+00	0	43	0	804257792	58	4047
2026-01-24 11:49:36.59	294.61	25.14	-43.8	-44.8	22.4	0.00e+00	0	43	0	805306368	58	4231
2026-01-24 11:49:37.60	294.89	25.08	-44.4	-45.5	21.9	0.00e+00	0	43	0	807403520	59	4295
2026-01-24 11:49:38.61	295.17	25.02	-44.7	-45.8	21.6	0.00e+00	0	43	0	809500672	59	4489
2026-01-24 11:49:39.61	295.44	24.96	-44.5	-45.6	21.4	0.00e+00	0	43	0	811597824	60	4145
2026-01-24 11:49:40.62	295.71	24.90	-44.4	-45.5	21.5	0.00e+00	0	43	0	813694976	60	4097
2026-01-24 11:49:41.63	295.98	24.84	-44.2	-45.3	21.7	0.00e+00	0	43	0	814743552	60	3997
2026-01-24 11:49:42.64	296.25	24.78	-44.3	-45.4	21.9	0.00e+00	0	43	0	816840704	59	4252
2026-01-24 11:49:43.65	296.53	24.72	-44.0	-45.1	22.1	0.00e+00	0	43	0	818937856	59	4122
2026-01-24 11:49:44.65	296.79	24.66	-44.0	-45.1	22.2	0.00e+00	0	43	0	821035008	59	4099
2026-01-24 11:49:45.66	297.06	24.60	-43.9	-44.9	22.3	0.00e+00	0	43	0	823132160	59	4040
2026-01-24 11:49:46.67	297.33	24.53	-44.0	-45.0	22.2	0.00e+00	0	43	0	824180736	59	4092
2026-01-24 11:49:47.68	297.59	24.47	-44.0	-45.1	22.2	0.00e+00	0	43	0	826277888	59	4122
2026-01-24 11:49:48.69	297.86	24.40	-43.9	-44.9	22.3	0.00e+00	0	43	0	828375040	59	4048
2026-01-24 11:49:49.70	298.12	24.34	-44.2	-45.2	22.1	0.00e+00	0	43	0	830472192	59	4187
2026-01-24 11:49:50.70	298.38	24.28	-44.3	-45.4	21.9	0.00e+00	0	43	0	832569344	59	4264
2026-01-24 11:49:51.71	298.64	24.21	-44.4	-45.5	21.9	0.00e+00	0	43	0	833617920	59	4313
2026-01-24 11:49:52.72	298.90	24.14	-44.3	-45.4	21.9	0.00e+00	0	43	0	835715072	59	4260
2026-01-24 11:49:53.73	299.16	24.08	-43.9	-44.9	22.3	0.00e+00	0	43	0	837812224	59	4031
2026-01-24 11:49:54.74	299.42	24.01	-44.1	-45.1	22.1	0.00e+00	0	43	0	839909376	59	4136
2026-01-24 11:49:55.75	299.68	23.94	-44.0	-45.0	22.2	0.00e+00	0	43	0	842006528	59	4072
2026-01-24 11:49:56.75	299.93	23.88	-44.1	-45.2	22.1	0.00e+00	0	44	0	843055104	59	4154
2026-01-24 11:49:57.76	300.19	23.81	-44.2	-45.3	22.0	0.00e+00	0	43	0	845152256	59	4200
2026-01-24 11:49:58.77	300.44	23.74	-44.5	-45.6	21.8	0.00e+00	0	43	0	847249408	59	4359
2026-01-24 11:49:59.78	300.70	23.67	-44.6	-45.8	21.6	0.00e+00	0	43	0	849346560	59	4452
2026-01-24 11:50:00.79	300.95	23.60	-44.5	-45.6	21.7	0.00e+00	0	44	0	851443712	59	4373
2026-01-24 11:50:01.79	301.20	23.53	-44.3	-45.4	21.9	0.00e+00	0	43	0	852492288	59	4261
2026-01-24 11:50:02.80	301.45	23.46	-44.4	-45.5	21.7	0.00e+00	0	43	0	854589440	59	4318
2026-01-24 11:50:03.81	301.70	23.39	-44.2	-45.2	22.0	0.00e+00	0	43	0	856686592	59	4186
2026-01-24 11:50:04.82	301.94	23.32	-44.4	-45.5	21.8	0.00e+00	0	43	0	858783744	59	4316
2026-01-24 11:50:05.83	302.19	23.25	-44.7	-45.9	21.5	0.00e+00	0	43	0	860880896	59	4509
2026-01-24 11:50:06.84	302.44	23.18	-45.0	-46.3	20.8	0.00e+00	0	43	0	861929472	60	4446
2026-01-24 11:50:07.85	302.68	23.11	-45.3	-46.5	20.6	0.00e+00	0	43	0	864026624	61	4330
2026-01-24 11:50:08.85	302.92	23.04	-45.3	-46.6	20.5	0.00e+00	0	43	0	866123776	61	4366
2026-01-24 11:50:09.86	303.16	22.96	-45.1	-46.4	20.8	0.00e+00	0	43	0	868220928	61	4243
2026-01-24 11:50:10.87	303.40	22.89	-45.1	-46.3	20.8	0.00e+00	0	43	0	870318080	61	4234
2026-01-24 11:50:11.88	303.64	22.82	-44.8	-46.0	21.1	0.00e+00	0	43	0	871366656	61	4082
2026-01-24 11:50:12.89	303.88	22.75	-44.4	-45.5	21.5	0.00e+00	0	44	0	873463808	60	4087
2026-01-24 11:50:13.89	304.12	22.67	-44.5	-45.6	21.4	0.00e+00	0	43	0	875560960	60	4121
2026-01-24 11:50:14.90	304.35	22.60	-44.4	-45.6	21.4	0.00e+00	0	43	0	877658112	60	4106
2026-01-24 11:50:15.91	304.59	22.53	-44.4	-45.5	21.5	0.00e+00	0	43	0	879755264	60	4090
2026-01-24 11:50:16.92	304.82	22.45	-44.3	-45.4	21.6	0.00e+00	0	43	0	881852416	60	4025
2026-01-24 11:50:17.93	305.06	22.38	-44.2	-45.3	21.6	0.00e+00	0	43	0	882900992	60	3969
2026-01-24 11:50:18.93	305.29	22.30	-44.3	-45.4	21.9	0.00e+00	0	43	0	884998144	59	4245
2026-01-24 11:50:19.94	305.52	22.23	-44.1	-45.2	22.1	0.00e+00	0	43	0	887095296	59	4149
2026-01-24 11:50:20.95	305.75	22.15	-44.0	-45.1	22.1	0.00e+00	0	43	0	889192448	59	4122
2026-01-24 11:50:21.96	305.98	22.08	-44.2	-45.3	21.9	0.00e+00	0	43	0	890241024	59	4222
2026-01-24 11:50:22.97	306.21	22.00	-44.4	-45.5	21.7	0.00e+00	0	43	0	892338176	59	4332
2026-01-24 11:50:23.97	306.43	21.93	-44.4	-45.5	21.5	0.00e+00	0	43	0	894435328	60	4083
2026-01-24 11:50:24.98	306.66	21.85	-44.9	-46.1	20.9	0.00e+00	0	43	0	896532480	60	4347
2026-01-24 11:50:25.99	306.88	21.77	-44.8	-46.0	21.0	0.00e+00	0	43	0	898629632	60	4297
2026-01-24 11:50:27.00	307.10	21.70	-44.6	-45.8	21.2	0.00e+00	0	43	0	899678208	60	4214
2026-01-24 11:50:28.01	307.33	21.62	-44.7	-45.8	21.2	0.00e+00	0	43	0	901775360	60	4231
2026-01-24 11:50:29.01	307.55	21.54	-44.7	-45.8	21.2	0.00e+00	0	43	0	903872512	60	4231
2026-01-24 11:50:30.02	307.77	21.47	-45.1	-46.3	20.8	0.00e+00	0	43	0	905969664	60	4464
2026-01-24 11:50:31.03	307.99	21.39	-45.0	-46.2	20.8	0.00e+00	0	43	0	908066816	60	4412
2026-01-24 11:50:32.04	308.20	21.31	-45.0	-46.3	20.7	0.00e+00	0	43	0	910163968	60	4446
2026-01-24 11:50:33.05	308.42	21.23	-44.9	-46.1	20.9	0.00e+00	0	43	0	911212544	60	4365
2026-01-24 11:50:34.05	308.63	21.16	-44.6	-45.8	21.1	0.00e+00	0	43	0	913309696	60	4223
2026-01-24 11:50:35.06	308.85	21.08	-44.5	-45.7	21.3	0.00e+00	0	43	0	915406848	60	4148
2026-01-24 11:50:36.07	309.06	21.00	-44.6	-45.7	21.2	0.00e+00	0	43	0	917504000	60	4178
2026-01-24 11:50:37.08	309.28	20.92	-44.7	-45.9	21.0	0.00e+00	0	43	0	918552576	60	4281
2026-01-24 11:50:38.08	309.49	20.84	-44.7	-45.9	21.0	0.00e+00	0	43	0	920649728	60	4276
2026-01-24 11:50:39.09	309.70	20.77	-45.4	-46.7	20.4	0.00e+00	0	43	0	922746880	61	4402
2026-01-24 11:50:40.10	309.91	20.69	-45.6	-47.0	20.1	0.00e+00	0	43	0	924844032	61	4564
2026-01-24 11:50:41.11	310.12	20.61	-46.0	-47.4	19.7	0.00e+00	0	43	0	926941184	62	4543
2026-01-24 11:50:42.11	310.32	20.53	-46.2	-47.8	19.4	0.00e+00	0	43	0	929038336	63	4445
2026-01-24 11:50:43.12	310.53	20.45	-45.5	-46.8	20.2	0.00e+00	0	43	0	930086912	63	3996
2026-01-24 11:50:44.13	310.73	20.37	-45.1	-46.3	20.7	0.00e+00	0	43	0	932184064	62	3986
2026-01-24 11:50:45.14	310.94	20.29	-44.7	-45.9	21.0	0.00e+00	0	43	0	934281216	61	4014
2026-01-24 11:50:46.15	311.14	20.21	-44.4	-45.5	21.4	0.00e+00	0	43	0	936378368	60	4076
2026-01-24 11:50:47.15	311.34	20.13	-44.0	-45.1	21.7	0.00e+00	0	43	0	938475520	60	3882
2026-01-24 11:50:48.16	311.54	20.05	-44.0	-45.1	21.7	0.00e+00	0	43	0	939524096	60	3899
2026-01-24 11:50:49.17	311.74	19.97	-44.6	-45.7	21.4	0.00e+00	0	43	0	941621248	59	4434
2026-01-24 11:50:50.18	311.94	19.89	-44.8	-46.0	20.9	0.00e+00	0	43	0	943718400	60	4325
2026-01-24 11:50:51.19	312.14	19.81	-45.2	-46.5	20.5	0.00e+00	0	43	0	945815552	60	4563
2026-01-24 11:50:52.19	312.34	19.74	-45.3	-46.6	20.4	0.00e+00	0	43	0	946864128	61	4347
2026-01-24 11:50:53.20	312.53	19.66	-45.3	-46.6	20.4	0.00e+00	0	43	0	948961280	61	4342
2026-01-24 11:50:54.21	312.73	19.58	-45.3	-46.5	20.4	0.00e+00	0	43	0	951058432	61	4334
2026-01-24 11:50:55.22	312.92	19.50	-45.0	-46.2	20.8	0.00e+00	0	43	0	953155584	61	4162
2026-01-24 11:50:56.23	313.12	19.41	-45.0	-46.3	20.7	0.00e+00	0	43	0	955252736	61	4195
2026-01-24 11:50:57.23	313.31	19.34	-45.1	-46.3	20.7	0.00e+00	0	43	0	957349888	61	4214
2026-01-24 11:50:58.24	313.50	19.26	-45.2	-46.4	20.6	0.00e+00	0	43	0	958398464	61	4274
2026-01-24 11:50:59.25	313.69	19.17	-45.3	-46.6	20.4	0.00e+00	0	43	0	960495616	61	4341
2026-01-24 11:51:00.25	313.88	19.10	-45.1	-46.3	20.6	0.00e+00	0	43	0	962592768	61	4217
2026-01-24 11:51:01.26	314.07	19.01	-44.8	-46.0	20.9	0.00e+00	0	43	0	964689920	61	4075
2026-01-24 11:51:02.27	314.25	18.93	-44.5	-45.7	21.2	0.00e+00	0	43	0	966787072	61	3934
2026-01-24 11:51:03.28	314.44	18.85	-44.1	-45.1	21.6	0.00e+00	0	43	0	967835648	60	3910
2026-01-24 11:51:04.29	314.63	18.77	-44.0	-45.1	21.6	0.00e+00	0	43	0	969932800	60	3904
2026-01-24 11:51:05.30	314.81	18.69	-44.3	-45.4	21.6	0.00e+00	0	43	0	972029952	59	4286
2026-01-24 11:51:06.31	314.99	18.61	-44.6	-45.7	21.4	0.00e+00	0	43	0	974127104	59	4439
2026-01-24 11:51:07.31	315.18	18.53	-44.5	-45.7	21.1	0.00e+00	0	43	0	976224256	60	4171
2026-01-24 11:51:08.32	315.36	18.45	-44.7	-45.9	20.9	0.00e+00	0	43	0	977272832	60	4250
2026-01-24 11:51:09.33	315.54	18.37	-45.0	-46.2	20.6	0.00e+00	0	43	0	979369984	60	4436
2026-01-24 11:51:10.33	315.72	18.29	-45.0	-46.3	20.6	0.00e+00	0	43	0	981467136	60	4460
2026-01-24 11:51:11.34	315.90	18.21	-44.8	-46.0	20.8	0.00e+00	0	43	0	983564288	60	4323
2026-01-24 11:51:12.35	316.07	18.13	-44.5	-45.7	21.1	0.00e+00	0	43	0	985661440	60	4178
2026-01-24 11:51:13.36	316.25	18.05	-44.2	-45.3	21.4	0.00e+00	0	43	0	986710016	60	3985
2026-01-24 11:51:14.37	316.43	17.97	-44.1	-45.2	21.5	0.00e+00	0	43	0	988807168	60	3919
2026-01-24 11:51:15.37	316.60	17.89	-44.5	-45.6	21.5	0.00e+00	0	43	0	990904320	59	4387
2026-01-24 11:51:16.38	316.78	17.81	-44.6	-45.8	21.3	0.00e+00	0	43	0	993001472	59	4453
2026-01-24 11:51:17.39	316.95	17.73	-44.4	-45.6	21.2	0.00e+00	0	43	0	995098624	60	4104
2026-01-24 11:51:18.40	317.12	17.65	-44.6	-45.8	21.0	0.00e+00	0	43	0	996147200	60	4199
2026-01-24 11:51:19.41	317.29	17.57	-45.1	-46.4	20.4	0.00e+00	0	43	0	998244352	60	4525
2026-01-24 11:51:20.41	317.46	17.49	-45.1	-46.4	20.5	0.00e+00	0	43	0	1000341504	60	4520
2026-01-24 11:51:21.42	317.63	17.41	-45.1	-46.4	20.4	0.00e+00	0	43	0	1002438656	60	4509
2026-01-24 11:51:22.43	317.80	17.33	-44.6	-45.9	20.9	0.00e+00	0	43	0	1004535808	60	4245
2026-01-24 11:51:23.44	317.97	17.25	-44.5	-45.7	21.0	0.00e+00	0	43	0	1005584384	60	4179
2026-01-24 11:51:24.45	318.14	17.17	-44.4	-45.6	21.1	0.00e+00	0	43	0	1007681536	60	4114
2026-01-24 11:51:25.45	318.30	17.09	-44.2	-45.3	21.4	0.00e+00	0	43	0	1009778688	60	3984
2026-01-24 11:51:26.46	318.47	17.01	-44.4	-45.5	21.1	0.00e+00	0	43	0	1011875840	60	4098
2026-01-24 11:51:27.47	318.63	16.92	-44.5	-45.7	21.0	0.00e+00	0	43	0	1013972992	60	4165
2026-01-24 11:51:28.48	318.80	16.84	-44.8	-46.0	20.7	0.00e+00	0	43	0	1015021568	60	4338
2026-01-24 11:51:29.49	318.96	16.76	-44.6	-45.8	20.9	0.00e+00	0	43	0	1017118720	60	4236
2026-01-24 11:51:30.49	319.12	16.69	-44.5	-45.7	21.0	0.00e+00	0	43	0	1019215872	60	4175
2026-01-24 11:51:31.50	319.28	16.61	-44.7	-45.9	20.8	0.00e+00	0	43	0	1021313024	60	4267
2026-01-24 11:51:32.51	319.44	16.53	-44.7	-45.9	20.8	0.00e+00	0	43	0	1023410176	60	4267
2026-01-24 11:51:33.52	319.60	16.45	-44.5	-45.7	21.0	0.00e+00	0	43	0	1025507328	60	4178
2026-01-24 11:51:34.53	319.76	16.37	-44.3	-45.4	21.2	0.00e+00	0	43	0	1026555904	60	4029
2026-01-24 11:51:35.54	319.92	16.29	-44.1	-45.2	21.4	0.00e+00	0	43	0	1028653056	60	3954
2026-01-24 11:51:36.55	320.08	16.21	-44.2	-45.3	21.3	0.00e+00	0	43	0	1030750208	60	3996
2026-01-24 11:51:37.56	320.24	16.13	-44.5	-45.7	21.0	0.00e+00	0	43	0	1032847360	60	4163
2026-01-24 11:51:38.56	320.39	16.05	-44.8	-46.1	20.7	0.00e+00	0	43	0	1033895936	60	4342
2026-01-24 11:51:39.57	320.55	15.97	-45.1	-46.4	20.3	0.00e+00	0	43	0	1035993088	60	4533
2026-01-24 11:51:40.58	320.70	15.89	-45.5	-46.9	19.8	0.00e+00	0	43	0	1038090240	61	4532
2026-01-24 11:51:41.59	320.85	15.81	-45.8	-47.2	19.6	0.00e+00	0	43	0	1040187392	62	4421
2026-01-24 11:51:42.60	321.01	15.73	-46.0	-47.5	19.3	0.00e+00	0	43	0	1042284544	62	4556
2026-01-24 11:51:43.61	321.16	15.65	-45.9	-47.3	19.4	0.00e+00	0	43	0	1044381696	62	4486
2026-01-24 11:51:44.62	321.31	15.57	-45.8	-47.2	19.6	0.00e+00	0	43	0	1045430272	62	4429
2026-01-24 11:51:45.63	321.46	15.49	-45.6	-47.0	19.7	0.00e+00	0	43	0	1047527424	62	4340
2026-01-24 11:51:46.63	321.61	15.41	-45.7	-47.1	19.6	0.00e+00	0	43	0	1049624576	62	4390
2026-01-24 11:51:47.64	321.76	15.33	-45.4	-46.8	19.9	0.00e+00	0	43	0	1051721728	62	4225
2026-01-24 11:51:48.65	321.90	15.25	-45.3	-46.7	20.0	0.00e+00	0	43	0	1053818880	62	4171
2026-01-24 11:51:49.66	322.05	15.18	-45.2	-46.5	20.2	0.00e+00	0	43	0	1054867456	62	4081
2026-01-24 11:51:50.67	322.20	15.10	-45.2	-46.5	20.2	0.00e+00	0	43	0	1056964608	62	4070
2026-01-24 11:51:51.68	322.34	15.02	-44.9	-46.2	20.5	0.00e+00	0	43	0	1059061760	61	4153
2026-01-24 11:51:52.69	322.49	14.94	-44.9	-46.1	20.5	0.00e+00	0	43	0	1061158912	61	4132
2026-01-24 11:51:53.70	322.63	14.86	-44.6	-45.8	20.8	0.00e+00	0	43	0	1062207488	61	3993
2026-01-24 11:51:54.71	322.78	14.78	-44.5	-45.7	20.9	0.00e+00	0	43	0	1064304640	60	4153
2026-01-24 11:51:55.71	322.92	14.71	-44.4	-45.6	20.9	0.00e+00	0	43	0	1066401792	60	4111
2026-01-24 11:51:56.72	323.06	14.63	-44.1	-45.2	21.3	0.00e+00	0	43	0	1068498944	60	3957
2026-01-24 11:51:57.73	323.20	14.55	-44.2	-45.4	21.2	0.00e+00	0	43	0	1070596096	60	4005
2026-01-24 11:51:58.74	323.34	14.47	-44.4	-45.6	21.2	0.00e+00	0	43	0	1072693248	59	4371
2026-01-24 11:51:59.74	323.48	14.39	-44.4	-45.6	21.2	0.00e+00	0	43	0	1073741824	59	4367
2026-01-24 11:52:00.75	323.62	14.32	-44.6	-45.8	21.0	0.00e+00	0	43	0	1075838976	59	4478
2026-01-24 11:52:01.76	323.76	14.24	-44.7	-45.9	20.7	0.00e+00	0	43	0	1077936128	60	4258
2026-01-24 11:52:02.77	323.90	14.16	-44.7	-46.0	20.6	0.00e+00	0	43	0	1080033280	60	4310
2026-01-24 11:52:03.78	324.03	14.08	-45.3	-46.6	20.0	0.00e+00	0	43	0	1082130432	61	4364
2026-01-24 11:52:04.79	324.17	14.01	-45.3	-46.7	20.0	0.00e+00	0	43	0	1083179008	61	4417
2026-01-24 11:52:05.80	324.31	13.93	-45.5	-47.0	19.7	0.00e+00	0	43	0	1085276160	61	4548
2026-01-24 11:52:06.81	324.44	13.85	-45.8	-47.3	19.5	0.00e+00	0	43	0	1087373312	62	4444
2026-01-24 11:52:07.82	324.58	13.77	-46.0	-47.5	19.2	0.00e+00	0	43	0	1089470464	62	4583
2026-01-24 11:52:08.83	324.71	13.70	-45.9	-47.4	19.2	0.00e+00	0	43	0	1091567616	62	4538
2026-01-24 11:52:09.83	324.84	13.62	-46.1	-47.7	19.0	0.00e+00	0	43	0	1092616192	62	4664
2026-01-24 11:52:10.84	324.97	13.54	-46.1	-47.6	19.1	0.00e+00	0	43	0	1094713344	62	4628
2026-01-24 11:52:11.85	325.11	13.47	-45.8	-47.3	19.4	0.00e+00	0	43	0	1096810496	62	4455
2026-01-24 11:52:12.86	325.24	13.39	-45.7	-47.1	19.5	0.00e+00	0	43	0	1098907648	62	4373
2026-01-24 11:52:13.87	325.37	13.31	-45.6	-47.1	19.5	0.00e+00	0	43	0	1101004800	62	4358
2026-01-24 11:52:14.87	325.50	13.24	-45.5	-46.9	19.7	0.00e+00	0	43	0	1102053376	62	4244
2026-01-24 11:52:15.88	325.63	13.16	-45.2	-46.5	20.1	0.00e+00	0	43	0	1104150528	62	4089
2026-01-24 11:52:16.89	325.75	13.09	-45.0	-46.4	20.2	0.00e+00	0	43	0	1106247680	62	4015
2026-01-24 11:52:17.90	325.88	13.01	-45.2	-46.6	20.0	0.00e+00	0	43	0	1108344832	62	4127
2026-01-24 11:52:18.91	326.01	12.93	-45.3	-46.7	19.9	0.00e+00	0	43	0	1110441984	62	4161
2026-01-24 11:52:19.91	326.13	12.86	-45.3	-46.6	19.9	0.00e+00	0	43	0	1111490560	62	4143
2026-01-24 11:52:20.92	326.26	12.78	-45.4	-46.8	19.6	0.00e+00	0	43	0	1113587712	62	4237
2026-01-24 11:52:21.93	326.39	12.71	-45.1	-46.5	20.1	0.00e+00	0	43	0	1115684864	62	4065
2026-01-24 11:52:22.94	326.51	12.63	-45.2	-46.6	19.9	0.00e+00	0	43	0	1117782016	62	4130
2026-01-24 11:52:23.95	326.64	12.56	-45.4	-46.8	19.7	0.00e+00	0	43	0	1119879168	62	4214
2026-01-24 11:52:24.95	326.76	12.48	-45.1	-46.5	20.0	0.00e+00	0	43	0	1120927744	62	4079
2026-01-24 11:52:25.96	326.88	12.41	-45.3	-46.7	19.9	0.00e+00	0	43	0	1123024896	62	4157
2026-01-24 11:52:26.97	327.00	12.33	-45.2	-46.5	20.0	0.00e+00	0	43	0	1125122048	62	4078
2026-01-24 11:52:27.98	327.13	12.26	-45.2	-46.5	20.0	0.00e+00	0	43	0	1127219200	62	4077
2026-01-24 11:52:28.99	327.25	12.18	-45.3	-46.7	19.8	0.00e+00	0	43	0	1129316352	62	4182
2026-01-24 11:52:29.99	327.37	12.11	-45.2	-46.6	19.9	0.00e+00	0	43	0	1130364928	62	4124
2026-01-24 11:52:31.00	327.49	12.03	-45.4	-46.8	19.7	0.00e+00	0	43	0	1132462080	62	4233
2026-01-24 11:52:32.01	327.61	11.96	-45.4	-46.8	19.6	0.00e+00	0	43	0	1134559232	62	4242
2026-01-24 11:52:33.02	327.72	11.88	-45.6	-47.1	19.5	0.00e+00	0	43	0	1136656384	62	4346
2026-01-24 11:52:34.03	327.84	11.81	-45.6	-47.1	19.5	0.00e+00	0	43	0	1138753536	62	4348
2026-01-24 11:52:35.03	327.96	11.74	-45.9	-47.4	19.1	0.00e+00	0	43	0	1139802112	62	4512
2026-01-24 11:52:36.04	328.08	11.66	-45.8	-47.2	19.3	0.00e+00	0	43	0	1141899264	62	4428
2026-01-24 11:52:37.05	328.19	11.59	-45.9	-47.4	19.1	0.00e+00	0	43	0	1143996416	62	4528
2026-01-24 11:52:38.06	328.31	11.52	-46.0	-47.6	19.0	0.00e+00	0	43	0	1146093568	62	4599
2026-01-24 11:52:39.06	328.42	11.44	-46.4	-48.1	18.5	0.00e+00	0	43	0	1148190720	63	4610
2026-01-24 11:52:40.07	328.54	11.37	-46.1	-47.7	18.9	0.00e+00	0	43	0	1149239296	63	4394
2026-01-24 11:52:41.08	328.65	11.30	-46.2	-47.8	18.7	0.00e+00	0	43	0	1151336448	63	4446
2026-01-24 11:52:42.09	328.77	11.22	-46.6	-48.3	18.2	0.00e+00	0	43	0	1153433600	63	4758
2026-01-24 11:52:43.10	328.88	11.15	-46.2	-47.9	18.7	0.00e+00	0	43	0	1155530752	63	4496
2026-01-24 11:52:44.10	328.99	11.08	-46.6	-48.3	18.3	0.00e+00	0	43	0	1157627904	63	4742
2026-01-24 11:52:45.11	329.10	11.00	-46.6	-48.4	18.1	0.00e+00	0	43	0	1159725056	64	4498
2026-01-24 11:52:46.12	329.22	10.93	-46.4	-48.1	18.4	0.00e+00	0	43	0	1160773632	64	4354
2026-01-24 11:52:47.13	329.33	10.86	-46.5	-48.2	18.2	0.00e+00	0	43	0	1162870784	64	4423
2026-01-24 11:52:48.14	329.44	10.79	-46.1	-47.7	18.7	0.00e+00	0	43	0	1164967936	64	4149
2026-01-24 11:52:49.15	329.55	10.71	-46.2	-47.8	18.7	0.00e+00	0	43	0	1167065088	63	4488
2026-01-24 11:52:50.15	329.66	10.64	-46.3	-47.9	18.6	0.00e+00	0	43	0	1168113664	63	4532
2026-01-24 11:52:51.16	329.77	10.57	-46.1	-47.6	18.8	0.00e+00	0	43	0	1170210816	63	4389
2026-01-24 11:52:52.17	329.87	10.50	-46.1	-47.7	18.8	0.00e+00	0	43	0	1172307968	63	4400
2026-01-24 11:52:53.18	329.98	10.43	-46.1	-47.7	18.8	0.00e+00	0	43	0	1174405120	63	4432
2026-01-24 11:52:54.19	330.09	10.36	-45.9	-47.4	19.0	0.00e+00	0	43	0	1176502272	63	4268
2026-01-24 11:52:55.19	330.20	10.28	-46.1	-47.7	18.8	0.00e+00	0	43	0	1177550848	63	4414
2026-01-24 11:52:56.20	330.30	10.21	-45.9	-47.5	19.0	0.00e+00	0	43	0	1179648000	63	4292
2026-01-24 11:52:57.21	330.41	10.14	-46.2	-47.8	18.6	0.00e+00	0	43	0	1181745152	63	4479
2026-01-24 11:52:58.22	330.51	10.07	-45.9	-47.5	19.0	0.00e+00	0	43	0	1183842304	63	4297
2026-01-24 11:52:59.23	330.62	10.00	-45.9	-47.4	19.0	0.00e+00	0	43	0	1185939456	63	4268
2026-01-24 11:53:00.23	330.72	9.93	-46.0	-47.5	18.9	0.00e+00	0	43	0	1188036608	63	4338
2026-01-24 11:53:01.23	330.83	9.86	-45.6	-47.0	19.3	0.00e+00	0	43	0	1189085184	63	4090
2026-01-24 11:53:02.23	330.93	9.79	-45.7	-47.2	19.2	0.00e+00	0	43	0	1191182336	63	4149
2026-01-24 11:53:03.24	331.03	9.72	-45.6	-47.1	19.3	0.00e+00	0	43	0	1193279488	63	4128
2026-01-24 11:53:04.25	331.13	9.65	-45.3	-46.7	19.7	0.00e+00	0	43	0	1195376640	62	4146
2026-01-24 11:53:05.26	331.24	9.58	-45.6	-47.1	19.2	0.00e+00	0	43	0	1196425216	62	4357
2026-01-24 11:53:06.27	331.34	9.51	-45.5	-47.0	19.3	0.00e+00	0	43	0	1198522368	62	4311
2026-01-24 11:53:07.27	331.44	9.44	-45.4	-46.8	19.5	0.00e+00	0	43	0	1200619520	62	4229
2026-01-24 11:53:08.28	331.54	9.37	-45.7	-47.2	19.1	0.00e+00	0	43	0	1202716672	62	4427
2026-01-24 11:53:09.29	331.64	9.30	-45.7	-47.3	19.1	0.00e+00	0	43	0	1204813824	62	4442
2026-01-24 11:53:10.30	331.74	9.23	-45.9	-47.4	18.9	0.00e+00	0	43	0	1205862400	62	4525
2026-01-24 11:53:11.31	331.84	9.16	-46.4	-48.1	18.3	0.00e+00	0	43	0	1207959552	63	4604
2026-01-24 11:53:12.31	331.94	9.09	-45.9	-47.4	18.9	0.00e+00	0	43	0	1210056704	63	4286
2026-01-24 11:53:13.32	332.04	9.02	-46.4	-48.1	18.3	0.00e+00	0	43	0	1212153856	63	4647
2026-01-24 11:53:14.33	332.14	8.95	-46.6	-48.3	17.9	0.00e+00	0	43	0	1214251008	64	4493
2026-01-24 11:53:15.34	332.23	8.88	-46.7	-48.5	17.7	0.00e+00	0	43	0	1216348160	64	4586
2026-01-24 11:53:16.34	332.33	8.81	-46.8	-48.7	17.6	0.00e+00	0	43	0	1217396736	64	4652
2026-01-24 11:53:17.35	332.43	8.74	-46.7	-48.6	17.7	0.00e+00	0	43	0	1219493888	64	4626
