passes_logs/2026/01/24/R3.2S_Murmansk/R3.2S_Murmansk__20260124_111257_AQUA_rec.log

#Pass ID: 20260124_111257_AQUA
#Satellite: AQUA
#Configuration: AQUA
#almurnet v.1.7.20251203
#Start time: 2026-01-24 11:12:58

#Version: 2.2.20231116
#Station: R3.2S_Murmansk
#Location: 33.079688 lon 68.888172 lat
#TLE: 1 27424U 02022A   26023.58972979  .00001888  00000+0  38753-3 0  9997
#TLE: 2 27424  98.4100 350.1620 0001948  68.5331  43.0280 14.61852003262140

#Time	Az	El	Level	Level2	SNR	BER	BlckErr	Temp	State	Recorded	gain1	gain2
2026-01-24 11:12:58.44	150.18	2.04	-53.6	-71.4	3.8	7.44e-01	0	43	0	0	77	30284
2026-01-24 11:12:59.44	150.18	2.11	-53.6	-71.4	3.8	7.46e-01	0	43	104	0	77	30358
2026-01-24 11:13:00.45	150.18	2.18	-53.6	-71.4	3.8	7.45e-01	0	43	104	0	77	30301
2026-01-24 11:13:01.45	150.18	2.24	-53.6	-71.4	3.8	7.43e-01	0	43	104	0	77	30129
2026-01-24 11:13:02.46	150.18	2.31	-53.6	-71.4	3.8	7.48e-01	0	43	104	0	77	30033
2026-01-24 11:13:03.47	150.18	2.38	-53.6	-71.3	3.8	7.45e-01	0	43	104	0	77	29973
2026-01-24 11:13:04.48	150.18	2.45	-53.6	-71.3	3.8	7.46e-01	0	43	104	0	77	29934
2026-01-24 11:13:05.49	150.17	2.52	-53.6	-71.3	3.8	7.48e-01	0	43	104	0	77	29962
2026-01-24 11:13:06.50	150.17	2.58	-53.5	-71.3	3.8	7.48e-01	0	43	104	0	77	29896
2026-01-24 11:13:07.51	150.17	2.65	-53.6	-71.3	3.8	7.45e-01	0	43	104	0	77	29800
2026-01-24 11:13:08.51	150.17	2.72	-53.5	-71.3	3.8	7.45e-01	0	43	104	0	77	29781
2026-01-24 11:13:09.52	150.17	2.79	-53.6	-71.3	3.8	7.47e-01	0	43	104	0	77	29842
2026-01-24 11:13:10.53	150.17	2.86	-53.6	-71.3	3.8	7.46e-01	0	43	104	0	77	29986
2026-01-24 11:13:11.54	150.17	2.93	-53.5	-71.3	3.8	7.45e-01	0	43	104	0	77	29791
2026-01-24 11:13:12.55	150.17	3.00	-53.5	-71.2	3.8	7.47e-01	0	43	104	0	77	29673
2026-01-24 11:13:13.56	150.17	3.07	-53.5	-71.2	3.8	7.46e-01	0	43	104	0	77	29354
2026-01-24 11:13:14.56	150.17	3.14	-53.5	-71.0	3.8	7.46e-01	0	43	104	0	77	28968
2026-01-24 11:13:15.57	150.16	3.21	-53.5	-70.9	3.8	7.44e-01	0	43	104	0	77	28496
2026-01-24 11:13:16.58	150.16	3.28	-53.5	-70.7	3.8	7.45e-01	0	43	104	0	77	27727
2026-01-24 11:13:17.59	150.16	3.35	-53.4	-70.5	3.8	7.45e-01	0	43	104	0	77	27217
2026-01-24 11:13:18.60	150.16	3.42	-53.5	-70.3	3.8	7.43e-01	0	43	104	0	77	26605
2026-01-24 11:13:19.61	150.16	3.49	-53.5	-70.2	3.8	7.47e-01	0	43	104	0	77	26450
2026-01-24 11:13:20.61	150.16	3.57	-53.4	-70.3	3.8	7.45e-01	0	43	104	0	77	26531
2026-01-24 11:13:21.62	150.16	3.64	-53.5	-70.3	3.8	7.43e-01	0	43	104	0	77	26664
2026-01-24 11:13:22.63	150.16	3.71	-53.5	-70.2	3.8	7.44e-01	0	43	104	0	77	26291
2026-01-24 11:13:23.64	150.15	3.78	-53.4	-69.9	3.8	7.44e-01	0	43	104	0	77	25280
2026-01-24 11:13:24.65	150.15	3.85	-53.4	-67.8	4.1	7.33e-01	0	43	104	0	77	20048
2026-01-24 11:13:25.65	150.15	3.92	-53.3	-66.7	4.0	7.40e-01	0	43	104	0	77	17519
2026-01-24 11:13:26.66	150.15	4.00	-53.1	-63.6	6.4	6.73e-01	183	43	0	524288	77	12284
2026-01-24 11:13:27.67	150.15	4.07	-52.5	-59.8	10.1	6.24e-01	0	43	0	2621440	77	7962
2026-01-24 11:13:28.68	150.15	4.14	-51.9	-57.6	12.4	6.10e-01	0	43	0	4194304	75	6886
2026-01-24 11:13:29.69	150.15	4.22	-51.0	-55.3	14.8	6.08e-01	0	43	0	6291456	74	5620
2026-01-24 11:13:30.69	150.14	4.29	-50.3	-53.9	16.3	6.05e-01	0	43	0	7864320	72	5345
2026-01-24 11:13:31.70	150.14	4.36	-49.0	-51.6	18.6	6.08e-01	0	43	0	9961472	70	4635
2026-01-24 11:13:32.71	150.14	4.44	-47.7	-49.8	20.4	6.06e-01	0	43	0	11534336	67	4452
2026-01-24 11:13:33.72	150.14	4.51	-47.3	-49.2	21.1	6.08e-01	0	43	0	13631488	66	4412
2026-01-24 11:13:34.73	150.14	4.59	-47.0	-48.9	21.4	6.04e-01	0	43	0	15728640	65	4515
2026-01-24 11:13:35.73	150.14	4.66	-46.3	-47.9	22.3	6.06e-01	0	43	0	17301504	64	4274
2026-01-24 11:13:36.74	150.14	4.74	-46.2	-47.8	22.4	6.07e-01	0	43	0	19398656	64	4219
2026-01-24 11:13:37.75	150.13	4.81	-46.0	-47.6	22.8	6.05e-01	0	43	0	21495808	63	4351
2026-01-24 11:13:38.76	150.13	4.89	-45.9	-47.4	22.8	6.07e-01	0	43	0	23068672	63	4288
2026-01-24 11:13:39.77	150.13	4.96	-46.2	-47.9	22.3	6.05e-01	0	43	0	25165824	63	4508
2026-01-24 11:13:40.78	150.13	5.04	-46.6	-48.3	21.8	6.07e-01	0	43	0	26738688	63	4720
2026-01-24 11:13:41.78	150.13	5.11	-47.6	-49.5	21.1	6.05e-01	0	43	0	28835840	65	4839
2026-01-24 11:13:42.79	150.12	5.19	-48.0	-50.1	20.2	6.06e-01	0	43	0	30932992	66	4903
2026-01-24 11:13:43.80	150.12	5.27	-51.0	-55.4	14.8	6.10e-01	0	43	0	32505856	72	6349
2026-01-24 11:13:44.81	150.12	5.34	-48.7	-51.1	16.7	6.05e-01	0	43	0	34603008	68	4894
2026-01-24 11:13:45.82	150.12	5.42	-46.5	-48.1	21.9	6.07e-01	0	43	0	36175872	63	4645
2026-01-24 11:13:46.83	150.12	5.50	-45.9	-47.4	22.4	6.05e-01	0	43	0	38273024	63	4266
2026-01-24 11:13:47.83	150.11	5.57	-45.8	-47.3	22.6	6.05e-01	0	43	0	39845888	63	4212
2026-01-24 11:13:48.84	150.11	5.65	-45.6	-47.1	23.0	6.05e-01	0	43	0	41943040	63	4119
2026-01-24 11:13:49.85	150.11	5.73	-46.0	-47.5	22.7	6.07e-01	0	43	0	44040192	62	4579
2026-01-24 11:13:50.86	150.11	5.81	-45.8	-47.3	23.0	6.05e-01	0	43	0	46137344	62	4477
2026-01-24 11:13:51.87	150.11	5.89	-45.7	-47.2	23.2	6.04e-01	0	43	0	47710208	62	4416
2026-01-24 11:13:52.87	150.10	5.97	-45.6	-47.1	23.3	6.05e-01	0	43	0	49807360	62	4383
2026-01-24 11:13:53.88	150.10	6.05	-45.8	-47.3	23.2	6.07e-01	0	43	0	51380224	62	4462
2026-01-24 11:13:54.89	150.10	6.13	-45.8	-47.3	23.1	6.04e-01	0	43	0	53477376	62	4481
2026-01-24 11:13:55.90	150.10	6.20	-45.8	-47.4	23.1	6.08e-01	0	43	0	55050240	62	4497
2026-01-24 11:13:56.91	150.10	6.28	-45.6	-47.1	23.4	6.06e-01	0	43	0	57147392	62	4373
2026-01-24 11:13:57.91	150.09	6.36	-45.8	-47.3	23.2	6.06e-01	0	43	0	59244544	62	4476
2026-01-24 11:13:58.92	150.09	6.45	-45.7	-47.2	23.3	6.06e-01	0	43	0	60817408	62	4431
2026-01-24 11:13:59.93	150.09	6.53	-45.8	-47.3	23.3	6.03e-01	0	43	0	62914560	62	4477
2026-01-24 11:14:00.94	150.09	6.61	-45.7	-47.2	23.4	6.05e-01	0	43	0	64487424	62	4400
2026-01-24 11:14:01.95	150.08	6.69	-46.0	-47.6	23.1	6.06e-01	0	43	0	66584576	62	4614
2026-01-24 11:14:02.95	150.08	6.77	-45.5	-47.0	23.6	6.06e-01	0	43	0	68681728	62	4306
2026-01-24 11:14:03.96	150.08	6.85	-45.8	-47.3	23.3	6.06e-01	0	43	0	70254592	62	4482
2026-01-24 11:14:04.97	150.08	6.93	-45.4	-46.8	23.8	6.05e-01	0	43	0	72351744	62	4231
2026-01-24 11:14:05.98	150.07	7.02	-45.8	-47.3	23.4	6.05e-01	0	43	0	74448896	62	4471
2026-01-24 11:14:06.99	150.07	7.10	-45.3	-46.7	24.0	6.08e-01	0	43	0	76021760	62	4192
2026-01-24 11:14:07.99	150.07	7.18	-45.5	-47.0	23.7	6.07e-01	0	43	0	78118912	62	4301
2026-01-24 11:14:09.00	150.07	7.27	-45.6	-47.1	23.7	6.07e-01	0	43	0	79691776	62	4343
2026-01-24 11:14:10.01	150.06	7.35	-45.5	-46.9	23.8	6.06e-01	0	43	0	81788928	62	4273
2026-01-24 11:14:11.02	150.06	7.43	-45.4	-46.8	23.9	6.05e-01	0	43	0	83361792	62	4220
2026-01-24 11:14:12.03	150.06	7.52	-45.2	-46.6	24.1	6.09e-01	0	43	0	85458944	62	4110
2026-01-24 11:14:13.03	150.05	7.60	-45.2	-46.6	24.2	6.04e-01	0	43	0	87556096	62	4134
2026-01-24 11:14:14.04	150.05	7.69	-45.6	-47.1	23.7	6.05e-01	0	43	0	89128960	62	4355
2026-01-24 11:14:15.05	150.05	7.77	-45.4	-46.8	24.1	6.07e-01	0	43	0	91226112	62	4197
2026-01-24 11:14:16.06	150.05	7.86	-45.2	-46.6	24.2	6.04e-01	0	43	0	93323264	62	4100
2026-01-24 11:14:17.07	150.04	7.94	-45.2	-46.6	24.3	6.04e-01	0	43	0	94896128	62	4105
2026-01-24 11:14:18.07	150.04	8.03	-45.1	-46.4	24.3	6.06e-01	0	43	0	96993280	62	4049
2026-01-24 11:14:19.08	150.04	8.12	-45.0	-46.3	24.4	6.05e-01	0	43	0	98566144	61	4218
2026-01-24 11:14:20.09	150.03	8.20	-45.1	-46.4	24.4	6.05e-01	0	43	0	100663296	61	4269
2026-01-24 11:14:21.10	150.03	8.29	-45.0	-46.3	24.4	6.06e-01	0	43	0	102760448	61	4236
2026-01-24 11:14:22.11	150.03	8.38	-44.9	-46.2	24.5	6.06e-01	0	43	0	104333312	61	4174
2026-01-24 11:14:23.11	150.02	8.47	-45.1	-46.5	24.3	6.08e-01	0	43	0	106430464	61	4299
2026-01-24 11:14:24.12	150.02	8.55	-44.9	-46.2	24.5	6.05e-01	0	43	0	108003328	61	4177
2026-01-24 11:14:25.13	150.02	8.64	-44.8	-46.2	24.6	6.05e-01	0	43	0	110100480	61	4151
2026-01-24 11:14:26.14	150.01	8.73	-45.0	-46.4	24.4	6.06e-01	0	43	0	111673344	61	4262
2026-01-24 11:14:27.15	150.01	8.82	-44.8	-46.1	24.7	6.05e-01	0	43	0	113770496	61	4134
2026-01-24 11:14:28.15	150.01	8.91	-44.4	-45.7	25.0	6.05e-01	0	43	0	115867648	60	4166
2026-01-24 11:14:29.16	150.00	9.00	-44.7	-46.1	24.7	6.05e-01	0	43	0	117440512	60	4344
2026-01-24 11:14:30.17	150.00	9.09	-44.6	-45.9	24.8	6.05e-01	0	43	0	119537664	60	4286
2026-01-24 11:14:31.18	149.99	9.18	-44.6	-45.9	24.9	6.07e-01	0	43	0	121634816	60	4269
2026-01-24 11:14:32.19	149.99	9.27	-44.4	-45.6	25.1	6.07e-01	0	43	0	123207680	60	4143
2026-01-24 11:14:33.19	149.99	9.36	-44.5	-45.8	24.9	6.06e-01	0	43	0	125304832	60	4224
2026-01-24 11:14:34.20	149.98	9.46	-44.6	-45.9	24.9	6.06e-01	0	43	0	126877696	60	4250
2026-01-24 11:14:35.21	149.98	9.55	-44.6	-45.9	24.9	6.07e-01	0	43	0	128974848	60	4253
2026-01-24 11:14:36.22	149.98	9.64	-44.7	-46.0	24.8	6.04e-01	0	43	0	131072000	60	4330
2026-01-24 11:14:37.23	149.97	9.73	-44.4	-45.6	25.2	6.06e-01	0	43	0	132644864	60	4120
2026-01-24 11:14:38.23	149.97	9.83	-44.5	-45.8	25.0	6.07e-01	0	43	0	134742016	60	4202
2026-01-24 11:14:39.24	149.96	9.92	-44.6	-45.9	24.9	6.04e-01	0	43	0	136839168	60	4270
2026-01-24 11:14:40.25	149.96	10.02	-44.5	-45.8	25.0	6.07e-01	0	43	0	138412032	60	4219
2026-01-24 11:14:41.26	149.96	10.11	-44.5	-45.7	25.1	6.06e-01	0	43	0	140509184	60	4179
2026-01-24 11:14:42.27	149.95	10.21	-44.5	-45.8	25.0	6.07e-01	0	43	0	142082048	60	4228
2026-01-24 11:14:43.28	149.95	10.30	-44.3	-45.5	25.2	6.04e-01	0	43	0	144179200	60	4094
2026-01-24 11:14:44.29	149.94	10.40	-44.6	-45.9	25.0	6.07e-01	0	43	0	145752064	60	4269
2026-01-24 11:14:45.29	149.94	10.49	-44.5	-45.7	25.2	6.05e-01	0	43	0	147849216	60	4177
2026-01-24 11:14:46.30	149.93	10.59	-44.4	-45.7	25.2	6.07e-01	0	43	0	149946368	60	4168
2026-01-24 11:14:47.31	149.93	10.69	-44.3	-45.6	25.4	6.06e-01	0	43	0	151519232	60	4109
2026-01-24 11:14:48.32	149.92	10.78	-44.3	-45.6	25.3	6.04e-01	0	43	0	153616384	60	4113
2026-01-24 11:14:49.33	149.92	10.88	-44.4	-45.7	25.3	6.06e-01	0	43	0	155189248	60	4168
2026-01-24 11:14:50.33	149.92	10.98	-44.3	-45.5	25.4	6.05e-01	0	43	0	157286400	60	4066
2026-01-24 11:14:51.34	149.91	11.08	-44.3	-45.6	25.4	6.04e-01	0	43	0	159383552	60	4109
2026-01-24 11:14:52.35	149.91	11.18	-44.3	-45.5	25.4	6.06e-01	0	43	0	160956416	60	4098
2026-01-24 11:14:53.36	149.90	11.28	-44.2	-45.4	25.5	6.07e-01	0	43	0	163053568	60	4040
2026-01-24 11:14:54.37	149.90	11.38	-44.4	-45.7	25.3	6.07e-01	0	43	0	165150720	60	4156
2026-01-24 11:14:55.38	149.89	11.48	-44.2	-45.4	25.5	6.06e-01	0	43	0	166723584	60	4028
2026-01-24 11:14:56.39	149.89	11.58	-44.0	-45.2	25.8	6.06e-01	0	43	0	168820736	60	3930
2026-01-24 11:14:57.39	149.88	11.68	-44.1	-45.3	25.7	6.05e-01	0	43	0	170393600	60	3962
2026-01-24 11:14:58.40	149.88	11.78	-44.1	-45.4	25.6	6.03e-01	0	43	0	172490752	60	4007
2026-01-24 11:14:59.41	149.87	11.89	-44.2	-45.4	25.5	6.04e-01	0	43	0	174587904	60	4036
2026-01-24 11:15:00.42	149.87	11.99	-44.2	-45.4	25.6	6.04e-01	0	43	0	176160768	60	4024
2026-01-24 11:15:01.43	149.86	12.09	-44.1	-45.3	25.6	6.08e-01	0	43	0	178257920	59	4208
2026-01-24 11:15:02.43	149.85	12.20	-44.2	-45.4	25.5	6.06e-01	0	43	0	179830784	59	4288
2026-01-24 11:15:03.44	149.85	12.30	-44.1	-45.3	25.6	6.05e-01	0	43	0	181927936	59	4207
2026-01-24 11:15:04.45	149.84	12.41	-44.0	-45.1	25.7	6.06e-01	0	43	0	184025088	59	4142
2026-01-24 11:15:05.46	149.84	12.51	-44.1	-45.3	25.7	6.05e-01	0	43	0	185597952	59	4197
2026-01-24 11:15:06.47	149.83	12.62	-44.3	-45.5	25.4	6.04e-01	0	43	0	187695104	59	4304
2026-01-24 11:15:07.48	149.83	12.72	-44.1	-45.3	25.6	6.05e-01	0	43	0	189267968	59	4228
2026-01-24 11:15:08.49	149.82	12.83	-43.9	-45.1	25.8	6.05e-01	0	43	0	191365120	59	4103
2026-01-24 11:15:09.49	149.81	12.94	-43.9	-45.1	25.8	6.05e-01	0	43	0	193462272	59	4115
2026-01-24 11:15:10.50	149.81	13.05	-44.0	-45.2	25.8	6.05e-01	0	43	0	195035136	59	4155
2026-01-24 11:15:11.51	149.80	13.15	-43.9	-45.1	25.9	6.04e-01	0	43	0	197132288	59	4101
2026-01-24 11:15:12.52	149.80	13.26	-43.9	-45.0	25.9	6.06e-01	0	43	0	198705152	59	4084
2026-01-24 11:15:13.53	149.79	13.37	-43.8	-45.0	26.0	6.05e-01	0	43	0	200802304	59	4065
2026-01-24 11:15:14.53	149.78	13.48	-44.0	-45.2	25.7	6.05e-01	0	43	0	202899456	59	4178
2026-01-24 11:15:15.54	149.78	13.59	-44.1	-45.3	25.7	6.05e-01	0	43	0	204472320	59	4211
2026-01-24 11:15:16.55	149.77	13.71	-43.9	-45.1	25.8	6.06e-01	0	43	0	206569472	59	4133
2026-01-24 11:15:17.56	149.76	13.82	-44.2	-45.4	25.5	6.06e-01	0	43	0	208666624	59	4261
2026-01-24 11:15:18.57	149.76	13.93	-44.0	-45.2	25.8	6.05e-01	0	43	0	210239488	59	4148
2026-01-24 11:15:19.57	149.75	14.04	-44.3	-45.5	25.5	6.03e-01	0	43	0	212336640	59	4316
2026-01-24 11:15:20.58	149.74	14.16	-43.9	-45.1	25.9	6.08e-01	0	43	0	213909504	59	4119
2026-01-24 11:15:21.59	149.74	14.27	-44.2	-45.4	25.6	6.04e-01	0	43	0	216006656	59	4254
2026-01-24 11:15:22.59	149.73	14.38	-44.0	-45.2	25.9	6.06e-01	0	43	0	217579520	59	4147
2026-01-24 11:15:23.60	149.72	14.50	-43.9	-45.1	25.9	6.06e-01	0	43	0	219676672	59	4104
2026-01-24 11:15:24.61	149.72	14.62	-44.0	-45.1	25.9	6.05e-01	0	43	0	221773824	59	4139
2026-01-24 11:15:25.62	149.71	14.73	-44.1	-45.3	25.7	6.06e-01	0	43	0	223346688	59	4204
2026-01-24 11:15:26.63	149.70	14.85	-43.9	-45.1	25.9	6.07e-01	0	43	0	225443840	59	4110
2026-01-24 11:15:27.63	149.69	14.97	-44.0	-45.2	25.8	6.05e-01	0	43	0	227016704	59	4172
2026-01-24 11:15:28.64	149.69	15.09	-44.0	-45.2	25.9	6.06e-01	0	43	0	229113856	59	4156
2026-01-24 11:15:29.65	149.68	15.21	-44.1	-45.3	25.7	6.05e-01	0	43	0	231211008	59	4217
2026-01-24 11:15:30.66	149.67	15.33	-44.0	-45.2	25.8	6.05e-01	0	43	0	232783872	59	4179
2026-01-24 11:15:31.67	149.66	15.45	-44.1	-45.3	25.8	6.06e-01	0	43	0	234881024	59	4196
2026-01-24 11:15:32.67	149.66	15.57	-44.0	-45.2	25.8	6.04e-01	0	43	0	236978176	59	4177
2026-01-24 11:15:33.68	149.65	15.69	-43.9	-45.1	25.9	6.05e-01	0	43	0	238551040	59	4120
2026-01-24 11:15:34.69	149.64	15.81	-43.9	-45.1	25.9	6.04e-01	0	43	0	240648192	59	4115
2026-01-24 11:15:35.70	149.63	15.93	-43.8	-45.0	26.0	6.04e-01	0	43	0	242221056	59	4081
2026-01-24 11:15:36.71	149.62	16.06	-43.9	-45.0	26.0	6.05e-01	0	43	0	244318208	59	4088
2026-01-24 11:15:37.72	149.62	16.18	-43.9	-45.0	26.1	6.04e-01	0	43	0	245891072	59	4080
2026-01-24 11:15:38.72	149.61	16.31	-44.0	-45.2	25.9	6.04e-01	0	43	0	247988224	59	4152
2026-01-24 11:15:39.73	149.60	16.43	-43.9	-45.1	26.0	6.07e-01	0	43	0	250085376	59	4107
2026-01-24 11:15:40.74	149.59	16.56	-43.9	-45.1	26.0	6.07e-01	0	43	0	251658240	59	4109
2026-01-24 11:15:41.75	149.58	16.69	-43.9	-45.0	26.0	6.05e-01	0	43	0	253755392	59	4095
2026-01-24 11:15:42.75	149.57	16.82	-43.8	-44.9	26.2	6.03e-01	0	43	0	255852544	59	4041
2026-01-24 11:15:43.76	149.56	16.94	-43.7	-44.9	26.2	6.04e-01	0	43	0	257425408	59	4009
2026-01-24 11:15:44.77	149.55	17.07	-43.6	-44.8	26.3	6.07e-01	0	43	0	259522560	59	3968
2026-01-24 11:15:45.78	149.54	17.21	-43.7	-44.9	26.2	6.04e-01	0	43	0	261095424	59	4022
2026-01-24 11:15:46.79	149.53	17.34	-43.8	-45.0	26.0	6.05e-01	0	43	0	263192576	59	4080
2026-01-24 11:15:47.79	149.53	17.47	-43.8	-44.9	26.2	6.03e-01	0	43	0	265289728	59	4038
2026-01-24 11:15:48.80	149.52	17.60	-43.7	-44.9	26.3	6.05e-01	0	43	0	266862592	59	4009
2026-01-24 11:15:49.81	149.51	17.73	-43.8	-44.9	26.2	6.07e-01	0	43	0	268959744	59	4034
2026-01-24 11:15:50.82	149.50	17.87	-43.8	-45.0	26.1	6.04e-01	0	43	0	270532608	59	4063
2026-01-24 11:15:51.83	149.49	18.00	-43.8	-45.0	26.1	6.06e-01	0	43	0	272629760	59	4069
2026-01-24 11:15:52.83	149.48	18.14	-43.8	-45.0	26.1	6.02e-01	0	43	0	274202624	59	4068
2026-01-24 11:15:53.84	149.47	18.28	-43.7	-44.9	26.2	6.05e-01	0	43	0	276299776	59	4017
2026-01-24 11:15:54.85	149.45	18.41	-43.8	-44.9	26.2	6.06e-01	0	43	0	278396928	59	4038
2026-01-24 11:15:55.86	149.44	18.55	-43.8	-44.9	26.2	6.02e-01	0	43	0	280494080	59	4050
2026-01-24 11:15:56.87	149.43	18.69	-43.9	-45.1	26.1	6.04e-01	0	43	0	282066944	59	4109
2026-01-24 11:15:57.87	149.42	18.83	-44.0	-45.1	26.1	6.04e-01	0	43	0	284164096	59	4131
2026-01-24 11:15:58.88	149.41	18.97	-43.9	-45.1	26.1	6.05e-01	0	43	0	285736960	59	4121
2026-01-24 11:15:59.89	149.40	19.11	-44.0	-45.1	26.1	6.08e-01	0	43	0	287834112	59	4135
2026-01-24 11:16:00.90	149.39	19.26	-44.1	-45.3	26.0	6.04e-01	0	43	0	289406976	59	4194
2026-01-24 11:16:01.91	149.38	19.40	-44.1	-45.3	25.9	6.07e-01	0	43	0	291504128	59	4210
2026-01-24 11:16:02.91	149.37	19.55	-43.9	-45.1	26.1	6.04e-01	0	43	0	293601280	59	4109
2026-01-24 11:16:03.92	149.36	19.69	-44.1	-45.2	26.0	6.06e-01	0	43	0	295174144	59	4180
2026-01-24 11:16:04.93	149.34	19.84	-44.1	-45.2	26.0	6.05e-01	0	43	0	297271296	59	4178
2026-01-24 11:16:05.94	149.33	19.99	-44.1	-45.2	26.0	6.05e-01	0	43	0	298844160	59	4178
2026-01-24 11:16:06.95	149.32	20.13	-44.2	-45.4	25.9	6.02e-01	0	43	0	300941312	59	4253
2026-01-24 11:16:07.95	149.31	20.28	-44.1	-45.3	26.0	6.06e-01	0	43	0	303038464	59	4219
2026-01-24 11:16:08.96	149.29	20.43	-44.2	-45.4	25.8	6.05e-01	0	43	0	304611328	59	4277
2026-01-24 11:16:09.97	149.28	20.58	-44.2	-45.4	25.8	6.04e-01	0	43	0	306708480	59	4273
2026-01-24 11:16:10.97	149.27	20.74	-44.2	-45.4	25.8	6.06e-01	0	43	0	308805632	59	4280
2026-01-24 11:16:11.98	149.26	20.89	-44.4	-45.5	25.7	6.04e-01	0	43	0	310378496	59	4338
2026-01-24 11:16:12.99	149.24	21.04	-44.4	-45.6	25.7	6.03e-01	0	43	0	312475648	59	4348
2026-01-24 11:16:13.99	149.23	21.20	-44.5	-45.7	25.6	6.04e-01	0	43	0	314048512	59	4424
2026-01-24 11:16:15.00	149.22	21.36	-44.5	-45.7	25.6	6.04e-01	0	43	0	316145664	59	4402
2026-01-24 11:16:16.00	149.20	21.51	-44.4	-45.5	25.7	6.04e-01	0	43	0	317718528	59	4339
2026-01-24 11:16:17.01	149.19	21.67	-44.3	-45.5	25.8	6.04e-01	0	43	0	319815680	59	4317
2026-01-24 11:16:18.02	149.17	21.83	-44.3	-45.5	25.8	6.06e-01	0	43	0	321912832	59	4305
2026-01-24 11:16:19.03	149.16	21.99	-44.2	-45.4	25.9	6.05e-01	0	43	0	323485696	59	4275
2026-01-24 11:16:20.03	149.15	22.15	-44.3	-45.5	25.8	6.05e-01	0	43	0	325582848	59	4310
2026-01-24 11:16:21.04	149.13	22.32	-44.3	-45.5	25.9	6.05e-01	0	43	0	327680000	59	4295
2026-01-24 11:16:22.05	149.12	22.48	-44.2	-45.4	25.9	6.05e-01	0	43	0	329252864	59	4275
2026-01-24 11:16:23.06	149.10	22.65	-44.3	-45.5	25.9	6.06e-01	0	43	0	331350016	59	4309
2026-01-24 11:16:24.07	149.09	22.81	-44.3	-45.5	25.8	6.05e-01	0	43	0	332922880	59	4328
2026-01-24 11:16:25.07	149.07	22.98	-44.4	-45.6	25.8	6.05e-01	0	43	0	335020032	59	4357
2026-01-24 11:16:26.08	149.05	23.15	-44.3	-45.5	25.8	6.06e-01	0	43	0	337117184	59	4336
2026-01-24 11:16:27.09	149.04	23.32	-44.2	-45.4	26.0	6.05e-01	0	43	0	338690048	59	4256
2026-01-24 11:16:28.10	149.02	23.49	-44.2	-45.3	26.0	6.06e-01	0	43	0	340787200	59	4229
2026-01-24 11:16:29.10	149.01	23.66	-44.2	-45.3	26.0	6.03e-01	0	43	0	342360064	59	4236
2026-01-24 11:16:30.11	148.99	23.84	-44.1	-45.3	26.1	6.06e-01	0	43	0	344457216	59	4195
2026-01-24 11:16:31.12	148.97	24.01	-44.1	-45.2	26.1	6.08e-01	0	43	0	346030080	59	4180
2026-01-24 11:16:32.13	148.96	24.19	-44.1	-45.2	26.1	6.04e-01	0	43	0	348127232	59	4192
2026-01-24 11:16:33.14	148.94	24.37	-44.0	-45.1	26.2	6.06e-01	0	43	0	350224384	59	4139
2026-01-24 11:16:34.15	148.92	24.54	-44.0	-45.2	26.2	6.07e-01	0	43	0	352321536	59	4161
2026-01-24 11:16:35.15	148.90	24.72	-44.1	-45.3	26.1	6.06e-01	0	43	0	353894400	59	4205
2026-01-24 11:16:36.16	148.88	24.91	-44.1	-45.3	26.1	6.06e-01	0	43	0	355991552	59	4218
2026-01-24 11:16:37.17	148.87	25.09	-44.2	-45.4	26.0	6.06e-01	0	43	0	357564416	59	4246
2026-01-24 11:16:38.18	148.85	25.27	-44.1	-45.2	26.1	6.03e-01	0	43	0	359661568	59	4187
2026-01-24 11:16:39.19	148.83	25.46	-44.3	-45.5	25.9	6.04e-01	0	43	0	361234432	59	4311
2026-01-24 11:16:40.19	148.81	25.65	-44.3	-45.5	25.9	6.03e-01	0	43	0	363331584	59	4295
2026-01-24 11:16:41.20	148.79	25.83	-44.3	-45.4	26.0	6.05e-01	0	43	0	365428736	59	4290
2026-01-24 11:16:42.21	148.77	26.02	-44.3	-45.5	25.9	6.08e-01	0	43	0	367001600	59	4318
2026-01-24 11:16:43.22	148.75	26.22	-44.3	-45.5	26.0	6.07e-01	0	43	0	369098752	59	4301
2026-01-24 11:16:44.23	148.73	26.41	-44.1	-45.3	26.1	6.05e-01	0	43	0	370671616	59	4201
2026-01-24 11:16:45.23	148.71	26.60	-44.1	-45.3	26.1	6.07e-01	0	43	0	372768768	59	4222
2026-01-24 11:16:46.24	148.69	26.80	-44.0	-45.1	26.3	6.04e-01	0	43	0	374865920	59	4126
2026-01-24 11:16:47.25	148.67	27.00	-44.0	-45.1	26.3	6.06e-01	0	43	0	376438784	59	4126
2026-01-24 11:16:48.25	148.65	27.19	-43.7	-44.9	26.5	6.07e-01	0	43	0	378535936	59	4008
2026-01-24 11:16:49.26	148.62	27.40	-43.8	-45.0	26.5	6.02e-01	0	43	0	380633088	59	4056
2026-01-24 11:16:50.27	148.60	27.60	-43.8	-45.0	26.4	6.06e-01	0	43	0	382205952	59	4056
2026-01-24 11:16:51.28	148.58	27.80	-43.8	-45.0	26.5	6.06e-01	0	43	0	384303104	59	4059
2026-01-24 11:16:52.29	148.56	28.01	-43.9	-45.0	26.5	6.05e-01	0	43	0	385875968	59	4070
2026-01-24 11:16:53.29	148.53	28.21	-43.9	-45.0	26.4	6.04e-01	0	43	0	387973120	59	4081
2026-01-24 11:16:54.30	148.51	28.42	-43.8	-44.9	26.5	6.05e-01	0	43	0	389545984	59	4039
2026-01-24 11:16:55.31	148.48	28.63	-43.8	-44.9	26.5	6.04e-01	0	43	0	391643136	59	4019
2026-01-24 11:16:56.32	148.46	28.85	-43.5	-44.7	26.7	6.05e-01	0	43	0	393740288	59	3918
2026-01-24 11:16:57.33	148.44	29.06	-43.6	-44.7	26.7	6.05e-01	0	43	0	395313152	59	3929
2026-01-24 11:16:58.33	148.41	29.27	-43.5	-44.7	26.7	6.05e-01	0	43	0	397410304	59	3918
2026-01-24 11:16:59.34	148.39	29.49	-43.6	-44.7	26.7	6.05e-01	0	43	0	399507456	59	3947
2026-01-24 11:17:00.35	148.36	29.71	-43.7	-44.8	26.6	6.07e-01	0	43	0	401080320	59	3971
2026-01-24 11:17:01.36	148.33	29.93	-43.6	-44.7	26.7	6.05e-01	0	43	0	403177472	59	3945
2026-01-24 11:17:02.37	148.31	30.16	-43.6	-44.7	26.7	6.04e-01	0	43	0	404750336	59	3950
2026-01-24 11:17:03.37	148.28	30.38	-43.7	-44.8	26.6	6.05e-01	0	43	0	406847488	59	3973
2026-01-24 11:17:04.38	148.25	30.61	-43.7	-44.8	26.6	6.05e-01	0	43	0	408944640	59	3979
2026-01-24 11:17:05.39	148.22	30.83	-43.6	-44.7	26.7	6.04e-01	0	43	0	410517504	59	3947
2026-01-24 11:17:06.40	148.19	31.07	-43.7	-44.8	26.6	6.04e-01	0	43	0	412614656	59	3990
2026-01-24 11:17:07.41	148.16	31.30	-43.6	-44.7	26.7	6.05e-01	0	43	0	414187520	59	3957
2026-01-24 11:17:08.41	148.14	31.53	-43.6	-44.7	26.7	6.05e-01	0	43	0	416284672	59	3948
2026-01-24 11:17:09.42	148.11	31.77	-43.6	-44.6	26.7	6.03e-01	0	43	0	417857536	59	3913
2026-01-24 11:17:10.43	148.07	32.01	-43.6	-44.7	26.8	6.04e-01	0	43	0	419954688	59	3928
2026-01-24 11:17:11.44	148.04	32.25	-43.6	-44.7	26.8	6.04e-01	0	43	0	422051840	59	3933
2026-01-24 11:17:12.45	148.01	32.49	-43.9	-45.0	26.6	6.04e-01	0	43	0	424148992	59	4062
2026-01-24 11:17:13.45	147.98	32.73	-43.9	-45.1	26.4	6.03e-01	0	43	0	425721856	59	4107
2026-01-24 11:17:14.46	147.95	32.98	-43.9	-45.1	26.4	6.06e-01	0	43	0	427819008	59	4105
2026-01-24 11:17:15.47	147.91	33.23	-44.0	-45.1	26.4	6.05e-01	0	43	0	429391872	59	4115
2026-01-24 11:17:16.48	147.88	33.48	-43.8	-44.9	26.6	6.06e-01	0	43	0	431489024	59	4030
2026-01-24 11:17:17.49	147.84	33.73	-43.9	-45.0	26.6	6.05e-01	0	43	0	433061888	59	4060
2026-01-24 11:17:18.49	147.81	33.99	-44.1	-45.3	26.3	6.06e-01	0	43	0	435159040	59	4213
2026-01-24 11:17:19.50	147.77	34.25	-44.4	-45.6	26.0	6.06e-01	0	43	0	437256192	59	4360
2026-01-24 11:17:20.51	147.74	34.51	-44.5	-45.7	25.9	6.05e-01	0	43	0	438829056	59	4431
2026-01-24 11:17:21.52	147.70	34.77	-44.6	-45.8	25.8	6.05e-01	0	43	0	440926208	59	4463
2026-01-24 11:17:22.53	147.66	35.03	-44.7	-45.9	25.7	6.04e-01	0	43	0	442499072	59	4502
2026-01-24 11:17:23.53	147.62	35.30	-44.9	-46.1	25.7	6.03e-01	0	43	0	444596224	60	4361
2026-01-24 11:17:24.54	147.58	35.57	-45.1	-46.3	25.5	6.06e-01	0	43	0	446693376	60	4471
2026-01-24 11:17:25.55	147.54	35.84	-45.1	-46.3	25.5	6.04e-01	0	43	0	448266240	60	4473
2026-01-24 11:17:26.56	147.50	36.12	-45.1	-46.4	25.4	6.07e-01	0	43	0	450363392	60	4496
2026-01-24 11:17:27.57	147.46	36.39	-45.3	-46.6	25.3	6.06e-01	0	43	0	452460544	61	4341
2026-01-24 11:17:28.57	147.42	36.67	-45.3	-46.6	25.3	6.04e-01	0	43	0	454033408	61	4344
2026-01-24 11:17:29.58	147.38	36.95	-45.2	-46.4	25.4	6.07e-01	0	43	0	456130560	61	4269
2026-01-24 11:17:30.59	147.33	37.24	-45.3	-46.6	25.3	6.05e-01	0	43	0	457703424	61	4362
2026-01-24 11:17:31.60	147.29	37.53	-45.6	-46.8	25.0	6.03e-01	0	43	0	459800576	61	4492
2026-01-24 11:17:32.61	147.24	37.82	-45.6	-46.9	24.9	6.05e-01	0	43	0	461373440	61	4543
2026-01-24 11:17:33.61	147.20	38.11	-45.6	-46.9	25.1	6.03e-01	0	43	0	463470592	62	4266
2026-01-24 11:17:34.62	147.15	38.40	-45.7	-47.0	25.0	6.07e-01	0	43	0	465567744	62	4292
2026-01-24 11:17:35.63	147.10	38.70	-45.8	-47.1	24.8	6.06e-01	0	43	0	467140608	62	4375
2026-01-24 11:17:36.64	147.05	39.00	-45.8	-47.1	24.9	6.04e-01	0	43	0	469237760	62	4362
2026-01-24 11:17:37.65	147.00	39.30	-45.9	-47.2	24.7	6.07e-01	0	43	0	471334912	62	4398
2026-01-24 11:17:38.65	146.95	39.61	-45.8	-47.1	24.9	6.06e-01	0	43	0	472907776	62	4345
2026-01-24 11:17:39.66	146.90	39.92	-45.6	-46.9	25.0	6.05e-01	0	43	0	475004928	62	4246
2026-01-24 11:17:40.67	146.84	40.23	-45.3	-46.6	25.3	6.06e-01	0	43	0	476577792	62	4114
2026-01-24 11:17:41.68	146.79	40.54	-45.1	-46.4	25.6	6.06e-01	0	43	0	478674944	62	4005
2026-01-24 11:17:42.69	146.73	40.86	-45.2	-46.4	25.4	6.06e-01	0	43	0	480772096	62	4044
2026-01-24 11:17:43.69	146.67	41.18	-45.1	-46.3	25.6	6.06e-01	0	43	0	482344960	62	3991
2026-01-24 11:17:44.70	146.62	41.50	-45.3	-46.5	25.4	6.05e-01	0	43	0	484442112	62	4098
2026-01-24 11:17:45.71	146.56	41.83	-45.4	-46.6	25.3	6.05e-01	0	43	0	486014976	62	4123
2026-01-24 11:17:46.72	146.50	42.16	-45.4	-46.7	25.2	6.08e-01	0	43	0	488112128	62	4178
2026-01-24 11:17:47.73	146.43	42.49	-44.8	-46.0	25.8	6.06e-01	0	43	0	489684992	61	4085
2026-01-24 11:17:48.73	146.37	42.82	-44.4	-45.5	26.3	6.06e-01	0	43	0	491782144	60	4079
2026-01-24 11:17:49.74	146.30	43.16	-44.5	-45.7	26.1	6.08e-01	0	43	0	493879296	60	4155
2026-01-24 11:17:50.75	146.24	43.51	-44.6	-45.8	26.1	6.05e-01	0	43	0	495452160	60	4210
2026-01-24 11:17:51.75	146.17	43.85	-44.4	-45.5	26.3	6.06e-01	0	43	0	497549312	60	4093
2026-01-24 11:17:52.76	146.10	44.20	-44.4	-45.6	26.2	6.06e-01	0	43	0	499646464	60	4108
2026-01-24 11:17:53.77	146.03	44.55	-44.2	-45.3	26.4	6.05e-01	0	43	0	501219328	60	4002
2026-01-24 11:17:54.78	145.95	44.90	-44.1	-45.3	26.5	6.04e-01	0	43	0	503316480	60	3965
2026-01-24 11:17:55.79	145.88	45.26	-44.0	-45.2	26.4	6.04e-01	0	43	0	504889344	59	4154
2026-01-24 11:17:56.79	145.80	45.62	-44.1	-45.2	26.5	6.05e-01	0	43	0	506986496	59	4173
2026-01-24 11:17:57.80	145.72	45.99	-44.4	-45.6	26.1	6.05e-01	0	43	0	509083648	59	4356
2026-01-24 11:17:58.81	145.64	46.35	-44.4	-45.5	25.6	6.04e-01	0	43	0	510656512	59	4333
2026-01-24 11:17:59.82	145.56	46.73	-44.0	-45.1	26.5	6.03e-01	0	43	0	512753664	59	4114
2026-01-24 11:18:00.83	145.48	47.10	-44.1	-45.3	26.4	6.08e-01	0	43	0	514326528	59	4195
2026-01-24 11:18:01.83	145.39	47.48	-44.3	-45.4	26.3	6.06e-01	0	43	0	516423680	59	4273
2026-01-24 11:18:02.84	145.30	47.86	-44.3	-45.5	26.2	6.05e-01	0	43	0	518520832	59	4299
2026-01-24 11:18:03.85	145.21	48.25	-44.5	-45.7	26.0	6.06e-01	0	43	0	520093696	59	4409
2026-01-24 11:18:04.86	145.11	48.63	-44.1	-45.3	26.3	6.04e-01	0	43	0	522190848	59	4206
2026-01-24 11:18:05.86	145.02	49.02	-44.2	-45.3	26.3	6.04e-01	0	43	0	523763712	59	4218
2026-01-24 11:18:06.87	144.92	49.42	-44.2	-45.3	26.4	6.05e-01	0	43	0	525860864	59	4225
2026-01-24 11:18:07.88	144.82	49.82	-44.0	-45.1	26.5	6.04e-01	0	43	0	527958016	59	4144
2026-01-24 11:18:08.89	144.71	50.22	-44.0	-45.1	26.5	6.05e-01	0	43	0	529530880	59	4140
2026-01-24 11:18:09.90	144.60	50.63	-43.8	-45.0	26.7	6.03e-01	0	43	0	531628032	59	4056
2026-01-24 11:18:10.91	144.49	51.04	-43.7	-44.8	26.8	6.06e-01	0	43	0	533200896	59	3964
2026-01-24 11:18:11.92	144.38	51.46	-43.7	-44.8	26.8	6.07e-01	0	43	0	535298048	59	4001
2026-01-24 11:18:12.93	144.26	51.87	-43.7	-44.8	26.9	6.04e-01	0	42	0	537395200	59	3967
2026-01-24 11:18:13.93	144.14	52.29	-43.5	-44.6	27.0	6.03e-01	0	43	0	538968064	59	3901
2026-01-24 11:18:14.94	144.02	52.72	-43.4	-44.5	27.2	6.05e-01	0	43	0	541065216	58	4053
2026-01-24 11:18:15.95	143.89	53.15	-43.3	-44.4	27.2	6.05e-01	0	43	0	543162368	58	4012
2026-01-24 11:18:16.96	143.75	53.58	-43.4	-44.5	27.1	6.04e-01	0	43	0	544735232	58	4072
2026-01-24 11:18:17.97	143.62	54.02	-43.1	-44.2	27.4	6.07e-01	0	43	0	546832384	58	3938
2026-01-24 11:18:18.97	143.48	54.45	-43.3	-44.4	27.2	6.04e-01	0	43	0	548405248	58	4017
2026-01-24 11:18:19.98	143.33	54.90	-43.5	-44.6	27.1	6.03e-01	0	43	0	550502400	58	4101
2026-01-24 11:18:20.99	143.18	55.34	-43.6	-44.7	27.0	6.05e-01	0	43	0	552075264	58	4153
2026-01-24 11:18:22.00	143.03	55.80	-43.6	-44.7	27.0	6.03e-01	0	43	0	554172416	58	4153
2026-01-24 11:18:23.00	142.87	56.25	-43.6	-44.7	26.9	6.06e-01	0	43	0	556269568	58	4182
2026-01-24 11:18:24.01	142.70	56.70	-44.2	-45.4	26.4	6.06e-01	0	43	0	557842432	58	4501
2026-01-24 11:18:25.02	142.53	57.17	-44.5	-45.7	26.0	6.05e-01	0	43	0	559939584	59	4411
2026-01-24 11:18:26.03	142.35	57.63	-44.3	-45.4	26.3	6.05e-01	0	43	0	561512448	59	4285
2026-01-24 11:18:27.04	142.17	58.10	-45.0	-46.2	25.7	6.06e-01	0	43	0	563609600	60	4402
2026-01-24 11:18:28.05	141.97	58.58	-44.7	-45.9	26.0	6.03e-01	0	43	0	565706752	60	4262
2026-01-24 11:18:29.05	141.78	59.05	-44.6	-45.7	26.2	6.05e-01	0	43	0	567279616	60	4181
2026-01-24 11:18:30.06	141.57	59.53	-45.0	-46.2	25.8	6.07e-01	0	43	0	569376768	60	4395
2026-01-24 11:18:31.07	141.36	60.01	-44.9	-46.1	25.8	6.04e-01	0	43	0	571473920	60	4350
2026-01-24 11:18:32.07	141.14	60.50	-45.1	-46.3	25.7	6.07e-01	0	43	0	573046784	60	4452
2026-01-24 11:18:33.08	140.91	60.99	-45.2	-46.5	25.5	6.05e-01	0	43	0	575143936	61	4298
2026-01-24 11:18:34.09	140.67	61.48	-45.3	-46.5	25.5	6.04e-01	0	43	0	576716800	61	4314
2026-01-24 11:18:35.10	140.42	61.98	-45.5	-46.7	25.3	6.07e-01	0	43	0	578813952	61	4436
2026-01-24 11:18:36.11	140.15	62.48	-45.6	-46.8	25.2	6.04e-01	0	43	0	580386816	61	4489
2026-01-24 11:18:37.11	139.88	62.98	-46.0	-47.3	24.8	6.07e-01	0	43	0	582483968	62	4453
2026-01-24 11:18:38.12	139.60	63.49	-46.0	-47.3	24.8	6.06e-01	0	43	0	584581120	62	4470
2026-01-24 11:18:39.13	139.30	64.00	-46.7	-48.1	23.8	6.05e-01	0	43	0	586153984	64	4347
2026-01-24 11:18:40.14	138.99	64.51	-46.5	-47.9	24.1	6.05e-01	0	43	0	588251136	64	4277
2026-01-24 11:18:41.15	138.67	65.03	-46.5	-47.9	24.1	6.06e-01	0	43	0	590348288	64	4279
2026-01-24 11:18:42.16	138.33	65.55	-47.3	-48.9	23.3	6.05e-01	0	43	0	591921152	65	4498
2026-01-24 11:18:43.16	137.97	66.06	-47.3	-48.8	23.3	6.05e-01	0	43	0	594018304	65	4462
2026-01-24 11:18:44.17	137.60	66.59	-47.9	-49.5	22.7	6.06e-01	0	43	0	595591168	66	4569
2026-01-24 11:18:45.18	137.20	67.11	-48.0	-49.6	22.6	6.06e-01	0	43	0	597688320	66	4625
2026-01-24 11:18:46.19	136.79	67.64	-48.3	-50.0	22.1	6.04e-01	0	43	0	599785472	67	4598
2026-01-24 11:18:47.20	136.35	68.18	-47.9	-49.5	22.7	6.05e-01	0	43	0	601358336	67	4298
2026-01-24 11:18:48.21	135.89	68.71	-48.5	-50.3	21.9	6.07e-01	0	43	0	603455488	67	4743
2026-01-24 11:18:49.21	135.40	69.24	-48.2	-49.8	22.3	6.05e-01	0	43	0	605028352	67	4491
2026-01-24 11:18:50.22	134.89	69.78	-48.3	-50.0	22.1	6.05e-01	0	43	0	607125504	67	4576
2026-01-24 11:18:51.23	134.34	70.32	-48.5	-50.2	22.0	6.07e-01	0	43	0	608698368	67	4701
2026-01-24 11:18:52.24	133.76	70.86	-47.8	-49.4	22.8	6.04e-01	0	43	0	610795520	67	4248
2026-01-24 11:18:53.25	133.15	71.40	-47.7	-49.2	22.9	6.07e-01	0	43	0	612892672	67	4185
2026-01-24 11:18:54.25	132.50	71.93	-47.8	-49.4	22.8	6.05e-01	0	43	0	614989824	67	4287
2026-01-24 11:18:55.26	131.80	72.48	-47.3	-48.8	23.3	6.05e-01	0	43	0	616562688	66	4222
2026-01-24 11:18:56.27	131.06	73.02	-47.1	-48.6	23.6	6.05e-01	0	43	0	618659840	66	4114
2026-01-24 11:18:57.28	130.26	73.56	-47.5	-49.1	23.1	6.05e-01	0	43	0	620232704	65	4624
2026-01-24 11:18:58.28	129.41	74.10	-47.2	-48.6	23.5	6.04e-01	0	43	0	622329856	66	4141
2026-01-24 11:18:59.29	128.50	74.64	-47.3	-48.8	23.4	6.06e-01	0	43	0	623902720	66	4229
2026-01-24 11:19:00.30	127.51	75.17	-47.7	-49.3	22.9	6.07e-01	0	43	0	625999872	66	4476
2026-01-24 11:19:01.30	126.46	75.70	-47.5	-49.1	23.2	6.05e-01	0	43	0	628097024	66	4354
2026-01-24 11:19:02.31	125.31	76.24	-47.3	-48.8	23.4	6.04e-01	0	43	0	629669888	66	4199
2026-01-24 11:19:03.32	124.06	76.77	-47.1	-48.6	23.5	6.07e-01	0	43	0	631767040	66	4101
2026-01-24 11:19:04.33	122.71	77.29	-46.9	-48.4	23.8	6.06e-01	0	43	0	633339904	65	4250
2026-01-24 11:19:05.34	121.24	77.81	-46.2	-47.5	24.5	6.03e-01	0	43	0	635437056	64	4079
2026-01-24 11:19:06.35	119.63	78.32	-46.0	-47.3	24.7	6.05e-01	0	43	0	637534208	63	4222
2026-01-24 11:19:07.36	117.88	78.82	-45.8	-47.1	25.0	6.07e-01	0	43	0	639107072	63	4108
2026-01-24 11:19:08.36	115.98	79.31	-45.0	-46.2	25.9	6.05e-01	0	43	0	641204224	62	3928
2026-01-24 11:19:09.37	113.87	79.80	-45.5	-46.7	25.4	6.06e-01	0	43	0	643301376	62	4193
2026-01-24 11:19:10.38	111.55	80.26	-45.2	-46.4	25.7	6.04e-01	0	43	0	644874240	62	4051
2026-01-24 11:19:11.39	109.00	80.72	-44.8	-45.9	26.1	6.05e-01	0	43	0	646971392	61	4026
2026-01-24 11:19:12.39	106.21	81.14	-46.0	-47.3	25.1	6.06e-01	0	43	0	648544256	62	4449
2026-01-24 11:19:13.40	103.12	81.56	-44.8	-45.9	26.2	6.05e-01	0	43	0	650641408	61	4027
2026-01-24 11:19:14.41	99.71	81.94	-45.5	-46.7	25.5	6.05e-01	0	43	0	652214272	61	4426
2026-01-24 11:19:15.42	95.97	82.29	-45.1	-46.3	25.8	6.03e-01	0	43	0	654311424	61	4221
2026-01-24 11:19:16.43	91.89	82.61	-45.3	-46.5	25.7	6.06e-01	0	43	0	656408576	61	4323
2026-01-24 11:19:17.43	87.50	82.89	-45.0	-46.2	26.0	6.05e-01	0	43	0	657981440	61	4163
2026-01-24 11:19:18.44	82.74	83.12	-45.4	-46.6	25.6	6.05e-01	0	43	0	660078592	61	4376
2026-01-24 11:19:19.45	77.68	83.31	-45.0	-46.2	25.9	6.06e-01	0	43	0	662175744	61	4170
2026-01-24 11:19:20.46	72.38	83.44	-45.1	-46.3	25.8	6.05e-01	0	43	0	663748608	61	4220
2026-01-24 11:19:21.47	66.91	83.51	-44.9	-46.1	26.0	6.04e-01	0	43	0	665845760	61	4132
2026-01-24 11:19:22.47	61.42	83.52	-45.1	-46.3	25.9	6.07e-01	0	43	0	667418624	61	4220
2026-01-24 11:19:23.48	55.91	83.47	-45.1	-46.3	25.9	6.04e-01	0	43	0	669515776	61	4195
2026-01-24 11:19:24.49	50.53	83.36	-44.8	-46.0	26.1	6.04e-01	0	43	0	671612928	61	4066
2026-01-24 11:19:25.50	45.36	83.20	-45.3	-46.6	25.5	6.05e-01	0	43	0	673185792	61	4352
2026-01-24 11:19:26.51	40.48	82.99	-45.3	-46.6	25.6	6.05e-01	0	43	0	675282944	61	4347
2026-01-24 11:19:27.51	35.96	82.73	-45.3	-46.5	25.6	6.06e-01	0	43	0	676855808	61	4313
2026-01-24 11:19:28.52	31.74	82.43	-45.1	-46.2	25.9	6.04e-01	0	43	0	678952960	61	4182
2026-01-24 11:19:29.53	27.87	82.08	-45.4	-46.6	25.6	6.06e-01	0	43	0	680525824	61	4365
2026-01-24 11:19:30.54	24.33	81.71	-44.7	-45.9	26.1	6.04e-01	0	43	0	682622976	61	4020
2026-01-24 11:19:31.55	21.12	81.31	-45.0	-46.2	25.9	6.07e-01	0	43	0	684720128	61	4151
2026-01-24 11:19:32.55	18.23	80.89	-45.1	-46.3	25.8	6.04e-01	0	43	0	686817280	61	4218
2026-01-24 11:19:33.56	15.57	80.45	-44.9	-46.0	26.0	6.05e-01	0	43	0	688390144	61	4098
2026-01-24 11:19:34.57	13.16	79.98	-44.8	-46.0	26.2	6.05e-01	0	43	0	690487296	61	4053
2026-01-24 11:19:35.57	11.00	79.51	-45.7	-47.0	25.2	6.07e-01	0	43	0	692060160	62	4316
2026-01-24 11:19:36.58	9.00	79.02	-45.7	-47.0	25.2	6.05e-01	0	43	0	694157312	62	4315
2026-01-24 11:19:37.59	7.18	78.52	-46.1	-47.4	24.9	6.03e-01	0	43	0	695730176	62	4539
2026-01-24 11:19:38.60	5.52	78.02	-46.8	-48.2	24.1	6.04e-01	0	43	0	697827328	64	4407
2026-01-24 11:19:39.61	4.00	77.50	-46.8	-48.2	24.1	6.01e-01	0	43	0	699924480	64	4414
2026-01-24 11:19:40.61	2.62	76.98	-47.2	-48.7	23.6	6.01e-01	0	43	0	701497344	64	4687
2026-01-24 11:19:41.62	1.33	76.46	-47.9	-49.6	22.8	6.05e-01	0	43	0	703594496	66	4606
2026-01-24 11:19:42.63	0.14	75.93	-48.0	-49.7	22.6	6.00e-01	0	43	0	705167360	66	4665
2026-01-24 11:19:43.63	359.06	75.40	-47.3	-48.7	23.6	6.04e-01	0	43	0	707264512	66	4191
2026-01-24 11:19:44.64	358.04	74.86	-47.8	-49.4	23.0	6.00e-01	0	43	0	709361664	66	4509
2026-01-24 11:19:45.65	357.09	74.32	-48.3	-49.9	22.6	6.00e-01	0	43	0	710934528	67	4527
2026-01-24 11:19:46.66	356.22	73.78	-47.6	-49.1	23.4	6.02e-01	0	43	0	713031680	67	4120
2026-01-24 11:19:47.67	355.40	73.24	-47.9	-49.4	23.0	6.01e-01	0	43	0	715128832	67	4284
2026-01-24 11:19:48.67	354.64	72.71	-48.4	-50.1	22.4	6.02e-01	0	43	0	716701696	67	4650
2026-01-24 11:19:49.68	353.92	72.16	-47.7	-49.2	23.1	6.03e-01	0	43	0	718798848	67	4181
2026-01-24 11:19:50.69	353.25	71.62	-47.9	-49.5	23.0	6.03e-01	0	43	0	720371712	66	4556
2026-01-24 11:19:51.70	352.62	71.08	-48.5	-50.2	22.3	6.01e-01	0	43	0	722468864	67	4681
2026-01-24 11:19:52.71	352.03	70.54	-49.1	-50.9	21.5	6.00e-01	0	43	0	724041728	68	4803
2026-01-24 11:19:53.71	351.48	70.01	-48.6	-50.4	21.9	6.04e-01	0	43	0	726138880	69	4248
2026-01-24 11:19:54.72	350.95	69.47	-48.8	-50.6	21.8	6.02e-01	0	43	0	728236032	68	4603
2026-01-24 11:19:55.73	350.45	68.94	-49.8	-51.9	20.6	6.03e-01	0	43	0	729808896	70	4805
2026-01-24 11:19:56.74	349.98	68.40	-49.1	-50.9	21.3	6.04e-01	0	43	0	731906048	70	4257
2026-01-24 11:19:57.74	349.54	67.88	-48.6	-50.4	21.9	6.04e-01	0	43	0	734003200	69	4250
2026-01-24 11:19:58.75	349.11	67.35	-48.7	-50.5	21.8	6.01e-01	0	43	0	735576064	69	4323
2026-01-24 11:19:59.76	348.71	66.82	-48.8	-50.5	21.8	6.04e-01	0	43	0	737673216	69	4333
2026-01-24 11:20:00.77	348.33	66.30	-48.2	-49.9	22.4	6.04e-01	0	43	0	739246080	68	4244
2026-01-24 11:20:01.78	347.96	65.77	-48.0	-49.6	22.6	6.03e-01	0	43	0	741343232	68	4129
2026-01-24 11:20:02.79	347.61	65.25	-48.4	-50.1	22.2	6.00e-01	0	43	0	743440384	68	4381
2026-01-24 11:20:03.79	347.29	64.74	-47.9	-49.5	22.9	6.02e-01	0	43	0	745013248	67	4303
2026-01-24 11:20:04.80	346.97	64.23	-47.3	-48.8	23.5	6.02e-01	0	43	0	747110400	66	4223
2026-01-24 11:20:05.81	346.67	63.72	-46.6	-47.9	24.4	6.02e-01	0	43	0	748683264	65	4029
2026-01-24 11:20:06.82	346.38	63.21	-46.7	-48.0	24.2	6.04e-01	0	43	0	750780416	65	4092
2026-01-24 11:20:07.83	346.10	62.71	-47.4	-48.9	23.4	6.03e-01	0	43	0	752353280	65	4534
2026-01-24 11:20:08.83	345.84	62.21	-46.5	-47.9	24.3	6.04e-01	0	43	0	754450432	65	4012
2026-01-24 11:20:09.84	345.58	61.71	-46.0	-47.2	25.1	6.01e-01	0	43	0	756547584	63	4190
2026-01-24 11:20:10.85	345.34	61.22	-45.9	-47.1	25.2	6.06e-01	0	43	0	758644736	63	4145
2026-01-24 11:20:11.86	345.10	60.73	-46.2	-47.5	24.8	6.04e-01	0	43	0	760217600	63	4327
2026-01-24 11:20:12.86	344.88	60.24	-45.6	-46.8	25.4	6.02e-01	0	43	0	762314752	63	3996
2026-01-24 11:20:13.87	344.66	59.76	-45.6	-46.9	25.4	6.03e-01	0	43	0	763887616	63	4008
2026-01-24 11:20:14.88	344.45	59.28	-45.2	-46.3	25.9	6.02e-01	0	43	0	765984768	62	4000
2026-01-24 11:20:15.89	344.25	58.80	-45.3	-46.5	25.8	6.03e-01	0	43	0	767557632	62	4064
2026-01-24 11:20:16.89	344.06	58.33	-45.0	-46.2	26.0	6.01e-01	0	43	0	769654784	62	3926
2026-01-24 11:20:17.90	343.87	57.86	-44.9	-46.1	26.2	6.02e-01	0	43	0	771751936	61	4116
2026-01-24 11:20:18.91	343.69	57.40	-44.7	-45.8	26.2	6.05e-01	0	43	0	773324800	61	3999
2026-01-24 11:20:19.92	343.52	56.93	-44.1	-45.2	26.7	6.03e-01	0	43	0	775421952	59	4162
2026-01-24 11:20:20.93	343.35	56.47	-44.1	-45.2	26.7	6.01e-01	0	43	0	776994816	59	4176
2026-01-24 11:20:21.93	343.19	56.02	-43.6	-44.7	27.2	6.03e-01	0	43	0	779091968	59	3937
2026-01-24 11:20:22.94	343.03	55.57	-43.4	-44.5	27.4	6.03e-01	0	43	0	781189120	58	4072
2026-01-24 11:20:23.95	342.88	55.12	-43.4	-44.4	27.4	6.00e-01	0	43	0	782761984	58	4030
2026-01-24 11:20:24.96	342.73	54.68	-43.4	-44.4	27.3	6.03e-01	0	43	0	784859136	58	4043
2026-01-24 11:20:25.97	342.59	54.24	-43.2	-44.3	27.5	6.02e-01	0	43	0	786956288	58	3966
2026-01-24 11:20:26.97	342.45	53.80	-43.3	-44.3	27.5	6.02e-01	0	43	0	788529152	58	3991
2026-01-24 11:20:27.98	342.32	53.37	-43.5	-44.6	27.5	6.05e-01	0	43	0	790626304	58	4115
2026-01-24 11:20:28.99	342.19	52.94	-43.6	-44.7	27.3	6.01e-01	0	43	0	792199168	58	4160
2026-01-24 11:20:30.00	342.06	52.52	-43.9	-45.0	27.0	6.03e-01	0	43	0	794296320	58	4310
2026-01-24 11:20:31.01	341.94	52.09	-44.1	-45.2	26.7	6.00e-01	0	43	0	795869184	58	4433
2026-01-24 11:20:32.01	341.82	51.68	-43.8	-44.9	26.9	6.03e-01	0	43	0	797966336	58	4280
2026-01-24 11:20:33.02	341.70	51.26	-43.9	-44.9	27.0	6.02e-01	0	43	0	800063488	58	4285
2026-01-24 11:20:34.03	341.59	50.85	-44.1	-45.2	26.8	6.01e-01	0	43	0	801636352	58	4396
2026-01-24 11:20:35.03	341.48	50.45	-44.5	-45.6	26.4	6.03e-01	0	43	0	803733504	59	4380
2026-01-24 11:20:36.04	341.38	50.04	-44.6	-45.8	26.2	6.00e-01	0	43	0	805830656	59	4462
2026-01-24 11:20:37.05	341.27	49.64	-44.5	-45.6	26.4	6.02e-01	0	43	0	807403520	59	4376
2026-01-24 11:20:38.06	341.17	49.25	-44.5	-45.7	26.2	6.02e-01	0	43	0	809500672	59	4404
2026-01-24 11:20:39.07	341.08	48.85	-44.6	-45.8	26.4	6.05e-01	0	43	0	811073536	60	4206
2026-01-24 11:20:40.08	340.98	48.46	-44.6	-45.7	26.5	6.00e-01	0	43	0	813170688	60	4172
2026-01-24 11:20:41.09	340.89	48.08	-44.6	-45.7	26.5	6.04e-01	0	43	0	815267840	60	4177
2026-01-24 11:20:42.09	340.80	47.70	-44.5	-45.7	26.5	6.02e-01	0	43	0	816840704	60	4155
2026-01-24 11:20:43.10	340.71	47.32	-44.3	-45.4	26.6	6.01e-01	0	43	0	818937856	60	4030
2026-01-24 11:20:44.11	340.63	46.94	-44.4	-45.5	26.5	5.99e-01	0	43	0	820510720	60	4087
2026-01-24 11:20:45.12	340.54	46.57	-44.4	-45.5	26.6	6.01e-01	0	43	0	822607872	60	4088
2026-01-24 11:20:46.13	340.46	46.20	-44.4	-45.5	26.6	6.01e-01	0	43	0	824180736	60	4074
2026-01-24 11:20:47.14	340.38	45.84	-44.2	-45.4	26.7	6.02e-01	0	43	0	826277888	60	4008
2026-01-24 11:20:48.15	340.30	45.47	-44.2	-45.3	26.7	6.02e-01	0	43	0	828375040	60	3969
2026-01-24 11:20:49.15	340.23	45.12	-44.1	-45.2	26.8	6.03e-01	0	43	0	829947904	60	3940
2026-01-24 11:20:50.16	340.15	44.76	-44.1	-45.1	26.8	6.04e-01	0	43	0	832045056	59	4142
2026-01-24 11:20:51.17	340.08	44.41	-44.2	-45.3	26.6	6.04e-01	0	43	0	834142208	59	4224
2026-01-24 11:20:52.18	340.01	44.06	-44.5	-45.7	26.2	6.00e-01	0	43	0	835715072	59	4409
2026-01-24 11:20:53.19	339.94	43.72	-44.6	-45.8	26.2	6.03e-01	0	43	0	837812224	60	4212
2026-01-24 11:20:54.20	339.88	43.37	-44.8	-46.0	26.1	6.03e-01	0	43	0	839385088	60	4332
2026-01-24 11:20:55.21	339.81	43.03	-44.5	-45.7	26.2	6.03e-01	0	43	0	841482240	60	4158
2026-01-24 11:20:56.21	339.75	42.70	-44.6	-45.7	26.3	6.03e-01	0	43	0	843579392	60	4166
2026-01-24 11:20:57.22	339.68	42.37	-44.6	-45.7	26.3	6.03e-01	0	43	0	845152256	60	4177
2026-01-24 11:20:58.23	339.62	42.04	-44.8	-46.0	26.1	6.01e-01	0	43	0	847249408	60	4307
2026-01-24 11:20:59.24	339.56	41.71	-45.0	-46.2	25.9	6.01e-01	0	43	0	848822272	60	4400
2026-01-24 11:21:00.25	339.50	41.39	-45.1	-46.3	25.7	6.01e-01	0	43	0	850919424	60	4472
2026-01-24 11:21:01.25	339.45	41.07	-45.1	-46.3	25.7	6.00e-01	0	43	0	853016576	60	4480
2026-01-24 11:21:02.26	339.39	40.75	-45.3	-46.5	25.6	6.02e-01	0	43	0	854589440	61	4305
2026-01-24 11:21:03.27	339.33	40.43	-45.5	-46.7	25.3	6.04e-01	0	43	0	856686592	61	4437
2026-01-24 11:21:04.28	339.28	40.12	-45.5	-46.8	25.3	6.04e-01	0	43	0	858259456	61	4461
2026-01-24 11:21:05.29	339.23	39.81	-45.7	-46.9	25.1	6.02e-01	0	43	0	860356608	61	4526
2026-01-24 11:21:06.29	339.18	39.51	-45.9	-47.2	24.8	6.02e-01	0	43	0	862453760	62	4402
2026-01-24 11:21:07.30	339.13	39.20	-46.0	-47.3	24.8	6.01e-01	0	43	0	864026624	62	4469
2026-01-24 11:21:08.31	339.08	38.90	-45.9	-47.3	24.8	6.02e-01	0	43	0	866123776	62	4448
2026-01-24 11:21:09.32	339.03	38.60	-45.9	-47.3	24.8	6.03e-01	0	43	0	867696640	62	4449
2026-01-24 11:21:10.33	338.98	38.31	-45.9	-47.2	24.5	6.02e-01	0	43	0	869793792	62	4400
2026-01-24 11:21:11.34	338.93	38.02	-45.7	-47.0	25.0	6.01e-01	0	43	0	871890944	62	4311
2026-01-24 11:21:12.35	338.89	37.73	-45.6	-46.9	25.1	6.02e-01	0	43	0	873463808	62	4257
2026-01-24 11:21:13.35	338.84	37.44	-45.5	-46.7	25.4	6.05e-01	0	43	0	875560960	62	4166
2026-01-24 11:21:14.36	338.80	37.16	-45.4	-46.7	25.4	6.05e-01	0	43	0	877658112	62	4158
2026-01-24 11:21:15.37	338.75	36.87	-45.2	-46.4	25.6	6.00e-01	0	43	0	879230976	62	4050
2026-01-24 11:21:16.38	338.71	36.59	-44.9	-46.1	25.7	6.04e-01	0	43	0	881328128	61	4130
2026-01-24 11:21:17.39	338.67	36.32	-44.7	-45.9	26.0	6.03e-01	0	43	0	882900992	61	4025
2026-01-24 11:21:18.39	338.63	36.04	-44.6	-45.7	26.2	6.02e-01	0	43	0	884998144	61	3941
2026-01-24 11:21:19.40	338.59	35.77	-44.3	-45.4	26.5	6.02e-01	0	43	0	886571008	60	4037
2026-01-24 11:21:20.41	338.55	35.50	-44.4	-45.6	26.3	6.01e-01	0	43	0	888668160	60	4099
2026-01-24 11:21:21.42	338.51	35.23	-44.1	-45.3	26.6	6.02e-01	0	43	0	890765312	60	3963
2026-01-24 11:21:22.43	338.47	34.97	-44.3	-45.4	26.4	6.04e-01	0	43	0	892338176	60	4026
2026-01-24 11:21:23.43	338.44	34.71	-44.3	-45.4	26.4	6.00e-01	0	43	0	894435328	60	4042
2026-01-24 11:21:24.44	338.40	34.45	-44.2	-45.3	26.6	6.02e-01	0	43	0	896532480	60	3980
2026-01-24 11:21:25.45	338.36	34.19	-44.2	-45.4	26.5	6.01e-01	0	43	0	898105344	60	4018
2026-01-24 11:21:26.46	338.33	33.93	-44.1	-45.2	26.7	6.03e-01	0	43	0	900202496	60	3942
2026-01-24 11:21:27.47	338.29	33.68	-44.2	-45.4	26.5	6.03e-01	0	43	0	901775360	60	4009
2026-01-24 11:21:28.48	338.26	33.43	-43.9	-45.0	26.7	6.04e-01	0	43	0	903872512	59	4085
2026-01-24 11:21:29.48	338.23	33.18	-43.9	-45.1	26.7	6.02e-01	0	43	0	905969664	59	4108
2026-01-24 11:21:30.49	338.19	32.93	-43.8	-44.9	26.7	6.02e-01	0	43	0	907542528	59	4044
2026-01-24 11:21:31.50	338.16	32.69	-43.9	-45.0	26.7	6.02e-01	0	43	0	909639680	59	4067
2026-01-24 11:21:32.51	338.13	32.44	-43.6	-44.7	26.9	6.03e-01	0	43	0	911212544	59	3935
2026-01-24 11:21:33.52	338.10	32.20	-43.4	-44.5	27.1	6.03e-01	0	43	0	913309696	58	4069
2026-01-24 11:21:34.52	338.07	31.96	-43.5	-44.6	26.9	6.00e-01	0	43	0	914882560	58	4122
2026-01-24 11:21:35.53	338.04	31.73	-43.4	-44.5	27.0	6.04e-01	0	43	0	916979712	58	4073
2026-01-24 11:21:36.54	338.01	31.49	-43.1	-44.2	27.3	6.02e-01	0	43	0	919076864	58	3933
2026-01-24 11:21:37.55	337.98	31.26	-43.2	-44.2	27.4	6.02e-01	0	43	0	921174016	58	3942
2026-01-24 11:21:38.56	337.95	31.03	-43.3	-44.3	27.3	6.01e-01	0	43	0	922746880	58	3990
2026-01-24 11:21:39.57	337.92	30.80	-43.3	-44.4	27.1	6.05e-01	0	43	0	924844032	58	4010
2026-01-24 11:21:40.57	337.90	30.57	-43.5	-44.5	27.0	6.03e-01	0	43	0	926416896	58	4098
2026-01-24 11:21:41.58	337.87	30.35	-43.5	-44.6	27.0	6.02e-01	0	43	0	928514048	58	4129
2026-01-24 11:21:42.58	337.84	30.13	-43.6	-44.7	27.0	6.04e-01	0	43	0	930086912	58	4155
2026-01-24 11:21:43.59	337.82	29.91	-43.5	-44.6	27.0	6.02e-01	0	43	0	932184064	58	4144
2026-01-24 11:21:44.60	337.79	29.69	-43.6	-44.7	26.9	6.02e-01	0	43	0	934281216	58	4190
2026-01-24 11:21:45.61	337.76	29.47	-43.7	-44.9	26.8	6.00e-01	0	43	0	935854080	58	4249
2026-01-24 11:21:46.62	337.74	29.25	-43.8	-44.9	26.6	6.00e-01	0	43	0	937951232	58	4286
2026-01-24 11:21:47.63	337.71	29.04	-43.9	-45.0	26.6	6.01e-01	0	43	0	939524096	58	4318
2026-01-24 11:21:48.63	337.69	28.83	-43.8	-44.9	26.6	6.03e-01	0	43	0	941621248	58	4280
2026-01-24 11:21:49.64	337.67	28.62	-43.9	-45.0	26.5	6.01e-01	0	43	0	943718400	58	4312
2026-01-24 11:21:50.65	337.64	28.41	-43.9	-45.0	26.4	6.03e-01	0	43	0	945291264	58	4320
2026-01-24 11:21:51.66	337.62	28.20	-43.7	-44.8	26.6	6.02e-01	0	43	0	947388416	58	4224
2026-01-24 11:21:52.66	337.60	27.99	-43.8	-44.9	26.6	6.03e-01	0	43	0	949485568	58	4266
2026-01-24 11:21:53.67	337.58	27.79	-43.8	-44.9	26.6	6.03e-01	0	43	0	951058432	58	4254
2026-01-24 11:21:54.68	337.55	27.59	-43.7	-44.8	26.6	5.98e-01	0	43	0	953155584	58	4221
2026-01-24 11:21:55.69	337.53	27.39	-43.7	-44.8	26.7	6.02e-01	0	43	0	954728448	58	4220
2026-01-24 11:21:56.70	337.51	27.19	-43.8	-44.8	26.6	6.02e-01	0	43	0	956825600	58	4242
2026-01-24 11:21:57.71	337.49	26.99	-43.7	-44.8	26.6	6.01e-01	0	43	0	958398464	58	4216
2026-01-24 11:21:58.72	337.47	26.79	-43.9	-45.0	26.5	6.01e-01	0	43	0	960495616	58	4304
2026-01-24 11:21:59.73	337.45	26.60	-43.8	-44.9	26.6	6.03e-01	0	43	0	962592768	58	4254
2026-01-24 11:22:00.73	337.43	26.41	-43.8	-44.9	26.6	6.03e-01	0	43	0	964165632	58	4270
2026-01-24 11:22:01.74	337.41	26.21	-43.8	-44.9	26.6	6.02e-01	0	43	0	966262784	58	4255
2026-01-24 11:22:02.75	337.39	26.02	-43.8	-44.9	26.6	6.02e-01	0	43	0	968359936	58	4275
2026-01-24 11:22:03.76	337.37	25.83	-44.0	-45.1	26.4	6.03e-01	0	43	0	969932800	58	4354
2026-01-24 11:22:04.77	337.35	25.65	-44.1	-45.2	26.2	6.01e-01	0	43	0	972029952	58	4433
2026-01-24 11:22:05.78	337.33	25.46	-44.2	-45.4	26.1	6.02e-01	0	43	0	973602816	59	4261
2026-01-24 11:22:06.78	337.31	25.28	-44.4	-45.5	26.0	6.03e-01	0	43	0	975699968	59	4334
2026-01-24 11:22:07.79	337.29	25.09	-44.4	-45.6	25.9	6.01e-01	0	43	0	977797120	59	4377
2026-01-24 11:22:08.80	337.28	24.91	-44.5	-45.7	25.8	6.02e-01	0	43	0	979369984	59	4438
2026-01-24 11:22:09.81	337.26	24.73	-44.6	-45.8	25.8	6.04e-01	0	43	0	981467136	59	4463
2026-01-24 11:22:10.81	337.24	24.55	-44.7	-45.9	25.6	6.03e-01	0	43	0	983040000	59	4521
2026-01-24 11:22:11.82	337.22	24.38	-44.5	-45.8	25.7	6.02e-01	0	43	0	985137152	59	4446
2026-01-24 11:22:12.83	337.21	24.20	-44.5	-45.8	25.7	6.01e-01	0	43	0	986710016	59	4446
2026-01-24 11:22:13.84	337.19	24.02	-44.5	-45.7	25.7	6.03e-01	0	43	0	988807168	59	4438
2026-01-24 11:22:14.85	337.17	23.85	-44.5	-45.7	25.7	6.01e-01	0	43	0	990904320	59	4432
2026-01-24 11:22:15.85	337.16	23.68	-44.4	-45.6	25.8	6.00e-01	0	43	0	993001472	59	4368
2026-01-24 11:22:16.86	337.14	23.51	-44.6	-45.8	25.7	6.00e-01	0	43	0	994574336	59	4445
2026-01-24 11:22:17.87	337.13	23.34	-44.4	-45.6	25.8	6.02e-01	0	43	0	996671488	59	4366
2026-01-24 11:22:18.88	337.11	23.17	-44.4	-45.6	25.7	6.02e-01	0	43	0	998244352	59	4375
2026-01-24 11:22:19.89	337.10	23.00	-44.5	-45.7	25.6	6.03e-01	0	43	0	1000341504	59	4392
2026-01-24 11:22:20.89	337.08	22.83	-44.4	-45.6	25.9	6.01e-01	0	43	0	1001914368	59	4353
2026-01-24 11:22:21.90	337.07	22.67	-44.3	-45.5	25.9	6.03e-01	0	43	0	1004011520	59	4311
2026-01-24 11:22:22.91	337.05	22.50	-44.2	-45.4	26.0	6.02e-01	0	43	0	1006108672	59	4260
2026-01-24 11:22:23.92	337.04	22.34	-44.3	-45.5	25.9	6.02e-01	0	43	0	1007681536	59	4319
2026-01-24 11:22:24.93	337.02	22.18	-44.4	-45.6	25.8	6.02e-01	0	43	0	1009778688	59	4356
2026-01-24 11:22:25.94	337.01	22.02	-44.3	-45.5	25.9	6.01e-01	0	43	0	1011351552	59	4306
2026-01-24 11:22:26.95	337.00	21.86	-44.4	-45.5	25.8	6.02e-01	0	43	0	1013448704	59	4336
2026-01-24 11:22:27.95	336.98	21.70	-44.3	-45.4	25.9	6.03e-01	0	43	0	1015545856	59	4284
2026-01-24 11:22:28.96	336.97	21.54	-44.5	-45.7	25.8	6.00e-01	0	43	0	1017118720	59	4408
2026-01-24 11:22:29.97	336.96	21.38	-44.3	-45.4	26.0	6.02e-01	0	43	0	1019215872	59	4280
2026-01-24 11:22:30.98	336.94	21.23	-44.2	-45.4	26.1	6.03e-01	0	43	0	1021313024	59	4253
2026-01-24 11:22:31.99	336.93	21.07	-44.2	-45.3	26.1	6.00e-01	0	43	0	1022885888	59	4240
2026-01-24 11:22:33.00	336.92	20.92	-44.1	-45.2	26.2	6.04e-01	0	43	0	1024983040	59	4165
2026-01-24 11:22:34.01	336.90	20.77	-44.1	-45.3	26.1	6.03e-01	0	43	0	1026555904	59	4208
2026-01-24 11:22:35.01	336.89	20.62	-44.0	-45.2	26.2	6.01e-01	0	43	0	1028653056	59	4164
2026-01-24 11:22:36.02	336.88	20.46	-44.1	-45.2	26.2	6.03e-01	0	43	0	1030225920	59	4172
2026-01-24 11:22:37.03	336.87	20.32	-44.2	-45.4	26.0	6.03e-01	0	43	0	1032323072	59	4275
2026-01-24 11:22:38.04	336.86	20.17	-44.3	-45.4	25.9	6.01e-01	0	43	0	1034420224	59	4290
2026-01-24 11:22:39.05	336.84	20.02	-44.1	-45.3	26.0	6.01e-01	0	43	0	1036517376	59	4219
2026-01-24 11:22:40.05	336.83	19.87	-44.4	-45.6	25.8	6.02e-01	0	43	0	1038090240	59	4360
2026-01-24 11:22:41.06	336.82	19.73	-44.4	-45.6	25.8	6.03e-01	0	43	0	1040187392	59	4370
2026-01-24 11:22:42.07	336.81	19.58	-44.7	-45.9	25.5	6.04e-01	0	43	0	1041760256	59	4509
2026-01-24 11:22:43.08	336.80	19.44	-44.5	-45.7	25.7	6.01e-01	0	43	0	1043857408	59	4429
2026-01-24 11:22:44.09	336.79	19.30	-44.3	-45.6	25.8	6.03e-01	0	43	0	1045430272	59	4341
2026-01-24 11:22:45.10	336.78	19.15	-44.4	-45.6	25.7	6.04e-01	0	43	0	1047527424	59	4351
2026-01-24 11:22:46.11	336.77	19.01	-44.5	-45.7	25.6	6.04e-01	0	43	0	1049624576	59	4420
2026-01-24 11:22:47.11	336.76	18.87	-44.4	-45.6	25.7	6.02e-01	0	44	0	1051197440	59	4368
2026-01-24 11:22:48.12	336.75	18.73	-44.4	-45.7	25.7	6.02e-01	0	43	0	1053294592	59	4401
2026-01-24 11:22:49.13	336.74	18.59	-44.4	-45.7	25.7	6.01e-01	0	43	0	1054867456	59	4392
2026-01-24 11:22:50.14	336.73	18.46	-44.4	-45.6	25.7	6.03e-01	0	43	0	1056964608	59	4378
2026-01-24 11:22:51.15	336.72	18.32	-44.5	-45.7	25.7	6.04e-01	0	43	0	1059061760	59	4417
2026-01-24 11:22:52.16	336.71	18.18	-44.4	-45.6	25.7	6.02e-01	0	43	0	1060634624	59	4388
2026-01-24 11:22:53.17	336.70	18.05	-44.4	-45.6	25.7	6.03e-01	0	43	0	1062731776	59	4376
2026-01-24 11:22:54.17	336.69	17.91	-44.4	-45.6	25.7	6.04e-01	0	43	0	1064828928	59	4360
2026-01-24 11:22:55.18	336.68	17.78	-44.4	-45.6	25.6	6.03e-01	0	43	0	1066401792	59	4356
2026-01-24 11:22:56.19	336.67	17.65	-44.4	-45.6	25.6	6.01e-01	0	43	0	1068498944	59	4391
2026-01-24 11:22:57.20	336.66	17.51	-44.6	-45.9	25.4	6.04e-01	0	43	0	1070071808	59	4515
2026-01-24 11:22:58.21	336.65	17.38	-44.4	-45.6	25.6	6.02e-01	0	43	0	1072168960	59	4376
2026-01-24 11:22:59.21	336.64	17.25	-44.3	-45.5	25.7	6.02e-01	0	43	0	1073741824	59	4338
2026-01-24 11:23:00.22	336.63	17.12	-44.2	-45.4	25.9	6.01e-01	0	43	0	1075838976	59	4257
2026-01-24 11:23:01.23	336.62	17.00	-44.3	-45.5	25.8	6.04e-01	0	43	0	1077936128	59	4294
2026-01-24 11:23:02.24	336.61	16.87	-44.4	-45.6	25.6	6.03e-01	0	43	0	1079508992	59	4376
2026-01-24 11:23:03.25	336.61	16.74	-44.2	-45.4	25.9	6.02e-01	0	43	0	1081606144	59	4248
2026-01-24 11:23:04.25	336.60	16.61	-44.2	-45.4	25.8	6.05e-01	0	43	0	1083703296	59	4266
2026-01-24 11:23:05.26	336.59	16.49	-44.3	-45.5	25.7	6.03e-01	0	43	0	1085276160	59	4326
2026-01-24 11:23:06.27	336.58	16.36	-44.2	-45.4	25.7	6.02e-01	0	43	0	1087373312	59	4263
2026-01-24 11:23:07.28	336.57	16.24	-44.1	-45.3	25.9	5.99e-01	0	43	0	1088946176	59	4195
2026-01-24 11:23:08.29	336.57	16.11	-44.1	-45.3	25.9	6.01e-01	0	43	0	1091043328	59	4205
2026-01-24 11:23:09.30	336.56	15.99	-44.1	-45.3	25.8	6.03e-01	0	43	0	1093140480	59	4206
2026-01-24 11:23:10.31	336.55	15.87	-44.2	-45.3	25.8	6.02e-01	0	43	0	1094713344	59	4236
2026-01-24 11:23:11.31	336.54	15.75	-44.0	-45.2	25.9	6.02e-01	0	43	0	1096810496	59	4170
2026-01-24 11:23:12.32	336.54	15.62	-44.3	-45.5	25.7	6.02e-01	0	43	0	1098383360	59	4300
2026-01-24 11:23:13.33	336.53	15.50	-44.3	-45.5	25.6	6.01e-01	0	43	0	1100480512	59	4310
2026-01-24 11:23:14.34	336.52	15.38	-44.4	-45.6	25.5	6.05e-01	0	43	0	1102053376	59	4382
2026-01-24 11:23:15.35	336.51	15.26	-44.3	-45.5	25.7	6.01e-01	0	43	0	1104150528	59	4293
2026-01-24 11:23:16.35	336.51	15.15	-44.4	-45.6	25.5	6.02e-01	0	43	0	1106247680	59	4375
2026-01-24 11:23:17.36	336.50	15.03	-44.2	-45.4	25.6	6.03e-01	0	43	0	1107820544	59	4255
2026-01-24 11:23:18.37	336.49	14.91	-43.9	-45.1	24.5	6.03e-01	0	43	0	1109917696	59	4112
2026-01-24 11:23:19.38	336.49	14.79	-43.9	-45.1	25.9	6.04e-01	0	43	0	1112014848	59	4124
2026-01-24 11:23:20.39	336.48	14.68	-44.0	-45.1	25.9	6.01e-01	0	43	0	1113587712	59	4140
2026-01-24 11:23:21.39	336.47	14.56	-43.9	-45.0	26.0	6.01e-01	0	43	0	1115684864	59	4097
2026-01-24 11:23:22.40	336.47	14.45	-44.1	-45.3	25.8	6.03e-01	0	43	0	1117257728	59	4205
2026-01-24 11:23:23.41	336.46	14.33	-44.1	-45.3	25.8	6.05e-01	0	43	0	1119354880	59	4203
2026-01-24 11:23:24.42	336.45	14.22	-43.8	-45.0	26.0	6.03e-01	0	43	0	1121452032	59	4075
2026-01-24 11:23:25.43	336.45	14.11	-43.8	-44.9	26.1	6.02e-01	0	43	0	1123024896	59	4036
2026-01-24 11:23:26.43	336.44	14.00	-43.9	-45.1	25.9	6.00e-01	0	43	0	1125122048	59	4113
2026-01-24 11:23:27.44	336.43	13.88	-43.7	-44.9	26.1	6.04e-01	0	43	0	1127219200	59	4009
2026-01-24 11:23:28.45	336.43	13.77	-43.8	-45.0	26.1	6.02e-01	0	43	0	1128792064	59	4055
2026-01-24 11:23:29.46	336.42	13.66	-43.8	-44.9	26.1	6.02e-01	0	43	0	1130889216	59	4027
2026-01-24 11:23:30.46	336.42	13.55	-43.8	-45.0	26.0	6.04e-01	0	43	0	1132462080	59	4066
2026-01-24 11:23:31.47	336.41	13.44	-43.8	-44.9	26.1	6.02e-01	0	43	0	1134559232	59	4050
2026-01-24 11:23:32.48	336.41	13.33	-43.7	-44.9	26.1	6.01e-01	0	43	0	1136132096	59	4016
2026-01-24 11:23:33.49	336.40	13.22	-43.8	-44.9	26.0	6.04e-01	0	43	0	1138229248	59	4044
2026-01-24 11:23:34.49	336.39	13.12	-43.7	-44.8	26.2	6.03e-01	0	43	0	1140326400	59	3988
2026-01-24 11:23:35.50	336.39	13.01	-43.8	-44.9	26.1	6.01e-01	0	43	0	1141899264	59	4025
2026-01-24 11:23:36.51	336.38	12.90	-43.9	-45.0	26.0	6.01e-01	0	43	0	1143996416	59	4084
2026-01-24 11:23:37.52	336.38	12.79	-43.8	-45.0	26.1	6.01e-01	0	43	0	1145569280	59	4056
2026-01-24 11:23:38.53	336.37	12.69	-43.9	-45.1	25.9	6.02e-01	0	43	0	1147666432	59	4104
2026-01-24 11:23:39.53	336.37	12.58	-43.8	-45.0	26.1	6.04e-01	0	43	0	1149763584	59	4060
2026-01-24 11:23:40.54	336.36	12.48	-43.9	-45.0	26.0	6.05e-01	0	43	0	1151336448	59	4088
2026-01-24 11:23:41.55	336.36	12.37	-43.9	-45.0	26.0	6.03e-01	0	43	0	1153433600	59	4071
2026-01-24 11:23:42.56	336.35	12.27	-43.9	-45.1	26.0	5.99e-01	0	43	0	1155530752	59	4099
2026-01-24 11:23:43.57	336.35	12.17	-43.9	-45.1	25.9	6.00e-01	0	43	0	1157103616	59	4116
2026-01-24 11:23:44.57	336.34	12.06	-43.8	-45.0	26.0	6.02e-01	0	43	0	1159200768	59	4070
2026-01-24 11:23:45.58	336.34	11.96	-43.8	-44.9	25.9	6.03e-01	0	43	0	1160773632	59	4048
2026-01-24 11:23:46.59	336.33	11.86	-44.0	-45.2	25.8	6.02e-01	0	43	0	1162870784	59	4165
2026-01-24 11:23:47.60	336.33	11.76	-44.1	-45.2	25.7	6.02e-01	0	43	0	1164443648	59	4187
2026-01-24 11:23:48.61	336.32	11.66	-44.2	-45.4	25.6	6.02e-01	0	43	0	1166540800	59	4249
2026-01-24 11:23:49.61	336.32	11.56	-44.2	-45.4	25.5	6.02e-01	0	43	0	1168637952	59	4264
2026-01-24 11:23:50.62	336.32	11.46	-44.2	-45.4	25.5	6.05e-01	0	43	0	1170210816	59	4246
2026-01-24 11:23:51.63	336.31	11.36	-44.1	-45.3	25.6	6.04e-01	0	43	0	1172307968	59	4207
2026-01-24 11:23:52.64	336.31	11.26	-44.2	-45.4	25.4	6.02e-01	0	43	0	1173880832	59	4274
2026-01-24 11:23:53.65	336.30	11.16	-44.3	-45.5	25.3	6.03e-01	0	43	0	1175977984	59	4335
2026-01-24 11:23:54.65	336.30	11.06	-44.2	-45.4	25.4	6.02e-01	0	43	0	1178075136	59	4277
2026-01-24 11:23:55.66	336.29	10.96	-44.3	-45.5	25.3	6.01e-01	0	43	0	1179648000	59	4325
2026-01-24 11:23:56.67	336.29	10.86	-44.2	-45.4	25.4	6.01e-01	0	43	0	1181745152	59	4276
2026-01-24 11:23:57.68	336.29	10.77	-44.4	-45.7	25.2	6.04e-01	0	43	0	1183842304	59	4403
2026-01-24 11:23:58.69	336.28	10.67	-44.4	-45.7	25.2	6.02e-01	0	43	0	1185415168	59	4396
2026-01-24 11:23:59.70	336.28	10.57	-44.6	-45.9	25.1	6.01e-01	0	43	0	1187512320	60	4272
2026-01-24 11:24:00.70	336.27	10.48	-44.5	-45.8	25.1	6.01e-01	0	43	0	1189085184	60	4218
2026-01-24 11:24:01.71	336.27	10.38	-44.4	-45.7	25.3	6.03e-01	0	43	0	1191182336	60	4163
2026-01-24 11:24:02.72	336.27	10.29	-44.4	-45.7	25.2	6.02e-01	0	43	0	1192755200	60	4165
2026-01-24 11:24:03.73	336.26	10.19	-44.5	-45.8	25.2	6.02e-01	0	43	0	1194852352	60	4197
2026-01-24 11:24:04.74	336.26	10.10	-44.5	-45.8	25.3	6.02e-01	0	43	0	1196949504	60	4201
2026-01-24 11:24:05.74	336.26	10.01	-44.5	-45.8	25.2	6.04e-01	0	43	0	1199046656	60	4220
2026-01-24 11:24:06.75	336.25	9.91	-44.7	-45.9	25.1	6.02e-01	0	43	0	1200619520	60	4288
2026-01-24 11:24:07.76	336.25	9.82	-44.3	-45.5	25.4	6.01e-01	0	43	0	1202716672	60	4095
2026-01-24 11:24:08.77	336.25	9.73	-44.7	-46.0	25.0	6.03e-01	0	43	0	1204289536	60	4304
2026-01-24 11:24:09.78	336.24	9.63	-44.7	-46.0	25.0	6.01e-01	0	43	0	1206386688	60	4299
2026-01-24 11:24:10.79	336.24	9.54	-44.6	-45.9	25.1	6.04e-01	0	43	0	1207959552	60	4258
2026-01-24 11:24:11.79	336.24	9.45	-44.7	-46.0	25.0	6.02e-01	0	43	0	1210056704	60	4325
2026-01-24 11:24:12.80	336.23	9.36	-44.5	-45.8	25.2	6.03e-01	0	43	0	1212153856	60	4207
2026-01-24 11:24:13.81	336.23	9.27	-44.7	-46.0	25.0	6.01e-01	0	43	0	1213726720	60	4302
2026-01-24 11:24:14.82	336.23	9.18	-44.6	-45.9	25.1	6.03e-01	0	43	0	1215823872	60	4247
2026-01-24 11:24:15.83	336.22	9.09	-44.6	-45.9	25.0	6.02e-01	0	43	0	1217396736	60	4247
2026-01-24 11:24:16.83	336.22	9.00	-44.8	-46.1	24.7	6.04e-01	0	43	0	1219493888	60	4387
2026-01-24 11:24:17.84	336.22	8.91	-44.6	-45.9	25.0	6.02e-01	0	43	0	1221591040	60	4269
2026-01-24 11:24:18.85	336.22	8.82	-45.0	-46.3	24.6	6.03e-01	0	43	0	1223163904	60	4479
2026-01-24 11:24:19.86	336.21	8.73	-45.0	-46.3	24.6	6.03e-01	0	43	0	1225261056	60	4487
2026-01-24 11:24:20.86	336.21	8.64	-45.1	-46.4	24.5	6.02e-01	0	43	0	1227358208	60	4527
2026-01-24 11:24:21.87	336.21	8.56	-45.3	-46.7	24.1	6.03e-01	0	43	0	1228931072	61	4413
2026-01-24 11:24:22.88	336.20	8.47	-45.3	-46.7	24.2	6.04e-01	0	43	0	1231028224	61	4424
2026-01-24 11:24:23.89	336.20	8.38	-45.4	-46.8	24.1	6.04e-01	0	43	0	1232601088	61	4456
2026-01-24 11:24:24.90	336.20	8.29	-45.7	-47.1	23.8	6.02e-01	0	43	0	1234698240	61	4631
2026-01-24 11:24:25.91	336.20	8.21	-45.6	-47.0	23.8	6.03e-01	0	43	0	1236271104	62	4336
2026-01-24 11:24:26.91	336.19	8.12	-45.5	-46.9	24.0	6.02e-01	0	43	0	1238368256	62	4257
2026-01-24 11:24:27.92	336.19	8.04	-45.5	-46.9	24.0	6.02e-01	0	43	0	1240465408	62	4252
2026-01-24 11:24:28.93	336.19	7.95	-45.3	-46.6	24.3	6.04e-01	0	43	0	1242038272	62	4134
2026-01-24 11:24:29.94	336.19	7.87	-45.3	-46.7	24.1	6.03e-01	0	43	0	1244135424	62	4177
