passes_logs/2026/01/24/R3.2S_Murmansk/R3.2S_Murmansk__20260124_000237_SUOMI_NPP_rec.log

#Pass ID: 20260124_000237_SUOMI NPP
#Satellite: SUOMI NPP
#Configuration: NPP
#almurnet v.1.7.20251203
#Start time: 2026-01-24 00:02:37

#Version: 2.2.20231116
#Station: R3.2S_Murmansk
#Location: 33.079688 lon 68.888172 lat
#TLE: 1 37849U 11061A   26023.63275593  .00000212  00000+0  12133-3 0  9990
#TLE: 2 37849  98.7820 325.6074 0002234  48.9695 311.1673 14.19528901737937

#Time	Az	El	Level	Level2	SNR	BER	BlckErr	Temp	State	Recorded	gain1	gain2
2026-01-24 00:02:37.23	22.14	1.99	-52.2	-67.1	3.8	1.49e+00	0	41	0	0	76	19578
2026-01-24 00:02:38.24	22.17	2.06	-52.2	-67.2	3.8	1.49e+00	0	41	104	0	74	22129
2026-01-24 00:02:39.25	22.19	2.12	-52.2	-67.1	3.8	1.49e+00	0	41	104	0	74	22006
2026-01-24 00:02:40.26	22.22	2.18	-52.2	-67.2	3.8	1.49e+00	0	41	104	0	74	22068
2026-01-24 00:02:41.26	22.24	2.25	-52.2	-67.1	3.8	1.49e+00	0	41	104	0	74	21912
2026-01-24 00:02:42.27	22.26	2.31	-52.2	-67.1	3.8	1.49e+00	0	41	104	0	74	21879
2026-01-24 00:02:43.28	22.29	2.37	-52.2	-67.1	3.8	1.49e+00	0	42	104	0	74	21808
2026-01-24 00:02:44.29	22.31	2.44	-52.2	-67.0	3.8	1.49e+00	0	41	104	0	74	21520
2026-01-24 00:02:45.30	22.34	2.50	-52.2	-67.0	3.8	1.49e+00	0	42	104	0	74	21525
2026-01-24 00:02:46.30	22.36	2.57	-52.1	-66.9	3.8	1.49e+00	0	42	104	0	74	21348
2026-01-24 00:02:47.31	22.39	2.63	-52.2	-66.9	3.8	1.49e+00	0	42	104	0	74	21415
2026-01-24 00:02:48.32	22.41	2.70	-52.1	-66.9	3.8	1.49e+00	0	42	104	0	74	21494
2026-01-24 00:02:49.33	22.43	2.76	-52.2	-67.0	3.8	1.49e+00	0	42	104	0	74	21548
2026-01-24 00:02:50.34	22.46	2.83	-52.1	-67.0	3.8	1.49e+00	0	42	104	0	74	21700
2026-01-24 00:02:51.35	22.48	2.89	-52.2	-67.1	3.8	1.49e+00	0	42	104	0	74	21783
2026-01-24 00:02:52.36	22.51	2.96	-52.2	-67.1	3.8	1.49e+00	0	42	104	0	74	21954
2026-01-24 00:02:53.37	22.54	3.02	-52.1	-67.1	3.8	1.49e+00	0	42	104	0	74	21942
2026-01-24 00:02:54.37	22.56	3.09	-52.2	-67.1	3.8	1.49e+00	0	42	104	0	74	21965
2026-01-24 00:02:55.38	22.59	3.16	-52.2	-67.1	3.8	1.49e+00	0	42	104	0	74	21921
2026-01-24 00:02:56.39	22.61	3.22	-52.2	-67.1	3.8	1.49e+00	0	42	104	0	74	21954
2026-01-24 00:02:57.40	22.64	3.29	-52.1	-67.1	3.8	1.49e+00	0	42	104	0	74	21902
2026-01-24 00:02:58.41	22.66	3.35	-52.2	-67.1	3.8	1.49e+00	0	42	104	0	74	21892
2026-01-24 00:02:59.42	22.69	3.42	-52.1	-67.0	3.8	1.49e+00	0	42	104	0	74	21606
2026-01-24 00:03:00.43	22.71	3.49	-52.1	-66.6	3.8	1.49e+00	0	42	104	0	74	20597
2026-01-24 00:03:01.43	22.74	3.55	-52.1	-65.3	3.8	1.49e+00	0	42	104	0	74	17686
2026-01-24 00:03:02.44	22.77	3.62	-51.9	-63.3	4.2	1.47e+00	0	42	104	0	74	14116
2026-01-24 00:03:03.45	22.79	3.69	-51.8	-61.5	5.0	1.05e+00	0	42	0	1048576	74	11539
2026-01-24 00:03:04.46	22.82	3.76	-51.5	-59.5	6.4	4.06e-01	0	42	0	3145728	74	9134
2026-01-24 00:03:05.46	22.84	3.82	-51.2	-57.8	7.9	1.01e-01	0	42	0	4194304	74	7543
2026-01-24 00:03:06.47	22.87	3.89	-50.6	-56.0	9.8	2.74e-02	0	42	0	6291456	73	6425
2026-01-24 00:03:07.48	22.90	3.96	-50.1	-54.5	11.4	3.69e-03	0	42	0	8388608	72	5741
2026-01-24 00:03:08.49	22.92	4.03	-49.7	-53.6	12.5	4.03e-04	0	42	0	10485760	71	5485
2026-01-24 00:03:09.50	22.95	4.09	-48.8	-51.8	14.3	5.30e-06	0	42	0	12582912	69	5009
2026-01-24 00:03:10.50	22.98	4.16	-48.9	-52.0	14.1	2.20e-06	0	42	0	13631488	69	5121
2026-01-24 00:03:11.51	23.00	4.23	-48.2	-50.8	15.3	0.00e+00	0	42	0	15728640	68	4727
2026-01-24 00:03:12.52	23.03	4.30	-48.3	-50.9	15.2	0.00e+00	0	42	0	17825792	68	4800
2026-01-24 00:03:13.53	23.06	4.37	-47.4	-49.6	16.3	0.00e+00	0	42	0	19922944	66	4632
2026-01-24 00:03:14.53	23.08	4.44	-46.8	-48.8	17.1	0.00e+00	0	42	0	22020096	65	4464
2026-01-24 00:03:15.54	23.11	4.51	-47.2	-49.4	16.6	0.00e+00	0	42	0	23068672	65	4768
2026-01-24 00:03:16.55	23.14	4.58	-48.0	-50.5	15.4	0.00e+00	0	43	0	25165824	66	5134
2026-01-24 00:03:17.56	23.17	4.65	-47.5	-49.8	16.2	0.00e+00	0	43	0	27262976	66	4726
2026-01-24 00:03:18.57	23.19	4.72	-48.2	-51.0	15.1	0.00e+00	0	42	0	29360128	66	5409
2026-01-24 00:03:19.57	23.22	4.78	-48.4	-51.2	14.7	0.00e+00	0	42	0	31457280	67	5271
2026-01-24 00:03:20.58	23.25	4.85	-49.1	-52.4	13.7	7.00e-07	0	43	0	32505856	68	5665
2026-01-24 00:03:21.59	23.28	4.93	-49.6	-53.3	12.8	4.27e-05	0	42	0	34603008	69	5970
2026-01-24 00:03:22.60	23.31	5.00	-50.2	-54.7	11.2	4.67e-04	0	43	0	36700160	70	6638
2026-01-24 00:03:23.61	23.33	5.07	-50.2	-54.8	11.1	4.26e-03	0	43	0	38797312	71	6346
2026-01-24 00:03:24.61	23.36	5.14	-51.3	-58.7	7.4	4.87e-03	0	43	0	40894464	73	8847
2026-01-24 00:03:25.62	23.39	5.21	-50.1	-54.5	11.1	6.35e-01	0	43	0	41943040	72	5775
2026-01-24 00:03:26.63	23.42	5.28	-48.5	-51.2	15.0	8.89e-04	0	43	0	44040192	69	4658
2026-01-24 00:03:27.64	23.45	5.35	-51.7	-60.5	6.4	8.76e-03	0	43	0	46137344	73	10831
2026-01-24 00:03:28.65	23.48	5.42	-49.0	-52.0	13.6	1.46e+00	1	43	104	46137344	70	4869
2026-01-24 00:03:29.65	23.51	5.49	-48.5	-51.2	15.0	0.00e+00	0	42	0	47185920	68	4965
2026-01-24 00:03:30.66	23.53	5.57	-48.3	-50.9	15.4	0.00e+00	0	43	0	49283072	68	4768
2026-01-24 00:03:31.67	23.56	5.64	-47.6	-49.8	16.4	0.00e+00	0	42	0	50331648	67	4460
2026-01-24 00:03:32.68	23.59	5.71	-47.7	-50.0	16.2	0.00e+00	0	43	0	52428800	67	4590
2026-01-24 00:03:33.68	23.62	5.78	-47.3	-49.4	16.8	0.00e+00	0	43	0	54525952	66	4521
2026-01-24 00:03:34.69	23.65	5.85	-47.3	-49.4	16.8	0.00e+00	0	43	0	56623104	66	4523
2026-01-24 00:03:35.70	23.68	5.93	-47.4	-49.6	16.6	0.00e+00	0	43	0	58720256	66	4623
2026-01-24 00:03:36.71	23.71	6.00	-47.1	-49.2	17.0	0.00e+00	0	43	0	59768832	66	4403
2026-01-24 00:03:37.72	23.74	6.07	-47.1	-49.1	17.1	0.00e+00	0	43	0	61865984	66	4379
2026-01-24 00:03:38.73	23.77	6.15	-46.9	-48.9	17.2	0.00e+00	0	43	0	63963136	65	4530
2026-01-24 00:03:39.73	23.80	6.22	-47.0	-49.0	17.2	0.00e+00	0	43	0	66060288	65	4551
2026-01-24 00:03:40.74	23.83	6.29	-47.1	-49.1	17.1	0.00e+00	0	43	0	68157440	65	4638
2026-01-24 00:03:41.75	23.86	6.37	-47.0	-48.9	17.3	0.00e+00	0	43	0	69206016	65	4540
2026-01-24 00:03:42.76	23.89	6.44	-47.1	-49.1	17.1	0.00e+00	0	43	0	71303168	65	4617
2026-01-24 00:03:43.77	23.92	6.52	-47.1	-49.1	17.2	0.00e+00	0	43	0	73400320	65	4616
2026-01-24 00:03:44.77	23.95	6.59	-47.2	-49.2	17.1	0.00e+00	0	43	0	75497472	65	4665
2026-01-24 00:03:45.78	23.98	6.67	-46.8	-48.7	17.6	0.00e+00	0	43	0	77594624	65	4404
2026-01-24 00:03:46.79	24.01	6.74	-47.0	-49.0	17.3	0.00e+00	0	43	0	78643200	65	4553
2026-01-24 00:03:47.80	24.05	6.82	-46.8	-48.7	17.4	0.00e+00	0	43	0	80740352	65	4437
2026-01-24 00:03:48.81	24.08	6.89	-46.7	-48.6	17.6	0.00e+00	0	43	0	82837504	65	4355
2026-01-24 00:03:49.81	24.11	6.97	-46.8	-48.6	17.6	0.00e+00	0	43	0	84934656	65	4382
2026-01-24 00:03:50.82	24.14	7.05	-46.9	-48.8	17.5	0.00e+00	0	43	0	87031808	65	4470
2026-01-24 00:03:51.83	24.17	7.12	-46.9	-48.8	17.5	0.00e+00	0	43	0	89128960	65	4463
2026-01-24 00:03:52.84	24.20	7.20	-47.1	-49.0	17.3	0.00e+00	0	43	0	90177536	65	4581
2026-01-24 00:03:53.85	24.24	7.27	-46.9	-48.8	17.4	0.00e+00	0	43	0	92274688	65	4492
2026-01-24 00:03:54.86	24.27	7.35	-47.1	-49.1	17.2	0.00e+00	0	43	0	94371840	65	4622
2026-01-24 00:03:55.87	24.30	7.43	-47.1	-49.0	17.3	0.00e+00	0	43	0	96468992	65	4584
2026-01-24 00:03:56.87	24.33	7.51	-47.0	-48.9	17.4	0.00e+00	0	43	0	97517568	65	4542
2026-01-24 00:03:57.88	24.37	7.58	-46.9	-48.8	17.5	0.00e+00	0	43	0	99614720	65	4464
2026-01-24 00:03:58.89	24.40	7.66	-46.8	-48.6	17.7	0.00e+00	0	43	0	101711872	65	4365
2026-01-24 00:03:59.90	24.43	7.74	-46.7	-48.5	17.9	0.00e+00	0	43	0	103809024	65	4304
2026-01-24 00:04:00.91	24.46	7.82	-46.6	-48.4	17.9	0.00e+00	0	43	0	105906176	65	4263
2026-01-24 00:04:01.91	24.50	7.90	-46.8	-48.6	17.8	0.00e+00	0	43	0	106954752	65	4352
2026-01-24 00:04:02.92	24.53	7.97	-46.7	-48.6	17.7	0.00e+00	0	43	0	109051904	65	4357
2026-01-24 00:04:03.93	24.56	8.05	-46.8	-48.7	17.7	0.00e+00	0	43	0	111149056	65	4395
2026-01-24 00:04:04.94	24.60	8.13	-46.5	-48.2	18.1	0.00e+00	0	43	0	113246208	65	4188
2026-01-24 00:04:05.95	24.63	8.21	-46.5	-48.2	18.1	0.00e+00	0	43	0	115343360	64	4439
2026-01-24 00:04:06.96	24.67	8.29	-46.3	-48.0	18.3	0.00e+00	0	43	0	117440512	64	4305
2026-01-24 00:04:07.96	24.70	8.37	-46.3	-48.0	18.3	0.00e+00	0	43	0	118489088	64	4323
2026-01-24 00:04:08.97	24.73	8.45	-46.1	-47.7	18.6	0.00e+00	0	43	0	120586240	64	4191
2026-01-24 00:04:09.98	24.77	8.53	-46.1	-47.7	18.6	0.00e+00	0	43	0	122683392	64	4184
2026-01-24 00:04:10.99	24.80	8.61	-46.2	-47.9	18.4	0.00e+00	0	43	0	124780544	64	4246
2026-01-24 00:04:11.99	24.84	8.69	-46.1	-47.7	18.7	0.00e+00	0	43	0	125829120	63	4430
2026-01-24 00:04:13.00	24.87	8.78	-46.2	-47.8	18.6	0.00e+00	0	43	0	127926272	63	4467
2026-01-24 00:04:14.01	24.91	8.86	-46.1	-47.7	18.7	0.00e+00	0	43	0	130023424	63	4426
2026-01-24 00:04:15.02	24.94	8.94	-46.2	-47.8	18.7	0.00e+00	0	43	0	132120576	63	4460
2026-01-24 00:04:16.03	24.98	9.02	-46.2	-47.8	18.6	0.00e+00	0	43	0	134217728	63	4473
2026-01-24 00:04:17.03	25.01	9.10	-46.0	-47.6	18.8	0.00e+00	0	43	0	136314880	63	4376
2026-01-24 00:04:18.04	25.05	9.19	-46.1	-47.7	18.8	0.00e+00	0	43	0	137363456	63	4401
2026-01-24 00:04:19.05	25.09	9.27	-46.0	-47.6	18.8	0.00e+00	0	43	0	139460608	63	4345
2026-01-24 00:04:20.06	25.12	9.35	-46.0	-47.6	18.9	0.00e+00	0	43	0	141557760	63	4343
2026-01-24 00:04:21.07	25.16	9.44	-46.1	-47.7	18.7	0.00e+00	0	43	0	143654912	63	4439
2026-01-24 00:04:22.07	25.19	9.52	-45.8	-47.3	19.1	0.00e+00	0	43	0	145752064	63	4232
2026-01-24 00:04:23.08	25.23	9.60	-45.9	-47.4	19.0	0.00e+00	0	43	0	146800640	63	4266
2026-01-24 00:04:24.09	25.27	9.69	-46.0	-47.6	18.8	0.00e+00	0	43	0	148897792	63	4373
2026-01-24 00:04:25.10	25.31	9.77	-45.9	-47.4	19.1	0.00e+00	0	43	0	150994944	63	4262
2026-01-24 00:04:26.11	25.34	9.86	-45.8	-47.4	19.0	0.00e+00	0	43	0	153092096	63	4245
2026-01-24 00:04:27.11	25.38	9.94	-45.9	-47.4	19.0	0.00e+00	0	43	0	154140672	63	4268
2026-01-24 00:04:28.12	25.42	10.03	-45.9	-47.5	18.9	0.00e+00	0	43	0	156237824	63	4322
2026-01-24 00:04:29.13	25.46	10.11	-45.8	-47.3	19.1	0.00e+00	0	43	0	158334976	63	4242
2026-01-24 00:04:30.14	25.49	10.20	-45.8	-47.3	19.1	0.00e+00	0	43	0	160432128	63	4209
2026-01-24 00:04:31.14	25.53	10.28	-45.7	-47.2	19.2	0.00e+00	0	43	0	162529280	63	4188
2026-01-24 00:04:32.15	25.57	10.37	-45.7	-47.2	19.2	0.00e+00	0	43	0	164626432	63	4168
2026-01-24 00:04:33.15	25.61	10.46	-45.7	-47.2	19.2	0.00e+00	0	43	0	165675008	63	4174
2026-01-24 00:04:34.16	25.65	10.54	-45.9	-47.5	19.0	0.00e+00	0	43	0	167772160	63	4298
2026-01-24 00:04:35.17	25.69	10.63	-45.6	-47.1	19.3	0.00e+00	0	43	0	169869312	63	4124
2026-01-24 00:04:36.18	25.73	10.72	-45.7	-47.2	19.2	0.00e+00	0	43	0	171966464	63	4190
2026-01-24 00:04:37.18	25.77	10.81	-45.7	-47.2	19.3	0.00e+00	0	43	0	174063616	63	4164
2026-01-24 00:04:38.19	25.81	10.89	-45.6	-47.1	19.3	0.00e+00	0	43	0	175112192	63	4138
2026-01-24 00:04:39.20	25.85	10.98	-45.6	-47.1	19.3	0.00e+00	0	43	0	177209344	63	4121
2026-01-24 00:04:40.21	25.89	11.07	-45.4	-46.9	19.5	0.00e+00	0	43	0	179306496	62	4243
2026-01-24 00:04:41.22	25.93	11.16	-45.6	-47.1	19.4	0.00e+00	0	43	0	181403648	62	4343
2026-01-24 00:04:42.23	25.97	11.25	-45.4	-46.9	19.5	0.00e+00	0	43	0	182452224	62	4256
2026-01-24 00:04:43.23	26.01	11.34	-45.4	-46.9	19.6	0.00e+00	0	43	0	184549376	62	4252
2026-01-24 00:04:44.24	26.05	11.43	-45.4	-46.8	19.6	0.00e+00	0	43	0	186646528	62	4211
2026-01-24 00:04:45.25	26.09	11.52	-45.4	-46.9	19.6	0.00e+00	0	43	0	188743680	62	4245
2026-01-24 00:04:46.26	26.13	11.61	-45.5	-46.9	19.6	0.00e+00	0	43	0	190840832	62	4275
2026-01-24 00:04:47.27	26.17	11.70	-45.5	-46.9	19.6	0.00e+00	0	43	0	192937984	62	4257
2026-01-24 00:04:48.27	26.21	11.79	-45.1	-46.5	19.9	0.00e+00	0	43	0	193986560	62	4062
2026-01-24 00:04:49.28	26.26	11.89	-45.3	-46.7	19.8	0.00e+00	0	43	0	196083712	62	4163
2026-01-24 00:04:50.29	26.30	11.98	-45.2	-46.6	19.8	0.00e+00	0	43	0	198180864	62	4126
2026-01-24 00:04:51.30	26.34	12.07	-45.4	-46.7	19.7	0.00e+00	0	43	0	200278016	62	4189
2026-01-24 00:04:52.31	26.38	12.16	-45.4	-46.8	19.7	0.00e+00	0	43	0	202375168	62	4204
2026-01-24 00:04:53.31	26.43	12.26	-45.3	-46.7	19.8	0.00e+00	0	43	0	203423744	62	4153
2026-01-24 00:04:54.32	26.47	12.35	-45.4	-46.8	19.7	0.00e+00	0	43	0	205520896	62	4220
2026-01-24 00:04:55.33	26.51	12.44	-45.3	-46.7	19.8	0.00e+00	0	43	0	207618048	62	4171
2026-01-24 00:04:56.34	26.56	12.54	-45.2	-46.5	20.0	0.00e+00	0	43	0	209715200	62	4089
2026-01-24 00:04:57.35	26.60	12.63	-45.5	-46.9	19.6	0.00e+00	0	43	0	211812352	62	4264
2026-01-24 00:04:58.35	26.65	12.73	-45.4	-46.8	19.7	0.00e+00	0	43	0	212860928	62	4198
2026-01-24 00:04:59.36	26.69	12.82	-45.5	-46.9	19.7	0.00e+00	0	43	0	214958080	62	4255
2026-01-24 00:05:00.37	26.74	12.92	-45.3	-46.7	19.8	0.00e+00	0	43	0	217055232	62	4152
2026-01-24 00:05:01.38	26.78	13.01	-45.2	-46.6	19.9	0.00e+00	0	44	0	219152384	62	4122
2026-01-24 00:05:02.38	26.83	13.11	-45.1	-46.4	20.0	0.00e+00	0	43	0	221249536	62	4046
2026-01-24 00:05:03.39	26.87	13.21	-45.1	-46.5	20.0	0.00e+00	0	43	0	222298112	62	4071
2026-01-24 00:05:04.40	26.92	13.30	-45.2	-46.6	20.0	0.00e+00	0	43	0	224395264	62	4110
2026-01-24 00:05:05.41	26.96	13.40	-45.2	-46.5	20.0	0.00e+00	0	43	0	226492416	62	4075
2026-01-24 00:05:06.41	27.01	13.50	-45.2	-46.5	20.0	0.00e+00	0	43	0	228589568	62	4095
2026-01-24 00:05:07.42	27.06	13.60	-45.1	-46.4	20.2	0.00e+00	0	43	0	230686720	62	4023
2026-01-24 00:05:08.43	27.10	13.70	-45.0	-46.4	20.2	0.00e+00	0	43	0	231735296	62	4007
2026-01-24 00:05:09.44	27.15	13.79	-45.2	-46.5	20.0	0.00e+00	0	43	0	233832448	62	4078
2026-01-24 00:05:10.45	27.20	13.89	-45.1	-46.5	20.0	0.00e+00	0	43	0	235929600	62	4073
2026-01-24 00:05:11.45	27.25	13.99	-45.2	-46.5	20.1	0.00e+00	0	43	0	238026752	62	4085
2026-01-24 00:05:12.46	27.29	14.09	-45.1	-46.5	20.1	0.00e+00	0	43	0	240123904	62	4071
2026-01-24 00:05:13.47	27.34	14.19	-45.0	-46.3	20.3	0.00e+00	0	43	0	241172480	62	4001
2026-01-24 00:05:14.48	27.39	14.29	-45.0	-46.3	20.2	0.00e+00	0	43	0	243269632	62	3994
2026-01-24 00:05:15.49	27.44	14.40	-45.1	-46.5	20.2	0.00e+00	0	43	0	245366784	62	4056
2026-01-24 00:05:16.49	27.49	14.50	-45.3	-46.6	20.0	0.00e+00	0	43	0	247463936	62	4135
2026-01-24 00:05:17.50	27.54	14.60	-45.2	-46.5	20.1	0.00e+00	0	43	0	249561088	62	4068
2026-01-24 00:05:18.51	27.59	14.70	-45.3	-46.7	20.0	0.00e+00	0	43	0	250609664	62	4151
2026-01-24 00:05:19.52	27.64	14.81	-45.2	-46.6	20.1	0.00e+00	0	43	0	252706816	62	4105
2026-01-24 00:05:20.52	27.69	14.91	-45.2	-46.6	20.1	0.00e+00	0	43	0	254803968	62	4103
2026-01-24 00:05:21.53	27.74	15.01	-45.3	-46.6	20.0	0.00e+00	0	44	0	256901120	62	4129
2026-01-24 00:05:22.54	27.79	15.12	-45.4	-46.8	19.9	0.00e+00	0	43	0	258998272	62	4200
2026-01-24 00:05:23.55	27.84	15.22	-45.2	-46.6	20.1	0.00e+00	0	43	0	260046848	62	4099
2026-01-24 00:05:24.55	27.90	15.33	-45.4	-46.7	19.9	0.00e+00	0	43	0	262144000	62	4180
2026-01-24 00:05:25.56	27.95	15.43	-45.5	-46.8	19.8	0.00e+00	0	43	0	264241152	62	4234
2026-01-24 00:05:26.57	28.00	15.54	-45.5	-46.8	19.8	0.00e+00	0	43	0	266338304	62	4240
2026-01-24 00:05:27.58	28.05	15.64	-45.4	-46.8	19.9	0.00e+00	0	44	0	268435456	62	4215
2026-01-24 00:05:28.59	28.11	15.75	-45.4	-46.8	19.9	0.00e+00	0	43	0	269484032	62	4221
2026-01-24 00:05:29.59	28.16	15.86	-45.5	-46.9	19.8	0.00e+00	0	44	0	271581184	62	4256
2026-01-24 00:05:30.60	28.21	15.97	-45.5	-46.8	19.9	0.00e+00	0	43	0	273678336	62	4242
2026-01-24 00:05:31.61	28.27	16.07	-45.5	-46.8	19.9	0.00e+00	0	44	0	275775488	62	4231
2026-01-24 00:05:32.62	28.32	16.18	-45.5	-46.8	19.9	0.00e+00	0	44	0	277872640	62	4227
2026-01-24 00:05:33.62	28.38	16.29	-45.3	-46.7	20.0	0.00e+00	0	43	0	278921216	62	4156
2026-01-24 00:05:34.63	28.43	16.40	-45.6	-47.0	19.8	0.00e+00	0	43	0	281018368	62	4294
2026-01-24 00:05:35.64	28.49	16.51	-45.5	-46.9	19.9	0.00e+00	0	44	0	283115520	62	4271
2026-01-24 00:05:36.65	28.55	16.62	-45.3	-46.6	20.1	0.00e+00	0	44	0	285212672	62	4133
2026-01-24 00:05:37.66	28.60	16.73	-45.5	-46.9	19.9	0.00e+00	0	43	0	287309824	62	4253
2026-01-24 00:05:38.66	28.66	16.84	-45.4	-46.7	20.0	0.00e+00	0	44	0	288358400	62	4170
2026-01-24 00:05:39.67	28.72	16.96	-45.6	-47.0	19.8	0.00e+00	0	44	0	290455552	62	4299
2026-01-24 00:05:40.68	28.77	17.07	-45.4	-46.7	20.1	0.00e+00	0	44	0	292552704	62	4165
2026-01-24 00:05:41.69	28.83	17.18	-45.7	-47.1	19.8	0.00e+00	0	44	0	294649856	62	4353
2026-01-24 00:05:42.70	28.89	17.30	-45.8	-47.2	19.5	0.00e+00	0	44	0	296747008	62	4435
2026-01-24 00:05:43.71	28.95	17.41	-45.7	-47.1	19.8	0.00e+00	0	44	0	297795584	62	4370
2026-01-24 00:05:44.71	29.01	17.52	-45.6	-47.0	19.8	0.00e+00	0	44	0	299892736	62	4309
2026-01-24 00:05:45.72	29.07	17.64	-45.7	-47.1	19.8	0.00e+00	0	43	0	301989888	62	4359
2026-01-24 00:05:46.73	29.13	17.76	-45.7	-47.1	19.8	0.00e+00	0	44	0	304087040	62	4347
2026-01-24 00:05:47.74	29.19	17.87	-45.7	-47.1	19.7	0.00e+00	0	44	0	306184192	62	4372
2026-01-24 00:05:48.75	29.25	17.99	-45.8	-47.2	19.7	0.00e+00	0	44	0	308281344	62	4412
2026-01-24 00:05:49.75	29.31	18.11	-45.6	-47.0	19.8	0.00e+00	0	43	0	309329920	62	4330
2026-01-24 00:05:50.76	29.37	18.22	-45.7	-47.1	19.8	0.00e+00	0	44	0	311427072	62	4348
2026-01-24 00:05:51.77	29.44	18.34	-45.7	-47.1	19.7	0.00e+00	0	43	0	313524224	62	4382
2026-01-24 00:05:52.78	29.50	18.46	-45.7	-47.1	19.8	0.00e+00	0	43	0	315621376	62	4373
2026-01-24 00:05:53.79	29.56	18.58	-45.6	-46.9	20.0	0.00e+00	0	43	0	316669952	62	4285
2026-01-24 00:05:54.79	29.63	18.70	-45.8	-47.2	19.7	0.00e+00	0	43	0	318767104	62	4412
2026-01-24 00:05:55.80	29.69	18.82	-45.7	-47.0	19.8	0.00e+00	0	43	0	320864256	62	4336
2026-01-24 00:05:56.81	29.76	18.94	-45.5	-46.8	20.1	0.00e+00	0	43	0	322961408	62	4239
2026-01-24 00:05:57.82	29.82	19.06	-45.6	-47.0	20.0	0.00e+00	0	44	0	325058560	62	4293
2026-01-24 00:05:58.83	29.89	19.19	-45.5	-46.9	20.1	0.00e+00	0	43	0	326107136	62	4246
2026-01-24 00:05:59.83	29.95	19.31	-45.5	-46.8	20.1	0.00e+00	0	44	0	328204288	62	4220
2026-01-24 00:06:00.84	30.02	19.43	-45.5	-46.9	20.0	0.00e+00	0	43	0	330301440	62	4255
2026-01-24 00:06:01.85	30.09	19.55	-45.6	-46.9	20.0	0.00e+00	0	44	0	332398592	62	4273
2026-01-24 00:06:02.86	30.15	19.68	-45.6	-46.9	20.0	0.00e+00	0	43	0	334495744	62	4274
2026-01-24 00:06:03.87	30.22	19.80	-45.6	-46.9	20.0	0.00e+00	0	43	0	336592896	62	4271
2026-01-24 00:06:04.87	30.29	19.93	-45.4	-46.8	20.1	0.00e+00	0	43	0	337641472	62	4204
2026-01-24 00:06:05.88	30.36	20.06	-45.5	-46.8	20.2	0.00e+00	0	43	0	339738624	62	4209
2026-01-24 00:06:06.89	30.43	20.18	-45.3	-46.6	20.3	0.00e+00	0	43	0	341835776	62	4116
2026-01-24 00:06:07.90	30.50	20.31	-45.1	-46.4	20.5	0.00e+00	0	43	0	343932928	62	4022
2026-01-24 00:06:08.90	30.57	20.44	-45.1	-46.3	20.6	0.00e+00	0	43	0	346030080	62	3979
2026-01-24 00:06:09.91	30.64	20.57	-45.1	-46.4	20.5	0.00e+00	0	44	0	347078656	61	4246
2026-01-24 00:06:10.92	30.71	20.70	-44.9	-46.1	20.8	0.00e+00	0	44	0	349175808	61	4104
2026-01-24 00:06:11.93	30.79	20.83	-44.7	-45.9	20.9	0.00e+00	0	44	0	351272960	61	4041
2026-01-24 00:06:12.94	30.86	20.96	-44.3	-45.5	21.3	0.00e+00	0	44	0	353370112	60	4067
2026-01-24 00:06:13.95	30.93	21.09	-44.3	-45.4	21.3	0.00e+00	0	43	0	355467264	60	4044
2026-01-24 00:06:14.95	31.01	21.22	-44.3	-45.4	21.4	0.00e+00	0	44	0	356515840	60	4030
2026-01-24 00:06:15.95	31.08	21.35	-44.1	-45.2	21.6	0.00e+00	0	44	0	358612992	60	3929
2026-01-24 00:06:16.96	31.16	21.48	-44.2	-45.3	21.4	0.00e+00	0	44	0	360710144	60	3995
2026-01-24 00:06:17.97	31.23	21.62	-44.4	-45.5	21.6	0.00e+00	0	44	0	362807296	59	4328
2026-01-24 00:06:18.98	31.31	21.75	-44.3	-45.4	21.7	0.00e+00	0	43	0	364904448	59	4254
2026-01-24 00:06:19.99	31.39	21.89	-44.5	-45.6	21.6	0.00e+00	0	43	0	365953024	59	4356
2026-01-24 00:06:20.99	31.47	22.02	-44.3	-45.4	21.7	0.00e+00	0	43	0	368050176	59	4286
2026-01-24 00:06:22.00	31.54	22.16	-44.3	-45.4	21.7	0.00e+00	0	43	0	370147328	59	4250
2026-01-24 00:06:23.01	31.62	22.30	-44.3	-45.4	21.7	0.00e+00	0	44	0	372244480	59	4262
2026-01-24 00:06:24.02	31.70	22.44	-44.0	-45.1	21.9	0.00e+00	0	43	0	374341632	59	4121
2026-01-24 00:06:25.03	31.78	22.57	-44.1	-45.2	21.9	0.00e+00	0	44	0	375390208	59	4147
2026-01-24 00:06:26.03	31.86	22.71	-43.9	-45.0	22.1	0.00e+00	0	44	0	377487360	59	4054
2026-01-24 00:06:27.04	31.95	22.85	-43.9	-44.9	22.1	0.00e+00	0	44	0	379584512	59	4045
2026-01-24 00:06:28.05	32.03	22.99	-43.9	-45.0	22.1	0.00e+00	0	43	0	381681664	59	4072
2026-01-24 00:06:29.06	32.11	23.14	-44.1	-45.2	21.9	0.00e+00	0	44	0	383778816	59	4159
2026-01-24 00:06:30.07	32.20	23.28	-44.0	-45.1	22.0	0.00e+00	0	44	0	384827392	59	4121
2026-01-24 00:06:31.07	32.28	23.42	-44.2	-45.3	21.8	0.00e+00	0	44	0	386924544	59	4235
2026-01-24 00:06:32.08	32.37	23.56	-44.2	-45.3	21.8	0.00e+00	0	44	0	389021696	59	4205
2026-01-24 00:06:33.09	32.45	23.71	-44.1	-45.2	22.0	0.00e+00	0	44	0	391118848	59	4146
2026-01-24 00:06:34.10	32.54	23.85	-44.3	-45.4	21.5	0.00e+00	0	44	0	393216000	59	4282
2026-01-24 00:06:35.10	32.63	24.00	-44.3	-45.5	21.6	0.00e+00	0	43	0	394264576	59	4306
2026-01-24 00:06:36.11	32.72	24.14	-44.1	-45.2	21.8	0.00e+00	0	44	0	396361728	59	4190
2026-01-24 00:06:37.12	32.81	24.29	-44.3	-45.4	21.8	0.00e+00	0	44	0	398458880	59	4259
2026-01-24 00:06:38.13	32.90	24.44	-44.2	-45.3	21.8	0.00e+00	0	43	0	400556032	59	4238
2026-01-24 00:06:39.14	32.99	24.59	-44.3	-45.4	21.8	0.00e+00	0	44	0	402653184	59	4250
2026-01-24 00:06:40.15	33.08	24.74	-44.3	-45.4	21.8	0.00e+00	0	44	0	403701760	59	4289
2026-01-24 00:06:41.15	33.17	24.89	-44.4	-45.5	21.7	0.00e+00	0	44	0	405798912	59	4310
2026-01-24 00:06:42.16	33.27	25.04	-44.4	-45.5	21.6	0.00e+00	0	44	0	407896064	59	4332
2026-01-24 00:06:43.17	33.36	25.19	-44.4	-45.6	21.6	0.00e+00	0	43	0	409993216	59	4353
2026-01-24 00:06:44.18	33.46	25.35	-44.4	-45.5	21.7	0.00e+00	0	44	0	412090368	59	4300
2026-01-24 00:06:45.19	33.55	25.50	-44.3	-45.4	21.8	0.00e+00	0	43	0	413138944	59	4287
2026-01-24 00:06:46.19	33.65	25.65	-44.2	-45.3	21.8	0.00e+00	0	44	0	415236096	59	4226
2026-01-24 00:06:47.20	33.75	25.81	-44.2	-45.3	21.9	0.00e+00	0	43	0	417333248	59	4229
2026-01-24 00:06:48.21	33.85	25.97	-44.0	-45.1	22.1	0.00e+00	0	44	0	419430400	59	4104
2026-01-24 00:06:49.22	33.95	26.12	-44.0	-45.0	22.1	0.00e+00	0	44	0	421527552	59	4097
2026-01-24 00:06:50.22	34.05	26.28	-43.9	-45.0	22.2	0.00e+00	0	44	0	422576128	59	4067
2026-01-24 00:06:51.23	34.15	26.44	-43.8	-44.8	22.4	0.00e+00	0	43	0	424673280	59	3982
2026-01-24 00:06:52.24	34.25	26.60	-44.0	-45.0	22.1	0.00e+00	0	44	0	426770432	59	4078
2026-01-24 00:06:53.25	34.36	26.76	-44.1	-45.1	22.1	0.00e+00	0	43	0	428867584	59	4133
2026-01-24 00:06:54.25	34.46	26.92	-43.8	-44.8	22.3	0.00e+00	0	44	0	430964736	59	3991
2026-01-24 00:06:55.26	34.56	27.08	-43.8	-44.8	22.3	0.00e+00	0	43	0	432013312	59	3998
2026-01-24 00:06:56.27	34.67	27.24	-43.8	-44.8	22.3	0.00e+00	0	44	0	434110464	59	3998
2026-01-24 00:06:57.28	34.78	27.41	-43.9	-44.9	22.2	0.00e+00	0	44	0	436207616	59	4037
2026-01-24 00:06:58.29	34.89	27.57	-43.9	-44.9	22.2	0.00e+00	0	44	0	438304768	59	4031
2026-01-24 00:06:59.29	35.00	27.74	-44.1	-45.1	22.1	0.00e+00	0	44	0	440401920	59	4132
2026-01-24 00:07:00.30	35.11	27.91	-44.0	-45.1	22.1	0.00e+00	0	43	0	441450496	59	4125
2026-01-24 00:07:01.31	35.22	28.07	-44.1	-45.1	22.0	0.00e+00	0	44	0	443547648	59	4130
2026-01-24 00:07:02.32	35.34	28.24	-44.2	-45.3	21.9	0.00e+00	0	44	0	445644800	59	4229
2026-01-24 00:07:03.33	35.45	28.41	-44.4	-45.5	21.7	0.00e+00	0	44	0	447741952	59	4314
2026-01-24 00:07:04.33	35.56	28.58	-44.3	-45.4	21.5	0.00e+00	0	44	0	449839104	60	4029
2026-01-24 00:07:05.34	35.68	28.75	-44.1	-45.2	21.8	0.00e+00	0	43	0	451936256	60	3916
2026-01-24 00:07:06.35	35.80	28.92	-44.5	-45.7	21.3	0.00e+00	0	44	0	452984832	60	4171
2026-01-24 00:07:07.35	35.92	29.10	-44.6	-45.8	21.2	0.00e+00	0	44	0	455081984	60	4194
2026-01-24 00:07:08.36	36.04	29.27	-44.8	-46.0	21.1	0.00e+00	0	44	0	457179136	60	4301
2026-01-24 00:07:09.37	36.16	29.44	-45.1	-46.3	20.7	0.00e+00	0	43	0	459276288	60	4476
2026-01-24 00:07:10.38	36.28	29.62	-45.2	-46.4	20.7	0.00e+00	0	43	0	460324864	61	4268
2026-01-24 00:07:11.39	36.41	29.80	-45.6	-46.9	20.3	0.00e+00	0	43	0	462422016	61	4506
2026-01-24 00:07:12.39	36.53	29.97	-45.5	-46.8	20.3	0.00e+00	0	44	0	464519168	61	4472
2026-01-24 00:07:13.40	36.66	30.15	-45.9	-47.2	20.0	0.00e+00	0	44	0	466616320	62	4440
2026-01-24 00:07:14.41	36.79	30.33	-46.1	-47.6	19.7	0.00e+00	0	44	0	468713472	63	4345
2026-01-24 00:07:15.42	36.92	30.51	-46.3	-47.8	19.5	0.00e+00	0	43	0	469762048	63	4462
2026-01-24 00:07:16.43	37.05	30.70	-46.5	-48.0	19.3	0.00e+00	0	44	0	471859200	63	4553
2026-01-24 00:07:17.43	37.18	30.88	-46.8	-48.4	18.9	0.00e+00	0	44	0	473956352	64	4514
2026-01-24 00:07:18.44	37.32	31.06	-47.0	-48.6	18.7	0.00e+00	0	44	0	476053504	64	4600
2026-01-24 00:07:19.45	37.45	31.25	-46.9	-48.5	18.7	0.00e+00	0	43	0	478150656	64	4565
2026-01-24 00:07:20.45	37.59	31.43	-47.2	-48.8	18.5	0.00e+00	0	43	0	480247808	64	4747
2026-01-24 00:07:21.46	37.73	31.62	-47.1	-48.7	18.5	0.00e+00	0	43	0	481296384	64	4689
2026-01-24 00:07:22.46	37.87	31.80	-46.7	-48.3	19.0	0.00e+00	0	44	0	483393536	64	4445
2026-01-24 00:07:23.47	38.01	31.99	-47.3	-49.1	18.2	0.00e+00	0	44	0	485490688	65	4607
2026-01-24 00:07:24.48	38.15	32.18	-47.3	-49.0	18.2	0.00e+00	0	44	0	487587840	65	4562
2026-01-24 00:07:25.49	38.30	32.37	-47.6	-49.4	17.9	0.00e+00	0	44	0	488636416	65	4766
2026-01-24 00:07:26.49	38.44	32.57	-47.2	-48.8	18.4	0.00e+00	0	44	0	490733568	65	4484
2026-01-24 00:07:27.50	38.59	32.76	-46.9	-48.5	18.7	0.00e+00	0	43	0	492830720	65	4337
2026-01-24 00:07:28.51	38.74	32.95	-46.7	-48.3	18.9	0.00e+00	0	43	0	494927872	65	4227
2026-01-24 00:07:29.52	38.89	33.15	-46.9	-48.6	18.8	0.00e+00	0	44	0	497025024	65	4346
2026-01-24 00:07:30.52	39.05	33.34	-46.9	-48.5	18.7	0.00e+00	0	44	0	498073600	65	4335
2026-01-24 00:07:31.53	39.20	33.54	-46.9	-48.5	18.8	0.00e+00	0	43	0	500170752	65	4304
2026-01-24 00:07:32.54	39.36	33.74	-47.0	-48.7	18.7	0.00e+00	0	44	0	502267904	65	4392
2026-01-24 00:07:33.54	39.52	33.94	-46.6	-48.1	19.2	0.00e+00	0	44	0	504365056	65	4116
2026-01-24 00:07:34.55	39.68	34.14	-46.9	-48.6	18.7	0.00e+00	0	44	0	506462208	65	4346
2026-01-24 00:07:35.56	39.84	34.34	-47.0	-48.6	18.7	0.00e+00	0	44	0	508559360	65	4390
2026-01-24 00:07:36.57	40.01	34.54	-46.8	-48.3	18.9	0.00e+00	0	44	0	509607936	65	4242
2026-01-24 00:07:37.58	40.17	34.74	-47.2	-48.9	18.5	0.00e+00	0	44	0	511705088	65	4522
2026-01-24 00:07:38.59	40.34	34.95	-46.9	-48.5	18.8	0.00e+00	0	44	0	513802240	65	4297
2026-01-24 00:07:39.60	40.51	35.16	-47.3	-49.0	18.3	0.00e+00	0	44	0	515899392	65	4592
2026-01-24 00:07:40.61	40.69	35.36	-47.4	-49.2	18.2	0.00e+00	0	44	0	516947968	65	4656
2026-01-24 00:07:41.61	40.86	35.57	-47.8	-49.6	17.8	0.00e+00	0	44	0	519045120	66	4643
2026-01-24 00:07:42.62	41.04	35.78	-47.2	-48.9	18.4	0.00e+00	0	44	0	521142272	66	4276
2026-01-24 00:07:43.63	41.22	35.99	-47.3	-49.0	18.5	0.00e+00	0	44	0	523239424	65	4562
2026-01-24 00:07:44.64	41.40	36.20	-47.2	-48.9	18.5	0.00e+00	0	44	0	525336576	65	4513
2026-01-24 00:07:45.65	41.59	36.41	-46.8	-48.4	18.9	0.00e+00	0	44	0	527433728	65	4284
2026-01-24 00:07:46.65	41.77	36.62	-47.0	-48.6	18.8	0.00e+00	0	44	0	528482304	65	4383
2026-01-24 00:07:47.66	41.96	36.84	-46.6	-48.1	19.3	0.00e+00	0	44	0	530579456	64	4362
2026-01-24 00:07:48.67	42.15	37.05	-46.5	-48.0	19.3	0.00e+00	0	44	0	532676608	64	4323
2026-01-24 00:07:49.68	42.35	37.27	-46.1	-47.5	19.8	0.00e+00	0	44	0	534773760	64	4073
2026-01-24 00:07:50.68	42.54	37.48	-46.4	-47.9	19.5	0.00e+00	0	43	0	536870912	64	4243
2026-01-24 00:07:51.69	42.74	37.70	-46.2	-47.6	19.7	0.00e+00	0	44	0	537919488	64	4119
2026-01-24 00:07:52.70	42.94	37.92	-46.3	-47.7	19.6	0.00e+00	0	43	0	540016640	64	4175
2026-01-24 00:07:53.71	43.15	38.14	-46.4	-47.8	19.5	0.00e+00	0	44	0	542113792	64	4227
2026-01-24 00:07:54.72	43.36	38.37	-46.7	-48.2	19.1	0.00e+00	0	44	0	544210944	64	4429
2026-01-24 00:07:55.72	43.56	38.59	-47.1	-48.7	18.7	0.00e+00	0	44	0	545259520	65	4409
2026-01-24 00:07:56.73	43.78	38.81	-47.1	-48.7	18.7	0.00e+00	0	44	0	547356672	65	4415
2026-01-24 00:07:57.74	43.99	39.04	-47.3	-48.9	18.5	0.00e+00	0	44	0	549453824	65	4545
2026-01-24 00:07:58.75	44.21	39.26	-46.7	-48.2	19.2	0.00e+00	0	44	0	551550976	65	4170
2026-01-24 00:07:59.76	44.43	39.49	-46.4	-47.8	19.6	0.00e+00	0	44	0	553648128	64	4209
2026-01-24 00:08:00.76	44.66	39.72	-46.1	-47.5	19.8	0.00e+00	0	44	0	555745280	64	4061
2026-01-24 00:08:01.77	44.89	39.95	-46.1	-47.4	19.9	0.00e+00	0	44	0	556793856	64	4040
2026-01-24 00:08:02.78	45.12	40.18	-45.8	-47.1	20.3	0.00e+00	0	44	0	558891008	62	4343
2026-01-24 00:08:03.79	45.35	40.41	-45.6	-46.8	20.5	0.00e+00	0	44	0	560988160	62	4230
2026-01-24 00:08:04.79	45.59	40.64	-45.6	-46.9	20.5	0.00e+00	0	44	0	563085312	62	4261
2026-01-24 00:08:05.80	45.83	40.87	-45.7	-47.0	20.3	0.00e+00	0	44	0	565182464	62	4328
2026-01-24 00:08:06.81	46.07	41.10	-45.9	-47.2	20.2	0.00e+00	0	44	0	566231040	62	4430
2026-01-24 00:08:07.81	46.32	41.34	-46.4	-47.8	19.6	0.00e+00	0	44	0	568328192	63	4471
2026-01-24 00:08:08.82	46.57	41.57	-46.6	-48.1	19.4	0.00e+00	0	43	0	570425344	63	4602
2026-01-24 00:08:09.83	46.83	41.81	-46.4	-47.9	19.4	0.00e+00	0	44	0	572522496	64	4247
2026-01-24 00:08:10.84	47.09	42.05	-46.4	-47.8	19.5	0.00e+00	0	43	0	574619648	64	4212
2026-01-24 00:08:11.85	47.35	42.29	-46.5	-47.9	19.5	0.00e+00	0	43	0	575668224	64	4285
2026-01-24 00:08:12.85	47.61	42.52	-46.1	-47.5	20.0	0.00e+00	0	44	0	577765376	63	4308
2026-01-24 00:08:13.86	47.88	42.77	-46.2	-47.6	19.8	0.00e+00	0	44	0	579862528	63	4352
2026-01-24 00:08:14.87	48.16	43.01	-46.4	-47.8	19.7	0.00e+00	0	44	0	581959680	63	4469
2026-01-24 00:08:15.88	48.44	43.25	-46.6	-48.0	19.5	0.00e+00	0	44	0	584056832	63	4575
2026-01-24 00:08:16.89	48.72	43.49	-46.5	-48.0	19.5	0.00e+00	0	44	0	585105408	63	4553
2026-01-24 00:08:17.90	49.01	43.74	-46.6	-48.2	19.2	0.00e+00	0	44	0	587202560	64	4399
2026-01-24 00:08:18.91	49.30	43.98	-46.6	-48.1	19.3	0.00e+00	0	44	0	589299712	64	4373
2026-01-24 00:08:19.91	49.59	44.22	-47.0	-48.7	18.7	0.00e+00	0	44	0	591396864	64	4660
2026-01-24 00:08:20.92	49.89	44.47	-47.1	-48.7	18.7	0.00e+00	0	44	0	593494016	65	4399
2026-01-24 00:08:21.93	50.20	44.72	-46.9	-48.4	19.0	0.00e+00	0	44	0	595591168	65	4289
2026-01-24 00:08:22.94	50.51	44.96	-46.7	-48.2	19.2	0.00e+00	0	44	0	596639744	64	4409
2026-01-24 00:08:23.95	50.82	45.21	-47.0	-48.6	18.8	0.00e+00	0	44	0	598736896	64	4638
2026-01-24 00:08:24.96	51.14	45.46	-46.7	-48.3	19.2	0.00e+00	0	44	0	600834048	64	4443
2026-01-24 00:08:25.97	51.47	45.71	-46.4	-47.8	19.5	0.00e+00	0	44	0	602931200	64	4226
2026-01-24 00:08:26.97	51.79	45.96	-46.1	-47.5	19.9	0.00e+00	0	44	0	603979776	63	4328
2026-01-24 00:08:27.98	52.13	46.21	-46.2	-47.5	19.9	0.00e+00	0	44	0	606076928	63	4330
2026-01-24 00:08:28.99	52.47	46.46	-46.4	-47.9	19.6	0.00e+00	0	44	0	608174080	63	4499
2026-01-24 00:08:30.00	52.81	46.71	-46.2	-47.6	19.9	0.00e+00	0	44	0	610271232	63	4345
2026-01-24 00:08:31.00	53.16	46.96	-46.2	-47.6	19.8	0.00e+00	0	43	0	612368384	63	4378
2026-01-24 00:08:32.01	53.52	47.21	-46.5	-48.0	19.4	0.00e+00	0	44	0	613416960	64	4300
2026-01-24 00:08:33.02	53.88	47.46	-46.5	-47.9	19.5	0.00e+00	0	44	0	615514112	64	4281
2026-01-24 00:08:34.03	54.25	47.72	-46.1	-47.5	19.9	0.00e+00	0	44	0	617611264	63	4308
2026-01-24 00:08:35.03	54.62	47.97	-45.8	-47.0	20.3	0.00e+00	0	44	0	619708416	63	4093
2026-01-24 00:08:36.04	55.00	48.22	-46.3	-47.7	19.8	0.00e+00	0	44	0	621805568	63	4401
2026-01-24 00:08:37.05	55.39	48.47	-46.3	-47.7	19.8	0.00e+00	0	43	0	623902720	63	4426
2026-01-24 00:08:38.06	55.78	48.73	-46.5	-48.0	19.5	0.00e+00	0	43	0	624951296	63	4548
2026-01-24 00:08:39.06	56.17	48.98	-47.4	-49.1	18.4	0.00e+00	0	44	0	627048448	65	4627
2026-01-24 00:08:40.07	56.58	49.23	-47.7	-49.4	18.1	0.00e+00	0	44	0	629145600	66	4542
2026-01-24 00:08:41.08	56.99	49.48	-47.6	-49.3	18.2	0.00e+00	0	44	0	631242752	66	4443
2026-01-24 00:08:42.09	57.41	49.74	-47.0	-48.5	19.0	0.00e+00	0	44	0	632291328	65	4331
2026-01-24 00:08:43.10	57.84	49.99	-46.6	-48.0	19.4	0.00e+00	0	44	0	634388480	64	4314
2026-01-24 00:08:44.11	58.27	50.24	-46.6	-48.0	19.5	0.00e+00	0	43	0	636485632	64	4312
2026-01-24 00:08:45.12	58.71	50.49	-46.9	-48.4	19.2	0.00e+00	0	44	0	638582784	64	4509
2026-01-24 00:08:46.13	59.16	50.75	-46.9	-48.5	19.0	0.00e+00	0	44	0	640679936	64	4550
2026-01-24 00:08:47.13	59.61	50.99	-46.7	-48.2	19.3	0.00e+00	0	43	0	642777088	64	4398
2026-01-24 00:08:48.14	60.07	51.25	-46.6	-48.1	19.3	0.00e+00	0	43	0	643825664	64	4363
2026-01-24 00:08:49.15	60.54	51.50	-47.1	-48.6	18.9	0.00e+00	0	44	0	645922816	64	4640
2026-01-24 00:08:50.16	61.02	51.75	-47.4	-49.1	18.4	0.00e+00	0	44	0	648019968	65	4621
2026-01-24 00:08:51.17	61.51	51.99	-47.9	-49.7	17.8	0.00e+00	0	44	0	650117120	66	4699
2026-01-24 00:08:52.17	62.00	52.24	-47.3	-49.0	18.5	0.00e+00	0	44	0	652214272	66	4305
2026-01-24 00:08:53.18	62.50	52.49	-46.4	-47.9	19.6	0.00e+00	0	44	0	653262848	64	4253
2026-01-24 00:08:54.19	63.01	52.73	-46.1	-47.4	20.2	0.00e+00	0	44	0	655360000	63	4275
2026-01-24 00:08:55.20	63.53	52.98	-45.7	-47.0	20.5	0.00e+00	0	44	0	657457152	63	4077
2026-01-24 00:08:56.21	64.06	53.22	-45.8	-47.1	20.3	0.00e+00	0	44	0	659554304	63	4141
2026-01-24 00:08:57.21	64.59	53.46	-46.6	-48.0	19.5	0.00e+00	0	44	0	660602880	63	4596
2026-01-24 00:08:58.22	65.14	53.70	-46.6	-48.0	19.5	0.00e+00	0	43	0	662700032	64	4337
2026-01-24 00:08:59.23	65.69	53.94	-46.5	-47.9	19.5	0.00e+00	0	44	0	664797184	64	4279
2026-01-24 00:09:00.24	66.26	54.18	-46.0	-47.4	20.2	0.00e+00	0	44	0	666894336	63	4253
2026-01-24 00:09:01.25	66.83	54.42	-45.9	-47.2	20.4	0.00e+00	0	44	0	668991488	63	4152
2026-01-24 00:09:02.25	67.41	54.65	-45.5	-46.7	20.7	0.00e+00	0	44	0	671088640	62	4180
2026-01-24 00:09:03.26	68.00	54.88	-45.4	-46.6	20.9	0.00e+00	0	44	0	672137216	62	4117
2026-01-24 00:09:04.27	68.60	55.11	-44.8	-45.9	21.5	0.00e+00	0	44	0	674234368	61	4037
2026-01-24 00:09:05.28	69.21	55.34	-45.1	-46.3	21.2	0.00e+00	0	44	0	676331520	61	4206
2026-01-24 00:09:06.29	69.84	55.57	-45.5	-46.7	20.6	0.00e+00	0	44	0	678428672	61	4428
2026-01-24 00:09:07.29	70.46	55.79	-45.5	-46.8	20.7	0.00e+00	0	44	0	680525824	61	4442
2026-01-24 00:09:08.30	71.10	56.01	-45.4	-46.6	20.8	0.00e+00	0	44	0	681574400	61	4385
2026-01-24 00:09:09.31	71.75	56.23	-45.6	-46.9	20.5	0.00e+00	0	44	0	683671552	61	4506
2026-01-24 00:09:10.32	72.42	56.45	-46.4	-47.8	19.7	0.00e+00	0	44	0	685768704	63	4477
2026-01-24 00:09:11.33	73.09	56.66	-46.9	-48.5	19.1	0.00e+00	0	44	0	687865856	64	4567
2026-01-24 00:09:12.34	73.77	56.87	-46.3	-47.6	19.7	0.00e+00	0	44	0	689963008	64	4144
2026-01-24 00:09:13.35	74.47	57.08	-45.6	-46.8	20.6	0.00e+00	0	44	0	691011584	63	3988
2026-01-24 00:09:14.36	75.17	57.28	-45.2	-46.4	21.0	0.00e+00	0	43	0	693108736	62	4017
2026-01-24 00:09:15.36	75.88	57.48	-44.8	-45.9	21.4	0.00e+00	0	44	0	695205888	61	4048
2026-01-24 00:09:16.37	76.60	57.68	-44.9	-46.0	21.4	0.00e+00	0	44	0	697303040	61	4058
2026-01-24 00:09:17.38	77.34	57.87	-44.6	-45.7	21.5	0.00e+00	0	44	0	699400192	60	4180
2026-01-24 00:09:18.39	78.08	58.06	-44.7	-45.8	21.6	0.00e+00	0	44	0	700448768	60	4196
2026-01-24 00:09:19.40	78.84	58.25	-44.6	-45.8	21.6	0.00e+00	0	44	0	702545920	60	4200
2026-01-24 00:09:20.40	79.60	58.43	-44.9	-46.0	21.4	0.00e+00	0	43	0	704643072	60	4328
2026-01-24 00:09:21.41	80.37	58.60	-45.4	-46.6	20.8	0.00e+00	0	44	0	706740224	61	4390
2026-01-24 00:09:22.42	81.16	58.78	-45.9	-47.2	20.3	0.00e+00	0	44	0	708837376	62	4400
2026-01-24 00:09:23.43	81.96	58.95	-46.1	-47.5	20.1	0.00e+00	0	44	0	709885952	63	4299
2026-01-24 00:09:24.43	82.76	59.11	-45.9	-47.2	20.3	0.00e+00	0	44	0	711983104	63	4152
2026-01-24 00:09:25.44	83.57	59.27	-44.6	-45.7	21.5	0.00e+00	0	44	0	714080256	61	3945
2026-01-24 00:09:26.45	84.40	59.42	-44.4	-45.4	22.1	0.00e+00	0	44	0	716177408	59	4257
2026-01-24 00:09:27.46	85.24	59.57	-44.2	-45.2	22.4	0.00e+00	0	44	0	718274560	59	4169
2026-01-24 00:09:28.47	86.08	59.72	-44.5	-45.6	22.0	0.00e+00	0	44	0	719323136	59	4363
2026-01-24 00:09:29.48	86.94	59.85	-44.6	-45.8	21.6	0.00e+00	0	44	0	721420288	60	4198
2026-01-24 00:09:30.49	87.80	59.99	-44.6	-45.7	21.7	0.00e+00	0	44	0	723517440	60	4166
2026-01-24 00:09:31.49	88.67	60.11	-45.7	-47.0	20.5	0.00e+00	0	44	0	725614592	62	4312
2026-01-24 00:09:32.50	89.55	60.24	-46.7	-48.3	19.3	0.00e+00	0	44	0	727711744	64	4456
2026-01-24 00:09:33.51	90.44	60.35	-46.9	-48.5	19.1	0.00e+00	0	44	0	728760320	65	4304
2026-01-24 00:09:34.51	91.33	60.46	-46.5	-48.0	19.6	0.00e+00	0	44	0	730857472	65	4054
2026-01-24 00:09:35.52	92.23	60.57	-45.9	-47.2	20.3	0.00e+00	0	43	0	732954624	63	4159
2026-01-24 00:09:36.53	93.14	60.66	-46.3	-47.7	20.0	0.00e+00	0	44	0	735051776	63	4396
2026-01-24 00:09:37.54	94.06	60.76	-46.5	-47.9	19.7	0.00e+00	0	44	0	737148928	64	4289
2026-01-24 00:09:38.55	94.99	60.84	-46.4	-47.8	19.7	0.00e+00	0	44	0	738197504	64	4240
2026-01-24 00:09:39.56	95.92	60.92	-46.3	-47.7	19.8	0.00e+00	0	44	0	740294656	64	4177
2026-01-24 00:09:40.56	96.85	60.99	-46.4	-47.8	19.8	0.00e+00	0	44	0	742391808	64	4235
2026-01-24 00:09:41.57	97.79	61.06	-46.2	-47.5	20.0	0.00e+00	0	44	0	744488960	64	4090
2026-01-24 00:09:42.58	98.74	61.12	-45.1	-46.3	21.1	0.00e+00	0	44	0	746586112	62	3983
2026-01-24 00:09:43.59	99.69	61.17	-45.7	-47.0	20.5	0.00e+00	0	44	0	747634688	62	4317
2026-01-24 00:09:44.60	100.65	61.22	-46.7	-48.2	19.5	0.00e+00	0	44	0	749731840	63	4688
2026-01-24 00:09:45.60	101.59	61.26	-46.3	-47.6	19.9	0.00e+00	0	44	0	751828992	64	4139
2026-01-24 00:09:46.61	102.56	61.29	-45.7	-46.9	20.7	0.00e+00	0	44	0	753926144	63	4023
2026-01-24 00:09:47.62	103.52	61.31	-44.8	-45.9	21.5	0.00e+00	0	44	0	756023296	61	4034
2026-01-24 00:09:48.63	104.48	61.33	-44.5	-45.6	21.8	0.00e+00	0	44	0	758120448	60	4107
2026-01-24 00:09:49.64	105.45	61.34	-43.9	-44.9	22.5	0.00e+00	0	44	0	759169024	59	4045
2026-01-24 00:09:50.65	106.42	61.35	-43.8	-44.8	22.7	0.00e+00	0	44	0	761266176	59	3983
2026-01-24 00:09:51.65	107.38	61.35	-44.5	-45.5	22.1	0.00e+00	0	44	0	763363328	59	4332
2026-01-24 00:09:52.66	108.34	61.34	-44.8	-46.0	21.5	0.00e+00	0	44	0	765460480	60	4319
2026-01-24 00:09:53.67	109.31	61.32	-45.2	-46.4	21.0	0.00e+00	0	44	0	766509056	61	4269
2026-01-24 00:09:54.68	110.27	61.30	-45.0	-46.2	21.2	0.00e+00	0	44	0	768606208	61	4180
2026-01-24 00:09:55.69	111.23	61.26	-44.6	-45.7	21.6	0.00e+00	0	44	0	770703360	61	3955
2026-01-24 00:09:56.69	112.18	61.23	-44.8	-46.0	21.5	0.00e+00	0	44	0	772800512	61	4052
2026-01-24 00:09:57.70	113.14	61.18	-45.2	-46.4	21.0	0.00e+00	0	44	0	774897664	61	4277
2026-01-24 00:09:58.71	114.09	61.13	-45.6	-46.9	20.7	0.00e+00	0	44	0	775946240	62	4243
2026-01-24 00:09:59.71	115.03	61.07	-45.6	-46.9	20.6	0.00e+00	0	44	0	778043392	62	4245
2026-01-24 00:10:00.72	115.98	61.01	-45.3	-46.5	21.0	0.00e+00	0	44	0	780140544	62	4071
2026-01-24 00:10:01.73	116.92	60.94	-45.0	-46.2	21.3	0.00e+00	0	44	0	782237696	61	4151
2026-01-24 00:10:02.74	117.85	60.86	-45.3	-46.4	21.0	0.00e+00	0	44	0	784334848	61	4285
2026-01-24 00:10:03.75	118.78	60.78	-46.4	-47.9	19.7	0.00e+00	0	44	0	786432000	63	4505
2026-01-24 00:10:04.76	119.70	60.69	-47.3	-49.1	18.5	0.00e+00	0	43	0	787480576	65	4604
2026-01-24 00:10:05.77	120.61	60.59	-47.1	-48.7	18.8	0.00e+00	0	44	0	789577728	65	4421
2026-01-24 00:10:06.78	121.52	60.49	-47.6	-49.3	18.3	0.00e+00	0	44	0	791674880	65	4749
2026-01-24 00:10:07.78	122.41	60.38	-48.6	-50.7	17.1	0.00e+00	0	44	0	793772032	67	4960
2026-01-24 00:10:08.79	123.30	60.26	-48.2	-50.1	17.6	0.00e+00	0	44	0	794820608	67	4617
2026-01-24 00:10:09.80	124.19	60.14	-47.4	-49.1	18.5	0.00e+00	0	44	0	796917760	66	4356
2026-01-24 00:10:10.81	125.06	60.01	-46.7	-48.1	19.1	0.00e+00	0	44	0	799014912	65	4107
2026-01-24 00:10:11.82	125.93	59.88	-47.5	-49.2	18.4	0.00e+00	0	44	0	801112064	65	4668
2026-01-24 00:10:12.82	126.78	59.75	-48.8	-50.9	17.0	0.00e+00	0	44	0	803209216	68	4766
2026-01-24 00:10:13.83	127.63	59.60	-49.0	-51.2	16.6	0.00e+00	0	44	0	805306368	69	4679
2026-01-24 00:10:14.84	128.47	59.45	-47.4	-49.0	18.6	0.00e+00	0	44	0	806354944	66	4296
2026-01-24 00:10:15.85	129.30	59.30	-46.6	-48.0	19.5	0.00e+00	0	44	0	808452096	64	4335
2026-01-24 00:10:16.86	130.12	59.14	-47.4	-49.0	18.6	0.00e+00	0	44	0	810549248	65	4558
2026-01-24 00:10:17.87	130.93	58.98	-47.2	-48.8	18.6	0.00e+00	0	44	0	812646400	65	4470
2026-01-24 00:10:18.87	131.72	58.81	-47.3	-49.0	18.6	0.00e+00	0	44	0	814743552	65	4560
2026-01-24 00:10:19.88	132.51	58.64	-47.8	-49.6	18.1	0.00e+00	0	44	0	815792128	66	4640
2026-01-24 00:10:20.89	133.29	58.46	-47.8	-49.6	18.0	0.00e+00	0	44	0	817889280	66	4613
2026-01-24 00:10:21.90	134.06	58.28	-46.5	-48.4	19.0	0.00e+00	0	44	0	819986432	65	4264
2026-01-24 00:10:22.91	134.82	58.10	-46.0	-47.2	20.2	0.00e+00	0	44	0	822083584	63	4189
2026-01-24 00:10:23.91	135.56	57.91	-45.4	-46.6	20.8	0.00e+00	0	44	0	823132160	62	4124
2026-01-24 00:10:24.92	136.30	57.72	-45.4	-46.6	20.7	0.00e+00	0	44	0	825229312	62	4143
2026-01-24 00:10:25.93	137.02	57.52	-44.4	-45.5	21.7	0.00e+00	0	44	0	827326464	60	4074
2026-01-24 00:10:26.94	137.74	57.32	-44.0	-45.1	22.1	0.00e+00	0	43	0	829423616	60	3877
2026-01-24 00:10:27.94	138.44	57.12	-45.0	-46.2	21.2	0.00e+00	0	44	0	831520768	60	4407
2026-01-24 00:10:28.95	139.14	56.91	-45.2	-46.4	20.9	0.00e+00	0	44	0	833617920	61	4267
2026-01-24 00:10:29.96	139.82	56.70	-44.3	-45.4	21.8	0.00e+00	0	44	0	834666496	60	4040
2026-01-24 00:10:30.97	140.50	56.49	-44.2	-45.3	21.8	0.00e+00	0	44	0	836763648	60	3970
2026-01-24 00:10:31.98	141.16	56.27	-44.8	-46.0	21.3	0.00e+00	0	44	0	838860800	60	4329
2026-01-24 00:10:32.98	141.81	56.06	-45.1	-46.3	20.9	0.00e+00	0	44	0	840957952	61	4234
2026-01-24 00:10:33.99	142.46	55.84	-43.9	-45.0	22.3	0.00e+00	0	44	0	843055104	59	4070
2026-01-24 00:10:35.00	143.09	55.61	-43.3	-44.2	23.0	0.00e+00	0	44	0	844103680	58	3944
2026-01-24 00:10:36.01	143.72	55.38	-43.0	-43.9	23.3	0.00e+00	0	44	0	846200832	57	4039
2026-01-24 00:10:37.01	144.33	55.16	-42.6	-43.5	23.4	0.00e+00	0	44	0	848297984	57	3831
2026-01-24 00:10:38.02	144.93	54.93	-42.1	-42.9	24.0	0.00e+00	0	44	0	850395136	56	3824
2026-01-24 00:10:39.03	145.53	54.69	-41.4	-42.2	24.5	0.00e+00	0	44	0	852492288	54	3951
2026-01-24 00:10:40.04	146.11	54.46	-42.1	-43.0	23.9	0.00e+00	0	44	0	853540864	54	4292
2026-01-24 00:10:41.05	146.69	54.22	-42.8	-43.8	23.3	0.00e+00	0	43	0	855638016	56	4203
2026-01-24 00:10:42.06	147.26	53.99	-42.7	-43.6	23.5	0.00e+00	0	44	0	857735168	56	4116
2026-01-24 00:10:43.07	147.81	53.75	-43.1	-44.0	23.2	0.00e+00	0	44	0	859832320	56	4340
2026-01-24 00:10:44.07	148.36	53.51	-44.0	-45.1	22.4	0.00e+00	0	44	0	861929472	58	4342
2026-01-24 00:10:45.08	148.90	53.26	-43.8	-44.8	22.6	0.00e+00	0	44	0	862978048	59	3987
2026-01-24 00:10:46.09	149.43	53.02	-43.1	-44.0	23.2	0.00e+00	0	44	0	865075200	58	3861
2026-01-24 00:10:47.09	149.94	52.78	-42.6	-43.5	23.6	0.00e+00	0	44	0	867172352	56	4070
2026-01-24 00:10:48.10	150.46	52.53	-42.9	-43.8	23.4	0.00e+00	0	44	0	869269504	56	4228
2026-01-24 00:10:49.11	150.96	52.28	-43.0	-44.0	23.2	0.00e+00	0	44	0	871366656	57	4055
2026-01-24 00:10:50.12	151.46	52.03	-42.4	-43.3	23.7	0.00e+00	0	44	0	872415232	56	3974
2026-01-24 00:10:51.13	151.95	51.78	-42.4	-43.3	23.7	0.00e+00	0	44	0	874512384	56	3997
2026-01-24 00:10:52.13	152.43	51.54	-43.6	-44.7	22.7	0.00e+00	0	44	0	876609536	57	4398
2026-01-24 00:10:53.14	152.90	51.29	-44.4	-45.5	22.0	0.00e+00	0	44	0	878706688	59	4332
2026-01-24 00:10:54.15	153.36	51.03	-44.4	-45.5	21.6	0.00e+00	0	44	0	880803840	60	4087
2026-01-24 00:10:55.16	153.82	50.78	-44.5	-45.7	21.6	0.00e+00	0	44	0	881852416	60	4161
2026-01-24 00:10:56.17	154.27	50.53	-44.0	-45.0	22.3	0.00e+00	0	44	0	883949568	59	4066
2026-01-24 00:10:57.17	154.71	50.28	-42.9	-43.8	23.4	0.00e+00	0	44	0	886046720	57	3999
2026-01-24 00:10:58.18	155.14	50.03	-43.1	-44.0	23.2	0.00e+00	0	44	0	888143872	57	4075
2026-01-24 00:10:59.19	155.57	49.77	-44.7	-45.8	21.5	0.00e+00	0	44	0	890241024	60	4227
2026-01-24 00:11:00.20	155.99	49.52	-46.4	-47.8	19.6	0.00e+00	0	43	0	891289600	63	4493
2026-01-24 00:11:01.21	156.41	49.27	-46.5	-48.0	19.2	0.00e+00	0	44	0	893386752	64	4317
2026-01-24 00:11:02.21	156.81	49.01	-45.8	-47.1	20.3	0.00e+00	0	44	0	895483904	63	4101
2026-01-24 00:11:03.22	157.21	48.76	-46.6	-48.1	19.3	0.00e+00	0	44	0	897581056	64	4358
2026-01-24 00:11:04.23	157.61	48.51	-48.3	-50.3	17.3	0.00e+00	0	44	0	899678208	67	4727
2026-01-24 00:11:05.24	158.00	48.25	-49.2	-51.7	16.0	0.00e+00	0	44	0	901775360	69	4927
2026-01-24 00:11:06.25	158.38	48.00	-49.1	-51.4	16.4	0.00e+00	0	44	0	902823936	69	4812
2026-01-24 00:11:07.26	158.75	47.74	-49.1	-51.5	16.1	0.00e+00	0	44	0	904921088	69	4864
2026-01-24 00:11:08.27	159.12	47.49	-48.4	-50.5	17.0	0.00e+00	0	44	0	907018240	68	4590
2026-01-24 00:11:09.27	159.48	47.24	-48.1	-50.0	17.4	0.00e+00	0	44	0	909115392	67	4577
2026-01-24 00:11:10.28	159.84	46.99	-47.1	-48.6	18.8	0.00e+00	0	44	0	910163968	66	4145
2026-01-24 00:11:11.29	160.19	46.73	-47.0	-48.6	18.8	0.00e+00	0	44	0	912261120	65	4362
2026-01-24 00:11:12.30	160.54	46.48	-47.9	-49.7	17.6	0.00e+00	0	44	0	914358272	66	4670
2026-01-24 00:11:13.31	160.88	46.23	-49.9	-52.8	14.7	0.00e+00	0	44	0	916455424	70	5299
2026-01-24 00:11:14.32	161.22	45.98	-50.8	-54.5	12.9	1.67e-05	0	44	0	918552576	72	5762
2026-01-24 00:11:15.33	161.55	45.73	-48.5	-50.6	16.7	0.00e+00	0	44	0	919601152	69	4352
2026-01-24 00:11:16.33	161.87	45.48	-47.0	-48.6	18.8	0.00e+00	0	44	0	921698304	66	4107
2026-01-24 00:11:17.34	162.19	45.23	-46.8	-48.3	19.1	0.00e+00	0	44	0	923795456	64	4469
2026-01-24 00:11:18.35	162.51	44.98	-48.0	-49.9	17.6	0.00e+00	0	44	0	925892608	66	4791
2026-01-24 00:11:19.35	162.82	44.74	-49.2	-51.6	16.0	0.00e+00	0	44	0	927989760	68	5205
2026-01-24 00:11:20.36	163.12	44.49	-48.1	-50.1	17.4	0.00e+00	0	44	0	930086912	68	4367
2026-01-24 00:11:21.37	163.43	44.24	-46.1	-47.5	19.8	0.00e+00	0	44	0	931135488	64	4053
2026-01-24 00:11:22.38	163.72	44.00	-45.3	-46.5	20.8	0.00e+00	0	44	0	933232640	62	4087
2026-01-24 00:11:23.39	164.02	43.75	-44.8	-45.9	21.2	0.00e+00	0	44	0	935329792	61	4044
2026-01-24 00:11:24.39	164.30	43.51	-45.4	-46.6	20.7	0.00e+00	0	44	0	937426944	61	4372
2026-01-24 00:11:25.40	164.59	43.26	-46.5	-47.9	19.5	0.00e+00	0	44	0	938475520	63	4541
2026-01-24 00:11:26.41	164.87	43.02	-46.9	-48.4	18.9	0.00e+00	0	44	0	940572672	64	4541
2026-01-24 00:11:27.42	165.14	42.78	-47.2	-48.8	18.6	0.00e+00	0	44	0	942669824	65	4464
2026-01-24 00:11:28.43	165.41	42.54	-46.3	-47.7	19.5	0.00e+00	0	44	0	944766976	64	4188
2026-01-24 00:11:29.43	165.68	42.30	-44.7	-45.8	21.3	0.00e+00	0	44	0	946864128	61	3999
2026-01-24 00:11:30.44	165.94	42.06	-44.2	-45.2	22.1	0.00e+00	0	44	0	948961280	59	4187
2026-01-24 00:11:31.45	166.20	41.82	-44.4	-45.4	21.9	0.00e+00	0	44	0	950009856	59	4287
2026-01-24 00:11:32.46	166.46	41.58	-45.4	-46.6	20.7	0.00e+00	0	44	0	952107008	61	4367
2026-01-24 00:11:33.46	166.71	41.35	-47.5	-49.4	18.0	0.00e+00	0	44	0	954204160	65	4766
2026-01-24 00:11:34.47	166.96	41.11	-49.1	-51.7	15.9	0.00e+00	0	44	0	956301312	68	5274
2026-01-24 00:11:35.48	167.20	40.88	-48.6	-50.9	16.5	0.00e+00	0	44	0	958398464	69	4522
2026-01-24 00:11:36.49	167.45	40.64	-46.2	-47.7	19.6	0.00e+00	0	44	0	959447040	64	4147
2026-01-24 00:11:37.50	167.69	40.41	-44.9	-46.1	21.1	0.00e+00	0	44	0	961544192	61	4117
2026-01-24 00:11:38.51	167.92	40.18	-44.7	-45.8	21.3	0.00e+00	0	44	0	963641344	61	3965
2026-01-24 00:11:39.52	168.15	39.94	-44.7	-45.9	21.2	0.00e+00	0	44	0	965738496	60	4259
2026-01-24 00:11:40.53	168.38	39.71	-46.3	-47.7	19.6	0.00e+00	0	44	0	967835648	63	4430
2026-01-24 00:11:41.54	168.61	39.49	-47.3	-49.0	18.3	0.00e+00	0	44	0	968884224	65	4587
2026-01-24 00:11:42.55	168.83	39.26	-47.4	-49.1	18.3	0.00e+00	0	44	0	970981376	65	4650
2026-01-24 00:11:43.55	169.05	39.03	-46.2	-47.7	19.4	0.00e+00	0	44	0	973078528	64	4152
2026-01-24 00:11:44.56	169.26	38.81	-45.2	-46.4	20.8	0.00e+00	0	44	0	975175680	62	4028
2026-01-24 00:11:45.57	169.48	38.58	-44.3	-45.3	22.0	0.00e+00	0	44	0	977272832	59	4237
2026-01-24 00:11:46.58	169.69	38.36	-43.6	-44.6	22.6	0.00e+00	0	44	0	978321408	59	3910
2026-01-24 00:11:47.59	169.90	38.13	-43.4	-44.4	22.8	0.00e+00	0	44	0	980418560	58	4015
2026-01-24 00:11:48.60	170.10	37.91	-43.5	-44.4	22.7	0.00e+00	0	44	0	982515712	58	4043
2026-01-24 00:11:49.61	170.31	37.69	-44.7	-45.8	21.6	0.00e+00	0	44	0	984612864	59	4489
2026-01-24 00:11:50.61	170.50	37.47	-45.3	-46.5	20.6	0.00e+00	0	44	0	986710016	61	4327
2026-01-24 00:11:51.62	170.70	37.26	-46.0	-47.3	20.1	0.00e+00	0	44	0	987758592	62	4478
2026-01-24 00:11:52.63	170.90	37.04	-46.6	-48.1	19.2	0.00e+00	0	44	0	989855744	64	4363
2026-01-24 00:11:53.64	171.09	36.82	-46.8	-48.4	18.9	0.00e+00	0	44	0	991952896	64	4505
2026-01-24 00:11:54.65	171.28	36.61	-46.3	-47.8	19.5	0.00e+00	0	44	0	994050048	64	4200
2026-01-24 00:11:55.66	171.47	36.39	-45.9	-47.4	19.9	0.00e+00	0	44	0	996147200	63	4247
2026-01-24 00:11:56.67	171.65	36.18	-45.6	-46.9	20.3	0.00e+00	0	44	0	997195776	63	4032
2026-01-24 00:11:57.67	171.83	35.97	-45.4	-46.7	20.5	0.00e+00	0	44	0	999292928	62	4171
2026-01-24 00:11:58.68	172.01	35.76	-46.2	-47.7	19.6	0.00e+00	0	44	0	1001390080	62	4661
2026-01-24 00:11:59.69	172.19	35.55	-46.3	-47.8	19.6	0.00e+00	0	44	0	1003487232	63	4459
2026-01-24 00:12:00.70	172.37	35.34	-46.3	-47.7	19.6	0.00e+00	0	44	0	1005584384	63	4426
2026-01-24 00:12:01.71	172.54	35.13	-46.3	-47.7	19.6	0.00e+00	0	44	0	1006632960	63	4425
2026-01-24 00:12:02.71	172.71	34.93	-46.0	-47.3	19.9	0.00e+00	0	44	0	1008730112	63	4239
2026-01-24 00:12:03.72	172.88	34.72	-46.3	-47.7	19.6	0.00e+00	0	44	0	1010827264	63	4401
2026-01-24 00:12:04.73	173.05	34.52	-46.1	-47.4	19.8	0.00e+00	0	44	0	1012924416	63	4284
2026-01-24 00:12:05.74	173.21	34.31	-46.4	-47.9	19.4	0.00e+00	0	44	0	1015021568	63	4495
2026-01-24 00:12:06.74	173.37	34.11	-46.3	-47.8	19.5	0.00e+00	0	44	0	1016070144	63	4448
2026-01-24 00:12:07.75	173.54	33.91	-46.5	-48.0	19.3	0.00e+00	0	44	0	1018167296	63	4581
2026-01-24 00:12:08.76	173.70	33.71	-46.1	-47.5	19.7	0.00e+00	0	44	0	1020264448	63	4313
2026-01-24 00:12:09.76	173.85	33.51	-45.6	-46.9	20.3	0.00e+00	0	44	0	1022361600	62	4263
2026-01-24 00:12:10.77	174.01	33.31	-45.8	-47.2	20.0	0.00e+00	0	44	0	1024458752	62	4393
2026-01-24 00:12:11.78	174.16	33.12	-45.4	-46.7	20.4	0.00e+00	0	43	0	1025507328	62	4170
2026-01-24 00:12:12.79	174.31	32.92	-45.5	-46.8	20.4	0.00e+00	0	44	0	1027604480	62	4200
2026-01-24 00:12:13.80	174.46	32.73	-45.7	-47.0	20.2	0.00e+00	0	44	0	1029701632	62	4292
2026-01-24 00:12:14.81	174.61	32.53	-45.4	-46.7	20.5	0.00e+00	0	44	0	1031798784	62	4166
2026-01-24 00:12:15.81	174.76	32.34	-45.2	-46.4	20.8	0.00e+00	0	43	0	1033895936	62	4025
2026-01-24 00:12:16.82	174.90	32.15	-44.9	-46.1	21.0	0.00e+00	0	44	0	1034944512	61	4126
2026-01-24 00:12:17.83	175.05	31.96	-45.5	-46.7	20.4	0.00e+00	0	43	0	1037041664	61	4426
2026-01-24 00:12:18.84	175.19	31.77	-45.3	-46.5	20.6	0.00e+00	0	43	0	1039138816	61	4321
2026-01-24 00:12:19.85	175.33	31.58	-45.6	-46.9	20.2	0.00e+00	0	44	0	1041235968	61	4528
2026-01-24 00:12:20.86	175.47	31.39	-45.9	-47.3	19.9	0.00e+00	0	44	0	1043333120	62	4462
2026-01-24 00:12:21.86	175.61	31.21	-45.9	-47.3	19.9	0.00e+00	0	44	0	1044381696	62	4444
2026-01-24 00:12:22.87	175.74	31.02	-46.6	-48.2	19.0	0.00e+00	0	43	0	1046478848	64	4404
2026-01-24 00:12:23.88	175.88	30.84	-46.6	-48.2	19.0	0.00e+00	0	44	0	1048576000	64	4409
2026-01-24 00:12:24.89	176.01	30.65	-47.1	-48.8	18.5	0.00e+00	0	43	0	1050673152	64	4743
2026-01-24 00:12:25.90	176.14	30.47	-47.4	-49.3	17.9	0.00e+00	0	43	0	1052770304	65	4718
2026-01-24 00:12:26.91	176.27	30.29	-47.0	-48.7	18.5	0.00e+00	0	44	0	1053818880	65	4410
2026-01-24 00:12:27.91	176.40	30.11	-47.1	-48.9	18.3	0.00e+00	0	44	0	1055916032	65	4502
2026-01-24 00:12:28.92	176.53	29.93	-47.0	-48.8	18.4	0.00e+00	0	44	0	1058013184	65	4447
2026-01-24 00:12:29.93	176.65	29.75	-46.4	-47.9	19.2	0.00e+00	0	44	0	1060110336	64	4273
2026-01-24 00:12:30.94	176.78	29.57	-46.1	-47.5	19.5	0.00e+00	0	44	0	1062207488	64	4087
2026-01-24 00:12:31.95	176.90	29.39	-46.1	-47.6	19.6	0.00e+00	0	44	0	1064304640	63	4342
2026-01-24 00:12:32.96	177.02	29.22	-46.1	-47.5	19.7	0.00e+00	0	44	0	1065353216	63	4310
2026-01-24 00:12:33.97	177.14	29.04	-45.8	-47.2	19.9	0.00e+00	0	44	0	1067450368	63	4164
2026-01-24 00:12:34.98	177.26	28.87	-46.1	-47.5	19.6	0.00e+00	0	44	0	1069547520	63	4337
2026-01-24 00:12:35.98	177.38	28.70	-46.0	-47.4	19.7	0.00e+00	0	44	0	1071644672	63	4281
2026-01-24 00:12:36.99	177.50	28.53	-46.5	-48.0	19.2	0.00e+00	0	43	0	1072693248	63	4574
2026-01-24 00:12:38.00	177.61	28.35	-46.5	-48.0	19.2	0.00e+00	0	44	0	1074790400	63	4549
2026-01-24 00:12:39.01	177.73	28.18	-46.2	-47.6	19.6	0.00e+00	0	44	0	1076887552	63	4368
2026-01-24 00:12:40.01	177.84	28.02	-46.5	-48.1	19.1	0.00e+00	0	44	0	1078984704	63	4601
2026-01-24 00:12:41.02	177.95	27.85	-46.2	-47.6	19.5	0.00e+00	0	43	0	1081081856	63	4357
2026-01-24 00:12:42.03	178.06	27.68	-46.0	-47.5	19.6	0.00e+00	0	44	0	1083179008	63	4300
2026-01-24 00:12:43.04	178.17	27.51	-46.1	-47.5	19.6	0.00e+00	0	44	0	1084227584	63	4333
2026-01-24 00:12:44.05	178.28	27.35	-45.4	-46.7	20.4	0.00e+00	0	44	0	1086324736	62	4147
2026-01-24 00:12:45.05	178.39	27.19	-45.0	-46.2	20.8	0.00e+00	0	44	0	1088421888	61	4150
2026-01-24 00:12:46.06	178.50	27.02	-44.8	-45.9	21.0	0.00e+00	0	44	0	1090519040	61	4045
2026-01-24 00:12:47.07	178.60	26.86	-44.7	-45.8	21.1	0.00e+00	0	44	0	1092616192	61	4000
2026-01-24 00:12:48.08	178.71	26.70	-44.7	-45.8	21.0	0.00e+00	0	43	0	1093664768	61	4004
2026-01-24 00:12:49.09	178.81	26.54	-44.5	-45.7	21.2	0.00e+00	0	44	0	1095761920	60	4156
2026-01-24 00:12:50.10	178.91	26.37	-44.6	-45.7	21.1	0.00e+00	0	44	0	1097859072	60	4192
2026-01-24 00:12:51.11	179.01	26.22	-44.9	-46.1	20.8	0.00e+00	0	44	0	1099956224	60	4358
2026-01-24 00:12:52.11	179.11	26.06	-45.0	-46.2	20.8	0.00e+00	0	43	0	1101004800	60	4432
2026-01-24 00:12:53.12	179.21	25.90	-44.8	-46.0	20.9	0.00e+00	0	44	0	1103101952	60	4300
2026-01-24 00:12:54.13	179.31	25.74	-45.3	-46.6	20.4	0.00e+00	0	44	0	1105199104	61	4365
2026-01-24 00:12:55.14	179.41	25.59	-45.5	-46.8	20.2	0.00e+00	0	44	0	1107296256	61	4488
2026-01-24 00:12:56.15	179.51	25.43	-45.4	-46.7	20.2	0.00e+00	0	43	0	1109393408	61	4417
2026-01-24 00:12:57.16	179.60	25.28	-45.5	-46.8	20.2	0.00e+00	0	44	0	1111490560	61	4464
2026-01-24 00:12:58.16	179.70	25.12	-45.4	-46.7	20.3	0.00e+00	0	44	0	1112539136	61	4424
2026-01-24 00:12:59.17	179.79	24.97	-45.3	-46.7	20.3	0.00e+00	0	44	0	1114636288	61	4396
2026-01-24 00:13:00.18	179.89	24.82	-45.6	-46.9	20.1	0.00e+00	0	43	0	1116733440	61	4543
2026-01-24 00:13:01.19	179.98	24.67	-45.3	-46.6	20.4	0.00e+00	0	44	0	1118830592	61	4361
2026-01-24 00:13:02.19	180.07	24.52	-45.5	-46.8	20.1	0.00e+00	0	44	0	1120927744	61	4477
2026-01-24 00:13:03.20	180.16	24.37	-45.5	-46.9	20.1	0.00e+00	0	44	0	1121976320	61	4509
2026-01-24 00:13:04.21	180.25	24.22	-45.1	-46.4	20.6	0.00e+00	0	43	0	1124073472	61	4254
2026-01-24 00:13:05.22	180.34	24.07	-45.3	-46.7	20.2	0.00e+00	0	43	0	1126170624	61	4414
2026-01-24 00:13:06.23	180.43	23.92	-45.2	-46.5	20.5	0.00e+00	0	44	0	1128267776	61	4317
2026-01-24 00:13:07.23	180.52	23.78	-44.9	-46.2	20.7	0.00e+00	0	44	0	1130364928	61	4163
2026-01-24 00:13:08.24	180.60	23.63	-44.7	-45.9	20.9	0.00e+00	0	44	0	1131413504	61	4041
2026-01-24 00:13:09.25	180.69	23.49	-44.1	-45.2	21.4	0.00e+00	0	43	0	1133510656	60	3942
2026-01-24 00:13:10.26	180.78	23.34	-44.2	-45.3	21.7	0.00e+00	0	44	0	1135607808	59	4227
2026-01-24 00:13:11.27	180.86	23.20	-43.8	-44.8	22.2	0.00e+00	0	43	0	1137704960	59	3999
2026-01-24 00:13:12.27	180.94	23.06	-43.6	-44.6	22.3	0.00e+00	0	43	0	1139802112	59	3899
2026-01-24 00:13:13.28	181.03	22.92	-43.1	-44.1	22.7	0.00e+00	0	43	0	1140850688	58	3874
2026-01-24 00:13:14.29	181.11	22.78	-43.1	-44.1	22.8	0.00e+00	0	43	0	1142947840	57	4103
2026-01-24 00:13:15.30	181.19	22.63	-42.8	-43.7	23.0	0.00e+00	0	44	0	1145044992	57	3954
2026-01-24 00:13:16.31	181.27	22.49	-42.8	-43.7	23.0	0.00e+00	0	43	0	1147142144	57	3939
2026-01-24 00:13:17.32	181.35	22.36	-42.9	-43.8	22.9	0.00e+00	0	44	0	1149239296	57	4004
2026-01-24 00:13:18.33	181.43	22.22	-42.9	-43.9	22.9	0.00e+00	0	44	0	1150287872	57	4018
2026-01-24 00:13:19.33	181.51	22.08	-43.1	-44.1	22.7	0.00e+00	0	43	0	1152385024	57	4115
2026-01-24 00:13:20.34	181.59	21.94	-43.3	-44.3	22.5	0.00e+00	0	44	0	1154482176	57	4230
2026-01-24 00:13:21.35	181.67	21.81	-43.6	-44.7	22.2	0.00e+00	0	43	0	1156579328	57	4392
2026-01-24 00:13:22.35	181.74	21.67	-43.8	-44.8	22.1	0.00e+00	0	43	0	1158676480	58	4226
2026-01-24 00:13:23.36	181.82	21.54	-44.2	-45.4	21.6	0.00e+00	0	44	0	1159725056	59	4246
2026-01-24 00:13:24.37	181.90	21.40	-44.1	-45.2	21.7	0.00e+00	0	44	0	1161822208	59	4188
2026-01-24 00:13:25.38	181.97	21.27	-44.1	-45.2	21.7	0.00e+00	0	44	0	1163919360	59	4188
2026-01-24 00:13:26.39	182.05	21.13	-43.9	-45.0	21.9	0.00e+00	0	43	0	1166016512	59	4071
2026-01-24 00:13:27.39	182.12	21.00	-43.9	-45.0	21.9	0.00e+00	0	44	0	1168113664	59	4095
2026-01-24 00:13:28.40	182.19	20.87	-43.9	-44.9	22.0	0.00e+00	0	43	0	1169162240	59	4043
2026-01-24 00:13:29.41	182.27	20.74	-43.7	-44.8	22.1	0.00e+00	0	43	0	1171259392	59	3990
2026-01-24 00:13:30.42	182.34	20.61	-43.7	-44.8	22.1	0.00e+00	0	44	0	1173356544	59	3986
2026-01-24 00:13:31.43	182.41	20.48	-43.7	-44.8	22.0	0.00e+00	0	43	0	1175453696	59	3987
2026-01-24 00:13:32.44	182.48	20.35	-43.6	-44.7	22.2	0.00e+00	0	43	0	1177550848	59	3941
2026-01-24 00:13:33.45	182.55	20.22	-43.6	-44.7	22.1	0.00e+00	0	43	0	1179648000	59	3936
2026-01-24 00:13:34.46	182.62	20.09	-43.7	-44.7	22.1	0.00e+00	0	43	0	1180696576	59	3945
2026-01-24 00:13:35.46	182.69	19.97	-43.5	-44.5	22.3	0.00e+00	0	44	0	1182793728	58	4081
2026-01-24 00:13:36.47	182.76	19.84	-43.3	-44.4	22.4	0.00e+00	0	44	0	1184890880	58	4015
2026-01-24 00:13:37.48	182.83	19.71	-43.5	-44.6	22.3	0.00e+00	0	44	0	1186988032	58	4110
2026-01-24 00:13:38.49	182.90	19.59	-43.5	-44.5	22.3	0.00e+00	0	44	0	1188036608	58	4088
2026-01-24 00:13:39.49	182.96	19.46	-43.6	-44.6	22.2	0.00e+00	0	43	0	1190133760	58	4137
2026-01-24 00:13:40.50	183.03	19.34	-43.7	-44.7	22.1	0.00e+00	0	43	0	1192230912	58	4186
2026-01-24 00:13:41.51	183.10	19.22	-43.7	-44.7	22.1	0.00e+00	0	43	0	1194328064	58	4189
2026-01-24 00:13:42.52	183.16	19.09	-43.7	-44.8	22.1	0.00e+00	0	43	0	1196425216	58	4200
2026-01-24 00:13:43.52	183.23	18.97	-43.8	-44.9	21.9	0.00e+00	0	44	0	1197473792	58	4291
2026-01-24 00:13:44.53	183.29	18.85	-43.9	-45.0	21.9	0.00e+00	0	43	0	1199570944	58	4294
2026-01-24 00:13:45.54	183.36	18.73	-44.0	-45.1	21.8	0.00e+00	0	43	0	1201668096	58	4377
2026-01-24 00:13:46.55	183.42	18.61	-44.3	-45.4	21.5	0.00e+00	0	43	0	1203765248	59	4268
2026-01-24 00:13:47.55	183.48	18.49	-44.4	-45.5	21.4	0.00e+00	0	43	0	1205862400	59	4334
2026-01-24 00:13:48.56	183.55	18.37	-44.5	-45.6	21.2	0.00e+00	0	43	0	1207959552	59	4387
2026-01-24 00:13:49.57	183.61	18.25	-44.6	-45.8	21.1	0.00e+00	0	43	0	1209008128	59	4464
2026-01-24 00:13:50.58	183.67	18.13	-44.4	-45.6	20.9	0.00e+00	0	43	0	1211105280	60	4129
2026-01-24 00:13:51.59	183.73	18.01	-44.5	-45.7	20.8	0.00e+00	0	43	0	1213202432	60	4185
2026-01-24 00:13:52.59	183.79	17.89	-44.6	-45.8	20.8	0.00e+00	0	44	0	1215299584	60	4213
2026-01-24 00:13:53.60	183.86	17.78	-44.7	-45.9	20.7	0.00e+00	0	44	0	1216348160	60	4274
2026-01-24 00:13:54.61	183.92	17.66	-44.9	-46.2	20.5	0.00e+00	0	43	0	1218445312	60	4409
2026-01-24 00:13:55.62	183.98	17.54	-44.8	-46.1	20.6	0.00e+00	0	43	0	1220542464	60	4377
2026-01-24 00:13:56.63	184.04	17.43	-44.8	-46.0	20.6	0.00e+00	0	43	0	1222639616	60	4327
2026-01-24 00:13:57.64	184.09	17.31	-44.5	-45.7	20.8	0.00e+00	0	43	0	1224736768	60	4193
2026-01-24 00:13:58.65	184.15	17.20	-44.8	-46.1	20.6	0.00e+00	0	43	0	1226833920	60	4346
2026-01-24 00:13:59.66	184.21	17.08	-44.5	-45.7	20.9	0.00e+00	0	43	0	1227882496	60	4168
2026-01-24 00:14:00.66	184.27	16.97	-44.3	-45.5	21.1	0.00e+00	0	44	0	1229979648	60	4068
2026-01-24 00:14:01.67	184.33	16.86	-44.5	-45.7	21.0	0.00e+00	0	44	0	1232076800	60	4152
2026-01-24 00:14:02.68	184.38	16.75	-44.4	-45.6	21.0	0.00e+00	0	43	0	1234173952	60	4125
2026-01-24 00:14:03.69	184.44	16.63	-44.4	-45.6	21.3	0.00e+00	0	43	0	1236271104	59	4368
2026-01-24 00:14:04.69	184.50	16.52	-44.4	-45.6	21.3	0.00e+00	0	43	0	1237319680	59	4351
2026-01-24 00:14:05.70	184.55	16.41	-44.3	-45.4	21.4	0.00e+00	0	44	0	1239416832	59	4281
2026-01-24 00:14:06.71	184.61	16.30	-44.3	-45.5	21.4	0.00e+00	0	44	0	1241513984	59	4293
2026-01-24 00:14:07.72	184.66	16.19	-44.3	-45.5	21.4	0.00e+00	0	43	0	1243611136	59	4307
2026-01-24 00:14:08.73	184.72	16.08	-44.3	-45.5	21.4	0.00e+00	0	43	0	1244659712	59	4315
2026-01-24 00:14:09.73	184.77	15.97	-44.4	-45.5	21.3	0.00e+00	0	43	0	1246756864	59	4326
2026-01-24 00:14:10.74	184.82	15.86	-44.3	-45.4	21.4	0.00e+00	0	44	0	1248854016	59	4287
2026-01-24 00:14:11.75	184.88	15.76	-44.3	-45.4	21.4	0.00e+00	0	43	0	1250951168	59	4263
2026-01-24 00:14:12.76	184.93	15.65	-44.4	-45.5	21.3	0.00e+00	0	43	0	1253048320	59	4325
