passes_logs/2026/01/24/R3.2S_Murmansk/R3.2S_Murmansk__20260124_125110_AQUA_rec.log

#Pass ID: 20260124_125110_AQUA
#Satellite: AQUA
#Configuration: AQUA
#almurnet v.1.7.20251203
#Start time: 2026-01-24 12:52:28

#Version: 2.2.20231116
#Station: R3.2S_Murmansk
#Location: 33.079688 lon 68.888172 lat
#TLE: 1 27424U 02022A   26023.58972979  .00001888  00000+0  38753-3 0  9997
#TLE: 2 27424  98.4100 350.1620 0001948  68.5331  43.0280 14.61852003262140

#Time	Az	El	Level	Level2	SNR	BER	BlckErr	Temp	State	Recorded	gain1	gain2
2026-01-24 12:52:28.38	197.93	7.34	-53.7	-65.7	3.8	8.45e-01	0	43	0	0	79	13991
2026-01-24 12:52:29.38	198.01	7.41	-55.4	-73.3	3.8	7.42e-01	0	43	104	0	81	29783
2026-01-24 12:52:30.39	198.09	7.49	-55.4	-73.2	3.8	7.44e-01	0	43	104	0	81	29560
2026-01-24 12:52:31.39	198.18	7.57	-55.4	-73.2	3.8	7.43e-01	0	43	104	0	81	29557
2026-01-24 12:52:32.40	198.26	7.64	-55.4	-73.2	3.8	7.43e-01	0	43	104	0	81	29544
2026-01-24 12:52:33.41	198.34	7.72	-55.4	-73.2	3.8	7.48e-01	0	43	104	0	81	29504
2026-01-24 12:52:34.42	198.43	7.80	-55.4	-73.2	3.8	7.44e-01	0	43	104	0	81	29413
2026-01-24 12:52:35.43	198.51	7.87	-55.4	-73.2	3.8	7.47e-01	0	43	104	0	81	29368
2026-01-24 12:52:36.43	198.59	7.95	-55.4	-73.2	3.8	7.46e-01	0	43	104	0	81	29470
2026-01-24 12:52:37.44	198.68	8.03	-55.4	-73.2	3.8	7.46e-01	0	43	104	0	81	29397
2026-01-24 12:52:38.45	198.77	8.10	-55.3	-73.2	3.8	7.45e-01	0	43	104	0	81	29377
2026-01-24 12:52:39.46	198.85	8.18	-55.3	-73.1	3.8	7.47e-01	0	43	104	0	81	29322
2026-01-24 12:52:40.47	198.94	8.26	-55.3	-73.1	3.8	7.43e-01	0	43	104	0	81	29253
2026-01-24 12:52:41.47	199.02	8.34	-55.3	-73.1	3.8	7.42e-01	0	43	104	0	81	29212
2026-01-24 12:52:42.48	199.11	8.42	-55.3	-73.1	3.8	7.44e-01	0	43	104	0	81	29277
2026-01-24 12:52:43.49	199.20	8.50	-55.3	-73.1	3.8	7.47e-01	0	43	104	0	81	29219
2026-01-24 12:52:44.50	199.29	8.58	-55.3	-73.1	3.8	7.48e-01	0	43	104	0	81	29149
2026-01-24 12:52:45.51	199.38	8.65	-55.3	-73.1	3.8	7.46e-01	0	43	104	0	81	29106
2026-01-24 12:52:46.51	199.47	8.73	-55.3	-73.1	3.8	7.45e-01	0	43	104	0	81	29057
2026-01-24 12:52:47.52	199.56	8.81	-55.3	-73.1	3.8	7.45e-01	0	43	104	0	81	29138
2026-01-24 12:52:48.53	199.65	8.89	-55.2	-73.1	3.8	7.48e-01	0	43	104	0	81	29068
2026-01-24 12:52:49.54	199.74	8.97	-55.3	-73.1	3.8	7.46e-01	0	43	104	0	81	29058
2026-01-24 12:52:50.55	199.83	9.05	-55.3	-73.1	3.8	7.43e-01	0	43	104	0	81	29059
2026-01-24 12:52:51.55	199.92	9.13	-55.3	-73.1	3.8	7.43e-01	0	43	104	0	81	29168
2026-01-24 12:52:52.56	200.02	9.21	-55.3	-73.0	3.8	7.43e-01	0	43	104	0	81	28997
2026-01-24 12:52:53.57	200.11	9.30	-55.2	-73.0	3.8	7.48e-01	0	43	104	0	81	29008
2026-01-24 12:52:54.58	200.20	9.38	-55.2	-73.0	3.8	7.44e-01	0	43	104	0	81	28944
2026-01-24 12:52:55.59	200.30	9.46	-55.2	-73.0	3.8	7.44e-01	0	43	104	0	81	28900
2026-01-24 12:52:56.60	200.39	9.54	-55.2	-73.0	3.8	7.45e-01	0	43	104	0	81	28864
2026-01-24 12:52:57.61	200.49	9.62	-55.2	-73.0	3.8	7.48e-01	0	43	104	0	81	28876
2026-01-24 12:52:58.61	200.58	9.70	-55.2	-73.0	3.8	7.46e-01	0	43	104	0	81	28916
2026-01-24 12:52:59.62	200.68	9.79	-55.2	-73.0	3.8	7.45e-01	0	43	104	0	81	28852
2026-01-24 12:53:00.61	200.77	9.87	-55.2	-73.0	3.8	7.47e-01	0	43	104	0	81	28922
2026-01-24 12:53:01.62	200.87	9.95	-55.2	-73.0	3.8	7.47e-01	0	43	104	0	81	28873
2026-01-24 12:53:02.63	200.97	10.03	-55.2	-73.0	3.8	7.46e-01	0	43	104	0	81	28988
2026-01-24 12:53:03.63	201.07	10.12	-55.2	-73.0	3.8	7.47e-01	0	43	104	0	81	28927
2026-01-24 12:53:04.64	201.17	10.20	-55.2	-73.0	3.8	7.42e-01	0	43	104	0	81	28921
2026-01-24 12:53:05.65	201.27	10.29	-55.2	-73.0	3.8	7.44e-01	0	43	104	0	81	28939
2026-01-24 12:53:06.66	201.37	10.37	-55.2	-73.0	3.8	7.45e-01	0	43	104	0	81	28862
2026-01-24 12:53:07.67	201.47	10.45	-55.2	-73.0	3.8	7.46e-01	0	43	104	0	81	28933
2026-01-24 12:53:08.68	201.57	10.54	-55.2	-73.0	3.8	7.41e-01	0	43	104	0	81	28924
2026-01-24 12:53:09.69	201.67	10.62	-55.2	-73.0	3.8	7.44e-01	0	43	104	0	81	28919
2026-01-24 12:53:10.69	201.78	10.71	-55.2	-73.0	3.8	7.45e-01	0	43	104	0	81	28901
2026-01-24 12:53:11.70	201.88	10.79	-55.2	-73.0	3.8	7.46e-01	0	43	104	0	81	28939
2026-01-24 12:53:12.71	201.98	10.88	-55.2	-73.0	3.8	7.42e-01	0	43	104	0	81	28953
2026-01-24 12:53:13.72	202.09	10.97	-55.2	-73.0	3.8	7.46e-01	0	43	104	0	81	28955
2026-01-24 12:53:14.73	202.20	11.05	-55.2	-73.0	3.8	7.44e-01	0	43	104	0	81	28991
2026-01-24 12:53:15.74	202.30	11.14	-55.2	-73.0	3.8	7.51e-01	0	44	104	0	81	28894
2026-01-24 12:53:16.75	202.41	11.23	-55.2	-73.0	3.8	7.45e-01	0	43	104	0	81	28952
2026-01-24 12:53:17.76	202.52	11.31	-55.2	-73.0	3.8	7.43e-01	0	43	104	0	81	28905
2026-01-24 12:53:18.77	202.62	11.40	-55.2	-73.0	3.8	7.45e-01	0	43	104	0	81	28882
2026-01-24 12:53:19.77	202.73	11.49	-55.2	-73.0	3.8	7.43e-01	0	43	104	0	81	28899
2026-01-24 12:53:20.78	202.84	11.58	-55.2	-73.0	3.8	7.45e-01	0	43	104	0	81	28917
2026-01-24 12:53:21.79	202.95	11.66	-55.2	-73.0	3.8	7.45e-01	0	43	104	0	81	28843
2026-01-24 12:53:22.80	203.06	11.75	-55.2	-73.0	3.8	7.45e-01	0	43	104	0	81	28870
2026-01-24 12:53:23.81	203.17	11.84	-55.2	-73.0	3.8	7.43e-01	0	43	104	0	81	28794
2026-01-24 12:53:24.81	203.29	11.93	-55.2	-73.0	3.8	7.45e-01	0	43	104	0	81	28893
2026-01-24 12:53:25.82	203.40	12.02	-55.2	-73.0	3.8	7.45e-01	0	43	104	0	81	28847
2026-01-24 12:53:26.83	203.51	12.11	-55.2	-73.0	3.8	7.45e-01	0	43	104	0	81	28860
2026-01-24 12:53:27.84	203.63	12.20	-55.2	-73.0	3.8	7.44e-01	0	43	104	0	81	28883
2026-01-24 12:53:28.85	203.74	12.29	-55.2	-73.0	3.8	7.43e-01	0	43	104	0	81	28913
2026-01-24 12:53:29.85	203.86	12.38	-55.2	-73.0	3.8	7.45e-01	0	43	104	0	81	29009
2026-01-24 12:53:30.86	203.97	12.47	-55.2	-73.0	3.8	7.49e-01	0	43	104	0	81	28826
2026-01-24 12:53:31.87	204.09	12.56	-55.2	-73.0	3.8	7.47e-01	0	43	104	0	81	28903
2026-01-24 12:53:32.88	204.21	12.65	-55.2	-73.0	3.8	7.45e-01	0	43	104	0	81	28932
2026-01-24 12:53:33.89	204.33	12.74	-55.2	-73.0	3.8	7.45e-01	0	43	104	0	81	28895
2026-01-24 12:53:34.90	204.45	12.83	-55.2	-73.0	3.8	7.45e-01	0	43	104	0	81	28919
2026-01-24 12:53:35.91	204.57	12.92	-55.2	-73.0	3.8	7.44e-01	0	43	104	0	81	28860
2026-01-24 12:53:36.91	204.69	13.02	-55.2	-73.0	3.8	7.43e-01	0	43	104	0	81	28811
2026-01-24 12:53:37.92	204.81	13.11	-55.2	-73.0	3.8	7.45e-01	0	43	104	0	81	28774
2026-01-24 12:53:38.93	204.93	13.20	-55.2	-73.0	3.8	7.43e-01	0	43	104	0	81	28725
2026-01-24 12:53:39.94	205.06	13.29	-55.2	-73.0	3.8	7.45e-01	0	43	104	0	81	28794
2026-01-24 12:53:40.95	205.18	13.39	-55.2	-73.0	3.8	7.44e-01	0	43	104	0	81	28701
2026-01-24 12:53:41.96	205.31	13.48	-55.2	-73.0	3.8	7.46e-01	0	43	104	0	81	28775
2026-01-24 12:53:42.96	205.43	13.57	-55.2	-73.0	3.8	7.42e-01	0	43	104	0	81	28752
2026-01-24 12:53:43.97	205.56	13.67	-55.1	-73.0	3.8	7.45e-01	0	43	104	0	81	28746
2026-01-24 12:53:44.98	205.69	13.76	-55.1	-72.9	3.8	7.44e-01	0	43	104	0	81	28659
2026-01-24 12:53:45.99	205.82	13.86	-55.1	-73.0	3.8	7.45e-01	0	43	104	0	81	28713
2026-01-24 12:53:47.00	205.94	13.95	-55.1	-73.0	3.8	7.45e-01	0	43	104	0	81	28718
2026-01-24 12:53:48.01	206.07	14.05	-55.1	-73.0	3.8	7.48e-01	0	43	104	0	81	28730
2026-01-24 12:53:49.01	206.20	14.14	-55.1	-72.9	3.8	7.44e-01	0	43	104	0	81	28631
2026-01-24 12:53:50.02	206.34	14.24	-55.1	-73.0	3.8	7.45e-01	0	43	104	0	81	28684
2026-01-24 12:53:51.03	206.47	14.34	-55.2	-73.0	3.8	7.44e-01	0	43	104	0	81	28716
2026-01-24 12:53:52.04	206.60	14.43	-55.1	-73.0	3.8	7.46e-01	0	43	104	0	81	28724
2026-01-24 12:53:53.05	206.74	14.53	-55.1	-72.9	3.8	7.47e-01	0	43	104	0	81	28651
2026-01-24 12:53:54.05	206.87	14.63	-55.1	-73.0	3.8	7.47e-01	0	43	104	0	81	28686
2026-01-24 12:53:55.06	207.01	14.72	-55.1	-73.0	3.8	7.45e-01	0	43	104	0	81	28691
2026-01-24 12:53:56.07	207.15	14.82	-55.1	-73.0	3.8	7.48e-01	0	43	104	0	81	28698
2026-01-24 12:53:57.08	207.28	14.92	-55.2	-72.9	3.8	7.46e-01	0	43	104	0	81	28653
2026-01-24 12:53:58.09	207.42	15.02	-55.1	-72.9	3.8	7.43e-01	0	43	104	0	81	28669
2026-01-24 12:53:59.10	207.56	15.12	-55.1	-72.9	3.8	7.45e-01	0	43	104	0	81	28648
2026-01-24 12:54:00.11	207.71	15.21	-55.1	-72.9	3.8	7.46e-01	0	43	104	0	81	28612
2026-01-24 12:54:01.12	207.85	15.31	-55.2	-72.9	3.8	7.46e-01	0	43	104	0	81	28654
2026-01-24 12:54:02.13	207.99	15.41	-55.1	-72.9	3.8	7.47e-01	0	43	104	0	81	28620
2026-01-24 12:54:03.13	208.13	15.51	-55.1	-73.0	3.8	7.45e-01	0	43	104	0	81	28693
2026-01-24 12:54:04.14	208.28	15.61	-55.1	-72.9	3.8	7.51e-01	0	43	104	0	81	28666
2026-01-24 12:54:05.15	208.42	15.71	-55.1	-72.9	3.8	7.46e-01	0	43	104	0	81	28614
2026-01-24 12:54:06.16	208.57	15.81	-55.1	-72.9	3.8	7.48e-01	0	43	104	0	81	28570
2026-01-24 12:54:07.17	208.72	15.91	-55.1	-72.9	3.8	7.46e-01	0	43	104	0	81	28622
2026-01-24 12:54:08.18	208.87	16.01	-55.1	-73.0	3.8	7.46e-01	0	43	104	0	81	28690
2026-01-24 12:54:09.19	209.02	16.12	-55.1	-72.9	3.8	7.47e-01	0	43	104	0	81	28640
2026-01-24 12:54:10.20	209.17	16.22	-55.1	-72.9	3.8	7.48e-01	0	43	104	0	81	28661
2026-01-24 12:54:11.21	209.32	16.32	-55.1	-73.0	3.8	7.46e-01	0	43	104	0	81	28738
2026-01-24 12:54:12.21	209.48	16.42	-55.1	-72.9	3.8	7.43e-01	0	43	104	0	81	28627
2026-01-24 12:54:13.22	209.63	16.52	-55.1	-73.0	3.8	7.45e-01	0	43	104	0	81	28694
2026-01-24 12:54:14.23	209.79	16.63	-55.1	-72.9	3.8	7.45e-01	0	43	104	0	81	28641
2026-01-24 12:54:15.24	209.94	16.73	-55.1	-72.9	3.8	7.47e-01	0	43	104	0	81	28665
2026-01-24 12:54:16.25	210.10	16.83	-55.1	-73.0	3.8	7.46e-01	0	43	104	0	81	28699
2026-01-24 12:54:17.25	210.26	16.94	-55.1	-72.9	3.8	7.43e-01	0	43	104	0	81	28665
2026-01-24 12:54:18.26	210.42	17.04	-55.1	-72.9	3.8	7.45e-01	0	43	104	0	81	28652
2026-01-24 12:54:19.27	210.58	17.14	-55.1	-73.0	3.8	7.47e-01	0	43	104	0	81	28728
2026-01-24 12:54:20.28	210.74	17.25	-55.1	-72.9	3.8	7.48e-01	0	43	104	0	81	28678
2026-01-24 12:54:21.29	210.90	17.35	-55.1	-73.0	3.8	7.45e-01	0	43	104	0	81	28709
2026-01-24 12:54:22.29	211.07	17.46	-55.1	-72.9	3.8	7.47e-01	0	43	104	0	81	28652
2026-01-24 12:54:23.30	211.23	17.56	-55.1	-73.0	3.8	7.48e-01	0	43	104	0	81	28688
2026-01-24 12:54:24.31	211.40	17.67	-55.1	-72.9	3.8	7.44e-01	0	43	104	0	81	28632
2026-01-24 12:54:25.32	211.57	17.78	-55.1	-72.9	3.8	7.47e-01	0	43	104	0	81	28594
2026-01-24 12:54:26.33	211.74	17.88	-55.1	-72.9	3.8	7.44e-01	0	43	104	0	81	28553
2026-01-24 12:54:27.33	211.91	17.99	-55.1	-72.9	3.8	7.44e-01	0	43	104	0	81	28564
2026-01-24 12:54:28.34	212.08	18.09	-55.1	-72.9	3.8	7.46e-01	0	43	104	0	81	28500
2026-01-24 12:54:29.35	212.25	18.20	-55.1	-72.9	3.8	7.46e-01	0	43	104	0	81	28507
2026-01-24 12:54:30.36	212.43	18.31	-55.1	-72.9	3.8	7.44e-01	0	43	104	0	81	28562
2026-01-24 12:54:31.37	212.60	18.42	-55.1	-72.9	3.8	7.44e-01	0	43	104	0	81	28559
2026-01-24 12:54:32.37	212.78	18.52	-55.1	-72.9	3.8	7.47e-01	0	43	104	0	81	28491
2026-01-24 12:54:33.38	212.96	18.63	-55.1	-72.9	3.8	7.47e-01	0	43	104	0	81	28569
2026-01-24 12:54:34.38	213.13	18.74	-55.1	-72.9	3.8	7.45e-01	0	43	104	0	81	28567
2026-01-24 12:54:35.39	213.32	18.85	-55.1	-72.9	3.8	7.44e-01	0	43	104	0	81	28606
2026-01-24 12:54:36.40	213.50	18.96	-55.1	-72.9	3.8	7.45e-01	0	43	104	0	81	28573
2026-01-24 12:54:37.41	213.68	19.07	-55.1	-72.9	3.8	7.45e-01	0	43	104	0	81	28536
2026-01-24 12:54:38.42	213.87	19.18	-55.1	-72.9	3.8	7.44e-01	0	43	104	0	81	28639
2026-01-24 12:54:39.43	214.05	19.29	-55.1	-72.9	3.8	7.49e-01	0	43	104	0	81	28590
2026-01-24 12:54:40.43	214.24	19.40	-55.1	-72.9	3.8	7.45e-01	0	43	104	0	81	28596
2026-01-24 12:54:41.44	214.43	19.51	-55.1	-72.9	3.8	7.47e-01	0	43	104	0	81	28663
2026-01-24 12:54:42.45	214.62	19.62	-55.1	-72.9	3.8	7.42e-01	0	43	104	0	81	28560
2026-01-24 12:54:43.46	214.81	19.73	-55.1	-72.9	3.8	7.46e-01	0	43	104	0	81	28601
2026-01-24 12:54:44.46	215.00	19.84	-55.1	-72.9	3.8	7.46e-01	0	43	104	0	81	28611
2026-01-24 12:54:45.47	215.20	19.95	-55.1	-72.9	3.8	7.44e-01	0	43	104	0	81	28674
2026-01-24 12:54:46.48	215.39	20.06	-55.1	-72.9	3.8	7.48e-01	0	43	104	0	81	28635
2026-01-24 12:54:47.49	215.59	20.17	-55.1	-73.0	3.8	7.45e-01	0	43	104	0	81	28702
2026-01-24 12:54:48.49	215.79	20.28	-55.1	-72.9	3.8	7.47e-01	0	43	104	0	81	28668
2026-01-24 12:54:49.50	215.99	20.39	-55.1	-72.9	3.8	7.47e-01	0	43	104	0	81	28626
2026-01-24 12:54:50.51	216.19	20.51	-55.1	-72.9	3.8	7.43e-01	0	43	104	0	81	28574
2026-01-24 12:54:51.52	216.39	20.62	-55.1	-72.9	3.8	7.45e-01	0	43	104	0	81	28599
2026-01-24 12:54:52.53	216.60	20.73	-55.1	-72.9	3.8	7.43e-01	0	43	104	0	81	28660
2026-01-24 12:54:53.53	216.80	20.84	-55.1	-72.9	3.8	7.46e-01	0	43	104	0	81	28607
2026-01-24 12:54:54.54	217.01	20.96	-55.1	-72.9	3.8	7.47e-01	0	43	104	0	81	28594
2026-01-24 12:54:55.55	217.22	21.07	-55.1	-72.9	3.8	7.43e-01	0	43	104	0	81	28646
2026-01-24 12:54:56.56	217.43	21.18	-55.1	-72.9	3.8	7.45e-01	0	43	104	0	81	28588
2026-01-24 12:54:57.57	217.65	21.30	-55.1	-73.0	3.8	7.44e-01	0	43	104	0	81	28687
2026-01-24 12:54:58.57	217.86	21.41	-55.1	-72.9	3.8	7.46e-01	0	43	104	0	81	28584
2026-01-24 12:54:59.58	218.08	21.52	-55.1	-72.9	3.8	7.46e-01	0	43	104	0	81	28640
2026-01-24 12:55:00.58	218.29	21.64	-55.1	-72.9	3.8	7.44e-01	0	43	104	0	81	28563
2026-01-24 12:55:01.59	218.51	21.75	-55.1	-72.9	3.8	7.44e-01	0	43	104	0	81	28550
2026-01-24 12:55:02.60	218.73	21.87	-55.1	-72.9	3.8	7.49e-01	0	43	104	0	81	28548
2026-01-24 12:55:03.61	218.96	21.98	-55.1	-72.9	3.8	7.46e-01	0	43	104	0	81	28555
2026-01-24 12:55:04.61	219.18	22.09	-55.1	-72.9	3.8	7.44e-01	0	43	104	0	81	28576
2026-01-24 12:55:05.62	219.40	22.21	-55.1	-72.9	3.8	7.44e-01	0	43	104	0	81	28573
2026-01-24 12:55:06.63	219.63	22.32	-55.1	-72.9	3.8	7.44e-01	0	43	104	0	81	28533
2026-01-24 12:55:07.64	219.86	22.44	-55.1	-72.9	3.8	7.48e-01	0	43	104	0	81	28591
2026-01-24 12:55:08.65	220.09	22.55	-55.1	-72.9	3.8	7.44e-01	0	43	104	0	81	28529
2026-01-24 12:55:09.65	220.32	22.67	-55.1	-72.9	3.8	7.43e-01	0	43	104	0	81	28549
2026-01-24 12:55:10.66	220.56	22.78	-55.1	-72.9	3.8	7.46e-01	0	43	104	0	81	28523
2026-01-24 12:55:11.67	220.80	22.90	-55.1	-72.9	3.8	7.46e-01	0	43	104	0	81	28593
2026-01-24 12:55:12.68	221.03	23.02	-55.1	-72.9	3.8	7.44e-01	0	43	104	0	81	28586
2026-01-24 12:55:13.69	221.27	23.13	-55.1	-72.9	3.8	7.46e-01	0	43	104	0	81	28556
2026-01-24 12:55:14.69	221.51	23.25	-55.1	-72.9	3.8	7.44e-01	0	43	104	0	81	28488
2026-01-24 12:55:15.70	221.76	23.36	-55.1	-72.9	3.8	7.46e-01	0	43	104	0	81	28502
2026-01-24 12:55:16.71	222.00	23.48	-55.1	-72.9	3.8	7.44e-01	0	43	104	0	81	28630
2026-01-24 12:55:17.72	222.25	23.59	-55.1	-72.9	3.8	7.46e-01	0	43	104	0	81	28524
2026-01-24 12:55:18.73	222.50	23.71	-55.2	-73.0	3.8	7.46e-01	0	43	104	0	81	28701
2026-01-24 12:55:19.73	222.75	23.83	-55.2	-73.0	3.8	7.45e-01	0	43	104	0	81	28746
2026-01-24 12:55:20.74	223.00	23.94	-55.2	-73.0	3.8	7.41e-01	0	43	104	0	81	28821
2026-01-24 12:55:21.75	223.26	24.06	-55.2	-73.0	3.8	7.45e-01	0	43	104	0	81	28755
2026-01-24 12:55:22.76	223.52	24.17	-55.2	-73.0	3.8	7.45e-01	0	43	104	0	81	28775
2026-01-24 12:55:23.77	223.78	24.29	-55.2	-73.0	3.8	7.49e-01	0	43	104	0	81	28705
2026-01-24 12:55:24.78	224.04	24.41	-55.2	-73.0	3.8	7.46e-01	0	43	104	0	81	28743
2026-01-24 12:55:25.79	224.30	24.52	-55.1	-72.9	3.8	7.45e-01	0	43	104	0	81	28628
2026-01-24 12:55:26.79	224.56	24.64	-55.1	-73.0	3.8	7.43e-01	0	43	104	0	81	28737
2026-01-24 12:55:27.80	224.83	24.75	-55.1	-73.0	3.8	7.47e-01	0	43	104	0	81	28718
2026-01-24 12:55:28.81	225.10	24.87	-55.1	-72.9	3.8	7.45e-01	0	43	104	0	81	28679
2026-01-24 12:55:29.82	225.37	24.98	-55.1	-73.0	3.8	7.46e-01	0	43	104	0	81	28753
2026-01-24 12:55:30.83	225.64	25.10	-55.1	-72.9	3.8	7.44e-01	0	43	104	0	81	28629
2026-01-24 12:55:31.84	225.92	25.21	-55.1	-73.0	3.8	7.44e-01	0	43	104	0	81	28682
2026-01-24 12:55:32.85	226.20	25.33	-55.1	-72.9	3.8	7.46e-01	0	43	104	0	81	28560
2026-01-24 12:55:33.86	226.48	25.45	-55.1	-72.9	3.8	7.44e-01	0	43	104	0	81	28626
2026-01-24 12:55:34.87	226.76	25.56	-55.1	-72.9	3.8	7.45e-01	0	43	104	0	81	28628
2026-01-24 12:55:35.87	227.04	25.67	-55.1	-72.9	3.8	7.49e-01	0	43	104	0	81	28575
2026-01-24 12:55:36.88	227.32	25.79	-55.1	-72.9	3.8	7.45e-01	0	43	104	0	81	28675
2026-01-24 12:55:37.89	227.61	25.90	-55.1	-73.0	3.8	7.48e-01	0	43	104	0	81	28686
2026-01-24 12:55:38.90	227.90	26.02	-55.1	-73.0	3.8	7.44e-01	0	43	104	0	81	28695
2026-01-24 12:55:39.91	228.19	26.13	-55.1	-72.9	3.8	7.47e-01	0	43	104	0	81	28617
2026-01-24 12:55:40.92	228.49	26.25	-55.1	-72.9	3.8	7.50e-01	0	43	104	0	81	28610
2026-01-24 12:55:41.93	228.78	26.36	-55.1	-73.0	3.8	7.43e-01	0	43	104	0	81	28702
2026-01-24 12:55:42.94	229.08	26.47	-55.1	-72.9	3.8	7.47e-01	0	43	104	0	81	28658
2026-01-24 12:55:43.95	229.38	26.59	-55.1	-72.9	3.8	7.45e-01	0	43	104	0	81	28640
2026-01-24 12:55:44.95	229.68	26.70	-55.1	-72.9	3.8	7.46e-01	0	43	104	0	81	28671
2026-01-24 12:55:45.96	229.99	26.81	-55.1	-72.9	3.8	7.45e-01	0	43	104	0	81	28664
2026-01-24 12:55:46.97	230.30	26.92	-55.1	-72.9	3.8	7.44e-01	0	43	104	0	81	28649
2026-01-24 12:55:47.98	230.61	27.03	-55.1	-72.9	3.8	7.45e-01	0	43	104	0	81	28625
2026-01-24 12:55:48.99	230.92	27.14	-55.1	-72.9	3.8	7.47e-01	0	43	104	0	81	28663
2026-01-24 12:55:50.00	231.23	27.26	-55.1	-72.9	3.8	7.46e-01	0	43	104	0	81	28619
2026-01-24 12:55:51.01	231.55	27.37	-55.1	-73.0	3.8	7.44e-01	0	43	104	0	81	28701
2026-01-24 12:55:52.01	231.86	27.48	-55.1	-72.9	3.8	7.44e-01	0	43	104	0	81	28605
2026-01-24 12:55:53.02	232.18	27.59	-55.1	-72.9	3.8	7.48e-01	0	43	104	0	81	28646
2026-01-24 12:55:54.03	232.51	27.69	-55.1	-72.9	3.8	7.48e-01	0	43	104	0	81	28663
2026-01-24 12:55:55.04	232.83	27.80	-55.1	-72.9	3.8	7.46e-01	0	43	104	0	81	28627
2026-01-24 12:55:56.05	233.16	27.91	-55.1	-72.9	3.8	7.42e-01	0	43	104	0	81	28550
2026-01-24 12:55:57.05	233.48	28.02	-55.1	-72.9	3.8	7.46e-01	0	43	104	0	81	28657
2026-01-24 12:55:58.06	233.82	28.13	-55.1	-72.9	3.8	7.44e-01	0	43	104	0	81	28600
2026-01-24 12:55:59.07	234.15	28.23	-55.1	-72.9	3.8	7.44e-01	0	43	104	0	81	28646
2026-01-24 12:56:00.08	234.49	28.34	-55.1	-72.9	3.8	7.47e-01	0	44	104	0	81	28653
2026-01-24 12:56:01.09	234.82	28.44	-55.1	-72.9	3.8	7.45e-01	0	43	104	0	81	28636
2026-01-24 12:56:02.10	235.16	28.55	-55.1	-72.9	3.8	7.47e-01	0	43	104	0	81	28668
2026-01-24 12:56:03.11	235.51	28.65	-55.1	-72.9	3.8	7.45e-01	0	43	104	0	81	28620
2026-01-24 12:56:04.12	235.85	28.76	-55.1	-72.9	3.8	7.43e-01	0	43	104	0	81	28637
2026-01-24 12:56:05.13	236.20	28.86	-55.1	-72.9	3.8	7.45e-01	0	44	104	0	81	28621
2026-01-24 12:56:06.13	236.55	28.96	-55.1	-72.9	3.8	7.49e-01	0	43	104	0	81	28596
2026-01-24 12:56:07.14	236.90	29.06	-55.1	-72.9	3.8	7.44e-01	0	44	104	0	81	28651
2026-01-24 12:56:08.15	237.25	29.16	-55.1	-72.9	3.8	7.44e-01	0	43	104	0	81	28662
2026-01-24 12:56:09.16	237.61	29.26	-55.1	-72.9	3.8	7.44e-01	0	43	104	0	81	28642
2026-01-24 12:56:10.17	237.97	29.36	-55.1	-72.9	3.8	7.45e-01	0	43	104	0	81	28625
2026-01-24 12:56:11.17	238.33	29.46	-55.1	-72.9	3.8	7.47e-01	0	43	104	0	81	28673
2026-01-24 12:56:12.18	238.69	29.56	-55.1	-72.9	3.8	7.43e-01	0	43	104	0	81	28574
2026-01-24 12:56:13.19	239.05	29.65	-55.1	-72.9	3.8	7.44e-01	0	43	104	0	81	28633
2026-01-24 12:56:14.20	239.42	29.75	-55.1	-72.9	3.8	7.45e-01	0	43	104	0	81	28653
2026-01-24 12:56:15.21	239.79	29.84	-55.1	-72.9	3.8	7.47e-01	0	44	104	0	81	28591
2026-01-24 12:56:16.22	240.16	29.94	-55.1	-72.9	3.8	7.44e-01	0	44	104	0	81	28615
2026-01-24 12:56:17.23	240.54	30.03	-55.1	-72.9	3.8	7.46e-01	0	43	104	0	81	28620
2026-01-24 12:56:18.24	240.92	30.12	-55.1	-72.9	3.8	7.44e-01	0	43	104	0	81	28659
2026-01-24 12:56:19.24	241.29	30.21	-55.1	-72.9	3.8	7.46e-01	0	43	104	0	81	28658
2026-01-24 12:56:20.25	241.67	30.30	-55.1	-72.9	3.8	7.49e-01	0	43	104	0	81	28649
2026-01-24 12:56:21.26	242.05	30.39	-55.1	-72.9	3.8	7.46e-01	0	43	104	0	81	28629
2026-01-24 12:56:22.27	242.44	30.48	-55.1	-72.9	3.8	7.46e-01	0	43	104	0	81	28663
2026-01-24 12:56:23.27	242.82	30.57	-55.1	-73.0	3.8	7.45e-01	0	43	104	0	81	28685
2026-01-24 12:56:24.28	243.21	30.65	-55.1	-73.0	3.8	7.46e-01	0	43	104	0	81	28699
2026-01-24 12:56:25.29	243.60	30.74	-55.1	-72.9	3.8	7.47e-01	0	43	104	0	81	28615
2026-01-24 12:56:26.29	243.99	30.82	-55.1	-72.9	3.8	7.44e-01	0	43	104	0	81	28645
2026-01-24 12:56:27.30	244.39	30.90	-55.1	-72.9	3.8	7.46e-01	0	43	104	0	81	28649
2026-01-24 12:56:28.31	244.79	30.98	-55.1	-73.0	3.8	7.46e-01	0	43	104	0	81	28710
2026-01-24 12:56:29.32	245.19	31.06	-55.1	-73.0	3.8	7.43e-01	0	43	104	0	81	28685
2026-01-24 12:56:30.33	245.59	31.14	-55.1	-72.9	3.8	7.43e-01	0	43	104	0	81	28596
2026-01-24 12:56:31.33	245.99	31.22	-55.1	-72.9	3.8	7.47e-01	0	43	104	0	81	28616
2026-01-24 12:56:32.34	246.39	31.30	-55.1	-72.9	3.8	7.44e-01	0	43	104	0	81	28631
2026-01-24 12:56:33.35	246.80	31.37	-55.1	-72.9	3.8	7.47e-01	0	43	104	0	81	28660
2026-01-24 12:56:34.36	247.21	31.44	-55.1	-72.9	3.8	7.50e-01	0	43	104	0	81	28660
2026-01-24 12:56:35.37	247.62	31.52	-55.1	-72.9	3.8	7.42e-01	0	44	104	0	81	28643
2026-01-24 12:56:36.37	248.03	31.59	-55.1	-72.9	3.8	7.45e-01	0	43	104	0	81	28580
2026-01-24 12:56:37.38	248.44	31.66	-55.1	-72.9	3.8	7.42e-01	0	43	104	0	81	28619
2026-01-24 12:56:38.39	248.86	31.72	-55.1	-72.9	3.8	7.45e-01	0	43	104	0	81	28626
2026-01-24 12:56:39.40	249.28	31.79	-55.1	-72.9	3.8	7.43e-01	0	44	104	0	81	28564
2026-01-24 12:56:40.41	249.70	31.85	-55.1	-72.9	3.8	7.47e-01	0	43	104	0	81	28566
2026-01-24 12:56:41.42	250.12	31.92	-55.1	-72.9	3.8	7.46e-01	0	43	104	0	81	28667
2026-01-24 12:56:42.42	250.54	31.98	-55.1	-72.9	3.8	7.46e-01	0	43	104	0	81	28592
2026-01-24 12:56:43.43	250.96	32.04	-55.1	-72.9	3.8	7.46e-01	0	43	104	0	81	28512
2026-01-24 12:56:44.44	251.39	32.10	-55.1	-72.9	3.8	7.48e-01	0	43	104	0	81	28617
2026-01-24 12:56:45.45	251.82	32.16	-55.1	-72.9	3.8	7.44e-01	0	43	104	0	81	28565
2026-01-24 12:56:46.45	252.24	32.21	-55.1	-72.9	3.8	7.47e-01	0	43	104	0	81	28539
2026-01-24 12:56:47.46	252.67	32.27	-55.1	-72.9	3.8	7.46e-01	0	43	104	0	81	28567
2026-01-24 12:56:48.47	253.10	32.32	-55.1	-72.9	3.8	7.49e-01	0	43	104	0	81	28519
2026-01-24 12:56:49.48	253.54	32.37	-55.1	-72.9	3.8	7.45e-01	0	44	104	0	81	28537
2026-01-24 12:56:50.49	253.97	32.42	-55.1	-72.9	3.8	7.40e-01	0	43	104	0	81	28537
2026-01-24 12:56:51.49	254.41	32.46	-55.1	-72.9	3.8	7.47e-01	0	43	104	0	81	28549
2026-01-24 12:56:52.50	254.84	32.51	-55.1	-72.9	3.8	7.47e-01	0	43	104	0	81	28541
2026-01-24 12:56:53.51	255.28	32.55	-55.1	-72.9	3.8	7.47e-01	0	43	104	0	81	28490
2026-01-24 12:56:54.52	255.72	32.60	-55.1	-72.9	3.8	7.46e-01	0	43	104	0	81	28502
2026-01-24 12:56:55.53	256.16	32.64	-55.1	-72.9	3.8	7.48e-01	0	44	104	0	81	28499
2026-01-24 12:56:56.54	256.60	32.68	-55.1	-72.9	3.8	7.43e-01	0	43	104	0	81	28459
2026-01-24 12:56:57.55	257.05	32.71	-55.1	-72.9	3.8	7.45e-01	0	43	104	0	81	28488
2026-01-24 12:56:58.56	257.49	32.75	-55.1	-72.9	3.8	7.43e-01	0	43	104	0	81	28428
2026-01-24 12:56:59.56	257.93	32.78	-55.1	-72.9	3.8	7.48e-01	0	43	104	0	81	28416
2026-01-24 12:57:00.57	258.38	32.81	-55.1	-72.9	3.8	7.45e-01	0	43	104	0	81	28461
2026-01-24 12:57:01.58	258.83	32.84	-55.1	-72.9	3.8	7.46e-01	0	44	104	0	81	28421
2026-01-24 12:57:02.59	259.27	32.87	-55.1	-72.9	3.8	7.48e-01	0	44	104	0	81	28398
2026-01-24 12:57:03.59	259.72	32.90	-55.1	-72.9	3.8	7.49e-01	0	43	104	0	81	28408
2026-01-24 12:57:04.60	260.17	32.92	-55.1	-72.9	3.8	7.42e-01	0	43	104	0	81	28424
2026-01-24 12:57:05.61	260.62	32.94	-55.1	-72.9	3.8	7.46e-01	0	43	104	0	81	28427
2026-01-24 12:57:06.62	261.07	32.97	-55.1	-72.9	3.8	7.45e-01	0	43	104	0	81	28441
2026-01-24 12:57:07.63	261.52	32.98	-55.1	-72.9	3.8	7.51e-01	0	43	104	0	81	28404
2026-01-24 12:57:08.63	261.96	33.00	-55.1	-72.9	3.8	7.42e-01	0	43	104	0	81	28466
2026-01-24 12:57:09.64	262.42	33.02	-55.1	-72.9	3.8	7.45e-01	0	43	104	0	81	28484
2026-01-24 12:57:10.65	262.87	33.03	-55.1	-72.9	3.8	7.45e-01	0	44	104	0	81	28479
2026-01-24 12:57:11.66	263.32	33.04	-55.1	-72.9	3.8	7.47e-01	0	43	104	0	81	28437
2026-01-24 12:57:12.67	263.77	33.05	-55.1	-72.9	3.8	7.45e-01	0	43	104	0	81	28411
2026-01-24 12:57:13.67	264.22	33.06	-55.1	-72.9	3.8	7.43e-01	0	43	104	0	81	28447
2026-01-24 12:57:14.68	264.68	33.06	-55.1	-72.9	3.8	7.47e-01	0	43	104	0	81	28494
2026-01-24 12:57:15.69	265.13	33.07	-55.0	-72.9	3.8	7.50e-01	0	43	104	0	81	28420
2026-01-24 12:57:16.70	265.58	33.07	-55.1	-72.8	3.8	7.45e-01	0	43	104	0	81	28312
2026-01-24 12:57:17.71	266.04	33.07	-55.0	-72.8	3.8	7.46e-01	0	43	104	0	81	28333
2026-01-24 12:57:18.72	266.49	33.06	-55.0	-72.9	3.8	7.46e-01	0	43	104	0	81	28388
2026-01-24 12:57:19.73	266.94	33.06	-55.0	-72.9	3.8	7.45e-01	0	43	104	0	81	28388
2026-01-24 12:57:20.73	267.39	33.05	-55.0	-72.8	3.8	7.44e-01	0	43	104	0	81	28333
2026-01-24 12:57:21.74	267.84	33.05	-55.0	-72.9	3.8	7.43e-01	0	43	104	0	81	28386
2026-01-24 12:57:22.75	268.30	33.04	-55.0	-72.8	3.8	7.50e-01	0	43	104	0	81	28321
2026-01-24 12:57:23.76	268.75	33.03	-55.0	-72.8	3.8	7.46e-01	0	43	104	0	81	28337
2026-01-24 12:57:24.77	269.20	33.01	-55.0	-72.8	3.8	7.42e-01	0	43	104	0	81	28246
2026-01-24 12:57:25.78	269.65	33.00	-55.0	-72.8	3.8	7.47e-01	0	43	104	0	81	28167
2026-01-24 12:57:26.79	270.10	32.98	-55.0	-72.8	3.8	7.45e-01	0	43	104	0	81	28213
2026-01-24 12:57:27.79	270.55	32.96	-55.0	-72.8	3.8	7.48e-01	0	43	104	0	81	28321
2026-01-24 12:57:28.80	271.00	32.94	-55.1	-72.8	3.8	7.47e-01	0	43	104	0	81	28306
2026-01-24 12:57:29.81	271.45	32.92	-55.1	-72.9	3.8	7.44e-01	0	43	104	0	81	28377
2026-01-24 12:57:30.82	271.90	32.89	-55.0	-72.8	3.8	7.48e-01	0	43	104	0	81	28305
2026-01-24 12:57:31.83	272.35	32.86	-55.1	-72.9	3.8	7.44e-01	0	44	104	0	81	28434
2026-01-24 12:57:32.84	272.79	32.84	-55.1	-72.9	3.8	7.45e-01	0	43	104	0	81	28438
2026-01-24 12:57:33.85	273.24	32.80	-55.1	-72.9	3.8	7.44e-01	0	43	104	0	81	28416
2026-01-24 12:57:34.85	273.68	32.77	-55.1	-72.9	3.8	7.48e-01	0	43	104	0	81	28372
2026-01-24 12:57:35.86	274.12	32.74	-55.1	-72.9	3.8	7.43e-01	0	43	104	0	81	28411
2026-01-24 12:57:36.87	274.57	32.70	-55.1	-72.9	3.8	7.45e-01	0	43	104	0	81	28453
2026-01-24 12:57:37.88	275.01	32.67	-55.1	-72.9	3.8	7.48e-01	0	43	104	0	81	28464
2026-01-24 12:57:38.89	275.45	32.63	-55.1	-72.9	3.8	7.43e-01	0	43	104	0	81	28404
2026-01-24 12:57:39.89	275.89	32.59	-55.1	-72.9	3.8	7.44e-01	0	43	104	0	81	28433
2026-01-24 12:57:40.90	276.33	32.54	-55.1	-72.9	3.8	7.49e-01	0	43	104	0	81	28408
2026-01-24 12:57:41.91	276.76	32.50	-55.1	-72.9	3.8	7.47e-01	0	44	104	0	81	28381
2026-01-24 12:57:42.92	277.20	32.45	-55.1	-72.8	3.8	7.46e-01	0	43	104	0	81	28340
2026-01-24 12:57:43.93	277.64	32.40	-55.0	-72.9	3.8	7.48e-01	0	43	104	0	81	28381
2026-01-24 12:57:44.94	278.07	32.35	-55.0	-72.8	3.8	7.43e-01	0	43	104	0	81	28325
2026-01-24 12:57:45.95	278.50	32.30	-55.0	-72.8	3.8	7.44e-01	0	43	104	0	81	28290
2026-01-24 12:57:46.95	278.93	32.25	-55.0	-72.8	3.8	7.45e-01	0	43	104	0	81	28330
2026-01-24 12:57:47.96	279.36	32.20	-55.1	-72.9	3.8	7.46e-01	0	43	104	0	81	28375
2026-01-24 12:57:48.97	279.79	32.14	-55.1	-72.9	3.8	7.43e-01	0	43	104	0	81	28406
2026-01-24 12:57:49.98	280.21	32.08	-55.1	-72.9	3.8	7.45e-01	0	43	104	0	81	28441
2026-01-24 12:57:50.99	280.64	32.02	-55.1	-72.9	3.8	7.44e-01	0	44	104	0	81	28394
2026-01-24 12:57:51.99	281.06	31.96	-55.1	-72.9	3.8	7.48e-01	0	43	104	0	81	28417
2026-01-24 12:57:53.00	281.48	31.90	-55.1	-72.9	3.8	7.45e-01	0	43	104	0	81	28398
2026-01-24 12:57:54.01	281.90	31.84	-55.1	-72.9	3.8	7.45e-01	0	43	104	0	81	28528
2026-01-24 12:57:55.02	282.32	31.77	-55.0	-72.9	3.8	7.45e-01	0	43	104	0	81	28387
2026-01-24 12:57:56.03	282.74	31.70	-55.0	-72.9	3.8	7.46e-01	0	44	104	0	81	28368
2026-01-24 12:57:57.03	283.15	31.64	-55.1	-72.8	3.8	7.48e-01	0	43	104	0	81	28349
2026-01-24 12:57:58.04	283.56	31.57	-55.1	-72.8	3.8	7.45e-01	0	43	104	0	81	28315
2026-01-24 12:57:59.05	283.97	31.50	-55.1	-72.9	3.8	7.44e-01	0	43	104	0	81	28392
2026-01-24 12:58:00.06	284.38	31.42	-55.1	-72.9	3.8	7.43e-01	0	43	104	0	81	28434
2026-01-24 12:58:01.07	284.79	31.35	-55.1	-72.9	3.8	7.50e-01	0	43	104	0	81	28382
2026-01-24 12:58:02.08	285.20	31.28	-55.0	-72.8	3.8	7.47e-01	0	43	104	0	81	28282
2026-01-24 12:58:03.08	285.60	31.20	-55.0	-72.8	3.8	7.46e-01	0	43	104	0	81	28278
2026-01-24 12:58:04.09	286.00	31.12	-55.0	-72.8	3.8	7.46e-01	0	43	104	0	81	28209
2026-01-24 12:58:05.10	286.40	31.04	-55.0	-72.9	3.8	7.44e-01	0	43	104	0	81	28391
2026-01-24 12:58:06.10	286.79	30.97	-55.0	-72.9	3.8	7.45e-01	0	43	104	0	81	28371
2026-01-24 12:58:07.11	287.19	30.88	-55.0	-72.9	3.8	7.47e-01	0	43	104	0	81	28363
2026-01-24 12:58:08.12	287.58	30.80	-55.0	-72.8	3.8	7.46e-01	0	43	104	0	81	28339
2026-01-24 12:58:09.13	287.97	30.72	-55.0	-72.8	3.8	7.42e-01	0	43	104	0	81	28343
2026-01-24 12:58:10.14	288.36	30.63	-55.0	-72.9	3.8	7.43e-01	0	43	104	0	81	28374
2026-01-24 12:58:11.15	288.75	30.55	-55.0	-72.9	3.8	7.44e-01	0	43	104	0	81	28352
2026-01-24 12:58:12.16	289.14	30.46	-55.0	-72.8	3.8	7.43e-01	0	43	104	0	81	28345
2026-01-24 12:58:13.17	289.52	30.37	-55.0	-72.8	3.8	7.44e-01	0	43	104	0	81	28344
2026-01-24 12:58:14.18	289.90	30.28	-55.0	-72.8	3.8	7.45e-01	0	43	104	0	81	28329
2026-01-24 12:58:15.18	290.28	30.19	-55.0	-72.8	3.8	7.43e-01	0	43	104	0	81	28297
2026-01-24 12:58:16.19	290.65	30.10	-55.0	-72.9	3.8	7.48e-01	0	43	104	0	81	28427
2026-01-24 12:58:17.20	291.03	30.01	-55.0	-72.9	3.8	7.47e-01	0	43	104	0	81	28359
2026-01-24 12:58:18.21	291.40	29.92	-55.0	-72.9	3.8	7.41e-01	0	43	104	0	81	28363
2026-01-24 12:58:19.21	291.77	29.83	-55.0	-72.9	3.8	7.44e-01	0	43	104	0	81	28368
2026-01-24 12:58:20.22	292.14	29.73	-55.0	-72.9	3.8	7.46e-01	0	43	104	0	81	28367
2026-01-24 12:58:21.23	292.50	29.63	-55.0	-72.8	3.8	7.45e-01	0	43	104	0	81	28330
2026-01-24 12:58:22.24	292.86	29.54	-55.0	-72.9	3.8	7.46e-01	0	43	104	0	81	28381
2026-01-24 12:58:23.25	293.23	29.44	-55.0	-72.9	3.8	7.41e-01	0	43	104	0	81	28403
2026-01-24 12:58:24.25	293.58	29.34	-55.0	-72.9	3.8	7.42e-01	0	43	104	0	81	28397
2026-01-24 12:58:25.26	293.94	29.24	-55.0	-72.8	3.8	7.45e-01	0	43	104	0	81	28303
2026-01-24 12:58:26.27	294.29	29.14	-55.0	-72.9	3.8	7.43e-01	0	44	104	0	81	28413
2026-01-24 12:58:27.28	294.65	29.04	-55.0	-72.8	3.8	7.47e-01	0	43	104	0	81	28336
2026-01-24 12:58:28.29	295.00	28.94	-55.0	-72.9	3.8	7.43e-01	0	43	104	0	81	28393
2026-01-24 12:58:29.29	295.34	28.84	-55.0	-72.9	3.8	7.45e-01	0	43	104	0	81	28396
2026-01-24 12:58:30.30	295.69	28.74	-55.0	-72.8	3.8	7.50e-01	0	43	104	0	81	28347
2026-01-24 12:58:31.31	296.03	28.64	-55.0	-72.9	3.8	7.48e-01	0	43	104	0	81	28386
2026-01-24 12:58:32.32	296.37	28.53	-55.0	-72.8	3.8	7.43e-01	0	43	104	0	81	28288
2026-01-24 12:58:33.33	296.71	28.43	-55.0	-72.8	3.8	7.46e-01	0	43	104	0	81	28322
2026-01-24 12:58:34.34	297.05	28.32	-55.0	-72.8	3.8	7.46e-01	0	43	104	0	81	28335
2026-01-24 12:58:35.35	297.38	28.22	-55.0	-72.8	3.8	7.49e-01	0	43	104	0	81	28303
2026-01-24 12:58:36.35	297.71	28.11	-55.0	-72.8	3.8	7.45e-01	0	43	104	0	81	28325
2026-01-24 12:58:37.37	298.05	28.00	-55.0	-72.8	3.8	7.48e-01	0	43	104	0	81	28333
2026-01-24 12:58:38.37	298.37	27.90	-55.0	-72.8	3.8	7.47e-01	0	43	104	0	81	28283
2026-01-24 12:58:39.38	298.70	27.79	-55.0	-72.8	3.8	7.43e-01	0	43	104	0	81	28275
2026-01-24 12:58:40.39	299.02	27.68	-55.0	-72.9	3.8	7.45e-01	0	43	104	0	81	28354
2026-01-24 12:58:41.41	299.34	27.57	-55.0	-72.8	3.8	7.45e-01	0	43	104	0	81	28295
2026-01-24 12:58:42.41	299.66	27.46	-55.0	-72.8	3.8	7.48e-01	0	43	104	0	81	28203
2026-01-24 12:58:43.42	299.98	27.35	-55.0	-72.8	3.8	7.45e-01	0	43	104	0	81	28303
2026-01-24 12:58:44.43	300.29	27.24	-55.0	-72.8	3.8	7.41e-01	0	43	104	0	81	28284
2026-01-24 12:58:45.44	300.60	27.13	-55.0	-72.8	3.8	7.42e-01	0	43	104	0	81	28255
2026-01-24 12:58:46.45	300.91	27.02	-55.0	-72.8	3.8	7.45e-01	0	43	104	0	81	28292
2026-01-24 12:58:47.46	301.22	26.91	-55.0	-72.8	3.8	7.45e-01	0	43	104	0	81	28232
2026-01-24 12:58:48.47	301.53	26.80	-55.0	-72.8	3.8	7.44e-01	0	43	104	0	81	28340
2026-01-24 12:58:49.48	301.83	26.69	-55.0	-72.9	3.8	7.43e-01	0	43	104	0	81	28396
2026-01-24 12:58:50.49	302.13	26.57	-55.0	-72.8	3.8	7.46e-01	0	43	104	0	81	28297
2026-01-24 12:58:51.49	302.43	26.46	-55.0	-72.8	3.8	7.47e-01	0	43	104	0	81	28301
2026-01-24 12:58:52.50	302.72	26.35	-55.0	-72.8	3.8	7.45e-01	0	44	104	0	81	28293
2026-01-24 12:58:53.51	303.02	26.24	-55.0	-72.8	3.8	7.47e-01	0	43	104	0	81	28302
2026-01-24 12:58:54.52	303.31	26.12	-55.0	-72.8	3.8	7.41e-01	0	43	104	0	81	28272
2026-01-24 12:58:55.53	303.60	26.01	-55.0	-72.8	3.8	7.49e-01	0	43	104	0	81	28333
2026-01-24 12:58:56.53	303.89	25.90	-55.0	-72.8	3.8	7.45e-01	0	43	104	0	81	28265
2026-01-24 12:58:57.54	304.17	25.78	-55.0	-72.8	3.8	7.47e-01	0	43	104	0	81	28325
2026-01-24 12:58:58.55	304.46	25.67	-55.0	-72.9	3.8	7.44e-01	0	43	104	0	81	28365
2026-01-24 12:58:59.56	304.74	25.56	-55.0	-72.8	3.8	7.45e-01	0	43	104	0	81	28320
2026-01-24 12:59:00.56	305.02	25.44	-55.0	-72.8	3.8	7.45e-01	0	43	104	0	81	28270
2026-01-24 12:59:01.57	305.29	25.33	-55.0	-72.8	3.8	7.47e-01	0	43	104	0	81	28284
2026-01-24 12:59:02.58	305.57	25.21	-55.0	-72.8	3.8	7.47e-01	0	43	104	0	81	28316
2026-01-24 12:59:03.59	305.84	25.10	-55.0	-72.8	3.8	7.45e-01	0	43	104	0	81	28230
2026-01-24 12:59:04.60	306.12	24.98	-55.0	-72.8	3.8	7.48e-01	0	43	104	0	81	28262
2026-01-24 12:59:05.61	306.39	24.87	-55.0	-72.8	3.8	7.47e-01	0	43	104	0	81	28226
2026-01-24 12:59:06.61	306.65	24.75	-55.0	-72.8	3.8	7.49e-01	0	43	104	0	81	28159
2026-01-24 12:59:07.62	306.92	24.64	-55.0	-72.8	3.8	7.47e-01	0	43	104	0	81	28216
2026-01-24 12:59:08.63	307.18	24.52	-55.0	-72.8	3.8	7.50e-01	0	43	104	0	81	28225
2026-01-24 12:59:09.64	307.44	24.41	-55.0	-72.8	3.8	7.45e-01	0	43	104	0	81	28262
2026-01-24 12:59:10.65	307.70	24.29	-55.0	-72.8	3.8	7.41e-01	0	43	104	0	81	28314
2026-01-24 12:59:11.66	307.96	24.18	-55.0	-72.8	3.8	7.47e-01	0	43	104	0	81	28224
2026-01-24 12:59:12.67	308.22	24.06	-55.0	-72.8	3.8	7.45e-01	0	43	104	0	81	28252
2026-01-24 12:59:13.68	308.47	23.95	-55.0	-72.8	3.8	7.46e-01	0	43	104	0	81	28240
2026-01-24 12:59:14.69	308.72	23.83	-55.0	-72.8	3.8	7.46e-01	0	43	104	0	81	28200
2026-01-24 12:59:15.70	308.97	23.72	-55.0	-72.8	3.8	7.44e-01	0	43	104	0	81	28227
2026-01-24 12:59:16.71	309.22	23.60	-55.0	-72.8	3.8	7.43e-01	0	43	104	0	81	28215
2026-01-24 12:59:17.71	309.47	23.49	-55.0	-72.8	3.8	7.46e-01	0	43	104	0	81	28226
2026-01-24 12:59:18.72	309.71	23.37	-55.0	-72.8	3.8	7.46e-01	0	43	104	0	81	28219
2026-01-24 12:59:19.73	309.95	23.26	-55.0	-72.8	3.8	7.45e-01	0	43	104	0	81	28244
2026-01-24 12:59:20.74	310.19	23.14	-55.0	-72.8	3.8	7.45e-01	0	43	104	0	81	28240
2026-01-24 12:59:21.75	310.43	23.03	-55.0	-72.8	3.8	7.45e-01	0	43	104	0	81	28262
2026-01-24 12:59:22.75	310.67	22.91	-55.0	-72.8	3.8	7.46e-01	0	43	104	0	81	28316
2026-01-24 12:59:23.76	310.90	22.80	-55.0	-72.8	3.8	7.42e-01	0	43	104	0	81	28288
2026-01-24 12:59:24.77	311.14	22.68	-55.0	-72.8	3.8	7.43e-01	0	43	104	0	81	28265
2026-01-24 12:59:25.78	311.37	22.57	-55.0	-72.8	3.8	7.45e-01	0	43	104	0	81	28278
2026-01-24 12:59:26.79	311.60	22.45	-55.0	-72.8	3.8	7.45e-01	0	43	104	0	81	28257
2026-01-24 12:59:27.80	311.83	22.34	-55.0	-72.8	3.8	7.46e-01	0	43	104	0	81	28260
2026-01-24 12:59:28.81	312.06	22.22	-55.0	-72.8	3.8	7.44e-01	0	43	104	0	81	28241
2026-01-24 12:59:29.81	312.28	22.11	-55.0	-72.8	3.8	7.43e-01	0	43	104	0	81	28178
2026-01-24 12:59:30.82	312.50	22.00	-55.0	-72.8	3.8	7.41e-01	0	43	104	0	81	28286
2026-01-24 12:59:31.83	312.72	21.88	-55.0	-72.8	3.8	7.43e-01	0	43	104	0	81	28323
2026-01-24 12:59:32.84	312.94	21.77	-55.0	-72.8	3.8	7.45e-01	0	43	104	0	81	28250
2026-01-24 12:59:33.85	313.16	21.66	-55.0	-72.8	3.8	7.49e-01	0	43	104	0	81	28279
2026-01-24 12:59:34.86	313.38	21.54	-55.0	-72.8	3.8	7.42e-01	0	43	104	0	81	28318
2026-01-24 12:59:35.87	313.59	21.43	-55.0	-72.8	3.8	7.46e-01	0	43	104	0	81	28234
2026-01-24 12:59:36.87	313.81	21.32	-55.0	-72.8	3.8	7.46e-01	0	43	104	0	81	28268
2026-01-24 12:59:37.88	314.02	21.20	-55.0	-72.8	3.8	7.45e-01	0	43	104	0	81	28287
2026-01-24 12:59:38.89	314.23	21.09	-55.0	-72.8	3.8	7.46e-01	0	43	104	0	81	28226
2026-01-24 12:59:39.90	314.44	20.98	-55.0	-72.8	3.8	7.42e-01	0	43	104	0	81	28309
2026-01-24 12:59:40.91	314.64	20.87	-55.0	-72.8	3.8	7.45e-01	0	43	104	0	81	28297
2026-01-24 12:59:41.92	314.85	20.75	-55.0	-72.8	3.8	7.47e-01	0	43	104	0	81	28264
2026-01-24 12:59:42.93	315.05	20.64	-55.0	-72.8	3.8	7.46e-01	0	43	104	0	81	28249
2026-01-24 12:59:43.94	315.26	20.53	-55.0	-72.8	3.8	7.46e-01	0	43	104	0	81	28226
2026-01-24 12:59:44.95	315.46	20.42	-55.0	-72.8	3.8	7.43e-01	0	43	104	0	81	28207
2026-01-24 12:59:45.96	315.66	20.31	-55.0	-72.8	3.8	7.44e-01	0	43	104	0	81	28305
2026-01-24 12:59:46.97	315.86	20.20	-55.0	-72.8	3.8	7.45e-01	0	43	104	0	81	28253
2026-01-24 12:59:47.97	316.05	20.09	-55.0	-72.8	3.8	7.45e-01	0	43	104	0	81	28280
2026-01-24 12:59:48.98	316.25	19.98	-55.0	-72.8	3.8	7.43e-01	0	43	104	0	81	28258
2026-01-24 12:59:49.99	316.44	19.87	-55.0	-72.8	3.8	7.41e-01	0	43	104	0	81	28254
2026-01-24 12:59:51.00	316.63	19.76	-55.0	-72.8	3.8	7.44e-01	0	43	104	0	81	28289
2026-01-24 12:59:52.01	316.82	19.65	-55.0	-72.8	3.8	7.46e-01	0	43	104	0	81	28302
2026-01-24 12:59:53.01	317.01	19.54	-55.0	-72.8	3.8	7.45e-01	0	43	104	0	81	28298
2026-01-24 12:59:54.02	317.20	19.43	-55.0	-72.8	3.8	7.43e-01	0	43	104	0	81	28287
2026-01-24 12:59:55.03	317.39	19.32	-55.0	-72.8	3.8	7.45e-01	0	43	104	0	81	28290
2026-01-24 12:59:56.04	317.57	19.21	-55.0	-72.8	3.8	7.45e-01	0	43	104	0	81	28270
2026-01-24 12:59:57.05	317.76	19.10	-55.0	-72.8	3.8	7.46e-01	0	43	104	0	81	28277
2026-01-24 12:59:58.05	317.94	18.99	-55.0	-72.8	3.8	7.44e-01	0	43	104	0	81	28289
2026-01-24 12:59:59.06	318.12	18.88	-55.0	-72.8	3.8	7.44e-01	0	43	104	0	81	28330
2026-01-24 13:00:00.07	318.30	18.78	-55.0	-72.8	3.8	7.45e-01	0	43	104	0	81	28286
2026-01-24 13:00:01.08	318.48	18.67	-55.0	-72.8	3.8	7.44e-01	0	43	104	0	81	28267
2026-01-24 13:00:02.09	318.66	18.56	-55.0	-72.8	3.8	7.46e-01	0	43	104	0	81	28232
2026-01-24 13:00:03.10	318.83	18.45	-55.0	-72.8	3.8	7.42e-01	0	43	104	0	81	28259
2026-01-24 13:00:04.11	319.01	18.35	-55.0	-72.8	3.8	7.42e-01	0	43	104	0	81	28244
2026-01-24 13:00:05.11	319.18	18.24	-55.0	-72.8	3.8	7.47e-01	0	43	104	0	81	28272
2026-01-24 13:00:06.12	319.35	18.13	-55.0	-72.8	3.8	7.44e-01	0	43	104	0	81	28267
2026-01-24 13:00:07.13	319.52	18.03	-55.0	-72.8	3.8	7.45e-01	0	43	104	0	81	28273
2026-01-24 13:00:08.14	319.69	17.92	-55.0	-72.8	3.8	7.44e-01	0	43	104	0	81	28267
2026-01-24 13:00:09.15	319.86	17.82	-55.0	-72.8	3.8	7.47e-01	0	43	104	0	81	28245
2026-01-24 13:00:10.16	320.03	17.71	-55.0	-72.8	3.8	7.47e-01	0	43	104	0	81	28246
2026-01-24 13:00:11.17	320.20	17.61	-55.0	-72.8	3.8	7.44e-01	0	43	104	0	81	28267
2026-01-24 13:00:12.17	320.36	17.50	-55.0	-72.8	3.8	7.45e-01	0	43	104	0	81	28286
2026-01-24 13:00:13.18	320.52	17.40	-55.0	-72.8	3.8	7.46e-01	0	43	104	0	81	28253
2026-01-24 13:00:14.19	320.69	17.29	-55.0	-72.8	3.8	7.45e-01	0	43	104	0	81	28287
2026-01-24 13:00:15.20	320.85	17.19	-55.0	-72.8	3.8	7.41e-01	0	43	104	0	81	28270
2026-01-24 13:00:16.21	321.01	17.09	-55.0	-72.8	3.8	7.43e-01	0	43	104	0	81	28308
2026-01-24 13:00:17.21	321.17	16.98	-55.0	-72.8	3.8	7.47e-01	0	43	104	0	81	28287
2026-01-24 13:00:18.22	321.33	16.88	-55.0	-72.8	3.8	7.44e-01	0	43	104	0	81	28296
2026-01-24 13:00:19.23	321.48	16.78	-55.0	-72.8	3.8	7.46e-01	0	43	104	0	81	28346
2026-01-24 13:00:20.24	321.64	16.68	-55.0	-72.8	3.8	7.47e-01	0	43	104	0	81	28291
2026-01-24 13:00:21.25	321.79	16.57	-55.0	-72.8	3.8	7.42e-01	0	43	104	0	81	28266
2026-01-24 13:00:22.26	321.95	16.47	-55.0	-72.8	3.8	7.45e-01	0	43	104	0	81	28217
2026-01-24 13:00:23.27	322.10	16.37	-55.0	-72.8	3.8	7.45e-01	0	43	104	0	81	28263
2026-01-24 13:00:24.28	322.25	16.27	-55.0	-72.8	3.8	7.44e-01	0	43	104	0	81	28299
2026-01-24 13:00:25.29	322.40	16.17	-55.0	-72.9	3.8	7.47e-01	0	43	104	0	81	28370
2026-01-24 13:00:26.30	322.55	16.07	-55.0	-72.8	3.8	7.44e-01	0	43	104	0	81	28214
2026-01-24 13:00:27.31	322.70	15.97	-55.0	-72.8	3.8	7.47e-01	0	43	104	0	81	28205
2026-01-24 13:00:28.32	322.85	15.87	-55.0	-72.8	3.8	7.48e-01	0	43	104	0	81	28254
2026-01-24 13:00:29.33	323.00	15.77	-55.0	-72.8	3.8	7.47e-01	0	43	104	0	81	28323
2026-01-24 13:00:30.33	323.14	15.67	-55.0	-72.8	3.8	7.44e-01	0	44	104	0	81	28271
2026-01-24 13:00:31.34	323.29	15.57	-55.0	-72.8	3.8	7.45e-01	0	43	104	0	81	28227
2026-01-24 13:00:32.35	323.43	15.47	-55.0	-72.8	3.8	7.44e-01	0	43	104	0	81	28223
2026-01-24 13:00:33.36	323.57	15.37	-55.0	-72.8	3.8	7.43e-01	0	43	104	0	81	28244
2026-01-24 13:00:34.37	323.71	15.27	-55.0	-72.8	3.8	7.43e-01	0	43	104	0	81	28263
2026-01-24 13:00:35.37	323.85	15.17	-55.0	-72.8	3.8	7.43e-01	0	43	104	0	81	28269
2026-01-24 13:00:36.38	323.99	15.08	-55.0	-72.8	3.8	7.49e-01	0	43	104	0	81	28230
2026-01-24 13:00:37.39	324.13	14.98	-55.0	-72.8	3.8	7.43e-01	0	43	104	0	81	28213
2026-01-24 13:00:38.40	324.27	14.88	-55.0	-72.8	3.8	7.47e-01	0	43	104	0	81	28275
2026-01-24 13:00:39.41	324.41	14.78	-55.0	-72.8	3.8	7.48e-01	0	43	104	0	81	28334
2026-01-24 13:00:40.42	324.54	14.69	-55.0	-72.8	3.8	7.44e-01	0	43	104	0	81	28241
2026-01-24 13:00:41.43	324.68	14.59	-55.0	-72.8	3.8	7.47e-01	0	43	104	0	81	28232
2026-01-24 13:00:42.43	324.81	14.50	-55.0	-72.8	3.8	7.45e-01	0	43	104	0	81	28267
2026-01-24 13:00:43.44	324.94	14.40	-55.0	-72.8	3.8	7.48e-01	0	43	104	0	81	28285
2026-01-24 13:00:44.45	325.08	14.30	-55.0	-72.8	3.8	7.43e-01	0	43	104	0	81	28270
2026-01-24 13:00:45.46	325.21	14.21	-55.0	-72.8	3.8	7.45e-01	0	43	104	0	81	28288
2026-01-24 13:00:46.47	325.34	14.11	-55.0	-72.8	3.8	7.44e-01	0	43	104	0	81	28308
2026-01-24 13:00:47.48	325.47	14.02	-55.0	-72.8	3.8	7.45e-01	0	43	104	0	81	28311
2026-01-24 13:00:48.49	325.60	13.92	-55.0	-72.8	3.8	7.44e-01	0	43	104	0	81	28301
2026-01-24 13:00:49.49	325.73	13.83	-55.0	-72.8	3.8	7.46e-01	0	43	104	0	81	28243
2026-01-24 13:00:50.50	325.85	13.74	-55.0	-72.8	3.8	7.44e-01	0	43	104	0	81	28295
2026-01-24 13:00:51.51	325.98	13.64	-55.0	-72.8	3.8	7.47e-01	0	43	104	0	81	28295
2026-01-24 13:00:52.52	326.11	13.55	-55.0	-72.8	3.8	7.47e-01	0	43	104	0	81	28211
2026-01-24 13:00:53.53	326.23	13.46	-55.0	-72.8	3.8	7.47e-01	0	43	104	0	81	28334
2026-01-24 13:00:54.53	326.35	13.37	-55.0	-72.8	3.8	7.45e-01	0	43	104	0	81	28259
2026-01-24 13:00:55.54	326.48	13.27	-55.0	-72.8	3.8	7.46e-01	0	43	104	0	81	28269
2026-01-24 13:00:56.55	326.60	13.18	-55.0	-72.8	3.8	7.46e-01	0	43	104	0	81	28296
2026-01-24 13:00:57.56	326.72	13.09	-55.0	-72.8	3.8	7.44e-01	0	43	104	0	81	28299
2026-01-24 13:00:58.57	326.84	13.00	-55.0	-72.8	3.8	7.48e-01	0	43	104	0	81	28278
2026-01-24 13:00:59.57	326.96	12.91	-55.0	-72.8	3.8	7.43e-01	0	43	104	0	81	28282
2026-01-24 13:01:00.58	327.08	12.82	-55.0	-72.8	3.8	7.45e-01	0	43	104	0	81	28281
2026-01-24 13:01:01.59	327.20	12.72	-55.0	-72.8	3.8	7.46e-01	0	43	104	0	81	28262
2026-01-24 13:01:02.60	327.32	12.63	-55.0	-72.8	3.8	7.46e-01	0	43	104	0	81	28320
2026-01-24 13:01:03.61	327.44	12.54	-55.0	-72.8	3.8	7.44e-01	0	43	104	0	81	28324
2026-01-24 13:01:04.61	327.55	12.45	-55.0	-72.8	3.8	7.46e-01	0	43	104	0	81	28278
2026-01-24 13:01:05.62	327.67	12.36	-55.0	-72.8	3.8	7.44e-01	0	43	104	0	81	28307
2026-01-24 13:01:06.63	327.78	12.28	-55.0	-72.8	3.8	7.43e-01	0	43	104	0	81	28274
2026-01-24 13:01:07.64	327.90	12.19	-55.0	-72.8	3.8	7.46e-01	0	43	104	0	81	28270
2026-01-24 13:01:08.65	328.01	12.10	-55.0	-72.8	3.8	7.45e-01	0	43	104	0	81	28309
2026-01-24 13:01:09.66	328.12	12.01	-55.0	-72.8	3.8	7.43e-01	0	43	104	0	81	28332
2026-01-24 13:01:10.67	328.23	11.92	-55.0	-72.8	3.8	7.41e-01	0	43	104	0	81	28345
2026-01-24 13:01:11.68	328.35	11.83	-55.0	-72.8	3.8	7.44e-01	0	43	104	0	81	28318
2026-01-24 13:01:12.69	328.46	11.74	-55.0	-72.8	3.8	7.46e-01	0	43	104	0	81	28315
2026-01-24 13:01:13.69	328.57	11.66	-55.0	-72.8	3.8	7.47e-01	0	43	104	0	81	28325
2026-01-24 13:01:14.70	328.68	11.57	-55.0	-72.8	3.8	7.43e-01	0	43	104	0	81	28288
2026-01-24 13:01:15.71	328.78	11.48	-55.0	-72.8	3.8	7.46e-01	0	43	104	0	81	28338
2026-01-24 13:01:16.72	328.89	11.40	-55.0	-72.8	3.8	7.42e-01	0	43	104	0	81	28259
2026-01-24 13:01:17.73	329.00	11.31	-55.0	-72.8	3.8	7.46e-01	0	43	104	0	81	28326
2026-01-24 13:01:18.74	329.11	11.22	-55.0	-72.8	3.8	7.45e-01	0	43	104	0	81	28304
2026-01-24 13:01:19.75	329.21	11.14	-55.0	-72.8	3.8	7.45e-01	0	43	104	0	81	28331
2026-01-24 13:01:20.75	329.32	11.05	-55.0	-72.8	3.8	7.46e-01	0	43	104	0	81	28297
2026-01-24 13:01:21.76	329.42	10.97	-55.0	-72.8	3.8	7.47e-01	0	43	104	0	81	28312
2026-01-24 13:01:22.77	329.53	10.88	-55.0	-72.8	3.8	7.47e-01	0	43	104	0	81	28303
2026-01-24 13:01:23.78	329.63	10.80	-55.0	-72.8	3.8	7.42e-01	0	43	104	0	81	28236
2026-01-24 13:01:24.79	329.73	10.71	-55.0	-72.8	3.8	7.47e-01	0	43	104	0	81	28211
2026-01-24 13:01:25.80	329.84	10.63	-55.0	-72.8	3.8	7.49e-01	0	43	104	0	81	28233
2026-01-24 13:01:26.81	329.94	10.54	-55.0	-72.8	3.8	7.45e-01	0	43	104	0	81	28190
2026-01-24 13:01:27.82	330.04	10.46	-55.0	-72.8	3.8	7.43e-01	0	44	104	0	81	28195
2026-01-24 13:01:28.83	330.14	10.37	-55.0	-72.8	3.8	7.45e-01	0	43	104	0	81	28240
2026-01-24 13:01:29.83	330.24	10.29	-55.0	-72.8	3.8	7.44e-01	0	43	104	0	81	28250
2026-01-24 13:01:30.84	330.34	10.21	-55.0	-72.8	3.8	7.47e-01	0	44	104	0	81	28189
2026-01-24 13:01:31.85	330.44	10.13	-55.0	-72.8	3.8	7.45e-01	0	44	104	0	81	28149
2026-01-24 13:01:32.86	330.54	10.04	-55.0	-72.8	3.8	7.44e-01	0	44	104	0	81	28173
2026-01-24 13:01:33.87	330.64	9.96	-55.0	-72.8	3.8	7.43e-01	0	43	104	0	81	28181
2026-01-24 13:01:34.88	330.73	9.88	-55.0	-72.8	3.8	7.48e-01	0	43	104	0	81	28229
2026-01-24 13:01:35.89	330.83	9.80	-55.0	-72.8	3.8	7.46e-01	0	43	104	0	81	28180
2026-01-24 13:01:36.90	330.93	9.71	-55.0	-72.8	3.8	7.46e-01	0	43	104	0	81	28170
2026-01-24 13:01:37.91	331.02	9.63	-55.0	-72.8	3.8	7.47e-01	0	44	104	0	81	28154
2026-01-24 13:01:38.91	331.11	9.55	-55.0	-72.8	3.8	7.45e-01	0	43	104	0	81	28198
2026-01-24 13:01:39.92	331.21	9.47	-55.0	-72.8	3.8	7.40e-01	0	43	104	0	81	28187
2026-01-24 13:01:40.93	331.30	9.39	-55.0	-72.8	3.8	7.45e-01	0	43	104	0	81	28210
2026-01-24 13:01:41.94	331.40	9.31	-55.0	-72.8	3.8	7.45e-01	0	43	104	0	81	28167
2026-01-24 13:01:42.95	331.49	9.23	-55.0	-72.8	3.8	7.47e-01	0	43	104	0	81	28180
2026-01-24 13:01:43.95	331.58	9.15	-55.0	-72.8	3.8	7.47e-01	0	44	104	0	81	28173
2026-01-24 13:01:44.96	331.67	9.07	-55.0	-72.8	3.8	7.47e-01	0	43	104	0	81	28188
2026-01-24 13:01:45.97	331.76	8.99	-55.0	-72.8	3.8	7.45e-01	0	43	104	0	81	28146
2026-01-24 13:01:46.98	331.86	8.91	-55.0	-72.8	3.8	7.45e-01	0	43	104	0	81	28165
2026-01-24 13:01:47.99	331.95	8.83	-55.0	-72.8	3.8	7.47e-01	0	43	104	0	81	28150
2026-01-24 13:01:49.00	332.04	8.75	-55.0	-72.8	3.8	7.45e-01	0	43	104	0	81	28190
2026-01-24 13:01:50.00	332.12	8.67	-55.0	-72.8	3.8	7.46e-01	0	43	104	0	81	28207
2026-01-24 13:01:51.01	332.21	8.59	-55.0	-72.8	3.8	7.48e-01	0	43	104	0	81	28220
2026-01-24 13:01:52.02	332.30	8.52	-55.0	-72.8	3.8	7.43e-01	0	43	104	0	81	28188
2026-01-24 13:01:53.03	332.39	8.44	-55.0	-72.8	3.8	7.47e-01	0	44	104	0	81	28179
2026-01-24 13:01:54.04	332.48	8.36	-55.0	-72.8	3.8	7.43e-01	0	44	104	0	81	28238
2026-01-24 13:01:55.05	332.56	8.28	-55.0	-72.8	3.8	7.48e-01	0	44	104	0	81	28225
2026-01-24 13:01:56.05	332.65	8.21	-55.0	-72.8	3.8	7.45e-01	0	44	104	0	81	28164
2026-01-24 13:01:57.06	332.73	8.13	-55.0	-72.8	3.8	7.45e-01	0	44	104	0	81	28179
2026-01-24 13:01:58.07	332.82	8.05	-55.0	-72.8	3.8	7.47e-01	0	43	104	0	81	28228
2026-01-24 13:01:59.08	332.91	7.97	-55.0	-72.8	3.8	7.41e-01	0	44	104	0	81	28215
2026-01-24 13:02:00.09	332.99	7.90	-55.0	-72.8	3.8	7.46e-01	0	43	104	0	81	28167
2026-01-24 13:02:01.09	333.07	7.82	-55.0	-72.8	3.8	7.45e-01	0	43	104	0	81	28194
2026-01-24 13:02:02.10	333.16	7.75	-55.0	-72.8	3.8	7.46e-01	0	43	104	0	81	28222
2026-01-24 13:02:03.11	333.24	7.67	-55.0	-72.8	3.8	7.45e-01	0	44	104	0	81	28270
2026-01-24 13:02:04.12	333.32	7.59	-55.0	-72.8	3.8	7.49e-01	0	43	104	0	81	28224
2026-01-24 13:02:05.12	333.40	7.52	-55.0	-72.8	3.8	7.44e-01	0	44	104	0	81	28204
2026-01-24 13:02:06.13	333.49	7.44	-55.0	-72.8	3.8	7.43e-01	0	44	104	0	81	28215
2026-01-24 13:02:07.14	333.57	7.37	-55.0	-72.8	3.8	7.47e-01	0	44	104	0	81	28177
2026-01-24 13:02:08.15	333.65	7.29	-55.0	-72.8	3.8	7.45e-01	0	44	104	0	81	28210
2026-01-24 13:02:09.16	333.73	7.22	-55.0	-72.8	3.8	7.47e-01	0	44	104	0	81	28199
2026-01-24 13:02:10.17	333.81	7.14	-55.0	-72.8	3.8	7.45e-01	0	44	104	0	81	28170
2026-01-24 13:02:11.17	333.89	7.07	-55.0	-72.8	3.8	7.44e-01	0	44	104	0	81	28190
2026-01-24 13:02:12.18	333.97	7.00	-55.0	-72.8	3.8	7.41e-01	0	44	104	0	81	28179
2026-01-24 13:02:13.19	334.05	6.92	-55.0	-72.8	3.8	7.46e-01	0	44	104	0	81	28174
2026-01-24 13:02:14.20	334.13	6.85	-55.0	-72.8	3.8	7.43e-01	0	43	104	0	81	28196
2026-01-24 13:02:15.21	334.20	6.77	-55.0	-72.8	3.8	7.46e-01	0	44	104	0	81	28084
2026-01-24 13:02:16.21	334.28	6.70	-55.0	-72.8	3.8	7.46e-01	0	44	104	0	81	28175
2026-01-24 13:02:17.22	334.36	6.63	-55.0	-72.8	3.8	7.45e-01	0	44	104	0	81	28145
2026-01-24 13:02:18.23	334.44	6.56	-55.0	-72.8	3.8	7.46e-01	0	44	104	0	81	28215
2026-01-24 13:02:19.24	334.51	6.48	-55.0	-72.8	3.8	7.41e-01	0	44	104	0	81	28179
2026-01-24 13:02:20.24	334.59	6.41	-55.0	-72.8	3.8	7.46e-01	0	44	104	0	81	28093
2026-01-24 13:02:21.25	334.66	6.34	-55.0	-72.8	3.8	7.47e-01	0	43	104	0	81	28210
2026-01-24 13:02:22.26	334.74	6.27	-55.0	-72.8	3.8	7.44e-01	0	44	104	0	81	28155
2026-01-24 13:02:23.27	334.81	6.19	-55.0	-72.8	3.8	7.45e-01	0	44	104	0	81	28210
2026-01-24 13:02:24.28	334.89	6.12	-55.0	-72.8	3.8	7.40e-01	0	43	104	0	81	28212
2026-01-24 13:02:25.28	334.96	6.05	-55.0	-72.8	3.8	7.47e-01	0	44	104	0	81	28200
2026-01-24 13:02:26.29	335.04	5.98	-55.0	-72.8	3.8	7.44e-01	0	44	104	0	81	28176
2026-01-24 13:02:27.30	335.11	5.91	-55.0	-72.8	3.8	7.42e-01	0	43	104	0	81	28215
2026-01-24 13:02:28.31	335.18	5.84	-55.0	-72.8	3.8	7.45e-01	0	44	104	0	81	28167
2026-01-24 13:02:29.32	335.26	5.77	-55.0	-72.8	3.8	7.44e-01	0	44	104	0	81	28206
2026-01-24 13:02:30.33	335.33	5.69	-55.0	-72.8	3.8	7.47e-01	0	44	104	0	81	28143
2026-01-24 13:02:31.33	335.40	5.62	-55.0	-72.8	3.8	7.47e-01	0	44	104	0	81	28163
2026-01-24 13:02:32.34	335.47	5.55	-55.0	-72.8	3.8	7.45e-01	0	44	104	0	81	28237
2026-01-24 13:02:33.35	335.54	5.48	-55.0	-72.8	3.8	7.47e-01	0	43	104	0	81	28142
2026-01-24 13:02:34.36	335.61	5.41	-55.0	-72.8	3.8	7.46e-01	0	44	104	0	81	28160
2026-01-24 13:02:35.37	335.68	5.34	-55.0	-72.8	3.8	7.42e-01	0	44	104	0	81	28146
2026-01-24 13:02:36.37	335.75	5.27	-55.0	-72.8	3.8	7.46e-01	0	44	104	0	81	28190
2026-01-24 13:02:37.38	335.82	5.20	-55.0	-72.8	3.8	7.45e-01	0	44	104	0	81	28114
2026-01-24 13:02:38.39	335.89	5.14	-55.0	-72.8	3.8	7.47e-01	0	43	104	0	81	28137
2026-01-24 13:02:39.40	335.96	5.07	-55.0	-72.8	3.8	7.45e-01	0	44	104	0	81	28128
2026-01-24 13:02:40.40	336.03	5.00	-55.0	-72.8	3.8	7.42e-01	0	44	104	0	81	28132
2026-01-24 13:02:41.41	336.10	4.93	-55.0	-72.8	3.8	7.44e-01	0	44	104	0	81	28104
2026-01-24 13:02:42.42	336.17	4.86	-55.0	-72.8	3.8	7.49e-01	0	44	104	0	81	28172
2026-01-24 13:02:43.43	336.24	4.79	-55.0	-72.8	3.8	7.43e-01	0	44	104	0	81	28174
2026-01-24 13:02:44.44	336.30	4.72	-55.0	-72.8	3.8	7.45e-01	0	44	104	0	81	28164
2026-01-24 13:02:45.45	336.37	4.65	-55.0	-72.8	3.8	7.43e-01	0	44	104	0	81	28108
2026-01-24 13:02:46.45	336.44	4.59	-55.0	-72.8	3.8	7.43e-01	0	43	104	0	81	28108
2026-01-24 13:02:47.46	336.51	4.52	-55.0	-72.8	3.8	7.43e-01	0	44	104	0	81	28128
2026-01-24 13:02:48.47	336.57	4.45	-55.0	-72.8	3.8	7.48e-01	0	44	104	0	81	28038
2026-01-24 13:02:49.48	336.64	4.38	-55.0	-72.8	3.8	7.48e-01	0	43	104	0	81	28068
2026-01-24 13:02:50.48	336.70	4.32	-54.9	-72.8	3.8	7.43e-01	0	44	104	0	81	28096
2026-01-24 13:02:51.49	336.77	4.25	-55.0	-72.8	3.8	7.45e-01	0	43	104	0	81	28068
2026-01-24 13:02:52.50	336.83	4.18	-55.0	-72.7	3.8	7.45e-01	0	44	104	0	81	27993
2026-01-24 13:02:53.51	336.90	4.12	-54.9	-72.8	3.8	7.41e-01	0	44	104	0	81	28081
2026-01-24 13:02:54.52	336.96	4.05	-54.9	-72.8	3.8	7.44e-01	0	44	104	0	81	28055
2026-01-24 13:02:55.53	337.03	3.98	-54.9	-72.7	3.8	7.46e-01	0	44	104	0	81	28018
2026-01-24 13:02:56.54	337.09	3.92	-55.0	-72.8	3.8	7.48e-01	0	43	104	0	81	28074
2026-01-24 13:02:57.55	337.16	3.85	-55.0	-72.8	3.8	7.44e-01	0	43	104	0	81	28035
2026-01-24 13:02:58.55	337.22	3.78	-54.9	-72.8	3.8	7.43e-01	0	44	104	0	81	28074
2026-01-24 13:02:59.56	337.28	3.72	-54.9	-72.7	3.8	7.45e-01	0	44	104	0	81	28020
2026-01-24 13:03:00.57	337.34	3.65	-54.9	-72.8	3.8	7.44e-01	0	43	104	0	81	28031
2026-01-24 13:03:01.58	337.41	3.59	-54.9	-72.8	3.8	7.45e-01	0	43	104	0	81	28043
2026-01-24 13:03:02.59	337.47	3.52	-55.0	-72.8	3.8	7.47e-01	0	44	104	0	81	28076
2026-01-24 13:03:03.60	337.53	3.46	-54.9	-72.8	3.8	7.44e-01	0	44	104	0	81	28098
2026-01-24 13:03:04.61	337.59	3.39	-55.0	-72.8	3.8	7.48e-01	0	43	104	0	81	28066
2026-01-24 13:03:05.62	337.65	3.33	-55.0	-72.8	3.8	7.43e-01	0	44	104	0	81	28092
2026-01-24 13:03:06.62	337.72	3.26	-55.0	-72.8	3.8	7.44e-01	0	44	104	0	81	28073
2026-01-24 13:03:07.63	337.78	3.20	-55.0	-72.8	3.8	7.46e-01	0	44	104	0	81	28082
2026-01-24 13:03:08.64	337.84	3.13	-54.9	-72.8	3.8	7.43e-01	0	43	104	0	81	28057
2026-01-24 13:03:09.65	337.90	3.07	-54.9	-72.8	3.8	7.44e-01	0	44	104	0	81	28053
2026-01-24 13:03:10.66	337.96	3.00	-54.9	-72.8	3.8	7.47e-01	0	44	104	0	81	28078
2026-01-24 13:03:11.67	338.02	2.94	-54.9	-72.8	3.8	7.44e-01	0	44	104	0	81	28028
2026-01-24 13:03:12.67	338.08	2.88	-54.9	-72.8	3.8	7.47e-01	0	43	104	0	81	28079
2026-01-24 13:03:13.68	338.14	2.81	-54.9	-72.8	3.8	7.47e-01	0	43	104	0	81	28077
2026-01-24 13:03:14.69	338.19	2.75	-54.9	-72.8	3.8	7.49e-01	0	44	104	0	81	28028
2026-01-24 13:03:15.70	338.25	2.68	-54.9	-72.8	3.8	7.46e-01	0	44	104	0	81	28102
2026-01-24 13:03:16.71	338.31	2.62	-54.9	-72.8	3.8	7.45e-01	0	43	104	0	81	28125
2026-01-24 13:03:17.71	338.37	2.56	-54.9	-72.8	3.8	7.47e-01	0	43	104	0	81	28063
2026-01-24 13:03:18.72	338.43	2.49	-54.9	-72.7	3.8	7.45e-01	0	43	104	0	81	27994
2026-01-24 13:03:19.73	338.49	2.43	-54.9	-72.7	3.8	7.46e-01	0	43	104	0	81	28026
2026-01-24 13:03:20.74	338.54	2.37	-54.9	-72.7	3.8	7.45e-01	0	43	104	0	81	27993
2026-01-24 13:03:21.75	338.60	2.31	-54.9	-72.8	3.8	7.51e-01	0	43	104	0	81	28061
2026-01-24 13:03:22.76	338.66	2.24	-54.9	-72.8	3.8	7.48e-01	0	44	104	0	81	28077
2026-01-24 13:03:23.77	338.71	2.18	-54.9	-72.8	3.8	7.46e-01	0	43	104	0	81	28040
2026-01-24 13:03:24.77	338.77	2.12	-54.9	-72.8	3.8	7.45e-01	0	43	104	0	81	28062
2026-01-24 13:03:25.78	338.83	2.06	-54.9	-72.8	3.8	7.47e-01	0	43	104	0	81	28038
2026-01-24 13:03:26.79	338.88	1.99	-54.9	-72.8	3.8	7.43e-01	0	43	104	0	81	28045
2026-01-24 13:03:27.80	338.94	1.93	-54.9	-72.8	3.8	7.48e-01	0	44	104	0	81	28075
2026-01-24 13:03:28.81	338.99	1.87	-55.0	-72.8	3.8	7.48e-01	0	43	104	0	81	28074

#Closed at: 2026-01-24 13:03:29
#Recorded file [0 MB]: D:/lorett/data/31041_260124_155228.dat