passes_logs/2026/01/24/R3.2S_Murmansk/R3.2S_Murmansk__20260124_141956_TY-42_rec.log

#Pass ID: 20260124_141956_TY-42
#Satellite: TY-42
#Configuration: TY-42_900M
#almurnet v.1.7.20251203
#Start time: 2026-01-24 14:19:58

#Version: 2.2.20231116
#Station: R3.2S_Murmansk
#Location: 33.079688 lon 68.888172 lat
#TLE: 1 64048U 25103A   26023.93556713  .00008007  00000-0  38191-3 0 09995
#TLE: 2 64048 097.4116 099.1849 0001849 091.5787 326.2147 15.19153894 38171

#Time	Az	El	Level	Level2	SNR	BER	BlckErr	Temp	State	Recorded	gain1	gain2
2026-01-24 14:19:58.56	51.03	2.09	-52.3	-54.4	6.3	0.00e+00	0	49	0	0	76	18000
2026-01-24 14:19:59.56	50.91	2.14	-52.3	-54.5	6.2	0.00e+00	0	49	104	0	76	18191
2026-01-24 14:20:00.57	50.79	2.19	-52.3	-54.4	6.2	0.00e+00	0	49	104	0	76	18144
2026-01-24 14:20:01.58	50.66	2.25	-52.3	-54.4	6.2	0.00e+00	0	49	104	0	76	18127
2026-01-24 14:20:02.59	50.54	2.30	-52.3	-54.4	6.2	0.00e+00	0	49	104	0	76	18054
2026-01-24 14:20:03.60	50.41	2.35	-52.3	-54.4	6.2	0.00e+00	0	49	104	0	76	18056
2026-01-24 14:20:04.61	50.28	2.40	-52.3	-54.4	6.2	0.00e+00	0	50	104	0	76	18071
2026-01-24 14:20:05.61	50.16	2.46	-52.3	-54.4	6.2	0.00e+00	0	49	104	0	76	18050
2026-01-24 14:20:06.62	50.03	2.51	-52.3	-54.4	6.2	0.00e+00	0	49	104	0	76	18061
2026-01-24 14:20:07.64	49.90	2.56	-52.3	-54.4	6.2	0.00e+00	0	50	104	0	76	18059
2026-01-24 14:20:08.64	49.77	2.61	-52.3	-54.4	6.2	0.00e+00	0	50	104	0	76	18015
2026-01-24 14:20:09.65	49.64	2.67	-52.3	-54.4	6.2	0.00e+00	0	50	104	0	76	18005
2026-01-24 14:20:10.66	49.51	2.72	-52.3	-54.3	6.2	0.00e+00	0	50	104	0	76	17935
2026-01-24 14:20:11.67	49.38	2.77	-52.3	-54.4	6.2	0.00e+00	0	50	104	0	76	18008
2026-01-24 14:20:12.68	49.25	2.83	-52.3	-54.4	6.2	0.00e+00	0	50	104	0	76	18061
2026-01-24 14:20:13.69	49.12	2.88	-52.3	-54.4	6.2	0.00e+00	0	50	104	0	76	18005
2026-01-24 14:20:14.70	48.98	2.93	-52.2	-54.4	6.2	0.00e+00	0	50	104	0	76	18001
2026-01-24 14:20:15.71	48.85	2.98	-52.3	-54.4	6.2	0.00e+00	0	50	104	0	76	18033
2026-01-24 14:20:16.72	48.72	3.04	-52.3	-54.4	6.2	0.00e+00	0	50	104	0	76	18005
2026-01-24 14:20:17.72	48.58	3.09	-52.3	-54.4	6.2	0.00e+00	0	50	104	0	76	18029
2026-01-24 14:20:18.73	48.45	3.14	-52.3	-54.4	6.2	0.00e+00	0	50	104	0	76	18078
2026-01-24 14:20:19.74	48.31	3.19	-52.3	-54.4	6.2	0.00e+00	0	50	104	0	76	18030
2026-01-24 14:20:20.75	48.18	3.25	-52.3	-54.4	6.2	0.00e+00	0	50	104	0	76	18031
2026-01-24 14:20:21.75	48.04	3.30	-52.3	-54.4	6.2	0.00e+00	0	50	104	0	76	18022
2026-01-24 14:20:22.76	47.90	3.35	-52.3	-54.4	6.2	0.00e+00	0	50	104	0	76	18092
2026-01-24 14:20:23.77	47.76	3.41	-52.3	-54.4	6.2	0.00e+00	0	50	104	0	76	18058
2026-01-24 14:20:24.78	47.63	3.46	-52.3	-54.4	6.2	0.00e+00	0	50	104	0	76	18041
2026-01-24 14:20:25.79	47.49	3.51	-52.3	-54.4	6.2	0.00e+00	0	50	104	0	76	18062
2026-01-24 14:20:26.79	47.35	3.56	-52.3	-54.4	6.2	0.00e+00	0	50	104	0	76	18064
2026-01-24 14:20:27.80	47.21	3.62	-52.3	-54.4	6.2	0.00e+00	0	50	104	0	76	18051
2026-01-24 14:20:28.81	47.06	3.67	-52.3	-54.4	6.2	0.00e+00	0	50	104	0	76	17989
2026-01-24 14:20:29.82	46.92	3.72	-52.3	-54.4	6.2	0.00e+00	0	51	104	0	76	18025
2026-01-24 14:20:30.83	46.78	3.78	-52.3	-54.4	6.2	0.00e+00	0	51	104	0	76	18026
2026-01-24 14:20:31.84	46.64	3.83	-52.3	-54.4	6.2	0.00e+00	0	51	104	0	76	18030
2026-01-24 14:20:32.84	46.49	3.88	-52.3	-54.4	6.2	0.00e+00	0	51	104	0	76	18048
2026-01-24 14:20:33.85	46.35	3.93	-52.2	-54.4	6.2	0.00e+00	0	51	104	0	76	18006
2026-01-24 14:20:34.86	46.20	3.99	-52.3	-54.4	6.2	0.00e+00	0	51	104	0	76	18045
2026-01-24 14:20:35.87	46.06	4.04	-52.3	-54.4	6.2	0.00e+00	0	51	104	0	76	18032
2026-01-24 14:20:36.88	45.91	4.09	-52.3	-54.3	6.2	0.00e+00	0	51	104	0	76	17963
2026-01-24 14:20:37.89	45.76	4.15	-52.3	-54.4	6.2	0.00e+00	0	51	104	0	76	18005
2026-01-24 14:20:38.90	45.61	4.20	-52.3	-54.4	6.2	0.00e+00	0	51	104	0	76	18059
2026-01-24 14:20:39.91	45.46	4.25	-52.3	-54.4	6.2	0.00e+00	0	51	104	0	76	17985
2026-01-24 14:20:40.91	45.31	4.30	-52.3	-54.4	6.2	0.00e+00	0	51	104	0	76	18113
2026-01-24 14:20:41.92	45.16	4.36	-52.3	-54.4	6.2	0.00e+00	0	51	104	0	76	17990
2026-01-24 14:20:42.93	45.01	4.41	-52.2	-54.4	6.2	0.00e+00	0	51	104	0	76	18013
2026-01-24 14:20:43.94	44.86	4.46	-52.3	-54.4	6.2	0.00e+00	0	51	104	0	76	18039
2026-01-24 14:20:44.95	44.71	4.51	-52.3	-54.3	6.2	0.00e+00	0	51	104	0	76	17962
2026-01-24 14:20:45.95	44.56	4.57	-52.2	-54.4	6.2	0.00e+00	0	51	104	0	76	18015
2026-01-24 14:20:46.96	44.40	4.62	-52.3	-54.4	6.2	0.00e+00	0	51	104	0	76	18008
2026-01-24 14:20:47.97	44.25	4.67	-52.3	-54.4	6.2	0.00e+00	0	51	104	0	76	17985
2026-01-24 14:20:48.98	44.09	4.73	-52.2	-54.4	6.2	0.00e+00	0	51	104	0	76	18036
2026-01-24 14:20:49.99	43.94	4.78	-52.3	-54.4	6.2	0.00e+00	0	51	104	0	76	17999
2026-01-24 14:20:50.99	43.78	4.83	-52.3	-54.4	6.2	0.00e+00	0	51	104	0	76	18007
2026-01-24 14:20:52.00	43.62	4.88	-52.3	-54.4	6.2	0.00e+00	0	51	104	0	76	18029
2026-01-24 14:20:53.01	43.46	4.93	-52.2	-54.4	6.2	0.00e+00	0	51	104	0	76	18027
2026-01-24 14:20:54.02	43.31	4.99	-52.2	-54.4	6.2	0.00e+00	0	51	104	0	76	18012
2026-01-24 14:20:55.03	43.15	5.04	-52.3	-54.4	6.2	0.00e+00	0	51	104	0	76	18020
2026-01-24 14:20:56.04	42.98	5.09	-52.4	-54.5	6.2	0.00e+00	0	51	104	0	76	18248
2026-01-24 14:20:57.05	42.82	5.14	-52.3	-54.5	6.2	0.00e+00	0	51	104	0	76	18229
2026-01-24 14:20:58.05	42.66	5.20	-52.3	-54.4	6.2	0.00e+00	0	51	104	0	76	18135
2026-01-24 14:20:59.06	42.50	5.25	-52.4	-54.6	6.2	0.00e+00	0	51	104	0	76	18419
2026-01-24 14:21:00.07	42.34	5.30	-52.2	-54.4	6.2	0.00e+00	0	51	104	0	76	17985
2026-01-24 14:21:01.08	42.17	5.35	-52.4	-54.5	6.2	0.00e+00	0	51	104	0	76	18245
2026-01-24 14:21:02.08	42.01	5.41	-52.3	-54.5	6.2	0.00e+00	0	51	104	0	76	18189
2026-01-24 14:21:03.09	41.84	5.46	-52.5	-54.6	6.2	0.00e+00	0	52	104	0	76	18454
2026-01-24 14:21:04.10	41.68	5.51	-52.3	-54.4	6.2	0.00e+00	0	51	104	0	76	18037
2026-01-24 14:21:05.11	41.51	5.56	-52.4	-54.5	6.2	0.00e+00	0	51	104	0	76	18249
2026-01-24 14:21:06.12	41.34	5.61	-52.3	-54.5	6.2	0.00e+00	0	51	104	0	76	18217
2026-01-24 14:21:07.12	41.17	5.66	-52.5	-54.6	6.2	0.00e+00	0	51	104	0	76	18454
2026-01-24 14:21:08.13	41.00	5.72	-52.3	-54.4	6.2	0.00e+00	0	51	104	0	76	18106
2026-01-24 14:21:09.14	40.83	5.77	-52.4	-54.5	6.2	0.00e+00	0	51	104	0	76	18315
2026-01-24 14:21:10.14	40.66	5.82	-52.4	-54.5	6.2	0.00e+00	0	51	104	0	76	18224
2026-01-24 14:21:11.15	40.49	5.87	-52.5	-54.6	6.2	0.00e+00	0	52	104	0	76	18519
2026-01-24 14:21:12.16	40.32	5.92	-52.3	-54.4	6.2	0.00e+00	0	51	104	0	76	18138
2026-01-24 14:21:13.17	40.15	5.97	-52.4	-54.5	6.2	0.00e+00	0	51	104	0	76	18351
2026-01-24 14:21:14.18	39.97	6.03	-43.9	-43.9	9.7	0.00e+00	654	52	104	0	59	14412
2026-01-24 14:21:15.19	39.80	6.08	-36.3	-36.2	13.4	0.00e+00	0	53	0	33554432	43	14848
2026-01-24 14:21:16.20	39.62	6.13	-50.8	-52.3	6.4	2.31e-02	0	52	104	75497472	72	17849
2026-01-24 14:21:17.21	39.44	6.18	-36.0	-35.8	12.6	0.00e+00	379	53	104	75497472	43	14266
2026-01-24 14:21:18.21	39.27	6.23	-35.6	-35.5	14.2	1.28e-02	0	53	0	176160768	43	13706
2026-01-24 14:21:19.22	39.09	6.28	-35.8	-35.7	14.1	1.28e-02	0	53	0	293601280	43	14064
2026-01-24 14:21:20.23	38.91	6.33	-35.5	-35.4	14.3	1.28e-02	0	54	0	402653184	43	13548
2026-01-24 14:21:21.24	38.73	6.38	-35.4	-35.4	14.3	1.28e-02	0	54	0	511705088	42	14284
2026-01-24 14:21:22.25	38.55	6.43	-36.0	-35.9	14.1	2.36e-02	0	54	0	629145600	42	15205
2026-01-24 14:21:23.25	38.37	6.48	-36.3	-36.2	13.9	2.36e-02	0	54	0	738197504	43	14936
2026-01-24 14:21:24.26	38.19	6.53	-36.1	-36.0	14.0	2.82e-02	0	54	0	855638016	43	14492
2026-01-24 14:21:25.27	38.01	6.59	-36.1	-36.1	14.0	2.82e-02	0	54	0	973078528	43	14617
2026-01-24 14:21:26.28	37.82	6.64	-35.7	-35.6	14.3	2.82e-02	0	54	0	1090519040	43	13888
2026-01-24 14:21:27.28	37.64	6.69	-35.6	-35.5	14.3	2.82e-02	0	54	0	1199570944	43	13639
2026-01-24 14:21:28.29	37.46	6.74	-35.7	-35.6	14.3	2.65e-02	0	54	0	1317011456	43	13899
2026-01-24 14:21:29.30	37.27	6.79	-35.9	-35.8	14.2	2.65e-02	0	54	0	1426063360	42	15019
2026-01-24 14:21:30.31	37.08	6.84	-35.7	-35.6	14.3	2.65e-02	0	54	0	1535115264	42	14644
2026-01-24 14:21:31.32	36.89	6.89	-35.8	-35.7	14.2	2.46e-02	0	54	0	1652555776	42	14858
2026-01-24 14:21:32.32	36.71	6.93	-35.8	-35.7	14.2	2.46e-02	0	54	0	1761607680	42	14803
2026-01-24 14:21:33.33	36.52	6.98	-35.4	-35.3	14.5	2.46e-02	0	54	0	1879048192	42	14160
2026-01-24 14:21:34.34	36.33	7.03	-35.4	-35.3	14.5	1.86e-02	0	54	0	1988100096	42	14173
2026-01-24 14:21:35.35	36.14	7.08	-35.1	-35.0	14.7	1.86e-02	0	54	0	2097152000	41	14525
2026-01-24 14:21:36.36	35.94	7.13	-35.2	-35.2	14.6	1.86e-02	0	55	0	2214592512	42	13955
2026-01-24 14:21:37.37	35.75	7.18	-35.2	-35.1	14.6	1.86e-02	0	54	0	2340421632	42	13949
2026-01-24 14:21:38.37	35.56	7.23	-35.0	-34.9	14.7	1.50e-02	0	54	0	2449473536	42	13628
2026-01-24 14:21:39.38	35.37	7.28	-35.1	-35.0	14.7	1.50e-02	0	54	0	2558525440	42	13684
2026-01-24 14:21:40.39	35.17	7.33	-35.3	-35.2	14.6	1.50e-02	0	55	0	2675965952	42	14036
2026-01-24 14:21:41.40	34.97	7.38	-35.2	-35.1	14.6	1.56e-02	0	55	0	2785017856	42	13899
2026-01-24 14:21:42.41	34.78	7.42	-35.6	-35.5	14.4	1.56e-02	0	55	0	2902458368	42	14535
2026-01-24 14:21:43.42	34.58	7.47	-35.3	-35.2	14.6	1.56e-02	0	55	0	3011510272	42	14057
2026-01-24 14:21:44.43	34.38	7.52	-35.5	-35.4	14.5	1.54e-02	0	55	0	3120562176	42	14400
2026-01-24 14:21:45.43	34.18	7.57	-35.2	-35.1	14.7	1.54e-02	0	55	0	3238002688	42	13936
2026-01-24 14:21:46.44	33.98	7.62	-35.1	-35.0	14.7	1.54e-02	0	55	0	3347054592	42	13789
2026-01-24 14:21:47.45	33.78	7.66	-35.2	-35.1	14.6	1.49e-02	0	55	0	3464495104	42	13937
2026-01-24 14:21:48.46	33.58	7.71	-35.1	-35.0	14.7	1.49e-02	0	55	0	3573547008	42	13765
2026-01-24 14:21:49.47	33.38	7.76	-35.1	-35.0	14.7	1.49e-02	0	55	0	3699376128	42	13708
2026-01-24 14:21:50.48	33.18	7.81	-35.0	-34.9	14.7	1.40e-02	0	55	0	3808428032	41	14335
2026-01-24 14:21:51.49	32.97	7.85	-35.0	-35.0	14.7	1.40e-02	0	55	0	3925868544	41	14449
2026-01-24 14:21:52.50	32.77	7.90	-34.9	-34.8	14.8	1.40e-02	0	55	0	4034920448	41	14180
2026-01-24 14:21:53.51	32.56	7.95	-34.8	-34.8	14.8	1.12e-02	0	55	0	4152360960	41	14116
2026-01-24 14:21:54.52	32.35	7.99	-35.0	-34.9	14.7	1.12e-02	0	55	0	4261412864	41	14343
2026-01-24 14:21:55.53	32.15	8.04	-35.0	-34.9	14.7	1.25e-02	0	55	0	4370464768	41	14433
2026-01-24 14:21:56.53	31.94	8.08	-35.1	-35.0	14.7	1.25e-02	0	55	0	4487905280	41	14501
2026-01-24 14:21:57.54	31.73	8.13	-35.0	-34.9	14.7	1.25e-02	0	55	0	4596957184	41	14404
2026-01-24 14:21:58.55	31.52	8.18	-34.9	-34.8	14.8	1.27e-02	0	55	0	4714397696	41	14193
2026-01-24 14:21:59.56	31.31	8.22	-34.9	-34.8	14.8	1.27e-02	0	55	0	4823449600	41	14156
2026-01-24 14:22:00.57	31.10	8.27	-34.7	-34.6	14.9	1.05e-02	0	55	0	4949278720	41	13846
2026-01-24 14:22:01.57	30.89	8.31	-34.9	-34.8	14.8	1.05e-02	0	55	0	5058330624	41	14214
2026-01-24 14:22:02.58	30.68	8.36	-34.8	-34.7	14.8	1.13e-02	0	55	0	5175771136	41	14028
2026-01-24 14:22:03.59	30.46	8.40	-35.0	-34.9	14.8	1.13e-02	0	55	0	5284823040	41	14331
2026-01-24 14:22:04.60	30.25	8.45	-35.2	-35.1	14.6	1.13e-02	0	55	0	5393874944	41	14664
2026-01-24 14:22:05.61	30.03	8.49	-34.9	-34.8	14.8	1.22e-02	0	55	0	5511315456	41	14145
2026-01-24 14:22:06.61	29.82	8.53	-34.7	-34.6	14.9	1.22e-02	0	56	0	5620367360	41	13907
2026-01-24 14:22:07.62	29.60	8.58	-34.7	-34.6	14.9	1.22e-02	0	55	0	5737807872	41	13887
2026-01-24 14:22:08.63	29.38	8.62	-34.8	-34.7	14.8	1.22e-02	0	56	0	5846859776	41	14058
2026-01-24 14:22:09.64	29.16	8.66	-34.9	-34.8	14.8	9.73e-03	0	56	0	5955911680	41	14223
2026-01-24 14:22:10.65	28.94	8.71	-34.7	-34.6	14.9	9.73e-03	0	55	0	6073352192	41	13923
2026-01-24 14:22:11.65	28.72	8.75	-34.7	-34.6	14.9	1.01e-02	0	56	0	6182404096	41	13917
2026-01-24 14:22:12.66	28.50	8.79	-34.6	-34.5	14.9	1.01e-02	0	56	0	6299844608	41	13699
2026-01-24 14:22:13.67	28.28	8.83	-34.8	-34.8	14.8	1.01e-02	0	55	0	6417285120	41	14122
2026-01-24 14:22:14.68	28.06	8.88	-34.5	-34.4	14.9	1.01e-02	0	56	0	6534725632	41	13631
2026-01-24 14:22:15.69	27.83	8.92	-34.4	-34.4	15.0	1.02e-02	0	56	0	6643777536	40	14296
2026-01-24 14:22:16.70	27.61	8.96	-34.6	-34.5	14.9	1.02e-02	0	56	0	6761218048	40	14516
2026-01-24 14:22:17.71	27.38	9.00	-34.7	-34.6	14.9	8.09e-03	0	56	0	6870269952	40	14712
2026-01-24 14:22:18.72	27.16	9.04	-35.0	-34.9	14.7	8.09e-03	0	56	0	6979321856	40	15259
2026-01-24 14:22:19.72	26.93	9.08	-35.0	-34.9	14.7	8.09e-03	0	56	0	7096762368	40	15259
2026-01-24 14:22:20.73	26.70	9.12	-34.6	-34.5	14.9	8.09e-03	0	56	0	7205814272	40	14471
2026-01-24 14:22:21.74	26.48	9.16	-34.6	-34.6	14.9	1.09e-02	0	56	0	7323254784	40	14609
2026-01-24 14:22:22.75	26.25	9.20	-34.4	-34.3	14.8	1.09e-02	0	56	0	7432306688	40	14248
2026-01-24 14:22:23.76	26.02	9.24	-34.8	-34.7	14.7	1.09e-02	0	56	0	7549747200	40	14838
2026-01-24 14:22:24.76	25.79	9.28	-34.6	-34.5	14.8	9.63e-03	0	56	0	7658799104	40	14459
2026-01-24 14:22:25.77	25.56	9.32	-34.4	-34.3	14.9	9.63e-03	0	56	0	7784628224	40	14271
2026-01-24 14:22:26.78	25.32	9.36	-34.6	-34.5	14.8	9.86e-03	0	56	0	7893680128	40	14499
2026-01-24 14:22:27.79	25.09	9.40	-34.6	-34.5	14.8	9.86e-03	0	56	0	8011120640	40	14482
2026-01-24 14:22:28.80	24.86	9.43	-34.4	-34.3	14.9	9.86e-03	0	56	0	8120172544	40	14271
2026-01-24 14:22:29.81	24.62	9.47	-34.7	-34.6	14.8	9.64e-03	0	56	0	8229224448	40	14708
2026-01-24 14:22:30.81	24.39	9.51	-34.4	-34.3	14.9	9.64e-03	0	56	0	8346664960	40	14245
2026-01-24 14:22:31.82	24.15	9.55	-34.5	-34.4	14.8	9.64e-03	0	56	0	8455716864	40	14415
2026-01-24 14:22:32.83	23.92	9.58	-34.7	-34.6	14.8	8.28e-03	0	56	0	8573157376	40	14672
2026-01-24 14:22:33.84	23.68	9.62	-34.5	-34.4	14.9	8.28e-03	0	56	0	8682209280	40	14288
2026-01-24 14:22:34.85	23.44	9.66	-34.5	-34.4	14.9	8.28e-03	0	56	0	8791261184	40	14414
2026-01-24 14:22:35.86	23.20	9.69	-34.4	-34.3	14.9	8.03e-03	0	56	0	8908701696	40	14217
2026-01-24 14:22:36.87	22.96	9.73	-34.5	-34.4	14.9	8.03e-03	0	56	0	9034530816	40	14363
2026-01-24 14:22:37.88	22.72	9.76	-34.6	-34.5	14.9	8.52e-03	0	56	0	9143582720	40	14501
2026-01-24 14:22:38.88	22.48	9.80	-34.4	-34.3	15.0	8.52e-03	0	56	0	9252634624	40	14153
2026-01-24 14:22:39.89	22.24	9.83	-34.4	-34.3	14.9	8.52e-03	0	56	0	9370075136	40	14143
2026-01-24 14:22:40.90	22.00	9.87	-34.3	-34.2	15.0	8.44e-03	0	56	0	9479127040	40	14021
2026-01-24 14:22:41.91	21.75	9.90	-34.7	-34.6	14.8	8.44e-03	0	56	0	9596567552	40	14727
2026-01-24 14:22:42.91	21.51	9.93	-34.6	-34.5	14.9	8.44e-03	0	56	0	9705619456	40	14511
2026-01-24 14:22:43.92	21.27	9.97	-34.4	-34.3	15.0	8.44e-03	0	56	0	9814671360	40	14148
2026-01-24 14:22:44.93	21.02	10.00	-34.4	-34.2	15.0	8.06e-03	0	56	0	9932111872	40	14101
2026-01-24 14:22:45.94	20.78	10.03	-34.2	-34.1	15.0	8.06e-03	0	57	0	10041163776	40	13847
2026-01-24 14:22:46.95	20.53	10.06	-34.2	-34.1	15.0	8.06e-03	0	57	0	10158604288	40	13925
2026-01-24 14:22:47.96	20.28	10.09	-34.0	-33.9	15.1	6.96e-03	0	57	0	10267656192	40	13552
2026-01-24 14:22:48.97	20.03	10.12	-34.5	-34.4	14.9	6.96e-03	0	56	0	10393485312	40	14407
2026-01-24 14:22:49.98	19.79	10.16	-34.3	-34.2	14.9	6.96e-03	0	56	0	10502537216	40	14058
2026-01-24 14:22:50.99	19.54	10.19	-34.3	-34.2	15.0	7.17e-03	0	56	0	10619977728	40	14026
2026-01-24 14:22:51.99	19.29	10.22	-34.1	-34.0	15.0	7.17e-03	0	57	0	10729029632	40	13733
2026-01-24 14:22:53.00	19.04	10.24	-34.2	-34.1	15.0	7.17e-03	0	56	0	10838081536	40	13870
2026-01-24 14:22:54.01	18.79	10.27	-34.6	-34.4	14.8	6.29e-03	0	56	0	10955522048	40	14434
2026-01-24 14:22:55.02	18.54	10.30	-34.3	-34.2	14.9	6.29e-03	0	57	0	11064573952	40	13994
2026-01-24 14:22:56.03	18.28	10.33	-34.3	-34.2	14.9	6.29e-03	0	57	0	11182014464	40	14096
2026-01-24 14:22:57.04	18.03	10.36	-34.4	-34.3	14.9	7.78e-03	0	57	0	11291066368	40	14195
2026-01-24 14:22:58.04	17.78	10.39	-34.4	-34.3	14.8	7.78e-03	0	56	0	11408506880	40	14222
2026-01-24 14:22:59.05	17.53	10.41	-34.4	-34.3	14.9	7.78e-03	0	57	0	11517558784	40	14147
2026-01-24 14:23:00.06	17.27	10.44	-34.2	-34.1	14.9	7.78e-03	0	57	0	11626610688	40	13835
2026-01-24 14:23:01.07	17.02	10.47	-34.1	-34.0	14.9	7.35e-03	0	57	0	11752439808	40	13772
2026-01-24 14:23:02.08	16.76	10.49	-34.3	-34.2	14.9	7.35e-03	0	57	0	11869880320	39	14939
2026-01-24 14:23:03.09	16.50	10.52	-34.4	-34.3	14.8	6.87e-03	0	57	0	11978932224	39	15071
2026-01-24 14:23:04.10	16.25	10.54	-34.4	-34.3	14.9	6.87e-03	0	57	0	12087984128	39	14982
2026-01-24 14:23:05.11	15.99	10.57	-34.5	-34.4	14.8	6.87e-03	0	57	0	12205424640	39	15265
2026-01-24 14:23:06.11	15.73	10.59	-34.3	-34.1	14.9	6.87e-03	0	57	0	12314476544	40	13949
2026-01-24 14:23:07.12	15.47	10.61	-34.3	-34.2	14.9	8.04e-03	0	57	0	12431917056	40	14022
2026-01-24 14:23:08.13	15.22	10.64	-34.3	-34.2	14.8	8.04e-03	0	57	0	12540968960	40	14094
2026-01-24 14:23:09.14	14.96	10.66	-34.3	-34.2	14.8	7.68e-03	0	57	0	12650020864	40	14046
2026-01-24 14:23:10.15	14.70	10.68	-34.6	-34.5	14.7	7.68e-03	0	57	0	12767461376	40	14451
2026-01-24 14:23:11.16	14.44	10.70	-34.5	-34.4	14.8	7.68e-03	0	57	0	12876513280	40	14348
2026-01-24 14:23:12.17	14.17	10.72	-34.3	-34.2	14.8	8.22e-03	0	57	0	13002342400	40	13983
2026-01-24 14:23:13.17	13.92	10.75	-34.5	-34.4	14.7	8.22e-03	0	57	0	13111394304	40	14307
2026-01-24 14:23:14.18	13.65	10.77	-34.4	-34.3	14.7	8.52e-03	0	57	0	13228834816	40	14248
2026-01-24 14:23:15.19	13.39	10.79	-34.6	-34.5	14.7	8.52e-03	0	57	0	13337886720	40	14551
2026-01-24 14:23:16.20	13.13	10.80	-34.6	-34.5	14.6	8.52e-03	0	57	0	13455327232	40	14528
2026-01-24 14:23:17.21	12.87	10.82	-34.5	-34.4	14.7	8.52e-03	0	57	0	13564379136	40	14382
2026-01-24 14:23:18.22	12.60	10.84	-34.4	-34.3	14.7	9.51e-03	0	57	0	13673431040	40	14203
2026-01-24 14:23:19.22	12.34	10.86	-34.5	-34.4	14.7	9.51e-03	0	57	0	13790871552	40	14307
2026-01-24 14:23:20.23	12.08	10.88	-34.4	-34.3	14.7	9.51e-03	0	57	0	13899923456	40	14257
2026-01-24 14:23:21.24	11.81	10.89	-34.6	-34.5	14.6	9.38e-03	0	57	0	14017363968	40	14566
2026-01-24 14:23:22.25	11.55	10.91	-34.6	-34.5	14.7	9.38e-03	0	57	0	14126415872	40	14510
2026-01-24 14:23:23.26	11.28	10.93	-34.6	-34.5	14.6	1.06e-02	0	57	0	14243856384	40	14604
2026-01-24 14:23:24.27	11.02	10.94	-34.7	-34.6	14.6	1.06e-02	0	57	0	14361296896	40	14731
2026-01-24 14:23:25.27	10.75	10.96	-34.6	-34.5	14.6	1.06e-02	0	57	0	14478737408	40	14465
2026-01-24 14:23:26.28	10.49	10.97	-34.5	-34.4	14.6	1.06e-02	0	57	0	14587789312	40	14349
2026-01-24 14:23:27.29	10.22	10.99	-34.6	-34.5	14.6	1.06e-02	0	57	0	14696841216	40	14448
2026-01-24 14:23:28.30	9.95	11.00	-34.7	-34.6	14.6	1.06e-02	0	57	0	14814281728	40	14686
2026-01-24 14:23:29.30	9.69	11.01	-34.7	-34.6	14.6	1.03e-02	0	57	0	14923333632	40	14668
2026-01-24 14:23:30.31	9.42	11.02	-34.7	-34.6	14.6	1.03e-02	0	57	0	15040774144	40	14653
2026-01-24 14:23:31.32	9.15	11.04	-34.9	-34.8	14.5	1.06e-02	0	57	0	15149826048	40	14999
2026-01-24 14:23:32.33	8.88	11.05	-34.7	-34.6	14.6	1.06e-02	0	57	0	15267266560	40	14724
2026-01-24 14:23:33.33	8.62	11.06	-34.7	-34.6	14.6	1.06e-02	0	57	0	15376318464	40	14654
2026-01-24 14:23:34.34	8.35	11.07	-34.7	-34.6	14.6	1.11e-02	0	57	0	15485370368	40	14724
2026-01-24 14:23:35.35	8.08	11.08	-34.6	-34.5	14.6	1.11e-02	0	57	0	15602810880	40	14588
2026-01-24 14:23:36.36	7.81	11.09	-34.6	-34.5	14.7	1.11e-02	0	57	0	15711862784	40	14545
2026-01-24 14:23:37.37	7.54	11.10	-34.7	-34.5	14.7	1.11e-02	0	57	0	15837691904	40	14604
2026-01-24 14:23:38.37	7.28	11.11	-34.7	-34.6	14.6	1.05e-02	0	57	0	15946743808	40	14675
2026-01-24 14:23:39.38	7.01	11.11	-34.5	-34.4	14.7	1.05e-02	0	57	0	16064184320	40	14394
2026-01-24 14:23:40.39	6.74	11.12	-34.8	-34.7	14.6	1.05e-02	0	57	0	16173236224	40	14794
2026-01-24 14:23:41.40	6.47	11.13	-34.8	-34.7	14.6	1.07e-02	0	57	0	16290676736	40	14787
2026-01-24 14:23:42.41	6.20	11.13	-34.7	-34.6	14.6	1.07e-02	0	57	0	16399728640	40	14671
2026-01-24 14:23:43.41	5.93	11.14	-34.7	-34.6	14.6	1.07e-02	0	57	0	16508780544	40	14741
2026-01-24 14:23:44.42	5.66	11.14	-34.8	-34.7	14.6	1.14e-02	0	57	0	16626221056	40	14908
2026-01-24 14:23:45.43	5.39	11.15	-34.9	-34.8	14.6	1.14e-02	0	57	0	16735272960	40	14949
2026-01-24 14:23:46.44	5.12	11.15	-35.1	-34.9	14.5	1.12e-02	0	57	0	16852713472	40	15283
2026-01-24 14:23:47.45	4.85	11.16	-35.1	-35.0	14.5	1.12e-02	0	57	0	16961765376	40	15387
2026-01-24 14:23:48.45	4.58	11.16	-34.6	-34.5	14.7	1.12e-02	0	57	0	17070817280	40	14533
2026-01-24 14:23:49.46	4.31	11.16	-34.6	-34.5	14.7	1.25e-02	0	57	0	17188257792	40	14470
2026-01-24 14:23:50.47	4.04	11.17	-34.8	-34.7	14.7	1.25e-02	0	57	0	17314086912	40	14856
2026-01-24 14:23:51.48	3.76	11.17	-34.7	-34.6	14.7	1.05e-02	0	57	0	17423138816	40	14637
2026-01-24 14:23:52.49	3.49	11.17	-34.7	-34.6	14.7	1.05e-02	0	57	0	17532190720	40	14725
2026-01-24 14:23:53.49	3.23	11.17	-34.7	-34.6	14.8	1.05e-02	0	57	0	17649631232	40	14652
2026-01-24 14:23:54.50	2.95	11.17	-34.7	-34.6	14.8	1.01e-02	0	57	0	17758683136	40	14629
2026-01-24 14:23:55.51	2.68	11.17	-34.7	-34.6	14.8	1.01e-02	0	57	0	17876123648	40	14628
2026-01-24 14:23:56.52	2.41	11.17	-34.6	-34.5	14.8	1.01e-02	0	57	0	17985175552	40	14464
2026-01-24 14:23:57.53	2.14	11.16	-34.6	-34.5	14.8	9.64e-03	0	57	0	18102616064	40	14555
2026-01-24 14:23:58.54	1.87	11.16	-34.6	-34.5	14.9	9.64e-03	0	57	0	18211667968	40	14476
2026-01-24 14:23:59.55	1.60	11.16	-34.5	-34.4	14.9	9.64e-03	0	57	0	18320719872	40	14423
2026-01-24 14:24:00.55	1.33	11.16	-34.4	-34.3	14.9	8.33e-03	0	57	0	18438160384	40	14185
2026-01-24 14:24:01.56	1.06	11.15	-34.5	-34.4	14.9	8.33e-03	0	57	0	18547212288	40	14335
2026-01-24 14:24:02.57	0.79	11.15	-34.5	-34.4	14.9	8.33e-03	0	57	0	18673041408	40	14350
2026-01-24 14:24:03.58	0.52	11.14	-34.5	-34.4	14.9	8.33e-03	0	57	0	18782093312	40	14369
2026-01-24 14:24:04.59	0.25	11.14	-34.6	-34.5	14.9	8.86e-03	0	57	0	18899533824	40	14493
2026-01-24 14:24:05.59	359.98	11.13	-34.5	-34.4	14.9	8.86e-03	0	57	0	19008585728	40	14384
2026-01-24 14:24:06.60	359.71	11.13	-34.7	-34.6	14.8	8.86e-03	0	57	0	19126026240	40	14694
2026-01-24 14:24:07.61	359.44	11.12	-34.5	-34.4	14.9	9.45e-03	0	57	0	19235078144	40	14305
2026-01-24 14:24:08.62	359.17	11.11	-34.6	-34.5	14.9	9.45e-03	0	57	0	19344130048	40	14545
2026-01-24 14:24:09.63	358.90	11.10	-34.3	-34.2	15.0	9.45e-03	0	57	0	19461570560	40	13956
2026-01-24 14:24:10.64	358.63	11.10	-34.5	-34.4	14.9	9.45e-03	0	57	0	19570622464	40	14346
2026-01-24 14:24:11.64	358.37	11.09	-34.5	-34.4	14.9	8.32e-03	0	57	0	19688062976	40	14415
2026-01-24 14:24:12.65	358.10	11.08	-34.3	-34.2	15.0	8.32e-03	0	57	0	19797114880	40	14026
2026-01-24 14:24:13.66	357.83	11.07	-34.3	-34.2	15.0	8.32e-03	0	57	0	19906166784	40	14049
2026-01-24 14:24:14.67	357.56	11.06	-34.3	-34.2	15.0	7.77e-03	0	57	0	20031995904	40	14037
2026-01-24 14:24:15.68	357.29	11.05	-34.4	-34.3	15.0	7.77e-03	0	57	0	20149436416	40	14153
2026-01-24 14:24:16.69	357.02	11.03	-34.3	-34.2	15.0	7.27e-03	0	57	0	20258488320	40	14036
2026-01-24 14:24:17.70	356.76	11.02	-34.5	-34.4	14.9	7.27e-03	0	57	0	20367540224	40	14334
2026-01-24 14:24:18.71	356.49	11.01	-34.4	-34.3	14.9	7.27e-03	0	57	0	20484980736	40	14174
2026-01-24 14:24:19.71	356.22	11.00	-34.4	-34.3	15.0	7.27e-03	0	57	0	20594032640	40	14212
2026-01-24 14:24:20.72	355.96	10.98	-34.5	-34.4	14.9	8.24e-03	0	57	0	20711473152	40	14369
2026-01-24 14:24:21.73	355.69	10.97	-34.5	-34.4	14.9	8.24e-03	0	57	0	20820525056	40	14335
2026-01-24 14:24:22.74	355.42	10.95	-34.6	-34.5	14.9	8.24e-03	0	57	0	20929576960	40	14511
2026-01-24 14:24:23.74	355.16	10.94	-34.6	-34.5	14.9	8.35e-03	0	57	0	21047017472	40	14505
2026-01-24 14:24:24.75	354.89	10.92	-34.7	-34.6	14.9	8.35e-03	0	57	0	21156069376	40	14684
2026-01-24 14:24:25.76	354.63	10.91	-34.3	-34.2	15.1	8.35e-03	0	57	0	21273509888	40	14054
2026-01-24 14:24:26.77	354.36	10.89	-34.3	-34.2	15.0	8.23e-03	0	57	0	21390950400	40	14029
2026-01-24 14:24:27.78	354.10	10.87	-34.3	-34.2	15.0	8.23e-03	0	57	0	21508390912	40	14077
2026-01-24 14:24:28.79	353.84	10.86	-34.2	-34.1	15.1	8.23e-03	0	57	0	21617442816	40	13904
2026-01-24 14:24:29.79	353.57	10.84	-34.4	-34.3	15.0	7.79e-03	0	57	0	21734883328	40	14165
2026-01-24 14:24:30.80	353.31	10.82	-34.2	-34.2	15.1	7.79e-03	0	58	0	21843935232	40	13969
2026-01-24 14:24:31.81	353.05	10.80	-34.5	-34.5	14.9	7.79e-03	0	57	0	21952987136	40	14462
2026-01-24 14:24:32.82	352.79	10.78	-34.3	-34.3	15.0	7.78e-03	0	57	0	22070427648	40	14131
2026-01-24 14:24:33.83	352.52	10.76	-34.1	-34.0	15.1	7.78e-03	0	57	0	22179479552	40	13688
2026-01-24 14:24:34.83	352.26	10.74	-34.5	-34.4	14.9	7.51e-03	0	57	0	22296920064	40	14320
2026-01-24 14:24:35.84	352.00	10.72	-34.3	-34.2	15.0	7.51e-03	0	57	0	22405971968	40	14026
2026-01-24 14:24:36.85	351.74	10.70	-34.4	-34.3	14.9	7.51e-03	0	57	0	22523412480	40	14192
2026-01-24 14:24:37.86	351.48	10.68	-34.6	-34.5	14.8	7.51e-03	0	57	0	22632464384	40	14511
2026-01-24 14:24:38.87	351.22	10.65	-34.4	-34.3	14.9	8.19e-03	0	57	0	22758293504	40	14205
2026-01-24 14:24:39.87	350.97	10.63	-34.6	-34.5	14.8	8.19e-03	0	57	0	22867345408	40	14550
2026-01-24 14:24:40.88	350.71	10.61	-34.5	-34.4	14.9	8.19e-03	0	57	0	22984785920	40	14328
2026-01-24 14:24:41.89	350.45	10.58	-34.5	-34.4	14.9	8.99e-03	0	57	0	23093837824	40	14348
2026-01-24 14:24:42.90	350.19	10.56	-34.6	-34.5	14.8	8.99e-03	0	57	0	23202889728	40	14549
2026-01-24 14:24:43.91	349.93	10.54	-34.4	-34.3	14.9	9.49e-03	0	57	0	23320330240	40	14253
2026-01-24 14:24:44.92	349.68	10.51	-34.4	-34.3	14.9	9.49e-03	0	57	0	23429382144	40	14227
2026-01-24 14:24:45.93	349.42	10.49	-34.1	-34.0	15.0	9.49e-03	0	57	0	23546822656	40	13761
2026-01-24 14:24:46.94	349.16	10.46	-34.3	-34.3	14.9	8.27e-03	0	57	0	23655874560	40	14140
2026-01-24 14:24:47.95	348.91	10.43	-34.3	-34.2	14.9	8.27e-03	0	57	0	23764926464	40	14087
2026-01-24 14:24:48.95	348.66	10.41	-34.1	-34.0	15.0	8.27e-03	0	57	0	23882366976	40	13773
2026-01-24 14:24:49.96	348.40	10.38	-34.5	-34.4	14.9	8.81e-03	0	57	0	23991418880	40	14334
2026-01-24 14:24:50.97	348.15	10.35	-34.4	-34.3	14.9	8.81e-03	0	57	0	24117248000	40	14166
2026-01-24 14:24:51.97	347.90	10.32	-34.5	-34.4	14.8	8.81e-03	0	58	0	24226299904	40	14425
2026-01-24 14:24:52.98	347.65	10.30	-34.8	-34.7	14.7	9.33e-03	0	57	0	24343740416	40	14879
2026-01-24 14:24:53.99	347.40	10.27	-34.7	-34.6	14.7	9.33e-03	0	57	0	24452792320	40	14761
2026-01-24 14:24:55.00	347.14	10.24	-34.6	-34.5	14.8	9.33e-03	0	57	0	24570232832	40	14535
2026-01-24 14:24:56.01	346.89	10.21	-34.3	-34.3	14.9	1.18e-02	0	57	0	24679284736	40	14137
2026-01-24 14:24:57.01	346.65	10.18	-34.7	-34.6	14.7	1.18e-02	0	57	0	24788336640	40	14757
2026-01-24 14:24:58.02	346.40	10.15	-34.6	-34.5	14.8	1.18e-02	0	57	0	24905777152	40	14564
2026-01-24 14:24:59.03	346.15	10.12	-34.6	-34.5	14.8	1.05e-02	0	57	0	25014829056	40	14574
2026-01-24 14:25:00.04	345.90	10.09	-34.5	-34.4	14.8	1.05e-02	0	57	0	25132269568	40	14436
2026-01-24 14:25:01.05	345.65	10.06	-34.6	-34.5	14.8	1.05e-02	0	58	0	25241321472	40	14594
2026-01-24 14:25:02.05	345.41	10.02	-34.7	-34.6	14.7	1.15e-02	0	57	0	25358761984	40	14771
2026-01-24 14:25:03.06	345.16	9.99	-34.7	-34.7	14.7	1.15e-02	0	58	0	25467813888	40	14802
2026-01-24 14:25:04.07	344.92	9.96	-34.8	-34.7	14.7	1.15e-02	0	58	0	25593643008	40	14901
2026-01-24 14:25:05.08	344.67	9.93	-34.7	-34.7	14.7	1.15e-02	0	57	0	25702694912	40	14803
2026-01-24 14:25:06.09	344.43	9.89	-34.9	-34.8	14.6	1.27e-02	0	57	0	25811746816	40	15105
2026-01-24 14:25:07.10	344.19	9.86	-34.5	-34.4	14.8	1.27e-02	0	57	0	25929187328	40	14361
2026-01-24 14:25:08.11	343.95	9.82	-34.7	-34.6	14.7	1.27e-02	0	57	0	26038239232	40	14706
2026-01-24 14:25:09.12	343.70	9.79	-34.8	-34.7	14.7	1.25e-02	0	58	0	26155679744	40	14879
2026-01-24 14:25:10.13	343.46	9.75	-35.3	-35.2	14.5	1.25e-02	0	57	0	26264731648	41	14838
2026-01-24 14:25:11.13	343.22	9.72	-35.1	-35.0	14.6	1.25e-02	0	57	0	26382172160	41	14535
2026-01-24 14:25:12.14	342.99	9.68	-35.1	-35.0	14.6	1.42e-02	0	58	0	26491224064	41	14503
2026-01-24 14:25:13.15	342.75	9.65	-35.3	-35.2	14.5	1.42e-02	0	58	0	26600275968	41	14897
2026-01-24 14:25:14.16	342.51	9.61	-35.1	-35.0	14.6	1.57e-02	0	57	0	26717716480	41	14557
2026-01-24 14:25:15.17	342.27	9.58	-34.8	-34.7	14.7	1.57e-02	0	57	0	26843545600	41	14051
2026-01-24 14:25:16.18	342.03	9.54	-34.8	-34.7	14.7	1.29e-02	0	57	0	26952597504	41	14053
2026-01-24 14:25:17.19	341.80	9.50	-35.0	-34.9	14.6	1.29e-02	0	58	0	27061649408	41	14425
2026-01-24 14:25:18.20	341.56	9.46	-34.9	-34.8	14.6	1.29e-02	0	57	0	27179089920	41	14270
2026-01-24 14:25:19.21	341.33	9.43	-34.8	-34.7	14.7	1.39e-02	0	57	0	27288141824	41	14060
2026-01-24 14:25:20.21	341.10	9.39	-35.1	-35.0	14.5	1.39e-02	0	58	0	27405582336	41	14506
2026-01-24 14:25:21.22	340.86	9.35	-35.0	-34.9	14.5	1.39e-02	0	58	0	27514634240	41	14373
2026-01-24 14:25:22.23	340.63	9.31	-34.9	-34.9	14.5	1.99e-02	0	58	0	27623686144	41	14301
2026-01-24 14:25:23.24	340.40	9.27	-35.2	-35.1	14.4	1.99e-02	0	58	0	27741126656	41	14751
2026-01-24 14:25:24.24	340.17	9.23	-34.8	-34.7	14.6	2.51e-02	0	58	0	27850178560	41	14054
2026-01-24 14:25:25.25	339.94	9.19	-34.5	-34.4	14.7	2.51e-02	0	58	0	27967619072	40	14431
2026-01-24 14:25:26.26	339.71	9.15	-34.9	-34.8	14.5	2.51e-02	0	58	0	28076670976	40	15073
2026-01-24 14:25:27.27	339.49	9.11	-34.8	-34.7	14.6	2.15e-02	0	58	0	28202500096	40	14913
2026-01-24 14:25:28.28	339.26	9.07	-34.8	-34.7	14.6	2.15e-02	0	58	0	28311552000	40	14912
2026-01-24 14:25:29.29	339.03	9.03	-34.7	-34.7	14.6	2.11e-02	0	58	0	28428992512	40	14810
2026-01-24 14:25:30.29	338.81	8.99	-34.9	-34.8	14.5	2.11e-02	0	58	0	28538044416	40	15119
2026-01-24 14:25:31.30	338.58	8.95	-34.5	-34.4	14.7	2.11e-02	0	58	0	28647096320	40	14423
2026-01-24 14:25:32.31	338.36	8.91	-34.6	-34.5	14.7	2.36e-02	0	58	0	28764536832	40	14588
2026-01-24 14:25:33.32	338.13	8.87	-34.7	-34.7	14.6	2.36e-02	0	58	0	28873588736	40	14817
2026-01-24 14:25:34.33	337.91	8.82	-34.9	-34.8	14.5	2.36e-02	0	58	0	28991029248	40	15043
2026-01-24 14:25:35.33	337.69	8.78	-35.1	-35.0	14.4	2.36e-02	0	58	0	29100081152	40	15468
2026-01-24 14:25:36.34	337.47	8.74	-34.8	-34.7	14.6	2.31e-02	0	58	0	29217521664	40	14922
2026-01-24 14:25:37.35	337.25	8.70	-34.8	-34.8	14.6	2.31e-02	0	58	0	29326573568	40	14992
2026-01-24 14:25:38.36	337.03	8.65	-34.7	-34.6	14.6	2.31e-02	0	58	0	29435625472	40	14727
2026-01-24 14:25:39.37	336.81	8.61	-34.8	-34.7	14.6	2.47e-02	0	58	0	29561454592	40	14894
2026-01-24 14:25:40.38	336.59	8.57	-34.8	-34.7	14.6	2.47e-02	0	58	0	29670506496	40	14918
2026-01-24 14:25:41.39	336.38	8.52	-34.9	-34.8	14.6	2.47e-02	0	58	0	29787947008	40	15034
2026-01-24 14:25:42.39	336.16	8.48	-35.1	-35.1	14.4	2.53e-02	0	58	0	29896998912	40	15496
2026-01-24 14:25:43.40	335.95	8.44	-34.7	-34.6	14.6	2.53e-02	0	58	0	30014439424	40	14749
2026-01-24 14:25:44.41	335.73	8.39	-34.9	-34.8	14.5	2.53e-02	0	58	0	30123491328	40	15043
2026-01-24 14:25:45.42	335.52	8.35	-34.9	-34.9	14.5	2.48e-02	0	58	0	30240931840	40	15154
2026-01-24 14:25:46.43	335.31	8.30	-35.1	-35.1	14.5	2.48e-02	0	58	0	30349983744	41	14643
2026-01-24 14:25:47.44	335.09	8.26	-35.2	-35.2	14.4	2.71e-02	0	58	0	30459035648	41	14823
2026-01-24 14:25:48.45	334.88	8.21	-35.2	-35.1	14.4	2.71e-02	0	58	0	30576476160	41	14761
2026-01-24 14:25:49.45	334.67	8.17	-35.3	-35.2	14.3	2.71e-02	0	58	0	30685528064	41	14920
2026-01-24 14:25:50.46	334.46	8.12	-35.1	-35.1	14.4	3.07e-02	0	58	0	30802968576	41	14650
2026-01-24 14:25:51.47	334.26	8.08	-35.2	-35.1	14.4	3.07e-02	0	58	0	30920409088	41	14776
2026-01-24 14:25:52.48	334.05	8.03	-35.1	-35.1	14.4	3.07e-02	0	58	0	31037849600	41	14647
2026-01-24 14:25:53.49	333.84	7.98	-35.1	-35.0	14.5	3.06e-02	0	58	0	31146901504	41	14506
2026-01-24 14:25:54.50	333.63	7.94	-35.2	-35.2	14.4	3.06e-02	0	58	0	31264342016	41	14821
2026-01-24 14:25:55.51	333.43	7.89	-35.5	-35.5	14.2	3.06e-02	0	58	0	31373393920	41	15347
2026-01-24 14:25:56.52	333.22	7.84	-35.2	-35.2	14.4	3.45e-02	0	58	0	31482445824	41	14792
2026-01-24 14:25:57.53	333.02	7.80	-35.1	-35.0	14.5	3.45e-02	0	58	0	31599886336	41	14526
2026-01-24 14:25:58.53	332.82	7.75	-35.2	-35.1	14.4	3.45e-02	0	58	0	31708938240	41	14706
2026-01-24 14:25:59.54	332.62	7.70	-35.2	-35.1	14.4	3.45e-02	0	58	0	31826378752	41	14758
2026-01-24 14:26:00.55	332.41	7.65	-35.3	-35.3	14.3	3.09e-02	0	58	0	31935430656	41	15021
2026-01-24 14:26:01.56	332.21	7.61	-35.2	-35.1	14.4	3.09e-02	0	58	0	32044482560	41	14729
2026-01-24 14:26:02.56	332.02	7.56	-35.4	-35.4	14.3	3.35e-02	0	58	0	32170311680	41	15136
2026-01-24 14:26:03.57	331.82	7.51	-35.5	-35.5	14.2	3.35e-02	0	58	0	32287752192	41	15342
2026-01-24 14:26:04.58	331.62	7.46	-35.5	-35.5	14.2	3.35e-02	0	58	0	32396804096	42	14443
2026-01-24 14:26:05.59	331.42	7.41	-35.4	-35.4	14.3	3.70e-02	0	58	0	32505856000	42	14279
2026-01-24 14:26:06.60	331.22	7.37	-35.6	-35.5	14.2	3.70e-02	0	58	0	32623296512	42	14573
2026-01-24 14:26:07.61	331.03	7.32	-35.7	-35.6	14.2	3.66e-02	0	58	0	32732348416	42	14688
2026-01-24 14:26:08.61	330.84	7.27	-35.7	-35.7	14.1	3.66e-02	0	58	0	32849788928	42	14843
2026-01-24 14:26:09.62	330.64	7.22	-35.8	-35.7	14.1	3.66e-02	0	58	0	32958840832	42	14895
2026-01-24 14:26:10.63	330.45	7.17	-35.9	-35.8	14.0	4.00e-02	0	58	0	33067892736	42	15072
2026-01-24 14:26:11.64	330.26	7.12	-35.8	-35.8	14.1	4.00e-02	0	58	0	33185333248	42	14999
2026-01-24 14:26:12.65	330.06	7.07	-35.9	-35.8	14.0	4.00e-02	0	58	0	33294385152	42	15093
2026-01-24 14:26:13.65	329.88	7.02	-36.0	-36.0	14.0	4.16e-02	0	58	0	33411825664	42	15307
2026-01-24 14:26:14.66	329.69	6.97	-35.4	-35.4	14.3	4.16e-02	0	58	0	33520877568	42	14279
2026-01-24 14:26:15.67	329.50	6.93	-35.9	-35.8	14.0	3.93e-02	0	58	0	33646706688	42	15028
2026-01-24 14:26:16.68	329.31	6.88	-35.9	-35.8	14.0	3.93e-02	0	58	0	33755758592	42	15042
2026-01-24 14:26:17.69	329.12	6.83	-36.1	-36.1	13.9	3.93e-02	0	58	0	33873199104	42	15515
2026-01-24 14:26:18.70	328.93	6.78	-35.8	-35.8	14.1	3.93e-02	0	58	0	33982251008	42	14999
2026-01-24 14:26:19.71	328.75	6.73	-35.8	-35.7	14.1	4.29e-02	0	58	0	34099691520	42	14937
2026-01-24 14:26:20.72	328.56	6.68	-35.7	-35.7	14.1	4.29e-02	0	58	0	34208743424	42	14807
2026-01-24 14:26:21.73	328.38	6.63	-36.0	-35.9	14.0	4.29e-02	0	58	0	34317795328	42	15247
2026-01-24 14:26:22.73	328.20	6.58	-36.1	-36.0	13.9	4.16e-02	0	58	0	34435235840	42	15473
2026-01-24 14:26:23.74	328.01	6.52	-35.8	-35.8	14.1	4.16e-02	0	58	0	34544287744	42	15006
2026-01-24 14:26:24.75	327.83	6.47	-35.8	-35.8	14.1	4.16e-02	0	58	0	34661728256	42	15006
2026-01-24 14:26:25.76	327.65	6.42	-36.1	-36.1	13.9	4.23e-02	0	58	0	34770780160	43	14660
2026-01-24 14:26:26.77	327.47	6.37	-36.3	-36.2	13.9	4.23e-02	0	58	0	34896609280	43	14923
2026-01-24 14:26:27.78	327.29	6.32	-36.1	-36.0	13.9	4.38e-02	0	58	0	35005661184	43	14575
2026-01-24 14:26:28.79	327.11	6.27	-36.1	-36.1	13.9	4.38e-02	0	58	0	35123101696	43	14635
2026-01-24 14:26:29.79	326.94	6.22	-36.2	-36.1	13.9	4.38e-02	0	58	0	35232153600	43	14767
2026-01-24 14:26:30.80	326.76	6.17	-36.1	-36.0	14.0	4.37e-02	0	58	0	35341205504	43	14563
2026-01-24 14:26:31.81	326.58	6.12	-36.1	-36.1	13.9	4.37e-02	0	58	0	35458646016	43	14657
2026-01-24 14:26:32.81	326.41	6.07	-36.2	-36.1	13.9	4.37e-02	0	58	0	35567697920	43	14766
2026-01-24 14:26:33.82	326.23	6.02	-36.3	-36.3	13.9	4.37e-02	0	58	0	35685138432	43	14956
2026-01-24 14:26:34.83	326.06	5.96	-36.6	-36.6	13.7	4.42e-02	0	58	0	35794190336	43	15477
2026-01-24 14:26:35.84	325.89	5.91	-36.3	-36.3	13.8	4.42e-02	0	58	0	35903242240	43	14960
2026-01-24 14:26:36.85	325.71	5.86	-36.4	-36.4	13.8	4.42e-02	0	58	0	36020682752	43	15156
2026-01-24 14:26:37.86	325.54	5.81	-36.0	-35.9	14.1	4.54e-02	0	58	0	36129734656	43	14372
2026-01-24 14:26:38.87	325.37	5.76	-36.2	-36.1	13.9	4.54e-02	0	58	0	36255563776	43	14760
2026-01-24 14:26:39.87	325.20	5.71	-36.3	-36.2	13.9	3.95e-02	0	58	0	36364615680	43	14929
2026-01-24 14:26:40.88	325.03	5.65	-35.9	-35.8	14.1	3.95e-02	0	58	0	36482056192	43	14242
2026-01-24 14:26:41.89	324.87	5.60	-36.1	-36.0	14.0	4.05e-02	0	58	0	36591108096	43	14501
2026-01-24 14:26:42.90	324.70	5.55	-36.2	-36.2	13.8	4.05e-02	0	58	0	36708548608	44	13989
2026-01-24 14:26:43.91	324.53	5.50	-37.0	-37.0	13.4	4.05e-02	0	58	0	36817600512	44	15347
2026-01-24 14:26:44.92	324.36	5.45	-36.5	-36.4	13.7	4.05e-02	0	58	0	36926652416	44	14435
2026-01-24 14:26:45.93	324.20	5.39	-36.3	-36.3	13.8	5.16e-02	0	58	0	37044092928	44	14163
2026-01-24 14:26:46.94	324.03	5.34	-36.4	-36.3	13.8	5.16e-02	0	58	0	37153144832	43	15012
2026-01-24 14:26:47.95	323.87	5.29	-36.7	-36.7	13.5	4.54e-02	0	58	0	37270585344	44	14820
2026-01-24 14:26:48.96	323.71	5.24	-36.9	-36.8	13.4	4.54e-02	0	58	0	37379637248	44	15073
2026-01-24 14:26:49.97	323.54	5.19	-36.6	-36.6	13.6	4.54e-02	0	58	0	37505466368	44	14630
2026-01-24 14:26:50.97	323.38	5.13	-36.8	-36.8	13.5	5.61e-02	0	58	0	37614518272	44	15030
2026-01-24 14:26:51.98	323.22	5.08	-36.4	-36.4	13.7	5.61e-02	0	58	0	37731958784	44	14291
2026-01-24 14:26:52.99	323.06	5.03	-37.0	-37.0	13.3	5.61e-02	0	58	0	37841010688	45	14492
2026-01-24 14:26:54.00	322.90	4.98	-52.4	-54.5	6.3	6.31e-02	0	58	104	37924896768	75	19295
2026-01-24 14:26:55.01	322.74	4.92	-53.0	-55.3	6.2	6.31e-02	0	57	104	37924896768	76	19963
2026-01-24 14:26:56.02	322.59	4.87	-53.4	-55.6	6.2	6.31e-02	0	57	104	37924896768	77	19594
2026-01-24 14:26:57.03	322.43	4.82	-53.6	-55.8	6.2	6.31e-02	0	57	104	37924896768	77	19995
2026-01-24 14:26:58.04	322.27	4.77	-53.8	-56.0	6.2	1.81e-02	0	57	104	37924896768	78	19335
2026-01-24 14:26:59.05	322.12	4.71	-54.0	-56.1	6.2	1.81e-02	0	57	104	37924896768	78	19655
2026-01-24 14:27:00.06	321.96	4.66	-54.1	-56.2	6.2	1.81e-02	0	57	104	37924896768	78	19908
2026-01-24 14:27:01.06	321.81	4.61	-54.3	-56.4	6.2	1.81e-02	0	57	104	37924896768	79	19148
2026-01-24 14:27:02.07	321.65	4.56	-54.3	-56.5	6.2	1.81e-02	0	57	104	37924896768	79	19308
2026-01-24 14:27:03.08	321.50	4.50	-54.4	-56.5	6.2	1.81e-02	0	56	104	37924896768	79	19440
2026-01-24 14:27:04.09	321.35	4.45	-54.5	-56.6	6.2	1.81e-02	0	56	104	37924896768	79	19615
2026-01-24 14:27:05.10	321.20	4.40	-54.6	-56.7	6.2	1.81e-02	0	56	104	37924896768	79	19803
2026-01-24 14:27:06.11	321.05	4.34	-54.6	-56.7	6.2	1.81e-02	0	56	104	37924896768	79	19918
2026-01-24 14:27:07.12	320.89	4.29	-54.6	-56.7	6.2	1.81e-02	0	56	104	37924896768	79	19931
2026-01-24 14:27:08.13	320.75	4.24	-54.6	-56.8	6.2	1.81e-02	0	56	104	37924896768	79	19950
2026-01-24 14:27:09.13	320.60	4.19	-54.7	-56.8	6.2	1.81e-02	0	56	104	37924896768	79	19992
2026-01-24 14:27:10.14	320.45	4.13	-54.6	-56.7	6.2	1.81e-02	0	56	104	37924896768	79	19916
2026-01-24 14:27:11.15	320.30	4.08	-54.6	-56.7	6.2	1.81e-02	0	56	104	37924896768	79	19927
2026-01-24 14:27:12.16	320.16	4.03	-54.6	-56.7	6.2	1.81e-02	0	56	104	37924896768	79	19844
2026-01-24 14:27:13.17	320.01	3.98	-54.6	-56.7	6.2	0.00e+00	0	56	104	37924896768	79	19793
2026-01-24 14:27:14.18	319.86	3.92	-54.5	-56.7	6.2	0.00e+00	0	56	104	37924896768	79	19707
2026-01-24 14:27:15.19	319.72	3.87	-54.5	-56.6	6.2	0.00e+00	0	56	104	37924896768	79	19554
2026-01-24 14:27:16.20	319.57	3.82	-54.4	-56.5	6.2	0.00e+00	0	56	104	37924896768	79	19443
2026-01-24 14:27:17.21	319.43	3.76	-54.3	-56.4	6.2	0.00e+00	0	56	104	37924896768	79	19254
2026-01-24 14:27:18.21	319.29	3.71	-54.3	-56.4	6.2	0.00e+00	0	56	104	37924896768	79	19209
2026-01-24 14:27:19.23	319.15	3.66	-54.3	-56.4	6.2	0.00e+00	0	56	104	37924896768	79	19190
2026-01-24 14:27:20.23	319.01	3.61	-54.3	-56.4	6.2	0.00e+00	0	56	104	37924896768	79	19144
2026-01-24 14:27:21.24	318.87	3.55	-54.2	-56.4	6.2	0.00e+00	0	56	104	37924896768	79	19071
2026-01-24 14:27:22.25	318.73	3.50	-54.2	-56.4	6.2	0.00e+00	0	56	104	37924896768	79	19051
2026-01-24 14:27:23.26	318.59	3.45	-54.2	-56.3	6.2	0.00e+00	0	56	104	37924896768	79	19028
2026-01-24 14:27:24.27	318.45	3.39	-54.2	-56.4	6.2	0.00e+00	0	56	104	37924896768	79	19087
2026-01-24 14:27:25.28	318.31	3.34	-54.2	-56.3	6.2	0.00e+00	0	56	104	37924896768	79	19008
2026-01-24 14:27:26.29	318.17	3.29	-54.2	-56.3	6.2	0.00e+00	0	56	104	37924896768	79	18952
2026-01-24 14:27:27.29	318.04	3.24	-54.2	-56.3	6.2	0.00e+00	0	56	104	37924896768	79	18947
2026-01-24 14:27:28.30	317.90	3.18	-54.2	-56.3	6.2	0.00e+00	0	56	104	37924896768	79	18901
2026-01-24 14:27:29.31	317.76	3.13	-54.2	-56.3	6.2	0.00e+00	0	56	104	37924896768	79	18916
2026-01-24 14:27:30.32	317.63	3.08	-54.2	-56.3	6.2	0.00e+00	0	56	104	37924896768	79	18925
2026-01-24 14:27:31.33	317.49	3.02	-54.2	-56.3	6.2	0.00e+00	0	56	104	37924896768	79	18889
2026-01-24 14:27:32.33	317.36	2.97	-54.2	-56.3	6.2	0.00e+00	0	56	104	37924896768	79	18937
2026-01-24 14:27:33.34	317.23	2.92	-54.2	-56.3	6.2	0.00e+00	0	56	104	37924896768	79	18864
2026-01-24 14:27:34.35	317.10	2.87	-54.1	-56.3	6.2	0.00e+00	0	56	104	37924896768	79	18845
2026-01-24 14:27:35.36	316.96	2.81	-54.1	-56.3	6.2	0.00e+00	0	56	104	37924896768	79	18827
2026-01-24 14:27:36.37	316.83	2.76	-54.1	-56.3	6.2	0.00e+00	0	56	104	37924896768	79	18875
2026-01-24 14:27:37.38	316.70	2.71	-54.1	-56.2	6.2	0.00e+00	0	56	104	37924896768	79	18813
2026-01-24 14:27:38.39	316.57	2.66	-54.1	-56.2	6.2	0.00e+00	0	55	104	37924896768	79	18814
2026-01-24 14:27:39.39	316.44	2.60	-54.1	-56.2	6.2	0.00e+00	0	56	104	37924896768	79	18801
2026-01-24 14:27:40.40	316.32	2.55	-54.1	-56.3	6.2	0.00e+00	0	56	104	37924896768	79	18835
2026-01-24 14:27:41.41	316.19	2.50	-54.1	-56.2	6.2	0.00e+00	0	56	104	37924896768	79	18703
2026-01-24 14:27:42.42	316.06	2.44	-54.1	-56.2	6.2	0.00e+00	0	56	104	37924896768	79	18807
2026-01-24 14:27:43.43	315.93	2.39	-54.1	-56.2	6.2	0.00e+00	0	56	104	37924896768	79	18794
2026-01-24 14:27:44.44	315.81	2.34	-54.1	-56.2	6.2	0.00e+00	0	56	104	37924896768	79	18767
2026-01-24 14:27:45.45	315.68	2.29	-54.1	-56.2	6.2	0.00e+00	0	55	104	37924896768	79	18807
2026-01-24 14:27:46.45	315.56	2.23	-54.1	-56.2	6.2	0.00e+00	0	56	104	37924896768	79	18734
2026-01-24 14:27:47.46	315.43	2.18	-54.1	-56.3	6.2	0.00e+00	0	56	104	37924896768	79	18838
2026-01-24 14:27:48.47	315.31	2.13	-54.1	-56.2	6.2	0.00e+00	0	56	104	37924896768	79	18763
2026-01-24 14:27:49.48	315.18	2.08	-54.1	-56.2	6.2	0.00e+00	0	55	104	37924896768	79	18767
2026-01-24 14:27:50.49	315.06	2.02	-54.1	-56.2	6.2	0.00e+00	0	55	104	37924896768	79	18710

#Closed at: 2026-01-24 14:27:51
#Recorded file [37924 MB]: D:/lorett/data/31041_260124_171958.dat