passes_logs/2026/01/24/R3.2S_Murmansk/R3.2S_Murmansk__20260124_011318_NOAA_21_JPSS-2_rec.log

#Pass ID: 20260124_011318_NOAA 21 (JPSS-2)
#Satellite: NOAA 21 (JPSS-2)
#Configuration: NOAA-21
#almurnet v.1.7.20251203
#Start time: 2026-01-24 01:13:18

#Version: 2.2.20231116
#Station: R3.2S_Murmansk
#Location: 33.079688 lon 68.888172 lat
#TLE: 1 54234U 22150A   26023.61190495  .00000215  00000+0  12293-3 0  9993
#TLE: 2 54234  98.7508 324.4078 0000700 226.6110 133.5008 14.19538339166032

#Time	Az	El	Level	Level2	SNR	BER	BlckErr	Temp	State	Recorded	gain1	gain2
2026-01-24 01:13:18.94	26.70	2.03	-52.2	-65.0	3.8	1.49e+00	0	41	0	0	76	15258
2026-01-24 01:13:19.92	26.69	2.10	-52.2	-65.0	3.8	1.49e+00	0	41	104	0	74	17136
2026-01-24 01:13:20.89	26.68	2.16	-52.2	-65.0	3.8	1.49e+00	0	41	104	0	74	17084
2026-01-24 01:13:21.86	26.67	2.22	-52.2	-64.9	3.8	1.49e+00	0	42	104	0	74	17032
2026-01-24 01:13:22.83	26.66	2.28	-52.2	-64.9	3.8	1.49e+00	0	41	104	0	74	17062
2026-01-24 01:13:23.80	26.65	2.34	-52.2	-64.9	3.8	1.49e+00	0	42	104	0	74	17037
2026-01-24 01:13:24.77	26.64	2.41	-52.2	-64.9	3.8	1.49e+00	0	42	104	0	74	17019
2026-01-24 01:13:25.74	26.63	2.47	-52.2	-64.9	3.8	1.49e+00	0	42	104	0	74	17028
2026-01-24 01:13:26.71	26.62	2.53	-52.2	-64.9	3.8	1.49e+00	0	42	104	0	74	16997
2026-01-24 01:13:27.69	26.61	2.60	-52.2	-64.9	3.8	1.49e+00	0	42	104	0	74	17009
2026-01-24 01:13:28.66	26.60	2.66	-52.2	-64.9	3.8	1.49e+00	0	42	104	0	74	17072
2026-01-24 01:13:29.62	26.59	2.72	-52.2	-64.9	3.8	1.49e+00	0	42	104	0	74	17041
2026-01-24 01:13:30.59	26.58	2.79	-52.2	-64.9	3.8	1.49e+00	0	42	104	0	74	16985
2026-01-24 01:13:31.56	26.57	2.85	-52.2	-64.9	3.8	1.49e+00	0	42	104	0	74	16967
2026-01-24 01:13:32.54	26.56	2.91	-52.2	-64.8	3.8	1.49e+00	0	42	104	0	74	16860
2026-01-24 01:13:33.51	26.55	2.98	-52.2	-64.8	3.8	1.49e+00	0	42	104	0	74	16750
2026-01-24 01:13:34.48	26.54	3.04	-52.2	-64.7	3.8	1.49e+00	0	42	104	0	74	16611
2026-01-24 01:13:35.45	26.53	3.10	-52.2	-64.6	3.8	1.49e+00	0	42	104	0	74	16502
2026-01-24 01:13:36.42	26.51	3.17	-52.2	-64.6	3.8	1.49e+00	0	42	104	0	74	16443
2026-01-24 01:13:37.39	26.50	3.23	-52.2	-64.6	3.8	1.49e+00	0	42	104	0	74	16447
2026-01-24 01:13:38.36	26.49	3.30	-52.2	-64.6	3.8	1.49e+00	0	42	104	0	74	16371
2026-01-24 01:13:39.33	26.48	3.36	-52.2	-64.7	3.8	1.49e+00	0	42	104	0	74	16538
2026-01-24 01:13:40.30	26.47	3.43	-52.2	-64.8	3.8	1.49e+00	0	42	104	0	74	16827
2026-01-24 01:13:41.28	26.46	3.49	-52.2	-64.9	3.8	1.49e+00	0	42	104	0	74	16957
2026-01-24 01:13:42.25	26.45	3.56	-52.2	-64.8	3.8	1.49e+00	0	42	104	0	74	16792
2026-01-24 01:13:43.22	26.44	3.62	-52.1	-64.3	3.8	1.49e+00	0	42	104	0	74	15847
2026-01-24 01:13:44.18	26.42	3.69	-52.0	-63.2	3.8	1.49e+00	0	42	104	0	74	14006
2026-01-24 01:13:45.16	26.41	3.75	-51.8	-60.7	4.4	1.46e+00	0	42	104	0	74	10418
2026-01-24 01:13:46.13	26.40	3.82	-51.5	-59.1	5.1	8.64e-01	0	42	104	0	74	8724
2026-01-24 01:13:47.10	26.39	3.89	-50.9	-56.6	7.0	2.89e-01	0	42	0	2097152	73	6930
2026-01-24 01:13:48.07	26.38	3.95	-50.3	-54.7	8.9	6.12e-02	0	42	0	5242880	72	5923
2026-01-24 01:13:49.03	26.37	4.02	-49.4	-52.8	11.0	6.00e-03	0	42	0	8388608	70	5308
2026-01-24 01:13:50.01	26.35	4.08	-49.0	-52.0	11.8	6.77e-04	0	42	0	11534336	70	4854
2026-01-24 01:13:50.97	26.34	4.15	-48.6	-51.4	12.5	1.83e-04	0	42	0	14680064	69	4765
2026-01-24 01:13:51.95	26.33	4.22	-47.5	-49.7	14.2	4.50e-06	0	42	0	17825792	67	4393
2026-01-24 01:13:52.92	26.32	4.28	-46.8	-48.6	15.2	0.00e+00	0	42	0	20971520	65	4384
2026-01-24 01:13:53.89	26.31	4.35	-47.1	-49.0	14.8	0.00e+00	0	42	0	24117248	65	4590
2026-01-24 01:13:54.86	26.29	4.42	-46.3	-48.0	15.8	0.00e+00	0	42	0	27262976	64	4314
2026-01-24 01:13:55.84	26.28	4.49	-46.5	-48.2	15.6	0.00e+00	0	42	0	29360128	64	4419
2026-01-24 01:13:56.81	26.27	4.55	-46.2	-47.9	16.0	0.00e+00	0	42	0	32505856	63	4515
2026-01-24 01:13:57.78	26.26	4.62	-46.2	-47.9	16.0	0.00e+00	0	42	0	35651584	63	4501
2026-01-24 01:13:58.75	26.24	4.69	-46.5	-48.3	15.6	0.00e+00	0	42	0	38797312	63	4722
2026-01-24 01:13:59.72	26.23	4.76	-46.8	-48.7	15.1	0.00e+00	0	42	0	41943040	64	4699
2026-01-24 01:14:00.69	26.22	4.83	-46.8	-48.7	15.1	0.00e+00	0	42	0	45088768	64	4670
2026-01-24 01:14:01.66	26.21	4.89	-47.6	-49.7	14.1	0.00e+00	0	42	0	48234496	65	4978
2026-01-24 01:14:02.63	26.19	4.96	-48.1	-50.5	13.3	1.67e-05	0	42	0	51380224	66	5133
2026-01-24 01:14:03.60	26.18	5.03	-48.5	-51.2	12.6	6.25e-05	0	43	0	53477376	67	5230
2026-01-24 01:14:04.57	26.17	5.10	-48.8	-51.6	12.4	5.02e-04	0	42	0	56623104	68	5184
2026-01-24 01:14:05.54	26.15	5.17	-47.9	-50.2	13.7	3.36e-04	0	43	0	59768832	68	4401
2026-01-24 01:14:06.51	26.14	5.24	-48.2	-50.7	13.5	0.00e+00	0	43	0	62914560	66	5258
2026-01-24 01:14:07.48	26.13	5.31	-49.6	-53.0	10.2	1.49e+00	2	43	104	63963136	71	5116
2026-01-24 01:14:08.45	26.11	5.38	-45.7	-47.1	17.0	0.00e+00	0	43	0	66060288	61	4628
2026-01-24 01:14:09.42	26.10	5.45	-48.2	-50.6	13.3	2.39e-02	0	43	0	68157440	68	4610
2026-01-24 01:14:10.39	26.09	5.52	-44.8	-46.0	18.0	0.00e+00	0	43	0	71303168	61	4066
2026-01-24 01:14:11.37	26.07	5.59	-44.6	-45.9	18.2	0.00e+00	0	43	0	74448896	61	4018
2026-01-24 01:14:12.33	26.06	5.66	-44.7	-46.0	18.1	0.00e+00	0	43	0	77594624	61	4069
2026-01-24 01:14:13.30	26.05	5.73	-44.7	-46.0	18.1	0.00e+00	0	42	0	80740352	61	4065
2026-01-24 01:14:14.27	26.03	5.80	-44.4	-45.6	18.5	0.00e+00	0	43	0	83886080	60	4116
2026-01-24 01:14:15.24	26.02	5.87	-44.6	-45.8	18.3	0.00e+00	0	43	0	87031808	60	4227
2026-01-24 01:14:16.21	26.00	5.94	-44.6	-45.8	18.3	0.00e+00	0	43	0	90177536	60	4213
2026-01-24 01:14:17.18	25.99	6.01	-44.7	-45.9	18.1	0.00e+00	0	43	0	93323264	60	4286
2026-01-24 01:14:18.15	25.98	6.08	-44.5	-45.7	18.4	0.00e+00	0	43	0	96468992	60	4180
2026-01-24 01:14:19.12	25.96	6.16	-44.5	-45.7	18.4	0.00e+00	0	43	0	98566144	60	4153
2026-01-24 01:14:20.10	25.95	6.23	-44.4	-45.6	18.5	0.00e+00	0	42	0	101711872	60	4123
2026-01-24 01:14:21.07	25.93	6.30	-44.4	-45.6	18.5	0.00e+00	0	43	0	104857600	60	4113
2026-01-24 01:14:22.04	25.92	6.37	-44.4	-45.5	18.6	0.00e+00	0	43	0	108003328	60	4084
2026-01-24 01:14:23.01	25.90	6.44	-44.3	-45.4	18.7	0.00e+00	0	43	0	111149056	60	4044
2026-01-24 01:14:23.98	25.89	6.52	-44.5	-45.6	18.5	0.00e+00	0	43	0	114294784	60	4140
2026-01-24 01:14:24.96	25.87	6.59	-44.3	-45.4	18.7	0.00e+00	0	43	0	117440512	60	4051
2026-01-24 01:14:25.93	25.86	6.66	-44.3	-45.4	18.7	0.00e+00	0	43	0	120586240	60	4044
2026-01-24 01:14:26.90	25.84	6.74	-44.3	-45.5	18.6	0.00e+00	0	43	0	123731968	60	4080
2026-01-24 01:14:27.87	25.83	6.81	-44.3	-45.5	18.7	0.00e+00	0	43	0	126877696	60	4059
2026-01-24 01:14:28.84	25.81	6.88	-44.3	-45.5	18.6	0.00e+00	0	43	0	128974848	60	4063
2026-01-24 01:14:29.81	25.80	6.96	-44.3	-45.5	18.7	0.00e+00	0	43	0	132120576	60	4057
2026-01-24 01:14:30.79	25.78	7.03	-44.4	-45.6	18.6	0.00e+00	0	43	0	135266304	60	4122
2026-01-24 01:14:31.76	25.77	7.11	-44.4	-45.5	18.6	0.00e+00	0	43	0	138412032	60	4096
2026-01-24 01:14:32.74	25.75	7.18	-44.2	-45.3	18.8	0.00e+00	0	43	0	141557760	60	4000
2026-01-24 01:14:33.71	25.74	7.26	-44.4	-45.6	18.6	0.00e+00	0	43	0	144703488	60	4105
2026-01-24 01:14:34.68	25.72	7.33	-44.4	-45.6	18.6	0.00e+00	0	43	0	147849216	60	4127
2026-01-24 01:14:35.65	25.70	7.41	-44.2	-45.3	18.9	0.00e+00	0	43	0	150994944	60	3991
2026-01-24 01:14:36.62	25.69	7.48	-44.1	-45.2	19.0	0.00e+00	0	43	0	153092096	60	3921
2026-01-24 01:14:37.59	25.67	7.56	-44.4	-45.6	19.0	0.00e+00	0	43	0	156237824	59	4347
2026-01-24 01:14:38.56	25.65	7.63	-44.5	-45.7	18.9	0.00e+00	0	43	0	159383552	59	4401
2026-01-24 01:14:39.54	25.64	7.71	-44.0	-45.1	19.4	0.00e+00	0	43	0	162529280	59	4128
2026-01-24 01:14:40.51	25.62	7.79	-44.2	-45.3	19.2	0.00e+00	0	43	0	165675008	59	4220
2026-01-24 01:14:41.48	25.61	7.86	-44.5	-45.6	18.9	0.00e+00	0	43	0	168820736	59	4376
2026-01-24 01:14:42.46	25.59	7.94	-44.2	-45.3	19.3	0.00e+00	0	43	0	171966464	59	4201
2026-01-24 01:14:43.43	25.57	8.02	-44.3	-45.4	19.2	0.00e+00	0	43	0	175112192	59	4260
2026-01-24 01:14:44.40	25.55	8.10	-44.2	-45.3	19.3	0.00e+00	0	43	0	178257920	59	4221
2026-01-24 01:14:45.37	25.54	8.17	-44.2	-45.3	19.3	0.00e+00	0	43	0	181403648	59	4210
2026-01-24 01:14:46.34	25.52	8.25	-44.3	-45.4	19.1	0.00e+00	0	43	0	183500800	59	4287
2026-01-24 01:14:47.31	25.50	8.33	-44.4	-45.6	19.0	0.00e+00	0	43	0	186646528	59	4359
2026-01-24 01:14:48.28	25.49	8.41	-44.4	-45.5	19.1	0.00e+00	0	43	0	189792256	59	4312
2026-01-24 01:14:49.26	25.47	8.49	-44.3	-45.4	19.2	0.00e+00	0	43	0	192937984	59	4255
2026-01-24 01:14:50.22	25.45	8.56	-44.2	-45.3	19.4	0.00e+00	0	43	0	196083712	59	4208
2026-01-24 01:14:51.20	25.43	8.64	-44.2	-45.3	19.3	0.00e+00	0	43	0	199229440	59	4222
2026-01-24 01:14:52.17	25.41	8.72	-44.0	-45.1	19.5	0.00e+00	0	43	0	202375168	59	4114
2026-01-24 01:14:53.14	25.40	8.80	-44.0	-45.1	19.5	0.00e+00	0	43	0	205520896	59	4109
2026-01-24 01:14:54.11	25.38	8.88	-44.1	-45.1	19.5	0.00e+00	0	43	0	208666624	59	4145
2026-01-24 01:14:55.08	25.36	8.96	-44.0	-45.0	19.6	0.00e+00	0	43	0	211812352	59	4094
2026-01-24 01:14:56.05	25.34	9.04	-43.9	-45.0	19.6	0.00e+00	0	43	0	214958080	59	4065
2026-01-24 01:14:57.03	25.32	9.12	-43.9	-44.9	19.7	0.00e+00	0	43	0	217055232	59	4031
2026-01-24 01:14:58.00	25.31	9.20	-44.0	-45.1	19.6	0.00e+00	0	43	0	220200960	59	4115
2026-01-24 01:14:58.97	25.29	9.28	-43.9	-44.9	19.7	0.00e+00	0	43	0	223346688	59	4048
2026-01-24 01:14:59.93	25.27	9.36	-43.8	-44.9	19.8	0.00e+00	0	43	0	226492416	59	4026
2026-01-24 01:15:00.91	25.25	9.45	-43.9	-44.9	19.7	0.00e+00	0	43	0	229638144	59	4035
2026-01-24 01:15:01.88	25.23	9.53	-43.9	-44.9	19.8	0.00e+00	0	43	0	232783872	59	4024
2026-01-24 01:15:02.85	25.21	9.61	-43.8	-44.8	19.9	0.00e+00	0	43	0	235929600	59	3971
2026-01-24 01:15:03.82	25.19	9.69	-43.9	-45.0	19.7	0.00e+00	0	43	0	239075328	59	4057
2026-01-24 01:15:04.80	25.17	9.78	-43.6	-44.6	20.0	0.00e+00	0	43	0	242221056	59	3902
2026-01-24 01:15:05.77	25.15	9.86	-43.7	-44.7	20.0	0.00e+00	0	43	0	244318208	59	3947
2026-01-24 01:15:06.74	25.13	9.94	-43.6	-44.6	20.1	0.00e+00	0	43	0	247463936	59	3872
2026-01-24 01:15:07.71	25.11	10.03	-43.7	-44.7	20.0	0.00e+00	0	43	0	250609664	59	3946
2026-01-24 01:15:08.69	25.09	10.11	-43.5	-44.5	20.1	0.00e+00	0	43	0	253755392	59	3858
2026-01-24 01:15:09.66	25.07	10.19	-43.6	-44.6	20.0	0.00e+00	0	43	0	256901120	59	3913
2026-01-24 01:15:10.63	25.05	10.28	-43.4	-44.4	20.2	0.00e+00	0	43	0	260046848	58	4032
2026-01-24 01:15:11.59	25.03	10.36	-43.6	-44.6	20.1	0.00e+00	0	43	0	263192576	58	4125
2026-01-24 01:15:12.56	25.01	10.45	-43.5	-44.5	20.2	0.00e+00	0	43	0	266338304	58	4060
2026-01-24 01:15:13.54	24.99	10.53	-43.4	-44.3	20.3	0.00e+00	0	43	0	268435456	58	3995
2026-01-24 01:15:14.51	24.97	10.62	-43.5	-44.5	20.2	0.00e+00	0	43	0	271581184	58	4055
2026-01-24 01:15:15.48	24.95	10.70	-43.4	-44.4	20.3	0.00e+00	0	43	0	274726912	58	4015
2026-01-24 01:15:16.44	24.93	10.79	-43.3	-44.3	20.4	0.00e+00	0	43	0	277872640	58	3990
2026-01-24 01:15:17.41	24.91	10.87	-43.4	-44.4	20.3	0.00e+00	0	43	0	281018368	58	4043
2026-01-24 01:15:18.39	24.88	10.96	-43.3	-44.3	20.4	0.00e+00	0	43	0	284164096	58	3974
2026-01-24 01:15:19.36	24.86	11.05	-43.3	-44.2	20.5	0.00e+00	0	43	0	287309824	58	3951
2026-01-24 01:15:20.33	24.84	11.13	-43.2	-44.1	20.6	0.00e+00	0	43	0	290455552	58	3913
2026-01-24 01:15:21.30	24.82	11.22	-43.0	-44.0	20.7	0.00e+00	0	43	0	293601280	58	3828
2026-01-24 01:15:22.27	24.80	11.31	-43.3	-44.2	20.5	0.00e+00	0	43	0	296747008	58	3939
2026-01-24 01:15:23.23	24.77	11.40	-43.2	-44.2	20.5	0.00e+00	0	43	0	298844160	58	3917
2026-01-24 01:15:24.20	24.75	11.48	-43.2	-44.2	20.6	0.00e+00	0	43	0	301989888	58	3915
2026-01-24 01:15:25.17	24.73	11.57	-43.1	-44.1	20.7	0.00e+00	0	43	0	305135616	58	3880
2026-01-24 01:15:26.14	24.71	11.66	-43.0	-43.9	20.8	0.00e+00	0	43	0	308281344	58	3797
2026-01-24 01:15:27.11	24.68	11.75	-42.9	-43.8	20.9	0.00e+00	0	43	0	311427072	57	3981
2026-01-24 01:15:28.08	24.66	11.84	-43.0	-44.0	20.7	0.00e+00	0	43	0	314572800	57	4056
2026-01-24 01:15:29.06	24.64	11.93	-42.9	-43.8	20.9	0.00e+00	0	43	0	317718528	57	3995
2026-01-24 01:15:30.03	24.61	12.02	-43.0	-44.0	20.8	0.00e+00	0	43	0	320864256	57	4056
2026-01-24 01:15:31.00	24.59	12.11	-42.9	-43.8	20.9	0.00e+00	0	43	0	324009984	57	3963
2026-01-24 01:15:31.97	24.57	12.20	-42.8	-43.7	21.0	0.00e+00	0	43	0	327155712	57	3927
2026-01-24 01:15:32.94	24.54	12.29	-42.8	-43.7	21.0	0.00e+00	0	43	0	329252864	57	3932
2026-01-24 01:15:33.91	24.52	12.39	-42.7	-43.6	21.1	0.00e+00	0	43	0	332398592	57	3903
2026-01-24 01:15:34.88	24.49	12.48	-42.8	-43.7	21.0	0.00e+00	0	43	0	335544320	57	3925
2026-01-24 01:15:35.84	24.47	12.57	-42.8	-43.6	21.1	0.00e+00	0	43	0	338690048	57	3913
2026-01-24 01:15:36.82	24.45	12.66	-42.8	-43.8	21.0	0.00e+00	0	43	0	341835776	57	3963
2026-01-24 01:15:37.79	24.42	12.76	-42.8	-43.7	21.1	0.00e+00	0	43	0	344981504	57	3927
2026-01-24 01:15:38.77	24.40	12.85	-42.7	-43.6	21.1	0.00e+00	0	43	0	348127232	57	3895
2026-01-24 01:15:39.74	24.37	12.94	-42.7	-43.6	21.1	0.00e+00	0	43	0	351272960	57	3893
2026-01-24 01:15:40.71	24.34	13.04	-42.7	-43.6	21.1	0.00e+00	0	43	0	353370112	57	3903
2026-01-24 01:15:41.69	24.32	13.13	-42.7	-43.6	21.1	0.00e+00	0	43	0	356515840	57	3892
2026-01-24 01:15:42.66	24.29	13.23	-42.7	-43.6	21.2	0.00e+00	0	43	0	359661568	57	3869
2026-01-24 01:15:43.63	24.27	13.32	-42.8	-43.7	21.0	0.00e+00	0	43	0	362807296	57	3944
2026-01-24 01:15:44.60	24.24	13.42	-42.8	-43.7	21.1	0.00e+00	0	43	0	365953024	57	3933
2026-01-24 01:15:45.57	24.21	13.51	-42.8	-43.7	21.1	0.00e+00	0	43	0	369098752	57	3920
2026-01-24 01:15:46.55	24.19	13.61	-42.8	-43.7	21.1	0.00e+00	0	43	0	372244480	57	3917
2026-01-24 01:15:47.52	24.16	13.71	-42.8	-43.7	21.1	0.00e+00	0	43	0	375390208	57	3915
2026-01-24 01:15:48.48	24.13	13.80	-42.7	-43.6	21.2	0.00e+00	0	43	0	378535936	57	3889
2026-01-24 01:15:49.46	24.11	13.90	-42.8	-43.6	21.2	0.00e+00	0	43	0	381681664	57	3913
2026-01-24 01:15:50.43	24.08	14.00	-42.7	-43.6	21.2	0.00e+00	0	43	0	383778816	57	3873
2026-01-24 01:15:51.40	24.05	14.10	-42.7	-43.6	21.1	0.00e+00	0	43	0	386924544	57	3906
2026-01-24 01:15:52.37	24.03	14.20	-42.8	-43.7	21.1	0.00e+00	0	43	0	390070272	57	3918
2026-01-24 01:15:53.34	24.00	14.29	-42.8	-43.7	21.1	0.00e+00	0	43	0	393216000	57	3923
2026-01-24 01:15:54.31	23.97	14.39	-42.7	-43.6	21.2	0.00e+00	0	43	0	396361728	57	3886
2026-01-24 01:15:55.28	23.94	14.49	-42.9	-43.8	21.0	0.00e+00	0	43	0	399507456	57	3979
2026-01-24 01:15:56.26	23.91	14.59	-42.7	-43.6	21.2	0.00e+00	0	43	0	402653184	57	3895
2026-01-24 01:15:57.22	23.88	14.69	-42.8	-43.7	21.1	0.00e+00	0	43	0	405798912	57	3930
2026-01-24 01:15:58.19	23.85	14.79	-42.8	-43.7	21.1	0.00e+00	0	43	0	408944640	57	3935
2026-01-24 01:15:59.17	23.82	14.90	-42.9	-43.8	21.0	0.00e+00	0	43	0	412090368	57	3996
2026-01-24 01:16:00.14	23.80	15.00	-42.9	-43.8	21.1	0.00e+00	0	43	0	414187520	57	3973
2026-01-24 01:16:01.11	23.77	15.10	-42.8	-43.7	21.2	0.00e+00	0	43	0	417333248	57	3923
2026-01-24 01:16:02.09	23.74	15.20	-42.8	-43.7	21.1	0.00e+00	0	43	0	420478976	57	3953
2026-01-24 01:16:03.06	23.71	15.31	-42.7	-43.6	21.2	0.00e+00	0	43	0	423624704	57	3889
2026-01-24 01:16:04.03	23.67	15.41	-42.8	-43.7	21.1	0.00e+00	0	43	0	426770432	57	3950
2026-01-24 01:16:05.00	23.64	15.51	-42.9	-43.8	21.1	0.00e+00	0	43	0	429916160	57	3971
2026-01-24 01:16:05.97	23.61	15.62	-42.9	-43.8	21.1	0.00e+00	0	43	0	433061888	57	3963
2026-01-24 01:16:06.95	23.58	15.72	-42.8	-43.7	21.2	0.00e+00	0	43	0	436207616	57	3932
2026-01-24 01:16:07.91	23.55	15.83	-42.8	-43.7	21.2	0.00e+00	0	43	0	439353344	57	3940
2026-01-24 01:16:08.88	23.52	15.93	-42.8	-43.7	21.2	0.00e+00	0	43	0	442499072	57	3930
2026-01-24 01:16:09.86	23.49	16.04	-42.8	-43.7	21.2	0.00e+00	0	43	0	445644800	57	3930
2026-01-24 01:16:10.82	23.46	16.15	-42.8	-43.6	21.2	0.00e+00	0	44	0	447741952	57	3906
2026-01-24 01:16:11.79	23.42	16.25	-42.8	-43.7	21.2	0.00e+00	0	43	0	450887680	57	3934
2026-01-24 01:16:12.76	23.39	16.36	-42.7	-43.6	21.3	0.00e+00	0	43	0	454033408	57	3880
2026-01-24 01:16:13.73	23.36	16.47	-42.8	-43.7	21.2	0.00e+00	0	43	0	457179136	57	3914
2026-01-24 01:16:14.70	23.32	16.58	-42.8	-43.7	21.2	0.00e+00	0	43	0	460324864	57	3922
2026-01-24 01:16:15.67	23.29	16.69	-42.8	-43.7	21.3	0.00e+00	0	43	0	463470592	57	3928
2026-01-24 01:16:16.64	23.26	16.79	-42.8	-43.7	21.2	0.00e+00	0	43	0	466616320	57	3937
2026-01-24 01:16:17.61	23.22	16.90	-42.8	-43.7	21.2	0.00e+00	0	43	0	468713472	57	3929
2026-01-24 01:16:18.58	23.19	17.01	-42.8	-43.7	21.2	0.00e+00	0	43	0	471859200	57	3950
2026-01-24 01:16:19.56	23.15	17.13	-42.9	-43.8	21.2	0.00e+00	0	43	0	475004928	57	3974
2026-01-24 01:16:20.53	23.12	17.24	-42.8	-43.7	21.3	0.00e+00	0	43	0	478150656	57	3919
2026-01-24 01:16:21.50	23.08	17.35	-42.8	-43.7	21.3	0.00e+00	0	43	0	481296384	57	3937
2026-01-24 01:16:22.47	23.05	17.46	-42.8	-43.7	21.3	0.00e+00	0	43	0	484442112	57	3928
2026-01-24 01:16:23.44	23.01	17.57	-42.8	-43.7	21.2	0.00e+00	0	44	0	487587840	57	3949
2026-01-24 01:16:24.42	22.98	17.69	-42.9	-43.8	21.2	0.00e+00	0	43	0	490733568	57	3966
2026-01-24 01:16:25.39	22.94	17.80	-42.9	-43.8	21.1	0.00e+00	0	43	0	493879296	57	3968
2026-01-24 01:16:26.36	22.90	17.92	-42.8	-43.7	21.3	0.00e+00	0	43	0	497025024	57	3927
2026-01-24 01:16:27.33	22.87	18.03	-42.9	-43.7	21.2	0.00e+00	0	44	0	499122176	57	3958
2026-01-24 01:16:28.30	22.83	18.15	-42.8	-43.7	21.2	0.00e+00	0	43	0	502267904	57	3938
2026-01-24 01:16:29.27	22.79	18.26	-42.8	-43.6	21.3	0.00e+00	0	43	0	505413632	57	3906
2026-01-24 01:16:30.24	22.75	18.38	-42.7	-43.5	21.4	0.00e+00	0	43	0	508559360	57	3859
2026-01-24 01:16:31.21	22.72	18.50	-42.8	-43.7	21.3	0.00e+00	0	43	0	511705088	57	3918
2026-01-24 01:16:32.19	22.68	18.61	-42.8	-43.6	21.3	0.00e+00	0	43	0	514850816	57	3911
2026-01-24 01:16:33.16	22.64	18.73	-42.8	-43.7	21.3	0.00e+00	0	43	0	517996544	57	3926
2026-01-24 01:16:34.13	22.60	18.85	-42.8	-43.7	21.3	0.00e+00	0	43	0	521142272	57	3919
2026-01-24 01:16:35.11	22.56	18.97	-42.8	-43.7	21.3	0.00e+00	0	43	0	524288000	57	3917
2026-01-24 01:16:36.08	22.52	19.09	-42.9	-43.8	21.2	0.00e+00	0	43	0	527433728	57	3985
2026-01-24 01:16:37.05	22.48	19.21	-42.9	-43.7	21.2	0.00e+00	0	43	0	530579456	57	3958
2026-01-24 01:16:38.02	22.44	19.33	-42.7	-43.6	21.4	0.00e+00	0	43	0	532676608	57	3873
2026-01-24 01:16:38.99	22.40	19.45	-42.6	-43.5	21.5	0.00e+00	0	43	0	535822336	57	3828
2026-01-24 01:16:39.95	22.36	19.57	-42.6	-43.5	21.4	0.00e+00	0	43	0	538968064	57	3851
2026-01-24 01:16:40.93	22.31	19.70	-42.7	-43.6	21.4	0.00e+00	0	43	0	542113792	57	3883
2026-01-24 01:16:41.90	22.27	19.82	-42.6	-43.5	21.4	0.00e+00	0	44	0	545259520	57	3836
2026-01-24 01:16:42.86	22.23	19.94	-42.7	-43.6	21.3	0.00e+00	0	43	0	548405248	57	3887
2026-01-24 01:16:43.84	22.19	20.07	-42.6	-43.5	21.4	0.00e+00	0	43	0	551550976	57	3849
2026-01-24 01:16:44.81	22.14	20.19	-42.5	-43.4	21.5	0.00e+00	0	43	0	554696704	57	3789
2026-01-24 01:16:45.78	22.10	20.32	-42.5	-43.4	21.6	0.00e+00	0	43	0	557842432	57	3781
2026-01-24 01:16:46.75	22.06	20.44	-42.5	-43.3	21.6	0.00e+00	0	43	0	559939584	56	4000
2026-01-24 01:16:47.72	22.01	20.57	-42.4	-43.3	21.6	0.00e+00	0	43	0	563085312	56	3975
2026-01-24 01:16:48.69	21.97	20.70	-42.6	-43.5	21.5	0.00e+00	0	43	0	566231040	56	4064
2026-01-24 01:16:49.67	21.92	20.83	-42.6	-43.5	21.4	0.00e+00	0	43	0	569376768	56	4084
2026-01-24 01:16:50.63	21.88	20.95	-42.3	-43.2	21.7	0.00e+00	0	43	0	572522496	56	3930
2026-01-24 01:16:51.60	21.83	21.08	-42.3	-43.1	21.8	0.00e+00	0	43	0	575668224	56	3910
2026-01-24 01:16:52.57	21.79	21.21	-42.3	-43.1	21.8	0.00e+00	0	44	0	578813952	56	3887
2026-01-24 01:16:53.54	21.74	21.34	-42.2	-43.1	21.8	0.00e+00	0	43	0	580911104	56	3870
2026-01-24 01:16:54.51	21.69	21.48	-42.1	-42.9	22.0	0.00e+00	0	43	0	584056832	56	3808
2026-01-24 01:16:55.49	21.64	21.61	-42.2	-43.0	21.9	0.00e+00	0	43	0	587202560	56	3845
2026-01-24 01:16:56.46	21.60	21.74	-42.0	-42.9	22.0	0.00e+00	0	43	0	590348288	56	3785
2026-01-24 01:16:57.43	21.55	21.87	-41.9	-42.8	22.0	0.00e+00	0	43	0	593494016	55	3964
2026-01-24 01:16:58.40	21.50	22.01	-41.7	-42.6	22.2	0.00e+00	0	43	0	596639744	55	3873
2026-01-24 01:16:59.37	21.45	22.14	-41.7	-42.5	22.3	0.00e+00	0	43	0	599785472	55	3862
2026-01-24 01:17:00.34	21.40	22.28	-41.6	-42.4	22.4	0.00e+00	0	43	0	602931200	55	3806
2026-01-24 01:17:01.31	21.35	22.41	-41.0	-41.9	22.5	0.00e+00	0	43	0	606076928	54	3801
2026-01-24 01:17:02.28	21.30	22.55	-41.5	-42.3	22.5	0.00e+00	0	43	0	609222656	54	3966
2026-01-24 01:17:03.25	21.25	22.69	-41.5	-42.3	22.5	0.00e+00	0	43	0	612368384	54	3963
2026-01-24 01:17:04.22	21.20	22.83	-41.4	-42.2	22.6	0.00e+00	0	43	0	614465536	54	3932
2026-01-24 01:17:05.20	21.14	22.97	-41.3	-42.0	22.7	0.00e+00	0	43	0	617611264	54	3863
2026-01-24 01:17:06.17	21.09	23.11	-41.2	-41.9	22.8	0.00e+00	0	43	0	620756992	54	3810
2026-01-24 01:17:07.14	21.04	23.25	-41.2	-41.9	22.8	0.00e+00	0	43	0	623902720	54	3824
2026-01-24 01:17:08.11	20.98	23.39	-41.1	-41.9	22.8	0.00e+00	0	43	0	627048448	54	3798
2026-01-24 01:17:09.08	20.93	23.53	-41.1	-41.8	22.9	0.00e+00	0	43	0	630194176	54	3773
2026-01-24 01:17:10.05	20.87	23.67	-41.0	-41.8	22.9	0.00e+00	0	43	0	633339904	54	3749
2026-01-24 01:17:11.03	20.82	23.82	-41.1	-41.8	22.9	0.00e+00	0	43	0	636485632	54	3780
2026-01-24 01:17:12.00	20.76	23.96	-41.1	-41.8	22.9	0.00e+00	0	44	0	639631360	54	3762
2026-01-24 01:17:12.97	20.71	24.10	-41.0	-41.8	22.9	0.00e+00	0	43	0	642777088	54	3760
2026-01-24 01:17:13.94	20.65	24.25	-41.1	-41.9	22.9	0.00e+00	0	43	0	644874240	54	3790
2026-01-24 01:17:14.91	20.59	24.40	-41.1	-41.9	22.8	0.00e+00	0	43	0	648019968	54	3805
2026-01-24 01:17:15.87	20.53	24.54	-41.2	-42.0	22.8	0.00e+00	0	43	0	651165696	54	3850
2026-01-24 01:17:16.84	20.47	24.69	-41.2	-41.9	22.8	0.00e+00	0	43	0	654311424	54	3824
2026-01-24 01:17:17.82	20.41	24.84	-41.3	-42.1	22.7	0.00e+00	0	43	0	657457152	54	3881
2026-01-24 01:17:18.79	20.35	24.99	-41.3	-42.1	22.7	0.00e+00	0	43	0	660602880	54	3898
2026-01-24 01:17:19.77	20.29	25.14	-41.4	-42.1	22.7	0.00e+00	0	43	0	663748608	54	3908
2026-01-24 01:17:20.74	20.23	25.29	-41.5	-42.3	22.5	0.00e+00	0	43	0	666894336	54	3988
2026-01-24 01:17:21.71	20.17	25.45	-41.7	-42.4	22.5	0.00e+00	0	44	0	670040064	54	4051
2026-01-24 01:17:22.69	20.11	25.60	-41.7	-42.5	22.4	0.00e+00	0	43	0	672137216	54	4080
2026-01-24 01:17:23.66	20.04	25.75	-41.8	-42.6	22.3	0.00e+00	0	43	0	675282944	54	4132
2026-01-24 01:17:24.63	19.98	25.91	-41.9	-42.7	22.2	0.00e+00	0	43	0	678428672	54	4175
2026-01-24 01:17:25.61	19.91	26.06	-42.0	-42.8	22.1	0.00e+00	0	43	0	681574400	54	4224
2026-01-24 01:17:26.58	19.85	26.22	-42.1	-42.9	22.0	0.00e+00	0	44	0	684720128	54	4289
2026-01-24 01:17:27.55	19.78	26.38	-42.2	-43.1	21.9	0.00e+00	0	43	0	687865856	55	4101
2026-01-24 01:17:28.52	19.72	26.54	-42.2	-43.0	22.0	0.00e+00	0	43	0	691011584	55	4061
2026-01-24 01:17:29.49	19.65	26.69	-42.3	-43.2	21.9	0.00e+00	0	43	0	694157312	55	4147
2026-01-24 01:17:30.46	19.58	26.85	-42.4	-43.2	21.8	0.00e+00	0	44	0	697303040	55	4166
2026-01-24 01:17:31.43	19.51	27.02	-42.4	-43.3	21.7	0.00e+00	0	43	0	699400192	55	4210
2026-01-24 01:17:32.40	19.44	27.18	-42.5	-43.3	21.7	0.00e+00	0	44	0	702545920	55	4217
2026-01-24 01:17:33.38	19.37	27.34	-42.6	-43.5	21.6	0.00e+00	0	44	0	705691648	55	4301
2026-01-24 01:17:34.36	19.30	27.51	-42.6	-43.4	21.7	0.00e+00	0	43	0	708837376	56	4051
2026-01-24 01:17:35.34	19.23	27.67	-42.7	-43.5	21.6	0.00e+00	0	43	0	711983104	56	4079
2026-01-24 01:17:36.32	19.16	27.84	-42.8	-43.6	21.6	0.00e+00	0	44	0	715128832	56	4119
2026-01-24 01:17:37.30	19.08	28.01	-42.7	-43.5	21.6	0.00e+00	0	44	0	718274560	56	4079
2026-01-24 01:17:38.27	19.01	28.17	-42.7	-43.6	21.5	0.00e+00	0	43	0	721420288	56	4115
2026-01-24 01:17:39.25	18.93	28.34	-42.6	-43.4	21.6	0.00e+00	0	43	0	724566016	56	4024
2026-01-24 01:17:40.23	18.86	28.52	-42.7	-43.5	21.6	0.00e+00	0	43	0	727711744	56	4095
2026-01-24 01:17:41.21	18.78	28.69	-42.7	-43.5	21.6	0.00e+00	0	43	0	730857472	56	4079
2026-01-24 01:17:42.19	18.70	28.86	-42.8	-43.7	21.5	0.00e+00	0	43	0	734003200	56	4151
2026-01-24 01:17:43.17	18.62	29.03	-42.8	-43.6	21.5	0.00e+00	0	44	0	737148928	56	4134
2026-01-24 01:17:44.16	18.54	29.21	-42.7	-43.6	21.6	0.00e+00	0	43	0	740294656	56	4121
2026-01-24 01:17:45.14	18.46	29.39	-42.9	-43.7	21.4	0.00e+00	0	43	0	742391808	56	4190
2026-01-24 01:17:46.12	18.38	29.56	-42.8	-43.6	21.5	0.00e+00	0	43	0	745537536	56	4125
2026-01-24 01:17:47.10	18.30	29.74	-42.8	-43.7	21.5	0.00e+00	0	44	0	748683264	56	4148
2026-01-24 01:17:48.09	18.21	29.92	-42.8	-43.7	21.4	0.00e+00	0	44	0	751828992	56	4169
2026-01-24 01:17:49.07	18.13	30.10	-42.8	-43.6	21.5	0.00e+00	0	43	0	754974720	56	4137
2026-01-24 01:17:50.05	18.04	30.28	-42.7	-43.6	21.6	0.00e+00	0	44	0	758120448	56	4109
2026-01-24 01:17:51.03	17.95	30.47	-42.8	-43.7	21.5	0.00e+00	0	43	0	761266176	56	4154
2026-01-24 01:17:52.04	17.86	30.66	-42.7	-43.6	21.6	0.00e+00	0	43	0	764411904	56	4123
2026-01-24 01:17:53.05	17.77	30.85	-42.6	-43.5	21.7	0.00e+00	0	44	0	767557632	56	4061
2026-01-24 01:17:54.06	17.68	31.04	-42.6	-43.5	21.7	0.00e+00	0	43	0	770703360	56	4069
2026-01-24 01:17:55.07	17.58	31.23	-42.6	-43.5	21.7	0.00e+00	0	43	0	773849088	56	4057
2026-01-24 01:17:56.07	17.49	31.42	-42.6	-43.5	21.7	0.00e+00	0	43	0	776994816	56	4053
2026-01-24 01:17:57.08	17.39	31.62	-42.7	-43.5	21.6	0.00e+00	0	43	0	780140544	56	4080
2026-01-24 01:17:58.09	17.30	31.81	-42.8	-43.6	21.5	0.00e+00	0	43	0	783286272	56	4140
2026-01-24 01:17:59.10	17.20	32.01	-42.8	-43.6	21.5	0.00e+00	0	43	0	786432000	56	4129
2026-01-24 01:18:00.11	17.10	32.21	-42.9	-43.8	21.4	0.00e+00	0	44	0	789577728	56	4219
2026-01-24 01:18:01.12	17.00	32.41	-43.0	-43.9	21.3	0.00e+00	0	43	0	792723456	56	4257
2026-01-24 01:18:02.12	16.90	32.61	-43.0	-43.9	21.3	0.00e+00	0	43	0	795869184	56	4247
2026-01-24 01:18:03.13	16.79	32.81	-43.1	-44.0	21.2	0.00e+00	0	43	0	799014912	56	4318
2026-01-24 01:18:04.14	16.69	33.01	-43.2	-44.1	21.2	0.00e+00	0	44	0	802160640	56	4345
2026-01-24 01:18:05.15	16.58	33.22	-43.2	-44.1	21.2	0.00e+00	0	44	0	805306368	57	4123
2026-01-24 01:18:06.15	16.47	33.42	-43.2	-44.1	21.1	0.00e+00	0	44	0	808452096	57	4139
2026-01-24 01:18:07.16	16.36	33.63	-43.3	-44.2	21.1	0.00e+00	0	43	0	811597824	57	4167
2026-01-24 01:18:08.17	16.25	33.84	-43.3	-44.1	21.2	0.00e+00	0	43	0	814743552	57	4142
2026-01-24 01:18:09.17	16.14	34.04	-43.4	-44.3	21.0	0.00e+00	0	43	0	817889280	57	4217
2026-01-24 01:18:10.18	16.03	34.26	-43.4	-44.3	21.0	0.00e+00	0	44	0	821035008	57	4228
2026-01-24 01:18:11.19	15.91	34.47	-43.5	-44.5	20.8	0.00e+00	0	43	0	824180736	57	4295
2026-01-24 01:18:12.20	15.80	34.68	-43.7	-44.6	20.7	0.00e+00	0	43	0	827326464	57	4360
2026-01-24 01:18:13.21	15.68	34.90	-43.7	-44.7	20.6	0.00e+00	0	44	0	830472192	58	4159
2026-01-24 01:18:14.22	15.56	35.11	-43.8	-44.8	20.6	0.00e+00	0	44	0	833617920	58	4207
2026-01-24 01:18:15.23	15.44	35.33	-44.0	-45.0	20.5	0.00e+00	0	44	0	836763648	58	4301
2026-01-24 01:18:16.23	15.31	35.55	-44.0	-45.0	20.4	0.00e+00	0	43	0	839909376	58	4321
2026-01-24 01:18:17.24	15.19	35.77	-44.3	-45.3	20.1	0.00e+00	0	44	0	843055104	59	4232
2026-01-24 01:18:18.25	15.06	35.99	-44.5	-45.5	20.0	0.00e+00	0	44	0	846200832	59	4309
2026-01-24 01:18:19.26	14.93	36.21	-44.6	-45.7	19.8	0.00e+00	0	43	0	849346560	59	4402
2026-01-24 01:18:20.26	14.80	36.44	-44.6	-45.7	19.8	0.00e+00	0	44	0	852492288	59	4398
2026-01-24 01:18:21.27	14.67	36.66	-44.7	-45.7	19.8	0.00e+00	0	44	0	855638016	59	4414
2026-01-24 01:18:22.28	14.54	36.89	-44.3	-45.3	19.9	0.00e+00	0	44	0	858783744	60	3966
2026-01-24 01:18:23.29	14.40	37.12	-44.3	-45.3	19.9	0.00e+00	0	43	0	861929472	60	3966
2026-01-24 01:18:24.30	14.26	37.35	-44.3	-45.3	19.9	0.00e+00	0	43	0	865075200	60	3993
2026-01-24 01:18:25.31	14.12	37.58	-44.1	-45.1	20.1	0.00e+00	0	44	0	868220928	60	3904
2026-01-24 01:18:26.32	13.98	37.81	-44.1	-45.1	20.2	0.00e+00	0	43	0	871366656	60	3872
2026-01-24 01:18:27.33	13.83	38.05	-44.0	-45.0	20.2	0.00e+00	0	43	0	874512384	60	3850
2026-01-24 01:18:28.34	13.69	38.28	-44.4	-45.4	20.1	0.00e+00	0	44	0	877658112	59	4278
2026-01-24 01:18:29.34	13.54	38.52	-44.3	-45.3	20.2	0.00e+00	0	43	0	880803840	59	4220
2026-01-24 01:18:30.35	13.39	38.76	-44.3	-45.3	20.2	0.00e+00	0	43	0	883949568	59	4225
2026-01-24 01:18:31.36	13.24	39.00	-44.4	-45.4	20.2	0.00e+00	0	43	0	887095296	59	4255
2026-01-24 01:18:32.37	13.08	39.24	-44.4	-45.4	20.1	0.00e+00	0	44	0	890241024	59	4269
2026-01-24 01:18:33.38	12.92	39.48	-44.3	-45.3	20.2	0.00e+00	0	43	0	893386752	59	4202
2026-01-24 01:18:34.39	12.76	39.73	-44.4	-45.4	20.1	0.00e+00	0	43	0	896532480	59	4271
2026-01-24 01:18:35.40	12.60	39.97	-44.6	-45.6	20.0	0.00e+00	0	43	0	899678208	59	4367
2026-01-24 01:18:36.41	12.43	40.22	-44.6	-45.6	20.0	0.00e+00	0	44	0	902823936	59	4370
2026-01-24 01:18:37.42	12.26	40.47	-44.5	-45.5	20.1	0.00e+00	0	43	0	905969664	59	4331
2026-01-24 01:18:38.42	12.10	40.71	-44.4	-45.4	20.2	0.00e+00	0	43	0	909115392	59	4282
2026-01-24 01:18:39.43	11.92	40.97	-44.4	-45.4	20.1	0.00e+00	0	44	0	912261120	59	4284
2026-01-24 01:18:40.44	11.75	41.22	-44.1	-45.1	20.5	0.00e+00	0	43	0	915406848	59	4108
2026-01-24 01:18:41.45	11.57	41.47	-43.7	-44.6	20.9	0.00e+00	0	43	0	918552576	59	3877
2026-01-24 01:18:42.46	11.38	41.73	-43.8	-44.7	20.9	0.00e+00	0	43	0	921698304	59	3917
2026-01-24 01:18:43.46	11.20	41.99	-43.9	-44.8	20.8	0.00e+00	0	43	0	924844032	59	3991
2026-01-24 01:18:44.47	11.01	42.24	-44.0	-45.0	20.6	0.00e+00	0	43	0	927989760	59	4055
2026-01-24 01:18:45.48	10.82	42.51	-44.2	-45.2	20.4	0.00e+00	0	43	0	931135488	59	4150
2026-01-24 01:18:46.48	10.63	42.76	-44.3	-45.3	20.2	0.00e+00	0	44	0	934281216	59	4205
2026-01-24 01:18:47.49	10.43	43.03	-44.5	-45.5	20.0	0.00e+00	0	43	0	937426944	59	4336
2026-01-24 01:18:48.50	10.23	43.29	-44.7	-45.7	19.9	0.00e+00	0	43	0	940572672	59	4439
2026-01-24 01:18:49.51	10.03	43.56	-44.5	-45.6	19.8	0.00e+00	0	44	0	943718400	60	4101
2026-01-24 01:18:50.52	9.82	43.83	-44.8	-45.8	19.5	0.00e+00	0	43	0	946864128	60	4238
2026-01-24 01:18:51.52	9.61	44.09	-44.9	-46.0	19.4	0.00e+00	0	43	0	950009856	60	4318
2026-01-24 01:18:52.53	9.39	44.36	-45.0	-46.0	19.4	0.00e+00	0	43	0	953155584	60	4333
2026-01-24 01:18:53.54	9.17	44.64	-45.0	-46.1	19.3	0.00e+00	0	43	0	956301312	60	4356
2026-01-24 01:18:54.55	8.95	44.91	-45.0	-46.1	19.4	0.00e+00	0	43	0	959447040	60	4343
2026-01-24 01:18:55.56	8.72	45.18	-44.7	-45.8	19.6	0.00e+00	0	43	0	962592768	60	4200
2026-01-24 01:18:56.56	8.50	45.46	-44.8	-45.8	19.6	0.00e+00	0	43	0	965738496	60	4203
2026-01-24 01:18:57.57	8.26	45.74	-44.8	-45.9	19.5	0.00e+00	0	44	0	968884224	60	4246
2026-01-24 01:18:58.58	8.02	46.01	-44.9	-46.0	19.4	0.00e+00	0	43	0	972029952	60	4322
2026-01-24 01:18:59.59	7.78	46.29	-44.8	-45.9	19.6	0.00e+00	0	44	0	975175680	60	4250
2026-01-24 01:19:00.59	7.53	46.57	-44.9	-45.9	19.5	0.00e+00	0	44	0	978321408	60	4272
2026-01-24 01:19:01.60	7.28	46.86	-44.6	-45.6	19.7	0.00e+00	0	43	0	981467136	60	4142
2026-01-24 01:19:02.61	7.02	47.14	-44.6	-45.6	19.7	0.00e+00	0	43	0	984612864	60	4141
2026-01-24 01:19:03.62	6.76	47.43	-44.6	-45.6	19.9	0.00e+00	0	43	0	987758592	60	4115
2026-01-24 01:19:04.63	6.50	47.71	-44.5	-45.5	19.9	0.00e+00	0	43	0	990904320	60	4060
2026-01-24 01:19:05.64	6.22	48.00	-44.4	-45.4	20.0	0.00e+00	0	44	0	994050048	60	4011
2026-01-24 01:19:06.64	5.95	48.29	-44.0	-45.0	20.4	0.00e+00	0	44	0	997195776	60	3846
2026-01-24 01:19:07.65	5.67	48.58	-44.4	-45.3	20.4	0.00e+00	0	43	0	1000341504	59	4238
2026-01-24 01:19:08.66	5.38	48.87	-44.5	-45.5	20.2	0.00e+00	0	44	0	1003487232	59	4308
2026-01-24 01:19:09.67	5.09	49.16	-44.2	-45.1	20.5	0.00e+00	0	43	0	1006632960	59	4121
2026-01-24 01:19:10.68	4.79	49.45	-44.3	-45.2	20.4	0.00e+00	0	44	0	1009778688	59	4184
2026-01-24 01:19:11.69	4.48	49.75	-44.6	-45.5	20.2	0.00e+00	0	44	0	1012924416	59	4332
2026-01-24 01:19:12.69	4.17	50.04	-44.7	-45.7	20.0	0.00e+00	0	43	0	1016070144	59	4419
2026-01-24 01:19:13.70	3.86	50.34	-44.2	-45.1	20.2	0.00e+00	0	44	0	1019215872	60	3908
2026-01-24 01:19:14.71	3.53	50.64	-44.2	-45.2	20.4	0.00e+00	0	44	0	1022361600	59	4162
2026-01-24 01:19:15.72	3.20	50.94	-44.3	-45.3	20.4	0.00e+00	0	43	0	1025507328	59	4196
2026-01-24 01:19:16.73	2.87	51.23	-44.4	-45.3	20.5	0.00e+00	0	44	0	1028653056	59	4224
2026-01-24 01:19:17.74	2.52	51.54	-44.2	-45.1	20.6	0.00e+00	0	43	0	1031798784	59	4129
2026-01-24 01:19:18.74	2.18	51.83	-44.2	-45.1	20.5	0.00e+00	0	44	0	1034944512	59	4141
2026-01-24 01:19:19.75	1.82	52.14	-44.3	-45.3	20.2	0.00e+00	0	43	0	1038090240	59	4196
2026-01-24 01:19:20.76	1.45	52.44	-44.4	-45.4	20.2	0.00e+00	0	43	0	1041235968	59	4268
2026-01-24 01:19:21.77	1.08	52.74	-44.4	-45.4	20.3	0.00e+00	0	44	0	1044381696	59	4268
2026-01-24 01:19:22.77	0.70	53.04	-44.4	-45.4	20.3	0.00e+00	0	43	0	1047527424	59	4282
2026-01-24 01:19:23.78	0.31	53.35	-44.2	-45.2	20.4	0.00e+00	0	43	0	1050673152	59	4169
2026-01-24 01:19:24.79	359.92	53.65	-43.9	-44.8	20.9	0.00e+00	0	43	0	1053818880	59	3968
2026-01-24 01:19:25.79	359.51	53.95	-43.7	-44.6	21.0	0.00e+00	0	43	0	1056964608	59	3906
2026-01-24 01:19:26.80	359.10	54.26	-43.8	-44.8	20.8	0.00e+00	0	43	0	1060110336	59	3970
2026-01-24 01:19:27.81	358.68	54.56	-43.9	-44.9	20.8	0.00e+00	0	43	0	1063256064	59	4035
2026-01-24 01:19:28.82	358.24	54.87	-43.5	-44.4	21.2	0.00e+00	0	43	0	1066401792	58	4009
2026-01-24 01:19:29.83	357.80	55.18	-43.4	-44.2	21.3	0.00e+00	0	44	0	1069547520	58	3958
2026-01-24 01:19:30.83	357.35	55.48	-43.1	-43.9	21.6	0.00e+00	0	43	0	1072693248	58	3800
2026-01-24 01:19:31.84	356.89	55.79	-42.7	-43.5	22.1	0.00e+00	0	43	0	1075838976	57	3862
2026-01-24 01:19:32.85	356.42	56.09	-42.6	-43.4	22.1	0.00e+00	0	43	0	1080033280	57	3817
2026-01-24 01:19:33.86	355.94	56.40	-43.0	-43.9	21.7	0.00e+00	0	44	0	1082130432	57	4027
2026-01-24 01:19:34.87	355.44	56.70	-43.1	-44.0	21.7	0.00e+00	0	43	0	1085276160	57	4075
2026-01-24 01:19:35.88	354.94	57.01	-43.0	-43.8	21.7	0.00e+00	0	43	0	1088421888	57	3988
2026-01-24 01:19:36.88	354.43	57.31	-42.9	-43.7	21.7	0.00e+00	0	44	0	1091567616	57	3939
2026-01-24 01:19:37.89	353.90	57.61	-42.1	-42.8	22.3	0.00e+00	0	43	0	1094713344	56	3772
2026-01-24 01:19:38.90	353.36	57.92	-41.8	-42.5	22.3	0.00e+00	0	43	0	1097859072	55	3858
2026-01-24 01:19:39.91	352.81	58.22	-42.1	-42.9	22.2	0.00e+00	0	43	0	1101004800	55	4006
2026-01-24 01:19:40.91	352.25	58.52	-41.9	-42.7	22.5	0.00e+00	0	43	0	1104150528	55	3923
2026-01-24 01:19:41.92	351.67	58.81	-41.8	-42.6	22.4	0.00e+00	0	43	0	1107296256	55	3875
2026-01-24 01:19:42.93	351.08	59.11	-41.9	-42.7	22.1	0.00e+00	0	43	0	1110441984	55	3947
2026-01-24 01:19:43.94	350.48	59.41	-41.9	-42.7	22.4	0.00e+00	0	43	0	1113587712	55	3943
2026-01-24 01:19:44.95	349.86	59.71	-41.6	-42.3	22.8	0.00e+00	0	43	0	1117782016	55	3771
2026-01-24 01:19:45.95	349.23	60.00	-41.5	-42.3	22.8	0.00e+00	0	44	0	1120927744	55	3745
2026-01-24 01:19:46.96	348.58	60.29	-41.5	-42.3	22.8	0.00e+00	0	43	0	1124073472	54	3980
2026-01-24 01:19:47.97	347.92	60.58	-41.5	-42.3	22.8	0.00e+00	0	43	0	1127219200	54	3974
2026-01-24 01:19:48.98	347.24	60.87	-41.7	-42.5	22.6	0.00e+00	0	43	0	1130364928	54	4085
2026-01-24 01:19:49.99	346.55	61.15	-41.6	-42.3	22.8	0.00e+00	0	43	0	1132462080	54	3997
2026-01-24 01:19:50.99	345.85	61.43	-41.7	-42.4	22.8	0.00e+00	0	43	0	1135607808	54	4034
2026-01-24 01:19:52.00	345.12	61.71	-41.6	-42.3	22.9	0.00e+00	0	43	0	1138753536	54	3991
2026-01-24 01:19:53.01	344.38	61.99	-41.7	-42.4	22.9	0.00e+00	0	43	0	1141899264	54	4027
2026-01-24 01:19:54.02	343.62	62.26	-41.4	-42.2	23.1	0.00e+00	0	43	0	1145044992	54	3937
2026-01-24 01:19:55.03	342.84	62.53	-41.2	-42.0	23.2	0.00e+00	0	44	0	1148190720	54	3829
2026-01-24 01:19:56.04	342.05	62.80	-41.4	-42.2	23.0	0.00e+00	0	43	0	1151336448	54	3927
2026-01-24 01:19:57.05	341.24	63.06	-41.8	-42.6	22.7	0.00e+00	0	43	0	1155530752	54	4123
2026-01-24 01:19:58.06	340.41	63.32	-41.8	-42.5	22.8	0.00e+00	0	43	0	1158676480	54	4087
2026-01-24 01:19:59.06	339.57	63.58	-41.8	-42.6	22.5	0.00e+00	0	44	0	1161822208	54	4113
2026-01-24 01:20:00.07	338.70	63.83	-41.8	-42.5	22.6	0.00e+00	0	43	0	1164967936	54	4090
2026-01-24 01:20:01.08	337.81	64.07	-41.5	-42.2	22.7	0.00e+00	0	43	0	1168113664	54	3945
2026-01-24 01:20:02.09	336.91	64.32	-41.8	-42.6	22.6	0.00e+00	0	43	0	1171259392	54	4108
2026-01-24 01:20:03.10	335.99	64.55	-41.4	-42.2	23.0	0.00e+00	0	43	0	1174405120	54	3915
2026-01-24 01:20:04.11	335.04	64.78	-41.5	-42.2	22.9	0.00e+00	0	43	0	1177550848	54	3938
2026-01-24 01:20:05.11	334.09	65.01	-41.6	-42.3	22.9	0.00e+00	0	43	0	1179648000	54	3986
2026-01-24 01:20:06.12	333.11	65.23	-41.4	-42.1	22.9	0.00e+00	0	44	0	1182793728	54	3896
2026-01-24 01:20:07.13	332.11	65.44	-41.0	-41.7	23.3	0.00e+00	0	44	0	1185939456	54	3717
2026-01-24 01:20:08.14	331.09	65.65	-40.6	-41.3	23.6	0.00e+00	0	43	0	1189085184	53	3778
2026-01-24 01:20:09.15	330.05	65.85	-41.0	-41.7	23.4	0.00e+00	0	43	0	1193279488	53	3954
2026-01-24 01:20:10.16	328.99	66.04	-41.3	-42.1	23.1	0.00e+00	0	43	0	1196425216	53	4107
2026-01-24 01:20:11.17	327.91	66.23	-41.5	-42.3	22.9	0.00e+00	0	43	0	1199570944	53	4217
2026-01-24 01:20:12.18	326.82	66.41	-41.5	-42.2	23.0	0.00e+00	0	43	0	1202716672	53	4193
2026-01-24 01:20:13.18	325.71	66.58	-41.5	-42.3	23.0	0.00e+00	0	43	0	1205862400	53	4216
2026-01-24 01:20:14.19	324.58	66.74	-41.7	-42.4	22.8	0.00e+00	0	43	0	1209008128	53	4272
2026-01-24 01:20:15.20	323.43	66.90	-41.7	-42.5	22.8	0.00e+00	0	43	0	1212153856	54	4076
2026-01-24 01:20:16.21	322.27	67.04	-41.8	-42.5	22.8	0.00e+00	0	44	0	1215299584	54	4080
2026-01-24 01:20:17.22	321.09	67.18	-41.7	-42.5	22.8	0.00e+00	0	43	0	1218445312	54	4071
2026-01-24 01:20:18.23	319.89	67.31	-41.6	-42.4	22.8	0.00e+00	0	43	0	1221591040	54	4032
2026-01-24 01:20:19.24	318.68	67.43	-41.5	-42.3	22.8	0.00e+00	0	43	0	1224736768	54	3970
2026-01-24 01:20:20.24	317.47	67.54	-41.7	-42.4	22.9	0.00e+00	0	43	0	1226833920	54	4035
2026-01-24 01:20:21.25	316.23	67.65	-41.0	-41.7	23.4	0.00e+00	0	43	0	1231028224	54	3730
2026-01-24 01:20:22.26	314.98	67.74	-41.3	-42.1	23.2	0.00e+00	0	43	0	1234173952	54	3876
2026-01-24 01:20:23.27	313.72	67.82	-41.4	-42.2	22.9	0.00e+00	0	43	0	1237319680	54	3915
2026-01-24 01:20:24.27	312.46	67.89	-41.0	-41.7	23.4	0.00e+00	0	43	0	1240465408	54	3733
2026-01-24 01:20:25.28	311.18	67.96	-41.1	-41.8	23.4	0.00e+00	0	43	0	1243611136	54	3778
2026-01-24 01:20:26.29	309.90	68.01	-41.1	-41.8	23.4	0.00e+00	0	43	0	1246756864	54	3762
2026-01-24 01:20:27.30	308.61	68.05	-41.4	-42.2	23.2	0.00e+00	0	43	0	1249902592	54	3918
2026-01-24 01:20:28.30	307.32	68.08	-41.5	-42.2	23.0	0.00e+00	0	43	0	1253048320	54	3928
2026-01-24 01:20:29.31	306.02	68.11	-41.5	-42.2	23.1	0.00e+00	0	43	0	1256194048	54	3953
2026-01-24 01:20:30.32	304.72	68.12	-41.6	-42.3	22.6	0.00e+00	0	43	0	1259339776	54	4004
2026-01-24 01:20:31.33	303.42	68.12	-41.4	-42.1	22.8	0.00e+00	0	43	0	1262485504	54	3907
2026-01-24 01:20:32.34	302.11	68.11	-41.4	-42.1	23.0	0.00e+00	0	43	0	1265631232	54	3904
2026-01-24 01:20:33.34	300.83	68.09	-41.8	-42.5	22.7	0.00e+00	0	43	0	1268776960	54	4095
2026-01-24 01:20:34.35	299.53	68.06	-42.0	-42.8	22.4	0.00e+00	0	43	0	1271922688	54	4217
2026-01-24 01:20:35.36	298.24	68.02	-41.9	-42.7	22.7	0.00e+00	0	43	0	1275068416	54	4154
2026-01-24 01:20:36.37	296.95	67.97	-41.7	-42.5	22.9	0.00e+00	0	43	0	1278214144	54	4062
2026-01-24 01:20:37.38	295.67	67.90	-41.5	-42.2	23.1	0.00e+00	0	43	0	1281359872	54	3942
2026-01-24 01:20:38.39	294.40	67.83	-41.4	-42.1	23.2	0.00e+00	0	43	0	1284505600	54	3892
2026-01-24 01:20:39.40	293.13	67.75	-41.2	-42.0	23.3	0.00e+00	0	43	0	1287651328	54	3825
2026-01-24 01:20:40.40	291.90	67.66	-41.5	-42.3	23.0	0.00e+00	0	43	0	1290797056	54	3980
2026-01-24 01:20:41.41	290.66	67.56	-41.8	-42.6	22.8	0.00e+00	0	43	0	1293942784	54	4105
2026-01-24 01:20:42.42	289.43	67.45	-42.1	-42.9	22.5	0.00e+00	0	43	0	1297088512	54	4274
2026-01-24 01:20:43.43	288.21	67.33	-41.9	-42.7	22.7	0.00e+00	0	43	0	1300234240	54	4165
2026-01-24 01:20:44.44	287.01	67.20	-41.6	-42.4	23.0	0.00e+00	0	43	0	1303379968	54	4007
2026-01-24 01:20:45.45	285.83	67.07	-41.9	-42.7	22.7	0.00e+00	0	43	0	1306525696	54	4160
2026-01-24 01:20:46.45	284.67	66.92	-42.2	-43.1	22.4	0.00e+00	0	43	0	1309671424	55	4104
2026-01-24 01:20:47.46	283.52	66.77	-42.2	-43.0	22.4	0.00e+00	0	43	0	1312817152	55	4058
2026-01-24 01:20:48.47	282.39	66.61	-41.9	-42.6	22.7	0.00e+00	0	43	0	1315962880	55	3907
2026-01-24 01:20:49.48	281.27	66.43	-41.3	-42.0	23.2	0.00e+00	0	44	0	1319108608	54	3854
2026-01-24 01:20:50.49	280.17	66.26	-41.3	-42.0	23.4	0.00e+00	0	43	0	1322254336	54	3866
2026-01-24 01:20:51.50	279.09	66.07	-41.5	-42.3	23.1	0.00e+00	0	43	0	1325400064	54	3960
2026-01-24 01:20:52.51	278.03	65.88	-41.2	-41.9	23.3	0.00e+00	0	43	0	1328545792	54	3789
2026-01-24 01:20:53.52	276.98	65.68	-41.0	-41.7	23.4	0.00e+00	0	43	0	1331691520	54	3733
2026-01-24 01:20:54.52	275.97	65.47	-41.4	-42.1	22.6	0.00e+00	0	43	0	1334837248	54	3892
2026-01-24 01:20:55.53	274.96	65.26	-42.0	-42.8	21.9	0.00e+00	0	43	0	1337982976	54	4213
2026-01-24 01:20:56.54	273.98	65.04	-42.2	-43.0	22.2	0.00e+00	0	43	0	1341128704	55	4084
2026-01-24 01:20:57.55	273.01	64.82	-42.0	-42.8	22.5	0.00e+00	0	43	0	1344274432	55	3981
2026-01-24 01:20:58.56	272.06	64.59	-42.2	-43.0	22.4	0.00e+00	0	44	0	1347420160	55	4086
2026-01-24 01:20:59.56	271.14	64.35	-42.9	-43.8	21.9	0.00e+00	0	43	0	1350565888	56	4221
2026-01-24 01:21:00.57	270.24	64.11	-43.2	-44.1	21.6	0.00e+00	0	43	0	1353711616	57	4136
2026-01-24 01:21:01.58	269.35	63.87	-42.5	-43.4	22.2	0.00e+00	0	43	0	1356857344	57	3786
2026-01-24 01:21:02.59	268.47	63.62	-42.5	-43.3	22.3	0.00e+00	0	44	0	1360003072	56	3959
2026-01-24 01:21:03.60	267.62	63.36	-42.0	-42.8	22.6	0.00e+00	0	43	0	1363148800	56	3747
2026-01-24 01:21:04.60	266.80	63.10	-41.7	-42.4	22.9	0.00e+00	0	43	0	1366294528	55	3815
2026-01-24 01:21:05.61	265.98	62.84	-41.8	-42.5	22.8	0.00e+00	0	43	0	1369440256	55	3866
2026-01-24 01:21:06.62	265.18	62.57	-42.2	-43.0	22.5	0.00e+00	0	43	0	1372585984	55	4071
2026-01-24 01:21:07.63	264.40	62.30	-42.8	-43.7	21.8	0.00e+00	0	43	0	1375731712	56	4172
2026-01-24 01:21:08.64	263.64	62.03	-42.9	-43.8	21.7	0.00e+00	0	43	0	1378877440	56	4233
2026-01-24 01:21:09.65	262.89	61.75	-42.3	-43.1	22.4	0.00e+00	0	43	0	1382023168	56	3894
2026-01-24 01:21:10.66	262.16	61.47	-42.1	-42.9	22.5	0.00e+00	0	43	0	1385168896	56	3783
2026-01-24 01:21:11.67	261.45	61.19	-42.2	-43.0	22.5	0.00e+00	0	43	0	1388314624	56	3855
2026-01-24 01:21:12.68	260.75	60.90	-43.1	-44.0	21.7	0.00e+00	0	43	0	1391460352	56	4312
2026-01-24 01:21:13.68	260.08	60.62	-43.2	-44.0	21.7	0.00e+00	0	43	0	1394606080	57	4083
2026-01-24 01:21:14.69	259.41	60.33	-42.6	-43.4	22.1	0.00e+00	0	43	0	1397751808	57	3795
2026-01-24 01:21:15.70	258.76	60.04	-41.5	-42.3	23.0	0.00e+00	0	43	0	1400897536	55	3753
2026-01-24 01:21:16.71	258.13	59.74	-41.1	-41.8	23.3	0.00e+00	0	43	0	1404043264	54	3744
2026-01-24 01:21:17.72	257.51	59.45	-41.3	-42.0	23.0	0.00e+00	0	43	0	1407188992	54	3856
2026-01-24 01:21:18.73	256.90	59.15	-41.8	-42.6	22.7	0.00e+00	0	43	0	1410334720	54	4110
2026-01-24 01:21:19.74	256.30	58.85	-42.5	-43.3	22.0	0.00e+00	0	43	0	1413480448	55	4236
2026-01-24 01:21:20.74	255.73	58.55	-43.4	-44.3	21.4	0.00e+00	0	43	0	1416626176	57	4197
2026-01-24 01:21:21.75	255.16	58.25	-43.6	-44.5	20.4	0.00e+00	0	43	0	1419771904	57	4322
2026-01-24 01:21:22.76	254.61	57.95	-43.5	-44.4	20.6	0.00e+00	0	43	0	1422917632	57	4289
2026-01-24 01:21:23.77	254.06	57.65	-43.5	-44.4	21.1	0.00e+00	0	43	0	1426063360	57	4243
2026-01-24 01:21:24.78	253.53	57.34	-43.0	-43.8	21.6	0.00e+00	0	44	0	1429209088	57	3977
2026-01-24 01:21:25.79	253.02	57.04	-43.0	-43.8	21.5	0.00e+00	0	44	0	1432354816	57	3989
2026-01-24 01:21:26.79	252.51	56.73	-42.7	-43.5	21.7	0.00e+00	0	43	0	1435500544	57	3832
2026-01-24 01:21:27.80	252.02	56.43	-42.8	-43.6	21.6	0.00e+00	0	43	0	1438646272	57	3901
2026-01-24 01:21:28.81	251.53	56.12	-43.0	-43.9	21.6	0.00e+00	0	43	0	1441792000	57	4018
2026-01-24 01:21:29.82	251.06	55.81	-43.1	-43.9	21.6	0.00e+00	0	43	0	1444937728	57	4042
2026-01-24 01:21:30.83	250.59	55.51	-42.5	-43.2	21.9	0.00e+00	0	43	0	1448083456	56	3949
2026-01-24 01:21:31.83	250.15	55.20	-41.7	-42.4	22.5	0.00e+00	0	43	0	1451229184	55	3783
2026-01-24 01:21:32.84	249.70	54.90	-41.5	-42.2	22.8	0.00e+00	0	44	0	1454374912	54	3936
2026-01-24 01:21:33.85	249.27	54.59	-42.0	-42.7	22.5	0.00e+00	0	43	0	1457520640	54	4191
2026-01-24 01:21:34.86	248.84	54.28	-43.4	-44.3	21.3	0.00e+00	0	43	0	1460666368	57	4202
2026-01-24 01:21:35.87	248.42	53.98	-44.6	-45.6	20.2	0.00e+00	0	43	0	1463812096	59	4347
2026-01-24 01:21:36.87	248.02	53.67	-44.5	-45.5	20.0	0.00e+00	0	43	0	1466957824	60	4073
2026-01-24 01:21:37.88	247.62	53.37	-44.4	-45.3	20.0	0.00e+00	0	43	0	1470103552	60	3998
2026-01-24 01:21:38.90	247.23	53.06	-44.3	-45.3	20.4	0.00e+00	0	44	0	1473249280	59	4222
2026-01-24 01:21:39.90	246.85	52.76	-44.1	-45.1	20.5	0.00e+00	0	43	0	1476395008	59	4117
2026-01-24 01:21:40.91	246.47	52.46	-43.8	-44.8	20.7	0.00e+00	0	43	0	1479540736	59	3968
2026-01-24 01:21:41.92	246.11	52.15	-43.4	-44.3	21.2	0.00e+00	0	44	0	1482686464	58	3977
2026-01-24 01:21:42.93	245.75	51.85	-43.1	-44.0	21.3	0.00e+00	0	44	0	1485832192	58	3828
2026-01-24 01:21:43.94	245.40	51.55	-43.2	-44.1	20.6	0.00e+00	0	43	0	1488977920	58	3870
2026-01-24 01:21:44.94	245.05	51.25	-43.8	-44.7	19.5	0.00e+00	0	44	0	1492123648	58	4184
2026-01-24 01:21:45.95	244.72	50.95	-44.7	-45.7	19.3	0.00e+00	0	43	0	1495269376	59	4402
2026-01-24 01:21:46.95	244.39	50.65	-44.5	-45.5	19.7	0.00e+00	0	43	0	1498415104	60	4081
2026-01-24 01:21:47.96	244.06	50.35	-44.2	-45.1	20.1	0.00e+00	0	43	0	1501560832	60	3905
2026-01-24 01:21:48.97	243.74	50.05	-44.1	-44.9	20.1	0.00e+00	0	44	0	1504706560	60	3819
2026-01-24 01:21:49.98	243.43	49.76	-44.4	-45.4	19.9	0.00e+00	0	43	0	1507852288	59	4251
2026-01-24 01:21:50.99	243.13	49.46	-44.1	-45.0	20.2	0.00e+00	0	44	0	1510998016	59	4090
2026-01-24 01:21:51.99	242.83	49.17	-44.1	-45.0	20.1	0.00e+00	0	44	0	1514143744	59	4065
2026-01-24 01:21:53.00	242.53	48.88	-43.8	-44.6	20.3	0.00e+00	0	44	0	1517289472	59	3912
2026-01-24 01:21:54.01	242.24	48.58	-44.0	-44.9	20.2	0.00e+00	0	43	0	1520435200	59	4040
2026-01-24 01:21:55.02	241.96	48.29	-44.6	-45.6	19.9	0.00e+00	0	44	0	1523580928	59	4374
2026-01-24 01:21:56.02	241.69	48.01	-45.1	-46.2	19.2	0.00e+00	0	44	0	1526726656	60	4402
2026-01-24 01:21:57.03	241.41	47.72	-45.9	-47.2	18.4	0.00e+00	0	44	0	1529872384	62	4399
2026-01-24 01:21:58.04	241.14	47.43	-46.3	-47.6	18.0	0.00e+00	0	44	0	1533018112	63	4375
2026-01-24 01:21:59.05	240.88	47.14	-46.1	-47.4	18.2	0.00e+00	0	44	0	1536163840	63	4257
2026-01-24 01:22:00.06	240.62	46.86	-45.9	-47.1	18.5	0.00e+00	0	44	0	1539309568	63	4139
2026-01-24 01:22:01.06	240.37	46.58	-45.6	-46.8	18.7	0.00e+00	0	44	0	1542455296	63	3969
2026-01-24 01:22:02.07	240.12	46.29	-45.0	-46.1	19.2	0.00e+00	0	44	0	1545601024	62	3871
2026-01-24 01:22:03.08	239.88	46.01	-44.5	-45.5	19.6	0.00e+00	0	44	0	1548746752	61	3855
2026-01-24 01:22:04.09	239.64	45.73	-44.8	-45.8	19.5	0.00e+00	0	44	0	1551892480	61	3989
2026-01-24 01:22:05.09	239.41	45.46	-44.5	-45.5	19.9	0.00e+00	0	43	0	1555038208	61	3840
2026-01-24 01:22:06.10	239.17	45.18	-44.2	-45.2	20.1	0.00e+00	0	44	0	1558183936	60	3939
2026-01-24 01:22:07.11	238.95	44.90	-44.3	-45.3	20.0	0.00e+00	0	44	0	1561329664	60	3981
2026-01-24 01:22:08.12	238.72	44.63	-44.2	-45.1	20.3	0.00e+00	0	44	0	1564475392	60	3887
2026-01-24 01:22:09.13	238.50	44.36	-44.0	-44.9	20.4	0.00e+00	0	44	0	1567621120	60	3817
2026-01-24 01:22:10.14	238.29	44.09	-44.2	-45.2	20.2	0.00e+00	0	44	0	1570766848	60	3922
2026-01-24 01:22:11.15	238.07	43.82	-44.4	-45.4	20.0	0.00e+00	0	44	0	1573912576	60	4017
2026-01-24 01:22:12.15	237.87	43.55	-44.7	-45.7	19.6	0.00e+00	0	44	0	1577058304	60	4162
2026-01-24 01:22:13.16	237.66	43.28	-44.7	-45.7	19.5	0.00e+00	0	44	0	1580204032	60	4165
2026-01-24 01:22:14.17	237.46	43.02	-44.7	-45.7	19.6	0.00e+00	0	43	0	1583349760	60	4157
2026-01-24 01:22:15.18	237.26	42.75	-44.4	-45.4	19.9	0.00e+00	0	44	0	1586495488	60	4034
2026-01-24 01:22:16.19	237.07	42.49	-44.4	-45.4	19.9	0.00e+00	0	44	0	1589641216	60	4023
2026-01-24 01:22:17.20	236.87	42.23	-44.7	-45.7	19.6	0.00e+00	0	44	0	1592786944	60	4153
2026-01-24 01:22:18.21	236.68	41.97	-44.8	-45.8	19.4	0.00e+00	0	44	0	1595932672	60	4226
2026-01-24 01:22:19.21	236.50	41.71	-44.8	-45.8	19.5	0.00e+00	0	43	0	1599078400	60	4216
2026-01-24 01:22:20.22	236.32	41.45	-44.5	-45.5	19.8	0.00e+00	0	43	0	1602224128	60	4055
2026-01-24 01:22:21.23	236.14	41.20	-44.3	-45.3	19.8	0.00e+00	0	43	0	1605369856	60	3990
2026-01-24 01:22:22.24	235.96	40.95	-44.3	-45.2	19.8	0.00e+00	0	44	0	1608515584	60	3951
2026-01-24 01:22:23.25	235.79	40.69	-44.2	-45.2	19.9	0.00e+00	0	43	0	1611661312	60	3934
2026-01-24 01:22:24.26	235.62	40.44	-44.1	-45.0	20.1	0.00e+00	0	44	0	1614807040	60	3853
2026-01-24 01:22:25.27	235.45	40.19	-44.1	-45.0	20.2	0.00e+00	0	44	0	1617952768	60	3865
2026-01-24 01:22:26.27	235.28	39.95	-44.2	-45.2	20.1	0.00e+00	0	44	0	1621098496	60	3929
2026-01-24 01:22:27.28	235.12	39.70	-44.4	-45.5	19.8	0.00e+00	0	43	0	1624244224	60	4058
2026-01-24 01:22:28.29	234.96	39.45	-44.9	-46.0	19.3	0.00e+00	0	44	0	1627389952	60	4303
2026-01-24 01:22:29.30	234.80	39.21	-44.6	-45.6	19.6	0.00e+00	0	43	0	1630535680	60	4132
2026-01-24 01:22:30.31	234.64	38.97	-44.6	-45.6	19.6	0.00e+00	0	44	0	1633681408	60	4141
2026-01-24 01:22:31.31	234.49	38.73	-44.2	-45.2	20.1	0.00e+00	0	44	0	1636827136	60	3924
2026-01-24 01:22:32.32	234.34	38.49	-44.3	-45.2	20.3	0.00e+00	0	43	0	1639972864	59	4190
2026-01-24 01:22:33.33	234.19	38.25	-44.2	-45.2	20.3	0.00e+00	0	43	0	1643118592	59	4164
2026-01-24 01:22:34.34	234.04	38.01	-44.3	-45.2	20.2	0.00e+00	0	43	0	1646264320	59	4178
2026-01-24 01:22:35.35	233.90	37.78	-44.5	-45.5	19.9	0.00e+00	0	44	0	1649410048	59	4308
2026-01-24 01:22:36.36	233.75	37.55	-44.4	-45.4	19.8	0.00e+00	0	43	0	1652555776	60	4019
2026-01-24 01:22:37.37	233.61	37.31	-44.7	-45.8	19.5	0.00e+00	0	44	0	1655701504	60	4200
2026-01-24 01:22:38.38	233.47	37.08	-44.7	-45.8	19.4	0.00e+00	0	43	0	1658847232	60	4231
2026-01-24 01:22:39.38	233.34	36.85	-44.7	-45.7	19.5	0.00e+00	0	44	0	1661992960	60	4188
2026-01-24 01:22:40.39	233.20	36.63	-44.5	-45.5	19.6	0.00e+00	0	44	0	1665138688	60	4074
2026-01-24 01:22:41.40	233.07	36.40	-44.2	-45.2	19.8	0.00e+00	0	44	0	1668284416	60	3918
2026-01-24 01:22:42.41	232.94	36.17	-44.0	-45.0	20.0	0.00e+00	0	43	0	1671430144	60	3857
2026-01-24 01:22:43.42	232.81	35.95	-44.0	-45.0	20.3	0.00e+00	0	43	0	1674575872	59	4058
2026-01-24 01:22:44.42	232.68	35.73	-43.5	-44.4	20.7	0.00e+00	0	43	0	1677721600	59	3821
2026-01-24 01:22:45.43	232.56	35.51	-43.6	-44.5	20.7	0.00e+00	0	44	0	1680867328	59	3841
2026-01-24 01:22:46.44	232.43	35.29	-43.7	-44.7	20.6	0.00e+00	0	44	0	1684013056	59	3921
2026-01-24 01:22:47.45	232.31	35.07	-43.9	-44.8	20.6	0.00e+00	0	44	0	1687158784	59	3998
2026-01-24 01:22:48.46	232.19	34.85	-44.0	-45.0	20.4	0.00e+00	0	44	0	1690304512	59	4068
2026-01-24 01:22:49.47	232.07	34.64	-44.1	-45.1	20.4	0.00e+00	0	43	0	1693450240	59	4114
2026-01-24 01:22:50.48	231.95	34.42	-44.1	-45.1	20.3	0.00e+00	0	43	0	1696595968	59	4121
2026-01-24 01:22:51.48	231.84	34.21	-44.1	-45.1	20.4	0.00e+00	0	44	0	1699741696	59	4117
2026-01-24 01:22:52.49	231.72	34.00	-44.0	-45.0	20.5	0.00e+00	0	43	0	1702887424	59	4085
2026-01-24 01:22:53.50	231.61	33.79	-43.9	-44.9	20.6	0.00e+00	0	43	0	1706033152	59	4036
2026-01-24 01:22:54.51	231.50	33.58	-44.0	-45.0	20.5	0.00e+00	0	44	0	1709178880	59	4059
2026-01-24 01:22:55.52	231.39	33.37	-44.0	-44.9	20.5	0.00e+00	0	44	0	1712324608	59	4044
2026-01-24 01:22:56.52	231.28	33.17	-43.9	-44.9	20.5	0.00e+00	0	44	0	1715470336	59	4027
2026-01-24 01:22:57.53	231.17	32.96	-43.9	-44.9	20.4	0.00e+00	0	44	0	1718616064	59	4019
2026-01-24 01:22:58.53	231.07	32.76	-43.8	-44.7	20.5	0.00e+00	0	44	0	1721761792	59	3955
2026-01-24 01:22:59.54	230.97	32.56	-43.6	-44.6	20.6	0.00e+00	0	43	0	1725956096	59	3883
2026-01-24 01:23:00.55	230.86	32.35	-43.4	-44.3	20.9	0.00e+00	0	44	0	1729101824	58	3968
2026-01-24 01:23:01.56	230.76	32.15	-43.1	-44.0	21.0	0.00e+00	0	43	0	1731198976	58	3836
2026-01-24 01:23:02.57	230.66	31.96	-43.0	-43.9	21.1	0.00e+00	0	44	0	1734344704	58	3812
2026-01-24 01:23:03.58	230.56	31.76	-42.9	-43.7	21.2	0.00e+00	0	44	0	1737490432	57	3954
2026-01-24 01:23:04.59	230.46	31.56	-42.6	-43.4	21.5	0.00e+00	0	44	0	1740636160	57	3813
2026-01-24 01:23:05.59	230.37	31.37	-42.3	-43.2	21.7	0.00e+00	0	44	0	1743781888	56	3919
2026-01-24 01:23:06.60	230.27	31.17	-42.4	-43.2	21.6	0.00e+00	0	44	0	1746927616	56	3934
2026-01-24 01:23:07.61	230.18	30.98	-42.4	-43.2	21.7	0.00e+00	0	44	0	1750073344	56	3926
2026-01-24 01:23:08.62	230.08	30.79	-42.4	-43.3	21.7	0.00e+00	0	43	0	1753219072	56	3968
2026-01-24 01:23:09.62	229.99	30.60	-42.2	-43.0	21.9	0.00e+00	0	44	0	1756364800	56	3863
2026-01-24 01:23:10.63	229.90	30.41	-42.1	-42.9	22.1	0.00e+00	0	43	0	1759510528	56	3784
2026-01-24 01:23:11.64	229.81	30.22	-42.1	-42.9	22.1	0.00e+00	0	44	0	1762656256	56	3783
2026-01-24 01:23:12.65	229.72	30.03	-42.1	-42.9	22.1	0.00e+00	0	44	0	1766850560	56	3812
2026-01-24 01:23:13.66	229.64	29.85	-42.4	-43.2	21.9	0.00e+00	0	44	0	1769996288	56	3923
2026-01-24 01:23:14.66	229.55	29.66	-42.5	-43.3	21.7	0.00e+00	0	44	0	1773142016	56	3990
2026-01-24 01:23:15.67	229.46	29.48	-42.5	-43.3	21.8	0.00e+00	0	44	0	1776287744	56	3984
2026-01-24 01:23:16.68	229.38	29.30	-42.4	-43.2	21.9	0.00e+00	0	44	0	1778384896	56	3924
2026-01-24 01:23:17.69	229.30	29.11	-42.4	-43.2	21.9	0.00e+00	0	44	0	1781530624	56	3953
2026-01-24 01:23:18.70	229.21	28.93	-42.4	-43.2	21.9	0.00e+00	0	44	0	1784676352	56	3958
2026-01-24 01:23:19.71	229.13	28.75	-42.5	-43.3	21.9	0.00e+00	0	44	0	1787822080	56	3989
2026-01-24 01:23:20.71	229.05	28.58	-42.7	-43.5	21.7	0.00e+00	0	44	0	1790967808	56	4075
2026-01-24 01:23:21.72	228.97	28.40	-42.8	-43.6	21.6	0.00e+00	0	44	0	1794113536	56	4141
2026-01-24 01:23:22.73	228.89	28.22	-42.9	-43.8	21.4	0.00e+00	0	44	0	1797259264	56	4223
2026-01-24 01:23:23.74	228.81	28.05	-43.0	-43.8	21.3	0.00e+00	0	44	0	1800404992	56	4240
2026-01-24 01:23:24.74	228.74	27.88	-43.1	-44.0	21.2	0.00e+00	0	44	0	1804599296	56	4294
2026-01-24 01:23:25.75	228.66	27.70	-43.0	-44.0	21.2	0.00e+00	0	44	0	1807745024	56	4292
2026-01-24 01:23:26.76	228.59	27.53	-43.1	-44.0	21.1	0.00e+00	0	44	0	1810890752	56	4322
2026-01-24 01:23:27.77	228.51	27.36	-43.1	-44.0	21.1	0.00e+00	0	44	0	1814036480	56	4308
2026-01-24 01:23:28.78	228.44	27.19	-42.9	-43.8	21.3	0.00e+00	0	44	0	1817182208	56	4200
2026-01-24 01:23:29.78	228.36	27.02	-42.7	-43.6	21.4	0.00e+00	0	44	0	1820327936	56	4129
2026-01-24 01:23:30.79	228.29	26.85	-42.7	-43.6	21.5	0.00e+00	0	44	0	1823473664	56	4117
2026-01-24 01:23:31.80	228.22	26.69	-42.6	-43.5	21.5	0.00e+00	0	44	0	1825570816	56	4077
2026-01-24 01:23:32.81	228.15	26.52	-42.4	-43.3	21.7	0.00e+00	0	44	0	1828716544	56	3970
2026-01-24 01:23:33.82	228.08	26.35	-42.4	-43.2	21.8	0.00e+00	0	43	0	1831862272	56	3933
2026-01-24 01:23:34.83	228.01	26.19	-42.2	-43.0	22.0	0.00e+00	0	44	0	1835008000	56	3839
2026-01-24 01:23:35.84	227.94	26.03	-42.0	-42.8	22.1	0.00e+00	0	44	0	1838153728	56	3780
2026-01-24 01:23:36.85	227.87	25.86	-42.1	-42.9	22.1	0.00e+00	0	44	0	1842348032	56	3788
2026-01-24 01:23:37.86	227.81	25.70	-42.0	-42.8	22.2	0.00e+00	0	44	0	1845493760	56	3747
2026-01-24 01:23:38.86	227.74	25.54	-41.8	-42.6	22.2	0.00e+00	0	44	0	1848639488	55	3895
2026-01-24 01:23:39.87	227.68	25.38	-41.8	-42.6	22.3	0.00e+00	0	44	0	1851785216	55	3882
2026-01-24 01:23:40.88	227.61	25.22	-41.8	-42.6	22.3	0.00e+00	0	44	0	1854930944	55	3885
2026-01-24 01:23:41.89	227.55	25.07	-41.5	-42.2	22.5	0.00e+00	0	44	0	1858076672	54	3943
2026-01-24 01:23:42.89	227.48	24.91	-41.5	-42.3	22.5	0.00e+00	0	43	0	1861222400	54	3972
2026-01-24 01:23:43.90	227.42	24.75	-41.5	-42.3	22.4	0.00e+00	0	44	0	1864368128	54	3989
2026-01-24 01:23:44.91	227.36	24.60	-41.7	-42.4	22.3	0.00e+00	0	44	0	1867513856	54	4048
2026-01-24 01:23:45.91	227.30	24.45	-41.8	-42.6	22.2	0.00e+00	0	44	0	1870659584	54	4117
2026-01-24 01:23:46.92	227.24	24.29	-41.9	-42.7	22.1	0.00e+00	0	44	0	1872756736	54	4146
2026-01-24 01:23:47.93	227.18	24.14	-42.0	-42.8	22.0	0.00e+00	0	43	0	1875902464	54	4203
2026-01-24 01:23:48.94	227.12	23.99	-42.1	-42.9	21.9	0.00e+00	0	44	0	1879048192	54	4281
2026-01-24 01:23:49.94	227.06	23.84	-42.1	-42.9	22.0	0.00e+00	0	44	0	1883242496	54	4250
2026-01-24 01:23:50.95	227.00	23.69	-42.2	-43.0	21.8	0.00e+00	0	44	0	1886388224	54	4306
2026-01-24 01:23:51.96	226.94	23.54	-42.0	-42.9	22.0	0.00e+00	0	44	0	1889533952	54	4243
2026-01-24 01:23:52.97	226.89	23.39	-42.2	-43.0	21.8	0.00e+00	0	43	0	1892679680	54	4318
2026-01-24 01:23:53.97	226.83	23.24	-42.2	-43.1	21.8	0.00e+00	0	43	0	1895825408	55	4103
2026-01-24 01:23:54.99	226.77	23.10	-42.2	-43.0	21.9	0.00e+00	0	44	0	1898971136	55	4068
2026-01-24 01:23:55.99	226.72	22.95	-42.2	-43.0	21.9	0.00e+00	0	44	0	1902116864	55	4090
2026-01-24 01:23:57.00	226.66	22.81	-42.2	-43.0	21.9	0.00e+00	0	44	0	1905262592	55	4089
2026-01-24 01:23:58.01	226.61	22.66	-42.2	-43.0	21.9	0.00e+00	0	44	0	1908408320	55	4087
2026-01-24 01:23:59.02	226.55	22.52	-42.2	-43.0	21.9	0.00e+00	0	44	0	1911554048	55	4078
2026-01-24 01:24:00.03	226.50	22.37	-42.1	-42.9	21.9	0.00e+00	0	44	0	1914699776	55	4040
2026-01-24 01:24:01.03	226.45	22.23	-42.1	-42.9	22.0	0.00e+00	0	44	0	1917845504	55	4025
2026-01-24 01:24:02.04	226.39	22.09	-42.1	-42.9	21.9	0.00e+00	0	44	0	1919942656	55	4051
2026-01-24 01:24:03.05	226.34	21.95	-42.2	-43.1	21.8	0.00e+00	0	44	0	1924136960	55	4101
2026-01-24 01:24:04.06	226.29	21.81	-42.1	-43.0	21.9	0.00e+00	0	44	0	1927282688	55	4059
2026-01-24 01:24:05.06	226.24	21.67	-42.2	-43.0	21.9	0.00e+00	0	44	0	1930428416	55	4085
2026-01-24 01:24:06.07	226.19	21.54	-42.2	-43.0	21.9	0.00e+00	0	44	0	1933574144	55	4092
2026-01-24 01:24:07.08	226.14	21.40	-42.2	-43.1	21.8	0.00e+00	0	44	0	1936719872	55	4112
2026-01-24 01:24:08.09	226.09	21.26	-42.3	-43.1	21.8	0.00e+00	0	43	0	1939865600	55	4131
2026-01-24 01:24:09.09	226.04	21.13	-42.2	-43.0	21.8	0.00e+00	0	43	0	1943011328	55	4097
2026-01-24 01:24:10.10	225.99	20.99	-42.2	-43.1	21.8	0.00e+00	0	43	0	1946157056	55	4112
2026-01-24 01:24:11.11	225.95	20.86	-42.2	-43.0	21.9	0.00e+00	0	43	0	1949302784	55	4084
2026-01-24 01:24:12.12	225.90	20.72	-42.3	-43.2	21.7	0.00e+00	0	44	0	1952448512	55	4147
2026-01-24 01:24:13.13	225.85	20.59	-42.3	-43.1	21.8	0.00e+00	0	44	0	1955594240	55	4124
2026-01-24 01:24:14.13	225.80	20.46	-42.3	-43.2	21.7	0.00e+00	0	43	0	1958739968	55	4154
2026-01-24 01:24:15.14	225.76	20.32	-42.3	-43.2	21.7	0.00e+00	0	44	0	1961885696	55	4157
2026-01-24 01:24:16.15	225.71	20.19	-42.5	-43.4	21.6	0.00e+00	0	44	0	1965031424	55	4243
2026-01-24 01:24:17.16	225.67	20.06	-42.4	-43.2	21.7	0.00e+00	0	43	0	1968177152	55	4184
2026-01-24 01:24:18.17	225.62	19.93	-42.4	-43.3	21.6	0.00e+00	0	43	0	1971322880	55	4194
2026-01-24 01:24:19.17	225.58	19.80	-42.4	-43.2	21.6	0.00e+00	0	43	0	1974468608	55	4183
2026-01-24 01:24:20.18	225.53	19.67	-42.3	-43.2	21.7	0.00e+00	0	43	0	1977614336	55	4151
2026-01-24 01:24:21.19	225.49	19.55	-42.3	-43.2	21.6	0.00e+00	0	44	0	1980760064	55	4173
2026-01-24 01:24:22.20	225.44	19.42	-42.3	-43.2	21.6	0.00e+00	0	44	0	1983905792	55	4170
2026-01-24 01:24:23.21	225.40	19.29	-42.4	-43.2	21.6	0.00e+00	0	44	0	1987051520	55	4189
2026-01-24 01:24:24.22	225.36	19.17	-42.4	-43.3	21.6	0.00e+00	0	44	0	1990197248	55	4205
2026-01-24 01:24:25.22	225.32	19.04	-42.5	-43.4	21.5	0.00e+00	0	44	0	1993342976	55	4246
2026-01-24 01:24:26.23	225.27	18.92	-42.4	-43.2	21.6	0.00e+00	0	44	0	1996488704	55	4183
2026-01-24 01:24:27.24	225.23	18.79	-42.4	-43.2	21.6	0.00e+00	0	44	0	1999634432	55	4178
2026-01-24 01:24:28.25	225.19	18.67	-42.5	-43.3	21.5	0.00e+00	0	44	0	2002780160	55	4230
2026-01-24 01:24:29.26	225.15	18.54	-42.4	-43.3	21.6	0.00e+00	0	44	0	2005925888	55	4194
2026-01-24 01:24:30.26	225.11	18.42	-42.4	-43.3	21.5	0.00e+00	0	44	0	2009071616	55	4197
2026-01-24 01:24:31.27	225.07	18.30	-42.4	-43.3	21.5	0.00e+00	0	44	0	2012217344	55	4206
2026-01-24 01:24:32.28	225.03	18.18	-42.4	-43.2	21.6	0.00e+00	0	44	0	2015363072	55	4176
2026-01-24 01:24:33.29	224.99	18.06	-42.5	-43.3	21.4	0.00e+00	0	44	0	2018508800	55	4236
2026-01-24 01:24:34.30	224.95	17.94	-42.6	-43.5	21.4	0.00e+00	0	44	0	2021654528	55	4295
2026-01-24 01:24:35.31	224.91	17.82	-42.5	-43.4	21.4	0.00e+00	0	44	0	2024800256	55	4266
2026-01-24 01:24:36.31	224.87	17.70	-42.6	-43.4	21.4	0.00e+00	0	44	0	2027945984	55	4282
2026-01-24 01:24:37.32	224.83	17.58	-42.6	-43.5	21.3	0.00e+00	0	44	0	2031091712	55	4315
2026-01-24 01:24:38.33	224.80	17.46	-42.5	-43.4	21.4	0.00e+00	0	44	0	2034237440	55	4271
2026-01-24 01:24:39.34	224.76	17.35	-42.6	-43.4	21.4	0.00e+00	0	44	0	2037383168	55	4286
2026-01-24 01:24:40.35	224.72	17.23	-42.7	-43.5	21.3	0.00e+00	0	44	0	2040528896	55	4337
2026-01-24 01:24:41.35	224.69	17.11	-42.8	-43.7	21.2	0.00e+00	0	44	0	2043674624	56	4185
