passes_logs/2026/01/24/R3.2S_Murmansk/R3.2S_Murmansk__20260124_234347_SUOMI_NPP_rec.log

#Pass ID: 20260124_234347_SUOMI NPP
#Satellite: SUOMI NPP
#Configuration: NPP
#almurnet v.1.7.20251203
#Start time: 2026-01-24 23:43:48

#Version: 2.2.20231116
#Station: R3.2S_Murmansk
#Location: 33.079688 lon 68.888172 lat
#TLE: 1 37849U 11061A   26024.54906732  .00000185  00000+0  10878-3 0  9990
#TLE: 2 37849  98.7821 326.5159 0002200  47.3746 312.7615 14.19529340738061

#Time	Az	El	Level	Level2	SNR	BER	BlckErr	Temp	State	Recorded	gain1	gain2
2026-01-24 23:43:48.74	21.33	2.08	-53.2	-68.2	3.8	1.49e+00	0	41	0	0	77	20978
2026-01-24 23:43:49.76	21.36	2.14	-53.2	-68.2	3.8	1.49e+00	0	41	104	0	77	20956
2026-01-24 23:43:50.76	21.39	2.20	-53.2	-68.2	3.8	1.49e+00	0	41	104	0	77	21002
2026-01-24 23:43:51.77	21.43	2.27	-53.2	-68.2	3.8	1.49e+00	0	41	104	0	77	20907
2026-01-24 23:43:52.78	21.46	2.33	-53.2	-68.2	3.8	1.49e+00	0	41	104	0	77	20978
2026-01-24 23:43:53.79	21.49	2.39	-53.2	-68.2	3.8	1.49e+00	0	41	104	0	77	20964
2026-01-24 23:43:54.80	21.53	2.46	-53.2	-68.2	3.8	1.49e+00	0	41	104	0	77	20974
2026-01-24 23:43:55.80	21.56	2.52	-53.2	-68.2	3.8	1.49e+00	0	41	104	0	77	20941
2026-01-24 23:43:56.81	21.60	2.58	-53.2	-68.2	3.8	1.49e+00	0	41	104	0	77	20929
2026-01-24 23:43:57.82	21.63	2.65	-53.3	-68.2	3.8	1.49e+00	0	41	104	0	77	20895
2026-01-24 23:43:58.83	21.66	2.71	-53.2	-68.2	3.8	1.49e+00	0	41	104	0	77	21002
2026-01-24 23:43:59.84	21.70	2.78	-53.2	-68.2	3.8	1.49e+00	0	41	104	0	77	20910
2026-01-24 23:44:00.84	21.73	2.84	-53.3	-68.2	3.8	1.49e+00	0	41	104	0	77	20965
2026-01-24 23:44:01.85	21.77	2.91	-53.2	-68.2	3.8	1.49e+00	0	41	104	0	77	20928
2026-01-24 23:44:02.86	21.80	2.97	-53.3	-68.2	3.8	1.49e+00	0	41	104	0	77	20956
2026-01-24 23:44:03.87	21.84	3.03	-53.3	-68.2	3.8	1.49e+00	0	41	104	0	77	20905
2026-01-24 23:44:04.88	21.87	3.10	-53.3	-68.2	3.8	1.49e+00	0	41	104	0	77	20946
2026-01-24 23:44:05.88	21.91	3.16	-53.2	-68.2	3.8	1.49e+00	0	41	104	0	77	20950
2026-01-24 23:44:06.89	21.94	3.23	-53.2	-68.2	3.8	1.49e+00	0	41	104	0	77	20973
2026-01-24 23:44:07.90	21.98	3.29	-53.2	-68.2	3.8	1.49e+00	0	41	104	0	77	20934
2026-01-24 23:44:08.91	22.01	3.36	-53.3	-68.2	3.8	1.49e+00	0	41	104	0	77	20979
2026-01-24 23:44:09.92	22.05	3.43	-53.2	-68.2	3.8	1.49e+00	0	41	104	0	77	20940
2026-01-24 23:44:10.92	22.08	3.49	-53.2	-68.2	3.8	1.49e+00	0	41	104	0	77	20933
2026-01-24 23:44:11.93	22.12	3.56	-53.2	-68.2	3.8	1.49e+00	0	41	104	0	77	20880
2026-01-24 23:44:12.94	22.15	3.62	-53.2	-68.2	3.8	1.49e+00	0	41	104	0	77	20992
2026-01-24 23:44:13.95	22.19	3.69	-53.3	-68.2	3.8	1.49e+00	0	41	104	0	77	20976
2026-01-24 23:44:14.95	22.23	3.75	-53.3	-68.2	3.8	1.49e+00	0	42	104	0	77	20947
2026-01-24 23:44:15.96	22.26	3.82	-53.2	-68.2	3.8	1.49e+00	0	42	104	0	77	20893
2026-01-24 23:44:16.97	22.30	3.89	-53.3	-68.2	3.8	1.49e+00	0	41	104	0	77	20961
2026-01-24 23:44:17.97	22.34	3.95	-53.3	-68.2	3.8	1.49e+00	0	42	104	0	77	20945
2026-01-24 23:44:18.98	22.37	4.02	-53.2	-68.2	3.8	1.49e+00	0	42	104	0	77	20960
2026-01-24 23:44:19.99	22.41	4.09	-53.2	-68.2	3.8	1.49e+00	0	42	104	0	77	21003
2026-01-24 23:44:21.00	22.45	4.16	-53.2	-68.2	3.8	1.49e+00	0	42	104	0	77	20931
2026-01-24 23:44:22.01	22.48	4.22	-53.2	-68.2	3.8	1.49e+00	0	42	104	0	77	20930
2026-01-24 23:44:23.02	22.52	4.29	-53.3	-68.2	3.8	1.49e+00	0	42	104	0	77	20951
2026-01-24 23:44:24.02	22.56	4.36	-53.3	-68.2	3.8	1.49e+00	0	42	104	0	77	20972
2026-01-24 23:44:25.03	22.60	4.43	-53.2	-68.2	3.8	1.49e+00	0	42	104	0	77	20940
2026-01-24 23:44:26.04	22.63	4.49	-53.2	-68.2	3.8	1.49e+00	0	42	104	0	77	20981
2026-01-24 23:44:27.05	22.67	4.56	-53.2	-68.2	3.8	1.49e+00	0	42	104	0	77	20940
2026-01-24 23:44:28.05	22.71	4.63	-53.2	-68.2	3.8	1.49e+00	0	42	104	0	77	20999
2026-01-24 23:44:29.06	22.75	4.70	-53.2	-68.2	3.8	1.49e+00	0	42	104	0	77	20940
2026-01-24 23:44:30.07	22.79	4.77	-53.2	-68.2	3.8	1.49e+00	0	42	104	0	77	20977
2026-01-24 23:44:31.08	22.83	4.84	-53.3	-68.2	3.8	1.49e+00	0	42	104	0	77	20948
2026-01-24 23:44:32.08	22.86	4.90	-53.3	-68.2	3.8	1.49e+00	0	42	104	0	77	20954
2026-01-24 23:44:33.09	22.90	4.97	-53.2	-68.2	3.8	1.49e+00	0	42	104	0	77	20960
2026-01-24 23:44:34.10	22.94	5.04	-53.3	-68.2	3.8	1.49e+00	0	42	104	0	77	20980
2026-01-24 23:44:35.11	22.98	5.11	-53.3	-68.2	3.8	1.49e+00	0	42	104	0	77	20989
2026-01-24 23:44:36.12	23.02	5.18	-53.3	-68.3	3.8	1.49e+00	0	42	104	0	77	21021
2026-01-24 23:44:37.12	23.06	5.25	-53.3	-68.2	3.8	1.49e+00	0	42	104	0	77	20952
2026-01-24 23:44:38.14	23.10	5.32	-53.3	-68.2	3.8	1.49e+00	0	42	104	0	77	20928
2026-01-24 23:44:39.14	23.14	5.39	-53.3	-68.2	3.8	1.49e+00	0	42	104	0	77	20964
2026-01-24 23:44:40.15	23.18	5.46	-53.3	-68.2	3.8	1.49e+00	0	42	104	0	77	20966
2026-01-24 23:44:41.16	23.22	5.53	-53.3	-68.2	3.8	1.49e+00	0	42	104	0	77	21017
2026-01-24 23:44:42.17	23.26	5.60	-53.3	-68.2	3.8	1.49e+00	0	42	104	0	77	20976
2026-01-24 23:44:43.17	23.30	5.67	-53.3	-68.2	3.8	1.49e+00	0	42	104	0	77	20983
2026-01-24 23:44:44.18	23.34	5.75	-53.3	-68.2	3.8	1.49e+00	0	42	104	0	77	20984
2026-01-24 23:44:45.19	23.38	5.82	-53.3	-68.2	3.8	1.49e+00	0	42	104	0	77	20964
2026-01-24 23:44:46.20	23.43	5.89	-53.3	-68.2	3.8	1.49e+00	0	42	104	0	77	20928
2026-01-24 23:44:47.21	23.47	5.96	-53.3	-68.2	3.8	1.49e+00	0	42	104	0	77	20956
2026-01-24 23:44:48.21	23.51	6.03	-53.3	-68.2	3.8	1.49e+00	0	42	104	0	77	20941
2026-01-24 23:44:49.22	23.55	6.10	-53.3	-68.2	3.8	1.49e+00	0	42	104	0	77	20993
2026-01-24 23:44:50.23	23.59	6.18	-53.3	-68.2	3.8	1.49e+00	0	42	104	0	77	21007
2026-01-24 23:44:51.24	23.63	6.25	-53.3	-68.2	3.8	1.49e+00	0	42	104	0	77	20975
2026-01-24 23:44:52.25	23.68	6.32	-53.3	-68.3	3.8	1.49e+00	0	42	104	0	77	21018
2026-01-24 23:44:53.26	23.72	6.39	-53.3	-68.2	3.8	1.49e+00	0	42	104	0	77	20965
2026-01-24 23:44:54.26	23.76	6.47	-53.3	-68.2	3.8	1.49e+00	0	42	104	0	77	20950
2026-01-24 23:44:55.27	23.80	6.54	-53.3	-68.2	3.8	1.49e+00	0	42	104	0	77	21017
2026-01-24 23:44:56.28	23.85	6.61	-53.2	-68.2	3.8	1.49e+00	0	42	104	0	77	20959
2026-01-24 23:44:57.29	23.89	6.69	-53.3	-68.2	3.8	1.49e+00	0	42	104	0	77	20937
2026-01-24 23:44:58.29	23.93	6.76	-53.3	-68.3	3.8	1.49e+00	0	42	104	0	77	21028
2026-01-24 23:44:59.30	23.98	6.84	-53.3	-68.2	3.8	1.49e+00	0	42	104	0	77	20960
2026-01-24 23:45:00.31	24.02	6.91	-53.3	-68.2	3.8	1.49e+00	0	42	104	0	77	20994
2026-01-24 23:45:01.32	24.07	6.98	-53.3	-68.3	3.8	1.49e+00	0	42	104	0	77	21056
2026-01-24 23:45:02.32	24.11	7.06	-53.3	-68.2	3.8	1.49e+00	0	42	104	0	77	20964
2026-01-24 23:45:03.33	24.15	7.13	-53.3	-68.2	3.8	1.49e+00	0	42	104	0	77	20983
2026-01-24 23:45:04.34	24.20	7.21	-53.3	-68.2	3.8	1.49e+00	0	42	104	0	77	20966
2026-01-24 23:45:05.35	24.24	7.28	-53.3	-68.2	3.8	1.49e+00	0	42	104	0	77	21010
2026-01-24 23:45:06.36	24.29	7.36	-53.3	-68.2	3.8	1.49e+00	0	42	104	0	77	20976
2026-01-24 23:45:07.37	24.33	7.43	-53.3	-68.2	3.8	1.49e+00	0	42	104	0	77	20979
2026-01-24 23:45:08.38	24.38	7.51	-53.3	-68.2	3.8	1.49e+00	0	42	104	0	77	20970
2026-01-24 23:45:09.38	24.42	7.59	-53.3	-68.2	3.8	1.49e+00	0	42	104	0	77	20956
2026-01-24 23:45:10.39	24.47	7.66	-53.3	-68.2	3.8	1.49e+00	0	42	104	0	77	20998
2026-01-24 23:45:11.40	24.52	7.74	-53.3	-68.2	3.8	1.49e+00	0	42	104	0	77	20982
2026-01-24 23:45:12.41	24.56	7.82	-53.3	-68.2	3.8	1.49e+00	0	43	104	0	77	20926
2026-01-24 23:45:13.42	24.61	7.89	-53.3	-68.2	3.8	1.49e+00	0	42	104	0	77	20964
2026-01-24 23:45:14.42	24.66	7.97	-53.3	-68.2	3.8	1.49e+00	0	42	104	0	77	21011
2026-01-24 23:45:15.43	24.70	8.05	-53.3	-68.2	3.8	1.49e+00	0	42	104	0	77	20982
2026-01-24 23:45:16.44	24.75	8.13	-53.3	-68.2	3.8	1.49e+00	0	42	104	0	77	20978
2026-01-24 23:45:17.45	24.80	8.20	-53.3	-68.2	3.8	1.49e+00	0	42	104	0	77	20956
2026-01-24 23:45:18.46	24.85	8.28	-53.3	-68.2	3.8	1.49e+00	0	42	104	0	77	20964
2026-01-24 23:45:19.46	24.89	8.36	-53.3	-68.2	3.8	1.49e+00	0	42	104	0	77	21013
2026-01-24 23:45:20.47	24.94	8.44	-53.3	-68.2	3.8	1.49e+00	0	42	104	0	77	20975
2026-01-24 23:45:21.48	24.99	8.52	-53.3	-68.2	3.8	1.49e+00	0	42	104	0	77	20983
2026-01-24 23:45:22.49	25.04	8.60	-53.2	-68.2	3.8	1.49e+00	0	42	104	0	77	20961
2026-01-24 23:45:23.50	25.09	8.68	-53.3	-68.2	3.8	1.49e+00	0	42	104	0	77	20989
2026-01-24 23:45:24.50	25.14	8.75	-53.3	-68.2	3.8	1.49e+00	0	42	104	0	77	20961
2026-01-24 23:45:25.51	25.19	8.83	-53.3	-68.2	3.8	1.49e+00	0	42	104	0	77	20993
2026-01-24 23:45:26.52	25.23	8.91	-53.3	-68.2	3.8	1.49e+00	0	42	104	0	77	20954
2026-01-24 23:45:27.53	25.28	8.99	-53.3	-68.2	3.8	1.49e+00	0	42	104	0	77	20898
2026-01-24 23:45:28.53	25.33	9.07	-53.3	-68.2	3.8	1.49e+00	0	43	104	0	77	20998
2026-01-24 23:45:29.54	25.38	9.15	-53.3	-68.2	3.8	1.49e+00	0	42	104	0	77	20958
2026-01-24 23:45:30.55	25.44	9.24	-53.3	-68.2	3.8	1.49e+00	0	42	104	0	77	20972
2026-01-24 23:45:31.56	25.49	9.32	-53.3	-68.2	3.8	1.49e+00	0	42	104	0	77	21006
2026-01-24 23:45:32.57	25.54	9.40	-53.3	-68.2	3.8	1.49e+00	0	43	104	0	77	21007
2026-01-24 23:45:33.58	25.59	9.48	-53.3	-68.2	3.8	1.49e+00	0	42	104	0	77	20930
2026-01-24 23:45:34.58	25.64	9.56	-53.3	-68.3	3.8	1.49e+00	0	43	104	0	77	21019
2026-01-24 23:45:35.59	25.69	9.64	-53.3	-68.3	3.8	1.49e+00	0	43	104	0	77	21032
2026-01-24 23:45:36.60	25.74	9.73	-53.3	-68.2	3.8	1.49e+00	0	43	104	0	77	20951
2026-01-24 23:45:37.61	25.80	9.81	-53.3	-68.2	3.8	1.49e+00	0	43	104	0	77	20947
2026-01-24 23:45:38.61	25.85	9.89	-53.3	-68.2	3.8	1.49e+00	0	43	104	0	77	20941
2026-01-24 23:45:39.62	25.90	9.97	-53.3	-68.2	3.8	1.49e+00	0	42	104	0	77	20976
2026-01-24 23:45:40.63	25.95	10.06	-53.3	-68.2	3.8	1.49e+00	0	43	104	0	77	20953
2026-01-24 23:45:41.63	26.01	10.14	-53.3	-68.2	3.8	1.49e+00	0	42	104	0	77	20958
2026-01-24 23:45:42.64	26.06	10.23	-53.3	-68.2	3.8	1.49e+00	0	43	104	0	77	20938
2026-01-24 23:45:43.65	26.12	10.31	-53.3	-68.2	3.8	1.49e+00	0	42	104	0	77	21002
2026-01-24 23:45:44.66	26.17	10.39	-53.3	-68.2	3.8	1.49e+00	0	43	104	0	77	20982
2026-01-24 23:45:45.67	26.23	10.48	-53.3	-68.2	3.8	1.49e+00	0	42	104	0	77	20959
2026-01-24 23:45:46.68	26.28	10.56	-53.3	-68.2	3.8	1.49e+00	0	42	104	0	77	20978
2026-01-24 23:45:47.68	26.33	10.65	-53.3	-68.2	3.8	1.49e+00	0	42	104	0	77	21001
2026-01-24 23:45:48.69	26.39	10.73	-53.3	-68.2	3.8	1.49e+00	0	42	104	0	77	20969
2026-01-24 23:45:49.70	26.45	10.82	-53.2	-68.2	3.8	1.49e+00	0	42	104	0	77	20973
2026-01-24 23:45:50.70	26.50	10.91	-53.3	-68.2	3.8	1.49e+00	0	42	104	0	77	20944
2026-01-24 23:45:51.71	26.56	10.99	-53.3	-68.3	3.8	1.49e+00	0	43	104	0	77	21029
2026-01-24 23:45:52.72	26.62	11.08	-53.3	-68.2	3.8	1.49e+00	0	43	104	0	77	20962
2026-01-24 23:45:53.73	26.67	11.17	-53.3	-68.2	3.8	1.49e+00	0	42	104	0	77	20993
2026-01-24 23:45:54.74	26.73	11.25	-53.3	-68.2	3.8	1.49e+00	0	42	104	0	77	20948
2026-01-24 23:45:55.74	26.79	11.34	-53.3	-68.2	3.8	1.49e+00	0	43	104	0	77	20991
2026-01-24 23:45:56.75	26.84	11.43	-53.3	-68.2	3.8	1.49e+00	0	42	104	0	77	20984
2026-01-24 23:45:57.76	26.90	11.52	-53.3	-68.2	3.8	1.49e+00	0	42	104	0	77	20927
2026-01-24 23:45:58.77	26.96	11.61	-53.3	-68.2	3.8	1.49e+00	0	42	104	0	77	20971
2026-01-24 23:45:59.78	27.02	11.70	-53.3	-68.2	3.8	1.49e+00	0	42	104	0	77	20993
2026-01-24 23:46:00.79	27.08	11.78	-53.3	-68.2	3.8	1.49e+00	0	42	104	0	77	20979
2026-01-24 23:46:01.79	27.14	11.87	-53.3	-68.2	3.8	1.49e+00	0	42	104	0	77	20966
2026-01-24 23:46:02.80	27.20	11.96	-53.3	-68.2	3.8	1.49e+00	0	43	104	0	77	20995
2026-01-24 23:46:03.81	27.26	12.05	-53.3	-68.2	3.8	1.49e+00	0	43	104	0	77	20983
2026-01-24 23:46:04.81	27.32	12.14	-53.3	-68.2	3.8	1.49e+00	0	43	104	0	77	20987
2026-01-24 23:46:05.82	27.38	12.23	-53.3	-68.3	3.8	1.49e+00	0	42	104	0	77	21029
2026-01-24 23:46:06.83	27.44	12.32	-53.3	-68.2	3.8	1.49e+00	0	43	104	0	77	20958
2026-01-24 23:46:07.84	27.50	12.42	-53.3	-68.3	3.8	1.49e+00	0	43	104	0	77	21041
2026-01-24 23:46:08.85	27.57	12.51	-53.3	-68.2	3.8	1.49e+00	0	42	104	0	77	21003
2026-01-24 23:46:09.86	27.63	12.60	-53.3	-68.2	3.8	1.49e+00	0	42	104	0	77	21005
2026-01-24 23:46:10.86	27.69	12.69	-53.3	-68.2	3.8	1.49e+00	0	42	104	0	77	20970
2026-01-24 23:46:11.87	27.75	12.78	-53.3	-68.2	3.8	1.49e+00	0	43	104	0	77	20968
2026-01-24 23:46:12.88	27.82	12.88	-53.3	-68.2	3.8	1.49e+00	0	43	104	0	77	20997
2026-01-24 23:46:13.89	27.88	12.97	-53.3	-68.2	3.8	1.49e+00	0	43	104	0	77	21008
2026-01-24 23:46:14.90	27.95	13.06	-53.3	-68.3	3.8	1.49e+00	0	43	104	0	77	21032
2026-01-24 23:46:15.90	28.01	13.16	-53.3	-68.2	3.8	1.49e+00	0	43	104	0	77	20999
2026-01-24 23:46:16.91	28.07	13.25	-53.3	-68.3	3.8	1.49e+00	0	43	104	0	77	21049
2026-01-24 23:46:17.92	28.14	13.35	-53.3	-68.3	3.8	1.49e+00	0	42	104	0	77	21018
2026-01-24 23:46:18.93	28.21	13.44	-53.3	-68.3	3.8	1.49e+00	0	43	104	0	77	21048
2026-01-24 23:46:19.94	28.27	13.54	-53.3	-68.2	3.8	1.49e+00	0	43	104	0	77	20964
2026-01-24 23:46:20.94	28.34	13.63	-53.3	-68.2	3.8	1.49e+00	0	43	104	0	77	21005
2026-01-24 23:46:21.95	28.41	13.73	-53.3	-68.2	3.8	1.49e+00	0	42	104	0	77	20976
2026-01-24 23:46:22.96	28.47	13.82	-53.3	-68.2	3.8	1.49e+00	0	43	104	0	77	20971
2026-01-24 23:46:23.97	28.54	13.92	-53.3	-68.2	3.8	1.49e+00	0	42	104	0	77	21010
2026-01-24 23:46:24.97	28.61	14.02	-53.3	-68.2	3.8	1.49e+00	0	42	104	0	77	20999
2026-01-24 23:46:25.98	28.68	14.11	-53.3	-68.3	3.8	1.49e+00	0	43	104	0	77	21024
2026-01-24 23:46:26.99	28.75	14.21	-53.3	-68.2	3.8	1.49e+00	0	43	104	0	77	21007
2026-01-24 23:46:28.00	28.82	14.31	-53.3	-68.3	3.8	1.49e+00	0	43	104	0	77	21019
2026-01-24 23:46:29.01	28.89	14.41	-53.3	-68.3	3.8	1.49e+00	0	43	104	0	77	21018
2026-01-24 23:46:30.01	28.95	14.51	-53.2	-68.2	3.8	1.49e+00	0	43	104	0	77	20989
2026-01-24 23:46:31.02	29.03	14.60	-53.3	-68.2	3.8	1.49e+00	0	43	104	0	77	20948
2026-01-24 23:46:32.03	29.10	14.70	-53.3	-68.2	3.8	1.49e+00	0	43	104	0	77	20968
2026-01-24 23:46:33.03	29.17	14.80	-53.3	-68.2	3.8	1.49e+00	0	43	104	0	77	20971
2026-01-24 23:46:34.04	29.24	14.90	-53.3	-68.2	3.8	1.49e+00	0	43	104	0	77	20970
2026-01-24 23:46:35.05	29.31	15.00	-53.3	-68.2	3.8	1.49e+00	0	43	104	0	77	21013
2026-01-24 23:46:36.06	29.39	15.10	-53.3	-68.2	3.8	1.49e+00	0	43	104	0	77	20933
2026-01-24 23:46:37.07	29.46	15.21	-53.3	-68.2	3.8	1.49e+00	0	43	104	0	77	20959
2026-01-24 23:46:38.08	29.53	15.31	-53.3	-68.2	3.8	1.49e+00	0	43	104	0	77	20975
2026-01-24 23:46:39.08	29.61	15.41	-53.3	-68.2	3.8	1.49e+00	0	43	104	0	77	20972
2026-01-24 23:46:40.09	29.68	15.51	-53.3	-68.2	3.8	1.49e+00	0	43	104	0	77	20989
2026-01-24 23:46:41.10	29.76	15.62	-53.3	-68.2	3.8	1.49e+00	0	43	104	0	77	20919
2026-01-24 23:46:42.10	29.83	15.72	-53.3	-68.2	3.8	1.49e+00	0	43	104	0	77	21001
2026-01-24 23:46:43.11	29.91	15.82	-53.3	-68.2	3.8	1.49e+00	0	43	104	0	77	20976
2026-01-24 23:46:44.12	29.99	15.93	-53.3	-68.2	3.8	1.49e+00	0	43	104	0	77	20990
2026-01-24 23:46:45.13	30.06	16.03	-53.3	-68.2	3.8	1.49e+00	0	43	104	0	77	20958
2026-01-24 23:46:46.14	30.14	16.14	-53.3	-68.3	3.8	1.49e+00	0	43	104	0	77	21019
2026-01-24 23:46:47.14	30.22	16.24	-53.3	-68.2	3.8	1.49e+00	0	43	104	0	77	20996
2026-01-24 23:46:48.15	30.30	16.35	-53.2	-68.2	3.8	1.49e+00	0	43	104	0	77	20938
2026-01-24 23:46:49.16	30.38	16.45	-53.3	-68.2	3.8	1.49e+00	0	43	104	0	77	21005
2026-01-24 23:46:50.16	30.46	16.56	-53.3	-68.3	3.8	1.49e+00	0	43	104	0	77	21022
2026-01-24 23:46:51.17	30.54	16.66	-53.3	-68.2	3.8	1.49e+00	0	43	104	0	77	21007
2026-01-24 23:46:52.18	30.62	16.77	-53.2	-68.2	3.8	1.49e+00	0	43	104	0	77	20989
2026-01-24 23:46:53.19	30.70	16.88	-53.3	-68.2	3.8	1.49e+00	0	43	104	0	77	20993
2026-01-24 23:46:54.20	30.78	16.99	-53.2	-68.2	3.8	1.49e+00	0	42	104	0	77	20976
2026-01-24 23:46:55.20	30.86	17.10	-53.3	-68.2	3.8	1.49e+00	0	43	104	0	77	21014
2026-01-24 23:46:56.21	30.95	17.20	-53.3	-68.2	3.8	1.49e+00	0	43	104	0	77	21005
2026-01-24 23:46:57.22	31.03	17.31	-53.3	-68.2	3.8	1.49e+00	0	43	104	0	77	20956
2026-01-24 23:46:58.23	31.11	17.42	-53.3	-68.2	3.8	1.49e+00	0	43	104	0	77	20963
2026-01-24 23:46:59.24	31.20	17.54	-53.3	-68.2	3.8	1.49e+00	0	43	104	0	77	20993
2026-01-24 23:47:00.24	31.28	17.64	-53.3	-68.2	3.8	1.49e+00	0	43	104	0	77	20997
2026-01-24 23:47:01.25	31.37	17.76	-53.3	-68.2	3.8	1.49e+00	0	43	104	0	77	20988
2026-01-24 23:47:02.26	31.46	17.87	-53.3	-68.3	3.8	1.49e+00	0	43	104	0	77	21038
2026-01-24 23:47:03.27	31.55	17.98	-53.3	-68.3	3.8	1.49e+00	0	43	104	0	77	21052
2026-01-24 23:47:04.28	31.63	18.09	-53.3	-68.2	3.8	1.49e+00	0	43	104	0	77	21001
2026-01-24 23:47:05.29	31.72	18.21	-53.3	-68.2	3.8	1.49e+00	0	43	104	0	77	20995
2026-01-24 23:47:06.29	31.81	18.32	-53.3	-68.3	3.8	1.49e+00	0	43	104	0	77	21041
2026-01-24 23:47:07.30	31.90	18.43	-53.3	-68.3	3.8	1.49e+00	0	43	104	0	77	21023
2026-01-24 23:47:08.30	31.99	18.55	-53.3	-68.2	3.8	1.49e+00	0	43	104	0	77	20972
2026-01-24 23:47:09.32	32.08	18.66	-53.3	-68.2	3.8	1.49e+00	0	43	104	0	77	20975
2026-01-24 23:47:10.32	32.17	18.78	-53.3	-68.2	3.8	1.49e+00	0	43	104	0	77	20976
2026-01-24 23:47:11.33	32.27	18.89	-53.3	-68.2	3.8	1.49e+00	0	43	104	0	77	21013
2026-01-24 23:47:12.34	32.36	19.01	-53.3	-68.2	3.8	1.49e+00	0	43	104	0	77	21002
2026-01-24 23:47:13.35	32.45	19.13	-53.3	-68.2	3.8	1.49e+00	0	43	104	0	77	20984
2026-01-24 23:47:14.36	32.55	19.24	-53.3	-68.2	3.8	1.49e+00	0	43	104	0	77	20960
2026-01-24 23:47:15.37	32.64	19.36	-53.3	-68.2	3.8	1.49e+00	0	43	104	0	77	20933
2026-01-24 23:47:16.38	32.74	19.48	-53.3	-68.3	3.8	1.49e+00	0	43	104	0	77	21023
2026-01-24 23:47:17.38	32.83	19.60	-53.3	-68.2	3.8	1.49e+00	0	43	104	0	77	21017
2026-01-24 23:47:18.39	32.93	19.72	-53.3	-68.2	3.8	1.49e+00	0	43	104	0	77	21008
2026-01-24 23:47:19.40	33.03	19.84	-53.3	-68.2	3.8	1.49e+00	0	43	104	0	77	20996
2026-01-24 23:47:20.41	33.13	19.96	-53.3	-68.2	3.8	1.49e+00	0	43	104	0	77	21014
2026-01-24 23:47:21.42	33.23	20.08	-53.3	-68.2	3.8	1.49e+00	0	43	104	0	77	21000
2026-01-24 23:47:22.42	33.33	20.20	-53.3	-68.2	3.8	1.49e+00	0	43	104	0	77	20936
2026-01-24 23:47:23.43	33.43	20.32	-53.3	-68.2	3.8	1.49e+00	0	43	104	0	77	20957
2026-01-24 23:47:24.44	33.53	20.44	-53.3	-68.3	3.8	1.49e+00	0	43	104	0	77	21019
2026-01-24 23:47:25.44	33.63	20.57	-53.3	-68.2	3.8	1.49e+00	0	43	104	0	77	20981
2026-01-24 23:47:26.45	33.74	20.69	-53.3	-68.2	3.8	1.49e+00	0	43	104	0	77	21002
2026-01-24 23:47:27.46	33.84	20.81	-53.3	-68.3	3.8	1.49e+00	0	43	104	0	77	21036
2026-01-24 23:47:28.47	33.94	20.94	-53.3	-68.2	3.8	1.49e+00	0	43	104	0	77	20904
2026-01-24 23:47:29.47	34.05	21.06	-53.3	-68.2	3.8	1.49e+00	0	43	104	0	77	20961
2026-01-24 23:47:30.48	34.16	21.19	-53.3	-68.2	3.8	1.49e+00	0	43	104	0	77	20981
2026-01-24 23:47:31.49	34.26	21.31	-53.3	-68.2	3.8	1.49e+00	0	43	104	0	77	21006
2026-01-24 23:47:32.50	34.37	21.44	-53.3	-68.3	3.8	1.49e+00	0	43	104	0	77	21047
2026-01-24 23:47:33.51	34.48	21.57	-53.3	-68.3	3.8	1.49e+00	0	43	104	0	77	21018
2026-01-24 23:47:34.51	34.59	21.69	-53.3	-68.2	3.8	1.49e+00	0	43	104	0	77	20904
2026-01-24 23:47:35.52	34.70	21.82	-53.3	-68.2	3.8	1.49e+00	0	43	104	0	77	20990
2026-01-24 23:47:36.53	34.81	21.95	-53.3	-68.2	3.8	1.49e+00	0	43	104	0	77	21007
2026-01-24 23:47:37.54	34.93	22.08	-53.3	-68.2	3.8	1.49e+00	0	43	104	0	77	20924
2026-01-24 23:47:38.55	35.04	22.21	-53.3	-68.3	3.8	1.49e+00	0	43	104	0	77	21051
2026-01-24 23:47:39.56	35.15	22.34	-53.3	-68.2	3.8	1.49e+00	0	43	104	0	77	20960
2026-01-24 23:47:40.57	35.27	22.47	-53.3	-68.3	3.8	1.49e+00	0	43	104	0	77	21026
2026-01-24 23:47:41.57	35.38	22.60	-53.3	-68.2	3.8	1.49e+00	0	43	104	0	77	21010
2026-01-24 23:47:42.58	35.50	22.73	-53.3	-68.2	3.8	1.49e+00	0	43	104	0	77	21007
2026-01-24 23:47:43.59	35.62	22.87	-53.3	-68.2	3.8	1.49e+00	0	43	104	0	77	21009
2026-01-24 23:47:44.60	35.74	23.00	-53.3	-68.2	3.8	1.49e+00	0	43	104	0	77	21003
2026-01-24 23:47:45.61	35.86	23.13	-53.3	-68.2	3.8	1.49e+00	0	43	104	0	77	20981
2026-01-24 23:47:46.62	35.98	23.27	-53.3	-68.2	3.8	1.49e+00	0	43	104	0	77	20942
2026-01-24 23:47:47.62	36.10	23.40	-53.3	-68.2	3.8	1.49e+00	0	43	104	0	77	20998
2026-01-24 23:47:48.63	36.23	23.54	-53.3	-68.2	3.8	1.49e+00	0	43	104	0	77	20973
2026-01-24 23:47:49.64	36.35	23.68	-53.3	-68.2	3.8	1.49e+00	0	43	104	0	77	20993
2026-01-24 23:47:50.64	36.47	23.81	-53.3	-68.2	3.8	1.49e+00	0	43	104	0	77	20981
2026-01-24 23:47:51.65	36.60	23.95	-53.3	-68.2	3.8	1.49e+00	0	43	104	0	77	20979
2026-01-24 23:47:52.66	36.73	24.09	-53.3	-68.2	3.8	1.49e+00	0	43	104	0	77	20979
2026-01-24 23:47:53.67	36.86	24.22	-53.3	-68.2	3.8	1.49e+00	0	43	104	0	77	20973
2026-01-24 23:47:54.68	36.99	24.36	-53.3	-68.3	3.8	1.49e+00	0	43	104	0	77	21039
2026-01-24 23:47:55.68	37.11	24.50	-53.3	-68.2	3.8	1.49e+00	0	43	104	0	77	20950
2026-01-24 23:47:56.69	37.25	24.64	-53.3	-68.2	3.8	1.49e+00	0	43	104	0	77	20944
2026-01-24 23:47:57.70	37.38	24.78	-53.3	-68.2	3.8	1.49e+00	0	43	104	0	77	20992
2026-01-24 23:47:58.70	37.51	24.92	-53.3	-68.2	3.8	1.49e+00	0	43	104	0	77	20992
2026-01-24 23:47:59.71	37.65	25.07	-53.3	-68.3	3.8	1.49e+00	0	43	104	0	77	21036
2026-01-24 23:48:00.72	37.78	25.21	-53.3	-68.2	3.8	1.49e+00	0	43	104	0	77	20944
2026-01-24 23:48:01.73	37.92	25.35	-53.3	-68.2	3.8	1.49e+00	0	43	104	0	77	20977
2026-01-24 23:48:02.74	38.06	25.50	-53.3	-68.2	3.8	1.49e+00	0	43	104	0	77	20973
2026-01-24 23:48:03.74	38.20	25.64	-53.3	-68.2	3.8	1.49e+00	0	43	104	0	77	20977
2026-01-24 23:48:04.75	38.34	25.78	-53.3	-68.2	3.8	1.49e+00	0	43	104	0	77	20950
2026-01-24 23:48:05.76	38.48	25.93	-53.3	-68.3	3.8	1.49e+00	0	43	104	0	77	21028
2026-01-24 23:48:06.77	38.63	26.08	-53.3	-68.2	3.8	1.49e+00	0	43	104	0	77	20969
2026-01-24 23:48:07.78	38.77	26.22	-53.3	-68.2	3.8	1.49e+00	0	43	104	0	77	21015
2026-01-24 23:48:08.78	38.92	26.37	-53.3	-68.2	3.8	1.49e+00	0	43	104	0	77	20985
2026-01-24 23:48:09.79	39.07	26.52	-53.3	-68.2	3.8	1.49e+00	0	43	104	0	77	20973
2026-01-24 23:48:10.80	39.22	26.67	-53.3	-68.2	3.8	1.49e+00	0	43	104	0	77	20997
2026-01-24 23:48:11.81	39.37	26.82	-53.3	-68.2	3.8	1.49e+00	0	43	104	0	77	20995
2026-01-24 23:48:12.82	39.52	26.97	-53.3	-68.2	3.8	1.49e+00	0	43	104	0	77	20936
2026-01-24 23:48:13.82	39.67	27.12	-53.3	-68.2	3.8	1.49e+00	0	43	104	0	77	21002
2026-01-24 23:48:14.83	39.82	27.27	-53.3	-68.2	3.8	1.49e+00	0	43	104	0	77	20999
2026-01-24 23:48:15.84	39.98	27.42	-53.3	-68.2	3.8	1.49e+00	0	43	104	0	77	20986
2026-01-24 23:48:16.85	40.14	27.57	-53.3	-68.2	3.8	1.49e+00	0	43	104	0	77	21001
2026-01-24 23:48:17.86	40.30	27.73	-53.3	-68.2	3.8	1.49e+00	0	43	104	0	77	20916
2026-01-24 23:48:18.86	40.46	27.88	-53.3	-68.2	3.8	1.49e+00	0	43	104	0	77	20943
2026-01-24 23:48:19.87	40.62	28.03	-53.3	-68.2	3.8	1.49e+00	0	43	104	0	77	20983
2026-01-24 23:48:20.88	40.78	28.19	-53.3	-68.2	3.8	1.49e+00	0	43	104	0	77	20974
2026-01-24 23:48:21.89	40.95	28.35	-53.3	-68.2	3.8	1.49e+00	0	43	104	0	77	20971
2026-01-24 23:48:22.89	41.11	28.50	-53.3	-68.2	3.8	1.49e+00	0	43	104	0	77	20986
2026-01-24 23:48:23.90	41.28	28.66	-53.3	-68.2	3.8	1.49e+00	0	43	104	0	77	21014
2026-01-24 23:48:24.91	41.45	28.82	-53.3	-68.2	3.8	1.49e+00	0	43	104	0	77	20990
2026-01-24 23:48:25.92	41.62	28.97	-53.3	-68.2	3.8	1.49e+00	0	43	104	0	77	20976
2026-01-24 23:48:26.92	41.79	29.13	-53.3	-68.2	3.8	1.49e+00	0	43	104	0	77	20990
2026-01-24 23:48:27.93	41.97	29.29	-53.3	-68.2	3.8	1.49e+00	0	43	104	0	77	20999
2026-01-24 23:48:28.94	42.14	29.45	-53.3	-68.2	3.8	1.49e+00	0	43	104	0	77	21008
2026-01-24 23:48:29.95	42.32	29.61	-53.3	-68.2	3.8	1.49e+00	0	43	104	0	77	20974
2026-01-24 23:48:30.96	42.50	29.77	-53.3	-68.3	3.8	1.49e+00	0	43	104	0	77	21042
2026-01-24 23:48:31.96	42.68	29.93	-53.3	-68.3	3.8	1.49e+00	0	43	104	0	77	21043
2026-01-24 23:48:32.97	42.87	30.10	-53.3	-68.2	3.8	1.49e+00	0	43	104	0	77	20971
2026-01-24 23:48:33.98	43.05	30.26	-53.3	-68.2	3.8	1.49e+00	0	43	104	0	77	21009
2026-01-24 23:48:34.99	43.24	30.43	-53.3	-68.2	3.8	1.49e+00	0	43	104	0	77	20997
2026-01-24 23:48:36.00	43.43	30.59	-53.3	-68.2	3.8	1.49e+00	0	43	104	0	77	20980
2026-01-24 23:48:37.01	43.62	30.76	-53.3	-68.2	3.8	1.49e+00	0	43	104	0	77	20987
2026-01-24 23:48:38.01	43.81	30.92	-53.3	-68.2	3.8	1.49e+00	0	43	104	0	77	20926
2026-01-24 23:48:39.02	44.00	31.09	-53.3	-68.2	3.8	1.49e+00	0	43	104	0	77	20964
2026-01-24 23:48:40.03	44.20	31.25	-53.3	-68.2	3.8	1.49e+00	0	43	104	0	77	20984
2026-01-24 23:48:41.04	44.40	31.42	-53.3	-68.2	3.8	1.49e+00	0	43	104	0	77	20995
2026-01-24 23:48:42.05	44.60	31.59	-53.3	-68.2	3.8	1.49e+00	0	43	104	0	77	21010
2026-01-24 23:48:43.06	44.80	31.76	-53.3	-68.2	3.8	1.49e+00	0	43	104	0	77	20957
2026-01-24 23:48:44.06	45.01	31.93	-53.3	-68.3	3.8	1.49e+00	0	43	104	0	77	21033
2026-01-24 23:48:45.07	45.21	32.10	-53.3	-68.3	3.8	1.49e+00	0	43	104	0	77	21022
2026-01-24 23:48:46.08	45.42	32.27	-53.3	-68.2	3.8	1.49e+00	0	43	104	0	77	20927
2026-01-24 23:48:47.09	45.63	32.44	-53.3	-68.2	3.8	1.49e+00	0	43	104	0	77	20999
2026-01-24 23:48:48.09	45.85	32.61	-53.3	-68.2	3.8	1.49e+00	0	43	104	0	77	20979
2026-01-24 23:48:49.10	46.06	32.78	-53.3	-68.3	3.8	1.49e+00	0	43	104	0	77	21027
2026-01-24 23:48:50.11	46.28	32.95	-53.3	-68.3	3.8	1.49e+00	0	43	104	0	77	21040
2026-01-24 23:48:51.12	46.50	33.13	-53.3	-68.3	3.8	1.49e+00	0	43	104	0	77	21044
2026-01-24 23:48:52.13	46.72	33.30	-53.3	-68.2	3.8	1.49e+00	0	43	104	0	77	20956
2026-01-24 23:48:53.14	46.95	33.47	-53.3	-68.2	3.8	1.49e+00	0	43	104	0	77	20983
2026-01-24 23:48:54.14	47.17	33.65	-53.3	-68.2	3.8	1.49e+00	0	43	104	0	77	20976
2026-01-24 23:48:55.15	47.40	33.82	-53.3	-68.2	3.8	1.49e+00	0	43	104	0	77	20993
2026-01-24 23:48:56.16	47.63	34.00	-53.3	-68.2	3.8	1.49e+00	0	43	104	0	77	20979
2026-01-24 23:48:57.17	47.87	34.18	-53.3	-68.2	3.8	1.49e+00	0	43	104	0	77	20965
2026-01-24 23:48:58.17	48.10	34.35	-53.3	-68.2	3.8	1.49e+00	0	43	104	0	77	20978
2026-01-24 23:48:59.18	48.34	34.53	-53.3	-68.2	3.8	1.49e+00	0	43	104	0	77	20997
2026-01-24 23:49:00.19	48.58	34.71	-53.3	-68.2	3.8	1.49e+00	0	43	104	0	77	21013
2026-01-24 23:49:01.20	48.83	34.89	-53.3	-68.2	3.8	1.49e+00	0	43	104	0	77	20998
2026-01-24 23:49:02.21	49.08	35.06	-53.3	-68.3	3.8	1.49e+00	0	43	104	0	77	21043
2026-01-24 23:49:03.22	49.33	35.24	-53.3	-68.2	3.8	1.49e+00	0	43	104	0	77	20964
2026-01-24 23:49:04.22	49.58	35.42	-53.3	-68.2	3.8	1.49e+00	0	43	104	0	77	20981
2026-01-24 23:49:05.23	49.83	35.60	-53.3	-68.2	3.8	1.49e+00	0	43	104	0	77	21005
2026-01-24 23:49:06.24	50.09	35.78	-53.3	-68.2	3.8	1.49e+00	0	43	104	0	77	21017
2026-01-24 23:49:07.25	50.35	35.96	-53.3	-68.2	3.8	1.49e+00	0	43	104	0	77	20934
2026-01-24 23:49:08.25	50.61	36.14	-53.3	-68.2	3.8	1.49e+00	0	43	104	0	77	21001
2026-01-24 23:49:09.26	50.88	36.32	-53.3	-68.2	3.8	1.49e+00	0	43	104	0	77	21000
2026-01-24 23:49:10.27	51.15	36.51	-53.3	-68.3	3.8	1.49e+00	0	43	104	0	77	21044
2026-01-24 23:49:11.28	51.42	36.69	-53.3	-68.2	3.8	1.49e+00	0	43	104	0	77	20977
2026-01-24 23:49:12.29	51.70	36.87	-53.3	-68.2	3.8	1.49e+00	0	43	104	0	77	21016
2026-01-24 23:49:13.30	51.98	37.05	-53.3	-68.3	3.8	1.49e+00	0	43	104	0	77	21021
2026-01-24 23:49:14.30	52.26	37.24	-53.3	-68.2	3.8	1.49e+00	0	43	104	0	77	21002
2026-01-24 23:49:15.31	52.54	37.42	-53.3	-68.2	3.8	1.49e+00	0	43	104	0	77	20992
2026-01-24 23:49:16.32	52.83	37.60	-53.3	-68.2	3.8	1.49e+00	0	43	104	0	77	20986
2026-01-24 23:49:17.33	53.12	37.79	-53.3	-68.2	3.8	1.49e+00	0	43	104	0	77	20988
2026-01-24 23:49:18.34	53.42	37.97	-53.3	-68.3	3.8	1.49e+00	0	43	104	0	77	21037
2026-01-24 23:49:19.34	53.71	38.15	-53.3	-68.2	3.8	1.49e+00	0	43	104	0	77	20998
2026-01-24 23:49:20.35	54.01	38.34	-53.3	-68.2	3.8	1.49e+00	0	43	104	0	77	20996
2026-01-24 23:49:21.36	54.32	38.52	-53.3	-68.3	3.8	1.49e+00	0	43	104	0	77	21043
2026-01-24 23:49:22.37	54.63	38.71	-53.3	-68.2	3.8	1.49e+00	0	43	104	0	77	21011
2026-01-24 23:49:23.38	54.94	38.89	-53.3	-68.2	3.8	1.49e+00	0	43	104	0	77	20981
2026-01-24 23:49:24.38	55.25	39.08	-53.3	-68.2	3.8	1.49e+00	0	43	104	0	77	21011
2026-01-24 23:49:25.39	55.57	39.26	-53.3	-68.2	3.8	1.49e+00	0	43	104	0	77	20982
2026-01-24 23:49:26.40	55.89	39.44	-53.3	-68.2	3.8	1.49e+00	0	43	104	0	77	20994
2026-01-24 23:49:27.41	56.22	39.63	-53.3	-68.2	3.8	1.49e+00	0	43	104	0	77	20966
2026-01-24 23:49:28.41	56.54	39.81	-53.3	-68.2	3.8	1.49e+00	0	43	104	0	77	20955
2026-01-24 23:49:29.42	56.88	40.00	-53.3	-68.3	3.8	1.49e+00	0	43	104	0	77	21018
2026-01-24 23:49:30.43	57.21	40.18	-53.3	-68.2	3.8	1.49e+00	0	43	104	0	77	20966
2026-01-24 23:49:31.44	57.55	40.37	-53.3	-68.3	3.8	1.49e+00	0	43	104	0	77	21018
2026-01-24 23:49:32.45	57.90	40.55	-53.3	-68.3	3.8	1.49e+00	0	43	104	0	77	21036
2026-01-24 23:49:33.45	58.24	40.73	-53.3	-68.2	3.8	1.49e+00	0	43	104	0	77	20962
2026-01-24 23:49:34.46	58.60	40.92	-53.3	-68.2	3.8	1.49e+00	0	43	104	0	77	20969
2026-01-24 23:49:35.47	58.95	41.10	-53.3	-68.2	3.8	1.49e+00	0	43	104	0	77	20930
2026-01-24 23:49:36.48	59.31	41.28	-53.3	-68.2	3.8	1.49e+00	0	43	104	0	77	20976
2026-01-24 23:49:37.49	59.68	41.47	-53.3	-68.3	3.8	1.49e+00	0	43	104	0	77	21047
2026-01-24 23:49:38.50	60.05	41.65	-53.3	-68.2	3.8	1.49e+00	0	43	104	0	77	20982
2026-01-24 23:49:39.50	60.41	41.83	-53.3	-68.2	3.8	1.49e+00	0	43	104	0	77	20974
2026-01-24 23:49:40.51	60.79	42.01	-53.3	-68.2	3.8	1.49e+00	0	43	104	0	77	20974
2026-01-24 23:49:41.52	61.17	42.20	-53.3	-68.2	3.8	1.49e+00	0	43	104	0	77	20992
2026-01-24 23:49:42.52	61.55	42.37	-53.3	-68.2	3.8	1.49e+00	0	43	104	0	77	21010
2026-01-24 23:49:43.53	61.94	42.55	-53.3	-68.2	3.8	1.49e+00	0	43	104	0	77	20974
2026-01-24 23:49:44.54	62.34	42.73	-53.3	-68.3	3.8	1.49e+00	0	43	104	0	77	21038
2026-01-24 23:49:45.55	62.74	42.91	-53.3	-68.2	3.8	1.49e+00	0	43	104	0	77	20991
2026-01-24 23:49:46.55	63.13	43.09	-53.3	-68.2	3.8	1.49e+00	0	43	104	0	77	20974
2026-01-24 23:49:47.56	63.54	43.27	-53.3	-68.2	3.8	1.49e+00	0	43	104	0	77	21004
2026-01-24 23:49:48.57	63.95	43.45	-53.3	-68.2	3.8	1.49e+00	0	43	104	0	77	20995
2026-01-24 23:49:49.58	64.37	43.62	-53.3	-68.2	3.8	1.49e+00	0	43	104	0	77	20989
2026-01-24 23:49:50.59	64.79	43.80	-53.3	-68.2	3.8	1.49e+00	0	43	104	0	77	20936
2026-01-24 23:49:51.60	65.21	43.97	-53.3	-68.2	3.8	1.49e+00	0	43	104	0	77	21012
2026-01-24 23:49:52.60	65.64	44.14	-53.3	-68.2	3.8	1.49e+00	0	43	104	0	77	20946
2026-01-24 23:49:53.61	66.07	44.32	-53.3	-68.3	3.8	1.49e+00	0	43	104	0	77	21034
2026-01-24 23:49:54.62	66.51	44.49	-53.3	-68.2	3.8	1.49e+00	0	43	104	0	77	20969
2026-01-24 23:49:55.63	66.96	44.66	-53.3	-68.2	3.8	1.49e+00	0	43	104	0	77	20991
2026-01-24 23:49:56.63	67.40	44.83	-53.3	-68.2	3.8	1.49e+00	0	43	104	0	77	21012
2026-01-24 23:49:57.64	67.86	44.99	-53.3	-68.2	3.8	1.49e+00	0	43	104	0	77	20967
2026-01-24 23:49:58.65	68.31	45.16	-53.3	-68.2	3.8	1.49e+00	0	43	104	0	77	20977
2026-01-24 23:49:59.66	68.78	45.33	-53.3	-68.2	3.8	1.49e+00	0	43	104	0	77	20991
2026-01-24 23:50:00.67	69.24	45.49	-53.3	-68.2	3.8	1.49e+00	0	43	104	0	77	20991
2026-01-24 23:50:01.67	69.71	45.65	-53.3	-68.3	3.8	1.49e+00	0	43	104	0	77	21024
2026-01-24 23:50:02.68	70.19	45.81	-53.3	-68.3	3.8	1.49e+00	0	43	104	0	77	21061
2026-01-24 23:50:03.69	70.67	45.97	-53.3	-68.2	3.8	1.49e+00	0	43	104	0	77	20993
2026-01-24 23:50:04.70	71.16	46.13	-53.3	-68.2	3.8	1.49e+00	0	43	104	0	77	20991
2026-01-24 23:50:05.71	71.65	46.29	-53.3	-68.2	3.8	1.49e+00	0	43	104	0	77	20990
2026-01-24 23:50:06.71	72.14	46.44	-53.3	-68.2	3.8	1.49e+00	0	43	104	0	77	21012
2026-01-24 23:50:07.72	72.64	46.60	-53.3	-68.2	3.8	1.49e+00	0	43	104	0	77	20980
2026-01-24 23:50:08.73	73.15	46.75	-53.3	-68.2	3.8	1.49e+00	0	43	104	0	77	20988
2026-01-24 23:50:09.74	73.66	46.90	-53.3	-68.2	3.8	1.49e+00	0	43	104	0	77	20989
2026-01-24 23:50:10.75	74.18	47.05	-53.3	-68.2	3.8	1.49e+00	0	43	104	0	77	20982
2026-01-24 23:50:11.75	74.69	47.19	-53.3	-68.2	3.8	1.49e+00	0	43	104	0	77	20951
2026-01-24 23:50:12.76	75.22	47.33	-53.3	-68.2	3.8	1.49e+00	0	43	104	0	77	20956
2026-01-24 23:50:13.77	75.75	47.48	-53.3	-68.2	3.8	1.49e+00	0	43	104	0	77	20966
2026-01-24 23:50:14.78	76.28	47.62	-53.3	-68.2	3.8	1.49e+00	0	43	104	0	77	20982
2026-01-24 23:50:15.78	76.82	47.75	-53.3	-68.2	3.8	1.49e+00	0	43	104	0	77	20985
2026-01-24 23:50:16.79	77.36	47.89	-53.3	-68.2	3.8	1.49e+00	0	43	104	0	77	20972
2026-01-24 23:50:17.80	77.91	48.02	-53.3	-68.2	3.8	1.49e+00	0	43	104	0	77	20998
2026-01-24 23:50:18.81	78.46	48.15	-53.3	-68.2	3.8	1.49e+00	0	43	104	0	77	21004
2026-01-24 23:50:19.82	79.02	48.28	-53.3	-68.2	3.8	1.49e+00	0	43	104	0	77	20960
2026-01-24 23:50:20.82	79.58	48.40	-53.3	-68.2	3.8	1.49e+00	0	43	104	0	77	20946
2026-01-24 23:50:21.83	80.15	48.52	-53.3	-68.2	3.8	1.49e+00	0	43	104	0	77	21012
2026-01-24 23:50:22.84	80.72	48.64	-53.3	-68.3	3.8	1.49e+00	0	43	104	0	77	21036
2026-01-24 23:50:23.84	81.29	48.76	-53.3	-68.2	3.8	1.49e+00	0	43	104	0	77	20959
2026-01-24 23:50:24.85	81.87	48.87	-53.3	-68.2	3.8	1.49e+00	0	43	104	0	77	20983
2026-01-24 23:50:25.86	82.46	48.99	-53.3	-68.2	3.8	1.49e+00	0	43	104	0	77	20946
2026-01-24 23:50:26.87	83.04	49.09	-53.3	-68.3	3.8	1.49e+00	0	43	104	0	77	21048
2026-01-24 23:50:27.88	83.64	49.20	-53.3	-68.2	3.8	1.49e+00	0	43	104	0	77	20983
2026-01-24 23:50:28.88	84.23	49.30	-53.3	-68.2	3.8	1.49e+00	0	43	104	0	77	20975
2026-01-24 23:50:29.89	84.83	49.40	-53.3	-68.2	3.8	1.49e+00	0	43	104	0	77	20969
2026-01-24 23:50:30.90	85.43	49.50	-53.3	-68.2	3.8	1.49e+00	0	43	104	0	77	20978
2026-01-24 23:50:31.91	86.04	49.59	-53.3	-68.2	3.8	1.49e+00	0	43	104	0	77	20964
2026-01-24 23:50:32.92	86.66	49.68	-53.3	-68.2	3.8	1.49e+00	0	43	104	0	77	20945
2026-01-24 23:50:33.92	87.27	49.77	-53.3	-68.2	3.8	1.49e+00	0	43	104	0	77	21005
2026-01-24 23:50:34.93	87.89	49.85	-53.3	-68.2	3.8	1.49e+00	0	43	104	0	77	20976
2026-01-24 23:50:35.94	88.51	49.93	-53.3	-68.2	3.8	1.49e+00	0	43	104	0	77	20988
2026-01-24 23:50:36.95	89.13	50.01	-53.3	-68.2	3.8	1.49e+00	0	43	104	0	77	20966
2026-01-24 23:50:37.95	89.76	50.09	-53.3	-68.2	3.8	1.49e+00	0	43	104	0	77	21002
2026-01-24 23:50:38.96	90.39	50.16	-53.3	-68.2	3.8	1.49e+00	0	43	104	0	77	20982
2026-01-24 23:50:39.97	91.02	50.22	-53.2	-68.2	3.8	1.49e+00	0	43	104	0	77	20928
2026-01-24 23:50:40.97	91.66	50.28	-53.3	-68.2	3.8	1.49e+00	0	43	104	0	77	20966
2026-01-24 23:50:41.98	92.30	50.34	-53.3	-68.2	3.8	1.49e+00	0	43	104	0	77	20957
2026-01-24 23:50:42.99	92.94	50.40	-53.3	-68.3	3.8	1.49e+00	0	43	104	0	77	21038
2026-01-24 23:50:44.00	93.58	50.45	-53.3	-68.2	3.8	1.49e+00	0	43	104	0	77	20991
2026-01-24 23:50:45.01	94.23	50.50	-53.3	-68.2	3.8	1.49e+00	0	43	104	0	77	20948
2026-01-24 23:50:46.02	94.88	50.55	-53.3	-68.2	3.8	1.49e+00	0	43	104	0	77	20989
2026-01-24 23:50:47.02	95.52	50.59	-53.3	-68.2	3.8	1.49e+00	0	43	104	0	77	20969
2026-01-24 23:50:48.03	96.18	50.62	-53.3	-68.2	3.8	1.49e+00	0	43	104	0	77	21008
2026-01-24 23:50:49.04	96.83	50.66	-53.3	-68.2	3.8	1.49e+00	0	43	104	0	77	20996
2026-01-24 23:50:50.05	97.49	50.69	-53.3	-68.2	3.8	1.49e+00	0	43	104	0	77	20980
2026-01-24 23:50:51.05	98.14	50.71	-53.3	-68.2	3.8	1.49e+00	0	43	104	0	77	20956
2026-01-24 23:50:52.06	98.79	50.73	-53.3	-68.3	3.8	1.49e+00	0	43	104	0	77	21024
2026-01-24 23:50:53.07	99.45	50.75	-53.3	-68.2	3.8	1.49e+00	0	43	104	0	77	20962
2026-01-24 23:50:54.08	100.11	50.77	-53.3	-68.2	3.8	1.49e+00	0	43	104	0	77	20981
2026-01-24 23:50:55.09	100.77	50.78	-53.3	-68.2	3.8	1.49e+00	0	43	104	0	77	21009
2026-01-24 23:50:56.10	101.43	50.78	-53.3	-68.2	3.8	1.49e+00	0	43	104	0	77	20971
2026-01-24 23:50:57.10	102.09	50.79	-53.3	-68.2	3.8	1.49e+00	0	43	104	0	77	20983
2026-01-24 23:50:58.11	102.75	50.78	-53.3	-68.2	3.8	1.49e+00	0	43	104	0	77	20942
2026-01-24 23:50:59.12	103.41	50.78	-53.3	-68.2	3.8	1.49e+00	0	43	104	0	77	20922
2026-01-24 23:51:00.12	104.06	50.77	-53.3	-68.2	3.8	1.49e+00	0	43	104	0	77	20920
2026-01-24 23:51:01.13	104.72	50.76	-53.3	-68.2	3.8	1.49e+00	0	43	104	0	77	21006
2026-01-24 23:51:02.14	105.38	50.74	-53.3	-68.2	3.8	1.49e+00	0	43	104	0	77	20914
2026-01-24 23:51:03.15	106.04	50.72	-53.3	-68.2	3.8	1.49e+00	0	43	104	0	77	20953
2026-01-24 23:51:04.16	106.69	50.69	-53.3	-68.2	3.8	1.49e+00	0	43	104	0	77	21000
2026-01-24 23:51:05.16	107.34	50.66	-53.2	-68.2	3.8	1.49e+00	0	43	104	0	77	20945
2026-01-24 23:51:06.17	108.00	50.63	-53.3	-68.2	3.8	1.49e+00	0	43	104	0	77	20963
2026-01-24 23:51:07.18	108.65	50.60	-53.3	-68.2	3.8	1.49e+00	0	43	104	0	77	21002
2026-01-24 23:51:08.19	109.30	50.55	-53.3	-68.2	3.8	1.49e+00	0	43	104	0	77	21009
2026-01-24 23:51:09.19	109.95	50.51	-53.3	-68.2	3.8	1.49e+00	0	43	104	0	77	20938
2026-01-24 23:51:10.20	110.59	50.46	-53.3	-68.2	3.8	1.49e+00	0	43	104	0	77	20937
2026-01-24 23:51:11.21	111.24	50.41	-53.3	-68.2	3.8	1.49e+00	0	43	104	0	77	20954
2026-01-24 23:51:12.22	111.88	50.36	-53.3	-68.2	3.8	1.49e+00	0	43	104	0	77	21014
2026-01-24 23:51:13.22	112.52	50.30	-53.3	-68.2	3.8	1.49e+00	0	43	104	0	77	20998
2026-01-24 23:51:14.23	113.16	50.24	-53.3	-68.2	3.8	1.49e+00	0	43	104	0	77	20983
2026-01-24 23:51:15.24	113.79	50.17	-53.3	-68.2	3.8	1.49e+00	0	43	104	0	77	21004
2026-01-24 23:51:16.25	114.42	50.10	-53.3	-68.2	3.8	1.49e+00	0	43	104	0	77	20936
2026-01-24 23:51:17.26	115.05	50.03	-53.3	-68.2	3.8	1.49e+00	0	43	104	0	77	20961
2026-01-24 23:51:18.26	115.68	49.95	-53.3	-68.2	3.8	1.49e+00	0	43	104	0	77	21010
2026-01-24 23:51:19.27	116.30	49.87	-53.3	-68.2	3.8	1.49e+00	0	43	104	0	77	20960
2026-01-24 23:51:20.28	116.92	49.79	-53.3	-68.2	3.8	1.49e+00	0	43	104	0	77	20926
2026-01-24 23:51:21.29	117.54	49.70	-53.3	-68.2	3.8	1.49e+00	0	43	104	0	77	20975
2026-01-24 23:51:22.30	118.15	49.61	-53.3	-68.2	3.8	1.49e+00	0	43	104	0	77	21013
2026-01-24 23:51:23.30	118.76	49.52	-53.3	-68.2	3.8	1.49e+00	0	43	104	0	77	20985
2026-01-24 23:51:24.31	119.36	49.42	-53.3	-68.2	3.8	1.49e+00	0	43	104	0	77	21000
2026-01-24 23:51:25.32	119.96	49.32	-53.3	-68.2	3.8	1.49e+00	0	43	104	0	77	20999
2026-01-24 23:51:26.33	120.56	49.22	-53.3	-68.2	3.8	1.49e+00	0	43	104	0	77	20969
2026-01-24 23:51:27.34	121.16	49.12	-53.3	-68.2	3.8	1.49e+00	0	43	104	0	77	21011
2026-01-24 23:51:28.34	121.74	49.01	-53.2	-68.2	3.8	1.49e+00	0	43	104	0	77	20951
2026-01-24 23:51:29.35	122.33	48.90	-53.3	-68.2	3.8	1.49e+00	0	43	104	0	77	20949
2026-01-24 23:51:30.36	122.91	48.78	-53.3	-68.2	3.8	1.49e+00	0	43	104	0	77	20945
2026-01-24 23:51:31.37	123.49	48.67	-53.3	-68.2	3.8	1.49e+00	0	43	104	0	77	20987
2026-01-24 23:51:32.37	124.06	48.55	-53.3	-68.2	3.8	1.49e+00	0	43	104	0	77	20922
2026-01-24 23:51:33.38	124.63	48.42	-53.3	-68.3	3.8	1.49e+00	0	43	104	0	77	21028
2026-01-24 23:51:34.39	125.19	48.30	-53.3	-68.2	3.8	1.49e+00	0	43	104	0	77	20998
2026-01-24 23:51:35.40	125.75	48.17	-53.3	-68.3	3.8	1.49e+00	0	43	104	0	77	21022
2026-01-24 23:51:36.41	126.31	48.04	-53.3	-68.2	3.8	1.49e+00	0	43	104	0	77	20961
2026-01-24 23:51:37.42	126.86	47.91	-53.3	-68.2	3.8	1.49e+00	0	43	104	0	77	20983
2026-01-24 23:51:38.42	127.40	47.78	-53.3	-68.2	3.8	1.49e+00	0	43	104	0	77	20975
2026-01-24 23:51:39.43	127.94	47.64	-53.3	-68.2	3.8	1.49e+00	0	43	104	0	77	20962
2026-01-24 23:51:40.44	128.48	47.50	-53.3	-68.2	3.8	1.49e+00	0	43	104	0	77	21008
2026-01-24 23:51:41.44	129.00	47.36	-53.3	-68.2	3.8	1.49e+00	0	43	104	0	77	20996
2026-01-24 23:51:42.45	129.53	47.22	-53.3	-68.2	3.8	1.49e+00	0	43	104	0	77	20948
2026-01-24 23:51:43.46	130.05	47.07	-53.3	-68.2	3.8	1.49e+00	0	43	104	0	77	20955
2026-01-24 23:51:44.47	130.57	46.92	-53.3	-68.2	3.8	1.49e+00	0	43	104	0	77	20966
2026-01-24 23:51:45.47	131.08	46.77	-53.3	-68.2	3.8	1.49e+00	0	43	104	0	77	20991
2026-01-24 23:51:46.48	131.59	46.62	-53.3	-68.2	3.8	1.49e+00	0	43	104	0	77	20950
2026-01-24 23:51:47.49	132.09	46.47	-53.3	-68.2	3.8	1.49e+00	0	43	104	0	77	20975
2026-01-24 23:51:48.50	132.59	46.31	-53.3	-68.2	3.8	1.49e+00	0	43	104	0	77	20984
2026-01-24 23:51:49.51	133.08	46.16	-53.3	-68.2	3.8	1.49e+00	0	43	104	0	77	21007
2026-01-24 23:51:50.51	133.57	46.00	-53.3	-68.2	3.8	1.49e+00	0	43	104	0	77	20940
2026-01-24 23:51:51.52	134.05	45.84	-53.2	-68.3	3.8	1.49e+00	0	43	104	0	77	21030
2026-01-24 23:51:52.53	134.53	45.68	-53.3	-68.2	3.8	1.49e+00	0	43	104	0	77	20980
2026-01-24 23:51:53.54	135.00	45.52	-53.3	-68.2	3.8	1.49e+00	0	43	104	0	77	20985
2026-01-24 23:51:54.54	135.47	45.35	-53.3	-68.2	3.8	1.49e+00	0	43	104	0	77	20928
2026-01-24 23:51:55.55	135.93	45.19	-53.3	-68.2	3.8	1.49e+00	0	43	104	0	77	21013
2026-01-24 23:51:56.56	136.39	45.02	-53.3	-68.2	3.8	1.49e+00	0	43	104	0	77	20999
2026-01-24 23:51:57.57	136.85	44.85	-53.3	-68.2	3.8	1.49e+00	0	43	104	0	77	20948
2026-01-24 23:51:58.57	137.29	44.68	-53.2	-68.2	3.8	1.49e+00	0	43	104	0	77	20934
2026-01-24 23:51:59.58	137.74	44.51	-53.3	-68.2	3.8	1.49e+00	0	43	104	0	77	20949
2026-01-24 23:52:00.59	138.18	44.34	-53.3	-68.2	3.8	1.49e+00	0	43	104	0	77	20985
2026-01-24 23:52:01.60	138.61	44.17	-53.3	-68.2	3.8	1.49e+00	0	43	104	0	77	20998
2026-01-24 23:52:02.61	139.05	43.99	-53.3	-68.3	3.8	1.49e+00	0	43	104	0	77	21020
2026-01-24 23:52:03.61	139.47	43.82	-53.3	-68.2	3.8	1.49e+00	0	43	104	0	77	20977
2026-01-24 23:52:04.62	139.89	43.64	-53.3	-68.2	3.8	1.49e+00	0	43	104	0	77	21013
2026-01-24 23:52:05.63	140.31	43.47	-53.3	-68.2	3.8	1.49e+00	0	43	104	0	77	20951
2026-01-24 23:52:06.64	140.72	43.29	-53.3	-68.2	3.8	1.49e+00	0	43	104	0	77	21003
2026-01-24 23:52:07.65	141.13	43.11	-53.3	-68.2	3.8	1.49e+00	0	43	104	0	77	20941
2026-01-24 23:52:08.66	141.53	42.93	-53.3	-68.2	3.8	1.49e+00	0	43	104	0	77	21007
2026-01-24 23:52:09.66	141.93	42.76	-53.3	-68.2	3.8	1.49e+00	0	43	104	0	77	21006
2026-01-24 23:52:10.67	142.33	42.57	-53.3	-68.2	3.8	1.49e+00	0	43	104	0	77	20948
2026-01-24 23:52:11.68	142.72	42.39	-53.3	-68.2	3.8	1.49e+00	0	43	104	0	77	20991
2026-01-24 23:52:12.69	143.10	42.21	-53.3	-68.2	3.8	1.49e+00	0	43	104	0	77	20998
2026-01-24 23:52:13.69	143.48	42.03	-53.3	-68.2	3.8	1.49e+00	0	43	104	0	77	20984
2026-01-24 23:52:14.70	143.86	41.85	-53.3	-68.2	3.8	1.49e+00	0	43	104	0	77	20997
2026-01-24 23:52:15.71	144.23	41.67	-53.3	-68.2	3.8	1.49e+00	0	43	104	0	77	21001
2026-01-24 23:52:16.72	144.60	41.48	-53.3	-68.2	3.8	1.49e+00	0	43	104	0	77	20971
2026-01-24 23:52:17.73	144.97	41.30	-53.3	-68.2	3.8	1.49e+00	0	43	104	0	77	20947
2026-01-24 23:52:18.74	145.33	41.12	-53.3	-68.2	3.8	1.49e+00	0	43	104	0	77	20968
2026-01-24 23:52:19.74	145.69	40.93	-53.3	-68.2	3.8	1.49e+00	0	43	104	0	77	20991
2026-01-24 23:52:20.75	146.04	40.75	-53.3	-68.2	3.8	1.49e+00	0	43	104	0	77	20995
2026-01-24 23:52:21.76	146.39	40.56	-53.3	-68.2	3.8	1.49e+00	0	43	104	0	77	20944
2026-01-24 23:52:22.77	146.74	40.38	-53.3	-68.2	3.8	1.49e+00	0	43	104	0	77	20997
2026-01-24 23:52:23.78	147.08	40.19	-53.3	-68.2	3.8	1.49e+00	0	43	104	0	77	20970
2026-01-24 23:52:24.78	147.41	40.01	-53.3	-68.2	3.8	1.49e+00	0	43	104	0	77	20980
2026-01-24 23:52:25.79	147.75	39.82	-53.3	-68.2	3.8	1.49e+00	0	43	104	0	77	20989
2026-01-24 23:52:26.80	148.08	39.64	-53.3	-68.2	3.8	1.49e+00	0	43	104	0	77	20964
2026-01-24 23:52:27.80	148.40	39.46	-53.3	-68.2	3.8	1.49e+00	0	43	104	0	77	20949
2026-01-24 23:52:28.81	148.73	39.27	-53.3	-68.2	3.8	1.49e+00	0	43	104	0	77	20976
2026-01-24 23:52:29.82	149.05	39.08	-53.3	-68.2	3.8	1.49e+00	0	43	104	0	77	20921
2026-01-24 23:52:30.83	149.36	38.90	-53.3	-68.2	3.8	1.49e+00	0	43	104	0	77	20987
2026-01-24 23:52:31.84	149.67	38.71	-53.3	-68.3	3.8	1.49e+00	0	43	104	0	77	21018
2026-01-24 23:52:32.84	149.98	38.53	-53.3	-68.2	3.8	1.49e+00	0	43	104	0	77	20993
2026-01-24 23:52:33.85	150.29	38.34	-53.3	-68.3	3.8	1.49e+00	0	43	104	0	77	21033
2026-01-24 23:52:34.86	150.59	38.16	-53.3	-68.2	3.8	1.49e+00	0	43	104	0	77	20963
2026-01-24 23:52:35.87	150.89	37.97	-53.3	-68.2	3.8	1.49e+00	0	43	104	0	77	20978
2026-01-24 23:52:36.88	151.18	37.79	-53.3	-68.3	3.8	1.49e+00	0	43	104	0	77	21063
2026-01-24 23:52:37.88	151.47	37.61	-53.3	-68.3	3.8	1.49e+00	0	43	104	0	77	21020
2026-01-24 23:52:38.89	151.76	37.42	-53.3	-68.2	3.8	1.49e+00	0	43	104	0	77	20982
2026-01-24 23:52:39.90	152.05	37.24	-53.3	-68.2	3.8	1.49e+00	0	43	104	0	77	21003
2026-01-24 23:52:40.91	152.33	37.05	-53.3	-68.2	3.8	1.49e+00	0	43	104	0	77	20998
2026-01-24 23:52:41.91	152.61	36.87	-53.3	-68.2	3.8	1.49e+00	0	43	104	0	77	20995
2026-01-24 23:52:42.92	152.89	36.69	-53.3	-68.2	3.8	1.49e+00	0	43	104	0	77	20980
2026-01-24 23:52:43.93	153.16	36.51	-53.3	-68.2	3.8	1.49e+00	0	43	104	0	77	21009
2026-01-24 23:52:44.94	153.43	36.32	-53.3	-68.2	3.8	1.49e+00	0	43	104	0	77	20954
2026-01-24 23:52:45.94	153.70	36.14	-53.3	-68.2	3.8	1.49e+00	0	43	104	0	77	20952
2026-01-24 23:52:46.95	153.96	35.96	-53.3	-68.2	3.8	1.49e+00	0	43	104	0	77	20986
2026-01-24 23:52:47.96	154.22	35.78	-53.3	-68.2	3.8	1.49e+00	0	43	104	0	77	20976
2026-01-24 23:52:48.97	154.48	35.60	-53.3	-68.2	3.8	1.49e+00	0	43	104	0	77	20948
2026-01-24 23:52:49.97	154.74	35.42	-53.3	-68.2	3.8	1.49e+00	0	43	104	0	77	20990
2026-01-24 23:52:50.98	154.99	35.24	-53.3	-68.2	3.8	1.49e+00	0	43	104	0	77	20968
2026-01-24 23:52:51.99	155.24	35.06	-53.3	-68.2	3.8	1.49e+00	0	43	104	0	77	20987
2026-01-24 23:52:53.00	155.49	34.88	-53.2	-68.2	3.8	1.49e+00	0	43	104	0	77	20935
2026-01-24 23:52:54.00	155.73	34.70	-53.3	-68.2	3.8	1.49e+00	0	43	104	0	77	20933
2026-01-24 23:52:55.01	155.97	34.52	-53.3	-68.3	3.8	1.49e+00	0	43	104	0	77	21031
2026-01-24 23:52:56.02	156.21	34.34	-53.3	-68.2	3.8	1.49e+00	0	43	104	0	77	20971
2026-01-24 23:52:57.03	156.45	34.17	-53.3	-68.3	3.8	1.49e+00	0	43	104	0	77	21041
2026-01-24 23:52:58.04	156.69	33.99	-53.3	-68.2	3.8	1.49e+00	0	43	104	0	77	20984
2026-01-24 23:52:59.04	156.92	33.81	-53.3	-68.2	3.8	1.49e+00	0	43	104	0	77	21016
2026-01-24 23:53:00.05	157.15	33.64	-53.3	-68.2	3.8	1.49e+00	0	43	104	0	77	20954
2026-01-24 23:53:01.06	157.38	33.46	-53.3	-68.2	3.8	1.49e+00	0	43	104	0	77	20962
2026-01-24 23:53:02.07	157.60	33.29	-53.3	-68.2	3.8	1.49e+00	0	43	104	0	77	21013
2026-01-24 23:53:03.08	157.83	33.11	-53.3	-68.2	3.8	1.49e+00	0	43	104	0	77	21003
2026-01-24 23:53:04.08	158.04	32.94	-53.3	-68.2	3.8	1.49e+00	0	43	104	0	77	21006
2026-01-24 23:53:05.09	158.26	32.76	-53.3	-68.3	3.8	1.49e+00	0	43	104	0	77	21024
2026-01-24 23:53:06.10	158.48	32.59	-53.3	-68.2	3.8	1.49e+00	0	43	104	0	77	20952
2026-01-24 23:53:07.10	158.69	32.42	-53.3	-68.2	3.8	1.49e+00	0	43	104	0	77	21015
2026-01-24 23:53:08.11	158.90	32.25	-53.3	-68.2	3.8	1.49e+00	0	43	104	0	77	20995
2026-01-24 23:53:09.12	159.11	32.08	-53.3	-68.2	3.8	1.49e+00	0	43	104	0	77	20986
2026-01-24 23:53:10.13	159.32	31.91	-53.3	-68.3	3.8	1.49e+00	0	43	104	0	77	21019
2026-01-24 23:53:11.14	159.53	31.74	-53.3	-68.2	3.8	1.49e+00	0	43	104	0	77	20982
2026-01-24 23:53:12.14	159.73	31.57	-53.3	-68.2	3.8	1.49e+00	0	43	104	0	77	20945
2026-01-24 23:53:13.15	159.93	31.40	-53.3	-68.3	3.8	1.49e+00	0	43	104	0	77	21031
2026-01-24 23:53:14.16	160.13	31.23	-53.3	-68.2	3.8	1.49e+00	0	43	104	0	77	20990
2026-01-24 23:53:15.17	160.32	31.06	-53.3	-68.2	3.8	1.49e+00	0	43	104	0	77	20989
2026-01-24 23:53:16.18	160.52	30.90	-53.3	-68.2	3.8	1.49e+00	0	43	104	0	77	20955
2026-01-24 23:53:17.18	160.71	30.73	-53.3	-68.3	3.8	1.49e+00	0	43	104	0	77	21071
2026-01-24 23:53:18.19	160.90	30.56	-53.3	-68.2	3.8	1.49e+00	0	43	104	0	77	20960
2026-01-24 23:53:19.20	161.09	30.40	-53.3	-68.2	3.8	1.49e+00	0	43	104	0	77	20972
2026-01-24 23:53:20.21	161.28	30.23	-53.3	-68.2	3.8	1.49e+00	0	43	104	0	77	20977
2026-01-24 23:53:21.21	161.46	30.07	-53.3	-68.2	3.8	1.49e+00	0	43	104	0	77	20988
2026-01-24 23:53:22.22	161.65	29.91	-53.3	-68.2	3.8	1.49e+00	0	43	104	0	77	21004
2026-01-24 23:53:23.23	161.83	29.74	-53.3	-68.2	3.8	1.49e+00	0	43	104	0	77	21008
2026-01-24 23:53:24.23	162.01	29.58	-53.3	-68.2	3.8	1.49e+00	0	43	104	0	77	21000
2026-01-24 23:53:25.24	162.19	29.42	-53.3	-68.2	3.8	1.49e+00	0	43	104	0	77	20980
2026-01-24 23:53:26.25	162.36	29.26	-53.3	-68.2	3.8	1.49e+00	0	43	104	0	77	20960
2026-01-24 23:53:27.26	162.54	29.10	-53.3	-68.2	3.8	1.49e+00	0	43	104	0	77	20968
2026-01-24 23:53:28.27	162.71	28.94	-53.3	-68.2	3.8	1.49e+00	0	43	104	0	77	20967
2026-01-24 23:53:29.28	162.89	28.78	-53.3	-68.2	3.8	1.49e+00	0	43	104	0	77	21006
2026-01-24 23:53:30.28	163.05	28.62	-53.3	-68.2	3.8	1.49e+00	0	43	104	0	77	20992
2026-01-24 23:53:31.29	163.22	28.47	-53.3	-68.2	3.8	1.49e+00	0	43	104	0	77	20983
2026-01-24 23:53:32.30	163.39	28.31	-53.3	-68.2	3.8	1.49e+00	0	43	104	0	77	20977
2026-01-24 23:53:33.31	163.56	28.15	-53.3	-68.2	3.8	1.49e+00	0	43	104	0	77	20983
2026-01-24 23:53:34.31	163.72	28.00	-53.3	-68.2	3.8	1.49e+00	0	43	104	0	77	20988
2026-01-24 23:53:35.32	163.88	27.84	-53.3	-68.2	3.8	1.49e+00	0	43	104	0	77	20992
2026-01-24 23:53:36.33	164.04	27.69	-53.3	-68.3	3.8	1.49e+00	0	43	104	0	77	21037
2026-01-24 23:53:37.34	164.20	27.53	-53.3	-68.2	3.8	1.49e+00	0	43	104	0	77	21008
2026-01-24 23:53:38.35	164.36	27.38	-53.3	-68.2	3.8	1.49e+00	0	43	104	0	77	21010
2026-01-24 23:53:39.36	164.51	27.23	-53.3	-68.2	3.8	1.49e+00	0	43	104	0	77	20987
2026-01-24 23:53:40.36	164.67	27.08	-53.3	-68.3	3.8	1.49e+00	0	43	104	0	77	21033
2026-01-24 23:53:41.37	164.82	26.93	-53.3	-68.2	3.8	1.49e+00	0	43	104	0	77	21004
2026-01-24 23:53:42.37	164.97	26.78	-53.3	-68.3	3.8	1.49e+00	0	43	104	0	77	21020
2026-01-24 23:53:43.38	165.12	26.63	-53.3	-68.2	3.8	1.49e+00	0	43	104	0	77	20991
2026-01-24 23:53:44.39	165.27	26.48	-53.3	-68.2	3.8	1.49e+00	0	43	104	0	77	20984
2026-01-24 23:53:45.40	165.42	26.33	-53.3	-68.2	3.8	1.49e+00	0	43	104	0	77	20940
2026-01-24 23:53:46.40	165.57	26.18	-53.3	-68.2	3.8	1.49e+00	0	43	104	0	77	20963
2026-01-24 23:53:47.41	165.71	26.03	-53.3	-68.2	3.8	1.49e+00	0	43	104	0	77	20989
2026-01-24 23:53:48.42	165.85	25.88	-53.3	-68.2	3.8	1.49e+00	0	43	104	0	77	21012
2026-01-24 23:53:49.43	166.00	25.74	-53.3	-68.2	3.8	1.49e+00	0	43	104	0	77	20994
2026-01-24 23:53:50.43	166.14	25.59	-53.3	-68.2	3.8	1.49e+00	0	43	104	0	77	21003
2026-01-24 23:53:51.44	166.28	25.45	-53.3	-68.2	3.8	1.49e+00	0	43	104	0	77	20972
2026-01-24 23:53:52.45	166.42	25.30	-53.3	-68.2	3.8	1.49e+00	0	43	104	0	77	20994
2026-01-24 23:53:53.45	166.55	25.16	-53.3	-68.2	3.8	1.49e+00	0	43	104	0	77	20961
2026-01-24 23:53:54.46	166.69	25.02	-53.3	-68.2	3.8	1.49e+00	0	43	104	0	77	21007
2026-01-24 23:53:55.47	166.83	24.87	-53.3	-68.3	3.8	1.49e+00	0	43	104	0	77	21039
2026-01-24 23:53:56.48	166.96	24.73	-53.3	-68.2	3.8	1.49e+00	0	43	104	0	77	21012
2026-01-24 23:53:57.48	167.09	24.59	-53.3	-68.2	3.8	1.49e+00	0	43	104	0	77	20987
2026-01-24 23:53:58.49	167.22	24.45	-53.3	-68.2	3.8	1.49e+00	0	43	104	0	77	20979
2026-01-24 23:53:59.50	167.35	24.31	-53.3	-68.2	3.8	1.49e+00	0	43	104	0	77	20988
2026-01-24 23:54:00.51	167.48	24.17	-53.3	-68.2	3.8	1.49e+00	0	43	104	0	77	20957
2026-01-24 23:54:01.51	167.61	24.03	-53.3	-68.2	3.8	1.49e+00	0	43	104	0	77	20930
2026-01-24 23:54:02.52	167.74	23.89	-53.3	-68.2	3.8	1.49e+00	0	43	104	0	77	20996
2026-01-24 23:54:03.53	167.87	23.76	-53.3	-68.2	3.8	1.49e+00	0	43	104	0	77	21004
2026-01-24 23:54:04.54	167.99	23.62	-53.3	-68.3	3.8	1.49e+00	0	43	104	0	77	21043
2026-01-24 23:54:05.55	168.12	23.48	-53.3	-68.2	3.8	1.49e+00	0	43	104	0	77	21002
2026-01-24 23:54:06.56	168.24	23.35	-53.3	-68.2	3.8	1.49e+00	0	43	104	0	77	20975
2026-01-24 23:54:07.56	168.36	23.21	-53.3	-68.2	3.8	1.49e+00	0	43	104	0	77	20960
2026-01-24 23:54:08.57	168.48	23.08	-53.3	-68.2	3.8	1.49e+00	0	43	104	0	77	20987
2026-01-24 23:54:09.58	168.60	22.94	-53.3	-68.3	3.8	1.49e+00	0	43	104	0	77	21023
2026-01-24 23:54:10.59	168.72	22.81	-53.3	-68.2	3.8	1.49e+00	0	43	104	0	77	20993
2026-01-24 23:54:11.60	168.84	22.67	-53.3	-68.2	3.8	1.49e+00	0	43	104	0	77	20930
2026-01-24 23:54:12.60	168.95	22.54	-53.3	-68.2	3.8	1.49e+00	0	43	104	0	77	20993
2026-01-24 23:54:13.61	169.07	22.41	-53.3	-68.3	3.8	1.49e+00	0	43	104	0	77	21018
2026-01-24 23:54:14.62	169.19	22.28	-53.3	-68.2	3.8	1.49e+00	0	43	104	0	77	20980
2026-01-24 23:54:15.63	169.30	22.15	-53.3	-68.2	3.8	1.49e+00	0	43	104	0	77	21009
2026-01-24 23:54:16.64	169.41	22.02	-53.3	-68.2	3.8	1.49e+00	0	43	104	0	77	20982
2026-01-24 23:54:17.64	169.53	21.89	-53.3	-68.2	3.8	1.49e+00	0	43	104	0	77	21010
2026-01-24 23:54:18.65	169.64	21.76	-53.3	-68.2	3.8	1.49e+00	0	43	104	0	77	20962
2026-01-24 23:54:19.66	169.75	21.63	-53.3	-68.2	3.8	1.49e+00	0	43	104	0	77	20952
2026-01-24 23:54:20.66	169.86	21.50	-53.3	-68.2	3.8	1.49e+00	0	43	104	0	77	20974
2026-01-24 23:54:21.67	169.97	21.38	-53.3	-68.2	3.8	1.49e+00	0	43	104	0	77	20985
2026-01-24 23:54:22.68	170.08	21.25	-53.3	-68.3	3.8	1.49e+00	0	43	104	0	77	21019
2026-01-24 23:54:23.68	170.18	21.12	-53.3	-68.2	3.8	1.49e+00	0	43	104	0	77	20977
2026-01-24 23:54:24.69	170.29	21.00	-53.3	-68.2	3.8	1.49e+00	0	43	104	0	77	21009
2026-01-24 23:54:25.70	170.39	20.87	-53.3	-68.2	3.8	1.49e+00	0	43	104	0	77	20974
2026-01-24 23:54:26.71	170.50	20.75	-53.3	-68.2	3.8	1.49e+00	0	43	104	0	77	21006
2026-01-24 23:54:27.72	170.60	20.62	-53.3	-68.2	3.8	1.49e+00	0	43	104	0	77	21008
2026-01-24 23:54:28.72	170.71	20.50	-53.3	-68.2	3.8	1.49e+00	0	43	104	0	77	21016
2026-01-24 23:54:29.73	170.81	20.37	-53.3	-68.3	3.8	1.49e+00	0	43	104	0	77	21018
2026-01-24 23:54:30.74	170.91	20.25	-53.3	-68.2	3.8	1.49e+00	0	43	104	0	77	21016
2026-01-24 23:54:31.75	171.01	20.13	-53.3	-68.2	3.8	1.49e+00	0	43	104	0	77	20991
2026-01-24 23:54:32.76	171.11	20.01	-53.3	-68.2	3.8	1.49e+00	0	43	104	0	77	20997
2026-01-24 23:54:33.76	171.21	19.89	-53.3	-68.2	3.8	1.49e+00	0	43	104	0	77	20973
2026-01-24 23:54:34.77	171.31	19.77	-53.3	-68.2	3.8	1.49e+00	0	43	104	0	77	20955
2026-01-24 23:54:35.78	171.41	19.65	-53.3	-68.2	3.8	1.49e+00	0	43	104	0	77	20955
2026-01-24 23:54:36.79	171.50	19.53	-53.3	-68.2	3.8	1.49e+00	0	43	104	0	77	20978
2026-01-24 23:54:37.79	171.60	19.41	-53.3	-68.2	3.8	1.49e+00	0	43	104	0	77	20995
2026-01-24 23:54:38.80	171.69	19.29	-53.3	-68.3	3.8	1.49e+00	0	43	104	0	77	21023
2026-01-24 23:54:39.81	171.79	19.17	-53.3	-68.2	3.8	1.49e+00	0	43	104	0	77	20983
2026-01-24 23:54:40.82	171.88	19.05	-53.3	-68.2	3.8	1.49e+00	0	43	104	0	77	20986
2026-01-24 23:54:41.83	171.98	18.93	-53.3	-68.2	3.8	1.49e+00	0	43	104	0	77	20916
2026-01-24 23:54:42.84	172.07	18.82	-53.3	-68.2	3.8	1.49e+00	0	43	104	0	77	20939
2026-01-24 23:54:43.84	172.16	18.70	-53.3	-68.2	3.8	1.49e+00	0	43	104	0	77	21011
2026-01-24 23:54:44.85	172.25	18.59	-53.3	-68.2	3.8	1.49e+00	0	43	104	0	77	20986
2026-01-24 23:54:45.86	172.34	18.47	-53.3	-68.2	3.8	1.49e+00	0	43	104	0	77	21007
2026-01-24 23:54:46.86	172.43	18.36	-53.3	-68.2	3.8	1.49e+00	0	43	104	0	77	20949
2026-01-24 23:54:47.87	172.52	18.24	-53.3	-68.2	3.8	1.49e+00	0	43	104	0	77	20963
2026-01-24 23:54:48.88	172.61	18.13	-53.3	-68.2	3.8	1.49e+00	0	43	104	0	77	20940
2026-01-24 23:54:49.89	172.70	18.01	-53.3	-68.2	3.8	1.49e+00	0	43	104	0	77	20979
2026-01-24 23:54:50.90	172.79	17.90	-53.3	-68.2	3.8	1.49e+00	0	43	104	0	77	20965
2026-01-24 23:54:51.91	172.88	17.79	-53.3	-68.2	3.8	1.49e+00	0	43	104	0	77	21011
2026-01-24 23:54:52.92	172.96	17.67	-53.3	-68.2	3.8	1.49e+00	0	43	104	0	77	21007
2026-01-24 23:54:53.92	173.05	17.56	-53.3	-68.2	3.8	1.49e+00	0	43	104	0	77	21005
2026-01-24 23:54:54.93	173.13	17.45	-53.3	-68.2	3.8	1.49e+00	0	43	104	0	77	21006
2026-01-24 23:54:55.94	173.22	17.34	-53.3	-68.2	3.8	1.49e+00	0	43	104	0	77	20994
2026-01-24 23:54:56.95	173.30	17.23	-53.3	-68.2	3.8	1.49e+00	0	43	104	0	77	20969
2026-01-24 23:54:57.96	173.39	17.12	-53.3	-68.2	3.8	1.49e+00	0	43	104	0	77	20996
2026-01-24 23:54:58.96	173.47	17.01	-53.3	-68.2	3.8	1.49e+00	0	43	104	0	77	20987
2026-01-24 23:54:59.97	173.55	16.90	-53.3	-68.2	3.8	1.49e+00	0	43	104	0	77	20958
2026-01-24 23:55:00.98	173.63	16.79	-53.3	-68.2	3.8	1.49e+00	0	43	104	0	77	20956
2026-01-24 23:55:01.99	173.71	16.69	-53.3	-68.2	3.8	1.49e+00	0	43	104	0	77	21012
2026-01-24 23:55:03.00	173.79	16.58	-53.3	-68.2	3.8	1.49e+00	0	43	104	0	77	20963
2026-01-24 23:55:04.00	173.87	16.47	-53.3	-68.2	3.8	1.49e+00	0	43	104	0	77	20942
2026-01-24 23:55:05.01	173.95	16.36	-53.3	-68.2	3.8	1.49e+00	0	43	104	0	77	20977
2026-01-24 23:55:06.02	174.03	16.26	-53.3	-68.2	3.8	1.49e+00	0	43	104	0	77	20983
2026-01-24 23:55:07.02	174.11	16.15	-53.3	-68.2	3.8	1.49e+00	0	43	104	0	77	20995
2026-01-24 23:55:08.03	174.19	16.05	-53.3	-68.2	3.8	1.49e+00	0	43	104	0	77	20996
2026-01-24 23:55:09.04	174.27	15.94	-53.3	-68.2	3.8	1.49e+00	0	43	104	0	77	20992
2026-01-24 23:55:10.05	174.34	15.84	-53.3	-68.2	3.8	1.49e+00	0	43	104	0	77	20997
2026-01-24 23:55:11.06	174.42	15.73	-53.3	-68.2	3.8	1.49e+00	0	43	104	0	77	20977
2026-01-24 23:55:12.07	174.50	15.63	-53.3	-68.2	3.8	1.49e+00	0	43	104	0	77	20964
2026-01-24 23:55:13.07	174.57	15.52	-53.3	-68.2	3.8	1.49e+00	0	43	104	0	77	21005
2026-01-24 23:55:14.08	174.65	15.42	-53.3	-68.2	3.8	1.49e+00	0	43	104	0	77	20990
2026-01-24 23:55:15.09	174.72	15.32	-53.3	-68.3	3.8	1.49e+00	0	43	104	0	77	21022
2026-01-24 23:55:16.09	174.79	15.22	-53.3	-68.2	3.8	1.49e+00	0	43	104	0	77	21003
2026-01-24 23:55:17.10	174.87	15.11	-53.3	-68.3	3.8	1.49e+00	0	43	104	0	77	21021
2026-01-24 23:55:18.11	174.94	15.01	-53.3	-68.2	3.8	1.49e+00	0	43	104	0	77	20999
2026-01-24 23:55:19.12	175.01	14.91	-53.3	-68.2	3.8	1.49e+00	0	43	104	0	77	20966
2026-01-24 23:55:20.13	175.09	14.81	-53.3	-68.2	3.8	1.49e+00	0	43	104	0	77	20940
2026-01-24 23:55:21.14	175.16	14.71	-53.3	-68.2	3.8	1.49e+00	0	43	104	0	77	21002
2026-01-24 23:55:22.14	175.23	14.61	-53.3	-68.2	3.8	1.49e+00	0	43	104	0	77	20987
2026-01-24 23:55:23.15	175.30	14.51	-53.3	-68.2	3.8	1.49e+00	0	43	104	0	77	21008
2026-01-24 23:55:24.16	175.37	14.41	-53.3	-68.2	3.8	1.49e+00	0	43	104	0	77	21008
2026-01-24 23:55:25.17	175.44	14.31	-53.3	-68.2	3.8	1.49e+00	0	43	104	0	77	20971
2026-01-24 23:55:26.17	175.51	14.21	-53.3	-68.2	3.8	1.49e+00	0	43	104	0	77	20971
2026-01-24 23:55:27.18	175.58	14.11	-53.3	-68.2	3.8	1.49e+00	0	43	104	0	77	20977
2026-01-24 23:55:28.19	175.65	14.02	-53.3	-68.2	3.8	1.49e+00	0	43	104	0	77	20993
2026-01-24 23:55:29.20	175.71	13.92	-53.3	-68.2	3.8	1.49e+00	0	43	104	0	77	21014
2026-01-24 23:55:30.20	175.78	13.82	-53.3	-68.2	3.8	1.49e+00	0	43	104	0	77	20945
2026-01-24 23:55:31.21	175.85	13.73	-53.3	-68.2	3.8	1.49e+00	0	43	104	0	77	20953
2026-01-24 23:55:32.22	175.92	13.63	-53.3	-68.2	3.8	1.49e+00	0	43	104	0	77	21001
2026-01-24 23:55:33.23	175.98	13.53	-53.3	-68.2	3.8	1.49e+00	0	43	104	0	77	20969
2026-01-24 23:55:34.24	176.05	13.44	-53.3	-68.2	3.8	1.49e+00	0	43	104	0	77	20973
2026-01-24 23:55:35.24	176.11	13.34	-53.3	-68.2	3.8	1.49e+00	0	43	104	0	77	21008
2026-01-24 23:55:36.25	176.18	13.25	-53.3	-68.2	3.8	1.49e+00	0	43	104	0	77	20975
2026-01-24 23:55:37.26	176.24	13.15	-53.3	-68.3	3.8	1.49e+00	0	43	104	0	77	21034
2026-01-24 23:55:38.27	176.31	13.06	-53.3	-68.2	3.8	1.49e+00	0	43	104	0	77	20908
2026-01-24 23:55:39.27	176.37	12.96	-53.3	-68.2	3.8	1.49e+00	0	43	104	0	77	20989
2026-01-24 23:55:40.28	176.44	12.87	-53.3	-68.2	3.8	1.49e+00	0	43	104	0	77	20964
2026-01-24 23:55:41.29	176.50	12.78	-53.3	-68.2	3.8	1.49e+00	0	43	104	0	77	20998
2026-01-24 23:55:42.30	176.56	12.68	-53.3	-68.2	3.8	1.49e+00	0	43	104	0	77	20960
2026-01-24 23:55:43.30	176.63	12.59	-53.3	-68.2	3.8	1.49e+00	0	43	104	0	77	20981
2026-01-24 23:55:44.31	176.69	12.50	-53.3	-68.2	3.8	1.49e+00	0	43	104	0	77	20956
2026-01-24 23:55:45.32	176.75	12.40	-53.3	-68.2	3.8	1.49e+00	0	43	104	0	77	20988
2026-01-24 23:55:46.33	176.81	12.31	-53.3	-68.3	3.8	1.49e+00	0	43	104	0	77	21038
2026-01-24 23:55:47.33	176.87	12.22	-53.3	-68.2	3.8	1.49e+00	0	43	104	0	77	20986
2026-01-24 23:55:48.34	176.93	12.13	-53.3	-68.2	3.8	1.49e+00	0	43	104	0	77	20976
2026-01-24 23:55:49.35	176.99	12.04	-53.3	-68.2	3.8	1.49e+00	0	43	104	0	77	21002
2026-01-24 23:55:50.36	177.05	11.95	-53.3	-68.2	3.8	1.49e+00	0	43	104	0	77	20990
2026-01-24 23:55:51.36	177.11	11.86	-53.3	-68.2	3.8	1.49e+00	0	43	104	0	77	20991
2026-01-24 23:55:52.37	177.17	11.77	-53.3	-68.2	3.8	1.49e+00	0	43	104	0	77	20976
2026-01-24 23:55:53.38	177.23	11.68	-53.3	-68.3	3.8	1.49e+00	0	43	104	0	77	21054
2026-01-24 23:55:54.39	177.29	11.59	-53.3	-68.3	3.8	1.49e+00	0	43	104	0	77	21052
2026-01-24 23:55:55.40	177.35	11.50	-53.3	-68.3	3.8	1.49e+00	0	43	104	0	77	21029
2026-01-24 23:55:56.40	177.41	11.41	-53.3	-68.3	3.8	1.49e+00	0	43	104	0	77	21038
2026-01-24 23:55:57.41	177.46	11.32	-53.3	-68.2	3.8	1.49e+00	0	43	104	0	77	20972
2026-01-24 23:55:58.42	177.52	11.24	-53.3	-68.2	3.8	1.49e+00	0	43	104	0	77	21013
2026-01-24 23:55:59.43	177.58	11.15	-53.3	-68.2	3.8	1.49e+00	0	43	104	0	77	20967
2026-01-24 23:56:00.44	177.64	11.06	-53.3	-68.2	3.8	1.49e+00	0	43	104	0	77	21006
2026-01-24 23:56:01.44	177.69	10.97	-53.3	-68.3	3.8	1.49e+00	0	43	104	0	77	21022
2026-01-24 23:56:02.45	177.75	10.89	-53.3	-68.2	3.8	1.49e+00	0	43	104	0	77	20973
2026-01-24 23:56:03.46	177.80	10.80	-53.3	-68.2	3.8	1.49e+00	0	43	104	0	77	20997
2026-01-24 23:56:04.47	177.86	10.71	-53.3	-68.2	3.8	1.49e+00	0	43	104	0	77	20984
2026-01-24 23:56:05.48	177.92	10.63	-53.3	-68.2	3.8	1.49e+00	0	43	104	0	77	20989
2026-01-24 23:56:06.48	177.97	10.54	-53.3	-68.2	3.8	1.49e+00	0	43	104	0	77	21017
2026-01-24 23:56:07.49	178.03	10.45	-53.3	-68.2	3.8	1.49e+00	0	43	104	0	77	20984
2026-01-24 23:56:08.50	178.08	10.37	-53.3	-68.2	3.8	1.49e+00	0	43	104	0	77	20994
2026-01-24 23:56:09.51	178.13	10.28	-53.3	-68.2	3.8	1.49e+00	0	43	104	0	77	20946
2026-01-24 23:56:10.52	178.19	10.20	-53.3	-68.2	3.8	1.49e+00	0	43	104	0	77	20977
2026-01-24 23:56:11.52	178.24	10.11	-53.3	-68.2	3.8	1.49e+00	0	43	104	0	77	21003
2026-01-24 23:56:12.53	178.29	10.03	-53.3	-68.2	3.8	1.49e+00	0	43	104	0	77	20918
2026-01-24 23:56:13.54	178.35	9.95	-53.3	-68.3	3.8	1.49e+00	0	43	104	0	77	21047
2026-01-24 23:56:14.55	178.40	9.86	-53.3	-68.2	3.8	1.49e+00	0	43	104	0	77	20972
