passes_logs/2026/01/24/R3.2S_Murmansk/R3.2S_Murmansk__20260124_080015_AQUA_rec.log

#Pass ID: 20260124_080015_AQUA
#Satellite: AQUA
#Configuration: AQUA
#almurnet v.1.7.20251203
#Start time: 2026-01-24 08:04:40

#Version: 2.2.20231116
#Station: R3.2S_Murmansk
#Location: 33.079688 lon 68.888172 lat
#TLE: 1 27424U 02022A   26023.58972979  .00001888  00000+0  38753-3 0  9997
#TLE: 2 27424  98.4100 350.1620 0001948  68.5331  43.0280 14.61852003262140

#Time	Az	El	Level	Level2	SNR	BER	BlckErr	Temp	State	Recorded	gain1	gain2
2026-01-24 08:04:40.43	36.54	19.01	-53.8	-66.6	3.8	1.49e+00	0	42	0	0	79	15479
2026-01-24 08:04:41.44	36.27	19.06	-55.7	-73.5	3.8	7.43e-01	0	43	104	0	81	30698
2026-01-24 08:04:42.45	36.00	19.11	-55.7	-73.5	3.8	7.47e-01	0	43	104	0	81	30699
2026-01-24 08:04:43.45	35.73	19.15	-55.7	-73.5	3.8	7.48e-01	0	43	104	0	81	30584
2026-01-24 08:04:44.46	35.46	19.20	-55.7	-73.5	3.8	7.44e-01	0	43	104	0	81	30416
2026-01-24 08:04:45.47	35.19	19.25	-55.8	-73.6	3.8	7.44e-01	0	43	104	0	82	29043
2026-01-24 08:04:46.48	34.92	19.29	-55.7	-73.5	3.8	7.47e-01	0	43	104	0	82	28793
2026-01-24 08:04:47.49	34.64	19.33	-55.6	-73.4	3.8	7.46e-01	0	43	104	0	82	28569
2026-01-24 08:04:48.49	34.37	19.38	-55.5	-73.3	3.8	7.46e-01	0	43	104	0	82	28269
2026-01-24 08:04:49.50	34.09	19.42	-55.4	-73.3	3.8	7.45e-01	0	43	104	0	82	28106
2026-01-24 08:04:50.51	33.82	19.46	-55.4	-73.2	3.8	7.44e-01	0	43	104	0	82	27892
2026-01-24 08:04:51.52	33.54	19.50	-55.2	-73.0	3.8	7.43e-01	0	43	104	0	82	27382
2026-01-24 08:04:52.53	33.26	19.55	-55.2	-73.0	3.8	7.44e-01	0	43	104	0	82	27091
2026-01-24 08:04:53.53	32.98	19.59	-55.0	-72.9	3.8	7.44e-01	0	43	104	0	82	26887
2026-01-24 08:04:54.54	32.70	19.63	-54.9	-72.7	3.8	7.46e-01	0	43	104	0	81	27796
2026-01-24 08:04:55.55	32.42	19.66	-54.9	-72.7	3.8	7.45e-01	0	43	104	0	81	27733
2026-01-24 08:04:56.56	32.14	19.70	-54.9	-72.7	3.8	7.44e-01	0	43	104	0	81	27754
2026-01-24 08:04:57.57	31.86	19.74	-54.8	-72.6	3.8	7.44e-01	0	43	104	0	81	27586
2026-01-24 08:04:58.57	31.58	19.78	-54.8	-72.6	3.8	7.41e-01	0	43	104	0	81	27418
2026-01-24 08:04:59.58	31.29	19.81	-54.8	-72.5	3.8	7.46e-01	0	43	104	0	81	27280
2026-01-24 08:05:00.59	31.01	19.85	-54.8	-72.5	3.8	7.45e-01	0	43	104	0	81	27211
2026-01-24 08:05:01.60	30.72	19.89	-54.8	-72.5	3.8	7.41e-01	0	43	104	0	81	27386
2026-01-24 08:05:02.61	30.44	19.92	-54.8	-72.6	3.8	7.46e-01	0	43	104	0	81	27475
2026-01-24 08:05:03.61	30.15	19.95	-54.8	-72.5	3.8	7.42e-01	0	43	104	0	81	27336
2026-01-24 08:05:04.62	29.87	19.99	-54.8	-72.6	3.8	7.45e-01	0	43	104	0	81	27421
2026-01-24 08:05:05.63	29.58	20.02	-54.8	-72.6	3.8	7.44e-01	0	43	104	0	81	27401
2026-01-24 08:05:06.64	29.29	20.05	-54.8	-72.6	3.8	7.48e-01	0	43	104	0	81	27402
2026-01-24 08:05:07.65	29.00	20.08	-54.8	-72.5	3.8	7.48e-01	0	43	104	0	81	27355
2026-01-24 08:05:08.66	28.71	20.12	-54.8	-72.6	3.8	7.44e-01	0	43	104	0	81	27454
2026-01-24 08:05:09.67	28.42	20.14	-54.8	-72.5	3.8	7.43e-01	0	43	104	0	81	27353
2026-01-24 08:05:10.67	28.13	20.17	-54.8	-72.5	3.8	7.46e-01	0	43	104	0	81	27331
2026-01-24 08:05:11.68	27.84	20.20	-54.8	-72.5	3.8	7.44e-01	0	43	104	0	81	27247
2026-01-24 08:05:12.69	27.55	20.23	-54.7	-72.5	3.8	7.45e-01	0	43	104	0	81	27254
2026-01-24 08:05:13.70	27.25	20.26	-54.7	-72.5	3.8	7.45e-01	0	43	104	0	81	27224
2026-01-24 08:05:14.71	26.96	20.28	-54.7	-72.5	3.8	7.49e-01	0	43	104	0	81	27203
2026-01-24 08:05:15.71	26.67	20.31	-54.7	-72.5	3.8	7.49e-01	0	43	104	0	81	27262
2026-01-24 08:05:16.72	26.38	20.33	-54.7	-72.5	3.8	7.45e-01	0	43	104	0	81	27216
2026-01-24 08:05:17.73	26.08	20.36	-54.7	-72.5	3.8	7.43e-01	0	43	104	0	81	27078
2026-01-24 08:05:18.74	25.78	20.38	-54.7	-72.4	3.8	7.44e-01	0	43	104	0	81	27048
2026-01-24 08:05:19.75	25.49	20.40	-54.7	-72.4	3.8	7.42e-01	0	43	104	0	81	26926
2026-01-24 08:05:20.76	25.19	20.43	-54.7	-72.3	3.8	7.43e-01	0	43	104	0	81	26731
2026-01-24 08:05:21.77	24.90	20.45	-54.7	-72.4	3.8	7.43e-01	0	43	104	0	81	26791
2026-01-24 08:05:22.78	24.60	20.47	-54.7	-72.4	3.8	7.44e-01	0	43	104	0	81	26936
2026-01-24 08:05:23.78	24.30	20.49	-54.7	-72.4	3.8	7.45e-01	0	43	104	0	81	26833
2026-01-24 08:05:24.79	24.01	20.51	-54.7	-72.4	3.8	7.46e-01	0	43	104	0	81	27004
2026-01-24 08:05:25.80	23.71	20.52	-54.7	-72.4	3.8	7.43e-01	0	43	104	0	81	26912
2026-01-24 08:05:26.81	23.41	20.54	-54.7	-72.4	3.8	7.43e-01	0	43	104	0	81	26945
2026-01-24 08:05:27.81	23.11	20.56	-54.7	-72.4	3.8	7.44e-01	0	43	104	0	81	26972
2026-01-24 08:05:28.82	22.81	20.57	-54.7	-72.4	3.8	7.45e-01	0	43	104	0	81	26811
2026-01-24 08:05:29.83	22.51	20.59	-54.6	-72.0	3.8	7.45e-01	0	43	104	0	81	25648
2026-01-24 08:05:30.84	22.21	20.60	-54.3	-70.6	3.8	7.43e-01	0	43	104	0	80	23269
2026-01-24 08:05:31.85	21.91	20.62	-54.5	-71.3	3.8	7.46e-01	0	43	104	0	80	25185
2026-01-24 08:05:32.85	21.62	20.63	-53.6	-68.2	3.8	7.43e-01	0	43	104	0	79	18652
2026-01-24 08:05:33.86	21.31	20.64	-50.1	-61.9	3.8	7.43e-01	0	43	104	0	72	13486
2026-01-24 08:05:34.87	21.01	20.65	-54.2	-69.6	3.8	7.48e-01	0	43	104	0	78	23084
2026-01-24 08:05:35.87	20.72	20.66	-47.8	-58.9	3.8	7.42e-01	0	43	104	0	67	12762
2026-01-24 08:05:36.88	20.41	20.67	-54.6	-71.4	3.8	7.46e-01	0	43	104	0	79	26982
2026-01-24 08:05:37.89	20.11	20.68	-53.6	-68.2	3.8	7.49e-01	0	43	104	0	78	19720
2026-01-24 08:05:38.90	19.81	20.69	-45.0	-55.8	3.8	7.45e-01	0	43	104	0	62	11918
2026-01-24 08:05:39.90	19.51	20.70	-45.0	-55.7	3.8	7.45e-01	0	43	104	0	62	11814
2026-01-24 08:05:40.91	19.21	20.70	-45.0	-55.8	3.8	7.43e-01	0	43	104	0	61	12549
2026-01-24 08:05:41.92	18.91	20.71	-44.8	-55.6	3.9	7.46e-01	0	43	104	0	61	12315
2026-01-24 08:05:42.93	18.60	20.71	-46.2	-57.1	3.8	7.43e-01	0	43	104	0	62	13744
2026-01-24 08:05:43.93	18.31	20.72	-47.4	-58.6	3.8	7.44e-01	0	43	104	0	65	13736
2026-01-24 08:05:44.94	18.00	20.72	-54.5	-71.3	3.8	7.46e-01	0	43	104	0	79	26619
2026-01-24 08:05:45.95	17.70	20.72	-45.6	-56.4	3.8	7.42e-01	0	43	104	0	63	12001
2026-01-24 08:05:46.95	17.40	20.72	-54.3	-70.4	3.7	7.44e-01	0	43	104	0	79	23910
2026-01-24 08:05:47.96	17.10	20.72	-45.0	-55.7	3.8	7.45e-01	0	43	104	0	62	11716
2026-01-24 08:05:48.97	16.80	20.72	-45.0	-55.8	3.8	7.44e-01	0	43	104	0	61	12556
2026-01-24 08:05:49.98	16.49	20.72	-45.2	-56.0	3.8	7.47e-01	0	43	104	0	61	12878
2026-01-24 08:05:50.99	16.19	20.72	-51.2	-63.5	3.8	7.44e-01	0	43	104	0	72	16298
2026-01-24 08:05:51.99	15.89	20.72	-47.4	-58.5	3.8	7.44e-01	0	43	104	0	65	13680
2026-01-24 08:05:53.00	15.59	20.72	-54.5	-71.4	3.8	7.45e-01	0	43	104	0	79	26772
2026-01-24 08:05:54.01	15.29	20.71	-45.2	-56.0	3.8	7.45e-01	0	43	104	0	62	12172
2026-01-24 08:05:55.02	14.98	20.71	-54.2	-70.2	3.8	7.47e-01	0	43	104	0	78	24918
2026-01-24 08:05:56.03	14.68	20.70	-44.9	-55.7	3.9	7.45e-01	0	43	104	0	61	12377
2026-01-24 08:05:57.03	14.38	20.69	-44.8	-55.5	3.8	7.46e-01	0	43	104	0	61	12186
2026-01-24 08:05:58.04	14.08	20.69	-44.8	-55.6	3.8	7.42e-01	0	43	104	0	61	12304
2026-01-24 08:05:59.05	13.78	20.68	-51.7	-64.5	3.8	7.45e-01	0	43	104	0	73	17098
2026-01-24 08:06:00.05	13.48	20.67	-47.5	-58.7	3.8	7.43e-01	0	43	104	0	66	13168
2026-01-24 08:06:01.06	13.18	20.66	-54.5	-71.5	3.8	7.44e-01	0	43	104	0	79	27183
2026-01-24 08:06:02.07	12.88	20.65	-45.4	-56.2	3.8	7.41e-01	0	43	104	0	62	12510
2026-01-24 08:06:03.08	12.58	20.64	-54.3	-70.5	3.8	7.44e-01	0	43	104	0	79	24156
2026-01-24 08:06:04.09	12.28	20.63	-44.9	-55.6	3.8	7.43e-01	0	43	104	0	61	12303
2026-01-24 08:06:05.10	11.98	20.61	-45.0	-55.7	3.8	7.43e-01	0	43	104	0	61	12500
2026-01-24 08:06:06.10	11.68	20.60	-44.8	-55.7	3.9	7.47e-01	0	43	104	0	61	12401
2026-01-24 08:06:07.11	11.38	20.58	-50.5	-62.5	3.8	7.42e-01	0	43	104	0	71	15384
2026-01-24 08:06:08.12	11.08	20.57	-47.4	-58.5	3.8	7.43e-01	0	43	104	0	65	13611
2026-01-24 08:06:09.13	10.78	20.55	-54.3	-70.7	3.8	7.43e-01	0	43	104	0	79	24857
2026-01-24 08:06:10.13	10.48	20.54	-45.2	-56.0	3.8	7.46e-01	0	43	104	0	62	12182
2026-01-24 08:06:11.14	10.19	20.52	-54.1	-70.1	3.8	7.44e-01	0	43	104	0	79	23072
2026-01-24 08:06:12.15	9.89	20.50	-45.0	-55.8	3.8	7.44e-01	0	43	104	0	62	11904
2026-01-24 08:06:13.16	9.59	20.48	-45.0	-55.8	3.9	7.45e-01	0	43	104	0	61	12659
2026-01-24 08:06:14.17	9.29	20.46	-44.9	-55.7	3.9	7.42e-01	0	43	104	0	61	12493
2026-01-24 08:06:15.17	9.00	20.44	-50.7	-63.0	3.8	7.42e-01	0	43	104	0	73	14406
2026-01-24 08:06:16.18	8.70	20.42	-47.2	-58.3	3.8	7.43e-01	0	43	104	0	65	13364
2026-01-24 08:06:17.19	8.41	20.40	-54.3	-70.6	3.8	7.45e-01	0	43	104	0	79	24598
2026-01-24 08:06:18.20	8.11	20.37	-45.3	-56.1	3.8	7.46e-01	0	43	104	0	62	12297
2026-01-24 08:06:19.21	7.82	20.35	-54.1	-69.9	3.8	7.44e-01	0	43	104	0	79	22753
2026-01-24 08:06:20.21	7.52	20.33	-45.4	-56.1	3.8	7.41e-01	0	43	104	0	62	12358
2026-01-24 08:06:21.22	7.23	20.30	-45.0	-55.8	3.8	7.45e-01	0	43	104	0	61	12556
2026-01-24 08:06:22.23	6.94	20.28	-45.0	-55.8	3.9	7.43e-01	0	43	104	0	61	12596
2026-01-24 08:06:23.24	6.64	20.25	-49.6	-61.4	3.9	7.43e-01	0	43	104	0	71	13426
2026-01-24 08:06:24.25	6.35	20.22	-46.6	-57.5	3.9	7.44e-01	0	43	104	0	65	12218
2026-01-24 08:06:25.25	6.06	20.19	-54.5	-71.4	3.8	7.44e-01	0	43	104	0	79	26960
2026-01-24 08:06:26.26	5.77	20.17	-52.0	-65.1	3.9	7.43e-01	0	43	104	0	76	15431
2026-01-24 08:06:27.27	5.48	20.14	-45.1	-56.0	3.8	7.45e-01	0	43	104	0	61	12856
2026-01-24 08:06:28.28	5.19	20.11	-44.9	-55.6	3.8	7.45e-01	0	43	104	0	61	12252
2026-01-24 08:06:29.29	4.90	20.07	-44.8	-55.5	3.8	7.44e-01	0	43	104	0	61	12233
2026-01-24 08:06:30.29	4.61	20.04	-44.9	-55.8	3.9	7.44e-01	0	43	104	0	61	12521
2026-01-24 08:06:31.30	4.33	20.01	-45.6	-56.5	3.8	7.44e-01	0	43	104	0	62	12867
2026-01-24 08:06:32.31	4.04	19.98	-46.8	-57.8	3.8	7.46e-01	0	43	104	0	64	13381
2026-01-24 08:06:33.31	3.75	19.95	-53.4	-67.7	3.9	7.40e-01	0	43	104	0	78	18603
2026-01-24 08:06:34.32	3.47	19.91	-45.0	-55.7	3.8	7.45e-01	0	43	104	0	62	11817
2026-01-24 08:06:35.33	3.18	19.88	-52.6	-66.2	3.9	7.42e-01	0	43	104	0	77	16662
2026-01-24 08:06:36.34	2.90	19.84	-45.3	-56.1	3.8	7.45e-01	0	43	104	0	62	12325
2026-01-24 08:06:37.35	2.61	19.80	-44.9	-55.7	3.8	7.45e-01	0	43	104	0	61	12498
2026-01-24 08:06:38.35	2.33	19.77	-45.3	-56.1	3.8	7.45e-01	0	43	104	0	61	13006
2026-01-24 08:06:39.36	2.05	19.73	-50.2	-62.2	3.9	7.42e-01	0	43	104	0	72	13888
2026-01-24 08:06:40.37	1.77	19.69	-47.1	-58.1	3.8	7.41e-01	0	43	104	0	65	13052
2026-01-24 08:06:41.38	1.49	19.65	-52.0	-65.2	3.9	7.43e-01	0	44	104	0	76	15650
2026-01-24 08:06:42.38	1.21	19.61	-44.8	-55.5	3.9	7.45e-01	0	43	104	0	61	12134
2026-01-24 08:06:43.39	0.93	19.57	-52.4	-65.5	3.9	7.42e-01	0	43	104	0	76	16140
2026-01-24 08:06:44.40	0.65	19.53	-45.3	-56.0	3.8	7.46e-01	0	44	104	0	62	12219
2026-01-24 08:06:45.41	0.37	19.49	-45.2	-56.1	3.8	7.45e-01	0	43	104	0	62	12301
2026-01-24 08:06:46.42	0.09	19.45	-44.8	-55.6	3.8	7.44e-01	0	43	104	0	61	12297
2026-01-24 08:06:47.43	359.82	19.41	-45.0	-55.8	3.8	7.46e-01	0	44	104	0	62	11838
2026-01-24 08:06:48.43	359.54	19.37	-48.0	-59.3	3.8	7.44e-01	0	44	104	0	66	14179
2026-01-24 08:06:49.44	359.27	19.32	-49.4	-61.2	3.9	7.42e-01	0	44	104	0	71	13148
2026-01-24 08:06:50.45	359.00	19.28	-45.4	-56.2	3.8	7.44e-01	0	44	104	0	61	13189
2026-01-24 08:06:51.46	358.72	19.23	-50.2	-62.1	3.9	7.42e-01	0	43	104	0	72	13789
2026-01-24 08:06:52.47	358.45	19.19	-45.0	-55.7	3.8	7.47e-01	0	44	104	0	61	12379
2026-01-24 08:06:53.47	358.18	19.14	-45.1	-55.9	3.8	7.46e-01	0	44	104	0	61	12786
2026-01-24 08:06:54.48	357.91	19.10	-44.9	-55.7	3.8	7.46e-01	0	44	104	0	61	12437
2026-01-24 08:06:55.49	357.64	19.05	-45.2	-55.9	3.8	7.45e-01	0	43	104	0	62	12088
2026-01-24 08:06:56.50	357.37	19.00	-48.0	-59.2	3.8	7.43e-01	0	43	104	0	66	14025
2026-01-24 08:06:57.51	357.10	18.95	-49.2	-60.7	3.9	7.43e-01	0	44	104	0	70	13111
2026-01-24 08:06:58.52	356.84	18.91	-45.4	-56.1	3.8	7.47e-01	0	43	104	0	61	12974
2026-01-24 08:06:59.52	356.57	18.86	-50.0	-62.0	3.8	7.42e-01	0	44	104	0	72	13575
2026-01-24 08:07:00.53	356.31	18.81	-44.7	-55.5	3.8	7.45e-01	0	44	104	0	61	12159
2026-01-24 08:07:01.54	356.04	18.76	-44.7	-55.5	3.8	7.44e-01	0	44	104	0	61	12191
2026-01-24 08:07:02.54	355.78	18.71	-46.9	-58.0	3.8	7.43e-01	0	44	104	0	64	13629
2026-01-24 08:07:03.55	355.52	18.66	-44.8	-55.6	3.8	7.47e-01	0	44	104	0	61	12309
2026-01-24 08:07:04.56	355.26	18.60	-50.1	-61.8	3.8	7.46e-01	0	43	104	0	70	15028
2026-01-24 08:07:05.57	355.00	18.55	-47.8	-58.9	3.9	7.42e-01	0	44	104	0	67	12745
2026-01-24 08:07:06.58	354.74	18.50	-47.6	-58.8	3.8	7.42e-01	0	43	104	0	65	14120
2026-01-24 08:07:07.58	354.48	18.45	-48.1	-59.5	3.9	7.42e-01	0	43	104	0	68	12847
2026-01-24 08:07:08.59	354.23	18.39	-45.0	-55.9	3.8	7.44e-01	0	44	104	0	62	11992
2026-01-24 08:07:09.60	353.97	18.34	-45.2	-56.0	3.8	7.46e-01	0	44	104	0	62	12129
2026-01-24 08:07:10.61	353.71	18.29	-47.7	-58.8	3.8	7.43e-01	0	44	104	0	65	14170
2026-01-24 08:07:11.61	353.46	18.23	-48.0	-59.2	3.8	7.44e-01	0	43	104	0	67	13188
2026-01-24 08:07:12.62	353.21	18.18	-49.9	-61.8	3.8	7.44e-01	0	44	104	0	70	14970
2026-01-24 08:07:13.63	352.95	18.12	-45.6	-56.4	3.8	7.45e-01	0	43	104	0	63	12085
2026-01-24 08:07:14.64	352.70	18.07	-49.6	-61.3	3.8	7.45e-01	0	44	104	0	69	14991
2026-01-24 08:07:15.64	352.45	18.01	-46.1	-57.1	3.8	7.45e-01	0	44	104	0	64	12311
2026-01-24 08:07:16.65	352.20	17.95	-44.9	-55.6	3.8	7.44e-01	0	43	104	0	61	12341
2026-01-24 08:07:17.66	351.96	17.90	-44.9	-55.7	3.8	7.42e-01	0	44	104	0	61	12453
2026-01-24 08:07:18.67	351.71	17.84	-48.8	-60.4	3.8	7.47e-01	0	43	104	0	68	14244
2026-01-24 08:07:19.67	351.46	17.78	-47.3	-58.4	3.9	7.43e-01	0	44	104	0	66	12701
2026-01-24 08:07:20.68	351.22	17.72	-52.6	-66.0	3.8	7.50e-01	0	44	104	0	75	18168
2026-01-24 08:07:21.69	350.97	17.67	-46.6	-57.7	3.8	7.46e-01	0	43	104	0	65	12463
2026-01-24 08:07:22.70	350.73	17.61	-50.2	-62.1	3.8	7.46e-01	0	44	104	0	70	15452
2026-01-24 08:07:23.71	350.49	17.55	-46.4	-57.2	3.9	7.43e-01	0	43	104	0	64	12401
2026-01-24 08:07:24.71	350.25	17.49	-44.9	-55.6	3.8	7.43e-01	0	44	104	0	61	12288
2026-01-24 08:07:25.72	350.01	17.43	-44.8	-55.8	3.8	7.44e-01	0	44	104	0	61	12536
2026-01-24 08:07:26.73	349.77	17.37	-49.1	-60.5	3.8	7.47e-01	0	43	104	0	68	14526
2026-01-24 08:07:27.74	349.53	17.31	-45.1	-55.9	3.8	7.47e-01	0	44	104	0	61	12722
2026-01-24 08:07:28.75	349.29	17.25	-53.9	-69.4	3.8	7.49e-01	0	44	104	0	78	22702
2026-01-24 08:07:29.75	349.06	17.19	-45.6	-56.5	3.8	7.43e-01	0	44	104	0	63	12157
2026-01-24 08:07:30.76	348.82	17.12	-51.7	-64.2	3.8	7.45e-01	0	43	104	0	73	16524
2026-01-24 08:07:31.77	348.59	17.06	-45.2	-56.1	3.9	7.45e-01	0	44	104	0	62	12239
2026-01-24 08:07:32.78	348.35	17.00	-44.5	-55.1	3.8	7.46e-01	0	44	104	0	60	12256
2026-01-24 08:07:33.79	348.12	16.94	-44.5	-55.2	3.8	7.46e-01	0	44	104	0	60	12477
2026-01-24 08:07:34.79	347.89	16.88	-49.6	-61.2	3.8	7.48e-01	0	43	104	0	69	14744
2026-01-24 08:07:35.80	347.66	16.81	-46.2	-57.3	3.8	7.44e-01	0	44	104	0	64	12616
2026-01-24 08:07:36.81	347.43	16.75	-53.7	-68.6	3.8	7.47e-01	0	44	104	0	77	21785
2026-01-24 08:07:37.82	347.20	16.69	-45.8	-56.6	3.8	7.42e-01	0	44	104	0	63	12316
2026-01-24 08:07:38.83	346.98	16.62	-52.7	-66.2	3.8	7.48e-01	0	43	104	0	75	18606
2026-01-24 08:07:39.83	346.75	16.56	-44.8	-55.6	3.8	7.46e-01	0	44	104	0	61	12256
2026-01-24 08:07:40.84	346.53	16.50	-44.6	-55.2	3.8	7.45e-01	0	44	104	0	61	11783
2026-01-24 08:07:41.85	346.30	16.43	-44.6	-55.6	3.8	7.43e-01	0	43	104	0	61	12254
2026-01-24 08:07:42.85	346.08	16.37	-51.2	-63.4	3.8	7.48e-01	0	44	104	0	72	16093
2026-01-24 08:07:43.86	345.86	16.30	-45.2	-55.9	3.8	7.45e-01	0	44	104	0	61	12717
2026-01-24 08:07:44.87	345.64	16.24	-54.2	-70.5	3.8	7.46e-01	0	44	104	0	78	25719
2026-01-24 08:07:45.88	345.42	16.17	-46.2	-56.9	3.8	7.44e-01	0	43	104	0	63	12745
2026-01-24 08:07:46.89	345.20	16.11	-53.3	-66.7	3.8	7.47e-01	0	43	104	0	76	18574
2026-01-24 08:07:47.89	344.98	16.04	-44.8	-55.8	3.8	7.48e-01	0	44	104	0	61	12659
2026-01-24 08:07:48.90	344.77	15.97	-44.5	-54.9	3.8	7.42e-01	0	44	104	0	61	11362
2026-01-24 08:07:49.91	344.55	15.91	-44.5	-55.3	3.8	7.45e-01	0	43	104	0	60	12659
2026-01-24 08:07:50.92	344.34	15.84	-47.7	-58.9	3.8	7.44e-01	0	43	104	0	65	14275
2026-01-24 08:07:51.93	344.12	15.77	-45.7	-56.6	3.8	7.42e-01	0	43	104	0	63	12289
2026-01-24 08:07:52.93	343.91	15.71	-54.3	-71.1	3.8	7.47e-01	0	44	104	0	79	25911
2026-01-24 08:07:53.94	343.70	15.64	-46.4	-57.6	3.8	7.44e-01	0	43	104	0	63	13811
2026-01-24 08:07:54.95	343.49	15.57	-53.0	-66.8	3.8	7.45e-01	0	44	104	0	76	18916
2026-01-24 08:07:55.96	343.28	15.51	-44.9	-55.7	3.8	7.45e-01	0	43	104	0	61	12383
2026-01-24 08:07:56.97	343.07	15.44	-44.9	-55.8	3.8	7.45e-01	0	43	104	0	61	12602
2026-01-24 08:07:57.97	342.86	15.37	-44.6	-55.2	3.8	7.44e-01	0	43	104	0	61	11764
2026-01-24 08:07:58.98	342.66	15.31	-49.7	-61.4	3.8	7.42e-01	0	43	104	0	69	15075
2026-01-24 08:07:59.99	342.45	15.24	-45.7	-56.8	3.8	7.44e-01	0	43	104	0	63	12542
2026-01-24 08:08:00.99	342.25	15.17	-54.3	-71.0	3.8	7.41e-01	0	43	104	0	79	25809
2026-01-24 08:08:02.00	342.04	15.10	-46.5	-57.7	3.8	7.45e-01	0	43	104	0	63	14022
2026-01-24 08:08:03.01	341.84	15.03	-53.0	-67.0	3.8	7.48e-01	0	44	104	0	76	19310
2026-01-24 08:08:04.02	341.64	14.96	-44.7	-55.4	3.9	7.46e-01	0	43	104	0	61	11980
2026-01-24 08:08:05.03	341.44	14.90	-44.7	-56.0	3.8	7.43e-01	0	44	104	0	61	12915
2026-01-24 08:08:06.03	341.24	14.83	-44.7	-55.0	3.8	7.45e-01	0	43	104	0	61	11455
2026-01-24 08:08:07.04	341.04	14.76	-51.3	-64.3	3.9	7.43e-01	0	43	104	0	73	16718
2026-01-24 08:08:08.05	340.85	14.69	-45.3	-56.0	3.8	7.43e-01	0	43	104	0	62	12096
2026-01-24 08:08:09.06	340.65	14.62	-54.2	-71.0	3.9	7.48e-01	0	44	104	0	79	25853
2026-01-24 08:08:10.07	340.45	14.55	-46.8	-57.9	3.9	7.43e-01	0	44	104	0	64	13511
2026-01-24 08:08:11.07	340.26	14.48	-53.1	-67.4	3.8	7.43e-01	0	44	104	0	76	20104
2026-01-24 08:08:12.08	340.07	14.41	-44.7	-55.6	3.8	7.46e-01	0	44	104	0	61	12304
2026-01-24 08:08:13.09	339.87	14.34	-44.7	-55.4	3.8	7.47e-01	0	43	104	0	61	12070
2026-01-24 08:08:14.10	339.68	14.28	-44.8	-55.5	3.8	7.43e-01	0	43	104	0	61	12135
2026-01-24 08:08:15.10	339.49	14.21	-49.7	-61.5	3.8	7.45e-01	0	43	104	0	70	14413
2026-01-24 08:08:16.11	339.30	14.14	-45.5	-56.3	3.8	7.43e-01	0	43	104	0	63	11852
2026-01-24 08:08:17.12	339.11	14.07	-54.2	-71.0	3.8	7.44e-01	0	43	104	0	78	27105
2026-01-24 08:08:18.13	338.93	14.00	-46.0	-56.7	3.9	7.44e-01	0	43	104	0	63	12384
2026-01-24 08:08:19.14	338.74	13.93	-52.1	-65.3	3.9	7.43e-01	0	43	104	0	76	15853
2026-01-24 08:08:20.15	338.55	13.86	-44.8	-55.7	3.8	7.46e-01	0	43	104	0	61	12411
2026-01-24 08:08:21.15	338.37	13.79	-44.8	-55.4	3.8	7.45e-01	0	43	104	0	61	11992
2026-01-24 08:08:22.16	338.19	13.72	-45.0	-56.1	3.8	7.45e-01	0	44	104	0	61	13080
2026-01-24 08:08:23.17	338.00	13.65	-50.5	-62.7	3.8	7.46e-01	0	43	104	0	73	13981
2026-01-24 08:08:24.17	337.82	13.58	-45.4	-56.5	3.8	7.47e-01	0	43	104	0	61	13626
2026-01-24 08:08:25.18	337.64	13.51	-54.0	-70.3	3.9	7.42e-01	0	43	104	0	78	25221
2026-01-24 08:08:26.19	337.46	13.44	-46.1	-57.2	3.8	7.43e-01	0	43	104	0	64	12427
2026-01-24 08:08:27.20	337.28	13.37	-52.0	-65.1	3.9	7.41e-01	0	44	104	0	76	15470
2026-01-24 08:08:28.21	337.10	13.30	-44.9	-55.8	3.8	7.46e-01	0	43	104	0	61	12567
2026-01-24 08:08:29.22	336.92	13.23	-44.9	-55.7	3.8	7.41e-01	0	43	104	0	61	12387
2026-01-24 08:08:30.23	336.75	13.16	-45.3	-56.3	3.8	7.47e-01	0	43	104	0	61	13288
2026-01-24 08:08:31.23	336.57	13.09	-49.9	-61.6	3.9	7.42e-01	0	43	104	0	71	13829
2026-01-24 08:08:32.24	336.40	13.02	-45.7	-56.6	3.8	7.44e-01	0	43	104	0	62	13091
2026-01-24 08:08:33.25	336.23	12.94	-53.3	-68.4	3.9	7.42e-01	0	43	104	0	78	20295
2026-01-24 08:08:34.26	336.05	12.87	-45.7	-56.6	3.9	7.45e-01	0	43	104	0	63	12278
2026-01-24 08:08:35.27	335.88	12.80	-51.3	-64.0	3.9	7.43e-01	0	43	104	0	74	15380
2026-01-24 08:08:36.28	335.71	12.73	-45.2	-55.8	3.8	7.43e-01	0	44	104	0	62	11930
2026-01-24 08:08:37.28	335.54	12.66	-45.1	-56.4	3.8	7.43e-01	0	44	104	0	62	12725
2026-01-24 08:08:38.29	335.37	12.59	-44.8	-55.3	3.8	7.42e-01	0	43	104	0	61	11822
2026-01-24 08:08:39.30	335.20	12.52	-46.8	-58.3	3.9	7.42e-01	0	44	104	0	65	13364
2026-01-24 08:08:40.31	335.03	12.45	-45.6	-56.2	3.8	7.45e-01	0	43	104	0	62	12451
2026-01-24 08:08:41.32	334.87	12.38	-53.2	-68.5	3.9	7.39e-01	0	43	104	0	78	20364
2026-01-24 08:08:42.32	334.70	12.31	-45.7	-56.7	3.8	7.46e-01	0	43	104	0	63	12387
2026-01-24 08:08:43.33	334.54	12.24	-50.2	-62.2	3.8	7.43e-01	0	43	104	0	72	13937
2026-01-24 08:08:44.34	334.37	12.17	-45.3	-56.2	3.8	7.44e-01	0	43	104	0	62	12497
2026-01-24 08:08:45.35	334.21	12.10	-45.2	-55.9	3.8	7.42e-01	0	43	104	0	62	12062
2026-01-24 08:08:46.35	334.05	12.03	-45.3	-56.4	3.8	7.45e-01	0	43	104	0	62	12668
2026-01-24 08:08:47.36	333.89	11.96	-46.4	-57.6	3.7	7.45e-01	0	43	104	0	65	12259
2026-01-24 08:08:48.37	333.73	11.89	-46.4	-48.6	5.3	7.03e-01	0	43	104	0	63	4882
2026-01-24 08:08:49.38	333.57	11.82	-51.3	-54.9	14.3	6.03e-01	0	43	0	524288	74	5341
2026-01-24 08:08:50.39	333.41	11.75	-45.1	-46.4	24.4	6.04e-01	0	43	0	2097152	62	4049
2026-01-24 08:08:51.39	333.25	11.68	-48.9	-51.1	18.9	6.00e-01	0	43	0	4194304	70	4342
2026-01-24 08:08:52.40	333.09	11.61	-44.8	-46.0	24.9	6.05e-01	0	43	0	5767168	60	4324
2026-01-24 08:08:53.41	332.94	11.54	-44.9	-46.3	24.5	6.04e-01	0	43	0	7864320	60	4462
2026-01-24 08:08:54.42	332.78	11.47	-44.7	-45.9	25.1	6.04e-01	0	43	0	9437184	60	4286
2026-01-24 08:08:55.43	332.63	11.40	-45.5	-47.0	24.1	6.05e-01	0	43	0	11534336	61	4573
2026-01-24 08:08:56.43	332.47	11.33	-44.6	-45.8	25.0	6.03e-01	0	43	0	13631488	61	3971
2026-01-24 08:08:57.44	332.32	11.26	-44.8	-46.1	24.9	6.02e-01	0	43	0	15204352	60	4376
2026-01-24 08:08:58.45	332.17	11.18	-45.2	-46.5	24.3	6.02e-01	0	43	0	17301504	61	4316
2026-01-24 08:08:59.46	332.02	11.11	-44.3	-45.5	25.5	6.05e-01	0	43	0	19398656	60	4054
2026-01-24 08:09:00.47	331.87	11.04	-45.4	-46.8	24.3	6.03e-01	0	43	0	20971520	61	4475
2026-01-24 08:09:01.47	331.72	10.97	-44.6	-45.8	24.9	6.03e-01	0	43	0	23068672	61	3983
2026-01-24 08:09:02.48	331.57	10.90	-44.7	-46.0	24.9	6.03e-01	0	43	0	24641536	60	4307
2026-01-24 08:09:03.49	331.42	10.83	-45.7	-47.2	23.8	6.03e-01	0	43	0	26738688	62	4436
2026-01-24 08:09:04.50	331.27	10.76	-44.9	-46.2	24.6	6.02e-01	0	43	0	28835840	61	4151
2026-01-24 08:09:05.51	331.12	10.69	-45.5	-46.9	23.8	6.02e-01	0	43	0	30408704	61	4542
2026-01-24 08:09:06.52	330.98	10.62	-46.0	-47.5	23.3	6.05e-01	0	43	0	32505856	63	4304
2026-01-24 08:09:07.53	330.83	10.55	-44.2	-45.3	25.6	6.02e-01	0	43	0	34603008	60	3990
2026-01-24 08:09:08.53	330.69	10.49	-45.5	-47.0	23.8	6.02e-01	0	43	0	36175872	61	4555
2026-01-24 08:09:09.54	330.54	10.42	-45.3	-46.7	23.5	6.03e-01	0	43	0	38273024	62	4189
2026-01-24 08:09:10.55	330.40	10.35	-44.3	-45.4	25.4	6.03e-01	0	43	0	39845888	60	4049
2026-01-24 08:09:11.56	330.26	10.28	-45.4	-46.9	24.0	6.02e-01	0	43	0	41943040	61	4504
2026-01-24 08:09:12.57	330.12	10.21	-45.0	-46.3	24.0	6.06e-01	0	43	0	43515904	61	4227
2026-01-24 08:09:13.57	329.98	10.14	-44.5	-45.7	25.2	6.01e-01	0	43	0	45613056	60	4167
2026-01-24 08:09:14.58	329.84	10.07	-45.3	-46.7	24.2	6.04e-01	0	43	0	47710208	61	4439
2026-01-24 08:09:15.59	329.70	10.00	-45.2	-46.6	24.0	6.01e-01	0	43	0	49283072	61	4361
2026-01-24 08:09:16.60	329.56	9.93	-44.9	-46.1	24.8	6.04e-01	0	43	0	51380224	61	4141
2026-01-24 08:09:17.61	329.42	9.86	-45.8	-47.2	23.7	6.03e-01	0	43	0	52953088	62	4439
2026-01-24 08:09:18.61	329.28	9.79	-45.5	-46.9	23.9	6.02e-01	0	43	0	55050240	62	4291
2026-01-24 08:09:19.62	329.15	9.72	-45.0	-46.3	24.6	6.04e-01	0	43	0	57147392	62	3981
2026-01-24 08:09:20.63	329.01	9.65	-45.8	-47.3	23.8	6.04e-01	0	43	0	58720256	62	4474
2026-01-24 08:09:21.64	328.88	9.58	-45.7	-47.2	23.6	6.04e-01	0	43	0	60817408	62	4411
2026-01-24 08:09:22.65	328.74	9.51	-44.8	-46.1	24.9	6.03e-01	0	43	0	62914560	61	4113
2026-01-24 08:09:23.65	328.61	9.45	-45.5	-46.9	24.1	6.03e-01	0	43	0	64487424	61	4520
2026-01-24 08:09:24.66	328.48	9.38	-45.3	-46.6	24.2	6.03e-01	0	43	0	66584576	61	4382
2026-01-24 08:09:25.67	328.34	9.31	-44.8	-46.0	24.9	6.04e-01	0	43	0	68157440	61	4093
2026-01-24 08:09:26.68	328.21	9.24	-45.2	-46.6	24.4	6.03e-01	0	43	0	70254592	61	4356
2026-01-24 08:09:27.68	328.08	9.17	-45.4	-46.8	24.2	6.03e-01	0	43	0	71827456	61	4458
2026-01-24 08:09:28.69	327.95	9.10	-45.0	-46.3	24.6	6.02e-01	0	43	0	73924608	61	4240
2026-01-24 08:09:29.70	327.82	9.03	-45.1	-46.4	24.5	6.01e-01	0	43	0	76021760	61	4288
2026-01-24 08:09:30.71	327.69	8.97	-45.6	-47.0	24.0	6.03e-01	0	43	0	77594624	61	4577
2026-01-24 08:09:31.72	327.57	8.90	-45.5	-46.9	23.9	6.02e-01	0	43	0	79691776	61	4510
2026-01-24 08:09:32.73	327.44	8.83	-45.1	-46.5	24.5	6.02e-01	0	43	0	81788928	61	4293
2026-01-24 08:09:33.73	327.31	8.76	-45.7	-47.1	23.8	6.03e-01	0	43	0	83361792	61	4643
2026-01-24 08:09:34.74	327.19	8.69	-45.5	-46.9	23.8	6.01e-01	0	43	0	85458944	62	4279
2026-01-24 08:09:35.75	327.06	8.63	-45.5	-46.8	24.1	6.03e-01	0	43	0	87031808	62	4226
2026-01-24 08:09:36.76	326.94	8.56	-45.3	-46.6	24.2	6.05e-01	0	43	0	89128960	62	4130
2026-01-24 08:09:37.76	326.81	8.49	-45.5	-46.9	23.9	6.02e-01	0	43	0	91226112	62	4270
2026-01-24 08:09:38.77	326.69	8.42	-45.3	-46.7	24.0	6.04e-01	0	43	0	92798976	62	4180
2026-01-24 08:09:39.78	326.57	8.36	-45.5	-46.8	24.1	6.03e-01	0	43	0	94896128	62	4226
2026-01-24 08:09:40.79	326.44	8.29	-45.7	-47.1	23.7	6.04e-01	0	43	0	96468992	62	4382
2026-01-24 08:09:41.79	326.32	8.22	-45.9	-47.4	23.5	6.03e-01	0	43	0	98566144	62	4513
2026-01-24 08:09:42.80	326.20	8.15	-45.6	-47.1	23.7	6.02e-01	0	43	0	100139008	62	4357
2026-01-24 08:09:43.81	326.08	8.09	-45.8	-47.2	23.7	6.03e-01	0	43	0	102236160	62	4414
2026-01-24 08:09:44.82	325.96	8.02	-46.0	-47.5	23.4	6.04e-01	0	43	0	104333312	62	4563
2026-01-24 08:09:45.83	325.84	7.95	-45.7	-47.2	23.7	6.05e-01	0	43	0	106430464	63	4148
2026-01-24 08:09:46.83	325.72	7.88	-45.5	-46.9	24.0	6.04e-01	0	43	0	108003328	62	4253
2026-01-24 08:09:47.84	325.61	7.82	-45.4	-46.8	24.1	6.02e-01	0	43	0	110100480	62	4196
2026-01-24 08:09:48.85	325.49	7.75	-45.5	-46.9	23.9	6.02e-01	0	43	0	111673344	62	4272
2026-01-24 08:09:49.86	325.37	7.68	-45.5	-47.0	23.9	6.02e-01	0	43	0	113770496	62	4303
2026-01-24 08:09:50.87	325.25	7.62	-45.5	-46.9	23.9	6.03e-01	0	43	0	115343360	62	4268
2026-01-24 08:09:51.87	325.14	7.55	-45.4	-46.8	24.1	6.02e-01	0	43	0	117440512	62	4209
2026-01-24 08:09:52.88	325.02	7.48	-45.6	-47.1	23.8	6.02e-01	0	43	0	119537664	62	4360
2026-01-24 08:09:53.89	324.91	7.42	-45.7	-47.2	23.6	6.00e-01	0	43	0	121110528	62	4406
2026-01-24 08:09:54.90	324.80	7.35	-45.3	-46.7	24.0	6.04e-01	0	43	0	123207680	62	4178
2026-01-24 08:09:55.91	324.68	7.28	-45.5	-46.8	24.0	6.04e-01	0	43	0	124780544	62	4237
2026-01-24 08:09:56.91	324.57	7.22	-46.0	-47.5	23.4	6.04e-01	0	43	0	126877696	62	4560
2026-01-24 08:09:57.92	324.46	7.15	-45.6	-47.1	23.7	6.02e-01	0	43	0	128450560	62	4343
2026-01-24 08:09:58.93	324.35	7.09	-45.6	-47.1	23.8	6.03e-01	0	43	0	130547712	62	4343
2026-01-24 08:09:59.94	324.24	7.02	-45.9	-47.3	23.5	6.02e-01	0	43	0	132644864	62	4488
2026-01-24 08:10:00.95	324.13	6.96	-45.8	-47.2	23.6	6.02e-01	0	43	0	134742016	62	4435
2026-01-24 08:10:01.95	324.02	6.89	-46.0	-47.6	23.2	6.03e-01	0	43	0	136314880	62	4615
2026-01-24 08:10:02.96	323.91	6.82	-45.8	-47.2	23.5	6.04e-01	0	43	0	138412032	62	4428
2026-01-24 08:10:03.97	323.80	6.76	-45.8	-47.2	23.5	6.02e-01	0	43	0	139984896	62	4431
2026-01-24 08:10:04.98	323.69	6.69	-45.5	-46.9	23.7	6.03e-01	0	43	0	142082048	62	4275
2026-01-24 08:10:05.98	323.58	6.63	-45.8	-47.3	23.5	6.03e-01	0	43	0	143654912	62	4445
2026-01-24 08:10:06.99	323.48	6.56	-46.0	-47.5	23.2	6.04e-01	0	43	0	145752064	62	4571
2026-01-24 08:10:08.00	323.37	6.50	-45.7	-47.2	23.6	6.01e-01	0	43	0	147849216	62	4409
2026-01-24 08:10:09.01	323.26	6.43	-46.1	-47.6	23.1	6.03e-01	0	43	0	149422080	63	4364
2026-01-24 08:10:10.01	323.16	6.37	-46.2	-47.8	23.1	6.04e-01	0	43	0	151519232	63	4446
2026-01-24 08:10:11.02	323.05	6.30	-46.2	-47.8	23.0	6.04e-01	0	43	0	153092096	63	4474
2026-01-24 08:10:12.03	322.95	6.24	-46.4	-48.0	22.7	6.03e-01	0	43	0	155189248	63	4580
2026-01-24 08:10:13.04	322.84	6.17	-46.2	-47.8	22.9	6.04e-01	0	43	0	157286400	63	4484
2026-01-24 08:10:14.05	322.74	6.11	-46.3	-47.8	22.9	6.02e-01	0	43	0	158859264	63	4487
2026-01-24 08:10:15.05	322.64	6.05	-46.0	-47.5	23.2	6.03e-01	0	43	0	160956416	63	4303
2026-01-24 08:10:16.06	322.54	5.98	-46.1	-47.7	23.0	6.03e-01	0	43	0	163053568	63	4404
2026-01-24 08:10:17.07	322.43	5.92	-46.5	-48.1	22.6	6.02e-01	0	43	0	164626432	63	4618
2026-01-24 08:10:18.08	322.33	5.85	-45.8	-47.2	23.4	6.03e-01	0	43	0	166723584	63	4191
2026-01-24 08:10:19.09	322.23	5.79	-46.2	-47.8	22.9	6.04e-01	0	43	0	168296448	63	4475
2026-01-24 08:10:20.10	322.13	5.72	-45.6	-47.1	23.6	6.05e-01	0	43	0	170393600	63	4101
2026-01-24 08:10:21.11	322.03	5.66	-46.1	-47.6	23.1	6.02e-01	0	43	0	171966464	63	4391
2026-01-24 08:10:22.11	321.93	5.60	-46.0	-47.5	23.3	6.00e-01	0	43	0	174063616	63	4324
2026-01-24 08:10:23.12	321.83	5.53	-46.3	-47.9	22.8	6.03e-01	0	43	0	176160768	63	4504
2026-01-24 08:10:24.13	321.74	5.47	-46.3	-47.8	22.8	6.03e-01	0	43	0	178257920	63	4493
2026-01-24 08:10:25.14	321.64	5.41	-46.3	-48.0	22.7	6.02e-01	0	43	0	179830784	63	4549
2026-01-24 08:10:26.15	321.54	5.34	-46.4	-48.0	22.6	6.02e-01	0	43	0	181927936	63	4573
2026-01-24 08:10:27.15	321.44	5.28	-46.7	-48.4	22.1	6.02e-01	0	43	0	183500800	64	4516
2026-01-24 08:10:28.16	321.35	5.22	-46.4	-48.1	22.6	6.03e-01	0	43	0	185597952	63	4625
2026-01-24 08:10:29.17	321.25	5.15	-46.1	-47.7	22.7	6.03e-01	0	43	0	187170816	64	4178
2026-01-24 08:10:30.18	321.15	5.09	-46.3	-47.9	22.5	6.01e-01	0	43	0	189267968	63	4536
2026-01-24 08:10:31.19	321.06	5.03	-45.8	-47.2	23.3	6.01e-01	0	43	0	191365120	63	4193
2026-01-24 08:10:32.20	320.96	4.96	-53.9	-71.4	3.7	7.45e-01	0	43	104	192413696	78	28671
2026-01-24 08:10:33.21	320.87	4.90	-54.2	-72.4	3.8	7.45e-01	0	43	104	192413696	79	30037
2026-01-24 08:10:34.21	320.78	4.84	-54.5	-72.3	3.8	7.45e-01	0	43	104	192413696	79	30006
2026-01-24 08:10:35.22	320.68	4.78	-54.7	-72.5	3.8	7.44e-01	0	43	104	192413696	79	30612
2026-01-24 08:10:36.23	320.59	4.71	-54.8	-72.6	3.8	7.46e-01	0	43	104	192413696	80	29291
2026-01-24 08:10:37.24	320.50	4.65	-55.0	-72.8	3.8	7.49e-01	0	43	104	192413696	80	29771
2026-01-24 08:10:38.25	320.41	4.59	-55.2	-73.0	3.8	7.47e-01	0	43	104	192413696	80	30541
2026-01-24 08:10:39.25	320.32	4.53	-55.3	-73.1	3.8	7.48e-01	0	43	104	192413696	81	29115
2026-01-24 08:10:40.26	320.23	4.46	-55.4	-73.2	3.8	7.44e-01	0	43	104	192413696	81	29445
2026-01-24 08:10:41.27	320.13	4.40	-55.5	-73.3	3.8	7.47e-01	0	43	104	192413696	81	29817
2026-01-24 08:10:42.28	320.04	4.34	-55.6	-73.4	3.8	7.48e-01	0	43	104	192413696	81	30113
2026-01-24 08:10:43.29	319.95	4.28	-55.6	-73.4	3.8	7.45e-01	0	43	104	192413696	81	30293
2026-01-24 08:10:44.30	319.86	4.22	-55.7	-73.5	3.8	7.45e-01	0	43	104	192413696	81	30474
2026-01-24 08:10:45.31	319.78	4.15	-55.8	-73.6	3.8	7.46e-01	0	43	104	192413696	82	29151
2026-01-24 08:10:46.32	319.69	4.09	-55.8	-73.6	3.8	7.48e-01	0	43	104	192413696	82	29174
2026-01-24 08:10:47.32	319.60	4.03	-55.8	-73.6	3.8	7.44e-01	0	43	104	192413696	82	29336
2026-01-24 08:10:48.33	319.51	3.97	-55.9	-73.7	3.8	7.41e-01	0	44	104	192413696	82	29408
2026-01-24 08:10:49.34	319.43	3.91	-55.8	-73.7	3.8	7.44e-01	0	43	104	192413696	82	29382
2026-01-24 08:10:50.35	319.34	3.85	-55.8	-73.6	3.8	7.44e-01	0	43	104	192413696	82	29262
2026-01-24 08:10:51.36	319.25	3.79	-55.8	-73.6	3.8	7.44e-01	0	43	104	192413696	82	29058
2026-01-24 08:10:52.37	319.17	3.73	-55.7	-73.6	3.8	7.46e-01	0	43	104	192413696	82	29057
2026-01-24 08:10:53.38	319.08	3.66	-55.7	-73.5	3.8	7.45e-01	0	43	104	192413696	82	28689
2026-01-24 08:10:54.39	318.99	3.60	-55.6	-73.4	3.8	7.46e-01	0	43	104	192413696	82	28534
2026-01-24 08:10:55.40	318.91	3.54	-55.6	-73.4	3.8	7.45e-01	0	43	104	192413696	82	28425
2026-01-24 08:10:56.41	318.83	3.48	-55.5	-73.3	3.8	7.44e-01	0	43	104	192413696	82	28339
2026-01-24 08:10:57.41	318.74	3.42	-55.5	-73.3	3.8	7.45e-01	0	43	104	192413696	82	28166
2026-01-24 08:10:58.42	318.66	3.36	-55.5	-73.3	3.8	7.43e-01	0	43	104	192413696	82	28159
2026-01-24 08:10:59.43	318.58	3.30	-55.5	-73.3	3.8	7.47e-01	0	43	104	192413696	82	28158
2026-01-24 08:11:00.44	318.49	3.24	-55.4	-73.2	3.8	7.48e-01	0	43	104	192413696	82	27937
2026-01-24 08:11:01.45	318.41	3.18	-55.4	-73.2	3.8	7.44e-01	0	43	104	192413696	82	28023
2026-01-24 08:11:02.46	318.33	3.12	-55.4	-73.2	3.8	7.44e-01	0	43	104	192413696	82	27851
2026-01-24 08:11:03.47	318.25	3.06	-55.4	-73.2	3.8	7.44e-01	0	43	104	192413696	82	27846
2026-01-24 08:11:04.48	318.16	3.00	-55.3	-73.1	3.8	7.44e-01	0	43	104	192413696	82	27634
2026-01-24 08:11:05.49	318.08	2.94	-55.3	-73.1	3.8	7.44e-01	0	43	104	192413696	82	27576
2026-01-24 08:11:06.49	318.00	2.88	-55.3	-73.1	3.8	7.45e-01	0	44	104	192413696	82	27672
2026-01-24 08:11:07.50	317.92	2.82	-55.3	-73.1	3.8	7.44e-01	0	43	104	192413696	82	27596
2026-01-24 08:11:08.51	317.84	2.76	-55.3	-73.1	3.8	7.47e-01	0	43	104	192413696	82	27508
2026-01-24 08:11:09.52	317.76	2.70	-55.3	-73.1	3.8	7.46e-01	0	43	104	192413696	82	27419
2026-01-24 08:11:10.53	317.69	2.64	-55.4	-73.2	3.8	7.45e-01	0	43	104	192413696	82	27965
2026-01-24 08:11:11.53	317.61	2.58	-55.5	-73.4	3.8	7.46e-01	0	43	104	192413696	82	28380
2026-01-24 08:11:12.54	317.53	2.53	-55.4	-73.3	3.8	7.45e-01	0	43	104	192413696	82	28061
2026-01-24 08:11:13.55	317.45	2.47	-55.4	-73.2	3.8	7.45e-01	0	43	104	192413696	82	27773
2026-01-24 08:11:14.56	317.37	2.41	-55.3	-73.1	3.8	7.44e-01	0	43	104	192413696	82	27697
2026-01-24 08:11:15.57	317.30	2.35	-55.3	-73.1	3.8	7.49e-01	0	43	104	192413696	82	27670
2026-01-24 08:11:16.57	317.22	2.29	-55.3	-73.1	3.8	7.45e-01	0	43	104	192413696	82	27508
2026-01-24 08:11:17.58	317.14	2.23	-55.2	-73.1	3.8	7.46e-01	0	43	104	192413696	82	27523
2026-01-24 08:11:18.59	317.07	2.17	-55.3	-73.1	3.8	7.45e-01	0	43	104	192413696	82	27397
2026-01-24 08:11:19.60	316.99	2.11	-55.2	-73.1	3.8	7.44e-01	0	43	104	192413696	82	27441
2026-01-24 08:11:20.61	316.92	2.06	-55.2	-73.0	3.8	7.41e-01	0	43	104	192413696	82	27371
2026-01-24 08:11:21.62	316.84	2.00	-55.2	-73.0	3.8	7.45e-01	0	43	104	192413696	82	27382
2026-01-24 08:11:22.63	316.77	1.94	-55.2	-73.0	3.8	7.44e-01	0	43	104	192413696	82	27365
2026-01-24 08:11:23.64	316.69	1.88	-55.3	-73.1	3.8	7.45e-01	0	44	104	192413696	82	27563

#Closed at: 2026-01-24 08:11:24
#Recorded file [192 MB]: D:/lorett/data/31041_260124_110440.dat