passes_logs/2026/01/24/R3.2S_Murmansk/R3.2S_Murmansk__20260124_044728_AQUA_rec.log

#Pass ID: 20260124_044728_AQUA
#Satellite: AQUA
#Configuration: AQUA
#almurnet v.1.7.20251203
#Start time: 2026-01-24 04:47:27

#Version: 2.2.20231116
#Station: R3.2S_Murmansk
#Location: 33.079688 lon 68.888172 lat
#TLE: 1 27424U 02022A   26023.58972979  .00001888  00000+0  38753-3 0  9997
#TLE: 2 27424  98.4100 350.1620 0001948  68.5331  43.0280 14.61852003262140

#Time	Az	El	Level	Level2	SNR	BER	BlckErr	Temp	State	Recorded	gain1	gain2
2026-01-24 04:47:27.98	35.15	1.97	-54.7	-72.5	3.8	7.41e-01	0	41	0	0	80	28756
2026-01-24 04:47:28.99	35.09	2.04	-54.7	-72.5	3.8	7.46e-01	0	41	104	0	80	28783
2026-01-24 04:47:29.99	35.03	2.10	-54.7	-72.5	3.8	7.43e-01	0	41	104	0	80	28787
2026-01-24 04:47:31.00	34.97	2.16	-54.7	-72.5	3.8	7.45e-01	0	41	104	0	80	28704
2026-01-24 04:47:32.01	34.91	2.22	-54.7	-72.5	3.8	7.45e-01	0	41	104	0	80	28685
2026-01-24 04:47:33.02	34.84	2.28	-54.7	-72.5	3.8	7.45e-01	0	41	104	0	80	28762
2026-01-24 04:47:34.03	34.78	2.34	-54.7	-72.5	3.8	7.42e-01	0	41	104	0	80	28805
2026-01-24 04:47:35.03	34.72	2.40	-54.7	-72.5	3.8	7.42e-01	0	41	104	0	80	28776
2026-01-24 04:47:36.04	34.65	2.47	-54.7	-72.5	3.8	7.44e-01	0	41	104	0	80	28722
2026-01-24 04:47:37.05	34.59	2.53	-54.7	-72.5	3.8	7.44e-01	0	41	104	0	80	28818
2026-01-24 04:47:38.06	34.53	2.59	-54.7	-72.5	3.8	7.42e-01	0	41	104	0	80	28809
2026-01-24 04:47:39.07	34.46	2.65	-54.7	-72.5	3.8	7.45e-01	0	41	104	0	80	28720
2026-01-24 04:47:40.08	34.40	2.72	-54.7	-72.5	3.8	7.46e-01	0	41	104	0	80	28817
2026-01-24 04:47:41.08	34.33	2.78	-54.7	-72.5	3.8	7.46e-01	0	41	104	0	80	28779
2026-01-24 04:47:42.09	34.27	2.84	-54.7	-72.5	3.8	7.45e-01	0	41	104	0	80	28826
2026-01-24 04:47:43.10	34.20	2.90	-54.7	-72.5	3.8	7.40e-01	0	41	104	0	80	28785
2026-01-24 04:47:44.11	34.13	2.97	-54.7	-72.5	3.8	7.44e-01	0	41	104	0	80	28779
2026-01-24 04:47:45.12	34.07	3.03	-54.7	-72.5	3.8	7.45e-01	0	41	104	0	80	28748
2026-01-24 04:47:46.13	34.00	3.09	-54.7	-72.5	3.8	7.46e-01	0	41	104	0	80	28819
2026-01-24 04:47:47.14	33.93	3.16	-54.7	-72.5	3.8	7.44e-01	0	41	104	0	80	28809
2026-01-24 04:47:48.15	33.86	3.22	-54.7	-72.5	3.8	7.42e-01	0	42	104	0	80	28795
2026-01-24 04:47:49.15	33.80	3.28	-54.7	-72.5	3.8	7.48e-01	0	41	104	0	80	28797
2026-01-24 04:47:50.16	33.73	3.35	-54.7	-72.5	3.8	7.47e-01	0	42	104	0	80	28796
2026-01-24 04:47:51.17	33.66	3.41	-54.7	-72.5	3.8	7.45e-01	0	42	104	0	80	28836
2026-01-24 04:47:52.18	33.59	3.48	-54.7	-72.5	3.8	7.47e-01	0	41	104	0	80	28831
2026-01-24 04:47:53.19	33.52	3.54	-54.7	-72.5	3.8	7.45e-01	0	42	104	0	80	28781
2026-01-24 04:47:54.19	33.45	3.60	-54.7	-72.5	3.8	7.44e-01	0	42	104	0	80	28768
2026-01-24 04:47:55.20	33.38	3.67	-54.7	-72.5	3.8	7.49e-01	0	42	104	0	80	28814
2026-01-24 04:47:56.22	33.31	3.73	-54.7	-72.5	3.8	7.45e-01	0	42	104	0	80	28738
2026-01-24 04:47:57.22	33.24	3.80	-54.7	-72.5	3.8	7.49e-01	0	42	104	0	80	28827
2026-01-24 04:47:58.23	33.17	3.86	-54.7	-72.5	3.8	7.47e-01	0	42	104	0	80	28805
2026-01-24 04:47:59.24	33.10	3.93	-54.7	-72.5	3.8	7.44e-01	0	42	104	0	80	28808
2026-01-24 04:48:00.24	33.03	3.99	-54.7	-72.5	3.8	7.46e-01	0	42	104	0	80	28751
2026-01-24 04:48:01.24	32.96	4.06	-54.7	-72.5	3.8	7.48e-01	0	42	104	0	80	28706
2026-01-24 04:48:02.25	32.88	4.12	-54.7	-72.5	3.8	7.45e-01	0	42	104	0	80	28732
2026-01-24 04:48:03.26	32.81	4.19	-54.7	-72.5	3.8	7.44e-01	0	42	104	0	80	28818
2026-01-24 04:48:04.27	32.74	4.25	-54.7	-72.5	3.8	7.43e-01	0	42	104	0	80	28740
2026-01-24 04:48:05.27	32.67	4.32	-54.7	-72.5	3.8	7.45e-01	0	42	104	0	80	28801
2026-01-24 04:48:06.28	32.59	4.38	-54.7	-72.5	3.8	7.43e-01	0	42	104	0	80	28718
2026-01-24 04:48:07.29	32.52	4.45	-54.7	-72.5	3.8	7.47e-01	0	42	104	0	80	28839
2026-01-24 04:48:08.30	32.44	4.52	-54.7	-72.5	3.8	7.43e-01	0	42	104	0	80	28755
2026-01-24 04:48:09.31	32.37	4.58	-54.7	-72.5	3.8	7.45e-01	0	42	104	0	80	28753
2026-01-24 04:48:10.32	32.29	4.65	-54.7	-72.5	3.8	7.44e-01	0	42	104	0	80	28739
2026-01-24 04:48:11.32	32.22	4.71	-54.7	-72.5	3.8	7.45e-01	0	42	104	0	80	28775
2026-01-24 04:48:12.33	32.14	4.78	-54.7	-72.5	3.8	7.44e-01	0	42	104	0	80	28801
2026-01-24 04:48:13.34	32.06	4.85	-54.7	-72.5	3.8	7.47e-01	0	42	104	0	80	28824
2026-01-24 04:48:14.35	31.99	4.92	-54.7	-72.5	3.8	7.44e-01	0	42	104	0	80	28772
2026-01-24 04:48:15.35	31.91	4.98	-54.7	-72.5	3.8	7.45e-01	0	42	104	0	80	28776
2026-01-24 04:48:16.36	31.83	5.05	-54.7	-72.5	3.8	7.45e-01	0	42	104	0	80	28753
2026-01-24 04:48:17.37	31.75	5.12	-54.7	-72.5	3.8	7.44e-01	0	42	104	0	80	28831
2026-01-24 04:48:18.38	31.67	5.18	-54.7	-72.5	3.8	7.45e-01	0	42	104	0	80	28748
2026-01-24 04:48:19.39	31.59	5.25	-54.7	-72.5	3.8	7.48e-01	0	42	104	0	80	28850
2026-01-24 04:48:20.40	31.51	5.32	-54.7	-72.5	3.8	7.45e-01	0	42	104	0	80	28850
2026-01-24 04:48:21.40	31.43	5.39	-54.7	-72.5	3.8	7.47e-01	0	42	104	0	80	28872
2026-01-24 04:48:22.41	31.35	5.45	-54.7	-72.5	3.8	7.48e-01	0	42	104	0	80	28906
2026-01-24 04:48:23.42	31.27	5.52	-54.7	-72.5	3.8	7.44e-01	0	42	104	0	80	28830
2026-01-24 04:48:24.43	31.19	5.59	-54.7	-72.5	3.8	7.45e-01	0	42	104	0	80	28890
2026-01-24 04:48:25.43	31.11	5.66	-54.7	-72.5	3.8	7.45e-01	0	42	104	0	80	28908
2026-01-24 04:48:26.44	31.03	5.73	-54.7	-72.5	3.8	7.44e-01	0	42	104	0	80	28865
2026-01-24 04:48:27.45	30.95	5.80	-54.7	-72.5	3.8	7.45e-01	0	42	104	0	80	28810
2026-01-24 04:48:28.46	30.86	5.87	-54.7	-72.5	3.8	7.42e-01	0	42	104	0	80	28824
2026-01-24 04:48:29.47	30.78	5.94	-54.7	-72.5	3.8	7.43e-01	0	42	104	0	80	28787
2026-01-24 04:48:30.47	30.70	6.00	-54.7	-72.5	3.8	7.49e-01	0	42	104	0	80	28847
2026-01-24 04:48:31.48	30.61	6.07	-54.7	-72.5	3.8	7.45e-01	0	42	104	0	80	28855
2026-01-24 04:48:32.49	30.53	6.14	-54.7	-72.5	3.8	7.42e-01	0	42	104	0	80	28800
2026-01-24 04:48:33.50	30.44	6.21	-54.7	-72.5	3.8	7.45e-01	0	42	104	0	80	28823
2026-01-24 04:48:34.51	30.35	6.28	-54.7	-72.5	3.8	7.44e-01	0	42	104	0	80	28850
2026-01-24 04:48:35.51	30.27	6.35	-54.7	-72.5	3.8	7.44e-01	0	42	104	0	80	28854
2026-01-24 04:48:36.52	30.18	6.42	-54.7	-72.5	3.8	7.46e-01	0	42	104	0	80	28858
2026-01-24 04:48:37.53	30.09	6.49	-54.7	-72.5	3.8	7.46e-01	0	42	104	0	80	28862
2026-01-24 04:48:38.54	30.01	6.56	-54.7	-72.5	3.8	7.46e-01	0	42	104	0	80	28821
2026-01-24 04:48:39.55	29.92	6.63	-54.7	-72.5	3.8	7.47e-01	0	42	104	0	80	28939
2026-01-24 04:48:40.55	29.83	6.70	-54.7	-72.5	3.8	7.47e-01	0	42	104	0	80	28808
2026-01-24 04:48:41.56	29.74	6.77	-54.7	-72.5	3.8	7.47e-01	0	42	104	0	80	28858
2026-01-24 04:48:42.57	29.65	6.85	-54.7	-72.5	3.8	7.46e-01	0	42	104	0	80	28903
2026-01-24 04:48:43.58	29.56	6.92	-54.7	-72.5	3.8	7.48e-01	0	42	104	0	80	28922
2026-01-24 04:48:44.59	29.47	6.99	-54.7	-72.5	3.8	7.47e-01	0	42	104	0	80	28920
2026-01-24 04:48:45.60	29.38	7.06	-54.7	-72.5	3.8	7.44e-01	0	42	104	0	80	28897
2026-01-24 04:48:46.60	29.29	7.13	-54.7	-72.5	3.8	7.47e-01	0	42	104	0	80	28878
2026-01-24 04:48:47.61	29.20	7.20	-54.7	-72.5	3.8	7.44e-01	0	42	104	0	80	28877
2026-01-24 04:48:48.62	29.10	7.28	-54.7	-72.5	3.8	7.47e-01	0	42	104	0	80	28849
2026-01-24 04:48:49.63	29.01	7.35	-54.7	-72.5	3.8	7.46e-01	0	42	104	0	80	28894
2026-01-24 04:48:50.63	28.92	7.42	-54.7	-72.5	3.8	7.44e-01	0	42	104	0	80	28842
2026-01-24 04:48:51.64	28.82	7.49	-54.7	-72.5	3.8	7.44e-01	0	42	104	0	80	28884
2026-01-24 04:48:52.65	28.73	7.56	-54.7	-72.5	3.8	7.47e-01	0	42	104	0	80	28828
2026-01-24 04:48:53.66	28.63	7.64	-54.7	-72.5	3.8	7.46e-01	0	42	104	0	80	28816
2026-01-24 04:48:54.66	28.54	7.71	-54.7	-72.5	3.8	7.48e-01	0	42	104	0	80	28850
2026-01-24 04:48:55.67	28.44	7.78	-54.7	-72.5	3.8	7.45e-01	0	42	104	0	80	28865
2026-01-24 04:48:56.68	28.34	7.86	-54.7	-72.5	3.8	7.43e-01	0	42	104	0	80	28853
2026-01-24 04:48:57.69	28.25	7.93	-54.7	-72.5	3.8	7.46e-01	0	43	104	0	80	28839
2026-01-24 04:48:58.69	28.15	8.00	-54.7	-72.5	3.8	7.47e-01	0	42	104	0	80	28820
2026-01-24 04:48:59.70	28.05	8.08	-54.7	-72.5	3.8	7.46e-01	0	42	104	0	80	28879
2026-01-24 04:49:00.71	27.95	8.15	-54.7	-72.5	3.8	7.47e-01	0	42	104	0	80	28844
2026-01-24 04:49:01.72	27.85	8.22	-54.7	-72.5	3.8	7.46e-01	0	42	104	0	80	28827
2026-01-24 04:49:02.73	27.75	8.30	-54.7	-72.5	3.8	7.47e-01	0	42	104	0	80	28812
2026-01-24 04:49:03.74	27.65	8.37	-54.7	-72.5	3.8	7.47e-01	0	42	104	0	80	28831
2026-01-24 04:49:04.75	27.55	8.45	-54.7	-72.5	3.8	7.43e-01	0	42	104	0	80	28827
2026-01-24 04:49:05.75	27.45	8.52	-54.7	-72.5	3.8	7.48e-01	0	42	104	0	80	28798
2026-01-24 04:49:06.76	27.34	8.60	-54.7	-72.5	3.8	7.45e-01	0	42	104	0	80	28838
2026-01-24 04:49:07.77	27.24	8.67	-54.7	-72.5	3.8	7.46e-01	0	43	104	0	80	28821
2026-01-24 04:49:08.78	27.14	8.75	-54.7	-72.5	3.8	7.45e-01	0	43	104	0	80	28816
2026-01-24 04:49:09.79	27.03	8.82	-54.7	-72.5	3.8	7.47e-01	0	43	104	0	80	28828
2026-01-24 04:49:10.79	26.93	8.90	-54.7	-72.5	3.8	7.46e-01	0	42	104	0	80	28828
2026-01-24 04:49:11.80	26.82	8.97	-54.7	-72.5	3.8	7.45e-01	0	43	104	0	80	28840
2026-01-24 04:49:12.81	26.71	9.05	-54.7	-72.5	3.8	7.44e-01	0	42	104	0	80	28824
2026-01-24 04:49:13.82	26.61	9.13	-54.7	-72.5	3.8	7.44e-01	0	43	104	0	80	28843
2026-01-24 04:49:14.83	26.50	9.20	-54.7	-72.5	3.8	7.40e-01	0	43	104	0	80	28864
2026-01-24 04:49:15.84	26.39	9.28	-54.7	-72.5	3.8	7.44e-01	0	43	104	0	80	28888
2026-01-24 04:49:16.84	26.28	9.35	-54.7	-72.5	3.8	7.43e-01	0	43	104	0	80	28837
2026-01-24 04:49:17.85	26.17	9.43	-54.7	-72.5	3.8	7.45e-01	0	43	104	0	80	28830
2026-01-24 04:49:18.86	26.06	9.51	-54.7	-72.5	3.8	7.46e-01	0	43	104	0	80	28824
2026-01-24 04:49:19.87	25.95	9.58	-54.7	-72.5	3.8	7.43e-01	0	43	104	0	80	28892
2026-01-24 04:49:20.87	25.84	9.66	-54.7	-72.5	3.8	7.43e-01	0	42	104	0	80	28954
2026-01-24 04:49:21.88	25.73	9.74	-54.7	-72.5	3.8	7.44e-01	0	43	104	0	80	28861
2026-01-24 04:49:22.89	25.62	9.82	-54.7	-72.5	3.8	7.45e-01	0	42	104	0	80	28861
2026-01-24 04:49:23.90	25.50	9.89	-54.7	-72.5	3.8	7.45e-01	0	43	104	0	80	28926
2026-01-24 04:49:24.91	25.39	9.97	-54.7	-72.5	3.8	7.47e-01	0	43	104	0	80	28890
2026-01-24 04:49:25.91	25.28	10.05	-54.7	-72.5	3.8	7.46e-01	0	43	104	0	80	28865
2026-01-24 04:49:26.92	25.16	10.13	-54.7	-72.5	3.8	7.43e-01	0	42	104	0	80	28890
2026-01-24 04:49:27.93	25.04	10.21	-54.7	-72.5	3.8	7.46e-01	0	43	104	0	80	28849
2026-01-24 04:49:28.94	24.93	10.28	-54.7	-72.5	3.8	7.45e-01	0	43	104	0	80	28882
2026-01-24 04:49:29.95	24.81	10.36	-54.7	-72.5	3.8	7.46e-01	0	43	104	0	80	28818
2026-01-24 04:49:30.96	24.69	10.44	-54.7	-72.5	3.8	7.47e-01	0	43	104	0	80	28864
2026-01-24 04:49:31.97	24.57	10.52	-54.7	-72.5	3.8	7.46e-01	0	43	104	0	80	28894
2026-01-24 04:49:32.98	24.45	10.60	-54.7	-72.5	3.8	7.44e-01	0	43	104	0	80	28801
2026-01-24 04:49:33.99	24.33	10.68	-54.7	-72.5	3.8	7.42e-01	0	43	104	0	80	28876
2026-01-24 04:49:34.99	24.21	10.76	-54.7	-72.5	3.8	7.43e-01	0	43	104	0	80	28809
2026-01-24 04:49:36.00	24.09	10.84	-54.7	-72.5	3.8	7.45e-01	0	42	104	0	80	28902
2026-01-24 04:49:37.01	23.97	10.92	-54.7	-72.5	3.8	7.47e-01	0	43	104	0	80	28894
2026-01-24 04:49:38.02	23.84	11.00	-54.7	-72.5	3.8	7.46e-01	0	43	104	0	80	28845
2026-01-24 04:49:39.03	23.72	11.08	-54.7	-72.5	3.8	7.45e-01	0	43	104	0	80	28870
2026-01-24 04:49:40.04	23.59	11.16	-54.7	-72.5	3.8	7.47e-01	0	43	104	0	80	28963
2026-01-24 04:49:41.04	23.47	11.24	-54.7	-72.5	3.8	7.46e-01	0	43	104	0	80	28862
2026-01-24 04:49:42.05	23.34	11.32	-54.7	-72.5	3.8	7.48e-01	0	43	104	0	80	28892
2026-01-24 04:49:43.06	23.22	11.40	-54.7	-72.5	3.8	7.47e-01	0	43	104	0	80	28879
2026-01-24 04:49:44.07	23.09	11.48	-54.7	-72.5	3.8	7.43e-01	0	43	104	0	80	28874
2026-01-24 04:49:45.07	22.96	11.56	-54.7	-72.5	3.8	7.42e-01	0	43	104	0	80	28849
2026-01-24 04:49:46.08	22.83	11.64	-54.7	-72.5	3.8	7.43e-01	0	43	104	0	80	28884
2026-01-24 04:49:47.09	22.70	11.72	-54.7	-72.5	3.8	7.42e-01	0	43	104	0	80	28862
2026-01-24 04:49:48.10	22.57	11.81	-54.7	-72.5	3.8	7.45e-01	0	43	104	0	80	28859
2026-01-24 04:49:49.11	22.44	11.89	-54.7	-72.5	3.8	7.47e-01	0	43	104	0	80	28847
2026-01-24 04:49:50.12	22.30	11.97	-54.7	-72.5	3.8	7.46e-01	0	43	104	0	80	28859
2026-01-24 04:49:51.12	22.17	12.05	-54.7	-72.5	3.8	7.44e-01	0	43	104	0	80	28798
2026-01-24 04:49:52.13	22.04	12.13	-54.7	-72.5	3.8	7.44e-01	0	43	104	0	80	28835
2026-01-24 04:49:53.14	21.90	12.22	-54.7	-72.5	3.8	7.46e-01	0	43	104	0	80	28902
2026-01-24 04:49:54.15	21.76	12.30	-54.7	-72.5	3.8	7.47e-01	0	43	104	0	80	28841
2026-01-24 04:49:55.15	21.63	12.38	-54.7	-72.5	3.8	7.45e-01	0	43	104	0	80	28872
2026-01-24 04:49:56.16	21.49	12.46	-54.7	-72.5	3.8	7.48e-01	0	43	104	0	80	28900
2026-01-24 04:49:57.17	21.35	12.55	-54.7	-72.5	3.8	7.44e-01	0	43	104	0	80	28926
2026-01-24 04:49:58.18	21.21	12.63	-54.7	-72.5	3.8	7.43e-01	0	43	104	0	80	28848
2026-01-24 04:49:59.19	21.07	12.71	-54.7	-72.5	3.8	7.45e-01	0	43	104	0	80	28872
2026-01-24 04:50:00.19	20.93	12.80	-54.7	-72.5	3.8	7.45e-01	0	43	104	0	80	28805
2026-01-24 04:50:01.19	20.79	12.88	-54.7	-72.5	3.8	7.47e-01	0	43	104	0	80	28865
2026-01-24 04:50:02.20	20.65	12.96	-54.7	-72.5	3.8	7.47e-01	0	43	104	0	80	28913
2026-01-24 04:50:03.21	20.50	13.05	-54.7	-72.5	3.8	7.44e-01	0	43	104	0	80	28858
2026-01-24 04:50:04.22	20.36	13.13	-54.7	-72.5	3.8	7.46e-01	0	43	104	0	80	28838
2026-01-24 04:50:05.23	20.21	13.22	-54.7	-72.5	3.8	7.45e-01	0	43	104	0	80	28924
2026-01-24 04:50:06.24	20.07	13.30	-54.7	-72.5	3.8	7.45e-01	0	43	104	0	80	28869
2026-01-24 04:50:07.24	19.92	13.39	-54.7	-72.5	3.8	7.47e-01	0	43	104	0	80	28896
2026-01-24 04:50:08.25	19.77	13.47	-54.7	-72.5	3.8	7.46e-01	0	43	104	0	80	28881
2026-01-24 04:50:09.26	19.62	13.55	-54.7	-72.5	3.8	7.45e-01	0	43	104	0	80	28833
2026-01-24 04:50:10.27	19.47	13.64	-54.7	-72.5	3.8	7.45e-01	0	43	104	0	80	28827
2026-01-24 04:50:11.27	19.32	13.72	-54.7	-72.5	3.8	7.45e-01	0	43	104	0	80	28956
2026-01-24 04:50:12.28	19.17	13.81	-54.7	-72.5	3.8	7.45e-01	0	43	104	0	80	28833
2026-01-24 04:50:13.29	19.02	13.90	-54.7	-72.5	3.8	7.49e-01	0	43	104	0	80	28869
2026-01-24 04:50:14.30	18.86	13.98	-54.7	-72.5	3.8	7.44e-01	0	43	104	0	80	28884
2026-01-24 04:50:15.31	18.71	14.07	-54.7	-72.5	3.8	7.45e-01	0	43	104	0	80	28905
2026-01-24 04:50:16.31	18.55	14.15	-54.7	-72.5	3.8	7.44e-01	0	43	104	0	80	28820
2026-01-24 04:50:17.32	18.40	14.24	-54.7	-72.5	3.8	7.44e-01	0	43	104	0	80	28827
2026-01-24 04:50:18.33	18.24	14.32	-54.7	-72.5	3.8	7.43e-01	0	43	104	0	80	28871
2026-01-24 04:50:19.34	18.08	14.41	-54.7	-72.5	3.8	7.43e-01	0	43	104	0	80	28827
2026-01-24 04:50:20.35	17.92	14.50	-54.7	-72.5	3.8	7.48e-01	0	43	104	0	80	28850
2026-01-24 04:50:21.35	17.76	14.58	-54.7	-72.5	3.8	7.45e-01	0	43	104	0	80	28814
2026-01-24 04:50:22.36	17.60	14.67	-54.7	-72.5	3.8	7.46e-01	0	43	104	0	80	28859
2026-01-24 04:50:23.37	17.43	14.76	-54.7	-72.5	3.8	7.48e-01	0	43	104	0	80	28851
2026-01-24 04:50:24.38	17.27	14.84	-54.7	-72.5	3.8	7.45e-01	0	43	104	0	80	28798
2026-01-24 04:50:25.39	17.10	14.93	-54.7	-72.5	3.8	7.44e-01	0	43	104	0	80	28852
2026-01-24 04:50:26.39	16.94	15.02	-54.7	-72.5	3.8	7.46e-01	0	43	104	0	80	28841
2026-01-24 04:50:27.40	16.77	15.10	-54.7	-72.5	3.8	7.46e-01	0	43	104	0	80	28715
2026-01-24 04:50:28.41	16.60	15.19	-54.7	-72.5	3.8	7.45e-01	0	43	104	0	80	28861
2026-01-24 04:50:29.42	16.43	15.28	-54.7	-72.5	3.8	7.45e-01	0	43	104	0	80	28824
2026-01-24 04:50:30.43	16.26	15.37	-54.7	-72.5	3.8	7.45e-01	0	43	104	0	80	28911
2026-01-24 04:50:31.43	16.09	15.45	-54.7	-72.5	3.8	7.47e-01	0	43	104	0	80	28881
2026-01-24 04:50:32.44	15.92	15.54	-54.7	-72.5	3.8	7.45e-01	0	43	104	0	80	28871
2026-01-24 04:50:33.45	15.75	15.63	-54.7	-72.5	3.8	7.45e-01	0	43	104	0	80	28906
2026-01-24 04:50:34.46	15.57	15.72	-54.7	-72.5	3.8	7.47e-01	0	43	104	0	80	28888
2026-01-24 04:50:35.47	15.39	15.80	-54.7	-72.5	3.8	7.43e-01	0	43	104	0	80	28906
2026-01-24 04:50:36.47	15.22	15.89	-54.7	-72.5	3.8	7.45e-01	0	43	104	0	80	28839
2026-01-24 04:50:37.48	15.04	15.98	-54.7	-72.5	3.8	7.45e-01	0	43	104	0	80	28869
2026-01-24 04:50:38.49	14.86	16.07	-54.7	-72.5	3.8	7.45e-01	0	43	104	0	80	28872
2026-01-24 04:50:39.50	14.68	16.16	-54.7	-72.5	3.8	7.45e-01	0	43	104	0	80	28837
2026-01-24 04:50:40.50	14.50	16.24	-54.7	-72.5	3.8	7.43e-01	0	43	104	0	80	28869
2026-01-24 04:50:41.51	14.32	16.33	-54.7	-72.5	3.8	7.46e-01	0	43	104	0	80	28863
2026-01-24 04:50:42.52	14.13	16.42	-54.7	-72.5	3.8	7.44e-01	0	43	104	0	80	28834
2026-01-24 04:50:43.53	13.95	16.51	-54.7	-72.5	3.8	7.47e-01	0	43	104	0	80	28777
2026-01-24 04:50:44.54	13.76	16.60	-54.7	-72.5	3.8	7.45e-01	0	43	104	0	80	28846
2026-01-24 04:50:45.55	13.57	16.69	-54.7	-72.5	3.8	7.49e-01	0	43	104	0	80	28806
2026-01-24 04:50:46.56	13.38	16.78	-54.7	-72.5	3.8	7.42e-01	0	43	104	0	80	28797
2026-01-24 04:50:47.57	13.19	16.86	-54.7	-72.5	3.8	7.44e-01	0	43	104	0	80	28771
2026-01-24 04:50:48.57	13.00	16.95	-54.7	-72.5	3.8	7.45e-01	0	43	104	0	80	28825
2026-01-24 04:50:49.58	12.81	17.04	-54.7	-72.5	3.8	7.46e-01	0	43	104	0	80	28817
2026-01-24 04:50:50.59	12.62	17.13	-54.7	-72.5	3.8	7.44e-01	0	43	104	0	80	28836
2026-01-24 04:50:51.60	12.42	17.22	-54.7	-72.5	3.8	7.44e-01	0	43	104	0	80	28805
2026-01-24 04:50:52.61	12.23	17.31	-54.7	-72.5	3.8	7.46e-01	0	43	104	0	80	28805
2026-01-24 04:50:53.61	12.03	17.40	-54.7	-72.5	3.8	7.45e-01	0	43	104	0	80	28843
2026-01-24 04:50:54.62	11.83	17.48	-54.7	-72.5	3.8	7.43e-01	0	43	104	0	80	28848
2026-01-24 04:50:55.63	11.63	17.57	-54.7	-72.5	3.8	7.43e-01	0	43	104	0	80	28787
2026-01-24 04:50:56.64	11.43	17.66	-54.7	-72.5	3.8	7.46e-01	0	43	104	0	80	28792
2026-01-24 04:50:57.65	11.23	17.75	-54.7	-72.5	3.8	7.47e-01	0	43	104	0	80	28753
2026-01-24 04:50:58.65	11.02	17.84	-54.7	-72.5	3.8	7.43e-01	0	43	104	0	80	28813
2026-01-24 04:50:59.66	10.82	17.93	-54.7	-72.5	3.8	7.46e-01	0	43	104	0	80	28719
2026-01-24 04:51:00.67	10.61	18.02	-54.7	-72.5	3.8	7.44e-01	0	43	104	0	80	28730
2026-01-24 04:51:01.68	10.41	18.11	-54.7	-72.5	3.8	7.48e-01	0	43	104	0	80	28718
2026-01-24 04:51:02.68	10.20	18.20	-54.7	-72.5	3.8	7.45e-01	0	43	104	0	80	28745
2026-01-24 04:51:03.69	9.99	18.28	-54.7	-72.5	3.8	7.45e-01	0	43	104	0	80	28803
2026-01-24 04:51:04.70	9.78	18.37	-54.7	-72.5	3.8	7.46e-01	0	43	104	0	80	28848
2026-01-24 04:51:05.71	9.56	18.46	-54.7	-72.5	3.8	7.44e-01	0	43	104	0	80	28802
2026-01-24 04:51:06.71	9.35	18.55	-54.7	-72.5	3.8	7.45e-01	0	43	104	0	80	28830
2026-01-24 04:51:07.72	9.13	18.64	-54.7	-72.5	3.8	7.46e-01	0	43	104	0	80	28869
2026-01-24 04:51:08.73	8.92	18.73	-54.7	-72.5	3.8	7.46e-01	0	43	104	0	80	28889
2026-01-24 04:51:09.74	8.70	18.82	-54.7	-72.5	3.8	7.44e-01	0	43	104	0	80	28878
2026-01-24 04:51:10.75	8.48	18.91	-54.7	-72.5	3.8	7.46e-01	0	43	104	0	80	28803
2026-01-24 04:51:11.76	8.26	18.99	-54.7	-72.5	3.8	7.44e-01	0	43	104	0	80	28762
2026-01-24 04:51:12.76	8.04	19.08	-54.7	-72.5	3.8	7.49e-01	0	43	104	0	80	28760
2026-01-24 04:51:13.77	7.81	19.17	-54.7	-72.5	3.8	7.47e-01	0	43	104	0	80	28756
2026-01-24 04:51:14.78	7.59	19.26	-54.7	-72.5	3.8	7.46e-01	0	43	104	0	80	28818
2026-01-24 04:51:15.79	7.36	19.35	-54.7	-72.5	3.8	7.49e-01	0	43	104	0	80	28794
2026-01-24 04:51:16.80	7.13	19.43	-54.7	-72.5	3.8	7.42e-01	0	43	104	0	80	28785
2026-01-24 04:51:17.80	6.91	19.52	-54.7	-72.5	3.8	7.43e-01	0	43	104	0	80	28894
2026-01-24 04:51:18.81	6.67	19.61	-54.7	-72.5	3.8	7.41e-01	0	43	104	0	80	28934
2026-01-24 04:51:19.82	6.44	19.70	-54.7	-72.5	3.8	7.46e-01	0	43	104	0	80	28976
2026-01-24 04:51:20.83	6.21	19.78	-54.7	-72.5	3.8	7.43e-01	0	43	104	0	80	28860
2026-01-24 04:51:21.84	5.97	19.87	-54.7	-72.5	3.8	7.47e-01	0	43	104	0	80	28866
2026-01-24 04:51:22.85	5.74	19.96	-54.7	-72.5	3.8	7.44e-01	0	43	104	0	80	28886
2026-01-24 04:51:23.85	5.50	20.04	-54.7	-72.5	3.8	7.45e-01	0	43	104	0	80	28874
2026-01-24 04:51:24.86	5.26	20.13	-54.7	-72.5	3.8	7.47e-01	0	43	104	0	80	28937
2026-01-24 04:51:25.87	5.02	20.22	-54.7	-72.5	3.8	7.46e-01	0	43	104	0	80	28871
2026-01-24 04:51:26.88	4.78	20.30	-54.7	-72.5	3.8	7.45e-01	0	43	104	0	80	28828
2026-01-24 04:51:27.89	4.53	20.39	-54.7	-72.5	3.8	7.42e-01	0	43	104	0	80	28844
2026-01-24 04:51:28.89	4.29	20.48	-54.7	-72.5	3.8	7.45e-01	0	43	104	0	80	28801
2026-01-24 04:51:29.90	4.04	20.56	-54.7	-72.5	3.8	7.45e-01	0	43	104	0	80	28811
2026-01-24 04:51:30.91	3.79	20.65	-54.7	-72.5	3.8	7.44e-01	0	43	104	0	80	28845
2026-01-24 04:51:31.92	3.54	20.73	-54.7	-72.5	3.8	7.45e-01	0	43	104	0	80	28835
2026-01-24 04:51:32.93	3.29	20.82	-54.7	-72.5	3.8	7.44e-01	0	43	104	0	80	28821
2026-01-24 04:51:33.94	3.04	20.90	-54.7	-72.5	3.8	7.46e-01	0	43	104	0	80	28814
2026-01-24 04:51:34.95	2.79	20.99	-54.7	-72.5	3.8	7.46e-01	0	43	104	0	80	28740
2026-01-24 04:51:35.96	2.53	21.07	-54.7	-72.5	3.8	7.45e-01	0	43	104	0	80	28815
2026-01-24 04:51:36.96	2.28	21.16	-54.7	-72.5	3.8	7.46e-01	0	43	104	0	80	28831
2026-01-24 04:51:37.97	2.02	21.24	-54.7	-72.5	3.8	7.39e-01	0	43	104	0	80	28797
2026-01-24 04:51:38.98	1.76	21.32	-54.7	-72.5	3.8	7.47e-01	0	43	104	0	80	28812
2026-01-24 04:51:39.99	1.50	21.41	-54.7	-72.5	3.8	7.48e-01	0	43	104	0	80	28798
2026-01-24 04:51:40.99	1.23	21.49	-54.7	-72.5	3.8	7.43e-01	0	43	104	0	80	28764
2026-01-24 04:51:42.00	0.97	21.57	-54.7	-72.5	3.8	7.45e-01	0	43	104	0	80	28814
2026-01-24 04:51:43.01	0.70	21.65	-54.7	-72.5	3.8	7.48e-01	0	43	104	0	80	28890
2026-01-24 04:51:44.02	0.44	21.74	-54.7	-72.5	3.8	7.43e-01	0	43	104	0	80	28899
2026-01-24 04:51:45.03	0.17	21.82	-54.7	-72.5	3.8	7.44e-01	0	43	104	0	80	28865
2026-01-24 04:51:46.04	359.90	21.90	-54.7	-72.5	3.8	7.47e-01	0	43	104	0	80	28924
2026-01-24 04:51:47.05	359.62	21.98	-54.7	-72.5	3.8	7.45e-01	0	43	104	0	80	28864
2026-01-24 04:51:48.06	359.35	22.06	-54.7	-72.5	3.8	7.43e-01	0	43	104	0	80	28844
2026-01-24 04:51:49.07	359.07	22.14	-54.7	-72.5	3.8	7.47e-01	0	43	104	0	80	28867
2026-01-24 04:51:50.07	358.80	22.22	-54.7	-72.5	3.8	7.47e-01	0	43	104	0	80	28875
2026-01-24 04:51:51.08	358.52	22.30	-54.7	-72.5	3.8	7.47e-01	0	43	104	0	80	28811
2026-01-24 04:51:52.09	358.24	22.38	-54.7	-72.5	3.8	7.47e-01	0	43	104	0	80	28879
2026-01-24 04:51:53.10	357.96	22.45	-54.7	-72.5	3.8	7.44e-01	0	43	104	0	80	28868
2026-01-24 04:51:54.11	357.68	22.53	-54.7	-72.5	3.8	7.45e-01	0	43	104	0	80	28866
2026-01-24 04:51:55.12	357.39	22.61	-54.7	-72.5	3.8	7.45e-01	0	43	104	0	80	28875
2026-01-24 04:51:56.13	357.11	22.69	-54.7	-72.5	3.8	7.47e-01	0	43	104	0	80	28798
2026-01-24 04:51:57.13	356.82	22.76	-54.7	-72.5	3.8	7.41e-01	0	43	104	0	80	28797
2026-01-24 04:51:58.14	356.54	22.84	-54.7	-72.5	3.8	7.49e-01	0	43	104	0	80	28900
2026-01-24 04:51:59.15	356.25	22.91	-54.7	-72.5	3.8	7.46e-01	0	43	104	0	80	28850
2026-01-24 04:52:00.16	355.95	22.99	-54.7	-72.5	3.8	7.44e-01	0	43	104	0	80	28800
2026-01-24 04:52:01.16	355.66	23.06	-54.7	-72.5	3.8	7.45e-01	0	43	104	0	80	28802
2026-01-24 04:52:02.17	355.37	23.14	-54.7	-72.5	3.8	7.46e-01	0	43	104	0	80	28829
2026-01-24 04:52:03.18	355.07	23.21	-54.7	-72.5	3.8	7.45e-01	0	43	104	0	80	28827
2026-01-24 04:52:04.19	354.78	23.28	-54.7	-72.5	3.8	7.46e-01	0	43	104	0	80	28830
2026-01-24 04:52:05.20	354.48	23.35	-54.7	-72.5	3.8	7.44e-01	0	43	104	0	80	28832
2026-01-24 04:52:06.21	354.18	23.42	-54.7	-72.5	3.8	7.43e-01	0	43	104	0	80	28870
2026-01-24 04:52:07.22	353.87	23.50	-54.7	-72.5	3.8	7.45e-01	0	43	104	0	80	28827
2026-01-24 04:52:08.22	353.57	23.57	-54.7	-72.5	3.8	7.42e-01	0	43	104	0	80	28808
2026-01-24 04:52:09.23	353.27	23.63	-54.7	-72.5	3.8	7.43e-01	0	43	104	0	80	28813
2026-01-24 04:52:10.24	352.96	23.70	-54.7	-72.5	3.8	7.47e-01	0	43	104	0	80	28844
2026-01-24 04:52:11.25	352.66	23.77	-54.7	-72.5	3.8	7.45e-01	0	43	104	0	80	28768
2026-01-24 04:52:12.26	352.35	23.84	-54.7	-72.5	3.8	7.47e-01	0	43	104	0	80	28811
2026-01-24 04:52:13.27	352.04	23.91	-54.7	-72.5	3.8	7.47e-01	0	43	104	0	80	28820
2026-01-24 04:52:14.28	351.72	23.97	-54.7	-72.5	3.8	7.47e-01	0	43	104	0	80	28821
2026-01-24 04:52:15.28	351.41	24.04	-54.7	-72.5	3.8	7.44e-01	0	43	104	0	80	28802
2026-01-24 04:52:16.29	351.10	24.10	-54.7	-72.5	3.8	7.47e-01	0	43	104	0	80	28801
2026-01-24 04:52:17.30	350.78	24.17	-54.7	-72.5	3.8	7.44e-01	0	43	104	0	80	28827
2026-01-24 04:52:18.31	350.47	24.23	-54.7	-72.5	3.8	7.48e-01	0	43	104	0	80	28790
2026-01-24 04:52:19.32	350.15	24.29	-54.7	-72.5	3.8	7.44e-01	0	43	104	0	80	28848
2026-01-24 04:52:20.33	349.83	24.35	-54.7	-72.5	3.8	7.47e-01	0	43	104	0	80	28797
2026-01-24 04:52:21.34	349.51	24.42	-54.7	-72.5	3.8	7.45e-01	0	43	104	0	80	28864
2026-01-24 04:52:22.34	349.19	24.47	-54.7	-72.5	3.8	7.45e-01	0	43	104	0	80	28815
2026-01-24 04:52:23.35	348.86	24.53	-54.7	-72.5	3.8	7.44e-01	0	43	104	0	80	28884
2026-01-24 04:52:24.36	348.54	24.59	-54.7	-72.5	3.8	7.43e-01	0	43	104	0	80	28841
2026-01-24 04:52:25.37	348.21	24.65	-54.7	-72.5	3.8	7.47e-01	0	43	104	0	80	28814
2026-01-24 04:52:26.38	347.88	24.71	-54.7	-72.5	3.8	7.45e-01	0	43	104	0	80	28863
2026-01-24 04:52:27.39	347.56	24.76	-54.7	-72.5	3.8	7.46e-01	0	43	104	0	80	28844
2026-01-24 04:52:28.39	347.23	24.82	-54.7	-72.5	3.8	7.48e-01	0	43	104	0	80	28819
2026-01-24 04:52:29.40	346.90	24.87	-54.7	-72.5	3.8	7.44e-01	0	43	104	0	80	28797
2026-01-24 04:52:30.41	346.57	24.93	-54.7	-72.5	3.8	7.46e-01	0	43	104	0	80	28816
2026-01-24 04:52:31.42	346.23	24.98	-54.7	-72.5	3.8	7.43e-01	0	43	104	0	80	28779
2026-01-24 04:52:32.43	345.90	25.03	-54.7	-72.5	3.8	7.46e-01	0	43	104	0	80	28803
2026-01-24 04:52:33.44	345.56	25.08	-54.7	-72.5	3.8	7.46e-01	0	43	104	0	80	28797
2026-01-24 04:52:34.44	345.23	25.13	-54.7	-72.5	3.8	7.47e-01	0	43	104	0	80	28842
2026-01-24 04:52:35.45	344.89	25.18	-54.7	-72.5	3.8	7.45e-01	0	43	104	0	80	28796
2026-01-24 04:52:36.46	344.55	25.23	-54.7	-72.5	3.8	7.46e-01	0	43	104	0	80	28813
2026-01-24 04:52:37.47	344.21	25.27	-54.7	-72.5	3.8	7.45e-01	0	43	104	0	80	28823
2026-01-24 04:52:38.47	343.87	25.32	-54.7	-72.5	3.8	7.48e-01	0	43	104	0	80	28784
2026-01-24 04:52:39.48	343.53	25.36	-54.7	-72.5	3.8	7.46e-01	0	43	104	0	80	28770
2026-01-24 04:52:40.49	343.19	25.41	-54.7	-72.5	3.8	7.44e-01	0	43	104	0	80	28780
2026-01-24 04:52:41.50	342.84	25.45	-54.7	-72.5	3.8	7.44e-01	0	43	104	0	80	28793
2026-01-24 04:52:42.51	342.50	25.49	-54.7	-72.5	3.8	7.44e-01	0	43	104	0	80	28763
2026-01-24 04:52:43.51	342.15	25.53	-54.7	-72.5	3.8	7.46e-01	0	43	104	0	80	28780
2026-01-24 04:52:44.52	341.81	25.57	-54.7	-72.5	3.8	7.45e-01	0	43	104	0	80	28876
2026-01-24 04:52:45.53	341.46	25.61	-54.7	-72.5	3.8	7.42e-01	0	43	104	0	80	28817
2026-01-24 04:52:46.54	341.11	25.65	-54.7	-72.5	3.8	7.43e-01	0	43	104	0	80	28857
2026-01-24 04:52:47.55	340.76	25.68	-54.7	-72.5	3.8	7.44e-01	0	43	104	0	80	28833
2026-01-24 04:52:48.56	340.41	25.72	-54.7	-72.5	3.8	7.47e-01	0	43	104	0	80	28859
2026-01-24 04:52:49.56	340.06	25.75	-54.7	-72.5	3.8	7.45e-01	0	43	104	0	80	28856
2026-01-24 04:52:50.57	339.71	25.79	-54.7	-72.5	3.8	7.46e-01	0	43	104	0	80	28893
2026-01-24 04:52:51.58	339.35	25.82	-54.7	-72.5	3.8	7.47e-01	0	43	104	0	80	28772
2026-01-24 04:52:52.59	339.00	25.85	-54.7	-72.5	3.8	7.45e-01	0	43	104	0	80	28821
2026-01-24 04:52:53.59	338.65	25.88	-54.7	-72.5	3.8	7.45e-01	0	43	104	0	80	28892
2026-01-24 04:52:54.60	338.29	25.91	-54.7	-72.5	3.8	7.45e-01	0	43	104	0	80	28825
2026-01-24 04:52:55.61	337.94	25.94	-54.7	-72.5	3.8	7.42e-01	0	43	104	0	80	28879
2026-01-24 04:52:56.62	337.58	25.96	-54.7	-72.5	3.8	7.46e-01	0	43	104	0	80	28912
2026-01-24 04:52:57.63	337.22	25.99	-54.7	-72.5	3.8	7.47e-01	0	43	104	0	80	28925
2026-01-24 04:52:58.64	336.87	26.01	-54.7	-72.5	3.8	7.44e-01	0	43	104	0	80	28968
2026-01-24 04:52:59.64	336.51	26.04	-54.7	-72.5	3.8	7.45e-01	0	43	104	0	80	28877
2026-01-24 04:53:00.65	336.15	26.06	-54.7	-72.5	3.8	7.46e-01	0	43	104	0	80	28936
2026-01-24 04:53:01.66	335.79	26.08	-54.7	-72.5	3.8	7.43e-01	0	43	104	0	80	28954
2026-01-24 04:53:02.66	335.44	26.10	-54.7	-72.5	3.8	7.44e-01	0	43	104	0	80	28868
2026-01-24 04:53:03.67	335.08	26.12	-54.7	-72.5	3.8	7.45e-01	0	43	104	0	80	28922
2026-01-24 04:53:04.68	334.72	26.13	-54.7	-72.5	3.8	7.46e-01	0	43	104	0	80	28914
2026-01-24 04:53:05.69	334.36	26.15	-54.7	-72.5	3.8	7.45e-01	0	43	104	0	80	28918
2026-01-24 04:53:06.70	333.99	26.16	-54.7	-72.5	3.8	7.48e-01	0	43	104	0	80	28950
2026-01-24 04:53:07.71	333.63	26.18	-54.7	-72.5	3.8	7.44e-01	0	43	104	0	80	28876
2026-01-24 04:53:08.71	333.27	26.19	-54.7	-72.5	3.8	7.45e-01	0	43	104	0	80	28926
2026-01-24 04:53:09.72	332.91	26.20	-54.7	-72.5	3.8	7.45e-01	0	43	104	0	80	28908
2026-01-24 04:53:10.73	332.55	26.21	-54.7	-72.5	3.8	7.46e-01	0	43	104	0	80	28959
2026-01-24 04:53:11.74	332.19	26.22	-54.7	-72.5	3.8	7.45e-01	0	43	104	0	80	28917
2026-01-24 04:53:12.75	331.82	26.23	-54.7	-72.5	3.8	7.45e-01	0	43	104	0	80	28883
2026-01-24 04:53:13.76	331.46	26.23	-54.7	-72.5	3.8	7.43e-01	0	43	104	0	80	28875
2026-01-24 04:53:14.76	331.10	26.24	-54.7	-72.5	3.8	7.45e-01	0	43	104	0	80	28869
2026-01-24 04:53:15.77	330.74	26.24	-54.7	-72.5	3.8	7.43e-01	0	43	104	0	80	28802
2026-01-24 04:53:16.78	330.37	26.24	-54.7	-72.5	3.8	7.44e-01	0	43	104	0	80	28831
2026-01-24 04:53:17.79	330.01	26.25	-54.7	-72.5	3.8	7.44e-01	0	43	104	0	80	28885
2026-01-24 04:53:18.80	329.64	26.25	-54.7	-72.5	3.8	7.45e-01	0	43	104	0	80	28783
2026-01-24 04:53:19.80	329.28	26.24	-54.7	-72.5	3.8	7.46e-01	0	43	104	0	80	28784
2026-01-24 04:53:20.81	328.92	26.24	-54.7	-72.5	3.8	7.49e-01	0	43	104	0	80	28838
2026-01-24 04:53:21.82	328.56	26.24	-54.7	-72.5	3.8	7.46e-01	0	43	104	0	80	28846
2026-01-24 04:53:22.83	328.19	26.23	-54.7	-72.5	3.8	7.47e-01	0	43	104	0	80	28840
2026-01-24 04:53:23.83	327.83	26.23	-54.7	-72.5	3.8	7.43e-01	0	43	104	0	80	28822
2026-01-24 04:53:24.84	327.47	26.22	-54.7	-72.5	3.8	7.42e-01	0	43	104	0	80	28800
2026-01-24 04:53:25.85	327.11	26.21	-54.7	-72.5	3.8	7.45e-01	0	43	104	0	80	28839
2026-01-24 04:53:26.86	326.75	26.20	-54.7	-72.5	3.8	7.47e-01	0	43	104	0	80	28861
2026-01-24 04:53:27.87	326.38	26.19	-54.7	-72.5	3.8	7.49e-01	0	43	104	0	80	28901
2026-01-24 04:53:28.87	326.02	26.18	-54.7	-72.5	3.8	7.46e-01	0	43	104	0	80	28879
2026-01-24 04:53:29.88	325.66	26.17	-54.7	-72.5	3.8	7.44e-01	0	43	104	0	80	28895
2026-01-24 04:53:30.89	325.30	26.15	-54.7	-72.5	3.8	7.46e-01	0	43	104	0	80	28846
2026-01-24 04:53:31.90	324.94	26.14	-54.7	-72.5	3.8	7.43e-01	0	43	104	0	80	28821
2026-01-24 04:53:32.91	324.58	26.12	-54.7	-72.5	3.8	7.47e-01	0	43	104	0	80	28819
2026-01-24 04:53:33.91	324.22	26.10	-54.7	-72.5	3.8	7.44e-01	0	43	104	0	80	28898
2026-01-24 04:53:34.92	323.86	26.08	-54.7	-72.5	3.8	7.43e-01	0	43	104	0	80	28872
2026-01-24 04:53:35.93	323.50	26.06	-54.7	-72.5	3.8	7.44e-01	0	43	104	0	80	28948
2026-01-24 04:53:36.94	323.14	26.04	-54.7	-72.5	3.8	7.42e-01	0	43	104	0	80	28829
2026-01-24 04:53:37.95	322.78	26.02	-54.7	-72.5	3.8	7.45e-01	0	43	104	0	80	28836
2026-01-24 04:53:38.95	322.43	25.99	-54.7	-72.5	3.8	7.46e-01	0	43	104	0	80	28782
2026-01-24 04:53:39.96	322.07	25.97	-54.7	-72.5	3.8	7.44e-01	0	43	104	0	80	28852
2026-01-24 04:53:40.97	321.72	25.94	-54.7	-72.5	3.8	7.45e-01	0	43	104	0	80	28840
2026-01-24 04:53:41.98	321.36	25.91	-54.7	-72.5	3.8	7.43e-01	0	43	104	0	80	28880
2026-01-24 04:53:42.99	321.00	25.89	-54.7	-72.5	3.8	7.45e-01	0	43	104	0	80	28824
2026-01-24 04:53:43.99	320.65	25.86	-54.7	-72.5	3.8	7.41e-01	0	43	104	0	80	28882
2026-01-24 04:53:45.00	320.30	25.83	-54.7	-72.5	3.8	7.49e-01	0	43	104	0	80	28864
2026-01-24 04:53:46.01	319.94	25.79	-54.7	-72.5	3.8	7.46e-01	0	43	104	0	80	28846
2026-01-24 04:53:47.02	319.59	25.76	-54.7	-72.5	3.8	7.51e-01	0	43	104	0	80	28846
2026-01-24 04:53:48.03	319.24	25.73	-54.7	-72.5	3.8	7.46e-01	0	43	104	0	80	28809
2026-01-24 04:53:49.04	318.89	25.69	-54.7	-72.5	3.8	7.42e-01	0	43	104	0	80	28871
2026-01-24 04:53:50.05	318.54	25.65	-54.7	-72.5	3.8	7.47e-01	0	43	104	0	80	28841
2026-01-24 04:53:51.05	318.19	25.62	-54.7	-72.5	3.8	7.42e-01	0	43	104	0	80	28907
2026-01-24 04:53:52.06	317.84	25.58	-54.7	-72.5	3.8	7.45e-01	0	43	104	0	80	28832
2026-01-24 04:53:53.07	317.50	25.54	-54.7	-72.5	3.8	7.43e-01	0	43	104	0	80	28804
2026-01-24 04:53:54.08	317.15	25.50	-54.7	-72.5	3.8	7.45e-01	0	43	104	0	80	28813
2026-01-24 04:53:55.09	316.80	25.46	-54.7	-72.5	3.8	7.45e-01	0	43	104	0	80	28786
2026-01-24 04:53:56.09	316.46	25.41	-54.7	-72.5	3.8	7.48e-01	0	43	104	0	80	28749
2026-01-24 04:53:57.10	316.12	25.37	-54.7	-72.5	3.8	7.45e-01	0	43	104	0	80	28832
2026-01-24 04:53:58.11	315.78	25.33	-54.7	-72.5	3.8	7.46e-01	0	43	104	0	80	28806
2026-01-24 04:53:59.12	315.43	25.28	-54.7	-72.5	3.8	7.47e-01	0	43	104	0	80	28853
2026-01-24 04:54:00.13	315.09	25.23	-54.7	-72.5	3.8	7.44e-01	0	43	104	0	80	28862
2026-01-24 04:54:01.14	314.75	25.19	-54.7	-72.5	3.8	7.45e-01	0	43	104	0	80	28849
2026-01-24 04:54:02.15	314.41	25.14	-54.7	-72.5	3.8	7.47e-01	0	43	104	0	80	28779
2026-01-24 04:54:03.16	314.08	25.09	-54.7	-72.5	3.8	7.47e-01	0	43	104	0	80	28791
2026-01-24 04:54:04.17	313.74	25.04	-54.7	-72.5	3.8	7.44e-01	0	43	104	0	80	28879
2026-01-24 04:54:05.18	313.40	24.99	-54.7	-72.5	3.8	7.45e-01	0	43	104	0	80	28849
2026-01-24 04:54:06.18	313.07	24.93	-54.7	-72.5	3.8	7.43e-01	0	43	104	0	80	28809
2026-01-24 04:54:07.19	312.74	24.88	-54.7	-72.5	3.8	7.44e-01	0	43	104	0	80	28765
2026-01-24 04:54:08.20	312.41	24.83	-54.7	-72.5	3.8	7.48e-01	0	43	104	0	80	28807
2026-01-24 04:54:09.21	312.08	24.77	-54.7	-72.5	3.8	7.46e-01	0	43	104	0	80	28871
2026-01-24 04:54:10.22	311.75	24.72	-54.7	-72.5	3.8	7.43e-01	0	43	104	0	80	28880
2026-01-24 04:54:11.22	311.42	24.66	-54.7	-72.5	3.8	7.47e-01	0	43	104	0	80	28940
2026-01-24 04:54:12.23	311.10	24.60	-54.7	-72.5	3.8	7.46e-01	0	43	104	0	80	28864
2026-01-24 04:54:13.24	310.77	24.54	-54.7	-72.5	3.8	7.46e-01	0	43	104	0	80	28883
2026-01-24 04:54:14.25	310.45	24.48	-54.7	-72.5	3.8	7.47e-01	0	43	104	0	80	28909
2026-01-24 04:54:15.26	310.12	24.42	-54.7	-72.5	3.8	7.45e-01	0	43	104	0	80	28844
2026-01-24 04:54:16.27	309.80	24.36	-54.7	-72.5	3.8	7.45e-01	0	43	104	0	80	28881
2026-01-24 04:54:17.27	309.48	24.30	-54.7	-72.5	3.8	7.45e-01	0	43	104	0	80	28797
2026-01-24 04:54:18.28	309.16	24.24	-54.7	-72.5	3.8	7.47e-01	0	43	104	0	80	28789
2026-01-24 04:54:19.29	308.85	24.18	-54.7	-72.5	3.8	7.43e-01	0	43	104	0	80	28825
2026-01-24 04:54:20.30	308.53	24.11	-54.7	-72.5	3.8	7.46e-01	0	43	104	0	80	28837
2026-01-24 04:54:21.31	308.22	24.05	-54.7	-72.5	3.8	7.47e-01	0	43	104	0	80	28848
2026-01-24 04:54:22.32	307.90	23.98	-54.7	-72.5	3.8	7.46e-01	0	43	104	0	80	28867
2026-01-24 04:54:23.32	307.59	23.92	-54.7	-72.5	3.8	7.45e-01	0	43	104	0	80	28832
2026-01-24 04:54:24.33	307.28	23.85	-54.7	-72.5	3.8	7.44e-01	0	43	104	0	80	28945
2026-01-24 04:54:25.34	306.97	23.78	-54.7	-72.5	3.8	7.44e-01	0	43	104	0	80	28836
2026-01-24 04:54:26.34	306.67	23.71	-54.7	-72.5	3.8	7.45e-01	0	43	104	0	80	28684
2026-01-24 04:54:27.35	306.36	23.65	-54.7	-72.4	3.8	7.45e-01	0	43	104	0	80	28581
2026-01-24 04:54:28.36	306.05	23.58	-54.7	-72.4	3.8	7.47e-01	0	43	104	0	80	28545
2026-01-24 04:54:29.37	305.75	23.51	-54.7	-72.4	3.8	7.48e-01	0	43	104	0	80	28635
2026-01-24 04:54:30.38	305.45	23.44	-54.7	-72.5	3.8	7.47e-01	0	43	104	0	80	28698
2026-01-24 04:54:31.39	305.15	23.36	-54.7	-72.5	3.8	7.49e-01	0	43	104	0	80	28717
2026-01-24 04:54:32.39	304.85	23.29	-54.7	-72.4	3.8	7.43e-01	0	43	104	0	80	28669
2026-01-24 04:54:33.40	304.55	23.22	-54.7	-72.5	3.8	7.47e-01	0	43	104	0	80	28770
2026-01-24 04:54:34.41	304.25	23.15	-54.7	-72.5	3.8	7.46e-01	0	43	104	0	80	28733
2026-01-24 04:54:35.42	303.96	23.07	-54.7	-72.5	3.8	7.47e-01	0	43	104	0	80	28752
2026-01-24 04:54:36.43	303.67	23.00	-54.7	-72.5	3.8	7.47e-01	0	43	104	0	80	28860
2026-01-24 04:54:37.43	303.38	22.92	-54.7	-72.5	3.8	7.46e-01	0	43	104	0	80	28923
2026-01-24 04:54:38.44	303.08	22.85	-54.7	-72.5	3.8	7.42e-01	0	43	104	0	80	28818
2026-01-24 04:54:39.45	302.80	22.77	-54.7	-72.5	3.8	7.44e-01	0	43	104	0	80	28894
2026-01-24 04:54:40.46	302.51	22.70	-54.7	-72.5	3.8	7.46e-01	0	43	104	0	80	28791
2026-01-24 04:54:41.47	302.22	22.62	-54.7	-72.5	3.8	7.43e-01	0	43	104	0	80	28828
2026-01-24 04:54:42.48	301.94	22.54	-54.7	-72.5	3.8	7.44e-01	0	43	104	0	80	28761
2026-01-24 04:54:43.48	301.66	22.46	-54.7	-72.5	3.8	7.48e-01	0	43	104	0	80	28783
2026-01-24 04:54:44.49	301.37	22.39	-54.7	-72.5	3.8	7.42e-01	0	43	104	0	80	28801
2026-01-24 04:54:45.49	301.10	22.31	-54.7	-72.5	3.8	7.42e-01	0	43	104	0	80	28786
2026-01-24 04:54:46.50	300.82	22.23	-54.7	-72.5	3.8	7.45e-01	0	43	104	0	80	28796
2026-01-24 04:54:47.51	300.54	22.15	-54.7	-72.5	3.8	7.45e-01	0	43	104	0	80	28723
2026-01-24 04:54:48.52	300.26	22.07	-54.7	-72.4	3.8	7.45e-01	0	43	104	0	80	28677
2026-01-24 04:54:49.53	299.99	21.99	-54.7	-72.5	3.8	7.47e-01	0	43	104	0	80	28697
2026-01-24 04:54:50.54	299.72	21.91	-54.7	-72.5	3.8	7.43e-01	0	43	104	0	80	28698
2026-01-24 04:54:51.54	299.45	21.83	-54.7	-72.4	3.8	7.48e-01	0	43	104	0	80	28531
2026-01-24 04:54:52.55	299.18	21.75	-54.7	-72.4	3.8	7.45e-01	0	43	104	0	80	28439
2026-01-24 04:54:53.56	298.91	21.66	-54.6	-72.3	3.8	7.46e-01	0	43	104	0	80	28157
2026-01-24 04:54:54.57	298.64	21.58	-54.7	-72.4	3.8	7.48e-01	0	43	104	0	80	28386
2026-01-24 04:54:55.58	298.38	21.50	-54.6	-72.3	3.8	7.42e-01	0	43	104	0	80	28100
2026-01-24 04:54:56.59	298.11	21.42	-54.7	-72.4	3.8	7.47e-01	0	43	104	0	80	28568
2026-01-24 04:54:57.59	297.85	21.33	-54.6	-72.2	3.8	7.46e-01	0	43	104	0	80	28013
2026-01-24 04:54:58.60	297.59	21.25	-54.7	-72.4	3.8	7.45e-01	0	43	104	0	80	28465
2026-01-24 04:54:59.61	297.33	21.17	-54.6	-72.2	3.8	7.43e-01	0	43	104	0	80	27987
2026-01-24 04:55:00.62	297.07	21.08	-54.6	-72.4	3.8	7.44e-01	0	43	104	0	80	28495
2026-01-24 04:55:01.63	296.82	21.00	-54.7	-72.4	3.8	7.43e-01	0	43	104	0	80	28563
2026-01-24 04:55:02.63	296.56	20.91	-54.7	-72.5	3.8	7.45e-01	0	43	104	0	80	28749
2026-01-24 04:55:03.64	296.31	20.83	-54.6	-72.3	3.8	7.42e-01	0	43	104	0	80	28198
2026-01-24 04:55:04.65	296.06	20.74	-54.6	-72.2	3.8	7.43e-01	0	43	104	0	80	27849
2026-01-24 04:55:05.66	295.81	20.66	-54.6	-72.3	3.8	7.44e-01	0	43	104	0	80	28100
2026-01-24 04:55:06.67	295.56	20.57	-54.5	-72.0	3.8	7.48e-01	0	43	104	0	80	27341
2026-01-24 04:55:07.67	295.31	20.49	-54.6	-72.2	3.8	7.46e-01	0	43	104	0	80	27954
2026-01-24 04:55:08.68	295.07	20.40	-54.2	-71.0	3.8	7.43e-01	0	43	104	0	80	24137
2026-01-24 04:55:09.69	294.82	20.31	-54.7	-72.4	3.8	7.45e-01	0	43	104	0	80	28613
2026-01-24 04:55:10.70	294.58	20.23	-54.7	-72.5	3.8	7.44e-01	0	43	104	0	80	28790
2026-01-24 04:55:11.71	294.34	20.14	-54.6	-72.3	3.8	7.44e-01	0	43	104	0	80	28312
2026-01-24 04:55:12.72	294.10	20.05	-54.6	-72.2	3.8	7.42e-01	0	43	104	0	80	28022
2026-01-24 04:55:13.73	293.86	19.97	-54.6	-72.1	3.8	7.44e-01	0	43	104	0	80	27546
2026-01-24 04:55:14.74	293.62	19.88	-54.3	-71.4	3.8	7.44e-01	0	43	104	0	80	25410
2026-01-24 04:55:15.75	293.38	19.79	-54.6	-72.4	3.8	7.46e-01	0	43	104	0	80	28633
2026-01-24 04:55:16.75	293.15	19.70	-54.7	-72.5	3.8	7.48e-01	0	43	104	0	80	28789
2026-01-24 04:55:17.76	292.92	19.62	-54.7	-72.5	3.8	7.47e-01	0	43	104	0	80	28754
2026-01-24 04:55:18.77	292.69	19.53	-54.7	-72.5	3.8	7.43e-01	0	43	104	0	80	28892
2026-01-24 04:55:19.78	292.46	19.44	-54.7	-72.4	3.8	7.43e-01	0	43	104	0	80	28624
2026-01-24 04:55:20.79	292.23	19.35	-54.7	-72.5	3.8	7.44e-01	0	43	104	0	80	28925
2026-01-24 04:55:21.79	292.00	19.27	-54.7	-72.5	3.8	7.43e-01	0	43	104	0	80	28813
2026-01-24 04:55:22.81	291.77	19.18	-54.7	-72.5	3.8	7.45e-01	0	43	104	0	80	28929
2026-01-24 04:55:23.81	291.55	19.09	-54.7	-72.5	3.8	7.45e-01	0	43	104	0	80	28855
2026-01-24 04:55:24.82	291.33	19.00	-54.7	-72.5	3.8	7.45e-01	0	43	104	0	80	28758
2026-01-24 04:55:25.83	291.11	18.91	-54.7	-72.5	3.8	7.46e-01	0	43	104	0	80	28896
2026-01-24 04:55:26.83	290.89	18.82	-54.7	-72.5	3.8	7.45e-01	0	43	104	0	80	28881
2026-01-24 04:55:27.84	290.67	18.73	-54.7	-72.5	3.8	7.44e-01	0	43	104	0	80	28870
2026-01-24 04:55:28.85	290.45	18.65	-54.7	-72.5	3.8	7.47e-01	0	43	104	0	80	28871
2026-01-24 04:55:29.85	290.24	18.56	-54.7	-72.5	3.8	7.43e-01	0	43	104	0	80	28833
2026-01-24 04:55:30.86	290.02	18.47	-54.7	-72.5	3.8	7.45e-01	0	43	104	0	80	28768
2026-01-24 04:55:31.87	289.81	18.38	-54.7	-72.5	3.8	7.48e-01	0	43	104	0	80	28895
2026-01-24 04:55:32.88	289.59	18.29	-54.7	-72.5	3.8	7.47e-01	0	43	104	0	80	28771
2026-01-24 04:55:33.88	289.39	18.20	-54.7	-72.5	3.8	7.44e-01	0	43	104	0	80	28756
2026-01-24 04:55:34.89	289.18	18.11	-54.7	-72.5	3.8	7.43e-01	0	43	104	0	80	28772
2026-01-24 04:55:35.90	288.97	18.02	-54.7	-72.5	3.8	7.42e-01	0	43	104	0	80	28680
2026-01-24 04:55:36.91	288.76	17.93	-54.7	-72.5	3.8	7.44e-01	0	43	104	0	80	28783
2026-01-24 04:55:37.92	288.55	17.85	-54.7	-72.5	3.8	7.49e-01	0	43	104	0	80	28754
2026-01-24 04:55:38.93	288.35	17.76	-54.7	-72.4	3.8	7.43e-01	0	43	104	0	80	28651
2026-01-24 04:55:39.93	288.15	17.67	-54.7	-72.5	3.8	7.47e-01	0	43	104	0	80	28851
2026-01-24 04:55:40.94	287.95	17.58	-54.7	-72.5	3.8	7.47e-01	0	43	104	0	80	28806
2026-01-24 04:55:41.95	287.74	17.49	-54.7	-72.5	3.8	7.48e-01	0	43	104	0	80	28832
2026-01-24 04:55:42.96	287.55	17.40	-54.7	-72.5	3.8	7.46e-01	0	43	104	0	80	28877
2026-01-24 04:55:43.97	287.35	17.31	-54.7	-72.5	3.8	7.43e-01	0	43	104	0	80	28784
2026-01-24 04:55:44.97	287.15	17.22	-54.7	-72.5	3.8	7.45e-01	0	43	104	0	80	28752
2026-01-24 04:55:45.98	286.96	17.13	-54.7	-72.5	3.8	7.48e-01	0	43	104	0	80	28753
2026-01-24 04:55:46.99	286.76	17.04	-54.7	-72.5	3.8	7.46e-01	0	43	104	0	80	28789
2026-01-24 04:55:48.00	286.57	16.95	-54.7	-72.5	3.8	7.39e-01	0	43	104	0	80	28719
2026-01-24 04:55:49.01	286.38	16.87	-54.7	-72.5	3.8	7.46e-01	0	43	104	0	80	28774
2026-01-24 04:55:50.01	286.19	16.78	-54.7	-72.5	3.8	7.42e-01	0	43	104	0	80	28782
2026-01-24 04:55:51.02	286.00	16.69	-54.7	-72.5	3.8	7.46e-01	0	43	104	0	80	28787
2026-01-24 04:55:52.03	285.81	16.60	-54.7	-72.5	3.8	7.47e-01	0	43	104	0	80	28757
2026-01-24 04:55:53.04	285.62	16.51	-54.7	-72.5	3.8	7.46e-01	0	43	104	0	80	28727
2026-01-24 04:55:54.05	285.43	16.42	-54.7	-72.5	3.8	7.48e-01	0	43	104	0	80	28777
2026-01-24 04:55:55.06	285.25	16.33	-54.7	-72.5	3.8	7.44e-01	0	43	104	0	80	28730
2026-01-24 04:55:56.07	285.07	16.24	-54.7	-72.5	3.8	7.45e-01	0	43	104	0	80	28836
2026-01-24 04:55:57.08	284.88	16.16	-54.7	-72.5	3.8	7.44e-01	0	43	104	0	80	28819
2026-01-24 04:55:58.09	284.70	16.07	-54.7	-72.5	3.8	7.45e-01	0	43	104	0	80	28807
2026-01-24 04:55:59.09	284.52	15.98	-54.7	-72.5	3.8	7.45e-01	0	43	104	0	80	28797
2026-01-24 04:56:00.10	284.34	15.89	-54.7	-72.5	3.8	7.46e-01	0	43	104	0	80	28763
2026-01-24 04:56:01.11	284.17	15.80	-54.7	-72.5	3.8	7.44e-01	0	43	104	0	80	28790
2026-01-24 04:56:02.12	283.99	15.72	-54.7	-72.5	3.8	7.45e-01	0	43	104	0	80	28764
2026-01-24 04:56:03.13	283.81	15.63	-54.7	-72.5	3.8	7.48e-01	0	43	104	0	80	28765
2026-01-24 04:56:04.14	283.64	15.54	-54.7	-72.5	3.8	7.46e-01	0	43	104	0	80	28710
2026-01-24 04:56:05.14	283.47	15.45	-54.7	-72.5	3.8	7.45e-01	0	43	104	0	80	28788
2026-01-24 04:56:06.15	283.29	15.36	-54.7	-72.5	3.8	7.44e-01	0	43	104	0	80	28796
2026-01-24 04:56:07.16	283.12	15.28	-54.7	-72.5	3.8	7.41e-01	0	43	104	0	80	28858
2026-01-24 04:56:08.17	282.95	15.19	-54.7	-72.5	3.8	7.46e-01	0	43	104	0	80	28762
2026-01-24 04:56:09.18	282.78	15.10	-54.7	-72.5	3.8	7.42e-01	0	43	104	0	80	28796
2026-01-24 04:56:10.19	282.62	15.01	-54.7	-72.5	3.8	7.49e-01	0	43	104	0	80	28876
2026-01-24 04:56:11.19	282.45	14.93	-54.7	-72.5	3.8	7.45e-01	0	43	104	0	80	28780
2026-01-24 04:56:12.20	282.28	14.84	-54.7	-72.5	3.8	7.48e-01	0	43	104	0	80	28835
2026-01-24 04:56:13.21	282.12	14.75	-54.7	-72.5	3.8	7.43e-01	0	43	104	0	80	28819
2026-01-24 04:56:14.22	281.96	14.67	-54.7	-72.5	3.8	7.44e-01	0	43	104	0	80	28785
2026-01-24 04:56:15.23	281.79	14.58	-54.7	-72.5	3.8	7.46e-01	0	43	104	0	80	28850
2026-01-24 04:56:16.24	281.63	14.49	-54.7	-72.5	3.8	7.44e-01	0	43	104	0	80	28895
2026-01-24 04:56:17.24	281.47	14.41	-54.7	-72.5	3.8	7.45e-01	0	43	104	0	80	28929
2026-01-24 04:56:18.25	281.31	14.32	-54.7	-72.5	3.8	7.46e-01	0	43	104	0	80	28949
2026-01-24 04:56:19.26	281.15	14.23	-54.7	-72.5	3.8	7.45e-01	0	43	104	0	80	28958
2026-01-24 04:56:20.27	280.99	14.15	-54.7	-72.5	3.8	7.44e-01	0	43	104	0	80	28917
2026-01-24 04:56:21.27	280.84	14.06	-54.7	-72.5	3.8	7.46e-01	0	43	104	0	80	28925
2026-01-24 04:56:22.28	280.68	13.98	-54.7	-72.5	3.8	7.44e-01	0	43	104	0	80	28906
2026-01-24 04:56:23.29	280.53	13.89	-54.7	-72.5	3.8	7.48e-01	0	43	104	0	80	28945
2026-01-24 04:56:24.30	280.37	13.81	-54.7	-72.5	3.8	7.44e-01	0	43	104	0	80	28954
2026-01-24 04:56:25.31	280.22	13.72	-54.7	-72.5	3.8	7.48e-01	0	43	104	0	80	28958
2026-01-24 04:56:26.32	280.07	13.63	-54.7	-72.5	3.8	7.46e-01	0	43	104	0	80	28986
2026-01-24 04:56:27.32	279.92	13.55	-54.7	-72.5	3.8	7.44e-01	0	43	104	0	80	28969
2026-01-24 04:56:28.33	279.77	13.46	-54.7	-72.5	3.8	7.45e-01	0	43	104	0	80	28977
2026-01-24 04:56:29.34	279.62	13.38	-54.8	-72.6	3.8	7.45e-01	0	43	104	0	80	29061
2026-01-24 04:56:30.34	279.47	13.30	-54.7	-72.5	3.8	7.47e-01	0	43	104	0	80	28978
2026-01-24 04:56:31.35	279.33	13.21	-54.7	-72.5	3.8	7.47e-01	0	43	104	0	80	28998
2026-01-24 04:56:32.36	279.18	13.13	-54.7	-72.5	3.8	7.45e-01	0	43	104	0	80	28984
2026-01-24 04:56:33.37	279.04	13.04	-54.7	-72.6	3.8	7.46e-01	0	43	104	0	80	29022
2026-01-24 04:56:34.38	278.89	12.96	-54.7	-72.5	3.8	7.44e-01	0	43	104	0	80	28973
2026-01-24 04:56:35.39	278.75	12.87	-54.7	-72.5	3.8	7.45e-01	0	43	104	0	80	28912
2026-01-24 04:56:36.39	278.61	12.79	-54.7	-72.6	3.8	7.47e-01	0	43	104	0	80	29013
2026-01-24 04:56:37.40	278.46	12.71	-54.7	-72.5	3.8	7.44e-01	0	43	104	0	80	28919
2026-01-24 04:56:38.42	278.32	12.62	-54.7	-72.6	3.8	7.45e-01	0	43	104	0	80	29043
2026-01-24 04:56:39.42	278.18	12.54	-54.7	-72.5	3.8	7.46e-01	0	43	104	0	80	28993
2026-01-24 04:56:40.43	278.04	12.46	-54.7	-72.5	3.8	7.48e-01	0	43	104	0	80	28987
2026-01-24 04:56:41.44	277.90	12.37	-54.7	-72.5	3.8	7.43e-01	0	43	104	0	80	28993
2026-01-24 04:56:42.45	277.77	12.29	-54.7	-72.5	3.8	7.47e-01	0	43	104	0	80	29010
2026-01-24 04:56:43.45	277.63	12.21	-54.7	-72.5	3.8	7.47e-01	0	43	104	0	80	28938
2026-01-24 04:56:44.46	277.50	12.13	-54.7	-72.5	3.8	7.44e-01	0	43	104	0	80	28932
2026-01-24 04:56:45.47	277.36	12.04	-54.7	-72.5	3.8	7.47e-01	0	43	104	0	80	28957
2026-01-24 04:56:46.48	277.23	11.96	-54.7	-72.6	3.8	7.43e-01	0	43	104	0	80	29023
2026-01-24 04:56:47.49	277.09	11.88	-54.7	-72.5	3.8	7.44e-01	0	43	104	0	80	28983
2026-01-24 04:56:48.50	276.96	11.80	-54.7	-72.6	3.8	7.44e-01	0	43	104	0	80	29050
2026-01-24 04:56:49.51	276.83	11.71	-54.7	-72.5	3.8	7.43e-01	0	43	104	0	80	28939
2026-01-24 04:56:50.52	276.70	11.63	-54.7	-72.5	3.8	7.46e-01	0	43	104	0	80	28988
2026-01-24 04:56:51.52	276.57	11.55	-54.8	-72.6	3.8	7.43e-01	0	43	104	0	80	29183
2026-01-24 04:56:52.53	276.44	11.47	-54.8	-72.6	3.8	7.43e-01	0	43	104	0	80	29091
2026-01-24 04:56:53.54	276.31	11.39	-54.8	-72.6	3.8	7.45e-01	0	43	104	0	80	29092
2026-01-24 04:56:54.55	276.18	11.31	-54.8	-72.6	3.8	7.44e-01	0	43	104	0	80	29078
2026-01-24 04:56:55.55	276.06	11.23	-54.8	-72.6	3.8	7.45e-01	0	43	104	0	80	29146
2026-01-24 04:56:56.56	275.93	11.15	-54.7	-72.6	3.8	7.45e-01	0	43	104	0	80	29063
2026-01-24 04:56:57.57	275.81	11.07	-54.7	-72.5	3.8	7.43e-01	0	44	104	0	80	29007
2026-01-24 04:56:58.58	275.68	10.99	-54.7	-72.6	3.8	7.41e-01	0	43	104	0	80	29019
2026-01-24 04:56:59.59	275.56	10.91	-54.7	-72.5	3.8	7.44e-01	0	43	104	0	80	28946
2026-01-24 04:57:00.60	275.43	10.83	-54.7	-72.6	3.8	7.44e-01	0	43	104	0	80	29018
2026-01-24 04:57:01.60	275.31	10.75	-54.7	-72.6	3.8	7.43e-01	0	43	104	0	80	29013
2026-01-24 04:57:02.61	275.19	10.67	-54.7	-72.5	3.8	7.46e-01	0	43	104	0	80	28967
2026-01-24 04:57:03.62	275.07	10.59	-54.7	-72.5	3.8	7.46e-01	0	43	104	0	80	28989
2026-01-24 04:57:04.63	274.95	10.51	-54.7	-72.5	3.8	7.44e-01	0	43	104	0	80	28945
2026-01-24 04:57:05.63	274.83	10.43	-54.7	-72.5	3.8	7.44e-01	0	43	104	0	80	28938
2026-01-24 04:57:06.64	274.71	10.35	-54.7	-72.6	3.8	7.47e-01	0	43	104	0	80	29033
2026-01-24 04:57:07.65	274.59	10.27	-54.7	-72.5	3.8	7.47e-01	0	43	104	0	80	28989
2026-01-24 04:57:08.66	274.48	10.19	-54.7	-72.5	3.8	7.40e-01	0	43	104	0	80	28966
2026-01-24 04:57:09.67	274.36	10.11	-54.7	-72.5	3.8	7.45e-01	0	43	104	0	80	28984
2026-01-24 04:57:10.67	274.24	10.04	-54.7	-72.5	3.8	7.45e-01	0	43	104	0	80	28975
2026-01-24 04:57:11.68	274.13	9.96	-54.7	-72.5	3.8	7.47e-01	0	43	104	0	80	28985
2026-01-24 04:57:12.69	274.01	9.88	-54.7	-72.5	3.8	7.46e-01	0	43	104	0	80	28990
2026-01-24 04:57:13.70	273.90	9.80	-54.7	-72.5	3.8	7.44e-01	0	43	104	0	80	28976
2026-01-24 04:57:14.70	273.79	9.72	-54.7	-72.5	3.8	7.49e-01	0	43	104	0	80	28981
2026-01-24 04:57:15.72	273.67	9.65	-54.7	-72.5	3.8	7.42e-01	0	43	104	0	80	28874
2026-01-24 04:57:16.72	273.56	9.57	-54.7	-72.5	3.8	7.49e-01	0	44	104	0	80	28895
2026-01-24 04:57:17.73	273.45	9.49	-54.7	-72.5	3.8	7.46e-01	0	43	104	0	80	28922
2026-01-24 04:57:18.74	273.34	9.42	-54.7	-72.5	3.8	7.46e-01	0	43	104	0	80	28981
2026-01-24 04:57:19.75	273.23	9.34	-54.7	-72.5	3.8	7.47e-01	0	43	104	0	80	28955
2026-01-24 04:57:20.75	273.12	9.26	-54.7	-72.5	3.8	7.43e-01	0	43	104	0	80	28978
2026-01-24 04:57:21.76	273.01	9.19	-54.7	-72.5	3.8	7.45e-01	0	43	104	0	80	28908
2026-01-24 04:57:22.77	272.90	9.11	-54.7	-72.5	3.8	7.47e-01	0	43	104	0	80	28994
2026-01-24 04:57:23.78	272.80	9.03	-54.8	-72.6	3.8	7.50e-01	0	43	104	0	80	29104
2026-01-24 04:57:24.79	272.69	8.96	-54.7	-72.6	3.8	7.47e-01	0	43	104	0	80	29065
2026-01-24 04:57:25.79	272.58	8.88	-54.7	-72.5	3.8	7.47e-01	0	43	104	0	80	29010
2026-01-24 04:57:26.80	272.48	8.81	-54.7	-72.6	3.8	7.45e-01	0	43	104	0	80	29022
2026-01-24 04:57:27.81	272.37	8.73	-54.7	-72.5	3.8	7.45e-01	0	44	104	0	80	28937
2026-01-24 04:57:28.82	272.27	8.66	-54.7	-72.6	3.8	7.45e-01	0	44	104	0	80	29087
2026-01-24 04:57:29.83	272.16	8.58	-54.7	-72.6	3.8	7.42e-01	0	43	104	0	80	29030
2026-01-24 04:57:30.84	272.06	8.50	-54.7	-72.6	3.8	7.49e-01	0	44	104	0	80	29064
2026-01-24 04:57:31.84	271.96	8.43	-54.7	-72.6	3.8	7.44e-01	0	43	104	0	80	29020
2026-01-24 04:57:32.85	271.86	8.36	-54.7	-72.6	3.8	7.43e-01	0	44	104	0	80	29072
2026-01-24 04:57:33.86	271.76	8.28	-54.7	-72.6	3.8	7.44e-01	0	44	104	0	80	29060
2026-01-24 04:57:34.87	271.65	8.21	-54.7	-72.6	3.8	7.44e-01	0	43	104	0	80	29024
2026-01-24 04:57:35.88	271.55	8.13	-54.7	-72.5	3.8	7.41e-01	0	43	104	0	80	28938
2026-01-24 04:57:36.89	271.45	8.06	-54.7	-72.5	3.8	7.50e-01	0	43	104	0	80	28972
2026-01-24 04:57:37.90	271.36	7.98	-54.7	-72.5	3.8	7.46e-01	0	43	104	0	80	28992
2026-01-24 04:57:38.91	271.26	7.91	-54.7	-72.5	3.8	7.46e-01	0	43	104	0	80	28994
2026-01-24 04:57:39.91	271.16	7.84	-54.7	-72.5	3.8	7.43e-01	0	44	104	0	80	28955
2026-01-24 04:57:40.92	271.06	7.76	-54.7	-72.5	3.8	7.44e-01	0	44	104	0	80	28933
2026-01-24 04:57:41.93	270.96	7.69	-54.7	-72.5	3.8	7.44e-01	0	43	104	0	80	28953
2026-01-24 04:57:42.94	270.87	7.62	-54.7	-72.5	3.8	7.48e-01	0	44	104	0	80	28934
2026-01-24 04:57:43.95	270.77	7.54	-54.7	-72.5	3.8	7.47e-01	0	43	104	0	80	28917
2026-01-24 04:57:44.95	270.68	7.47	-54.7	-72.5	3.8	7.43e-01	0	43	104	0	80	28846
2026-01-24 04:57:45.96	270.58	7.40	-54.7	-72.5	3.8	7.43e-01	0	44	104	0	80	28974
2026-01-24 04:57:46.97	270.49	7.33	-54.7	-72.5	3.8	7.43e-01	0	43	104	0	80	28969
2026-01-24 04:57:47.98	270.39	7.26	-54.7	-72.5	3.8	7.44e-01	0	43	104	0	80	28928
2026-01-24 04:57:48.99	270.30	7.18	-54.7	-72.5	3.8	7.47e-01	0	43	104	0	80	28949
2026-01-24 04:57:50.00	270.21	7.11	-54.7	-72.5	3.8	7.46e-01	0	43	104	0	80	28906
2026-01-24 04:57:51.01	270.12	7.04	-54.7	-72.5	3.8	7.47e-01	0	44	104	0	80	28958
2026-01-24 04:57:52.02	270.02	6.97	-54.7	-72.5	3.8	7.47e-01	0	43	104	0	80	28952
2026-01-24 04:57:53.02	269.93	6.90	-54.7	-72.5	3.8	7.46e-01	0	43	104	0	80	28918
2026-01-24 04:57:54.03	269.84	6.83	-54.7	-72.5	3.8	7.43e-01	0	43	104	0	80	28926
2026-01-24 04:57:55.04	269.75	6.75	-54.7	-72.5	3.8	7.45e-01	0	43	104	0	80	28872
2026-01-24 04:57:56.05	269.66	6.68	-54.7	-72.5	3.8	7.44e-01	0	43	104	0	80	28874
2026-01-24 04:57:57.06	269.57	6.61	-54.7	-72.5	3.8	7.46e-01	0	43	104	0	80	28907
2026-01-24 04:57:58.06	269.49	6.54	-54.7	-72.5	3.8	7.47e-01	0	44	104	0	80	28909
2026-01-24 04:57:59.07	269.40	6.47	-54.7	-72.5	3.8	7.45e-01	0	43	104	0	80	28924
2026-01-24 04:58:00.08	269.31	6.40	-54.7	-72.5	3.8	7.43e-01	0	43	104	0	80	28871
2026-01-24 04:58:01.09	269.22	6.33	-54.7	-72.5	3.8	7.46e-01	0	43	104	0	80	28918
2026-01-24 04:58:02.10	269.13	6.26	-54.7	-72.5	3.8	7.45e-01	0	43	104	0	80	28906
2026-01-24 04:58:03.10	269.05	6.19	-54.7	-72.5	3.8	7.48e-01	0	43	104	0	80	28908
2026-01-24 04:58:04.11	268.96	6.12	-54.7	-72.5	3.8	7.46e-01	0	43	104	0	80	28917
2026-01-24 04:58:05.12	268.88	6.05	-54.7	-72.5	3.8	7.42e-01	0	43	104	0	80	28937
2026-01-24 04:58:06.13	268.79	5.98	-54.7	-72.5	3.8	7.46e-01	0	43	104	0	80	28866
2026-01-24 04:58:07.14	268.71	5.91	-54.7	-72.5	3.8	7.45e-01	0	43	104	0	80	28941
2026-01-24 04:58:08.15	268.62	5.84	-54.7	-72.5	3.8	7.45e-01	0	43	104	0	80	28972
2026-01-24 04:58:09.15	268.54	5.77	-54.7	-72.5	3.8	7.45e-01	0	43	104	0	80	28918
2026-01-24 04:58:10.16	268.46	5.71	-54.7	-72.5	3.8	7.43e-01	0	43	104	0	80	28894
2026-01-24 04:58:11.17	268.37	5.64	-54.7	-72.5	3.8	7.46e-01	0	43	104	0	80	28878
2026-01-24 04:58:12.18	268.29	5.57	-54.7	-72.5	3.8	7.45e-01	0	43	104	0	80	28879
2026-01-24 04:58:13.19	268.21	5.50	-54.7	-72.5	3.8	7.41e-01	0	43	104	0	80	28840
2026-01-24 04:58:14.20	268.13	5.43	-54.7	-72.5	3.8	7.48e-01	0	43	104	0	80	28928
2026-01-24 04:58:15.21	268.05	5.36	-54.7	-72.5	3.8	7.46e-01	0	43	104	0	80	28975
2026-01-24 04:58:16.22	267.97	5.29	-54.7	-72.5	3.8	7.45e-01	0	44	104	0	80	28895
2026-01-24 04:58:17.23	267.89	5.23	-54.7	-72.5	3.8	7.46e-01	0	43	104	0	80	28822
2026-01-24 04:58:18.24	267.81	5.16	-54.7	-72.5	3.8	7.47e-01	0	44	104	0	80	28877
2026-01-24 04:58:19.24	267.73	5.09	-54.7	-72.5	3.8	7.44e-01	0	44	104	0	80	28812
2026-01-24 04:58:20.25	267.65	5.02	-54.7	-72.5	3.8	7.44e-01	0	43	104	0	80	28800
2026-01-24 04:58:21.26	267.57	4.96	-54.7	-72.5	3.8	7.48e-01	0	43	104	0	80	28948
2026-01-24 04:58:22.27	267.49	4.89	-54.7	-72.5	3.8	7.46e-01	0	43	104	0	80	28887
2026-01-24 04:58:23.27	267.42	4.82	-54.7	-72.5	3.8	7.43e-01	0	43	104	0	80	28868
2026-01-24 04:58:24.28	267.34	4.76	-54.7	-72.5	3.8	7.49e-01	0	43	104	0	80	28815
2026-01-24 04:58:25.29	267.26	4.69	-54.7	-72.5	3.8	7.45e-01	0	44	104	0	80	28848
2026-01-24 04:58:26.30	267.19	4.62	-54.7	-72.5	3.8	7.47e-01	0	43	104	0	80	28899
2026-01-24 04:58:27.31	267.11	4.56	-54.7	-72.5	3.8	7.49e-01	0	43	104	0	80	28893
2026-01-24 04:58:28.32	267.03	4.49	-54.7	-72.5	3.8	7.46e-01	0	43	104	0	80	28947
2026-01-24 04:58:29.32	266.96	4.42	-54.7	-72.5	3.8	7.48e-01	0	43	104	0	80	28949
2026-01-24 04:58:30.33	266.88	4.36	-54.7	-72.5	3.8	7.44e-01	0	43	104	0	80	28922
2026-01-24 04:58:31.34	266.81	4.29	-54.7	-72.5	3.8	7.43e-01	0	43	104	0	80	29005
2026-01-24 04:58:32.35	266.73	4.23	-54.7	-72.5	3.8	7.45e-01	0	43	104	0	80	28996
2026-01-24 04:58:33.36	266.66	4.16	-54.7	-72.5	3.8	7.46e-01	0	43	104	0	80	28959
2026-01-24 04:58:34.36	266.59	4.10	-54.7	-72.5	3.8	7.45e-01	0	43	104	0	80	28998
2026-01-24 04:58:35.37	266.52	4.03	-54.7	-72.5	3.8	7.47e-01	0	43	104	0	80	28904
2026-01-24 04:58:36.38	266.44	3.96	-54.7	-72.6	3.8	7.42e-01	0	43	104	0	80	29012
2026-01-24 04:58:37.39	266.37	3.90	-54.7	-72.5	3.8	7.43e-01	0	43	104	0	80	28948
2026-01-24 04:58:38.39	266.30	3.84	-54.7	-72.6	3.8	7.49e-01	0	43	104	0	80	29048
2026-01-24 04:58:39.40	266.23	3.77	-54.7	-72.6	3.8	7.46e-01	0	43	104	0	80	29057
2026-01-24 04:58:40.41	266.16	3.71	-54.7	-72.5	3.8	7.44e-01	0	43	104	0	80	28968
2026-01-24 04:58:41.42	266.09	3.64	-54.7	-72.6	3.8	7.44e-01	0	43	104	0	80	29066
2026-01-24 04:58:42.43	266.01	3.58	-54.8	-72.6	3.8	7.49e-01	0	43	104	0	80	29066
2026-01-24 04:58:43.44	265.94	3.51	-54.7	-72.6	3.8	7.44e-01	0	43	104	0	80	29082
2026-01-24 04:58:44.45	265.87	3.45	-54.8	-72.6	3.8	7.45e-01	0	43	104	0	80	29090
2026-01-24 04:58:45.46	265.81	3.38	-54.8	-72.6	3.8	7.47e-01	0	43	104	0	80	29080
2026-01-24 04:58:46.47	265.74	3.32	-54.7	-72.5	3.8	7.46e-01	0	43	104	0	80	28989
2026-01-24 04:58:47.48	265.67	3.26	-54.7	-72.5	3.8	7.44e-01	0	43	104	0	80	29006
2026-01-24 04:58:48.49	265.60	3.19	-54.7	-72.5	3.8	7.42e-01	0	43	104	0	80	28985
2026-01-24 04:58:49.50	265.53	3.13	-54.7	-72.5	3.8	7.47e-01	0	43	104	0	80	28944
2026-01-24 04:58:50.51	265.46	3.06	-54.7	-72.5	3.8	7.45e-01	0	43	104	0	80	28889
2026-01-24 04:58:51.52	265.40	3.00	-54.7	-72.5	3.8	7.45e-01	0	43	104	0	80	28985
2026-01-24 04:58:52.52	265.33	2.94	-54.7	-72.5	3.8	7.45e-01	0	43	104	0	80	28961
2026-01-24 04:58:53.53	265.26	2.88	-54.7	-72.5	3.8	7.46e-01	0	43	104	0	80	28922
2026-01-24 04:58:54.54	265.20	2.81	-54.7	-72.5	3.8	7.44e-01	0	43	104	0	80	28921
2026-01-24 04:58:55.54	265.13	2.75	-54.7	-72.5	3.8	7.46e-01	0	43	104	0	80	28920
2026-01-24 04:58:56.55	265.06	2.69	-54.7	-72.5	3.8	7.43e-01	0	43	104	0	80	28930
2026-01-24 04:58:57.56	265.00	2.62	-54.7	-72.5	3.8	7.44e-01	0	43	104	0	80	28923
2026-01-24 04:58:58.57	264.93	2.56	-54.7	-72.5	3.8	7.47e-01	0	43	104	0	80	28953
2026-01-24 04:58:59.58	264.87	2.50	-54.7	-72.5	3.8	7.45e-01	0	43	104	0	80	28991
2026-01-24 04:59:00.59	264.80	2.44	-54.7	-72.5	3.8	7.47e-01	0	43	104	0	80	28960
2026-01-24 04:59:01.60	264.74	2.37	-54.7	-72.5	3.8	7.45e-01	0	43	104	0	80	28969
2026-01-24 04:59:02.61	264.68	2.31	-54.7	-72.5	3.8	7.43e-01	0	43	104	0	80	28916
2026-01-24 04:59:03.61	264.61	2.25	-54.7	-72.5	3.8	7.47e-01	0	43	104	0	80	28937
2026-01-24 04:59:04.62	264.55	2.19	-54.7	-72.5	3.8	7.46e-01	0	43	104	0	80	28920
2026-01-24 04:59:05.63	264.49	2.13	-54.7	-72.5	3.8	7.45e-01	0	43	104	0	80	28915
2026-01-24 04:59:06.64	264.42	2.07	-54.7	-72.5	3.8	7.43e-01	0	43	104	0	80	28893
2026-01-24 04:59:07.65	264.36	2.00	-54.7	-72.5	3.8	7.46e-01	0	43	104	0	80	28933
2026-01-24 04:59:08.66	264.30	1.94	-54.7	-72.5	3.8	7.46e-01	0	43	104	0	80	28904

#Closed at: 2026-01-24 04:59:09
#Recorded file [0 MB]: D:/lorett/data/31041_260124_074727.dat