passes_logs/2026/01/24/R3.2S_Murmansk/R3.2S_Murmansk__20260124_073937_FENGYUN_3D_rec.log

#Pass ID: 20260124_073937_FENGYUN 3D
#Satellite: FENGYUN 3D
#Configuration: FENGYUN 3D
#almurnet v.1.7.20251203
#Start time: 2026-01-24 07:39:38

#Version: 2.2.20231116
#Station: R3.2S_Murmansk
#Location: 33.079688 lon 68.888172 lat
#TLE: 1 43010U 17072A   26023.60174628  .00000324  00000+0  17481-3 0  9994
#TLE: 2 43010  98.9958 355.5514 0002482  93.7422 266.4037 14.19699955424476

#Time	Az	El	Level	Level2	SNR	BER	BlckErr	Temp	State	Recorded	gain1	gain2
2026-01-24 07:39:38.39	69.22	2.03	-51.9	-63.8	3.8	8.46e-01	0	42	0	0	75	14124
2026-01-24 07:39:39.40	69.15	2.08	-51.9	-63.8	3.8	8.47e-01	0	42	104	0	74	14991
2026-01-24 07:39:40.41	69.09	2.14	-51.9	-63.8	3.8	8.46e-01	0	42	104	0	74	14997
2026-01-24 07:39:41.42	69.03	2.20	-51.9	-63.8	3.8	8.46e-01	0	42	104	0	74	14938
2026-01-24 07:39:42.43	68.96	2.26	-51.9	-63.8	3.8	8.46e-01	0	42	104	0	74	14911
2026-01-24 07:39:43.43	68.90	2.32	-51.9	-63.8	3.8	8.46e-01	0	42	104	0	74	14902
2026-01-24 07:39:44.44	68.84	2.37	-51.8	-63.7	3.8	8.46e-01	0	42	104	0	74	14837
2026-01-24 07:39:45.45	68.77	2.43	-51.8	-63.8	3.8	8.46e-01	0	42	104	0	74	14912
2026-01-24 07:39:46.46	68.71	2.49	-51.8	-63.8	3.8	8.46e-01	0	42	104	0	74	14949
2026-01-24 07:39:47.47	68.64	2.55	-51.9	-63.8	3.8	8.46e-01	0	42	104	0	74	14951
2026-01-24 07:39:48.47	68.58	2.61	-51.8	-63.8	3.8	8.46e-01	0	42	104	0	74	14917
2026-01-24 07:39:49.48	68.51	2.67	-51.8	-63.7	3.8	8.47e-01	0	42	104	0	74	14875
2026-01-24 07:39:50.49	68.45	2.72	-51.8	-63.7	3.8	8.46e-01	0	42	104	0	74	14873
2026-01-24 07:39:51.49	68.38	2.78	-51.8	-63.7	3.8	8.47e-01	0	42	104	0	74	14837
2026-01-24 07:39:52.50	68.32	2.84	-51.8	-63.7	3.8	8.46e-01	0	42	104	0	74	14842
2026-01-24 07:39:53.51	68.25	2.90	-51.8	-63.7	3.8	8.47e-01	0	42	104	0	74	14843
2026-01-24 07:39:54.52	68.18	2.96	-51.8	-63.8	3.8	8.46e-01	0	42	104	0	74	14900
2026-01-24 07:39:55.53	68.12	3.02	-51.9	-63.8	3.8	8.45e-01	0	42	104	0	74	14917
2026-01-24 07:39:56.53	68.05	3.08	-51.8	-63.8	3.8	8.48e-01	0	42	104	0	74	14906
2026-01-24 07:39:57.54	67.98	3.14	-51.8	-63.7	3.8	8.48e-01	0	42	104	0	74	14802
2026-01-24 07:39:58.55	67.91	3.20	-51.8	-63.6	3.8	8.47e-01	0	42	104	0	74	14663
2026-01-24 07:39:59.56	67.85	3.25	-51.8	-63.6	3.8	8.46e-01	0	42	104	0	74	14662
2026-01-24 07:40:00.57	67.78	3.31	-51.8	-63.5	3.8	8.47e-01	0	42	104	0	74	14468
2026-01-24 07:40:01.58	67.71	3.37	-51.8	-63.6	3.8	8.46e-01	0	42	104	0	74	14633
2026-01-24 07:40:02.58	67.64	3.43	-51.8	-63.6	3.8	8.46e-01	0	42	104	0	74	14683
2026-01-24 07:40:03.59	67.57	3.49	-51.8	-63.7	3.8	8.45e-01	0	42	104	0	74	14862
2026-01-24 07:40:04.60	67.50	3.55	-51.8	-63.8	3.8	8.48e-01	0	43	104	0	74	14920
2026-01-24 07:40:05.61	67.43	3.61	-51.8	-63.8	3.8	8.46e-01	0	42	104	0	74	14891
2026-01-24 07:40:06.62	67.36	3.67	-51.8	-63.7	3.8	8.46e-01	0	42	104	0	74	14778
2026-01-24 07:40:07.63	67.29	3.73	-51.8	-63.7	3.8	8.45e-01	0	42	104	0	74	14747
2026-01-24 07:40:08.63	67.22	3.79	-51.8	-63.6	3.8	8.46e-01	0	42	104	0	74	14675
2026-01-24 07:40:09.64	67.15	3.85	-51.8	-63.6	3.8	8.46e-01	0	42	104	0	74	14589
2026-01-24 07:40:10.65	67.08	3.91	-51.8	-63.7	3.8	8.46e-01	0	42	104	0	74	14778
2026-01-24 07:40:11.66	67.01	3.97	-51.8	-63.7	3.8	8.46e-01	0	42	104	0	74	14837
2026-01-24 07:40:12.67	66.93	4.03	-51.8	-63.5	3.8	8.45e-01	0	43	104	0	74	14535
2026-01-24 07:40:13.68	66.86	4.10	-51.8	-63.0	3.8	8.46e-01	0	42	104	0	74	13713
2026-01-24 07:40:14.69	66.79	4.16	-51.7	-62.0	3.8	8.45e-01	0	42	104	0	74	12218
2026-01-24 07:40:15.69	66.72	4.22	-51.6	-61.3	4.0	8.45e-01	0	43	104	0	74	11208
2026-01-24 07:40:16.70	66.64	4.28	-51.4	-60.1	4.2	8.35e-01	0	43	0	0	74	9766
2026-01-24 07:40:17.71	66.57	4.34	-51.4	-60.0	4.2	8.34e-01	0	43	0	0	74	9715
2026-01-24 07:40:18.72	66.49	4.40	-51.4	-59.5	4.4	8.26e-01	0	43	0	0	74	9150
2026-01-24 07:40:19.73	66.42	4.46	-51.5	-60.3	4.2	8.36e-01	0	43	0	0	74	10052
2026-01-24 07:40:20.74	66.35	4.52	-51.5	-60.3	4.2	8.39e-01	0	43	0	0	74	9986
2026-01-24 07:40:21.75	66.27	4.58	-51.4	-60.0	4.3	8.38e-01	0	43	0	0	74	9614
2026-01-24 07:40:22.76	66.19	4.65	-51.2	-58.5	4.9	8.19e-01	0	42	0	0	74	8116
2026-01-24 07:40:23.76	66.12	4.71	-50.7	-56.4	6.2	4.45e-01	0	43	0	2097152	73	6786
2026-01-24 07:40:24.77	66.04	4.77	-50.1	-54.7	7.7	1.57e-01	0	43	0	7340032	72	5920
2026-01-24 07:40:25.78	65.97	4.83	-49.5	-53.2	9.3	3.93e-02	0	42	0	12582912	71	5276
2026-01-24 07:40:26.79	65.89	4.89	-48.9	-52.1	10.5	6.37e-03	0	43	0	18874368	69	5218
2026-01-24 07:40:27.80	65.81	4.95	-48.0	-50.6	12.1	6.92e-04	0	43	0	25165824	68	4612
2026-01-24 07:40:28.81	65.74	5.02	-47.8	-50.3	12.3	1.75e-04	0	43	0	30408704	67	4758
2026-01-24 07:40:29.81	65.66	5.08	-49.2	-52.7	10.2	2.22e-03	0	43	0	35651584	68	5861
2026-01-24 07:40:30.82	65.58	5.14	-44.3	-45.5	17.8	8.00e-06	0	43	0	41943040	59	4305
2026-01-24 07:40:31.83	65.50	5.20	-51.7	-62.6	3.8	3.23e-01	0	43	0	46137344	73	13746
2026-01-24 07:40:32.84	65.42	5.27	-48.7	-51.6	11.2	8.09e-01	0	43	104	46137344	69	4905
2026-01-24 07:40:33.85	65.34	5.33	-44.6	-45.9	17.4	0.00e+00	0	43	0	50331648	59	4515
2026-01-24 07:40:34.86	65.27	5.39	-43.6	-44.7	18.6	0.00e+00	0	43	0	55574528	59	3952
2026-01-24 07:40:35.87	65.19	5.45	-44.0	-45.2	18.1	0.00e+00	0	43	0	61865984	59	4179
2026-01-24 07:40:36.88	65.11	5.52	-43.8	-45.0	18.3	0.00e+00	0	43	0	67108864	59	4092
2026-01-24 07:40:37.89	65.02	5.58	-44.2	-45.4	17.9	0.00e+00	0	43	0	72351744	59	4262
2026-01-24 07:40:38.90	64.94	5.64	-44.0	-45.2	18.2	0.00e+00	0	43	0	78643200	59	4158
2026-01-24 07:40:39.91	64.86	5.71	-43.5	-44.6	18.8	0.00e+00	0	43	0	84934656	59	3899
2026-01-24 07:40:40.92	64.78	5.77	-43.3	-44.4	18.9	0.00e+00	0	43	0	90177536	58	4016
2026-01-24 07:40:41.92	64.70	5.83	-43.1	-44.2	19.1	0.00e+00	0	43	0	95420416	57	4192
2026-01-24 07:40:42.93	64.62	5.90	-43.4	-44.6	18.8	0.00e+00	0	43	0	101711872	57	4348
2026-01-24 07:40:43.94	64.53	5.96	-43.3	-44.4	19.0	0.00e+00	0	43	0	106954752	57	4257
2026-01-24 07:40:44.95	64.45	6.02	-43.3	-44.4	19.0	0.00e+00	0	43	0	113246208	57	4249
2026-01-24 07:40:45.96	64.37	6.09	-43.3	-44.4	19.0	0.00e+00	0	43	0	118489088	57	4248
2026-01-24 07:40:46.96	64.28	6.15	-43.1	-44.2	19.2	0.00e+00	0	43	0	123731968	57	4157
2026-01-24 07:40:47.97	64.20	6.21	-43.3	-44.4	19.0	0.00e+00	0	43	0	130023424	57	4257
2026-01-24 07:40:48.98	64.12	6.28	-43.1	-44.2	19.2	0.00e+00	0	43	0	135266304	57	4161
2026-01-24 07:40:49.99	64.03	6.34	-43.0	-44.1	19.3	0.00e+00	0	43	0	140509184	57	4114
2026-01-24 07:40:50.99	63.95	6.41	-42.9	-43.9	19.5	0.00e+00	0	43	0	146800640	57	4045
2026-01-24 07:40:52.00	63.86	6.47	-42.8	-43.8	19.7	0.00e+00	0	43	0	153092096	57	3980
2026-01-24 07:40:53.01	63.77	6.53	-42.8	-43.9	19.6	0.00e+00	0	43	0	158334976	57	4018
2026-01-24 07:40:54.02	63.69	6.60	-42.7	-43.8	19.7	0.00e+00	0	43	0	163577856	57	3959
2026-01-24 07:40:55.03	63.60	6.66	-42.7	-43.7	19.8	0.00e+00	0	43	0	169869312	57	3920
2026-01-24 07:40:56.04	63.51	6.73	-42.7	-43.8	19.8	0.00e+00	0	43	0	175112192	57	3967
2026-01-24 07:40:57.05	63.43	6.79	-43.0	-44.1	19.4	0.00e+00	0	43	0	180355072	57	4120
2026-01-24 07:40:58.05	63.34	6.86	-43.2	-44.2	19.3	0.00e+00	0	43	0	186646528	57	4185
2026-01-24 07:40:59.06	63.25	6.92	-43.0	-44.1	19.5	0.00e+00	0	43	0	191889408	57	4109
2026-01-24 07:41:00.07	63.16	6.99	-43.0	-44.1	19.5	0.00e+00	0	43	0	198180864	57	4123
2026-01-24 07:41:01.08	63.07	7.05	-42.8	-43.9	19.7	0.00e+00	0	43	0	203423744	57	4008
2026-01-24 07:41:02.09	62.98	7.12	-42.9	-43.9	19.6	0.00e+00	0	43	0	208666624	57	4028
2026-01-24 07:41:03.09	62.89	7.18	-43.1	-44.1	19.4	0.00e+00	0	43	0	214958080	57	4129
2026-01-24 07:41:04.10	62.80	7.25	-42.8	-43.9	19.7	0.00e+00	0	43	0	221249536	57	4010
2026-01-24 07:41:05.11	62.71	7.31	-42.7	-43.8	19.8	0.00e+00	0	43	0	226492416	57	3965
2026-01-24 07:41:06.12	62.62	7.38	-42.7	-43.8	19.8	0.00e+00	0	43	0	231735296	57	3968
2026-01-24 07:41:07.13	62.53	7.45	-42.6	-43.6	20.0	0.00e+00	0	43	0	238026752	57	3893
2026-01-24 07:41:08.13	62.43	7.51	-42.7	-43.7	19.9	0.00e+00	0	43	0	243269632	57	3929
2026-01-24 07:41:09.14	62.34	7.58	-43.0	-44.0	19.6	0.00e+00	0	43	0	248512512	57	4086
2026-01-24 07:41:10.15	62.25	7.64	-42.6	-43.6	19.9	0.00e+00	0	43	0	254803968	57	3909
2026-01-24 07:41:11.16	62.15	7.71	-42.8	-43.8	19.8	0.00e+00	0	43	0	260046848	57	3974
2026-01-24 07:41:12.17	62.06	7.78	-42.6	-43.6	20.0	0.00e+00	0	43	0	265289728	57	3897
2026-01-24 07:41:13.17	61.97	7.84	-42.2	-43.1	20.5	0.00e+00	0	43	0	271581184	56	3903
2026-01-24 07:41:14.18	61.87	7.91	-42.4	-43.4	20.2	0.00e+00	0	43	0	276824064	56	4017
2026-01-24 07:41:15.19	61.78	7.97	-42.5	-43.5	20.1	0.00e+00	0	43	0	283115520	56	4084
2026-01-24 07:41:16.20	61.68	8.04	-42.7	-43.7	19.9	0.00e+00	0	43	0	288358400	56	4177
2026-01-24 07:41:17.21	61.58	8.11	-42.4	-43.3	20.3	0.00e+00	0	43	0	294649856	56	3996
2026-01-24 07:41:18.22	61.49	8.17	-42.5	-43.4	20.2	0.00e+00	0	43	0	299892736	56	4038
2026-01-24 07:41:19.23	61.39	8.24	-42.4	-43.4	20.3	0.00e+00	0	43	0	306184192	56	4007
2026-01-24 07:41:20.24	61.29	8.31	-42.1	-43.1	20.6	0.00e+00	0	43	0	311427072	56	3881
2026-01-24 07:41:21.25	61.19	8.38	-42.2	-43.1	20.5	0.00e+00	0	43	0	316669952	56	3908
2026-01-24 07:41:22.26	61.09	8.44	-42.2	-43.2	20.5	0.00e+00	0	43	0	322961408	56	3921
2026-01-24 07:41:23.27	60.99	8.51	-41.7	-42.6	21.0	0.00e+00	0	43	0	328204288	55	3902
2026-01-24 07:41:24.27	60.90	8.58	-42.0	-43.0	20.6	0.00e+00	0	43	0	333447168	55	4067
2026-01-24 07:41:25.28	60.80	8.65	-42.1	-43.0	20.6	0.00e+00	0	43	0	339738624	55	4074
2026-01-24 07:41:26.29	60.70	8.71	-41.8	-42.7	20.9	0.00e+00	0	43	0	346030080	55	3953
2026-01-24 07:41:27.30	60.59	8.78	-42.0	-42.9	20.7	0.00e+00	0	43	0	351272960	55	4048
2026-01-24 07:41:28.31	60.49	8.85	-42.0	-42.9	20.7	0.00e+00	0	43	0	356515840	55	4031
2026-01-24 07:41:29.31	60.39	8.92	-42.1	-43.0	20.6	0.00e+00	0	43	0	362807296	55	4083
2026-01-24 07:41:30.32	60.29	8.98	-42.2	-43.1	20.5	0.00e+00	0	43	0	368050176	55	4140
2026-01-24 07:41:31.33	60.19	9.05	-42.2	-43.1	20.5	0.00e+00	0	43	0	373293056	55	4129
2026-01-24 07:41:32.34	60.08	9.12	-42.1	-43.0	20.6	0.00e+00	0	43	0	379584512	55	4094
2026-01-24 07:41:33.35	59.98	9.19	-42.2	-43.2	20.5	0.00e+00	0	43	0	384827392	55	4148
2026-01-24 07:41:34.36	59.87	9.26	-42.1	-43.0	20.6	0.00e+00	0	43	0	391118848	55	4087
2026-01-24 07:41:35.37	59.77	9.33	-42.2	-43.1	20.5	0.00e+00	0	43	0	396361728	55	4135
2026-01-24 07:41:36.37	59.66	9.39	-42.0	-43.0	20.7	0.00e+00	0	43	0	401604608	55	4062
2026-01-24 07:41:37.38	59.56	9.46	-42.1	-43.1	20.6	0.00e+00	0	43	0	407896064	55	4110
2026-01-24 07:41:38.39	59.45	9.53	-42.1	-43.1	20.6	0.00e+00	0	43	0	414187520	55	4119
2026-01-24 07:41:39.40	59.34	9.60	-42.1	-43.0	20.6	0.00e+00	0	43	0	419430400	55	4096
2026-01-24 07:41:40.41	59.24	9.67	-42.0	-43.0	20.7	0.00e+00	0	43	0	424673280	55	4061
2026-01-24 07:41:41.41	59.13	9.74	-41.9	-42.8	20.8	0.00e+00	0	43	0	430964736	55	4001
2026-01-24 07:41:42.42	59.02	9.81	-41.9	-42.9	20.8	0.00e+00	0	43	0	436207616	55	4007
2026-01-24 07:41:43.43	58.91	9.88	-41.8	-42.7	21.0	0.00e+00	0	43	0	441450496	55	3940
2026-01-24 07:41:44.44	58.80	9.95	-42.0	-42.9	20.8	0.00e+00	0	43	0	447741952	55	4034
2026-01-24 07:41:45.45	58.69	10.01	-42.0	-42.9	20.8	0.00e+00	0	43	0	452984832	55	4037
2026-01-24 07:41:46.45	58.58	10.08	-42.0	-43.0	20.7	0.00e+00	0	43	0	458227712	55	4069
2026-01-24 07:41:47.46	58.47	10.15	-42.1	-43.0	20.7	0.00e+00	0	43	0	464519168	55	4078
2026-01-24 07:41:48.47	58.36	10.22	-42.2	-43.1	20.6	0.00e+00	0	43	0	469762048	55	4137
2026-01-24 07:41:49.48	58.24	10.29	-42.1	-43.0	20.7	0.00e+00	0	43	0	476053504	55	4068
2026-01-24 07:41:50.49	58.13	10.36	-41.9	-42.9	20.8	0.00e+00	0	43	0	481296384	55	4010
2026-01-24 07:41:51.50	58.02	10.43	-42.0	-42.9	20.8	0.00e+00	0	43	0	487587840	55	4025
2026-01-24 07:41:52.51	57.90	10.50	-42.0	-42.9	20.8	0.00e+00	0	43	0	492830720	55	4037
2026-01-24 07:41:53.52	57.79	10.57	-42.0	-42.9	20.8	0.00e+00	0	43	0	499122176	55	4049
2026-01-24 07:41:54.53	57.67	10.64	-41.9	-42.8	20.9	0.00e+00	0	43	0	504365056	55	3992
2026-01-24 07:41:55.54	57.56	10.71	-41.7	-42.6	21.1	0.00e+00	0	43	0	509607936	55	3909
2026-01-24 07:41:56.55	57.44	10.78	-41.6	-42.5	21.3	0.00e+00	0	43	0	515899392	55	3850
2026-01-24 07:41:57.56	57.32	10.85	-41.7	-42.5	21.2	0.00e+00	0	43	0	521142272	55	3868
2026-01-24 07:41:58.57	57.21	10.92	-41.5	-42.4	21.4	0.00e+00	0	43	0	526385152	55	3784
2026-01-24 07:41:59.58	57.09	11.00	-41.5	-42.4	21.4	0.00e+00	0	43	0	532676608	54	4014
2026-01-24 07:42:00.58	56.97	11.07	-41.5	-42.4	21.4	0.00e+00	0	43	0	537919488	54	4013
2026-01-24 07:42:01.59	56.85	11.14	-41.6	-42.5	21.3	0.00e+00	0	43	0	544210944	54	4060
2026-01-24 07:42:02.60	56.73	11.21	-41.4	-42.3	21.5	0.00e+00	0	43	0	549453824	54	3976
2026-01-24 07:42:03.61	56.61	11.28	-41.5	-42.4	21.4	0.00e+00	0	43	0	555745280	54	4013
2026-01-24 07:42:04.61	56.49	11.35	-41.5	-42.4	21.3	0.00e+00	0	43	0	560988160	54	4038
2026-01-24 07:42:05.62	56.37	11.42	-41.3	-42.2	21.6	0.00e+00	0	43	0	566231040	54	3936
2026-01-24 07:42:06.63	56.25	11.49	-41.4	-42.3	21.5	0.00e+00	0	43	0	572522496	54	3973
2026-01-24 07:42:07.64	56.12	11.56	-41.4	-42.2	21.5	0.00e+00	0	43	0	577765376	54	3952
2026-01-24 07:42:08.65	56.00	11.63	-41.5	-42.4	21.4	0.00e+00	0	43	0	584056832	54	4032
2026-01-24 07:42:09.65	55.88	11.70	-41.6	-42.5	21.3	0.00e+00	0	43	0	589299712	54	4052
2026-01-24 07:42:10.66	55.75	11.78	-41.4	-42.3	21.5	0.00e+00	0	43	0	594542592	54	3978
2026-01-24 07:42:11.67	55.63	11.85	-41.2	-42.0	21.8	0.00e+00	0	43	0	600834048	54	3847
2026-01-24 07:42:12.68	55.50	11.92	-41.1	-41.9	21.9	0.00e+00	0	43	0	606076928	54	3824
2026-01-24 07:42:13.69	55.37	11.99	-41.2	-42.1	21.7	0.00e+00	0	43	0	611319808	54	3880
2026-01-24 07:42:14.69	55.25	12.06	-41.2	-42.1	21.7	0.00e+00	0	43	0	617611264	54	3881
2026-01-24 07:42:15.70	55.12	12.13	-41.3	-42.1	21.7	0.00e+00	0	43	0	623902720	54	3905
2026-01-24 07:42:16.71	54.99	12.21	-41.2	-42.1	21.7	0.00e+00	0	43	0	629145600	54	3888
2026-01-24 07:42:17.71	54.86	12.28	-41.1	-42.0	21.8	0.00e+00	0	43	0	634388480	54	3845
2026-01-24 07:42:18.72	54.73	12.35	-41.1	-41.9	21.9	0.00e+00	0	43	0	640679936	54	3820
2026-01-24 07:42:19.73	54.60	12.42	-41.1	-41.9	21.9	0.00e+00	0	43	0	645922816	54	3819
2026-01-24 07:42:20.74	54.47	12.49	-41.0	-41.9	21.9	0.00e+00	0	43	0	651165696	53	4025
2026-01-24 07:42:21.75	54.34	12.57	-41.1	-41.9	21.9	0.00e+00	0	43	0	657457152	53	4049
2026-01-24 07:42:22.76	54.21	12.64	-41.1	-41.9	21.9	0.00e+00	0	43	0	662700032	53	4044
2026-01-24 07:42:23.77	54.07	12.71	-41.1	-42.0	21.8	0.00e+00	0	43	0	668991488	53	4072
2026-01-24 07:42:24.77	53.94	12.78	-41.2	-42.1	21.8	0.00e+00	0	43	0	674234368	53	4114
2026-01-24 07:42:25.78	53.81	12.85	-41.1	-42.0	21.9	0.00e+00	0	43	0	679477248	53	4052
2026-01-24 07:42:26.79	53.67	12.93	-41.0	-41.8	22.1	0.00e+00	0	43	0	685768704	53	3984
2026-01-24 07:42:27.80	53.54	13.00	-40.9	-41.7	22.2	0.00e+00	0	43	0	692060160	53	3940
2026-01-24 07:42:28.80	53.40	13.07	-40.9	-41.7	22.2	0.00e+00	0	43	0	697303040	53	3938
2026-01-24 07:42:29.81	53.26	13.14	-40.8	-41.6	22.3	0.00e+00	0	43	0	702545920	53	3904
2026-01-24 07:42:30.82	53.12	13.22	-40.8	-41.6	22.3	0.00e+00	0	43	0	708837376	53	3898
2026-01-24 07:42:31.83	52.99	13.29	-40.8	-41.6	22.3	0.00e+00	0	43	0	714080256	53	3900
2026-01-24 07:42:32.83	52.85	13.36	-40.7	-41.5	22.3	0.00e+00	0	43	0	719323136	53	3868
2026-01-24 07:42:33.84	52.71	13.44	-40.6	-41.5	22.4	0.00e+00	0	43	0	725614592	53	3825
2026-01-24 07:42:34.85	52.57	13.51	-40.6	-41.4	22.5	0.00e+00	0	43	0	730857472	53	3807
2026-01-24 07:42:35.86	52.43	13.58	-40.6	-41.4	22.5	0.00e+00	0	43	0	736100352	53	3811
2026-01-24 07:42:36.87	52.28	13.65	-40.6	-41.4	22.5	0.00e+00	0	43	0	742391808	53	3803
2026-01-24 07:42:37.88	52.14	13.73	-40.6	-41.4	22.5	0.00e+00	0	43	0	747634688	53	3795
2026-01-24 07:42:38.88	52.00	13.80	-40.6	-41.4	22.5	0.00e+00	0	43	0	753926144	53	3796
2026-01-24 07:42:39.89	51.85	13.87	-40.5	-41.4	22.5	0.00e+00	0	43	0	759169024	53	3786
2026-01-24 07:42:40.90	51.71	13.95	-40.5	-41.3	22.6	0.00e+00	0	43	0	765460480	53	3774
2026-01-24 07:42:41.91	51.56	14.02	-40.6	-41.4	22.5	0.00e+00	0	43	0	770703360	53	3818
2026-01-24 07:42:42.91	51.42	14.09	-40.5	-41.3	22.6	0.00e+00	0	43	0	776994816	53	3753
2026-01-24 07:42:43.92	51.27	14.17	-40.7	-41.5	22.4	0.00e+00	0	43	0	782237696	52	4088
2026-01-24 07:42:44.93	51.12	14.24	-40.4	-41.2	22.7	0.00e+00	0	43	0	787480576	52	3928
2026-01-24 07:42:45.93	50.98	14.31	-40.4	-41.2	22.7	0.00e+00	0	43	0	793772032	52	3937
2026-01-24 07:42:46.94	50.83	14.39	-40.5	-41.3	22.6	0.00e+00	0	43	0	799014912	52	3980
2026-01-24 07:42:47.95	50.68	14.46	-40.3	-41.1	22.7	0.00e+00	0	43	0	804257792	52	3904
2026-01-24 07:42:48.96	50.52	14.53	-40.4	-41.2	22.6	0.00e+00	0	43	0	810549248	52	3957
2026-01-24 07:42:49.97	50.37	14.61	-40.4	-41.3	22.6	0.00e+00	0	43	0	815792128	52	3961
2026-01-24 07:42:50.97	50.22	14.68	-40.5	-41.3	22.6	0.00e+00	0	43	0	821035008	52	3995
2026-01-24 07:42:51.98	50.07	14.75	-40.4	-41.2	22.6	0.00e+00	0	43	0	827326464	52	3956
2026-01-24 07:42:52.99	49.91	14.83	-40.4	-41.2	22.7	0.00e+00	0	43	0	833617920	52	3951
2026-01-24 07:42:54.00	49.76	14.90	-40.5	-41.3	22.6	0.00e+00	0	43	0	838860800	52	3986
2026-01-24 07:42:55.01	49.60	14.97	-40.3	-41.1	22.8	0.00e+00	0	43	0	844103680	52	3876
2026-01-24 07:42:56.01	49.45	15.05	-40.3	-41.1	22.8	0.00e+00	0	43	0	850395136	52	3897
2026-01-24 07:42:57.02	49.29	15.12	-40.3	-41.1	22.8	0.00e+00	0	43	0	855638016	52	3880
2026-01-24 07:42:58.03	49.13	15.19	-40.1	-40.9	22.9	0.00e+00	0	43	0	861929472	52	3817
2026-01-24 07:42:59.04	48.97	15.27	-40.0	-40.8	23.1	0.00e+00	0	43	0	867172352	52	3768
2026-01-24 07:43:00.05	48.81	15.34	-40.1	-40.9	23.0	0.00e+00	0	43	0	872415232	52	3816
2026-01-24 07:43:01.06	48.65	15.41	-40.3	-41.1	22.9	0.00e+00	0	43	0	878706688	52	3869
2026-01-24 07:43:02.07	48.49	15.49	-40.1	-40.9	23.0	0.00e+00	0	43	0	883949568	52	3819
2026-01-24 07:43:03.07	48.33	15.56	-40.1	-40.9	23.1	0.00e+00	0	43	0	889192448	52	3783
2026-01-24 07:43:04.08	48.17	15.63	-40.1	-40.9	23.0	0.00e+00	0	43	0	895483904	52	3815
2026-01-24 07:43:05.09	48.01	15.71	-40.1	-40.9	23.0	0.00e+00	0	43	0	901775360	52	3821
2026-01-24 07:43:06.10	47.84	15.78	-40.2	-41.0	22.9	0.00e+00	0	43	0	907018240	52	3828
2026-01-24 07:43:07.11	47.68	15.85	-40.1	-40.9	23.0	0.00e+00	0	43	0	912261120	52	3792
2026-01-24 07:43:08.11	47.51	15.93	-40.2	-41.0	22.9	0.00e+00	0	43	0	918552576	52	3840
2026-01-24 07:43:09.12	47.35	16.00	-40.2	-41.0	22.9	0.00e+00	0	43	0	923795456	52	3855
2026-01-24 07:43:10.13	47.18	16.07	-40.2	-41.0	22.9	0.00e+00	0	43	0	929038336	52	3865
2026-01-24 07:43:11.14	47.01	16.15	-40.0	-40.8	23.1	0.00e+00	0	43	0	935329792	52	3772
2026-01-24 07:43:12.15	46.84	16.22	-40.0	-40.8	23.1	0.00e+00	0	43	0	940572672	52	3764
2026-01-24 07:43:13.16	46.67	16.29	-40.0	-40.8	23.2	0.00e+00	0	43	0	946864128	51	3970
2026-01-24 07:43:14.16	46.50	16.36	-40.1	-40.8	23.1	0.00e+00	0	43	0	952107008	51	4003
2026-01-24 07:43:15.17	46.33	16.44	-40.1	-40.9	23.1	0.00e+00	0	43	0	957349888	51	4009
2026-01-24 07:43:16.18	46.15	16.51	-40.3	-41.1	22.9	0.00e+00	0	43	0	963641344	51	4118
2026-01-24 07:43:17.19	45.98	16.58	-40.0	-40.8	23.2	0.00e+00	0	43	0	968884224	51	3990
2026-01-24 07:43:18.19	45.81	16.66	-40.1	-40.8	23.2	0.00e+00	0	43	0	975175680	51	4000
2026-01-24 07:43:19.20	45.63	16.73	-40.1	-40.9	23.2	0.00e+00	0	43	0	980418560	51	4009
2026-01-24 07:43:20.21	45.46	16.80	-40.1	-40.9	23.1	0.00e+00	0	43	0	986710016	51	4033
2026-01-24 07:43:21.22	45.28	16.88	-40.1	-40.9	23.1	0.00e+00	0	43	0	991952896	51	4037
2026-01-24 07:43:22.23	45.10	16.95	-40.1	-40.9	23.1	0.00e+00	0	43	0	997195776	51	4032
2026-01-24 07:43:23.23	44.92	17.02	-40.2	-41.0	23.1	0.00e+00	0	43	0	1003487232	51	4054
2026-01-24 07:43:24.24	44.74	17.09	-40.1	-40.9	23.2	0.00e+00	0	43	0	1008730112	51	4011
2026-01-24 07:43:25.25	44.56	17.17	-40.0	-40.8	23.2	0.00e+00	0	43	0	1013972992	51	3988
2026-01-24 07:43:26.26	44.38	17.24	-40.0	-40.7	23.3	0.00e+00	0	43	0	1020264448	51	3948
2026-01-24 07:43:27.26	44.20	17.31	-39.9	-40.6	23.4	0.00e+00	0	43	0	1025507328	51	3908
2026-01-24 07:43:28.27	44.02	17.38	-39.8	-40.6	23.4	0.00e+00	0	43	0	1031798784	51	3886
2026-01-24 07:43:29.28	43.83	17.45	-39.8	-40.6	23.5	0.00e+00	0	43	0	1037041664	51	3877
2026-01-24 07:43:30.29	43.65	17.53	-39.9	-40.6	23.4	0.00e+00	0	43	0	1042284544	51	3905
2026-01-24 07:43:31.29	43.46	17.60	-39.8	-40.6	23.5	0.00e+00	0	43	0	1048576000	51	3872
2026-01-24 07:43:32.30	43.28	17.67	-39.7	-40.4	23.6	0.00e+00	0	43	0	1054867456	51	3810
2026-01-24 07:43:33.31	43.09	17.74	-39.5	-40.3	23.7	0.00e+00	0	43	0	1060110336	51	3743
2026-01-24 07:43:34.32	42.90	17.81	-39.6	-40.3	23.7	0.00e+00	0	43	0	1065353216	51	3772
2026-01-24 07:43:35.33	42.71	17.88	-39.6	-40.4	23.6	0.00e+00	0	43	0	1071644672	51	3793
2026-01-24 07:43:36.33	42.52	17.95	-39.7	-40.4	23.6	0.00e+00	0	43	0	1076887552	51	3812
2026-01-24 07:43:37.34	42.33	18.03	-39.6	-40.3	23.7	0.00e+00	0	43	0	1082130432	51	3775
2026-01-24 07:43:38.35	42.14	18.10	-39.5	-40.2	23.8	0.00e+00	0	43	0	1088421888	51	3734
2026-01-24 07:43:39.36	41.95	18.17	-39.4	-40.1	23.9	0.00e+00	0	43	0	1093664768	50	3910
2026-01-24 07:43:40.37	41.75	18.24	-39.4	-40.2	23.8	0.00e+00	0	43	0	1098907648	50	3921
2026-01-24 07:43:41.37	41.56	18.31	-39.4	-40.2	23.8	0.00e+00	0	43	0	1105199104	50	3917
2026-01-24 07:43:42.38	41.36	18.38	-39.3	-40.1	23.9	0.00e+00	0	43	0	1110441984	50	3882
2026-01-24 07:43:43.39	41.17	18.45	-39.3	-40.1	23.9	0.00e+00	0	43	0	1116733440	50	3886
2026-01-24 07:43:44.39	40.97	18.52	-39.3	-40.1	23.9	0.00e+00	0	43	0	1121976320	50	3882
2026-01-24 07:43:45.40	40.77	18.59	-39.3	-40.0	24.0	0.00e+00	0	43	0	1128267776	50	3845
2026-01-24 07:43:46.41	40.57	18.66	-39.1	-39.9	24.1	0.00e+00	0	43	0	1133510656	50	3787
2026-01-24 07:43:47.42	40.37	18.73	-39.0	-39.8	24.2	0.00e+00	0	43	0	1139802112	50	3743
2026-01-24 07:43:48.43	40.17	18.80	-39.1	-39.8	24.2	0.00e+00	0	43	0	1145044992	50	3762
2026-01-24 07:43:49.43	39.97	18.87	-39.0	-39.7	24.3	0.00e+00	0	43	0	1150287872	50	3719
2026-01-24 07:43:50.44	39.77	18.94	-38.9	-39.6	24.4	0.00e+00	0	43	0	1156579328	49	3895
2026-01-24 07:43:51.45	39.56	19.01	-39.0	-39.7	24.3	0.00e+00	0	43	0	1161822208	49	3936
2026-01-24 07:43:52.46	39.36	19.08	-39.0	-39.8	24.2	0.00e+00	0	43	0	1167065088	49	3960
2026-01-24 07:43:53.47	39.15	19.14	-39.0	-39.8	24.2	0.00e+00	0	43	0	1173356544	49	3973
2026-01-24 07:43:54.47	38.94	19.21	-39.1	-39.9	24.1	0.00e+00	0	43	0	1178599424	49	4013
2026-01-24 07:43:55.48	38.74	19.28	-39.2	-40.0	24.0	0.00e+00	0	43	0	1183842304	49	4072
2026-01-24 07:43:56.49	38.53	19.35	-39.2	-39.9	24.1	0.00e+00	0	43	0	1190133760	49	4024
2026-01-24 07:43:57.50	38.32	19.42	-39.1	-39.9	24.1	0.00e+00	0	43	0	1196425216	49	4009
2026-01-24 07:43:58.51	38.11	19.48	-39.0	-39.7	24.2	0.00e+00	0	43	0	1201668096	49	3958
2026-01-24 07:43:59.51	37.90	19.55	-39.0	-39.7	24.3	0.00e+00	0	43	0	1206910976	49	3935
2026-01-24 07:44:00.52	37.68	19.62	-39.0	-39.7	24.3	0.00e+00	0	43	0	1213202432	49	3937
2026-01-24 07:44:01.53	37.47	19.69	-39.0	-39.7	24.3	0.00e+00	0	43	0	1218445312	49	3944
2026-01-24 07:44:02.54	37.25	19.75	-39.0	-39.7	24.3	0.00e+00	0	43	0	1224736768	49	3936
2026-01-24 07:44:03.55	37.04	19.82	-39.0	-39.7	24.3	0.00e+00	0	43	0	1229979648	49	3927
2026-01-24 07:44:04.55	36.82	19.88	-39.0	-39.7	24.3	0.00e+00	0	43	0	1235222528	49	3943
2026-01-24 07:44:05.56	36.61	19.95	-39.0	-39.7	24.3	0.00e+00	0	43	0	1241513984	49	3950
2026-01-24 07:44:06.57	36.39	20.02	-39.0	-39.7	24.3	0.00e+00	0	43	0	1246756864	49	3952
2026-01-24 07:44:07.58	36.17	20.08	-39.1	-39.8	24.2	0.00e+00	0	43	0	1251999744	49	3980
2026-01-24 07:44:08.59	35.95	20.15	-39.0	-39.7	24.3	0.00e+00	0	43	0	1258291200	49	3948
2026-01-24 07:44:09.60	35.73	20.21	-38.8	-39.6	24.4	0.00e+00	0	43	0	1264582656	49	3878
2026-01-24 07:44:10.61	35.51	20.28	-38.9	-39.6	24.5	0.00e+00	0	43	0	1269825536	49	3883
2026-01-24 07:44:11.61	35.28	20.34	-38.7	-39.4	24.6	0.00e+00	0	43	0	1275068416	49	3811
2026-01-24 07:44:12.62	35.06	20.40	-38.8	-39.5	24.5	0.00e+00	0	43	0	1281359872	49	3845
2026-01-24 07:44:13.63	34.83	20.47	-38.8	-39.6	24.6	0.00e+00	0	43	0	1286602752	49	3869
2026-01-24 07:44:14.64	34.61	20.53	-38.9	-39.6	24.5	0.00e+00	0	43	0	1292894208	49	3888
2026-01-24 07:44:15.65	34.38	20.60	-38.9	-39.7	24.4	0.00e+00	0	43	0	1298137088	49	3922
2026-01-24 07:44:16.66	34.15	20.66	-39.0	-39.7	24.4	0.00e+00	0	43	0	1303379968	49	3938
2026-01-24 07:44:17.66	33.93	20.72	-39.0	-39.7	24.3	0.00e+00	0	43	0	1309671424	49	3949
2026-01-24 07:44:18.67	33.70	20.78	-39.0	-39.7	24.3	0.00e+00	0	43	0	1314914304	49	3939
2026-01-24 07:44:19.68	33.47	20.84	-38.9	-39.7	24.4	0.00e+00	0	43	0	1320157184	49	3916
2026-01-24 07:44:20.69	33.23	20.91	-39.1	-39.8	24.4	0.00e+00	0	43	0	1326448640	49	3973
2026-01-24 07:44:21.69	33.00	20.97	-39.0	-39.7	24.4	0.00e+00	0	43	0	1332740096	49	3930
2026-01-24 07:44:22.70	32.77	21.03	-38.9	-39.7	24.5	0.00e+00	0	43	0	1337982976	49	3918
2026-01-24 07:44:23.71	32.54	21.09	-38.8	-39.6	24.5	0.00e+00	0	43	0	1343225856	49	3878
2026-01-24 07:44:24.72	32.30	21.15	-38.9	-39.6	24.5	0.00e+00	0	43	0	1349517312	49	3886
2026-01-24 07:44:25.72	32.07	21.21	-38.8	-39.6	24.5	0.00e+00	0	43	0	1354760192	49	3879
2026-01-24 07:44:26.74	31.83	21.27	-38.8	-39.6	24.5	0.00e+00	0	43	0	1360003072	49	3875
2026-01-24 07:44:27.74	31.59	21.32	-38.7	-39.4	24.6	0.00e+00	0	43	0	1366294528	49	3801
2026-01-24 07:44:28.75	31.35	21.38	-38.7	-39.5	24.6	0.00e+00	0	43	0	1371537408	49	3832
2026-01-24 07:44:29.76	31.11	21.44	-38.7	-39.4	24.6	0.00e+00	0	43	0	1377828864	49	3810
2026-01-24 07:44:30.77	30.87	21.50	-38.7	-39.4	24.6	0.00e+00	0	43	0	1383071744	49	3811
2026-01-24 07:44:31.78	30.63	21.56	-38.8	-39.5	24.6	0.00e+00	0	43	0	1388314624	49	3845
2026-01-24 07:44:32.78	30.39	21.61	-38.7	-39.5	24.6	0.00e+00	0	43	0	1394606080	49	3826
2026-01-24 07:44:33.79	30.15	21.67	-38.9	-39.6	24.5	0.00e+00	0	43	0	1399848960	49	3884
2026-01-24 07:44:34.80	29.90	21.72	-38.8	-39.6	24.5	0.00e+00	0	43	0	1406140416	49	3877
2026-01-24 07:44:35.81	29.66	21.78	-38.8	-39.5	24.6	0.00e+00	0	43	0	1411383296	49	3853
2026-01-24 07:44:36.81	29.41	21.83	-38.7	-39.5	24.7	0.00e+00	0	43	0	1417674752	49	3826
2026-01-24 07:44:37.82	29.17	21.89	-38.7	-39.4	24.7	0.00e+00	0	43	0	1422917632	49	3802
2026-01-24 07:44:38.83	28.92	21.94	-38.7	-39.4	24.7	0.00e+00	0	43	0	1428160512	49	3801
2026-01-24 07:44:39.84	28.67	22.00	-38.6	-39.3	24.8	0.00e+00	0	43	0	1434451968	49	3741
2026-01-24 07:44:40.85	28.42	22.05	-38.6	-39.3	24.8	0.00e+00	0	43	0	1439694848	49	3746
2026-01-24 07:44:41.86	28.17	22.10	-38.8	-39.5	24.6	0.00e+00	0	43	0	1444937728	49	3859
2026-01-24 07:44:42.87	27.92	22.16	-38.8	-39.5	24.6	0.00e+00	0	43	0	1451229184	49	3841
2026-01-24 07:44:43.87	27.67	22.21	-38.8	-39.5	24.6	0.00e+00	0	43	0	1456472064	49	3858
2026-01-24 07:44:44.88	27.41	22.26	-38.7	-39.4	24.7	0.00e+00	0	43	0	1462763520	49	3813
2026-01-24 07:44:45.89	27.16	22.31	-38.6	-39.3	24.8	0.00e+00	0	43	0	1468006400	49	3742
2026-01-24 07:44:46.90	26.90	22.36	-38.4	-39.1	24.9	0.00e+00	0	43	0	1474297856	48	3896
2026-01-24 07:44:47.91	26.65	22.41	-38.4	-39.1	25.0	0.00e+00	0	43	0	1479540736	48	3876
2026-01-24 07:44:48.92	26.39	22.46	-38.3	-39.0	25.0	0.00e+00	0	43	0	1485832192	48	3849
2026-01-24 07:44:49.92	26.14	22.51	-38.4	-39.1	25.0	0.00e+00	0	43	0	1491075072	48	3869
2026-01-24 07:44:50.93	25.88	22.56	-38.2	-38.9	25.1	0.00e+00	0	43	0	1496317952	48	3796
2026-01-24 07:44:51.94	25.62	22.60	-38.2	-39.0	25.1	0.00e+00	0	43	0	1502609408	48	3825
2026-01-24 07:44:52.95	25.36	22.65	-38.3	-39.0	25.0	0.00e+00	0	43	0	1507852288	48	3868
2026-01-24 07:44:53.96	25.10	22.70	-38.3	-39.0	25.0	0.00e+00	0	43	0	1513095168	48	3862
2026-01-24 07:44:54.97	24.84	22.74	-38.4	-39.1	24.9	0.00e+00	0	43	0	1519386624	48	3913
2026-01-24 07:44:55.98	24.58	22.79	-38.4	-39.1	24.9	0.00e+00	0	43	0	1524629504	48	3913
2026-01-24 07:44:56.98	24.32	22.83	-38.3	-39.1	25.0	0.00e+00	0	43	0	1529872384	48	3872
2026-01-24 07:44:57.99	24.05	22.88	-38.3	-39.0	25.0	0.00e+00	0	43	0	1536163840	48	3857
2026-01-24 07:44:59.00	23.79	22.92	-38.4	-39.1	25.1	0.00e+00	0	43	0	1542455296	48	3873
2026-01-24 07:45:00.01	23.52	22.96	-38.4	-39.1	25.0	0.00e+00	0	43	0	1547698176	48	3908
2026-01-24 07:45:01.02	23.26	23.01	-38.4	-39.1	25.0	0.00e+00	0	43	0	1552941056	48	3896
2026-01-24 07:45:02.03	22.99	23.05	-38.3	-39.0	25.1	0.00e+00	0	43	0	1559232512	48	3842
2026-01-24 07:45:03.03	22.73	23.09	-38.3	-39.0	25.1	0.00e+00	0	43	0	1564475392	48	3864
2026-01-24 07:45:04.04	22.46	23.13	-38.2	-38.9	25.2	0.00e+00	0	43	0	1570766848	48	3791
2026-01-24 07:45:05.05	22.19	23.17	-38.1	-38.8	25.3	0.00e+00	0	43	0	1576009728	48	3750
2026-01-24 07:45:06.06	21.92	23.21	-38.2	-38.9	25.2	0.00e+00	0	43	0	1581252608	48	3785
2026-01-24 07:45:07.07	21.65	23.25	-38.1	-38.8	25.2	0.00e+00	0	43	0	1587544064	48	3777
2026-01-24 07:45:08.08	21.38	23.29	-38.3	-39.0	25.1	0.00e+00	0	43	0	1592786944	48	3835
2026-01-24 07:45:09.09	21.11	23.33	-38.3	-39.1	25.0	0.00e+00	0	43	0	1598029824	48	3872
2026-01-24 07:45:10.09	20.84	23.36	-38.4	-39.1	24.9	0.00e+00	0	43	0	1604321280	48	3913
2026-01-24 07:45:11.10	20.57	23.40	-38.5	-39.2	24.9	0.00e+00	0	43	0	1610612736	48	3932
2026-01-24 07:45:12.11	20.29	23.44	-38.5	-39.2	24.9	0.00e+00	0	43	0	1615855616	48	3950
2026-01-24 07:45:13.12	20.02	23.47	-38.4	-39.1	25.0	0.00e+00	0	43	0	1621098496	48	3898
2026-01-24 07:45:14.13	19.74	23.50	-38.4	-39.1	25.0	0.00e+00	0	43	0	1627389952	48	3877
2026-01-24 07:45:15.13	19.47	23.54	-38.4	-39.1	25.0	0.00e+00	0	43	0	1632632832	48	3912
2026-01-24 07:45:16.14	19.20	23.57	-38.4	-39.1	25.0	0.00e+00	0	43	0	1637875712	48	3910
2026-01-24 07:45:17.15	18.92	23.60	-38.4	-39.1	25.0	0.00e+00	0	43	0	1644167168	48	3895
2026-01-24 07:45:18.16	18.64	23.64	-38.3	-39.0	25.1	0.00e+00	0	43	0	1649410048	48	3853
2026-01-24 07:45:19.16	18.37	23.67	-38.2	-38.9	25.2	0.00e+00	0	43	0	1655701504	48	3798
2026-01-24 07:45:20.17	18.09	23.70	-38.1	-38.8	25.2	0.00e+00	0	43	0	1660944384	48	3765
2026-01-24 07:45:21.18	17.81	23.73	-38.1	-38.8	25.3	0.00e+00	0	43	0	1666187264	48	3766
2026-01-24 07:45:22.19	17.53	23.76	-38.0	-38.7	25.4	0.00e+00	0	43	0	1672478720	48	3708
2026-01-24 07:45:23.19	17.26	23.78	-38.1	-38.8	25.3	0.00e+00	0	43	0	1678770176	48	3749
2026-01-24 07:45:24.20	16.98	23.81	-37.6	-38.3	25.2	0.00e+00	0	43	0	1684013056	47	3762
2026-01-24 07:45:25.21	16.70	23.84	-37.6	-38.4	25.2	0.00e+00	0	43	0	1689255936	47	3785
2026-01-24 07:45:26.21	16.42	23.86	-37.5	-38.2	25.3	0.00e+00	0	43	0	1695547392	47	3707
2026-01-24 07:45:27.22	16.14	23.89	-37.5	-38.3	25.3	0.00e+00	0	43	0	1700790272	46	3964
2026-01-24 07:45:28.23	15.85	23.91	-37.4	-38.1	25.4	0.00e+00	0	43	0	1706033152	46	3911
2026-01-24 07:45:29.24	15.57	23.94	-37.4	-38.1	25.4	0.00e+00	0	43	0	1712324608	46	3906
2026-01-24 07:45:30.25	15.29	23.96	-37.5	-38.2	25.3	0.00e+00	0	43	0	1717567488	46	3937
2026-01-24 07:45:31.25	15.01	23.98	-37.5	-38.2	25.3	0.00e+00	0	43	0	1722810368	46	3952
2026-01-24 07:45:32.26	14.72	24.00	-37.6	-38.3	25.2	0.00e+00	0	43	0	1729101824	46	3993
2026-01-24 07:45:33.27	14.44	24.03	-37.7	-38.4	25.1	0.00e+00	0	43	0	1734344704	46	4040
2026-01-24 07:45:34.28	14.16	24.05	-37.7	-38.4	25.1	0.00e+00	0	43	0	1740636160	46	4040
2026-01-24 07:45:35.28	13.87	24.07	-37.8	-38.5	25.1	0.00e+00	0	43	0	1745879040	46	4066
2026-01-24 07:45:36.29	13.59	24.08	-37.8	-38.5	25.0	0.00e+00	0	43	0	1752170496	46	4073
2026-01-24 07:45:37.30	13.30	24.10	-37.7	-38.5	25.1	0.00e+00	0	43	0	1757413376	46	4059
2026-01-24 07:45:38.31	13.02	24.12	-37.7	-38.4	25.1	0.00e+00	0	43	0	1763704832	46	4039
2026-01-24 07:45:39.32	12.73	24.14	-37.7	-38.4	25.1	0.00e+00	0	43	0	1768947712	46	4028
2026-01-24 07:45:40.32	12.45	24.15	-37.7	-38.4	25.1	0.00e+00	0	43	0	1774190592	46	4016
2026-01-24 07:45:41.33	12.16	24.17	-37.6	-38.3	25.2	0.00e+00	0	43	0	1780482048	46	3992
2026-01-24 07:45:42.34	11.87	24.18	-37.5	-38.2	25.3	0.00e+00	0	43	0	1785724928	46	3933
2026-01-24 07:45:43.35	11.59	24.19	-37.5	-38.2	25.3	0.00e+00	0	43	0	1790967808	46	3955
2026-01-24 07:45:44.35	11.30	24.21	-37.5	-38.2	25.3	0.00e+00	0	43	0	1797259264	46	3925
2026-01-24 07:45:45.36	11.02	24.22	-37.4	-38.1	25.4	0.00e+00	0	43	0	1802502144	46	3903
2026-01-24 07:45:46.37	10.73	24.23	-37.4	-38.1	25.4	0.00e+00	0	43	0	1807745024	46	3910
2026-01-24 07:45:47.38	10.44	24.24	-37.4	-38.1	25.5	0.00e+00	0	43	0	1814036480	46	3875
2026-01-24 07:45:48.38	10.15	24.25	-37.4	-38.1	25.4	0.00e+00	0	43	0	1819279360	46	3882
2026-01-24 07:45:49.39	9.87	24.26	-37.4	-38.1	25.4	0.00e+00	0	43	0	1825570816	46	3897
2026-01-24 07:45:50.40	9.58	24.27	-37.5	-38.2	25.3	0.00e+00	0	43	0	1830813696	46	3926
2026-01-24 07:45:51.41	9.29	24.27	-37.5	-38.2	25.3	0.00e+00	0	43	0	1837105152	46	3951
2026-01-24 07:45:52.42	9.00	24.28	-37.6	-38.3	25.2	0.00e+00	0	43	0	1842348032	46	3975
2026-01-24 07:45:53.43	8.71	24.28	-37.7	-38.4	25.2	0.00e+00	0	43	0	1848639488	46	4041
2026-01-24 07:45:54.44	8.42	24.29	-37.5	-38.2	25.3	0.00e+00	0	43	0	1853882368	46	3953
2026-01-24 07:45:55.45	8.13	24.29	-37.5	-38.2	25.4	0.00e+00	0	43	0	1859125248	46	3934
2026-01-24 07:45:56.46	7.84	24.30	-37.5	-38.2	25.4	0.00e+00	0	43	0	1865416704	46	3943
2026-01-24 07:45:57.46	7.56	24.30	-37.5	-38.2	25.3	0.00e+00	0	43	0	1870659584	46	3958
2026-01-24 07:45:58.47	7.27	24.30	-37.6	-38.3	25.2	0.00e+00	0	43	0	1875902464	46	3983
2026-01-24 07:45:59.48	6.98	24.30	-37.6	-38.3	25.2	0.00e+00	0	43	0	1882193920	46	3978
2026-01-24 07:46:00.49	6.69	24.30	-37.6	-38.3	25.2	0.00e+00	0	43	0	1887436800	46	3997
2026-01-24 07:46:01.49	6.40	24.30	-37.5	-38.2	25.3	0.00e+00	0	43	0	1893728256	46	3946
2026-01-24 07:46:02.50	6.11	24.30	-37.5	-38.2	25.4	0.00e+00	0	43	0	1898971136	46	3924
2026-01-24 07:46:03.51	5.82	24.30	-37.4	-38.1	25.4	0.00e+00	0	43	0	1905262592	46	3898
2026-01-24 07:46:04.52	5.53	24.29	-37.5	-38.2	25.3	0.00e+00	0	43	0	1910505472	46	3942
2026-01-24 07:46:05.53	5.25	24.29	-37.4	-38.1	25.4	0.00e+00	0	43	0	1915748352	46	3884
2026-01-24 07:46:06.53	4.96	24.29	-37.4	-38.1	25.4	0.00e+00	0	43	0	1922039808	46	3903
2026-01-24 07:46:07.54	4.67	24.28	-37.6	-38.3	25.3	0.00e+00	0	43	0	1927282688	46	3969
2026-01-24 07:46:08.55	4.38	24.27	-37.5	-38.3	25.3	0.00e+00	0	43	0	1933574144	46	3964
2026-01-24 07:46:09.56	4.09	24.27	-37.5	-38.2	25.3	0.00e+00	0	43	0	1938817024	46	3939
2026-01-24 07:46:10.57	3.80	24.26	-37.5	-38.3	25.3	0.00e+00	0	43	0	1944059904	46	3966
2026-01-24 07:46:11.57	3.52	24.25	-37.4	-38.2	25.4	0.00e+00	0	43	0	1950351360	46	3917
2026-01-24 07:46:12.58	3.23	24.24	-37.5	-38.2	25.4	0.00e+00	0	43	0	1955594240	46	3923
2026-01-24 07:46:13.59	2.94	24.23	-37.6	-38.3	25.2	0.00e+00	0	43	0	1961885696	46	3997
2026-01-24 07:46:14.60	2.66	24.22	-37.6	-38.4	25.2	0.00e+00	0	43	0	1967128576	46	4007
2026-01-24 07:46:15.61	2.37	24.21	-37.5	-38.2	25.3	0.00e+00	0	43	0	1973420032	46	3942
2026-01-24 07:46:16.62	2.08	24.19	-37.6	-38.3	25.3	0.00e+00	0	43	0	1978662912	46	3981
2026-01-24 07:46:17.63	1.79	24.18	-37.6	-38.3	25.2	0.00e+00	0	43	0	1983905792	46	3974
2026-01-24 07:46:18.63	1.51	24.17	-37.6	-38.3	25.2	0.00e+00	0	43	0	1990197248	46	3995
2026-01-24 07:46:19.64	1.22	24.15	-37.7	-38.5	25.1	0.00e+00	0	43	0	1995440128	46	4056
2026-01-24 07:46:20.65	0.94	24.14	-37.6	-38.3	25.2	0.00e+00	0	43	0	2000683008	46	4002
2026-01-24 07:46:21.66	0.65	24.12	-37.5	-38.2	25.3	0.00e+00	0	43	0	2006974464	46	3952
2026-01-24 07:46:22.67	0.36	24.10	-37.4	-38.1	25.4	0.00e+00	0	43	0	2012217344	46	3878
2026-01-24 07:46:23.68	0.08	24.09	-37.4	-38.1	25.4	0.00e+00	0	43	0	2018508800	46	3904
2026-01-24 07:46:24.68	359.80	24.07	-37.5	-38.2	25.3	0.00e+00	0	43	0	2023751680	46	3922
2026-01-24 07:46:25.69	359.51	24.05	-37.6	-38.3	25.2	0.00e+00	0	43	0	2030043136	46	3984
2026-01-24 07:46:26.70	359.23	24.03	-37.6	-38.3	25.2	0.00e+00	0	43	0	2035286016	46	3976
2026-01-24 07:46:27.71	358.94	24.01	-37.5	-38.2	25.3	0.00e+00	0	43	0	2041577472	46	3940
2026-01-24 07:46:28.71	358.66	23.98	-37.4	-38.1	25.4	0.00e+00	0	43	0	2046820352	46	3912
2026-01-24 07:46:29.72	358.38	23.96	-37.2	-37.9	25.5	0.00e+00	0	43	0	2052063232	46	3799
2026-01-24 07:46:30.73	358.10	23.94	-37.2	-37.9	25.6	0.00e+00	0	43	0	2058354688	46	3801
2026-01-24 07:46:31.74	357.81	23.92	-37.3	-38.0	25.5	0.00e+00	0	43	0	2063597568	46	3849
2026-01-24 07:46:32.75	357.53	23.89	-37.4	-38.1	25.4	0.00e+00	0	43	0	2068840448	46	3889
2026-01-24 07:46:33.75	357.25	23.87	-37.5	-38.2	25.3	0.00e+00	0	43	0	2075131904	46	3949
2026-01-24 07:46:34.76	356.97	23.84	-37.4	-38.2	25.3	0.00e+00	0	43	0	2080374784	46	3920
2026-01-24 07:46:35.77	356.69	23.81	-37.6	-38.3	25.2	0.00e+00	0	43	0	2085617664	46	3977
2026-01-24 07:46:36.78	356.41	23.79	-37.6	-38.3	25.2	0.00e+00	0	43	0	2091909120	46	3985
2026-01-24 07:46:37.79	356.13	23.76	-37.5	-38.2	25.3	0.00e+00	0	43	0	2097152000	46	3922
2026-01-24 07:46:38.79	355.86	23.73	-37.5	-38.2	25.3	0.00e+00	0	43	0	2103443456	46	3942
2026-01-24 07:46:39.80	355.58	23.70	-37.6	-38.3	25.2	0.00e+00	0	43	0	2108686336	46	3971
2026-01-24 07:46:40.81	355.30	23.67	-37.6	-38.3	25.2	0.00e+00	0	43	0	2114977792	46	3971
2026-01-24 07:46:41.82	355.02	23.64	-37.8	-38.5	25.2	0.00e+00	0	43	0	2120220672	46	4062
2026-01-24 07:46:42.83	354.74	23.61	-37.9	-38.6	25.0	0.00e+00	0	43	0	2126512128	46	4105
2026-01-24 07:46:43.83	354.47	23.57	-37.7	-38.4	25.2	0.00e+00	0	43	0	2131755008	46	4038
2026-01-24 07:46:44.84	354.20	23.54	-37.7	-38.4	25.2	0.00e+00	0	43	0	2136997888	46	4022
2026-01-24 07:46:45.85	353.92	23.51	-37.6	-38.3	25.2	0.00e+00	0	43	0	2143289344	46	3995
2026-01-24 07:46:46.86	353.65	23.47	-37.7	-38.4	25.1	0.00e+00	0	43	0	2148532224	46	4039
2026-01-24 07:46:47.87	353.37	23.44	-37.6	-38.3	25.2	0.00e+00	0	43	0	2153775104	46	3992
2026-01-24 07:46:48.88	353.10	23.40	-37.5	-38.3	25.3	0.00e+00	0	43	0	2160066560	46	3961
2026-01-24 07:46:49.89	352.83	23.37	-37.4	-38.1	25.4	0.00e+00	0	43	0	2165309440	46	3904
2026-01-24 07:46:50.89	352.56	23.33	-37.4	-38.1	25.4	0.00e+00	0	43	0	2171600896	46	3912
2026-01-24 07:46:51.90	352.28	23.29	-37.4	-38.0	25.5	0.00e+00	0	43	0	2176843776	46	3865
2026-01-24 07:46:52.91	352.01	23.25	-37.5	-38.2	25.3	0.00e+00	0	43	0	2183135232	46	3927
2026-01-24 07:46:53.91	351.75	23.21	-37.5	-38.2	25.3	0.00e+00	0	43	0	2188378112	46	3939
2026-01-24 07:46:54.92	351.48	23.17	-37.6	-38.3	25.3	0.00e+00	0	43	0	2193620992	46	3965
2026-01-24 07:46:55.93	351.21	23.13	-37.7	-38.4	25.2	0.00e+00	0	43	0	2199912448	46	4034
2026-01-24 07:46:56.94	350.94	23.09	-37.7	-38.4	25.1	0.00e+00	0	43	0	2205155328	46	4031
2026-01-24 07:46:57.95	350.67	23.05	-37.7	-38.5	25.1	0.00e+00	0	43	0	2211446784	46	4056
2026-01-24 07:46:58.95	350.41	23.01	-37.6	-38.3	25.2	0.00e+00	0	43	0	2216689664	46	3974
2026-01-24 07:46:59.96	350.14	22.97	-37.6	-38.3	25.2	0.00e+00	0	43	0	2221932544	46	3980
2026-01-24 07:47:00.97	349.88	22.92	-37.6	-38.3	25.2	0.00e+00	0	43	0	2228224000	46	3980
2026-01-24 07:47:01.98	349.61	22.88	-37.7	-38.4	25.2	0.00e+00	0	43	0	2233466880	46	4010
2026-01-24 07:47:02.99	349.35	22.84	-37.5	-38.2	25.3	0.00e+00	0	43	0	2238709760	46	3956
2026-01-24 07:47:03.99	349.09	22.79	-37.6	-38.3	25.2	0.00e+00	0	43	0	2245001216	46	3970
2026-01-24 07:47:05.00	348.83	22.75	-37.6	-38.3	25.2	0.00e+00	0	43	0	2251292672	46	3996
2026-01-24 07:47:06.01	348.57	22.70	-37.6	-38.3	25.2	0.00e+00	0	43	0	2256535552	46	3990
2026-01-24 07:47:07.02	348.31	22.65	-37.6	-38.3	25.2	0.00e+00	0	43	0	2261778432	46	3974
2026-01-24 07:47:08.03	348.05	22.61	-37.7	-38.4	25.2	0.00e+00	0	43	0	2268069888	46	4015
2026-01-24 07:47:09.03	347.79	22.56	-37.8	-38.5	25.1	0.00e+00	0	43	0	2273312768	46	4079
2026-01-24 07:47:10.04	347.53	22.51	-37.7	-38.4	25.1	0.00e+00	0	43	0	2278555648	46	4037
2026-01-24 07:47:11.05	347.28	22.46	-37.7	-38.4	25.1	0.00e+00	0	43	0	2284847104	46	4044
2026-01-24 07:47:12.06	347.02	22.41	-37.7	-38.4	25.1	0.00e+00	0	43	0	2290089984	46	4021
2026-01-24 07:47:13.06	346.77	22.36	-37.8	-38.5	25.0	0.00e+00	0	43	0	2296381440	46	4073
2026-01-24 07:47:14.07	346.51	22.31	-37.8	-38.6	25.0	0.00e+00	0	43	0	2301624320	46	4101
2026-01-24 07:47:15.08	346.26	22.26	-37.8	-38.5	25.1	0.00e+00	0	43	0	2306867200	46	4078
2026-01-24 07:47:16.09	346.00	22.21	-37.9	-38.6	25.0	0.00e+00	0	43	0	2313158656	46	4110
2026-01-24 07:47:17.10	345.75	22.16	-37.7	-38.4	25.1	0.00e+00	0	43	0	2319450112	46	4037
2026-01-24 07:47:18.11	345.50	22.11	-37.9	-38.6	24.9	0.00e+00	0	43	0	2324692992	46	4108
2026-01-24 07:47:19.12	345.25	22.05	-37.7	-38.4	25.1	0.00e+00	0	43	0	2329935872	46	4024
2026-01-24 07:47:20.13	345.00	22.00	-37.7	-38.4	25.1	0.00e+00	0	43	0	2336227328	46	4016
2026-01-24 07:47:21.13	344.75	21.95	-37.7	-38.4	25.1	0.00e+00	0	43	0	2341470208	46	4040
2026-01-24 07:47:22.14	344.51	21.89	-37.8	-38.5	25.0	0.00e+00	0	43	0	2346713088	46	4074
2026-01-24 07:47:23.15	344.26	21.84	-37.8	-38.5	24.9	0.00e+00	0	43	0	2353004544	46	4094
2026-01-24 07:47:24.16	344.01	21.78	-37.8	-38.5	25.0	0.00e+00	0	43	0	2358247424	46	4067
2026-01-24 07:47:25.17	343.77	21.73	-37.7	-38.4	25.1	0.00e+00	0	43	0	2363490304	46	4030
2026-01-24 07:47:26.17	343.52	21.67	-37.7	-38.4	25.1	0.00e+00	0	43	0	2369781760	46	4014
2026-01-24 07:47:27.18	343.28	21.62	-37.6	-38.3	25.2	0.00e+00	0	43	0	2375024640	46	3980
2026-01-24 07:47:28.19	343.04	21.56	-37.6	-38.3	25.2	0.00e+00	0	43	0	2381316096	46	3974
2026-01-24 07:47:29.20	342.80	21.50	-37.6	-38.4	25.1	0.00e+00	0	43	0	2386558976	46	4006
2026-01-24 07:47:30.21	342.56	21.45	-37.6	-38.3	25.2	0.00e+00	0	43	0	2392850432	46	3979
2026-01-24 07:47:31.22	342.32	21.39	-37.7	-38.4	25.1	0.00e+00	0	43	0	2398093312	46	4027
2026-01-24 07:47:32.23	342.08	21.33	-37.6	-38.4	25.1	0.00e+00	0	43	0	2404384768	46	4007
2026-01-24 07:47:33.23	341.84	21.27	-37.8	-38.5	25.0	0.00e+00	0	43	0	2409627648	46	4072
2026-01-24 07:47:34.24	341.60	21.21	-37.8	-38.5	25.0	0.00e+00	0	43	0	2414870528	46	4084
2026-01-24 07:47:35.25	341.37	21.15	-37.9	-38.6	24.8	0.00e+00	0	43	0	2421161984	46	4130
2026-01-24 07:47:36.26	341.13	21.09	-37.9	-38.6	24.9	0.00e+00	0	43	0	2426404864	46	4111
2026-01-24 07:47:37.27	340.90	21.03	-37.8	-38.6	24.9	0.00e+00	0	43	0	2431647744	46	4103
2026-01-24 07:47:38.28	340.66	20.97	-37.9	-38.7	24.8	0.00e+00	0	43	0	2437939200	46	4146
2026-01-24 07:47:39.29	340.43	20.91	-38.0	-38.7	24.8	0.00e+00	0	43	0	2443182080	46	4172
2026-01-24 07:47:40.29	340.20	20.85	-38.2	-38.9	24.6	0.00e+00	0	43	0	2449473536	46	4258
2026-01-24 07:47:41.30	339.97	20.79	-38.3	-39.1	24.5	0.00e+00	0	43	0	2454716416	47	4108
2026-01-24 07:47:42.31	339.74	20.73	-38.3	-39.1	24.5	0.00e+00	0	43	0	2461007872	47	4101
2026-01-24 07:47:43.32	339.51	20.66	-38.3	-39.1	24.5	0.00e+00	0	43	0	2466250752	47	4114
2026-01-24 07:47:44.33	339.28	20.60	-38.4	-39.2	24.4	0.00e+00	0	43	0	2471493632	47	4154
2026-01-24 07:47:45.34	339.06	20.54	-38.2	-38.9	24.6	0.00e+00	0	43	0	2477785088	47	4023
2026-01-24 07:47:46.35	338.83	20.47	-38.2	-38.9	24.6	0.00e+00	0	43	0	2483027968	47	4023
2026-01-24 07:47:47.35	338.61	20.41	-38.2	-39.0	24.6	0.00e+00	0	43	0	2489319424	47	4054
2026-01-24 07:47:48.36	338.38	20.35	-38.2	-38.9	24.6	0.00e+00	0	43	0	2494562304	47	4020
2026-01-24 07:47:49.37	338.16	20.28	-38.1	-38.9	24.6	0.00e+00	0	43	0	2499805184	47	4011
2026-01-24 07:47:50.38	337.94	20.22	-38.1	-38.8	24.7	0.00e+00	0	43	0	2506096640	47	3993
2026-01-24 07:47:51.39	337.72	20.15	-38.1	-38.8	24.7	0.00e+00	0	43	0	2511339520	47	3995
2026-01-24 07:47:52.39	337.50	20.09	-38.3	-39.0	24.5	0.00e+00	0	43	0	2517630976	47	4098
2026-01-24 07:47:53.40	337.28	20.02	-38.4	-39.1	24.4	0.00e+00	0	43	0	2522873856	47	4119
2026-01-24 07:47:54.41	337.06	19.96	-38.5	-39.2	24.3	0.00e+00	0	43	0	2529165312	47	4174
2026-01-24 07:47:55.42	336.84	19.89	-38.5	-39.2	24.3	0.00e+00	0	43	0	2534408192	47	4187
2026-01-24 07:47:56.43	336.63	19.82	-38.5	-39.2	24.3	0.00e+00	0	43	0	2539651072	47	4187
2026-01-24 07:47:57.44	336.41	19.76	-38.5	-39.2	24.3	0.00e+00	0	43	0	2545942528	47	4182
2026-01-24 07:47:58.45	336.20	19.69	-38.6	-39.4	24.2	0.00e+00	0	43	0	2551185408	47	4246
2026-01-24 07:47:59.46	335.98	19.62	-38.6	-39.4	24.2	0.00e+00	0	43	0	2556428288	47	4263
2026-01-24 07:48:00.47	335.77	19.56	-39.0	-39.7	24.4	0.00e+00	0	43	0	2562719744	48	4175
2026-01-24 07:48:01.48	335.56	19.49	-39.1	-39.8	24.2	0.00e+00	0	43	0	2567962624	48	4224
2026-01-24 07:48:02.49	335.35	19.42	-38.9	-39.6	24.4	0.00e+00	0	43	0	2574254080	48	4136
2026-01-24 07:48:03.50	335.14	19.35	-38.9	-39.6	24.4	0.00e+00	0	43	0	2579496960	48	4120
2026-01-24 07:48:04.50	334.93	19.29	-39.1	-39.8	24.3	0.00e+00	0	43	0	2585788416	48	4212
2026-01-24 07:48:05.51	334.72	19.22	-39.0	-39.8	24.3	0.00e+00	0	43	0	2591031296	48	4205
2026-01-24 07:48:06.52	334.52	19.15	-39.1	-39.9	24.2	0.00e+00	0	43	0	2597322752	48	4257
2026-01-24 07:48:07.53	334.31	19.08	-39.2	-40.0	24.1	0.00e+00	0	43	0	2602565632	48	4297
2026-01-24 07:48:08.54	334.10	19.01	-39.0	-39.8	24.3	0.00e+00	0	43	0	2607808512	48	4207
2026-01-24 07:48:09.55	333.90	18.94	-38.9	-39.6	24.4	0.00e+00	0	43	0	2614099968	48	4137
2026-01-24 07:48:10.56	333.70	18.87	-38.9	-39.7	24.4	0.00e+00	0	43	0	2619342848	48	4146
2026-01-24 07:48:11.57	333.49	18.80	-38.9	-39.6	24.5	0.00e+00	0	43	0	2624585728	48	4107
2026-01-24 07:48:12.57	333.29	18.74	-39.0	-39.7	24.4	0.00e+00	0	43	0	2630877184	48	4166
2026-01-24 07:48:13.58	333.09	18.67	-39.0	-39.8	24.3	0.00e+00	0	43	0	2636120064	48	4197
2026-01-24 07:48:14.59	332.89	18.60	-39.0	-39.8	24.3	0.00e+00	0	43	0	2641362944	48	4206
2026-01-24 07:48:15.59	332.70	18.53	-39.0	-39.7	24.3	0.00e+00	0	43	0	2647654400	48	4167
2026-01-24 07:48:16.60	332.50	18.46	-39.0	-39.7	24.4	0.00e+00	0	43	0	2653945856	48	4172
2026-01-24 07:48:17.61	332.30	18.39	-38.9	-39.7	24.4	0.00e+00	0	43	0	2659188736	48	4151
2026-01-24 07:48:18.62	332.11	18.31	-39.0	-39.7	24.4	0.00e+00	0	43	0	2664431616	48	4157
2026-01-24 07:48:19.63	331.91	18.24	-39.0	-39.8	24.3	0.00e+00	0	43	0	2670723072	48	4206
2026-01-24 07:48:20.64	331.72	18.17	-39.1	-39.9	24.2	0.00e+00	0	43	0	2675965952	48	4246
2026-01-24 07:48:21.65	331.52	18.10	-39.2	-39.9	24.1	0.00e+00	0	43	0	2682257408	49	4025
2026-01-24 07:48:22.65	331.33	18.03	-39.1	-39.8	24.2	6.80e-06	0	43	0	2687500288	49	3993
2026-01-24 07:48:23.66	331.14	17.96	-39.1	-39.8	24.2	0.00e+00	0	43	0	2692743168	49	3971
2026-01-24 07:48:24.67	330.95	17.89	-39.1	-39.8	24.2	0.00e+00	0	43	0	2699034624	49	3980
2026-01-24 07:48:25.68	330.76	17.82	-39.1	-39.8	24.2	0.00e+00	0	43	0	2704277504	49	3986
2026-01-24 07:48:26.69	330.57	17.75	-39.1	-39.8	24.2	0.00e+00	0	43	0	2709520384	49	3981
2026-01-24 07:48:27.69	330.39	17.67	-39.1	-39.8	24.2	0.00e+00	0	43	0	2715811840	49	4003
2026-01-24 07:48:28.70	330.20	17.60	-39.0	-39.7	24.3	0.00e+00	0	43	0	2722103296	49	3951
2026-01-24 07:48:29.71	330.02	17.53	-39.0	-39.7	24.3	0.00e+00	0	43	0	2727346176	49	3937
2026-01-24 07:48:30.72	329.83	17.46	-39.0	-39.7	24.3	0.00e+00	0	43	0	2732589056	49	3935
2026-01-24 07:48:31.73	329.65	17.39	-39.0	-39.7	24.3	0.00e+00	0	43	0	2738880512	49	3953
2026-01-24 07:48:32.74	329.46	17.31	-39.0	-39.7	24.3	0.00e+00	0	43	0	2744123392	49	3943
2026-01-24 07:48:33.75	329.28	17.24	-39.0	-39.7	24.2	0.00e+00	0	43	0	2749366272	49	3951
2026-01-24 07:48:34.76	329.10	17.17	-39.0	-39.8	24.2	0.00e+00	0	43	0	2755657728	49	3961
2026-01-24 07:48:35.77	328.92	17.10	-39.1	-39.8	24.2	0.00e+00	0	43	0	2760900608	49	4001
2026-01-24 07:48:36.77	328.74	17.03	-39.0	-39.7	24.3	0.00e+00	0	43	0	2767192064	49	3933
2026-01-24 07:48:37.78	328.56	16.95	-39.1	-39.8	24.2	0.00e+00	0	43	0	2772434944	49	3979
2026-01-24 07:48:38.79	328.38	16.88	-39.1	-39.8	24.1	0.00e+00	0	43	0	2777677824	49	4000
2026-01-24 07:48:39.80	328.21	16.81	-39.4	-40.1	23.8	0.00e+00	0	43	0	2783969280	49	4134
2026-01-24 07:48:40.81	328.03	16.73	-39.3	-40.0	24.0	0.00e+00	0	43	0	2790260736	49	4089
2026-01-24 07:48:41.81	327.86	16.66	-39.4	-40.2	23.8	0.00e+00	0	43	0	2795503616	49	4162
2026-01-24 07:48:42.82	327.68	16.59	-39.5	-40.3	23.7	0.00e+00	0	43	0	2800746496	49	4220
2026-01-24 07:48:43.83	327.51	16.52	-39.5	-40.3	23.7	0.00e+00	0	43	0	2807037952	49	4215
2026-01-24 07:48:44.84	327.34	16.44	-39.7	-40.5	23.5	0.00e+00	0	43	0	2812280832	50	4074
2026-01-24 07:48:45.85	327.16	16.37	-39.6	-40.4	23.7	0.00e+00	0	43	0	2817523712	50	4012
2026-01-24 07:48:46.85	327.00	16.30	-39.6	-40.3	23.7	0.00e+00	0	43	0	2823815168	50	3984
2026-01-24 07:48:47.86	326.83	16.22	-39.6	-40.4	23.6	0.00e+00	0	43	0	2829058048	50	4021
2026-01-24 07:48:48.86	326.66	16.15	-39.6	-40.3	23.7	0.00e+00	0	43	0	2834300928	50	3987
2026-01-24 07:48:49.87	326.49	16.08	-39.7	-40.5	23.5	0.00e+00	0	43	0	2840592384	50	4077
2026-01-24 07:48:50.87	326.32	16.01	-39.8	-40.6	23.4	0.00e+00	0	43	0	2845835264	50	4108
2026-01-24 07:48:51.88	326.16	15.93	-39.6	-40.3	23.7	0.00e+00	0	43	0	2852126720	50	3991
2026-01-24 07:48:52.89	325.99	15.86	-39.6	-40.4	23.6	1.02e-05	0	43	0	2857369600	50	4011
2026-01-24 07:48:53.90	325.82	15.79	-39.7	-40.4	23.6	0.00e+00	0	43	0	2863661056	50	4035
2026-01-24 07:48:54.91	325.66	15.71	-39.7	-40.4	23.6	4.50e-06	0	43	0	2868903936	50	4028
2026-01-24 07:48:55.91	325.50	15.64	-39.5	-40.3	23.7	0.00e+00	0	43	0	2875195392	50	3972
2026-01-24 07:48:56.92	325.34	15.57	-39.5	-40.3	23.7	0.00e+00	0	43	0	2880438272	50	3973
2026-01-24 07:48:57.93	325.17	15.49	-39.6	-40.3	23.6	0.00e+00	0	43	0	2885681152	50	4002
2026-01-24 07:48:58.94	325.01	15.42	-39.6	-40.4	23.6	0.00e+00	0	43	0	2891972608	50	4021
2026-01-24 07:48:59.95	324.85	15.35	-39.8	-40.5	23.4	0.00e+00	0	43	0	2897215488	50	4091
2026-01-24 07:49:00.96	324.69	15.27	-39.8	-40.6	23.4	0.00e+00	0	43	0	2902458368	50	4112
2026-01-24 07:49:01.96	324.54	15.20	-39.8	-40.6	23.4	0.00e+00	0	43	0	2908749824	50	4106
2026-01-24 07:49:02.97	324.38	15.13	-39.8	-40.6	23.4	0.00e+00	0	43	0	2913992704	50	4119
2026-01-24 07:49:03.98	324.22	15.05	-39.9	-40.7	23.3	0.00e+00	0	43	0	2919235584	50	4166
2026-01-24 07:49:04.99	324.06	14.98	-40.0	-40.8	23.2	0.00e+00	0	43	0	2925527040	50	4198
2026-01-24 07:49:05.99	323.91	14.91	-40.1	-40.9	23.1	0.00e+00	0	43	0	2931818496	50	4253
2026-01-24 07:49:07.00	323.75	14.83	-40.0	-40.7	23.2	0.00e+00	0	43	0	2937061376	50	4192
2026-01-24 07:49:08.01	323.60	14.76	-40.0	-40.8	23.2	0.00e+00	0	43	0	2942304256	50	4204
2026-01-24 07:49:09.02	323.45	14.69	-40.1	-40.9	23.1	0.00e+00	0	43	0	2948595712	50	4272
2026-01-24 07:49:10.03	323.29	14.61	-40.1	-40.9	23.1	0.00e+00	0	43	0	2953838592	50	4243
2026-01-24 07:49:11.04	323.14	14.54	-40.2	-41.0	23.0	0.00e+00	0	43	0	2960130048	51	4084
2026-01-24 07:49:12.05	322.99	14.47	-40.3	-41.1	22.9	0.00e+00	0	43	0	2965372928	51	4128
2026-01-24 07:49:13.06	322.84	14.39	-40.3	-41.0	23.0	0.00e+00	0	43	0	2970615808	51	4096
2026-01-24 07:49:14.07	322.69	14.32	-40.4	-41.2	22.8	0.00e+00	0	43	0	2976907264	51	4164
2026-01-24 07:49:15.07	322.55	14.25	-40.5	-41.3	22.6	0.00e+00	0	43	0	2982150144	51	4240
2026-01-24 07:49:16.08	322.40	14.17	-40.6	-41.4	22.6	0.00e+00	0	43	0	2987393024	51	4258
2026-01-24 07:49:17.09	322.25	14.10	-40.4	-41.2	22.8	0.00e+00	0	43	0	2993684480	51	4146
2026-01-24 07:49:18.10	322.10	14.03	-40.0	-40.8	23.1	0.00e+00	0	43	0	2999975936	51	3971
2026-01-24 07:49:19.11	321.96	13.95	-40.1	-40.9	23.1	0.00e+00	0	43	0	3005218816	51	4007
2026-01-24 07:49:20.12	321.81	13.88	-40.2	-41.0	23.0	0.00e+00	0	43	0	3010461696	51	4066
2026-01-24 07:49:21.13	321.67	13.81	-40.2	-40.9	23.0	0.00e+00	0	43	0	3016753152	51	4049
2026-01-24 07:49:22.13	321.53	13.73	-40.3	-41.1	22.8	0.00e+00	0	43	0	3021996032	51	4129
2026-01-24 07:49:23.14	321.38	13.66	-40.3	-41.2	22.8	0.00e+00	0	43	0	3027238912	51	4146
2026-01-24 07:49:24.15	321.24	13.59	-40.4	-41.2	22.8	0.00e+00	0	43	0	3033530368	51	4162
2026-01-24 07:49:25.16	321.10	13.51	-40.4	-41.2	22.7	0.00e+00	0	43	0	3038773248	51	4182
2026-01-24 07:49:26.16	320.96	13.44	-40.5	-41.3	22.7	0.00e+00	0	43	0	3045064704	51	4210
2026-01-24 07:49:27.17	320.82	13.37	-40.5	-41.3	22.7	0.00e+00	0	43	0	3050307584	51	4212
2026-01-24 07:49:28.18	320.68	13.30	-40.4	-41.2	22.7	0.00e+00	0	43	0	3055550464	51	4164
2026-01-24 07:49:29.19	320.54	13.22	-40.4	-41.2	22.7	0.00e+00	0	43	0	3061841920	51	4177
2026-01-24 07:49:30.19	320.41	13.15	-40.4	-41.1	22.8	0.00e+00	0	43	0	3068133376	51	4140
2026-01-24 07:49:31.20	320.27	13.08	-40.3	-41.1	22.8	0.00e+00	0	43	0	3073376256	51	4130
2026-01-24 07:49:32.21	320.13	13.01	-40.5	-41.3	22.6	0.00e+00	0	43	0	3078619136	51	4238
2026-01-24 07:49:33.22	320.00	12.93	-40.4	-41.1	22.8	0.00e+00	0	43	0	3084910592	51	4141
2026-01-24 07:49:34.23	319.86	12.86	-40.6	-41.4	22.6	0.00e+00	0	43	0	3090153472	51	4248
2026-01-24 07:49:35.23	319.73	12.79	-40.5	-41.3	22.6	0.00e+00	0	43	0	3095396352	51	4222
2026-01-24 07:49:36.24	319.59	12.72	-40.5	-41.3	22.6	0.00e+00	0	43	0	3101687808	51	4235
2026-01-24 07:49:37.25	319.46	12.64	-40.7	-41.5	22.5	0.00e+00	0	43	0	3106930688	51	4295
2026-01-24 07:49:38.26	319.33	12.57	-40.6	-41.4	22.5	0.00e+00	0	43	0	3112173568	51	4282
2026-01-24 07:49:39.27	319.20	12.50	-40.6	-41.5	22.5	0.00e+00	0	43	0	3118465024	51	4293
2026-01-24 07:49:40.27	319.07	12.43	-40.7	-41.5	22.4	0.00e+00	0	43	0	3123707904	51	4317
2026-01-24 07:49:41.28	318.94	12.36	-40.7	-41.5	22.4	0.00e+00	0	43	0	3129999360	52	4057
2026-01-24 07:49:42.29	318.81	12.28	-40.6	-41.4	22.5	0.00e+00	0	43	0	3135242240	52	4026
2026-01-24 07:49:43.30	318.68	12.21	-40.7	-41.5	22.3	0.00e+00	0	43	0	3141533696	52	4082
2026-01-24 07:49:44.31	318.55	12.14	-40.8	-41.6	22.2	0.00e+00	0	43	0	3146776576	52	4107
2026-01-24 07:49:45.32	318.42	12.07	-40.8	-41.7	22.2	0.00e+00	0	43	0	3153068032	52	4150
2026-01-24 07:49:46.33	318.29	12.00	-40.8	-41.6	22.2	0.00e+00	0	43	0	3158310912	52	4132
2026-01-24 07:49:47.34	318.17	11.93	-40.8	-41.6	22.2	0.00e+00	0	43	0	3163553792	52	4145
2026-01-24 07:49:48.35	318.04	11.85	-40.9	-41.7	22.1	0.00e+00	0	43	0	3169845248	52	4185
2026-01-24 07:49:49.36	317.92	11.78	-40.9	-41.7	22.1	0.00e+00	0	43	0	3175088128	52	4178
2026-01-24 07:49:50.36	317.79	11.71	-41.0	-41.8	22.0	0.00e+00	0	43	0	3180331008	52	4239
2026-01-24 07:49:51.37	317.67	11.64	-41.0	-41.9	22.0	0.00e+00	0	43	0	3186622464	52	4254
2026-01-24 07:49:52.38	317.54	11.57	-40.8	-41.6	22.2	0.00e+00	0	43	0	3191865344	52	4121
2026-01-24 07:49:53.39	317.42	11.50	-41.0	-41.8	22.0	0.00e+00	0	43	0	3198156800	52	4227
2026-01-24 07:49:54.40	317.30	11.43	-40.8	-41.6	22.2	0.00e+00	0	43	0	3203399680	52	4112
2026-01-24 07:49:55.41	317.18	11.35	-40.9	-41.8	22.1	0.00e+00	0	43	0	3209691136	52	4197
2026-01-24 07:49:56.42	317.06	11.28	-41.0	-41.8	22.0	0.00e+00	0	43	0	3214934016	52	4240
2026-01-24 07:49:57.43	316.94	11.21	-41.2	-42.0	21.8	0.00e+00	0	43	0	3220176896	52	4332
2026-01-24 07:49:58.43	316.82	11.14	-41.2	-42.1	21.7	0.00e+00	0	43	0	3226468352	53	4122
2026-01-24 07:49:59.44	316.70	11.07	-41.2	-42.1	21.8	0.00e+00	0	43	0	3231711232	53	4108
2026-01-24 07:50:00.43	316.58	11.00	-41.3	-42.1	21.7	0.00e+00	0	43	0	3238002688	53	4139
2026-01-24 07:50:01.44	316.46	10.93	-41.2	-42.0	21.8	0.00e+00	0	43	0	3243245568	53	4076
2026-01-24 07:50:02.45	316.35	10.86	-41.3	-42.1	21.7	0.00e+00	0	43	0	3248488448	53	4131
2026-01-24 07:50:03.45	316.23	10.79	-41.2	-42.1	21.7	0.00e+00	0	43	0	3254779904	53	4104
2026-01-24 07:50:04.46	316.11	10.72	-41.2	-42.0	21.8	0.00e+00	0	43	0	3260022784	53	4085
2026-01-24 07:50:05.47	316.00	10.65	-41.3	-42.2	21.6	0.00e+00	0	43	0	3265265664	53	4148
2026-01-24 07:50:06.48	315.88	10.58	-41.3	-42.2	21.6	0.00e+00	0	43	0	3271557120	53	4168
2026-01-24 07:50:07.49	315.77	10.51	-41.2	-42.1	21.7	0.00e+00	0	43	0	3276800000	53	4107
2026-01-24 07:50:08.49	315.65	10.44	-41.3	-42.1	21.6	0.00e+00	0	43	0	3283091456	53	4130
2026-01-24 07:50:09.50	315.54	10.37	-41.2	-42.0	21.7	0.00e+00	0	43	0	3288334336	53	4089
2026-01-24 07:50:10.51	315.43	10.30	-41.2	-42.0	21.7	0.00e+00	0	43	0	3294625792	53	4083
2026-01-24 07:50:11.51	315.32	10.23	-41.1	-42.0	21.7	0.00e+00	0	43	0	3299868672	53	4066
2026-01-24 07:50:12.52	315.21	10.16	-41.2	-42.1	21.7	0.00e+00	0	43	0	3305111552	53	4103
2026-01-24 07:50:13.53	315.09	10.09	-41.2	-42.1	21.7	0.00e+00	0	43	0	3311403008	53	4111
2026-01-24 07:50:14.54	314.98	10.02	-41.1	-42.0	21.7	0.00e+00	0	43	0	3316645888	53	4076
2026-01-24 07:50:15.55	314.87	9.95	-41.3	-42.1	21.6	0.00e+00	0	43	0	3322937344	53	4131
2026-01-24 07:50:16.55	314.76	9.89	-41.4	-42.3	21.5	0.00e+00	0	43	0	3328180224	53	4203
2026-01-24 07:50:17.56	314.65	9.82	-41.3	-42.2	21.5	0.00e+00	0	43	0	3333423104	53	4151
2026-01-24 07:50:18.57	314.55	9.75	-41.6	-42.4	21.3	0.00e+00	0	43	0	3339714560	53	4281
2026-01-24 07:50:19.58	314.44	9.68	-41.5	-42.3	21.4	0.00e+00	0	43	0	3344957440	54	3996
2026-01-24 07:50:20.59	314.33	9.61	-41.8	-42.7	21.1	0.00e+00	0	43	0	3350200320	54	4161
2026-01-24 07:50:21.59	314.22	9.54	-41.4	-42.3	21.4	0.00e+00	0	43	0	3356491776	54	3995
2026-01-24 07:50:22.60	314.12	9.47	-41.6	-42.5	21.3	0.00e+00	0	43	0	3362783232	54	4054
2026-01-24 07:50:23.61	314.01	9.40	-41.7	-42.6	21.1	0.00e+00	0	43	0	3368026112	54	4115
2026-01-24 07:50:24.62	313.91	9.33	-41.6	-42.5	21.2	0.00e+00	0	43	0	3373268992	54	4072
2026-01-24 07:50:25.63	313.80	9.27	-42.0	-42.9	20.8	0.00e+00	0	43	0	3379560448	54	4279
2026-01-24 07:50:26.64	313.70	9.20	-41.9	-42.8	20.9	0.00e+00	0	43	0	3384803328	54	4203
2026-01-24 07:50:27.65	313.59	9.13	-41.9	-42.8	20.9	0.00e+00	0	43	0	3390046208	54	4214
2026-01-24 07:50:28.65	313.49	9.06	-41.9	-42.8	20.9	0.00e+00	0	43	0	3396337664	54	4204
2026-01-24 07:50:29.66	313.39	8.99	-41.7	-42.6	21.0	0.00e+00	0	43	0	3401580544	54	4138
2026-01-24 07:50:30.67	313.28	8.93	-41.5	-42.4	21.3	0.00e+00	0	43	0	3407872000	54	4018
2026-01-24 07:50:31.68	313.18	8.86	-41.5	-42.4	21.3	0.00e+00	0	43	0	3413114880	54	4006
2026-01-24 07:50:32.69	313.08	8.79	-42.0	-43.0	20.7	0.00e+00	0	43	0	3418357760	54	4294
2026-01-24 07:50:33.70	312.98	8.72	-41.6	-42.5	21.2	0.00e+00	0	43	0	3424649216	54	4068
2026-01-24 07:50:34.70	312.88	8.66	-41.7	-42.6	21.1	0.00e+00	0	43	0	3430940672	54	4110
2026-01-24 07:50:35.71	312.78	8.59	-41.6	-42.5	21.1	0.00e+00	0	43	0	3436183552	54	4091
2026-01-24 07:50:36.72	312.68	8.52	-42.1	-43.1	20.6	0.00e+00	0	43	0	3441426432	55	4103
2026-01-24 07:50:37.73	312.58	8.45	-42.0	-43.0	20.7	0.00e+00	0	43	0	3447717888	55	4063
2026-01-24 07:50:38.74	312.48	8.39	-41.7	-42.6	21.0	0.00e+00	0	43	0	3452960768	55	3895
2026-01-24 07:50:39.75	312.38	8.32	-41.8	-42.8	20.9	0.00e+00	0	43	0	3458203648	54	4205
2026-01-24 07:50:40.75	312.29	8.25	-41.8	-42.7	20.9	0.00e+00	0	43	0	3464495104	54	4180
2026-01-24 07:50:41.76	312.19	8.18	-41.8	-42.7	20.9	0.00e+00	0	43	0	3469737984	54	4191
2026-01-24 07:50:42.77	312.09	8.12	-41.7	-42.6	21.0	0.00e+00	0	43	0	3474980864	54	4122
2026-01-24 07:50:43.78	312.00	8.05	-41.8	-42.7	20.8	0.00e+00	0	43	0	3481272320	54	4185
2026-01-24 07:50:44.79	311.90	7.98	-42.1	-43.0	20.6	0.00e+00	0	43	0	3486515200	54	4330
2026-01-24 07:50:45.80	311.81	7.92	-41.6	-42.6	21.0	0.00e+00	0	43	0	3492806656	54	4102
2026-01-24 07:50:46.80	311.71	7.85	-42.0	-43.0	20.6	0.00e+00	0	43	0	3498049536	54	4318
2026-01-24 07:50:47.81	311.62	7.79	-41.9	-42.9	20.7	0.00e+00	0	43	0	3504340992	55	4011
2026-01-24 07:50:48.82	311.52	7.72	-42.0	-43.0	20.6	0.00e+00	0	43	0	3509583872	55	4076
2026-01-24 07:50:49.83	311.43	7.65	-42.1	-43.0	20.6	0.00e+00	0	43	0	3515875328	55	4080
2026-01-24 07:50:50.84	311.34	7.59	-42.5	-43.4	20.1	0.00e+00	0	43	0	3521118208	55	4288
2026-01-24 07:50:51.84	311.24	7.52	-42.3	-43.3	20.2	0.00e+00	0	43	0	3526361088	55	4232
2026-01-24 07:50:52.85	311.15	7.46	-42.2	-43.2	20.4	0.00e+00	0	43	0	3532652544	56	3939
2026-01-24 07:50:53.86	311.06	7.39	-42.1	-43.0	20.5	0.00e+00	0	43	0	3537895424	55	4090
2026-01-24 07:50:54.87	310.97	7.32	-42.2	-43.1	20.4	0.00e+00	0	43	0	3543138304	55	4140
2026-01-24 07:50:55.88	310.88	7.26	-42.2	-43.2	20.4	0.00e+00	0	43	0	3549429760	55	4147
2026-01-24 07:50:56.89	310.79	7.19	-42.5	-43.5	20.0	0.00e+00	0	43	0	3554672640	55	4335
2026-01-24 07:50:57.90	310.70	7.13	-42.5	-43.5	20.0	0.00e+00	0	43	0	3560964096	55	4317
2026-01-24 07:50:58.91	310.61	7.06	-42.7	-43.7	19.8	0.00e+00	0	43	0	3566206976	55	4398
2026-01-24 07:50:59.91	310.52	7.00	-42.5	-43.5	20.1	0.00e+00	0	43	0	3572498432	56	4083
2026-01-24 07:51:00.92	310.43	6.93	-42.7	-43.7	19.9	0.00e+00	0	43	0	3577741312	56	4169
2026-01-24 07:51:01.93	310.34	6.87	-42.5	-43.5	20.0	0.00e+00	0	43	0	3582984192	56	4088
2026-01-24 07:51:02.94	310.25	6.80	-42.5	-43.5	20.0	0.00e+00	0	43	0	3589275648	56	4078
2026-01-24 07:51:03.95	310.16	6.74	-42.6	-43.6	20.0	0.00e+00	0	43	0	3594518528	56	4118
2026-01-24 07:51:04.96	310.08	6.67	-42.2	-43.1	20.4	0.00e+00	0	43	0	3600809984	56	3897
2026-01-24 07:51:05.97	309.99	6.61	-42.1	-43.0	20.4	0.00e+00	0	43	0	3606052864	55	4081
2026-01-24 07:51:06.98	309.90	6.54	-42.4	-43.3	20.1	0.00e+00	0	43	0	3611295744	55	4235
2026-01-24 07:51:07.99	309.82	6.48	-42.2	-43.2	20.3	0.00e+00	0	43	0	3617587200	55	4157
2026-01-24 07:51:09.00	309.73	6.42	-42.2	-43.1	20.3	0.00e+00	0	43	0	3623878656	55	4140
2026-01-24 07:51:10.01	309.65	6.35	-42.2	-43.1	20.3	0.00e+00	0	43	0	3629121536	55	4140
2026-01-24 07:51:11.01	309.56	6.29	-41.9	-42.9	20.5	0.00e+00	0	43	0	3634364416	55	4017
2026-01-24 07:51:12.02	309.48	6.22	-42.3	-43.2	20.2	0.00e+00	0	43	0	3640655872	55	4192
