passes_logs/2026/01/24/R3.2S_Murmansk/R3.2S_Murmansk__20260124_034327_NOAA_20_JPSS-1_rec.log

#Pass ID: 20260124_034327_NOAA 20 (JPSS-1)
#Satellite: NOAA 20 (JPSS-1)
#Configuration: NOAA 20
#almurnet v.1.7.20251203
#Start time: 2026-01-24 03:43:28

#Version: 2.2.20231116
#Station: R3.2S_Murmansk
#Location: 33.079688 lon 68.888172 lat
#TLE: 1 43013U 17073A   26023.57676825  .00000205  00000+0  11821-3 0  9990
#TLE: 2 43013  98.7645 324.4259 0001147  27.0566 333.0670 14.19539368423954

#Time	Az	El	Level	Level2	SNR	BER	BlckErr	Temp	State	Recorded	gain1	gain2
2026-01-24 03:43:28.84	44.08	2.11	-53.3	-68.3	3.8	1.49e+00	0	41	0	0	77	21080
2026-01-24 03:43:29.84	44.02	2.17	-53.3	-68.3	3.8	1.49e+00	0	41	104	0	77	21221
2026-01-24 03:43:30.85	43.97	2.23	-53.3	-68.3	3.8	1.49e+00	0	41	104	0	77	21120
2026-01-24 03:43:31.86	43.91	2.29	-53.3	-68.3	3.8	1.49e+00	0	41	104	0	77	21164
2026-01-24 03:43:32.87	43.85	2.34	-53.3	-68.3	3.8	1.49e+00	0	41	104	0	77	21087
2026-01-24 03:43:33.88	43.79	2.40	-53.3	-68.3	3.8	1.49e+00	0	41	104	0	77	21116
2026-01-24 03:43:34.88	43.73	2.46	-53.3	-68.3	3.8	1.49e+00	0	41	104	0	77	21149
2026-01-24 03:43:35.89	43.68	2.52	-53.3	-68.3	3.8	1.49e+00	0	41	104	0	77	21084
2026-01-24 03:43:36.90	43.62	2.58	-53.3	-68.3	3.8	1.49e+00	0	41	104	0	77	21075
2026-01-24 03:43:37.91	43.56	2.64	-53.3	-68.3	3.8	1.49e+00	0	41	104	0	77	21065
2026-01-24 03:43:38.92	43.50	2.70	-53.3	-68.3	3.8	1.49e+00	0	41	104	0	77	21084
2026-01-24 03:43:39.93	43.44	2.76	-53.3	-68.3	3.8	1.49e+00	0	41	104	0	77	21133
2026-01-24 03:43:40.94	43.38	2.82	-53.3	-68.3	3.8	1.49e+00	0	41	104	0	77	21149
2026-01-24 03:43:41.95	43.32	2.88	-53.3	-68.3	3.8	1.49e+00	0	41	104	0	77	21070
2026-01-24 03:43:42.96	43.26	2.94	-53.3	-68.3	3.8	1.49e+00	0	41	104	0	77	21156
2026-01-24 03:43:43.96	43.20	3.00	-53.3	-68.3	3.8	1.49e+00	0	41	104	0	77	21056
2026-01-24 03:43:44.97	43.14	3.06	-53.3	-68.3	3.8	1.49e+00	0	41	104	0	77	21135
2026-01-24 03:43:45.98	43.08	3.12	-53.3	-68.3	3.8	1.49e+00	0	41	104	0	77	21111
2026-01-24 03:43:46.99	43.01	3.18	-53.3	-68.3	3.8	1.49e+00	0	41	104	0	77	21119
2026-01-24 03:43:47.99	42.95	3.24	-53.3	-68.3	3.8	1.49e+00	0	41	104	0	77	21138
2026-01-24 03:43:49.00	42.89	3.31	-53.3	-68.3	3.8	1.49e+00	0	41	104	0	77	21141
2026-01-24 03:43:50.01	42.83	3.37	-53.3	-68.3	3.8	1.49e+00	0	41	104	0	77	21131
2026-01-24 03:43:51.02	42.77	3.43	-53.3	-68.3	3.8	1.49e+00	0	41	104	0	77	21138
2026-01-24 03:43:52.03	42.70	3.49	-53.3	-68.3	3.8	1.49e+00	0	41	104	0	77	21148
2026-01-24 03:43:53.03	42.64	3.55	-53.3	-68.3	3.8	1.49e+00	0	41	104	0	77	21175
2026-01-24 03:43:54.04	42.58	3.61	-53.3	-68.3	3.8	1.49e+00	0	41	104	0	77	21156
2026-01-24 03:43:55.05	42.51	3.67	-53.3	-68.3	3.8	1.49e+00	0	41	104	0	77	21116
2026-01-24 03:43:56.06	42.45	3.73	-53.3	-68.3	3.8	1.49e+00	0	41	104	0	77	21159
2026-01-24 03:43:57.07	42.39	3.80	-53.3	-68.3	3.8	1.49e+00	0	42	104	0	77	21197
2026-01-24 03:43:58.07	42.32	3.86	-53.3	-68.3	3.8	1.49e+00	0	41	104	0	77	21159
2026-01-24 03:43:59.08	42.26	3.92	-53.3	-68.3	3.8	1.49e+00	0	42	104	0	77	21189
2026-01-24 03:44:00.09	42.19	3.98	-53.3	-68.3	3.8	1.49e+00	0	41	104	0	77	21132
2026-01-24 03:44:01.10	42.13	4.04	-53.3	-68.3	3.8	1.49e+00	0	41	104	0	77	21082
2026-01-24 03:44:02.11	42.06	4.10	-53.3	-68.3	3.8	1.49e+00	0	41	104	0	77	21185
2026-01-24 03:44:03.12	41.99	4.17	-53.3	-68.3	3.8	1.49e+00	0	42	104	0	77	21165
2026-01-24 03:44:04.13	41.93	4.23	-53.3	-68.3	3.8	1.49e+00	0	42	104	0	77	21170
2026-01-24 03:44:05.13	41.86	4.29	-53.3	-68.3	3.8	1.49e+00	0	42	104	0	77	21109
2026-01-24 03:44:06.14	41.79	4.35	-53.3	-68.3	3.8	1.49e+00	0	41	104	0	77	21090
2026-01-24 03:44:07.15	41.73	4.42	-53.3	-68.3	3.8	1.49e+00	0	41	104	0	77	21117
2026-01-24 03:44:08.16	41.66	4.48	-53.3	-68.3	3.8	1.49e+00	0	42	104	0	77	21083
2026-01-24 03:44:09.17	41.59	4.54	-53.3	-68.3	3.8	1.49e+00	0	41	104	0	77	21100
2026-01-24 03:44:10.18	41.52	4.61	-53.3	-68.3	3.8	1.49e+00	0	42	104	0	77	21097
2026-01-24 03:44:11.19	41.46	4.67	-53.3	-68.3	3.8	1.49e+00	0	42	104	0	77	21131
2026-01-24 03:44:12.19	41.39	4.73	-53.3	-68.3	3.8	1.49e+00	0	42	104	0	77	21137
2026-01-24 03:44:13.20	41.32	4.80	-53.3	-68.3	3.8	1.49e+00	0	42	104	0	77	21108
2026-01-24 03:44:14.21	41.25	4.86	-53.3	-68.3	3.8	1.49e+00	0	42	104	0	77	21152
2026-01-24 03:44:15.22	41.18	4.92	-53.3	-68.3	3.8	1.49e+00	0	42	104	0	77	21142
2026-01-24 03:44:16.23	41.11	4.99	-53.3	-68.3	3.8	1.49e+00	0	42	104	0	77	21141
2026-01-24 03:44:17.24	41.04	5.05	-53.3	-68.3	3.8	1.49e+00	0	42	104	0	77	21185
2026-01-24 03:44:18.25	40.97	5.11	-53.3	-68.3	3.8	1.49e+00	0	42	104	0	77	21161
2026-01-24 03:44:19.25	40.90	5.18	-53.3	-68.3	3.8	1.49e+00	0	42	104	0	77	21164
2026-01-24 03:44:20.26	40.83	5.24	-53.3	-68.3	3.8	1.49e+00	0	42	104	0	77	21139
2026-01-24 03:44:21.27	40.76	5.31	-53.3	-68.3	3.8	1.49e+00	0	42	104	0	77	21105
2026-01-24 03:44:22.28	40.68	5.37	-53.3	-68.3	3.8	1.49e+00	0	42	104	0	77	21125
2026-01-24 03:44:23.29	40.61	5.44	-53.3	-68.3	3.8	1.49e+00	0	42	104	0	77	21135
2026-01-24 03:44:24.29	40.54	5.50	-53.3	-68.3	3.8	1.49e+00	0	42	104	0	77	21125
2026-01-24 03:44:25.30	40.47	5.56	-53.3	-68.3	3.8	1.49e+00	0	42	104	0	77	21137
2026-01-24 03:44:26.31	40.39	5.63	-53.3	-68.3	3.8	1.49e+00	0	42	104	0	77	21137
2026-01-24 03:44:27.32	40.32	5.69	-53.3	-68.3	3.8	1.49e+00	0	42	104	0	77	21125
2026-01-24 03:44:28.33	40.24	5.76	-53.3	-68.3	3.8	1.49e+00	0	42	104	0	77	21140
2026-01-24 03:44:29.34	40.17	5.82	-53.3	-68.3	3.8	1.49e+00	0	42	104	0	77	21217
2026-01-24 03:44:30.34	40.10	5.89	-53.3	-68.3	3.8	1.49e+00	0	42	104	0	77	21102
2026-01-24 03:44:31.35	40.02	5.95	-53.3	-68.3	3.8	1.49e+00	0	42	104	0	77	21187
2026-01-24 03:44:32.36	39.95	6.02	-53.3	-68.3	3.8	1.49e+00	0	42	104	0	77	21146
2026-01-24 03:44:33.36	39.87	6.08	-53.3	-68.3	3.8	1.49e+00	0	42	104	0	77	21104
2026-01-24 03:44:34.37	39.79	6.15	-53.3	-68.3	3.8	1.49e+00	0	42	104	0	77	21140
2026-01-24 03:44:35.38	39.72	6.22	-53.3	-68.3	3.8	1.49e+00	0	42	104	0	77	21149
2026-01-24 03:44:36.39	39.64	6.28	-53.3	-68.3	3.8	1.49e+00	0	42	104	0	77	21169
2026-01-24 03:44:37.40	39.56	6.35	-53.3	-68.3	3.8	1.49e+00	0	42	104	0	77	21174
2026-01-24 03:44:38.41	39.49	6.42	-53.3	-68.3	3.8	1.49e+00	0	42	104	0	77	21194
2026-01-24 03:44:39.42	39.41	6.48	-53.3	-68.3	3.8	1.49e+00	0	42	104	0	77	21198
2026-01-24 03:44:40.43	39.33	6.55	-53.3	-68.3	3.8	1.49e+00	0	42	104	0	77	21142
2026-01-24 03:44:41.44	39.25	6.61	-53.3	-68.3	3.8	1.49e+00	0	42	104	0	77	21123
2026-01-24 03:44:42.44	39.17	6.68	-53.3	-68.3	3.8	1.49e+00	0	42	104	0	77	21145
2026-01-24 03:44:43.45	39.09	6.75	-53.3	-68.3	3.8	1.49e+00	0	42	104	0	77	21163
2026-01-24 03:44:44.46	39.01	6.81	-53.3	-68.3	3.8	1.49e+00	0	42	104	0	77	21160
2026-01-24 03:44:45.47	38.93	6.88	-53.3	-68.3	3.8	1.49e+00	0	42	104	0	77	21170
2026-01-24 03:44:46.48	38.85	6.95	-53.3	-68.3	3.8	1.49e+00	0	42	104	0	77	21132
2026-01-24 03:44:47.48	38.77	7.02	-53.3	-68.3	3.8	1.49e+00	0	42	104	0	77	21123
2026-01-24 03:44:48.49	38.69	7.08	-53.3	-68.3	3.8	1.49e+00	0	42	104	0	77	21129
2026-01-24 03:44:49.50	38.61	7.15	-53.3	-68.3	3.8	1.49e+00	0	42	104	0	77	21171
2026-01-24 03:44:50.51	38.53	7.22	-53.3	-68.3	3.8	1.49e+00	0	42	104	0	77	21211
2026-01-24 03:44:51.52	38.44	7.29	-53.3	-68.3	3.8	1.49e+00	0	42	104	0	77	21080
2026-01-24 03:44:52.52	38.36	7.35	-53.3	-68.3	3.8	1.49e+00	0	42	104	0	77	21162
2026-01-24 03:44:53.54	38.28	7.42	-53.3	-68.3	3.8	1.49e+00	0	42	104	0	77	21119
2026-01-24 03:44:54.54	38.20	7.49	-53.3	-68.3	3.8	1.49e+00	0	42	104	0	77	21185
2026-01-24 03:44:55.55	38.11	7.56	-53.3	-68.3	3.8	1.49e+00	0	42	104	0	77	21164
2026-01-24 03:44:56.56	38.03	7.63	-53.3	-68.3	3.8	1.49e+00	0	42	104	0	77	21142
2026-01-24 03:44:57.57	37.94	7.69	-53.3	-68.3	3.8	1.49e+00	0	42	104	0	77	21180
2026-01-24 03:44:58.58	37.86	7.76	-53.3	-68.3	3.8	1.49e+00	0	42	104	0	77	21163
2026-01-24 03:44:59.58	37.77	7.83	-53.3	-68.3	3.8	1.49e+00	0	42	104	0	77	21123
2026-01-24 03:45:00.59	37.68	7.90	-53.3	-68.3	3.8	1.49e+00	0	42	104	0	77	21144
2026-01-24 03:45:01.60	37.60	7.97	-53.3	-68.3	3.8	1.49e+00	0	42	104	0	77	21185
2026-01-24 03:45:02.61	37.51	8.04	-53.3	-68.3	3.8	1.49e+00	0	42	104	0	77	21170
2026-01-24 03:45:03.61	37.42	8.11	-53.3	-68.3	3.8	1.49e+00	0	42	104	0	77	21086
2026-01-24 03:45:04.62	37.34	8.18	-53.3	-68.3	3.8	1.49e+00	0	42	104	0	77	21155
2026-01-24 03:45:05.63	37.25	8.25	-53.3	-68.3	3.8	1.49e+00	0	42	104	0	77	21080
2026-01-24 03:45:06.64	37.16	8.32	-53.3	-68.3	3.8	1.49e+00	0	42	104	0	77	21161
2026-01-24 03:45:07.65	37.07	8.39	-53.3	-68.3	3.8	1.49e+00	0	42	104	0	77	21193
2026-01-24 03:45:08.66	36.98	8.46	-53.3	-68.3	3.8	1.49e+00	0	42	104	0	77	21177
2026-01-24 03:45:09.67	36.89	8.53	-53.3	-68.3	3.8	1.49e+00	0	42	104	0	77	21128
2026-01-24 03:45:10.68	36.80	8.60	-53.3	-68.3	3.8	1.49e+00	0	42	104	0	77	21153
2026-01-24 03:45:11.68	36.71	8.67	-53.3	-68.3	3.8	1.49e+00	0	42	104	0	77	21176
2026-01-24 03:45:12.69	36.62	8.74	-53.3	-68.3	3.8	1.49e+00	0	42	104	0	77	21174
2026-01-24 03:45:13.70	36.52	8.81	-53.3	-68.3	3.8	1.49e+00	0	42	104	0	77	21175
2026-01-24 03:45:14.71	36.43	8.88	-53.3	-68.3	3.8	1.49e+00	0	42	104	0	77	21162
2026-01-24 03:45:15.72	36.34	8.95	-53.3	-68.3	3.8	1.49e+00	0	43	104	0	77	21135
2026-01-24 03:45:16.73	36.25	9.02	-53.3	-68.3	3.8	1.49e+00	0	42	104	0	77	21144
2026-01-24 03:45:17.74	36.15	9.09	-53.3	-68.3	3.8	1.49e+00	0	42	104	0	77	21122
2026-01-24 03:45:18.75	36.06	9.16	-53.3	-68.3	3.8	1.49e+00	0	42	104	0	77	21096
2026-01-24 03:45:19.75	35.96	9.23	-53.3	-68.3	3.8	1.49e+00	0	42	104	0	77	21183
2026-01-24 03:45:20.76	35.87	9.30	-53.3	-68.3	3.8	1.49e+00	0	42	104	0	77	21201
2026-01-24 03:45:21.77	35.77	9.37	-53.3	-68.3	3.8	1.49e+00	0	42	104	0	77	21114
2026-01-24 03:45:22.77	35.68	9.45	-53.3	-68.3	3.8	1.49e+00	0	43	104	0	77	21149
2026-01-24 03:45:23.78	35.58	9.52	-53.3	-68.3	3.8	1.49e+00	0	42	104	0	77	21117
2026-01-24 03:45:24.79	35.48	9.59	-53.3	-68.3	3.8	1.49e+00	0	42	104	0	77	21046
2026-01-24 03:45:25.80	35.38	9.66	-53.3	-68.3	3.8	1.49e+00	0	42	104	0	77	21122
2026-01-24 03:45:26.81	35.29	9.73	-53.3	-68.3	3.8	1.49e+00	0	42	104	0	77	21160
2026-01-24 03:45:27.82	35.19	9.81	-53.3	-68.3	3.8	1.49e+00	0	43	104	0	77	21147
2026-01-24 03:45:28.82	35.09	9.88	-53.3	-68.3	3.8	1.49e+00	0	42	104	0	77	21172
2026-01-24 03:45:29.83	34.99	9.95	-53.3	-68.3	3.8	1.49e+00	0	42	104	0	77	21172
2026-01-24 03:45:30.84	34.89	10.02	-53.3	-68.3	3.8	1.49e+00	0	42	104	0	77	21180
2026-01-24 03:45:31.85	34.79	10.10	-53.3	-68.3	3.8	1.49e+00	0	42	104	0	77	21146
2026-01-24 03:45:32.86	34.69	10.17	-53.3	-68.3	3.8	1.49e+00	0	42	104	0	77	21176
2026-01-24 03:45:33.86	34.59	10.24	-53.3	-68.3	3.8	1.49e+00	0	42	104	0	77	21132
2026-01-24 03:45:34.87	34.48	10.31	-53.3	-68.3	3.8	1.49e+00	0	42	104	0	77	21167
2026-01-24 03:45:35.88	34.38	10.39	-53.3	-68.3	3.8	1.49e+00	0	42	104	0	77	21155
2026-01-24 03:45:36.89	34.28	10.46	-53.3	-68.3	3.8	1.49e+00	0	42	104	0	77	21189
2026-01-24 03:45:37.89	34.17	10.53	-53.3	-68.3	3.8	1.49e+00	0	42	104	0	77	21136
2026-01-24 03:45:38.90	34.07	10.61	-53.3	-68.3	3.8	1.49e+00	0	42	104	0	77	21102
2026-01-24 03:45:39.91	33.96	10.68	-53.3	-68.3	3.8	1.49e+00	0	42	104	0	77	21102
2026-01-24 03:45:40.92	33.86	10.75	-53.3	-68.3	3.8	1.49e+00	0	42	104	0	77	21105
2026-01-24 03:45:41.92	33.75	10.83	-53.3	-68.3	3.8	1.49e+00	0	42	104	0	77	21135
2026-01-24 03:45:42.93	33.65	10.90	-53.3	-68.3	3.8	1.49e+00	0	42	104	0	77	21120
2026-01-24 03:45:43.94	33.54	10.98	-53.3	-68.3	3.8	1.49e+00	0	42	104	0	77	21123
2026-01-24 03:45:44.95	33.43	11.05	-53.3	-68.3	3.8	1.49e+00	0	42	104	0	77	21127
2026-01-24 03:45:45.95	33.32	11.12	-53.3	-68.3	3.8	1.49e+00	0	43	104	0	77	21101
2026-01-24 03:45:46.96	33.21	11.20	-53.3	-68.3	3.8	1.49e+00	0	43	104	0	77	21138
2026-01-24 03:45:47.97	33.10	11.27	-53.3	-68.3	3.8	1.49e+00	0	42	104	0	77	21103
2026-01-24 03:45:48.98	32.99	11.35	-53.3	-68.3	3.8	1.49e+00	0	42	104	0	77	21137
2026-01-24 03:45:49.99	32.88	11.42	-53.3	-68.3	3.8	1.49e+00	0	42	104	0	77	21097
2026-01-24 03:45:51.00	32.77	11.50	-53.3	-68.3	3.8	1.49e+00	0	42	104	0	77	21167
2026-01-24 03:45:52.01	32.66	11.57	-53.3	-68.3	3.8	1.49e+00	0	42	104	0	77	21087
2026-01-24 03:45:53.02	32.55	11.65	-53.3	-68.3	3.8	1.49e+00	0	42	104	0	77	21102
2026-01-24 03:45:54.02	32.44	11.72	-53.3	-68.3	3.8	1.49e+00	0	43	104	0	77	21091
2026-01-24 03:45:55.03	32.32	11.80	-53.3	-68.3	3.8	1.49e+00	0	42	104	0	77	21093
2026-01-24 03:45:56.04	32.21	11.88	-53.3	-68.3	3.8	1.49e+00	0	43	104	0	77	21043
2026-01-24 03:45:57.05	32.09	11.95	-53.3	-68.3	3.8	1.49e+00	0	42	104	0	77	21109
2026-01-24 03:45:58.06	31.98	12.03	-53.3	-68.3	3.8	1.49e+00	0	42	104	0	77	21112
2026-01-24 03:45:59.07	31.86	12.10	-53.3	-68.3	3.8	1.49e+00	0	42	104	0	77	21120
2026-01-24 03:46:00.07	31.75	12.18	-53.3	-68.3	3.8	1.49e+00	0	42	104	0	77	21107
2026-01-24 03:46:01.08	31.63	12.26	-53.3	-68.3	3.8	1.49e+00	0	42	104	0	77	21135
2026-01-24 03:46:02.09	31.51	12.33	-53.3	-68.3	3.8	1.49e+00	0	42	104	0	77	21181
2026-01-24 03:46:03.10	31.39	12.41	-53.3	-68.3	3.8	1.49e+00	0	43	104	0	77	21175
2026-01-24 03:46:04.11	31.27	12.49	-53.3	-68.3	3.8	1.49e+00	0	43	104	0	77	21136
2026-01-24 03:46:05.12	31.15	12.56	-53.3	-68.3	3.8	1.49e+00	0	42	104	0	77	21097
2026-01-24 03:46:06.12	31.03	12.64	-53.3	-68.3	3.8	1.49e+00	0	43	104	0	77	21156
2026-01-24 03:46:07.13	30.91	12.72	-53.3	-68.3	3.8	1.49e+00	0	43	104	0	77	21097
2026-01-24 03:46:08.14	30.79	12.79	-53.3	-68.3	3.8	1.49e+00	0	43	104	0	77	21151
2026-01-24 03:46:09.15	30.67	12.87	-53.3	-68.3	3.8	1.49e+00	0	43	104	0	77	21117
2026-01-24 03:46:10.16	30.54	12.95	-53.3	-68.3	3.8	1.49e+00	0	43	104	0	77	21129
2026-01-24 03:46:11.17	30.42	13.02	-53.3	-68.3	3.8	1.49e+00	0	43	104	0	77	21148
2026-01-24 03:46:12.18	30.30	13.10	-53.3	-68.3	3.8	1.49e+00	0	43	104	0	77	21152
2026-01-24 03:46:13.19	30.17	13.18	-53.3	-68.3	3.8	1.49e+00	0	43	104	0	77	21113
2026-01-24 03:46:14.20	30.04	13.26	-53.3	-68.3	3.8	1.49e+00	0	43	104	0	77	21145
2026-01-24 03:46:15.20	29.92	13.33	-53.3	-68.3	3.8	1.49e+00	0	43	104	0	77	21104
2026-01-24 03:46:16.21	29.79	13.41	-53.3	-68.3	3.8	1.49e+00	0	43	104	0	77	21135
2026-01-24 03:46:17.22	29.66	13.49	-53.3	-68.3	3.8	1.49e+00	0	43	104	0	77	21160
2026-01-24 03:46:18.23	29.54	13.57	-53.3	-68.3	3.8	1.49e+00	0	42	104	0	77	21134
2026-01-24 03:46:19.24	29.41	13.65	-53.3	-68.3	3.8	1.49e+00	0	43	104	0	77	21150
2026-01-24 03:46:20.24	29.28	13.73	-53.3	-68.3	3.8	1.49e+00	0	43	104	0	77	21151
2026-01-24 03:46:21.25	29.15	13.80	-53.3	-68.3	3.8	1.49e+00	0	43	104	0	77	21145
2026-01-24 03:46:22.26	29.01	13.88	-53.3	-68.3	3.8	1.49e+00	0	43	104	0	77	21138
2026-01-24 03:46:23.27	28.88	13.96	-53.3	-68.3	3.8	1.49e+00	0	43	104	0	77	21119
2026-01-24 03:46:24.28	28.75	14.04	-53.3	-68.3	3.8	1.49e+00	0	43	104	0	77	21070
2026-01-24 03:46:25.28	28.62	14.12	-53.3	-68.3	3.8	1.49e+00	0	43	104	0	77	21163
2026-01-24 03:46:26.29	28.48	14.20	-53.3	-68.3	3.8	1.49e+00	0	43	104	0	77	21106
2026-01-24 03:46:27.30	28.35	14.28	-53.3	-68.3	3.8	1.49e+00	0	43	104	0	77	21151
2026-01-24 03:46:28.31	28.21	14.36	-53.3	-68.3	3.8	1.49e+00	0	43	104	0	77	21179
2026-01-24 03:46:29.32	28.08	14.44	-53.3	-68.3	3.8	1.49e+00	0	43	104	0	77	21120
2026-01-24 03:46:30.33	27.94	14.51	-53.3	-68.3	3.8	1.49e+00	0	43	104	0	77	21184
2026-01-24 03:46:31.34	27.80	14.59	-53.3	-68.3	3.8	1.49e+00	0	43	104	0	77	21162
2026-01-24 03:46:32.35	27.66	14.67	-53.3	-68.3	3.8	1.49e+00	0	43	104	0	77	21196
2026-01-24 03:46:33.36	27.52	14.75	-53.3	-68.3	3.8	1.49e+00	0	43	104	0	77	21200
2026-01-24 03:46:34.37	27.38	14.83	-53.3	-68.3	3.8	1.49e+00	0	43	104	0	77	21211
2026-01-24 03:46:35.38	27.24	14.91	-53.3	-68.3	3.8	1.49e+00	0	43	104	0	77	21141
2026-01-24 03:46:36.38	27.10	14.99	-53.3	-68.3	3.8	1.49e+00	0	43	104	0	77	21107
2026-01-24 03:46:37.39	26.96	15.07	-53.3	-68.3	3.8	1.49e+00	0	43	104	0	77	21228
2026-01-24 03:46:38.40	26.81	15.15	-53.3	-68.3	3.8	1.49e+00	0	43	104	0	77	21214
2026-01-24 03:46:39.41	26.67	15.23	-53.3	-68.3	3.8	1.49e+00	0	43	104	0	77	21174
2026-01-24 03:46:40.42	26.52	15.31	-53.3	-68.3	3.8	1.49e+00	0	43	104	0	77	21187
2026-01-24 03:46:41.43	26.38	15.39	-53.3	-68.3	3.8	1.49e+00	0	43	104	0	77	21175
2026-01-24 03:46:42.43	26.23	15.47	-53.3	-68.3	3.8	1.49e+00	0	43	104	0	77	21179
2026-01-24 03:46:43.44	26.09	15.55	-53.3	-68.3	3.8	1.49e+00	0	43	104	0	77	21160
2026-01-24 03:46:44.45	25.94	15.63	-53.3	-68.3	3.8	1.49e+00	0	43	104	0	77	21178
2026-01-24 03:46:45.46	25.79	15.71	-53.3	-68.3	3.8	1.49e+00	0	43	104	0	77	21233
2026-01-24 03:46:46.47	25.64	15.79	-53.3	-68.3	3.8	1.49e+00	0	43	104	0	77	21166
2026-01-24 03:46:47.48	25.49	15.88	-53.3	-68.3	3.8	1.49e+00	0	43	104	0	77	21161
2026-01-24 03:46:48.48	25.34	15.96	-53.3	-68.3	3.8	1.49e+00	0	43	104	0	77	21163
2026-01-24 03:46:49.49	25.19	16.04	-53.3	-68.3	3.8	1.49e+00	0	43	104	0	77	21160
2026-01-24 03:46:50.50	25.03	16.12	-53.3	-68.3	3.8	1.49e+00	0	43	104	0	77	21156
2026-01-24 03:46:51.51	24.88	16.20	-53.3	-68.3	3.8	1.49e+00	0	42	104	0	77	21162
2026-01-24 03:46:52.52	24.72	16.28	-53.3	-68.3	3.8	1.49e+00	0	43	104	0	77	21191
2026-01-24 03:46:53.52	24.57	16.36	-53.3	-68.3	3.8	1.49e+00	0	43	104	0	77	21166
2026-01-24 03:46:54.53	24.41	16.44	-53.3	-68.3	3.8	1.49e+00	0	43	104	0	77	21159
2026-01-24 03:46:55.54	24.26	16.52	-53.3	-68.3	3.8	1.49e+00	0	43	104	0	77	21186
2026-01-24 03:46:56.55	24.10	16.60	-53.3	-68.3	3.8	1.49e+00	0	43	104	0	77	21194
2026-01-24 03:46:57.56	23.94	16.68	-53.3	-68.3	3.8	1.49e+00	0	43	104	0	77	21187
2026-01-24 03:46:58.57	23.78	16.77	-53.3	-68.3	3.8	1.49e+00	0	43	104	0	77	21207
2026-01-24 03:46:59.57	23.62	16.85	-53.3	-68.3	3.8	1.49e+00	0	43	104	0	77	21151
2026-01-24 03:47:00.55	23.46	16.93	-53.3	-68.3	3.8	1.49e+00	0	43	104	0	77	21177
2026-01-24 03:47:01.56	23.30	17.01	-53.3	-68.3	3.8	1.49e+00	0	43	104	0	77	21175
2026-01-24 03:47:02.56	23.14	17.09	-53.3	-68.3	3.8	1.49e+00	0	43	104	0	77	21199
2026-01-24 03:47:03.57	22.97	17.17	-53.3	-68.3	3.8	1.49e+00	0	43	104	0	77	21228
2026-01-24 03:47:04.58	22.81	17.25	-53.3	-68.3	3.8	1.49e+00	0	43	104	0	77	21142
2026-01-24 03:47:05.59	22.64	17.33	-53.3	-68.3	3.8	1.49e+00	0	43	104	0	77	21204
2026-01-24 03:47:06.60	22.47	17.41	-53.3	-68.3	3.8	1.49e+00	0	43	104	0	77	21204
2026-01-24 03:47:07.61	22.30	17.50	-53.3	-68.3	3.8	1.49e+00	0	43	104	0	77	21162
2026-01-24 03:47:08.62	22.14	17.58	-53.3	-68.3	3.8	1.49e+00	0	43	104	0	77	21205
2026-01-24 03:47:09.63	21.97	17.66	-53.3	-68.3	3.8	1.49e+00	0	43	104	0	77	21143
2026-01-24 03:47:10.64	21.79	17.74	-53.3	-68.3	3.8	1.49e+00	0	42	104	0	77	21184
2026-01-24 03:47:11.64	21.62	17.82	-53.3	-68.3	3.8	1.49e+00	0	43	104	0	77	21240
2026-01-24 03:47:12.66	21.45	17.90	-53.3	-68.3	3.8	1.49e+00	0	43	104	0	77	21168
2026-01-24 03:47:13.66	21.28	17.98	-53.3	-68.3	3.8	1.49e+00	0	43	104	0	77	21173
2026-01-24 03:47:14.67	21.10	18.07	-53.3	-68.3	3.8	1.49e+00	0	43	104	0	77	21213
2026-01-24 03:47:15.68	20.93	18.15	-53.3	-68.3	3.8	1.49e+00	0	43	104	0	77	21183
2026-01-24 03:47:16.69	20.75	18.23	-53.3	-68.3	3.8	1.49e+00	0	43	104	0	77	21216
2026-01-24 03:47:17.69	20.57	18.31	-53.3	-68.3	3.8	1.49e+00	0	43	104	0	77	21212
2026-01-24 03:47:18.70	20.40	18.39	-53.3	-68.3	3.8	1.49e+00	0	43	104	0	77	21138
2026-01-24 03:47:19.71	20.22	18.47	-53.3	-68.3	3.8	1.49e+00	0	43	104	0	77	21225
2026-01-24 03:47:20.72	20.04	18.55	-53.3	-68.3	3.8	1.49e+00	0	43	104	0	77	21257
2026-01-24 03:47:21.73	19.85	18.64	-53.3	-68.3	3.8	1.49e+00	0	43	104	0	77	21242
2026-01-24 03:47:22.73	19.67	18.72	-53.3	-68.3	3.8	1.49e+00	0	43	104	0	77	21176
2026-01-24 03:47:23.74	19.49	18.80	-53.3	-68.3	3.8	1.49e+00	0	43	104	0	77	21219
2026-01-24 03:47:24.76	19.30	18.88	-53.3	-68.3	3.8	1.49e+00	0	43	104	0	77	21224
2026-01-24 03:47:25.77	19.12	18.96	-53.3	-68.3	3.8	1.49e+00	0	43	104	0	77	21205
2026-01-24 03:47:26.77	18.93	19.04	-53.3	-68.4	3.8	1.49e+00	0	43	104	0	77	21264
2026-01-24 03:47:27.78	18.75	19.12	-53.3	-68.3	3.8	1.49e+00	0	43	104	0	77	21223
2026-01-24 03:47:28.79	18.56	19.20	-53.3	-68.3	3.8	1.49e+00	0	43	104	0	77	21215
2026-01-24 03:47:29.80	18.37	19.28	-53.3	-68.3	3.8	1.49e+00	0	43	104	0	77	21219
2026-01-24 03:47:30.81	18.18	19.37	-53.3	-68.3	3.8	1.49e+00	0	43	104	0	77	21231
2026-01-24 03:47:31.82	17.99	19.45	-53.3	-68.3	3.8	1.49e+00	0	43	104	0	77	21234
2026-01-24 03:47:32.82	17.79	19.53	-53.3	-68.3	3.8	1.49e+00	0	43	104	0	77	21191
2026-01-24 03:47:33.83	17.60	19.61	-53.3	-68.3	3.8	1.49e+00	0	43	104	0	77	21169
2026-01-24 03:47:34.84	17.41	19.69	-53.3	-68.3	3.8	1.49e+00	0	43	104	0	77	21233
2026-01-24 03:47:35.85	17.21	19.77	-53.3	-68.4	3.8	1.49e+00	0	43	104	0	77	21273
2026-01-24 03:47:36.86	17.01	19.85	-53.3	-68.3	3.8	1.49e+00	0	42	104	0	77	21187
2026-01-24 03:47:37.86	16.82	19.93	-53.3	-68.3	3.8	1.49e+00	0	43	104	0	77	21224
2026-01-24 03:47:38.87	16.62	20.01	-53.3	-68.3	3.8	1.49e+00	0	43	104	0	77	21240
2026-01-24 03:47:39.88	16.42	20.09	-53.3	-68.3	3.8	1.49e+00	0	43	104	0	77	21184
2026-01-24 03:47:40.89	16.22	20.17	-53.3	-68.3	3.8	1.49e+00	0	43	104	0	77	21216
2026-01-24 03:47:41.90	16.02	20.25	-53.3	-68.3	3.8	1.49e+00	0	43	104	0	77	21238
2026-01-24 03:47:42.91	15.81	20.33	-53.3	-68.3	3.8	1.49e+00	0	43	104	0	77	21191
2026-01-24 03:47:43.92	15.61	20.41	-53.3	-68.3	3.8	1.49e+00	0	43	104	0	77	21214
2026-01-24 03:47:44.92	15.40	20.49	-53.3	-68.3	3.8	1.49e+00	0	43	104	0	77	21199
2026-01-24 03:47:45.93	15.20	20.57	-53.3	-68.4	3.8	1.49e+00	0	43	104	0	77	21271
2026-01-24 03:47:46.94	14.99	20.65	-53.3	-68.3	3.8	1.49e+00	0	43	104	0	77	21212
2026-01-24 03:47:47.95	14.78	20.72	-53.3	-68.3	3.8	1.49e+00	0	43	104	0	77	21178
2026-01-24 03:47:48.96	14.57	20.80	-53.3	-68.3	3.8	1.49e+00	0	43	104	0	77	21183
2026-01-24 03:47:49.97	14.36	20.88	-53.3	-68.3	3.8	1.49e+00	0	43	104	0	77	21193
2026-01-24 03:47:50.97	14.15	20.96	-53.3	-68.3	3.8	1.49e+00	0	43	104	0	77	21174
2026-01-24 03:47:51.98	13.94	21.04	-53.3	-68.3	3.8	1.49e+00	0	43	104	0	77	21244
2026-01-24 03:47:52.99	13.73	21.12	-53.3	-68.3	3.8	1.49e+00	0	43	104	0	77	21177
2026-01-24 03:47:54.00	13.51	21.19	-53.3	-68.3	3.8	1.49e+00	0	43	104	0	77	21187
2026-01-24 03:47:55.01	13.29	21.27	-53.3	-68.3	3.8	1.49e+00	0	43	104	0	77	21173
2026-01-24 03:47:56.02	13.08	21.35	-53.3	-68.3	3.8	1.49e+00	0	43	104	0	77	21233
2026-01-24 03:47:57.02	12.86	21.43	-53.3	-68.3	3.8	1.49e+00	0	43	104	0	77	21212
2026-01-24 03:47:58.03	12.64	21.50	-53.3	-68.3	3.8	1.49e+00	0	43	104	0	77	21180
2026-01-24 03:47:59.04	12.42	21.58	-53.3	-68.3	3.8	1.49e+00	0	43	104	0	77	21233
2026-01-24 03:48:00.05	12.20	21.66	-53.3	-68.3	3.8	1.49e+00	0	43	104	0	77	21168
2026-01-24 03:48:01.06	11.98	21.73	-53.3	-68.3	3.8	1.49e+00	0	43	104	0	77	21173
2026-01-24 03:48:02.06	11.75	21.81	-53.3	-68.3	3.8	1.49e+00	0	43	104	0	77	21183
2026-01-24 03:48:03.07	11.53	21.89	-53.3	-68.3	3.8	1.49e+00	0	43	104	0	77	21149
2026-01-24 03:48:04.08	11.30	21.96	-53.3	-68.3	3.8	1.49e+00	0	43	104	0	77	21196
2026-01-24 03:48:05.09	11.08	22.04	-53.3	-68.3	3.8	1.49e+00	0	43	104	0	77	21194
2026-01-24 03:48:06.10	10.85	22.11	-53.3	-68.3	3.8	1.49e+00	0	43	104	0	77	21183
2026-01-24 03:48:07.10	10.62	22.19	-53.3	-68.3	3.8	1.49e+00	0	43	104	0	77	21203
2026-01-24 03:48:08.11	10.39	22.26	-53.3	-68.3	3.8	1.49e+00	0	43	104	0	77	21185
2026-01-24 03:48:09.12	10.16	22.34	-53.3	-68.3	3.8	1.49e+00	0	43	104	0	77	21190
2026-01-24 03:48:10.13	9.92	22.41	-53.3	-68.3	3.8	1.49e+00	0	43	104	0	77	21169
2026-01-24 03:48:11.14	9.69	22.48	-53.3	-68.3	3.8	1.49e+00	0	43	104	0	77	21216
2026-01-24 03:48:12.14	9.46	22.56	-53.3	-68.3	3.8	1.49e+00	0	43	104	0	77	21241
2026-01-24 03:48:13.15	9.22	22.63	-53.3	-68.4	3.8	1.49e+00	0	43	104	0	77	21269
2026-01-24 03:48:14.16	8.98	22.70	-53.3	-68.3	3.8	1.49e+00	0	43	104	0	77	21248
2026-01-24 03:48:15.17	8.74	22.78	-53.3	-68.3	3.8	1.49e+00	0	43	104	0	77	21246
2026-01-24 03:48:16.18	8.51	22.85	-53.3	-68.3	3.8	1.49e+00	0	43	104	0	77	21215
2026-01-24 03:48:17.19	8.26	22.92	-53.3	-68.3	3.8	1.49e+00	0	43	104	0	77	21205
2026-01-24 03:48:18.20	8.02	22.99	-53.3	-68.3	3.8	1.49e+00	0	43	104	0	77	21233
2026-01-24 03:48:19.21	7.78	23.06	-53.3	-68.3	3.8	1.49e+00	0	43	104	0	77	21217
2026-01-24 03:48:20.22	7.54	23.13	-53.3	-68.3	3.8	1.49e+00	0	43	104	0	77	21225
2026-01-24 03:48:21.23	7.29	23.20	-53.3	-68.3	3.8	1.49e+00	0	43	104	0	77	21224
2026-01-24 03:48:22.24	7.04	23.27	-53.3	-68.3	3.8	1.49e+00	0	43	104	0	77	21180
2026-01-24 03:48:23.24	6.80	23.34	-53.3	-68.3	3.8	1.49e+00	0	43	104	0	77	21214
2026-01-24 03:48:24.25	6.55	23.41	-53.3	-68.3	3.8	1.49e+00	0	43	104	0	77	21201
2026-01-24 03:48:25.26	6.30	23.48	-53.3	-68.3	3.8	1.49e+00	0	43	104	0	77	21253
2026-01-24 03:48:26.27	6.05	23.55	-53.3	-68.3	3.8	1.49e+00	0	43	104	0	77	21220
2026-01-24 03:48:27.27	5.80	23.62	-53.3	-68.3	3.8	1.49e+00	0	43	104	0	77	21216
2026-01-24 03:48:28.28	5.55	23.69	-53.3	-68.3	3.8	1.49e+00	0	43	104	0	77	21240
2026-01-24 03:48:29.29	5.29	23.75	-53.3	-68.3	3.8	1.49e+00	0	43	104	0	77	21234
2026-01-24 03:48:30.30	5.04	23.82	-53.3	-68.3	3.8	1.49e+00	0	43	104	0	77	21205
2026-01-24 03:48:31.30	4.78	23.89	-53.3	-68.3	3.8	1.49e+00	0	43	104	0	77	21248
2026-01-24 03:48:32.31	4.53	23.95	-53.3	-68.3	3.8	1.49e+00	0	43	104	0	77	21207
2026-01-24 03:48:33.32	4.27	24.02	-53.3	-68.3	3.8	1.49e+00	0	43	104	0	77	21193
2026-01-24 03:48:34.33	4.01	24.08	-53.3	-68.3	3.8	1.49e+00	0	43	104	0	77	21217
2026-01-24 03:48:35.34	3.75	24.15	-53.3	-68.3	3.8	1.49e+00	0	43	104	0	77	21191
2026-01-24 03:48:36.34	3.49	24.21	-53.3	-68.3	3.8	1.49e+00	0	43	104	0	77	21241
2026-01-24 03:48:37.35	3.23	24.27	-53.3	-68.3	3.8	1.49e+00	0	43	104	0	77	21229
2026-01-24 03:48:38.36	2.96	24.34	-53.3	-68.3	3.8	1.49e+00	0	43	104	0	77	21235
2026-01-24 03:48:39.37	2.70	24.40	-53.3	-68.3	3.8	1.49e+00	0	43	104	0	77	21222
2026-01-24 03:48:40.37	2.43	24.46	-53.3	-68.3	3.8	1.49e+00	0	43	104	0	77	21182
2026-01-24 03:48:41.38	2.17	24.52	-53.3	-68.3	3.8	1.49e+00	0	43	104	0	77	21189
2026-01-24 03:48:42.39	1.90	24.58	-53.3	-68.3	3.8	1.49e+00	0	43	104	0	77	21182
2026-01-24 03:48:43.40	1.63	24.64	-53.3	-68.3	3.8	1.49e+00	0	43	104	0	77	21214
2026-01-24 03:48:44.41	1.36	24.70	-53.3	-68.4	3.8	1.49e+00	0	43	104	0	77	21266
2026-01-24 03:48:45.42	1.09	24.76	-53.3	-68.3	3.8	1.49e+00	0	43	104	0	77	21230
2026-01-24 03:48:46.42	0.82	24.82	-53.3	-68.3	3.8	1.49e+00	0	43	104	0	77	21219
2026-01-24 03:48:47.43	0.54	24.88	-53.3	-68.3	3.8	1.49e+00	0	43	104	0	77	21201
2026-01-24 03:48:48.44	0.27	24.94	-53.3	-68.3	3.8	1.49e+00	0	43	104	0	77	21211
2026-01-24 03:48:49.45	359.99	24.99	-53.3	-68.3	3.8	1.49e+00	0	43	104	0	77	21209
2026-01-24 03:48:50.46	359.72	25.05	-53.3	-68.3	3.8	1.49e+00	0	43	104	0	77	21222
2026-01-24 03:48:51.46	359.44	25.10	-53.3	-68.3	3.8	1.49e+00	0	43	104	0	77	21221
2026-01-24 03:48:52.47	359.17	25.16	-53.3	-68.3	3.8	1.49e+00	0	43	104	0	77	21236
2026-01-24 03:48:53.48	358.89	25.21	-53.3	-68.4	3.8	1.49e+00	0	43	104	0	77	21272
2026-01-24 03:48:54.49	358.61	25.27	-53.3	-68.3	3.8	1.49e+00	0	43	104	0	77	21256
2026-01-24 03:48:55.49	358.33	25.32	-53.3	-68.3	3.8	1.49e+00	0	43	104	0	77	21202
2026-01-24 03:48:56.50	358.05	25.37	-53.3	-68.3	3.8	1.49e+00	0	43	104	0	77	21203
2026-01-24 03:48:57.51	357.76	25.42	-53.3	-68.3	3.8	1.49e+00	0	43	104	0	77	21211
2026-01-24 03:48:58.52	357.48	25.48	-53.3	-68.3	3.8	1.49e+00	0	43	104	0	77	21243
2026-01-24 03:48:59.53	357.19	25.53	-53.3	-68.3	3.8	1.49e+00	0	43	104	0	77	21179
2026-01-24 03:49:00.53	356.91	25.58	-53.3	-68.3	3.8	1.49e+00	0	43	104	0	77	21201
2026-01-24 03:49:01.54	356.62	25.62	-53.3	-68.3	3.8	1.49e+00	0	43	104	0	77	21249
2026-01-24 03:49:02.55	356.34	25.67	-53.3	-68.3	3.8	1.49e+00	0	43	104	0	77	21257
2026-01-24 03:49:03.56	356.05	25.72	-53.3	-68.3	3.8	1.49e+00	0	43	104	0	77	21216
2026-01-24 03:49:04.56	355.76	25.77	-53.3	-68.3	3.8	1.49e+00	0	43	104	0	77	21203
2026-01-24 03:49:05.57	355.47	25.81	-53.3	-68.3	3.8	1.49e+00	0	43	104	0	77	21222
2026-01-24 03:49:06.58	355.18	25.86	-53.3	-68.3	3.8	1.49e+00	0	43	104	0	77	21187
2026-01-24 03:49:07.59	354.89	25.90	-53.3	-68.3	3.8	1.49e+00	0	43	104	0	77	21221
2026-01-24 03:49:08.59	354.60	25.95	-53.3	-68.3	3.8	1.49e+00	0	43	104	0	77	21225
2026-01-24 03:49:09.60	354.30	25.99	-53.4	-68.3	3.8	1.49e+00	0	43	104	0	77	21221
2026-01-24 03:49:10.61	354.01	26.03	-53.3	-68.4	3.8	1.49e+00	0	43	104	0	77	21271
2026-01-24 03:49:11.62	353.72	26.08	-53.3	-68.3	3.8	1.49e+00	0	43	104	0	77	21200
2026-01-24 03:49:12.63	353.42	26.12	-53.3	-68.3	3.8	1.49e+00	0	43	104	0	77	21252
2026-01-24 03:49:13.63	353.13	26.16	-53.3	-68.3	3.8	1.49e+00	0	43	104	0	77	21260
2026-01-24 03:49:14.64	352.83	26.20	-53.3	-68.3	3.8	1.49e+00	0	43	104	0	77	21190
2026-01-24 03:49:15.65	352.53	26.23	-53.3	-68.3	3.8	1.49e+00	0	43	104	0	77	21224
2026-01-24 03:49:16.66	352.23	26.27	-53.3	-68.3	3.8	1.49e+00	0	43	104	0	77	21225
2026-01-24 03:49:17.66	351.93	26.31	-53.3	-68.4	3.8	1.49e+00	0	43	104	0	77	21278
2026-01-24 03:49:18.68	351.63	26.34	-53.3	-68.3	3.8	1.49e+00	0	43	104	0	77	21214
2026-01-24 03:49:19.69	351.33	26.38	-53.3	-68.3	3.8	1.49e+00	0	43	104	0	77	21234
2026-01-24 03:49:20.69	351.03	26.41	-53.3	-68.3	3.8	1.49e+00	0	43	104	0	77	21183
2026-01-24 03:49:21.70	350.73	26.45	-53.3	-68.3	3.8	1.49e+00	0	43	104	0	77	21255
2026-01-24 03:49:22.71	350.43	26.48	-53.3	-68.3	3.8	1.49e+00	0	43	104	0	77	21197
2026-01-24 03:49:23.72	350.12	26.51	-53.3	-68.3	3.8	1.49e+00	0	43	104	0	77	21253
2026-01-24 03:49:24.73	349.82	26.54	-53.3	-68.3	3.8	1.49e+00	0	43	104	0	77	21249
2026-01-24 03:49:25.74	349.51	26.57	-53.3	-68.3	3.8	1.49e+00	0	43	104	0	77	21253
2026-01-24 03:49:26.74	349.21	26.60	-53.3	-68.3	3.8	1.49e+00	0	43	104	0	77	21182
2026-01-24 03:49:27.75	348.91	26.63	-53.3	-68.3	3.8	1.49e+00	0	43	104	0	77	21171
2026-01-24 03:49:28.76	348.60	26.66	-53.3	-68.3	3.8	1.49e+00	0	43	104	0	77	21203
2026-01-24 03:49:29.77	348.29	26.69	-53.3	-68.3	3.8	1.49e+00	0	43	104	0	77	21236
2026-01-24 03:49:30.77	347.99	26.71	-53.3	-68.3	3.8	1.49e+00	0	43	104	0	77	21233
2026-01-24 03:49:31.78	347.68	26.74	-53.3	-68.3	3.8	1.49e+00	0	43	104	0	77	21250
2026-01-24 03:49:32.79	347.37	26.76	-53.4	-68.4	3.8	1.49e+00	0	43	104	0	77	21323
2026-01-24 03:49:33.80	347.06	26.79	-53.4	-68.3	3.8	1.49e+00	0	43	104	0	77	21244
2026-01-24 03:49:34.81	346.75	26.81	-53.4	-68.3	3.8	1.49e+00	0	43	104	0	77	21206
2026-01-24 03:49:35.81	346.45	26.83	-53.4	-68.4	3.8	1.49e+00	0	43	104	0	77	21262
2026-01-24 03:49:36.82	346.14	26.85	-53.4	-68.4	3.8	1.49e+00	0	43	104	0	77	21266
2026-01-24 03:49:37.83	345.82	26.87	-53.4	-68.4	3.8	1.49e+00	0	43	104	0	77	21273
2026-01-24 03:49:38.84	345.51	26.89	-53.3	-68.3	3.8	1.49e+00	0	43	104	0	77	21249
2026-01-24 03:49:39.85	345.20	26.91	-53.4	-68.3	3.8	1.49e+00	0	43	104	0	77	21218
2026-01-24 03:49:40.86	344.89	26.92	-53.3	-68.3	3.8	1.49e+00	0	43	104	0	77	21212
2026-01-24 03:49:41.86	344.58	26.94	-53.3	-68.4	3.8	1.49e+00	0	43	104	0	77	21276
2026-01-24 03:49:42.87	344.27	26.95	-53.4	-68.3	3.8	1.49e+00	0	43	104	0	77	21233
2026-01-24 03:49:43.88	343.96	26.97	-53.3	-68.3	3.8	1.49e+00	0	43	104	0	77	21202
2026-01-24 03:49:44.89	343.64	26.98	-53.4	-68.3	3.8	1.49e+00	0	43	104	0	77	21202
2026-01-24 03:49:45.89	343.33	26.99	-53.3	-68.3	3.8	1.49e+00	0	43	104	0	77	21212
2026-01-24 03:49:46.90	343.02	27.00	-53.3	-68.3	3.8	1.49e+00	0	43	104	0	77	21191
2026-01-24 03:49:47.91	342.71	27.01	-53.4	-68.3	3.8	1.49e+00	0	43	104	0	77	21217
2026-01-24 03:49:48.92	342.39	27.02	-53.4	-68.3	3.8	1.49e+00	0	43	104	0	77	21239
2026-01-24 03:49:49.93	342.08	27.03	-53.4	-68.3	3.8	1.49e+00	0	43	104	0	77	21222
2026-01-24 03:49:50.93	341.77	27.04	-53.3	-68.3	3.8	1.49e+00	0	43	104	0	77	21222
2026-01-24 03:49:51.94	341.45	27.05	-53.4	-68.3	3.8	1.49e+00	0	43	104	0	77	21241
2026-01-24 03:49:52.95	341.14	27.05	-53.3	-68.4	3.8	1.49e+00	0	43	104	0	77	21265
2026-01-24 03:49:53.96	340.82	27.06	-53.4	-68.3	3.8	1.49e+00	0	43	104	0	77	21259
2026-01-24 03:49:54.97	340.51	27.06	-53.3	-68.4	3.8	1.49e+00	0	43	104	0	77	21261
2026-01-24 03:49:55.98	340.20	27.06	-53.4	-68.3	3.8	1.49e+00	0	43	104	0	77	21246
2026-01-24 03:49:56.98	339.88	27.06	-53.4	-68.4	3.8	1.49e+00	0	43	104	0	77	21261
2026-01-24 03:49:57.99	339.57	27.07	-53.3	-68.3	3.8	1.49e+00	0	43	104	0	77	21223
2026-01-24 03:49:59.00	339.25	27.07	-53.3	-68.3	3.8	1.49e+00	0	43	104	0	77	21232
2026-01-24 03:50:00.01	338.94	27.06	-53.3	-68.3	3.8	1.49e+00	0	43	104	0	77	21234
2026-01-24 03:50:01.01	338.63	27.06	-53.4	-68.3	3.8	1.49e+00	0	43	104	0	77	21217
2026-01-24 03:50:02.02	338.31	27.06	-53.3	-68.4	3.8	1.49e+00	0	43	104	0	77	21267
2026-01-24 03:50:03.03	338.00	27.05	-53.3	-68.3	3.8	1.49e+00	0	43	104	0	77	21198
2026-01-24 03:50:04.04	337.68	27.05	-53.3	-68.3	3.8	1.49e+00	0	43	104	0	77	21194
2026-01-24 03:50:05.05	337.37	27.04	-53.3	-68.3	3.8	1.49e+00	0	43	104	0	77	21192
2026-01-24 03:50:06.06	337.06	27.04	-53.4	-68.3	3.8	1.49e+00	0	43	104	0	77	21186
2026-01-24 03:50:07.07	336.74	27.03	-53.3	-68.4	3.8	1.49e+00	0	43	104	0	77	21270
2026-01-24 03:50:08.08	336.43	27.02	-53.3	-68.3	3.8	1.49e+00	0	43	104	0	77	21196
2026-01-24 03:50:09.09	336.11	27.01	-53.3	-68.3	3.8	1.49e+00	0	43	104	0	77	21155
2026-01-24 03:50:10.09	335.80	27.00	-53.3	-68.3	3.8	1.49e+00	0	43	104	0	77	21210
2026-01-24 03:50:11.10	335.49	26.99	-53.3	-68.3	3.8	1.49e+00	0	43	104	0	77	21203
2026-01-24 03:50:12.11	335.18	26.98	-53.3	-68.3	3.8	1.49e+00	0	43	104	0	77	21236
2026-01-24 03:50:13.12	334.86	26.96	-53.3	-68.3	3.8	1.49e+00	0	43	104	0	77	21244
2026-01-24 03:50:14.13	334.55	26.95	-53.3	-68.3	3.8	1.49e+00	0	43	104	0	77	21190
2026-01-24 03:50:15.14	334.24	26.93	-53.3	-68.3	3.8	1.49e+00	0	43	104	0	77	21160
2026-01-24 03:50:16.14	333.93	26.92	-53.3	-68.3	3.8	1.49e+00	0	43	104	0	77	21168
2026-01-24 03:50:17.15	333.62	26.90	-53.3	-68.3	3.8	1.49e+00	0	43	104	0	77	21244
2026-01-24 03:50:18.16	333.31	26.88	-53.3	-68.3	3.8	1.49e+00	0	43	104	0	77	21208
2026-01-24 03:50:19.17	333.00	26.86	-53.3	-68.3	3.8	1.49e+00	0	43	104	0	77	21215
2026-01-24 03:50:20.17	332.69	26.84	-53.3	-68.3	3.8	1.49e+00	0	43	104	0	77	21153
2026-01-24 03:50:21.18	332.38	26.82	-53.3	-68.3	3.8	1.49e+00	0	43	104	0	77	21185
2026-01-24 03:50:22.19	332.07	26.80	-53.3	-68.3	3.8	1.49e+00	0	43	104	0	77	21217
2026-01-24 03:50:23.20	331.76	26.78	-53.3	-68.3	3.8	1.49e+00	0	43	104	0	77	21250
2026-01-24 03:50:24.21	331.45	26.75	-53.3	-68.3	3.8	1.49e+00	0	43	104	0	77	21218
2026-01-24 03:50:25.22	331.14	26.73	-53.3	-68.3	3.8	1.49e+00	0	43	104	0	77	21198
2026-01-24 03:50:26.23	330.83	26.70	-53.3	-68.3	3.8	1.49e+00	0	43	104	0	77	21207
2026-01-24 03:50:27.23	330.53	26.68	-53.3	-68.3	3.8	1.49e+00	0	43	104	0	77	21141
2026-01-24 03:50:28.24	330.22	26.65	-53.3	-68.3	3.8	1.49e+00	0	43	104	0	77	21183
2026-01-24 03:50:29.25	329.92	26.62	-53.3	-68.3	3.8	1.49e+00	0	43	104	0	77	21193
2026-01-24 03:50:30.25	329.61	26.59	-53.3	-68.3	3.8	1.49e+00	0	43	104	0	77	21136
2026-01-24 03:50:31.26	329.31	26.57	-53.3	-68.3	3.8	1.49e+00	0	43	104	0	77	21167
2026-01-24 03:50:32.27	329.00	26.53	-53.3	-68.3	3.8	1.49e+00	0	43	104	0	77	21151
2026-01-24 03:50:33.28	328.70	26.50	-53.3	-68.3	3.8	1.49e+00	0	43	104	0	77	21144
2026-01-24 03:50:34.29	328.40	26.47	-53.3	-68.3	3.8	1.49e+00	0	43	104	0	77	21169
2026-01-24 03:50:35.30	328.09	26.44	-53.3	-68.3	3.8	1.49e+00	0	43	104	0	77	21142
2026-01-24 03:50:36.30	327.79	26.40	-53.3	-68.3	3.8	1.49e+00	0	43	104	0	77	21154
2026-01-24 03:50:37.31	327.49	26.37	-53.3	-68.3	3.8	1.49e+00	0	43	104	0	77	21153
2026-01-24 03:50:38.32	327.19	26.33	-53.3	-68.3	3.8	1.49e+00	0	43	104	0	77	21110
2026-01-24 03:50:39.33	326.89	26.30	-53.3	-68.3	3.8	1.49e+00	0	43	104	0	77	21168
2026-01-24 03:50:40.34	326.59	26.26	-53.3	-68.3	3.8	1.49e+00	0	43	104	0	77	21113
2026-01-24 03:50:41.34	326.30	26.22	-53.3	-68.3	3.8	1.49e+00	0	43	104	0	77	21139
2026-01-24 03:50:42.35	326.00	26.18	-53.3	-68.3	3.8	1.49e+00	0	43	104	0	77	21136
2026-01-24 03:50:43.36	325.70	26.14	-53.3	-68.3	3.8	1.49e+00	0	43	104	0	77	21117
2026-01-24 03:50:44.37	325.40	26.10	-53.3	-68.3	3.8	1.49e+00	0	43	104	0	77	21124
2026-01-24 03:50:45.38	325.11	26.06	-53.3	-68.3	3.8	1.49e+00	0	43	104	0	77	21157
2026-01-24 03:50:46.39	324.81	26.02	-53.3	-68.3	3.8	1.49e+00	0	43	104	0	77	21148
2026-01-24 03:50:47.40	324.52	25.98	-53.3	-68.3	3.8	1.49e+00	0	43	104	0	77	21138
2026-01-24 03:50:48.40	324.23	25.93	-53.3	-68.3	3.8	1.49e+00	0	43	104	0	77	21183
2026-01-24 03:50:49.41	323.94	25.89	-53.3	-68.4	3.8	1.49e+00	0	43	104	0	77	21281
2026-01-24 03:50:50.42	323.64	25.84	-53.3	-68.3	3.8	1.49e+00	0	43	104	0	77	21216
2026-01-24 03:50:51.43	323.35	25.80	-53.3	-68.3	3.8	1.49e+00	0	43	104	0	77	21158
2026-01-24 03:50:52.43	323.07	25.75	-53.3	-68.3	3.8	1.49e+00	0	43	104	0	77	21176
2026-01-24 03:50:53.44	322.78	25.71	-53.3	-68.3	3.8	1.49e+00	0	43	104	0	77	21143
2026-01-24 03:50:54.45	322.49	25.66	-53.3	-68.3	3.8	1.49e+00	0	43	104	0	77	21179
2026-01-24 03:50:55.46	322.20	25.61	-53.3	-68.3	3.8	1.49e+00	0	43	104	0	77	21131
2026-01-24 03:50:56.47	321.91	25.56	-53.3	-68.3	3.8	1.49e+00	0	43	104	0	77	21107
2026-01-24 03:50:57.47	321.63	25.51	-53.3	-68.3	3.8	1.49e+00	0	43	104	0	77	21137
2026-01-24 03:50:58.48	321.35	25.46	-53.3	-68.3	3.8	1.49e+00	0	43	104	0	77	21147
2026-01-24 03:50:59.49	321.06	25.41	-53.3	-68.3	3.8	1.49e+00	0	43	104	0	77	21204
2026-01-24 03:51:00.50	320.78	25.36	-53.3	-68.3	3.8	1.49e+00	0	43	104	0	77	21161
2026-01-24 03:51:01.51	320.50	25.30	-53.3	-68.3	3.8	1.49e+00	0	43	104	0	77	21198
2026-01-24 03:51:02.52	320.22	25.25	-53.3	-68.3	3.8	1.49e+00	0	43	104	0	77	21169
2026-01-24 03:51:03.53	319.94	25.20	-53.3	-68.3	3.8	1.49e+00	0	43	104	0	77	21145
2026-01-24 03:51:04.54	319.66	25.14	-53.3	-68.3	3.8	1.49e+00	0	43	104	0	77	21115
2026-01-24 03:51:05.54	319.38	25.09	-53.3	-68.3	3.8	1.49e+00	0	43	104	0	77	21131
2026-01-24 03:51:06.55	319.10	25.03	-53.3	-68.3	3.8	1.49e+00	0	43	104	0	77	21109
2026-01-24 03:51:07.56	318.83	24.97	-53.3	-68.3	3.8	1.49e+00	0	43	104	0	77	21073
2026-01-24 03:51:08.57	318.55	24.92	-53.3	-68.3	3.8	1.49e+00	0	43	104	0	77	21125
2026-01-24 03:51:09.58	318.28	24.86	-53.3	-68.3	3.8	1.49e+00	0	43	104	0	77	21133
2026-01-24 03:51:10.59	318.01	24.80	-53.3	-68.3	3.8	1.49e+00	0	43	104	0	77	21148
2026-01-24 03:51:11.59	317.74	24.74	-53.3	-68.3	3.8	1.49e+00	0	43	104	0	77	21138
2026-01-24 03:51:12.60	317.46	24.68	-53.3	-68.3	3.8	1.49e+00	0	43	104	0	77	21113
2026-01-24 03:51:13.61	317.19	24.62	-53.3	-68.3	3.8	1.49e+00	0	43	104	0	77	21147
2026-01-24 03:51:14.62	316.93	24.56	-53.3	-68.3	3.8	1.49e+00	0	43	104	0	77	21161
2026-01-24 03:51:15.63	316.66	24.50	-53.3	-68.3	3.8	1.49e+00	0	43	104	0	77	21176
2026-01-24 03:51:16.63	316.39	24.44	-53.3	-68.3	3.8	1.49e+00	0	43	104	0	77	21096
2026-01-24 03:51:17.64	316.13	24.38	-53.3	-68.3	3.8	1.49e+00	0	43	104	0	77	21120
2026-01-24 03:51:18.65	315.86	24.31	-53.3	-68.3	3.8	1.49e+00	0	43	104	0	77	21150
2026-01-24 03:51:19.66	315.60	24.25	-53.3	-68.3	3.8	1.49e+00	0	43	104	0	77	21157
2026-01-24 03:51:20.67	315.34	24.19	-53.3	-68.3	3.8	1.49e+00	0	43	104	0	77	21190
2026-01-24 03:51:21.67	315.08	24.12	-53.3	-68.3	3.8	1.49e+00	0	43	104	0	77	21175
2026-01-24 03:51:22.68	314.82	24.06	-53.3	-68.3	3.8	1.49e+00	0	43	104	0	77	21099
2026-01-24 03:51:23.69	314.56	23.99	-53.3	-68.3	3.8	1.49e+00	0	43	104	0	77	21180
2026-01-24 03:51:24.70	314.30	23.93	-53.3	-68.3	3.8	1.49e+00	0	43	104	0	77	21113
2026-01-24 03:51:25.71	314.04	23.86	-53.3	-68.3	3.8	1.49e+00	0	43	104	0	77	21154
2026-01-24 03:51:26.72	313.78	23.80	-53.3	-68.3	3.8	1.49e+00	0	43	104	0	77	21085
2026-01-24 03:51:27.73	313.53	23.73	-53.3	-68.3	3.8	1.49e+00	0	43	104	0	77	21193
2026-01-24 03:51:28.74	313.28	23.66	-53.3	-68.3	3.8	1.49e+00	0	43	104	0	77	21154
2026-01-24 03:51:29.74	313.03	23.59	-53.3	-68.3	3.8	1.49e+00	0	43	104	0	77	21184
2026-01-24 03:51:30.75	312.77	23.53	-53.3	-68.3	3.8	1.49e+00	0	43	104	0	77	21125
2026-01-24 03:51:31.76	312.52	23.46	-53.3	-68.3	3.8	1.49e+00	0	43	104	0	77	21164
2026-01-24 03:51:32.77	312.27	23.39	-53.3	-68.3	3.8	1.49e+00	0	43	104	0	77	21151
2026-01-24 03:51:33.78	312.02	23.32	-53.3	-68.3	3.8	1.49e+00	0	43	104	0	77	21201
2026-01-24 03:51:34.78	311.78	23.25	-53.3	-68.3	3.8	1.49e+00	0	43	104	0	77	21182
2026-01-24 03:51:35.79	311.53	23.18	-53.3	-68.3	3.8	1.49e+00	0	43	104	0	77	21187
2026-01-24 03:51:36.80	311.29	23.11	-53.3	-68.3	3.8	1.49e+00	0	43	104	0	77	21195
2026-01-24 03:51:37.80	311.05	23.04	-53.3	-68.3	3.8	1.49e+00	0	43	104	0	77	21213
2026-01-24 03:51:38.81	310.80	22.97	-53.3	-68.3	3.8	1.49e+00	0	43	104	0	77	21105
2026-01-24 03:51:39.82	310.56	22.89	-53.3	-68.3	3.8	1.49e+00	0	43	104	0	77	21189
2026-01-24 03:51:40.83	310.32	22.82	-53.3	-68.3	3.8	1.49e+00	0	43	104	0	77	21159
2026-01-24 03:51:41.83	310.08	22.75	-53.3	-68.3	3.8	1.49e+00	0	43	104	0	77	21186
2026-01-24 03:51:42.84	309.85	22.68	-53.3	-68.3	3.8	1.49e+00	0	43	104	0	77	21160
2026-01-24 03:51:43.85	309.61	22.60	-53.3	-68.3	3.8	1.49e+00	0	43	104	0	77	21163
2026-01-24 03:51:44.86	309.37	22.53	-53.3	-68.3	3.8	1.49e+00	0	43	104	0	77	21177
2026-01-24 03:51:45.87	309.14	22.46	-53.3	-68.3	3.8	1.49e+00	0	43	104	0	77	21067
2026-01-24 03:51:46.87	308.91	22.38	-53.3	-68.3	3.8	1.49e+00	0	43	104	0	77	21220
2026-01-24 03:51:47.88	308.67	22.31	-53.3	-68.3	3.8	1.49e+00	0	43	104	0	77	21167
2026-01-24 03:51:48.89	308.44	22.23	-53.3	-68.3	3.8	1.49e+00	0	43	104	0	77	21184
2026-01-24 03:51:49.90	308.21	22.16	-53.3	-68.3	3.8	1.49e+00	0	43	104	0	77	21131
2026-01-24 03:51:50.91	307.98	22.08	-53.3	-68.3	3.8	1.49e+00	0	43	104	0	77	21173
2026-01-24 03:51:51.91	307.75	22.01	-53.3	-68.3	3.8	1.49e+00	0	43	104	0	77	21184
2026-01-24 03:51:52.92	307.53	21.93	-53.3	-68.3	3.8	1.49e+00	0	43	104	0	77	21173
2026-01-24 03:51:53.93	307.30	21.86	-53.3	-68.3	3.8	1.49e+00	0	43	104	0	77	21157
2026-01-24 03:51:54.94	307.08	21.78	-53.3	-68.3	3.8	1.49e+00	0	43	104	0	77	21127
2026-01-24 03:51:55.95	306.85	21.71	-53.3	-68.3	3.8	1.49e+00	0	43	104	0	77	21174
2026-01-24 03:51:56.96	306.63	21.63	-53.3	-68.3	3.8	1.49e+00	0	43	104	0	77	21171
2026-01-24 03:51:57.96	306.41	21.55	-53.3	-68.3	3.8	1.49e+00	0	43	104	0	77	21144
2026-01-24 03:51:58.97	306.19	21.48	-53.3	-68.3	3.8	1.49e+00	0	43	104	0	77	21149
2026-01-24 03:51:59.98	305.97	21.40	-53.3	-68.3	3.8	1.49e+00	0	43	104	0	77	21166
2026-01-24 03:52:00.99	305.75	21.32	-53.3	-68.3	3.8	1.49e+00	0	43	104	0	77	21163
2026-01-24 03:52:01.99	305.54	21.24	-53.3	-68.3	3.8	1.49e+00	0	43	104	0	77	21163
2026-01-24 03:52:03.00	305.32	21.17	-53.3	-68.3	3.8	1.49e+00	0	43	104	0	77	21149
2026-01-24 03:52:04.01	305.11	21.09	-53.3	-68.3	3.8	1.49e+00	0	43	104	0	77	21167
2026-01-24 03:52:05.02	304.89	21.01	-53.3	-68.3	3.8	1.49e+00	0	43	104	0	77	21162
2026-01-24 03:52:06.03	304.68	20.93	-53.3	-68.3	3.8	1.49e+00	0	43	104	0	77	21182
2026-01-24 03:52:07.03	304.47	20.85	-53.3	-68.3	3.8	1.49e+00	0	43	104	0	77	21215
2026-01-24 03:52:08.04	304.26	20.77	-53.3	-68.3	3.8	1.49e+00	0	43	104	0	77	21163
2026-01-24 03:52:09.05	304.05	20.69	-53.3	-68.3	3.8	1.49e+00	0	43	104	0	77	21149
2026-01-24 03:52:10.06	303.84	20.62	-53.3	-68.3	3.8	1.49e+00	0	43	104	0	77	21165
2026-01-24 03:52:11.07	303.63	20.54	-53.3	-68.3	3.8	1.49e+00	0	43	104	0	77	21186
2026-01-24 03:52:12.08	303.43	20.46	-53.3	-68.3	3.8	1.49e+00	0	43	104	0	77	21191
2026-01-24 03:52:13.08	303.22	20.38	-53.3	-68.3	3.8	1.49e+00	0	43	104	0	77	21134
2026-01-24 03:52:14.09	303.02	20.30	-53.3	-68.3	3.8	1.49e+00	0	43	104	0	77	21132
2026-01-24 03:52:15.10	302.82	20.22	-53.3	-68.3	3.8	1.49e+00	0	43	104	0	77	21134
2026-01-24 03:52:16.11	302.61	20.14	-53.3	-68.3	3.8	1.49e+00	0	43	104	0	77	21143
2026-01-24 03:52:17.12	302.41	20.06	-53.3	-68.3	3.8	1.49e+00	0	43	104	0	77	21114
2026-01-24 03:52:18.13	302.21	19.98	-53.3	-68.3	3.8	1.49e+00	0	43	104	0	77	21161
2026-01-24 03:52:19.14	302.01	19.90	-53.3	-68.3	3.8	1.49e+00	0	43	104	0	77	21130
2026-01-24 03:52:20.15	301.82	19.82	-53.3	-68.3	3.8	1.49e+00	0	43	104	0	77	21132
2026-01-24 03:52:21.15	301.62	19.74	-53.3	-68.3	3.8	1.49e+00	0	43	104	0	77	21147
2026-01-24 03:52:22.16	301.43	19.66	-53.3	-68.3	3.8	1.49e+00	0	43	104	0	77	21184
2026-01-24 03:52:23.17	301.23	19.58	-53.3	-68.3	3.8	1.49e+00	0	43	104	0	77	21128
2026-01-24 03:52:24.18	301.04	19.49	-53.3	-68.3	3.8	1.49e+00	0	43	104	0	77	21141
2026-01-24 03:52:25.18	300.85	19.41	-53.3	-68.3	3.8	1.49e+00	0	43	104	0	77	21145
2026-01-24 03:52:26.19	300.66	19.33	-53.3	-68.3	3.8	1.49e+00	0	43	104	0	77	21199
2026-01-24 03:52:27.20	300.47	19.25	-53.3	-68.3	3.8	1.49e+00	0	43	104	0	77	21155
2026-01-24 03:52:28.21	300.28	19.17	-53.3	-68.3	3.8	1.49e+00	0	43	104	0	77	21168
2026-01-24 03:52:29.22	300.09	19.09	-53.3	-68.3	3.8	1.49e+00	0	43	104	0	77	21164
2026-01-24 03:52:30.23	299.90	19.01	-53.3	-68.3	3.8	1.49e+00	0	43	104	0	77	21163
2026-01-24 03:52:31.24	299.71	18.93	-53.3	-68.3	3.8	1.49e+00	0	43	104	0	77	21091
2026-01-24 03:52:32.24	299.53	18.85	-53.3	-68.3	3.8	1.49e+00	0	43	104	0	77	21162
2026-01-24 03:52:33.25	299.34	18.77	-53.3	-68.3	3.8	1.49e+00	0	43	104	0	77	21147
2026-01-24 03:52:34.26	299.16	18.68	-53.3	-68.3	3.8	1.49e+00	0	43	104	0	77	21166
2026-01-24 03:52:35.27	298.98	18.60	-53.3	-68.3	3.8	1.49e+00	0	43	104	0	77	21226
2026-01-24 03:52:36.27	298.80	18.52	-53.3	-68.3	3.8	1.49e+00	0	43	104	0	77	21117
2026-01-24 03:52:37.28	298.62	18.44	-53.3	-68.3	3.8	1.49e+00	0	43	104	0	77	21151
2026-01-24 03:52:38.29	298.44	18.36	-53.3	-68.3	3.8	1.49e+00	0	43	104	0	77	21146
2026-01-24 03:52:39.30	298.26	18.28	-53.3	-68.3	3.8	1.49e+00	0	43	104	0	77	21221
2026-01-24 03:52:40.31	298.08	18.20	-53.3	-68.3	3.8	1.49e+00	0	43	104	0	77	21185
2026-01-24 03:52:41.32	297.91	18.11	-53.3	-68.3	3.8	1.49e+00	0	43	104	0	77	21150
2026-01-24 03:52:42.32	297.73	18.03	-53.3	-68.3	3.8	1.49e+00	0	43	104	0	77	21150
2026-01-24 03:52:43.33	297.56	17.95	-53.3	-68.3	3.8	1.49e+00	0	43	104	0	77	21144
2026-01-24 03:52:44.34	297.38	17.87	-53.3	-68.3	3.8	1.49e+00	0	43	104	0	77	21155
2026-01-24 03:52:45.35	297.21	17.79	-53.3	-68.3	3.8	1.49e+00	0	43	104	0	77	21195
2026-01-24 03:52:46.36	297.04	17.71	-53.3	-68.3	3.8	1.49e+00	0	43	104	0	77	21127
2026-01-24 03:52:47.36	296.87	17.63	-53.3	-68.3	3.8	1.49e+00	0	43	104	0	77	21169
2026-01-24 03:52:48.37	296.70	17.54	-53.3	-68.3	3.8	1.49e+00	0	43	104	0	77	21227
2026-01-24 03:52:49.38	296.53	17.46	-53.3	-68.4	3.8	1.49e+00	0	43	104	0	77	21269
2026-01-24 03:52:50.39	296.36	17.38	-53.3	-68.3	3.8	1.49e+00	0	43	104	0	77	21149
2026-01-24 03:52:51.40	296.19	17.30	-53.3	-68.3	3.8	1.49e+00	0	43	104	0	77	21177
2026-01-24 03:52:52.41	296.03	17.22	-53.3	-68.3	3.8	1.49e+00	0	43	104	0	77	21157
2026-01-24 03:52:53.42	295.86	17.14	-53.3	-68.3	3.8	1.49e+00	0	43	104	0	77	21186
2026-01-24 03:52:54.43	295.70	17.05	-53.3	-68.3	3.8	1.49e+00	0	43	104	0	77	21150
2026-01-24 03:52:55.44	295.53	16.97	-53.3	-68.3	3.8	1.49e+00	0	43	104	0	77	21162
2026-01-24 03:52:56.45	295.37	16.89	-53.3	-68.3	3.8	1.49e+00	0	43	104	0	77	21187
2026-01-24 03:52:57.46	295.21	16.81	-53.3	-68.3	3.8	1.49e+00	0	43	104	0	77	21219
2026-01-24 03:52:58.46	295.05	16.73	-53.3	-68.3	3.8	1.49e+00	0	43	104	0	77	21184
2026-01-24 03:52:59.47	294.89	16.65	-53.3	-68.3	3.8	1.49e+00	0	43	104	0	77	21136
2026-01-24 03:53:00.48	294.73	16.57	-53.3	-68.3	3.8	1.49e+00	0	43	104	0	77	21206
2026-01-24 03:53:01.49	294.57	16.48	-53.3	-68.3	3.8	1.49e+00	0	43	104	0	77	21185
2026-01-24 03:53:02.50	294.42	16.40	-53.3	-68.3	3.8	1.49e+00	0	43	104	0	77	21186
2026-01-24 03:53:03.51	294.26	16.32	-53.3	-68.3	3.8	1.49e+00	0	43	104	0	77	21169
2026-01-24 03:53:04.52	294.10	16.24	-53.3	-68.3	3.8	1.49e+00	0	43	104	0	77	21132
2026-01-24 03:53:05.52	293.95	16.16	-53.3	-68.3	3.8	1.49e+00	0	43	104	0	77	21222
2026-01-24 03:53:06.53	293.80	16.08	-53.3	-68.3	3.8	1.49e+00	0	43	104	0	77	21175
2026-01-24 03:53:07.54	293.64	16.00	-53.3	-68.3	3.8	1.49e+00	0	43	104	0	77	21140
2026-01-24 03:53:08.55	293.49	15.92	-53.3	-68.3	3.8	1.49e+00	0	43	104	0	77	21213
2026-01-24 03:53:09.56	293.34	15.84	-53.3	-68.3	3.8	1.49e+00	0	43	104	0	77	21149
2026-01-24 03:53:10.56	293.19	15.76	-53.3	-68.3	3.8	1.49e+00	0	43	104	0	77	21167
2026-01-24 03:53:11.57	293.04	15.68	-53.3	-68.3	3.8	1.49e+00	0	43	104	0	77	21198
2026-01-24 03:53:12.58	292.89	15.60	-53.3	-68.3	3.8	1.49e+00	0	43	104	0	77	21168
2026-01-24 03:53:13.59	292.74	15.51	-53.3	-68.3	3.8	1.49e+00	0	43	104	0	77	21167
2026-01-24 03:53:14.59	292.60	15.43	-53.3	-68.4	3.8	1.49e+00	0	43	104	0	77	21265
2026-01-24 03:53:15.60	292.45	15.35	-53.3	-68.3	3.8	1.49e+00	0	43	104	0	77	21174
2026-01-24 03:53:16.61	292.30	15.27	-53.3	-68.3	3.8	1.49e+00	0	43	104	0	77	21161
2026-01-24 03:53:17.62	292.16	15.19	-53.3	-68.3	3.8	1.49e+00	0	43	104	0	77	21240
2026-01-24 03:53:18.63	292.02	15.11	-53.3	-68.3	3.8	1.49e+00	0	43	104	0	77	21231
2026-01-24 03:53:19.64	291.87	15.03	-53.3	-68.3	3.8	1.49e+00	0	43	104	0	77	21188
2026-01-24 03:53:20.65	291.73	14.95	-53.3	-68.3	3.8	1.49e+00	0	43	104	0	77	21172
2026-01-24 03:53:21.66	291.59	14.87	-53.3	-68.3	3.8	1.49e+00	0	43	104	0	77	21188
2026-01-24 03:53:22.66	291.45	14.79	-53.3	-68.3	3.8	1.49e+00	0	43	104	0	77	21144
2026-01-24 03:53:23.67	291.31	14.71	-53.3	-68.3	3.8	1.49e+00	0	43	104	0	77	21174
2026-01-24 03:53:24.68	291.17	14.63	-53.3	-68.3	3.8	1.49e+00	0	43	104	0	77	21171
2026-01-24 03:53:25.69	291.03	14.55	-53.3	-68.3	3.8	1.49e+00	0	43	104	0	77	21155
2026-01-24 03:53:26.69	290.89	14.48	-53.3	-68.3	3.8	1.49e+00	0	43	104	0	77	21166
2026-01-24 03:53:27.70	290.75	14.40	-53.3	-68.3	3.8	1.49e+00	0	43	104	0	77	21132
2026-01-24 03:53:28.71	290.62	14.32	-53.3	-68.3	3.8	1.49e+00	0	43	104	0	77	21174
2026-01-24 03:53:29.72	290.48	14.24	-53.3	-68.3	3.8	1.49e+00	0	43	104	0	77	21239
2026-01-24 03:53:30.73	290.35	14.16	-53.3	-68.3	3.8	1.49e+00	0	43	104	0	77	21130
2026-01-24 03:53:31.74	290.21	14.08	-53.3	-68.3	3.8	1.49e+00	0	43	104	0	77	21216
2026-01-24 03:53:32.75	290.08	14.00	-53.3	-68.3	3.8	1.49e+00	0	43	104	0	77	21181
2026-01-24 03:53:33.76	289.95	13.92	-53.3	-68.3	3.8	1.49e+00	0	43	104	0	77	21146
2026-01-24 03:53:34.77	289.81	13.84	-53.3	-68.3	3.8	1.49e+00	0	43	104	0	77	21150
2026-01-24 03:53:35.77	289.68	13.77	-53.3	-68.3	3.8	1.49e+00	0	43	104	0	77	21203
2026-01-24 03:53:36.78	289.55	13.69	-53.3	-68.3	3.8	1.49e+00	0	43	104	0	77	21130
2026-01-24 03:53:37.79	289.42	13.61	-53.3	-68.3	3.8	1.49e+00	0	43	104	0	77	21164
2026-01-24 03:53:38.80	289.29	13.53	-53.3	-68.3	3.8	1.49e+00	0	43	104	0	77	21176
2026-01-24 03:53:39.81	289.16	13.45	-53.3	-68.3	3.8	1.49e+00	0	43	104	0	77	21135
2026-01-24 03:53:40.82	289.04	13.37	-53.3	-68.3	3.8	1.49e+00	0	43	104	0	77	21172
2026-01-24 03:53:41.82	288.91	13.30	-53.3	-68.3	3.8	1.49e+00	0	43	104	0	77	21218
2026-01-24 03:53:42.83	288.78	13.22	-53.3	-68.3	3.8	1.49e+00	0	43	104	0	77	21151
2026-01-24 03:53:43.84	288.66	13.14	-53.3	-68.3	3.8	1.49e+00	0	43	104	0	77	21093
2026-01-24 03:53:44.85	288.53	13.06	-53.3	-68.3	3.8	1.49e+00	0	43	104	0	77	21155
2026-01-24 03:53:45.86	288.41	12.98	-53.3	-68.3	3.8	1.49e+00	0	43	104	0	77	21116
2026-01-24 03:53:46.87	288.28	12.91	-53.3	-68.3	3.8	1.49e+00	0	43	104	0	77	21146
2026-01-24 03:53:47.87	288.16	12.83	-53.3	-68.3	3.8	1.49e+00	0	43	104	0	77	21186
2026-01-24 03:53:48.88	288.04	12.75	-53.3	-68.3	3.8	1.49e+00	0	43	104	0	77	21102
2026-01-24 03:53:49.89	287.92	12.68	-53.3	-68.3	3.8	1.49e+00	0	43	104	0	77	21080
2026-01-24 03:53:50.90	287.80	12.60	-53.3	-68.3	3.8	1.49e+00	0	43	104	0	77	21144
2026-01-24 03:53:51.91	287.68	12.52	-53.3	-68.3	3.8	1.49e+00	0	43	104	0	77	21153
2026-01-24 03:53:52.92	287.56	12.45	-53.3	-68.3	3.8	1.49e+00	0	43	104	0	77	21085
2026-01-24 03:53:53.92	287.44	12.37	-53.3	-68.3	3.8	1.49e+00	0	43	104	0	77	21155
2026-01-24 03:53:54.93	287.32	12.29	-53.3	-68.3	3.8	1.49e+00	0	43	104	0	77	21158
2026-01-24 03:53:55.94	287.20	12.22	-53.3	-68.3	3.8	1.49e+00	0	43	104	0	77	21107
2026-01-24 03:53:56.95	287.08	12.14	-53.3	-68.3	3.8	1.49e+00	0	43	104	0	77	21130
2026-01-24 03:53:57.95	286.97	12.06	-53.3	-68.3	3.8	1.49e+00	0	43	104	0	77	21099
2026-01-24 03:53:58.96	286.85	11.99	-53.3	-68.3	3.8	1.49e+00	0	43	104	0	77	21138
2026-01-24 03:53:59.97	286.74	11.91	-53.3	-68.3	3.8	1.49e+00	0	43	104	0	77	21154
2026-01-24 03:54:00.98	286.62	11.84	-53.3	-68.3	3.8	1.49e+00	0	43	104	0	77	21147
2026-01-24 03:54:01.99	286.51	11.76	-53.3	-68.3	3.8	1.49e+00	0	43	104	0	77	21120
2026-01-24 03:54:03.00	286.39	11.68	-53.3	-68.3	3.8	1.49e+00	0	43	104	0	77	21203
2026-01-24 03:54:04.01	286.28	11.61	-53.3	-68.3	3.8	1.49e+00	0	43	104	0	77	21160
2026-01-24 03:54:05.02	286.17	11.53	-53.3	-68.3	3.8	1.49e+00	0	43	104	0	77	21160
2026-01-24 03:54:06.02	286.06	11.46	-53.3	-68.3	3.8	1.49e+00	0	43	104	0	77	21176
2026-01-24 03:54:07.03	285.94	11.38	-53.3	-68.3	3.8	1.49e+00	0	43	104	0	77	21153
2026-01-24 03:54:08.04	285.83	11.31	-53.3	-68.3	3.8	1.49e+00	0	43	104	0	77	21150
2026-01-24 03:54:09.05	285.72	11.23	-53.3	-68.3	3.8	1.49e+00	0	43	104	0	77	21148
2026-01-24 03:54:10.06	285.61	11.16	-53.3	-68.3	3.8	1.49e+00	0	43	104	0	77	21133
2026-01-24 03:54:11.06	285.51	11.09	-53.3	-68.3	3.8	1.49e+00	0	43	104	0	77	21171
2026-01-24 03:54:12.07	285.40	11.01	-53.3	-68.3	3.8	1.49e+00	0	43	104	0	77	21177
2026-01-24 03:54:13.08	285.29	10.94	-53.3	-68.3	3.8	1.49e+00	0	43	104	0	77	21110
2026-01-24 03:54:14.09	285.18	10.86	-53.3	-68.3	3.8	1.49e+00	0	43	104	0	77	21193
2026-01-24 03:54:15.09	285.08	10.79	-53.3	-68.3	3.8	1.49e+00	0	43	104	0	77	21178
2026-01-24 03:54:16.10	284.97	10.71	-53.3	-68.3	3.8	1.49e+00	0	43	104	0	77	21176
2026-01-24 03:54:17.11	284.86	10.64	-53.3	-68.3	3.8	1.49e+00	0	43	104	0	77	21130
2026-01-24 03:54:18.12	284.76	10.57	-53.3	-68.3	3.8	1.49e+00	0	43	104	0	77	21171
2026-01-24 03:54:19.13	284.65	10.49	-53.3	-68.3	3.8	1.49e+00	0	43	104	0	77	21198
2026-01-24 03:54:20.14	284.55	10.42	-53.3	-68.3	3.8	1.49e+00	0	43	104	0	77	21175
2026-01-24 03:54:21.14	284.45	10.35	-53.3	-68.3	3.8	1.49e+00	0	43	104	0	77	21184
2026-01-24 03:54:22.15	284.34	10.27	-53.3	-68.3	3.8	1.49e+00	0	43	104	0	77	21206
2026-01-24 03:54:23.16	284.24	10.20	-53.3	-68.3	3.8	1.49e+00	0	43	104	0	77	21190
2026-01-24 03:54:24.17	284.14	10.13	-53.3	-68.3	3.8	1.49e+00	0	43	104	0	77	21164
2026-01-24 03:54:25.18	284.04	10.05	-53.3	-68.3	3.8	1.49e+00	0	43	104	0	77	21179
2026-01-24 03:54:26.18	283.94	9.98	-53.3	-68.3	3.8	1.49e+00	0	43	104	0	77	21181
2026-01-24 03:54:27.19	283.84	9.91	-53.3	-68.3	3.8	1.49e+00	0	43	104	0	77	21115
2026-01-24 03:54:28.20	283.74	9.84	-53.3	-68.3	3.8	1.49e+00	0	43	104	0	77	21180
2026-01-24 03:54:29.21	283.64	9.76	-53.3	-68.3	3.8	1.49e+00	0	43	104	0	77	21174
2026-01-24 03:54:30.21	283.54	9.69	-53.3	-68.3	3.8	1.49e+00	0	43	104	0	77	21125
2026-01-24 03:54:31.22	283.44	9.62	-53.3	-68.3	3.8	1.49e+00	0	43	104	0	77	21171
2026-01-24 03:54:32.23	283.34	9.55	-53.3	-68.3	3.8	1.49e+00	0	43	104	0	77	21154
2026-01-24 03:54:33.24	283.25	9.48	-53.3	-68.3	3.8	1.49e+00	0	43	104	0	77	21135
2026-01-24 03:54:34.25	283.15	9.40	-53.3	-68.3	3.8	1.49e+00	0	43	104	0	77	21099
2026-01-24 03:54:35.26	283.05	9.33	-53.3	-68.3	3.8	1.49e+00	0	43	104	0	77	21155
2026-01-24 03:54:36.27	282.96	9.26	-53.3	-68.3	3.8	1.49e+00	0	43	104	0	77	21162
2026-01-24 03:54:37.27	282.86	9.19	-53.3	-68.3	3.8	1.49e+00	0	43	104	0	77	21120
2026-01-24 03:54:38.28	282.77	9.12	-53.3	-68.3	3.8	1.49e+00	0	43	104	0	77	21138
2026-01-24 03:54:39.29	282.67	9.05	-53.3	-68.3	3.8	1.49e+00	0	43	104	0	77	21164
2026-01-24 03:54:40.30	282.58	8.98	-53.3	-68.3	3.8	1.49e+00	0	43	104	0	77	21088
2026-01-24 03:54:41.31	282.48	8.91	-53.3	-68.3	3.8	1.49e+00	0	43	104	0	77	21180
2026-01-24 03:54:42.31	282.39	8.84	-53.3	-68.3	3.8	1.49e+00	0	43	104	0	77	21077
2026-01-24 03:54:43.32	282.30	8.77	-53.3	-68.3	3.8	1.49e+00	0	43	104	0	77	21174
2026-01-24 03:54:44.33	282.21	8.69	-53.3	-68.3	3.8	1.49e+00	0	43	104	0	77	21142
2026-01-24 03:54:45.34	282.12	8.62	-53.3	-68.3	3.8	1.49e+00	0	43	104	0	77	21200
2026-01-24 03:54:46.35	282.02	8.55	-53.3	-68.3	3.8	1.49e+00	0	43	104	0	77	21210
2026-01-24 03:54:47.36	281.93	8.48	-53.3	-68.3	3.8	1.49e+00	0	43	104	0	77	21180
2026-01-24 03:54:48.37	281.84	8.41	-53.4	-68.4	3.8	1.49e+00	0	43	104	0	77	21362
2026-01-24 03:54:49.37	281.75	8.34	-53.4	-68.4	3.8	1.49e+00	0	43	104	0	77	21394
2026-01-24 03:54:50.38	281.67	8.27	-53.4	-68.3	3.8	1.49e+00	0	43	104	0	77	21245
2026-01-24 03:54:51.39	281.58	8.21	-53.3	-68.3	3.8	1.49e+00	0	43	104	0	77	21238
2026-01-24 03:54:52.40	281.49	8.14	-53.3	-68.3	3.8	1.49e+00	0	43	104	0	77	21241
2026-01-24 03:54:53.41	281.40	8.07	-53.3	-68.4	3.8	1.49e+00	0	43	104	0	77	21300
2026-01-24 03:54:54.42	281.31	8.00	-53.3	-68.3	3.8	1.49e+00	0	43	104	0	77	21226
2026-01-24 03:54:55.43	281.22	7.93	-53.3	-68.3	3.8	1.49e+00	0	43	104	0	77	21197
2026-01-24 03:54:56.43	281.14	7.86	-53.3	-68.3	3.8	1.49e+00	0	43	104	0	77	21198
2026-01-24 03:54:57.44	281.05	7.79	-53.4	-68.4	3.8	1.49e+00	0	43	104	0	77	21286
2026-01-24 03:54:58.45	280.97	7.72	-53.4	-68.3	3.8	1.49e+00	0	43	104	0	77	21251
2026-01-24 03:54:59.46	280.88	7.65	-53.3	-68.4	3.8	1.49e+00	0	43	104	0	77	21278
2026-01-24 03:55:00.47	280.79	7.58	-53.4	-68.4	3.8	1.49e+00	0	43	104	0	77	21315
2026-01-24 03:55:01.48	280.71	7.52	-53.3	-68.3	3.8	1.49e+00	0	43	104	0	77	21249
2026-01-24 03:55:02.48	280.63	7.45	-53.3	-68.3	3.8	1.49e+00	0	43	104	0	77	21232
2026-01-24 03:55:03.49	280.54	7.38	-53.3	-68.3	3.8	1.49e+00	0	43	104	0	77	21170
2026-01-24 03:55:04.50	280.46	7.31	-53.3	-68.3	3.8	1.49e+00	0	43	104	0	77	21258
2026-01-24 03:55:05.51	280.38	7.24	-53.3	-68.3	3.8	1.49e+00	0	43	104	0	77	21225
2026-01-24 03:55:06.52	280.29	7.18	-53.3	-68.3	3.8	1.49e+00	0	43	104	0	77	21244
2026-01-24 03:55:07.52	280.21	7.11	-53.3	-68.3	3.8	1.49e+00	0	43	104	0	77	21172
2026-01-24 03:55:08.54	280.13	7.04	-53.3	-68.3	3.8	1.49e+00	0	43	104	0	77	21183
2026-01-24 03:55:09.54	280.05	6.97	-53.3	-68.3	3.8	1.49e+00	0	43	104	0	77	21222
2026-01-24 03:55:10.55	279.97	6.91	-53.3	-68.3	3.8	1.49e+00	0	43	104	0	77	21183
2026-01-24 03:55:11.56	279.89	6.84	-53.3	-68.3	3.8	1.49e+00	0	43	104	0	77	21210
2026-01-24 03:55:12.57	279.81	6.77	-53.3	-68.3	3.8	1.49e+00	0	43	104	0	77	21197
2026-01-24 03:55:13.58	279.73	6.71	-53.3	-68.3	3.8	1.49e+00	0	43	104	0	77	21229
2026-01-24 03:55:14.59	279.65	6.64	-53.3	-68.3	3.8	1.49e+00	0	43	104	0	77	21167
2026-01-24 03:55:15.60	279.57	6.57	-53.3	-68.3	3.8	1.49e+00	0	43	104	0	77	21220
2026-01-24 03:55:16.61	279.49	6.51	-53.3	-68.3	3.8	1.49e+00	0	43	104	0	77	21174
2026-01-24 03:55:17.61	279.41	6.44	-53.3	-68.3	3.8	1.49e+00	0	43	104	0	77	21146
2026-01-24 03:55:18.62	279.33	6.37	-53.3	-68.3	3.8	1.49e+00	0	43	104	0	77	21185
2026-01-24 03:55:19.63	279.25	6.31	-53.3	-68.3	3.8	1.49e+00	0	43	104	0	77	21224
2026-01-24 03:55:20.64	279.18	6.24	-53.3	-68.3	3.8	1.49e+00	0	43	104	0	77	21217
2026-01-24 03:55:21.65	279.10	6.17	-53.3	-68.3	3.8	1.49e+00	0	43	104	0	77	21236
2026-01-24 03:55:22.66	279.02	6.11	-53.3	-68.3	3.8	1.49e+00	0	44	104	0	77	21190
2026-01-24 03:55:23.67	278.95	6.04	-53.3	-68.3	3.8	1.49e+00	0	43	104	0	77	21159
2026-01-24 03:55:24.68	278.87	5.98	-53.3	-68.3	3.8	1.49e+00	0	43	104	0	77	21189
2026-01-24 03:55:25.68	278.80	5.91	-53.3	-68.3	3.8	1.49e+00	0	43	104	0	77	21229
2026-01-24 03:55:26.69	278.72	5.85	-53.3	-68.3	3.8	1.49e+00	0	43	104	0	77	21205
2026-01-24 03:55:27.70	278.65	5.78	-53.3	-68.3	3.8	1.49e+00	0	43	104	0	77	21173
2026-01-24 03:55:28.71	278.57	5.72	-53.3	-68.3	3.8	1.49e+00	0	43	104	0	77	21192
2026-01-24 03:55:29.72	278.50	5.65	-53.3	-68.3	3.8	1.49e+00	0	43	104	0	77	21170
2026-01-24 03:55:30.72	278.42	5.59	-53.3	-68.3	3.8	1.49e+00	0	43	104	0	77	21215
2026-01-24 03:55:31.73	278.35	5.52	-53.3	-68.3	3.8	1.49e+00	0	43	104	0	77	21155
2026-01-24 03:55:32.74	278.28	5.46	-53.3	-68.3	3.8	1.49e+00	0	43	104	0	77	21203
2026-01-24 03:55:33.75	278.20	5.39	-53.3	-68.3	3.8	1.49e+00	0	43	104	0	77	21192
2026-01-24 03:55:34.75	278.13	5.33	-53.3	-68.3	3.8	1.49e+00	0	43	104	0	77	21202
2026-01-24 03:55:35.76	278.06	5.26	-53.3	-68.3	3.8	1.49e+00	0	43	104	0	77	21231
2026-01-24 03:55:36.77	277.99	5.20	-53.3	-68.3	3.8	1.49e+00	0	43	104	0	77	21185
2026-01-24 03:55:37.78	277.92	5.14	-53.3	-68.3	3.8	1.49e+00	0	43	104	0	77	21173
2026-01-24 03:55:38.79	277.85	5.07	-53.3	-68.3	3.8	1.49e+00	0	43	104	0	77	21179
2026-01-24 03:55:39.80	277.77	5.01	-53.3	-68.3	3.8	1.49e+00	0	44	104	0	77	21140
2026-01-24 03:55:40.80	277.70	4.94	-53.3	-68.3	3.8	1.49e+00	0	43	104	0	77	21186
2026-01-24 03:55:41.81	277.63	4.88	-53.3	-68.3	3.8	1.49e+00	0	43	104	0	77	21176
2026-01-24 03:55:42.82	277.56	4.82	-53.3	-68.3	3.8	1.49e+00	0	43	104	0	77	21181
2026-01-24 03:55:43.83	277.49	4.75	-53.3	-68.3	3.8	1.49e+00	0	43	104	0	77	21167
2026-01-24 03:55:44.84	277.43	4.69	-53.3	-68.3	3.8	1.49e+00	0	43	104	0	77	21125
2026-01-24 03:55:45.85	277.36	4.63	-53.3	-68.3	3.8	1.49e+00	0	43	104	0	77	21160
2026-01-24 03:55:46.86	277.29	4.56	-53.3	-68.3	3.8	1.49e+00	0	43	104	0	77	21187
2026-01-24 03:55:47.86	277.22	4.50	-53.3	-68.3	3.8	1.49e+00	0	43	104	0	77	21192
2026-01-24 03:55:48.87	277.15	4.44	-53.3	-68.3	3.8	1.49e+00	0	44	104	0	77	21126
2026-01-24 03:55:49.88	277.08	4.37	-53.3	-68.3	3.8	1.49e+00	0	43	104	0	77	21119
2026-01-24 03:55:50.89	277.02	4.31	-53.3	-68.3	3.8	1.49e+00	0	43	104	0	77	21186
2026-01-24 03:55:51.90	276.95	4.25	-53.3	-68.3	3.8	1.49e+00	0	43	104	0	77	21121
2026-01-24 03:55:52.90	276.88	4.19	-53.3	-68.3	3.8	1.49e+00	0	43	104	0	77	21113
2026-01-24 03:55:53.91	276.82	4.13	-53.3	-68.3	3.8	1.49e+00	0	43	104	0	77	21152
2026-01-24 03:55:54.92	276.75	4.06	-53.3	-68.3	3.8	1.49e+00	0	43	104	0	77	21136
2026-01-24 03:55:55.93	276.69	4.00	-53.3	-68.3	3.8	1.49e+00	0	43	104	0	77	21131
