passes_logs/2025/01/16/planumMaritime01/planumMaritime01__20250116_014345_METEOR-M2_2_rec.log

#Pass ID: 20250116_014345_METEOR-M2 2
#Satellite: METEOR-M2 2
#Configuration: METEOR-M2 2
#Start time: 2025-01-16 01:43:50.498370

#LorettStation: 1.0.0 05.05.2024
#Station: planumMaritime01
#Location: 37.49445 lon 55.92918 lat
#TLE: 1 44387U 19038A   25015.13828876  .00000204  00000+0  10838-3 0  9991
#TLE: 2 44387  98.8566 351.5379 0002288  78.7412 281.4023 14.24116933287553

#Time	Az	El	Level	SNR
2025-01-16 01:43:52.665191	20.8	10.2	-80.7	0.0
2025-01-16 01:43:53.789891	20.9	10.3	-80.9	0.0
2025-01-16 01:43:54.911963	20.9	10.4	-80.7	0.0
2025-01-16 01:43:56.033688	20.9	10.5	-80.8	0.0
2025-01-16 01:43:57.157845	21.0	10.6	-80.9	0.0
2025-01-16 01:43:58.280223	21.0	10.7	-80.8	0.0
2025-01-16 01:43:59.403301	21.0	10.8	-80.8	0.0
2025-01-16 01:44:00.526542	21.1	10.9	-80.8	0.0
2025-01-16 01:44:01.647234	21.1	11.0	-81.0	0.0
2025-01-16 01:44:02.771077	21.2	11.1	-80.9	0.0
2025-01-16 01:44:03.895629	21.2	11.2	-80.9	0.0
2025-01-16 01:44:05.018306	21.2	11.3	-80.9	0.0
2025-01-16 01:44:06.141612	21.3	11.4	-80.8	0.0
2025-01-16 01:44:07.264273	21.3	11.5	-81.1	0.0
2025-01-16 01:44:08.387308	21.3	11.6	-81.0	0.0
2025-01-16 01:44:09.509809	21.4	11.7	-81.4	0.0
2025-01-16 01:44:10.635269	21.4	11.8	-81.0	0.0
2025-01-16 01:44:11.758782	21.5	11.9	-81.1	0.0
2025-01-16 01:44:12.881866	21.5	12.0	-81.3	0.0
2025-01-16 01:44:14.005185	21.5	12.1	-81.1	0.0
2025-01-16 01:44:15.127681	21.6	12.2	-81.3	0.0
2025-01-16 01:44:16.249204	21.6	12.3	-81.1	0.0
2025-01-16 01:44:17.370729	21.7	12.4	-81.3	0.0
2025-01-16 01:44:18.493621	21.7	12.5	-81.2	0.0
2025-01-16 01:44:19.615851	21.7	12.6	-81.1	0.0
2025-01-16 01:44:20.739153	21.8	12.7	-81.2	0.0
2025-01-16 01:44:21.861702	21.8	12.9	-81.0	0.0
2025-01-16 01:44:22.987689	21.9	13.0	-81.2	0.0
2025-01-16 01:44:24.110585	21.9	13.1	-81.1	0.0
2025-01-16 01:44:25.232128	21.9	13.2	-81.4	0.0
2025-01-16 01:44:26.353878	22.0	13.3	-81.1	0.0
2025-01-16 01:44:27.478033	22.0	13.4	-81.2	0.0
2025-01-16 01:44:28.601954	22.1	13.5	-81.0	0.0
2025-01-16 01:44:29.725741	22.1	13.6	-80.8	0.0
2025-01-16 01:44:30.850025	22.2	13.7	-80.5	0.0
2025-01-16 01:44:31.973606	22.2	13.8	-81.3	0.0
2025-01-16 01:44:33.096134	22.2	14.0	-81.2	0.0
2025-01-16 01:44:34.220262	22.3	14.1	-81.3	0.0
2025-01-16 01:44:35.343619	22.3	14.2	-81.2	0.0
2025-01-16 01:44:36.466613	22.4	14.3	-81.2	0.0
2025-01-16 01:44:37.588944	22.4	14.4	-81.1	0.0
2025-01-16 01:44:38.711439	22.5	14.5	-81.3	0.0
2025-01-16 01:44:39.833588	22.5	14.7	-81.2	0.0
2025-01-16 01:44:40.957176	22.6	14.8	-81.3	0.0
2025-01-16 01:44:42.081340	22.6	14.9	-81.1	0.0
2025-01-16 01:44:43.204797	22.7	15.0	-81.3	0.0
2025-01-16 01:44:44.329924	22.7	15.1	-81.4	0.0
2025-01-16 01:44:45.452582	22.8	15.2	-81.3	0.0
2025-01-16 01:44:46.575427	22.8	15.4	-81.5	0.0
2025-01-16 01:44:47.698626	22.9	15.5	-81.2	0.0
2025-01-16 01:44:48.821209	22.9	15.6	-81.2	0.0
2025-01-16 01:44:49.945662	22.9	15.7	-81.0	0.0
2025-01-16 01:44:51.067747	23.0	15.8	-81.2	0.0
2025-01-16 01:44:52.189838	23.0	16.0	-81.3	0.0
2025-01-16 01:44:53.311798	23.1	16.1	-81.3	0.0
2025-01-16 01:44:54.437112	23.1	16.2	-81.4	0.0
2025-01-16 01:44:55.560869	23.2	16.3	-81.3	0.0
2025-01-16 01:44:56.682612	23.2	16.5	-81.4	0.0
2025-01-16 01:44:57.808681	23.3	16.6	-81.4	0.0
2025-01-16 01:44:58.931553	23.4	16.7	-81.3	0.0
2025-01-16 01:45:00.056134	23.4	16.8	-81.3	0.0
2025-01-16 01:45:01.179666	23.5	17.0	-81.3	0.0
2025-01-16 01:45:02.301978	23.5	17.1	-81.4	0.0
2025-01-16 01:45:03.424621	23.6	17.2	-81.4	0.0
2025-01-16 01:45:04.546881	23.6	17.4	-81.3	0.0
2025-01-16 01:45:05.670746	23.7	17.5	-81.5	0.0
2025-01-16 01:45:06.793553	23.7	17.6	-81.5	0.0
2025-01-16 01:45:07.916790	23.8	17.8	-81.3	0.0
2025-01-16 01:45:09.040250	23.8	17.9	-81.5	0.0
2025-01-16 01:45:10.161039	23.9	18.0	-81.1	0.0
2025-01-16 01:45:11.284024	24.0	18.2	-81.4	0.0
2025-01-16 01:45:12.409164	24.0	18.3	-81.3	0.0
2025-01-16 01:45:13.532088	24.1	18.4	-81.2	0.0
2025-01-16 01:45:14.655111	24.1	18.6	-81.5	0.0
2025-01-16 01:45:15.779966	24.2	18.7	-81.5	0.0
2025-01-16 01:45:16.903767	24.2	18.8	-81.4	0.0
2025-01-16 01:45:18.026045	24.3	19.0	-81.4	0.0
2025-01-16 01:45:19.152192	24.4	19.1	-81.6	0.0
2025-01-16 01:45:20.275446	24.4	19.3	-81.5	0.0
2025-01-16 01:45:21.398196	24.5	19.4	-81.3	0.0
2025-01-16 01:45:22.519680	24.5	19.5	-81.5	0.0
2025-01-16 01:45:23.645296	24.6	19.7	-81.3	0.0
2025-01-16 01:45:24.769044	24.7	19.8	-81.3	0.0
2025-01-16 01:45:25.890997	24.7	20.0	-81.4	0.0
2025-01-16 01:45:27.015135	24.8	20.1	-81.4	0.0
2025-01-16 01:45:28.136618	24.9	20.3	-81.4	0.0
2025-01-16 01:45:29.259755	24.9	20.4	-81.5	0.0
2025-01-16 01:45:30.382478	25.0	20.5	-81.5	0.0
2025-01-16 01:45:31.504863	25.1	20.7	-81.3	0.0
2025-01-16 01:45:32.629099	25.1	20.8	-81.4	0.0
2025-01-16 01:45:33.753124	25.2	21.0	-81.5	0.0
2025-01-16 01:45:34.875923	25.3	21.1	-81.3	0.0
2025-01-16 01:45:35.997652	25.3	21.3	-81.5	0.0
2025-01-16 01:45:37.119838	25.4	21.4	-81.4	0.0
2025-01-16 01:45:38.241516	25.5	21.6	-81.3	0.0
2025-01-16 01:45:39.364056	25.5	21.8	-81.3	0.0
2025-01-16 01:45:40.488091	25.6	21.9	-81.2	0.0
2025-01-16 01:45:41.609897	25.7	22.1	-81.4	0.0
2025-01-16 01:45:42.732512	25.8	22.2	-81.4	0.0
2025-01-16 01:45:43.857950	25.8	22.4	-81.3	0.0
2025-01-16 01:45:44.981185	25.9	22.5	-81.4	0.0
2025-01-16 01:45:46.103672	26.0	22.7	-81.4	0.0
2025-01-16 01:45:47.226219	26.1	22.9	-81.2	0.0
2025-01-16 01:45:48.348886	26.1	23.0	-81.4	0.0
2025-01-16 01:45:49.469213	26.2	23.2	-81.3	0.0
2025-01-16 01:45:50.593958	26.3	23.3	-81.3	0.0
2025-01-16 01:45:51.715805	26.4	23.5	-81.4	0.0
2025-01-16 01:45:52.840264	26.4	23.7	-81.5	0.0
2025-01-16 01:45:53.961869	26.5	23.8	-81.3	0.0
2025-01-16 01:45:55.086014	26.6	24.0	-81.4	0.0
2025-01-16 01:45:56.207943	26.7	24.2	-81.5	0.0
2025-01-16 01:45:57.330998	26.8	24.4	-81.6	0.0
2025-01-16 01:45:58.457138	26.9	24.5	-81.4	0.0
2025-01-16 01:45:59.582785	26.9	24.7	-81.5	0.0
2025-01-16 01:46:00.706182	27.0	24.9	-81.5	0.0
2025-01-16 01:46:01.827104	27.1	25.0	-81.2	0.0
2025-01-16 01:46:02.949689	27.2	25.2	-81.5	0.0
2025-01-16 01:46:04.073418	27.3	25.4	-81.6	0.0
2025-01-16 01:46:05.195539	27.4	25.6	-81.5	0.0
2025-01-16 01:46:06.321439	27.5	25.8	-81.5	0.0
2025-01-16 01:46:07.443890	27.6	25.9	-81.5	0.0
2025-01-16 01:46:08.564718	27.6	26.1	-81.5	0.0
2025-01-16 01:46:09.686818	27.7	26.3	-81.6	0.0
2025-01-16 01:46:10.808480	27.8	26.5	-81.4	0.0
2025-01-16 01:46:11.932858	27.9	26.7	-81.6	0.0
2025-01-16 01:46:13.055922	28.0	26.8	-81.6	0.0
2025-01-16 01:46:14.178916	28.1	27.0	-81.5	0.0
2025-01-16 01:46:15.299952	28.2	27.2	-81.7	0.0
2025-01-16 01:46:16.423204	28.3	27.4	-81.3	0.0
2025-01-16 01:46:17.546164	28.4	27.6	-81.4	0.0
2025-01-16 01:46:18.666510	28.5	27.8	-81.5	0.0
2025-01-16 01:46:19.790247	28.6	28.0	-81.6	0.0
2025-01-16 01:46:20.911960	28.7	28.2	-81.5	0.0
2025-01-16 01:46:22.035164	28.8	28.4	-81.7	0.0
2025-01-16 01:46:23.156848	28.9	28.6	-81.5	0.0
2025-01-16 01:46:24.282389	29.0	28.8	-81.7	0.0
2025-01-16 01:46:25.407143	29.1	29.0	-81.5	0.0
2025-01-16 01:46:26.529163	29.3	29.2	-81.5	0.0
2025-01-16 01:46:27.654113	29.4	29.4	-81.6	0.0
2025-01-16 01:46:28.776837	29.5	29.6	-81.5	0.0
2025-01-16 01:46:29.901712	29.6	29.8	-81.7	0.0
2025-01-16 01:46:31.025507	29.7	30.0	-81.4	0.0
2025-01-16 01:46:32.146645	29.8	30.2	-81.6	0.0
2025-01-16 01:46:33.271041	29.9	30.4	-81.7	0.0
2025-01-16 01:46:34.393844	30.1	30.6	-81.6	0.0
2025-01-16 01:46:35.516845	30.2	30.8	-81.6	0.0
2025-01-16 01:46:36.638954	30.3	31.1	-81.5	0.0
2025-01-16 01:46:37.762417	30.4	31.3	-81.7	0.0
2025-01-16 01:46:38.885929	30.6	31.5	-81.6	0.0
2025-01-16 01:46:40.009049	30.7	31.7	-81.8	0.0
2025-01-16 01:46:41.130132	30.8	31.9	-81.7	0.0
2025-01-16 01:46:42.251778	31.0	32.1	-81.6	0.0
2025-01-16 01:46:43.374506	31.1	32.4	-81.6	0.0
2025-01-16 01:46:44.496983	31.2	32.6	-81.8	0.0
2025-01-16 01:46:45.621379	31.4	32.8	-81.7	0.0
2025-01-16 01:46:46.744352	31.5	33.0	-81.7	0.0
2025-01-16 01:46:47.865819	31.6	33.3	-81.6	0.0
2025-01-16 01:46:48.987832	31.8	33.5	-81.8	0.0
2025-01-16 01:46:50.110469	31.9	33.7	-81.6	0.0
2025-01-16 01:46:51.234854	32.1	34.0	-81.6	0.0
2025-01-16 01:46:52.357232	32.2	34.2	-81.6	0.0
2025-01-16 01:46:53.479352	32.4	34.4	-81.7	0.0
2025-01-16 01:46:54.602836	32.5	34.7	-81.7	0.0
2025-01-16 01:46:55.726826	32.7	34.9	-81.6	0.0
2025-01-16 01:46:56.851486	32.8	35.2	-81.6	0.0
2025-01-16 01:46:57.972955	33.0	35.4	-81.5	0.0
2025-01-16 01:46:59.095453	33.2	35.6	-81.4	0.0
2025-01-16 01:47:00.220268	33.3	35.9	-81.7	0.0
2025-01-16 01:47:01.343670	33.5	36.1	-81.8	0.0
2025-01-16 01:47:02.466703	33.7	36.4	-81.7	0.0
2025-01-16 01:47:03.590049	33.8	36.6	-81.7	0.0
2025-01-16 01:47:04.710909	34.0	36.9	-81.5	0.0
2025-01-16 01:47:05.832026	34.2	37.2	-81.5	0.0
2025-01-16 01:47:06.954644	34.4	37.4	-81.7	0.0
2025-01-16 01:47:08.078796	34.5	37.7	-81.8	0.0
2025-01-16 01:47:09.201926	34.7	37.9	-81.6	0.0
2025-01-16 01:47:10.323705	34.9	38.2	-81.9	0.0
2025-01-16 01:47:11.447139	35.1	38.5	-81.7	0.0
2025-01-16 01:47:12.571159	35.3	38.7	-81.6	0.0
2025-01-16 01:47:13.693785	35.5	39.0	-81.9	0.0
2025-01-16 01:47:14.816488	35.7	39.3	-81.7	0.0
2025-01-16 01:47:15.940118	35.9	39.5	-81.5	0.0
2025-01-16 01:47:17.064488	36.1	39.8	-81.7	0.0
2025-01-16 01:47:18.188439	36.3	40.1	-81.6	0.0
2025-01-16 01:47:19.313380	36.5	40.4	-81.7	0.0
2025-01-16 01:47:20.437328	36.8	40.6	-81.7	0.0
2025-01-16 01:47:21.558044	37.0	40.9	-81.6	0.0
2025-01-16 01:47:22.682846	37.2	41.2	-81.7	0.0
2025-01-16 01:47:23.805088	37.4	41.5	-81.6	0.0
2025-01-16 01:47:24.927438	37.7	41.8	-81.7	0.0
2025-01-16 01:47:26.051778	37.9	42.0	-81.9	0.0
2025-01-16 01:47:27.174666	38.1	42.3	-81.7	0.0
2025-01-16 01:47:28.296521	38.4	42.6	-81.7	0.0
2025-01-16 01:47:29.417589	38.6	42.9	-81.8	0.0
2025-01-16 01:47:30.540486	38.9	43.2	-81.6	0.0
2025-01-16 01:47:31.663272	39.2	43.5	-81.6	0.0
2025-01-16 01:47:32.787688	39.4	43.8	-81.5	0.0
2025-01-16 01:47:33.914356	39.7	44.1	-81.6	0.0
2025-01-16 01:47:35.037641	40.0	44.4	-81.8	0.0
2025-01-16 01:47:36.160911	40.3	44.7	-81.8	0.0
2025-01-16 01:47:37.283400	40.5	45.0	-81.8	0.0
2025-01-16 01:47:38.406239	40.8	45.3	-81.6	0.0
2025-01-16 01:47:39.529284	41.1	45.6	-81.9	0.0
2025-01-16 01:47:40.652187	41.4	45.9	-81.6	0.0
2025-01-16 01:47:41.775585	41.7	46.2	-81.9	0.0
2025-01-16 01:47:42.896390	42.0	46.5	-81.7	0.0
2025-01-16 01:47:44.022268	42.4	46.9	-81.7	0.0
2025-01-16 01:47:45.150286	42.7	47.2	-81.9	0.0
2025-01-16 01:47:46.272825	43.0	47.5	-82.0	0.0
2025-01-16 01:47:47.396500	43.4	47.8	-81.7	0.0
2025-01-16 01:47:48.520347	43.7	48.1	-81.9	0.0
2025-01-16 01:47:49.643085	44.1	48.4	-81.9	0.0
2025-01-16 01:47:50.763758	44.4	48.8	-81.8	0.0
2025-01-16 01:47:51.886441	44.8	49.1	-81.8	0.0
2025-01-16 01:47:53.007501	45.2	49.4	-81.8	0.0
2025-01-16 01:47:54.127838	45.6	49.7	-81.9	0.0
2025-01-16 01:47:55.249709	45.9	50.1	-81.6	0.0
2025-01-16 01:47:56.373194	46.4	50.4	-81.7	0.0
2025-01-16 01:47:57.495564	46.8	50.7	-81.6	0.0
2025-01-16 01:47:58.620143	47.2	51.0	-81.9	0.0
2025-01-16 01:47:59.742132	47.6	51.4	-82.0	0.0
2025-01-16 01:48:00.866048	48.0	51.7	-82.0	0.0
2025-01-16 01:48:01.988062	48.5	52.0	-81.9	0.0
2025-01-16 01:48:03.108674	48.9	52.3	-81.8	0.0
2025-01-16 01:48:04.231308	49.4	52.7	-81.9	0.0
2025-01-16 01:48:05.353561	49.9	53.0	-81.8	0.0
2025-01-16 01:48:06.475639	50.4	53.3	-81.8	0.0
2025-01-16 01:48:07.597498	50.9	53.7	-81.7	0.0
2025-01-16 01:48:08.721482	51.4	54.0	-82.1	0.0
2025-01-16 01:48:09.844876	51.9	54.3	-81.9	0.0
2025-01-16 01:48:10.968531	52.4	54.7	-81.9	0.0
2025-01-16 01:48:12.091980	53.0	55.0	-81.8	0.0
2025-01-16 01:48:13.215448	53.6	55.3	-82.0	0.0
2025-01-16 01:48:14.339695	54.1	55.6	-82.0	0.0
2025-01-16 01:48:15.460958	54.7	56.0	-81.8	0.0
2025-01-16 01:48:16.583787	55.3	56.3	-82.0	0.0
2025-01-16 01:48:17.708939	55.9	56.6	-81.9	0.0
2025-01-16 01:48:18.834549	56.6	57.0	-82.0	0.0
2025-01-16 01:48:19.957127	57.2	57.3	-81.9	0.0
2025-01-16 01:48:21.078276	57.9	57.6	-82.1	0.0
2025-01-16 01:48:22.201146	58.5	57.9	-81.7	0.0
2025-01-16 01:48:23.323047	59.2	58.2	-81.7	0.0
2025-01-16 01:48:24.446780	59.9	58.5	-82.0	0.0
2025-01-16 01:48:25.571515	60.7	58.9	-81.9	0.0
2025-01-16 01:48:26.692251	61.4	59.2	-82.0	0.0
2025-01-16 01:48:27.817057	62.2	59.5	-81.9	0.0
2025-01-16 01:48:28.939924	62.9	59.8	-81.8	0.0
2025-01-16 01:48:30.062014	63.7	60.1	-81.9	0.0
2025-01-16 01:48:31.184782	64.5	60.4	-81.7	0.0
2025-01-16 01:48:32.306607	65.4	60.7	-82.0	0.0
2025-01-16 01:48:33.428590	66.2	61.0	-81.9	0.0
2025-01-16 01:48:34.550531	67.1	61.2	-81.8	0.0
2025-01-16 01:48:35.672900	68.0	61.5	-81.9	0.0
2025-01-16 01:48:36.795669	68.9	61.8	-81.8	0.0
2025-01-16 01:48:37.918976	69.8	62.1	-81.7	0.0
2025-01-16 01:48:39.039898	70.8	62.3	-81.9	0.0
2025-01-16 01:48:40.162614	71.8	62.6	-81.9	0.0
2025-01-16 01:48:41.286923	72.8	62.9	-81.9	0.0
2025-01-16 01:48:42.410487	73.8	63.1	-81.7	0.0
2025-01-16 01:48:43.531904	74.8	63.3	-81.7	0.0
2025-01-16 01:48:44.653849	75.9	63.6	-81.7	0.0
2025-01-16 01:48:45.776058	76.9	63.8	-81.8	0.0
2025-01-16 01:48:46.897029	78.0	64.0	-81.9	0.0
2025-01-16 01:48:48.019679	79.2	64.2	-81.7	0.0
2025-01-16 01:48:49.142408	80.3	64.4	-81.9	0.0
2025-01-16 01:48:50.266674	81.5	64.6	-81.9	0.0
2025-01-16 01:48:51.389352	82.6	64.8	-81.9	0.0
2025-01-16 01:48:52.511744	83.8	65.0	-82.0	0.0
2025-01-16 01:48:53.635390	85.1	65.1	-81.8	0.0
2025-01-16 01:48:54.757651	86.3	65.3	-81.9	0.0
2025-01-16 01:48:55.879953	87.5	65.4	-81.8	0.0
2025-01-16 01:48:57.001298	88.8	65.6	-81.8	0.0
2025-01-16 01:48:58.123179	90.1	65.7	-81.9	0.0
2025-01-16 01:48:59.246884	91.4	65.8	-81.9	0.0
2025-01-16 01:49:00.372252	92.7	65.9	-81.8	0.0
2025-01-16 01:49:01.493669	94.0	66.0	-82.0	0.0
2025-01-16 01:49:02.617884	95.3	66.1	-82.1	0.0
2025-01-16 01:49:03.739541	96.7	66.2	-81.8	0.0
2025-01-16 01:49:04.861308	98.0	66.2	-82.0	0.0
2025-01-16 01:49:05.983942	99.4	66.3	-82.0	0.0
2025-01-16 01:49:07.110206	100.7	66.3	-81.8	0.0
2025-01-16 01:49:08.233120	102.1	66.3	-81.8	0.0
2025-01-16 01:49:09.355078	103.5	66.3	-82.0	0.0
2025-01-16 01:49:10.477647	104.8	66.3	-82.0	0.0
2025-01-16 01:49:11.599840	106.2	66.3	-81.8	0.0
2025-01-16 01:49:12.723128	107.5	66.3	-81.9	0.0
2025-01-16 01:49:13.845677	108.9	66.2	-81.9	0.0
2025-01-16 01:49:14.968377	110.3	66.2	-81.9	0.0
2025-01-16 01:49:16.091012	111.6	66.1	-81.8	0.0
2025-01-16 01:49:17.214655	112.9	66.1	-81.7	0.0
2025-01-16 01:49:18.337078	114.3	66.0	-82.0	0.0
2025-01-16 01:49:19.460049	115.6	65.9	-81.8	0.0
2025-01-16 01:49:20.584854	116.9	65.8	-81.8	0.0
2025-01-16 01:49:21.708943	118.2	65.6	-81.9	0.0
2025-01-16 01:49:22.830367	119.4	65.5	-81.8	0.0
2025-01-16 01:49:23.952670	120.7	65.4	-82.0	0.0
2025-01-16 01:49:25.077870	121.9	65.2	-81.8	0.0
2025-01-16 01:49:26.197709	123.2	65.1	-81.9	0.0
2025-01-16 01:49:27.318558	124.4	64.9	-81.9	0.0
2025-01-16 01:49:28.442367	125.6	64.7	-82.0	0.0
2025-01-16 01:49:29.564650	126.7	64.5	-82.2	0.0
2025-01-16 01:49:30.691211	127.9	64.3	-81.9	0.0
2025-01-16 01:49:31.815772	129.0	64.1	-81.8	0.0
2025-01-16 01:49:32.937194	130.1	63.9	-82.1	0.0
2025-01-16 01:49:34.061798	131.2	63.7	-82.0	0.0
2025-01-16 01:49:35.184996	132.3	63.4	-82.0	0.0
2025-01-16 01:49:36.309428	133.3	63.2	-82.0	0.0
2025-01-16 01:49:37.431098	134.4	63.0	-81.8	0.0
2025-01-16 01:49:38.554095	135.4	62.7	-82.0	0.0
2025-01-16 01:49:39.676975	136.3	62.5	-81.9	0.0
2025-01-16 01:49:40.802126	137.3	62.2	-81.8	0.0
2025-01-16 01:49:41.923719	138.3	61.9	-81.8	0.0
2025-01-16 01:49:43.048170	139.2	61.6	-81.8	0.0
2025-01-16 01:49:44.171584	140.1	61.4	-81.9	0.0
2025-01-16 01:49:45.295781	141.0	61.1	-82.0	0.0
2025-01-16 01:49:46.420398	141.8	60.8	-81.9	0.0
2025-01-16 01:49:47.544269	142.7	60.5	-82.0	0.0
2025-01-16 01:49:48.666242	143.5	60.2	-81.9	0.0
2025-01-16 01:49:49.788251	144.3	59.9	-81.8	0.0
2025-01-16 01:49:50.910462	145.1	59.6	-81.8	0.0
2025-01-16 01:49:52.034304	145.9	59.3	-81.9	0.0
2025-01-16 01:49:53.156317	146.6	59.0	-81.8	0.0
2025-01-16 01:49:54.279141	147.3	58.7	-82.0	0.0
2025-01-16 01:49:55.400781	148.0	58.4	-81.9	0.0
2025-01-16 01:49:56.525513	148.8	58.0	-81.9	0.0
2025-01-16 01:49:57.649167	149.4	57.7	-81.9	0.0
2025-01-16 01:49:58.772402	150.1	57.4	-81.9	0.0
2025-01-16 01:49:59.895697	150.8	57.1	-82.0	0.0
2025-01-16 01:50:01.018283	151.4	56.8	-81.7	0.0
2025-01-16 01:50:02.140057	152.0	56.4	-81.6	0.0
2025-01-16 01:50:03.262402	152.6	56.1	-81.7	0.0
2025-01-16 01:50:04.385651	153.2	55.8	-82.0	0.0
2025-01-16 01:50:05.509889	153.8	55.4	-82.1	0.0
2025-01-16 01:50:06.632246	154.4	55.1	-82.0	0.0
2025-01-16 01:50:07.755765	154.9	54.8	-82.0	0.0
2025-01-16 01:50:08.877648	155.5	54.4	-81.8	0.0
2025-01-16 01:50:10.001071	156.0	54.1	-82.0	0.0
2025-01-16 01:50:11.123227	156.5	53.8	-82.0	0.0
2025-01-16 01:50:12.247200	157.0	53.5	-82.0	0.0
2025-01-16 01:50:13.371591	157.5	53.1	-82.1	0.0
2025-01-16 01:50:14.494191	158.0	52.8	-81.9	0.0
2025-01-16 01:50:15.619000	158.5	52.5	-82.0	0.0
2025-01-16 01:50:16.740180	158.9	52.1	-82.1	0.0
2025-01-16 01:50:17.861269	159.4	51.8	-82.0	0.0
2025-01-16 01:50:18.985487	159.8	51.5	-82.0	0.0
2025-01-16 01:50:20.109014	160.2	51.1	-82.0	0.0
2025-01-16 01:50:21.231190	160.7	50.8	-82.0	0.0
2025-01-16 01:50:22.353544	161.1	50.5	-82.0	0.0
2025-01-16 01:50:23.476771	161.5	50.2	-81.9	0.0
2025-01-16 01:50:24.598145	161.9	49.8	-81.9	0.0
2025-01-16 01:50:25.721797	162.3	49.5	-82.0	0.0
2025-01-16 01:50:26.843548	162.6	49.2	-81.9	0.0
2025-01-16 01:50:27.964877	163.0	48.9	-81.8	0.0
2025-01-16 01:50:29.089025	163.4	48.5	-81.9	0.0
2025-01-16 01:50:30.212163	163.7	48.2	-81.9	0.0
2025-01-16 01:50:31.333219	164.1	47.9	-82.0	0.0
2025-01-16 01:50:32.456429	164.4	47.6	-81.9	0.0
2025-01-16 01:50:33.580120	164.8	47.3	-82.0	0.0
2025-01-16 01:50:34.704975	165.1	46.9	-82.0	0.0
2025-01-16 01:50:35.824505	165.4	46.6	-81.7	0.0
2025-01-16 01:50:36.945654	165.7	46.3	-82.1	0.0
2025-01-16 01:50:38.066598	166.0	46.0	-81.8	0.0
2025-01-16 01:50:39.189571	166.3	45.7	-81.9	0.0
2025-01-16 01:50:40.312583	166.6	45.4	-82.0	0.0
2025-01-16 01:50:41.434772	166.9	45.1	-82.1	0.0
2025-01-16 01:50:42.557853	167.2	44.8	-82.0	0.0
2025-01-16 01:50:43.680392	167.5	44.5	-82.0	0.0
2025-01-16 01:50:44.803306	167.8	44.2	-81.9	0.0
2025-01-16 01:50:45.925708	168.1	43.9	-81.9	0.0
2025-01-16 01:50:47.048385	168.3	43.6	-82.2	0.0
2025-01-16 01:50:48.170452	168.6	43.3	-82.1	0.0
2025-01-16 01:50:49.293494	168.8	43.0	-81.9	0.0
2025-01-16 01:50:50.415601	169.1	42.7	-81.9	0.0
2025-01-16 01:50:51.538606	169.3	42.4	-82.0	0.0
2025-01-16 01:50:52.663142	169.6	42.1	-81.9	0.0
2025-01-16 01:50:53.786374	169.8	41.8	-82.0	0.0
2025-01-16 01:50:54.908139	170.1	41.5	-82.1	0.0
2025-01-16 01:50:56.031158	170.3	41.2	-82.0	0.0
2025-01-16 01:50:57.152223	170.5	41.0	-81.9	0.0
2025-01-16 01:50:58.275735	170.7	40.7	-82.0	0.0
2025-01-16 01:50:59.398181	171.0	40.4	-81.9	0.0
2025-01-16 01:51:00.522882	171.2	40.1	-81.9	0.0
2025-01-16 01:51:01.645087	171.4	39.8	-82.0	0.0
2025-01-16 01:51:02.766463	171.6	39.6	-81.9	0.0
2025-01-16 01:51:03.890395	171.8	39.3	-82.0	0.0
2025-01-16 01:51:05.013530	172.0	39.0	-82.0	0.0
2025-01-16 01:51:06.138421	172.2	38.8	-82.2	0.0
2025-01-16 01:51:07.263360	172.4	38.5	-82.0	0.0
2025-01-16 01:51:08.385913	172.6	38.2	-81.9	0.0
2025-01-16 01:51:09.511055	172.8	38.0	-82.0	0.0
2025-01-16 01:51:10.632780	173.0	37.7	-82.0	0.0
2025-01-16 01:51:11.757134	173.2	37.4	-82.0	0.0
2025-01-16 01:51:12.878775	173.3	37.2	-82.2	0.0
2025-01-16 01:51:14.003547	173.5	36.9	-82.0	0.0
2025-01-16 01:51:15.130142	173.7	36.7	-82.0	0.0
2025-01-16 01:51:16.253011	173.9	36.4	-81.9	0.0
2025-01-16 01:51:17.378023	174.0	36.2	-82.2	0.0
2025-01-16 01:51:18.500030	174.2	35.9	-81.9	0.0
2025-01-16 01:51:19.622728	174.4	35.7	-82.1	0.0
2025-01-16 01:51:20.747368	174.5	35.4	-82.0	0.0
2025-01-16 01:51:21.871932	174.7	35.2	-82.0	0.0
2025-01-16 01:51:22.993641	174.9	34.9	-82.1	0.0
2025-01-16 01:51:24.114454	175.0	34.7	-82.1	0.0
2025-01-16 01:51:25.238950	175.2	34.4	-82.1	0.0
2025-01-16 01:51:26.362804	175.3	34.2	-82.2	0.0
2025-01-16 01:51:27.485208	175.5	34.0	-82.0	0.0
2025-01-16 01:51:28.607145	175.6	33.7	-82.0	0.0
2025-01-16 01:51:29.728852	175.8	33.5	-82.0	0.0
2025-01-16 01:51:30.853237	175.9	33.3	-82.0	0.0
2025-01-16 01:51:31.978502	176.0	33.0	-82.0	0.0
2025-01-16 01:51:33.104023	176.2	32.8	-82.0	0.0
2025-01-16 01:51:34.225938	176.3	32.6	-82.1	0.0
2025-01-16 01:51:35.349878	176.5	32.3	-82.0	0.0
2025-01-16 01:51:36.472669	176.6	32.1	-82.1	0.0
2025-01-16 01:51:37.596113	176.7	31.9	-82.0	0.0
2025-01-16 01:51:38.717310	176.8	31.7	-82.0	0.0
2025-01-16 01:51:39.839538	177.0	31.5	-81.9	0.0
2025-01-16 01:51:40.960726	177.1	31.2	-81.8	0.0
2025-01-16 01:51:42.085876	177.2	31.0	-81.8	0.0
2025-01-16 01:51:43.209211	177.3	30.8	-81.9	0.0
2025-01-16 01:51:44.331070	177.5	30.6	-81.9	0.0
2025-01-16 01:51:45.454127	177.6	30.4	-82.0	0.0
2025-01-16 01:51:46.576454	177.7	30.2	-81.8	0.0
2025-01-16 01:51:47.699456	177.8	30.0	-81.8	0.0
2025-01-16 01:51:48.821376	177.9	29.8	-81.8	0.0
2025-01-16 01:51:49.944288	178.1	29.5	-81.9	0.0
2025-01-16 01:51:51.066159	178.2	29.3	-81.7	0.0
2025-01-16 01:51:52.191334	178.3	29.1	-82.1	0.0
2025-01-16 01:51:53.313755	178.4	28.9	-82.0	0.0
2025-01-16 01:51:54.438804	178.5	28.7	-82.0	0.0
2025-01-16 01:51:55.562115	178.6	28.5	-82.0	0.0
2025-01-16 01:51:56.685307	178.7	28.3	-81.8	0.0
2025-01-16 01:51:57.810826	178.8	28.1	-82.1	0.0
2025-01-16 01:51:58.933749	178.9	27.9	-81.9	0.0
2025-01-16 01:52:00.056785	179.0	27.7	-82.0	0.0
2025-01-16 01:52:01.179612	179.1	27.6	-82.0	0.0
2025-01-16 01:52:02.301932	179.2	27.4	-82.0	0.0
2025-01-16 01:52:03.424950	179.3	27.2	-81.9	0.0
2025-01-16 01:52:04.548642	179.4	27.0	-82.0	0.0
2025-01-16 01:52:05.671951	179.5	26.8	-81.8	0.0
2025-01-16 01:52:06.794571	179.6	26.6	-81.9	0.0
2025-01-16 01:52:07.916405	179.7	26.4	-81.9	0.0
2025-01-16 01:52:09.036260	179.8	26.2	-82.0	0.0
2025-01-16 01:52:10.158634	179.9	26.1	-82.0	0.0
2025-01-16 01:52:11.282794	180.0	25.9	-82.1	0.0
2025-01-16 01:52:12.405830	180.1	25.7	-82.1	0.0
2025-01-16 01:52:13.530033	180.2	25.5	-82.0	0.0
2025-01-16 01:52:14.651329	180.3	25.3	-81.9	0.0
2025-01-16 01:52:15.773269	180.3	25.2	-81.9	0.0
2025-01-16 01:52:16.896533	180.4	25.0	-82.0	0.0
2025-01-16 01:52:18.021196	180.5	24.8	-82.2	0.0
2025-01-16 01:52:19.143590	180.6	24.6	-82.1	0.0
2025-01-16 01:52:20.266774	180.7	24.5	-82.1	0.0
2025-01-16 01:52:21.389572	180.8	24.3	-82.1	0.0
2025-01-16 01:52:22.512316	180.9	24.1	-82.0	0.0
2025-01-16 01:52:23.635258	180.9	23.9	-82.0	0.0
2025-01-16 01:52:24.758758	181.0	23.8	-82.1	0.0
2025-01-16 01:52:25.883214	181.1	23.6	-82.1	0.0
2025-01-16 01:52:27.006111	181.2	23.4	-82.0	0.0
2025-01-16 01:52:28.132380	181.3	23.3	-82.2	0.0
2025-01-16 01:52:29.255750	181.3	23.1	-82.1	0.0
2025-01-16 01:52:30.378821	181.4	22.9	-82.2	0.0
2025-01-16 01:52:31.500931	181.5	22.8	-82.1	0.0
2025-01-16 01:52:32.624489	181.6	22.6	-82.1	0.0
2025-01-16 01:52:33.745786	181.6	22.5	-82.1	0.0
2025-01-16 01:52:34.868221	181.7	22.3	-82.0	0.0
2025-01-16 01:52:35.992964	181.8	22.1	-82.2	0.0
2025-01-16 01:52:37.114307	181.9	22.0	-82.2	0.0
2025-01-16 01:52:38.238747	181.9	21.8	-82.1	0.0
2025-01-16 01:52:39.361167	182.0	21.7	-82.0	0.0
2025-01-16 01:52:40.484502	182.1	21.5	-82.0	0.0
2025-01-16 01:52:41.605430	182.1	21.4	-82.1	0.0
2025-01-16 01:52:42.728421	182.2	21.2	-81.9	0.0
2025-01-16 01:52:43.850050	182.3	21.1	-81.9	0.0
2025-01-16 01:52:44.974461	182.3	20.9	-82.0	0.0
2025-01-16 01:52:46.097335	182.4	20.7	-81.9	0.0
2025-01-16 01:52:47.221012	182.5	20.6	-82.0	0.0
2025-01-16 01:52:48.343133	182.5	20.4	-81.9	0.0
2025-01-16 01:52:49.466621	182.6	20.3	-82.2	0.0
2025-01-16 01:52:50.590853	182.7	20.2	-82.0	0.0
2025-01-16 01:52:51.714336	182.7	20.0	-82.1	0.0
2025-01-16 01:52:52.836070	182.8	19.9	-82.1	0.0
2025-01-16 01:52:53.958968	182.9	19.7	-81.8	0.0
2025-01-16 01:52:55.081652	182.9	19.6	-82.2	0.0
2025-01-16 01:52:56.203637	183.0	19.4	-82.1	0.0
2025-01-16 01:52:57.325285	183.0	19.3	-82.1	0.0
2025-01-16 01:52:58.450574	183.1	19.1	-82.1	0.0
2025-01-16 01:52:59.574033	183.2	19.0	-82.0	0.0
2025-01-16 01:53:00.696635	183.2	18.9	-82.0	0.0
2025-01-16 01:53:01.819394	183.3	18.7	-82.0	0.0
2025-01-16 01:53:02.942365	183.3	18.6	-82.2	0.0
2025-01-16 01:53:04.064235	183.4	18.5	-82.1	0.0
2025-01-16 01:53:05.188043	183.5	18.3	-82.2	0.0
2025-01-16 01:53:06.311100	183.5	18.2	-82.2	0.0
2025-01-16 01:53:07.434244	183.6	18.0	-82.1	0.0
2025-01-16 01:53:08.555572	183.6	17.9	-82.0	0.0
2025-01-16 01:53:09.678644	183.7	17.8	-82.0	0.0
2025-01-16 01:53:10.801951	183.7	17.6	-82.2	0.0
2025-01-16 01:53:11.922294	183.8	17.5	-81.9	0.0
2025-01-16 01:53:13.046141	183.8	17.4	-82.1	0.0
2025-01-16 01:53:14.171576	183.9	17.2	-82.2	0.0
2025-01-16 01:53:15.294545	184.0	17.1	-82.2	0.0
2025-01-16 01:53:16.416448	184.0	17.0	-82.0	0.0
2025-01-16 01:53:17.540780	184.1	16.9	-82.2	0.0
2025-01-16 01:53:18.662905	184.1	16.7	-82.0	0.0
2025-01-16 01:53:19.787813	184.2	16.6	-82.1	0.0
2025-01-16 01:53:20.910613	184.2	16.5	-82.0	0.0
2025-01-16 01:53:22.030429	184.3	16.3	-82.0	0.0
2025-01-16 01:53:23.153342	184.3	16.2	-81.9	0.0
2025-01-16 01:53:24.276681	184.4	16.1	-82.1	0.0
2025-01-16 01:53:25.398435	184.4	16.0	-82.2	0.0
2025-01-16 01:53:26.521583	184.5	15.8	-82.0	0.0
2025-01-16 01:53:27.644402	184.5	15.7	-82.1	0.0
2025-01-16 01:53:28.767179	184.6	15.6	-82.2	0.0
2025-01-16 01:53:29.890030	184.6	15.5	-82.1	0.0
2025-01-16 01:53:31.015059	184.7	15.4	-82.0	0.0
2025-01-16 01:53:32.138962	184.7	15.2	-82.2	0.0
2025-01-16 01:53:33.261611	184.8	15.1	-82.1	0.0
2025-01-16 01:53:34.386258	184.8	15.0	-82.0	0.0
2025-01-16 01:53:35.508915	184.8	14.9	-82.0	0.0
2025-01-16 01:53:36.630832	184.9	14.8	-82.1	0.0
2025-01-16 01:53:37.754227	184.9	14.6	-81.7	0.0
2025-01-16 01:53:38.877845	185.0	14.5	-82.0	0.0
2025-01-16 01:53:39.999004	185.0	14.4	-81.9	0.0
2025-01-16 01:53:41.123111	185.1	14.3	-82.1	0.0
2025-01-16 01:53:42.245525	185.1	14.2	-82.2	0.0
2025-01-16 01:53:43.368328	185.2	14.1	-82.1	0.0
2025-01-16 01:53:44.491676	185.2	13.9	-82.1	0.0
2025-01-16 01:53:45.614704	185.2	13.8	-82.1	0.0
2025-01-16 01:53:46.736407	185.3	13.7	-82.2	0.0
2025-01-16 01:53:47.857883	185.3	13.6	-82.1	0.0
2025-01-16 01:53:48.980931	185.4	13.5	-82.2	0.0
2025-01-16 01:53:50.105008	185.4	13.4	-82.2	0.0
2025-01-16 01:53:51.226523	185.5	13.3	-82.2	0.0
2025-01-16 01:53:52.348581	185.5	13.2	-82.1	0.0
2025-01-16 01:53:53.470279	185.5	13.0	-82.0	0.0
2025-01-16 01:53:54.593770	185.6	12.9	-81.9	0.0
2025-01-16 01:53:55.717591	185.6	12.8	-82.2	0.0
2025-01-16 01:53:56.842376	185.7	12.7	-81.9	0.0
2025-01-16 01:53:57.965218	185.7	12.6	-82.0	0.0
2025-01-16 01:53:59.088968	185.7	12.5	-82.2	0.0
2025-01-16 01:54:00.214568	185.8	12.4	-82.1	0.0
2025-01-16 01:54:01.336231	185.8	12.3	-82.2	0.0
2025-01-16 01:54:02.458095	185.9	12.2	-82.1	0.0
2025-01-16 01:54:03.582183	185.9	12.1	-81.8	0.0
2025-01-16 01:54:04.705541	185.9	12.0	-81.8	0.0
2025-01-16 01:54:05.827411	186.0	11.9	-82.2	0.0
2025-01-16 01:54:06.949089	186.0	11.8	-82.1	0.0
2025-01-16 01:54:08.073933	186.1	11.7	-82.1	0.0
2025-01-16 01:54:09.194944	186.1	11.5	-82.0	0.0
2025-01-16 01:54:10.317666	186.1	11.4	-82.1	0.0
2025-01-16 01:54:11.440156	186.2	11.3	-81.9	0.0
2025-01-16 01:54:12.565042	186.2	11.2	-82.0	0.0
2025-01-16 01:54:13.688090	186.2	11.1	-81.9	0.0
2025-01-16 01:54:14.811907	186.3	11.0	-81.9	0.0
2025-01-16 01:54:15.934139	186.3	10.9	-82.1	0.0
2025-01-16 01:54:17.055667	186.4	10.8	-81.9	0.0
2025-01-16 01:54:18.177773	186.4	10.7	-81.7	0.0
2025-01-16 01:54:19.301478	186.4	10.6	-82.0	0.0
2025-01-16 01:54:20.422171	186.5	10.5	-82.1	0.0
2025-01-16 01:54:21.544978	186.5	10.4	-82.2	0.0
2025-01-16 01:54:22.668422	186.5	10.3	-82.0	0.0
2025-01-16 01:54:23.791504	186.6	10.2	-82.0	0.0
2025-01-16 01:54:24.912867	186.6	10.1	-82.1	0.0
2025-01-16 01:54:26.035277	186.6	10.0	-82.1	0.0
#Closed at: 2025-01-16 01:43:45.501683