passes_logs/2025/01/16/planumMaritime01/planumMaritime01__20250116_184010_METOP-C_rec.log

#Pass ID: 20250116_184010_METOP-C
#Satellite: METOP-C
#Configuration: METOP-C
#Start time: 2025-01-16 18:40:15.419155

#LorettStation: 1.0.0 05.05.2024
#Station: planumMaritime01
#Location: 37.49445 lon 55.92918 lat
#TLE: 1 43689U 18087A   25016.13723724  .00000217  00000+0  11924-3 0  9996
#TLE: 2 43689  98.6963  78.6125 0001472 162.3188 197.8041 14.21481582321377

#Time	Az	El	Level	SNR
2025-01-16 18:40:17.572394	183.2	10.2	-80.4	0.0
2025-01-16 18:40:18.694542	183.2	10.3	-80.9	0.0
2025-01-16 18:40:19.817149	183.3	10.4	-80.9	0.0
2025-01-16 18:40:20.939146	183.3	10.5	-81.0	0.0
2025-01-16 18:40:22.058775	183.4	10.6	-80.8	0.0
2025-01-16 18:40:23.179842	183.5	10.7	-80.7	0.0
2025-01-16 18:40:24.303090	183.5	10.8	-80.8	0.0
2025-01-16 18:40:25.426281	183.6	10.9	-80.5	0.0
2025-01-16 18:40:26.545088	183.6	11.0	-81.1	0.0
2025-01-16 18:40:27.665703	183.7	11.1	-81.0	0.0
2025-01-16 18:40:28.788365	183.8	11.2	-80.6	0.0
2025-01-16 18:40:29.911529	183.8	11.2	-80.8	0.0
2025-01-16 18:40:31.033688	183.9	11.3	-80.6	0.0
2025-01-16 18:40:32.154834	183.9	11.4	-81.1	0.0
2025-01-16 18:40:33.275220	184.0	11.5	-80.7	0.0
2025-01-16 18:40:34.398318	184.1	11.6	-80.1	0.0
2025-01-16 18:40:35.518470	184.1	11.7	-80.3	0.0
2025-01-16 18:40:36.641155	184.2	11.9	-80.8	0.0
2025-01-16 18:40:37.761850	184.3	12.0	-80.8	0.0
2025-01-16 18:40:38.882609	184.3	12.1	-80.8	0.0
2025-01-16 18:40:40.004386	184.4	12.2	-81.0	0.0
2025-01-16 18:40:41.128032	184.4	12.3	-80.6	0.0
2025-01-16 18:40:42.248351	184.5	12.4	-80.5	0.0
2025-01-16 18:40:43.368242	184.6	12.5	-81.3	0.0
2025-01-16 18:40:44.490786	184.6	12.6	-81.2	0.0
2025-01-16 18:40:45.612850	184.7	12.7	-80.8	0.0
2025-01-16 18:40:46.734626	184.8	12.8	-80.8	0.0
2025-01-16 18:40:47.857531	184.8	12.9	-80.9	0.0
2025-01-16 18:40:48.976410	184.9	13.0	-80.3	0.0
2025-01-16 18:40:50.097236	185.0	13.1	-80.7	0.0
2025-01-16 18:40:51.217863	185.1	13.2	-80.4	0.0
2025-01-16 18:40:52.341433	185.1	13.3	-80.9	0.0
2025-01-16 18:40:53.463278	185.2	13.4	-80.9	0.0
2025-01-16 18:40:54.584972	185.3	13.5	-81.4	0.0
2025-01-16 18:40:55.704599	185.3	13.6	-81.1	0.0
2025-01-16 18:40:56.828339	185.4	13.7	-81.4	0.0
2025-01-16 18:40:57.948565	185.5	13.9	-80.7	0.0
2025-01-16 18:40:59.069731	185.5	14.0	-81.2	0.0
2025-01-16 18:41:00.190847	185.6	14.1	-81.6	0.0
2025-01-16 18:41:01.312446	185.7	14.2	-81.4	0.0
2025-01-16 18:41:02.433142	185.8	14.3	-81.1	0.0
2025-01-16 18:41:03.553033	185.8	14.4	-81.3	0.0
2025-01-16 18:41:04.673647	185.9	14.5	-81.3	0.0
2025-01-16 18:41:05.795172	186.0	14.6	-80.8	0.0
2025-01-16 18:41:06.917077	186.1	14.7	-81.0	0.0
2025-01-16 18:41:08.039086	186.1	14.9	-81.1	0.0
2025-01-16 18:41:09.160835	186.2	15.0	-80.8	0.0
2025-01-16 18:41:10.282622	186.3	15.1	-81.0	0.0
2025-01-16 18:41:11.404315	186.4	15.2	-81.0	0.0
2025-01-16 18:41:12.525042	186.5	15.3	-81.0	0.0
2025-01-16 18:41:13.644057	186.5	15.4	-80.9	0.0
2025-01-16 18:41:14.765469	186.6	15.5	-80.9	0.0
2025-01-16 18:41:15.886555	186.7	15.7	-81.0	0.0
2025-01-16 18:41:17.006927	186.8	15.8	-80.9	0.0
2025-01-16 18:41:18.127885	186.9	15.9	-80.2	0.0
2025-01-16 18:41:19.249357	186.9	16.0	-80.8	0.0
2025-01-16 18:41:20.369663	187.0	16.1	-81.1	0.0
2025-01-16 18:41:21.492970	187.1	16.3	-80.9	0.0
2025-01-16 18:41:22.614475	187.2	16.4	-80.8	0.0
2025-01-16 18:41:23.734847	187.3	16.5	-80.5	0.0
2025-01-16 18:41:24.855422	187.4	16.6	-80.5	0.0
2025-01-16 18:41:25.975975	187.5	16.7	-80.5	0.0
2025-01-16 18:41:27.098563	187.5	16.9	-80.5	0.0
2025-01-16 18:41:28.217817	187.6	17.0	-81.0	0.0
2025-01-16 18:41:29.340303	187.7	17.1	-81.2	0.0
2025-01-16 18:41:30.463153	187.8	17.2	-80.9	0.0
2025-01-16 18:41:31.584393	187.9	17.4	-81.1	0.0
2025-01-16 18:41:32.705990	188.0	17.5	-81.4	0.0
2025-01-16 18:41:33.828281	188.1	17.6	-81.4	0.0
2025-01-16 18:41:34.950382	188.2	17.7	-81.6	0.0
2025-01-16 18:41:36.073353	188.3	17.9	-81.8	0.0
2025-01-16 18:41:37.195218	188.4	18.0	-81.2	0.0
2025-01-16 18:41:38.315321	188.5	18.1	-81.3	0.0
2025-01-16 18:41:39.436762	188.6	18.2	-81.3	0.0
2025-01-16 18:41:40.558221	188.6	18.4	-81.1	0.0
2025-01-16 18:41:41.679798	188.7	18.5	-81.0	0.0
2025-01-16 18:41:42.799266	188.8	18.6	-81.4	0.0
2025-01-16 18:41:43.919822	188.9	18.8	-81.4	0.0
2025-01-16 18:41:45.041589	189.0	18.9	-81.3	0.0
2025-01-16 18:41:46.161232	189.1	19.0	-81.4	0.0
2025-01-16 18:41:47.282391	189.2	19.2	-81.3	0.0
2025-01-16 18:41:48.401490	189.3	19.3	-80.8	0.0
2025-01-16 18:41:49.523137	189.4	19.4	-81.2	0.0
2025-01-16 18:41:50.647439	189.6	19.6	-81.4	0.0
2025-01-16 18:41:51.770852	189.7	19.7	-81.5	0.0
2025-01-16 18:41:52.891797	189.8	19.8	-81.4	0.0
2025-01-16 18:41:54.012363	189.9	20.0	-81.3	0.0
2025-01-16 18:41:55.134193	190.0	20.1	-81.2	0.0
2025-01-16 18:41:56.256771	190.1	20.2	-80.9	0.0
2025-01-16 18:41:57.377063	190.2	20.4	-81.6	0.0
2025-01-16 18:41:58.498282	190.3	20.5	-81.5	0.0
2025-01-16 18:41:59.619797	190.4	20.7	-81.3	0.0
2025-01-16 18:42:00.739557	190.5	20.8	-81.2	0.0
2025-01-16 18:42:01.860013	190.6	20.9	-81.4	0.0
2025-01-16 18:42:02.980671	190.8	21.1	-81.7	0.0
2025-01-16 18:42:04.102886	190.9	21.2	-81.5	0.0
2025-01-16 18:42:05.222541	191.0	21.4	-81.6	0.0
2025-01-16 18:42:06.345415	191.1	21.5	-81.7	0.0
2025-01-16 18:42:07.467783	191.2	21.7	-81.3	0.0
2025-01-16 18:42:08.587300	191.3	21.8	-81.4	0.0
2025-01-16 18:42:09.708729	191.5	22.0	-81.1	0.0
2025-01-16 18:42:10.828520	191.6	22.1	-81.1	0.0
2025-01-16 18:42:11.947800	191.7	22.3	-81.8	0.0
2025-01-16 18:42:13.066252	191.8	22.4	-81.3	0.0
2025-01-16 18:42:14.187827	191.9	22.6	-81.5	0.0
2025-01-16 18:42:15.308463	192.1	22.7	-81.9	0.0
2025-01-16 18:42:16.430033	192.2	22.9	-81.7	0.0
2025-01-16 18:42:17.548989	192.3	23.0	-81.9	0.0
2025-01-16 18:42:18.671288	192.5	23.2	-81.4	0.0
2025-01-16 18:42:19.790394	192.6	23.3	-81.5	0.0
2025-01-16 18:42:20.912848	192.7	23.5	-81.6	0.0
2025-01-16 18:42:22.031017	192.9	23.6	-81.5	0.0
2025-01-16 18:42:23.151850	193.0	23.8	-82.0	0.0
2025-01-16 18:42:24.274545	193.1	23.9	-81.6	0.0
2025-01-16 18:42:25.393836	193.3	24.1	-81.5	0.0
2025-01-16 18:42:26.512150	193.4	24.2	-80.9	0.0
2025-01-16 18:42:27.635048	193.5	24.4	-81.5	0.0
2025-01-16 18:42:28.755877	193.7	24.6	-81.3	0.0
2025-01-16 18:42:29.876235	193.8	24.7	-81.5	0.0
2025-01-16 18:42:30.999307	194.0	24.9	-81.2	0.0
2025-01-16 18:42:32.120268	194.1	25.0	-81.1	0.0
2025-01-16 18:42:33.239938	194.3	25.2	-81.6	0.0
2025-01-16 18:42:34.363098	194.4	25.4	-81.6	0.0
2025-01-16 18:42:35.483521	194.6	25.5	-81.8	0.0
2025-01-16 18:42:36.607717	194.7	25.7	-81.6	0.0
2025-01-16 18:42:37.729049	194.9	25.9	-81.5	0.0
2025-01-16 18:42:38.851296	195.0	26.0	-81.5	0.0
2025-01-16 18:42:39.974518	195.2	26.2	-81.4	0.0
2025-01-16 18:42:41.096859	195.3	26.4	-81.8	0.0
2025-01-16 18:42:42.218404	195.5	26.5	-81.6	0.0
2025-01-16 18:42:43.339335	195.7	26.7	-81.6	0.0
2025-01-16 18:42:44.461830	195.8	26.9	-81.6	0.0
2025-01-16 18:42:45.582586	196.0	27.1	-81.7	0.0
2025-01-16 18:42:46.703213	196.1	27.2	-81.5	0.0
2025-01-16 18:42:47.824961	196.3	27.4	-81.8	0.0
2025-01-16 18:42:48.946275	196.5	27.6	-81.5	0.0
2025-01-16 18:42:50.068385	196.7	27.7	-81.6	0.0
2025-01-16 18:42:51.189930	196.8	27.9	-80.9	0.0
2025-01-16 18:42:52.312481	197.0	28.1	-81.4	0.0
2025-01-16 18:42:53.433596	197.2	28.3	-81.7	0.0
2025-01-16 18:42:54.555333	197.4	28.5	-82.0	0.0
2025-01-16 18:42:55.676631	197.5	28.6	-81.1	0.0
2025-01-16 18:42:56.796587	197.7	28.8	-81.7	0.0
2025-01-16 18:42:57.917228	197.9	29.0	-81.6	0.0
2025-01-16 18:42:59.040432	198.1	29.2	-81.9	0.0
2025-01-16 18:43:00.159453	198.3	29.4	-81.6	0.0
2025-01-16 18:43:01.280017	198.5	29.5	-81.5	0.0
2025-01-16 18:43:02.402413	198.7	29.7	-81.7	0.0
2025-01-16 18:43:03.522109	198.9	29.9	-81.6	0.0
2025-01-16 18:43:04.643116	199.1	30.1	-81.7	0.0
2025-01-16 18:43:05.764899	199.3	30.3	-81.2	0.0
2025-01-16 18:43:06.885347	199.5	30.5	-81.5	0.0
2025-01-16 18:43:08.006105	199.7	30.7	-81.5	0.0
2025-01-16 18:43:09.126464	199.9	30.9	-81.7	0.0
2025-01-16 18:43:10.246489	200.1	31.0	-81.1	0.0
2025-01-16 18:43:11.366287	200.3	31.2	-81.8	0.0
2025-01-16 18:43:12.487912	200.5	31.4	-81.9	0.0
2025-01-16 18:43:13.608427	200.7	31.6	-81.5	0.0
2025-01-16 18:43:14.730300	201.0	31.8	-81.9	0.0
2025-01-16 18:43:15.849674	201.2	32.0	-81.7	0.0
2025-01-16 18:43:16.971534	201.4	32.2	-82.0	0.0
2025-01-16 18:43:18.093160	201.6	32.4	-81.8	0.0
2025-01-16 18:43:19.214611	201.9	32.6	-81.5	0.0
2025-01-16 18:43:20.336250	202.1	32.8	-82.1	0.0
2025-01-16 18:43:21.457540	202.3	33.0	-82.1	0.0
2025-01-16 18:43:22.577892	202.6	33.2	-82.0	0.0
2025-01-16 18:43:23.698526	202.8	33.4	-82.3	0.0
2025-01-16 18:43:24.818156	203.1	33.6	-81.5	0.0
2025-01-16 18:43:25.941392	203.3	33.8	-81.8	0.0
2025-01-16 18:43:27.065599	203.6	34.0	-82.0	0.0
2025-01-16 18:43:28.188320	203.8	34.2	-81.8	0.0
2025-01-16 18:43:29.309382	204.1	34.4	-81.6	0.0
2025-01-16 18:43:30.429034	204.3	34.6	-81.6	0.0
2025-01-16 18:43:31.551342	204.6	34.8	-81.3	0.0
2025-01-16 18:43:32.674406	204.9	35.0	-81.4	0.0
2025-01-16 18:43:33.795519	205.1	35.2	-81.9	0.0
2025-01-16 18:43:34.914783	205.4	35.4	-81.6	0.0
2025-01-16 18:43:36.034990	205.7	35.7	-81.6	0.0
2025-01-16 18:43:37.157682	206.0	35.9	-81.7	0.0
2025-01-16 18:43:38.280315	206.2	36.1	-81.4	0.0
2025-01-16 18:43:39.403356	206.5	36.3	-81.4	0.0
2025-01-16 18:43:40.525089	206.8	36.5	-81.3	0.0
2025-01-16 18:43:41.643654	207.1	36.7	-81.7	0.0
2025-01-16 18:43:42.767066	207.4	36.9	-81.5	0.0
2025-01-16 18:43:43.888094	207.7	37.1	-80.9	0.0
2025-01-16 18:43:45.009416	208.0	37.3	-81.2	0.0
2025-01-16 18:43:46.131365	208.3	37.6	-81.2	0.0
2025-01-16 18:43:47.251167	208.6	37.8	-81.5	0.0
2025-01-16 18:43:48.371894	209.0	38.0	-81.2	0.0
2025-01-16 18:43:49.492581	209.3	38.2	-81.0	0.0
2025-01-16 18:43:50.614510	209.6	38.4	-81.2	0.0
2025-01-16 18:43:51.735154	209.9	38.6	-81.4	0.0
2025-01-16 18:43:52.858618	210.3	38.8	-81.1	0.0
2025-01-16 18:43:53.979144	210.6	39.1	-81.5	0.0
2025-01-16 18:43:55.101272	211.0	39.3	-81.6	0.0
2025-01-16 18:43:56.221413	211.3	39.5	-81.8	0.0
2025-01-16 18:43:57.342414	211.7	39.7	-81.8	0.0
2025-01-16 18:43:58.466007	212.0	39.9	-81.5	0.0
2025-01-16 18:43:59.586699	212.4	40.1	-81.7	0.0
2025-01-16 18:44:00.707278	212.7	40.4	-81.7	0.0
2025-01-16 18:44:01.828366	213.1	40.6	-81.6	0.0
2025-01-16 18:44:02.949216	213.5	40.8	-81.5	0.0
2025-01-16 18:44:04.070319	213.9	41.0	-81.6	0.0
2025-01-16 18:44:05.190373	214.3	41.2	-81.2	0.0
2025-01-16 18:44:06.311876	214.7	41.4	-81.1	0.0
2025-01-16 18:44:07.434087	215.1	41.7	-81.3	0.0
2025-01-16 18:44:08.553419	215.5	41.9	-81.1	0.0
2025-01-16 18:44:09.674912	215.9	42.1	-80.9	0.0
2025-01-16 18:44:10.797994	216.3	42.3	-81.2	0.0
2025-01-16 18:44:11.918351	216.7	42.5	-81.1	0.0
2025-01-16 18:44:13.038878	217.1	42.7	-81.0	0.0
2025-01-16 18:44:14.160774	217.6	42.9	-80.9	0.0
2025-01-16 18:44:15.280771	218.0	43.2	-80.9	0.0
2025-01-16 18:44:16.401720	218.4	43.4	-80.4	0.0
2025-01-16 18:44:17.524605	218.9	43.6	-80.9	0.0
2025-01-16 18:44:18.645141	219.3	43.8	-80.5	0.0
2025-01-16 18:44:19.766883	219.8	44.0	-80.7	0.0
2025-01-16 18:44:20.889186	220.3	44.2	-80.5	0.0
2025-01-16 18:44:22.010822	220.7	44.4	-80.7	0.0
2025-01-16 18:44:23.131462	221.2	44.6	-80.5	0.0
2025-01-16 18:44:24.253843	221.7	44.8	-80.3	0.0
2025-01-16 18:44:25.373804	222.2	45.0	-80.8	0.0
2025-01-16 18:44:26.498743	222.7	45.2	-80.7	0.0
2025-01-16 18:44:27.617595	223.2	45.4	-80.5	0.0
2025-01-16 18:44:28.740476	223.7	45.6	-80.4	0.0
2025-01-16 18:44:29.862391	224.2	45.8	-80.9	0.0
2025-01-16 18:44:30.985586	224.7	46.0	-80.8	0.0
2025-01-16 18:44:32.107554	225.3	46.2	-80.8	0.0
2025-01-16 18:44:33.227402	225.8	46.4	-80.7	0.0
2025-01-16 18:44:34.349096	226.3	46.6	-80.9	0.0
2025-01-16 18:44:35.470938	226.9	46.8	-80.8	0.0
2025-01-16 18:44:36.593039	227.4	47.0	-80.7	0.0
2025-01-16 18:44:37.713604	228.0	47.2	-80.9	0.0
2025-01-16 18:44:38.836111	228.6	47.4	-80.7	0.0
2025-01-16 18:44:39.956604	229.1	47.6	-80.8	0.0
2025-01-16 18:44:41.076455	229.7	47.7	-80.9	0.0
2025-01-16 18:44:42.197001	230.3	47.9	-81.0	0.0
2025-01-16 18:44:43.319245	230.9	48.1	-80.9	0.0
2025-01-16 18:44:44.438704	231.5	48.3	-81.4	0.0
2025-01-16 18:44:45.560691	232.1	48.4	-80.8	0.0
2025-01-16 18:44:46.682255	232.7	48.6	-80.7	0.0
2025-01-16 18:44:47.802340	233.3	48.8	-81.2	0.0
2025-01-16 18:44:48.922026	234.0	48.9	-81.2	0.0
2025-01-16 18:44:50.041710	234.6	49.1	-80.7	0.0
2025-01-16 18:44:51.164838	235.2	49.2	-80.6	0.0
2025-01-16 18:44:52.287275	235.9	49.4	-80.6	0.0
2025-01-16 18:44:53.409440	236.5	49.5	-80.7	0.0
2025-01-16 18:44:54.529927	237.2	49.7	-80.7	0.0
2025-01-16 18:44:55.649948	237.9	49.8	-80.7	0.0
2025-01-16 18:44:56.771191	238.5	50.0	-80.8	0.0
2025-01-16 18:44:57.892125	239.2	50.1	-80.7	0.0
2025-01-16 18:44:59.013994	239.9	50.2	-80.6	0.0
2025-01-16 18:45:00.135293	240.6	50.4	-80.5	0.0
2025-01-16 18:45:01.257309	241.3	50.5	-80.5	0.0
2025-01-16 18:45:02.380533	242.0	50.6	-80.3	0.0
2025-01-16 18:45:03.500262	242.7	50.7	-80.5	0.0
2025-01-16 18:45:04.620930	243.4	50.8	-80.7	0.0
2025-01-16 18:45:05.740795	244.1	50.9	-80.3	0.0
2025-01-16 18:45:06.861019	244.8	51.0	-80.4	0.0
2025-01-16 18:45:07.981247	245.6	51.1	-80.9	0.0
2025-01-16 18:45:09.104482	246.3	51.2	-81.2	0.0
2025-01-16 18:45:10.225713	247.0	51.3	-80.4	0.0
2025-01-16 18:45:11.345193	247.8	51.4	-81.0	0.0
2025-01-16 18:45:12.465366	248.5	51.5	-81.0	0.0
2025-01-16 18:45:13.586492	249.2	51.5	-81.1	0.0
2025-01-16 18:45:14.707225	250.0	51.6	-81.1	0.0
2025-01-16 18:45:15.830097	250.8	51.7	-81.1	0.0
2025-01-16 18:45:16.948994	251.5	51.7	-81.2	0.0
2025-01-16 18:45:18.069661	252.3	51.8	-81.5	0.0
2025-01-16 18:45:19.190269	253.0	51.8	-81.5	0.0
2025-01-16 18:45:20.311598	253.8	51.9	-81.3	0.0
2025-01-16 18:45:21.432063	254.6	51.9	-81.3	0.0
2025-01-16 18:45:22.550725	255.3	51.9	-81.1	0.0
2025-01-16 18:45:23.670410	256.1	52.0	-81.5	0.0
2025-01-16 18:45:24.793176	256.9	52.0	-81.6	0.0
2025-01-16 18:45:25.914303	257.6	52.0	-81.3	0.0
2025-01-16 18:45:27.037293	258.4	52.0	-80.9	0.0
2025-01-16 18:45:28.159638	259.2	52.0	-81.7	0.0
2025-01-16 18:45:29.281329	259.9	52.0	-81.3	0.0
2025-01-16 18:45:30.403189	260.7	52.0	-80.7	0.0
2025-01-16 18:45:31.525176	261.5	52.0	-81.0	0.0
2025-01-16 18:45:32.646755	262.3	52.0	-81.4	0.0
2025-01-16 18:45:33.768263	263.0	52.0	-81.2	0.0
2025-01-16 18:45:34.886899	263.8	51.9	-80.8	0.0
2025-01-16 18:45:36.008046	264.6	51.9	-81.9	0.0
2025-01-16 18:45:37.129500	265.3	51.9	-81.5	0.0
2025-01-16 18:45:38.248967	266.1	51.8	-81.8	0.0
2025-01-16 18:45:39.370377	266.9	51.8	-82.1	0.0
2025-01-16 18:45:40.490985	267.6	51.7	-81.3	0.0
2025-01-16 18:45:41.610317	268.4	51.7	-82.2	0.0
2025-01-16 18:45:42.734590	269.1	51.6	-81.7	0.0
2025-01-16 18:45:43.854031	269.9	51.6	-82.1	0.0
2025-01-16 18:45:44.974367	270.6	51.5	-82.1	0.0
2025-01-16 18:45:46.095498	271.4	51.4	-81.8	0.0
2025-01-16 18:45:47.216279	272.1	51.3	-82.0	0.0
2025-01-16 18:45:48.337646	272.8	51.2	-81.4	0.0
2025-01-16 18:45:49.458670	273.6	51.2	-81.5	0.0
2025-01-16 18:45:50.580386	274.3	51.1	-81.5	0.0
2025-01-16 18:45:51.702455	275.0	51.0	-81.4	0.0
2025-01-16 18:45:52.822609	275.7	50.9	-81.4	0.0
2025-01-16 18:45:53.943400	276.4	50.7	-81.7	0.0
2025-01-16 18:45:55.065774	277.1	50.6	-81.3	0.0
2025-01-16 18:45:56.186875	277.9	50.5	-81.0	0.0
2025-01-16 18:45:57.307260	278.5	50.4	-81.3	0.0
2025-01-16 18:45:58.429306	279.2	50.3	-80.8	0.0
2025-01-16 18:45:59.552792	279.9	50.1	-81.4	0.0
2025-01-16 18:46:00.674042	280.6	50.0	-81.3	0.0
2025-01-16 18:46:01.796126	281.3	49.9	-80.9	0.0
2025-01-16 18:46:02.916423	281.9	49.7	-81.2	0.0
2025-01-16 18:46:04.038105	282.6	49.6	-81.3	0.0
2025-01-16 18:46:05.159852	283.3	49.4	-81.3	0.0
2025-01-16 18:46:06.279697	283.9	49.3	-81.0	0.0
2025-01-16 18:46:07.401601	284.5	49.1	-81.4	0.0
2025-01-16 18:46:08.521940	285.2	49.0	-81.3	0.0
2025-01-16 18:46:09.642220	285.8	48.8	-81.4	0.0
2025-01-16 18:46:10.764725	286.4	48.7	-81.3	0.0
2025-01-16 18:46:11.883845	287.0	48.5	-81.4	0.0
2025-01-16 18:46:13.006162	287.7	48.3	-81.4	0.0
2025-01-16 18:46:14.126602	288.3	48.2	-81.2	0.0
2025-01-16 18:46:15.245804	288.8	48.0	-81.6	0.0
2025-01-16 18:46:16.368516	289.4	47.8	-81.3	0.0
2025-01-16 18:46:17.490988	290.0	47.6	-81.7	0.0
2025-01-16 18:46:18.610275	290.6	47.5	-81.6	0.0
2025-01-16 18:46:19.733039	291.2	47.3	-81.8	0.0
2025-01-16 18:46:20.854870	291.7	47.1	-81.8	0.0
2025-01-16 18:46:21.975299	292.3	46.9	-81.8	0.0
2025-01-16 18:46:23.094167	292.8	46.7	-82.1	0.0
2025-01-16 18:46:24.213166	293.4	46.5	-82.0	0.0
2025-01-16 18:46:25.334246	293.9	46.3	-82.2	0.0
2025-01-16 18:46:26.456042	294.4	46.1	-82.4	0.0
2025-01-16 18:46:27.575818	295.0	45.9	-82.3	0.0
2025-01-16 18:46:28.697518	295.5	45.7	-82.5	0.0
2025-01-16 18:46:29.817120	296.0	45.5	-82.2	0.0
2025-01-16 18:46:30.937551	296.5	45.3	-81.9	0.0
2025-01-16 18:46:32.057380	297.0	45.1	-82.0	0.0
2025-01-16 18:46:33.178790	297.5	44.9	-82.1	0.0
2025-01-16 18:46:34.300451	298.0	44.7	-82.0	0.0
2025-01-16 18:46:35.422002	298.4	44.5	-82.1	0.0
2025-01-16 18:46:36.544101	298.9	44.3	-81.9	0.0
2025-01-16 18:46:37.666518	299.4	44.1	-82.0	0.0
2025-01-16 18:46:38.789066	299.8	43.9	-82.1	0.0
2025-01-16 18:46:39.910516	300.3	43.7	-81.9	0.0
2025-01-16 18:46:41.033117	300.7	43.5	-81.9	0.0
2025-01-16 18:46:42.155112	301.2	43.3	-81.8	0.0
2025-01-16 18:46:43.274510	301.6	43.0	-81.7	0.0
2025-01-16 18:46:44.396889	302.1	42.8	-82.1	0.0
2025-01-16 18:46:45.520320	302.5	42.6	-81.6	0.0
2025-01-16 18:46:46.640891	302.9	42.4	-82.0	0.0
2025-01-16 18:46:47.760738	303.3	42.2	-81.6	0.0
2025-01-16 18:46:48.882471	303.7	42.0	-82.0	0.0
2025-01-16 18:46:50.004364	304.1	41.8	-81.7	0.0
2025-01-16 18:46:51.127478	304.5	41.6	-81.8	0.0
2025-01-16 18:46:52.248616	304.9	41.3	-81.9	0.0
2025-01-16 18:46:53.369066	305.3	41.1	-82.2	0.0
2025-01-16 18:46:54.490798	305.7	40.9	-82.0	0.0
2025-01-16 18:46:55.611657	306.1	40.7	-82.0	0.0
2025-01-16 18:46:56.733482	306.4	40.5	-81.9	0.0
2025-01-16 18:46:57.855602	306.8	40.3	-81.7	0.0
2025-01-16 18:46:58.975155	307.2	40.0	-82.1	0.0
2025-01-16 18:47:00.097496	307.5	39.8	-82.0	0.0
2025-01-16 18:47:01.216949	307.9	39.6	-82.0	0.0
2025-01-16 18:47:02.340089	308.2	39.4	-81.3	0.0
2025-01-16 18:47:03.461168	308.6	39.2	-81.4	0.0
2025-01-16 18:47:04.581891	308.9	39.0	-82.0	0.0
2025-01-16 18:47:05.701221	309.3	38.8	-82.0	0.0
2025-01-16 18:47:06.824481	309.6	38.5	-81.4	0.0
2025-01-16 18:47:07.945954	309.9	38.3	-81.8	0.0
2025-01-16 18:47:09.066691	310.2	38.1	-81.7	0.0
2025-01-16 18:47:10.187814	310.6	37.9	-81.4	0.0
2025-01-16 18:47:11.309016	310.9	37.7	-81.6	0.0
2025-01-16 18:47:12.430237	311.2	37.5	-81.7	0.0
2025-01-16 18:47:13.549960	311.5	37.3	-81.9	0.0
2025-01-16 18:47:14.673509	311.8	37.1	-81.6	0.0
2025-01-16 18:47:15.796807	312.1	36.8	-81.5	0.0
2025-01-16 18:47:16.916883	312.4	36.6	-81.5	0.0
2025-01-16 18:47:18.036309	312.7	36.4	-81.3	0.0
2025-01-16 18:47:19.158700	313.0	36.2	-81.6	0.0
2025-01-16 18:47:20.279351	313.3	36.0	-82.0	0.0
2025-01-16 18:47:21.402049	313.5	35.8	-81.7	0.0
2025-01-16 18:47:22.525256	313.8	35.6	-81.2	0.0
2025-01-16 18:47:23.646757	314.1	35.4	-81.7	0.0
2025-01-16 18:47:24.766923	314.4	35.2	-81.6	0.0
2025-01-16 18:47:25.888039	314.6	35.0	-81.7	0.0
2025-01-16 18:47:27.010515	314.9	34.8	-81.9	0.0
2025-01-16 18:47:28.132977	315.2	34.6	-81.7	0.0
2025-01-16 18:47:29.253951	315.4	34.4	-81.9	0.0
2025-01-16 18:47:30.378384	315.7	34.2	-82.0	0.0
2025-01-16 18:47:31.500298	315.9	34.0	-81.7	0.0
2025-01-16 18:47:32.622243	316.2	33.8	-82.0	0.0
2025-01-16 18:47:33.741183	316.4	33.6	-81.9	0.0
2025-01-16 18:47:34.862842	316.7	33.4	-81.4	0.0
2025-01-16 18:47:35.985751	316.9	33.2	-81.6	0.0
2025-01-16 18:47:37.107972	317.1	33.0	-81.7	0.0
2025-01-16 18:47:38.228798	317.4	32.8	-81.7	0.0
2025-01-16 18:47:39.348164	317.6	32.6	-81.6	0.0
2025-01-16 18:47:40.470767	317.8	32.4	-82.1	0.0
2025-01-16 18:47:41.593278	318.1	32.2	-81.8	0.0
2025-01-16 18:47:42.711459	318.3	32.0	-81.4	0.0
2025-01-16 18:47:43.833687	318.5	31.8	-81.6	0.0
2025-01-16 18:47:44.957581	318.7	31.6	-81.9	0.0
2025-01-16 18:47:46.078810	318.9	31.4	-81.7	0.0
2025-01-16 18:47:47.198731	319.1	31.2	-81.4	0.0
2025-01-16 18:47:48.321043	319.4	31.0	-82.0	0.0
2025-01-16 18:47:49.442934	319.6	30.8	-81.9	0.0
2025-01-16 18:47:50.564205	319.8	30.6	-81.6	0.0
2025-01-16 18:47:51.686901	320.0	30.5	-81.6	0.0
2025-01-16 18:47:52.809064	320.2	30.3	-81.6	0.0
2025-01-16 18:47:53.931572	320.4	30.1	-81.8	0.0
2025-01-16 18:47:55.053586	320.6	29.9	-81.8	0.0
2025-01-16 18:47:56.173317	320.8	29.7	-81.5	0.0
2025-01-16 18:47:57.295311	321.0	29.5	-81.7	0.0
2025-01-16 18:47:58.415538	321.1	29.3	-81.9	0.0
2025-01-16 18:47:59.536497	321.3	29.2	-82.1	0.0
2025-01-16 18:48:00.657102	321.5	29.0	-81.8	0.0
2025-01-16 18:48:01.777468	321.7	28.8	-81.9	0.0
2025-01-16 18:48:02.898916	321.9	28.6	-81.6	0.0
2025-01-16 18:48:04.019730	322.1	28.5	-82.3	0.0
2025-01-16 18:48:05.140398	322.2	28.3	-81.5	0.0
2025-01-16 18:48:06.261471	322.4	28.1	-81.6	0.0
2025-01-16 18:48:07.381424	322.6	27.9	-81.8	0.0
2025-01-16 18:48:08.502758	322.8	27.7	-81.9	0.0
2025-01-16 18:48:09.623899	322.9	27.6	-81.8	0.0
2025-01-16 18:48:10.745976	323.1	27.4	-81.5	0.0
2025-01-16 18:48:11.868081	323.3	27.2	-82.1	0.0
2025-01-16 18:48:12.988805	323.4	27.1	-82.4	0.0
2025-01-16 18:48:14.112240	323.6	26.9	-81.7	0.0
2025-01-16 18:48:15.232541	323.8	26.7	-81.9	0.0
2025-01-16 18:48:16.354658	323.9	26.5	-81.9	0.0
2025-01-16 18:48:17.475194	324.1	26.4	-81.8	0.0
2025-01-16 18:48:18.597464	324.2	26.2	-81.7	0.0
2025-01-16 18:48:19.718110	324.4	26.0	-81.6	0.0
2025-01-16 18:48:20.839318	324.6	25.9	-81.7	0.0
2025-01-16 18:48:21.962071	324.7	25.7	-81.1	0.0
2025-01-16 18:48:23.082194	324.9	25.6	-82.0	0.0
2025-01-16 18:48:24.202891	325.0	25.4	-82.0	0.0
2025-01-16 18:48:25.325133	325.2	25.2	-81.9	0.0
2025-01-16 18:48:26.446359	325.3	25.1	-81.7	0.0
2025-01-16 18:48:27.568668	325.4	24.9	-81.9	0.0
2025-01-16 18:48:28.690770	325.6	24.7	-82.0	0.0
2025-01-16 18:48:29.811967	325.7	24.6	-82.1	0.0
2025-01-16 18:48:30.933410	325.9	24.4	-81.9	0.0
2025-01-16 18:48:32.054919	326.0	24.3	-82.0	0.0
2025-01-16 18:48:33.174691	326.1	24.1	-81.9	0.0
2025-01-16 18:48:34.296943	326.3	24.0	-80.9	0.0
2025-01-16 18:48:35.418596	326.4	23.8	-81.3	0.0
2025-01-16 18:48:36.538978	326.6	23.7	-82.0	0.0
2025-01-16 18:48:37.664092	326.7	23.5	-82.0	0.0
2025-01-16 18:48:38.786479	326.8	23.3	-81.5	0.0
2025-01-16 18:48:39.907148	327.0	23.2	-81.6	0.0
2025-01-16 18:48:41.029680	327.1	23.0	-82.2	0.0
2025-01-16 18:48:42.153139	327.2	22.9	-81.8	0.0
2025-01-16 18:48:43.275414	327.3	22.7	-82.1	0.0
2025-01-16 18:48:44.396182	327.5	22.6	-82.0	0.0
2025-01-16 18:48:45.517300	327.6	22.4	-82.0	0.0
2025-01-16 18:48:46.639425	327.7	22.3	-82.0	0.0
2025-01-16 18:48:47.761059	327.8	22.1	-82.2	0.0
2025-01-16 18:48:48.880602	328.0	22.0	-82.2	0.0
2025-01-16 18:48:50.003642	328.1	21.9	-81.8	0.0
2025-01-16 18:48:51.125437	328.2	21.7	-82.3	0.0
2025-01-16 18:48:52.246227	328.3	21.6	-81.7	0.0
2025-01-16 18:48:53.370441	328.4	21.4	-81.6	0.0
2025-01-16 18:48:54.489733	328.5	21.3	-81.6	0.0
2025-01-16 18:48:55.608379	328.7	21.1	-81.6	0.0
2025-01-16 18:48:56.730187	328.8	21.0	-81.3	0.0
2025-01-16 18:48:57.853542	328.9	20.9	-81.6	0.0
2025-01-16 18:48:58.975606	329.0	20.7	-81.4	0.0
2025-01-16 18:49:00.096417	329.1	20.6	-81.9	0.0
2025-01-16 18:49:01.217140	329.2	20.4	-81.7	0.0
2025-01-16 18:49:02.338219	329.3	20.3	-82.1	0.0
2025-01-16 18:49:03.459207	329.4	20.2	-81.9	0.0
2025-01-16 18:49:04.578919	329.5	20.0	-82.0	0.0
2025-01-16 18:49:05.699925	329.6	19.9	-81.9	0.0
2025-01-16 18:49:06.823736	329.8	19.8	-82.2	0.0
2025-01-16 18:49:07.945294	329.9	19.6	-81.9	0.0
2025-01-16 18:49:09.065935	330.0	19.5	-82.1	0.0
2025-01-16 18:49:10.185358	330.1	19.4	-82.3	0.0
2025-01-16 18:49:11.306346	330.2	19.2	-82.5	0.0
2025-01-16 18:49:12.424476	330.3	19.1	-82.1	0.0
2025-01-16 18:49:13.543451	330.4	19.0	-82.0	0.0
2025-01-16 18:49:14.664403	330.5	18.8	-81.9	0.0
2025-01-16 18:49:15.783463	330.6	18.7	-81.5	0.0
2025-01-16 18:49:16.903831	330.7	18.6	-81.8	0.0
2025-01-16 18:49:18.024890	330.8	18.4	-82.1	0.0
2025-01-16 18:49:19.146630	330.9	18.3	-82.0	0.0
2025-01-16 18:49:20.267407	330.9	18.2	-81.8	0.0
2025-01-16 18:49:21.386874	331.0	18.1	-82.2	0.0
2025-01-16 18:49:22.508759	331.1	17.9	-81.9	0.0
2025-01-16 18:49:23.631279	331.2	17.8	-81.6	0.0
2025-01-16 18:49:24.753415	331.3	17.7	-81.8	0.0
2025-01-16 18:49:25.875569	331.4	17.6	-82.1	0.0
2025-01-16 18:49:26.995663	331.5	17.4	-82.1	0.0
2025-01-16 18:49:28.117420	331.6	17.3	-82.1	0.0
2025-01-16 18:49:29.238742	331.7	17.2	-82.1	0.0
2025-01-16 18:49:30.361940	331.8	17.1	-81.6	0.0
2025-01-16 18:49:31.482309	331.9	16.9	-81.7	0.0
2025-01-16 18:49:32.604842	332.0	16.8	-82.0	0.0
2025-01-16 18:49:33.725163	332.0	16.7	-82.1	0.0
2025-01-16 18:49:34.848013	332.1	16.6	-81.9	0.0
2025-01-16 18:49:35.967600	332.2	16.5	-81.7	0.0
2025-01-16 18:49:37.088553	332.3	16.3	-81.9	0.0
2025-01-16 18:49:38.210389	332.4	16.2	-81.9	0.0
2025-01-16 18:49:39.331018	332.5	16.1	-82.0	0.0
2025-01-16 18:49:40.452442	332.5	16.0	-81.7	0.0
2025-01-16 18:49:41.575381	332.6	15.9	-81.6	0.0
2025-01-16 18:49:42.697166	332.7	15.8	-82.0	0.0
2025-01-16 18:49:43.818876	332.8	15.6	-81.5	0.0
2025-01-16 18:49:44.939951	332.9	15.5	-81.9	0.0
2025-01-16 18:49:46.064249	333.0	15.4	-81.8	0.0
2025-01-16 18:49:47.185435	333.0	15.3	-82.1	0.0
2025-01-16 18:49:48.306426	333.1	15.2	-81.5	0.0
2025-01-16 18:49:49.425903	333.2	15.1	-81.8	0.0
2025-01-16 18:49:50.543872	333.3	15.0	-81.6	0.0
2025-01-16 18:49:51.665094	333.3	14.8	-81.8	0.0
2025-01-16 18:49:52.785728	333.4	14.7	-81.9	0.0
2025-01-16 18:49:53.906962	333.5	14.6	-81.8	0.0
2025-01-16 18:49:55.026898	333.6	14.5	-82.2	0.0
2025-01-16 18:49:56.150448	333.6	14.4	-82.0	0.0
2025-01-16 18:49:57.271495	333.7	14.3	-82.0	0.0
2025-01-16 18:49:58.393612	333.8	14.2	-82.1	0.0
2025-01-16 18:49:59.513490	333.9	14.1	-81.9	0.0
2025-01-16 18:50:00.633688	333.9	14.0	-82.2	0.0
2025-01-16 18:50:01.753977	334.0	13.8	-82.2	0.0
2025-01-16 18:50:02.876326	334.1	13.7	-82.1	0.0
2025-01-16 18:50:03.998841	334.2	13.6	-81.9	0.0
2025-01-16 18:50:05.120322	334.2	13.5	-82.0	0.0
2025-01-16 18:50:06.242971	334.3	13.4	-82.3	0.0
2025-01-16 18:50:07.363075	334.4	13.3	-82.2	0.0
2025-01-16 18:50:08.483719	334.4	13.2	-82.0	0.0
2025-01-16 18:50:09.604806	334.5	13.1	-82.1	0.0
2025-01-16 18:50:10.726918	334.6	13.0	-82.1	0.0
2025-01-16 18:50:11.848478	334.6	12.9	-82.0	0.0
2025-01-16 18:50:12.970140	334.7	12.8	-81.7	0.0
2025-01-16 18:50:14.091647	334.8	12.7	-81.5	0.0
2025-01-16 18:50:15.213466	334.8	12.6	-82.1	0.0
2025-01-16 18:50:16.335320	334.9	12.5	-81.9	0.0
2025-01-16 18:50:17.456184	335.0	12.4	-81.5	0.0
2025-01-16 18:50:18.576667	335.0	12.3	-81.7	0.0
2025-01-16 18:50:19.698416	335.1	12.2	-81.6	0.0
2025-01-16 18:50:20.820812	335.2	12.1	-81.8	0.0
2025-01-16 18:50:21.941864	335.2	12.0	-81.6	0.0
2025-01-16 18:50:23.063825	335.3	11.9	-81.8	0.0
2025-01-16 18:50:24.183477	335.4	11.8	-82.2	0.0
2025-01-16 18:50:25.303954	335.4	11.7	-82.0	0.0
2025-01-16 18:50:26.425436	335.5	11.6	-81.9	0.0
2025-01-16 18:50:27.545060	335.6	11.5	-82.1	0.0
2025-01-16 18:50:28.665314	335.6	11.4	-81.9	0.0
2025-01-16 18:50:29.782864	335.7	11.3	-81.7	0.0
2025-01-16 18:50:30.903997	335.7	11.2	-81.8	0.0
2025-01-16 18:50:32.025757	335.8	11.1	-82.0	0.0
2025-01-16 18:50:33.144245	335.9	11.0	-81.9	0.0
2025-01-16 18:50:34.263874	335.9	10.9	-81.6	0.0
2025-01-16 18:50:35.386421	336.0	10.8	-82.0	0.0
2025-01-16 18:50:36.505913	336.0	10.7	-81.9	0.0
2025-01-16 18:50:37.626863	336.1	10.6	-82.0	0.0
2025-01-16 18:50:38.748999	336.2	10.5	-81.4	0.0
2025-01-16 18:50:39.869110	336.2	10.4	-81.7	0.0
2025-01-16 18:50:40.991404	336.3	10.3	-81.8	0.0
2025-01-16 18:50:42.113916	336.3	10.2	-81.7	0.0
2025-01-16 18:50:43.234382	336.4	10.1	-82.2	0.0
#Closed at: 2025-01-16 18:40:10.422507