passes_logs/2025/01/16/planumMaritime01/planumMaritime01__20250116_205159_NOAA_18_rec.log

#Pass ID: 20250116_205159_NOAA 18
#Satellite: NOAA 18
#Configuration: NOAA 18
#Start time: 2025-01-16 20:52:04.850346

#LorettStation: 1.0.0 05.05.2024
#Station: planumMaritime01
#Location: 37.49445 lon 55.92918 lat
#TLE: 1 28654U 05018A   25016.15379782  .00000321  00000+0  19399-3 0  9994
#TLE: 2 28654  98.8565  97.1968 0014416 175.9109 184.2183 14.13487365 13346

#Time	Az	El	Level	SNR
2025-01-16 20:52:07.011007	220.6	10.1	-81.1	0.0
2025-01-16 20:52:08.131763	220.7	10.2	-80.8	0.0
2025-01-16 20:52:09.254508	220.9	10.3	-81.3	0.0
2025-01-16 20:52:10.377530	221.0	10.4	-80.8	0.0
2025-01-16 20:52:11.499395	221.1	10.4	-80.4	0.0
2025-01-16 20:52:12.623111	221.3	10.5	-80.7	0.0
2025-01-16 20:52:13.745297	221.4	10.6	-80.5	0.0
2025-01-16 20:52:14.869076	221.6	10.6	-81.3	0.0
2025-01-16 20:52:15.988388	221.7	10.7	-81.3	0.0
2025-01-16 20:52:17.110135	221.8	10.8	-81.3	0.0
2025-01-16 20:52:18.230236	222.0	10.9	-81.2	0.0
2025-01-16 20:52:19.350735	222.1	10.9	-81.4	0.0
2025-01-16 20:52:20.472393	222.3	11.0	-81.6	0.0
2025-01-16 20:52:21.593259	222.4	11.1	-81.3	0.0
2025-01-16 20:52:22.716630	222.5	11.1	-81.5	0.0
2025-01-16 20:52:23.835549	222.7	11.2	-81.4	0.0
2025-01-16 20:52:24.954845	222.8	11.3	-81.6	0.0
2025-01-16 20:52:26.076177	223.0	11.4	-81.4	0.0
2025-01-16 20:52:27.197353	223.1	11.4	-81.3	0.0
2025-01-16 20:52:28.319121	223.3	11.5	-81.4	0.0
2025-01-16 20:52:29.437922	223.4	11.6	-81.1	0.0
2025-01-16 20:52:30.557889	223.6	11.6	-81.4	0.0
2025-01-16 20:52:31.679778	223.7	11.7	-81.1	0.0
2025-01-16 20:52:32.799985	223.9	11.8	-81.4	0.0
2025-01-16 20:52:33.923088	224.0	11.9	-81.2	0.0
2025-01-16 20:52:35.044024	224.2	11.9	-81.5	0.0
2025-01-16 20:52:36.166066	224.3	12.0	-81.4	0.0
2025-01-16 20:52:37.289111	224.5	12.1	-81.0	0.0
2025-01-16 20:52:38.409228	224.6	12.2	-81.3	0.0
2025-01-16 20:52:39.534514	224.8	12.2	-81.5	0.0
2025-01-16 20:52:40.653109	224.9	12.3	-81.4	0.0
2025-01-16 20:52:41.772821	225.1	12.4	-81.2	0.0
2025-01-16 20:52:42.890695	225.2	12.4	-81.0	0.0
2025-01-16 20:52:44.011697	225.4	12.5	-80.8	0.0
2025-01-16 20:52:45.133743	225.6	12.6	-81.5	0.0
2025-01-16 20:52:46.254757	225.7	12.7	-81.5	0.0
2025-01-16 20:52:47.377003	225.9	12.7	-81.2	0.0
2025-01-16 20:52:48.497857	226.0	12.8	-81.2	0.0
2025-01-16 20:52:49.619154	226.2	12.9	-81.3	0.0
2025-01-16 20:52:50.740001	226.4	13.0	-81.2	0.0
2025-01-16 20:52:51.860889	226.5	13.0	-80.6	0.0
2025-01-16 20:52:52.985514	226.7	13.1	-81.6	0.0
2025-01-16 20:52:54.105094	226.8	13.2	-81.4	0.0
2025-01-16 20:52:55.225974	227.0	13.2	-81.3	0.0
2025-01-16 20:52:56.347203	227.2	13.3	-81.6	0.0
2025-01-16 20:52:57.469679	227.3	13.4	-81.7	0.0
2025-01-16 20:52:58.589085	227.5	13.5	-81.7	0.0
2025-01-16 20:52:59.712867	227.7	13.5	-81.4	0.0
2025-01-16 20:53:00.832697	227.8	13.6	-80.3	0.0
2025-01-16 20:53:01.952886	228.0	13.7	-81.3	0.0
2025-01-16 20:53:03.074570	228.2	13.8	-81.4	0.0
2025-01-16 20:53:04.195635	228.3	13.8	-81.7	0.0
2025-01-16 20:53:05.317877	228.5	13.9	-81.7	0.0
2025-01-16 20:53:06.437832	228.7	14.0	-81.5	0.0
2025-01-16 20:53:07.558501	228.9	14.0	-81.8	0.0
2025-01-16 20:53:08.684442	229.0	14.1	-80.9	0.0
2025-01-16 20:53:09.804882	229.2	14.2	-81.7	0.0
2025-01-16 20:53:10.924741	229.4	14.3	-81.4	0.0
2025-01-16 20:53:12.047360	229.6	14.3	-81.6	0.0
2025-01-16 20:53:13.168735	229.7	14.4	-82.0	0.0
2025-01-16 20:53:14.290507	229.9	14.5	-81.7	0.0
2025-01-16 20:53:15.411561	230.1	14.6	-81.5	0.0
2025-01-16 20:53:16.531964	230.3	14.6	-82.0	0.0
2025-01-16 20:53:17.652478	230.5	14.7	-81.6	0.0
2025-01-16 20:53:18.772026	230.6	14.8	-81.6	0.0
2025-01-16 20:53:19.896456	230.8	14.8	-81.7	0.0
2025-01-16 20:53:21.018844	231.0	14.9	-81.9	0.0
2025-01-16 20:53:22.138854	231.2	15.0	-81.5	0.0
2025-01-16 20:53:23.257986	231.4	15.1	-81.5	0.0
2025-01-16 20:53:24.377568	231.6	15.1	-81.6	0.0
2025-01-16 20:53:25.499654	231.7	15.2	-80.9	0.0
2025-01-16 20:53:26.620278	231.9	15.3	-81.5	0.0
2025-01-16 20:53:27.742689	232.1	15.3	-81.6	0.0
2025-01-16 20:53:28.864137	232.3	15.4	-81.0	0.0
2025-01-16 20:53:29.985636	232.5	15.5	-81.6	0.0
2025-01-16 20:53:31.108937	232.7	15.6	-81.5	0.0
2025-01-16 20:53:32.231695	232.9	15.6	-82.0	0.0
2025-01-16 20:53:33.354675	233.1	15.7	-81.4	0.0
2025-01-16 20:53:34.478056	233.3	15.8	-81.9	0.0
2025-01-16 20:53:35.597293	233.5	15.8	-81.5	0.0
2025-01-16 20:53:36.719747	233.7	15.9	-82.0	0.0
2025-01-16 20:53:37.840407	233.8	16.0	-81.4	0.0
2025-01-16 20:53:38.961252	234.0	16.1	-81.8	0.0
2025-01-16 20:53:40.082592	234.2	16.1	-82.0	0.0
2025-01-16 20:53:41.205868	234.4	16.2	-81.9	0.0
2025-01-16 20:53:42.327275	234.6	16.3	-82.0	0.0
2025-01-16 20:53:43.450137	234.8	16.3	-81.9	0.0
2025-01-16 20:53:44.572511	235.0	16.4	-81.9	0.0
2025-01-16 20:53:45.693069	235.2	16.5	-81.5	0.0
2025-01-16 20:53:46.815483	235.4	16.6	-81.8	0.0
2025-01-16 20:53:47.938736	235.7	16.6	-81.7	0.0
2025-01-16 20:53:49.060116	235.9	16.7	-81.9	0.0
2025-01-16 20:53:50.180111	236.1	16.8	-81.9	0.0
2025-01-16 20:53:51.302849	236.3	16.8	-81.5	0.0
2025-01-16 20:53:52.423668	236.5	16.9	-81.7	0.0
2025-01-16 20:53:53.547946	236.7	17.0	-81.6	0.0
2025-01-16 20:53:54.669339	236.9	17.0	-81.7	0.0
2025-01-16 20:53:55.791480	237.1	17.1	-81.7	0.0
2025-01-16 20:53:56.912936	237.3	17.2	-81.7	0.0
2025-01-16 20:53:58.034347	237.5	17.2	-81.6	0.0
2025-01-16 20:53:59.156901	237.7	17.3	-81.8	0.0
2025-01-16 20:54:00.278303	238.0	17.4	-81.6	0.0
2025-01-16 20:54:01.398156	238.2	17.4	-81.7	0.0
2025-01-16 20:54:02.519330	238.4	17.5	-81.4	0.0
2025-01-16 20:54:03.641973	238.6	17.6	-81.4	0.0
2025-01-16 20:54:04.761290	238.8	17.6	-81.3	0.0
2025-01-16 20:54:05.883861	239.0	17.7	-81.3	0.0
2025-01-16 20:54:07.003987	239.3	17.8	-81.8	0.0
2025-01-16 20:54:08.125801	239.5	17.8	-81.5	0.0
2025-01-16 20:54:09.247040	239.7	17.9	-81.9	0.0
2025-01-16 20:54:10.366206	239.9	18.0	-81.6	0.0
2025-01-16 20:54:11.488015	240.1	18.0	-82.1	0.0
2025-01-16 20:54:12.609250	240.4	18.1	-81.7	0.0
2025-01-16 20:54:13.729896	240.6	18.2	-81.9	0.0
2025-01-16 20:54:14.852558	240.8	18.2	-81.9	0.0
2025-01-16 20:54:15.974428	241.1	18.3	-81.7	0.0
2025-01-16 20:54:17.094008	241.3	18.4	-81.9	0.0
2025-01-16 20:54:18.218333	241.5	18.4	-81.7	0.0
2025-01-16 20:54:19.339418	241.7	18.5	-81.7	0.0
2025-01-16 20:54:20.463740	242.0	18.6	-81.9	0.0
2025-01-16 20:54:21.586866	242.2	18.6	-81.9	0.0
2025-01-16 20:54:22.709729	242.4	18.7	-81.1	0.0
2025-01-16 20:54:23.831838	242.7	18.7	-81.3	0.0
2025-01-16 20:54:24.953122	242.9	18.8	-81.6	0.0
2025-01-16 20:54:26.074441	243.1	18.9	-81.7	0.0
2025-01-16 20:54:27.194144	243.4	18.9	-80.8	0.0
2025-01-16 20:54:28.313844	243.6	19.0	-80.8	0.0
2025-01-16 20:54:29.432782	243.9	19.1	-81.5	0.0
2025-01-16 20:54:30.552454	244.1	19.1	-81.3	0.0
2025-01-16 20:54:31.673741	244.3	19.2	-81.5	0.0
2025-01-16 20:54:32.796031	244.6	19.2	-81.5	0.0
2025-01-16 20:54:33.918406	244.8	19.3	-81.3	0.0
2025-01-16 20:54:35.040968	245.1	19.3	-81.8	0.0
2025-01-16 20:54:36.160895	245.3	19.4	-81.8	0.0
2025-01-16 20:54:37.283228	245.5	19.5	-81.5	0.0
2025-01-16 20:54:38.402912	245.8	19.5	-81.4	0.0
2025-01-16 20:54:39.523400	246.0	19.6	-82.3	0.0
2025-01-16 20:54:40.644883	246.3	19.6	-81.1	0.0
2025-01-16 20:54:41.767898	246.5	19.7	-82.0	0.0
2025-01-16 20:54:42.889580	246.8	19.8	-82.1	0.0
2025-01-16 20:54:44.009670	247.0	19.8	-82.0	0.0
2025-01-16 20:54:45.131876	247.3	19.9	-82.2	0.0
2025-01-16 20:54:46.253986	247.5	19.9	-82.1	0.0
2025-01-16 20:54:47.375958	247.8	20.0	-81.8	0.0
2025-01-16 20:54:48.496890	248.0	20.0	-82.0	0.0
2025-01-16 20:54:49.617158	248.3	20.1	-82.1	0.0
2025-01-16 20:54:50.740022	248.6	20.1	-82.1	0.0
2025-01-16 20:54:51.859787	248.8	20.2	-81.9	0.0
2025-01-16 20:54:52.982106	249.1	20.2	-81.5	0.0
2025-01-16 20:54:54.101631	249.3	20.3	-82.1	0.0
2025-01-16 20:54:55.223137	249.6	20.3	-82.1	0.0
2025-01-16 20:54:56.347000	249.8	20.4	-82.0	0.0
2025-01-16 20:54:57.470126	250.1	20.4	-82.0	0.0
2025-01-16 20:54:58.591682	250.4	20.5	-82.0	0.0
2025-01-16 20:54:59.715971	250.6	20.5	-82.0	0.0
2025-01-16 20:55:00.837089	250.9	20.6	-82.2	0.0
2025-01-16 20:55:01.957423	251.2	20.6	-82.1	0.0
2025-01-16 20:55:03.078995	251.4	20.7	-81.8	0.0
2025-01-16 20:55:04.199941	251.7	20.7	-81.6	0.0
2025-01-16 20:55:05.321524	251.9	20.8	-81.7	0.0
2025-01-16 20:55:06.441549	252.2	20.8	-81.7	0.0
2025-01-16 20:55:07.563863	252.5	20.9	-81.4	0.0
2025-01-16 20:55:08.685322	252.7	20.9	-81.9	0.0
2025-01-16 20:55:09.808779	253.0	21.0	-81.6	0.0
2025-01-16 20:55:10.927804	253.3	21.0	-81.5	0.0
2025-01-16 20:55:12.048909	253.6	21.0	-81.9	0.0
2025-01-16 20:55:13.169976	253.8	21.1	-81.8	0.0
2025-01-16 20:55:14.290461	254.1	21.1	-81.6	0.0
2025-01-16 20:55:15.412034	254.4	21.2	-81.7	0.0
2025-01-16 20:55:16.535395	254.6	21.2	-81.4	0.0
2025-01-16 20:55:17.658158	254.9	21.3	-81.9	0.0
2025-01-16 20:55:18.779286	255.2	21.3	-81.9	0.0
2025-01-16 20:55:19.900317	255.5	21.3	-82.4	0.0
2025-01-16 20:55:21.020977	255.7	21.4	-82.0	0.0
2025-01-16 20:55:22.141771	256.0	21.4	-82.3	0.0
2025-01-16 20:55:23.263409	256.3	21.5	-82.3	0.0
2025-01-16 20:55:24.384874	256.6	21.5	-82.2	0.0
2025-01-16 20:55:25.505082	256.9	21.5	-82.2	0.0
2025-01-16 20:55:26.625408	257.1	21.6	-82.4	0.0
2025-01-16 20:55:27.748109	257.4	21.6	-82.1	0.0
2025-01-16 20:55:28.868083	257.7	21.6	-82.2	0.0
2025-01-16 20:55:29.990235	258.0	21.7	-81.9	0.0
2025-01-16 20:55:31.114206	258.3	21.7	-81.5	0.0
2025-01-16 20:55:32.235936	258.5	21.7	-81.5	0.0
2025-01-16 20:55:33.356913	258.8	21.8	-81.8	0.0
2025-01-16 20:55:34.478967	259.1	21.8	-81.6	0.0
2025-01-16 20:55:35.601332	259.4	21.8	-82.1	0.0
2025-01-16 20:55:36.723088	259.7	21.9	-81.8	0.0
2025-01-16 20:55:37.845285	260.0	21.9	-82.2	0.0
2025-01-16 20:55:38.964639	260.2	21.9	-81.9	0.0
2025-01-16 20:55:40.087001	260.5	21.9	-82.3	0.0
2025-01-16 20:55:41.207126	260.8	22.0	-82.1	0.0
2025-01-16 20:55:42.329014	261.1	22.0	-82.1	0.0
2025-01-16 20:55:43.450315	261.4	22.0	-81.7	0.0
2025-01-16 20:55:44.572171	261.7	22.0	-81.8	0.0
2025-01-16 20:55:45.693162	262.0	22.1	-82.0	0.0
2025-01-16 20:55:46.815783	262.3	22.1	-82.1	0.0
2025-01-16 20:55:47.936376	262.6	22.1	-82.0	0.0
2025-01-16 20:55:49.056652	262.8	22.1	-82.4	0.0
2025-01-16 20:55:50.176578	263.1	22.2	-82.1	0.0
2025-01-16 20:55:51.296659	263.4	22.2	-82.2	0.0
2025-01-16 20:55:52.418836	263.7	22.2	-82.2	0.0
2025-01-16 20:55:53.540070	264.0	22.2	-82.3	0.0
2025-01-16 20:55:54.660521	264.3	22.2	-82.0	0.0
2025-01-16 20:55:55.782883	264.6	22.2	-81.9	0.0
2025-01-16 20:55:56.905901	264.9	22.3	-81.9	0.0
2025-01-16 20:55:58.024177	265.2	22.3	-82.1	0.0
2025-01-16 20:55:59.146633	265.5	22.3	-82.4	0.0
2025-01-16 20:56:00.271933	265.8	22.3	-81.7	0.0
2025-01-16 20:56:01.394998	266.0	22.3	-82.5	0.0
2025-01-16 20:56:02.515120	266.3	22.3	-82.5	0.0
2025-01-16 20:56:03.637997	266.6	22.3	-82.3	0.0
2025-01-16 20:56:04.760926	266.9	22.4	-82.1	0.0
2025-01-16 20:56:05.882513	267.2	22.4	-82.2	0.0
2025-01-16 20:56:07.004939	267.5	22.4	-82.0	0.0
2025-01-16 20:56:08.127596	267.8	22.4	-82.1	0.0
2025-01-16 20:56:09.249320	268.1	22.4	-81.5	0.0
2025-01-16 20:56:10.372175	268.4	22.4	-82.3	0.0
2025-01-16 20:56:11.493165	268.7	22.4	-82.0	0.0
2025-01-16 20:56:12.613999	269.0	22.4	-81.8	0.0
2025-01-16 20:56:13.735522	269.3	22.4	-82.0	0.0
2025-01-16 20:56:14.856607	269.6	22.4	-81.1	0.0
2025-01-16 20:56:15.979113	269.9	22.4	-81.8	0.0
2025-01-16 20:56:17.102026	270.2	22.4	-82.0	0.0
2025-01-16 20:56:18.222490	270.5	22.4	-81.9	0.0
2025-01-16 20:56:19.344972	270.8	22.4	-82.2	0.0
2025-01-16 20:56:20.466166	271.1	22.4	-81.9	0.0
2025-01-16 20:56:21.588615	271.4	22.4	-81.9	0.0
2025-01-16 20:56:22.709256	271.7	22.4	-81.9	0.0
2025-01-16 20:56:23.828507	271.9	22.4	-82.0	0.0
2025-01-16 20:56:24.950444	272.2	22.4	-81.8	0.0
2025-01-16 20:56:26.072889	272.5	22.4	-80.9	0.0
2025-01-16 20:56:27.194580	272.8	22.4	-81.0	0.0
2025-01-16 20:56:28.315846	273.1	22.4	-81.5	0.0
2025-01-16 20:56:29.436791	273.4	22.4	-82.2	0.0
2025-01-16 20:56:30.558855	273.7	22.4	-82.0	0.0
2025-01-16 20:56:31.681044	274.0	22.4	-82.3	0.0
2025-01-16 20:56:32.802260	274.3	22.4	-82.3	0.0
2025-01-16 20:56:33.922463	274.6	22.4	-82.2	0.0
2025-01-16 20:56:35.042129	274.9	22.4	-82.3	0.0
2025-01-16 20:56:36.163967	275.2	22.4	-82.4	0.0
2025-01-16 20:56:37.284695	275.5	22.4	-82.7	0.0
2025-01-16 20:56:38.403661	275.8	22.3	-82.2	0.0
2025-01-16 20:56:39.524239	276.1	22.3	-81.9	0.0
2025-01-16 20:56:40.644362	276.4	22.3	-82.3	0.0
2025-01-16 20:56:41.766382	276.7	22.3	-82.4	0.0
2025-01-16 20:56:42.886849	276.9	22.3	-82.1	0.0
2025-01-16 20:56:44.007926	277.2	22.3	-81.6	0.0
2025-01-16 20:56:45.130295	277.5	22.3	-82.3	0.0
2025-01-16 20:56:46.252774	277.8	22.2	-82.2	0.0
2025-01-16 20:56:47.376247	278.1	22.2	-81.9	0.0
2025-01-16 20:56:48.496001	278.4	22.2	-81.6	0.0
2025-01-16 20:56:49.619013	278.7	22.2	-82.3	0.0
2025-01-16 20:56:50.740842	279.0	22.2	-81.8	0.0
2025-01-16 20:56:51.860902	279.3	22.1	-81.9	0.0
2025-01-16 20:56:52.983324	279.6	22.1	-82.3	0.0
2025-01-16 20:56:54.104593	279.9	22.1	-82.2	0.0
2025-01-16 20:56:55.223897	280.1	22.1	-82.2	0.0
2025-01-16 20:56:56.345889	280.4	22.1	-81.9	0.0
2025-01-16 20:56:57.468338	280.7	22.0	-81.8	0.0
2025-01-16 20:56:58.591093	281.0	22.0	-81.9	0.0
2025-01-16 20:56:59.711280	281.3	22.0	-81.6	0.0
2025-01-16 20:57:00.832282	281.6	22.0	-82.0	0.0
2025-01-16 20:57:01.954488	281.9	21.9	-82.0	0.0
2025-01-16 20:57:03.075637	282.2	21.9	-81.8	0.0
2025-01-16 20:57:04.195867	282.4	21.9	-82.0	0.0
2025-01-16 20:57:05.319727	282.7	21.8	-82.0	0.0
2025-01-16 20:57:06.442439	283.0	21.8	-81.9	0.0
2025-01-16 20:57:07.564033	283.3	21.8	-81.9	0.0
2025-01-16 20:57:08.687027	283.6	21.8	-82.1	0.0
2025-01-16 20:57:09.809954	283.9	21.7	-82.2	0.0
2025-01-16 20:57:10.932201	284.1	21.7	-82.3	0.0
2025-01-16 20:57:12.053663	284.4	21.7	-82.1	0.0
2025-01-16 20:57:13.176849	284.7	21.6	-82.2	0.0
2025-01-16 20:57:14.298518	285.0	21.6	-82.4	0.0
2025-01-16 20:57:15.419044	285.3	21.6	-81.6	0.0
2025-01-16 20:57:16.538992	285.5	21.5	-82.2	0.0
2025-01-16 20:57:17.659750	285.8	21.5	-82.3	0.0
2025-01-16 20:57:18.783204	286.1	21.4	-82.3	0.0
2025-01-16 20:57:19.907157	286.4	21.4	-82.2	0.0
2025-01-16 20:57:21.027671	286.7	21.4	-82.4	0.0
2025-01-16 20:57:22.148721	286.9	21.3	-82.3	0.0
2025-01-16 20:57:23.272756	287.2	21.3	-82.2	0.0
2025-01-16 20:57:24.393112	287.5	21.2	-82.1	0.0
2025-01-16 20:57:25.515340	287.8	21.2	-82.7	0.0
2025-01-16 20:57:26.637915	288.0	21.2	-82.3	0.0
2025-01-16 20:57:27.761477	288.3	21.1	-82.6	0.0
2025-01-16 20:57:28.884192	288.6	21.1	-82.2	0.0
2025-01-16 20:57:30.004129	288.8	21.0	-82.3	0.0
2025-01-16 20:57:31.124305	289.1	21.0	-82.5	0.0
2025-01-16 20:57:32.245911	289.4	21.0	-82.5	0.0
2025-01-16 20:57:33.365877	289.7	20.9	-82.4	0.0
2025-01-16 20:57:34.485997	289.9	20.9	-82.3	0.0
2025-01-16 20:57:35.609813	290.2	20.8	-82.6	0.0
2025-01-16 20:57:36.730902	290.5	20.8	-82.0	0.0
2025-01-16 20:57:37.851734	290.7	20.7	-81.9	0.0
2025-01-16 20:57:38.972188	291.0	20.7	-82.5	0.0
2025-01-16 20:57:40.093550	291.2	20.6	-82.4	0.0
2025-01-16 20:57:41.213725	291.5	20.6	-82.5	0.0
2025-01-16 20:57:42.334293	291.8	20.5	-82.1	0.0
2025-01-16 20:57:43.455005	292.0	20.5	-82.3	0.0
2025-01-16 20:57:44.576997	292.3	20.4	-82.4	0.0
2025-01-16 20:57:45.698174	292.6	20.4	-82.4	0.0
2025-01-16 20:57:46.821055	292.8	20.3	-82.6	0.0
2025-01-16 20:57:47.941156	293.1	20.3	-82.7	0.0
2025-01-16 20:57:49.059423	293.3	20.2	-82.2	0.0
2025-01-16 20:57:50.179384	293.6	20.2	-82.4	0.0
2025-01-16 20:57:51.301852	293.8	20.1	-82.0	0.0
2025-01-16 20:57:52.423972	294.1	20.1	-82.5	0.0
2025-01-16 20:57:53.544758	294.3	20.0	-82.0	0.0
2025-01-16 20:57:54.666815	294.6	20.0	-82.5	0.0
2025-01-16 20:57:55.788366	294.9	19.9	-82.3	0.0
2025-01-16 20:57:56.910833	295.1	19.9	-82.4	0.0
2025-01-16 20:57:58.034012	295.4	19.8	-82.4	0.0
2025-01-16 20:57:59.154983	295.6	19.7	-82.5	0.0
2025-01-16 20:58:00.275465	295.9	19.7	-81.9	0.0
2025-01-16 20:58:01.397437	296.1	19.6	-82.3	0.0
2025-01-16 20:58:02.519594	296.3	19.6	-82.2	0.0
2025-01-16 20:58:03.641633	296.6	19.5	-82.1	0.0
2025-01-16 20:58:04.762463	296.8	19.5	-82.2	0.0
2025-01-16 20:58:05.882746	297.1	19.4	-82.0	0.0
2025-01-16 20:58:07.001796	297.3	19.3	-82.6	0.0
2025-01-16 20:58:08.123588	297.6	19.3	-82.6	0.0
2025-01-16 20:58:09.246085	297.8	19.2	-81.6	0.0
2025-01-16 20:58:10.366793	298.1	19.2	-82.7	0.0
2025-01-16 20:58:11.488116	298.3	19.1	-82.6	0.0
2025-01-16 20:58:12.607355	298.5	19.0	-82.3	0.0
2025-01-16 20:58:13.728289	298.8	19.0	-82.0	0.0
2025-01-16 20:58:14.848113	299.0	18.9	-82.4	0.0
2025-01-16 20:58:15.970127	299.2	18.9	-82.4	0.0
2025-01-16 20:58:17.091673	299.5	18.8	-81.8	0.0
2025-01-16 20:58:18.212000	299.7	18.7	-82.1	0.0
2025-01-16 20:58:19.333020	299.9	18.7	-82.1	0.0
2025-01-16 20:58:20.452373	300.2	18.6	-82.4	0.0
2025-01-16 20:58:21.573884	300.4	18.6	-82.3	0.0
2025-01-16 20:58:22.693724	300.6	18.5	-82.2	0.0
2025-01-16 20:58:23.816476	300.9	18.4	-82.3	0.0
2025-01-16 20:58:24.936769	301.1	18.4	-82.5	0.0
2025-01-16 20:58:26.057679	301.3	18.3	-82.5	0.0
2025-01-16 20:58:27.180505	301.5	18.2	-82.5	0.0
2025-01-16 20:58:28.300263	301.8	18.2	-82.5	0.0
2025-01-16 20:58:29.421082	302.0	18.1	-82.0	0.0
2025-01-16 20:58:30.542700	302.2	18.0	-82.7	0.0
2025-01-16 20:58:31.662225	302.4	18.0	-82.2	0.0
2025-01-16 20:58:32.782999	302.7	17.9	-82.8	0.0
2025-01-16 20:58:33.905424	302.9	17.8	-82.4	0.0
2025-01-16 20:58:35.026281	303.1	17.8	-82.3	0.0
2025-01-16 20:58:36.148008	303.3	17.7	-82.6	0.0
2025-01-16 20:58:37.270097	303.5	17.6	-82.2	0.0
2025-01-16 20:58:38.393563	303.8	17.6	-82.4	0.0
2025-01-16 20:58:39.516797	304.0	17.5	-82.7	0.0
2025-01-16 20:58:40.639194	304.2	17.4	-82.5	0.0
2025-01-16 20:58:41.758476	304.4	17.4	-82.5	0.0
2025-01-16 20:58:42.880909	304.6	17.3	-82.5	0.0
2025-01-16 20:58:44.000209	304.8	17.2	-82.5	0.0
2025-01-16 20:58:45.118741	305.1	17.2	-82.4	0.0
2025-01-16 20:58:46.241084	305.3	17.1	-82.3	0.0
2025-01-16 20:58:47.360305	305.5	17.0	-82.3	0.0
2025-01-16 20:58:48.482974	305.7	17.0	-82.2	0.0
2025-01-16 20:58:49.603727	305.9	16.9	-82.5	0.0
2025-01-16 20:58:50.725949	306.1	16.8	-82.3	0.0
2025-01-16 20:58:51.845442	306.3	16.8	-82.7	0.0
2025-01-16 20:58:52.965744	306.5	16.7	-82.1	0.0
2025-01-16 20:58:54.085583	306.7	16.6	-82.3	0.0
2025-01-16 20:58:55.206302	306.9	16.6	-82.6	0.0
2025-01-16 20:58:56.326935	307.1	16.5	-82.7	0.0
2025-01-16 20:58:57.450846	307.3	16.4	-82.7	0.0
2025-01-16 20:58:58.572936	307.5	16.3	-82.8	0.0
2025-01-16 20:58:59.695617	307.7	16.3	-82.7	0.0
2025-01-16 20:59:00.816204	307.9	16.2	-82.4	0.0
2025-01-16 20:59:01.936448	308.1	16.1	-82.4	0.0
2025-01-16 20:59:03.055982	308.3	16.1	-82.5	0.0
2025-01-16 20:59:04.178186	308.5	16.0	-82.3	0.0
2025-01-16 20:59:05.301430	308.7	15.9	-82.4	0.0
2025-01-16 20:59:06.423131	308.9	15.9	-82.4	0.0
2025-01-16 20:59:07.545512	309.1	15.8	-82.7	0.0
2025-01-16 20:59:08.667663	309.3	15.7	-82.5	0.0
2025-01-16 20:59:09.787462	309.5	15.6	-82.6	0.0
2025-01-16 20:59:10.906842	309.7	15.6	-82.4	0.0
2025-01-16 20:59:12.026913	309.9	15.5	-82.1	0.0
2025-01-16 20:59:13.147219	310.1	15.4	-82.6	0.0
2025-01-16 20:59:14.269341	310.2	15.4	-82.5	0.0
2025-01-16 20:59:15.390761	310.4	15.3	-82.2	0.0
2025-01-16 20:59:16.514087	310.6	15.2	-82.3	0.0
2025-01-16 20:59:17.634826	310.8	15.1	-82.4	0.0
2025-01-16 20:59:18.757075	311.0	15.1	-82.3	0.0
2025-01-16 20:59:19.880345	311.2	15.0	-82.2	0.0
2025-01-16 20:59:21.002465	311.4	14.9	-82.4	0.0
2025-01-16 20:59:22.125056	311.5	14.9	-82.4	0.0
2025-01-16 20:59:23.245219	311.7	14.8	-81.9	0.0
2025-01-16 20:59:24.367577	311.9	14.7	-81.7	0.0
2025-01-16 20:59:25.487735	312.1	14.6	-82.1	0.0
2025-01-16 20:59:26.609611	312.3	14.6	-82.3	0.0
2025-01-16 20:59:27.728858	312.4	14.5	-82.5	0.0
2025-01-16 20:59:28.850278	312.6	14.4	-82.5	0.0
2025-01-16 20:59:29.972679	312.8	14.4	-82.5	0.0
2025-01-16 20:59:31.093887	313.0	14.3	-82.2	0.0
2025-01-16 20:59:32.213874	313.1	14.2	-82.4	0.0
2025-01-16 20:59:33.334995	313.3	14.1	-82.3	0.0
2025-01-16 20:59:34.455609	313.5	14.1	-82.5	0.0
2025-01-16 20:59:35.576060	313.7	14.0	-82.5	0.0
2025-01-16 20:59:36.698102	313.8	13.9	-82.5	0.0
2025-01-16 20:59:37.819430	314.0	13.8	-82.5	0.0
2025-01-16 20:59:38.939921	314.2	13.8	-82.5	0.0
2025-01-16 20:59:40.060368	314.4	13.7	-82.5	0.0
2025-01-16 20:59:41.184164	314.5	13.6	-82.6	0.0
2025-01-16 20:59:42.303289	314.7	13.6	-82.5	0.0
2025-01-16 20:59:43.421848	314.9	13.5	-82.2	0.0
2025-01-16 20:59:44.541863	315.0	13.4	-82.2	0.0
2025-01-16 20:59:45.660338	315.2	13.3	-82.1	0.0
2025-01-16 20:59:46.783448	315.4	13.3	-82.4	0.0
2025-01-16 20:59:47.904103	315.5	13.2	-82.3	0.0
2025-01-16 20:59:49.024080	315.7	13.1	-82.6	0.0
2025-01-16 20:59:50.145159	315.8	13.0	-82.2	0.0
2025-01-16 20:59:51.263891	316.0	13.0	-81.8	0.0
2025-01-16 20:59:52.384064	316.2	12.9	-81.9	0.0
2025-01-16 20:59:53.503871	316.3	12.8	-81.8	0.0
2025-01-16 20:59:54.626245	316.5	12.8	-81.7	0.0
2025-01-16 20:59:55.750349	316.6	12.7	-82.2	0.0
2025-01-16 20:59:56.871921	316.8	12.6	-82.0	0.0
2025-01-16 20:59:57.994692	317.0	12.5	-81.6	0.0
2025-01-16 20:59:59.117452	317.1	12.5	-82.6	0.0
2025-01-16 21:00:00.240392	317.3	12.4	-82.4	0.0
2025-01-16 21:00:01.361328	317.4	12.3	-82.2	0.0
2025-01-16 21:00:02.481457	317.6	12.3	-81.8	0.0
2025-01-16 21:00:03.602045	317.7	12.2	-82.2	0.0
2025-01-16 21:00:04.722826	317.9	12.1	-82.1	0.0
2025-01-16 21:00:05.845447	318.0	12.0	-82.2	0.0
2025-01-16 21:00:06.965903	318.2	12.0	-82.4	0.0
2025-01-16 21:00:08.088118	318.3	11.9	-82.3	0.0
2025-01-16 21:00:09.209105	318.5	11.8	-82.7	0.0
2025-01-16 21:00:10.329805	318.6	11.7	-82.8	0.0
2025-01-16 21:00:11.451813	318.8	11.7	-82.6	0.0
2025-01-16 21:00:12.574055	318.9	11.6	-82.7	0.0
2025-01-16 21:00:13.694600	319.1	11.5	-82.6	0.0
2025-01-16 21:00:14.816174	319.2	11.5	-82.7	0.0
2025-01-16 21:00:15.936533	319.4	11.4	-82.4	0.0
2025-01-16 21:00:17.057430	319.5	11.3	-82.8	0.0
2025-01-16 21:00:18.176412	319.7	11.2	-82.6	0.0
2025-01-16 21:00:19.297105	319.8	11.2	-82.5	0.0
2025-01-16 21:00:20.418130	320.0	11.1	-82.9	0.0
2025-01-16 21:00:21.539181	320.1	11.0	-82.4	0.0
2025-01-16 21:00:22.660887	320.2	11.0	-82.3	0.0
2025-01-16 21:00:23.782702	320.4	10.9	-82.3	0.0
2025-01-16 21:00:24.905603	320.5	10.8	-82.4	0.0
2025-01-16 21:00:26.026288	320.7	10.7	-82.7	0.0
2025-01-16 21:00:27.149027	320.8	10.7	-82.6	0.0
2025-01-16 21:00:28.269012	320.9	10.6	-82.4	0.0
2025-01-16 21:00:29.390908	321.1	10.5	-82.5	0.0
2025-01-16 21:00:30.511582	321.2	10.5	-82.6	0.0
2025-01-16 21:00:31.632882	321.4	10.4	-82.2	0.0
2025-01-16 21:00:32.753301	321.5	10.3	-82.8	0.0
2025-01-16 21:00:33.875173	321.6	10.2	-82.7	0.0
2025-01-16 21:00:34.996974	321.8	10.2	-82.7	0.0
2025-01-16 21:00:36.120022	321.9	10.1	-82.6	0.0
#Closed at: 2025-01-16 20:51:59.853017