passes_logs/2025/01/16/planumMaritime01/planumMaritime01__20250116_073614_NOAA_18_rec.log

#Pass ID: 20250116_073614_NOAA 18
#Satellite: NOAA 18
#Configuration: NOAA 18
#Start time: 2025-01-16 07:36:19.224174

#LorettStation: 1.0.0 05.05.2024
#Station: planumMaritime01
#Location: 37.49445 lon 55.92918 lat
#TLE: 1 28654U 05018A   25015.16278545  .00000300  00000+0  18295-3 0  9990
#TLE: 2 28654  98.8567  96.2156 0014367 178.7074 181.4138 14.13486503 13201

#Time	Az	El	Level	SNR
2025-01-16 07:36:21.376544	36.4	10.1	-80.3	0.0
2025-01-16 07:36:22.499766	36.5	10.2	-80.4	0.0
2025-01-16 07:36:23.624229	36.7	10.3	-80.3	0.0
2025-01-16 07:36:24.747620	36.8	10.4	-80.0	0.0
2025-01-16 07:36:25.869614	36.9	10.4	-80.7	0.0
2025-01-16 07:36:26.992738	37.0	10.5	-80.5	0.0
2025-01-16 07:36:28.116888	37.2	10.6	-80.5	0.0
2025-01-16 07:36:29.242696	37.3	10.7	-80.6	0.0
2025-01-16 07:36:30.366828	37.4	10.7	-80.7	0.0
2025-01-16 07:36:31.490042	37.6	10.8	-80.7	0.0
2025-01-16 07:36:32.615544	37.7	10.9	-80.6	0.0
2025-01-16 07:36:33.737458	37.8	11.0	-80.4	0.0
2025-01-16 07:36:34.862137	38.0	11.0	-80.6	0.0
2025-01-16 07:36:35.985080	38.1	11.1	-80.5	0.0
2025-01-16 07:36:37.109793	38.3	11.2	-80.5	0.0
2025-01-16 07:36:38.231468	38.4	11.3	-80.8	0.0
2025-01-16 07:36:39.355503	38.5	11.3	-80.4	0.0
2025-01-16 07:36:40.477372	38.7	11.4	-80.6	0.0
2025-01-16 07:36:41.600794	38.8	11.5	-80.7	0.0
2025-01-16 07:36:42.724044	38.9	11.6	-80.4	0.0
2025-01-16 07:36:43.852763	39.1	11.6	-80.7	0.0
2025-01-16 07:36:44.978037	39.2	11.7	-80.6	0.0
2025-01-16 07:36:46.101905	39.4	11.8	-80.5	0.0
2025-01-16 07:36:47.224171	39.5	11.9	-80.5	0.0
2025-01-16 07:36:48.348893	39.7	12.0	-80.7	0.0
2025-01-16 07:36:49.471272	39.8	12.0	-80.8	0.0
2025-01-16 07:36:50.594153	39.9	12.1	-80.8	0.0
2025-01-16 07:36:51.716642	40.1	12.2	-80.8	0.0
2025-01-16 07:36:52.841284	40.2	12.3	-80.6	0.0
2025-01-16 07:36:53.961517	40.4	12.3	-80.8	0.0
2025-01-16 07:36:55.084427	40.5	12.4	-80.7	0.0
2025-01-16 07:36:56.208254	40.7	12.5	-80.6	0.0
2025-01-16 07:36:57.330570	40.8	12.6	-81.0	0.0
2025-01-16 07:36:58.454371	41.0	12.6	-80.9	0.0
2025-01-16 07:36:59.577223	41.1	12.7	-80.8	0.0
2025-01-16 07:37:00.699884	41.3	12.8	-80.6	0.0
2025-01-16 07:37:01.822138	41.4	12.9	-80.8	0.0
2025-01-16 07:37:02.946303	41.6	12.9	-80.9	0.0
2025-01-16 07:37:04.067057	41.7	13.0	-80.6	0.0
2025-01-16 07:37:05.192029	41.9	13.1	-80.8	0.0
2025-01-16 07:37:06.317923	42.0	13.2	-81.0	0.0
2025-01-16 07:37:07.441546	42.2	13.3	-80.6	0.0
2025-01-16 07:37:08.563373	42.4	13.3	-80.5	0.0
2025-01-16 07:37:09.687794	42.5	13.4	-80.9	0.0
2025-01-16 07:37:10.809809	42.7	13.5	-80.6	0.0
2025-01-16 07:37:11.935657	42.8	13.6	-80.7	0.0
2025-01-16 07:37:13.058636	43.0	13.6	-80.6	0.0
2025-01-16 07:37:14.180277	43.2	13.7	-80.9	0.0
2025-01-16 07:37:15.301845	43.3	13.8	-80.9	0.0
2025-01-16 07:37:16.425284	43.5	13.9	-80.8	0.0
2025-01-16 07:37:17.549781	43.6	14.0	-80.6	0.0
2025-01-16 07:37:18.673523	43.8	14.0	-80.5	0.0
2025-01-16 07:37:19.796563	44.0	14.1	-80.6	0.0
2025-01-16 07:37:20.919201	44.1	14.2	-80.7	0.0
2025-01-16 07:37:22.044276	44.3	14.3	-80.7	0.0
2025-01-16 07:37:23.166506	44.5	14.3	-80.4	0.0
2025-01-16 07:37:24.290355	44.6	14.4	-80.7	0.0
2025-01-16 07:37:25.414120	44.8	14.5	-80.9	0.0
2025-01-16 07:37:26.538906	45.0	14.6	-80.9	0.0
2025-01-16 07:37:27.661825	45.1	14.7	-80.6	0.0
2025-01-16 07:37:28.785413	45.3	14.7	-80.7	0.0
2025-01-16 07:37:29.910533	45.5	14.8	-80.9	0.0
2025-01-16 07:37:31.033262	45.7	14.9	-81.0	0.0
2025-01-16 07:37:32.156742	45.8	15.0	-80.9	0.0
2025-01-16 07:37:33.279440	46.0	15.1	-80.9	0.0
2025-01-16 07:37:34.402309	46.2	15.1	-80.8	0.0
2025-01-16 07:37:35.524808	46.4	15.2	-81.1	0.0
2025-01-16 07:37:36.647783	46.5	15.3	-81.0	0.0
2025-01-16 07:37:37.771880	46.7	15.4	-80.8	0.0
2025-01-16 07:37:38.894998	46.9	15.4	-80.8	0.0
2025-01-16 07:37:40.017673	47.1	15.5	-80.8	0.0
2025-01-16 07:37:41.142206	47.3	15.6	-80.7	0.0
2025-01-16 07:37:42.266207	47.5	15.7	-80.9	0.0
2025-01-16 07:37:43.391263	47.6	15.8	-81.0	0.0
2025-01-16 07:37:44.513628	47.8	15.8	-80.6	0.0
2025-01-16 07:37:45.638392	48.0	15.9	-80.4	0.0
2025-01-16 07:37:46.761857	48.2	16.0	-80.6	0.0
2025-01-16 07:37:47.884668	48.4	16.1	-80.8	0.0
2025-01-16 07:37:49.006848	48.6	16.1	-80.6	0.0
2025-01-16 07:37:50.129104	48.8	16.2	-80.9	0.0
2025-01-16 07:37:51.251942	48.9	16.3	-80.8	0.0
2025-01-16 07:37:52.373028	49.1	16.4	-80.8	0.0
2025-01-16 07:37:53.496452	49.3	16.5	-80.7	0.0
2025-01-16 07:37:54.621876	49.5	16.5	-81.0	0.0
2025-01-16 07:37:55.745881	49.7	16.6	-81.2	0.0
2025-01-16 07:37:56.869396	49.9	16.7	-81.2	0.0
2025-01-16 07:37:57.992789	50.1	16.8	-80.9	0.0
2025-01-16 07:37:59.119564	50.3	16.8	-80.9	0.0
2025-01-16 07:38:00.242050	50.5	16.9	-80.9	0.0
2025-01-16 07:38:01.364733	50.7	17.0	-80.9	0.0
2025-01-16 07:38:02.488683	50.9	17.1	-80.8	0.0
2025-01-16 07:38:03.616246	51.1	17.2	-80.8	0.0
2025-01-16 07:38:04.741691	51.3	17.2	-80.9	0.0
2025-01-16 07:38:05.863629	51.5	17.3	-81.0	0.0
2025-01-16 07:38:06.986500	51.7	17.4	-81.3	0.0
2025-01-16 07:38:08.109343	51.9	17.5	-81.2	0.0
2025-01-16 07:38:09.234168	52.1	17.5	-81.0	0.0
2025-01-16 07:38:10.361538	52.3	17.6	-81.2	0.0
2025-01-16 07:38:11.487953	52.5	17.7	-81.2	0.0
2025-01-16 07:38:12.611182	52.7	17.8	-81.2	0.0
2025-01-16 07:38:13.734416	53.0	17.8	-80.9	0.0
2025-01-16 07:38:14.858409	53.2	17.9	-81.2	0.0
2025-01-16 07:38:15.984175	53.4	18.0	-81.0	0.0
2025-01-16 07:38:17.106885	53.6	18.1	-81.2	0.0
2025-01-16 07:38:18.229139	53.8	18.2	-81.2	0.0
2025-01-16 07:38:19.353834	54.0	18.2	-81.3	0.0
2025-01-16 07:38:20.475155	54.2	18.3	-80.8	0.0
2025-01-16 07:38:21.599801	54.5	18.4	-81.1	0.0
2025-01-16 07:38:22.723798	54.7	18.5	-81.0	0.0
2025-01-16 07:38:23.848367	54.9	18.5	-80.9	0.0
2025-01-16 07:38:24.971905	55.1	18.6	-81.1	0.0
2025-01-16 07:38:26.092636	55.3	18.7	-81.1	0.0
2025-01-16 07:38:27.215799	55.6	18.7	-80.8	0.0
2025-01-16 07:38:28.338844	55.8	18.8	-81.0	0.0
2025-01-16 07:38:29.461031	56.0	18.9	-80.7	0.0
2025-01-16 07:38:30.583808	56.2	19.0	-80.8	0.0
2025-01-16 07:38:31.706834	56.5	19.0	-81.1	0.0
2025-01-16 07:38:32.828018	56.7	19.1	-80.9	0.0
2025-01-16 07:38:33.952485	56.9	19.2	-81.0	0.0
2025-01-16 07:38:35.076879	57.2	19.3	-80.9	0.0
2025-01-16 07:38:36.199288	57.4	19.3	-80.8	0.0
2025-01-16 07:38:37.321442	57.6	19.4	-81.3	0.0
2025-01-16 07:38:38.445597	57.8	19.5	-81.0	0.0
2025-01-16 07:38:39.567635	58.1	19.6	-81.0	0.0
2025-01-16 07:38:40.691881	58.3	19.6	-81.0	0.0
2025-01-16 07:38:41.816793	58.6	19.7	-80.9	0.0
2025-01-16 07:38:42.939675	58.8	19.8	-81.0	0.0
2025-01-16 07:38:44.063019	59.0	19.8	-80.7	0.0
2025-01-16 07:38:45.185159	59.3	19.9	-81.1	0.0
2025-01-16 07:38:46.307176	59.5	20.0	-81.3	0.0
2025-01-16 07:38:47.432238	59.8	20.0	-81.2	0.0
2025-01-16 07:38:48.553784	60.0	20.1	-81.1	0.0
2025-01-16 07:38:49.676517	60.2	20.2	-81.2	0.0
2025-01-16 07:38:50.799299	60.5	20.3	-81.2	0.0
2025-01-16 07:38:51.919586	60.7	20.3	-81.3	0.0
2025-01-16 07:38:53.042906	61.0	20.4	-81.4	0.0
2025-01-16 07:38:54.164838	61.2	20.5	-81.1	0.0
2025-01-16 07:38:55.286629	61.5	20.5	-81.0	0.0
2025-01-16 07:38:56.409617	61.7	20.6	-81.0	0.0
2025-01-16 07:38:57.532225	62.0	20.7	-80.7	0.0
2025-01-16 07:38:58.656864	62.2	20.7	-81.0	0.0
2025-01-16 07:38:59.780930	62.5	20.8	-80.9	0.0
2025-01-16 07:39:00.905229	62.7	20.9	-80.6	0.0
2025-01-16 07:39:02.030346	63.0	20.9	-80.5	0.0
2025-01-16 07:39:03.152767	63.3	21.0	-80.6	0.0
2025-01-16 07:39:04.273873	63.5	21.0	-80.8	0.0
2025-01-16 07:39:05.399424	63.8	21.1	-80.8	0.0
2025-01-16 07:39:06.524073	64.0	21.2	-80.8	0.0
2025-01-16 07:39:07.647557	64.3	21.2	-80.7	0.0
2025-01-16 07:39:08.771985	64.6	21.3	-80.9	0.0
2025-01-16 07:39:09.896945	64.8	21.4	-81.1	0.0
2025-01-16 07:39:11.019450	65.1	21.4	-81.0	0.0
2025-01-16 07:39:12.140663	65.3	21.5	-80.9	0.0
2025-01-16 07:39:13.264868	65.6	21.5	-80.9	0.0
2025-01-16 07:39:14.389393	65.9	21.6	-80.9	0.0
2025-01-16 07:39:15.511268	66.2	21.7	-81.1	0.0
2025-01-16 07:39:16.633773	66.4	21.7	-81.1	0.0
2025-01-16 07:39:17.756630	66.7	21.8	-81.3	0.0
2025-01-16 07:39:18.883043	67.0	21.8	-81.1	0.0
2025-01-16 07:39:20.007793	67.2	21.9	-81.3	0.0
2025-01-16 07:39:21.131520	67.5	22.0	-81.3	0.0
2025-01-16 07:39:22.256631	67.8	22.0	-81.1	0.0
2025-01-16 07:39:23.379080	68.1	22.1	-81.2	0.0
2025-01-16 07:39:24.500615	68.3	22.1	-81.1	0.0
2025-01-16 07:39:25.624688	68.6	22.2	-81.4	0.0
2025-01-16 07:39:26.748494	68.9	22.2	-81.2	0.0
2025-01-16 07:39:27.870629	69.2	22.3	-81.1	0.0
2025-01-16 07:39:28.992974	69.5	22.3	-80.9	0.0
2025-01-16 07:39:30.114717	69.7	22.4	-81.2	0.0
2025-01-16 07:39:31.236486	70.0	22.5	-81.3	0.0
2025-01-16 07:39:32.359117	70.3	22.5	-81.3	0.0
2025-01-16 07:39:33.480736	70.6	22.6	-81.0	0.0
2025-01-16 07:39:34.603269	70.9	22.6	-81.0	0.0
2025-01-16 07:39:35.725308	71.2	22.7	-81.3	0.0
2025-01-16 07:39:36.848331	71.4	22.7	-81.2	0.0
2025-01-16 07:39:37.969649	71.7	22.8	-81.4	0.0
2025-01-16 07:39:39.092839	72.0	22.8	-80.9	0.0
2025-01-16 07:39:40.216000	72.3	22.8	-81.0	0.0
2025-01-16 07:39:41.339905	72.6	22.9	-81.1	0.0
2025-01-16 07:39:42.461958	72.9	22.9	-81.2	0.0
2025-01-16 07:39:43.584340	73.2	23.0	-81.3	0.0
2025-01-16 07:39:44.707915	73.5	23.0	-81.2	0.0
2025-01-16 07:39:45.830455	73.8	23.1	-81.0	0.0
2025-01-16 07:39:46.953513	74.1	23.1	-81.3	0.0
2025-01-16 07:39:48.076880	74.4	23.2	-81.0	0.0
2025-01-16 07:39:49.201110	74.7	23.2	-81.2	0.0
2025-01-16 07:39:50.324887	74.9	23.2	-80.8	0.0
2025-01-16 07:39:51.450460	75.2	23.3	-81.0	0.0
2025-01-16 07:39:52.572686	75.5	23.3	-81.2	0.0
2025-01-16 07:39:53.697802	75.8	23.4	-81.3	0.0
2025-01-16 07:39:54.821538	76.1	23.4	-81.3	0.0
2025-01-16 07:39:55.943604	76.4	23.4	-81.1	0.0
2025-01-16 07:39:57.066886	76.7	23.5	-81.0	0.0
2025-01-16 07:39:58.190076	77.0	23.5	-80.9	0.0
2025-01-16 07:39:59.312305	77.4	23.5	-81.2	0.0
2025-01-16 07:40:00.434259	77.7	23.6	-81.1	0.0
2025-01-16 07:40:01.555658	78.0	23.6	-81.3	0.0
2025-01-16 07:40:02.677881	78.3	23.6	-81.2	0.0
2025-01-16 07:40:03.801069	78.6	23.7	-81.1	0.0
2025-01-16 07:40:04.923480	78.9	23.7	-81.1	0.0
2025-01-16 07:40:06.046845	79.2	23.7	-80.9	0.0
2025-01-16 07:40:07.168163	79.5	23.8	-80.9	0.0
2025-01-16 07:40:08.289725	79.8	23.8	-81.0	0.0
2025-01-16 07:40:09.415208	80.1	23.8	-81.1	0.0
2025-01-16 07:40:10.537348	80.4	23.8	-80.7	0.0
2025-01-16 07:40:11.662432	80.7	23.9	-80.8	0.0
2025-01-16 07:40:12.783079	81.0	23.9	-80.9	0.0
2025-01-16 07:40:13.903060	81.3	23.9	-80.8	0.0
2025-01-16 07:40:15.027278	81.7	23.9	-81.1	0.0
2025-01-16 07:40:16.151134	82.0	24.0	-80.8	0.0
2025-01-16 07:40:17.274143	82.3	24.0	-80.9	0.0
2025-01-16 07:40:18.397382	82.6	24.0	-80.8	0.0
2025-01-16 07:40:19.519850	82.9	24.0	-80.4	0.0
2025-01-16 07:40:20.643017	83.2	24.1	-81.0	0.0
2025-01-16 07:40:21.767169	83.5	24.1	-81.0	0.0
2025-01-16 07:40:22.888633	83.8	24.1	-80.8	0.0
2025-01-16 07:40:24.012093	84.2	24.1	-80.9	0.0
2025-01-16 07:40:25.134454	84.5	24.1	-80.9	0.0
2025-01-16 07:40:26.258258	84.8	24.1	-80.7	0.0
2025-01-16 07:40:27.380737	85.1	24.2	-81.1	0.0
2025-01-16 07:40:28.502675	85.4	24.2	-81.1	0.0
2025-01-16 07:40:29.627018	85.7	24.2	-81.4	0.0
2025-01-16 07:40:30.750268	86.0	24.2	-81.3	0.0
2025-01-16 07:40:31.873403	86.4	24.2	-81.2	0.0
2025-01-16 07:40:32.997989	86.7	24.2	-81.3	0.0
2025-01-16 07:40:34.120896	87.0	24.2	-81.1	0.0
2025-01-16 07:40:35.243530	87.3	24.2	-80.7	0.0
2025-01-16 07:40:36.366744	87.6	24.2	-81.0	0.0
2025-01-16 07:40:37.489084	87.9	24.2	-81.1	0.0
2025-01-16 07:40:38.612427	88.3	24.2	-81.1	0.0
2025-01-16 07:40:39.734810	88.6	24.2	-81.4	0.0
2025-01-16 07:40:40.857781	88.9	24.3	-81.1	0.0
2025-01-16 07:40:41.980385	89.2	24.3	-81.2	0.0
2025-01-16 07:40:43.102670	89.5	24.3	-81.3	0.0
2025-01-16 07:40:44.225643	89.8	24.3	-81.4	0.0
2025-01-16 07:40:45.349721	90.2	24.3	-81.4	0.0
2025-01-16 07:40:46.474480	90.5	24.3	-81.2	0.0
2025-01-16 07:40:47.597067	90.8	24.3	-81.1	0.0
2025-01-16 07:40:48.720286	91.1	24.2	-80.8	0.0
2025-01-16 07:40:49.840147	91.4	24.2	-81.1	0.0
2025-01-16 07:40:50.965281	91.7	24.2	-81.1	0.0
2025-01-16 07:40:52.090475	92.1	24.2	-81.1	0.0
2025-01-16 07:40:53.214143	92.4	24.2	-81.1	0.0
2025-01-16 07:40:54.336307	92.7	24.2	-81.4	0.0
2025-01-16 07:40:55.461497	93.0	24.2	-81.1	0.0
2025-01-16 07:40:56.586447	93.3	24.2	-81.0	0.0
2025-01-16 07:40:57.709415	93.7	24.2	-81.0	0.0
2025-01-16 07:40:58.833890	94.0	24.2	-81.2	0.0
2025-01-16 07:40:59.957132	94.3	24.2	-80.8	0.0
2025-01-16 07:41:01.080035	94.6	24.2	-81.1	0.0
2025-01-16 07:41:02.204273	94.9	24.1	-81.6	0.0
2025-01-16 07:41:03.326998	95.2	24.1	-81.4	0.0
2025-01-16 07:41:04.451979	95.5	24.1	-81.2	0.0
2025-01-16 07:41:05.576798	95.9	24.1	-81.3	0.0
2025-01-16 07:41:06.701368	96.2	24.1	-81.4	0.0
2025-01-16 07:41:07.824628	96.5	24.1	-81.1	0.0
2025-01-16 07:41:08.947776	96.8	24.0	-81.4	0.0
2025-01-16 07:41:10.069562	97.1	24.0	-81.3	0.0
2025-01-16 07:41:11.194407	97.4	24.0	-81.4	0.0
2025-01-16 07:41:12.318053	97.7	24.0	-81.5	0.0
2025-01-16 07:41:13.440731	98.1	24.0	-81.3	0.0
2025-01-16 07:41:14.564904	98.4	23.9	-81.2	0.0
2025-01-16 07:41:15.688825	98.7	23.9	-81.3	0.0
2025-01-16 07:41:16.812910	99.0	23.9	-81.6	0.0
2025-01-16 07:41:17.937291	99.3	23.9	-81.7	0.0
2025-01-16 07:41:19.063620	99.6	23.8	-81.1	0.0
2025-01-16 07:41:20.186844	99.9	23.8	-81.4	0.0
2025-01-16 07:41:21.307910	100.2	23.8	-81.3	0.0
2025-01-16 07:41:22.430265	100.5	23.7	-81.6	0.0
2025-01-16 07:41:23.556256	100.8	23.7	-81.5	0.0
2025-01-16 07:41:24.677976	101.2	23.7	-81.3	0.0
2025-01-16 07:41:25.801022	101.5	23.7	-81.4	0.0
2025-01-16 07:41:26.923356	101.8	23.6	-81.1	0.0
2025-01-16 07:41:28.049115	102.1	23.6	-81.5	0.0
2025-01-16 07:41:29.174514	102.4	23.6	-81.3	0.0
2025-01-16 07:41:30.297345	102.7	23.5	-81.2	0.0
2025-01-16 07:41:31.419744	103.0	23.5	-81.3	0.0
2025-01-16 07:41:32.542738	103.3	23.4	-81.2	0.0
2025-01-16 07:41:33.664216	103.6	23.4	-81.3	0.0
2025-01-16 07:41:34.786698	103.9	23.4	-81.2	0.0
2025-01-16 07:41:35.909204	104.2	23.3	-81.1	0.0
2025-01-16 07:41:37.033630	104.5	23.3	-81.2	0.0
2025-01-16 07:41:38.157044	104.8	23.3	-81.2	0.0
2025-01-16 07:41:39.281880	105.1	23.2	-81.4	0.0
2025-01-16 07:41:40.404734	105.4	23.2	-81.5	0.0
2025-01-16 07:41:41.527649	105.7	23.1	-81.3	0.0
2025-01-16 07:41:42.650149	106.0	23.1	-81.2	0.0
2025-01-16 07:41:43.771988	106.3	23.0	-81.3	0.0
2025-01-16 07:41:44.895106	106.6	23.0	-81.5	0.0
2025-01-16 07:41:46.017284	106.9	22.9	-81.3	0.0
2025-01-16 07:41:47.140032	107.2	22.9	-81.4	0.0
2025-01-16 07:41:48.262167	107.4	22.9	-81.6	0.0
2025-01-16 07:41:49.385765	107.7	22.8	-81.6	0.0
2025-01-16 07:41:50.511797	108.0	22.8	-81.5	0.0
2025-01-16 07:41:51.635278	108.3	22.7	-81.3	0.0
2025-01-16 07:41:52.761055	108.6	22.7	-81.3	0.0
2025-01-16 07:41:53.886126	108.9	22.6	-81.1	0.0
2025-01-16 07:41:55.012053	109.2	22.6	-81.5	0.0
2025-01-16 07:41:56.134031	109.5	22.5	-81.5	0.0
2025-01-16 07:41:57.258468	109.8	22.5	-81.3	0.0
2025-01-16 07:41:58.384593	110.0	22.4	-81.4	0.0
2025-01-16 07:41:59.506560	110.3	22.4	-81.6	0.0
2025-01-16 07:42:00.631855	110.6	22.3	-81.4	0.0
2025-01-16 07:42:01.757075	110.9	22.2	-81.5	0.0
2025-01-16 07:42:02.882319	111.2	22.2	-81.4	0.0
2025-01-16 07:42:04.005291	111.5	22.1	-81.6	0.0
2025-01-16 07:42:05.128402	111.7	22.1	-81.4	0.0
2025-01-16 07:42:06.251555	112.0	22.0	-81.4	0.0
2025-01-16 07:42:07.375555	112.3	22.0	-81.6	0.0
2025-01-16 07:42:08.499852	112.6	21.9	-81.5	0.0
2025-01-16 07:42:09.625916	112.8	21.8	-81.3	0.0
2025-01-16 07:42:10.750559	113.1	21.8	-81.3	0.0
2025-01-16 07:42:11.872713	113.4	21.7	-81.4	0.0
2025-01-16 07:42:12.995960	113.7	21.7	-81.3	0.0
2025-01-16 07:42:14.118110	113.9	21.6	-81.0	0.0
2025-01-16 07:42:15.238351	114.2	21.6	-81.5	0.0
2025-01-16 07:42:16.360911	114.5	21.5	-81.3	0.0
2025-01-16 07:42:17.484246	114.7	21.4	-81.7	0.0
2025-01-16 07:42:18.607943	115.0	21.4	-81.7	0.0
2025-01-16 07:42:19.732398	115.3	21.3	-81.4	0.0
2025-01-16 07:42:20.856449	115.5	21.2	-81.5	0.0
2025-01-16 07:42:21.981142	115.8	21.2	-81.5	0.0
2025-01-16 07:42:23.102946	116.0	21.1	-81.6	0.0
2025-01-16 07:42:24.227772	116.3	21.0	-81.5	0.0
2025-01-16 07:42:25.350627	116.6	21.0	-81.6	0.0
2025-01-16 07:42:26.475314	116.8	20.9	-81.9	0.0
2025-01-16 07:42:27.600091	117.1	20.9	-81.6	0.0
2025-01-16 07:42:28.724553	117.3	20.8	-81.9	0.0
2025-01-16 07:42:29.850411	117.6	20.7	-81.3	0.0
2025-01-16 07:42:30.973677	117.9	20.7	-81.4	0.0
2025-01-16 07:42:32.098764	118.1	20.6	-81.0	0.0
2025-01-16 07:42:33.221104	118.4	20.5	-81.4	0.0
2025-01-16 07:42:34.344670	118.6	20.4	-81.5	0.0
2025-01-16 07:42:35.467011	118.9	20.4	-81.3	0.0
2025-01-16 07:42:36.590765	119.1	20.3	-81.1	0.0
2025-01-16 07:42:37.713456	119.4	20.2	-81.7	0.0
2025-01-16 07:42:38.835887	119.6	20.2	-81.5	0.0
2025-01-16 07:42:39.960025	119.9	20.1	-81.4	0.0
2025-01-16 07:42:41.082448	120.1	20.0	-81.3	0.0
2025-01-16 07:42:42.206734	120.3	20.0	-81.0	0.0
2025-01-16 07:42:43.328849	120.6	19.9	-81.2	0.0
2025-01-16 07:42:44.453869	120.8	19.8	-81.2	0.0
2025-01-16 07:42:45.575454	121.1	19.8	-81.3	0.0
2025-01-16 07:42:46.698945	121.3	19.7	-81.5	0.0
2025-01-16 07:42:47.823203	121.6	19.6	-81.4	0.0
2025-01-16 07:42:48.946953	121.8	19.5	-81.5	0.0
2025-01-16 07:42:50.070975	122.0	19.5	-81.7	0.0
2025-01-16 07:42:51.195634	122.3	19.4	-81.7	0.0
2025-01-16 07:42:52.317884	122.5	19.3	-81.5	0.0
2025-01-16 07:42:53.441285	122.7	19.2	-81.9	0.0
2025-01-16 07:42:54.566467	123.0	19.2	-81.5	0.0
2025-01-16 07:42:55.688784	123.2	19.1	-81.7	0.0
2025-01-16 07:42:56.811211	123.4	19.0	-81.4	0.0
2025-01-16 07:42:57.934425	123.7	18.9	-81.6	0.0
2025-01-16 07:42:59.056700	123.9	18.9	-81.6	0.0
2025-01-16 07:43:00.179718	124.1	18.8	-81.6	0.0
2025-01-16 07:43:01.301018	124.3	18.7	-81.4	0.0
2025-01-16 07:43:02.424087	124.6	18.6	-81.4	0.0
2025-01-16 07:43:03.547579	124.8	18.6	-81.7	0.0
2025-01-16 07:43:04.668037	125.0	18.5	-81.4	0.0
2025-01-16 07:43:05.793314	125.2	18.4	-81.3	0.0
2025-01-16 07:43:06.916351	125.4	18.3	-81.6	0.0
2025-01-16 07:43:08.037682	125.7	18.3	-81.5	0.0
2025-01-16 07:43:09.161198	125.9	18.2	-81.5	0.0
2025-01-16 07:43:10.283262	126.1	18.1	-81.2	0.0
2025-01-16 07:43:11.404759	126.3	18.0	-81.6	0.0
2025-01-16 07:43:12.526252	126.5	18.0	-81.2	0.0
2025-01-16 07:43:13.651797	126.7	17.9	-81.3	0.0
2025-01-16 07:43:14.776250	127.0	17.8	-81.4	0.0
2025-01-16 07:43:15.898216	127.2	17.7	-81.3	0.0
2025-01-16 07:43:17.023846	127.4	17.7	-81.5	0.0
2025-01-16 07:43:18.147420	127.6	17.6	-81.6	0.0
2025-01-16 07:43:19.269862	127.8	17.5	-81.4	0.0
2025-01-16 07:43:20.392206	128.0	17.4	-81.4	0.0
2025-01-16 07:43:21.516442	128.2	17.3	-81.6	0.0
2025-01-16 07:43:22.638987	128.4	17.3	-81.3	0.0
2025-01-16 07:43:23.761213	128.6	17.2	-81.4	0.0
2025-01-16 07:43:24.884866	128.8	17.1	-81.5	0.0
2025-01-16 07:43:26.006352	129.0	17.0	-81.7	0.0
2025-01-16 07:43:27.128530	129.2	17.0	-81.6	0.0
2025-01-16 07:43:28.250254	129.4	16.9	-81.6	0.0
2025-01-16 07:43:29.372793	129.6	16.8	-81.8	0.0
2025-01-16 07:43:30.497286	129.8	16.7	-81.7	0.0
2025-01-16 07:43:31.621500	130.0	16.6	-81.5	0.0
2025-01-16 07:43:32.744923	130.2	16.6	-81.9	0.0
2025-01-16 07:43:33.866713	130.4	16.5	-81.8	0.0
2025-01-16 07:43:34.989508	130.6	16.4	-81.8	0.0
2025-01-16 07:43:36.114243	130.8	16.3	-81.8	0.0
2025-01-16 07:43:37.234472	131.0	16.2	-81.9	0.0
2025-01-16 07:43:38.358177	131.2	16.2	-81.4	0.0
2025-01-16 07:43:39.481599	131.4	16.1	-81.7	0.0
2025-01-16 07:43:40.605838	131.6	16.0	-81.4	0.0
2025-01-16 07:43:41.730877	131.8	15.9	-81.6	0.0
2025-01-16 07:43:42.855385	132.0	15.9	-81.7	0.0
2025-01-16 07:43:43.978570	132.1	15.8	-81.3	0.0
2025-01-16 07:43:45.101795	132.3	15.7	-81.1	0.0
2025-01-16 07:43:46.223695	132.5	15.6	-81.2	0.0
2025-01-16 07:43:47.346859	132.7	15.5	-81.2	0.0
2025-01-16 07:43:48.472608	132.9	15.5	-81.5	0.0
2025-01-16 07:43:49.594920	133.1	15.4	-81.2	0.0
2025-01-16 07:43:50.717866	133.2	15.3	-81.1	0.0
2025-01-16 07:43:51.841228	133.4	15.2	-81.6	0.0
2025-01-16 07:43:52.962705	133.6	15.1	-80.7	0.0
2025-01-16 07:43:54.085589	133.8	15.1	-80.5	0.0
2025-01-16 07:43:55.210116	134.0	15.0	-81.3	0.0
2025-01-16 07:43:56.334875	134.1	14.9	-81.5	0.0
2025-01-16 07:43:57.458431	134.3	14.8	-81.5	0.0
2025-01-16 07:43:58.582310	134.5	14.7	-81.5	0.0
2025-01-16 07:43:59.704899	134.7	14.7	-81.1	0.0
2025-01-16 07:44:00.828664	134.8	14.6	-81.5	0.0
2025-01-16 07:44:01.952547	135.0	14.5	-81.3	0.0
2025-01-16 07:44:03.075651	135.2	14.4	-80.9	0.0
2025-01-16 07:44:04.200601	135.3	14.3	-81.6	0.0
2025-01-16 07:44:05.322714	135.5	14.3	-81.3	0.0
2025-01-16 07:44:06.445962	135.7	14.2	-81.9	0.0
2025-01-16 07:44:07.569689	135.9	14.1	-81.8	0.0
2025-01-16 07:44:08.690652	136.0	14.0	-81.4	0.0
2025-01-16 07:44:09.812727	136.2	13.9	-81.5	0.0
2025-01-16 07:44:10.933095	136.4	13.9	-81.1	0.0
2025-01-16 07:44:12.056045	136.5	13.8	-81.5	0.0
2025-01-16 07:44:13.181853	136.7	13.7	-81.7	0.0
2025-01-16 07:44:14.303242	136.8	13.6	-81.3	0.0
2025-01-16 07:44:15.427862	137.0	13.6	-81.6	0.0
2025-01-16 07:44:16.550847	137.2	13.5	-81.8	0.0
2025-01-16 07:44:17.672909	137.3	13.4	-81.6	0.0
2025-01-16 07:44:18.798938	137.5	13.3	-81.5	0.0
2025-01-16 07:44:19.922546	137.6	13.2	-81.8	0.0
2025-01-16 07:44:21.048442	137.8	13.2	-81.5	0.0
2025-01-16 07:44:22.171464	138.0	13.1	-81.6	0.0
2025-01-16 07:44:23.296698	138.1	13.0	-81.5	0.0
2025-01-16 07:44:24.420429	138.3	12.9	-81.6	0.0
2025-01-16 07:44:25.544101	138.4	12.8	-81.3	0.0
2025-01-16 07:44:26.666202	138.6	12.8	-81.3	0.0
2025-01-16 07:44:27.787594	138.7	12.7	-81.4	0.0
2025-01-16 07:44:28.910463	138.9	12.6	-81.5	0.0
2025-01-16 07:44:30.033043	139.0	12.5	-81.0	0.0
2025-01-16 07:44:31.158085	139.2	12.5	-81.5	0.0
2025-01-16 07:44:32.281480	139.3	12.4	-81.5	0.0
2025-01-16 07:44:33.405635	139.5	12.3	-81.4	0.0
2025-01-16 07:44:34.527079	139.6	12.2	-81.5	0.0
2025-01-16 07:44:35.650347	139.8	12.1	-81.4	0.0
2025-01-16 07:44:36.774404	139.9	12.1	-81.7	0.0
2025-01-16 07:44:37.898007	140.1	12.0	-81.5	0.0
2025-01-16 07:44:39.021535	140.2	11.9	-81.4	0.0
2025-01-16 07:44:40.144715	140.4	11.8	-81.3	0.0
2025-01-16 07:44:41.267488	140.5	11.8	-81.4	0.0
2025-01-16 07:44:42.392096	140.7	11.7	-81.5	0.0
2025-01-16 07:44:43.516455	140.8	11.6	-81.7	0.0
2025-01-16 07:44:44.638824	140.9	11.5	-81.7	0.0
2025-01-16 07:44:45.762098	141.1	11.4	-81.4	0.0
2025-01-16 07:44:46.883901	141.2	11.4	-81.4	0.0
2025-01-16 07:44:48.004968	141.4	11.3	-81.1	0.0
2025-01-16 07:44:49.128065	141.5	11.2	-81.2	0.0
2025-01-16 07:44:50.250146	141.6	11.1	-81.2	0.0
2025-01-16 07:44:51.372758	141.8	11.1	-81.4	0.0
2025-01-16 07:44:52.493202	141.9	11.0	-81.3	0.0
2025-01-16 07:44:53.616699	142.0	10.9	-81.2	0.0
2025-01-16 07:44:54.739802	142.2	10.8	-81.5	0.0
2025-01-16 07:44:55.862408	142.3	10.8	-81.3	0.0
2025-01-16 07:44:56.986100	142.5	10.7	-81.0	0.0
2025-01-16 07:44:58.108149	142.6	10.6	-81.2	0.0
2025-01-16 07:44:59.231966	142.7	10.5	-81.4	0.0
2025-01-16 07:45:00.354165	142.9	10.4	-81.4	0.0
2025-01-16 07:45:01.478603	143.0	10.4	-81.2	0.0
2025-01-16 07:45:02.600932	143.1	10.3	-81.5	0.0
2025-01-16 07:45:03.722357	143.2	10.2	-81.1	0.0
2025-01-16 07:45:04.845903	143.4	10.1	-80.9	0.0
2025-01-16 07:45:05.969816	143.5	10.1	-81.5	0.0
#Closed at: 2025-01-16 07:36:14.225418