passes_logs/2025/01/16/planumMaritime01/planumMaritime01__20250116_121756_METEOR-M2_4_rec.log

#Pass ID: 20250116_121756_METEOR-M2 4
#Satellite: METEOR-M2 4
#Configuration: METEOR-M2 4
#Start time: 2025-01-16 12:18:01.160716

#LorettStation: 1.0.0 05.05.2024
#Station: planumMaritime01
#Location: 37.49445 lon 55.92918 lat
#TLE: 1 59051U 24039A   25015.09829084  .00000075  00000+0  53338-4 0  9998
#TLE: 2 59051  98.6293 338.1069 0006191 224.4882 135.5799 14.22325142 45617

#Time	Az	El	Level	SNR
2025-01-16 12:18:03.323151	192.8	10.2	-79.5	0.0
2025-01-16 12:18:04.445968	192.9	10.3	-79.6	0.0
2025-01-16 12:18:05.568604	193.0	10.4	-79.6	0.0
2025-01-16 12:18:06.693856	193.1	10.5	-79.8	0.0
2025-01-16 12:18:07.814991	193.2	10.5	-79.7	0.0
2025-01-16 12:18:08.938342	193.2	10.6	-79.5	0.0
2025-01-16 12:18:10.062047	193.3	10.7	-79.9	0.0
2025-01-16 12:18:11.184849	193.4	10.8	-79.8	0.0
2025-01-16 12:18:12.310401	193.5	10.9	-79.6	0.0
2025-01-16 12:18:13.436792	193.6	11.0	-79.9	0.0
2025-01-16 12:18:14.561498	193.7	11.1	-79.8	0.0
2025-01-16 12:18:15.681422	193.7	11.2	-80.3	0.0
2025-01-16 12:18:16.805250	193.8	11.3	-79.7	0.0
2025-01-16 12:18:17.926525	193.9	11.4	-79.5	0.0
2025-01-16 12:18:19.047602	194.0	11.5	-79.5	0.0
2025-01-16 12:18:20.171612	194.1	11.6	-80.0	0.0
2025-01-16 12:18:21.291837	194.2	11.7	-79.5	0.0
2025-01-16 12:18:22.415504	194.3	11.8	-79.0	0.0
2025-01-16 12:18:23.541821	194.3	11.9	-79.8	0.0
2025-01-16 12:18:24.665345	194.4	12.0	-79.9	0.0
2025-01-16 12:18:25.787478	194.5	12.1	-80.1	0.0
2025-01-16 12:18:26.909397	194.6	12.2	-79.9	0.0
2025-01-16 12:18:28.031961	194.7	12.3	-80.0	0.0
2025-01-16 12:18:29.153435	194.8	12.4	-80.4	0.0
2025-01-16 12:18:30.275226	194.9	12.5	-80.3	0.0
2025-01-16 12:18:31.402730	195.0	12.6	-80.2	0.0
2025-01-16 12:18:32.523595	195.1	12.7	-80.2	0.0
2025-01-16 12:18:33.646302	195.2	12.8	-80.3	0.0
2025-01-16 12:18:34.768627	195.3	12.9	-80.3	0.0
2025-01-16 12:18:35.890849	195.4	13.0	-80.3	0.0
2025-01-16 12:18:37.014223	195.5	13.1	-80.4	0.0
2025-01-16 12:18:38.138644	195.6	13.2	-80.2	0.0
2025-01-16 12:18:39.260234	195.6	13.3	-80.3	0.0
2025-01-16 12:18:40.381843	195.7	13.4	-80.1	0.0
2025-01-16 12:18:41.506772	195.8	13.5	-79.6	0.0
2025-01-16 12:18:42.630330	195.9	13.6	-79.1	0.0
2025-01-16 12:18:43.751411	196.0	13.7	-79.6	0.0
2025-01-16 12:18:44.873502	196.1	13.8	-80.2	0.0
2025-01-16 12:18:45.998256	196.2	13.9	-79.7	0.0
2025-01-16 12:18:47.124403	196.3	14.0	-80.0	0.0
2025-01-16 12:18:48.245455	196.4	14.1	-80.2	0.0
2025-01-16 12:18:49.367719	196.6	14.2	-80.3	0.0
2025-01-16 12:18:50.493068	196.7	14.3	-80.1	0.0
2025-01-16 12:18:51.615755	196.8	14.4	-80.2	0.0
2025-01-16 12:18:52.738503	196.9	14.5	-80.1	0.0
2025-01-16 12:18:53.861738	197.0	14.6	-80.5	0.0
2025-01-16 12:18:54.984141	197.1	14.7	-80.0	0.0
2025-01-16 12:18:56.106297	197.2	14.8	-80.2	0.0
2025-01-16 12:18:57.228483	197.3	14.9	-80.2	0.0
2025-01-16 12:18:58.350826	197.4	15.0	-80.2	0.0
2025-01-16 12:18:59.474573	197.5	15.1	-79.8	0.0
2025-01-16 12:19:00.596491	197.6	15.3	-80.5	0.0
2025-01-16 12:19:01.720242	197.7	15.4	-80.2	0.0
2025-01-16 12:19:02.841948	197.8	15.5	-79.3	0.0
2025-01-16 12:19:03.965202	198.0	15.6	-80.0	0.0
2025-01-16 12:19:05.088117	198.1	15.7	-80.5	0.0
2025-01-16 12:19:06.209571	198.2	15.8	-80.3	0.0
2025-01-16 12:19:07.331944	198.3	15.9	-80.0	0.0
2025-01-16 12:19:08.453525	198.4	16.0	-80.3	0.0
2025-01-16 12:19:09.576245	198.5	16.1	-80.3	0.0
2025-01-16 12:19:10.698982	198.6	16.2	-80.5	0.0
2025-01-16 12:19:11.821847	198.8	16.4	-80.1	0.0
2025-01-16 12:19:12.943762	198.9	16.5	-80.4	0.0
2025-01-16 12:19:14.070803	199.0	16.6	-80.3	0.0
2025-01-16 12:19:15.192791	199.1	16.7	-80.2	0.0
2025-01-16 12:19:16.318271	199.3	16.8	-80.2	0.0
2025-01-16 12:19:17.442931	199.4	16.9	-80.2	0.0
2025-01-16 12:19:18.567146	199.5	17.0	-79.8	0.0
2025-01-16 12:19:19.689423	199.6	17.2	-80.4	0.0
2025-01-16 12:19:20.812252	199.7	17.3	-80.1	0.0
2025-01-16 12:19:21.937826	199.9	17.4	-80.5	0.0
2025-01-16 12:19:23.061178	200.0	17.5	-79.3	0.0
2025-01-16 12:19:24.183307	200.1	17.6	-79.4	0.0
2025-01-16 12:19:25.306727	200.3	17.7	-80.2	0.0
2025-01-16 12:19:26.430481	200.4	17.9	-80.2	0.0
2025-01-16 12:19:27.551588	200.5	18.0	-80.4	0.0
2025-01-16 12:19:28.674807	200.7	18.1	-80.3	0.0
2025-01-16 12:19:29.798399	200.8	18.2	-80.4	0.0
2025-01-16 12:19:30.922868	200.9	18.3	-80.3	0.0
2025-01-16 12:19:32.045496	201.1	18.5	-80.2	0.0
2025-01-16 12:19:33.171555	201.2	18.6	-80.3	0.0
2025-01-16 12:19:34.297034	201.3	18.7	-80.3	0.0
2025-01-16 12:19:35.420999	201.5	18.8	-80.5	0.0
2025-01-16 12:19:36.544058	201.6	18.9	-80.4	0.0
2025-01-16 12:19:37.665843	201.8	19.1	-80.3	0.0
2025-01-16 12:19:38.789129	201.9	19.2	-80.7	0.0
2025-01-16 12:19:39.911552	202.0	19.3	-80.7	0.0
2025-01-16 12:19:41.035936	202.2	19.4	-80.7	0.0
2025-01-16 12:19:42.161612	202.3	19.6	-80.6	0.0
2025-01-16 12:19:43.283968	202.5	19.7	-80.1	0.0
2025-01-16 12:19:44.408779	202.6	19.8	-79.6	0.0
2025-01-16 12:19:45.533583	202.8	19.9	-80.5	0.0
2025-01-16 12:19:46.656608	202.9	20.1	-80.6	0.0
2025-01-16 12:19:47.779697	203.1	20.2	-80.4	0.0
2025-01-16 12:19:48.903613	203.2	20.3	-80.6	0.0
2025-01-16 12:19:50.029032	203.4	20.4	-80.5	0.0
2025-01-16 12:19:51.154333	203.5	20.6	-80.4	0.0
2025-01-16 12:19:52.277164	203.7	20.7	-80.8	0.0
2025-01-16 12:19:53.399770	203.8	20.8	-80.5	0.0
2025-01-16 12:19:54.523157	204.0	20.9	-80.6	0.0
2025-01-16 12:19:55.647433	204.2	21.1	-80.6	0.0
2025-01-16 12:19:56.769533	204.3	21.2	-80.2	0.0
2025-01-16 12:19:57.891962	204.5	21.3	-80.4	0.0
2025-01-16 12:19:59.014733	204.7	21.5	-80.5	0.0
2025-01-16 12:20:00.137897	204.8	21.6	-80.3	0.0
2025-01-16 12:20:01.263436	205.0	21.7	-80.6	0.0
2025-01-16 12:20:02.384521	205.2	21.9	-80.2	0.0
2025-01-16 12:20:03.508066	205.3	22.0	-80.2	0.0
2025-01-16 12:20:04.632037	205.5	22.1	-79.5	0.0
2025-01-16 12:20:05.755897	205.7	22.3	-80.0	0.0
2025-01-16 12:20:06.880039	205.8	22.4	-80.5	0.0
2025-01-16 12:20:08.003511	206.0	22.5	-80.9	0.0
2025-01-16 12:20:09.126696	206.2	22.7	-80.5	0.0
2025-01-16 12:20:10.250453	206.4	22.8	-80.2	0.0
2025-01-16 12:20:11.372875	206.6	22.9	-80.6	0.0
2025-01-16 12:20:12.496813	206.7	23.1	-80.5	0.0
2025-01-16 12:20:13.619219	206.9	23.2	-80.6	0.0
2025-01-16 12:20:14.741057	207.1	23.3	-80.4	0.0
2025-01-16 12:20:15.863423	207.3	23.5	-80.4	0.0
2025-01-16 12:20:16.987524	207.5	23.6	-80.4	0.0
2025-01-16 12:20:18.111250	207.7	23.8	-80.5	0.0
2025-01-16 12:20:19.234995	207.9	23.9	-80.2	0.0
2025-01-16 12:20:20.358792	208.1	24.0	-80.6	0.0
2025-01-16 12:20:21.481932	208.2	24.2	-80.6	0.0
2025-01-16 12:20:22.605178	208.4	24.3	-80.4	0.0
2025-01-16 12:20:23.727820	208.6	24.5	-80.5	0.0
2025-01-16 12:20:24.848504	208.8	24.6	-79.8	0.0
2025-01-16 12:20:25.970428	209.0	24.7	-80.0	0.0
2025-01-16 12:20:27.095942	209.2	24.9	-80.5	0.0
2025-01-16 12:20:28.220079	209.4	25.0	-80.8	0.0
2025-01-16 12:20:29.343013	209.7	25.2	-80.7	0.0
2025-01-16 12:20:30.464598	209.9	25.3	-80.6	0.0
2025-01-16 12:20:31.589893	210.1	25.4	-80.6	0.0
2025-01-16 12:20:32.714352	210.3	25.6	-80.4	0.0
2025-01-16 12:20:33.837185	210.5	25.7	-80.6	0.0
2025-01-16 12:20:34.959254	210.7	25.9	-80.7	0.0
2025-01-16 12:20:36.082840	210.9	26.0	-80.6	0.0
2025-01-16 12:20:37.204998	211.2	26.2	-80.7	0.0
2025-01-16 12:20:38.326656	211.4	26.3	-80.4	0.0
2025-01-16 12:20:39.449442	211.6	26.5	-80.8	0.0
2025-01-16 12:20:40.574358	211.8	26.6	-80.5	0.0
2025-01-16 12:20:41.698228	212.0	26.7	-80.6	0.0
2025-01-16 12:20:42.819990	212.3	26.9	-80.6	0.0
2025-01-16 12:20:43.942028	212.5	27.0	-80.8	0.0
2025-01-16 12:20:45.066139	212.7	27.2	-80.3	0.0
2025-01-16 12:20:46.190647	213.0	27.3	-79.6	0.0
2025-01-16 12:20:47.314059	213.2	27.5	-80.3	0.0
2025-01-16 12:20:48.436887	213.5	27.6	-80.4	0.0
2025-01-16 12:20:49.558843	213.7	27.8	-80.4	0.0
2025-01-16 12:20:50.682016	213.9	27.9	-80.4	0.0
2025-01-16 12:20:51.804839	214.2	28.1	-80.6	0.0
2025-01-16 12:20:52.929107	214.4	28.2	-80.7	0.0
2025-01-16 12:20:54.052945	214.7	28.4	-80.9	0.0
2025-01-16 12:20:55.176238	214.9	28.5	-80.9	0.0
2025-01-16 12:20:56.297826	215.2	28.7	-80.9	0.0
2025-01-16 12:20:57.421910	215.5	28.8	-81.0	0.0
2025-01-16 12:20:58.546507	215.7	29.0	-80.7	0.0
2025-01-16 12:20:59.670699	216.0	29.1	-81.1	0.0
2025-01-16 12:21:00.795294	216.3	29.3	-80.8	0.0
2025-01-16 12:21:01.917385	216.5	29.4	-80.8	0.0
2025-01-16 12:21:03.041094	216.8	29.6	-81.2	0.0
2025-01-16 12:21:04.165183	217.1	29.7	-81.1	0.0
2025-01-16 12:21:05.288874	217.3	29.9	-80.9	0.0
2025-01-16 12:21:06.412715	217.6	30.0	-79.8	0.0
2025-01-16 12:21:07.535984	217.9	30.2	-80.5	0.0
2025-01-16 12:21:08.660589	218.2	30.3	-81.1	0.0
2025-01-16 12:21:09.786037	218.5	30.5	-81.1	0.0
2025-01-16 12:21:10.910737	218.8	30.6	-80.8	0.0
2025-01-16 12:21:12.034668	219.1	30.8	-80.9	0.0
2025-01-16 12:21:13.157503	219.3	30.9	-80.9	0.0
2025-01-16 12:21:14.282252	219.6	31.1	-80.5	0.0
2025-01-16 12:21:15.406191	219.9	31.2	-80.9	0.0
2025-01-16 12:21:16.529500	220.2	31.4	-80.8	0.0
2025-01-16 12:21:17.651668	220.5	31.5	-80.6	0.0
2025-01-16 12:21:18.774823	220.9	31.7	-80.5	0.0
2025-01-16 12:21:19.898013	221.2	31.8	-80.4	0.0
2025-01-16 12:21:21.021048	221.5	32.0	-80.7	0.0
2025-01-16 12:21:22.143299	221.8	32.1	-80.7	0.0
2025-01-16 12:21:23.265915	222.1	32.3	-80.5	0.0
2025-01-16 12:21:24.390051	222.4	32.4	-80.8	0.0
2025-01-16 12:21:25.511461	222.8	32.6	-80.8	0.0
2025-01-16 12:21:26.635459	223.1	32.7	-80.1	0.0
2025-01-16 12:21:27.758561	223.4	32.9	-79.8	0.0
2025-01-16 12:21:28.880473	223.8	33.0	-80.9	0.0
2025-01-16 12:21:30.002313	224.1	33.2	-81.1	0.0
2025-01-16 12:21:31.125936	224.4	33.3	-81.1	0.0
2025-01-16 12:21:32.248339	224.8	33.5	-80.8	0.0
2025-01-16 12:21:33.371508	225.1	33.6	-80.7	0.0
2025-01-16 12:21:34.494376	225.5	33.8	-80.7	0.0
2025-01-16 12:21:35.616376	225.8	33.9	-80.7	0.0
2025-01-16 12:21:36.740710	226.2	34.1	-80.7	0.0
2025-01-16 12:21:37.861943	226.5	34.2	-80.6	0.0
2025-01-16 12:21:38.986524	226.9	34.3	-80.8	0.0
2025-01-16 12:21:40.108463	227.3	34.5	-80.8	0.0
2025-01-16 12:21:41.234642	227.6	34.6	-80.7	0.0
2025-01-16 12:21:42.357016	228.0	34.8	-80.7	0.0
2025-01-16 12:21:43.478930	228.4	34.9	-80.7	0.0
2025-01-16 12:21:44.603650	228.7	35.1	-80.7	0.0
2025-01-16 12:21:45.726915	229.1	35.2	-80.9	0.0
2025-01-16 12:21:46.847150	229.5	35.3	-80.3	0.0
2025-01-16 12:21:47.969449	229.9	35.5	-79.8	0.0
2025-01-16 12:21:49.093849	230.3	35.6	-80.3	0.0
2025-01-16 12:21:50.218032	230.7	35.8	-80.7	0.0
2025-01-16 12:21:51.342137	231.1	35.9	-80.7	0.0
2025-01-16 12:21:52.466421	231.5	36.0	-80.6	0.0
2025-01-16 12:21:53.590212	231.9	36.2	-80.8	0.0
2025-01-16 12:21:54.714649	232.3	36.3	-80.9	0.0
2025-01-16 12:21:55.838186	232.7	36.4	-80.8	0.0
2025-01-16 12:21:56.960614	233.1	36.6	-80.7	0.0
2025-01-16 12:21:58.081750	233.5	36.7	-80.8	0.0
2025-01-16 12:21:59.205332	233.9	36.8	-80.5	0.0
2025-01-16 12:22:00.327665	234.4	36.9	-80.5	0.0
2025-01-16 12:22:01.450488	234.8	37.1	-80.7	0.0
2025-01-16 12:22:02.572762	235.2	37.2	-81.0	0.0
2025-01-16 12:22:03.694280	235.7	37.3	-80.7	0.0
2025-01-16 12:22:04.815502	236.1	37.4	-80.7	0.0
2025-01-16 12:22:05.938213	236.5	37.6	-80.7	0.0
2025-01-16 12:22:07.064061	237.0	37.7	-80.8	0.0
2025-01-16 12:22:08.186408	237.4	37.8	-79.7	0.0
2025-01-16 12:22:09.309906	237.9	37.9	-80.3	0.0
2025-01-16 12:22:10.432187	238.3	38.0	-80.9	0.0
2025-01-16 12:22:11.554622	238.8	38.1	-80.8	0.0
2025-01-16 12:22:12.677144	239.2	38.3	-81.0	0.0
2025-01-16 12:22:13.802330	239.7	38.4	-80.6	0.0
2025-01-16 12:22:14.924322	240.2	38.5	-81.2	0.0
2025-01-16 12:22:16.050667	240.6	38.6	-81.1	0.0
2025-01-16 12:22:17.175382	241.1	38.7	-80.9	0.0
2025-01-16 12:22:18.299538	241.6	38.8	-81.1	0.0
2025-01-16 12:22:19.422355	242.0	38.9	-80.8	0.0
2025-01-16 12:22:20.545382	242.5	39.0	-81.2	0.0
2025-01-16 12:22:21.668769	243.0	39.1	-81.0	0.0
2025-01-16 12:22:22.792482	243.5	39.2	-81.2	0.0
2025-01-16 12:22:23.915123	244.0	39.3	-81.2	0.0
2025-01-16 12:22:25.036476	244.5	39.4	-80.6	0.0
2025-01-16 12:22:26.159088	245.0	39.5	-81.0	0.0
2025-01-16 12:22:27.283210	245.5	39.5	-80.8	0.0
2025-01-16 12:22:28.409709	246.0	39.6	-80.1	0.0
2025-01-16 12:22:29.530697	246.5	39.7	-80.3	0.0
2025-01-16 12:22:30.655904	247.0	39.8	-80.8	0.0
2025-01-16 12:22:31.779491	247.5	39.9	-80.6	0.0
2025-01-16 12:22:32.902272	248.0	39.9	-80.5	0.0
2025-01-16 12:22:34.027993	248.5	40.0	-80.6	0.0
2025-01-16 12:22:35.151766	249.0	40.1	-80.7	0.0
2025-01-16 12:22:36.274270	249.5	40.2	-80.8	0.0
2025-01-16 12:22:37.396363	250.0	40.2	-81.0	0.0
2025-01-16 12:22:38.519897	250.5	40.3	-80.7	0.0
2025-01-16 12:22:39.641767	251.1	40.4	-81.0	0.0
2025-01-16 12:22:40.765300	251.6	40.4	-80.8	0.0
2025-01-16 12:22:41.889838	252.1	40.5	-81.2	0.0
2025-01-16 12:22:43.010992	252.6	40.5	-81.3	0.0
2025-01-16 12:22:44.135371	253.2	40.6	-81.1	0.0
2025-01-16 12:22:45.257306	253.7	40.6	-81.2	0.0
2025-01-16 12:22:46.380384	254.2	40.7	-80.9	0.0
2025-01-16 12:22:47.502912	254.8	40.7	-81.1	0.0
2025-01-16 12:22:48.625324	255.3	40.8	-80.7	0.0
2025-01-16 12:22:49.747245	255.8	40.8	-79.7	0.0
2025-01-16 12:22:50.871509	256.4	40.8	-80.8	0.0
2025-01-16 12:22:51.997205	256.9	40.9	-80.7	0.0
2025-01-16 12:22:53.119138	257.4	40.9	-80.6	0.0
2025-01-16 12:22:54.241841	258.0	40.9	-80.9	0.0
2025-01-16 12:22:55.365291	258.5	40.9	-80.6	0.0
2025-01-16 12:22:56.487981	259.1	41.0	-81.0	0.0
2025-01-16 12:22:57.610951	259.6	41.0	-81.1	0.0
2025-01-16 12:22:58.733752	260.1	41.0	-80.3	0.0
2025-01-16 12:22:59.857691	260.7	41.0	-80.6	0.0
2025-01-16 12:23:00.980841	261.2	41.0	-81.0	0.0
2025-01-16 12:23:02.103065	261.8	41.0	-80.6	0.0
2025-01-16 12:23:03.226449	262.3	41.0	-80.9	0.0
2025-01-16 12:23:04.353479	262.9	41.0	-81.0	0.0
2025-01-16 12:23:05.476016	263.4	41.0	-81.0	0.0
2025-01-16 12:23:06.600259	264.0	41.0	-81.2	0.0
2025-01-16 12:23:07.723050	264.5	41.0	-80.7	0.0
2025-01-16 12:23:08.844590	265.0	41.0	-80.7	0.0
2025-01-16 12:23:09.967990	265.6	41.0	-79.8	0.0
2025-01-16 12:23:11.091371	266.1	41.0	-80.6	0.0
2025-01-16 12:23:12.214117	266.7	41.0	-80.5	0.0
2025-01-16 12:23:13.340302	267.2	40.9	-80.9	0.0
2025-01-16 12:23:14.461604	267.7	40.9	-81.0	0.0
2025-01-16 12:23:15.584898	268.3	40.9	-80.7	0.0
2025-01-16 12:23:16.708227	268.8	40.9	-81.0	0.0
2025-01-16 12:23:17.833297	269.4	40.8	-80.8	0.0
2025-01-16 12:23:18.956650	269.9	40.8	-80.9	0.0
2025-01-16 12:23:20.079159	270.4	40.8	-80.9	0.0
2025-01-16 12:23:21.201393	271.0	40.7	-80.5	0.0
2025-01-16 12:23:22.326741	271.5	40.7	-80.6	0.0
2025-01-16 12:23:23.450241	272.0	40.6	-80.8	0.0
2025-01-16 12:23:24.572544	272.6	40.6	-81.2	0.0
2025-01-16 12:23:25.696568	273.1	40.5	-80.9	0.0
2025-01-16 12:23:26.818350	273.6	40.5	-80.9	0.0
2025-01-16 12:23:27.941095	274.1	40.4	-80.8	0.0
2025-01-16 12:23:29.063323	274.7	40.4	-81.0	0.0
2025-01-16 12:23:30.185534	275.2	40.3	-80.0	0.0
2025-01-16 12:23:31.307362	275.7	40.2	-79.8	0.0
2025-01-16 12:23:32.431095	276.2	40.2	-80.9	0.0
2025-01-16 12:23:33.554801	276.7	40.1	-80.9	0.0
2025-01-16 12:23:34.677569	277.2	40.0	-80.5	0.0
2025-01-16 12:23:35.802306	277.7	40.0	-80.7	0.0
2025-01-16 12:23:36.924992	278.3	39.9	-80.6	0.0
2025-01-16 12:23:38.048319	278.8	39.8	-80.5	0.0
2025-01-16 12:23:39.170464	279.3	39.7	-81.1	0.0
2025-01-16 12:23:40.292639	279.8	39.6	-80.7	0.0
2025-01-16 12:23:41.416273	280.3	39.6	-80.7	0.0
2025-01-16 12:23:42.539947	280.8	39.5	-81.0	0.0
2025-01-16 12:23:43.663361	281.2	39.4	-80.8	0.0
2025-01-16 12:23:44.789042	281.7	39.3	-80.7	0.0
2025-01-16 12:23:45.911324	282.2	39.2	-80.7	0.0
2025-01-16 12:23:47.034607	282.7	39.1	-80.7	0.0
2025-01-16 12:23:48.157840	283.2	39.0	-81.2	0.0
2025-01-16 12:23:49.279461	283.7	38.9	-80.5	0.0
2025-01-16 12:23:50.402612	284.1	38.8	-80.5	0.0
2025-01-16 12:23:51.524482	284.6	38.7	-80.2	0.0
2025-01-16 12:23:52.646733	285.1	38.6	-80.8	0.0
2025-01-16 12:23:53.769507	285.6	38.5	-80.8	0.0
2025-01-16 12:23:54.895200	286.0	38.4	-81.0	0.0
2025-01-16 12:23:56.018436	286.5	38.3	-80.8	0.0
2025-01-16 12:23:57.140967	286.9	38.2	-80.8	0.0
2025-01-16 12:23:58.263958	287.4	38.1	-80.9	0.0
2025-01-16 12:23:59.386337	287.8	38.0	-81.0	0.0
2025-01-16 12:24:00.508595	288.3	37.8	-81.5	0.0
2025-01-16 12:24:01.631848	288.7	37.7	-81.2	0.0
2025-01-16 12:24:02.755645	289.2	37.6	-81.0	0.0
2025-01-16 12:24:03.878492	289.6	37.5	-80.9	0.0
2025-01-16 12:24:05.003442	290.1	37.4	-80.8	0.0
2025-01-16 12:24:06.127896	290.5	37.2	-80.6	0.0
2025-01-16 12:24:07.249397	290.9	37.1	-80.9	0.0
2025-01-16 12:24:08.370746	291.3	37.0	-81.0	0.0
2025-01-16 12:24:09.492269	291.8	36.9	-80.8	0.0
2025-01-16 12:24:10.614849	292.2	36.7	-80.8	0.0
2025-01-16 12:24:11.738511	292.6	36.6	-79.6	0.0
2025-01-16 12:24:12.861921	293.0	36.5	-80.4	0.0
2025-01-16 12:24:13.983560	293.4	36.3	-80.9	0.0
2025-01-16 12:24:15.105746	293.8	36.2	-80.9	0.0
2025-01-16 12:24:16.228888	294.2	36.1	-80.8	0.0
2025-01-16 12:24:17.349752	294.6	35.9	-80.8	0.0
2025-01-16 12:24:18.475503	295.0	35.8	-80.7	0.0
2025-01-16 12:24:19.598540	295.4	35.7	-81.0	0.0
2025-01-16 12:24:20.721661	295.8	35.5	-81.1	0.0
2025-01-16 12:24:21.843985	296.2	35.4	-81.2	0.0
2025-01-16 12:24:22.968005	296.6	35.3	-81.1	0.0
2025-01-16 12:24:24.090681	297.0	35.1	-81.0	0.0
2025-01-16 12:24:25.211783	297.3	35.0	-81.0	0.0
2025-01-16 12:24:26.334088	297.7	34.8	-81.1	0.0
2025-01-16 12:24:27.457282	298.1	34.7	-80.8	0.0
2025-01-16 12:24:28.579622	298.4	34.6	-81.0	0.0
2025-01-16 12:24:29.702989	298.8	34.4	-81.1	0.0
2025-01-16 12:24:30.827195	299.2	34.3	-81.0	0.0
2025-01-16 12:24:31.951579	299.5	34.1	-80.2	0.0
2025-01-16 12:24:33.073427	299.9	34.0	-80.0	0.0
2025-01-16 12:24:34.197487	300.2	33.8	-81.1	0.0
2025-01-16 12:24:35.321246	300.6	33.7	-80.7	0.0
2025-01-16 12:24:36.442876	300.9	33.5	-80.9	0.0
2025-01-16 12:24:37.566871	301.3	33.4	-80.9	0.0
2025-01-16 12:24:38.689734	301.6	33.2	-81.0	0.0
2025-01-16 12:24:39.811566	301.9	33.1	-81.1	0.0
2025-01-16 12:24:40.935738	302.3	33.0	-81.0	0.0
2025-01-16 12:24:42.060542	302.6	32.8	-80.9	0.0
2025-01-16 12:24:43.186627	302.9	32.7	-81.2	0.0
2025-01-16 12:24:44.309091	303.3	32.5	-80.9	0.0
2025-01-16 12:24:45.432909	303.6	32.4	-81.1	0.0
2025-01-16 12:24:46.557058	303.9	32.2	-80.6	0.0
2025-01-16 12:24:47.682069	304.2	32.1	-80.9	0.0
2025-01-16 12:24:48.807382	304.5	31.9	-80.8	0.0
2025-01-16 12:24:49.929536	304.8	31.8	-81.0	0.0
2025-01-16 12:24:51.053215	305.2	31.6	-80.5	0.0
2025-01-16 12:24:52.176669	305.5	31.5	-80.1	0.0
2025-01-16 12:24:53.300177	305.8	31.3	-79.4	0.0
2025-01-16 12:24:54.425357	306.1	31.2	-80.6	0.0
2025-01-16 12:24:55.547614	306.4	31.0	-80.9	0.0
2025-01-16 12:24:56.668505	306.6	30.9	-80.4	0.0
2025-01-16 12:24:57.789240	306.9	30.7	-81.1	0.0
2025-01-16 12:24:58.911681	307.2	30.6	-80.8	0.0
2025-01-16 12:25:00.035030	307.5	30.4	-80.9	0.0
2025-01-16 12:25:01.157892	307.8	30.3	-80.8	0.0
2025-01-16 12:25:02.279695	308.1	30.1	-81.0	0.0
2025-01-16 12:25:03.403668	308.4	30.0	-81.1	0.0
2025-01-16 12:25:04.525662	308.6	29.8	-80.9	0.0
2025-01-16 12:25:05.648348	308.9	29.7	-80.9	0.0
2025-01-16 12:25:06.774112	309.2	29.5	-80.9	0.0
2025-01-16 12:25:07.895735	309.4	29.4	-81.0	0.0
2025-01-16 12:25:09.018201	309.7	29.2	-81.0	0.0
2025-01-16 12:25:10.143072	310.0	29.1	-80.8	0.0
2025-01-16 12:25:11.266283	310.2	28.9	-80.8	0.0
2025-01-16 12:25:12.391762	310.5	28.8	-80.2	0.0
2025-01-16 12:25:13.513953	310.7	28.6	-79.9	0.0
2025-01-16 12:25:14.677843	311.0	28.5	-80.3	0.0
2025-01-16 12:25:15.801620	311.3	28.3	-81.0	0.0
2025-01-16 12:25:16.927347	311.5	28.2	-80.9	0.0
2025-01-16 12:25:18.048728	311.8	28.0	-80.9	0.0
2025-01-16 12:25:19.171780	312.0	27.9	-80.7	0.0
2025-01-16 12:25:20.295721	312.2	27.7	-80.9	0.0
2025-01-16 12:25:21.420641	312.5	27.6	-81.1	0.0
2025-01-16 12:25:22.543327	312.7	27.4	-80.6	0.0
2025-01-16 12:25:23.667435	313.0	27.3	-80.7	0.0
2025-01-16 12:25:24.788669	313.2	27.1	-80.7	0.0
2025-01-16 12:25:25.912190	313.4	27.0	-80.8	0.0
2025-01-16 12:25:27.034163	313.7	26.9	-80.8	0.0
2025-01-16 12:25:28.158657	313.9	26.7	-80.9	0.0
2025-01-16 12:25:29.284625	314.1	26.6	-81.1	0.0
2025-01-16 12:25:30.408793	314.3	26.4	-80.8	0.0
2025-01-16 12:25:31.530962	314.6	26.3	-80.8	0.0
2025-01-16 12:25:32.653739	314.8	26.1	-80.7	0.0
2025-01-16 12:25:33.777333	315.0	26.0	-79.8	0.0
2025-01-16 12:25:34.900428	315.2	25.8	-80.0	0.0
2025-01-16 12:25:36.026740	315.4	25.7	-80.9	0.0
2025-01-16 12:25:37.149589	315.6	25.6	-81.1	0.0
2025-01-16 12:25:38.271988	315.8	25.4	-80.9	0.0
2025-01-16 12:25:39.396215	316.1	25.3	-81.1	0.0
2025-01-16 12:25:40.520343	316.3	25.1	-81.1	0.0
2025-01-16 12:25:41.643905	316.5	25.0	-81.3	0.0
2025-01-16 12:25:42.767081	316.7	24.9	-80.9	0.0
2025-01-16 12:25:43.889016	316.9	24.7	-81.1	0.0
2025-01-16 12:25:45.011323	317.1	24.6	-81.1	0.0
2025-01-16 12:25:46.135354	317.3	24.4	-80.9	0.0
2025-01-16 12:25:47.256829	317.5	24.3	-81.1	0.0
2025-01-16 12:25:48.381636	317.7	24.2	-81.3	0.0
2025-01-16 12:25:49.503258	317.9	24.0	-81.1	0.0
2025-01-16 12:25:50.622966	318.0	23.9	-81.0	0.0
2025-01-16 12:25:51.746457	318.2	23.7	-80.9	0.0
2025-01-16 12:25:52.871043	318.4	23.6	-80.6	0.0
2025-01-16 12:25:53.992991	318.6	23.5	-80.2	0.0
2025-01-16 12:25:55.116900	318.8	23.3	-80.0	0.0
2025-01-16 12:25:56.240592	319.0	23.2	-80.7	0.0
2025-01-16 12:25:57.361985	319.2	23.1	-81.0	0.0
2025-01-16 12:25:58.487122	319.3	22.9	-80.6	0.0
2025-01-16 12:25:59.610170	319.5	22.8	-81.0	0.0
2025-01-16 12:26:00.733125	319.7	22.7	-81.1	0.0
2025-01-16 12:26:01.855392	319.9	22.5	-81.0	0.0
2025-01-16 12:26:02.976307	320.0	22.4	-81.1	0.0
2025-01-16 12:26:04.098641	320.2	22.3	-80.8	0.0
2025-01-16 12:26:05.224834	320.4	22.1	-80.8	0.0
2025-01-16 12:26:06.348396	320.6	22.0	-80.7	0.0
2025-01-16 12:26:07.470478	320.7	21.9	-80.7	0.0
2025-01-16 12:26:08.592798	320.9	21.7	-81.1	0.0
2025-01-16 12:26:09.712891	321.1	21.6	-81.1	0.0
2025-01-16 12:26:10.835884	321.2	21.5	-81.1	0.0
2025-01-16 12:26:11.958196	321.4	21.3	-80.8	0.0
2025-01-16 12:26:13.081736	321.5	21.2	-81.2	0.0
2025-01-16 12:26:14.204215	321.7	21.1	-80.5	0.0
2025-01-16 12:26:15.325511	321.9	21.0	-79.3	0.0
2025-01-16 12:26:16.445261	322.0	20.8	-80.7	0.0
2025-01-16 12:26:17.567501	322.2	20.7	-81.0	0.0
2025-01-16 12:26:18.691639	322.3	20.6	-81.1	0.0
2025-01-16 12:26:19.813749	322.5	20.5	-81.3	0.0
2025-01-16 12:26:20.936588	322.6	20.3	-81.2	0.0
2025-01-16 12:26:22.060461	322.8	20.2	-80.9	0.0
2025-01-16 12:26:23.185435	322.9	20.1	-81.1	0.0
2025-01-16 12:26:24.309833	323.1	20.0	-81.0	0.0
2025-01-16 12:26:25.434090	323.2	19.8	-80.9	0.0
2025-01-16 12:26:26.559040	323.4	19.7	-81.1	0.0
2025-01-16 12:26:27.681102	323.5	19.6	-81.1	0.0
2025-01-16 12:26:28.803179	323.7	19.5	-81.1	0.0
2025-01-16 12:26:29.925462	323.8	19.3	-80.9	0.0
2025-01-16 12:26:31.049502	324.0	19.2	-81.0	0.0
2025-01-16 12:26:32.172503	324.1	19.1	-80.6	0.0
2025-01-16 12:26:33.295375	324.2	19.0	-80.6	0.0
2025-01-16 12:26:34.418028	324.4	18.8	-80.7	0.0
2025-01-16 12:26:35.541037	324.5	18.7	-79.6	0.0
2025-01-16 12:26:36.662443	324.7	18.6	-80.2	0.0
2025-01-16 12:26:37.786543	324.8	18.5	-80.8	0.0
2025-01-16 12:26:38.908125	324.9	18.4	-81.3	0.0
2025-01-16 12:26:40.031383	325.1	18.3	-81.3	0.0
2025-01-16 12:26:41.155412	325.2	18.1	-81.2	0.0
2025-01-16 12:26:42.278144	325.3	18.0	-81.5	0.0
2025-01-16 12:26:43.402449	325.5	17.9	-81.3	0.0
2025-01-16 12:26:44.523949	325.6	17.8	-81.1	0.0
2025-01-16 12:26:45.645051	325.7	17.7	-80.8	0.0
2025-01-16 12:26:46.767702	325.9	17.6	-81.1	0.0
2025-01-16 12:26:47.890438	326.0	17.4	-81.1	0.0
2025-01-16 12:26:49.014848	326.1	17.3	-81.1	0.0
2025-01-16 12:26:50.137446	326.2	17.2	-81.1	0.0
2025-01-16 12:26:51.258674	326.4	17.1	-81.3	0.0
2025-01-16 12:26:52.380024	326.5	17.0	-80.9	0.0
2025-01-16 12:26:53.503919	326.6	16.9	-81.0	0.0
2025-01-16 12:26:54.627935	326.7	16.8	-80.9	0.0
2025-01-16 12:26:55.751601	326.8	16.6	-80.3	0.0
2025-01-16 12:26:56.875535	327.0	16.5	-80.3	0.0
2025-01-16 12:26:57.998974	327.1	16.4	-80.8	0.0
2025-01-16 12:26:59.123128	327.2	16.3	-81.5	0.0
2025-01-16 12:27:00.246907	327.3	16.2	-81.0	0.0
2025-01-16 12:27:01.371745	327.4	16.1	-81.2	0.0
2025-01-16 12:27:02.495747	327.6	16.0	-81.2	0.0
2025-01-16 12:27:03.617518	327.7	15.9	-81.0	0.0
2025-01-16 12:27:04.741605	327.8	15.8	-81.0	0.0
2025-01-16 12:27:05.863925	327.9	15.6	-81.4	0.0
2025-01-16 12:27:06.988883	328.0	15.5	-81.3	0.0
2025-01-16 12:27:08.113460	328.1	15.4	-81.3	0.0
2025-01-16 12:27:09.235468	328.2	15.3	-81.6	0.0
2025-01-16 12:27:10.357600	328.3	15.2	-80.9	0.0
2025-01-16 12:27:11.479718	328.5	15.1	-81.3	0.0
2025-01-16 12:27:12.601625	328.6	15.0	-81.4	0.0
2025-01-16 12:27:13.724304	328.7	14.9	-80.8	0.0
2025-01-16 12:27:14.845195	328.8	14.8	-81.2	0.0
2025-01-16 12:27:15.968427	328.9	14.7	-80.6	0.0
2025-01-16 12:27:17.093389	329.0	14.6	-80.1	0.0
2025-01-16 12:27:18.214564	329.1	14.5	-80.9	0.0
2025-01-16 12:27:19.338099	329.2	14.4	-81.5	0.0
2025-01-16 12:27:20.460955	329.3	14.3	-81.1	0.0
2025-01-16 12:27:21.588188	329.4	14.2	-81.3	0.0
2025-01-16 12:27:22.710104	329.5	14.1	-81.4	0.0
2025-01-16 12:27:23.834108	329.6	13.9	-81.2	0.0
2025-01-16 12:27:24.956513	329.7	13.8	-81.3	0.0
2025-01-16 12:27:26.079617	329.8	13.7	-81.3	0.0
2025-01-16 12:27:27.201825	329.9	13.6	-80.9	0.0
2025-01-16 12:27:28.325577	330.0	13.5	-81.5	0.0
2025-01-16 12:27:29.450408	330.1	13.4	-81.3	0.0
2025-01-16 12:27:30.573952	330.2	13.3	-81.4	0.0
2025-01-16 12:27:31.697939	330.3	13.2	-81.6	0.0
2025-01-16 12:27:32.818207	330.4	13.1	-81.4	0.0
2025-01-16 12:27:33.941684	330.5	13.0	-81.4	0.0
2025-01-16 12:27:35.065398	330.6	12.9	-81.4	0.0
2025-01-16 12:27:36.189686	330.7	12.8	-80.6	0.0
2025-01-16 12:27:37.311618	330.8	12.7	-79.8	0.0
2025-01-16 12:27:38.433813	330.9	12.6	-80.9	0.0
2025-01-16 12:27:39.555951	331.0	12.5	-80.9	0.0
2025-01-16 12:27:40.679867	331.1	12.4	-81.2	0.0
2025-01-16 12:27:41.803810	331.2	12.3	-81.4	0.0
2025-01-16 12:27:42.925791	331.2	12.2	-81.4	0.0
2025-01-16 12:27:44.047595	331.3	12.2	-81.3	0.0
2025-01-16 12:27:45.170921	331.4	12.1	-81.5	0.0
2025-01-16 12:27:46.295379	331.5	12.0	-81.0	0.0
2025-01-16 12:27:47.418450	331.6	11.9	-80.6	0.0
2025-01-16 12:27:48.542521	331.7	11.8	-81.2	0.0
2025-01-16 12:27:49.664556	331.8	11.7	-81.0	0.0
2025-01-16 12:27:50.786848	331.9	11.6	-81.5	0.0
2025-01-16 12:27:51.909676	332.0	11.5	-81.4	0.0
2025-01-16 12:27:53.032221	332.0	11.4	-81.4	0.0
2025-01-16 12:27:54.157697	332.1	11.3	-81.1	0.0
2025-01-16 12:27:55.279518	332.2	11.2	-81.2	0.0
2025-01-16 12:27:56.401823	332.3	11.1	-81.0	0.0
2025-01-16 12:27:57.524178	332.4	11.0	-80.2	0.0
2025-01-16 12:27:58.647296	332.5	10.9	-80.6	0.0
2025-01-16 12:27:59.770158	332.5	10.8	-81.5	0.0
2025-01-16 12:28:00.894057	332.6	10.7	-81.3	0.0
2025-01-16 12:28:02.015021	332.7	10.6	-81.4	0.0
2025-01-16 12:28:03.140330	332.8	10.6	-81.4	0.0
2025-01-16 12:28:04.263418	332.9	10.5	-81.0	0.0
2025-01-16 12:28:05.387259	333.0	10.4	-81.3	0.0
2025-01-16 12:28:06.510781	333.0	10.3	-81.4	0.0
2025-01-16 12:28:07.633886	333.1	10.2	-81.3	0.0
2025-01-16 12:28:08.757635	333.2	10.1	-81.1	0.0
#Closed at: 2025-01-16 12:17:56.165329