passes_logs/2025/01/16/planumMaritime01/planumMaritime01__20250116_091622_NOAA_18_rec.log

#Pass ID: 20250116_091622_NOAA 18
#Satellite: NOAA 18
#Configuration: NOAA 18
#Start time: 2025-01-16 09:16:27.533511

#LorettStation: 1.0.0 05.05.2024
#Station: planumMaritime01
#Location: 37.49445 lon 55.92918 lat
#TLE: 1 28654U 05018A   25015.16278545  .00000300  00000+0  18295-3 0  9990
#TLE: 2 28654  98.8567  96.2156 0014367 178.7074 181.4138 14.13486503 13201

#Time	Az	El	Level	SNR
2025-01-16 09:16:29.699188	14.5	10.2	-80.0	0.0
2025-01-16 09:16:30.824045	14.5	10.3	-79.9	0.0
2025-01-16 09:16:31.947253	14.5	10.4	-79.2	0.0
2025-01-16 09:16:33.071440	14.5	10.5	-79.9	0.0
2025-01-16 09:16:34.195301	14.5	10.6	-80.0	0.0
2025-01-16 09:16:35.319396	14.5	10.7	-80.2	0.0
2025-01-16 09:16:36.441993	14.4	10.8	-80.3	0.0
2025-01-16 09:16:37.564785	14.4	10.9	-79.9	0.0
2025-01-16 09:16:38.687666	14.4	11.0	-80.1	0.0
2025-01-16 09:16:39.809662	14.4	11.1	-79.9	0.0
2025-01-16 09:16:40.934398	14.4	11.2	-80.2	0.0
2025-01-16 09:16:42.056598	14.4	11.3	-80.3	0.0
2025-01-16 09:16:43.179949	14.3	11.4	-80.2	0.0
2025-01-16 09:16:44.302560	14.3	11.5	-80.3	0.0
2025-01-16 09:16:45.423693	14.3	11.6	-80.5	0.0
2025-01-16 09:16:46.546745	14.3	11.7	-80.2	0.0
2025-01-16 09:16:47.672662	14.3	11.8	-79.9	0.0
2025-01-16 09:16:48.795403	14.3	11.9	-80.4	0.0
2025-01-16 09:16:49.920512	14.2	12.0	-79.9	0.0
2025-01-16 09:16:51.043445	14.2	12.1	-80.0	0.0
2025-01-16 09:16:52.168289	14.2	12.2	-80.2	0.0
2025-01-16 09:16:53.289332	14.2	12.3	-80.3	0.0
2025-01-16 09:16:54.411788	14.2	12.4	-80.0	0.0
2025-01-16 09:16:55.534812	14.2	12.5	-80.5	0.0
2025-01-16 09:16:56.658788	14.1	12.6	-80.5	0.0
2025-01-16 09:16:57.782240	14.1	12.7	-80.1	0.0
2025-01-16 09:16:58.907755	14.1	12.8	-80.1	0.0
2025-01-16 09:17:00.030361	14.1	12.9	-80.6	0.0
2025-01-16 09:17:01.153381	14.1	13.1	-79.9	0.0
2025-01-16 09:17:02.277225	14.1	13.2	-80.2	0.0
2025-01-16 09:17:03.399682	14.0	13.3	-80.4	0.0
2025-01-16 09:17:04.520854	14.0	13.4	-80.4	0.0
2025-01-16 09:17:05.643901	14.0	13.5	-80.6	0.0
2025-01-16 09:17:06.763686	14.0	13.6	-80.5	0.0
2025-01-16 09:17:07.887210	14.0	13.7	-80.3	0.0
2025-01-16 09:17:09.013664	13.9	13.8	-80.2	0.0
2025-01-16 09:17:10.135702	13.9	13.9	-80.6	0.0
2025-01-16 09:17:11.258061	13.9	14.0	-80.4	0.0
2025-01-16 09:17:12.383897	13.9	14.2	-80.5	0.0
2025-01-16 09:17:13.506884	13.9	14.3	-80.8	0.0
2025-01-16 09:17:14.629249	13.8	14.4	-80.4	0.0
2025-01-16 09:17:15.752910	13.8	14.5	-80.7	0.0
2025-01-16 09:17:16.876015	13.8	14.6	-80.7	0.0
2025-01-16 09:17:17.999094	13.8	14.7	-81.0	0.0
2025-01-16 09:17:19.124127	13.8	14.9	-80.2	0.0
2025-01-16 09:17:20.246429	13.7	15.0	-80.4	0.0
2025-01-16 09:17:21.371318	13.7	15.1	-80.7	0.0
2025-01-16 09:17:22.496794	13.7	15.2	-80.6	0.0
2025-01-16 09:17:23.621531	13.7	15.3	-80.6	0.0
2025-01-16 09:17:24.746368	13.6	15.4	-80.6	0.0
2025-01-16 09:17:25.870935	13.6	15.6	-80.6	0.0
2025-01-16 09:17:26.995452	13.6	15.7	-80.6	0.0
2025-01-16 09:17:28.117862	13.6	15.8	-80.7	0.0
2025-01-16 09:17:29.241891	13.6	15.9	-80.5	0.0
2025-01-16 09:17:30.368276	13.5	16.0	-80.7	0.0
2025-01-16 09:17:31.488341	13.5	16.2	-80.8	0.0
2025-01-16 09:17:32.612544	13.5	16.3	-80.4	0.0
2025-01-16 09:17:33.736222	13.5	16.4	-80.5	0.0
2025-01-16 09:17:34.860019	13.4	16.5	-80.7	0.0
2025-01-16 09:17:35.984097	13.4	16.7	-80.4	0.0
2025-01-16 09:17:37.107029	13.4	16.8	-80.5	0.0
2025-01-16 09:17:38.229800	13.4	16.9	-80.1	0.0
2025-01-16 09:17:39.352757	13.3	17.0	-80.7	0.0
2025-01-16 09:17:40.477807	13.3	17.2	-80.5	0.0
2025-01-16 09:17:41.603155	13.3	17.3	-80.3	0.0
2025-01-16 09:17:42.725672	13.3	17.4	-80.4	0.0
2025-01-16 09:17:43.847840	13.2	17.6	-80.4	0.0
2025-01-16 09:17:44.971907	13.2	17.7	-80.4	0.0
2025-01-16 09:17:46.097666	13.2	17.8	-80.4	0.0
2025-01-16 09:17:47.220237	13.2	18.0	-80.6	0.0
2025-01-16 09:17:48.341511	13.1	18.1	-80.4	0.0
2025-01-16 09:17:49.463765	13.1	18.2	-80.7	0.0
2025-01-16 09:17:50.587811	13.1	18.4	-80.8	0.0
2025-01-16 09:17:51.711332	13.0	18.5	-80.8	0.0
2025-01-16 09:17:52.833282	13.0	18.6	-80.8	0.0
2025-01-16 09:17:53.957881	13.0	18.8	-80.5	0.0
2025-01-16 09:17:55.080302	13.0	18.9	-80.8	0.0
2025-01-16 09:17:56.203779	12.9	19.0	-80.7	0.0
2025-01-16 09:17:57.327768	12.9	19.2	-80.8	0.0
2025-01-16 09:17:58.450477	12.9	19.3	-80.7	0.0
2025-01-16 09:17:59.574568	12.8	19.5	-80.8	0.0
2025-01-16 09:18:00.698461	12.8	19.6	-80.8	0.0
2025-01-16 09:18:01.818631	12.8	19.7	-80.7	0.0
2025-01-16 09:18:02.940201	12.7	19.9	-81.0	0.0
2025-01-16 09:18:04.062568	12.7	20.0	-80.5	0.0
2025-01-16 09:18:05.187606	12.7	20.2	-80.7	0.0
2025-01-16 09:18:06.313111	12.7	20.3	-80.8	0.0
2025-01-16 09:18:07.435810	12.6	20.5	-80.6	0.0
2025-01-16 09:18:08.559471	12.6	20.6	-80.4	0.0
2025-01-16 09:18:09.682616	12.6	20.7	-80.5	0.0
2025-01-16 09:18:10.804581	12.5	20.9	-80.5	0.0
2025-01-16 09:18:11.928468	12.5	21.0	-80.5	0.0
2025-01-16 09:18:13.051643	12.5	21.2	-80.9	0.0
2025-01-16 09:18:14.173550	12.4	21.3	-80.6	0.0
2025-01-16 09:18:15.296218	12.4	21.5	-80.7	0.0
2025-01-16 09:18:16.420461	12.3	21.7	-80.1	0.0
2025-01-16 09:18:17.544756	12.3	21.8	-80.9	0.0
2025-01-16 09:18:18.667877	12.3	22.0	-80.6	0.0
2025-01-16 09:18:19.791790	12.2	22.1	-80.4	0.0
2025-01-16 09:18:20.914151	12.2	22.3	-80.0	0.0
2025-01-16 09:18:22.038319	12.2	22.4	-80.9	0.0
2025-01-16 09:18:23.161298	12.1	22.6	-80.7	0.0
2025-01-16 09:18:24.285126	12.1	22.7	-80.7	0.0
2025-01-16 09:18:25.409981	12.0	22.9	-80.0	0.0
2025-01-16 09:18:26.532214	12.0	23.1	-80.2	0.0
2025-01-16 09:18:27.653361	12.0	23.2	-80.3	0.0
2025-01-16 09:18:28.778019	11.9	23.4	-80.7	0.0
2025-01-16 09:18:29.902638	11.9	23.6	-80.4	0.0
2025-01-16 09:18:31.023647	11.8	23.7	-80.8	0.0
2025-01-16 09:18:32.145671	11.8	23.9	-80.9	0.0
2025-01-16 09:18:33.269065	11.8	24.1	-80.6	0.0
2025-01-16 09:18:34.390330	11.7	24.2	-81.1	0.0
2025-01-16 09:18:35.515139	11.7	24.4	-81.0	0.0
2025-01-16 09:18:36.639102	11.6	24.6	-81.0	0.0
2025-01-16 09:18:37.761461	11.6	24.7	-80.8	0.0
2025-01-16 09:18:38.884380	11.5	24.9	-81.0	0.0
2025-01-16 09:18:40.007631	11.5	25.1	-80.7	0.0
2025-01-16 09:18:41.130540	11.5	25.3	-80.7	0.0
2025-01-16 09:18:42.253858	11.4	25.4	-81.1	0.0
2025-01-16 09:18:43.377238	11.4	25.6	-80.7	0.0
2025-01-16 09:18:44.501397	11.3	25.8	-80.7	0.0
2025-01-16 09:18:45.623358	11.3	26.0	-80.5	0.0
2025-01-16 09:18:46.747147	11.2	26.1	-81.1	0.0
2025-01-16 09:18:47.871773	11.2	26.3	-80.5	0.0
2025-01-16 09:18:48.996396	11.1	26.5	-80.6	0.0
2025-01-16 09:18:50.121042	11.1	26.7	-80.5	0.0
2025-01-16 09:18:51.243413	11.0	26.9	-80.5	0.0
2025-01-16 09:18:52.367072	11.0	27.1	-80.6	0.0
2025-01-16 09:18:53.490971	10.9	27.3	-80.5	0.0
2025-01-16 09:18:54.614127	10.9	27.4	-80.6	0.0
2025-01-16 09:18:55.740701	10.8	27.6	-80.7	0.0
2025-01-16 09:18:56.864799	10.8	27.8	-80.5	0.0
2025-01-16 09:18:57.987018	10.7	28.0	-80.4	0.0
2025-01-16 09:18:59.111783	10.6	28.2	-80.4	0.0
2025-01-16 09:19:00.234927	10.6	28.4	-80.6	0.0
2025-01-16 09:19:01.356993	10.5	28.6	-80.5	0.0
2025-01-16 09:19:02.480093	10.5	28.8	-81.1	0.0
2025-01-16 09:19:03.605559	10.4	29.0	-80.6	0.0
2025-01-16 09:19:04.727809	10.4	29.2	-80.8	0.0
2025-01-16 09:19:05.850781	10.3	29.4	-80.8	0.0
2025-01-16 09:19:06.974787	10.2	29.6	-80.6	0.0
2025-01-16 09:19:08.098113	10.2	29.8	-80.7	0.0
2025-01-16 09:19:09.221969	10.1	30.0	-80.6	0.0
2025-01-16 09:19:10.345062	10.0	30.2	-80.5	0.0
2025-01-16 09:19:11.468808	10.0	30.4	-80.8	0.0
2025-01-16 09:19:12.592752	9.9	30.7	-81.0	0.0
2025-01-16 09:19:13.715046	9.8	30.9	-80.9	0.0
2025-01-16 09:19:14.838116	9.8	31.1	-80.9	0.0
2025-01-16 09:19:15.960452	9.7	31.3	-80.6	0.0
2025-01-16 09:19:17.079836	9.6	31.5	-81.0	0.0
2025-01-16 09:19:18.204619	9.6	31.7	-80.9	0.0
2025-01-16 09:19:19.327659	9.5	32.0	-80.6	0.0
2025-01-16 09:19:20.449439	9.4	32.2	-80.7	0.0
2025-01-16 09:19:21.575173	9.4	32.4	-80.7	0.0
2025-01-16 09:19:22.701766	9.3	32.6	-80.6	0.0
2025-01-16 09:19:23.824316	9.2	32.9	-80.8	0.0
2025-01-16 09:19:24.948763	9.1	33.1	-80.5	0.0
2025-01-16 09:19:26.072453	9.0	33.3	-80.5	0.0
2025-01-16 09:19:27.195171	9.0	33.5	-80.7	0.0
2025-01-16 09:19:28.318144	8.9	33.8	-80.5	0.0
2025-01-16 09:19:29.441931	8.8	34.0	-80.7	0.0
2025-01-16 09:19:30.563891	8.7	34.2	-80.1	0.0
2025-01-16 09:19:31.685446	8.6	34.5	-80.6	0.0
2025-01-16 09:19:32.807360	8.6	34.7	-80.7	0.0
2025-01-16 09:19:33.930782	8.5	35.0	-80.4	0.0
2025-01-16 09:19:35.055034	8.4	35.2	-80.6	0.0
2025-01-16 09:19:36.177482	8.3	35.5	-80.5	0.0
2025-01-16 09:19:37.299804	8.2	35.7	-80.6	0.0
2025-01-16 09:19:38.422078	8.1	36.0	-80.7	0.0
2025-01-16 09:19:39.544010	8.0	36.2	-80.5	0.0
2025-01-16 09:19:40.668393	7.9	36.5	-80.7	0.0
2025-01-16 09:19:41.792094	7.8	36.7	-81.0	0.0
2025-01-16 09:19:42.915426	7.7	37.0	-80.9	0.0
2025-01-16 09:19:44.038495	7.6	37.2	-80.8	0.0
2025-01-16 09:19:45.160553	7.5	37.5	-81.0	0.0
2025-01-16 09:19:46.284822	7.4	37.8	-80.9	0.0
2025-01-16 09:19:47.410001	7.3	38.0	-80.9	0.0
2025-01-16 09:19:48.535970	7.2	38.3	-80.8	0.0
2025-01-16 09:19:49.657597	7.1	38.6	-80.7	0.0
2025-01-16 09:19:50.782570	7.0	38.8	-80.8	0.0
2025-01-16 09:19:51.906964	6.9	39.1	-80.7	0.0
2025-01-16 09:19:53.031456	6.8	39.4	-80.8	0.0
2025-01-16 09:19:54.154854	6.6	39.7	-80.9	0.0
2025-01-16 09:19:55.278442	6.5	39.9	-80.9	0.0
2025-01-16 09:19:56.401818	6.4	40.2	-80.8	0.0
2025-01-16 09:19:57.524260	6.3	40.5	-80.9	0.0
2025-01-16 09:19:58.649341	6.2	40.8	-80.8	0.0
2025-01-16 09:19:59.774111	6.0	41.1	-80.8	0.0
2025-01-16 09:20:00.898392	5.9	41.4	-80.7	0.0
2025-01-16 09:20:02.020504	5.8	41.7	-80.7	0.0
2025-01-16 09:20:03.144059	5.6	42.0	-81.1	0.0
2025-01-16 09:20:04.267230	5.5	42.3	-81.1	0.0
2025-01-16 09:20:05.391209	5.3	42.6	-80.7	0.0
2025-01-16 09:20:06.518204	5.2	42.9	-80.8	0.0
2025-01-16 09:20:07.641912	5.1	43.2	-80.8	0.0
2025-01-16 09:20:08.764619	4.9	43.5	-81.0	0.0
2025-01-16 09:20:09.888794	4.8	43.8	-80.6	0.0
2025-01-16 09:20:11.011809	4.6	44.1	-80.6	0.0
2025-01-16 09:20:12.136987	4.4	44.4	-81.1	0.0
2025-01-16 09:20:13.261130	4.3	44.7	-81.2	0.0
2025-01-16 09:20:14.384545	4.1	45.0	-80.9	0.0
2025-01-16 09:20:15.507216	4.0	45.3	-80.9	0.0
2025-01-16 09:20:16.629402	3.8	45.7	-81.3	0.0
2025-01-16 09:20:17.756115	3.6	46.0	-81.2	0.0
2025-01-16 09:20:18.878282	3.4	46.3	-81.1	0.0
2025-01-16 09:20:20.001261	3.2	46.6	-81.1	0.0
2025-01-16 09:20:21.123535	3.1	47.0	-81.0	0.0
2025-01-16 09:20:22.247361	2.9	47.3	-80.9	0.0
2025-01-16 09:20:23.371322	2.7	47.6	-80.9	0.0
2025-01-16 09:20:24.492536	2.5	48.0	-81.1	0.0
2025-01-16 09:20:25.615951	2.3	48.3	-80.6	0.0
2025-01-16 09:20:26.739187	2.1	48.7	-80.5	0.0
2025-01-16 09:20:27.864676	1.9	49.0	-81.2	0.0
2025-01-16 09:20:28.987910	1.6	49.4	-81.2	0.0
2025-01-16 09:20:30.112661	1.4	49.7	-81.1	0.0
2025-01-16 09:20:31.234753	1.2	50.1	-81.2	0.0
2025-01-16 09:20:32.358007	1.0	50.4	-81.0	0.0
2025-01-16 09:20:33.480147	0.7	50.8	-81.1	0.0
2025-01-16 09:20:34.606469	0.5	51.1	-80.8	0.0
2025-01-16 09:20:35.730656	0.2	51.5	-80.9	0.0
2025-01-16 09:20:36.852928	360.0	51.8	-80.9	0.0
2025-01-16 09:20:37.975642	359.7	52.2	-80.7	0.0
2025-01-16 09:20:39.098905	359.4	52.6	-80.9	0.0
2025-01-16 09:20:40.223655	359.1	52.9	-80.8	0.0
2025-01-16 09:20:41.346646	358.9	53.3	-80.8	0.0
2025-01-16 09:20:42.470055	358.6	53.7	-81.1	0.0
2025-01-16 09:20:43.592004	358.3	54.1	-81.1	0.0
2025-01-16 09:20:44.717152	358.0	54.4	-80.8	0.0
2025-01-16 09:20:45.842254	357.6	54.8	-81.0	0.0
2025-01-16 09:20:46.966621	357.3	55.2	-80.8	0.0
2025-01-16 09:20:48.089530	357.0	55.6	-81.0	0.0
2025-01-16 09:20:49.213356	356.6	55.9	-80.8	0.0
2025-01-16 09:20:50.337698	356.3	56.3	-81.1	0.0
2025-01-16 09:20:51.460754	355.9	56.7	-80.8	0.0
2025-01-16 09:20:52.582412	355.6	57.1	-80.9	0.0
2025-01-16 09:20:53.706986	355.2	57.5	-80.8	0.0
2025-01-16 09:20:54.831248	354.8	57.9	-80.8	0.0
2025-01-16 09:20:55.954785	354.4	58.3	-80.9	0.0
2025-01-16 09:20:57.078010	353.9	58.7	-81.4	0.0
2025-01-16 09:20:58.200850	353.5	59.1	-81.4	0.0
2025-01-16 09:20:59.323055	353.1	59.5	-81.1	0.0
2025-01-16 09:21:00.447439	352.6	59.9	-80.7	0.0
2025-01-16 09:21:01.570726	352.1	60.3	-80.7	0.0
2025-01-16 09:21:02.692523	351.7	60.7	-80.6	0.0
2025-01-16 09:21:03.816004	351.1	61.1	-80.9	0.0
2025-01-16 09:21:04.939282	350.6	61.4	-81.0	0.0
2025-01-16 09:21:06.064190	350.1	61.8	-80.7	0.0
2025-01-16 09:21:07.188653	349.5	62.2	-81.0	0.0
2025-01-16 09:21:08.311208	349.0	62.6	-80.5	0.0
2025-01-16 09:21:09.436305	348.4	63.0	-80.9	0.0
2025-01-16 09:21:10.558425	347.7	63.4	-80.6	0.0
2025-01-16 09:21:11.682165	347.1	63.8	-80.6	0.0
2025-01-16 09:21:12.805052	346.5	64.2	-80.6	0.0
2025-01-16 09:21:13.930299	345.8	64.6	-80.7	0.0
2025-01-16 09:21:15.055356	345.1	65.0	-80.6	0.0
2025-01-16 09:21:16.178637	344.3	65.4	-80.7	0.0
2025-01-16 09:21:17.301279	343.6	65.8	-81.0	0.0
2025-01-16 09:21:18.424019	342.8	66.2	-80.5	0.0
2025-01-16 09:21:19.546966	342.0	66.6	-80.5	0.0
2025-01-16 09:21:20.668060	341.1	67.0	-80.6	0.0
2025-01-16 09:21:21.790160	340.3	67.4	-80.8	0.0
2025-01-16 09:21:22.914498	339.4	67.7	-80.6	0.0
2025-01-16 09:21:24.036394	338.4	68.1	-80.8	0.0
2025-01-16 09:21:25.161353	337.4	68.5	-80.5	0.0
2025-01-16 09:21:26.284212	336.4	68.8	-80.4	0.0
2025-01-16 09:21:27.405625	335.4	69.2	-80.6	0.0
2025-01-16 09:21:28.525616	334.3	69.6	-80.8	0.0
2025-01-16 09:21:29.649171	333.1	69.9	-80.8	0.0
2025-01-16 09:21:30.771960	332.0	70.2	-80.6	0.0
2025-01-16 09:21:31.895058	330.7	70.6	-80.8	0.0
2025-01-16 09:21:33.017411	329.5	70.9	-81.1	0.0
2025-01-16 09:21:34.141185	328.2	71.2	-80.8	0.0
2025-01-16 09:21:35.265023	326.8	71.5	-80.9	0.0
2025-01-16 09:21:36.386866	325.4	71.8	-80.7	0.0
2025-01-16 09:21:37.511348	323.9	72.1	-80.5	0.0
2025-01-16 09:21:38.633536	322.4	72.4	-80.9	0.0
2025-01-16 09:21:39.756330	320.9	72.7	-80.4	0.0
2025-01-16 09:21:40.879332	319.2	72.9	-80.7	0.0
2025-01-16 09:21:42.000520	317.6	73.2	-80.7	0.0
2025-01-16 09:21:43.122221	315.9	73.4	-81.0	0.0
2025-01-16 09:21:44.246944	314.1	73.6	-80.4	0.0
2025-01-16 09:21:45.372447	312.3	73.8	-80.7	0.0
2025-01-16 09:21:46.495342	310.4	74.0	-81.0	0.0
2025-01-16 09:21:47.620125	308.5	74.2	-80.6	0.0
2025-01-16 09:21:48.743547	306.6	74.4	-80.5	0.0
2025-01-16 09:21:49.865148	304.6	74.5	-80.9	0.0
2025-01-16 09:21:50.987563	302.6	74.6	-80.7	0.0
2025-01-16 09:21:52.112168	300.5	74.7	-80.7	0.0
2025-01-16 09:21:53.235435	298.5	74.8	-80.9	0.0
2025-01-16 09:21:54.358513	296.4	74.9	-80.9	0.0
2025-01-16 09:21:55.482864	294.3	74.9	-81.0	0.0
2025-01-16 09:21:56.604382	292.1	74.9	-80.8	0.0
2025-01-16 09:21:57.730789	290.0	74.9	-80.9	0.0
2025-01-16 09:21:58.852417	287.9	74.9	-81.1	0.0
2025-01-16 09:21:59.977429	285.8	74.9	-80.8	0.0
2025-01-16 09:22:01.102648	283.7	74.8	-80.8	0.0
2025-01-16 09:22:02.225956	281.6	74.7	-80.9	0.0
2025-01-16 09:22:03.347303	279.5	74.6	-81.0	0.0
2025-01-16 09:22:04.471500	277.5	74.5	-80.6	0.0
2025-01-16 09:22:05.596013	275.5	74.4	-80.7	0.0
2025-01-16 09:22:06.718259	273.6	74.2	-80.4	0.0
2025-01-16 09:22:07.841263	271.7	74.1	-80.2	0.0
2025-01-16 09:22:08.962018	269.8	73.9	-80.4	0.0
2025-01-16 09:22:10.088353	268.0	73.7	-80.3	0.0
2025-01-16 09:22:11.211897	266.2	73.5	-80.6	0.0
2025-01-16 09:22:12.335155	264.5	73.2	-80.5	0.0
2025-01-16 09:22:13.456695	262.8	73.0	-80.3	1.7
2025-01-16 09:22:14.581482	261.2	72.7	-80.3	2.1
2025-01-16 09:22:15.704568	259.6	72.5	-80.1	1.8
2025-01-16 09:22:16.828023	258.1	72.2	-80.1	2.3
2025-01-16 09:22:17.949754	256.6	71.9	-79.9	2.9
2025-01-16 09:22:19.071478	255.2	71.6	-79.9	3.0
2025-01-16 09:22:20.194936	253.8	71.3	-79.8	3.9
2025-01-16 09:22:21.317907	252.5	71.0	-79.8	2.9
2025-01-16 09:22:22.441618	251.2	70.6	-79.7	3.0
2025-01-16 09:22:23.563721	250.0	70.3	-80.0	2.4
2025-01-16 09:22:24.687239	248.8	70.0	-80.2	3.6
2025-01-16 09:22:25.810242	247.6	69.6	-80.1	1.9
2025-01-16 09:22:26.933437	246.5	69.3	-80.1	1.5
2025-01-16 09:22:28.056288	245.5	68.9	-80.1	0.0
2025-01-16 09:22:29.180713	244.4	68.5	-80.1	1.6
2025-01-16 09:22:30.306194	243.5	68.2	-80.0	1.9
2025-01-16 09:22:31.428621	242.5	67.8	-80.2	2.0
2025-01-16 09:22:32.551334	241.6	67.4	-79.8	0.7
2025-01-16 09:22:33.674590	240.7	67.0	-80.1	1.1
2025-01-16 09:22:34.798621	239.9	66.6	-80.5	0.0
2025-01-16 09:22:35.922190	239.0	66.3	-80.8	0.0
2025-01-16 09:22:37.048822	238.2	65.9	-80.4	0.0
2025-01-16 09:22:38.172414	237.5	65.5	-80.7	0.0
2025-01-16 09:22:39.295317	236.7	65.1	-80.9	0.0
2025-01-16 09:22:40.419241	236.0	64.7	-81.2	0.0
2025-01-16 09:22:41.542627	235.3	64.3	-81.1	0.0
2025-01-16 09:22:42.667543	234.7	63.9	-81.5	0.0
2025-01-16 09:22:43.792591	234.0	63.5	-81.1	0.0
2025-01-16 09:22:44.914994	233.4	63.1	-81.3	0.0
2025-01-16 09:22:46.036853	232.8	62.7	-81.0	0.0
2025-01-16 09:22:47.161560	232.2	62.3	-81.1	0.0
2025-01-16 09:22:48.284353	231.7	61.9	-80.8	0.0
2025-01-16 09:22:49.407874	231.1	61.5	-81.0	0.0
2025-01-16 09:22:50.531355	230.6	61.1	-80.9	0.0
2025-01-16 09:22:51.655125	230.1	60.7	-80.8	0.0
2025-01-16 09:22:52.779882	229.6	60.3	-81.1	0.0
2025-01-16 09:22:53.902795	229.1	59.9	-81.2	0.0
2025-01-16 09:22:55.026216	228.7	59.5	-80.6	0.0
2025-01-16 09:22:56.149651	228.2	59.1	-80.7	0.0
2025-01-16 09:22:57.272515	227.8	58.7	-80.7	0.0
2025-01-16 09:22:58.396421	227.4	58.3	-80.6	0.0
2025-01-16 09:22:59.519501	226.9	57.9	-80.7	0.0
2025-01-16 09:23:00.640788	226.6	57.5	-80.4	0.0
2025-01-16 09:23:01.762555	226.2	57.1	-80.3	0.2
2025-01-16 09:23:02.886851	225.8	56.7	-80.0	0.0
2025-01-16 09:23:04.011525	225.4	56.3	-80.2	1.3
2025-01-16 09:23:05.134042	225.1	55.9	-79.8	2.1
2025-01-16 09:23:06.256533	224.7	55.6	-79.9	3.0
2025-01-16 09:23:07.380817	224.4	55.2	-79.6	2.2
2025-01-16 09:23:08.504041	224.1	54.8	-79.9	3.5
2025-01-16 09:23:09.626548	223.7	54.4	-79.7	4.7
2025-01-16 09:23:10.750743	223.4	54.0	-79.9	4.9
2025-01-16 09:23:11.873448	223.1	53.7	-79.8	4.4
2025-01-16 09:23:12.993645	222.8	53.3	-80.0	4.0
2025-01-16 09:23:14.115756	222.6	52.9	-80.1	4.2
2025-01-16 09:23:15.237577	222.3	52.5	-79.9	3.8
2025-01-16 09:23:16.362497	222.0	52.2	-80.0	3.4
2025-01-16 09:23:17.487457	221.7	51.8	-80.0	3.2
2025-01-16 09:23:18.613826	221.5	51.4	-80.1	3.7
2025-01-16 09:23:19.737385	221.2	51.1	-80.0	2.4
2025-01-16 09:23:20.863065	221.0	50.7	-79.4	3.5
2025-01-16 09:23:21.986169	220.7	50.4	-79.7	4.5
2025-01-16 09:23:23.109293	220.5	50.0	-79.8	4.1
2025-01-16 09:23:24.234241	220.3	49.7	-79.9	3.7
2025-01-16 09:23:25.356493	220.0	49.3	-79.9	3.5
2025-01-16 09:23:26.481092	219.8	49.0	-80.3	3.8
2025-01-16 09:23:27.604429	219.6	48.6	-80.3	3.2
2025-01-16 09:23:28.725447	219.4	48.3	-80.0	2.4
2025-01-16 09:23:29.846545	219.2	47.9	-80.1	3.3
2025-01-16 09:23:30.970120	219.0	47.6	-80.0	2.8
2025-01-16 09:23:32.093489	218.8	47.2	-79.9	2.3
2025-01-16 09:23:33.217079	218.6	46.9	-79.9	3.9
2025-01-16 09:23:34.340279	218.4	46.6	-79.9	4.0
2025-01-16 09:23:35.461997	218.2	46.2	-79.7	3.3
2025-01-16 09:23:36.585040	218.1	45.9	-80.1	3.5
2025-01-16 09:23:37.709880	217.9	45.6	-79.8	2.9
2025-01-16 09:23:38.832274	217.7	45.3	-79.8	2.5
2025-01-16 09:23:39.956335	217.5	44.9	-80.2	2.6
2025-01-16 09:23:41.079542	217.4	44.6	-80.5	1.7
2025-01-16 09:23:42.204273	217.2	44.3	-80.5	0.0
2025-01-16 09:23:43.329320	217.1	44.0	-80.6	0.6
2025-01-16 09:23:44.450574	216.9	43.7	-80.6	0.6
2025-01-16 09:23:45.573261	216.7	43.4	-80.0	0.0
2025-01-16 09:23:46.694001	216.6	43.1	-80.6	0.0
2025-01-16 09:23:47.818590	216.4	42.8	-80.8	0.3
2025-01-16 09:23:48.940888	216.3	42.5	-80.9	0.1
2025-01-16 09:23:50.063763	216.2	42.2	-81.0	0.0
2025-01-16 09:23:51.186844	216.0	41.9	-80.8	0.0
2025-01-16 09:23:52.308524	215.9	41.6	-80.3	0.0
2025-01-16 09:23:53.430482	215.8	41.3	-80.2	0.0
2025-01-16 09:23:54.555705	215.6	41.0	-81.0	0.0
2025-01-16 09:23:55.679106	215.5	40.7	-80.7	0.0
2025-01-16 09:23:56.803680	215.4	40.4	-81.0	0.0
2025-01-16 09:23:57.925783	215.2	40.1	-80.9	0.0
2025-01-16 09:23:59.047705	215.1	39.8	-81.0	0.0
2025-01-16 09:24:00.171477	215.0	39.5	-81.0	0.0
2025-01-16 09:24:01.292566	214.9	39.3	-81.3	0.0
2025-01-16 09:24:02.417814	214.8	39.0	-81.6	0.0
2025-01-16 09:24:03.540281	214.7	38.7	-80.8	0.0
2025-01-16 09:24:04.665253	214.5	38.4	-80.9	0.0
2025-01-16 09:24:05.784943	214.4	38.2	-81.0	0.0
2025-01-16 09:24:06.907484	214.3	37.9	-80.8	0.0
2025-01-16 09:24:08.028992	214.2	37.6	-81.2	0.0
2025-01-16 09:24:09.153456	214.1	37.4	-81.4	0.0
2025-01-16 09:24:10.277711	214.0	37.1	-81.4	0.0
2025-01-16 09:24:11.400018	213.9	36.8	-81.3	0.0
2025-01-16 09:24:12.524075	213.8	36.6	-81.4	0.0
2025-01-16 09:24:13.646530	213.7	36.3	-81.2	0.0
2025-01-16 09:24:14.768975	213.6	36.1	-81.4	0.0
2025-01-16 09:24:15.892555	213.5	35.8	-80.8	0.0
2025-01-16 09:24:17.014731	213.4	35.6	-81.2	0.0
2025-01-16 09:24:18.137229	213.3	35.3	-81.3	0.0
2025-01-16 09:24:19.258947	213.3	35.1	-80.9	0.0
2025-01-16 09:24:20.382046	213.2	34.8	-80.9	0.0
2025-01-16 09:24:21.504087	213.1	34.6	-81.3	0.0
2025-01-16 09:24:22.628662	213.0	34.3	-81.5	0.0
2025-01-16 09:24:23.750923	212.9	34.1	-81.1	0.0
2025-01-16 09:24:24.873833	212.8	33.9	-81.0	0.0
2025-01-16 09:24:25.997324	212.7	33.6	-81.5	0.0
2025-01-16 09:24:27.119336	212.7	33.4	-80.9	0.0
2025-01-16 09:24:28.242675	212.6	33.1	-81.3	0.0
2025-01-16 09:24:29.365850	212.5	32.9	-81.2	0.0
2025-01-16 09:24:30.489208	212.4	32.7	-81.5	0.0
2025-01-16 09:24:31.613171	212.3	32.5	-81.5	0.0
2025-01-16 09:24:32.735039	212.3	32.2	-81.6	0.0
2025-01-16 09:24:33.858084	212.2	32.0	-81.4	0.0
2025-01-16 09:24:34.981356	212.1	31.8	-81.7	0.0
2025-01-16 09:24:36.106007	212.0	31.6	-81.5	0.0
2025-01-16 09:24:37.230563	212.0	31.3	-81.7	0.0
2025-01-16 09:24:38.353085	211.9	31.1	-81.3	0.0
2025-01-16 09:24:39.475531	211.8	30.9	-81.3	0.0
2025-01-16 09:24:40.598447	211.8	30.7	-81.2	0.0
2025-01-16 09:24:41.720300	211.7	30.5	-80.9	0.0
2025-01-16 09:24:42.842446	211.6	30.3	-81.0	0.0
2025-01-16 09:24:43.965563	211.6	30.0	-81.2	0.0
2025-01-16 09:24:45.091169	211.5	29.8	-81.2	0.0
2025-01-16 09:24:46.213344	211.4	29.6	-81.0	0.0
2025-01-16 09:24:47.336845	211.4	29.4	-81.2	0.0
2025-01-16 09:24:48.459672	211.3	29.2	-81.3	0.0
2025-01-16 09:24:49.585023	211.3	29.0	-81.5	0.0
2025-01-16 09:24:50.707750	211.2	28.8	-81.4	0.0
2025-01-16 09:24:51.830818	211.1	28.6	-81.7	0.0
2025-01-16 09:24:52.951577	211.1	28.4	-81.4	0.0
2025-01-16 09:24:54.076759	211.0	28.2	-81.4	0.0
2025-01-16 09:24:55.202347	211.0	28.0	-81.1	0.0
2025-01-16 09:24:56.326558	210.9	27.8	-81.1	0.0
2025-01-16 09:24:57.448322	210.9	27.6	-81.1	0.0
2025-01-16 09:24:58.570556	210.8	27.4	-81.2	0.0
2025-01-16 09:24:59.692448	210.7	27.2	-81.4	0.0
2025-01-16 09:25:00.817170	210.7	27.0	-81.6	0.0
2025-01-16 09:25:01.941420	210.6	26.9	-81.3	0.0
2025-01-16 09:25:03.064825	210.6	26.7	-81.2	0.0
2025-01-16 09:25:04.189328	210.5	26.5	-81.1	0.0
2025-01-16 09:25:05.313939	210.5	26.3	-81.3	0.0
2025-01-16 09:25:06.437671	210.4	26.1	-80.9	0.0
2025-01-16 09:25:07.560140	210.4	25.9	-81.0	0.0
2025-01-16 09:25:08.681976	210.3	25.8	-81.2	0.0
2025-01-16 09:25:09.804813	210.3	25.6	-81.3	0.0
2025-01-16 09:25:10.927748	210.2	25.4	-81.2	0.0
2025-01-16 09:25:12.051816	210.2	25.2	-81.1	0.0
2025-01-16 09:25:13.175480	210.1	25.0	-80.7	0.0
2025-01-16 09:25:14.300071	210.1	24.9	-80.8	0.0
2025-01-16 09:25:15.424525	210.0	24.7	-80.5	0.0
2025-01-16 09:25:16.546805	210.0	24.5	-80.8	0.0
2025-01-16 09:25:17.668315	210.0	24.3	-81.0	0.0
2025-01-16 09:25:18.792145	209.9	24.2	-81.0	0.0
2025-01-16 09:25:19.917148	209.9	24.0	-80.8	0.0
2025-01-16 09:25:21.040655	209.8	23.8	-81.1	0.0
2025-01-16 09:25:22.165291	209.8	23.7	-81.1	0.0
2025-01-16 09:25:23.288269	209.7	23.5	-81.0	0.0
2025-01-16 09:25:24.410986	209.7	23.3	-80.7	0.0
2025-01-16 09:25:25.533695	209.7	23.2	-80.7	0.0
2025-01-16 09:25:26.655229	209.6	23.0	-81.1	0.0
2025-01-16 09:25:27.779403	209.6	22.8	-81.0	0.0
2025-01-16 09:25:28.900932	209.5	22.7	-81.4	0.0
2025-01-16 09:25:30.025975	209.5	22.5	-81.4	0.0
2025-01-16 09:25:31.152443	209.5	22.3	-81.1	0.0
2025-01-16 09:25:32.277909	209.4	22.2	-81.1	0.0
2025-01-16 09:25:33.402160	209.4	22.0	-81.1	0.0
2025-01-16 09:25:34.523123	209.3	21.9	-81.4	0.0
2025-01-16 09:25:35.647187	209.3	21.7	-81.3	0.0
2025-01-16 09:25:36.772422	209.3	21.6	-81.3	0.0
2025-01-16 09:25:37.893403	209.2	21.4	-81.3	0.0
2025-01-16 09:25:39.016745	209.2	21.3	-81.3	0.0
2025-01-16 09:25:40.140586	209.2	21.1	-81.8	0.0
2025-01-16 09:25:41.265214	209.1	21.0	-81.3	0.0
2025-01-16 09:25:42.387936	209.1	20.8	-81.4	0.0
2025-01-16 09:25:43.511065	209.0	20.7	-81.2	0.0
2025-01-16 09:25:44.633804	209.0	20.5	-81.2	0.0
2025-01-16 09:25:45.756344	209.0	20.4	-81.0	0.0
2025-01-16 09:25:46.881687	208.9	20.2	-81.8	0.0
2025-01-16 09:25:48.003564	208.9	20.1	-81.6	0.0
2025-01-16 09:25:49.126470	208.9	19.9	-81.6	0.0
2025-01-16 09:25:50.248117	208.8	19.8	-81.0	0.0
2025-01-16 09:25:51.372707	208.8	19.6	-81.1	0.0
2025-01-16 09:25:52.495559	208.8	19.5	-81.2	0.0
2025-01-16 09:25:53.617564	208.8	19.3	-81.2	0.0
2025-01-16 09:25:54.741483	208.7	19.2	-80.9	0.0
2025-01-16 09:25:55.865026	208.7	19.1	-81.1	0.0
2025-01-16 09:25:56.987806	208.7	18.9	-80.8	0.0
2025-01-16 09:25:58.112331	208.6	18.8	-80.8	0.0
2025-01-16 09:25:59.236414	208.6	18.6	-80.4	0.0
2025-01-16 09:26:00.359560	208.6	18.5	-80.9	0.0
2025-01-16 09:26:01.482022	208.5	18.4	-80.5	0.0
2025-01-16 09:26:02.604371	208.5	18.2	-81.0	0.0
2025-01-16 09:26:03.728168	208.5	18.1	-80.9	0.0
2025-01-16 09:26:04.851526	208.5	18.0	-81.0	0.0
2025-01-16 09:26:05.975108	208.4	17.8	-81.1	0.0
2025-01-16 09:26:07.096437	208.4	17.7	-81.3	0.0
2025-01-16 09:26:08.220895	208.4	17.6	-81.0	0.0
2025-01-16 09:26:09.343376	208.3	17.4	-81.5	0.0
2025-01-16 09:26:10.466245	208.3	17.3	-81.3	0.0
2025-01-16 09:26:11.589421	208.3	17.2	-81.4	0.0
2025-01-16 09:26:12.712794	208.3	17.0	-81.6	0.0
2025-01-16 09:26:13.836665	208.2	16.9	-81.4	0.0
2025-01-16 09:26:14.959827	208.2	16.8	-81.1	0.0
2025-01-16 09:26:16.082148	208.2	16.7	-81.2	0.0
2025-01-16 09:26:17.206155	208.2	16.5	-81.7	0.0
2025-01-16 09:26:18.327784	208.1	16.4	-81.7	0.0
2025-01-16 09:26:19.450062	208.1	16.3	-81.2	0.0
2025-01-16 09:26:20.573248	208.1	16.1	-81.4	0.0
2025-01-16 09:26:21.697088	208.1	16.0	-81.3	0.0
2025-01-16 09:26:22.820393	208.0	15.9	-81.1	0.0
2025-01-16 09:26:23.941686	208.0	15.8	-81.4	0.0
2025-01-16 09:26:25.067592	208.0	15.7	-81.4	0.0
2025-01-16 09:26:26.192032	208.0	15.5	-81.3	0.0
2025-01-16 09:26:27.316733	207.9	15.4	-81.1	0.0
2025-01-16 09:26:28.439682	207.9	15.3	-81.0	0.0
2025-01-16 09:26:29.562332	207.9	15.2	-81.5	0.0
2025-01-16 09:26:30.686719	207.9	15.0	-81.2	0.0
2025-01-16 09:26:31.809357	207.8	14.9	-81.3	0.0
2025-01-16 09:26:32.929794	207.8	14.8	-80.9	0.0
2025-01-16 09:26:34.052602	207.8	14.7	-81.3	0.0
2025-01-16 09:26:35.178606	207.8	14.6	-81.3	0.0
2025-01-16 09:26:36.304174	207.7	14.5	-81.2	0.0
2025-01-16 09:26:37.427463	207.7	14.3	-81.5	0.0
2025-01-16 09:26:38.552506	207.7	14.2	-81.3	0.0
2025-01-16 09:26:39.674350	207.7	14.1	-81.5	0.0
2025-01-16 09:26:40.798344	207.7	14.0	-81.5	0.0
2025-01-16 09:26:41.920197	207.6	13.9	-81.1	0.0
2025-01-16 09:26:43.044798	207.6	13.8	-81.5	0.0
2025-01-16 09:26:44.167348	207.6	13.7	-81.4	0.0
2025-01-16 09:26:45.290613	207.6	13.5	-81.3	0.0
2025-01-16 09:26:46.414184	207.6	13.4	-81.8	0.0
2025-01-16 09:26:47.539455	207.5	13.3	-81.5	0.0
2025-01-16 09:26:48.662981	207.5	13.2	-81.4	0.0
2025-01-16 09:26:49.787488	207.5	13.1	-81.4	0.0
2025-01-16 09:26:50.914468	207.5	13.0	-81.2	0.0
2025-01-16 09:26:52.037032	207.5	12.9	-81.4	0.0
2025-01-16 09:26:53.159963	207.4	12.8	-81.2	0.0
2025-01-16 09:26:54.282846	207.4	12.7	-81.7	0.0
2025-01-16 09:26:55.405278	207.4	12.5	-81.5	0.0
2025-01-16 09:26:56.526573	207.4	12.4	-81.6	0.0
2025-01-16 09:26:57.648413	207.4	12.3	-81.5	0.0
2025-01-16 09:26:58.770210	207.3	12.2	-81.4	0.0
2025-01-16 09:26:59.892977	207.3	12.1	-81.5	0.0
2025-01-16 09:27:01.013997	207.3	12.0	-81.2	0.0
2025-01-16 09:27:02.138361	207.3	11.9	-81.5	0.0
2025-01-16 09:27:03.262896	207.3	11.8	-81.4	0.0
2025-01-16 09:27:04.386410	207.3	11.7	-80.6	0.0
2025-01-16 09:27:05.509474	207.2	11.6	-80.6	0.0
2025-01-16 09:27:06.630262	207.2	11.5	-80.9	0.0
2025-01-16 09:27:07.754611	207.2	11.4	-80.7	0.0
2025-01-16 09:27:08.879291	207.2	11.3	-81.0	0.0
2025-01-16 09:27:10.004632	207.2	11.2	-81.1	0.0
2025-01-16 09:27:11.129620	207.1	11.1	-81.1	0.0
2025-01-16 09:27:12.252395	207.1	11.0	-81.1	0.0
2025-01-16 09:27:13.377248	207.1	10.9	-80.8	0.0
2025-01-16 09:27:14.500329	207.1	10.8	-81.0	0.0
2025-01-16 09:27:15.621982	207.1	10.7	-81.1	0.0
2025-01-16 09:27:16.748007	207.1	10.6	-81.1	0.0
2025-01-16 09:27:17.871042	207.0	10.5	-81.4	0.0
2025-01-16 09:27:18.994577	207.0	10.4	-81.3	0.0
2025-01-16 09:27:20.118672	207.0	10.3	-81.4	0.0
2025-01-16 09:27:21.241966	207.0	10.2	-81.1	0.0
2025-01-16 09:27:22.366781	207.0	10.1	-81.6	0.0
2025-01-16 09:27:23.488613	207.0	10.0	-81.7	0.0
#Closed at: 2025-01-16 09:16:22.534733