passes_logs/2025/01/16/planumMaritime01/planumMaritime01__20250116_170443_NOAA_19_rec.log

#Pass ID: 20250116_170443_NOAA 19
#Satellite: NOAA 19
#Configuration: NOAA 19
#Start time: 2025-01-16 17:04:48.775658

#LorettStation: 1.0.0 05.05.2024
#Station: planumMaritime01
#Location: 37.49445 lon 55.92918 lat
#TLE: 1 33591U 09005A   25016.13687281  .00000278  00000+0  17226-3 0  9992
#TLE: 2 33591  99.0193  79.9081 0014432  54.5182 305.7334 14.13260212821702

#Time	Az	El	Level	SNR
2025-01-16 17:04:50.934640	123.9	10.2	-79.4	0.0
2025-01-16 17:04:52.054434	123.8	10.3	-80.0	0.0
2025-01-16 17:04:53.177010	123.7	10.4	-79.7	0.0
2025-01-16 17:04:54.298338	123.6	10.4	-79.2	0.0
2025-01-16 17:04:55.418413	123.5	10.5	-79.5	0.0
2025-01-16 17:04:56.539726	123.4	10.6	-79.5	0.0
2025-01-16 17:04:57.660230	123.4	10.7	-80.0	0.0
2025-01-16 17:04:58.781091	123.3	10.8	-79.8	0.0
2025-01-16 17:04:59.903287	123.2	10.9	-80.4	0.0
2025-01-16 17:05:01.024448	123.1	11.0	-80.1	0.0
2025-01-16 17:05:02.145982	123.0	11.1	-80.2	0.0
2025-01-16 17:05:03.267240	122.9	11.2	-80.4	0.0
2025-01-16 17:05:04.385530	122.8	11.3	-80.7	0.0
2025-01-16 17:05:05.508120	122.8	11.4	-80.3	0.0
2025-01-16 17:05:06.632148	122.7	11.5	-79.6	0.0
2025-01-16 17:05:07.754186	122.6	11.5	-79.7	0.0
2025-01-16 17:05:08.878392	122.5	11.6	-80.7	0.0
2025-01-16 17:05:10.000155	122.4	11.7	-80.5	0.0
2025-01-16 17:05:11.119269	122.3	11.8	-80.0	0.0
2025-01-16 17:05:12.238926	122.2	11.9	-80.1	0.0
2025-01-16 17:05:13.362814	122.1	12.0	-80.1	0.0
2025-01-16 17:05:14.482715	122.0	12.1	-80.2	0.0
2025-01-16 17:05:15.604646	121.9	12.2	-80.1	0.0
2025-01-16 17:05:16.726367	121.8	12.3	-80.4	0.0
2025-01-16 17:05:17.846269	121.7	12.4	-79.9	0.0
2025-01-16 17:05:18.967139	121.6	12.5	-80.0	0.0
2025-01-16 17:05:20.087504	121.5	12.6	-80.0	0.0
2025-01-16 17:05:21.211225	121.4	12.7	-79.9	0.0
2025-01-16 17:05:22.332153	121.3	12.8	-79.2	0.0
2025-01-16 17:05:23.450601	121.2	12.9	-78.8	0.0
2025-01-16 17:05:24.572330	121.1	13.0	-78.2	0.0
2025-01-16 17:05:25.694631	121.0	13.1	-79.3	0.0
2025-01-16 17:05:26.814502	120.9	13.2	-79.0	0.0
2025-01-16 17:05:27.936475	120.8	13.3	-79.5	0.0
2025-01-16 17:05:29.058094	120.7	13.4	-79.7	0.0
2025-01-16 17:05:30.178094	120.6	13.5	-79.5	0.0
2025-01-16 17:05:31.298611	120.5	13.6	-79.3	0.0
2025-01-16 17:05:32.420899	120.4	13.7	-79.7	0.0
2025-01-16 17:05:33.541109	120.3	13.8	-79.8	0.0
2025-01-16 17:05:34.662683	120.2	13.9	-79.5	0.0
2025-01-16 17:05:35.783909	120.1	14.0	-79.8	0.0
2025-01-16 17:05:36.907525	120.0	14.1	-80.3	0.0
2025-01-16 17:05:38.028142	119.9	14.2	-80.0	0.0
2025-01-16 17:05:39.147226	119.8	14.3	-80.0	0.0
2025-01-16 17:05:40.269729	119.7	14.4	-80.4	0.0
2025-01-16 17:05:41.389362	119.6	14.5	-80.2	0.0
2025-01-16 17:05:42.512753	119.5	14.6	-80.3	0.0
2025-01-16 17:05:43.633372	119.3	14.7	-80.2	0.0
2025-01-16 17:05:44.756953	119.2	14.8	-80.5	0.0
2025-01-16 17:05:45.877213	119.1	14.9	-80.3	0.0
2025-01-16 17:05:46.999927	119.0	15.0	-80.4	0.0
2025-01-16 17:05:48.119861	118.9	15.1	-79.9	0.0
2025-01-16 17:05:49.240812	118.8	15.2	-80.1	0.0
2025-01-16 17:05:50.362249	118.7	15.3	-79.9	0.0
2025-01-16 17:05:51.482397	118.5	15.4	-79.3	0.0
2025-01-16 17:05:52.603879	118.4	15.5	-79.6	0.0
2025-01-16 17:05:53.722742	118.3	15.6	-80.0	0.0
2025-01-16 17:05:54.844019	118.2	15.8	-79.8	0.0
2025-01-16 17:05:55.965125	118.1	15.9	-79.5	0.0
2025-01-16 17:05:57.088155	117.9	16.0	-80.3	0.0
2025-01-16 17:05:58.210404	117.8	16.1	-80.1	0.0
2025-01-16 17:05:59.332661	117.7	16.2	-80.2	0.0
2025-01-16 17:06:00.453518	117.6	16.3	-80.3	0.0
2025-01-16 17:06:01.575718	117.4	16.4	-79.5	0.0
2025-01-16 17:06:02.697098	117.3	16.5	-79.8	0.0
2025-01-16 17:06:03.819615	117.2	16.6	-80.1	0.0
2025-01-16 17:06:04.939290	117.1	16.7	-80.0	0.0
2025-01-16 17:06:06.063333	116.9	16.8	-80.6	0.0
2025-01-16 17:06:07.182283	116.8	16.9	-80.2	0.0
2025-01-16 17:06:08.304397	116.7	17.1	-80.8	0.0
2025-01-16 17:06:09.427222	116.5	17.2	-80.6	0.0
2025-01-16 17:06:10.548832	116.4	17.3	-80.0	0.0
2025-01-16 17:06:11.668685	116.3	17.4	-80.4	0.0
2025-01-16 17:06:12.786625	116.1	17.5	-80.3	0.0
2025-01-16 17:06:13.909371	116.0	17.6	-80.9	0.0
2025-01-16 17:06:15.032318	115.9	17.7	-80.2	0.0
2025-01-16 17:06:16.153811	115.7	17.8	-80.9	0.0
2025-01-16 17:06:17.274059	115.6	18.0	-79.8	0.0
2025-01-16 17:06:18.396791	115.4	18.1	-80.6	0.0
2025-01-16 17:06:19.517679	115.3	18.2	-80.5	0.0
2025-01-16 17:06:20.640844	115.2	18.3	-79.9	0.0
2025-01-16 17:06:21.762792	115.0	18.4	-79.7	0.0
2025-01-16 17:06:22.884019	114.9	18.5	-80.2	0.0
2025-01-16 17:06:24.005607	114.7	18.6	-79.7	0.0
2025-01-16 17:06:25.127148	114.6	18.8	-80.1	0.0
2025-01-16 17:06:26.248788	114.4	18.9	-80.1	0.0
2025-01-16 17:06:27.370757	114.3	19.0	-80.0	0.0
2025-01-16 17:06:28.489476	114.1	19.1	-80.0	0.0
2025-01-16 17:06:29.612949	114.0	19.2	-80.1	0.0
2025-01-16 17:06:30.735625	113.8	19.3	-80.2	0.0
2025-01-16 17:06:31.859919	113.7	19.5	-79.6	0.0
2025-01-16 17:06:32.981391	113.5	19.6	-79.9	0.0
2025-01-16 17:06:34.101899	113.4	19.7	-80.1	0.0
2025-01-16 17:06:35.221599	113.2	19.8	-79.1	0.0
2025-01-16 17:06:36.341770	113.0	19.9	-79.2	0.0
2025-01-16 17:06:37.463721	112.9	20.1	-79.3	0.0
2025-01-16 17:06:38.584529	112.7	20.2	-80.5	0.0
2025-01-16 17:06:39.706843	112.6	20.3	-80.2	0.0
2025-01-16 17:06:40.826514	112.4	20.4	-79.5	0.0
2025-01-16 17:06:41.947144	112.2	20.5	-80.0	0.0
2025-01-16 17:06:43.071149	112.1	20.7	-79.4	0.0
2025-01-16 17:06:44.191120	111.9	20.8	-79.7	0.0
2025-01-16 17:06:45.313380	111.7	20.9	-80.4	0.0
2025-01-16 17:06:46.436230	111.6	21.0	-79.9	0.0
2025-01-16 17:06:47.555620	111.4	21.1	-80.0	0.0
2025-01-16 17:06:48.678069	111.2	21.3	-79.6	0.0
2025-01-16 17:06:49.798553	111.0	21.4	-80.5	0.0
2025-01-16 17:06:50.919410	110.9	21.5	-80.2	0.0
2025-01-16 17:06:52.040327	110.7	21.6	-80.9	0.0
2025-01-16 17:06:53.161553	110.5	21.8	-80.5	0.0
2025-01-16 17:06:54.281240	110.3	21.9	-80.2	0.0
2025-01-16 17:06:55.401303	110.1	22.0	-80.5	0.0
2025-01-16 17:06:56.520855	110.0	22.1	-80.0	0.0
2025-01-16 17:06:57.642790	109.8	22.3	-80.7	0.0
2025-01-16 17:06:58.765541	109.6	22.4	-80.9	0.0
2025-01-16 17:06:59.884575	109.4	22.5	-80.3	0.0
2025-01-16 17:07:01.004854	109.2	22.6	-80.1	0.0
2025-01-16 17:07:02.127698	109.0	22.8	-79.9	0.0
2025-01-16 17:07:03.250528	108.8	22.9	-79.5	0.0
2025-01-16 17:07:04.371815	108.6	23.0	-80.3	0.0
2025-01-16 17:07:05.492875	108.4	23.2	-79.9	0.0
2025-01-16 17:07:06.614027	108.2	23.3	-80.5	0.0
2025-01-16 17:07:07.735925	108.0	23.4	-80.2	0.0
2025-01-16 17:07:08.857532	107.8	23.5	-80.2	0.0
2025-01-16 17:07:09.978391	107.6	23.7	-79.8	0.0
2025-01-16 17:07:11.099818	107.4	23.8	-79.7	0.0
2025-01-16 17:07:12.219494	107.2	23.9	-80.2	0.0
2025-01-16 17:07:13.339174	107.0	24.0	-78.9	0.0
2025-01-16 17:07:14.459831	106.8	24.2	-80.9	0.0
2025-01-16 17:07:15.580891	106.6	24.3	-80.2	0.0
2025-01-16 17:07:16.703761	106.4	24.4	-80.2	0.0
2025-01-16 17:07:17.824054	106.2	24.6	-80.3	0.0
2025-01-16 17:07:18.945008	106.0	24.7	-81.1	0.0
2025-01-16 17:07:20.066169	105.7	24.8	-80.6	0.0
2025-01-16 17:07:21.186673	105.5	25.0	-80.8	0.0
2025-01-16 17:07:22.308830	105.3	25.1	-80.4	0.0
2025-01-16 17:07:23.431176	105.1	25.2	-80.7	0.0
2025-01-16 17:07:24.552493	104.8	25.3	-81.2	0.0
2025-01-16 17:07:25.674998	104.6	25.5	-80.7	0.0
2025-01-16 17:07:26.795110	104.4	25.6	-81.4	0.0
2025-01-16 17:07:27.915592	104.2	25.7	-81.2	0.0
2025-01-16 17:07:29.036518	103.9	25.9	-80.8	0.0
2025-01-16 17:07:30.157509	103.7	26.0	-80.5	0.0
2025-01-16 17:07:31.278321	103.5	26.1	-80.3	0.0
2025-01-16 17:07:32.399151	103.2	26.3	-81.1	0.0
2025-01-16 17:07:33.518933	103.0	26.4	-80.6	0.0
2025-01-16 17:07:34.638835	102.7	26.5	-80.3	0.0
2025-01-16 17:07:35.760311	102.5	26.7	-80.7	0.0
2025-01-16 17:07:36.880766	102.2	26.8	-80.5	0.0
2025-01-16 17:07:38.004423	102.0	26.9	-80.8	0.0
2025-01-16 17:07:39.124209	101.7	27.1	-80.6	0.0
2025-01-16 17:07:40.246623	101.5	27.2	-80.2	0.0
2025-01-16 17:07:41.367050	101.2	27.3	-80.7	0.0
2025-01-16 17:07:42.487474	101.0	27.5	-80.0	0.0
2025-01-16 17:07:43.609863	100.7	27.6	-80.5	0.0
2025-01-16 17:07:44.732061	100.5	27.7	-80.0	0.0
2025-01-16 17:07:45.853848	100.2	27.8	-81.2	0.0
2025-01-16 17:07:46.974373	99.9	28.0	-80.8	0.0
2025-01-16 17:07:48.097659	99.7	28.1	-79.8	0.0
2025-01-16 17:07:49.218800	99.4	28.2	-79.8	0.0
2025-01-16 17:07:50.341082	99.1	28.4	-80.4	0.0
2025-01-16 17:07:51.462363	98.8	28.5	-80.5	0.0
2025-01-16 17:07:52.585556	98.6	28.6	-80.8	0.0
2025-01-16 17:07:53.707792	98.3	28.8	-80.4	0.0
2025-01-16 17:07:54.830267	98.0	28.9	-80.6	0.0
2025-01-16 17:07:55.949509	97.7	29.0	-80.4	0.0
2025-01-16 17:07:57.070534	97.4	29.2	-80.3	0.0
2025-01-16 17:07:58.190113	97.1	29.3	-80.5	0.0
2025-01-16 17:07:59.311422	96.8	29.4	-80.2	0.0
2025-01-16 17:08:00.433433	96.6	29.6	-80.4	0.0
2025-01-16 17:08:01.555246	96.3	29.7	-80.7	0.0
2025-01-16 17:08:02.677301	96.0	29.8	-80.8	0.0
2025-01-16 17:08:03.799146	95.7	29.9	-80.6	0.0
2025-01-16 17:08:04.920933	95.4	30.1	-80.9	0.0
2025-01-16 17:08:06.043202	95.0	30.2	-80.5	0.0
2025-01-16 17:08:07.165361	94.7	30.3	-80.9	0.0
2025-01-16 17:08:08.286759	94.4	30.5	-80.6	0.0
2025-01-16 17:08:09.409033	94.1	30.6	-80.6	0.0
2025-01-16 17:08:10.529893	93.8	30.7	-80.4	0.0
2025-01-16 17:08:11.650837	93.5	30.8	-80.7	0.0
2025-01-16 17:08:12.771338	93.2	31.0	-81.1	0.0
2025-01-16 17:08:13.893231	92.8	31.1	-80.6	0.0
2025-01-16 17:08:15.012731	92.5	31.2	-80.9	0.0
2025-01-16 17:08:16.133379	92.2	31.3	-81.2	0.0
2025-01-16 17:08:17.253877	91.9	31.5	-81.2	0.0
2025-01-16 17:08:18.374999	91.5	31.6	-80.5	0.0
2025-01-16 17:08:19.499579	91.2	31.7	-80.2	0.0
2025-01-16 17:08:20.618641	90.8	31.8	-79.7	0.0
2025-01-16 17:08:21.740925	90.5	31.9	-80.5	0.0
2025-01-16 17:08:22.863964	90.2	32.1	-80.4	0.0
2025-01-16 17:08:23.985160	89.8	32.2	-81.0	0.0
2025-01-16 17:08:25.107458	89.5	32.3	-80.0	0.0
2025-01-16 17:08:26.231102	89.1	32.4	-79.7	0.0
2025-01-16 17:08:27.351426	88.8	32.5	-80.2	0.0
2025-01-16 17:08:28.471948	88.4	32.7	-80.3	0.0
2025-01-16 17:08:29.593312	88.0	32.8	-81.1	0.0
2025-01-16 17:08:30.713284	87.7	32.9	-80.2	0.0
2025-01-16 17:08:31.834567	87.3	33.0	-81.1	0.0
2025-01-16 17:08:32.953383	87.0	33.1	-80.5	0.0
2025-01-16 17:08:34.075031	86.6	33.2	-80.9	0.0
2025-01-16 17:08:35.194131	86.2	33.3	-80.3	0.0
2025-01-16 17:08:36.315489	85.8	33.5	-80.8	0.0
2025-01-16 17:08:37.440896	85.5	33.6	-80.9	0.0
2025-01-16 17:08:38.571160	85.1	33.7	-81.3	0.0
2025-01-16 17:08:39.692423	84.7	33.8	-80.9	0.0
2025-01-16 17:08:40.814903	84.3	33.9	-80.9	0.0
2025-01-16 17:08:41.936599	83.9	34.0	-80.5	0.0
2025-01-16 17:08:43.058148	83.5	34.1	-80.2	0.0
2025-01-16 17:08:44.179997	83.1	34.2	-80.3	0.0
2025-01-16 17:08:45.302129	82.8	34.3	-80.2	0.0
2025-01-16 17:08:46.421786	82.4	34.4	-80.6	0.0
2025-01-16 17:08:47.543068	82.0	34.5	-80.6	0.0
2025-01-16 17:08:48.664735	81.6	34.6	-80.1	0.0
2025-01-16 17:08:49.785101	81.2	34.7	-80.1	0.0
2025-01-16 17:08:50.906034	80.7	34.8	-80.1	0.0
2025-01-16 17:08:52.025233	80.3	34.9	-79.7	0.0
2025-01-16 17:08:53.146934	79.9	35.0	-79.9	0.0
2025-01-16 17:08:54.271662	79.5	35.1	-79.6	0.0
2025-01-16 17:08:55.392777	79.1	35.2	-79.5	0.0
2025-01-16 17:08:56.514998	78.7	35.3	-80.0	0.0
2025-01-16 17:08:57.637754	78.3	35.3	-80.0	0.0
2025-01-16 17:08:58.759259	77.8	35.4	-79.7	0.0
2025-01-16 17:08:59.882634	77.4	35.5	-80.2	0.0
2025-01-16 17:09:01.004340	77.0	35.6	-79.2	0.0
2025-01-16 17:09:02.127324	76.6	35.7	-79.5	0.0
2025-01-16 17:09:03.251800	76.1	35.8	-80.1	0.0
2025-01-16 17:09:04.372921	75.7	35.8	-80.2	0.0
2025-01-16 17:09:05.493601	75.3	35.9	-79.8	0.0
2025-01-16 17:09:06.617738	74.8	36.0	-80.2	0.0
2025-01-16 17:09:07.740794	74.4	36.1	-80.5	0.0
2025-01-16 17:09:08.861310	73.9	36.1	-80.3	0.0
2025-01-16 17:09:09.984706	73.5	36.2	-80.0	0.0
2025-01-16 17:09:11.103768	73.1	36.3	-80.1	0.0
2025-01-16 17:09:12.223086	72.6	36.3	-80.2	0.0
2025-01-16 17:09:13.345168	72.2	36.4	-79.8	0.0
2025-01-16 17:09:14.467025	71.7	36.4	-80.9	0.0
2025-01-16 17:09:15.589786	71.3	36.5	-80.3	0.0
2025-01-16 17:09:16.711916	70.8	36.6	-80.8	0.0
2025-01-16 17:09:17.835049	70.3	36.6	-80.6	0.0
2025-01-16 17:09:18.955797	69.9	36.7	-80.1	0.0
2025-01-16 17:09:20.076879	69.4	36.7	-80.4	0.0
2025-01-16 17:09:21.197970	69.0	36.8	-79.7	0.0
2025-01-16 17:09:22.319509	68.5	36.8	-80.5	0.0
2025-01-16 17:09:23.441176	68.1	36.9	-80.6	0.0
2025-01-16 17:09:24.564129	67.6	36.9	-80.3	0.0
2025-01-16 17:09:25.686179	67.1	37.0	-80.1	0.0
2025-01-16 17:09:26.807196	66.7	37.0	-80.9	0.0
2025-01-16 17:09:27.927809	66.2	37.0	-80.3	0.0
2025-01-16 17:09:29.048414	65.7	37.1	-79.8	0.0
2025-01-16 17:09:30.169436	65.3	37.1	-80.0	0.0
2025-01-16 17:09:31.289796	64.8	37.1	-80.1	0.0
2025-01-16 17:09:32.412148	64.3	37.2	-79.2	0.0
2025-01-16 17:09:33.532217	63.8	37.2	-80.1	0.0
2025-01-16 17:09:34.653569	63.4	37.2	-80.1	0.0
2025-01-16 17:09:35.776516	62.9	37.2	-80.0	0.0
2025-01-16 17:09:36.900037	62.4	37.2	-80.0	0.0
2025-01-16 17:09:38.021839	62.0	37.3	-80.4	0.0
2025-01-16 17:09:39.142719	61.5	37.3	-79.9	0.0
2025-01-16 17:09:40.261329	61.0	37.3	-80.8	0.0
2025-01-16 17:09:41.384949	60.5	37.3	-80.6	0.0
2025-01-16 17:09:42.506616	60.1	37.3	-80.5	0.0
2025-01-16 17:09:43.626673	59.6	37.3	-80.5	0.0
2025-01-16 17:09:44.749301	59.1	37.3	-80.9	0.0
2025-01-16 17:09:45.870994	58.6	37.3	-80.7	0.0
2025-01-16 17:09:46.992880	58.2	37.3	-80.9	0.0
2025-01-16 17:09:48.114893	57.7	37.3	-80.7	0.0
2025-01-16 17:09:49.236809	57.2	37.3	-81.2	0.0
2025-01-16 17:09:50.359144	56.7	37.3	-80.9	0.0
2025-01-16 17:09:51.479565	56.3	37.3	-81.0	0.0
2025-01-16 17:09:52.601374	55.8	37.3	-81.1	0.0
2025-01-16 17:09:53.723384	55.3	37.3	-80.9	0.0
2025-01-16 17:09:54.844557	54.8	37.3	-80.2	0.0
2025-01-16 17:09:55.966795	54.4	37.2	-80.4	0.0
2025-01-16 17:09:57.085708	53.9	37.2	-80.9	0.0
2025-01-16 17:09:58.207854	53.4	37.2	-80.5	0.0
2025-01-16 17:09:59.329484	52.9	37.2	-80.2	0.0
2025-01-16 17:10:00.452681	52.5	37.1	-80.4	0.0
2025-01-16 17:10:01.574292	52.0	37.1	-80.0	0.0
2025-01-16 17:10:02.695667	51.5	37.1	-79.7	0.0
2025-01-16 17:10:03.818321	51.1	37.0	-79.9	0.0
2025-01-16 17:10:04.940075	50.6	37.0	-79.6	0.0
2025-01-16 17:10:06.060238	50.1	37.0	-79.3	0.0
2025-01-16 17:10:07.182900	49.7	36.9	-79.6	0.0
2025-01-16 17:10:08.303977	49.2	36.9	-79.9	0.0
2025-01-16 17:10:09.423711	48.8	36.8	-79.8	0.0
2025-01-16 17:10:10.543778	48.3	36.8	-79.5	0.0
2025-01-16 17:10:11.664593	47.8	36.8	-79.6	0.0
2025-01-16 17:10:12.784572	47.4	36.7	-79.6	0.0
2025-01-16 17:10:13.906855	46.9	36.6	-79.6	0.0
2025-01-16 17:10:15.029182	46.5	36.6	-79.4	0.0
2025-01-16 17:10:16.151612	46.0	36.5	-79.6	0.0
2025-01-16 17:10:17.272543	45.6	36.5	-79.5	0.0
2025-01-16 17:10:18.390993	45.1	36.4	-79.5	0.0
2025-01-16 17:10:19.511880	44.7	36.4	-79.0	0.0
2025-01-16 17:10:20.633373	44.2	36.3	-80.1	0.0
2025-01-16 17:10:21.756389	43.8	36.2	-79.9	0.0
2025-01-16 17:10:22.880867	43.3	36.2	-80.2	0.0
2025-01-16 17:10:24.004264	42.9	36.1	-80.3	0.0
2025-01-16 17:10:25.123788	42.4	36.0	-80.0	0.0
2025-01-16 17:10:26.245230	42.0	35.9	-80.5	0.0
2025-01-16 17:10:27.366580	41.6	35.9	-79.9	0.0
2025-01-16 17:10:28.486678	41.1	35.8	-80.8	0.0
2025-01-16 17:10:29.609376	40.7	35.7	-80.3	0.0
2025-01-16 17:10:30.731577	40.3	35.6	-80.1	0.0
2025-01-16 17:10:31.853663	39.9	35.6	-79.9	0.0
2025-01-16 17:10:32.976371	39.4	35.5	-80.6	0.0
2025-01-16 17:10:34.095774	39.0	35.4	-80.5	0.0
2025-01-16 17:10:35.219276	38.6	35.3	-80.4	0.0
2025-01-16 17:10:36.340944	38.2	35.2	-80.5	0.0
2025-01-16 17:10:37.461428	37.8	35.1	-80.3	0.0
2025-01-16 17:10:38.580589	37.3	35.0	-80.1	0.0
2025-01-16 17:10:39.704274	36.9	34.9	-80.4	0.0
2025-01-16 17:10:40.827246	36.5	34.9	-81.1	0.0
2025-01-16 17:10:41.948777	36.1	34.8	-80.4	0.0
2025-01-16 17:10:43.069757	35.7	34.7	-80.5	0.0
2025-01-16 17:10:44.190717	35.3	34.6	-80.5	0.0
2025-01-16 17:10:45.311359	34.9	34.5	-80.9	0.0
2025-01-16 17:10:46.434869	34.5	34.4	-80.6	0.0
2025-01-16 17:10:47.555954	34.1	34.3	-80.0	0.0
2025-01-16 17:10:48.678264	33.7	34.2	-79.8	0.0
2025-01-16 17:10:49.799530	33.3	34.1	-80.6	0.0
2025-01-16 17:10:50.921356	32.9	34.0	-80.4	0.0
2025-01-16 17:10:52.043099	32.6	33.8	-81.4	0.0
2025-01-16 17:10:53.165592	32.2	33.7	-80.5	0.0
2025-01-16 17:10:54.287040	31.8	33.6	-80.9	0.0
2025-01-16 17:10:55.409069	31.4	33.5	-80.5	0.0
2025-01-16 17:10:56.529755	31.1	33.4	-81.0	0.0
2025-01-16 17:10:57.651983	30.7	33.3	-80.8	0.0
2025-01-16 17:10:58.774065	30.3	33.2	-81.0	0.0
2025-01-16 17:10:59.893941	29.9	33.1	-80.8	0.0
2025-01-16 17:11:01.013371	29.6	33.0	-80.3	0.0
2025-01-16 17:11:02.132283	29.2	32.9	-80.8	0.0
2025-01-16 17:11:03.253806	28.9	32.7	-80.5	0.0
2025-01-16 17:11:04.375376	28.5	32.6	-81.3	0.0
2025-01-16 17:11:05.495454	28.2	32.5	-81.2	0.0
2025-01-16 17:11:06.617565	27.8	32.4	-81.0	0.0
2025-01-16 17:11:07.741722	27.5	32.3	-81.0	0.0
2025-01-16 17:11:08.863657	27.1	32.1	-80.6	0.0
2025-01-16 17:11:09.984769	26.8	32.0	-80.6	0.0
2025-01-16 17:11:11.105558	26.4	31.9	-80.5	0.0
2025-01-16 17:11:12.226001	26.1	31.8	-80.3	0.0
2025-01-16 17:11:13.347028	25.7	31.7	-80.6	0.0
2025-01-16 17:11:14.467523	25.4	31.5	-80.9	0.0
2025-01-16 17:11:15.586911	25.1	31.4	-80.3	0.0
2025-01-16 17:11:16.708175	24.8	31.3	-80.4	0.0
2025-01-16 17:11:17.828853	24.4	31.2	-80.1	0.0
2025-01-16 17:11:18.951547	24.1	31.0	-80.4	0.0
2025-01-16 17:11:20.075029	23.8	30.9	-80.4	0.0
2025-01-16 17:11:21.196777	23.5	30.8	-80.4	0.0
2025-01-16 17:11:22.317528	23.2	30.7	-80.6	0.0
2025-01-16 17:11:23.440819	22.8	30.5	-80.1	0.0
2025-01-16 17:11:24.565049	22.5	30.4	-80.4	0.0
2025-01-16 17:11:25.686200	22.2	30.3	-79.9	0.0
2025-01-16 17:11:26.806929	21.9	30.2	-79.9	0.0
2025-01-16 17:11:27.928275	21.6	30.0	-80.4	0.0
2025-01-16 17:11:29.051261	21.3	29.9	-80.2	0.0
2025-01-16 17:11:30.172975	21.0	29.8	-80.2	0.0
2025-01-16 17:11:31.291947	20.7	29.6	-80.8	0.0
2025-01-16 17:11:32.410931	20.4	29.5	-80.7	0.0
2025-01-16 17:11:33.530955	20.1	29.4	-80.7	0.0
2025-01-16 17:11:34.652644	19.8	29.3	-80.2	0.0
2025-01-16 17:11:35.773276	19.6	29.1	-80.6	0.0
2025-01-16 17:11:36.894772	19.3	29.0	-81.3	0.0
2025-01-16 17:11:38.017326	19.0	28.9	-81.3	0.0
2025-01-16 17:11:39.138944	18.7	28.7	-81.4	0.0
2025-01-16 17:11:40.259201	18.4	28.6	-80.0	0.0
2025-01-16 17:11:41.381817	18.2	28.5	-80.4	0.0
2025-01-16 17:11:42.503862	17.9	28.3	-79.0	0.0
2025-01-16 17:11:43.625887	17.6	28.2	-80.7	0.0
2025-01-16 17:11:44.749832	17.4	28.1	-80.7	0.0
2025-01-16 17:11:45.872671	17.1	28.0	-80.3	0.0
2025-01-16 17:11:46.994777	16.8	27.8	-80.8	0.0
2025-01-16 17:11:48.115769	16.6	27.7	-80.8	0.0
2025-01-16 17:11:49.237061	16.3	27.6	-80.6	0.0
2025-01-16 17:11:50.358112	16.0	27.4	-80.1	0.0
2025-01-16 17:11:51.480449	15.8	27.3	-80.7	0.0
2025-01-16 17:11:52.602678	15.5	27.2	-80.0	0.0
2025-01-16 17:11:53.724784	15.3	27.0	-80.0	0.0
2025-01-16 17:11:54.844890	15.0	26.9	-79.7	0.0
2025-01-16 17:11:55.966183	14.8	26.8	-80.2	0.0
2025-01-16 17:11:57.088015	14.5	26.6	-81.0	0.0
2025-01-16 17:11:58.211545	14.3	26.5	-80.6	0.0
2025-01-16 17:11:59.331526	14.1	26.4	-81.1	0.0
2025-01-16 17:12:00.453388	13.8	26.2	-81.3	0.0
2025-01-16 17:12:01.573425	13.6	26.1	-80.7	0.0
2025-01-16 17:12:02.693995	13.3	26.0	-80.9	0.0
2025-01-16 17:12:03.817058	13.1	25.9	-81.0	0.0
2025-01-16 17:12:04.942869	12.9	25.7	-80.5	0.0
2025-01-16 17:12:06.063700	12.7	25.6	-80.3	0.0
2025-01-16 17:12:07.186140	12.4	25.5	-81.2	0.0
2025-01-16 17:12:08.308910	12.2	25.3	-81.2	0.0
2025-01-16 17:12:09.429435	12.0	25.2	-81.1	0.0
2025-01-16 17:12:10.551008	11.8	25.1	-81.3	0.0
2025-01-16 17:12:11.672109	11.5	24.9	-81.3	0.0
2025-01-16 17:12:12.793640	11.3	24.8	-81.4	0.0
2025-01-16 17:12:13.915817	11.1	24.7	-81.0	0.0
2025-01-16 17:12:15.038004	10.9	24.6	-80.5	0.0
2025-01-16 17:12:16.157886	10.7	24.4	-80.9	0.0
2025-01-16 17:12:17.279624	10.5	24.3	-81.1	0.0
2025-01-16 17:12:18.401809	10.3	24.2	-80.5	0.0
2025-01-16 17:12:19.525425	10.0	24.0	-81.1	0.0
2025-01-16 17:12:20.648616	9.8	23.9	-80.4	0.0
2025-01-16 17:12:21.769743	9.6	23.8	-80.4	0.0
2025-01-16 17:12:22.891234	9.4	23.7	-81.2	0.0
2025-01-16 17:12:24.012760	9.2	23.5	-80.7	0.0
2025-01-16 17:12:25.131839	9.0	23.4	-80.8	0.0
2025-01-16 17:12:26.253503	8.8	23.3	-80.7	0.0
2025-01-16 17:12:27.375714	8.6	23.1	-80.7	0.0
2025-01-16 17:12:28.497603	8.5	23.0	-80.6	0.0
2025-01-16 17:12:29.617721	8.3	22.9	-80.5	0.0
2025-01-16 17:12:30.740245	8.1	22.8	-81.2	0.0
2025-01-16 17:12:31.860039	7.9	22.6	-81.0	0.0
2025-01-16 17:12:32.980972	7.7	22.5	-81.4	0.0
2025-01-16 17:12:34.102418	7.5	22.4	-79.8	0.0
2025-01-16 17:12:35.224403	7.3	22.3	-80.6	0.0
2025-01-16 17:12:36.348886	7.1	22.1	-79.5	0.0
2025-01-16 17:12:37.468673	7.0	22.0	-79.4	0.0
2025-01-16 17:12:38.590786	6.8	21.9	-79.9	0.0
2025-01-16 17:12:39.713735	6.6	21.8	-79.6	0.0
2025-01-16 17:12:40.834146	6.4	21.7	-79.5	0.0
2025-01-16 17:12:41.954965	6.2	21.5	-80.4	0.0
2025-01-16 17:12:43.076004	6.1	21.4	-81.0	0.0
2025-01-16 17:12:44.196336	5.9	21.3	-80.0	0.0
2025-01-16 17:12:45.319226	5.7	21.2	-80.8	0.0
2025-01-16 17:12:46.440038	5.6	21.0	-80.5	0.0
2025-01-16 17:12:47.560459	5.4	20.9	-80.3	0.0
2025-01-16 17:12:48.683854	5.2	20.8	-80.8	0.0
2025-01-16 17:12:49.804777	5.1	20.7	-80.7	0.0
2025-01-16 17:12:50.924093	4.9	20.6	-81.2	0.0
2025-01-16 17:12:52.045787	4.7	20.4	-80.9	0.0
2025-01-16 17:12:53.167041	4.6	20.3	-81.5	0.0
2025-01-16 17:12:54.287985	4.4	20.2	-80.6	0.0
2025-01-16 17:12:55.409797	4.2	20.1	-81.0	0.0
2025-01-16 17:12:56.531305	4.1	20.0	-81.2	0.0
2025-01-16 17:12:57.653714	3.9	19.8	-81.2	0.0
2025-01-16 17:12:58.775883	3.8	19.7	-81.4	0.0
2025-01-16 17:12:59.896400	3.6	19.6	-80.6	0.0
2025-01-16 17:13:01.019461	3.5	19.5	-81.1	0.0
2025-01-16 17:13:02.142805	3.3	19.4	-80.6	0.0
2025-01-16 17:13:03.261935	3.2	19.3	-80.1	0.0
2025-01-16 17:13:04.382865	3.0	19.1	-80.8	0.0
2025-01-16 17:13:05.502711	2.9	19.0	-80.2	0.0
2025-01-16 17:13:06.623932	2.7	18.9	-80.2	0.0
2025-01-16 17:13:07.746549	2.6	18.8	-79.9	0.0
2025-01-16 17:13:08.867610	2.4	18.7	-80.6	0.0
2025-01-16 17:13:09.989459	2.3	18.6	-80.3	0.0
2025-01-16 17:13:11.112306	2.1	18.4	-80.1	0.0
2025-01-16 17:13:12.235890	2.0	18.3	-80.4	0.0
2025-01-16 17:13:13.357834	1.8	18.2	-80.4	0.0
2025-01-16 17:13:14.479034	1.7	18.1	-80.0	0.0
2025-01-16 17:13:15.599225	1.6	18.0	-80.2	0.0
2025-01-16 17:13:16.720191	1.4	17.9	-81.0	0.0
2025-01-16 17:13:17.839637	1.3	17.8	-80.7	0.0
2025-01-16 17:13:18.960601	1.2	17.7	-80.2	0.0
2025-01-16 17:13:20.082862	1.0	17.5	-80.9	0.0
2025-01-16 17:13:21.204544	0.9	17.4	-80.9	0.0
2025-01-16 17:13:22.326106	0.8	17.3	-80.7	0.0
2025-01-16 17:13:23.448252	0.6	17.2	-81.5	0.0
2025-01-16 17:13:24.568715	0.5	17.1	-80.6	0.0
2025-01-16 17:13:25.689339	0.4	17.0	-81.0	0.0
2025-01-16 17:13:26.810614	0.2	16.9	-81.0	0.0
2025-01-16 17:13:27.928762	0.1	16.8	-81.2	0.0
2025-01-16 17:13:29.050649	360.0	16.7	-81.1	0.0
2025-01-16 17:13:30.172478	359.9	16.5	-80.9	0.0
2025-01-16 17:13:31.294320	359.7	16.4	-81.0	0.0
2025-01-16 17:13:32.416453	359.6	16.3	-81.2	0.0
2025-01-16 17:13:33.536849	359.5	16.2	-81.2	0.0
2025-01-16 17:13:34.658700	359.4	16.1	-80.9	0.0
2025-01-16 17:13:35.778995	359.2	16.0	-81.4	0.0
2025-01-16 17:13:36.901352	359.1	15.9	-80.8	0.0
2025-01-16 17:13:38.021790	359.0	15.8	-80.8	0.0
2025-01-16 17:13:39.143190	358.9	15.7	-80.9	0.0
2025-01-16 17:13:40.264459	358.8	15.6	-81.2	0.0
2025-01-16 17:13:41.386211	358.7	15.5	-80.3	0.0
2025-01-16 17:13:42.509892	358.5	15.4	-80.6	0.0
2025-01-16 17:13:43.631444	358.4	15.3	-81.1	0.0
2025-01-16 17:13:44.753694	358.3	15.2	-80.2	0.0
2025-01-16 17:13:45.875200	358.2	15.1	-81.2	0.0
2025-01-16 17:13:46.997807	358.1	15.0	-80.6	0.0
2025-01-16 17:13:48.117272	358.0	14.9	-80.2	0.0
2025-01-16 17:13:49.240764	357.9	14.8	-80.3	0.0
2025-01-16 17:13:50.359351	357.7	14.6	-80.9	0.0
2025-01-16 17:13:51.479297	357.6	14.5	-80.4	0.0
2025-01-16 17:13:52.601516	357.5	14.4	-80.6	0.0
2025-01-16 17:13:53.721672	357.4	14.3	-80.7	0.0
2025-01-16 17:13:54.843159	357.3	14.2	-80.9	0.0
2025-01-16 17:13:55.965232	357.2	14.1	-80.6	0.0
2025-01-16 17:13:57.087566	357.1	14.0	-80.9	0.0
2025-01-16 17:13:58.209328	357.0	13.9	-81.0	0.0
2025-01-16 17:13:59.330776	356.9	13.8	-81.3	0.0
2025-01-16 17:14:00.452330	356.8	13.7	-81.7	0.0
2025-01-16 17:14:01.572359	356.7	13.6	-80.7	0.0
2025-01-16 17:14:02.693004	356.6	13.5	-81.6	0.0
2025-01-16 17:14:03.815458	356.5	13.4	-81.2	0.0
2025-01-16 17:14:04.937323	356.4	13.3	-80.5	0.0
2025-01-16 17:14:06.056528	356.3	13.2	-81.4	0.0
2025-01-16 17:14:07.179112	356.2	13.1	-81.2	0.0
2025-01-16 17:14:08.299667	356.1	13.0	-81.2	0.0
2025-01-16 17:14:09.420720	356.0	13.0	-81.2	0.0
2025-01-16 17:14:10.541762	355.9	12.9	-81.0	0.0
2025-01-16 17:14:11.662499	355.8	12.8	-80.5	0.0
2025-01-16 17:14:12.784154	355.7	12.7	-81.1	0.0
2025-01-16 17:14:13.905729	355.6	12.6	-80.9	0.0
2025-01-16 17:14:15.024794	355.5	12.5	-80.7	0.0
2025-01-16 17:14:16.148338	355.4	12.4	-80.8	0.0
2025-01-16 17:14:17.270362	355.3	12.3	-80.8	0.0
2025-01-16 17:14:18.388707	355.2	12.2	-80.7	0.0
2025-01-16 17:14:19.511821	355.1	12.1	-80.6	0.0
2025-01-16 17:14:20.636117	355.0	12.0	-80.7	0.0
2025-01-16 17:14:21.758622	354.9	11.9	-80.4	0.0
2025-01-16 17:14:22.879794	354.9	11.8	-80.5	0.0
2025-01-16 17:14:24.002289	354.8	11.7	-79.8	0.0
2025-01-16 17:14:25.123593	354.7	11.6	-79.8	0.0
2025-01-16 17:14:26.247114	354.6	11.5	-79.7	0.0
2025-01-16 17:14:27.367773	354.5	11.4	-79.5	0.0
2025-01-16 17:14:28.489513	354.4	11.3	-80.6	0.0
2025-01-16 17:14:29.611877	354.3	11.2	-79.9	0.0
2025-01-16 17:14:30.734108	354.2	11.2	-80.2	0.0
2025-01-16 17:14:31.853227	354.2	11.1	-80.7	0.0
2025-01-16 17:14:32.973280	354.1	11.0	-80.3	0.0
2025-01-16 17:14:34.093879	354.0	10.9	-80.4	0.0
2025-01-16 17:14:35.214380	353.9	10.8	-80.3	0.0
2025-01-16 17:14:36.333367	353.8	10.7	-80.5	0.0
2025-01-16 17:14:37.452373	353.7	10.6	-80.9	0.0
2025-01-16 17:14:38.572403	353.7	10.5	-80.5	0.0
2025-01-16 17:14:39.692828	353.6	10.4	-80.7	0.0
2025-01-16 17:14:40.815960	353.5	10.3	-80.9	0.0
2025-01-16 17:14:41.938402	353.4	10.2	-80.2	0.0
2025-01-16 17:14:43.059006	353.3	10.2	-81.1	0.0
2025-01-16 17:14:44.178295	353.2	10.1	-81.1	0.0
2025-01-16 17:14:45.299903	353.2	10.0	-80.2	0.0
#Closed at: 2025-01-16 17:04:43.778525