passes_logs/2026/01/17/R2M6_AANII_01/R2M6_AANII_01__20260117_000751_NOAA_21_JPSS-2_rec.log

#Pass ID: 20260117_000751_NOAA 21 (JPSS-2)
#Satellite: NOAA 21 (JPSS-2)
#Configuration: NOAA 21
#almurnet v.1.7.20240730
#Start time: 2026-01-17 00:07:52

#Version: 2.2.20231116
#Station: R2M6_AANII_01
#Location: 30.233357 lon 59.946436 lat
#TLE: 1 54234U 22150A   26016.21096038  .00000027  00000+0  33607-4 0  9993
#TLE: 2 54234  98.7500 317.0960 0000625 282.3388  77.7718 14.19534911164985

#Time	Az	El	Level	Level2	SNR	BER	BlckErr	Temp	State	Recorded	gain1	gain2
2026-01-17 00:07:52.29	19.24	7.08	-31.0	-37.1	4.3	1.44e+00	0	41	0	0	22	7284
2026-01-17 00:07:53.29	19.25	7.16	-30.6	-36.2	4.5	1.41e+00	0	41	104	0	21	6806
2026-01-17 00:07:54.29	19.27	7.24	-31.0	-36.4	6.6	2.47e-01	0	41	0	0	22	6695
2026-01-17 00:07:55.29	19.29	7.32	-31.0	-36.4	6.6	1.58e-01	0	41	0	3145728	22	6714
2026-01-17 00:07:56.29	19.30	7.39	-31.1	-36.6	6.5	2.79e-01	0	41	0	6291456	22	6807
2026-01-17 00:07:57.30	19.32	7.47	-30.5	-35.1	7.8	1.31e-01	0	41	0	9437184	21	6073
2026-01-17 00:07:58.30	19.33	7.55	-30.7	-35.8	7.4	1.46e-01	0	41	0	12582912	21	6418
2026-01-17 00:07:59.30	19.35	7.63	-31.3	-37.3	6.0	3.40e-01	0	41	0	15728640	22	7241
2026-01-17 00:08:00.30	19.36	7.71	-31.2	-36.8	6.0	6.18e-01	0	41	0	17825792	23	6806
2026-01-17 00:08:01.31	19.38	7.79	-31.1	-36.5	6.5	2.49e-01	0	41	0	20971520	22	6752
2026-01-17 00:08:02.31	19.40	7.86	-30.6	-35.3	7.7	8.40e-02	0	42	0	24117248	21	6187
2026-01-17 00:08:03.31	19.41	7.94	-30.2	-34.2	8.8	4.39e-02	0	42	0	27262976	20	5760
2026-01-17 00:08:04.31	19.43	8.02	-29.8	-33.1	9.5	2.12e-02	0	42	0	30408704	20	5289
2026-01-17 00:08:05.31	19.44	8.10	-29.4	-32.3	10.6	8.63e-03	0	41	0	33554432	19	5058
2026-01-17 00:08:06.31	19.46	8.18	-29.2	-32.4	10.9	6.79e-03	0	42	0	36700160	18	5184
2026-01-17 00:08:07.32	19.48	8.26	-29.1	-32.2	11.1	1.37e-03	0	42	0	39845888	18	5113
2026-01-17 00:08:08.32	19.49	8.34	-29.2	-32.3	11.0	1.87e-03	0	42	0	42991616	18	5159
2026-01-17 00:08:09.33	19.51	8.42	-29.3	-32.7	10.7	6.81e-03	0	42	0	46137344	18	5305
2026-01-17 00:08:10.33	19.53	8.51	-29.1	-32.1	11.1	2.34e-03	0	42	0	49283072	18	5075
2026-01-17 00:08:11.33	19.54	8.59	-28.9	-32.0	11.5	2.74e-03	0	42	0	52428800	17	5140
2026-01-17 00:08:12.34	19.56	8.67	-28.7	-31.5	11.9	5.76e-04	0	42	0	55574528	17	4975
2026-01-17 00:08:13.35	19.58	8.75	-28.7	-31.6	11.8	3.84e-04	0	42	0	58720256	17	4987
2026-01-17 00:08:14.35	19.59	8.83	-28.7	-31.5	11.8	4.74e-04	0	42	0	61865984	17	4985
2026-01-17 00:08:15.35	19.61	8.92	-28.8	-31.6	11.8	4.72e-03	0	42	0	65011712	17	5020
2026-01-17 00:08:16.36	19.63	9.00	-28.9	-32.1	11.5	8.71e-04	0	42	0	68157440	17	5179
2026-01-17 00:08:17.36	19.64	9.08	-28.7	-31.6	11.8	5.29e-04	0	42	0	71303168	17	4988
2026-01-17 00:08:18.36	19.66	9.16	-28.2	-30.8	12.7	1.01e-04	0	42	0	74448896	16	4831
2026-01-17 00:08:19.36	19.68	9.25	-28.1	-30.4	12.9	4.50e-05	0	42	0	77594624	16	4706
2026-01-17 00:08:20.37	19.70	9.33	-27.7	-30.0	13.3	1.90e-05	0	42	0	80740352	15	4687
2026-01-17 00:08:21.38	19.71	9.42	-27.7	-30.0	13.3	2.05e-05	0	42	0	83886080	15	4694
2026-01-17 00:08:22.38	19.73	9.50	-27.6	-29.8	13.4	1.75e-05	0	42	0	87031808	15	4631
2026-01-17 00:08:23.37	19.75	9.59	-28.4	-31.1	12.5	4.80e-05	0	42	0	90177536	16	4926
2026-01-17 00:08:24.37	19.77	9.67	-28.1	-30.5	12.9	4.42e-05	0	42	0	93323264	16	4723
2026-01-17 00:08:25.38	19.78	9.76	-26.6	-29.1	13.0	5.56e-05	0	42	0	96468992	15	4792
2026-01-17 00:08:26.38	19.80	9.84	-28.5	-30.9	12.3	1.11e-04	0	42	0	99614720	17	4744
2026-01-17 00:08:27.39	19.82	9.93	-28.1	-30.3	12.6	5.18e-05	0	42	0	102760448	16	4672
2026-01-17 00:08:28.39	19.84	10.01	-27.8	-30.2	13.0	1.22e-05	0	42	0	105906176	15	4760
2026-01-17 00:08:29.39	19.85	10.10	-27.8	-30.2	13.2	1.83e-05	0	42	0	109051904	15	4757
2026-01-17 00:08:30.38	19.87	10.19	-27.8	-30.2	13.2	1.44e-05	0	42	0	112197632	15	4748
2026-01-17 00:08:31.39	19.89	10.27	-27.9	-30.4	13.1	3.50e-05	0	42	0	115343360	15	4816
2026-01-17 00:08:32.39	19.91	10.36	-27.7	-30.0	13.3	1.90e-05	0	42	0	118489088	15	4695
2026-01-17 00:08:33.38	19.93	10.45	-27.5	-29.5	13.7	1.14e-05	0	42	0	121634816	15	4538
2026-01-17 00:08:34.38	19.95	10.53	-27.6	-29.6	13.6	1.44e-05	0	42	0	124780544	15	4575
2026-01-17 00:08:35.38	19.96	10.62	-27.4	-29.7	13.8	4.50e-06	0	42	0	127926272	14	4716
2026-01-17 00:08:36.38	19.98	10.71	-27.4	-29.8	13.8	6.82e-04	0	42	0	131072000	14	4730
2026-01-17 00:08:37.39	20.00	10.80	-27.4	-29.7	13.8	7.43e-04	0	42	0	134217728	14	4716
2026-01-17 00:08:38.40	20.02	10.89	-27.3	-29.6	14.0	7.00e-07	0	42	0	137363456	14	4659
2026-01-17 00:08:39.39	20.04	10.98	-27.3	-29.6	14.0	1.50e-06	0	42	0	140509184	14	4665
2026-01-17 00:08:40.39	20.06	11.07	-27.1	-29.1	14.2	3.80e-06	0	42	0	143654912	14	4524
2026-01-17 00:08:41.39	20.08	11.16	-27.2	-29.3	14.1	2.20e-06	0	42	0	146800640	14	4591
2026-01-17 00:08:42.39	20.09	11.25	-27.3	-29.5	14.0	1.07e-03	0	42	0	149946368	14	4655
2026-01-17 00:08:43.39	20.11	11.34	-27.1	-29.1	14.2	0.00e+00	0	42	0	153092096	14	4532
2026-01-17 00:08:44.38	20.13	11.43	-27.1	-29.1	14.3	1.50e-06	0	42	0	156237824	14	4505
2026-01-17 00:08:45.38	20.15	11.52	-27.3	-29.4	14.1	7.79e-04	0	42	0	159383552	14	4605
2026-01-17 00:08:46.39	20.17	11.61	-27.1	-28.9	14.4	8.36e-04	0	42	0	162529280	14	4472
2026-01-17 00:08:47.38	20.19	11.70	-27.0	-28.9	14.4	2.20e-06	0	43	0	165675008	14	4447
2026-01-17 00:08:48.39	20.21	11.80	-27.1	-29.0	14.3	1.09e-03	0	42	0	168820736	14	4485
2026-01-17 00:08:49.39	20.23	11.89	-27.1	-29.0	14.4	1.50e-06	0	42	0	171966464	14	4476
2026-01-17 00:08:50.39	20.25	11.98	-27.1	-29.1	14.3	0.00e+00	0	42	0	175112192	14	4502
2026-01-17 00:08:51.39	20.27	12.08	-27.1	-29.0	14.3	1.58e-03	0	42	0	178257920	14	4495
2026-01-17 00:08:52.40	20.29	12.17	-27.0	-28.8	14.5	1.06e-03	0	42	0	181403648	14	4434
2026-01-17 00:08:53.40	20.31	12.27	-26.9	-28.6	14.6	7.00e-07	0	43	0	184549376	14	4379
2026-01-17 00:08:54.41	20.33	12.36	-26.9	-29.0	14.6	0.00e+00	0	43	0	187695104	13	4612
2026-01-17 00:08:55.41	20.35	12.46	-27.0	-28.7	14.6	1.22e-03	0	42	0	190840832	14	4388
2026-01-17 00:08:56.41	20.37	12.55	-27.1	-28.9	14.4	7.00e-07	0	42	0	193986560	14	4463
2026-01-17 00:08:57.41	20.39	12.65	-27.0	-28.8	14.5	9.89e-04	0	42	0	197132288	14	4418
2026-01-17 00:08:58.41	20.41	12.74	-26.9	-29.1	14.6	1.26e-03	0	43	0	200278016	13	4618
2026-01-17 00:08:59.41	20.43	12.84	-26.9	-29.0	14.7	0.00e+00	0	43	0	203423744	13	4610
2026-01-17 00:09:00.42	20.45	12.94	-26.9	-29.0	14.7	1.20e-03	0	43	0	206569472	13	4594
2026-01-17 00:09:01.42	20.47	13.03	-26.9	-29.0	14.7	1.32e-03	0	43	0	209715200	13	4595
2026-01-17 00:09:02.43	20.50	13.13	-26.8	-28.9	14.8	0.00e+00	0	42	0	212860928	13	4559
2026-01-17 00:09:03.43	20.52	13.23	-26.9	-29.1	14.7	1.40e-03	0	43	0	216006656	13	4620
2026-01-17 00:09:04.43	20.54	13.33	-26.8	-28.8	14.8	1.39e-03	0	42	0	219152384	13	4531
2026-01-17 00:09:05.44	20.56	13.43	-26.9	-29.1	14.7	0.00e+00	0	43	0	222298112	13	4613
2026-01-17 00:09:06.44	20.58	13.53	-26.8	-28.9	14.8	1.46e-03	0	43	0	224395264	13	4555
2026-01-17 00:09:07.44	20.60	13.63	-26.9	-29.1	14.6	1.39e-03	0	43	0	228589568	13	4633
2026-01-17 00:09:08.45	20.62	13.73	-27.2	-29.3	14.3	0.00e+00	0	43	0	231735296	14	4554
2026-01-17 00:09:09.45	20.65	13.83	-27.2	-29.2	14.4	1.66e-03	0	43	0	234881024	14	4536
2026-01-17 00:09:10.45	20.67	13.93	-27.0	-28.8	14.6	0.00e+00	0	43	0	238026752	14	4417
2026-01-17 00:09:11.45	20.69	14.03	-26.9	-28.5	14.8	0.00e+00	0	43	0	241172480	14	4334
2026-01-17 00:09:12.45	20.71	14.13	-26.9	-29.0	14.7	1.82e-03	0	43	0	244318208	13	4595
2026-01-17 00:09:13.45	20.73	14.23	-27.0	-29.2	14.7	1.89e-03	0	42	0	246415360	13	4641
2026-01-17 00:09:14.45	20.76	14.34	-26.9	-29.0	14.7	0.00e+00	0	43	0	249561088	13	4603
2026-01-17 00:09:15.46	20.78	14.44	-26.8	-28.9	14.8	7.00e-07	0	43	0	252706816	13	4549
2026-01-17 00:09:16.46	20.80	14.54	-26.9	-29.1	14.8	0.00e+00	0	43	0	255852544	13	4608
2026-01-17 00:09:17.47	20.83	14.65	-26.7	-28.5	15.1	0.00e+00	0	43	0	258998272	13	4436
2026-01-17 00:09:18.47	20.85	14.75	-26.7	-28.5	15.1	1.83e-03	0	43	0	262144000	13	4444
2026-01-17 00:09:19.47	20.87	14.86	-26.6	-28.4	15.1	0.00e+00	0	43	0	265289728	13	4412
2026-01-17 00:09:20.48	20.89	14.96	-26.8	-28.7	15.0	0.00e+00	0	43	0	268435456	13	4506
2026-01-17 00:09:21.48	20.92	15.07	-26.3	-28.2	15.0	0.00e+00	0	43	0	271581184	13	4493
2026-01-17 00:09:22.48	20.94	15.17	-26.7	-28.6	13.2	1.67e-03	0	43	0	274726912	13	4469
2026-01-17 00:09:23.48	20.97	15.28	-26.7	-28.5	13.7	0.00e+00	0	43	0	277872640	13	4437
2026-01-17 00:09:24.48	20.99	15.39	-26.7	-28.5	15.1	0.00e+00	0	43	0	281018368	13	4432
2026-01-17 00:09:25.48	21.01	15.50	-26.7	-28.5	15.0	0.00e+00	0	43	0	284164096	13	4452
2026-01-17 00:09:26.49	21.04	15.60	-26.8	-28.7	15.0	0.00e+00	0	43	0	287309824	13	4492
2026-01-17 00:09:27.49	21.06	15.71	-26.7	-28.6	15.0	1.03e-04	0	43	0	290455552	13	4469
2026-01-17 00:09:28.49	21.09	15.82	-26.6	-28.3	15.2	3.77e-03	0	43	0	293601280	13	4370
2026-01-17 00:09:29.49	21.11	15.93	-26.5	-28.1	15.4	0.00e+00	0	43	0	296747008	13	4318
2026-01-17 00:09:30.50	21.13	16.04	-26.5	-28.2	15.3	0.00e+00	0	43	0	299892736	13	4350
2026-01-17 00:09:31.50	21.16	16.15	-26.5	-28.5	15.4	0.00e+00	0	43	0	303038464	12	4556
2026-01-17 00:09:32.50	21.18	16.26	-26.5	-28.5	15.4	3.40e-03	0	43	0	306184192	12	4537
2026-01-17 00:09:33.50	21.21	16.37	-26.4	-28.5	15.4	2.97e-05	0	43	0	309329920	12	4537
2026-01-17 00:09:34.50	21.23	16.49	-26.5	-28.0	15.4	0.00e+00	0	43	0	312475648	13	4307
2026-01-17 00:09:35.50	21.26	16.60	-26.4	-28.3	15.5	0.00e+00	0	43	0	315621376	12	4486
2026-01-17 00:09:36.51	21.29	16.71	-26.4	-28.3	15.6	5.64e-05	0	43	0	318767104	12	4478
2026-01-17 00:09:37.52	21.31	16.83	-26.4	-28.4	15.5	3.84e-03	0	43	0	321912832	12	4530
2026-01-17 00:09:38.53	21.34	16.94	-26.4	-27.9	15.5	3.63e-03	0	43	0	325058560	13	4276
2026-01-17 00:09:39.53	21.36	17.06	-26.4	-28.4	15.5	0.00e+00	0	43	0	328204288	12	4535
2026-01-17 00:09:40.53	21.39	17.17	-26.5	-28.1	15.4	7.00e-07	0	43	0	331350016	13	4309
2026-01-17 00:09:41.53	21.42	17.29	-26.5	-28.2	15.4	3.37e-03	0	43	0	334495744	13	4338
2026-01-17 00:09:42.52	21.44	17.40	-26.5	-28.1	15.4	0.00e+00	0	43	0	337641472	13	4312
2026-01-17 00:09:43.51	21.47	17.52	-26.5	-28.2	15.4	3.36e-03	0	43	0	340787200	13	4338
2026-01-17 00:09:44.51	21.50	17.63	-26.6	-28.3	15.3	3.75e-03	0	43	0	343932928	13	4380
2026-01-17 00:09:45.52	21.52	17.75	-26.7	-28.6	15.2	0.00e+00	0	43	0	347078656	13	4449
2026-01-17 00:09:46.52	21.55	17.87	-26.8	-28.8	15.0	3.81e-03	0	43	0	350224384	13	4515
2026-01-17 00:09:47.52	21.58	17.99	-26.8	-28.7	15.1	3.76e-03	0	43	0	353370112	13	4505
2026-01-17 00:09:48.52	21.60	18.11	-26.9	-28.9	15.0	0.00e+00	0	43	0	356515840	13	4536
2026-01-17 00:09:49.52	21.63	18.23	-26.8	-28.8	15.0	3.72e-03	0	43	0	359661568	13	4529
2026-01-17 00:09:50.52	21.66	18.35	-26.9	-28.9	15.0	0.00e+00	0	43	0	362807296	13	4541
2026-01-17 00:09:51.53	21.69	18.47	-26.8	-28.7	15.1	0.00e+00	0	43	0	365953024	13	4503
2026-01-17 00:09:52.52	21.72	18.59	-26.8	-28.8	15.0	3.29e-03	0	43	0	369098752	13	4533
2026-01-17 00:09:53.53	21.75	18.72	-26.8	-28.7	15.1	3.80e-03	0	43	0	372244480	13	4487
2026-01-17 00:09:54.53	21.77	18.84	-26.7	-28.6	15.2	0.00e+00	0	43	0	375390208	13	4454
2026-01-17 00:09:55.52	21.80	18.96	-26.7	-28.6	15.2	3.79e-03	0	43	0	378535936	13	4454
2026-01-17 00:09:56.53	21.83	19.09	-26.7	-28.5	15.2	3.64e-03	0	43	0	381681664	13	4428
2026-01-17 00:09:57.54	21.86	19.21	-26.8	-28.8	15.0	0.00e+00	0	43	0	384827392	13	4527
2026-01-17 00:09:58.54	21.89	19.34	-26.7	-28.5	15.2	3.62e-03	0	43	0	387973120	13	4435
2026-01-17 00:09:59.55	21.92	19.47	-26.9	-28.9	15.0	3.38e-03	0	43	0	391118848	13	4551
2026-01-17 00:10:00.55	21.95	19.59	-26.7	-28.5	15.2	0.00e+00	0	43	0	394264576	13	4429
2026-01-17 00:10:01.56	21.98	19.72	-26.7	-28.4	15.3	0.00e+00	0	43	0	397410304	13	4409
2026-01-17 00:10:02.56	22.01	19.85	-26.6	-28.2	15.4	3.53e-03	0	43	0	400556032	13	4353
2026-01-17 00:10:03.55	22.04	19.98	-26.5	-28.0	15.5	0.00e+00	0	43	0	403701760	13	4281
2026-01-17 00:10:04.55	22.07	20.11	-26.6	-28.2	15.4	3.33e-03	0	43	0	406847488	13	4353
2026-01-17 00:10:05.56	22.11	20.24	-26.5	-28.0	15.5	7.00e-07	0	43	0	409993216	13	4286
2026-01-17 00:10:06.55	22.14	20.37	-26.5	-28.1	15.5	0.00e+00	0	43	0	413138944	13	4304
2026-01-17 00:10:07.55	22.17	20.50	-26.5	-28.0	15.6	3.11e-03	0	43	0	416284672	13	4274
2026-01-17 00:10:08.55	22.20	20.63	-26.4	-28.3	15.6	2.90e-03	0	43	0	419430400	12	4490
2026-01-17 00:10:09.55	22.23	20.76	-26.3	-28.0	15.8	0.00e+00	0	43	0	422576128	12	4409
2026-01-17 00:10:10.55	22.26	20.90	-26.3	-28.1	15.8	0.00e+00	0	43	0	425721856	12	4421
2026-01-17 00:10:11.55	22.30	21.03	-26.1	-27.6	16.1	0.00e+00	0	43	0	428867584	12	4293
2026-01-17 00:10:12.56	22.33	21.17	-26.1	-27.7	16.0	0.00e+00	0	43	0	432013312	12	4325
2026-01-17 00:10:13.57	22.36	21.30	-26.1	-27.7	16.0	3.54e-03	0	43	0	435159040	12	4319
2026-01-17 00:10:14.57	22.40	21.44	-26.1	-27.5	16.1	3.47e-03	0	43	0	438304768	12	4268
2026-01-17 00:10:15.57	22.43	21.58	-26.0	-27.3	16.2	0.00e+00	0	43	0	441450496	12	4217
2026-01-17 00:10:16.58	22.46	21.72	-26.0	-27.5	16.1	0.00e+00	0	43	0	444596224	12	4264
2026-01-17 00:10:17.58	22.50	21.86	-26.0	-27.5	16.1	0.00e+00	0	43	0	447741952	12	4263
2026-01-17 00:10:18.59	22.53	22.00	-25.9	-27.2	16.3	0.00e+00	0	43	0	450887680	12	4178
2026-01-17 00:10:19.59	22.57	22.14	-25.8	-27.1	16.4	3.34e-03	0	43	0	454033408	12	4149
2026-01-17 00:10:20.60	22.60	22.28	-25.9	-27.7	16.4	0.00e+00	0	43	0	457179136	11	4436
2026-01-17 00:10:21.60	22.64	22.42	-25.9	-27.6	16.4	0.00e+00	0	43	0	460324864	11	4406
2026-01-17 00:10:22.60	22.67	22.56	-26.0	-27.4	16.2	0.00e+00	0	43	0	463470592	12	4234
2026-01-17 00:10:23.60	22.71	22.71	-26.2	-27.8	16.0	0.00e+00	0	43	0	466616320	12	4339
2026-01-17 00:10:24.61	22.74	22.85	-26.4	-28.3	15.7	0.00e+00	0	43	0	469762048	12	4493
2026-01-17 00:10:25.61	22.78	23.00	-26.5	-28.5	15.7	0.00e+00	0	43	0	472907776	12	4533
2026-01-17 00:10:26.62	22.82	23.14	-26.9	-28.9	15.1	0.00e+00	0	43	0	476053504	13	4549
2026-01-17 00:10:27.62	22.85	23.29	-27.0	-28.6	15.1	0.00e+00	0	43	0	478150656	14	4335
2026-01-17 00:10:28.63	22.89	23.44	-27.1	-28.8	14.9	0.00e+00	0	43	0	481296384	14	4405
2026-01-17 00:10:29.63	22.93	23.59	-26.7	-28.5	15.4	0.00e+00	0	43	0	484442112	13	4433
2026-01-17 00:10:30.64	22.97	23.74	-26.7	-28.6	15.4	7.00e-07	0	43	0	487587840	13	4439
2026-01-17 00:10:31.64	23.01	23.89	-26.8	-28.6	15.3	0.00e+00	0	43	0	491782144	13	4466
2026-01-17 00:10:32.64	23.04	24.04	-26.7	-28.6	15.3	0.00e+00	0	43	0	494927872	13	4450
2026-01-17 00:10:33.64	23.08	24.19	-26.7	-28.5	15.4	0.00e+00	0	43	0	498073600	13	4417
2026-01-17 00:10:34.64	23.12	24.34	-27.1	-28.8	15.0	0.00e+00	0	43	0	500170752	14	4404
2026-01-17 00:10:35.64	23.16	24.50	-27.1	-28.8	15.0	0.00e+00	0	43	0	503316480	14	4404
2026-01-17 00:10:36.64	23.20	24.65	-26.7	-27.9	15.5	0.00e+00	0	43	0	506462208	14	4150
2026-01-17 00:10:37.64	23.24	24.81	-26.4	-27.7	15.8	0.00e+00	0	43	0	509607936	13	4208
2026-01-17 00:10:38.65	23.28	24.96	-26.3	-28.1	15.9	0.00e+00	0	43	0	512753664	12	4429
2026-01-17 00:10:39.65	23.32	25.12	-26.3	-28.0	15.9	0.00e+00	0	43	0	515899392	12	4396
2026-01-17 00:10:40.65	23.36	25.28	-26.0	-27.5	16.2	0.00e+00	0	44	0	519045120	12	4258
2026-01-17 00:10:41.66	23.41	25.44	-25.9	-27.3	16.4	0.00e+00	0	43	0	522190848	12	4195
2026-01-17 00:10:42.66	23.45	25.60	-25.4	-26.8	16.1	0.00e+00	0	43	0	525336576	12	4240
2026-01-17 00:10:43.66	23.49	25.76	-26.0	-27.4	16.3	0.00e+00	0	43	0	528482304	12	4229
2026-01-17 00:10:44.67	23.53	25.92	-26.0	-27.4	15.7	0.00e+00	0	43	0	531628032	12	4236
2026-01-17 00:10:45.67	23.58	26.09	-26.2	-27.7	15.5	0.00e+00	0	43	0	534773760	12	4315
2026-01-17 00:10:46.67	23.62	26.25	-26.2	-27.9	16.0	0.00e+00	0	43	0	537919488	12	4373
2026-01-17 00:10:47.67	23.67	26.41	-26.4	-28.3	15.8	0.00e+00	0	43	0	541065216	12	4469
2026-01-17 00:10:48.67	23.71	26.58	-26.4	-27.7	15.9	0.00e+00	0	43	0	544210944	13	4207
2026-01-17 00:10:49.67	23.75	26.75	-26.3	-27.6	15.9	0.00e+00	0	43	0	547356672	13	4183
2026-01-17 00:10:50.67	23.80	26.91	-26.5	-28.5	15.8	0.00e+00	0	43	0	550502400	12	4528
2026-01-17 00:10:51.67	23.85	27.08	-26.6	-28.3	15.5	0.00e+00	0	43	0	553648128	13	4368
2026-01-17 00:10:52.68	23.89	27.25	-26.7	-28.4	15.5	0.00e+00	0	43	0	556793856	13	4392
2026-01-17 00:10:53.67	23.94	27.42	-26.8	-28.6	15.4	0.00e+00	0	43	0	559939584	13	4445
2026-01-17 00:10:54.67	23.99	27.60	-26.9	-28.9	15.2	0.00e+00	0	43	0	563085312	13	4534
2026-01-17 00:10:55.68	24.03	27.77	-26.9	-28.9	15.2	0.00e+00	0	43	0	566231040	13	4543
2026-01-17 00:10:56.69	24.08	27.95	-26.9	-28.8	15.3	0.00e+00	0	43	0	569376768	13	4518
2026-01-17 00:10:57.69	24.13	28.12	-27.1	-28.8	15.0	0.00e+00	0	43	0	572522496	14	4401
2026-01-17 00:10:58.69	24.18	28.30	-27.2	-29.2	14.8	7.00e-07	0	43	0	575668224	14	4506
2026-01-17 00:10:59.69	24.23	28.47	-27.1	-28.8	15.0	0.00e+00	0	43	0	578813952	14	4396
2026-01-17 00:11:00.69	24.28	28.65	-26.8	-28.3	15.3	0.00e+00	0	43	0	581959680	14	4240
2026-01-17 00:11:01.70	24.33	28.83	-26.7	-28.5	15.5	0.00e+00	0	43	0	585105408	13	4418
2026-01-17 00:11:02.70	24.38	29.02	-26.6	-28.3	15.6	0.00e+00	0	43	0	588251136	13	4358
2026-01-17 00:11:03.71	24.43	29.20	-26.6	-28.3	15.6	0.00e+00	0	43	0	591396864	13	4352
2026-01-17 00:11:04.70	24.48	29.38	-26.7	-28.5	15.5	0.00e+00	0	43	0	594542592	13	4412
2026-01-17 00:11:05.71	24.54	29.57	-26.7	-28.4	15.6	0.00e+00	0	43	0	597688320	13	4380
2026-01-17 00:11:06.71	24.59	29.75	-26.5	-28.1	15.8	0.00e+00	0	43	0	600834048	13	4298
2026-01-17 00:11:07.71	24.65	29.94	-26.4	-27.8	15.9	0.00e+00	0	43	0	603979776	13	4212
2026-01-17 00:11:08.72	24.70	30.13	-26.4	-28.3	15.9	0.00e+00	0	43	0	607125504	12	4464
2026-01-17 00:11:09.72	24.76	30.32	-26.5	-28.0	15.8	7.00e-07	0	43	0	610271232	13	4281
2026-01-17 00:11:10.72	24.81	30.51	-26.6	-28.2	15.7	0.00e+00	0	43	0	613416960	13	4341
2026-01-17 00:11:11.72	24.87	30.70	-26.4	-27.9	15.9	0.00e+00	0	43	0	616562688	13	4241
2026-01-17 00:11:12.73	24.92	30.89	-26.4	-27.7	15.9	0.00e+00	0	43	0	619708416	13	4205
2026-01-17 00:11:13.73	24.98	31.09	-26.4	-28.4	15.9	0.00e+00	0	43	0	622854144	12	4489
2026-01-17 00:11:14.74	25.04	31.29	-26.6	-28.2	15.7	0.00e+00	0	43	0	625999872	13	4325
2026-01-17 00:11:15.74	25.10	31.48	-26.6	-28.2	15.7	0.00e+00	0	43	0	629145600	13	4345
2026-01-17 00:11:16.75	25.16	31.68	-25.8	-27.5	15.2	0.00e+00	0	43	0	632291328	13	4369
2026-01-17 00:11:17.75	25.22	31.88	-26.6	-28.2	15.6	0.00e+00	0	43	0	635437056	13	4338
2026-01-17 00:11:18.75	25.28	32.08	-26.7	-28.4	14.7	0.00e+00	0	43	0	638582784	13	4401
2026-01-17 00:11:19.76	25.34	32.29	-26.7	-28.4	15.4	0.00e+00	0	43	0	641728512	13	4385
2026-01-17 00:11:20.76	25.40	32.49	-26.7	-28.4	15.6	0.00e+00	0	43	0	644874240	13	4402
2026-01-17 00:11:21.76	25.47	32.69	-26.9	-28.9	15.3	1.93e-03	0	43	0	648019968	13	4533
2026-01-17 00:11:22.76	25.53	32.90	-26.9	-28.8	15.4	0.00e+00	0	43	0	651165696	13	4507
2026-01-17 00:11:23.76	25.60	33.11	-26.9	-28.9	15.3	0.00e+00	0	43	0	654311424	13	4538
2026-01-17 00:11:24.77	25.66	33.32	-26.9	-28.9	15.4	0.00e+00	0	44	0	657457152	13	4522
2026-01-17 00:11:25.78	25.73	33.53	-26.9	-29.0	15.3	0.00e+00	0	43	0	660602880	13	4555
2026-01-17 00:11:26.77	25.80	33.74	-27.1	-28.8	15.2	0.00e+00	0	43	0	663748608	14	4395
2026-01-17 00:11:27.78	25.86	33.96	-27.0	-28.6	15.3	0.00e+00	0	43	0	666894336	14	4322
2026-01-17 00:11:28.78	25.93	34.17	-27.1	-28.8	15.2	0.00e+00	0	43	0	670040064	14	4386
2026-01-17 00:11:29.78	26.00	34.39	-27.2	-29.1	15.0	0.00e+00	0	43	0	673185792	14	4482
2026-01-17 00:11:30.79	26.07	34.61	-27.3	-29.3	14.9	0.00e+00	0	43	0	676331520	14	4540
2026-01-17 00:11:31.80	26.14	34.83	-27.7	-29.7	14.3	2.73e-04	0	43	0	679477248	15	4551
2026-01-17 00:11:32.80	26.22	35.05	-27.5	-29.2	14.7	0.00e+00	0	43	0	682622976	15	4400
2026-01-17 00:11:33.80	26.29	35.27	-28.1	-30.2	14.0	2.60e-04	0	43	0	685768704	16	4563
2026-01-17 00:11:34.79	26.36	35.49	-28.0	-29.9	14.2	0.00e+00	0	43	0	688914432	16	4484
2026-01-17 00:11:35.79	26.44	35.72	-28.3	-30.5	13.8	3.80e-06	0	43	0	692060160	16	4663
2026-01-17 00:11:36.79	26.51	35.94	-28.3	-30.6	13.7	1.73e-04	0	43	0	695205888	16	4689
2026-01-17 00:11:37.79	26.59	36.17	-28.5	-30.6	13.5	6.17e-05	0	43	0	698351616	17	4584
2026-01-17 00:11:38.79	26.67	36.40	-28.7	-31.0	13.2	2.13e-05	0	43	0	701497344	17	4705
2026-01-17 00:11:39.79	26.75	36.63	-29.0	-31.7	12.7	4.88e-05	0	43	0	704643072	17	4954
2026-01-17 00:11:40.79	26.83	36.87	-29.2	-31.8	12.4	1.38e-04	0	43	0	707788800	18	4856
2026-01-17 00:11:41.79	26.91	37.10	-29.2	-31.9	12.4	1.34e-04	0	44	0	710934528	18	4877
2026-01-17 00:11:42.79	26.99	37.34	-29.3	-32.2	12.2	1.81e-04	0	43	0	714080256	18	5001
2026-01-17 00:11:43.80	27.08	37.58	-29.2	-31.9	12.4	1.84e-04	0	43	0	717225984	18	4892
2026-01-17 00:11:44.81	27.16	37.82	-29.1	-31.5	12.7	1.07e-04	0	43	0	720371712	18	4764
2026-01-17 00:11:45.81	27.25	38.06	-29.0	-31.2	12.9	7.01e-05	0	44	0	723517440	18	4662
2026-01-17 00:11:46.81	27.34	38.30	-28.9	-31.0	12.9	5.95e-05	0	43	0	726663168	18	4608
2026-01-17 00:11:47.81	27.42	38.55	-29.0	-31.4	12.7	6.33e-05	0	43	0	729808896	18	4731
2026-01-17 00:11:48.82	27.51	38.80	-28.9	-31.0	13.0	2.17e-04	0	43	0	731906048	18	4584
2026-01-17 00:11:49.82	27.61	39.05	-28.7	-30.6	13.2	2.34e-04	0	43	0	735051776	18	4462
2026-01-17 00:11:50.82	27.70	39.30	-28.7	-30.4	13.4	2.51e-05	0	43	0	738197504	18	4414
2026-01-17 00:11:51.83	27.79	39.55	-28.8	-30.7	13.3	2.14e-04	0	43	0	741343232	18	4487
2026-01-17 00:11:52.83	27.89	39.80	-28.7	-30.6	13.3	2.43e-04	0	44	0	744488960	18	4450
2026-01-17 00:11:53.83	27.98	40.06	-28.8	-30.7	13.2	1.67e-05	0	43	0	747634688	18	4495
2026-01-17 00:11:54.83	28.08	40.32	-28.6	-30.3	13.4	2.39e-04	0	43	0	750780416	18	4367
2026-01-17 00:11:55.83	28.18	40.57	-28.6	-30.4	13.4	3.54e-04	0	43	0	753926144	18	4394
2026-01-17 00:11:56.83	28.28	40.83	-28.5	-30.1	13.6	6.10e-06	0	43	0	757071872	18	4321
2026-01-17 00:11:57.84	28.39	41.10	-28.5	-30.6	13.6	4.42e-04	0	43	0	760217600	17	4553
2026-01-17 00:11:58.83	28.49	41.36	-28.5	-30.6	13.6	4.82e-04	0	43	0	763363328	17	4556
2026-01-17 00:11:59.84	28.60	41.63	-28.6	-30.9	13.4	8.30e-06	0	43	0	766509056	17	4649
2026-01-17 00:12:00.84	28.70	41.90	-28.7	-31.1	13.3	1.14e-05	0	43	0	769654784	17	4713
2026-01-17 00:12:01.84	28.81	42.17	-28.7	-31.0	13.3	1.52e-05	0	43	0	772800512	17	4686
2026-01-17 00:12:02.85	28.93	42.44	-28.8	-31.2	13.2	1.29e-05	0	43	0	775946240	17	4744
2026-01-17 00:12:03.85	29.04	42.71	-28.8	-31.4	13.1	7.32e-04	0	43	0	779091968	17	4801
2026-01-17 00:12:04.85	29.15	42.99	-28.7	-31.0	13.3	1.22e-05	0	43	0	782237696	17	4686
2026-01-17 00:12:05.85	29.27	43.27	-28.7	-30.9	13.4	1.67e-05	0	43	0	785383424	17	4662
2026-01-17 00:12:06.85	29.39	43.55	-28.7	-31.1	13.3	1.52e-05	0	43	0	788529152	17	4726
2026-01-17 00:12:07.86	29.51	43.83	-28.7	-31.1	13.3	1.02e-03	0	43	0	791674880	17	4719
2026-01-17 00:12:08.87	29.64	44.12	-28.9	-31.5	13.1	1.83e-05	0	43	0	794820608	17	4861
2026-01-17 00:12:09.87	29.76	44.40	-28.8	-31.3	13.2	3.05e-05	0	43	0	797966336	17	4793
2026-01-17 00:12:10.87	29.89	44.69	-28.9	-31.5	13.1	3.35e-05	0	43	0	801112064	17	4846
2026-01-17 00:12:11.88	30.02	44.98	-29.2	-31.7	12.6	7.70e-05	0	43	0	804257792	18	4792
2026-01-17 00:12:12.88	30.15	45.27	-28.9	-31.3	13.1	9.44e-04	0	43	0	807403520	17	4799
2026-01-17 00:12:13.88	30.29	45.56	-28.7	-31.0	13.4	1.06e-03	0	43	0	810549248	17	4700
2026-01-17 00:12:14.88	30.42	45.86	-28.9	-31.4	13.1	2.97e-05	0	43	0	813694976	17	4813
2026-01-17 00:12:15.88	30.56	46.16	-28.7	-30.9	13.4	8.30e-06	0	43	0	816840704	17	4660
2026-01-17 00:12:16.87	30.70	46.45	-28.7	-31.0	13.4	7.60e-06	0	43	0	819986432	17	4697
2026-01-17 00:12:17.87	30.85	46.75	-29.1	-31.5	12.8	2.89e-05	0	43	0	823132160	18	4722
2026-01-17 00:12:18.87	30.99	47.06	-28.8	-30.7	13.3	1.59e-03	0	43	0	826277888	18	4467
2026-01-17 00:12:19.88	31.15	47.36	-28.6	-30.6	13.6	9.10e-06	0	43	0	829423616	17	4561
2026-01-17 00:12:20.87	31.30	47.67	-28.4	-30.3	13.8	3.80e-06	0	43	0	832569344	17	4470
2026-01-17 00:12:21.87	31.45	47.98	-28.4	-30.7	13.8	4.50e-06	0	43	0	835715072	16	4719
2026-01-17 00:12:22.88	31.61	48.29	-28.3	-30.5	14.0	2.20e-06	0	43	0	838860800	16	4652
2026-01-17 00:12:23.88	31.78	48.60	-28.3	-30.4	14.0	2.20e-06	0	43	0	842006528	16	4613
2026-01-17 00:12:24.88	31.94	48.92	-28.3	-30.5	14.0	1.50e-06	0	43	0	845152256	16	4650
2026-01-17 00:12:25.89	32.11	49.24	-28.2	-30.3	14.1	5.30e-06	0	43	0	848297984	16	4590
2026-01-17 00:12:26.89	32.28	49.56	-28.4	-30.7	13.9	2.20e-06	0	43	0	851443712	16	4698
2026-01-17 00:12:27.90	32.46	49.88	-28.0	-29.8	14.4	1.50e-06	0	43	0	854589440	16	4437
2026-01-17 00:12:28.90	32.64	50.21	-27.9	-30.2	14.3	7.00e-07	0	43	0	857735168	15	4685
2026-01-17 00:12:29.90	32.82	50.53	-28.3	-30.6	13.9	4.50e-06	0	43	0	860880896	16	4672
2026-01-17 00:12:30.90	33.01	50.86	-28.5	-30.6	13.7	6.10e-06	0	43	0	864026624	17	4559
2026-01-17 00:12:31.90	33.20	51.19	-28.8	-31.2	13.2	1.14e-05	0	43	0	867172352	17	4759
2026-01-17 00:12:32.91	33.40	51.52	-28.8	-31.4	13.2	1.98e-05	0	43	0	870318080	17	4814
2026-01-17 00:12:33.91	33.60	51.86	-28.7	-31.1	13.4	2.05e-05	0	43	0	873463808	17	4742
2026-01-17 00:12:34.91	33.80	52.19	-28.8	-31.4	13.2	2.28e-05	0	43	0	876609536	17	4826
2026-01-17 00:12:35.91	34.01	52.53	-28.6	-30.8	13.6	6.80e-06	0	43	0	879755264	17	4640
2026-01-17 00:12:36.91	34.23	52.87	-28.4	-30.3	13.9	2.20e-06	0	43	0	882900992	17	4474
2026-01-17 00:12:37.90	34.44	53.20	-28.2	-30.2	14.2	1.50e-06	0	43	0	886046720	16	4559
2026-01-17 00:12:38.90	34.67	53.55	-28.2	-30.3	14.1	1.50e-06	0	43	0	889192448	16	4595
2026-01-17 00:12:39.89	34.89	53.89	-27.7	-29.0	14.9	0.00e+00	0	43	0	892338176	16	4218
2026-01-17 00:12:40.89	35.13	54.24	-27.2	-28.6	15.2	0.00e+00	0	43	0	895483904	15	4203
2026-01-17 00:12:41.89	35.37	54.58	-27.4	-29.0	14.9	7.00e-07	0	43	0	898629632	15	4326
2026-01-17 00:12:42.89	35.61	54.93	-27.3	-29.2	15.2	0.00e+00	0	43	0	901775360	14	4483
2026-01-17 00:12:43.89	35.87	55.29	-27.6	-29.4	14.7	0.00e+00	0	43	0	904921088	15	4437
2026-01-17 00:12:44.89	36.12	55.64	-27.4	-29.1	15.0	0.00e+00	0	43	0	908066816	15	4346
2026-01-17 00:12:45.89	36.39	56.00	-27.3	-29.1	15.2	0.00e+00	0	43	0	911212544	14	4473
2026-01-17 00:12:46.90	36.66	56.36	-27.3	-29.3	15.1	0.00e+00	0	43	0	914358272	14	4529
2026-01-17 00:12:47.90	36.94	56.72	-27.1	-28.8	15.5	0.00e+00	0	43	0	917504000	14	4369
2026-01-17 00:12:48.90	37.23	57.08	-26.9	-28.3	15.7	0.00e+00	0	43	0	920649728	14	4242
2026-01-17 00:12:49.90	37.52	57.44	-26.8	-28.5	15.8	7.00e-07	0	43	0	923795456	13	4405
2026-01-17 00:12:50.90	37.82	57.81	-26.5	-27.8	16.3	0.00e+00	0	43	0	926941184	13	4221
2026-01-17 00:12:51.90	38.13	58.17	-26.2	-27.3	16.5	0.00e+00	0	43	0	930086912	13	4070
2026-01-17 00:12:52.89	38.45	58.54	-26.2	-27.8	16.5	7.00e-07	0	43	0	933232640	12	4321
2026-01-17 00:12:53.89	38.77	58.90	-26.2	-27.7	16.5	0.00e+00	0	43	0	936378368	12	4280
2026-01-17 00:12:54.90	39.11	59.28	-26.7	-28.3	16.0	0.00e+00	0	43	0	938475520	13	4332
2026-01-17 00:12:55.90	39.46	59.65	-26.5	-27.8	16.3	0.00e+00	0	43	0	941621248	13	4211
2026-01-17 00:12:56.89	39.81	60.02	-26.3	-27.5	16.4	0.00e+00	0	43	0	944766976	13	4135
2026-01-17 00:12:57.90	40.18	60.40	-26.2	-27.7	16.5	0.00e+00	0	43	0	947912704	12	4305
2026-01-17 00:12:58.90	40.56	60.77	-26.1	-27.5	16.7	1.50e-06	0	43	0	951058432	12	4237
2026-01-17 00:12:59.91	40.95	61.15	-26.2	-27.8	16.6	0.00e+00	0	43	0	954204160	12	4327
2026-01-17 00:13:00.91	41.35	61.53	-25.8	-26.9	17.0	0.00e+00	0	43	0	957349888	12	4083
2026-01-17 00:13:01.91	41.76	61.91	-25.5	-26.6	17.5	0.00e+00	0	43	0	960495616	11	4118
2026-01-17 00:13:02.92	42.19	62.29	-25.1	-25.9	17.9	0.00e+00	0	43	0	963641344	11	3929
2026-01-17 00:13:03.93	42.63	62.67	-25.1	-26.4	17.9	0.00e+00	0	43	0	966787072	10	4150
2026-01-17 00:13:04.93	43.08	63.06	-24.9	-25.9	18.2	0.00e+00	0	43	0	969932800	10	4041
2026-01-17 00:13:05.93	43.55	63.44	-24.9	-25.9	18.2	0.00e+00	0	43	0	973078528	10	4042
2026-01-17 00:13:06.93	44.03	63.82	-25.1	-26.2	18.0	0.00e+00	0	43	0	976224256	10	4128
2026-01-17 00:13:07.93	44.53	64.20	-25.1	-26.3	18.0	5.30e-06	0	43	0	979369984	10	4134
2026-01-17 00:13:08.94	45.05	64.59	-25.2	-26.6	17.8	0.00e+00	0	44	0	982515712	10	4227
2026-01-17 00:13:09.94	45.58	64.97	-25.4	-27.1	17.6	0.00e+00	0	43	0	985661440	10	4334
2026-01-17 00:13:10.95	46.14	65.35	-25.4	-26.9	17.7	0.00e+00	0	43	0	988807168	10	4309
2026-01-17 00:13:11.95	46.71	65.74	-25.4	-27.0	17.6	0.00e+00	0	44	0	991952896	10	4312
2026-01-17 00:13:12.95	47.30	66.12	-25.3	-26.9	17.7	0.00e+00	0	43	0	995098624	10	4284
2026-01-17 00:13:13.95	47.91	66.50	-25.3	-26.7	17.8	1.16e-04	0	43	0	998244352	10	4237
2026-01-17 00:13:14.95	48.54	66.88	-25.7	-27.0	17.4	0.00e+00	0	43	0	1001390080	11	4221
2026-01-17 00:13:15.95	49.20	67.26	-25.4	-26.4	17.7	0.00e+00	0	43	0	1004535808	11	4047
2026-01-17 00:13:16.95	49.88	67.64	-25.3	-26.2	17.8	0.00e+00	0	43	0	1007681536	11	3997
2026-01-17 00:13:17.96	50.59	68.02	-25.4	-26.4	17.7	0.00e+00	0	44	0	1010827264	11	4045
2026-01-17 00:13:18.95	51.32	68.39	-25.2	-26.4	18.0	0.00e+00	0	43	0	1013972992	10	4170
2026-01-17 00:13:19.96	52.09	68.77	-25.4	-26.9	17.7	0.00e+00	0	44	0	1017118720	10	4285
2026-01-17 00:13:20.96	52.88	69.14	-25.4	-27.0	17.7	0.00e+00	0	44	0	1020264448	10	4321
2026-01-17 00:13:21.96	53.70	69.51	-25.6	-27.0	17.4	0.00e+00	0	44	0	1023410176	11	4210
2026-01-17 00:13:22.96	54.55	69.88	-25.9	-27.6	17.2	0.00e+00	0	43	0	1026555904	11	4359
2026-01-17 00:13:23.96	55.44	70.24	-25.5	-26.8	17.5	2.81e-04	0	43	0	1029701632	11	4152
2026-01-17 00:13:24.96	56.36	70.60	-25.2	-26.0	17.9	0.00e+00	0	44	0	1032847360	11	3965
2026-01-17 00:13:25.97	57.33	70.96	-25.0	-26.0	18.1	0.00e+00	0	43	0	1035993088	10	4052
2026-01-17 00:13:26.97	58.33	71.32	-25.0	-26.0	18.1	0.00e+00	0	44	0	1039138816	10	4068
2026-01-17 00:13:27.98	59.38	71.67	-24.5	-25.7	15.7	0.00e+00	0	43	0	1042284544	10	4151
2026-01-17 00:13:28.98	60.46	72.01	-25.0	-26.0	17.5	2.75e-04	0	44	0	1045430272	10	4058
2026-01-17 00:13:29.98	61.58	72.35	-25.2	-26.6	13.9	3.11e-04	0	44	0	1048576000	10	4202
2026-01-17 00:13:30.98	62.75	72.69	-25.3	-26.7	17.7	0.00e+00	0	44	0	1051721728	10	4236
2026-01-17 00:13:31.99	63.99	73.02	-25.6	-26.9	17.5	0.00e+00	0	43	0	1054867456	11	4181
2026-01-17 00:13:32.99	65.25	73.34	-26.1	-27.4	16.9	1.06e-05	0	44	0	1058013184	12	4201
2026-01-17 00:13:34.00	66.59	73.65	-25.8	-27.3	17.3	0.00e+00	0	44	0	1061158912	11	4294
2026-01-17 00:13:35.01	67.98	73.96	-25.6	-26.8	17.6	0.00e+00	0	44	0	1064304640	11	4162
2026-01-17 00:13:36.01	69.41	74.26	-25.3	-26.3	17.8	3.28e-03	0	44	0	1067450368	11	4027
2026-01-17 00:13:37.01	70.90	74.55	-25.3	-26.6	17.9	0.00e+00	0	44	0	1070596096	10	4222
2026-01-17 00:13:38.01	72.44	74.83	-25.3	-26.8	17.8	0.00e+00	0	44	0	1073741824	10	4256
2026-01-17 00:13:39.00	74.03	75.09	-25.1	-26.3	18.1	9.61e-05	0	43	0	1076887552	10	4124
2026-01-17 00:13:40.00	75.69	75.35	-25.0	-26.0	18.3	1.76e-03	0	44	0	1080033280	10	4063
2026-01-17 00:13:40.99	77.40	75.59	-24.9	-25.8	18.3	3.23e-04	0	44	0	1083179008	10	4018
2026-01-17 00:13:42.00	79.20	75.83	-25.2	-26.4	18.0	3.53e-03	0	43	0	1086324736	10	4161
2026-01-17 00:13:43.00	81.04	76.05	-25.3	-26.8	17.8	0.00e+00	0	43	0	1089470464	10	4267
2026-01-17 00:13:44.00	82.94	76.25	-25.8	-27.3	17.3	0.00e+00	0	44	0	1092616192	11	4282
2026-01-17 00:13:45.00	84.90	76.44	-25.9	-27.6	17.1	8.56e-04	0	43	0	1095761920	11	4375
2026-01-17 00:13:46.00	86.91	76.62	-26.1	-27.5	16.9	2.11e-04	0	43	0	1098907648	12	4238
2026-01-17 00:13:47.00	88.98	76.78	-26.1	-27.6	16.8	0.00e+00	0	44	0	1102053376	12	4261
2026-01-17 00:13:48.00	91.10	76.92	-25.9	-27.0	17.1	0.00e+00	0	43	0	1105199104	12	4109
2026-01-17 00:13:49.01	93.28	77.05	-25.8	-26.9	17.2	0.00e+00	0	44	0	1108344832	12	4070
2026-01-17 00:13:50.00	95.46	77.15	-25.8	-26.9	17.2	2.21e-05	0	44	0	1111490560	12	4070
2026-01-17 00:13:51.00	97.69	77.24	-25.4	-26.0	17.6	3.73e-05	0	44	0	1114636288	12	3855
2026-01-17 00:13:52.00	99.96	77.31	-25.3	-26.3	17.8	3.34e-04	0	44	0	1117782016	11	4035
2026-01-17 00:13:53.01	102.27	77.36	-25.5	-26.7	17.7	0.00e+00	0	44	0	1120927744	11	4117
2026-01-17 00:13:54.01	104.57	77.39	-25.9	-27.5	17.3	5.52e-04	0	44	0	1124073472	11	4350
2026-01-17 00:13:55.01	106.87	77.40	-26.0	-27.7	17.2	1.99e-03	0	44	0	1127219200	11	4391
2026-01-17 00:13:56.01	109.18	77.39	-26.2	-27.7	16.8	0.00e+00	0	43	0	1130364928	12	4273
2026-01-17 00:13:57.01	111.48	77.36	-25.9	-27.1	17.1	1.43e-04	0	44	0	1133510656	12	4119
2026-01-17 00:13:58.01	113.77	77.31	-25.6	-26.3	17.5	1.37e-04	0	44	0	1136656384	12	3926
2026-01-17 00:13:59.01	116.03	77.24	-25.3	-26.2	17.9	0.00e+00	0	44	0	1139802112	11	3993
2026-01-17 00:14:00.02	118.29	77.15	-25.4	-26.4	17.9	7.00e-07	0	44	0	1141899264	11	4035
2026-01-17 00:14:01.02	120.50	77.05	-25.3	-26.2	17.9	1.02e-04	0	44	0	1145044992	11	3997
2026-01-17 00:14:02.03	122.68	76.92	-25.5	-26.7	17.6	0.00e+00	0	44	0	1148190720	11	4113
2026-01-17 00:14:03.03	124.79	76.78	-25.6	-26.9	17.3	0.00e+00	0	44	0	1151336448	11	4190
2026-01-17 00:14:04.03	126.86	76.62	-26.3	-27.9	16.6	0.00e+00	0	43	0	1154482176	12	4336
2026-01-17 00:14:05.03	128.88	76.44	-26.7	-28.3	16.2	0.00e+00	0	44	0	1157627904	13	4338
2026-01-17 00:14:06.03	130.84	76.25	-26.5	-27.9	16.5	7.60e-06	0	44	0	1160773632	13	4228
2026-01-17 00:14:07.02	132.72	76.05	-26.7	-28.4	16.2	1.05e-04	0	44	0	1163919360	13	4366
2026-01-17 00:14:08.02	134.56	75.83	-27.0	-28.5	15.9	0.00e+00	0	43	0	1167065088	14	4271
2026-01-17 00:14:09.03	136.37	75.59	-26.1	-26.9	17.0	0.00e+00	0	44	0	1170210816	13	3962
2026-01-17 00:14:10.03	138.09	75.35	-25.7	-26.6	17.4	4.44e-04	0	44	0	1173356544	12	3998
2026-01-17 00:14:11.03	139.75	75.09	-25.6	-26.5	17.5	0.00e+00	0	43	0	1176502272	12	3956
2026-01-17 00:14:12.03	141.36	74.82	-25.5	-26.2	17.6	0.00e+00	0	43	0	1179648000	12	3894
2026-01-17 00:14:13.03	142.90	74.54	-25.9	-27.1	17.1	0.00e+00	0	43	0	1182793728	12	4125
2026-01-17 00:14:14.03	144.39	74.25	-26.3	-27.9	16.7	0.00e+00	0	44	0	1185939456	12	4351
2026-01-17 00:14:15.03	145.82	73.96	-25.6	-26.4	17.4	1.54e-04	0	44	0	1189085184	12	3953
2026-01-17 00:14:16.03	147.20	73.65	-25.2	-26.0	18.0	5.12e-04	0	44	0	1192230912	11	3958
2026-01-17 00:14:17.03	148.52	73.34	-25.5	-26.7	17.7	0.00e+00	0	44	0	1195376640	11	4118
2026-01-17 00:14:18.03	149.79	73.01	-25.8	-27.3	17.4	6.67e-04	0	43	0	1198522368	11	4283
2026-01-17 00:14:19.04	151.02	72.68	-25.6	-26.9	17.6	3.80e-06	0	44	0	1201668096	11	4175
2026-01-17 00:14:20.04	152.19	72.35	-25.5	-26.7	17.7	0.00e+00	0	44	0	1204813824	11	4128
2026-01-17 00:14:21.04	153.32	72.01	-25.4	-26.5	17.7	0.00e+00	0	44	0	1207959552	11	4077
2026-01-17 00:14:22.04	154.40	71.66	-24.8	-25.7	18.2	2.77e-03	0	44	0	1211105280	10	3986
2026-01-17 00:14:23.05	155.45	71.31	-25.2	-26.5	17.9	0.00e+00	0	44	0	1214251008	10	4192
2026-01-17 00:14:24.05	156.45	70.96	-25.5	-26.7	17.6	0.00e+00	0	44	0	1217396736	11	4144
2026-01-17 00:14:25.05	157.41	70.60	-25.5	-26.8	17.6	0.00e+00	0	44	0	1220542464	11	4157
2026-01-17 00:14:26.04	158.33	70.24	-25.3	-26.2	17.8	0.00e+00	0	44	0	1223688192	11	4008
2026-01-17 00:14:27.05	159.22	69.87	-25.4	-26.9	17.8	3.21e-04	0	44	0	1226833920	10	4296
2026-01-17 00:14:28.05	160.08	69.50	-25.3	-26.8	17.6	0.00e+00	0	44	0	1229979648	10	4262
2026-01-17 00:14:29.05	160.90	69.13	-25.1	-26.2	18.0	0.00e+00	0	43	0	1233125376	10	4121
2026-01-17 00:14:30.06	161.70	68.76	-25.2	-26.5	17.9	0.00e+00	0	44	0	1236271104	10	4176
2026-01-17 00:14:31.06	162.46	68.38	-25.1	-26.3	18.0	0.00e+00	0	43	0	1239416832	10	4133
2026-01-17 00:14:32.07	163.20	68.00	-25.3	-26.7	17.8	0.00e+00	0	44	0	1242562560	10	4223
2026-01-17 00:14:33.07	163.91	67.62	-25.3	-26.7	17.8	0.00e+00	0	44	0	1245708288	10	4237
2026-01-17 00:14:34.08	164.59	67.24	-25.5	-26.7	17.5	0.00e+00	0	44	0	1248854016	11	4119
2026-01-17 00:14:35.09	165.26	66.86	-25.3	-26.1	17.8	0.00e+00	0	44	0	1251999744	11	3990
2026-01-17 00:14:36.09	165.89	66.47	-25.1	-25.9	18.0	0.00e+00	0	44	0	1255145472	11	3923
2026-01-17 00:14:37.08	166.49	66.10	-25.5	-26.7	17.6	0.00e+00	0	44	0	1258291200	11	4122
2026-01-17 00:14:38.08	167.08	65.71	-25.9	-27.5	17.1	0.00e+00	0	44	0	1261436928	11	4340
2026-01-17 00:14:39.09	167.66	65.33	-26.1	-27.5	16.8	0.00e+00	0	44	0	1264582656	12	4228
2026-01-17 00:14:40.09	168.21	64.94	-25.4	-25.9	17.6	0.00e+00	0	44	0	1267728384	12	3829
2026-01-17 00:14:41.09	168.74	64.56	-25.4	-26.1	17.6	0.00e+00	0	44	0	1270874112	12	3873
2026-01-17 00:14:42.09	169.26	64.18	-25.3	-25.8	17.7	0.00e+00	0	44	0	1274019840	12	3804
2026-01-17 00:14:43.10	169.76	63.79	-25.0	-25.7	18.0	0.00e+00	0	44	0	1277165568	11	3879
2026-01-17 00:14:44.10	170.25	63.41	-25.3	-26.2	17.8	0.00e+00	0	44	0	1280311296	11	4000
2026-01-17 00:14:45.10	170.71	63.02	-25.8	-27.3	17.2	0.00e+00	0	44	0	1283457024	11	4279
2026-01-17 00:14:46.11	171.17	62.64	-26.1	-27.6	16.7	0.00e+00	0	44	0	1286602752	12	4260
2026-01-17 00:14:47.11	171.61	62.26	-25.9	-27.0	17.1	0.00e+00	0	44	0	1289748480	12	4108
2026-01-17 00:14:48.12	172.04	61.87	-25.6	-26.3	17.4	0.00e+00	0	44	0	1292894208	12	3920
2026-01-17 00:14:49.12	172.45	61.49	-25.9	-27.0	17.1	0.00e+00	0	43	0	1296039936	12	4092
2026-01-17 00:14:50.12	172.85	61.12	-25.5	-26.2	17.5	0.00e+00	0	44	0	1299185664	12	3897
2026-01-17 00:14:51.13	173.24	60.73	-25.6	-26.4	17.4	0.00e+00	0	44	0	1302331392	12	3954
2026-01-17 00:14:52.13	173.62	60.36	-26.2	-27.7	16.7	0.00e+00	0	44	0	1305477120	12	4291
2026-01-17 00:14:53.14	173.99	59.98	-26.5	-28.3	16.4	0.00e+00	0	44	0	1308622848	12	4459
2026-01-17 00:14:54.14	174.34	59.60	-27.6	-29.4	14.9	0.00e+00	0	44	0	1311768576	15	4439
2026-01-17 00:14:55.15	174.69	59.23	-26.8	-27.6	15.9	0.00e+00	0	44	0	1314914304	15	3943
2026-01-17 00:14:56.14	175.02	58.86	-25.8	-26.4	17.0	0.00e+00	0	44	0	1318060032	13	3842
2026-01-17 00:14:57.14	175.35	58.49	-25.3	-25.8	17.7	0.00e+00	0	44	0	1321205760	12	3799
2026-01-17 00:14:58.14	175.67	58.12	-25.2	-26.0	17.8	0.00e+00	0	44	0	1324351488	11	3956
2026-01-17 00:14:59.15	175.98	57.75	-25.8	-27.3	17.2	0.00e+00	0	44	0	1327497216	11	4274
2026-01-17 00:15:00.16	176.28	57.38	-26.5	-28.0	16.3	0.00e+00	0	44	0	1330642944	13	4266
2026-01-17 00:15:01.16	176.58	57.02	-27.5	-29.3	15.0	7.00e-07	0	44	0	1333788672	15	4405
2026-01-17 00:15:02.15	176.86	56.66	-27.8	-29.9	14.6	0.00e+00	0	43	0	1336934400	15	4569
2026-01-17 00:15:03.15	177.14	56.30	-28.2	-30.2	14.3	7.00e-07	0	44	0	1340080128	16	4552
2026-01-17 00:15:04.16	177.41	55.94	-28.1	-29.9	14.5	7.00e-07	0	44	0	1343225856	16	4460
2026-01-17 00:15:05.16	177.68	55.58	-27.7	-29.0	14.8	7.00e-07	0	44	0	1346371584	16	4192
2026-01-17 00:15:06.16	177.93	55.23	-27.0	-28.1	15.5	0.00e+00	0	44	0	1349517312	15	4059
2026-01-17 00:15:07.16	178.19	54.87	-26.7	-27.7	16.0	0.00e+00	0	44	0	1352663040	14	4073
2026-01-17 00:15:08.16	178.43	54.52	-26.7	-27.9	15.9	0.00e+00	0	43	0	1355808768	14	4128
2026-01-17 00:15:09.16	178.67	54.17	-26.8	-28.5	15.8	0.00e+00	0	44	0	1358954496	13	4394
2026-01-17 00:15:10.17	178.91	53.82	-27.4	-29.4	14.9	0.00e+00	0	44	0	1362100224	14	4543
2026-01-17 00:15:11.17	179.14	53.47	-27.9	-30.2	14.2	1.50e-06	0	44	0	1365245952	15	4662
2026-01-17 00:15:12.17	179.36	53.13	-28.2	-30.2	14.2	7.00e-07	0	44	0	1368391680	16	4541
2026-01-17 00:15:13.17	179.58	52.79	-28.4	-30.7	14.0	2.20e-06	0	44	0	1371537408	16	4687
2026-01-17 00:15:14.18	179.79	52.44	-28.6	-30.6	13.8	2.20e-06	0	44	0	1373634560	17	4548
2026-01-17 00:15:15.18	180.00	52.10	-28.7	-31.0	13.5	9.10e-06	0	44	0	1376780288	17	4690
2026-01-17 00:15:16.18	180.21	51.77	-28.7	-31.0	13.6	1.60e-05	0	44	0	1379926016	17	4669
2026-01-17 00:15:17.18	180.40	51.43	-28.7	-31.1	13.5	1.44e-05	0	44	0	1383071744	17	4700
2026-01-17 00:15:18.18	180.60	51.10	-27.9	-29.0	14.7	1.50e-06	0	44	0	1386217472	17	4092
2026-01-17 00:15:19.18	180.79	50.77	-27.1	-28.2	15.5	0.00e+00	0	43	0	1389363200	15	4083
2026-01-17 00:15:20.18	180.98	50.44	-27.1	-28.2	15.5	0.00e+00	0	44	0	1392508928	15	4082
2026-01-17 00:15:21.18	181.16	50.12	-27.6	-29.4	14.7	0.00e+00	0	44	0	1395654656	15	4432
2026-01-17 00:15:22.18	181.34	49.79	-27.8	-29.9	14.4	7.00e-07	0	44	0	1398800384	15	4583
2026-01-17 00:15:23.17	181.51	49.47	-28.2	-30.2	14.2	7.00e-07	0	44	0	1401946112	16	4550
2026-01-17 00:15:24.17	181.69	49.15	-28.4	-30.7	13.9	2.20e-06	0	44	0	1405091840	16	4701
2026-01-17 00:15:25.18	181.86	48.83	-28.3	-30.5	14.0	3.80e-06	0	44	0	1408237568	16	4645
2026-01-17 00:15:26.18	182.02	48.52	-28.3	-30.4	14.1	2.20e-06	0	44	0	1411383296	16	4604
2026-01-17 00:15:27.18	182.18	48.20	-28.5	-30.9	13.8	3.80e-06	0	44	0	1414529024	16	4750
2026-01-17 00:15:28.17	182.34	47.89	-28.5	-30.6	13.7	3.00e-06	0	44	0	1417674752	17	4553
2026-01-17 00:15:29.17	182.50	47.58	-28.6	-30.7	13.7	7.60e-06	0	44	0	1420820480	17	4585
2026-01-17 00:15:30.17	182.65	47.28	-28.6	-30.8	13.6	1.06e-05	0	44	0	1423966208	17	4621
2026-01-17 00:15:31.17	182.80	46.97	-28.5	-30.4	13.8	3.80e-06	0	44	0	1427111936	17	4505
2026-01-17 00:15:32.17	182.95	46.67	-28.2	-29.8	14.2	2.20e-06	0	44	0	1430257664	17	4316
2026-01-17 00:15:33.17	183.09	46.36	-28.2	-30.1	14.3	3.00e-06	0	44	0	1433403392	16	4510
2026-01-17 00:15:34.17	183.23	46.06	-28.3	-30.5	14.1	7.00e-07	0	44	0	1436549120	16	4643
2026-01-17 00:15:35.17	183.37	45.77	-28.9	-31.5	13.2	1.06e-05	0	44	0	1439694848	17	4840
2026-01-17 00:15:36.17	183.51	45.47	-28.5	-31.4	12.3	1.27e-04	0	44	0	1442840576	18	5055
2026-01-17 00:15:37.17	183.64	45.18	-29.8	-32.7	11.7	4.47e-04	0	44	0	1445986304	19	5044
2026-01-17 00:15:38.17	183.77	44.88	-30.1	-33.1	10.8	1.62e-03	0	44	0	1449132032	20	5111
2026-01-17 00:15:39.17	183.90	44.59	-30.1	-33.0	11.0	1.61e-03	0	44	0	1452277760	20	5050
2026-01-17 00:15:40.17	184.03	44.31	-30.2	-33.5	10.9	2.63e-03	0	44	0	1455423488	20	5231
2026-01-17 00:15:41.17	184.15	44.02	-29.9	-32.9	11.6	7.64e-04	0	44	0	1458569216	19	5112
2026-01-17 00:15:42.17	184.28	43.73	-29.5	-32.0	12.2	2.53e-04	0	44	0	1461714944	19	4794
2026-01-17 00:15:43.18	184.40	43.45	-29.5	-31.8	12.3	1.52e-04	0	44	0	1464860672	19	4732
2026-01-17 00:15:44.19	184.52	43.17	-29.7	-32.5	11.9	1.64e-03	0	44	0	1468006400	19	4945
2026-01-17 00:15:45.19	184.63	42.89	-29.6	-32.1	12.1	1.52e-03	0	44	0	1471152128	19	4830
2026-01-17 00:15:46.20	184.75	42.61	-29.3	-32.0	12.5	1.67e-04	0	44	0	1474297856	18	4900
2026-01-17 00:15:47.20	184.86	42.33	-29.7	-32.4	12.0	2.97e-04	0	44	0	1477443584	19	4915
2026-01-17 00:15:48.21	184.97	42.06	-29.6	-32.1	12.1	1.54e-03	0	44	0	1480589312	19	4832
2026-01-17 00:15:49.21	185.08	41.79	-29.2	-31.2	12.6	2.47e-04	0	44	0	1483735040	19	4525
2026-01-17 00:15:50.21	185.19	41.52	-28.8	-30.8	13.2	1.48e-03	0	44	0	1486880768	18	4497
2026-01-17 00:15:51.21	185.30	41.25	-28.7	-30.9	13.4	1.67e-05	0	44	0	1490026496	17	4640
2026-01-17 00:15:52.22	185.40	40.99	-29.0	-31.6	13.0	2.13e-05	0	44	0	1493172224	17	4888
2026-01-17 00:15:53.22	185.50	40.72	-29.2	-31.8	12.6	1.46e-03	0	44	0	1496317952	18	4827
2026-01-17 00:15:54.23	185.61	40.46	-29.2	-31.7	12.7	1.58e-03	0	44	0	1499463680	18	4801
2026-01-17 00:15:55.23	185.71	40.20	-29.2	-31.7	12.7	5.33e-04	0	44	0	1502609408	18	4811
2026-01-17 00:15:56.24	185.80	39.94	-29.4	-32.3	12.3	1.95e-03	0	44	0	1505755136	18	5011
2026-01-17 00:15:57.24	185.90	39.68	-29.1	-31.4	12.9	8.08e-05	0	44	0	1508900864	18	4689
2026-01-17 00:15:58.25	186.00	39.43	-28.7	-31.1	13.3	7.78e-05	0	44	0	1512046592	17	4727
2026-01-17 00:15:59.25	186.09	39.17	-28.5	-30.5	13.7	1.45e-03	0	44	0	1515192320	17	4533
2026-01-17 00:16:00.26	186.18	38.92	-28.4	-30.8	13.8	1.12e-03	0	44	0	1518338048	16	4729
2026-01-17 00:16:01.26	186.27	38.67	-28.4	-30.6	13.9	4.72e-04	0	44	0	1521483776	16	4687
2026-01-17 00:16:02.26	186.36	38.42	-28.2	-30.3	14.1	1.33e-03	0	44	0	1524629504	16	4580
2026-01-17 00:16:03.26	186.45	38.18	-28.1	-30.0	14.3	1.08e-03	0	44	0	1527775232	16	4486
2026-01-17 00:16:04.27	186.54	37.93	-27.7	-29.7	14.5	5.30e-04	0	44	0	1530920960	15	4532
2026-01-17 00:16:05.27	186.62	37.69	-27.9	-30.2	14.3	1.68e-03	0	44	0	1534066688	15	4670
2026-01-17 00:16:06.27	186.71	37.45	-27.9	-30.3	14.2	1.36e-03	0	44	0	1537212416	15	4708
2026-01-17 00:16:07.27	186.79	37.21	-28.4	-30.8	13.7	6.63e-04	0	44	0	1540358144	16	4738
2026-01-17 00:16:08.27	186.87	36.97	-28.3	-30.5	14.0	1.43e-03	0	44	0	1543503872	16	4650
2026-01-17 00:16:09.27	186.95	36.74	-28.3	-30.6	13.9	1.17e-03	0	44	0	1546649600	16	4681
2026-01-17 00:16:10.28	187.03	36.50	-28.2	-30.4	14.0	7.41e-04	0	44	0	1549795328	16	4614
2026-01-17 00:16:11.28	187.11	36.27	-27.6	-29.6	14.6	1.33e-03	0	44	0	1552941056	15	4494
2026-01-17 00:16:12.28	187.19	36.04	-27.5	-29.3	14.7	0.00e+00	0	44	0	1556086784	15	4429
2026-01-17 00:16:13.29	187.27	35.81	-27.7	-29.6	14.5	5.80e-04	0	44	0	1559232512	15	4513
2026-01-17 00:16:14.29	187.34	35.58	-27.8	-29.9	14.4	0.00e+00	0	44	0	1562378240	15	4578
2026-01-17 00:16:15.30	187.42	35.35	-27.8	-30.0	14.3	2.40e-04	0	44	0	1565523968	15	4636
2026-01-17 00:16:16.29	187.49	35.13	-27.7	-29.6	14.6	6.58e-04	0	44	0	1568669696	15	4515
2026-01-17 00:16:17.29	187.56	34.91	-27.6	-29.5	14.6	7.26e-04	0	44	0	1571815424	15	4482
2026-01-17 00:16:18.30	187.64	34.68	-27.7	-29.7	14.5	0.00e+00	0	44	0	1574961152	15	4544
2026-01-17 00:16:19.30	187.71	34.46	-27.9	-30.2	14.2	1.50e-06	0	44	0	1578106880	15	4678
2026-01-17 00:16:20.30	187.78	34.25	-27.8	-30.1	14.3	9.39e-04	0	44	0	1581252608	15	4648
2026-01-17 00:16:21.31	187.85	34.03	-27.7	-29.8	14.5	3.06e-04	0	44	0	1584398336	15	4565
2026-01-17 00:16:22.31	187.91	33.81	-27.6	-29.6	14.5	6.68e-04	0	44	0	1587544064	15	4518
2026-01-17 00:16:23.31	187.98	33.60	-27.7	-29.8	14.4	7.25e-04	0	44	0	1590689792	15	4585
2026-01-17 00:16:24.31	188.05	33.39	-27.9	-30.1	14.2	3.00e-06	0	44	0	1593835520	15	4673
2026-01-17 00:16:25.30	188.11	33.18	-28.1	-30.1	14.1	7.83e-04	0	44	0	1596981248	16	4523
2026-01-17 00:16:26.31	188.18	32.96	-27.4	-29.0	14.9	1.49e-03	0	44	0	1600126976	15	4338
2026-01-17 00:16:27.31	188.24	32.76	-27.0	-28.1	15.4	0.00e+00	0	44	0	1602224128	15	4080
2026-01-17 00:16:28.32	188.31	32.55	-26.7	-27.8	15.8	6.35e-04	0	44	0	1605369856	14	4111
2026-01-17 00:16:29.32	188.37	32.34	-26.4	-27.7	16.2	0.00e+00	0	44	0	1608515584	13	4189
2026-01-17 00:16:30.32	188.43	32.14	-26.2	-27.8	16.4	0.00e+00	0	44	0	1611661312	12	4320
2026-01-17 00:16:31.33	188.49	31.93	-26.0	-27.3	16.7	7.22e-04	0	44	0	1614807040	12	4185
2026-01-17 00:16:32.34	188.55	31.73	-26.1	-27.5	16.6	7.25e-04	0	44	0	1617952768	12	4236
2026-01-17 00:16:33.34	188.61	31.53	-26.2	-27.8	16.4	0.00e+00	0	44	0	1621098496	12	4318
2026-01-17 00:16:34.34	188.67	31.33	-26.5	-27.8	16.1	0.00e+00	0	44	0	1624244224	13	4221
2026-01-17 00:16:35.34	188.73	31.13	-26.3	-28.0	16.3	0.00e+00	0	44	0	1627389952	12	4375
2026-01-17 00:16:36.34	188.79	30.94	-26.2	-27.8	16.4	0.00e+00	0	44	0	1630535680	12	4318
2026-01-17 00:16:37.35	188.85	30.74	-26.3	-27.9	16.3	6.15e-04	0	44	0	1633681408	12	4362
2026-01-17 00:16:38.35	188.90	30.55	-26.3	-27.9	16.3	1.98e-04	0	44	0	1636827136	12	4359
2026-01-17 00:16:39.35	188.96	30.36	-26.4	-28.1	16.2	0.00e+00	0	44	0	1639972864	12	4420
2026-01-17 00:16:40.35	189.01	30.17	-26.4	-28.3	16.1	0.00e+00	0	44	0	1643118592	12	4452
2026-01-17 00:16:41.35	189.07	29.98	-26.7	-28.4	15.8	0.00e+00	0	44	0	1646264320	13	4378
2026-01-17 00:16:42.35	189.12	29.79	-26.8	-28.7	15.6	0.00e+00	0	44	0	1649410048	13	4474
2026-01-17 00:16:43.34	189.18	29.60	-26.7	-28.5	15.7	0.00e+00	0	44	0	1652555776	13	4404
2026-01-17 00:16:44.35	189.23	29.41	-27.0	-28.7	15.3	0.00e+00	0	44	0	1655701504	14	4348
2026-01-17 00:16:45.35	189.28	29.23	-27.1	-28.7	15.3	0.00e+00	0	44	0	1658847232	14	4363
2026-01-17 00:16:46.35	189.33	29.05	-27.0	-28.7	15.3	0.00e+00	0	44	0	1661992960	14	4353
2026-01-17 00:16:47.35	189.38	28.86	-27.1	-28.9	15.2	0.00e+00	0	44	0	1665138688	14	4418
2026-01-17 00:16:48.35	189.43	28.68	-27.3	-29.3	14.9	0.00e+00	0	44	0	1668284416	14	4541
2026-01-17 00:16:49.36	189.48	28.50	-27.3	-29.2	15.0	0.00e+00	0	44	0	1671430144	14	4515
2026-01-17 00:16:50.36	189.53	28.32	-27.3	-29.3	14.9	0.00e+00	0	44	0	1674575872	14	4543
2026-01-17 00:16:51.37	189.58	28.14	-27.3	-29.2	14.9	0.00e+00	0	44	0	1677721600	14	4519
2026-01-17 00:16:52.37	189.63	27.96	-27.3	-29.2	15.0	0.00e+00	0	44	0	1680867328	14	4512
2026-01-17 00:16:53.37	189.68	27.79	-27.3	-29.3	15.0	0.00e+00	0	44	0	1684013056	14	4525
2026-01-17 00:16:54.37	189.73	27.61	-27.4	-29.6	14.8	7.00e-07	0	44	0	1687158784	14	4635
2026-01-17 00:16:55.37	189.77	27.44	-27.4	-29.6	14.8	0.00e+00	0	44	0	1690304512	14	4631
2026-01-17 00:16:56.38	189.82	27.27	-27.5	-29.3	14.7	7.00e-07	0	44	0	1693450240	15	4414
2026-01-17 00:16:57.38	189.87	27.09	-27.4	-29.6	14.7	7.00e-07	0	43	0	1696595968	14	4618
2026-01-17 00:16:58.38	189.91	26.92	-27.6	-29.5	14.5	0.00e+00	0	44	0	1699741696	15	4491
2026-01-17 00:16:59.38	189.96	26.75	-27.9	-30.2	14.1	1.50e-06	0	44	0	1702887424	15	4712
2026-01-17 00:17:00.38	190.00	26.59	-27.6	-29.6	14.5	1.50e-06	0	44	0	1706033152	15	4509
2026-01-17 00:17:01.38	190.05	26.42	-27.6	-29.4	14.5	7.00e-07	0	44	0	1709178880	15	4459
2026-01-17 00:17:02.39	190.09	26.25	-27.6	-29.4	14.5	0.00e+00	0	44	0	1712324608	15	4465
2026-01-17 00:17:03.39	190.14	26.09	-27.7	-29.6	14.5	0.00e+00	0	44	0	1715470336	15	4519
2026-01-17 00:17:04.40	190.18	25.92	-27.8	-30.0	14.2	0.00e+00	0	44	0	1718616064	15	4622
2026-01-17 00:17:05.40	190.22	25.76	-27.8	-30.0	14.2	0.00e+00	0	44	0	1721761792	15	4631
2026-01-17 00:17:06.41	190.26	25.59	-27.6	-29.4	14.6	7.00e-07	0	44	0	1724907520	15	4453
2026-01-17 00:17:07.41	190.31	25.43	-27.3	-28.8	14.9	7.00e-07	0	44	0	1728053248	15	4283
2026-01-17 00:17:08.41	190.35	25.27	-27.5	-29.3	14.6	1.14e-05	0	44	0	1731198976	15	4431
2026-01-17 00:17:09.40	190.39	25.11	-27.7	-29.8	14.3	1.50e-06	0	44	0	1734344704	15	4558
2026-01-17 00:17:10.40	190.43	24.96	-27.6	-29.5	14.5	0.00e+00	0	44	0	1737490432	15	4466
2026-01-17 00:17:11.41	190.47	24.80	-27.6	-29.4	14.6	0.00e+00	0	44	0	1740636160	15	4452
2026-01-17 00:17:12.41	190.51	24.64	-27.3	-28.8	14.9	7.00e-07	0	44	0	1743781888	15	4265
2026-01-17 00:17:13.41	190.55	24.48	-27.2	-29.2	14.9	0.00e+00	0	44	0	1746927616	14	4500
2026-01-17 00:17:14.41	190.59	24.33	-27.0	-28.6	15.3	6.10e-06	0	44	0	1750073344	14	4320
2026-01-17 00:17:15.41	190.63	24.18	-26.6	-27.7	15.7	0.00e+00	0	44	0	1753219072	14	4089
2026-01-17 00:17:16.41	190.67	24.02	-26.5	-28.0	15.8	0.00e+00	0	44	0	1756364800	13	4277
2026-01-17 00:17:17.42	190.71	23.87	-26.6	-28.2	15.7	1.50e-06	0	44	0	1759510528	13	4337
2026-01-17 00:17:18.42	190.74	23.72	-26.6	-28.3	15.7	0.00e+00	0	44	0	1762656256	13	4346
2026-01-17 00:17:19.43	190.78	23.57	-26.7	-28.3	15.6	0.00e+00	0	44	0	1765801984	13	4371
2026-01-17 00:17:20.44	190.82	23.41	-26.8	-28.7	15.4	2.20e-06	0	44	0	1768947712	13	4480
2026-01-17 00:17:21.44	190.86	23.27	-27.2	-29.2	14.9	0.00e+00	0	44	0	1772093440	14	4498
2026-01-17 00:17:22.44	190.89	23.12	-27.1	-28.7	15.1	0.00e+00	0	44	0	1775239168	14	4376
2026-01-17 00:17:23.44	190.93	22.97	-26.9	-28.9	15.3	0.00e+00	0	44	0	1778384896	13	4536
2026-01-17 00:17:24.44	190.96	22.83	-27.0	-28.6	15.2	0.00e+00	0	44	0	1781530624	14	4324
2026-01-17 00:17:25.45	191.00	22.68	-26.9	-28.4	15.3	0.00e+00	0	44	0	1784676352	14	4270
2026-01-17 00:17:26.45	191.04	22.53	-27.0	-28.6	15.2	0.00e+00	0	44	0	1787822080	14	4326
2026-01-17 00:17:27.45	191.07	22.39	-26.7	-27.9	15.6	0.00e+00	0	44	0	1790967808	14	4132
2026-01-17 00:17:28.45	191.11	22.25	-26.5	-27.9	15.8	0.00e+00	0	44	0	1794113536	13	4243
2026-01-17 00:17:29.46	191.14	22.10	-26.4	-28.2	15.9	3.00e-06	0	44	0	1797259264	12	4442
2026-01-17 00:17:30.46	191.18	21.96	-25.3	-27.2	16.0	0.00e+00	0	44	0	1800404992	12	4450
2026-01-17 00:17:31.46	191.21	21.82	-26.4	-28.2	15.8	0.00e+00	0	44	0	1803550720	12	4461
2026-01-17 00:17:32.47	191.24	21.68	-26.5	-28.1	14.3	0.00e+00	0	44	0	1806696448	13	4308
2026-01-17 00:17:33.47	191.28	21.54	-26.4	-28.4	15.5	0.00e+00	0	44	0	1809842176	12	4493
2026-01-17 00:17:34.47	191.31	21.40	-26.3	-28.1	15.0	0.00e+00	0	44	0	1812987904	12	4412
2026-01-17 00:17:35.47	191.34	21.27	-26.5	-28.5	15.8	0.00e+00	0	44	0	1816133632	12	4522
2026-01-17 00:17:36.48	191.38	21.13	-26.8	-28.7	15.4	0.00e+00	0	44	0	1819279360	13	4484
2026-01-17 00:17:37.48	191.41	20.99	-27.0	-28.5	15.2	0.00e+00	0	44	0	1822425088	14	4315
2026-01-17 00:17:38.48	191.44	20.86	-26.9	-28.8	15.3	1.26e-03	0	44	0	1825570816	13	4514
2026-01-17 00:17:39.49	191.47	20.72	-26.5	-28.0	15.8	0.00e+00	0	44	0	1828716544	13	4271
2026-01-17 00:17:40.49	191.50	20.59	-26.5	-28.1	15.7	0.00e+00	0	44	0	1830813696	13	4295
2026-01-17 00:17:41.48	191.53	20.46	-26.6	-28.3	15.6	0.00e+00	0	44	0	1833959424	13	4369
2026-01-17 00:17:42.49	191.57	20.32	-26.6	-28.3	15.6	0.00e+00	0	44	0	1837105152	13	4358
2026-01-17 00:17:43.49	191.60	20.19	-26.8	-28.8	15.3	5.81e-04	0	44	0	1841299456	13	4497
2026-01-17 00:17:44.49	191.63	20.06	-26.8	-28.8	15.3	5.51e-04	0	43	0	1844445184	13	4499
2026-01-17 00:17:45.49	191.66	19.93	-26.8	-28.7	15.3	0.00e+00	0	44	0	1847590912	13	4490
2026-01-17 00:17:46.49	191.69	19.80	-26.8	-28.6	15.4	0.00e+00	0	44	0	1850736640	13	4466
2026-01-17 00:17:47.50	191.72	19.67	-26.7	-28.6	15.4	1.26e-04	0	44	0	1852833792	13	4444
2026-01-17 00:17:48.51	191.75	19.54	-26.9	-28.9	15.2	3.29e-04	0	44	0	1855979520	13	4535
2026-01-17 00:17:49.51	191.78	19.41	-26.9	-29.0	15.2	2.58e-04	0	44	0	1859125248	13	4572
2026-01-17 00:17:50.51	191.81	19.28	-26.9	-29.0	15.2	0.00e+00	0	44	0	1862270976	13	4555
2026-01-17 00:17:51.51	191.84	19.16	-27.1	-28.8	15.0	0.00e+00	0	44	0	1865416704	14	4398
2026-01-17 00:17:52.51	191.87	19.03	-27.4	-29.6	14.6	3.06e-04	0	44	0	1868562432	14	4620
2026-01-17 00:17:53.51	191.89	18.91	-27.4	-29.0	14.6	3.69e-04	0	44	0	1871708160	15	4346
2026-01-17 00:17:54.52	191.92	18.78	-27.1	-28.4	14.9	3.05e-04	0	44	0	1874853888	15	4176
2026-01-17 00:17:55.52	191.95	18.66	-26.6	-28.4	14.7	5.10e-04	0	44	0	1877999616	14	4462
2026-01-17 00:17:56.52	191.98	18.53	-27.1	-28.8	15.0	0.00e+00	0	44	0	1881145344	14	4400
2026-01-17 00:17:57.52	192.01	18.41	-27.2	-29.2	14.5	2.71e-04	0	44	0	1884291072	14	4501
2026-01-17 00:17:58.52	192.03	18.29	-27.3	-29.3	14.5	5.48e-04	0	44	0	1887436800	14	4539
2026-01-17 00:17:59.52	192.06	18.17	-27.0	-28.5	15.1	8.34e-04	0	44	0	1890582528	14	4323
2026-01-17 00:18:00.52	192.09	18.05	-26.9	-28.3	15.2	2.68e-04	0	44	0	1893728256	14	4265
2026-01-17 00:18:01.52	192.12	17.93	-26.8	-28.7	15.3	0.00e+00	0	44	0	1896873984	13	4484
2026-01-17 00:18:02.51	192.14	17.81	-26.8	-28.7	15.3	1.72e-03	0	44	0	1900019712	13	4469
2026-01-17 00:18:03.52	192.17	17.69	-26.8	-28.7	15.3	2.41e-04	0	44	0	1903165440	13	4496
2026-01-17 00:18:04.52	192.20	17.57	-26.9	-29.0	15.1	1.89e-03	0	44	0	1906311168	13	4557
2026-01-17 00:18:05.52	192.22	17.45	-26.8	-28.6	15.3	1.84e-03	0	44	0	1909456896	13	4460
2026-01-17 00:18:06.51	192.25	17.33	-26.7	-28.5	15.4	5.40e-04	0	44	0	1912602624	13	4419
2026-01-17 00:18:07.52	192.27	17.22	-26.8	-28.6	15.3	1.85e-03	0	44	0	1915748352	13	4467
2026-01-17 00:18:08.52	192.30	17.10	-26.8	-28.7	15.3	1.87e-03	0	44	0	1918894080	13	4469
2026-01-17 00:18:09.51	192.33	16.98	-26.9	-28.9	15.2	2.41e-04	0	44	0	1922039808	13	4527
2026-01-17 00:18:10.50	192.35	16.87	-26.9	-28.9	15.1	1.97e-03	0	44	0	1925185536	13	4539
2026-01-17 00:18:11.49	192.38	16.76	-26.8	-28.7	15.3	0.00e+00	0	44	0	1928331264	13	4468
2026-01-17 00:18:12.50	192.40	16.64	-26.8	-28.7	15.3	2.62e-04	0	44	0	1931476992	13	4486
2026-01-17 00:18:13.50	192.43	16.53	-26.9	-28.9	15.1	1.84e-03	0	44	0	1934622720	13	4542
2026-01-17 00:18:14.50	192.45	16.41	-26.8	-28.8	15.2	1.75e-03	0	44	0	1937768448	13	4514
2026-01-17 00:18:15.50	192.48	16.30	-27.0	-28.7	14.9	2.20e-04	0	44	0	1940914176	14	4383
2026-01-17 00:18:16.50	192.50	16.19	-27.1	-28.9	14.9	2.10e-04	0	44	0	1944059904	14	4433
2026-01-17 00:18:17.51	192.52	16.08	-27.2	-29.2	14.7	2.48e-03	0	44	0	1947205632	14	4507
2026-01-17 00:18:18.50	192.55	15.97	-27.2	-29.1	14.7	2.43e-04	0	44	0	1950351360	14	4498
2026-01-17 00:18:19.50	192.57	15.86	-27.3	-29.4	14.6	2.51e-03	0	44	0	1953497088	14	4565
2026-01-17 00:18:20.50	192.60	15.75	-27.2	-29.2	14.7	2.59e-03	0	44	0	1956642816	14	4516
2026-01-17 00:18:21.51	192.62	15.64	-27.4	-29.6	14.4	2.84e-04	0	44	0	1959788544	14	4654
2026-01-17 00:18:22.51	192.64	15.53	-27.5	-29.3	14.3	2.75e-04	0	44	0	1962934272	15	4449
2026-01-17 00:18:23.51	192.67	15.42	-27.4	-29.7	14.4	2.68e-03	0	44	0	1966080000	14	4672
2026-01-17 00:18:24.51	192.69	15.31	-27.6	-29.6	14.1	2.54e-04	0	44	0	1969225728	15	4543
2026-01-17 00:18:25.51	192.71	15.20	-27.4	-29.7	14.4	2.85e-03	0	44	0	1972371456	14	4660
2026-01-17 00:18:26.52	192.74	15.09	-27.4	-29.6	14.5	7.00e-07	0	44	0	1975517184	14	4627
2026-01-17 00:18:27.52	192.76	14.99	-27.3	-29.4	14.5	2.69e-04	0	44	0	1978662912	14	4584
2026-01-17 00:18:28.52	192.78	14.88	-27.3	-29.3	14.6	2.36e-03	0	43	0	1981808640	14	4562
2026-01-17 00:18:29.53	192.81	14.77	-27.3	-29.5	14.5	2.30e-03	0	44	0	1984954368	14	4604
2026-01-17 00:18:30.53	192.83	14.67	-27.4	-29.5	14.4	5.39e-04	0	44	0	1988100096	14	4626
2026-01-17 00:18:31.54	192.85	14.56	-27.4	-29.7	14.3	2.81e-04	0	44	0	1991245824	14	4671
2026-01-17 00:18:32.54	192.87	14.46	-27.5	-29.8	14.3	1.50e-06	0	44	0	1994391552	14	4698
2026-01-17 00:18:33.54	192.89	14.35	-27.7	-29.8	14.0	2.84e-04	0	44	0	1997537280	15	4590
2026-01-17 00:18:34.54	192.92	14.25	-27.8	-30.0	13.9	2.71e-04	0	44	0	2000683008	15	4661
2026-01-17 00:18:35.54	192.94	14.15	-27.6	-29.6	14.1	2.32e-03	0	44	0	2003828736	15	4530
2026-01-17 00:18:36.53	192.96	14.05	-27.4	-29.7	14.3	3.01e-04	0	44	0	2006974464	14	4663
2026-01-17 00:18:37.53	192.98	13.94	-27.4	-29.5	14.4	3.76e-04	0	44	0	2009071616	14	4628
2026-01-17 00:18:38.53	193.00	13.84	-27.5	-29.5	14.1	2.20e-06	0	44	0	2012217344	15	4489
2026-01-17 00:18:39.53	193.02	13.74	-27.6	-29.7	14.0	2.28e-04	0	44	0	2015363072	15	4568
2026-01-17 00:18:40.54	193.04	13.64	-27.7	-29.8	14.0	4.15e-04	0	44	0	2018508800	15	4585
2026-01-17 00:18:41.54	193.07	13.54	-27.8	-30.0	13.8	3.80e-06	0	44	0	2021654528	15	4671
2026-01-17 00:18:42.54	193.09	13.44	-27.8	-30.1	13.8	4.68e-04	0	44	0	2025848832	15	4689
2026-01-17 00:18:43.54	193.11	13.34	-27.8	-30.1	13.7	3.32e-04	0	44	0	2028994560	15	4704
2026-01-17 00:18:44.55	193.13	13.24	-28.1	-30.3	13.5	9.90e-06	0	44	0	2032140288	16	4639
2026-01-17 00:18:45.55	193.15	13.14	-28.1	-30.2	13.6	4.08e-04	0	44	0	2034237440	16	4591
2026-01-17 00:18:46.55	193.17	13.04	-28.2	-30.4	13.4	4.28e-04	0	44	0	2037383168	16	4673
2026-01-17 00:18:47.55	193.19	12.94	-28.3	-30.7	13.3	2.36e-05	0	44	0	2040528896	16	4747
2026-01-17 00:18:48.55	193.21	12.84	-28.2	-30.5	13.4	4.24e-04	0	44	0	2043674624	16	4699
2026-01-17 00:18:49.56	193.23	12.75	-28.4	-31.1	13.0	4.51e-04	0	44	0	2046820352	16	4880
2026-01-17 00:18:50.55	193.25	12.65	-28.3	-30.4	13.2	3.73e-05	0	44	0	2049966080	17	4537
2026-01-17 00:18:51.56	193.27	12.55	-28.5	-31.3	12.9	4.53e-04	0	44	0	2053111808	16	4941
2026-01-17 00:18:52.56	193.29	12.46	-28.4	-30.6	13.0	5.22e-04	0	44	0	2056257536	17	4627
2026-01-17 00:18:53.56	193.31	12.36	-28.2	-30.4	13.4	1.83e-05	0	44	0	2059403264	16	4667
2026-01-17 00:18:54.56	193.33	12.26	-28.1	-30.2	13.5	4.53e-04	0	43	0	2062548992	16	4616
2026-01-17 00:18:55.56	193.35	12.17	-27.7	-29.8	13.9	1.75e-05	0	44	0	2065694720	15	4587
2026-01-17 00:18:56.56	193.37	12.07	-27.5	-29.5	14.1	4.50e-06	0	44	0	2068840448	15	4504
2026-01-17 00:18:57.56	193.39	11.98	-27.6	-29.6	14.0	2.87e-04	0	44	0	2071986176	15	4532
2026-01-17 00:18:58.57	193.41	11.88	-27.4	-29.7	14.2	3.27e-04	0	44	0	2075131904	14	4672
2026-01-17 00:18:59.57	193.42	11.79	-27.4	-29.2	14.2	2.20e-06	0	44	0	2078277632	15	4412
2026-01-17 00:19:00.57	193.44	11.70	-27.3	-29.4	14.4	7.00e-07	0	44	0	2081423360	14	4590
2026-01-17 00:19:01.57	193.46	11.60	-27.3	-29.5	14.3	2.20e-06	0	44	0	2084569088	14	4626
2026-01-17 00:19:02.58	193.48	11.51	-27.3	-29.4	14.3	2.20e-06	0	44	0	2087714816	14	4599
2026-01-17 00:19:03.58	193.50	11.42	-27.2	-29.3	14.4	2.93e-04	0	44	0	2090860544	14	4565
2026-01-17 00:19:04.57	193.52	11.33	-27.4	-29.6	14.2	2.95e-04	0	44	0	2094006272	14	4638
2026-01-17 00:19:05.57	193.54	11.24	-27.3	-29.5	14.3	0.00e+00	0	43	0	2097152000	14	4628
2026-01-17 00:19:06.58	193.56	11.14	-27.3	-29.5	14.3	0.00e+00	0	44	0	2100297728	14	4614
2026-01-17 00:19:07.58	193.57	11.05	-27.4	-29.6	14.2	3.52e-04	0	44	0	2103443456	14	4667
2026-01-17 00:19:08.58	193.59	10.96	-27.3	-29.5	14.3	7.00e-07	0	44	0	2106589184	14	4625
2026-01-17 00:19:09.59	193.61	10.87	-27.3	-29.5	14.2	3.26e-04	0	44	0	2109734912	14	4631
2026-01-17 00:19:10.59	193.63	10.78	-27.3	-29.6	14.2	7.00e-07	0	44	0	2112880640	14	4642
2026-01-17 00:19:11.59	193.65	10.69	-27.4	-29.7	14.1	2.20e-06	0	44	0	2116026368	14	4700
2026-01-17 00:19:12.60	193.66	10.60	-27.4	-29.7	14.1	7.00e-07	0	44	0	2119172096	14	4693
2026-01-17 00:19:13.60	193.68	10.51	-27.4	-29.7	14.1	3.58e-04	0	44	0	2122317824	14	4702
2026-01-17 00:19:14.60	193.70	10.42	-27.4	-29.7	14.1	7.00e-07	0	44	0	2125463552	14	4696
2026-01-17 00:19:15.60	193.72	10.34	-27.4	-29.2	14.1	7.00e-07	0	44	0	2128609280	15	4420
2026-01-17 00:19:16.59	193.73	10.25	-27.4	-29.1	14.1	3.00e-06	0	44	0	2131755008	15	4404
2026-01-17 00:19:17.60	193.75	10.16	-27.3	-29.5	14.2	0.00e+00	0	44	0	2134900736	14	4639
