passes_logs/2026/01/17/R2M6_AANII_01/R2M6_AANII_01__20260117_091117_NOAA_20_JPSS-1_rec.log

#Pass ID: 20260117_091117_NOAA 20 (JPSS-1)
#Satellite: NOAA 20 (JPSS-1)
#Configuration: NOAA 20
#almurnet v.1.7.20240730
#Start time: 2026-01-17 09:11:17

#Version: 2.2.20231116
#Station: R2M6_AANII_01
#Location: 30.233357 lon 59.946436 lat
#TLE: 1 43013U 17073A   26016.24631778  .00000038  00000+0  39093-4 0  9990
#TLE: 2 43013  98.7637 317.1726 0001455  37.6755 322.4523 14.19536243422915

#Time	Az	El	Level	Level2	SNR	BER	BlckErr	Temp	State	Recorded	gain1	gain2
2026-01-17 09:11:17.80	125.17	7.04	-31.8	-38.2	4.8	1.35e+00	0	41	0	0	25	7576
2026-01-17 09:11:18.80	125.12	7.11	-32.0	-39.8	4.6	1.35e+00	0	40	104	0	24	8856
2026-01-17 09:11:19.81	125.06	7.19	-31.7	-38.3	7.1	2.76e-01	0	41	0	0	24	7644
2026-01-17 09:11:20.81	125.00	7.26	-31.8	-38.5	6.9	1.65e-01	0	41	0	1048576	24	7799
2026-01-17 09:11:21.82	124.95	7.33	-31.7	-38.3	7.1	1.84e-01	0	41	0	3145728	24	7640
2026-01-17 09:11:22.81	124.89	7.41	-31.7	-37.8	7.5	9.96e-02	0	41	0	5242880	24	7269
2026-01-17 09:11:23.80	124.84	7.48	-31.6	-37.4	7.8	9.75e-02	0	41	0	7340032	24	7022
2026-01-17 09:11:24.80	124.78	7.55	-31.7	-37.7	7.6	9.13e-02	0	41	0	8388608	24	7204
2026-01-17 09:11:25.81	124.72	7.63	-31.7	-37.6	7.7	9.13e-02	0	41	0	10485760	24	7173
2026-01-17 09:11:26.81	124.66	7.70	-31.5	-36.8	8.4	8.53e-02	0	41	0	12582912	24	6630
2026-01-17 09:11:27.81	124.60	7.78	-31.4	-36.2	8.8	2.94e-02	0	41	0	14680064	24	6303
2026-01-17 09:11:28.82	124.54	7.85	-31.2	-36.0	9.4	2.23e-02	0	41	0	16777216	23	6267
2026-01-17 09:11:29.82	124.49	7.93	-31.0	-35.3	10.0	1.82e-02	0	41	0	17825792	23	5892
2026-01-17 09:11:30.81	124.43	8.00	-30.8	-35.1	10.6	3.29e-03	0	41	0	19922944	22	5865
2026-01-17 09:11:31.81	124.37	8.08	-30.7	-34.7	10.8	1.81e-03	0	41	0	22020096	22	5697
2026-01-17 09:11:32.81	124.31	8.15	-30.4	-33.7	11.6	1.78e-03	0	41	0	24117248	22	5260
2026-01-17 09:11:33.82	124.25	8.23	-30.6	-34.2	11.2	1.19e-03	0	41	0	26214400	22	5463
2026-01-17 09:11:34.81	124.19	8.31	-30.4	-33.4	11.8	8.93e-04	0	41	0	27262976	22	5123
2026-01-17 09:11:35.81	124.13	8.38	-30.4	-33.7	11.6	6.03e-04	0	41	0	29360128	22	5255
2026-01-17 09:11:36.81	124.07	8.46	-30.5	-33.8	11.6	5.13e-04	0	41	0	31457280	22	5295
2026-01-17 09:11:37.82	124.00	8.54	-30.6	-34.1	11.4	6.45e-04	0	41	0	33554432	22	5405
2026-01-17 09:11:38.81	123.94	8.61	-30.4	-33.6	11.8	7.15e-04	0	41	0	35651584	22	5175
2026-01-17 09:11:39.82	123.88	8.69	-30.8	-34.9	10.9	1.06e-03	0	41	0	36700160	22	5735
2026-01-17 09:11:40.81	123.82	8.77	-30.6	-34.0	11.5	2.56e-03	0	41	0	38797312	22	5375
2026-01-17 09:11:41.81	123.76	8.84	-30.8	-34.9	10.8	2.80e-03	0	41	0	40894464	22	5762
2026-01-17 09:11:42.80	123.69	8.92	-30.8	-34.6	11.1	1.18e-03	0	41	0	42991616	22	5616
2026-01-17 09:11:43.81	123.63	9.00	-30.9	-35.0	10.8	2.49e-03	0	41	0	45088768	22	5769
2026-01-17 09:11:44.81	123.57	9.08	-30.7	-34.5	11.2	1.36e-03	0	41	0	46137344	22	5577
2026-01-17 09:11:45.81	123.50	9.16	-30.6	-34.0	11.6	8.85e-04	0	41	0	48234496	22	5342
2026-01-17 09:11:46.81	123.44	9.24	-30.7	-34.5	11.2	1.63e-03	0	41	0	50331648	22	5554
2026-01-17 09:11:47.82	123.37	9.31	-30.7	-34.3	11.3	1.06e-03	0	41	0	52428800	22	5482
2026-01-17 09:11:48.82	123.31	9.39	-30.6	-34.2	11.4	8.12e-04	0	41	0	53477376	22	5423
2026-01-17 09:11:49.82	123.24	9.47	-30.6	-34.2	11.5	8.75e-04	0	42	0	55574528	22	5427
2026-01-17 09:11:50.82	123.17	9.55	-30.7	-34.5	11.2	8.41e-04	0	42	0	57671680	22	5549
2026-01-17 09:11:51.83	123.11	9.63	-30.6	-34.1	11.5	1.03e-03	0	42	0	59768832	22	5393
2026-01-17 09:11:52.82	123.04	9.71	-30.8	-34.7	11.1	1.23e-03	0	42	0	61865984	22	5635
2026-01-17 09:11:53.83	122.97	9.79	-30.5	-33.7	11.9	8.92e-04	0	42	0	62914560	22	5202
2026-01-17 09:11:54.83	122.91	9.87	-30.7	-34.2	11.4	6.05e-04	0	42	0	65011712	22	5439
2026-01-17 09:11:55.83	122.84	9.95	-30.8	-34.7	11.1	1.41e-03	0	42	0	67108864	22	5643
2026-01-17 09:11:56.84	122.77	10.04	-30.7	-34.5	11.3	1.32e-03	0	42	0	69206016	22	5547
2026-01-17 09:11:57.84	122.70	10.12	-30.8	-34.7	11.2	1.15e-03	0	42	0	71303168	22	5635
2026-01-17 09:11:58.84	122.63	10.20	-30.9	-35.0	10.9	2.27e-03	0	42	0	72351744	22	5777
2026-01-17 09:11:59.84	122.56	10.28	-30.9	-34.9	11.0	2.50e-03	0	42	0	74448896	22	5735
2026-01-17 09:12:00.85	122.49	10.36	-30.9	-35.1	10.9	2.13e-03	0	42	0	76546048	22	5823
2026-01-17 09:12:01.85	122.42	10.44	-30.9	-35.0	10.9	3.01e-03	0	42	0	78643200	22	5792
2026-01-17 09:12:02.85	122.35	10.53	-31.0	-35.4	10.6	3.32e-03	0	42	0	79691776	22	5957
2026-01-17 09:12:03.84	122.28	10.61	-30.9	-35.1	10.9	1.70e-03	0	42	0	81788928	22	5791
2026-01-17 09:12:04.85	122.21	10.69	-30.7	-34.2	11.6	1.42e-03	0	42	0	83886080	22	5381
2026-01-17 09:12:05.84	122.14	10.77	-30.9	-35.0	11.0	1.32e-03	0	42	0	85983232	22	5735
2026-01-17 09:12:06.85	122.06	10.86	-31.0	-35.1	11.0	2.09e-03	0	42	0	88080384	22	5796
2026-01-17 09:12:07.85	121.99	10.94	-31.1	-35.4	10.8	2.44e-03	0	42	0	89128960	22	5901
2026-01-17 09:12:08.85	121.92	11.02	-31.3	-36.2	10.2	4.06e-03	0	42	0	91226112	22	6299
2026-01-17 09:12:09.85	121.84	11.11	-31.1	-35.5	10.7	3.83e-03	0	42	0	93323264	22	5978
2026-01-17 09:12:10.84	121.77	11.19	-30.9	-34.7	11.3	1.41e-03	0	42	0	95420416	22	5627
2026-01-17 09:12:11.84	121.70	11.27	-30.7	-34.2	11.6	1.13e-03	0	42	0	97517568	22	5405
2026-01-17 09:12:12.84	121.62	11.36	-30.6	-33.8	11.9	4.95e-04	0	42	0	98566144	22	5231
2026-01-17 09:12:13.84	121.55	11.44	-30.5	-33.6	12.1	3.05e-04	0	42	0	100663296	22	5124
2026-01-17 09:12:14.84	121.47	11.53	-30.4	-33.4	12.3	1.83e-04	0	42	0	102760448	22	5039
2026-01-17 09:12:15.84	121.39	11.61	-30.5	-33.5	12.2	1.80e-04	0	42	0	104857600	22	5092
2026-01-17 09:12:16.84	121.32	11.70	-30.4	-33.3	12.4	1.36e-04	0	42	0	106954752	22	5031
2026-01-17 09:12:17.85	121.24	11.79	-30.4	-33.3	12.3	1.20e-04	0	42	0	108003328	22	5015
2026-01-17 09:12:18.85	121.16	11.87	-30.3	-33.1	12.5	1.81e-04	0	42	0	110100480	22	4946
2026-01-17 09:12:19.86	121.08	11.96	-30.5	-33.6	12.1	2.18e-04	0	42	0	112197632	22	5123
2026-01-17 09:12:20.86	121.00	12.04	-30.5	-33.7	12.1	2.80e-04	0	42	0	114294784	22	5152
2026-01-17 09:12:21.87	120.92	12.13	-30.4	-33.2	12.4	2.98e-04	0	42	0	116391936	22	4984
2026-01-17 09:12:22.86	120.84	12.22	-30.5	-33.5	12.2	1.92e-04	0	42	0	117440512	22	5095
2026-01-17 09:12:23.86	120.76	12.31	-30.2	-33.3	12.7	8.16e-05	0	42	0	119537664	21	5113
2026-01-17 09:12:24.86	120.68	12.39	-30.2	-33.2	12.7	1.10e-04	0	42	0	121634816	21	5083
2026-01-17 09:12:25.86	120.60	12.48	-30.2	-33.3	12.6	7.09e-05	0	42	0	123731968	21	5144
2026-01-17 09:12:26.86	120.52	12.57	-30.3	-33.6	12.4	1.27e-04	0	42	0	124780544	21	5259
2026-01-17 09:12:27.86	120.44	12.66	-30.4	-33.7	12.4	1.21e-04	0	42	0	126877696	21	5273
2026-01-17 09:12:28.87	120.35	12.75	-30.5	-34.0	12.2	1.55e-04	0	42	0	128974848	21	5421
2026-01-17 09:12:29.87	120.27	12.83	-30.4	-33.9	12.2	2.14e-04	0	42	0	131072000	21	5391
2026-01-17 09:12:30.88	120.19	12.92	-30.4	-34.0	12.2	3.22e-04	0	42	0	133169152	21	5394
2026-01-17 09:12:31.89	120.10	13.02	-30.6	-34.3	12.0	2.25e-04	0	42	0	134217728	21	5547
2026-01-17 09:12:32.89	120.02	13.10	-30.3	-33.6	12.5	1.81e-04	0	42	0	136314880	21	5233
2026-01-17 09:12:33.89	119.93	13.19	-30.2	-33.2	12.8	7.24e-05	0	42	0	138412032	21	5097
2026-01-17 09:12:34.90	119.85	13.29	-30.2	-33.2	12.8	8.77e-05	0	42	0	140509184	21	5067
2026-01-17 09:12:35.90	119.76	13.38	-30.3	-33.6	12.5	5.49e-05	0	42	0	142606336	21	5241
2026-01-17 09:12:36.90	119.67	13.47	-30.3	-33.5	12.6	7.55e-05	0	42	0	143654912	21	5186
2026-01-17 09:12:37.90	119.58	13.56	-30.5	-34.0	12.2	1.86e-04	0	42	0	145752064	21	5419
2026-01-17 09:12:38.89	119.50	13.65	-30.4	-33.9	12.3	2.19e-04	0	42	0	147849216	21	5363
2026-01-17 09:12:39.89	119.41	13.74	-30.6	-34.2	12.1	3.23e-04	0	42	0	149946368	21	5471
2026-01-17 09:12:40.90	119.32	13.83	-30.4	-33.8	12.4	1.43e-04	0	42	0	152043520	21	5312
2026-01-17 09:12:41.90	119.23	13.92	-30.4	-33.6	12.5	8.39e-05	0	42	0	153092096	21	5239
2026-01-17 09:12:42.90	119.14	14.02	-30.2	-33.0	13.0	4.50e-05	0	42	0	155189248	21	4989
2026-01-17 09:12:43.91	119.05	14.11	-30.2	-33.1	13.0	4.50e-05	0	42	0	157286400	21	5019
2026-01-17 09:12:44.91	118.96	14.20	-30.2	-33.1	12.9	5.26e-05	0	42	0	159383552	21	5034
2026-01-17 09:12:45.90	118.86	14.29	-30.3	-33.3	12.8	4.19e-05	0	42	0	161480704	21	5120
2026-01-17 09:12:46.91	118.77	14.39	-30.3	-33.3	12.8	4.65e-05	0	43	0	162529280	21	5111
2026-01-17 09:12:47.92	118.68	14.48	-30.3	-33.6	12.6	3.96e-05	0	42	0	164626432	21	5216
2026-01-17 09:12:48.91	118.58	14.58	-30.2	-33.1	13.0	6.17e-05	0	42	0	166723584	21	5033
2026-01-17 09:12:49.91	118.49	14.67	-30.2	-33.1	13.0	5.49e-05	0	42	0	168820736	21	5024
2026-01-17 09:12:50.91	118.39	14.77	-30.0	-32.6	13.3	2.67e-05	0	42	0	169869312	21	4860
2026-01-17 09:12:51.91	118.30	14.86	-30.1	-32.8	13.2	3.20e-05	0	43	0	171966464	21	4916
2026-01-17 09:12:52.91	118.20	14.96	-30.1	-32.8	13.2	3.35e-05	0	42	0	174063616	21	4914
2026-01-17 09:12:53.91	118.11	15.05	-30.1	-32.8	13.2	2.21e-05	0	43	0	176160768	21	4916
2026-01-17 09:12:54.91	118.01	15.15	-30.1	-32.9	13.1	2.89e-05	0	42	0	178257920	21	4948
2026-01-17 09:12:55.91	117.91	15.24	-30.2	-33.1	13.0	2.51e-05	0	42	0	179306496	21	5014
2026-01-17 09:12:56.91	117.81	15.34	-30.2	-33.2	12.9	5.56e-05	0	42	0	181403648	21	5070
2026-01-17 09:12:57.92	117.71	15.44	-30.1	-32.9	13.1	4.80e-05	0	43	0	183500800	21	4957
2026-01-17 09:12:58.92	117.61	15.53	-30.1	-32.9	13.2	2.51e-05	0	42	0	185597952	21	4934
2026-01-17 09:12:59.92	117.51	15.63	-30.1	-32.9	13.2	2.97e-05	0	42	0	187695104	21	4941
2026-01-17 09:13:00.92	117.41	15.73	-30.1	-32.7	13.3	1.52e-05	0	43	0	188743680	21	4887
2026-01-17 09:13:01.92	117.31	15.83	-30.0	-32.7	13.3	1.29e-05	0	42	0	190840832	21	4872
2026-01-17 09:13:02.93	117.20	15.92	-30.0	-32.6	13.4	1.44e-05	0	42	0	192937984	21	4844
2026-01-17 09:13:03.93	117.10	16.02	-30.0	-32.7	13.3	1.83e-05	0	42	0	195035136	21	4875
2026-01-17 09:13:04.94	116.99	16.12	-30.2	-33.0	13.1	3.12e-05	0	42	0	197132288	21	4992
2026-01-17 09:13:05.94	116.89	16.22	-30.1	-32.9	13.2	2.51e-05	0	43	0	198180864	21	4939
2026-01-17 09:13:06.94	116.78	16.32	-30.2	-33.1	13.1	2.21e-05	0	43	0	200278016	21	5029
2026-01-17 09:13:07.94	116.68	16.42	-30.1	-33.0	13.1	2.36e-05	0	43	0	202375168	21	5000
2026-01-17 09:13:08.95	116.57	16.52	-30.2	-33.2	13.0	2.74e-05	0	43	0	204472320	21	5082
2026-01-17 09:13:09.95	116.46	16.62	-30.3	-33.5	12.7	5.26e-05	0	42	0	205520896	21	5201
2026-01-17 09:13:10.95	116.35	16.72	-30.3	-33.3	12.9	5.56e-05	0	43	0	207618048	21	5096
2026-01-17 09:13:11.95	116.24	16.82	-30.2	-33.1	13.1	4.11e-05	0	43	0	209715200	21	5044
2026-01-17 09:13:12.95	116.13	16.92	-30.3	-33.4	12.9	4.27e-05	0	43	0	211812352	21	5145
2026-01-17 09:13:13.95	116.02	17.03	-30.3	-33.4	12.9	3.81e-05	0	43	0	213909504	21	5132
2026-01-17 09:13:14.96	115.91	17.13	-30.3	-33.2	13.1	2.36e-05	0	43	0	216006656	21	5063
2026-01-17 09:13:15.96	115.80	17.23	-30.5	-33.8	12.7	6.17e-05	0	43	0	217055232	21	5290
2026-01-17 09:13:16.96	115.68	17.33	-30.3	-33.2	13.1	4.27e-05	0	43	0	219152384	21	5038
2026-01-17 09:13:17.96	115.57	17.43	-30.3	-33.2	13.1	2.05e-05	0	43	0	221249536	21	5050
2026-01-17 09:13:18.97	115.45	17.54	-30.3	-33.2	13.0	2.97e-05	0	43	0	223346688	21	5066
2026-01-17 09:13:19.98	115.34	17.64	-30.3	-33.3	13.0	3.12e-05	0	43	0	224395264	21	5087
2026-01-17 09:13:20.98	115.22	17.75	-30.4	-33.5	12.9	5.34e-05	0	43	0	226492416	21	5163
2026-01-17 09:13:21.97	115.10	17.85	-30.3	-33.1	13.2	3.28e-05	0	43	0	228589568	21	5021
2026-01-17 09:13:22.97	114.99	17.95	-30.2	-33.1	13.2	1.98e-05	0	42	0	230686720	21	5007
2026-01-17 09:13:23.98	114.87	18.06	-30.2	-33.0	13.3	1.75e-05	0	43	0	232783872	21	4957
2026-01-17 09:13:24.97	114.75	18.16	-30.1	-32.8	13.4	1.14e-05	0	43	0	233832448	21	4896
2026-01-17 09:13:25.98	114.62	18.27	-30.3	-33.2	13.1	1.14e-05	0	43	0	235929600	21	5036
2026-01-17 09:13:26.98	114.50	18.37	-30.1	-32.7	13.4	1.52e-05	0	42	0	238026752	21	4879
2026-01-17 09:13:27.99	114.38	18.48	-30.3	-33.2	13.2	2.44e-05	0	43	0	240123904	21	5035
2026-01-17 09:13:28.99	114.26	18.59	-30.1	-32.7	13.5	8.30e-06	0	43	0	242221056	21	4850
2026-01-17 09:13:29.99	114.13	18.69	-30.0	-32.6	13.5	1.22e-05	0	43	0	243269632	21	4818
2026-01-17 09:13:30.99	114.01	18.80	-30.1	-32.8	13.4	1.14e-05	0	43	0	245366784	21	4901
2026-01-17 09:13:32.00	113.88	18.91	-30.1	-32.9	13.4	1.37e-05	0	43	0	247463936	21	4926
2026-01-17 09:13:33.00	113.75	19.02	-30.1	-32.6	13.5	1.37e-05	0	43	0	249561088	21	4852
2026-01-17 09:13:33.99	113.63	19.12	-30.2	-33.0	13.3	1.22e-05	0	43	0	250609664	21	4976
2026-01-17 09:13:35.00	113.50	19.23	-30.1	-32.8	13.5	1.22e-05	0	43	0	252706816	21	4893
2026-01-17 09:13:35.99	113.37	19.34	-30.1	-32.7	13.5	7.60e-06	0	43	0	254803968	21	4886
2026-01-17 09:13:36.99	113.24	19.45	-30.2	-33.0	13.3	1.90e-05	0	43	0	256901120	21	4996
2026-01-17 09:13:38.00	113.11	19.56	-30.2	-32.9	13.4	1.22e-05	0	43	0	258998272	21	4946
2026-01-17 09:13:39.00	112.97	19.67	-30.2	-32.9	13.4	2.13e-05	0	43	0	260046848	21	4950
2026-01-17 09:13:40.00	112.84	19.78	-30.3	-33.2	13.2	1.60e-05	0	42	0	262144000	21	5036
2026-01-17 09:13:41.00	112.71	19.89	-30.2	-32.9	13.4	2.13e-05	0	43	0	264241152	21	4941
2026-01-17 09:13:42.01	112.57	20.00	-30.3	-33.3	13.2	2.13e-05	0	43	0	266338304	21	5050
2026-01-17 09:13:43.01	112.43	20.11	-30.3	-33.2	13.2	1.90e-05	0	43	0	268435456	21	5041
2026-01-17 09:13:44.02	112.29	20.22	-30.5	-33.7	12.9	2.28e-05	0	43	0	269484032	21	5210
2026-01-17 09:13:45.02	112.16	20.33	-30.3	-33.3	13.1	3.89e-05	0	43	0	271581184	21	5085
2026-01-17 09:13:46.03	112.02	20.44	-30.4	-33.4	13.1	3.12e-05	0	43	0	273678336	21	5114
2026-01-17 09:13:47.02	111.88	20.56	-30.5	-33.8	12.9	2.51e-05	0	43	0	275775488	21	5247
2026-01-17 09:13:48.03	111.73	20.67	-30.4	-33.5	13.0	2.82e-05	0	43	0	277872640	21	5149
2026-01-17 09:13:49.03	111.59	20.78	-30.5	-33.7	12.9	5.18e-05	0	43	0	278921216	21	5229
2026-01-17 09:13:50.03	111.45	20.89	-30.5	-33.7	12.9	4.11e-05	0	43	0	281018368	21	5231
2026-01-17 09:13:51.03	111.30	21.01	-30.7	-34.3	12.5	6.40e-05	0	42	0	283115520	21	5456
2026-01-17 09:13:52.03	111.16	21.12	-30.4	-33.5	13.1	4.57e-05	0	43	0	285212672	21	5162
2026-01-17 09:13:53.03	111.01	21.23	-30.4	-33.4	13.2	2.36e-05	0	43	0	287309824	21	5095
2026-01-17 09:13:54.04	110.86	21.35	-30.4	-33.4	13.1	2.82e-05	0	43	0	288358400	21	5120
2026-01-17 09:13:55.03	110.71	21.46	-30.5	-33.7	12.9	4.19e-05	0	43	0	290455552	21	5239
2026-01-17 09:13:56.04	110.56	21.58	-30.4	-33.5	13.1	2.67e-05	0	43	0	292552704	21	5135
2026-01-17 09:13:57.04	110.41	21.69	-30.5	-33.8	12.9	2.74e-05	0	43	0	294649856	21	5286
2026-01-17 09:13:58.05	110.26	21.81	-30.3	-33.3	13.2	4.27e-05	0	43	0	295698432	21	5084
2026-01-17 09:13:59.05	110.10	21.93	-30.4	-33.6	13.0	4.50e-05	0	43	0	297795584	21	5191
2026-01-17 09:14:00.06	109.95	22.04	-30.4	-33.4	13.2	1.98e-05	0	43	0	299892736	21	5104
2026-01-17 09:14:01.06	109.79	22.16	-30.4	-33.3	13.2	3.12e-05	0	43	0	301989888	21	5079
2026-01-17 09:14:02.06	109.63	22.28	-30.5	-33.6	13.0	3.35e-05	0	43	0	304087040	21	5195
2026-01-17 09:14:03.06	109.48	22.39	-30.4	-33.5	13.1	3.50e-05	0	43	0	306184192	21	5150
2026-01-17 09:14:04.07	109.31	22.51	-30.6	-34.1	12.7	4.04e-05	0	43	0	307232768	21	5373
2026-01-17 09:14:05.06	109.16	22.63	-30.4	-33.5	13.1	2.36e-05	0	43	0	309329920	21	5143
2026-01-17 09:14:06.07	108.99	22.75	-30.2	-32.9	13.5	1.67e-05	0	43	0	311427072	21	4921
2026-01-17 09:14:07.07	108.83	22.86	-30.3	-33.3	13.3	1.22e-05	0	43	0	313524224	21	5059
2026-01-17 09:14:08.07	108.66	22.98	-30.2	-33.0	13.5	1.22e-05	0	43	0	314572800	21	4931
2026-01-17 09:14:09.07	108.50	23.10	-30.3	-33.1	13.4	1.83e-05	0	43	0	316669952	21	4989
2026-01-17 09:14:10.07	108.33	23.22	-30.3	-33.1	13.4	1.14e-05	0	43	0	318767104	21	4989
2026-01-17 09:14:11.08	108.16	23.34	-30.3	-33.2	13.3	9.90e-06	0	43	0	320864256	21	5027
2026-01-17 09:14:12.08	107.99	23.46	-30.2	-32.8	13.5	9.10e-06	0	43	0	322961408	21	4886
2026-01-17 09:14:13.08	107.82	23.58	-30.2	-32.8	13.6	9.90e-06	0	43	0	324009984	21	4862
2026-01-17 09:14:14.08	107.65	23.70	-30.3	-33.2	13.3	1.60e-05	0	43	0	326107136	21	5023
2026-01-17 09:14:15.09	107.47	23.82	-30.3	-33.1	13.4	1.60e-05	0	43	0	328204288	21	4971
2026-01-17 09:14:16.08	107.30	23.94	-30.6	-33.9	12.9	3.43e-05	0	43	0	330301440	21	5302
2026-01-17 09:14:17.09	107.12	24.06	-30.5	-33.7	13.0	4.11e-05	0	43	0	332398592	21	5208
2026-01-17 09:14:18.08	106.95	24.18	-30.5	-33.8	12.9	3.43e-05	0	43	0	333447168	21	5269
2026-01-17 09:14:19.09	106.77	24.30	-30.8	-34.6	12.3	9.15e-05	0	43	0	335544320	21	5597
2026-01-17 09:14:20.09	106.58	24.42	-30.6	-34.0	12.8	9.15e-05	0	43	0	337641472	21	5348
2026-01-17 09:14:21.09	106.40	24.55	-30.5	-33.7	13.0	3.28e-05	0	43	0	339738624	21	5212
2026-01-17 09:14:22.09	106.22	24.67	-30.4	-33.5	13.2	2.97e-05	0	43	0	340787200	21	5127
2026-01-17 09:14:23.09	106.03	24.79	-30.4	-33.4	13.2	2.44e-05	0	43	0	342884352	21	5115
2026-01-17 09:14:24.10	105.85	24.91	-30.4	-33.4	13.2	2.28e-05	0	43	0	344981504	21	5113
2026-01-17 09:14:25.09	105.66	25.03	-30.4	-33.3	13.3	2.13e-05	0	43	0	347078656	21	5067
2026-01-17 09:14:26.09	105.47	25.16	-30.3	-33.2	13.4	1.67e-05	0	43	0	349175808	21	5015
2026-01-17 09:14:27.09	105.28	25.28	-30.4	-33.4	13.3	1.60e-05	0	43	0	350224384	21	5091
2026-01-17 09:14:28.09	105.09	25.40	-30.4	-33.3	13.3	1.37e-05	0	43	0	352321536	21	5069
2026-01-17 09:14:29.09	104.90	25.53	-30.5	-33.6	13.2	1.83e-05	0	43	0	354418688	21	5144
2026-01-17 09:14:30.10	104.70	25.65	-30.6	-33.9	12.9	2.59e-05	0	43	0	356515840	21	5297
2026-01-17 09:14:31.10	104.50	25.78	-30.7	-34.3	12.7	5.64e-05	0	43	0	358612992	21	5460
2026-01-17 09:14:32.10	104.30	25.90	-30.8	-34.7	12.4	1.72e-04	0	43	0	359661568	21	5620
2026-01-17 09:14:33.11	104.10	26.03	-31.0	-35.0	12.1	2.82e-04	0	43	0	361758720	21	5765
2026-01-17 09:14:34.10	103.90	26.15	-31.1	-35.0	11.9	3.36e-04	0	43	0	363855872	22	5621
2026-01-17 09:14:35.10	103.70	26.27	-31.2	-35.2	11.7	6.17e-04	0	43	0	365953024	22	5718
2026-01-17 09:14:36.10	103.49	26.40	-31.3	-35.5	11.6	6.87e-04	0	43	0	368050176	22	5876
2026-01-17 09:14:37.11	103.28	26.53	-31.4	-35.8	11.3	1.12e-03	0	43	0	369098752	22	6001
2026-01-17 09:14:38.11	103.08	26.65	-31.3	-35.6	11.5	8.79e-04	0	43	0	371195904	22	5888
2026-01-17 09:14:39.11	102.87	26.78	-31.3	-35.6	11.5	7.61e-04	0	43	0	373293056	22	5889
2026-01-17 09:14:40.11	102.66	26.90	-31.4	-35.8	11.4	8.97e-04	0	43	0	375390208	22	5975
2026-01-17 09:14:41.11	102.44	27.03	-31.3	-35.7	11.4	8.67e-04	0	43	0	377487360	22	5968
2026-01-17 09:14:42.11	102.23	27.15	-31.4	-35.7	11.4	9.07e-04	0	43	0	378535936	22	5963
2026-01-17 09:14:43.12	102.01	27.28	-31.3	-35.7	11.4	1.09e-03	0	43	0	380633088	22	5948
2026-01-17 09:14:44.12	101.79	27.41	-31.3	-35.7	11.4	1.04e-03	0	43	0	382730240	22	5930
2026-01-17 09:14:45.12	101.57	27.53	-31.4	-35.9	11.3	1.02e-03	0	43	0	384827392	22	6025
2026-01-17 09:14:46.12	101.35	27.66	-31.5	-36.1	11.1	1.23e-03	0	43	0	385875968	22	6105
2026-01-17 09:14:47.13	101.12	27.79	-31.5	-35.7	11.1	1.30e-03	0	43	0	387973120	23	5827
2026-01-17 09:14:48.13	100.90	27.91	-31.5	-35.7	11.1	1.39e-03	0	43	0	390070272	23	5839
2026-01-17 09:14:49.14	100.67	28.04	-31.6	-36.0	10.8	2.01e-03	0	43	0	392167424	23	6000
2026-01-17 09:14:50.14	100.44	28.17	-31.5	-35.6	11.2	1.59e-03	0	43	0	394264576	23	5781
2026-01-17 09:14:51.14	100.21	28.30	-31.5	-35.6	11.1	1.48e-03	0	43	0	395313152	23	5811
2026-01-17 09:14:52.13	99.98	28.42	-31.6	-36.0	10.9	2.53e-03	0	43	0	397410304	23	5980
2026-01-17 09:14:53.14	99.74	28.55	-31.7	-36.3	10.6	3.23e-03	0	43	0	399507456	23	6157
2026-01-17 09:14:54.14	99.51	28.68	-31.7	-36.3	10.6	3.02e-03	0	43	0	401604608	23	6132
2026-01-17 09:14:55.14	99.27	28.80	-31.7	-36.3	10.7	2.79e-03	0	43	0	403701760	23	6103
2026-01-17 09:14:56.14	99.03	28.93	-31.7	-36.2	10.8	3.00e-03	0	43	0	404750336	23	6049
2026-01-17 09:14:57.14	98.78	29.06	-31.7	-36.5	10.5	4.03e-03	0	43	0	406847488	23	6239
2026-01-17 09:14:58.14	98.54	29.18	-31.7	-36.2	10.8	3.16e-03	0	43	0	408944640	23	6053
2026-01-17 09:14:59.14	98.29	29.31	-31.7	-36.3	10.7	2.59e-03	0	43	0	411041792	23	6080
2026-01-17 09:15:00.14	98.05	29.44	-31.8	-36.5	10.6	3.48e-03	0	43	0	413138944	23	6185
2026-01-17 09:15:01.15	97.79	29.56	-31.7	-36.2	10.8	2.76e-03	0	43	0	414187520	23	6051
2026-01-17 09:15:02.15	97.54	29.69	-31.6	-36.1	10.8	2.79e-03	0	43	0	416284672	23	6029
2026-01-17 09:15:03.15	97.29	29.82	-31.7	-36.2	10.7	3.05e-03	0	43	0	418381824	23	6067
2026-01-17 09:15:04.16	97.03	29.95	-31.7	-36.2	10.7	2.78e-03	0	43	0	420478976	23	6079
2026-01-17 09:15:05.15	96.77	30.07	-31.7	-36.4	10.6	2.47e-03	0	43	0	422576128	23	6165
2026-01-17 09:15:06.16	96.51	30.20	-31.8	-36.6	10.5	3.67e-03	0	43	0	423624704	23	6252
2026-01-17 09:15:07.16	96.25	30.33	-31.7	-36.2	10.7	3.12e-03	0	43	0	425721856	23	6064
2026-01-17 09:15:08.16	95.99	30.45	-31.5	-35.7	11.1	1.86e-03	0	43	0	427819008	23	5825
2026-01-17 09:15:09.15	95.72	30.58	-31.5	-35.7	11.2	1.70e-03	0	43	0	429916160	23	5791
2026-01-17 09:15:10.15	95.45	30.70	-31.6	-35.9	11.0	1.54e-03	0	43	0	430964736	23	5902
2026-01-17 09:15:11.15	95.18	30.83	-31.5	-35.7	11.1	1.42e-03	0	43	0	433061888	23	5820
2026-01-17 09:15:12.15	94.91	30.95	-31.6	-36.0	10.9	1.76e-03	0	43	0	435159040	23	5951
2026-01-17 09:15:13.15	94.64	31.08	-31.5	-35.5	11.3	1.71e-03	0	43	0	437256192	23	5707
2026-01-17 09:15:14.15	94.36	31.20	-31.3	-34.8	11.8	6.38e-04	0	43	0	439353344	23	5415
2026-01-17 09:15:15.16	94.08	31.33	-31.2	-34.6	12.0	3.27e-04	0	43	0	440401920	23	5321
2026-01-17 09:15:16.16	93.80	31.45	-31.2	-34.4	12.1	2.47e-04	0	43	0	442499072	23	5255
2026-01-17 09:15:17.16	93.51	31.58	-31.4	-35.2	11.6	5.48e-04	0	43	0	444596224	23	5596
2026-01-17 09:15:18.16	93.23	31.70	-31.5	-35.6	11.3	8.58e-04	0	43	0	446693376	23	5784
2026-01-17 09:15:19.16	92.94	31.83	-31.7	-36.4	10.7	1.91e-03	0	43	0	448790528	23	6126
2026-01-17 09:15:20.16	92.65	31.95	-31.8	-36.4	10.8	2.74e-03	0	43	0	449839104	23	6116
2026-01-17 09:15:21.17	92.36	32.07	-31.8	-36.6	10.6	3.41e-03	0	43	0	451936256	23	6233
2026-01-17 09:15:22.18	92.06	32.20	-31.8	-36.5	10.7	3.67e-03	0	43	0	454033408	23	6163
2026-01-17 09:15:23.18	91.76	32.32	-31.9	-36.7	10.5	3.33e-03	0	43	0	456130560	23	6274
2026-01-17 09:15:24.18	91.46	32.44	-32.0	-37.1	10.3	4.88e-03	0	43	0	458227712	23	6459
2026-01-17 09:15:25.18	91.16	32.56	-32.1	-36.9	10.0	6.96e-03	0	43	0	459276288	24	6287
2026-01-17 09:15:26.19	90.86	32.69	-32.2	-37.2	9.7	7.19e-03	0	43	0	461373440	24	6417
2026-01-17 09:15:27.18	90.55	32.81	-32.1	-37.1	9.8	9.25e-03	0	43	0	463470592	24	6357
2026-01-17 09:15:28.19	90.24	32.93	-32.2	-37.4	9.6	1.12e-02	0	43	0	465567744	24	6531
2026-01-17 09:15:29.18	89.93	33.05	-32.3	-37.7	9.4	1.43e-02	0	43	0	466616320	24	6720
2026-01-17 09:15:30.19	89.62	33.17	-32.5	-38.4	8.9	2.05e-02	0	43	0	468713472	24	7111
2026-01-17 09:15:31.19	89.30	33.29	-32.5	-37.9	8.8	3.00e-02	0	43	0	470810624	25	6720
2026-01-17 09:15:32.19	88.99	33.40	-32.5	-38.1	8.7	3.35e-02	0	43	0	472907776	25	6832
2026-01-17 09:15:33.20	88.66	33.52	-32.5	-37.7	8.9	2.79e-02	0	43	0	475004928	25	6625
2026-01-17 09:15:34.20	88.34	33.64	-32.5	-38.1	8.7	3.22e-02	0	43	0	476053504	25	6838
2026-01-17 09:15:35.20	88.02	33.76	-32.7	-38.8	8.2	4.59e-02	0	43	0	478150656	25	7239
2026-01-17 09:15:36.20	87.69	33.87	-32.8	-39.2	7.9	6.88e-02	0	43	0	480247808	25	7546
2026-01-17 09:15:37.20	87.36	33.99	-32.8	-39.4	7.7	8.77e-02	0	43	0	482344960	25	7652
2026-01-17 09:15:38.21	87.03	34.10	-32.8	-39.4	7.7	9.02e-02	0	43	0	484442112	25	7660
2026-01-17 09:15:39.21	86.69	34.22	-32.7	-38.9	8.1	6.76e-02	0	43	0	485490688	25	7323
2026-01-17 09:15:40.21	86.36	34.33	-32.8	-39.2	7.9	5.78e-02	0	43	0	487587840	25	7519
2026-01-17 09:15:41.21	86.02	34.44	-32.8	-39.4	7.7	8.82e-02	0	43	0	489684992	25	7650
2026-01-17 09:15:42.21	85.68	34.56	-32.8	-39.1	7.9	7.76e-02	0	43	0	491782144	25	7477
2026-01-17 09:15:43.22	85.33	34.67	-32.7	-38.8	8.3	6.93e-02	0	43	0	493879296	25	7222
2026-01-17 09:15:44.21	84.99	34.78	-32.7	-38.5	8.5	5.32e-02	0	43	0	494927872	25	7052
2026-01-17 09:15:45.22	84.64	34.89	-32.6	-38.1	8.8	3.59e-02	0	43	0	497025024	25	6800
2026-01-17 09:15:46.21	84.29	35.00	-32.5	-37.8	9.0	2.66e-02	0	43	0	499122176	25	6622
2026-01-17 09:15:47.21	83.94	35.10	-32.6	-38.2	8.7	2.48e-02	0	43	0	501219328	25	6855
2026-01-17 09:15:48.21	83.59	35.21	-32.4	-37.3	9.3	2.27e-02	0	43	0	503316480	25	6349
2026-01-17 09:15:49.21	83.23	35.32	-32.2	-36.8	9.7	1.39e-02	0	43	0	504365056	25	6111
2026-01-17 09:15:50.22	82.87	35.42	-32.0	-36.0	10.4	8.24e-03	0	43	0	506462208	25	5697
2026-01-17 09:15:51.22	82.50	35.53	-32.0	-36.1	10.3	4.57e-03	0	43	0	508559360	25	5753
2026-01-17 09:15:52.23	82.14	35.63	-32.1	-36.2	10.2	5.67e-03	0	43	0	510656512	25	5801
2026-01-17 09:15:53.23	81.77	35.73	-32.0	-36.0	10.4	5.67e-03	0	43	0	511705088	25	5720
2026-01-17 09:15:54.23	81.40	35.83	-32.0	-36.1	10.3	5.04e-03	0	43	0	513802240	25	5767
2026-01-17 09:15:55.23	81.03	35.93	-32.0	-35.9	10.5	3.88e-03	0	43	0	515899392	25	5668
2026-01-17 09:15:56.23	80.66	36.03	-31.9	-35.5	10.7	4.29e-03	0	43	0	517996544	25	5478
2026-01-17 09:15:57.23	80.28	36.13	-31.5	-34.9	11.5	1.78e-03	0	43	0	520093696	24	5319
2026-01-17 09:15:58.23	79.91	36.23	-31.4	-34.4	11.9	4.22e-04	0	43	0	521142272	24	5111
2026-01-17 09:15:59.23	79.53	36.32	-31.3	-34.1	12.1	2.94e-04	0	43	0	523239424	24	5011
2026-01-17 09:16:00.22	79.15	36.42	-31.2	-34.5	12.2	2.31e-04	0	43	0	525336576	23	5259
2026-01-17 09:16:01.22	78.76	36.51	-31.0	-33.8	12.6	1.60e-04	0	43	0	527433728	23	4985
2026-01-17 09:16:02.22	78.38	36.60	-30.9	-33.6	12.8	5.95e-05	0	43	0	529530880	23	4895
2026-01-17 09:16:03.21	77.99	36.69	-31.0	-33.9	12.6	9.00e-05	0	43	0	530579456	23	5022
2026-01-17 09:16:04.22	77.60	36.78	-30.8	-33.4	12.9	4.50e-05	0	43	0	532676608	23	4829
2026-01-17 09:16:05.23	77.20	36.87	-30.8	-33.8	13.0	3.20e-05	0	43	0	534773760	22	5066
2026-01-17 09:16:06.23	76.80	36.96	-30.8	-33.9	13.0	4.11e-05	0	43	0	536870912	22	5094
2026-01-17 09:16:07.23	76.41	37.04	-30.6	-33.3	13.3	3.12e-05	0	43	0	538968064	22	4904
2026-01-17 09:16:08.23	76.01	37.13	-30.6	-33.1	13.5	9.90e-06	0	43	0	540016640	22	4823
2026-01-17 09:16:09.23	75.61	37.21	-30.4	-32.8	13.7	9.10e-06	0	43	0	542113792	22	4710
2026-01-17 09:16:10.23	75.20	37.29	-30.4	-32.7	13.8	3.00e-06	0	43	0	544210944	22	4667
2026-01-17 09:16:11.23	74.80	37.37	-30.3	-32.9	13.9	5.30e-06	0	43	0	546308096	21	4854
2026-01-17 09:16:12.23	74.39	37.45	-30.2	-32.6	14.0	1.50e-06	0	43	0	547356672	21	4772
2026-01-17 09:16:13.24	73.98	37.53	-30.2	-32.7	14.0	2.20e-06	0	43	0	549453824	21	4793
2026-01-17 09:16:14.24	73.57	37.60	-30.4	-33.3	13.7	3.80e-06	0	43	0	551550976	21	4992
2026-01-17 09:16:15.24	73.15	37.68	-30.5	-33.4	13.7	9.90e-06	0	43	0	553648128	21	5023
2026-01-17 09:16:16.24	72.74	37.75	-30.5	-33.3	13.6	3.80e-06	0	43	0	555745280	21	5012
2026-01-17 09:16:17.24	72.32	37.82	-30.4	-33.2	13.7	6.80e-06	0	43	0	556793856	21	4980
2026-01-17 09:16:18.25	71.90	37.89	-30.5	-33.4	13.6	6.10e-06	0	43	0	558891008	21	5028
2026-01-17 09:16:19.25	71.48	37.96	-30.3	-32.8	14.0	6.80e-06	0	43	0	560988160	21	4817
2026-01-17 09:16:20.26	71.05	38.03	-30.1	-32.4	14.2	1.50e-06	0	43	0	563085312	21	4691
2026-01-17 09:16:21.25	70.63	38.09	-30.0	-32.1	14.4	7.00e-07	0	43	0	565182464	21	4589
2026-01-17 09:16:22.26	70.20	38.15	-29.9	-31.8	14.6	3.00e-06	0	43	0	566231040	21	4500
2026-01-17 09:16:23.26	69.78	38.21	-29.9	-31.8	14.6	0.00e+00	0	43	0	568328192	21	4495
2026-01-17 09:16:24.26	69.35	38.27	-30.1	-32.4	14.2	7.00e-07	0	43	0	570425344	21	4676
2026-01-17 09:16:25.26	68.92	38.33	-30.1	-32.4	14.2	1.50e-06	0	43	0	572522496	21	4677
2026-01-17 09:16:26.26	68.48	38.39	-30.1	-32.3	14.3	7.00e-07	0	43	0	574619648	21	4644
2026-01-17 09:16:27.26	68.05	38.44	-30.0	-32.1	14.4	0.00e+00	0	43	0	575668224	21	4594
2026-01-17 09:16:28.26	67.62	38.49	-30.1	-32.4	14.3	7.00e-07	0	43	0	577765376	21	4679
2026-01-17 09:16:29.26	67.18	38.54	-30.1	-32.3	14.3	3.00e-06	0	43	0	579862528	21	4648
2026-01-17 09:16:30.26	66.74	38.59	-30.0	-32.2	14.4	3.00e-06	0	43	0	581959680	21	4613
2026-01-17 09:16:31.26	66.31	38.64	-30.0	-32.0	14.5	7.00e-07	0	43	0	584056832	21	4561
2026-01-17 09:16:32.26	65.87	38.68	-29.8	-31.7	14.7	0.00e+00	0	43	0	585105408	21	4469
2026-01-17 09:16:33.26	65.42	38.73	-29.9	-31.8	14.7	7.00e-07	0	43	0	587202560	21	4483
2026-01-17 09:16:34.27	64.98	38.77	-29.9	-31.8	14.7	4.50e-06	0	43	0	589299712	21	4488
2026-01-17 09:16:35.27	64.53	38.81	-29.6	-31.7	15.0	7.00e-07	0	43	0	591396864	20	4548
2026-01-17 09:16:36.27	64.09	38.85	-29.5	-31.3	15.3	0.00e+00	0	43	0	592445440	20	4430
2026-01-17 09:16:37.27	63.65	38.88	-29.3	-30.8	15.6	6.10e-06	0	43	0	594542592	20	4275
2026-01-17 09:16:38.27	63.20	38.92	-29.4	-31.6	15.5	0.00e+00	0	43	0	596639744	19	4622
2026-01-17 09:16:39.27	62.75	38.95	-29.7	-32.2	15.1	0.00e+00	0	43	0	598736896	19	4832
2026-01-17 09:16:40.27	62.30	38.98	-29.7	-32.2	15.1	2.20e-06	0	43	0	600834048	19	4821
2026-01-17 09:16:41.27	61.86	39.00	-29.6	-32.1	15.2	0.00e+00	0	43	0	601882624	19	4773
2026-01-17 09:16:42.27	61.41	39.03	-29.6	-32.1	15.1	0.00e+00	0	43	0	603979776	19	4794
2026-01-17 09:16:43.27	60.96	39.05	-29.8	-32.6	14.8	2.20e-06	0	43	0	606076928	19	4972
2026-01-17 09:16:44.27	60.51	39.07	-29.9	-32.9	14.6	0.00e+00	0	43	0	608174080	19	5048
2026-01-17 09:16:45.28	60.05	39.09	-30.0	-32.5	14.5	7.00e-07	0	43	0	610271232	20	4816
2026-01-17 09:16:46.28	59.60	39.11	-30.0	-32.5	14.5	3.00e-06	0	43	0	611319808	20	4832
2026-01-17 09:16:47.29	59.14	39.13	-30.1	-32.8	14.3	1.50e-06	0	43	0	613416960	20	4936
2026-01-17 09:16:48.29	58.69	39.14	-30.2	-33.1	14.2	3.00e-06	0	43	0	615514112	20	5037
2026-01-17 09:16:49.30	58.23	39.15	-30.5	-33.4	13.7	4.50e-06	0	43	0	617611264	21	5034
2026-01-17 09:16:50.30	57.78	39.16	-30.6	-33.6	13.5	1.06e-05	0	43	0	619708416	21	5093
2026-01-17 09:16:51.30	57.32	39.17	-30.8	-34.2	13.2	1.60e-05	0	43	0	620756992	21	5318
2026-01-17 09:16:52.30	56.87	39.18	-30.9	-34.0	12.9	4.88e-05	0	43	0	622854144	22	5159
2026-01-17 09:16:53.29	56.42	39.18	-30.9	-33.9	13.0	3.96e-05	0	43	0	624951296	22	5120
2026-01-17 09:16:54.29	55.97	39.18	-30.8	-33.6	13.2	1.90e-05	0	43	0	627048448	22	4996
2026-01-17 09:16:55.29	55.51	39.18	-30.7	-33.4	13.3	3.05e-05	0	43	0	628097024	22	4934
2026-01-17 09:16:56.29	55.06	39.18	-30.7	-33.4	13.3	1.75e-05	0	43	0	630194176	22	4923
2026-01-17 09:16:57.29	54.61	39.17	-30.7	-33.4	13.4	1.83e-05	0	43	0	632291328	22	4928
2026-01-17 09:16:58.30	54.15	39.16	-30.9	-33.9	12.9	2.97e-05	0	43	0	634388480	22	5123
2026-01-17 09:16:59.30	53.70	39.16	-31.1	-34.7	12.5	9.15e-05	0	43	0	636485632	22	5441
2026-01-17 09:17:00.30	53.24	39.14	-31.1	-34.7	12.4	1.82e-04	0	43	0	637534208	22	5441
2026-01-17 09:17:01.31	52.79	39.13	-31.1	-34.7	12.4	1.65e-04	0	43	0	639631360	22	5421
2026-01-17 09:17:02.31	52.33	39.12	-31.3	-35.1	12.2	1.57e-04	0	43	0	641728512	22	5599
2026-01-17 09:17:03.31	51.88	39.10	-31.3	-35.2	12.0	2.75e-04	0	43	0	643825664	22	5665
2026-01-17 09:17:04.32	51.43	39.08	-31.5	-35.4	11.6	4.57e-04	0	43	0	645922816	23	5619
2026-01-17 09:17:05.31	50.98	39.06	-31.6	-35.7	11.4	8.66e-04	0	43	0	646971392	23	5773
2026-01-17 09:17:06.31	50.53	39.04	-31.6	-35.6	11.4	1.27e-03	0	43	0	649068544	23	5729
2026-01-17 09:17:07.31	50.08	39.01	-31.7	-35.8	11.3	1.02e-03	0	43	0	651165696	23	5801
2026-01-17 09:17:08.31	49.63	38.98	-31.8	-36.2	11.0	1.31e-03	0	43	0	653262848	23	6000
2026-01-17 09:17:09.31	49.18	38.95	-31.9	-36.6	10.7	2.66e-03	0	43	0	655360000	23	6173
2026-01-17 09:17:10.31	48.74	38.92	-32.0	-36.8	10.5	2.95e-03	0	43	0	656408576	23	6300
2026-01-17 09:17:11.31	48.29	38.89	-32.0	-36.8	10.5	3.23e-03	0	43	0	658505728	23	6313
2026-01-17 09:17:12.31	47.85	38.86	-32.1	-36.8	10.2	6.00e-03	0	43	0	660602880	24	6184
2026-01-17 09:17:13.30	47.41	38.82	-32.1	-36.8	10.2	6.40e-03	0	43	0	662700032	24	6172
2026-01-17 09:17:14.30	46.96	38.78	-32.2	-37.3	9.9	1.02e-02	0	43	0	663748608	24	6425
2026-01-17 09:17:15.30	46.52	38.74	-32.2	-37.1	10.0	9.62e-03	0	43	0	665845760	24	6322
2026-01-17 09:17:16.30	46.08	38.70	-32.4	-37.9	9.3	1.47e-02	0	43	0	667942912	24	6783
2026-01-17 09:17:17.30	45.64	38.65	-32.4	-37.5	9.3	2.32e-02	0	43	0	670040064	25	6450
2026-01-17 09:17:18.30	45.20	38.61	-32.4	-37.3	9.4	1.82e-02	0	43	0	672137216	25	6369
2026-01-17 09:17:19.30	44.77	38.56	-32.4	-37.4	9.2	1.29e-02	0	43	0	673185792	25	6432
2026-01-17 09:17:20.30	44.33	38.51	-32.4	-37.6	9.1	2.16e-02	0	43	0	675282944	25	6510
2026-01-17 09:17:21.30	43.89	38.46	-32.2	-36.8	9.8	1.32e-02	0	43	0	677380096	25	6079
2026-01-17 09:17:22.30	43.46	38.40	-32.1	-36.5	10.1	8.24e-03	0	43	0	679477248	25	5929
2026-01-17 09:17:23.29	43.03	38.35	-32.1	-36.2	10.2	7.30e-03	0	43	0	681574400	25	5805
2026-01-17 09:17:24.30	42.60	38.29	-32.1	-36.3	10.1	7.86e-03	0	43	0	682622976	25	5872
2026-01-17 09:17:25.30	42.17	38.23	-31.8	-35.7	11.0	2.79e-03	0	43	0	684720128	24	5663
2026-01-17 09:17:26.30	41.74	38.17	-31.6	-35.1	11.4	1.26e-03	0	43	0	686817280	24	5416
2026-01-17 09:17:27.30	41.32	38.11	-31.6	-35.2	11.4	7.35e-04	0	43	0	688914432	24	5422
2026-01-17 09:17:28.30	40.90	38.05	-31.6	-35.2	11.3	1.24e-03	0	43	0	689963008	24	5430
2026-01-17 09:17:29.30	40.47	37.98	-30.9	-33.7	12.7	2.04e-04	0	43	0	692060160	23	4942
2026-01-17 09:17:30.29	40.06	37.91	-30.7	-33.4	13.2	2.36e-05	0	43	0	694157312	22	4935
2026-01-17 09:17:31.30	39.64	37.85	-30.5	-32.9	13.6	1.06e-05	0	43	0	696254464	22	4750
2026-01-17 09:17:32.30	39.22	37.77	-30.4	-32.7	13.6	5.30e-06	0	43	0	698351616	22	4699
2026-01-17 09:17:33.29	38.81	37.70	-30.3	-32.8	13.9	7.00e-07	0	43	0	699400192	21	4840
2026-01-17 09:17:34.29	38.40	37.63	-30.2	-32.7	14.1	3.00e-06	0	43	0	701497344	21	4774
2026-01-17 09:17:35.29	37.98	37.56	-30.0	-32.2	14.3	4.50e-06	0	43	0	703594496	21	4630
2026-01-17 09:17:36.29	37.58	37.48	-29.7	-31.9	14.8	7.00e-07	0	43	0	705691648	20	4630
2026-01-17 09:17:37.29	37.17	37.40	-29.5	-31.3	15.1	0.00e+00	0	43	0	707788800	20	4438
2026-01-17 09:17:38.29	36.76	37.32	-29.4	-31.1	15.3	0.00e+00	0	43	0	708837376	20	4378
2026-01-17 09:17:39.29	36.36	37.24	-29.4	-31.2	15.2	0.00e+00	0	43	0	710934528	20	4411
2026-01-17 09:17:40.29	35.96	37.16	-29.5	-31.3	15.2	0.00e+00	0	43	0	713031680	20	4440
2026-01-17 09:17:41.28	35.56	37.08	-29.4	-31.2	15.2	0.00e+00	0	43	0	715128832	20	4423
2026-01-17 09:17:42.28	35.17	36.99	-29.4	-31.5	15.4	0.00e+00	0	43	0	716177408	19	4604
2026-01-17 09:17:43.28	34.77	36.90	-29.7	-32.4	14.8	0.00e+00	0	43	0	718274560	19	4908
2026-01-17 09:17:44.28	34.38	36.82	-29.6	-32.0	15.1	0.00e+00	0	43	0	720371712	19	4778
2026-01-17 09:17:45.28	33.99	36.73	-29.8	-32.1	14.6	7.00e-07	0	43	0	722468864	20	4704
2026-01-17 09:17:46.28	33.60	36.64	-29.4	-31.1	15.3	0.00e+00	0	43	0	724566016	20	4382
2026-01-17 09:17:47.29	33.21	36.55	-29.4	-31.2	15.2	0.00e+00	0	43	0	725614592	20	4417
2026-01-17 09:17:48.29	32.83	36.45	-29.5	-31.4	15.1	0.00e+00	0	43	0	727711744	20	4458
2026-01-17 09:17:49.29	32.44	36.36	-29.6	-31.5	15.0	0.00e+00	0	43	0	729808896	20	4515
2026-01-17 09:17:50.29	32.06	36.26	-29.8	-32.1	14.7	7.00e-07	0	43	0	731906048	20	4695
2026-01-17 09:17:51.29	31.69	36.17	-29.9	-32.3	14.5	1.50e-06	0	43	0	734003200	20	4773
2026-01-17 09:17:52.29	31.31	36.07	-30.0	-32.7	14.2	1.50e-06	0	43	0	735051776	20	4907
2026-01-17 09:17:53.30	30.93	35.97	-30.0	-32.6	14.3	3.00e-06	0	43	0	737148928	20	4859
2026-01-17 09:17:54.30	30.56	35.87	-29.9	-32.3	14.5	7.00e-07	0	43	0	739246080	20	4745
2026-01-17 09:17:55.30	30.20	35.77	-29.9	-32.5	14.4	3.00e-06	0	43	0	741343232	20	4840
2026-01-17 09:17:56.30	29.83	35.67	-30.2	-33.2	14.0	3.00e-06	0	43	0	743440384	20	5072
2026-01-17 09:17:57.31	29.46	35.57	-30.3	-33.5	13.7	2.20e-06	0	43	0	744488960	20	5191
2026-01-17 09:17:58.31	29.10	35.46	-30.4	-33.7	13.7	3.80e-06	0	43	0	746586112	20	5267
2026-01-17 09:17:59.31	28.74	35.36	-30.5	-33.9	13.5	1.22e-05	0	43	0	748683264	20	5353
2026-01-17 09:18:00.31	28.39	35.25	-30.5	-33.5	13.4	1.60e-05	0	43	0	750780416	21	5082
2026-01-17 09:18:01.31	28.03	35.15	-30.6	-33.8	13.2	1.67e-05	0	43	0	752877568	21	5190
2026-01-17 09:18:02.32	27.68	35.04	-30.6	-33.7	13.3	2.13e-05	0	43	0	753926144	21	5144
2026-01-17 09:18:03.32	27.33	34.93	-30.5	-33.6	13.3	1.60e-05	0	43	0	756023296	21	5126
2026-01-17 09:18:04.32	26.98	34.82	-30.6	-33.7	13.3	2.59e-05	0	43	0	758120448	21	5146
2026-01-17 09:18:05.32	26.63	34.71	-30.4	-33.2	13.6	1.60e-05	0	43	0	760217600	21	4975
2026-01-17 09:18:06.32	26.29	34.60	-30.3	-32.9	13.8	6.80e-06	0	43	0	761266176	21	4864
2026-01-17 09:18:07.32	25.95	34.49	-30.3	-32.8	13.9	3.00e-06	0	43	0	763363328	21	4847
2026-01-17 09:18:08.32	25.61	34.38	-30.2	-32.6	14.0	5.30e-06	0	43	0	765460480	21	4761
2026-01-17 09:18:09.32	25.28	34.27	-30.2	-32.6	14.0	2.20e-06	0	43	0	767557632	21	4744
2026-01-17 09:18:10.32	24.94	34.15	-30.1	-32.5	14.0	7.00e-07	0	43	0	769654784	21	4723
2026-01-17 09:18:11.32	24.61	34.04	-30.3	-32.8	13.8	1.50e-06	0	43	0	770703360	21	4838
2026-01-17 09:18:12.32	24.28	33.92	-30.4	-33.3	13.6	5.30e-06	0	43	0	772800512	21	4993
2026-01-17 09:18:13.33	23.95	33.81	-30.4	-33.2	13.6	1.06e-05	0	43	0	774897664	21	4977
2026-01-17 09:18:14.32	23.63	33.69	-30.7	-34.0	13.0	1.98e-05	0	43	0	776994816	21	5293
2026-01-17 09:18:15.33	23.31	33.58	-30.7	-34.0	13.0	2.74e-05	0	43	0	779091968	21	5269
2026-01-17 09:18:16.33	22.99	33.46	-30.6	-33.8	13.1	2.51e-05	0	43	0	780140544	21	5193
2026-01-17 09:18:17.34	22.67	33.34	-30.7	-34.0	13.0	3.35e-05	0	43	0	782237696	21	5284
2026-01-17 09:18:18.34	22.35	33.22	-30.8	-34.4	12.7	4.34e-05	0	43	0	784334848	21	5437
2026-01-17 09:18:19.34	22.04	33.10	-31.1	-34.6	12.3	1.43e-04	0	43	0	786432000	22	5429
2026-01-17 09:18:20.34	21.73	32.98	-31.1	-34.8	12.2	2.05e-04	0	43	0	788529152	22	5504
2026-01-17 09:18:21.34	21.43	32.86	-31.3	-35.4	11.7	3.48e-04	0	43	0	789577728	22	5764
2026-01-17 09:18:22.34	21.12	32.74	-31.2	-35.1	11.9	6.97e-04	0	43	0	791674880	22	5614
2026-01-17 09:18:23.34	20.82	32.62	-31.3	-35.2	11.8	4.03e-04	0	43	0	793772032	22	5679
2026-01-17 09:18:24.35	20.51	32.50	-31.3	-35.2	11.8	4.90e-04	0	43	0	795869184	22	5678
2026-01-17 09:18:25.35	20.21	32.38	-31.5	-35.8	11.4	4.75e-04	0	43	0	797966336	22	5938
2026-01-17 09:18:26.35	19.92	32.26	-31.5	-35.5	11.3	1.08e-03	0	43	0	799014912	23	5692
2026-01-17 09:18:27.35	19.62	32.13	-31.6	-35.7	11.2	1.04e-03	0	43	0	801112064	23	5801
2026-01-17 09:18:28.34	19.33	32.01	-31.6	-35.7	11.1	1.51e-03	0	43	0	803209216	23	5815
2026-01-17 09:18:29.34	19.05	31.89	-31.6	-35.9	11.0	1.81e-03	0	43	0	805306368	23	5886
2026-01-17 09:18:30.34	18.76	31.77	-31.5	-35.6	11.1	1.41e-03	0	43	0	806354944	23	5750
2026-01-17 09:18:31.34	18.47	31.64	-31.6	-35.9	11.0	1.59e-03	0	43	0	808452096	23	5893
2026-01-17 09:18:32.33	18.19	31.52	-31.6	-35.8	11.0	1.98e-03	0	43	0	810549248	23	5829
2026-01-17 09:18:33.33	17.91	31.40	-31.6	-35.8	11.0	1.82e-03	0	43	0	812646400	23	5842
2026-01-17 09:18:34.33	17.63	31.27	-31.8	-36.6	10.4	2.61e-03	0	43	0	814743552	23	6236
2026-01-17 09:18:35.33	17.36	31.15	-32.0	-36.8	9.9	6.95e-03	0	43	0	815792128	24	6217
2026-01-17 09:18:36.33	17.08	31.02	-32.1	-37.0	9.8	9.17e-03	0	43	0	817889280	24	6336
2026-01-17 09:18:37.33	16.81	30.90	-32.0	-36.6	10.1	8.63e-03	0	43	0	819986432	24	6120
2026-01-17 09:18:38.33	16.54	30.77	-31.8	-36.1	10.5	4.35e-03	0	43	0	822083584	24	5880
2026-01-17 09:18:39.33	16.27	30.65	-31.9	-36.2	10.3	4.61e-03	0	43	0	823132160	24	5956
2026-01-17 09:18:40.33	16.01	30.52	-31.9	-36.5	10.1	8.42e-03	0	43	0	825229312	24	6093
2026-01-17 09:18:41.33	15.74	30.40	-31.8	-36.0	10.5	4.75e-03	0	43	0	827326464	24	5836
2026-01-17 09:18:42.33	15.48	30.27	-31.9	-36.5	10.1	6.33e-03	0	43	0	829423616	24	6100
2026-01-17 09:18:43.34	15.22	30.15	-31.8	-36.0	10.5	5.40e-03	0	43	0	831520768	24	5835
2026-01-17 09:18:44.34	14.96	30.02	-31.6	-35.3	11.0	2.13e-03	0	43	0	832569344	24	5509
2026-01-17 09:18:45.33	14.71	29.90	-31.5	-34.9	11.2	1.66e-03	0	43	0	834666496	24	5354
2026-01-17 09:18:46.33	14.45	29.77	-31.3	-34.6	11.5	8.92e-04	0	43	0	836763648	24	5216
2026-01-17 09:18:47.33	14.20	29.64	-31.3	-34.4	11.6	8.86e-04	0	43	0	838860800	24	5167
2026-01-17 09:18:48.33	13.95	29.52	-31.2	-34.7	11.7	6.15e-04	0	43	0	840957952	23	5384
2026-01-17 09:18:49.33	13.70	29.39	-30.9	-33.7	12.4	2.53e-04	0	43	0	842006528	23	4963
2026-01-17 09:18:50.33	13.46	29.26	-30.7	-33.8	12.7	8.85e-05	0	43	0	844103680	22	5111
2026-01-17 09:18:51.33	13.21	29.14	-30.7	-33.8	12.7	1.01e-04	0	43	0	846200832	22	5124
2026-01-17 09:18:52.33	12.97	29.01	-30.8	-34.1	12.5	9.61e-05	0	43	0	848297984	22	5238
2026-01-17 09:18:53.33	12.73	28.89	-30.9	-34.3	12.2	2.34e-04	0	43	0	850395136	22	5333
2026-01-17 09:18:54.33	12.50	28.76	-30.8	-33.9	12.5	1.16e-04	0	43	0	851443712	22	5178
2026-01-17 09:18:55.33	12.26	28.63	-30.6	-33.3	12.9	7.40e-05	0	43	0	853540864	22	4944
2026-01-17 09:18:56.33	12.02	28.51	-30.5	-33.2	13.0	4.34e-05	0	43	0	855638016	22	4903
2026-01-17 09:18:57.33	11.79	28.38	-30.5	-33.2	13.0	4.57e-05	0	43	0	857735168	22	4904
2026-01-17 09:18:58.33	11.56	28.25	-30.5	-33.2	13.1	3.05e-05	0	43	0	858783744	22	4882
2026-01-17 09:18:59.33	11.33	28.13	-30.7	-33.6	12.7	6.25e-05	0	43	0	860880896	22	5069
2026-01-17 09:19:00.34	11.10	28.00	-30.5	-33.4	12.9	4.73e-05	0	43	0	862978048	22	4982
2026-01-17 09:19:01.34	10.88	27.87	-30.5	-33.4	12.8	5.03e-05	0	43	0	865075200	22	5025
2026-01-17 09:19:02.34	10.66	27.75	-30.4	-33.3	12.8	5.72e-05	0	43	0	867172352	22	5045
2026-01-17 09:19:03.34	10.43	27.62	-30.3	-33.0	13.1	4.65e-05	0	43	0	868220928	22	4875
2026-01-17 09:19:04.35	10.21	27.50	-30.3	-33.2	13.3	2.44e-05	0	43	0	870318080	21	5044
2026-01-17 09:19:05.35	9.99	27.37	-30.3	-33.1	13.3	1.90e-05	0	43	0	872415232	21	4985
2026-01-17 09:19:06.36	9.78	27.24	-30.3	-33.0	13.4	1.90e-05	0	43	0	874512384	21	4944
2026-01-17 09:19:07.36	9.56	27.12	-30.4	-33.4	13.1	2.36e-05	0	43	0	876609536	21	5097
2026-01-17 09:19:08.35	9.35	26.99	-30.4	-33.5	12.8	6.02e-05	0	43	0	877658112	21	5120
2026-01-17 09:19:09.35	9.14	26.87	-30.2	-33.1	12.9	3.35e-05	0	43	0	879755264	21	4997
2026-01-17 09:19:10.36	8.93	26.74	-30.3	-33.3	12.8	5.56e-05	0	43	0	881852416	21	5071
2026-01-17 09:19:11.35	8.72	26.62	-30.3	-33.2	12.9	5.03e-05	0	43	0	883949568	21	5039
2026-01-17 09:19:12.35	8.52	26.50	-30.3	-33.0	13.2	3.73e-05	0	43	0	886046720	21	4962
2026-01-17 09:19:13.35	8.31	26.37	-30.2	-32.8	13.5	1.60e-05	0	43	0	887095296	21	4857
2026-01-17 09:19:14.35	8.11	26.25	-30.2	-32.9	13.4	1.14e-05	0	43	0	889192448	21	4897
2026-01-17 09:19:15.36	7.91	26.12	-30.2	-32.7	13.5	1.44e-05	0	43	0	891289600	21	4825
2026-01-17 09:19:16.35	7.71	26.00	-30.1	-32.5	13.7	9.90e-06	0	43	0	893386752	21	4756
2026-01-17 09:19:17.35	7.51	25.87	-30.0	-32.3	13.8	4.50e-06	0	43	0	895483904	21	4695
2026-01-17 09:19:18.36	7.31	25.75	-30.0	-32.4	13.5	1.37e-05	0	43	0	896532480	21	4728
2026-01-17 09:19:19.36	7.12	25.63	-30.0	-32.4	13.0	1.37e-05	0	43	0	898629632	21	4722
2026-01-17 09:19:20.37	6.92	25.50	-30.0	-32.5	12.5	4.11e-05	0	43	0	900726784	21	4795
2026-01-17 09:19:21.37	6.73	25.38	-30.1	-32.6	12.0	1.89e-04	0	43	0	902823936	21	4843
2026-01-17 09:19:22.37	6.54	25.26	-30.1	-32.7	11.9	2.62e-04	0	43	0	903872512	21	4884
2026-01-17 09:19:23.36	6.35	25.14	-30.2	-33.0	11.7	4.06e-04	0	43	0	905969664	21	4987
2026-01-17 09:19:24.37	6.16	25.01	-30.3	-33.2	11.9	3.08e-04	0	43	0	908066816	21	5049
2026-01-17 09:19:25.37	5.98	24.89	-30.2	-33.1	12.2	1.49e-04	0	43	0	910163968	21	4998
2026-01-17 09:19:26.37	5.79	24.77	-30.3	-33.2	12.2	1.26e-04	0	43	0	912261120	21	5056
2026-01-17 09:19:27.37	5.61	24.65	-30.3	-33.4	12.0	2.33e-04	0	43	0	913309696	21	5107
2026-01-17 09:19:28.37	5.43	24.53	-30.3	-33.3	12.1	2.26e-04	0	43	0	915406848	21	5063
2026-01-17 09:19:29.37	5.25	24.40	-30.5	-33.6	12.0	2.30e-04	0	43	0	917504000	21	5187
2026-01-17 09:19:30.37	5.07	24.28	-30.5	-33.7	12.2	2.39e-04	0	43	0	919601152	21	5225
2026-01-17 09:19:31.36	4.89	24.16	-30.5	-33.8	12.4	1.83e-04	0	43	0	921698304	21	5240
2026-01-17 09:19:32.37	4.72	24.04	-30.6	-34.0	12.4	1.23e-04	0	43	0	922746880	21	5343
2026-01-17 09:19:33.37	4.54	23.92	-30.7	-34.3	12.3	1.39e-04	0	43	0	924844032	21	5446
2026-01-17 09:19:34.37	4.37	23.80	-30.7	-34.2	12.3	1.19e-04	0	43	0	926941184	21	5413
2026-01-17 09:19:35.37	4.20	23.68	-30.7	-34.2	12.2	1.35e-04	0	43	0	929038336	21	5424
2026-01-17 09:19:36.37	4.03	23.56	-30.8	-34.7	11.9	4.63e-04	0	43	0	931135488	21	5627
2026-01-17 09:19:37.37	3.86	23.45	-30.7	-34.3	12.2	2.94e-04	0	43	0	932184064	21	5469
2026-01-17 09:19:38.36	3.69	23.33	-30.9	-34.5	11.8	4.07e-04	0	43	0	934281216	22	5421
2026-01-17 09:19:39.37	3.52	23.21	-31.2	-35.4	11.2	7.39e-04	0	43	0	936378368	22	5795
2026-01-17 09:19:40.37	3.36	23.09	-30.9	-34.4	11.9	9.88e-04	0	43	0	938475520	22	5382
2026-01-17 09:19:41.38	3.19	22.97	-31.0	-34.6	11.8	5.89e-04	0	43	0	939524096	22	5462
2026-01-17 09:19:42.38	3.03	22.85	-31.1	-34.9	11.6	8.28e-04	0	43	0	941621248	22	5589
2026-01-17 09:19:43.38	2.87	22.74	-31.1	-35.1	11.5	5.38e-04	0	43	0	943718400	22	5667
2026-01-17 09:19:44.39	2.70	22.62	-31.1	-35.0	11.6	1.06e-03	0	43	0	945815552	22	5620
2026-01-17 09:19:45.40	2.54	22.50	-31.1	-34.9	11.7	6.88e-04	0	43	0	947912704	22	5583
2026-01-17 09:19:46.40	2.39	22.38	-31.4	-36.1	10.9	2.41e-03	0	43	0	948961280	22	6143
2026-01-17 09:19:47.41	2.23	22.27	-30.9	-34.4	12.1	5.12e-04	0	43	0	951058432	22	5379
2026-01-17 09:19:48.41	2.07	22.15	-30.9	-34.3	12.1	2.32e-04	0	43	0	953155584	22	5336
2026-01-17 09:19:49.41	1.92	22.04	-30.5	-33.2	12.7	7.78e-05	0	43	0	955252736	22	4904
2026-01-17 09:19:50.41	1.76	21.92	-30.4	-33.0	12.7	5.56e-05	0	43	0	957349888	22	4856
2026-01-17 09:19:51.41	1.61	21.81	-30.3	-32.7	12.8	5.72e-05	0	43	0	958398464	22	4746
2026-01-17 09:19:52.41	1.46	21.69	-30.3	-32.7	12.8	6.94e-05	0	43	0	960495616	22	4749
2026-01-17 09:19:53.41	1.31	21.58	-30.3	-32.7	12.9	5.87e-05	0	43	0	962592768	22	4734
2026-01-17 09:19:54.41	1.16	21.46	-30.4	-33.1	12.8	3.81e-05	0	43	0	964689920	22	4870
2026-01-17 09:19:55.41	1.02	21.35	-30.5	-33.3	12.7	5.34e-05	0	43	0	966787072	22	4969
2026-01-17 09:19:56.41	0.87	21.24	-30.5	-33.4	12.7	6.94e-05	0	43	0	967835648	22	4982
2026-01-17 09:19:57.41	0.72	21.12	-30.6	-33.6	12.5	1.13e-04	0	43	0	969932800	22	5094
2026-01-17 09:19:58.41	0.58	21.01	-30.7	-34.0	12.2	1.55e-04	0	43	0	972029952	22	5239
2026-01-17 09:19:59.41	0.44	20.90	-30.8	-34.2	12.1	2.92e-04	0	43	0	974127104	22	5308
2026-01-17 09:20:00.40	0.30	20.79	-30.9	-34.3	12.0	3.05e-04	0	43	0	975175680	22	5374
2026-01-17 09:20:01.41	0.15	20.67	-30.9	-34.5	11.9	3.32e-04	0	43	0	977272832	22	5424
2026-01-17 09:20:02.40	0.01	20.56	-30.8	-34.3	12.1	4.49e-04	0	43	0	979369984	22	5347
2026-01-17 09:20:03.41	359.87	20.45	-30.7	-34.0	12.3	2.10e-04	0	43	0	981467136	22	5222
2026-01-17 09:20:04.41	359.74	20.34	-30.7	-34.0	12.3	2.04e-04	0	43	0	983564288	22	5237
2026-01-17 09:20:05.41	359.60	20.23	-30.8	-34.1	12.2	1.69e-04	0	43	0	984612864	22	5258
2026-01-17 09:20:06.42	359.46	20.12	-30.7	-33.9	12.3	2.14e-04	0	43	0	986710016	22	5216
2026-01-17 09:20:07.42	359.33	20.01	-30.5	-33.4	12.7	8.77e-05	0	43	0	988807168	22	4985
2026-01-17 09:20:08.42	359.19	19.90	-30.4	-33.1	12.9	6.63e-05	0	43	0	990904320	22	4887
2026-01-17 09:20:09.42	359.06	19.79	-30.4	-33.1	12.9	5.56e-05	0	43	0	993001472	22	4898
2026-01-17 09:20:10.43	358.93	19.68	-30.4	-33.0	12.9	5.79e-05	0	43	0	994050048	22	4860
2026-01-17 09:20:11.43	358.80	19.57	-30.4	-32.9	13.0	3.66e-05	0	43	0	996147200	22	4825
2026-01-17 09:20:12.43	358.67	19.46	-30.4	-33.1	12.8	3.12e-05	0	43	0	998244352	22	4899
2026-01-17 09:20:13.44	358.54	19.35	-30.4	-33.1	12.8	6.63e-05	0	43	0	1000341504	22	4915
2026-01-17 09:20:14.44	358.41	19.25	-30.4	-33.0	12.9	4.95e-05	0	43	0	1002438656	22	4847
2026-01-17 09:20:15.44	358.28	19.14	-30.4	-33.0	12.9	3.96e-05	0	43	0	1003487232	22	4854
2026-01-17 09:20:16.45	358.15	19.03	-30.5	-33.4	12.6	8.39e-05	0	43	0	1005584384	22	5007
2026-01-17 09:20:17.45	358.03	18.92	-30.6	-33.5	12.5	1.26e-04	0	43	0	1007681536	22	5060
2026-01-17 09:20:18.45	357.90	18.82	-30.5	-33.4	12.6	8.39e-05	0	43	0	1009778688	22	5015
2026-01-17 09:20:19.45	357.78	18.71	-30.6	-33.6	12.4	1.11e-04	0	43	0	1011875840	22	5086
2026-01-17 09:20:20.46	357.66	18.60	-30.7	-33.8	12.3	1.65e-04	0	43	0	1012924416	22	5187
2026-01-17 09:20:21.46	357.53	18.50	-30.7	-33.9	12.2	2.58e-04	0	43	0	1015021568	22	5229
2026-01-17 09:20:22.47	357.41	18.39	-30.5	-33.4	12.5	1.30e-04	0	43	0	1017118720	22	5021
2026-01-17 09:20:23.47	357.29	18.29	-30.5	-33.2	12.7	7.17e-05	0	43	0	1019215872	22	4942
2026-01-17 09:20:24.46	357.17	18.18	-30.4	-33.1	12.8	7.32e-05	0	43	0	1021313024	22	4909
2026-01-17 09:20:25.46	357.06	18.08	-30.5	-33.4	12.6	6.86e-05	0	43	0	1022361600	22	5006
2026-01-17 09:20:26.46	356.94	17.98	-30.5	-33.4	12.6	1.01e-04	0	43	0	1024458752	22	4997
2026-01-17 09:20:27.46	356.82	17.87	-30.4	-33.0	12.9	5.56e-05	0	43	0	1026555904	22	4882
2026-01-17 09:20:28.46	356.71	17.77	-30.3	-32.9	12.9	4.34e-05	0	43	0	1028653056	22	4835
2026-01-17 09:20:29.46	356.59	17.67	-30.3	-33.2	13.0	3.43e-05	0	43	0	1029701632	21	5040
2026-01-17 09:20:30.46	356.48	17.56	-30.3	-33.2	13.0	4.11e-05	0	43	0	1031798784	21	5049
2026-01-17 09:20:31.46	356.36	17.46	-30.2	-33.1	13.1	2.21e-05	0	43	0	1033895936	21	5011
2026-01-17 09:20:32.46	356.25	17.36	-30.2	-32.9	13.2	4.19e-05	0	43	0	1035993088	21	4950
2026-01-17 09:20:33.47	356.14	17.26	-30.1	-32.8	13.2	1.90e-05	0	43	0	1038090240	21	4914
2026-01-17 09:20:34.47	356.03	17.16	-30.1	-32.8	13.3	1.83e-05	0	43	0	1039138816	21	4886
2026-01-17 09:20:35.47	355.91	17.05	-30.1	-32.9	13.2	1.75e-05	0	43	0	1041235968	21	4927
2026-01-17 09:20:36.47	355.81	16.95	-30.1	-32.8	13.2	2.28e-05	0	43	0	1043333120	21	4914
2026-01-17 09:20:37.47	355.70	16.85	-30.1	-32.9	13.2	2.21e-05	0	43	0	1045430272	21	4927
2026-01-17 09:20:38.47	355.59	16.75	-30.2	-33.1	13.0	1.83e-05	0	43	0	1047527424	21	5018
2026-01-17 09:20:39.48	355.48	16.65	-30.3	-33.2	12.9	4.11e-05	0	43	0	1048576000	21	5066
2026-01-17 09:20:40.48	355.37	16.55	-30.3	-33.4	12.8	5.03e-05	0	43	0	1050673152	21	5134
2026-01-17 09:20:41.48	355.27	16.45	-30.4	-33.7	12.6	8.54e-05	0	43	0	1052770304	21	5244
2026-01-17 09:20:42.47	355.16	16.35	-30.3	-33.5	12.8	7.55e-05	0	43	0	1054867456	21	5153
2026-01-17 09:20:43.48	355.06	16.25	-30.4	-33.8	12.6	8.85e-05	0	43	0	1055916032	21	5277
2026-01-17 09:20:44.48	354.95	16.16	-30.6	-34.1	12.3	1.49e-04	0	43	0	1058013184	21	5404
2026-01-17 09:20:45.48	354.85	16.06	-30.6	-34.3	12.2	1.80e-04	0	43	0	1060110336	21	5476
2026-01-17 09:20:46.48	354.75	15.96	-30.6	-34.1	12.3	1.40e-04	0	43	0	1062207488	21	5431
2026-01-17 09:20:47.48	354.65	15.86	-30.6	-34.2	12.3	2.29e-04	0	43	0	1064304640	21	5440
2026-01-17 09:20:48.48	354.55	15.77	-30.5	-34.0	12.4	1.51e-04	0	43	0	1065353216	21	5388
2026-01-17 09:20:49.48	354.45	15.67	-30.5	-33.9	12.4	1.74e-04	0	43	0	1067450368	21	5348
2026-01-17 09:20:50.48	354.35	15.57	-30.5	-34.0	12.4	1.70e-04	0	43	0	1069547520	21	5379
2026-01-17 09:20:51.47	354.25	15.48	-30.6	-34.3	12.1	3.21e-04	0	43	0	1071644672	21	5506
2026-01-17 09:20:52.48	354.15	15.38	-30.5	-33.9	12.4	1.81e-04	0	43	0	1073741824	21	5330
2026-01-17 09:20:53.49	354.05	15.28	-30.5	-33.9	12.4	9.84e-05	0	43	0	1074790400	21	5336
2026-01-17 09:20:54.50	353.95	15.19	-30.5	-33.9	12.4	1.72e-04	0	43	0	1076887552	21	5336
2026-01-17 09:20:55.50	353.86	15.09	-30.5	-33.9	12.4	1.56e-04	0	43	0	1078984704	21	5338
2026-01-17 09:20:56.50	353.76	15.00	-30.6	-34.2	12.2	1.82e-04	0	43	0	1081081856	21	5461
2026-01-17 09:20:57.50	353.66	14.90	-30.6	-34.1	12.2	2.56e-04	0	43	0	1083179008	21	5440
2026-01-17 09:20:58.50	353.57	14.81	-30.7	-34.6	11.9	2.14e-04	0	43	0	1084227584	21	5640
2026-01-17 09:20:59.49	353.48	14.71	-30.7	-34.5	12.0	4.99e-04	0	43	0	1086324736	21	5594
2026-01-17 09:21:00.50	353.38	14.62	-30.7	-34.6	12.0	3.20e-04	0	43	0	1088421888	21	5613
2026-01-17 09:21:01.50	353.29	14.53	-30.6	-34.3	12.1	3.03e-04	0	43	0	1090519040	21	5524
2026-01-17 09:21:02.50	353.20	14.43	-30.8	-34.8	11.8	3.72e-04	0	43	0	1091567616	21	5704
2026-01-17 09:21:03.50	353.11	14.34	-30.9	-35.1	11.6	9.11e-04	0	43	0	1093664768	21	5831
2026-01-17 09:21:04.50	353.02	14.25	-30.8	-34.7	11.8	4.76e-04	0	43	0	1095761920	21	5690
2026-01-17 09:21:05.50	352.93	14.16	-30.8	-34.9	11.7	4.81e-04	0	43	0	1097859072	21	5777
2026-01-17 09:21:06.49	352.84	14.06	-30.8	-34.9	11.7	5.40e-04	0	43	0	1099956224	21	5786
2026-01-17 09:21:07.50	352.75	13.97	-30.8	-34.9	11.7	4.18e-04	0	43	0	1101004800	21	5766
2026-01-17 09:21:08.50	352.66	13.88	-30.9	-35.3	11.4	6.84e-04	0	43	0	1103101952	21	5963
2026-01-17 09:21:09.50	352.57	13.79	-31.0	-35.5	11.2	9.39e-04	0	43	0	1105199104	21	6039
2026-01-17 09:21:10.51	352.48	13.70	-31.1	-35.3	11.1	1.24e-03	0	43	0	1107296256	22	5860
2026-01-17 09:21:11.51	352.39	13.61	-31.4	-36.4	10.4	1.66e-03	0	43	0	1109393408	22	6370
2026-01-17 09:21:12.51	352.31	13.52	-31.2	-35.6	10.9	2.58e-03	0	43	0	1110441984	22	5958
2026-01-17 09:21:13.52	352.22	13.42	-31.1	-35.3	11.1	1.19e-03	0	43	0	1112539136	22	5848
2026-01-17 09:21:14.52	352.14	13.34	-31.1	-35.2	11.2	1.43e-03	0	43	0	1114636288	22	5775
2026-01-17 09:21:15.52	352.05	13.25	-31.1	-35.4	11.0	1.75e-03	0	43	0	1116733440	22	5896
2026-01-17 09:21:16.52	351.97	13.16	-31.1	-35.2	11.2	1.99e-03	0	43	0	1118830592	22	5789
2026-01-17 09:21:17.53	351.88	13.07	-31.1	-35.2	11.2	1.43e-03	0	43	0	1119879168	22	5768
2026-01-17 09:21:18.53	351.80	12.98	-31.0	-34.9	11.3	1.38e-03	0	43	0	1121976320	22	5682
2026-01-17 09:21:19.53	351.72	12.89	-31.0	-35.0	11.3	1.24e-03	0	43	0	1124073472	22	5719
2026-01-17 09:21:20.53	351.64	12.80	-31.0	-35.0	11.3	1.64e-03	0	43	0	1126170624	22	5697
2026-01-17 09:21:21.53	351.55	12.71	-31.1	-35.3	10.9	2.24e-03	0	43	0	1128267776	22	5865
2026-01-17 09:21:22.53	351.47	12.62	-31.1	-35.4	10.9	1.55e-03	0	43	0	1129316352	22	5895
2026-01-17 09:21:23.54	351.39	12.54	-31.1	-35.4	10.9	2.50e-03	0	43	0	1131413504	22	5908
2026-01-17 09:21:24.54	351.31	12.45	-31.1	-35.4	10.9	2.15e-03	0	43	0	1133510656	22	5928
2026-01-17 09:21:25.53	351.23	12.36	-31.1	-35.2	11.0	2.10e-03	0	43	0	1135607808	22	5824
2026-01-17 09:21:26.54	351.15	12.28	-31.1	-35.4	10.9	2.11e-03	0	43	0	1136656384	22	5898
2026-01-17 09:21:27.54	351.07	12.19	-31.1	-35.3	11.0	2.73e-03	0	43	0	1138753536	22	5836
2026-01-17 09:21:28.55	351.00	12.10	-31.1	-35.3	10.9	2.01e-03	0	43	0	1140850688	22	5876
2026-01-17 09:21:29.55	350.92	12.02	-31.1	-35.5	10.8	2.93e-03	0	43	0	1142947840	22	5967
2026-01-17 09:21:30.55	350.84	11.93	-31.1	-35.3	11.0	2.10e-03	0	43	0	1145044992	22	5849
2026-01-17 09:21:31.55	350.76	11.84	-31.0	-35.3	10.9	1.93e-03	0	43	0	1146093568	22	5853
2026-01-17 09:21:32.55	350.69	11.76	-31.0	-35.2	11.0	2.14e-03	0	43	0	1148190720	22	5829
2026-01-17 09:21:33.55	350.61	11.67	-31.0	-35.1	11.0	2.68e-03	0	43	0	1150287872	22	5794
2026-01-17 09:21:34.56	350.54	11.59	-31.2	-35.9	10.4	2.21e-03	0	43	0	1152385024	22	6184
2026-01-17 09:21:35.56	350.46	11.50	-31.2	-35.8	10.5	5.78e-03	0	43	0	1154482176	22	6109
2026-01-17 09:21:36.56	350.39	11.42	-31.3	-36.1	10.3	3.80e-03	0	43	0	1155530752	22	6251
2026-01-17 09:21:37.57	350.31	11.33	-31.1	-35.4	10.7	3.63e-03	0	43	0	1157627904	22	5945
2026-01-17 09:21:38.57	350.24	11.25	-31.1	-35.5	10.7	2.75e-03	0	43	0	1159725056	22	5965
2026-01-17 09:21:39.57	350.17	11.17	-31.1	-35.7	10.6	3.03e-03	0	43	0	1161822208	22	6060
2026-01-17 09:21:40.56	350.09	11.08	-31.1	-35.6	10.6	3.41e-03	0	43	0	1163919360	22	6014
2026-01-17 09:21:41.56	350.02	11.00	-31.1	-35.5	10.7	3.77e-03	0	43	0	1164967936	22	5975
2026-01-17 09:21:42.57	349.95	10.92	-31.1	-35.5	10.6	3.36e-03	0	43	0	1167065088	22	6000
2026-01-17 09:21:43.56	349.88	10.84	-31.2	-35.9	10.4	3.76e-03	0	43	0	1169162240	22	6176
2026-01-17 09:21:44.57	349.81	10.75	-31.2	-35.8	10.4	5.97e-03	0	43	0	1171259392	22	6147
2026-01-17 09:21:45.56	349.74	10.67	-31.0	-35.4	10.7	3.73e-03	0	43	0	1173356544	22	5950
2026-01-17 09:21:46.56	349.67	10.59	-30.9	-34.9	11.0	2.91e-03	0	43	0	1174405120	22	5704
2026-01-17 09:21:47.57	349.60	10.51	-31.0	-35.3	10.8	2.67e-03	0	43	0	1176502272	22	5896
2026-01-17 09:21:48.57	349.53	10.43	-31.0	-35.3	10.8	2.96e-03	0	43	0	1178599424	22	5912
2026-01-17 09:21:49.57	349.46	10.34	-31.0	-35.3	10.7	2.69e-03	0	43	0	1180696576	22	5920
2026-01-17 09:21:50.57	349.39	10.26	-31.1	-35.5	10.6	4.11e-03	0	43	0	1181745152	22	6009
2026-01-17 09:21:51.57	349.32	10.18	-31.1	-35.6	10.5	3.27e-03	0	43	0	1183842304	22	6047
2026-01-17 09:21:52.57	349.26	10.10	-31.0	-35.3	10.7	3.00e-03	0	43	0	1185939456	22	5894
2026-01-17 09:21:53.57	349.19	10.02	-31.1	-35.7	10.5	3.34e-03	0	43	0	1188036608	22	6077
2026-01-17 09:21:54.57	349.12	9.94	-31.1	-35.7	10.4	3.63e-03	0	43	0	1190133760	22	6081
2026-01-17 09:21:55.57	349.06	9.86	-31.1	-35.8	10.4	4.41e-03	0	43	0	1191182336	22	6130
2026-01-17 09:21:56.57	348.99	9.78	-31.2	-35.9	10.2	6.06e-03	0	43	0	1193279488	22	6203
2026-01-17 09:21:57.57	348.92	9.70	-31.1	-35.7	10.4	6.06e-03	0	43	0	1195376640	22	6109
2026-01-17 09:21:58.57	348.86	9.62	-31.2	-35.9	10.2	7.14e-03	0	43	0	1197473792	22	6183
2026-01-17 09:21:59.57	348.79	9.54	-31.2	-35.9	10.2	5.62e-03	0	43	0	1199570944	22	6227
2026-01-17 09:22:00.57	348.73	9.46	-31.1	-35.7	10.3	7.76e-03	0	43	0	1200619520	22	6117
2026-01-17 09:22:01.58	348.66	9.39	-31.3	-36.3	9.9	5.84e-03	0	43	0	1202716672	22	6418
2026-01-17 09:22:02.58	348.60	9.31	-31.2	-36.1	10.0	1.23e-02	0	43	0	1204813824	22	6321
2026-01-17 09:22:03.58	348.54	9.23	-31.2	-36.2	10.0	7.63e-03	0	43	0	1206910976	22	6366
2026-01-17 09:22:04.58	348.47	9.15	-31.2	-36.3	9.8	1.00e-02	0	43	0	1209008128	22	6423
2026-01-17 09:22:05.59	348.41	9.07	-31.2	-36.2	9.9	1.13e-02	0	43	0	1210056704	22	6375
2026-01-17 09:22:06.58	348.35	9.00	-31.3	-36.6	9.6	1.07e-02	0	43	0	1212153856	22	6583
2026-01-17 09:22:07.58	348.29	8.92	-31.4	-37.0	9.3	1.45e-02	0	43	0	1214251008	22	6813
2026-01-17 09:22:08.59	348.22	8.84	-31.3	-36.4	9.8	9.35e-03	0	43	0	1216348160	22	6466
2026-01-17 09:22:09.59	348.16	8.76	-31.3	-36.4	9.7	1.02e-02	0	43	0	1217396736	22	6494
2026-01-17 09:22:10.59	348.10	8.69	-31.2	-36.0	9.9	9.75e-03	0	43	0	1219493888	22	6301
2026-01-17 09:22:11.59	348.04	8.61	-31.2	-36.2	9.9	1.06e-02	0	43	0	1221591040	22	6404
2026-01-17 09:22:12.58	347.98	8.53	-31.0	-35.5	10.4	6.57e-03	0	43	0	1223688192	22	6047
2026-01-17 09:22:13.59	347.92	8.46	-31.3	-36.4	9.7	7.99e-03	0	43	0	1225785344	22	6507
2026-01-17 09:22:14.58	347.86	8.38	-31.2	-36.0	10.0	1.12e-02	0	43	0	1226833920	22	6295
2026-01-17 09:22:15.59	347.80	8.31	-31.1	-35.7	10.1	5.39e-03	0	43	0	1228931072	22	6159
2026-01-17 09:22:16.59	347.74	8.23	-31.0	-35.6	10.3	6.12e-03	0	43	0	1231028224	22	6099
2026-01-17 09:22:17.59	347.68	8.15	-31.1	-36.0	10.0	6.71e-03	0	43	0	1233125376	22	6283
2026-01-17 09:22:18.60	347.63	8.08	-31.0	-35.6	10.2	1.12e-02	0	43	0	1235222528	22	6087
2026-01-17 09:22:19.60	347.57	8.00	-31.3	-36.7	9.4	1.06e-02	0	43	0	1236271104	22	6669
2026-01-17 09:22:20.61	347.51	7.93	-31.2	-36.1	9.8	1.68e-02	0	43	0	1238368256	22	6385
2026-01-17 09:22:21.60	347.45	7.85	-31.2	-36.3	9.7	1.27e-02	0	43	0	1240465408	22	6449
2026-01-17 09:22:22.60	347.40	7.78	-31.2	-36.3	9.6	1.07e-02	0	43	0	1242562560	22	6481
2026-01-17 09:22:23.61	347.34	7.70	-31.2	-36.4	9.5	1.15e-02	0	43	0	1244659712	22	6560
2026-01-17 09:22:24.60	347.28	7.63	-31.4	-36.9	9.2	1.14e-02	0	43	0	1245708288	22	6838
2026-01-17 09:22:25.60	347.23	7.56	-31.2	-36.1	9.7	2.04e-02	0	43	0	1247805440	22	6378
2026-01-17 09:22:26.60	347.17	7.48	-31.1	-35.9	9.9	1.02e-02	0	43	0	1249902592	22	6292
2026-01-17 09:22:27.60	347.11	7.41	-31.2	-36.2	9.6	1.40e-02	0	43	0	1251999744	22	6448
2026-01-17 09:22:28.60	347.06	7.34	-31.2	-36.2	9.6	1.99e-02	0	43	0	1253048320	22	6466
2026-01-17 09:22:29.59	347.01	7.26	-31.2	-36.2	9.6	9.51e-03	0	43	0	1255145472	22	6457
2026-01-17 09:22:30.59	346.95	7.19	-31.2	-36.3	9.5	1.14e-02	0	43	0	1257242624	22	6512
2026-01-17 09:22:31.59	346.90	7.12	-31.2	-36.3	9.6	1.15e-02	0	43	0	1259339776	22	6483
2026-01-17 09:22:32.60	346.84	7.05	-33.0	-47.2	3.8	2.59e-02	0	43	104	1260388352	25	18565
2026-01-17 09:22:33.60	346.79	6.97	-33.2	-47.4	3.8	1.49e+00	0	43	104	1260388352	26	18310

#Closed at: 2026-01-17 09:22:34
#Recorded file [1260 MB]: D:/data/31010_260117_121119.dat