passes_logs/2026/01/17/R2M6_AANII_01/R2M6_AANII_01__20260117_031638_FENGYUN_3D_rec.log

#Pass ID: 20260117_031638_FENGYUN 3D
#Satellite: FENGYUN 3D
#Configuration: FENGYUN 3D
#almurnet v.1.7.20240730
#Start time: 2026-01-17 03:16:40

#Version: 2.2.20231116
#Station: R2M6_AANII_01
#Location: 30.233357 lon 59.946436 lat
#TLE: 1 43010U 17072A   26016.27214855  .00000192  00000+0  11235-3 0  9990
#TLE: 2 43010  98.9932 348.1078 0002365 105.5031 254.6406 14.19695933423435

#Time	Az	El	Level	Level2	SNR	BER	BlckErr	Temp	State	Recorded	gain1	gain2
2026-01-17 03:16:40.58	14.68	7.15	-30.4	-35.1	4.9	8.05e-01	0	41	0	0	20	6172
2026-01-17 03:16:41.59	14.64	7.23	-30.4	-35.0	5.0	8.03e-01	0	41	104	0	20	6093
2026-01-17 03:16:42.59	14.60	7.30	-30.2	-34.3	8.1	7.82e-02	0	41	0	0	20	5772
2026-01-17 03:16:43.60	14.56	7.38	-30.1	-34.1	8.3	7.53e-02	0	41	0	5242880	20	5651
2026-01-17 03:16:44.60	14.52	7.45	-29.9	-33.3	8.8	4.84e-02	0	41	0	11534336	20	5318
2026-01-17 03:16:45.60	14.48	7.53	-30.0	-33.9	8.9	3.44e-02	0	41	0	16777216	19	5666
2026-01-17 03:16:46.60	14.43	7.60	-29.8	-33.4	9.2	2.99e-02	0	42	0	22020096	19	5457
2026-01-17 03:16:47.61	14.39	7.68	-29.7	-32.6	9.4	2.48e-02	0	41	0	28311552	20	5047
2026-01-17 03:16:48.61	14.35	7.76	-29.3	-31.9	10.2	1.16e-02	0	41	0	33554432	19	4887
2026-01-17 03:16:49.62	14.31	7.83	-29.0	-31.8	10.7	3.86e-03	0	42	0	38797312	18	4952
2026-01-17 03:16:50.62	14.26	7.91	-29.4	-32.9	10.0	6.80e-03	0	42	0	45088768	18	5348
2026-01-17 03:16:51.63	14.22	7.99	-29.3	-31.9	10.2	1.49e-02	0	42	0	50331648	19	4889
2026-01-17 03:16:52.62	14.18	8.07	-28.9	-31.3	10.6	3.13e-03	0	42	0	55574528	18	4784
2026-01-17 03:16:53.62	14.13	8.14	-28.5	-30.9	11.6	1.43e-03	0	42	0	61865984	17	4754
2026-01-17 03:16:54.62	14.09	8.22	-28.3	-30.8	11.9	6.19e-04	0	42	0	67108864	16	4839
2026-01-17 03:16:55.63	14.04	8.30	-27.6	-29.7	12.8	1.46e-04	0	42	0	73400320	15	4603
2026-01-17 03:16:56.63	14.00	8.38	-27.5	-29.4	13.0	5.95e-05	0	42	0	78643200	15	4505
2026-01-17 03:16:57.63	13.95	8.46	-27.1	-29.1	13.5	2.86e-05	0	42	0	83886080	14	4527
2026-01-17 03:16:58.63	13.91	8.53	-26.9	-29.0	13.9	4.51e-04	0	42	0	90177536	13	4612
2026-01-17 03:16:59.63	13.86	8.61	-27.0	-29.2	13.7	9.10e-06	0	42	0	95420416	13	4674
2026-01-17 03:17:00.64	13.82	8.69	-27.2	-29.3	13.4	4.70e-04	0	42	0	101711872	14	4571
2026-01-17 03:17:01.64	13.77	8.77	-27.3	-29.4	13.4	2.97e-05	0	42	0	106954752	14	4621
2026-01-17 03:17:02.64	13.72	8.85	-27.2	-29.4	13.4	2.86e-05	0	42	0	112197632	14	4592
2026-01-17 03:17:03.63	13.68	8.93	-27.2	-29.3	13.4	6.03e-04	0	42	0	118489088	14	4583
2026-01-17 03:17:04.64	13.63	9.01	-27.2	-29.4	13.4	2.63e-05	0	42	0	123731968	14	4603
2026-01-17 03:17:05.64	13.58	9.09	-27.2	-29.3	13.5	1.48e-05	0	42	0	128974848	14	4565
2026-01-17 03:17:06.64	13.54	9.17	-27.2	-29.2	13.5	1.60e-05	0	42	0	135266304	14	4560
2026-01-17 03:17:07.65	13.49	9.25	-27.3	-29.6	13.3	8.03e-04	0	42	0	140509184	14	4662
2026-01-17 03:17:08.66	13.44	9.34	-27.3	-29.5	13.4	3.66e-05	0	42	0	146800640	14	4633
2026-01-17 03:17:09.66	13.39	9.42	-26.9	-29.1	13.9	1.37e-05	0	42	0	152043520	13	4641
2026-01-17 03:17:10.66	13.34	9.50	-26.8	-28.7	14.1	6.36e-04	0	42	0	157286400	13	4519
2026-01-17 03:17:11.66	13.30	9.58	-26.8	-28.8	14.1	3.40e-06	0	42	0	163577856	13	4532
2026-01-17 03:17:12.66	13.25	9.66	-26.6	-28.4	14.3	6.17e-04	0	42	0	168820736	13	4418
2026-01-17 03:17:13.66	13.20	9.74	-26.6	-28.3	14.4	7.46e-04	0	42	0	174063616	13	4408
2026-01-17 03:17:14.67	13.15	9.83	-26.6	-28.3	14.4	0.00e+00	0	42	0	180355072	13	4386
2026-01-17 03:17:15.67	13.10	9.91	-26.7	-28.6	14.2	7.44e-04	0	42	0	185597952	13	4473
2026-01-17 03:17:16.68	13.05	9.99	-26.5	-28.1	14.5	1.10e-06	0	42	0	190840832	13	4330
2026-01-17 03:17:17.68	12.99	10.08	-26.5	-28.1	14.5	0.00e+00	0	42	0	197132288	13	4347
2026-01-17 03:17:18.69	12.94	10.16	-26.4	-28.0	14.5	0.00e+00	0	42	0	202375168	13	4324
2026-01-17 03:17:19.69	12.89	10.25	-26.5	-28.5	14.5	4.97e-04	0	42	0	208666624	12	4572
2026-01-17 03:17:20.69	12.84	10.33	-26.3	-28.2	14.7	1.10e-06	0	42	0	213909504	12	4490
2026-01-17 03:17:21.69	12.79	10.41	-26.5	-28.5	14.6	4.74e-04	0	42	0	220200960	12	4570
2026-01-17 03:17:22.69	12.74	10.50	-26.4	-28.3	14.6	6.25e-04	0	42	0	225443840	12	4521
2026-01-17 03:17:23.70	12.68	10.58	-26.5	-28.6	14.5	1.10e-06	0	42	0	230686720	12	4588
2026-01-17 03:17:24.70	12.63	10.67	-26.3	-27.6	14.8	4.78e-04	0	42	0	236978176	13	4195
2026-01-17 03:17:25.70	12.58	10.75	-26.2	-28.0	14.8	0.00e+00	0	42	0	242221056	12	4425
2026-01-17 03:17:26.70	12.52	10.84	-26.1	-27.8	15.0	0.00e+00	0	42	0	247463936	12	4352
2026-01-17 03:17:27.70	12.47	10.93	-26.2	-27.9	14.9	4.67e-04	0	43	0	253755392	12	4402
2026-01-17 03:17:28.70	12.42	11.01	-26.4	-28.3	14.7	4.95e-04	0	42	0	258998272	12	4500
2026-01-17 03:17:29.70	12.36	11.10	-26.3	-28.2	14.8	0.00e+00	0	43	0	264241152	12	4463
2026-01-17 03:17:30.71	12.31	11.19	-26.4	-28.0	14.6	0.00e+00	0	43	0	270532608	13	4300
2026-01-17 03:17:31.71	12.25	11.27	-26.3	-28.2	14.8	4.98e-04	0	42	0	275775488	12	4465
2026-01-17 03:17:32.71	12.19	11.36	-26.1	-27.7	15.0	0.00e+00	0	43	0	282066944	12	4336
2026-01-17 03:17:33.71	12.14	11.45	-26.8	-28.8	14.1	4.20e-04	0	43	0	287309824	13	4541
2026-01-17 03:17:34.71	12.08	11.53	-26.5	-28.2	14.3	3.75e-04	0	43	0	292552704	13	4347
2026-01-17 03:17:35.71	12.03	11.62	-25.9	-27.4	14.2	1.10e-06	0	43	0	298844160	13	4302
2026-01-17 03:17:36.71	11.97	11.71	-26.9	-29.0	13.3	3.78e-04	0	43	0	304087040	13	4612
2026-01-17 03:17:37.71	11.91	11.80	-26.9	-29.0	11.6	2.20e-06	0	43	0	309329920	13	4606
2026-01-17 03:17:38.71	11.85	11.89	-26.4	-28.5	12.7	2.20e-06	0	43	0	315621376	12	4551
2026-01-17 03:17:39.71	11.80	11.98	-26.2	-27.8	14.8	0.00e+00	0	43	0	320864256	12	4369
2026-01-17 03:17:40.70	11.74	12.07	-25.7	-27.4	14.8	0.00e+00	0	43	0	326107136	11	4360
2026-01-17 03:17:41.70	11.68	12.16	-25.9	-27.8	15.2	1.89e-03	0	43	0	332398592	11	4459
2026-01-17 03:17:42.70	11.62	12.25	-25.9	-27.7	15.4	1.10e-06	0	43	0	337641472	11	4446
2026-01-17 03:17:43.69	11.56	12.34	-25.7	-27.3	15.7	3.36e-04	0	43	0	343932928	11	4342
2026-01-17 03:17:44.69	11.50	12.43	-26.0	-28.0	15.4	0.00e+00	0	43	0	349175808	11	4515
2026-01-17 03:17:45.70	11.44	12.52	-25.9	-27.3	15.4	0.00e+00	0	43	0	354418688	12	4230
2026-01-17 03:17:46.71	11.38	12.61	-26.2	-27.9	15.0	1.28e-04	0	43	0	360710144	12	4378
2026-01-17 03:17:47.71	11.32	12.70	-26.1	-27.6	15.2	0.00e+00	0	43	0	365953024	12	4302
2026-01-17 03:17:48.71	11.25	12.80	-25.9	-27.7	15.5	3.60e-04	0	43	0	371195904	11	4438
2026-01-17 03:17:49.71	11.19	12.89	-25.8	-27.6	15.6	0.00e+00	0	43	0	377487360	11	4406
2026-01-17 03:17:50.71	11.13	12.98	-25.8	-27.6	15.6	0.00e+00	0	43	0	382730240	11	4408
2026-01-17 03:17:51.72	11.07	13.07	-25.9	-27.7	15.5	0.00e+00	0	43	0	387973120	11	4448
2026-01-17 03:17:52.72	11.00	13.17	-26.0	-27.9	15.4	0.00e+00	0	43	0	394264576	11	4508
2026-01-17 03:17:53.72	10.94	13.26	-25.7	-27.3	15.7	1.95e-03	0	43	0	399507456	11	4335
2026-01-17 03:17:54.72	10.87	13.35	-25.8	-27.5	15.7	0.00e+00	0	43	0	405798912	11	4376
2026-01-17 03:17:55.73	10.81	13.45	-25.5	-26.8	16.0	1.89e-03	0	43	0	411041792	11	4199
2026-01-17 03:17:56.73	10.74	13.54	-25.6	-27.1	15.9	0.00e+00	0	43	0	416284672	11	4278
2026-01-17 03:17:57.72	10.68	13.64	-25.7	-27.3	15.8	0.00e+00	0	43	0	422576128	11	4322
2026-01-17 03:17:58.73	10.61	13.73	-25.7	-27.2	15.8	0.00e+00	0	43	0	427819008	11	4309
2026-01-17 03:17:59.73	10.55	13.83	-25.6	-27.1	15.9	0.00e+00	0	43	0	433061888	11	4268
2026-01-17 03:18:00.74	10.48	13.93	-25.8	-27.4	15.7	3.12e-04	0	43	0	439353344	11	4357
2026-01-17 03:18:01.74	10.41	14.02	-25.5	-27.3	16.1	0.00e+00	0	43	0	444596224	10	4438
2026-01-17 03:18:02.74	10.34	14.12	-26.0	-27.8	15.5	1.90e-03	0	43	0	450887680	11	4467
2026-01-17 03:18:03.73	10.28	14.22	-25.6	-27.1	15.9	0.00e+00	0	43	0	456130560	11	4275
2026-01-17 03:18:04.74	10.21	14.31	-25.7	-27.3	15.8	1.78e-03	0	43	0	461373440	11	4320
2026-01-17 03:18:05.74	10.14	14.41	-25.8	-27.5	15.7	1.39e-03	0	43	0	467664896	11	4390
2026-01-17 03:18:06.74	10.07	14.51	-25.5	-26.9	16.0	2.68e-04	0	43	0	472907776	11	4228
2026-01-17 03:18:07.74	10.00	14.61	-25.6	-27.1	15.9	1.55e-03	0	43	0	479199232	11	4280
2026-01-17 03:18:08.74	9.93	14.71	-25.5	-26.9	16.1	0.00e+00	0	43	0	484442112	11	4211
2026-01-17 03:18:09.74	9.85	14.81	-25.7	-27.2	15.9	2.51e-04	0	43	0	489684992	11	4303
2026-01-17 03:18:10.75	9.78	14.91	-25.6	-27.1	16.0	0.00e+00	0	43	0	495976448	11	4266
2026-01-17 03:18:11.75	9.71	15.01	-25.3	-26.9	16.3	1.72e-03	0	43	0	501219328	10	4343
2026-01-17 03:18:12.75	9.64	15.11	-25.3	-26.9	16.3	2.49e-04	0	43	0	506462208	10	4340
2026-01-17 03:18:13.75	9.56	15.21	-25.2	-26.8	16.4	1.69e-03	0	43	0	512753664	10	4296
2026-01-17 03:18:14.75	9.49	15.31	-25.4	-26.5	16.3	1.54e-03	0	43	0	517996544	11	4110
2026-01-17 03:18:15.75	9.42	15.41	-25.3	-26.8	16.4	0.00e+00	0	43	0	523239424	10	4299
2026-01-17 03:18:16.76	9.34	15.51	-25.2	-26.6	16.5	1.58e-03	0	43	0	529530880	10	4253
2026-01-17 03:18:17.75	9.27	15.61	-25.3	-26.8	16.4	0.00e+00	0	43	0	534773760	10	4302
2026-01-17 03:18:18.75	9.19	15.71	-25.2	-26.6	16.5	2.17e-04	0	43	0	541065216	10	4255
2026-01-17 03:18:19.75	9.11	15.82	-25.3	-26.8	16.5	1.69e-03	0	43	0	546308096	10	4296
2026-01-17 03:18:20.76	9.04	15.92	-25.1	-26.4	16.7	1.67e-03	0	43	0	551550976	10	4188
2026-01-17 03:18:21.76	8.96	16.03	-25.1	-26.4	16.7	2.14e-04	0	43	0	557842432	10	4187
2026-01-17 03:18:22.77	8.88	16.13	-25.2	-26.6	16.6	0.00e+00	0	43	0	563085312	10	4244
2026-01-17 03:18:23.77	8.80	16.23	-25.2	-26.7	16.5	1.54e-03	0	43	0	568328192	10	4272
2026-01-17 03:18:24.77	8.72	16.34	-25.2	-26.7	16.5	0.00e+00	0	43	0	574619648	10	4270
2026-01-17 03:18:25.77	8.64	16.44	-25.2	-26.7	16.5	1.46e-03	0	43	0	579862528	10	4279
2026-01-17 03:18:26.78	8.56	16.55	-25.3	-26.9	16.4	1.53e-03	0	43	0	585105408	10	4319
2026-01-17 03:18:27.78	8.48	16.66	-25.1	-26.6	16.6	1.58e-04	0	43	0	591396864	10	4234
2026-01-17 03:18:28.78	8.40	16.76	-25.0	-26.2	16.8	1.55e-03	0	43	0	596639744	10	4133
2026-01-17 03:18:29.78	8.31	16.87	-24.7	-26.2	17.0	0.00e+00	0	43	0	602931200	9	4246
2026-01-17 03:18:30.78	8.23	16.98	-24.8	-26.3	17.0	1.59e-04	0	43	0	608174080	9	4292
2026-01-17 03:18:31.78	8.15	17.08	-24.9	-26.5	16.9	1.52e-03	0	43	0	613416960	9	4326
2026-01-17 03:18:32.78	8.06	17.19	-24.7	-26.2	17.0	1.44e-03	0	43	0	619708416	9	4243
2026-01-17 03:18:33.79	7.98	17.30	-24.7	-26.0	17.2	1.76e-04	0	43	0	624951296	9	4192
2026-01-17 03:18:34.79	7.89	17.41	-24.5	-25.7	17.4	1.47e-03	0	43	0	631242752	9	4116
2026-01-17 03:18:35.79	7.81	17.52	-24.7	-26.1	17.2	1.52e-03	0	43	0	636485632	9	4225
2026-01-17 03:18:36.80	7.72	17.63	-24.6	-25.8	17.3	1.77e-04	0	43	0	641728512	9	4147
2026-01-17 03:18:37.80	7.63	17.74	-24.5	-25.7	17.4	1.49e-03	0	43	0	648019968	9	4123
2026-01-17 03:18:38.80	7.54	17.85	-24.8	-26.3	17.0	0.00e+00	0	43	0	653262848	9	4282
2026-01-17 03:18:39.80	7.45	17.96	-24.6	-25.9	17.2	1.59e-04	0	43	0	658505728	9	4179
2026-01-17 03:18:40.80	7.37	18.07	-24.5	-25.7	17.4	1.46e-03	0	43	0	664797184	9	4116
2026-01-17 03:18:41.81	7.27	18.18	-24.4	-25.4	17.3	1.38e-03	0	43	0	670040064	9	4046
2026-01-17 03:18:42.81	7.18	18.30	-24.5	-25.6	17.4	1.91e-04	0	43	0	676331520	9	4090
2026-01-17 03:18:43.81	7.09	18.41	-24.4	-25.5	17.5	1.30e-03	0	43	0	681574400	9	4074
2026-01-17 03:18:44.81	7.00	18.52	-24.4	-25.9	17.6	1.34e-03	0	43	0	686817280	8	4293
2026-01-17 03:18:45.82	6.91	18.64	-24.4	-25.9	17.5	1.91e-04	0	43	0	693108736	8	4298
2026-01-17 03:18:46.82	6.81	18.75	-24.4	-26.0	17.5	1.45e-03	0	43	0	698351616	8	4310
2026-01-17 03:18:47.82	6.72	18.87	-24.4	-25.4	17.6	1.46e-03	0	43	0	703594496	9	4050
2026-01-17 03:18:48.82	6.62	18.98	-24.6	-25.8	17.3	1.76e-04	0	43	0	709885952	9	4144
2026-01-17 03:18:49.82	6.53	19.10	-24.5	-25.6	17.4	1.50e-03	0	43	0	715128832	9	4091
2026-01-17 03:18:50.82	6.43	19.21	-24.4	-25.4	17.6	2.09e-04	0	43	0	721420288	9	4038
2026-01-17 03:18:51.83	6.33	19.33	-24.6	-26.0	17.3	1.60e-04	0	43	0	726663168	9	4192
2026-01-17 03:18:52.83	6.23	19.44	-24.4	-25.4	17.6	0.00e+00	0	43	0	731906048	9	4049
2026-01-17 03:18:53.83	6.13	19.56	-24.2	-25.5	17.8	1.40e-03	0	43	0	738197504	8	4174
2026-01-17 03:18:54.84	6.03	19.68	-24.3	-25.6	17.7	3.12e-04	0	43	0	743440384	8	4216
2026-01-17 03:18:55.84	5.93	19.80	-24.3	-25.8	17.6	1.43e-03	0	43	0	749731840	8	4254
2026-01-17 03:18:56.85	5.83	19.92	-24.5	-25.7	17.4	2.63e-04	0	43	0	754974720	9	4118
2026-01-17 03:18:57.85	5.73	20.04	-24.8	-26.2	17.2	2.46e-04	0	43	0	760217600	9	4264
2026-01-17 03:18:58.85	5.63	20.16	-24.4	-25.4	17.6	1.58e-03	0	43	0	766509056	9	4050
2026-01-17 03:18:59.85	5.52	20.28	-24.2	-25.4	17.9	1.94e-04	0	43	0	771751936	8	4158
2026-01-17 03:19:00.85	5.42	20.40	-24.2	-25.6	17.8	1.73e-04	0	43	0	776994816	8	4211
2026-01-17 03:19:01.85	5.31	20.52	-24.2	-25.0	17.8	0.00e+00	0	43	0	783286272	9	3955
2026-01-17 03:19:02.86	5.20	20.64	-24.1	-25.2	18.0	1.63e-03	0	43	0	788529152	8	4109
2026-01-17 03:19:03.85	5.10	20.76	-24.0	-25.1	18.0	2.77e-04	0	43	0	794820608	8	4087
2026-01-17 03:19:04.84	4.99	20.88	-24.1	-25.4	17.9	0.00e+00	0	43	0	800063488	8	4154
2026-01-17 03:19:05.85	4.88	21.01	-23.9	-25.4	18.1	1.41e-03	0	43	0	805306368	7	4268
2026-01-17 03:19:06.85	4.77	21.13	-24.0	-25.2	18.0	3.09e-04	0	43	0	811597824	8	4095
2026-01-17 03:19:07.84	4.66	21.25	-24.5	-25.7	17.4	1.39e-03	0	43	0	816840704	9	4132
2026-01-17 03:19:08.84	4.55	21.38	-23.8	-24.7	18.3	2.48e-04	0	43	0	822083584	8	3977
2026-01-17 03:19:09.83	4.44	21.50	-23.7	-25.0	18.3	1.75e-04	0	43	0	828375040	7	4161
2026-01-17 03:19:10.83	4.32	21.62	-23.6	-24.7	18.5	0.00e+00	0	43	0	833617920	7	4094
2026-01-17 03:19:11.84	4.21	21.75	-23.9	-25.4	18.1	2.40e-05	0	43	0	838860800	7	4283
2026-01-17 03:19:12.85	4.09	21.88	-23.7	-25.0	18.3	2.02e-04	0	43	0	845152256	7	4155
2026-01-17 03:19:13.86	3.97	22.01	-23.5	-24.5	18.6	0.00e+00	0	43	0	850395136	7	4054
2026-01-17 03:19:14.85	3.86	22.13	-23.5	-24.5	18.6	1.45e-03	0	43	0	856686592	7	4043
2026-01-17 03:19:15.85	3.74	22.26	-23.5	-24.6	18.6	1.01e-04	0	43	0	861929472	7	4058
2026-01-17 03:19:16.85	3.62	22.39	-23.6	-24.8	18.5	0.00e+00	0	44	0	867172352	7	4111
2026-01-17 03:19:17.85	3.50	22.52	-23.5	-24.5	18.6	5.83e-05	0	43	0	873463808	7	4034
2026-01-17 03:19:18.85	3.38	22.65	-23.5	-24.5	18.6	2.40e-05	0	43	0	878706688	7	4044
2026-01-17 03:19:19.85	3.25	22.78	-23.6	-24.7	18.5	1.36e-03	0	43	0	883949568	7	4090
2026-01-17 03:19:20.85	3.13	22.91	-23.5	-24.5	18.6	0.00e+00	0	43	0	890241024	7	4055
2026-01-17 03:19:21.85	3.00	23.04	-23.6	-24.7	18.5	2.17e-04	0	43	0	895483904	7	4098
2026-01-17 03:19:22.85	2.88	23.17	-23.6	-24.7	18.6	0.00e+00	0	44	0	900726784	7	4086
2026-01-17 03:19:23.85	2.75	23.30	-23.6	-24.7	18.5	0.00e+00	0	43	0	907018240	7	4087
2026-01-17 03:19:24.85	2.62	23.43	-23.6	-24.7	18.5	0.00e+00	0	43	0	912261120	7	4102
2026-01-17 03:19:25.85	2.49	23.57	-23.8	-25.1	18.3	0.00e+00	0	43	0	918552576	7	4202
2026-01-17 03:19:26.85	2.36	23.70	-23.5	-24.5	18.6	0.00e+00	0	43	0	923795456	7	4053
2026-01-17 03:19:27.86	2.23	23.83	-23.3	-24.1	18.9	0.00e+00	0	44	0	929038336	7	3940
2026-01-17 03:19:28.87	2.10	23.97	-23.2	-23.8	19.0	0.00e+00	0	44	0	935329792	7	3874
2026-01-17 03:19:29.87	1.96	24.10	-23.2	-24.4	18.9	0.00e+00	0	43	0	940572672	6	4139
2026-01-17 03:19:30.86	1.83	24.24	-23.1	-24.3	19.0	0.00e+00	0	44	0	945815552	6	4102
2026-01-17 03:19:31.86	1.69	24.37	-23.1	-24.3	19.0	0.00e+00	0	43	0	952107008	6	4099
2026-01-17 03:19:32.87	1.55	24.51	-23.4	-24.8	18.8	0.00e+00	0	43	0	957349888	6	4234
2026-01-17 03:19:33.87	1.42	24.65	-23.3	-24.7	18.8	0.00e+00	0	44	0	962592768	6	4204
2026-01-17 03:19:34.87	1.28	24.79	-23.4	-24.8	18.8	0.00e+00	0	43	0	968884224	6	4223
2026-01-17 03:19:35.87	1.14	24.93	-23.7	-24.9	18.5	0.00e+00	0	43	0	974127104	7	4152
2026-01-17 03:19:36.88	0.99	25.07	-23.6	-24.8	18.5	0.00e+00	0	43	0	980418560	7	4108
2026-01-17 03:19:37.88	0.85	25.20	-23.4	-24.4	18.8	0.00e+00	0	43	0	985661440	7	4009
2026-01-17 03:19:38.87	0.70	25.34	-23.3	-24.1	18.9	0.00e+00	0	43	0	990904320	7	3944
2026-01-17 03:19:39.88	0.56	25.49	-23.3	-24.6	18.9	0.00e+00	0	44	0	997195776	6	4188
2026-01-17 03:19:40.89	0.41	25.63	-23.2	-24.4	19.0	0.00e+00	0	44	0	1002438656	6	4145
2026-01-17 03:19:41.89	0.26	25.77	-23.1	-24.3	19.1	0.00e+00	0	44	0	1008730112	6	4095
2026-01-17 03:19:42.89	0.11	25.91	-23.1	-24.2	19.1	0.00e+00	0	43	0	1013972992	6	4088
2026-01-17 03:19:43.90	359.95	26.05	-23.3	-24.7	18.8	0.00e+00	0	44	0	1019215872	6	4199
2026-01-17 03:19:44.90	359.80	26.20	-23.0	-24.1	19.2	0.00e+00	0	43	0	1025507328	6	4044
2026-01-17 03:19:45.91	359.64	26.34	-22.7	-23.3	19.6	0.00e+00	0	43	0	1030750208	6	3875
2026-01-17 03:19:46.91	359.49	26.49	-22.6	-23.6	19.7	0.00e+00	0	44	0	1035993088	5	4035
2026-01-17 03:19:47.92	359.33	26.63	-22.6	-23.7	19.6	0.00e+00	0	43	0	1042284544	5	4061
2026-01-17 03:19:48.92	359.17	26.78	-22.9	-24.2	19.4	0.00e+00	0	44	0	1047527424	5	4202
2026-01-17 03:19:49.92	359.01	26.92	-22.9	-23.7	19.4	0.00e+00	0	43	0	1053818880	6	3954
2026-01-17 03:19:50.92	358.85	27.07	-22.8	-23.5	19.5	0.00e+00	0	44	0	1059061760	6	3901
2026-01-17 03:19:51.92	358.68	27.22	-22.9	-23.7	19.4	0.00e+00	0	43	0	1064304640	6	3956
2026-01-17 03:19:52.93	358.52	27.36	-22.8	-23.5	19.5	0.00e+00	0	44	0	1070596096	6	3900
2026-01-17 03:19:53.94	358.35	27.51	-22.7	-23.4	19.6	0.00e+00	0	43	0	1075838976	6	3878
2026-01-17 03:19:54.93	358.18	27.66	-22.8	-23.9	19.5	0.00e+00	0	44	0	1082130432	5	4131
2026-01-17 03:19:55.94	358.01	27.81	-22.8	-24.2	19.4	0.00e+00	0	43	0	1087373312	5	4186
2026-01-17 03:19:56.94	357.84	27.96	-22.9	-24.3	19.4	0.00e+00	0	43	0	1092616192	5	4227
2026-01-17 03:19:57.94	357.66	28.11	-23.0	-24.4	19.3	0.00e+00	0	44	0	1098907648	5	4247
2026-01-17 03:19:58.95	357.49	28.26	-22.9	-24.3	19.4	0.00e+00	0	44	0	1104150528	5	4222
2026-01-17 03:19:59.95	357.31	28.41	-22.9	-24.3	19.4	0.00e+00	0	43	0	1109393408	5	4213
2026-01-17 03:20:00.95	357.13	28.56	-22.8	-24.0	19.5	0.00e+00	0	44	0	1115684864	5	4132
2026-01-17 03:20:01.96	356.95	28.72	-22.6	-23.7	19.6	0.00e+00	0	44	0	1120927744	5	4073
2026-01-17 03:20:02.96	356.77	28.87	-22.8	-24.0	19.6	0.00e+00	0	43	0	1127219200	5	4133
2026-01-17 03:20:03.96	356.59	29.02	-22.9	-24.2	19.4	0.00e+00	0	43	0	1132462080	5	4202
2026-01-17 03:20:04.96	356.40	29.18	-23.1	-24.1	19.2	0.00e+00	0	44	0	1137704960	6	4063
2026-01-17 03:20:05.96	356.21	29.33	-23.2	-24.4	19.1	0.00e+00	0	44	0	1143996416	6	4115
2026-01-17 03:20:06.95	356.03	29.48	-23.3	-24.6	19.0	0.00e+00	0	44	0	1149239296	6	4192
2026-01-17 03:20:07.96	355.83	29.64	-23.4	-24.7	18.9	0.00e+00	0	43	0	1154482176	6	4216
2026-01-17 03:20:08.96	355.64	29.80	-23.3	-24.6	19.0	0.00e+00	0	43	0	1160773632	6	4171
2026-01-17 03:20:09.97	355.44	29.95	-23.5	-25.0	18.9	0.00e+00	0	44	0	1166016512	6	4272
2026-01-17 03:20:10.97	355.25	30.11	-23.5	-24.5	18.9	0.00e+00	0	43	0	1171259392	7	4043
2026-01-17 03:20:11.97	355.05	30.27	-23.6	-24.7	18.7	0.00e+00	0	43	0	1177550848	7	4084
2026-01-17 03:20:12.97	354.85	30.42	-23.5	-24.4	18.9	0.00e+00	0	43	0	1182793728	7	4013
2026-01-17 03:20:13.97	354.65	30.58	-23.3	-24.5	19.1	0.00e+00	0	44	0	1189085184	6	4150
2026-01-17 03:20:14.96	354.44	30.74	-23.7	-24.8	18.7	0.00e+00	0	44	0	1194328064	7	4117
2026-01-17 03:20:15.97	354.23	30.90	-23.6	-24.7	18.7	0.00e+00	0	43	0	1199570944	7	4095
2026-01-17 03:20:16.97	354.03	31.06	-23.9	-25.4	18.4	0.00e+00	0	44	0	1205862400	7	4254
2026-01-17 03:20:17.98	353.81	31.22	-24.3	-25.7	18.0	0.00e+00	0	44	0	1211105280	8	4217
2026-01-17 03:20:18.98	353.60	31.38	-24.0	-25.1	18.3	0.00e+00	0	44	0	1217396736	8	4075
2026-01-17 03:20:19.99	353.38	31.54	-24.0	-25.0	18.4	0.00e+00	0	43	0	1222639616	8	4045
2026-01-17 03:20:20.99	353.17	31.70	-24.4	-25.4	17.9	0.00e+00	0	43	0	1227882496	9	4040
2026-01-17 03:20:21.99	352.95	31.86	-24.1	-24.7	18.2	0.00e+00	0	44	0	1234173952	9	3875
2026-01-17 03:20:22.98	352.73	32.02	-23.8	-24.6	18.6	0.00e+00	0	43	0	1239416832	8	3943
2026-01-17 03:20:23.98	352.50	32.18	-24.1	-25.2	18.3	0.00e+00	0	44	0	1244659712	8	4098
2026-01-17 03:20:24.99	352.27	32.35	-24.1	-25.2	18.3	0.00e+00	0	44	0	1250951168	8	4092
2026-01-17 03:20:25.99	352.05	32.51	-24.6	-25.7	17.7	0.00e+00	0	43	0	1256194048	9	4123
2026-01-17 03:20:27.00	351.81	32.68	-23.9	-24.2	18.5	0.00e+00	0	44	0	1262485504	9	3761
2026-01-17 03:20:27.99	351.58	32.84	-23.3	-23.6	19.1	0.00e+00	0	43	0	1267728384	8	3727
2026-01-17 03:20:28.99	351.35	33.00	-23.2	-23.9	17.1	0.00e+00	0	44	0	1272971264	7	3891
2026-01-17 03:20:30.00	351.11	33.17	-23.5	-24.5	18.3	0.00e+00	0	43	0	1279262720	7	4047
2026-01-17 03:20:31.00	350.87	33.33	-23.1	-23.7	19.1	0.00e+00	0	44	0	1284505600	7	3840
2026-01-17 03:20:32.00	350.62	33.50	-22.9	-23.6	19.1	0.00e+00	0	44	0	1289748480	6	3893
2026-01-17 03:20:33.00	350.38	33.66	-21.9	-22.6	18.7	1.89e-04	0	43	0	1296039936	6	3906
2026-01-17 03:20:34.00	350.13	33.83	-22.4	-23.6	16.0	0.00e+00	0	44	0	1301282816	5	4138
2026-01-17 03:20:35.00	349.88	33.99	-22.7	-23.9	14.4	0.00e+00	0	43	0	1306525696	5	4110
2026-01-17 03:20:36.00	349.62	34.16	-22.8	-24.1	17.8	0.00e+00	0	44	0	1312817152	5	4155
2026-01-17 03:20:36.99	349.37	34.32	-22.9	-24.3	17.6	0.00e+00	0	44	0	1318060032	5	4224
2026-01-17 03:20:38.00	349.11	34.49	-23.2	-24.3	19.1	0.00e+00	0	44	0	1324351488	6	4108
2026-01-17 03:20:39.00	348.85	34.66	-23.4	-24.9	18.9	0.00e+00	0	43	0	1329594368	6	4250
2026-01-17 03:20:39.99	348.59	34.82	-22.9	-23.8	19.4	0.00e+00	0	44	0	1334837248	6	3993
2026-01-17 03:20:40.99	348.32	34.99	-22.6	-23.2	19.8	0.00e+00	0	43	0	1341128704	6	3840
2026-01-17 03:20:41.99	348.05	35.16	-22.4	-23.3	20.0	8.12e-05	0	44	0	1346371584	5	3959
2026-01-17 03:20:43.00	347.78	35.33	-22.5	-23.4	19.9	0.00e+00	0	44	0	1351614464	5	3987
2026-01-17 03:20:44.01	347.50	35.50	-22.5	-23.3	19.9	0.00e+00	0	43	0	1357905920	5	3981
2026-01-17 03:20:45.00	347.22	35.66	-22.4	-23.2	20.0	0.00e+00	0	43	0	1363148800	5	3953
2026-01-17 03:20:46.00	346.94	35.83	-22.8	-24.0	19.6	0.00e+00	0	43	0	1368391680	5	4138
2026-01-17 03:20:47.00	346.66	36.00	-22.5	-23.5	19.9	4.53e-04	0	44	0	1374683136	5	4016
2026-01-17 03:20:48.00	346.37	36.16	-22.6	-23.5	19.8	0.00e+00	0	44	0	1379926016	5	4031
2026-01-17 03:20:49.00	346.08	36.33	-22.7	-23.7	19.7	5.87e-04	0	44	0	1386217472	5	4076
2026-01-17 03:20:50.00	345.79	36.50	-22.6	-23.6	19.8	0.00e+00	0	44	0	1391460352	5	4039
2026-01-17 03:20:51.00	345.49	36.67	-22.7	-23.9	19.7	0.00e+00	0	44	0	1396703232	5	4111
2026-01-17 03:20:52.00	345.19	36.84	-22.7	-23.8	19.7	0.00e+00	0	44	0	1402994688	5	4084
2026-01-17 03:20:53.00	344.89	37.00	-22.7	-23.9	19.7	0.00e+00	0	44	0	1408237568	5	4113
2026-01-17 03:20:54.00	344.59	37.17	-22.9	-24.2	19.5	0.00e+00	0	44	0	1413480448	5	4199
2026-01-17 03:20:54.99	344.28	37.34	-22.5	-23.4	19.9	0.00e+00	0	43	0	1419771904	5	3994
2026-01-17 03:20:56.00	343.97	37.51	-22.5	-23.4	19.9	1.14e-03	0	43	0	1425014784	5	3993
2026-01-17 03:20:57.00	343.65	37.67	-22.5	-23.3	20.0	1.29e-04	0	44	0	1431306240	5	3979
2026-01-17 03:20:58.00	343.33	37.84	-22.6	-23.7	19.8	0.00e+00	0	44	0	1436549120	5	4068
2026-01-17 03:20:59.00	343.01	38.01	-22.5	-23.4	19.9	8.75e-04	0	44	0	1441792000	5	4003
2026-01-17 03:21:00.00	342.69	38.18	-22.5	-23.5	19.9	2.28e-04	0	43	0	1448083456	5	4016
2026-01-17 03:21:01.00	342.36	38.34	-22.5	-23.3	19.9	1.16e-03	0	44	0	1453326336	5	3982
2026-01-17 03:21:02.00	342.03	38.51	-22.3	-23.0	20.1	1.94e-04	0	44	0	1458569216	5	3904
2026-01-17 03:21:03.01	341.69	38.68	-22.5	-23.4	19.9	2.33e-04	0	43	0	1464860672	5	4004
2026-01-17 03:21:04.01	341.35	38.84	-22.3	-23.1	20.1	0.00e+00	0	43	0	1470103552	5	3912
2026-01-17 03:21:05.01	341.01	39.01	-22.6	-23.6	19.8	0.00e+00	0	44	0	1475346432	5	4032
2026-01-17 03:21:06.01	340.66	39.17	-22.7	-23.8	19.7	1.97e-04	0	44	0	1481637888	5	4085
2026-01-17 03:21:07.01	340.31	39.34	-22.9	-24.3	19.5	0.00e+00	0	44	0	1486880768	5	4216
2026-01-17 03:21:08.01	339.96	39.50	-23.2	-24.3	19.3	1.22e-03	0	44	0	1493172224	6	4097
2026-01-17 03:21:09.03	339.60	39.67	-22.8	-23.5	19.6	1.73e-04	0	43	0	1498415104	6	3914
2026-01-17 03:21:10.03	339.24	39.83	-22.6	-23.1	19.8	8.08e-04	0	44	0	1503657984	6	3820
2026-01-17 03:21:11.04	338.87	39.99	-22.4	-23.2	20.0	5.96e-04	0	44	0	1509949440	5	3959
2026-01-17 03:21:12.04	338.50	40.16	-22.5	-23.4	20.0	0.00e+00	0	44	0	1515192320	5	3994
2026-01-17 03:21:13.04	338.13	40.32	-22.4	-23.2	20.0	7.75e-04	0	44	0	1521483776	5	3939
2026-01-17 03:21:14.03	337.76	40.48	-22.6	-23.6	19.8	7.35e-04	0	44	0	1526726656	5	4050
2026-01-17 03:21:15.03	337.38	40.64	-22.4	-23.3	20.0	1.02e-05	0	44	0	1531969536	5	3966
2026-01-17 03:21:16.03	337.00	40.80	-22.5	-23.5	19.9	0.00e+00	0	44	0	1537212416	5	4010
2026-01-17 03:21:17.03	336.61	40.96	-22.7	-23.8	19.7	7.20e-04	0	44	0	1543503872	5	4101
2026-01-17 03:21:18.03	336.22	41.11	-22.7	-23.9	19.7	3.31e-05	0	44	0	1548746752	5	4111
2026-01-17 03:21:19.03	335.83	41.27	-22.6	-23.7	19.8	6.96e-04	0	44	0	1555038208	5	4062
2026-01-17 03:21:20.03	335.43	41.43	-22.6	-23.5	19.9	6.72e-04	0	44	0	1560281088	5	4028
2026-01-17 03:21:21.03	335.03	41.58	-22.5	-23.3	20.0	2.28e-05	0	44	0	1566572544	5	3970
2026-01-17 03:21:22.03	334.62	41.74	-22.7	-23.8	19.8	6.18e-04	0	44	0	1571815424	5	4082
2026-01-17 03:21:23.04	334.21	41.89	-22.3	-23.0	20.1	1.43e-04	0	44	0	1577058304	5	3906
2026-01-17 03:21:24.04	333.79	42.04	-22.2	-22.8	20.2	0.00e+00	0	43	0	1583349760	5	3858
2026-01-17 03:21:25.05	333.37	42.20	-22.3	-22.9	20.2	2.59e-04	0	43	0	1588592640	5	3882
2026-01-17 03:21:26.06	332.95	42.35	-22.4	-23.2	20.0	2.94e-04	0	44	0	1593835520	5	3945
2026-01-17 03:21:27.06	332.52	42.50	-22.4	-23.2	20.0	6.29e-05	0	44	0	1600126976	5	3955
2026-01-17 03:21:28.07	332.09	42.64	-22.7	-23.8	19.8	3.01e-04	0	44	0	1605369856	5	4090
2026-01-17 03:21:29.07	331.65	42.79	-22.5	-23.5	19.9	2.97e-04	0	44	0	1610612736	5	4015
2026-01-17 03:21:30.07	331.22	42.94	-22.6	-23.5	19.9	1.33e-04	0	44	0	1616904192	5	4029
2026-01-17 03:21:31.07	330.77	43.08	-22.8	-23.9	19.7	3.29e-04	0	43	0	1622147072	5	4127
2026-01-17 03:21:32.07	330.33	43.22	-22.6	-23.5	19.9	6.73e-04	0	44	0	1628438528	5	4030
2026-01-17 03:21:33.08	329.87	43.36	-22.6	-23.5	19.9	0.00e+00	0	44	0	1633681408	5	4027
2026-01-17 03:21:34.08	329.42	43.50	-22.7	-23.8	19.8	6.80e-04	0	44	0	1638924288	5	4083
2026-01-17 03:21:35.08	328.96	43.64	-22.5	-23.4	19.9	8.15e-04	0	43	0	1645215744	5	4002
2026-01-17 03:21:36.08	328.50	43.78	-22.5	-23.3	20.0	0.00e+00	0	43	0	1650458624	5	3982
2026-01-17 03:21:37.09	328.03	43.91	-22.4	-23.2	20.1	0.00e+00	0	44	0	1656750080	5	3946
2026-01-17 03:21:38.09	327.56	44.05	-22.6	-23.5	19.9	1.04e-03	0	44	0	1661992960	5	4024
2026-01-17 03:21:39.09	327.09	44.18	-22.9	-24.2	19.6	0.00e+00	0	44	0	1667235840	5	4195
2026-01-17 03:21:40.10	326.61	44.31	-23.0	-24.0	19.5	1.04e-03	0	44	0	1673527296	6	4026
2026-01-17 03:21:41.10	326.13	44.44	-23.2	-24.3	19.3	1.02e-03	0	44	0	1678770176	6	4089
2026-01-17 03:21:42.10	325.64	44.56	-23.2	-24.4	19.2	0.00e+00	0	44	0	1684013056	6	4119
2026-01-17 03:21:43.11	325.15	44.69	-23.0	-23.9	19.5	1.17e-03	0	44	0	1690304512	6	4005
2026-01-17 03:21:44.12	324.65	44.81	-22.9	-23.8	19.5	0.00e+00	0	44	0	1695547392	6	3979
2026-01-17 03:21:45.12	324.15	44.93	-23.1	-24.2	19.4	6.17e-05	0	44	0	1701838848	6	4064
2026-01-17 03:21:46.12	323.65	45.05	-23.0	-24.0	19.4	0.00e+00	0	44	0	1707081728	6	4027
2026-01-17 03:21:47.13	323.14	45.16	-22.8	-23.5	19.7	8.17e-04	0	44	0	1712324608	6	3918
2026-01-17 03:21:48.13	322.64	45.28	-22.6	-23.1	19.9	0.00e+00	0	44	0	1718616064	6	3812
2026-01-17 03:21:49.12	322.13	45.39	-22.4	-23.2	20.1	0.00e+00	0	44	0	1723858944	5	3954
2026-01-17 03:21:50.12	321.61	45.50	-22.4	-23.1	20.1	6.87e-04	0	44	0	1729101824	5	3930
2026-01-17 03:21:51.13	321.09	45.60	-22.6	-23.6	19.9	0.00e+00	0	44	0	1735393280	5	4048
2026-01-17 03:21:52.12	320.57	45.71	-22.4	-23.2	20.1	8.77e-04	0	44	0	1740636160	5	3939
2026-01-17 03:21:53.12	320.05	45.81	-22.3	-22.9	20.3	0.00e+00	0	44	0	1745879040	5	3866
2026-01-17 03:21:54.12	319.52	45.91	-22.3	-23.0	20.2	0.00e+00	0	44	0	1752170496	5	3905
2026-01-17 03:21:55.12	318.99	46.01	-22.5	-23.3	20.0	6.68e-04	0	44	0	1757413376	5	3971
2026-01-17 03:21:56.12	318.45	46.10	-22.7	-23.8	19.8	0.00e+00	0	44	0	1763704832	5	4088
2026-01-17 03:21:57.11	317.92	46.19	-22.5	-23.3	20.0	2.74e-05	0	44	0	1768947712	5	3974
2026-01-17 03:21:58.12	317.37	46.28	-22.5	-23.4	20.0	0.00e+00	0	44	0	1774190592	5	3984
2026-01-17 03:21:59.13	316.82	46.37	-22.7	-23.8	19.8	1.32e-04	0	44	0	1780482048	5	4094
2026-01-17 03:22:00.13	316.27	46.45	-22.5	-23.5	20.0	0.00e+00	0	44	0	1785724928	5	4005
2026-01-17 03:22:01.13	315.72	46.53	-22.4	-23.2	20.1	0.00e+00	0	44	0	1790967808	5	3955
2026-01-17 03:22:02.13	315.17	46.61	-22.6	-23.6	19.9	0.00e+00	0	44	0	1797259264	5	4032
2026-01-17 03:22:03.13	314.61	46.69	-22.6	-23.7	19.9	0.00e+00	0	44	0	1802502144	5	4065
2026-01-17 03:22:04.13	314.05	46.76	-22.8	-24.0	19.7	7.07e-04	0	44	0	1807745024	5	4142
2026-01-17 03:22:05.14	313.49	46.83	-22.8	-24.0	19.7	0.00e+00	0	44	0	1814036480	5	4135
2026-01-17 03:22:06.13	312.93	46.90	-22.7	-23.8	19.8	0.00e+00	0	44	0	1819279360	5	4076
2026-01-17 03:22:07.13	312.36	46.96	-22.5	-23.5	20.0	0.00e+00	0	44	0	1825570816	5	4005
2026-01-17 03:22:08.13	311.79	47.02	-22.9	-24.1	19.6	0.00e+00	0	44	0	1830813696	5	4174
2026-01-17 03:22:09.13	311.22	47.08	-23.0	-24.0	19.5	0.00e+00	0	44	0	1836056576	6	4025
2026-01-17 03:22:10.13	310.65	47.14	-23.0	-23.9	19.5	0.00e+00	0	44	0	1842348032	6	4011
2026-01-17 03:22:11.13	310.07	47.19	-23.0	-24.0	19.5	8.98e-04	0	44	0	1847590912	6	4014
2026-01-17 03:22:12.13	309.50	47.24	-23.2	-24.4	19.3	0.00e+00	0	44	0	1852833792	6	4133
2026-01-17 03:22:13.12	308.92	47.28	-23.1	-24.2	19.4	0.00e+00	0	44	0	1859125248	6	4070
2026-01-17 03:22:14.13	308.34	47.33	-23.3	-24.6	19.2	0.00e+00	0	44	0	1864368128	6	4170
2026-01-17 03:22:15.13	307.75	47.36	-23.2	-24.3	19.4	0.00e+00	0	44	0	1870659584	6	4088
2026-01-17 03:22:16.14	307.16	47.40	-23.1	-24.1	19.4	0.00e+00	0	44	0	1875902464	6	4042
2026-01-17 03:22:17.14	306.58	47.43	-22.9	-23.7	19.6	0.00e+00	0	44	0	1881145344	6	3944
2026-01-17 03:22:18.14	305.99	47.46	-22.7	-23.4	19.8	0.00e+00	0	44	0	1887436800	6	3889
2026-01-17 03:22:19.14	305.41	47.49	-22.8	-23.6	19.7	0.00e+00	0	44	0	1892679680	6	3937
2026-01-17 03:22:20.15	304.81	47.51	-23.0	-24.0	19.5	0.00e+00	0	44	0	1898971136	6	4032
2026-01-17 03:22:21.15	304.22	47.53	-23.1	-24.1	19.4	0.00e+00	0	44	0	1904214016	6	4045
2026-01-17 03:22:22.15	303.63	47.55	-22.7	-23.2	19.9	0.00e+00	0	44	0	1909456896	6	3843
2026-01-17 03:22:23.16	303.04	47.56	-22.5	-22.8	20.1	0.00e+00	0	44	0	1915748352	6	3746
2026-01-17 03:22:24.16	302.45	47.57	-22.4	-22.6	20.2	0.00e+00	0	44	0	1920991232	6	3703
2026-01-17 03:22:25.16	301.86	47.58	-22.4	-23.2	20.1	0.00e+00	0	44	0	1926234112	5	3943
2026-01-17 03:22:26.17	301.26	47.58	-22.2	-22.9	20.3	0.00e+00	0	44	0	1932525568	5	3869
2026-01-17 03:22:27.17	300.67	47.58	-22.0	-22.4	20.5	0.00e+00	0	43	0	1937768448	5	3763
2026-01-17 03:22:28.17	300.08	47.58	-22.0	-22.4	20.5	0.00e+00	0	44	0	1943011328	5	3756
2026-01-17 03:22:29.17	299.49	47.57	-22.3	-23.0	20.2	0.00e+00	0	44	0	1949302784	5	3887
2026-01-17 03:22:30.18	298.89	47.56	-22.1	-22.6	20.4	0.00e+00	0	44	0	1954545664	5	3812
2026-01-17 03:22:31.18	298.30	47.55	-22.2	-22.8	20.3	0.00e+00	0	44	0	1960837120	5	3848
2026-01-17 03:22:32.18	297.71	47.53	-22.5	-23.4	20.1	0.00e+00	0	44	0	1966080000	5	3978
2026-01-17 03:22:33.19	297.12	47.51	-22.5	-23.4	20.0	0.00e+00	0	44	0	1972371456	5	3987
2026-01-17 03:22:34.19	296.53	47.49	-22.6	-23.6	19.9	9.61e-05	0	44	0	1977614336	5	4041
2026-01-17 03:22:35.20	295.93	47.46	-22.6	-23.5	20.0	0.00e+00	0	44	0	1982857216	5	4026
2026-01-17 03:22:36.20	295.35	47.43	-22.5	-23.3	20.1	0.00e+00	0	44	0	1989148672	5	3966
2026-01-17 03:22:37.20	294.76	47.40	-22.3	-23.0	20.2	0.00e+00	0	44	0	1994391552	5	3899
2026-01-17 03:22:38.20	294.18	47.36	-22.2	-22.8	20.3	0.00e+00	0	44	0	1999634432	5	3860
2026-01-17 03:22:39.20	293.60	47.32	-22.2	-22.9	20.3	0.00e+00	0	44	0	2005925888	5	3871
2026-01-17 03:22:40.20	293.02	47.28	-22.1	-22.6	20.4	0.00e+00	0	44	0	2011168768	5	3797
2026-01-17 03:22:41.20	292.44	47.23	-22.0	-22.4	20.5	0.00e+00	0	44	0	2016411648	5	3763
2026-01-17 03:22:42.20	291.86	47.18	-22.1	-22.5	20.5	0.00e+00	0	44	0	2022703104	5	3774
2026-01-17 03:22:43.20	291.29	47.13	-22.4	-23.2	20.1	0.00e+00	0	44	0	2027945984	5	3930
2026-01-17 03:22:44.20	290.71	47.08	-22.4	-23.2	20.2	0.00e+00	0	44	0	2034237440	5	3935
2026-01-17 03:22:45.21	290.13	47.02	-22.5	-23.4	20.0	0.00e+00	0	44	0	2039480320	5	3992
2026-01-17 03:22:46.21	289.57	46.95	-22.5	-23.4	20.0	0.00e+00	0	43	0	2044723200	5	3993
2026-01-17 03:22:47.22	288.99	46.89	-22.6	-23.7	19.9	0.00e+00	0	44	0	2051014656	5	4057
2026-01-17 03:22:48.22	288.43	46.82	-22.7	-23.7	19.9	0.00e+00	0	44	0	2056257536	5	4074
2026-01-17 03:22:49.22	287.87	46.75	-22.5	-23.4	20.1	0.00e+00	0	44	0	2061500416	5	3987
2026-01-17 03:22:50.23	287.30	46.68	-22.5	-23.4	20.0	0.00e+00	0	44	0	2067791872	5	3987
2026-01-17 03:22:51.23	286.74	46.60	-22.7	-23.7	19.9	0.00e+00	0	44	0	2073034752	5	4070
2026-01-17 03:22:52.22	286.20	46.52	-22.6	-23.6	19.9	0.00e+00	0	44	0	2078277632	5	4042
2026-01-17 03:22:53.23	285.64	46.44	-22.3	-23.0	20.3	0.00e+00	0	44	0	2084569088	5	3891
2026-01-17 03:22:54.23	285.09	46.36	-22.2	-22.7	20.3	0.00e+00	0	44	0	2089811968	5	3831
2026-01-17 03:22:55.23	284.55	46.27	-22.1	-22.5	20.5	3.40e-06	0	44	0	2096103424	5	3773
2026-01-17 03:22:56.23	284.00	46.18	-22.2	-22.7	20.4	5.49e-05	0	44	0	2101346304	5	3825
2026-01-17 03:22:57.23	283.46	46.09	-22.3	-23.1	20.2	0.00e+00	0	43	0	2106589184	5	3922
2026-01-17 03:22:58.23	282.93	45.99	-22.4	-23.2	20.1	1.02e-04	0	44	0	2112880640	5	3939
2026-01-17 03:22:59.22	282.40	45.90	-22.2	-22.8	20.3	7.43e-05	0	44	0	2118123520	5	3860
2026-01-17 03:23:00.22	281.87	45.80	-22.1	-22.6	20.5	0.00e+00	0	44	0	2123366400	5	3799
2026-01-17 03:23:01.23	281.34	45.69	-22.1	-22.6	20.4	9.04e-05	0	44	0	2129657856	5	3816
2026-01-17 03:23:02.23	280.82	45.59	-22.3	-23.1	20.2	1.58e-04	0	44	0	2134900736	5	3917
2026-01-17 03:23:03.23	280.30	45.48	-22.3	-22.9	20.2	0.00e+00	0	44	0	2140143616	5	3881
2026-01-17 03:23:04.24	279.78	45.37	-22.5	-23.4	20.0	1.75e-04	0	44	0	2146435072	5	3983
2026-01-17 03:23:05.24	279.27	45.26	-22.6	-23.5	19.9	1.79e-04	0	44	0	2151677952	5	4026
2026-01-17 03:23:06.23	278.76	45.14	-22.7	-23.8	19.8	0.00e+00	0	44	0	2157969408	5	4085
2026-01-17 03:23:07.24	278.26	45.03	-22.7	-23.8	19.8	1.14e-05	0	44	0	2163212288	5	4084
2026-01-17 03:23:08.24	277.75	44.91	-22.7	-23.7	19.8	0.00e+00	0	44	0	2169503744	5	4078
2026-01-17 03:23:09.25	277.25	44.79	-22.5	-23.4	20.0	0.00e+00	0	44	0	2174746624	5	3994
2026-01-17 03:23:10.24	276.76	44.67	-22.4	-23.2	20.1	0.00e+00	0	44	0	2179989504	5	3938
2026-01-17 03:23:11.24	276.27	44.54	-22.4	-23.2	20.1	5.03e-05	0	44	0	2186280960	5	3940
2026-01-17 03:23:12.24	275.79	44.42	-22.6	-23.6	19.9	0.00e+00	0	44	0	2191523840	5	4046
2026-01-17 03:23:13.24	275.31	44.29	-22.5	-23.5	20.0	0.00e+00	0	44	0	2196766720	5	4019
2026-01-17 03:23:14.24	274.83	44.16	-22.1	-22.6	20.4	9.61e-05	0	44	0	2203058176	5	3802
2026-01-17 03:23:15.24	274.36	44.03	-22.0	-22.4	20.5	1.10e-06	0	44	0	2208301056	5	3754
2026-01-17 03:23:16.25	273.88	43.89	-22.0	-22.8	20.5	2.59e-04	0	44	0	2214592512	4	3962
2026-01-17 03:23:17.25	273.42	43.76	-22.1	-23.0	20.5	0.00e+00	0	44	0	2219835392	4	4001
2026-01-17 03:23:18.25	272.95	43.62	-22.1	-23.0	20.4	4.50e-06	0	44	0	2225078272	4	4014
2026-01-17 03:23:19.24	272.50	43.48	-22.1	-23.0	20.4	1.30e-04	0	44	0	2231369728	4	4015
2026-01-17 03:23:20.24	272.05	43.34	-22.0	-22.9	20.5	0.00e+00	0	44	0	2236612608	4	3990
2026-01-17 03:23:21.24	271.60	43.20	-22.1	-23.0	20.4	3.40e-06	0	44	0	2241855488	4	4008
2026-01-17 03:23:22.25	271.15	43.06	-22.1	-23.0	20.4	0.00e+00	0	44	0	2248146944	4	4008
2026-01-17 03:23:23.25	270.70	42.91	-22.1	-23.0	20.4	9.84e-05	0	44	0	2253389824	4	4011
2026-01-17 03:23:24.25	270.27	42.77	-22.4	-23.7	20.0	1.10e-06	0	44	0	2258632704	4	4182
2026-01-17 03:23:25.25	269.83	42.62	-21.8	-22.6	19.6	0.00e+00	0	44	0	2264924160	4	3962
2026-01-17 03:23:26.25	269.40	42.47	-21.7	-22.3	20.7	2.02e-04	0	44	0	2270167040	4	3852
2026-01-17 03:23:27.25	268.97	42.32	-21.7	-22.7	14.0	4.50e-06	0	43	0	2276458496	3	4040
2026-01-17 03:23:28.25	268.55	42.17	-21.8	-23.0	16.8	1.91e-04	0	44	0	2281701376	3	4127
2026-01-17 03:23:29.25	268.13	42.02	-22.0	-23.3	20.6	0.00e+00	0	44	0	2286944256	3	4193
2026-01-17 03:23:30.25	267.72	41.87	-22.1	-23.2	20.0	6.80e-06	0	44	0	2293235712	4	4053
2026-01-17 03:23:31.25	267.31	41.71	-22.2	-23.4	20.2	3.10e-04	0	44	0	2298478592	4	4099
2026-01-17 03:23:32.25	266.90	41.56	-22.0	-22.9	20.4	0.00e+00	0	44	0	2303721472	4	3983
2026-01-17 03:23:33.26	266.50	41.40	-22.2	-23.3	20.2	2.20e-06	0	44	0	2310012928	4	4082
2026-01-17 03:23:34.26	266.10	41.25	-22.3	-23.5	20.1	0.00e+00	0	44	0	2315255808	4	4122
2026-01-17 03:23:35.26	265.70	41.09	-22.2	-23.2	20.3	0.00e+00	0	44	0	2320498688	4	4062
2026-01-17 03:23:36.27	265.31	40.93	-22.1	-23.0	20.4	4.50e-06	0	44	0	2326790144	4	4014
2026-01-17 03:23:37.26	264.92	40.77	-22.3	-23.5	20.1	0.00e+00	0	44	0	2332033024	4	4124
2026-01-17 03:23:38.27	264.54	40.61	-22.2	-23.2	20.3	1.02e-05	0	43	0	2338324480	4	4067
2026-01-17 03:23:39.28	264.15	40.45	-22.0	-22.9	20.4	3.40e-06	0	44	0	2343567360	4	3983
2026-01-17 03:23:40.28	263.78	40.28	-21.9	-22.7	20.5	0.00e+00	0	44	0	2348810240	4	3935
2026-01-17 03:23:41.28	263.41	40.12	-22.0	-22.9	20.4	0.00e+00	0	44	0	2355101696	4	3982
2026-01-17 03:23:42.28	263.04	39.96	-22.0	-22.9	20.4	0.00e+00	0	44	0	2360344576	4	3990
2026-01-17 03:23:43.29	262.67	39.80	-22.2	-23.4	20.2	4.99e-04	0	44	0	2366636032	4	4105
2026-01-17 03:23:44.28	262.31	39.63	-22.1	-23.2	20.3	0.00e+00	0	44	0	2371878912	4	4050
2026-01-17 03:23:45.28	261.96	39.47	-22.2	-23.3	20.2	7.09e-04	0	44	0	2377121792	4	4093
2026-01-17 03:23:46.29	261.60	39.30	-22.4	-23.7	20.0	0.00e+00	0	44	0	2383413248	4	4178
2026-01-17 03:23:47.29	261.25	39.14	-22.1	-23.2	20.3	0.00e+00	0	43	0	2388656128	4	4049
2026-01-17 03:23:48.28	260.91	38.97	-22.1	-23.0	20.3	0.00e+00	0	44	0	2393899008	4	4008
2026-01-17 03:23:49.29	260.56	38.81	-22.1	-23.0	20.3	6.84e-04	0	44	0	2400190464	4	4009
2026-01-17 03:23:50.29	260.22	38.64	-22.1	-23.2	20.2	0.00e+00	0	44	0	2405433344	4	4047
2026-01-17 03:23:51.29	259.88	38.47	-22.1	-23.0	20.3	2.20e-06	0	44	0	2411724800	4	4010
2026-01-17 03:23:52.30	259.55	38.30	-22.1	-23.0	20.3	6.30e-04	0	44	0	2416967680	4	4008
2026-01-17 03:23:53.31	259.22	38.14	-22.0	-22.9	20.4	0.00e+00	0	44	0	2422210560	4	3979
2026-01-17 03:23:54.30	258.89	37.97	-22.1	-23.2	20.3	5.98e-04	0	44	0	2428502016	4	4054
2026-01-17 03:23:55.31	258.57	37.80	-22.1	-23.0	20.3	0.00e+00	0	44	0	2433744896	4	4010
2026-01-17 03:23:56.31	258.25	37.63	-21.9	-22.6	20.5	0.00e+00	0	44	0	2438987776	4	3906
2026-01-17 03:23:57.32	257.93	37.46	-21.9	-22.7	20.5	1.07e-03	0	44	0	2445279232	4	3936
2026-01-17 03:23:58.31	257.62	37.30	-22.0	-22.9	20.4	0.00e+00	0	44	0	2450522112	4	3992
2026-01-17 03:23:59.32	257.31	37.13	-21.8	-22.5	20.6	0.00e+00	0	44	0	2455764992	4	3894
2026-01-17 03:24:00.32	257.00	36.96	-21.8	-22.5	20.6	0.00e+00	0	44	0	2462056448	4	3882
2026-01-17 03:24:01.32	256.70	36.79	-21.8	-22.4	20.6	9.83e-04	0	44	0	2467299328	4	3862
2026-01-17 03:24:02.32	256.40	36.62	-21.8	-22.4	20.6	0.00e+00	0	44	0	2473590784	4	3870
2026-01-17 03:24:03.32	256.10	36.45	-21.8	-22.5	20.6	1.01e-03	0	44	0	2478833664	4	3892
2026-01-17 03:24:04.32	255.81	36.28	-21.8	-22.5	20.6	9.13e-04	0	43	0	2484076544	4	3886
2026-01-17 03:24:05.32	255.52	36.11	-21.9	-22.6	20.5	0.00e+00	0	44	0	2490368000	4	3917
2026-01-17 03:24:06.32	255.23	35.95	-22.0	-22.9	20.4	1.06e-03	0	44	0	2495610880	4	3994
2026-01-17 03:24:07.32	254.95	35.78	-22.1	-23.2	20.2	0.00e+00	0	44	0	2500853760	4	4052
2026-01-17 03:24:08.32	254.67	35.61	-22.0	-22.8	20.4	0.00e+00	0	44	0	2507145216	4	3971
2026-01-17 03:24:09.33	254.39	35.44	-21.8	-22.4	20.6	1.25e-03	0	44	0	2512388096	4	3877
2026-01-17 03:24:10.34	254.11	35.27	-21.9	-22.6	20.5	1.25e-03	0	44	0	2518679552	4	3919
2026-01-17 03:24:11.35	253.83	35.10	-21.9	-22.6	20.5	0.00e+00	0	44	0	2523922432	4	3911
2026-01-17 03:24:12.35	253.56	34.93	-21.8	-22.9	20.6	1.22e-03	0	44	0	2529165312	3	4088
2026-01-17 03:24:13.36	253.29	34.76	-21.8	-23.0	20.6	1.11e-03	0	44	0	2535456768	3	4133
2026-01-17 03:24:14.36	253.03	34.60	-21.8	-23.0	20.6	0.00e+00	0	44	0	2540699648	3	4122
2026-01-17 03:24:15.36	252.77	34.43	-22.0	-23.3	20.4	1.08e-03	0	44	0	2546991104	3	4196
2026-01-17 03:24:16.36	252.51	34.26	-21.9	-23.2	20.5	1.05e-03	0	44	0	2552233984	3	4184
2026-01-17 03:24:17.36	252.25	34.09	-22.0	-22.8	20.4	0.00e+00	0	44	0	2557476864	4	3963
2026-01-17 03:24:18.35	252.00	33.93	-21.9	-22.7	20.4	8.02e-04	0	44	0	2563768320	4	3940
2026-01-17 03:24:19.35	251.75	33.76	-21.8	-22.4	20.6	8.97e-04	0	44	0	2569011200	4	3858
2026-01-17 03:24:20.36	251.50	33.60	-21.8	-22.5	20.6	0.00e+00	0	44	0	2574254080	4	3881
2026-01-17 03:24:21.36	251.25	33.43	-21.9	-22.7	20.5	0.00e+00	0	44	0	2580545536	4	3937
2026-01-17 03:24:22.36	251.01	33.26	-21.9	-22.6	20.5	9.81e-04	0	44	0	2585788416	4	3913
2026-01-17 03:24:23.36	250.77	33.10	-21.9	-22.7	20.4	0.00e+00	0	44	0	2591031296	4	3941
2026-01-17 03:24:24.36	250.53	32.93	-21.9	-22.7	20.4	9.55e-04	0	44	0	2597322752	4	3932
2026-01-17 03:24:25.36	250.29	32.77	-22.0	-23.0	20.3	9.86e-04	0	44	0	2602565632	4	4003
2026-01-17 03:24:26.36	250.06	32.61	-22.3	-23.5	20.0	0.00e+00	0	44	0	2608857088	4	4134
2026-01-17 03:24:27.36	249.83	32.44	-22.4	-23.7	19.9	9.86e-04	0	44	0	2614099968	4	4189
2026-01-17 03:24:28.37	249.59	32.28	-22.5	-23.5	19.8	0.00e+00	0	44	0	2619342848	5	4011
2026-01-17 03:24:29.37	249.37	32.11	-22.6	-23.7	19.7	1.59e-04	0	44	0	2625634304	5	4080
2026-01-17 03:24:30.38	249.14	31.95	-22.7	-23.8	19.5	0.00e+00	0	43	0	2630877184	5	4095
2026-01-17 03:24:31.38	248.92	31.79	-22.6	-23.5	19.8	1.11e-03	0	44	0	2637168640	5	4029
2026-01-17 03:24:32.38	248.70	31.63	-22.5	-23.4	19.8	2.89e-04	0	44	0	2642411520	5	3993
2026-01-17 03:24:33.39	248.48	31.46	-22.5	-23.4	19.8	0.00e+00	0	44	0	2647654400	5	3996
2026-01-17 03:24:34.39	248.26	31.30	-22.7	-23.8	19.6	1.42e-03	0	44	0	2653945856	5	4079
2026-01-17 03:24:35.39	248.05	31.14	-22.8	-24.0	19.5	0.00e+00	0	44	0	2659188736	5	4148
2026-01-17 03:24:36.40	247.84	30.98	-22.5	-23.4	19.8	1.43e-03	0	44	0	2664431616	5	4005
2026-01-17 03:24:37.39	247.63	30.82	-22.3	-23.1	20.0	0.00e+00	0	44	0	2670723072	5	3923
2026-01-17 03:24:38.39	247.42	30.66	-22.3	-23.5	20.0	6.02e-04	0	44	0	2675965952	4	4145
2026-01-17 03:24:39.38	247.22	30.51	-22.3	-23.5	20.0	0.00e+00	0	44	0	2682257408	4	4137
2026-01-17 03:24:40.39	247.01	30.35	-22.3	-23.5	20.0	0.00e+00	0	44	0	2687500288	4	4134
2026-01-17 03:24:41.39	246.81	30.19	-22.3	-23.6	20.0	5.90e-04	0	44	0	2692743168	4	4149
2026-01-17 03:24:42.40	246.61	30.03	-22.4	-23.7	19.9	1.30e-04	0	44	0	2699034624	4	4184
2026-01-17 03:24:43.41	246.41	29.87	-22.3	-23.5	20.0	2.19e-03	0	44	0	2704277504	4	4126
2026-01-17 03:24:44.40	246.22	29.72	-22.3	-23.6	19.9	0.00e+00	0	44	0	2709520384	4	4161
2026-01-17 03:24:45.40	246.03	29.56	-22.4	-23.7	19.9	1.44e-03	0	44	0	2715811840	4	4187
2026-01-17 03:24:46.40	245.84	29.40	-22.4	-23.7	19.9	2.10e-04	0	43	0	2721054720	4	4183
2026-01-17 03:24:47.40	245.65	29.25	-22.5	-23.4	19.8	0.00e+00	0	44	0	2726297600	5	3991
2026-01-17 03:24:48.40	245.46	29.09	-22.3	-23.0	20.0	1.66e-03	0	44	0	2732589056	5	3911
2026-01-17 03:24:49.40	245.27	28.94	-22.3	-22.9	20.0	1.43e-04	0	44	0	2737831936	5	3888
2026-01-17 03:24:50.40	245.09	28.79	-22.3	-23.1	19.9	1.20e-04	0	44	0	2744123392	5	3918
2026-01-17 03:24:51.41	244.90	28.63	-22.4	-23.2	19.9	4.50e-06	0	44	0	2749366272	5	3956
2026-01-17 03:24:52.40	244.73	28.48	-22.5	-23.4	19.8	0.00e+00	0	44	0	2754609152	5	4007
2026-01-17 03:24:53.41	244.55	28.33	-22.6	-23.6	19.7	0.00e+00	0	44	0	2760900608	5	4054
2026-01-17 03:24:54.41	244.37	28.18	-22.7	-23.9	19.5	2.28e-05	0	44	0	2766143488	5	4128
2026-01-17 03:24:55.41	244.19	28.03	-22.7	-23.8	19.5	1.71e-05	0	44	0	2771386368	5	4109
2026-01-17 03:24:56.42	244.02	27.87	-22.7	-23.8	19.5	0.00e+00	0	44	0	2777677824	5	4094
2026-01-17 03:24:57.43	243.84	27.72	-22.9	-24.2	19.4	3.32e-04	0	44	0	2782920704	5	4184
2026-01-17 03:24:58.43	243.67	27.57	-23.2	-24.4	19.0	1.22e-04	0	44	0	2788163584	6	4124
2026-01-17 03:24:59.43	243.50	27.42	-23.4	-24.8	18.8	0.00e+00	0	44	0	2794455040	6	4235
2026-01-17 03:25:00.43	243.34	27.28	-23.4	-24.3	18.8	1.48e-04	0	44	0	2799697920	7	4005
2026-01-17 03:25:01.43	243.17	27.13	-23.3	-24.1	18.9	1.68e-04	0	44	0	2805989376	7	3949
2026-01-17 03:25:02.44	243.01	26.98	-23.3	-24.1	18.9	4.50e-06	0	44	0	2811232256	7	3949
2026-01-17 03:25:03.45	242.84	26.83	-23.5	-24.5	18.7	1.72e-04	0	44	0	2817523712	7	4029
2026-01-17 03:25:04.45	242.68	26.69	-23.2	-24.4	19.0	3.43e-05	0	44	0	2822766592	6	4134
2026-01-17 03:25:05.45	242.52	26.54	-23.2	-24.4	19.0	8.00e-06	0	44	0	2828009472	6	4130
2026-01-17 03:25:06.44	242.36	26.40	-23.6	-24.8	18.5	2.24e-04	0	44	0	2834300928	7	4119
2026-01-17 03:25:07.44	242.21	26.25	-23.7	-24.9	18.5	2.83e-04	0	44	0	2839543808	7	4152
2026-01-17 03:25:08.44	242.05	26.11	-23.4	-24.2	18.8	0.00e+00	0	44	0	2844786688	7	3973
2026-01-17 03:25:09.45	241.90	25.96	-23.1	-23.7	19.1	2.23e-04	0	44	0	2851078144	7	3862
2026-01-17 03:25:10.45	241.74	25.82	-22.9	-23.8	19.3	2.27e-04	0	44	0	2856321024	6	3980
2026-01-17 03:25:11.45	241.59	25.68	-22.9	-23.7	19.4	1.25e-05	0	44	0	2861563904	6	3947
2026-01-17 03:25:12.45	241.44	25.54	-23.0	-23.9	19.2	3.23e-04	0	44	0	2867855360	6	4004
2026-01-17 03:25:13.45	241.30	25.39	-22.9	-23.7	19.3	4.44e-04	0	44	0	2873098240	6	3972
2026-01-17 03:25:14.46	241.15	25.25	-22.9	-23.8	19.3	8.00e-06	0	44	0	2879389696	6	3977
2026-01-17 03:25:15.46	241.00	25.11	-22.7	-23.9	19.4	5.19e-04	0	44	0	2884632576	5	4129
2026-01-17 03:25:16.46	240.86	24.97	-22.7	-23.9	19.5	0.00e+00	0	44	0	2889875456	5	4113
2026-01-17 03:25:17.47	240.71	24.83	-22.7	-23.9	19.4	6.80e-06	0	44	0	2896166912	5	4114
2026-01-17 03:25:18.47	240.57	24.69	-22.8	-24.1	19.3	0.00e+00	0	44	0	2901409792	5	4167
2026-01-17 03:25:19.48	240.43	24.55	-22.9	-24.3	19.2	1.25e-05	0	44	0	2906652672	5	4218
2026-01-17 03:25:20.48	240.29	24.42	-23.2	-24.3	19.0	8.00e-06	0	43	0	2912944128	6	4110
2026-01-17 03:25:21.48	240.15	24.28	-23.0	-24.0	19.1	0.00e+00	0	44	0	2918187008	6	4025
2026-01-17 03:25:22.48	240.01	24.14	-23.0	-23.9	19.2	0.00e+00	0	44	0	2923429888	6	4015
2026-01-17 03:25:23.48	239.88	24.01	-22.8	-23.6	19.3	4.50e-06	0	44	0	2929721344	6	3934
2026-01-17 03:25:24.48	239.74	23.87	-22.8	-23.5	19.4	0.00e+00	0	44	0	2934964224	6	3901
2026-01-17 03:25:25.47	239.61	23.74	-22.9	-23.7	19.3	0.00e+00	0	44	0	2941255680	6	3949
2026-01-17 03:25:26.47	239.48	23.60	-22.9	-23.7	19.3	8.00e-06	0	44	0	2946498560	6	3970
2026-01-17 03:25:27.48	239.35	23.47	-22.8	-23.5	19.4	0.00e+00	0	44	0	2951741440	6	3905
2026-01-17 03:25:28.48	239.22	23.33	-22.7	-23.3	19.5	0.00e+00	0	44	0	2958032896	6	3861
2026-01-17 03:25:29.48	239.09	23.20	-22.7	-23.4	19.4	4.50e-06	0	44	0	2963275776	6	3895
2026-01-17 03:25:30.48	238.96	23.07	-22.7	-23.9	19.4	0.00e+00	0	44	0	2968518656	5	4121
2026-01-17 03:25:31.48	238.84	22.94	-22.7	-23.8	19.4	6.44e-04	0	44	0	2974810112	5	4097
2026-01-17 03:25:32.48	238.71	22.81	-22.8	-24.0	19.3	8.00e-06	0	44	0	2980052992	5	4150
2026-01-17 03:25:33.49	238.58	22.67	-22.8	-24.0	19.3	0.00e+00	0	44	0	2986344448	5	4156
2026-01-17 03:25:34.49	238.46	22.54	-22.8	-24.0	19.3	0.00e+00	0	44	0	2991587328	5	4142
2026-01-17 03:25:35.50	238.34	22.41	-22.8	-24.1	19.2	5.70e-06	0	44	0	2996830208	5	4176
2026-01-17 03:25:36.50	238.22	22.28	-23.0	-24.5	19.1	0.00e+00	0	44	0	3003121664	5	4260
2026-01-17 03:25:37.51	238.10	22.15	-23.0	-24.1	19.0	0.00e+00	0	44	0	3008364544	6	4054
2026-01-17 03:25:38.51	237.98	22.03	-23.1	-24.1	19.0	3.40e-06	0	44	0	3014656000	6	4072
2026-01-17 03:25:39.51	237.86	21.90	-23.1	-24.2	19.0	0.00e+00	0	44	0	3019898880	6	4076
2026-01-17 03:25:40.52	237.74	21.77	-23.1	-24.2	19.0	0.00e+00	0	44	0	3025141760	6	4082
2026-01-17 03:25:41.51	237.63	21.65	-23.2	-24.4	18.8	0.00e+00	0	44	0	3031433216	6	4141
2026-01-17 03:25:42.51	237.51	21.52	-23.2	-24.3	18.9	0.00e+00	0	44	0	3036676096	6	4120
2026-01-17 03:25:43.52	237.39	21.39	-23.2	-24.5	18.8	0.00e+00	0	44	0	3041918976	6	4160
2026-01-17 03:25:44.52	237.28	21.27	-23.3	-24.6	18.7	4.50e-06	0	44	0	3048210432	6	4191
2026-01-17 03:25:45.52	237.17	21.14	-23.3	-24.6	18.8	0.00e+00	0	44	0	3053453312	6	4172
2026-01-17 03:25:46.53	237.06	21.02	-23.3	-24.6	18.7	0.00e+00	0	44	0	3058696192	6	4180
2026-01-17 03:25:47.53	236.95	20.89	-23.3	-24.5	18.8	1.10e-06	0	44	0	3064987648	6	4168
2026-01-17 03:25:48.53	236.84	20.77	-23.4	-24.7	18.6	0.00e+00	0	44	0	3070230528	6	4221
2026-01-17 03:25:49.54	236.73	20.65	-23.3	-24.6	18.7	0.00e+00	0	44	0	3076521984	6	4187
2026-01-17 03:25:50.54	236.62	20.52	-23.3	-24.7	18.6	0.00e+00	0	44	0	3081764864	6	4213
2026-01-17 03:25:51.54	236.51	20.40	-23.4	-24.7	18.6	0.00e+00	0	44	0	3088056320	6	4216
2026-01-17 03:25:52.54	236.41	20.28	-22.7	-24.1	18.2	0.00e+00	0	44	0	3093299200	6	4265
2026-01-17 03:25:53.54	236.30	20.16	-22.9	-24.2	16.2	0.00e+00	0	44	0	3098542080	6	4181
2026-01-17 03:25:54.55	236.19	20.04	-23.5	-24.6	13.9	0.00e+00	0	44	0	3104833536	7	4078
2026-01-17 03:25:55.55	236.09	19.92	-23.7	-25.0	16.2	0.00e+00	0	44	0	3110076416	7	4177
2026-01-17 03:25:56.55	235.99	19.80	-23.7	-24.9	17.1	6.80e-06	0	44	0	3115319296	7	4142
2026-01-17 03:25:57.55	235.89	19.68	-23.6	-24.8	18.1	0.00e+00	0	44	0	3121610752	7	4122
2026-01-17 03:25:58.56	235.78	19.56	-23.6	-24.8	18.3	0.00e+00	0	44	0	3126853632	7	4125
2026-01-17 03:25:59.56	235.68	19.44	-23.6	-24.8	18.3	0.00e+00	0	44	0	3132096512	7	4124
2026-01-17 03:26:00.56	235.58	19.33	-23.6	-24.8	18.3	0.00e+00	0	44	0	3138387968	7	4112
2026-01-17 03:26:01.56	235.49	19.21	-23.7	-25.0	18.2	7.82e-04	0	44	0	3143630848	7	4169
2026-01-17 03:26:02.56	235.39	19.09	-23.7	-25.0	18.2	0.00e+00	0	44	0	3149922304	7	4166
2026-01-17 03:26:03.56	235.29	18.98	-23.8	-25.2	18.1	0.00e+00	0	44	0	3155165184	7	4222
2026-01-17 03:26:04.56	235.19	18.86	-23.8	-25.2	18.1	0.00e+00	0	44	0	3160408064	7	4215
2026-01-17 03:26:05.56	235.10	18.75	-23.7	-25.0	18.2	0.00e+00	0	44	0	3166699520	7	4169
2026-01-17 03:26:06.56	235.00	18.63	-23.6	-24.7	18.3	3.40e-06	0	44	0	3171942400	7	4101
2026-01-17 03:26:07.56	234.91	18.52	-23.8	-25.1	18.1	0.00e+00	0	44	0	3177185280	7	4197
2026-01-17 03:26:08.56	234.82	18.40	-23.8	-25.1	18.1	1.58e-03	0	44	0	3183476736	7	4197
2026-01-17 03:26:09.56	234.72	18.29	-23.8	-25.2	18.1	0.00e+00	0	44	0	3188719616	7	4223
2026-01-17 03:26:10.55	234.63	18.18	-23.9	-25.3	18.0	7.49e-04	0	44	0	3195011072	7	4253
2026-01-17 03:26:11.55	234.54	18.07	-24.0	-25.0	17.9	0.00e+00	0	44	0	3200253952	8	4062
2026-01-17 03:26:12.55	234.45	17.96	-23.9	-25.0	17.9	0.00e+00	0	44	0	3205496832	8	4059
2026-01-17 03:26:13.55	234.36	17.84	-24.2	-25.4	17.7	7.27e-04	0	44	0	3211788288	8	4171
2026-01-17 03:26:14.55	234.27	17.73	-24.2	-25.4	17.7	0.00e+00	0	44	0	3217031168	8	4170
2026-01-17 03:26:15.55	234.18	17.62	-24.1	-25.4	17.7	1.16e-03	0	44	0	3222274048	8	4173
2026-01-17 03:26:16.56	234.09	17.51	-24.2	-25.6	17.6	0.00e+00	0	44	0	3228565504	8	4209
2026-01-17 03:26:17.56	234.00	17.40	-24.2	-25.5	17.7	9.86e-04	0	44	0	3233808384	8	4178
2026-01-17 03:26:18.56	233.92	17.29	-24.5	-25.7	17.3	0.00e+00	0	44	0	3239051264	9	4128
2026-01-17 03:26:19.56	233.83	17.18	-24.5	-25.6	17.3	0.00e+00	0	44	0	3245342720	9	4096
2026-01-17 03:26:20.56	233.75	17.07	-24.3	-25.3	17.5	6.58e-04	0	44	0	3250585600	9	4023
2026-01-17 03:26:21.57	233.66	16.96	-24.3	-25.3	17.5	0.00e+00	0	44	0	3256877056	9	4022
2026-01-17 03:26:22.57	233.58	16.86	-24.3	-25.9	17.4	0.00e+00	0	44	0	3262119936	8	4282
2026-01-17 03:26:23.57	233.49	16.75	-24.4	-25.9	17.4	0.00e+00	0	44	0	3267362816	8	4285
2026-01-17 03:26:24.57	233.41	16.64	-24.4	-26.0	17.4	3.29e-04	0	44	0	3273654272	8	4308
2026-01-17 03:26:25.58	233.33	16.53	-24.4	-26.0	17.4	0.00e+00	0	44	0	3278897152	8	4325
2026-01-17 03:26:26.58	233.24	16.43	-24.4	-25.6	17.3	0.00e+00	0	44	0	3284140032	9	4097
2026-01-17 03:26:27.59	233.16	16.32	-24.7	-26.1	17.0	7.93e-04	0	44	0	3290431488	9	4227
2026-01-17 03:26:28.59	233.08	16.22	-24.7	-26.2	17.0	0.00e+00	0	44	0	3295674368	9	4252
2026-01-17 03:26:29.59	233.00	16.11	-24.5	-25.8	17.2	9.49e-04	0	44	0	3301965824	9	4146
2026-01-17 03:26:30.59	232.92	16.01	-24.2	-25.8	16.8	0.00e+00	0	44	0	3307208704	9	4309
2026-01-17 03:26:31.59	232.84	15.90	-24.8	-26.3	16.9	1.83e-05	0	44	0	3312451584	9	4290
2026-01-17 03:26:32.59	232.77	15.80	-24.7	-26.2	16.4	1.17e-03	0	44	0	3318743040	9	4263
2026-01-17 03:26:33.59	232.69	15.70	-24.8	-26.3	16.8	1.06e-03	0	44	0	3323985920	9	4281
2026-01-17 03:26:34.59	232.61	15.59	-24.7	-26.1	17.0	0.00e+00	0	44	0	3330277376	9	4239
2026-01-17 03:26:35.60	232.53	15.49	-24.7	-26.2	16.9	1.35e-03	0	44	0	3335520256	9	4248
2026-01-17 03:26:36.61	232.46	15.39	-24.8	-26.3	16.9	1.23e-03	0	44	0	3340763136	9	4283
2026-01-17 03:26:37.61	232.38	15.28	-24.6	-25.8	17.1	0.00e+00	0	44	0	3347054592	9	4163
2026-01-17 03:26:38.61	232.31	15.18	-24.5	-25.7	17.1	1.17e-03	0	44	0	3352297472	9	4134
2026-01-17 03:26:39.62	232.23	15.08	-24.7	-26.1	17.0	1.35e-03	0	44	0	3357540352	9	4225
2026-01-17 03:26:40.62	232.16	14.98	-24.5	-25.7	17.2	0.00e+00	0	44	0	3363831808	9	4117
2026-01-17 03:26:41.63	232.08	14.88	-24.6	-26.0	17.0	1.43e-03	0	44	0	3369074688	9	4200
2026-01-17 03:26:42.63	232.01	14.78	-24.6	-25.9	17.0	1.56e-03	0	44	0	3374317568	9	4190
2026-01-17 03:26:43.63	231.94	14.68	-24.8	-26.4	16.8	3.31e-05	0	44	0	3380609024	9	4304
2026-01-17 03:26:44.63	231.87	14.58	-24.9	-26.5	16.7	1.50e-03	0	44	0	3385851904	9	4330
2026-01-17 03:26:45.63	231.79	14.48	-25.0	-26.7	16.6	1.38e-03	0	43	0	3392143360	9	4385
2026-01-17 03:26:46.63	231.72	14.38	-25.1	-26.5	16.5	1.01e-04	0	44	0	3397386240	10	4214
2026-01-17 03:26:47.64	231.65	14.28	-25.4	-27.1	16.1	1.54e-03	0	44	0	3403677696	10	4380
2026-01-17 03:26:48.63	231.58	14.19	-25.4	-26.6	16.1	1.64e-03	0	44	0	3408920576	11	4148
2026-01-17 03:26:49.64	231.51	14.09	-25.3	-26.5	16.2	0.00e+00	0	44	0	3414163456	11	4126
2026-01-17 03:26:50.63	231.44	13.99	-25.4	-27.1	16.1	1.64e-03	0	44	0	3419406336	10	4378
2026-01-17 03:26:51.63	231.38	13.89	-25.4	-27.2	16.0	6.75e-05	0	44	0	3425697792	10	4417
2026-01-17 03:26:52.64	231.31	13.80	-25.7	-27.3	15.7	2.10e-04	0	44	0	3430940672	11	4316
2026-01-17 03:26:53.64	231.24	13.70	-25.7	-27.2	15.7	1.62e-03	0	44	0	3437232128	11	4314
2026-01-17 03:26:54.64	231.17	13.61	-25.3	-26.4	16.2	1.52e-03	0	44	0	3442475008	11	4103
2026-01-17 03:26:55.65	231.10	13.51	-25.2	-26.6	16.4	2.36e-04	0	44	0	3447717888	10	4246
2026-01-17 03:26:56.66	231.04	13.41	-25.2	-26.7	16.3	5.95e-05	0	44	0	3454009344	10	4275
2026-01-17 03:26:57.66	230.97	13.32	-25.5	-27.2	16.0	1.56e-03	0	44	0	3459252224	10	4428
2026-01-17 03:26:58.67	230.91	13.22	-25.5	-26.8	15.9	0.00e+00	0	44	0	3465543680	11	4205
2026-01-17 03:26:59.67	230.84	13.13	-25.1	-26.5	16.4	1.57e-03	0	44	0	3470786560	10	4224
2026-01-17 03:27:00.67	230.78	13.03	-25.2	-26.8	16.2	1.10e-06	0	44	0	3476029440	10	4309
2026-01-17 03:27:01.68	230.71	12.94	-25.2	-26.7	16.2	2.37e-04	0	44	0	3482320896	10	4295
2026-01-17 03:27:02.68	230.65	12.85	-25.1	-26.5	16.4	1.64e-03	0	44	0	3487563776	10	4217
2026-01-17 03:27:03.68	230.58	12.75	-25.0	-26.2	16.5	3.08e-05	0	44	0	3492806656	10	4155
2026-01-17 03:27:04.68	230.52	12.66	-24.9	-26.2	16.6	2.40e-04	0	44	0	3499098112	10	4142
2026-01-17 03:27:05.69	230.46	12.57	-25.1	-26.5	16.4	8.12e-05	0	44	0	3504340992	10	4222
2026-01-17 03:27:06.69	230.40	12.48	-25.3	-26.8	16.2	1.74e-03	0	44	0	3510632448	10	4325
2026-01-17 03:27:07.69	230.34	12.38	-25.3	-27.0	16.1	0.00e+00	0	44	0	3515875328	10	4374
2026-01-17 03:27:08.69	230.27	12.29	-25.4	-27.2	16.0	1.66e-03	0	44	0	3521118208	10	4423
2026-01-17 03:27:09.69	230.21	12.20	-25.3	-26.9	16.1	0.00e+00	0	44	0	3527409664	10	4352
2026-01-17 03:27:10.69	230.15	12.11	-25.4	-27.1	16.0	0.00e+00	0	44	0	3532652544	10	4405
2026-01-17 03:27:11.69	230.09	12.02	-25.4	-26.7	16.0	1.70e-03	0	44	0	3538944000	11	4186
2026-01-17 03:27:12.69	230.03	11.93	-25.5	-27.0	15.8	2.76e-04	0	44	0	3544186880	11	4253
2026-01-17 03:27:13.69	229.97	11.84	-25.6	-27.0	15.7	2.56e-04	0	44	0	3549429760	11	4268
2026-01-17 03:27:14.69	229.91	11.75	-25.4	-26.8	15.9	2.44e-04	0	44	0	3555721216	11	4198
2026-01-17 03:27:15.69	229.86	11.66	-25.5	-27.0	15.8	2.16e-04	0	44	0	3560964096	11	4249
2026-01-17 03:27:16.70	229.80	11.57	-25.5	-26.9	15.8	0.00e+00	0	44	0	3566206976	11	4223
2026-01-17 03:27:17.70	229.74	11.49	-25.6	-27.2	15.6	2.47e-04	0	44	0	3572498432	11	4310
2026-01-17 03:27:18.71	229.68	11.40	-25.5	-26.9	15.8	1.43e-03	0	44	0	3577741312	11	4233
2026-01-17 03:27:19.71	229.62	11.31	-25.5	-26.9	15.8	0.00e+00	0	44	0	3582984192	11	4225
2026-01-17 03:27:20.71	229.57	11.22	-25.8	-27.6	15.4	1.18e-03	0	44	0	3589275648	11	4413
2026-01-17 03:27:21.71	229.51	11.13	-25.7	-27.4	15.4	0.00e+00	0	44	0	3594518528	11	4372
2026-01-17 03:27:22.71	229.46	11.05	-25.7	-27.3	15.5	0.00e+00	0	44	0	3600809984	11	4335
2026-01-17 03:27:23.70	229.40	10.96	-25.7	-27.4	15.5	0.00e+00	0	44	0	3606052864	11	4354
2026-01-17 03:27:24.71	229.34	10.87	-25.6	-27.1	15.6	2.16e-04	0	44	0	3611295744	11	4295
2026-01-17 03:27:25.71	229.29	10.79	-26.0	-27.9	15.2	0.00e+00	0	44	0	3617587200	11	4523
2026-01-17 03:27:26.71	229.23	10.70	-25.7	-26.9	15.4	2.00e-04	0	44	0	3622830080	12	4127
2026-01-17 03:27:27.71	229.18	10.61	-25.7	-27.4	15.5	8.07e-04	0	44	0	3628072960	11	4358
2026-01-17 03:27:28.71	229.13	10.53	-25.6	-27.0	15.6	0.00e+00	0	44	0	3634364416	11	4264
2026-01-17 03:27:29.71	229.07	10.44	-25.7	-27.3	15.5	1.69e-04	0	44	0	3639607296	11	4334
2026-01-17 03:27:30.71	229.02	10.36	-25.8	-27.5	15.3	1.10e-06	0	44	0	3644850176	11	4400
2026-01-17 03:27:31.71	228.97	10.27	-25.9	-27.7	15.2	0.00e+00	0	44	0	3651141632	11	4460
2026-01-17 03:27:32.71	228.91	10.19	-25.8	-27.6	15.3	0.00e+00	0	44	0	3656384512	11	4407
2026-01-17 03:27:33.71	228.86	10.11	-26.2	-27.9	14.8	0.00e+00	0	44	0	3662675968	12	4404
2026-01-17 03:27:34.70	228.81	10.02	-26.1	-27.8	14.8	0.00e+00	0	44	0	3667918848	12	4364
2026-01-17 03:27:35.70	228.76	9.94	-26.1	-27.7	14.8	0.00e+00	0	44	0	3673161728	12	4354
2026-01-17 03:27:36.70	228.71	9.86	-25.9	-27.4	15.0	1.77e-04	0	44	0	3679453184	12	4254
2026-01-17 03:27:37.70	228.66	9.77	-25.9	-27.3	15.1	0.00e+00	0	44	0	3684696064	12	4223
2026-01-17 03:27:38.70	228.60	9.69	-25.9	-27.4	15.0	1.67e-04	0	44	0	3689938944	12	4249
2026-01-17 03:27:39.71	228.55	9.61	-26.0	-27.5	15.0	0.00e+00	0	44	0	3696230400	12	4275
2026-01-17 03:27:40.71	228.50	9.52	-25.9	-27.3	15.0	1.10e-06	0	44	0	3701473280	12	4244
2026-01-17 03:27:41.71	228.45	9.44	-26.0	-27.5	15.0	1.84e-04	0	44	0	3706716160	12	4275
2026-01-17 03:27:42.72	228.40	9.36	-26.0	-27.5	15.0	1.10e-06	0	44	0	3713007616	12	4283
2026-01-17 03:27:43.72	228.35	9.28	-26.1	-27.8	14.7	0.00e+00	0	44	0	3718250496	12	4382
2026-01-17 03:27:44.72	228.31	9.20	-26.0	-27.7	14.8	0.00e+00	0	44	0	3724541952	12	4335
2026-01-17 03:27:45.72	228.26	9.11	-25.8	-27.1	15.1	1.10e-06	0	44	0	3729784832	12	4190
2026-01-17 03:27:46.73	228.21	9.03	-25.8	-27.0	15.2	0.00e+00	0	44	0	3735027712	12	4162
2026-01-17 03:27:47.73	228.16	8.95	-25.7	-27.4	15.3	0.00e+00	0	44	0	3741319168	11	4361
2026-01-17 03:27:48.74	228.11	8.87	-25.8	-27.7	15.2	0.00e+00	0	44	0	3746562048	11	4453
2026-01-17 03:27:49.73	228.06	8.79	-25.8	-27.6	15.2	0.00e+00	0	44	0	3751804928	11	4422
2026-01-17 03:27:50.74	228.02	8.71	-26.0	-28.0	15.0	0.00e+00	0	44	0	3758096384	11	4556
2026-01-17 03:27:51.74	227.97	8.63	-25.9	-27.3	15.0	0.00e+00	0	44	0	3763339264	12	4238
2026-01-17 03:27:52.74	227.92	8.55	-25.8	-27.1	15.1	0.00e+00	0	44	0	3769630720	12	4177
2026-01-17 03:27:53.74	227.88	8.47	-25.8	-27.6	15.1	0.00e+00	0	44	0	3774873600	11	4435
2026-01-17 03:27:54.74	227.83	8.39	-25.9	-27.4	14.9	0.00e+00	0	44	0	3780116480	12	4262
2026-01-17 03:27:55.74	227.78	8.32	-25.9	-27.3	14.9	0.00e+00	0	44	0	3786407936	12	4243
2026-01-17 03:27:56.74	227.74	8.24	-25.9	-27.4	14.9	0.00e+00	0	44	0	3791650816	12	4272
2026-01-17 03:27:57.74	227.69	8.16	-25.9	-27.3	14.9	0.00e+00	0	44	0	3797942272	12	4237
2026-01-17 03:27:58.74	227.65	8.08	-26.1	-27.7	14.7	1.10e-06	0	44	0	3803185152	12	4365
2026-01-17 03:27:59.75	227.60	8.00	-26.0	-27.5	14.8	1.10e-06	0	44	0	3808428032	12	4310
2026-01-17 03:28:00.75	227.56	7.92	-25.8	-27.2	14.9	0.00e+00	0	44	0	3814719488	12	4223
2026-01-17 03:28:01.75	227.51	7.85	-26.0	-27.5	14.8	1.10e-06	0	44	0	3819962368	12	4299
2026-01-17 03:28:02.75	227.47	7.77	-26.0	-27.5	14.8	1.10e-06	0	44	0	3825205248	12	4296
2026-01-17 03:28:03.76	227.42	7.69	-25.9	-27.8	14.9	1.10e-06	0	44	0	3831496704	11	4498
2026-01-17 03:28:04.76	227.38	7.62	-26.0	-27.6	14.7	0.00e+00	0	44	0	3836739584	12	4330
2026-01-17 03:28:05.77	227.34	7.54	-26.2	-28.0	14.5	1.10e-06	0	44	0	3841982464	12	4430
2026-01-17 03:28:06.77	227.29	7.46	-25.9	-27.3	14.8	2.20e-06	0	44	0	3848273920	12	4246
2026-01-17 03:28:07.77	227.25	7.39	-26.1	-27.8	14.5	1.10e-06	0	44	0	3853516800	12	4383
2026-01-17 03:28:08.78	227.21	7.31	-26.1	-27.8	14.5	1.10e-06	0	44	0	3859808256	12	4398
