passes_logs/2026/01/17/R2M6_AANII_01/R2M6_AANII_01__20260117_013618_FENGYUN_3D_rec.log

#Pass ID: 20260117_013618_FENGYUN 3D
#Satellite: FENGYUN 3D
#Configuration: FENGYUN 3D
#almurnet v.1.7.20240730
#Start time: 2026-01-17 01:36:19

#Version: 2.2.20231116
#Station: R2M6_AANII_01
#Location: 30.233357 lon 59.946436 lat
#TLE: 1 43010U 17072A   26016.27214855  .00000192  00000+0  11235-3 0  9990
#TLE: 2 43010  98.9932 348.1078 0002365 105.5031 254.6406 14.19695933423435

#Time	Az	El	Level	Level2	SNR	BER	BlckErr	Temp	State	Recorded	gain1	gain2
2026-01-17 01:36:19.44	23.64	7.04	-28.3	-31.0	5.6	7.76e-01	0	41	0	0	16	4941
2026-01-17 01:36:20.44	23.69	7.11	-29.1	-32.2	5.4	7.86e-01	0	41	104	0	18	5155
2026-01-17 01:36:21.44	23.74	7.18	-29.4	-33.0	9.7	6.08e-03	0	41	0	0	18	5447
2026-01-17 01:36:22.44	23.79	7.26	-29.5	-32.7	9.5	1.06e-02	0	41	0	5242880	19	5201
2026-01-17 01:36:23.44	23.84	7.33	-29.5	-32.8	9.4	2.12e-02	0	41	0	11534336	19	5269
2026-01-17 01:36:24.44	23.89	7.40	-29.8	-33.5	9.0	2.71e-02	0	41	0	16777216	19	5541
2026-01-17 01:36:25.44	23.95	7.48	-29.3	-32.3	9.8	1.07e-02	0	41	0	22020096	19	5073
2026-01-17 01:36:26.44	24.00	7.55	-28.9	-31.6	10.5	3.20e-03	0	42	0	28311552	18	4922
2026-01-17 01:36:27.44	24.05	7.63	-28.7	-31.5	10.9	3.02e-03	0	41	0	33554432	17	4993
2026-01-17 01:36:28.45	24.10	7.70	-29.1	-32.1	10.3	3.62e-03	0	41	0	38797312	18	5087
2026-01-17 01:36:29.45	24.15	7.78	-29.2	-32.3	10.2	8.11e-03	0	41	0	45088768	18	5141
2026-01-17 01:36:30.45	24.21	7.85	-28.3	-30.1	11.6	1.60e-03	0	41	0	50331648	18	4414
2026-01-17 01:36:31.45	24.26	7.93	-28.4	-30.8	11.5	6.77e-04	0	41	0	55574528	17	4730
2026-01-17 01:36:32.45	24.31	8.00	-28.0	-30.3	12.1	1.48e-04	0	42	0	61865984	16	4668
2026-01-17 01:36:33.44	24.37	8.08	-28.3	-30.5	11.7	6.66e-04	0	42	0	67108864	17	4625
2026-01-17 01:36:34.45	24.42	8.16	-28.1	-30.5	12.0	1.04e-04	0	42	0	73400320	16	4758
2026-01-17 01:36:35.45	24.47	8.23	-28.3	-31.1	11.6	5.88e-04	0	42	0	78643200	16	4934
2026-01-17 01:36:36.45	24.53	8.31	-27.6	-29.6	12.4	1.20e-04	0	42	0	83886080	16	4528
2026-01-17 01:36:37.45	24.58	8.39	-27.8	-29.7	12.5	9.26e-05	0	42	0	90177536	16	4493
2026-01-17 01:36:38.45	24.64	8.46	-27.7	-30.1	11.8	8.69e-05	0	42	0	95420416	15	4739
2026-01-17 01:36:39.45	24.69	8.54	-27.0	-28.9	13.1	1.37e-05	0	42	0	100663296	14	4490
2026-01-17 01:36:40.45	24.75	8.62	-26.9	-28.6	13.7	8.00e-06	0	42	0	106954752	14	4381
2026-01-17 01:36:41.45	24.80	8.69	-27.1	-29.2	13.3	6.80e-06	0	42	0	112197632	14	4576
2026-01-17 01:36:42.45	24.86	8.77	-27.1	-29.1	13.4	2.40e-05	0	42	0	117440512	14	4525
2026-01-17 01:36:43.46	24.92	8.85	-26.5	-27.7	14.2	1.10e-06	0	42	0	123731968	14	4145
2026-01-17 01:36:44.46	24.97	8.93	-26.8	-28.9	13.8	3.72e-04	0	42	0	128974848	13	4589
2026-01-17 01:36:45.45	25.03	9.01	-27.3	-29.5	13.2	4.50e-06	0	42	0	135266304	14	4653
2026-01-17 01:36:46.46	25.08	9.09	-26.5	-27.7	14.2	2.20e-06	0	42	0	140509184	14	4139
2026-01-17 01:36:47.46	25.14	9.16	-26.5	-28.3	14.1	0.00e+00	0	42	0	145752064	13	4405
2026-01-17 01:36:48.46	25.20	9.24	-26.6	-28.5	14.0	0.00e+00	0	42	0	152043520	13	4466
2026-01-17 01:36:49.46	25.26	9.32	-26.7	-28.7	13.9	2.20e-06	0	42	0	157286400	13	4520
2026-01-17 01:36:50.46	25.32	9.40	-26.8	-28.9	13.8	3.40e-06	0	42	0	162529280	13	4598
2026-01-17 01:36:51.47	25.37	9.48	-27.2	-29.2	13.3	3.67e-04	0	42	0	168820736	14	4579
2026-01-17 01:36:52.47	25.43	9.56	-26.7	-28.1	13.9	4.50e-06	0	42	0	174063616	14	4250
2026-01-17 01:36:53.46	25.49	9.64	-26.3	-27.7	14.5	1.10e-06	0	42	0	179306496	13	4249
2026-01-17 01:36:54.47	25.55	9.72	-26.6	-28.4	14.1	2.20e-06	0	42	0	185597952	13	4440
2026-01-17 01:36:55.47	25.61	9.81	-26.3	-27.8	14.4	2.20e-06	0	42	0	190840832	13	4272
2026-01-17 01:36:56.48	25.67	9.89	-26.6	-28.5	14.0	3.76e-04	0	42	0	197132288	13	4464
2026-01-17 01:36:57.49	25.73	9.97	-26.1	-27.9	14.7	0.00e+00	0	42	0	202375168	12	4402
2026-01-17 01:36:58.49	25.79	10.05	-26.3	-28.2	14.5	0.00e+00	0	42	0	208666624	12	4475
2026-01-17 01:36:59.50	25.85	10.13	-26.2	-28.1	14.6	0.00e+00	0	42	0	213909504	12	4466
2026-01-17 01:37:00.51	25.92	10.22	-26.5	-28.1	14.3	3.79e-04	0	42	0	219152384	13	4354
2026-01-17 01:37:01.52	25.98	10.30	-26.0	-27.0	14.9	0.00e+00	0	42	0	225443840	13	4055
2026-01-17 01:37:02.52	26.04	10.38	-26.3	-28.2	14.5	7.47e-04	0	42	0	230686720	12	4496
2026-01-17 01:37:03.53	26.10	10.47	-25.7	-26.9	15.2	5.02e-04	0	42	0	235929600	12	4134
2026-01-17 01:37:04.52	26.16	10.55	-26.2	-28.0	14.6	0.00e+00	0	42	0	242221056	12	4436
2026-01-17 01:37:05.52	26.23	10.63	-26.2	-28.1	14.6	5.00e-04	0	42	0	247463936	12	4462
2026-01-17 01:37:06.52	26.29	10.71	-26.6	-28.4	14.2	7.89e-05	0	42	0	252706816	13	4424
2026-01-17 01:37:07.52	26.35	10.80	-26.8	-28.9	13.8	6.40e-05	0	42	0	258998272	13	4592
2026-01-17 01:37:08.52	26.42	10.88	-26.6	-28.5	14.1	5.02e-04	0	42	0	264241152	13	4469
2026-01-17 01:37:09.52	26.48	10.97	-26.9	-29.2	13.7	5.65e-04	0	42	0	270532608	13	4667
2026-01-17 01:37:10.52	26.55	11.05	-27.2	-29.3	13.3	8.00e-06	0	42	0	275775488	14	4597
2026-01-17 01:37:11.53	26.61	11.14	-26.5	-28.1	14.3	0.00e+00	0	42	0	281018368	13	4336
2026-01-17 01:37:12.53	26.68	11.22	-27.0	-28.9	13.6	7.97e-04	0	43	0	287309824	14	4484
2026-01-17 01:37:13.54	26.74	11.31	-26.7	-28.1	14.0	8.00e-06	0	43	0	292552704	14	4236
2026-01-17 01:37:14.54	26.81	11.39	-27.0	-29.3	13.6	1.00e-03	0	42	0	298844160	13	4706
2026-01-17 01:37:15.54	26.87	11.48	-27.0	-29.3	13.7	9.12e-04	0	43	0	304087040	13	4688
2026-01-17 01:37:16.54	26.94	11.57	-26.7	-28.6	14.0	1.68e-04	0	42	0	309329920	13	4496
2026-01-17 01:37:17.54	27.01	11.65	-26.3	-27.7	14.6	8.57e-04	0	43	0	315621376	13	4244
2026-01-17 01:37:18.55	27.08	11.74	-26.0	-27.4	15.0	0.00e+00	0	42	0	320864256	12	4266
2026-01-17 01:37:19.56	27.14	11.83	-25.7	-26.9	15.3	1.90e-04	0	42	0	326107136	12	4133
2026-01-17 01:37:20.56	27.21	11.92	-26.2	-28.0	14.7	8.14e-04	0	43	0	332398592	12	4434
2026-01-17 01:37:21.56	27.28	12.00	-26.0	-27.6	15.0	7.74e-04	0	42	0	337641472	12	4312
2026-01-17 01:37:22.56	27.35	12.09	-25.9	-27.3	15.1	0.00e+00	0	43	0	343932928	12	4219
2026-01-17 01:37:23.56	27.42	12.18	-26.2	-28.0	14.7	8.56e-04	0	43	0	349175808	12	4433
2026-01-17 01:37:24.56	27.49	12.27	-26.2	-28.0	14.7	6.48e-04	0	43	0	354418688	12	4442
2026-01-17 01:37:25.56	27.56	12.36	-26.1	-27.8	14.8	1.64e-04	0	43	0	360710144	12	4376
2026-01-17 01:37:26.56	27.63	12.45	-26.0	-27.5	15.0	8.17e-04	0	43	0	365953024	12	4277
2026-01-17 01:37:27.56	27.70	12.53	-25.9	-27.8	15.2	0.00e+00	0	43	0	371195904	11	4467
2026-01-17 01:37:28.56	27.77	12.62	-26.0	-27.5	15.1	1.61e-04	0	43	0	377487360	12	4291
2026-01-17 01:37:29.56	27.84	12.71	-25.9	-27.2	15.2	6.24e-04	0	43	0	382730240	12	4213
2026-01-17 01:37:30.56	27.91	12.80	-26.3	-28.2	14.6	0.00e+00	0	43	0	387973120	12	4491
2026-01-17 01:37:31.57	27.99	12.90	-26.4	-28.5	14.5	1.44e-04	0	43	0	394264576	12	4563
2026-01-17 01:37:32.57	28.06	12.99	-25.8	-26.6	15.3	1.41e-04	0	43	0	399507456	13	3940
2026-01-17 01:37:33.58	28.13	13.08	-25.7	-27.3	15.5	6.17e-04	0	43	0	405798912	11	4354
2026-01-17 01:37:34.58	28.21	13.17	-25.9	-27.8	15.3	2.63e-05	0	43	0	411041792	11	4470
2026-01-17 01:37:35.58	28.28	13.26	-26.1	-27.8	14.9	7.66e-04	0	43	0	416284672	12	4370
2026-01-17 01:37:36.58	28.36	13.35	-25.8	-27.1	15.3	6.86e-04	0	43	0	422576128	12	4189
2026-01-17 01:37:37.58	28.43	13.45	-25.6	-26.7	15.6	3.89e-05	0	43	0	427819008	12	4061
2026-01-17 01:37:38.59	28.51	13.54	-25.8	-27.6	15.4	7.87e-04	0	43	0	434110464	11	4426
2026-01-17 01:37:39.59	28.58	13.63	-25.7	-27.5	15.5	0.00e+00	0	43	0	439353344	11	4385
2026-01-17 01:37:40.59	28.66	13.73	-25.8	-27.6	15.4	1.72e-04	0	43	0	444596224	11	4416
2026-01-17 01:37:41.59	28.74	13.82	-25.4	-26.6	15.9	2.82e-04	0	43	0	450887680	11	4150
2026-01-17 01:37:42.59	28.81	13.91	-25.2	-26.7	16.2	0.00e+00	0	43	0	456130560	10	4293
2026-01-17 01:37:43.59	28.89	14.01	-25.1	-26.5	16.2	3.90e-04	0	43	0	461373440	10	4241
2026-01-17 01:37:44.59	28.97	14.10	-25.2	-26.7	16.2	4.26e-04	0	43	0	467664896	10	4278
2026-01-17 01:37:45.59	29.05	14.20	-25.1	-26.6	16.2	7.47e-04	0	43	0	472907776	10	4258
2026-01-17 01:37:46.59	29.13	14.29	-25.0	-26.4	16.4	3.88e-04	0	43	0	479199232	10	4195
2026-01-17 01:37:47.59	29.21	14.39	-24.9	-26.6	16.5	1.16e-03	0	43	0	484442112	9	4383
2026-01-17 01:37:48.59	29.29	14.48	-25.0	-26.2	16.4	0.00e+00	0	43	0	489684992	10	4163
2026-01-17 01:37:49.59	29.37	14.58	-24.9	-26.2	16.5	3.87e-04	0	43	0	495976448	10	4149
2026-01-17 01:37:50.59	29.45	14.68	-25.3	-27.0	16.1	0.00e+00	0	43	0	501219328	10	4359
2026-01-17 01:37:51.59	29.53	14.77	-25.3	-26.5	16.1	0.00e+00	0	43	0	506462208	11	4124
2026-01-17 01:37:52.60	29.61	14.87	-25.1	-26.5	16.3	0.00e+00	0	43	0	512753664	10	4242
2026-01-17 01:37:53.61	29.70	14.97	-25.1	-26.5	16.3	3.48e-04	0	43	0	517996544	10	4229
2026-01-17 01:37:54.60	29.78	15.07	-25.1	-26.6	16.3	0.00e+00	0	43	0	523239424	10	4252
2026-01-17 01:37:55.61	29.86	15.17	-25.0	-26.3	16.4	3.86e-04	0	43	0	529530880	10	4189
2026-01-17 01:37:56.60	29.95	15.26	-25.2	-26.6	16.3	3.58e-04	0	43	0	534773760	10	4270
2026-01-17 01:37:57.61	30.03	15.36	-25.3	-26.9	16.1	0.00e+00	0	43	0	541065216	10	4328
2026-01-17 01:37:58.61	30.12	15.46	-25.2	-26.8	16.2	3.50e-04	0	43	0	546308096	10	4316
2026-01-17 01:37:59.60	30.20	15.56	-25.3	-26.5	16.1	0.00e+00	0	43	0	551550976	11	4118
2026-01-17 01:38:00.61	30.29	15.66	-25.0	-26.3	16.5	0.00e+00	0	43	0	557842432	10	4190
2026-01-17 01:38:01.61	30.38	15.76	-25.1	-26.4	16.4	2.61e-04	0	43	0	563085312	10	4220
2026-01-17 01:38:02.61	30.46	15.86	-24.8	-25.8	16.7	0.00e+00	0	43	0	568328192	10	4055
2026-01-17 01:38:03.62	30.55	15.97	-24.8	-26.3	16.7	0.00e+00	0	43	0	574619648	9	4292
2026-01-17 01:38:04.61	30.64	16.07	-24.7	-26.2	16.8	0.00e+00	0	43	0	579862528	9	4261
2026-01-17 01:38:05.62	30.73	16.17	-24.9	-26.6	16.6	1.93e-04	0	43	0	585105408	9	4384
2026-01-17 01:38:06.61	30.82	16.27	-25.1	-26.6	16.3	0.00e+00	0	43	0	591396864	10	4265
2026-01-17 01:38:07.61	30.91	16.37	-25.1	-26.6	16.3	1.66e-04	0	43	0	596639744	10	4258
2026-01-17 01:38:08.61	31.00	16.48	-24.7	-25.6	16.9	2.04e-04	0	43	0	602931200	10	3998
2026-01-17 01:38:09.61	31.09	16.58	-24.3	-25.2	17.3	0.00e+00	0	43	0	608174080	9	4018
2026-01-17 01:38:10.62	31.18	16.68	-24.2	-25.0	17.4	3.35e-04	0	43	0	613416960	9	3955
2026-01-17 01:38:11.62	31.28	16.79	-24.1	-25.3	17.5	0.00e+00	0	43	0	619708416	8	4150
2026-01-17 01:38:12.62	31.37	16.89	-24.1	-25.4	17.5	0.00e+00	0	43	0	624951296	8	4164
2026-01-17 01:38:13.62	31.46	17.00	-24.1	-25.4	17.5	0.00e+00	0	43	0	630194176	8	4171
2026-01-17 01:38:14.63	31.56	17.10	-24.2	-25.5	17.4	0.00e+00	0	43	0	636485632	8	4197
2026-01-17 01:38:15.63	31.66	17.21	-24.0	-25.2	17.6	0.00e+00	0	43	0	641728512	8	4120
2026-01-17 01:38:16.64	31.75	17.32	-24.1	-25.4	17.5	0.00e+00	0	43	0	646971392	8	4165
2026-01-17 01:38:17.64	31.85	17.42	-24.1	-25.4	17.5	0.00e+00	0	43	0	653262848	8	4162
2026-01-17 01:38:18.64	31.95	17.53	-24.1	-25.4	17.5	0.00e+00	0	43	0	658505728	8	4174
2026-01-17 01:38:19.64	32.04	17.64	-24.2	-25.5	17.5	6.06e-04	0	43	0	664797184	8	4193
2026-01-17 01:38:20.65	32.14	17.74	-24.1	-25.4	17.5	0.00e+00	0	43	0	670040064	8	4154
2026-01-17 01:38:21.65	32.24	17.85	-24.0	-25.1	17.6	0.00e+00	0	43	0	676331520	8	4101
2026-01-17 01:38:22.65	32.34	17.96	-24.1	-25.3	17.5	2.20e-06	0	43	0	681574400	8	4154
2026-01-17 01:38:23.66	32.44	18.07	-23.9	-24.9	17.8	0.00e+00	0	43	0	686817280	8	4035
2026-01-17 01:38:24.66	32.54	18.18	-23.9	-24.8	17.8	0.00e+00	0	43	0	693108736	8	4018
2026-01-17 01:38:25.66	32.65	18.29	-24.0	-25.0	17.7	1.10e-06	0	43	0	698351616	8	4078
2026-01-17 01:38:26.67	32.75	18.40	-23.9	-25.0	17.8	0.00e+00	0	43	0	703594496	8	4060
2026-01-17 01:38:27.66	32.85	18.51	-23.9	-24.9	17.8	0.00e+00	0	43	0	709885952	8	4045
2026-01-17 01:38:28.67	32.96	18.62	-24.1	-25.3	17.6	0.00e+00	0	43	0	715128832	8	4145
2026-01-17 01:38:29.67	33.06	18.73	-24.0	-25.2	17.6	0.00e+00	0	43	0	721420288	8	4108
2026-01-17 01:38:30.67	33.17	18.84	-23.9	-25.0	17.7	0.00e+00	0	43	0	726663168	8	4069
2026-01-17 01:38:31.67	33.27	18.96	-23.9	-24.9	17.8	0.00e+00	0	43	0	731906048	8	4031
2026-01-17 01:38:32.67	33.38	19.07	-23.7	-24.6	18.0	0.00e+00	0	43	0	738197504	8	3966
2026-01-17 01:38:33.68	33.49	19.18	-23.9	-24.9	17.8	0.00e+00	0	43	0	743440384	8	4041
2026-01-17 01:38:34.68	33.60	19.30	-23.7	-24.5	18.0	0.00e+00	0	43	0	748683264	8	3941
2026-01-17 01:38:35.68	33.71	19.41	-23.7	-25.0	18.0	0.00e+00	0	43	0	754974720	7	4169
2026-01-17 01:38:36.69	33.82	19.52	-23.7	-25.0	18.0	0.00e+00	0	43	0	760217600	7	4166
2026-01-17 01:38:37.69	33.93	19.64	-23.7	-24.9	18.0	0.00e+00	0	43	0	765460480	7	4160
2026-01-17 01:38:38.69	34.04	19.75	-23.8	-25.1	18.0	0.00e+00	0	43	0	771751936	7	4203
2026-01-17 01:38:39.69	34.15	19.87	-23.8	-25.2	17.9	0.00e+00	0	43	0	776994816	7	4230
2026-01-17 01:38:40.69	34.27	19.99	-23.6	-24.7	18.2	0.00e+00	0	43	0	783286272	7	4107
2026-01-17 01:38:41.68	34.38	20.10	-23.6	-24.8	18.1	0.00e+00	0	43	0	788529152	7	4123
2026-01-17 01:38:42.68	34.50	20.22	-23.9	-25.4	17.8	0.00e+00	0	43	0	793772032	7	4278
2026-01-17 01:38:43.69	34.61	20.34	-23.7	-24.9	18.1	0.00e+00	0	43	0	800063488	7	4158
2026-01-17 01:38:44.70	34.73	20.45	-23.7	-24.9	18.1	0.00e+00	0	43	0	805306368	7	4145
2026-01-17 01:38:45.70	34.85	20.57	-23.8	-25.1	18.0	0.00e+00	0	43	0	811597824	7	4215
2026-01-17 01:38:46.69	34.96	20.69	-23.9	-25.4	17.8	0.00e+00	0	43	0	816840704	7	4277
2026-01-17 01:38:47.69	35.08	20.81	-23.9	-25.3	17.9	0.00e+00	0	43	0	822083584	7	4257
2026-01-17 01:38:48.70	35.21	20.93	-23.9	-25.3	17.9	0.00e+00	0	43	0	828375040	7	4259
2026-01-17 01:38:49.70	35.33	21.05	-23.8	-25.3	17.9	0.00e+00	0	43	0	833617920	7	4253
2026-01-17 01:38:50.70	35.45	21.17	-23.8	-25.2	17.9	0.00e+00	0	44	0	838860800	7	4223
2026-01-17 01:38:51.70	35.57	21.29	-23.7	-24.9	18.1	0.00e+00	0	43	0	845152256	7	4151
2026-01-17 01:38:52.70	35.70	21.41	-23.2	-24.6	17.6	0.00e+00	0	43	0	850395136	7	4197
2026-01-17 01:38:53.70	35.82	21.53	-23.7	-24.9	17.4	0.00e+00	0	43	0	856686592	7	4143
2026-01-17 01:38:54.70	35.95	21.66	-23.6	-24.8	18.1	0.00e+00	0	43	0	861929472	7	4139
2026-01-17 01:38:55.70	36.07	21.78	-23.7	-25.0	17.3	0.00e+00	0	43	0	867172352	7	4172
2026-01-17 01:38:56.70	36.20	21.90	-24.0	-25.5	17.8	0.00e+00	0	43	0	873463808	7	4313
2026-01-17 01:38:57.71	36.33	22.03	-23.9	-25.0	17.8	0.00e+00	0	43	0	878706688	8	4056
2026-01-17 01:38:58.71	36.46	22.15	-23.6	-24.7	18.2	0.00e+00	0	43	0	883949568	7	4090
2026-01-17 01:38:59.71	36.59	22.27	-23.5	-24.5	18.4	0.00e+00	0	43	0	890241024	7	4042
2026-01-17 01:39:00.71	36.72	22.40	-23.5	-24.5	18.4	0.00e+00	0	43	0	895483904	7	4039
2026-01-17 01:39:01.71	36.86	22.53	-23.5	-24.5	18.4	0.00e+00	0	43	0	900726784	7	4043
2026-01-17 01:39:02.71	36.99	22.65	-23.5	-24.7	18.3	0.00e+00	0	43	0	907018240	7	4091
2026-01-17 01:39:03.71	37.12	22.78	-23.5	-24.6	18.3	0.00e+00	0	43	0	912261120	7	4074
2026-01-17 01:39:04.72	37.26	22.91	-23.6	-24.8	18.2	0.00e+00	0	44	0	918552576	7	4130
2026-01-17 01:39:05.72	37.40	23.03	-23.5	-24.5	18.4	0.00e+00	0	43	0	923795456	7	4054
2026-01-17 01:39:06.72	37.54	23.16	-23.5	-24.5	18.3	0.00e+00	0	43	0	929038336	7	4059
2026-01-17 01:39:07.72	37.68	23.29	-23.3	-24.2	18.5	0.00e+00	0	43	0	935329792	7	3984
2026-01-17 01:39:08.72	37.82	23.42	-23.3	-24.1	18.6	1.71e-05	0	43	0	940572672	7	3949
2026-01-17 01:39:09.72	37.96	23.55	-23.2	-23.8	18.7	0.00e+00	0	43	0	945815552	7	3887
2026-01-17 01:39:10.72	38.10	23.68	-22.9	-23.9	19.0	1.25e-04	0	43	0	952107008	6	4005
2026-01-17 01:39:11.72	38.24	23.81	-22.9	-23.8	19.0	0.00e+00	0	43	0	957349888	6	3994
2026-01-17 01:39:12.72	38.39	23.94	-23.1	-24.1	18.8	0.00e+00	0	43	0	962592768	6	4071
2026-01-17 01:39:13.73	38.54	24.07	-23.0	-24.0	18.9	0.00e+00	0	43	0	968884224	6	4033
2026-01-17 01:39:14.74	38.68	24.20	-22.9	-23.9	19.0	0.00e+00	0	43	0	974127104	6	4003
2026-01-17 01:39:15.73	38.83	24.33	-22.9	-23.7	19.0	0.00e+00	0	43	0	980418560	6	3980
2026-01-17 01:39:16.74	38.98	24.47	-22.8	-23.6	19.1	0.00e+00	0	44	0	985661440	6	3937
2026-01-17 01:39:17.74	39.13	24.60	-23.0	-24.0	18.9	1.48e-04	0	43	0	991952896	6	4034
2026-01-17 01:39:18.75	39.29	24.73	-22.8	-23.5	19.2	0.00e+00	0	43	0	997195776	6	3921
2026-01-17 01:39:19.75	39.44	24.87	-22.6	-23.2	19.4	4.92e-05	0	44	0	1002438656	6	3843
2026-01-17 01:39:20.74	39.59	25.00	-22.7	-23.3	19.3	2.17e-05	0	43	0	1008730112	6	3871
2026-01-17 01:39:21.74	39.75	25.14	-22.6	-23.1	19.4	0.00e+00	0	43	0	1013972992	6	3832
2026-01-17 01:39:22.74	39.91	25.27	-22.6	-23.2	19.3	8.00e-06	0	43	0	1019215872	6	3845
2026-01-17 01:39:23.75	40.07	25.41	-22.6	-23.1	19.4	0.00e+00	0	43	0	1025507328	6	3817
2026-01-17 01:39:24.75	40.23	25.55	-22.5	-23.0	19.5	0.00e+00	0	44	0	1030750208	6	3796
2026-01-17 01:39:25.75	40.39	25.68	-22.6	-23.2	19.3	0.00e+00	0	43	0	1035993088	6	3840
2026-01-17 01:39:26.75	40.55	25.82	-22.6	-23.1	19.4	0.00e+00	0	43	0	1042284544	6	3826
2026-01-17 01:39:27.75	40.72	25.96	-22.5	-22.9	19.5	0.00e+00	0	43	0	1047527424	6	3769
2026-01-17 01:39:28.76	40.88	26.10	-22.5	-23.0	19.5	3.66e-05	0	43	0	1053818880	6	3790
2026-01-17 01:39:29.76	41.05	26.24	-22.6	-23.1	19.4	8.23e-05	0	43	0	1059061760	6	3817
2026-01-17 01:39:30.76	41.22	26.38	-22.5	-23.0	19.5	0.00e+00	0	43	0	1064304640	6	3809
2026-01-17 01:39:31.75	41.39	26.51	-22.6	-23.0	19.4	6.29e-05	0	43	0	1070596096	6	3810
2026-01-17 01:39:32.76	41.56	26.66	-22.4	-22.7	19.6	6.98e-05	0	44	0	1075838976	6	3737
2026-01-17 01:39:33.76	41.73	26.80	-22.3	-22.6	18.9	0.00e+00	0	43	0	1081081856	6	3700
2026-01-17 01:39:34.76	41.90	26.94	-22.3	-23.0	19.3	1.10e-06	0	43	0	1087373312	5	3901
2026-01-17 01:39:35.77	42.08	27.08	-22.3	-23.0	19.7	1.10e-06	0	43	0	1092616192	5	3915
2026-01-17 01:39:36.77	42.26	27.22	-22.4	-23.3	19.3	0.00e+00	0	43	0	1097859072	5	3984
2026-01-17 01:39:37.78	42.44	27.37	-22.5	-23.5	19.4	2.06e-04	0	43	0	1104150528	5	4023
2026-01-17 01:39:38.79	42.62	27.51	-22.5	-23.5	19.5	0.00e+00	0	43	0	1109393408	5	4020
2026-01-17 01:39:39.79	42.80	27.65	-22.5	-23.4	19.5	0.00e+00	0	43	0	1115684864	5	4008
2026-01-17 01:39:40.79	42.99	27.80	-22.5	-23.4	19.6	0.00e+00	0	43	0	1120927744	5	3999
2026-01-17 01:39:41.79	43.17	27.94	-22.5	-23.3	19.6	0.00e+00	0	43	0	1127219200	5	3986
2026-01-17 01:39:42.80	43.36	28.09	-22.5	-23.4	19.5	0.00e+00	0	43	0	1132462080	5	4009
2026-01-17 01:39:43.80	43.55	28.23	-22.4	-23.3	19.6	0.00e+00	0	44	0	1137704960	5	3976
2026-01-17 01:39:44.80	43.74	28.38	-22.4	-23.3	19.6	0.00e+00	0	43	0	1143996416	5	3966
2026-01-17 01:39:45.80	43.93	28.52	-22.3	-22.9	19.8	0.00e+00	0	44	0	1149239296	5	3886
2026-01-17 01:39:46.81	44.13	28.67	-22.3	-22.9	19.8	9.15e-05	0	43	0	1154482176	5	3887
2026-01-17 01:39:47.81	44.32	28.82	-22.3	-23.0	19.8	0.00e+00	0	44	0	1160773632	5	3906
2026-01-17 01:39:48.82	44.52	28.97	-22.2	-22.8	19.9	0.00e+00	0	43	0	1166016512	5	3862
2026-01-17 01:39:49.82	44.72	29.12	-22.1	-22.7	19.9	0.00e+00	0	43	0	1171259392	5	3839
2026-01-17 01:39:50.82	44.92	29.26	-22.3	-23.1	19.7	0.00e+00	0	43	0	1177550848	5	3923
2026-01-17 01:39:51.82	45.12	29.41	-22.6	-23.7	19.5	1.75e-04	0	43	0	1182793728	5	4070
2026-01-17 01:39:52.83	45.33	29.56	-22.7	-23.8	19.4	0.00e+00	0	43	0	1189085184	5	4106
2026-01-17 01:39:53.83	45.54	29.71	-22.8	-24.1	19.2	0.00e+00	0	44	0	1194328064	5	4178
2026-01-17 01:39:54.84	45.75	29.86	-22.7	-23.8	19.4	0.00e+00	0	43	0	1199570944	5	4095
2026-01-17 01:39:55.84	45.96	30.01	-22.4	-23.2	19.7	1.74e-04	0	44	0	1205862400	5	3949
2026-01-17 01:39:56.84	46.17	30.17	-22.5	-23.4	19.6	0.00e+00	0	43	0	1211105280	5	3989
2026-01-17 01:39:57.84	46.38	30.32	-22.4	-23.2	19.7	1.62e-04	0	43	0	1217396736	5	3954
2026-01-17 01:39:58.85	46.60	30.47	-22.5	-23.5	19.5	1.30e-04	0	43	0	1222639616	5	4030
2026-01-17 01:39:59.85	46.82	30.62	-22.4	-23.2	19.7	0.00e+00	0	43	0	1227882496	5	3949
2026-01-17 01:40:00.86	47.04	30.77	-22.2	-22.8	19.9	1.77e-04	0	43	0	1234173952	5	3860
2026-01-17 01:40:01.86	47.26	30.93	-22.3	-22.9	19.8	0.00e+00	0	44	0	1239416832	5	3888
2026-01-17 01:40:02.86	47.49	31.08	-22.1	-22.5	20.0	0.00e+00	0	43	0	1244659712	5	3796
2026-01-17 01:40:03.87	47.72	31.23	-22.2	-22.8	19.9	1.64e-04	0	43	0	1250951168	5	3851
2026-01-17 01:40:04.86	47.94	31.39	-22.1	-22.7	20.0	8.12e-05	0	44	0	1256194048	5	3827
2026-01-17 01:40:05.87	48.17	31.54	-22.3	-23.0	19.8	0.00e+00	0	44	0	1262485504	5	3899
2026-01-17 01:40:06.87	48.41	31.70	-22.2	-22.7	20.0	0.00e+00	0	44	0	1267728384	5	3843
2026-01-17 01:40:07.88	48.64	31.85	-22.3	-23.0	19.8	1.96e-04	0	43	0	1272971264	5	3900
2026-01-17 01:40:08.88	48.88	32.01	-22.2	-22.8	20.0	0.00e+00	0	43	0	1279262720	5	3847
2026-01-17 01:40:09.89	49.12	32.16	-22.2	-22.9	19.9	1.25e-04	0	43	0	1284505600	5	3872
2026-01-17 01:40:10.89	49.36	32.32	-22.1	-22.7	20.0	1.66e-04	0	43	0	1290797056	5	3825
2026-01-17 01:40:11.90	49.61	32.48	-22.2	-22.7	20.0	0.00e+00	0	43	0	1296039936	5	3846
2026-01-17 01:40:12.89	49.85	32.63	-22.1	-22.5	20.1	1.48e-05	0	44	0	1301282816	5	3797
2026-01-17 01:40:13.89	50.10	32.79	-22.1	-22.6	20.0	0.00e+00	0	44	0	1306525696	5	3814
2026-01-17 01:40:14.89	50.35	32.94	-22.2	-22.9	19.9	0.00e+00	0	43	0	1312817152	5	3880
2026-01-17 01:40:15.89	50.61	33.10	-22.2	-22.8	20.0	0.00e+00	0	44	0	1318060032	5	3855
2026-01-17 01:40:16.89	50.86	33.25	-22.3	-22.9	19.9	2.27e-04	0	43	0	1324351488	5	3885
2026-01-17 01:40:17.89	51.12	33.41	-22.2	-22.8	20.0	0.00e+00	0	43	0	1329594368	5	3852
2026-01-17 01:40:18.89	51.38	33.57	-22.3	-23.1	19.8	1.75e-04	0	43	0	1335885824	5	3926
2026-01-17 01:40:19.90	51.65	33.73	-22.4	-23.1	19.8	3.19e-04	0	44	0	1341128704	5	3929
2026-01-17 01:40:20.90	51.91	33.88	-22.2	-22.9	19.9	0.00e+00	0	44	0	1346371584	5	3884
2026-01-17 01:40:21.90	52.18	34.04	-22.3	-22.9	19.9	2.94e-04	0	43	0	1352663040	5	3893
2026-01-17 01:40:22.90	52.45	34.20	-22.6	-23.7	19.5	0.00e+00	0	43	0	1357905920	5	4077
2026-01-17 01:40:23.91	52.73	34.36	-22.5	-23.3	19.7	0.00e+00	0	44	0	1363148800	5	3988
2026-01-17 01:40:24.91	53.00	34.52	-22.4	-23.2	19.8	2.91e-04	0	43	0	1369440256	5	3940
2026-01-17 01:40:25.91	53.28	34.67	-22.6	-23.6	19.6	2.71e-04	0	43	0	1374683136	5	4054
2026-01-17 01:40:26.91	53.56	34.83	-22.3	-23.1	19.8	0.00e+00	0	43	0	1379926016	5	3916
2026-01-17 01:40:27.91	53.85	34.99	-22.2	-22.9	19.9	0.00e+00	0	43	0	1386217472	5	3870
2026-01-17 01:40:28.91	54.13	35.15	-22.4	-23.3	19.8	2.88e-04	0	43	0	1391460352	5	3970
2026-01-17 01:40:29.91	54.42	35.31	-22.2	-22.8	20.0	0.00e+00	0	44	0	1397751808	5	3864
2026-01-17 01:40:30.91	54.71	35.46	-22.0	-22.3	20.2	6.06e-05	0	44	0	1402994688	5	3746
2026-01-17 01:40:31.91	55.01	35.62	-21.8	-22.0	20.4	1.73e-04	0	44	0	1408237568	5	3685
2026-01-17 01:40:32.91	55.31	35.78	-22.0	-22.4	20.2	0.00e+00	0	44	0	1414529024	5	3759
2026-01-17 01:40:33.91	55.61	35.94	-22.1	-22.7	20.1	1.69e-04	0	44	0	1419771904	5	3825
2026-01-17 01:40:34.91	55.91	36.10	-22.3	-23.0	19.9	0.00e+00	0	44	0	1425014784	5	3916
2026-01-17 01:40:35.92	56.22	36.26	-22.2	-22.8	20.0	0.00e+00	0	44	0	1431306240	5	3856
2026-01-17 01:40:36.93	56.53	36.41	-22.0	-22.4	20.3	0.00e+00	0	44	0	1436549120	5	3756
2026-01-17 01:40:37.92	56.84	36.57	-21.9	-22.2	20.3	2.84e-04	0	43	0	1442840576	5	3720
2026-01-17 01:40:38.93	57.16	36.73	-22.2	-22.8	20.1	0.00e+00	0	44	0	1448083456	5	3850
2026-01-17 01:40:39.94	57.48	36.89	-22.0	-22.4	20.2	0.00e+00	0	44	0	1453326336	5	3762
2026-01-17 01:40:40.93	57.80	37.04	-21.8	-21.9	20.4	2.77e-04	0	44	0	1459617792	5	3661
2026-01-17 01:40:41.94	58.13	37.20	-21.7	-22.2	20.6	0.00e+00	0	43	0	1464860672	4	3813
2026-01-17 01:40:42.94	58.45	37.36	-21.9	-22.7	20.3	4.08e-04	0	44	0	1470103552	4	3935
2026-01-17 01:40:43.94	58.78	37.51	-22.0	-22.9	20.2	0.00e+00	0	44	0	1476395008	4	3988
2026-01-17 01:40:44.94	59.12	37.67	-22.1	-23.1	20.1	0.00e+00	0	43	0	1481637888	4	4028
2026-01-17 01:40:45.93	59.45	37.82	-22.0	-22.9	20.2	0.00e+00	0	44	0	1486880768	4	3989
2026-01-17 01:40:46.93	59.79	37.98	-22.0	-23.0	20.2	0.00e+00	0	44	0	1493172224	4	4010
2026-01-17 01:40:47.93	60.14	38.13	-21.9	-22.6	20.4	0.00e+00	0	44	0	1498415104	4	3913
2026-01-17 01:40:48.93	60.48	38.29	-21.7	-22.3	20.5	0.00e+00	0	44	0	1504706560	4	3857
2026-01-17 01:40:49.93	60.83	38.44	-21.8	-22.4	20.5	1.74e-04	0	44	0	1509949440	4	3882
2026-01-17 01:40:50.93	61.19	38.59	-21.9	-22.6	20.4	0.00e+00	0	43	0	1515192320	4	3916
2026-01-17 01:40:51.93	61.54	38.75	-22.0	-22.8	20.2	0.00e+00	0	44	0	1521483776	4	3973
2026-01-17 01:40:52.93	61.90	38.90	-22.0	-23.0	20.2	0.00e+00	0	44	0	1526726656	4	4002
2026-01-17 01:40:53.94	62.27	39.05	-22.1	-23.0	20.2	0.00e+00	0	44	0	1533018112	4	4018
2026-01-17 01:40:54.95	62.64	39.20	-22.0	-22.9	20.3	0.00e+00	0	44	0	1538260992	4	3980
2026-01-17 01:40:55.94	63.00	39.35	-22.2	-23.2	20.1	0.00e+00	0	44	0	1543503872	4	4060
2026-01-17 01:40:56.94	63.38	39.50	-21.9	-22.7	20.3	0.00e+00	0	44	0	1549795328	4	3944
2026-01-17 01:40:57.94	63.75	39.65	-22.0	-22.8	20.3	0.00e+00	0	43	0	1555038208	4	3969
2026-01-17 01:40:58.94	64.13	39.80	-22.1	-23.1	20.1	0.00e+00	0	43	0	1560281088	4	4028
2026-01-17 01:40:59.94	64.52	39.95	-22.0	-22.9	20.2	0.00e+00	0	44	0	1566572544	4	3999
2026-01-17 01:41:00.92	64.90	40.09	-22.2	-23.3	20.0	0.00e+00	0	44	0	1571815424	4	4072
2026-01-17 01:41:01.93	65.29	40.24	-22.1	-23.0	20.2	5.49e-05	0	43	0	1577058304	4	4018
2026-01-17 01:41:02.94	65.69	40.38	-21.9	-22.7	20.3	0.00e+00	0	44	0	1583349760	4	3934
2026-01-17 01:41:03.93	66.08	40.53	-21.8	-22.5	20.4	0.00e+00	0	44	0	1588592640	4	3899
2026-01-17 01:41:04.94	66.49	40.67	-22.1	-23.0	20.2	0.00e+00	0	44	0	1593835520	4	4009
2026-01-17 01:41:05.94	66.89	40.81	-22.0	-22.9	20.3	0.00e+00	0	44	0	1600126976	4	3979
2026-01-17 01:41:06.93	67.30	40.95	-22.3	-23.5	20.0	0.00e+00	0	43	0	1605369856	4	4128
2026-01-17 01:41:07.93	67.71	41.09	-22.2	-23.3	20.1	0.00e+00	0	44	0	1610612736	4	4085
2026-01-17 01:41:08.94	68.13	41.23	-22.1	-23.1	20.2	0.00e+00	0	44	0	1616904192	4	4044
2026-01-17 01:41:09.95	68.55	41.37	-22.0	-22.9	20.2	0.00e+00	0	44	0	1622147072	4	4001
2026-01-17 01:41:10.95	68.97	41.51	-22.2	-23.3	20.1	0.00e+00	0	44	0	1628438528	4	4093
2026-01-17 01:41:11.96	69.40	41.65	-22.1	-23.1	20.2	0.00e+00	0	44	0	1633681408	4	4034
2026-01-17 01:41:12.96	69.83	41.78	-21.9	-22.8	20.1	0.00e+00	0	43	0	1639972864	4	3988
2026-01-17 01:41:13.96	70.26	41.91	-21.9	-22.7	20.1	0.00e+00	0	44	0	1645215744	4	3958
2026-01-17 01:41:14.96	70.70	42.05	-22.0	-23.0	20.0	0.00e+00	0	44	0	1650458624	4	4026
2026-01-17 01:41:15.96	71.14	42.18	-22.0	-23.0	20.0	0.00e+00	0	44	0	1656750080	4	4031
2026-01-17 01:41:16.96	71.58	42.30	-22.2	-23.5	19.8	0.00e+00	0	43	0	1661992960	4	4138
2026-01-17 01:41:17.97	72.03	42.43	-22.0	-23.0	20.0	0.00e+00	0	44	0	1667235840	4	4015
2026-01-17 01:41:18.97	72.48	42.56	-22.0	-22.9	20.1	0.00e+00	0	44	0	1673527296	4	3996
2026-01-17 01:41:19.97	72.94	42.68	-22.1	-23.2	19.9	0.00e+00	0	44	0	1678770176	4	4079
2026-01-17 01:41:20.97	73.39	42.81	-22.2	-23.3	19.9	0.00e+00	0	44	0	1684013056	4	4113
2026-01-17 01:41:21.98	73.86	42.93	-22.2	-23.3	19.9	0.00e+00	0	44	0	1690304512	4	4107
2026-01-17 01:41:22.98	74.32	43.05	-22.2	-23.4	19.8	0.00e+00	0	44	0	1695547392	4	4134
2026-01-17 01:41:23.98	74.79	43.17	-22.3	-23.5	19.8	0.00e+00	0	44	0	1701838848	4	4151
2026-01-17 01:41:24.98	75.26	43.28	-22.0	-22.9	20.1	0.00e+00	0	44	0	1707081728	4	4006
2026-01-17 01:41:25.98	75.74	43.40	-21.9	-22.6	20.2	0.00e+00	0	44	0	1712324608	4	3936
2026-01-17 01:41:26.97	76.21	43.51	-21.8	-22.5	20.3	0.00e+00	0	43	0	1718616064	4	3913
2026-01-17 01:41:27.98	76.70	43.62	-22.0	-22.9	20.1	0.00e+00	0	44	0	1723858944	4	3994
2026-01-17 01:41:28.98	77.18	43.73	-22.1	-23.3	19.9	0.00e+00	0	44	0	1729101824	4	4098
2026-01-17 01:41:29.98	77.67	43.84	-22.3	-23.6	19.7	0.00e+00	0	44	0	1735393280	4	4187
2026-01-17 01:41:30.98	78.16	43.94	-22.4	-23.7	19.7	0.00e+00	0	44	0	1740636160	4	4218
2026-01-17 01:41:31.98	78.65	44.04	-22.2	-23.4	19.9	0.00e+00	0	44	0	1745879040	4	4118
2026-01-17 01:41:32.98	79.15	44.14	-22.2	-23.3	19.9	0.00e+00	0	43	0	1752170496	4	4105
2026-01-17 01:41:33.98	79.65	44.24	-22.4	-23.7	19.7	0.00e+00	0	44	0	1757413376	4	4195
2026-01-17 01:41:34.99	80.16	44.34	-22.1	-23.1	20.0	0.00e+00	0	44	0	1763704832	4	4059
2026-01-17 01:41:35.99	80.67	44.43	-22.1	-23.1	20.0	0.00e+00	0	44	0	1768947712	4	4056
2026-01-17 01:41:36.99	81.18	44.53	-22.2	-23.4	19.9	0.00e+00	0	44	0	1775239168	4	4118
2026-01-17 01:41:37.99	81.69	44.62	-22.3	-23.5	19.8	0.00e+00	0	44	0	1780482048	4	4150
2026-01-17 01:41:38.99	82.20	44.70	-22.3	-23.6	19.8	0.00e+00	0	44	0	1785724928	4	4188
2026-01-17 01:41:40.00	82.73	44.79	-22.2	-23.3	20.0	0.00e+00	0	44	0	1792016384	4	4094
2026-01-17 01:41:41.00	83.25	44.87	-22.2	-23.3	19.9	0.00e+00	0	44	0	1797259264	4	4103
2026-01-17 01:41:42.01	83.78	44.95	-22.3	-23.5	19.9	0.00e+00	0	43	0	1802502144	4	4142
2026-01-17 01:41:43.01	84.30	45.03	-22.2	-23.4	19.9	0.00e+00	0	44	0	1808793600	4	4120
2026-01-17 01:41:44.00	84.83	45.11	-22.1	-23.2	20.0	0.00e+00	0	44	0	1814036480	4	4083
2026-01-17 01:41:45.01	85.36	45.18	-22.2	-23.3	19.9	0.00e+00	0	44	0	1819279360	4	4108
2026-01-17 01:41:46.01	85.90	45.25	-22.2	-23.3	20.0	0.00e+00	0	44	0	1825570816	4	4093
2026-01-17 01:41:47.02	86.44	45.32	-22.5	-23.9	19.6	0.00e+00	0	44	0	1830813696	4	4251
2026-01-17 01:41:48.02	86.97	45.38	-22.6	-23.8	19.5	0.00e+00	0	43	0	1837105152	5	4111
2026-01-17 01:41:49.02	87.51	45.45	-22.5	-23.6	19.5	0.00e+00	0	44	0	1842348032	5	4072
2026-01-17 01:41:50.02	88.06	45.51	-22.4	-23.3	19.7	0.00e+00	0	44	0	1847590912	5	3986
2026-01-17 01:41:51.03	88.61	45.57	-22.5	-23.6	19.6	0.00e+00	0	44	0	1853882368	5	4061
2026-01-17 01:41:52.03	89.15	45.62	-22.5	-23.5	19.6	0.00e+00	0	43	0	1859125248	5	4044
2026-01-17 01:41:53.04	89.71	45.67	-22.2	-22.9	19.9	0.00e+00	0	44	0	1864368128	5	3895
2026-01-17 01:41:54.04	90.26	45.72	-22.4	-23.3	19.8	0.00e+00	0	44	0	1870659584	5	3977
2026-01-17 01:41:55.05	90.81	45.77	-22.9	-24.3	19.2	0.00e+00	0	44	0	1875902464	5	4236
2026-01-17 01:41:56.05	91.37	45.81	-22.7	-23.9	19.4	0.00e+00	0	44	0	1882193920	5	4141
2026-01-17 01:41:57.05	91.92	45.85	-22.3	-23.1	19.8	0.00e+00	0	44	0	1887436800	5	3932
2026-01-17 01:41:58.06	92.48	45.89	-22.4	-23.3	19.8	0.00e+00	0	44	0	1892679680	5	3986
2026-01-17 01:41:59.06	93.04	45.92	-22.5	-23.5	19.6	0.00e+00	0	44	0	1898971136	5	4034
2026-01-17 01:42:00.06	93.60	45.96	-22.7	-24.0	19.4	0.00e+00	0	44	0	1904214016	5	4152
2026-01-17 01:42:01.06	94.16	45.98	-22.7	-24.0	19.4	0.00e+00	0	44	0	1910505472	5	4160
2026-01-17 01:42:02.07	94.72	46.01	-22.9	-24.2	19.3	0.00e+00	0	44	0	1915748352	5	4208
2026-01-17 01:42:03.07	95.29	46.03	-22.4	-23.2	19.8	0.00e+00	0	44	0	1920991232	5	3963
2026-01-17 01:42:04.07	95.85	46.05	-22.3	-23.1	19.8	0.00e+00	0	44	0	1927282688	5	3946
2026-01-17 01:42:05.07	96.41	46.07	-22.3	-23.1	19.9	0.00e+00	0	44	0	1932525568	5	3935
2026-01-17 01:42:06.08	96.98	46.09	-22.2	-22.9	19.5	0.00e+00	0	44	0	1937768448	5	3902
2026-01-17 01:42:07.08	97.54	46.10	-22.0	-22.4	19.6	0.00e+00	0	44	0	1944059904	5	3785
2026-01-17 01:42:08.08	98.11	46.10	-22.1	-22.7	20.1	0.00e+00	0	44	0	1949302784	5	3839
2026-01-17 01:42:09.08	98.67	46.11	-22.3	-23.1	19.8	0.00e+00	0	44	0	1954545664	5	3955
2026-01-17 01:42:10.08	99.24	46.11	-22.5	-23.5	19.6	0.00e+00	0	43	0	1960837120	5	4042
2026-01-17 01:42:11.08	99.80	46.11	-22.4	-23.2	19.8	0.00e+00	0	44	0	1966080000	5	3964
2026-01-17 01:42:12.09	100.37	46.11	-22.3	-23.1	19.8	1.10e-06	0	44	0	1972371456	5	3933
2026-01-17 01:42:13.09	100.94	46.10	-22.4	-23.2	19.8	0.00e+00	0	44	0	1977614336	5	3964
2026-01-17 01:42:14.09	101.50	46.09	-22.2	-22.9	19.9	0.00e+00	0	44	0	1983905792	5	3889
2026-01-17 01:42:15.10	102.07	46.08	-22.2	-22.9	19.9	2.20e-06	0	44	0	1989148672	5	3894
2026-01-17 01:42:16.10	102.63	46.06	-22.2	-22.8	20.0	0.00e+00	0	44	0	1994391552	5	3859
2026-01-17 01:42:17.11	103.20	46.04	-22.4	-23.3	19.8	0.00e+00	0	44	0	2000683008	5	3976
2026-01-17 01:42:18.10	103.76	46.02	-22.5	-23.4	19.7	0.00e+00	0	44	0	2005925888	5	4010
2026-01-17 01:42:19.11	104.33	46.00	-22.8	-24.1	19.3	0.00e+00	0	43	0	2011168768	5	4188
2026-01-17 01:42:20.11	104.89	45.97	-22.5	-23.6	19.6	0.00e+00	0	44	0	2017460224	5	4063
2026-01-17 01:42:21.10	105.44	45.94	-22.3	-23.1	19.8	0.00e+00	0	44	0	2022703104	5	3944
2026-01-17 01:42:22.11	106.00	45.90	-22.4	-23.2	19.8	0.00e+00	0	44	0	2027945984	5	3945
2026-01-17 01:42:23.11	106.56	45.87	-22.4	-23.3	19.7	0.00e+00	0	44	0	2034237440	5	3992
2026-01-17 01:42:24.11	107.12	45.83	-22.5	-23.5	19.6	0.00e+00	0	44	0	2039480320	5	4038
2026-01-17 01:42:25.11	107.67	45.79	-22.5	-23.4	19.7	0.00e+00	0	44	0	2045771776	5	4021
2026-01-17 01:42:26.11	108.22	45.74	-22.2	-22.8	20.0	0.00e+00	0	43	0	2051014656	5	3858
2026-01-17 01:42:27.11	108.77	45.69	-22.0	-22.5	20.2	0.00e+00	0	44	0	2056257536	5	3789
2026-01-17 01:42:28.11	109.32	45.64	-22.2	-22.8	20.0	0.00e+00	0	44	0	2062548992	5	3877
2026-01-17 01:42:29.12	109.88	45.59	-22.3	-23.1	19.8	0.00e+00	0	44	0	2067791872	5	3938
2026-01-17 01:42:30.12	110.42	45.53	-22.4	-23.3	19.7	0.00e+00	0	44	0	2073034752	5	4002
2026-01-17 01:42:31.12	110.97	45.47	-22.4	-23.2	19.8	0.00e+00	0	44	0	2079326208	5	3968
2026-01-17 01:42:32.11	111.50	45.41	-22.5	-23.5	19.6	0.00e+00	0	44	0	2084569088	5	4024
2026-01-17 01:42:33.12	112.05	45.35	-22.6	-23.7	19.5	0.00e+00	0	43	0	2089811968	5	4091
2026-01-17 01:42:34.12	112.59	45.28	-22.3	-23.1	19.8	0.00e+00	0	44	0	2096103424	5	3934
2026-01-17 01:42:35.13	113.13	45.21	-22.2	-22.9	19.9	0.00e+00	0	44	0	2101346304	5	3880
2026-01-17 01:42:36.14	113.66	45.14	-22.0	-22.5	20.1	0.00e+00	0	44	0	2107637760	5	3805
2026-01-17 01:42:37.13	114.19	45.07	-22.4	-23.3	19.7	0.00e+00	0	43	0	2112880640	5	3986
2026-01-17 01:42:38.13	114.72	44.99	-22.5	-23.6	19.6	0.00e+00	0	43	0	2118123520	5	4058
2026-01-17 01:42:39.13	115.24	44.91	-22.2	-22.9	19.9	1.71e-05	0	44	0	2124414976	5	3898
2026-01-17 01:42:40.13	115.77	44.83	-22.2	-23.0	19.9	2.05e-05	0	44	0	2129657856	5	3907
2026-01-17 01:42:41.13	116.29	44.74	-22.3	-23.1	19.8	0.00e+00	0	43	0	2134900736	5	3950
2026-01-17 01:42:42.12	116.80	44.66	-22.3	-23.1	19.8	0.00e+00	0	44	0	2141192192	5	3940
2026-01-17 01:42:43.13	117.32	44.57	-22.3	-23.1	19.8	9.10e-06	0	43	0	2146435072	5	3943
2026-01-17 01:42:44.13	117.83	44.48	-22.2	-23.0	19.8	0.00e+00	0	44	0	2151677952	5	3909
2026-01-17 01:42:45.13	118.34	44.38	-22.3	-23.1	19.8	0.00e+00	0	44	0	2157969408	5	3932
2026-01-17 01:42:46.13	118.84	44.29	-22.5	-23.5	19.6	0.00e+00	0	44	0	2163212288	5	4034
2026-01-17 01:42:47.14	119.35	44.19	-22.4	-23.3	19.7	0.00e+00	0	44	0	2169503744	5	3992
2026-01-17 01:42:48.14	119.85	44.09	-22.3	-23.1	19.8	0.00e+00	0	43	0	2174746624	5	3929
2026-01-17 01:42:49.14	120.35	43.98	-22.3	-23.1	19.8	0.00e+00	0	44	0	2179989504	5	3936
2026-01-17 01:42:50.15	120.85	43.88	-22.4	-23.3	19.7	0.00e+00	0	44	0	2186280960	5	3986
2026-01-17 01:42:51.15	121.34	43.77	-22.1	-22.6	20.0	0.00e+00	0	44	0	2191523840	5	3831
2026-01-17 01:42:52.15	121.82	43.66	-22.3	-23.1	19.8	0.00e+00	0	44	0	2197815296	5	3929
2026-01-17 01:42:53.15	122.31	43.55	-22.8	-24.2	19.3	0.00e+00	0	44	0	2203058176	5	4207
2026-01-17 01:42:54.15	122.79	43.44	-22.9	-24.3	19.2	0.00e+00	0	44	0	2208301056	5	4235
2026-01-17 01:42:55.15	123.26	43.33	-23.3	-24.6	18.8	0.00e+00	0	44	0	2214592512	6	4206
2026-01-17 01:42:56.15	123.74	43.21	-22.9	-23.7	19.2	0.00e+00	0	44	0	2219835392	6	3989
2026-01-17 01:42:57.16	124.21	43.09	-22.6	-23.2	19.5	0.00e+00	0	44	0	2225078272	6	3858
2026-01-17 01:42:58.16	124.68	42.98	-22.4	-22.8	19.6	0.00e+00	0	44	0	2231369728	6	3774
2026-01-17 01:42:59.16	125.14	42.85	-22.4	-22.7	19.7	0.00e+00	0	44	0	2236612608	6	3750
2026-01-17 01:43:00.16	125.60	42.73	-22.5	-22.9	19.6	0.00e+00	0	44	0	2242904064	6	3797
2026-01-17 01:43:01.15	126.05	42.61	-22.5	-22.9	19.6	0.00e+00	0	44	0	2248146944	6	3800
2026-01-17 01:43:02.15	126.51	42.48	-22.3	-22.7	19.7	0.00e+00	0	44	0	2253389824	6	3739
2026-01-17 01:43:03.15	126.96	42.36	-22.2	-22.8	19.9	0.00e+00	0	44	0	2259681280	5	3874
2026-01-17 01:43:04.15	127.40	42.23	-22.2	-22.8	19.9	0.00e+00	0	43	0	2264924160	5	3873
2026-01-17 01:43:05.16	127.85	42.10	-22.3	-23.0	19.8	0.00e+00	0	44	0	2270167040	5	3919
2026-01-17 01:43:06.16	128.29	41.96	-22.2	-22.9	19.9	1.02e-05	0	44	0	2276458496	5	3896
2026-01-17 01:43:07.16	128.72	41.83	-22.4	-23.3	19.7	7.89e-05	0	44	0	2281701376	5	3991
2026-01-17 01:43:08.16	129.16	41.70	-22.4	-23.3	19.7	0.00e+00	0	44	0	2287992832	5	3994
2026-01-17 01:43:09.16	129.58	41.56	-22.5	-23.5	19.5	0.00e+00	0	44	0	2293235712	5	4036
2026-01-17 01:43:10.17	130.01	41.42	-22.2	-22.9	19.8	0.00e+00	0	44	0	2298478592	5	3899
2026-01-17 01:43:11.17	130.43	41.29	-22.0	-22.5	20.0	0.00e+00	0	44	0	2304770048	5	3804
2026-01-17 01:43:12.18	130.86	41.15	-22.0	-22.4	20.1	0.00e+00	0	44	0	2310012928	5	3778
2026-01-17 01:43:13.18	131.27	41.00	-22.2	-22.8	19.9	0.00e+00	0	44	0	2315255808	5	3873
2026-01-17 01:43:14.18	131.68	40.86	-21.9	-22.3	20.1	0.00e+00	0	44	0	2321547264	5	3769
2026-01-17 01:43:15.18	132.09	40.72	-21.9	-22.2	20.2	0.00e+00	0	43	0	2326790144	5	3741
2026-01-17 01:43:16.18	132.49	40.58	-21.9	-22.2	20.2	1.14e-05	0	44	0	2332033024	5	3726
2026-01-17 01:43:17.19	132.90	40.43	-21.8	-22.6	20.2	0.00e+00	0	44	0	2338324480	4	3935
2026-01-17 01:43:18.19	133.29	40.29	-22.0	-22.9	20.0	5.03e-05	0	44	0	2343567360	4	4005
2026-01-17 01:43:19.19	133.68	40.14	-22.0	-22.9	20.0	0.00e+00	0	44	0	2349858816	4	4016
2026-01-17 01:43:20.20	134.08	39.99	-22.2	-23.3	19.8	0.00e+00	0	44	0	2355101696	4	4106
2026-01-17 01:43:21.20	134.46	39.84	-22.3	-23.7	19.7	0.00e+00	0	44	0	2361393152	4	4196
2026-01-17 01:43:22.21	134.85	39.69	-22.2	-23.4	19.8	0.00e+00	0	44	0	2366636032	4	4128
2026-01-17 01:43:23.22	135.23	39.54	-22.1	-23.2	19.9	0.00e+00	0	44	0	2371878912	4	4083
2026-01-17 01:43:24.22	135.61	39.39	-22.2	-23.3	19.8	0.00e+00	0	44	0	2378170368	4	4114
2026-01-17 01:43:25.22	135.98	39.24	-22.2	-23.5	19.8	1.33e-04	0	44	0	2383413248	4	4152
2026-01-17 01:43:26.22	136.35	39.09	-22.0	-22.9	20.1	0.00e+00	0	44	0	2388656128	4	4001
2026-01-17 01:43:27.23	136.72	38.94	-22.0	-23.0	20.0	0.00e+00	0	44	0	2394947584	4	4038
2026-01-17 01:43:28.23	137.08	38.79	-21.9	-22.7	20.2	0.00e+00	0	44	0	2400190464	4	3957
2026-01-17 01:43:29.23	137.44	38.63	-21.9	-22.7	20.1	0.00e+00	0	44	0	2405433344	4	3967
2026-01-17 01:43:30.23	137.79	38.48	-22.1	-23.1	20.0	0.00e+00	0	44	0	2411724800	4	4054
2026-01-17 01:43:31.23	138.15	38.32	-22.0	-23.1	20.0	0.00e+00	0	44	0	2416967680	4	4049
2026-01-17 01:43:32.23	138.50	38.17	-22.0	-23.1	20.0	0.00e+00	0	44	0	2423259136	4	4048
2026-01-17 01:43:33.23	138.84	38.01	-21.9	-22.8	20.1	0.00e+00	0	44	0	2428502016	4	3989
2026-01-17 01:43:34.23	139.18	37.86	-21.9	-22.7	20.2	0.00e+00	0	44	0	2433744896	4	3957
2026-01-17 01:43:35.23	139.52	37.70	-21.9	-22.8	20.1	0.00e+00	0	44	0	2440036352	4	3979
2026-01-17 01:43:36.23	139.86	37.55	-21.9	-22.8	20.1	0.00e+00	0	44	0	2445279232	4	3977
2026-01-17 01:43:37.23	140.19	37.39	-22.0	-23.1	20.0	0.00e+00	0	44	0	2450522112	4	4044
2026-01-17 01:43:38.24	140.52	37.23	-22.1	-23.2	19.9	0.00e+00	0	44	0	2456813568	4	4068
2026-01-17 01:43:39.24	140.85	37.07	-22.1	-23.2	19.9	0.00e+00	0	43	0	2462056448	4	4079
2026-01-17 01:43:40.24	141.17	36.92	-22.1	-23.1	19.9	0.00e+00	0	44	0	2468347904	4	4064
2026-01-17 01:43:41.25	141.50	36.76	-22.1	-23.1	19.9	0.00e+00	0	43	0	2473590784	4	4067
2026-01-17 01:43:42.25	141.81	36.60	-22.1	-23.3	19.8	0.00e+00	0	44	0	2478833664	4	4100
2026-01-17 01:43:43.26	142.13	36.44	-22.1	-23.1	19.9	0.00e+00	0	44	0	2485125120	4	4069
2026-01-17 01:43:44.26	142.44	36.28	-22.1	-23.2	19.8	0.00e+00	0	44	0	2490368000	4	4095
2026-01-17 01:43:45.26	142.75	36.12	-22.2	-23.5	19.7	0.00e+00	0	43	0	2496659456	4	4167
2026-01-17 01:43:46.26	143.06	35.96	-22.2	-23.3	19.8	0.00e+00	0	44	0	2501902336	4	4115
2026-01-17 01:43:47.26	143.36	35.80	-22.2	-23.4	19.7	0.00e+00	0	44	0	2507145216	4	4134
2026-01-17 01:43:48.26	143.66	35.65	-22.2	-23.4	19.8	0.00e+00	0	44	0	2513436672	4	4140
2026-01-17 01:43:49.26	143.96	35.49	-22.2	-23.4	19.7	0.00e+00	0	44	0	2518679552	4	4136
2026-01-17 01:43:50.26	144.25	35.33	-22.2	-23.4	19.8	0.00e+00	0	44	0	2523922432	4	4131
2026-01-17 01:43:51.26	144.54	35.17	-22.2	-23.5	19.7	0.00e+00	0	44	0	2530213888	4	4156
2026-01-17 01:43:52.26	144.83	35.01	-22.1	-23.2	19.8	0.00e+00	0	44	0	2535456768	4	4091
2026-01-17 01:43:53.26	145.11	34.85	-22.3	-23.5	19.7	0.00e+00	0	44	0	2540699648	4	4155
2026-01-17 01:43:54.26	145.40	34.69	-22.2	-23.3	19.8	0.00e+00	0	44	0	2546991104	4	4104
2026-01-17 01:43:55.26	145.68	34.53	-22.2	-23.5	19.7	0.00e+00	0	44	0	2552233984	4	4152
2026-01-17 01:43:56.26	145.96	34.37	-22.3	-23.6	19.6	0.00e+00	0	44	0	2558525440	4	4192
2026-01-17 01:43:57.26	146.23	34.22	-22.2	-23.4	19.7	0.00e+00	0	44	0	2563768320	4	4146
2026-01-17 01:43:58.27	146.50	34.06	-22.3	-23.5	19.7	0.00e+00	0	44	0	2569011200	4	4164
2026-01-17 01:43:59.27	146.77	33.90	-22.2	-23.4	19.7	0.00e+00	0	44	0	2575302656	4	4127
2026-01-17 01:44:00.27	147.04	33.74	-22.0	-23.0	19.9	0.00e+00	0	44	0	2580545536	4	4036
2026-01-17 01:44:01.28	147.31	33.58	-22.1	-23.1	19.9	0.00e+00	0	44	0	2585788416	4	4057
2026-01-17 01:44:02.28	147.57	33.42	-22.1	-23.2	19.8	0.00e+00	0	44	0	2592079872	4	4077
2026-01-17 01:44:03.27	147.83	33.27	-22.2	-23.4	19.7	0.00e+00	0	44	0	2597322752	4	4124
2026-01-17 01:44:04.27	148.08	33.11	-22.2	-23.5	19.7	0.00e+00	0	44	0	2602565632	4	4146
2026-01-17 01:44:05.27	148.34	32.95	-22.3	-23.5	19.7	0.00e+00	0	44	0	2608857088	4	4163
2026-01-17 01:44:06.27	148.59	32.79	-22.2	-23.3	19.8	0.00e+00	0	44	0	2614099968	4	4106
2026-01-17 01:44:07.27	148.84	32.64	-22.1	-23.1	19.9	0.00e+00	0	44	0	2620391424	4	4061
2026-01-17 01:44:08.28	149.09	32.48	-22.2	-23.5	19.7	0.00e+00	0	44	0	2625634304	4	4144
2026-01-17 01:44:09.28	149.34	32.32	-22.3	-23.5	19.7	0.00e+00	0	44	0	2630877184	4	4166
2026-01-17 01:44:10.28	149.58	32.16	-22.3	-23.7	19.6	0.00e+00	0	44	0	2637168640	4	4200
2026-01-17 01:44:11.28	149.82	32.01	-22.4	-23.8	19.5	0.00e+00	0	43	0	2642411520	4	4223
2026-01-17 01:44:12.28	150.06	31.85	-22.4	-23.9	19.5	0.00e+00	0	44	0	2647654400	4	4249
2026-01-17 01:44:13.29	150.30	31.70	-22.6	-23.7	19.3	0.00e+00	0	44	0	2653945856	5	4087
2026-01-17 01:44:14.29	150.53	31.54	-22.7	-23.9	19.2	0.00e+00	0	43	0	2659188736	5	4134
2026-01-17 01:44:15.30	150.76	31.38	-22.5	-23.5	19.4	0.00e+00	0	44	0	2665480192	5	4042
2026-01-17 01:44:16.30	150.99	31.23	-22.4	-23.3	19.5	0.00e+00	0	44	0	2670723072	5	3996
2026-01-17 01:44:17.30	151.22	31.08	-22.4	-23.3	19.5	0.00e+00	0	44	0	2675965952	5	4001
2026-01-17 01:44:18.31	151.45	30.92	-22.4	-23.3	19.5	0.00e+00	0	44	0	2682257408	5	4008
2026-01-17 01:44:19.31	151.67	30.77	-22.5	-23.4	19.4	0.00e+00	0	44	0	2687500288	5	4030
2026-01-17 01:44:20.31	151.89	30.61	-22.4	-23.3	19.5	0.00e+00	0	44	0	2693791744	5	4008
2026-01-17 01:44:21.31	152.11	30.46	-22.4	-23.3	19.5	0.00e+00	0	44	0	2699034624	5	4001
2026-01-17 01:44:22.31	152.33	30.31	-22.4	-23.3	19.5	0.00e+00	0	44	0	2704277504	5	3989
2026-01-17 01:44:23.32	152.55	30.15	-22.4	-23.2	19.6	0.00e+00	0	44	0	2710568960	5	3978
2026-01-17 01:44:24.31	152.76	30.00	-22.3	-23.0	19.6	0.00e+00	0	44	0	2715811840	5	3931
2026-01-17 01:44:25.31	152.97	29.85	-22.4	-23.3	19.5	0.00e+00	0	44	0	2721054720	5	3995
2026-01-17 01:44:26.31	153.18	29.70	-22.4	-23.4	19.5	0.00e+00	0	44	0	2727346176	5	4014
2026-01-17 01:44:27.31	153.39	29.55	-22.6	-23.6	19.3	0.00e+00	0	44	0	2732589056	5	4070
2026-01-17 01:44:28.31	153.59	29.40	-22.6	-23.8	19.3	0.00e+00	0	44	0	2737831936	5	4103
2026-01-17 01:44:29.31	153.79	29.25	-22.6	-23.7	19.3	0.00e+00	0	44	0	2744123392	5	4090
2026-01-17 01:44:30.31	154.00	29.10	-22.7	-24.0	19.2	0.00e+00	0	44	0	2749366272	5	4160
2026-01-17 01:44:31.31	154.20	28.95	-22.8	-24.1	19.1	0.00e+00	0	44	0	2755657728	5	4200
2026-01-17 01:44:32.32	154.40	28.80	-23.0	-24.1	18.8	0.00e+00	0	44	0	2760900608	6	4092
2026-01-17 01:44:33.31	154.59	28.66	-23.0	-24.0	18.9	0.00e+00	0	44	0	2766143488	6	4061
2026-01-17 01:44:34.31	154.78	28.51	-22.9	-24.0	18.9	0.00e+00	0	44	0	2772434944	6	4048
2026-01-17 01:44:35.31	154.98	28.36	-22.9	-23.9	19.0	0.00e+00	0	44	0	2777677824	6	4032
2026-01-17 01:44:36.31	155.17	28.22	-22.9	-23.9	19.0	0.00e+00	0	44	0	2782920704	6	4030
2026-01-17 01:44:37.30	155.36	28.07	-22.9	-23.8	19.0	0.00e+00	0	44	0	2789212160	6	4008
2026-01-17 01:44:38.31	155.55	27.92	-22.9	-23.9	19.0	0.00e+00	0	44	0	2794455040	6	4028
2026-01-17 01:44:39.30	155.73	27.78	-22.8	-23.6	19.1	0.00e+00	0	44	0	2799697920	6	3960
2026-01-17 01:44:40.30	155.91	27.64	-22.8	-23.7	19.1	0.00e+00	0	44	0	2805989376	6	3964
2026-01-17 01:44:41.30	156.10	27.49	-22.5	-23.1	19.4	0.00e+00	0	44	0	2811232256	6	3828
2026-01-17 01:44:42.30	156.28	27.35	-22.4	-23.3	19.5	0.00e+00	0	44	0	2817523712	5	3980
2026-01-17 01:44:43.30	156.46	27.20	-22.4	-23.3	19.5	0.00e+00	0	44	0	2822766592	5	3982
2026-01-17 01:44:44.29	156.63	27.06	-22.5	-23.4	19.5	0.00e+00	0	44	0	2828009472	5	4016
2026-01-17 01:44:45.30	156.81	26.92	-22.4	-23.3	19.5	0.00e+00	0	44	0	2834300928	5	3994
2026-01-17 01:44:46.30	156.99	26.78	-22.3	-23.1	19.6	0.00e+00	0	44	0	2839543808	5	3949
2026-01-17 01:44:47.30	157.16	26.63	-22.4	-23.3	19.4	0.00e+00	0	44	0	2844786688	5	3995
2026-01-17 01:44:48.30	157.33	26.49	-22.0	-22.8	19.0	0.00e+00	0	44	0	2851078144	5	3968
2026-01-17 01:44:49.30	157.50	26.35	-22.5	-23.5	19.4	0.00e+00	0	44	0	2856321024	5	4052
2026-01-17 01:44:50.30	157.67	26.21	-22.6	-23.7	14.4	0.00e+00	0	44	0	2861563904	5	4084
2026-01-17 01:44:51.29	157.84	26.07	-22.6	-23.8	14.9	0.00e+00	0	44	0	2867855360	5	4126
2026-01-17 01:44:52.29	158.01	25.93	-22.7	-23.9	19.2	1.36e-04	0	44	0	2873098240	5	4136
2026-01-17 01:44:53.29	158.17	25.79	-22.7	-24.0	18.9	0.00e+00	0	44	0	2879389696	5	4172
2026-01-17 01:44:54.30	158.34	25.65	-22.7	-24.0	19.1	0.00e+00	0	44	0	2884632576	5	4162
2026-01-17 01:44:55.29	158.50	25.52	-22.8	-24.2	19.0	0.00e+00	0	44	0	2889875456	5	4232
2026-01-17 01:44:56.29	158.66	25.38	-22.9	-24.3	19.0	0.00e+00	0	44	0	2896166912	5	4242
2026-01-17 01:44:57.30	158.82	25.24	-22.7	-23.9	19.1	7.67e-04	0	44	0	2901409792	5	4150
2026-01-17 01:44:58.30	158.98	25.11	-22.7	-23.8	19.2	0.00e+00	0	44	0	2906652672	5	4120
2026-01-17 01:44:59.30	159.13	24.97	-22.7	-23.8	19.2	0.00e+00	0	44	0	2912944128	5	4121
2026-01-17 01:45:00.29	159.29	24.84	-22.7	-23.8	19.2	0.00e+00	0	44	0	2918187008	5	4121
2026-01-17 01:45:01.30	159.44	24.70	-22.8	-24.0	19.1	0.00e+00	0	44	0	2923429888	5	4169
2026-01-17 01:45:02.30	159.59	24.57	-22.8	-24.1	19.1	0.00e+00	0	44	0	2929721344	5	4179
2026-01-17 01:45:03.31	159.75	24.43	-22.8	-24.2	19.0	0.00e+00	0	44	0	2934964224	5	4228
2026-01-17 01:45:04.31	159.90	24.30	-22.8	-24.2	19.0	0.00e+00	0	44	0	2941255680	5	4226
2026-01-17 01:45:05.32	160.05	24.16	-23.0	-24.4	18.9	0.00e+00	0	44	0	2946498560	5	4277
2026-01-17 01:45:06.32	160.20	24.03	-22.9	-24.3	19.0	1.11e-03	0	44	0	2951741440	5	4235
2026-01-17 01:45:07.31	160.34	23.90	-23.0	-24.1	18.8	0.00e+00	0	44	0	2958032896	6	4073
2026-01-17 01:45:08.31	160.49	23.77	-23.0	-24.0	18.8	0.00e+00	0	44	0	2963275776	6	4059
2026-01-17 01:45:09.32	160.63	23.63	-23.1	-24.2	18.8	1.02e-03	0	44	0	2968518656	6	4101
2026-01-17 01:45:10.31	160.77	23.51	-23.1	-24.2	18.7	0.00e+00	0	44	0	2974810112	6	4109
2026-01-17 01:45:11.31	160.92	23.38	-23.1	-24.3	18.7	1.07e-03	0	44	0	2980052992	6	4138
2026-01-17 01:45:12.30	161.05	23.25	-23.1	-24.3	18.7	0.00e+00	0	44	0	2985295872	6	4142
2026-01-17 01:45:13.31	161.20	23.12	-23.1	-24.3	18.7	0.00e+00	0	44	0	2991587328	6	4133
2026-01-17 01:45:14.30	161.33	22.99	-23.2	-24.5	18.6	0.00e+00	0	44	0	2996830208	6	4175
2026-01-17 01:45:15.30	161.47	22.86	-23.2	-24.4	18.6	0.00e+00	0	44	0	3003121664	6	4152
2026-01-17 01:45:16.30	161.61	22.73	-23.3	-24.6	18.5	0.00e+00	0	44	0	3008364544	6	4215
2026-01-17 01:45:17.30	161.74	22.61	-23.3	-24.7	18.5	0.00e+00	0	44	0	3013607424	6	4228
2026-01-17 01:45:18.31	161.88	22.48	-23.4	-24.9	18.4	1.19e-03	0	44	0	3019898880	6	4287
2026-01-17 01:45:19.31	162.01	22.35	-23.3	-24.8	18.4	0.00e+00	0	44	0	3025141760	6	4254
2026-01-17 01:45:20.31	162.14	22.22	-23.4	-24.9	18.4	1.19e-03	0	44	0	3030384640	6	4280
2026-01-17 01:45:21.31	162.27	22.10	-23.4	-25.0	18.4	9.75e-04	0	44	0	3036676096	6	4300
2026-01-17 01:45:22.32	162.40	21.97	-23.4	-24.9	18.4	0.00e+00	0	44	0	3041918976	6	4293
2026-01-17 01:45:23.32	162.53	21.85	-23.4	-25.0	18.3	1.25e-03	0	44	0	3048210432	6	4300
2026-01-17 01:45:24.32	162.66	21.72	-23.6	-24.9	18.1	0.00e+00	0	44	0	3053453312	7	4172
2026-01-17 01:45:25.33	162.79	21.60	-23.7	-25.2	18.0	5.03e-05	0	44	0	3058696192	7	4238
2026-01-17 01:45:26.32	162.92	21.48	-23.6	-24.8	18.2	0.00e+00	0	44	0	3064987648	7	4139
2026-01-17 01:45:27.32	163.04	21.36	-23.6	-24.9	18.1	1.34e-03	0	44	0	3070230528	7	4171
2026-01-17 01:45:28.32	163.16	21.23	-23.7	-25.1	18.0	8.81e-05	0	44	0	3075473408	7	4233
2026-01-17 01:45:29.33	163.29	21.11	-23.5	-24.7	18.2	0.00e+00	0	44	0	3081764864	7	4124
2026-01-17 01:45:30.32	163.41	20.99	-23.7	-25.0	18.1	1.11e-03	0	44	0	3087007744	7	4193
2026-01-17 01:45:31.32	163.53	20.87	-23.7	-25.0	18.1	0.00e+00	0	44	0	3092250624	7	4187
2026-01-17 01:45:32.33	163.65	20.75	-23.5	-24.7	18.2	1.25e-03	0	44	0	3098542080	7	4116
2026-01-17 01:45:33.33	163.77	20.63	-23.5	-24.7	18.2	1.30e-03	0	44	0	3103784960	7	4116
2026-01-17 01:45:34.34	163.89	20.51	-23.6	-24.8	18.1	4.50e-06	0	43	0	3110076416	7	4136
2026-01-17 01:45:35.34	164.01	20.39	-23.6	-24.8	18.1	1.25e-03	0	44	0	3115319296	7	4142
2026-01-17 01:45:36.34	164.13	20.27	-23.6	-24.8	18.1	1.20e-03	0	44	0	3121610752	7	4142
2026-01-17 01:45:37.35	164.24	20.15	-23.6	-24.8	18.1	1.02e-05	0	44	0	3126853632	7	4148
2026-01-17 01:45:38.35	164.36	20.03	-23.7	-25.1	18.0	1.19e-03	0	44	0	3132096512	7	4218
2026-01-17 01:45:39.35	164.47	19.92	-23.7	-25.1	17.9	1.07e-03	0	44	0	3138387968	7	4232
2026-01-17 01:45:40.35	164.59	19.80	-23.7	-25.0	18.0	1.10e-06	0	44	0	3143630848	7	4191
2026-01-17 01:45:41.36	164.70	19.68	-23.7	-25.1	17.9	1.06e-03	0	44	0	3148873728	7	4230
2026-01-17 01:45:42.36	164.81	19.57	-23.7	-25.0	18.0	1.17e-03	0	44	0	3155165184	7	4208
2026-01-17 01:45:43.37	164.92	19.45	-23.8	-25.3	17.9	4.50e-06	0	44	0	3160408064	7	4264
2026-01-17 01:45:44.37	165.03	19.33	-23.8	-25.3	17.8	1.13e-03	0	44	0	3165650944	7	4274
2026-01-17 01:45:45.37	165.14	19.22	-23.9	-25.5	17.7	0.00e+00	0	44	0	3171942400	7	4332
2026-01-17 01:45:46.37	165.25	19.11	-23.9	-25.5	17.8	1.48e-05	0	44	0	3177185280	7	4309
2026-01-17 01:45:47.37	165.36	18.99	-23.8	-25.3	17.8	1.04e-03	0	44	0	3183476736	7	4277
2026-01-17 01:45:48.36	165.47	18.88	-23.9	-25.5	17.8	1.04e-03	0	44	0	3188719616	7	4315
2026-01-17 01:45:49.36	165.57	18.77	-24.0	-25.3	17.6	9.84e-05	0	44	0	3193962496	8	4144
2026-01-17 01:45:50.36	165.68	18.65	-23.9	-25.0	17.8	1.06e-03	0	44	0	3200253952	8	4066
2026-01-17 01:45:51.35	165.78	18.54	-24.0	-25.3	17.6	1.16e-03	0	44	0	3205496832	8	4149
2026-01-17 01:45:52.35	165.89	18.43	-24.2	-25.6	17.5	0.00e+00	0	44	0	3210739712	8	4231
2026-01-17 01:45:53.35	165.99	18.32	-24.2	-25.7	17.4	1.22e-03	0	44	0	3217031168	8	4260
2026-01-17 01:45:54.35	166.09	18.21	-24.2	-25.6	17.5	1.14e-03	0	44	0	3222274048	8	4223
2026-01-17 01:45:55.35	166.19	18.10	-24.3	-25.9	17.3	1.15e-04	0	44	0	3227516928	8	4302
2026-01-17 01:45:56.35	166.29	17.99	-24.5	-25.8	17.1	1.20e-03	0	44	0	3233808384	9	4164
2026-01-17 01:45:57.35	166.40	17.88	-24.4	-25.6	17.2	0.00e+00	0	44	0	3239051264	9	4110
2026-01-17 01:45:58.36	166.50	17.77	-24.3	-25.9	17.3	1.41e-04	0	44	0	3245342720	8	4309
2026-01-17 01:45:59.35	166.59	17.66	-24.4	-26.0	17.2	0.00e+00	0	44	0	3250585600	8	4353
2026-01-17 01:46:00.36	166.69	17.55	-24.4	-26.2	17.1	1.21e-03	0	44	0	3255828480	8	4390
2026-01-17 01:46:01.35	166.79	17.45	-24.5	-25.7	17.1	0.00e+00	0	44	0	3262119936	9	4163
2026-01-17 01:46:02.35	166.89	17.34	-24.5	-25.7	17.1	1.15e-03	0	44	0	3267362816	9	4153
2026-01-17 01:46:03.35	166.98	17.23	-24.6	-25.9	17.0	1.11e-03	0	44	0	3272605696	9	4203
2026-01-17 01:46:04.35	167.08	17.12	-24.6	-26.0	17.0	0.00e+00	0	44	0	3278897152	9	4230
2026-01-17 01:46:05.35	167.17	17.02	-24.2	-25.6	15.9	1.09e-03	0	44	0	3284140032	9	4256
2026-01-17 01:46:06.35	167.27	16.91	-24.8	-26.4	15.0	0.00e+00	0	44	0	3289382912	9	4342
2026-01-17 01:46:07.34	167.36	16.81	-24.6	-26.0	17.0	1.58e-04	0	44	0	3295674368	9	4215
2026-01-17 01:46:08.34	167.45	16.70	-24.5	-25.8	17.1	1.02e-03	0	44	0	3300917248	9	4172
2026-01-17 01:46:09.34	167.55	16.60	-24.5	-25.7	17.1	0.00e+00	0	44	0	3307208704	9	4158
2026-01-17 01:46:10.34	167.64	16.49	-24.6	-26.1	16.9	1.59e-04	0	44	0	3312451584	9	4246
2026-01-17 01:46:11.34	167.73	16.39	-24.6	-26.0	17.0	0.00e+00	0	44	0	3317694464	9	4223
2026-01-17 01:46:12.34	167.82	16.29	-24.7	-26.1	16.9	1.18e-03	0	44	0	3322937344	9	4264
2026-01-17 01:46:13.34	167.91	16.18	-24.6	-26.1	16.9	0.00e+00	0	44	0	3329228800	9	4242
2026-01-17 01:46:14.34	168.00	16.08	-24.7	-26.2	14.7	1.15e-03	0	44	0	3334471680	9	4276
2026-01-17 01:46:15.34	168.09	15.98	-24.8	-26.4	16.7	4.04e-04	0	44	0	3340763136	9	4323
2026-01-17 01:46:16.34	168.18	15.87	-24.7	-26.3	16.8	0.00e+00	0	44	0	3346006016	9	4296
2026-01-17 01:46:17.35	168.27	15.77	-24.8	-26.5	16.7	1.08e-03	0	44	0	3351248896	9	4351
2026-01-17 01:46:18.34	168.35	15.67	-24.9	-26.7	16.5	0.00e+00	0	44	0	3357540352	9	4418
2026-01-17 01:46:19.34	168.44	15.57	-25.0	-26.8	16.5	1.69e-04	0	44	0	3362783232	9	4453
2026-01-17 01:46:20.35	168.53	15.47	-25.1	-26.6	16.4	3.27e-04	0	44	0	3369074688	10	4262
2026-01-17 01:46:21.36	168.61	15.37	-25.2	-26.8	16.2	0.00e+00	0	44	0	3374317568	10	4334
2026-01-17 01:46:22.36	168.70	15.27	-25.1	-26.6	16.4	0.00e+00	0	44	0	3379560448	10	4274
2026-01-17 01:46:23.36	168.78	15.17	-25.1	-26.6	16.3	0.00e+00	0	44	0	3385851904	10	4276
2026-01-17 01:46:24.36	168.87	15.07	-25.1	-26.6	16.3	1.15e-03	0	44	0	3391094784	10	4288
2026-01-17 01:46:25.37	168.95	14.97	-25.2	-26.8	16.2	0.00e+00	0	44	0	3396337664	10	4334
2026-01-17 01:46:26.37	169.03	14.87	-25.2	-26.8	16.2	1.14e-03	0	44	0	3402629120	10	4341
2026-01-17 01:46:27.38	169.12	14.77	-25.4	-27.3	16.0	3.55e-04	0	44	0	3407872000	10	4473
2026-01-17 01:46:28.37	169.20	14.67	-25.4	-26.8	16.0	0.00e+00	0	44	0	3413114880	11	4217
2026-01-17 01:46:29.37	169.28	14.58	-25.3	-27.1	16.0	4.37e-04	0	44	0	3419406336	10	4419
2026-01-17 01:46:30.37	169.36	14.48	-25.4	-27.2	16.0	0.00e+00	0	44	0	3424649216	10	4446
2026-01-17 01:46:31.37	169.44	14.38	-25.4	-27.2	16.0	0.00e+00	0	43	0	3430940672	10	4450
2026-01-17 01:46:32.37	169.52	14.29	-25.3	-27.1	16.0	4.50e-04	0	44	0	3436183552	10	4421
2026-01-17 01:46:33.37	169.60	14.19	-25.3	-27.1	16.0	0.00e+00	0	44	0	3441426432	10	4431
2026-01-17 01:46:34.37	169.68	14.09	-25.5	-27.4	15.9	0.00e+00	0	44	0	3447717888	10	4497
2026-01-17 01:46:35.36	169.76	14.00	-25.6	-27.2	15.7	0.00e+00	0	44	0	3452960768	11	4335
2026-01-17 01:46:36.37	169.84	13.90	-25.8	-27.6	15.5	5.47e-04	0	44	0	3458203648	11	4434
2026-01-17 01:46:37.37	169.91	13.81	-25.5	-27.1	15.7	0.00e+00	0	44	0	3464495104	11	4296
2026-01-17 01:46:38.37	169.99	13.71	-25.4	-27.2	15.9	3.31e-04	0	44	0	3469737984	10	4461
2026-01-17 01:46:39.37	170.07	13.62	-25.4	-27.3	15.9	3.12e-04	0	44	0	3474980864	10	4472
2026-01-17 01:46:40.37	170.14	13.53	-25.4	-27.2	15.9	0.00e+00	0	43	0	3481272320	10	4459
2026-01-17 01:46:41.37	170.22	13.43	-25.4	-27.3	15.9	3.33e-04	0	44	0	3486515200	10	4471
2026-01-17 01:46:42.38	170.29	13.34	-25.5	-26.9	15.8	0.00e+00	0	44	0	3492806656	11	4255
2026-01-17 01:46:43.38	170.37	13.24	-25.4	-26.8	15.9	0.00e+00	0	44	0	3498049536	11	4236
2026-01-17 01:46:44.38	170.44	13.15	-25.6	-27.1	15.7	3.59e-04	0	44	0	3503292416	11	4314
2026-01-17 01:46:45.39	170.52	13.06	-25.5	-26.9	15.8	3.97e-04	0	44	0	3509583872	11	4259
2026-01-17 01:46:46.40	170.59	12.97	-25.7	-27.4	15.6	0.00e+00	0	44	0	3514826752	11	4374
2026-01-17 01:46:47.39	170.66	12.87	-25.6	-27.2	15.6	4.08e-04	0	44	0	3521118208	11	4332
2026-01-17 01:46:48.40	170.74	12.78	-25.6	-27.1	15.7	6.03e-04	0	44	0	3526361088	11	4315
2026-01-17 01:46:49.40	170.81	12.69	-25.6	-27.1	15.7	0.00e+00	0	44	0	3531603968	11	4298
2026-01-17 01:46:50.39	170.88	12.60	-25.6	-27.2	15.7	5.60e-04	0	43	0	3537895424	11	4316
2026-01-17 01:46:51.40	170.95	12.51	-25.6	-27.3	15.6	5.81e-04	0	43	0	3543138304	11	4361
2026-01-17 01:46:52.40	171.02	12.42	-25.6	-27.2	15.7	0.00e+00	0	44	0	3548381184	11	4314
2026-01-17 01:46:53.40	171.09	12.33	-25.8	-27.6	15.4	4.52e-04	0	44	0	3554672640	11	4440
2026-01-17 01:46:54.40	171.16	12.24	-25.8	-27.7	15.4	4.02e-04	0	44	0	3559915520	11	4455
2026-01-17 01:46:55.40	171.23	12.15	-25.7	-27.3	15.6	0.00e+00	0	44	0	3566206976	11	4350
2026-01-17 01:46:56.40	171.30	12.06	-25.5	-26.9	15.8	0.00e+00	0	44	0	3571449856	11	4253
2026-01-17 01:46:57.41	171.37	11.97	-25.6	-27.1	15.7	2.82e-04	0	44	0	3576692736	11	4296
2026-01-17 01:46:58.41	171.44	11.88	-25.5	-27.0	15.7	0.00e+00	0	44	0	3582984192	11	4281
2026-01-17 01:46:59.41	171.51	11.80	-25.6	-27.2	15.6	3.18e-04	0	44	0	3588227072	11	4312
2026-01-17 01:47:00.42	171.57	11.71	-25.6	-27.2	15.6	3.13e-04	0	44	0	3593469952	11	4320
2026-01-17 01:47:01.43	171.64	11.62	-25.7	-27.3	15.5	0.00e+00	0	44	0	3599761408	11	4359
2026-01-17 01:47:02.44	171.71	11.53	-25.7	-27.4	15.5	3.03e-04	0	44	0	3605004288	11	4368
2026-01-17 01:47:03.43	171.78	11.44	-25.7	-27.4	15.5	0.00e+00	0	44	0	3610247168	11	4375
2026-01-17 01:47:04.43	171.84	11.36	-25.7	-27.3	15.5	0.00e+00	0	44	0	3616538624	11	4349
2026-01-17 01:47:05.44	171.91	11.27	-25.6	-27.2	15.6	0.00e+00	0	44	0	3621781504	11	4324
2026-01-17 01:47:06.45	171.97	11.18	-25.5	-26.9	15.8	0.00e+00	0	44	0	3628072960	11	4225
2026-01-17 01:47:07.45	172.04	11.10	-25.6	-27.3	15.6	0.00e+00	0	44	0	3633315840	11	4339
2026-01-17 01:47:08.45	172.10	11.01	-25.5	-27.0	15.7	0.00e+00	0	44	0	3639607296	11	4257
2026-01-17 01:47:09.45	172.17	10.93	-25.6	-27.2	15.5	5.64e-04	0	44	0	3644850176	11	4325
2026-01-17 01:47:10.45	172.23	10.84	-25.6	-26.7	15.5	0.00e+00	0	44	0	3650093056	12	4082
2026-01-17 01:47:11.45	172.30	10.76	-25.7	-27.4	15.5	6.48e-04	0	44	0	3656384512	11	4380
2026-01-17 01:47:12.44	172.36	10.67	-25.6	-27.2	15.6	6.80e-06	0	44	0	3661627392	11	4324
2026-01-17 01:47:13.44	172.42	10.59	-25.5	-27.0	15.7	0.00e+00	0	44	0	3666870272	11	4258
2026-01-17 01:47:14.44	172.48	10.50	-25.6	-27.2	15.6	3.31e-04	0	44	0	3673161728	11	4313
2026-01-17 01:47:15.44	172.55	10.42	-25.7	-27.4	15.5	0.00e+00	0	44	0	3678404608	11	4367
2026-01-17 01:47:16.44	172.61	10.34	-25.7	-27.3	15.5	0.00e+00	0	44	0	3683647488	11	4348
2026-01-17 01:47:17.44	172.67	10.25	-25.6	-27.1	15.6	0.00e+00	0	43	0	3689938944	11	4298
2026-01-17 01:47:18.45	172.73	10.17	-25.6	-27.1	15.6	0.00e+00	0	44	0	3695181824	11	4291
2026-01-17 01:47:19.46	172.79	10.08	-25.7	-27.4	15.4	0.00e+00	0	44	0	3701473280	11	4373
2026-01-17 01:47:20.46	172.85	10.00	-25.8	-27.6	15.3	0.00e+00	0	44	0	3706716160	11	4434
2026-01-17 01:47:21.46	172.91	9.92	-25.6	-27.2	15.5	6.80e-06	0	44	0	3711959040	11	4314
2026-01-17 01:47:22.46	172.97	9.84	-25.8	-27.6	15.3	0.00e+00	0	44	0	3718250496	11	4424
2026-01-17 01:47:23.46	173.03	9.76	-26.1	-27.7	14.8	0.00e+00	0	43	0	3723493376	12	4359
2026-01-17 01:47:24.46	173.09	9.67	-25.6	-27.2	15.5	3.40e-06	0	44	0	3728736256	11	4326
2026-01-17 01:47:25.46	173.15	9.59	-25.7	-27.5	15.3	0.00e+00	0	44	0	3735027712	11	4399
2026-01-17 01:47:26.46	173.21	9.51	-25.8	-27.7	15.2	0.00e+00	0	44	0	3740270592	11	4472
2026-01-17 01:47:27.45	173.27	9.43	-25.8	-27.5	15.3	0.00e+00	0	44	0	3745513472	11	4422
2026-01-17 01:47:28.45	173.32	9.35	-25.9	-27.3	15.1	0.00e+00	0	44	0	3751804928	12	4235
2026-01-17 01:47:29.45	173.38	9.27	-26.0	-27.6	14.9	0.00e+00	0	44	0	3757047808	12	4318
2026-01-17 01:47:30.46	173.44	9.19	-26.2	-27.7	14.6	0.00e+00	0	44	0	3763339264	13	4236
2026-01-17 01:47:31.45	173.50	9.11	-26.0	-27.2	14.9	0.00e+00	0	44	0	3768582144	13	4111
2026-01-17 01:47:32.45	173.55	9.03	-26.0	-27.6	14.9	0.00e+00	0	44	0	3773825024	12	4327
2026-01-17 01:47:33.45	173.61	8.95	-26.2	-28.0	14.7	5.70e-06	0	44	0	3780116480	12	4437
2026-01-17 01:47:34.46	173.67	8.87	-26.0	-27.6	14.9	0.00e+00	0	44	0	3785359360	12	4341
2026-01-17 01:47:35.46	173.72	8.79	-26.0	-27.6	14.9	0.00e+00	0	44	0	3790602240	12	4327
2026-01-17 01:47:36.46	173.78	8.71	-26.1	-27.8	14.7	9.10e-06	0	44	0	3796893696	12	4401
2026-01-17 01:47:37.46	173.83	8.64	-26.0	-27.7	14.7	0.00e+00	0	44	0	3802136576	12	4351
2026-01-17 01:47:38.46	173.89	8.56	-26.1	-27.9	14.6	0.00e+00	0	44	0	3807379456	12	4415
2026-01-17 01:47:39.45	173.94	8.48	-25.7	-27.4	14.7	1.83e-05	0	44	0	3813670912	12	4397
2026-01-17 01:47:40.46	174.00	8.40	-26.0	-27.7	13.0	0.00e+00	0	44	0	3818913792	12	4360
2026-01-17 01:47:41.46	174.05	8.32	-26.1	-27.9	13.3	0.00e+00	0	44	0	3825205248	12	4432
2026-01-17 01:47:42.46	174.11	8.25	-26.1	-27.8	14.7	1.37e-05	0	44	0	3830448128	12	4404
2026-01-17 01:47:43.47	174.16	8.17	-26.2	-28.0	14.3	0.00e+00	0	44	0	3835691008	12	4458
2026-01-17 01:47:44.47	174.21	8.09	-26.3	-28.3	14.4	0.00e+00	0	44	0	3841982464	12	4527
2026-01-17 01:47:45.48	174.27	8.01	-26.3	-27.9	14.3	1.37e-05	0	44	0	3847225344	13	4320
2026-01-17 01:47:46.48	174.32	7.94	-26.3	-28.2	14.4	0.00e+00	0	44	0	3852468224	12	4516
2026-01-17 01:47:47.48	174.37	7.86	-26.2	-28.0	14.5	1.10e-06	0	44	0	3858759680	12	4462
2026-01-17 01:47:48.48	174.43	7.78	-26.0	-27.7	14.7	1.02e-05	0	44	0	3864002560	12	4362
