passes_logs/2026/01/17/R2M6_AANII_01/R2M6_AANII_01__20260117_105105_NOAA_20_JPSS-1_rec.log

#Pass ID: 20260117_105105_NOAA 20 (JPSS-1)
#Satellite: NOAA 20 (JPSS-1)
#Configuration: NOAA 20
#almurnet v.1.7.20240730
#Start time: 2026-01-17 10:51:04

#Version: 2.2.20231116
#Station: R2M6_AANII_01
#Location: 30.233357 lon 59.946436 lat
#TLE: 1 43013U 17073A   26016.24631778  .00000038  00000+0  39093-4 0  9990
#TLE: 2 43013  98.7637 317.1726 0001455  37.6755 322.4523 14.19536243422915

#Time	Az	El	Level	Level2	SNR	BER	BlckErr	Temp	State	Recorded	gain1	gain2
2026-01-17 10:51:04.17	176.74	6.93	-30.8	-35.4	5.5	1.19e+00	0	41	0	0	21	6120
2026-01-17 10:51:05.17	176.78	7.01	-31.3	-37.0	5.2	1.22e+00	0	41	104	0	22	6936
2026-01-17 10:51:06.17	176.81	7.09	-31.3	-37.0	9.0	2.37e-02	0	41	0	0	22	6908
2026-01-17 10:51:07.18	176.85	7.16	-31.4	-37.1	8.9	2.83e-02	0	41	0	1048576	22	6949
2026-01-17 10:51:08.18	176.88	7.24	-31.3	-36.7	9.3	2.21e-02	0	41	0	3145728	22	6702
2026-01-17 10:51:09.19	176.92	7.32	-31.5	-37.1	8.6	2.56e-02	0	41	0	5242880	23	6828
2026-01-17 10:51:10.19	176.95	7.39	-31.3	-36.0	9.5	4.11e-02	0	41	0	7340032	23	6235
2026-01-17 10:51:11.19	176.99	7.47	-31.1	-35.4	9.9	7.60e-03	0	41	0	9437184	23	5907
2026-01-17 10:51:12.19	177.02	7.55	-30.8	-34.7	10.9	4.18e-03	0	41	0	10485760	22	5693
2026-01-17 10:51:13.20	177.06	7.63	-30.7	-34.7	11.0	2.03e-03	0	41	0	12582912	22	5656
2026-01-17 10:51:14.20	177.09	7.70	-30.9	-35.4	10.4	2.78e-03	0	41	0	14680064	22	5987
2026-01-17 10:51:15.19	177.13	7.78	-31.0	-35.5	10.3	4.41e-03	0	42	0	16777216	22	6068
2026-01-17 10:51:16.19	177.17	7.86	-30.7	-34.4	11.1	3.50e-03	0	41	0	17825792	22	5558
2026-01-17 10:51:17.19	177.20	7.94	-30.9	-35.3	10.4	1.26e-03	0	42	0	19922944	22	5951
2026-01-17 10:51:18.19	177.24	8.02	-30.6	-34.3	11.2	1.70e-03	0	42	0	22020096	22	5468
2026-01-17 10:51:19.19	177.28	8.10	-30.6	-34.3	11.2	1.42e-03	0	41	0	24117248	22	5491
2026-01-17 10:51:20.20	177.31	8.18	-30.8	-34.8	10.9	1.71e-03	0	42	0	26214400	22	5693
2026-01-17 10:51:21.20	177.35	8.26	-30.7	-34.5	11.1	1.72e-03	0	42	0	27262976	22	5578
2026-01-17 10:51:22.21	177.39	8.34	-30.9	-35.2	10.6	3.69e-03	0	42	0	29360128	22	5885
2026-01-17 10:51:23.21	177.43	8.42	-30.8	-34.8	11.0	2.47e-03	0	42	0	31457280	22	5683
2026-01-17 10:51:24.21	177.46	8.50	-30.6	-34.0	11.6	6.74e-04	0	42	0	33554432	22	5339
2026-01-17 10:51:25.20	177.50	8.58	-30.5	-33.8	11.7	6.55e-04	0	42	0	35651584	22	5256
2026-01-17 10:51:26.20	177.54	8.66	-30.5	-33.8	11.7	7.03e-04	0	42	0	36700160	22	5266
2026-01-17 10:51:27.20	177.58	8.74	-30.8	-34.8	11.0	4.02e-04	0	42	0	38797312	22	5672
2026-01-17 10:51:28.20	177.62	8.82	-30.7	-34.3	11.3	2.05e-03	0	42	0	40894464	22	5491
2026-01-17 10:51:29.20	177.65	8.90	-30.7	-34.3	11.4	1.12e-03	0	42	0	42991616	22	5458
2026-01-17 10:51:30.21	177.69	8.98	-30.9	-34.9	10.9	1.51e-03	0	42	0	45088768	22	5750
2026-01-17 10:51:31.20	177.73	9.06	-30.6	-34.1	11.5	1.40e-03	0	42	0	46137344	22	5361
2026-01-17 10:51:32.20	177.77	9.14	-30.8	-34.6	11.3	7.94e-04	0	42	0	48234496	22	5563
2026-01-17 10:51:33.20	177.81	9.23	-30.9	-35.0	10.9	1.88e-03	0	42	0	50331648	22	5743
2026-01-17 10:51:34.20	177.85	9.31	-30.7	-34.4	11.4	1.57e-03	0	42	0	52428800	22	5493
2026-01-17 10:51:35.20	177.89	9.39	-30.9	-35.0	10.9	2.13e-03	0	42	0	53477376	22	5744
2026-01-17 10:51:36.20	177.93	9.48	-30.8	-34.5	11.3	1.27e-03	0	42	0	55574528	22	5529
2026-01-17 10:51:37.21	177.97	9.56	-30.6	-34.0	11.7	9.06e-04	0	42	0	57671680	22	5304
2026-01-17 10:51:38.21	178.01	9.64	-30.5	-33.5	12.0	2.68e-04	0	42	0	59768832	22	5121
2026-01-17 10:51:39.21	178.05	9.73	-30.4	-33.2	12.2	2.64e-04	0	42	0	61865984	22	5012
2026-01-17 10:51:40.21	178.09	9.81	-30.4	-33.4	12.1	2.33e-04	0	42	0	62914560	22	5088
2026-01-17 10:51:41.21	178.13	9.90	-30.4	-33.4	12.2	2.34e-04	0	42	0	65011712	22	5057
2026-01-17 10:51:42.21	178.18	9.98	-30.5	-33.6	12.0	3.48e-04	0	42	0	67108864	22	5143
2026-01-17 10:51:43.21	178.22	10.07	-30.5	-33.6	12.0	3.40e-04	0	42	0	69206016	22	5162
2026-01-17 10:51:44.21	178.26	10.15	-30.5	-33.6	12.0	3.15e-04	0	42	0	71303168	22	5136
2026-01-17 10:51:45.21	178.30	10.24	-30.5	-33.7	12.0	2.91e-04	0	42	0	72351744	22	5169
2026-01-17 10:51:46.21	178.34	10.32	-30.6	-33.9	11.8	3.17e-04	0	42	0	74448896	22	5285
2026-01-17 10:51:47.21	178.39	10.41	-30.8	-34.5	11.4	5.61e-04	0	42	0	76546048	22	5525
2026-01-17 10:51:48.20	178.43	10.50	-30.8	-34.7	11.3	1.07e-03	0	42	0	78643200	22	5583
2026-01-17 10:51:49.21	178.47	10.58	-30.8	-34.5	11.5	1.26e-03	0	42	0	79691776	22	5501
2026-01-17 10:51:50.21	178.51	10.67	-31.0	-35.1	11.0	1.66e-03	0	42	0	81788928	22	5806
2026-01-17 10:51:51.20	178.56	10.76	-30.9	-34.8	11.2	1.56e-03	0	42	0	83886080	22	5628
2026-01-17 10:51:52.21	178.60	10.85	-31.1	-35.3	10.8	2.15e-03	0	42	0	85983232	22	5884
2026-01-17 10:51:53.22	178.65	10.94	-30.9	-34.9	11.2	1.53e-03	0	42	0	88080384	22	5694
2026-01-17 10:51:54.21	178.69	11.02	-31.0	-35.2	11.0	1.56e-03	0	42	0	89128960	22	5832
2026-01-17 10:51:55.21	178.73	11.11	-30.8	-34.5	11.4	2.05e-03	0	43	0	91226112	22	5517
2026-01-17 10:51:56.21	178.78	11.20	-30.6	-33.8	12.0	3.24e-04	0	42	0	93323264	22	5216
2026-01-17 10:51:57.21	178.82	11.29	-30.5	-33.4	12.2	1.96e-04	0	42	0	95420416	22	5076
2026-01-17 10:51:58.21	178.87	11.38	-30.3	-33.0	12.6	1.33e-04	0	42	0	97517568	22	4899
2026-01-17 10:51:59.21	178.91	11.47	-30.1	-33.0	12.8	6.86e-05	0	42	0	98566144	21	5023
2026-01-17 10:52:00.20	178.96	11.56	-30.3	-33.3	12.7	5.95e-05	0	43	0	100663296	21	5133
2026-01-17 10:52:01.20	179.01	11.65	-30.4	-33.8	12.3	1.58e-04	0	42	0	102760448	21	5322
2026-01-17 10:52:02.20	179.05	11.74	-30.2	-33.2	12.8	1.61e-04	0	42	0	104857600	21	5076
2026-01-17 10:52:03.20	179.10	11.83	-30.1	-32.8	13.0	3.96e-05	0	42	0	106954752	21	4942
2026-01-17 10:52:04.20	179.15	11.92	-30.0	-32.5	13.2	4.11e-05	0	43	0	108003328	21	4810
2026-01-17 10:52:05.20	179.19	12.01	-30.0	-32.7	13.1	2.44e-05	0	43	0	110100480	21	4884
2026-01-17 10:52:06.21	179.24	12.11	-30.1	-32.8	13.0	2.97e-05	0	43	0	112197632	21	4936
2026-01-17 10:52:07.20	179.29	12.20	-30.1	-32.7	13.1	3.28e-05	0	43	0	114294784	21	4906
2026-01-17 10:52:08.19	179.33	12.29	-30.1	-33.0	12.9	2.82e-05	0	43	0	115343360	21	4985
2026-01-17 10:52:09.20	179.38	12.39	-30.2	-33.3	12.8	7.24e-05	0	43	0	117440512	21	5092
2026-01-17 10:52:10.20	179.43	12.48	-30.0	-32.6	13.2	3.96e-05	0	42	0	119537664	21	4868
2026-01-17 10:52:11.20	179.48	12.57	-29.9	-32.4	13.3	2.28e-05	0	43	0	121634816	21	4785
2026-01-17 10:52:12.20	179.53	12.67	-30.0	-32.6	13.2	1.90e-05	0	43	0	123731968	21	4834
2026-01-17 10:52:13.21	179.58	12.76	-30.0	-32.5	13.3	9.10e-06	0	43	0	124780544	21	4823
2026-01-17 10:52:14.21	179.63	12.86	-30.0	-32.6	13.2	2.21e-05	0	43	0	126877696	21	4856
2026-01-17 10:52:15.22	179.68	12.95	-30.0	-32.6	13.2	2.05e-05	0	43	0	128974848	21	4865
2026-01-17 10:52:16.22	179.73	13.05	-30.0	-32.5	13.3	1.90e-05	0	43	0	131072000	21	4811
2026-01-17 10:52:17.22	179.78	13.15	-30.1	-32.7	13.1	1.60e-05	0	43	0	133169152	21	4880
2026-01-17 10:52:18.22	179.83	13.24	-30.2	-33.1	12.9	3.35e-05	0	43	0	134217728	21	5039
2026-01-17 10:52:19.22	179.88	13.34	-30.1	-32.8	13.1	3.81e-05	0	43	0	136314880	21	4919
2026-01-17 10:52:20.22	179.93	13.44	-30.1	-33.0	13.0	2.89e-05	0	43	0	138412032	21	4987
2026-01-17 10:52:21.22	179.98	13.53	-30.2	-33.2	12.8	6.10e-05	0	43	0	140509184	21	5077
2026-01-17 10:52:22.22	180.04	13.63	-30.2	-33.0	13.0	4.65e-05	0	43	0	141557760	21	4984
2026-01-17 10:52:23.22	180.09	13.73	-30.0	-32.6	13.2	4.65e-05	0	43	0	143654912	21	4838
2026-01-17 10:52:24.22	180.14	13.83	-30.0	-32.6	13.2	3.05e-05	0	43	0	145752064	21	4856
2026-01-17 10:52:25.22	180.20	13.93	-30.0	-32.6	13.3	1.90e-05	0	43	0	147849216	21	4841
2026-01-17 10:52:26.22	180.25	14.03	-30.1	-32.9	13.1	2.82e-05	0	43	0	149946368	21	4947
2026-01-17 10:52:27.22	180.30	14.13	-30.1	-32.9	13.1	2.51e-05	0	43	0	150994944	21	4957
2026-01-17 10:52:28.22	180.36	14.23	-30.2	-33.1	13.0	4.88e-05	0	43	0	153092096	21	5029
2026-01-17 10:52:29.22	180.41	14.33	-30.0	-32.6	13.3	2.89e-05	0	43	0	155189248	21	4847
2026-01-17 10:52:30.22	180.47	14.43	-29.8	-32.1	13.6	7.60e-06	0	43	0	157286400	21	4654
2026-01-17 10:52:31.22	180.52	14.53	-29.8	-32.0	13.7	6.10e-06	0	43	0	159383552	21	4644
2026-01-17 10:52:32.22	180.58	14.63	-29.9	-32.1	13.7	8.30e-06	0	43	0	160432128	21	4666
2026-01-17 10:52:33.21	180.63	14.73	-29.9	-32.3	13.6	7.00e-07	0	43	0	162529280	21	4717
2026-01-17 10:52:34.21	180.69	14.83	-29.9	-32.1	13.7	8.30e-06	0	43	0	164626432	21	4675
2026-01-17 10:52:35.22	180.74	14.94	-30.0	-32.4	13.5	6.80e-06	0	43	0	166723584	21	4749
2026-01-17 10:52:36.22	180.80	15.04	-29.9	-32.3	13.5	1.06e-05	0	43	0	168820736	21	4742
2026-01-17 10:52:37.23	180.86	15.15	-30.0	-32.5	13.4	1.14e-05	0	43	0	169869312	21	4793
2026-01-17 10:52:38.23	180.92	15.25	-29.9	-32.3	13.6	1.22e-05	0	43	0	171966464	21	4724
2026-01-17 10:52:39.23	180.97	15.36	-30.1	-32.7	13.3	1.52e-05	0	43	0	174063616	21	4859
2026-01-17 10:52:40.23	181.03	15.46	-30.2	-33.1	13.1	2.67e-05	0	43	0	176160768	21	5022
2026-01-17 10:52:41.23	181.09	15.57	-30.1	-32.8	13.3	2.44e-05	0	43	0	178257920	21	4915
2026-01-17 10:52:42.23	181.15	15.67	-30.1	-32.8	13.3	2.28e-05	0	43	0	179306496	21	4897
2026-01-17 10:52:43.23	181.21	15.78	-30.3	-33.2	13.0	2.97e-05	0	43	0	181403648	21	5066
2026-01-17 10:52:44.23	181.27	15.89	-30.1	-32.8	13.2	2.28e-05	0	43	0	183500800	21	4911
2026-01-17 10:52:45.23	181.33	15.99	-30.0	-32.5	13.5	1.14e-05	0	43	0	185597952	21	4793
2026-01-17 10:52:46.22	181.39	16.10	-30.1	-32.7	13.4	2.67e-05	0	43	0	186646528	21	4864
2026-01-17 10:52:47.22	181.45	16.21	-30.1	-32.7	13.4	9.90e-06	0	43	0	188743680	21	4860
2026-01-17 10:52:48.23	181.51	16.32	-30.3	-33.2	13.0	2.82e-05	0	43	0	190840832	21	5052
2026-01-17 10:52:49.23	181.58	16.43	-30.0	-32.4	13.5	8.30e-06	0	43	0	192937984	21	4771
2026-01-17 10:52:50.23	181.64	16.54	-29.9	-32.1	13.8	2.20e-06	0	43	0	195035136	21	4645
2026-01-17 10:52:51.23	181.70	16.65	-29.9	-32.6	13.8	6.10e-06	0	43	0	196083712	20	4922
2026-01-17 10:52:52.23	181.77	16.76	-29.9	-32.7	13.7	6.80e-06	0	43	0	198180864	20	4983
2026-01-17 10:52:53.22	181.83	16.87	-29.8	-32.4	13.9	3.00e-06	0	43	0	200278016	20	4871
2026-01-17 10:52:54.22	181.89	16.98	-29.9	-32.7	13.7	7.00e-07	0	43	0	202375168	20	4965
2026-01-17 10:52:55.22	181.96	17.09	-30.0	-33.0	13.5	7.60e-06	0	43	0	204472320	20	5067
2026-01-17 10:52:56.23	182.02	17.20	-29.9	-32.7	13.7	9.90e-06	0	43	0	205520896	20	4962
2026-01-17 10:52:57.23	182.09	17.32	-29.8	-32.4	13.9	5.30e-06	0	43	0	207618048	20	4868
2026-01-17 10:52:58.23	182.16	17.43	-29.8	-32.6	13.8	5.30e-06	0	43	0	209715200	20	4938
2026-01-17 10:52:59.23	182.22	17.54	-29.8	-32.6	13.8	7.60e-06	0	43	0	211812352	20	4930
2026-01-17 10:53:00.24	182.29	17.66	-30.0	-33.0	13.5	6.80e-06	0	43	0	213909504	20	5087
2026-01-17 10:53:01.23	182.36	17.77	-30.0	-33.0	13.5	9.90e-06	0	43	0	214958080	20	5101
2026-01-17 10:53:02.24	182.43	17.89	-30.1	-33.4	13.3	1.75e-05	0	43	0	217055232	20	5236
2026-01-17 10:53:03.24	182.49	18.00	-30.1	-33.2	13.4	9.10e-06	0	43	0	219152384	20	5148
2026-01-17 10:53:04.25	182.56	18.12	-29.9	-32.7	13.8	6.80e-06	0	43	0	221249536	20	4992
2026-01-17 10:53:05.25	182.63	18.24	-30.0	-33.0	13.6	9.10e-06	0	43	0	222298112	20	5104
2026-01-17 10:53:06.25	182.70	18.36	-30.2	-33.6	13.2	1.90e-05	0	43	0	224395264	20	5312
2026-01-17 10:53:07.25	182.77	18.47	-30.1	-33.3	13.4	2.67e-05	0	43	0	226492416	20	5200
2026-01-17 10:53:08.25	182.84	18.59	-30.2	-33.5	13.3	2.74e-05	0	43	0	228589568	20	5273
2026-01-17 10:53:09.25	182.92	18.71	-30.1	-33.4	13.3	1.37e-05	0	43	0	230686720	20	5243
2026-01-17 10:53:10.25	182.99	18.83	-30.1	-33.4	13.3	1.06e-05	0	43	0	231735296	20	5259
2026-01-17 10:53:11.25	183.06	18.95	-30.2	-33.7	13.1	2.82e-05	0	43	0	233832448	20	5345
2026-01-17 10:53:12.26	183.13	19.07	-30.2	-33.5	13.3	1.83e-05	0	43	0	235929600	20	5274
2026-01-17 10:53:13.25	183.21	19.19	-30.3	-33.8	13.1	2.28e-05	0	43	0	238026752	20	5383
2026-01-17 10:53:14.26	183.28	19.32	-30.1	-33.4	13.3	2.51e-05	0	43	0	240123904	20	5245
2026-01-17 10:53:15.25	183.36	19.44	-30.0	-33.0	13.6	1.22e-05	0	43	0	241172480	20	5084
2026-01-17 10:53:16.24	183.43	19.56	-29.9	-32.6	13.9	6.10e-06	0	43	0	243269632	20	4949
2026-01-17 10:53:17.25	183.51	19.68	-29.9	-32.7	13.9	8.30e-06	0	43	0	245366784	20	4959
2026-01-17 10:53:18.25	183.59	19.81	-29.9	-32.7	13.8	3.80e-06	0	43	0	247463936	20	4971
2026-01-17 10:53:19.25	183.66	19.93	-29.8	-32.6	13.9	3.00e-06	0	43	0	249561088	20	4921
2026-01-17 10:53:20.25	183.74	20.06	-29.8	-32.5	14.0	4.50e-06	0	43	0	250609664	20	4903
2026-01-17 10:53:21.26	183.82	20.18	-29.8	-32.5	14.0	3.80e-06	0	43	0	252706816	20	4905
2026-01-17 10:53:22.26	183.90	20.31	-29.8	-32.5	14.0	3.80e-06	0	43	0	254803968	20	4889
2026-01-17 10:53:23.27	183.98	20.44	-29.8	-32.3	14.1	3.80e-06	0	43	0	256901120	20	4829
2026-01-17 10:53:24.26	184.06	20.56	-29.9	-32.6	14.0	2.20e-06	0	43	0	257949696	20	4915
2026-01-17 10:53:25.26	184.14	20.69	-29.9	-32.6	14.0	3.80e-06	0	43	0	260046848	20	4935
2026-01-17 10:53:26.26	184.22	20.82	-29.9	-32.7	13.9	5.30e-06	0	43	0	262144000	20	4968
2026-01-17 10:53:27.26	184.30	20.95	-29.9	-32.5	14.0	3.00e-06	0	43	0	264241152	20	4903
2026-01-17 10:53:28.26	184.39	21.08	-29.9	-32.6	14.0	3.00e-06	0	43	0	266338304	20	4918
2026-01-17 10:53:29.25	184.47	21.21	-29.8	-32.3	14.2	2.20e-06	0	43	0	267386880	20	4819
2026-01-17 10:53:30.25	184.55	21.34	-29.8	-32.3	14.1	6.10e-06	0	43	0	269484032	20	4834
2026-01-17 10:53:31.25	184.64	21.47	-29.7	-32.1	14.2	0.00e+00	0	43	0	271581184	20	4768
2026-01-17 10:53:32.24	184.72	21.60	-29.7	-32.3	14.1	2.20e-06	0	43	0	273678336	20	4821
2026-01-17 10:53:33.24	184.81	21.74	-29.5	-31.5	14.6	0.00e+00	0	43	0	275775488	20	4568
2026-01-17 10:53:34.22	184.89	21.87	-29.4	-31.3	14.8	0.00e+00	0	43	0	276824064	20	4477
2026-01-17 10:53:35.22	184.98	22.00	-29.3	-31.0	15.0	0.00e+00	0	43	0	278921216	20	4398
2026-01-17 10:53:36.23	185.07	22.14	-29.3	-31.5	15.1	0.00e+00	0	43	0	281018368	19	4626
2026-01-17 10:53:37.23	185.16	22.27	-29.2	-31.3	15.2	0.00e+00	0	43	0	283115520	19	4561
2026-01-17 10:53:38.23	185.25	22.41	-29.2	-31.3	15.2	0.00e+00	0	43	0	284164096	19	4584
2026-01-17 10:53:39.23	185.34	22.55	-29.3	-31.5	15.1	0.00e+00	0	43	0	286261248	19	4652
2026-01-17 10:53:40.23	185.43	22.68	-29.1	-31.0	15.4	0.00e+00	0	43	0	288358400	19	4483
2026-01-17 10:53:41.23	185.53	22.82	-29.0	-30.7	15.6	0.00e+00	0	44	0	290455552	19	4390
2026-01-17 10:53:42.24	185.62	22.96	-28.9	-30.6	15.7	0.00e+00	0	43	0	292552704	19	4354
2026-01-17 10:53:43.24	185.71	23.10	-28.9	-30.6	15.7	0.00e+00	0	43	0	293601280	19	4347
2026-01-17 10:53:44.24	185.81	23.24	-28.9	-30.4	15.8	0.00e+00	0	43	0	295698432	19	4300
2026-01-17 10:53:45.25	185.90	23.38	-29.0	-30.7	15.6	0.00e+00	0	43	0	297795584	19	4392
2026-01-17 10:53:46.25	186.00	23.53	-29.1	-30.9	15.5	0.00e+00	0	43	0	299892736	19	4445
2026-01-17 10:53:47.25	186.10	23.67	-28.8	-30.4	15.8	0.00e+00	0	43	0	301989888	19	4282
2026-01-17 10:53:48.25	186.20	23.81	-28.8	-30.7	15.9	0.00e+00	0	43	0	303038464	18	4487
2026-01-17 10:53:49.25	186.30	23.95	-28.9	-30.9	15.8	0.00e+00	0	43	0	305135616	18	4549
2026-01-17 10:53:50.25	186.39	24.10	-29.1	-31.4	15.5	0.00e+00	0	43	0	307232768	18	4709
2026-01-17 10:53:51.25	186.50	24.24	-29.1	-31.4	15.5	0.00e+00	0	43	0	309329920	18	4713
2026-01-17 10:53:52.25	186.60	24.39	-29.0	-31.3	15.6	0.00e+00	0	43	0	311427072	18	4663
2026-01-17 10:53:53.25	186.70	24.54	-29.1	-31.4	15.6	0.00e+00	0	43	0	312475648	18	4691
2026-01-17 10:53:54.25	186.80	24.68	-29.2	-31.6	15.4	0.00e+00	0	43	0	314572800	18	4760
2026-01-17 10:53:55.26	186.91	24.83	-29.1	-31.4	15.6	0.00e+00	0	43	0	316669952	18	4707
2026-01-17 10:53:56.26	187.01	24.98	-29.1	-31.4	15.6	0.00e+00	0	43	0	318767104	18	4689
2026-01-17 10:53:57.26	187.12	25.13	-29.1	-31.4	15.6	0.00e+00	0	43	0	319815680	18	4694
2026-01-17 10:53:58.26	187.23	25.28	-29.1	-31.5	15.6	0.00e+00	0	43	0	321912832	18	4716
2026-01-17 10:53:59.26	187.34	25.43	-29.2	-31.8	15.4	0.00e+00	0	43	0	324009984	18	4809
2026-01-17 10:54:00.26	187.44	25.59	-28.9	-30.8	15.9	0.00e+00	0	43	0	326107136	18	4508
2026-01-17 10:54:01.26	187.55	25.74	-28.7	-30.5	16.1	0.00e+00	0	43	0	328204288	18	4423
2026-01-17 10:54:02.26	187.67	25.89	-28.6	-30.2	16.4	0.00e+00	0	43	0	329252864	18	4315
2026-01-17 10:54:03.27	187.78	26.05	-28.7	-30.4	16.2	0.00e+00	0	43	0	331350016	18	4385
2026-01-17 10:54:04.26	187.89	26.20	-28.7	-30.5	16.2	1.50e-06	0	43	0	333447168	18	4413
2026-01-17 10:54:05.27	188.01	26.36	-28.8	-30.8	16.0	0.00e+00	0	43	0	335544320	18	4491
2026-01-17 10:54:06.27	188.12	26.51	-28.9	-30.8	16.0	0.00e+00	0	43	0	337641472	18	4504
2026-01-17 10:54:07.27	188.24	26.67	-29.0	-31.1	15.8	7.00e-07	0	43	0	338690048	18	4589
2026-01-17 10:54:08.27	188.36	26.83	-29.1	-31.4	15.6	0.00e+00	0	43	0	340787200	18	4701
2026-01-17 10:54:09.26	188.48	26.99	-29.1	-31.3	15.7	0.00e+00	0	43	0	342884352	18	4664
2026-01-17 10:54:10.26	188.60	27.15	-29.1	-31.4	15.7	0.00e+00	0	43	0	344981504	18	4679
2026-01-17 10:54:11.26	188.72	27.31	-29.1	-31.4	15.6	0.00e+00	0	43	0	346030080	18	4705
2026-01-17 10:54:12.27	188.84	27.47	-29.3	-31.8	15.4	0.00e+00	0	43	0	348127232	18	4827
2026-01-17 10:54:13.27	188.96	27.63	-29.2	-31.7	15.5	0.00e+00	0	43	0	350224384	18	4781
2026-01-17 10:54:14.27	189.09	27.79	-29.2	-31.6	15.6	0.00e+00	0	43	0	352321536	18	4761
2026-01-17 10:54:15.27	189.22	27.96	-29.4	-32.0	15.3	0.00e+00	0	43	0	354418688	18	4897
2026-01-17 10:54:16.27	189.34	28.12	-29.3	-32.0	15.4	0.00e+00	0	43	0	355467264	18	4867
2026-01-17 10:54:17.27	189.47	28.29	-29.5	-32.3	15.2	0.00e+00	0	43	0	357564416	18	4991
2026-01-17 10:54:18.28	189.60	28.46	-29.6	-32.1	14.9	0.00e+00	0	43	0	359661568	19	4819
2026-01-17 10:54:19.28	189.73	28.62	-29.8	-32.6	14.7	2.20e-06	0	43	0	361758720	19	4984
2026-01-17 10:54:20.28	189.87	28.79	-29.9	-33.0	14.5	0.00e+00	0	43	0	363855872	19	5103
2026-01-17 10:54:21.28	190.00	28.96	-30.2	-33.2	14.0	0.00e+00	0	43	0	364904448	20	5076
2026-01-17 10:54:22.28	190.14	29.13	-30.4	-33.8	13.5	8.30e-06	0	43	0	367001600	20	5325
2026-01-17 10:54:23.28	190.27	29.30	-30.5	-33.6	13.3	1.29e-05	0	43	0	369098752	21	5149
2026-01-17 10:54:24.28	190.41	29.47	-30.8	-34.3	12.8	4.80e-05	0	43	0	371195904	21	5409
2026-01-17 10:54:25.28	190.55	29.64	-30.9	-34.7	12.6	6.33e-05	0	44	0	373293056	21	5588
2026-01-17 10:54:26.28	190.69	29.82	-31.0	-34.4	12.5	1.09e-04	0	44	0	374341632	22	5314
2026-01-17 10:54:27.28	190.83	29.99	-31.0	-34.3	12.5	1.04e-04	0	43	0	376438784	22	5309
2026-01-17 10:54:28.29	190.98	30.17	-31.1	-34.6	12.3	2.17e-04	0	43	0	378535936	22	5423
2026-01-17 10:54:29.28	191.12	30.34	-31.2	-35.0	12.1	1.88e-04	0	43	0	380633088	22	5567
2026-01-17 10:54:30.28	191.27	30.52	-31.2	-34.9	12.1	3.46e-04	0	43	0	382730240	22	5557
2026-01-17 10:54:31.28	191.42	30.70	-31.3	-35.3	11.9	3.73e-04	0	43	0	383778816	22	5710
2026-01-17 10:54:32.28	191.57	30.88	-31.5	-35.5	11.5	8.03e-04	0	43	0	385875968	23	5668
2026-01-17 10:54:33.28	191.72	31.05	-31.5	-35.5	11.4	9.02e-04	0	43	0	387973120	23	5704
2026-01-17 10:54:34.27	191.87	31.23	-31.6	-35.8	11.2	1.39e-03	0	44	0	390070272	23	5832
2026-01-17 10:54:35.28	192.03	31.42	-31.7	-36.2	10.9	1.94e-03	0	43	0	392167424	23	5997
2026-01-17 10:54:36.28	192.19	31.60	-31.8	-36.4	10.8	2.45e-03	0	43	0	393216000	23	6106
2026-01-17 10:54:37.28	192.35	31.78	-31.8	-36.3	10.8	2.59e-03	0	43	0	395313152	23	6055
2026-01-17 10:54:38.28	192.51	31.96	-31.8	-36.4	10.7	2.55e-03	0	43	0	397410304	23	6127
2026-01-17 10:54:39.28	192.67	32.15	-31.8	-36.3	10.8	3.06e-03	0	44	0	399507456	23	6048
2026-01-17 10:54:40.29	192.83	32.34	-31.7	-36.0	11.0	1.96e-03	0	43	0	400556032	23	5924
2026-01-17 10:54:41.29	193.00	32.52	-31.6	-35.8	11.2	1.44e-03	0	43	0	402653184	23	5807
2026-01-17 10:54:42.29	193.17	32.71	-31.6	-35.6	11.3	9.79e-04	0	43	0	404750336	23	5739
2026-01-17 10:54:43.29	193.34	32.90	-31.5	-35.6	11.4	8.70e-04	0	43	0	406847488	23	5716
2026-01-17 10:54:44.29	193.51	33.09	-31.5	-35.6	11.4	1.13e-03	0	43	0	408944640	23	5718
2026-01-17 10:54:45.30	193.68	33.28	-31.5	-35.3	11.6	8.01e-04	0	43	0	409993216	23	5594
2026-01-17 10:54:46.29	193.86	33.47	-31.5	-35.3	11.5	8.94e-04	0	44	0	412090368	23	5602
2026-01-17 10:54:47.30	194.04	33.66	-31.3	-34.9	11.9	4.89e-04	0	43	0	414187520	23	5413
2026-01-17 10:54:48.30	194.22	33.86	-31.2	-34.5	12.1	2.92e-04	0	43	0	416284672	23	5275
2026-01-17 10:54:49.30	194.40	34.05	-31.3	-34.8	12.0	3.17e-04	0	43	0	418381824	23	5359
2026-01-17 10:54:50.30	194.58	34.25	-31.3	-34.7	12.0	3.75e-04	0	43	0	419430400	23	5348
2026-01-17 10:54:51.30	194.77	34.44	-31.1	-34.3	12.3	2.06e-04	0	43	0	421527552	23	5163
2026-01-17 10:54:52.30	194.96	34.64	-31.1	-34.2	12.4	1.44e-04	0	43	0	423624704	23	5147
2026-01-17 10:54:53.31	195.15	34.84	-31.1	-34.1	12.5	1.50e-04	0	43	0	425721856	23	5078
2026-01-17 10:54:54.31	195.34	35.04	-31.2	-34.6	12.1	2.12e-04	0	43	0	426770432	23	5279
2026-01-17 10:54:55.31	195.54	35.23	-31.2	-34.3	12.3	1.59e-04	0	43	0	428867584	23	5169
2026-01-17 10:54:56.31	195.73	35.43	-31.2	-34.3	12.3	1.69e-04	0	43	0	430964736	23	5177
2026-01-17 10:54:57.32	195.94	35.64	-31.0	-34.0	12.6	1.40e-04	0	43	0	433061888	23	5041
2026-01-17 10:54:58.32	196.14	35.84	-31.0	-33.8	12.7	8.54e-05	0	43	0	435159040	23	4964
2026-01-17 10:54:59.32	196.34	36.04	-31.0	-33.8	12.7	9.23e-05	0	43	0	436207616	23	4967
2026-01-17 10:55:00.32	196.55	36.25	-30.8	-33.7	13.1	4.73e-05	0	44	0	438304768	22	5035
2026-01-17 10:55:01.33	196.76	36.45	-30.6	-33.3	13.4	1.90e-05	0	44	0	440401920	22	4877
2026-01-17 10:55:02.33	196.97	36.66	-30.5	-33.0	13.5	2.05e-05	0	43	0	442499072	22	4780
2026-01-17 10:55:03.33	197.19	36.86	-30.6	-33.1	13.5	1.22e-05	0	43	0	444596224	22	4822
2026-01-17 10:55:04.33	197.41	37.07	-30.4	-32.6	13.8	1.06e-05	0	43	0	445644800	22	4655
2026-01-17 10:55:05.33	197.63	37.28	-30.3	-32.5	13.9	3.80e-06	0	43	0	447741952	22	4607
2026-01-17 10:55:06.33	197.85	37.49	-30.5	-32.8	13.7	8.30e-06	0	43	0	449839104	22	4711
2026-01-17 10:55:07.33	198.08	37.70	-30.6	-33.1	13.5	1.29e-05	0	43	0	451936256	22	4802
2026-01-17 10:55:08.34	198.31	37.91	-30.3	-32.4	13.9	3.80e-06	0	43	0	454033408	22	4587
2026-01-17 10:55:09.34	198.54	38.12	-30.3	-32.5	13.9	7.60e-06	0	43	0	455081984	22	4601
2026-01-17 10:55:10.34	198.77	38.33	-30.5	-32.8	13.7	3.00e-06	0	43	0	457179136	22	4711
2026-01-17 10:55:11.35	199.01	38.55	-30.6	-33.1	13.5	2.20e-06	0	43	0	459276288	22	4811
2026-01-17 10:55:12.35	199.26	38.76	-30.7	-33.4	13.3	1.83e-05	0	44	0	461373440	22	4947
2026-01-17 10:55:13.35	199.50	38.98	-30.6	-33.1	13.5	1.22e-05	0	43	0	463470592	22	4802
2026-01-17 10:55:14.35	199.75	39.19	-30.5	-33.1	13.5	7.60e-06	0	43	0	464519168	22	4806
2026-01-17 10:55:15.36	200.00	39.41	-30.5	-32.9	13.7	9.10e-06	0	44	0	466616320	22	4742
2026-01-17 10:55:16.35	200.25	39.63	-30.2	-32.5	14.2	5.30e-06	0	43	0	468713472	21	4712
2026-01-17 10:55:17.35	200.51	39.84	-30.0	-32.0	14.5	2.20e-06	0	43	0	470810624	21	4546
2026-01-17 10:55:18.36	200.77	40.06	-29.9	-31.9	14.6	0.00e+00	0	44	0	471859200	21	4505
2026-01-17 10:55:19.37	201.04	40.29	-29.8	-31.7	14.7	0.00e+00	0	44	0	473956352	21	4458
2026-01-17 10:55:20.37	201.31	40.51	-30.0	-32.0	14.6	7.00e-07	0	44	0	476053504	21	4539
2026-01-17 10:55:21.37	201.58	40.73	-29.8	-32.0	14.9	0.00e+00	0	43	0	478150656	20	4652
2026-01-17 10:55:22.38	201.86	40.95	-29.9	-32.3	14.7	0.00e+00	0	43	0	480247808	20	4739
2026-01-17 10:55:23.38	202.13	41.17	-30.1	-32.8	14.4	0.00e+00	0	43	0	482344960	20	4923
2026-01-17 10:55:24.38	202.42	41.39	-30.1	-32.9	14.3	1.50e-06	0	44	0	483393536	20	4941
2026-01-17 10:55:25.38	202.70	41.62	-30.2	-33.1	14.2	1.50e-06	0	43	0	485490688	20	5022
2026-01-17 10:55:26.38	202.99	41.84	-30.1	-32.8	14.4	7.00e-07	0	43	0	487587840	20	4932
2026-01-17 10:55:27.38	203.29	42.06	-30.1	-32.8	14.4	4.50e-06	0	43	0	489684992	20	4912
2026-01-17 10:55:28.38	203.59	42.29	-29.9	-32.4	14.6	1.50e-06	0	43	0	490733568	20	4768
2026-01-17 10:55:29.39	203.89	42.51	-29.9	-32.4	14.7	0.00e+00	0	43	0	492830720	20	4771
2026-01-17 10:55:30.39	204.20	42.74	-30.0	-32.6	14.5	2.20e-06	0	43	0	494927872	20	4840
2026-01-17 10:55:31.40	204.51	42.97	-30.2	-33.2	14.2	0.00e+00	0	43	0	497025024	20	5047
2026-01-17 10:55:32.40	204.83	43.19	-30.3	-33.4	14.0	3.80e-06	0	43	0	499122176	20	5135
2026-01-17 10:55:33.40	205.15	43.42	-30.5	-33.4	13.7	3.00e-06	0	43	0	500170752	21	5034
2026-01-17 10:55:34.40	205.47	43.65	-30.6	-33.6	13.6	6.80e-06	0	43	0	502267904	21	5109
2026-01-17 10:55:35.41	205.80	43.88	-30.7	-33.9	13.3	1.67e-05	0	43	0	504365056	21	5233
2026-01-17 10:55:36.41	206.14	44.11	-30.5	-33.3	13.7	3.80e-06	0	43	0	506462208	21	4998
2026-01-17 10:55:37.41	206.48	44.33	-30.4	-33.1	13.8	0.00e+00	0	43	0	508559360	21	4928
2026-01-17 10:55:38.41	206.82	44.56	-30.6	-33.6	13.6	6.80e-06	0	43	0	509607936	21	5106
2026-01-17 10:55:39.41	207.17	44.79	-30.8	-34.3	13.1	2.28e-05	0	43	0	511705088	21	5371
2026-01-17 10:55:40.41	207.52	45.02	-30.9	-34.4	13.0	4.11e-05	0	43	0	513802240	21	5421
2026-01-17 10:55:41.42	207.88	45.25	-31.1	-34.5	12.6	6.56e-05	0	43	0	515899392	22	5349
2026-01-17 10:55:42.42	208.24	45.48	-31.1	-34.6	12.6	1.03e-04	0	44	0	516947968	22	5376
2026-01-17 10:55:43.43	208.62	45.71	-31.2	-34.8	12.5	1.11e-04	0	43	0	519045120	22	5470
2026-01-17 10:55:44.41	208.98	45.93	-31.2	-34.9	12.4	1.42e-04	0	44	0	521142272	22	5493
2026-01-17 10:55:45.42	209.36	46.17	-31.2	-34.9	12.3	1.09e-04	0	43	0	523239424	22	5518
2026-01-17 10:55:46.42	209.75	46.39	-31.3	-35.1	12.2	2.30e-04	0	43	0	525336576	22	5606
2026-01-17 10:55:47.42	210.14	46.62	-31.4	-35.6	11.9	2.76e-04	0	43	0	527433728	22	5796
2026-01-17 10:55:48.43	210.54	46.85	-31.6	-35.6	11.6	6.14e-04	0	43	0	528482304	23	5703
2026-01-17 10:55:49.43	210.94	47.08	-31.9	-36.7	10.9	1.61e-03	0	43	0	530579456	23	6197
2026-01-17 10:55:50.43	211.35	47.31	-32.3	-37.2	10.1	4.78e-03	0	44	0	532676608	24	6374
2026-01-17 10:55:51.43	211.76	47.54	-32.4	-37.9	9.5	9.76e-03	0	44	0	534773760	24	6746
2026-01-17 10:55:52.44	212.18	47.77	-32.5	-37.7	9.3	1.91e-02	0	44	0	535822336	25	6564
2026-01-17 10:55:53.44	212.61	47.99	-32.4	-37.4	9.4	1.52e-02	0	44	0	537919488	25	6409
2026-01-17 10:55:54.44	213.04	48.22	-32.4	-37.3	9.6	1.47e-02	0	44	0	540016640	25	6318
2026-01-17 10:55:55.43	213.47	48.44	-32.3	-37.1	9.7	1.24e-02	0	44	0	542113792	25	6200
2026-01-17 10:55:56.43	213.92	48.67	-32.6	-38.1	9.0	2.10e-02	0	44	0	544210944	25	6752
2026-01-17 10:55:57.44	214.37	48.89	-32.8	-39.0	8.3	4.21e-02	0	43	0	545259520	25	7329
2026-01-17 10:55:58.44	214.83	49.12	-32.8	-38.9	8.3	5.45e-02	0	43	0	547356672	25	7284
2026-01-17 10:55:59.44	215.29	49.34	-32.6	-38.2	8.9	3.24e-02	0	43	0	549453824	25	6829
2026-01-17 10:56:00.44	215.77	49.56	-32.3	-37.0	9.8	1.38e-02	0	44	0	551550976	25	6151
2026-01-17 10:56:01.44	216.24	49.78	-32.1	-36.3	10.4	6.53e-03	0	44	0	553648128	25	5788
2026-01-17 10:56:02.44	216.73	50.00	-32.2	-36.4	10.3	4.57e-03	0	43	0	554696704	25	5869
2026-01-17 10:56:03.44	217.22	50.22	-32.2	-36.3	10.4	5.74e-03	0	44	0	556793856	25	5802
2026-01-17 10:56:04.44	217.72	50.44	-32.0	-35.9	10.7	3.29e-03	0	43	0	558891008	25	5632
2026-01-17 10:56:05.44	218.22	50.65	-31.9	-35.3	11.2	2.32e-03	0	43	0	560988160	25	5371
2026-01-17 10:56:06.44	218.73	50.87	-31.6	-35.0	11.6	6.51e-04	0	43	0	562036736	24	5339
2026-01-17 10:56:07.44	219.25	51.08	-31.2	-34.3	12.5	2.37e-04	0	44	0	564133888	23	5139
2026-01-17 10:56:08.44	219.78	51.30	-30.9	-33.3	13.1	5.26e-05	0	43	0	566231040	23	4785
2026-01-17 10:56:09.45	220.32	51.51	-30.8	-33.5	13.4	1.83e-05	0	44	0	568328192	22	4949
2026-01-17 10:56:10.45	220.86	51.72	-30.8	-33.8	13.2	1.83e-05	0	44	0	570425344	22	5041
2026-01-17 10:56:11.44	221.41	51.92	-30.8	-33.7	13.2	2.67e-05	0	44	0	571473920	22	5017
2026-01-17 10:56:12.45	221.97	52.13	-30.8	-33.7	13.3	1.52e-05	0	43	0	573571072	22	5013
2026-01-17 10:56:13.45	222.53	52.33	-30.9	-33.9	13.2	2.44e-05	0	44	0	575668224	22	5072
2026-01-17 10:56:14.45	223.11	52.53	-30.9	-33.9	13.1	3.12e-05	0	43	0	577765376	22	5097
2026-01-17 10:56:15.45	223.69	52.73	-30.7	-33.4	13.5	2.82e-05	0	43	0	579862528	22	4908
2026-01-17 10:56:16.46	224.28	52.93	-30.3	-32.3	14.1	2.20e-06	0	44	0	580911104	22	4533
2026-01-17 10:56:17.46	224.88	53.13	-30.3	-32.7	14.2	3.00e-06	0	44	0	583008256	21	4785
2026-01-17 10:56:18.46	225.48	53.32	-30.6	-33.6	13.7	6.80e-06	0	43	0	585105408	21	5100
2026-01-17 10:56:19.46	226.09	53.51	-30.5	-33.4	13.8	1.06e-05	0	44	0	587202560	21	5002
2026-01-17 10:56:20.47	226.72	53.70	-30.2	-32.6	14.3	1.50e-06	0	44	0	589299712	21	4728
2026-01-17 10:56:21.47	227.35	53.88	-29.8	-31.9	15.0	1.50e-06	0	43	0	590348288	20	4622
2026-01-17 10:56:22.47	227.98	54.06	-29.6	-31.5	15.3	0.00e+00	0	43	0	592445440	20	4487
2026-01-17 10:56:23.48	228.63	54.24	-29.7	-31.7	15.1	0.00e+00	0	44	0	594542592	20	4541
2026-01-17 10:56:24.48	229.29	54.42	-29.8	-32.1	14.9	0.00e+00	0	44	0	596639744	20	4689
2026-01-17 10:56:25.48	229.95	54.59	-30.0	-32.6	14.6	0.00e+00	0	44	0	598736896	20	4856
2026-01-17 10:56:26.48	230.61	54.76	-30.2	-33.1	14.3	0.00e+00	0	43	0	599785472	20	5028
2026-01-17 10:56:27.48	231.29	54.93	-29.9	-32.3	14.7	0.00e+00	0	44	0	601882624	20	4745
2026-01-17 10:56:28.48	231.97	55.09	-29.5	-31.4	15.3	7.00e-07	0	44	0	603979776	20	4446
2026-01-17 10:56:29.47	232.65	55.25	-29.4	-30.9	15.7	0.00e+00	0	44	0	606076928	20	4309
2026-01-17 10:56:30.48	233.36	55.40	-29.6	-31.5	15.3	0.00e+00	0	44	0	607125504	20	4479
2026-01-17 10:56:31.48	234.07	55.55	-30.1	-32.7	14.5	0.00e+00	0	43	0	609222656	20	4886
2026-01-17 10:56:32.48	234.78	55.70	-30.2	-33.1	14.3	1.50e-06	0	44	0	611319808	20	5022
2026-01-17 10:56:33.48	235.50	55.85	-30.1	-32.8	14.5	2.20e-06	0	44	0	613416960	20	4909
2026-01-17 10:56:34.48	236.23	55.99	-29.7	-31.8	15.2	0.00e+00	0	43	0	615514112	20	4569
2026-01-17 10:56:35.47	236.96	56.12	-29.6	-31.4	15.4	0.00e+00	0	44	0	616562688	20	4460
2026-01-17 10:56:36.47	237.70	56.25	-29.7	-31.8	15.1	0.00e+00	0	44	0	618659840	20	4586
2026-01-17 10:56:37.48	238.46	56.38	-29.8	-32.1	15.0	0.00e+00	0	44	0	620756992	20	4665
2026-01-17 10:56:38.48	239.21	56.50	-29.9	-32.3	14.9	0.00e+00	0	44	0	622854144	20	4718
2026-01-17 10:56:39.49	239.98	56.62	-30.0	-32.5	14.7	1.50e-06	0	44	0	624951296	20	4809
2026-01-17 10:56:40.49	240.75	56.73	-30.1	-32.6	14.6	0.00e+00	0	43	0	625999872	20	4843
2026-01-17 10:56:41.49	241.52	56.84	-29.9	-32.2	14.9	0.00e+00	0	44	0	628097024	20	4691
2026-01-17 10:56:42.49	242.31	56.95	-30.0	-32.4	14.9	0.00e+00	0	44	0	630194176	20	4760
2026-01-17 10:56:43.49	243.09	57.05	-30.3	-33.2	14.3	0.00e+00	0	44	0	632291328	20	5041
2026-01-17 10:56:44.50	243.89	57.14	-30.2	-33.1	14.3	0.00e+00	0	44	0	634388480	20	5015
2026-01-17 10:56:45.50	244.69	57.23	-30.5	-33.7	14.0	2.20e-06	0	44	0	635437056	20	5217
2026-01-17 10:56:46.50	245.49	57.31	-30.9	-34.4	13.2	3.00e-06	0	44	0	637534208	21	5397
2026-01-17 10:56:47.50	246.30	57.39	-31.0	-34.1	13.2	2.28e-05	0	44	0	639631360	22	5139
2026-01-17 10:56:48.50	247.11	57.47	-30.9	-33.9	13.3	2.82e-05	0	44	0	641728512	22	5071
2026-01-17 10:56:49.50	247.93	57.53	-31.2	-34.7	12.7	2.44e-05	0	44	0	642777088	22	5383
2026-01-17 10:56:50.50	248.75	57.60	-31.9	-36.3	11.2	2.04e-04	0	44	0	644874240	23	5967
2026-01-17 10:56:51.50	249.57	57.65	-32.2	-37.0	10.3	4.93e-03	0	44	0	646971392	24	6228
2026-01-17 10:56:52.50	250.40	57.71	-32.0	-36.2	10.9	3.78e-03	0	44	0	649068544	24	5820
2026-01-17 10:56:53.50	251.23	57.75	-31.8	-35.5	11.5	1.28e-03	0	44	0	651165696	24	5497
2026-01-17 10:56:54.51	252.07	57.79	-31.7	-35.0	11.8	6.42e-04	0	44	0	652214272	24	5314
2026-01-17 10:56:55.51	252.90	57.83	-31.7	-35.3	11.7	5.32e-04	0	43	0	654311424	24	5410
2026-01-17 10:56:56.51	253.74	57.86	-31.9	-35.9	11.2	9.59e-04	0	44	0	656408576	24	5670
2026-01-17 10:56:57.51	254.58	57.88	-32.1	-36.4	10.9	1.74e-03	0	44	0	658505728	24	5923
2026-01-17 10:56:58.51	255.42	57.90	-32.0	-36.1	11.1	2.26e-03	0	44	0	660602880	24	5777
2026-01-17 10:56:59.52	256.27	57.91	-31.9	-35.9	11.2	1.74e-03	0	44	0	661651456	24	5668
2026-01-17 10:57:00.53	257.12	57.92	-32.2	-36.9	10.4	1.55e-03	0	44	0	663748608	24	6194
2026-01-17 10:57:01.53	257.96	57.92	-32.2	-36.8	10.5	6.48e-03	0	44	0	665845760	24	6102
2026-01-17 10:57:02.53	258.80	57.91	-32.0	-36.0	11.1	2.47e-03	0	44	0	667942912	24	5730
2026-01-17 10:57:03.53	259.64	57.90	-32.0	-36.3	11.0	1.50e-03	0	44	0	670040064	24	5875
2026-01-17 10:57:04.53	260.48	57.89	-32.3	-37.1	10.4	4.35e-03	0	44	0	671088640	24	6276
2026-01-17 10:57:05.54	261.33	57.86	-32.0	-36.3	10.9	3.39e-03	0	44	0	673185792	24	5878
2026-01-17 10:57:06.54	262.16	57.84	-31.8	-35.5	11.5	1.39e-03	0	44	0	675282944	24	5506
2026-01-17 10:57:07.54	263.00	57.80	-31.8	-35.5	11.5	7.74e-04	0	43	0	677380096	24	5525
2026-01-17 10:57:08.54	263.83	57.76	-31.6	-34.8	11.9	7.41e-04	0	43	0	679477248	24	5211
2026-01-17 10:57:09.54	264.66	57.72	-31.0	-33.6	13.1	7.40e-05	0	43	0	680525824	23	4858
2026-01-17 10:57:10.54	265.49	57.67	-30.9	-33.4	13.2	1.67e-05	0	44	0	682622976	23	4786
2026-01-17 10:57:11.54	266.31	57.61	-31.6	-35.4	12.0	1.72e-04	0	43	0	684720128	23	5565
2026-01-17 10:57:12.54	267.13	57.55	-31.7	-35.6	11.7	8.41e-04	0	44	0	686817280	23	5675
2026-01-17 10:57:13.55	267.96	57.48	-31.3	-34.3	12.6	2.07e-04	0	44	0	687865856	23	5126
2026-01-17 10:57:14.55	268.77	57.41	-31.3	-34.4	12.6	6.02e-05	0	44	0	689963008	23	5155
2026-01-17 10:57:15.55	269.58	57.33	-31.6	-35.5	11.9	2.07e-04	0	44	0	692060160	23	5597
2026-01-17 10:57:16.55	270.38	57.25	-32.1	-36.5	10.8	1.76e-03	0	44	0	694157312	24	5976
2026-01-17 10:57:17.55	271.18	57.16	-32.6	-37.7	9.5	4.33e-03	0	43	0	696254464	25	6510
2026-01-17 10:57:18.55	271.97	57.07	-32.9	-39.0	8.5	4.27e-02	0	43	0	697303040	25	7260
2026-01-17 10:57:19.55	272.76	56.97	-32.6	-37.8	9.3	2.68e-02	0	44	0	699400192	25	6539
2026-01-17 10:57:20.55	273.54	56.87	-32.5	-37.4	9.7	1.11e-02	0	44	0	701497344	25	6363
2026-01-17 10:57:21.56	274.32	56.76	-32.6	-38.0	9.2	1.74e-02	0	43	0	703594496	25	6674
2026-01-17 10:57:22.56	275.09	56.65	-32.2	-36.3	10.4	9.41e-03	0	44	0	705691648	25	5787
2026-01-17 10:57:23.55	275.85	56.54	-31.5	-34.6	12.1	1.20e-03	0	43	0	706740224	24	5151
2026-01-17 10:57:24.56	276.61	56.41	-31.1	-34.0	12.9	1.11e-04	0	44	0	708837376	23	5013
2026-01-17 10:57:25.56	277.36	56.29	-31.5	-35.0	12.2	1.67e-04	0	44	0	710934528	23	5416
2026-01-17 10:57:26.55	278.10	56.16	-31.7	-35.9	11.5	4.87e-04	0	44	0	713031680	23	5799
2026-01-17 10:57:27.54	278.83	56.03	-31.4	-34.9	12.1	6.38e-04	0	44	0	715128832	23	5393
2026-01-17 10:57:28.55	279.56	55.89	-30.9	-33.5	13.2	1.28e-04	0	44	0	716177408	23	4833
2026-01-17 10:57:29.55	280.28	55.74	-30.8	-33.5	13.5	8.30e-06	0	44	0	718274560	22	4939
2026-01-17 10:57:30.56	281.01	55.60	-30.6	-33.2	13.7	1.29e-05	0	44	0	720371712	22	4831
2026-01-17 10:57:31.56	281.71	55.45	-30.4	-32.7	14.0	5.30e-06	0	44	0	722468864	22	4646
2026-01-17 10:57:32.55	282.40	55.29	-29.9	-31.7	14.9	0.00e+00	0	44	0	723517440	21	4450
2026-01-17 10:57:33.55	283.10	55.14	-29.3	-30.7	15.8	0.00e+00	0	43	0	725614592	20	4243
2026-01-17 10:57:34.55	283.78	54.97	-28.8	-30.1	16.6	0.00e+00	0	44	0	727711744	19	4156
2026-01-17 10:57:35.54	284.45	54.81	-28.6	-30.1	16.8	0.00e+00	0	44	0	729808896	18	4268
2026-01-17 10:57:36.54	285.12	54.64	-28.5	-29.8	17.0	0.00e+00	0	43	0	731906048	18	4187
2026-01-17 10:57:37.54	285.78	54.47	-28.3	-29.5	17.2	0.00e+00	0	43	0	732954624	18	4093
2026-01-17 10:57:38.54	286.43	54.30	-28.2	-29.7	17.3	0.00e+00	0	44	0	735051776	17	4278
2026-01-17 10:57:39.54	287.08	54.12	-27.7	-29.1	17.9	0.00e+00	0	44	0	737148928	16	4207
2026-01-17 10:57:40.54	287.71	53.94	-27.6	-28.7	18.1	0.00e+00	0	44	0	739246080	16	4099
2026-01-17 10:57:41.55	288.35	53.76	-28.0	-29.6	17.6	0.00e+00	0	44	0	741343232	16	4354
2026-01-17 10:57:42.55	288.97	53.57	-28.1	-30.0	17.4	0.00e+00	0	43	0	742391808	16	4453
2026-01-17 10:57:43.56	289.59	53.38	-28.1	-30.0	17.5	0.00e+00	0	44	0	744488960	16	4449
2026-01-17 10:57:44.56	290.19	53.19	-28.0	-29.7	17.6	0.00e+00	0	44	0	746586112	16	4373
2026-01-17 10:57:45.56	290.79	53.00	-27.8	-29.3	17.7	0.00e+00	0	44	0	748683264	16	4266
2026-01-17 10:57:46.57	291.39	52.80	-27.9	-29.4	17.8	0.00e+00	0	43	0	749731840	16	4300
2026-01-17 10:57:47.57	291.97	52.60	-28.0	-29.8	17.5	0.00e+00	0	44	0	751828992	16	4391
2026-01-17 10:57:48.58	292.55	52.40	-28.5	-30.4	16.9	0.00e+00	0	44	0	753926144	17	4464
2026-01-17 10:57:49.58	293.11	52.20	-29.3	-31.8	15.9	0.00e+00	0	43	0	756023296	18	4768
2026-01-17 10:57:50.59	293.68	51.99	-29.5	-31.8	15.5	0.00e+00	0	43	0	758120448	19	4661
2026-01-17 10:57:51.59	294.23	51.79	-29.4	-31.4	15.8	0.00e+00	0	43	0	760217600	19	4547
2026-01-17 10:57:52.60	294.78	51.58	-29.7	-32.2	15.3	0.00e+00	0	44	0	761266176	19	4792
2026-01-17 10:57:53.59	295.31	51.37	-30.7	-33.8	13.7	3.00e-06	0	44	0	763363328	21	5147
2026-01-17 10:57:54.59	295.83	51.16	-31.6	-35.4	11.8	1.16e-04	0	44	0	765460480	23	5597
2026-01-17 10:57:55.60	296.36	50.94	-31.9	-36.4	11.2	9.96e-04	0	43	0	767557632	23	6046
2026-01-17 10:57:56.61	296.88	50.73	-31.5	-35.2	12.0	4.68e-04	0	44	0	768606208	23	5488
2026-01-17 10:57:57.61	297.38	50.51	-31.3	-34.6	12.4	1.46e-04	0	43	0	770703360	23	5234
2026-01-17 10:57:58.61	297.88	50.30	-31.8	-35.9	11.6	2.92e-04	0	44	0	772800512	23	5788
2026-01-17 10:57:59.61	298.37	50.08	-32.6	-37.7	9.5	7.67e-03	0	44	0	774897664	25	6511
2026-01-17 10:58:00.61	298.86	49.86	-33.3	-40.3	7.1	1.07e-01	0	44	0	776994816	26	8063
2026-01-17 10:58:01.61	299.34	49.64	-33.0	-38.8	8.1	1.31e-01	0	44	0	778043392	26	7042
2026-01-17 10:58:02.61	299.81	49.42	-32.5	-37.0	9.6	3.12e-02	0	44	0	780140544	26	6018
2026-01-17 10:58:03.60	300.27	49.20	-32.4	-36.6	9.9	9.11e-03	0	44	0	782237696	26	5812
2026-01-17 10:58:04.61	300.73	48.98	-32.5	-37.0	9.6	8.45e-03	0	43	0	784334848	26	6026
2026-01-17 10:58:05.62	301.19	48.75	-32.7	-37.7	9.0	2.01e-02	0	43	0	786432000	26	6395
2026-01-17 10:58:06.62	301.63	48.53	-32.8	-38.2	8.7	3.04e-02	0	44	0	787480576	26	6651
2026-01-17 10:58:07.62	302.07	48.30	-32.8	-37.9	8.9	3.97e-02	0	43	0	789577728	26	6487
2026-01-17 10:58:08.62	302.50	48.08	-32.4	-36.6	9.9	1.50e-02	0	44	0	791674880	26	5817
2026-01-17 10:58:09.62	302.93	47.85	-31.9	-35.2	11.2	2.20e-03	0	44	0	793772032	25	5295
2026-01-17 10:58:10.63	303.35	47.62	-31.9	-35.3	11.1	1.08e-03	0	44	0	795869184	25	5345
2026-01-17 10:58:11.63	303.77	47.40	-32.3	-36.8	10.1	3.45e-03	0	43	0	796917760	25	6042
2026-01-17 10:58:12.63	304.18	47.17	-32.9	-39.1	8.3	1.25e-02	0	44	0	799014912	25	7332
2026-01-17 10:58:13.64	304.58	46.94	-32.9	-38.5	8.4	6.72e-02	0	44	0	801112064	26	6853
2026-01-17 10:58:14.64	304.98	46.71	-32.0	-35.8	10.9	1.00e-02	0	44	0	803209216	25	5530
2026-01-17 10:58:15.64	305.37	46.49	-31.5	-34.6	12.1	8.88e-04	0	44	0	805306368	24	5138
2026-01-17 10:58:16.64	305.75	46.26	-31.5	-34.7	12.0	2.01e-04	0	43	0	806354944	24	5186
2026-01-17 10:58:17.64	306.13	46.03	-32.1	-36.4	10.8	1.34e-03	0	44	0	808452096	24	5933
2026-01-17 10:58:18.64	306.51	45.80	-32.4	-37.4	10.0	4.86e-03	0	44	0	810549248	24	6465
2026-01-17 10:58:19.65	306.88	45.57	-32.4	-37.6	9.9	9.02e-03	0	44	0	812646400	24	6548
2026-01-17 10:58:20.65	307.24	45.35	-32.0	-36.1	10.9	3.64e-03	0	44	0	813694976	24	5812
2026-01-17 10:58:21.66	307.61	45.12	-31.5	-34.7	12.0	5.62e-04	0	43	0	815792128	24	5175
2026-01-17 10:58:22.66	307.96	44.89	-31.2	-34.1	12.7	1.40e-04	0	44	0	817889280	23	5066
2026-01-17 10:58:23.66	308.31	44.66	-31.2	-34.3	12.6	7.24e-05	0	44	0	819986432	23	5116
2026-01-17 10:58:24.66	308.65	44.43	-31.3	-34.6	12.4	1.14e-04	0	43	0	822083584	23	5231
2026-01-17 10:58:25.67	308.99	44.20	-31.6	-35.4	11.9	2.29e-04	0	44	0	823132160	23	5558
2026-01-17 10:58:26.67	309.33	43.98	-31.7	-35.7	11.7	5.73e-04	0	44	0	825229312	23	5687
2026-01-17 10:58:27.67	309.66	43.75	-31.6	-35.3	12.0	4.81e-04	0	43	0	827326464	23	5516
2026-01-17 10:58:28.67	309.98	43.53	-31.5	-35.1	12.0	3.47e-04	0	44	0	829423616	23	5444
2026-01-17 10:58:29.67	310.30	43.30	-31.9	-36.3	11.2	4.96e-04	0	44	0	831520768	23	5961
2026-01-17 10:58:30.68	310.62	43.07	-32.0	-36.3	10.8	2.75e-03	0	44	0	832569344	24	5906
2026-01-17 10:58:31.68	310.93	42.85	-32.2	-36.8	10.4	3.58e-03	0	44	0	834666496	24	6111
2026-01-17 10:58:32.68	311.24	42.62	-32.1	-36.4	10.8	4.77e-03	0	44	0	836763648	24	5911
2026-01-17 10:58:33.69	311.55	42.40	-31.8	-35.7	11.2	1.29e-03	0	44	0	838860800	24	5596
2026-01-17 10:58:34.69	311.84	42.17	-32.1	-36.5	10.7	2.06e-03	0	43	0	840957952	24	5992
2026-01-17 10:58:35.70	312.14	41.95	-32.2	-37.0	10.4	5.16e-03	0	44	0	842006528	24	6204
2026-01-17 10:58:36.70	312.43	41.73	-32.4	-37.8	9.6	6.88e-03	0	43	0	844103680	24	6649
2026-01-17 10:58:37.70	312.72	41.50	-32.3	-36.6	10.2	9.58e-03	0	44	0	846200832	25	5948
2026-01-17 10:58:38.71	313.01	41.28	-31.8	-35.2	11.2	2.74e-03	0	44	0	848297984	25	5299
2026-01-17 10:58:39.70	313.28	41.06	-31.7	-35.1	11.6	8.63e-04	0	44	0	850395136	24	5368
2026-01-17 10:58:40.71	313.56	40.84	-31.7	-35.3	11.5	8.46e-04	0	44	0	851443712	24	5454
2026-01-17 10:58:41.71	313.83	40.62	-32.1	-36.6	10.6	2.05e-03	0	44	0	853540864	24	6030
2026-01-17 10:58:42.72	314.10	40.40	-32.1	-36.5	10.7	4.03e-03	0	44	0	855638016	24	5980
2026-01-17 10:58:43.72	314.37	40.18	-31.9	-36.0	11.0	2.75e-03	0	44	0	857735168	24	5765
2026-01-17 10:58:44.72	314.63	39.96	-32.1	-36.5	10.6	2.83e-03	0	44	0	859832320	24	5990
2026-01-17 10:58:45.73	314.89	39.75	-32.4	-37.5	9.8	5.20e-03	0	44	0	860880896	24	6535
2026-01-17 10:58:46.73	315.14	39.53	-32.3	-36.9	9.9	1.33e-02	0	44	0	862978048	25	6081
2026-01-17 10:58:47.74	315.40	39.31	-31.8	-35.1	11.3	2.51e-03	0	44	0	865075200	25	5251
2026-01-17 10:58:48.74	315.64	39.10	-31.3	-34.4	12.4	3.12e-04	0	44	0	867172352	23	5188
2026-01-17 10:58:49.74	315.89	38.88	-31.0	-33.7	12.9	5.64e-05	0	44	0	868220928	23	4909
2026-01-17 10:58:50.75	316.13	38.67	-31.4	-34.9	12.1	1.42e-04	0	44	0	870318080	23	5379
2026-01-17 10:58:51.75	316.37	38.46	-31.9	-36.3	11.1	9.76e-04	0	44	0	872415232	23	6001
2026-01-17 10:58:52.75	316.61	38.25	-32.6	-38.2	8.9	7.32e-03	0	44	0	874512384	25	6813
2026-01-17 10:58:53.76	316.84	38.03	-32.7	-38.3	8.8	5.30e-02	0	43	0	876609536	25	6903
2026-01-17 10:58:54.76	317.07	37.82	-31.9	-35.5	10.9	7.09e-03	0	44	0	877658112	25	5427
2026-01-17 10:58:55.77	317.30	37.61	-31.0	-33.9	12.8	3.08e-04	0	44	0	879755264	23	4971
2026-01-17 10:58:56.77	317.52	37.41	-30.7	-33.3	13.5	2.21e-05	0	44	0	881852416	22	4852
2026-01-17 10:58:57.77	317.74	37.20	-30.8	-33.7	13.3	9.90e-06	0	44	0	883949568	22	5008
2026-01-17 10:58:58.78	317.96	36.99	-31.0	-34.2	12.9	3.20e-05	0	44	0	886046720	22	5223
2026-01-17 10:58:59.78	318.18	36.78	-31.7	-35.7	11.5	1.95e-04	0	44	0	887095296	23	5753
2026-01-17 10:59:00.79	318.39	36.58	-32.3	-37.5	9.8	6.61e-03	0	43	0	889192448	24	6536
2026-01-17 10:59:01.78	318.60	36.38	-32.5	-38.1	9.3	1.62e-02	0	44	0	891289600	24	6851
2026-01-17 10:59:02.79	318.81	36.17	-32.4	-37.7	9.6	1.55e-02	0	44	0	893386752	24	6639
2026-01-17 10:59:03.79	319.02	35.97	-32.2	-37.1	10.0	1.09e-02	0	44	0	895483904	24	6316
2026-01-17 10:59:04.79	319.22	35.77	-32.1	-36.8	10.3	6.24e-03	0	44	0	896532480	24	6156
2026-01-17 10:59:05.79	319.42	35.57	-32.1	-36.6	10.4	4.95e-03	0	44	0	898629632	24	6069
2026-01-17 10:59:06.80	319.62	35.37	-31.6	-35.1	11.4	3.62e-03	0	44	0	900726784	24	5362
2026-01-17 10:59:07.80	319.82	35.17	-31.5	-34.8	11.8	3.96e-04	0	43	0	902823936	24	5236
2026-01-17 10:59:08.80	320.01	34.97	-31.6	-35.0	11.6	6.34e-04	0	44	0	904921088	24	5329
2026-01-17 10:59:09.81	320.20	34.77	-31.8	-35.6	11.2	8.12e-04	0	44	0	905969664	24	5569
2026-01-17 10:59:10.81	320.39	34.58	-32.3	-37.4	9.8	6.15e-03	0	44	0	908066816	24	6492
2026-01-17 10:59:11.82	320.58	34.38	-32.7	-38.3	8.7	2.48e-02	0	43	0	910163968	25	6911
2026-01-17 10:59:12.82	320.76	34.19	-32.9	-39.2	8.1	5.20e-02	0	44	0	912261120	25	7447
2026-01-17 10:59:13.83	320.95	33.99	-33.1	-39.6	7.4	8.33e-02	0	44	0	914358272	26	7607
2026-01-17 10:59:14.84	321.13	33.80	-32.6	-37.7	8.8	5.91e-02	0	44	0	915406848	26	6426
2026-01-17 10:59:15.84	321.31	33.61	-32.1	-36.2	10.3	1.31e-02	0	44	0	917504000	25	5769
2026-01-17 10:59:16.84	321.48	33.42	-31.5	-34.8	11.7	2.48e-03	0	43	0	919601152	24	5266
2026-01-17 10:59:17.84	321.66	33.23	-31.2	-34.4	12.3	1.97e-04	0	44	0	921698304	23	5186
2026-01-17 10:59:18.85	321.83	33.04	-31.0	-33.8	12.7	9.23e-05	0	44	0	923795456	23	4970
2026-01-17 10:59:19.85	322.00	32.85	-31.0	-33.6	12.9	5.95e-05	0	44	0	924844032	23	4888
2026-01-17 10:59:20.85	322.17	32.66	-31.1	-34.2	12.5	9.91e-05	0	44	0	926941184	23	5095
2026-01-17 10:59:21.85	322.33	32.48	-31.3	-34.8	12.1	1.81e-04	0	44	0	929038336	23	5344
2026-01-17 10:59:22.85	322.50	32.29	-31.5	-35.3	11.7	3.87e-04	0	44	0	931135488	23	5578
2026-01-17 10:59:23.85	322.66	32.11	-31.7	-36.0	11.2	7.00e-04	0	44	0	932184064	23	5859
2026-01-17 10:59:24.86	322.82	31.92	-31.9	-36.4	10.9	1.88e-03	0	44	0	934281216	23	6078
2026-01-17 10:59:25.85	322.98	31.74	-31.9	-36.6	10.7	2.88e-03	0	44	0	936378368	23	6186
2026-01-17 10:59:26.86	323.14	31.56	-31.9	-36.7	10.7	3.21e-03	0	44	0	938475520	23	6215
2026-01-17 10:59:27.86	323.30	31.38	-32.1	-36.8	10.3	5.35e-03	0	44	0	940572672	24	6142
2026-01-17 10:59:28.86	323.45	31.20	-32.0	-36.3	10.6	3.85e-03	0	44	0	941621248	24	5942
2026-01-17 10:59:29.87	323.60	31.02	-32.0	-36.3	10.6	3.18e-03	0	44	0	943718400	24	5904
2026-01-17 10:59:30.87	323.75	30.84	-31.9	-36.1	10.7	2.95e-03	0	43	0	945815552	24	5816
2026-01-17 10:59:31.88	323.91	30.66	-31.7	-35.4	11.2	1.54e-03	0	44	0	947912704	24	5500
2026-01-17 10:59:32.88	324.05	30.49	-31.7	-35.4	11.3	1.47e-03	0	44	0	950009856	24	5503
2026-01-17 10:59:33.88	324.20	30.31	-31.5	-34.7	11.8	9.22e-04	0	44	0	951058432	24	5204
2026-01-17 10:59:34.89	324.34	30.14	-31.5	-34.9	11.6	5.16e-04	0	44	0	953155584	24	5292
2026-01-17 10:59:35.89	324.49	29.96	-31.4	-34.3	12.0	4.59e-04	0	44	0	955252736	24	5072
2026-01-17 10:59:36.89	324.63	29.79	-31.3	-34.6	12.2	3.27e-04	0	44	0	957349888	23	5251
2026-01-17 10:59:37.90	324.77	29.62	-31.2	-34.5	12.2	2.70e-04	0	44	0	959447040	23	5226
2026-01-17 10:59:38.90	324.91	29.45	-31.3	-34.6	12.2	2.23e-04	0	43	0	960495616	23	5265
2026-01-17 10:59:39.90	325.05	29.28	-31.3	-34.6	12.1	2.44e-04	0	44	0	962592768	23	5295
2026-01-17 10:59:40.91	325.18	29.11	-31.3	-34.5	12.2	2.45e-04	0	44	0	964689920	23	5259
2026-01-17 10:59:41.91	325.32	28.94	-31.4	-34.9	12.0	3.00e-04	0	44	0	966787072	23	5394
2026-01-17 10:59:42.92	325.45	28.77	-31.5	-35.2	11.7	4.37e-04	0	44	0	968884224	23	5525
2026-01-17 10:59:43.92	325.58	28.60	-31.3	-34.7	12.0	3.94e-04	0	43	0	969932800	23	5335
2026-01-17 10:59:44.92	325.71	28.44	-31.3	-34.6	12.1	3.13e-04	0	44	0	972029952	23	5273
2026-01-17 10:59:45.92	325.84	28.27	-31.2	-34.3	12.3	1.70e-04	0	43	0	974127104	23	5156
2026-01-17 10:59:46.92	325.97	28.11	-31.2	-34.5	12.2	1.60e-04	0	44	0	976224256	23	5237
2026-01-17 10:59:47.92	326.10	27.94	-31.0	-33.9	12.5	1.79e-04	0	44	0	977272832	23	5017
2026-01-17 10:59:48.92	326.22	27.78	-31.0	-33.7	12.7	7.24e-05	0	44	0	979369984	23	4925
2026-01-17 10:59:49.92	326.35	27.62	-31.0	-33.7	12.8	6.10e-05	0	44	0	981467136	23	4916
2026-01-17 10:59:50.92	326.47	27.46	-31.1	-34.0	12.5	9.15e-05	0	44	0	983564288	23	5060
2026-01-17 10:59:51.93	326.59	27.30	-30.9	-33.7	12.8	7.17e-05	0	44	0	985661440	23	4924
2026-01-17 10:59:52.93	326.71	27.14	-30.9	-33.5	12.9	3.89e-05	0	44	0	987758592	23	4855
2026-01-17 10:59:53.94	326.83	26.98	-31.0	-33.7	12.8	2.44e-05	0	44	0	988807168	23	4948
2026-01-17 10:59:54.94	326.95	26.82	-31.1	-34.2	12.3	1.48e-04	0	44	0	990904320	23	5149
2026-01-17 10:59:55.94	327.07	26.67	-31.4	-35.2	11.8	3.75e-04	0	44	0	993001472	23	5518
2026-01-17 10:59:56.94	327.18	26.51	-31.6	-35.6	11.4	7.68e-04	0	44	0	995098624	23	5726
2026-01-17 10:59:57.94	327.30	26.35	-31.6	-35.8	11.3	1.28e-03	0	44	0	996147200	23	5827
2026-01-17 10:59:58.95	327.41	26.20	-31.7	-35.9	11.2	1.34e-03	0	44	0	998244352	23	5861
2026-01-17 10:59:59.95	327.53	26.05	-31.8	-36.3	10.9	1.86e-03	0	44	0	1000341504	23	6041
2026-01-17 11:00:00.96	327.64	25.89	-31.6	-35.7	11.3	1.44e-03	0	44	0	1002438656	23	5782
2026-01-17 11:00:01.96	327.75	25.74	-31.7	-35.9	11.2	1.42e-03	0	44	0	1004535808	23	5876
2026-01-17 11:00:02.96	327.86	25.59	-31.5	-35.4	11.5	8.68e-04	0	44	0	1005584384	23	5640
2026-01-17 11:00:03.96	327.97	25.44	-31.4	-34.9	11.9	4.31e-04	0	43	0	1007681536	23	5417
2026-01-17 11:00:04.96	328.08	25.29	-31.3	-34.6	12.1	3.53e-04	0	44	0	1009778688	23	5288
2026-01-17 11:00:05.97	328.18	25.14	-31.2	-34.4	12.3	2.09e-04	0	44	0	1011875840	23	5207
2026-01-17 11:00:06.98	328.29	24.99	-31.3	-34.7	12.1	2.28e-04	0	44	0	1013972992	23	5327
2026-01-17 11:00:07.98	328.40	24.84	-31.1	-34.1	12.5	2.64e-04	0	44	0	1015021568	23	5087
2026-01-17 11:00:08.98	328.50	24.69	-30.9	-33.5	12.8	7.01e-05	0	44	0	1017118720	23	4884
2026-01-17 11:00:09.98	328.60	24.55	-30.8	-33.3	13.0	6.40e-05	0	44	0	1019215872	23	4782
2026-01-17 11:00:10.99	328.71	24.40	-30.7	-33.6	13.1	3.50e-05	0	44	0	1021313024	22	4992
2026-01-17 11:00:11.99	328.81	24.26	-30.6	-33.1	13.4	1.60e-05	0	43	0	1023410176	22	4811
2026-01-17 11:00:12.99	328.91	24.11	-30.4	-32.7	13.7	8.30e-06	0	44	0	1024458752	22	4697
2026-01-17 11:00:13.99	329.01	23.97	-30.4	-32.5	13.8	4.50e-06	0	44	0	1026555904	22	4626
2026-01-17 11:00:15.00	329.11	23.83	-30.7	-33.4	13.3	1.29e-05	0	43	0	1028653056	22	4919
2026-01-17 11:00:16.00	329.20	23.68	-30.5	-33.0	13.5	1.22e-05	0	44	0	1030750208	22	4781
2026-01-17 11:00:17.00	329.30	23.54	-30.4	-32.7	13.7	4.50e-06	0	44	0	1032847360	22	4686
2026-01-17 11:00:18.00	329.40	23.40	-30.5	-33.0	13.5	4.50e-06	0	44	0	1033895936	22	4785
2026-01-17 11:00:19.00	329.49	23.26	-30.5	-33.0	13.4	9.10e-06	0	44	0	1035993088	22	4802
2026-01-17 11:00:20.00	329.59	23.12	-30.7	-33.5	13.1	1.52e-05	0	44	0	1038090240	22	4978
2026-01-17 11:00:21.00	329.68	22.99	-30.8	-33.8	12.9	3.50e-05	0	44	0	1040187392	22	5097
2026-01-17 11:00:22.00	329.77	22.85	-30.9	-34.2	12.6	7.01e-05	0	44	0	1041235968	22	5263
2026-01-17 11:00:22.99	329.86	22.71	-31.3	-35.2	12.0	2.06e-04	0	44	0	1043333120	22	5652
2026-01-17 11:00:23.99	329.95	22.58	-31.0	-34.5	12.4	2.27e-04	0	44	0	1045430272	22	5370
2026-01-17 11:00:24.99	330.05	22.44	-30.8	-34.0	12.7	1.25e-04	0	44	0	1047527424	22	5163
2026-01-17 11:00:26.00	330.14	22.30	-30.8	-33.8	12.9	6.40e-05	0	44	0	1049624576	22	5073
2026-01-17 11:00:27.00	330.22	22.17	-30.7	-33.6	13.0	3.73e-05	0	43	0	1050673152	22	5019
2026-01-17 11:00:28.00	330.31	22.04	-30.7	-33.4	13.1	3.43e-05	0	44	0	1052770304	22	4960
2026-01-17 11:00:29.01	330.40	21.90	-30.5	-33.0	13.1	2.82e-05	0	44	0	1054867456	22	4798
2026-01-17 11:00:30.01	330.49	21.77	-30.4	-32.8	13.1	2.51e-05	0	44	0	1056964608	22	4719
2026-01-17 11:00:31.00	330.57	21.64	-30.3	-32.5	13.3	1.83e-05	0	44	0	1059061760	22	4616
2026-01-17 11:00:32.01	330.66	21.51	-30.4	-32.8	13.1	2.82e-05	0	44	0	1060110336	22	4735
2026-01-17 11:00:33.02	330.75	21.37	-30.3	-32.5	13.3	1.60e-05	0	44	0	1062207488	22	4645
2026-01-17 11:00:34.01	330.83	21.25	-30.2	-32.7	13.6	7.60e-06	0	44	0	1064304640	21	4807
2026-01-17 11:00:35.01	330.91	21.12	-30.3	-33.1	13.3	1.06e-05	0	43	0	1066401792	21	4948
2026-01-17 11:00:36.01	331.00	20.99	-30.5	-33.7	12.9	4.19e-05	0	43	0	1067450368	21	5157
2026-01-17 11:00:37.02	331.08	20.86	-30.5	-33.5	12.6	8.08e-05	0	44	0	1069547520	21	5121
2026-01-17 11:00:38.02	331.16	20.73	-30.5	-33.6	12.1	1.21e-04	0	44	0	1071644672	21	5158
2026-01-17 11:00:39.02	331.24	20.60	-30.5	-33.7	11.9	2.54e-04	0	44	0	1073741824	21	5181
2026-01-17 11:00:40.02	331.32	20.48	-30.6	-33.9	11.9	2.82e-04	0	44	0	1075838976	21	5262
2026-01-17 11:00:41.03	331.40	20.35	-30.7	-34.1	12.3	2.14e-04	0	44	0	1077936128	21	5359
2026-01-17 11:00:42.04	331.48	20.22	-30.7	-34.2	12.5	1.40e-04	0	43	0	1078984704	21	5391
2026-01-17 11:00:43.04	331.56	20.10	-30.5	-33.7	13.0	4.65e-05	0	43	0	1081081856	21	5175
2026-01-17 11:00:44.04	331.64	19.98	-30.5	-33.5	13.2	2.59e-05	0	44	0	1083179008	21	5118
2026-01-17 11:00:45.04	331.71	19.85	-30.5	-33.5	13.2	2.97e-05	0	44	0	1085276160	21	5099
2026-01-17 11:00:46.05	331.79	19.73	-30.4	-33.3	13.3	1.29e-05	0	44	0	1086324736	21	5016
2026-01-17 11:00:47.05	331.87	19.61	-30.4	-33.3	13.1	1.14e-05	0	44	0	1088421888	21	5044
2026-01-17 11:00:48.05	331.94	19.48	-30.5	-33.5	13.1	2.21e-05	0	44	0	1090519040	21	5097
2026-01-17 11:00:49.05	332.02	19.36	-30.5	-33.5	13.1	1.44e-05	0	44	0	1092616192	21	5116
2026-01-17 11:00:50.05	332.09	19.24	-30.5	-33.6	12.2	8.39e-05	0	44	0	1094713344	21	5174
2026-01-17 11:00:51.05	332.17	19.12	-30.4	-33.6	11.4	4.39e-04	0	44	0	1095761920	21	5170
2026-01-17 11:00:52.05	332.24	19.00	-30.7	-34.5	10.6	1.71e-03	0	44	0	1097859072	21	5540
2026-01-17 11:00:53.06	332.31	18.88	-30.4	-33.6	11.8	5.00e-04	0	43	0	1099956224	21	5156
2026-01-17 11:00:54.06	332.38	18.76	-30.1	-32.6	12.8	1.07e-04	0	43	0	1102053376	21	4784
2026-01-17 11:00:55.07	332.46	18.65	-29.9	-32.1	13.5	1.37e-05	0	44	0	1104150528	21	4635
2026-01-17 11:00:56.06	332.53	18.53	-29.9	-32.0	13.6	9.90e-06	0	44	0	1105199104	21	4596
2026-01-17 11:00:57.06	332.60	18.41	-29.9	-32.0	13.5	1.22e-05	0	44	0	1107296256	21	4593
2026-01-17 11:00:58.06	332.67	18.30	-30.0	-32.3	12.9	1.67e-05	0	44	0	1109393408	21	4698
2026-01-17 11:00:59.06	332.74	18.18	-29.8	-32.2	12.9	3.96e-05	0	44	0	1111490560	20	4762
2026-01-17 11:01:00.06	332.81	18.06	-29.5	-31.6	13.2	1.52e-05	0	44	0	1112539136	20	4577
2026-01-17 11:01:01.06	332.88	17.95	-29.5	-31.5	13.6	5.30e-06	0	44	0	1114636288	20	4537
2026-01-17 11:01:02.07	332.94	17.83	-29.5	-31.4	14.0	4.50e-06	0	44	0	1116733440	20	4514
2026-01-17 11:01:03.08	333.01	17.72	-29.5	-31.4	14.4	7.00e-07	0	44	0	1118830592	20	4489
2026-01-17 11:01:04.07	333.08	17.61	-29.5	-31.6	14.4	0.00e+00	0	44	0	1120927744	20	4554
2026-01-17 11:01:05.08	333.15	17.49	-29.5	-31.6	14.5	1.50e-06	0	43	0	1123024896	20	4556
2026-01-17 11:01:06.09	333.21	17.38	-29.6	-31.7	14.4	7.00e-07	0	44	0	1124073472	20	4591
2026-01-17 11:01:07.10	333.28	17.27	-29.6	-31.8	14.4	0.00e+00	0	43	0	1126170624	20	4626
2026-01-17 11:01:08.10	333.35	17.16	-29.8	-32.3	14.2	0.00e+00	0	44	0	1128267776	20	4782
2026-01-17 11:01:09.11	333.41	17.04	-29.7	-32.0	14.4	7.00e-07	0	44	0	1130364928	20	4685
2026-01-17 11:01:10.11	333.48	16.93	-29.9	-32.5	14.1	0.00e+00	0	44	0	1131413504	20	4846
2026-01-17 11:01:11.11	333.54	16.82	-29.9	-32.5	13.9	3.00e-06	0	44	0	1133510656	20	4880
2026-01-17 11:01:12.11	333.60	16.71	-30.0	-32.7	13.7	5.30e-06	0	44	0	1135607808	20	4953
2026-01-17 11:01:13.11	333.67	16.60	-30.3	-33.5	13.3	9.90e-06	0	44	0	1137704960	20	5243
2026-01-17 11:01:14.11	333.73	16.50	-30.3	-33.6	13.2	1.14e-05	0	44	0	1139802112	20	5289
2026-01-17 11:01:15.12	333.79	16.39	-30.3	-33.7	13.2	4.50e-05	0	43	0	1140850688	20	5303
2026-01-17 11:01:16.12	333.85	16.28	-30.4	-33.9	13.2	1.60e-05	0	43	0	1142947840	20	5379
2026-01-17 11:01:17.13	333.92	16.17	-30.6	-33.9	12.8	3.50e-05	0	44	0	1145044992	21	5292
2026-01-17 11:01:18.12	333.98	16.06	-30.6	-33.9	12.8	5.26e-05	0	44	0	1147142144	21	5293
2026-01-17 11:01:19.13	334.04	15.96	-30.6	-34.1	12.7	6.25e-05	0	44	0	1149239296	21	5358
2026-01-17 11:01:20.13	334.10	15.85	-30.5	-33.7	12.9	4.95e-05	0	44	0	1150287872	21	5217
2026-01-17 11:01:21.13	334.16	15.75	-30.5	-33.7	13.0	3.35e-05	0	44	0	1152385024	21	5197
2026-01-17 11:01:22.13	334.22	15.64	-30.6	-34.0	12.8	7.62e-05	0	44	0	1154482176	21	5304
2026-01-17 11:01:23.14	334.28	15.54	-30.5	-33.8	12.9	4.80e-05	0	44	0	1156579328	21	5227
2026-01-17 11:01:24.14	334.33	15.43	-30.5	-33.6	13.0	3.20e-05	0	44	0	1158676480	21	5177
2026-01-17 11:01:25.15	334.39	15.33	-30.4	-33.4	13.1	2.44e-05	0	44	0	1159725056	21	5106
2026-01-17 11:01:26.15	334.45	15.22	-30.5	-33.7	12.9	2.36e-05	0	44	0	1161822208	21	5210
2026-01-17 11:01:27.15	334.51	15.12	-30.2	-33.0	13.4	2.28e-05	0	44	0	1163919360	21	4935
2026-01-17 11:01:28.15	334.57	15.02	-30.3	-33.2	13.3	1.60e-05	0	44	0	1166016512	21	5001
2026-01-17 11:01:29.15	334.62	14.92	-30.3	-33.0	13.3	1.44e-05	0	43	0	1168113664	21	4957
2026-01-17 11:01:30.15	334.68	14.81	-30.1	-32.5	13.7	1.22e-05	0	44	0	1169162240	21	4777
2026-01-17 11:01:31.15	334.74	14.71	-30.1	-32.7	13.6	9.10e-06	0	44	0	1171259392	21	4836
2026-01-17 11:01:32.15	334.79	14.61	-30.1	-32.5	13.6	6.80e-06	0	44	0	1173356544	21	4770
2026-01-17 11:01:33.15	334.85	14.51	-30.1	-32.6	13.5	6.80e-06	0	44	0	1175453696	21	4811
2026-01-17 11:01:34.15	334.90	14.41	-30.2	-33.0	13.3	1.75e-05	0	44	0	1176502272	21	4945
2026-01-17 11:01:35.16	334.96	14.31	-30.5	-33.6	12.9	3.28e-05	0	43	0	1178599424	21	5182
2026-01-17 11:01:36.16	335.01	14.21	-30.1	-32.7	13.5	2.36e-05	0	44	0	1180696576	21	4852
2026-01-17 11:01:37.16	335.07	14.11	-30.1	-32.6	13.5	1.14e-05	0	44	0	1182793728	21	4810
2026-01-17 11:01:38.16	335.12	14.01	-30.0	-32.4	13.7	6.10e-06	0	44	0	1184890880	21	4730
2026-01-17 11:01:39.16	335.17	13.91	-29.8	-31.8	14.0	0.00e+00	0	44	0	1185939456	21	4545
2026-01-17 11:01:40.17	335.23	13.82	-30.1	-32.6	13.5	6.80e-06	0	44	0	1188036608	21	4814
2026-01-17 11:01:41.17	335.28	13.72	-30.0	-32.5	13.6	3.80e-06	0	44	0	1190133760	21	4760
2026-01-17 11:01:42.18	335.33	13.62	-30.3	-33.1	13.2	1.67e-05	0	44	0	1192230912	21	4981
2026-01-17 11:01:43.18	335.38	13.52	-30.1	-32.7	13.5	9.10e-06	0	44	0	1194328064	21	4839
2026-01-17 11:01:44.19	335.44	13.43	-30.1	-32.7	13.4	1.06e-05	0	44	0	1195376640	21	4857
2026-01-17 11:01:45.19	335.49	13.33	-30.2	-32.8	13.4	9.10e-06	0	43	0	1197473792	21	4882
2026-01-17 11:01:46.20	335.54	13.23	-30.2	-33.0	13.2	2.21e-05	0	44	0	1199570944	21	4962
2026-01-17 11:01:47.20	335.59	13.14	-30.3	-33.3	13.0	2.74e-05	0	44	0	1201668096	21	5078
2026-01-17 11:01:48.20	335.64	13.04	-30.2	-32.9	13.3	1.60e-05	0	44	0	1203765248	21	4915
2026-01-17 11:01:49.19	335.69	12.95	-30.2	-33.1	13.2	1.52e-05	0	44	0	1204813824	21	4999
2026-01-17 11:01:50.19	335.74	12.86	-30.3	-33.4	13.0	3.73e-05	0	44	0	1206910976	21	5096
2026-01-17 11:01:51.19	335.79	12.76	-30.3	-33.3	13.1	2.21e-05	0	44	0	1209008128	21	5062
2026-01-17 11:01:52.20	335.84	12.67	-30.5	-33.9	12.6	6.71e-05	0	44	0	1211105280	21	5325
2026-01-17 11:01:53.20	335.89	12.57	-30.5	-33.9	12.7	8.85e-05	0	44	0	1213202432	21	5289
2026-01-17 11:01:54.21	335.94	12.48	-30.5	-34.0	12.6	7.85e-05	0	44	0	1214251008	21	5334
2026-01-17 11:01:55.21	335.99	12.39	-30.8	-34.7	12.1	2.00e-04	0	44	0	1216348160	21	5636
2026-01-17 11:01:56.22	336.04	12.30	-30.6	-34.2	12.4	2.03e-04	0	44	0	1218445312	21	5430
2026-01-17 11:01:57.21	336.09	12.20	-30.6	-34.1	12.4	1.27e-04	0	44	0	1220542464	21	5399
2026-01-17 11:01:58.22	336.13	12.11	-30.6	-34.3	12.3	1.94e-04	0	44	0	1221591040	21	5465
2026-01-17 11:01:59.22	336.18	12.02	-30.8	-34.7	12.0	2.32e-04	0	44	0	1223688192	21	5636
2026-01-17 11:02:00.23	336.23	11.93	-30.7	-34.4	12.2	2.62e-04	0	44	0	1225785344	21	5520
2026-01-17 11:02:01.23	336.28	11.84	-31.0	-35.2	11.7	4.29e-04	0	44	0	1227882496	21	5875
2026-01-17 11:02:02.24	336.32	11.75	-30.8	-34.7	12.0	4.49e-04	0	44	0	1229979648	21	5644
2026-01-17 11:02:03.25	336.37	11.66	-30.8	-34.7	12.0	2.81e-04	0	44	0	1231028224	21	5638
2026-01-17 11:02:04.24	336.42	11.57	-30.8	-34.8	12.0	3.64e-04	0	43	0	1233125376	21	5691
2026-01-17 11:02:05.25	336.46	11.48	-30.8	-34.7	12.0	2.75e-04	0	44	0	1235222528	21	5640
2026-01-17 11:02:06.26	336.51	11.39	-30.8	-34.7	12.0	3.92e-04	0	44	0	1237319680	21	5642
2026-01-17 11:02:07.26	336.55	11.30	-30.8	-34.7	12.0	2.94e-04	0	44	0	1239416832	21	5669
2026-01-17 11:02:08.26	336.60	11.21	-30.9	-34.6	11.7	7.62e-04	0	44	0	1240465408	22	5497
2026-01-17 11:02:09.27	336.64	11.12	-30.9	-34.5	11.8	3.87e-04	0	44	0	1242562560	22	5461
2026-01-17 11:02:10.27	336.69	11.03	-30.6	-33.6	12.4	3.52e-04	0	44	0	1244659712	22	5103
2026-01-17 11:02:11.27	336.73	10.95	-30.6	-33.6	12.4	1.75e-04	0	44	0	1246756864	22	5097
2026-01-17 11:02:12.28	336.78	10.86	-30.5	-33.4	12.6	8.08e-05	0	44	0	1248854016	22	5017
2026-01-17 11:02:13.28	336.82	10.77	-30.5	-33.3	12.6	1.60e-04	0	44	0	1249902592	22	4968
2026-01-17 11:02:14.28	336.87	10.69	-30.5	-33.3	12.6	8.62e-05	0	44	0	1251999744	22	4977
2026-01-17 11:02:15.29	336.91	10.60	-30.5	-33.2	12.6	7.01e-05	0	44	0	1254096896	22	4964
2026-01-17 11:02:16.28	336.95	10.51	-30.6	-33.6	12.4	8.77e-05	0	44	0	1256194048	22	5116
2026-01-17 11:02:17.29	337.00	10.43	-30.4	-33.2	12.6	1.13e-04	0	43	0	1258291200	22	4967
2026-01-17 11:02:18.30	337.04	10.34	-30.5	-33.5	12.4	1.23e-04	0	44	0	1259339776	22	5065
2026-01-17 11:02:19.29	337.08	10.26	-30.7	-33.9	12.1	2.07e-04	0	44	0	1261436928	22	5216
2026-01-17 11:02:20.28	337.12	10.17	-30.4	-33.1	12.7	2.00e-04	0	44	0	1263534080	22	4924
2026-01-17 11:02:21.29	337.17	10.09	-30.6	-33.8	12.2	1.95e-04	0	44	0	1265631232	22	5184
2026-01-17 11:02:22.29	337.21	10.00	-30.7	-34.0	12.0	3.75e-04	0	44	0	1267728384	22	5272
2026-01-17 11:02:23.29	337.25	9.92	-30.4	-33.3	12.5	1.36e-04	0	44	0	1268776960	22	4987
2026-01-17 11:02:24.29	337.29	9.84	-30.5	-33.3	12.5	1.43e-04	0	44	0	1270874112	22	5008
2026-01-17 11:02:25.29	337.33	9.75	-30.6	-33.8	12.2	2.28e-04	0	44	0	1272971264	22	5168
2026-01-17 11:02:26.29	337.37	9.67	-30.5	-33.3	12.5	1.58e-04	0	44	0	1275068416	22	4992
2026-01-17 11:02:27.28	337.41	9.59	-30.4	-33.1	12.6	1.07e-04	0	44	0	1277165568	22	4935
2026-01-17 11:02:28.28	337.46	9.50	-30.4	-33.0	12.7	1.14e-04	0	44	0	1278214144	22	4903
