passes_logs/2026/01/17/R2M6_AANII_01/R2M6_AANII_01__20260117_085111_SUOMI_NPP_rec.log

#Pass ID: 20260117_085111_SUOMI NPP
#Satellite: SUOMI NPP
#Configuration: NPP
#almurnet v.1.7.20240730
#Start time: 2026-01-17 08:51:10

#Version: 2.2.20231116
#Station: R2M6_AANII_01
#Location: 30.233357 lon 59.946436 lat
#TLE: 1 37849U 11061A   26016.23176763  .00000061  00000+0  49926-4 0  9990
#TLE: 2 37849  98.7812 318.2698 0002434  61.5135 298.6286 14.19525545736883

#Time	Az	El	Level	Level2	SNR	BER	BlckErr	Temp	State	Recorded	gain1	gain2
2026-01-17 08:51:10.63	112.61	6.94	-32.3	-39.6	4.0	1.46e+00	0	40	0	0	26	8398
2026-01-17 08:51:11.63	112.54	7.01	-32.1	-38.9	4.2	1.40e+00	0	40	104	0	25	7898
2026-01-17 08:51:12.64	112.46	7.08	-32.1	-38.3	5.4	4.46e-01	0	40	0	0	25	7366
2026-01-17 08:51:13.64	112.39	7.15	-32.0	-37.6	5.9	3.81e-01	0	41	0	1048576	25	6893
2026-01-17 08:51:14.64	112.31	7.22	-32.0	-37.7	5.8	3.65e-01	0	41	0	3145728	25	6935
2026-01-17 08:51:15.64	112.23	7.29	-32.0	-37.4	6.1	3.28e-01	0	41	0	5242880	25	6730
2026-01-17 08:51:16.64	112.16	7.36	-32.2	-38.6	5.3	3.82e-01	0	41	0	7340032	25	7528
2026-01-17 08:51:17.65	112.08	7.43	-32.0	-37.2	6.2	3.53e-01	0	41	0	9437184	25	6580
2026-01-17 08:51:18.65	112.00	7.50	-32.0	-37.1	6.3	2.94e-01	0	41	0	10485760	25	6520
2026-01-17 08:51:19.65	111.93	7.57	-31.8	-36.7	6.9	1.62e-01	0	41	0	12582912	24	6326
2026-01-17 08:51:20.65	111.85	7.64	-31.4	-34.6	8.6	4.33e-02	0	41	0	14680064	24	5234
2026-01-17 08:51:21.65	111.77	7.71	-31.1	-34.2	9.4	2.37e-02	0	41	0	16777216	23	5108
2026-01-17 08:51:22.66	111.69	7.78	-30.9	-33.5	9.9	1.08e-02	0	41	0	17825792	23	4814
2026-01-17 08:51:23.66	111.61	7.85	-30.9	-33.8	10.0	6.54e-03	0	41	0	19922944	22	5049
2026-01-17 08:51:24.66	111.53	7.92	-30.6	-32.9	10.8	2.22e-03	0	41	0	22020096	22	4695
2026-01-17 08:51:25.66	111.45	7.99	-30.7	-33.2	10.5	5.07e-03	0	41	0	24117248	22	4793
2026-01-17 08:51:26.65	111.37	8.06	-30.7	-33.2	10.5	3.78e-03	0	41	0	26214400	22	4811
2026-01-17 08:51:27.65	111.29	8.13	-31.0	-34.1	9.9	6.56e-03	0	41	0	27262976	22	5162
2026-01-17 08:51:28.65	111.21	8.20	-31.1	-34.4	9.7	1.19e-02	0	41	0	29360128	22	5278
2026-01-17 08:51:29.66	111.13	8.27	-31.0	-34.1	9.9	1.22e-02	0	41	0	31457280	22	5163
2026-01-17 08:51:30.66	111.05	8.35	-31.0	-34.3	9.8	8.49e-03	0	41	0	33554432	22	5224
2026-01-17 08:51:31.65	110.96	8.42	-30.9	-33.7	10.2	1.10e-02	0	41	0	35651584	22	4992
2026-01-17 08:51:32.65	110.88	8.49	-30.9	-33.7	10.3	4.62e-03	0	41	0	36700160	22	4976
2026-01-17 08:51:33.66	110.80	8.56	-30.8	-33.2	10.6	4.78e-03	0	41	0	38797312	22	4786
2026-01-17 08:51:34.66	110.71	8.63	-30.5	-32.6	11.2	1.70e-03	0	41	0	40894464	22	4534
2026-01-17 08:51:35.65	110.63	8.70	-30.6	-32.7	11.1	1.91e-03	0	41	0	42991616	22	4578
2026-01-17 08:51:36.65	110.55	8.78	-30.6	-32.6	11.1	2.48e-03	0	41	0	45088768	22	4543
2026-01-17 08:51:37.65	110.46	8.85	-30.7	-32.9	10.9	1.59e-03	0	41	0	46137344	22	4656
2026-01-17 08:51:38.65	110.38	8.92	-30.7	-33.1	10.8	7.38e-03	0	41	0	48234496	22	4736
2026-01-17 08:51:39.65	110.29	8.99	-30.8	-33.5	10.5	1.38e-03	0	41	0	50331648	22	4904
2026-01-17 08:51:40.65	110.20	9.07	-30.8	-33.5	10.5	4.07e-03	0	41	0	52428800	22	4881
2026-01-17 08:51:41.66	110.12	9.14	-30.8	-33.2	10.7	2.82e-03	0	41	0	53477376	22	4751
2026-01-17 08:51:42.66	110.03	9.21	-30.7	-32.8	11.0	2.29e-03	0	41	0	55574528	22	4625
2026-01-17 08:51:43.66	109.94	9.29	-30.8	-33.2	10.8	9.89e-04	0	41	0	57671680	22	4753
2026-01-17 08:51:44.67	109.85	9.36	-30.6	-32.5	11.2	1.55e-03	0	41	0	59768832	22	4502
2026-01-17 08:51:45.67	109.77	9.44	-30.6	-32.5	11.3	1.89e-03	0	41	0	61865984	22	4519
2026-01-17 08:51:46.67	109.68	9.51	-30.4	-32.6	11.6	6.03e-04	0	41	0	62914560	21	4616
2026-01-17 08:51:47.67	109.59	9.58	-30.5	-32.7	11.5	1.67e-03	0	41	0	65011712	21	4660
2026-01-17 08:51:48.67	109.50	9.66	-30.7	-33.5	10.9	1.28e-03	0	42	0	67108864	21	4948
2026-01-17 08:51:49.67	109.41	9.73	-30.8	-33.8	10.7	2.83e-03	0	42	0	69206016	21	5079
2026-01-17 08:51:50.68	109.32	9.81	-30.9	-34.0	10.6	3.56e-03	0	42	0	71303168	21	5147
2026-01-17 08:51:51.68	109.22	9.88	-30.8	-33.6	11.0	1.62e-03	0	42	0	72351744	21	5002
2026-01-17 08:51:52.69	109.13	9.96	-30.8	-33.0	11.0	3.88e-03	0	42	0	74448896	22	4674
2026-01-17 08:51:53.69	109.04	10.03	-30.7	-32.8	11.2	1.88e-03	0	42	0	76546048	22	4603
2026-01-17 08:51:54.69	108.95	10.11	-30.7	-32.9	11.1	1.32e-03	0	42	0	78643200	22	4625
2026-01-17 08:51:55.69	108.85	10.18	-30.5	-32.1	11.7	6.97e-04	0	42	0	80740352	22	4354
2026-01-17 08:51:56.70	108.76	10.26	-30.8	-33.1	11.0	9.61e-04	0	42	0	81788928	22	4695
2026-01-17 08:51:57.71	108.66	10.34	-30.5	-32.2	11.6	1.61e-03	0	42	0	83886080	22	4396
2026-01-17 08:51:58.71	108.57	10.41	-30.6	-32.6	11.4	7.48e-04	0	42	0	85983232	22	4511
2026-01-17 08:51:59.71	108.47	10.49	-30.8	-33.1	11.1	1.54e-03	0	42	0	88080384	22	4692
2026-01-17 08:52:00.71	108.38	10.56	-30.8	-33.3	10.9	2.05e-03	0	42	0	90177536	22	4755
2026-01-17 08:52:01.71	108.28	10.64	-30.8	-33.2	10.9	2.25e-03	0	42	0	91226112	22	4728
2026-01-17 08:52:02.72	108.18	10.72	-30.8	-33.0	11.1	1.15e-03	0	42	0	93323264	22	4659
2026-01-17 08:52:03.72	108.09	10.79	-30.7	-32.8	11.2	1.22e-03	0	42	0	95420416	22	4583
2026-01-17 08:52:04.72	107.99	10.87	-30.8	-33.0	11.1	1.23e-03	0	42	0	97517568	22	4658
2026-01-17 08:52:05.73	107.89	10.95	-30.7	-32.7	11.4	1.73e-03	0	42	0	98566144	22	4532
2026-01-17 08:52:06.73	107.79	11.02	-30.6	-32.5	11.5	8.96e-04	0	42	0	100663296	22	4494
2026-01-17 08:52:07.74	107.69	11.10	-30.7	-32.6	11.4	1.43e-03	0	42	0	102760448	22	4515
2026-01-17 08:52:08.74	107.59	11.18	-30.8	-33.0	11.2	1.78e-03	0	42	0	104857600	22	4641
2026-01-17 08:52:09.74	107.49	11.26	-30.7	-32.8	11.3	1.13e-03	0	42	0	106954752	22	4567
2026-01-17 08:52:10.74	107.39	11.33	-30.8	-33.0	11.1	8.08e-04	0	42	0	108003328	22	4670
2026-01-17 08:52:11.74	107.29	11.41	-30.6	-32.4	11.5	8.48e-04	0	42	0	110100480	22	4453
2026-01-17 08:52:12.74	107.19	11.49	-30.6	-32.5	11.6	9.69e-04	0	42	0	112197632	22	4458
2026-01-17 08:52:13.74	107.08	11.57	-30.6	-32.4	11.6	7.42e-04	0	42	0	114294784	22	4451
2026-01-17 08:52:14.74	106.98	11.65	-30.6	-32.6	11.4	7.50e-04	0	42	0	116391936	22	4519
2026-01-17 08:52:15.74	106.88	11.72	-30.6	-32.5	11.5	8.51e-04	0	42	0	117440512	22	4484
2026-01-17 08:52:16.74	106.77	11.80	-30.7	-32.8	11.3	1.08e-03	0	42	0	119537664	22	4596
2026-01-17 08:52:17.75	106.67	11.88	-30.7	-32.9	11.3	1.02e-03	0	42	0	121634816	22	4608
2026-01-17 08:52:18.75	106.56	11.96	-30.7	-32.8	11.3	8.08e-04	0	42	0	123731968	22	4577
2026-01-17 08:52:19.76	106.45	12.04	-30.6	-32.6	11.5	7.69e-04	0	42	0	125829120	22	4506
2026-01-17 08:52:20.75	106.35	12.12	-30.8	-33.1	11.1	9.02e-04	0	42	0	126877696	22	4689
2026-01-17 08:52:21.76	106.24	12.20	-30.7	-32.9	11.2	1.87e-03	0	42	0	128974848	22	4614
2026-01-17 08:52:22.76	106.13	12.28	-30.7	-32.8	11.3	1.20e-03	0	42	0	131072000	22	4565
2026-01-17 08:52:23.76	106.02	12.36	-30.6	-32.5	11.6	9.90e-04	0	42	0	133169152	22	4461
2026-01-17 08:52:24.77	105.91	12.44	-30.7	-32.7	11.4	1.68e-03	0	42	0	135266304	22	4524
2026-01-17 08:52:25.77	105.80	12.52	-30.6	-32.5	11.5	8.61e-04	0	42	0	136314880	22	4464
2026-01-17 08:52:26.77	105.69	12.60	-30.7	-32.8	11.3	6.15e-04	0	42	0	138412032	22	4586
2026-01-17 08:52:27.78	105.58	12.68	-30.5	-32.2	11.8	6.48e-04	0	42	0	140509184	22	4354
2026-01-17 08:52:28.78	105.47	12.76	-30.5	-32.3	11.8	4.96e-04	0	42	0	142606336	22	4400
2026-01-17 08:52:29.78	105.36	12.84	-30.6	-32.3	11.7	5.87e-04	0	42	0	143654912	22	4413
2026-01-17 08:52:30.78	105.24	12.92	-30.6	-32.6	11.5	4.61e-04	0	42	0	145752064	22	4519
2026-01-17 08:52:31.79	105.13	13.00	-30.3	-31.7	12.1	9.26e-04	0	42	0	147849216	22	4205
2026-01-17 08:52:32.79	105.02	13.08	-30.5	-32.1	11.8	5.08e-04	0	42	0	149946368	22	4340
2026-01-17 08:52:33.79	104.90	13.17	-30.4	-31.7	12.2	2.65e-04	0	42	0	152043520	22	4189
2026-01-17 08:52:34.80	104.78	13.25	-30.3	-32.1	12.2	1.86e-04	0	42	0	153092096	21	4420
2026-01-17 08:52:35.80	104.67	13.33	-30.2	-31.6	12.5	1.63e-04	0	42	0	155189248	21	4251
2026-01-17 08:52:36.80	104.55	13.41	-30.0	-31.2	12.8	5.72e-05	0	42	0	157286400	21	4139
2026-01-17 08:52:37.81	104.43	13.49	-30.1	-31.3	12.7	8.69e-05	0	42	0	159383552	21	4174
2026-01-17 08:52:38.81	104.31	13.58	-30.2	-31.9	12.4	1.30e-04	0	42	0	161480704	21	4344
2026-01-17 08:52:39.81	104.20	13.66	-30.4	-32.3	12.1	2.51e-04	0	42	0	162529280	21	4475
2026-01-17 08:52:40.81	104.08	13.74	-30.5	-32.7	11.8	4.82e-04	0	42	0	164626432	21	4638
2026-01-17 08:52:41.81	103.96	13.82	-30.6	-32.9	11.6	5.52e-04	0	42	0	166723584	21	4708
2026-01-17 08:52:42.81	103.84	13.91	-30.5	-32.7	11.7	3.71e-04	0	42	0	168820736	21	4640
2026-01-17 08:52:43.82	103.71	13.99	-30.6	-33.0	11.6	5.55e-04	0	42	0	170917888	21	4722
2026-01-17 08:52:44.81	103.59	14.07	-30.5	-32.6	11.9	7.36e-04	0	42	0	171966464	21	4607
2026-01-17 08:52:45.82	103.47	14.15	-30.4	-32.3	12.1	3.17e-04	0	42	0	174063616	21	4480
2026-01-17 08:52:46.82	103.35	14.24	-30.5	-32.6	11.9	3.15e-04	0	42	0	176160768	21	4580
2026-01-17 08:52:47.83	103.22	14.32	-30.6	-32.9	11.7	5.66e-04	0	42	0	178257920	21	4715
2026-01-17 08:52:48.83	103.10	14.41	-30.8	-33.4	11.3	9.72e-04	0	42	0	180355072	21	4896
2026-01-17 08:52:49.83	102.97	14.49	-30.9	-33.9	11.0	1.45e-03	0	43	0	181403648	21	5075
2026-01-17 08:52:50.83	102.84	14.57	-30.7	-33.3	11.4	8.03e-04	0	42	0	183500800	21	4836
2026-01-17 08:52:51.84	102.71	14.66	-30.7	-33.1	11.5	8.86e-04	0	43	0	185597952	21	4763
2026-01-17 08:52:52.84	102.59	14.74	-30.6	-32.9	11.7	6.83e-04	0	42	0	187695104	21	4687
2026-01-17 08:52:53.84	102.46	14.83	-30.5	-32.7	11.9	4.73e-04	0	42	0	189792256	21	4612
2026-01-17 08:52:54.84	102.33	14.91	-30.7	-33.4	11.4	6.32e-04	0	42	0	190840832	21	4865
2026-01-17 08:52:55.85	102.20	15.00	-30.5	-32.7	11.9	4.57e-04	0	42	0	192937984	21	4614
2026-01-17 08:52:56.85	102.07	15.08	-30.7	-33.2	11.5	7.04e-04	0	42	0	195035136	21	4813
2026-01-17 08:52:57.85	101.94	15.17	-30.6	-33.0	11.7	7.99e-04	0	42	0	197132288	21	4727
2026-01-17 08:52:58.85	101.80	15.25	-30.3	-32.0	12.4	2.23e-04	0	42	0	198180864	21	4359
2026-01-17 08:52:59.85	101.67	15.34	-30.3	-32.0	12.4	1.52e-04	0	43	0	200278016	21	4355
2026-01-17 08:53:00.85	101.54	15.42	-30.3	-32.0	12.4	1.20e-04	0	43	0	202375168	21	4360
2026-01-17 08:53:01.85	101.40	15.51	-30.4	-32.2	12.2	1.49e-04	0	42	0	204472320	21	4449
2026-01-17 08:53:02.86	101.26	15.59	-30.3	-32.1	12.3	3.87e-04	0	43	0	206569472	21	4389
2026-01-17 08:53:03.86	101.13	15.68	-30.3	-31.8	12.6	3.38e-04	0	42	0	207618048	21	4302
2026-01-17 08:53:04.86	100.99	15.76	-30.2	-31.6	12.7	1.94e-04	0	42	0	209715200	21	4222
2026-01-17 08:53:05.87	100.85	15.85	-30.1	-31.4	12.8	3.01e-04	0	42	0	211812352	21	4177
2026-01-17 08:53:06.87	100.71	15.94	-30.2	-31.5	12.7	1.07e-03	0	42	0	213909504	21	4207
2026-01-17 08:53:07.87	100.57	16.02	-30.1	-31.5	12.6	1.70e-03	0	43	0	216006656	21	4226
2026-01-17 08:53:08.87	100.43	16.11	-30.4	-32.2	12.1	4.09e-03	0	43	0	217055232	21	4451
2026-01-17 08:53:09.88	100.29	16.20	-30.4	-32.3	12.0	6.39e-03	0	43	0	219152384	21	4507
2026-01-17 08:53:10.88	100.15	16.28	-30.4	-32.2	12.2	6.10e-03	0	42	0	221249536	21	4432
2026-01-17 08:53:11.88	100.01	16.37	-30.2	-31.6	12.7	2.20e-03	0	42	0	223346688	21	4244
2026-01-17 08:53:12.89	99.86	16.46	-30.4	-32.1	12.4	2.62e-04	0	42	0	225443840	21	4404
2026-01-17 08:53:13.89	99.72	16.54	-30.3	-31.8	12.6	9.76e-05	0	43	0	226492416	21	4293
2026-01-17 08:53:14.89	99.57	16.63	-30.2	-31.7	12.7	4.80e-05	0	43	0	228589568	21	4245
2026-01-17 08:53:15.89	99.43	16.72	-30.3	-31.9	12.6	8.46e-05	0	43	0	230686720	21	4318
2026-01-17 08:53:16.89	99.28	16.81	-30.4	-32.1	12.3	5.93e-04	0	43	0	232783872	21	4402
2026-01-17 08:53:17.89	99.13	16.89	-30.3	-31.7	12.6	3.39e-04	0	42	0	234881024	21	4272
2026-01-17 08:53:18.88	98.98	16.98	-30.1	-31.3	13.0	1.94e-04	0	42	0	235929600	21	4124
2026-01-17 08:53:19.88	98.83	17.07	-29.9	-31.2	13.4	1.80e-04	0	43	0	238026752	20	4179
2026-01-17 08:53:20.88	98.68	17.16	-29.8	-31.1	13.4	7.40e-05	0	42	0	240123904	20	4163
2026-01-17 08:53:21.88	98.53	17.24	-29.8	-31.1	13.4	1.72e-04	0	43	0	242221056	20	4149
2026-01-17 08:53:22.88	98.38	17.33	-30.0	-31.4	13.2	5.95e-05	0	42	0	243269632	20	4265
2026-01-17 08:53:23.88	98.23	17.42	-29.8	-31.2	13.3	3.43e-05	0	42	0	245366784	20	4217
2026-01-17 08:53:24.88	98.07	17.51	-29.8	-31.2	13.2	2.97e-05	0	43	0	247463936	20	4211
2026-01-17 08:53:25.89	97.92	17.60	-30.0	-31.6	13.1	2.51e-05	0	43	0	249561088	20	4349
2026-01-17 08:53:26.90	97.76	17.69	-30.0	-31.5	13.2	2.74e-05	0	42	0	251658240	20	4300
2026-01-17 08:53:27.89	97.60	17.77	-30.0	-31.6	13.1	1.83e-05	0	43	0	252706816	20	4352
2026-01-17 08:53:28.89	97.45	17.86	-29.9	-31.5	13.2	1.83e-05	0	43	0	254803968	20	4306
2026-01-17 08:53:29.90	97.29	17.95	-30.0	-31.6	13.1	3.58e-05	0	42	0	256901120	20	4340
2026-01-17 08:53:30.90	97.13	18.04	-30.1	-31.9	12.9	3.50e-05	0	43	0	258998272	20	4440
2026-01-17 08:53:31.90	96.96	18.13	-30.0	-31.8	13.0	2.89e-05	0	43	0	261095424	20	4416
2026-01-17 08:53:32.90	96.80	18.22	-30.1	-32.0	12.7	4.80e-05	0	43	0	262144000	20	4481
2026-01-17 08:53:33.90	96.64	18.31	-30.2	-32.3	12.6	1.22e-04	0	43	0	264241152	20	4568
2026-01-17 08:53:34.91	96.48	18.40	-30.1	-31.9	12.9	7.70e-05	0	43	0	266338304	20	4437
2026-01-17 08:53:35.90	96.31	18.49	-30.2	-32.1	12.8	5.49e-05	0	43	0	268435456	20	4515
2026-01-17 08:53:36.91	96.15	18.58	-30.2	-32.3	12.6	6.63e-05	0	43	0	270532608	20	4571
2026-01-17 08:53:37.91	95.98	18.67	-30.2	-32.2	12.7	8.23e-05	0	43	0	271581184	20	4528
2026-01-17 08:53:38.91	95.81	18.76	-30.2	-32.2	12.7	1.01e-04	0	43	0	273678336	20	4551
2026-01-17 08:53:39.91	95.64	18.85	-30.4	-32.7	12.4	6.86e-05	0	43	0	275775488	20	4719
2026-01-17 08:53:40.92	95.47	18.94	-30.4	-32.3	12.2	1.57e-04	0	43	0	277872640	21	4483
2026-01-17 08:53:41.92	95.30	19.03	-30.5	-32.6	12.2	2.82e-04	0	43	0	278921216	21	4564
2026-01-17 08:53:42.93	95.13	19.12	-30.8	-33.4	11.6	3.72e-04	0	43	0	281018368	21	4875
2026-01-17 08:53:43.93	94.96	19.21	-30.7	-33.1	11.8	4.33e-04	0	43	0	283115520	21	4768
2026-01-17 08:53:44.92	94.78	19.29	-30.4	-32.4	12.2	1.30e-04	0	43	0	285212672	21	4526
2026-01-17 08:53:45.93	94.61	19.39	-30.4	-32.3	12.4	1.33e-04	0	43	0	287309824	21	4471
2026-01-17 08:53:46.94	94.43	19.48	-30.4	-32.4	12.3	2.12e-04	0	43	0	289406976	21	4512
2026-01-17 08:53:47.94	94.25	19.57	-30.5	-32.7	12.1	1.91e-04	0	43	0	290455552	21	4602
2026-01-17 08:53:48.94	94.08	19.66	-30.6	-33.0	11.9	2.49e-04	0	43	0	292552704	21	4712
2026-01-17 08:53:49.94	93.90	19.75	-30.7	-33.1	11.9	5.91e-04	0	43	0	294649856	21	4733
2026-01-17 08:53:50.94	93.72	19.84	-30.6	-32.9	11.9	3.51e-04	0	43	0	296747008	21	4685
2026-01-17 08:53:51.95	93.53	19.93	-30.6	-32.9	12.0	1.54e-04	0	43	0	297795584	21	4695
2026-01-17 08:53:52.95	93.35	20.02	-30.5	-32.4	12.3	1.77e-04	0	43	0	299892736	21	4523
2026-01-17 08:53:53.95	93.17	20.11	-30.4	-32.2	12.5	9.30e-05	0	43	0	301989888	21	4433
2026-01-17 08:53:54.95	92.98	20.20	-30.4	-32.3	12.4	1.32e-04	0	43	0	304087040	21	4460
2026-01-17 08:53:55.95	92.80	20.29	-30.6	-32.9	11.9	2.61e-04	0	43	0	306184192	21	4694
2026-01-17 08:53:56.94	92.61	20.38	-30.4	-32.1	12.5	3.13e-04	0	43	0	307232768	21	4415
2026-01-17 08:53:57.94	92.43	20.47	-30.5	-32.7	12.1	2.39e-04	0	43	0	309329920	21	4601
2026-01-17 08:53:58.95	92.24	20.56	-30.4	-32.4	12.2	2.48e-04	0	43	0	311427072	21	4531
2026-01-17 08:53:59.95	92.05	20.65	-30.5	-32.5	12.3	1.30e-04	0	43	0	313524224	21	4554
2026-01-17 08:54:00.95	91.86	20.74	-30.5	-32.6	12.2	2.05e-04	0	43	0	315621376	21	4580
2026-01-17 08:54:01.95	91.66	20.83	-30.5	-32.5	12.3	2.66e-04	0	43	0	316669952	21	4543
2026-01-17 08:54:02.95	91.47	20.92	-30.7	-33.3	11.8	2.51e-04	0	43	0	318767104	21	4832
2026-01-17 08:54:03.95	91.28	21.01	-30.9	-33.7	11.4	6.10e-04	0	43	0	320864256	21	5001
2026-01-17 08:54:04.94	91.08	21.10	-30.7	-33.2	11.9	5.93e-04	0	43	0	322961408	21	4773
2026-01-17 08:54:05.95	90.88	21.19	-30.5	-32.5	12.3	2.78e-04	0	43	0	324009984	21	4531
2026-01-17 08:54:06.95	90.69	21.28	-30.3	-31.9	12.8	1.53e-04	0	43	0	326107136	21	4313
2026-01-17 08:54:07.95	90.49	21.37	-30.3	-32.0	12.7	8.62e-05	0	43	0	328204288	21	4354
2026-01-17 08:54:08.95	90.29	21.46	-30.1	-31.2	13.2	3.89e-05	0	43	0	330301440	21	4099
2026-01-17 08:54:09.95	90.09	21.55	-30.2	-31.5	13.0	2.05e-05	0	43	0	332398592	21	4208
2026-01-17 08:54:10.96	89.88	21.64	-30.0	-31.0	13.4	2.74e-05	0	43	0	333447168	21	4043
2026-01-17 08:54:11.96	89.68	21.73	-30.0	-31.1	13.3	7.60e-06	0	43	0	335544320	21	4066
2026-01-17 08:54:12.96	89.47	21.82	-30.2	-31.5	13.0	8.30e-06	0	43	0	337641472	21	4204
2026-01-17 08:54:13.97	89.26	21.91	-30.1	-31.2	13.2	1.14e-05	0	43	0	339738624	21	4096
2026-01-17 08:54:14.97	89.06	22.00	-30.1	-31.2	13.3	2.36e-05	0	43	0	341835776	21	4101
2026-01-17 08:54:15.97	88.85	22.09	-30.1	-31.4	13.1	4.11e-05	0	43	0	342884352	21	4170
2026-01-17 08:54:16.97	88.64	22.17	-30.1	-31.4	13.2	3.35e-05	0	43	0	344981504	21	4147
2026-01-17 08:54:17.98	88.43	22.26	-30.1	-31.3	13.2	2.36e-05	0	43	0	347078656	21	4117
2026-01-17 08:54:18.98	88.21	22.35	-30.2	-31.5	13.1	2.13e-05	0	43	0	349175808	21	4173
2026-01-17 08:54:19.99	88.00	22.44	-30.1	-31.1	13.3	3.89e-05	0	43	0	351272960	21	4083
2026-01-17 08:54:20.98	87.79	22.53	-30.1	-31.3	13.2	3.05e-05	0	43	0	352321536	21	4145
2026-01-17 08:54:21.99	87.57	22.62	-30.1	-31.3	13.2	1.14e-05	0	43	0	354418688	21	4143
2026-01-17 08:54:22.99	87.35	22.71	-29.8	-30.6	13.6	5.30e-06	0	43	0	356515840	21	3920
2026-01-17 08:54:23.99	87.13	22.80	-29.5	-30.1	14.3	3.00e-06	0	43	0	358612992	20	3860
2026-01-17 08:54:24.99	86.91	22.89	-29.4	-29.8	14.4	0.00e+00	0	43	0	360710144	20	3796
2026-01-17 08:54:26.00	86.69	22.98	-29.4	-29.8	14.5	0.00e+00	0	43	0	361758720	20	3792
2026-01-17 08:54:27.00	86.47	23.06	-29.4	-29.9	14.4	7.00e-07	0	43	0	363855872	20	3826
2026-01-17 08:54:28.00	86.25	23.15	-29.2	-29.8	14.8	7.00e-07	0	43	0	365953024	19	3872
2026-01-17 08:54:29.00	86.02	23.24	-28.9	-29.2	15.1	7.00e-07	0	43	0	368050176	19	3724
2026-01-17 08:54:30.01	85.79	23.33	-29.2	-29.9	14.8	0.00e+00	0	43	0	369098752	19	3893
2026-01-17 08:54:31.01	85.57	23.41	-29.3	-30.2	14.6	7.00e-07	0	43	0	371195904	19	4002
2026-01-17 08:54:32.02	85.33	23.50	-29.5	-30.8	14.2	3.00e-06	0	43	0	373293056	19	4165
2026-01-17 08:54:33.02	85.11	23.59	-29.6	-31.0	14.1	3.00e-06	0	43	0	375390208	19	4231
2026-01-17 08:54:34.03	84.87	23.68	-29.7	-31.3	14.0	7.00e-07	0	43	0	377487360	19	4297
2026-01-17 08:54:35.03	84.64	23.76	-29.9	-31.8	13.6	5.30e-06	0	43	0	378535936	19	4461
2026-01-17 08:54:36.04	84.40	23.85	-29.7	-31.2	13.9	4.50e-06	0	43	0	380633088	19	4284
2026-01-17 08:54:37.04	84.17	23.93	-29.7	-31.3	13.9	2.20e-06	0	43	0	382730240	19	4300
2026-01-17 08:54:38.04	83.93	24.02	-29.7	-31.1	14.1	1.50e-06	0	43	0	384827392	19	4249
2026-01-17 08:54:39.04	83.69	24.11	-29.6	-30.8	14.2	1.50e-06	0	43	0	386924544	19	4164
2026-01-17 08:54:40.04	83.46	24.19	-29.4	-30.5	14.4	1.50e-06	0	43	0	387973120	19	4058
2026-01-17 08:54:41.04	83.22	24.28	-29.6	-30.9	14.2	2.20e-06	0	43	0	390070272	19	4184
2026-01-17 08:54:42.04	82.97	24.36	-29.8	-31.5	13.9	7.00e-07	0	43	0	392167424	19	4361
2026-01-17 08:54:43.04	82.73	24.44	-29.6	-31.0	14.2	2.20e-06	0	43	0	394264576	19	4197
2026-01-17 08:54:44.05	82.49	24.53	-29.6	-30.9	14.2	4.50e-06	0	43	0	396361728	19	4176
2026-01-17 08:54:45.05	82.24	24.61	-29.5	-30.5	14.5	7.00e-07	0	43	0	397410304	19	4052
2026-01-17 08:54:46.05	81.99	24.70	-29.7	-31.0	14.1	7.00e-07	0	43	0	399507456	19	4223
2026-01-17 08:54:47.05	81.75	24.78	-29.6	-30.8	14.3	1.50e-06	0	43	0	401604608	19	4155
2026-01-17 08:54:48.06	81.49	24.86	-29.7	-31.2	14.0	2.20e-06	0	43	0	403701760	19	4280
2026-01-17 08:54:49.06	81.24	24.95	-29.6	-31.0	14.1	3.00e-06	0	43	0	405798912	19	4214
2026-01-17 08:54:50.06	80.99	25.03	-29.6	-30.9	14.2	0.00e+00	0	43	0	406847488	19	4193
2026-01-17 08:54:51.06	80.74	25.11	-29.8	-31.3	14.0	1.50e-06	0	43	0	408944640	19	4292
2026-01-17 08:54:52.07	80.48	25.19	-29.7	-31.0	14.2	1.50e-06	0	43	0	411041792	19	4224
2026-01-17 08:54:53.08	80.22	25.27	-29.9	-31.7	13.7	3.80e-06	0	43	0	413138944	19	4419
2026-01-17 08:54:54.08	79.97	25.35	-29.6	-30.8	14.3	1.50e-06	0	43	0	414187520	19	4145
2026-01-17 08:54:55.09	79.70	25.43	-29.7	-31.2	14.0	1.50e-06	0	43	0	416284672	19	4256
2026-01-17 08:54:56.08	79.45	25.51	-29.4	-30.4	14.6	1.50e-06	0	43	0	418381824	19	4020
2026-01-17 08:54:57.08	79.19	25.59	-29.7	-31.1	14.2	7.00e-07	0	43	0	420478976	19	4213
2026-01-17 08:54:58.08	78.92	25.67	-29.9	-31.3	13.6	0.00e+00	0	43	0	422576128	20	4203
2026-01-17 08:54:59.08	78.66	25.75	-29.7	-30.7	13.9	3.00e-06	0	43	0	423624704	20	4035
2026-01-17 08:55:00.08	78.39	25.83	-29.7	-30.6	14.1	7.00e-07	0	43	0	425721856	20	3990
2026-01-17 08:55:01.09	78.13	25.91	-29.6	-30.4	14.2	2.20e-06	0	43	0	427819008	20	3933
2026-01-17 08:55:02.08	77.86	25.98	-30.0	-31.6	13.5	1.50e-06	0	43	0	429916160	20	4284
2026-01-17 08:55:03.09	77.59	26.06	-30.4	-32.5	12.9	4.11e-05	0	43	0	432013312	20	4575
2026-01-17 08:55:04.09	77.32	26.14	-30.1	-31.7	13.4	2.13e-05	0	43	0	433061888	20	4327
2026-01-17 08:55:05.10	77.04	26.21	-29.8	-30.9	13.9	1.14e-05	0	43	0	435159040	20	4088
2026-01-17 08:55:06.10	76.77	26.29	-29.7	-30.7	14.0	1.50e-06	0	43	0	437256192	20	4031
2026-01-17 08:55:07.10	76.50	26.36	-29.8	-30.8	14.0	7.00e-07	0	43	0	439353344	20	4060
2026-01-17 08:55:08.10	76.22	26.44	-29.6	-30.4	14.2	0.00e+00	0	42	0	441450496	20	3932
2026-01-17 08:55:09.11	75.94	26.51	-29.6	-30.3	14.3	3.80e-06	0	43	0	442499072	20	3898
2026-01-17 08:55:10.11	75.66	26.58	-29.5	-30.1	14.4	0.00e+00	0	43	0	444596224	20	3859
2026-01-17 08:55:11.12	75.38	26.66	-29.9	-31.2	13.7	0.00e+00	0	43	0	446693376	20	4178
2026-01-17 08:55:12.12	75.10	26.73	-29.9	-31.2	13.7	1.14e-05	0	43	0	448790528	20	4168
2026-01-17 08:55:13.12	74.82	26.80	-30.2	-31.8	13.3	1.52e-05	0	43	0	450887680	20	4365
2026-01-17 08:55:14.12	74.54	26.87	-30.0	-31.5	13.4	1.44e-05	0	43	0	451936256	20	4266
2026-01-17 08:55:15.12	74.25	26.94	-29.6	-30.4	14.2	3.00e-06	0	43	0	454033408	20	3947
2026-01-17 08:55:16.13	73.96	27.01	-29.5	-30.2	14.3	6.10e-06	0	43	0	456130560	20	3906
2026-01-17 08:55:17.12	73.68	27.08	-29.7	-30.5	14.2	7.00e-07	0	43	0	458227712	20	3986
2026-01-17 08:55:18.13	73.39	27.15	-29.6	-30.5	14.2	2.20e-06	0	43	0	460324864	20	3960
2026-01-17 08:55:19.14	73.10	27.22	-29.5	-30.2	14.5	3.80e-06	0	43	0	461373440	20	3877
2026-01-17 08:55:20.15	72.80	27.29	-29.7	-30.7	14.0	1.50e-06	0	43	0	463470592	20	4028
2026-01-17 08:55:21.15	72.51	27.35	-29.8	-30.9	13.9	7.00e-07	0	43	0	465567744	20	4076
2026-01-17 08:55:22.15	72.22	27.42	-29.9	-31.1	13.8	2.20e-06	0	43	0	467664896	20	4150
2026-01-17 08:55:23.16	71.92	27.48	-30.1	-31.6	13.4	7.60e-06	0	43	0	469762048	20	4316
2026-01-17 08:55:24.17	71.62	27.55	-30.1	-31.6	13.4	8.30e-06	0	43	0	470810624	20	4316
2026-01-17 08:55:25.17	71.32	27.61	-30.0	-31.6	13.5	6.10e-06	0	43	0	472907776	20	4284
2026-01-17 08:55:26.18	71.02	27.68	-30.0	-31.4	13.6	7.60e-06	0	43	0	475004928	20	4217
2026-01-17 08:55:27.17	70.73	27.74	-29.7	-30.7	14.0	7.00e-07	0	43	0	477102080	20	4033
2026-01-17 08:55:28.17	70.43	27.80	-29.7	-30.5	14.2	2.20e-06	0	43	0	478150656	20	3956
2026-01-17 08:55:29.17	70.13	27.86	-29.7	-30.6	14.1	2.20e-06	0	43	0	480247808	20	3993
2026-01-17 08:55:30.17	69.82	27.92	-29.7	-30.6	14.2	7.00e-07	0	43	0	482344960	20	4008
2026-01-17 08:55:31.17	69.52	27.98	-29.7	-30.6	14.1	4.50e-06	0	43	0	484442112	20	4001
2026-01-17 08:55:32.18	69.21	28.04	-29.4	-29.9	14.6	7.00e-07	0	43	0	486539264	20	3804
2026-01-17 08:55:33.18	68.91	28.10	-29.4	-29.8	14.6	0.00e+00	0	43	0	487587840	20	3770
2026-01-17 08:55:34.18	68.60	28.15	-29.4	-29.8	14.7	3.00e-06	0	43	0	489684992	20	3789
2026-01-17 08:55:35.19	68.29	28.21	-29.7	-30.5	14.2	5.30e-06	0	43	0	491782144	20	3969
2026-01-17 08:55:36.19	67.98	28.26	-29.7	-30.5	14.2	7.00e-07	0	43	0	493879296	20	3969
2026-01-17 08:55:37.19	67.67	28.32	-29.7	-30.8	14.0	6.80e-06	0	43	0	495976448	20	4059
2026-01-17 08:55:38.19	67.36	28.37	-30.0	-31.4	13.6	4.50e-06	0	43	0	497025024	20	4248
2026-01-17 08:55:39.20	67.04	28.42	-30.0	-31.6	13.5	9.90e-06	0	43	0	499122176	20	4297
2026-01-17 08:55:40.21	66.72	28.48	-29.6	-30.4	14.2	6.80e-06	0	43	0	501219328	20	3948
2026-01-17 08:55:41.21	66.41	28.53	-29.4	-30.3	14.7	1.50e-06	0	43	0	503316480	19	3994
2026-01-17 08:55:42.21	66.09	28.58	-29.4	-30.2	14.7	0.00e+00	0	43	0	505413632	19	3982
2026-01-17 08:55:43.21	65.78	28.63	-29.6	-30.8	14.4	1.50e-06	0	43	0	506462208	19	4132
2026-01-17 08:55:44.22	65.46	28.68	-29.8	-31.4	14.0	2.20e-06	0	43	0	508559360	19	4315
2026-01-17 08:55:45.22	65.14	28.72	-29.8	-31.2	14.1	4.50e-06	0	43	0	510656512	19	4264
2026-01-17 08:55:46.22	64.82	28.77	-29.9	-31.2	13.8	2.20e-06	0	43	0	512753664	20	4159
2026-01-17 08:55:47.23	64.50	28.82	-29.8	-30.7	14.1	0.00e+00	0	43	0	514850816	20	4037
2026-01-17 08:55:48.23	64.18	28.86	-30.1	-31.6	13.5	4.50e-06	0	43	0	515899392	20	4299
2026-01-17 08:55:49.23	63.85	28.90	-30.5	-32.2	12.8	2.36e-05	0	43	0	517996544	21	4384
2026-01-17 08:55:50.23	63.53	28.95	-30.7	-32.8	12.4	9.99e-05	0	43	0	520093696	21	4596
2026-01-17 08:55:51.23	63.21	28.99	-30.7	-33.1	12.2	1.75e-04	0	43	0	522190848	21	4715
2026-01-17 08:55:52.23	62.88	29.03	-31.0	-33.5	11.6	3.84e-04	0	43	0	523239424	22	4766
2026-01-17 08:55:53.23	62.56	29.07	-31.0	-33.5	11.5	5.52e-04	0	43	0	525336576	22	4758
2026-01-17 08:55:54.23	62.23	29.11	-31.0	-33.2	11.7	1.05e-03	0	43	0	527433728	22	4655
2026-01-17 08:55:55.23	61.90	29.15	-30.9	-33.1	11.8	4.53e-04	0	43	0	529530880	22	4605
2026-01-17 08:55:56.23	61.58	29.18	-30.9	-33.0	11.9	4.29e-04	0	43	0	531628032	22	4576
2026-01-17 08:55:57.23	61.25	29.22	-30.9	-33.0	11.8	5.69e-04	0	43	0	532676608	22	4605
2026-01-17 08:55:58.23	60.92	29.25	-31.3	-34.2	11.1	1.09e-03	0	43	0	534773760	22	5038
2026-01-17 08:55:59.24	60.59	29.29	-31.1	-33.5	11.5	1.10e-03	0	43	0	536870912	22	4770
2026-01-17 08:56:00.24	60.26	29.32	-30.8	-32.8	12.1	4.56e-04	0	43	0	538968064	22	4503
2026-01-17 08:56:01.24	59.92	29.35	-31.1	-33.7	11.4	5.35e-04	0	43	0	541065216	22	4807
2026-01-17 08:56:02.23	59.60	29.38	-30.9	-32.8	12.1	2.69e-04	0	43	0	542113792	22	4511
2026-01-17 08:56:03.24	59.26	29.41	-30.9	-32.9	12.1	4.29e-04	0	43	0	544210944	22	4550
2026-01-17 08:56:04.25	58.92	29.44	-30.8	-32.6	12.3	1.88e-04	0	43	0	546308096	22	4429
2026-01-17 08:56:05.24	58.59	29.47	-30.8	-32.7	12.1	1.52e-04	0	43	0	548405248	22	4474
2026-01-17 08:56:06.25	58.26	29.50	-30.9	-32.9	12.0	3.14e-04	0	43	0	550502400	22	4540
2026-01-17 08:56:07.25	57.92	29.52	-31.1	-33.5	11.6	6.81e-04	0	43	0	551550976	22	4767
2026-01-17 08:56:08.25	57.59	29.55	-31.3	-34.1	11.1	1.22e-03	0	43	0	553648128	22	5014
2026-01-17 08:56:09.25	57.25	29.57	-31.5	-34.8	10.7	2.77e-03	0	43	0	555745280	22	5264
2026-01-17 08:56:10.24	56.92	29.59	-31.5	-34.5	10.6	3.11e-03	0	43	0	557842432	23	5068
2026-01-17 08:56:11.25	56.58	29.61	-31.6	-34.8	10.2	4.64e-03	0	43	0	559939584	23	5183
2026-01-17 08:56:12.25	56.24	29.63	-31.7	-35.2	10.0	7.75e-03	0	43	0	560988160	23	5334
2026-01-17 08:56:13.26	55.90	29.65	-31.6	-34.9	10.2	6.04e-03	0	43	0	563085312	23	5249
2026-01-17 08:56:14.27	55.56	29.67	-31.6	-34.8	10.2	4.10e-03	0	43	0	565182464	23	5215
2026-01-17 08:56:15.27	55.22	29.69	-31.5	-34.5	10.4	3.87e-03	0	43	0	567279616	23	5103
2026-01-17 08:56:16.26	54.89	29.70	-31.5	-34.4	10.5	4.76e-03	0	43	0	568328192	23	5060
2026-01-17 08:56:17.26	54.55	29.72	-31.2	-33.5	11.2	1.68e-03	0	43	0	570425344	23	4675
2026-01-17 08:56:18.26	54.21	29.73	-31.4	-33.9	11.0	1.13e-03	0	43	0	572522496	23	4801
2026-01-17 08:56:19.26	53.87	29.74	-31.3	-33.7	11.2	1.40e-03	0	43	0	574619648	23	4734
2026-01-17 08:56:20.26	53.53	29.76	-30.7	-32.4	12.4	3.91e-04	0	43	0	576716800	22	4347
2026-01-17 08:56:21.26	53.19	29.77	-30.4	-31.6	12.9	3.89e-05	0	43	0	577765376	22	4102
2026-01-17 08:56:22.27	52.85	29.77	-30.4	-31.9	13.0	2.74e-05	0	43	0	579862528	21	4299
2026-01-17 08:56:23.27	52.51	29.78	-30.3	-31.8	13.0	3.28e-05	0	43	0	581959680	21	4279
2026-01-17 08:56:24.28	52.16	29.79	-30.7	-32.8	12.3	1.73e-04	0	43	0	584056832	21	4593
2026-01-17 08:56:25.28	51.82	29.79	-30.8	-33.3	12.0	2.92e-04	0	43	0	586153984	21	4790
2026-01-17 08:56:26.29	51.48	29.80	-31.2	-33.9	11.2	5.89e-04	0	43	0	587202560	22	4912
2026-01-17 08:56:27.28	51.14	29.80	-31.0	-33.2	11.8	8.44e-04	0	43	0	589299712	22	4659
2026-01-17 08:56:28.28	50.80	29.80	-31.3	-34.0	11.2	8.89e-04	0	43	0	591396864	22	4940
2026-01-17 08:56:29.29	50.46	29.80	-31.4	-34.4	11.1	1.70e-03	0	43	0	593494016	22	5091
2026-01-17 08:56:30.29	50.11	29.80	-31.3	-34.1	11.2	1.80e-03	0	43	0	595591168	22	4988
2026-01-17 08:56:31.29	49.77	29.80	-31.3	-34.0	11.2	1.74e-03	0	43	0	596639744	22	4920
2026-01-17 08:56:32.30	49.43	29.80	-30.7	-32.3	12.4	4.95e-04	0	43	0	598736896	22	4321
2026-01-17 08:56:33.30	49.09	29.80	-30.3	-31.1	13.2	5.41e-05	0	43	0	600834048	22	3961
2026-01-17 08:56:34.31	48.75	29.79	-30.4	-32.1	12.9	2.05e-05	0	43	0	602931200	21	4349
2026-01-17 08:56:35.31	48.41	29.79	-30.8	-33.0	12.3	7.62e-05	0	43	0	605028352	21	4662
2026-01-17 08:56:36.31	48.07	29.78	-31.0	-33.7	11.8	2.66e-04	0	43	0	606076928	21	4924
2026-01-17 08:56:37.31	47.73	29.77	-31.0	-33.1	11.8	7.90e-04	0	43	0	608174080	22	4611
2026-01-17 08:56:38.31	47.39	29.76	-30.7	-32.3	12.4	2.75e-04	0	43	0	610271232	22	4323
2026-01-17 08:56:39.32	47.04	29.75	-30.3	-31.6	13.2	3.96e-05	0	43	0	612368384	21	4192
2026-01-17 08:56:40.32	46.70	29.74	-30.1	-31.1	13.5	1.75e-05	0	43	0	613416960	21	4047
2026-01-17 08:56:41.32	46.36	29.73	-30.0	-30.9	13.7	5.30e-06	0	43	0	615514112	21	4004
2026-01-17 08:56:42.33	46.02	29.71	-30.4	-32.0	12.9	9.90e-06	0	43	0	617611264	21	4321
2026-01-17 08:56:43.33	45.68	29.70	-30.3	-31.8	13.1	2.74e-05	0	43	0	619708416	21	4272
2026-01-17 08:56:44.34	45.34	29.68	-30.5	-32.3	12.7	5.41e-05	0	43	0	621805568	21	4436
2026-01-17 08:56:45.35	45.00	29.67	-30.6	-32.7	12.4	1.11e-04	0	43	0	623902720	21	4573
2026-01-17 08:56:46.35	44.66	29.65	-30.5	-32.2	12.8	1.37e-04	0	43	0	624951296	21	4394
2026-01-17 08:56:47.35	44.33	29.63	-30.4	-31.9	13.0	8.54e-05	0	43	0	627048448	21	4308
2026-01-17 08:56:48.35	43.99	29.61	-30.4	-32.0	12.9	3.20e-05	0	43	0	629145600	21	4321
2026-01-17 08:56:49.35	43.65	29.59	-30.5	-32.1	12.8	5.64e-05	0	43	0	631242752	21	4371
2026-01-17 08:56:50.35	43.32	29.56	-30.4	-32.1	12.8	3.81e-05	0	43	0	632291328	21	4349
2026-01-17 08:56:51.35	42.98	29.54	-30.4	-31.9	12.9	5.03e-05	0	43	0	634388480	21	4302
2026-01-17 08:56:52.35	42.65	29.51	-30.6	-32.4	12.6	4.65e-05	0	43	0	636485632	21	4461
2026-01-17 08:56:53.35	42.31	29.49	-30.7	-32.8	12.3	2.16e-04	0	43	0	638582784	21	4596
2026-01-17 08:56:54.35	41.98	29.46	-30.3	-31.8	13.0	9.61e-05	0	43	0	640679936	21	4281
2026-01-17 08:56:55.35	41.65	29.43	-30.0	-30.8	13.6	2.20e-06	0	43	0	641728512	21	3972
2026-01-17 08:56:56.35	41.31	29.41	-29.6	-30.3	14.3	0.00e+00	0	43	0	643825664	20	3899
2026-01-17 08:56:57.35	40.98	29.38	-29.6	-30.4	14.3	7.00e-07	0	43	0	645922816	20	3933
2026-01-17 08:56:58.36	40.65	29.34	-29.7	-30.6	14.1	7.00e-07	0	43	0	648019968	20	3999
2026-01-17 08:56:59.35	40.32	29.31	-29.9	-31.0	13.8	3.80e-06	0	43	0	650117120	20	4115
2026-01-17 08:57:00.36	39.99	29.28	-30.1	-31.6	13.4	1.29e-05	0	43	0	651165696	20	4281
2026-01-17 08:57:01.36	39.66	29.24	-29.9	-31.2	13.6	3.80e-06	0	43	0	653262848	20	4184
2026-01-17 08:57:02.36	39.33	29.21	-29.7	-30.6	14.0	1.50e-06	0	43	0	655360000	20	4010
2026-01-17 08:57:03.36	39.00	29.17	-29.8	-30.9	13.9	7.00e-07	0	43	0	657457152	20	4069
2026-01-17 08:57:04.36	38.68	29.14	-29.9	-31.2	13.8	3.80e-06	0	43	0	658505728	20	4161
2026-01-17 08:57:05.37	38.35	29.10	-30.1	-31.6	13.4	1.37e-05	0	43	0	660602880	20	4298
2026-01-17 08:57:06.37	38.02	29.06	-30.1	-31.6	13.5	2.44e-05	0	43	0	662700032	20	4275
2026-01-17 08:57:07.37	37.70	29.02	-30.2	-31.8	13.4	1.52e-05	0	43	0	664797184	20	4352
2026-01-17 08:57:08.37	37.37	28.98	-29.8	-30.9	13.9	1.44e-05	0	43	0	666894336	20	4078
2026-01-17 08:57:09.36	37.05	28.93	-30.0	-31.3	13.7	8.30e-06	0	43	0	667942912	20	4185
2026-01-17 08:57:10.37	36.73	28.89	-30.0	-31.3	13.7	6.80e-06	0	43	0	670040064	20	4201
2026-01-17 08:57:11.37	36.41	28.85	-30.1	-31.6	13.5	2.20e-06	0	43	0	672137216	20	4272
2026-01-17 08:57:12.38	36.08	28.80	-30.6	-32.4	12.7	8.23e-05	0	43	0	674234368	21	4463
2026-01-17 08:57:13.38	35.76	28.76	-30.6	-32.5	12.6	1.03e-04	0	43	0	676331520	21	4469
2026-01-17 08:57:14.38	35.45	28.71	-30.5	-32.2	12.8	1.42e-04	0	43	0	677380096	21	4377
2026-01-17 08:57:15.38	35.13	28.66	-30.4	-31.8	13.0	8.16e-05	0	43	0	679477248	21	4263
2026-01-17 08:57:16.38	34.81	28.61	-30.3	-31.7	13.1	2.36e-05	0	43	0	681574400	21	4228
2026-01-17 08:57:17.38	34.50	28.56	-30.5	-32.1	12.8	3.66e-05	0	43	0	683671552	21	4358
2026-01-17 08:57:18.38	34.18	28.51	-30.5	-32.3	12.7	8.62e-05	0	43	0	685768704	21	4419
2026-01-17 08:57:19.37	33.87	28.46	-30.6	-32.4	12.6	5.49e-05	0	43	0	686817280	21	4450
2026-01-17 08:57:20.37	33.56	28.41	-30.8	-32.6	12.2	3.78e-04	0	43	0	688914432	22	4406
2026-01-17 08:57:21.38	33.25	28.36	-30.6	-31.9	12.7	2.39e-04	0	43	0	691011584	22	4190
2026-01-17 08:57:22.38	32.93	28.30	-30.5	-31.8	12.6	8.62e-05	0	43	0	693108736	22	4174
2026-01-17 08:57:23.39	32.62	28.25	-30.4	-31.4	13.0	3.58e-05	0	43	0	695205888	22	4044
2026-01-17 08:57:24.39	32.31	28.19	-30.3	-31.2	13.1	3.35e-05	0	43	0	696254464	22	3989
2026-01-17 08:57:25.39	32.01	28.14	-30.4	-31.8	13.0	3.58e-05	0	43	0	698351616	21	4272
2026-01-17 08:57:26.39	31.70	28.08	-30.7	-32.7	12.4	1.06e-04	0	43	0	700448768	21	4575
2026-01-17 08:57:27.39	31.40	28.02	-31.0	-33.3	11.7	5.73e-04	0	43	0	702545920	22	4694
2026-01-17 08:57:28.39	31.09	27.96	-31.2	-33.7	11.3	7.90e-04	0	43	0	703594496	22	4845
2026-01-17 08:57:29.39	30.79	27.91	-31.3	-34.2	11.0	1.45e-03	0	43	0	705691648	22	5037
2026-01-17 08:57:30.40	30.49	27.84	-31.5	-34.6	10.4	3.75e-03	0	43	0	707788800	23	5090
2026-01-17 08:57:31.40	30.19	27.78	-31.7	-35.2	10.0	8.04e-03	0	43	0	709885952	23	5355
2026-01-17 08:57:32.40	29.89	27.72	-31.7	-35.1	9.9	1.00e-02	0	43	0	711983104	23	5315
2026-01-17 08:57:33.40	29.59	27.66	-31.6	-34.6	10.3	1.18e-02	0	43	0	713031680	23	5108
2026-01-17 08:57:34.40	29.29	27.60	-31.5	-34.3	10.5	6.08e-03	0	43	0	715128832	23	4984
2026-01-17 08:57:35.41	28.99	27.53	-31.6	-34.7	10.3	3.93e-03	0	43	0	717225984	23	5164
2026-01-17 08:57:36.40	28.70	27.47	-31.7	-34.9	10.0	7.69e-03	0	43	0	719323136	23	5244
2026-01-17 08:57:37.40	28.41	27.40	-31.4	-34.0	10.7	4.98e-03	0	43	0	721420288	23	4893
2026-01-17 08:57:38.40	28.12	27.34	-30.9	-32.6	11.6	1.72e-03	0	43	0	722468864	23	4382
2026-01-17 08:57:39.40	27.83	27.27	-30.4	-31.7	12.6	2.38e-04	0	43	0	724566016	22	4167
2026-01-17 08:57:40.40	27.54	27.20	-30.2	-31.4	13.0	7.70e-05	0	43	0	726663168	21	4160
2026-01-17 08:57:41.41	27.24	27.14	-30.1	-31.2	13.3	2.97e-05	0	43	0	728760320	21	4087
2026-01-17 08:57:42.41	26.96	27.07	-29.8	-30.8	13.9	1.22e-05	0	43	0	730857472	20	4070
2026-01-17 08:57:43.41	26.67	27.00	-29.6	-30.3	14.2	2.20e-06	0	43	0	731906048	20	3915
2026-01-17 08:57:44.41	26.39	26.93	-29.5	-30.2	14.3	1.50e-06	0	43	0	734003200	20	3879
2026-01-17 08:57:45.41	26.10	26.86	-29.6	-30.3	14.2	3.80e-06	0	43	0	736100352	20	3910
2026-01-17 08:57:46.42	25.82	26.79	-29.4	-29.8	14.5	2.20e-06	0	43	0	738197504	20	3793
2026-01-17 08:57:47.42	25.54	26.72	-29.8	-30.8	13.9	2.20e-06	0	43	0	739246080	20	4059
2026-01-17 08:57:48.42	25.26	26.64	-29.8	-30.9	13.9	4.50e-06	0	43	0	741343232	20	4081
2026-01-17 08:57:49.42	24.98	26.57	-29.9	-31.1	13.7	1.50e-06	0	43	0	743440384	20	4142
2026-01-17 08:57:50.43	24.70	26.50	-29.9	-31.0	13.7	7.00e-07	0	43	0	745537536	20	4130
2026-01-17 08:57:51.43	24.43	26.43	-30.1	-31.7	13.3	1.37e-05	0	43	0	747634688	20	4327
2026-01-17 08:57:52.43	24.15	26.35	-30.5	-32.7	12.6	4.80e-05	0	43	0	748683264	20	4683
2026-01-17 08:57:53.43	23.88	26.28	-30.7	-32.8	12.2	2.28e-04	0	43	0	750780416	21	4626
2026-01-17 08:57:54.44	23.60	26.20	-30.7	-32.8	12.2	1.95e-04	0	43	0	752877568	21	4611
2026-01-17 08:57:55.44	23.33	26.13	-30.8	-33.3	11.9	3.13e-04	0	43	0	754974720	21	4779
2026-01-17 08:57:56.45	23.06	26.05	-30.8	-33.3	11.8	3.83e-04	0	43	0	757071872	21	4806
2026-01-17 08:57:57.45	22.79	25.97	-30.9	-33.6	11.6	4.58e-04	0	43	0	758120448	21	4915
2026-01-17 08:57:58.46	22.52	25.89	-31.2	-34.1	11.0	1.17e-03	0	43	0	760217600	22	5014
2026-01-17 08:57:59.46	22.26	25.82	-31.4	-34.8	10.3	2.67e-03	0	43	0	762314752	22	5292
2026-01-17 08:58:00.45	22.00	25.74	-31.6	-34.8	10.1	6.72e-03	0	43	0	764411904	23	5193
2026-01-17 08:58:01.46	21.73	25.66	-31.6	-34.7	10.2	4.32e-03	0	43	0	766509056	23	5162
2026-01-17 08:58:02.46	21.47	25.58	-31.6	-34.7	10.1	8.37e-03	0	43	0	767557632	23	5154
2026-01-17 08:58:03.46	21.21	25.50	-31.2	-33.4	11.1	2.10e-03	0	43	0	769654784	23	4632
2026-01-17 08:58:04.46	20.95	25.42	-30.6	-32.1	12.4	4.31e-04	0	43	0	771751936	22	4268
2026-01-17 08:58:05.46	20.70	25.34	-30.0	-31.0	13.4	4.95e-05	0	43	0	773849088	21	4024
2026-01-17 08:58:06.46	20.44	25.26	-29.7	-30.7	13.9	5.30e-06	0	43	0	775946240	20	4037
2026-01-17 08:58:07.46	20.19	25.18	-29.6	-30.3	14.2	1.50e-06	0	43	0	776994816	20	3915
2026-01-17 08:58:08.46	19.93	25.10	-29.4	-30.0	14.4	0.00e+00	0	43	0	779091968	20	3822
2026-01-17 08:58:09.47	19.68	25.02	-29.5	-30.0	14.4	0.00e+00	0	43	0	781189120	20	3833
2026-01-17 08:58:10.47	19.43	24.94	-29.5	-30.0	14.2	7.00e-07	0	43	0	783286272	20	3829
2026-01-17 08:58:11.47	19.18	24.85	-29.3	-29.6	14.5	7.00e-07	0	43	0	784334848	20	3740
2026-01-17 08:58:12.47	18.93	24.77	-29.3	-29.7	14.5	7.00e-07	0	43	0	786432000	20	3746
2026-01-17 08:58:13.46	18.69	24.69	-29.3	-30.1	14.6	0.00e+00	0	43	0	788529152	19	3946
2026-01-17 08:58:14.46	18.44	24.61	-29.2	-29.8	14.8	0.00e+00	0	43	0	790626304	19	3857
2026-01-17 08:58:15.46	18.20	24.52	-29.3	-30.0	14.7	0.00e+00	0	43	0	792723456	19	3909
2026-01-17 08:58:16.46	17.95	24.44	-29.2	-29.8	14.8	0.00e+00	0	43	0	793772032	19	3858
2026-01-17 08:58:17.46	17.71	24.36	-29.0	-29.5	15.0	0.00e+00	0	43	0	795869184	19	3774
2026-01-17 08:58:18.47	17.47	24.27	-28.7	-29.2	15.5	0.00e+00	0	43	0	797966336	18	3787
2026-01-17 08:58:19.47	17.23	24.19	-28.6	-28.8	15.7	0.00e+00	0	43	0	800063488	18	3687
2026-01-17 08:58:20.47	16.99	24.10	-28.5	-28.6	15.8	0.00e+00	0	43	0	802160640	18	3635
2026-01-17 08:58:21.47	16.76	24.02	-28.6	-28.9	15.6	0.00e+00	0	43	0	803209216	18	3715
2026-01-17 08:58:22.47	16.52	23.93	-28.5	-28.7	15.7	0.00e+00	0	43	0	805306368	18	3655
2026-01-17 08:58:23.47	16.29	23.85	-28.7	-29.1	15.4	0.00e+00	0	43	0	807403520	18	3785
2026-01-17 08:58:24.48	16.05	23.76	-28.9	-29.7	15.1	0.00e+00	0	43	0	809500672	18	3932
2026-01-17 08:58:25.48	15.82	23.67	-29.1	-30.1	14.8	0.00e+00	0	43	0	810549248	18	4055
2026-01-17 08:58:26.47	15.60	23.59	-29.3	-30.6	14.6	0.00e+00	0	43	0	812646400	18	4179
2026-01-17 08:58:27.47	15.37	23.50	-29.3	-30.7	14.5	0.00e+00	0	43	0	814743552	18	4201
2026-01-17 08:58:28.47	15.14	23.41	-29.2	-30.4	14.6	7.00e-07	0	43	0	816840704	18	4139
2026-01-17 08:58:29.48	14.91	23.33	-29.2	-30.5	14.6	7.00e-07	0	43	0	818937856	18	4143
2026-01-17 08:58:30.48	14.69	23.24	-29.2	-30.5	14.6	2.20e-06	0	43	0	819986432	18	4148
2026-01-17 08:58:31.48	14.46	23.15	-29.2	-30.4	14.7	0.00e+00	0	43	0	822083584	18	4123
2026-01-17 08:58:32.49	14.24	23.06	-29.3	-30.6	14.6	7.00e-07	0	43	0	824180736	18	4169
2026-01-17 08:58:33.49	14.02	22.98	-29.3	-30.6	14.6	0.00e+00	0	43	0	826277888	18	4177
2026-01-17 08:58:34.49	13.80	22.89	-29.1	-30.1	14.9	0.00e+00	0	43	0	828375040	18	4029
2026-01-17 08:58:35.49	13.58	22.80	-28.9	-29.6	15.2	0.00e+00	0	43	0	829423616	18	3902
2026-01-17 08:58:36.49	13.36	22.71	-28.8	-29.4	15.3	0.00e+00	0	43	0	831520768	18	3848
2026-01-17 08:58:37.48	13.15	22.63	-28.7	-29.2	15.4	0.00e+00	0	43	0	833617920	18	3791
2026-01-17 08:58:38.48	12.93	22.54	-28.6	-28.9	15.6	0.00e+00	0	43	0	835715072	18	3707
2026-01-17 08:58:39.47	12.72	22.45	-28.4	-28.4	15.9	0.00e+00	0	43	0	837812224	18	3600
2026-01-17 08:58:40.48	12.51	22.36	-28.3	-28.5	16.1	0.00e+00	0	43	0	838860800	17	3704
2026-01-17 08:58:41.48	12.30	22.27	-28.2	-28.4	16.1	0.00e+00	0	43	0	840957952	17	3669
2026-01-17 08:58:42.49	12.09	22.18	-28.1	-28.1	16.3	0.00e+00	0	43	0	843055104	17	3621
2026-01-17 08:58:43.50	11.88	22.09	-28.3	-28.7	16.0	0.00e+00	0	43	0	845152256	17	3761
2026-01-17 08:58:44.50	11.67	22.00	-28.7	-29.5	15.5	0.00e+00	0	43	0	847249408	17	3970
2026-01-17 08:58:45.50	11.46	21.91	-29.1	-30.0	14.9	0.00e+00	0	43	0	848297984	18	4006
2026-01-17 08:58:46.50	11.26	21.83	-29.6	-30.9	14.1	0.00e+00	0	43	0	850395136	19	4170
2026-01-17 08:58:47.50	11.05	21.74	-29.6	-30.9	14.2	7.00e-07	0	43	0	852492288	19	4164
2026-01-17 08:58:48.50	10.85	21.65	-29.6	-31.0	14.1	1.50e-06	0	43	0	854589440	19	4194
2026-01-17 08:58:49.50	10.65	21.56	-29.8	-31.5	13.7	1.50e-06	0	43	0	856686592	19	4349
2026-01-17 08:58:50.51	10.45	21.47	-29.5	-30.5	14.4	4.50e-06	0	43	0	857735168	19	4064
2026-01-17 08:58:51.51	10.25	21.38	-29.9	-31.5	13.7	3.00e-06	0	43	0	859832320	19	4356
2026-01-17 08:58:52.51	10.05	21.29	-29.8	-31.0	13.6	1.98e-05	0	43	0	861929472	20	4107
2026-01-17 08:58:53.52	9.85	21.20	-29.4	-29.9	14.3	7.00e-07	0	43	0	864026624	20	3813
2026-01-17 08:58:54.53	9.66	21.11	-29.6	-30.3	14.1	7.00e-07	0	43	0	865075200	20	3931
2026-01-17 08:58:55.52	9.46	21.02	-29.8	-30.9	13.7	5.30e-06	0	43	0	867172352	20	4078
2026-01-17 08:58:56.52	9.27	20.93	-29.5	-30.3	14.1	3.80e-06	0	43	0	869269504	20	3912
2026-01-17 08:58:57.52	9.08	20.84	-29.3	-30.1	14.5	0.00e+00	0	43	0	871366656	19	3956
2026-01-17 08:58:58.52	8.89	20.75	-29.5	-30.7	14.2	1.50e-06	0	43	0	873463808	19	4106
2026-01-17 08:58:59.53	8.70	20.66	-29.7	-31.2	13.9	3.80e-06	0	43	0	874512384	19	4261
2026-01-17 08:59:00.54	8.51	20.57	-29.7	-31.2	13.9	1.22e-05	0	43	0	876609536	19	4255
2026-01-17 08:59:01.54	8.32	20.48	-29.3	-30.1	14.5	7.00e-07	0	43	0	878706688	19	3951
2026-01-17 08:59:02.54	8.13	20.39	-28.9	-29.1	15.2	0.00e+00	0	43	0	880803840	19	3677
2026-01-17 08:59:03.54	7.95	20.30	-28.8	-28.8	15.3	0.00e+00	0	43	0	882900992	19	3601
2026-01-17 08:59:04.54	7.76	20.21	-29.0	-29.8	15.0	0.00e+00	0	43	0	883949568	18	3948
2026-01-17 08:59:05.54	7.58	20.12	-28.7	-29.0	15.5	0.00e+00	0	43	0	886046720	18	3738
2026-01-17 08:59:06.53	7.40	20.03	-28.8	-29.4	15.3	0.00e+00	0	43	0	888143872	18	3836
2026-01-17 08:59:07.53	7.22	19.94	-29.0	-29.8	15.0	0.00e+00	0	43	0	890241024	18	3966
2026-01-17 08:59:08.54	7.04	19.85	-29.0	-29.9	14.9	0.00e+00	0	43	0	892338176	18	3983
2026-01-17 08:59:09.53	6.86	19.76	-29.5	-30.7	14.1	0.00e+00	0	43	0	893386752	19	4114
2026-01-17 08:59:10.53	6.68	19.67	-29.5	-30.7	14.1	3.00e-06	0	43	0	895483904	19	4112
2026-01-17 08:59:11.54	6.50	19.58	-29.7	-31.2	13.9	4.50e-06	0	43	0	897581056	19	4264
2026-01-17 08:59:12.53	6.33	19.49	-29.7	-31.1	13.8	7.60e-06	0	43	0	899678208	19	4248
2026-01-17 08:59:13.53	6.15	19.40	-29.4	-30.5	14.1	1.50e-06	0	43	0	900726784	19	4070
2026-01-17 08:59:14.53	5.98	19.31	-29.6	-30.8	14.0	8.30e-06	0	43	0	902823936	19	4158
2026-01-17 08:59:15.53	5.81	19.23	-29.2	-29.8	14.6	0.00e+00	0	43	0	904921088	19	3882
2026-01-17 08:59:16.53	5.64	19.14	-29.2	-29.8	14.7	0.00e+00	0	43	0	907018240	19	3866
2026-01-17 08:59:17.52	5.47	19.05	-29.0	-29.4	14.9	7.00e-07	0	43	0	909115392	19	3767
2026-01-17 08:59:18.53	5.30	18.96	-29.2	-29.8	14.6	0.00e+00	0	43	0	910163968	19	3871
2026-01-17 08:59:19.52	5.13	18.87	-29.1	-29.6	14.7	7.00e-07	0	43	0	912261120	19	3828
2026-01-17 08:59:20.52	4.96	18.78	-29.1	-29.7	14.7	0.00e+00	0	43	0	914358272	19	3836
2026-01-17 08:59:21.52	4.80	18.69	-29.1	-29.6	14.7	7.00e-07	0	43	0	916455424	19	3815
2026-01-17 08:59:22.51	4.63	18.60	-29.2	-29.8	14.6	1.50e-06	0	43	0	918552576	19	3869
2026-01-17 08:59:23.51	4.47	18.51	-29.3	-30.3	14.3	1.50e-06	0	43	0	919601152	19	4010
2026-01-17 08:59:24.51	4.31	18.43	-29.5	-30.7	14.0	1.50e-06	0	43	0	921698304	19	4128
2026-01-17 08:59:25.51	4.14	18.34	-30.0	-31.4	13.1	6.10e-06	0	43	0	923795456	20	4275
2026-01-17 08:59:26.51	3.98	18.25	-30.1	-32.0	12.8	3.96e-05	0	43	0	925892608	20	4443
2026-01-17 08:59:27.51	3.82	18.16	-30.3	-32.4	12.5	1.22e-04	0	43	0	926941184	20	4578
2026-01-17 08:59:28.51	3.66	18.07	-30.0	-31.7	13.0	7.85e-05	0	43	0	929038336	20	4372
2026-01-17 08:59:29.51	3.50	17.98	-30.0	-31.6	13.0	3.81e-05	0	43	0	931135488	20	4341
2026-01-17 08:59:30.51	3.34	17.89	-29.8	-31.1	13.4	1.98e-05	0	43	0	933232640	20	4165
2026-01-17 08:59:31.51	3.19	17.81	-29.8	-31.0	13.4	1.06e-05	0	43	0	935329792	20	4138
2026-01-17 08:59:32.51	3.03	17.72	-29.7	-30.8	13.6	1.37e-05	0	43	0	936378368	20	4092
2026-01-17 08:59:33.51	2.88	17.63	-29.4	-30.1	14.0	2.20e-06	0	43	0	938475520	20	3876
2026-01-17 08:59:34.52	2.72	17.54	-29.5	-30.1	14.0	1.50e-06	0	43	0	940572672	20	3880
2026-01-17 08:59:35.52	2.57	17.45	-29.5	-30.2	13.9	5.30e-06	0	43	0	942669824	20	3904
2026-01-17 08:59:36.51	2.42	17.37	-29.6	-30.6	13.6	8.30e-06	0	43	0	944766976	20	4037
2026-01-17 08:59:37.51	2.27	17.28	-29.8	-31.1	13.3	1.52e-05	0	43	0	945815552	20	4178
2026-01-17 08:59:38.52	2.11	17.19	-30.0	-31.6	13.0	2.74e-05	0	43	0	947912704	20	4349
2026-01-17 08:59:39.52	1.97	17.10	-30.1	-31.8	12.9	4.80e-05	0	43	0	950009856	20	4396
2026-01-17 08:59:40.52	1.82	17.02	-30.1	-31.9	12.7	6.71e-05	0	43	0	952107008	20	4444
2026-01-17 08:59:41.53	1.67	16.93	-30.0	-31.7	12.9	4.80e-05	0	43	0	953155584	20	4384
2026-01-17 08:59:42.53	1.52	16.84	-29.9	-31.4	13.1	4.34e-05	0	43	0	955252736	20	4285
2026-01-17 08:59:43.53	1.37	16.75	-29.6	-30.6	13.6	1.37e-05	0	43	0	957349888	20	4023
2026-01-17 08:59:44.53	1.23	16.67	-29.8	-31.2	13.3	1.60e-05	0	43	0	959447040	20	4205
2026-01-17 08:59:45.52	1.09	16.58	-29.7	-30.7	13.5	1.60e-05	0	43	0	961544192	20	4063
2026-01-17 08:59:46.53	0.94	16.49	-29.5	-30.6	14.0	2.20e-06	0	43	0	962592768	19	4122
2026-01-17 08:59:47.53	0.80	16.41	-29.3	-30.3	14.2	3.80e-06	0	43	0	964689920	19	4032
2026-01-17 08:59:48.53	0.66	16.32	-29.2	-30.0	14.4	0.00e+00	0	43	0	966787072	19	3953
2026-01-17 08:59:49.53	0.52	16.23	-29.2	-30.0	14.3	0.00e+00	0	43	0	968884224	19	3948
2026-01-17 08:59:50.53	0.38	16.15	-29.4	-30.4	14.1	0.00e+00	0	43	0	970981376	19	4045
2026-01-17 08:59:51.53	0.24	16.06	-29.5	-30.8	13.8	7.00e-07	0	43	0	972029952	19	4182
2026-01-17 08:59:52.53	0.10	15.98	-29.5	-30.7	13.9	7.00e-07	0	43	0	974127104	19	4131
2026-01-17 08:59:53.53	359.96	15.89	-29.6	-31.1	13.7	4.50e-06	0	43	0	976224256	19	4247
2026-01-17 08:59:54.52	359.83	15.81	-29.8	-31.6	13.3	1.22e-05	0	43	0	978321408	19	4423
2026-01-17 08:59:55.53	359.69	15.72	-29.9	-31.8	13.2	2.51e-05	0	43	0	980418560	19	4483
2026-01-17 08:59:56.53	359.55	15.63	-29.8	-31.6	13.3	1.75e-05	0	43	0	981467136	19	4405
2026-01-17 08:59:57.53	359.42	15.55	-29.8	-31.7	13.3	9.90e-06	0	43	0	983564288	19	4449
2026-01-17 08:59:58.53	359.28	15.46	-30.1	-31.9	12.7	4.34e-05	0	43	0	985661440	20	4432
2026-01-17 08:59:59.53	359.15	15.38	-30.2	-32.3	12.4	8.46e-05	0	43	0	987758592	20	4586
2026-01-17 09:00:00.53	359.02	15.29	-30.1	-31.9	12.7	8.46e-05	0	43	0	988807168	20	4452
2026-01-17 09:00:01.54	358.89	15.21	-30.0	-31.8	12.8	7.01e-05	0	43	0	990904320	20	4400
2026-01-17 09:00:02.53	358.76	15.13	-30.1	-32.0	12.6	8.39e-05	0	43	0	993001472	20	4476
2026-01-17 09:00:03.53	358.63	15.04	-30.1	-32.0	12.6	8.77e-05	0	43	0	995098624	20	4468
2026-01-17 09:00:04.54	358.50	14.96	-30.0	-31.6	12.8	5.72e-05	0	43	0	997195776	20	4352
2026-01-17 09:00:05.54	358.37	14.87	-30.1	-32.0	12.6	5.64e-05	0	43	0	998244352	20	4465
2026-01-17 09:00:06.54	358.24	14.79	-30.0	-31.8	12.8	4.80e-05	0	43	0	1000341504	20	4397
2026-01-17 09:00:07.54	358.11	14.70	-30.2	-32.4	12.4	1.27e-04	0	43	0	1002438656	20	4606
2026-01-17 09:00:08.54	357.99	14.62	-30.4	-32.8	12.0	2.53e-04	0	43	0	1004535808	20	4766
2026-01-17 09:00:09.54	357.86	14.54	-30.5	-32.8	11.7	6.00e-04	0	43	0	1006632960	21	4668
2026-01-17 09:00:10.54	357.74	14.45	-30.9	-34.1	10.8	8.68e-04	0	43	0	1007681536	21	5162
2026-01-17 09:00:11.55	357.61	14.37	-31.0	-33.6	10.8	3.04e-03	0	43	0	1009778688	22	4873
2026-01-17 09:00:12.54	357.49	14.29	-31.1	-34.0	10.6	2.74e-03	0	43	0	1011875840	22	5024
2026-01-17 09:00:13.54	357.37	14.20	-31.0	-33.7	10.7	5.04e-03	0	43	0	1013972992	22	4902
2026-01-17 09:00:14.54	357.25	14.12	-30.9	-33.4	10.9	2.58e-03	0	43	0	1016070144	22	4793
2026-01-17 09:00:15.54	357.13	14.04	-30.6	-32.3	11.5	1.16e-03	0	43	0	1017118720	22	4422
2026-01-17 09:00:16.54	357.01	13.96	-30.3	-31.7	12.1	4.36e-04	0	43	0	1019215872	22	4200
2026-01-17 09:00:17.54	356.89	13.87	-30.4	-31.8	12.1	3.29e-04	0	43	0	1021313024	22	4227
2026-01-17 09:00:18.54	356.77	13.79	-30.3	-32.0	12.2	2.14e-04	0	43	0	1023410176	21	4398
2026-01-17 09:00:19.54	356.65	13.71	-30.2	-31.7	12.4	2.35e-04	0	43	0	1025507328	21	4289
2026-01-17 09:00:20.54	356.53	13.63	-29.8	-31.3	13.0	5.64e-05	0	43	0	1026555904	20	4264
2026-01-17 09:00:21.54	356.41	13.55	-29.9	-31.6	12.8	5.41e-05	0	43	0	1028653056	20	4359
2026-01-17 09:00:22.54	356.30	13.47	-29.8	-31.2	13.0	3.50e-05	0	43	0	1030750208	20	4238
2026-01-17 09:00:23.55	356.18	13.38	-30.0	-31.8	12.6	5.49e-05	0	43	0	1032847360	20	4435
2026-01-17 09:00:24.54	356.07	13.30	-30.3	-32.5	12.1	2.53e-04	0	43	0	1033895936	20	4655
2026-01-17 09:00:25.55	355.95	13.22	-30.5	-33.1	11.7	3.37e-04	0	43	0	1035993088	20	4896
2026-01-17 09:00:26.55	355.84	13.14	-30.5	-32.9	11.5	6.42e-04	0	43	0	1038090240	21	4710
2026-01-17 09:00:27.55	355.72	13.06	-30.8	-33.7	11.0	1.03e-03	0	43	0	1040187392	21	5028
2026-01-17 09:00:28.55	355.61	12.98	-30.9	-34.0	10.6	3.57e-03	0	43	0	1042284544	21	5165
2026-01-17 09:00:29.56	355.50	12.90	-30.9	-33.5	10.7	3.83e-03	0	43	0	1043333120	22	4855
2026-01-17 09:00:30.56	355.39	12.82	-31.0	-33.8	10.6	3.87e-03	0	43	0	1045430272	22	4966
2026-01-17 09:00:31.56	355.28	12.74	-30.9	-33.5	10.7	3.10e-03	0	43	0	1047527424	22	4871
2026-01-17 09:00:32.55	355.17	12.66	-30.9	-33.5	10.7	2.70e-03	0	43	0	1049624576	22	4848
2026-01-17 09:00:33.55	355.06	12.58	-30.9	-33.7	10.5	2.68e-03	0	43	0	1051721728	22	4938
2026-01-17 09:00:34.56	354.95	12.50	-30.9	-33.5	10.7	2.85e-03	0	43	0	1052770304	22	4868
2026-01-17 09:00:35.56	354.84	12.42	-30.8	-33.4	10.8	2.80e-03	0	43	0	1054867456	22	4806
2026-01-17 09:00:36.56	354.73	12.34	-30.8	-33.2	10.9	2.05e-03	0	43	0	1056964608	22	4735
2026-01-17 09:00:37.56	354.63	12.26	-30.8	-33.2	10.9	1.87e-03	0	43	0	1059061760	22	4742
2026-01-17 09:00:38.56	354.52	12.18	-30.7	-32.8	11.2	1.18e-03	0	43	0	1060110336	22	4616
2026-01-17 09:00:39.57	354.41	12.10	-30.6	-32.7	11.2	1.39e-03	0	43	0	1062207488	22	4557
2026-01-17 09:00:40.57	354.31	12.02	-30.5	-32.4	11.4	1.41e-03	0	43	0	1064304640	22	4460
2026-01-17 09:00:41.58	354.20	11.94	-30.6	-32.7	11.2	1.12e-03	0	43	0	1066401792	22	4558
2026-01-17 09:00:42.58	354.10	11.86	-30.5	-32.4	11.4	1.19e-03	0	43	0	1068498944	22	4471
2026-01-17 09:00:43.57	354.00	11.79	-30.5	-32.4	11.4	1.12e-03	0	43	0	1069547520	22	4472
2026-01-17 09:00:44.58	353.89	11.71	-30.5	-32.4	11.4	9.63e-04	0	43	0	1071644672	22	4470
2026-01-17 09:00:45.59	353.79	11.63	-30.6	-32.6	11.3	1.59e-03	0	43	0	1073741824	22	4517
2026-01-17 09:00:46.59	353.69	11.55	-30.7	-33.1	10.9	1.74e-03	0	43	0	1075838976	22	4698
2026-01-17 09:00:47.59	353.59	11.47	-30.8	-33.1	10.9	1.90e-03	0	43	0	1077936128	22	4722
2026-01-17 09:00:48.60	353.48	11.40	-31.0	-33.8	10.4	3.33e-03	0	43	0	1078984704	22	4986
2026-01-17 09:00:49.60	353.38	11.32	-30.9	-33.6	10.5	4.89e-03	0	43	0	1081081856	22	4915
2026-01-17 09:00:50.60	353.28	11.24	-30.9	-33.6	10.5	3.45e-03	0	43	0	1083179008	22	4921
2026-01-17 09:00:51.60	353.18	11.16	-30.9	-33.5	10.6	2.46e-03	0	43	0	1085276160	22	4881
2026-01-17 09:00:52.60	353.09	11.09	-30.7	-33.0	11.0	2.41e-03	0	43	0	1087373312	22	4684
2026-01-17 09:00:53.61	352.99	11.01	-30.9	-33.5	10.6	2.67e-03	0	43	0	1088421888	22	4881
2026-01-17 09:00:54.61	352.89	10.93	-30.8	-33.3	10.7	2.58e-03	0	43	0	1090519040	22	4812
2026-01-17 09:00:55.61	352.79	10.86	-30.8	-33.4	10.6	3.95e-03	0	43	0	1092616192	22	4821
2026-01-17 09:00:56.62	352.70	10.78	-30.7	-32.9	11.0	2.84e-03	0	43	0	1094713344	22	4654
2026-01-17 09:00:57.62	352.60	10.70	-30.5	-32.4	11.4	1.41e-03	0	43	0	1096810496	22	4457
2026-01-17 09:00:58.62	352.50	10.63	-30.3	-31.7	11.8	1.06e-03	0	43	0	1097859072	22	4237
2026-01-17 09:00:59.62	352.41	10.55	-30.2	-32.0	11.9	4.51e-04	0	43	0	1099956224	21	4431
2026-01-17 09:01:00.62	352.32	10.48	-30.1	-31.6	12.2	2.81e-04	0	43	0	1102053376	21	4274
2026-01-17 09:01:01.62	352.22	10.40	-30.1	-31.8	12.1	1.95e-04	0	43	0	1104150528	21	4350
2026-01-17 09:01:02.63	352.13	10.33	-30.3	-32.3	11.7	4.17e-04	0	43	0	1105199104	21	4527
2026-01-17 09:01:03.62	352.04	10.25	-30.2	-32.0	11.9	5.88e-04	0	43	0	1107296256	21	4410
2026-01-17 09:01:04.62	351.94	10.18	-30.1	-31.8	12.0	2.69e-04	0	43	0	1109393408	21	4355
2026-01-17 09:01:05.62	351.85	10.10	-30.1	-31.6	12.1	1.79e-04	0	43	0	1111490560	21	4293
2026-01-17 09:01:06.63	351.76	10.03	-30.2	-31.9	12.0	5.35e-04	0	43	0	1113587712	21	4382
2026-01-17 09:01:07.63	351.67	9.95	-30.1	-31.7	12.1	2.46e-04	0	43	0	1114636288	21	4320
2026-01-17 09:01:08.63	351.58	9.88	-30.2	-32.0	11.9	3.78e-04	0	43	0	1116733440	21	4405
2026-01-17 09:01:09.62	351.49	9.80	-30.3	-32.2	11.6	6.79e-04	0	43	0	1118830592	21	4499
2026-01-17 09:01:10.63	351.40	9.73	-30.5	-32.8	11.3	9.75e-04	0	43	0	1120927744	21	4706
2026-01-17 09:01:11.63	351.31	9.66	-30.7	-33.4	10.8	1.73e-03	0	43	0	1123024896	21	4948
2026-01-17 09:01:12.63	351.22	9.58	-30.6	-33.4	10.9	2.01e-03	0	43	0	1124073472	21	4937
2026-01-17 09:01:13.63	351.13	9.51	-30.9	-34.3	10.2	5.71e-03	0	43	0	1126170624	21	5337
2026-01-17 09:01:14.64	351.05	9.43	-30.9	-34.4	10.1	5.81e-03	0	43	0	1128267776	21	5384
2026-01-17 09:01:15.64	350.96	9.36	-31.1	-34.4	9.8	5.99e-03	0	43	0	1130364928	22	5289
2026-01-17 09:01:16.64	350.87	9.29	-31.1	-34.3	9.8	1.20e-02	0	43	0	1132462080	22	5237
2026-01-17 09:01:17.64	350.79	9.21	-31.1	-34.4	9.7	1.15e-02	0	43	0	1133510656	22	5284
2026-01-17 09:01:18.64	350.70	9.14	-31.0	-34.1	10.0	8.86e-03	0	43	0	1135607808	22	5149
2026-01-17 09:01:19.64	350.61	9.07	-31.0	-34.1	10.0	8.40e-03	0	43	0	1137704960	22	5142
2026-01-17 09:01:20.64	350.53	9.00	-31.1	-34.4	9.7	1.38e-02	0	43	0	1139802112	22	5301
2026-01-17 09:01:21.64	350.45	8.92	-31.1	-34.3	9.7	9.97e-03	0	43	0	1141899264	22	5245
2026-01-17 09:01:22.63	350.36	8.85	-31.2	-35.0	9.3	1.41e-02	0	43	0	1142947840	22	5540
2026-01-17 09:01:23.63	350.28	8.78	-31.2	-34.7	9.5	1.41e-02	0	43	0	1145044992	22	5409
2026-01-17 09:01:24.64	350.19	8.71	-31.0	-34.2	9.8	1.14e-02	0	43	0	1147142144	22	5206
2026-01-17 09:01:25.65	350.11	8.64	-31.1	-34.5	9.6	9.20e-03	0	43	0	1149239296	22	5320
2026-01-17 09:01:26.65	350.03	8.56	-31.0	-34.1	9.8	1.30e-02	0	43	0	1150287872	22	5177
2026-01-17 09:01:27.65	349.95	8.49	-30.9	-34.0	10.0	1.29e-02	0	43	0	1152385024	22	5113
2026-01-17 09:01:28.65	349.87	8.42	-31.1	-34.8	9.3	1.16e-02	0	43	0	1154482176	22	5456
2026-01-17 09:01:29.66	349.78	8.35	-31.0	-34.4	9.6	1.42e-02	0	43	0	1156579328	22	5283
2026-01-17 09:01:30.66	349.70	8.28	-30.8	-33.7	10.1	8.20e-03	0	43	0	1158676480	22	4987
2026-01-17 09:01:31.66	349.62	8.21	-30.8	-33.6	10.2	4.68e-03	0	43	0	1159725056	22	4967
2026-01-17 09:01:32.66	349.54	8.14	-30.7	-33.2	10.5	4.66e-03	0	43	0	1161822208	22	4803
2026-01-17 09:01:33.66	349.46	8.07	-30.5	-32.6	10.9	2.21e-03	0	43	0	1163919360	22	4591
2026-01-17 09:01:34.67	349.38	7.99	-30.9	-33.7	10.1	6.88e-03	0	43	0	1166016512	22	5012
2026-01-17 09:01:35.67	349.31	7.92	-30.6	-33.0	10.6	2.97e-03	0	43	0	1168113664	22	4727
2026-01-17 09:01:36.66	349.23	7.85	-30.5	-32.5	11.0	2.48e-03	0	43	0	1169162240	22	4540
2026-01-17 09:01:37.66	349.15	7.78	-30.6	-32.7	10.8	2.88e-03	0	43	0	1171259392	22	4626
2026-01-17 09:01:38.66	349.07	7.71	-30.7	-33.2	10.5	2.25e-03	0	43	0	1173356544	22	4780
2026-01-17 09:01:39.66	349.00	7.64	-30.7	-33.1	10.6	5.60e-03	0	43	0	1175453696	22	4751
2026-01-17 09:01:40.66	348.92	7.57	-30.6	-32.9	10.7	3.93e-03	0	43	0	1177550848	22	4700
2026-01-17 09:01:41.67	348.84	7.50	-30.6	-32.8	10.7	2.89e-03	0	43	0	1178599424	22	4670
2026-01-17 09:01:42.67	348.77	7.44	-30.5	-32.6	10.9	2.64e-03	0	43	0	1180696576	22	4586
2026-01-17 09:01:43.67	348.69	7.37	-30.5	-32.5	10.9	2.68e-03	0	43	0	1182793728	22	4563
2026-01-17 09:01:44.67	348.62	7.30	-30.7	-33.4	10.2	5.26e-03	0	43	0	1184890880	22	4895
2026-01-17 09:01:45.67	348.54	7.23	-30.7	-33.3	10.3	6.05e-03	0	43	0	1185939456	22	4869
2026-01-17 09:01:46.67	348.47	7.16	-30.7	-33.3	10.2	5.82e-03	0	43	0	1188036608	22	4874
2026-01-17 09:01:47.67	348.39	7.09	-32.9	-44.9	3.7	3.01e-01	0	43	104	1190133760	25	14347
2026-01-17 09:01:48.68	348.32	7.02	-33.2	-45.5	3.8	1.49e+00	0	43	104	1190133760	26	14810
2026-01-17 09:01:49.68	348.25	6.95	-33.4	-46.0	3.8	1.49e+00	0	43	104	1190133760	26	15371
2026-01-17 09:01:50.68	348.17	6.88	-33.6	-46.0	3.8	1.49e+00	0	43	104	1190133760	27	14912

#Closed at: 2026-01-17 09:01:51
#Recorded file [1190 MB]: D:/data/31010_260117_115112.dat