passes_logs/2026/01/17/R2M6_AANII_01/R2M6_AANII_01__20260117_082212_NOAA_21_JPSS-2_rec.log

#Pass ID: 20260117_082212_NOAA 21 (JPSS-2)
#Satellite: NOAA 21 (JPSS-2)
#Configuration: NOAA 21
#almurnet v.1.7.20240730
#Start time: 2026-01-17 08:22:14

#Version: 2.2.20231116
#Station: R2M6_AANII_01
#Location: 30.233357 lon 59.946436 lat
#TLE: 1 54234U 22150A   26016.21096038  .00000027  00000+0  33607-4 0  9993
#TLE: 2 54234  98.7500 317.0960 0000625 282.3388  77.7718 14.19534911164985

#Time	Az	El	Level	Level2	SNR	BER	BlckErr	Temp	State	Recorded	gain1	gain2
2026-01-17 08:22:14.34	99.66	7.12	-31.3	-42.8	3.8	1.49e+00	0	41	0	0	23	13508
2026-01-17 08:22:15.34	99.57	7.18	-31.3	-42.8	3.8	1.49e+00	0	41	104	0	23	13499
2026-01-17 08:22:16.34	99.47	7.25	-31.2	-42.6	3.8	1.49e+00	0	41	104	0	23	13371
2026-01-17 08:22:17.34	99.38	7.31	-31.1	-42.4	3.8	1.49e+00	0	41	104	0	23	13186
2026-01-17 08:22:18.35	99.28	7.37	-31.0	-42.2	3.8	1.49e+00	0	41	104	0	23	13059
2026-01-17 08:22:19.35	99.19	7.44	-31.0	-42.1	3.8	1.49e+00	0	41	104	0	23	12986
2026-01-17 08:22:20.36	99.09	7.50	-30.8	-41.6	3.8	1.49e+00	0	41	104	0	23	12433
2026-01-17 08:22:21.37	98.99	7.57	-30.7	-41.2	3.8	1.49e+00	0	41	104	0	22	12022
2026-01-17 08:22:22.37	98.90	7.63	-30.6	-40.2	3.8	1.49e+00	0	41	104	0	22	10875
2026-01-17 08:22:23.38	98.80	7.70	-30.5	-39.2	3.9	1.49e+00	0	41	104	0	22	9795
2026-01-17 08:22:24.38	98.70	7.76	-30.3	-37.4	4.6	1.27e+00	0	41	104	0	22	8174
2026-01-17 08:22:25.38	98.61	7.83	-30.3	-37.6	4.0	1.27e+00	0	41	104	0	22	8354
2026-01-17 08:22:26.38	98.51	7.89	-30.4	-37.6	4.6	9.60e-01	0	41	104	0	22	8197
2026-01-17 08:22:27.38	98.41	7.96	-30.5	-39.2	3.9	1.48e+00	0	41	104	0	22	9780
2026-01-17 08:22:28.37	98.31	8.02	-30.7	-39.8	4.0	1.47e+00	0	41	104	0	22	10242
2026-01-17 08:22:29.37	98.21	8.08	-30.8	-40.9	3.8	1.49e+00	0	41	104	0	22	11488
2026-01-17 08:22:30.38	98.11	8.15	-30.8	-41.2	3.8	1.49e+00	0	41	104	0	22	11845
2026-01-17 08:22:31.38	98.01	8.22	-30.8	-41.1	3.8	1.49e+00	0	41	104	0	22	11796
2026-01-17 08:22:32.39	97.91	8.28	-30.9	-41.6	3.8	1.49e+00	0	41	104	0	22	12415
2026-01-17 08:22:33.39	97.81	8.35	-30.9	-42.2	3.8	1.49e+00	0	41	104	0	22	13125
2026-01-17 08:22:34.39	97.70	8.41	-30.9	-42.2	3.8	1.49e+00	0	41	104	0	22	13140
2026-01-17 08:22:35.39	97.60	8.48	-30.9	-42.5	3.8	1.49e+00	0	41	104	0	22	13630
2026-01-17 08:22:36.40	97.50	8.54	-30.9	-42.6	3.8	1.49e+00	0	41	104	0	22	13878
2026-01-17 08:22:37.40	97.40	8.61	-30.8	-42.2	3.8	1.49e+00	0	41	104	0	22	13365
2026-01-17 08:22:38.41	97.29	8.67	-30.8	-42.3	3.8	1.49e+00	0	41	104	0	22	13502
2026-01-17 08:22:39.41	97.19	8.74	-30.8	-42.4	3.8	1.49e+00	0	41	104	0	22	13646
2026-01-17 08:22:40.40	97.08	8.81	-30.8	-42.3	3.8	1.49e+00	0	41	104	0	22	13534
2026-01-17 08:22:41.41	96.98	8.87	-30.8	-42.2	3.8	1.49e+00	0	41	104	0	22	13450
2026-01-17 08:22:42.41	96.87	8.94	-30.8	-42.3	3.8	1.49e+00	0	42	104	0	22	13622
2026-01-17 08:22:43.41	96.76	9.00	-30.8	-42.4	3.8	1.49e+00	0	42	104	0	22	13698
2026-01-17 08:22:44.41	96.66	9.07	-30.8	-42.4	3.8	1.49e+00	0	42	104	0	22	13669
2026-01-17 08:22:45.41	96.55	9.14	-30.8	-42.3	3.8	1.49e+00	0	41	104	0	22	13585
2026-01-17 08:22:46.42	96.44	9.20	-30.7	-42.1	3.8	1.49e+00	0	42	104	0	22	13340
2026-01-17 08:22:47.42	96.33	9.27	-30.7	-42.0	3.8	1.49e+00	0	42	104	0	22	13266
2026-01-17 08:22:48.43	96.22	9.34	-30.6	-41.9	3.8	1.49e+00	0	42	104	0	22	13173
2026-01-17 08:22:49.42	96.12	9.40	-30.6	-41.9	3.8	1.49e+00	0	42	104	0	22	13247
2026-01-17 08:22:50.43	96.01	9.47	-30.6	-41.8	3.8	1.49e+00	0	41	104	0	22	13058
2026-01-17 08:22:51.42	95.90	9.54	-30.5	-41.5	3.8	1.49e+00	0	42	104	0	22	12690
2026-01-17 08:22:52.43	95.78	9.60	-30.5	-41.4	3.8	1.49e+00	0	42	104	0	22	12655
2026-01-17 08:22:53.43	95.67	9.67	-30.6	-41.4	3.8	1.49e+00	0	42	104	0	22	12517
2026-01-17 08:22:54.44	95.56	9.74	-30.6	-41.2	3.8	1.49e+00	0	42	104	0	22	12213
2026-01-17 08:22:55.44	95.45	9.81	-30.7	-41.0	3.8	1.49e+00	0	42	104	0	22	11814
2026-01-17 08:22:56.44	95.34	9.87	-30.7	-40.3	3.8	1.49e+00	0	42	104	0	22	10807
2026-01-17 08:22:57.45	95.22	9.94	-30.7	-39.4	4.0	1.48e+00	0	42	104	0	22	9774
2026-01-17 08:22:58.45	95.11	10.01	-30.7	-39.0	4.0	1.46e+00	0	42	104	0	22	9314
2026-01-17 08:22:59.45	94.99	10.07	-30.7	-37.4	5.0	7.73e-01	0	42	104	0	22	7792
2026-01-17 08:23:00.45	94.88	10.14	-30.7	-36.7	5.6	5.63e-01	0	42	0	1048576	22	7186
2026-01-17 08:23:01.45	94.76	10.21	-30.8	-36.7	5.8	4.10e-01	0	42	0	4194304	22	7130
2026-01-17 08:23:02.45	94.65	10.28	-31.0	-36.9	5.9	3.34e-01	0	42	0	7340032	22	7146
2026-01-17 08:23:03.45	94.53	10.34	-31.1	-37.2	5.9	3.60e-01	0	42	0	10485760	22	7301
2026-01-17 08:23:04.45	94.41	10.41	-31.3	-37.8	5.7	3.92e-01	0	42	0	13631488	22	7611
2026-01-17 08:23:05.45	94.29	10.48	-31.6	-38.6	5.2	5.37e-01	0	42	0	16777216	23	8027
2026-01-17 08:23:06.45	94.18	10.55	-31.8	-40.3	4.0	7.59e-01	0	42	104	18874368	23	9538
2026-01-17 08:23:07.46	94.06	10.62	-31.7	-38.6	5.3	1.46e+00	0	42	104	18874368	23	7938
2026-01-17 08:23:08.46	93.94	10.68	-31.6	-38.0	5.7	4.26e-01	0	42	0	18874368	23	7469
2026-01-17 08:23:09.46	93.82	10.75	-31.6	-37.5	6.0	3.43e-01	0	42	0	3145728	23	7177
2026-01-17 08:23:10.46	93.70	10.82	-31.7	-38.1	5.7	4.01e-01	0	42	0	6291456	23	7540
2026-01-17 08:23:11.46	93.58	10.89	-31.8	-38.7	5.5	5.14e-01	0	42	0	9437184	23	7916
2026-01-17 08:23:12.46	93.45	10.96	-31.8	-38.5	5.6	4.98e-01	0	42	0	12582912	23	7748
2026-01-17 08:23:13.46	93.33	11.02	-31.7	-38.0	5.8	3.96e-01	0	42	0	15728640	23	7450
2026-01-17 08:23:14.46	93.21	11.09	-31.8	-38.2	5.7	4.14e-01	0	42	0	18874368	23	7581
2026-01-17 08:23:15.47	93.08	11.16	-31.8	-38.5	5.6	4.69e-01	0	42	0	22020096	23	7719
2026-01-17 08:23:16.47	92.96	11.23	-31.9	-38.7	5.5	4.51e-01	0	42	0	25165824	23	7922
2026-01-17 08:23:17.47	92.84	11.30	-31.8	-38.3	5.7	4.33e-01	0	42	0	28311552	23	7610
2026-01-17 08:23:18.47	92.71	11.37	-31.9	-38.4	5.7	4.30e-01	0	42	0	31457280	23	7673
2026-01-17 08:23:19.47	92.59	11.44	-31.7	-37.8	6.1	3.11e-01	0	42	0	34603008	23	7263
2026-01-17 08:23:20.47	92.46	11.50	-31.7	-37.4	6.3	2.75e-01	0	42	0	37748736	23	7002
2026-01-17 08:23:21.47	92.33	11.57	-31.3	-36.0	7.4	1.58e-01	0	42	0	40894464	23	6140
2026-01-17 08:23:22.47	92.20	11.64	-31.1	-35.3	7.9	8.96e-02	0	42	0	44040192	23	5806
2026-01-17 08:23:23.47	92.08	11.71	-31.0	-34.6	8.4	4.64e-02	0	42	0	47185920	23	5495
2026-01-17 08:23:24.48	91.95	11.78	-30.5	-33.7	9.4	2.15e-02	0	42	0	50331648	22	5190
2026-01-17 08:23:25.48	91.82	11.85	-30.3	-33.0	9.9	1.02e-02	0	42	0	53477376	22	4929
2026-01-17 08:23:26.47	91.69	11.92	-29.5	-31.8	11.4	1.11e-03	0	42	0	56623104	20	4690
2026-01-17 08:23:27.48	91.56	11.99	-29.2	-31.5	12.0	4.88e-04	0	42	0	59768832	19	4663
2026-01-17 08:23:28.49	91.42	12.06	-29.1	-31.1	12.3	1.35e-04	0	42	0	62914560	19	4558
2026-01-17 08:23:29.49	91.29	12.13	-28.7	-30.6	12.9	9.68e-05	0	42	0	66060288	18	4503
2026-01-17 08:23:30.48	91.16	12.19	-28.6	-30.5	13.0	2.82e-05	0	42	0	69206016	18	4451
2026-01-17 08:23:31.49	91.03	12.26	-28.4	-29.8	13.5	1.44e-05	0	42	0	72351744	18	4263
2026-01-17 08:23:32.48	90.89	12.33	-28.4	-29.8	13.5	1.44e-05	0	42	0	75497472	18	4254
2026-01-17 08:23:33.48	90.76	12.40	-28.4	-29.8	13.5	1.83e-05	0	42	0	78643200	18	4238
2026-01-17 08:23:34.49	90.62	12.47	-28.4	-29.9	13.4	2.28e-05	0	42	0	81788928	18	4271
2026-01-17 08:23:35.49	90.49	12.54	-27.9	-29.3	14.1	5.30e-06	0	42	0	84934656	17	4212
2026-01-17 08:23:36.49	90.35	12.61	-27.7	-29.1	14.5	3.80e-06	0	42	0	88080384	16	4264
2026-01-17 08:23:37.49	90.21	12.68	-27.5	-28.8	14.6	0.00e+00	0	42	0	91226112	16	4181
2026-01-17 08:23:38.50	90.07	12.75	-27.5	-28.9	14.6	1.50e-06	0	42	0	94371840	16	4192
2026-01-17 08:23:39.50	89.94	12.82	-27.5	-28.8	14.7	2.20e-06	0	42	0	97517568	16	4161
2026-01-17 08:23:40.50	89.80	12.89	-27.7	-29.1	14.5	7.00e-07	0	42	0	100663296	16	4249
2026-01-17 08:23:41.50	89.66	12.96	-27.7	-29.2	14.5	0.00e+00	0	42	0	103809024	16	4271
2026-01-17 08:23:42.50	89.52	13.03	-27.6	-28.9	14.7	0.00e+00	0	42	0	106954752	16	4190
2026-01-17 08:23:43.50	89.38	13.10	-27.7	-29.3	14.4	0.00e+00	0	42	0	110100480	16	4318
2026-01-17 08:23:44.50	89.23	13.17	-27.4	-28.4	14.9	7.00e-07	0	43	0	113246208	16	4074
2026-01-17 08:23:45.50	89.09	13.24	-27.5	-28.8	14.7	7.00e-07	0	42	0	116391936	16	4173
2026-01-17 08:23:46.50	88.95	13.31	-27.6	-29.0	14.6	0.00e+00	0	42	0	118489088	16	4214
2026-01-17 08:23:47.51	88.80	13.38	-27.5	-28.7	14.8	7.00e-07	0	43	0	121634816	16	4150
2026-01-17 08:23:48.51	88.66	13.45	-27.5	-28.7	14.8	7.00e-07	0	43	0	124780544	16	4125
2026-01-17 08:23:49.51	88.51	13.52	-27.4	-28.5	15.0	0.00e+00	0	42	0	127926272	16	4074
2026-01-17 08:23:50.51	88.37	13.59	-27.2	-28.7	14.9	0.00e+00	0	43	0	131072000	15	4243
2026-01-17 08:23:51.52	88.22	13.66	-27.2	-28.6	15.0	0.00e+00	0	42	0	134217728	15	4222
2026-01-17 08:23:52.52	88.07	13.73	-27.4	-29.0	14.8	0.00e+00	0	42	0	137363456	15	4328
2026-01-17 08:23:53.52	87.93	13.80	-27.3	-28.9	14.8	7.00e-07	0	42	0	140509184	15	4294
2026-01-17 08:23:54.52	87.78	13.87	-27.3	-28.9	14.9	0.00e+00	0	43	0	143654912	15	4301
2026-01-17 08:23:55.52	87.63	13.94	-27.5	-29.3	14.6	2.20e-06	0	42	0	146800640	15	4433
2026-01-17 08:23:56.53	87.48	14.01	-27.6	-29.6	14.5	7.00e-07	0	43	0	149946368	15	4497
2026-01-17 08:23:57.53	87.33	14.08	-27.6	-29.4	14.5	7.00e-07	0	42	0	153092096	15	4461
2026-01-17 08:23:58.54	87.17	14.15	-27.8	-30.1	14.1	1.50e-06	0	42	0	156237824	15	4657
2026-01-17 08:23:59.53	87.02	14.22	-27.7	-29.7	14.4	2.20e-06	0	43	0	159383552	15	4551
2026-01-17 08:24:00.54	86.87	14.29	-27.8	-30.1	14.2	7.00e-07	0	42	0	162529280	15	4659
2026-01-17 08:24:01.54	86.71	14.36	-28.2	-30.4	13.9	3.00e-06	0	42	0	165675008	16	4626
2026-01-17 08:24:02.54	86.56	14.43	-28.2	-30.4	13.9	3.80e-06	0	43	0	168820736	16	4626
2026-01-17 08:24:03.54	86.40	14.50	-28.0	-29.8	14.3	3.00e-06	0	43	0	171966464	16	4435
2026-01-17 08:24:04.53	86.25	14.57	-27.9	-29.7	14.3	1.50e-06	0	43	0	175112192	16	4421
2026-01-17 08:24:05.53	86.09	14.63	-28.0	-29.8	14.3	1.50e-06	0	43	0	178257920	16	4433
2026-01-17 08:24:06.53	85.94	14.70	-28.1	-30.2	14.0	3.00e-06	0	43	0	181403648	16	4568
2026-01-17 08:24:07.54	85.78	14.77	-28.1	-30.1	14.1	0.00e+00	0	42	0	184549376	16	4532
2026-01-17 08:24:08.53	85.62	14.84	-28.2	-30.3	13.9	7.00e-07	0	42	0	187695104	16	4605
2026-01-17 08:24:09.54	85.46	14.91	-28.1	-30.1	14.1	3.80e-06	0	42	0	190840832	16	4543
2026-01-17 08:24:10.54	85.30	14.98	-27.9	-29.6	14.4	7.00e-07	0	43	0	193986560	16	4382
2026-01-17 08:24:11.54	85.14	15.05	-27.7	-29.2	14.7	7.00e-07	0	42	0	197132288	16	4268
2026-01-17 08:24:12.55	84.97	15.12	-27.7	-29.1	14.7	0.00e+00	0	42	0	200278016	16	4240
2026-01-17 08:24:13.55	84.81	15.19	-27.7	-29.1	14.7	1.50e-06	0	43	0	203423744	16	4251
2026-01-17 08:24:14.55	84.65	15.26	-27.6	-28.9	14.8	0.00e+00	0	42	0	206569472	16	4174
2026-01-17 08:24:15.56	84.48	15.33	-27.7	-29.1	14.8	0.00e+00	0	43	0	209715200	16	4236
2026-01-17 08:24:16.57	84.31	15.40	-27.7	-29.1	14.7	0.00e+00	0	43	0	212860928	16	4239
2026-01-17 08:24:17.57	84.15	15.47	-27.6	-28.9	14.9	7.00e-07	0	43	0	216006656	16	4175
2026-01-17 08:24:18.57	83.98	15.54	-27.9	-29.5	14.5	0.00e+00	0	43	0	219152384	16	4360
2026-01-17 08:24:19.58	83.81	15.61	-27.8	-29.3	14.6	7.00e-07	0	43	0	222298112	16	4308
2026-01-17 08:24:20.58	83.64	15.68	-27.5	-28.8	14.9	0.00e+00	0	43	0	225443840	16	4160
2026-01-17 08:24:21.58	83.48	15.75	-27.5	-28.7	15.0	0.00e+00	0	43	0	228589568	16	4142
2026-01-17 08:24:22.58	83.31	15.82	-27.3	-28.3	15.2	0.00e+00	0	43	0	231735296	16	4030
2026-01-17 08:24:23.58	83.14	15.89	-27.4	-28.5	15.1	0.00e+00	0	43	0	234881024	16	4075
2026-01-17 08:24:24.58	82.96	15.96	-27.3	-28.2	15.2	0.00e+00	0	43	0	238026752	16	4005
2026-01-17 08:24:25.59	82.79	16.03	-27.1	-28.4	15.3	0.00e+00	0	42	0	241172480	15	4149
2026-01-17 08:24:26.59	82.62	16.10	-27.1	-28.3	15.3	0.00e+00	0	43	0	244318208	15	4136
2026-01-17 08:24:27.59	82.44	16.16	-27.3	-28.8	15.0	0.00e+00	0	43	0	247463936	15	4258
2026-01-17 08:24:28.59	82.27	16.23	-27.3	-28.7	15.1	0.00e+00	0	43	0	250609664	15	4243
2026-01-17 08:24:29.59	82.09	16.30	-27.3	-28.7	15.1	0.00e+00	0	43	0	253755392	15	4254
2026-01-17 08:24:30.59	81.92	16.37	-27.6	-29.4	14.7	1.50e-06	0	43	0	256901120	15	4440
2026-01-17 08:24:31.60	81.74	16.44	-27.4	-28.9	15.0	0.00e+00	0	43	0	260046848	15	4302
2026-01-17 08:24:32.60	81.56	16.51	-27.3	-28.7	15.1	0.00e+00	0	43	0	263192576	15	4251
2026-01-17 08:24:33.60	81.38	16.58	-27.2	-28.5	15.2	0.00e+00	0	43	0	266338304	15	4202
2026-01-17 08:24:34.61	81.20	16.65	-27.2	-28.6	15.2	2.20e-06	0	43	0	269484032	15	4209
2026-01-17 08:24:35.61	81.02	16.71	-27.1	-28.2	15.4	7.00e-07	0	43	0	272629760	15	4099
2026-01-17 08:24:36.61	80.84	16.78	-27.2	-28.6	15.2	7.00e-07	0	43	0	275775488	15	4215
2026-01-17 08:24:37.62	80.66	16.85	-27.1	-28.4	15.3	0.00e+00	0	42	0	278921216	15	4153
2026-01-17 08:24:38.62	80.47	16.92	-27.2	-28.6	15.1	0.00e+00	0	42	0	282066944	15	4227
2026-01-17 08:24:39.62	80.29	16.99	-27.4	-29.1	14.9	0.00e+00	0	42	0	285212672	15	4350
2026-01-17 08:24:40.63	80.10	17.05	-27.4	-28.9	15.0	0.00e+00	0	43	0	288358400	15	4311
2026-01-17 08:24:41.63	79.92	17.12	-27.6	-29.4	14.7	0.00e+00	0	43	0	291504128	15	4437
2026-01-17 08:24:42.63	79.73	17.19	-27.6	-29.5	14.7	0.00e+00	0	43	0	294649856	15	4480
2026-01-17 08:24:43.64	79.54	17.26	-27.7	-29.7	14.6	3.80e-06	0	42	0	297795584	15	4518
2026-01-17 08:24:44.64	79.36	17.32	-27.6	-29.5	14.7	7.00e-07	0	43	0	300941312	15	4469
2026-01-17 08:24:45.64	79.17	17.39	-27.6	-29.4	14.7	0.00e+00	0	43	0	304087040	15	4440
2026-01-17 08:24:46.64	78.98	17.46	-27.5	-29.2	14.9	7.00e-07	0	43	0	307232768	15	4380
2026-01-17 08:24:47.65	78.79	17.52	-27.5	-29.1	14.9	0.00e+00	0	43	0	310378496	15	4356
2026-01-17 08:24:48.65	78.59	17.59	-27.7	-29.7	14.6	0.00e+00	0	43	0	313524224	15	4527
2026-01-17 08:24:49.65	78.40	17.66	-27.6	-29.4	14.8	6.80e-06	0	43	0	316669952	15	4439
2026-01-17 08:24:50.66	78.21	17.72	-27.8	-29.9	14.5	2.20e-06	0	43	0	319815680	15	4591
2026-01-17 08:24:51.66	78.01	17.79	-27.8	-29.8	14.6	0.00e+00	0	43	0	322961408	15	4549
2026-01-17 08:24:52.67	77.82	17.86	-27.5	-29.2	14.9	9.90e-06	0	43	0	326107136	15	4374
2026-01-17 08:24:53.67	77.62	17.92	-27.4	-29.0	15.0	0.00e+00	0	43	0	329252864	15	4312
2026-01-17 08:24:54.68	77.42	17.99	-27.4	-29.0	15.0	0.00e+00	0	43	0	332398592	15	4326
2026-01-17 08:24:55.68	77.23	18.05	-27.7	-29.8	14.6	6.80e-06	0	43	0	335544320	15	4548
2026-01-17 08:24:56.69	77.03	18.12	-27.6	-29.5	14.7	7.00e-07	0	43	0	338690048	15	4471
2026-01-17 08:24:57.68	76.83	18.18	-27.6	-29.4	14.8	0.00e+00	0	43	0	341835776	15	4438
2026-01-17 08:24:58.69	76.63	18.25	-27.5	-29.3	14.9	7.60e-06	0	43	0	344981504	15	4411
2026-01-17 08:24:59.69	76.43	18.31	-27.5	-29.1	15.0	0.00e+00	0	43	0	348127232	15	4365
2026-01-17 08:25:00.69	76.23	18.38	-27.5	-29.2	14.9	0.00e+00	0	43	0	351272960	15	4369
2026-01-17 08:25:01.69	76.02	18.44	-27.6	-29.6	14.7	0.00e+00	0	43	0	354418688	15	4487
2026-01-17 08:25:02.69	75.82	18.51	-27.7	-29.7	14.7	0.00e+00	0	43	0	357564416	15	4517
2026-01-17 08:25:03.70	75.61	18.57	-27.4	-29.0	15.0	0.00e+00	0	43	0	360710144	15	4326
2026-01-17 08:25:04.70	75.41	18.63	-27.7	-29.7	14.6	7.60e-06	0	43	0	363855872	15	4514
2026-01-17 08:25:05.71	75.20	18.70	-27.6	-29.5	14.8	7.00e-07	0	43	0	367001600	15	4470
2026-01-17 08:25:06.71	75.00	18.76	-27.5	-29.1	15.0	0.00e+00	0	43	0	370147328	15	4349
2026-01-17 08:25:07.72	74.79	18.82	-27.8	-29.8	14.6	7.00e-07	0	43	0	372244480	15	4550
2026-01-17 08:25:08.72	74.58	18.89	-27.7	-29.7	14.6	0.00e+00	0	43	0	375390208	15	4514
2026-01-17 08:25:09.72	74.37	18.95	-27.6	-29.3	14.9	0.00e+00	0	43	0	378535936	15	4417
2026-01-17 08:25:10.73	74.16	19.01	-27.3	-28.7	15.2	0.00e+00	0	43	0	381681664	15	4228
2026-01-17 08:25:11.73	73.95	19.07	-27.4	-28.9	15.1	0.00e+00	0	43	0	384827392	15	4279
2026-01-17 08:25:12.73	73.73	19.14	-27.2	-28.6	15.3	0.00e+00	0	43	0	387973120	15	4210
2026-01-17 08:25:13.72	73.52	19.20	-27.4	-29.0	15.0	0.00e+00	0	43	0	391118848	15	4327
2026-01-17 08:25:14.72	73.31	19.26	-27.2	-28.6	15.3	7.00e-07	0	43	0	394264576	15	4208
2026-01-17 08:25:15.72	73.10	19.32	-27.2	-28.5	15.4	0.00e+00	0	43	0	397410304	15	4177
2026-01-17 08:25:16.73	72.88	19.38	-27.2	-28.6	15.3	0.00e+00	0	43	0	400556032	15	4200
2026-01-17 08:25:17.73	72.66	19.44	-27.1	-28.3	15.4	0.00e+00	0	43	0	403701760	15	4127
2026-01-17 08:25:18.73	72.44	19.50	-27.1	-28.3	15.4	0.00e+00	0	43	0	406847488	15	4130
2026-01-17 08:25:19.73	72.23	19.56	-27.2	-28.5	15.3	0.00e+00	0	43	0	409993216	15	4174
2026-01-17 08:25:20.72	72.01	19.62	-27.1	-28.3	15.4	0.00e+00	0	43	0	413138944	15	4138
2026-01-17 08:25:21.72	71.79	19.68	-27.2	-28.5	15.4	0.00e+00	0	43	0	416284672	15	4173
2026-01-17 08:25:22.73	71.57	19.74	-27.1	-28.3	15.4	0.00e+00	0	43	0	419430400	15	4144
2026-01-17 08:25:23.74	71.35	19.80	-27.3	-28.7	15.3	0.00e+00	0	43	0	422576128	15	4224
2026-01-17 08:25:24.74	71.12	19.85	-27.1	-28.3	15.5	0.00e+00	0	43	0	425721856	15	4119
2026-01-17 08:25:25.74	70.90	19.91	-27.1	-28.2	15.5	0.00e+00	0	43	0	428867584	15	4092
2026-01-17 08:25:26.74	70.68	19.97	-27.1	-28.3	15.5	0.00e+00	0	43	0	432013312	15	4117
2026-01-17 08:25:27.74	70.45	20.03	-27.1	-28.2	15.5	0.00e+00	0	43	0	435159040	15	4109
2026-01-17 08:25:28.75	70.22	20.08	-26.9	-27.8	15.7	0.00e+00	0	43	0	438304768	15	4008
2026-01-17 08:25:29.76	70.00	20.14	-26.9	-27.8	15.8	0.00e+00	0	43	0	441450496	15	3990
2026-01-17 08:25:30.75	69.77	20.20	-26.8	-27.6	15.8	0.00e+00	0	43	0	444596224	15	3959
2026-01-17 08:25:31.76	69.54	20.25	-27.0	-28.0	15.7	0.00e+00	0	43	0	447741952	15	4036
2026-01-17 08:25:32.76	69.31	20.31	-26.8	-27.7	15.8	0.00e+00	0	43	0	450887680	15	3973
2026-01-17 08:25:33.77	69.08	20.36	-26.9	-27.9	15.7	0.00e+00	0	43	0	454033408	15	4027
2026-01-17 08:25:34.77	68.85	20.42	-26.8	-27.6	15.9	0.00e+00	0	43	0	457179136	15	3951
2026-01-17 08:25:35.77	68.62	20.47	-26.9	-27.8	15.8	0.00e+00	0	43	0	460324864	15	4000
2026-01-17 08:25:36.77	68.39	20.53	-26.9	-28.3	15.8	0.00e+00	0	43	0	463470592	14	4245
2026-01-17 08:25:37.77	68.15	20.58	-26.9	-28.3	15.7	0.00e+00	0	43	0	466616320	14	4244
2026-01-17 08:25:38.77	67.92	20.63	-27.1	-28.8	15.5	0.00e+00	0	43	0	469762048	14	4363
2026-01-17 08:25:39.78	67.68	20.69	-27.0	-28.5	15.7	0.00e+00	0	43	0	472907776	14	4299
2026-01-17 08:25:40.77	67.45	20.74	-27.0	-28.5	15.7	0.00e+00	0	43	0	476053504	14	4296
2026-01-17 08:25:41.77	67.21	20.79	-27.0	-28.5	15.7	0.00e+00	0	43	0	479199232	14	4294
2026-01-17 08:25:42.77	66.98	20.84	-27.0	-28.5	15.7	0.00e+00	0	43	0	482344960	14	4280
2026-01-17 08:25:43.77	66.74	20.89	-27.2	-29.1	15.4	0.00e+00	0	43	0	485490688	14	4448
2026-01-17 08:25:44.77	66.50	20.94	-27.1	-28.7	15.6	0.00e+00	0	43	0	488636416	14	4332
2026-01-17 08:25:45.77	66.26	21.00	-27.0	-28.5	15.7	0.00e+00	0	43	0	491782144	14	4274
2026-01-17 08:25:46.77	66.02	21.05	-27.0	-28.5	15.7	0.00e+00	0	43	0	494927872	14	4273
2026-01-17 08:25:47.78	65.78	21.10	-26.7	-27.9	16.0	0.00e+00	0	43	0	498073600	14	4131
2026-01-17 08:25:48.78	65.54	21.14	-26.7	-27.9	16.0	0.00e+00	0	43	0	501219328	14	4134
2026-01-17 08:25:49.78	65.29	21.19	-26.6	-27.5	16.2	0.00e+00	0	43	0	504365056	14	4031
2026-01-17 08:25:50.77	65.05	21.24	-26.5	-27.4	16.2	0.00e+00	0	43	0	507510784	14	3998
2026-01-17 08:25:51.78	64.81	21.29	-26.5	-27.4	16.2	0.00e+00	0	43	0	510656512	14	4001
2026-01-17 08:25:52.77	64.56	21.34	-26.4	-27.1	16.4	0.00e+00	0	43	0	513802240	14	3927
2026-01-17 08:25:53.78	64.32	21.38	-26.4	-27.2	16.4	0.00e+00	0	43	0	516947968	14	3943
2026-01-17 08:25:54.79	64.07	21.43	-26.5	-27.4	16.3	0.00e+00	0	43	0	520093696	14	3991
2026-01-17 08:25:55.78	63.82	21.47	-26.6	-27.6	16.1	0.00e+00	0	43	0	523239424	14	4058
2026-01-17 08:25:56.79	63.57	21.52	-26.7	-27.8	16.1	0.00e+00	0	43	0	526385152	14	4087
2026-01-17 08:25:57.79	63.32	21.57	-26.7	-27.9	16.0	0.00e+00	0	43	0	529530880	14	4121
2026-01-17 08:25:58.79	63.08	21.61	-26.7	-27.8	16.1	0.00e+00	0	43	0	532676608	14	4089
2026-01-17 08:25:59.79	62.83	21.65	-26.7	-27.8	16.1	0.00e+00	0	43	0	535822336	14	4095
2026-01-17 08:26:00.79	62.58	21.70	-26.6	-27.7	16.2	0.00e+00	0	43	0	538968064	14	4061
2026-01-17 08:26:01.79	62.32	21.74	-26.6	-27.7	16.1	0.00e+00	0	43	0	542113792	14	4078
2026-01-17 08:26:02.80	62.07	21.78	-26.8	-28.1	15.9	0.00e+00	0	43	0	545259520	14	4171
2026-01-17 08:26:03.81	61.81	21.82	-26.7	-27.9	16.0	0.00e+00	0	43	0	548405248	14	4137
2026-01-17 08:26:04.81	61.56	21.87	-26.7	-27.9	16.1	0.00e+00	0	43	0	551550976	14	4124
2026-01-17 08:26:05.80	61.31	21.91	-26.7	-27.9	16.0	0.00e+00	0	43	0	554696704	14	4128
2026-01-17 08:26:06.81	61.05	21.95	-26.8	-28.1	15.9	0.00e+00	0	43	0	557842432	14	4188
2026-01-17 08:26:07.81	60.80	21.99	-26.8	-28.1	15.9	0.00e+00	0	43	0	560988160	14	4164
2026-01-17 08:26:08.81	60.54	22.03	-26.9	-28.2	15.8	0.00e+00	0	43	0	564133888	14	4215
2026-01-17 08:26:09.81	60.29	22.06	-27.0	-28.6	15.7	0.00e+00	0	43	0	567279616	14	4308
2026-01-17 08:26:10.81	60.03	22.10	-27.0	-28.5	15.7	0.00e+00	0	43	0	570425344	14	4273
2026-01-17 08:26:11.81	59.77	22.14	-26.9	-28.2	15.9	0.00e+00	0	43	0	573571072	14	4208
2026-01-17 08:26:12.82	59.51	22.18	-26.7	-28.0	16.0	0.00e+00	0	43	0	576716800	14	4140
2026-01-17 08:26:13.83	59.25	22.21	-26.9	-28.3	15.8	0.00e+00	0	43	0	578813952	14	4223
2026-01-17 08:26:14.84	58.99	22.25	-26.9	-28.3	15.8	0.00e+00	0	43	0	581959680	14	4224
2026-01-17 08:26:15.84	58.73	22.28	-27.3	-29.1	15.4	0.00e+00	0	43	0	586153984	14	4458
2026-01-17 08:26:16.84	58.46	22.32	-27.1	-28.7	15.6	0.00e+00	0	43	0	589299712	14	4329
2026-01-17 08:26:17.84	58.20	22.35	-26.8	-28.1	15.9	0.00e+00	0	43	0	592445440	14	4182
2026-01-17 08:26:18.84	57.94	22.39	-26.7	-27.8	16.1	0.00e+00	0	43	0	595591168	14	4088
2026-01-17 08:26:19.84	57.68	22.42	-26.6	-27.7	16.2	0.00e+00	0	43	0	598736896	14	4060
2026-01-17 08:26:20.85	57.41	22.45	-26.7	-27.8	16.1	0.00e+00	0	43	0	600834048	14	4096
2026-01-17 08:26:21.84	57.15	22.48	-26.6	-27.7	16.1	0.00e+00	0	43	0	603979776	14	4084
2026-01-17 08:26:22.83	56.89	22.51	-26.7	-27.8	16.1	0.00e+00	0	43	0	607125504	14	4093
2026-01-17 08:26:23.84	56.62	22.54	-26.7	-27.8	16.1	7.00e-07	0	43	0	610271232	14	4084
2026-01-17 08:26:24.83	56.36	22.57	-26.7	-27.8	16.1	0.00e+00	0	43	0	613416960	14	4104
2026-01-17 08:26:25.84	56.09	22.60	-26.9	-28.2	15.9	0.00e+00	0	43	0	616562688	14	4201
2026-01-17 08:26:26.84	55.83	22.63	-26.8	-28.0	16.0	0.00e+00	0	43	0	619708416	14	4146
2026-01-17 08:26:27.84	55.56	22.66	-26.7	-27.7	16.1	0.00e+00	0	43	0	622854144	14	4081
2026-01-17 08:26:28.83	55.30	22.68	-26.6	-27.7	16.1	0.00e+00	0	43	0	625999872	14	4079
2026-01-17 08:26:29.84	55.03	22.71	-26.6	-27.6	16.2	0.00e+00	0	43	0	629145600	14	4053
2026-01-17 08:26:30.84	54.76	22.74	-26.5	-27.4	16.3	0.00e+00	0	43	0	632291328	14	3992
2026-01-17 08:26:31.84	54.49	22.76	-26.7	-27.8	16.2	0.00e+00	0	43	0	635437056	14	4081
2026-01-17 08:26:32.85	54.22	22.79	-26.7	-27.9	16.1	0.00e+00	0	43	0	638582784	14	4117
2026-01-17 08:26:33.85	53.95	22.81	-26.8	-28.1	15.9	0.00e+00	0	43	0	641728512	14	4171
2026-01-17 08:26:34.85	53.68	22.83	-26.8	-28.1	15.9	0.00e+00	0	43	0	644874240	14	4186
2026-01-17 08:26:35.86	53.41	22.86	-26.9	-28.3	15.8	0.00e+00	0	43	0	648019968	14	4240
2026-01-17 08:26:36.86	53.14	22.88	-26.9	-28.3	15.9	0.00e+00	0	43	0	651165696	14	4238
2026-01-17 08:26:37.86	52.86	22.90	-26.9	-28.3	15.8	0.00e+00	0	43	0	654311424	14	4243
2026-01-17 08:26:38.87	52.59	22.92	-26.9	-28.4	15.8	0.00e+00	0	43	0	657457152	14	4253
2026-01-17 08:26:39.87	52.32	22.94	-26.8	-28.1	15.9	0.00e+00	0	43	0	660602880	14	4170
2026-01-17 08:26:40.87	52.05	22.96	-26.8	-28.1	16.0	0.00e+00	0	43	0	663748608	14	4169
2026-01-17 08:26:41.87	51.77	22.98	-26.7	-27.9	16.1	0.00e+00	0	43	0	666894336	14	4120
2026-01-17 08:26:42.87	51.50	23.00	-26.8	-28.1	16.0	0.00e+00	0	43	0	670040064	14	4165
2026-01-17 08:26:43.87	51.23	23.01	-26.7	-27.9	16.0	0.00e+00	0	43	0	673185792	14	4126
2026-01-17 08:26:44.88	50.95	23.03	-26.8	-28.1	15.9	0.00e+00	0	43	0	676331520	14	4184
2026-01-17 08:26:45.88	50.68	23.05	-26.7	-27.9	16.1	0.00e+00	0	43	0	679477248	14	4125
2026-01-17 08:26:46.88	50.41	23.06	-26.6	-27.7	16.2	0.00e+00	0	43	0	682622976	14	4070
2026-01-17 08:26:47.89	50.13	23.07	-26.7	-28.0	16.0	0.00e+00	0	43	0	685768704	14	4138
2026-01-17 08:26:48.89	49.86	23.09	-26.9	-28.4	15.8	0.00e+00	0	43	0	688914432	14	4263
2026-01-17 08:26:49.89	49.58	23.10	-26.7	-28.0	16.1	0.00e+00	0	43	0	692060160	14	4137
2026-01-17 08:26:50.89	49.31	23.11	-26.9	-28.2	15.9	0.00e+00	0	43	0	695205888	14	4196
2026-01-17 08:26:51.90	49.03	23.13	-26.7	-27.9	16.0	0.00e+00	0	43	0	698351616	14	4117
2026-01-17 08:26:52.90	48.75	23.14	-26.8	-28.0	16.0	0.00e+00	0	43	0	701497344	14	4140
2026-01-17 08:26:53.90	48.48	23.15	-26.9	-28.3	15.8	0.00e+00	0	43	0	704643072	14	4225
2026-01-17 08:26:54.90	48.20	23.16	-26.9	-28.2	15.9	0.00e+00	0	43	0	707788800	14	4209
2026-01-17 08:26:55.90	47.93	23.16	-26.8	-28.0	16.0	0.00e+00	0	43	0	710934528	14	4151
2026-01-17 08:26:56.90	47.65	23.17	-26.7	-27.8	16.1	0.00e+00	0	43	0	714080256	14	4099
2026-01-17 08:26:57.90	47.38	23.18	-26.7	-27.7	16.1	0.00e+00	0	43	0	717225984	14	4080
2026-01-17 08:26:58.90	47.10	23.19	-26.8	-28.0	16.0	0.00e+00	0	43	0	720371712	14	4154
2026-01-17 08:26:59.91	46.82	23.19	-26.7	-27.8	16.1	0.00e+00	0	43	0	723517440	14	4099
2026-01-17 08:27:00.91	46.55	23.20	-26.7	-27.9	16.1	0.00e+00	0	43	0	726663168	14	4106
2026-01-17 08:27:01.92	46.27	23.20	-26.8	-28.1	16.0	0.00e+00	0	43	0	729808896	14	4170
2026-01-17 08:27:02.93	45.99	23.21	-26.8	-28.1	16.0	0.00e+00	0	43	0	732954624	14	4167
2026-01-17 08:27:03.93	45.71	23.21	-26.9	-28.3	15.9	0.00e+00	0	43	0	736100352	14	4216
2026-01-17 08:27:04.93	45.44	23.21	-27.0	-28.6	15.7	7.00e-07	0	43	0	739246080	14	4300
2026-01-17 08:27:05.93	45.16	23.21	-27.1	-28.6	15.7	0.00e+00	0	43	0	742391808	14	4309
2026-01-17 08:27:06.94	44.88	23.21	-26.8	-28.2	15.9	0.00e+00	0	43	0	745537536	14	4186
2026-01-17 08:27:07.94	44.60	23.21	-26.9	-28.2	15.9	0.00e+00	0	43	0	748683264	14	4208
2026-01-17 08:27:08.94	44.33	23.21	-27.3	-29.2	15.3	0.00e+00	0	43	0	751828992	14	4491
2026-01-17 08:27:09.94	44.05	23.21	-27.0	-28.5	15.7	0.00e+00	0	43	0	754974720	14	4287
2026-01-17 08:27:10.94	43.77	23.21	-27.0	-28.4	15.8	0.00e+00	0	43	0	758120448	14	4263
2026-01-17 08:27:11.95	43.50	23.21	-27.9	-30.1	14.6	0.00e+00	0	43	0	761266176	15	4631
2026-01-17 08:27:12.95	43.22	23.20	-27.7	-29.1	15.0	0.00e+00	0	43	0	764411904	16	4215
2026-01-17 08:27:13.95	42.94	23.20	-26.8	-27.6	15.9	0.00e+00	0	43	0	767557632	15	3947
2026-01-17 08:27:14.95	42.67	23.19	-26.9	-28.3	15.9	0.00e+00	0	43	0	770703360	14	4223
2026-01-17 08:27:15.95	42.39	23.19	-27.1	-28.7	15.6	0.00e+00	0	43	0	773849088	14	4324
2026-01-17 08:27:16.96	42.11	23.18	-26.9	-28.3	15.8	0.00e+00	0	43	0	776994816	14	4236
2026-01-17 08:27:17.95	41.84	23.17	-26.8	-28.0	16.0	0.00e+00	0	43	0	780140544	14	4143
2026-01-17 08:27:18.95	41.56	23.17	-26.7	-27.7	16.1	0.00e+00	0	43	0	783286272	14	4079
2026-01-17 08:27:19.95	41.29	23.16	-26.8	-28.1	16.0	0.00e+00	0	43	0	786432000	14	4169
2026-01-17 08:27:20.96	41.01	23.15	-26.8	-28.2	15.9	0.00e+00	0	43	0	789577728	14	4188
2026-01-17 08:27:21.96	40.74	23.14	-26.6	-27.6	16.2	0.00e+00	0	43	0	792723456	14	4054
2026-01-17 08:27:22.96	40.46	23.13	-26.7	-27.8	16.1	0.00e+00	0	43	0	795869184	14	4106
2026-01-17 08:27:23.96	40.19	23.12	-26.6	-27.6	16.2	0.00e+00	0	43	0	799014912	14	4053
2026-01-17 08:27:24.97	39.91	23.10	-26.6	-27.5	16.2	0.00e+00	0	43	0	802160640	14	4026
2026-01-17 08:27:25.97	39.63	23.09	-26.6	-27.5	16.2	0.00e+00	0	43	0	805306368	14	4027
2026-01-17 08:27:26.98	39.36	23.08	-26.7	-27.8	16.1	0.00e+00	0	43	0	807403520	14	4096
2026-01-17 08:27:27.98	39.08	23.06	-26.4	-27.3	16.4	0.00e+00	0	43	0	810549248	14	3954
2026-01-17 08:27:28.98	38.81	23.05	-26.4	-27.1	16.5	0.00e+00	0	43	0	813694976	14	3920
2026-01-17 08:27:29.97	38.54	23.03	-26.4	-27.1	16.5	0.00e+00	0	43	0	816840704	14	3923
2026-01-17 08:27:30.96	38.27	23.02	-26.4	-27.3	16.4	0.00e+00	0	43	0	819986432	14	3965
2026-01-17 08:27:31.96	38.00	23.00	-26.5	-27.5	16.3	0.00e+00	0	43	0	823132160	14	4008
2026-01-17 08:27:32.96	37.73	22.98	-26.5	-27.4	16.3	0.00e+00	0	43	0	826277888	14	4006
2026-01-17 08:27:33.96	37.45	22.96	-26.5	-27.3	16.4	0.00e+00	0	43	0	829423616	14	3968
2026-01-17 08:27:34.97	37.18	22.95	-26.5	-27.4	16.3	0.00e+00	0	43	0	832569344	14	4004
2026-01-17 08:27:35.97	36.91	22.93	-26.5	-27.4	16.3	0.00e+00	0	43	0	835715072	14	3999
2026-01-17 08:27:36.97	36.64	22.91	-26.5	-27.3	16.4	0.00e+00	0	43	0	838860800	14	3967
2026-01-17 08:27:37.98	36.36	22.88	-26.7	-27.8	16.1	0.00e+00	0	43	0	842006528	14	4094
2026-01-17 08:27:38.97	36.10	22.86	-26.6	-27.6	16.2	0.00e+00	0	43	0	845152256	14	4049
2026-01-17 08:27:39.98	35.82	22.84	-26.7	-27.8	16.1	0.00e+00	0	43	0	848297984	14	4097
2026-01-17 08:27:40.98	35.55	22.82	-26.7	-27.9	16.0	0.00e+00	0	43	0	851443712	14	4120
2026-01-17 08:27:41.98	35.28	22.79	-26.9	-28.2	15.9	0.00e+00	0	43	0	854589440	14	4213
2026-01-17 08:27:42.98	35.02	22.77	-26.8	-28.0	16.0	0.00e+00	0	43	0	857735168	14	4144
2026-01-17 08:27:43.98	34.75	22.74	-26.6	-27.7	16.2	0.00e+00	0	43	0	860880896	14	4063
2026-01-17 08:27:44.98	34.48	22.72	-26.5	-27.3	16.4	0.00e+00	0	43	0	864026624	14	3971
2026-01-17 08:27:45.99	34.21	22.69	-26.6	-27.5	16.2	0.00e+00	0	43	0	867172352	14	4028
2026-01-17 08:27:46.98	33.95	22.67	-26.5	-27.3	16.3	0.00e+00	0	43	0	870318080	14	3976
2026-01-17 08:27:47.99	33.68	22.64	-26.6	-27.6	16.2	0.00e+00	0	43	0	873463808	14	4045
2026-01-17 08:27:48.99	33.41	22.61	-26.4	-27.2	16.4	0.00e+00	0	43	0	876609536	14	3932
2026-01-17 08:27:49.99	33.15	22.58	-26.3	-27.0	16.5	0.00e+00	0	43	0	879755264	14	3898
2026-01-17 08:27:51.00	32.88	22.55	-26.4	-27.2	16.4	0.00e+00	0	43	0	882900992	14	3940
2026-01-17 08:27:52.00	32.61	22.52	-26.4	-27.2	16.4	0.00e+00	0	43	0	886046720	14	3940
2026-01-17 08:27:53.00	32.35	22.49	-26.6	-27.6	16.2	0.00e+00	0	43	0	889192448	14	4053
2026-01-17 08:27:54.01	32.08	22.46	-26.8	-28.0	15.9	0.00e+00	0	43	0	892338176	14	4157
2026-01-17 08:27:55.01	31.82	22.43	-26.7	-27.9	16.0	0.00e+00	0	43	0	895483904	14	4131
2026-01-17 08:27:56.01	31.56	22.39	-26.7	-27.7	16.1	0.00e+00	0	43	0	898629632	14	4080
2026-01-17 08:27:57.00	31.30	22.36	-26.6	-27.6	16.2	0.00e+00	0	43	0	901775360	14	4031
2026-01-17 08:27:58.01	31.04	22.33	-26.6	-27.6	16.2	0.00e+00	0	43	0	904921088	14	4052
2026-01-17 08:27:59.01	30.78	22.29	-27.0	-28.4	15.7	0.00e+00	0	43	0	908066816	14	4265
2026-01-17 08:28:00.01	30.52	22.26	-26.9	-28.2	15.8	0.00e+00	0	43	0	911212544	14	4210
2026-01-17 08:28:01.01	30.26	22.22	-27.0	-28.5	15.6	0.00e+00	0	43	0	914358272	14	4297
2026-01-17 08:28:02.01	30.00	22.19	-27.1	-28.7	15.6	0.00e+00	0	43	0	917504000	14	4337
2026-01-17 08:28:03.01	29.74	22.15	-27.1	-28.7	15.6	0.00e+00	0	43	0	920649728	14	4332
2026-01-17 08:28:04.01	29.48	22.11	-27.1	-28.8	15.5	0.00e+00	0	43	0	923795456	14	4360
2026-01-17 08:28:05.01	29.23	22.08	-27.0	-28.6	15.7	0.00e+00	0	43	0	926941184	14	4308
2026-01-17 08:28:06.02	28.97	22.04	-27.4	-29.5	15.1	0.00e+00	0	43	0	930086912	14	4557
2026-01-17 08:28:07.02	28.71	22.00	-27.2	-29.0	15.4	0.00e+00	0	43	0	933232640	14	4434
2026-01-17 08:28:08.02	28.46	21.96	-27.4	-29.5	15.1	7.00e-07	0	43	0	936378368	14	4557
2026-01-17 08:28:09.02	28.20	21.92	-27.8	-29.8	14.7	7.00e-07	0	43	0	939524096	15	4543
2026-01-17 08:28:10.01	27.95	21.88	-27.7	-29.5	14.8	0.00e+00	0	43	0	942669824	15	4470
2026-01-17 08:28:11.02	27.70	21.84	-28.7	-30.9	13.6	3.00e-06	0	43	0	945815552	17	4644
2026-01-17 08:28:12.01	27.45	21.80	-28.2	-29.7	14.3	1.50e-06	0	43	0	948961280	17	4291
2026-01-17 08:28:13.01	27.20	21.75	-28.0	-29.2	14.6	0.00e+00	0	43	0	952107008	17	4155
2026-01-17 08:28:14.01	26.94	21.71	-28.1	-29.4	14.4	7.00e-07	0	43	0	955252736	17	4217
2026-01-17 08:28:15.01	26.69	21.67	-28.0	-29.3	14.5	7.00e-07	0	43	0	958398464	17	4179
2026-01-17 08:28:16.02	26.44	21.62	-27.6	-28.9	15.0	0.00e+00	0	43	0	961544192	16	4181
2026-01-17 08:28:17.02	26.19	21.58	-27.9	-29.5	14.7	0.00e+00	0	43	0	964689920	16	4333
2026-01-17 08:28:18.02	25.95	21.54	-27.8	-29.3	14.8	0.00e+00	0	43	0	967835648	16	4270
2026-01-17 08:28:19.02	25.70	21.49	-28.4	-30.8	13.9	2.20e-06	0	43	0	970981376	16	4743
2026-01-17 08:28:20.02	25.45	21.45	-28.5	-30.4	13.9	6.80e-06	0	43	0	974127104	17	4499
2026-01-17 08:28:21.02	25.21	21.40	-29.1	-31.4	13.0	2.51e-05	0	43	0	977272832	18	4710
2026-01-17 08:28:22.03	24.96	21.35	-28.1	-29.5	14.4	2.20e-06	0	43	0	980418560	17	4242
2026-01-17 08:28:23.03	24.71	21.31	-27.6	-28.9	15.0	0.00e+00	0	43	0	983564288	16	4177
2026-01-17 08:28:24.04	24.47	21.26	-27.3	-28.2	15.4	0.00e+00	0	43	0	986710016	16	3975
2026-01-17 08:28:25.04	24.23	21.21	-26.8	-27.5	15.9	0.00e+00	0	43	0	989855744	15	3921
2026-01-17 08:28:26.04	23.98	21.16	-26.6	-27.5	16.2	0.00e+00	0	43	0	993001472	14	4028
2026-01-17 08:28:27.04	23.74	21.11	-26.5	-27.3	16.3	0.00e+00	0	43	0	996147200	14	3976
2026-01-17 08:28:28.05	23.50	21.06	-26.6	-27.6	16.2	7.00e-07	0	43	0	999292928	14	4034
2026-01-17 08:28:29.05	23.26	21.01	-26.6	-27.6	16.1	0.00e+00	0	43	0	1002438656	14	4056
2026-01-17 08:28:30.05	23.02	20.96	-26.8	-28.2	15.8	0.00e+00	0	43	0	1005584384	14	4196
2026-01-17 08:28:31.05	22.78	20.91	-27.0	-28.5	15.6	0.00e+00	0	43	0	1008730112	14	4277
2026-01-17 08:28:32.05	22.55	20.86	-27.1	-28.7	15.5	0.00e+00	0	43	0	1011875840	14	4358
2026-01-17 08:28:33.06	22.31	20.81	-27.1	-28.8	15.5	0.00e+00	0	43	0	1013972992	14	4368
2026-01-17 08:28:34.05	22.07	20.76	-27.2	-28.9	15.4	0.00e+00	0	43	0	1017118720	14	4414
2026-01-17 08:28:35.05	21.84	20.71	-27.0	-28.6	15.6	0.00e+00	0	43	0	1020264448	14	4307
2026-01-17 08:28:36.05	21.61	20.65	-27.0	-28.6	15.6	0.00e+00	0	43	0	1023410176	14	4308
2026-01-17 08:28:37.05	21.37	20.60	-26.9	-28.4	15.7	0.00e+00	0	43	0	1026555904	14	4246
2026-01-17 08:28:38.06	21.14	20.55	-27.0	-28.6	15.5	0.00e+00	0	43	0	1029701632	14	4315
2026-01-17 08:28:39.06	20.91	20.49	-26.8	-28.1	15.8	0.00e+00	0	43	0	1032847360	14	4184
2026-01-17 08:28:40.07	20.67	20.44	-26.7	-28.0	15.9	0.00e+00	0	43	0	1035993088	14	4139
2026-01-17 08:28:41.07	20.44	20.38	-26.8	-28.1	15.8	0.00e+00	0	43	0	1039138816	14	4173
2026-01-17 08:28:42.07	20.21	20.33	-26.9	-28.3	15.7	0.00e+00	0	43	0	1042284544	14	4240
2026-01-17 08:28:43.07	19.99	20.27	-26.9	-28.4	15.7	7.00e-07	0	43	0	1045430272	14	4247
2026-01-17 08:28:44.08	19.76	20.22	-27.2	-28.9	15.4	0.00e+00	0	43	0	1048576000	14	4396
2026-01-17 08:28:45.08	19.53	20.16	-27.0	-28.5	15.6	0.00e+00	0	43	0	1051721728	14	4301
2026-01-17 08:28:46.08	19.30	20.11	-26.8	-28.0	15.9	0.00e+00	0	43	0	1054867456	14	4161
2026-01-17 08:28:47.08	19.08	20.05	-26.7	-27.9	15.9	0.00e+00	0	43	0	1058013184	14	4130
2026-01-17 08:28:48.09	18.85	19.99	-26.9	-28.2	15.8	0.00e+00	0	43	0	1061158912	14	4206
2026-01-17 08:28:49.07	18.63	19.94	-26.8	-28.1	15.8	0.00e+00	0	43	0	1064304640	14	4181
2026-01-17 08:28:50.07	18.41	19.88	-27.1	-28.7	15.5	7.00e-07	0	43	0	1067450368	14	4344
2026-01-17 08:28:51.08	18.19	19.82	-27.2	-29.0	15.3	0.00e+00	0	43	0	1070596096	14	4419
2026-01-17 08:28:52.08	17.97	19.76	-27.3	-29.2	15.2	0.00e+00	0	43	0	1073741824	14	4475
2026-01-17 08:28:53.08	17.75	19.70	-27.0	-28.6	15.5	0.00e+00	0	43	0	1076887552	14	4314
2026-01-17 08:28:54.09	17.53	19.64	-26.8	-28.2	15.8	0.00e+00	0	43	0	1080033280	14	4205
2026-01-17 08:28:55.09	17.31	19.58	-26.8	-28.1	15.8	0.00e+00	0	43	0	1083179008	14	4165
2026-01-17 08:28:56.10	17.09	19.52	-26.8	-28.2	15.7	0.00e+00	0	43	0	1086324736	14	4203
2026-01-17 08:28:57.10	16.87	19.46	-26.6	-27.7	16.0	0.00e+00	0	43	0	1089470464	14	4079
2026-01-17 08:28:58.10	16.66	19.40	-26.6	-27.7	16.0	0.00e+00	0	43	0	1092616192	14	4071
2026-01-17 08:28:59.10	16.44	19.34	-26.8	-28.0	15.8	0.00e+00	0	43	0	1095761920	14	4148
2026-01-17 08:29:00.10	16.23	19.28	-26.9	-28.3	15.7	0.00e+00	0	43	0	1098907648	14	4233
2026-01-17 08:29:01.11	16.01	19.22	-26.8	-28.0	15.8	0.00e+00	0	43	0	1102053376	14	4153
2026-01-17 08:29:02.11	15.80	19.16	-26.9	-28.2	15.7	0.00e+00	0	43	0	1105199104	14	4218
2026-01-17 08:29:03.11	15.59	19.10	-27.0	-28.6	15.5	0.00e+00	0	43	0	1108344832	14	4323
2026-01-17 08:29:04.11	15.38	19.04	-27.2	-29.0	15.3	0.00e+00	0	43	0	1111490560	14	4443
2026-01-17 08:29:05.11	15.17	18.98	-27.2	-28.9	15.3	0.00e+00	0	43	0	1114636288	14	4399
2026-01-17 08:29:06.12	14.96	18.91	-27.0	-28.7	15.5	0.00e+00	0	43	0	1117782016	14	4334
2026-01-17 08:29:07.12	14.75	18.85	-27.1	-28.7	15.4	0.00e+00	0	43	0	1120927744	14	4363
2026-01-17 08:29:08.12	14.55	18.79	-26.9	-28.4	15.6	0.00e+00	0	43	0	1124073472	14	4272
2026-01-17 08:29:09.11	14.34	18.73	-27.0	-28.6	15.5	0.00e+00	0	43	0	1127219200	14	4319
2026-01-17 08:29:10.12	14.13	18.66	-26.9	-28.4	15.6	0.00e+00	0	43	0	1130364928	14	4276
2026-01-17 08:29:11.11	13.93	18.60	-27.1	-28.7	15.4	0.00e+00	0	43	0	1133510656	14	4357
2026-01-17 08:29:12.11	13.73	18.54	-26.9	-28.3	15.6	0.00e+00	0	43	0	1136656384	14	4247
2026-01-17 08:29:13.12	13.52	18.47	-26.8	-28.1	15.7	0.00e+00	0	43	0	1139802112	14	4186
2026-01-17 08:29:14.13	13.32	18.41	-26.8	-28.0	15.8	0.00e+00	0	43	0	1142947840	14	4151
2026-01-17 08:29:15.13	13.12	18.34	-26.9	-28.3	15.6	0.00e+00	0	43	0	1146093568	14	4231
2026-01-17 08:29:16.13	12.92	18.28	-26.6	-27.7	16.0	0.00e+00	0	43	0	1149239296	14	4073
2026-01-17 08:29:17.13	12.72	18.21	-26.8	-28.0	15.8	0.00e+00	0	43	0	1152385024	14	4154
2026-01-17 08:29:18.13	12.52	18.15	-26.8	-28.2	15.7	0.00e+00	0	43	0	1155530752	14	4207
2026-01-17 08:29:19.13	12.32	18.09	-26.7	-27.9	15.8	0.00e+00	0	43	0	1158676480	14	4134
2026-01-17 08:29:20.14	12.13	18.02	-26.9	-28.4	15.6	0.00e+00	0	43	0	1161822208	14	4261
2026-01-17 08:29:21.14	11.93	17.95	-27.1	-28.7	15.4	0.00e+00	0	43	0	1164967936	14	4354
2026-01-17 08:29:22.14	11.74	17.89	-27.2	-29.1	15.2	0.00e+00	0	43	0	1168113664	14	4457
2026-01-17 08:29:23.15	11.54	17.82	-27.5	-29.7	14.8	0.00e+00	0	43	0	1171259392	14	4632
2026-01-17 08:29:24.15	11.35	17.76	-27.4	-29.6	14.9	0.00e+00	0	43	0	1174405120	14	4615
2026-01-17 08:29:25.15	11.15	17.69	-27.6	-29.4	14.7	0.00e+00	0	43	0	1177550848	15	4437
2026-01-17 08:29:26.15	10.96	17.63	-27.7	-29.7	14.5	0.00e+00	0	43	0	1180696576	15	4525
2026-01-17 08:29:27.15	10.77	17.56	-27.3	-28.8	15.0	0.00e+00	0	43	0	1183842304	15	4278
2026-01-17 08:29:28.15	10.58	17.49	-27.1	-28.3	15.3	0.00e+00	0	43	0	1186988032	15	4130
2026-01-17 08:29:29.16	10.39	17.43	-27.0	-28.1	15.4	0.00e+00	0	43	0	1190133760	15	4081
2026-01-17 08:29:30.16	10.20	17.36	-27.0	-28.1	15.4	0.00e+00	0	43	0	1193279488	15	4080
2026-01-17 08:29:31.16	10.02	17.29	-27.2	-28.5	15.2	0.00e+00	0	43	0	1196425216	15	4191
2026-01-17 08:29:32.16	9.83	17.23	-27.1	-28.2	15.4	0.00e+00	0	43	0	1199570944	15	4095
2026-01-17 08:29:33.16	9.65	17.16	-27.0	-28.1	15.4	0.00e+00	0	43	0	1202716672	15	4080
2026-01-17 08:29:34.16	9.46	17.09	-27.0	-28.1	15.4	0.00e+00	0	43	0	1205862400	15	4082
2026-01-17 08:29:35.16	9.28	17.02	-27.1	-28.3	15.3	0.00e+00	0	43	0	1209008128	15	4137
2026-01-17 08:29:36.16	9.09	16.96	-27.0	-28.0	15.5	0.00e+00	0	43	0	1212153856	15	4057
2026-01-17 08:29:37.16	8.91	16.89	-26.8	-27.6	15.7	0.00e+00	0	43	0	1215299584	15	3950
2026-01-17 08:29:38.16	8.73	16.82	-26.7	-28.0	15.7	0.00e+00	0	43	0	1217396736	14	4157
2026-01-17 08:29:39.16	8.55	16.75	-26.6	-27.7	15.9	0.00e+00	0	43	0	1220542464	14	4088
2026-01-17 08:29:40.16	8.37	16.69	-26.6	-27.6	15.9	0.00e+00	0	43	0	1223688192	14	4056
2026-01-17 08:29:41.16	8.19	16.62	-26.7	-27.8	15.8	0.00e+00	0	43	0	1226833920	14	4108
2026-01-17 08:29:42.15	8.02	16.55	-26.6	-27.6	15.9	0.00e+00	0	43	0	1229979648	14	4055
2026-01-17 08:29:43.16	7.84	16.48	-26.7	-28.0	15.8	0.00e+00	0	43	0	1233125376	14	4155
2026-01-17 08:29:44.16	7.66	16.41	-26.7	-27.9	15.8	0.00e+00	0	43	0	1236271104	14	4127
2026-01-17 08:29:45.16	7.48	16.35	-27.0	-28.5	15.4	0.00e+00	0	43	0	1239416832	14	4291
2026-01-17 08:29:46.16	7.31	16.28	-27.1	-28.9	15.2	0.00e+00	0	43	0	1242562560	14	4404
2026-01-17 08:29:47.15	7.14	16.21	-27.2	-29.0	15.2	0.00e+00	0	43	0	1245708288	14	4445
2026-01-17 08:29:48.16	6.96	16.14	-27.4	-29.5	14.9	0.00e+00	0	43	0	1248854016	14	4573
2026-01-17 08:29:49.16	6.79	16.07	-27.3	-29.3	15.0	0.00e+00	0	43	0	1251999744	14	4510
2026-01-17 08:29:50.16	6.62	16.00	-27.4	-29.4	14.9	0.00e+00	0	43	0	1255145472	14	4568
2026-01-17 08:29:51.16	6.45	15.93	-27.3	-29.3	15.0	0.00e+00	0	43	0	1258291200	14	4519
2026-01-17 08:29:52.16	6.28	15.87	-27.4	-29.5	14.8	0.00e+00	0	43	0	1261436928	14	4596
2026-01-17 08:29:53.17	6.11	15.80	-27.2	-29.1	15.1	1.50e-06	0	43	0	1264582656	14	4469
2026-01-17 08:29:54.17	5.94	15.73	-27.2	-29.1	15.0	7.00e-07	0	43	0	1267728384	14	4466
2026-01-17 08:29:55.17	5.77	15.66	-27.2	-29.2	15.0	7.00e-07	0	43	0	1270874112	14	4487
2026-01-17 08:29:56.17	5.60	15.59	-27.5	-29.2	14.7	0.00e+00	0	43	0	1274019840	15	4388
2026-01-17 08:29:57.17	5.44	15.52	-27.4	-29.0	14.8	1.50e-06	0	43	0	1277165568	15	4334
2026-01-17 08:29:58.17	5.27	15.45	-27.6	-29.5	14.5	1.50e-06	0	43	0	1280311296	15	4467
2026-01-17 08:29:59.17	5.11	15.38	-27.3	-28.7	15.0	0.00e+00	0	43	0	1283457024	15	4256
2026-01-17 08:30:00.17	4.95	15.31	-27.5	-29.3	14.7	0.00e+00	0	43	0	1286602752	15	4410
2026-01-17 08:30:01.17	4.78	15.24	-27.6	-29.6	14.5	0.00e+00	0	43	0	1289748480	15	4498
2026-01-17 08:30:02.17	4.62	15.17	-27.5	-29.2	14.7	0.00e+00	0	43	0	1292894208	15	4393
2026-01-17 08:30:03.16	4.46	15.11	-27.5	-29.2	14.6	0.00e+00	0	43	0	1296039936	15	4400
2026-01-17 08:30:04.16	4.30	15.04	-27.5	-29.1	14.7	7.00e-07	0	43	0	1299185664	15	4370
2026-01-17 08:30:05.17	4.14	14.97	-27.6	-29.4	14.6	2.20e-06	0	43	0	1302331392	15	4439
2026-01-17 08:30:06.17	3.98	14.90	-27.4	-29.1	14.7	1.50e-06	0	43	0	1305477120	15	4351
2026-01-17 08:30:07.18	3.82	14.83	-27.5	-29.3	14.6	7.00e-07	0	43	0	1308622848	15	4425
2026-01-17 08:30:08.19	3.66	14.76	-27.7	-29.8	14.3	3.80e-06	0	43	0	1311768576	15	4553
2026-01-17 08:30:09.19	3.50	14.69	-27.5	-29.2	14.6	1.50e-06	0	43	0	1314914304	15	4387
2026-01-17 08:30:10.19	3.35	14.62	-27.4	-28.9	14.8	7.00e-07	0	43	0	1318060032	15	4305
2026-01-17 08:30:11.19	3.19	14.55	-27.2	-28.7	15.0	0.00e+00	0	43	0	1321205760	15	4239
2026-01-17 08:30:12.19	3.04	14.48	-27.4	-28.9	14.8	0.00e+00	0	43	0	1324351488	15	4303
2026-01-17 08:30:13.20	2.88	14.41	-27.3	-28.8	14.9	3.00e-06	0	43	0	1327497216	15	4270
2026-01-17 08:30:14.20	2.73	14.34	-27.3	-28.9	14.9	0.00e+00	0	43	0	1330642944	15	4291
2026-01-17 08:30:15.20	2.58	14.27	-27.3	-28.7	14.9	0.00e+00	0	43	0	1333788672	15	4256
2026-01-17 08:30:16.20	2.43	14.20	-27.3	-28.8	14.9	0.00e+00	0	43	0	1336934400	15	4287
2026-01-17 08:30:17.20	2.27	14.13	-27.3	-28.9	14.8	0.00e+00	0	43	0	1340080128	15	4291
2026-01-17 08:30:18.20	2.12	14.06	-27.3	-28.9	14.8	7.00e-07	0	43	0	1343225856	15	4306
2026-01-17 08:30:19.20	1.98	13.99	-27.5	-29.3	14.6	0.00e+00	0	43	0	1346371584	15	4411
2026-01-17 08:30:20.21	1.82	13.92	-27.5	-29.2	14.6	0.00e+00	0	43	0	1349517312	15	4394
2026-01-17 08:30:21.21	1.68	13.85	-27.6	-29.5	14.5	7.00e-07	0	43	0	1352663040	15	4477
2026-01-17 08:30:22.22	1.53	13.78	-27.7	-29.7	14.4	7.00e-07	0	43	0	1355808768	15	4533
2026-01-17 08:30:23.22	1.38	13.71	-27.7	-29.8	14.3	1.50e-06	0	43	0	1358954496	15	4572
2026-01-17 08:30:24.22	1.24	13.64	-27.8	-29.9	14.2	7.00e-07	0	43	0	1362100224	15	4594
2026-01-17 08:30:25.22	1.09	13.57	-27.7	-29.9	14.2	1.50e-06	0	43	0	1365245952	15	4589
2026-01-17 08:30:26.23	0.94	13.50	-27.7	-29.8	14.2	2.20e-06	0	43	0	1368391680	15	4585
2026-01-17 08:30:27.23	0.80	13.43	-27.7	-29.8	14.2	2.20e-06	0	43	0	1371537408	15	4565
2026-01-17 08:30:28.23	0.66	13.36	-27.6	-29.5	14.4	1.50e-06	0	43	0	1374683136	15	4497
2026-01-17 08:30:29.23	0.52	13.29	-27.6	-29.6	14.3	2.20e-06	0	43	0	1377828864	15	4503
2026-01-17 08:30:30.24	0.37	13.22	-27.6	-29.6	14.3	2.20e-06	0	43	0	1380974592	15	4503
2026-01-17 08:30:31.24	0.23	13.15	-27.5	-29.2	14.6	0.00e+00	0	43	0	1384120320	15	4380
2026-01-17 08:30:32.24	0.09	13.09	-27.5	-29.2	14.6	7.00e-07	0	43	0	1387266048	15	4388
2026-01-17 08:30:33.24	359.95	13.02	-27.6	-29.6	14.4	3.00e-06	0	43	0	1390411776	15	4501
2026-01-17 08:30:34.24	359.81	12.95	-27.6	-29.4	14.4	7.00e-07	0	43	0	1393557504	15	4458
2026-01-17 08:30:35.25	359.67	12.88	-27.8	-29.9	14.1	1.50e-06	0	43	0	1396703232	15	4604
2026-01-17 08:30:36.25	359.53	12.81	-27.9	-30.3	13.9	3.00e-06	0	43	0	1399848960	15	4750
2026-01-17 08:30:37.25	359.40	12.74	-27.9	-30.3	13.9	2.20e-06	0	43	0	1402994688	15	4742
2026-01-17 08:30:38.25	359.26	12.67	-28.3	-30.6	13.6	1.22e-05	0	43	0	1406140416	16	4699
2026-01-17 08:30:39.25	359.13	12.60	-28.2	-30.5	13.7	8.30e-06	0	43	0	1409286144	16	4662
2026-01-17 08:30:40.25	358.99	12.53	-28.3	-30.7	13.5	1.67e-05	0	43	0	1412431872	16	4746
2026-01-17 08:30:41.25	358.86	12.46	-28.4	-30.8	13.5	1.22e-05	0	43	0	1415577600	16	4773
2026-01-17 08:30:42.25	358.72	12.39	-28.1	-30.3	13.7	9.10e-06	0	43	0	1418723328	16	4607
2026-01-17 08:30:43.25	358.59	12.32	-28.2	-30.5	13.6	1.44e-05	0	43	0	1421869056	16	4681
2026-01-17 08:30:44.25	358.46	12.25	-28.1	-30.1	13.9	5.30e-06	0	43	0	1423966208	16	4539
2026-01-17 08:30:45.24	358.33	12.19	-28.0	-29.9	14.0	3.00e-06	0	43	0	1427111936	16	4489
2026-01-17 08:30:46.25	358.19	12.12	-27.9	-29.7	14.1	1.50e-06	0	43	0	1430257664	16	4438
2026-01-17 08:30:47.25	358.06	12.05	-28.0	-29.9	14.0	2.20e-06	0	43	0	1433403392	16	4487
2026-01-17 08:30:48.25	357.93	11.98	-27.9	-29.8	14.0	2.20e-06	0	43	0	1436549120	16	4459
2026-01-17 08:30:49.25	357.80	11.91	-28.0	-29.9	13.9	2.20e-06	0	43	0	1439694848	16	4495
2026-01-17 08:30:50.25	357.67	11.84	-27.9	-29.7	14.1	1.50e-06	0	43	0	1442840576	16	4430
2026-01-17 08:30:51.26	357.54	11.77	-27.9	-29.6	14.2	2.20e-06	0	43	0	1445986304	16	4403
2026-01-17 08:30:52.26	357.42	11.70	-28.2	-30.3	13.7	8.30e-06	0	43	0	1449132032	16	4603
2026-01-17 08:30:53.26	357.29	11.64	-28.3	-30.7	13.5	3.00e-06	0	43	0	1452277760	16	4733
2026-01-17 08:30:54.26	357.16	11.57	-28.1	-30.3	13.8	5.30e-06	0	43	0	1455423488	16	4604
2026-01-17 08:30:55.26	357.04	11.50	-28.3	-30.6	13.5	1.37e-05	0	43	0	1458569216	16	4711
2026-01-17 08:30:56.27	356.91	11.43	-28.2	-30.3	13.7	4.50e-06	0	43	0	1461714944	16	4602
2026-01-17 08:30:57.27	356.79	11.36	-28.2	-30.3	13.7	9.10e-06	0	43	0	1464860672	16	4607
2026-01-17 08:30:58.28	356.66	11.29	-28.3	-30.6	13.6	9.10e-06	0	43	0	1468006400	16	4690
2026-01-17 08:30:59.28	356.54	11.22	-28.3	-30.7	13.5	9.10e-06	0	43	0	1471152128	16	4726
2026-01-17 08:31:00.28	356.42	11.16	-28.4	-30.9	13.3	1.22e-05	0	43	0	1474297856	16	4814
2026-01-17 08:31:01.28	356.29	11.09	-28.1	-30.3	13.7	9.90e-06	0	43	0	1477443584	16	4607
2026-01-17 08:31:02.28	356.17	11.02	-28.3	-30.7	13.4	1.37e-05	0	43	0	1480589312	16	4751
2026-01-17 08:31:03.28	356.05	10.95	-28.6	-30.9	13.0	1.98e-05	0	43	0	1483735040	17	4702
2026-01-17 08:31:04.28	355.93	10.88	-28.3	-30.1	13.5	1.37e-05	0	43	0	1486880768	17	4437
2026-01-17 08:31:05.28	355.81	10.82	-28.0	-29.5	13.9	7.60e-06	0	43	0	1490026496	17	4258
2026-01-17 08:31:06.28	355.69	10.75	-28.0	-29.4	13.9	2.20e-06	0	43	0	1493172224	17	4242
2026-01-17 08:31:07.29	355.57	10.68	-28.2	-30.0	13.6	1.06e-05	0	43	0	1496317952	17	4418
2026-01-17 08:31:08.29	355.45	10.61	-28.1	-29.7	13.7	7.00e-07	0	43	0	1499463680	17	4334
2026-01-17 08:31:09.29	355.34	10.55	-28.4	-30.4	13.3	9.10e-06	0	43	0	1502609408	17	4532
2026-01-17 08:31:10.30	355.22	10.48	-28.4	-30.4	13.3	1.90e-05	0	43	0	1505755136	17	4531
2026-01-17 08:31:11.29	355.10	10.41	-28.4	-30.4	13.3	1.52e-05	0	43	0	1508900864	17	4531
2026-01-17 08:31:12.30	354.99	10.34	-28.5	-30.6	13.1	3.05e-05	0	43	0	1512046592	17	4612
2026-01-17 08:31:13.31	354.87	10.27	-28.6	-30.8	13.0	4.27e-05	0	43	0	1515192320	17	4668
2026-01-17 08:31:14.31	354.76	10.21	-28.4	-30.5	13.2	3.66e-05	0	43	0	1518338048	17	4582
2026-01-17 08:31:15.32	354.64	10.14	-28.7	-31.1	12.8	5.03e-05	0	43	0	1521483776	17	4750
2026-01-17 08:31:16.32	354.53	10.07	-28.3	-30.2	13.3	2.74e-05	0	43	0	1524629504	17	4486
2026-01-17 08:31:17.32	354.41	10.00	-28.4	-30.5	13.2	2.74e-05	0	43	0	1527775232	17	4568
2026-01-17 08:31:18.32	354.30	9.94	-28.2	-29.9	13.5	1.44e-05	0	43	0	1530920960	17	4378
2026-01-17 08:31:19.32	354.19	9.87	-28.3	-30.2	13.3	1.37e-05	0	43	0	1534066688	17	4493
2026-01-17 08:31:20.33	354.08	9.80	-28.3	-30.2	13.3	2.74e-05	0	43	0	1537212416	17	4483
2026-01-17 08:31:21.33	353.96	9.74	-28.3	-30.1	13.3	1.90e-05	0	43	0	1540358144	17	4449
2026-01-17 08:31:22.33	353.85	9.67	-28.3	-30.3	13.2	2.28e-05	0	43	0	1543503872	17	4502
2026-01-17 08:31:23.33	353.74	9.60	-28.2	-29.9	13.4	1.60e-05	0	43	0	1546649600	17	4405
2026-01-17 08:31:24.33	353.63	9.54	-28.1	-29.7	13.6	1.29e-05	0	43	0	1549795328	17	4326
2026-01-17 08:31:25.34	353.52	9.47	-28.5	-30.6	13.1	1.52e-05	0	43	0	1552941056	17	4595
2026-01-17 08:31:26.35	353.42	9.40	-28.5	-30.7	13.0	4.19e-05	0	43	0	1556086784	17	4628
2026-01-17 08:31:27.35	353.31	9.34	-28.7	-31.2	12.6	4.95e-05	0	43	0	1559232512	17	4813
2026-01-17 08:31:28.35	353.20	9.27	-28.7	-31.1	12.7	1.11e-04	0	43	0	1562378240	17	4775
2026-01-17 08:31:29.36	353.09	9.20	-28.7	-31.1	12.7	8.54e-05	0	43	0	1565523968	17	4759
2026-01-17 08:31:30.37	352.98	9.14	-28.6	-30.9	12.8	4.57e-05	0	43	0	1568669696	17	4711
2026-01-17 08:31:31.37	352.88	9.07	-28.6	-31.0	12.8	6.40e-05	0	43	0	1571815424	17	4743
2026-01-17 08:31:32.37	352.77	9.01	-28.7	-31.3	12.6	1.11e-04	0	43	0	1574961152	17	4832
2026-01-17 08:31:33.38	352.67	8.94	-28.7	-31.3	12.6	7.40e-05	0	43	0	1578106880	17	4855
2026-01-17 08:31:34.38	352.56	8.87	-28.6	-31.0	12.7	8.08e-05	0	43	0	1581252608	17	4760
2026-01-17 08:31:35.39	352.46	8.81	-28.8	-31.5	12.5	1.34e-04	0	43	0	1584398336	17	4914
2026-01-17 08:31:36.39	352.35	8.74	-28.8	-31.4	12.5	1.04e-04	0	43	0	1587544064	17	4877
2026-01-17 08:31:37.40	352.25	8.68	-28.7	-31.3	12.5	1.46e-04	0	43	0	1590689792	17	4860
2026-01-17 08:31:38.40	352.15	8.61	-28.7	-31.3	12.6	9.99e-05	0	43	0	1593835520	17	4846
2026-01-17 08:31:39.40	352.05	8.54	-28.6	-31.0	12.7	6.48e-05	0	43	0	1596981248	17	4751
2026-01-17 08:31:40.40	351.94	8.48	-28.5	-30.6	12.9	4.65e-05	0	43	0	1600126976	17	4628
2026-01-17 08:31:41.41	351.84	8.41	-28.4	-30.4	13.1	3.12e-05	0	43	0	1603272704	17	4561
2026-01-17 08:31:42.41	351.74	8.35	-28.4	-30.5	13.0	3.58e-05	0	43	0	1606418432	17	4570
2026-01-17 08:31:43.41	351.64	8.28	-28.3	-30.4	13.1	2.44e-05	0	43	0	1609564160	17	4537
2026-01-17 08:31:44.41	351.54	8.22	-28.4	-30.6	13.0	3.12e-05	0	43	0	1612709888	17	4608
2026-01-17 08:31:45.41	351.44	8.15	-28.2	-30.0	13.3	1.90e-05	0	43	0	1615855616	17	4443
2026-01-17 08:31:46.42	351.34	8.09	-28.2	-30.0	13.3	2.13e-05	0	43	0	1619001344	17	4422
2026-01-17 08:31:47.42	351.24	8.02	-28.2	-29.9	13.4	1.60e-05	0	43	0	1622147072	17	4393
2026-01-17 08:31:48.42	351.15	7.96	-28.1	-29.8	13.4	1.90e-05	0	43	0	1625292800	17	4366
2026-01-17 08:31:49.43	351.05	7.89	-28.4	-30.5	13.0	3.35e-05	0	43	0	1628438528	17	4580
2026-01-17 08:31:50.43	350.95	7.83	-28.3	-30.2	13.2	4.73e-05	0	43	0	1631584256	17	4492
2026-01-17 08:31:51.43	350.85	7.77	-28.5	-30.8	12.8	4.34e-05	0	43	0	1634729984	17	4679
2026-01-17 08:31:52.44	350.76	7.70	-28.6	-31.0	12.6	6.63e-05	0	43	0	1637875712	17	4758
2026-01-17 08:31:53.45	350.66	7.64	-28.6	-31.1	12.6	7.78e-05	0	43	0	1641021440	17	4769
2026-01-17 08:31:54.45	350.57	7.57	-28.7	-31.2	12.5	8.16e-05	0	43	0	1644167168	17	4820
2026-01-17 08:31:55.45	350.47	7.51	-28.7	-31.4	12.4	1.30e-04	0	43	0	1647312896	17	4874
2026-01-17 08:31:56.45	350.38	7.44	-28.9	-31.8	12.1	2.46e-04	0	43	0	1650458624	17	5022
2026-01-17 08:31:57.45	350.28	7.38	-29.0	-31.7	11.9	5.25e-04	0	43	0	1653604352	18	4868
2026-01-17 08:31:58.45	350.19	7.32	-29.1	-31.7	11.9	3.96e-04	0	43	0	1656750080	18	4883
2026-01-17 08:31:59.45	350.10	7.25	-28.9	-31.3	12.1	4.03e-04	0	43	0	1659895808	18	4757
2026-01-17 08:32:00.46	350.00	7.19	-29.0	-31.6	11.9	4.34e-04	0	43	0	1663041536	18	4853
2026-01-17 08:32:01.47	349.91	7.12	-29.0	-31.5	12.0	2.38e-04	0	43	0	1666187264	18	4821
2026-01-17 08:32:02.47	349.82	7.06	-31.8	-38.2	6.1	4.12e-03	0	43	0	1669332992	23	7497
2026-01-17 08:32:03.47	349.73	7.00	-33.1	-44.7	3.8	1.49e+00	0	43	104	1669332992	26	13684

#Closed at: 2026-01-17 08:32:03
#Recorded file [1669 MB]: D:/data/31010_260117_112308.dat