passes_logs/2026/01/17/R2M6_AANII_01/R2M6_AANII_01__20260117_223851_SUOMI_NPP_rec.log

#Pass ID: 20260117_223851_SUOMI NPP
#Satellite: SUOMI NPP
#Configuration: NPP
#almurnet v.1.7.20240730
#Start time: 2026-01-17 22:38:51

#Version: 2.2.20231116
#Station: R2M6_AANII_01
#Location: 30.233357 lon 59.946436 lat
#TLE: 1 37849U 11061A   26017.28905266  .00000074  00000+0  55894-4 0  9999
#TLE: 2 37849  98.7814 319.3179 0002408  59.7048 300.4366 14.19525847737038

#Time	Az	El	Level	Level2	SNR	BER	BlckErr	Temp	State	Recorded	gain1	gain2
2026-01-17 22:38:51.64	31.93	7.00	-31.4	-35.1	5.2	1.20e+00	0	41	0	0	23	5533
2026-01-17 22:38:52.64	32.03	7.06	-32.0	-37.6	4.8	1.28e+00	0	41	104	0	23	6921
2026-01-17 22:38:53.64	32.13	7.12	-31.9	-36.5	7.4	1.85e-01	0	41	0	0	24	6158
2026-01-17 22:38:54.65	32.24	7.18	-31.9	-37.0	7.5	1.07e-01	0	41	0	1048576	23	6501
2026-01-17 22:38:55.65	32.34	7.24	-31.9	-37.2	7.3	1.41e-01	0	41	0	3145728	23	6625
2026-01-17 22:38:56.66	32.45	7.30	-31.8	-36.8	7.6	1.02e-01	0	41	0	5242880	23	6350
2026-01-17 22:38:57.66	32.55	7.36	-31.7	-36.2	8.1	8.31e-02	0	41	0	7340032	23	6048
2026-01-17 22:38:58.66	32.66	7.42	-31.5	-35.4	8.7	4.14e-02	0	41	0	9437184	23	5634
2026-01-17 22:38:59.66	32.76	7.48	-31.5	-35.1	9.0	3.49e-02	0	41	0	10485760	23	5453
2026-01-17 22:39:00.67	32.87	7.54	-31.5	-35.4	8.8	2.65e-02	0	41	0	12582912	23	5610
2026-01-17 22:39:01.68	32.98	7.60	-31.5	-35.1	9.1	2.75e-02	0	41	0	14680064	23	5453
2026-01-17 22:39:02.68	33.09	7.66	-31.3	-34.6	9.4	2.23e-02	0	42	0	16777216	23	5239
2026-01-17 22:39:03.68	33.19	7.72	-31.2	-34.4	10.0	9.99e-03	0	41	0	17825792	22	5232
2026-01-17 22:39:04.68	33.30	7.78	-31.1	-34.0	10.3	8.37e-03	0	42	0	19922944	22	5068
2026-01-17 22:39:05.68	33.41	7.84	-31.0	-33.7	10.6	3.38e-03	0	42	0	22020096	22	4930
2026-01-17 22:39:06.68	33.52	7.90	-31.0	-33.9	10.4	4.82e-03	0	42	0	24117248	22	5005
2026-01-17 22:39:07.69	33.63	7.96	-31.2	-34.3	10.3	5.37e-03	0	42	0	26214400	22	5145
2026-01-17 22:39:08.69	33.74	8.02	-31.2	-34.4	10.3	5.03e-03	0	42	0	28311552	22	5205
2026-01-17 22:39:09.70	33.85	8.08	-31.2	-34.3	10.2	6.36e-03	0	42	0	29360128	22	5146
2026-01-17 22:39:10.70	33.96	8.14	-31.5	-34.9	9.4	9.60e-03	0	42	0	31457280	23	5360
2026-01-17 22:39:11.71	34.08	8.20	-31.4	-34.4	9.7	1.17e-02	0	42	0	33554432	23	5130
2026-01-17 22:39:12.70	34.19	8.26	-31.2	-33.9	10.1	6.28e-03	0	42	0	35651584	23	4901
2026-01-17 22:39:13.71	34.30	8.32	-31.1	-33.9	10.5	4.83e-03	0	42	0	36700160	22	4996
2026-01-17 22:39:14.71	34.41	8.38	-31.1	-34.0	10.4	3.32e-03	0	42	0	38797312	22	5053
2026-01-17 22:39:15.72	34.53	8.44	-31.1	-33.9	10.5	3.71e-03	0	42	0	40894464	22	4997
2026-01-17 22:39:16.72	34.64	8.50	-31.1	-34.1	10.3	4.28e-03	0	42	0	42991616	22	5105
2026-01-17 22:39:17.73	34.75	8.56	-30.9	-33.9	10.5	5.11e-03	0	42	0	45088768	22	5054
2026-01-17 22:39:18.73	34.87	8.62	-30.8	-33.1	11.1	2.66e-03	0	42	0	46137344	22	4663
2026-01-17 22:39:19.73	34.98	8.69	-30.8	-33.4	11.2	8.68e-04	0	42	0	48234496	21	4892
2026-01-17 22:39:20.74	35.10	8.75	-30.7	-33.1	11.5	1.41e-03	0	42	0	50331648	21	4773
2026-01-17 22:39:21.74	35.22	8.81	-30.8	-33.5	11.2	1.35e-03	0	42	0	52428800	21	4931
2026-01-17 22:39:22.74	35.33	8.87	-30.7	-33.4	11.3	1.34e-03	0	42	0	54525952	21	4863
2026-01-17 22:39:23.74	35.45	8.93	-30.7	-33.2	11.4	1.31e-03	0	42	0	55574528	21	4791
2026-01-17 22:39:24.75	35.57	8.99	-30.3	-33.3	10.9	9.62e-04	0	42	0	57671680	21	5089
2026-01-17 22:39:25.75	35.68	9.05	-30.9	-34.0	10.9	1.99e-03	0	42	0	59768832	21	5097
2026-01-17 22:39:26.75	35.80	9.11	-30.7	-33.2	11.4	1.16e-03	0	42	0	61865984	21	4802
2026-01-17 22:39:27.76	35.92	9.17	-30.6	-32.9	11.6	8.46e-04	0	42	0	63963136	21	4684
2026-01-17 22:39:28.76	36.04	9.24	-30.6	-32.9	11.8	4.61e-04	0	42	0	65011712	21	4666
2026-01-17 22:39:29.77	36.16	9.30	-30.7	-33.2	11.5	5.64e-04	0	42	0	67108864	21	4800
2026-01-17 22:39:30.78	36.28	9.36	-30.7	-33.0	11.7	6.94e-04	0	42	0	69206016	21	4731
2026-01-17 22:39:31.77	36.40	9.42	-30.8	-33.5	11.3	1.04e-03	0	42	0	71303168	21	4905
2026-01-17 22:39:32.78	36.53	9.48	-30.7	-33.0	11.6	1.14e-03	0	42	0	73400320	21	4730
2026-01-17 22:39:33.78	36.65	9.54	-30.6	-32.7	11.9	4.68e-04	0	42	0	74448896	21	4614
2026-01-17 22:39:34.79	36.77	9.60	-30.6	-32.7	11.9	3.45e-04	0	42	0	76546048	21	4624
2026-01-17 22:39:35.79	36.89	9.67	-30.5	-32.4	12.1	3.16e-04	0	42	0	78643200	21	4498
2026-01-17 22:39:36.79	37.02	9.73	-30.6	-32.8	11.9	2.63e-04	0	43	0	80740352	21	4639
2026-01-17 22:39:37.79	37.14	9.79	-30.5	-32.4	12.1	2.65e-04	0	43	0	82837504	21	4513
2026-01-17 22:39:38.79	37.26	9.85	-30.7	-33.0	11.7	5.47e-04	0	42	0	83886080	21	4729
2026-01-17 22:39:39.79	37.39	9.91	-30.5	-32.4	12.2	2.63e-04	0	42	0	85983232	21	4495
2026-01-17 22:39:40.79	37.51	9.97	-30.6	-32.7	11.9	2.73e-04	0	43	0	88080384	21	4612
2026-01-17 22:39:41.79	37.64	10.04	-30.5	-32.6	12.0	4.32e-04	0	43	0	90177536	21	4552
2026-01-17 22:39:42.79	37.76	10.10	-30.5	-32.6	12.0	4.10e-04	0	43	0	91226112	21	4562
2026-01-17 22:39:43.80	37.89	10.16	-30.7	-32.9	11.8	3.61e-04	0	43	0	93323264	21	4689
2026-01-17 22:39:44.80	38.02	10.22	-30.6	-32.9	11.8	6.21e-04	0	43	0	95420416	21	4688
2026-01-17 22:39:45.81	38.15	10.28	-30.8	-33.6	11.3	7.63e-04	0	43	0	97517568	21	4930
2026-01-17 22:39:46.81	38.28	10.35	-30.7	-33.2	11.6	8.29e-04	0	43	0	99614720	21	4777
2026-01-17 22:39:47.81	38.40	10.41	-30.6	-32.9	11.8	7.24e-04	0	42	0	100663296	21	4662
2026-01-17 22:39:48.81	38.53	10.47	-30.5	-32.5	12.1	2.52e-04	0	43	0	102760448	21	4533
2026-01-17 22:39:49.81	38.66	10.53	-30.6	-32.9	11.8	3.22e-04	0	43	0	104857600	21	4670
2026-01-17 22:39:50.81	38.79	10.59	-30.6	-32.9	11.8	6.42e-04	0	43	0	106954752	21	4685
2026-01-17 22:39:51.82	38.92	10.66	-30.7	-33.1	11.7	5.26e-04	0	43	0	109051904	21	4752
2026-01-17 22:39:52.82	39.06	10.72	-30.7	-33.0	11.8	4.81e-04	0	43	0	110100480	21	4707
2026-01-17 22:39:53.82	39.19	10.78	-30.8	-33.5	11.5	9.70e-04	0	43	0	112197632	21	4898
2026-01-17 22:39:54.83	39.32	10.84	-30.8	-33.3	11.6	9.20e-04	0	43	0	114294784	21	4811
2026-01-17 22:39:55.83	39.45	10.91	-30.6	-32.8	12.0	4.04e-04	0	43	0	116391936	21	4619
2026-01-17 22:39:56.83	39.59	10.97	-30.8	-33.2	11.7	6.17e-04	0	43	0	118489088	21	4783
2026-01-17 22:39:57.83	39.72	11.03	-30.8	-33.2	11.7	5.58e-04	0	43	0	119537664	21	4777
2026-01-17 22:39:58.83	39.86	11.09	-30.6	-32.8	12.0	4.37e-04	0	43	0	121634816	21	4621
2026-01-17 22:39:59.83	39.99	11.15	-30.8	-33.2	11.7	5.78e-04	0	43	0	123731968	21	4781
2026-01-17 22:40:00.83	40.13	11.22	-30.6	-32.8	11.9	4.88e-04	0	43	0	125829120	21	4635
2026-01-17 22:40:01.83	40.26	11.28	-30.5	-32.4	12.2	3.89e-04	0	43	0	126877696	21	4486
2026-01-17 22:40:02.84	40.40	11.34	-30.5	-32.3	12.3	3.23e-04	0	43	0	128974848	21	4444
2026-01-17 22:40:03.84	40.54	11.40	-30.6	-32.8	12.0	3.00e-04	0	43	0	131072000	21	4613
2026-01-17 22:40:04.85	40.68	11.47	-30.5	-32.6	12.1	4.05e-04	0	43	0	133169152	21	4547
2026-01-17 22:40:05.85	40.82	11.53	-30.7	-32.9	12.0	2.28e-04	0	43	0	135266304	21	4649
2026-01-17 22:40:06.86	40.96	11.59	-30.5	-32.5	12.2	3.29e-04	0	43	0	136314880	21	4518
2026-01-17 22:40:07.86	41.10	11.65	-30.7	-33.0	11.9	2.27e-04	0	43	0	138412032	21	4699
2026-01-17 22:40:08.87	41.24	11.72	-30.6	-32.6	12.2	3.60e-04	0	43	0	140509184	21	4533
2026-01-17 22:40:09.87	41.38	11.78	-30.4	-32.1	12.5	1.38e-04	0	43	0	142606336	21	4388
2026-01-17 22:40:10.87	41.52	11.84	-30.4	-32.2	12.5	1.08e-04	0	43	0	144703488	21	4403
2026-01-17 22:40:11.88	41.66	11.90	-30.4	-32.2	12.5	6.48e-05	0	43	0	145752064	21	4421
2026-01-17 22:40:12.88	41.81	11.97	-30.4	-32.2	12.5	1.52e-04	0	43	0	147849216	21	4423
2026-01-17 22:40:13.88	41.95	12.03	-30.3	-31.8	12.7	1.50e-04	0	43	0	149946368	21	4288
2026-01-17 22:40:14.90	42.10	12.09	-30.4	-32.2	12.5	6.10e-05	0	43	0	152043520	21	4413
2026-01-17 22:40:15.90	42.24	12.15	-30.4	-32.0	12.6	1.65e-04	0	43	0	154140672	21	4347
2026-01-17 22:40:16.90	42.38	12.22	-30.4	-32.1	12.6	9.30e-05	0	43	0	155189248	21	4361
2026-01-17 22:40:17.91	42.53	12.28	-30.5	-32.3	12.4	1.07e-04	0	43	0	157286400	21	4447
2026-01-17 22:40:18.91	42.68	12.34	-30.5	-32.4	12.4	1.52e-04	0	43	0	159383552	21	4465
2026-01-17 22:40:19.91	42.82	12.40	-30.5	-32.4	12.3	1.43e-04	0	43	0	161480704	21	4479
2026-01-17 22:40:20.90	42.97	12.47	-30.5	-32.3	12.3	1.57e-04	0	43	0	163577856	21	4448
2026-01-17 22:40:21.91	43.12	12.53	-30.8	-33.2	11.8	1.97e-04	0	43	0	164626432	21	4767
2026-01-17 22:40:22.91	43.27	12.59	-30.4	-32.2	12.5	1.17e-04	0	43	0	166723584	21	4398
2026-01-17 22:40:23.92	43.42	12.65	-30.3	-31.7	12.8	2.45e-04	0	43	0	168820736	21	4250
2026-01-17 22:40:24.93	43.57	12.72	-30.3	-31.8	12.8	8.16e-05	0	43	0	170917888	21	4271
2026-01-17 22:40:25.94	43.72	12.78	-30.5	-32.3	12.5	9.91e-05	0	43	0	173015040	21	4431
2026-01-17 22:40:26.94	43.87	12.84	-30.5	-32.4	12.3	1.46e-04	0	43	0	174063616	21	4481
2026-01-17 22:40:27.94	44.02	12.90	-30.5	-32.5	12.4	8.62e-05	0	43	0	176160768	21	4493
2026-01-17 22:40:28.95	44.18	12.97	-30.6	-32.5	12.3	5.50e-04	0	43	0	178257920	21	4512
2026-01-17 22:40:29.95	44.33	13.03	-30.4	-32.1	12.6	1.07e-04	0	43	0	180355072	21	4367
2026-01-17 22:40:30.95	44.48	13.09	-30.4	-32.0	12.7	9.46e-05	0	43	0	182452224	21	4347
2026-01-17 22:40:31.95	44.64	13.15	-30.4	-32.0	12.7	2.94e-04	0	43	0	183500800	21	4323
2026-01-17 22:40:32.96	44.79	13.22	-30.5	-32.4	12.4	9.99e-05	0	43	0	185597952	21	4485
2026-01-17 22:40:33.96	44.95	13.28	-30.5	-32.2	12.6	1.46e-04	0	43	0	187695104	21	4406
2026-01-17 22:40:34.97	45.11	13.34	-30.6	-32.5	12.4	1.72e-04	0	43	0	189792256	21	4512
2026-01-17 22:40:35.97	45.26	13.40	-30.5	-32.5	12.4	1.11e-04	0	43	0	191889408	21	4488
2026-01-17 22:40:36.96	45.42	13.46	-30.7	-33.1	12.0	1.94e-04	0	43	0	192937984	21	4697
2026-01-17 22:40:37.97	45.58	13.53	-30.7	-33.0	12.1	2.55e-04	0	43	0	195035136	21	4655
2026-01-17 22:40:38.97	45.74	13.59	-30.7	-32.8	12.2	3.59e-04	0	43	0	197132288	21	4605
2026-01-17 22:40:39.97	45.90	13.65	-30.8	-33.3	11.8	3.55e-04	0	43	0	199229440	21	4777
2026-01-17 22:40:40.98	46.06	13.71	-30.7	-33.0	12.1	3.39e-04	0	43	0	200278016	21	4646
2026-01-17 22:40:41.98	46.22	13.78	-30.6	-32.7	12.3	3.81e-04	0	43	0	202375168	21	4546
2026-01-17 22:40:42.98	46.38	13.84	-30.6	-32.5	12.4	1.10e-04	0	43	0	204472320	21	4487
2026-01-17 22:40:43.98	46.54	13.90	-30.5	-32.3	12.5	9.68e-05	0	43	0	206569472	21	4430
2026-01-17 22:40:44.99	46.70	13.96	-30.6	-32.5	12.5	1.07e-04	0	43	0	208666624	21	4478
2026-01-17 22:40:45.99	46.87	14.02	-30.4	-32.1	12.7	1.44e-04	0	43	0	209715200	21	4347
2026-01-17 22:40:46.99	47.03	14.08	-30.4	-32.1	12.7	6.17e-05	0	43	0	211812352	21	4351
2026-01-17 22:40:48.00	47.20	14.15	-30.4	-32.0	12.8	4.27e-05	0	43	0	213909504	21	4314
2026-01-17 22:40:49.00	47.36	14.21	-30.5	-32.3	12.6	4.73e-05	0	43	0	216006656	21	4402
2026-01-17 22:40:50.00	47.53	14.27	-30.6	-32.4	12.5	1.53e-04	0	43	0	218103808	21	4464
2026-01-17 22:40:51.00	47.70	14.33	-30.6	-32.6	12.4	1.28e-04	0	43	0	219152384	21	4528
2026-01-17 22:40:52.00	47.86	14.39	-30.5	-32.4	12.5	1.19e-04	0	43	0	221249536	21	4452
2026-01-17 22:40:53.00	48.03	14.45	-30.8	-33.2	12.0	2.74e-04	0	44	0	223346688	21	4726
2026-01-17 22:40:54.00	48.20	14.51	-30.5	-32.2	12.6	1.91e-04	0	43	0	225443840	21	4399
2026-01-17 22:40:55.00	48.37	14.57	-30.4	-31.9	12.8	6.17e-05	0	43	0	227540992	21	4295
2026-01-17 22:40:56.00	48.54	14.64	-30.2	-31.5	13.2	4.11e-05	0	43	0	228589568	21	4154
2026-01-17 22:40:57.00	48.71	14.70	-30.2	-31.8	13.3	2.82e-05	0	43	0	230686720	20	4357
2026-01-17 22:40:58.00	48.88	14.76	-30.1	-31.5	13.5	1.75e-05	0	43	0	232783872	20	4250
2026-01-17 22:40:59.01	49.05	14.82	-30.1	-31.7	13.4	8.30e-06	0	43	0	234881024	20	4312
2026-01-17 22:41:00.01	49.22	14.88	-30.2	-31.8	13.3	1.22e-05	0	43	0	236978176	20	4348
2026-01-17 22:41:01.01	49.40	14.94	-30.2	-31.9	13.3	2.21e-05	0	43	0	238026752	20	4379
2026-01-17 22:41:02.00	49.57	15.00	-30.2	-31.8	13.3	1.52e-05	0	43	0	240123904	20	4328
2026-01-17 22:41:03.00	49.74	15.06	-30.1	-31.6	13.4	1.90e-05	0	43	0	242221056	20	4274
2026-01-17 22:41:04.00	49.92	15.12	-30.2	-31.9	13.2	1.29e-05	0	43	0	244318208	20	4367
2026-01-17 22:41:05.01	50.10	15.18	-30.0	-31.4	13.6	1.37e-05	0	43	0	245366784	20	4227
2026-01-17 22:41:06.02	50.28	15.24	-30.3	-32.1	13.1	2.05e-05	0	43	0	247463936	20	4446
2026-01-17 22:41:07.02	50.45	15.30	-30.3	-32.1	13.1	4.11e-05	0	43	0	249561088	20	4429
2026-01-17 22:41:08.02	50.63	15.36	-30.3	-32.0	13.1	2.51e-05	0	43	0	251658240	20	4411
2026-01-17 22:41:09.02	50.81	15.42	-30.3	-32.2	13.1	1.90e-05	0	43	0	253755392	20	4457
2026-01-17 22:41:10.03	50.99	15.48	-30.5	-32.6	12.8	3.96e-05	0	43	0	254803968	20	4599
2026-01-17 22:41:11.03	51.17	15.54	-30.3	-32.2	13.0	3.12e-05	0	43	0	256901120	20	4480
2026-01-17 22:41:12.03	51.35	15.60	-30.5	-32.1	12.7	5.64e-05	0	44	0	258998272	21	4356
2026-01-17 22:41:13.04	51.54	15.66	-30.3	-31.8	13.0	7.55e-05	0	44	0	261095424	21	4241
2026-01-17 22:41:14.04	51.72	15.72	-30.2	-31.9	13.3	1.52e-05	0	43	0	263192576	20	4368
2026-01-17 22:41:15.04	51.90	15.78	-30.2	-31.8	13.3	1.75e-05	0	43	0	264241152	20	4348
2026-01-17 22:41:16.05	52.09	15.84	-29.8	-31.6	13.2	2.13e-05	0	43	0	266338304	20	4405
2026-01-17 22:41:17.05	52.27	15.90	-30.3	-32.2	12.9	3.43e-05	0	43	0	268435456	20	4476
2026-01-17 22:41:18.05	52.46	15.95	-30.5	-32.6	12.8	4.73e-05	0	43	0	270532608	20	4599
2026-01-17 22:41:19.06	52.64	16.01	-30.4	-32.5	12.6	4.73e-05	0	43	0	272629760	20	4570
2026-01-17 22:41:20.06	52.83	16.07	-30.6	-32.4	12.2	6.25e-05	0	43	0	273678336	21	4450
2026-01-17 22:41:21.07	53.02	16.13	-30.9	-33.4	11.9	2.42e-04	0	43	0	275775488	21	4800
2026-01-17 22:41:22.06	53.21	16.19	-30.9	-33.3	12.0	2.25e-04	0	44	0	277872640	21	4738
2026-01-17 22:41:23.07	53.40	16.25	-31.2	-33.8	11.4	5.13e-04	0	44	0	279969792	22	4834
2026-01-17 22:41:24.07	53.59	16.30	-31.3	-34.0	11.1	1.37e-03	0	43	0	282066944	22	4923
2026-01-17 22:41:25.07	53.78	16.36	-31.1	-33.4	11.6	6.91e-04	0	43	0	283115520	22	4674
2026-01-17 22:41:26.08	53.97	16.42	-30.8	-33.1	12.1	4.29e-04	0	43	0	285212672	21	4676
2026-01-17 22:41:27.08	54.16	16.48	-30.7	-32.8	12.4	2.53e-04	0	43	0	287309824	21	4567
2026-01-17 22:41:28.09	54.35	16.53	-30.7	-32.8	12.3	1.91e-04	0	43	0	289406976	21	4586
2026-01-17 22:41:29.09	54.55	16.59	-30.8	-32.9	12.3	1.19e-04	0	44	0	291504128	21	4622
2026-01-17 22:41:30.09	54.74	16.65	-31.0	-33.2	11.8	2.36e-04	0	44	0	292552704	22	4616
2026-01-17 22:41:31.10	54.94	16.71	-30.8	-32.9	12.3	7.96e-04	0	43	0	294649856	21	4616
2026-01-17 22:41:32.10	55.13	16.76	-30.8	-33.0	12.3	1.81e-04	0	44	0	296747008	21	4626
2026-01-17 22:41:33.10	55.33	16.82	-30.9	-33.3	12.0	2.72e-04	0	44	0	298844160	21	4751
2026-01-17 22:41:34.10	55.52	16.87	-30.7	-32.8	12.4	3.36e-04	0	44	0	299892736	21	4566
2026-01-17 22:41:35.10	55.72	16.93	-30.8	-33.1	12.2	3.75e-04	0	44	0	301989888	21	4694
2026-01-17 22:41:36.10	55.92	16.99	-30.9	-33.2	12.1	1.74e-04	0	43	0	304087040	21	4727
2026-01-17 22:41:37.10	56.12	17.04	-30.8	-32.9	12.3	2.39e-04	0	43	0	306184192	21	4601
2026-01-17 22:41:38.10	56.32	17.10	-30.8	-32.9	12.3	8.88e-04	0	44	0	308281344	21	4599
2026-01-17 22:41:39.10	56.52	17.15	-30.8	-33.0	12.3	1.90e-04	0	44	0	309329920	21	4629
2026-01-17 22:41:40.10	56.72	17.21	-30.9	-33.3	12.1	2.82e-04	0	44	0	311427072	21	4742
2026-01-17 22:41:41.10	56.92	17.26	-30.9	-33.4	12.0	1.67e-03	0	44	0	313524224	21	4762
2026-01-17 22:41:42.11	57.12	17.32	-30.9	-33.3	12.1	2.89e-04	0	44	0	315621376	21	4744
2026-01-17 22:41:43.11	57.33	17.37	-31.2	-33.6	11.5	3.27e-04	0	44	0	317718528	22	4755
2026-01-17 22:41:44.11	57.53	17.42	-31.4	-34.4	11.0	1.27e-03	0	44	0	318767104	22	5063
2026-01-17 22:41:45.11	57.73	17.48	-31.3	-33.8	11.4	9.57e-04	0	44	0	320864256	22	4847
2026-01-17 22:41:46.11	57.94	17.53	-31.1	-33.3	11.7	1.15e-03	0	44	0	322961408	22	4661
2026-01-17 22:41:47.11	58.14	17.58	-31.0	-33.1	11.9	4.93e-04	0	43	0	325058560	22	4579
2026-01-17 22:41:48.12	58.35	17.64	-31.0	-33.2	11.8	3.82e-04	0	43	0	327155712	22	4595
2026-01-17 22:41:49.13	58.56	17.69	-31.2	-33.6	11.6	9.12e-04	0	43	0	328204288	22	4756
2026-01-17 22:41:50.13	58.77	17.74	-31.2	-33.7	11.5	5.99e-04	0	43	0	330301440	22	4772
2026-01-17 22:41:51.14	58.98	17.80	-31.3	-33.9	11.4	6.66e-04	0	44	0	332398592	22	4880
2026-01-17 22:41:52.13	59.19	17.85	-31.2	-33.7	11.5	1.55e-03	0	43	0	334495744	22	4802
2026-01-17 22:41:53.14	59.40	17.90	-31.2	-33.6	11.6	1.77e-03	0	44	0	335544320	22	4748
2026-01-17 22:41:54.14	59.61	17.95	-31.1	-33.5	11.7	7.90e-04	0	44	0	337641472	22	4715
2026-01-17 22:41:55.14	59.82	18.00	-31.3	-33.9	11.4	1.49e-03	0	44	0	339738624	22	4861
2026-01-17 22:41:56.14	60.04	18.05	-31.4	-34.2	11.2	1.59e-03	0	44	0	341835776	22	4968
2026-01-17 22:41:57.15	60.25	18.10	-31.5	-34.5	11.0	1.44e-03	0	44	0	343932928	22	5105
2026-01-17 22:41:58.15	60.46	18.15	-31.3	-34.0	11.3	1.39e-03	0	44	0	346030080	22	4895
2026-01-17 22:41:59.15	60.68	18.20	-31.3	-33.9	11.4	1.11e-03	0	44	0	347078656	22	4858
2026-01-17 22:42:00.16	60.89	18.25	-31.2	-33.5	11.7	8.25e-04	0	43	0	349175808	22	4711
2026-01-17 22:42:01.16	61.11	18.30	-31.1	-33.3	11.8	5.79e-04	0	43	0	351272960	22	4638
2026-01-17 22:42:02.16	61.33	18.35	-31.2	-33.7	11.6	6.51e-04	0	44	0	353370112	22	4781
2026-01-17 22:42:03.16	61.54	18.40	-31.1	-33.3	11.8	4.37e-04	0	44	0	354418688	22	4623
2026-01-17 22:42:04.16	61.76	18.45	-31.1	-33.2	11.9	4.71e-04	0	44	0	356515840	22	4614
2026-01-17 22:42:05.17	61.98	18.50	-31.3	-33.8	11.5	7.97e-04	0	44	0	358612992	22	4825
2026-01-17 22:42:06.17	62.20	18.55	-31.2	-33.5	11.7	6.07e-04	0	44	0	360710144	22	4704
2026-01-17 22:42:07.16	62.42	18.60	-31.2	-33.6	11.7	9.40e-04	0	44	0	362807296	22	4735
2026-01-17 22:42:08.16	62.64	18.64	-31.2	-33.7	11.5	5.60e-04	0	44	0	363855872	22	4783
2026-01-17 22:42:09.15	62.86	18.69	-31.0	-33.1	12.0	3.62e-04	0	44	0	365953024	22	4544
2026-01-17 22:42:10.15	63.08	18.74	-30.7	-32.6	12.7	8.13e-04	0	44	0	368050176	21	4465
2026-01-17 22:42:11.15	63.30	18.78	-30.6	-32.4	12.8	1.31e-03	0	44	0	370147328	21	4423
2026-01-17 22:42:12.16	63.53	18.83	-30.7	-32.7	12.7	6.86e-05	0	43	0	372244480	21	4500
2026-01-17 22:42:13.16	63.75	18.87	-30.7	-32.7	12.6	1.30e-03	0	44	0	373293056	21	4530
2026-01-17 22:42:14.16	63.98	18.92	-30.9	-33.2	12.2	1.45e-03	0	44	0	375390208	21	4692
2026-01-17 22:42:15.16	64.20	18.97	-30.9	-33.1	12.3	1.49e-04	0	44	0	377487360	21	4647
2026-01-17 22:42:16.16	64.43	19.01	-30.8	-32.9	12.4	1.33e-03	0	44	0	379584512	21	4602
2026-01-17 22:42:17.16	64.65	19.05	-30.5	-32.1	13.0	1.09e-03	0	44	0	380633088	21	4333
2026-01-17 22:42:18.16	64.88	19.10	-30.2	-31.3	13.5	1.75e-05	0	44	0	382730240	21	4062
2026-01-17 22:42:19.16	65.11	19.14	-30.1	-31.4	13.8	1.28e-03	0	44	0	384827392	20	4176
2026-01-17 22:42:20.16	65.34	19.19	-30.2	-31.6	13.6	1.29e-03	0	44	0	386924544	20	4267
2026-01-17 22:42:21.16	65.56	19.23	-30.2	-31.8	13.5	9.90e-06	0	44	0	389021696	20	4330
2026-01-17 22:42:22.16	65.79	19.27	-30.4	-32.4	13.2	1.44e-05	0	44	0	390070272	20	4508
2026-01-17 22:42:23.17	66.03	19.31	-30.5	-32.2	13.0	7.96e-04	0	44	0	392167424	21	4338
2026-01-17 22:42:24.17	66.26	19.35	-30.5	-32.1	13.0	4.04e-05	0	44	0	394264576	21	4331
2026-01-17 22:42:25.17	66.49	19.40	-30.5	-31.9	13.1	6.26e-04	0	44	0	396361728	21	4272
2026-01-17 22:42:26.17	66.72	19.44	-30.6	-32.2	13.0	2.67e-05	0	44	0	398458880	21	4365
2026-01-17 22:42:27.17	66.95	19.48	-30.7	-32.5	12.7	6.48e-05	0	44	0	399507456	21	4447
2026-01-17 22:42:28.17	67.19	19.52	-30.2	-31.3	13.6	4.75e-04	0	44	0	401604608	21	4076
2026-01-17 22:42:29.17	67.42	19.56	-30.4	-32.2	13.2	2.59e-05	0	44	0	403701760	20	4460
2026-01-17 22:42:30.18	67.66	19.60	-30.4	-32.2	13.3	2.05e-05	0	44	0	405798912	20	4433
2026-01-17 22:42:31.17	67.89	19.64	-30.3	-32.1	13.4	4.50e-04	0	44	0	407896064	20	4425
2026-01-17 22:42:32.18	68.13	19.68	-30.3	-32.1	13.4	5.95e-04	0	44	0	408944640	20	4409
2026-01-17 22:42:33.18	68.36	19.71	-30.1	-31.5	13.7	3.80e-06	0	44	0	411041792	20	4228
2026-01-17 22:42:34.18	68.60	19.75	-30.0	-31.2	13.9	4.39e-04	0	44	0	413138944	20	4128
2026-01-17 22:42:35.18	68.84	19.79	-30.0	-31.3	13.9	1.28e-04	0	44	0	415236096	20	4159
2026-01-17 22:42:36.19	69.08	19.83	-30.4	-32.2	13.3	1.37e-05	0	44	0	417333248	20	4456
2026-01-17 22:42:37.19	69.32	19.86	-30.4	-32.2	13.3	1.44e-05	0	44	0	418381824	20	4424
2026-01-17 22:42:38.19	69.56	19.90	-30.8	-32.9	12.5	5.11e-05	0	44	0	420478976	21	4600
2026-01-17 22:42:39.20	69.80	19.93	-30.7	-32.6	12.7	6.56e-05	0	44	0	422576128	21	4486
2026-01-17 22:42:40.20	70.04	19.97	-30.8	-32.9	12.5	1.20e-04	0	44	0	424673280	21	4601
2026-01-17 22:42:41.20	70.28	20.00	-30.5	-32.0	13.1	6.94e-05	0	44	0	425721856	21	4303
2026-01-17 22:42:42.21	70.52	20.04	-30.1	-31.0	13.7	1.83e-05	0	44	0	427819008	21	4000
2026-01-17 22:42:43.21	70.77	20.07	-29.9	-30.5	14.1	1.50e-06	0	44	0	429916160	21	3850
2026-01-17 22:42:44.21	71.01	20.11	-30.0	-30.6	14.0	1.50e-06	0	44	0	432013312	21	3872
2026-01-17 22:42:45.21	71.25	20.14	-30.1	-31.0	13.8	3.00e-06	0	44	0	434110464	21	3988
2026-01-17 22:42:46.22	71.50	20.17	-30.1	-30.9	13.9	7.00e-07	0	44	0	435159040	21	3950
2026-01-17 22:42:47.22	71.74	20.20	-30.0	-30.8	13.9	6.10e-06	0	44	0	437256192	21	3916
2026-01-17 22:42:48.22	71.98	20.23	-29.9	-30.5	14.1	0.00e+00	0	44	0	439353344	21	3831
2026-01-17 22:42:49.22	72.23	20.27	-29.9	-30.8	14.2	2.20e-06	0	44	0	441450496	20	4026
2026-01-17 22:42:50.22	72.47	20.30	-29.8	-30.7	14.3	7.00e-07	0	44	0	443547648	20	3980
2026-01-17 22:42:51.22	72.72	20.33	-29.9	-30.9	14.2	1.50e-06	0	44	0	444596224	20	4035
2026-01-17 22:42:52.23	72.97	20.36	-30.0	-31.2	14.0	3.00e-06	0	44	0	446693376	20	4132
2026-01-17 22:42:53.23	73.22	20.38	-30.1	-31.4	13.8	6.10e-06	0	44	0	448790528	20	4195
2026-01-17 22:42:54.23	73.46	20.41	-30.1	-31.4	13.9	3.80e-06	0	44	0	450887680	20	4175
2026-01-17 22:42:55.24	73.71	20.44	-29.9	-30.9	14.2	1.50e-06	0	44	0	452984832	20	4046
2026-01-17 22:42:56.24	73.96	20.47	-29.8	-30.8	14.3	3.00e-06	0	44	0	454033408	20	4000
2026-01-17 22:42:57.25	74.21	20.50	-30.1	-31.4	13.9	1.50e-06	0	44	0	456130560	20	4174
2026-01-17 22:42:58.25	74.46	20.52	-30.4	-32.3	13.3	9.10e-06	0	44	0	458227712	20	4460
2026-01-17 22:42:59.26	74.71	20.55	-30.4	-31.8	13.4	2.89e-05	0	44	0	460324864	21	4211
2026-01-17 22:43:00.26	74.96	20.57	-30.6	-32.4	12.9	4.19e-05	0	44	0	462422016	21	4414
2026-01-17 22:43:01.27	75.22	20.60	-30.7	-32.5	12.8	5.95e-05	0	44	0	463470592	21	4434
2026-01-17 22:43:02.27	75.47	20.62	-30.7	-32.7	12.6	7.70e-05	0	44	0	465567744	21	4508
2026-01-17 22:43:03.26	75.71	20.65	-30.6	-32.4	12.9	6.33e-05	0	44	0	467664896	21	4422
2026-01-17 22:43:04.26	75.97	20.67	-30.6	-32.4	12.9	4.50e-05	0	44	0	469762048	21	4407
2026-01-17 22:43:05.27	76.22	20.69	-30.7	-32.6	12.7	7.09e-05	0	44	0	470810624	21	4489
2026-01-17 22:43:06.28	76.48	20.72	-30.6	-32.4	12.8	6.10e-05	0	44	0	472907776	21	4428
2026-01-17 22:43:07.28	76.73	20.74	-30.6	-32.4	12.9	3.81e-05	0	44	0	475004928	21	4406
2026-01-17 22:43:08.28	76.98	20.76	-31.0	-33.3	12.3	1.36e-04	0	44	0	477102080	21	4736
2026-01-17 22:43:09.29	77.24	20.78	-30.7	-32.1	12.8	1.23e-04	0	44	0	479199232	22	4225
2026-01-17 22:43:10.29	77.49	20.80	-30.3	-31.1	13.5	1.22e-05	0	44	0	481296384	22	3911
2026-01-17 22:43:11.30	77.75	20.82	-30.1	-31.0	13.8	9.10e-06	0	44	0	482344960	21	3986
2026-01-17 22:43:12.30	78.00	20.84	-30.1	-31.0	13.8	4.50e-06	0	44	0	484442112	21	3979
2026-01-17 22:43:13.30	78.25	20.86	-30.0	-30.8	14.0	6.80e-06	0	44	0	486539264	21	3925
2026-01-17 22:43:14.31	78.51	20.88	-30.1	-31.0	13.8	4.50e-06	0	44	0	488636416	21	3989
2026-01-17 22:43:15.31	78.77	20.89	-30.2	-31.3	13.7	3.80e-06	0	44	0	489684992	21	4066
2026-01-17 22:43:16.31	79.02	20.91	-30.2	-31.1	13.7	1.14e-05	0	44	0	491782144	21	4011
2026-01-17 22:43:17.31	79.28	20.93	-30.2	-31.1	13.7	8.30e-06	0	44	0	493879296	21	4021
2026-01-17 22:43:18.32	79.54	20.94	-30.1	-30.9	13.9	8.30e-06	0	44	0	495976448	21	3948
2026-01-17 22:43:19.33	79.80	20.96	-30.2	-31.2	13.7	3.00e-06	0	44	0	498073600	21	4032
2026-01-17 22:43:20.33	80.05	20.97	-30.4	-31.7	13.4	7.60e-06	0	44	0	499122176	21	4186
2026-01-17 22:43:21.33	80.31	20.99	-30.3	-31.5	13.5	8.30e-06	0	44	0	501219328	21	4137
2026-01-17 22:43:22.34	80.57	21.00	-30.6	-32.3	12.9	2.97e-05	0	44	0	503316480	21	4380
2026-01-17 22:43:23.34	80.83	21.01	-30.8	-32.8	12.7	7.01e-05	0	44	0	505413632	21	4550
2026-01-17 22:43:24.34	81.08	21.03	-30.8	-32.8	12.6	1.23e-04	0	44	0	507510784	21	4557
2026-01-17 22:43:25.34	81.34	21.04	-30.6	-32.4	12.9	6.33e-05	0	44	0	508559360	21	4415
2026-01-17 22:43:26.35	81.60	21.05	-30.6	-32.2	13.0	4.34e-05	0	44	0	510656512	21	4353
2026-01-17 22:43:27.35	81.86	21.06	-30.6	-32.3	13.0	2.82e-05	0	44	0	512753664	21	4377
2026-01-17 22:43:28.35	82.12	21.07	-30.7	-32.5	12.8	6.79e-05	0	44	0	514850816	21	4442
2026-01-17 22:43:29.36	82.38	21.08	-31.0	-33.3	12.3	7.85e-05	0	44	0	516947968	21	4704
2026-01-17 22:43:30.35	82.63	21.09	-31.1	-33.2	12.0	3.74e-04	0	44	0	517996544	22	4589
2026-01-17 22:43:31.36	82.89	21.10	-31.0	-32.8	12.3	2.27e-04	0	44	0	520093696	22	4454
2026-01-17 22:43:32.36	83.15	21.11	-30.8	-32.3	12.7	1.50e-04	0	44	0	522190848	22	4286
2026-01-17 22:43:33.36	83.41	21.11	-30.8	-32.3	12.7	9.38e-05	0	44	0	524288000	22	4275
2026-01-17 22:43:34.36	83.67	21.12	-30.8	-32.3	12.7	5.79e-05	0	44	0	526385152	22	4295
2026-01-17 22:43:35.37	83.93	21.13	-30.9	-32.5	12.6	1.32e-04	0	44	0	527433728	22	4336
2026-01-17 22:43:36.37	84.19	21.13	-30.7	-32.1	12.8	8.23e-05	0	44	0	529530880	22	4217
2026-01-17 22:43:37.37	84.45	21.14	-30.8	-32.2	12.7	1.04e-04	0	44	0	531628032	22	4243
2026-01-17 22:43:38.38	84.71	21.14	-30.7	-31.9	13.0	5.87e-05	0	44	0	533725184	22	4151
2026-01-17 22:43:39.38	84.97	21.14	-30.6	-31.9	13.0	3.43e-05	0	44	0	534773760	22	4149
2026-01-17 22:43:40.38	85.23	21.15	-30.7	-32.1	12.9	5.79e-05	0	44	0	536870912	22	4207
2026-01-17 22:43:41.39	85.49	21.15	-30.6	-31.8	13.0	2.97e-05	0	44	0	538968064	22	4120
2026-01-17 22:43:42.39	85.75	21.15	-30.6	-31.7	13.1	1.44e-05	0	44	0	541065216	22	4090
2026-01-17 22:43:43.39	86.01	21.15	-30.5	-31.5	13.2	2.36e-05	0	44	0	543162368	22	4036
2026-01-17 22:43:44.39	86.27	21.15	-30.9	-32.6	12.5	9.00e-05	0	44	0	544210944	22	4370
2026-01-17 22:43:45.39	86.53	21.15	-31.0	-32.8	12.4	1.60e-04	0	44	0	546308096	22	4446
2026-01-17 22:43:46.39	86.79	21.15	-30.9	-32.7	12.4	1.45e-04	0	44	0	548405248	22	4413
2026-01-17 22:43:47.39	87.05	21.15	-31.0	-32.9	12.3	1.63e-04	0	44	0	550502400	22	4497
2026-01-17 22:43:48.39	87.31	21.15	-31.0	-32.9	12.3	2.91e-04	0	44	0	552599552	22	4496
2026-01-17 22:43:49.40	87.57	21.15	-30.7	-32.1	12.8	1.10e-04	0	44	0	553648128	22	4215
2026-01-17 22:43:50.40	87.83	21.14	-30.6	-31.8	13.0	3.20e-05	0	44	0	555745280	22	4140
2026-01-17 22:43:51.40	88.09	21.14	-30.6	-31.7	13.1	7.78e-05	0	44	0	557842432	22	4085
2026-01-17 22:43:52.40	88.35	21.14	-30.5	-31.4	13.3	2.21e-05	0	44	0	559939584	22	4013
2026-01-17 22:43:53.40	88.61	21.13	-30.4	-31.2	13.4	1.98e-05	0	44	0	562036736	22	3964
2026-01-17 22:43:54.40	88.87	21.13	-30.3	-31.6	13.5	1.37e-04	0	44	0	563085312	21	4145
2026-01-17 22:43:55.40	89.13	21.12	-30.2	-31.3	13.7	1.11e-04	0	44	0	565182464	21	4063
2026-01-17 22:43:56.41	89.39	21.12	-30.0	-30.8	14.0	5.30e-06	0	44	0	567279616	21	3914
2026-01-17 22:43:57.41	89.65	21.11	-30.0	-30.7	14.0	6.79e-05	0	44	0	569376768	21	3905
2026-01-17 22:43:58.42	89.91	21.10	-30.1	-31.0	13.8	8.16e-05	0	44	0	571473920	21	3977
2026-01-17 22:43:59.42	90.17	21.09	-30.2	-31.1	13.7	1.14e-05	0	44	0	572522496	21	4010
2026-01-17 22:44:00.41	90.43	21.08	-30.4	-31.7	13.4	1.22e-05	0	44	0	574619648	21	4182
2026-01-17 22:44:01.41	90.69	21.08	-30.5	-31.9	13.2	2.10e-04	0	44	0	576716800	21	4254
2026-01-17 22:44:02.41	90.94	21.07	-30.6	-32.3	12.9	2.21e-05	0	44	0	578813952	21	4392
2026-01-17 22:44:03.41	91.20	21.06	-30.6	-32.3	13.0	3.89e-05	0	44	0	579862528	21	4388
2026-01-17 22:44:04.42	91.46	21.04	-30.4	-31.6	13.4	1.98e-05	0	44	0	581959680	21	4171
2026-01-17 22:44:05.42	91.72	21.03	-30.3	-31.5	13.5	1.29e-05	0	44	0	584056832	21	4126
2026-01-17 22:44:06.42	91.98	21.02	-30.4	-31.6	13.4	6.10e-06	0	44	0	586153984	21	4174
2026-01-17 22:44:07.42	92.24	21.01	-30.4	-31.7	13.3	1.75e-05	0	44	0	588251136	21	4198
2026-01-17 22:44:08.43	92.50	20.99	-30.4	-31.8	13.3	2.21e-05	0	44	0	589299712	21	4234
2026-01-17 22:44:09.43	92.75	20.98	-30.6	-32.2	13.0	3.81e-05	0	44	0	591396864	21	4355
2026-01-17 22:44:10.43	93.01	20.97	-30.3	-31.4	13.5	1.83e-05	0	44	0	593494016	21	4100
2026-01-17 22:44:11.44	93.27	20.95	-30.2	-31.3	13.7	8.30e-06	0	44	0	595591168	21	4057
2026-01-17 22:44:12.44	93.52	20.94	-30.3	-31.6	13.4	1.98e-05	0	44	0	597688320	21	4145
2026-01-17 22:44:13.45	93.78	20.92	-30.3	-31.5	13.5	1.52e-05	0	44	0	598736896	21	4136
2026-01-17 22:44:14.45	94.04	20.90	-30.2	-31.1	13.8	9.10e-06	0	44	0	600834048	21	4005
2026-01-17 22:44:15.45	94.29	20.89	-30.4	-31.7	13.4	1.44e-05	0	44	0	602931200	21	4189
2026-01-17 22:44:16.45	94.55	20.87	-30.2	-31.3	13.6	1.14e-05	0	44	0	605028352	21	4083
2026-01-17 22:44:17.45	94.81	20.85	-30.2	-31.4	13.6	1.14e-05	0	44	0	607125504	21	4092
2026-01-17 22:44:18.46	95.06	20.83	-30.3	-31.4	13.6	1.98e-05	0	44	0	608174080	21	4089
2026-01-17 22:44:19.46	95.32	20.81	-30.2	-31.2	13.7	6.10e-06	0	44	0	610271232	21	4038
2026-01-17 22:44:20.47	95.57	20.79	-30.1	-31.1	13.8	1.50e-06	0	44	0	612368384	21	4002
2026-01-17 22:44:21.47	95.83	20.77	-30.1	-30.9	13.9	3.00e-06	0	44	0	614465536	21	3954
2026-01-17 22:44:22.47	96.08	20.75	-30.2	-31.1	13.7	4.50e-06	0	44	0	616562688	21	4021
2026-01-17 22:44:23.47	96.33	20.73	-30.2	-31.3	13.6	5.30e-06	0	44	0	617611264	21	4075
2026-01-17 22:44:24.47	96.59	20.71	-30.3	-31.6	13.4	6.80e-06	0	44	0	619708416	21	4157
2026-01-17 22:44:25.48	96.84	20.68	-30.4	-31.7	13.3	2.05e-05	0	44	0	621805568	21	4204
2026-01-17 22:44:26.48	97.09	20.66	-30.4	-31.7	13.4	1.22e-05	0	44	0	623902720	21	4181
2026-01-17 22:44:27.49	97.35	20.64	-30.3	-31.5	13.5	1.44e-05	0	44	0	625999872	21	4131
2026-01-17 22:44:28.49	97.60	20.61	-30.3	-31.5	13.4	2.59e-05	0	44	0	627048448	21	4142
2026-01-17 22:44:29.49	97.85	20.59	-30.1	-30.9	13.8	7.60e-06	0	44	0	629145600	21	3964
2026-01-17 22:44:30.49	98.10	20.56	-30.1	-31.4	13.8	2.73e-04	0	44	0	631242752	20	4192
2026-01-17 22:44:31.49	98.35	20.53	-30.2	-31.6	13.7	7.60e-06	0	44	0	633339904	20	4265
2026-01-17 22:44:32.50	98.60	20.51	-30.1	-31.5	13.8	7.00e-07	0	44	0	635437056	20	4213
2026-01-17 22:44:33.51	98.85	20.48	-30.0	-31.1	14.1	2.44e-04	0	44	0	636485632	20	4111
2026-01-17 22:44:34.50	99.10	20.45	-30.0	-31.3	14.0	1.63e-04	0	44	0	638582784	20	4147
2026-01-17 22:44:35.51	99.35	20.43	-30.0	-31.3	13.9	3.80e-06	0	44	0	640679936	20	4162
2026-01-17 22:44:36.51	99.60	20.40	-29.9	-30.9	14.2	1.83e-05	0	44	0	642777088	20	4049
2026-01-17 22:44:37.51	99.85	20.37	-29.9	-30.8	14.3	1.14e-05	0	44	0	643825664	20	4011
2026-01-17 22:44:38.51	100.09	20.34	-29.8	-30.6	14.4	1.50e-06	0	44	0	645922816	20	3959
2026-01-17 22:44:39.51	100.34	20.31	-29.9	-30.8	14.2	2.21e-05	0	44	0	648019968	20	4031
2026-01-17 22:44:40.51	100.59	20.28	-29.9	-30.8	14.2	1.60e-05	0	44	0	650117120	20	4017
2026-01-17 22:44:41.51	100.83	20.25	-30.0	-31.3	13.9	2.20e-06	0	44	0	652214272	20	4151
2026-01-17 22:44:42.51	101.08	20.22	-30.4	-32.3	13.3	6.10e-06	0	44	0	653262848	20	4462
2026-01-17 22:44:43.51	101.32	20.19	-30.4	-31.9	13.2	1.72e-04	0	44	0	655360000	21	4248
2026-01-17 22:44:44.50	101.56	20.15	-30.3	-31.5	13.5	2.74e-05	0	44	0	657457152	21	4124
2026-01-17 22:44:45.51	101.81	20.12	-30.3	-31.6	13.4	8.30e-06	0	44	0	659554304	21	4177
2026-01-17 22:44:46.50	102.05	20.09	-30.3	-31.6	13.4	6.94e-05	0	44	0	661651456	21	4168
2026-01-17 22:44:47.50	102.29	20.05	-30.1	-30.9	13.8	3.80e-06	0	44	0	662700032	21	3976
2026-01-17 22:44:48.51	102.54	20.02	-29.9	-30.4	14.2	3.80e-06	0	44	0	664797184	21	3823
2026-01-17 22:44:49.51	102.78	19.98	-29.9	-31.0	14.1	2.20e-06	0	44	0	666894336	20	4075
2026-01-17 22:44:50.51	103.02	19.95	-29.8	-30.7	14.3	7.00e-07	0	44	0	668991488	20	3974
2026-01-17 22:44:51.52	103.26	19.91	-29.9	-31.1	14.0	6.79e-05	0	44	0	670040064	20	4096
2026-01-17 22:44:52.52	103.50	19.88	-29.6	-30.2	14.6	1.50e-06	0	44	0	672137216	20	3863
2026-01-17 22:44:53.52	103.74	19.84	-29.7	-30.5	14.4	1.50e-06	0	44	0	674234368	20	3948
2026-01-17 22:44:54.52	103.98	19.80	-29.8	-30.6	14.3	1.60e-04	0	44	0	676331520	20	3977
2026-01-17 22:44:55.53	104.22	19.77	-29.9	-31.0	14.1	4.50e-06	0	44	0	678428672	20	4074
2026-01-17 22:44:56.53	104.46	19.73	-30.0	-31.2	13.9	1.50e-06	0	44	0	679477248	20	4128
2026-01-17 22:44:57.53	104.70	19.69	-29.9	-31.0	14.1	7.93e-05	0	44	0	681574400	20	4067
2026-01-17 22:44:58.54	104.94	19.65	-29.9	-30.9	14.1	7.32e-05	0	44	0	683671552	20	4048
2026-01-17 22:44:59.54	105.17	19.61	-29.9	-31.0	14.1	7.00e-07	0	44	0	685768704	20	4078
2026-01-17 22:45:00.54	105.41	19.57	-29.9	-30.8	14.1	3.00e-06	0	44	0	687865856	20	4023
2026-01-17 22:45:01.54	105.64	19.53	-30.0	-31.1	14.0	7.40e-05	0	44	0	688914432	20	4106
2026-01-17 22:45:02.54	105.88	19.49	-29.9	-31.0	14.0	3.80e-06	0	44	0	691011584	20	4081
2026-01-17 22:45:03.55	106.11	19.45	-30.1	-31.5	13.8	3.80e-06	0	44	0	693108736	20	4220
2026-01-17 22:45:04.55	106.35	19.41	-30.2	-31.6	13.6	8.16e-05	0	44	0	695205888	20	4268
2026-01-17 22:45:05.55	106.58	19.37	-30.3	-31.9	13.5	4.50e-06	0	44	0	697303040	20	4353
2026-01-17 22:45:06.54	106.81	19.33	-30.2	-31.8	13.5	1.44e-05	0	44	0	698351616	20	4314
2026-01-17 22:45:07.54	107.04	19.29	-30.1	-31.6	13.7	1.67e-05	0	44	0	700448768	20	4246
2026-01-17 22:45:08.54	107.27	19.24	-30.2	-31.6	13.6	1.22e-05	0	44	0	702545920	20	4271
2026-01-17 22:45:09.54	107.50	19.20	-30.1	-31.4	13.8	1.06e-05	0	44	0	704643072	20	4198
2026-01-17 22:45:10.54	107.73	19.16	-30.1	-31.5	13.7	4.50e-06	0	44	0	706740224	20	4230
2026-01-17 22:45:11.54	107.96	19.11	-30.1	-31.5	13.7	3.00e-06	0	44	0	707788800	20	4229
2026-01-17 22:45:12.55	108.19	19.07	-30.1	-31.4	13.8	6.10e-06	0	44	0	709885952	20	4191
2026-01-17 22:45:13.54	108.41	19.03	-30.2	-31.8	13.5	6.80e-06	0	44	0	711983104	20	4305
2026-01-17 22:45:14.54	108.64	18.98	-30.3	-32.1	13.4	1.14e-05	0	44	0	714080256	20	4406
2026-01-17 22:45:15.55	108.87	18.94	-30.4	-32.3	13.1	5.64e-05	0	44	0	715128832	20	4496
2026-01-17 22:45:16.55	109.09	18.89	-30.4	-31.9	13.0	3.35e-05	0	44	0	717225984	21	4257
2026-01-17 22:45:17.56	109.32	18.84	-30.5	-32.2	12.8	5.72e-05	0	44	0	719323136	21	4346
2026-01-17 22:45:18.56	109.55	18.80	-30.8	-33.1	12.3	9.61e-05	0	44	0	721420288	21	4666
2026-01-17 22:45:19.56	109.77	18.75	-31.0	-33.1	12.0	4.30e-04	0	44	0	723517440	22	4565
2026-01-17 22:45:20.57	109.99	18.70	-30.9	-32.8	12.2	3.02e-04	0	44	0	724566016	22	4476
2026-01-17 22:45:21.57	110.22	18.66	-31.1	-33.3	11.8	2.72e-04	0	44	0	726663168	22	4642
2026-01-17 22:45:22.58	110.44	18.61	-31.2	-33.7	11.6	8.86e-04	0	44	0	728760320	22	4794
2026-01-17 22:45:23.58	110.66	18.56	-31.2	-33.7	11.5	1.01e-03	0	44	0	730857472	22	4788
2026-01-17 22:45:24.58	110.88	18.51	-31.0	-33.1	12.0	4.69e-04	0	44	0	732954624	22	4572
2026-01-17 22:45:25.59	111.10	18.46	-30.7	-32.7	12.5	2.18e-04	0	44	0	734003200	21	4546
2026-01-17 22:45:26.60	111.32	18.41	-30.8	-33.0	12.4	1.83e-04	0	44	0	736100352	21	4628
2026-01-17 22:45:27.61	111.54	18.36	-30.7	-32.8	12.4	1.95e-04	0	44	0	738197504	21	4582
2026-01-17 22:45:28.61	111.76	18.31	-30.8	-33.0	12.4	1.65e-04	0	44	0	740294656	21	4627
2026-01-17 22:45:29.61	111.98	18.27	-30.8	-33.0	12.3	1.91e-04	0	44	0	742391808	21	4639
2026-01-17 22:45:30.62	112.20	18.21	-31.1	-33.2	11.8	3.05e-04	0	44	0	743440384	22	4625
2026-01-17 22:45:31.62	112.41	18.16	-31.3	-33.9	11.4	6.83e-04	0	44	0	745537536	22	4875
2026-01-17 22:45:32.62	112.63	18.11	-31.1	-33.4	11.7	1.51e-03	0	44	0	747634688	22	4690
2026-01-17 22:45:33.63	112.84	18.06	-30.9	-32.9	12.0	3.68e-04	0	44	0	749731840	22	4525
2026-01-17 22:45:34.63	113.06	18.01	-30.7	-32.1	12.6	1.57e-04	0	44	0	751828992	22	4265
2026-01-17 22:45:35.63	113.27	17.96	-30.5	-31.6	13.0	6.17e-05	0	44	0	752877568	22	4088
2026-01-17 22:45:36.63	113.48	17.91	-30.5	-31.6	13.0	5.72e-05	0	44	0	754974720	22	4085
2026-01-17 22:45:37.64	113.69	17.86	-30.5	-31.7	12.8	8.39e-05	0	44	0	757071872	22	4142
2026-01-17 22:45:38.64	113.90	17.80	-30.6	-32.0	12.6	6.25e-05	0	44	0	759169024	22	4231
2026-01-17 22:45:39.64	114.11	17.75	-30.7	-32.4	12.4	8.85e-05	0	44	0	761266176	22	4346
2026-01-17 22:45:40.64	114.32	17.70	-30.7	-32.2	12.5	8.46e-05	0	44	0	762314752	22	4297
2026-01-17 22:45:41.65	114.53	17.64	-30.8	-32.6	12.2	1.75e-04	0	44	0	764411904	22	4430
2026-01-17 22:45:42.65	114.74	17.59	-31.1	-33.3	11.8	2.30e-04	0	44	0	766509056	22	4653
2026-01-17 22:45:43.65	114.95	17.54	-31.1	-33.3	11.7	5.93e-04	0	44	0	768606208	22	4658
2026-01-17 22:45:44.66	115.15	17.48	-31.3	-33.9	11.3	1.13e-03	0	44	0	770703360	22	4878
2026-01-17 22:45:45.67	115.36	17.43	-31.3	-34.1	11.2	1.36e-03	0	44	0	771751936	22	4963
2026-01-17 22:45:46.67	115.57	17.38	-31.5	-34.5	10.9	1.72e-03	0	44	0	773849088	22	5131
2026-01-17 22:45:47.68	115.77	17.32	-31.4	-34.2	11.1	1.37e-03	0	44	0	775946240	22	5011
2026-01-17 22:45:48.67	115.97	17.27	-31.4	-34.3	11.0	1.36e-03	0	44	0	778043392	22	5039
2026-01-17 22:45:49.67	116.18	17.21	-31.2	-33.8	11.4	1.45e-03	0	44	0	779091968	22	4845
2026-01-17 22:45:50.68	116.38	17.16	-31.3	-34.0	11.2	9.60e-04	0	44	0	781189120	22	4925
2026-01-17 22:45:51.68	116.58	17.10	-31.2	-33.8	11.4	1.05e-03	0	44	0	783286272	22	4847
2026-01-17 22:45:52.67	116.78	17.05	-31.1	-33.5	11.5	8.68e-04	0	44	0	785383424	22	4754
2026-01-17 22:45:53.68	116.98	16.99	-31.2	-33.9	11.2	1.19e-03	0	44	0	787480576	22	4919
2026-01-17 22:45:54.68	117.18	16.93	-31.3	-34.1	11.1	1.26e-03	0	44	0	788529152	22	4974
2026-01-17 22:45:55.68	117.38	16.88	-31.3	-34.2	11.0	1.39e-03	0	44	0	790626304	22	5012
2026-01-17 22:45:56.68	117.58	16.82	-31.5	-34.4	10.5	1.96e-03	0	44	0	792723456	23	5006
2026-01-17 22:45:57.69	117.78	16.76	-31.5	-34.3	10.6	3.53e-03	0	44	0	794820608	23	4949
2026-01-17 22:45:58.70	117.97	16.71	-31.3	-33.4	11.2	2.22e-03	0	44	0	796917760	23	4623
2026-01-17 22:45:59.70	118.17	16.65	-30.9	-32.3	12.0	6.90e-04	0	44	0	797966336	23	4237
2026-01-17 22:46:00.70	118.36	16.59	-30.9	-32.4	12.0	3.96e-04	0	44	0	800063488	23	4259
2026-01-17 22:46:01.69	118.56	16.54	-30.7	-32.1	12.5	2.02e-04	0	44	0	802160640	22	4251
2026-01-17 22:46:02.70	118.75	16.48	-30.6	-32.0	12.6	1.05e-04	0	44	0	804257792	22	4237
2026-01-17 22:46:03.70	118.94	16.42	-30.7	-32.1	12.5	3.11e-04	0	44	0	806354944	22	4263
2026-01-17 22:46:04.71	119.14	16.36	-30.7	-32.1	12.5	1.33e-04	0	44	0	807403520	22	4265
2026-01-17 22:46:05.71	119.33	16.30	-30.7	-32.2	12.4	1.69e-04	0	44	0	809500672	22	4298
2026-01-17 22:46:06.71	119.52	16.25	-30.6	-32.5	12.5	1.70e-04	0	44	0	811597824	21	4465
2026-01-17 22:46:07.72	119.71	16.19	-30.6	-32.4	12.5	9.53e-05	0	44	0	813694976	21	4451
2026-01-17 22:46:08.71	119.90	16.13	-30.6	-32.6	12.4	9.07e-05	0	44	0	815792128	21	4505
2026-01-17 22:46:09.71	120.08	16.07	-30.7	-32.7	12.3	1.38e-04	0	44	0	816840704	21	4567
2026-01-17 22:46:10.71	120.27	16.01	-30.5	-32.3	12.6	1.14e-04	0	44	0	818937856	21	4431
2026-01-17 22:46:11.71	120.46	15.95	-30.5	-32.2	12.7	8.85e-05	0	44	0	821035008	21	4399
2026-01-17 22:46:12.71	120.65	15.89	-30.6	-32.6	12.4	1.57e-04	0	44	0	823132160	21	4529
2026-01-17 22:46:13.72	120.83	15.83	-30.8	-33.2	12.0	2.20e-04	0	44	0	824180736	21	4735
2026-01-17 22:46:14.73	121.02	15.77	-31.1	-33.4	11.5	5.09e-04	0	44	0	826277888	22	4702
2026-01-17 22:46:15.73	121.20	15.71	-30.9	-32.9	11.9	8.13e-04	0	44	0	828375040	22	4518
2026-01-17 22:46:16.72	121.38	15.66	-30.8	-32.6	12.1	4.39e-04	0	44	0	830472192	22	4415
2026-01-17 22:46:17.73	121.57	15.60	-30.8	-32.6	12.0	3.12e-04	0	44	0	832569344	22	4442
2026-01-17 22:46:18.73	121.75	15.54	-30.6	-32.0	12.6	2.55e-04	0	44	0	833617920	22	4215
2026-01-17 22:46:19.73	121.93	15.48	-30.7	-32.3	12.3	9.53e-05	0	44	0	835715072	22	4307
2026-01-17 22:46:20.74	122.11	15.42	-30.6	-32.1	12.5	2.34e-04	0	44	0	837812224	22	4254
2026-01-17 22:46:21.74	122.29	15.36	-30.5	-31.7	12.7	1.41e-04	0	44	0	839909376	22	4145
2026-01-17 22:46:22.75	122.47	15.29	-30.8	-32.5	12.2	1.25e-04	0	44	0	842006528	22	4385
2026-01-17 22:46:23.75	122.65	15.23	-30.7	-32.4	12.2	3.39e-04	0	44	0	843055104	22	4375
2026-01-17 22:46:24.75	122.83	15.17	-30.9	-32.9	11.9	2.13e-04	0	44	0	845152256	22	4541
2026-01-17 22:46:25.76	123.01	15.11	-31.0	-33.1	11.7	5.74e-04	0	44	0	847249408	22	4623
2026-01-17 22:46:26.75	123.18	15.05	-30.9	-33.0	11.7	4.67e-04	0	44	0	849346560	22	4581
2026-01-17 22:46:27.76	123.36	14.99	-30.8	-32.5	12.1	4.19e-04	0	44	0	851443712	22	4401
2026-01-17 22:46:28.76	123.53	14.93	-30.6	-32.2	12.3	2.43e-04	0	44	0	852492288	22	4300
2026-01-17 22:46:29.76	123.71	14.87	-30.5	-32.3	12.5	5.24e-04	0	44	0	854589440	21	4437
2026-01-17 22:46:30.77	123.88	14.81	-30.5	-32.3	12.5	5.99e-04	0	44	0	856686592	21	4424
2026-01-17 22:46:31.78	124.06	14.75	-30.8	-33.2	11.9	1.73e-04	0	44	0	858783744	21	4727
2026-01-17 22:46:32.78	124.23	14.68	-30.8	-33.2	11.9	1.07e-03	0	44	0	860880896	21	4730
2026-01-17 22:46:33.79	124.40	14.62	-31.0	-33.8	11.5	5.70e-04	0	44	0	861929472	21	4956
2026-01-17 22:46:34.79	124.57	14.56	-31.1	-33.5	11.3	1.07e-03	0	44	0	864026624	22	4768
2026-01-17 22:46:35.80	124.75	14.50	-31.1	-33.5	11.4	2.31e-03	0	44	0	866123776	22	4748
2026-01-17 22:46:36.80	124.91	14.44	-31.1	-33.5	11.3	1.92e-03	0	44	0	868220928	22	4768
2026-01-17 22:46:37.81	125.09	14.37	-31.1	-33.6	11.3	1.46e-03	0	44	0	870318080	22	4781
2026-01-17 22:46:38.80	125.25	14.31	-31.0	-33.3	11.5	1.81e-03	0	44	0	871366656	22	4676
2026-01-17 22:46:39.80	125.42	14.25	-30.8	-33.2	11.9	1.42e-03	0	44	0	873463808	21	4747
2026-01-17 22:46:40.80	125.59	14.19	-30.7	-32.9	12.0	3.04e-04	0	44	0	875560960	21	4651
2026-01-17 22:46:41.80	125.75	14.13	-30.7	-33.0	12.0	5.32e-04	0	44	0	877658112	21	4671
2026-01-17 22:46:42.81	125.92	14.07	-30.8	-33.4	11.7	4.17e-04	0	44	0	878706688	21	4820
2026-01-17 22:46:43.81	126.08	14.00	-30.7	-33.0	11.9	4.38e-04	0	44	0	880803840	21	4697
2026-01-17 22:46:44.82	126.25	13.94	-30.5	-32.5	12.3	1.65e-04	0	44	0	882900992	21	4495
2026-01-17 22:46:45.82	126.41	13.88	-30.5	-32.4	12.4	4.89e-04	0	44	0	884998144	21	4471
2026-01-17 22:46:46.83	126.58	13.82	-30.6	-32.5	12.3	2.55e-04	0	44	0	887095296	21	4511
2026-01-17 22:46:47.83	126.74	13.75	-30.8	-33.1	12.0	3.44e-04	0	44	0	888143872	21	4709
2026-01-17 22:46:48.84	126.90	13.69	-30.6	-32.6	12.2	5.52e-04	0	44	0	890241024	21	4523
2026-01-17 22:46:49.84	127.06	13.63	-30.3	-31.8	12.7	8.16e-05	0	44	0	892338176	21	4284
2026-01-17 22:46:50.85	127.22	13.57	-30.1	-31.1	13.2	2.28e-05	0	44	0	894435328	21	4058
2026-01-17 22:46:51.85	127.38	13.50	-30.0	-30.8	13.4	2.05e-05	0	44	0	896532480	21	3968
2026-01-17 22:46:52.85	127.54	13.44	-29.9	-30.7	13.5	7.60e-06	0	44	0	897581056	21	3946
2026-01-17 22:46:53.86	127.70	13.38	-29.9	-30.7	13.5	4.65e-05	0	44	0	899678208	21	3961
2026-01-17 22:46:54.85	127.85	13.32	-30.2	-31.7	12.8	5.49e-05	0	44	0	901775360	21	4240
2026-01-17 22:46:55.85	128.01	13.25	-30.3	-31.8	12.7	7.32e-05	0	44	0	903872512	21	4302
2026-01-17 22:46:56.86	128.17	13.19	-30.6	-32.8	12.0	1.73e-04	0	44	0	905969664	21	4645
2026-01-17 22:46:57.85	128.32	13.13	-30.5	-32.4	12.3	2.35e-04	0	44	0	907018240	21	4496
2026-01-17 22:46:58.86	128.48	13.06	-30.5	-32.5	12.2	1.56e-04	0	44	0	909115392	21	4527
2026-01-17 22:46:59.85	128.63	13.00	-30.4	-32.3	12.3	1.26e-04	0	44	0	911212544	21	4463
2026-01-17 22:47:00.86	128.79	12.94	-30.6	-32.7	12.1	1.73e-04	0	44	0	913309696	21	4582
2026-01-17 22:47:01.85	128.94	12.88	-30.6	-32.8	12.0	2.84e-04	0	44	0	915406848	21	4640
2026-01-17 22:47:02.86	129.09	12.81	-30.7	-32.9	11.9	2.94e-04	0	44	0	916455424	21	4666
2026-01-17 22:47:03.87	129.24	12.75	-30.7	-33.1	11.8	4.36e-04	0	44	0	918552576	21	4708
2026-01-17 22:47:04.87	129.40	12.69	-30.8	-33.4	11.6	4.97e-04	0	44	0	920649728	21	4842
2026-01-17 22:47:05.87	129.55	12.62	-30.9	-33.5	11.5	7.80e-04	0	44	0	922746880	21	4875
2026-01-17 22:47:06.88	129.70	12.56	-30.9	-33.6	11.4	8.38e-04	0	44	0	923795456	21	4932
2026-01-17 22:47:07.88	129.85	12.50	-31.0	-33.8	11.2	1.08e-03	0	44	0	925892608	21	5018
2026-01-17 22:47:08.88	129.99	12.43	-30.9	-33.1	11.4	1.34e-03	0	44	0	927989760	22	4661
2026-01-17 22:47:09.88	130.14	12.37	-30.8	-33.0	11.5	1.00e-03	0	44	0	930086912	22	4610
2026-01-17 22:47:10.88	130.29	12.31	-30.7	-32.7	11.7	8.33e-04	0	44	0	932184064	22	4516
2026-01-17 22:47:11.88	130.44	12.25	-30.8	-32.9	11.5	8.26e-04	0	44	0	933232640	22	4581
2026-01-17 22:47:12.88	130.58	12.18	-30.4	-31.9	12.2	5.39e-04	0	44	0	935329792	22	4249
2026-01-17 22:47:13.88	130.73	12.12	-30.2	-31.7	12.6	1.23e-04	0	44	0	937426944	21	4272
2026-01-17 22:47:14.88	130.87	12.06	-30.1	-31.3	12.9	7.13e-04	0	44	0	939524096	21	4130
2026-01-17 22:47:15.88	131.02	11.99	-30.1	-31.7	13.0	4.19e-05	0	44	0	941621248	20	4362
2026-01-17 22:47:16.88	131.16	11.93	-30.2	-32.1	12.8	3.43e-05	0	44	0	942669824	20	4472
2026-01-17 22:47:17.89	131.31	11.87	-30.1	-31.9	12.8	5.34e-05	0	44	0	944766976	20	4425
2026-01-17 22:47:18.89	131.45	11.81	-30.1	-31.9	12.8	6.48e-05	0	44	0	946864128	20	4430
2026-01-17 22:47:19.88	131.59	11.74	-30.2	-32.2	12.6	6.94e-05	0	44	0	948961280	20	4517
2026-01-17 22:47:20.89	131.73	11.68	-30.3	-32.5	12.4	1.17e-04	0	44	0	951058432	20	4656
2026-01-17 22:47:21.89	131.87	11.62	-30.2	-32.4	12.5	9.91e-05	0	44	0	952107008	20	4602
2026-01-17 22:47:22.90	132.01	11.55	-30.3	-32.6	12.3	9.23e-05	0	44	0	954204160	20	4673
2026-01-17 22:47:23.90	132.15	11.49	-30.3	-32.5	12.4	1.50e-04	0	44	0	956301312	20	4655
2026-01-17 22:47:24.90	132.29	11.43	-30.4	-32.7	12.2	2.45e-04	0	44	0	958398464	20	4734
2026-01-17 22:47:25.90	132.43	11.36	-30.5	-32.7	11.9	2.73e-04	0	44	0	960495616	21	4637
2026-01-17 22:47:26.91	132.57	11.30	-30.7	-33.0	11.7	3.68e-04	0	44	0	961544192	21	4737
2026-01-17 22:47:27.92	132.71	11.24	-30.7	-33.1	11.6	7.65e-04	0	44	0	963641344	21	4753
2026-01-17 22:47:28.91	132.84	11.18	-30.8	-33.4	11.4	1.01e-03	0	44	0	965738496	21	4868
2026-01-17 22:47:29.91	132.98	11.11	-30.8	-33.3	11.5	1.38e-03	0	44	0	967835648	21	4823
2026-01-17 22:47:30.91	133.11	11.05	-31.1	-34.0	10.6	1.46e-03	0	44	0	968884224	22	5010
2026-01-17 22:47:31.91	133.25	10.99	-31.1	-33.8	10.7	3.24e-03	0	44	0	970981376	22	4940
2026-01-17 22:47:32.91	133.38	10.92	-31.0	-33.8	10.7	2.53e-03	0	44	0	973078528	22	4933
2026-01-17 22:47:33.91	133.52	10.86	-31.0	-33.6	10.8	1.94e-03	0	44	0	975175680	22	4896
2026-01-17 22:47:34.91	133.65	10.80	-31.0	-33.8	10.7	2.43e-03	0	44	0	977272832	22	4951
2026-01-17 22:47:35.91	133.78	10.74	-31.1	-34.2	10.3	3.93e-03	0	44	0	978321408	22	5144
2026-01-17 22:47:36.91	133.92	10.67	-30.8	-33.2	11.0	4.14e-03	0	44	0	980418560	22	4758
2026-01-17 22:47:37.92	134.05	10.61	-30.4	-32.1	11.8	1.18e-03	0	44	0	982515712	22	4378
2026-01-17 22:47:38.92	134.18	10.55	-30.1	-31.6	12.4	2.94e-04	0	44	0	984612864	21	4302
2026-01-17 22:47:39.93	134.31	10.48	-30.0	-31.4	12.6	1.11e-04	0	44	0	986710016	21	4225
2026-01-17 22:47:40.93	134.44	10.42	-29.5	-30.9	12.6	1.23e-04	0	44	0	987758592	21	4236
2026-01-17 22:47:41.92	134.57	10.36	-30.2	-32.2	12.4	1.10e-04	0	44	0	989855744	20	4558
2026-01-17 22:47:42.92	134.70	10.30	-30.1	-32.0	12.6	1.29e-04	0	44	0	991952896	20	4471
2026-01-17 22:47:43.92	134.83	10.24	-30.3	-32.5	12.0	1.52e-04	0	44	0	994050048	20	4650
2026-01-17 22:47:44.92	134.96	10.17	-30.2	-32.3	12.2	1.43e-04	0	44	0	996147200	20	4580
2026-01-17 22:47:45.92	135.08	10.11	-30.3	-32.4	12.3	1.94e-04	0	44	0	997195776	20	4624
2026-01-17 22:47:46.93	135.21	10.05	-30.5	-33.1	11.8	2.85e-04	0	44	0	999292928	20	4853
2026-01-17 22:47:47.93	135.34	9.99	-30.5	-32.5	11.9	2.89e-04	0	44	0	1001390080	21	4557
2026-01-17 22:47:48.93	135.46	9.92	-30.6	-32.9	11.6	4.65e-04	0	44	0	1003487232	21	4713
2026-01-17 22:47:49.94	135.59	9.86	-30.6	-32.9	11.6	5.88e-04	0	44	0	1004535808	21	4698
2026-01-17 22:47:50.94	135.71	9.80	-30.6	-32.9	11.6	5.23e-04	0	44	0	1006632960	21	4692
2026-01-17 22:47:51.94	135.84	9.74	-30.6	-33.1	11.4	6.94e-04	0	44	0	1008730112	21	4773
2026-01-17 22:47:52.95	135.96	9.67	-30.6	-33.0	11.5	8.10e-04	0	44	0	1010827264	21	4748
2026-01-17 22:47:53.95	136.09	9.61	-30.6	-33.0	11.5	1.01e-03	0	44	0	1012924416	21	4744
2026-01-17 22:47:54.95	136.21	9.55	-30.8	-33.6	11.0	1.50e-03	0	44	0	1015021568	21	4971
2026-01-17 22:47:55.96	136.33	9.49	-30.8	-33.6	11.0	2.09e-03	0	44	0	1016070144	21	5007
2026-01-17 22:47:56.96	136.45	9.42	-30.9	-34.2	10.5	4.24e-03	0	44	0	1018167296	21	5247
2026-01-17 22:47:57.96	136.58	9.36	-30.9	-33.6	10.6	5.02e-03	0	44	0	1020264448	22	4924
2026-01-17 22:47:58.96	136.70	9.30	-31.0	-33.9	10.3	4.57e-03	0	44	0	1022361600	22	5046
2026-01-17 22:47:59.96	136.82	9.24	-31.2	-34.9	9.6	8.12e-03	0	44	0	1023410176	22	5490
2026-01-17 22:48:00.96	136.94	9.18	-31.2	-34.8	9.6	1.22e-02	0	44	0	1025507328	22	5469
2026-01-17 22:48:01.96	137.06	9.12	-31.1	-34.6	9.8	8.66e-03	0	44	0	1027604480	22	5354
2026-01-17 22:48:02.96	137.17	9.05	-31.1	-34.7	9.6	1.21e-02	0	44	0	1029701632	22	5423
2026-01-17 22:48:03.95	137.29	8.99	-31.1	-34.5	9.8	8.15e-03	0	44	0	1031798784	22	5347
2026-01-17 22:48:04.95	137.41	8.93	-31.1	-34.5	9.8	1.08e-02	0	44	0	1032847360	22	5316
2026-01-17 22:48:05.96	137.53	8.87	-31.0	-34.5	10.1	1.03e-02	0	44	0	1034944512	21	5425
2026-01-17 22:48:06.96	137.65	8.81	-30.9	-34.2	10.3	4.75e-03	0	44	0	1037041664	21	5271
2026-01-17 22:48:07.96	137.76	8.75	-31.1	-34.5	9.8	8.45e-03	0	44	0	1039138816	22	5330
2026-01-17 22:48:08.97	137.88	8.68	-31.1	-34.6	9.6	1.12e-02	0	44	0	1041235968	22	5373
2026-01-17 22:48:09.97	137.99	8.62	-31.0	-34.2	9.9	9.50e-03	0	44	0	1042284544	22	5172
2026-01-17 22:48:10.98	138.11	8.56	-31.0	-34.2	9.9	1.03e-02	0	44	0	1044381696	22	5192
2026-01-17 22:48:11.98	138.22	8.50	-31.2	-34.7	9.5	1.02e-02	0	44	0	1046478848	22	5427
2026-01-17 22:48:12.98	138.34	8.44	-31.1	-34.6	9.6	1.24e-02	0	44	0	1048576000	22	5389
2026-01-17 22:48:13.99	138.45	8.38	-31.2	-35.0	9.3	1.67e-02	0	44	0	1050673152	22	5535
2026-01-17 22:48:15.00	138.57	8.32	-31.2	-34.9	9.4	1.74e-02	0	44	0	1051721728	22	5518
2026-01-17 22:48:16.00	138.68	8.25	-31.4	-35.8	8.6	2.02e-02	0	44	0	1053818880	22	5987
2026-01-17 22:48:17.00	138.79	8.19	-31.3	-35.4	8.9	2.91e-02	0	44	0	1055916032	22	5770
2026-01-17 22:48:18.00	138.90	8.13	-31.4	-35.8	8.6	2.64e-02	0	44	0	1058013184	22	5979
2026-01-17 22:48:19.01	139.02	8.07	-31.7	-36.4	7.8	5.17e-02	0	44	0	1060110336	23	6184
2026-01-17 22:48:20.01	139.13	8.01	-31.4	-35.4	8.6	4.98e-02	0	44	0	1061158912	23	5647
2026-01-17 22:48:21.00	139.24	7.95	-31.2	-35.0	9.2	2.86e-02	0	44	0	1063256064	22	5551
2026-01-17 22:48:22.01	139.35	7.89	-31.1	-34.5	9.6	1.82e-02	0	44	0	1065353216	22	5316
2026-01-17 22:48:23.01	139.46	7.83	-30.8	-33.4	10.4	7.46e-03	0	44	0	1067450368	22	4872
2026-01-17 22:48:24.01	139.57	7.77	-30.7	-33.8	10.4	4.39e-03	0	44	0	1068498944	21	5140
2026-01-17 22:48:25.01	139.68	7.71	-30.8	-34.2	10.2	4.79e-03	0	44	0	1070596096	21	5280
2026-01-17 22:48:26.00	139.78	7.65	-30.8	-34.0	10.3	5.68e-03	0	44	0	1072693248	21	5202
2026-01-17 22:48:27.01	139.89	7.59	-30.9	-34.4	10.0	7.63e-03	0	44	0	1074790400	21	5395
2026-01-17 22:48:28.02	140.00	7.53	-30.8	-34.3	10.0	9.07e-03	0	44	0	1076887552	21	5394
2026-01-17 22:48:29.02	140.11	7.47	-30.7	-34.1	10.1	8.26e-03	0	44	0	1077936128	21	5290
2026-01-17 22:48:30.03	140.21	7.40	-31.0	-35.0	9.5	8.32e-03	0	44	0	1080033280	21	5706
2026-01-17 22:48:31.03	140.32	7.34	-30.8	-34.4	9.8	1.31e-02	0	44	0	1082130432	21	5482
2026-01-17 22:48:32.03	140.43	7.28	-31.0	-35.1	9.3	1.16e-02	0	44	0	1084227584	21	5808
2026-01-17 22:48:33.03	140.53	7.22	-30.9	-35.0	9.3	1.90e-02	0	44	0	1086324736	21	5764
2026-01-17 22:48:34.04	140.64	7.16	-30.9	-35.1	9.2	1.65e-02	0	44	0	1087373312	21	5856
2026-01-17 22:48:35.04	140.74	7.10	-31.1	-35.2	8.8	2.94e-02	0	44	0	1089470464	22	5814
2026-01-17 22:48:36.04	140.85	7.04	-33.0	-45.1	3.8	1.39e+00	0	44	104	1090519040	26	14524
2026-01-17 22:48:37.03	140.95	6.99	-33.6	-46.1	3.8	1.49e+00	0	44	104	1090519040	27	15061
2026-01-17 22:48:38.04	141.05	6.92	-33.9	-46.6	3.8	1.49e+00	0	44	104	1090519040	27	15507

#Closed at: 2026-01-17 22:48:38
#Recorded file [1090 MB]: D:/data/31010_260118_013853.dat