passes_logs/2026/01/17/R2M6_AANII_01/R2M6_AANII_01__20260117_234904_NOAA_21_JPSS-2_rec.log

#Pass ID: 20260117_234904_NOAA 21 (JPSS-2)
#Satellite: NOAA 21 (JPSS-2)
#Configuration: NOAA 21
#almurnet v.1.7.20240730
#Start time: 2026-01-17 23:49:04

#Version: 2.2.20231116
#Station: R2M6_AANII_01
#Location: 30.233357 lon 59.946436 lat
#TLE: 1 54234U 22150A   26017.26823908  .00000042  00000+0  40962-4 0  9992
#TLE: 2 54234  98.7501 318.1405 0000613 274.2947  85.8159 14.19535194165131

#Time	Az	El	Level	Level2	SNR	BER	BlckErr	Temp	State	Recorded	gain1	gain2
2026-01-17 23:49:04.16	21.07	7.01	-29.9	-34.0	4.8	1.36e+00	0	41	0	0	20	5722
2026-01-17 23:49:05.16	21.10	7.08	-30.5	-35.7	4.7	1.39e+00	0	41	104	0	20	6530
2026-01-17 23:49:06.17	21.14	7.16	-30.5	-34.4	8.9	3.09e-02	0	41	0	0	21	5628
2026-01-17 23:49:07.17	21.17	7.23	-30.3	-34.2	9.4	1.25e-02	0	41	0	3145728	20	5670
2026-01-17 23:49:08.17	21.20	7.31	-30.6	-34.8	8.7	2.30e-02	0	41	0	6291456	21	5821
2026-01-17 23:49:09.16	21.23	7.38	-30.3	-33.6	9.5	1.57e-02	0	41	0	9437184	21	5302
2026-01-17 23:49:10.16	21.27	7.46	-30.8	-35.3	8.3	3.19e-02	0	42	0	11534336	21	6039
2026-01-17 23:49:11.16	21.30	7.54	-30.4	-34.7	9.2	2.42e-02	0	41	0	15728640	20	5868
2026-01-17 23:49:12.17	21.34	7.61	-30.7	-35.0	8.5	4.61e-02	0	41	0	18874368	21	5919
2026-01-17 23:49:13.17	21.37	7.69	-30.4	-34.6	9.2	2.35e-02	0	42	0	22020096	20	5828
2026-01-17 23:49:14.18	21.40	7.77	-30.2	-34.1	9.6	1.61e-02	0	41	0	24117248	20	5588
2026-01-17 23:49:15.19	21.44	7.85	-30.1	-33.6	9.9	9.94e-03	0	42	0	27262976	20	5408
2026-01-17 23:49:16.20	21.47	7.93	-29.7	-32.4	10.7	4.13e-03	0	42	0	30408704	20	4945
2026-01-17 23:49:17.20	21.51	8.00	-29.7	-32.8	10.8	2.16e-03	0	42	0	33554432	19	5194
2026-01-17 23:49:18.21	21.54	8.08	-29.6	-32.6	11.0	1.53e-03	0	42	0	37748736	19	5109
2026-01-17 23:49:19.22	21.58	8.16	-29.6	-32.7	11.0	1.80e-03	0	42	0	40894464	19	5118
2026-01-17 23:49:20.22	21.61	8.24	-29.7	-32.9	10.8	2.13e-03	0	42	0	44040192	19	5202
2026-01-17 23:49:21.22	21.65	8.32	-29.9	-33.4	10.5	4.18e-03	0	42	0	47185920	19	5405
2026-01-17 23:49:22.22	21.69	8.40	-29.7	-32.9	10.9	2.96e-03	0	42	0	49283072	19	5208
2026-01-17 23:49:23.22	21.72	8.48	-29.5	-32.4	11.2	1.53e-03	0	42	0	52428800	19	5000
2026-01-17 23:49:24.23	21.76	8.56	-29.3	-32.3	11.7	6.02e-04	0	42	0	55574528	18	5065
2026-01-17 23:49:25.23	21.79	8.64	-29.3	-32.3	11.6	5.24e-04	0	42	0	58720256	18	5070
2026-01-17 23:49:26.23	21.83	8.72	-29.5	-32.7	11.4	9.92e-04	0	42	0	61865984	18	5234
2026-01-17 23:49:27.24	21.87	8.80	-29.1	-31.8	11.9	6.47e-04	0	42	0	65011712	18	4908
2026-01-17 23:49:28.24	21.90	8.88	-29.0	-31.6	12.1	3.87e-04	0	42	0	68157440	18	4836
2026-01-17 23:49:29.24	21.94	8.96	-29.0	-32.0	12.1	1.57e-04	0	42	0	71303168	17	5084
2026-01-17 23:49:30.24	21.98	9.04	-28.8	-31.6	12.4	1.16e-04	0	42	0	74448896	17	4939
2026-01-17 23:49:31.25	22.01	9.12	-28.8	-31.4	12.5	1.21e-04	0	42	0	77594624	17	4879
2026-01-17 23:49:32.25	22.05	9.21	-28.7	-31.3	12.6	1.01e-04	0	42	0	80740352	17	4848
2026-01-17 23:49:33.26	22.09	9.29	-29.0	-31.5	12.2	2.11e-04	0	42	0	83886080	18	4784
2026-01-17 23:49:34.26	22.13	9.37	-28.7	-31.3	12.6	1.34e-04	0	42	0	87031808	17	4841
2026-01-17 23:49:35.26	22.16	9.45	-28.3	-30.2	13.3	1.90e-05	0	42	0	90177536	17	4497
2026-01-17 23:49:36.26	22.20	9.54	-28.2	-30.4	13.5	9.10e-06	0	42	0	93323264	16	4662
2026-01-17 23:49:37.26	22.24	9.62	-28.3	-30.7	13.4	1.60e-05	0	42	0	96468992	16	4739
2026-01-17 23:49:38.27	22.28	9.70	-28.2	-30.5	13.5	8.30e-06	0	42	0	99614720	16	4689
2026-01-17 23:49:39.26	22.32	9.79	-28.3	-30.6	13.4	1.14e-05	0	42	0	102760448	16	4712
2026-01-17 23:49:40.27	22.36	9.87	-28.2	-30.4	13.5	6.80e-06	0	42	0	105906176	16	4661
2026-01-17 23:49:41.27	22.39	9.95	-28.1	-30.2	13.7	1.44e-05	0	42	0	109051904	16	4589
2026-01-17 23:49:42.27	22.43	10.04	-28.0	-30.5	13.6	9.90e-06	0	42	0	112197632	15	4795
2026-01-17 23:49:43.27	22.47	10.12	-28.1	-30.2	13.7	5.30e-06	0	42	0	115343360	16	4579
2026-01-17 23:49:44.28	22.51	10.21	-28.3	-30.7	13.4	1.37e-05	0	42	0	118489088	16	4737
2026-01-17 23:49:45.28	22.55	10.29	-28.1	-30.1	13.7	9.10e-06	0	42	0	121634816	16	4561
2026-01-17 23:49:46.29	22.59	10.38	-28.0	-30.4	13.7	2.20e-06	0	42	0	124780544	15	4771
2026-01-17 23:49:47.28	22.63	10.47	-28.0	-30.0	13.8	6.80e-06	0	42	0	127926272	16	4513
2026-01-17 23:49:48.29	22.67	10.55	-28.2	-30.3	13.6	5.30e-06	0	43	0	131072000	16	4630
2026-01-17 23:49:49.29	22.71	10.64	-27.9	-29.8	13.9	2.20e-06	0	42	0	134217728	16	4467
2026-01-17 23:49:50.30	22.76	10.73	-27.9	-30.3	13.8	5.30e-06	0	42	0	137363456	15	4746
2026-01-17 23:49:51.31	22.80	10.81	-27.8	-30.1	13.9	4.50e-06	0	42	0	140509184	15	4677
2026-01-17 23:49:52.31	22.84	10.90	-27.9	-30.2	13.6	2.20e-06	0	43	0	143654912	15	4702
2026-01-17 23:49:53.32	22.88	10.99	-27.8	-30.0	14.0	1.50e-06	0	43	0	146800640	15	4639
2026-01-17 23:49:54.32	22.92	11.08	-27.8	-30.0	14.0	2.20e-06	0	43	0	149946368	15	4634
2026-01-17 23:49:55.32	22.96	11.17	-27.8	-30.1	13.9	4.65e-04	0	43	0	153092096	15	4667
2026-01-17 23:49:56.32	23.01	11.25	-27.7	-29.8	14.1	6.10e-06	0	43	0	156237824	15	4578
2026-01-17 23:49:57.32	23.05	11.34	-27.5	-29.4	14.3	3.00e-06	0	43	0	159383552	15	4466
2026-01-17 23:49:58.32	23.09	11.43	-27.6	-29.5	14.3	1.50e-06	0	43	0	162529280	15	4490
2026-01-17 23:49:59.32	23.13	11.52	-27.5	-29.3	14.4	7.00e-07	0	43	0	165675008	15	4423
2026-01-17 23:50:00.32	23.18	11.61	-27.6	-29.5	14.3	5.12e-04	0	43	0	168820736	15	4485
2026-01-17 23:50:01.33	23.22	11.70	-27.7	-29.7	14.2	7.00e-07	0	43	0	171966464	15	4539
2026-01-17 23:50:02.34	23.27	11.79	-27.6	-29.6	14.2	2.20e-06	0	43	0	175112192	15	4524
2026-01-17 23:50:03.34	23.31	11.88	-27.5	-29.4	14.4	1.50e-06	0	43	0	178257920	15	4464
2026-01-17 23:50:04.35	23.35	11.98	-27.5	-29.2	14.5	1.50e-06	0	43	0	181403648	15	4397
2026-01-17 23:50:05.35	23.40	12.07	-27.4	-29.5	14.6	7.00e-07	0	43	0	184549376	14	4607
2026-01-17 23:50:06.35	23.44	12.16	-27.4	-29.5	14.6	5.68e-04	0	43	0	187695104	14	4613
2026-01-17 23:50:07.35	23.49	12.25	-27.4	-29.6	14.5	0.00e+00	0	43	0	190840832	14	4644
2026-01-17 23:50:08.36	23.53	12.34	-27.5	-29.8	14.5	1.50e-06	0	43	0	193986560	14	4693
2026-01-17 23:50:09.36	23.58	12.44	-27.4	-29.2	14.6	1.50e-06	0	43	0	197132288	15	4386
2026-01-17 23:50:10.36	23.62	12.53	-27.5	-29.4	14.4	6.22e-04	0	43	0	200278016	15	4447
2026-01-17 23:50:11.37	23.67	12.62	-27.5	-29.4	14.5	7.00e-07	0	43	0	203423744	15	4455
2026-01-17 23:50:12.37	23.72	12.72	-27.5	-29.2	14.5	6.69e-04	0	43	0	206569472	15	4407
2026-01-17 23:50:13.37	23.76	12.81	-27.5	-29.7	14.5	7.00e-07	0	43	0	209715200	14	4665
2026-01-17 23:50:14.37	23.81	12.91	-27.5	-29.4	14.5	7.00e-07	0	43	0	212860928	15	4446
2026-01-17 23:50:15.36	23.86	13.00	-27.6	-29.5	14.4	6.76e-04	0	43	0	216006656	15	4481
2026-01-17 23:50:16.37	23.90	13.10	-27.5	-29.3	14.5	5.80e-04	0	43	0	219152384	15	4438
2026-01-17 23:50:17.37	23.95	13.19	-27.6	-29.5	14.4	7.00e-07	0	43	0	222298112	15	4472
2026-01-17 23:50:18.37	24.00	13.29	-27.5	-29.3	14.5	7.01e-04	0	43	0	225443840	15	4429
2026-01-17 23:50:19.38	24.05	13.38	-27.5	-29.4	13.3	3.80e-06	0	43	0	228589568	15	4446
2026-01-17 23:50:20.38	24.09	13.48	-27.6	-29.6	12.9	7.00e-07	0	43	0	231735296	15	4517
2026-01-17 23:50:21.39	24.14	13.58	-27.6	-29.5	14.4	7.20e-04	0	43	0	234881024	15	4482
2026-01-17 23:50:22.40	24.19	13.68	-27.7	-29.7	14.0	6.98e-04	0	43	0	238026752	15	4530
2026-01-17 23:50:23.40	24.24	13.77	-27.7	-29.8	14.2	7.60e-06	0	43	0	241172480	15	4570
2026-01-17 23:50:24.41	24.29	13.87	-27.7	-29.8	14.2	7.00e-07	0	43	0	244318208	15	4586
2026-01-17 23:50:25.41	24.34	13.97	-28.0	-30.3	13.9	7.29e-04	0	43	0	247463936	15	4731
2026-01-17 23:50:26.42	24.39	14.07	-27.8	-30.0	14.2	7.00e-07	0	43	0	250609664	15	4622
2026-01-17 23:50:27.42	24.44	14.17	-27.7	-29.7	14.4	6.57e-04	0	43	0	253755392	15	4534
2026-01-17 23:50:28.42	24.49	14.27	-27.8	-29.9	14.2	2.78e-03	0	43	0	256901120	15	4612
2026-01-17 23:50:29.42	24.54	14.37	-27.9	-30.1	14.1	2.48e-03	0	43	0	260046848	15	4675
2026-01-17 23:50:30.43	24.60	14.47	-27.8	-30.0	14.2	2.20e-06	0	43	0	263192576	15	4647
2026-01-17 23:50:31.43	24.65	14.57	-27.7	-29.8	14.3	4.88e-04	0	43	0	266338304	15	4574
2026-01-17 23:50:32.44	24.70	14.68	-27.8	-30.0	14.2	2.20e-06	0	43	0	269484032	15	4619
2026-01-17 23:50:33.44	24.75	14.78	-28.0	-29.9	14.1	5.48e-04	0	43	0	272629760	16	4474
2026-01-17 23:50:34.44	24.81	14.88	-27.7	-29.6	14.4	2.29e-03	0	43	0	275775488	15	4508
2026-01-17 23:50:35.44	24.86	14.98	-27.4	-29.1	14.7	1.49e-03	0	43	0	278921216	15	4348
2026-01-17 23:50:36.44	24.91	15.08	-27.3	-29.3	14.9	4.56e-04	0	43	0	282066944	14	4536
2026-01-17 23:50:37.45	24.97	15.19	-27.2	-29.1	15.0	4.68e-04	0	43	0	285212672	14	4465
2026-01-17 23:50:38.46	25.02	15.29	-27.3	-29.2	15.0	7.02e-04	0	43	0	288358400	14	4508
2026-01-17 23:50:39.46	25.07	15.40	-27.3	-29.2	15.0	4.36e-04	0	43	0	291504128	14	4514
2026-01-17 23:50:40.47	25.13	15.50	-27.2	-29.0	15.1	5.29e-04	0	43	0	294649856	14	4436
2026-01-17 23:50:41.47	25.18	15.61	-27.4	-29.6	14.8	4.74e-04	0	43	0	297795584	14	4609
2026-01-17 23:50:42.48	25.24	15.71	-27.8	-29.8	14.4	4.99e-04	0	43	0	300941312	15	4570
2026-01-17 23:50:43.47	25.30	15.82	-27.9	-29.6	14.3	9.04e-04	0	43	0	304087040	16	4398
2026-01-17 23:50:44.48	25.35	15.93	-27.6	-28.9	14.8	2.08e-04	0	43	0	307232768	16	4190
2026-01-17 23:50:45.48	25.41	16.03	-27.4	-28.4	15.1	0.00e+00	0	43	0	310378496	16	4049
2026-01-17 23:50:46.48	25.47	16.14	-27.2	-28.4	15.2	1.57e-04	0	43	0	313524224	15	4170
2026-01-17 23:50:47.48	25.52	16.25	-27.1	-28.3	15.2	2.17e-04	0	43	0	316669952	15	4146
2026-01-17 23:50:48.49	25.58	16.36	-27.2	-29.0	15.2	5.85e-04	0	43	0	319815680	14	4424
2026-01-17 23:50:49.49	25.64	16.47	-27.4	-29.5	14.9	3.35e-04	0	43	0	322961408	14	4579
2026-01-17 23:50:50.49	25.70	16.57	-27.2	-29.0	15.1	4.13e-04	0	43	0	325058560	14	4437
2026-01-17 23:50:51.49	25.76	16.68	-27.3	-29.4	14.9	7.00e-07	0	43	0	328204288	14	4545
2026-01-17 23:50:52.50	25.82	16.79	-27.3	-29.3	15.0	4.94e-04	0	43	0	331350016	14	4521
2026-01-17 23:50:53.50	25.88	16.91	-27.2	-29.1	15.1	7.29e-04	0	43	0	334495744	14	4474
2026-01-17 23:50:54.51	25.94	17.02	-27.1	-28.8	15.3	0.00e+00	0	43	0	337641472	14	4391
2026-01-17 23:50:55.52	26.00	17.13	-27.1	-28.8	15.3	1.73e-03	0	43	0	341835776	14	4378
2026-01-17 23:50:56.51	26.06	17.24	-27.1	-28.8	15.3	1.97e-03	0	43	0	343932928	14	4380
2026-01-17 23:50:57.51	26.12	17.35	-27.2	-28.9	15.2	0.00e+00	0	43	0	348127232	14	4419
2026-01-17 23:50:58.52	26.18	17.47	-27.1	-28.9	15.3	0.00e+00	0	43	0	350224384	14	4397
2026-01-17 23:50:59.52	26.24	17.58	-27.2	-29.1	15.1	0.00e+00	0	43	0	353370112	14	4456
2026-01-17 23:51:00.52	26.31	17.69	-27.3	-29.1	15.1	0.00e+00	0	43	0	356515840	14	4478
2026-01-17 23:51:01.52	26.37	17.81	-27.3	-29.3	15.0	2.07e-03	0	43	0	359661568	14	4532
2026-01-17 23:51:02.52	26.43	17.92	-27.5	-29.7	14.8	0.00e+00	0	43	0	362807296	14	4650
2026-01-17 23:51:03.52	26.50	18.04	-27.4	-28.9	15.0	0.00e+00	0	43	0	365953024	15	4298
2026-01-17 23:51:04.52	26.56	18.15	-27.5	-29.3	14.8	0.00e+00	0	43	0	369098752	15	4417
2026-01-17 23:51:05.53	26.63	18.27	-27.6	-29.4	14.7	1.94e-03	0	43	0	372244480	15	4425
2026-01-17 23:51:06.53	26.69	18.39	-27.3	-29.3	15.0	0.00e+00	0	43	0	375390208	14	4527
2026-01-17 23:51:07.53	26.76	18.51	-27.5	-29.6	14.8	7.00e-07	0	43	0	378535936	14	4621
2026-01-17 23:51:08.53	26.82	18.62	-27.4	-29.5	14.9	0.00e+00	0	43	0	381681664	14	4591
2026-01-17 23:51:09.53	26.89	18.74	-27.4	-29.6	14.9	7.00e-07	0	43	0	384827392	14	4609
2026-01-17 23:51:10.53	26.96	18.86	-27.4	-29.0	15.0	1.15e-03	0	43	0	387973120	15	4330
2026-01-17 23:51:11.53	27.02	18.98	-27.4	-29.4	15.0	9.45e-04	0	43	0	391118848	14	4563
2026-01-17 23:51:12.54	27.09	19.10	-27.3	-29.3	15.1	0.00e+00	0	43	0	394264576	14	4535
2026-01-17 23:51:13.55	27.16	19.22	-27.4	-29.5	14.9	0.00e+00	0	43	0	397410304	14	4590
2026-01-17 23:51:14.55	27.23	19.35	-27.4	-29.4	15.0	0.00e+00	0	43	0	400556032	14	4559
2026-01-17 23:51:15.55	27.30	19.47	-27.3	-29.3	15.0	0.00e+00	0	43	0	403701760	14	4533
2026-01-17 23:51:16.55	27.37	19.59	-27.5	-29.3	14.8	7.40e-05	0	43	0	406847488	15	4407
2026-01-17 23:51:17.55	27.44	19.71	-27.6	-29.5	14.7	0.00e+00	0	43	0	409993216	15	4457
2026-01-17 23:51:18.55	27.51	19.84	-27.5	-29.1	14.9	0.00e+00	0	44	0	413138944	15	4354
2026-01-17 23:51:19.55	27.59	19.96	-27.6	-29.5	14.7	7.00e-07	0	43	0	416284672	15	4451
2026-01-17 23:51:20.55	27.66	20.08	-27.3	-28.8	15.1	0.00e+00	0	43	0	419430400	15	4279
2026-01-17 23:51:21.56	27.73	20.21	-27.3	-28.7	15.2	0.00e+00	0	44	0	422576128	15	4248
2026-01-17 23:51:22.56	27.81	20.34	-27.4	-29.4	15.1	0.00e+00	0	43	0	425721856	14	4546
2026-01-17 23:51:23.56	27.88	20.46	-27.4	-29.5	15.0	0.00e+00	0	43	0	428867584	14	4571
2026-01-17 23:51:24.57	27.95	20.59	-27.3	-29.3	15.1	0.00e+00	0	43	0	432013312	14	4512
2026-01-17 23:51:25.56	28.03	20.72	-27.0	-28.6	15.5	0.00e+00	0	43	0	435159040	14	4317
2026-01-17 23:51:26.57	28.11	20.85	-27.4	-29.4	15.1	0.00e+00	0	43	0	438304768	14	4542
2026-01-17 23:51:27.58	28.18	20.98	-26.9	-28.4	15.6	0.00e+00	0	43	0	441450496	14	4267
2026-01-17 23:51:28.57	28.26	21.11	-26.9	-28.4	15.6	0.00e+00	0	43	0	444596224	14	4276
2026-01-17 23:51:29.58	28.34	21.24	-26.9	-28.3	15.7	0.00e+00	0	43	0	447741952	14	4244
2026-01-17 23:51:30.59	28.42	21.37	-26.9	-28.3	15.7	0.00e+00	0	44	0	450887680	14	4235
2026-01-17 23:51:31.59	28.50	21.50	-26.8	-28.6	15.8	0.00e+00	0	43	0	454033408	13	4426
2026-01-17 23:51:32.59	28.58	21.63	-26.8	-28.6	15.8	0.00e+00	0	43	0	457179136	13	4429
2026-01-17 23:51:33.60	28.66	21.77	-26.7	-28.5	15.8	0.00e+00	0	43	0	460324864	13	4392
2026-01-17 23:51:34.59	28.74	21.90	-26.7	-28.3	15.9	0.00e+00	0	43	0	463470592	13	4338
2026-01-17 23:51:35.60	28.82	22.03	-26.5	-28.0	16.1	0.00e+00	0	44	0	466616320	13	4261
2026-01-17 23:51:36.60	28.90	22.17	-26.3	-27.5	16.4	0.00e+00	0	43	0	469762048	13	4127
2026-01-17 23:51:37.60	28.98	22.30	-26.3	-27.9	16.5	0.00e+00	0	43	0	472907776	12	4338
2026-01-17 23:51:38.60	29.07	22.44	-26.3	-27.9	16.4	0.00e+00	0	44	0	476053504	12	4356
2026-01-17 23:51:39.60	29.15	22.58	-26.3	-27.9	16.5	0.00e+00	0	44	0	479199232	12	4336
2026-01-17 23:51:40.61	29.24	22.72	-26.3	-28.0	16.4	0.00e+00	0	44	0	482344960	12	4377
2026-01-17 23:51:41.62	29.32	22.85	-26.2	-27.9	16.5	0.00e+00	0	43	0	485490688	12	4336
2026-01-17 23:51:42.62	29.41	22.99	-26.3	-28.0	16.4	0.00e+00	0	43	0	488636416	12	4370
2026-01-17 23:51:43.62	29.50	23.13	-26.2	-27.8	16.5	0.00e+00	0	44	0	491782144	12	4332
2026-01-17 23:51:44.62	29.59	23.27	-26.2	-27.7	16.6	0.00e+00	0	43	0	494927872	12	4286
2026-01-17 23:51:45.62	29.67	23.41	-26.2	-27.7	16.6	0.00e+00	0	43	0	498073600	12	4302
2026-01-17 23:51:46.63	29.76	23.56	-26.2	-27.6	16.6	0.00e+00	0	44	0	501219328	12	4272
2026-01-17 23:51:47.64	29.86	23.70	-26.3	-28.0	16.4	0.00e+00	0	44	0	504365056	12	4371
2026-01-17 23:51:48.64	29.95	23.84	-26.3	-28.0	16.4	0.00e+00	0	43	0	507510784	12	4367
2026-01-17 23:51:49.64	30.04	23.99	-26.3	-27.9	16.5	0.00e+00	0	43	0	510656512	12	4345
2026-01-17 23:51:50.64	30.13	24.13	-26.2	-27.8	16.6	0.00e+00	0	43	0	513802240	12	4312
2026-01-17 23:51:51.64	30.22	24.28	-26.2	-27.8	16.6	0.00e+00	0	44	0	516947968	12	4321
2026-01-17 23:51:52.64	30.32	24.42	-26.2	-27.8	16.5	0.00e+00	0	43	0	520093696	12	4330
2026-01-17 23:51:53.65	30.41	24.57	-26.3	-27.9	16.5	0.00e+00	0	43	0	523239424	12	4344
2026-01-17 23:51:54.65	30.51	24.72	-26.4	-28.2	16.4	0.00e+00	0	44	0	526385152	12	4413
2026-01-17 23:51:55.65	30.61	24.87	-26.4	-28.1	16.4	0.00e+00	0	44	0	529530880	12	4403
2026-01-17 23:51:56.65	30.70	25.01	-26.4	-28.2	16.4	0.00e+00	0	43	0	532676608	12	4421
2026-01-17 23:51:57.65	30.80	25.16	-26.6	-28.1	16.2	0.00e+00	0	43	0	535822336	13	4277
2026-01-17 23:51:58.66	30.90	25.32	-26.8	-28.6	15.9	0.00e+00	0	44	0	538968064	13	4418
2026-01-17 23:51:59.66	31.00	25.47	-26.8	-28.2	15.9	0.00e+00	0	43	0	542113792	14	4189
2026-01-17 23:52:00.66	31.11	25.62	-26.9	-28.3	15.8	0.00e+00	0	44	0	545259520	14	4236
2026-01-17 23:52:01.67	31.21	25.77	-26.9	-28.4	15.8	0.00e+00	0	44	0	548405248	14	4242
2026-01-17 23:52:02.67	31.31	25.93	-27.0	-28.5	15.6	0.00e+00	0	44	0	551550976	14	4285
2026-01-17 23:52:03.68	31.42	26.08	-27.1	-28.6	15.3	0.00e+00	0	44	0	554696704	14	4324
2026-01-17 23:52:04.68	31.52	26.24	-27.1	-28.7	15.6	0.00e+00	0	44	0	557842432	14	4350
2026-01-17 23:52:05.68	31.63	26.39	-27.1	-28.7	15.5	0.00e+00	0	44	0	560988160	14	4341
2026-01-17 23:52:06.68	31.74	26.55	-27.1	-28.6	15.6	0.00e+00	0	44	0	564133888	14	4319
2026-01-17 23:52:07.68	31.84	26.71	-27.2	-29.1	15.4	0.00e+00	0	44	0	567279616	14	4440
2026-01-17 23:52:08.68	31.95	26.87	-27.3	-29.1	15.4	0.00e+00	0	44	0	570425344	14	4444
2026-01-17 23:52:09.68	32.06	27.03	-27.1	-28.6	15.7	0.00e+00	0	43	0	573571072	14	4315
2026-01-17 23:52:10.68	32.17	27.19	-27.1	-28.6	15.7	0.00e+00	0	43	0	576716800	14	4314
2026-01-17 23:52:11.69	32.29	27.35	-27.1	-28.7	15.6	0.00e+00	0	44	0	578813952	14	4346
2026-01-17 23:52:12.69	32.40	27.51	-27.1	-28.7	15.6	2.93e-04	0	44	0	581959680	14	4347
2026-01-17 23:52:13.69	32.52	27.67	-27.3	-29.1	15.4	0.00e+00	0	44	0	585105408	14	4439
2026-01-17 23:52:14.69	32.63	27.84	-27.3	-29.1	15.4	0.00e+00	0	44	0	588251136	14	4455
2026-01-17 23:52:15.70	32.75	28.00	-27.4	-29.5	15.2	0.00e+00	0	44	0	591396864	14	4554
2026-01-17 23:52:16.70	32.87	28.17	-27.5	-29.1	15.1	0.00e+00	0	44	0	594542592	15	4343
2026-01-17 23:52:17.71	32.99	28.33	-27.5	-29.1	15.2	3.74e-04	0	44	0	597688320	15	4325
2026-01-17 23:52:18.72	33.11	28.50	-27.6	-29.3	15.0	3.33e-04	0	44	0	601882624	15	4392
2026-01-17 23:52:19.72	33.23	28.67	-27.6	-29.4	15.0	0.00e+00	0	44	0	603979776	15	4416
2026-01-17 23:52:20.73	33.36	28.84	-27.7	-29.7	14.9	0.00e+00	0	44	0	607125504	15	4502
2026-01-17 23:52:21.73	33.48	29.01	-27.7	-29.6	14.9	7.00e-07	0	44	0	610271232	15	4477
2026-01-17 23:52:22.73	33.61	29.18	-27.7	-29.5	14.9	7.00e-07	0	44	0	613416960	15	4461
2026-01-17 23:52:23.73	33.73	29.35	-27.7	-29.7	14.9	2.94e-04	0	44	0	616562688	15	4494
2026-01-17 23:52:24.73	33.86	29.52	-27.7	-29.7	14.8	3.02e-04	0	44	0	619708416	15	4496
2026-01-17 23:52:25.73	33.99	29.70	-27.8	-29.8	14.8	1.50e-06	0	44	0	622854144	15	4548
2026-01-17 23:52:26.73	34.12	29.87	-27.6	-29.4	15.0	0.00e+00	0	44	0	625999872	15	4432
2026-01-17 23:52:27.73	34.25	30.05	-27.6	-29.4	15.0	2.78e-04	0	44	0	629145600	15	4428
2026-01-17 23:52:28.73	34.39	30.22	-27.7	-29.5	15.0	0.00e+00	0	44	0	632291328	15	4444
2026-01-17 23:52:29.73	34.52	30.40	-27.6	-29.4	15.0	2.89e-04	0	44	0	635437056	15	4428
2026-01-17 23:52:30.74	34.66	30.58	-27.5	-29.1	15.2	7.00e-07	0	44	0	638582784	15	4331
2026-01-17 23:52:31.74	34.80	30.76	-27.3	-28.8	15.4	7.00e-07	0	44	0	641728512	15	4241
2026-01-17 23:52:32.75	34.94	30.94	-27.4	-29.0	15.3	2.64e-04	0	44	0	644874240	15	4309
2026-01-17 23:52:33.76	35.08	31.12	-27.4	-28.8	15.4	3.36e-04	0	44	0	648019968	15	4256
2026-01-17 23:52:34.76	35.22	31.30	-27.5	-29.2	15.2	1.22e-05	0	44	0	651165696	15	4353
2026-01-17 23:52:35.76	35.37	31.49	-27.4	-28.8	15.4	4.09e-04	0	44	0	654311424	15	4253
2026-01-17 23:52:36.76	35.51	31.67	-27.3	-29.1	15.5	0.00e+00	0	44	0	657457152	14	4437
2026-01-17 23:52:37.77	35.66	31.86	-27.3	-29.1	15.5	1.04e-04	0	44	0	660602880	14	4449
2026-01-17 23:52:38.77	35.81	32.04	-27.2	-29.0	15.6	5.61e-04	0	44	0	663748608	14	4415
2026-01-17 23:52:39.77	35.96	32.23	-27.1	-28.7	15.7	6.26e-04	0	44	0	666894336	14	4338
2026-01-17 23:52:40.76	36.11	32.41	-27.2	-28.9	15.6	1.93e-04	0	44	0	670040064	14	4387
2026-01-17 23:52:41.76	36.27	32.60	-27.2	-28.9	15.6	3.95e-04	0	44	0	673185792	14	4389
2026-01-17 23:52:42.77	36.42	32.79	-27.3	-29.1	15.5	4.79e-04	0	44	0	676331520	14	4430
2026-01-17 23:52:43.77	36.58	32.98	-27.3	-29.1	15.5	2.89e-04	0	44	0	679477248	14	4443
2026-01-17 23:52:44.77	36.74	33.17	-27.3	-29.1	15.6	2.47e-04	0	44	0	682622976	14	4433
2026-01-17 23:52:45.77	36.90	33.37	-27.3	-29.1	15.5	5.37e-04	0	44	0	685768704	14	4453
2026-01-17 23:52:46.77	37.06	33.56	-27.3	-29.2	15.5	3.06e-04	0	44	0	688914432	14	4472
2026-01-17 23:52:47.78	37.23	33.76	-27.4	-29.4	15.4	1.68e-04	0	44	0	692060160	14	4526
2026-01-17 23:52:48.78	37.40	33.95	-27.6	-29.2	15.2	3.33e-04	0	44	0	695205888	15	4367
2026-01-17 23:52:49.79	37.57	34.15	-27.9	-30.1	14.7	2.27e-04	0	44	0	698351616	15	4626
2026-01-17 23:52:50.79	37.74	34.35	-28.0	-30.2	14.7	4.50e-06	0	44	0	701497344	15	4648
2026-01-17 23:52:51.80	37.91	34.55	-28.4	-30.7	14.3	9.30e-05	0	44	0	704643072	16	4667
2026-01-17 23:52:52.80	38.09	34.75	-28.6	-30.7	14.0	3.80e-06	0	44	0	707788800	17	4556
2026-01-17 23:52:53.80	38.27	34.95	-28.7	-30.8	13.9	6.63e-05	0	44	0	710934528	17	4590
2026-01-17 23:52:54.80	38.44	35.15	-28.7	-30.9	13.8	1.14e-04	0	44	0	714080256	17	4639
2026-01-17 23:52:55.80	38.63	35.35	-28.7	-30.9	13.9	3.00e-06	0	44	0	717225984	17	4620
2026-01-17 23:52:56.81	38.81	35.55	-28.7	-30.7	14.0	1.02e-04	0	44	0	720371712	17	4579
2026-01-17 23:52:57.82	39.00	35.76	-28.6	-30.7	14.0	7.00e-07	0	44	0	723517440	17	4553
2026-01-17 23:52:58.82	39.19	35.96	-28.8	-31.0	13.8	7.00e-07	0	44	0	726663168	17	4661
2026-01-17 23:52:59.82	39.38	36.17	-28.6	-30.5	14.1	7.60e-06	0	44	0	729808896	17	4516
2026-01-17 23:53:00.82	39.57	36.38	-28.3	-29.9	14.5	7.60e-06	0	44	0	732954624	17	4341
2026-01-17 23:53:01.83	39.77	36.59	-28.3	-29.9	14.5	2.20e-06	0	44	0	736100352	17	4326
2026-01-17 23:53:02.83	39.97	36.80	-28.4	-30.1	14.4	0.00e+00	0	44	0	739246080	17	4390
2026-01-17 23:53:03.84	40.17	37.01	-28.5	-30.3	14.3	2.20e-06	0	44	0	742391808	17	4440
2026-01-17 23:53:04.84	40.37	37.22	-28.5	-30.5	14.2	7.00e-07	0	44	0	745537536	17	4489
2026-01-17 23:53:05.84	40.58	37.43	-28.4	-30.2	14.3	2.20e-06	0	44	0	748683264	17	4400
2026-01-17 23:53:06.85	40.79	37.65	-28.6	-30.6	14.1	2.20e-06	0	44	0	751828992	17	4522
2026-01-17 23:53:07.86	41.00	37.86	-28.6	-30.5	14.1	1.50e-06	0	44	0	754974720	17	4498
2026-01-17 23:53:08.86	41.21	38.08	-28.5	-30.4	14.2	2.20e-06	0	44	0	758120448	17	4483
2026-01-17 23:53:09.86	41.43	38.29	-28.7	-30.7	14.0	1.50e-06	0	44	0	761266176	17	4556
2026-01-17 23:53:10.86	41.65	38.51	-28.6	-30.6	14.1	3.80e-06	0	44	0	764411904	17	4530
2026-01-17 23:53:11.86	41.87	38.73	-28.8	-31.0	13.9	1.50e-06	0	44	0	767557632	17	4648
2026-01-17 23:53:12.87	42.10	38.95	-28.8	-31.0	13.8	6.10e-06	0	44	0	770703360	17	4663
2026-01-17 23:53:13.87	42.33	39.17	-29.0	-31.1	13.6	9.90e-06	0	44	0	773849088	18	4554
2026-01-17 23:53:14.87	42.56	39.39	-29.0	-31.1	13.5	1.44e-05	0	44	0	776994816	18	4573
2026-01-17 23:53:15.88	42.79	39.61	-29.1	-31.2	13.5	8.30e-06	0	44	0	780140544	18	4615
2026-01-17 23:53:16.88	43.03	39.83	-29.1	-31.2	13.5	7.60e-06	0	44	0	783286272	18	4606
2026-01-17 23:53:17.88	43.27	40.06	-29.0	-31.1	13.6	8.30e-06	0	44	0	786432000	18	4577
2026-01-17 23:53:18.89	43.52	40.28	-29.2	-31.5	13.3	6.10e-06	0	44	0	789577728	18	4704
2026-01-17 23:53:19.89	43.77	40.51	-29.1	-31.3	13.4	2.13e-05	0	44	0	792723456	18	4638
2026-01-17 23:53:20.89	44.02	40.73	-29.1	-31.4	13.5	1.44e-05	0	44	0	795869184	18	4649
2026-01-17 23:53:21.90	44.27	40.96	-29.2	-31.4	13.4	1.22e-05	0	44	0	799014912	18	4673
2026-01-17 23:53:22.90	44.53	41.19	-29.1	-31.2	13.5	1.06e-05	0	44	0	802160640	18	4586
2026-01-17 23:53:23.90	44.79	41.42	-29.1	-31.3	13.5	1.14e-05	0	44	0	805306368	18	4640
2026-01-17 23:53:24.90	45.06	41.65	-29.3	-31.8	13.2	1.83e-05	0	44	0	808452096	18	4787
2026-01-17 23:53:25.90	45.33	41.88	-29.2	-31.5	13.4	1.37e-05	0	44	0	811597824	18	4689
2026-01-17 23:53:26.91	45.60	42.11	-29.2	-31.4	13.4	9.10e-06	0	44	0	814743552	18	4663
2026-01-17 23:53:27.91	45.88	42.34	-29.2	-31.6	13.3	1.22e-05	0	44	0	817889280	18	4708
2026-01-17 23:53:28.92	46.16	42.58	-29.2	-31.4	13.4	1.67e-05	0	44	0	821035008	18	4669
2026-01-17 23:53:29.92	46.45	42.81	-29.3	-31.7	13.3	1.14e-05	0	44	0	824180736	18	4744
2026-01-17 23:53:30.92	46.73	43.04	-29.2	-31.5	13.4	8.30e-06	0	44	0	827326464	18	4692
2026-01-17 23:53:31.93	47.03	43.28	-29.4	-31.9	13.1	3.12e-05	0	44	0	830472192	18	4827
2026-01-17 23:53:32.93	47.33	43.51	-29.5	-31.8	12.9	5.18e-05	0	44	0	833617920	19	4689
2026-01-17 23:53:33.94	47.63	43.75	-29.6	-32.0	12.7	7.17e-05	0	44	0	836763648	19	4761
2026-01-17 23:53:34.94	47.94	43.99	-29.6	-32.0	12.8	8.16e-05	0	44	0	839909376	19	4743
2026-01-17 23:53:35.94	48.25	44.22	-29.5	-31.8	12.9	5.64e-05	0	44	0	843055104	19	4672
2026-01-17 23:53:36.94	48.56	44.46	-29.5	-31.7	13.0	5.18e-05	0	44	0	846200832	19	4635
2026-01-17 23:53:37.94	48.88	44.70	-29.5	-31.7	12.9	4.11e-05	0	44	0	849346560	19	4644
2026-01-17 23:53:38.93	49.20	44.93	-29.6	-31.9	12.9	5.18e-05	0	44	0	852492288	19	4713
2026-01-17 23:53:39.94	49.53	45.17	-29.5	-31.8	12.9	3.50e-05	0	44	0	855638016	19	4672
2026-01-17 23:53:40.95	49.87	45.41	-29.5	-31.8	12.9	7.09e-05	0	44	0	857735168	19	4657
2026-01-17 23:53:41.95	50.21	45.65	-29.4	-31.5	13.2	3.50e-05	0	44	0	860880896	19	4571
2026-01-17 23:53:42.94	50.55	45.89	-29.2	-31.1	13.4	1.44e-05	0	44	0	864026624	19	4440
2026-01-17 23:53:43.94	50.90	46.13	-29.2	-31.0	13.4	1.83e-05	0	44	0	867172352	19	4435
2026-01-17 23:53:44.95	51.26	46.37	-29.4	-31.5	13.2	2.21e-05	0	44	0	870318080	19	4563
2026-01-17 23:53:45.95	51.62	46.61	-29.3	-31.3	13.2	2.51e-05	0	44	0	873463808	19	4524
2026-01-17 23:53:46.95	51.99	46.85	-29.3	-31.2	13.3	1.52e-05	0	44	0	876609536	19	4470
2026-01-17 23:53:47.95	52.36	47.09	-29.2	-31.0	13.4	1.52e-05	0	44	0	879755264	19	4428
2026-01-17 23:53:48.95	52.73	47.33	-29.4	-31.5	13.2	1.90e-05	0	44	0	882900992	19	4572
2026-01-17 23:53:49.96	53.12	47.57	-29.4	-31.6	13.1	2.51e-05	0	44	0	886046720	19	4595
2026-01-17 23:53:50.96	53.51	47.82	-29.5	-31.9	12.9	5.64e-05	0	44	0	889192448	19	4692
2026-01-17 23:53:51.96	53.90	48.06	-29.3	-31.3	13.2	3.73e-05	0	44	0	892338176	19	4514
2026-01-17 23:53:52.97	54.31	48.30	-29.1	-30.7	13.6	8.30e-06	0	44	0	895483904	19	4335
2026-01-17 23:53:53.98	54.72	48.54	-28.9	-30.1	13.9	3.80e-06	0	44	0	898629632	19	4171
2026-01-17 23:53:54.98	55.13	48.78	-29.0	-30.9	13.7	3.00e-06	0	44	0	901775360	18	4511
2026-01-17 23:53:55.99	55.56	49.02	-29.0	-31.1	13.7	9.10e-06	0	44	0	904921088	18	4562
2026-01-17 23:53:56.99	55.98	49.26	-29.2	-31.4	13.5	7.60e-06	0	44	0	908066816	18	4663
2026-01-17 23:53:57.99	56.42	49.50	-29.0	-30.9	13.8	4.50e-06	0	44	0	911212544	18	4498
2026-01-17 23:53:59.00	56.86	49.74	-29.0	-31.0	13.7	3.00e-06	0	44	0	914358272	18	4535
2026-01-17 23:54:00.01	57.31	49.98	-29.2	-31.5	13.5	6.80e-06	0	44	0	917504000	18	4671
2026-01-17 23:54:01.01	57.77	50.22	-29.0	-30.9	13.8	7.00e-07	0	44	0	920649728	18	4493
2026-01-17 23:54:02.02	58.23	50.46	-28.8	-30.6	14.1	7.00e-07	0	44	0	923795456	18	4395
2026-01-17 23:54:03.02	58.70	50.70	-28.6	-30.1	14.4	7.00e-07	0	44	0	926941184	18	4252
2026-01-17 23:54:04.02	59.18	50.93	-28.6	-30.0	14.3	2.20e-06	0	44	0	930086912	18	4227
2026-01-17 23:54:05.02	59.66	51.17	-28.7	-30.2	14.3	1.50e-06	0	44	0	933232640	18	4280
2026-01-17 23:54:06.02	60.15	51.40	-28.7	-30.2	14.2	3.00e-06	0	44	0	936378368	18	4287
2026-01-17 23:54:07.02	60.65	51.63	-28.6	-30.1	14.3	1.50e-06	0	44	0	939524096	18	4260
2026-01-17 23:54:08.02	61.15	51.86	-28.4	-29.5	14.6	0.00e+00	0	44	0	942669824	18	4109
2026-01-17 23:54:09.02	61.67	52.09	-28.2	-29.5	14.9	0.00e+00	0	44	0	945815552	17	4203
2026-01-17 23:54:10.02	62.19	52.32	-28.4	-30.2	14.6	0.00e+00	0	44	0	948961280	17	4387
2026-01-17 23:54:11.03	62.72	52.55	-28.3	-29.8	14.7	0.00e+00	0	44	0	952107008	17	4298
2026-01-17 23:54:12.03	63.26	52.78	-28.1	-29.3	15.1	0.00e+00	0	44	0	955252736	17	4144
2026-01-17 23:54:13.04	63.81	53.00	-28.1	-29.3	15.1	5.95e-05	0	44	0	958398464	17	4141
2026-01-17 23:54:14.03	64.36	53.22	-28.3	-29.8	14.7	0.00e+00	0	44	0	961544192	17	4301
2026-01-17 23:54:15.04	64.93	53.45	-28.4	-30.2	14.5	7.00e-07	0	44	0	964689920	17	4414
2026-01-17 23:54:16.05	65.51	53.67	-28.8	-31.1	14.1	2.20e-06	0	44	0	967835648	17	4666
2026-01-17 23:54:17.05	66.09	53.89	-28.8	-31.1	14.1	3.80e-06	0	44	0	970981376	17	4669
2026-01-17 23:54:18.06	66.69	54.10	-28.6	-30.6	14.3	3.20e-05	0	44	0	974127104	17	4515
2026-01-17 23:54:19.06	67.28	54.32	-28.5	-30.3	14.5	2.85e-04	0	44	0	977272832	17	4433
2026-01-17 23:54:20.07	67.90	54.53	-28.7	-30.7	14.3	1.50e-06	0	44	0	980418560	17	4535
2026-01-17 23:54:21.06	68.51	54.74	-28.4	-30.1	14.6	7.00e-07	0	44	0	983564288	17	4388
2026-01-17 23:54:22.06	69.13	54.94	-28.4	-30.0	14.7	0.00e+00	0	44	0	986710016	17	4345
2026-01-17 23:54:23.06	69.77	55.15	-28.3	-29.9	14.7	0.00e+00	0	44	0	989855744	17	4328
2026-01-17 23:54:24.07	70.42	55.35	-28.3	-29.8	14.8	4.50e-06	0	44	0	993001472	17	4292
2026-01-17 23:54:25.07	71.07	55.55	-28.5	-30.3	14.5	1.01e-04	0	44	0	996147200	17	4441
2026-01-17 23:54:26.08	71.74	55.74	-28.5	-30.3	14.6	0.00e+00	0	44	0	999292928	17	4426
2026-01-17 23:54:27.08	72.41	55.94	-28.5	-30.3	14.5	1.50e-06	0	44	0	1002438656	17	4422
2026-01-17 23:54:28.09	73.09	56.13	-28.5	-30.3	14.5	4.00e-04	0	44	0	1005584384	17	4434
2026-01-17 23:54:29.08	73.78	56.31	-28.4	-30.1	14.6	7.00e-07	0	44	0	1008730112	17	4379
2026-01-17 23:54:30.08	74.47	56.49	-28.5	-30.3	14.6	1.55e-04	0	44	0	1011875840	17	4421
2026-01-17 23:54:31.09	75.19	56.67	-28.2	-29.6	14.9	2.71e-04	0	44	0	1015021568	17	4222
2026-01-17 23:54:32.09	75.90	56.85	-28.3	-29.8	14.8	7.00e-07	0	44	0	1018167296	17	4267
2026-01-17 23:54:33.10	76.64	57.02	-28.6	-30.5	14.4	2.16e-04	0	44	0	1021313024	17	4497
2026-01-17 23:54:34.10	77.37	57.19	-28.4	-30.2	14.6	1.44e-05	0	44	0	1024458752	17	4391
2026-01-17 23:54:35.11	78.12	57.35	-28.7	-30.7	14.3	1.50e-06	0	44	0	1027604480	17	4547
2026-01-17 23:54:36.11	78.87	57.51	-28.0	-29.2	15.2	1.29e-05	0	44	0	1030750208	17	4130
2026-01-17 23:54:37.12	79.64	57.67	-27.5	-28.4	15.9	4.80e-05	0	44	0	1033895936	16	4015
2026-01-17 23:54:38.11	80.41	57.82	-27.0	-27.9	16.2	0.00e+00	0	44	0	1037041664	15	3978
2026-01-17 23:54:39.12	81.19	57.96	-27.2	-28.5	16.0	1.94e-04	0	44	0	1040187392	15	4148
2026-01-17 23:54:40.12	81.98	58.11	-27.2	-28.3	16.1	1.64e-04	0	44	0	1043333120	15	4106
2026-01-17 23:54:41.11	82.76	58.24	-27.0	-27.8	16.3	0.00e+00	0	44	0	1046478848	15	3967
2026-01-17 23:54:42.12	83.58	58.37	-26.8	-27.5	16.5	0.00e+00	0	44	0	1049624576	15	3889
2026-01-17 23:54:43.12	84.39	58.50	-26.9	-28.2	16.4	4.61e-04	0	44	0	1052770304	14	4166
2026-01-17 23:54:44.12	85.20	58.62	-27.1	-28.6	16.1	0.00e+00	0	44	0	1055916032	14	4289
2026-01-17 23:54:45.12	86.03	58.74	-27.2	-28.8	16.1	9.02e-04	0	44	0	1059061760	14	4341
2026-01-17 23:54:46.13	86.87	58.85	-27.1	-28.6	16.1	7.16e-04	0	44	0	1062207488	14	4291
2026-01-17 23:54:47.13	87.71	58.96	-27.1	-28.6	16.2	0.00e+00	0	44	0	1065353216	14	4281
2026-01-17 23:54:48.14	88.57	59.06	-27.2	-28.8	16.1	0.00e+00	0	44	0	1068498944	14	4333
2026-01-17 23:54:49.14	89.42	59.16	-26.9	-28.1	16.4	1.07e-03	0	44	0	1071644672	14	4160
2026-01-17 23:54:50.15	90.29	59.25	-27.1	-28.6	16.2	0.00e+00	0	44	0	1074790400	14	4279
2026-01-17 23:54:51.15	91.15	59.33	-27.3	-29.1	15.9	5.62e-04	0	44	0	1077936128	14	4437
2026-01-17 23:54:52.16	92.03	59.41	-27.2	-28.8	16.1	0.00e+00	0	44	0	1081081856	14	4347
2026-01-17 23:54:53.15	92.90	59.48	-27.3	-29.0	16.0	0.00e+00	0	44	0	1084227584	14	4395
2026-01-17 23:54:54.16	93.78	59.55	-27.1	-28.6	16.2	1.28e-03	0	44	0	1087373312	14	4288
2026-01-17 23:54:55.16	94.67	59.61	-27.1	-28.7	16.2	6.72e-04	0	44	0	1090519040	14	4302
2026-01-17 23:54:56.16	95.56	59.66	-27.0	-28.4	16.4	0.00e+00	0	44	0	1093664768	14	4226
2026-01-17 23:54:57.17	96.46	59.71	-27.0	-28.5	16.3	0.00e+00	0	44	0	1096810496	14	4250
2026-01-17 23:54:58.17	97.35	59.75	-27.0	-28.4	16.3	0.00e+00	0	44	0	1099956224	14	4235
2026-01-17 23:54:59.18	98.26	59.79	-26.7	-27.7	16.7	0.00e+00	0	44	0	1103101952	14	4052
2026-01-17 23:55:00.18	99.16	59.81	-26.9	-28.1	16.4	0.00e+00	0	44	0	1106247680	14	4160
2026-01-17 23:55:01.19	100.07	59.84	-27.2	-28.8	16.1	4.42e-05	0	44	0	1109393408	14	4328
2026-01-17 23:55:02.20	100.98	59.85	-27.3	-29.2	15.8	0.00e+00	0	44	0	1112539136	14	4457
2026-01-17 23:55:03.20	101.88	59.86	-27.4	-28.8	15.8	0.00e+00	0	44	0	1115684864	15	4222
2026-01-17 23:55:04.21	102.79	59.87	-27.1	-28.6	16.2	0.00e+00	0	44	0	1118830592	14	4283
2026-01-17 23:55:05.21	103.70	59.86	-26.9	-28.2	16.4	0.00e+00	0	44	0	1121976320	14	4163
2026-01-17 23:55:06.22	104.61	59.86	-26.8	-27.9	16.5	0.00e+00	0	44	0	1125122048	14	4099
2026-01-17 23:55:07.22	105.51	59.84	-26.6	-28.1	16.7	0.00e+00	0	44	0	1128267776	13	4249
2026-01-17 23:55:08.22	106.41	59.82	-26.4	-27.7	16.9	0.00e+00	0	44	0	1131413504	13	4141
2026-01-17 23:55:09.23	107.32	59.79	-26.8	-28.4	16.5	0.00e+00	0	44	0	1134559232	13	4331
2026-01-17 23:55:10.22	108.21	59.75	-27.2	-28.9	16.0	0.00e+00	0	44	0	1137704960	14	4361
2026-01-17 23:55:11.23	109.12	59.71	-26.9	-28.1	16.5	0.00e+00	0	44	0	1140850688	14	4146
2026-01-17 23:55:12.22	110.00	59.67	-26.5	-27.3	16.9	0.00e+00	0	44	0	1143996416	14	3954
2026-01-17 23:55:13.23	110.90	59.61	-26.9	-28.1	16.5	0.00e+00	0	44	0	1147142144	14	4155
2026-01-17 23:55:14.24	111.79	59.55	-27.4	-29.2	15.9	0.00e+00	0	44	0	1150287872	14	4449
2026-01-17 23:55:15.24	112.67	59.49	-27.6	-29.3	15.6	0.00e+00	0	44	0	1153433600	15	4354
2026-01-17 23:55:16.24	113.55	59.42	-27.6	-29.1	15.7	0.00e+00	0	44	0	1156579328	15	4317
2026-01-17 23:55:17.24	114.42	59.34	-27.3	-28.7	16.0	0.00e+00	0	44	0	1158676480	15	4187
2026-01-17 23:55:18.24	115.28	59.26	-27.3	-28.5	16.1	0.00e+00	0	44	0	1161822208	15	4130
2026-01-17 23:55:19.25	116.15	59.17	-27.3	-28.6	16.0	0.00e+00	0	44	0	1164967936	15	4177
2026-01-17 23:55:20.24	117.00	59.07	-27.0	-28.0	16.3	0.00e+00	0	44	0	1168113664	15	4010
2026-01-17 23:55:21.24	117.85	58.97	-27.3	-28.5	16.0	0.00e+00	0	44	0	1171259392	15	4152
2026-01-17 23:55:22.25	118.70	58.87	-27.5	-29.0	15.7	0.00e+00	0	44	0	1174405120	15	4293
2026-01-17 23:55:23.26	119.54	58.75	-27.4	-28.7	16.0	0.00e+00	0	44	0	1177550848	15	4200
2026-01-17 23:55:24.26	120.37	58.64	-27.2	-28.4	16.1	0.00e+00	0	44	0	1180696576	15	4110
2026-01-17 23:55:25.26	121.19	58.52	-27.2	-28.4	16.1	0.00e+00	0	44	0	1183842304	15	4109
2026-01-17 23:55:26.27	122.01	58.39	-27.5	-29.0	15.7	0.00e+00	0	44	0	1186988032	15	4281
2026-01-17 23:55:27.26	122.80	58.26	-27.6	-29.2	15.5	0.00e+00	0	44	0	1190133760	15	4344
2026-01-17 23:55:28.26	123.60	58.12	-27.9	-29.9	15.3	0.00e+00	0	44	0	1193279488	15	4560
2026-01-17 23:55:29.27	124.40	57.98	-28.0	-29.6	15.3	0.00e+00	0	44	0	1196425216	16	4342
2026-01-17 23:55:30.27	125.18	57.83	-27.4	-28.3	16.0	0.00e+00	0	44	0	1199570944	16	3995
2026-01-17 23:55:31.27	125.95	57.68	-26.8	-27.9	16.5	0.00e+00	0	44	0	1202716672	14	4104
2026-01-17 23:55:32.27	126.71	57.53	-27.2	-28.9	16.1	0.00e+00	0	44	0	1205862400	14	4367
2026-01-17 23:55:33.27	127.47	57.37	-27.6	-29.2	15.6	7.00e-07	0	44	0	1209008128	15	4328
2026-01-17 23:55:34.28	128.22	57.20	-27.8	-29.6	15.3	0.00e+00	0	44	0	1212153856	15	4467
2026-01-17 23:55:35.28	128.96	57.04	-27.7	-29.5	15.4	0.00e+00	0	44	0	1215299584	15	4432
2026-01-17 23:55:36.29	129.69	56.86	-27.9	-30.0	15.2	0.00e+00	0	44	0	1218445312	15	4569
2026-01-17 23:55:37.30	130.42	56.69	-28.3	-30.4	14.8	0.00e+00	0	44	0	1221591040	16	4582
2026-01-17 23:55:38.30	131.13	56.51	-27.8	-29.3	15.5	0.00e+00	0	44	0	1224736768	16	4247
2026-01-17 23:55:39.31	131.84	56.33	-27.4	-28.7	15.8	0.00e+00	0	44	0	1227882496	15	4205
2026-01-17 23:55:40.31	132.53	56.14	-27.6	-29.4	15.6	0.00e+00	0	44	0	1231028224	15	4389
2026-01-17 23:55:41.32	133.22	55.95	-28.2	-30.1	15.0	0.00e+00	0	44	0	1234173952	16	4494
2026-01-17 23:55:42.32	133.89	55.76	-28.2	-30.0	15.0	0.00e+00	0	44	0	1237319680	16	4454
2026-01-17 23:55:43.32	134.55	55.56	-27.7	-29.5	15.4	0.00e+00	0	44	0	1240465408	15	4412
2026-01-17 23:55:44.32	135.21	55.36	-27.7	-29.4	15.4	0.00e+00	0	44	0	1243611136	15	4405
2026-01-17 23:55:45.32	135.85	55.16	-27.4	-28.8	15.9	0.00e+00	0	44	0	1246756864	15	4219
2026-01-17 23:55:46.32	136.49	54.96	-27.3	-29.0	16.0	0.00e+00	0	44	0	1249902592	14	4402
2026-01-17 23:55:47.32	137.11	54.75	-27.3	-29.0	16.1	0.00e+00	0	44	0	1253048320	14	4374
2026-01-17 23:55:48.32	137.73	54.54	-27.6	-29.1	15.6	0.00e+00	0	44	0	1256194048	15	4323
2026-01-17 23:55:49.32	138.34	54.33	-27.8	-29.7	15.3	0.00e+00	0	44	0	1259339776	15	4467
2026-01-17 23:55:50.33	138.95	54.12	-27.8	-29.6	15.4	0.00e+00	0	44	0	1262485504	15	4440
2026-01-17 23:55:51.33	139.54	53.90	-27.9	-30.0	15.2	0.00e+00	0	44	0	1265631232	15	4571
2026-01-17 23:55:52.33	140.12	53.68	-28.6	-30.4	14.5	0.00e+00	0	44	0	1268776960	17	4461
2026-01-17 23:55:53.34	140.70	53.46	-28.5	-30.4	14.6	1.50e-06	0	44	0	1271922688	17	4443
2026-01-17 23:55:54.34	141.27	53.24	-28.4	-30.4	14.8	0.00e+00	0	44	0	1275068416	16	4567
2026-01-17 23:55:55.35	141.83	53.01	-28.3	-30.2	14.9	0.00e+00	0	44	0	1278214144	16	4501
2026-01-17 23:55:56.34	142.37	52.79	-28.4	-30.6	14.7	0.00e+00	0	44	0	1281359872	16	4638
2026-01-17 23:55:57.34	142.91	52.56	-28.5	-30.2	14.6	0.00e+00	0	44	0	1284505600	17	4399
2026-01-17 23:55:58.34	143.45	52.34	-28.1	-29.9	15.1	0.00e+00	0	44	0	1287651328	16	4425
2026-01-17 23:55:59.35	143.98	52.10	-28.3	-30.3	14.9	0.00e+00	0	44	0	1290797056	16	4531
2026-01-17 23:56:00.35	144.49	51.87	-28.5	-30.4	14.6	0.00e+00	0	44	0	1293942784	17	4438
2026-01-17 23:56:01.35	145.00	51.64	-28.6	-30.4	14.6	0.00e+00	0	44	0	1297088512	17	4445
2026-01-17 23:56:02.36	145.50	51.41	-28.4	-29.9	14.8	0.00e+00	0	44	0	1300234240	17	4318
2026-01-17 23:56:03.36	146.00	51.17	-28.4	-30.6	14.7	0.00e+00	0	44	0	1303379968	16	4605
2026-01-17 23:56:04.36	146.48	50.94	-28.7	-30.7	14.4	7.00e-07	0	44	0	1306525696	17	4535
2026-01-17 23:56:05.37	146.96	50.70	-28.6	-30.6	14.4	0.00e+00	0	44	0	1309671424	17	4511
2026-01-17 23:56:06.37	147.43	50.46	-28.5	-30.2	14.7	0.00e+00	0	44	0	1312817152	17	4401
2026-01-17 23:56:07.37	147.90	50.22	-28.6	-30.5	14.5	0.00e+00	0	44	0	1315962880	17	4473
2026-01-17 23:56:08.38	148.36	49.98	-29.1	-31.3	13.7	4.50e-06	0	44	0	1319108608	18	4600
2026-01-17 23:56:09.38	148.81	49.74	-29.7	-32.1	13.0	1.62e-04	0	44	0	1322254336	19	4751
2026-01-17 23:56:10.38	149.25	49.50	-29.9	-32.7	12.6	8.46e-05	0	44	0	1325400064	19	4955
2026-01-17 23:56:11.39	149.69	49.26	-30.0	-32.9	12.4	1.23e-04	0	44	0	1328545792	19	5022
2026-01-17 23:56:12.40	150.12	49.02	-30.0	-32.4	12.3	1.68e-04	0	44	0	1331691520	20	4760
2026-01-17 23:56:13.40	150.54	48.78	-29.8	-32.1	12.5	1.66e-04	0	44	0	1334837248	20	4672
2026-01-17 23:56:14.40	150.95	48.54	-29.3	-31.2	13.5	3.49e-04	0	44	0	1337982976	19	4472
2026-01-17 23:56:15.41	151.37	48.29	-29.1	-30.6	13.8	6.80e-06	0	44	0	1341128704	19	4294
2026-01-17 23:56:16.41	151.77	48.05	-29.3	-31.2	13.5	6.80e-06	0	44	0	1344274432	19	4485
2026-01-17 23:56:17.41	152.17	47.81	-29.8	-32.5	12.7	4.65e-05	0	44	0	1347420160	19	4918
2026-01-17 23:56:18.42	152.56	47.57	-29.9	-32.4	12.3	1.52e-04	0	44	0	1350565888	20	4771
2026-01-17 23:56:19.42	152.94	47.32	-29.9	-32.2	12.5	1.49e-04	0	44	0	1353711616	20	4702
2026-01-17 23:56:20.41	153.32	47.09	-29.8	-32.0	12.6	3.65e-04	0	44	0	1356857344	20	4647
2026-01-17 23:56:21.42	153.69	46.84	-29.3	-30.8	13.3	2.97e-05	0	44	0	1360003072	20	4273
2026-01-17 23:56:22.42	154.06	46.60	-29.2	-31.0	13.6	7.60e-06	0	44	0	1363148800	19	4409
2026-01-17 23:56:23.43	154.43	46.36	-29.1	-30.7	13.8	3.00e-06	0	44	0	1366294528	19	4339
2026-01-17 23:56:24.43	154.78	46.12	-29.0	-30.5	13.9	1.52e-05	0	44	0	1369440256	19	4265
2026-01-17 23:56:25.44	155.14	45.87	-29.3	-31.1	13.5	6.10e-06	0	44	0	1372585984	19	4451
2026-01-17 23:56:26.44	155.48	45.63	-29.9	-32.7	12.5	1.22e-04	0	44	0	1375731712	19	4972
2026-01-17 23:56:27.45	155.83	45.39	-30.3	-33.4	11.7	3.80e-04	0	44	0	1378877440	20	5131
2026-01-17 23:56:28.45	156.16	45.15	-30.3	-33.2	11.8	6.93e-04	0	44	0	1382023168	20	5045
2026-01-17 23:56:29.46	156.49	44.91	-30.2	-33.0	11.9	5.05e-04	0	44	0	1385168896	20	4980
2026-01-17 23:56:30.46	156.82	44.67	-30.0	-32.6	12.2	3.07e-04	0	44	0	1388314624	20	4813
2026-01-17 23:56:31.46	157.14	44.43	-30.1	-32.8	12.1	2.32e-04	0	44	0	1391460352	20	4884
2026-01-17 23:56:32.46	157.45	44.19	-30.0	-32.6	12.2	3.38e-04	0	44	0	1394606080	20	4813
2026-01-17 23:56:33.46	157.77	43.95	-29.7	-31.6	12.8	4.88e-04	0	44	0	1397751808	20	4497
2026-01-17 23:56:34.47	158.08	43.72	-29.7	-31.8	12.6	7.40e-05	0	44	0	1400897536	20	4576
2026-01-17 23:56:35.47	158.38	43.48	-29.7	-32.3	12.6	6.01e-04	0	44	0	1404043264	19	4834
2026-01-17 23:56:36.47	158.68	43.24	-29.4	-31.4	13.2	4.87e-04	0	44	0	1407188992	19	4534
2026-01-17 23:56:37.46	158.97	43.01	-29.2	-31.0	13.5	1.06e-05	0	44	0	1410334720	19	4418
2026-01-17 23:56:38.47	159.26	42.77	-29.3	-31.8	13.4	2.44e-05	0	44	0	1413480448	18	4773
2026-01-17 23:56:39.48	159.55	42.54	-29.5	-31.7	13.1	1.28e-03	0	44	0	1416626176	19	4642
2026-01-17 23:56:40.48	159.83	42.30	-29.8	-32.4	12.6	6.79e-05	0	44	0	1419771904	19	4867
2026-01-17 23:56:41.48	160.10	42.07	-29.8	-32.4	12.6	1.44e-03	0	44	0	1422917632	19	4887
2026-01-17 23:56:42.48	160.38	41.84	-29.5	-31.8	13.0	1.10e-03	0	44	0	1426063360	19	4667
2026-01-17 23:56:43.48	160.65	41.61	-29.3	-31.1	13.3	1.90e-05	0	44	0	1429209088	19	4449
2026-01-17 23:56:44.49	160.92	41.38	-29.3	-31.6	13.4	1.20e-03	0	44	0	1432354816	18	4699
2026-01-17 23:56:45.49	161.18	41.15	-29.3	-31.6	13.5	1.76e-03	0	44	0	1434451968	18	4699
2026-01-17 23:56:46.49	161.44	40.92	-29.2	-31.3	13.6	9.90e-06	0	44	0	1437597696	18	4627
2026-01-17 23:56:47.50	161.69	40.69	-29.5	-31.7	13.0	2.10e-03	0	44	0	1440743424	19	4650
2026-01-17 23:56:48.50	161.94	40.46	-29.9	-32.6	12.5	1.12e-04	0	44	0	1443889152	19	4932
2026-01-17 23:56:49.50	162.19	40.24	-29.9	-32.2	12.3	1.78e-04	0	44	0	1447034880	20	4714
2026-01-17 23:56:50.50	162.44	40.01	-30.1	-32.9	12.0	1.76e-03	0	44	0	1450180608	20	4923
2026-01-17 23:56:51.50	162.68	39.79	-30.1	-32.8	12.0	1.33e-03	0	44	0	1453326336	20	4902
2026-01-17 23:56:52.51	162.92	39.56	-29.9	-32.2	12.4	1.71e-04	0	44	0	1456472064	20	4704
2026-01-17 23:56:53.51	163.15	39.34	-29.9	-32.2	12.3	1.76e-04	0	44	0	1459617792	20	4709
2026-01-17 23:56:54.51	163.38	39.12	-29.9	-32.6	12.5	1.43e-04	0	44	0	1462763520	19	4941
2026-01-17 23:56:55.52	163.62	38.89	-29.5	-31.6	13.1	6.63e-05	0	44	0	1465909248	19	4615
2026-01-17 23:56:56.52	163.84	38.67	-29.2	-31.4	13.5	8.19e-04	0	44	0	1469054976	18	4653
2026-01-17 23:56:57.53	164.07	38.45	-29.0	-30.9	13.8	9.35e-04	0	44	0	1472200704	18	4504
2026-01-17 23:56:58.53	164.29	38.24	-28.7	-30.3	14.2	1.50e-06	0	44	0	1475346432	18	4332
2026-01-17 23:56:59.54	164.50	38.02	-28.6	-30.5	14.3	1.50e-06	0	44	0	1478492160	17	4477
2026-01-17 23:57:00.54	164.72	37.80	-28.7	-30.7	14.2	0.00e+00	0	44	0	1481637888	17	4552
2026-01-17 23:57:01.54	164.93	37.59	-28.6	-30.6	14.3	1.50e-06	0	44	0	1484783616	17	4533
2026-01-17 23:57:02.54	165.14	37.37	-28.8	-31.1	14.0	4.23e-04	0	44	0	1487929344	17	4680
2026-01-17 23:57:03.55	165.35	37.16	-29.0	-31.1	13.7	5.30e-06	0	44	0	1491075072	18	4567
2026-01-17 23:57:04.55	165.55	36.94	-29.2	-31.6	13.4	1.64e-04	0	44	0	1494220800	18	4733
2026-01-17 23:57:05.55	165.75	36.73	-29.3	-31.8	13.3	1.64e-04	0	44	0	1497366528	18	4790
2026-01-17 23:57:06.55	165.95	36.52	-29.2	-31.5	13.4	1.06e-05	0	44	0	1500512256	18	4706
2026-01-17 23:57:07.55	166.14	36.31	-29.0	-31.1	13.7	9.10e-06	0	44	0	1503657984	18	4554
2026-01-17 23:57:08.56	166.34	36.10	-29.0	-31.4	13.8	2.20e-06	0	44	0	1506803712	17	4772
2026-01-17 23:57:09.56	166.53	35.90	-28.8	-31.0	14.0	3.00e-06	0	44	0	1509949440	17	4634
2026-01-17 23:57:10.57	166.72	35.69	-28.6	-30.5	14.3	5.30e-06	0	44	0	1513095168	17	4500
2026-01-17 23:57:11.57	166.91	35.48	-28.6	-30.7	14.2	7.00e-07	0	44	0	1516240896	17	4540
2026-01-17 23:57:12.58	167.09	35.28	-28.6	-30.5	14.3	2.20e-06	0	44	0	1519386624	17	4501
2026-01-17 23:57:13.58	167.27	35.07	-28.8	-31.0	14.0	1.50e-06	0	44	0	1522532352	17	4648
2026-01-17 23:57:14.59	167.45	34.87	-29.1	-31.2	13.6	6.80e-06	0	44	0	1525678080	18	4615
2026-01-17 23:57:15.59	167.63	34.67	-29.3	-31.7	13.3	1.14e-05	0	44	0	1528823808	18	4762
2026-01-17 23:57:16.59	167.81	34.47	-29.2	-31.6	13.4	1.83e-05	0	44	0	1531969536	18	4731
2026-01-17 23:57:17.59	167.98	34.27	-29.0	-31.2	13.6	9.90e-06	0	44	0	1535115264	18	4601
2026-01-17 23:57:18.59	168.15	34.07	-28.9	-31.2	13.9	2.20e-06	0	44	0	1538260992	17	4732
2026-01-17 23:57:19.60	168.32	33.87	-28.7	-30.7	14.1	7.32e-05	0	44	0	1541406720	17	4573
2026-01-17 23:57:20.61	168.49	33.67	-28.4	-30.1	14.5	3.73e-05	0	44	0	1544552448	17	4389
2026-01-17 23:57:21.60	168.65	33.48	-28.2	-30.2	14.7	0.00e+00	0	44	0	1547698176	16	4527
2026-01-17 23:57:22.61	168.82	33.28	-28.0	-29.7	15.0	8.39e-05	0	44	0	1550843904	16	4358
2026-01-17 23:57:23.61	168.98	33.09	-27.7	-29.4	15.3	7.24e-05	0	44	0	1553989632	15	4419
2026-01-17 23:57:24.61	169.14	32.90	-27.7	-29.5	15.2	0.00e+00	0	44	0	1557135360	15	4440
2026-01-17 23:57:25.61	169.30	32.71	-27.6	-29.4	15.3	1.06e-05	0	44	0	1560281088	15	4393
2026-01-17 23:57:26.62	169.45	32.51	-27.4	-28.7	15.6	3.00e-06	0	44	0	1563426816	15	4216
2026-01-17 23:57:27.62	169.61	32.32	-27.2	-28.9	15.8	0.00e+00	0	44	0	1566572544	14	4378
2026-01-17 23:57:28.62	169.76	32.14	-27.1	-28.6	16.0	7.00e-07	0	44	0	1569718272	14	4298
2026-01-17 23:57:29.63	169.91	31.95	-27.0	-28.4	16.1	0.00e+00	0	44	0	1572864000	14	4235
2026-01-17 23:57:30.63	170.06	31.76	-27.1	-28.8	15.9	0.00e+00	0	44	0	1576009728	14	4341
2026-01-17 23:57:31.64	170.21	31.57	-27.2	-28.8	15.9	0.00e+00	0	44	0	1579155456	14	4343
2026-01-17 23:57:32.63	170.35	31.39	-27.0	-28.6	16.0	0.00e+00	0	44	0	1582301184	14	4279
2026-01-17 23:57:33.63	170.50	31.21	-27.1	-28.7	15.9	0.00e+00	0	44	0	1585446912	14	4320
2026-01-17 23:57:34.64	170.64	31.02	-27.1	-28.8	15.9	1.44e-05	0	44	0	1588592640	14	4341
2026-01-17 23:57:35.65	170.78	30.84	-27.3	-29.1	15.7	0.00e+00	0	44	0	1591738368	14	4424
2026-01-17 23:57:36.64	170.92	30.66	-27.4	-29.4	15.5	0.00e+00	0	44	0	1594884096	14	4530
2026-01-17 23:57:37.65	171.06	30.48	-27.5	-29.5	15.4	3.00e-06	0	44	0	1598029824	14	4561
2026-01-17 23:57:38.65	171.20	30.30	-27.8	-29.7	15.0	5.79e-05	0	44	0	1601175552	15	4498
2026-01-17 23:57:39.65	171.33	30.12	-27.8	-29.8	15.0	7.00e-07	0	44	0	1604321280	15	4520
2026-01-17 23:57:40.65	171.47	29.95	-27.8	-29.8	15.0	1.06e-05	0	44	0	1607467008	15	4542
2026-01-17 23:57:41.65	171.60	29.77	-27.8	-29.9	14.9	2.02e-04	0	44	0	1610612736	15	4547
2026-01-17 23:57:42.65	171.73	29.59	-27.8	-29.7	15.0	0.00e+00	0	44	0	1613758464	15	4510
2026-01-17 23:57:43.65	171.86	29.42	-27.7	-29.7	15.0	2.39e-04	0	44	0	1616904192	15	4487
2026-01-17 23:57:44.65	171.99	29.25	-27.7	-29.5	15.2	0.00e+00	0	44	0	1620049920	15	4447
2026-01-17 23:57:45.64	172.11	29.08	-27.8	-29.9	14.9	0.00e+00	0	44	0	1623195648	15	4555
2026-01-17 23:57:46.64	172.24	28.91	-27.6	-29.3	15.2	1.59e-04	0	44	0	1626341376	15	4388
2026-01-17 23:57:47.64	172.36	28.73	-27.3	-28.7	15.6	1.45e-04	0	44	0	1629487104	15	4211
2026-01-17 23:57:48.64	172.48	28.57	-27.2	-28.9	15.7	0.00e+00	0	44	0	1632632832	14	4387
2026-01-17 23:57:49.64	172.61	28.40	-27.2	-28.9	15.7	9.90e-06	0	44	0	1635778560	14	4377
2026-01-17 23:57:50.64	172.73	28.23	-27.0	-28.5	16.0	0.00e+00	0	44	0	1638924288	14	4263
2026-01-17 23:57:51.64	172.85	28.06	-27.0	-28.5	16.0	0.00e+00	0	44	0	1642070016	14	4264
2026-01-17 23:57:52.65	172.96	27.89	-27.0	-28.6	15.9	2.20e-04	0	44	0	1645215744	14	4282
2026-01-17 23:57:53.65	173.08	27.73	-27.1	-28.8	15.8	2.04e-04	0	44	0	1648361472	14	4350
2026-01-17 23:57:54.65	173.20	27.56	-27.2	-28.9	15.7	0.00e+00	0	44	0	1651507200	14	4384
2026-01-17 23:57:55.66	173.31	27.40	-27.4	-29.3	15.6	1.06e-05	0	44	0	1654652928	14	4489
2026-01-17 23:57:56.66	173.43	27.24	-27.3	-29.2	15.6	0.00e+00	0	44	0	1657798656	14	4455
2026-01-17 23:57:57.66	173.54	27.08	-26.9	-28.3	16.1	0.00e+00	0	44	0	1660944384	14	4215
2026-01-17 23:57:58.67	173.65	26.91	-26.8	-27.9	16.3	2.33e-04	0	44	0	1664090112	14	4106
2026-01-17 23:57:59.67	173.76	26.75	-26.6	-28.1	16.4	0.00e+00	0	44	0	1667235840	13	4263
2026-01-17 23:58:00.67	173.87	26.59	-26.6	-28.0	16.5	0.00e+00	0	44	0	1670381568	13	4235
2026-01-17 23:58:01.67	173.98	26.44	-26.7	-28.3	16.3	0.00e+00	0	44	0	1673527296	13	4317
2026-01-17 23:58:02.68	174.09	26.28	-26.8	-28.4	16.2	0.00e+00	0	44	0	1676673024	13	4354
2026-01-17 23:58:03.68	174.19	26.12	-26.8	-28.5	16.2	0.00e+00	0	44	0	1679818752	13	4384
2026-01-17 23:58:04.68	174.30	25.96	-26.9	-28.8	16.0	0.00e+00	0	44	0	1682964480	13	4458
2026-01-17 23:58:05.69	174.40	25.81	-27.0	-28.6	15.9	0.00e+00	0	44	0	1685061632	14	4296
2026-01-17 23:58:06.69	174.50	25.65	-27.3	-29.1	15.6	0.00e+00	0	44	0	1688207360	14	4432
2026-01-17 23:58:07.70	174.61	25.50	-27.3	-29.1	15.6	0.00e+00	0	44	0	1691353088	14	4436
2026-01-17 23:58:08.71	174.71	25.34	-27.3	-29.1	15.6	0.00e+00	0	44	0	1694498816	14	4449
2026-01-17 23:58:09.72	174.81	25.19	-27.4	-29.5	15.3	0.00e+00	0	44	0	1698693120	14	4557
2026-01-17 23:58:10.71	174.91	25.04	-27.3	-29.2	15.5	0.00e+00	0	44	0	1701838848	14	4484
2026-01-17 23:58:11.72	175.01	24.89	-27.2	-29.0	15.6	0.00e+00	0	44	0	1704984576	14	4408
2026-01-17 23:58:12.72	175.10	24.74	-27.2	-29.0	15.6	0.00e+00	0	44	0	1708130304	14	4409
2026-01-17 23:58:13.72	175.20	24.59	-27.3	-29.1	15.5	0.00e+00	0	44	0	1710227456	14	4440
2026-01-17 23:58:14.72	175.30	24.44	-27.5	-29.5	15.3	5.45e-04	0	44	0	1713373184	14	4572
2026-01-17 23:58:15.72	175.39	24.29	-27.4	-28.9	15.3	0.00e+00	0	44	0	1716518912	15	4270
2026-01-17 23:58:16.72	175.49	24.15	-27.3	-28.7	15.5	0.00e+00	0	44	0	1719664640	15	4217
2026-01-17 23:58:17.72	175.58	24.00	-27.2	-29.0	15.6	0.00e+00	0	44	0	1722810368	14	4402
2026-01-17 23:58:18.73	175.67	23.86	-27.2	-28.9	15.6	0.00e+00	0	44	0	1725956096	14	4375
2026-01-17 23:58:19.73	175.76	23.71	-27.2	-29.0	15.5	2.52e-04	0	44	0	1729101824	14	4414
2026-01-17 23:58:20.73	175.85	23.57	-27.3	-29.1	15.5	2.46e-04	0	44	0	1732247552	14	4452
2026-01-17 23:58:21.73	175.94	23.42	-27.3	-29.3	15.4	0.00e+00	0	44	0	1735393280	14	4492
2026-01-17 23:58:22.74	176.03	23.28	-27.3	-29.2	15.4	0.00e+00	0	44	0	1738539008	14	4476
2026-01-17 23:58:23.75	176.12	23.14	-27.3	-29.3	15.4	0.00e+00	0	44	0	1741684736	14	4494
2026-01-17 23:58:24.75	176.21	23.00	-27.5	-29.5	15.3	1.98e-05	0	44	0	1744830464	14	4559
2026-01-17 23:58:25.76	176.30	22.86	-27.4	-29.3	15.4	2.39e-04	0	44	0	1747976192	14	4502
2026-01-17 23:58:26.76	176.38	22.72	-27.3	-29.3	15.4	2.78e-04	0	44	0	1751121920	14	4487
2026-01-17 23:58:27.77	176.47	22.58	-27.3	-29.1	15.5	0.00e+00	0	44	0	1754267648	14	4446
2026-01-17 23:58:28.78	176.56	22.44	-27.5	-29.6	15.2	0.00e+00	0	44	0	1757413376	14	4578
2026-01-17 23:58:29.78	176.64	22.30	-27.3	-28.6	15.4	2.82e-04	0	44	0	1760559104	15	4210
2026-01-17 23:58:30.78	176.72	22.16	-27.0	-27.9	15.8	1.43e-04	0	44	0	1763704832	15	4013
2026-01-17 23:58:31.78	176.81	22.03	-26.8	-28.1	16.0	3.00e-04	0	44	0	1766850560	14	4157
2026-01-17 23:58:32.78	176.89	21.89	-26.8	-28.1	16.0	3.12e-04	0	44	0	1769996288	14	4176
2026-01-17 23:58:33.78	176.97	21.76	-26.8	-28.1	16.0	0.00e+00	0	44	0	1773142016	14	4156
2026-01-17 23:58:34.79	177.05	21.62	-26.8	-28.4	16.0	3.07e-04	0	44	0	1776287744	13	4371
2026-01-17 23:58:35.79	177.13	21.49	-26.9	-28.8	15.9	3.05e-04	0	44	0	1779433472	13	4478
2026-01-17 23:58:36.80	177.21	21.35	-26.8	-28.6	15.9	1.27e-04	0	44	0	1782579200	13	4421
2026-01-17 23:58:37.80	177.29	21.22	-27.0	-29.0	15.8	2.99e-04	0	44	0	1785724928	13	4524
2026-01-17 23:58:38.80	177.37	21.09	-27.2	-29.0	15.4	3.04e-04	0	44	0	1788870656	14	4430
2026-01-17 23:58:39.80	177.44	20.96	-27.2	-29.0	15.5	9.61e-05	0	44	0	1792016384	14	4423
2026-01-17 23:58:40.81	177.52	20.83	-27.3	-29.1	15.4	2.53e-04	0	44	0	1795162112	14	4455
2026-01-17 23:58:41.81	177.60	20.70	-27.3	-29.3	15.3	3.04e-04	0	44	0	1798307840	14	4515
2026-01-17 23:58:42.81	177.67	20.57	-27.4	-29.5	15.2	1.14e-05	0	44	0	1801453568	14	4585
2026-01-17 23:58:43.81	177.75	20.44	-27.4	-29.4	15.3	0.00e+00	0	44	0	1804599296	14	4529
2026-01-17 23:58:44.81	177.82	20.32	-27.5	-29.6	15.1	3.85e-04	0	44	0	1807745024	14	4603
2026-01-17 23:58:45.82	177.89	20.19	-27.4	-29.0	15.1	0.00e+00	0	44	0	1810890752	15	4319
2026-01-17 23:58:46.83	177.97	20.06	-27.3	-29.3	15.3	5.42e-04	0	44	0	1814036480	14	4519
2026-01-17 23:58:47.83	178.04	19.93	-27.3	-29.2	15.4	6.50e-04	0	44	0	1817182208	14	4477
2026-01-17 23:58:48.84	178.11	19.81	-27.4	-29.4	15.2	6.80e-06	0	44	0	1820327936	14	4532
2026-01-17 23:58:49.84	178.18	19.68	-27.2	-29.1	15.4	0.00e+00	0	44	0	1823473664	14	4449
2026-01-17 23:58:50.84	178.26	19.56	-27.2	-28.9	15.5	1.50e-03	0	44	0	1826619392	14	4416
2026-01-17 23:58:51.85	178.33	19.43	-27.1	-28.8	15.5	9.90e-06	0	44	0	1829765120	14	4371
2026-01-17 23:58:52.85	178.40	19.31	-27.3	-29.1	15.3	2.28e-03	0	44	0	1832910848	14	4469
2026-01-17 23:58:53.86	178.47	19.19	-27.2	-29.0	15.4	0.00e+00	0	44	0	1836056576	14	4432
2026-01-17 23:58:54.86	178.53	19.07	-27.3	-29.1	15.3	7.60e-06	0	44	0	1839202304	14	4464
2026-01-17 23:58:55.86	178.60	18.94	-27.2	-29.0	15.4	0.00e+00	0	44	0	1842348032	14	4437
2026-01-17 23:58:56.86	178.67	18.82	-27.2	-29.0	15.4	3.07e-03	0	44	0	1845493760	14	4420
2026-01-17 23:58:57.87	178.74	18.70	-27.2	-29.1	15.3	1.06e-05	0	44	0	1848639488	14	4457
2026-01-17 23:58:58.87	178.81	18.58	-27.3	-29.2	15.2	0.00e+00	0	44	0	1851785216	14	4504
2026-01-17 23:58:59.88	178.87	18.46	-27.3	-29.4	15.2	0.00e+00	0	44	0	1854930944	14	4540
2026-01-17 23:59:00.88	178.94	18.34	-27.4	-29.4	15.1	0.00e+00	0	44	0	1858076672	14	4554
2026-01-17 23:59:01.88	179.00	18.23	-27.4	-29.4	15.2	0.00e+00	0	44	0	1861222400	14	4547
2026-01-17 23:59:02.88	179.07	18.11	-27.5	-29.6	15.0	0.00e+00	0	44	0	1864368128	14	4625
2026-01-17 23:59:03.89	179.13	17.99	-27.4	-29.5	15.1	1.14e-05	0	44	0	1867513856	14	4579
2026-01-17 23:59:04.89	179.20	17.87	-27.5	-29.2	15.0	0.00e+00	0	44	0	1870659584	15	4374
2026-01-17 23:59:05.89	179.26	17.76	-27.7	-29.6	14.8	0.00e+00	0	44	0	1873805312	15	4500
2026-01-17 23:59:06.89	179.32	17.64	-27.7	-29.6	14.1	0.00e+00	0	44	0	1876951040	15	4490
2026-01-17 23:59:07.90	179.39	17.53	-27.6	-29.5	14.3	0.00e+00	0	44	0	1880096768	15	4455
2026-01-17 23:59:08.90	179.45	17.41	-27.5	-29.3	14.9	0.00e+00	0	44	0	1883242496	15	4413
2026-01-17 23:59:09.90	179.51	17.30	-27.6	-29.4	14.9	7.00e-07	0	44	0	1886388224	15	4428
2026-01-17 23:59:10.90	179.57	17.19	-27.6	-29.4	14.8	0.00e+00	0	44	0	1889533952	15	4440
2026-01-17 23:59:11.91	179.63	17.07	-27.6	-29.5	14.8	7.00e-07	0	44	0	1892679680	15	4474
2026-01-17 23:59:12.91	179.69	16.96	-27.6	-29.4	14.9	4.06e-04	0	44	0	1895825408	15	4438
2026-01-17 23:59:13.92	179.75	16.85	-27.5	-29.3	14.9	4.55e-04	0	44	0	1898971136	15	4420
2026-01-17 23:59:14.92	179.81	16.74	-27.6	-29.5	14.8	0.00e+00	0	44	0	1902116864	15	4479
2026-01-17 23:59:15.93	179.87	16.62	-27.5	-29.2	14.9	7.00e-07	0	44	0	1905262592	15	4379
2026-01-17 23:59:16.93	179.93	16.51	-27.6	-29.5	14.8	0.00e+00	0	44	0	1908408320	15	4478
2026-01-17 23:59:17.93	179.99	16.40	-27.6	-29.4	14.8	0.00e+00	0	44	0	1911554048	15	4441
2026-01-17 23:59:18.93	180.04	16.29	-27.7	-29.6	14.7	5.76e-04	0	44	0	1914699776	15	4500
2026-01-17 23:59:19.93	180.10	16.18	-27.8	-29.9	14.5	1.50e-06	0	44	0	1917845504	15	4596
2026-01-17 23:59:20.93	180.16	16.08	-27.8	-29.9	14.5	0.00e+00	0	44	0	1920991232	15	4596
2026-01-17 23:59:21.93	180.22	15.97	-27.7	-29.6	14.7	2.13e-05	0	44	0	1924136960	15	4508
2026-01-17 23:59:22.94	180.27	15.86	-27.9	-30.2	14.3	5.48e-04	0	44	0	1927282688	15	4670
2026-01-17 23:59:23.94	180.33	15.75	-27.7	-29.8	14.6	7.00e-07	0	44	0	1930428416	15	4544
2026-01-17 23:59:24.94	180.38	15.65	-27.7	-29.7	14.6	0.00e+00	0	44	0	1933574144	15	4525
2026-01-17 23:59:25.94	180.44	15.54	-27.7	-29.7	14.6	0.00e+00	0	44	0	1936719872	15	4536
2026-01-17 23:59:26.95	180.49	15.43	-27.9	-30.1	14.4	0.00e+00	0	44	0	1939865600	15	4637
2026-01-17 23:59:27.95	180.55	15.33	-27.8	-29.8	14.5	6.06e-04	0	44	0	1943011328	15	4566
2026-01-17 23:59:28.95	180.60	15.22	-27.7	-29.8	14.6	5.62e-04	0	44	0	1946157056	15	4545
2026-01-17 23:59:29.95	180.66	15.12	-27.8	-29.9	14.5	7.00e-07	0	44	0	1949302784	15	4589
2026-01-17 23:59:30.95	180.71	15.01	-27.7	-29.6	14.6	0.00e+00	0	44	0	1952448512	15	4511
2026-01-17 23:59:31.94	180.76	14.91	-27.8	-29.8	14.5	5.09e-04	0	44	0	1955594240	15	4560
2026-01-17 23:59:32.95	180.81	14.81	-27.7	-29.7	14.6	1.50e-06	0	44	0	1958739968	15	4536
2026-01-17 23:59:33.96	180.87	14.70	-28.0	-30.3	14.2	4.85e-04	0	44	0	1960837120	15	4722
2026-01-17 23:59:34.96	180.92	14.60	-28.0	-29.9	14.3	4.61e-04	0	44	0	1965031424	16	4480
2026-01-17 23:59:35.97	180.97	14.50	-28.4	-30.8	13.8	3.00e-06	0	44	0	1968177152	16	4731
2026-01-17 23:59:36.97	181.02	14.40	-28.2	-30.2	14.1	3.95e-04	0	44	0	1971322880	16	4563
2026-01-17 23:59:37.98	181.07	14.29	-28.0	-29.9	14.4	4.33e-04	0	44	0	1974468608	16	4458
2026-01-17 23:59:38.98	181.12	14.19	-28.0	-29.9	14.3	1.50e-06	0	44	0	1977614336	16	4466
2026-01-17 23:59:39.99	181.18	14.09	-28.0	-29.8	14.4	5.27e-04	0	44	0	1980760064	16	4422
2026-01-17 23:59:40.99	181.23	13.99	-28.0	-29.9	14.4	5.33e-04	0	44	0	1983905792	16	4452
2026-01-17 23:59:41.99	181.28	13.89	-28.2	-30.3	14.1	7.00e-07	0	44	0	1986002944	16	4592
2026-01-17 23:59:43.00	181.33	13.79	-28.1	-30.1	14.2	6.16e-04	0	44	0	1989148672	16	4528
2026-01-17 23:59:44.01	181.37	13.69	-28.0	-30.3	14.2	6.17e-04	0	44	0	1992294400	15	4706
2026-01-17 23:59:45.02	181.42	13.59	-28.4	-30.9	13.7	6.80e-06	0	44	0	1996488704	16	4759
2026-01-17 23:59:46.02	181.47	13.49	-28.2	-30.2	14.1	6.17e-04	0	44	0	1999634432	16	4565
2026-01-17 23:59:47.02	181.52	13.40	-28.1	-30.1	14.2	2.20e-06	0	44	0	2002780160	16	4515
2026-01-17 23:59:48.02	181.57	13.30	-28.2	-30.3	14.1	1.22e-05	0	44	0	2005925888	16	4598
2026-01-17 23:59:49.03	181.62	13.20	-28.2	-30.4	14.0	7.00e-04	0	44	0	2008023040	16	4608
2026-01-17 23:59:50.03	181.66	13.10	-28.3	-30.5	14.0	7.27e-04	0	44	0	2011168768	16	4645
2026-01-17 23:59:51.04	181.71	13.01	-28.2	-30.4	14.0	3.80e-06	0	44	0	2014314496	16	4623
2026-01-17 23:59:52.04	181.76	12.91	-28.4	-30.7	13.8	6.80e-06	0	44	0	2017460224	16	4730
2026-01-17 23:59:53.04	181.80	12.82	-28.5	-30.9	13.7	3.80e-06	0	44	0	2020605952	16	4786
2026-01-17 23:59:54.05	181.85	12.72	-28.3	-30.4	14.0	5.30e-06	0	44	0	2023751680	16	4627
2026-01-17 23:59:55.05	181.90	12.62	-28.2	-30.4	14.0	6.48e-04	0	44	0	2026897408	16	4609
2026-01-17 23:59:56.05	181.94	12.53	-28.0	-29.8	14.3	7.00e-07	0	44	0	2030043136	16	4450
2026-01-17 23:59:57.05	181.99	12.44	-28.0	-29.9	14.3	1.67e-05	0	44	0	2033188864	16	4465
2026-01-17 23:59:58.05	182.03	12.34	-28.2	-30.2	14.1	7.00e-07	0	44	0	2036334592	16	4566
2026-01-17 23:59:59.05	182.08	12.25	-28.1	-30.0	14.2	3.00e-06	0	44	0	2039480320	16	4508
2026-01-18 00:00:00.06	182.12	12.16	-28.2	-30.3	14.0	1.83e-05	0	44	0	2042626048	16	4580
2026-01-18 00:00:01.06	182.17	12.06	-28.1	-30.1	14.1	3.00e-06	0	44	0	2045771776	16	4544
2026-01-18 00:00:02.06	182.21	11.97	-28.3	-30.6	13.6	3.80e-06	0	44	0	2048917504	16	4668
2026-01-18 00:00:03.06	182.25	11.88	-28.1	-30.1	14.1	2.05e-05	0	44	0	2052063232	16	4513
2026-01-18 00:00:04.07	182.30	11.79	-28.1	-30.2	14.1	1.50e-06	0	44	0	2055208960	16	4543
2026-01-18 00:00:05.08	182.34	11.69	-27.8	-29.8	14.4	2.70e-04	0	44	0	2058354688	15	4566
2026-01-18 00:00:06.08	182.38	11.60	-27.8	-29.9	14.3	1.75e-05	0	44	0	2061500416	15	4581
2026-01-18 00:00:07.08	182.43	11.51	-28.0	-30.3	14.1	2.20e-06	0	44	0	2064646144	15	4722
2026-01-18 00:00:08.08	182.47	11.42	-27.8	-29.8	14.3	1.50e-06	0	44	0	2067791872	15	4574
2026-01-18 00:00:09.09	182.51	11.33	-28.0	-30.3	14.1	2.20e-06	0	44	0	2070937600	15	4726
2026-01-18 00:00:10.09	182.55	11.24	-28.0	-30.0	14.1	3.31e-04	0	44	0	2074083328	16	4492
2026-01-18 00:00:11.10	182.60	11.15	-28.2	-30.4	13.9	3.53e-04	0	44	0	2077229056	16	4629
2026-01-18 00:00:12.10	182.64	11.06	-28.3	-30.6	13.7	2.28e-05	0	44	0	2080374784	16	4682
2026-01-18 00:00:13.10	182.68	10.97	-28.2	-30.3	14.0	3.80e-06	0	44	0	2083520512	16	4584
2026-01-18 00:00:14.10	182.72	10.88	-28.3	-30.6	13.8	3.80e-04	0	44	0	2086666240	16	4684
2026-01-18 00:00:15.11	182.76	10.80	-28.2	-30.4	13.8	6.10e-06	0	44	0	2089811968	16	4638
2026-01-18 00:00:16.11	182.80	10.71	-28.3	-30.7	13.7	4.08e-04	0	44	0	2092957696	16	4721
2026-01-18 00:00:17.11	182.84	10.62	-28.6	-30.7	13.4	1.75e-05	0	44	0	2096103424	17	4616
2026-01-18 00:00:18.11	182.88	10.53	-28.4	-30.3	13.6	1.37e-05	0	44	0	2099249152	17	4491
2026-01-18 00:00:19.11	182.92	10.45	-28.3	-30.6	13.7	4.16e-04	0	44	0	2102394880	16	4680
2026-01-18 00:00:20.12	182.96	10.36	-28.4	-30.9	13.5	4.16e-04	0	44	0	2105540608	16	4798
2026-01-18 00:00:21.12	183.00	10.27	-28.7	-31.1	13.1	2.28e-05	0	44	0	2108686336	17	4744
2026-01-18 00:00:22.12	183.04	10.19	-28.6	-30.8	13.3	4.78e-04	0	44	0	2111832064	17	4633
2026-01-18 00:00:23.13	183.08	10.10	-28.4	-30.3	13.5	9.10e-06	0	44	0	2114977792	17	4502
2026-01-18 00:00:24.13	183.12	10.01	-28.5	-30.7	13.4	1.98e-05	0	44	0	2118123520	17	4605
2026-01-18 00:00:25.13	183.16	9.93	-28.6	-30.9	13.0	6.26e-04	0	44	0	2121269248	17	4695
2026-01-18 00:00:26.13	183.20	9.84	-28.7	-31.1	13.1	5.56e-04	0	44	0	2124414976	17	4736
2026-01-18 00:00:27.13	183.24	9.76	-28.6	-30.7	13.3	1.98e-05	0	44	0	2127560704	17	4632
2026-01-18 00:00:28.14	183.27	9.67	-28.8	-31.3	12.9	6.12e-04	0	44	0	2130706432	17	4805
2026-01-18 00:00:29.14	183.31	9.59	-28.7	-31.1	13.0	6.96e-04	0	44	0	2133852160	17	4759
2026-01-18 00:00:30.14	183.35	9.51	-28.8	-31.4	12.9	3.81e-05	0	44	0	2136997888	17	4828
