passes_logs/2026/01/17/R2M6_AANII_01/R2M6_AANII_01__20260117_112921_FENGYUN_3D_rec.log

#Pass ID: 20260117_112921_FENGYUN 3D
#Satellite: FENGYUN 3D
#Configuration: FENGYUN 3D
#almurnet v.1.7.20240730
#Start time: 2026-01-17 11:29:23

#Version: 2.2.20231116
#Station: R2M6_AANII_01
#Location: 30.233357 lon 59.946436 lat
#TLE: 1 43010U 17072A   26016.27214855  .00000192  00000+0  11235-3 0  9990
#TLE: 2 43010  98.9932 348.1078 0002365 105.5031 254.6406 14.19695933423435

#Time	Az	El	Level	Level2	SNR	BER	BlckErr	Temp	State	Recorded	gain1	gain2
2026-01-17 11:29:23.10	132.91	7.15	-29.8	-32.7	5.4	7.84e-01	0	41	0	0	20	5023
2026-01-17 11:29:24.10	132.87	7.22	-29.4	-31.4	5.5	7.83e-01	0	41	104	0	20	4574
2026-01-17 11:29:25.10	132.83	7.30	-29.5	-31.7	10.7	1.90e-03	0	41	0	0	20	4670
2026-01-17 11:29:26.10	132.78	7.37	-29.7	-32.4	10.2	4.84e-03	0	41	0	5242880	20	4890
2026-01-17 11:29:27.10	132.74	7.45	-29.7	-32.4	10.2	4.42e-03	0	41	0	11534336	20	4907
2026-01-17 11:29:28.11	132.70	7.52	-29.6	-32.2	10.4	4.66e-03	0	41	0	16777216	20	4819
2026-01-17 11:29:29.11	132.65	7.60	-29.3	-31.8	11.1	2.06e-03	0	41	0	22020096	19	4776
2026-01-17 11:29:30.11	132.61	7.68	-29.0	-30.9	11.6	5.76e-04	0	41	0	28311552	19	4481
2026-01-17 11:29:31.11	132.57	7.75	-28.6	-30.4	12.3	1.92e-04	0	41	0	33554432	18	4436
2026-01-17 11:29:32.11	132.52	7.83	-28.3	-29.7	12.7	5.83e-05	0	41	0	38797312	18	4255
2026-01-17 11:29:33.11	132.48	7.91	-28.1	-29.7	13.0	2.40e-05	0	41	0	45088768	17	4340
2026-01-17 11:29:34.11	132.43	7.99	-27.9	-29.8	13.3	8.00e-06	0	42	0	50331648	16	4472
2026-01-17 11:29:35.11	132.39	8.06	-27.9	-29.9	13.2	6.80e-06	0	42	0	55574528	16	4501
2026-01-17 11:29:36.11	132.34	8.14	-28.0	-30.0	13.2	2.51e-05	0	41	0	61865984	16	4534
2026-01-17 11:29:37.12	132.30	8.22	-28.0	-30.0	13.1	1.71e-05	0	42	0	67108864	16	4553
2026-01-17 11:29:38.12	132.25	8.30	-27.8	-29.7	13.3	1.60e-05	0	42	0	73400320	16	4444
2026-01-17 11:29:39.12	132.21	8.38	-27.8	-29.6	13.3	5.70e-06	0	42	0	78643200	16	4430
2026-01-17 11:29:40.13	132.16	8.46	-28.1	-30.2	13.0	2.51e-05	0	42	0	83886080	16	4605
2026-01-17 11:29:41.12	132.11	8.54	-28.0	-30.1	13.1	1.60e-05	0	42	0	90177536	16	4569
2026-01-17 11:29:42.13	132.07	8.62	-28.0	-30.1	13.1	1.02e-05	0	42	0	95420416	16	4578
2026-01-17 11:29:43.14	132.02	8.70	-28.3	-30.8	12.6	5.95e-05	0	42	0	100663296	16	4808
2026-01-17 11:29:44.15	131.97	8.78	-27.9	-29.9	13.2	1.83e-05	0	42	0	106954752	16	4507
2026-01-17 11:29:45.15	131.92	8.86	-27.8	-29.5	13.5	8.00e-06	0	42	0	112197632	16	4392
2026-01-17 11:29:46.15	131.88	8.94	-27.6	-29.0	13.8	6.80e-06	0	42	0	118489088	16	4253
2026-01-17 11:29:47.16	131.83	9.02	-27.3	-28.4	14.1	1.10e-06	0	42	0	123731968	16	4088
2026-01-17 11:29:48.15	131.78	9.10	-27.5	-28.8	14.0	0.00e+00	0	42	0	128974848	16	4179
2026-01-17 11:29:49.16	131.73	9.18	-27.7	-29.3	13.7	1.10e-06	0	42	0	135266304	16	4337
2026-01-17 11:29:50.16	131.68	9.26	-27.5	-28.9	13.9	1.10e-06	0	42	0	140509184	16	4215
2026-01-17 11:29:51.17	131.63	9.35	-27.9	-29.7	13.4	1.14e-05	0	42	0	146800640	16	4451
2026-01-17 11:29:52.17	131.58	9.43	-27.6	-29.2	13.7	6.80e-06	0	42	0	152043520	16	4289
2026-01-17 11:29:53.17	131.53	9.51	-27.6	-29.0	13.9	0.00e+00	0	42	0	157286400	16	4232
2026-01-17 11:29:54.17	131.48	9.59	-26.9	-28.0	14.6	2.20e-06	0	42	0	163577856	15	4080
2026-01-17 11:29:55.18	131.43	9.67	-27.4	-29.1	14.0	3.40e-06	0	42	0	168820736	15	4378
2026-01-17 11:29:56.18	131.38	9.76	-27.2	-28.6	14.2	2.20e-06	0	42	0	174063616	15	4249
2026-01-17 11:29:57.18	131.33	9.84	-27.4	-29.1	13.9	5.70e-06	0	42	0	180355072	15	4393
2026-01-17 11:29:58.18	131.28	9.92	-27.2	-28.7	14.2	0.00e+00	0	42	0	185597952	15	4276
2026-01-17 11:29:59.18	131.23	10.01	-27.4	-29.2	13.9	1.10e-06	0	42	0	190840832	15	4409
2026-01-17 11:30:00.19	131.17	10.09	-27.3	-29.0	14.1	2.20e-06	0	42	0	197132288	15	4347
2026-01-17 11:30:01.19	131.12	10.18	-27.3	-28.8	14.1	0.00e+00	0	42	0	202375168	15	4298
2026-01-17 11:30:02.19	131.07	10.26	-27.2	-28.7	14.2	0.00e+00	0	42	0	208666624	15	4272
2026-01-17 11:30:03.19	131.02	10.34	-27.2	-28.6	14.3	2.20e-06	0	42	0	213909504	15	4244
2026-01-17 11:30:04.19	130.96	10.43	-26.8	-27.8	14.7	0.00e+00	0	42	0	219152384	15	4038
2026-01-17 11:30:05.19	130.91	10.51	-27.1	-28.5	14.3	2.20e-06	0	42	0	225443840	15	4209
2026-01-17 11:30:06.19	130.86	10.60	-27.0	-28.2	14.5	0.00e+00	0	42	0	230686720	15	4126
2026-01-17 11:30:07.19	130.80	10.69	-27.1	-28.4	14.5	0.00e+00	0	42	0	235929600	15	4177
2026-01-17 11:30:08.18	130.75	10.77	-26.9	-27.9	14.7	0.00e+00	0	42	0	242221056	15	4044
2026-01-17 11:30:09.19	130.69	10.86	-26.9	-28.4	14.7	0.00e+00	0	42	0	247463936	14	4293
2026-01-17 11:30:10.19	130.64	10.94	-26.9	-28.5	14.7	0.00e+00	0	42	0	252706816	14	4311
2026-01-17 11:30:11.19	130.58	11.03	-27.0	-28.6	14.6	0.00e+00	0	42	0	258998272	14	4360
2026-01-17 11:30:12.20	130.53	11.12	-27.1	-29.0	14.5	0.00e+00	0	42	0	264241152	14	4444
2026-01-17 11:30:13.20	130.47	11.21	-27.0	-28.6	14.6	0.00e+00	0	42	0	270532608	14	4338
2026-01-17 11:30:14.20	130.41	11.29	-26.8	-28.2	14.9	0.00e+00	0	42	0	275775488	14	4235
2026-01-17 11:30:15.20	130.36	11.38	-27.0	-28.6	14.7	0.00e+00	0	42	0	281018368	14	4348
2026-01-17 11:30:16.21	130.30	11.47	-27.1	-28.8	14.5	0.00e+00	0	42	0	287309824	14	4400
2026-01-17 11:30:17.21	130.24	11.56	-26.8	-28.1	14.9	0.00e+00	0	43	0	292552704	14	4217
2026-01-17 11:30:18.22	130.18	11.65	-26.5	-27.6	15.2	0.00e+00	0	43	0	298844160	14	4080
2026-01-17 11:30:19.22	130.12	11.74	-26.7	-28.0	15.0	0.00e+00	0	42	0	304087040	14	4163
2026-01-17 11:30:20.22	130.06	11.83	-26.8	-28.2	14.9	0.00e+00	0	42	0	309329920	14	4223
2026-01-17 11:30:21.22	130.01	11.92	-26.8	-28.2	14.9	0.00e+00	0	43	0	315621376	14	4228
2026-01-17 11:30:22.22	129.95	12.01	-26.6	-27.7	15.2	0.00e+00	0	42	0	320864256	14	4097
2026-01-17 11:30:23.22	129.89	12.10	-26.7	-27.9	15.1	0.00e+00	0	42	0	326107136	14	4149
2026-01-17 11:30:24.22	129.83	12.19	-26.4	-27.4	15.4	0.00e+00	0	43	0	332398592	14	4019
2026-01-17 11:30:25.22	129.77	12.28	-26.7	-27.9	15.1	0.00e+00	0	43	0	337641472	14	4152
2026-01-17 11:30:26.23	129.70	12.37	-26.7	-27.9	15.1	0.00e+00	0	42	0	343932928	14	4157
2026-01-17 11:30:27.23	129.64	12.46	-26.5	-27.6	15.2	0.00e+00	0	43	0	349175808	14	4073
2026-01-17 11:30:28.23	129.58	12.55	-26.6	-27.7	15.2	0.00e+00	0	43	0	354418688	14	4105
2026-01-17 11:30:29.24	129.52	12.65	-26.5	-27.5	15.3	1.10e-06	0	42	0	360710144	14	4056
2026-01-17 11:30:30.24	129.45	12.74	-26.7	-27.9	15.1	0.00e+00	0	43	0	365953024	14	4159
2026-01-17 11:30:31.24	129.39	12.83	-26.5	-27.5	15.3	0.00e+00	0	43	0	371195904	14	4053
2026-01-17 11:30:32.24	129.33	12.93	-26.4	-27.4	15.4	0.00e+00	0	43	0	377487360	14	4023
2026-01-17 11:30:33.24	129.26	13.02	-26.5	-27.6	15.3	0.00e+00	0	43	0	382730240	14	4065
2026-01-17 11:30:34.24	129.20	13.11	-26.6	-27.7	15.3	0.00e+00	0	43	0	387973120	14	4092
2026-01-17 11:30:35.25	129.13	13.21	-26.3	-27.2	15.5	0.00e+00	0	43	0	394264576	14	3969
2026-01-17 11:30:36.25	129.07	13.30	-26.2	-27.3	15.7	1.10e-06	0	43	0	399507456	13	4094
2026-01-17 11:30:37.25	129.00	13.40	-26.2	-27.3	15.7	0.00e+00	0	43	0	405798912	13	4102
2026-01-17 11:30:38.24	128.94	13.49	-26.3	-27.6	15.6	0.00e+00	0	43	0	411041792	13	4169
2026-01-17 11:30:39.25	128.87	13.59	-26.2	-27.4	15.7	0.00e+00	0	43	0	416284672	13	4131
2026-01-17 11:30:40.24	128.80	13.68	-26.2	-27.3	15.7	0.00e+00	0	43	0	422576128	13	4112
2026-01-17 11:30:41.24	128.74	13.78	-26.3	-27.7	15.5	0.00e+00	0	43	0	427819008	13	4196
2026-01-17 11:30:42.24	128.67	13.87	-26.3	-27.5	15.6	0.00e+00	0	43	0	433061888	13	4163
2026-01-17 11:30:43.25	128.60	13.97	-26.2	-27.4	15.7	0.00e+00	0	43	0	439353344	13	4129
2026-01-17 11:30:44.25	128.53	14.07	-26.1	-27.2	15.8	0.00e+00	0	43	0	444596224	13	4073
2026-01-17 11:30:45.25	128.46	14.17	-26.4	-27.7	15.5	0.00e+00	0	43	0	449839104	13	4222
2026-01-17 11:30:46.25	128.39	14.26	-26.3	-27.6	15.6	0.00e+00	0	43	0	456130560	13	4171
2026-01-17 11:30:47.25	128.32	14.36	-26.0	-26.9	16.0	0.00e+00	0	43	0	461373440	13	4005
2026-01-17 11:30:48.25	128.25	14.46	-26.2	-27.9	15.7	0.00e+00	0	43	0	467664896	12	4375
2026-01-17 11:30:49.25	128.18	14.56	-26.1	-27.7	15.8	0.00e+00	0	43	0	472907776	12	4334
2026-01-17 11:30:50.25	128.11	14.66	-25.9	-27.2	16.1	0.00e+00	0	43	0	478150656	12	4197
2026-01-17 11:30:51.25	128.04	14.76	-25.8	-27.0	16.2	1.10e-06	0	43	0	484442112	12	4133
2026-01-17 11:30:52.24	127.96	14.86	-26.0	-27.4	16.0	0.00e+00	0	43	0	489684992	12	4249
2026-01-17 11:30:53.24	127.89	14.96	-25.8	-27.1	16.2	0.00e+00	0	43	0	494927872	12	4160
2026-01-17 11:30:54.24	127.82	15.06	-26.0	-27.4	16.0	0.00e+00	0	43	0	501219328	12	4237
2026-01-17 11:30:55.24	127.74	15.16	-25.8	-26.9	16.3	0.00e+00	0	43	0	506462208	12	4117
2026-01-17 11:30:56.24	127.67	15.26	-25.9	-27.3	16.1	0.00e+00	0	43	0	511705088	12	4226
2026-01-17 11:30:57.24	127.59	15.36	-26.0	-27.5	16.0	1.10e-06	0	43	0	517996544	12	4280
2026-01-17 11:30:58.24	127.52	15.46	-25.8	-27.1	16.2	0.00e+00	0	43	0	523239424	12	4160
2026-01-17 11:30:59.24	127.44	15.57	-25.9	-27.3	16.1	0.00e+00	0	43	0	529530880	12	4220
2026-01-17 11:31:00.24	127.36	15.67	-25.8	-27.0	16.2	0.00e+00	0	43	0	534773760	12	4142
2026-01-17 11:31:01.25	127.29	15.77	-25.8	-26.9	16.4	0.00e+00	0	43	0	540016640	12	4102
2026-01-17 11:31:02.25	127.21	15.88	-25.8	-26.9	16.4	0.00e+00	0	43	0	546308096	12	4117
2026-01-17 11:31:03.25	127.13	15.98	-25.9	-27.2	16.2	0.00e+00	0	43	0	551550976	12	4185
2026-01-17 11:31:04.25	127.05	16.09	-25.7	-26.7	16.5	0.00e+00	0	43	0	556793856	12	4052
2026-01-17 11:31:05.25	126.97	16.19	-25.4	-26.1	16.8	0.00e+00	0	43	0	563085312	12	3907
2026-01-17 11:31:06.26	126.89	16.30	-25.5	-26.2	16.8	0.00e+00	0	43	0	568328192	12	3930
2026-01-17 11:31:07.26	126.81	16.40	-25.3	-26.3	17.1	0.00e+00	0	43	0	574619648	11	4044
2026-01-17 11:31:08.26	126.73	16.51	-25.4	-26.6	16.9	0.00e+00	0	43	0	579862528	11	4126
2026-01-17 11:31:09.26	126.64	16.62	-25.3	-26.4	17.0	0.00e+00	0	43	0	585105408	11	4086
2026-01-17 11:31:10.26	126.56	16.72	-25.2	-26.2	17.1	0.00e+00	0	43	0	591396864	11	4038
2026-01-17 11:31:11.26	126.48	16.83	-25.2	-26.1	17.2	0.00e+00	0	43	0	596639744	11	4007
2026-01-17 11:31:12.26	126.40	16.94	-25.3	-26.4	17.0	0.00e+00	0	43	0	602931200	11	4074
2026-01-17 11:31:13.26	126.31	17.05	-25.2	-26.1	17.2	0.00e+00	0	43	0	608174080	11	4017
2026-01-17 11:31:14.26	126.23	17.15	-25.2	-26.1	17.2	0.00e+00	0	43	0	613416960	11	4017
2026-01-17 11:31:15.27	126.14	17.26	-25.3	-26.4	17.1	0.00e+00	0	43	0	619708416	11	4070
2026-01-17 11:31:16.28	126.05	17.37	-25.3	-26.4	17.0	0.00e+00	0	43	0	624951296	11	4075
2026-01-17 11:31:17.27	125.97	17.48	-25.3	-26.3	17.1	0.00e+00	0	43	0	630194176	11	4053
2026-01-17 11:31:18.27	125.88	17.59	-25.4	-26.6	16.9	0.00e+00	0	43	0	636485632	11	4147
2026-01-17 11:31:19.27	125.79	17.70	-25.4	-26.5	17.0	0.00e+00	0	43	0	641728512	11	4123
2026-01-17 11:31:20.28	125.70	17.82	-25.6	-27.0	16.7	0.00e+00	0	43	0	646971392	11	4235
2026-01-17 11:31:21.28	125.61	17.93	-25.5	-26.7	16.9	0.00e+00	0	43	0	653262848	11	4166
2026-01-17 11:31:22.28	125.52	18.04	-25.7	-27.2	16.7	0.00e+00	0	43	0	658505728	11	4282
2026-01-17 11:31:23.28	125.43	18.15	-25.5	-26.7	16.9	0.00e+00	0	43	0	664797184	11	4173
2026-01-17 11:31:24.28	125.34	18.26	-25.4	-26.6	17.0	0.00e+00	0	43	0	670040064	11	4124
2026-01-17 11:31:25.28	125.24	18.38	-25.4	-26.7	17.0	0.00e+00	0	43	0	675282944	11	4147
2026-01-17 11:31:26.28	125.15	18.49	-25.4	-26.7	17.0	0.00e+00	0	43	0	681574400	11	4153
2026-01-17 11:31:27.29	125.06	18.61	-25.2	-26.2	17.2	0.00e+00	0	43	0	686817280	11	4022
2026-01-17 11:31:28.29	124.96	18.72	-25.4	-26.5	17.1	0.00e+00	0	43	0	692060160	11	4112
2026-01-17 11:31:29.29	124.87	18.84	-25.5	-26.7	17.0	0.00e+00	0	43	0	698351616	11	4157
2026-01-17 11:31:30.28	124.77	18.95	-25.1	-25.9	17.4	0.00e+00	0	43	0	703594496	11	3946
2026-01-17 11:31:31.28	124.67	19.07	-25.1	-25.9	17.4	0.00e+00	0	43	0	709885952	11	3955
2026-01-17 11:31:32.28	124.58	19.18	-25.1	-25.8	17.5	0.00e+00	0	43	0	715128832	11	3926
2026-01-17 11:31:33.29	124.48	19.30	-24.9	-25.5	17.6	0.00e+00	0	43	0	720371712	11	3849
2026-01-17 11:31:34.29	124.38	19.42	-24.9	-25.5	17.6	0.00e+00	0	43	0	726663168	11	3852
2026-01-17 11:31:35.30	124.28	19.54	-24.8	-25.7	17.8	0.00e+00	0	43	0	731906048	10	3996
2026-01-17 11:31:36.30	124.18	19.65	-24.8	-25.8	17.8	0.00e+00	0	43	0	737148928	10	4033
2026-01-17 11:31:37.30	124.07	19.77	-24.9	-26.0	17.6	0.00e+00	0	43	0	743440384	10	4076
2026-01-17 11:31:38.30	123.97	19.89	-24.9	-26.0	17.6	0.00e+00	0	43	0	748683264	10	4087
2026-01-17 11:31:39.31	123.87	20.01	-25.0	-26.1	17.6	0.00e+00	0	43	0	754974720	10	4121
2026-01-17 11:31:40.31	123.76	20.13	-24.9	-26.0	17.7	0.00e+00	0	43	0	760217600	10	4071
2026-01-17 11:31:41.32	123.66	20.25	-24.9	-26.0	17.6	0.00e+00	0	43	0	765460480	10	4087
2026-01-17 11:31:42.32	123.55	20.37	-25.0	-26.1	17.6	0.00e+00	0	43	0	771751936	10	4117
2026-01-17 11:31:43.32	123.44	20.50	-25.0	-26.2	17.6	0.00e+00	0	43	0	776994816	10	4129
2026-01-17 11:31:44.32	123.34	20.62	-24.9	-26.0	17.7	0.00e+00	0	43	0	783286272	10	4084
2026-01-17 11:31:45.32	123.23	20.74	-24.9	-26.0	17.7	0.00e+00	0	43	0	788529152	10	4079
2026-01-17 11:31:46.32	123.12	20.86	-25.0	-26.1	17.6	0.00e+00	0	43	0	793772032	10	4106
2026-01-17 11:31:47.32	123.01	20.99	-24.7	-25.6	17.9	0.00e+00	0	43	0	800063488	10	3970
2026-01-17 11:31:48.32	122.90	21.11	-24.5	-25.2	18.1	0.00e+00	0	43	0	805306368	10	3895
2026-01-17 11:31:49.31	122.79	21.23	-24.5	-25.1	18.2	0.00e+00	0	43	0	810549248	10	3867
2026-01-17 11:31:50.32	122.67	21.36	-24.4	-25.0	18.2	0.00e+00	0	43	0	816840704	10	3836
2026-01-17 11:31:51.32	122.56	21.49	-24.6	-25.3	18.1	0.00e+00	0	43	0	822083584	10	3911
2026-01-17 11:31:52.32	122.45	21.61	-24.6	-25.3	18.1	0.00e+00	0	43	0	827326464	10	3905
2026-01-17 11:31:53.31	122.33	21.74	-24.6	-25.3	18.1	0.00e+00	0	43	0	833617920	10	3903
2026-01-17 11:31:54.31	122.21	21.86	-24.5	-25.0	18.2	0.00e+00	0	43	0	838860800	10	3848
2026-01-17 11:31:55.31	122.10	21.99	-24.6	-25.2	18.1	0.00e+00	0	43	0	845152256	10	3896
2026-01-17 11:31:56.31	121.98	22.12	-24.7	-25.6	17.9	0.00e+00	0	43	0	850395136	10	3982
2026-01-17 11:31:57.31	121.86	22.25	-24.5	-25.1	18.2	0.00e+00	0	43	0	855638016	10	3876
2026-01-17 11:31:58.31	121.74	22.38	-24.5	-25.2	18.2	0.00e+00	0	43	0	861929472	10	3880
2026-01-17 11:31:59.31	121.62	22.51	-24.5	-25.2	18.1	0.00e+00	0	43	0	867172352	10	3900
2026-01-17 11:32:00.32	121.49	22.64	-24.7	-25.5	18.0	0.00e+00	0	43	0	872415232	10	3966
2026-01-17 11:32:01.31	121.37	22.77	-24.6	-25.4	18.0	0.00e+00	0	43	0	878706688	10	3936
2026-01-17 11:32:02.32	121.24	22.90	-24.6	-25.4	18.1	0.00e+00	0	43	0	883949568	10	3942
2026-01-17 11:32:03.31	121.12	23.03	-24.5	-25.2	18.2	0.00e+00	0	43	0	889192448	10	3887
2026-01-17 11:32:04.31	120.99	23.16	-24.5	-25.1	18.2	0.00e+00	0	43	0	895483904	10	3863
2026-01-17 11:32:05.32	120.86	23.30	-24.4	-24.8	18.4	0.00e+00	0	43	0	900726784	10	3801
2026-01-17 11:32:06.31	120.73	23.43	-24.5	-25.2	18.2	0.00e+00	0	43	0	907018240	10	3885
2026-01-17 11:32:07.31	120.60	23.56	-24.6	-25.3	18.2	0.00e+00	0	43	0	912261120	10	3894
2026-01-17 11:32:08.30	120.47	23.69	-24.4	-24.9	18.3	0.00e+00	0	43	0	917504000	10	3813
2026-01-17 11:32:09.30	120.34	23.83	-24.4	-24.9	18.4	0.00e+00	0	43	0	922746880	10	3809
2026-01-17 11:32:10.30	120.21	23.96	-24.4	-25.0	18.4	0.00e+00	0	43	0	929038336	10	3829
2026-01-17 11:32:11.30	120.07	24.10	-24.6	-25.3	18.2	0.00e+00	0	43	0	934281216	10	3904
2026-01-17 11:32:12.31	119.93	24.24	-24.5	-25.0	18.3	0.00e+00	0	43	0	940572672	10	3837
2026-01-17 11:32:13.31	119.80	24.37	-24.6	-25.2	18.2	0.00e+00	0	43	0	945815552	10	3893
2026-01-17 11:32:14.32	119.66	24.51	-24.6	-25.3	18.1	0.00e+00	0	43	0	951058432	10	3912
2026-01-17 11:32:15.32	119.52	24.65	-24.7	-25.5	18.1	0.00e+00	0	43	0	957349888	10	3954
2026-01-17 11:32:16.32	119.38	24.79	-24.8	-25.7	18.0	0.00e+00	0	43	0	962592768	10	3995
2026-01-17 11:32:17.33	119.23	24.93	-24.5	-25.1	18.3	0.00e+00	0	43	0	968884224	10	3852
2026-01-17 11:32:18.33	119.09	25.07	-24.2	-25.1	18.5	0.00e+00	0	43	0	974127104	9	3960
2026-01-17 11:32:19.33	118.94	25.21	-24.0	-24.5	18.8	0.00e+00	0	43	0	979369984	9	3830
2026-01-17 11:32:20.34	118.80	25.35	-24.0	-24.5	18.8	0.00e+00	0	44	0	985661440	9	3832
2026-01-17 11:32:21.33	118.65	25.49	-23.8	-24.1	19.0	0.00e+00	0	43	0	990904320	9	3729
2026-01-17 11:32:22.34	118.50	25.63	-23.8	-24.6	19.0	0.00e+00	0	43	0	996147200	8	3947
2026-01-17 11:32:23.35	118.35	25.78	-23.9	-24.9	18.9	4.50e-06	0	43	0	1002438656	8	4020
2026-01-17 11:32:24.35	118.20	25.92	-24.1	-25.3	18.7	0.00e+00	0	43	0	1007681536	8	4137
2026-01-17 11:32:25.35	118.04	26.06	-23.7	-24.4	19.1	0.00e+00	0	43	0	1012924416	8	3915
2026-01-17 11:32:26.35	117.89	26.21	-23.8	-24.7	19.0	4.50e-06	0	43	0	1019215872	8	3980
2026-01-17 11:32:27.35	117.73	26.35	-23.7	-24.5	19.0	0.00e+00	0	43	0	1024458752	8	3940
2026-01-17 11:32:28.35	117.57	26.50	-23.8	-24.6	19.0	0.00e+00	0	43	0	1030750208	8	3961
2026-01-17 11:32:29.34	117.42	26.64	-23.9	-24.8	18.9	4.50e-06	0	43	0	1035993088	8	4017
2026-01-17 11:32:30.35	117.26	26.79	-23.9	-24.8	18.9	0.00e+00	0	43	0	1041235968	8	4016
2026-01-17 11:32:31.35	117.09	26.93	-23.8	-24.6	19.0	0.00e+00	0	43	0	1047527424	8	3962
2026-01-17 11:32:32.34	116.93	27.08	-23.8	-24.7	19.0	0.00e+00	0	43	0	1052770304	8	3973
2026-01-17 11:32:33.35	116.76	27.23	-23.8	-24.8	19.0	0.00e+00	0	43	0	1058013184	8	3994
2026-01-17 11:32:34.35	116.60	27.38	-23.8	-24.6	19.0	0.00e+00	0	43	0	1064304640	8	3950
2026-01-17 11:32:35.35	116.43	27.53	-23.6	-24.3	19.2	0.00e+00	0	43	0	1069547520	8	3891
2026-01-17 11:32:36.35	116.26	27.67	-23.9	-24.9	18.9	0.00e+00	0	43	0	1075838976	8	4025
2026-01-17 11:32:37.36	116.09	27.83	-24.0	-25.1	18.8	0.00e+00	0	43	0	1081081856	8	4079
2026-01-17 11:32:38.35	115.92	27.97	-23.8	-24.5	19.1	0.00e+00	0	43	0	1086324736	8	3944
2026-01-17 11:32:39.36	115.74	28.13	-23.6	-24.1	19.3	0.00e+00	0	43	0	1092616192	8	3851
2026-01-17 11:32:40.36	115.56	28.28	-23.8	-24.6	19.1	0.00e+00	0	43	0	1097859072	8	3965
2026-01-17 11:32:41.36	115.39	28.43	-23.8	-24.7	19.0	2.20e-06	0	43	0	1104150528	8	3986
2026-01-17 11:32:42.37	115.20	28.58	-23.9	-24.9	18.9	0.00e+00	0	43	0	1109393408	8	4022
2026-01-17 11:32:43.36	115.02	28.73	-23.9	-24.9	18.9	0.00e+00	0	43	0	1114636288	8	4024
2026-01-17 11:32:44.36	114.84	28.89	-24.0	-25.0	18.9	0.00e+00	0	43	0	1120927744	8	4046
2026-01-17 11:32:45.36	114.66	29.04	-24.0	-25.0	18.9	0.00e+00	0	43	0	1126170624	8	4049
2026-01-17 11:32:46.36	114.47	29.20	-24.0	-25.0	18.9	0.00e+00	0	43	0	1131413504	8	4060
2026-01-17 11:32:47.37	114.28	29.35	-23.9	-24.8	19.0	0.00e+00	0	43	0	1137704960	8	4015
2026-01-17 11:32:48.38	114.09	29.51	-23.7	-24.5	19.1	0.00e+00	0	44	0	1142947840	8	3943
2026-01-17 11:32:49.38	113.89	29.66	-23.6	-24.2	19.3	0.00e+00	0	43	0	1148190720	8	3861
2026-01-17 11:32:50.38	113.70	29.82	-23.7	-24.5	19.1	0.00e+00	0	44	0	1154482176	8	3931
2026-01-17 11:32:51.39	113.50	29.98	-23.9	-24.8	19.0	0.00e+00	0	43	0	1159725056	8	3999
2026-01-17 11:32:52.39	113.30	30.14	-23.7	-24.4	19.2	0.00e+00	0	43	0	1166016512	8	3912
2026-01-17 11:32:53.39	113.10	30.29	-23.7	-24.4	19.2	0.00e+00	0	43	0	1171259392	8	3901
2026-01-17 11:32:54.40	112.90	30.45	-23.7	-24.4	19.2	0.00e+00	0	43	0	1176502272	8	3913
2026-01-17 11:32:55.40	112.70	30.61	-23.6	-24.3	19.3	0.00e+00	0	44	0	1182793728	8	3884
2026-01-17 11:32:56.41	112.49	30.77	-23.4	-23.8	19.5	0.00e+00	0	43	0	1188036608	8	3759
2026-01-17 11:32:57.41	112.28	30.93	-23.4	-23.7	19.6	0.00e+00	0	43	0	1194328064	8	3740
2026-01-17 11:32:58.42	112.07	31.09	-23.5	-24.0	19.5	0.00e+00	0	43	0	1199570944	8	3818
2026-01-17 11:32:59.42	111.85	31.26	-23.5	-24.1	19.4	0.00e+00	0	43	0	1204813824	8	3836
2026-01-17 11:33:00.42	111.64	31.42	-23.5	-24.0	19.4	0.00e+00	0	43	0	1211105280	8	3816
2026-01-17 11:33:01.43	111.42	31.58	-23.6	-24.3	19.3	0.00e+00	0	43	0	1216348160	8	3877
2026-01-17 11:33:02.43	111.20	31.74	-23.8	-24.6	19.1	0.00e+00	0	44	0	1221591040	8	3946
2026-01-17 11:33:03.43	110.98	31.90	-23.8	-24.6	19.2	0.00e+00	0	44	0	1227882496	8	3949
2026-01-17 11:33:04.44	110.76	32.07	-23.5	-24.0	19.4	0.00e+00	0	43	0	1233125376	8	3815
2026-01-17 11:33:05.44	110.53	32.23	-23.5	-23.9	19.5	0.00e+00	0	43	0	1239416832	8	3799
2026-01-17 11:33:06.44	110.30	32.39	-23.6	-24.2	19.4	0.00e+00	0	43	0	1244659712	8	3849
2026-01-17 11:33:07.44	110.07	32.56	-23.5	-24.0	19.4	0.00e+00	0	43	0	1249902592	8	3817
2026-01-17 11:33:08.44	109.84	32.72	-23.4	-23.8	19.5	0.00e+00	0	43	0	1256194048	8	3779
2026-01-17 11:33:09.44	109.60	32.89	-23.5	-24.1	19.4	0.00e+00	0	43	0	1261436928	8	3835
2026-01-17 11:33:10.44	109.37	33.05	-23.6	-24.3	19.3	0.00e+00	0	43	0	1266679808	8	3875
2026-01-17 11:33:11.44	109.13	33.22	-23.6	-24.2	19.3	0.00e+00	0	44	0	1272971264	8	3868
2026-01-17 11:33:12.45	108.88	33.38	-23.6	-24.2	19.3	0.00e+00	0	43	0	1278214144	8	3860
2026-01-17 11:33:13.44	108.64	33.55	-23.5	-24.0	19.4	0.00e+00	0	43	0	1283457024	8	3822
2026-01-17 11:33:14.44	108.39	33.71	-23.5	-24.0	19.5	0.00e+00	0	43	0	1289748480	8	3812
2026-01-17 11:33:15.44	108.14	33.88	-23.6	-24.2	19.3	0.00e+00	0	43	0	1294991360	8	3862
2026-01-17 11:33:16.44	107.89	34.04	-23.6	-24.2	19.4	0.00e+00	0	43	0	1301282816	8	3851
2026-01-17 11:33:17.45	107.63	34.21	-23.5	-24.0	19.4	0.00e+00	0	43	0	1306525696	8	3824
2026-01-17 11:33:18.45	107.37	34.38	-23.5	-24.1	19.4	0.00e+00	0	44	0	1311768576	8	3834
2026-01-17 11:33:19.44	107.12	34.55	-23.3	-23.7	19.6	0.00e+00	0	43	0	1318060032	8	3745
2026-01-17 11:33:20.45	106.85	34.72	-23.3	-24.0	19.7	0.00e+00	0	43	0	1323302912	7	3918
2026-01-17 11:33:21.45	106.58	34.88	-23.2	-23.8	19.8	0.00e+00	0	43	0	1328545792	7	3875
2026-01-17 11:33:22.45	106.32	35.05	-23.1	-23.6	19.9	0.00e+00	0	43	0	1334837248	7	3818
2026-01-17 11:33:23.44	106.05	35.22	-23.1	-23.6	19.9	0.00e+00	0	43	0	1340080128	7	3821
2026-01-17 11:33:24.44	105.77	35.38	-23.1	-23.7	19.9	0.00e+00	0	43	0	1345323008	7	3838
2026-01-17 11:33:25.43	105.50	35.55	-23.2	-23.8	19.8	0.00e+00	0	43	0	1351614464	7	3872
2026-01-17 11:33:26.43	105.22	35.72	-23.5	-24.5	19.4	0.00e+00	0	43	0	1356857344	7	4041
2026-01-17 11:33:27.44	104.93	35.89	-23.5	-24.5	19.4	0.00e+00	0	43	0	1363148800	7	4039
2026-01-17 11:33:28.44	104.65	36.06	-23.4	-24.3	19.5	0.00e+00	0	43	0	1368391680	7	4003
2026-01-17 11:33:29.44	104.36	36.23	-23.3	-24.1	19.6	0.00e+00	0	44	0	1373634560	7	3947
2026-01-17 11:33:30.44	104.07	36.40	-23.3	-24.0	19.7	0.00e+00	0	43	0	1379926016	7	3919
2026-01-17 11:33:31.44	103.77	36.56	-23.5	-24.5	19.5	0.00e+00	0	43	0	1385168896	7	4036
2026-01-17 11:33:32.44	103.47	36.73	-23.3	-24.0	19.7	0.00e+00	0	43	0	1390411776	7	3921
2026-01-17 11:33:33.44	103.17	36.90	-23.4	-24.4	19.5	0.00e+00	0	44	0	1396703232	7	4006
2026-01-17 11:33:34.44	102.87	37.07	-23.4	-24.3	19.6	0.00e+00	0	44	0	1401946112	7	3985
2026-01-17 11:33:35.44	102.56	37.24	-23.4	-24.2	19.6	0.00e+00	0	43	0	1408237568	7	3971
2026-01-17 11:33:36.44	102.25	37.41	-23.4	-24.2	19.6	0.00e+00	0	44	0	1413480448	7	3975
2026-01-17 11:33:37.44	101.93	37.58	-23.4	-24.3	19.6	1.10e-06	0	43	0	1418723328	7	3998
2026-01-17 11:33:38.44	101.62	37.74	-23.5	-24.5	19.5	0.00e+00	0	43	0	1425014784	7	4049
2026-01-17 11:33:39.44	101.30	37.91	-23.4	-24.3	19.6	0.00e+00	0	43	0	1430257664	7	3980
2026-01-17 11:33:40.44	100.97	38.08	-23.4	-24.3	19.6	2.20e-06	0	44	0	1435500544	7	3988
2026-01-17 11:33:41.44	100.64	38.25	-23.5	-24.6	19.4	0.00e+00	0	43	0	1441792000	7	4062
2026-01-17 11:33:42.44	100.31	38.41	-23.7	-24.9	19.3	0.00e+00	0	43	0	1447034880	7	4151
2026-01-17 11:33:43.45	99.98	38.58	-23.7	-25.0	19.2	0.00e+00	0	43	0	1452277760	7	4165
2026-01-17 11:33:44.44	99.64	38.75	-23.4	-24.2	19.6	0.00e+00	0	43	0	1458569216	7	3967
2026-01-17 11:33:45.44	99.30	38.91	-23.4	-24.3	19.6	0.00e+00	0	43	0	1463812096	7	3976
2026-01-17 11:33:46.44	98.96	39.08	-23.4	-24.2	19.7	0.00e+00	0	43	0	1470103552	7	3965
2026-01-17 11:33:47.44	98.61	39.25	-23.4	-24.2	19.7	0.00e+00	0	44	0	1475346432	7	3967
2026-01-17 11:33:48.45	98.25	39.41	-23.3	-24.2	19.7	0.00e+00	0	44	0	1480589312	7	3957
2026-01-17 11:33:49.45	97.90	39.58	-23.5	-24.5	19.5	0.00e+00	0	43	0	1486880768	7	4036
2026-01-17 11:33:50.45	97.54	39.74	-23.7	-24.8	19.4	0.00e+00	0	43	0	1492123648	7	4116
2026-01-17 11:33:51.46	97.17	39.91	-23.7	-24.9	19.3	0.00e+00	0	43	0	1498415104	7	4143
2026-01-17 11:33:52.46	96.81	40.07	-23.7	-25.0	19.3	0.00e+00	0	43	0	1503657984	7	4156
2026-01-17 11:33:53.46	96.44	40.23	-23.5	-24.5	19.5	0.00e+00	0	43	0	1508900864	7	4045
2026-01-17 11:33:54.46	96.06	40.39	-23.4	-24.3	19.6	0.00e+00	0	43	0	1515192320	7	3979
2026-01-17 11:33:55.46	95.68	40.55	-23.4	-24.2	19.7	0.00e+00	0	43	0	1520435200	7	3969
2026-01-17 11:33:56.47	95.30	40.72	-23.4	-24.2	19.6	0.00e+00	0	43	0	1525678080	7	3969
2026-01-17 11:33:57.47	94.91	40.88	-23.2	-23.8	19.9	0.00e+00	0	43	0	1531969536	7	3873
2026-01-17 11:33:58.47	94.52	41.03	-23.0	-23.4	20.1	0.00e+00	0	44	0	1537212416	7	3770
2026-01-17 11:33:59.48	94.13	41.19	-23.0	-23.5	20.0	0.00e+00	0	43	0	1543503872	7	3802
2026-01-17 11:34:00.48	93.73	41.35	-23.1	-23.7	20.0	0.00e+00	0	43	0	1548746752	7	3838
2026-01-17 11:34:01.47	93.33	41.51	-23.1	-23.7	19.9	0.00e+00	0	43	0	1553989632	7	3847
2026-01-17 11:34:02.47	92.93	41.66	-23.3	-24.1	19.7	0.00e+00	0	43	0	1560281088	7	3941
2026-01-17 11:34:03.47	92.52	41.82	-23.5	-24.5	19.6	0.00e+00	0	43	0	1565523968	7	4032
2026-01-17 11:34:04.48	92.10	41.97	-23.5	-24.5	19.6	0.00e+00	0	43	0	1570766848	7	4026
2026-01-17 11:34:05.47	91.69	42.12	-23.5	-24.4	19.6	0.00e+00	0	44	0	1577058304	7	4009
2026-01-17 11:34:06.48	91.27	42.27	-23.5	-24.4	19.6	0.00e+00	0	43	0	1582301184	7	4019
2026-01-17 11:34:07.48	90.84	42.42	-23.5	-24.4	19.6	0.00e+00	0	43	0	1587544064	7	4022
2026-01-17 11:34:08.48	90.42	42.57	-23.4	-24.4	19.6	0.00e+00	0	44	0	1593835520	7	4002
2026-01-17 11:34:09.47	89.99	42.72	-23.4	-24.3	19.6	0.00e+00	0	44	0	1599078400	7	4001
2026-01-17 11:34:10.48	89.55	42.87	-23.3	-24.1	19.8	0.00e+00	0	43	0	1605369856	7	3939
2026-01-17 11:34:11.48	89.11	43.01	-23.1	-23.7	20.0	0.00e+00	0	43	0	1610612736	7	3837
2026-01-17 11:34:12.47	88.67	43.15	-23.0	-23.5	20.1	0.00e+00	0	43	0	1615855616	7	3791
2026-01-17 11:34:13.47	88.22	43.30	-23.1	-23.6	20.0	0.00e+00	0	43	0	1622147072	7	3825
2026-01-17 11:34:14.47	87.77	43.44	-23.2	-24.0	19.8	0.00e+00	0	43	0	1627389952	7	3909
2026-01-17 11:34:15.47	87.31	43.58	-23.2	-23.7	19.9	0.00e+00	0	43	0	1632632832	7	3856
2026-01-17 11:34:16.48	86.85	43.72	-22.9	-23.3	20.1	0.00e+00	0	43	0	1638924288	7	3760
2026-01-17 11:34:17.48	86.38	43.85	-23.0	-23.5	20.0	0.00e+00	0	43	0	1644167168	7	3803
2026-01-17 11:34:18.47	85.92	43.99	-23.2	-23.9	19.9	0.00e+00	0	43	0	1649410048	7	3885
2026-01-17 11:34:19.47	85.45	44.12	-23.4	-24.3	19.6	0.00e+00	0	43	0	1655701504	7	3986
2026-01-17 11:34:20.47	84.97	44.25	-23.5	-24.4	19.6	0.00e+00	0	44	0	1660944384	7	4020
2026-01-17 11:34:21.47	84.49	44.38	-23.4	-24.4	19.6	0.00e+00	0	43	0	1667235840	7	4008
2026-01-17 11:34:22.47	84.01	44.51	-23.4	-24.4	19.6	0.00e+00	0	43	0	1672478720	7	4003
2026-01-17 11:34:23.48	83.52	44.63	-23.5	-24.4	19.6	0.00e+00	0	43	0	1677721600	7	4010
2026-01-17 11:34:24.48	83.02	44.76	-23.5	-24.5	19.5	0.00e+00	0	43	0	1684013056	7	4047
2026-01-17 11:34:25.49	82.52	44.88	-23.4	-24.3	19.7	0.00e+00	0	43	0	1689255936	7	3988
2026-01-17 11:34:26.50	82.02	45.00	-23.5	-24.4	19.6	0.00e+00	0	44	0	1694498816	7	4013
2026-01-17 11:34:27.51	81.51	45.12	-23.4	-24.2	19.7	0.00e+00	0	43	0	1700790272	7	3969
2026-01-17 11:34:28.50	81.01	45.23	-23.8	-25.0	19.3	0.00e+00	0	43	0	1706033152	7	4166
2026-01-17 11:34:29.50	80.50	45.34	-23.8	-25.0	19.3	0.00e+00	0	43	0	1711276032	7	4166
2026-01-17 11:34:30.51	79.98	45.46	-23.5	-24.4	19.6	0.00e+00	0	44	0	1717567488	7	4019
2026-01-17 11:34:31.51	79.46	45.56	-23.4	-24.4	19.7	0.00e+00	0	43	0	1722810368	7	4000
2026-01-17 11:34:32.51	78.94	45.67	-23.4	-24.4	19.7	0.00e+00	0	43	0	1729101824	7	3998
2026-01-17 11:34:33.51	78.42	45.77	-23.3	-24.1	19.8	0.00e+00	0	43	0	1734344704	7	3942
2026-01-17 11:34:34.51	77.89	45.88	-23.2	-23.8	19.9	0.00e+00	0	44	0	1740636160	7	3874
2026-01-17 11:34:35.51	77.36	45.98	-23.3	-24.1	19.8	0.00e+00	0	43	0	1745879040	7	3929
2026-01-17 11:34:36.51	76.83	46.07	-23.3	-24.0	19.8	0.00e+00	0	44	0	1751121920	7	3920
2026-01-17 11:34:37.52	76.28	46.17	-23.2	-23.9	19.9	0.00e+00	0	43	0	1757413376	7	3884
2026-01-17 11:34:38.52	75.74	46.26	-23.4	-24.3	19.7	0.00e+00	0	43	0	1762656256	7	3993
2026-01-17 11:34:39.52	75.20	46.35	-23.5	-24.5	19.6	0.00e+00	0	43	0	1767899136	7	4047
2026-01-17 11:34:40.52	74.65	46.43	-23.4	-24.3	19.7	0.00e+00	0	44	0	1774190592	7	3974
2026-01-17 11:34:41.53	74.09	46.52	-23.5	-24.5	19.6	0.00e+00	0	43	0	1779433472	7	4037
2026-01-17 11:34:42.53	73.54	46.60	-23.6	-24.7	19.5	0.00e+00	0	43	0	1784676352	7	4087
2026-01-17 11:34:43.53	72.99	46.67	-23.7	-24.9	19.3	0.00e+00	0	43	0	1790967808	7	4134
2026-01-17 11:34:44.54	72.42	46.75	-23.5	-24.6	19.5	0.00e+00	0	44	0	1796210688	7	4050
2026-01-17 11:34:45.54	71.86	46.82	-23.4	-24.3	19.7	0.00e+00	0	43	0	1802502144	7	3971
2026-01-17 11:34:46.55	71.29	46.89	-23.6	-24.7	19.5	0.00e+00	0	43	0	1807745024	7	4086
2026-01-17 11:34:47.55	70.73	46.96	-23.5	-24.4	19.6	0.00e+00	0	44	0	1812987904	7	4019
2026-01-17 11:34:48.56	70.15	47.02	-23.2	-23.7	20.0	0.00e+00	0	43	0	1819279360	7	3853
2026-01-17 11:34:49.56	69.58	47.08	-23.2	-23.8	20.0	0.00e+00	0	44	0	1824522240	7	3857
2026-01-17 11:34:50.57	69.00	47.14	-23.3	-24.1	19.8	0.00e+00	0	43	0	1830813696	7	3934
2026-01-17 11:34:51.57	68.43	47.19	-23.5	-24.4	19.7	0.00e+00	0	43	0	1836056576	7	4022
2026-01-17 11:34:52.57	67.85	47.24	-23.6	-24.6	19.6	0.00e+00	0	43	0	1841299456	7	4057
2026-01-17 11:34:53.57	67.27	47.29	-23.6	-24.6	19.5	0.00e+00	0	43	0	1847590912	7	4067
2026-01-17 11:34:54.57	66.69	47.33	-23.9	-25.3	19.4	2.20e-06	0	43	0	1852833792	7	4210
2026-01-17 11:34:55.57	66.11	47.38	-23.8	-24.6	19.5	0.00e+00	0	43	0	1858076672	8	3931
2026-01-17 11:34:56.57	65.53	47.41	-23.5	-23.8	19.9	0.00e+00	0	43	0	1864368128	8	3747
2026-01-17 11:34:57.58	64.94	47.45	-23.3	-23.5	20.1	2.20e-06	0	43	0	1869611008	8	3685
2026-01-17 11:34:58.58	64.35	47.48	-23.4	-23.6	20.0	0.00e+00	0	43	0	1875902464	8	3714
2026-01-17 11:34:59.58	63.76	47.51	-23.2	-23.8	20.1	0.00e+00	0	43	0	1881145344	7	3858
2026-01-17 11:35:00.58	63.17	47.53	-23.2	-23.7	20.2	0.00e+00	0	43	0	1886388224	7	3830
2026-01-17 11:35:01.59	62.58	47.56	-23.1	-23.6	20.2	0.00e+00	0	44	0	1892679680	7	3809
2026-01-17 11:35:02.59	61.99	47.57	-23.0	-23.4	20.3	0.00e+00	0	43	0	1897922560	7	3767
2026-01-17 11:35:03.59	61.40	47.59	-23.2	-23.8	20.1	0.00e+00	0	44	0	1903165440	7	3855
2026-01-17 11:35:04.59	60.81	47.60	-23.3	-23.9	20.1	0.00e+00	0	44	0	1909456896	7	3881
2026-01-17 11:35:05.59	60.22	47.61	-23.2	-23.8	20.1	0.00e+00	0	44	0	1914699776	7	3855
2026-01-17 11:35:06.58	59.63	47.61	-23.2	-23.8	20.1	0.00e+00	0	43	0	1919942656	7	3850
2026-01-17 11:35:07.58	59.04	47.62	-23.4	-24.2	19.9	0.00e+00	0	44	0	1926234112	7	3948
2026-01-17 11:35:08.58	58.45	47.61	-23.5	-24.5	19.8	0.00e+00	0	43	0	1931476992	7	4016
2026-01-17 11:35:09.58	57.86	47.61	-23.6	-24.7	19.7	0.00e+00	0	43	0	1937768448	7	4062
2026-01-17 11:35:10.58	57.27	47.60	-23.6	-24.5	19.7	0.00e+00	0	43	0	1943011328	7	4027
2026-01-17 11:35:11.59	56.67	47.59	-23.4	-24.2	19.9	0.00e+00	0	43	0	1948254208	7	3942
2026-01-17 11:35:12.59	56.08	47.57	-23.5	-24.3	19.9	0.00e+00	0	43	0	1954545664	7	3976
2026-01-17 11:35:13.60	55.48	47.56	-23.4	-24.2	19.9	0.00e+00	0	43	0	1959788544	7	3950
2026-01-17 11:35:14.60	54.90	47.54	-23.4	-24.3	19.8	0.00e+00	0	44	0	1965031424	7	3975
2026-01-17 11:35:15.60	54.31	47.51	-23.2	-23.8	20.1	0.00e+00	0	44	0	1971322880	7	3851
2026-01-17 11:35:16.60	53.72	47.48	-23.0	-23.3	20.4	0.00e+00	0	44	0	1976565760	7	3740
2026-01-17 11:35:17.61	53.13	47.45	-23.3	-23.9	20.0	0.00e+00	0	43	0	1982857216	7	3886
2026-01-17 11:35:18.62	52.54	47.42	-23.4	-24.3	19.9	0.00e+00	0	43	0	1988100096	7	3969
2026-01-17 11:35:19.61	51.96	47.38	-23.5	-24.5	19.8	0.00e+00	0	44	0	1993342976	7	4009
2026-01-17 11:35:20.61	51.38	47.34	-24.0	-25.4	19.3	0.00e+00	0	43	0	1999634432	7	4246
2026-01-17 11:35:21.61	50.80	47.29	-24.0	-24.9	19.3	0.00e+00	0	43	0	2004877312	8	4006
2026-01-17 11:35:22.61	50.22	47.25	-23.7	-24.2	19.6	0.00e+00	0	43	0	2011168768	8	3851
2026-01-17 11:35:23.61	49.65	47.20	-23.3	-23.4	20.1	0.00e+00	0	44	0	2016411648	8	3659
2026-01-17 11:35:24.61	49.07	47.14	-23.3	-23.9	20.0	0.00e+00	0	43	0	2021654528	7	3883
2026-01-17 11:35:25.61	48.50	47.09	-23.4	-24.2	19.9	0.00e+00	0	43	0	2027945984	7	3951
2026-01-17 11:35:26.60	47.93	47.03	-23.4	-24.2	19.9	0.00e+00	0	43	0	2033188864	7	3953
2026-01-17 11:35:27.61	47.36	46.96	-23.3	-24.1	20.0	0.00e+00	0	44	0	2038431744	7	3921
2026-01-17 11:35:28.61	46.79	46.90	-23.4	-24.1	19.9	0.00e+00	0	43	0	2044723200	7	3934
2026-01-17 11:35:29.62	46.23	46.83	-23.4	-24.3	19.8	0.00e+00	0	44	0	2049966080	7	3970
2026-01-17 11:35:30.61	45.67	46.76	-23.6	-24.6	19.7	0.00e+00	0	43	0	2055208960	7	4042
2026-01-17 11:35:31.61	45.11	46.68	-23.5	-24.3	19.8	0.00e+00	0	44	0	2061500416	7	3979
2026-01-17 11:35:32.62	44.55	46.61	-23.5	-24.4	19.8	0.00e+00	0	43	0	2066743296	7	3991
2026-01-17 11:35:33.63	43.99	46.52	-23.4	-24.1	19.9	0.00e+00	0	43	0	2073034752	7	3934
2026-01-17 11:35:34.63	43.44	46.44	-23.5	-24.5	19.8	0.00e+00	0	43	0	2078277632	7	4012
2026-01-17 11:35:35.63	42.90	46.36	-23.4	-24.2	19.9	0.00e+00	0	44	0	2083520512	7	3942
2026-01-17 11:35:36.63	42.35	46.27	-23.1	-23.6	20.2	0.00e+00	0	44	0	2089811968	7	3807
2026-01-17 11:35:37.63	41.81	46.18	-23.2	-23.7	20.1	0.00e+00	0	43	0	2095054848	7	3829
2026-01-17 11:35:38.63	41.27	46.08	-23.3	-24.1	19.9	0.00e+00	0	43	0	2100297728	7	3923
2026-01-17 11:35:39.63	40.74	45.99	-23.5	-24.4	19.8	0.00e+00	0	43	0	2106589184	7	4004
2026-01-17 11:35:40.63	40.21	45.89	-23.4	-24.2	19.9	0.00e+00	0	43	0	2111832064	7	3939
2026-01-17 11:35:41.64	39.68	45.79	-23.4	-24.1	19.9	0.00e+00	0	44	0	2118123520	7	3937
2026-01-17 11:35:42.64	39.15	45.68	-23.5	-24.4	19.7	1.10e-06	0	44	0	2123366400	7	4012
2026-01-17 11:35:43.64	38.63	45.58	-23.4	-24.2	19.9	0.00e+00	0	43	0	2128609280	7	3948
2026-01-17 11:35:44.64	38.12	45.47	-23.2	-23.9	20.0	0.00e+00	0	43	0	2134900736	7	3875
2026-01-17 11:35:45.64	37.60	45.36	-23.2	-23.8	20.1	0.00e+00	0	43	0	2140143616	7	3852
2026-01-17 11:35:46.65	37.09	45.25	-23.0	-23.4	20.3	0.00e+00	0	44	0	2146435072	7	3771
2026-01-17 11:35:47.64	36.59	45.13	-23.0	-23.3	20.3	0.00e+00	0	43	0	2151677952	7	3741
2026-01-17 11:35:48.64	36.08	45.02	-22.9	-23.1	20.4	0.00e+00	0	43	0	2156920832	7	3700
2026-01-17 11:35:49.65	35.58	44.90	-22.9	-23.1	20.4	0.00e+00	0	43	0	2163212288	7	3704
2026-01-17 11:35:50.65	35.09	44.77	-22.9	-23.1	20.4	0.00e+00	0	44	0	2168455168	7	3706
2026-01-17 11:35:51.65	34.59	44.65	-23.0	-23.4	20.3	0.00e+00	0	43	0	2173698048	7	3758
2026-01-17 11:35:52.66	34.10	44.53	-23.0	-23.5	20.3	0.00e+00	0	43	0	2179989504	7	3777
2026-01-17 11:35:53.66	33.62	44.40	-23.0	-23.5	20.2	0.00e+00	0	43	0	2185232384	7	3781
2026-01-17 11:35:54.66	33.14	44.27	-23.2	-23.8	20.1	0.00e+00	0	44	0	2191523840	7	3860
2026-01-17 11:35:55.67	32.66	44.14	-23.1	-23.7	20.1	0.00e+00	0	44	0	2196766720	7	3833
2026-01-17 11:35:56.67	32.19	44.01	-23.1	-23.5	20.2	0.00e+00	0	43	0	2202009600	7	3790
2026-01-17 11:35:57.67	31.72	43.87	-23.0	-23.5	20.2	0.00e+00	0	43	0	2208301056	7	3783
2026-01-17 11:35:58.68	31.25	43.74	-23.0	-23.4	20.3	0.00e+00	0	43	0	2213543936	7	3768
2026-01-17 11:35:59.68	30.79	43.60	-23.1	-23.7	20.1	0.00e+00	0	43	0	2218786816	7	3821
2026-01-17 11:36:00.69	30.33	43.46	-23.2	-23.9	20.1	0.00e+00	0	44	0	2225078272	7	3869
2026-01-17 11:36:01.69	29.88	43.32	-23.2	-23.9	20.0	0.00e+00	0	44	0	2230321152	7	3881
2026-01-17 11:36:02.69	29.43	43.18	-23.1	-23.5	20.2	0.00e+00	0	44	0	2235564032	7	3780
2026-01-17 11:36:03.69	28.99	43.03	-23.0	-23.4	20.3	0.00e+00	0	43	0	2241855488	7	3771
2026-01-17 11:36:04.70	28.55	42.89	-23.3	-24.0	20.0	0.00e+00	0	43	0	2247098368	7	3902
2026-01-17 11:36:05.70	28.11	42.74	-23.3	-24.0	19.9	0.00e+00	0	44	0	2253389824	7	3913
2026-01-17 11:36:06.71	27.68	42.59	-23.5	-24.4	19.8	0.00e+00	0	43	0	2258632704	7	3987
2026-01-17 11:36:07.70	27.25	42.45	-23.1	-23.7	20.1	0.00e+00	0	44	0	2264924160	7	3825
2026-01-17 11:36:08.71	26.82	42.29	-22.8	-22.9	20.5	0.00e+00	0	44	0	2270167040	7	3649
2026-01-17 11:36:09.72	26.40	42.14	-22.6	-23.0	20.7	0.00e+00	0	43	0	2275409920	6	3773
2026-01-17 11:36:10.72	25.98	41.99	-22.6	-23.1	20.6	0.00e+00	0	43	0	2281701376	6	3800
2026-01-17 11:36:11.72	25.57	41.84	-22.6	-23.1	20.6	0.00e+00	0	43	0	2286944256	6	3810
2026-01-17 11:36:12.72	25.17	41.68	-22.6	-23.1	20.6	0.00e+00	0	43	0	2292187136	6	3797
2026-01-17 11:36:13.72	24.76	41.53	-22.9	-23.7	20.3	0.00e+00	0	43	0	2298478592	6	3946
2026-01-17 11:36:14.72	24.36	41.37	-23.0	-23.8	20.3	0.00e+00	0	43	0	2303721472	6	3965
2026-01-17 11:36:15.73	23.96	41.21	-23.2	-24.3	20.1	0.00e+00	0	44	0	2308964352	6	4074
2026-01-17 11:36:16.73	23.57	41.06	-23.3	-24.5	19.9	0.00e+00	0	44	0	2315255808	6	4135
2026-01-17 11:36:17.73	23.18	40.90	-23.4	-24.8	19.8	0.00e+00	0	44	0	2320498688	6	4210
2026-01-17 11:36:18.74	22.79	40.74	-23.3	-24.5	19.9	0.00e+00	0	43	0	2326790144	6	4148
2026-01-17 11:36:19.74	22.41	40.58	-23.1	-24.1	20.1	0.00e+00	0	43	0	2332033024	6	4024
2026-01-17 11:36:20.75	22.03	40.42	-23.2	-24.3	20.1	0.00e+00	0	44	0	2338324480	6	4075
2026-01-17 11:36:21.75	21.66	40.25	-23.1	-24.1	20.1	0.00e+00	0	44	0	2343567360	6	4033
2026-01-17 11:36:22.75	21.29	40.09	-23.1	-24.0	20.1	0.00e+00	0	43	0	2348810240	6	4023
2026-01-17 11:36:23.75	20.92	39.93	-23.3	-24.4	20.0	0.00e+00	0	44	0	2355101696	6	4113
2026-01-17 11:36:24.75	20.56	39.77	-23.2	-24.3	20.0	0.00e+00	0	44	0	2360344576	6	4085
2026-01-17 11:36:25.75	20.20	39.60	-23.2	-24.3	20.0	0.00e+00	0	44	0	2365587456	6	4093
2026-01-17 11:36:26.76	19.85	39.44	-23.2	-24.2	20.1	0.00e+00	0	43	0	2371878912	6	4056
2026-01-17 11:36:27.76	19.49	39.27	-23.2	-24.4	20.0	0.00e+00	0	43	0	2377121792	6	4108
2026-01-17 11:36:28.76	19.15	39.11	-23.2	-24.2	20.1	0.00e+00	0	43	0	2382364672	6	4058
2026-01-17 11:36:29.77	18.80	38.94	-23.2	-24.3	20.0	0.00e+00	0	44	0	2388656128	6	4077
2026-01-17 11:36:30.77	18.46	38.78	-23.2	-24.3	20.0	0.00e+00	0	44	0	2393899008	6	4083
2026-01-17 11:36:31.78	18.12	38.61	-23.1	-24.2	20.1	0.00e+00	0	44	0	2400190464	6	4056
2026-01-17 11:36:32.79	17.78	38.44	-23.2	-24.2	20.1	0.00e+00	0	43	0	2405433344	6	4063
2026-01-17 11:36:33.79	17.45	38.27	-22.9	-23.7	20.3	0.00e+00	0	43	0	2410676224	6	3934
2026-01-17 11:36:34.79	17.13	38.11	-22.8	-23.5	20.4	0.00e+00	0	43	0	2416967680	6	3883
2026-01-17 11:36:35.79	16.80	37.94	-22.8	-23.4	20.5	0.00e+00	0	44	0	2422210560	6	3864
2026-01-17 11:36:36.80	16.48	37.77	-23.0	-23.9	20.2	0.00e+00	0	43	0	2428502016	6	3996
2026-01-17 11:36:37.80	16.16	37.60	-23.0	-23.8	20.2	0.00e+00	0	44	0	2433744896	6	3972
2026-01-17 11:36:38.80	15.85	37.44	-23.0	-23.8	20.2	0.00e+00	0	44	0	2438987776	6	3972
2026-01-17 11:36:39.80	15.54	37.27	-22.8	-23.6	20.3	0.00e+00	0	44	0	2445279232	6	3914
2026-01-17 11:36:40.80	15.23	37.10	-22.8	-23.4	20.4	0.00e+00	0	43	0	2450522112	6	3881
2026-01-17 11:36:41.81	14.93	36.93	-22.9	-23.7	20.3	0.00e+00	0	43	0	2455764992	6	3952
2026-01-17 11:36:42.82	14.62	36.76	-22.9	-23.6	20.3	0.00e+00	0	43	0	2462056448	6	3904
2026-01-17 11:36:43.82	14.33	36.59	-22.8	-23.4	20.4	0.00e+00	0	44	0	2467299328	6	3881
2026-01-17 11:36:44.82	14.03	36.42	-22.9	-23.7	20.3	0.00e+00	0	43	0	2473590784	6	3942
2026-01-17 11:36:45.82	13.74	36.26	-22.9	-23.7	20.3	0.00e+00	0	44	0	2478833664	6	3936
2026-01-17 11:36:46.83	13.45	36.09	-23.0	-24.0	20.1	0.00e+00	0	43	0	2484076544	6	4012
2026-01-17 11:36:47.83	13.16	35.92	-22.8	-23.6	20.3	0.00e+00	0	44	0	2490368000	6	3915
2026-01-17 11:36:48.83	12.88	35.75	-22.8	-23.4	20.4	0.00e+00	0	44	0	2495610880	6	3878
2026-01-17 11:36:49.83	12.60	35.58	-22.8	-23.4	20.4	0.00e+00	0	44	0	2500853760	6	3865
2026-01-17 11:36:50.83	12.33	35.42	-22.8	-23.4	20.4	0.00e+00	0	44	0	2507145216	6	3867
2026-01-17 11:36:51.83	12.05	35.25	-22.8	-23.6	20.3	0.00e+00	0	44	0	2512388096	6	3906
2026-01-17 11:36:52.84	11.78	35.08	-22.9	-23.7	20.3	0.00e+00	0	44	0	2517630976	6	3938
2026-01-17 11:36:53.84	11.51	34.91	-22.8	-23.5	20.4	0.00e+00	0	43	0	2523922432	6	3894
2026-01-17 11:36:54.84	11.25	34.75	-22.9	-23.7	20.2	0.00e+00	0	44	0	2529165312	6	3950
2026-01-17 11:36:55.85	10.98	34.58	-22.8	-23.5	20.4	0.00e+00	0	43	0	2535456768	6	3886
2026-01-17 11:36:56.85	10.72	34.41	-22.9	-23.7	20.3	0.00e+00	0	43	0	2540699648	6	3933
2026-01-17 11:36:57.86	10.46	34.24	-22.9	-23.7	20.3	0.00e+00	0	43	0	2546991104	6	3938
2026-01-17 11:36:58.86	10.21	34.08	-23.1	-24.2	20.0	0.00e+00	0	43	0	2552233984	6	4049
2026-01-17 11:36:59.86	9.96	33.91	-23.0	-23.8	20.2	0.00e+00	0	44	0	2557476864	6	3971
2026-01-17 11:37:00.87	9.71	33.74	-22.9	-23.7	20.2	0.00e+00	0	44	0	2563768320	6	3941
2026-01-17 11:37:01.87	9.46	33.58	-23.1	-24.0	20.1	0.00e+00	0	44	0	2569011200	6	4024
2026-01-17 11:37:02.88	9.21	33.41	-23.1	-24.1	20.0	0.00e+00	0	44	0	2574254080	6	4053
2026-01-17 11:37:03.88	8.97	33.25	-23.3	-24.6	19.8	0.00e+00	0	43	0	2580545536	6	4164
2026-01-17 11:37:04.88	8.73	33.08	-23.3	-24.6	19.8	0.00e+00	0	43	0	2585788416	6	4154
2026-01-17 11:37:05.88	8.50	32.92	-23.3	-24.5	19.8	0.00e+00	0	43	0	2591031296	6	4139
2026-01-17 11:37:06.89	8.26	32.75	-23.3	-24.6	19.8	0.00e+00	0	43	0	2597322752	6	4158
2026-01-17 11:37:07.89	8.03	32.59	-23.2	-24.3	19.9	0.00e+00	0	43	0	2602565632	6	4078
2026-01-17 11:37:08.90	7.80	32.42	-23.3	-24.4	19.8	0.00e+00	0	44	0	2608857088	6	4117
2026-01-17 11:37:09.90	7.57	32.26	-23.4	-24.8	19.7	0.00e+00	0	44	0	2614099968	6	4210
2026-01-17 11:37:10.91	7.34	32.10	-23.5	-24.4	19.6	0.00e+00	0	43	0	2620391424	7	3990
2026-01-17 11:37:11.91	7.12	31.94	-23.7	-24.8	19.4	0.00e+00	0	43	0	2625634304	7	4111
2026-01-17 11:37:12.92	6.90	31.77	-23.5	-24.4	19.6	0.00e+00	0	43	0	2630877184	7	4004
2026-01-17 11:37:13.92	6.68	31.61	-23.4	-24.3	19.7	0.00e+00	0	44	0	2637168640	7	3969
2026-01-17 11:37:14.92	6.46	31.45	-23.4	-24.2	19.7	0.00e+00	0	44	0	2642411520	7	3944
2026-01-17 11:37:15.92	6.25	31.29	-23.5	-24.4	19.6	0.00e+00	0	43	0	2647654400	7	3992
2026-01-17 11:37:16.92	6.04	31.13	-23.5	-24.4	19.6	0.00e+00	0	43	0	2653945856	7	3993
2026-01-17 11:37:17.92	5.83	30.97	-23.5	-24.4	19.6	0.00e+00	0	43	0	2659188736	7	4002
2026-01-17 11:37:18.92	5.62	30.81	-23.4	-24.1	19.7	0.00e+00	0	43	0	2664431616	7	3932
2026-01-17 11:37:19.93	5.41	30.65	-23.4	-24.1	19.7	0.00e+00	0	43	0	2670723072	7	3930
2026-01-17 11:37:20.93	5.21	30.49	-23.5	-24.4	19.6	0.00e+00	0	43	0	2675965952	7	3995
2026-01-17 11:37:21.93	5.01	30.34	-23.3	-24.0	19.8	0.00e+00	0	43	0	2682257408	7	3907
2026-01-17 11:37:22.94	4.81	30.18	-23.3	-24.0	19.8	0.00e+00	0	43	0	2687500288	7	3895
2026-01-17 11:37:23.94	4.61	30.02	-23.3	-24.0	19.7	0.00e+00	0	43	0	2692743168	7	3916
2026-01-17 11:37:24.94	4.42	29.87	-23.4	-24.2	19.6	0.00e+00	0	43	0	2699034624	7	3966
2026-01-17 11:37:25.94	4.22	29.71	-23.4	-24.3	19.6	0.00e+00	0	43	0	2704277504	7	3979
2026-01-17 11:37:26.95	4.03	29.55	-23.5	-24.4	19.6	0.00e+00	0	43	0	2710568960	7	3995
2026-01-17 11:37:27.95	3.84	29.40	-23.3	-24.0	19.8	0.00e+00	0	43	0	2715811840	7	3904
2026-01-17 11:37:28.95	3.65	29.24	-23.3	-23.9	19.8	0.00e+00	0	43	0	2721054720	7	3886
2026-01-17 11:37:29.96	3.47	29.09	-23.4	-24.3	19.6	0.00e+00	0	43	0	2727346176	7	3965
2026-01-17 11:37:30.96	3.28	28.94	-23.3	-24.1	19.7	0.00e+00	0	43	0	2732589056	7	3929
2026-01-17 11:37:31.97	3.10	28.78	-23.5	-24.4	19.6	0.00e+00	0	43	0	2737831936	7	3997
2026-01-17 11:37:32.97	2.92	28.63	-23.5	-24.4	19.6	0.00e+00	0	43	0	2744123392	7	3990
2026-01-17 11:37:33.97	2.74	28.48	-23.5	-24.5	19.5	0.00e+00	0	43	0	2749366272	7	4030
2026-01-17 11:37:34.97	2.56	28.33	-23.6	-24.6	19.4	0.00e+00	0	44	0	2755657728	7	4055
2026-01-17 11:37:35.98	2.38	28.17	-23.7	-24.8	19.3	0.00e+00	0	43	0	2760900608	7	4104
2026-01-17 11:37:36.98	2.21	28.02	-23.7	-24.9	19.3	0.00e+00	0	43	0	2766143488	7	4125
2026-01-17 11:37:37.98	2.04	27.87	-23.8	-25.0	19.2	0.00e+00	0	44	0	2772434944	7	4140
2026-01-17 11:37:38.98	1.87	27.73	-23.9	-25.3	19.1	0.00e+00	0	43	0	2777677824	7	4214
2026-01-17 11:37:39.98	1.70	27.58	-23.7	-24.9	19.3	0.00e+00	0	43	0	2782920704	7	4127
2026-01-17 11:37:40.98	1.53	27.43	-23.6	-24.7	19.4	0.00e+00	0	43	0	2789212160	7	4080
2026-01-17 11:37:41.99	1.36	27.28	-23.7	-24.8	19.3	0.00e+00	0	43	0	2794455040	7	4101
2026-01-17 11:37:42.99	1.20	27.13	-23.9	-25.2	19.1	0.00e+00	0	43	0	2799697920	7	4209
2026-01-17 11:37:44.00	1.04	26.98	-23.7	-24.8	19.3	0.00e+00	0	43	0	2805989376	7	4092
2026-01-17 11:37:45.01	0.87	26.84	-23.8	-25.1	19.1	0.00e+00	0	43	0	2811232256	7	4183
2026-01-17 11:37:46.01	0.71	26.69	-23.7	-24.8	19.3	0.00e+00	0	43	0	2817523712	7	4088
2026-01-17 11:37:47.01	0.55	26.55	-23.6	-24.6	19.4	0.00e+00	0	43	0	2822766592	7	4044
2026-01-17 11:37:48.02	0.40	26.40	-23.6	-24.6	19.4	0.00e+00	0	44	0	2829058048	7	4050
2026-01-17 11:37:49.02	0.24	26.26	-23.5	-24.4	19.5	0.00e+00	0	43	0	2834300928	7	4013
2026-01-17 11:37:50.02	0.09	26.11	-23.5	-24.4	19.5	0.00e+00	0	43	0	2839543808	7	4010
2026-01-17 11:37:51.02	359.94	25.97	-23.7	-24.9	19.2	0.00e+00	0	43	0	2845835264	7	4122
2026-01-17 11:37:52.02	359.78	25.83	-23.5	-24.5	19.4	0.00e+00	0	43	0	2851078144	7	4025
2026-01-17 11:37:53.02	359.64	25.69	-23.5	-24.4	19.5	0.00e+00	0	43	0	2856321024	7	3988
2026-01-17 11:37:54.02	359.49	25.55	-23.5	-24.5	19.4	0.00e+00	0	44	0	2862612480	7	4031
2026-01-17 11:37:55.02	359.34	25.41	-23.5	-24.5	19.4	0.00e+00	0	43	0	2867855360	7	4011
2026-01-17 11:37:56.02	359.19	25.27	-23.7	-24.9	19.2	0.00e+00	0	43	0	2873098240	7	4118
2026-01-17 11:37:57.02	359.05	25.13	-23.6	-24.7	19.3	0.00e+00	0	43	0	2879389696	7	4073
2026-01-17 11:37:58.02	358.91	24.99	-23.7	-24.8	19.3	0.00e+00	0	43	0	2884632576	7	4105
2026-01-17 11:37:59.03	358.76	24.85	-23.7	-24.8	19.2	0.00e+00	0	44	0	2890924032	7	4112
2026-01-17 11:38:00.03	358.62	24.71	-23.5	-24.5	19.4	0.00e+00	0	44	0	2896166912	7	4031
2026-01-17 11:38:01.03	358.49	24.57	-23.6	-24.7	19.3	0.00e+00	0	44	0	2901409792	7	4083
2026-01-17 11:38:02.03	358.35	24.44	-23.4	-24.3	19.5	0.00e+00	0	43	0	2907701248	7	3980
2026-01-17 11:38:03.03	358.21	24.30	-23.6	-24.7	19.3	0.00e+00	0	43	0	2912944128	7	4069
2026-01-17 11:38:04.03	358.08	24.16	-23.5	-24.5	19.4	0.00e+00	0	44	0	2918187008	7	4037
2026-01-17 11:38:05.03	357.94	24.03	-23.7	-24.9	19.2	0.00e+00	0	44	0	2924478464	7	4120
2026-01-17 11:38:06.04	357.81	23.89	-23.7	-25.0	19.2	0.00e+00	0	44	0	2929721344	7	4137
2026-01-17 11:38:07.04	357.67	23.76	-23.8	-25.0	19.2	0.00e+00	0	43	0	2936012800	7	4142
2026-01-17 11:38:08.04	357.54	23.62	-23.9	-25.2	19.1	0.00e+00	0	43	0	2941255680	7	4197
2026-01-17 11:38:09.04	357.41	23.49	-23.9	-25.3	19.0	0.00e+00	0	43	0	2946498560	7	4221
2026-01-17 11:38:10.05	357.28	23.36	-24.2	-25.3	18.7	0.00e+00	0	43	0	2952790016	8	4122
2026-01-17 11:38:11.05	357.16	23.23	-24.0	-25.0	18.9	0.00e+00	0	43	0	2958032896	8	4030
2026-01-17 11:38:12.05	357.03	23.09	-24.0	-24.9	18.9	0.00e+00	0	44	0	2964324352	8	4022
2026-01-17 11:38:13.05	356.91	22.96	-23.9	-24.8	19.0	0.00e+00	0	43	0	2969567232	8	3985
2026-01-17 11:38:14.05	356.78	22.83	-24.1	-25.2	18.8	0.00e+00	0	43	0	2974810112	8	4085
2026-01-17 11:38:15.05	356.66	22.70	-23.9	-24.8	19.0	0.00e+00	0	43	0	2981101568	8	3996
2026-01-17 11:38:16.06	356.54	22.57	-23.9	-24.8	19.0	0.00e+00	0	43	0	2986344448	8	3989
2026-01-17 11:38:17.06	356.42	22.44	-23.9	-24.8	19.0	0.00e+00	0	43	0	2991587328	8	3983
2026-01-17 11:38:18.06	356.30	22.31	-23.9	-24.8	18.9	0.00e+00	0	43	0	2997878784	8	3995
2026-01-17 11:38:19.06	356.18	22.19	-23.8	-24.6	19.0	0.00e+00	0	43	0	3003121664	8	3952
2026-01-17 11:38:20.07	356.06	22.06	-23.8	-24.6	19.1	0.00e+00	0	43	0	3008364544	8	3942
2026-01-17 11:38:21.07	355.94	21.93	-24.1	-25.2	18.7	0.00e+00	0	43	0	3014656000	8	4093
2026-01-17 11:38:22.07	355.82	21.80	-24.0	-25.0	18.9	0.00e+00	0	44	0	3019898880	8	4030
2026-01-17 11:38:23.07	355.71	21.68	-23.8	-24.6	19.0	0.00e+00	0	43	0	3026190336	8	3951
2026-01-17 11:38:24.08	355.59	21.55	-23.9	-24.9	18.9	0.00e+00	0	43	0	3031433216	8	4004
2026-01-17 11:38:25.08	355.48	21.43	-24.0	-24.9	18.9	0.00e+00	0	43	0	3036676096	8	4024
2026-01-17 11:38:26.09	355.37	21.30	-24.1	-25.1	18.8	0.00e+00	0	44	0	3042967552	8	4066
2026-01-17 11:38:27.08	355.26	21.18	-24.3	-25.7	18.4	0.00e+00	0	43	0	3048210432	8	4201
2026-01-17 11:38:28.08	355.15	21.05	-24.1	-25.3	18.7	0.00e+00	0	43	0	3053453312	8	4111
2026-01-17 11:38:29.08	355.04	20.93	-24.1	-25.3	18.7	0.00e+00	0	43	0	3059744768	8	4105
2026-01-17 11:38:30.09	354.93	20.81	-24.3	-25.6	18.5	0.00e+00	0	43	0	3064987648	8	4189
2026-01-17 11:38:31.09	354.82	20.69	-24.4	-25.8	18.5	0.00e+00	0	43	0	3070230528	8	4227
2026-01-17 11:38:32.09	354.72	20.56	-24.6	-25.7	18.2	0.00e+00	0	43	0	3076521984	9	4090
2026-01-17 11:38:33.09	354.61	20.44	-24.6	-25.7	18.2	0.00e+00	0	44	0	3081764864	9	4097
2026-01-17 11:38:34.10	354.50	20.32	-24.7	-25.9	18.1	0.00e+00	0	43	0	3088056320	9	4162
2026-01-17 11:38:35.10	354.40	20.20	-24.6	-25.9	18.1	0.00e+00	0	44	0	3093299200	9	4149
2026-01-17 11:38:36.11	354.30	20.08	-24.8	-26.2	17.9	0.00e+00	0	43	0	3099590656	9	4241
2026-01-17 11:38:37.11	354.19	19.96	-24.8	-26.2	17.9	0.00e+00	0	44	0	3104833536	9	4225
2026-01-17 11:38:38.11	354.09	19.84	-24.9	-26.4	17.8	0.00e+00	0	43	0	3110076416	9	4290
2026-01-17 11:38:39.12	353.99	19.72	-24.7	-26.1	18.0	0.00e+00	0	43	0	3116367872	9	4208
2026-01-17 11:38:40.12	353.89	19.61	-24.6	-25.8	18.1	0.00e+00	0	43	0	3121610752	9	4122
2026-01-17 11:38:41.12	353.79	19.49	-24.7	-26.0	18.0	0.00e+00	0	43	0	3126853632	9	4191
2026-01-17 11:38:42.12	353.69	19.37	-24.7	-25.9	18.0	0.00e+00	0	43	0	3133145088	9	4161
2026-01-17 11:38:43.12	353.59	19.26	-24.7	-26.0	18.0	0.00e+00	0	44	0	3138387968	9	4167
2026-01-17 11:38:44.12	353.50	19.14	-24.8	-26.2	17.9	0.00e+00	0	43	0	3143630848	9	4233
2026-01-17 11:38:45.13	353.40	19.02	-24.7	-25.9	18.0	0.00e+00	0	43	0	3149922304	9	4160
2026-01-17 11:38:46.14	353.30	18.91	-24.9	-26.3	17.8	0.00e+00	0	44	0	3155165184	9	4262
2026-01-17 11:38:47.14	353.21	18.79	-25.3	-26.7	17.3	0.00e+00	0	43	0	3161456640	10	4252
2026-01-17 11:38:48.15	353.11	18.68	-25.1	-26.4	17.6	0.00e+00	0	43	0	3166699520	10	4160
2026-01-17 11:38:49.15	353.02	18.56	-25.1	-26.3	17.6	0.00e+00	0	43	0	3172990976	10	4129
2026-01-17 11:38:50.15	352.93	18.45	-25.3	-26.8	17.3	0.00e+00	0	43	0	3178233856	10	4269
2026-01-17 11:38:51.15	352.84	18.34	-25.2	-26.6	17.4	0.00e+00	0	44	0	3183476736	10	4226
2026-01-17 11:38:52.14	352.75	18.23	-25.2	-26.6	17.4	0.00e+00	0	43	0	3189768192	10	4222
2026-01-17 11:38:53.15	352.66	18.11	-25.3	-26.8	17.3	0.00e+00	0	43	0	3195011072	10	4271
2026-01-17 11:38:54.15	352.57	18.00	-25.5	-26.8	17.0	0.00e+00	0	43	0	3200253952	11	4145
2026-01-17 11:38:55.16	352.48	17.89	-25.8	-27.4	16.7	0.00e+00	0	44	0	3206545408	11	4303
2026-01-17 11:38:56.16	352.39	17.78	-25.4	-26.5	17.2	0.00e+00	0	43	0	3211788288	11	4081
2026-01-17 11:38:57.16	352.30	17.67	-25.3	-26.2	17.4	0.00e+00	0	43	0	3218079744	11	3994
2026-01-17 11:38:58.17	352.21	17.56	-25.1	-25.9	17.5	0.00e+00	0	43	0	3223322624	11	3918
2026-01-17 11:38:59.17	352.13	17.45	-25.1	-25.8	17.5	0.00e+00	0	43	0	3228565504	11	3909
2026-01-17 11:39:00.18	352.04	17.34	-25.2	-25.9	17.5	0.00e+00	0	43	0	3234856960	11	3941
2026-01-17 11:39:01.18	351.96	17.23	-25.2	-25.9	17.5	0.00e+00	0	43	0	3240099840	11	3939
2026-01-17 11:39:02.18	351.87	17.12	-25.3	-26.4	17.2	0.00e+00	0	43	0	3245342720	11	4043
2026-01-17 11:39:03.18	351.79	17.02	-25.3	-26.2	17.4	0.00e+00	0	43	0	3251634176	11	3994
2026-01-17 11:39:04.18	351.70	16.91	-25.5	-26.6	17.1	0.00e+00	0	43	0	3256877056	11	4103
2026-01-17 11:39:05.18	351.62	16.80	-25.4	-26.4	17.2	0.00e+00	0	43	0	3262119936	11	4066
2026-01-17 11:39:06.18	351.54	16.70	-25.3	-26.4	17.2	0.00e+00	0	43	0	3268411392	11	4049
2026-01-17 11:39:07.19	351.46	16.59	-25.4	-26.6	17.1	0.00e+00	0	43	0	3273654272	11	4112
2026-01-17 11:39:08.18	351.38	16.48	-25.6	-26.9	16.9	0.00e+00	0	43	0	3279945728	11	4180
2026-01-17 11:39:09.17	351.30	16.38	-25.6	-26.9	16.9	0.00e+00	0	43	0	3285188608	11	4181
2026-01-17 11:39:10.18	351.22	16.27	-25.6	-26.9	16.9	0.00e+00	0	43	0	3290431488	11	4201
2026-01-17 11:39:11.18	351.14	16.17	-25.8	-27.5	16.6	0.00e+00	0	43	0	3296722944	11	4337
2026-01-17 11:39:12.19	351.06	16.06	-25.7	-27.2	16.8	0.00e+00	0	44	0	3301965824	11	4263
2026-01-17 11:39:13.19	350.98	15.96	-25.6	-27.0	16.9	0.00e+00	0	43	0	3307208704	11	4217
2026-01-17 11:39:14.20	350.91	15.86	-25.7	-27.1	16.8	0.00e+00	0	43	0	3313500160	11	4254
2026-01-17 11:39:15.19	350.83	15.75	-25.7	-27.1	16.8	0.00e+00	0	43	0	3318743040	11	4233
2026-01-17 11:39:16.20	350.75	15.65	-25.8	-27.3	16.7	0.00e+00	0	43	0	3325034496	11	4294
2026-01-17 11:39:17.19	350.68	15.55	-25.6	-26.9	16.9	0.00e+00	0	43	0	3330277376	11	4192
2026-01-17 11:39:18.19	350.60	15.45	-25.6	-26.9	16.9	0.00e+00	0	43	0	3335520256	11	4181
2026-01-17 11:39:19.19	350.53	15.35	-25.6	-26.9	16.9	0.00e+00	0	43	0	3341811712	11	4196
2026-01-17 11:39:20.19	350.45	15.25	-25.7	-27.1	16.8	0.00e+00	0	43	0	3347054592	11	4228
2026-01-17 11:39:21.19	350.38	15.14	-25.5	-26.8	17.0	0.00e+00	0	43	0	3352297472	11	4154
2026-01-17 11:39:22.19	350.31	15.04	-25.7	-27.1	16.8	0.00e+00	0	43	0	3358588928	11	4230
2026-01-17 11:39:23.20	350.24	14.94	-25.8	-27.4	16.6	0.00e+00	0	43	0	3363831808	11	4315
2026-01-17 11:39:24.20	350.16	14.84	-25.7	-27.0	16.8	0.00e+00	0	44	0	3370123264	11	4221
2026-01-17 11:39:25.21	350.09	14.74	-25.8	-27.3	16.7	0.00e+00	0	44	0	3375366144	11	4290
2026-01-17 11:39:26.22	350.02	14.64	-25.6	-27.0	16.8	0.00e+00	0	44	0	3380609024	11	4205
2026-01-17 11:39:27.23	349.95	14.54	-25.7	-27.1	16.8	0.00e+00	0	44	0	3386900480	11	4224
2026-01-17 11:39:28.23	349.88	14.45	-25.7	-27.2	16.7	0.00e+00	0	43	0	3392143360	11	4260
2026-01-17 11:39:29.24	349.81	14.35	-25.8	-27.3	16.7	0.00e+00	0	43	0	3397386240	11	4287
2026-01-17 11:39:30.24	349.74	14.25	-25.9	-27.5	16.5	0.00e+00	0	43	0	3403677696	11	4357
2026-01-17 11:39:31.25	349.67	14.15	-25.9	-27.5	16.5	0.00e+00	0	43	0	3408920576	11	4353
2026-01-17 11:39:32.25	349.60	14.06	-25.8	-27.3	16.6	0.00e+00	0	44	0	3415212032	11	4294
2026-01-17 11:39:33.24	349.54	13.96	-25.9	-27.7	16.4	1.10e-06	0	43	0	3420454912	11	4396
2026-01-17 11:39:34.25	349.47	13.86	-26.0	-27.3	16.2	0.00e+00	0	43	0	3426746368	12	4196
2026-01-17 11:39:35.25	349.40	13.77	-25.9	-27.2	16.3	0.00e+00	0	44	0	3431989248	12	4144
2026-01-17 11:39:36.25	349.34	13.67	-26.0	-27.3	16.3	2.20e-06	0	44	0	3437232128	12	4175
2026-01-17 11:39:37.25	349.27	13.58	-26.0	-27.4	16.2	0.00e+00	0	43	0	3443523584	12	4200
2026-01-17 11:39:38.26	349.20	13.48	-26.0	-27.4	16.2	0.00e+00	0	44	0	3448766464	12	4198
2026-01-17 11:39:39.26	349.14	13.39	-26.0	-27.3	16.3	0.00e+00	0	43	0	3454009344	12	4179
2026-01-17 11:39:40.26	349.08	13.29	-26.1	-27.5	16.2	0.00e+00	0	43	0	3460300800	12	4228
2026-01-17 11:39:41.27	349.01	13.20	-26.1	-27.5	16.1	0.00e+00	0	44	0	3465543680	12	4253
2026-01-17 11:39:42.27	348.95	13.10	-26.3	-27.9	15.9	0.00e+00	0	44	0	3470786560	12	4334
2026-01-17 11:39:43.27	348.88	13.01	-26.1	-27.5	16.1	0.00e+00	0	44	0	3477078016	12	4240
2026-01-17 11:39:44.28	348.82	12.92	-26.1	-27.5	16.1	0.00e+00	0	44	0	3482320896	12	4229
2026-01-17 11:39:45.28	348.76	12.83	-26.1	-27.6	16.1	0.00e+00	0	43	0	3488612352	12	4260
2026-01-17 11:39:46.28	348.70	12.73	-26.1	-27.6	16.1	0.00e+00	0	44	0	3493855232	12	4268
2026-01-17 11:39:47.28	348.64	12.64	-26.2	-27.7	16.0	0.00e+00	0	44	0	3499098112	12	4301
2026-01-17 11:39:48.28	348.57	12.55	-26.3	-28.0	15.8	0.00e+00	0	43	0	3505389568	12	4375
2026-01-17 11:39:49.28	348.51	12.46	-26.3	-28.0	15.8	0.00e+00	0	43	0	3510632448	12	4366
2026-01-17 11:39:50.28	348.45	12.37	-26.3	-28.0	15.8	0.00e+00	0	44	0	3515875328	12	4387
2026-01-17 11:39:51.29	348.39	12.28	-26.5	-27.9	15.6	0.00e+00	0	44	0	3522166784	13	4243
2026-01-17 11:39:52.29	348.33	12.19	-26.4	-27.7	15.7	0.00e+00	0	44	0	3527409664	13	4186
2026-01-17 11:39:53.30	348.27	12.10	-26.3	-27.5	15.8	0.00e+00	0	43	0	3533701120	13	4118
2026-01-17 11:39:54.29	348.22	12.01	-26.3	-27.6	15.7	0.00e+00	0	43	0	3538944000	13	4145
2026-01-17 11:39:55.30	348.16	11.92	-26.3	-27.5	15.8	0.00e+00	0	43	0	3544186880	13	4127
2026-01-17 11:39:56.29	348.10	11.83	-26.5	-27.9	15.5	0.00e+00	0	44	0	3550478336	13	4239
2026-01-17 11:39:57.29	348.04	11.74	-26.6	-28.3	15.3	0.00e+00	0	43	0	3555721216	13	4337
2026-01-17 11:39:58.29	347.99	11.65	-26.3	-27.4	15.8	3.40e-06	0	43	0	3562012672	13	4108
2026-01-17 11:39:59.30	347.93	11.56	-26.3	-27.5	15.7	0.00e+00	0	43	0	3567255552	13	4134
2026-01-17 11:40:00.31	347.87	11.47	-26.1	-27.0	16.0	0.00e+00	0	44	0	3572498432	13	4007
2026-01-17 11:40:01.31	347.82	11.39	-26.3	-27.5	15.8	0.00e+00	0	43	0	3578789888	13	4122
2026-01-17 11:40:02.31	347.76	11.30	-26.2	-27.3	15.9	0.00e+00	0	43	0	3584032768	13	4069
2026-01-17 11:40:03.31	347.70	11.21	-26.3	-27.5	15.7	1.10e-06	0	43	0	3589275648	13	4141
2026-01-17 11:40:04.32	347.65	11.12	-26.3	-27.6	15.7	0.00e+00	0	43	0	3595567104	13	4146
2026-01-17 11:40:05.31	347.59	11.04	-26.4	-27.7	15.6	0.00e+00	0	43	0	3600809984	13	4190
2026-01-17 11:40:06.32	347.54	10.95	-26.6	-28.2	15.3	0.00e+00	0	43	0	3606052864	13	4325
2026-01-17 11:40:07.32	347.49	10.86	-26.5	-27.9	15.5	0.00e+00	0	44	0	3612344320	13	4248
2026-01-17 11:40:08.32	347.43	10.78	-26.7	-28.4	15.2	0.00e+00	0	43	0	3617587200	13	4389
2026-01-17 11:40:09.32	347.38	10.69	-26.6	-28.2	15.3	0.00e+00	0	44	0	3623878656	13	4332
2026-01-17 11:40:10.33	347.33	10.61	-26.7	-28.4	15.2	0.00e+00	0	43	0	3629121536	13	4373
2026-01-17 11:40:11.33	347.27	10.52	-26.8	-28.6	15.0	1.10e-06	0	44	0	3634364416	13	4441
2026-01-17 11:40:12.34	347.22	10.44	-26.8	-28.6	15.1	0.00e+00	0	43	0	3640655872	13	4442
2026-01-17 11:40:13.34	347.17	10.35	-26.8	-28.6	15.0	0.00e+00	0	44	0	3645898752	13	4451
2026-01-17 11:40:14.34	347.12	10.27	-27.0	-28.6	14.8	0.00e+00	0	43	0	3651141632	14	4315
2026-01-17 11:40:15.34	347.07	10.18	-26.9	-28.4	14.8	0.00e+00	0	44	0	3657433088	14	4279
2026-01-17 11:40:16.35	347.01	10.10	-26.9	-28.4	14.9	0.00e+00	0	43	0	3662675968	14	4265
2026-01-17 11:40:17.35	346.96	10.02	-27.1	-28.8	14.6	0.00e+00	0	43	0	3668967424	14	4387
2026-01-17 11:40:18.35	346.91	9.93	-27.0	-28.5	14.8	0.00e+00	0	43	0	3674210304	14	4298
2026-01-17 11:40:19.34	346.86	9.85	-27.0	-28.5	14.8	0.00e+00	0	43	0	3679453184	14	4292
2026-01-17 11:40:20.35	346.81	9.77	-27.0	-28.6	14.7	1.10e-06	0	43	0	3685744640	14	4334
2026-01-17 11:40:21.35	346.76	9.69	-26.9	-28.5	14.8	0.00e+00	0	44	0	3690987520	14	4287
2026-01-17 11:40:22.34	346.71	9.61	-26.8	-28.2	15.0	0.00e+00	0	44	0	3697278976	14	4218
2026-01-17 11:40:23.34	346.67	9.52	-26.8	-28.2	15.0	0.00e+00	0	44	0	3702521856	14	4208
2026-01-17 11:40:24.35	346.62	9.44	-26.8	-28.1	15.0	0.00e+00	0	43	0	3707764736	14	4201
2026-01-17 11:40:25.35	346.57	9.36	-26.8	-28.1	15.0	0.00e+00	0	44	0	3714056192	14	4181
2026-01-17 11:40:26.36	346.52	9.28	-26.8	-28.1	15.0	0.00e+00	0	44	0	3719299072	14	4195
2026-01-17 11:40:27.36	346.47	9.20	-26.8	-28.2	14.9	0.00e+00	0	43	0	3724541952	14	4204
2026-01-17 11:40:28.37	346.42	9.12	-26.9	-28.3	14.9	1.10e-06	0	44	0	3730833408	14	4250
2026-01-17 11:40:29.36	346.38	9.04	-26.9	-28.5	14.8	0.00e+00	0	44	0	3736076288	14	4292
2026-01-17 11:40:30.37	346.33	8.96	-26.9	-28.4	14.8	0.00e+00	0	43	0	3741319168	14	4269
2026-01-17 11:40:31.38	346.28	8.87	-27.0	-28.6	14.7	0.00e+00	0	43	0	3747610624	14	4325
2026-01-17 11:40:32.37	346.24	8.80	-26.9	-28.4	14.7	0.00e+00	0	43	0	3752853504	14	4286
2026-01-17 11:40:33.37	346.19	8.72	-26.9	-28.5	14.7	2.20e-06	0	44	0	3759144960	14	4297
2026-01-17 11:40:34.38	346.15	8.64	-27.2	-29.0	14.4	0.00e+00	0	43	0	3764387840	14	4445
2026-01-17 11:40:35.38	346.10	8.56	-27.0	-28.7	14.6	0.00e+00	0	44	0	3769630720	14	4356
2026-01-17 11:40:36.38	346.06	8.48	-27.0	-28.6	14.7	1.10e-06	0	43	0	3775922176	14	4326
2026-01-17 11:40:37.37	346.01	8.40	-27.1	-28.9	14.5	0.00e+00	0	44	0	3781165056	14	4413
2026-01-17 11:40:38.37	345.97	8.32	-27.1	-28.8	14.5	1.10e-06	0	44	0	3786407936	14	4403
2026-01-17 11:40:39.37	345.92	8.25	-27.1	-28.8	14.5	0.00e+00	0	44	0	3792699392	14	4402
2026-01-17 11:40:40.37	345.88	8.17	-27.2	-29.0	14.4	0.00e+00	0	43	0	3797942272	14	4437
2026-01-17 11:40:41.37	345.83	8.09	-27.6	-29.4	13.8	6.80e-06	0	43	0	3803185152	15	4456
2026-01-17 11:40:42.38	345.79	8.01	-27.4	-29.1	14.0	2.20e-06	0	44	0	3809476608	15	4360
2026-01-17 11:40:43.38	345.75	7.93	-27.1	-28.3	14.5	1.10e-06	0	44	0	3814719488	15	4136
2026-01-17 11:40:44.39	345.70	7.86	-27.5	-29.3	13.9	3.40e-06	0	44	0	3821010944	15	4429
2026-01-17 11:40:45.39	345.66	7.78	-27.8	-29.5	13.6	1.02e-05	0	43	0	3826253824	16	4346
2026-01-17 11:40:46.40	345.62	7.70	-27.4	-29.0	14.0	0.00e+00	0	44	0	3832545280	15	4354
2026-01-17 11:40:47.40	345.57	7.63	-27.6	-28.9	14.0	8.00e-06	0	44	0	3837788160	16	4183
2026-01-17 11:40:48.41	345.53	7.55	-27.8	-29.5	13.6	3.40e-06	0	44	0	3843031040	16	4365
2026-01-17 11:40:49.41	345.49	7.47	-27.5	-28.7	14.1	0.00e+00	0	44	0	3849322496	16	4138
2026-01-17 11:40:50.42	345.45	7.40	-27.7	-29.3	13.7	3.40e-06	0	43	0	3854565376	16	4308
