passes_logs/2026/01/17/R2M6_AANII_01/R2M6_AANII_01__20260117_095142_FENGYUN_3D_rec.log

#Pass ID: 20260117_095142_FENGYUN 3D
#Satellite: FENGYUN 3D
#Configuration: FENGYUN 3D
#almurnet v.1.7.20240730
#Start time: 2026-01-17 09:51:42

#Version: 2.2.20231116
#Station: R2M6_AANII_01
#Location: 30.233357 lon 59.946436 lat
#TLE: 1 43010U 17072A   26016.27214855  .00000192  00000+0  11235-3 0  9990
#TLE: 2 43010  98.9932 348.1078 0002365 105.5031 254.6406 14.19695933423435

#Time	Az	El	Level	Level2	SNR	BER	BlckErr	Temp	State	Recorded	gain1	gain2
2026-01-17 09:51:42.85	82.35	7.01	-31.6	-36.9	4.4	8.22e-01	0	41	0	0	24	6689
2026-01-17 09:51:43.85	82.24	7.06	-30.5	-34.1	5.1	7.88e-01	0	40	104	0	22	5418
2026-01-17 09:51:44.85	82.13	7.12	-30.6	-34.2	7.9	8.01e-02	0	41	0	0	22	5464
2026-01-17 09:51:45.86	82.01	7.17	-30.5	-33.9	8.2	7.27e-02	0	41	0	5242880	22	5337
2026-01-17 09:51:46.87	81.90	7.23	-30.5	-34.0	8.1	6.90e-02	0	41	0	11534336	22	5389
2026-01-17 09:51:47.87	81.78	7.28	-30.6	-34.1	8.1	7.57e-02	0	41	0	16777216	22	5411
2026-01-17 09:51:48.87	81.66	7.34	-30.7	-34.6	7.7	1.00e-01	0	41	0	22020096	22	5604
2026-01-17 09:51:49.87	81.55	7.39	-30.9	-35.3	7.3	1.20e-01	0	41	0	28311552	22	5946
2026-01-17 09:51:50.87	81.43	7.45	-30.6	-34.2	8.0	1.20e-01	0	41	0	33554432	22	5466
2026-01-17 09:51:51.87	81.31	7.51	-30.4	-33.4	8.6	5.38e-02	0	41	0	38797312	22	5105
2026-01-17 09:51:52.87	81.20	7.56	-29.7	-32.4	9.9	1.75e-02	0	41	0	45088768	20	4936
2026-01-17 09:51:53.88	81.08	7.62	-29.0	-31.1	11.2	2.94e-03	0	41	0	50331648	19	4578
2026-01-17 09:51:54.88	80.96	7.67	-28.5	-30.3	12.0	8.27e-04	0	41	0	55574528	18	4448
2026-01-17 09:51:55.88	80.84	7.73	-27.9	-29.4	12.9	1.53e-04	0	41	0	61865984	17	4267
2026-01-17 09:51:56.88	80.72	7.78	-27.6	-29.2	13.3	3.89e-05	0	41	0	67108864	16	4315
2026-01-17 09:51:57.88	80.60	7.84	-27.4	-28.6	13.7	1.25e-05	0	41	0	73400320	16	4152
2026-01-17 09:51:58.88	80.48	7.89	-26.9	-28.0	14.2	4.50e-06	0	41	0	78643200	15	4090
2026-01-17 09:51:59.89	80.36	7.95	-26.9	-28.0	14.2	2.20e-06	0	41	0	83886080	15	4087
2026-01-17 09:52:00.89	80.24	8.01	-26.9	-28.5	14.2	3.40e-06	0	41	0	90177536	14	4341
2026-01-17 09:52:01.89	80.12	8.06	-26.9	-28.5	14.2	4.50e-06	0	41	0	95420416	14	4329
2026-01-17 09:52:02.90	79.99	8.12	-27.0	-28.7	14.1	3.40e-06	0	41	0	100663296	14	4410
2026-01-17 09:52:03.89	79.87	8.17	-26.6	-27.9	14.5	1.10e-06	0	41	0	106954752	14	4179
2026-01-17 09:52:04.89	79.75	8.23	-26.8	-28.3	14.3	1.10e-06	0	41	0	112197632	14	4285
2026-01-17 09:52:05.89	79.62	8.28	-26.7	-28.2	14.4	1.10e-06	0	41	0	117440512	14	4257
2026-01-17 09:52:06.88	79.50	8.34	-26.8	-28.4	14.3	1.10e-06	0	41	0	123731968	14	4303
2026-01-17 09:52:07.89	79.38	8.39	-27.0	-28.7	14.1	3.40e-06	0	41	0	128974848	14	4409
2026-01-17 09:52:08.88	79.25	8.45	-26.8	-28.2	14.4	1.10e-06	0	41	0	135266304	14	4261
2026-01-17 09:52:09.89	79.12	8.50	-27.0	-28.7	14.2	0.00e+00	0	41	0	140509184	14	4388
2026-01-17 09:52:10.88	79.00	8.56	-27.0	-28.7	14.2	1.10e-06	0	41	0	145752064	14	4381
2026-01-17 09:52:11.88	78.87	8.61	-26.8	-28.3	14.4	0.00e+00	0	41	0	152043520	14	4272
2026-01-17 09:52:12.88	78.75	8.67	-27.0	-28.9	14.1	1.10e-06	0	41	0	157286400	14	4440
2026-01-17 09:52:13.88	78.62	8.73	-27.0	-28.9	14.1	3.40e-06	0	41	0	162529280	14	4453
2026-01-17 09:52:14.89	78.49	8.78	-26.8	-28.4	14.3	1.02e-05	0	42	0	168820736	14	4325
2026-01-17 09:52:15.90	78.36	8.84	-27.1	-29.0	14.0	4.50e-06	0	41	0	174063616	14	4477
2026-01-17 09:52:16.90	78.23	8.89	-27.1	-29.1	13.9	1.10e-06	0	41	0	180355072	14	4534
2026-01-17 09:52:17.91	78.10	8.95	-27.2	-29.1	13.9	2.20e-06	0	41	0	185597952	14	4528
2026-01-17 09:52:18.92	77.97	9.00	-27.6	-29.8	13.3	3.08e-05	0	42	0	190840832	15	4598
2026-01-17 09:52:19.92	77.84	9.06	-27.4	-29.1	13.7	1.25e-05	0	41	0	197132288	15	4396
2026-01-17 09:52:20.93	77.71	9.12	-27.2	-28.8	13.9	1.37e-05	0	41	0	202375168	15	4305
2026-01-17 09:52:21.93	77.57	9.17	-27.1	-28.5	14.1	1.10e-06	0	42	0	208666624	15	4212
2026-01-17 09:52:22.93	77.44	9.23	-27.0	-28.4	14.1	4.50e-06	0	42	0	213909504	15	4188
2026-01-17 09:52:23.92	77.31	9.28	-27.1	-28.5	14.1	5.70e-06	0	41	0	219152384	15	4222
2026-01-17 09:52:24.93	77.18	9.34	-26.9	-28.0	14.3	1.10e-06	0	42	0	225443840	15	4085
2026-01-17 09:52:25.93	77.04	9.39	-27.1	-28.5	14.1	1.10e-06	0	42	0	230686720	15	4231
2026-01-17 09:52:26.93	76.91	9.45	-26.7	-28.1	14.6	3.40e-06	0	42	0	235929600	14	4226
2026-01-17 09:52:27.93	76.77	9.50	-26.9	-28.5	14.4	1.10e-06	0	42	0	242221056	14	4323
2026-01-17 09:52:28.93	76.64	9.56	-26.8	-28.3	14.5	0.00e+00	0	42	0	247463936	14	4276
2026-01-17 09:52:29.93	76.50	9.61	-27.0	-28.7	14.3	4.50e-06	0	42	0	252706816	14	4398
2026-01-17 09:52:30.94	76.37	9.67	-26.7	-28.1	14.6	3.40e-06	0	42	0	258998272	14	4216
2026-01-17 09:52:31.94	76.23	9.72	-26.7	-28.0	14.7	0.00e+00	0	42	0	264241152	14	4196
2026-01-17 09:52:32.94	76.09	9.78	-27.0	-28.7	14.3	1.37e-05	0	42	0	270532608	14	4396
2026-01-17 09:52:33.95	75.95	9.83	-27.1	-28.9	14.2	5.70e-06	0	42	0	275775488	14	4458
2026-01-17 09:52:34.96	75.81	9.89	-27.0	-28.8	14.2	3.40e-06	0	42	0	282066944	14	4414
2026-01-17 09:52:35.96	75.67	9.94	-27.0	-28.8	14.2	1.02e-05	0	42	0	287309824	14	4426
2026-01-17 09:52:36.96	75.53	10.00	-27.1	-29.0	14.1	1.10e-06	0	42	0	292552704	14	4475
2026-01-17 09:52:37.96	75.39	10.05	-27.3	-29.4	13.9	4.50e-06	0	42	0	298844160	14	4579
2026-01-17 09:52:38.96	75.25	10.11	-27.2	-29.1	14.1	1.14e-05	0	42	0	304087040	14	4502
2026-01-17 09:52:39.96	75.11	10.16	-27.2	-29.3	14.0	9.10e-06	0	42	0	309329920	14	4552
2026-01-17 09:52:40.96	74.97	10.22	-27.1	-28.9	14.2	1.10e-06	0	42	0	315621376	14	4435
2026-01-17 09:52:41.97	74.83	10.27	-26.8	-28.3	14.6	2.20e-06	0	42	0	320864256	14	4272
2026-01-17 09:52:42.97	74.69	10.33	-26.9	-28.6	14.4	2.20e-06	0	42	0	326107136	14	4351
2026-01-17 09:52:43.97	74.54	10.38	-27.1	-29.0	14.2	1.10e-06	0	42	0	332398592	14	4467
2026-01-17 09:52:44.98	74.40	10.43	-26.8	-28.3	14.6	1.10e-06	0	42	0	337641472	14	4274
2026-01-17 09:52:45.98	74.25	10.49	-26.9	-28.6	14.4	1.10e-06	0	42	0	343932928	14	4350
2026-01-17 09:52:46.98	74.11	10.54	-26.8	-28.3	14.6	1.10e-06	0	42	0	349175808	14	4269
2026-01-17 09:52:47.98	73.96	10.60	-26.8	-28.2	14.7	6.80e-06	0	42	0	354418688	14	4241
2026-01-17 09:52:48.98	73.82	10.65	-26.6	-27.8	14.9	0.00e+00	0	42	0	360710144	14	4143
2026-01-17 09:52:49.97	73.67	10.71	-26.5	-27.7	14.9	0.00e+00	0	42	0	365953024	14	4100
2026-01-17 09:52:50.97	73.52	10.76	-26.5	-27.7	14.9	0.00e+00	0	42	0	371195904	14	4110
2026-01-17 09:52:51.98	73.38	10.81	-26.6	-27.8	14.8	0.00e+00	0	42	0	377487360	14	4152
2026-01-17 09:52:52.98	73.23	10.87	-26.4	-27.5	15.1	0.00e+00	0	42	0	382730240	14	4052
2026-01-17 09:52:53.98	73.08	10.92	-26.5	-27.6	15.0	0.00e+00	0	42	0	387973120	14	4098
2026-01-17 09:52:54.98	72.93	10.98	-26.5	-27.5	15.1	0.00e+00	0	42	0	394264576	14	4072
2026-01-17 09:52:55.98	72.78	11.03	-26.4	-27.3	15.2	0.00e+00	0	42	0	399507456	14	4010
2026-01-17 09:52:56.99	72.63	11.08	-26.5	-27.6	15.0	0.00e+00	0	42	0	405798912	14	4079
2026-01-17 09:52:57.99	72.48	11.14	-26.5	-27.5	15.1	0.00e+00	0	42	0	411041792	14	4061
2026-01-17 09:52:58.98	72.33	11.19	-26.7	-28.0	14.8	0.00e+00	0	42	0	416284672	14	4196
2026-01-17 09:52:59.98	72.18	11.24	-26.5	-27.7	15.0	1.10e-06	0	42	0	422576128	14	4104
2026-01-17 09:53:00.98	72.02	11.30	-26.4	-27.4	15.2	0.00e+00	0	42	0	427819008	14	4022
2026-01-17 09:53:01.98	71.87	11.35	-26.1	-27.3	15.5	2.20e-06	0	42	0	433061888	13	4115
2026-01-17 09:53:02.99	71.72	11.40	-26.2	-27.4	15.4	0.00e+00	0	42	0	439353344	13	4136
2026-01-17 09:53:03.99	71.56	11.46	-26.2	-27.4	15.4	0.00e+00	0	42	0	444596224	13	4130
2026-01-17 09:53:04.99	71.41	11.51	-26.3	-27.7	15.2	0.00e+00	0	42	0	449839104	13	4231
2026-01-17 09:53:05.98	71.25	11.56	-26.2	-27.3	15.5	1.10e-06	0	42	0	456130560	13	4121
2026-01-17 09:53:06.99	71.09	11.61	-26.3	-27.6	15.3	0.00e+00	0	42	0	461373440	13	4200
2026-01-17 09:53:07.99	70.94	11.67	-26.0	-27.0	15.6	0.00e+00	0	42	0	467664896	13	4042
2026-01-17 09:53:09.00	70.78	11.72	-26.2	-27.5	15.4	0.00e+00	0	42	0	472907776	13	4150
2026-01-17 09:53:10.00	70.62	11.77	-26.1	-27.3	15.5	0.00e+00	0	42	0	479199232	13	4105
2026-01-17 09:53:11.01	70.46	11.83	-26.2	-27.3	15.5	0.00e+00	0	43	0	484442112	13	4115
2026-01-17 09:53:12.01	70.30	11.88	-26.1	-27.2	15.5	0.00e+00	0	42	0	489684992	13	4087
2026-01-17 09:53:13.01	70.14	11.93	-25.9	-26.9	15.7	0.00e+00	0	42	0	495976448	13	4000
2026-01-17 09:53:14.00	69.99	11.98	-26.1	-27.2	15.5	0.00e+00	0	42	0	501219328	13	4088
2026-01-17 09:53:15.00	69.83	12.03	-26.0	-26.9	15.7	0.00e+00	0	43	0	506462208	13	4012
2026-01-17 09:53:16.00	69.66	12.09	-25.9	-26.7	15.8	0.00e+00	0	42	0	512753664	13	3954
2026-01-17 09:53:17.00	69.50	12.14	-26.0	-27.0	15.7	0.00e+00	0	42	0	517996544	13	4043
2026-01-17 09:53:18.00	69.34	12.19	-25.9	-26.8	15.7	0.00e+00	0	42	0	523239424	13	3992
2026-01-17 09:53:19.00	69.18	12.24	-26.0	-26.9	15.7	0.00e+00	0	42	0	529530880	13	4017
2026-01-17 09:53:20.01	69.01	12.29	-26.1	-27.2	15.5	0.00e+00	0	42	0	534773760	13	4096
2026-01-17 09:53:21.01	68.85	12.34	-26.3	-27.7	15.3	0.00e+00	0	42	0	541065216	13	4212
2026-01-17 09:53:22.01	68.68	12.39	-25.9	-26.7	15.9	0.00e+00	0	43	0	546308096	13	3955
2026-01-17 09:53:23.01	68.52	12.45	-26.2	-27.4	15.5	0.00e+00	0	42	0	551550976	13	4135
2026-01-17 09:53:24.01	68.35	12.50	-26.4	-27.8	15.3	0.00e+00	0	42	0	557842432	13	4245
2026-01-17 09:53:25.01	68.19	12.55	-26.1	-27.2	15.6	0.00e+00	0	42	0	563085312	13	4074
2026-01-17 09:53:26.01	68.02	12.60	-26.6	-28.3	14.9	0.00e+00	0	43	0	568328192	13	4393
2026-01-17 09:53:27.02	67.85	12.65	-26.6	-28.3	15.0	0.00e+00	0	42	0	574619648	13	4368
2026-01-17 09:53:28.02	67.68	12.70	-26.1	-27.3	15.5	1.10e-06	0	42	0	579862528	13	4109
2026-01-17 09:53:29.02	67.51	12.75	-26.1	-27.1	15.7	0.00e+00	0	43	0	585105408	13	4039
2026-01-17 09:53:30.02	67.35	12.80	-25.9	-26.6	16.0	0.00e+00	0	43	0	591396864	13	3917
2026-01-17 09:53:31.01	67.18	12.85	-26.1	-27.1	15.8	0.00e+00	0	43	0	596639744	13	4032
2026-01-17 09:53:32.01	67.01	12.90	-25.8	-26.5	16.1	0.00e+00	0	43	0	602931200	13	3881
2026-01-17 09:53:33.01	66.84	12.95	-26.0	-27.4	15.8	0.00e+00	0	42	0	608174080	12	4234
2026-01-17 09:53:34.02	66.66	13.00	-25.9	-27.2	16.0	0.00e+00	0	42	0	613416960	12	4166
2026-01-17 09:53:35.02	66.49	13.05	-26.1	-27.6	15.7	0.00e+00	0	43	0	619708416	12	4288
2026-01-17 09:53:36.02	66.32	13.10	-26.1	-27.5	15.8	0.00e+00	0	42	0	624951296	12	4253
2026-01-17 09:53:37.01	66.15	13.15	-26.2	-27.8	15.7	0.00e+00	0	43	0	630194176	12	4324
2026-01-17 09:53:38.01	65.97	13.19	-26.1	-27.6	15.8	0.00e+00	0	43	0	636485632	12	4273
2026-01-17 09:53:39.02	65.80	13.24	-26.1	-27.7	15.7	0.00e+00	0	43	0	641728512	12	4304
2026-01-17 09:53:40.02	65.62	13.29	-26.2	-27.8	15.6	0.00e+00	0	42	0	646971392	12	4343
2026-01-17 09:53:41.02	65.45	13.34	-26.2	-27.7	15.7	0.00e+00	0	43	0	653262848	12	4310
2026-01-17 09:53:42.03	65.27	13.39	-26.0	-27.4	15.9	0.00e+00	0	43	0	658505728	12	4230
2026-01-17 09:53:43.03	65.09	13.44	-26.0	-27.3	16.0	0.00e+00	0	43	0	664797184	12	4192
2026-01-17 09:53:44.03	64.91	13.48	-26.0	-27.4	15.9	0.00e+00	0	43	0	670040064	12	4215
2026-01-17 09:53:45.04	64.73	13.53	-25.8	-26.9	16.2	0.00e+00	0	43	0	675282944	12	4099
2026-01-17 09:53:46.04	64.56	13.58	-26.1	-27.6	15.8	0.00e+00	0	43	0	681574400	12	4290
2026-01-17 09:53:47.04	64.38	13.63	-26.0	-27.4	15.9	0.00e+00	0	43	0	686817280	12	4212
2026-01-17 09:53:48.04	64.20	13.67	-26.0	-27.4	16.0	0.00e+00	0	43	0	692060160	12	4214
2026-01-17 09:53:49.04	64.02	13.72	-26.2	-27.7	15.8	0.00e+00	0	43	0	698351616	12	4316
2026-01-17 09:53:50.04	63.84	13.77	-26.1	-27.6	15.9	0.00e+00	0	43	0	703594496	12	4268
2026-01-17 09:53:51.05	63.65	13.81	-26.2	-27.8	15.7	0.00e+00	0	43	0	709885952	12	4320
2026-01-17 09:53:52.05	63.47	13.86	-26.1	-27.7	15.8	0.00e+00	0	42	0	715128832	12	4302
2026-01-17 09:53:53.05	63.29	13.91	-26.1	-27.7	15.8	0.00e+00	0	43	0	721420288	12	4296
2026-01-17 09:53:54.05	63.11	13.95	-26.1	-27.7	15.8	0.00e+00	0	43	0	726663168	12	4294
2026-01-17 09:53:55.06	62.92	14.00	-26.1	-27.7	15.8	0.00e+00	0	43	0	731906048	12	4298
2026-01-17 09:53:56.06	62.74	14.04	-26.2	-27.9	15.7	0.00e+00	0	43	0	738197504	12	4348
2026-01-17 09:53:57.07	62.55	14.09	-25.9	-27.2	16.1	0.00e+00	0	43	0	743440384	12	4171
2026-01-17 09:53:58.07	62.36	14.14	-26.0	-27.4	16.0	0.00e+00	0	43	0	748683264	12	4212
2026-01-17 09:53:59.07	62.18	14.18	-26.4	-28.2	15.5	0.00e+00	0	43	0	754974720	12	4429
2026-01-17 09:54:00.07	61.99	14.22	-26.1	-27.6	15.9	0.00e+00	0	43	0	760217600	12	4270
2026-01-17 09:54:01.07	61.80	14.27	-25.9	-27.1	16.1	0.00e+00	0	43	0	765460480	12	4144
2026-01-17 09:54:02.08	61.61	14.31	-25.8	-26.9	16.3	0.00e+00	0	43	0	771751936	12	4093
2026-01-17 09:54:03.08	61.43	14.36	-25.7	-26.8	16.3	0.00e+00	0	43	0	776994816	12	4063
2026-01-17 09:54:04.07	61.24	14.40	-25.6	-26.6	16.4	0.00e+00	0	42	0	783286272	12	4011
2026-01-17 09:54:05.07	61.05	14.44	-25.4	-26.1	16.7	0.00e+00	0	43	0	788529152	12	3891
2026-01-17 09:54:06.08	60.86	14.49	-25.4	-25.9	16.8	0.00e+00	0	43	0	793772032	12	3854
2026-01-17 09:54:07.07	60.67	14.53	-25.5	-26.3	16.6	0.00e+00	0	43	0	800063488	12	3933
2026-01-17 09:54:08.08	60.48	14.57	-25.6	-26.4	16.5	0.00e+00	0	43	0	805306368	12	3961
2026-01-17 09:54:09.08	60.29	14.62	-25.6	-26.4	16.5	0.00e+00	0	43	0	810549248	12	3975
2026-01-17 09:54:10.08	60.09	14.66	-25.4	-25.9	16.8	0.00e+00	0	43	0	816840704	12	3848
2026-01-17 09:54:11.08	59.90	14.70	-25.4	-26.0	16.8	1.10e-06	0	43	0	822083584	12	3870
2026-01-17 09:54:12.09	59.71	14.74	-25.5	-26.2	16.6	0.00e+00	0	43	0	827326464	12	3927
2026-01-17 09:54:13.09	59.51	14.78	-25.3	-26.2	17.0	0.00e+00	0	43	0	833617920	11	4020
2026-01-17 09:54:14.09	59.32	14.83	-25.4	-26.6	16.7	0.00e+00	0	42	0	838860800	11	4127
2026-01-17 09:54:15.10	59.12	14.87	-25.3	-26.4	16.9	0.00e+00	0	43	0	845152256	11	4058
2026-01-17 09:54:16.10	58.93	14.91	-25.3	-26.2	17.0	0.00e+00	0	43	0	850395136	11	4022
2026-01-17 09:54:17.10	58.73	14.95	-25.2	-26.2	17.0	0.00e+00	0	43	0	856686592	11	4004
2026-01-17 09:54:18.10	58.53	14.99	-25.3	-26.3	16.9	0.00e+00	0	43	0	861929472	11	4051
2026-01-17 09:54:19.11	58.33	15.03	-25.2	-26.0	17.1	0.00e+00	0	43	0	867172352	11	3967
2026-01-17 09:54:20.11	58.14	15.07	-25.1	-26.0	17.2	0.00e+00	0	43	0	873463808	11	3959
2026-01-17 09:54:21.11	57.94	15.11	-25.3	-26.3	17.0	0.00e+00	0	43	0	878706688	11	4042
2026-01-17 09:54:22.12	57.74	15.15	-25.0	-25.7	17.3	0.00e+00	0	43	0	883949568	11	3882
2026-01-17 09:54:23.12	57.54	15.19	-25.1	-25.9	17.2	0.00e+00	0	43	0	890241024	11	3932
2026-01-17 09:54:24.12	57.34	15.22	-25.3	-26.2	17.0	0.00e+00	0	43	0	895483904	11	4023
2026-01-17 09:54:25.12	57.14	15.26	-25.3	-26.2	17.0	0.00e+00	0	43	0	900726784	11	4022
2026-01-17 09:54:26.12	56.94	15.30	-25.2	-26.1	17.1	0.00e+00	0	43	0	907018240	11	3997
2026-01-17 09:54:27.12	56.74	15.34	-25.1	-25.9	17.2	0.00e+00	0	43	0	912261120	11	3942
2026-01-17 09:54:28.12	56.54	15.38	-25.0	-25.7	17.3	0.00e+00	0	43	0	918552576	11	3892
2026-01-17 09:54:29.12	56.33	15.41	-24.9	-25.5	17.4	0.00e+00	0	43	0	923795456	11	3843
2026-01-17 09:54:30.12	56.13	15.45	-25.0	-25.6	17.3	0.00e+00	0	43	0	929038336	11	3871
2026-01-17 09:54:31.12	55.93	15.49	-24.8	-25.2	17.6	0.00e+00	0	43	0	935329792	11	3766
2026-01-17 09:54:32.13	55.72	15.52	-25.0	-26.1	17.3	0.00e+00	0	43	0	940572672	10	4096
2026-01-17 09:54:33.13	55.52	15.56	-25.0	-26.1	17.4	0.00e+00	0	43	0	945815552	10	4100
2026-01-17 09:54:34.12	55.32	15.59	-24.9	-25.9	17.5	0.00e+00	0	43	0	952107008	10	4051
2026-01-17 09:54:35.12	55.11	15.63	-25.0	-26.1	17.4	0.00e+00	0	43	0	957349888	10	4098
2026-01-17 09:54:36.13	54.90	15.66	-25.2	-26.6	17.1	0.00e+00	0	43	0	962592768	10	4238
2026-01-17 09:54:37.13	54.70	15.70	-25.0	-26.3	17.3	0.00e+00	0	43	0	968884224	10	4141
2026-01-17 09:54:38.12	54.49	15.73	-25.3	-26.8	17.0	0.00e+00	0	43	0	974127104	10	4289
2026-01-17 09:54:39.12	54.28	15.77	-25.2	-26.7	17.0	0.00e+00	0	43	0	980418560	10	4240
2026-01-17 09:54:40.11	54.08	15.80	-25.5	-27.2	16.8	0.00e+00	0	43	0	985661440	10	4377
2026-01-17 09:54:41.12	53.87	15.83	-25.4	-27.0	16.9	0.00e+00	0	43	0	990904320	10	4344
2026-01-17 09:54:42.12	53.66	15.86	-25.5	-27.1	16.8	0.00e+00	0	43	0	997195776	10	4374
2026-01-17 09:54:43.12	53.45	15.90	-25.5	-26.7	16.8	0.00e+00	0	43	0	1002438656	11	4138
2026-01-17 09:54:44.11	53.24	15.93	-25.9	-27.6	16.3	0.00e+00	0	43	0	1007681536	11	4369
2026-01-17 09:54:45.12	53.03	15.96	-25.5	-26.8	16.7	0.00e+00	0	43	0	1013972992	11	4167
2026-01-17 09:54:46.13	52.82	15.99	-25.4	-26.6	16.8	0.00e+00	0	43	0	1019215872	11	4124
2026-01-17 09:54:47.13	52.61	16.02	-25.3	-26.3	16.9	0.00e+00	0	43	0	1024458752	11	4048
2026-01-17 09:54:48.13	52.40	16.05	-25.3	-26.2	17.0	0.00e+00	0	43	0	1030750208	11	4022
2026-01-17 09:54:49.13	52.19	16.08	-25.3	-26.3	16.9	0.00e+00	0	43	0	1035993088	11	4049
2026-01-17 09:54:50.13	51.97	16.12	-25.2	-26.1	17.1	0.00e+00	0	43	0	1042284544	11	3989
2026-01-17 09:54:51.13	51.76	16.14	-25.2	-26.1	17.1	0.00e+00	0	43	0	1047527424	11	3989
2026-01-17 09:54:52.13	51.55	16.17	-25.2	-26.1	17.1	0.00e+00	0	43	0	1052770304	11	3996
2026-01-17 09:54:53.12	51.34	16.20	-25.4	-26.6	16.8	0.00e+00	0	43	0	1059061760	11	4119
2026-01-17 09:54:54.13	51.12	16.23	-25.2	-26.2	17.0	0.00e+00	0	43	0	1064304640	11	4010
2026-01-17 09:54:55.13	50.91	16.26	-25.1	-25.9	17.2	0.00e+00	0	43	0	1069547520	11	3940
2026-01-17 09:54:56.12	50.70	16.29	-25.1	-25.9	17.2	0.00e+00	0	43	0	1075838976	11	3954
2026-01-17 09:54:57.12	50.48	16.31	-25.2	-26.0	17.1	0.00e+00	0	43	0	1081081856	11	3966
2026-01-17 09:54:58.12	50.27	16.34	-25.2	-26.1	17.1	0.00e+00	0	43	0	1086324736	11	3978
2026-01-17 09:54:59.13	50.05	16.37	-25.3	-26.3	17.0	0.00e+00	0	43	0	1092616192	11	4042
2026-01-17 09:55:00.13	49.83	16.39	-25.4	-26.5	16.9	0.00e+00	0	43	0	1097859072	11	4096
2026-01-17 09:55:01.13	49.62	16.42	-25.2	-26.1	17.1	0.00e+00	0	43	0	1104150528	11	4002
2026-01-17 09:55:02.13	49.40	16.45	-25.3	-26.3	17.0	0.00e+00	0	43	0	1109393408	11	4038
2026-01-17 09:55:03.13	49.18	16.47	-25.3	-26.2	17.1	0.00e+00	0	43	0	1114636288	11	4020
2026-01-17 09:55:04.14	48.96	16.50	-25.5	-26.6	16.8	0.00e+00	0	43	0	1120927744	11	4120
2026-01-17 09:55:05.14	48.74	16.52	-25.3	-26.3	17.0	0.00e+00	0	43	0	1126170624	11	4043
2026-01-17 09:55:06.15	48.52	16.54	-25.6	-27.0	16.6	0.00e+00	0	43	0	1132462080	11	4218
2026-01-17 09:55:07.15	48.31	16.57	-25.4	-26.6	16.9	0.00e+00	0	43	0	1137704960	11	4109
2026-01-17 09:55:08.15	48.09	16.59	-25.2	-26.2	17.1	0.00e+00	0	43	0	1142947840	11	4003
2026-01-17 09:55:09.15	47.87	16.61	-25.2	-26.1	17.1	0.00e+00	0	43	0	1149239296	11	4001
2026-01-17 09:55:10.15	47.65	16.64	-25.2	-26.0	17.2	0.00e+00	0	43	0	1154482176	11	3967
2026-01-17 09:55:11.15	47.43	16.66	-25.0	-25.7	17.4	0.00e+00	0	43	0	1159725056	11	3880
2026-01-17 09:55:12.16	47.21	16.68	-24.8	-25.2	17.6	0.00e+00	0	43	0	1166016512	11	3774
2026-01-17 09:55:13.16	46.98	16.70	-24.6	-25.4	17.8	0.00e+00	0	43	0	1171259392	10	3920
2026-01-17 09:55:14.16	46.76	16.72	-24.7	-25.5	17.7	0.00e+00	0	43	0	1177550848	10	3954
2026-01-17 09:55:15.16	46.54	16.74	-25.2	-26.5	17.2	0.00e+00	0	43	0	1182793728	10	4206
2026-01-17 09:55:16.16	46.32	16.76	-25.0	-26.1	17.4	0.00e+00	0	43	0	1188036608	10	4095
2026-01-17 09:55:17.15	46.10	16.78	-24.9	-26.0	17.5	0.00e+00	0	43	0	1194328064	10	4067
2026-01-17 09:55:18.16	45.88	16.80	-25.0	-26.2	17.3	0.00e+00	0	43	0	1199570944	10	4133
2026-01-17 09:55:19.15	45.66	16.82	-25.0	-26.1	17.4	0.00e+00	0	43	0	1204813824	10	4109
2026-01-17 09:55:20.16	45.43	16.84	-24.7	-25.4	17.7	0.00e+00	0	43	0	1211105280	10	3932
2026-01-17 09:55:21.16	45.21	16.85	-24.5	-25.1	17.9	0.00e+00	0	43	0	1216348160	10	3867
2026-01-17 09:55:22.16	44.99	16.87	-24.6	-25.3	17.8	0.00e+00	0	43	0	1221591040	10	3913
2026-01-17 09:55:23.16	44.76	16.89	-24.5	-25.1	17.8	0.00e+00	0	43	0	1227882496	10	3864
2026-01-17 09:55:24.16	44.54	16.91	-24.7	-25.4	17.7	0.00e+00	0	43	0	1233125376	10	3931
2026-01-17 09:55:25.16	44.32	16.92	-24.9	-25.9	17.5	0.00e+00	0	43	0	1239416832	10	4059
2026-01-17 09:55:26.17	44.09	16.94	-24.8	-25.7	17.6	0.00e+00	0	43	0	1244659712	10	4012
2026-01-17 09:55:27.16	43.87	16.95	-24.8	-25.8	17.5	0.00e+00	0	43	0	1249902592	10	4038
2026-01-17 09:55:28.15	43.65	16.97	-25.1	-26.3	17.3	0.00e+00	0	43	0	1256194048	10	4143
2026-01-17 09:55:29.16	43.42	16.98	-24.9	-26.0	17.5	0.00e+00	0	43	0	1261436928	10	4062
2026-01-17 09:55:30.16	43.19	16.99	-25.0	-26.2	17.4	0.00e+00	0	43	0	1266679808	10	4112
2026-01-17 09:55:31.17	42.97	17.01	-25.2	-26.5	17.2	0.00e+00	0	43	0	1272971264	10	4201
2026-01-17 09:55:32.17	42.74	17.02	-25.0	-26.3	17.3	0.00e+00	0	43	0	1278214144	10	4137
2026-01-17 09:55:33.17	42.52	17.03	-25.2	-26.5	17.2	0.00e+00	0	43	0	1283457024	10	4200
2026-01-17 09:55:34.17	42.29	17.05	-25.3	-26.8	17.0	0.00e+00	0	43	0	1289748480	10	4291
2026-01-17 09:55:35.17	42.06	17.06	-24.8	-25.8	17.5	0.00e+00	0	43	0	1294991360	10	4032
2026-01-17 09:55:36.17	41.84	17.07	-24.7	-25.6	17.7	0.00e+00	0	43	0	1301282816	10	3964
2026-01-17 09:55:37.17	41.61	17.08	-24.6	-25.3	17.8	0.00e+00	0	43	0	1306525696	10	3904
2026-01-17 09:55:38.17	41.39	17.09	-24.6	-25.4	17.8	0.00e+00	0	43	0	1311768576	10	3918
2026-01-17 09:55:39.17	41.16	17.10	-24.7	-25.5	17.7	0.00e+00	0	43	0	1318060032	10	3946
2026-01-17 09:55:40.17	40.93	17.11	-24.6	-25.4	17.8	0.00e+00	0	43	0	1323302912	10	3929
2026-01-17 09:55:41.17	40.71	17.12	-24.6	-25.2	17.8	0.00e+00	0	43	0	1328545792	10	3884
2026-01-17 09:55:42.17	40.48	17.12	-24.6	-25.2	17.8	0.00e+00	0	43	0	1334837248	10	3893
2026-01-17 09:55:43.17	40.25	17.13	-24.5	-25.2	17.9	0.00e+00	0	43	0	1340080128	10	3871
2026-01-17 09:55:44.18	40.02	17.14	-24.6	-25.2	17.8	0.00e+00	0	43	0	1345323008	10	3892
2026-01-17 09:55:45.18	39.79	17.15	-24.6	-25.2	17.8	0.00e+00	0	43	0	1351614464	10	3884
2026-01-17 09:55:46.18	39.57	17.15	-24.7	-25.5	17.7	0.00e+00	0	43	0	1356857344	10	3944
2026-01-17 09:55:47.18	39.34	17.16	-24.3	-24.8	18.1	0.00e+00	0	43	0	1363148800	10	3775
2026-01-17 09:55:48.18	39.11	17.17	-24.4	-24.8	18.1	0.00e+00	0	43	0	1368391680	10	3794
2026-01-17 09:55:49.19	38.88	17.17	-24.4	-24.9	18.0	0.00e+00	0	43	0	1373634560	10	3804
2026-01-17 09:55:50.19	38.65	17.18	-24.5	-25.1	17.9	0.00e+00	0	43	0	1379926016	10	3848
2026-01-17 09:55:51.19	38.43	17.18	-24.6	-25.2	17.8	0.00e+00	0	43	0	1385168896	10	3892
2026-01-17 09:55:52.19	38.20	17.18	-24.6	-25.3	17.8	0.00e+00	0	43	0	1390411776	10	3916
2026-01-17 09:55:53.20	37.97	17.19	-24.7	-25.5	17.7	0.00e+00	0	43	0	1396703232	10	3938
2026-01-17 09:55:54.21	37.74	17.19	-24.7	-25.5	17.7	0.00e+00	0	43	0	1401946112	10	3956
2026-01-17 09:55:55.21	37.51	17.19	-24.8	-25.7	17.6	0.00e+00	0	43	0	1408237568	10	3990
2026-01-17 09:55:56.21	37.28	17.19	-24.7	-25.5	17.7	0.00e+00	0	43	0	1413480448	10	3959
2026-01-17 09:55:57.21	37.06	17.20	-24.8	-25.8	17.6	0.00e+00	0	43	0	1418723328	10	4016
2026-01-17 09:55:58.21	36.83	17.20	-24.9	-25.8	17.5	0.00e+00	0	43	0	1425014784	10	4033
2026-01-17 09:55:59.21	36.60	17.20	-24.8	-25.8	17.6	0.00e+00	0	43	0	1430257664	10	4014
2026-01-17 09:56:00.21	36.37	17.20	-24.9	-25.8	17.5	0.00e+00	0	43	0	1436549120	10	4037
2026-01-17 09:56:01.21	36.14	17.20	-24.8	-25.8	17.6	0.00e+00	0	43	0	1441792000	10	4017
2026-01-17 09:56:02.21	35.92	17.20	-24.9	-25.9	17.5	0.00e+00	0	43	0	1447034880	10	4047
2026-01-17 09:56:03.21	35.69	17.19	-24.8	-25.8	17.6	0.00e+00	0	43	0	1453326336	10	4015
2026-01-17 09:56:04.21	35.46	17.19	-24.8	-25.8	17.5	0.00e+00	0	43	0	1458569216	10	4028
2026-01-17 09:56:05.22	35.23	17.19	-25.0	-26.1	17.4	0.00e+00	0	43	0	1463812096	10	4102
2026-01-17 09:56:06.22	35.00	17.19	-24.8	-25.7	17.6	0.00e+00	0	43	0	1470103552	10	3993
2026-01-17 09:56:07.22	34.77	17.18	-24.7	-25.6	17.7	0.00e+00	0	43	0	1475346432	10	3975
2026-01-17 09:56:08.23	34.54	17.18	-24.7	-25.5	17.7	0.00e+00	0	43	0	1481637888	10	3962
2026-01-17 09:56:09.23	34.32	17.18	-24.4	-25.0	18.0	0.00e+00	0	43	0	1486880768	10	3822
2026-01-17 09:56:10.24	34.09	17.17	-24.2	-25.0	18.2	0.00e+00	0	43	0	1492123648	9	3948
2026-01-17 09:56:11.24	33.86	17.17	-24.3	-25.1	18.2	0.00e+00	0	43	0	1498415104	9	3949
2026-01-17 09:56:12.24	33.63	17.16	-24.4	-25.5	18.0	0.00e+00	0	43	0	1503657984	9	4051
2026-01-17 09:56:13.24	33.40	17.15	-24.4	-25.4	18.0	0.00e+00	0	43	0	1508900864	9	4044
2026-01-17 09:56:14.24	33.18	17.15	-24.3	-25.2	18.1	0.00e+00	0	43	0	1515192320	9	3995
2026-01-17 09:56:15.24	32.95	17.14	-24.3	-25.2	18.1	0.00e+00	0	43	0	1520435200	9	4001
2026-01-17 09:56:16.24	32.72	17.13	-24.4	-25.3	18.0	0.00e+00	0	43	0	1525678080	9	4012
2026-01-17 09:56:17.24	32.49	17.13	-24.6	-25.7	17.8	0.00e+00	0	43	0	1531969536	9	4112
2026-01-17 09:56:18.24	32.27	17.12	-24.4	-25.3	18.0	0.00e+00	0	43	0	1537212416	9	4006
2026-01-17 09:56:19.24	32.04	17.11	-24.4	-25.3	18.1	0.00e+00	0	43	0	1543503872	9	4003
2026-01-17 09:56:20.25	31.81	17.10	-24.4	-25.3	18.1	0.00e+00	0	43	0	1548746752	9	4001
2026-01-17 09:56:21.25	31.59	17.09	-24.4	-25.5	18.0	0.00e+00	0	43	0	1555038208	9	4048
2026-01-17 09:56:22.26	31.36	17.08	-24.5	-25.6	17.9	0.00e+00	0	43	0	1560281088	9	4089
2026-01-17 09:56:23.27	31.13	17.07	-24.5	-25.5	18.0	0.00e+00	0	43	0	1565523968	9	4064
2026-01-17 09:56:24.27	30.90	17.06	-24.6	-25.9	17.7	0.00e+00	0	43	0	1571815424	9	4153
2026-01-17 09:56:25.27	30.68	17.05	-24.8	-26.3	17.5	0.00e+00	0	43	0	1577058304	9	4255
2026-01-17 09:56:26.27	30.45	17.03	-24.7	-26.1	17.7	0.00e+00	0	43	0	1582301184	9	4204
2026-01-17 09:56:27.27	30.23	17.02	-24.7	-26.0	17.7	0.00e+00	0	43	0	1588592640	9	4173
2026-01-17 09:56:28.27	30.00	17.01	-24.6	-25.8	17.8	0.00e+00	0	43	0	1593835520	9	4144
2026-01-17 09:56:29.28	29.77	17.00	-24.6	-25.9	17.8	0.00e+00	0	43	0	1599078400	9	4148
2026-01-17 09:56:30.28	29.55	16.98	-24.6	-25.7	17.9	0.00e+00	0	43	0	1605369856	9	4109
2026-01-17 09:56:31.28	29.32	16.97	-24.6	-25.9	17.7	0.00e+00	0	43	0	1610612736	9	4164
2026-01-17 09:56:32.28	29.10	16.95	-24.5	-25.7	17.8	0.00e+00	0	43	0	1616904192	9	4102
2026-01-17 09:56:33.29	28.87	16.94	-24.5	-25.7	17.8	0.00e+00	0	43	0	1622147072	9	4106
2026-01-17 09:56:34.28	28.65	16.92	-24.6	-25.9	17.7	0.00e+00	0	43	0	1627389952	9	4159
2026-01-17 09:56:35.29	28.43	16.91	-24.5	-25.5	17.9	0.00e+00	0	43	0	1633681408	9	4072
2026-01-17 09:56:36.29	28.20	16.89	-24.6	-25.7	17.9	0.00e+00	0	43	0	1638924288	9	4115
2026-01-17 09:56:37.30	27.98	16.87	-24.7	-26.0	17.6	0.00e+00	0	43	0	1644167168	9	4196
2026-01-17 09:56:38.30	27.75	16.86	-24.7	-26.1	17.7	0.00e+00	0	43	0	1650458624	9	4203
2026-01-17 09:56:39.31	27.53	16.84	-24.8	-26.2	17.6	0.00e+00	0	43	0	1655701504	9	4238
2026-01-17 09:56:40.30	27.31	16.82	-24.7	-26.0	17.7	0.00e+00	0	43	0	1661992960	9	4190
2026-01-17 09:56:41.31	27.09	16.80	-24.7	-26.0	17.7	0.00e+00	0	43	0	1667235840	9	4182
2026-01-17 09:56:42.31	26.86	16.78	-24.7	-26.0	17.7	0.00e+00	0	43	0	1672478720	9	4187
2026-01-17 09:56:43.33	26.64	16.76	-24.6	-25.9	17.7	0.00e+00	0	43	0	1678770176	9	4152
2026-01-17 09:56:44.33	26.42	16.74	-24.5	-25.6	17.9	0.00e+00	0	43	0	1684013056	9	4082
2026-01-17 09:56:45.34	26.19	16.72	-24.6	-25.9	17.7	0.00e+00	0	43	0	1690304512	9	4164
2026-01-17 09:56:46.34	25.97	16.70	-24.6	-25.8	17.7	0.00e+00	0	43	0	1695547392	9	4145
2026-01-17 09:56:47.34	25.75	16.68	-24.6	-25.7	17.8	0.00e+00	0	43	0	1700790272	9	4117
2026-01-17 09:56:48.34	25.53	16.66	-24.6	-25.8	17.8	0.00e+00	0	43	0	1707081728	9	4137
2026-01-17 09:56:49.33	25.32	16.64	-24.8	-26.2	17.6	0.00e+00	0	43	0	1712324608	9	4239
2026-01-17 09:56:50.33	25.10	16.62	-24.9	-26.4	17.5	0.00e+00	0	43	0	1717567488	9	4282
2026-01-17 09:56:51.32	24.88	16.59	-24.8	-26.3	17.5	0.00e+00	0	43	0	1723858944	9	4262
2026-01-17 09:56:52.33	24.66	16.57	-24.9	-26.4	17.4	0.00e+00	0	43	0	1729101824	9	4296
2026-01-17 09:56:53.32	24.44	16.55	-24.9	-26.4	17.4	0.00e+00	0	43	0	1734344704	9	4301
2026-01-17 09:56:54.33	24.22	16.52	-25.1	-26.4	17.2	0.00e+00	0	43	0	1740636160	10	4178
2026-01-17 09:56:55.32	24.01	16.50	-24.9	-26.0	17.4	0.00e+00	0	43	0	1745879040	10	4074
2026-01-17 09:56:56.32	23.79	16.47	-24.8	-25.8	17.5	0.00e+00	0	43	0	1752170496	10	4029
2026-01-17 09:56:57.32	23.57	16.45	-24.7	-25.5	17.7	0.00e+00	0	43	0	1757413376	10	3950
2026-01-17 09:56:58.32	23.36	16.42	-24.8	-25.7	17.6	0.00e+00	0	43	0	1762656256	10	3986
2026-01-17 09:56:59.32	23.14	16.40	-24.9	-26.0	17.4	0.00e+00	0	43	0	1768947712	10	4065
2026-01-17 09:57:00.32	22.92	16.37	-24.9	-25.9	17.5	0.00e+00	0	43	0	1774190592	10	4042
2026-01-17 09:57:01.33	22.71	16.35	-24.9	-26.0	17.4	0.00e+00	0	43	0	1779433472	10	4070
2026-01-17 09:57:02.33	22.49	16.32	-24.6	-25.4	17.7	0.00e+00	0	43	0	1785724928	10	3924
2026-01-17 09:57:03.33	22.28	16.29	-24.6	-25.3	17.8	0.00e+00	0	43	0	1790967808	10	3911
2026-01-17 09:57:04.32	22.06	16.26	-24.7	-25.6	17.6	0.00e+00	0	43	0	1796210688	10	3976
2026-01-17 09:57:05.32	21.85	16.24	-24.8	-25.7	17.6	0.00e+00	0	43	0	1802502144	10	3995
2026-01-17 09:57:06.33	21.64	16.21	-25.0	-26.1	17.4	0.00e+00	0	43	0	1807745024	10	4092
2026-01-17 09:57:07.32	21.42	16.18	-25.1	-26.5	17.2	0.00e+00	0	43	0	1814036480	10	4199
2026-01-17 09:57:08.32	21.21	16.15	-25.1	-26.3	17.2	0.00e+00	0	43	0	1819279360	10	4159
2026-01-17 09:57:09.32	21.00	16.12	-24.9	-26.0	17.4	0.00e+00	0	43	0	1824522240	10	4070
2026-01-17 09:57:10.33	20.79	16.09	-24.9	-26.0	17.4	0.00e+00	0	43	0	1830813696	10	4061
2026-01-17 09:57:11.32	20.58	16.06	-24.9	-26.0	17.4	0.00e+00	0	43	0	1836056576	10	4067
2026-01-17 09:57:12.32	20.37	16.03	-25.2	-26.6	17.0	0.00e+00	0	43	0	1841299456	10	4238
2026-01-17 09:57:13.32	20.16	16.00	-25.1	-26.3	17.2	0.00e+00	0	43	0	1847590912	10	4159
2026-01-17 09:57:14.33	19.94	15.97	-25.1	-26.4	17.1	0.00e+00	0	43	0	1852833792	10	4179
2026-01-17 09:57:15.33	19.73	15.93	-25.0	-26.2	17.2	0.00e+00	0	43	0	1858076672	10	4128
2026-01-17 09:57:16.33	19.53	15.90	-25.0	-26.2	17.3	0.00e+00	0	43	0	1864368128	10	4130
2026-01-17 09:57:17.33	19.32	15.87	-24.8	-25.7	17.5	0.00e+00	0	43	0	1869611008	10	3996
2026-01-17 09:57:18.33	19.11	15.84	-24.7	-25.6	17.5	0.00e+00	0	43	0	1875902464	10	3979
2026-01-17 09:57:19.33	18.90	15.80	-24.8	-25.8	17.4	0.00e+00	0	43	0	1881145344	10	4037
2026-01-17 09:57:20.34	18.69	15.77	-24.9	-25.9	17.4	0.00e+00	0	43	0	1886388224	10	4051
2026-01-17 09:57:21.33	18.49	15.74	-24.9	-26.0	17.4	0.00e+00	0	43	0	1892679680	10	4072
2026-01-17 09:57:22.33	18.28	15.70	-25.0	-26.1	17.3	0.00e+00	0	43	0	1897922560	10	4099
2026-01-17 09:57:23.34	18.07	15.67	-25.0	-26.3	17.2	0.00e+00	0	43	0	1903165440	10	4150
2026-01-17 09:57:24.34	17.87	15.63	-25.1	-26.4	17.2	0.00e+00	0	43	0	1909456896	10	4169
2026-01-17 09:57:25.34	17.66	15.60	-25.1	-26.3	17.2	0.00e+00	0	43	0	1914699776	10	4162
2026-01-17 09:57:26.34	17.46	15.56	-25.0	-26.3	17.2	0.00e+00	0	43	0	1919942656	10	4144
2026-01-17 09:57:27.33	17.26	15.53	-25.1	-26.4	17.2	0.00e+00	0	43	0	1926234112	10	4171
2026-01-17 09:57:28.34	17.05	15.49	-25.1	-26.4	17.1	0.00e+00	0	43	0	1931476992	10	4174
2026-01-17 09:57:29.34	16.85	15.45	-25.2	-26.5	17.0	0.00e+00	0	43	0	1937768448	10	4215
2026-01-17 09:57:30.34	16.65	15.42	-25.1	-26.4	17.1	0.00e+00	0	43	0	1943011328	10	4174
2026-01-17 09:57:31.33	16.45	15.38	-25.1	-26.5	17.1	0.00e+00	0	43	0	1948254208	10	4193
2026-01-17 09:57:32.33	16.25	15.34	-25.2	-26.7	17.0	0.00e+00	0	43	0	1954545664	10	4262
2026-01-17 09:57:33.34	16.04	15.31	-25.2	-26.6	17.0	0.00e+00	0	43	0	1959788544	10	4234
2026-01-17 09:57:34.35	15.84	15.27	-25.1	-26.4	17.1	0.00e+00	0	43	0	1965031424	10	4184
2026-01-17 09:57:35.35	15.64	15.23	-25.2	-26.5	17.0	0.00e+00	0	43	0	1971322880	10	4206
2026-01-17 09:57:36.35	15.44	15.19	-25.1	-26.5	17.1	0.00e+00	0	43	0	1976565760	10	4195
2026-01-17 09:57:37.35	15.24	15.15	-25.0	-26.2	17.2	0.00e+00	0	43	0	1982857216	10	4113
2026-01-17 09:57:38.35	15.05	15.11	-25.1	-26.4	17.1	0.00e+00	0	43	0	1988100096	10	4176
2026-01-17 09:57:39.35	14.85	15.07	-25.2	-26.6	17.0	0.00e+00	0	43	0	1993342976	10	4225
2026-01-17 09:57:40.35	14.65	15.04	-25.2	-26.7	16.9	0.00e+00	0	43	0	1999634432	10	4257
2026-01-17 09:57:41.35	14.45	15.00	-25.3	-26.8	16.9	0.00e+00	0	43	0	2004877312	10	4276
2026-01-17 09:57:42.36	14.26	14.95	-25.2	-26.6	17.0	0.00e+00	0	43	0	2011168768	10	4235
2026-01-17 09:57:43.36	14.06	14.91	-25.3	-26.9	16.8	0.00e+00	0	43	0	2016411648	10	4304
2026-01-17 09:57:44.36	13.87	14.87	-25.3	-26.8	16.9	0.00e+00	0	43	0	2021654528	10	4291
2026-01-17 09:57:45.36	13.67	14.83	-25.1	-26.4	17.1	0.00e+00	0	43	0	2027945984	10	4178
2026-01-17 09:57:46.36	13.48	14.79	-25.1	-26.3	17.1	0.00e+00	0	43	0	2033188864	10	4163
2026-01-17 09:57:47.37	13.28	14.75	-25.2	-26.6	17.0	0.00e+00	0	43	0	2038431744	10	4226
2026-01-17 09:57:48.37	13.09	14.71	-25.2	-26.7	16.9	0.00e+00	0	43	0	2044723200	10	4264
2026-01-17 09:57:49.37	12.90	14.67	-25.2	-26.5	17.0	0.00e+00	0	43	0	2049966080	10	4212
2026-01-17 09:57:50.37	12.71	14.62	-25.2	-26.5	17.0	0.00e+00	0	43	0	2055208960	10	4217
2026-01-17 09:57:51.37	12.51	14.58	-25.2	-26.7	16.9	0.00e+00	0	43	0	2061500416	10	4249
2026-01-17 09:57:52.38	12.32	14.54	-25.3	-26.9	16.8	0.00e+00	0	43	0	2066743296	10	4313
2026-01-17 09:57:53.38	12.13	14.50	-25.3	-26.9	16.8	0.00e+00	0	43	0	2073034752	10	4320
2026-01-17 09:57:54.38	11.94	14.45	-25.3	-26.8	16.8	0.00e+00	0	43	0	2078277632	10	4294
2026-01-17 09:57:55.37	11.76	14.41	-25.4	-27.0	16.8	0.00e+00	0	43	0	2083520512	10	4325
2026-01-17 09:57:56.37	11.57	14.37	-25.2	-26.7	16.9	0.00e+00	0	43	0	2089811968	10	4257
2026-01-17 09:57:57.37	11.38	14.32	-25.5	-27.2	16.6	0.00e+00	0	43	0	2095054848	10	4377
2026-01-17 09:57:58.38	11.19	14.28	-25.6	-26.9	16.5	0.00e+00	0	43	0	2100297728	11	4198
2026-01-17 09:57:59.37	11.01	14.23	-25.6	-27.0	16.5	0.00e+00	0	43	0	2106589184	11	4217
2026-01-17 09:58:00.38	10.82	14.19	-25.7	-27.1	16.4	0.00e+00	0	43	0	2111832064	11	4259
2026-01-17 09:58:01.38	10.63	14.14	-25.8	-27.4	16.3	0.00e+00	0	43	0	2117074944	11	4326
2026-01-17 09:58:02.38	10.45	14.10	-25.7	-27.3	16.3	0.00e+00	0	43	0	2123366400	11	4300
2026-01-17 09:58:03.39	10.26	14.05	-25.5	-26.7	16.6	0.00e+00	0	43	0	2128609280	11	4146
2026-01-17 09:58:04.39	10.08	14.01	-25.5	-26.8	16.5	0.00e+00	0	43	0	2134900736	11	4189
2026-01-17 09:58:05.39	9.90	13.96	-25.5	-26.8	16.6	0.00e+00	0	43	0	2140143616	11	4167
2026-01-17 09:58:06.40	9.71	13.92	-25.4	-26.6	16.7	0.00e+00	0	43	0	2146435072	11	4123
2026-01-17 09:58:07.41	9.53	13.87	-25.3	-26.4	16.8	0.00e+00	0	43	0	2151677952	11	4068
2026-01-17 09:58:08.41	9.35	13.82	-25.5	-26.8	16.5	0.00e+00	0	43	0	2156920832	11	4180
2026-01-17 09:58:09.41	9.16	13.78	-25.5	-26.8	16.5	0.00e+00	0	43	0	2163212288	11	4174
2026-01-17 09:58:10.41	8.98	13.73	-25.6	-27.0	16.4	0.00e+00	0	43	0	2168455168	11	4238
2026-01-17 09:58:11.42	8.80	13.68	-25.6	-27.1	16.4	0.00e+00	0	43	0	2173698048	11	4245
2026-01-17 09:58:12.41	8.63	13.64	-25.7	-27.2	16.3	0.00e+00	0	43	0	2179989504	11	4272
2026-01-17 09:58:13.41	8.45	13.59	-25.6	-27.0	16.4	0.00e+00	0	43	0	2185232384	11	4221
2026-01-17 09:58:14.41	8.27	13.54	-25.6	-27.0	16.4	0.00e+00	0	43	0	2190475264	11	4223
2026-01-17 09:58:15.41	8.09	13.50	-25.8	-27.4	16.2	0.00e+00	0	43	0	2196766720	11	4338
2026-01-17 09:58:16.41	7.91	13.45	-25.7	-27.2	16.3	0.00e+00	0	43	0	2202009600	11	4294
2026-01-17 09:58:17.41	7.74	13.40	-25.9	-27.7	16.0	0.00e+00	0	43	0	2208301056	11	4419
2026-01-17 09:58:18.41	7.56	13.35	-26.0	-27.3	15.9	0.00e+00	0	43	0	2213543936	12	4196
2026-01-17 09:58:19.40	7.39	13.30	-25.7	-26.7	16.2	0.00e+00	0	43	0	2218786816	12	4047
2026-01-17 09:58:20.40	7.22	13.26	-25.6	-26.6	16.3	0.00e+00	0	43	0	2225078272	12	4021
2026-01-17 09:58:21.40	7.04	13.21	-25.6	-26.5	16.3	0.00e+00	0	43	0	2230321152	12	3980
2026-01-17 09:58:22.40	6.87	13.16	-25.7	-26.6	16.3	0.00e+00	0	43	0	2235564032	12	4021
2026-01-17 09:58:23.39	6.70	13.11	-26.0	-27.3	15.9	0.00e+00	0	43	0	2241855488	12	4196
2026-01-17 09:58:24.40	6.52	13.06	-25.7	-26.7	16.2	0.00e+00	0	43	0	2247098368	12	4056
2026-01-17 09:58:25.40	6.35	13.01	-25.9	-27.2	15.9	0.00e+00	0	43	0	2253389824	12	4180
2026-01-17 09:58:26.40	6.18	12.96	-25.8	-26.9	16.1	0.00e+00	0	43	0	2258632704	12	4110
2026-01-17 09:58:27.39	6.01	12.91	-25.6	-26.5	16.3	0.00e+00	0	43	0	2263875584	12	3997
2026-01-17 09:58:28.39	5.84	12.86	-25.5	-26.3	16.4	0.00e+00	0	43	0	2269118464	12	3956
2026-01-17 09:58:29.40	5.67	12.81	-25.6	-26.4	16.3	0.00e+00	0	43	0	2275409920	12	3981
2026-01-17 09:58:30.40	5.50	12.76	-25.5	-26.4	16.4	0.00e+00	0	43	0	2280652800	12	3960
2026-01-17 09:58:31.40	5.33	12.71	-25.5	-26.2	16.4	0.00e+00	0	43	0	2286944256	12	3929
2026-01-17 09:58:32.40	5.17	12.66	-25.4	-26.1	16.5	0.00e+00	0	43	0	2292187136	12	3903
2026-01-17 09:58:33.40	5.00	12.61	-25.7	-26.8	16.1	0.00e+00	0	43	0	2297430016	12	4080
2026-01-17 09:58:34.39	4.84	12.56	-25.7	-26.7	16.2	0.00e+00	0	43	0	2303721472	12	4043
2026-01-17 09:58:35.40	4.67	12.51	-25.7	-26.8	16.1	0.00e+00	0	43	0	2308964352	12	4065
2026-01-17 09:58:36.41	4.50	12.46	-26.0	-27.4	15.8	0.00e+00	0	43	0	2315255808	12	4238
2026-01-17 09:58:37.41	4.34	12.41	-26.4	-27.7	15.3	1.10e-06	0	43	0	2320498688	13	4208
2026-01-17 09:58:38.41	4.17	12.36	-26.6	-28.3	15.0	0.00e+00	0	43	0	2325741568	13	4356
2026-01-17 09:58:39.41	4.01	12.31	-26.6	-28.2	15.0	1.10e-06	0	43	0	2332033024	13	4343
2026-01-17 09:58:40.42	3.84	12.26	-26.5	-27.9	15.2	0.00e+00	0	43	0	2337275904	13	4258
2026-01-17 09:58:41.42	3.68	12.20	-26.1	-27.0	15.7	0.00e+00	0	43	0	2342518784	13	4026
2026-01-17 09:58:42.42	3.52	12.15	-26.4	-27.8	15.2	0.00e+00	0	43	0	2348810240	13	4230
2026-01-17 09:58:43.42	3.36	12.10	-26.3	-27.6	15.3	0.00e+00	0	43	0	2354053120	13	4179
2026-01-17 09:58:44.42	3.20	12.05	-26.6	-28.3	15.0	0.00e+00	0	43	0	2359296000	13	4350
2026-01-17 09:58:45.42	3.04	12.00	-26.4	-27.9	15.2	0.00e+00	0	43	0	2365587456	13	4248
2026-01-17 09:58:46.42	2.88	11.95	-26.1	-27.2	15.5	0.00e+00	0	43	0	2370830336	13	4070
2026-01-17 09:58:47.42	2.72	11.89	-26.1	-27.0	15.7	0.00e+00	0	43	0	2377121792	13	4018
2026-01-17 09:58:48.41	2.56	11.84	-25.8	-26.9	16.0	0.00e+00	0	43	0	2382364672	12	4093
2026-01-17 09:58:49.42	2.41	11.79	-26.0	-27.3	15.8	0.00e+00	0	43	0	2387607552	12	4204
2026-01-17 09:58:50.42	2.25	11.74	-26.1	-27.6	15.6	0.00e+00	0	43	0	2393899008	12	4289
2026-01-17 09:58:51.42	2.09	11.68	-26.3	-28.0	15.4	0.00e+00	0	43	0	2399141888	12	4393
2026-01-17 09:58:52.42	1.94	11.63	-26.2	-27.8	15.5	0.00e+00	0	43	0	2404384768	12	4351
2026-01-17 09:58:53.43	1.78	11.58	-26.3	-28.2	15.3	0.00e+00	0	43	0	2410676224	12	4451
2026-01-17 09:58:54.43	1.62	11.53	-26.2	-27.9	15.4	0.00e+00	0	43	0	2415919104	12	4369
2026-01-17 09:58:55.43	1.47	11.47	-26.2	-27.8	15.5	1.10e-06	0	43	0	2421161984	12	4343
2026-01-17 09:58:56.43	1.32	11.42	-26.1	-27.7	15.6	0.00e+00	0	43	0	2427453440	12	4306
2026-01-17 09:58:57.44	1.16	11.37	-26.1	-27.7	15.5	0.00e+00	0	43	0	2432696320	12	4303
2026-01-17 09:58:58.44	1.01	11.31	-26.3	-28.0	15.4	0.00e+00	0	43	0	2438987776	12	4391
2026-01-17 09:58:59.44	0.86	11.26	-26.3	-28.1	15.3	0.00e+00	0	43	0	2444230656	12	4426
2026-01-17 09:59:00.44	0.71	11.21	-26.2	-27.9	15.4	0.00e+00	0	43	0	2449473536	12	4368
2026-01-17 09:59:01.44	0.55	11.15	-26.5	-28.5	15.1	0.00e+00	0	43	0	2455764992	12	4537
2026-01-17 09:59:02.45	0.40	11.10	-26.2	-27.9	15.4	0.00e+00	0	43	0	2461007872	12	4364
2026-01-17 09:59:03.45	0.25	11.05	-26.5	-28.0	15.1	0.00e+00	0	43	0	2467299328	13	4274
2026-01-17 09:59:04.45	0.10	10.99	-27.0	-29.1	14.5	0.00e+00	0	43	0	2472542208	13	4581
2026-01-17 09:59:05.45	359.96	10.94	-27.1	-28.9	14.3	9.10e-06	0	43	0	2477785088	14	4408
2026-01-17 09:59:06.46	359.81	10.89	-26.6	-27.7	15.0	0.00e+00	0	43	0	2484076544	14	4097
2026-01-17 09:59:07.46	359.66	10.83	-26.8	-28.2	14.7	1.10e-06	0	43	0	2489319424	14	4224
2026-01-17 09:59:08.46	359.51	10.78	-27.0	-28.5	14.5	1.10e-06	0	43	0	2494562304	14	4324
2026-01-17 09:59:09.47	359.36	10.72	-27.0	-28.6	14.5	2.20e-06	0	43	0	2500853760	14	4325
2026-01-17 09:59:10.47	359.22	10.67	-27.0	-28.7	14.3	2.20e-06	0	43	0	2506096640	14	4377
2026-01-17 09:59:11.47	359.07	10.62	-27.3	-29.3	14.0	3.40e-06	0	43	0	2512388096	14	4555
2026-01-17 09:59:12.47	358.93	10.56	-26.9	-28.3	14.6	2.20e-06	0	43	0	2517630976	14	4255
2026-01-17 09:59:13.48	358.78	10.51	-26.7	-28.1	14.7	0.00e+00	0	43	0	2522873856	14	4202
2026-01-17 09:59:14.49	358.64	10.45	-26.8	-28.3	14.6	0.00e+00	0	43	0	2529165312	14	4259
2026-01-17 09:59:15.48	358.50	10.40	-26.7	-28.1	14.7	1.10e-06	0	43	0	2534408192	14	4192
2026-01-17 09:59:16.48	358.35	10.34	-26.7	-28.1	14.7	1.10e-06	0	43	0	2539651072	14	4197
2026-01-17 09:59:17.47	358.21	10.29	-26.7	-28.1	14.7	0.00e+00	0	43	0	2545942528	14	4200
2026-01-17 09:59:18.47	358.07	10.24	-27.0	-28.6	14.4	1.10e-06	0	43	0	2551185408	14	4331
2026-01-17 09:59:19.48	357.93	10.18	-27.1	-28.8	14.3	1.10e-06	0	43	0	2556428288	14	4404
2026-01-17 09:59:20.48	357.79	10.13	-26.8	-28.1	14.7	1.10e-06	0	43	0	2562719744	14	4213
2026-01-17 09:59:21.49	357.65	10.07	-26.5	-27.5	15.0	0.00e+00	0	43	0	2567962624	14	4044
2026-01-17 09:59:22.49	357.51	10.02	-26.2	-27.4	15.3	0.00e+00	0	43	0	2574254080	13	4115
2026-01-17 09:59:23.49	357.37	9.96	-26.3	-27.5	15.3	0.00e+00	0	43	0	2579496960	13	4159
2026-01-17 09:59:24.49	357.23	9.91	-26.5	-28.0	15.0	0.00e+00	0	43	0	2584739840	13	4282
2026-01-17 09:59:25.49	357.09	9.85	-26.4	-27.9	15.1	0.00e+00	0	43	0	2591031296	13	4247
2026-01-17 09:59:26.50	356.95	9.80	-26.4	-27.7	15.2	0.00e+00	0	43	0	2596274176	13	4212
2026-01-17 09:59:27.50	356.82	9.74	-26.6	-28.3	14.8	0.00e+00	0	43	0	2602565632	13	4359
2026-01-17 09:59:28.50	356.68	9.69	-26.8	-28.6	14.6	1.10e-06	0	43	0	2607808512	13	4458
2026-01-17 09:59:29.51	356.55	9.63	-26.6	-28.3	14.8	0.00e+00	0	43	0	2613051392	13	4357
2026-01-17 09:59:30.51	356.41	9.58	-26.5	-28.1	15.0	2.20e-06	0	43	0	2619342848	13	4309
2026-01-17 09:59:31.51	356.28	9.52	-26.6	-28.3	14.8	0.00e+00	0	43	0	2624585728	13	4383
2026-01-17 09:59:32.51	356.14	9.47	-26.4	-27.7	15.1	0.00e+00	0	43	0	2629828608	13	4215
2026-01-17 09:59:33.51	356.01	9.41	-26.5	-28.0	14.9	0.00e+00	0	43	0	2636120064	13	4289
2026-01-17 09:59:34.51	355.87	9.36	-26.5	-28.0	14.9	0.00e+00	0	43	0	2641362944	13	4282
2026-01-17 09:59:35.52	355.74	9.30	-26.6	-28.3	14.8	0.00e+00	0	43	0	2647654400	13	4377
2026-01-17 09:59:36.52	355.61	9.25	-26.6	-28.3	14.8	0.00e+00	0	43	0	2652897280	13	4378
2026-01-17 09:59:37.52	355.48	9.19	-26.7	-28.5	14.6	0.00e+00	0	43	0	2658140160	13	4438
2026-01-17 09:59:38.52	355.35	9.14	-26.8	-28.7	14.5	0.00e+00	0	43	0	2664431616	13	4477
2026-01-17 09:59:39.52	355.22	9.08	-27.1	-29.0	14.1	2.20e-06	0	43	0	2669674496	14	4458
2026-01-17 09:59:40.53	355.09	9.03	-27.0	-28.7	14.2	2.20e-06	0	43	0	2674917376	14	4385
2026-01-17 09:59:41.53	354.96	8.97	-27.2	-29.2	13.9	9.10e-06	0	43	0	2681208832	14	4531
2026-01-17 09:59:42.54	354.83	8.91	-26.9	-28.5	14.3	1.10e-06	0	43	0	2686451712	14	4322
2026-01-17 09:59:43.54	354.70	8.86	-26.8	-28.2	14.5	1.10e-06	0	43	0	2691694592	14	4240
2026-01-17 09:59:44.54	354.57	8.80	-27.0	-28.6	14.3	1.10e-06	0	43	0	2697986048	14	4345
2026-01-17 09:59:45.55	354.44	8.75	-26.8	-28.2	14.5	2.20e-06	0	43	0	2703228928	14	4246
2026-01-17 09:59:46.55	354.31	8.69	-26.8	-28.1	14.6	2.20e-06	0	43	0	2709520384	14	4212
2026-01-17 09:59:47.55	354.19	8.64	-26.7	-27.9	14.7	1.10e-06	0	43	0	2714763264	14	4153
2026-01-17 09:59:48.56	354.06	8.58	-26.8	-28.2	14.5	0.00e+00	0	43	0	2721054720	14	4235
2026-01-17 09:59:49.56	353.93	8.53	-27.0	-28.7	14.2	1.10e-06	0	43	0	2726297600	14	4388
2026-01-17 09:59:50.56	353.81	8.47	-26.8	-28.3	14.4	0.00e+00	0	43	0	2731540480	14	4272
2026-01-17 09:59:51.55	353.69	8.42	-27.0	-28.8	14.2	3.40e-06	0	43	0	2737831936	14	4393
2026-01-17 09:59:52.56	353.56	8.36	-27.0	-28.7	14.2	1.10e-06	0	43	0	2743074816	14	4378
2026-01-17 09:59:53.56	353.44	8.31	-27.0	-28.6	14.2	2.20e-06	0	43	0	2748317696	14	4363
2026-01-17 09:59:54.56	353.31	8.25	-27.1	-28.9	14.1	1.10e-06	0	43	0	2754609152	14	4438
2026-01-17 09:59:55.57	353.19	8.19	-26.9	-28.4	14.3	6.80e-06	0	43	0	2759852032	14	4308
2026-01-17 09:59:56.58	353.07	8.14	-27.1	-28.9	14.0	1.10e-06	0	43	0	2765094912	14	4428
2026-01-17 09:59:57.58	352.95	8.08	-27.3	-29.4	13.7	8.00e-06	0	43	0	2771386368	14	4600
2026-01-17 09:59:58.58	352.82	8.03	-27.2	-29.2	13.8	8.00e-06	0	43	0	2776629248	14	4545
2026-01-17 09:59:59.58	352.70	7.97	-27.3	-29.5	13.7	2.17e-05	0	43	0	2782920704	14	4608
2026-01-17 10:00:00.58	352.58	7.92	-27.3	-28.9	13.7	1.37e-05	0	43	0	2788163584	15	4334
2026-01-17 10:00:01.59	352.46	7.86	-26.8	-27.9	14.3	5.70e-06	0	43	0	2793406464	15	4046
2026-01-17 10:00:02.58	352.35	7.81	-26.8	-27.7	14.4	4.50e-06	0	43	0	2799697920	15	4011
2026-01-17 10:00:03.58	352.23	7.75	-27.0	-28.8	14.1	3.40e-06	0	43	0	2804940800	14	4413
2026-01-17 10:00:04.59	352.11	7.70	-26.9	-28.4	14.3	8.00e-06	0	43	0	2810183680	14	4292
2026-01-17 10:00:05.59	351.99	7.64	-27.0	-28.7	14.1	2.20e-06	0	43	0	2816475136	14	4388
2026-01-17 10:00:06.59	351.87	7.58	-27.0	-28.8	14.0	3.40e-06	0	43	0	2821718016	14	4417
2026-01-17 10:00:07.60	351.75	7.53	-27.0	-28.7	14.1	3.40e-06	0	43	0	2828009472	14	4387
2026-01-17 10:00:08.60	351.64	7.47	-27.0	-28.7	14.1	4.50e-06	0	43	0	2833252352	14	4376
2026-01-17 10:00:09.60	351.52	7.42	-27.0	-28.8	14.0	4.50e-06	0	43	0	2838495232	14	4422
2026-01-17 10:00:10.60	351.41	7.36	-26.8	-28.3	14.3	1.10e-06	0	43	0	2844786688	14	4265
2026-01-17 10:00:11.60	351.29	7.31	-27.0	-28.7	14.1	2.20e-06	0	43	0	2850029568	14	4373
2026-01-17 10:00:12.61	351.17	7.25	-27.1	-28.9	14.0	6.80e-06	0	43	0	2856321024	14	4440
2026-01-17 10:00:13.61	351.06	7.20	-27.1	-29.0	13.9	6.80e-06	0	43	0	2861563904	14	4483
2026-01-17 10:00:14.62	350.95	7.14	-27.1	-29.0	13.9	6.80e-06	0	43	0	2866806784	14	4462
2026-01-17 10:00:15.61	350.83	7.09	-27.1	-28.9	13.9	5.70e-06	0	43	0	2873098240	14	4449
2026-01-17 10:00:16.61	350.72	7.03	-32.9	-43.4	3.8	3.42e-01	0	43	0	2877292544	25	12038
2026-01-17 10:00:17.62	350.61	6.97	-33.2	-44.3	3.8	8.45e-01	0	43	104	2877292544	26	12882
2026-01-17 10:00:18.62	350.50	6.92	-33.5	-44.6	3.8	8.46e-01	0	43	104	2877292544	27	12882
2026-01-17 10:00:19.62	350.38	6.86	-33.7	-44.9	3.8	8.46e-01	0	43	104	2877292544	27	13074

#Closed at: 2026-01-17 10:00:20
#Recorded file [2877 MB]: D:/data/31010_260117_125144.dat