passes_logs/2026/01/17/R2M6_AANII_01/R2M6_AANII_01__20260117_103017_SUOMI_NPP_rec.log

#Pass ID: 20260117_103017_SUOMI NPP
#Satellite: SUOMI NPP
#Configuration: NPP
#almurnet v.1.7.20240730
#Start time: 2026-01-17 10:30:18

#Version: 2.2.20231116
#Station: R2M6_AANII_01
#Location: 30.233357 lon 59.946436 lat
#TLE: 1 37849U 11061A   26016.23176763  .00000061  00000+0  49926-4 0  9990
#TLE: 2 37849  98.7812 318.2698 0002434  61.5135 298.6286 14.19525545736883

#Time	Az	El	Level	Level2	SNR	BER	BlckErr	Temp	State	Recorded	gain1	gain2
2026-01-17 10:30:18.04	163.57	7.01	-32.0	-38.3	4.3	1.43e+00	0	41	0	0	25	7403
2026-01-17 10:30:19.04	163.58	7.09	-31.7	-37.0	4.7	1.38e+00	0	41	104	0	24	6572
2026-01-17 10:30:20.05	163.60	7.17	-31.9	-37.5	6.3	2.62e-01	0	41	0	0	24	6855
2026-01-17 10:30:21.05	163.61	7.25	-31.9	-37.5	6.3	2.61e-01	0	41	0	1048576	24	6858
2026-01-17 10:30:22.05	163.62	7.33	-31.8	-37.1	6.5	2.86e-01	0	41	0	3145728	24	6605
2026-01-17 10:30:23.06	163.63	7.40	-31.8	-37.1	6.6	1.69e-01	0	41	0	5242880	24	6639
2026-01-17 10:30:24.06	163.64	7.48	-32.0	-38.0	6.0	2.96e-01	0	41	0	7340032	24	7168
2026-01-17 10:30:25.07	163.65	7.56	-31.8	-37.2	6.6	2.34e-01	0	41	0	9437184	24	6651
2026-01-17 10:30:26.06	163.66	7.64	-31.7	-36.7	6.9	2.21e-01	0	41	0	10485760	24	6369
2026-01-17 10:30:27.07	163.67	7.72	-31.6	-35.8	7.6	1.59e-01	0	41	0	12582912	24	5859
2026-01-17 10:30:28.07	163.68	7.80	-31.4	-35.3	8.0	7.24e-02	0	41	0	14680064	24	5621
2026-01-17 10:30:29.06	163.70	7.88	-31.4	-35.4	8.3	4.39e-02	0	41	0	16777216	23	5744
2026-01-17 10:30:30.07	163.71	7.96	-31.3	-35.3	8.4	5.71e-02	0	41	0	17825792	23	5669
2026-01-17 10:30:31.07	163.72	8.04	-31.3	-35.3	8.4	3.49e-02	0	41	0	19922944	23	5692
2026-01-17 10:30:32.06	163.73	8.12	-31.3	-35.2	8.4	5.69e-02	0	41	0	22020096	23	5648
2026-01-17 10:30:33.06	163.74	8.20	-31.2	-34.9	8.7	3.80e-02	0	41	0	24117248	23	5489
2026-01-17 10:30:34.06	163.75	8.28	-31.5	-35.8	8.1	4.25e-02	0	41	0	26214400	23	5923
2026-01-17 10:30:35.07	163.77	8.37	-31.2	-34.7	8.9	4.74e-02	0	41	0	27262976	23	5389
2026-01-17 10:30:36.07	163.78	8.45	-31.1	-34.4	9.1	3.29e-02	0	41	0	29360128	23	5272
2026-01-17 10:30:37.07	163.79	8.53	-31.2	-34.8	8.8	2.95e-02	0	41	0	31457280	23	5458
2026-01-17 10:30:38.07	163.80	8.61	-31.2	-34.6	8.9	3.05e-02	0	41	0	33554432	23	5355
2026-01-17 10:30:39.07	163.81	8.70	-31.4	-35.5	8.3	2.65e-02	0	41	0	35651584	23	5744
2026-01-17 10:30:40.07	163.82	8.78	-31.2	-34.5	9.1	4.00e-02	0	42	0	36700160	23	5281
2026-01-17 10:30:41.07	163.84	8.86	-31.3	-35.1	8.6	2.40e-02	0	41	0	38797312	23	5589
2026-01-17 10:30:42.07	163.85	8.95	-31.5	-35.7	8.1	5.99e-02	0	41	0	40894464	23	5875
2026-01-17 10:30:43.08	163.86	9.03	-31.3	-35.1	8.6	4.23e-02	0	41	0	42991616	23	5577
2026-01-17 10:30:44.08	163.87	9.11	-31.3	-35.0	8.7	3.50e-02	0	42	0	45088768	23	5532
2026-01-17 10:30:45.08	163.89	9.20	-31.4	-35.5	8.4	3.43e-02	0	41	0	46137344	23	5764
2026-01-17 10:30:46.08	163.90	9.28	-31.4	-35.6	8.3	4.48e-02	0	42	0	48234496	23	5793
2026-01-17 10:30:47.08	163.91	9.37	-31.3	-35.2	8.6	3.97e-02	0	42	0	50331648	23	5602
2026-01-17 10:30:48.08	163.92	9.45	-31.3	-35.2	8.7	3.20e-02	0	42	0	52428800	23	5607
2026-01-17 10:30:49.09	163.93	9.54	-31.4	-35.5	8.4	5.27e-02	0	42	0	53477376	23	5747
2026-01-17 10:30:50.09	163.95	9.62	-31.3	-34.9	8.8	3.12e-02	0	42	0	55574528	23	5488
2026-01-17 10:30:51.09	163.96	9.71	-31.3	-34.9	8.8	3.82e-02	0	42	0	57671680	23	5459
2026-01-17 10:30:52.10	163.97	9.80	-31.3	-35.0	8.8	2.60e-02	0	42	0	59768832	23	5491
2026-01-17 10:30:53.11	163.99	9.89	-31.4	-35.4	8.5	3.28e-02	0	42	0	61865984	23	5690
2026-01-17 10:30:54.11	164.00	9.97	-31.2	-34.5	9.2	3.67e-02	0	42	0	62914560	23	5267
2026-01-17 10:30:55.11	164.01	10.06	-31.1	-34.2	9.4	1.96e-02	0	42	0	65011712	23	5152
2026-01-17 10:30:56.11	164.02	10.15	-30.8	-33.6	10.2	1.02e-02	0	42	0	67108864	22	4990
2026-01-17 10:30:57.11	164.04	10.24	-30.8	-33.7	10.2	5.00e-03	0	42	0	69206016	22	5035
2026-01-17 10:30:58.11	164.05	10.32	-30.8	-33.8	10.1	5.67e-03	0	42	0	71303168	22	5055
2026-01-17 10:30:59.12	164.06	10.41	-30.7	-33.2	10.5	5.33e-03	0	42	0	72351744	22	4845
2026-01-17 10:31:00.12	164.08	10.50	-30.6	-33.2	10.5	3.91e-03	0	42	0	74448896	22	4832
2026-01-17 10:31:01.13	164.09	10.59	-30.8	-33.6	10.2	3.48e-03	0	42	0	76546048	22	4992
2026-01-17 10:31:02.13	164.10	10.68	-30.7	-33.2	10.6	2.76e-03	0	42	0	78643200	22	4818
2026-01-17 10:31:03.12	164.12	10.77	-30.7	-33.5	10.4	4.20e-03	0	42	0	80740352	22	4941
2026-01-17 10:31:04.13	164.13	10.86	-30.7	-33.3	10.5	3.16e-03	0	42	0	81788928	22	4870
2026-01-17 10:31:05.13	164.14	10.95	-30.6	-33.1	10.7	2.60e-03	0	42	0	83886080	22	4784
2026-01-17 10:31:06.13	164.16	11.04	-30.9	-33.8	10.2	4.18e-03	0	42	0	85983232	22	5043
2026-01-17 10:31:07.14	164.17	11.13	-30.7	-33.2	10.7	3.11e-03	0	42	0	88080384	22	4819
2026-01-17 10:31:08.14	164.18	11.23	-30.6	-32.9	10.9	2.88e-03	0	42	0	90177536	22	4693
2026-01-17 10:31:09.14	164.20	11.32	-30.7	-33.2	10.7	2.87e-03	0	42	0	91226112	22	4810
2026-01-17 10:31:10.14	164.21	11.41	-30.7	-33.3	10.6	3.65e-03	0	42	0	93323264	22	4829
2026-01-17 10:31:11.14	164.22	11.50	-30.6	-32.8	11.0	3.47e-03	0	42	0	95420416	22	4652
2026-01-17 10:31:12.14	164.24	11.60	-30.8	-33.4	10.5	3.18e-03	0	42	0	97517568	22	4886
2026-01-17 10:31:13.14	164.25	11.69	-30.6	-32.9	10.9	2.46e-03	0	42	0	99614720	22	4689
2026-01-17 10:31:14.14	164.27	11.78	-30.7	-33.0	10.8	2.75e-03	0	42	0	100663296	22	4739
2026-01-17 10:31:15.15	164.28	11.88	-30.6	-32.9	11.0	1.58e-03	0	42	0	102760448	22	4660
2026-01-17 10:31:16.14	164.29	11.97	-30.6	-32.9	10.9	2.22e-03	0	42	0	104857600	22	4691
2026-01-17 10:31:17.15	164.31	12.07	-30.4	-32.1	11.5	1.47e-03	0	42	0	106954752	22	4394
2026-01-17 10:31:18.16	164.32	12.16	-30.4	-32.3	11.3	8.93e-04	0	42	0	108003328	22	4476
2026-01-17 10:31:19.16	164.34	12.26	-30.2	-32.2	11.8	5.39e-04	0	42	0	110100480	21	4503
2026-01-17 10:31:20.17	164.35	12.35	-30.1	-31.9	12.0	2.81e-04	0	42	0	112197632	21	4424
2026-01-17 10:31:21.17	164.37	12.45	-30.2	-32.0	11.9	3.27e-04	0	42	0	114294784	21	4445
2026-01-17 10:31:22.17	164.38	12.55	-29.9	-31.3	12.4	2.72e-04	0	42	0	116391936	21	4197
2026-01-17 10:31:23.17	164.39	12.64	-30.0	-31.4	12.4	1.70e-04	0	42	0	117440512	21	4238
2026-01-17 10:31:24.16	164.41	12.74	-30.0	-31.4	12.4	3.24e-04	0	42	0	119537664	21	4227
2026-01-17 10:31:25.16	164.42	12.84	-30.0	-31.4	12.4	1.39e-04	0	42	0	121634816	21	4217
2026-01-17 10:31:26.17	164.44	12.94	-29.9	-31.5	12.6	8.39e-05	0	42	0	123731968	20	4362
2026-01-17 10:31:27.17	164.45	13.04	-29.9	-31.6	12.5	9.30e-05	0	42	0	125829120	20	4397
2026-01-17 10:31:28.18	164.47	13.14	-29.7	-31.1	13.0	8.92e-05	0	42	0	126877696	20	4209
2026-01-17 10:31:29.18	164.48	13.23	-29.9	-31.6	12.7	6.33e-05	0	42	0	128974848	20	4375
2026-01-17 10:31:30.17	164.50	13.33	-29.9	-31.7	12.6	1.08e-04	0	42	0	131072000	20	4404
2026-01-17 10:31:31.17	164.51	13.43	-29.8	-31.2	12.9	5.41e-05	0	42	0	133169152	20	4244
2026-01-17 10:31:32.17	164.53	13.53	-29.8	-31.2	12.9	6.33e-05	0	42	0	135266304	20	4253
2026-01-17 10:31:33.17	164.55	13.63	-29.7	-30.9	13.1	3.96e-05	0	42	0	136314880	20	4149
2026-01-17 10:31:34.17	164.56	13.74	-29.7	-31.1	13.0	3.89e-05	0	42	0	138412032	20	4218
2026-01-17 10:31:35.17	164.58	13.84	-29.7	-30.9	13.1	6.17e-05	0	43	0	140509184	20	4150
2026-01-17 10:31:36.18	164.59	13.94	-29.6	-30.6	13.4	1.37e-05	0	43	0	142606336	20	4055
2026-01-17 10:31:37.17	164.61	14.04	-29.7	-30.9	13.2	2.44e-05	0	43	0	143654912	20	4148
2026-01-17 10:31:38.18	164.62	14.15	-29.6	-30.7	13.3	2.44e-05	0	42	0	145752064	20	4075
2026-01-17 10:31:39.17	164.64	14.25	-29.8	-31.1	13.0	2.59e-05	0	42	0	147849216	20	4207
2026-01-17 10:31:40.17	164.66	14.35	-29.6	-30.8	13.3	1.90e-05	0	42	0	149946368	20	4092
2026-01-17 10:31:41.18	164.67	14.46	-29.6	-30.6	13.4	1.14e-05	0	42	0	152043520	20	4046
2026-01-17 10:31:42.17	164.69	14.56	-29.7	-30.9	13.2	6.80e-06	0	42	0	153092096	20	4137
2026-01-17 10:31:43.18	164.70	14.67	-29.8	-31.3	12.9	4.19e-05	0	42	0	155189248	20	4277
2026-01-17 10:31:44.18	164.72	14.77	-29.7	-30.9	13.3	1.60e-05	0	42	0	157286400	20	4121
2026-01-17 10:31:45.19	164.74	14.88	-29.6	-30.7	13.4	1.37e-05	0	43	0	159383552	20	4061
2026-01-17 10:31:46.19	164.75	14.99	-29.7	-30.8	13.3	3.28e-05	0	43	0	161480704	20	4110
2026-01-17 10:31:47.19	164.77	15.10	-29.7	-30.8	13.4	1.29e-05	0	42	0	162529280	20	4088
2026-01-17 10:31:48.19	164.79	15.20	-29.6	-30.6	13.5	8.30e-06	0	42	0	164626432	20	4035
2026-01-17 10:31:49.19	164.80	15.31	-29.5	-30.4	13.6	1.52e-05	0	42	0	166723584	20	3987
2026-01-17 10:31:50.19	164.82	15.42	-29.6	-30.7	13.4	9.10e-06	0	43	0	168820736	20	4072
2026-01-17 10:31:51.19	164.84	15.53	-29.7	-30.9	13.3	1.83e-05	0	43	0	170917888	20	4136
2026-01-17 10:31:52.19	164.86	15.64	-29.7	-30.9	13.3	1.22e-05	0	43	0	171966464	20	4117
2026-01-17 10:31:53.20	164.87	15.75	-29.8	-31.2	13.1	2.89e-05	0	43	0	174063616	20	4222
2026-01-17 10:31:54.21	164.89	15.86	-29.6	-30.7	13.5	2.59e-05	0	43	0	176160768	20	4071
2026-01-17 10:31:55.21	164.91	15.97	-29.6	-30.6	13.5	1.22e-05	0	43	0	178257920	20	4035
2026-01-17 10:31:56.22	164.93	16.09	-29.6	-30.5	13.6	7.60e-06	0	42	0	180355072	20	4013
2026-01-17 10:31:57.22	164.94	16.20	-29.7	-30.8	13.4	7.60e-06	0	42	0	181403648	20	4102
2026-01-17 10:31:58.22	164.96	16.31	-29.7	-31.0	13.4	1.60e-05	0	43	0	183500800	20	4143
2026-01-17 10:31:59.22	164.98	16.42	-29.6	-30.5	13.6	9.90e-06	0	42	0	185597952	20	4012
2026-01-17 10:32:00.22	165.00	16.54	-29.5	-30.2	13.8	6.80e-06	0	43	0	187695104	20	3915
2026-01-17 10:32:01.21	165.02	16.65	-29.3	-29.8	14.1	1.50e-06	0	42	0	188743680	20	3799
2026-01-17 10:32:02.21	165.03	16.77	-29.3	-30.1	14.3	7.00e-07	0	43	0	190840832	19	3968
2026-01-17 10:32:03.21	165.05	16.88	-29.4	-30.3	14.2	2.20e-06	0	43	0	192937984	19	4036
2026-01-17 10:32:04.21	165.07	17.00	-29.3	-30.2	14.3	1.50e-06	0	43	0	195035136	19	3991
2026-01-17 10:32:05.21	165.09	17.11	-29.4	-30.3	14.2	2.20e-06	0	43	0	197132288	19	4023
2026-01-17 10:32:06.21	165.11	17.23	-29.4	-30.4	14.1	7.00e-07	0	43	0	198180864	19	4057
2026-01-17 10:32:07.21	165.13	17.35	-29.3	-30.2	14.3	1.50e-06	0	42	0	200278016	19	4000
2026-01-17 10:32:08.21	165.15	17.47	-29.3	-30.2	14.3	7.00e-07	0	43	0	202375168	19	3991
2026-01-17 10:32:09.21	165.17	17.58	-29.3	-30.1	14.4	1.50e-06	0	43	0	204472320	19	3954
2026-01-17 10:32:10.22	165.18	17.70	-29.4	-30.3	14.2	7.00e-07	0	43	0	206569472	19	4006
2026-01-17 10:32:11.22	165.20	17.82	-29.3	-30.1	14.4	0.00e+00	0	42	0	207618048	19	3946
2026-01-17 10:32:12.23	165.22	17.95	-29.2	-29.9	14.5	7.00e-07	0	43	0	209715200	19	3904
2026-01-17 10:32:13.22	165.24	18.07	-29.3	-30.2	14.3	1.50e-06	0	43	0	211812352	19	3991
2026-01-17 10:32:14.22	165.26	18.19	-29.4	-30.3	14.3	3.80e-06	0	43	0	213909504	19	4015
2026-01-17 10:32:15.22	165.28	18.31	-29.4	-30.3	14.2	0.00e+00	0	43	0	214958080	19	4018
2026-01-17 10:32:16.22	165.30	18.43	-29.4	-30.5	14.2	0.00e+00	0	43	0	217055232	19	4053
2026-01-17 10:32:17.22	165.32	18.56	-29.4	-30.4	14.2	0.00e+00	0	43	0	219152384	19	4040
2026-01-17 10:32:18.22	165.34	18.68	-29.5	-30.6	14.1	2.20e-06	0	43	0	221249536	19	4093
2026-01-17 10:32:19.22	165.36	18.80	-29.4	-30.3	14.3	1.50e-06	0	43	0	223346688	19	4005
2026-01-17 10:32:20.22	165.38	18.93	-29.3	-30.2	14.4	7.00e-07	0	43	0	224395264	19	3973
2026-01-17 10:32:21.22	165.41	19.06	-29.4	-30.4	14.2	7.00e-07	0	43	0	226492416	19	4030
2026-01-17 10:32:22.22	165.43	19.18	-29.5	-30.6	14.1	3.00e-06	0	43	0	228589568	19	4101
2026-01-17 10:32:23.22	165.45	19.31	-29.4	-30.4	14.3	4.50e-06	0	43	0	230686720	19	4028
2026-01-17 10:32:24.21	165.47	19.44	-29.4	-30.5	14.2	7.00e-07	0	43	0	232783872	19	4056
2026-01-17 10:32:25.21	165.49	19.56	-29.4	-30.5	14.2	0.00e+00	0	43	0	233832448	19	4053
2026-01-17 10:32:26.21	165.51	19.69	-29.5	-30.6	14.1	2.20e-06	0	43	0	235929600	19	4086
2026-01-17 10:32:27.22	165.53	19.82	-29.3	-30.2	14.4	7.00e-07	0	43	0	238026752	19	3976
2026-01-17 10:32:28.22	165.55	19.96	-29.4	-30.5	14.1	2.20e-06	0	43	0	240123904	19	4074
2026-01-17 10:32:29.22	165.58	20.09	-29.6	-30.8	14.0	7.00e-07	0	43	0	242221056	19	4164
2026-01-17 10:32:30.22	165.60	20.22	-29.4	-30.5	14.3	3.00e-06	0	43	0	243269632	19	4053
2026-01-17 10:32:31.22	165.62	20.35	-29.5	-30.6	14.2	2.20e-06	0	43	0	245366784	19	4080
2026-01-17 10:32:32.23	165.64	20.49	-29.6	-31.0	13.9	3.00e-06	0	43	0	247463936	19	4225
2026-01-17 10:32:33.23	165.67	20.62	-29.6	-31.0	13.9	2.20e-06	0	43	0	249561088	19	4207
2026-01-17 10:32:34.24	165.69	20.76	-29.8	-31.5	13.6	3.80e-06	0	43	0	250609664	19	4366
2026-01-17 10:32:35.24	165.71	20.89	-29.8	-31.4	13.7	8.30e-06	0	43	0	252706816	19	4350
2026-01-17 10:32:36.25	165.74	21.03	-29.9	-31.6	13.5	5.30e-06	0	43	0	254803968	19	4408
2026-01-17 10:32:37.25	165.76	21.17	-29.9	-31.3	13.3	8.30e-06	0	43	0	256901120	20	4224
2026-01-17 10:32:38.25	165.78	21.30	-29.9	-31.4	13.3	8.30e-06	0	43	0	258998272	20	4266
2026-01-17 10:32:39.25	165.81	21.44	-30.0	-31.8	13.0	3.89e-05	0	43	0	261095424	20	4400
2026-01-17 10:32:40.26	165.83	21.58	-30.0	-31.8	13.0	5.79e-05	0	43	0	262144000	20	4397
2026-01-17 10:32:41.26	165.85	21.72	-30.3	-32.6	12.4	8.77e-05	0	43	0	264241152	20	4687
2026-01-17 10:32:42.26	165.88	21.86	-30.3	-32.5	12.4	1.31e-04	0	43	0	266338304	20	4662
2026-01-17 10:32:43.27	165.90	22.01	-30.2	-32.4	12.5	1.31e-04	0	43	0	268435456	20	4622
2026-01-17 10:32:44.27	165.93	22.15	-30.3	-32.7	12.3	1.73e-04	0	43	0	269484032	20	4719
2026-01-17 10:32:45.27	165.95	22.29	-30.2	-32.2	12.6	9.99e-05	0	43	0	271581184	20	4544
2026-01-17 10:32:46.27	165.98	22.44	-30.0	-31.7	13.0	4.73e-05	0	43	0	273678336	20	4366
2026-01-17 10:32:47.27	166.00	22.58	-30.0	-31.6	13.1	2.82e-05	0	43	0	275775488	20	4343
2026-01-17 10:32:48.27	166.03	22.73	-29.9	-31.3	13.3	2.51e-05	0	43	0	277872640	20	4247
2026-01-17 10:32:49.27	166.05	22.87	-30.0	-31.4	13.3	2.74e-05	0	43	0	278921216	20	4266
2026-01-17 10:32:50.28	166.08	23.02	-30.1	-31.8	13.1	2.74e-05	0	43	0	281018368	20	4384
2026-01-17 10:32:51.27	166.11	23.17	-30.1	-31.7	13.1	4.80e-05	0	43	0	283115520	20	4359
2026-01-17 10:32:52.27	166.13	23.32	-30.2	-32.0	13.0	3.50e-05	0	43	0	285212672	20	4425
2026-01-17 10:32:53.28	166.16	23.47	-30.2	-32.1	12.8	4.42e-05	0	43	0	287309824	20	4484
2026-01-17 10:32:54.28	166.19	23.62	-30.4	-32.6	12.6	7.85e-05	0	43	0	288358400	20	4638
2026-01-17 10:32:55.27	166.21	23.77	-30.3	-32.4	12.7	9.00e-05	0	43	0	290455552	20	4588
2026-01-17 10:32:56.28	166.24	23.92	-30.5	-32.8	12.4	9.30e-05	0	43	0	292552704	20	4705
2026-01-17 10:32:57.27	166.27	24.07	-30.4	-32.1	12.6	8.92e-05	0	43	0	294649856	21	4361
2026-01-17 10:32:58.28	166.29	24.23	-30.4	-32.2	12.5	1.63e-04	0	43	0	295698432	21	4407
2026-01-17 10:32:59.27	166.32	24.38	-30.3	-31.8	12.7	7.32e-05	0	43	0	297795584	21	4282
2026-01-17 10:33:00.28	166.35	24.54	-30.3	-31.8	12.8	6.25e-05	0	43	0	299892736	21	4284
2026-01-17 10:33:01.28	166.38	24.70	-30.1	-31.2	13.2	5.18e-05	0	43	0	301989888	21	4094
2026-01-17 10:33:02.28	166.41	24.86	-30.3	-31.8	12.8	6.48e-05	0	43	0	304087040	21	4277
2026-01-17 10:33:03.28	166.44	25.02	-30.2	-31.6	12.9	3.81e-05	0	43	0	305135616	21	4223
2026-01-17 10:33:04.28	166.47	25.18	-30.3	-31.9	12.7	2.05e-05	0	43	0	307232768	21	4306
2026-01-17 10:33:05.28	166.49	25.34	-30.3	-31.8	12.8	8.08e-05	0	43	0	309329920	21	4289
2026-01-17 10:33:06.28	166.52	25.50	-30.3	-31.9	12.7	7.62e-05	0	43	0	311427072	21	4315
2026-01-17 10:33:07.28	166.55	25.66	-30.4	-32.2	12.6	7.01e-05	0	43	0	313524224	21	4397
2026-01-17 10:33:08.28	166.58	25.82	-30.5	-32.4	12.3	1.18e-04	0	43	0	314572800	21	4490
2026-01-17 10:33:09.29	166.62	25.99	-30.4	-32.1	12.6	1.44e-04	0	43	0	316669952	21	4364
2026-01-17 10:33:10.29	166.65	26.16	-30.6	-32.8	12.1	2.23e-04	0	43	0	318767104	21	4615
2026-01-17 10:33:11.29	166.68	26.32	-30.5	-32.4	12.3	1.88e-04	0	43	0	320864256	21	4464
2026-01-17 10:33:12.29	166.71	26.49	-30.3	-31.8	12.8	6.40e-05	0	43	0	322961408	21	4287
2026-01-17 10:33:13.29	166.74	26.66	-30.3	-31.9	12.8	1.07e-04	0	43	0	324009984	21	4311
2026-01-17 10:33:14.29	166.77	26.83	-30.2	-31.5	13.0	7.40e-05	0	43	0	326107136	21	4189
2026-01-17 10:33:15.29	166.80	27.00	-30.4	-31.9	12.7	5.34e-05	0	43	0	328204288	21	4312
2026-01-17 10:33:16.29	166.84	27.17	-30.3	-31.8	12.9	4.42e-05	0	43	0	330301440	21	4267
2026-01-17 10:33:17.29	166.87	27.35	-30.2	-31.5	13.1	3.43e-05	0	43	0	332398592	21	4183
2026-01-17 10:33:18.29	166.90	27.52	-30.2	-31.5	13.1	3.58e-05	0	43	0	333447168	21	4165
2026-01-17 10:33:19.30	166.94	27.70	-30.4	-32.0	12.7	6.63e-05	0	43	0	335544320	21	4320
2026-01-17 10:33:20.31	166.97	27.88	-30.3	-31.7	12.9	1.11e-04	0	43	0	337641472	21	4251
2026-01-17 10:33:21.31	167.01	28.05	-30.5	-32.4	12.4	6.63e-05	0	43	0	339738624	21	4475
2026-01-17 10:33:22.31	167.04	28.23	-30.8	-33.3	11.9	2.62e-04	0	43	0	340787200	21	4765
2026-01-17 10:33:23.31	167.08	28.41	-30.5	-32.2	12.6	1.74e-04	0	43	0	342884352	21	4401
2026-01-17 10:33:24.32	167.11	28.60	-30.5	-32.2	12.6	9.30e-05	0	43	0	344981504	21	4400
2026-01-17 10:33:25.32	167.15	28.78	-30.7	-32.8	12.2	1.14e-04	0	43	0	347078656	21	4583
2026-01-17 10:33:26.32	167.18	28.96	-30.3	-31.8	12.9	8.01e-05	0	43	0	349175808	21	4251
2026-01-17 10:33:27.33	167.22	29.15	-30.1	-31.1	13.3	3.28e-05	0	43	0	350224384	21	4061
2026-01-17 10:33:28.32	167.26	29.33	-30.3	-31.8	12.9	6.79e-05	0	43	0	352321536	21	4270
2026-01-17 10:33:29.32	167.29	29.52	-30.3	-31.7	13.0	2.59e-05	0	43	0	354418688	21	4220
2026-01-17 10:33:30.33	167.33	29.71	-30.5	-32.2	12.7	3.50e-05	0	43	0	356515840	21	4376
2026-01-17 10:33:31.33	167.37	29.90	-30.5	-32.2	12.7	1.48e-04	0	43	0	358612992	21	4388
2026-01-17 10:33:32.33	167.41	30.09	-30.6	-32.6	12.4	1.41e-04	0	43	0	359661568	21	4517
2026-01-17 10:33:33.33	167.45	30.28	-30.8	-33.2	11.9	3.42e-04	0	43	0	361758720	21	4746
2026-01-17 10:33:34.34	167.49	30.48	-30.9	-32.9	11.8	3.97e-04	0	43	0	363855872	22	4551
2026-01-17 10:33:35.34	167.52	30.67	-31.1	-33.6	11.4	7.21e-04	0	43	0	365953024	22	4792
2026-01-17 10:33:36.35	167.57	30.87	-31.2	-33.9	11.2	7.69e-04	0	43	0	368050176	22	4892
2026-01-17 10:33:37.35	167.61	31.07	-31.0	-33.3	11.6	1.23e-03	0	43	0	369098752	22	4685
2026-01-17 10:33:38.36	167.65	31.27	-31.0	-33.3	11.6	9.60e-04	0	43	0	371195904	22	4690
2026-01-17 10:33:39.36	167.69	31.47	-31.0	-33.1	11.7	9.44e-04	0	43	0	373293056	22	4614
2026-01-17 10:33:40.36	167.73	31.67	-31.1	-33.5	11.5	8.03e-04	0	43	0	375390208	22	4735
2026-01-17 10:33:41.37	167.77	31.87	-30.9	-32.9	11.9	5.82e-04	0	43	0	377487360	22	4531
2026-01-17 10:33:42.37	167.82	32.08	-31.2	-34.0	11.1	8.35e-04	0	43	0	378535936	22	4939
2026-01-17 10:33:43.37	167.86	32.28	-31.4	-34.4	10.8	2.47e-03	0	43	0	380633088	22	5089
2026-01-17 10:33:44.37	167.90	32.49	-31.4	-34.5	10.8	1.24e-03	0	43	0	382730240	22	5138
2026-01-17 10:33:45.37	167.95	32.70	-31.5	-34.3	10.5	3.66e-03	0	43	0	384827392	23	4981
2026-01-17 10:33:46.37	167.99	32.91	-31.4	-33.8	10.9	3.51e-03	0	43	0	385875968	23	4765
2026-01-17 10:33:47.36	168.04	33.12	-31.4	-34.0	10.7	3.25e-03	0	43	0	387973120	23	4855
2026-01-17 10:33:48.37	168.08	33.33	-31.4	-33.9	11.1	2.80e-03	0	43	0	390070272	23	4796
2026-01-17 10:33:49.36	168.13	33.54	-30.9	-32.3	12.0	1.18e-03	0	43	0	392167424	23	4229
2026-01-17 10:33:50.36	168.18	33.76	-31.1	-33.1	11.4	9.96e-04	0	43	0	394264576	23	4518
2026-01-17 10:33:51.36	168.23	33.98	-31.0	-32.7	11.7	5.67e-04	0	43	0	395313152	23	4381
2026-01-17 10:33:52.36	168.27	34.20	-30.9	-32.4	11.9	4.20e-04	0	43	0	397410304	23	4283
2026-01-17 10:33:53.36	168.32	34.42	-31.0	-32.6	11.7	6.74e-04	0	43	0	399507456	23	4343
2026-01-17 10:33:54.36	168.37	34.64	-30.7	-32.3	12.3	2.65e-04	0	43	0	401604608	22	4342
2026-01-17 10:33:55.36	168.42	34.86	-30.4	-31.4	12.9	4.50e-05	0	43	0	403701760	22	4036
2026-01-17 10:33:56.37	168.47	35.09	-30.0	-30.9	13.6	2.21e-05	0	43	0	404750336	21	3988
2026-01-17 10:33:57.37	168.53	35.31	-30.0	-30.7	13.7	6.10e-06	0	43	0	406847488	21	3936
2026-01-17 10:33:58.37	168.58	35.54	-29.8	-30.8	14.0	3.80e-06	0	43	0	408944640	20	4033
2026-01-17 10:33:59.37	168.63	35.77	-29.8	-30.8	13.9	2.20e-06	0	43	0	411041792	20	4049
2026-01-17 10:34:00.36	168.68	36.00	-29.5	-29.9	14.4	7.00e-07	0	43	0	413138944	20	3793
2026-01-17 10:34:01.36	168.74	36.23	-29.4	-29.9	14.6	7.00e-07	0	43	0	414187520	20	3784
2026-01-17 10:34:02.36	168.79	36.47	-29.6	-30.2	14.4	7.00e-07	0	43	0	416284672	20	3880
2026-01-17 10:34:03.36	168.85	36.71	-29.6	-30.3	14.3	5.30e-06	0	43	0	418381824	20	3900
2026-01-17 10:34:04.37	168.91	36.95	-29.5	-30.1	14.4	1.50e-06	0	43	0	420478976	20	3836
2026-01-17 10:34:05.37	168.96	37.19	-29.7	-30.4	14.2	4.50e-06	0	43	0	421527552	20	3924
2026-01-17 10:34:06.36	169.02	37.42	-29.5	-29.9	14.6	0.00e+00	0	43	0	423624704	20	3784
2026-01-17 10:34:07.36	169.08	37.67	-29.3	-29.9	14.9	0.00e+00	0	43	0	425721856	19	3880
2026-01-17 10:34:08.37	169.14	37.92	-29.1	-29.5	15.1	6.80e-06	0	43	0	427819008	19	3774
2026-01-17 10:34:09.37	169.20	38.16	-29.1	-29.5	15.2	0.00e+00	0	43	0	429916160	19	3775
2026-01-17 10:34:10.38	169.26	38.41	-29.3	-29.9	15.0	0.00e+00	0	43	0	430964736	19	3852
2026-01-17 10:34:11.38	169.33	38.66	-29.5	-30.5	14.5	7.60e-06	0	43	0	433061888	19	4040
2026-01-17 10:34:12.38	169.39	38.92	-29.6	-30.8	14.4	7.00e-07	0	43	0	435159040	19	4120
2026-01-17 10:34:13.38	169.45	39.17	-29.3	-29.9	14.9	0.00e+00	0	43	0	437256192	19	3865
2026-01-17 10:34:14.39	169.52	39.43	-29.4	-30.2	14.8	9.90e-06	0	43	0	439353344	19	3935
2026-01-17 10:34:15.38	169.59	39.68	-29.4	-30.1	14.8	7.00e-07	0	43	0	440401920	19	3923
2026-01-17 10:34:16.39	169.65	39.95	-29.5	-30.4	14.6	0.00e+00	0	43	0	442499072	19	4003
2026-01-17 10:34:17.39	169.72	40.21	-29.8	-31.2	14.2	8.30e-06	0	43	0	444596224	19	4233
2026-01-17 10:34:18.39	169.79	40.47	-29.9	-31.0	13.9	5.30e-06	0	43	0	446693376	20	4088
2026-01-17 10:34:19.40	169.86	40.74	-30.1	-31.7	13.5	4.50e-06	0	43	0	448790528	20	4290
2026-01-17 10:34:20.40	169.93	41.01	-30.2	-31.7	13.5	1.67e-05	0	43	0	449839104	20	4292
2026-01-17 10:34:21.40	170.01	41.27	-30.4	-32.3	13.2	1.22e-05	0	43	0	451936256	20	4474
2026-01-17 10:34:22.41	170.08	41.55	-30.4	-32.4	13.1	1.75e-05	0	43	0	454033408	20	4513
2026-01-17 10:34:23.41	170.16	41.82	-30.3	-32.2	13.2	2.82e-05	0	43	0	456130560	20	4444
2026-01-17 10:34:24.41	170.23	42.10	-30.4	-31.9	13.0	7.55e-05	0	43	0	458227712	21	4282
2026-01-17 10:34:25.42	170.31	42.38	-30.6	-32.3	12.9	3.43e-05	0	43	0	459276288	21	4386
2026-01-17 10:34:26.42	170.39	42.66	-30.5	-32.1	12.9	8.31e-05	0	43	0	461373440	21	4347
2026-01-17 10:34:27.43	170.47	42.94	-30.4	-32.0	13.0	7.01e-05	0	43	0	463470592	21	4283
2026-01-17 10:34:28.43	170.55	43.22	-30.5	-32.1	12.9	7.40e-05	0	43	0	465567744	21	4334
2026-01-17 10:34:29.44	170.64	43.51	-30.5	-32.1	12.9	9.68e-05	0	43	0	466616320	21	4324
2026-01-17 10:34:30.43	170.72	43.80	-30.4	-31.7	13.2	5.11e-05	0	43	0	468713472	21	4198
2026-01-17 10:34:31.44	170.81	44.09	-30.3	-31.5	13.3	1.90e-05	0	43	0	470810624	21	4155
2026-01-17 10:34:32.44	170.89	44.38	-30.3	-31.4	13.4	1.06e-05	0	43	0	472907776	21	4105
2026-01-17 10:34:33.44	170.98	44.67	-30.3	-31.4	13.4	1.29e-05	0	43	0	475004928	21	4116
2026-01-17 10:34:34.44	171.07	44.97	-30.4	-31.8	13.1	1.29e-05	0	43	0	476053504	21	4216
2026-01-17 10:34:35.44	171.16	45.27	-30.7	-32.6	12.6	4.95e-05	0	43	0	478150656	21	4478
2026-01-17 10:34:36.44	171.26	45.57	-31.3	-33.8	11.5	2.04e-04	0	43	0	480247808	22	4827
2026-01-17 10:34:37.44	171.35	45.87	-31.3	-34.0	11.4	3.53e-04	0	43	0	482344960	22	4904
2026-01-17 10:34:38.44	171.45	46.18	-31.7	-34.8	10.4	4.78e-03	0	43	0	484442112	23	5123
2026-01-17 10:34:39.44	171.55	46.48	-31.9	-35.0	9.7	2.88e-03	0	43	0	485490688	24	5118
2026-01-17 10:34:40.45	171.65	46.79	-31.8	-34.4	10.3	4.79e-03	0	43	0	487587840	24	4891
2026-01-17 10:34:41.44	171.75	47.10	-31.6	-33.8	10.6	3.88e-03	0	43	0	489684992	24	4654
2026-01-17 10:34:42.44	171.86	47.42	-31.6	-33.9	10.7	4.19e-03	0	43	0	491782144	24	4688
2026-01-17 10:34:43.44	171.97	47.73	-31.6	-33.8	10.8	4.60e-03	0	43	0	493879296	24	4650
2026-01-17 10:34:44.45	172.08	48.05	-31.5	-33.7	10.9	2.25e-03	0	43	0	494927872	24	4597
2026-01-17 10:34:45.45	172.19	48.37	-31.7	-34.0	10.5	2.71e-03	0	43	0	497025024	24	4738
2026-01-17 10:34:46.45	172.30	48.70	-31.2	-33.1	11.6	2.06e-03	0	43	0	499122176	23	4489
2026-01-17 10:34:47.45	172.42	49.02	-30.8	-32.4	12.6	6.90e-04	0	43	0	501219328	22	4317
2026-01-17 10:34:48.46	172.54	49.35	-30.2	-31.3	13.5	2.59e-05	0	43	0	503316480	21	4069
2026-01-17 10:34:49.46	172.66	49.68	-29.8	-30.6	14.3	3.00e-06	0	43	0	504365056	20	3949
2026-01-17 10:34:50.46	172.78	50.01	-29.3	-29.4	15.0	0.00e+00	0	43	0	506462208	20	3641
2026-01-17 10:34:51.46	172.91	50.34	-29.1	-29.3	15.5	0.00e+00	0	43	0	508559360	19	3703
2026-01-17 10:34:52.46	173.04	50.68	-29.0	-29.1	15.6	0.00e+00	0	43	0	510656512	19	3658
2026-01-17 10:34:53.46	173.17	51.02	-29.2	-29.6	15.3	0.00e+00	0	43	0	511705088	19	3780
2026-01-17 10:34:54.47	173.30	51.36	-29.3	-29.9	15.1	0.00e+00	0	43	0	513802240	19	3844
2026-01-17 10:34:55.47	173.44	51.71	-29.7	-30.8	14.7	7.00e-07	0	43	0	515899392	19	4093
2026-01-17 10:34:56.47	173.58	52.05	-30.0	-31.2	13.9	3.00e-06	0	43	0	517996544	20	4122
2026-01-17 10:34:57.48	173.73	52.40	-30.0	-31.3	13.9	2.20e-06	0	43	0	520093696	20	4148
2026-01-17 10:34:58.48	173.88	52.75	-29.9	-30.8	14.2	7.00e-07	0	43	0	521142272	20	4021
2026-01-17 10:34:59.48	174.03	53.10	-29.7	-30.4	14.5	7.00e-07	0	43	0	523239424	20	3896
2026-01-17 10:35:00.48	174.18	53.46	-29.6	-30.2	14.6	7.00e-07	0	43	0	525336576	20	3842
2026-01-17 10:35:01.48	174.34	53.82	-29.3	-29.8	15.2	0.00e+00	0	43	0	527433728	19	3832
2026-01-17 10:35:02.49	174.50	54.18	-29.5	-30.4	14.9	0.00e+00	0	43	0	529530880	19	3981
2026-01-17 10:35:03.49	174.67	54.54	-29.1	-29.3	15.5	0.00e+00	0	43	0	530579456	19	3684
2026-01-17 10:35:04.50	174.84	54.91	-28.4	-28.3	16.4	0.00e+00	0	43	0	532676608	18	3536
2026-01-17 10:35:05.50	175.02	55.27	-28.1	-28.0	16.8	0.00e+00	0	43	0	534773760	17	3557
2026-01-17 10:35:06.50	175.19	55.64	-27.7	-27.5	17.4	0.00e+00	0	43	0	536870912	16	3532
2026-01-17 10:35:07.49	175.38	56.01	-27.3	-27.2	17.7	0.00e+00	0	43	0	538968064	15	3551
2026-01-17 10:35:08.49	175.57	56.38	-27.0	-26.6	18.0	0.00e+00	0	43	0	540016640	15	3427
2026-01-17 10:35:09.49	175.76	56.76	-27.2	-26.9	17.8	0.00e+00	0	43	0	542113792	15	3482
2026-01-17 10:35:10.49	175.96	57.13	-27.6	-27.9	17.3	0.00e+00	0	43	0	544210944	15	3724
2026-01-17 10:35:11.49	176.16	57.51	-28.3	-28.9	16.5	0.00e+00	0	43	0	546308096	16	3879
2026-01-17 10:35:12.49	176.37	57.89	-28.4	-29.2	16.5	0.00e+00	0	43	0	548405248	16	3932
2026-01-17 10:35:13.49	176.59	58.28	-28.5	-29.0	16.4	0.00e+00	0	43	0	549453824	17	3794
2026-01-17 10:35:14.49	176.81	58.66	-28.3	-28.3	16.6	0.00e+00	0	43	0	551550976	17	3625
2026-01-17 10:35:15.49	177.04	59.05	-27.7	-27.5	17.5	0.00e+00	0	43	0	553648128	16	3511
2026-01-17 10:35:16.50	177.28	59.44	-27.9	-28.0	17.2	0.00e+00	0	43	0	555745280	16	3631
2026-01-17 10:35:17.50	177.52	59.84	-28.4	-29.2	16.5	0.00e+00	0	43	0	556793856	16	3939
2026-01-17 10:35:18.50	177.77	60.23	-28.8	-29.6	16.0	0.00e+00	0	43	0	558891008	17	3943
2026-01-17 10:35:19.51	178.03	60.63	-28.7	-28.9	16.1	0.00e+00	0	43	0	560988160	18	3669
2026-01-17 10:35:20.51	178.30	61.03	-28.2	-28.3	16.8	0.00e+00	0	43	0	563085312	17	3618
2026-01-17 10:35:21.52	178.57	61.43	-27.9	-27.5	17.1	0.00e+00	0	43	0	565182464	17	3441
2026-01-17 10:35:22.52	178.86	61.83	-27.9	-28.0	17.2	0.00e+00	0	43	0	566231040	16	3642
2026-01-17 10:35:23.52	179.15	62.24	-27.8	-27.8	17.3	0.00e+00	0	43	0	568328192	16	3595
2026-01-17 10:35:24.52	179.45	62.64	-27.8	-27.7	17.4	0.00e+00	0	43	0	570425344	16	3568
2026-01-17 10:35:25.51	179.76	63.04	-28.0	-28.2	17.1	0.00e+00	0	43	0	572522496	16	3692
2026-01-17 10:35:26.50	180.08	63.45	-28.4	-29.2	16.5	0.00e+00	0	43	0	574619648	16	3934
2026-01-17 10:35:27.51	180.42	63.86	-28.7	-29.3	16.3	0.00e+00	0	43	0	575668224	17	3864
2026-01-17 10:35:28.51	180.77	64.27	-29.4	-30.6	15.2	0.00e+00	0	43	0	577765376	18	4114
2026-01-17 10:35:29.51	181.12	64.69	-29.7	-30.9	14.7	0.00e+00	0	43	0	579862528	19	4107
2026-01-17 10:35:30.51	181.50	65.10	-29.8	-30.6	14.4	0.00e+00	0	43	0	581959680	20	3959
2026-01-17 10:35:31.52	181.89	65.52	-29.4	-29.5	15.2	0.00e+00	0	43	0	584056832	20	3648
2026-01-17 10:35:32.51	182.28	65.93	-29.0	-29.1	15.7	0.00e+00	0	43	0	585105408	19	3632
2026-01-17 10:35:33.52	182.70	66.36	-29.1	-29.8	15.7	0.00e+00	0	43	0	587202560	18	3899
2026-01-17 10:35:34.52	183.14	66.78	-29.2	-30.0	15.5	7.00e-07	0	43	0	589299712	18	3975
2026-01-17 10:35:35.52	183.59	67.20	-29.5	-30.3	15.2	0.00e+00	0	43	0	591396864	19	3938
2026-01-17 10:35:36.53	184.06	67.62	-30.5	-32.3	13.6	2.20e-06	0	43	0	593494016	20	4450
2026-01-17 10:35:37.53	184.55	68.04	-31.0	-33.2	12.5	2.89e-05	0	43	0	594542592	21	4670
2026-01-17 10:35:38.53	185.06	68.46	-31.0	-32.8	12.5	1.87e-04	0	43	0	596639744	22	4435
2026-01-17 10:35:39.53	185.59	68.89	-30.6	-31.6	13.3	4.73e-05	0	43	0	598736896	22	4038
2026-01-17 10:35:40.53	186.14	69.31	-30.2	-31.2	13.8	9.90e-06	0	43	0	600834048	21	4011
2026-01-17 10:35:41.53	186.72	69.73	-30.2	-31.2	13.9	7.60e-06	0	44	0	601882624	21	4004
2026-01-17 10:35:42.54	187.33	70.16	-30.9	-32.9	12.8	3.81e-05	0	43	0	603979776	21	4549
2026-01-17 10:35:43.54	187.96	70.58	-31.4	-33.5	11.8	3.13e-04	0	43	0	606076928	23	4595
2026-01-17 10:35:44.55	188.63	71.00	-31.8	-34.6	10.9	1.40e-03	0	43	0	608174080	23	5003
2026-01-17 10:35:45.54	189.32	71.42	-31.4	-33.5	11.6	1.41e-03	0	43	0	610271232	23	4561
2026-01-17 10:35:46.54	190.05	71.84	-31.2	-32.9	12.2	4.42e-04	0	43	0	611319808	23	4364
2026-01-17 10:35:47.54	190.81	72.26	-30.8	-31.7	12.8	1.70e-04	0	43	0	613416960	23	3997
2026-01-17 10:35:48.54	191.61	72.68	-30.3	-31.0	13.7	2.21e-05	0	43	0	615514112	22	3862
2026-01-17 10:35:49.54	192.46	73.09	-30.0	-30.6	14.3	7.00e-07	0	43	0	617611264	21	3842
2026-01-17 10:35:50.55	193.36	73.51	-31.0	-33.3	12.6	2.36e-05	0	43	0	619708416	21	4688
2026-01-17 10:35:51.55	194.29	73.92	-32.0	-35.0	10.5	1.35e-03	0	43	0	620756992	24	5053
2026-01-17 10:35:52.56	195.29	74.33	-31.8	-34.1	10.9	5.29e-03	0	43	0	622854144	24	4689
2026-01-17 10:35:53.57	196.34	74.74	-31.6	-33.5	11.4	1.25e-03	0	43	0	624951296	24	4494
2026-01-17 10:35:54.57	197.44	75.14	-31.4	-32.8	12.0	5.68e-04	0	43	0	627048448	24	4237
2026-01-17 10:35:55.58	198.62	75.54	-31.9	-34.3	10.9	1.06e-03	0	43	0	629145600	24	4760
2026-01-17 10:35:56.58	199.85	75.93	-32.0	-34.9	10.5	3.83e-03	0	43	0	630194176	24	5023
2026-01-17 10:35:57.59	201.17	76.32	-32.0	-34.7	10.5	7.04e-03	0	43	0	632291328	24	4916
2026-01-17 10:35:58.59	202.55	76.70	-32.2	-35.5	10.0	3.36e-03	0	43	0	634388480	24	5271
2026-01-17 10:35:59.59	204.02	77.07	-32.5	-36.5	9.3	1.10e-02	0	43	0	636485632	24	5704
2026-01-17 10:36:00.58	205.56	77.43	-31.9	-34.4	10.8	5.49e-03	0	43	0	638582784	24	4796
2026-01-17 10:36:01.58	207.20	77.78	-31.3	-33.1	12.3	5.53e-04	0	43	0	639631360	23	4405
2026-01-17 10:36:02.58	208.95	78.13	-32.1	-35.2	10.2	4.97e-04	0	43	0	641728512	24	5135
2026-01-17 10:36:03.58	210.80	78.46	-31.8	-34.1	11.1	3.89e-03	0	43	0	643825664	24	4686
2026-01-17 10:36:04.58	212.76	78.79	-31.1	-32.4	12.6	3.30e-04	0	43	0	645922816	23	4203
2026-01-17 10:36:05.58	214.84	79.10	-31.2	-32.8	12.4	5.79e-05	0	43	0	646971392	23	4310
2026-01-17 10:36:06.59	217.06	79.40	-32.0	-34.8	10.6	1.54e-03	0	43	0	649068544	24	4954
2026-01-17 10:36:07.59	219.38	79.68	-32.1	-35.0	10.4	5.25e-03	0	43	0	651165696	24	5031
2026-01-17 10:36:08.59	221.84	79.94	-31.3	-32.5	12.1	1.18e-03	0	43	0	653262848	24	4140
2026-01-17 10:36:09.60	224.45	80.19	-31.1	-32.6	12.6	1.14e-04	0	43	0	655360000	23	4231
2026-01-17 10:36:10.61	227.19	80.41	-32.0	-35.1	10.7	8.76e-04	0	43	0	656408576	23	5157
2026-01-17 10:36:11.60	229.99	80.61	-32.0	-34.7	10.6	5.84e-03	0	43	0	658505728	24	4914
2026-01-17 10:36:12.60	232.95	80.79	-31.7	-33.7	11.4	4.84e-03	0	43	0	660602880	24	4550
2026-01-17 10:36:13.60	236.02	80.95	-31.4	-33.4	11.9	2.73e-04	0	43	0	662700032	23	4531
2026-01-17 10:36:14.60	239.18	81.07	-31.5	-33.6	11.8	1.03e-03	0	43	0	664797184	23	4580
2026-01-17 10:36:15.60	242.42	81.17	-31.0	-32.5	12.9	1.54e-04	0	43	0	665845760	22	4305
2026-01-17 10:36:16.60	245.74	81.25	-30.6	-31.5	13.6	1.98e-05	0	43	0	667942912	22	4002
2026-01-17 10:36:17.60	249.09	81.29	-31.2	-33.3	12.5	4.57e-05	0	43	0	670040064	22	4549
2026-01-17 10:36:18.60	252.46	81.30	-30.7	-31.8	13.4	7.85e-05	0	43	0	672137216	22	4088
2026-01-17 10:36:19.61	255.87	81.28	-30.9	-32.4	13.0	2.05e-05	0	43	0	674234368	22	4253
2026-01-17 10:36:20.61	259.22	81.24	-31.2	-33.1	12.6	4.19e-05	0	43	0	675282944	22	4483
2026-01-17 10:36:21.61	262.52	81.16	-32.1	-35.2	10.4	1.05e-03	0	43	0	677380096	24	5110
2026-01-17 10:36:22.61	265.76	81.06	-32.3	-35.4	9.7	2.20e-02	0	43	0	679477248	25	5120
2026-01-17 10:36:23.61	268.90	80.92	-32.0	-34.0	10.9	5.26e-03	0	43	0	681574400	25	4545
2026-01-17 10:36:24.62	271.98	80.77	-32.3	-35.4	9.7	7.92e-03	0	43	0	682622976	25	5088
2026-01-17 10:36:25.62	274.92	80.58	-31.9	-33.9	10.8	8.30e-03	0	43	0	684720128	25	4526
2026-01-17 10:36:26.62	277.73	80.38	-31.0	-32.1	12.9	6.93e-04	0	43	0	686817280	23	4100
2026-01-17 10:36:27.62	280.42	80.15	-31.3	-33.1	12.0	1.54e-04	0	43	0	688914432	23	4426
2026-01-17 10:36:28.62	282.99	79.90	-32.3	-35.6	10.0	2.72e-03	0	43	0	691011584	24	5287
2026-01-17 10:36:29.62	285.42	79.64	-32.0	-34.2	10.8	1.00e-02	0	43	0	692060160	25	4616
2026-01-17 10:36:30.61	287.70	79.36	-32.3	-35.6	10.1	1.77e-03	0	43	0	694157312	24	5263
2026-01-17 10:36:31.62	289.91	79.06	-31.5	-33.1	11.9	2.51e-03	0	43	0	696254464	24	4320
2026-01-17 10:36:32.62	291.97	78.75	-31.4	-33.3	12.0	4.41e-04	0	43	0	698351616	23	4489
2026-01-17 10:36:33.62	293.91	78.42	-31.3	-33.0	12.2	2.29e-04	0	43	0	700448768	23	4368
2026-01-17 10:36:34.61	295.73	78.09	-31.3	-32.9	12.2	2.23e-04	0	43	0	701497344	23	4350
2026-01-17 10:36:35.61	297.46	77.74	-31.8	-34.6	11.2	5.46e-04	0	43	0	703594496	23	4961
2026-01-17 10:36:36.61	299.09	77.38	-32.1	-35.0	10.5	3.02e-03	0	43	0	705691648	24	5007
2026-01-17 10:36:37.62	300.64	77.02	-31.2	-32.7	12.5	4.84e-04	0	43	0	707788800	23	4270
2026-01-17 10:36:38.62	302.10	76.64	-30.2	-30.9	14.1	1.50e-06	0	43	0	708837376	21	3928
2026-01-17 10:36:39.62	303.47	76.26	-30.7	-32.2	13.4	7.00e-07	0	43	0	710934528	21	4311
2026-01-17 10:36:40.62	304.76	75.88	-31.0	-32.6	12.9	7.24e-05	0	43	0	713031680	22	4314
2026-01-17 10:36:41.62	305.98	75.49	-31.1	-32.9	12.6	3.73e-05	0	43	0	715128832	22	4430
2026-01-17 10:36:42.62	307.14	75.09	-32.0	-34.9	10.5	1.62e-03	0	43	0	717225984	24	5013
2026-01-17 10:36:43.63	308.24	74.69	-32.3	-35.7	9.8	9.85e-03	0	43	0	719323136	24	5353
2026-01-17 10:36:44.63	309.28	74.28	-32.5	-36.2	9.2	1.89e-02	0	43	0	720371712	25	5470
2026-01-17 10:36:45.63	310.26	73.88	-32.2	-35.1	9.8	1.52e-02	0	43	0	722468864	25	5010
2026-01-17 10:36:46.63	311.19	73.47	-31.0	-32.1	12.7	3.49e-03	0	43	0	724566016	23	4090
2026-01-17 10:36:47.64	312.08	73.05	-29.6	-30.0	15.0	0.00e+00	0	43	0	726663168	20	3765
2026-01-17 10:36:48.64	312.92	72.64	-30.1	-31.2	14.3	0.00e+00	0	43	0	727711744	20	4096
2026-01-17 10:36:49.64	313.71	72.22	-31.7	-34.2	11.4	1.76e-04	0	43	0	729808896	23	4832
2026-01-17 10:36:50.64	314.47	71.80	-32.3	-35.9	9.7	3.57e-03	0	43	0	731906048	24	5421
2026-01-17 10:36:51.64	315.20	71.38	-32.8	-37.1	8.4	3.64e-02	0	43	0	734003200	25	5945
2026-01-17 10:36:52.64	315.89	70.96	-33.1	-38.4	7.0	1.10e-01	0	43	0	736100352	26	6608
2026-01-17 10:36:53.64	316.55	70.54	-32.8	-36.7	8.2	1.39e-01	0	43	0	737148928	26	5660
2026-01-17 10:36:54.65	317.18	70.12	-32.9	-37.0	8.1	6.39e-02	0	43	0	739246080	26	5782
2026-01-17 10:36:55.65	317.78	69.70	-32.7	-36.5	8.5	5.20e-02	0	43	0	741343232	26	5564
2026-01-17 10:36:56.65	318.36	69.27	-32.5	-35.5	9.3	3.67e-02	0	43	0	743440384	26	5095
2026-01-17 10:36:57.65	318.91	68.85	-32.4	-35.6	9.5	1.01e-02	0	43	0	745537536	25	5242
2026-01-17 10:36:58.65	319.44	68.43	-33.0	-38.3	7.4	5.02e-02	0	43	0	746586112	25	6610
2026-01-17 10:36:59.65	319.94	68.01	-32.7	-36.5	8.0	1.42e-01	0	43	0	748683264	26	5541
2026-01-17 10:37:00.65	320.43	67.59	-30.3	-30.9	13.7	3.94e-03	0	43	0	750780416	22	3831
2026-01-17 10:37:01.66	320.90	67.17	-28.5	-28.3	16.6	0.00e+00	0	43	0	752877568	18	3528
2026-01-17 10:37:02.66	321.35	66.75	-28.4	-28.6	16.7	0.00e+00	0	43	0	754974720	17	3691
2026-01-17 10:37:03.66	321.78	66.33	-29.1	-29.9	15.7	7.00e-07	0	43	0	756023296	18	3916
2026-01-17 10:37:04.66	322.19	65.91	-29.9	-31.4	14.5	0.00e+00	0	43	0	758120448	19	4261
2026-01-17 10:37:05.66	322.59	65.50	-29.9	-30.7	14.5	0.00e+00	0	43	0	760217600	20	3982
2026-01-17 10:37:06.67	322.98	65.08	-30.0	-31.0	14.4	0.00e+00	0	43	0	762314752	20	4059
2026-01-17 10:37:07.67	323.35	64.67	-29.5	-29.7	15.1	7.00e-07	0	43	0	763363328	20	3703
2026-01-17 10:37:08.67	323.71	64.26	-29.0	-29.1	15.9	0.00e+00	0	43	0	765460480	19	3644
2026-01-17 10:37:09.67	324.05	63.85	-30.0	-31.1	14.3	0.00e+00	0	43	0	767557632	20	4068
2026-01-17 10:37:10.68	324.39	63.43	-30.2	-31.2	13.9	1.06e-05	0	43	0	769654784	21	4035
2026-01-17 10:37:11.68	324.71	63.03	-29.3	-29.8	15.4	0.00e+00	0	43	0	771751936	19	3811
2026-01-17 10:37:12.67	325.02	62.62	-28.2	-28.1	17.0	0.00e+00	0	43	0	772800512	17	3576
2026-01-17 10:37:13.67	325.32	62.22	-29.4	-30.5	15.4	0.00e+00	0	43	0	774897664	18	4083
2026-01-17 10:37:14.68	325.61	61.81	-30.2	-31.5	13.9	7.00e-07	0	43	0	776994816	20	4215
2026-01-17 10:37:15.68	325.89	61.41	-29.0	-29.1	15.7	0.00e+00	0	44	0	779091968	19	3636
2026-01-17 10:37:16.69	326.17	61.01	-28.7	-28.9	16.2	0.00e+00	0	43	0	781189120	18	3672
2026-01-17 10:37:17.69	326.44	60.62	-29.5	-30.7	15.2	0.00e+00	0	43	0	782237696	18	4149
2026-01-17 10:37:18.69	326.69	60.22	-29.2	-29.5	15.5	0.00e+00	0	43	0	784334848	19	3735
2026-01-17 10:37:19.70	326.94	59.82	-28.7	-28.8	16.3	0.00e+00	0	43	0	786432000	18	3648
2026-01-17 10:37:20.70	327.19	59.43	-29.7	-30.8	14.8	0.00e+00	0	43	0	788529152	19	4084
2026-01-17 10:37:21.70	327.42	59.05	-31.3	-33.8	11.8	2.13e-05	0	43	0	790626304	22	4776
2026-01-17 10:37:22.71	327.65	58.66	-31.5	-33.8	11.5	9.97e-04	0	43	0	791674880	23	4686
2026-01-17 10:37:23.71	327.87	58.27	-30.9	-32.0	12.6	4.20e-04	0	43	0	793772032	23	4106
2026-01-17 10:37:24.71	328.09	57.89	-30.4	-31.2	13.4	2.67e-05	0	43	0	795869184	22	3942
2026-01-17 10:37:25.72	328.30	57.51	-30.3	-31.4	13.7	8.30e-06	0	43	0	797966336	21	4087
2026-01-17 10:37:26.72	328.50	57.13	-30.2	-31.0	14.0	0.00e+00	0	43	0	800063488	21	3972
2026-01-17 10:37:27.72	328.70	56.75	-30.2	-31.1	13.9	7.60e-06	0	43	0	801112064	21	3986
2026-01-17 10:37:28.72	328.89	56.38	-29.7	-30.3	14.6	2.20e-06	0	43	0	803209216	20	3859
2026-01-17 10:37:29.73	329.08	56.00	-29.9	-30.8	14.4	7.00e-07	0	43	0	805306368	20	4003
2026-01-17 10:37:30.72	329.27	55.64	-30.1	-31.5	13.9	3.00e-06	0	43	0	807403520	20	4202
2026-01-17 10:37:31.72	329.44	55.27	-29.8	-30.6	14.4	2.20e-06	0	43	0	808452096	20	3957
2026-01-17 10:37:32.72	329.62	54.91	-30.0	-31.0	14.2	7.00e-07	0	43	0	810549248	20	4052
2026-01-17 10:37:33.72	329.79	54.55	-30.0	-31.2	14.1	2.20e-06	0	43	0	812646400	20	4104
2026-01-17 10:37:34.73	329.96	54.18	-30.2	-31.5	14.0	7.00e-07	0	43	0	814743552	20	4208
2026-01-17 10:37:35.73	330.12	53.82	-30.6	-32.2	13.1	1.90e-05	0	43	0	816840704	21	4348
2026-01-17 10:37:36.74	330.28	53.47	-30.2	-31.1	13.9	9.10e-06	0	43	0	817889280	21	3991
2026-01-17 10:37:37.74	330.43	53.11	-29.8	-30.5	14.5	7.00e-07	0	43	0	819986432	20	3913
2026-01-17 10:37:38.73	330.58	52.77	-29.9	-30.9	14.3	0.00e+00	0	43	0	822083584	20	4029
2026-01-17 10:37:39.73	330.73	52.42	-30.3	-31.8	13.6	3.80e-06	0	43	0	824180736	20	4310
2026-01-17 10:37:40.74	330.87	52.07	-30.2	-31.6	13.9	8.30e-06	0	43	0	826277888	20	4229
2026-01-17 10:37:41.73	331.01	51.73	-30.1	-31.5	13.9	2.20e-06	0	44	0	827326464	20	4206
2026-01-17 10:37:42.73	331.15	51.39	-30.9	-32.9	12.6	3.58e-05	0	43	0	829423616	21	4572
2026-01-17 10:37:43.74	331.28	51.04	-31.6	-34.3	11.0	1.06e-03	0	43	0	831520768	23	4886
2026-01-17 10:37:44.75	331.42	50.70	-31.8	-34.3	10.6	6.39e-03	0	44	0	833617920	24	4834
2026-01-17 10:37:45.75	331.55	50.37	-31.5	-33.4	11.2	2.90e-03	0	43	0	835715072	24	4467
2026-01-17 10:37:46.75	331.67	50.04	-31.4	-33.6	11.5	5.35e-04	0	43	0	836763648	23	4608
2026-01-17 10:37:47.76	331.80	49.70	-31.3	-33.2	11.8	5.78e-04	0	43	0	838860800	23	4469
2026-01-17 10:37:48.76	331.92	49.37	-31.5	-33.9	11.3	8.62e-04	0	43	0	840957952	23	4728
2026-01-17 10:37:49.76	332.04	49.05	-31.6	-34.0	11.2	1.83e-03	0	43	0	843055104	23	4766
2026-01-17 10:37:50.77	332.15	48.72	-31.8	-34.6	10.8	2.67e-03	0	43	0	845152256	23	5009
2026-01-17 10:37:51.77	332.27	48.40	-32.0	-35.5	10.2	4.33e-03	0	43	0	846200832	23	5365
2026-01-17 10:37:52.77	332.38	48.08	-32.2	-35.7	9.6	1.25e-02	0	43	0	848297984	24	5409
2026-01-17 10:37:53.77	332.49	47.77	-31.6	-33.7	11.0	7.38e-03	0	43	0	850395136	24	4574
2026-01-17 10:37:54.78	332.59	47.45	-31.6	-33.7	10.9	1.71e-03	0	43	0	852492288	24	4606
2026-01-17 10:37:55.78	332.70	47.14	-31.8	-34.4	10.6	3.15e-03	0	43	0	854589440	24	4831
2026-01-17 10:37:56.78	332.80	46.83	-32.4	-36.5	8.9	1.52e-02	0	43	0	855638016	24	5801
2026-01-17 10:37:57.78	332.90	46.52	-32.5	-36.3	8.6	6.46e-02	0	43	0	857735168	25	5609
2026-01-17 10:37:58.78	333.00	46.22	-32.3	-35.5	9.2	3.76e-02	0	43	0	859832320	25	5251
2026-01-17 10:37:59.79	333.10	45.91	-32.4	-35.9	9.0	2.43e-02	0	43	0	861929472	25	5415
2026-01-17 10:38:00.79	333.20	45.61	-31.9	-34.3	10.1	1.37e-02	0	43	0	862978048	25	4724
2026-01-17 10:38:01.79	333.29	45.31	-31.6	-33.6	11.1	4.57e-03	0	43	0	865075200	24	4557
2026-01-17 10:38:02.78	333.38	45.02	-31.0	-32.3	12.4	2.36e-04	0	43	0	867172352	23	4192
2026-01-17 10:38:03.78	333.47	44.72	-31.2	-33.0	11.9	2.80e-04	0	43	0	869269504	23	4412
2026-01-17 10:38:04.79	333.56	44.43	-30.9	-32.2	12.6	3.65e-04	0	43	0	871366656	23	4151
2026-01-17 10:38:05.79	333.65	44.14	-30.8	-32.3	12.7	7.55e-05	0	43	0	872415232	22	4273
2026-01-17 10:38:06.79	333.73	43.85	-31.1	-33.1	12.1	1.36e-04	0	43	0	874512384	22	4557
2026-01-17 10:38:07.80	333.82	43.56	-31.7	-34.6	10.7	7.68e-04	0	43	0	876609536	23	5043
2026-01-17 10:38:08.80	333.90	43.27	-32.0	-35.1	9.9	6.52e-03	0	43	0	878706688	24	5152
2026-01-17 10:38:09.80	333.98	42.99	-32.1	-35.5	9.6	1.14e-02	0	43	0	880803840	24	5338
2026-01-17 10:38:10.80	334.06	42.71	-32.2	-36.0	9.3	1.48e-02	0	43	0	881852416	24	5542
2026-01-17 10:38:11.81	334.14	42.43	-31.3	-32.7	11.6	3.11e-03	0	43	0	883949568	24	4255
2026-01-17 10:38:12.81	334.22	42.16	-30.1	-30.8	13.9	1.34e-04	0	43	0	886046720	21	3927
2026-01-17 10:38:13.81	334.30	41.88	-29.3	-29.7	15.2	0.00e+00	0	43	0	888143872	19	3805
2026-01-17 10:38:14.82	334.37	41.61	-29.0	-29.1	15.5	0.00e+00	0	44	0	890241024	19	3656
2026-01-17 10:38:15.82	334.45	41.34	-28.7	-28.9	16.0	0.00e+00	0	43	0	891289600	18	3691
2026-01-17 10:38:16.82	334.52	41.07	-29.3	-30.3	15.2	0.00e+00	0	43	0	893386752	18	4055
2026-01-17 10:38:17.82	334.59	40.80	-29.7	-31.0	14.5	0.00e+00	0	43	0	895483904	19	4152
2026-01-17 10:38:18.82	334.66	40.54	-29.8	-31.2	14.3	0.00e+00	0	43	0	897581056	19	4214
2026-01-17 10:38:19.82	334.73	40.28	-30.0	-31.1	14.0	3.00e-06	0	43	0	899678208	20	4111
2026-01-17 10:38:20.83	334.80	40.01	-30.0	-31.1	14.0	3.00e-06	0	43	0	900726784	20	4107
2026-01-17 10:38:21.83	334.87	39.76	-29.8	-30.6	14.3	4.50e-06	0	43	0	902823936	20	3949
2026-01-17 10:38:22.84	334.94	39.50	-29.3	-29.8	15.2	7.00e-07	0	43	0	904921088	19	3813
2026-01-17 10:38:23.84	335.00	39.24	-29.7	-30.9	14.5	7.00e-07	0	43	0	907018240	19	4138
2026-01-17 10:38:24.84	335.07	38.99	-30.0	-31.1	14.0	7.00e-07	0	43	0	908066816	20	4099
2026-01-17 10:38:25.84	335.13	38.74	-30.0	-31.3	13.7	2.20e-06	0	43	0	910163968	20	4159
2026-01-17 10:38:26.84	335.19	38.49	-30.8	-32.8	12.6	4.80e-05	0	43	0	912261120	21	4526
2026-01-17 10:38:27.84	335.25	38.24	-30.9	-33.1	12.3	8.46e-05	0	43	0	914358272	21	4656
2026-01-17 10:38:28.85	335.31	37.99	-30.9	-33.2	12.3	1.43e-04	0	43	0	916455424	21	4673
2026-01-17 10:38:29.85	335.37	37.75	-30.4	-31.8	13.2	4.57e-05	0	43	0	917504000	21	4235
2026-01-17 10:38:30.85	335.43	37.51	-30.9	-33.1	12.5	5.95e-05	0	43	0	919601152	21	4649
2026-01-17 10:38:31.86	335.49	37.27	-30.7	-32.6	12.7	9.84e-05	0	43	0	921698304	21	4482
2026-01-17 10:38:32.86	335.55	37.03	-31.2	-33.7	11.7	1.67e-04	0	43	0	923795456	22	4766
2026-01-17 10:38:33.86	335.61	36.79	-31.4	-33.6	11.3	1.55e-03	0	43	0	925892608	23	4646
2026-01-17 10:38:34.86	335.66	36.55	-31.5	-34.0	11.1	1.36e-03	0	43	0	926941184	23	4790
2026-01-17 10:38:35.86	335.72	36.32	-31.7	-34.5	10.6	3.43e-03	0	43	0	929038336	23	5016
2026-01-17 10:38:36.86	335.77	36.09	-31.7	-34.5	10.7	4.89e-03	0	43	0	931135488	23	5016
2026-01-17 10:38:37.86	335.83	35.86	-31.7	-34.7	10.4	3.60e-03	0	43	0	933232640	23	5075
2026-01-17 10:38:38.86	335.88	35.63	-30.8	-32.0	12.3	6.72e-04	0	43	0	935329792	23	4116
2026-01-17 10:38:39.87	335.93	35.40	-30.6	-31.8	12.9	6.25e-05	0	43	0	936378368	22	4120
2026-01-17 10:38:40.87	335.99	35.17	-29.9	-30.5	14.0	1.14e-05	0	43	0	938475520	21	3839
2026-01-17 10:38:41.86	336.04	34.95	-29.6	-30.1	14.6	0.00e+00	0	43	0	940572672	20	3834
2026-01-17 10:38:42.86	336.09	34.73	-30.0	-31.1	14.0	7.00e-07	0	43	0	942669824	20	4109
2026-01-17 10:38:43.87	336.14	34.51	-30.4	-32.3	13.2	4.50e-06	0	43	0	943718400	20	4485
2026-01-17 10:38:44.87	336.19	34.29	-30.8	-32.9	12.4	6.56e-05	0	43	0	945815552	21	4571
2026-01-17 10:38:45.87	336.23	34.07	-31.4	-34.1	11.3	5.36e-04	0	43	0	947912704	22	4929
2026-01-17 10:38:46.86	336.28	33.86	-32.0	-35.2	9.8	5.96e-03	0	44	0	950009856	24	5203
2026-01-17 10:38:47.86	336.33	33.64	-32.3	-36.2	9.0	2.53e-02	0	43	0	952107008	24	5687
2026-01-17 10:38:48.87	336.38	33.43	-32.7	-37.3	7.7	5.69e-02	0	43	0	953155584	25	6167
2026-01-17 10:38:49.87	336.42	33.22	-32.8	-37.8	7.4	1.00e-01	0	43	0	955252736	25	6425
2026-01-17 10:38:50.87	336.47	33.01	-32.6	-37.0	8.0	7.31e-02	0	43	0	957349888	25	5969
2026-01-17 10:38:51.87	336.51	32.80	-32.8	-38.0	7.3	1.19e-01	0	43	0	959447040	25	6576
2026-01-17 10:38:52.88	336.56	32.59	-32.5	-36.8	8.0	1.27e-01	0	43	0	961544192	25	5897
2026-01-17 10:38:53.88	336.60	32.38	-32.3	-35.8	8.8	5.61e-02	0	43	0	962592768	25	5414
2026-01-17 10:38:54.88	336.65	32.18	-32.0	-34.7	9.8	1.62e-02	0	43	0	964689920	25	4907
2026-01-17 10:38:55.88	336.69	31.97	-31.7	-34.3	10.3	5.31e-03	0	44	0	966787072	24	4837
2026-01-17 10:38:56.89	336.73	31.77	-31.1	-32.7	11.8	1.83e-03	0	43	0	968884224	23	4349
2026-01-17 10:38:57.88	336.78	31.57	-30.7	-32.0	12.7	1.76e-04	0	43	0	970981376	22	4190
2026-01-17 10:38:58.88	336.82	31.37	-30.6	-31.8	12.8	1.35e-04	0	43	0	972029952	22	4137
2026-01-17 10:38:59.88	336.86	31.17	-30.4	-31.2	13.1	2.74e-05	0	43	0	974127104	22	3969
2026-01-17 10:39:00.88	336.90	30.98	-30.5	-31.5	13.1	2.21e-05	0	43	0	976224256	22	4045
2026-01-17 10:39:01.88	336.94	30.78	-30.1	-31.0	13.6	1.22e-05	0	43	0	978321408	21	3995
2026-01-17 10:39:02.88	336.98	30.59	-30.0	-30.8	13.8	3.80e-06	0	43	0	980418560	21	3920
2026-01-17 10:39:03.88	337.02	30.40	-30.0	-30.8	13.8	2.20e-06	0	43	0	981467136	21	3935
2026-01-17 10:39:04.89	337.06	30.20	-29.7	-30.5	14.3	7.00e-07	0	43	0	983564288	20	3940
2026-01-17 10:39:05.89	337.10	30.01	-29.8	-30.6	14.2	7.00e-07	0	43	0	985661440	20	3976
2026-01-17 10:39:06.89	337.14	29.82	-30.1	-31.5	13.6	3.80e-06	0	43	0	987758592	20	4229
2026-01-17 10:39:07.89	337.18	29.64	-29.7	-30.4	14.3	7.00e-07	0	43	0	988807168	20	3898
2026-01-17 10:39:08.88	337.21	29.45	-29.8	-30.6	14.1	7.00e-07	0	43	0	990904320	20	3968
2026-01-17 10:39:09.89	337.25	29.27	-29.9	-31.0	13.9	3.00e-06	0	43	0	993001472	20	4083
2026-01-17 10:39:10.90	337.29	29.08	-30.4	-32.3	13.1	8.30e-06	0	43	0	995098624	20	4485
2026-01-17 10:39:11.91	337.32	28.90	-30.6	-32.3	12.8	3.73e-05	0	43	0	997195776	21	4383
2026-01-17 10:39:12.91	337.36	28.71	-30.9	-33.2	12.2	1.56e-04	0	43	0	998244352	21	4699
2026-01-17 10:39:13.90	337.40	28.54	-31.1	-33.4	11.7	3.04e-04	0	43	0	1000341504	22	4685
2026-01-17 10:39:14.91	337.43	28.35	-31.3	-33.9	11.3	1.02e-03	0	43	0	1002438656	22	4871
2026-01-17 10:39:15.91	337.47	28.18	-31.4	-33.9	11.0	2.16e-03	0	43	0	1004535808	23	4788
2026-01-17 10:39:16.91	337.50	28.00	-31.4	-33.9	11.0	2.04e-03	0	44	0	1006632960	23	4792
2026-01-17 10:39:17.91	337.53	27.82	-31.7	-34.9	10.2	3.00e-03	0	43	0	1007681536	23	5173
2026-01-17 10:39:18.91	337.57	27.65	-31.5	-34.0	10.8	2.85e-03	0	43	0	1009778688	23	4839
2026-01-17 10:39:19.91	337.60	27.48	-31.3	-33.4	11.3	8.08e-04	0	43	0	1011875840	23	4602
2026-01-17 10:39:20.90	337.64	27.30	-30.9	-32.2	12.2	3.78e-04	0	43	0	1013972992	23	4179
2026-01-17 10:39:21.90	337.67	27.13	-30.8	-32.0	12.3	2.14e-04	0	43	0	1015021568	23	4119
2026-01-17 10:39:22.90	337.70	26.96	-30.6	-32.0	12.6	2.04e-04	0	43	0	1017118720	22	4199
2026-01-17 10:39:23.91	337.73	26.79	-30.3	-31.2	13.1	5.26e-05	0	43	0	1019215872	22	3983
2026-01-17 10:39:24.91	337.77	26.62	-30.3	-31.5	13.2	1.52e-05	0	43	0	1021313024	21	4144
2026-01-17 10:39:25.91	337.80	26.46	-29.9	-30.4	13.9	6.80e-06	0	43	0	1023410176	21	3826
2026-01-17 10:39:26.91	337.83	26.29	-29.7	-30.4	14.2	7.00e-07	0	44	0	1024458752	20	3929
2026-01-17 10:39:27.91	337.86	26.13	-29.5	-29.9	14.5	7.00e-07	0	43	0	1026555904	20	3795
2026-01-17 10:39:28.92	337.89	25.96	-29.3	-29.9	14.9	0.00e+00	0	44	0	1028653056	19	3865
2026-01-17 10:39:29.93	337.92	25.79	-29.3	-30.0	14.9	0.00e+00	0	43	0	1030750208	19	3882
2026-01-17 10:39:30.93	337.95	25.63	-29.2	-29.7	15.0	0.00e+00	0	43	0	1032847360	19	3817
2026-01-17 10:39:31.93	337.98	25.47	-29.1	-29.4	15.2	0.00e+00	0	44	0	1033895936	19	3732
2026-01-17 10:39:32.93	338.01	25.31	-29.0	-29.2	15.3	7.00e-07	0	43	0	1035993088	19	3688
2026-01-17 10:39:33.93	338.04	25.15	-29.1	-29.6	15.1	7.00e-07	0	43	0	1038090240	19	3785
2026-01-17 10:39:34.93	338.07	24.99	-29.0	-29.3	15.3	0.00e+00	0	43	0	1040187392	19	3706
2026-01-17 10:39:35.94	338.10	24.83	-28.9	-29.1	15.4	7.00e-07	0	43	0	1042284544	19	3657
2026-01-17 10:39:36.94	338.13	24.68	-29.0	-29.2	15.4	0.00e+00	0	43	0	1043333120	19	3677
2026-01-17 10:39:37.94	338.16	24.52	-28.8	-29.1	15.6	0.00e+00	0	43	0	1045430272	18	3761
2026-01-17 10:39:38.95	338.19	24.37	-28.9	-29.5	15.5	0.00e+00	0	43	0	1047527424	18	3842
2026-01-17 10:39:39.95	338.22	24.21	-29.1	-29.9	15.2	0.00e+00	0	43	0	1049624576	18	3967
2026-01-17 10:39:40.95	338.24	24.06	-28.8	-29.1	15.6	1.50e-06	0	43	0	1051721728	18	3758
2026-01-17 10:39:41.95	338.27	23.91	-28.7	-29.0	15.7	0.00e+00	0	44	0	1052770304	18	3725
2026-01-17 10:39:42.95	338.30	23.76	-28.5	-28.5	15.9	0.00e+00	0	44	0	1054867456	18	3614
2026-01-17 10:39:43.95	338.33	23.61	-28.5	-28.5	16.0	7.00e-07	0	44	0	1056964608	18	3593
2026-01-17 10:39:44.96	338.35	23.46	-28.5	-28.5	16.0	0.00e+00	0	43	0	1059061760	18	3610
2026-01-17 10:39:45.96	338.38	23.31	-28.5	-28.5	16.0	0.00e+00	0	43	0	1060110336	18	3596
2026-01-17 10:39:46.97	338.41	23.16	-28.7	-29.0	15.7	0.00e+00	0	43	0	1062207488	18	3720
2026-01-17 10:39:47.97	338.43	23.01	-28.7	-28.9	15.7	0.00e+00	0	43	0	1064304640	18	3713
2026-01-17 10:39:48.98	338.46	22.87	-28.9	-29.6	15.3	0.00e+00	0	43	0	1066401792	18	3874
2026-01-17 10:39:49.98	338.49	22.72	-29.0	-29.7	15.2	0.00e+00	0	43	0	1068498944	18	3915
2026-01-17 10:39:50.99	338.51	22.58	-29.2	-30.2	14.9	0.00e+00	0	43	0	1070596096	18	4042
2026-01-17 10:39:51.99	338.54	22.43	-29.2	-30.2	14.9	0.00e+00	0	43	0	1071644672	18	4058
2026-01-17 10:39:52.99	338.56	22.29	-29.3	-30.4	14.8	7.00e-07	0	43	0	1073741824	18	4103
2026-01-17 10:39:53.99	338.59	22.15	-29.3	-30.4	14.8	0.00e+00	0	43	0	1075838976	18	4116
2026-01-17 10:39:54.99	338.61	22.01	-29.2	-30.3	14.9	0.00e+00	0	43	0	1077936128	18	4078
2026-01-17 10:39:55.99	338.64	21.87	-29.1	-29.9	15.1	0.00e+00	0	43	0	1078984704	18	3970
2026-01-17 10:39:56.99	338.66	21.73	-29.0	-29.6	15.3	0.00e+00	0	43	0	1081081856	18	3888
2026-01-17 10:39:57.99	338.69	21.59	-28.9	-29.5	15.3	0.00e+00	0	44	0	1083179008	18	3864
2026-01-17 10:39:58.99	338.71	21.45	-28.8	-29.2	15.5	0.00e+00	0	43	0	1085276160	18	3776
2026-01-17 10:39:59.99	338.74	21.31	-28.8	-29.3	15.4	0.00e+00	0	43	0	1087373312	18	3808
2026-01-17 10:40:00.99	338.76	21.18	-29.0	-29.9	15.2	0.00e+00	0	43	0	1088421888	18	3959
2026-01-17 10:40:01.99	338.78	21.04	-28.8	-29.2	15.6	0.00e+00	0	43	0	1090519040	18	3772
2026-01-17 10:40:02.99	338.81	20.91	-28.4	-28.3	16.0	0.00e+00	0	43	0	1092616192	18	3571
2026-01-17 10:40:03.99	338.83	20.77	-28.6	-28.8	15.8	0.00e+00	0	43	0	1094713344	18	3674
2026-01-17 10:40:05.00	338.85	20.64	-28.7	-29.1	15.5	0.00e+00	0	43	0	1096810496	18	3761
2026-01-17 10:40:05.99	338.88	20.51	-28.6	-28.8	15.7	0.00e+00	0	43	0	1097859072	18	3688
2026-01-17 10:40:07.00	338.90	20.37	-28.7	-29.1	15.5	0.00e+00	0	43	0	1099956224	18	3756
2026-01-17 10:40:07.99	338.92	20.24	-28.8	-29.4	15.4	0.00e+00	0	43	0	1102053376	18	3821
2026-01-17 10:40:08.99	338.94	20.11	-28.9	-29.4	15.3	0.00e+00	0	43	0	1104150528	18	3838
2026-01-17 10:40:10.00	338.97	19.98	-29.1	-30.1	14.9	0.00e+00	0	43	0	1106247680	18	4021
2026-01-17 10:40:11.00	338.99	19.85	-29.0	-29.9	15.0	0.00e+00	0	44	0	1107296256	18	3965
2026-01-17 10:40:12.01	339.01	19.72	-29.0	-29.9	15.1	7.00e-07	0	43	0	1109393408	18	3955
2026-01-17 10:40:13.01	339.03	19.59	-28.9	-29.6	15.2	7.00e-07	0	43	0	1111490560	18	3890
2026-01-17 10:40:14.01	339.06	19.46	-29.1	-30.1	14.9	7.00e-07	0	43	0	1113587712	18	4026
2026-01-17 10:40:15.01	339.08	19.34	-29.1	-30.0	15.0	7.00e-07	0	43	0	1114636288	18	3992
2026-01-17 10:40:16.01	339.10	19.21	-29.0	-29.9	15.0	0.00e+00	0	43	0	1116733440	18	3970
2026-01-17 10:40:17.02	339.12	19.08	-29.1	-29.9	15.0	7.00e-07	0	43	0	1118830592	18	3978
2026-01-17 10:40:18.02	339.14	18.96	-28.9	-29.6	15.2	0.00e+00	0	43	0	1120927744	18	3879
2026-01-17 10:40:19.02	339.16	18.84	-28.9	-29.5	15.2	0.00e+00	0	43	0	1123024896	18	3867
2026-01-17 10:40:20.03	339.18	18.71	-29.0	-29.8	15.1	0.00e+00	0	43	0	1124073472	18	3953
2026-01-17 10:40:21.03	339.20	18.59	-28.7	-29.0	15.5	0.00e+00	0	43	0	1126170624	18	3746
2026-01-17 10:40:22.03	339.23	18.47	-28.9	-29.5	15.2	0.00e+00	0	43	0	1128267776	18	3862
2026-01-17 10:40:23.03	339.25	18.34	-28.8	-29.2	15.3	0.00e+00	0	43	0	1130364928	18	3795
2026-01-17 10:40:24.04	339.27	18.22	-28.7	-29.1	15.5	0.00e+00	0	43	0	1132462080	18	3749
2026-01-17 10:40:25.04	339.29	18.10	-28.7	-29.1	15.5	0.00e+00	0	43	0	1133510656	18	3759
2026-01-17 10:40:26.04	339.31	17.98	-28.8	-29.4	15.3	0.00e+00	0	43	0	1135607808	18	3840
2026-01-17 10:40:27.04	339.33	17.86	-28.8	-29.4	15.3	0.00e+00	0	43	0	1137704960	18	3830
2026-01-17 10:40:28.05	339.35	17.74	-28.9	-29.5	15.2	0.00e+00	0	43	0	1139802112	18	3873
2026-01-17 10:40:29.06	339.37	17.62	-29.3	-30.5	14.6	0.00e+00	0	44	0	1141899264	18	4157
2026-01-17 10:40:30.05	339.39	17.51	-29.2	-30.4	14.7	0.00e+00	0	44	0	1142947840	18	4114
2026-01-17 10:40:31.06	339.41	17.39	-29.1	-30.0	14.9	0.00e+00	0	43	0	1145044992	18	3994
2026-01-17 10:40:32.06	339.43	17.27	-29.2	-30.4	14.6	0.00e+00	0	43	0	1147142144	18	4128
2026-01-17 10:40:33.06	339.45	17.16	-29.4	-30.9	14.3	0.00e+00	0	43	0	1149239296	18	4261
2026-01-17 10:40:34.06	339.46	17.04	-29.3	-30.6	14.5	4.50e-06	0	43	0	1151336448	18	4175
2026-01-17 10:40:35.06	339.48	16.92	-29.5	-30.7	14.2	2.20e-06	0	43	0	1152385024	19	4102
2026-01-17 10:40:36.06	339.50	16.81	-29.5	-30.7	14.1	4.50e-06	0	44	0	1154482176	19	4122
2026-01-17 10:40:37.07	339.52	16.70	-29.6	-30.9	14.0	3.80e-06	0	43	0	1156579328	19	4163
2026-01-17 10:40:38.07	339.54	16.58	-29.7	-31.1	13.9	1.50e-06	0	43	0	1158676480	19	4232
2026-01-17 10:40:39.07	339.56	16.47	-29.8	-31.5	13.6	8.30e-06	0	43	0	1159725056	19	4349
2026-01-17 10:40:40.07	339.58	16.36	-29.9	-31.2	13.4	1.37e-05	0	43	0	1161822208	20	4194
2026-01-17 10:40:41.07	339.60	16.25	-29.9	-31.3	13.3	1.75e-05	0	43	0	1163919360	20	4209
2026-01-17 10:40:42.07	339.61	16.13	-30.0	-31.5	13.3	1.44e-05	0	43	0	1166016512	20	4265
2026-01-17 10:40:43.07	339.63	16.02	-30.2	-32.0	12.9	3.66e-05	0	44	0	1168113664	20	4431
2026-01-17 10:40:44.08	339.65	15.91	-30.2	-32.1	12.9	3.73e-05	0	43	0	1169162240	20	4461
2026-01-17 10:40:45.08	339.67	15.80	-30.4	-32.5	12.5	4.65e-05	0	43	0	1171259392	20	4606
2026-01-17 10:40:46.09	339.69	15.69	-30.3	-32.5	12.5	7.32e-05	0	43	0	1173356544	20	4596
2026-01-17 10:40:47.08	339.70	15.58	-30.3	-32.2	12.7	1.06e-04	0	43	0	1175453696	20	4506
2026-01-17 10:40:48.08	339.72	15.48	-30.4	-32.5	12.5	1.20e-04	0	43	0	1177550848	20	4618
2026-01-17 10:40:49.09	339.74	15.37	-30.6	-32.6	12.1	2.60e-04	0	43	0	1178599424	21	4566
2026-01-17 10:40:50.10	339.76	15.26	-30.7	-33.1	11.7	2.46e-04	0	43	0	1180696576	21	4734
2026-01-17 10:40:51.10	339.77	15.15	-30.7	-33.1	11.7	4.52e-04	0	43	0	1182793728	21	4719
2026-01-17 10:40:52.10	339.79	15.05	-30.8	-33.3	11.6	6.26e-04	0	43	0	1184890880	21	4819
2026-01-17 10:40:53.10	339.81	14.94	-30.7	-33.0	11.8	5.38e-04	0	43	0	1186988032	21	4710
2026-01-17 10:40:54.10	339.83	14.83	-30.9	-33.6	11.3	1.14e-03	0	44	0	1188036608	21	4941
2026-01-17 10:40:55.10	339.84	14.73	-30.9	-33.8	11.3	1.11e-03	0	43	0	1190133760	21	4981
2026-01-17 10:40:56.10	339.86	14.63	-31.1	-33.8	10.9	1.78e-03	0	43	0	1192230912	22	4889
2026-01-17 10:40:57.11	339.88	14.52	-31.2	-34.2	10.5	2.52e-03	0	43	0	1194328064	22	5082
2026-01-17 10:40:58.10	339.89	14.42	-31.2	-34.0	10.7	2.68e-03	0	43	0	1196425216	22	4984
2026-01-17 10:40:59.11	339.91	14.31	-31.1	-33.8	10.9	2.11e-03	0	43	0	1197473792	22	4926
2026-01-17 10:41:00.11	339.93	14.21	-31.0	-33.6	10.9	2.44e-03	0	43	0	1199570944	22	4838
2026-01-17 10:41:01.09	339.94	14.11	-31.1	-33.8	10.8	2.63e-03	0	43	0	1201668096	22	4923
2026-01-17 10:41:02.09	339.96	14.01	-31.1	-33.8	10.8	1.97e-03	0	43	0	1203765248	22	4899
2026-01-17 10:41:03.09	339.98	13.91	-31.0	-33.6	11.0	2.32e-03	0	43	0	1204813824	22	4830
2026-01-17 10:41:04.10	339.99	13.80	-31.1	-33.8	10.8	2.45e-03	0	43	0	1206910976	22	4904
2026-01-17 10:41:05.10	340.01	13.70	-30.8	-32.9	11.4	1.34e-03	0	44	0	1209008128	22	4566
2026-01-17 10:41:06.11	340.03	13.60	-30.6	-32.3	11.8	6.88e-04	0	43	0	1211105280	22	4375
2026-01-17 10:41:07.11	340.04	13.50	-30.6	-32.2	11.9	3.39e-04	0	43	0	1213202432	22	4339
2026-01-17 10:41:08.12	340.06	13.40	-30.4	-31.5	12.4	1.91e-04	0	44	0	1214251008	22	4124
2026-01-17 10:41:09.12	340.07	13.30	-30.4	-32.2	12.2	1.43e-04	0	43	0	1216348160	21	4438
2026-01-17 10:41:10.13	340.09	13.20	-30.3	-32.0	12.3	2.26e-04	0	43	0	1218445312	21	4373
2026-01-17 10:41:11.14	340.11	13.11	-30.3	-32.0	12.4	1.51e-04	0	43	0	1220542464	21	4365
2026-01-17 10:41:12.14	340.12	13.01	-30.4	-32.1	12.3	1.33e-04	0	43	0	1222639616	21	4398
2026-01-17 10:41:13.14	340.14	12.91	-30.4	-32.1	12.3	1.68e-04	0	43	0	1223688192	21	4414
2026-01-17 10:41:14.14	340.15	12.81	-30.4	-32.3	12.2	2.27e-04	0	43	0	1225785344	21	4474
2026-01-17 10:41:15.15	340.17	12.72	-30.4	-32.2	12.2	2.07e-04	0	43	0	1227882496	21	4432
2026-01-17 10:41:16.15	340.18	12.62	-30.4	-32.3	12.1	2.75e-04	0	43	0	1229979648	21	4487
2026-01-17 10:41:17.15	340.20	12.52	-30.5	-32.4	12.0	3.85e-04	0	43	0	1232076800	21	4513
2026-01-17 10:41:18.15	340.21	12.43	-30.3	-31.9	12.4	1.42e-04	0	43	0	1233125376	21	4335
2026-01-17 10:41:19.15	340.23	12.33	-30.6	-32.7	11.8	5.75e-04	0	43	0	1235222528	21	4620
2026-01-17 10:41:20.15	340.24	12.24	-30.4	-32.2	12.2	3.20e-04	0	43	0	1237319680	21	4427
2026-01-17 10:41:21.16	340.26	12.14	-30.4	-32.3	12.1	2.17e-04	0	43	0	1239416832	21	4473
2026-01-17 10:41:22.16	340.27	12.05	-30.5	-32.5	12.0	2.85e-04	0	43	0	1241513984	21	4552
2026-01-17 10:41:23.15	340.29	11.96	-30.5	-32.6	11.8	3.39e-04	0	43	0	1242562560	21	4592
2026-01-17 10:41:24.16	340.30	11.86	-30.6	-32.8	11.7	5.96e-04	0	43	0	1244659712	21	4652
2026-01-17 10:41:25.16	340.32	11.77	-30.6	-32.8	11.7	3.60e-04	0	43	0	1246756864	21	4667
2026-01-17 10:41:26.16	340.33	11.68	-30.6	-33.0	11.5	9.02e-04	0	43	0	1248854016	21	4711
2026-01-17 10:41:27.17	340.35	11.58	-30.7	-33.1	11.4	8.19e-04	0	43	0	1250951168	21	4782
2026-01-17 10:41:28.18	340.36	11.49	-30.6	-32.8	11.7	2.81e-04	0	43	0	1251999744	21	4644
2026-01-17 10:41:29.17	340.38	11.40	-30.7	-33.1	11.4	9.51e-04	0	44	0	1254096896	21	4769
2026-01-17 10:41:30.18	340.39	11.31	-30.7	-33.1	11.4	1.00e-03	0	43	0	1256194048	21	4757
2026-01-17 10:41:31.17	340.41	11.22	-30.6	-33.0	11.6	8.18e-04	0	43	0	1258291200	21	4716
2026-01-17 10:41:32.18	340.42	11.13	-30.3	-31.9	12.3	2.40e-04	0	43	0	1259339776	21	4347
2026-01-17 10:41:33.18	340.43	11.04	-30.4	-32.3	12.0	4.78e-04	0	43	0	1261436928	21	4470
2026-01-17 10:41:34.18	340.45	10.95	-30.5	-32.7	11.7	2.16e-04	0	43	0	1263534080	21	4623
2026-01-17 10:41:35.18	340.46	10.86	-30.5	-32.5	11.8	5.11e-04	0	43	0	1265631232	21	4560
2026-01-17 10:41:36.18	340.48	10.77	-30.4	-32.4	12.0	3.04e-04	0	44	0	1267728384	21	4507
2026-01-17 10:41:37.19	340.49	10.68	-30.5	-32.5	11.8	5.13e-04	0	44	0	1268776960	21	4555
2026-01-17 10:41:38.19	340.50	10.59	-30.5	-32.6	11.8	4.33e-04	0	43	0	1270874112	21	4607
2026-01-17 10:41:39.20	340.52	10.50	-30.4	-32.3	12.0	6.45e-04	0	43	0	1272971264	21	4478
2026-01-17 10:41:40.20	340.53	10.41	-30.4	-32.5	11.8	5.78e-04	0	44	0	1275068416	21	4570
2026-01-17 10:41:41.20	340.55	10.33	-30.2	-31.9	12.2	4.95e-04	0	43	0	1277165568	21	4343
2026-01-17 10:41:42.21	340.56	10.24	-30.3	-32.1	12.1	1.50e-04	0	44	0	1278214144	21	4411
