passes_logs/2026/01/17/R2M6_AANII_01/R2M6_AANII_01__20260117_034009_AQUA_rec.log

#Pass ID: 20260117_034009_AQUA
#Satellite: AQUA
#Configuration: AQUA
#almurnet v.1.7.20240730
#Start time: 2026-01-17 03:40:11

#Version: 2.2.20231116
#Station: R2M6_AANII_01
#Location: 30.233357 lon 59.946436 lat
#TLE: 1 27424U 02022A   26016.26443506  .00000711  00000+0  15228-3 0  9999
#TLE: 2 27424  98.4083 342.7130 0002022  76.7284  27.4473 14.61823291261073

#Time	Az	El	Level	Level2	SNR	BER	BlckErr	Temp	State	Recorded	gain1	gain2
2026-01-17 03:40:11.15	6.48	7.09	-32.0	-48.5	3.8	7.42e-01	0	41	0	0	24	24164
2026-01-17 03:40:12.15	6.38	7.15	-32.0	-48.5	3.8	7.44e-01	0	41	104	0	24	23997
2026-01-17 03:40:13.16	6.27	7.22	-32.1	-48.5	3.8	7.48e-01	0	41	104	0	25	23670
2026-01-17 03:40:14.16	6.17	7.29	-32.1	-48.1	3.8	7.45e-01	0	41	104	0	25	22751
2026-01-17 03:40:15.16	6.07	7.36	-32.1	-48.7	3.8	7.45e-01	0	41	104	0	24	24462
2026-01-17 03:40:16.16	5.96	7.43	-32.2	-48.4	3.8	7.42e-01	0	41	104	0	25	23401
2026-01-17 03:40:17.16	5.86	7.50	-32.0	-47.7	3.8	7.45e-01	0	41	104	0	25	21960
2026-01-17 03:40:18.17	5.75	7.57	-31.8	-47.3	3.8	7.44e-01	0	41	104	0	24	21457
2026-01-17 03:40:19.17	5.65	7.64	-31.6	-46.6	3.8	7.44e-01	0	41	104	0	24	20080
2026-01-17 03:40:20.18	5.54	7.71	-31.4	-46.3	3.8	7.43e-01	0	42	104	0	23	19903
2026-01-17 03:40:21.18	5.43	7.78	-31.2	-45.5	3.8	7.41e-01	0	42	104	0	23	18607
2026-01-17 03:40:22.18	5.33	7.85	-31.2	-45.3	3.8	7.42e-01	0	42	104	0	23	18368
2026-01-17 03:40:23.19	5.22	7.92	-31.5	-46.5	3.8	7.43e-01	0	42	104	0	23	20279
2026-01-17 03:40:24.20	5.11	7.99	-31.1	-45.1	3.8	7.45e-01	0	42	104	0	23	18056
2026-01-17 03:40:25.20	5.00	8.06	-30.9	-45.0	3.8	7.42e-01	0	42	104	0	22	18214
2026-01-17 03:40:26.20	4.89	8.13	-30.7	-44.3	3.8	7.45e-01	0	42	104	0	22	17282
2026-01-17 03:40:27.20	4.78	8.20	-30.4	-44.0	3.8	7.45e-01	0	42	104	0	21	17283
2026-01-17 03:40:28.21	4.67	8.27	-30.3	-43.8	3.8	7.47e-01	0	42	104	0	21	16969
2026-01-17 03:40:29.22	4.56	8.34	-30.6	-44.5	3.8	7.42e-01	0	42	104	0	21	17939
2026-01-17 03:40:30.22	4.45	8.41	-30.8	-44.8	3.8	7.42e-01	0	42	104	0	22	17922
2026-01-17 03:40:31.22	4.33	8.48	-31.2	-45.5	3.8	7.43e-01	0	42	104	0	23	18697
2026-01-17 03:40:32.22	4.22	8.55	-31.4	-46.3	3.8	7.45e-01	0	42	104	0	23	20024
2026-01-17 03:40:33.23	4.11	8.62	-31.7	-47.0	3.8	7.42e-01	0	42	104	0	24	20749
2026-01-17 03:40:34.23	3.99	8.69	-31.9	-47.6	3.8	7.46e-01	0	42	104	0	24	21882
2026-01-17 03:40:35.24	3.88	8.76	-31.9	-47.6	3.8	7.47e-01	0	42	104	0	24	21913
2026-01-17 03:40:36.24	3.76	8.83	-31.9	-47.7	3.8	7.47e-01	0	42	104	0	24	22178
2026-01-17 03:40:37.25	3.64	8.91	-32.0	-48.1	3.8	7.46e-01	0	42	104	0	24	22818
2026-01-17 03:40:38.25	3.53	8.98	-32.0	-48.1	3.8	7.46e-01	0	42	104	0	24	23004
2026-01-17 03:40:39.26	3.41	9.05	-32.2	-48.3	3.8	7.45e-01	0	42	104	0	25	22911
2026-01-17 03:40:40.26	3.29	9.12	-32.3	-48.6	3.8	7.47e-01	0	42	104	0	25	23622
2026-01-17 03:40:41.26	3.17	9.19	-32.4	-49.2	3.8	7.46e-01	0	42	104	0	25	24942
2026-01-17 03:40:42.26	3.05	9.26	-32.5	-49.9	3.8	7.43e-01	0	42	104	0	25	26477
2026-01-17 03:40:43.25	2.93	9.34	-32.6	-50.0	3.8	7.42e-01	0	42	104	0	26	26619
2026-01-17 03:40:44.26	2.81	9.41	-32.7	-50.3	3.8	7.44e-01	0	42	104	0	26	27239
2026-01-17 03:40:45.26	2.69	9.48	-32.8	-50.7	3.8	7.45e-01	0	42	104	0	26	28221
2026-01-17 03:40:46.26	2.57	9.55	-32.8	-51.0	3.8	7.47e-01	0	42	104	0	26	29165
2026-01-17 03:40:47.27	2.45	9.63	-32.8	-51.3	3.8	7.42e-01	0	42	104	0	26	30133
2026-01-17 03:40:48.27	2.32	9.70	-32.8	-51.1	3.8	7.44e-01	0	42	104	0	26	29504
2026-01-17 03:40:49.27	2.20	9.77	-32.8	-50.7	3.8	7.44e-01	0	42	104	0	26	28382
2026-01-17 03:40:50.28	2.07	9.84	-32.8	-50.6	3.8	7.44e-01	0	42	104	0	26	27987
2026-01-17 03:40:51.27	1.95	9.92	-32.7	-50.2	3.8	7.47e-01	0	42	104	0	26	26986
2026-01-17 03:40:52.28	1.82	9.99	-32.7	-50.1	3.8	7.45e-01	0	42	104	0	26	26763
2026-01-17 03:40:53.28	1.70	10.06	-32.6	-49.7	3.8	7.44e-01	0	42	104	0	26	25677
2026-01-17 03:40:54.28	1.57	10.14	-32.5	-49.6	3.8	7.43e-01	0	42	104	0	25	25811
2026-01-17 03:40:55.29	1.44	10.21	-32.5	-49.6	3.8	7.42e-01	0	42	104	0	25	25761
2026-01-17 03:40:56.29	1.31	10.28	-32.4	-49.2	3.8	7.44e-01	0	42	104	0	25	24705
2026-01-17 03:40:57.30	1.18	10.36	-32.3	-48.5	3.8	7.45e-01	0	42	104	0	25	23269
2026-01-17 03:40:58.30	1.05	10.43	-32.1	-47.8	3.8	7.45e-01	0	43	104	0	25	21730
2026-01-17 03:40:59.30	0.92	10.51	-31.9	-47.4	3.8	7.46e-01	0	42	104	0	24	21371
2026-01-17 03:41:00.29	0.79	10.58	-31.9	-47.4	3.8	7.43e-01	0	43	104	0	24	21341
2026-01-17 03:41:01.27	0.66	10.65	-32.0	-47.5	3.8	7.46e-01	0	43	104	0	24	21558
2026-01-17 03:41:02.28	0.52	10.73	-32.3	-48.1	3.8	7.43e-01	0	43	104	0	25	22429
2026-01-17 03:41:03.28	0.39	10.80	-32.3	-48.5	3.8	7.42e-01	0	42	104	0	25	23184
2026-01-17 03:41:04.28	0.25	10.87	-32.2	-47.8	3.8	7.44e-01	0	43	104	0	25	21797
2026-01-17 03:41:05.28	0.12	10.95	-32.4	-48.6	3.8	7.43e-01	0	42	104	0	25	23300
2026-01-17 03:41:06.29	359.98	11.02	-32.1	-47.7	3.8	7.43e-01	0	42	104	0	25	21515
2026-01-17 03:41:07.29	359.84	11.10	-31.9	-47.2	3.8	7.46e-01	0	43	104	0	24	20916
2026-01-17 03:41:08.29	359.71	11.17	-32.0	-47.6	3.8	7.46e-01	0	43	104	0	24	21560
2026-01-17 03:41:09.30	359.57	11.25	-31.5	-45.7	3.8	7.45e-01	0	43	104	0	24	18406
2026-01-17 03:41:10.31	359.42	11.32	-31.7	-46.3	3.8	7.45e-01	0	43	104	0	24	19282
2026-01-17 03:41:11.31	359.28	11.40	-30.8	-44.4	3.8	7.45e-01	0	43	104	0	22	17293
2026-01-17 03:41:12.31	359.14	11.47	-30.7	-44.2	3.8	7.45e-01	0	43	104	0	22	16902
2026-01-17 03:41:13.31	359.00	11.55	-30.5	-44.0	3.8	7.44e-01	0	43	104	0	21	17027
2026-01-17 03:41:14.31	358.86	11.62	-30.2	-43.1	3.8	7.42e-01	0	43	104	0	21	15945
2026-01-17 03:41:15.32	358.71	11.70	-30.6	-44.0	3.8	7.46e-01	0	43	104	0	22	16719
2026-01-17 03:41:16.32	358.57	11.78	-30.0	-43.2	3.8	7.45e-01	0	43	104	0	20	16438
2026-01-17 03:41:17.33	358.42	11.85	-30.6	-43.6	3.8	7.44e-01	0	43	104	0	22	16218
2026-01-17 03:41:18.33	358.28	11.93	-30.2	-43.1	3.8	7.43e-01	0	43	104	0	21	15899
2026-01-17 03:41:19.33	358.13	12.00	-30.5	-44.1	3.8	7.42e-01	0	43	104	0	21	17085
2026-01-17 03:41:20.33	357.98	12.08	-31.1	-44.8	3.8	7.44e-01	0	43	104	0	23	17347
2026-01-17 03:41:21.34	357.83	12.16	-31.3	-45.4	3.8	7.44e-01	0	43	104	0	23	18214
2026-01-17 03:41:22.34	357.68	12.23	-31.7	-46.0	3.9	7.44e-01	0	43	104	0	24	18838
2026-01-17 03:41:23.34	357.53	12.31	-31.8	-46.8	3.8	7.43e-01	0	43	104	0	24	20130
2026-01-17 03:41:24.34	357.38	12.38	-32.2	-47.6	3.8	7.43e-01	0	43	104	0	25	21160
2026-01-17 03:41:25.34	357.23	12.46	-32.1	-47.2	3.8	7.46e-01	0	43	104	0	25	20521
2026-01-17 03:41:26.34	357.08	12.54	-32.1	-47.3	3.9	7.46e-01	0	43	104	0	25	20660
2026-01-17 03:41:27.34	356.92	12.61	-32.3	-47.9	3.8	7.43e-01	0	43	104	0	25	21706
2026-01-17 03:41:28.34	356.77	12.69	-32.4	-48.2	3.8	7.47e-01	0	43	104	0	25	22366
2026-01-17 03:41:29.35	356.61	12.77	-32.4	-48.5	3.8	7.48e-01	0	43	104	0	25	22853
2026-01-17 03:41:30.35	356.46	12.84	-32.3	-47.8	3.8	7.45e-01	0	43	104	0	25	21656
2026-01-17 03:41:31.35	356.30	12.92	-32.2	-47.6	3.8	7.47e-01	0	43	104	0	25	21275
2026-01-17 03:41:32.35	356.14	13.00	-32.4	-48.5	3.8	7.42e-01	0	43	104	0	25	22962
2026-01-17 03:41:33.36	355.98	13.07	-32.6	-49.4	3.8	7.43e-01	0	43	104	0	25	24828
2026-01-17 03:41:34.36	355.82	13.15	-32.7	-49.5	3.8	7.42e-01	0	43	104	0	26	24894
2026-01-17 03:41:35.36	355.66	13.23	-32.8	-50.0	3.8	7.44e-01	0	43	104	0	26	25955
2026-01-17 03:41:36.36	355.50	13.30	-32.9	-50.6	3.8	7.45e-01	0	43	104	0	26	27563
2026-01-17 03:41:37.36	355.34	13.38	-32.9	-50.7	3.8	7.43e-01	0	43	104	0	26	27783
2026-01-17 03:41:38.37	355.17	13.46	-32.9	-50.3	3.8	7.45e-01	0	43	104	0	26	26724
2026-01-17 03:41:39.37	355.01	13.54	-32.8	-50.0	3.8	7.45e-01	0	43	104	0	26	26093
2026-01-17 03:41:40.37	354.84	13.61	-32.8	-49.6	3.8	7.47e-01	0	43	104	0	26	24973
2026-01-17 03:41:41.37	354.68	13.69	-32.7	-49.3	3.8	7.47e-01	0	43	104	0	26	24418
2026-01-17 03:41:42.37	354.51	13.77	-32.7	-49.2	3.8	7.42e-01	0	43	104	0	26	24116
2026-01-17 03:41:43.37	354.34	13.84	-32.6	-49.0	3.8	7.44e-01	0	43	104	0	26	23672
2026-01-17 03:41:44.38	354.17	13.92	-32.6	-49.2	3.8	7.47e-01	0	43	104	0	25	24419
2026-01-17 03:41:45.38	354.00	14.00	-32.5	-48.8	3.8	7.44e-01	0	43	104	0	25	23451
2026-01-17 03:41:46.39	353.83	14.08	-32.5	-48.6	3.8	7.44e-01	0	43	104	0	25	23132
2026-01-17 03:41:47.38	353.66	14.15	-32.3	-47.8	3.8	7.45e-01	0	43	104	0	25	21559
2026-01-17 03:41:48.39	353.48	14.23	-32.2	-47.5	3.8	7.43e-01	0	43	104	0	25	20857
2026-01-17 03:41:49.40	353.31	14.31	-32.1	-47.3	3.8	7.43e-01	0	43	104	0	24	20941
2026-01-17 03:41:50.40	353.13	14.39	-32.0	-47.4	3.8	7.42e-01	0	43	104	0	24	21062
2026-01-17 03:41:51.40	352.95	14.47	-32.2	-47.5	3.8	7.48e-01	0	43	104	0	25	20866
2026-01-17 03:41:52.40	352.78	14.54	-32.4	-48.2	3.8	7.44e-01	0	43	104	0	25	22124
2026-01-17 03:41:53.40	352.60	14.62	-32.6	-48.8	3.8	7.45e-01	0	43	104	0	26	23125
2026-01-17 03:41:54.41	352.42	14.70	-32.3	-47.9	3.8	7.45e-01	0	43	104	0	25	21719
2026-01-17 03:41:55.41	352.24	14.78	-32.2	-47.6	3.8	7.45e-01	0	43	104	0	25	21053
2026-01-17 03:41:56.42	352.06	14.85	-32.3	-47.9	3.8	7.46e-01	0	43	104	0	25	21598
2026-01-17 03:41:57.42	351.87	14.93	-32.0	-47.0	3.8	7.45e-01	0	43	104	0	24	20308
2026-01-17 03:41:58.43	351.69	15.01	-31.8	-46.3	3.8	7.42e-01	0	43	104	0	24	19092
2026-01-17 03:41:59.43	351.50	15.09	-31.3	-45.2	3.8	7.43e-01	0	43	104	0	23	17877
2026-01-17 03:42:00.43	351.32	15.16	-31.0	-44.2	3.8	7.45e-01	0	43	104	0	23	16481
2026-01-17 03:42:01.43	351.13	15.24	-30.5	-43.2	3.8	7.42e-01	0	43	104	0	22	15592
2026-01-17 03:42:02.44	350.94	15.32	-30.2	-43.0	3.8	7.45e-01	0	43	104	0	21	15636
2026-01-17 03:42:03.44	350.75	15.40	-30.2	-43.0	3.8	7.44e-01	0	43	104	0	21	15640
2026-01-17 03:42:04.44	350.57	15.47	-30.0	-42.5	3.8	7.45e-01	0	43	104	0	21	15125
2026-01-17 03:42:05.44	350.37	15.55	-30.4	-43.4	3.8	7.45e-01	0	43	104	0	21	16129
2026-01-17 03:42:06.45	350.18	15.63	-30.1	-42.7	3.8	7.47e-01	0	43	104	0	21	15421
2026-01-17 03:42:07.45	349.99	15.71	-30.3	-43.2	3.8	7.44e-01	0	43	104	0	21	15941
2026-01-17 03:42:08.45	349.79	15.78	-30.3	-43.2	3.8	7.45e-01	0	43	104	0	21	15930
2026-01-17 03:42:09.45	349.60	15.86	-30.4	-43.5	3.8	7.40e-01	0	43	104	0	21	16282
2026-01-17 03:42:10.45	349.40	15.94	-30.8	-44.2	3.8	7.47e-01	0	43	104	0	22	16766
2026-01-17 03:42:11.45	349.21	16.02	-31.2	-44.9	3.8	7.44e-01	0	43	104	0	23	17407
2026-01-17 03:42:12.46	349.01	16.09	-31.6	-45.7	3.9	7.45e-01	0	43	104	0	24	18219
2026-01-17 03:42:13.46	348.81	16.17	-31.9	-46.7	3.8	7.44e-01	0	43	104	0	24	19729
2026-01-17 03:42:14.47	348.60	16.25	-32.1	-47.0	3.8	7.44e-01	0	43	104	0	25	19941
2026-01-17 03:42:15.48	348.40	16.33	-32.2	-47.3	3.8	7.42e-01	0	43	104	0	25	20396
2026-01-17 03:42:16.48	348.20	16.40	-32.3	-47.6	3.8	7.45e-01	0	43	104	0	25	20988
2026-01-17 03:42:17.49	347.99	16.48	-32.3	-47.6	3.8	7.44e-01	0	43	104	0	25	21104
2026-01-17 03:42:18.49	347.79	16.56	-32.2	-47.3	3.8	7.43e-01	0	43	104	0	25	20461
2026-01-17 03:42:19.48	347.58	16.63	-32.1	-46.8	3.8	7.46e-01	0	43	104	0	25	19539
2026-01-17 03:42:20.49	347.37	16.71	-32.0	-46.9	3.8	7.47e-01	0	43	104	0	24	20062
2026-01-17 03:42:21.49	347.17	16.78	-32.1	-47.4	3.8	7.43e-01	0	43	104	0	24	20978
2026-01-17 03:42:22.49	346.96	16.86	-32.4	-47.9	3.8	7.43e-01	0	43	104	0	25	21502
2026-01-17 03:42:23.50	346.74	16.94	-32.6	-48.8	3.8	7.47e-01	0	43	104	0	25	23234
2026-01-17 03:42:24.50	346.53	17.01	-32.8	-49.0	3.8	7.43e-01	0	43	104	0	26	23400
2026-01-17 03:42:25.49	346.32	17.09	-32.9	-49.8	3.8	7.49e-01	0	43	104	0	26	25068
2026-01-17 03:42:26.49	346.11	17.16	-33.0	-50.1	3.8	7.43e-01	0	43	104	0	26	25827
2026-01-17 03:42:27.49	345.89	17.24	-33.0	-50.2	3.8	7.44e-01	0	43	104	0	26	26118
2026-01-17 03:42:28.49	345.68	17.31	-32.9	-49.9	3.8	7.47e-01	0	43	104	0	26	25336
2026-01-17 03:42:29.49	345.46	17.39	-32.9	-42.2	4.7	7.20e-01	0	43	104	0	26	10492
2026-01-17 03:42:30.49	345.24	17.46	-32.8	-41.8	9.7	6.22e-01	0	43	0	0	26	10129
2026-01-17 03:42:31.49	345.02	17.54	-32.8	-41.2	10.4	6.18e-01	0	43	0	2097152	26	9560
2026-01-17 03:42:32.50	344.80	17.61	-32.8	-41.2	10.5	6.17e-01	0	43	0	3670016	26	9467
2026-01-17 03:42:33.50	344.57	17.69	-32.8	-41.2	10.4	6.15e-01	0	43	0	5767168	26	9552
2026-01-17 03:42:34.51	344.35	17.76	-32.8	-41.1	10.5	6.15e-01	0	43	0	7864320	26	9410
2026-01-17 03:42:35.51	344.12	17.84	-32.8	-41.3	10.4	6.15e-01	0	43	0	9437184	26	9582
2026-01-17 03:42:36.50	343.90	17.91	-32.8	-41.3	10.3	6.16e-01	0	43	0	11534336	26	9587
2026-01-17 03:42:37.50	343.67	17.99	-32.8	-41.0	10.6	6.17e-01	0	43	0	13107200	26	9335
2026-01-17 03:42:38.50	343.44	18.06	-32.7	-40.9	10.8	6.15e-01	0	43	0	15204352	26	9207
2026-01-17 03:42:39.50	343.21	18.13	-32.7	-40.6	11.0	6.11e-01	0	43	0	16777216	26	8968
2026-01-17 03:42:40.50	342.98	18.20	-32.6	-40.1	11.4	6.09e-01	0	44	0	18874368	26	8563
2026-01-17 03:42:41.50	342.75	18.28	-32.5	-39.9	12.0	6.07e-01	0	43	0	20971520	25	8470
2026-01-17 03:42:42.50	342.52	18.35	-32.4	-39.3	12.5	6.07e-01	0	44	0	22544384	25	8018
2026-01-17 03:42:43.51	342.28	18.42	-32.3	-39.0	12.9	6.03e-01	0	43	0	24641536	25	7766
2026-01-17 03:42:44.51	342.05	18.50	-31.8	-37.0	14.4	6.05e-01	0	43	0	26214400	25	6501
2026-01-17 03:42:45.50	341.81	18.57	-31.4	-35.5	15.5	6.01e-01	0	44	0	28311552	25	5764
2026-01-17 03:42:46.50	341.58	18.64	-31.2	-35.7	16.1	6.00e-01	0	43	0	29884416	23	6035
2026-01-17 03:42:47.50	341.34	18.71	-30.9	-34.9	16.5	6.03e-01	0	44	0	31981568	23	5690
2026-01-17 03:42:48.50	341.10	18.78	-30.5	-34.1	17.4	6.02e-01	0	44	0	34078720	22	5444
2026-01-17 03:42:49.49	340.86	18.85	-30.3	-33.9	17.9	6.04e-01	0	43	0	35651584	21	5465
2026-01-17 03:42:50.49	340.62	18.92	-30.1	-33.3	18.3	6.02e-01	0	43	0	37748736	21	5226
2026-01-17 03:42:51.49	340.37	18.99	-30.3	-33.8	18.0	6.06e-01	0	43	0	39321600	21	5448
2026-01-17 03:42:52.50	340.12	19.06	-30.1	-33.5	18.2	6.04e-01	0	44	0	41418752	21	5304
2026-01-17 03:42:53.50	339.88	19.13	-30.3	-34.0	18.0	6.02e-01	0	43	0	42991616	21	5491
2026-01-17 03:42:54.51	339.63	19.20	-30.5	-34.5	17.6	6.04e-01	0	43	0	45088768	21	5728
2026-01-17 03:42:55.51	339.38	19.27	-31.2	-35.7	16.2	6.04e-01	0	43	0	47185920	23	6030
2026-01-17 03:42:56.51	339.13	19.34	-31.1	-35.5	16.2	6.00e-01	0	43	0	48758784	23	5951
2026-01-17 03:42:57.52	338.88	19.41	-30.7	-34.0	17.2	6.03e-01	0	43	0	50855936	23	5292
2026-01-17 03:42:58.53	338.62	19.48	-30.4	-34.2	17.9	6.03e-01	0	44	0	52428800	21	5590
2026-01-17 03:42:59.53	338.37	19.55	-29.8	-32.6	18.7	6.02e-01	0	43	0	54525952	21	4976
2026-01-17 03:43:00.52	338.12	19.61	-29.9	-33.4	18.5	6.03e-01	0	43	0	56623104	20	5387
2026-01-17 03:43:01.51	337.86	19.68	-30.0	-33.6	18.4	6.04e-01	0	44	0	58195968	20	5466
2026-01-17 03:43:02.51	337.61	19.74	-29.1	-32.4	18.3	6.03e-01	0	43	0	60293120	21	5291
2026-01-17 03:43:03.51	337.35	19.81	-29.8	-33.6	18.7	6.05e-01	0	43	0	61865984	19	5588
2026-01-17 03:43:04.51	337.09	19.88	-29.9	-33.4	16.6	6.10e-01	0	43	0	63963136	20	5402
2026-01-17 03:43:05.52	336.82	19.94	-29.9	-33.3	18.7	6.03e-01	0	43	0	65536000	20	5319
2026-01-17 03:43:06.52	336.56	20.01	-30.1	-33.8	16.5	6.11e-01	0	44	0	67633152	20	5556
2026-01-17 03:43:07.52	336.30	20.07	-30.3	-33.9	16.5	6.11e-01	0	43	0	69730304	21	5465
2026-01-17 03:43:08.52	336.04	20.14	-29.7	-32.8	18.9	6.04e-01	0	44	0	71303168	20	5136
2026-01-17 03:43:09.52	335.77	20.20	-29.6	-32.5	17.5	6.03e-01	0	43	0	73400320	20	5028
2026-01-17 03:43:10.53	335.50	20.26	-29.5	-32.6	17.1	6.04e-01	0	43	0	74973184	19	5188
2026-01-17 03:43:11.53	335.23	20.33	-29.4	-32.5	18.5	6.03e-01	0	43	0	77070336	19	5154
2026-01-17 03:43:12.54	334.96	20.39	-29.4	-32.5	17.4	6.04e-01	0	44	0	78643200	19	5141
2026-01-17 03:43:13.53	334.70	20.45	-29.5	-32.8	18.2	6.03e-01	0	43	0	80740352	19	5251
2026-01-17 03:43:14.54	334.42	20.51	-29.7	-32.7	18.7	6.03e-01	0	43	0	82837504	20	5125
2026-01-17 03:43:15.54	334.15	20.57	-29.7	-32.8	18.9	6.00e-01	0	43	0	84410368	20	5129
2026-01-17 03:43:16.54	333.88	20.63	-29.6	-32.5	19.1	6.02e-01	0	44	0	86507520	20	5024
2026-01-17 03:43:17.55	333.60	20.69	-29.5	-32.8	19.3	6.01e-01	0	43	0	88080384	19	5231
2026-01-17 03:43:18.55	333.32	20.75	-29.4	-32.6	19.5	6.02e-01	0	43	0	90177536	19	5172
2026-01-17 03:43:19.56	333.04	20.81	-29.5	-32.8	19.3	6.02e-01	0	43	0	92274688	19	5241
2026-01-17 03:43:20.56	332.76	20.87	-29.5	-32.8	19.4	6.02e-01	0	44	0	93847552	19	5258
2026-01-17 03:43:21.57	332.48	20.93	-29.6	-32.9	19.3	6.03e-01	0	44	0	95944704	19	5292
2026-01-17 03:43:22.57	332.20	20.99	-29.5	-32.8	19.4	6.02e-01	0	43	0	97517568	19	5231
2026-01-17 03:43:23.58	331.92	21.04	-29.5	-32.8	19.4	6.03e-01	0	43	0	99614720	19	5242
2026-01-17 03:43:24.57	331.64	21.10	-29.5	-32.7	19.4	6.03e-01	0	43	0	101711872	19	5221
2026-01-17 03:43:25.57	331.36	21.15	-29.5	-32.8	19.4	6.01e-01	0	43	0	103284736	19	5253
2026-01-17 03:43:26.57	331.07	21.21	-29.5	-32.7	19.5	5.98e-01	0	44	0	105381888	19	5204
2026-01-17 03:43:27.57	330.78	21.26	-29.4	-32.6	19.5	6.03e-01	0	43	0	106954752	19	5162
2026-01-17 03:43:28.57	330.50	21.32	-29.7	-32.8	19.0	6.02e-01	0	44	0	109051904	20	5160
2026-01-17 03:43:29.57	330.21	21.37	-29.7	-32.9	18.9	6.03e-01	0	43	0	110624768	20	5192
2026-01-17 03:43:30.57	329.92	21.42	-30.1	-33.2	18.5	6.01e-01	0	43	0	112721920	21	5187
2026-01-17 03:43:31.56	329.63	21.47	-29.6	-32.6	19.2	6.02e-01	0	43	0	114819072	20	5065
2026-01-17 03:43:32.56	329.34	21.52	-29.6	-32.6	19.1	6.04e-01	0	44	0	116391936	20	5081
2026-01-17 03:43:33.57	329.05	21.58	-29.6	-32.6	19.1	6.03e-01	0	43	0	118489088	20	5073
2026-01-17 03:43:34.57	328.76	21.63	-29.6	-32.6	19.1	6.03e-01	0	43	0	120061952	20	5086
2026-01-17 03:43:35.57	328.46	21.68	-29.9	-33.4	18.7	6.04e-01	0	43	0	122159104	20	5385
2026-01-17 03:43:36.57	328.17	21.72	-30.6	-34.3	17.5	6.01e-01	0	43	0	123731968	22	5506
2026-01-17 03:43:37.58	327.87	21.77	-29.9	-33.3	18.7	6.02e-01	0	43	0	125829120	20	5340
2026-01-17 03:43:38.59	327.57	21.82	-29.8	-33.1	18.8	6.02e-01	0	43	0	127926272	20	5250
2026-01-17 03:43:39.59	327.27	21.87	-29.7	-32.9	18.9	6.01e-01	0	43	0	129499136	20	5197
2026-01-17 03:43:40.59	326.97	21.91	-29.9	-33.4	18.6	6.02e-01	0	43	0	131596288	20	5374
2026-01-17 03:43:41.59	326.67	21.96	-29.6	-32.5	19.3	6.03e-01	0	43	0	133169152	20	5023
2026-01-17 03:43:42.59	326.37	22.00	-29.7	-32.8	19.1	6.02e-01	0	44	0	135266304	20	5126
2026-01-17 03:43:43.58	326.07	22.04	-29.7	-32.7	19.0	6.02e-01	0	44	0	136839168	20	5123
2026-01-17 03:43:44.59	325.77	22.09	-29.6	-32.6	19.1	6.04e-01	0	43	0	138936320	20	5079
2026-01-17 03:43:45.59	325.46	22.13	-29.5	-32.3	19.3	6.00e-01	0	44	0	141033472	20	4977
2026-01-17 03:43:46.58	325.16	22.17	-29.6	-32.5	19.2	6.01e-01	0	44	0	142606336	20	5026
2026-01-17 03:43:47.58	324.86	22.21	-29.6	-32.5	19.2	6.00e-01	0	43	0	144703488	20	5043
2026-01-17 03:43:48.58	324.55	22.25	-29.6	-32.6	19.1	6.03e-01	0	43	0	146276352	20	5078
2026-01-17 03:43:49.57	324.25	22.29	-29.6	-32.4	19.2	5.99e-01	0	43	0	148373504	20	5012
2026-01-17 03:43:50.58	323.94	22.33	-29.5	-32.3	19.3	6.02e-01	0	43	0	149946368	20	4961
2026-01-17 03:43:51.58	323.63	22.37	-29.8	-33.0	18.9	6.02e-01	0	43	0	152043520	20	5209
2026-01-17 03:43:52.58	323.32	22.40	-29.7	-32.8	19.0	6.02e-01	0	43	0	154140672	20	5144
2026-01-17 03:43:53.59	323.01	22.44	-29.7	-32.8	19.0	6.03e-01	0	43	0	155713536	20	5155
2026-01-17 03:43:54.60	322.69	22.47	-29.5	-32.3	19.3	6.01e-01	0	43	0	157810688	20	4966
2026-01-17 03:43:55.59	322.38	22.51	-29.7	-32.7	19.1	6.01e-01	0	43	0	159383552	20	5107
2026-01-17 03:43:56.60	322.07	22.54	-30.1	-33.8	18.4	6.01e-01	0	44	0	161480704	20	5527
2026-01-17 03:43:57.59	321.76	22.57	-29.9	-33.2	18.8	6.03e-01	0	43	0	163577856	20	5313
2026-01-17 03:43:58.59	321.45	22.61	-29.7	-32.8	19.0	6.02e-01	0	43	0	165150720	20	5134
2026-01-17 03:43:59.59	321.13	22.64	-29.6	-32.5	19.2	6.02e-01	0	43	0	167247872	20	5037
2026-01-17 03:44:00.59	320.82	22.67	-29.6	-32.9	19.3	6.04e-01	0	43	0	168820736	19	5286
2026-01-17 03:44:01.58	320.50	22.70	-29.6	-32.4	19.2	6.02e-01	0	44	0	170917888	20	5002
2026-01-17 03:44:02.58	320.19	22.72	-29.6	-32.5	19.2	6.03e-01	0	43	0	172490752	20	5029
2026-01-17 03:44:03.57	319.88	22.75	-29.5	-32.4	19.3	6.02e-01	0	43	0	174587904	20	4993
2026-01-17 03:44:04.57	319.56	22.78	-29.7	-32.8	19.1	6.01e-01	0	44	0	176685056	20	5138
2026-01-17 03:44:05.57	319.24	22.80	-29.6	-32.6	19.2	6.05e-01	0	44	0	178257920	20	5064
2026-01-17 03:44:06.57	318.92	22.83	-29.6	-32.6	19.2	6.04e-01	0	43	0	180355072	20	5070
2026-01-17 03:44:07.57	318.60	22.85	-29.6	-32.6	19.1	6.03e-01	0	43	0	181927936	20	5054
2026-01-17 03:44:08.58	318.28	22.88	-29.7	-32.7	19.0	6.00e-01	0	43	0	184025088	20	5102
2026-01-17 03:44:09.58	317.96	22.90	-29.6	-32.4	19.2	6.02e-01	0	44	0	185597952	20	4998
2026-01-17 03:44:10.59	317.64	22.92	-29.6	-32.7	19.2	6.01e-01	0	43	0	187695104	20	5088
2026-01-17 03:44:11.59	317.32	22.94	-29.7	-32.8	19.1	6.02e-01	0	43	0	189792256	20	5140
2026-01-17 03:44:12.59	316.99	22.96	-29.6	-32.5	19.3	6.02e-01	0	43	0	191365120	20	5042
2026-01-17 03:44:13.59	316.67	22.98	-29.9	-33.2	18.8	6.02e-01	0	43	0	193462272	20	5288
2026-01-17 03:44:14.59	316.35	23.00	-29.8	-33.0	18.9	6.03e-01	0	43	0	195035136	20	5203
2026-01-17 03:44:15.60	316.02	23.01	-29.6	-32.6	19.1	6.03e-01	0	43	0	197132288	20	5065
2026-01-17 03:44:16.60	315.70	23.03	-29.7	-32.8	19.1	6.04e-01	0	43	0	199229440	20	5136
2026-01-17 03:44:17.60	315.38	23.04	-29.7	-32.8	19.0	6.03e-01	0	43	0	200802304	20	5145
2026-01-17 03:44:18.60	315.05	23.06	-29.8	-33.0	18.9	6.02e-01	0	43	0	202899456	20	5216
2026-01-17 03:44:19.60	314.73	23.07	-29.5	-32.2	19.4	6.03e-01	0	43	0	204472320	20	4917
2026-01-17 03:44:20.60	314.41	23.08	-29.5	-32.8	19.5	6.04e-01	0	44	0	206569472	19	5232
2026-01-17 03:44:21.61	314.08	23.09	-29.7	-32.8	19.0	6.01e-01	0	43	0	208666624	20	5146
2026-01-17 03:44:22.61	313.75	23.10	-29.5	-32.3	19.4	6.03e-01	0	43	0	210239488	20	4944
2026-01-17 03:44:23.62	313.43	23.11	-29.6	-32.6	19.1	6.03e-01	0	44	0	212336640	20	5084
2026-01-17 03:44:24.62	313.10	23.12	-29.8	-33.2	18.8	6.03e-01	0	43	0	213909504	20	5272
2026-01-17 03:44:25.63	312.77	23.13	-29.8	-33.0	18.9	6.02e-01	0	43	0	216006656	20	5227
2026-01-17 03:44:26.64	312.44	23.14	-29.9	-33.4	18.7	6.06e-01	0	43	0	217579520	20	5385
2026-01-17 03:44:27.64	312.12	23.14	-30.2	-33.5	18.3	6.03e-01	0	43	0	219676672	21	5305
2026-01-17 03:44:28.64	311.79	23.15	-29.9	-33.2	18.8	6.04e-01	0	44	0	221773824	20	5299
2026-01-17 03:44:29.64	311.47	23.15	-30.1	-33.2	18.5	6.02e-01	0	44	0	223346688	21	5194
2026-01-17 03:44:30.64	311.14	23.15	-30.1	-33.8	18.5	6.03e-01	0	44	0	225443840	20	5517
2026-01-17 03:44:31.65	310.81	23.15	-29.8	-32.6	18.8	6.00e-01	0	44	0	227016704	21	4963
2026-01-17 03:44:32.65	310.49	23.15	-30.1	-33.5	18.3	6.04e-01	0	44	0	229113856	21	5286
2026-01-17 03:44:33.65	310.16	23.15	-30.2	-33.5	18.3	6.01e-01	0	44	0	230686720	21	5293
2026-01-17 03:44:34.65	309.83	23.15	-29.9	-33.4	18.7	6.03e-01	0	43	0	232783872	20	5362
2026-01-17 03:44:35.64	309.51	23.15	-30.3	-33.8	18.1	6.01e-01	0	43	0	234881024	21	5408
2026-01-17 03:44:36.65	309.18	23.15	-30.3	-34.0	18.0	6.04e-01	0	43	0	236453888	21	5509
2026-01-17 03:44:37.65	308.86	23.14	-30.2	-33.6	18.2	6.03e-01	0	44	0	238551040	21	5342
2026-01-17 03:44:38.65	308.53	23.14	-30.6	-34.3	17.4	6.02e-01	0	43	0	240648192	22	5521
2026-01-17 03:44:39.66	308.20	23.13	-31.0	-35.5	16.7	6.01e-01	0	43	0	242221056	22	6047
2026-01-17 03:44:40.67	307.87	23.12	-30.6	-34.2	17.6	6.05e-01	0	44	0	244318208	22	5466
2026-01-17 03:44:41.67	307.55	23.11	-30.5	-33.9	17.7	6.02e-01	0	44	0	245891072	22	5321
2026-01-17 03:44:42.67	307.22	23.11	-30.4	-34.3	17.9	6.02e-01	0	44	0	247988224	21	5601
2026-01-17 03:44:43.67	306.90	23.10	-30.4	-34.1	17.9	6.03e-01	0	43	0	249561088	21	5535
2026-01-17 03:44:44.67	306.57	23.08	-30.7	-34.5	17.4	6.03e-01	0	43	0	251658240	22	5596
2026-01-17 03:44:45.68	306.25	23.07	-30.4	-33.6	17.9	6.01e-01	0	43	0	253755392	22	5238
2026-01-17 03:44:46.68	305.92	23.06	-30.7	-34.5	17.3	6.02e-01	0	44	0	255328256	22	5597
2026-01-17 03:44:47.68	305.60	23.05	-30.7	-34.5	17.3	6.01e-01	0	43	0	257425408	22	5597
2026-01-17 03:44:48.68	305.27	23.03	-30.5	-34.4	17.8	6.02e-01	0	43	0	258998272	21	5641
2026-01-17 03:44:49.68	304.95	23.02	-30.7	-34.6	17.2	6.04e-01	0	44	0	261095424	22	5615
2026-01-17 03:44:50.68	304.63	23.00	-30.2	-33.5	18.3	6.03e-01	0	44	0	262668288	21	5300
2026-01-17 03:44:51.68	304.31	22.98	-30.0	-33.1	18.5	6.03e-01	0	44	0	264765440	21	5158
2026-01-17 03:44:52.68	303.98	22.96	-29.6	-32.6	19.2	6.05e-01	0	44	0	266862592	20	5056
2026-01-17 03:44:53.68	303.66	22.94	-29.6	-32.5	19.1	6.02e-01	0	44	0	268435456	20	5025
2026-01-17 03:44:54.69	303.34	22.92	-30.0	-33.6	18.6	6.03e-01	0	44	0	270532608	20	5453
2026-01-17 03:44:55.69	303.02	22.90	-29.1	-31.3	19.9	6.03e-01	0	44	0	272105472	20	4602
2026-01-17 03:44:56.69	302.70	22.88	-30.2	-33.7	18.0	6.03e-01	0	43	0	274202624	21	5387
2026-01-17 03:44:57.68	302.38	22.86	-29.4	-32.3	19.7	6.02e-01	0	44	0	275775488	19	5070
2026-01-17 03:44:58.69	302.06	22.83	-29.5	-31.8	19.2	6.03e-01	0	44	0	277872640	21	4667
2026-01-17 03:44:59.70	301.74	22.81	-29.6	-32.6	19.1	6.02e-01	0	44	0	279969792	20	5069
2026-01-17 03:45:00.70	301.42	22.78	-29.4	-32.0	19.3	6.02e-01	0	43	0	281542656	20	4875
2026-01-17 03:45:01.70	301.10	22.76	-30.0	-33.8	18.4	6.04e-01	0	43	0	283639808	20	5548
2026-01-17 03:45:02.70	300.78	22.73	-28.9	-30.6	20.2	6.02e-01	0	44	0	285736960	20	4406
2026-01-17 03:45:03.70	300.47	22.70	-30.2	-33.7	18.0	6.03e-01	0	44	0	287309824	21	5409
2026-01-17 03:45:04.70	300.15	22.67	-29.0	-31.1	20.1	6.02e-01	0	44	0	288882688	20	4546
2026-01-17 03:45:05.70	299.83	22.64	-29.7	-32.7	18.9	6.03e-01	0	44	0	290979840	20	5119
2026-01-17 03:45:06.70	299.52	22.61	-29.4	-32.6	19.5	6.02e-01	0	44	0	293076992	19	5165
2026-01-17 03:45:07.71	299.20	22.58	-29.9	-33.4	18.5	6.00e-01	0	43	0	294649856	20	5387
2026-01-17 03:45:08.71	298.89	22.55	-29.0	-31.1	20.0	6.04e-01	0	44	0	296747008	20	4542
2026-01-17 03:45:09.71	298.58	22.51	-29.6	-32.1	18.8	6.02e-01	0	44	0	298844160	21	4794
2026-01-17 03:45:10.71	298.26	22.48	-29.5	-32.9	19.4	6.03e-01	0	44	0	300417024	19	5272
2026-01-17 03:45:11.71	297.95	22.44	-29.0	-31.0	19.9	6.03e-01	0	44	0	302514176	20	4529
2026-01-17 03:45:12.71	297.64	22.41	-29.7	-32.7	19.0	6.03e-01	0	44	0	304087040	20	5135
2026-01-17 03:45:13.72	297.33	22.37	-29.3	-31.8	19.5	6.02e-01	0	44	0	306184192	20	4795
2026-01-17 03:45:14.72	297.02	22.33	-29.6	-33.0	19.3	6.04e-01	0	43	0	307757056	19	5324
2026-01-17 03:45:15.73	296.71	22.29	-29.5	-32.4	19.1	6.02e-01	0	43	0	309854208	20	5016
2026-01-17 03:45:16.73	296.40	22.25	-30.1	-33.4	19.2	6.03e-01	0	44	0	311951360	20	5262
2026-01-17 03:45:17.72	296.10	22.22	-29.1	-31.3	19.7	6.03e-01	0	44	0	313524224	20	4638
2026-01-17 03:45:18.73	295.79	22.17	-29.5	-32.9	19.3	6.01e-01	0	44	0	315621376	19	5284
2026-01-17 03:45:19.74	295.48	22.13	-29.4	-32.4	19.6	6.02e-01	0	43	0	317194240	19	5111
2026-01-17 03:45:20.73	295.18	22.09	-29.4	-32.4	19.6	6.03e-01	0	44	0	319291392	19	5101
2026-01-17 03:45:21.74	294.87	22.05	-30.1	-33.9	18.3	6.03e-01	0	43	0	320864256	20	5592
2026-01-17 03:45:22.74	294.57	22.00	-29.2	-31.5	19.7	6.05e-01	0	44	0	322961408	20	4697
2026-01-17 03:45:23.74	294.27	21.96	-29.7	-32.9	18.8	6.02e-01	0	43	0	325058560	20	5202
2026-01-17 03:45:24.74	293.97	21.91	-29.2	-31.5	19.8	5.99e-01	0	43	0	326631424	20	4699
2026-01-17 03:45:25.74	293.67	21.87	-29.7	-32.8	19.0	6.03e-01	0	44	0	328728576	20	5136
2026-01-17 03:45:26.75	293.37	21.82	-29.4	-32.0	19.4	6.02e-01	0	43	0	330301440	20	4857
2026-01-17 03:45:27.74	293.07	21.77	-29.7	-32.7	19.0	6.01e-01	0	44	0	332398592	20	5130
2026-01-17 03:45:28.74	292.78	21.73	-29.5	-32.2	19.3	6.05e-01	0	44	0	334495744	20	4931
2026-01-17 03:45:29.74	292.48	21.68	-29.6	-32.7	19.0	6.03e-01	0	44	0	336068608	20	5117
2026-01-17 03:45:30.74	292.19	21.63	-29.5	-32.2	19.2	6.03e-01	0	43	0	338165760	20	4953
2026-01-17 03:45:31.74	291.89	21.58	-29.4	-31.9	19.5	6.04e-01	0	44	0	339738624	20	4840
2026-01-17 03:45:32.74	291.60	21.53	-29.1	-32.5	18.6	6.04e-01	0	44	0	341835776	19	5335
2026-01-17 03:45:33.74	291.31	21.48	-30.2	-33.6	19.0	6.04e-01	0	43	0	343408640	20	5359
2026-01-17 03:45:34.74	291.02	21.43	-29.8	-33.2	18.6	6.00e-01	0	43	0	345505792	20	5312
2026-01-17 03:45:35.74	290.73	21.37	-29.3	-32.3	19.4	6.05e-01	0	43	0	347602944	19	5081
2026-01-17 03:45:36.74	290.44	21.32	-29.6	-32.5	18.0	6.02e-01	0	44	0	349175808	20	5062
2026-01-17 03:45:37.74	290.15	21.27	-29.3	-31.8	19.3	6.03e-01	0	43	0	351272960	20	4789
2026-01-17 03:45:38.74	289.86	21.21	-29.4	-32.6	18.5	6.05e-01	0	44	0	352845824	19	5167
2026-01-17 03:45:39.74	289.58	21.16	-29.5	-32.4	18.6	5.99e-01	0	44	0	354942976	20	5028
2026-01-17 03:45:40.74	289.29	21.10	-29.3	-31.8	19.6	6.02e-01	0	43	0	356515840	20	4785
2026-01-17 03:45:41.74	289.01	21.05	-29.5	-32.3	19.1	6.04e-01	0	43	0	358612992	20	4973
2026-01-17 03:45:42.73	288.73	20.99	-29.3	-32.2	19.4	6.04e-01	0	43	0	360710144	19	5044
2026-01-17 03:45:43.74	288.45	20.93	-29.5	-32.5	19.0	6.05e-01	0	44	0	362283008	20	5041
2026-01-17 03:45:44.74	288.17	20.87	-29.2	-31.9	19.8	6.02e-01	0	44	0	364380160	19	4912
2026-01-17 03:45:45.75	287.89	20.81	-29.8	-33.3	18.6	6.01e-01	0	44	0	365953024	20	5342
2026-01-17 03:45:46.76	287.61	20.76	-29.3	-32.2	19.6	6.01e-01	0	43	0	368050176	19	5041
2026-01-17 03:45:47.76	287.33	20.70	-30.1	-33.5	18.2	6.03e-01	0	43	0	370147328	21	5339
2026-01-17 03:45:48.76	287.05	20.64	-29.6	-32.7	18.9	6.04e-01	0	43	0	371720192	20	5110
2026-01-17 03:45:49.76	286.78	20.58	-29.7	-32.8	19.0	6.01e-01	0	44	0	373817344	20	5146
2026-01-17 03:45:50.77	286.50	20.51	-29.8	-33.0	18.7	6.01e-01	0	44	0	375390208	20	5236
2026-01-17 03:45:51.76	286.23	20.45	-29.3	-31.8	19.6	6.01e-01	0	43	0	377487360	20	4796
2026-01-17 03:45:52.77	285.96	20.39	-30.2	-33.8	17.9	6.03e-01	0	44	0	379584512	21	5450
2026-01-17 03:45:53.77	285.69	20.33	-29.3	-31.7	19.5	6.03e-01	0	44	0	381157376	20	4758
2026-01-17 03:45:54.78	285.42	20.26	-29.6	-32.6	19.1	6.05e-01	0	43	0	383254528	20	5078
2026-01-17 03:45:55.78	285.15	20.20	-29.7	-33.0	18.8	6.03e-01	0	44	0	384827392	20	5219
2026-01-17 03:45:56.78	284.88	20.14	-29.9	-33.4	18.6	6.05e-01	0	44	0	386924544	20	5380
2026-01-17 03:45:57.79	284.62	20.07	-29.9	-33.3	18.5	6.04e-01	0	44	0	388497408	20	5360
2026-01-17 03:45:58.79	284.35	20.01	-29.4	-32.5	19.5	6.02e-01	0	43	0	390594560	19	5124
2026-01-17 03:45:59.79	284.09	19.94	-29.6	-32.6	19.1	6.02e-01	0	43	0	392691712	20	5075
2026-01-17 03:46:00.79	283.83	19.88	-29.4	-32.2	19.2	6.03e-01	0	43	0	394264576	20	4933
2026-01-17 03:46:01.79	283.57	19.81	-29.4	-32.5	19.4	6.02e-01	0	43	0	396361728	19	5155
2026-01-17 03:46:02.78	283.31	19.75	-29.7	-33.0	18.8	6.00e-01	0	43	0	397934592	20	5230
2026-01-17 03:46:03.79	283.05	19.68	-29.2	-32.0	19.7	6.04e-01	0	43	0	400031744	19	4980
2026-01-17 03:46:04.78	282.80	19.61	-29.4	-32.7	19.4	6.00e-01	0	43	0	401604608	19	5211
2026-01-17 03:46:05.79	282.54	19.54	-29.7	-32.9	18.8	6.02e-01	0	43	0	403701760	20	5195
2026-01-17 03:46:06.79	282.28	19.48	-29.1	-31.8	19.8	6.02e-01	0	44	0	405798912	19	4909
2026-01-17 03:46:07.79	282.03	19.41	-29.3	-32.2	19.7	6.03e-01	0	43	0	407371776	19	5044
2026-01-17 03:46:08.80	281.78	19.34	-29.6	-32.5	19.0	6.01e-01	0	43	0	409468928	20	5074
2026-01-17 03:46:09.80	281.52	19.27	-29.5	-32.5	19.0	6.04e-01	0	43	0	411041792	20	5047
2026-01-17 03:46:10.80	281.27	19.20	-29.5	-32.5	19.1	6.03e-01	0	43	0	413138944	20	5052
2026-01-17 03:46:11.80	281.03	19.13	-29.5	-32.3	19.1	6.00e-01	0	44	0	415236096	20	4997
2026-01-17 03:46:12.80	280.78	19.06	-29.7	-33.0	18.8	6.02e-01	0	44	0	416808960	20	5227
2026-01-17 03:46:13.80	280.53	18.99	-29.5	-32.5	19.0	6.01e-01	0	43	0	418906112	20	5053
2026-01-17 03:46:14.79	280.29	18.92	-29.4	-32.5	19.4	6.01e-01	0	44	0	420478976	19	5164
2026-01-17 03:46:15.79	280.05	18.85	-29.5	-32.7	19.3	6.05e-01	0	44	0	422576128	19	5229
2026-01-17 03:46:16.80	279.80	18.78	-29.2	-32.1	19.6	6.03e-01	0	44	0	424148992	19	5020
2026-01-17 03:46:17.79	279.56	18.71	-29.3	-32.2	19.5	6.03e-01	0	44	0	426246144	19	5050
2026-01-17 03:46:18.79	279.32	18.64	-29.2	-32.1	19.7	6.04e-01	0	44	0	427819008	19	5001
2026-01-17 03:46:19.80	279.08	18.56	-29.4	-32.5	19.4	6.03e-01	0	44	0	429916160	19	5161
2026-01-17 03:46:20.80	278.84	18.49	-29.6	-32.7	18.8	6.03e-01	0	44	0	432013312	20	5153
2026-01-17 03:46:21.80	278.61	18.42	-29.4	-32.5	19.3	6.02e-01	0	44	0	433586176	19	5165
2026-01-17 03:46:22.80	278.37	18.35	-29.4	-32.5	19.4	6.00e-01	0	43	0	435683328	19	5153
2026-01-17 03:46:23.80	278.14	18.27	-29.6	-32.6	18.9	6.00e-01	0	43	0	437780480	20	5101
2026-01-17 03:46:24.80	277.91	18.20	-29.9	-33.5	18.4	6.04e-01	0	43	0	439353344	20	5430
2026-01-17 03:46:25.80	277.67	18.13	-29.6	-32.7	18.9	6.04e-01	0	44	0	441450496	20	5127
2026-01-17 03:46:26.80	277.44	18.05	-29.4	-32.6	19.3	6.04e-01	0	44	0	443023360	19	5185
2026-01-17 03:46:27.80	277.21	17.98	-29.6	-32.6	19.0	6.02e-01	0	43	0	445120512	20	5098
2026-01-17 03:46:28.80	276.99	17.91	-29.9	-33.5	18.4	6.03e-01	0	44	0	446693376	20	5452
2026-01-17 03:46:29.80	276.76	17.83	-29.7	-32.8	18.7	6.04e-01	0	44	0	448790528	20	5190
2026-01-17 03:46:30.80	276.53	17.76	-29.4	-32.5	19.4	6.03e-01	0	44	0	450363392	19	5164
2026-01-17 03:46:31.80	276.31	17.68	-29.3	-32.4	19.4	6.02e-01	0	43	0	452460544	19	5133
2026-01-17 03:46:32.79	276.09	17.61	-29.4	-32.5	19.3	6.03e-01	0	44	0	454557696	19	5177
2026-01-17 03:46:33.79	275.87	17.53	-29.6	-33.1	19.0	6.01e-01	0	44	0	456130560	19	5367
2026-01-17 03:46:34.80	275.64	17.46	-29.6	-32.7	18.8	6.01e-01	0	44	0	458227712	20	5156
2026-01-17 03:46:35.79	275.42	17.38	-29.7	-33.0	18.7	6.04e-01	0	43	0	459800576	20	5252
2026-01-17 03:46:36.79	275.21	17.31	-29.5	-32.4	19.0	6.01e-01	0	44	0	461897728	20	5027
2026-01-17 03:46:37.78	274.99	17.23	-29.2	-31.6	19.5	6.04e-01	0	43	0	463470592	20	4748
2026-01-17 03:46:38.79	274.77	17.16	-29.4	-32.5	19.4	6.01e-01	0	44	0	465567744	19	5149
2026-01-17 03:46:39.79	274.56	17.08	-29.4	-32.6	19.3	6.00e-01	0	43	0	467664896	19	5188
2026-01-17 03:46:40.79	274.34	17.00	-29.6	-33.0	19.0	6.03e-01	0	43	0	469237760	19	5359
2026-01-17 03:46:41.80	274.13	16.93	-29.6	-32.5	19.0	6.04e-01	0	44	0	471334912	20	5076
2026-01-17 03:46:42.79	273.92	16.85	-29.7	-33.0	18.7	6.03e-01	0	44	0	472907776	20	5240
2026-01-17 03:46:43.80	273.71	16.78	-29.6	-32.8	18.7	6.02e-01	0	44	0	475004928	20	5173
2026-01-17 03:46:44.80	273.50	16.70	-29.6	-32.6	18.8	6.02e-01	0	43	0	477102080	20	5088
2026-01-17 03:46:45.80	273.29	16.62	-29.3	-32.2	19.5	6.01e-01	0	44	0	478674944	19	5065
2026-01-17 03:46:46.80	273.08	16.55	-29.2	-32.0	19.6	6.00e-01	0	43	0	480772096	19	4992
2026-01-17 03:46:47.79	272.88	16.47	-29.1	-31.8	19.7	6.01e-01	0	44	0	482344960	19	4918
2026-01-17 03:46:48.79	272.67	16.39	-29.2	-32.0	19.6	6.02e-01	0	44	0	484442112	19	4980
2026-01-17 03:46:49.79	272.47	16.32	-29.4	-32.7	19.2	6.03e-01	0	43	0	486014976	19	5225
2026-01-17 03:46:50.79	272.26	16.24	-29.2	-32.0	19.6	6.02e-01	0	44	0	488112128	19	4998
2026-01-17 03:46:51.79	272.06	16.16	-29.1	-31.8	19.7	6.03e-01	0	44	0	490209280	19	4935
2026-01-17 03:46:52.79	271.86	16.08	-29.1	-31.8	19.7	6.01e-01	0	44	0	491782144	19	4924
2026-01-17 03:46:53.80	271.66	16.01	-29.1	-31.8	19.8	6.05e-01	0	43	0	493879296	19	4908
2026-01-17 03:46:54.80	271.46	15.93	-29.2	-32.2	19.5	6.00e-01	0	44	0	495452160	19	5042
2026-01-17 03:46:55.80	271.27	15.85	-29.1	-31.9	19.7	6.02e-01	0	43	0	497549312	19	4962
2026-01-17 03:46:56.80	271.07	15.77	-29.1	-32.3	19.7	6.02e-01	0	44	0	499646464	18	5226
2026-01-17 03:46:57.80	270.87	15.70	-29.1	-31.8	19.7	6.02e-01	0	44	0	501219328	19	4933
2026-01-17 03:46:58.80	270.68	15.62	-29.1	-32.0	19.6	6.03e-01	0	44	0	503316480	19	4989
2026-01-17 03:46:59.79	270.49	15.54	-29.1	-32.3	19.7	6.03e-01	0	44	0	504889344	18	5205
2026-01-17 03:47:00.80	270.30	15.46	-29.0	-32.2	19.7	6.05e-01	0	44	0	506986496	18	5169
2026-01-17 03:47:01.80	270.11	15.39	-29.0	-31.5	19.9	6.03e-01	0	43	0	508559360	19	4831
2026-01-17 03:47:02.80	269.92	15.31	-29.1	-32.3	17.7	6.07e-01	0	43	0	510656512	18	5204
2026-01-17 03:47:03.80	269.73	15.23	-29.1	-31.9	17.4	6.03e-01	0	44	0	512753664	19	4946
2026-01-17 03:47:04.80	269.54	15.15	-29.3	-32.3	19.4	6.03e-01	0	44	0	514326528	19	5103
2026-01-17 03:47:05.80	269.35	15.08	-29.2	-32.2	18.1	6.03e-01	0	44	0	516423680	19	5050
2026-01-17 03:47:06.81	269.17	15.00	-29.0	-32.2	19.2	6.02e-01	0	44	0	517996544	18	5176
2026-01-17 03:47:07.81	268.98	14.92	-29.0	-32.1	19.7	6.03e-01	0	43	0	520093696	18	5146
2026-01-17 03:47:08.81	268.80	14.84	-29.1	-31.9	19.5	6.02e-01	0	44	0	521666560	19	4965
2026-01-17 03:47:09.82	268.61	14.76	-29.5	-32.9	19.0	6.03e-01	0	44	0	523763712	19	5320
2026-01-17 03:47:10.83	268.43	14.69	-29.5	-32.9	18.9	6.00e-01	0	44	0	525860864	19	5352
2026-01-17 03:47:11.83	268.25	14.61	-29.5	-33.0	18.9	6.03e-01	0	43	0	527433728	19	5381
2026-01-17 03:47:12.83	268.07	14.53	-29.6	-32.7	18.7	6.00e-01	0	44	0	529530880	20	5172
2026-01-17 03:47:13.84	267.89	14.45	-29.7	-33.0	18.5	6.00e-01	0	44	0	531103744	20	5269
2026-01-17 03:47:14.84	267.71	14.37	-29.5	-33.0	18.8	6.03e-01	0	44	0	533200896	19	5383
2026-01-17 03:47:15.84	267.54	14.30	-29.5	-33.0	18.8	6.03e-01	0	43	0	535298048	19	5382
2026-01-17 03:47:16.84	267.36	14.22	-29.9	-33.5	18.1	6.01e-01	0	44	0	536870912	20	5491
2026-01-17 03:47:17.84	267.19	14.14	-30.2	-33.9	17.6	6.04e-01	0	44	0	538968064	21	5516
2026-01-17 03:47:18.84	267.02	14.06	-30.0	-33.9	17.8	6.03e-01	0	43	0	540540928	20	5665
2026-01-17 03:47:19.84	266.84	13.99	-30.1	-33.9	17.6	6.03e-01	0	44	0	542638080	21	5516
2026-01-17 03:47:20.83	266.67	13.91	-30.5	-34.9	16.9	6.01e-01	0	44	0	544210944	21	5994
2026-01-17 03:47:21.84	266.50	13.83	-30.3	-34.2	17.3	6.00e-01	0	43	0	546308096	21	5689
2026-01-17 03:47:22.84	266.33	13.75	-30.1	-33.6	17.8	6.03e-01	0	44	0	548405248	21	5409
2026-01-17 03:47:23.84	266.16	13.68	-29.8	-33.3	18.2	6.01e-01	0	43	0	549978112	20	5414
2026-01-17 03:47:24.84	266.00	13.60	-29.7	-33.0	18.4	6.00e-01	0	43	0	552075264	20	5261
2026-01-17 03:47:25.84	265.83	13.52	-29.7	-33.0	18.5	6.02e-01	0	44	0	553648128	20	5283
2026-01-17 03:47:26.85	265.66	13.44	-29.6	-32.8	18.5	6.02e-01	0	44	0	555745280	20	5199
2026-01-17 03:47:27.85	265.50	13.36	-30.0	-33.9	17.8	6.00e-01	0	43	0	557842432	20	5653
2026-01-17 03:47:28.86	265.33	13.29	-29.6	-32.2	18.6	6.02e-01	0	43	0	559415296	21	4885
2026-01-17 03:47:29.86	265.17	13.21	-29.5	-32.6	18.7	6.04e-01	0	44	0	561512448	20	5125
2026-01-17 03:47:30.86	265.01	13.13	-29.7	-33.2	18.3	6.01e-01	0	44	0	563085312	20	5354
2026-01-17 03:47:31.86	264.85	13.06	-29.4	-32.4	18.7	6.02e-01	0	43	0	565182464	20	5054
2026-01-17 03:47:32.86	264.69	12.98	-29.4	-32.8	18.9	6.03e-01	0	44	0	566755328	19	5321
2026-01-17 03:47:33.86	264.53	12.90	-29.5	-33.0	18.7	6.01e-01	0	44	0	568852480	19	5388
2026-01-17 03:47:34.86	264.37	12.82	-29.6	-32.8	18.5	6.03e-01	0	44	0	570949632	20	5201
2026-01-17 03:47:35.86	264.21	12.75	-29.6	-32.9	18.5	6.03e-01	0	43	0	572522496	20	5242
2026-01-17 03:47:36.86	264.06	12.67	-29.5	-32.5	18.6	6.01e-01	0	44	0	574619648	20	5101
2026-01-17 03:47:37.87	263.90	12.59	-29.6	-32.9	18.5	6.02e-01	0	44	0	576192512	20	5236
2026-01-17 03:47:38.87	263.74	12.52	-29.8	-33.3	18.2	6.02e-01	0	44	0	578289664	20	5403
2026-01-17 03:47:39.87	263.59	12.44	-29.4	-32.3	18.8	6.00e-01	0	43	0	580386816	20	5043
2026-01-17 03:47:40.86	263.44	12.36	-29.5	-33.1	18.7	6.03e-01	0	44	0	581959680	19	5423
2026-01-17 03:47:41.87	263.29	12.29	-29.5	-33.0	18.7	6.02e-01	0	44	0	584056832	19	5401
2026-01-17 03:47:42.87	263.13	12.21	-29.5	-33.1	18.7	6.02e-01	0	43	0	585629696	19	5426
2026-01-17 03:47:43.87	262.98	12.13	-29.7	-33.1	18.2	6.01e-01	0	43	0	587726848	20	5346
2026-01-17 03:47:44.87	262.83	12.06	-30.1	-33.9	17.4	6.00e-01	0	44	0	589299712	21	5567
2026-01-17 03:47:45.88	262.68	11.98	-30.1	-33.8	17.4	6.00e-01	0	44	0	591396864	21	5539
2026-01-17 03:47:46.87	262.54	11.91	-30.1	-33.8	17.4	6.02e-01	0	44	0	593494016	21	5546
2026-01-17 03:47:47.87	262.39	11.83	-30.3	-34.6	16.9	6.04e-01	0	44	0	595066880	21	5855
2026-01-17 03:47:48.87	262.24	11.76	-30.2	-34.3	17.1	6.03e-01	0	43	0	597164032	21	5729
2026-01-17 03:47:49.88	262.10	11.68	-30.2	-34.1	17.2	6.04e-01	0	43	0	598736896	21	5672
2026-01-17 03:47:50.88	261.95	11.60	-30.1	-34.0	17.3	6.02e-01	0	44	0	600834048	21	5591
2026-01-17 03:47:51.88	261.81	11.53	-30.4	-34.7	16.8	6.03e-01	0	44	0	602406912	21	5903
2026-01-17 03:47:52.88	261.67	11.45	-30.3	-33.8	16.9	6.01e-01	0	43	0	604504064	22	5433
2026-01-17 03:47:53.88	261.52	11.38	-30.0	-34.0	17.7	6.00e-01	0	44	0	606601216	20	5742
2026-01-17 03:47:54.88	261.38	11.30	-29.8	-33.5	17.9	6.02e-01	0	44	0	608174080	20	5502
2026-01-17 03:47:55.88	261.24	11.23	-29.6	-32.8	18.4	6.03e-01	0	44	0	610271232	20	5239
2026-01-17 03:47:56.88	261.10	11.15	-29.5	-33.1	18.5	5.99e-01	0	44	0	611844096	19	5467
2026-01-17 03:47:57.88	260.96	11.08	-29.5	-32.7	18.4	6.00e-01	0	44	0	613941248	20	5207
2026-01-17 03:47:58.87	260.83	11.00	-29.5	-32.6	18.4	6.03e-01	0	44	0	615514112	20	5161
2026-01-17 03:47:59.87	260.69	10.93	-29.9	-33.9	17.7	6.01e-01	0	44	0	617611264	20	5695
2026-01-17 03:48:00.88	260.55	10.85	-30.2	-34.2	17.1	6.03e-01	0	44	0	619708416	21	5721
2026-01-17 03:48:01.88	260.42	10.78	-30.1	-33.8	17.4	6.02e-01	0	43	0	621281280	21	5530
2026-01-17 03:48:02.87	260.28	10.70	-30.0	-34.2	17.4	6.01e-01	0	43	0	623378432	20	5811
2026-01-17 03:48:03.87	260.15	10.63	-30.1	-34.0	17.2	6.01e-01	0	44	0	624951296	21	5613
2026-01-17 03:48:04.86	260.02	10.56	-30.1	-33.9	17.3	6.02e-01	0	44	0	627048448	21	5589
2026-01-17 03:48:05.87	259.88	10.48	-30.0	-33.7	17.4	6.03e-01	0	44	0	629145600	21	5498
2026-01-17 03:48:06.87	259.75	10.41	-30.3	-34.5	16.8	6.04e-01	0	43	0	630718464	21	5867
2026-01-17 03:48:07.86	259.62	10.33	-30.0	-33.8	17.4	6.01e-01	0	44	0	632815616	21	5517
2026-01-17 03:48:08.86	259.49	10.26	-29.9	-33.8	17.6	6.03e-01	0	44	0	634388480	20	5655
2026-01-17 03:48:09.86	259.36	10.19	-30.1	-34.3	17.3	6.03e-01	0	44	0	636485632	20	5890
2026-01-17 03:48:10.85	259.23	10.11	-29.9	-34.0	17.5	6.03e-01	0	44	0	638058496	20	5731
2026-01-17 03:48:11.85	259.10	10.04	-29.7	-33.4	17.9	6.01e-01	0	44	0	640155648	20	5496
2026-01-17 03:48:12.85	258.97	9.97	-29.7	-33.2	18.0	6.01e-01	0	44	0	642252800	20	5424
2026-01-17 03:48:13.85	258.85	9.89	-29.5	-32.8	18.2	6.05e-01	0	44	0	643825664	20	5251
2026-01-17 03:48:14.86	258.72	9.82	-29.5	-32.7	18.3	6.02e-01	0	43	0	645922816	20	5213
2026-01-17 03:48:15.86	258.59	9.75	-29.4	-33.0	18.4	6.05e-01	0	44	0	647495680	19	5442
2026-01-17 03:48:16.86	258.47	9.67	-29.5	-32.9	18.2	6.01e-01	0	44	0	649592832	20	5269
2026-01-17 03:48:17.86	258.34	9.60	-29.7	-33.4	17.8	6.02e-01	0	43	0	651165696	20	5501
2026-01-17 03:48:18.86	258.22	9.53	-29.6	-33.0	18.0	6.04e-01	0	44	0	653262848	20	5329
2026-01-17 03:48:19.87	258.10	9.45	-29.4	-32.5	18.4	6.02e-01	0	44	0	655360000	20	5127
2026-01-17 03:48:20.87	257.97	9.38	-29.4	-33.1	18.3	6.01e-01	0	44	0	656932864	19	5524
2026-01-17 03:48:21.88	257.85	9.31	-29.5	-32.8	18.2	6.03e-01	0	44	0	659030016	20	5250
2026-01-17 03:48:22.89	257.73	9.24	-29.6	-32.9	18.2	6.02e-01	0	44	0	660602880	20	5321
2026-01-17 03:48:23.89	257.61	9.16	-28.5	-31.8	18.1	6.05e-01	0	44	0	662700032	19	5291
2026-01-17 03:48:24.89	257.49	9.09	-28.3	-31.8	17.8	6.01e-01	0	44	0	664272896	20	5400
2026-01-17 03:48:25.89	257.37	9.02	-28.2	-32.2	17.9	6.08e-01	0	44	0	666370048	18	5764
2026-01-17 03:48:26.89	257.25	8.95	-29.7	-34.2	15.1	6.15e-01	0	44	0	668467200	18	6104
2026-01-17 03:48:27.89	257.13	8.88	-29.5	-33.3	18.3	6.04e-01	0	44	0	670040064	19	5592
2026-01-17 03:48:28.89	257.02	8.81	-29.5	-33.5	14.7	6.16e-01	0	43	0	672137216	19	5715
2026-01-17 03:48:29.89	256.90	8.73	-29.5	-33.5	15.1	6.17e-01	0	44	0	673710080	19	5711
2026-01-17 03:48:30.90	256.78	8.66	-29.5	-32.9	16.9	6.03e-01	0	44	0	675807232	20	5299
2026-01-17 03:48:31.90	256.67	8.59	-29.5	-33.2	18.1	6.03e-01	0	44	0	677904384	19	5542
2026-01-17 03:48:32.90	256.55	8.52	-29.6	-33.1	17.8	6.01e-01	0	44	0	679477248	20	5414
2026-01-17 03:48:33.90	256.44	8.45	-29.5	-33.2	18.3	6.05e-01	0	44	0	681574400	19	5517
2026-01-17 03:48:34.90	256.32	8.38	-29.6	-33.0	17.9	6.04e-01	0	44	0	683147264	20	5367
2026-01-17 03:48:35.91	256.21	8.31	-29.8	-33.7	17.5	6.01e-01	0	44	0	685244416	20	5652
2026-01-17 03:48:36.91	256.10	8.24	-30.0	-34.3	17.1	6.03e-01	0	43	0	687341568	20	5913
2026-01-17 03:48:37.92	255.99	8.17	-29.9	-34.0	17.3	6.00e-01	0	43	0	688914432	20	5788
2026-01-17 03:48:38.92	255.88	8.09	-29.8	-33.8	17.5	6.02e-01	0	43	0	691011584	20	5658
2026-01-17 03:48:39.92	255.76	8.02	-29.9	-34.0	17.3	6.02e-01	0	44	0	692584448	20	5774
2026-01-17 03:48:40.92	255.66	7.95	-29.8	-33.8	17.4	6.03e-01	0	44	0	694681600	20	5691
2026-01-17 03:48:41.92	255.55	7.88	-29.9	-34.0	17.2	6.04e-01	0	44	0	696254464	20	5770
2026-01-17 03:48:42.91	255.44	7.82	-29.9	-33.9	17.4	6.02e-01	0	44	0	698351616	20	5714
2026-01-17 03:48:43.91	255.33	7.75	-30.0	-34.2	17.1	6.03e-01	0	44	0	700448768	20	5876
2026-01-17 03:48:44.92	255.22	7.68	-30.2	-34.3	16.7	6.02e-01	0	44	0	702021632	21	5821
2026-01-17 03:48:45.92	255.11	7.61	-30.2	-34.4	16.7	6.02e-01	0	44	0	704118784	21	5838
2026-01-17 03:48:46.92	255.01	7.54	-30.5	-35.4	15.9	6.01e-01	0	44	0	705691648	21	6315
2026-01-17 03:48:47.92	254.90	7.47	-30.2	-34.5	16.5	6.04e-01	0	44	0	707788800	21	5897
2026-01-17 03:48:48.92	254.80	7.40	-29.9	-33.9	17.2	6.02e-01	0	44	0	709361664	20	5760
2026-01-17 03:48:49.92	254.69	7.33	-29.9	-34.2	17.0	5.99e-01	0	44	0	711458816	20	5886
2026-01-17 03:48:50.92	254.59	7.26	-30.1	-34.3	16.6	6.04e-01	0	44	0	713555968	21	5793
2026-01-17 03:48:51.92	254.49	7.19	-30.1	-34.1	16.7	6.02e-01	0	44	0	715128832	21	5735
2026-01-17 03:48:52.93	254.38	7.12	-30.3	-34.7	16.4	5.99e-01	0	44	0	717225984	21	6018
2026-01-17 03:48:53.94	254.28	7.05	-32.9	-50.2	4.0	7.46e-01	0	44	104	718274560	26	26262
2026-01-17 03:48:54.95	254.17	6.98	-33.3	-52.6	3.8	7.47e-01	0	44	104	718274560	27	33119
2026-01-17 03:48:55.95	254.07	6.92	-33.6	-53.2	3.8	7.43e-01	0	44	104	718274560	27	34410
2026-01-17 03:48:56.96	253.97	6.85	-33.7	-52.9	3.8	7.44e-01	0	44	104	718274560	28	32945

#Closed at: 2026-01-17 03:48:57
#Recorded file [718 MB]: D:/data/31010_260117_064230.dat