passes_logs/2026/01/17/R2M6_AANII_01/R2M6_AANII_01__20260117_005814_NOAA_20_JPSS-1_rec.log

#Pass ID: 20260117_005814_NOAA 20 (JPSS-1)
#Satellite: NOAA 20 (JPSS-1)
#Configuration: NOAA 20
#almurnet v.1.7.20240730
#Start time: 2026-01-17 00:58:15

#Version: 2.2.20231116
#Station: R2M6_AANII_01
#Location: 30.233357 lon 59.946436 lat
#TLE: 1 43013U 17073A   26016.24631778  .00000038  00000+0  39093-4 0  9990
#TLE: 2 43013  98.7637 317.1726 0001455  37.6755 322.4523 14.19536243422915

#Time	Az	El	Level	Level2	SNR	BER	BlckErr	Temp	State	Recorded	gain1	gain2
2026-01-17 00:58:15.78	15.12	7.12	-31.7	-38.8	4.8	1.32e+00	0	41	0	0	23	8168
2026-01-17 00:58:16.78	15.09	7.20	-31.7	-38.6	4.8	1.33e+00	0	41	104	0	23	8010
2026-01-17 00:58:17.78	15.06	7.27	-31.7	-38.7	7.0	1.27e-01	0	41	0	0	23	8029
2026-01-17 00:58:18.79	15.03	7.35	-31.5	-37.8	7.7	1.01e-01	0	41	0	1048576	23	7403
2026-01-17 00:58:19.79	15.00	7.43	-31.5	-37.6	7.8	1.07e-01	0	41	0	3145728	23	7238
2026-01-17 00:58:20.80	14.97	7.51	-31.3	-37.3	8.4	7.23e-02	0	41	0	5242880	22	7185
2026-01-17 00:58:21.80	14.94	7.58	-31.3	-37.0	8.7	4.08e-02	0	41	0	7340032	22	6990
2026-01-17 00:58:22.80	14.91	7.66	-31.2	-36.7	9.0	2.78e-02	0	41	0	9437184	22	6801
2026-01-17 00:58:23.80	14.88	7.74	-31.2	-36.8	9.0	3.58e-02	0	41	0	10485760	22	6809
2026-01-17 00:58:24.80	14.85	7.82	-31.3	-37.0	8.7	4.76e-02	0	41	0	12582912	22	6961
2026-01-17 00:58:25.81	14.82	7.89	-31.4	-37.5	8.4	4.92e-02	0	41	0	14680064	22	7270
2026-01-17 00:58:26.82	14.78	7.97	-31.2	-36.8	8.9	4.69e-02	0	42	0	16777216	22	6849
2026-01-17 00:58:27.82	14.75	8.05	-31.1	-36.3	9.3	2.42e-02	0	41	0	17825792	22	6543
2026-01-17 00:58:28.82	14.72	8.13	-30.7	-35.3	10.4	9.16e-03	0	42	0	19922944	21	6136
2026-01-17 00:58:29.82	14.69	8.21	-30.5	-34.7	10.9	3.85e-03	0	42	0	22020096	21	5836
2026-01-17 00:58:30.82	14.66	8.29	-30.3	-34.7	11.4	4.47e-03	0	42	0	24117248	20	5908
2026-01-17 00:58:31.82	14.62	8.37	-30.3	-34.5	11.5	4.01e-03	0	42	0	26214400	20	5819
2026-01-17 00:58:32.82	14.59	8.45	-30.4	-34.7	11.3	1.88e-03	0	42	0	27262976	20	5941
2026-01-17 00:58:33.82	14.56	8.53	-30.6	-34.9	10.8	5.89e-03	0	42	0	29360128	21	5900
2026-01-17 00:58:34.82	14.52	8.61	-30.3	-34.4	11.6	3.95e-03	0	42	0	31457280	20	5799
2026-01-17 00:58:35.82	14.49	8.69	-30.5	-34.6	11.1	2.10e-03	0	42	0	33554432	21	5788
2026-01-17 00:58:36.82	14.46	8.77	-30.5	-34.8	11.0	4.24e-03	0	42	0	35651584	21	5841
2026-01-17 00:58:37.82	14.42	8.85	-30.6	-35.0	10.7	5.81e-03	0	42	0	36700160	21	5982
2026-01-17 00:58:38.82	14.39	8.93	-30.4	-34.2	11.3	4.68e-03	0	42	0	38797312	21	5596
2026-01-17 00:58:39.83	14.35	9.01	-30.2	-34.1	11.8	3.41e-03	0	42	0	40894464	20	5662
2026-01-17 00:58:40.83	14.32	9.09	-30.2	-34.0	11.9	3.61e-03	0	42	0	42991616	20	5591
2026-01-17 00:58:41.84	14.29	9.18	-30.2	-34.1	11.8	1.28e-03	0	42	0	45088768	20	5652
2026-01-17 00:58:42.84	14.25	9.26	-30.3	-34.3	11.7	3.58e-03	0	42	0	46137344	20	5720
2026-01-17 00:58:43.85	14.21	9.34	-30.3	-34.5	11.5	3.54e-03	0	42	0	48234496	20	5841
2026-01-17 00:58:44.85	14.18	9.43	-30.4	-34.6	11.5	1.69e-03	0	42	0	50331648	20	5848
2026-01-17 00:58:45.85	14.14	9.51	-30.3	-34.6	11.6	8.19e-04	0	42	0	52428800	20	5847
2026-01-17 00:58:46.86	14.11	9.59	-30.4	-34.8	11.3	3.73e-03	0	42	0	54525952	20	5948
2026-01-17 00:58:47.87	14.07	9.68	-30.2	-34.2	11.8	1.65e-03	0	42	0	55574528	20	5692
2026-01-17 00:58:48.87	14.04	9.76	-30.2	-33.9	12.0	3.22e-03	0	42	0	57671680	20	5548
2026-01-17 00:58:49.88	14.00	9.85	-30.1	-33.6	12.3	3.13e-03	0	42	0	59768832	20	5397
2026-01-17 00:58:50.88	13.96	9.93	-30.0	-33.5	12.4	1.00e-03	0	42	0	61865984	20	5359
2026-01-17 00:58:51.88	13.92	10.01	-30.1	-33.6	12.3	3.19e-03	0	42	0	62914560	20	5417
2026-01-17 00:58:52.89	13.89	10.10	-30.2	-33.9	11.7	2.28e-04	0	42	0	65011712	20	5541
2026-01-17 00:58:53.88	13.85	10.18	-30.0	-33.5	12.4	1.38e-03	0	42	0	67108864	20	5363
2026-01-17 00:58:54.88	13.81	10.27	-29.9	-33.1	12.2	3.21e-03	0	42	0	69206016	20	5208
2026-01-17 00:58:55.89	13.77	10.36	-29.7	-33.0	13.1	7.02e-04	0	42	0	71303168	19	5255
2026-01-17 00:58:56.89	13.74	10.44	-29.6	-32.7	13.4	2.28e-05	0	42	0	73400320	19	5131
2026-01-17 00:58:57.89	13.70	10.53	-29.4	-32.7	13.6	2.57e-03	0	42	0	74448896	18	5269
2026-01-17 00:58:58.89	13.66	10.61	-29.3	-32.3	14.0	2.88e-03	0	42	0	76546048	18	5114
2026-01-17 00:58:59.90	13.62	10.70	-29.3	-32.4	13.9	3.80e-06	0	42	0	78643200	18	5159
2026-01-17 00:59:00.90	13.58	10.79	-29.4	-32.7	13.8	2.80e-03	0	42	0	80740352	18	5233
2026-01-17 00:59:01.90	13.54	10.88	-29.3	-32.5	13.9	2.73e-03	0	42	0	81788928	18	5183
2026-01-17 00:59:02.90	13.50	10.96	-29.3	-32.4	13.9	3.80e-06	0	42	0	83886080	18	5153
2026-01-17 00:59:03.90	13.46	11.05	-29.4	-32.7	13.7	3.00e-06	0	42	0	85983232	18	5249
2026-01-17 00:59:04.89	13.42	11.14	-29.5	-32.5	13.6	2.61e-03	0	42	0	88080384	19	5053
2026-01-17 00:59:05.89	13.38	11.23	-29.7	-32.9	13.2	6.49e-04	0	42	0	90177536	19	5236
2026-01-17 00:59:06.90	13.34	11.32	-29.5	-32.4	13.6	1.44e-05	0	42	0	91226112	19	5045
2026-01-17 00:59:07.90	13.30	11.41	-29.6	-32.7	13.5	1.24e-03	0	42	0	93323264	19	5141
2026-01-17 00:59:08.90	13.26	11.50	-29.6	-32.7	13.5	6.84e-04	0	42	0	95420416	19	5136
2026-01-17 00:59:09.90	13.22	11.59	-29.6	-32.7	13.4	5.03e-04	0	42	0	97517568	19	5148
2026-01-17 00:59:10.90	13.17	11.68	-29.8	-33.3	13.1	3.73e-05	0	42	0	99614720	19	5366
2026-01-17 00:59:11.89	13.13	11.77	-29.7	-33.0	13.2	7.09e-04	0	43	0	100663296	19	5238
2026-01-17 00:59:12.88	13.09	11.86	-29.5	-32.4	13.6	2.71e-03	0	43	0	102760448	19	5023
2026-01-17 00:59:13.88	13.05	11.95	-29.4	-32.6	13.9	8.40e-04	0	42	0	104857600	18	5198
2026-01-17 00:59:14.88	13.01	12.04	-29.4	-32.7	13.8	3.80e-06	0	43	0	106954752	18	5251
2026-01-17 00:59:15.89	12.96	12.13	-29.6	-32.7	13.5	2.48e-03	0	43	0	108003328	19	5136
2026-01-17 00:59:16.89	12.92	12.22	-29.8	-33.3	13.0	1.01e-03	0	43	0	110100480	19	5383
2026-01-17 00:59:17.89	12.87	12.32	-29.7	-32.8	13.4	2.97e-05	0	43	0	112197632	19	5185
2026-01-17 00:59:18.89	12.83	12.41	-29.5	-32.8	13.7	2.76e-03	0	43	0	114294784	18	5286
2026-01-17 00:59:19.89	12.79	12.50	-29.3	-32.2	14.1	2.64e-03	0	43	0	116391936	18	5069
2026-01-17 00:59:20.89	12.74	12.60	-29.3	-32.3	14.1	7.00e-07	0	42	0	117440512	18	5077
2026-01-17 00:59:21.89	12.70	12.69	-29.2	-32.1	14.2	2.20e-06	0	42	0	119537664	18	5018
2026-01-17 00:59:22.89	12.65	12.78	-29.4	-32.5	14.0	2.52e-03	0	43	0	121634816	18	5153
2026-01-17 00:59:23.90	12.60	12.88	-29.3	-32.3	14.1	3.80e-06	0	43	0	123731968	18	5087
2026-01-17 00:59:24.90	12.56	12.97	-29.2	-32.1	14.2	1.19e-04	0	43	0	125829120	18	5009
2026-01-17 00:59:25.90	12.51	13.07	-29.2	-32.1	14.3	7.00e-07	0	43	0	126877696	18	5034
2026-01-17 00:59:26.91	12.46	13.17	-29.1	-31.8	14.4	1.50e-06	0	43	0	128974848	18	4927
2026-01-17 00:59:27.91	12.42	13.26	-29.4	-32.5	14.0	5.56e-04	0	43	0	131072000	18	5166
2026-01-17 00:59:28.91	12.37	13.36	-29.2	-32.1	14.3	1.50e-06	0	42	0	133169152	18	5011
2026-01-17 00:59:29.92	12.32	13.46	-29.3	-32.3	14.1	5.10e-04	0	43	0	135266304	18	5088
2026-01-17 00:59:30.92	12.27	13.55	-29.2	-32.1	14.2	5.06e-04	0	43	0	136314880	18	5021
2026-01-17 00:59:31.92	12.23	13.65	-29.2	-32.1	14.3	4.64e-04	0	43	0	138412032	18	4999
2026-01-17 00:59:32.92	12.18	13.75	-29.3	-32.4	14.1	0.00e+00	0	43	0	140509184	18	5113
2026-01-17 00:59:33.92	12.13	13.85	-29.2	-32.0	14.4	4.58e-04	0	42	0	142606336	18	4975
2026-01-17 00:59:34.92	12.08	13.94	-29.1	-31.8	14.5	4.97e-04	0	43	0	143654912	18	4899
2026-01-17 00:59:35.92	12.03	14.04	-29.3	-32.2	14.3	0.00e+00	0	43	0	145752064	18	5043
2026-01-17 00:59:36.92	11.98	14.14	-29.5	-32.3	13.8	2.58e-03	0	43	0	147849216	19	4985
2026-01-17 00:59:37.92	11.93	14.24	-29.5	-32.8	13.9	3.67e-04	0	43	0	149946368	18	5262
2026-01-17 00:59:38.92	11.88	14.34	-29.4	-32.2	14.0	4.50e-06	0	43	0	152043520	19	4927
2026-01-17 00:59:39.92	11.83	14.44	-29.4	-32.0	14.1	3.00e-06	0	42	0	153092096	19	4865
2026-01-17 00:59:40.92	11.77	14.54	-29.4	-32.5	14.1	4.23e-04	0	43	0	155189248	18	5165
2026-01-17 00:59:41.91	11.72	14.64	-29.4	-32.5	14.1	2.20e-06	0	43	0	157286400	18	5141
2026-01-17 00:59:42.92	11.67	14.74	-29.3	-32.2	14.3	4.26e-04	0	43	0	159383552	18	5041
2026-01-17 00:59:43.92	11.62	14.85	-29.3	-32.2	14.3	0.00e+00	0	43	0	161480704	18	5032
2026-01-17 00:59:44.93	11.56	14.95	-29.3	-32.3	14.2	0.00e+00	0	43	0	162529280	18	5092
2026-01-17 00:59:45.93	11.51	15.05	-29.3	-32.3	14.2	4.11e-04	0	43	0	164626432	18	5094
2026-01-17 00:59:46.93	11.46	15.16	-29.4	-32.6	14.0	2.20e-06	0	43	0	166723584	18	5185
2026-01-17 00:59:47.93	11.40	15.26	-29.6	-32.5	13.8	2.20e-06	0	43	0	168820736	19	5040
2026-01-17 00:59:48.93	11.35	15.36	-29.3	-31.8	14.3	3.72e-04	0	43	0	170917888	19	4785
2026-01-17 00:59:49.93	11.29	15.47	-29.4	-32.4	14.2	3.46e-04	0	43	0	171966464	18	5117
2026-01-17 00:59:50.94	11.23	15.57	-29.3	-32.4	14.2	3.80e-06	0	43	0	174063616	18	5105
2026-01-17 00:59:51.95	11.18	15.68	-29.3	-32.3	14.2	4.04e-04	0	43	0	176160768	18	5062
2026-01-17 00:59:52.95	11.12	15.79	-29.5	-32.7	14.0	3.58e-04	0	43	0	178257920	18	5220
2026-01-17 00:59:53.95	11.06	15.89	-29.4	-31.9	14.2	1.50e-06	0	43	0	180355072	19	4833
2026-01-17 00:59:54.95	11.01	16.00	-29.5	-32.3	14.0	3.68e-04	0	43	0	181403648	19	4951
2026-01-17 00:59:55.95	10.95	16.11	-29.4	-32.0	14.2	3.26e-04	0	43	0	183500800	19	4857
2026-01-17 00:59:56.95	10.89	16.21	-29.4	-32.5	14.2	7.00e-07	0	43	0	185597952	18	5131
2026-01-17 00:59:57.96	10.83	16.32	-29.5	-32.7	14.1	3.43e-04	0	43	0	187695104	18	5198
2026-01-17 00:59:58.96	10.77	16.43	-29.4	-32.1	14.1	3.65e-04	0	43	0	188743680	19	4877
2026-01-17 00:59:59.97	10.71	16.54	-29.3	-32.2	14.4	7.00e-07	0	43	0	190840832	18	5022
2026-01-17 01:00:00.97	10.65	16.65	-29.4	-32.5	14.2	4.17e-04	0	43	0	192937984	18	5155
2026-01-17 01:00:01.97	10.59	16.76	-29.4	-32.5	14.2	4.84e-04	0	43	0	195035136	18	5127
2026-01-17 01:00:02.97	10.53	16.87	-29.4	-32.2	14.0	1.50e-06	0	43	0	197132288	19	4975
2026-01-17 01:00:03.97	10.47	16.98	-28.4	-31.5	14.3	5.70e-04	0	43	0	198180864	18	5105
2026-01-17 01:00:04.98	10.41	17.09	-29.6	-32.4	13.7	6.22e-04	0	43	0	200278016	19	5000
2026-01-17 01:00:05.98	10.35	17.20	-29.4	-32.5	13.2	3.00e-06	0	43	0	202375168	18	5129
2026-01-17 01:00:06.99	10.28	17.32	-29.2	-31.9	14.6	7.83e-04	0	43	0	204472320	18	4943
2026-01-17 01:00:07.99	10.22	17.43	-29.3	-32.1	14.5	3.46e-04	0	43	0	206569472	18	4987
2026-01-17 01:00:08.99	10.15	17.54	-29.2	-32.0	14.5	1.50e-06	0	43	0	207618048	18	4969
2026-01-17 01:00:10.00	10.09	17.66	-29.5	-32.6	14.2	3.75e-04	0	43	0	209715200	18	5185
2026-01-17 01:00:11.00	10.02	17.77	-29.5	-32.3	14.0	3.63e-04	0	43	0	211812352	19	4954
2026-01-17 01:00:12.00	9.96	17.89	-29.4	-32.6	14.2	4.81e-04	0	43	0	213909504	18	5170
2026-01-17 01:00:13.00	9.89	18.00	-29.3	-32.2	14.4	3.66e-04	0	43	0	216006656	18	5028
2026-01-17 01:00:14.00	9.83	18.12	-29.4	-32.4	14.3	3.68e-04	0	43	0	217055232	18	5113
2026-01-17 01:00:15.00	9.76	18.23	-29.3	-32.2	14.4	2.38e-03	0	43	0	219152384	18	5046
2026-01-17 01:00:16.00	9.69	18.35	-29.3	-32.2	14.4	4.32e-04	0	43	0	221249536	18	5029
2026-01-17 01:00:17.01	9.62	18.47	-29.3	-32.2	14.5	4.72e-04	0	43	0	223346688	18	5013
2026-01-17 01:00:18.01	9.55	18.58	-29.5	-32.3	14.0	1.50e-06	0	43	0	225443840	19	4964
2026-01-17 01:00:19.01	9.49	18.70	-29.3	-32.3	14.4	2.45e-03	0	43	0	226492416	18	5047
2026-01-17 01:00:20.01	9.42	18.82	-29.4	-32.4	14.3	4.85e-04	0	43	0	228589568	18	5100
2026-01-17 01:00:21.02	9.34	18.94	-29.7	-32.8	13.8	1.50e-06	0	43	0	230686720	19	5118
2026-01-17 01:00:22.03	9.27	19.06	-29.5	-32.3	14.1	2.35e-03	0	43	0	232783872	19	4947
2026-01-17 01:00:23.03	9.20	19.18	-29.7	-32.8	13.8	2.66e-04	0	43	0	233832448	19	5114
2026-01-17 01:00:24.04	9.13	19.30	-29.7	-32.8	13.8	6.80e-06	0	43	0	235929600	19	5121
2026-01-17 01:00:25.04	9.06	19.42	-29.7	-32.8	13.8	2.16e-03	0	43	0	238026752	19	5115
2026-01-17 01:00:26.04	8.98	19.55	-29.7	-32.6	13.9	1.17e-04	0	43	0	240123904	19	5065
2026-01-17 01:00:27.04	8.91	19.67	-29.6	-32.4	14.1	3.00e-06	0	43	0	242221056	19	4973
2026-01-17 01:00:28.04	8.83	19.79	-29.7	-32.7	13.9	2.82e-04	0	43	0	244318208	19	5071
2026-01-17 01:00:29.05	8.76	19.92	-29.6	-32.3	14.1	1.70e-04	0	43	0	245366784	19	4953
2026-01-17 01:00:30.05	8.68	20.04	-29.8	-33.0	13.7	2.39e-03	0	43	0	247463936	19	5197
2026-01-17 01:00:31.05	8.60	20.16	-29.6	-32.4	14.1	3.80e-04	0	43	0	249561088	19	4981
2026-01-17 01:00:32.05	8.53	20.29	-29.3	-32.0	14.6	1.70e-04	0	43	0	251658240	18	4960
2026-01-17 01:00:33.05	8.45	20.41	-29.0	-31.5	14.9	2.24e-03	0	43	0	252706816	18	4779
2026-01-17 01:00:34.04	8.37	20.54	-28.9	-31.6	15.1	4.23e-04	0	43	0	254803968	17	4918
2026-01-17 01:00:35.04	8.29	20.67	-29.1	-31.5	14.9	4.27e-04	0	43	0	256901120	18	4787
2026-01-17 01:00:36.04	8.21	20.79	-29.1	-31.7	14.8	2.11e-03	0	43	0	258998272	18	4835
2026-01-17 01:00:37.05	8.13	20.92	-29.1	-31.6	14.9	2.35e-03	0	43	0	261095424	18	4817
2026-01-17 01:00:38.05	8.05	21.05	-29.2	-31.9	14.7	2.84e-04	0	43	0	262144000	18	4919
2026-01-17 01:00:39.06	7.97	21.18	-29.2	-32.0	14.7	2.34e-03	0	43	0	264241152	18	4940
2026-01-17 01:00:40.06	7.88	21.31	-29.0	-31.4	15.1	2.26e-03	0	43	0	266338304	18	4750
2026-01-17 01:00:41.06	7.80	21.44	-29.0	-31.3	15.1	1.37e-04	0	43	0	268435456	18	4717
2026-01-17 01:00:42.06	7.72	21.57	-29.0	-31.4	15.1	2.19e-03	0	43	0	270532608	18	4729
2026-01-17 01:00:43.07	7.63	21.71	-29.1	-31.6	15.0	2.10e-03	0	43	0	271581184	18	4791
2026-01-17 01:00:44.07	7.54	21.84	-28.9	-31.1	15.2	1.63e-04	0	43	0	273678336	18	4648
2026-01-17 01:00:45.07	7.46	21.97	-28.8	-31.5	15.3	0.00e+00	0	43	0	275775488	17	4870
2026-01-17 01:00:46.07	7.37	22.10	-28.9	-31.7	15.2	2.29e-03	0	43	0	277872640	17	4961
2026-01-17 01:00:47.07	7.28	22.24	-29.0	-31.3	15.2	2.01e-04	0	43	0	278921216	18	4701
2026-01-17 01:00:48.07	7.19	22.37	-28.9	-31.7	15.2	2.26e-03	0	43	0	281018368	17	4954
2026-01-17 01:00:49.07	7.10	22.51	-29.1	-31.7	14.9	2.19e-03	0	43	0	283115520	18	4843
2026-01-17 01:00:50.07	7.01	22.65	-29.1	-31.7	14.9	1.20e-04	0	43	0	285212672	18	4832
2026-01-17 01:00:51.08	6.92	22.78	-29.2	-31.8	14.8	2.18e-03	0	43	0	287309824	18	4878
2026-01-17 01:00:52.08	6.83	22.92	-29.1	-31.7	14.9	1.80e-04	0	43	0	288358400	18	4838
2026-01-17 01:00:53.08	6.74	23.06	-29.3	-32.1	14.7	1.22e-04	0	43	0	290455552	18	4961
2026-01-17 01:00:54.08	6.64	23.20	-29.1	-31.7	14.9	2.00e-03	0	43	0	292552704	18	4834
2026-01-17 01:00:55.08	6.55	23.34	-29.1	-31.7	14.9	2.30e-03	0	43	0	294649856	18	4836
2026-01-17 01:00:56.09	6.45	23.48	-29.2	-31.9	14.8	1.42e-04	0	43	0	296747008	18	4898
2026-01-17 01:00:57.09	6.35	23.62	-29.1	-31.6	15.0	2.23e-03	0	43	0	297795584	18	4801
2026-01-17 01:00:58.09	6.26	23.76	-29.2	-31.8	14.9	2.14e-03	0	43	0	299892736	18	4850
2026-01-17 01:00:59.09	6.16	23.90	-29.1	-31.5	15.1	7.00e-07	0	43	0	301989888	18	4772
2026-01-17 01:01:00.09	6.06	24.04	-29.2	-32.0	14.8	2.18e-03	0	43	0	304087040	18	4929
2026-01-17 01:01:01.09	5.96	24.19	-29.2	-31.9	14.9	2.02e-03	0	43	0	306184192	18	4885
2026-01-17 01:01:02.10	5.86	24.33	-29.2	-31.9	14.8	6.17e-05	0	43	0	307232768	18	4915
2026-01-17 01:01:03.10	5.75	24.48	-29.3	-32.1	14.7	2.06e-03	0	43	0	309329920	18	4963
2026-01-17 01:01:04.10	5.65	24.62	-29.5	-32.5	14.4	2.30e-03	0	43	0	311427072	18	5116
2026-01-17 01:01:05.10	5.55	24.77	-29.4	-32.3	14.6	1.25e-04	0	43	0	313524224	18	5054
2026-01-17 01:01:06.11	5.44	24.92	-29.6	-32.3	14.3	1.50e-06	0	43	0	315621376	19	4918
2026-01-17 01:01:07.11	5.34	25.07	-29.5	-32.2	14.4	2.35e-03	0	43	0	316669952	19	4884
2026-01-17 01:01:08.11	5.23	25.21	-29.7	-32.6	14.1	1.59e-04	0	43	0	318767104	19	5032
2026-01-17 01:01:09.11	5.12	25.36	-29.7	-32.7	14.0	2.44e-03	0	43	0	320864256	19	5090
2026-01-17 01:01:10.11	5.01	25.51	-29.8	-33.0	13.8	2.21e-03	0	43	0	322961408	19	5172
2026-01-17 01:01:11.11	4.90	25.66	-30.0	-33.4	13.6	1.92e-04	0	43	0	324009984	19	5314
2026-01-17 01:01:12.11	4.79	25.81	-30.0	-33.0	13.4	2.28e-03	0	43	0	326107136	20	5078
2026-01-17 01:01:13.11	4.68	25.97	-30.2	-33.5	13.1	2.13e-05	0	43	0	328204288	20	5269
2026-01-17 01:01:14.12	4.56	26.12	-30.2	-33.5	13.1	1.63e-04	0	43	0	330301440	20	5267
2026-01-17 01:01:15.12	4.45	26.27	-30.2	-33.6	13.0	2.66e-03	0	43	0	332398592	20	5310
2026-01-17 01:01:16.13	4.33	26.43	-30.3	-33.7	13.0	2.58e-03	0	43	0	333447168	20	5349
2026-01-17 01:01:17.13	4.21	26.58	-30.3	-33.9	12.9	4.65e-05	0	43	0	335544320	20	5424
2026-01-17 01:01:18.13	4.09	26.74	-30.4	-34.1	12.7	2.49e-03	0	43	0	337641472	20	5533
2026-01-17 01:01:19.13	3.97	26.90	-30.5	-34.3	12.5	2.34e-03	0	43	0	339738624	20	5582
2026-01-17 01:01:20.13	3.85	27.05	-30.4	-34.1	12.8	7.01e-05	0	43	0	341835776	20	5511
2026-01-17 01:01:21.14	3.73	27.21	-30.6	-34.2	12.3	2.49e-03	0	43	0	342884352	21	5428
2026-01-17 01:01:22.14	3.61	27.37	-30.9	-35.0	11.8	2.87e-03	0	43	0	344981504	21	5769
2026-01-17 01:01:23.14	3.48	27.53	-30.8	-34.9	11.9	4.61e-04	0	43	0	347078656	21	5730
2026-01-17 01:01:24.14	3.36	27.69	-31.0	-35.3	11.6	5.22e-04	0	43	0	349175808	21	5898
2026-01-17 01:01:25.14	3.23	27.85	-31.0	-34.7	11.7	3.34e-03	0	43	0	351272960	22	5546
2026-01-17 01:01:26.14	3.10	28.01	-31.1	-35.2	11.4	8.73e-04	0	43	0	352321536	22	5741
2026-01-17 01:01:27.15	2.97	28.18	-31.1	-35.2	11.4	1.02e-03	0	43	0	354418688	22	5765
2026-01-17 01:01:28.15	2.84	28.34	-31.3	-35.7	10.9	4.19e-03	0	43	0	356515840	22	6014
2026-01-17 01:01:29.16	2.70	28.51	-31.3	-35.7	11.0	1.68e-03	0	43	0	358612992	22	5979
2026-01-17 01:01:30.16	2.57	28.67	-31.3	-35.9	10.9	2.28e-03	0	43	0	360710144	22	6084
2026-01-17 01:01:31.16	2.43	28.84	-31.1	-35.0	11.5	1.35e-03	0	43	0	361758720	22	5675
2026-01-17 01:01:32.17	2.30	29.01	-31.1	-35.1	11.5	1.04e-03	0	43	0	363855872	22	5693
2026-01-17 01:01:33.16	2.16	29.17	-31.1	-35.2	11.4	3.69e-03	0	43	0	365953024	22	5732
2026-01-17 01:01:34.17	2.02	29.34	-31.1	-35.2	11.4	5.89e-04	0	43	0	368050176	22	5733
2026-01-17 01:01:35.17	1.88	29.51	-31.2	-35.3	11.4	1.05e-03	0	43	0	369098752	22	5788
2026-01-17 01:01:36.17	1.73	29.68	-31.1	-35.0	11.5	3.63e-03	0	43	0	371195904	22	5681
2026-01-17 01:01:37.18	1.59	29.86	-31.1	-35.1	11.4	1.07e-03	0	43	0	373293056	22	5722
2026-01-17 01:01:38.18	1.44	30.03	-31.0	-34.7	11.8	6.81e-04	0	43	0	375390208	22	5508
2026-01-17 01:01:39.18	1.29	30.20	-30.8	-34.6	12.2	2.86e-03	0	43	0	377487360	21	5583
2026-01-17 01:01:40.18	1.15	30.37	-31.0	-35.2	11.8	3.05e-03	0	43	0	378535936	21	5842
2026-01-17 01:01:41.19	0.99	30.55	-31.2	-35.3	11.3	8.49e-04	0	43	0	380633088	22	5791
2026-01-17 01:01:42.18	0.84	30.72	-31.3	-35.7	11.1	1.25e-03	0	43	0	382730240	22	5954
2026-01-17 01:01:43.18	0.69	30.90	-31.3	-35.6	11.1	4.21e-03	0	43	0	384827392	22	5948
2026-01-17 01:01:44.18	0.53	31.07	-31.2	-35.3	11.4	1.20e-03	0	43	0	386924544	22	5766
2026-01-17 01:01:45.19	0.37	31.25	-31.2	-35.3	11.4	9.29e-04	0	43	0	387973120	22	5773
2026-01-17 01:01:46.19	0.21	31.43	-31.2	-35.4	11.3	3.08e-03	0	43	0	390070272	22	5813
2026-01-17 01:01:47.19	0.05	31.61	-31.0	-34.9	11.7	8.35e-04	0	43	0	392167424	22	5601
2026-01-17 01:01:48.19	359.89	31.79	-31.1	-35.0	11.6	7.14e-04	0	43	0	394264576	22	5635
2026-01-17 01:01:49.19	359.72	31.97	-31.0	-34.8	11.7	5.91e-04	0	43	0	396361728	22	5572
2026-01-17 01:01:50.19	359.56	32.15	-31.0	-34.9	11.7	4.87e-04	0	43	0	397410304	22	5610
2026-01-17 01:01:51.19	359.39	32.33	-31.1	-35.0	11.6	6.58e-04	0	43	0	399507456	22	5663
2026-01-17 01:01:52.20	359.21	32.52	-31.3	-35.8	11.0	1.26e-03	0	43	0	401604608	22	6023
2026-01-17 01:01:53.20	359.04	32.70	-31.2	-35.2	11.4	1.24e-03	0	43	0	403701760	22	5756
2026-01-17 01:01:54.20	358.87	32.89	-30.9	-34.4	12.0	4.00e-04	0	43	0	405798912	22	5389
2026-01-17 01:01:55.20	358.69	33.07	-30.7	-34.4	12.3	3.25e-04	0	43	0	406847488	21	5487
2026-01-17 01:01:56.21	358.51	33.26	-30.8	-34.6	12.2	1.86e-04	0	43	0	408944640	21	5583
2026-01-17 01:01:57.20	358.33	33.45	-30.9	-34.9	11.9	4.27e-04	0	43	0	411041792	21	5715
2026-01-17 01:01:58.20	358.15	33.64	-30.9	-35.0	12.0	4.23e-04	0	43	0	413138944	21	5738
2026-01-17 01:01:59.20	357.96	33.82	-30.9	-34.8	12.1	3.00e-04	0	43	0	414187520	21	5676
2026-01-17 01:02:00.20	357.77	34.01	-31.0	-35.1	11.9	3.23e-04	0	43	0	416284672	21	5793
2026-01-17 01:02:01.20	357.58	34.20	-31.1	-34.9	11.7	6.61e-04	0	43	0	418381824	22	5615
2026-01-17 01:02:02.20	357.39	34.40	-31.3	-35.6	11.2	1.14e-03	0	43	0	420478976	22	5907
2026-01-17 01:02:03.20	357.20	34.59	-31.2	-35.4	11.3	1.10e-03	0	43	0	422576128	22	5830
2026-01-17 01:02:04.21	357.00	34.78	-31.4	-35.9	11.0	2.26e-03	0	43	0	423624704	22	6029
2026-01-17 01:02:05.21	356.80	34.98	-31.3	-35.7	11.2	1.58e-03	0	43	0	425721856	22	5975
2026-01-17 01:02:06.21	356.60	35.17	-31.3	-35.6	11.2	1.22e-03	0	43	0	427819008	22	5902
2026-01-17 01:02:07.21	356.39	35.37	-31.2	-35.4	11.4	1.06e-03	0	43	0	429916160	22	5794
2026-01-17 01:02:08.21	356.19	35.56	-31.4	-36.0	11.0	1.62e-03	0	43	0	432013312	22	6090
2026-01-17 01:02:09.21	355.98	35.76	-31.4	-35.8	11.1	1.51e-03	0	43	0	433061888	22	5982
2026-01-17 01:02:10.21	355.77	35.96	-31.6	-36.2	10.5	2.90e-03	0	43	0	435159040	23	6077
2026-01-17 01:02:11.22	355.55	36.16	-31.4	-35.3	11.1	1.94e-03	0	43	0	437256192	23	5678
2026-01-17 01:02:12.21	355.33	36.36	-31.4	-35.7	11.2	1.86e-03	0	43	0	439353344	22	5965
2026-01-17 01:02:13.21	355.11	36.56	-31.5	-35.9	10.7	2.34e-03	0	43	0	441450496	23	5946
2026-01-17 01:02:14.21	354.89	36.76	-31.4	-35.6	10.8	2.64e-03	0	43	0	442499072	23	5808
2026-01-17 01:02:15.21	354.67	36.96	-31.5	-35.9	10.6	2.73e-03	0	44	0	444596224	23	5958
2026-01-17 01:02:16.20	354.44	37.16	-31.6	-36.0	10.6	4.14e-03	0	43	0	446693376	23	5978
2026-01-17 01:02:17.21	354.21	37.36	-31.5	-35.7	10.8	2.98e-03	0	43	0	448790528	23	5837
2026-01-17 01:02:18.21	353.97	37.57	-31.5	-35.9	10.7	2.44e-03	0	43	0	449839104	23	5930
2026-01-17 01:02:19.22	353.73	37.77	-31.6	-36.2	10.5	4.95e-03	0	43	0	451936256	23	6069
2026-01-17 01:02:20.22	353.49	37.98	-31.4	-35.3	11.1	2.15e-03	0	43	0	454033408	23	5676
2026-01-17 01:02:21.22	353.25	38.18	-31.3	-35.7	11.3	1.25e-03	0	43	0	456130560	22	5931
2026-01-17 01:02:22.22	353.00	38.39	-31.4	-35.9	11.1	1.66e-03	0	43	0	458227712	22	6034
2026-01-17 01:02:23.22	352.75	38.60	-31.4	-35.5	11.0	2.92e-03	0	43	0	459276288	23	5751
2026-01-17 01:02:24.22	352.50	38.81	-31.6	-36.0	10.7	2.12e-03	0	43	0	461373440	23	5997
2026-01-17 01:02:25.22	352.25	39.01	-31.7	-36.3	10.4	4.52e-03	0	43	0	463470592	23	6153
2026-01-17 01:02:26.22	351.99	39.22	-31.6	-36.1	10.6	3.47e-03	0	43	0	465567744	23	6028
2026-01-17 01:02:27.22	351.72	39.43	-30.9	-35.7	10.3	4.10e-03	0	43	0	467664896	23	6249
2026-01-17 01:02:28.22	351.46	39.64	-31.6	-36.1	10.5	3.33e-03	0	43	0	468713472	23	6076
2026-01-17 01:02:29.22	351.19	39.85	-31.9	-37.0	9.7	8.29e-03	0	43	0	470810624	23	6512
2026-01-17 01:02:30.22	350.91	40.06	-31.9	-36.9	9.6	6.87e-03	0	43	0	472907776	23	6447
2026-01-17 01:02:31.22	350.64	40.27	-32.0	-37.1	9.4	1.01e-02	0	43	0	475004928	24	6448
2026-01-17 01:02:32.22	350.36	40.49	-31.8	-36.8	9.5	1.13e-02	0	43	0	477102080	23	6368
2026-01-17 01:02:33.23	350.07	40.70	-31.7	-36.5	9.7	5.76e-03	0	43	0	478150656	23	6219
2026-01-17 01:02:34.23	349.78	40.91	-31.7	-36.5	10.2	4.96e-03	0	43	0	480247808	23	6259
2026-01-17 01:02:35.23	349.49	41.13	-31.6	-36.2	10.2	6.35e-03	0	43	0	482344960	23	6054
2026-01-17 01:02:36.23	349.19	41.34	-31.7	-36.4	10.3	6.05e-03	0	44	0	484442112	23	6171
2026-01-17 01:02:37.23	348.89	41.56	-31.3	-35.6	11.3	2.88e-03	0	44	0	486539264	22	5900
2026-01-17 01:02:38.24	348.59	41.77	-31.1	-35.0	11.8	9.02e-04	0	43	0	487587840	22	5616
2026-01-17 01:02:39.24	348.28	41.99	-31.0	-34.6	12.0	3.45e-04	0	43	0	489684992	22	5472
2026-01-17 01:02:40.24	347.97	42.20	-31.0	-34.6	12.0	3.42e-04	0	43	0	491782144	22	5461
2026-01-17 01:02:41.25	347.65	42.42	-30.9	-34.5	12.1	3.40e-04	0	44	0	493879296	22	5392
2026-01-17 01:02:42.25	347.32	42.64	-30.8	-34.7	12.2	1.09e-03	0	44	0	494927872	21	5610
2026-01-17 01:02:43.26	347.00	42.85	-30.8	-34.4	12.5	2.25e-04	0	43	0	497025024	21	5507
2026-01-17 01:02:44.26	346.67	43.07	-30.7	-34.4	12.5	1.15e-04	0	44	0	499122176	21	5469
2026-01-17 01:02:45.26	346.33	43.29	-30.7	-34.3	12.5	2.18e-03	0	44	0	501219328	21	5445
2026-01-17 01:02:46.27	345.99	43.51	-30.7	-34.1	12.7	7.70e-05	0	43	0	503316480	21	5361
2026-01-17 01:02:47.27	345.65	43.72	-30.6	-34.0	12.8	6.94e-05	0	43	0	504365056	21	5300
2026-01-17 01:02:48.27	345.30	43.94	-30.5	-33.8	12.9	7.40e-05	0	43	0	506462208	21	5233
2026-01-17 01:02:49.27	344.94	44.16	-30.6	-33.8	12.8	5.72e-05	0	43	0	508559360	21	5243
2026-01-17 01:02:50.27	344.59	44.37	-30.5	-33.8	12.8	5.18e-05	0	43	0	510656512	21	5215
2026-01-17 01:02:51.28	344.22	44.59	-30.8	-34.4	12.5	2.54e-04	0	44	0	512753664	21	5475
2026-01-17 01:02:52.28	343.85	44.81	-30.8	-34.7	12.3	1.56e-04	0	44	0	513802240	21	5588
2026-01-17 01:02:53.28	343.48	45.02	-30.9	-34.8	12.2	2.61e-03	0	44	0	515899392	21	5655
2026-01-17 01:02:54.29	343.10	45.24	-31.1	-34.9	11.8	5.14e-04	0	44	0	517996544	22	5580
2026-01-17 01:02:55.29	342.71	45.46	-31.1	-35.0	11.7	5.02e-04	0	43	0	520093696	22	5633
2026-01-17 01:02:56.29	342.32	45.67	-31.1	-35.0	11.7	2.99e-03	0	43	0	522190848	22	5635
2026-01-17 01:02:57.29	341.93	45.89	-31.1	-34.8	11.9	4.99e-04	0	43	0	523239424	22	5557
2026-01-17 01:02:58.30	341.52	46.10	-31.0	-34.7	12.0	3.66e-04	0	44	0	525336576	22	5486
2026-01-17 01:02:59.30	341.12	46.32	-31.0	-34.7	12.0	2.39e-03	0	43	0	527433728	22	5482
2026-01-17 01:03:00.30	340.71	46.53	-31.1	-34.8	12.0	2.33e-03	0	44	0	529530880	22	5538
2026-01-17 01:03:01.30	340.29	46.74	-31.0	-34.5	12.1	3.57e-04	0	43	0	531628032	22	5390
2026-01-17 01:03:02.30	339.87	46.96	-30.9	-34.8	12.3	1.77e-03	0	44	0	532676608	21	5647
2026-01-17 01:03:03.30	339.44	47.17	-30.9	-34.9	12.2	1.74e-03	0	43	0	534773760	21	5680
2026-01-17 01:03:04.30	339.01	47.38	-31.2	-35.1	11.7	4.52e-04	0	44	0	536870912	22	5643
2026-01-17 01:03:05.30	338.57	47.59	-31.3	-35.4	11.4	8.04e-04	0	43	0	538968064	22	5804
2026-01-17 01:03:06.30	338.12	47.80	-31.2	-35.3	11.6	2.18e-03	0	43	0	540016640	22	5742
2026-01-17 01:03:07.30	337.67	48.01	-31.2	-35.2	11.7	7.51e-04	0	43	0	542113792	22	5712
2026-01-17 01:03:08.30	337.21	48.22	-31.3	-35.6	11.4	6.84e-04	0	43	0	544210944	22	5885
2026-01-17 01:03:09.30	336.74	48.42	-31.4	-35.8	11.2	2.55e-03	0	44	0	546308096	22	5989
2026-01-17 01:03:10.31	336.27	48.63	-31.3	-35.7	11.3	1.42e-03	0	43	0	548405248	22	5918
2026-01-17 01:03:11.30	335.80	48.83	-31.3	-35.4	11.5	1.90e-03	0	43	0	549453824	22	5794
2026-01-17 01:03:12.31	335.31	49.04	-31.2	-35.4	11.5	8.86e-04	0	43	0	551550976	22	5797
2026-01-17 01:03:13.31	334.82	49.24	-30.9	-34.4	12.2	3.86e-04	0	44	0	553648128	22	5372
2026-01-17 01:03:14.32	334.32	49.44	-30.7	-34.2	12.7	1.45e-03	0	43	0	555745280	21	5408
2026-01-17 01:03:15.32	333.81	49.64	-30.4	-33.5	13.1	4.95e-05	0	44	0	557842432	21	5118
2026-01-17 01:03:16.32	333.30	49.84	-30.5	-33.6	13.0	2.67e-05	0	44	0	558891008	21	5171
2026-01-17 01:03:17.33	332.78	50.04	-30.7	-34.1	12.7	1.35e-03	0	44	0	560988160	21	5354
2026-01-17 01:03:18.33	332.26	50.23	-30.4	-33.5	13.1	1.24e-03	0	43	0	563085312	21	5129
2026-01-17 01:03:19.33	331.73	50.42	-30.2	-32.9	13.5	2.44e-05	0	43	0	565182464	21	4913
2026-01-17 01:03:20.33	331.19	50.61	-30.1	-33.0	13.8	1.22e-03	0	43	0	567279616	20	5024
2026-01-17 01:03:21.33	330.64	50.80	-30.0	-32.7	13.9	1.66e-03	0	43	0	568328192	20	4947
2026-01-17 01:03:22.33	330.09	50.99	-29.8	-32.2	14.2	7.00e-07	0	43	0	570425344	20	4769
2026-01-17 01:03:23.33	329.54	51.17	-29.6	-32.3	14.6	2.04e-03	0	44	0	572522496	19	4905
2026-01-17 01:03:24.33	328.97	51.36	-29.4	-32.2	15.0	1.90e-03	0	44	0	574619648	18	4968
2026-01-17 01:03:25.33	328.40	51.54	-29.3	-32.0	15.1	0.00e+00	0	44	0	575668224	18	4890
2026-01-17 01:03:26.34	327.82	51.72	-29.1	-31.6	15.4	1.90e-03	0	44	0	577765376	18	4760
2026-01-17 01:03:27.34	327.23	51.89	-29.0	-31.3	15.5	2.17e-03	0	43	0	579862528	18	4674
2026-01-17 01:03:28.34	326.64	52.06	-29.1	-31.5	15.4	6.80e-06	0	43	0	581959680	18	4727
2026-01-17 01:03:29.34	326.04	52.24	-29.1	-31.4	15.5	2.17e-03	0	43	0	584056832	18	4697
2026-01-17 01:03:30.34	325.43	52.40	-28.9	-31.5	15.7	2.09e-03	0	44	0	585105408	17	4862
2026-01-17 01:03:31.34	324.82	52.57	-28.8	-31.2	15.9	1.83e-05	0	43	0	587202560	17	4750
2026-01-17 01:03:32.34	324.20	52.73	-28.7	-30.9	16.0	2.11e-03	0	44	0	589299712	17	4667
2026-01-17 01:03:33.34	323.57	52.89	-28.9	-31.3	15.8	1.92e-03	0	44	0	591396864	17	4793
2026-01-17 01:03:34.34	322.94	53.04	-29.0	-31.1	15.7	0.00e+00	0	43	0	593494016	18	4596
2026-01-17 01:03:35.34	322.30	53.20	-29.0	-31.7	15.7	1.50e-03	0	43	0	594542592	17	4901
2026-01-17 01:03:36.34	321.65	53.35	-29.2	-31.6	15.3	1.51e-03	0	43	0	596639744	18	4773
2026-01-17 01:03:37.33	321.00	53.49	-29.3	-31.9	15.2	0.00e+00	0	43	0	598736896	18	4877
2026-01-17 01:03:38.34	320.33	53.63	-29.4	-32.1	15.1	4.26e-04	0	43	0	600834048	18	4931
2026-01-17 01:03:39.34	319.67	53.77	-29.6	-32.2	14.8	1.72e-04	0	43	0	602931200	19	4849
2026-01-17 01:03:40.34	318.99	53.91	-29.9	-32.9	14.3	0.00e+00	0	43	0	603979776	19	5098
2026-01-17 01:03:41.34	318.31	54.04	-30.0	-32.7	14.0	3.00e-06	0	44	0	606076928	20	4933
2026-01-17 01:03:42.34	317.63	54.17	-29.9	-32.5	14.2	3.73e-04	0	43	0	608174080	20	4848
2026-01-17 01:03:43.33	316.94	54.29	-29.8	-32.2	14.3	1.50e-06	0	43	0	610271232	20	4754
2026-01-17 01:03:44.34	316.24	54.41	-29.8	-32.6	14.5	4.82e-04	0	44	0	612368384	19	4990
2026-01-17 01:03:45.34	315.53	54.53	-29.8	-32.7	14.4	3.63e-04	0	44	0	613416960	19	5031
2026-01-17 01:03:46.34	314.82	54.64	-29.6	-32.1	14.8	7.00e-07	0	43	0	615514112	19	4814
2026-01-17 01:03:47.34	314.11	54.75	-29.4	-31.8	15.0	7.00e-07	0	43	0	617611264	19	4707
2026-01-17 01:03:48.34	313.39	54.85	-29.2	-31.6	15.4	1.19e-03	0	43	0	619708416	18	4760
2026-01-17 01:03:49.34	312.66	54.95	-29.3	-31.8	15.2	0.00e+00	0	43	0	620756992	18	4836
2026-01-17 01:03:50.34	311.93	55.05	-29.4	-32.3	15.1	0.00e+00	0	44	0	622854144	18	4981
2026-01-17 01:03:51.35	311.19	55.14	-29.4	-31.8	15.0	1.11e-03	0	44	0	624951296	19	4706
2026-01-17 01:03:52.35	310.45	55.22	-29.2	-31.2	15.4	7.00e-07	0	43	0	627048448	19	4520
2026-01-17 01:03:53.35	309.71	55.30	-29.2	-31.6	15.4	1.05e-03	0	43	0	629145600	18	4762
2026-01-17 01:03:54.35	308.96	55.38	-29.3	-31.8	15.2	0.00e+00	0	44	0	630194176	18	4833
2026-01-17 01:03:55.35	308.20	55.45	-29.3	-31.9	15.2	0.00e+00	0	43	0	632291328	18	4863
2026-01-17 01:03:56.35	307.45	55.52	-28.9	-30.8	15.8	5.80e-04	0	43	0	634388480	18	4526
2026-01-17 01:03:57.35	306.69	55.58	-28.5	-30.6	16.3	2.17e-04	0	43	0	636485632	17	4549
2026-01-17 01:03:58.35	305.93	55.64	-28.4	-30.2	16.5	0.00e+00	0	44	0	638582784	17	4437
2026-01-17 01:03:59.35	305.16	55.69	-28.5	-30.5	16.4	3.21e-04	0	43	0	639631360	17	4524
2026-01-17 01:04:00.35	304.39	55.73	-28.5	-30.4	16.3	8.52e-04	0	43	0	641728512	17	4515
2026-01-17 01:04:01.35	303.62	55.78	-28.3	-30.1	16.6	0.00e+00	0	43	0	643825664	17	4415
2026-01-17 01:04:02.35	302.85	55.81	-28.4	-30.3	16.5	1.17e-03	0	43	0	645922816	17	4464
2026-01-17 01:04:03.36	302.06	55.85	-28.3	-30.5	16.7	6.21e-04	0	43	0	646971392	16	4642
2026-01-17 01:04:04.36	301.29	55.87	-28.0	-29.8	17.0	0.00e+00	0	43	0	649068544	16	4423
2026-01-17 01:04:05.36	300.51	55.89	-27.9	-29.4	17.2	0.00e+00	0	43	0	651165696	16	4325
2026-01-17 01:04:06.35	299.74	55.91	-27.8	-29.9	17.1	9.30e-04	0	43	0	653262848	15	4567
2026-01-17 01:04:07.35	298.96	55.92	-28.2	-30.2	16.8	0.00e+00	0	44	0	655360000	16	4547
2026-01-17 01:04:08.35	298.18	55.93	-28.2	-30.4	16.7	1.33e-04	0	44	0	656408576	16	4598
2026-01-17 01:04:09.36	297.39	55.93	-28.0	-29.8	17.1	9.84e-05	0	43	0	658505728	16	4425
2026-01-17 01:04:10.37	296.60	55.92	-28.0	-29.9	17.0	0.00e+00	0	43	0	660602880	16	4458
2026-01-17 01:04:11.36	295.83	55.91	-28.1	-30.1	16.8	4.77e-04	0	44	0	662700032	16	4533
2026-01-17 01:04:12.37	295.04	55.90	-28.3	-30.4	16.7	4.16e-04	0	43	0	664797184	16	4623
2026-01-17 01:04:13.37	294.26	55.88	-28.3	-30.6	16.6	0.00e+00	0	43	0	665845760	16	4679
2026-01-17 01:04:14.38	293.47	55.85	-28.5	-30.4	16.4	1.51e-03	0	43	0	667942912	17	4496
2026-01-17 01:04:15.38	292.70	55.82	-28.6	-30.6	16.2	2.31e-04	0	43	0	670040064	17	4577
2026-01-17 01:04:16.38	291.92	55.78	-28.7	-30.9	16.1	0.00e+00	0	43	0	672137216	17	4658
2026-01-17 01:04:17.38	291.15	55.74	-28.3	-30.1	16.5	2.06e-03	0	44	0	674234368	17	4427
2026-01-17 01:04:18.38	290.38	55.70	-28.1	-30.0	16.9	2.23e-04	0	43	0	675282944	16	4502
2026-01-17 01:04:19.39	289.61	55.64	-27.9	-29.5	17.2	7.00e-07	0	44	0	677380096	16	4354
2026-01-17 01:04:20.38	288.85	55.59	-27.9	-30.1	17.0	1.65e-03	0	43	0	679477248	15	4639
2026-01-17 01:04:21.39	288.08	55.53	-27.6	-29.3	17.3	3.33e-04	0	43	0	681574400	15	4423
2026-01-17 01:04:22.39	287.33	55.46	-27.2	-28.5	17.9	2.20e-06	0	44	0	683671552	15	4193
2026-01-17 01:04:23.40	286.56	55.39	-26.9	-28.4	18.2	2.80e-04	0	43	0	684720128	14	4264
2026-01-17 01:04:24.40	285.82	55.31	-26.8	-28.2	18.3	8.91e-04	0	43	0	686817280	14	4212
2026-01-17 01:04:25.40	285.07	55.23	-26.7	-27.8	18.5	2.20e-06	0	43	0	688914432	14	4104
2026-01-17 01:04:26.40	284.33	55.15	-26.7	-28.3	18.5	0.00e+00	0	43	0	691011584	13	4354
2026-01-17 01:04:27.41	283.58	55.06	-26.8	-28.7	18.3	1.87e-03	0	43	0	693108736	13	4463
2026-01-17 01:04:28.41	282.85	54.96	-26.7	-28.4	18.4	0.00e+00	0	43	0	694157312	13	4391
2026-01-17 01:04:29.41	282.13	54.87	-26.7	-28.4	18.4	0.00e+00	0	43	0	696254464	13	4378
2026-01-17 01:04:30.41	281.40	54.76	-26.7	-28.3	18.4	0.00e+00	0	44	0	698351616	13	4359
2026-01-17 01:04:31.41	280.69	54.66	-26.7	-28.3	18.5	0.00e+00	0	43	0	700448768	13	4350
2026-01-17 01:04:32.42	279.97	54.54	-27.0	-29.0	18.1	0.00e+00	0	43	0	701497344	13	4552
2026-01-17 01:04:33.42	279.26	54.43	-27.2	-29.0	17.9	0.00e+00	0	43	0	703594496	14	4440
2026-01-17 01:04:34.43	278.56	54.31	-27.2	-29.0	17.8	0.00e+00	0	43	0	705691648	14	4439
2026-01-17 01:04:35.42	277.87	54.18	-27.4	-29.5	17.5	0.00e+00	0	44	0	707788800	14	4591
2026-01-17 01:04:36.42	277.18	54.06	-27.2	-29.1	17.8	0.00e+00	0	44	0	709885952	14	4470
2026-01-17 01:04:37.42	276.50	53.92	-27.6	-29.4	17.4	7.00e-07	0	44	0	710934528	15	4452
2026-01-17 01:04:38.42	275.83	53.79	-27.9	-30.2	16.9	9.27e-04	0	43	0	713031680	15	4686
2026-01-17 01:04:39.42	275.16	53.65	-28.4	-30.7	16.6	0.00e+00	0	43	0	715128832	16	4695
2026-01-17 01:04:40.42	274.49	53.51	-28.4	-30.7	16.6	1.50e-06	0	43	0	717225984	16	4699
2026-01-17 01:04:41.42	273.84	53.36	-28.7	-31.0	16.1	7.00e-07	0	43	0	719323136	17	4684
2026-01-17 01:04:42.42	273.19	53.21	-28.9	-31.6	15.7	0.00e+00	0	43	0	720371712	17	4880
2026-01-17 01:04:43.42	272.55	53.06	-29.0	-31.1	15.7	7.00e-07	0	43	0	722468864	18	4599
2026-01-17 01:04:44.42	271.91	52.91	-28.8	-30.8	15.9	0.00e+00	0	44	0	724566016	18	4498
2026-01-17 01:04:45.41	271.29	52.75	-28.8	-31.2	16.0	0.00e+00	0	43	0	726663168	17	4734
2026-01-17 01:04:46.41	270.67	52.59	-28.7	-30.9	16.2	0.00e+00	0	44	0	727711744	17	4642
2026-01-17 01:04:47.41	270.05	52.42	-28.7	-30.9	16.1	0.00e+00	0	43	0	729808896	17	4649
2026-01-17 01:04:48.41	269.44	52.25	-28.9	-31.4	15.8	0.00e+00	0	43	0	731906048	17	4808
2026-01-17 01:04:49.41	268.84	52.08	-29.2	-31.7	15.3	0.00e+00	0	43	0	734003200	18	4797
2026-01-17 01:04:50.42	268.24	51.91	-29.4	-32.3	15.0	0.00e+00	0	43	0	736100352	18	4989
2026-01-17 01:04:51.42	267.65	51.73	-29.6	-32.2	14.7	0.00e+00	0	43	0	737148928	19	4844
2026-01-17 01:04:52.42	267.07	51.56	-29.6	-32.1	14.8	0.00e+00	0	43	0	739246080	19	4810
2026-01-17 01:04:53.42	266.50	51.38	-29.7	-32.4	14.6	0.00e+00	0	44	0	741343232	19	4913
2026-01-17 01:04:54.42	265.93	51.19	-29.7	-32.5	14.5	2.20e-06	0	43	0	743440384	19	4977
2026-01-17 01:04:55.43	265.37	51.01	-29.8	-32.9	14.3	6.80e-06	0	43	0	745537536	19	5089
2026-01-17 01:04:56.43	264.81	50.82	-30.0	-32.8	13.9	3.98e-04	0	43	0	746586112	20	4980
2026-01-17 01:04:57.43	264.27	50.63	-30.4	-34.0	13.2	4.94e-04	0	43	0	748683264	20	5416
2026-01-17 01:04:58.43	263.73	50.44	-30.8	-34.4	12.5	7.24e-05	0	43	0	750780416	21	5479
2026-01-17 01:04:59.43	263.20	50.25	-29.8	-33.5	12.5	9.61e-05	0	43	0	752877568	21	5484
2026-01-17 01:05:00.43	262.67	50.05	-30.6	-34.0	12.8	1.82e-03	0	43	0	754974720	21	5323
2026-01-17 01:05:01.43	262.15	49.86	-30.5	-34.2	12.1	3.66e-05	0	43	0	756023296	20	5484
2026-01-17 01:05:02.43	261.64	49.66	-30.4	-34.0	13.2	1.47e-03	0	43	0	758120448	20	5412
2026-01-17 01:05:03.44	261.13	49.46	-30.6	-33.8	12.9	3.43e-05	0	43	0	760217600	21	5246
2026-01-17 01:05:04.45	260.63	49.26	-30.9	-35.0	11.9	1.03e-04	0	43	0	762314752	21	5710
2026-01-17 01:05:05.45	260.13	49.05	-31.5	-36.1	10.7	9.23e-04	0	43	0	764411904	22	6124
2026-01-17 01:05:06.45	259.65	48.85	-31.7	-36.3	10.4	3.21e-03	0	43	0	765460480	23	6136
2026-01-17 01:05:07.45	259.17	48.64	-31.7	-36.4	10.3	6.50e-03	0	44	0	767557632	23	6197
2026-01-17 01:05:08.45	258.70	48.44	-31.6	-36.0	10.7	3.44e-03	0	44	0	769654784	23	5977
2026-01-17 01:05:09.70	258.11	48.18	-31.7	-36.5	10.2	4.28e-03	0	44	0	771751936	23	6242
2026-01-17 01:05:10.49	257.75	48.02	-31.6	-36.2	10.6	4.92e-03	0	44	0	772800512	23	6067
2026-01-17 01:05:11.65	257.23	47.77	-31.6	-36.1	10.2	3.89e-03	0	43	0	774897664	23	6041
2026-01-17 01:05:12.51	256.84	47.59	-31.7	-36.5	10.2	3.93e-03	0	43	0	776994816	23	6249
2026-01-17 01:05:13.66	256.33	47.35	-32.0	-37.4	9.3	1.27e-02	0	44	0	779091968	23	6701
2026-01-17 01:05:14.51	255.96	47.17	-31.9	-36.8	9.6	1.19e-02	0	44	0	780140544	24	6302
2026-01-17 01:05:15.66	255.47	46.92	-32.1	-37.3	9.3	1.72e-02	0	44	0	782237696	24	6573
2026-01-17 01:05:16.52	255.11	46.74	-32.2	-37.7	9.0	1.94e-02	0	43	0	784334848	24	6801
2026-01-17 01:05:17.67	254.63	46.49	-32.0	-37.5	9.5	2.01e-02	0	43	0	786432000	23	6759
2026-01-17 01:05:18.53	254.27	46.31	-31.7	-36.4	10.4	7.31e-03	0	44	0	787480576	23	6169
2026-01-17 01:05:19.68	253.80	46.06	-31.4	-36.0	11.0	2.44e-03	0	44	0	789577728	22	6084
2026-01-17 01:05:20.53	253.46	45.88	-31.4	-35.6	10.9	2.18e-03	0	44	0	791674880	23	5790
2026-01-17 01:05:21.68	253.01	45.63	-31.3	-35.7	11.2	1.52e-03	0	43	0	793772032	22	5974
2026-01-17 01:05:22.54	252.67	45.45	-31.5	-35.8	10.8	1.63e-03	0	43	0	795869184	23	5901
2026-01-17 01:05:23.68	252.24	45.20	-31.6	-36.3	10.5	6.42e-03	0	44	0	797966336	23	6127
2026-01-17 01:05:24.54	251.91	45.01	-31.4	-35.5	10.9	2.58e-03	0	44	0	799014912	23	5785
2026-01-17 01:05:25.69	251.48	44.76	-31.0	-34.8	11.8	8.46e-04	0	43	0	801112064	22	5533
2026-01-17 01:05:26.55	251.16	44.58	-30.8	-34.7	12.2	5.50e-04	0	43	0	803209216	21	5633
2026-01-17 01:05:27.69	250.75	44.33	-30.7	-34.4	12.4	3.61e-04	0	44	0	805306368	21	5507
2026-01-17 01:05:28.55	250.44	44.14	-30.3	-33.8	12.1	1.04e-04	0	44	0	806354944	21	5407
2026-01-17 01:05:29.69	250.03	43.90	-30.6	-34.1	12.6	1.04e-04	0	44	0	808452096	21	5389
2026-01-17 01:05:30.55	249.73	43.71	-30.7	-34.3	12.3	1.50e-04	0	44	0	810549248	21	5431
2026-01-17 01:05:31.70	249.34	43.46	-30.8	-34.8	12.1	2.31e-04	0	44	0	812646400	21	5664
2026-01-17 01:05:32.56	249.05	43.27	-30.8	-34.5	11.1	2.17e-04	0	43	0	814743552	21	5545
2026-01-17 01:05:33.70	248.66	43.02	-30.8	-34.7	12.2	4.19e-04	0	44	0	816840704	21	5640
2026-01-17 01:05:34.56	248.38	42.84	-30.9	-35.0	11.3	2.81e-04	0	44	0	817889280	21	5738
2026-01-17 01:05:35.70	248.01	42.59	-30.8	-34.5	12.3	2.19e-04	0	44	0	819986432	21	5549
2026-01-17 01:05:36.57	247.73	42.40	-30.7	-34.3	12.4	1.24e-04	0	44	0	822083584	21	5463
2026-01-17 01:05:37.72	247.36	42.15	-30.8	-34.7	12.2	3.36e-03	0	44	0	824180736	21	5631
2026-01-17 01:05:38.58	247.09	41.97	-31.0	-34.8	11.7	3.24e-03	0	44	0	825229312	22	5567
2026-01-17 01:05:39.72	246.74	41.72	-31.4	-35.9	11.0	8.81e-04	0	44	0	827326464	22	6066
2026-01-17 01:05:40.58	246.48	41.54	-31.4	-36.1	10.9	2.21e-03	0	43	0	829423616	22	6179
2026-01-17 01:05:41.73	246.13	41.29	-31.6	-36.0	10.5	7.03e-03	0	44	0	831520768	23	6004
2026-01-17 01:05:42.60	245.87	41.10	-31.6	-36.3	10.3	4.92e-03	0	43	0	833617920	23	6151
2026-01-17 01:05:43.74	245.54	40.86	-31.7	-36.4	10.2	5.26e-03	0	43	0	835715072	23	6228
2026-01-17 01:05:44.61	245.29	40.67	-31.7	-36.4	10.3	5.69e-03	0	44	0	836763648	23	6208
2026-01-17 01:05:45.74	244.97	40.43	-31.7	-36.5	10.2	6.59e-03	0	44	0	838860800	23	6234
2026-01-17 01:05:46.60	244.73	40.25	-31.7	-36.4	10.2	5.67e-03	0	44	0	840957952	23	6214
2026-01-17 01:05:47.75	244.41	40.00	-31.8	-36.8	10.0	9.48e-03	0	44	0	843055104	23	6383
2026-01-17 01:05:48.61	244.17	39.82	-31.8	-36.8	10.0	1.05e-02	0	44	0	844103680	23	6399
2026-01-17 01:05:49.75	243.86	39.58	-31.7	-36.5	10.2	7.34e-03	0	43	0	846200832	23	6267
2026-01-17 01:05:50.61	243.63	39.40	-31.8	-37.0	9.8	7.33e-03	0	43	0	848297984	23	6507
2026-01-17 01:05:51.75	243.33	39.16	-31.9	-37.3	9.6	1.42e-02	0	44	0	850395136	23	6709
2026-01-17 01:05:52.61	243.11	38.98	-31.9	-37.1	9.8	1.52e-02	0	44	0	851443712	23	6574
2026-01-17 01:05:53.75	242.82	38.74	-31.8	-37.0	9.9	8.00e-03	0	44	0	853540864	23	6505
2026-01-17 01:05:54.60	242.60	38.56	-31.6	-36.2	10.4	7.22e-03	0	43	0	855638016	23	6108
2026-01-17 01:05:55.75	242.31	38.33	-31.3	-35.7	11.2	3.39e-03	0	43	0	857735168	22	5967
2026-01-17 01:05:56.62	242.10	38.15	-31.2	-35.3	11.5	2.76e-03	0	44	0	859832320	22	5773
2026-01-17 01:05:57.76	241.82	37.91	-31.1	-35.2	11.6	7.46e-04	0	43	0	861929472	22	5719
2026-01-17 01:05:58.62	241.61	37.73	-31.3	-35.6	11.2	9.11e-04	0	43	0	862978048	22	5935
2026-01-17 01:05:59.76	241.34	37.50	-31.3	-35.6	11.1	2.69e-03	0	43	0	865075200	22	5908
2026-01-17 01:06:00.62	241.14	37.32	-31.3	-35.6	11.3	1.29e-03	0	44	0	867172352	22	5895
2026-01-17 01:06:01.76	240.88	37.09	-31.4	-36.1	10.8	3.22e-03	0	43	0	869269504	22	6167
2026-01-17 01:06:02.62	240.68	36.92	-31.4	-36.1	10.8	4.57e-03	0	44	0	870318080	22	6180
2026-01-17 01:06:03.76	240.42	36.69	-31.3	-35.5	11.2	1.43e-03	0	44	0	872415232	22	5888
2026-01-17 01:06:04.62	240.23	36.51	-31.2	-35.4	11.2	1.58e-03	0	43	0	874512384	22	5856
2026-01-17 01:06:05.76	239.98	36.28	-31.1	-34.9	11.7	2.83e-03	0	43	0	876609536	22	5610
2026-01-17 01:06:06.63	239.79	36.11	-30.9	-34.5	11.9	4.35e-04	0	44	0	877658112	22	5432
2026-01-17 01:06:07.77	239.54	35.88	-30.6	-34.2	12.5	7.50e-04	0	43	0	879755264	21	5410
2026-01-17 01:06:08.63	239.36	35.71	-30.5	-33.9	12.6	1.16e-04	0	44	0	881852416	21	5313
2026-01-17 01:06:09.77	239.12	35.49	-30.5	-33.7	12.8	6.25e-05	0	44	0	883949568	21	5212
2026-01-17 01:06:10.62	238.95	35.32	-30.5	-33.9	12.7	2.41e-03	0	43	0	886046720	21	5299
2026-01-17 01:06:11.77	238.71	35.09	-30.3	-33.9	13.0	2.20e-03	0	44	0	888143872	20	5388
2026-01-17 01:06:12.63	238.54	34.93	-30.6	-34.0	12.6	7.40e-05	0	43	0	889192448	21	5346
2026-01-17 01:06:13.77	238.31	34.70	-30.7	-34.5	12.3	1.35e-03	0	43	0	891289600	21	5565
2026-01-17 01:06:14.63	238.14	34.54	-30.9	-35.0	11.9	1.17e-03	0	44	0	893386752	21	5754
2026-01-17 01:06:15.78	237.91	34.32	-30.9	-35.0	11.8	4.42e-04	0	44	0	895483904	21	5789
2026-01-17 01:06:16.64	237.75	34.15	-31.0	-34.8	11.7	1.08e-03	0	44	0	896532480	22	5562
2026-01-17 01:06:17.79	237.53	33.93	-30.8	-34.8	12.0	1.02e-03	0	43	0	898629632	21	5681
2026-01-17 01:06:18.65	237.37	33.77	-30.8	-34.7	12.1	3.62e-04	0	44	0	900726784	21	5625
2026-01-17 01:06:19.79	237.16	33.55	-30.8	-34.7	12.1	1.03e-03	0	44	0	902823936	21	5658
2026-01-17 01:06:20.65	237.00	33.39	-30.9	-35.0	11.8	9.99e-04	0	43	0	904921088	21	5761
2026-01-17 01:06:21.80	236.79	33.17	-30.7	-34.4	12.2	2.74e-04	0	44	0	907018240	21	5528
2026-01-17 01:06:22.65	236.64	33.01	-30.6	-34.2	12.4	9.05e-04	0	44	0	908066816	21	5447
2026-01-17 01:06:23.80	236.43	32.80	-30.7	-34.4	12.3	1.49e-03	0	44	0	910163968	21	5515
2026-01-17 01:06:24.66	236.28	32.64	-30.7	-34.4	12.2	2.19e-04	0	44	0	912261120	21	5522
2026-01-17 01:06:25.80	236.08	32.43	-30.6	-34.0	12.5	1.50e-04	0	44	0	914358272	21	5336
2026-01-17 01:06:26.66	235.94	32.27	-30.6	-34.1	12.5	1.43e-03	0	44	0	915406848	21	5373
2026-01-17 01:06:27.80	235.74	32.06	-30.7	-34.6	12.1	1.89e-04	0	44	0	917504000	21	5581
2026-01-17 01:06:28.65	235.60	31.91	-30.7	-34.4	12.3	5.24e-04	0	44	0	919601152	21	5517
2026-01-17 01:06:29.80	235.41	31.70	-30.6	-34.2	12.4	4.11e-04	0	43	0	921698304	21	5451
2026-01-17 01:06:30.66	235.27	31.54	-30.7	-34.4	12.2	2.31e-04	0	44	0	922746880	21	5508
2026-01-17 01:06:31.81	235.08	31.34	-30.9	-35.0	11.9	4.46e-04	0	43	0	924844032	21	5759
2026-01-17 01:06:32.67	234.95	31.18	-30.9	-35.1	11.8	6.91e-04	0	44	0	926941184	21	5819
2026-01-17 01:06:33.81	234.77	30.98	-31.0	-35.2	11.7	5.28e-04	0	44	0	929038336	21	5880
2026-01-17 01:06:34.67	234.63	30.83	-31.0	-35.2	11.6	1.38e-03	0	44	0	931135488	21	5903
2026-01-17 01:06:35.82	234.45	30.63	-30.9	-35.1	11.7	6.44e-04	0	43	0	933232640	21	5848
2026-01-17 01:06:36.68	234.32	30.48	-30.8	-34.9	11.9	4.96e-04	0	44	0	934281216	21	5730
2026-01-17 01:06:37.83	234.15	30.27	-30.9	-35.2	11.7	1.23e-03	0	44	0	936378368	21	5886
2026-01-17 01:06:38.69	234.02	30.13	-31.0	-35.0	11.5	1.10e-03	0	44	0	938475520	22	5659
2026-01-17 01:06:39.83	233.85	29.93	-30.8	-34.4	11.9	4.56e-04	0	43	0	940572672	22	5412
2026-01-17 01:06:40.68	233.72	29.78	-30.7	-34.6	12.0	1.04e-03	0	44	0	941621248	21	5638
2026-01-17 01:06:41.83	233.56	29.58	-30.8	-34.7	12.0	1.48e-03	0	43	0	943718400	21	5658
2026-01-17 01:06:42.68	233.44	29.44	-30.5	-33.3	12.7	4.74e-04	0	43	0	945815552	22	4963
2026-01-17 01:06:43.83	233.27	29.24	-30.3	-33.2	13.0	2.97e-05	0	43	0	947912704	21	5069
2026-01-17 01:06:44.69	233.15	29.10	-30.2	-33.5	13.1	1.27e-03	0	44	0	950009856	20	5273
2026-01-17 01:06:45.84	232.99	28.91	-30.2	-33.6	13.1	2.67e-05	0	43	0	952107008	20	5310
2026-01-17 01:06:46.70	232.87	28.76	-30.4	-34.1	12.7	5.56e-05	0	44	0	953155584	20	5509
2026-01-17 01:06:47.85	232.72	28.57	-30.4	-33.7	12.6	1.87e-03	0	44	0	955252736	21	5259
2026-01-17 01:06:48.71	232.60	28.43	-30.5	-34.1	12.3	1.05e-04	0	44	0	957349888	21	5421
2026-01-17 01:06:49.86	232.45	28.24	-30.5	-33.9	12.4	4.07e-04	0	43	0	959447040	21	5359
2026-01-17 01:06:50.72	232.34	28.10	-30.3	-34.0	12.8	4.32e-04	0	43	0	960495616	20	5481
2026-01-17 01:06:51.86	232.19	27.91	-30.4	-34.2	12.6	1.01e-04	0	43	0	962592768	20	5586
2026-01-17 01:06:52.72	232.08	27.77	-30.4	-34.3	12.5	1.46e-03	0	44	0	964689920	20	5610
2026-01-17 01:06:53.87	231.93	27.59	-30.4	-33.7	12.5	1.16e-03	0	44	0	966787072	21	5262
2026-01-17 01:06:54.73	231.82	27.45	-30.4	-33.7	12.6	7.70e-05	0	43	0	967835648	21	5243
2026-01-17 01:06:55.88	231.68	27.26	-30.4	-34.2	12.6	1.11e-04	0	43	0	970981376	20	5559
2026-01-17 01:06:56.74	231.57	27.13	-30.5	-34.4	12.5	1.16e-03	0	43	0	972029952	20	5646
2026-01-17 01:06:57.89	231.43	26.94	-30.6	-34.2	12.2	1.65e-04	0	44	0	974127104	21	5473
2026-01-17 01:06:58.74	231.33	26.81	-30.7	-34.4	12.0	1.47e-03	0	44	0	976224256	21	5572
2026-01-17 01:06:59.89	231.19	26.63	-30.4	-34.1	12.6	9.73e-04	0	44	0	978321408	20	5520
2026-01-17 01:07:00.75	231.09	26.50	-30.4	-34.1	12.6	5.11e-05	0	43	0	979369984	20	5527
2026-01-17 01:07:01.90	230.95	26.32	-30.3	-34.0	12.7	1.21e-03	0	43	0	981467136	20	5507
2026-01-17 01:07:02.75	230.85	26.19	-30.3	-34.0	12.7	1.26e-03	0	44	0	983564288	20	5484
2026-01-17 01:07:03.89	230.72	26.01	-30.3	-33.9	12.8	4.42e-05	0	44	0	985661440	20	5444
2026-01-17 01:07:04.75	230.62	25.88	-30.3	-33.9	12.8	1.49e-03	0	44	0	986710016	20	5459
2026-01-17 01:07:05.90	230.49	25.70	-30.4	-34.1	12.6	9.30e-05	0	43	0	988807168	20	5559
2026-01-17 01:07:06.76	230.39	25.57	-30.3	-33.9	12.7	2.97e-04	0	44	0	990904320	20	5471
2026-01-17 01:07:07.89	230.27	25.40	-30.3	-34.1	12.6	1.63e-03	0	44	0	993001472	20	5530
2026-01-17 01:07:08.76	230.17	25.27	-30.4	-34.1	12.6	1.55e-03	0	44	0	995098624	20	5557
2026-01-17 01:07:09.89	230.05	25.10	-30.2	-33.7	12.8	6.79e-05	0	44	0	997195776	20	5402
2026-01-17 01:07:10.75	229.96	24.97	-30.1	-33.3	13.1	1.29e-03	0	43	0	998244352	20	5236
2026-01-17 01:07:11.90	229.84	24.80	-30.1	-33.3	13.1	1.30e-03	0	43	0	1000341504	20	5243
2026-01-17 01:07:12.75	229.75	24.68	-30.1	-33.6	12.9	1.21e-04	0	44	0	1002438656	20	5330
2026-01-17 01:07:13.90	229.63	24.51	-30.0	-33.2	13.1	4.57e-05	0	44	0	1004535808	20	5186
2026-01-17 01:07:14.76	229.54	24.39	-29.9	-32.8	13.4	8.45e-04	0	44	0	1005584384	20	5031
2026-01-17 01:07:15.90	229.42	24.22	-29.7	-32.4	13.6	9.90e-06	0	43	0	1007681536	20	4906
2026-01-17 01:07:16.76	229.33	24.10	-29.7	-32.8	13.8	2.81e-03	0	44	0	1009778688	19	5139
2026-01-17 01:07:17.91	229.22	23.93	-29.8	-33.0	13.7	3.80e-06	0	44	0	1011875840	19	5208
2026-01-17 01:07:18.76	229.13	23.81	-29.7	-32.9	13.7	7.60e-06	0	43	0	1012924416	19	5171
2026-01-17 01:07:19.91	229.02	23.64	-29.7	-32.9	13.7	6.80e-06	0	44	0	1016070144	19	5180
2026-01-17 01:07:20.78	228.93	23.52	-29.8	-33.0	13.7	7.60e-06	0	44	0	1017118720	19	5191
2026-01-17 01:07:21.93	228.82	23.36	-29.7	-32.8	13.8	3.80e-06	0	43	0	1019215872	19	5154
2026-01-17 01:07:22.79	228.74	23.24	-29.7	-32.7	13.8	2.08e-04	0	44	0	1021313024	19	5108
2026-01-17 01:07:23.93	228.63	23.08	-29.7	-32.9	13.8	8.30e-06	0	43	0	1023410176	19	5164
2026-01-17 01:07:24.79	228.55	22.96	-29.8	-33.0	13.7	5.30e-06	0	44	0	1024458752	19	5212
2026-01-17 01:07:25.94	228.44	22.80	-29.8	-33.1	13.6	1.14e-05	0	44	0	1026555904	19	5239
2026-01-17 01:07:26.79	228.36	22.68	-29.9	-33.2	13.5	6.10e-06	0	43	0	1028653056	19	5297
2026-01-17 01:07:27.94	228.25	22.53	-29.8	-32.6	13.5	9.10e-06	0	44	0	1030750208	20	4979
2026-01-17 01:07:28.79	228.18	22.41	-29.9	-33.2	13.5	1.60e-05	0	44	0	1031798784	19	5303
2026-01-17 01:07:29.94	228.07	22.25	-29.7	-32.7	13.8	1.44e-05	0	44	0	1033895936	19	5119
2026-01-17 01:07:30.80	228.00	22.14	-29.8	-32.9	13.7	8.30e-06	0	44	0	1035993088	19	5194
2026-01-17 01:07:31.94	227.90	21.98	-29.8	-33.1	13.5	9.90e-06	0	44	0	1038090240	19	5267
2026-01-17 01:07:32.80	227.82	21.87	-29.8	-33.2	13.5	1.06e-05	0	43	0	1040187392	19	5300
2026-01-17 01:07:33.95	227.72	21.72	-29.4	-32.9	13.4	1.37e-05	0	44	0	1042284544	19	5383
2026-01-17 01:07:34.80	227.65	21.60	-29.8	-33.2	13.5	1.29e-05	0	44	0	1043333120	19	5287
2026-01-17 01:07:35.95	227.55	21.45	-29.9	-33.2	13.4	9.10e-06	0	44	0	1045430272	19	5303
2026-01-17 01:07:36.81	227.48	21.34	-29.9	-33.4	13.4	6.80e-06	0	44	0	1047527424	19	5363
2026-01-17 01:07:37.95	227.38	21.19	-30.0	-33.5	12.3	1.44e-05	0	43	0	1049624576	19	5435
2026-01-17 01:07:38.80	227.31	21.08	-29.9	-33.3	13.4	1.29e-05	0	44	0	1050673152	19	5329
2026-01-17 01:07:39.94	227.21	20.93	-30.0	-33.6	11.8	1.75e-05	0	43	0	1052770304	19	5443
2026-01-17 01:07:40.80	227.14	20.82	-29.9	-33.0	13.2	1.23e-04	0	43	0	1054867456	20	5121
2026-01-17 01:07:41.94	227.05	20.67	-29.9	-33.4	13.3	1.37e-05	0	44	0	1056964608	19	5378
2026-01-17 01:07:42.80	226.98	20.56	-30.1	-33.5	12.9	2.51e-05	0	44	0	1058013184	20	5307
2026-01-17 01:07:43.94	226.89	20.42	-30.4	-34.3	12.3	1.40e-04	0	43	0	1061158912	20	5662
2026-01-17 01:07:44.79	226.82	20.31	-30.5	-34.2	12.0	2.99e-04	0	44	0	1062207488	21	5501
2026-01-17 01:07:45.94	226.73	20.17	-30.7	-34.8	11.6	5.16e-04	0	43	0	1064304640	21	5758
2026-01-17 01:07:46.80	226.67	20.06	-30.6	-34.6	11.7	8.04e-04	0	43	0	1066401792	21	5669
2026-01-17 01:07:47.94	226.58	19.92	-30.5	-34.1	12.1	3.88e-04	0	44	0	1068498944	21	5446
2026-01-17 01:07:48.80	226.51	19.81	-30.3	-33.7	12.3	2.33e-04	0	43	0	1069547520	21	5286
2026-01-17 01:07:49.95	226.42	19.67	-30.4	-34.4	12.2	1.73e-04	0	43	0	1071644672	20	5702
2026-01-17 01:07:50.81	226.36	19.56	-30.3	-34.0	12.5	4.84e-04	0	43	0	1073741824	20	5515
2026-01-17 01:07:51.95	226.28	19.42	-29.9	-33.4	13.2	3.81e-05	0	44	0	1075838976	19	5401
2026-01-17 01:07:52.81	226.21	19.32	-29.8	-33.2	13.4	2.67e-05	0	44	0	1076887552	19	5308
2026-01-17 01:07:53.95	226.13	19.18	-29.7	-32.7	13.7	8.30e-06	0	43	0	1078984704	19	5122
2026-01-17 01:07:54.81	226.07	19.07	-29.6	-32.6	13.8	6.10e-06	0	43	0	1081081856	19	5066
2026-01-17 01:07:55.96	225.98	18.94	-29.7	-32.7	13.7	5.30e-06	0	44	0	1083179008	19	5112
2026-01-17 01:07:56.82	225.92	18.83	-29.6	-32.6	13.8	5.30e-06	0	43	0	1084227584	19	5076
2026-01-17 01:07:57.97	225.84	18.70	-29.6	-32.6	13.8	2.42e-03	0	43	0	1087373312	19	5061
2026-01-17 01:07:58.83	225.78	18.59	-29.6	-32.5	13.9	2.20e-06	0	44	0	1088421888	19	5025
2026-01-17 01:07:59.97	225.70	18.46	-29.6	-32.5	13.8	7.60e-06	0	43	0	1090519040	19	5049
2026-01-17 01:08:00.83	225.64	18.36	-29.5	-32.4	13.9	7.60e-06	0	44	0	1092616192	19	4989
2026-01-17 01:08:01.98	225.56	18.22	-29.6	-32.7	13.7	2.40e-03	0	44	0	1094713344	19	5111
2026-01-17 01:08:02.84	225.50	18.12	-29.7	-32.7	13.7	1.29e-05	0	44	0	1095761920	19	5128
2026-01-17 01:08:03.99	225.42	17.99	-29.6	-32.5	13.8	5.30e-06	0	44	0	1097859072	19	5056
2026-01-17 01:08:04.85	225.37	17.89	-29.6	-32.7	13.7	6.10e-06	0	43	0	1099956224	19	5105
2026-01-17 01:08:06.00	225.29	17.76	-29.8	-33.1	13.4	1.37e-05	0	43	0	1102053376	19	5264
2026-01-17 01:08:06.85	225.23	17.66	-29.8	-33.0	13.5	1.83e-05	0	43	0	1103101952	19	5223
2026-01-17 01:08:08.00	225.16	17.53	-29.7	-32.8	13.6	2.54e-03	0	44	0	1106247680	19	5154
2026-01-17 01:08:08.86	225.10	17.43	-29.7	-32.9	13.5	5.52e-04	0	44	0	1107296256	19	5196
2026-01-17 01:08:10.01	225.03	17.30	-29.8	-33.1	13.4	1.37e-05	0	44	0	1109393408	19	5282
2026-01-17 01:08:10.87	224.97	17.20	-29.9	-33.3	13.2	1.98e-05	0	43	0	1111490560	19	5353
2026-01-17 01:08:12.01	224.90	17.07	-29.9	-33.3	13.2	4.90e-04	0	44	0	1113587712	19	5372
2026-01-17 01:08:12.88	224.84	16.98	-29.9	-33.5	13.1	1.98e-05	0	43	0	1114636288	19	5427
2026-01-17 01:08:14.02	224.77	16.85	-30.0	-33.2	12.9	3.05e-05	0	44	0	1116733440	20	5213
2026-01-17 01:08:14.88	224.72	16.75	-29.9	-33.1	12.9	3.73e-05	0	44	0	1118830592	20	5197
2026-01-17 01:08:16.02	224.65	16.63	-29.9	-33.6	13.1	2.43e-03	0	44	0	1120927744	19	5462
2026-01-17 01:08:16.89	224.60	16.53	-30.0	-33.3	12.8	6.40e-05	0	44	0	1121976320	20	5265
2026-01-17 01:08:18.03	224.53	16.41	-30.0	-33.3	12.8	4.17e-04	0	44	0	1124073472	20	5246
2026-01-17 01:08:18.88	224.48	16.32	-30.1	-33.5	12.6	6.94e-05	0	44	0	1126170624	20	5340
2026-01-17 01:08:20.02	224.41	16.19	-30.2	-33.8	12.4	2.17e-03	0	43	0	1128267776	20	5466
2026-01-17 01:08:20.88	224.36	16.10	-30.1	-33.7	12.5	1.12e-04	0	43	0	1129316352	20	5417
2026-01-17 01:08:22.04	224.29	15.97	-30.1	-33.5	12.6	2.27e-03	0	43	0	1132462080	20	5334
2026-01-17 01:08:22.90	224.24	15.88	-30.1	-33.6	12.6	2.15e-03	0	44	0	1133510656	20	5368
2026-01-17 01:08:24.04	224.17	15.76	-30.0	-33.4	12.7	7.70e-05	0	44	0	1135607808	20	5304
2026-01-17 01:08:24.90	224.12	15.67	-30.1	-33.6	12.6	8.46e-05	0	44	0	1137704960	20	5374
2026-01-17 01:08:26.05	224.06	15.55	-30.0	-33.3	12.7	2.43e-03	0	44	0	1139802112	20	5282
2026-01-17 01:08:26.92	224.01	15.45	-30.0	-33.4	12.7	3.16e-04	0	44	0	1140850688	20	5301
2026-01-17 01:08:28.06	223.94	15.34	-30.0	-33.4	12.6	2.40e-03	0	43	0	1142947840	20	5326
2026-01-17 01:08:28.92	223.89	15.25	-30.1	-33.5	12.5	1.07e-04	0	44	0	1145044992	20	5367
2026-01-17 01:08:30.07	223.83	15.13	-30.0	-33.5	12.6	3.40e-04	0	44	0	1147142144	20	5348
2026-01-17 01:08:30.93	223.78	15.04	-30.2	-33.9	12.2	1.36e-04	0	44	0	1148190720	20	5537
2026-01-17 01:08:32.08	223.72	14.92	-30.2	-33.8	12.3	2.94e-03	0	44	0	1151336448	20	5476
2026-01-17 01:08:32.94	223.67	14.83	-30.1	-33.7	12.4	3.74e-04	0	44	0	1152385024	20	5430
2026-01-17 01:08:34.09	223.61	14.71	-30.2	-33.9	12.3	2.56e-03	0	44	0	1154482176	20	5525
2026-01-17 01:08:34.94	223.57	14.62	-30.2	-33.9	12.2	2.13e-04	0	44	0	1156579328	20	5531
2026-01-17 01:08:36.08	223.51	14.51	-30.2	-34.0	12.2	3.62e-04	0	43	0	1158676480	20	5580
2026-01-17 01:08:36.93	223.46	14.42	-30.4	-34.5	11.8	3.16e-03	0	44	0	1159725056	20	5768
2026-01-17 01:08:38.07	223.40	14.31	-30.3	-34.2	12.0	2.71e-03	0	44	0	1161822208	20	5654
2026-01-17 01:08:38.93	223.36	14.22	-30.3	-34.2	12.0	3.01e-04	0	43	0	1163919360	20	5642
2026-01-17 01:08:40.07	223.30	14.11	-30.3	-34.2	12.0	3.25e-03	0	44	0	1166016512	20	5669
2026-01-17 01:08:40.93	223.25	14.02	-30.2	-34.0	12.1	2.95e-03	0	44	0	1167065088	20	5581
2026-01-17 01:08:42.08	223.20	13.91	-30.3	-34.2	12.0	5.40e-04	0	44	0	1169162240	20	5665
2026-01-17 01:08:42.94	223.15	13.82	-30.1	-33.7	12.3	3.06e-03	0	44	0	1171259392	20	5456
2026-01-17 01:08:44.09	223.09	13.71	-30.3	-34.4	11.8	3.12e-03	0	44	0	1173356544	20	5746
2026-01-17 01:08:44.95	223.05	13.62	-30.1	-33.8	12.2	5.87e-04	0	44	0	1175453696	20	5496
2026-01-17 01:08:46.09	223.00	13.51	-30.0	-33.5	12.4	2.57e-03	0	44	0	1177550848	20	5376
2026-01-17 01:08:46.95	222.95	13.43	-30.0	-33.3	12.6	2.69e-03	0	43	0	1178599424	20	5280
2026-01-17 01:08:48.09	222.90	13.32	-29.9	-33.2	12.7	3.50e-04	0	43	0	1180696576	20	5238
2026-01-17 01:08:48.95	222.86	13.23	-29.9	-33.7	12.7	8.31e-05	0	44	0	1182793728	19	5545
2026-01-17 01:08:50.09	222.80	13.12	-29.9	-33.2	12.6	2.60e-03	0	44	0	1184890880	20	5261
2026-01-17 01:08:50.95	222.76	13.04	-30.0	-33.7	12.7	2.80e-04	0	44	0	1185939456	19	5549
2026-01-17 01:08:52.09	222.71	12.93	-29.9	-33.3	12.6	5.29e-04	0	44	0	1188036608	20	5271
2026-01-17 01:08:52.95	222.66	12.85	-30.0	-33.8	12.7	2.68e-03	0	43	0	1190133760	19	5575
2026-01-17 01:08:54.09	222.61	12.74	-30.0	-33.3	12.6	2.72e-04	0	43	0	1192230912	20	5267
2026-01-17 01:08:54.95	222.57	12.66	-29.9	-33.6	12.8	2.73e-03	0	44	0	1193279488	19	5527
2026-01-17 01:08:56.09	222.52	12.55	-30.0	-33.8	12.6	4.53e-04	0	44	0	1196425216	19	5591
2026-01-17 01:08:56.94	222.48	12.47	-30.0	-33.9	12.6	2.55e-04	0	44	0	1197473792	19	5615
2026-01-17 01:08:58.09	222.43	12.36	-30.0	-33.4	12.5	2.56e-03	0	44	0	1199570944	20	5323
2026-01-17 01:08:58.94	222.39	12.28	-30.0	-33.5	12.4	2.67e-03	0	44	0	1201668096	20	5373
2026-01-17 01:09:00.09	222.34	12.18	-30.0	-33.5	12.4	3.47e-04	0	43	0	1203765248	20	5368
2026-01-17 01:09:00.95	222.30	12.10	-30.1	-33.7	12.2	2.86e-03	0	43	0	1204813824	20	5460
2026-01-17 01:09:02.10	222.25	11.99	-30.1	-33.9	12.1	2.91e-03	0	44	0	1206910976	20	5529
2026-01-17 01:09:02.96	222.21	11.91	-30.3	-33.9	11.7	3.99e-04	0	44	0	1209008128	21	5447
2026-01-17 01:09:04.12	222.16	11.81	-30.2	-34.0	12.0	3.33e-03	0	43	0	1211105280	20	5611
2026-01-17 01:09:04.97	222.12	11.73	-30.3	-34.3	11.8	2.91e-03	0	44	0	1212153856	20	5718
2026-01-17 01:09:06.12	222.07	11.62	-30.3	-34.6	11.6	7.16e-04	0	44	0	1214251008	20	5846
2026-01-17 01:09:06.97	222.04	11.55	-30.3	-34.5	11.6	3.07e-03	0	44	0	1216348160	20	5808
2026-01-17 01:09:08.11	221.99	11.44	-30.4	-34.1	11.5	4.07e-03	0	44	0	1218445312	21	5540
2026-01-17 01:09:08.97	221.95	11.37	-30.5	-34.4	11.3	9.38e-04	0	44	0	1219493888	21	5679
2026-01-17 01:09:10.11	221.90	11.26	-30.4	-34.6	11.5	9.49e-04	0	44	0	1222639616	20	5864
2026-01-17 01:09:10.97	221.87	11.19	-30.5	-34.4	11.3	4.10e-03	0	44	0	1223688192	21	5662
2026-01-17 01:09:12.11	221.82	11.09	-30.6	-34.8	11.0	1.18e-03	0	44	0	1225785344	21	5853
2026-01-17 01:09:12.97	221.78	11.01	-30.5	-34.6	11.2	5.17e-03	0	44	0	1227882496	21	5747
2026-01-17 01:09:14.11	221.74	10.91	-30.4	-34.4	11.3	2.07e-03	0	44	0	1229979648	21	5651
2026-01-17 01:09:14.97	221.70	10.83	-30.4	-34.2	11.4	1.11e-03	0	44	0	1231028224	21	5578
2026-01-17 01:09:16.12	221.66	10.73	-30.4	-34.9	11.3	1.13e-03	0	44	0	1233125376	20	6025
2026-01-17 01:09:16.98	221.62	10.66	-30.4	-34.9	11.2	9.99e-04	0	44	0	1235222528	20	6007
2026-01-17 01:09:18.13	221.58	10.56	-30.4	-34.4	11.2	1.51e-03	0	44	0	1237319680	21	5672
2026-01-17 01:09:18.98	221.54	10.48	-30.5	-34.6	11.1	3.99e-03	0	43	0	1238368256	21	5762
2026-01-17 01:09:20.13	221.50	10.38	-30.4	-34.8	11.3	1.24e-03	0	44	0	1240465408	20	5979
2026-01-17 01:09:20.99	221.46	10.31	-30.4	-34.9	11.2	1.43e-03	0	44	0	1242562560	20	6021
2026-01-17 01:09:22.14	221.42	10.21	-30.5	-35.0	11.1	3.83e-03	0	44	0	1244659712	20	6085
2026-01-17 01:09:23.00	221.38	10.14	-30.5	-35.1	11.1	3.69e-03	0	43	0	1246756864	20	6102
2026-01-17 01:09:24.15	221.34	10.04	-30.5	-34.5	11.1	1.32e-03	0	43	0	1248854016	21	5739
2026-01-17 01:09:25.01	221.31	9.96	-30.6	-35.0	10.7	4.05e-03	0	43	0	1249902592	21	5996
2026-01-17 01:09:26.15	221.26	9.87	-30.4	-34.2	11.4	1.14e-03	0	44	0	1251999744	21	5608
2026-01-17 01:09:27.01	221.23	9.79	-30.4	-34.3	11.3	1.27e-03	0	44	0	1254096896	21	5633
2026-01-17 01:09:28.16	221.19	9.70	-30.3	-34.6	11.4	1.14e-03	0	43	0	1256194048	20	5888
2026-01-17 01:09:29.02	221.16	9.62	-30.3	-34.6	11.3	3.46e-03	0	44	0	1257242624	20	5901
2026-01-17 01:09:30.16	221.11	9.53	-30.4	-34.3	11.2	1.46e-03	0	43	0	1259339776	21	5644
2026-01-17 01:09:31.02	221.08	9.46	-30.4	-34.7	11.3	1.46e-03	0	43	0	1261436928	20	5957
2026-01-17 01:09:32.16	221.04	9.36	-30.4	-34.3	11.2	4.33e-03	0	43	0	1263534080	21	5641
2026-01-17 01:09:33.02	221.01	9.29	-30.4	-34.2	11.2	1.04e-03	0	43	0	1265631232	21	5624
2026-01-17 01:09:34.16	220.97	9.20	-30.4	-34.8	11.2	1.17e-03	0	44	0	1267728384	20	6010
2026-01-17 01:09:35.02	220.94	9.13	-30.2	-34.3	11.5	1.22e-03	0	44	0	1268776960	20	5767
2026-01-17 01:09:36.16	220.90	9.03	-30.3	-34.4	11.4	8.79e-04	0	44	0	1270874112	20	5830
2026-01-17 01:09:37.02	220.87	8.96	-30.3	-34.6	11.3	3.15e-03	0	44	0	1272971264	20	5927
2026-01-17 01:09:38.16	220.83	8.87	-30.3	-34.7	11.2	1.30e-03	0	44	0	1275068416	20	5962
2026-01-17 01:09:39.02	220.79	8.80	-30.3	-34.6	11.3	1.60e-03	0	43	0	1276116992	20	5913
2026-01-17 01:09:40.16	220.76	8.70	-30.3	-34.6	11.2	1.50e-03	0	44	0	1278214144	20	5917
2026-01-17 01:09:41.02	220.73	8.64	-30.3	-34.6	11.2	1.36e-03	0	44	0	1280311296	20	5925
2026-01-17 01:09:42.17	220.69	8.54	-30.4	-35.1	10.9	1.73e-03	0	43	0	1282408448	20	6141
2026-01-17 01:09:43.04	220.66	8.47	-30.5	-34.8	10.7	4.74e-03	0	44	0	1283457024	21	5885
