passes_logs/2026/01/17/R2M6_AANII_01/R2M6_AANII_01__20260117_064142_FENGYUN_3E_rec.log

#Pass ID: 20260117_064142_FENGYUN 3E
#Satellite: FENGYUN 3E
#Configuration: FENGYUN 3E
#almurnet v.1.7.20240730
#Start time: 2026-01-17 06:41:43

#Version: 2.2.20231116
#Station: R2M6_AANII_01
#Location: 30.233357 lon 59.946436 lat
#TLE: 1 49008U 21062A   26016.27412410  .00000434  00000+0  22502-3 0  9992
#TLE: 2 49008  98.7486  21.3880 0002096 134.9721 225.1626 14.19886506235025

#Time	Az	El	Level	Level2	SNR	BER	BlckErr	Temp	State	Recorded	gain1	gain2
2026-01-17 06:41:43.53	9.74	7.05	-31.3	-36.1	4.2	8.34e-01	0	41	0	0	23	6253
2026-01-17 06:41:44.53	9.65	7.11	-30.8	-34.7	4.6	8.14e-01	0	41	104	0	22	5586
2026-01-17 06:41:45.54	9.55	7.17	-30.8	-34.3	6.2	3.02e-01	0	41	0	0	22	5414
2026-01-17 06:41:46.54	9.45	7.23	-30.8	-34.5	6.1	3.04e-01	0	41	0	7340032	22	5493
2026-01-17 06:41:47.54	9.35	7.29	-30.8	-34.4	6.2	2.74e-01	0	41	0	14680064	22	5454
2026-01-17 06:41:48.55	9.25	7.36	-30.8	-34.4	6.2	2.83e-01	0	41	0	22020096	22	5417
2026-01-17 06:41:49.55	9.15	7.42	-30.8	-34.4	6.2	2.90e-01	0	41	0	28311552	22	5450
2026-01-17 06:41:50.56	9.05	7.48	-30.6	-33.6	6.7	2.28e-01	0	41	0	35651584	22	5073
2026-01-17 06:41:51.56	8.95	7.54	-30.1	-32.6	7.7	1.08e-01	0	41	0	42991616	21	4793
2026-01-17 06:41:52.56	8.85	7.60	-29.8	-32.0	8.4	5.14e-02	0	41	0	50331648	20	4680
2026-01-17 06:41:53.56	8.75	7.67	-29.2	-30.8	9.7	1.43e-02	0	41	0	57671680	19	4360
2026-01-17 06:41:54.56	8.65	7.73	-28.7	-30.1	10.5	7.91e-03	0	41	0	65011712	18	4217
2026-01-17 06:41:55.56	8.55	7.79	-28.2	-29.3	11.3	1.52e-03	0	41	0	72351744	17	4096
2026-01-17 06:41:56.56	8.45	7.85	-28.0	-28.8	11.6	7.59e-04	0	41	0	79691776	17	3970
2026-01-17 06:41:57.56	8.34	7.92	-27.4	-28.0	12.4	2.38e-04	0	41	0	85983232	16	3844
2026-01-17 06:41:58.56	8.24	7.98	-27.0	-27.6	12.8	7.20e-05	0	41	0	93323264	15	3858
2026-01-17 06:41:59.56	8.14	8.04	-26.9	-27.7	13.0	4.69e-05	0	42	0	100663296	14	3982
2026-01-17 06:42:00.56	8.03	8.11	-26.6	-27.2	13.3	2.17e-05	0	42	0	108003328	14	3847
2026-01-17 06:42:01.56	7.93	8.17	-26.7	-27.2	13.3	4.57e-05	0	42	0	115343360	14	3852
2026-01-17 06:42:02.55	7.82	8.23	-26.8	-27.6	13.1	3.20e-05	0	42	0	122683392	14	3953
2026-01-17 06:42:03.56	7.72	8.29	-26.7	-27.3	13.3	2.17e-05	0	41	0	130023424	14	3864
2026-01-17 06:42:04.56	7.61	8.36	-26.9	-27.7	13.1	1.02e-05	0	42	0	137363456	14	3973
2026-01-17 06:42:05.56	7.51	8.42	-26.7	-27.4	13.3	1.83e-05	0	42	0	144703488	14	3885
2026-01-17 06:42:06.56	7.40	8.48	-26.7	-27.4	13.3	1.83e-05	0	42	0	150994944	14	3879
2026-01-17 06:42:07.57	7.29	8.55	-26.4	-26.8	13.6	1.37e-05	0	42	0	158334976	14	3736
2026-01-17 06:42:08.57	7.18	8.61	-26.6	-27.1	13.5	1.14e-05	0	42	0	165675008	14	3807
2026-01-17 06:42:09.57	7.07	8.67	-26.6	-27.1	13.4	1.71e-05	0	42	0	173015040	14	3817
2026-01-17 06:42:10.57	6.97	8.74	-26.5	-26.9	13.6	9.10e-06	0	42	0	180355072	14	3767
2026-01-17 06:42:11.57	6.86	8.80	-26.5	-27.4	13.6	4.50e-06	0	42	0	187695104	13	3995
2026-01-17 06:42:12.58	6.75	8.87	-26.5	-27.3	13.6	5.70e-06	0	42	0	195035136	13	3976
2026-01-17 06:42:13.58	6.63	8.93	-26.5	-27.4	13.6	1.60e-05	0	42	0	202375168	13	3989
2026-01-17 06:42:14.58	6.52	8.99	-26.5	-27.5	13.5	6.80e-06	0	42	0	209715200	13	4004
2026-01-17 06:42:15.59	6.41	9.06	-26.7	-27.9	13.3	1.71e-05	0	42	0	217055232	13	4114
2026-01-17 06:42:16.59	6.30	9.12	-26.6	-27.5	13.5	1.48e-05	0	42	0	224395264	13	4022
2026-01-17 06:42:17.58	6.19	9.18	-26.4	-27.1	13.7	5.70e-06	0	42	0	230686720	13	3918
2026-01-17 06:42:18.59	6.07	9.25	-26.3	-26.9	13.9	4.50e-06	0	42	0	238026752	13	3868
2026-01-17 06:42:19.59	5.96	9.31	-26.3	-26.9	13.9	4.50e-06	0	42	0	245366784	13	3857
2026-01-17 06:42:20.59	5.85	9.38	-26.5	-27.3	13.7	9.10e-06	0	42	0	252706816	13	3953
2026-01-17 06:42:21.59	5.73	9.44	-26.4	-27.2	13.8	1.02e-05	0	42	0	260046848	13	3927
2026-01-17 06:42:22.59	5.62	9.50	-26.6	-27.5	13.6	1.71e-05	0	42	0	267386880	13	4018
2026-01-17 06:42:23.60	5.50	9.57	-26.5	-27.3	13.7	4.50e-06	0	42	0	274726912	13	3957
2026-01-17 06:42:24.60	5.39	9.63	-26.4	-27.1	13.8	4.50e-06	0	42	0	282066944	13	3905
2026-01-17 06:42:25.59	5.27	9.70	-26.6	-27.5	13.6	1.14e-05	0	42	0	289406976	13	4025
2026-01-17 06:42:26.59	5.15	9.76	-26.5	-27.4	13.7	1.14e-05	0	42	0	295698432	13	3978
2026-01-17 06:42:27.59	5.04	9.83	-26.4	-27.1	13.8	1.48e-05	0	42	0	303038464	13	3913
2026-01-17 06:42:28.60	4.92	9.89	-26.4	-27.1	13.8	3.40e-06	0	42	0	310378496	13	3899
2026-01-17 06:42:29.59	4.80	9.95	-26.1	-26.4	14.2	4.50e-06	0	42	0	317718528	13	3745
2026-01-17 06:42:30.59	4.68	10.02	-26.3	-26.9	14.0	4.50e-06	0	42	0	325058560	13	3856
2026-01-17 06:42:31.59	4.56	10.08	-26.2	-26.6	14.2	5.70e-06	0	42	0	332398592	13	3782
2026-01-17 06:42:32.59	4.44	10.15	-26.2	-26.7	14.1	0.00e+00	0	42	0	339738624	13	3801
2026-01-17 06:42:33.59	4.32	10.21	-26.3	-26.8	14.0	2.20e-06	0	42	0	347078656	13	3823
2026-01-17 06:42:34.59	4.20	10.28	-26.1	-26.6	14.2	2.20e-06	0	42	0	354418688	13	3779
2026-01-17 06:42:35.59	4.07	10.34	-26.2	-26.7	14.1	1.10e-06	0	42	0	360710144	13	3808
2026-01-17 06:42:36.59	3.95	10.41	-26.2	-26.6	14.2	0.00e+00	0	42	0	368050176	13	3782
2026-01-17 06:42:37.59	3.83	10.47	-26.4	-27.1	13.9	5.70e-06	0	42	0	375390208	13	3899
2026-01-17 06:42:38.59	3.71	10.54	-26.4	-27.1	13.9	2.20e-06	0	42	0	382730240	13	3893
2026-01-17 06:42:39.59	3.58	10.60	-26.1	-26.5	14.2	3.40e-06	0	42	0	390070272	13	3750
2026-01-17 06:42:40.60	3.46	10.67	-26.1	-26.5	14.3	2.20e-06	0	42	0	397410304	13	3753
2026-01-17 06:42:41.60	3.33	10.73	-26.3	-26.9	14.0	1.10e-06	0	42	0	404750336	13	3861
2026-01-17 06:42:42.60	3.20	10.80	-26.3	-27.0	14.0	2.20e-06	0	42	0	412090368	13	3876
2026-01-17 06:42:43.60	3.08	10.86	-26.2	-26.8	14.1	3.40e-06	0	42	0	418381824	13	3828
2026-01-17 06:42:44.61	2.95	10.93	-26.1	-26.5	14.3	1.10e-06	0	42	0	425721856	13	3751
2026-01-17 06:42:45.61	2.82	10.99	-26.2	-26.6	14.2	1.10e-06	0	42	0	433061888	13	3786
2026-01-17 06:42:46.61	2.69	11.06	-26.1	-26.4	14.3	0.00e+00	0	42	0	440401920	13	3730
2026-01-17 06:42:47.61	2.56	11.12	-26.0	-26.2	14.4	0.00e+00	0	42	0	447741952	13	3682
2026-01-17 06:42:48.61	2.44	11.19	-26.1	-26.4	14.3	1.10e-06	0	42	0	455081984	13	3731
2026-01-17 06:42:49.62	2.30	11.25	-26.1	-26.4	14.3	1.10e-06	0	43	0	462422016	13	3737
2026-01-17 06:42:50.63	2.17	11.32	-25.9	-26.6	14.5	0.00e+00	0	43	0	469762048	12	3877
2026-01-17 06:42:51.63	2.04	11.39	-25.9	-26.5	14.6	0.00e+00	0	42	0	477102080	12	3850
2026-01-17 06:42:52.63	1.91	11.45	-26.0	-26.8	14.4	1.10e-06	0	43	0	483393536	12	3924
2026-01-17 06:42:53.63	1.78	11.52	-25.9	-26.4	14.6	0.00e+00	0	43	0	491782144	12	3839
2026-01-17 06:42:54.63	1.64	11.58	-26.0	-26.7	14.4	1.10e-06	0	43	0	498073600	12	3916
2026-01-17 06:42:55.63	1.51	11.65	-26.0	-26.7	14.5	1.10e-06	0	42	0	505413632	12	3909
2026-01-17 06:42:56.64	1.37	11.71	-26.3	-27.4	14.1	3.40e-06	0	43	0	512753664	12	4085
2026-01-17 06:42:57.64	1.24	11.78	-26.4	-27.5	14.0	5.70e-06	0	43	0	520093696	12	4116
2026-01-17 06:42:58.64	1.10	11.84	-26.5	-27.8	13.8	3.40e-06	0	43	0	527433728	12	4197
2026-01-17 06:42:59.63	0.97	11.91	-26.4	-27.6	13.9	4.50e-06	0	43	0	534773760	12	4146
2026-01-17 06:43:00.63	0.83	11.97	-26.6	-27.6	13.7	4.50e-06	0	43	0	542113792	13	4025
2026-01-17 06:43:01.63	0.70	12.04	-26.6	-27.6	13.7	3.40e-06	0	43	0	548405248	13	4021
2026-01-17 06:43:02.62	0.56	12.10	-26.3	-26.9	14.1	6.80e-06	0	43	0	555745280	13	3849
2026-01-17 06:43:03.63	0.42	12.17	-26.2	-26.8	14.2	3.40e-06	0	43	0	563085312	13	3818
2026-01-17 06:43:04.62	0.28	12.23	-26.4	-27.1	14.0	2.20e-06	0	43	0	570425344	13	3895
2026-01-17 06:43:05.63	0.14	12.30	-26.3	-26.9	14.1	1.10e-06	0	43	0	577765376	13	3840
2026-01-17 06:43:06.63	360.00	12.37	-26.4	-27.0	14.0	3.40e-06	0	43	0	585105408	13	3872
2026-01-17 06:43:07.63	359.86	12.43	-26.3	-26.9	14.1	0.00e+00	0	43	0	592445440	13	3845
2026-01-17 06:43:08.64	359.71	12.50	-25.8	-26.3	14.7	1.10e-06	0	43	0	599785472	12	3799
2026-01-17 06:43:09.63	359.57	12.56	-25.8	-26.2	14.8	0.00e+00	0	43	0	607125504	12	3781
2026-01-17 06:43:10.63	359.43	12.63	-25.7	-26.1	14.9	0.00e+00	0	43	0	613416960	12	3762
2026-01-17 06:43:11.63	359.29	12.69	-25.9	-26.4	14.7	1.10e-06	0	43	0	620756992	12	3823
2026-01-17 06:43:12.63	359.14	12.76	-25.9	-26.4	14.7	0.00e+00	0	43	0	628097024	12	3831
2026-01-17 06:43:13.63	359.00	12.83	-26.0	-26.7	14.6	0.00e+00	0	43	0	635437056	12	3898
2026-01-17 06:43:14.63	358.85	12.89	-26.0	-26.6	14.6	1.10e-06	0	43	0	642777088	12	3883
2026-01-17 06:43:15.64	358.70	12.96	-25.7	-26.1	14.9	0.00e+00	0	43	0	650117120	12	3756
2026-01-17 06:43:16.64	358.56	13.02	-25.9	-26.4	14.7	0.00e+00	0	43	0	657457152	12	3833
2026-01-17 06:43:17.64	358.41	13.09	-25.8	-26.2	14.8	0.00e+00	0	43	0	664797184	12	3785
2026-01-17 06:43:18.65	358.26	13.15	-25.8	-26.3	14.8	0.00e+00	0	43	0	672137216	12	3800
2026-01-17 06:43:19.65	358.11	13.22	-25.9	-26.4	14.7	0.00e+00	0	43	0	679477248	12	3819
2026-01-17 06:43:20.65	357.96	13.28	-25.9	-26.5	14.7	0.00e+00	0	43	0	686817280	12	3839
2026-01-17 06:43:21.66	357.81	13.35	-26.2	-27.1	14.3	2.20e-06	0	43	0	693108736	12	3999
2026-01-17 06:43:22.66	357.66	13.42	-26.1	-26.8	14.5	0.00e+00	0	43	0	700448768	12	3932
2026-01-17 06:43:23.65	357.51	13.48	-26.1	-27.0	14.4	0.00e+00	0	43	0	707788800	12	3973
2026-01-17 06:43:24.66	357.35	13.55	-26.0	-26.7	14.6	1.10e-06	0	43	0	715128832	12	3898
2026-01-17 06:43:25.66	357.20	13.61	-25.9	-26.5	14.7	0.00e+00	0	43	0	722468864	12	3859
2026-01-17 06:43:26.66	357.05	13.68	-25.7	-26.1	14.9	0.00e+00	0	43	0	729808896	12	3761
2026-01-17 06:43:27.67	356.89	13.74	-25.8	-26.3	14.8	1.10e-06	0	43	0	737148928	12	3807
2026-01-17 06:43:28.67	356.73	13.81	-25.8	-26.2	14.9	0.00e+00	0	43	0	744488960	12	3784
2026-01-17 06:43:29.68	356.58	13.87	-25.8	-26.2	14.9	0.00e+00	0	43	0	751828992	12	3783
2026-01-17 06:43:30.68	356.42	13.94	-25.7	-26.0	15.0	0.00e+00	0	43	0	758120448	12	3722
2026-01-17 06:43:31.69	356.26	14.01	-25.9	-26.4	14.7	0.00e+00	0	43	0	766509056	12	3831
2026-01-17 06:43:32.68	356.10	14.07	-25.9	-26.4	14.8	2.20e-06	0	43	0	773849088	12	3821
2026-01-17 06:43:33.69	355.94	14.14	-25.7	-25.9	15.0	0.00e+00	0	43	0	780140544	12	3713
2026-01-17 06:43:34.69	355.78	14.20	-25.4	-25.9	15.4	0.00e+00	0	43	0	787480576	11	3806
2026-01-17 06:43:35.69	355.62	14.27	-25.5	-26.0	15.3	0.00e+00	0	43	0	794820608	11	3835
2026-01-17 06:43:36.69	355.46	14.33	-25.5	-26.1	15.3	0.00e+00	0	43	0	802160640	11	3850
2026-01-17 06:43:37.69	355.30	14.39	-25.5	-26.1	15.3	0.00e+00	0	43	0	809500672	11	3856
2026-01-17 06:43:38.69	355.14	14.46	-25.4	-26.0	15.4	0.00e+00	0	43	0	816840704	11	3815
2026-01-17 06:43:39.69	354.98	14.52	-25.5	-26.1	15.4	0.00e+00	0	43	0	824180736	11	3845
2026-01-17 06:43:40.69	354.81	14.59	-25.6	-26.3	15.2	0.00e+00	0	43	0	831520768	11	3900
2026-01-17 06:43:41.70	354.65	14.65	-25.4	-26.0	15.4	0.00e+00	0	43	0	837812224	11	3816
2026-01-17 06:43:42.70	354.48	14.72	-25.5	-26.0	15.4	0.00e+00	0	43	0	845152256	11	3822
2026-01-17 06:43:43.71	354.31	14.78	-25.6	-26.3	15.2	0.00e+00	0	43	0	852492288	11	3902
2026-01-17 06:43:44.71	354.15	14.85	-25.6	-26.2	15.3	0.00e+00	0	43	0	859832320	11	3871
2026-01-17 06:43:45.71	353.98	14.91	-25.4	-25.8	15.5	0.00e+00	0	43	0	867172352	11	3786
2026-01-17 06:43:46.70	353.81	14.98	-25.3	-25.7	15.5	0.00e+00	0	43	0	874512384	11	3752
2026-01-17 06:43:47.71	353.64	15.04	-25.2	-25.5	15.7	0.00e+00	0	43	0	881852416	11	3699
2026-01-17 06:43:48.71	353.47	15.10	-25.2	-25.5	15.7	0.00e+00	0	43	0	889192448	11	3708
2026-01-17 06:43:49.72	353.30	15.17	-25.2	-25.4	15.7	0.00e+00	0	43	0	896532480	11	3697
2026-01-17 06:43:50.72	353.13	15.23	-25.3	-25.6	15.6	0.00e+00	0	43	0	902823936	11	3734
2026-01-17 06:43:51.73	352.95	15.30	-25.5	-26.1	15.3	0.00e+00	0	43	0	910163968	11	3851
2026-01-17 06:43:52.72	352.78	15.36	-25.4	-25.9	15.4	0.00e+00	0	43	0	917504000	11	3812
2026-01-17 06:43:53.72	352.61	15.42	-25.2	-25.4	15.8	0.00e+00	0	43	0	924844032	11	3677
2026-01-17 06:43:54.72	352.44	15.49	-25.1	-25.2	15.8	0.00e+00	0	43	0	932184064	11	3646
2026-01-17 06:43:55.72	352.26	15.55	-25.1	-25.3	15.8	0.00e+00	0	43	0	939524096	11	3652
2026-01-17 06:43:56.72	352.08	15.61	-25.1	-25.3	15.8	0.00e+00	0	43	0	946864128	11	3659
2026-01-17 06:43:57.72	351.91	15.68	-25.3	-25.7	15.6	0.00e+00	0	43	0	954204160	11	3754
2026-01-17 06:43:58.72	351.73	15.74	-25.3	-25.6	15.6	0.00e+00	0	43	0	961544192	11	3740
2026-01-17 06:43:59.73	351.55	15.80	-25.2	-25.5	15.7	0.00e+00	0	43	0	967835648	11	3699
2026-01-17 06:44:00.73	351.37	15.87	-25.2	-25.4	15.8	0.00e+00	0	43	0	975175680	11	3683
2026-01-17 06:44:01.73	351.19	15.93	-25.3	-25.6	15.7	0.00e+00	0	43	0	982515712	11	3733
2026-01-17 06:44:02.73	351.01	15.99	-25.3	-25.6	15.7	0.00e+00	0	43	0	989855744	11	3723
2026-01-17 06:44:03.73	350.83	16.05	-25.2	-25.5	15.7	0.00e+00	0	43	0	997195776	11	3700
2026-01-17 06:44:04.72	350.65	16.12	-25.5	-26.1	15.4	0.00e+00	0	43	0	1004535808	11	3860
2026-01-17 06:44:05.73	350.47	16.18	-25.3	-25.5	15.7	0.00e+00	0	43	0	1011875840	11	3716
2026-01-17 06:44:06.74	350.28	16.24	-25.0	-25.0	16.0	0.00e+00	0	43	0	1019215872	11	3602
2026-01-17 06:44:07.74	350.10	16.30	-25.0	-25.0	16.0	0.00e+00	0	43	0	1026555904	11	3597
2026-01-17 06:44:08.74	349.91	16.36	-25.1	-25.2	15.9	0.00e+00	0	43	0	1033895936	11	3631
2026-01-17 06:44:09.74	349.73	16.43	-24.9	-25.2	16.2	0.00e+00	0	43	0	1041235968	10	3731
2026-01-17 06:44:10.74	349.54	16.49	-24.8	-25.1	16.2	0.00e+00	0	43	0	1047527424	10	3708
2026-01-17 06:44:11.74	349.35	16.55	-24.9	-25.2	16.2	0.00e+00	0	43	0	1054867456	10	3745
2026-01-17 06:44:12.74	349.16	16.61	-24.8	-25.0	16.3	0.00e+00	0	43	0	1062207488	10	3681
2026-01-17 06:44:13.74	348.97	16.67	-24.4	-24.3	16.7	0.00e+00	0	43	0	1069547520	10	3529
2026-01-17 06:44:14.75	348.78	16.73	-24.4	-24.7	16.7	0.00e+00	0	43	0	1076887552	9	3718
2026-01-17 06:44:15.74	348.59	16.79	-24.5	-24.9	16.6	0.00e+00	0	43	0	1084227584	9	3759
2026-01-17 06:44:16.75	348.40	16.85	-24.5	-25.0	16.5	0.00e+00	0	43	0	1091567616	9	3785
2026-01-17 06:44:17.75	348.21	16.91	-24.5	-24.9	16.6	0.00e+00	0	43	0	1098907648	9	3762
2026-01-17 06:44:18.75	348.02	16.97	-24.5	-24.9	16.6	0.00e+00	0	43	0	1106247680	9	3768
2026-01-17 06:44:19.76	347.82	17.03	-24.7	-25.4	16.4	0.00e+00	0	43	0	1112539136	9	3883
2026-01-17 06:44:20.76	347.63	17.09	-24.7	-25.3	16.4	0.00e+00	0	43	0	1119879168	9	3861
2026-01-17 06:44:21.77	347.43	17.15	-24.7	-25.3	16.4	0.00e+00	0	43	0	1127219200	9	3869
2026-01-17 06:44:22.77	347.23	17.21	-24.7	-25.3	16.4	0.00e+00	0	43	0	1134559232	9	3874
2026-01-17 06:44:23.77	347.04	17.27	-24.6	-25.2	16.4	0.00e+00	0	43	0	1141899264	9	3835
2026-01-17 06:44:24.77	346.84	17.33	-24.9	-25.7	16.2	0.00e+00	0	43	0	1149239296	9	3957
2026-01-17 06:44:25.77	346.64	17.39	-24.8	-25.5	16.3	0.00e+00	0	43	0	1156579328	9	3911
2026-01-17 06:44:26.76	346.44	17.45	-24.6	-25.1	16.5	0.00e+00	0	43	0	1163919360	9	3811
2026-01-17 06:44:27.75	346.25	17.50	-24.6	-25.1	16.5	0.00e+00	0	43	0	1170210816	9	3825
2026-01-17 06:44:28.75	346.05	17.56	-25.4	-26.2	15.7	0.00e+00	0	43	0	1177550848	10	3976
2026-01-17 06:44:29.76	345.84	17.62	-24.6	-24.7	16.5	0.00e+00	0	43	0	1184890880	10	3625
2026-01-17 06:44:30.76	345.64	17.68	-24.5	-24.5	16.6	0.00e+00	0	43	0	1192230912	10	3579
2026-01-17 06:44:31.77	345.43	17.74	-24.9	-25.3	16.2	0.00e+00	0	43	0	1199570944	10	3761
2026-01-17 06:44:32.77	345.23	17.79	-25.0	-25.5	16.1	0.00e+00	0	43	0	1206910976	10	3802
2026-01-17 06:44:33.77	345.03	17.85	-24.7	-24.7	16.5	0.00e+00	0	43	0	1214251008	10	3633
2026-01-17 06:44:34.78	344.82	17.91	-24.8	-25.0	16.3	0.00e+00	0	43	0	1221591040	10	3687
2026-01-17 06:44:35.79	344.61	17.96	-24.6	-24.6	16.5	0.00e+00	0	43	0	1228931072	10	3595
2026-01-17 06:44:36.79	344.40	18.02	-24.4	-24.3	16.7	0.00e+00	0	43	0	1236271104	10	3530
2026-01-17 06:44:37.79	344.20	18.07	-24.3	-24.4	16.9	0.00e+00	0	43	0	1243611136	9	3652
2026-01-17 06:44:38.78	343.99	18.13	-24.4	-24.7	16.7	0.00e+00	0	43	0	1249902592	9	3717
2026-01-17 06:44:39.78	343.78	18.19	-24.4	-24.8	16.7	0.00e+00	0	43	0	1257242624	9	3736
2026-01-17 06:44:40.78	343.57	18.24	-24.5	-24.8	16.7	0.00e+00	0	43	0	1264582656	9	3755
2026-01-17 06:44:41.78	343.36	18.29	-24.6	-25.1	16.5	0.00e+00	0	43	0	1271922688	9	3808
2026-01-17 06:44:42.78	343.15	18.35	-24.7	-25.3	16.4	0.00e+00	0	43	0	1279262720	9	3871
2026-01-17 06:44:43.78	342.94	18.40	-24.5	-25.0	16.6	0.00e+00	0	43	0	1286602752	9	3792
2026-01-17 06:44:44.78	342.72	18.46	-24.7	-25.3	16.4	0.00e+00	0	43	0	1293942784	9	3865
2026-01-17 06:44:45.79	342.51	18.51	-24.6	-25.1	16.5	0.00e+00	0	43	0	1301282816	9	3829
2026-01-17 06:44:46.79	342.29	18.56	-24.7	-25.2	16.5	0.00e+00	0	43	0	1308622848	9	3850
2026-01-17 06:44:47.79	342.08	18.62	-24.7	-25.4	16.4	0.00e+00	0	43	0	1315962880	9	3884
2026-01-17 06:44:48.80	341.86	18.67	-24.6	-25.1	16.5	0.00e+00	0	43	0	1322254336	9	3824
2026-01-17 06:44:49.80	341.64	18.72	-24.6	-25.1	16.5	0.00e+00	0	43	0	1329594368	9	3816
2026-01-17 06:44:50.79	341.43	18.77	-24.6	-25.0	16.6	0.00e+00	0	43	0	1336934400	9	3791
2026-01-17 06:44:51.80	341.20	18.83	-24.4	-24.6	16.8	0.00e+00	0	43	0	1344274432	9	3698
2026-01-17 06:44:52.80	340.99	18.88	-24.5	-24.8	16.7	0.00e+00	0	43	0	1351614464	9	3744
2026-01-17 06:44:53.81	340.76	18.93	-24.4	-24.7	16.7	0.00e+00	0	43	0	1358954496	9	3733
2026-01-17 06:44:54.81	340.54	18.98	-24.3	-24.5	16.9	0.00e+00	0	43	0	1366294528	9	3670
2026-01-17 06:44:55.81	340.32	19.03	-24.7	-25.3	16.4	0.00e+00	0	43	0	1373634560	9	3855
2026-01-17 06:44:56.81	340.10	19.08	-24.4	-24.8	16.7	0.00e+00	0	43	0	1379926016	9	3734
2026-01-17 06:44:57.82	339.87	19.13	-24.3	-24.4	16.9	0.00e+00	0	43	0	1387266048	9	3663
2026-01-17 06:44:58.82	339.65	19.18	-24.2	-24.3	17.0	0.00e+00	0	43	0	1394606080	9	3640
2026-01-17 06:44:59.82	339.43	19.23	-24.2	-24.3	17.0	0.00e+00	0	43	0	1401946112	9	3621
2026-01-17 06:45:00.82	339.20	19.28	-24.4	-24.6	16.8	0.00e+00	0	43	0	1409286144	9	3705
2026-01-17 06:45:01.82	338.97	19.32	-24.2	-24.3	17.0	0.00e+00	0	43	0	1416626176	9	3634
2026-01-17 06:45:02.82	338.75	19.37	-24.2	-24.2	17.0	0.00e+00	0	43	0	1423966208	9	3620
2026-01-17 06:45:03.82	338.52	19.42	-24.2	-24.4	17.0	0.00e+00	0	43	0	1431306240	9	3646
2026-01-17 06:45:04.82	338.29	19.47	-24.2	-24.2	17.0	0.00e+00	0	43	0	1438646272	9	3620
2026-01-17 06:45:05.82	338.06	19.51	-24.3	-24.4	16.9	0.00e+00	0	43	0	1444937728	9	3653
2026-01-17 06:45:06.82	337.83	19.56	-24.5	-24.9	16.7	0.00e+00	0	43	0	1452277760	9	3777
2026-01-17 06:45:07.83	337.60	19.61	-24.6	-25.0	16.6	0.00e+00	0	43	0	1459617792	9	3797
2026-01-17 06:45:08.83	337.37	19.65	-24.4	-24.7	16.7	0.00e+00	0	43	0	1466957824	9	3731
2026-01-17 06:45:09.83	337.14	19.70	-24.7	-25.2	16.5	0.00e+00	0	43	0	1474297856	9	3848
2026-01-17 06:45:10.83	336.91	19.74	-24.3	-24.4	16.9	0.00e+00	0	43	0	1481637888	9	3660
2026-01-17 06:45:11.84	336.67	19.79	-24.0	-23.8	17.2	0.00e+00	0	43	0	1488977920	9	3533
2026-01-17 06:45:12.84	336.44	19.83	-24.0	-23.9	17.2	0.00e+00	0	43	0	1496317952	9	3548
2026-01-17 06:45:13.85	336.20	19.87	-24.0	-23.8	17.2	0.00e+00	0	43	0	1503657984	9	3525
2026-01-17 06:45:14.85	335.97	19.92	-24.3	-24.5	16.9	0.00e+00	0	43	0	1510998016	9	3666
2026-01-17 06:45:15.85	335.73	19.96	-24.0	-23.7	17.3	0.00e+00	0	43	0	1518338048	9	3506
2026-01-17 06:45:16.85	335.50	20.00	-23.7	-23.8	17.5	0.00e+00	0	43	0	1525678080	8	3615
2026-01-17 06:45:17.84	335.26	20.04	-23.8	-23.9	17.4	0.00e+00	0	43	0	1531969536	8	3647
2026-01-17 06:45:18.84	335.02	20.08	-23.7	-23.8	17.5	0.00e+00	0	43	0	1539309568	8	3613
2026-01-17 06:45:19.85	334.78	20.12	-23.7	-23.7	17.5	0.00e+00	0	44	0	1546649600	8	3597
2026-01-17 06:45:20.85	334.54	20.16	-23.8	-23.8	17.5	0.00e+00	0	43	0	1553989632	8	3629
2026-01-17 06:45:21.86	334.30	20.20	-23.7	-23.7	17.6	0.00e+00	0	43	0	1561329664	8	3599
2026-01-17 06:45:22.86	334.06	20.24	-23.9	-24.2	17.3	0.00e+00	0	43	0	1568669696	8	3714
2026-01-17 06:45:23.86	333.82	20.28	-23.7	-23.8	17.5	0.00e+00	0	43	0	1576009728	8	3611
2026-01-17 06:45:24.86	333.58	20.32	-23.6	-23.6	17.6	0.00e+00	0	43	0	1583349760	8	3566
2026-01-17 06:45:25.87	333.33	20.36	-23.6	-23.6	17.6	0.00e+00	0	43	0	1589641216	8	3569
2026-01-17 06:45:26.88	333.09	20.40	-23.6	-23.4	17.7	0.00e+00	0	43	0	1596981248	8	3537
2026-01-17 06:45:27.89	332.84	20.43	-23.7	-23.6	17.6	0.00e+00	0	43	0	1605369856	8	3580
2026-01-17 06:45:28.88	332.60	20.47	-23.6	-23.5	17.6	0.00e+00	0	43	0	1611661312	8	3556
2026-01-17 06:45:29.89	332.36	20.51	-23.8	-23.9	17.5	0.00e+00	0	43	0	1619001344	8	3644
2026-01-17 06:45:30.89	332.11	20.54	-23.6	-23.5	17.7	0.00e+00	0	43	0	1626341376	8	3552
2026-01-17 06:45:31.89	331.87	20.58	-23.5	-23.4	17.7	0.00e+00	0	44	0	1633681408	8	3523
2026-01-17 06:45:32.89	331.62	20.61	-23.5	-23.3	17.8	0.00e+00	0	43	0	1641021440	8	3512
2026-01-17 06:45:33.90	331.37	20.65	-23.6	-23.4	17.7	0.00e+00	0	43	0	1648361472	8	3544
2026-01-17 06:45:34.90	331.12	20.68	-23.4	-23.1	17.9	0.00e+00	0	43	0	1655701504	8	3469
2026-01-17 06:45:35.90	330.88	20.71	-23.4	-23.1	17.9	0.00e+00	0	43	0	1663041536	8	3463
2026-01-17 06:45:36.90	330.63	20.74	-23.5	-23.7	17.8	0.00e+00	0	43	0	1670381568	7	3699
2026-01-17 06:45:37.91	330.38	20.78	-23.3	-23.4	18.0	0.00e+00	0	43	0	1676673024	7	3621
2026-01-17 06:45:38.91	330.13	20.81	-23.3	-23.3	18.0	0.00e+00	0	44	0	1684013056	7	3608
2026-01-17 06:45:39.90	329.88	20.84	-23.3	-23.3	18.0	0.00e+00	0	43	0	1691353088	7	3614
2026-01-17 06:45:40.90	329.63	20.87	-23.4	-23.6	17.9	0.00e+00	0	43	0	1698693120	7	3680
2026-01-17 06:45:41.90	329.38	20.90	-23.3	-23.3	18.0	0.00e+00	0	44	0	1706033152	7	3608
2026-01-17 06:45:42.90	329.13	20.93	-23.4	-23.5	17.9	0.00e+00	0	43	0	1713373184	7	3661
2026-01-17 06:45:43.90	328.87	20.96	-23.3	-23.4	18.0	0.00e+00	0	43	0	1720713216	7	3629
2026-01-17 06:45:44.90	328.62	20.98	-23.3	-23.5	17.9	0.00e+00	0	43	0	1728053248	7	3645
2026-01-17 06:45:45.90	328.37	21.01	-23.3	-23.4	18.0	0.00e+00	0	43	0	1734344704	7	3629
2026-01-17 06:45:46.90	328.12	21.04	-23.4	-23.6	17.8	0.00e+00	0	44	0	1741684736	7	3679
2026-01-17 06:45:47.90	327.86	21.06	-23.4	-23.4	18.0	0.00e+00	0	43	0	1749024768	7	3636
2026-01-17 06:45:48.91	327.61	21.09	-23.4	-23.5	17.9	0.00e+00	0	44	0	1756364800	7	3643
2026-01-17 06:45:49.91	327.35	21.12	-23.4	-23.6	17.9	0.00e+00	0	43	0	1763704832	7	3673
2026-01-17 06:45:50.91	327.10	21.14	-23.5	-23.7	17.8	0.00e+00	0	44	0	1771044864	7	3706
2026-01-17 06:45:51.92	326.84	21.16	-23.3	-23.4	18.0	0.00e+00	0	43	0	1778384896	7	3640
2026-01-17 06:45:52.92	326.58	21.19	-23.5	-23.7	17.8	0.00e+00	0	43	0	1785724928	7	3702
2026-01-17 06:45:53.92	326.33	21.21	-23.4	-23.6	17.9	0.00e+00	0	43	0	1793064960	7	3675
2026-01-17 06:45:54.92	326.07	21.23	-23.5	-23.8	17.7	0.00e+00	0	43	0	1799356416	7	3730
2026-01-17 06:45:55.93	325.81	21.25	-23.6	-23.9	17.7	0.00e+00	0	43	0	1806696448	7	3756
2026-01-17 06:45:56.93	325.55	21.28	-23.7	-24.1	17.6	0.00e+00	0	43	0	1814036480	7	3800
2026-01-17 06:45:57.93	325.30	21.30	-23.6	-23.9	17.7	0.00e+00	0	43	0	1821376512	7	3740
2026-01-17 06:45:58.93	325.04	21.32	-23.5	-23.9	17.7	0.00e+00	0	43	0	1828716544	7	3734
2026-01-17 06:45:59.93	324.78	21.33	-23.5	-23.8	17.8	0.00e+00	0	44	0	1836056576	7	3710
2026-01-17 06:46:00.93	324.52	21.35	-23.5	-23.8	17.8	0.00e+00	0	43	0	1843396608	7	3721
2026-01-17 06:46:01.93	324.26	21.37	-23.6	-24.0	17.7	0.00e+00	0	43	0	1850736640	7	3757
2026-01-17 06:46:02.93	324.00	21.39	-23.5	-23.8	17.8	0.00e+00	0	43	0	1858076672	7	3717
2026-01-17 06:46:03.93	323.74	21.41	-23.4	-23.5	17.9	0.00e+00	0	43	0	1864368128	7	3643
2026-01-17 06:46:04.93	323.48	21.42	-23.5	-23.7	17.8	0.00e+00	0	43	0	1872756736	7	3698
2026-01-17 06:46:05.93	323.22	21.44	-23.7	-24.3	17.6	0.00e+00	0	43	0	1879048192	7	3824
2026-01-17 06:46:06.93	322.96	21.45	-23.5	-23.8	17.8	0.00e+00	0	43	0	1886388224	7	3710
2026-01-17 06:46:07.94	322.70	21.47	-23.5	-23.8	17.8	0.00e+00	0	43	0	1893728256	7	3711
2026-01-17 06:46:08.94	322.44	21.48	-23.5	-23.7	17.8	0.00e+00	0	43	0	1901068288	7	3692
2026-01-17 06:46:09.94	322.18	21.49	-23.6	-23.9	17.7	0.00e+00	0	43	0	1908408320	7	3750
2026-01-17 06:46:10.94	321.92	21.51	-23.6	-24.0	17.7	0.00e+00	0	43	0	1915748352	7	3757
2026-01-17 06:46:11.94	321.65	21.52	-23.6	-24.1	17.6	0.00e+00	0	43	0	1923088384	7	3786
2026-01-17 06:46:12.95	321.39	21.53	-23.6	-23.9	17.7	0.00e+00	0	43	0	1930428416	7	3752
2026-01-17 06:46:13.95	321.13	21.54	-23.8	-24.3	17.5	0.00e+00	0	43	0	1937768448	7	3842
2026-01-17 06:46:14.96	320.86	21.55	-23.6	-24.0	17.7	0.00e+00	0	43	0	1944059904	7	3759
2026-01-17 06:46:15.96	320.60	21.56	-23.5	-23.7	17.8	0.00e+00	0	43	0	1951399936	7	3698
2026-01-17 06:46:16.96	320.34	21.57	-23.4	-23.5	17.9	0.00e+00	0	43	0	1958739968	7	3655
2026-01-17 06:46:17.97	320.07	21.58	-23.5	-23.7	17.9	0.00e+00	0	43	0	1966080000	7	3697
2026-01-17 06:46:18.97	319.81	21.58	-23.4	-23.5	17.9	0.00e+00	0	43	0	1973420032	7	3659
2026-01-17 06:46:19.97	319.55	21.59	-23.3	-23.3	18.0	0.00e+00	0	43	0	1980760064	7	3612
2026-01-17 06:46:20.97	319.29	21.60	-23.5	-23.8	17.8	0.00e+00	0	43	0	1988100096	7	3727
2026-01-17 06:46:21.98	319.02	21.60	-23.4	-23.6	17.9	0.00e+00	0	43	0	1995440128	7	3674
2026-01-17 06:46:22.97	318.76	21.61	-23.4	-23.6	17.9	0.00e+00	0	43	0	2002780160	7	3671
2026-01-17 06:46:23.98	318.49	21.61	-23.4	-23.6	17.9	0.00e+00	0	43	0	2009071616	7	3688
2026-01-17 06:46:24.98	318.23	21.61	-23.4	-23.6	17.9	0.00e+00	0	44	0	2016411648	7	3676
2026-01-17 06:46:25.98	317.97	21.62	-23.4	-23.5	17.9	0.00e+00	0	44	0	2023751680	7	3647
2026-01-17 06:46:26.98	317.70	21.62	-23.5	-23.8	17.8	0.00e+00	0	44	0	2031091712	7	3732
2026-01-17 06:46:27.98	317.44	21.62	-23.3	-23.3	18.0	0.00e+00	0	43	0	2038431744	7	3614
2026-01-17 06:46:28.98	317.18	21.62	-23.5	-23.7	17.8	0.00e+00	0	44	0	2045771776	7	3691
2026-01-17 06:46:29.98	316.91	21.62	-23.4	-23.5	17.9	0.00e+00	0	44	0	2053111808	7	3661
2026-01-17 06:46:30.98	316.65	21.62	-23.3	-23.4	18.0	0.00e+00	0	44	0	2060451840	7	3635
2026-01-17 06:46:31.98	316.39	21.62	-23.5	-23.8	17.8	0.00e+00	0	44	0	2067791872	7	3713
2026-01-17 06:46:32.98	316.12	21.62	-23.5	-23.7	17.8	0.00e+00	0	44	0	2074083328	7	3689
2026-01-17 06:46:33.98	315.86	21.62	-23.5	-23.8	17.7	0.00e+00	0	43	0	2082471936	7	3730
2026-01-17 06:46:34.98	315.60	21.61	-23.4	-23.5	17.9	0.00e+00	0	43	0	2089811968	7	3647
2026-01-17 06:46:35.99	315.33	21.61	-23.3	-23.4	18.0	0.00e+00	0	44	0	2096103424	7	3632
2026-01-17 06:46:37.00	315.06	21.61	-23.3	-23.4	18.0	0.00e+00	0	44	0	2103443456	7	3630
2026-01-17 06:46:38.00	314.80	21.60	-23.5	-23.7	17.8	0.00e+00	0	43	0	2110783488	7	3706
2026-01-17 06:46:39.01	314.53	21.60	-23.4	-23.5	17.9	0.00e+00	0	43	0	2118123520	7	3660
2026-01-17 06:46:40.01	314.27	21.59	-23.8	-24.5	17.4	0.00e+00	0	44	0	2125463552	7	3879
2026-01-17 06:46:41.01	314.01	21.58	-23.6	-24.0	17.6	0.00e+00	0	44	0	2132803584	7	3771
2026-01-17 06:46:42.01	313.75	21.58	-23.5	-23.8	17.8	0.00e+00	0	43	0	2140143616	7	3711
2026-01-17 06:46:43.01	313.48	21.57	-23.4	-23.6	17.9	0.00e+00	0	44	0	2147483648	7	3666
2026-01-17 06:46:44.01	313.22	21.56	-23.4	-23.6	17.9	0.00e+00	0	44	0	2153775104	7	3687
2026-01-17 06:46:45.01	312.96	21.55	-23.5	-23.9	17.7	0.00e+00	0	43	0	2161115136	7	3739
2026-01-17 06:46:46.01	312.70	21.54	-23.3	-23.4	18.0	0.00e+00	0	44	0	2168455168	7	3627
2026-01-17 06:46:47.01	312.43	21.53	-23.3	-23.3	18.0	0.00e+00	0	44	0	2175795200	7	3607
2026-01-17 06:46:48.01	312.17	21.52	-23.4	-23.6	17.9	0.00e+00	0	44	0	2183135232	7	3670
2026-01-17 06:46:49.02	311.91	21.51	-23.4	-23.5	17.9	0.00e+00	0	44	0	2190475264	7	3660
2026-01-17 06:46:50.02	311.65	21.49	-23.6	-24.0	17.7	0.00e+00	0	44	0	2197815296	7	3769
2026-01-17 06:46:51.02	311.38	21.48	-23.6	-24.0	17.7	0.00e+00	0	44	0	2205155328	7	3764
2026-01-17 06:46:52.02	311.12	21.47	-23.7	-24.2	17.6	0.00e+00	0	44	0	2212495360	7	3813
2026-01-17 06:46:53.03	310.86	21.45	-24.0	-24.7	17.3	0.00e+00	0	44	0	2218786816	7	3930
2026-01-17 06:46:54.03	310.60	21.44	-23.6	-24.1	17.6	0.00e+00	0	43	0	2226126848	7	3777
2026-01-17 06:46:55.03	310.34	21.42	-23.4	-23.6	17.9	0.00e+00	0	44	0	2233466880	7	3677
2026-01-17 06:46:56.03	310.08	21.41	-23.3	-23.4	17.9	0.00e+00	0	44	0	2240806912	7	3643
2026-01-17 06:46:57.04	309.82	21.39	-23.5	-23.8	17.8	0.00e+00	0	44	0	2248146944	7	3715
2026-01-17 06:46:58.04	309.56	21.37	-23.4	-23.5	17.9	0.00e+00	0	44	0	2255486976	7	3653
2026-01-17 06:46:59.04	309.30	21.35	-23.6	-24.0	17.7	0.00e+00	0	43	0	2262827008	7	3760
2026-01-17 06:47:00.03	309.04	21.34	-23.8	-24.4	17.4	0.00e+00	0	44	0	2270167040	7	3863
2026-01-17 06:47:01.04	308.78	21.32	-23.7	-24.2	17.6	0.00e+00	0	44	0	2277507072	7	3800
2026-01-17 06:47:02.04	308.52	21.30	-23.6	-24.0	17.7	0.00e+00	0	43	0	2284847104	7	3760
2026-01-17 06:47:03.04	308.26	21.28	-23.8	-24.5	17.4	0.00e+00	0	43	0	2292187136	7	3887
2026-01-17 06:47:04.04	308.01	21.25	-23.7	-24.2	17.6	0.00e+00	0	44	0	2299527168	7	3808
2026-01-17 06:47:05.04	307.75	21.23	-23.9	-24.6	17.3	0.00e+00	0	43	0	2305818624	7	3907
2026-01-17 06:47:06.05	307.49	21.21	-23.7	-24.1	17.6	0.00e+00	0	44	0	2313158656	7	3785
2026-01-17 06:47:07.05	307.23	21.19	-23.5	-23.8	17.8	0.00e+00	0	44	0	2320498688	7	3716
2026-01-17 06:47:08.06	306.97	21.16	-23.8	-24.3	17.5	0.00e+00	0	44	0	2327838720	7	3840
2026-01-17 06:47:09.06	306.72	21.14	-23.5	-23.7	17.8	0.00e+00	0	43	0	2335178752	7	3696
2026-01-17 06:47:10.06	306.46	21.12	-23.5	-23.7	17.8	0.00e+00	0	44	0	2342518784	7	3707
2026-01-17 06:47:11.06	306.21	21.09	-23.7	-24.3	17.5	0.00e+00	0	43	0	2349858816	7	3831
2026-01-17 06:47:12.06	305.95	21.06	-23.6	-23.9	17.7	0.00e+00	0	44	0	2357198848	7	3737
2026-01-17 06:47:13.05	305.70	21.04	-24.0	-24.8	17.3	0.00e+00	0	44	0	2363490304	7	3943
2026-01-17 06:47:14.05	305.45	21.01	-23.6	-23.9	17.7	0.00e+00	0	44	0	2370830336	7	3738
2026-01-17 06:47:15.05	305.20	20.98	-23.6	-24.0	17.6	0.00e+00	0	43	0	2378170368	7	3775
2026-01-17 06:47:16.05	304.94	20.96	-23.5	-23.8	17.8	0.00e+00	0	43	0	2385510400	7	3709
2026-01-17 06:47:17.05	304.69	20.93	-23.6	-24.0	17.6	0.00e+00	0	44	0	2392850432	7	3772
2026-01-17 06:47:18.05	304.44	20.90	-23.5	-23.7	17.9	0.00e+00	0	44	0	2400190464	7	3692
2026-01-17 06:47:19.06	304.18	20.87	-23.5	-23.7	17.8	0.00e+00	0	44	0	2407530496	7	3696
2026-01-17 06:47:20.06	303.93	20.84	-23.5	-23.8	17.8	0.00e+00	0	44	0	2414870528	7	3721
2026-01-17 06:47:21.07	303.68	20.81	-23.6	-24.0	17.7	0.00e+00	0	43	0	2422210560	7	3768
2026-01-17 06:47:22.07	303.43	20.78	-23.5	-23.8	17.7	0.00e+00	0	44	0	2428502016	7	3723
2026-01-17 06:47:23.08	303.18	20.74	-23.6	-24.1	17.6	0.00e+00	0	44	0	2435842048	7	3788
2026-01-17 06:47:24.08	302.93	20.71	-23.5	-23.8	17.8	0.00e+00	0	44	0	2444230656	7	3712
2026-01-17 06:47:25.09	302.68	20.68	-23.4	-23.6	17.9	0.00e+00	0	44	0	2450522112	7	3663
2026-01-17 06:47:26.09	302.43	20.64	-23.3	-23.4	17.9	0.00e+00	0	43	0	2457862144	7	3624
2026-01-17 06:47:27.09	302.18	20.61	-23.3	-23.3	18.0	0.00e+00	0	43	0	2465202176	7	3613
2026-01-17 06:47:28.09	301.94	20.58	-23.5	-23.7	17.8	0.00e+00	0	44	0	2472542208	7	3693
2026-01-17 06:47:29.09	301.69	20.54	-23.3	-23.4	17.9	0.00e+00	0	43	0	2479882240	7	3634
2026-01-17 06:47:30.08	301.45	20.51	-23.5	-23.8	17.7	0.00e+00	0	44	0	2487222272	7	3710
2026-01-17 06:47:31.09	301.20	20.47	-23.5	-23.7	17.7	0.00e+00	0	44	0	2494562304	7	3707
2026-01-17 06:47:32.08	300.96	20.43	-23.7	-24.2	17.5	0.00e+00	0	44	0	2501902336	7	3804
2026-01-17 06:47:33.08	300.72	20.40	-23.7	-24.2	17.5	0.00e+00	0	44	0	2508193792	7	3820
2026-01-17 06:47:34.07	300.47	20.36	-23.8	-24.5	17.4	0.00e+00	0	44	0	2515533824	7	3878
2026-01-17 06:47:35.07	300.23	20.32	-23.9	-24.6	17.3	0.00e+00	0	44	0	2522873856	7	3910
2026-01-17 06:47:36.08	299.99	20.28	-23.7	-24.2	17.5	0.00e+00	0	44	0	2530213888	7	3810
2026-01-17 06:47:37.08	299.75	20.24	-23.8	-24.4	17.4	0.00e+00	0	44	0	2537553920	7	3847
2026-01-17 06:47:38.08	299.51	20.20	-23.9	-24.6	17.3	0.00e+00	0	44	0	2544893952	7	3903
2026-01-17 06:47:39.08	299.27	20.16	-24.0	-24.7	17.2	0.00e+00	0	43	0	2551185408	7	3936
2026-01-17 06:47:40.09	299.02	20.12	-23.5	-23.7	17.8	0.00e+00	0	44	0	2559574016	7	3691
2026-01-17 06:47:41.09	298.78	20.08	-23.4	-23.6	17.8	0.00e+00	0	43	0	2566914048	7	3673
2026-01-17 06:47:42.10	298.54	20.04	-23.5	-23.8	17.7	0.00e+00	0	43	0	2573205504	7	3727
2026-01-17 06:47:43.10	298.31	20.00	-23.6	-23.9	17.6	0.00e+00	0	44	0	2580545536	7	3749
2026-01-17 06:47:44.10	298.07	19.96	-23.4	-23.5	17.9	0.00e+00	0	44	0	2587885568	7	3662
2026-01-17 06:47:45.10	297.83	19.91	-23.5	-23.7	17.7	0.00e+00	0	43	0	2595225600	7	3694
2026-01-17 06:47:46.10	297.60	19.87	-23.4	-23.5	17.8	0.00e+00	0	43	0	2602565632	7	3665
2026-01-17 06:47:47.11	297.36	19.83	-23.4	-23.5	17.8	0.00e+00	0	44	0	2609905664	7	3651
2026-01-17 06:47:48.11	297.13	19.78	-23.5	-23.7	17.8	0.00e+00	0	44	0	2617245696	7	3693
2026-01-17 06:47:49.11	296.89	19.74	-23.4	-23.5	17.9	0.00e+00	0	44	0	2624585728	7	3648
2026-01-17 06:47:50.12	296.66	19.69	-23.3	-23.4	17.9	0.00e+00	0	44	0	2631925760	7	3640
2026-01-17 06:47:51.12	296.43	19.65	-23.5	-23.7	17.7	0.00e+00	0	44	0	2638217216	7	3706
2026-01-17 06:47:52.12	296.19	19.60	-23.3	-23.5	17.9	0.00e+00	0	44	0	2645557248	7	3649
2026-01-17 06:47:53.12	295.96	19.56	-23.4	-23.5	17.8	0.00e+00	0	44	0	2652897280	7	3662
2026-01-17 06:47:54.13	295.73	19.51	-23.5	-23.8	17.6	0.00e+00	0	43	0	2660237312	7	3728
2026-01-17 06:47:55.13	295.50	19.46	-23.5	-23.7	17.7	0.00e+00	0	43	0	2667577344	7	3692
2026-01-17 06:47:56.13	295.27	19.42	-23.6	-23.9	17.6	0.00e+00	0	44	0	2674917376	7	3743
2026-01-17 06:47:57.14	295.04	19.37	-23.5	-23.8	17.6	0.00e+00	0	43	0	2682257408	7	3726
2026-01-17 06:47:58.15	294.81	19.32	-23.5	-23.8	17.7	0.00e+00	0	43	0	2689597440	7	3725
2026-01-17 06:47:59.15	294.59	19.27	-23.7	-24.2	17.4	0.00e+00	0	43	0	2696937472	7	3805
2026-01-17 06:48:00.14	294.36	19.22	-23.4	-23.5	17.8	0.00e+00	0	43	0	2704277504	7	3658
2026-01-17 06:48:01.14	294.14	19.18	-23.5	-23.7	17.7	0.00e+00	0	44	0	2711617536	7	3709
2026-01-17 06:48:02.14	293.91	19.13	-23.6	-24.0	17.5	0.00e+00	0	43	0	2717908992	7	3761
2026-01-17 06:48:03.14	293.69	19.08	-23.6	-24.0	17.5	0.00e+00	0	44	0	2725249024	7	3760
2026-01-17 06:48:04.13	293.47	19.03	-23.6	-24.1	17.5	0.00e+00	0	44	0	2732589056	7	3792
2026-01-17 06:48:05.14	293.24	18.98	-23.8	-24.4	17.4	0.00e+00	0	44	0	2739929088	7	3857
2026-01-17 06:48:06.14	293.02	18.93	-23.5	-23.9	17.6	0.00e+00	0	43	0	2747269120	7	3739
2026-01-17 06:48:07.15	292.80	18.87	-23.7	-24.2	17.4	0.00e+00	0	44	0	2754609152	7	3823
2026-01-17 06:48:08.15	292.58	18.82	-23.5	-23.8	17.7	0.00e+00	0	43	0	2761949184	7	3713
2026-01-17 06:48:09.15	292.36	18.77	-23.6	-24.0	17.5	0.00e+00	0	44	0	2769289216	7	3771
2026-01-17 06:48:10.16	292.14	18.72	-23.6	-24.1	17.5	0.00e+00	0	43	0	2776629248	7	3793
2026-01-17 06:48:11.16	291.92	18.67	-23.6	-24.0	17.5	0.00e+00	0	44	0	2782920704	7	3772
2026-01-17 06:48:12.17	291.70	18.61	-23.8	-24.3	17.4	0.00e+00	0	44	0	2790260736	7	3839
2026-01-17 06:48:13.17	291.49	18.56	-23.8	-24.3	17.3	0.00e+00	0	43	0	2797600768	7	3843
2026-01-17 06:48:14.16	291.27	18.51	-23.8	-24.4	17.3	0.00e+00	0	44	0	2804940800	7	3852
2026-01-17 06:48:15.16	291.06	18.45	-23.8	-24.5	17.2	0.00e+00	0	44	0	2812280832	7	3885
2026-01-17 06:48:16.17	290.84	18.40	-23.9	-24.6	17.2	0.00e+00	0	44	0	2819620864	7	3921
2026-01-17 06:48:17.18	290.63	18.34	-24.0	-24.7	17.1	0.00e+00	0	44	0	2826960896	7	3942
2026-01-17 06:48:18.18	290.41	18.29	-23.6	-24.0	17.5	0.00e+00	0	44	0	2834300928	7	3768
2026-01-17 06:48:19.19	290.20	18.23	-23.7	-24.2	17.4	0.00e+00	0	43	0	2841640960	7	3806
2026-01-17 06:48:20.18	289.99	18.18	-23.8	-24.3	17.3	0.00e+00	0	43	0	2848980992	7	3846
2026-01-17 06:48:21.19	289.78	18.12	-23.7	-24.1	17.4	0.00e+00	0	44	0	2856321024	7	3793
2026-01-17 06:48:22.19	289.57	18.07	-23.9	-24.5	17.2	0.00e+00	0	43	0	2863661056	7	3889
2026-01-17 06:48:23.19	289.36	18.01	-23.8	-24.4	17.3	0.00e+00	0	43	0	2869952512	7	3859
2026-01-17 06:48:24.20	289.15	17.95	-23.8	-24.5	17.2	0.00e+00	0	43	0	2877292544	7	3887
2026-01-17 06:48:25.20	288.95	17.90	-24.1	-24.6	16.9	0.00e+00	0	44	0	2884632576	8	3793
2026-01-17 06:48:26.20	288.74	17.84	-24.1	-24.5	17.0	0.00e+00	0	43	0	2891972608	8	3794
2026-01-17 06:48:27.20	288.53	17.78	-24.1	-24.5	17.0	0.00e+00	0	44	0	2899312640	8	3790
2026-01-17 06:48:28.21	288.33	17.73	-24.3	-25.1	16.7	0.00e+00	0	44	0	2906652672	8	3921
2026-01-17 06:48:29.22	288.12	17.67	-24.4	-25.3	16.5	0.00e+00	0	44	0	2913992704	8	3968
2026-01-17 06:48:30.22	287.92	17.61	-24.3	-25.0	16.7	0.00e+00	0	44	0	2921332736	8	3896
2026-01-17 06:48:31.23	287.71	17.55	-24.4	-25.2	16.6	0.00e+00	0	44	0	2927624192	8	3932
2026-01-17 06:48:32.23	287.51	17.49	-24.5	-25.4	16.5	0.00e+00	0	44	0	2934964224	8	3985
2026-01-17 06:48:33.24	287.31	17.44	-24.2	-24.8	16.8	0.00e+00	0	44	0	2943352832	8	3851
2026-01-17 06:48:34.24	287.11	17.38	-24.4	-25.1	16.7	0.00e+00	0	44	0	2949644288	8	3928
2026-01-17 06:48:35.24	286.91	17.32	-24.3	-24.9	16.7	0.00e+00	0	44	0	2956984320	8	3885
2026-01-17 06:48:36.23	286.71	17.26	-24.4	-25.2	16.6	0.00e+00	0	44	0	2964324352	8	3936
2026-01-17 06:48:37.23	286.52	17.20	-24.2	-24.9	16.8	0.00e+00	0	43	0	2971664384	8	3870
2026-01-17 06:48:38.23	286.32	17.14	-24.3	-24.9	16.8	0.00e+00	0	43	0	2979004416	8	3869
2026-01-17 06:48:39.23	286.12	17.08	-24.2	-24.8	16.8	0.00e+00	0	44	0	2986344448	8	3851
2026-01-17 06:48:40.23	285.93	17.02	-24.3	-24.9	16.7	0.00e+00	0	44	0	2992635904	8	3876
2026-01-17 06:48:41.23	285.73	16.96	-24.2	-24.8	16.8	0.00e+00	0	43	0	2999975936	8	3842
2026-01-17 06:48:42.24	285.54	16.90	-24.1	-24.6	16.9	0.00e+00	0	44	0	3008364544	8	3805
2026-01-17 06:48:43.24	285.35	16.84	-24.0	-24.4	17.0	0.00e+00	0	43	0	3014656000	8	3761
2026-01-17 06:48:44.24	285.15	16.78	-24.2	-24.8	16.8	0.00e+00	0	43	0	3021996032	8	3855
2026-01-17 06:48:45.24	284.96	16.72	-24.2	-24.8	16.8	0.00e+00	0	44	0	3029336064	8	3846
2026-01-17 06:48:46.24	284.77	16.66	-24.4	-25.1	16.6	0.00e+00	0	44	0	3036676096	8	3928
2026-01-17 06:48:47.24	284.58	16.60	-24.4	-25.1	16.6	0.00e+00	0	44	0	3044016128	8	3928
2026-01-17 06:48:48.25	284.39	16.53	-24.4	-25.2	16.6	0.00e+00	0	44	0	3051356160	8	3950
2026-01-17 06:48:49.25	284.20	16.47	-24.5	-25.5	16.4	0.00e+00	0	43	0	3058696192	8	4018
2026-01-17 06:48:50.26	284.01	16.41	-24.5	-25.4	16.4	0.00e+00	0	43	0	3066036224	8	3998
2026-01-17 06:48:51.26	283.83	16.35	-24.5	-25.4	16.4	0.00e+00	0	43	0	3072327680	8	4005
2026-01-17 06:48:52.25	283.64	16.29	-24.4	-25.3	16.5	0.00e+00	0	44	0	3079667712	8	3973
2026-01-17 06:48:53.25	283.46	16.23	-24.4	-25.1	16.6	0.00e+00	0	43	0	3087007744	8	3932
2026-01-17 06:48:54.25	283.27	16.16	-24.4	-25.2	16.5	0.00e+00	0	44	0	3094347776	8	3945
2026-01-17 06:48:55.24	283.09	16.10	-24.5	-25.4	16.4	0.00e+00	0	44	0	3101687808	8	3993
2026-01-17 06:48:56.24	282.91	16.04	-24.4	-25.3	16.4	0.00e+00	0	44	0	3109027840	8	3979
2026-01-17 06:48:57.25	282.73	15.98	-24.5	-25.5	16.4	0.00e+00	0	43	0	3116367872	8	4014
2026-01-17 06:48:58.25	282.54	15.91	-24.6	-25.0	16.3	0.00e+00	0	44	0	3123707904	9	3806
2026-01-17 06:48:59.26	282.36	15.85	-24.5	-24.9	16.4	0.00e+00	0	44	0	3131047936	9	3787
2026-01-17 06:49:00.26	282.18	15.79	-24.5	-24.9	16.4	0.00e+00	0	44	0	3137339392	9	3770
2026-01-17 06:49:01.26	282.00	15.72	-24.5	-25.0	16.3	0.00e+00	0	44	0	3144679424	9	3797
2026-01-17 06:49:02.27	281.82	15.66	-24.6	-25.2	16.2	0.00e+00	0	44	0	3152019456	9	3851
2026-01-17 06:49:03.27	281.65	15.60	-24.7	-25.3	16.2	0.00e+00	0	43	0	3159359488	9	3880
2026-01-17 06:49:04.27	281.47	15.53	-24.6	-25.2	16.2	0.00e+00	0	44	0	3166699520	9	3851
2026-01-17 06:49:05.28	281.29	15.47	-24.6	-25.1	16.3	0.00e+00	0	44	0	3174039552	9	3828
2026-01-17 06:49:06.28	281.12	15.41	-24.8	-25.7	16.0	0.00e+00	0	44	0	3181379584	9	3955
2026-01-17 06:49:07.28	280.94	15.34	-25.1	-25.7	15.7	0.00e+00	0	44	0	3188719616	10	3859
2026-01-17 06:49:08.29	280.77	15.28	-24.9	-25.4	15.9	0.00e+00	0	44	0	3196059648	10	3778
2026-01-17 06:49:09.29	280.59	15.21	-24.9	-25.4	15.9	0.00e+00	0	44	0	3203399680	10	3783
2026-01-17 06:49:10.29	280.42	15.15	-24.9	-25.3	15.9	0.00e+00	0	44	0	3210739712	10	3764
2026-01-17 06:49:11.29	280.25	15.08	-24.9	-25.3	15.9	0.00e+00	0	44	0	3218079744	10	3764
2026-01-17 06:49:12.29	280.08	15.02	-24.9	-25.4	15.9	0.00e+00	0	44	0	3224371200	10	3777
2026-01-17 06:49:13.30	279.91	14.96	-25.1	-25.7	15.7	0.00e+00	0	44	0	3231711232	10	3864
2026-01-17 06:49:14.30	279.74	14.89	-25.3	-26.1	15.5	0.00e+00	0	44	0	3239051264	10	3950
2026-01-17 06:49:15.30	279.57	14.83	-25.6	-26.4	15.0	1.10e-06	0	44	0	3246391296	11	3939
2026-01-17 06:49:16.30	279.40	14.76	-25.9	-26.9	14.7	1.10e-06	0	44	0	3253731328	11	4064
2026-01-17 06:49:17.31	279.23	14.70	-25.5	-26.2	15.1	0.00e+00	0	44	0	3261071360	11	3872
2026-01-17 06:49:18.31	279.07	14.63	-25.4	-25.9	15.3	0.00e+00	0	44	0	3268411392	11	3801
2026-01-17 06:49:19.31	278.90	14.57	-25.3	-25.6	15.4	0.00e+00	0	44	0	3275751424	11	3727
2026-01-17 06:49:20.32	278.74	14.50	-25.3	-25.6	15.4	0.00e+00	0	44	0	3282042880	11	3737
2026-01-17 06:49:21.33	278.57	14.44	-25.3	-25.7	15.4	0.00e+00	0	44	0	3289382912	11	3766
2026-01-17 06:49:22.33	278.41	14.37	-25.4	-25.9	15.2	0.00e+00	0	44	0	3297771520	11	3815
2026-01-17 06:49:23.34	278.24	14.31	-25.4	-25.9	15.3	0.00e+00	0	43	0	3304062976	11	3816
2026-01-17 06:49:24.33	278.08	14.24	-25.8	-26.7	14.8	1.10e-06	0	44	0	3311403008	11	3998
2026-01-17 06:49:25.34	277.92	14.18	-25.3	-25.6	15.4	0.00e+00	0	43	0	3318743040	11	3737
2026-01-17 06:49:26.34	277.76	14.11	-25.2	-25.5	15.5	0.00e+00	0	44	0	3326083072	11	3713
2026-01-17 06:49:27.35	277.60	14.04	-25.0	-25.0	15.8	0.00e+00	0	44	0	3333423104	11	3594
2026-01-17 06:49:28.35	277.44	13.98	-25.2	-25.4	15.5	0.00e+00	0	44	0	3340763136	11	3690
2026-01-17 06:49:29.35	277.28	13.91	-25.2	-25.5	15.5	0.00e+00	0	44	0	3348103168	11	3707
2026-01-17 06:49:30.34	277.13	13.85	-25.2	-25.4	15.6	0.00e+00	0	44	0	3355443200	11	3682
2026-01-17 06:49:31.34	276.97	13.78	-25.1	-25.2	15.7	0.00e+00	0	44	0	3362783232	11	3637
2026-01-17 06:49:32.35	276.81	13.72	-25.0	-25.1	15.7	0.00e+00	0	44	0	3369074688	11	3616
2026-01-17 06:49:33.35	276.66	13.65	-25.4	-25.8	15.3	0.00e+00	0	44	0	3376414720	11	3779
2026-01-17 06:49:34.35	276.50	13.59	-25.2	-25.5	15.5	0.00e+00	0	44	0	3383754752	11	3710
2026-01-17 06:49:35.36	276.35	13.52	-25.3	-25.7	15.4	0.00e+00	0	43	0	3391094784	11	3760
2026-01-17 06:49:36.36	276.19	13.45	-25.4	-25.9	15.2	0.00e+00	0	44	0	3398434816	11	3801
2026-01-17 06:49:37.36	276.04	13.39	-25.5	-26.0	15.2	0.00e+00	0	44	0	3405774848	11	3836
2026-01-17 06:49:38.37	275.89	13.32	-25.4	-25.9	15.2	0.00e+00	0	44	0	3413114880	11	3818
2026-01-17 06:49:39.38	275.73	13.26	-25.4	-25.9	15.2	0.00e+00	0	44	0	3420454912	11	3809
2026-01-17 06:49:40.38	275.58	13.19	-25.5	-26.2	15.1	0.00e+00	0	43	0	3426746368	11	3877
2026-01-17 06:49:41.38	275.43	13.13	-25.5	-26.2	15.0	0.00e+00	0	44	0	3435134976	11	3888
2026-01-17 06:49:42.38	275.28	13.06	-26.0	-27.1	14.5	0.00e+00	0	44	0	3442475008	11	4113
2026-01-17 06:49:43.38	275.13	12.99	-26.0	-26.6	14.4	0.00e+00	0	43	0	3448766464	12	3890
2026-01-17 06:49:44.38	274.99	12.93	-25.5	-25.6	15.0	0.00e+00	0	43	0	3456106496	12	3650
2026-01-17 06:49:45.38	274.84	12.86	-25.3	-25.6	15.3	0.00e+00	0	44	0	3463446528	11	3751
2026-01-17 06:49:46.38	274.69	12.80	-25.4	-25.9	15.2	0.00e+00	0	43	0	3470786560	11	3810
2026-01-17 06:49:47.38	274.55	12.73	-25.5	-26.2	15.0	0.00e+00	0	44	0	3478126592	11	3875
2026-01-17 06:49:48.39	274.40	12.66	-25.4	-25.9	15.1	0.00e+00	0	44	0	3485466624	11	3820
2026-01-17 06:49:49.39	274.26	12.60	-25.4	-26.0	15.1	0.00e+00	0	43	0	3492806656	11	3824
2026-01-17 06:49:50.39	274.11	12.53	-25.6	-26.3	14.9	0.00e+00	0	44	0	3500146688	11	3915
2026-01-17 06:49:51.40	273.97	12.47	-25.7	-26.6	14.8	0.00e+00	0	43	0	3507486720	11	3988
2026-01-17 06:49:52.40	273.82	12.40	-25.9	-27.1	14.5	1.10e-06	0	44	0	3513778176	11	4104
2026-01-17 06:49:53.41	273.68	12.33	-25.3	-25.7	15.2	1.10e-06	0	44	0	3521118208	11	3774
2026-01-17 06:49:54.41	273.54	12.27	-25.1	-25.3	15.5	0.00e+00	0	44	0	3528458240	11	3668
2026-01-17 06:49:55.41	273.40	12.20	-25.2	-25.4	15.5	1.10e-06	0	44	0	3535798272	11	3682
2026-01-17 06:49:56.41	273.26	12.14	-25.1	-25.3	15.5	0.00e+00	0	44	0	3543138304	11	3662
2026-01-17 06:49:57.41	273.12	12.07	-25.1	-25.2	15.6	0.00e+00	0	44	0	3550478336	11	3641
2026-01-17 06:49:58.41	272.98	12.01	-25.2	-25.4	15.4	0.00e+00	0	44	0	3557818368	11	3688
2026-01-17 06:49:59.41	272.84	11.94	-25.2	-25.5	15.4	0.00e+00	0	44	0	3565158400	11	3705
2026-01-17 06:50:00.41	272.70	11.87	-25.2	-25.3	15.5	0.00e+00	0	44	0	3572498432	11	3680
2026-01-17 06:50:01.41	272.57	11.81	-25.3	-25.8	15.2	2.20e-06	0	43	0	3578789888	11	3777
2026-01-17 06:50:02.42	272.43	11.74	-25.4	-25.9	15.2	0.00e+00	0	43	0	3586129920	11	3811
2026-01-17 06:50:03.42	272.29	11.68	-25.5	-26.2	15.0	0.00e+00	0	44	0	3593469952	11	3892
2026-01-17 06:50:04.42	272.16	11.61	-25.7	-26.6	14.7	2.20e-06	0	44	0	3600809984	11	3983
2026-01-17 06:50:05.43	272.02	11.54	-25.6	-26.5	14.8	1.10e-06	0	43	0	3608150016	11	3949
2026-01-17 06:50:06.44	271.89	11.48	-25.6	-26.4	14.9	0.00e+00	0	44	0	3615490048	11	3921
2026-01-17 06:50:07.44	271.75	11.41	-25.8	-26.7	14.7	3.40e-06	0	44	0	3622830080	11	4009
2026-01-17 06:50:08.45	271.62	11.35	-25.8	-26.8	14.6	0.00e+00	0	44	0	3630170112	11	4026
2026-01-17 06:50:09.45	271.49	11.28	-25.9	-27.1	14.4	1.10e-06	0	44	0	3637510144	11	4106
2026-01-17 06:50:10.45	271.36	11.22	-25.8	-26.9	14.6	4.50e-06	0	44	0	3644850176	11	4053
2026-01-17 06:50:11.46	271.23	11.15	-25.8	-26.7	14.7	0.00e+00	0	44	0	3652190208	11	4014
2026-01-17 06:50:12.46	271.10	11.08	-26.0	-27.3	14.3	0.00e+00	0	44	0	3658481664	11	4166
2026-01-17 06:50:13.47	270.96	11.02	-26.1	-26.9	14.2	6.80e-06	0	44	0	3665821696	12	3963
2026-01-17 06:50:14.46	270.84	10.95	-26.2	-27.3	14.0	2.20e-06	0	43	0	3673161728	12	4067
2026-01-17 06:50:15.46	270.71	10.89	-26.0	-26.7	14.3	2.20e-06	0	43	0	3680501760	12	3916
2026-01-17 06:50:16.46	270.58	10.82	-25.9	-26.6	14.4	1.10e-06	0	44	0	3687841792	12	3874
2026-01-17 06:50:17.46	270.45	10.76	-25.5	-25.7	14.8	1.10e-06	0	44	0	3695181824	12	3682
2026-01-17 06:50:18.46	270.33	10.69	-25.7	-26.6	14.7	0.00e+00	0	44	0	3702521856	11	3976
2026-01-17 06:50:19.46	270.20	10.63	-25.9	-27.1	14.4	1.10e-06	0	44	0	3709861888	11	4113
2026-01-17 06:50:20.46	270.07	10.56	-25.5	-26.2	14.9	0.00e+00	0	44	0	3717201920	11	3885
2026-01-17 06:50:21.46	269.95	10.50	-25.8	-26.8	14.6	1.10e-06	0	43	0	3723493376	11	4026
2026-01-17 06:50:22.46	269.82	10.43	-25.9	-27.1	14.4	1.10e-06	0	44	0	3730833408	11	4111
2026-01-17 06:50:23.47	269.70	10.37	-25.8	-26.8	14.6	0.00e+00	0	44	0	3738173440	11	4040
2026-01-17 06:50:24.47	269.58	10.30	-26.1	-27.0	14.1	0.00e+00	0	44	0	3745513472	12	3982
2026-01-17 06:50:25.47	269.45	10.24	-25.9	-26.6	14.3	2.20e-06	0	44	0	3752853504	12	3880
2026-01-17 06:50:26.47	269.33	10.17	-25.9	-26.5	14.4	0.00e+00	0	44	0	3760193536	12	3862
2026-01-17 06:50:27.47	269.21	10.11	-25.6	-25.9	14.7	2.20e-06	0	44	0	3767533568	12	3707
2026-01-17 06:50:28.48	269.09	10.04	-25.8	-26.3	14.5	0.00e+00	0	44	0	3774873600	12	3815
2026-01-17 06:50:29.49	268.97	9.98	-25.8	-26.3	14.5	0.00e+00	0	44	0	3782213632	12	3802
2026-01-17 06:50:30.48	268.85	9.91	-25.7	-26.1	14.6	3.40e-06	0	44	0	3789553664	12	3763
2026-01-17 06:50:31.48	268.73	9.85	-25.7	-26.0	14.6	0.00e+00	0	44	0	3796893696	12	3753
2026-01-17 06:50:32.48	268.61	9.78	-25.9	-26.5	14.4	0.00e+00	0	44	0	3804233728	12	3863
2026-01-17 06:50:33.48	268.49	9.72	-25.9	-26.5	14.3	1.10e-06	0	44	0	3810525184	12	3867
2026-01-17 06:50:34.48	268.37	9.65	-25.9	-26.5	14.3	2.20e-06	0	44	0	3817865216	12	3869
2026-01-17 06:50:35.49	268.25	9.59	-26.1	-26.9	14.0	2.20e-06	0	44	0	3825205248	12	3975
2026-01-17 06:50:36.49	268.14	9.52	-26.2	-27.3	13.9	3.40e-06	0	44	0	3832545280	12	4062
2026-01-17 06:50:37.49	268.02	9.46	-26.1	-27.0	14.1	2.20e-06	0	44	0	3839885312	12	3986
2026-01-17 06:50:38.50	267.90	9.39	-25.8	-26.4	14.4	0.00e+00	0	44	0	3847225344	12	3839
2026-01-17 06:50:39.51	267.79	9.33	-26.2	-27.1	13.9	0.00e+00	0	44	0	3854565376	12	4034
2026-01-17 06:50:40.51	267.67	9.26	-25.7	-26.2	14.4	3.40e-06	0	43	0	3861905408	12	3794
2026-01-17 06:50:41.52	267.56	9.20	-25.8	-26.3	14.4	0.00e+00	0	44	0	3868196864	12	3813
2026-01-17 06:50:42.53	267.44	9.14	-25.9	-26.5	14.3	3.40e-06	0	44	0	3875536896	12	3864
2026-01-17 06:50:43.53	267.33	9.07	-26.0	-26.8	14.1	0.00e+00	0	44	0	3883925504	12	3942
2026-01-17 06:50:44.54	267.22	9.01	-26.0	-26.8	14.1	4.50e-06	0	44	0	3890216960	12	3941
2026-01-17 06:50:45.54	267.10	8.94	-25.7	-26.1	14.5	1.10e-06	0	44	0	3897556992	12	3772
2026-01-17 06:50:46.54	266.99	8.88	-26.0	-26.8	14.1	3.40e-06	0	43	0	3904897024	12	3929
2026-01-17 06:50:47.54	266.88	8.82	-26.0	-26.7	14.1	1.10e-06	0	44	0	3912237056	12	3928
2026-01-17 06:50:48.54	266.77	8.75	-26.2	-27.1	13.9	4.50e-06	0	44	0	3919577088	12	4031
2026-01-17 06:50:49.54	266.66	8.69	-26.0	-26.8	14.1	1.10e-06	0	44	0	3926917120	12	3940
2026-01-17 06:50:50.55	266.55	8.62	-26.3	-27.5	13.6	5.70e-06	0	44	0	3934257152	12	4136
2026-01-17 06:50:51.55	266.44	8.56	-26.3	-27.4	13.7	5.70e-06	0	44	0	3941597184	12	4113
2026-01-17 06:50:52.55	266.33	8.50	-26.5	-27.9	13.4	1.02e-05	0	44	0	3948937216	12	4222
2026-01-17 06:50:53.56	266.22	8.43	-26.5	-27.9	13.4	1.02e-05	0	44	0	3955228672	12	4243
2026-01-17 06:50:54.56	266.11	8.37	-26.7	-27.8	13.2	1.94e-05	0	43	0	3962568704	13	4108
2026-01-17 06:50:55.56	266.01	8.31	-26.9	-28.2	12.8	2.74e-05	0	43	0	3969908736	13	4223
2026-01-17 06:50:56.56	265.90	8.24	-26.9	-28.3	12.9	4.34e-05	0	44	0	3977248768	13	4235
2026-01-17 06:50:57.56	265.79	8.18	-26.7	-28.0	13.1	4.92e-05	0	44	0	3984588800	13	4146
2026-01-17 06:50:58.57	265.69	8.12	-27.0	-28.6	12.7	6.63e-05	0	44	0	3991928832	13	4317
2026-01-17 06:50:59.57	265.58	8.05	-26.5	-27.5	13.3	2.97e-05	0	44	0	3999268864	13	4013
2026-01-17 06:51:00.57	265.48	7.99	-26.9	-28.3	12.9	7.43e-05	0	44	0	4006608896	13	4234
2026-01-17 06:51:01.57	265.37	7.93	-26.6	-27.8	13.1	1.83e-05	0	44	0	4012900352	13	4099
2026-01-17 06:51:02.57	265.27	7.86	-26.8	-28.1	13.0	3.08e-05	0	43	0	4020240384	13	4177
2026-01-17 06:51:03.58	265.16	7.80	-27.0	-28.6	12.6	7.20e-05	0	43	0	4027580416	13	4322
2026-01-17 06:51:04.58	265.06	7.74	-26.9	-28.4	12.7	1.11e-04	0	44	0	4034920448	13	4263
2026-01-17 06:51:05.57	264.96	7.68	-26.7	-27.3	13.1	6.98e-05	0	44	0	4042260480	14	3874
2026-01-17 06:51:06.58	264.86	7.61	-26.4	-27.2	13.5	1.60e-05	0	44	0	4049600512	13	3947
2026-01-17 06:51:07.57	264.75	7.55	-26.8	-28.0	13.0	4.34e-05	0	44	0	4056940544	13	4172
2026-01-17 06:51:08.57	264.65	7.49	-26.9	-28.4	12.7	5.72e-05	0	43	0	4064280576	13	4264
2026-01-17 06:51:09.57	264.55	7.43	-27.3	-28.7	12.2	8.23e-05	0	44	0	4071620608	14	4257
2026-01-17 06:51:10.58	264.45	7.36	-27.1	-27.8	12.5	3.26e-04	0	44	0	4077912064	15	3911
2026-01-17 06:51:11.57	264.35	7.30	-26.8	-27.7	12.8	5.49e-05	0	44	0	4085252096	14	3971
2026-01-17 06:51:12.57	264.25	7.24	-27.1	-28.3	12.4	2.08e-04	0	44	0	4092592128	14	4152
2026-01-17 06:51:13.57	264.15	7.18	-27.3	-28.7	12.2	2.38e-04	0	44	0	4099932160	14	4266
2026-01-17 06:51:14.57	264.06	7.11	-26.9	-27.9	12.7	7.32e-05	0	44	0	4107272192	14	4031
2026-01-17 06:51:15.57	263.96	7.05	-32.5	-42.3	3.8	3.12e-02	0	44	0	4113563648	24	11057
2026-01-17 06:51:16.56	263.86	6.99	-32.9	-42.6	3.8	8.46e-01	0	44	104	4113563648	25	11088
2026-01-17 06:51:17.57	263.76	6.93	-33.2	-42.7	3.8	8.47e-01	0	44	104	4113563648	26	10780

#Closed at: 2026-01-17 06:51:17
#Recorded file [4113 MB]: D:/data/31010_260117_094145.dat