passes_logs/2026/01/17/R2M6_AANII_01/R2M6_AANII_01__20260117_100039_NOAA_21_JPSS-2_rec.log

#Pass ID: 20260117_100039_NOAA 21 (JPSS-2)
#Satellite: NOAA 21 (JPSS-2)
#Configuration: NOAA 21
#almurnet v.1.7.20240730
#Start time: 2026-01-17 10:00:39

#Version: 2.2.20231116
#Station: R2M6_AANII_01
#Location: 30.233357 lon 59.946436 lat
#TLE: 1 54234U 22150A   26016.21096038  .00000027  00000+0  33607-4 0  9993
#TLE: 2 54234  98.7500 317.0960 0000625 282.3388  77.7718 14.19534911164985

#Time	Az	El	Level	Level2	SNR	BER	BlckErr	Temp	State	Recorded	gain1	gain2
2026-01-17 10:00:39.38	150.62	6.96	-34.1	-45.6	3.8	1.49e+00	0	43	0	0	29	13478
2026-01-17 10:00:40.37	150.61	7.04	-34.1	-45.6	3.8	1.49e+00	0	43	104	0	29	13473
2026-01-17 10:00:41.37	150.60	7.11	-34.1	-45.5	3.8	1.49e+00	0	43	104	0	29	13439
2026-01-17 10:00:42.37	150.58	7.19	-34.1	-45.5	3.8	1.49e+00	0	43	104	0	29	13421
2026-01-17 10:00:43.38	150.57	7.27	-34.1	-45.5	3.8	1.49e+00	0	43	104	0	29	13427
2026-01-17 10:00:44.39	150.56	7.35	-34.2	-45.7	3.8	1.49e+00	0	43	104	0	29	13551
2026-01-17 10:00:45.39	150.55	7.43	-34.2	-45.8	3.8	1.49e+00	0	43	104	0	29	13667
2026-01-17 10:00:46.40	150.53	7.51	-34.3	-45.9	3.8	1.49e+00	0	43	104	0	29	13728
2026-01-17 10:00:47.40	150.52	7.59	-34.3	-45.9	3.8	1.49e+00	0	43	104	0	29	13758
2026-01-17 10:00:48.39	150.51	7.66	-34.3	-45.9	3.8	1.49e+00	0	43	104	0	29	13746
2026-01-17 10:00:49.39	150.49	7.74	-34.3	-45.9	3.8	1.49e+00	0	43	104	0	29	13776
2026-01-17 10:00:50.39	150.48	7.82	-34.2	-45.8	3.8	1.49e+00	0	43	104	0	29	13682
2026-01-17 10:00:51.39	150.47	7.90	-34.2	-45.7	3.8	1.49e+00	0	43	104	0	29	13614
2026-01-17 10:00:52.39	150.46	7.98	-34.0	-45.5	3.8	1.49e+00	0	43	104	0	29	13469
2026-01-17 10:00:53.40	150.44	8.06	-34.0	-45.4	3.8	1.49e+00	0	43	104	0	29	13372
2026-01-17 10:00:54.40	150.43	8.15	-34.0	-45.3	3.8	1.49e+00	0	43	104	0	29	13266
2026-01-17 10:00:55.40	150.42	8.23	-33.9	-45.2	3.8	1.49e+00	0	43	104	0	29	13204
2026-01-17 10:00:56.40	150.40	8.31	-33.9	-45.2	3.8	1.49e+00	0	43	104	0	29	13155
2026-01-17 10:00:57.41	150.39	8.39	-33.8	-45.0	3.8	1.49e+00	0	43	104	0	29	13038
2026-01-17 10:00:58.41	150.37	8.47	-33.7	-45.2	3.8	1.49e+00	0	43	104	0	28	13555
2026-01-17 10:00:59.42	150.36	8.55	-33.5	-44.8	3.8	1.49e+00	0	43	104	0	28	13259
2026-01-17 10:01:00.42	150.35	8.64	-33.2	-44.7	3.8	1.49e+00	0	43	104	0	27	13644
2026-01-17 10:01:01.43	150.33	8.72	-32.8	-43.8	3.8	1.49e+00	0	43	104	0	27	12793
2026-01-17 10:01:02.43	150.32	8.80	-32.4	-40.9	3.9	1.48e+00	0	43	104	0	26	9547
2026-01-17 10:01:03.43	150.30	8.89	-32.2	-39.6	4.6	1.47e+00	0	43	104	0	25	8433
2026-01-17 10:01:04.43	150.29	8.97	-32.0	-38.4	5.1	6.61e-01	0	43	0	1048576	25	7503
2026-01-17 10:01:05.44	150.27	9.05	-31.6	-37.2	6.1	3.85e-01	0	43	0	4194304	24	6811
2026-01-17 10:01:06.45	150.26	9.14	-31.4	-36.0	6.8	1.87e-01	0	43	0	7340032	24	6109
2026-01-17 10:01:07.45	150.25	9.22	-31.1	-35.3	7.6	1.08e-01	0	43	0	9437184	23	5880
2026-01-17 10:01:08.46	150.23	9.31	-31.0	-35.1	7.8	5.66e-02	0	43	0	12582912	23	5773
2026-01-17 10:01:09.46	150.22	9.39	-30.8	-34.5	8.2	7.17e-02	0	43	0	15728640	23	5499
2026-01-17 10:01:10.46	150.20	9.48	-30.6	-34.1	8.9	6.60e-02	0	43	0	18874368	22	5413
2026-01-17 10:01:11.46	150.19	9.56	-30.1	-33.1	9.9	1.14e-02	0	43	0	22020096	21	5120
2026-01-17 10:01:12.46	150.17	9.65	-30.0	-33.5	10.0	6.90e-03	0	43	0	25165824	20	5346
2026-01-17 10:01:13.46	150.16	9.73	-30.1	-33.7	9.8	1.12e-02	0	43	0	28311552	20	5450
2026-01-17 10:01:14.47	150.14	9.82	-30.3	-33.9	9.3	1.63e-02	0	43	0	31457280	21	5438
2026-01-17 10:01:15.47	150.12	9.91	-29.4	-32.3	11.2	9.09e-04	0	43	0	34603008	19	4985
2026-01-17 10:01:16.47	150.11	9.99	-29.8	-33.1	10.8	9.86e-04	0	43	0	37748736	19	5303
2026-01-17 10:01:17.47	150.09	10.08	-30.0	-33.3	10.1	4.52e-03	0	43	0	40894464	20	5296
2026-01-17 10:01:18.47	150.08	10.17	-29.9	-33.3	10.1	7.50e-03	0	43	0	44040192	20	5272
2026-01-17 10:01:19.47	150.06	10.26	-30.2	-34.1	9.5	1.06e-02	0	43	0	47185920	20	5630
2026-01-17 10:01:20.47	150.05	10.34	-30.6	-34.6	8.8	2.84e-02	0	43	0	50331648	21	5763
2026-01-17 10:01:21.46	150.03	10.43	-30.6	-34.7	8.7	3.45e-02	0	43	0	53477376	21	5786
2026-01-17 10:01:22.46	150.01	10.52	-30.7	-35.2	8.4	6.83e-02	0	43	0	56623104	21	6012
2026-01-17 10:01:23.46	150.00	10.61	-30.3	-33.9	9.3	1.38e-02	0	43	0	59768832	21	5433
2026-01-17 10:01:24.46	149.98	10.70	-30.5	-34.3	9.0	2.92e-02	0	43	0	62914560	21	5626
2026-01-17 10:01:25.46	149.96	10.79	-30.2	-33.5	9.6	1.78e-02	0	43	0	66060288	21	5255
2026-01-17 10:01:26.47	149.95	10.88	-30.0	-33.0	10.1	4.43e-03	0	43	0	69206016	21	5051
2026-01-17 10:01:27.48	149.93	10.97	-29.7	-32.5	10.7	1.96e-03	0	43	0	72351744	20	4959
2026-01-17 10:01:28.48	149.91	11.06	-29.9	-32.9	10.5	2.36e-03	0	43	0	75497472	20	5111
2026-01-17 10:01:29.48	149.90	11.15	-29.8	-32.6	10.8	3.40e-03	0	43	0	78643200	20	5001
2026-01-17 10:01:30.47	149.88	11.24	-29.6	-32.2	11.0	2.17e-03	0	43	0	81788928	20	4833
2026-01-17 10:01:31.48	149.86	11.34	-29.6	-32.2	11.0	1.94e-03	0	43	0	84934656	20	4845
2026-01-17 10:01:32.48	149.84	11.43	-29.6	-32.6	11.1	1.50e-04	0	43	0	88080384	19	5062
2026-01-17 10:01:33.48	149.83	11.52	-29.2	-31.5	11.9	2.14e-04	0	43	0	91226112	19	4713
2026-01-17 10:01:34.48	149.81	11.61	-28.7	-30.7	12.7	8.92e-05	0	43	0	94371840	18	4552
2026-01-17 10:01:35.49	149.79	11.71	-28.5	-30.2	13.0	6.10e-05	0	43	0	97517568	18	4390
2026-01-17 10:01:36.49	149.77	11.80	-28.2	-30.0	13.4	1.37e-05	0	43	0	100663296	17	4435
2026-01-17 10:01:37.49	149.76	11.89	-28.0	-29.4	13.8	6.10e-06	0	43	0	103809024	17	4262
2026-01-17 10:01:38.49	149.74	11.99	-27.8	-29.1	14.0	3.80e-06	0	43	0	106954752	17	4171
2026-01-17 10:01:39.49	149.72	12.08	-27.8	-29.6	13.9	1.75e-05	0	43	0	110100480	16	4426
2026-01-17 10:01:40.49	149.70	12.18	-27.8	-29.5	14.0	7.00e-07	0	43	0	113246208	16	4391
2026-01-17 10:01:41.50	149.68	12.27	-27.7	-29.4	14.1	4.50e-06	0	43	0	116391936	16	4365
2026-01-17 10:01:42.50	149.66	12.37	-28.0	-30.1	13.7	1.52e-05	0	43	0	119537664	16	4582
2026-01-17 10:01:43.50	149.64	12.46	-27.9	-29.8	13.9	3.00e-06	0	43	0	122683392	16	4486
2026-01-17 10:01:44.50	149.62	12.56	-27.8	-29.5	14.1	1.50e-06	0	43	0	125829120	16	4392
2026-01-17 10:01:45.50	149.61	12.66	-27.8	-29.5	14.1	1.37e-05	0	43	0	128974848	16	4378
2026-01-17 10:01:46.51	149.59	12.76	-27.6	-29.2	14.3	2.20e-06	0	43	0	132120576	16	4295
2026-01-17 10:01:47.51	149.57	12.85	-27.9	-29.8	13.9	7.00e-07	0	43	0	135266304	16	4479
2026-01-17 10:01:48.52	149.55	12.95	-27.9	-29.9	13.9	1.22e-05	0	43	0	138412032	16	4505
2026-01-17 10:01:49.52	149.53	13.05	-27.9	-29.8	13.9	4.50e-06	0	43	0	141557760	16	4478
2026-01-17 10:01:50.53	149.51	13.15	-27.9	-29.8	13.9	2.20e-06	0	43	0	144703488	16	4463
2026-01-17 10:01:51.53	149.49	13.25	-28.0	-29.9	13.9	1.50e-06	0	43	0	147849216	16	4504
2026-01-17 10:01:52.54	149.47	13.35	-27.7	-29.3	14.3	1.50e-06	0	43	0	150994944	16	4323
2026-01-17 10:01:53.54	149.45	13.45	-27.6	-29.1	14.4	7.00e-07	0	43	0	154140672	16	4260
2026-01-17 10:01:54.53	149.43	13.55	-27.7	-29.2	14.3	1.60e-05	0	43	0	157286400	16	4300
2026-01-17 10:01:55.53	149.40	13.65	-27.6	-29.0	14.4	0.00e+00	0	43	0	160432128	16	4241
2026-01-17 10:01:56.53	149.38	13.75	-27.6	-29.0	14.4	2.20e-06	0	43	0	163577856	16	4248
2026-01-17 10:01:57.54	149.36	13.85	-27.5	-28.9	14.5	1.50e-06	0	43	0	166723584	16	4219
2026-01-17 10:01:58.54	149.34	13.95	-27.6	-29.0	14.4	1.50e-06	0	43	0	169869312	16	4253
2026-01-17 10:01:59.54	149.32	14.06	-27.6	-29.2	14.3	0.00e+00	0	43	0	173015040	16	4309
2026-01-17 10:02:00.55	149.30	14.16	-27.6	-29.0	14.4	7.00e-07	0	43	0	176160768	16	4246
2026-01-17 10:02:01.56	149.28	14.26	-27.6	-29.0	14.5	0.00e+00	0	43	0	179306496	16	4228
2026-01-17 10:02:02.55	149.25	14.37	-27.5	-28.7	14.6	7.00e-07	0	43	0	182452224	16	4160
2026-01-17 10:02:03.55	149.23	14.47	-27.6	-29.1	14.4	0.00e+00	0	43	0	185597952	16	4258
2026-01-17 10:02:04.55	149.21	14.57	-27.6	-29.1	14.5	2.20e-06	0	43	0	188743680	16	4256
2026-01-17 10:02:05.55	149.19	14.68	-27.5	-28.7	14.7	0.00e+00	0	43	0	191889408	16	4146
2026-01-17 10:02:06.55	149.16	14.79	-27.5	-28.8	14.7	0.00e+00	0	43	0	195035136	16	4159
2026-01-17 10:02:07.55	149.14	14.89	-27.5	-28.8	14.6	7.00e-07	0	43	0	198180864	16	4177
2026-01-17 10:02:08.56	149.12	15.00	-27.5	-28.8	14.7	7.00e-07	0	43	0	201326592	16	4171
2026-01-17 10:02:09.55	149.10	15.10	-27.5	-28.7	14.7	1.50e-06	0	43	0	204472320	16	4154
2026-01-17 10:02:10.56	149.07	15.21	-27.4	-28.5	14.8	0.00e+00	0	43	0	207618048	16	4099
2026-01-17 10:02:11.56	149.05	15.32	-27.5	-28.7	14.7	7.00e-07	0	43	0	210763776	16	4146
2026-01-17 10:02:12.57	149.02	15.43	-27.6	-28.9	14.6	7.00e-07	0	43	0	212860928	16	4208
2026-01-17 10:02:13.57	149.00	15.54	-27.6	-29.0	14.6	7.00e-07	0	43	0	216006656	16	4219
2026-01-17 10:02:14.58	148.98	15.65	-27.5	-28.8	14.7	0.00e+00	0	43	0	219152384	16	4178
2026-01-17 10:02:15.58	148.95	15.76	-27.5	-28.9	14.7	0.00e+00	0	43	0	223346688	16	4196
2026-01-17 10:02:16.58	148.93	15.87	-27.5	-28.7	14.7	0.00e+00	0	43	0	226492416	16	4166
2026-01-17 10:02:17.59	148.90	15.98	-27.5	-28.7	14.7	0.00e+00	0	43	0	229638144	16	4156
2026-01-17 10:02:18.59	148.88	16.09	-27.5	-28.7	14.8	0.00e+00	0	43	0	232783872	16	4146
2026-01-17 10:02:19.58	148.85	16.20	-27.6	-29.1	14.5	0.00e+00	0	43	0	235929600	16	4270
2026-01-17 10:02:20.59	148.83	16.31	-27.5	-28.8	14.7	7.00e-07	0	43	0	238026752	16	4187
2026-01-17 10:02:21.59	148.80	16.43	-27.4	-28.5	14.9	0.00e+00	0	43	0	241172480	16	4097
2026-01-17 10:02:22.59	148.78	16.54	-27.4	-28.5	14.9	0.00e+00	0	43	0	244318208	16	4111
2026-01-17 10:02:23.59	148.75	16.65	-27.4	-28.6	14.9	0.00e+00	0	43	0	247463936	16	4122
2026-01-17 10:02:24.60	148.72	16.77	-27.6	-28.9	14.8	0.00e+00	0	43	0	250609664	16	4184
2026-01-17 10:02:25.59	148.70	16.88	-27.5	-28.8	14.8	0.00e+00	0	43	0	253755392	16	4167
2026-01-17 10:02:26.60	148.67	17.00	-27.6	-28.9	14.8	7.00e-07	0	43	0	256901120	16	4184
2026-01-17 10:02:27.60	148.64	17.11	-27.6	-28.8	14.8	0.00e+00	0	43	0	260046848	16	4176
2026-01-17 10:02:28.60	148.62	17.23	-27.4	-28.5	15.0	0.00e+00	0	43	0	263192576	16	4081
2026-01-17 10:02:29.61	148.59	17.35	-27.4	-28.5	15.0	0.00e+00	0	43	0	266338304	16	4069
2026-01-17 10:02:30.61	148.56	17.47	-27.5	-28.7	14.9	0.00e+00	0	43	0	269484032	16	4132
2026-01-17 10:02:31.61	148.53	17.58	-27.6	-29.0	14.7	0.00e+00	0	43	0	272629760	16	4221
2026-01-17 10:02:32.62	148.51	17.70	-27.6	-28.9	14.8	0.00e+00	0	43	0	275775488	16	4203
2026-01-17 10:02:33.62	148.48	17.82	-27.7	-29.2	14.7	0.00e+00	0	43	0	278921216	16	4271
2026-01-17 10:02:34.63	148.45	17.94	-27.7	-29.1	14.7	0.00e+00	0	43	0	282066944	16	4240
2026-01-17 10:02:35.63	148.42	18.06	-27.9	-29.6	14.4	1.50e-06	0	43	0	285212672	16	4389
2026-01-17 10:02:36.63	148.39	18.19	-27.8	-29.4	14.6	0.00e+00	0	43	0	288358400	16	4315
2026-01-17 10:02:37.63	148.36	18.31	-27.8	-29.4	14.6	0.00e+00	0	43	0	291504128	16	4318
2026-01-17 10:02:38.63	148.33	18.43	-27.9	-29.7	14.4	7.00e-07	0	43	0	294649856	16	4402
2026-01-17 10:02:39.63	148.30	18.55	-27.8	-29.4	14.6	7.00e-07	0	43	0	297795584	16	4325
2026-01-17 10:02:40.63	148.27	18.68	-27.9	-29.6	14.5	0.00e+00	0	43	0	300941312	16	4383
2026-01-17 10:02:41.64	148.24	18.80	-27.8	-29.4	14.6	1.50e-06	0	43	0	304087040	16	4322
2026-01-17 10:02:42.64	148.21	18.92	-27.6	-29.0	14.8	0.00e+00	0	43	0	307232768	16	4228
2026-01-17 10:02:43.63	148.18	19.05	-27.7	-29.1	14.8	0.00e+00	0	43	0	310378496	16	4252
2026-01-17 10:02:44.64	148.15	19.18	-27.6	-29.0	14.9	0.00e+00	0	43	0	313524224	16	4205
2026-01-17 10:02:45.65	148.12	19.30	-27.6	-28.9	14.9	0.00e+00	0	43	0	316669952	16	4199
2026-01-17 10:02:46.65	148.08	19.43	-27.6	-28.9	14.9	0.00e+00	0	43	0	319815680	16	4200
2026-01-17 10:02:47.65	148.05	19.56	-27.6	-28.9	14.9	9.10e-06	0	43	0	322961408	16	4176
2026-01-17 10:02:48.64	148.02	19.68	-27.5	-28.7	15.1	0.00e+00	0	43	0	326107136	16	4123
2026-01-17 10:02:49.64	147.99	19.81	-27.5	-28.6	15.1	0.00e+00	0	43	0	329252864	16	4095
2026-01-17 10:02:50.65	147.95	19.94	-27.4	-28.4	15.2	0.00e+00	0	43	0	332398592	16	4051
2026-01-17 10:02:51.65	147.92	20.07	-27.5	-28.6	15.1	0.00e+00	0	43	0	335544320	16	4101
2026-01-17 10:02:52.66	147.89	20.21	-27.3	-28.3	15.3	0.00e+00	0	43	0	338690048	16	4016
2026-01-17 10:02:53.66	147.85	20.34	-27.3	-28.2	15.3	5.30e-06	0	43	0	341835776	16	4004
2026-01-17 10:02:54.66	147.82	20.47	-27.2	-28.4	15.4	0.00e+00	0	43	0	344981504	15	4160
2026-01-17 10:02:55.67	147.78	20.61	-27.1	-28.4	15.4	0.00e+00	0	43	0	348127232	15	4146
2026-01-17 10:02:56.66	147.75	20.74	-27.0	-28.2	15.5	2.20e-06	0	43	0	351272960	15	4094
2026-01-17 10:02:57.67	147.71	20.87	-27.3	-28.7	15.2	0.00e+00	0	43	0	354418688	15	4251
2026-01-17 10:02:58.68	147.68	21.01	-27.3	-28.6	15.2	0.00e+00	0	43	0	357564416	15	4225
2026-01-17 10:02:59.67	147.64	21.14	-27.1	-28.3	15.5	0.00e+00	0	43	0	360710144	15	4120
2026-01-17 10:03:00.68	147.61	21.28	-26.9	-27.7	15.8	0.00e+00	0	43	0	363855872	15	3983
2026-01-17 10:03:01.68	147.57	21.42	-26.8	-27.7	15.8	0.00e+00	0	43	0	367001600	15	3961
2026-01-17 10:03:02.68	147.53	21.56	-26.8	-28.2	15.8	0.00e+00	0	43	0	370147328	14	4212
2026-01-17 10:03:03.68	147.50	21.70	-26.8	-28.1	15.9	0.00e+00	0	43	0	373293056	14	4179
2026-01-17 10:03:04.68	147.46	21.84	-26.6	-27.7	16.1	0.00e+00	0	43	0	376438784	14	4087
2026-01-17 10:03:05.69	147.42	21.98	-26.7	-28.0	16.0	7.00e-07	0	43	0	379584512	14	4146
2026-01-17 10:03:06.70	147.38	22.12	-26.7	-27.9	16.0	0.00e+00	0	43	0	382730240	14	4131
2026-01-17 10:03:07.71	147.34	22.26	-26.6	-27.8	16.1	0.00e+00	0	43	0	385875968	14	4094
2026-01-17 10:03:08.71	147.30	22.41	-26.6	-27.6	16.2	1.50e-06	0	43	0	389021696	14	4048
2026-01-17 10:03:09.71	147.26	22.55	-26.5	-27.5	16.2	0.00e+00	0	43	0	392167424	14	4031
2026-01-17 10:03:10.71	147.22	22.69	-26.3	-27.0	16.5	0.00e+00	0	43	0	395313152	14	3903
2026-01-17 10:03:11.71	147.18	22.84	-26.3	-27.5	16.5	0.00e+00	0	43	0	398458880	13	4133
2026-01-17 10:03:12.71	147.14	22.98	-26.2	-27.2	16.7	0.00e+00	0	43	0	401604608	13	4055
2026-01-17 10:03:13.71	147.10	23.13	-26.1	-26.9	16.8	0.00e+00	0	43	0	404750336	13	3987
2026-01-17 10:03:14.71	147.06	23.28	-26.1	-27.1	16.8	1.50e-06	0	43	0	407896064	13	4015
2026-01-17 10:03:15.71	147.02	23.43	-26.2	-27.2	16.6	0.00e+00	0	43	0	411041792	13	4065
2026-01-17 10:03:16.72	146.98	23.58	-26.1	-27.1	16.8	0.00e+00	0	43	0	414187520	13	4017
2026-01-17 10:03:17.71	146.93	23.73	-26.1	-27.1	16.8	1.50e-06	0	43	0	417333248	13	4027
2026-01-17 10:03:18.71	146.89	23.88	-26.3	-27.5	16.5	0.00e+00	0	43	0	420478976	13	4115
2026-01-17 10:03:19.71	146.85	24.03	-26.2	-27.3	16.6	0.00e+00	0	43	0	423624704	13	4074
2026-01-17 10:03:20.71	146.80	24.18	-26.1	-27.0	16.8	0.00e+00	0	43	0	426770432	13	3999
2026-01-17 10:03:21.72	146.76	24.33	-26.5	-27.8	16.4	0.00e+00	0	43	0	429916160	13	4219
2026-01-17 10:03:22.73	146.71	24.49	-26.4	-27.6	16.5	0.00e+00	0	43	0	433061888	13	4156
2026-01-17 10:03:23.73	146.67	24.65	-26.3	-27.6	16.5	3.80e-06	0	43	0	436207616	13	4150
2026-01-17 10:03:24.72	146.62	24.80	-26.5	-28.0	16.3	0.00e+00	0	43	0	439353344	13	4255
2026-01-17 10:03:25.72	146.57	24.96	-26.6	-28.2	16.2	0.00e+00	0	43	0	442499072	13	4300
2026-01-17 10:03:26.72	146.53	25.12	-26.7	-28.2	16.2	0.00e+00	0	43	0	444596224	13	4325
2026-01-17 10:03:27.72	146.48	25.27	-26.7	-28.4	16.1	0.00e+00	0	43	0	447741952	13	4359
2026-01-17 10:03:28.72	146.43	25.43	-26.7	-28.3	16.2	0.00e+00	0	43	0	450887680	13	4331
2026-01-17 10:03:29.72	146.38	25.59	-26.6	-28.1	16.3	0.00e+00	0	43	0	454033408	13	4281
2026-01-17 10:03:30.73	146.33	25.76	-26.6	-28.1	16.3	0.00e+00	0	43	0	458227712	13	4272
2026-01-17 10:03:31.73	146.28	25.92	-26.7	-28.2	16.2	0.00e+00	0	43	0	461373440	13	4314
2026-01-17 10:03:32.73	146.23	26.08	-26.8	-28.5	16.1	0.00e+00	0	43	0	464519168	13	4374
2026-01-17 10:03:33.73	146.18	26.25	-26.7	-28.3	16.2	0.00e+00	0	43	0	466616320	13	4342
2026-01-17 10:03:34.72	146.13	26.41	-26.7	-28.4	16.2	0.00e+00	0	43	0	469762048	13	4356
2026-01-17 10:03:35.72	146.08	26.58	-26.8	-28.6	16.1	0.00e+00	0	43	0	472907776	13	4412
2026-01-17 10:03:36.73	146.03	26.75	-26.8	-28.5	16.1	0.00e+00	0	43	0	476053504	13	4400
2026-01-17 10:03:37.73	145.97	26.92	-26.9	-28.8	16.0	0.00e+00	0	43	0	479199232	13	4470
2026-01-17 10:03:38.73	145.92	27.09	-27.1	-28.8	15.7	0.00e+00	0	43	0	482344960	14	4360
2026-01-17 10:03:39.73	145.87	27.26	-27.3	-29.1	15.5	0.00e+00	0	43	0	485490688	14	4448
2026-01-17 10:03:40.74	145.81	27.43	-27.2	-29.0	15.6	0.00e+00	0	43	0	488636416	14	4414
2026-01-17 10:03:41.75	145.75	27.60	-27.3	-29.2	15.5	0.00e+00	0	43	0	491782144	14	4469
2026-01-17 10:03:42.75	145.70	27.78	-27.2	-28.9	15.6	0.00e+00	0	43	0	494927872	14	4394
2026-01-17 10:03:43.75	145.64	27.95	-27.1	-28.7	15.8	0.00e+00	0	43	0	498073600	14	4317
2026-01-17 10:03:44.75	145.58	28.13	-27.0	-28.5	15.9	0.00e+00	0	43	0	501219328	14	4260
2026-01-17 10:03:45.75	145.53	28.31	-27.0	-28.5	15.9	0.00e+00	0	43	0	504365056	14	4261
2026-01-17 10:03:46.75	145.47	28.48	-27.1	-28.6	15.9	0.00e+00	0	43	0	507510784	14	4297
2026-01-17 10:03:47.75	145.41	28.66	-27.0	-28.5	15.9	0.00e+00	0	43	0	510656512	14	4265
2026-01-17 10:03:48.75	145.35	28.84	-27.0	-28.5	16.0	0.00e+00	0	43	0	513802240	14	4256
2026-01-17 10:03:49.74	145.29	29.02	-27.0	-28.4	16.0	0.00e+00	0	43	0	516947968	14	4256
2026-01-17 10:03:50.75	145.23	29.21	-27.1	-28.6	15.9	0.00e+00	0	43	0	520093696	14	4299
2026-01-17 10:03:51.75	145.16	29.39	-26.9	-28.3	16.1	0.00e+00	0	43	0	523239424	14	4208
2026-01-17 10:03:52.76	145.10	29.58	-26.9	-28.3	16.1	0.00e+00	0	43	0	526385152	14	4218
2026-01-17 10:03:53.75	145.04	29.76	-27.0	-28.5	16.0	0.00e+00	0	43	0	529530880	14	4262
2026-01-17 10:03:54.76	144.97	29.95	-27.0	-28.5	15.9	0.00e+00	0	43	0	532676608	14	4282
2026-01-17 10:03:55.76	144.91	30.14	-27.0	-28.4	16.0	0.00e+00	0	43	0	535822336	14	4243
2026-01-17 10:03:56.76	144.84	30.33	-27.1	-28.6	15.9	0.00e+00	0	43	0	538968064	14	4306
2026-01-17 10:03:57.76	144.77	30.52	-27.0	-28.4	16.0	0.00e+00	0	43	0	542113792	14	4248
2026-01-17 10:03:58.77	144.70	30.71	-26.9	-28.4	16.0	0.00e+00	0	43	0	545259520	14	4231
2026-01-17 10:03:59.77	144.64	30.91	-27.0	-28.4	16.0	0.00e+00	0	43	0	548405248	14	4246
2026-01-17 10:04:00.76	144.57	31.10	-26.9	-28.3	16.1	0.00e+00	0	43	0	551550976	14	4226
2026-01-17 10:04:01.77	144.50	31.30	-27.3	-29.0	15.7	0.00e+00	0	43	0	554696704	14	4424
2026-01-17 10:04:02.77	144.42	31.49	-27.0	-28.5	16.0	0.00e+00	0	43	0	557842432	14	4282
2026-01-17 10:04:03.77	144.35	31.69	-27.0	-28.4	16.0	0.00e+00	0	43	0	560988160	14	4255
2026-01-17 10:04:04.78	144.28	31.89	-27.1	-28.6	15.9	0.00e+00	0	43	0	564133888	14	4293
2026-01-17 10:04:05.78	144.20	32.09	-26.9	-28.2	16.2	0.00e+00	0	43	0	567279616	14	4181
2026-01-17 10:04:06.78	144.13	32.30	-27.2	-29.0	15.7	0.00e+00	0	43	0	570425344	14	4403
2026-01-17 10:04:07.79	144.05	32.50	-27.2	-28.8	15.8	0.00e+00	0	43	0	573571072	14	4359
2026-01-17 10:04:08.78	143.98	32.70	-27.1	-28.6	16.0	0.00e+00	0	43	0	576716800	14	4304
2026-01-17 10:04:09.78	143.90	32.91	-27.1	-28.6	16.0	0.00e+00	0	43	0	579862528	14	4289
2026-01-17 10:04:10.79	143.82	33.12	-27.3	-29.1	15.7	0.00e+00	0	43	0	583008256	14	4430
2026-01-17 10:04:11.79	143.74	33.33	-27.4	-29.3	15.5	0.00e+00	0	43	0	586153984	14	4499
2026-01-17 10:04:12.79	143.66	33.54	-27.4	-29.4	15.5	0.00e+00	0	43	0	589299712	14	4530
2026-01-17 10:04:13.80	143.57	33.75	-27.5	-29.1	15.4	0.00e+00	0	43	0	592445440	15	4332
2026-01-17 10:04:14.80	143.49	33.97	-27.6	-29.4	15.2	0.00e+00	0	43	0	595591168	15	4413
2026-01-17 10:04:15.79	143.41	34.18	-27.6	-29.4	15.3	0.00e+00	0	43	0	598736896	15	4399
2026-01-17 10:04:16.79	143.32	34.39	-27.6	-29.3	15.3	0.00e+00	0	43	0	601882624	15	4379
2026-01-17 10:04:17.80	143.23	34.61	-27.7	-29.6	15.2	0.00e+00	0	43	0	605028352	15	4449
2026-01-17 10:04:18.80	143.14	34.83	-27.8	-29.8	15.0	0.00e+00	0	43	0	608174080	15	4532
2026-01-17 10:04:19.79	143.06	35.05	-28.2	-30.1	14.8	0.00e+00	0	43	0	611319808	16	4492
2026-01-17 10:04:20.80	142.96	35.28	-28.3	-30.4	14.6	7.00e-07	0	43	0	614465536	16	4572
2026-01-17 10:04:21.80	142.87	35.50	-28.4	-30.7	14.4	0.00e+00	0	43	0	617611264	16	4669
2026-01-17 10:04:22.80	142.78	35.72	-28.5	-30.4	14.3	7.00e-07	0	43	0	620756992	17	4475
2026-01-17 10:04:23.81	142.68	35.95	-28.7	-30.7	14.1	7.00e-07	0	43	0	623902720	17	4565
2026-01-17 10:04:24.81	142.59	36.18	-28.7	-30.8	14.1	7.00e-07	0	43	0	627048448	17	4592
2026-01-17 10:04:25.81	142.49	36.41	-28.7	-30.8	14.1	3.00e-06	0	43	0	630194176	17	4577
2026-01-17 10:04:26.81	142.39	36.64	-28.9	-31.4	13.8	3.00e-06	0	43	0	633339904	17	4772
2026-01-17 10:04:27.82	142.29	36.87	-28.8	-30.6	13.9	2.20e-06	0	43	0	636485632	18	4417
2026-01-17 10:04:28.82	142.19	37.11	-28.8	-30.6	14.0	3.80e-06	0	43	0	639631360	18	4408
2026-01-17 10:04:29.82	142.09	37.34	-28.8	-30.6	13.9	1.50e-06	0	43	0	642777088	18	4416
2026-01-17 10:04:30.83	141.98	37.58	-28.9	-30.9	13.8	3.00e-06	0	43	0	645922816	18	4496
2026-01-17 10:04:31.83	141.87	37.82	-29.1	-31.3	13.6	7.60e-06	0	43	0	649068544	18	4618
2026-01-17 10:04:32.83	141.76	38.06	-29.1	-31.3	13.6	7.60e-06	0	43	0	652214272	18	4613
2026-01-17 10:04:33.83	141.66	38.30	-29.2	-31.5	13.4	9.10e-06	0	43	0	655360000	18	4703
2026-01-17 10:04:34.83	141.54	38.55	-29.4	-31.9	13.2	2.21e-05	0	43	0	658505728	18	4836
2026-01-17 10:04:35.84	141.43	38.79	-29.5	-32.2	13.1	2.89e-05	0	43	0	661651456	18	4907
2026-01-17 10:04:36.85	141.31	39.04	-29.4	-31.6	13.1	3.28e-05	0	43	0	664797184	19	4614
2026-01-17 10:04:37.85	141.20	39.29	-29.5	-31.6	13.0	3.12e-05	0	43	0	667942912	19	4632
2026-01-17 10:04:38.85	141.08	39.54	-29.4	-31.6	13.1	2.51e-05	0	43	0	671088640	19	4632
2026-01-17 10:04:39.86	140.96	39.79	-29.6	-32.0	12.8	5.72e-05	0	43	0	673185792	19	4754
2026-01-17 10:04:40.86	140.83	40.05	-29.3	-31.3	13.2	2.89e-05	0	43	0	676331520	19	4529
2026-01-17 10:04:41.85	140.71	40.30	-29.1	-30.9	13.5	8.30e-06	0	43	0	679477248	19	4387
2026-01-17 10:04:42.86	140.58	40.56	-29.1	-30.7	13.6	5.30e-06	0	43	0	682622976	19	4350
2026-01-17 10:04:43.86	140.46	40.82	-29.0	-30.5	13.8	9.90e-06	0	43	0	685768704	19	4269
2026-01-17 10:04:44.86	140.33	41.08	-29.1	-30.8	13.6	8.30e-06	0	43	0	688914432	19	4358
2026-01-17 10:04:45.86	140.19	41.34	-29.1	-30.7	13.7	4.50e-06	0	43	0	692060160	19	4327
2026-01-17 10:04:46.86	140.06	41.60	-29.1	-30.8	13.6	5.30e-06	0	43	0	695205888	19	4362
2026-01-17 10:04:47.87	139.92	41.87	-29.3	-31.3	13.3	6.10e-06	0	43	0	698351616	19	4501
2026-01-17 10:04:48.88	139.78	42.14	-29.4	-31.4	13.2	1.75e-05	0	43	0	701497344	19	4543
2026-01-17 10:04:49.87	139.64	42.40	-29.4	-31.4	13.2	2.59e-05	0	43	0	704643072	19	4557
2026-01-17 10:04:50.87	139.49	42.67	-29.7	-32.2	12.6	7.09e-05	0	43	0	707788800	19	4821
2026-01-17 10:04:51.88	139.34	42.95	-29.5	-31.7	13.0	4.95e-05	0	43	0	710934528	19	4635
2026-01-17 10:04:52.88	139.20	43.22	-29.5	-31.7	13.0	3.12e-05	0	43	0	714080256	19	4629
2026-01-17 10:04:53.88	139.04	43.50	-29.5	-31.7	13.1	2.97e-05	0	43	0	717225984	19	4633
2026-01-17 10:04:54.88	138.89	43.78	-29.4	-31.4	13.2	2.97e-05	0	43	0	720371712	19	4549
2026-01-17 10:04:55.88	138.73	44.05	-29.4	-31.5	13.2	2.05e-05	0	43	0	723517440	19	4591
2026-01-17 10:04:56.89	138.57	44.34	-29.3	-31.3	13.3	1.83e-05	0	43	0	726663168	19	4505
2026-01-17 10:04:57.89	138.41	44.62	-29.4	-31.5	13.2	2.21e-05	0	43	0	729808896	19	4564
2026-01-17 10:04:58.90	138.24	44.91	-29.6	-32.0	12.9	4.11e-05	0	43	0	732954624	19	4738
2026-01-17 10:04:59.90	138.07	45.19	-29.7	-32.2	12.8	5.95e-05	0	43	0	736100352	19	4799
2026-01-17 10:05:00.90	137.90	45.48	-29.5	-31.7	13.1	3.43e-05	0	43	0	739246080	19	4636
2026-01-17 10:05:01.90	137.72	45.77	-29.4	-31.4	13.3	9.90e-06	0	43	0	742391808	19	4525
2026-01-17 10:05:02.90	137.54	46.06	-29.0	-30.5	13.8	5.30e-06	0	43	0	745537536	19	4269
2026-01-17 10:05:03.91	137.36	46.36	-29.0	-30.3	13.9	2.20e-06	0	43	0	748683264	19	4221
2026-01-17 10:05:04.90	137.17	46.65	-29.1	-30.8	13.7	5.30e-06	0	43	0	751828992	19	4342
2026-01-17 10:05:05.91	136.98	46.95	-29.0	-30.4	13.9	8.30e-06	0	43	0	754974720	19	4235
2026-01-17 10:05:06.91	136.79	47.25	-29.1	-30.6	13.7	6.80e-06	0	43	0	758120448	19	4304
2026-01-17 10:05:07.91	136.59	47.55	-28.9	-30.3	14.0	2.20e-06	0	43	0	761266176	19	4224
2026-01-17 10:05:08.91	136.39	47.85	-29.1	-30.7	13.7	3.80e-06	0	43	0	764411904	19	4346
2026-01-17 10:05:09.91	136.18	48.15	-29.0	-30.6	13.8	3.00e-06	0	43	0	767557632	19	4288
2026-01-17 10:05:10.91	135.98	48.46	-28.9	-30.3	14.0	4.50e-06	0	43	0	770703360	19	4202
2026-01-17 10:05:11.92	135.76	48.77	-29.0	-30.5	13.9	1.50e-06	0	43	0	773849088	19	4276
2026-01-17 10:05:12.92	135.54	49.08	-28.8	-30.1	14.1	3.80e-06	0	43	0	776994816	19	4145
2026-01-17 10:05:13.93	135.32	49.39	-28.8	-30.5	14.2	2.20e-06	0	43	0	780140544	18	4387
2026-01-17 10:05:14.93	135.09	49.70	-29.0	-31.0	13.8	3.80e-06	0	43	0	783286272	18	4526
2026-01-17 10:05:15.93	134.86	50.02	-29.0	-31.0	13.8	4.50e-06	0	43	0	786432000	18	4546
2026-01-17 10:05:16.93	134.62	50.33	-29.1	-31.4	13.6	4.50e-06	0	43	0	789577728	18	4644
2026-01-17 10:05:17.93	134.38	50.65	-28.9	-30.7	14.0	6.80e-06	0	43	0	792723456	18	4438
2026-01-17 10:05:18.93	134.13	50.97	-28.6	-30.2	14.3	0.00e+00	0	43	0	795869184	18	4290
2026-01-17 10:05:19.94	133.88	51.29	-28.7	-30.3	14.2	0.00e+00	0	43	0	799014912	18	4336
2026-01-17 10:05:20.94	133.62	51.62	-29.1	-31.3	13.7	6.10e-06	0	43	0	802160640	18	4623
2026-01-17 10:05:21.94	133.36	51.94	-29.4	-32.0	13.2	1.52e-05	0	43	0	805306368	18	4850
2026-01-17 10:05:22.94	133.09	52.26	-29.3	-31.9	13.3	1.75e-05	0	43	0	808452096	18	4812
2026-01-17 10:05:23.94	132.81	52.59	-29.2	-31.4	13.6	9.90e-06	0	43	0	811597824	18	4671
2026-01-17 10:05:24.94	132.53	52.92	-29.2	-31.4	13.6	8.30e-06	0	43	0	814743552	18	4652
2026-01-17 10:05:25.95	132.24	53.25	-29.3	-31.7	13.5	7.60e-06	0	43	0	817889280	18	4738
2026-01-17 10:05:26.95	131.95	53.58	-28.9	-30.8	14.1	1.50e-06	0	43	0	821035008	18	4455
2026-01-17 10:05:27.95	131.64	53.91	-29.2	-31.4	13.6	7.60e-06	0	43	0	824180736	18	4639
2026-01-17 10:05:28.94	131.34	54.24	-29.0	-30.9	13.9	3.00e-06	0	43	0	827326464	18	4496
2026-01-17 10:05:29.95	131.02	54.58	-28.6	-30.0	14.5	7.00e-07	0	43	0	830472192	18	4237
2026-01-17 10:05:30.95	130.69	54.92	-28.5	-29.7	14.6	0.00e+00	0	43	0	833617920	18	4144
2026-01-17 10:05:31.95	130.36	55.25	-28.4	-29.5	14.8	0.00e+00	0	43	0	836763648	18	4087
2026-01-17 10:05:32.96	130.02	55.60	-28.2	-29.6	15.0	0.00e+00	0	43	0	839909376	17	4229
2026-01-17 10:05:33.96	129.67	55.94	-27.9	-28.9	15.4	0.00e+00	0	43	0	843055104	17	4042
2026-01-17 10:05:34.96	129.31	56.28	-27.4	-28.2	16.0	0.00e+00	0	43	0	846200832	16	3962
2026-01-17 10:05:35.95	128.95	56.61	-27.1	-28.1	16.1	0.00e+00	0	43	0	849346560	15	4054
2026-01-17 10:05:36.95	128.58	56.96	-27.1	-28.2	16.1	0.00e+00	0	43	0	852492288	15	4080
2026-01-17 10:05:37.96	128.19	57.30	-27.2	-28.3	16.1	0.00e+00	0	43	0	855638016	15	4107
2026-01-17 10:05:38.97	127.79	57.65	-27.2	-28.2	16.1	0.00e+00	0	43	0	858783744	15	4073
2026-01-17 10:05:39.97	127.39	57.99	-27.4	-28.7	15.9	0.00e+00	0	43	0	861929472	15	4209
2026-01-17 10:05:40.98	126.97	58.34	-27.1	-28.2	16.2	0.00e+00	0	43	0	865075200	15	4069
2026-01-17 10:05:41.97	126.54	58.69	-26.9	-27.6	16.5	0.00e+00	0	43	0	868220928	15	3911
2026-01-17 10:05:42.98	126.10	59.04	-26.9	-27.6	16.4	3.80e-06	0	43	0	871366656	15	3920
2026-01-17 10:05:43.98	125.65	59.38	-27.0	-27.9	16.3	0.00e+00	0	43	0	874512384	15	3989
2026-01-17 10:05:44.97	125.20	59.73	-26.8	-27.6	16.5	0.00e+00	0	43	0	877658112	15	3907
2026-01-17 10:05:45.97	124.72	60.07	-26.8	-27.5	16.5	0.00e+00	0	43	0	879755264	15	3900
2026-01-17 10:05:46.98	124.23	60.42	-27.1	-28.1	16.2	0.00e+00	0	43	0	883949568	15	4052
2026-01-17 10:05:47.99	123.72	60.77	-27.3	-28.5	16.0	0.00e+00	0	43	0	887095296	15	4155
2026-01-17 10:05:48.99	123.21	61.12	-26.8	-27.4	16.6	3.80e-06	0	43	0	890241024	15	3882
2026-01-17 10:05:49.99	122.68	61.47	-26.5	-27.3	16.9	0.00e+00	0	43	0	893386752	14	3944
2026-01-17 10:05:50.99	122.13	61.81	-26.3	-26.9	17.2	0.00e+00	0	43	0	896532480	14	3839
2026-01-17 10:05:52.00	121.57	62.16	-26.5	-27.7	16.9	7.00e-07	0	43	0	899678208	13	4162
2026-01-17 10:05:53.00	120.99	62.51	-26.3	-27.4	17.1	0.00e+00	0	43	0	901775360	13	4069
2026-01-17 10:05:54.01	120.39	62.86	-26.6	-27.9	16.8	0.00e+00	0	43	0	904921088	13	4220
2026-01-17 10:05:55.01	119.78	63.20	-26.3	-27.4	17.2	7.00e-07	0	43	0	908066816	13	4075
2026-01-17 10:05:56.01	119.15	63.54	-25.9	-26.5	17.6	0.00e+00	0	43	0	911212544	13	3853
2026-01-17 10:05:57.02	118.50	63.89	-25.9	-26.5	17.6	0.00e+00	0	43	0	914358272	13	3856
2026-01-17 10:05:58.02	117.83	64.23	-26.0	-26.8	17.5	0.00e+00	0	43	0	917504000	13	3917
2026-01-17 10:05:59.02	117.14	64.56	-25.9	-26.6	17.6	0.00e+00	0	43	0	920649728	13	3877
2026-01-17 10:06:00.02	116.44	64.90	-26.0	-26.7	17.5	0.00e+00	0	43	0	923795456	13	3908
2026-01-17 10:06:01.02	115.71	65.23	-26.0	-26.6	17.5	0.00e+00	0	43	0	926941184	13	3894
2026-01-17 10:06:02.02	114.95	65.56	-25.9	-26.5	17.6	0.00e+00	0	43	0	930086912	13	3867
2026-01-17 10:06:03.03	114.17	65.90	-25.9	-26.5	17.6	0.00e+00	0	43	0	933232640	13	3864
2026-01-17 10:06:04.03	113.37	66.22	-25.7	-26.6	17.9	0.00e+00	0	43	0	936378368	12	3969
2026-01-17 10:06:05.03	112.55	66.54	-25.8	-26.8	17.8	0.00e+00	0	43	0	939524096	12	4020
2026-01-17 10:06:06.03	111.70	66.86	-25.9	-27.1	17.6	0.00e+00	0	43	0	942669824	12	4100
2026-01-17 10:06:07.04	110.82	67.18	-26.1	-27.4	17.4	0.00e+00	0	43	0	945815552	12	4183
2026-01-17 10:06:08.04	109.92	67.49	-26.2	-27.7	17.3	0.00e+00	0	43	0	948961280	12	4255
2026-01-17 10:06:09.04	108.99	67.80	-25.8	-26.9	17.7	0.00e+00	0	43	0	952107008	12	4040
2026-01-17 10:06:10.04	108.04	68.11	-25.7	-26.6	17.9	7.00e-07	0	43	0	955252736	12	3969
2026-01-17 10:06:11.05	107.04	68.41	-26.2	-27.6	17.4	0.00e+00	0	43	0	958398464	12	4227
2026-01-17 10:06:12.05	106.03	68.70	-25.9	-27.0	17.6	0.00e+00	0	43	0	961544192	12	4095
2026-01-17 10:06:13.06	104.97	68.99	-25.9	-26.9	17.7	0.00e+00	0	43	0	964689920	12	4059
2026-01-17 10:06:14.06	103.89	69.27	-26.0	-27.3	17.5	0.00e+00	0	43	0	967835648	12	4148
2026-01-17 10:06:15.06	102.78	69.55	-26.0	-27.2	17.5	0.00e+00	0	43	0	970981376	12	4130
2026-01-17 10:06:16.06	101.64	69.82	-26.0	-27.2	17.5	0.00e+00	0	43	0	974127104	12	4132
2026-01-17 10:06:17.06	100.47	70.08	-26.2	-27.6	17.3	0.00e+00	0	43	0	977272832	12	4249
2026-01-17 10:06:18.06	99.26	70.34	-26.4	-28.1	17.1	0.00e+00	0	43	0	980418560	12	4388
2026-01-17 10:06:19.06	98.02	70.58	-26.4	-28.1	17.1	0.00e+00	0	43	0	983564288	12	4364
2026-01-17 10:06:20.06	96.75	70.82	-26.5	-27.9	16.9	0.00e+00	0	43	0	986710016	13	4208
2026-01-17 10:06:21.06	95.44	71.05	-26.3	-27.4	17.2	0.00e+00	0	43	0	989855744	13	4066
2026-01-17 10:06:22.06	94.10	71.27	-26.4	-27.5	17.1	0.00e+00	0	43	0	993001472	13	4119
2026-01-17 10:06:23.06	92.72	71.48	-26.1	-26.9	17.4	0.00e+00	0	43	0	996147200	13	3951
2026-01-17 10:06:24.06	91.32	71.69	-26.3	-27.3	17.3	0.00e+00	0	43	0	999292928	13	4046
2026-01-17 10:06:25.06	89.88	71.88	-27.0	-28.5	16.4	0.00e+00	0	43	0	1002438656	14	4255
2026-01-17 10:06:26.07	88.39	72.06	-27.1	-28.7	16.2	0.00e+00	0	43	0	1005584384	14	4298
2026-01-17 10:06:27.08	86.87	72.23	-27.5	-29.1	15.8	0.00e+00	0	43	0	1008730112	15	4303
2026-01-17 10:06:28.08	85.34	72.39	-26.9	-27.7	16.5	0.00e+00	0	43	0	1011875840	15	3947
2026-01-17 10:06:29.09	83.77	72.53	-26.6	-27.4	16.9	0.00e+00	0	43	0	1015021568	14	3969
2026-01-17 10:06:30.08	82.20	72.67	-26.4	-27.0	17.2	0.00e+00	0	43	0	1018167296	14	3871
2026-01-17 10:06:31.08	80.58	72.79	-26.5	-27.3	17.0	0.00e+00	0	43	0	1021313024	14	3948
2026-01-17 10:06:32.09	78.93	72.89	-26.2	-27.1	17.3	0.00e+00	0	43	0	1024458752	13	4002
2026-01-17 10:06:33.09	77.28	72.99	-26.1	-26.9	17.4	0.00e+00	0	43	0	1027604480	13	3941
2026-01-17 10:06:34.10	75.59	73.07	-25.7	-26.6	17.9	0.00e+00	0	43	0	1030750208	12	3969
2026-01-17 10:06:35.09	73.92	73.13	-25.8	-26.7	17.8	0.00e+00	0	43	0	1033895936	12	4005
2026-01-17 10:06:36.10	72.21	73.19	-26.5	-27.8	17.0	0.00e+00	0	43	0	1037041664	13	4170
2026-01-17 10:06:37.09	70.51	73.22	-26.6	-28.0	16.8	0.00e+00	0	43	0	1040187392	13	4228
2026-01-17 10:06:38.10	68.78	73.25	-26.7	-28.2	16.7	0.00e+00	0	43	0	1043333120	13	4274
2026-01-17 10:06:39.09	67.08	73.26	-26.3	-27.3	17.2	0.00e+00	0	43	0	1046478848	13	4051
2026-01-17 10:06:40.10	65.34	73.25	-26.2	-27.2	17.3	0.00e+00	0	43	0	1049624576	13	4013
2026-01-17 10:06:41.10	63.63	73.23	-26.2	-27.1	17.3	0.00e+00	0	43	0	1052770304	13	3988
2026-01-17 10:06:42.11	61.90	73.20	-26.2	-27.2	17.3	0.00e+00	0	43	0	1055916032	13	4022
2026-01-17 10:06:43.11	60.20	73.15	-26.1	-26.8	17.5	0.00e+00	0	43	0	1059061760	13	3922
2026-01-17 10:06:44.11	58.51	73.09	-25.8	-26.8	17.8	0.00e+00	0	43	0	1062207488	12	4021
2026-01-17 10:06:45.12	56.82	73.01	-25.7	-26.5	17.9	0.00e+00	0	43	0	1065353216	12	3954
2026-01-17 10:06:46.13	55.14	72.92	-26.0	-27.1	17.6	0.00e+00	0	43	0	1068498944	12	4106
2026-01-17 10:06:47.13	53.50	72.81	-26.2	-27.6	17.4	0.00e+00	0	43	0	1071644672	12	4229
2026-01-17 10:06:48.13	51.89	72.70	-26.3	-27.8	17.2	0.00e+00	0	43	0	1074790400	12	4294
2026-01-17 10:06:49.14	50.28	72.56	-26.1	-27.4	17.5	0.00e+00	0	43	0	1077936128	12	4192
2026-01-17 10:06:50.13	48.73	72.42	-26.0	-27.1	17.6	0.00e+00	0	43	0	1081081856	12	4097
2026-01-17 10:06:51.14	47.18	72.27	-25.7	-26.5	17.9	0.00e+00	0	43	0	1084227584	12	3959
2026-01-17 10:06:52.13	45.68	72.10	-26.0	-27.1	17.6	0.00e+00	0	43	0	1087373312	12	4096
2026-01-17 10:06:53.14	44.19	71.92	-26.0	-27.2	17.6	0.00e+00	0	43	0	1090519040	12	4129
2026-01-17 10:06:54.14	42.74	71.74	-26.5	-27.8	17.0	0.00e+00	0	43	0	1093664768	13	4182
2026-01-17 10:06:55.15	41.32	71.54	-26.4	-27.6	17.1	0.00e+00	0	43	0	1096810496	13	4116
2026-01-17 10:06:56.15	39.93	71.33	-26.5	-27.7	17.0	0.00e+00	0	43	0	1099956224	13	4150
2026-01-17 10:06:57.15	38.59	71.11	-26.4	-27.5	17.1	0.00e+00	0	43	0	1103101952	13	4097
2026-01-17 10:06:58.16	37.26	70.88	-26.5	-27.8	16.9	0.00e+00	0	43	0	1106247680	13	4191
2026-01-17 10:06:59.15	35.99	70.64	-26.5	-27.7	16.9	0.00e+00	0	43	0	1109393408	13	4162
2026-01-17 10:07:00.15	34.74	70.40	-26.6	-28.0	16.9	0.00e+00	0	43	0	1112539136	13	4234
2026-01-17 10:07:01.15	33.53	70.15	-26.9	-28.7	16.5	0.00e+00	0	43	0	1115684864	13	4413
2026-01-17 10:07:02.15	32.35	69.89	-26.1	-26.9	17.4	0.00e+00	0	43	0	1118830592	13	3941
2026-01-17 10:07:03.15	31.20	69.62	-25.5	-26.1	18.1	0.00e+00	0	43	0	1121976320	12	3867
2026-01-17 10:07:04.15	30.08	69.35	-25.4	-26.4	18.3	0.00e+00	0	43	0	1125122048	11	4023
2026-01-17 10:07:05.16	28.99	69.06	-26.1	-27.3	17.4	0.00e+00	0	43	0	1128267776	12	4167
2026-01-17 10:07:06.16	27.94	68.78	-26.5	-27.7	17.0	0.00e+00	0	43	0	1131413504	13	4166
2026-01-17 10:07:07.17	26.91	68.48	-26.3	-27.3	17.2	0.00e+00	0	43	0	1133510656	13	4054
2026-01-17 10:07:08.16	25.92	68.19	-25.9	-26.5	17.6	0.00e+00	0	43	0	1136656384	13	3853
2026-01-17 10:07:09.17	24.95	67.88	-26.1	-27.0	17.3	0.00e+00	0	43	0	1139802112	13	3976
2026-01-17 10:07:10.17	24.02	67.58	-25.9	-26.5	17.6	0.00e+00	0	43	0	1142947840	13	3847
2026-01-17 10:07:11.17	23.11	67.27	-25.8	-26.8	17.6	0.00e+00	0	43	0	1146093568	12	4035
2026-01-17 10:07:12.18	22.22	66.95	-26.4	-28.1	17.0	0.00e+00	0	43	0	1150287872	12	4369
2026-01-17 10:07:13.18	21.37	66.63	-26.5	-27.9	16.9	0.00e+00	0	43	0	1153433600	13	4194
2026-01-17 10:07:14.19	20.53	66.31	-26.4	-27.6	17.0	0.00e+00	0	43	0	1155530752	13	4124
2026-01-17 10:07:15.19	19.73	65.98	-25.9	-26.9	17.6	0.00e+00	0	43	0	1158676480	12	4046
2026-01-17 10:07:16.18	18.96	65.66	-26.1	-27.4	17.4	0.00e+00	0	43	0	1161822208	12	4183
2026-01-17 10:07:17.19	18.20	65.33	-26.4	-28.1	16.9	0.00e+00	0	43	0	1164967936	12	4370
2026-01-17 10:07:18.20	17.46	64.99	-27.3	-28.9	16.1	3.80e-06	0	43	0	1168113664	14	4376
2026-01-17 10:07:19.19	16.75	64.66	-27.7	-29.5	15.4	0.00e+00	0	43	0	1171259392	15	4416
2026-01-17 10:07:20.20	16.05	64.32	-28.2	-30.2	14.9	0.00e+00	0	43	0	1174405120	16	4496
2026-01-17 10:07:21.20	15.38	63.98	-27.5	-28.6	15.8	0.00e+00	0	43	0	1177550848	16	4063
2026-01-17 10:07:22.20	14.73	63.64	-26.9	-27.8	16.3	0.00e+00	0	43	0	1180696576	15	3968
2026-01-17 10:07:23.21	14.09	63.30	-26.6	-27.5	16.8	0.00e+00	0	43	0	1183842304	14	3998
2026-01-17 10:07:24.21	13.48	62.96	-26.9	-28.2	16.3	0.00e+00	0	43	0	1186988032	14	4180
2026-01-17 10:07:25.20	12.89	62.62	-27.4	-29.4	15.7	0.00e+00	0	43	0	1190133760	14	4504
2026-01-17 10:07:26.20	12.31	62.27	-27.7	-29.5	15.4	0.00e+00	0	43	0	1193279488	15	4441
2026-01-17 10:07:27.20	11.74	61.93	-28.2	-30.1	15.0	0.00e+00	0	43	0	1196425216	16	4462
2026-01-17 10:07:28.21	11.19	61.58	-26.8	-27.4	16.5	0.00e+00	0	43	0	1199570944	15	3858
2026-01-17 10:07:29.21	10.65	61.23	-26.1	-27.0	17.2	0.00e+00	0	43	0	1202716672	13	3975
2026-01-17 10:07:30.21	10.14	60.89	-25.9	-26.5	17.5	0.00e+00	0	43	0	1205862400	13	3845
2026-01-17 10:07:31.21	9.63	60.54	-26.1	-26.9	17.3	0.00e+00	0	43	0	1209008128	13	3944
2026-01-17 10:07:32.21	9.14	60.20	-26.9	-28.7	16.3	0.00e+00	0	43	0	1212153856	13	4435
2026-01-17 10:07:33.22	8.66	59.85	-27.5	-29.6	15.6	0.00e+00	0	43	0	1215299584	14	4584
2026-01-17 10:07:34.22	8.20	59.50	-27.6	-29.2	15.5	0.00e+00	0	43	0	1218445312	15	4347
2026-01-17 10:07:35.22	7.74	59.15	-27.1	-28.0	16.2	0.00e+00	0	43	0	1221591040	15	4029
2026-01-17 10:07:36.22	7.30	58.81	-26.7	-27.7	16.5	0.00e+00	0	43	0	1224736768	14	4057
2026-01-17 10:07:37.22	6.87	58.46	-26.4	-27.1	17.0	0.00e+00	0	43	0	1227882496	14	3881
2026-01-17 10:07:38.22	6.46	58.12	-26.1	-26.9	17.3	0.00e+00	0	43	0	1231028224	13	3960
2026-01-17 10:07:39.23	6.05	57.77	-26.5	-27.7	16.8	0.00e+00	0	43	0	1234173952	13	4170
2026-01-17 10:07:40.23	5.65	57.43	-26.6	-28.1	16.7	0.00e+00	0	43	0	1237319680	13	4267
2026-01-17 10:07:41.23	5.26	57.09	-26.8	-28.4	16.5	0.00e+00	0	43	0	1240465408	13	4347
2026-01-17 10:07:42.24	4.88	56.74	-27.1	-28.7	16.1	0.00e+00	0	43	0	1243611136	14	4309
2026-01-17 10:07:43.24	4.51	56.40	-27.6	-29.4	15.3	0.00e+00	0	43	0	1246756864	15	4390
2026-01-17 10:07:44.24	4.16	56.06	-27.7	-29.4	15.2	7.00e-07	0	43	0	1249902592	15	4408
2026-01-17 10:07:45.24	3.81	55.72	-27.1	-28.1	16.0	0.00e+00	0	43	0	1253048320	15	4035
2026-01-17 10:07:46.24	3.46	55.39	-26.7	-27.7	16.5	0.00e+00	0	43	0	1256194048	14	4041
2026-01-17 10:07:47.25	3.13	55.05	-26.9	-28.3	16.3	0.00e+00	0	43	0	1259339776	14	4194
2026-01-17 10:07:48.25	2.80	54.71	-27.2	-28.7	15.9	0.00e+00	0	43	0	1262485504	14	4324
2026-01-17 10:07:49.25	2.48	54.38	-27.9	-30.0	15.0	0.00e+00	0	43	0	1265631232	15	4566
2026-01-17 10:07:50.26	2.17	54.04	-29.0	-31.1	13.7	5.30e-06	0	43	0	1268776960	18	4557
2026-01-17 10:07:51.26	1.87	53.71	-29.0	-31.0	13.8	3.80e-06	0	43	0	1271922688	18	4532
2026-01-17 10:07:52.26	1.57	53.38	-28.8	-30.4	14.2	1.50e-06	0	43	0	1275068416	18	4357
2026-01-17 10:07:53.26	1.28	53.05	-29.0	-30.9	13.9	3.80e-06	0	43	0	1278214144	18	4481
2026-01-17 10:07:54.26	1.00	52.72	-29.2	-31.4	13.5	9.10e-06	0	43	0	1281359872	18	4648
2026-01-17 10:07:55.25	0.73	52.40	-28.5	-29.8	14.5	7.00e-07	0	43	0	1284505600	18	4164
2026-01-17 10:07:56.26	0.45	52.07	-28.0	-29.1	15.2	0.00e+00	0	43	0	1287651328	17	4075
2026-01-17 10:07:57.26	0.19	51.75	-27.7	-28.9	15.6	0.00e+00	0	43	0	1290797056	16	4132
2026-01-17 10:07:58.27	359.93	51.43	-27.8	-29.0	15.5	0.00e+00	0	43	0	1293942784	16	4168
2026-01-17 10:07:59.27	359.67	51.11	-27.8	-29.2	15.4	0.00e+00	0	43	0	1297088512	16	4202
2026-01-17 10:08:00.28	359.42	50.79	-28.8	-30.9	14.1	7.00e-07	0	43	0	1300234240	17	4601
2026-01-17 10:08:01.28	359.18	50.47	-30.0	-32.4	12.3	3.50e-05	0	43	0	1303379968	20	4762
2026-01-17 10:08:02.28	358.94	50.15	-30.7	-34.0	10.9	1.98e-03	0	43	0	1306525696	21	5237
2026-01-17 10:08:03.29	358.71	49.84	-30.6	-33.6	11.1	1.57e-03	0	43	0	1309671424	21	5085
2026-01-17 10:08:04.29	358.48	49.53	-30.2	-32.5	11.8	5.26e-04	0	43	0	1312817152	21	4701
2026-01-17 10:08:05.29	358.26	49.22	-30.3	-32.7	11.7	5.36e-04	0	43	0	1315962880	21	4756
2026-01-17 10:08:06.29	358.04	48.91	-30.4	-33.0	11.6	1.25e-03	0	43	0	1319108608	21	4859
2026-01-17 10:08:07.30	357.82	48.60	-30.2	-32.4	11.9	2.65e-04	0	43	0	1322254336	21	4667
2026-01-17 10:08:08.30	357.61	48.29	-30.4	-33.1	11.5	7.94e-04	0	43	0	1325400064	21	4893
2026-01-17 10:08:09.30	357.41	47.99	-30.4	-33.0	11.5	6.13e-04	0	43	0	1328545792	21	4865
2026-01-17 10:08:10.30	357.21	47.69	-30.3	-32.9	11.6	6.93e-04	0	43	0	1331691520	21	4807
2026-01-17 10:08:11.30	357.01	47.39	-30.4	-32.9	11.6	9.01e-04	0	43	0	1334837248	21	4818
2026-01-17 10:08:12.30	356.81	47.09	-30.2	-32.5	11.8	4.92e-04	0	43	0	1337982976	21	4701
2026-01-17 10:08:13.31	356.62	46.79	-30.4	-33.0	11.5	5.45e-04	0	43	0	1341128704	21	4858
2026-01-17 10:08:14.31	356.44	46.50	-31.1	-34.3	10.4	2.93e-03	0	43	0	1344274432	22	5254
2026-01-17 10:08:15.31	356.25	46.21	-31.6	-35.3	9.3	2.04e-02	0	43	0	1347420160	23	5535
2026-01-17 10:08:16.31	356.07	45.92	-31.3	-34.6	9.8	1.04e-02	0	43	0	1350565888	23	5246
2026-01-17 10:08:17.31	355.90	45.63	-30.8	-33.1	10.7	5.94e-03	0	43	0	1353711616	23	4705
2026-01-17 10:08:18.31	355.72	45.34	-30.1	-32.3	11.8	7.87e-04	0	43	0	1356857344	21	4629
2026-01-17 10:08:19.32	355.55	45.05	-29.5	-31.3	12.8	9.84e-05	0	43	0	1360003072	20	4401
2026-01-17 10:08:20.32	355.39	44.77	-29.0	-30.6	13.7	9.90e-06	0	43	0	1362100224	19	4285
2026-01-17 10:08:21.32	355.22	44.49	-28.8	-30.0	14.0	3.80e-06	0	43	0	1365245952	19	4128
2026-01-17 10:08:22.32	355.06	44.21	-29.1	-30.7	13.6	3.00e-06	0	43	0	1369440256	19	4341
2026-01-17 10:08:23.33	354.90	43.92	-29.6	-31.9	12.9	2.89e-05	0	43	0	1372585984	19	4710
2026-01-17 10:08:24.33	354.75	43.65	-29.8	-32.4	12.6	8.54e-05	0	43	0	1375731712	19	4874
2026-01-17 10:08:25.33	354.59	43.37	-29.6	-31.9	12.9	7.24e-05	0	43	0	1378877440	19	4702
2026-01-17 10:08:26.33	354.44	43.10	-29.3	-31.1	13.4	1.60e-05	0	43	0	1382023168	19	4445
2026-01-17 10:08:27.33	354.30	42.83	-29.0	-30.5	13.7	1.06e-05	0	43	0	1384120320	19	4268
2026-01-17 10:08:28.34	354.15	42.56	-29.0	-30.5	13.7	5.30e-06	0	43	0	1387266048	19	4272
2026-01-17 10:08:29.33	354.01	42.29	-29.1	-30.8	13.5	7.60e-06	0	43	0	1390411776	19	4371
2026-01-17 10:08:30.33	353.87	42.02	-29.4	-31.4	13.2	2.13e-05	0	43	0	1393557504	19	4553
2026-01-17 10:08:31.34	353.73	41.76	-29.5	-31.8	12.9	2.51e-05	0	43	0	1396703232	19	4681
2026-01-17 10:08:32.34	353.60	41.49	-29.8	-32.5	12.5	9.38e-05	0	43	0	1399848960	19	4918
2026-01-17 10:08:33.34	353.46	41.23	-29.9	-32.9	12.3	2.02e-04	0	43	0	1402994688	19	5044
2026-01-17 10:08:34.35	353.33	40.97	-29.8	-32.4	12.5	1.11e-04	0	43	0	1406140416	19	4887
2026-01-17 10:08:35.35	353.20	40.71	-29.6	-32.0	12.8	6.86e-05	0	43	0	1409286144	19	4727
2026-01-17 10:08:36.35	353.08	40.46	-29.5	-31.6	13.0	4.27e-05	0	43	0	1412431872	19	4626
2026-01-17 10:08:37.35	352.95	40.20	-29.3	-31.3	13.2	3.50e-05	0	43	0	1415577600	19	4525
2026-01-17 10:08:38.35	352.83	39.95	-29.3	-31.2	13.2	2.97e-05	0	43	0	1418723328	19	4497
2026-01-17 10:08:39.36	352.71	39.70	-29.0	-30.6	13.6	9.10e-06	0	43	0	1421869056	19	4308
2026-01-17 10:08:40.36	352.59	39.45	-29.1	-30.8	13.5	9.10e-06	0	43	0	1425014784	19	4363
2026-01-17 10:08:41.36	352.47	39.20	-29.3	-31.2	13.2	1.14e-05	0	43	0	1428160512	19	4490
2026-01-17 10:08:42.37	352.36	38.95	-29.5	-31.6	12.9	4.11e-05	0	43	0	1431306240	19	4622
2026-01-17 10:08:43.38	352.24	38.70	-29.5	-31.8	12.8	4.65e-05	0	43	0	1434451968	19	4685
2026-01-17 10:08:44.38	352.13	38.46	-29.5	-31.8	12.8	5.87e-05	0	43	0	1437597696	19	4687
2026-01-17 10:08:45.37	352.02	38.22	-29.4	-31.5	13.0	3.96e-05	0	43	0	1440743424	19	4596
2026-01-17 10:08:46.37	351.91	37.98	-29.3	-31.2	13.3	1.90e-05	0	43	0	1443889152	19	4490
2026-01-17 10:08:47.37	351.81	37.75	-29.2	-31.0	13.4	1.75e-05	0	43	0	1447034880	19	4418
2026-01-17 10:08:48.37	351.70	37.51	-29.1	-30.8	13.5	1.52e-05	0	43	0	1450180608	19	4377
2026-01-17 10:08:49.38	351.60	37.27	-29.0	-30.6	13.6	1.83e-05	0	43	0	1453326336	19	4321
2026-01-17 10:08:50.38	351.50	37.04	-28.9	-30.3	13.7	9.10e-06	0	43	0	1456472064	19	4231
2026-01-17 10:08:51.38	351.40	36.81	-28.8	-30.5	13.9	4.50e-06	0	43	0	1459617792	18	4400
2026-01-17 10:08:52.39	351.30	36.57	-28.7	-30.4	14.0	2.20e-06	0	43	0	1462763520	18	4362
2026-01-17 10:08:53.39	351.20	36.34	-28.3	-29.5	14.5	0.00e+00	0	43	0	1465909248	18	4092
2026-01-17 10:08:54.39	351.10	36.12	-28.2	-29.6	14.7	7.00e-07	0	43	0	1469054976	17	4236
2026-01-17 10:08:55.39	351.01	35.89	-28.3	-29.8	14.7	0.00e+00	0	43	0	1472200704	17	4286
2026-01-17 10:08:56.39	350.92	35.67	-28.2	-29.8	14.6	0.00e+00	0	43	0	1475346432	17	4281
2026-01-17 10:08:57.39	350.82	35.44	-28.1	-29.4	14.8	0.00e+00	0	43	0	1478492160	17	4192
2026-01-17 10:08:58.40	350.73	35.22	-28.2	-29.6	14.7	0.00e+00	0	43	0	1481637888	17	4242
2026-01-17 10:08:59.40	350.64	35.00	-28.4	-30.1	14.4	7.00e-07	0	43	0	1484783616	17	4374
2026-01-17 10:09:00.40	350.56	34.78	-28.6	-30.5	14.2	0.00e+00	0	43	0	1487929344	17	4488
2026-01-17 10:09:01.40	350.47	34.57	-28.7	-30.7	14.1	0.00e+00	0	43	0	1491075072	17	4563
2026-01-17 10:09:02.39	350.38	34.35	-28.5	-30.4	14.3	3.80e-06	0	43	0	1494220800	17	4462
2026-01-17 10:09:03.40	350.30	34.14	-28.4	-30.1	14.4	0.00e+00	0	43	0	1497366528	17	4391
2026-01-17 10:09:04.40	350.22	33.92	-28.3	-30.0	14.5	0.00e+00	0	43	0	1500512256	17	4349
2026-01-17 10:09:05.40	350.13	33.71	-28.5	-30.3	14.4	7.00e-07	0	43	0	1503657984	17	4426
2026-01-17 10:09:06.39	350.05	33.50	-28.4	-30.2	14.4	7.00e-07	0	43	0	1506803712	17	4417
2026-01-17 10:09:07.39	349.97	33.30	-28.4	-30.2	14.4	0.00e+00	0	43	0	1509949440	17	4421
2026-01-17 10:09:08.39	349.89	33.09	-28.5	-30.4	14.3	1.50e-06	0	43	0	1513095168	17	4486
2026-01-17 10:09:09.39	349.82	32.88	-28.5	-30.4	14.3	3.00e-06	0	43	0	1516240896	17	4472
2026-01-17 10:09:10.40	349.74	32.68	-28.5	-30.3	14.3	1.50e-06	0	43	0	1519386624	17	4435
2026-01-17 10:09:11.40	349.66	32.47	-28.3	-30.0	14.4	1.50e-06	0	43	0	1522532352	17	4353
2026-01-17 10:09:12.41	349.59	32.27	-28.3	-29.8	14.6	1.50e-06	0	43	0	1525678080	17	4309
2026-01-17 10:09:13.41	349.51	32.07	-28.3	-29.9	14.5	0.00e+00	0	43	0	1528823808	17	4316
2026-01-17 10:09:14.41	349.44	31.87	-28.1	-29.5	14.7	0.00e+00	0	43	0	1531969536	17	4215
2026-01-17 10:09:15.42	349.37	31.67	-28.0	-29.2	14.9	0.00e+00	0	43	0	1535115264	17	4134
2026-01-17 10:09:16.43	349.30	31.47	-27.9	-28.9	15.1	7.00e-07	0	43	0	1538260992	17	4047
2026-01-17 10:09:17.43	349.23	31.28	-27.5	-28.6	15.5	0.00e+00	0	43	0	1541406720	16	4080
2026-01-17 10:09:18.43	349.16	31.08	-27.4	-28.4	15.6	0.00e+00	0	43	0	1544552448	16	4022
2026-01-17 10:09:19.44	349.09	30.89	-27.3	-28.1	15.8	0.00e+00	0	43	0	1547698176	16	3959
2026-01-17 10:09:20.44	349.02	30.69	-27.5	-28.4	15.6	0.00e+00	0	43	0	1550843904	16	4032
2026-01-17 10:09:21.44	348.95	30.50	-27.3	-28.2	15.7	0.00e+00	0	43	0	1553989632	16	3959
2026-01-17 10:09:22.43	348.89	30.32	-27.1	-28.2	15.8	7.00e-07	0	43	0	1557135360	15	4084
2026-01-17 10:09:23.44	348.82	30.13	-27.1	-28.1	15.9	0.00e+00	0	43	0	1560281088	15	4065
2026-01-17 10:09:24.44	348.76	29.94	-26.9	-27.7	16.1	0.00e+00	0	43	0	1563426816	15	3956
2026-01-17 10:09:25.44	348.69	29.75	-26.9	-27.7	16.1	0.00e+00	0	43	0	1566572544	15	3938
2026-01-17 10:09:26.44	348.63	29.57	-26.9	-27.8	16.1	0.00e+00	0	43	0	1569718272	15	3977
2026-01-17 10:09:27.45	348.57	29.38	-26.8	-28.0	16.2	0.00e+00	0	43	0	1572864000	14	4138
2026-01-17 10:09:28.45	348.51	29.20	-26.8	-27.9	16.3	0.00e+00	0	43	0	1576009728	14	4119
2026-01-17 10:09:29.45	348.45	29.02	-26.6	-27.6	16.4	0.00e+00	0	43	0	1579155456	14	4036
2026-01-17 10:09:30.46	348.39	28.84	-26.5	-27.2	16.6	0.00e+00	0	43	0	1582301184	14	3936
2026-01-17 10:09:31.46	348.33	28.66	-26.5	-27.3	16.6	0.00e+00	0	43	0	1585446912	14	3951
2026-01-17 10:09:32.46	348.27	28.48	-26.6	-27.5	16.4	0.00e+00	0	43	0	1588592640	14	4007
2026-01-17 10:09:33.46	348.21	28.31	-26.7	-27.8	16.3	0.00e+00	0	43	0	1590689792	14	4072
2026-01-17 10:09:34.47	348.15	28.13	-26.7	-27.9	16.3	0.00e+00	0	43	0	1593835520	14	4102
2026-01-17 10:09:35.47	348.10	27.95	-26.8	-28.1	16.1	0.00e+00	0	43	0	1596981248	14	4152
2026-01-17 10:09:36.47	348.04	27.78	-26.9	-28.3	16.0	0.00e+00	0	43	0	1600126976	14	4213
2026-01-17 10:09:37.47	347.99	27.61	-26.9	-28.3	16.0	0.00e+00	0	43	0	1604321280	14	4222
2026-01-17 10:09:38.47	347.93	27.44	-27.1	-28.7	15.8	0.00e+00	0	43	0	1606418432	14	4318
2026-01-17 10:09:39.47	347.88	27.27	-27.1	-28.8	15.8	0.00e+00	0	43	0	1610612736	14	4346
2026-01-17 10:09:40.48	347.82	27.10	-27.1	-28.8	15.7	0.00e+00	0	43	0	1612709888	14	4349
2026-01-17 10:09:41.47	347.77	26.93	-27.1	-28.7	15.8	0.00e+00	0	43	0	1615855616	14	4338
2026-01-17 10:09:42.47	347.72	26.76	-27.2	-28.9	15.7	0.00e+00	0	43	0	1619001344	14	4386
2026-01-17 10:09:43.47	347.67	26.60	-27.1	-28.7	15.8	0.00e+00	0	43	0	1622147072	14	4315
2026-01-17 10:09:44.48	347.62	26.43	-27.2	-28.8	15.7	7.00e-07	0	43	0	1625292800	14	4370
2026-01-17 10:09:45.49	347.57	26.26	-27.3	-29.1	15.6	0.00e+00	0	43	0	1628438528	14	4428
2026-01-17 10:09:46.48	347.52	26.10	-27.2	-28.9	15.6	0.00e+00	0	43	0	1631584256	14	4390
2026-01-17 10:09:47.49	347.47	25.94	-27.1	-28.7	15.7	0.00e+00	0	43	0	1634729984	14	4331
2026-01-17 10:09:48.49	347.42	25.78	-27.1	-28.7	15.8	0.00e+00	0	43	0	1637875712	14	4330
2026-01-17 10:09:49.49	347.37	25.62	-27.1	-28.6	15.7	0.00e+00	0	43	0	1641021440	14	4312
2026-01-17 10:09:50.49	347.32	25.46	-26.9	-28.2	16.0	0.00e+00	0	43	0	1644167168	14	4206
2026-01-17 10:09:51.50	347.27	25.30	-26.9	-28.3	16.0	0.00e+00	0	43	0	1647312896	14	4214
2026-01-17 10:09:52.49	347.23	25.14	-27.0	-28.4	15.9	0.00e+00	0	43	0	1650458624	14	4248
2026-01-17 10:09:53.49	347.18	24.98	-26.9	-28.2	15.9	0.00e+00	0	43	0	1653604352	14	4200
2026-01-17 10:09:54.49	347.14	24.83	-26.9	-28.3	15.9	0.00e+00	0	43	0	1656750080	14	4232
2026-01-17 10:09:55.50	347.09	24.67	-27.1	-28.8	15.6	0.00e+00	0	43	0	1659895808	14	4370
2026-01-17 10:09:56.50	347.05	24.52	-27.1	-28.7	15.7	0.00e+00	0	43	0	1663041536	14	4327
2026-01-17 10:09:57.50	347.00	24.36	-27.0	-28.4	15.8	0.00e+00	0	43	0	1666187264	14	4262
2026-01-17 10:09:58.51	346.96	24.21	-27.0	-28.6	15.7	0.00e+00	0	43	0	1669332992	14	4308
2026-01-17 10:09:59.51	346.92	24.06	-27.0	-28.6	15.7	0.00e+00	0	43	0	1672478720	14	4305
2026-01-17 10:10:00.51	346.87	23.91	-27.1	-28.7	15.6	0.00e+00	0	43	0	1675624448	14	4327
2026-01-17 10:10:01.51	346.83	23.76	-27.0	-28.6	15.7	0.00e+00	0	43	0	1678770176	14	4304
2026-01-17 10:10:02.51	346.79	23.61	-27.1	-28.8	15.6	0.00e+00	0	43	0	1681915904	14	4359
2026-01-17 10:10:03.52	346.75	23.46	-27.2	-29.0	15.5	0.00e+00	0	43	0	1685061632	14	4413
2026-01-17 10:10:04.52	346.71	23.31	-27.0	-28.6	15.7	0.00e+00	0	43	0	1688207360	14	4298
2026-01-17 10:10:05.52	346.66	23.17	-27.0	-28.5	15.8	0.00e+00	0	43	0	1691353088	14	4284
2026-01-17 10:10:06.52	346.62	23.02	-27.0	-28.6	15.7	0.00e+00	0	43	0	1694498816	14	4311
2026-01-17 10:10:07.53	346.58	22.88	-27.1	-28.8	15.6	0.00e+00	0	43	0	1697644544	14	4350
2026-01-17 10:10:08.53	346.54	22.73	-27.0	-28.5	15.7	0.00e+00	0	43	0	1700790272	14	4274
2026-01-17 10:10:09.53	346.51	22.59	-27.0	-28.5	15.8	0.00e+00	0	43	0	1703936000	14	4274
2026-01-17 10:10:10.54	346.47	22.44	-26.9	-28.3	15.9	0.00e+00	0	43	0	1707081728	14	4229
2026-01-17 10:10:11.54	346.43	22.30	-26.9	-28.3	15.9	0.00e+00	0	43	0	1710227456	14	4220
2026-01-17 10:10:12.54	346.39	22.16	-26.8	-28.2	15.9	0.00e+00	0	43	0	1713373184	14	4188
2026-01-17 10:10:13.54	346.35	22.02	-27.0	-28.5	15.7	0.00e+00	0	43	0	1716518912	14	4276
2026-01-17 10:10:14.53	346.32	21.88	-27.0	-28.5	15.8	0.00e+00	0	43	0	1719664640	14	4270
2026-01-17 10:10:15.54	346.28	21.74	-26.8	-28.1	16.0	0.00e+00	0	43	0	1722810368	14	4170
2026-01-17 10:10:16.54	346.24	21.61	-26.8	-28.1	16.0	0.00e+00	0	43	0	1725956096	14	4159
2026-01-17 10:10:17.54	346.21	21.47	-26.8	-28.1	16.0	0.00e+00	0	43	0	1729101824	14	4168
2026-01-17 10:10:18.54	346.17	21.33	-26.7	-27.9	16.1	0.00e+00	0	43	0	1732247552	14	4120
2026-01-17 10:10:19.55	346.14	21.20	-26.8	-28.0	16.0	0.00e+00	0	43	0	1735393280	14	4153
2026-01-17 10:10:20.55	346.10	21.06	-26.8	-28.0	16.0	0.00e+00	0	43	0	1738539008	14	4136
2026-01-17 10:10:21.55	346.07	20.93	-26.6	-27.7	16.2	0.00e+00	0	43	0	1741684736	14	4066
2026-01-17 10:10:22.56	346.03	20.79	-26.6	-27.5	16.3	0.00e+00	0	43	0	1744830464	14	4013
2026-01-17 10:10:23.56	346.00	20.66	-26.5	-27.4	16.3	0.00e+00	0	43	0	1747976192	14	3991
2026-01-17 10:10:24.56	345.96	20.53	-26.5	-27.5	16.3	0.00e+00	0	43	0	1751121920	14	4014
2026-01-17 10:10:25.56	345.93	20.40	-26.6	-27.6	16.2	0.00e+00	0	43	0	1754267648	14	4045
2026-01-17 10:10:26.57	345.90	20.26	-26.6	-27.7	16.2	0.00e+00	0	43	0	1757413376	14	4054
2026-01-17 10:10:27.57	345.86	20.13	-26.7	-27.8	16.1	0.00e+00	0	43	0	1760559104	14	4084
2026-01-17 10:10:28.57	345.83	20.00	-26.7	-27.8	16.1	0.00e+00	0	44	0	1763704832	14	4091
2026-01-17 10:10:29.57	345.80	19.88	-26.7	-27.8	16.1	0.00e+00	0	43	0	1766850560	14	4082
2026-01-17 10:10:30.57	345.77	19.75	-26.7	-27.8	16.1	0.00e+00	0	43	0	1769996288	14	4079
2026-01-17 10:10:31.57	345.74	19.62	-26.9	-28.2	15.9	0.00e+00	0	43	0	1773142016	14	4199
2026-01-17 10:10:32.57	345.71	19.49	-27.0	-28.5	15.7	0.00e+00	0	43	0	1776287744	14	4280
2026-01-17 10:10:33.58	345.67	19.37	-26.8	-28.1	15.9	0.00e+00	0	43	0	1779433472	14	4188
2026-01-17 10:10:34.59	345.64	19.24	-26.9	-28.3	15.8	0.00e+00	0	43	0	1782579200	14	4220
2026-01-17 10:10:35.59	345.61	19.11	-26.8	-28.2	15.9	0.00e+00	0	43	0	1785724928	14	4196
2026-01-17 10:10:36.59	345.58	18.99	-26.9	-28.4	15.8	0.00e+00	0	43	0	1788870656	14	4252
2026-01-17 10:10:37.59	345.55	18.87	-26.9	-28.4	15.7	0.00e+00	0	43	0	1792016384	14	4258
2026-01-17 10:10:38.60	345.52	18.74	-27.0	-28.5	15.7	0.00e+00	0	43	0	1795162112	14	4293
2026-01-17 10:10:39.59	345.49	18.62	-27.2	-28.9	15.4	0.00e+00	0	43	0	1798307840	14	4404
2026-01-17 10:10:40.59	345.47	18.50	-27.2	-29.0	15.4	0.00e+00	0	43	0	1801453568	14	4424
2026-01-17 10:10:41.59	345.44	18.38	-27.3	-29.3	15.2	0.00e+00	0	43	0	1804599296	14	4519
2026-01-17 10:10:42.59	345.41	18.26	-27.1	-28.9	15.5	0.00e+00	0	43	0	1807745024	14	4386
2026-01-17 10:10:43.60	345.38	18.14	-27.2	-28.9	15.4	0.00e+00	0	43	0	1810890752	14	4404
2026-01-17 10:10:44.59	345.35	18.02	-27.2	-28.9	15.4	0.00e+00	0	43	0	1814036480	14	4398
2026-01-17 10:10:45.59	345.32	17.90	-27.2	-29.0	15.4	0.00e+00	0	43	0	1817182208	14	4414
2026-01-17 10:10:46.58	345.30	17.78	-27.3	-29.2	15.2	0.00e+00	0	43	0	1819279360	14	4487
2026-01-17 10:10:47.59	345.27	17.66	-27.3	-29.1	15.3	0.00e+00	0	43	0	1822425088	14	4461
2026-01-17 10:10:48.59	345.24	17.54	-27.2	-29.0	15.3	0.00e+00	0	43	0	1825570816	14	4433
2026-01-17 10:10:49.59	345.22	17.43	-27.2	-29.1	15.3	0.00e+00	0	43	0	1828716544	14	4445
2026-01-17 10:10:50.60	345.19	17.31	-27.2	-29.0	15.3	0.00e+00	0	43	0	1831862272	14	4430
2026-01-17 10:10:51.59	345.16	17.20	-27.4	-29.3	15.1	0.00e+00	0	43	0	1835008000	14	4528
2026-01-17 10:10:52.60	345.14	17.08	-27.3	-29.3	15.1	0.00e+00	0	43	0	1838153728	14	4528
2026-01-17 10:10:53.61	345.11	16.96	-27.4	-29.4	15.1	0.00e+00	0	43	0	1841299456	14	4549
2026-01-17 10:10:54.62	345.08	16.85	-27.7	-29.6	14.7	0.00e+00	0	43	0	1844445184	15	4484
2026-01-17 10:10:55.62	345.06	16.74	-27.6	-29.4	14.8	7.00e-07	0	43	0	1847590912	15	4423
2026-01-17 10:10:56.61	345.03	16.62	-27.5	-29.1	15.0	7.00e-07	0	43	0	1850736640	15	4340
2026-01-17 10:10:57.61	345.01	16.51	-27.5	-29.1	14.9	0.00e+00	0	43	0	1853882368	15	4340
2026-01-17 10:10:58.60	344.99	16.40	-27.5	-29.3	14.9	0.00e+00	0	43	0	1857028096	15	4398
2026-01-17 10:10:59.60	344.96	16.29	-27.5	-29.1	14.9	0.00e+00	0	43	0	1860173824	15	4337
2026-01-17 10:11:00.61	344.94	16.18	-27.5	-29.2	14.8	0.00e+00	0	43	0	1863319552	15	4386
2026-01-17 10:11:01.60	344.91	16.07	-27.7	-29.6	14.6	7.00e-07	0	43	0	1866465280	15	4487
2026-01-17 10:11:02.60	344.89	15.96	-27.6	-29.4	14.7	0.00e+00	0	43	0	1869611008	15	4442
2026-01-17 10:11:03.60	344.87	15.85	-27.7	-29.8	14.5	1.50e-06	0	43	0	1872756736	15	4550
2026-01-17 10:11:04.60	344.84	15.74	-27.7	-29.6	14.6	0.00e+00	0	43	0	1875902464	15	4499
2026-01-17 10:11:05.60	344.82	15.63	-27.9	-30.1	14.3	0.00e+00	0	43	0	1879048192	15	4655
2026-01-17 10:11:06.61	344.80	15.52	-27.7	-29.8	14.5	0.00e+00	0	43	0	1882193920	15	4549
2026-01-17 10:11:07.61	344.77	15.41	-27.7	-29.7	14.6	7.00e-07	0	43	0	1885339648	15	4517
2026-01-17 10:11:08.62	344.75	15.31	-27.8	-29.8	14.5	7.00e-07	0	43	0	1888485376	15	4554
2026-01-17 10:11:09.62	344.73	15.20	-27.8	-29.9	14.4	1.50e-06	0	43	0	1891631104	15	4579
2026-01-17 10:11:10.62	344.70	15.09	-27.7	-29.7	14.5	7.00e-07	0	43	0	1894776832	15	4522
2026-01-17 10:11:11.63	344.68	14.99	-27.8	-30.0	14.4	0.00e+00	0	43	0	1897922560	15	4611
2026-01-17 10:11:12.63	344.66	14.88	-27.9	-30.1	14.3	1.50e-06	0	43	0	1901068288	15	4662
2026-01-17 10:11:13.64	344.64	14.77	-27.7	-29.6	14.6	0.00e+00	0	43	0	1904214016	15	4504
2026-01-17 10:11:14.64	344.62	14.67	-27.7	-29.6	14.5	1.50e-06	0	43	0	1907359744	15	4511
2026-01-17 10:11:15.64	344.60	14.57	-27.8	-29.8	14.4	1.50e-06	0	43	0	1910505472	15	4572
2026-01-17 10:11:16.64	344.57	14.46	-27.6	-29.6	14.6	3.00e-06	0	43	0	1913651200	15	4490
2026-01-17 10:11:17.64	344.55	14.36	-27.7	-29.8	14.4	0.00e+00	0	43	0	1916796928	15	4553
2026-01-17 10:11:18.64	344.53	14.26	-27.7	-29.8	14.4	0.00e+00	0	43	0	1919942656	15	4549
2026-01-17 10:11:19.64	344.51	14.16	-27.7	-29.6	14.5	7.00e-07	0	43	0	1923088384	15	4512
2026-01-17 10:11:20.65	344.49	14.05	-27.7	-29.8	14.4	7.00e-07	0	43	0	1926234112	15	4569
2026-01-17 10:11:21.65	344.47	13.95	-27.8	-29.8	14.4	1.50e-06	0	43	0	1929379840	15	4567
2026-01-17 10:11:22.64	344.45	13.85	-27.7	-29.8	14.4	7.00e-07	0	43	0	1932525568	15	4562
2026-01-17 10:11:23.65	344.43	13.75	-27.8	-30.0	14.2	7.00e-07	0	43	0	1935671296	15	4627
2026-01-17 10:11:24.65	344.41	13.65	-27.8	-29.9	14.3	1.50e-06	0	43	0	1938817024	15	4584
2026-01-17 10:11:25.66	344.39	13.55	-27.8	-29.9	14.3	2.20e-06	0	43	0	1941962752	15	4579
2026-01-17 10:11:26.66	344.37	13.45	-27.8	-30.0	14.2	3.80e-06	0	43	0	1945108480	15	4619
2026-01-17 10:11:27.66	344.35	13.35	-27.8	-29.8	14.3	1.50e-06	0	43	0	1948254208	15	4578
2026-01-17 10:11:28.66	344.33	13.25	-27.8	-29.9	14.2	2.20e-06	0	43	0	1951399936	15	4606
2026-01-17 10:11:29.67	344.31	13.15	-27.8	-29.8	14.3	2.20e-06	0	43	0	1954545664	15	4579
2026-01-17 10:11:30.67	344.29	13.06	-27.8	-29.9	14.3	7.00e-07	0	43	0	1957691392	15	4588
2026-01-17 10:11:31.67	344.28	12.96	-27.8	-30.1	14.2	7.00e-07	0	43	0	1960837120	15	4653
2026-01-17 10:11:32.66	344.26	12.86	-28.4	-30.8	13.6	4.50e-06	0	43	0	1963982848	16	4745
2026-01-17 10:11:33.66	344.24	12.77	-28.3	-30.6	13.8	6.80e-06	0	43	0	1967128576	16	4672
2026-01-17 10:11:34.66	344.22	12.67	-28.0	-30.0	14.1	1.50e-06	0	43	0	1970274304	16	4497
2026-01-17 10:11:35.66	344.20	12.57	-28.1	-30.1	14.1	7.00e-07	0	43	0	1973420032	16	4526
2026-01-17 10:11:36.66	344.18	12.48	-28.1	-30.1	14.0	7.60e-06	0	43	0	1976565760	16	4546
2026-01-17 10:11:37.66	344.17	12.38	-28.1	-30.0	14.1	2.20e-06	0	43	0	1979711488	16	4516
2026-01-17 10:11:38.67	344.15	12.29	-28.1	-30.1	14.0	1.50e-06	0	43	0	1982857216	16	4545
2026-01-17 10:11:39.67	344.13	12.19	-28.2	-30.4	13.8	5.30e-06	0	43	0	1986002944	16	4631
2026-01-17 10:11:40.67	344.11	12.10	-28.1	-30.2	13.9	2.20e-06	0	43	0	1989148672	16	4574
2026-01-17 10:11:41.67	344.10	12.01	-27.9	-29.7	14.2	3.00e-06	0	43	0	1992294400	16	4413
2026-01-17 10:11:42.67	344.08	11.91	-28.0	-29.8	14.1	5.30e-06	0	43	0	1995440128	16	4451
2026-01-17 10:11:43.67	344.06	11.82	-28.1	-30.2	13.9	1.50e-06	0	43	0	1998585856	16	4559
2026-01-17 10:11:44.68	344.04	11.73	-28.1	-30.0	14.0	3.80e-06	0	43	0	2001731584	16	4519
2026-01-17 10:11:45.68	344.03	11.63	-28.2	-30.3	13.9	3.00e-06	0	43	0	2004877312	16	4604
2026-01-17 10:11:46.68	344.01	11.54	-28.1	-30.2	14.0	3.80e-06	0	43	0	2008023040	16	4560
2026-01-17 10:11:47.68	343.99	11.45	-28.2	-30.4	13.8	1.50e-06	0	43	0	2011168768	16	4637
2026-01-17 10:11:48.68	343.98	11.36	-28.2	-30.4	13.8	6.80e-06	0	43	0	2014314496	16	4622
2026-01-17 10:11:49.68	343.96	11.27	-28.1	-30.2	13.9	1.50e-06	0	43	0	2017460224	16	4582
2026-01-17 10:11:50.68	343.95	11.18	-28.2	-30.5	13.7	5.30e-06	0	43	0	2020605952	16	4652
2026-01-17 10:11:51.68	343.93	11.09	-28.1	-30.2	13.9	3.00e-06	0	43	0	2022703104	16	4579
2026-01-17 10:11:52.68	343.91	11.00	-28.1	-30.1	13.9	4.50e-06	0	43	0	2025848832	16	4551
2026-01-17 10:11:53.68	343.90	10.91	-28.0	-30.0	14.0	2.20e-06	0	43	0	2028994560	16	4501
2026-01-17 10:11:54.68	343.88	10.82	-28.1	-30.2	13.9	3.00e-06	0	43	0	2032140288	16	4560
2026-01-17 10:11:55.69	343.87	10.73	-28.0	-30.0	14.0	3.80e-06	0	43	0	2035286016	16	4499
2026-01-17 10:11:56.69	343.85	10.64	-28.3	-30.6	13.6	6.10e-06	0	43	0	2038431744	16	4687
2026-01-17 10:11:57.70	343.84	10.55	-28.2	-30.4	13.7	1.14e-05	0	43	0	2041577472	16	4644
2026-01-17 10:11:58.70	343.82	10.46	-28.1	-30.3	13.8	6.80e-06	0	43	0	2044723200	16	4588
2026-01-17 10:11:59.70	343.81	10.38	-28.1	-30.1	13.8	4.50e-06	0	43	0	2047868928	16	4544
2026-01-17 10:12:00.71	343.79	10.29	-28.2	-30.4	13.7	8.30e-06	0	43	0	2051014656	16	4644
2026-01-17 10:12:01.70	343.78	10.20	-28.2	-30.5	13.6	7.60e-06	0	43	0	2054160384	16	4662
2026-01-17 10:12:02.71	343.76	10.11	-28.2	-30.5	13.6	4.50e-06	0	43	0	2057306112	16	4670
2026-01-17 10:12:03.71	343.75	10.03	-28.4	-30.9	13.3	9.90e-06	0	43	0	2060451840	16	4803
