passes_logs/2026/01/17/R2M6_AANII_01/R2M6_AANII_01__20260117_021809_SUOMI_NPP_rec.log

#Pass ID: 20260117_021809_SUOMI NPP
#Satellite: SUOMI NPP
#Configuration: NPP
#almurnet v.1.7.20240730
#Start time: 2026-01-17 02:18:08

#Version: 2.2.20231116
#Station: R2M6_AANII_01
#Location: 30.233357 lon 59.946436 lat
#TLE: 1 37849U 11061A   26016.23176763  .00000061  00000+0  49926-4 0  9990
#TLE: 2 37849  98.7812 318.2698 0002434  61.5135 298.6286 14.19525545736883

#Time	Az	El	Level	Level2	SNR	BER	BlckErr	Temp	State	Recorded	gain1	gain2
2026-01-17 02:18:08.63	10.58	6.97	-32.2	-40.7	4.0	1.47e+00	0	41	0	0	24	9603
2026-01-17 02:18:09.63	10.50	7.03	-31.9	-39.3	4.3	1.40e+00	0	41	104	0	23	8389
2026-01-17 02:18:10.63	10.41	7.10	-31.9	-39.1	5.4	5.57e-01	0	41	0	0	23	8182
2026-01-17 02:18:11.64	10.32	7.16	-31.9	-38.7	5.6	4.50e-01	0	41	0	1048576	23	7889
2026-01-17 02:18:12.63	10.23	7.23	-31.9	-38.9	5.5	4.58e-01	0	41	0	3145728	23	8042
2026-01-17 02:18:13.63	10.14	7.29	-31.9	-38.8	5.6	4.78e-01	0	41	0	5242880	23	7962
2026-01-17 02:18:14.63	10.05	7.35	-31.9	-38.6	5.7	4.71e-01	0	41	0	7340032	23	7785
2026-01-17 02:18:15.63	9.96	7.42	-31.9	-38.6	5.7	4.46e-01	0	41	0	9437184	23	7809
2026-01-17 02:18:16.63	9.87	7.48	-32.0	-38.9	5.3	4.95e-01	0	41	0	10485760	24	7984
2026-01-17 02:18:17.63	9.77	7.55	-32.0	-38.5	5.5	5.90e-01	0	42	0	12582912	24	7644
2026-01-17 02:18:18.63	9.68	7.61	-31.9	-38.2	6.0	3.41e-01	0	42	0	14680064	23	7486
2026-01-17 02:18:19.64	9.59	7.68	-31.7	-37.0	6.8	2.54e-01	0	42	0	16777216	23	6692
2026-01-17 02:18:20.65	9.49	7.75	-31.5	-36.1	7.6	1.29e-01	0	41	0	17825792	23	6112
2026-01-17 02:18:21.65	9.40	7.81	-31.3	-35.7	8.2	7.14e-02	0	42	0	19922944	22	6012
2026-01-17 02:18:22.66	9.31	7.88	-31.1	-34.9	8.9	3.07e-02	0	42	0	22020096	22	5596
2026-01-17 02:18:23.66	9.21	7.94	-30.7	-34.2	9.8	1.87e-02	0	42	0	24117248	21	5342
2026-01-17 02:18:24.67	9.12	8.01	-30.9	-34.7	9.4	1.49e-02	0	42	0	26214400	21	5592
2026-01-17 02:18:25.67	9.02	8.08	-30.9	-34.7	9.5	1.36e-02	0	42	0	27262976	21	5570
2026-01-17 02:18:26.68	8.92	8.14	-31.0	-35.1	9.2	1.61e-02	0	42	0	29360128	21	5748
2026-01-17 02:18:27.69	8.83	8.21	-30.9	-34.7	9.5	1.74e-02	0	42	0	31457280	21	5570
2026-01-17 02:18:28.68	8.73	8.27	-31.1	-34.8	9.0	1.88e-02	0	42	0	33554432	22	5536
2026-01-17 02:18:29.69	8.63	8.34	-30.9	-34.2	9.5	2.14e-02	0	42	0	35651584	22	5243
2026-01-17 02:18:30.68	8.54	8.41	-31.0	-34.5	9.3	1.77e-02	0	42	0	36700160	22	5380
2026-01-17 02:18:31.68	8.44	8.47	-31.0	-34.9	9.3	1.65e-02	0	42	0	38797312	21	5681
2026-01-17 02:18:32.68	8.34	8.54	-31.0	-34.4	9.3	1.91e-02	0	42	0	40894464	22	5354
2026-01-17 02:18:33.68	8.24	8.61	-31.0	-34.7	9.1	1.60e-02	0	42	0	42991616	22	5487
2026-01-17 02:18:34.68	8.14	8.67	-31.2	-35.1	8.8	2.46e-02	0	42	0	45088768	22	5695
2026-01-17 02:18:35.68	8.04	8.74	-31.1	-34.9	9.0	3.37e-02	0	42	0	46137344	22	5564
2026-01-17 02:18:36.69	7.94	8.81	-30.9	-34.2	9.5	1.68e-02	0	42	0	48234496	22	5241
2026-01-17 02:18:37.70	7.84	8.87	-30.7	-34.1	10.0	8.91e-03	0	42	0	50331648	21	5284
2026-01-17 02:18:38.70	7.74	8.94	-30.7	-33.9	10.2	5.20e-03	0	42	0	52428800	21	5198
2026-01-17 02:18:39.70	7.64	9.01	-30.7	-34.1	9.9	8.81e-03	0	42	0	54525952	21	5312
2026-01-17 02:18:40.71	7.53	9.08	-30.8	-34.2	9.9	1.01e-02	0	42	0	55574528	21	5339
2026-01-17 02:18:41.71	7.43	9.14	-30.8	-34.4	9.8	7.76e-03	0	42	0	57671680	21	5437
2026-01-17 02:18:42.70	7.33	9.21	-30.8	-34.4	9.8	7.56e-03	0	42	0	59768832	21	5424
2026-01-17 02:18:43.71	7.22	9.28	-30.8	-34.2	10.0	7.97e-03	0	42	0	61865984	21	5314
2026-01-17 02:18:44.71	7.12	9.35	-30.7	-33.8	10.2	7.02e-03	0	42	0	62914560	21	5167
2026-01-17 02:18:45.70	7.01	9.41	-30.8	-34.3	9.9	1.06e-02	0	42	0	65011712	21	5361
2026-01-17 02:18:46.71	6.91	9.48	-29.8	-33.1	10.0	5.19e-03	0	42	0	67108864	21	5298
2026-01-17 02:18:47.70	6.80	9.55	-30.0	-33.6	9.6	1.28e-02	0	42	0	69206016	21	5456
2026-01-17 02:18:48.69	6.70	9.62	-30.9	-34.6	9.6	1.11e-02	0	42	0	71303168	21	5490
2026-01-17 02:18:49.69	6.59	9.68	-30.9	-34.5	9.4	1.23e-02	0	42	0	72351744	21	5455
2026-01-17 02:18:50.70	6.48	9.75	-30.5	-33.2	10.0	4.34e-03	0	42	0	74448896	21	4916
2026-01-17 02:18:51.70	6.38	9.82	-30.7	-33.7	10.3	4.80e-03	0	43	0	76546048	21	5107
2026-01-17 02:18:52.70	6.27	9.89	-30.9	-34.5	9.6	7.09e-03	0	43	0	78643200	21	5422
2026-01-17 02:18:53.71	6.16	9.96	-31.2	-35.0	8.9	1.50e-02	0	43	0	80740352	22	5572
2026-01-17 02:18:54.71	6.05	10.03	-31.0	-34.3	9.6	1.78e-02	0	42	0	81788928	22	5246
2026-01-17 02:18:55.72	5.94	10.10	-30.8	-34.1	10.1	9.00e-03	0	43	0	83886080	21	5276
2026-01-17 02:18:56.72	5.83	10.16	-30.5	-33.3	10.7	3.70e-03	0	42	0	85983232	21	4917
2026-01-17 02:18:57.72	5.71	10.23	-30.5	-33.0	10.9	1.94e-03	0	43	0	88080384	21	4835
2026-01-17 02:18:58.72	5.60	10.30	-30.4	-33.4	11.0	1.94e-03	0	43	0	90177536	20	5062
2026-01-17 02:18:59.73	5.49	10.37	-30.4	-33.3	11.1	4.66e-03	0	43	0	91226112	20	5024
2026-01-17 02:19:00.73	5.38	10.44	-30.4	-33.2	11.2	1.16e-03	0	43	0	93323264	20	4972
2026-01-17 02:19:01.74	5.26	10.51	-30.7	-33.6	10.6	2.26e-03	0	43	0	95420416	21	5044
2026-01-17 02:19:02.74	5.15	10.58	-30.5	-33.5	11.0	5.47e-03	0	42	0	97517568	20	5086
2026-01-17 02:19:03.73	5.04	10.65	-30.3	-33.1	11.3	1.10e-03	0	43	0	99614720	20	4948
2026-01-17 02:19:04.74	4.92	10.72	-30.2	-32.7	11.6	1.04e-03	0	43	0	100663296	20	4793
2026-01-17 02:19:05.74	4.80	10.79	-30.3	-33.0	11.4	9.76e-04	0	42	0	102760448	20	4898
2026-01-17 02:19:06.74	4.69	10.86	-30.3	-33.1	11.3	1.37e-03	0	43	0	104857600	20	4942
2026-01-17 02:19:07.74	4.57	10.93	-30.2	-32.8	11.5	1.07e-03	0	43	0	106954752	20	4834
2026-01-17 02:19:08.74	4.45	11.00	-30.5	-33.1	11.0	1.38e-03	0	43	0	108003328	21	4848
2026-01-17 02:19:09.75	4.34	11.07	-30.4	-32.8	11.2	2.01e-03	0	43	0	110100480	21	4737
2026-01-17 02:19:10.75	4.22	11.14	-30.3	-32.9	11.4	1.06e-03	0	43	0	112197632	20	4847
2026-01-17 02:19:11.75	4.10	11.21	-30.3	-33.0	11.4	8.84e-04	0	43	0	114294784	20	4905
2026-01-17 02:19:12.75	3.98	11.28	-30.2	-32.8	11.5	1.03e-03	0	43	0	116391936	20	4813
2026-01-17 02:19:13.75	3.86	11.35	-30.3	-32.8	11.5	3.82e-03	0	43	0	117440512	20	4821
2026-01-17 02:19:14.76	3.74	11.42	-30.3	-33.1	11.4	8.92e-04	0	43	0	119537664	20	4916
2026-01-17 02:19:15.75	3.62	11.49	-30.2	-32.7	11.6	1.40e-03	0	43	0	121634816	20	4786
2026-01-17 02:19:16.75	3.50	11.56	-30.3	-32.9	11.5	3.59e-03	0	43	0	123731968	20	4847
2026-01-17 02:19:17.76	3.37	11.63	-30.4	-33.3	11.2	4.00e-03	0	43	0	125829120	20	5007
2026-01-17 02:19:18.76	3.25	11.70	-30.4	-33.3	11.1	1.59e-03	0	43	0	126877696	20	5015
2026-01-17 02:19:19.76	3.13	11.77	-30.5	-33.6	11.0	1.59e-03	0	43	0	128974848	20	5132
2026-01-17 02:19:20.77	3.00	11.84	-30.5	-33.0	11.0	5.39e-03	0	43	0	131072000	21	4801
2026-01-17 02:19:21.76	2.88	11.91	-30.6	-33.4	10.8	1.66e-03	0	43	0	133169152	21	4966
2026-01-17 02:19:22.77	2.75	11.98	-30.5	-33.2	10.9	2.75e-03	0	43	0	135266304	21	4879
2026-01-17 02:19:23.78	2.62	12.05	-30.5	-33.0	11.0	4.72e-03	0	43	0	136314880	21	4822
2026-01-17 02:19:24.78	2.50	12.12	-30.3	-32.5	11.4	1.96e-03	0	43	0	138412032	21	4640
2026-01-17 02:19:25.79	2.37	12.19	-30.3	-33.0	11.4	9.82e-04	0	43	0	140509184	20	4895
2026-01-17 02:19:26.79	2.24	12.26	-30.3	-32.8	11.6	3.95e-03	0	43	0	142606336	20	4820
2026-01-17 02:19:27.79	2.11	12.34	-30.2	-32.7	11.7	1.05e-03	0	43	0	144703488	20	4776
2026-01-17 02:19:28.79	1.98	12.41	-30.2	-32.7	11.7	5.48e-04	0	43	0	145752064	20	4779
2026-01-17 02:19:29.79	1.85	12.48	-30.2	-32.5	11.8	6.79e-04	0	43	0	147849216	20	4718
2026-01-17 02:19:30.80	1.72	12.55	-30.1	-32.2	12.0	6.61e-04	0	43	0	149946368	20	4599
2026-01-17 02:19:31.79	1.59	12.62	-30.0	-32.1	12.1	3.19e-03	0	43	0	152043520	20	4562
2026-01-17 02:19:32.79	1.46	12.69	-30.1	-32.4	12.0	4.42e-04	0	43	0	153092096	20	4666
2026-01-17 02:19:33.80	1.32	12.76	-30.1	-32.3	12.0	6.61e-04	0	43	0	155189248	20	4628
2026-01-17 02:19:34.80	1.19	12.83	-30.0	-31.9	12.2	2.87e-03	0	43	0	157286400	20	4490
2026-01-17 02:19:35.80	1.06	12.91	-30.0	-32.1	12.1	3.60e-04	0	43	0	159383552	20	4550
2026-01-17 02:19:36.79	0.92	12.98	-29.8	-31.4	12.6	3.77e-04	0	43	0	161480704	20	4312
2026-01-17 02:19:37.79	0.79	13.05	-29.9	-32.1	12.5	2.90e-03	0	43	0	162529280	19	4650
2026-01-17 02:19:38.79	0.65	13.12	-29.8	-31.9	12.6	3.05e-03	0	43	0	164626432	19	4586
2026-01-17 02:19:39.79	0.52	13.19	-29.9	-32.1	12.6	1.11e-04	0	43	0	166723584	19	4642
2026-01-17 02:19:40.79	0.38	13.26	-30.0	-32.0	12.2	2.89e-03	0	43	0	168820736	20	4533
2026-01-17 02:19:41.79	0.24	13.33	-30.1	-32.3	12.0	3.02e-03	0	43	0	170917888	20	4642
2026-01-17 02:19:42.79	0.10	13.41	-30.1	-32.4	11.9	8.09e-04	0	43	0	171966464	20	4650
2026-01-17 02:19:43.79	359.96	13.48	-30.3	-32.7	11.7	3.06e-03	0	43	0	174063616	20	4765
2026-01-17 02:19:44.79	359.82	13.55	-30.2	-32.5	11.9	3.23e-03	0	43	0	176160768	20	4691
2026-01-17 02:19:45.80	359.68	13.62	-30.0	-32.0	12.2	7.61e-04	0	43	0	178257920	20	4540
2026-01-17 02:19:46.81	359.54	13.70	-29.9	-31.8	12.4	4.37e-04	0	43	0	180355072	20	4443
2026-01-17 02:19:47.81	359.40	13.77	-30.0	-31.8	12.4	2.96e-03	0	43	0	181403648	20	4466
2026-01-17 02:19:48.81	359.25	13.84	-29.9	-31.6	12.5	6.06e-04	0	43	0	183500800	20	4401
2026-01-17 02:19:49.82	359.11	13.91	-30.0	-32.3	12.6	2.99e-03	0	43	0	185597952	19	4691
2026-01-17 02:19:50.82	358.96	13.98	-29.9	-31.7	12.5	2.77e-03	0	43	0	187695104	20	4408
2026-01-17 02:19:51.82	358.82	14.06	-30.0	-32.2	12.5	5.69e-04	0	43	0	188743680	19	4679
2026-01-17 02:19:52.81	358.67	14.13	-29.9	-32.1	12.6	2.86e-03	0	43	0	190840832	19	4630
2026-01-17 02:19:53.81	358.53	14.20	-29.9	-32.1	12.6	4.62e-04	0	43	0	192937984	19	4647
2026-01-17 02:19:54.81	358.38	14.27	-29.9	-32.1	12.6	4.83e-04	0	43	0	195035136	19	4631
2026-01-17 02:19:55.81	358.23	14.34	-30.0	-32.2	12.6	2.76e-03	0	43	0	197132288	19	4674
2026-01-17 02:19:56.81	358.08	14.42	-29.9	-31.5	12.6	3.20e-03	0	43	0	198180864	20	4366
2026-01-17 02:19:57.82	357.93	14.49	-30.0	-32.0	12.3	6.22e-04	0	43	0	200278016	20	4514
2026-01-17 02:19:58.81	357.78	14.56	-29.9	-31.6	12.5	2.77e-03	0	43	0	202375168	20	4396
2026-01-17 02:19:59.81	357.63	14.63	-29.8	-31.9	12.7	3.01e-03	0	43	0	204472320	19	4555
2026-01-17 02:20:00.81	357.48	14.71	-29.8	-31.9	12.7	4.42e-05	0	43	0	206569472	19	4568
2026-01-17 02:20:01.81	357.33	14.78	-29.8	-31.9	12.7	2.46e-03	0	43	0	207618048	19	4557
2026-01-17 02:20:02.82	357.18	14.85	-29.8	-31.9	12.8	2.59e-03	0	43	0	209715200	19	4555
2026-01-17 02:20:03.82	357.02	14.92	-29.9	-32.2	12.6	5.87e-04	0	43	0	211812352	19	4657
2026-01-17 02:20:04.82	356.87	14.99	-29.9	-32.2	12.6	2.69e-03	0	43	0	213909504	19	4672
2026-01-17 02:20:05.83	356.71	15.07	-30.4	-33.1	11.6	2.73e-03	0	43	0	216006656	20	4902
2026-01-17 02:20:06.84	356.55	15.14	-30.1	-32.3	12.1	1.10e-03	0	43	0	217055232	20	4641
2026-01-17 02:20:07.83	356.40	15.21	-30.2	-32.4	12.0	3.49e-04	0	43	0	219152384	20	4651
2026-01-17 02:20:08.83	356.24	15.28	-30.3	-32.8	11.7	2.71e-03	0	43	0	221249536	20	4809
2026-01-17 02:20:09.83	356.08	15.36	-30.2	-32.6	11.9	9.07e-04	0	43	0	223346688	20	4744
2026-01-17 02:20:10.83	355.92	15.43	-30.3	-32.9	11.7	3.77e-03	0	43	0	225443840	20	4850
2026-01-17 02:20:11.84	355.76	15.50	-30.3	-32.8	11.8	2.96e-03	0	43	0	226492416	20	4816
2026-01-17 02:20:12.84	355.60	15.57	-30.1	-32.4	12.0	7.29e-04	0	43	0	228589568	20	4651
2026-01-17 02:20:13.84	355.44	15.65	-30.1	-32.3	12.1	2.64e-03	0	43	0	230686720	20	4621
2026-01-17 02:20:14.84	355.27	15.72	-30.3	-32.8	11.8	3.36e-04	0	43	0	232783872	20	4795
2026-01-17 02:20:15.84	355.11	15.79	-30.2	-32.6	11.9	7.39e-04	0	43	0	233832448	20	4725
2026-01-17 02:20:16.83	354.95	15.86	-30.3	-32.9	11.7	2.74e-03	0	43	0	235929600	20	4840
2026-01-17 02:20:17.83	354.78	15.93	-30.5	-33.3	11.5	3.82e-03	0	43	0	238026752	20	4963
2026-01-17 02:20:18.82	354.62	16.01	-30.5	-32.7	11.5	1.20e-03	0	43	0	240123904	21	4680
2026-01-17 02:20:19.83	354.45	16.08	-30.5	-32.9	11.4	3.09e-03	0	43	0	242221056	21	4750
2026-01-17 02:20:20.83	354.28	16.15	-30.5	-32.9	11.5	3.25e-03	0	43	0	243269632	21	4729
2026-01-17 02:20:21.83	354.12	16.22	-30.3	-32.6	11.9	4.88e-04	0	43	0	245366784	20	4736
2026-01-17 02:20:22.83	353.95	16.29	-30.1	-32.3	12.2	2.36e-03	0	43	0	247463936	20	4608
2026-01-17 02:20:23.83	353.78	16.37	-30.2	-32.5	12.0	2.33e-03	0	43	0	249561088	20	4685
2026-01-17 02:20:24.84	353.61	16.44	-30.2	-32.6	11.9	8.69e-04	0	43	0	251658240	20	4729
2026-01-17 02:20:25.84	353.43	16.51	-30.4	-33.1	11.6	2.36e-03	0	43	0	252706816	20	4933
2026-01-17 02:20:26.84	353.26	16.58	-30.7	-33.5	11.0	2.62e-03	0	43	0	254803968	21	4951
2026-01-17 02:20:27.84	353.09	16.65	-30.6	-33.4	11.0	1.91e-03	0	43	0	256901120	21	4921
2026-01-17 02:20:28.84	352.91	16.73	-30.7	-33.6	10.8	2.01e-03	0	43	0	258998272	21	5009
2026-01-17 02:20:29.84	352.74	16.80	-30.5	-32.7	11.4	3.70e-03	0	43	0	261095424	21	4689
2026-01-17 02:20:30.84	352.56	16.87	-30.2	-32.6	11.9	9.16e-04	0	43	0	262144000	20	4738
2026-01-17 02:20:31.84	352.39	16.94	-30.1	-32.1	12.3	1.72e-04	0	43	0	264241152	20	4543
2026-01-17 02:20:32.84	352.21	17.01	-30.1	-32.2	12.3	1.51e-04	0	43	0	266338304	20	4578
2026-01-17 02:20:33.84	352.03	17.08	-30.0	-31.8	12.5	4.62e-04	0	43	0	268435456	20	4438
2026-01-17 02:20:34.84	351.85	17.15	-30.1	-32.1	12.3	1.76e-03	0	43	0	269484032	20	4540
2026-01-17 02:20:35.84	351.67	17.23	-30.2	-32.6	12.0	2.42e-04	0	43	0	271581184	20	4716
2026-01-17 02:20:36.83	351.49	17.30	-30.3	-32.8	11.8	5.55e-04	0	43	0	273678336	20	4814
2026-01-17 02:20:37.83	351.31	17.37	-30.3	-32.7	11.8	1.60e-03	0	43	0	275775488	20	4778
2026-01-17 02:20:38.83	351.13	17.44	-30.4	-33.1	11.6	1.79e-03	0	43	0	277872640	20	4915
2026-01-17 02:20:39.83	350.95	17.51	-30.3	-32.8	11.9	4.03e-04	0	43	0	278921216	20	4798
2026-01-17 02:20:40.83	350.76	17.58	-30.2	-32.5	12.0	1.94e-03	0	43	0	281018368	20	4702
2026-01-17 02:20:41.83	350.58	17.65	-30.1	-32.1	12.3	2.12e-03	0	43	0	283115520	20	4551
2026-01-17 02:20:42.83	350.39	17.72	-30.1	-32.2	12.3	1.59e-04	0	43	0	285212672	20	4574
2026-01-17 02:20:43.83	350.20	17.79	-30.1	-32.2	12.3	2.38e-03	0	44	0	286261248	20	4574
2026-01-17 02:20:44.82	350.02	17.86	-30.0	-31.8	12.5	2.18e-03	0	43	0	288358400	20	4433
2026-01-17 02:20:45.82	349.83	17.93	-30.0	-31.8	12.5	4.55e-04	0	43	0	290455552	20	4454
2026-01-17 02:20:46.83	349.64	18.00	-30.1	-32.2	12.4	1.85e-04	0	43	0	292552704	20	4562
2026-01-17 02:20:47.83	349.45	18.07	-30.3	-32.8	11.9	2.58e-03	0	43	0	294649856	20	4803
2026-01-17 02:20:48.83	349.25	18.14	-30.4	-33.0	11.8	6.67e-04	0	43	0	295698432	20	4859
2026-01-17 02:20:49.83	349.06	18.21	-30.3	-32.8	11.9	4.62e-04	0	43	0	297795584	20	4774
2026-01-17 02:20:50.84	348.87	18.28	-30.4	-33.1	11.7	5.61e-04	0	43	0	299892736	20	4900
2026-01-17 02:20:51.84	348.67	18.35	-30.1	-32.1	12.3	6.38e-04	0	43	0	301989888	20	4548
2026-01-17 02:20:52.84	348.48	18.42	-30.1	-32.0	12.6	1.02e-04	0	43	0	304087040	20	4507
2026-01-17 02:20:53.85	348.28	18.49	-30.0	-31.8	12.6	1.17e-04	0	43	0	305135616	20	4449
2026-01-17 02:20:54.85	348.08	18.56	-29.9	-31.7	12.7	1.81e-04	0	43	0	307232768	20	4390
2026-01-17 02:20:55.85	347.89	18.63	-30.2	-32.5	12.1	5.70e-04	0	43	0	309329920	20	4682
2026-01-17 02:20:56.85	347.69	18.69	-30.1	-32.1	12.4	1.75e-04	0	44	0	311427072	20	4525
2026-01-17 02:20:57.86	347.49	18.76	-30.0	-31.9	12.6	9.23e-05	0	43	0	313524224	20	4466
2026-01-17 02:20:58.86	347.28	18.83	-30.0	-31.7	12.6	1.66e-04	0	43	0	314572800	20	4409
2026-01-17 02:20:59.86	347.08	18.90	-30.0	-31.9	12.6	6.40e-05	0	43	0	316669952	20	4454
2026-01-17 02:21:00.87	346.88	18.97	-29.7	-31.0	13.0	5.95e-05	0	43	0	318767104	20	4189
2026-01-17 02:21:01.87	346.68	19.04	-29.7	-31.0	13.2	1.33e-04	0	43	0	320864256	20	4168
2026-01-17 02:21:02.87	346.47	19.10	-29.8	-31.6	13.1	4.06e-04	0	43	0	322961408	19	4462
2026-01-17 02:21:03.87	346.27	19.17	-29.7	-31.4	13.2	3.35e-05	0	44	0	324009984	19	4378
2026-01-17 02:21:04.87	346.06	19.24	-29.8	-31.7	13.0	3.58e-05	0	43	0	326107136	19	4502
2026-01-17 02:21:05.88	345.85	19.30	-29.8	-31.8	13.0	1.91e-03	0	43	0	328204288	19	4513
2026-01-17 02:21:06.88	345.64	19.37	-29.7	-31.6	13.1	1.44e-05	0	44	0	330301440	19	4456
2026-01-17 02:21:07.88	345.44	19.44	-29.6	-31.3	13.3	2.28e-05	0	43	0	331350016	19	4367
2026-01-17 02:21:08.88	345.23	19.50	-29.3	-30.3	14.0	1.50e-04	0	43	0	333447168	19	4068
2026-01-17 02:21:09.88	345.01	19.57	-29.2	-30.1	14.1	7.00e-07	0	43	0	335544320	19	3996
2026-01-17 02:21:10.89	344.80	19.64	-29.2	-30.6	14.2	0.00e+00	0	43	0	337641472	18	4217
2026-01-17 02:21:11.89	344.59	19.70	-28.8	-29.7	14.7	7.00e-07	0	43	0	339738624	18	3959
2026-01-17 02:21:12.89	344.38	19.77	-28.9	-29.8	14.6	0.00e+00	0	43	0	340787200	18	4005
2026-01-17 02:21:13.90	344.16	19.83	-29.1	-30.2	14.4	0.00e+00	0	43	0	342884352	18	4117
2026-01-17 02:21:14.90	343.94	19.90	-29.3	-30.8	14.0	1.50e-06	0	43	0	344981504	18	4276
2026-01-17 02:21:15.90	343.73	19.96	-29.3	-30.8	14.0	1.50e-06	0	43	0	347078656	18	4303
2026-01-17 02:21:16.90	343.51	20.03	-29.5	-30.8	13.6	2.20e-06	0	43	0	349175808	19	4203
2026-01-17 02:21:17.90	343.29	20.09	-29.4	-31.0	13.9	2.20e-06	0	43	0	350224384	18	4349
2026-01-17 02:21:18.90	343.07	20.15	-29.5	-30.8	13.7	2.20e-06	0	43	0	352321536	19	4188
2026-01-17 02:21:19.90	342.85	20.22	-29.3	-30.2	14.0	2.54e-03	0	43	0	354418688	19	4033
2026-01-17 02:21:20.90	342.63	20.28	-28.9	-29.9	14.6	7.00e-07	0	44	0	356515840	18	4020
2026-01-17 02:21:21.90	342.41	20.34	-29.0	-30.1	14.5	7.00e-07	0	43	0	358612992	18	4075
2026-01-17 02:21:22.91	342.19	20.41	-29.1	-30.4	14.3	0.00e+00	0	44	0	359661568	18	4172
2026-01-17 02:21:23.91	341.96	20.47	-29.1	-30.4	14.2	1.50e-06	0	43	0	361758720	18	4183
2026-01-17 02:21:24.92	341.74	20.53	-29.3	-30.8	14.0	2.20e-06	0	44	0	363855872	18	4287
2026-01-17 02:21:25.92	341.51	20.59	-29.2	-30.6	14.1	2.20e-06	0	43	0	365953024	18	4238
2026-01-17 02:21:26.92	341.28	20.65	-29.1	-30.4	14.2	1.50e-06	0	44	0	368050176	18	4189
2026-01-17 02:21:27.92	341.06	20.71	-29.1	-30.4	14.2	7.00e-07	0	44	0	369098752	18	4163
2026-01-17 02:21:28.92	340.83	20.77	-29.0	-30.0	14.5	1.50e-06	0	43	0	371195904	18	4059
2026-01-17 02:21:29.92	340.60	20.83	-29.0	-30.0	14.4	7.00e-07	0	43	0	373293056	18	4054
2026-01-17 02:21:30.91	340.37	20.89	-29.0	-30.2	14.4	4.50e-06	0	43	0	375390208	18	4108
2026-01-17 02:21:31.91	340.14	20.95	-29.1	-30.3	14.4	2.20e-06	0	43	0	376438784	18	4142
2026-01-17 02:21:32.91	339.91	21.01	-29.2	-30.5	14.3	7.00e-07	0	43	0	378535936	18	4202
2026-01-17 02:21:33.91	339.68	21.07	-29.2	-30.6	14.2	1.22e-05	0	43	0	380633088	18	4231
2026-01-17 02:21:34.90	339.45	21.13	-29.0	-30.1	14.4	6.80e-06	0	44	0	382730240	18	4093
2026-01-17 02:21:35.90	339.21	21.19	-28.9	-29.9	14.6	0.00e+00	0	43	0	384827392	18	4015
2026-01-17 02:21:36.91	338.97	21.24	-28.8	-29.4	14.9	0.00e+00	0	43	0	385875968	18	3881
2026-01-17 02:21:37.91	338.74	21.30	-28.8	-30.0	14.9	7.00e-07	0	44	0	387973120	17	4125
2026-01-17 02:21:38.91	338.50	21.36	-28.6	-29.6	15.1	0.00e+00	0	44	0	390070272	17	4034
2026-01-17 02:21:39.91	338.26	21.42	-28.5	-29.3	15.3	0.00e+00	0	43	0	392167424	17	3947
2026-01-17 02:21:40.91	338.02	21.47	-28.7	-29.9	14.9	2.74e-04	0	44	0	394264576	17	4102
2026-01-17 02:21:41.91	337.78	21.53	-28.9	-30.3	14.7	7.00e-07	0	44	0	395313152	17	4230
2026-01-17 02:21:42.90	337.55	21.58	-28.8	-30.0	14.9	0.00e+00	0	43	0	397410304	17	4140
2026-01-17 02:21:43.91	337.30	21.64	-28.5	-29.2	15.3	0.00e+00	0	44	0	399507456	17	3903
2026-01-17 02:21:44.90	337.06	21.69	-28.5	-29.3	15.3	0.00e+00	0	44	0	401604608	17	3954
2026-01-17 02:21:45.90	336.82	21.75	-28.4	-29.0	15.5	7.11e-04	0	44	0	402653184	17	3846
2026-01-17 02:21:46.89	336.58	21.80	-28.5	-29.2	15.4	0.00e+00	0	43	0	404750336	17	3925
2026-01-17 02:21:47.89	336.33	21.85	-28.4	-29.0	15.5	0.00e+00	0	44	0	406847488	17	3849
2026-01-17 02:21:48.89	336.09	21.90	-28.6	-29.4	15.2	2.68e-04	0	44	0	408944640	17	3981
2026-01-17 02:21:49.89	335.84	21.96	-28.8	-29.9	14.9	0.00e+00	0	43	0	411041792	17	4119
2026-01-17 02:21:50.89	335.59	22.01	-28.7	-29.8	15.0	0.00e+00	0	43	0	412090368	17	4084
2026-01-17 02:21:51.89	335.35	22.06	-27.9	-29.3	14.7	3.21e-04	0	44	0	414187520	17	4190
2026-01-17 02:21:52.89	335.10	22.11	-28.2	-29.3	14.6	5.48e-04	0	43	0	416284672	17	4086
2026-01-17 02:21:53.89	334.85	22.16	-28.7	-29.7	15.1	7.00e-07	0	44	0	418381824	17	4040
2026-01-17 02:21:54.89	334.60	22.21	-28.9	-30.2	12.8	1.08e-03	0	43	0	420478976	17	4202
2026-01-17 02:21:55.89	334.34	22.26	-28.8	-30.1	13.0	1.26e-03	0	44	0	421527552	17	4162
2026-01-17 02:21:56.88	334.09	22.31	-29.2	-30.3	14.4	0.00e+00	0	44	0	423624704	18	4126
2026-01-17 02:21:57.89	333.84	22.36	-29.4	-31.1	12.6	7.00e-07	0	44	0	425721856	18	4346
2026-01-17 02:21:58.89	333.58	22.40	-29.7	-31.2	13.3	1.06e-03	0	44	0	427819008	19	4299
2026-01-17 02:21:59.89	333.33	22.45	-29.4	-30.5	14.1	2.20e-06	0	44	0	429916160	19	4096
2026-01-17 02:22:00.89	333.07	22.50	-29.1	-30.1	14.5	3.00e-06	0	44	0	430964736	18	4070
2026-01-17 02:22:01.90	332.82	22.55	-28.8	-29.9	14.9	1.10e-03	0	44	0	433061888	17	4094
2026-01-17 02:22:02.90	332.56	22.59	-28.5	-29.3	15.3	7.00e-07	0	44	0	435159040	17	3941
2026-01-17 02:22:03.90	332.30	22.64	-28.5	-29.7	15.4	1.41e-03	0	43	0	437256192	16	4144
2026-01-17 02:22:04.90	332.04	22.68	-28.7	-29.7	15.1	0.00e+00	0	44	0	438304768	17	4044
2026-01-17 02:22:05.91	331.78	22.73	-28.7	-29.8	15.1	0.00e+00	0	44	0	440401920	17	4070
2026-01-17 02:22:06.91	331.52	22.77	-28.8	-30.0	15.0	1.38e-03	0	44	0	442499072	17	4121
2026-01-17 02:22:07.92	331.26	22.81	-28.6	-29.6	15.1	0.00e+00	0	44	0	444596224	17	4021
2026-01-17 02:22:08.92	331.00	22.85	-28.6	-29.4	15.3	1.75e-05	0	44	0	446693376	17	3960
2026-01-17 02:22:09.92	330.73	22.90	-28.5	-29.6	15.5	6.39e-04	0	44	0	447741952	16	4121
2026-01-17 02:22:10.93	330.47	22.94	-28.2	-28.9	15.8	8.79e-04	0	44	0	449839104	16	3922
2026-01-17 02:22:11.92	330.21	22.98	-28.1	-28.7	16.0	1.52e-04	0	44	0	451936256	16	3868
2026-01-17 02:22:12.93	329.94	23.02	-27.9	-28.7	16.0	8.34e-04	0	44	0	454033408	15	3987
2026-01-17 02:22:13.93	329.67	23.06	-28.2	-28.9	15.9	1.32e-03	0	43	0	456130560	16	3921
2026-01-17 02:22:14.94	329.41	23.10	-28.4	-29.4	15.5	0.00e+00	0	44	0	457179136	16	4067
2026-01-17 02:22:15.94	329.14	23.14	-28.4	-29.1	15.5	3.49e-03	0	43	0	459276288	17	3868
2026-01-17 02:22:16.94	328.87	23.17	-28.3	-29.3	15.6	1.57e-03	0	44	0	461373440	16	4014
2026-01-17 02:22:17.95	328.60	23.21	-28.4	-29.5	15.5	0.00e+00	0	44	0	463470592	16	4086
2026-01-17 02:22:18.94	328.34	23.25	-28.1	-28.8	15.9	3.45e-03	0	44	0	465567744	16	3888
2026-01-17 02:22:19.94	328.07	23.28	-27.8	-28.5	16.2	1.97e-03	0	43	0	466616320	15	3926
2026-01-17 02:22:20.95	327.80	23.32	-28.2	-29.1	15.8	0.00e+00	0	44	0	468713472	16	3975
2026-01-17 02:22:21.95	327.53	23.35	-28.4	-29.4	15.6	1.28e-03	0	43	0	470810624	16	4066
2026-01-17 02:22:22.94	327.26	23.39	-28.8	-29.9	14.9	1.99e-03	0	44	0	472907776	17	4110
2026-01-17 02:22:23.94	326.99	23.42	-29.0	-30.0	14.7	0.00e+00	0	43	0	475004928	18	4028
2026-01-17 02:22:24.94	326.71	23.45	-29.3	-30.6	14.2	5.03e-04	0	44	0	476053504	18	4222
2026-01-17 02:22:25.94	326.44	23.48	-29.5	-31.2	13.9	2.77e-03	0	43	0	478150656	18	4398
2026-01-17 02:22:26.94	326.17	23.51	-29.6	-31.0	13.7	3.25e-04	0	44	0	480247808	19	4234
2026-01-17 02:22:27.95	325.89	23.55	-29.7	-31.4	13.4	1.48e-04	0	44	0	482344960	19	4374
2026-01-17 02:22:28.95	325.62	23.58	-29.6	-31.1	13.7	1.89e-03	0	44	0	483393536	19	4271
2026-01-17 02:22:29.95	325.34	23.60	-29.8	-31.6	13.3	6.73e-04	0	43	0	485490688	19	4440
2026-01-17 02:22:30.95	325.07	23.63	-29.9	-31.9	13.1	4.80e-05	0	44	0	487587840	19	4518
2026-01-17 02:22:31.96	324.79	23.66	-29.8	-31.7	13.2	1.83e-05	0	44	0	489684992	19	4467
2026-01-17 02:22:32.95	324.52	23.69	-29.9	-31.5	13.0	7.14e-04	0	44	0	491782144	20	4321
2026-01-17 02:22:33.96	324.24	23.71	-30.1	-32.0	12.6	1.22e-03	0	44	0	492830720	20	4465
2026-01-17 02:22:34.96	323.96	23.74	-29.8	-31.6	13.3	1.56e-04	0	43	0	494927872	19	4408
2026-01-17 02:22:35.96	323.68	23.77	-29.7	-31.4	13.5	9.11e-04	0	43	0	497025024	19	4355
2026-01-17 02:22:36.97	323.40	23.79	-29.8	-31.6	13.3	1.95e-03	0	43	0	499122176	19	4436
2026-01-17 02:22:37.97	323.12	23.81	-29.9	-31.9	13.2	1.17e-03	0	44	0	501219328	19	4512
2026-01-17 02:22:38.97	322.84	23.84	-29.6	-31.1	13.7	1.44e-05	0	44	0	502267904	19	4262
2026-01-17 02:22:39.97	322.56	23.86	-29.5	-30.8	13.9	1.70e-03	0	44	0	504365056	19	4176
2026-01-17 02:22:40.97	322.28	23.88	-29.5	-30.8	13.8	2.37e-03	0	44	0	506462208	19	4182
2026-01-17 02:22:41.97	322.00	23.90	-29.7	-31.4	13.4	8.30e-06	0	44	0	508559360	19	4360
2026-01-17 02:22:42.97	321.72	23.92	-29.9	-32.0	13.0	2.20e-03	0	44	0	510656512	19	4567
2026-01-17 02:22:43.98	321.44	23.94	-29.8	-31.6	13.3	4.10e-03	0	43	0	511705088	19	4424
2026-01-17 02:22:44.98	321.16	23.96	-29.7	-31.5	13.4	2.21e-05	0	44	0	513802240	19	4390
2026-01-17 02:22:45.98	320.88	23.98	-29.9	-31.9	13.1	2.53e-03	0	43	0	515899392	19	4520
2026-01-17 02:22:46.98	320.60	23.99	-30.0	-31.6	12.9	2.34e-03	0	44	0	517996544	20	4354
2026-01-17 02:22:47.99	320.31	24.01	-29.8	-31.6	13.3	1.47e-03	0	44	0	520093696	19	4437
2026-01-17 02:22:48.99	320.03	24.03	-30.1	-32.0	12.7	1.95e-03	0	44	0	521142272	20	4470
2026-01-17 02:22:49.99	319.74	24.04	-30.1	-31.9	12.7	2.36e-03	0	44	0	523239424	20	4451
2026-01-17 02:22:51.00	319.46	24.06	-30.5	-33.1	12.0	1.43e-03	0	44	0	525336576	20	4862
2026-01-17 02:22:52.00	319.18	24.07	-30.6	-32.9	11.7	5.28e-03	0	44	0	527433728	21	4708
2026-01-17 02:22:53.00	318.89	24.08	-30.6	-33.1	11.5	3.55e-03	0	44	0	528482304	21	4796
2026-01-17 02:22:54.00	318.61	24.09	-30.4	-33.0	11.9	1.86e-03	0	44	0	530579456	20	4860
2026-01-17 02:22:55.01	318.32	24.10	-30.3	-32.7	12.1	5.18e-03	0	43	0	532676608	20	4738
2026-01-17 02:22:56.00	318.04	24.11	-30.3	-32.6	12.2	1.92e-03	0	44	0	534773760	20	4688
2026-01-17 02:22:57.00	317.76	24.12	-30.4	-33.0	12.0	1.53e-03	0	44	0	536870912	20	4811
2026-01-17 02:22:58.00	317.47	24.13	-30.7	-33.1	11.7	3.32e-03	0	44	0	537919488	21	4766
2026-01-17 02:22:58.99	317.19	24.14	-30.5	-33.0	12.0	4.82e-03	0	44	0	540016640	20	4829
2026-01-17 02:22:59.98	316.91	24.15	-30.9	-33.9	11.0	2.50e-03	0	44	0	542113792	21	5080
2026-01-17 02:23:00.98	316.62	24.15	-31.2	-34.2	10.4	7.01e-03	0	44	0	544210944	22	5106
2026-01-17 02:23:01.98	316.34	24.16	-31.4	-34.9	9.9	1.09e-02	0	44	0	546308096	22	5411
2026-01-17 02:23:02.98	316.05	24.17	-31.4	-35.2	9.8	1.02e-02	0	44	0	547356672	22	5533
2026-01-17 02:23:03.99	315.76	24.17	-31.4	-34.9	9.9	1.03e-02	0	44	0	549453824	22	5410
2026-01-17 02:23:04.99	315.48	24.17	-31.2	-34.2	10.5	8.50e-03	0	43	0	551550976	22	5102
2026-01-17 02:23:05.99	315.19	24.18	-31.0	-33.7	10.8	4.33e-03	0	44	0	553648128	22	4886
2026-01-17 02:23:06.98	314.91	24.18	-30.8	-33.1	11.3	5.25e-03	0	44	0	555745280	22	4661
2026-01-17 02:23:07.98	314.63	24.18	-30.8	-33.6	11.3	4.23e-03	0	44	0	556793856	21	4939
2026-01-17 02:23:08.99	314.34	24.18	-30.6	-32.9	11.7	1.38e-03	0	43	0	558891008	21	4670
2026-01-17 02:23:09.99	314.05	24.18	-30.8	-33.5	11.3	5.95e-04	0	44	0	560988160	21	4927
2026-01-17 02:23:10.99	313.77	24.18	-30.4	-32.3	12.1	3.63e-03	0	44	0	563085312	21	4483
2026-01-17 02:23:11.99	313.48	24.18	-30.2	-31.7	12.5	4.32e-04	0	44	0	564133888	21	4288
2026-01-17 02:23:13.00	313.19	24.17	-30.0	-31.7	12.9	3.56e-03	0	44	0	566231040	20	4374
2026-01-17 02:23:14.00	312.91	24.17	-30.5	-32.7	11.8	3.89e-03	0	44	0	568328192	21	4619
2026-01-17 02:23:15.00	312.62	24.16	-30.5	-32.7	11.8	8.52e-04	0	44	0	570425344	21	4636
2026-01-17 02:23:16.00	312.34	24.16	-30.4	-32.9	12.0	3.72e-03	0	44	0	572522496	20	4791
2026-01-17 02:23:17.00	312.05	24.15	-30.4	-32.9	12.0	2.94e-04	0	44	0	573571072	20	4810
2026-01-17 02:23:18.00	311.77	24.15	-30.3	-32.6	12.1	2.39e-04	0	44	0	575668224	20	4698
2026-01-17 02:23:19.00	311.48	24.14	-30.3	-32.5	12.3	2.55e-03	0	44	0	577765376	20	4646
2026-01-17 02:23:20.00	311.20	24.13	-30.0	-31.7	12.8	2.91e-03	0	44	0	579862528	20	4397
2026-01-17 02:23:21.00	310.91	24.12	-30.1	-31.9	12.7	8.16e-05	0	44	0	581959680	20	4449
2026-01-17 02:23:22.00	310.63	24.11	-30.0	-31.8	12.8	3.14e-03	0	44	0	583008256	20	4412
2026-01-17 02:23:23.01	310.34	24.10	-29.8	-31.7	13.2	2.90e-03	0	44	0	585105408	19	4466
2026-01-17 02:23:24.01	310.06	24.09	-30.0	-32.0	13.0	4.19e-05	0	44	0	587202560	19	4574
2026-01-17 02:23:25.01	309.77	24.08	-29.7	-31.2	13.6	2.61e-03	0	44	0	589299712	19	4315
2026-01-17 02:23:26.01	309.49	24.07	-29.5	-30.9	13.7	2.26e-03	0	43	0	590348288	19	4218
2026-01-17 02:23:27.01	309.21	24.05	-29.4	-30.6	13.9	1.26e-04	0	44	0	592445440	19	4121
2026-01-17 02:23:28.02	308.92	24.04	-29.4	-30.9	14.0	2.09e-03	0	44	0	594542592	18	4322
2026-01-17 02:23:29.01	308.64	24.02	-29.2	-30.6	14.3	2.23e-03	0	44	0	596639744	18	4212
2026-01-17 02:23:30.02	308.36	24.01	-29.1	-30.3	14.5	3.29e-04	0	44	0	598736896	18	4115
2026-01-17 02:23:31.02	308.07	23.99	-29.3	-30.7	14.3	1.50e-06	0	44	0	599785472	18	4236
2026-01-17 02:23:32.03	307.79	23.97	-29.2	-30.4	14.4	1.93e-03	0	44	0	601882624	18	4162
2026-01-17 02:23:33.02	307.51	23.96	-29.1	-30.3	14.5	1.11e-03	0	44	0	603979776	18	4120
2026-01-17 02:23:34.02	307.23	23.94	-29.3	-30.7	14.3	2.26e-03	0	44	0	606076928	18	4228
2026-01-17 02:23:35.02	306.95	23.92	-28.8	-29.6	14.9	0.00e+00	0	44	0	608174080	18	3907
2026-01-17 02:23:36.02	306.67	23.90	-28.6	-29.4	15.3	1.36e-03	0	44	0	609222656	17	3957
2026-01-17 02:23:37.03	306.38	23.88	-28.5	-29.1	15.5	2.02e-03	0	44	0	611319808	17	3871
2026-01-17 02:23:38.03	306.10	23.86	-28.6	-29.4	15.3	0.00e+00	0	44	0	613416960	17	3962
2026-01-17 02:23:39.03	305.82	23.83	-28.5	-29.3	15.4	1.12e-03	0	44	0	615514112	17	3929
2026-01-17 02:23:40.04	305.54	23.81	-28.6	-29.5	15.3	2.30e-03	0	44	0	617611264	17	3983
2026-01-17 02:23:41.04	305.26	23.79	-28.5	-29.2	15.4	0.00e+00	0	44	0	618659840	17	3903
2026-01-17 02:23:42.04	304.98	23.76	-28.5	-29.1	15.5	0.00e+00	0	44	0	620756992	17	3886
2026-01-17 02:23:43.04	304.71	23.74	-28.2	-29.0	15.8	2.33e-03	0	44	0	622854144	16	3947
2026-01-17 02:23:44.05	304.43	23.71	-27.8	-28.5	16.2	2.25e-03	0	44	0	624951296	15	3907
2026-01-17 02:23:45.05	304.15	23.68	-27.7	-28.3	16.4	0.00e+00	0	44	0	627048448	15	3875
2026-01-17 02:23:46.05	303.87	23.66	-27.8	-28.6	16.2	2.39e-03	0	44	0	628097024	15	3946
2026-01-17 02:23:47.05	303.60	23.63	-27.6	-28.2	16.5	2.81e-03	0	43	0	630194176	15	3839
2026-01-17 02:23:48.06	303.32	23.60	-27.7	-28.3	16.4	0.00e+00	0	44	0	632291328	15	3853
2026-01-17 02:23:49.05	303.05	23.57	-27.9	-28.8	16.1	0.00e+00	0	44	0	634388480	15	3999
2026-01-17 02:23:50.05	302.77	23.54	-27.8	-28.6	16.2	2.84e-03	0	43	0	635437056	15	3935
2026-01-17 02:23:51.06	302.50	23.51	-28.2	-29.0	15.8	1.46e-03	0	44	0	637534208	16	3940
2026-01-17 02:23:52.06	302.22	23.48	-28.2	-29.0	15.8	0.00e+00	0	43	0	639631360	16	3945
2026-01-17 02:23:53.07	301.95	23.45	-28.3	-29.3	15.7	2.81e-03	0	44	0	641728512	16	4028
2026-01-17 02:23:54.07	301.67	23.41	-28.3	-29.3	15.7	4.88e-04	0	44	0	643825664	16	4007
2026-01-17 02:23:55.08	301.40	23.38	-28.3	-29.2	15.7	0.00e+00	0	44	0	644874240	16	3982
2026-01-17 02:23:56.08	301.13	23.35	-28.5	-29.1	15.5	7.00e-07	0	44	0	646971392	17	3866
2026-01-17 02:23:57.08	300.86	23.31	-28.4	-28.9	15.6	2.41e-04	0	44	0	649068544	17	3830
2026-01-17 02:23:58.09	300.59	23.28	-28.4	-29.6	15.5	5.10e-04	0	44	0	651165696	16	4093
2026-01-17 02:23:59.09	300.32	23.24	-28.5	-29.2	15.4	0.00e+00	0	44	0	653262848	17	3907
2026-01-17 02:24:00.09	300.05	23.20	-28.7	-29.7	15.2	0.00e+00	0	44	0	654311424	17	4035
2026-01-17 02:24:01.09	299.78	23.17	-28.7	-29.8	15.1	2.66e-03	0	44	0	656408576	17	4053
2026-01-17 02:24:02.09	299.51	23.13	-28.8	-30.1	14.9	0.00e+00	0	44	0	658505728	17	4142
2026-01-17 02:24:03.09	299.25	23.09	-29.2	-30.6	14.3	0.00e+00	0	44	0	660602880	18	4197
2026-01-17 02:24:04.09	298.98	23.05	-29.1	-30.3	14.5	2.55e-03	0	44	0	662700032	18	4118
2026-01-17 02:24:05.09	298.71	23.01	-29.1	-30.1	14.6	7.00e-07	0	44	0	663748608	18	4060
2026-01-17 02:24:06.09	298.45	22.97	-29.1	-30.1	14.6	0.00e+00	0	44	0	665845760	18	4047
2026-01-17 02:24:07.09	298.19	22.93	-29.1	-30.1	14.6	0.00e+00	0	44	0	667942912	18	4052
2026-01-17 02:24:08.09	297.92	22.89	-28.9	-29.8	14.8	2.26e-03	0	43	0	670040064	18	3961
2026-01-17 02:24:09.09	297.66	22.85	-28.9	-29.7	14.9	0.00e+00	0	44	0	672137216	18	3957
2026-01-17 02:24:10.09	297.40	22.80	-29.1	-30.3	14.5	7.00e-07	0	44	0	673185792	18	4122
2026-01-17 02:24:11.09	297.14	22.76	-29.1	-30.2	14.4	2.14e-03	0	44	0	675282944	18	4103
2026-01-17 02:24:12.10	296.87	22.72	-29.5	-31.2	13.9	1.50e-06	0	44	0	677380096	18	4380
2026-01-17 02:24:13.09	296.62	22.67	-29.4	-30.6	13.9	6.10e-06	0	44	0	679477248	19	4127
2026-01-17 02:24:14.10	296.35	22.63	-29.5	-30.8	13.8	3.00e-06	0	44	0	680525824	19	4187
2026-01-17 02:24:15.11	296.09	22.58	-29.7	-31.3	13.5	7.60e-06	0	44	0	682622976	19	4342
2026-01-17 02:24:16.11	295.84	22.54	-30.0	-31.6	12.9	3.89e-05	0	44	0	684720128	20	4340
2026-01-17 02:24:17.11	295.58	22.49	-30.1	-32.1	12.6	9.46e-05	0	44	0	686817280	20	4502
2026-01-17 02:24:18.11	295.32	22.44	-30.5	-33.0	11.9	1.03e-04	0	44	0	688914432	20	4838
2026-01-17 02:24:19.11	295.07	22.40	-30.4	-32.8	12.1	4.73e-04	0	44	0	689963008	20	4756
2026-01-17 02:24:20.11	294.81	22.35	-30.3	-32.5	12.2	3.12e-04	0	44	0	692060160	20	4659
2026-01-17 02:24:21.11	294.56	22.30	-30.1	-32.0	12.6	1.75e-04	0	44	0	694157312	20	4479
2026-01-17 02:24:22.11	294.31	22.25	-30.1	-32.2	12.5	5.16e-04	0	44	0	696254464	20	4542
2026-01-17 02:24:23.11	294.06	22.20	-30.3	-32.6	12.1	1.62e-04	0	44	0	698351616	20	4696
2026-01-17 02:24:24.11	293.80	22.15	-30.1	-32.2	12.4	1.55e-04	0	44	0	699400192	20	4554
2026-01-17 02:24:25.12	293.55	22.10	-29.9	-32.1	12.9	7.62e-05	0	44	0	701497344	19	4595
2026-01-17 02:24:26.12	293.30	22.05	-29.7	-31.5	13.2	3.43e-05	0	44	0	703594496	19	4421
2026-01-17 02:24:27.13	293.05	22.00	-29.9	-31.9	13.0	3.28e-05	0	44	0	705691648	19	4543
2026-01-17 02:24:28.12	292.81	21.95	-30.1	-32.0	12.5	3.66e-05	0	44	0	707788800	20	4507
2026-01-17 02:24:29.12	292.56	21.89	-30.3	-32.6	12.2	1.72e-04	0	44	0	708837376	20	4683
2026-01-17 02:24:30.12	292.31	21.84	-30.2	-32.3	12.3	1.78e-03	0	44	0	710934528	20	4604
2026-01-17 02:24:31.12	292.07	21.79	-30.2	-32.4	12.3	1.65e-04	0	44	0	713031680	20	4621
2026-01-17 02:24:32.13	291.82	21.73	-30.3	-32.5	12.2	2.55e-04	0	44	0	715128832	20	4652
2026-01-17 02:24:33.13	291.58	21.68	-29.9	-31.5	12.8	1.03e-03	0	43	0	716177408	20	4347
2026-01-17 02:24:34.13	291.33	21.62	-29.7	-31.3	13.3	1.98e-05	0	44	0	718274560	19	4364
2026-01-17 02:24:35.13	291.09	21.57	-29.4	-30.7	13.8	1.22e-05	0	44	0	720371712	19	4169
2026-01-17 02:24:36.14	290.85	21.51	-29.3	-30.9	13.9	5.80e-04	0	44	0	722468864	18	4335
2026-01-17 02:24:37.14	290.61	21.46	-29.5	-31.3	13.7	4.65e-04	0	44	0	724566016	18	4443
2026-01-17 02:24:38.14	290.37	21.40	-29.3	-30.7	14.0	6.10e-06	0	44	0	725614592	18	4267
2026-01-17 02:24:39.14	290.13	21.34	-29.5	-31.3	13.7	3.84e-04	0	44	0	727711744	18	4452
2026-01-17 02:24:40.14	289.89	21.29	-29.4	-30.6	13.9	3.29e-04	0	44	0	729808896	19	4125
2026-01-17 02:24:41.15	289.65	21.23	-29.5	-31.0	13.5	5.30e-06	0	44	0	731906048	19	4274
2026-01-17 02:24:42.15	289.42	21.17	-29.9	-31.9	12.9	1.75e-05	0	44	0	734003200	19	4555
2026-01-17 02:24:43.15	289.18	21.11	-29.9	-32.1	12.8	2.25e-04	0	44	0	735051776	19	4633
2026-01-17 02:24:44.15	288.95	21.05	-30.0	-31.8	12.6	8.01e-05	0	44	0	737148928	20	4436
2026-01-17 02:24:45.15	288.72	21.00	-30.0	-31.7	12.7	1.46e-04	0	44	0	739246080	20	4405
2026-01-17 02:24:46.16	288.48	20.94	-29.2	-30.9	12.7	4.12e-04	0	44	0	741343232	20	4408
2026-01-17 02:24:47.16	288.25	20.88	-29.9	-31.5	12.8	6.63e-05	0	44	0	743440384	20	4353
2026-01-17 02:24:48.17	288.02	20.81	-29.9	-32.1	12.6	3.86e-04	0	44	0	744488960	19	4611
2026-01-17 02:24:49.16	287.79	20.76	-29.8	-31.7	12.3	4.04e-05	0	44	0	746586112	19	4482
2026-01-17 02:24:50.17	287.56	20.69	-29.8	-31.6	13.0	2.51e-05	0	44	0	748683264	19	4470
2026-01-17 02:24:51.17	287.33	20.63	-30.0	-31.9	12.0	7.09e-05	0	44	0	750780416	20	4492
2026-01-17 02:24:52.17	287.10	20.57	-30.1	-32.2	12.0	1.19e-04	0	43	0	752877568	20	4591
2026-01-17 02:24:53.17	286.88	20.51	-30.3	-32.9	11.8	4.19e-04	0	43	0	753926144	20	4848
2026-01-17 02:24:54.18	286.65	20.45	-30.6	-33.1	11.3	9.33e-04	0	44	0	756023296	21	4827
2026-01-17 02:24:55.18	286.43	20.38	-30.6	-33.2	11.2	1.23e-03	0	44	0	758120448	21	4871
2026-01-17 02:24:56.18	286.20	20.32	-30.5	-32.8	11.5	8.28e-04	0	44	0	760217600	21	4685
2026-01-17 02:24:57.18	285.98	20.26	-30.3	-32.8	11.9	8.93e-04	0	44	0	762314752	20	4805
2026-01-17 02:24:58.19	285.76	20.20	-30.1	-32.2	12.3	5.80e-04	0	43	0	763363328	20	4592
2026-01-17 02:24:59.19	285.54	20.13	-29.7	-31.1	13.0	9.99e-05	0	44	0	765460480	20	4226
2026-01-17 02:25:00.19	285.32	20.07	-29.9	-31.9	12.9	1.40e-03	0	43	0	767557632	19	4556
2026-01-17 02:25:01.20	285.10	20.00	-30.0	-31.7	12.7	2.61e-04	0	44	0	769654784	20	4416
2026-01-17 02:25:02.20	284.88	19.94	-29.6	-30.7	13.3	3.96e-05	0	44	0	770703360	20	4087
2026-01-17 02:25:03.20	284.66	19.87	-29.5	-30.8	13.7	2.32e-03	0	44	0	772800512	19	4196
2026-01-17 02:25:04.20	284.45	19.81	-29.4	-31.3	13.6	4.28e-04	0	44	0	774897664	18	4437
2026-01-17 02:25:05.20	284.23	19.74	-29.5	-31.0	13.6	1.06e-05	0	44	0	776994816	19	4250
2026-01-17 02:25:06.21	284.02	19.68	-29.4	-30.7	13.6	1.21e-03	0	44	0	779091968	19	4157
2026-01-17 02:25:07.21	283.80	19.61	-29.1	-30.4	14.1	1.92e-03	0	44	0	780140544	18	4176
2026-01-17 02:25:08.21	283.59	19.55	-28.9	-29.8	14.5	1.50e-06	0	44	0	782237696	18	4007
2026-01-17 02:25:09.21	283.38	19.48	-28.8	-30.0	14.7	2.07e-03	0	44	0	784334848	17	4156
2026-01-17 02:25:10.21	283.17	19.41	-28.8	-30.0	14.7	2.51e-03	0	44	0	786432000	17	4165
2026-01-17 02:25:11.21	282.96	19.35	-28.8	-30.0	14.7	0.00e+00	0	43	0	788529152	17	4151
2026-01-17 02:25:12.20	282.76	19.28	-28.8	-30.1	14.7	2.14e-03	0	44	0	789577728	17	4159
2026-01-17 02:25:13.20	282.55	19.21	-28.5	-29.7	15.1	2.04e-03	0	44	0	791674880	16	4172
2026-01-17 02:25:14.21	282.34	19.15	-28.5	-29.4	15.0	0.00e+00	0	44	0	793772032	17	3994
2026-01-17 02:25:15.21	282.13	19.08	-28.8	-30.0	14.7	1.82e-03	0	44	0	795869184	17	4148
2026-01-17 02:25:16.21	281.93	19.01	-28.7	-29.9	14.7	1.61e-03	0	44	0	797966336	17	4112
2026-01-17 02:25:17.20	281.73	18.94	-29.1	-30.3	14.1	0.00e+00	0	44	0	799014912	18	4148
2026-01-17 02:25:18.21	281.52	18.88	-29.4	-31.3	13.7	2.24e-04	0	44	0	801112064	18	4450
2026-01-17 02:25:19.21	281.32	18.81	-29.9	-32.0	12.9	1.90e-05	0	44	0	803209216	19	4583
2026-01-17 02:25:20.22	281.12	18.74	-30.0	-31.8	12.6	5.72e-05	0	44	0	805306368	20	4423
2026-01-17 02:25:21.21	280.92	18.67	-30.0	-31.8	12.5	2.30e-03	0	44	0	806354944	20	4448
2026-01-17 02:25:22.22	280.72	18.60	-30.0	-31.7	12.5	1.16e-04	0	44	0	808452096	20	4427
2026-01-17 02:25:23.23	280.52	18.53	-30.1	-32.2	12.2	1.61e-04	0	44	0	810549248	20	4581
2026-01-17 02:25:24.23	280.32	18.46	-30.2	-32.5	11.9	2.49e-03	0	44	0	812646400	20	4705
2026-01-17 02:25:25.22	280.13	18.39	-30.2	-32.7	11.9	2.76e-03	0	44	0	814743552	20	4771
2026-01-17 02:25:26.22	279.93	18.32	-30.3	-32.8	11.8	4.97e-04	0	44	0	815792128	20	4811
2026-01-17 02:25:27.22	279.74	18.25	-30.0	-31.9	12.3	5.33e-04	0	44	0	817889280	20	4480
2026-01-17 02:25:28.22	279.54	18.18	-29.6	-30.8	13.1	8.04e-04	0	44	0	819986432	20	4147
2026-01-17 02:25:29.22	279.35	18.12	-29.5	-30.6	13.3	1.75e-05	0	44	0	822083584	20	4082
2026-01-17 02:25:30.22	279.16	18.05	-29.4	-30.7	13.7	1.05e-03	0	44	0	824180736	19	4179
2026-01-17 02:25:31.22	278.97	17.98	-29.3	-30.8	13.9	1.54e-03	0	44	0	825229312	18	4305
2026-01-17 02:25:32.22	278.78	17.90	-29.0	-30.3	14.2	2.20e-06	0	43	0	827326464	18	4145
2026-01-17 02:25:33.21	278.59	17.84	-28.9	-30.4	14.4	1.05e-03	0	44	0	829423616	17	4285
2026-01-17 02:25:34.22	278.40	17.76	-28.7	-30.0	14.6	2.28e-03	0	44	0	831520768	17	4165
2026-01-17 02:25:35.22	278.21	17.69	-28.6	-29.7	14.8	3.32e-04	0	44	0	833617920	17	4067
2026-01-17 02:25:36.23	278.02	17.62	-28.7	-29.8	14.7	3.11e-04	0	44	0	834666496	17	4116
2026-01-17 02:25:37.23	277.84	17.55	-29.0	-30.6	14.3	2.32e-03	0	44	0	836763648	17	4333
2026-01-17 02:25:38.24	277.65	17.48	-29.2	-30.6	13.9	5.83e-04	0	44	0	838860800	18	4228
2026-01-17 02:25:39.24	277.47	17.41	-29.4	-31.2	13.6	2.73e-03	0	44	0	840957952	18	4435
2026-01-17 02:25:40.23	277.28	17.34	-29.5	-31.0	13.5	6.10e-06	0	44	0	843055104	19	4260
2026-01-17 02:25:41.24	277.10	17.27	-29.5	-31.1	13.4	8.77e-04	0	43	0	844103680	19	4294
2026-01-17 02:25:42.23	276.92	17.20	-29.4	-30.7	13.6	2.75e-03	0	43	0	846200832	19	4176
2026-01-17 02:25:43.23	276.74	17.12	-29.3	-30.9	13.8	3.18e-03	0	44	0	848297984	18	4323
2026-01-17 02:25:44.23	276.56	17.05	-29.2	-30.7	13.9	6.97e-04	0	44	0	850395136	18	4270
2026-01-17 02:25:45.23	276.38	16.98	-29.2	-30.8	13.8	2.88e-03	0	44	0	851443712	18	4327
2026-01-17 02:25:46.23	276.20	16.91	-29.3	-31.0	13.7	3.01e-03	0	44	0	853540864	18	4388
2026-01-17 02:25:47.23	276.03	16.84	-29.4	-31.4	13.4	8.30e-06	0	44	0	855638016	18	4503
2026-01-17 02:25:48.23	275.85	16.77	-29.5	-31.2	13.2	2.50e-03	0	44	0	857735168	19	4330
2026-01-17 02:25:49.23	275.67	16.69	-29.5	-31.1	13.4	2.37e-03	0	44	0	859832320	19	4304
2026-01-17 02:25:50.24	275.50	16.62	-29.6	-31.4	13.1	2.82e-04	0	44	0	860880896	19	4383
2026-01-17 02:25:51.24	275.32	16.55	-29.7	-31.6	13.0	2.36e-03	0	44	0	862978048	19	4461
2026-01-17 02:25:52.24	275.15	16.48	-29.7	-31.5	13.1	2.64e-03	0	44	0	865075200	19	4416
2026-01-17 02:25:53.24	274.98	16.41	-29.6	-31.2	13.2	1.95e-04	0	44	0	867172352	19	4354
2026-01-17 02:25:54.25	274.81	16.33	-29.5	-31.0	13.3	7.53e-04	0	44	0	869269504	19	4282
2026-01-17 02:25:55.25	274.64	16.26	-29.4	-31.3	13.5	1.26e-03	0	44	0	870318080	18	4463
2026-01-17 02:25:56.26	274.46	16.19	-29.3	-30.9	13.7	1.29e-05	0	44	0	872415232	18	4347
2026-01-17 02:25:57.26	274.30	16.12	-29.3	-31.0	13.7	1.96e-03	0	44	0	874512384	18	4365
2026-01-17 02:25:58.26	274.13	16.04	-29.3	-30.9	13.7	3.68e-04	0	44	0	876609536	18	4347
2026-01-17 02:25:59.26	273.96	15.97	-29.1	-30.5	14.0	3.80e-06	0	44	0	878706688	18	4208
2026-01-17 02:26:00.26	273.79	15.90	-29.4	-31.1	13.7	2.75e-03	0	44	0	879755264	18	4374
2026-01-17 02:26:01.26	273.63	15.83	-29.7	-31.4	13.2	1.78e-03	0	44	0	881852416	19	4388
2026-01-17 02:26:02.27	273.46	15.75	-29.4	-31.3	13.5	2.35e-04	0	44	0	883949568	18	4444
2026-01-17 02:26:03.27	273.30	15.68	-29.6	-31.3	13.2	2.49e-03	0	43	0	886046720	19	4368
2026-01-17 02:26:04.27	273.14	15.61	-29.4	-30.7	13.5	3.96e-03	0	44	0	887095296	19	4170
2026-01-17 02:26:05.27	272.97	15.54	-29.1	-30.4	14.0	5.98e-04	0	44	0	889192448	18	4185
2026-01-17 02:26:06.28	272.81	15.46	-28.8	-30.3	14.4	2.41e-03	0	44	0	891289600	17	4238
2026-01-17 02:26:07.28	272.65	15.39	-28.7	-29.9	14.7	2.19e-03	0	44	0	893386752	17	4120
2026-01-17 02:26:08.28	272.49	15.32	-28.6	-29.7	14.8	0.00e+00	0	44	0	895483904	17	4056
2026-01-17 02:26:09.28	272.33	15.25	-28.3	-29.4	15.3	2.24e-03	0	44	0	896532480	16	4076
2026-01-17 02:26:10.28	272.17	15.17	-28.4	-29.5	15.2	2.45e-03	0	44	0	898629632	16	4098
2026-01-17 02:26:11.28	272.01	15.10	-28.5	-29.7	15.1	3.36e-04	0	44	0	900726784	16	4173
2026-01-17 02:26:12.29	271.86	15.03	-28.5	-29.8	15.1	2.52e-03	0	44	0	902823936	16	4181
2026-01-17 02:26:13.29	271.70	14.96	-28.7	-29.7	14.7	2.41e-03	0	44	0	904921088	17	4071
2026-01-17 02:26:14.30	271.54	14.88	-28.7	-29.9	14.6	3.28e-04	0	44	0	905969664	17	4131
2026-01-17 02:26:15.30	271.39	14.81	-28.8	-30.1	14.5	7.00e-07	0	43	0	908066816	17	4197
2026-01-17 02:26:16.30	271.24	14.74	-28.9	-30.3	14.4	2.65e-03	0	44	0	910163968	17	4237
2026-01-17 02:26:17.31	271.08	14.66	-29.1	-30.3	14.1	9.26e-04	0	44	0	912261120	18	4156
2026-01-17 02:26:18.31	270.93	14.59	-29.1	-30.3	14.0	5.23e-03	0	44	0	914358272	18	4173
2026-01-17 02:26:19.30	270.78	14.52	-29.2	-30.6	13.9	3.21e-03	0	44	0	915406848	18	4236
2026-01-17 02:26:20.30	270.63	14.45	-29.2	-30.6	13.9	1.54e-03	0	44	0	917504000	18	4238
2026-01-17 02:26:21.30	270.48	14.37	-29.2	-30.8	13.7	4.04e-03	0	44	0	919601152	18	4309
2026-01-17 02:26:22.31	270.33	14.30	-29.2	-30.6	13.9	3.80e-06	0	44	0	921698304	18	4242
2026-01-17 02:26:23.31	270.18	14.23	-29.0	-30.1	14.2	1.52e-03	0	44	0	923795456	18	4090
2026-01-17 02:26:24.32	270.03	14.16	-28.9	-29.8	14.4	4.15e-03	0	44	0	924844032	18	3997
2026-01-17 02:26:25.32	269.88	14.08	-28.6	-29.6	14.7	5.44e-03	0	44	0	926941184	17	4044
2026-01-17 02:26:26.32	269.74	14.01	-28.6	-29.5	14.8	1.71e-03	0	44	0	929038336	17	4026
2026-01-17 02:26:27.32	269.59	13.94	-28.7	-29.8	14.6	3.33e-03	0	44	0	931135488	17	4097
2026-01-17 02:26:28.33	269.45	13.87	-28.7	-29.8	14.5	3.31e-03	0	44	0	932184064	17	4118
2026-01-17 02:26:29.33	269.30	13.79	-28.8	-30.1	14.4	0.00e+00	0	44	0	934281216	17	4190
2026-01-17 02:26:30.33	269.16	13.72	-29.0	-30.2	14.1	3.19e-03	0	44	0	936378368	18	4116
2026-01-17 02:26:31.34	269.01	13.65	-29.3	-31.0	13.6	3.17e-03	0	44	0	938475520	18	4381
2026-01-17 02:26:32.34	268.87	13.58	-29.5	-31.1	13.1	1.83e-05	0	44	0	940572672	19	4311
2026-01-17 02:26:33.34	268.73	13.50	-29.6	-31.4	13.0	4.57e-05	0	44	0	941621248	19	4399
2026-01-17 02:26:34.34	268.59	13.43	-29.7	-31.5	13.0	3.07e-03	0	44	0	943718400	19	4424
2026-01-17 02:26:35.34	268.45	13.36	-29.6	-31.4	13.0	5.11e-04	0	43	0	945815552	19	4397
2026-01-17 02:26:36.34	268.31	13.29	-29.8	-31.8	12.7	5.72e-05	0	43	0	947912704	19	4552
2026-01-17 02:26:37.35	268.17	13.22	-29.9	-32.0	12.5	2.92e-03	0	44	0	950009856	19	4611
2026-01-17 02:26:38.35	268.03	13.14	-29.8	-32.0	12.5	2.30e-04	0	44	0	951058432	19	4612
2026-01-17 02:26:39.35	267.90	13.07	-29.8	-32.0	12.5	1.06e-04	0	44	0	953155584	19	4611
2026-01-17 02:26:40.36	267.76	13.00	-29.8	-31.9	12.6	1.33e-04	0	44	0	955252736	19	4570
2026-01-17 02:26:41.35	267.62	12.93	-29.7	-31.5	12.9	7.47e-05	0	44	0	957349888	19	4446
2026-01-17 02:26:42.36	267.49	12.86	-29.7	-31.4	12.9	3.96e-05	0	44	0	959447040	19	4426
2026-01-17 02:26:43.36	267.35	12.79	-29.4	-30.8	13.3	1.83e-05	0	44	0	960495616	19	4207
2026-01-17 02:26:44.36	267.22	12.71	-29.4	-30.8	13.3	1.18e-04	0	44	0	962592768	19	4212
2026-01-17 02:26:45.37	267.08	12.64	-29.4	-30.9	13.2	2.03e-03	0	44	0	964689920	19	4248
2026-01-17 02:26:46.37	266.95	12.57	-29.1	-30.5	13.8	6.80e-06	0	44	0	966787072	18	4222
2026-01-17 02:26:47.37	266.82	12.50	-28.8	-29.5	14.3	2.20e-06	0	44	0	968884224	18	3942
2026-01-17 02:26:48.37	266.69	12.43	-27.9	-29.0	14.5	2.44e-03	0	44	0	969932800	17	4101
2026-01-17 02:26:49.38	266.56	12.36	-28.8	-30.2	14.3	2.20e-06	0	44	0	972029952	17	4213
2026-01-17 02:26:50.38	266.43	12.28	-29.0	-30.2	13.2	7.00e-07	0	44	0	974127104	18	4131
2026-01-17 02:26:51.39	266.30	12.21	-29.3	-31.1	13.4	2.81e-03	0	44	0	976224256	18	4408
2026-01-17 02:26:52.39	266.17	12.14	-29.5	-31.1	13.1	3.73e-05	0	44	0	978321408	19	4334
2026-01-17 02:26:53.39	266.04	12.07	-29.7	-31.5	12.8	3.73e-05	0	44	0	979369984	19	4448
2026-01-17 02:26:54.38	265.91	12.00	-29.8	-31.9	12.6	1.26e-04	0	44	0	981467136	19	4569
2026-01-17 02:26:55.39	265.79	11.93	-29.9	-32.1	12.4	3.09e-03	0	44	0	983564288	19	4639
2026-01-17 02:26:56.39	265.66	11.86	-29.8	-32.0	12.4	1.44e-03	0	44	0	985661440	19	4619
2026-01-17 02:26:57.40	265.53	11.79	-29.8	-31.8	12.5	1.05e-04	0	44	0	986710016	19	4549
2026-01-17 02:26:58.40	265.41	11.72	-29.9	-32.3	12.2	2.48e-03	0	44	0	988807168	19	4736
2026-01-17 02:26:59.40	265.28	11.64	-29.8	-31.8	12.5	3.62e-04	0	44	0	990904320	19	4543
2026-01-17 02:27:00.40	265.16	11.57	-29.5	-31.1	13.0	5.26e-05	0	44	0	993001472	19	4340
2026-01-17 02:27:01.41	265.04	11.50	-29.4	-30.7	13.3	3.35e-05	0	44	0	995098624	19	4197
2026-01-17 02:27:02.40	264.91	11.43	-29.2	-30.9	13.4	6.76e-04	0	44	0	996147200	18	4354
2026-01-17 02:27:03.41	264.79	11.36	-29.2	-30.8	13.5	2.22e-03	0	44	0	998244352	18	4324
2026-01-17 02:27:04.40	264.67	11.29	-29.2	-30.7	13.6	8.30e-06	0	44	0	1000341504	18	4289
2026-01-17 02:27:05.40	264.55	11.22	-29.3	-31.1	13.3	1.06e-05	0	44	0	1002438656	18	4437
2026-01-17 02:27:06.40	264.43	11.15	-29.2	-30.9	13.4	2.31e-03	0	44	0	1004535808	18	4357
2026-01-17 02:27:07.40	264.31	11.08	-29.6	-31.3	12.8	2.74e-05	0	44	0	1005584384	19	4404
2026-01-17 02:27:08.39	264.19	11.01	-29.4	-31.0	13.0	6.40e-05	0	44	0	1007681536	19	4300
2026-01-17 02:27:09.39	264.08	10.94	-29.4	-31.4	13.0	6.96e-03	0	44	0	1009778688	18	4544
2026-01-17 02:27:10.39	263.96	10.87	-29.5	-31.1	12.8	4.11e-05	0	44	0	1011875840	19	4356
2026-01-17 02:27:11.40	263.84	10.80	-29.5	-31.1	12.9	4.42e-05	0	44	0	1013972992	19	4351
2026-01-17 02:27:12.40	263.72	10.73	-29.5	-31.2	12.8	5.87e-05	0	44	0	1015021568	19	4376
2026-01-17 02:27:13.40	263.61	10.66	-29.6	-31.6	12.5	7.70e-05	0	44	0	1017118720	19	4492
2026-01-17 02:27:14.40	263.49	10.59	-29.8	-32.1	12.2	1.81e-04	0	44	0	1019215872	19	4680
2026-01-17 02:27:15.40	263.38	10.53	-29.8	-32.0	12.2	2.95e-04	0	44	0	1021313024	19	4662
2026-01-17 02:27:16.40	263.26	10.46	-30.1	-32.5	11.4	6.10e-03	0	44	0	1022361600	20	4741
2026-01-17 02:27:17.40	263.15	10.39	-30.3	-33.1	11.0	4.10e-03	0	43	0	1024458752	20	4978
2026-01-17 02:27:18.41	263.03	10.32	-30.2	-33.0	11.1	8.39e-04	0	44	0	1026555904	20	4951
2026-01-17 02:27:19.41	262.92	10.25	-30.4	-33.4	10.8	3.30e-03	0	44	0	1028653056	20	5109
2026-01-17 02:27:20.41	262.81	10.18	-30.2	-32.7	11.3	3.64e-03	0	44	0	1030750208	20	4802
2026-01-17 02:27:21.41	262.70	10.11	-30.1	-32.5	11.5	3.19e-03	0	44	0	1031798784	20	4726
2026-01-17 02:27:22.41	262.59	10.04	-30.1	-32.6	11.4	8.38e-04	0	44	0	1033895936	20	4775
2026-01-17 02:27:23.41	262.47	9.97	-30.2	-32.7	11.3	7.76e-04	0	44	0	1035993088	20	4832
2026-01-17 02:27:24.42	262.36	9.90	-30.2	-32.7	11.3	4.13e-03	0	44	0	1038090240	20	4819
2026-01-17 02:27:25.41	262.26	9.84	-30.1	-32.3	11.6	1.02e-03	0	44	0	1040187392	20	4680
2026-01-17 02:27:26.42	262.15	9.77	-30.0	-32.2	11.7	7.55e-04	0	44	0	1041235968	20	4640
2026-01-17 02:27:27.42	262.04	9.70	-30.2	-32.6	11.4	1.84e-03	0	44	0	1043333120	20	4789
2026-01-17 02:27:28.41	261.93	9.63	-30.3	-33.0	11.1	1.11e-03	0	44	0	1045430272	20	4948
2026-01-17 02:27:29.41	261.82	9.56	-30.4	-33.3	10.9	1.63e-03	0	44	0	1047527424	20	5050
2026-01-17 02:27:30.41	261.72	9.49	-30.4	-33.5	10.7	2.14e-03	0	44	0	1048576000	20	5120
2026-01-17 02:27:31.41	261.61	9.43	-30.5	-33.3	10.5	5.33e-03	0	44	0	1050673152	21	4960
2026-01-17 02:27:32.41	261.50	9.36	-30.6	-33.5	10.3	4.60e-03	0	44	0	1052770304	21	5051
2026-01-17 02:27:33.42	261.40	9.29	-30.8	-34.4	9.7	8.43e-03	0	44	0	1054867456	21	5440
2026-01-17 02:27:34.42	261.29	9.22	-30.6	-33.6	10.3	6.46e-03	0	44	0	1056964608	21	5079
2026-01-17 02:27:35.43	261.19	9.15	-30.5	-33.2	10.5	4.65e-03	0	44	0	1059061760	21	4948
2026-01-17 02:27:36.44	261.08	9.09	-30.4	-33.1	10.6	4.34e-03	0	44	0	1060110336	21	4895
2026-01-17 02:27:37.44	260.98	9.02	-30.5	-33.1	10.6	3.47e-03	0	44	0	1062207488	21	4909
2026-01-17 02:27:38.44	260.87	8.95	-30.3	-33.1	10.9	4.01e-03	0	44	0	1064304640	20	4978
2026-01-17 02:27:39.45	260.77	8.88	-29.2	-31.6	11.4	1.40e-03	0	44	0	1066401792	20	4740
2026-01-17 02:27:40.45	260.67	8.82	-29.3	-31.4	11.7	8.34e-04	0	44	0	1067450368	20	4602
2026-01-17 02:27:41.45	260.57	8.75	-28.7	-30.7	11.9	7.09e-04	0	44	0	1069547520	19	4554
2026-01-17 02:27:42.45	260.47	8.68	-28.8	-31.5	10.8	7.18e-04	0	44	0	1071644672	18	4903
2026-01-17 02:27:43.46	260.36	8.62	-29.7	-31.8	11.9	1.50e-04	0	44	0	1073741824	19	4596
2026-01-17 02:27:44.46	260.26	8.55	-29.3	-31.9	10.1	4.73e-04	0	44	0	1075838976	18	4875
2026-01-17 02:27:45.47	260.16	8.48	-29.5	-32.0	10.3	4.07e-04	0	44	0	1076887552	18	4835
2026-01-17 02:27:46.47	260.07	8.41	-29.8	-31.9	11.9	2.06e-04	0	44	0	1078984704	19	4634
2026-01-17 02:27:47.48	259.97	8.35	-29.8	-32.1	10.7	1.10e-02	0	44	0	1081081856	19	4694
2026-01-17 02:27:48.48	259.87	8.28	-29.9	-32.4	11.8	4.69e-04	0	44	0	1083179008	19	4793
2026-01-17 02:27:49.48	259.77	8.21	-30.0	-32.7	11.5	3.35e-04	0	44	0	1085276160	19	4925
2026-01-17 02:27:50.48	259.67	8.15	-30.0	-32.5	11.2	1.19e-03	0	44	0	1086324736	20	4769
2026-01-17 02:27:51.49	259.57	8.08	-29.9	-32.2	11.4	1.23e-03	0	44	0	1088421888	20	4653
2026-01-17 02:27:52.49	259.48	8.02	-30.0	-32.5	11.2	1.39e-03	0	44	0	1090519040	20	4774
2026-01-17 02:27:53.49	259.38	7.95	-30.0	-32.5	11.1	1.67e-03	0	43	0	1092616192	20	4832
2026-01-17 02:27:54.49	259.29	7.88	-30.1	-32.8	10.9	9.15e-03	0	44	0	1094713344	20	4934
2026-01-17 02:27:55.49	259.19	7.82	-30.0	-32.6	11.1	2.57e-03	0	44	0	1095761920	20	4851
2026-01-17 02:27:56.48	259.10	7.75	-29.9	-32.3	11.2	1.99e-03	0	44	0	1097859072	20	4744
2026-01-17 02:27:57.49	259.00	7.69	-29.9	-32.7	11.4	8.10e-03	0	44	0	1099956224	19	4978
2026-01-17 02:27:58.49	258.91	7.62	-29.8	-32.5	11.6	9.74e-04	0	44	0	1102053376	19	4864
2026-01-17 02:27:59.49	258.82	7.56	-30.0	-32.9	11.3	1.54e-03	0	44	0	1104150528	19	5051
2026-01-17 02:28:00.49	258.72	7.49	-29.9	-32.6	11.5	1.61e-03	0	44	0	1105199104	19	4938
2026-01-17 02:28:01.50	258.63	7.43	-29.9	-32.7	11.4	1.28e-03	0	44	0	1107296256	19	4953
2026-01-17 02:28:02.50	258.54	7.36	-30.0	-32.5	11.1	1.66e-03	0	44	0	1109393408	20	4821
2026-01-17 02:28:03.50	258.45	7.30	-30.1	-32.9	10.8	2.32e-03	0	44	0	1111490560	20	4999
2026-01-17 02:28:04.51	258.35	7.23	-30.2	-33.2	10.5	4.16e-03	0	44	0	1112539136	20	5099
2026-01-17 02:28:05.51	258.26	7.16	-30.1	-32.8	10.8	4.93e-03	0	44	0	1114636288	20	4958
2026-01-17 02:28:06.51	258.17	7.10	-30.1	-32.9	10.7	4.20e-03	0	44	0	1116733440	20	4991
2026-01-17 02:28:07.51	258.08	7.04	-32.4	-43.7	4.0	2.25e-03	0	44	0	1118830592	24	13277
2026-01-17 02:28:08.51	257.99	6.97	-32.9	-45.4	3.8	1.49e+00	0	44	104	1118830592	25	15266
2026-01-17 02:28:09.51	257.90	6.91	-33.1	-45.6	3.8	1.49e+00	0	44	104	1118830592	26	15051

#Closed at: 2026-01-17 02:28:10
#Recorded file [1118 MB]: D:/data/31010_260117_051810.dat