passes_logs/2026/01/17/R2M6_AANII_01/R2M6_AANII_01__20260117_145342_FENGYUN_3E_rec.log

#Pass ID: 20260117_145342_FENGYUN 3E
#Satellite: FENGYUN 3E
#Configuration: FENGYUN 3E
#almurnet v.1.7.20240730
#Start time: 2026-01-17 14:53:43

#Version: 2.2.20231116
#Station: R2M6_AANII_01
#Location: 30.233357 lon 59.946436 lat
#TLE: 1 49008U 21062A   26016.55599566  .00000255  00000+0  14071-3 0  9994
#TLE: 2 49008  98.7485  21.6664 0002094 134.5344 225.6004 14.19886148235063

#Time	Az	El	Level	Level2	SNR	BER	BlckErr	Temp	State	Recorded	gain1	gain2
2026-01-17 14:53:43.85	169.34	7.09	-28.4	-31.0	5.4	7.71e-01	0	41	0	0	16	4906
2026-01-17 14:53:44.84	169.36	7.17	-28.8	-31.2	5.3	7.81e-01	0	41	104	0	18	4717
2026-01-17 14:53:45.85	169.38	7.25	-29.0	-31.6	9.4	1.40e-02	0	41	0	0	18	4847
2026-01-17 14:53:46.86	169.40	7.32	-28.7	-30.9	9.9	1.09e-02	0	41	0	7340032	18	4601
2026-01-17 14:53:47.86	169.42	7.40	-28.3	-30.2	10.6	4.72e-03	0	41	0	14680064	17	4514
2026-01-17 14:53:48.86	169.44	7.48	-27.8	-29.5	11.3	1.51e-03	0	41	0	20971520	16	4383
2026-01-17 14:53:49.86	169.47	7.56	-27.1	-28.5	12.0	3.34e-04	0	41	0	28311552	15	4226
2026-01-17 14:53:50.86	169.49	7.64	-26.7	-28.0	12.6	8.23e-05	0	42	0	35651584	14	4193
2026-01-17 14:53:51.86	169.51	7.72	-26.4	-27.4	13.0	5.83e-05	0	42	0	42991616	14	4032
2026-01-17 14:53:52.87	169.53	7.80	-26.0	-26.9	13.5	1.25e-05	0	42	0	50331648	13	4016
2026-01-17 14:53:53.87	169.55	7.88	-26.0	-27.5	13.5	1.60e-05	0	42	0	57671680	12	4265
2026-01-17 14:53:54.87	169.58	7.96	-26.6	-28.3	12.8	5.60e-05	0	42	0	65011712	13	4384
2026-01-17 14:53:55.88	169.60	8.04	-26.1	-27.1	13.5	6.80e-06	0	42	0	72351744	13	4048
2026-01-17 14:53:56.88	169.62	8.12	-26.3	-27.7	13.2	1.71e-05	0	42	0	79691776	13	4202
2026-01-17 14:53:57.88	169.64	8.20	-26.2	-27.3	13.4	8.00e-06	0	42	0	85983232	13	4100
2026-01-17 14:53:58.88	169.67	8.28	-25.9	-26.8	13.7	1.02e-05	0	42	0	93323264	13	3965
2026-01-17 14:53:59.89	169.69	8.36	-26.1	-27.1	13.5	1.02e-05	0	42	0	100663296	13	4037
2026-01-17 14:54:00.89	169.71	8.44	-25.9	-26.6	13.8	5.70e-06	0	42	0	108003328	13	3926
2026-01-17 14:54:01.89	169.74	8.52	-25.9	-27.2	13.8	9.10e-06	0	42	0	115343360	12	4172
2026-01-17 14:54:02.89	169.76	8.60	-26.0	-27.4	13.7	8.00e-06	0	42	0	122683392	12	4229
2026-01-17 14:54:03.90	169.78	8.69	-26.0	-27.5	13.6	2.20e-06	0	42	0	130023424	12	4248
2026-01-17 14:54:04.91	169.81	8.77	-26.1	-27.6	13.6	6.80e-06	0	42	0	137363456	12	4284
2026-01-17 14:54:05.91	169.83	8.85	-26.6	-28.2	13.0	2.86e-05	0	42	0	144703488	13	4330
2026-01-17 14:54:06.91	169.85	8.94	-26.4	-27.9	13.1	1.60e-05	0	42	0	152043520	13	4240
2026-01-17 14:54:07.91	169.88	9.02	-26.3	-27.5	13.3	2.28e-05	0	42	0	159383552	13	4148
2026-01-17 14:54:08.91	169.90	9.10	-26.6	-28.3	13.0	5.83e-05	0	42	0	166723584	13	4342
2026-01-17 14:54:09.90	169.92	9.18	-26.3	-27.4	13.4	1.14e-05	0	42	0	173015040	13	4111
2026-01-17 14:54:10.91	169.95	9.27	-26.6	-28.2	13.0	1.25e-05	0	42	0	180355072	13	4324
2026-01-17 14:54:11.91	169.97	9.35	-26.4	-27.8	13.2	1.48e-05	0	42	0	187695104	13	4227
2026-01-17 14:54:12.90	170.00	9.44	-26.6	-28.0	13.1	3.20e-05	0	42	0	195035136	13	4273
2026-01-17 14:54:13.90	170.02	9.52	-26.2	-27.3	13.5	6.80e-06	0	42	0	202375168	13	4083
2026-01-17 14:54:14.91	170.05	9.61	-26.0	-26.8	13.8	8.00e-06	0	42	0	209715200	13	3957
2026-01-17 14:54:15.91	170.07	9.69	-26.1	-27.1	13.7	3.40e-06	0	42	0	217055232	13	4015
2026-01-17 14:54:16.91	170.09	9.78	-26.1	-27.6	13.7	4.50e-06	0	42	0	224395264	12	4257
2026-01-17 14:54:17.90	170.12	9.86	-25.8	-26.9	14.0	2.20e-06	0	42	0	230686720	12	4075
2026-01-17 14:54:18.90	170.14	9.95	-25.7	-26.7	14.2	2.20e-06	0	42	0	238026752	12	4023
2026-01-17 14:54:19.91	170.17	10.04	-26.0	-27.2	14.0	0.00e+00	0	42	0	245366784	12	4157
2026-01-17 14:54:20.91	170.20	10.12	-26.0	-27.2	13.9	2.20e-06	0	42	0	252706816	12	4151
2026-01-17 14:54:21.92	170.22	10.21	-25.7	-26.6	14.3	1.10e-06	0	42	0	260046848	12	3984
2026-01-17 14:54:22.92	170.25	10.30	-25.5	-26.1	14.6	0.00e+00	0	42	0	267386880	12	3866
2026-01-17 14:54:23.91	170.27	10.39	-25.4	-26.0	14.6	0.00e+00	0	42	0	274726912	12	3848
2026-01-17 14:54:24.90	170.30	10.47	-25.5	-26.2	14.5	0.00e+00	0	42	0	282066944	12	3901
2026-01-17 14:54:25.91	170.32	10.56	-25.7	-26.5	14.3	0.00e+00	0	42	0	289406976	12	3973
2026-01-17 14:54:26.90	170.35	10.65	-25.3	-26.2	14.8	0.00e+00	0	42	0	295698432	11	3995
2026-01-17 14:54:27.90	170.38	10.74	-25.4	-26.3	14.8	0.00e+00	0	43	0	303038464	11	4029
2026-01-17 14:54:28.90	170.40	10.83	-25.7	-27.0	14.4	1.10e-06	0	43	0	310378496	11	4218
2026-01-17 14:54:29.90	170.43	10.92	-25.7	-27.1	14.4	0.00e+00	0	42	0	317718528	11	4223
2026-01-17 14:54:30.91	170.46	11.01	-25.6	-26.9	14.5	0.00e+00	0	43	0	325058560	11	4170
2026-01-17 14:54:31.91	170.48	11.10	-25.9	-27.6	14.2	3.40e-06	0	43	0	332398592	11	4357
2026-01-17 14:54:32.91	170.51	11.19	-25.5	-26.2	14.5	0.00e+00	0	42	0	339738624	12	3892
2026-01-17 14:54:33.91	170.54	11.28	-25.6	-26.4	14.4	2.20e-06	0	43	0	347078656	12	3950
2026-01-17 14:54:34.91	170.56	11.37	-25.4	-25.9	14.7	0.00e+00	0	42	0	354418688	12	3828
2026-01-17 14:54:35.92	170.59	11.46	-25.5	-26.7	14.6	0.00e+00	0	43	0	360710144	11	4120
2026-01-17 14:54:36.92	170.62	11.56	-25.6	-27.0	14.5	0.00e+00	0	43	0	368050176	11	4192
2026-01-17 14:54:37.91	170.65	11.65	-25.6	-26.8	14.6	1.10e-06	0	43	0	375390208	11	4131
2026-01-17 14:54:38.92	170.67	11.74	-25.7	-27.1	14.5	0.00e+00	0	43	0	382730240	11	4214
2026-01-17 14:54:39.92	170.70	11.83	-25.7	-27.1	14.5	2.00e-04	0	43	0	390070272	11	4212
2026-01-17 14:54:40.92	170.73	11.93	-25.4	-26.5	14.8	0.00e+00	0	43	0	397410304	11	4052
2026-01-17 14:54:41.93	170.76	12.02	-25.2	-25.9	15.1	0.00e+00	0	43	0	404750336	11	3922
2026-01-17 14:54:42.93	170.79	12.12	-25.2	-25.9	15.1	0.00e+00	0	43	0	412090368	11	3921
2026-01-17 14:54:43.93	170.82	12.21	-25.3	-26.1	15.1	0.00e+00	0	43	0	418381824	11	3949
2026-01-17 14:54:44.93	170.85	12.31	-25.2	-26.0	15.1	0.00e+00	0	43	0	425721856	11	3935
2026-01-17 14:54:45.93	170.87	12.40	-25.2	-25.9	15.2	0.00e+00	0	43	0	433061888	11	3909
2026-01-17 14:54:46.93	170.90	12.50	-25.3	-26.2	15.0	0.00e+00	0	43	0	440401920	11	3981
2026-01-17 14:54:47.93	170.93	12.59	-25.1	-25.7	15.2	0.00e+00	0	43	0	447741952	11	3868
2026-01-17 14:54:48.93	170.96	12.69	-25.2	-26.0	15.1	0.00e+00	0	43	0	455081984	11	3925
2026-01-17 14:54:49.93	170.99	12.78	-25.0	-25.6	15.3	0.00e+00	0	43	0	462422016	11	3829
2026-01-17 14:54:50.94	171.02	12.88	-24.9	-25.4	15.5	0.00e+00	0	43	0	469762048	11	3778
2026-01-17 14:54:51.94	171.05	12.98	-25.1	-25.7	15.3	0.00e+00	0	43	0	477102080	11	3848
2026-01-17 14:54:52.94	171.08	13.08	-24.7	-25.2	15.8	0.00e+00	0	43	0	483393536	10	3845
2026-01-17 14:54:53.95	171.11	13.18	-24.9	-25.7	15.5	0.00e+00	0	43	0	491782144	10	3977
2026-01-17 14:54:54.95	171.14	13.28	-24.8	-25.5	15.7	0.00e+00	0	43	0	499122176	10	3911
2026-01-17 14:54:55.96	171.18	13.38	-24.8	-25.5	15.6	0.00e+00	0	43	0	505413632	10	3927
2026-01-17 14:54:56.97	171.21	13.48	-24.8	-25.7	15.6	0.00e+00	0	43	0	512753664	10	3957
2026-01-17 14:54:57.97	171.24	13.58	-24.7	-25.4	15.7	0.00e+00	0	43	0	520093696	10	3884
2026-01-17 14:54:58.97	171.27	13.68	-24.7	-25.3	15.8	0.00e+00	0	43	0	527433728	10	3868
2026-01-17 14:54:59.97	171.30	13.78	-24.6	-25.2	15.9	0.00e+00	0	43	0	534773760	10	3838
2026-01-17 14:55:00.98	171.33	13.88	-24.6	-25.1	15.9	0.00e+00	0	43	0	542113792	10	3824
2026-01-17 14:55:01.98	171.36	13.98	-24.6	-25.1	15.9	0.00e+00	0	43	0	549453824	10	3827
2026-01-17 14:55:02.98	171.40	14.08	-24.5	-25.0	15.9	0.00e+00	0	43	0	556793856	10	3795
2026-01-17 14:55:03.98	171.43	14.18	-24.8	-25.6	15.7	0.00e+00	0	43	0	564133888	10	3934
2026-01-17 14:55:04.99	171.46	14.29	-24.7	-25.3	15.8	0.00e+00	0	43	0	570425344	10	3871
2026-01-17 14:55:05.99	171.49	14.39	-24.4	-24.8	16.1	0.00e+00	0	43	0	577765376	10	3756
2026-01-17 14:55:07.00	171.53	14.49	-24.4	-25.1	16.1	0.00e+00	0	43	0	586153984	9	3924
2026-01-17 14:55:08.00	171.56	14.60	-24.3	-25.0	16.2	0.00e+00	0	43	0	592445440	9	3907
2026-01-17 14:55:09.00	171.59	14.70	-24.4	-25.3	16.1	0.00e+00	0	43	0	599785472	9	3971
2026-01-17 14:55:10.01	171.63	14.81	-24.3	-24.9	16.3	0.00e+00	0	43	0	607125504	9	3872
2026-01-17 14:55:11.01	171.66	14.91	-24.5	-25.3	16.1	0.00e+00	0	43	0	614465536	9	3971
2026-01-17 14:55:12.01	171.70	15.02	-24.2	-24.7	16.4	0.00e+00	0	43	0	621805568	9	3826
2026-01-17 14:55:13.01	171.73	15.13	-24.2	-24.7	16.4	0.00e+00	0	43	0	629145600	9	3826
2026-01-17 14:55:14.02	171.77	15.23	-24.1	-24.5	16.6	0.00e+00	0	43	0	636485632	9	3764
2026-01-17 14:55:15.02	171.80	15.34	-24.1	-24.6	16.4	0.00e+00	0	43	0	643825664	9	3805
2026-01-17 14:55:16.02	171.83	15.45	-24.2	-24.7	16.4	0.00e+00	0	43	0	650117120	9	3830
2026-01-17 14:55:17.02	171.87	15.56	-24.4	-25.2	16.2	0.00e+00	0	43	0	657457152	9	3942
2026-01-17 14:55:18.02	171.91	15.67	-24.1	-24.6	16.5	0.00e+00	0	43	0	664797184	9	3795
2026-01-17 14:55:19.02	171.94	15.77	-23.9	-24.1	16.7	0.00e+00	0	43	0	672137216	9	3669
2026-01-17 14:55:20.03	171.98	15.88	-23.9	-24.6	16.7	0.00e+00	0	43	0	679477248	8	3905
2026-01-17 14:55:21.03	172.01	15.99	-23.9	-24.7	16.7	0.00e+00	0	43	0	686817280	8	3923
2026-01-17 14:55:22.03	172.05	16.11	-23.9	-24.6	16.8	0.00e+00	0	43	0	694157312	8	3893
2026-01-17 14:55:23.04	172.09	16.22	-23.9	-24.5	16.8	4.50e-06	0	43	0	701497344	8	3880
2026-01-17 14:55:24.04	172.12	16.33	-24.0	-24.7	16.7	0.00e+00	0	43	0	708837376	8	3935
2026-01-17 14:55:25.04	172.16	16.44	-24.0	-24.7	16.7	0.00e+00	0	43	0	715128832	8	3936
2026-01-17 14:55:26.04	172.20	16.55	-23.7	-24.3	16.9	0.00e+00	0	43	0	722468864	8	3817
2026-01-17 14:55:27.04	172.23	16.67	-23.9	-24.7	16.7	0.00e+00	0	43	0	729808896	8	3921
2026-01-17 14:55:28.05	172.27	16.78	-23.8	-24.3	16.9	0.00e+00	0	43	0	737148928	8	3839
2026-01-17 14:55:29.05	172.31	16.90	-23.8	-24.4	16.9	2.20e-06	0	44	0	744488960	8	3865
2026-01-17 14:55:30.05	172.35	17.01	-24.1	-25.0	16.6	0.00e+00	0	43	0	751828992	8	3988
2026-01-17 14:55:31.05	172.39	17.12	-23.8	-24.3	16.9	0.00e+00	0	43	0	759169024	8	3841
2026-01-17 14:55:32.06	172.43	17.24	-23.7	-24.2	17.0	1.10e-06	0	43	0	766509056	8	3812
2026-01-17 14:55:33.06	172.47	17.36	-23.6	-24.0	17.0	0.00e+00	0	43	0	773849088	8	3769
2026-01-17 14:55:34.07	172.51	17.48	-23.6	-24.0	17.0	0.00e+00	0	43	0	781189120	8	3772
2026-01-17 14:55:35.07	172.55	17.59	-23.7	-24.3	16.9	0.00e+00	0	43	0	788529152	8	3831
2026-01-17 14:55:36.08	172.59	17.71	-23.8	-24.3	16.9	0.00e+00	0	43	0	795869184	8	3851
2026-01-17 14:55:37.08	172.63	17.83	-23.6	-24.1	17.0	0.00e+00	0	43	0	802160640	8	3801
2026-01-17 14:55:38.08	172.67	17.95	-23.7	-24.3	16.9	0.00e+00	0	43	0	809500672	8	3848
2026-01-17 14:55:39.08	172.71	18.07	-23.8	-24.5	16.7	0.00e+00	0	43	0	816840704	8	3891
2026-01-17 14:55:40.08	172.75	18.19	-23.6	-24.0	17.0	0.00e+00	0	43	0	824180736	8	3778
2026-01-17 14:55:41.08	172.79	18.31	-23.8	-24.4	16.8	0.00e+00	0	43	0	831520768	8	3876
2026-01-17 14:55:42.08	172.83	18.43	-23.6	-24.2	16.9	0.00e+00	0	43	0	838860800	8	3824
2026-01-17 14:55:43.09	172.88	18.55	-23.8	-24.5	16.7	0.00e+00	0	43	0	846200832	8	3908
2026-01-17 14:55:44.09	172.92	18.68	-23.9	-24.8	16.6	0.00e+00	0	43	0	853540864	8	3988
2026-01-17 14:55:45.09	172.96	18.80	-23.9	-24.8	16.6	0.00e+00	0	43	0	859832320	8	3983
2026-01-17 14:55:46.09	173.00	18.92	-23.7	-24.4	16.8	0.00e+00	0	43	0	867172352	8	3883
2026-01-17 14:55:47.09	173.05	19.05	-23.6	-24.2	16.8	0.00e+00	0	43	0	874512384	8	3856
2026-01-17 14:55:48.09	173.09	19.17	-23.6	-24.2	16.8	0.00e+00	0	44	0	881852416	8	3853
2026-01-17 14:55:49.10	173.14	19.30	-23.6	-24.3	16.8	0.00e+00	0	43	0	889192448	8	3875
2026-01-17 14:55:50.10	173.18	19.42	-23.5	-24.0	16.9	0.00e+00	0	43	0	896532480	8	3817
2026-01-17 14:55:51.10	173.22	19.55	-23.5	-24.1	16.9	0.00e+00	0	43	0	903872512	8	3823
2026-01-17 14:55:52.11	173.27	19.68	-23.5	-23.9	17.0	0.00e+00	0	44	0	911212544	8	3792
2026-01-17 14:55:53.11	173.32	19.81	-23.6	-24.1	16.9	0.00e+00	0	43	0	918552576	8	3845
2026-01-17 14:55:54.12	173.36	19.94	-23.5	-24.0	16.9	0.00e+00	0	44	0	925892608	8	3816
2026-01-17 14:55:55.12	173.41	20.07	-23.5	-24.1	16.9	0.00e+00	0	43	0	933232640	8	3838
2026-01-17 14:55:56.12	173.45	20.20	-23.8	-24.7	16.6	0.00e+00	0	44	0	940572672	8	3966
2026-01-17 14:55:57.12	173.50	20.33	-23.5	-24.5	16.9	0.00e+00	0	44	0	946864128	7	4050
2026-01-17 14:55:58.12	173.55	20.46	-23.2	-23.9	17.2	0.00e+00	0	43	0	954204160	7	3887
2026-01-17 14:55:59.12	173.60	20.59	-23.3	-24.1	17.1	0.00e+00	0	44	0	961544192	7	3939
2026-01-17 14:56:00.13	173.64	20.73	-23.4	-24.3	17.0	0.00e+00	0	44	0	968884224	7	3980
2026-01-17 14:56:01.13	173.69	20.86	-23.2	-23.9	17.2	0.00e+00	0	43	0	976224256	7	3892
2026-01-17 14:56:02.14	173.74	20.99	-23.4	-24.3	17.0	0.00e+00	0	43	0	983564288	7	4006
2026-01-17 14:56:03.13	173.79	21.13	-23.4	-24.4	17.0	0.00e+00	0	43	0	990904320	7	4001
2026-01-17 14:56:04.13	173.84	21.26	-23.3	-24.0	17.2	0.00e+00	0	44	0	998244352	7	3919
2026-01-17 14:56:05.13	173.89	21.40	-23.5	-24.4	17.0	0.00e+00	0	43	0	1004535808	7	4013
2026-01-17 14:56:06.13	173.94	21.54	-23.7	-25.0	16.8	0.00e+00	0	43	0	1011875840	7	4155
2026-01-17 14:56:07.13	173.99	21.67	-23.3	-24.1	17.1	0.00e+00	0	43	0	1019215872	7	3937
2026-01-17 14:56:08.14	174.04	21.81	-23.1	-23.6	17.4	0.00e+00	0	43	0	1026555904	7	3828
2026-01-17 14:56:09.14	174.09	21.95	-23.0	-23.4	17.5	0.00e+00	0	44	0	1033895936	7	3783
2026-01-17 14:56:10.14	174.15	22.09	-23.0	-23.5	17.5	0.00e+00	0	43	0	1041235968	7	3796
2026-01-17 14:56:11.14	174.20	22.23	-23.1	-23.6	17.4	0.00e+00	0	43	0	1048576000	7	3810
2026-01-17 14:56:12.15	174.25	22.38	-23.1	-23.5	17.4	0.00e+00	0	44	0	1055916032	7	3807
2026-01-17 14:56:13.15	174.31	22.52	-23.0	-23.4	17.5	0.00e+00	0	44	0	1063256064	7	3787
2026-01-17 14:56:14.15	174.36	22.66	-23.0	-23.5	17.5	0.00e+00	0	44	0	1070596096	7	3790
2026-01-17 14:56:15.15	174.41	22.80	-23.0	-23.4	17.5	0.00e+00	0	44	0	1077936128	7	3776
2026-01-17 14:56:16.16	174.47	22.95	-23.1	-23.6	17.4	0.00e+00	0	43	0	1085276160	7	3830
2026-01-17 14:56:17.16	174.52	23.10	-23.1	-24.2	17.4	0.00e+00	0	44	0	1091567616	6	4072
2026-01-17 14:56:18.16	174.58	23.24	-23.0	-24.0	17.5	0.00e+00	0	44	0	1098907648	6	4020
2026-01-17 14:56:19.16	174.64	23.39	-23.1	-24.2	17.4	0.00e+00	0	44	0	1106247680	6	4079
2026-01-17 14:56:20.16	174.69	23.54	-23.0	-24.0	17.5	0.00e+00	0	44	0	1113587712	6	4032
2026-01-17 14:56:21.16	174.75	23.69	-23.0	-23.9	17.5	0.00e+00	0	44	0	1120927744	6	4017
2026-01-17 14:56:22.17	174.81	23.84	-23.1	-24.0	17.5	0.00e+00	0	44	0	1128267776	6	4032
2026-01-17 14:56:23.17	174.87	23.99	-23.2	-24.5	17.3	0.00e+00	0	43	0	1135607808	6	4147
2026-01-17 14:56:24.17	174.93	24.14	-23.1	-24.1	17.4	0.00e+00	0	43	0	1142947840	6	4067
2026-01-17 14:56:25.17	174.99	24.29	-23.4	-24.8	17.1	0.00e+00	0	43	0	1150287872	6	4236
2026-01-17 14:56:26.17	175.05	24.44	-23.1	-24.2	17.4	0.00e+00	0	44	0	1156579328	6	4089
2026-01-17 14:56:27.18	175.11	24.60	-23.2	-24.5	17.3	0.00e+00	0	44	0	1163919360	6	4159
2026-01-17 14:56:28.18	175.17	24.75	-23.2	-24.4	17.3	3.40e-06	0	44	0	1171259392	6	4136
2026-01-17 14:56:29.18	175.23	24.91	-23.1	-24.3	17.4	0.00e+00	0	44	0	1178599424	6	4108
2026-01-17 14:56:30.19	175.29	25.06	-23.2	-24.5	17.3	0.00e+00	0	44	0	1185939456	6	4155
2026-01-17 14:56:31.19	175.36	25.22	-23.0	-23.9	17.6	0.00e+00	0	44	0	1193279488	6	4012
2026-01-17 14:56:32.19	175.42	25.38	-23.1	-24.1	17.5	0.00e+00	0	44	0	1200619520	6	4053
2026-01-17 14:56:33.19	175.48	25.54	-23.3	-24.6	17.3	0.00e+00	0	44	0	1207959552	6	4175
2026-01-17 14:56:34.20	175.55	25.70	-23.5	-24.4	17.2	0.00e+00	0	44	0	1215299584	7	3995
2026-01-17 14:56:35.20	175.61	25.86	-23.2	-23.7	17.5	0.00e+00	0	44	0	1222639616	7	3840
2026-01-17 14:56:36.21	175.68	26.02	-22.9	-23.3	17.7	0.00e+00	0	44	0	1229979648	7	3732
2026-01-17 14:56:37.21	175.75	26.19	-22.9	-23.7	17.8	0.00e+00	0	44	0	1236271104	6	3935
2026-01-17 14:56:38.21	175.81	26.35	-22.7	-23.1	18.1	0.00e+00	0	44	0	1243611136	6	3790
2026-01-17 14:56:39.21	175.88	26.52	-22.8	-23.5	17.9	0.00e+00	0	44	0	1250951168	6	3868
2026-01-17 14:56:40.21	175.95	26.68	-22.6	-23.1	18.1	6.80e-06	0	44	0	1258291200	6	3783
2026-01-17 14:56:41.21	176.02	26.85	-22.7	-23.2	18.1	0.00e+00	0	43	0	1265631232	6	3801
2026-01-17 14:56:42.21	176.09	27.02	-22.6	-22.9	18.2	0.00e+00	0	44	0	1272971264	6	3738
2026-01-17 14:56:43.22	176.16	27.19	-22.5	-22.8	18.2	0.00e+00	0	44	0	1280311296	6	3729
2026-01-17 14:56:44.22	176.23	27.36	-22.6	-22.9	18.2	0.00e+00	0	44	0	1287651328	6	3749
2026-01-17 14:56:45.22	176.30	27.53	-22.5	-22.9	18.2	0.00e+00	0	44	0	1294991360	6	3738
2026-01-17 14:56:46.23	176.38	27.70	-22.6	-23.0	18.1	0.00e+00	0	44	0	1301282816	6	3770
2026-01-17 14:56:47.23	176.45	27.87	-22.5	-22.9	18.2	0.00e+00	0	44	0	1308622848	6	3754
2026-01-17 14:56:48.24	176.53	28.05	-22.5	-22.8	18.2	0.00e+00	0	44	0	1315962880	6	3732
2026-01-17 14:56:49.24	176.60	28.22	-22.4	-23.1	18.2	0.00e+00	0	44	0	1323302912	5	3906
2026-01-17 14:56:50.25	176.68	28.40	-22.5	-23.3	18.1	0.00e+00	0	44	0	1330642944	5	3963
2026-01-17 14:56:51.26	176.75	28.58	-22.4	-23.2	18.1	0.00e+00	0	44	0	1337982976	5	3937
2026-01-17 14:56:52.26	176.83	28.76	-22.5	-23.2	18.1	0.00e+00	0	43	0	1345323008	5	3946
2026-01-17 14:56:53.26	176.91	28.94	-22.5	-23.3	18.1	0.00e+00	0	44	0	1352663040	5	3967
2026-01-17 14:56:54.26	176.99	29.12	-22.4	-23.1	18.2	0.00e+00	0	44	0	1360003072	5	3924
2026-01-17 14:56:55.26	177.07	29.30	-22.3	-23.0	18.3	0.00e+00	0	44	0	1367343104	5	3881
2026-01-17 14:56:56.27	177.15	29.48	-22.4	-23.2	18.2	0.00e+00	0	44	0	1374683136	5	3932
2026-01-17 14:56:57.27	177.23	29.67	-22.6	-23.5	18.1	0.00e+00	0	44	0	1382023168	5	3999
2026-01-17 14:56:58.27	177.32	29.85	-22.4	-23.1	18.2	0.00e+00	0	44	0	1388314624	5	3912
2026-01-17 14:56:59.27	177.40	30.04	-22.4	-23.1	18.2	0.00e+00	0	44	0	1395654656	5	3912
2026-01-17 14:57:00.27	177.48	30.22	-22.6	-23.5	18.0	0.00e+00	0	44	0	1402994688	5	4001
2026-01-17 14:57:01.27	177.57	30.41	-22.3	-22.9	18.3	0.00e+00	0	44	0	1410334720	5	3868
2026-01-17 14:57:02.27	177.65	30.60	-22.1	-22.6	18.5	0.00e+00	0	44	0	1417674752	5	3793
2026-01-17 14:57:03.26	177.74	30.79	-22.2	-22.7	18.4	0.00e+00	0	44	0	1425014784	5	3812
2026-01-17 14:57:04.26	177.83	30.98	-22.2	-22.7	18.4	0.00e+00	0	44	0	1432354816	5	3816
2026-01-17 14:57:05.26	177.92	31.17	-22.3	-22.9	18.3	0.00e+00	0	44	0	1439694848	5	3872
2026-01-17 14:57:06.26	178.01	31.37	-22.3	-23.0	18.3	0.00e+00	0	44	0	1445986304	5	3885
2026-01-17 14:57:07.27	178.10	31.56	-22.4	-23.2	18.2	0.00e+00	0	44	0	1453326336	5	3946
2026-01-17 14:57:08.26	178.19	31.76	-22.4	-23.1	18.2	0.00e+00	0	44	0	1460666368	5	3908
2026-01-17 14:57:09.26	178.29	31.96	-22.6	-23.5	18.1	0.00e+00	0	44	0	1468006400	5	4026
2026-01-17 14:57:10.26	178.38	32.16	-22.5	-23.4	18.1	0.00e+00	0	44	0	1475346432	5	3975
2026-01-17 14:57:11.26	178.48	32.36	-22.6	-23.5	18.1	0.00e+00	0	44	0	1482686464	5	4006
2026-01-17 14:57:12.27	178.58	32.56	-22.6	-23.6	18.0	0.00e+00	0	44	0	1490026496	5	4027
2026-01-17 14:57:13.27	178.67	32.76	-22.5	-23.4	18.1	0.00e+00	0	44	0	1497366528	5	3979
2026-01-17 14:57:14.27	178.77	32.97	-22.5	-23.2	18.3	0.00e+00	0	44	0	1504706560	5	3928
2026-01-17 14:57:15.27	178.87	33.17	-22.5	-23.3	18.2	0.00e+00	0	44	0	1510998016	5	3948
2026-01-17 14:57:16.27	178.97	33.38	-22.5	-23.3	18.2	0.00e+00	0	44	0	1518338048	5	3950
2026-01-17 14:57:17.28	179.08	33.59	-22.4	-23.2	18.3	0.00e+00	0	44	0	1525678080	5	3909
2026-01-17 14:57:18.28	179.18	33.80	-22.4	-23.1	18.3	0.00e+00	0	44	0	1533018112	5	3885
2026-01-17 14:57:19.28	179.29	34.01	-23.0	-23.8	18.7	0.00e+00	0	44	0	1540358144	5	3916
2026-01-17 14:57:20.27	179.39	34.22	-23.2	-23.7	18.6	0.00e+00	0	43	0	1547698176	6	3785
2026-01-17 14:57:21.28	179.50	34.43	-23.2	-23.6	18.6	0.00e+00	0	44	0	1555038208	6	3776
2026-01-17 14:57:22.28	179.61	34.65	-23.2	-23.6	18.6	0.00e+00	0	44	0	1562378240	6	3775
2026-01-17 14:57:23.28	179.72	34.87	-23.0	-23.3	18.8	0.00e+00	0	44	0	1569718272	6	3697
2026-01-17 14:57:24.28	179.84	35.08	-23.0	-23.1	18.9	0.00e+00	0	44	0	1576009728	6	3659
2026-01-17 14:57:25.28	179.95	35.30	-23.0	-23.1	18.9	0.00e+00	0	43	0	1583349760	6	3661
2026-01-17 14:57:26.29	180.07	35.52	-22.9	-23.0	18.9	0.00e+00	0	44	0	1590689792	6	3651
2026-01-17 14:57:27.29	180.18	35.75	-23.0	-23.2	18.8	0.00e+00	0	44	0	1598029824	6	3690
2026-01-17 14:57:28.29	180.30	35.97	-22.9	-23.0	18.9	0.00e+00	0	44	0	1605369856	6	3645
2026-01-17 14:57:29.28	180.42	36.19	-23.0	-23.2	18.8	0.00e+00	0	44	0	1612709888	6	3675
2026-01-17 14:57:30.28	180.54	36.42	-23.0	-23.2	18.9	0.00e+00	0	44	0	1620049920	6	3680
2026-01-17 14:57:31.29	180.67	36.65	-23.3	-23.7	18.5	0.00e+00	0	44	0	1627389952	6	3810
2026-01-17 14:57:32.29	180.79	36.88	-23.2	-23.6	18.6	0.00e+00	0	44	0	1633681408	6	3780
2026-01-17 14:57:33.29	180.92	37.11	-23.3	-23.9	18.5	0.00e+00	0	44	0	1641021440	6	3842
2026-01-17 14:57:34.29	181.05	37.34	-23.4	-24.2	18.4	0.00e+00	0	44	0	1648361472	6	3904
2026-01-17 14:57:35.29	181.18	37.57	-23.2	-23.7	18.6	0.00e+00	0	44	0	1655701504	6	3786
2026-01-17 14:57:36.30	181.31	37.81	-23.3	-23.8	18.5	0.00e+00	0	44	0	1663041536	6	3809
2026-01-17 14:57:37.30	181.45	38.05	-23.3	-23.9	18.5	0.00e+00	0	44	0	1670381568	6	3829
2026-01-17 14:57:38.31	181.58	38.29	-23.1	-23.3	18.8	0.00e+00	0	44	0	1677721600	6	3712
2026-01-17 14:57:39.31	181.72	38.52	-22.9	-23.0	19.0	0.00e+00	0	44	0	1685061632	6	3630
2026-01-17 14:57:40.31	181.86	38.77	-23.0	-23.1	18.9	0.00e+00	0	44	0	1692401664	6	3657
2026-01-17 14:57:41.31	182.00	39.01	-22.8	-22.8	19.1	0.00e+00	0	44	0	1699741696	6	3589
2026-01-17 14:57:42.32	182.15	39.25	-23.3	-23.9	18.5	0.00e+00	0	44	0	1707081728	6	3837
2026-01-17 14:57:43.31	182.29	39.50	-23.4	-24.1	18.4	0.00e+00	0	44	0	1714421760	6	3897
2026-01-17 14:57:44.32	182.44	39.75	-23.4	-24.1	18.4	0.00e+00	0	44	0	1720713216	6	3903
2026-01-17 14:57:45.31	182.59	39.99	-23.6	-24.0	18.3	0.00e+00	0	44	0	1728053248	7	3757
2026-01-17 14:57:46.31	182.75	40.24	-23.5	-23.8	18.4	0.00e+00	0	44	0	1735393280	7	3720
2026-01-17 14:57:47.31	182.90	40.49	-23.6	-23.9	18.3	0.00e+00	0	44	0	1742733312	7	3736
2026-01-17 14:57:48.31	183.06	40.75	-23.5	-23.8	18.4	0.00e+00	0	44	0	1750073344	7	3710
2026-01-17 14:57:49.31	183.22	41.00	-23.4	-23.6	18.5	0.00e+00	0	44	0	1757413376	7	3663
2026-01-17 14:57:50.32	183.38	41.26	-23.4	-23.6	18.5	0.00e+00	0	44	0	1764753408	7	3661
2026-01-17 14:57:51.32	183.55	41.52	-23.5	-23.8	18.3	0.00e+00	0	44	0	1772093440	7	3706
2026-01-17 14:57:52.32	183.71	41.78	-23.6	-23.9	18.3	0.00e+00	0	44	0	1778384896	7	3743
2026-01-17 14:57:53.33	183.89	42.04	-23.5	-23.8	18.3	0.00e+00	0	44	0	1785724928	7	3722
2026-01-17 14:57:54.34	184.06	42.31	-23.4	-23.5	18.5	0.00e+00	0	44	0	1793064960	7	3657
2026-01-17 14:57:55.35	184.24	42.57	-23.3	-23.3	18.6	0.00e+00	0	44	0	1800404992	7	3596
2026-01-17 14:57:56.35	184.42	42.84	-23.4	-23.5	18.5	0.00e+00	0	44	0	1807745024	7	3651
2026-01-17 14:57:57.36	184.60	43.11	-23.3	-23.2	18.6	0.00e+00	0	44	0	1815085056	7	3591
2026-01-17 14:57:58.36	184.79	43.38	-23.7	-24.1	18.2	0.00e+00	0	44	0	1822425088	7	3779
2026-01-17 14:57:59.36	184.97	43.65	-23.9	-24.5	18.0	0.00e+00	0	44	0	1829765120	7	3875
2026-01-17 14:58:00.36	185.16	43.92	-24.0	-24.8	17.9	0.00e+00	0	44	0	1837105152	7	3944
2026-01-17 14:58:01.37	185.36	44.20	-24.2	-24.8	17.7	0.00e+00	0	44	0	1844445184	8	3830
2026-01-17 14:58:02.37	185.56	44.47	-23.7	-23.6	18.3	0.00e+00	0	44	0	1851785216	8	3557
2026-01-17 14:58:03.38	185.76	44.75	-23.8	-23.9	18.1	0.00e+00	0	44	0	1859125248	8	3647
2026-01-17 14:58:04.38	185.96	45.03	-23.9	-24.0	18.1	0.00e+00	0	44	0	1865416704	8	3667
2026-01-17 14:58:05.37	186.17	45.31	-24.1	-24.5	17.7	0.00e+00	0	44	0	1872756736	8	3780
2026-01-17 14:58:06.37	186.38	45.59	-24.3	-25.0	17.5	0.00e+00	0	44	0	1880096768	8	3886
2026-01-17 14:58:07.37	186.60	45.87	-24.2	-24.8	17.5	0.00e+00	0	44	0	1887436800	8	3838
2026-01-17 14:58:08.38	186.82	46.16	-24.2	-24.6	17.8	0.00e+00	0	44	0	1894776832	8	3791
2026-01-17 14:58:09.38	187.04	46.45	-24.1	-24.5	17.8	0.00e+00	0	44	0	1902116864	8	3765
2026-01-17 14:58:10.38	187.27	46.74	-24.1	-24.5	17.8	0.00e+00	0	44	0	1909456896	8	3778
2026-01-17 14:58:11.39	187.50	47.03	-24.0	-24.4	17.9	0.00e+00	0	44	0	1916796928	8	3735
2026-01-17 14:58:12.39	187.74	47.32	-24.0	-24.3	17.9	0.00e+00	0	44	0	1924136960	8	3734
2026-01-17 14:58:13.39	187.98	47.61	-23.9	-24.0	18.1	0.00e+00	0	44	0	1930428416	8	3648
2026-01-17 14:58:14.39	188.22	47.91	-24.5	-25.4	17.4	0.00e+00	0	44	0	1937768448	8	3968
2026-01-17 14:58:15.39	188.47	48.20	-24.6	-25.1	17.3	0.00e+00	0	44	0	1945108480	9	3803
2026-01-17 14:58:16.39	188.72	48.50	-25.0	-25.4	16.9	0.00e+00	0	44	0	1952448512	10	3759
2026-01-17 14:58:17.40	188.98	48.80	-24.8	-24.9	17.2	0.00e+00	0	44	0	1959788544	10	3653
2026-01-17 14:58:18.41	189.25	49.10	-23.9	-24.1	18.1	0.00e+00	0	44	0	1967128576	8	3667
2026-01-17 14:58:19.41	189.52	49.40	-24.4	-24.6	17.5	0.00e+00	0	44	0	1974468608	9	3697
2026-01-17 14:58:20.41	189.79	49.70	-24.5	-24.7	17.5	0.00e+00	0	44	0	1981808640	9	3716
2026-01-17 14:58:21.41	190.07	50.01	-24.6	-25.1	17.3	0.00e+00	0	44	0	1989148672	9	3795
2026-01-17 14:58:22.41	190.36	50.31	-25.0	-25.8	16.9	0.00e+00	0	44	0	1996488704	9	3973
2026-01-17 14:58:23.41	190.65	50.62	-24.5	-24.7	17.5	0.00e+00	0	44	0	2003828736	9	3706
2026-01-17 14:58:24.41	190.94	50.93	-24.8	-24.9	17.2	0.00e+00	0	44	0	2010120192	10	3646
2026-01-17 14:58:25.42	191.25	51.24	-24.6	-24.6	17.4	0.00e+00	0	44	0	2017460224	10	3579
2026-01-17 14:58:26.42	191.56	51.55	-24.4	-24.2	17.5	0.00e+00	0	44	0	2024800256	10	3497
2026-01-17 14:58:27.42	191.87	51.86	-24.3	-24.4	17.7	0.00e+00	0	44	0	2032140288	9	3643
2026-01-17 14:58:28.42	192.20	52.17	-24.2	-24.1	17.7	0.00e+00	0	44	0	2039480320	9	3573
2026-01-17 14:58:29.41	192.52	52.48	-24.8	-25.5	17.1	0.00e+00	0	44	0	2046820352	9	3892
2026-01-17 14:58:30.42	192.86	52.80	-24.7	-25.3	17.2	0.00e+00	0	44	0	2054160384	9	3839
2026-01-17 14:58:31.42	193.20	53.12	-24.7	-25.2	17.3	0.00e+00	0	44	0	2061500416	9	3830
2026-01-17 14:58:32.41	193.55	53.43	-24.9	-25.6	17.0	0.00e+00	0	44	0	2068840448	9	3918
2026-01-17 14:58:33.42	193.91	53.75	-25.0	-25.9	17.0	0.00e+00	0	44	0	2075131904	9	3979
2026-01-17 14:58:34.42	194.28	54.07	-24.7	-25.2	17.3	0.00e+00	0	44	0	2082471936	9	3825
2026-01-17 14:58:35.42	194.65	54.39	-24.8	-25.5	17.1	0.00e+00	0	44	0	2089811968	9	3901
2026-01-17 14:58:36.42	195.03	54.71	-24.9	-25.8	17.0	0.00e+00	0	44	0	2097152000	9	3956
2026-01-17 14:58:37.42	195.42	55.03	-24.8	-25.4	17.2	0.00e+00	0	44	0	2104492032	9	3870
2026-01-17 14:58:38.41	195.82	55.34	-24.8	-25.6	17.1	0.00e+00	0	44	0	2111832064	9	3917
2026-01-17 14:58:39.41	196.23	55.66	-23.9	-24.1	18.0	0.00e+00	0	44	0	2119172096	8	3676
2026-01-17 14:58:40.41	196.64	55.99	-24.5	-24.8	17.5	0.00e+00	0	44	0	2126512128	9	3735
2026-01-17 14:58:41.42	197.08	56.31	-24.4	-24.6	17.6	0.00e+00	0	44	0	2133852160	9	3675
2026-01-17 14:58:42.43	197.52	56.64	-24.4	-24.7	17.5	0.00e+00	0	44	0	2140143616	9	3705
2026-01-17 14:58:43.43	197.97	56.96	-24.4	-24.7	17.6	0.00e+00	0	44	0	2147483648	9	3706
2026-01-17 14:58:44.42	198.42	57.28	-24.7	-25.3	17.0	0.00e+00	0	44	0	2154823680	9	3841
2026-01-17 14:58:45.42	198.89	57.60	-24.3	-24.5	17.7	0.00e+00	0	44	0	2162163712	9	3650
2026-01-17 14:58:46.42	199.37	57.93	-24.6	-24.9	17.5	0.00e+00	0	44	0	2169503744	9	3760
2026-01-17 14:58:47.42	199.86	58.25	-24.5	-24.7	17.6	0.00e+00	0	44	0	2176843776	9	3713
2026-01-17 14:58:48.42	200.37	58.57	-24.2	-24.2	17.9	0.00e+00	0	44	0	2184183808	9	3592
2026-01-17 14:58:49.43	200.89	58.90	-24.5	-24.8	17.5	0.00e+00	0	44	0	2191523840	9	3735
2026-01-17 14:58:50.43	201.42	59.22	-24.4	-24.5	17.7	0.00e+00	0	44	0	2197815296	9	3672
2026-01-17 14:58:51.43	201.96	59.54	-24.6	-25.1	17.4	0.00e+00	0	44	0	2205155328	9	3796
2026-01-17 14:58:52.43	202.51	59.86	-24.5	-24.8	17.6	0.00e+00	0	44	0	2212495360	9	3729
2026-01-17 14:58:53.43	203.08	60.18	-24.3	-24.5	17.7	0.00e+00	0	44	0	2219835392	9	3651
2026-01-17 14:58:54.44	203.67	60.50	-24.3	-24.5	17.7	0.00e+00	0	44	0	2227175424	9	3651
2026-01-17 14:58:55.43	204.27	60.82	-24.9	-25.6	17.0	0.00e+00	0	44	0	2234515456	9	3927
2026-01-17 14:58:56.44	204.89	61.14	-24.8	-25.4	17.2	0.00e+00	0	44	0	2241855488	9	3870
2026-01-17 14:58:57.44	205.52	61.45	-24.8	-25.5	17.2	0.00e+00	0	44	0	2249195520	9	3883
2026-01-17 14:58:58.44	206.16	61.77	-24.4	-24.7	17.6	0.00e+00	0	44	0	2256535552	9	3706
2026-01-17 14:58:59.44	206.82	62.08	-24.0	-23.8	18.1	0.00e+00	0	44	0	2262827008	9	3520
2026-01-17 14:59:00.44	207.50	62.39	-23.8	-23.9	18.3	0.00e+00	0	44	0	2270167040	8	3616
2026-01-17 14:59:01.45	208.20	62.70	-24.0	-24.2	18.1	0.00e+00	0	44	0	2278555648	8	3703
2026-01-17 14:59:02.45	208.92	63.01	-24.0	-24.3	18.1	0.00e+00	0	44	0	2284847104	8	3714
2026-01-17 14:59:03.45	209.65	63.31	-23.7	-23.6	18.4	0.00e+00	0	44	0	2292187136	8	3570
2026-01-17 14:59:04.45	210.40	63.61	-23.7	-23.6	18.4	0.00e+00	0	44	0	2299527168	8	3560
2026-01-17 14:59:05.46	211.18	63.91	-23.2	-23.1	18.9	0.00e+00	0	44	0	2306867200	7	3555
2026-01-17 14:59:06.46	211.97	64.21	-23.2	-23.0	19.0	0.00e+00	0	44	0	2314207232	7	3537
2026-01-17 14:59:07.46	212.78	64.50	-23.2	-23.1	18.9	0.00e+00	0	44	0	2321547264	7	3541
2026-01-17 14:59:08.47	213.62	64.79	-23.3	-23.3	18.7	0.00e+00	0	44	0	2328887296	7	3604
2026-01-17 14:59:09.47	214.47	65.07	-23.6	-23.9	18.4	0.00e+00	0	44	0	2336227328	7	3743
2026-01-17 14:59:10.48	215.36	65.36	-23.5	-23.7	18.6	0.00e+00	0	44	0	2343567360	7	3682
2026-01-17 14:59:11.48	216.25	65.63	-23.2	-23.0	19.0	0.00e+00	0	44	0	2349858816	7	3525
2026-01-17 14:59:12.49	217.18	65.91	-23.3	-23.2	18.9	0.00e+00	0	44	0	2357198848	7	3580
2026-01-17 14:59:13.48	218.12	66.17	-23.3	-23.3	18.8	0.00e+00	0	44	0	2364538880	7	3591
2026-01-17 14:59:14.49	219.09	66.43	-23.1	-22.8	19.1	0.00e+00	0	44	0	2371878912	7	3491
2026-01-17 14:59:15.49	220.08	66.69	-23.1	-22.9	19.0	0.00e+00	0	44	0	2379218944	7	3509
2026-01-17 14:59:16.50	221.10	66.94	-23.1	-22.9	19.0	0.00e+00	0	44	0	2386558976	7	3511
2026-01-17 14:59:17.50	222.14	67.19	-23.0	-23.1	19.1	0.00e+00	0	44	0	2393899008	6	3668
2026-01-17 14:59:18.51	223.21	67.43	-23.0	-23.1	19.2	0.00e+00	0	44	0	2401239040	6	3653
2026-01-17 14:59:19.51	224.30	67.66	-23.1	-23.4	19.0	0.00e+00	0	44	0	2408579072	6	3715
2026-01-17 14:59:20.52	225.42	67.89	-23.2	-23.7	18.9	0.00e+00	0	44	0	2415919104	6	3777
2026-01-17 14:59:21.52	226.55	68.10	-23.1	-23.4	19.0	0.00e+00	0	44	0	2423259136	6	3713
2026-01-17 14:59:22.53	227.72	68.31	-23.0	-23.1	19.1	0.00e+00	0	44	0	2429550592	6	3647
2026-01-17 14:59:23.53	228.90	68.52	-23.1	-23.4	19.0	0.00e+00	0	44	0	2436890624	6	3722
2026-01-17 14:59:24.53	230.11	68.71	-23.6	-23.8	18.6	0.00e+00	0	44	0	2444230656	7	3707
2026-01-17 14:59:25.53	231.34	68.90	-23.7	-24.2	18.4	0.00e+00	0	44	0	2451570688	7	3791
2026-01-17 14:59:26.53	232.59	69.07	-23.8	-24.3	18.3	0.00e+00	0	44	0	2458910720	7	3813
2026-01-17 14:59:27.53	233.87	69.24	-23.7	-24.2	18.4	0.00e+00	0	44	0	2466250752	7	3788
2026-01-17 14:59:28.53	235.16	69.40	-23.7	-24.0	18.5	0.00e+00	0	44	0	2473590784	7	3752
2026-01-17 14:59:29.53	236.48	69.55	-23.5	-23.8	18.6	0.00e+00	0	44	0	2480930816	7	3704
2026-01-17 14:59:30.53	237.82	69.69	-23.4	-23.4	18.7	0.00e+00	0	44	0	2488270848	7	3612
2026-01-17 14:59:31.54	239.19	69.81	-23.6	-24.0	18.5	0.00e+00	0	44	0	2494562304	7	3741
2026-01-17 14:59:32.54	240.56	69.93	-23.8	-24.4	18.3	0.00e+00	0	44	0	2501902336	7	3844
2026-01-17 14:59:33.53	241.93	70.04	-23.6	-23.8	18.5	0.00e+00	0	44	0	2509242368	7	3717
2026-01-17 14:59:34.54	243.35	70.14	-23.4	-23.5	18.8	0.00e+00	0	44	0	2516582400	7	3640
2026-01-17 14:59:35.55	244.79	70.22	-23.4	-23.6	18.7	0.00e+00	0	44	0	2523922432	7	3655
2026-01-17 14:59:36.55	246.22	70.30	-23.6	-24.0	18.6	0.00e+00	0	44	0	2531262464	7	3748
2026-01-17 14:59:37.55	247.66	70.36	-23.4	-23.5	18.7	0.00e+00	0	44	0	2538602496	7	3645
2026-01-17 14:59:38.55	249.11	70.41	-23.4	-23.5	18.7	0.00e+00	0	44	0	2545942528	7	3647
2026-01-17 14:59:39.55	250.57	70.45	-23.3	-23.3	18.8	0.00e+00	0	44	0	2553282560	7	3605
2026-01-17 14:59:40.56	252.05	70.47	-23.2	-23.0	19.0	0.00e+00	0	44	0	2560622592	7	3540
2026-01-17 14:59:41.56	253.51	70.49	-23.2	-23.1	18.9	0.00e+00	0	44	0	2567962624	7	3545
2026-01-17 14:59:42.56	254.98	70.49	-23.3	-23.3	18.8	0.00e+00	0	44	0	2574254080	7	3591
2026-01-17 14:59:43.57	256.46	70.48	-23.5	-23.6	18.7	0.00e+00	0	44	0	2581594112	7	3668
2026-01-17 14:59:44.57	257.93	70.46	-23.5	-23.8	18.6	0.00e+00	0	44	0	2588934144	7	3698
2026-01-17 14:59:45.57	259.39	70.43	-23.5	-23.8	18.6	0.00e+00	0	44	0	2596274176	7	3712
2026-01-17 14:59:46.57	260.84	70.38	-23.5	-23.7	18.7	0.00e+00	0	44	0	2603614208	7	3684
2026-01-17 14:59:47.57	262.29	70.33	-23.1	-22.8	19.1	0.00e+00	0	44	0	2610954240	7	3500
2026-01-17 14:59:48.58	263.74	70.26	-23.2	-23.1	19.0	0.00e+00	0	44	0	2618294272	7	3543
2026-01-17 14:59:49.57	265.15	70.18	-23.4	-23.4	18.8	0.00e+00	0	44	0	2625634304	7	3615
2026-01-17 14:59:50.58	266.57	70.09	-23.4	-23.6	18.7	0.00e+00	0	44	0	2632974336	7	3659
2026-01-17 14:59:51.58	267.97	69.99	-23.4	-23.5	18.8	0.00e+00	0	44	0	2639265792	7	3640
2026-01-17 14:59:52.59	269.37	69.88	-23.4	-23.5	18.7	0.00e+00	0	44	0	2646605824	7	3641
2026-01-17 14:59:53.59	270.73	69.75	-23.4	-23.6	18.7	0.00e+00	0	44	0	2653945856	7	3654
2026-01-17 14:59:54.60	272.09	69.62	-23.4	-23.5	18.7	0.00e+00	0	44	0	2661285888	7	3640
2026-01-17 14:59:55.60	273.42	69.47	-23.3	-23.3	18.8	0.00e+00	0	44	0	2668625920	7	3582
2026-01-17 14:59:56.60	274.72	69.32	-23.3	-23.3	18.8	0.00e+00	0	44	0	2675965952	7	3595
2026-01-17 14:59:57.60	276.01	69.16	-23.3	-23.3	18.8	0.00e+00	0	44	0	2683305984	7	3600
2026-01-17 14:59:58.61	277.28	68.98	-23.2	-23.1	18.9	0.00e+00	0	44	0	2690646016	7	3553
2026-01-17 14:59:59.61	278.52	68.80	-23.0	-22.7	19.2	0.00e+00	0	44	0	2697986048	7	3460
2026-01-17 15:00:00.61	279.74	68.61	-23.4	-23.5	18.8	0.00e+00	0	44	0	2705326080	7	3631
2026-01-17 15:00:01.61	280.93	68.42	-23.5	-23.8	18.4	0.00e+00	0	44	0	2712666112	7	3700
2026-01-17 15:00:02.61	282.10	68.21	-23.6	-23.9	18.6	0.00e+00	0	44	0	2720006144	7	3718
2026-01-17 15:00:03.62	283.26	68.00	-23.3	-23.3	18.8	0.00e+00	0	44	0	2726297600	7	3598
2026-01-17 15:00:04.62	284.38	67.78	-22.8	-22.7	19.4	0.00e+00	0	44	0	2733637632	6	3564
2026-01-17 15:00:05.62	285.48	67.55	-22.7	-22.6	19.4	0.00e+00	0	44	0	2740977664	6	3549
2026-01-17 15:00:06.62	286.55	67.31	-22.9	-22.9	19.3	0.00e+00	0	44	0	2748317696	6	3614
2026-01-17 15:00:07.63	287.61	67.07	-23.0	-23.1	19.2	0.00e+00	0	44	0	2755657728	6	3645
2026-01-17 15:00:08.63	288.63	66.82	-23.2	-23.5	18.9	0.00e+00	0	44	0	2762997760	6	3754
2026-01-17 15:00:09.63	289.63	66.57	-23.0	-23.2	19.2	0.00e+00	0	44	0	2770337792	6	3672
2026-01-17 15:00:10.63	290.61	66.31	-22.9	-22.9	19.2	0.00e+00	0	44	0	2777677824	6	3611
2026-01-17 15:00:11.63	291.56	66.05	-22.8	-22.8	19.4	0.00e+00	0	44	0	2783969280	6	3586
2026-01-17 15:00:12.63	292.49	65.78	-23.0	-23.2	19.2	0.00e+00	0	44	0	2791309312	6	3665
2026-01-17 15:00:13.62	293.39	65.51	-23.0	-23.2	19.1	0.00e+00	0	44	0	2798649344	6	3676
2026-01-17 15:00:14.63	294.28	65.23	-23.2	-23.5	19.0	0.00e+00	0	44	0	2805989376	6	3743
2026-01-17 15:00:15.62	295.14	64.95	-23.4	-24.0	18.8	0.00e+00	0	44	0	2813329408	6	3855
2026-01-17 15:00:16.62	295.98	64.67	-23.3	-23.8	18.9	0.00e+00	0	44	0	2820669440	6	3808
2026-01-17 15:00:17.63	296.81	64.37	-23.3	-23.9	18.8	0.00e+00	0	44	0	2828009472	6	3828
2026-01-17 15:00:18.63	297.61	64.08	-23.5	-24.2	18.6	0.00e+00	0	44	0	2835349504	6	3913
2026-01-17 15:00:19.62	298.38	63.79	-23.6	-23.9	18.6	0.00e+00	0	44	0	2842689536	7	3724
2026-01-17 15:00:20.62	299.15	63.49	-23.8	-24.4	18.3	0.00e+00	0	44	0	2848980992	7	3836
2026-01-17 15:00:21.63	299.89	63.19	-23.9	-24.5	18.3	0.00e+00	0	44	0	2856321024	7	3878
2026-01-17 15:00:22.63	300.62	62.88	-24.1	-24.6	17.9	0.00e+00	0	44	0	2863661056	8	3778
2026-01-17 15:00:23.63	301.32	62.58	-24.0	-24.3	18.1	0.00e+00	0	44	0	2871001088	8	3714
2026-01-17 15:00:24.63	302.01	62.27	-24.0	-24.3	18.1	0.00e+00	0	44	0	2878341120	8	3720
2026-01-17 15:00:25.63	302.68	61.96	-24.2	-24.8	17.9	0.00e+00	0	44	0	2885681152	8	3816
2026-01-17 15:00:26.64	303.34	61.64	-24.4	-25.1	17.7	0.00e+00	0	44	0	2893021184	8	3908
2026-01-17 15:00:27.63	303.97	61.33	-24.4	-25.1	17.7	0.00e+00	0	44	0	2900361216	8	3902
2026-01-17 15:00:28.63	304.60	61.02	-24.4	-25.1	17.7	0.00e+00	0	44	0	2907701248	8	3897
2026-01-17 15:00:29.64	305.21	60.70	-24.5	-25.2	17.7	0.00e+00	0	44	0	2913992704	8	3930
2026-01-17 15:00:30.65	305.81	60.38	-25.0	-25.9	17.1	0.00e+00	0	44	0	2922381312	9	3986
2026-01-17 15:00:31.65	306.38	60.06	-25.1	-25.7	16.9	0.00e+00	0	44	0	2928672768	10	3820
2026-01-17 15:00:32.64	306.94	59.74	-25.4	-26.2	16.7	0.00e+00	0	44	0	2936012800	10	3944
2026-01-17 15:00:33.65	307.49	59.42	-25.2	-25.8	16.8	0.00e+00	0	44	0	2943352832	10	3855
2026-01-17 15:00:34.65	308.03	59.10	-25.2	-25.8	16.8	0.00e+00	0	44	0	2950692864	10	3847
2026-01-17 15:00:35.65	308.55	58.78	-25.2	-25.8	16.9	0.00e+00	0	44	0	2958032896	10	3841
2026-01-17 15:00:36.65	309.06	58.46	-25.5	-26.3	16.5	0.00e+00	0	44	0	2965372928	10	3972
2026-01-17 15:00:37.66	309.57	58.13	-25.2	-25.3	16.9	0.00e+00	0	44	0	2972712960	11	3626
2026-01-17 15:00:38.66	310.05	57.81	-24.8	-24.9	17.3	0.00e+00	0	44	0	2980052992	10	3644
2026-01-17 15:00:39.66	310.53	57.49	-24.6	-24.6	17.5	0.00e+00	0	44	0	2987393024	10	3576
2026-01-17 15:00:40.66	310.99	57.17	-24.8	-24.9	17.3	1.10e-06	0	44	0	2993684480	10	3654
2026-01-17 15:00:41.67	311.45	56.84	-24.9	-25.2	17.2	0.00e+00	0	44	0	3001024512	10	3712
2026-01-17 15:00:42.67	311.89	56.52	-25.0	-25.4	17.1	0.00e+00	0	44	0	3008364544	10	3747
2026-01-17 15:00:43.68	312.33	56.19	-24.9	-25.1	17.2	0.00e+00	0	44	0	3015704576	10	3688
2026-01-17 15:00:44.68	312.75	55.87	-24.6	-24.6	17.5	0.00e+00	0	44	0	3023044608	10	3566
2026-01-17 15:00:45.68	313.17	55.55	-24.6	-24.4	17.5	0.00e+00	0	44	0	3030384640	10	3538
2026-01-17 15:00:46.69	313.57	55.23	-24.7	-24.7	17.5	1.10e-06	0	44	0	3037724672	10	3596
2026-01-17 15:00:47.69	313.97	54.91	-24.7	-24.7	17.4	0.00e+00	0	44	0	3045064704	10	3597
2026-01-17 15:00:48.68	314.35	54.59	-24.8	-25.0	17.2	0.00e+00	0	44	0	3052404736	10	3666
2026-01-17 15:00:49.69	314.73	54.27	-24.8	-24.9	17.3	1.10e-06	0	44	0	3058696192	10	3645
2026-01-17 15:00:50.70	315.11	53.95	-24.7	-24.7	17.3	0.00e+00	0	44	0	3067084800	10	3596
2026-01-17 15:00:51.69	315.46	53.64	-24.8	-25.0	17.3	0.00e+00	0	44	0	3073376256	10	3657
2026-01-17 15:00:52.70	315.82	53.32	-25.0	-25.3	17.1	0.00e+00	0	44	0	3080716288	10	3727
2026-01-17 15:00:53.70	316.17	53.00	-25.0	-25.5	17.0	0.00e+00	0	44	0	3088056320	10	3774
2026-01-17 15:00:54.70	316.51	52.69	-25.0	-25.4	17.0	0.00e+00	0	44	0	3095396352	10	3765
2026-01-17 15:00:55.71	316.84	52.37	-24.8	-24.9	16.9	0.00e+00	0	44	0	3102736384	10	3636
2026-01-17 15:00:56.71	317.17	52.06	-24.9	-25.1	17.2	0.00e+00	0	44	0	3110076416	10	3684
2026-01-17 15:00:57.71	317.49	51.75	-25.1	-25.6	16.8	0.00e+00	0	44	0	3117416448	10	3817
2026-01-17 15:00:58.72	317.80	51.44	-25.0	-25.5	17.0	0.00e+00	0	44	0	3124756480	10	3772
2026-01-17 15:00:59.72	318.11	51.13	-25.2	-25.8	16.8	0.00e+00	0	44	0	3132096512	10	3849
2026-01-17 15:01:00.72	318.41	50.82	-25.1	-25.5	17.0	0.00e+00	0	44	0	3138387968	10	3770
2026-01-17 15:01:01.72	318.70	50.52	-24.8	-24.9	17.3	0.00e+00	0	44	0	3145728000	10	3643
2026-01-17 15:01:02.73	318.99	50.21	-24.7	-24.7	17.4	0.00e+00	0	44	0	3153068032	10	3609
2026-01-17 15:01:03.73	319.27	49.91	-24.9	-25.1	17.2	0.00e+00	0	44	0	3160408064	10	3684
2026-01-17 15:01:04.74	319.55	49.60	-24.9	-25.2	17.1	0.00e+00	0	44	0	3167748096	10	3711
2026-01-17 15:01:05.74	319.82	49.30	-25.2	-25.8	16.8	0.00e+00	0	44	0	3175088128	10	3846
2026-01-17 15:01:06.74	320.09	49.00	-25.1	-25.6	16.9	0.00e+00	0	44	0	3182428160	10	3819
2026-01-17 15:01:07.74	320.35	48.70	-24.9	-25.2	17.1	0.00e+00	0	44	0	3189768192	10	3719
2026-01-17 15:01:08.74	320.61	48.41	-24.7	-24.7	17.3	0.00e+00	0	44	0	3197108224	10	3610
2026-01-17 15:01:09.74	320.86	48.11	-24.7	-24.7	17.4	0.00e+00	0	44	0	3203399680	10	3602
2026-01-17 15:01:10.74	321.10	47.82	-24.8	-24.9	17.3	0.00e+00	0	44	0	3210739712	10	3648
2026-01-17 15:01:11.75	321.35	47.52	-24.6	-24.4	17.6	0.00e+00	0	44	0	3219128320	10	3544
2026-01-17 15:01:12.75	321.59	47.23	-24.5	-24.2	17.6	0.00e+00	0	44	0	3225419776	10	3494
2026-01-17 15:01:13.75	321.82	46.95	-24.6	-24.5	17.5	0.00e+00	0	44	0	3232759808	10	3556
2026-01-17 15:01:14.76	322.05	46.65	-24.3	-24.4	17.8	0.00e+00	0	44	0	3240099840	9	3627
2026-01-17 15:01:15.76	322.28	46.37	-24.1	-23.9	18.0	0.00e+00	0	44	0	3247439872	9	3533
2026-01-17 15:01:16.77	322.50	46.08	-24.0	-24.2	17.4	0.00e+00	0	44	0	3254779904	8	3684
2026-01-17 15:01:17.77	322.72	45.80	-23.8	-23.9	18.2	0.00e+00	0	44	0	3262119936	8	3627
2026-01-17 15:01:18.76	322.93	45.52	-23.7	-23.7	18.3	0.00e+00	0	44	0	3269459968	8	3577
2026-01-17 15:01:19.76	323.14	45.24	-23.7	-23.5	18.4	0.00e+00	0	44	0	3276800000	8	3543
2026-01-17 15:01:20.76	323.34	44.96	-23.6	-23.4	18.5	0.00e+00	0	44	0	3284140032	8	3515
2026-01-17 15:01:21.76	323.55	44.68	-23.7	-23.6	18.4	0.00e+00	0	44	0	3290431488	8	3553
2026-01-17 15:01:22.76	323.75	44.41	-23.6	-23.4	18.5	0.00e+00	0	44	0	3297771520	8	3519
2026-01-17 15:01:23.76	323.94	44.14	-23.5	-23.2	18.7	0.00e+00	0	44	0	3305111552	8	3474
2026-01-17 15:01:24.76	324.13	43.86	-23.5	-23.3	18.6	0.00e+00	0	44	0	3312451584	8	3489
2026-01-17 15:01:25.76	324.32	43.59	-23.4	-23.1	18.7	0.00e+00	0	44	0	3319791616	8	3456
2026-01-17 15:01:26.76	324.51	43.32	-23.4	-23.0	18.5	0.00e+00	0	44	0	3327131648	8	3445
2026-01-17 15:01:27.77	324.70	43.05	-23.4	-23.4	18.7	0.00e+00	0	44	0	3334471680	7	3624
2026-01-17 15:01:28.76	324.87	42.79	-23.5	-23.7	18.5	0.00e+00	0	44	0	3341811712	7	3688
2026-01-17 15:01:29.76	325.05	42.53	-23.5	-23.7	18.5	0.00e+00	0	44	0	3348103168	7	3693
2026-01-17 15:01:30.76	325.23	42.26	-23.6	-24.0	18.4	0.00e+00	0	44	0	3355443200	7	3754
2026-01-17 15:01:31.77	325.40	42.00	-23.6	-24.0	18.4	0.00e+00	0	44	0	3362783232	7	3751
2026-01-17 15:01:32.77	325.57	41.74	-23.6	-24.0	18.4	0.00e+00	0	44	0	3370123264	7	3748
2026-01-17 15:01:33.76	325.73	41.49	-23.7	-24.2	18.4	0.00e+00	0	44	0	3377463296	7	3787
2026-01-17 15:01:34.76	325.90	41.23	-23.6	-23.9	18.3	0.00e+00	0	44	0	3384803328	7	3739
2026-01-17 15:01:35.76	326.06	40.98	-23.5	-23.7	18.6	0.00e+00	0	44	0	3392143360	7	3679
2026-01-17 15:01:36.76	326.22	40.72	-23.6	-23.8	18.5	0.00e+00	0	44	0	3399483392	7	3707
2026-01-17 15:01:37.76	326.37	40.47	-23.4	-23.6	18.6	0.00e+00	0	44	0	3406823424	7	3661
2026-01-17 15:01:38.76	326.53	40.22	-23.4	-23.4	18.7	0.00e+00	0	44	0	3413114880	7	3629
2026-01-17 15:01:39.76	326.68	39.97	-23.4	-23.4	18.7	0.00e+00	0	44	0	3420454912	7	3625
2026-01-17 15:01:40.76	326.83	39.73	-23.4	-23.5	18.7	0.00e+00	0	44	0	3427794944	7	3630
2026-01-17 15:01:41.76	326.98	39.48	-23.4	-23.6	18.6	0.00e+00	0	44	0	3435134976	7	3656
2026-01-17 15:01:42.76	327.12	39.24	-23.5	-23.7	18.6	0.00e+00	0	44	0	3442475008	7	3674
2026-01-17 15:01:43.76	327.27	38.99	-23.5	-23.7	18.5	0.00e+00	0	44	0	3449815040	7	3694
2026-01-17 15:01:44.76	327.41	38.75	-23.5	-23.7	18.6	0.00e+00	0	44	0	3457155072	7	3677
2026-01-17 15:01:45.76	327.55	38.51	-23.4	-23.6	18.6	0.00e+00	0	44	0	3464495104	7	3659
2026-01-17 15:01:46.77	327.69	38.27	-23.5	-23.7	18.6	0.00e+00	0	44	0	3471835136	7	3677
2026-01-17 15:01:47.77	327.82	38.04	-23.3	-23.2	18.6	0.00e+00	0	44	0	3478126592	7	3585
2026-01-17 15:01:48.78	327.96	37.80	-23.1	-22.8	18.9	0.00e+00	0	44	0	3485466624	7	3499
2026-01-17 15:01:49.78	328.09	37.57	-23.2	-23.0	18.9	0.00e+00	0	44	0	3492806656	7	3528
2026-01-17 15:01:50.79	328.22	37.33	-23.3	-23.2	18.8	0.00e+00	0	44	0	3500146688	7	3582
2026-01-17 15:01:51.78	328.35	37.10	-23.1	-22.9	19.0	0.00e+00	0	44	0	3507486720	7	3502
2026-01-17 15:01:52.78	328.47	36.88	-23.1	-22.9	19.0	0.00e+00	0	44	0	3514826752	7	3514
2026-01-17 15:01:53.78	328.60	36.65	-23.1	-22.9	18.9	0.00e+00	0	44	0	3522166784	7	3516
2026-01-17 15:01:54.78	328.72	36.42	-23.2	-23.0	18.9	0.00e+00	0	44	0	3529506816	7	3527
2026-01-17 15:01:55.78	328.84	36.20	-23.2	-23.0	18.9	0.00e+00	0	44	0	3535798272	7	3539
2026-01-17 15:01:56.79	328.96	35.97	-23.3	-23.2	18.8	0.00e+00	0	44	0	3543138304	7	3576
2026-01-17 15:01:57.79	329.08	35.75	-23.3	-23.4	18.6	0.00e+00	0	44	0	3550478336	7	3614
2026-01-17 15:01:58.79	329.20	35.53	-23.2	-23.1	18.8	0.00e+00	0	44	0	3557818368	7	3568
2026-01-17 15:01:59.79	329.31	35.31	-23.3	-23.3	18.7	0.00e+00	0	44	0	3565158400	7	3590
2026-01-17 15:02:00.79	329.43	35.09	-23.4	-23.5	18.7	0.00e+00	0	44	0	3572498432	7	3638
2026-01-17 15:02:01.80	329.54	34.87	-23.3	-23.4	18.7	0.00e+00	0	44	0	3579838464	7	3619
2026-01-17 15:02:02.80	329.65	34.66	-23.4	-23.4	18.7	0.00e+00	0	44	0	3587178496	7	3628
2026-01-17 15:02:03.80	329.76	34.45	-23.5	-23.8	18.5	0.00e+00	0	44	0	3594518528	7	3707
2026-01-17 15:02:04.80	329.87	34.23	-23.7	-24.1	18.3	0.00e+00	0	44	0	3601858560	7	3779
2026-01-17 15:02:05.80	329.97	34.02	-23.5	-23.8	18.5	0.00e+00	0	44	0	3609198592	7	3700
2026-01-17 15:02:06.80	330.08	33.81	-23.6	-23.9	18.4	0.00e+00	0	44	0	3616538624	7	3737
2026-01-17 15:02:07.80	330.18	33.61	-23.6	-23.9	18.4	0.00e+00	0	44	0	3622830080	7	3729
2026-01-17 15:02:08.79	330.29	33.40	-23.6	-23.9	18.3	0.00e+00	0	44	0	3630170112	7	3739
2026-01-17 15:02:09.79	330.39	33.20	-23.6	-23.9	18.4	0.00e+00	0	44	0	3637510144	7	3729
2026-01-17 15:02:10.80	330.49	32.99	-23.7	-24.1	18.3	0.00e+00	0	44	0	3644850176	7	3786
2026-01-17 15:02:11.80	330.59	32.79	-23.6	-23.8	18.4	0.00e+00	0	44	0	3652190208	7	3716
2026-01-17 15:02:12.80	330.69	32.59	-23.8	-24.4	18.2	0.00e+00	0	44	0	3659530240	7	3841
2026-01-17 15:02:13.80	330.78	32.39	-23.7	-24.1	18.3	0.00e+00	0	44	0	3666870272	7	3768
2026-01-17 15:02:14.81	330.88	32.18	-23.3	-23.2	18.8	0.00e+00	0	44	0	3674210304	7	3578
2026-01-17 15:02:15.81	330.97	31.99	-23.1	-22.8	19.0	0.00e+00	0	44	0	3680501760	7	3493
2026-01-17 15:02:16.81	331.07	31.79	-23.0	-22.6	19.1	0.00e+00	0	44	0	3687841792	7	3454
2026-01-17 15:02:17.81	331.16	31.59	-23.0	-22.7	19.0	0.00e+00	0	44	0	3695181824	7	3473
2026-01-17 15:02:18.82	331.25	31.40	-23.0	-22.8	19.0	0.00e+00	0	44	0	3702521856	7	3483
2026-01-17 15:02:19.83	331.34	31.20	-23.1	-22.8	18.9	0.00e+00	0	44	0	3709861888	7	3501
2026-01-17 15:02:20.82	331.43	31.01	-23.2	-23.1	18.8	0.00e+00	0	44	0	3717201920	7	3555
2026-01-17 15:02:21.82	331.52	30.82	-23.2	-23.0	18.8	0.00e+00	0	44	0	3724541952	7	3541
2026-01-17 15:02:22.83	331.61	30.63	-23.2	-23.0	18.9	0.00e+00	0	44	0	3731881984	7	3538
2026-01-17 15:02:23.83	331.69	30.44	-23.1	-23.0	18.9	0.00e+00	0	44	0	3739222016	7	3523
2026-01-17 15:02:24.83	331.78	30.26	-23.3	-23.3	18.6	0.00e+00	0	44	0	3745513472	7	3602
2026-01-17 15:02:25.84	331.86	30.07	-23.4	-23.6	18.6	0.00e+00	0	44	0	3752853504	7	3657
2026-01-17 15:02:26.84	331.95	29.88	-23.4	-23.6	18.5	0.00e+00	0	44	0	3760193536	7	3655
2026-01-17 15:02:27.84	332.03	29.70	-23.5	-23.8	18.4	0.00e+00	0	44	0	3767533568	7	3704
2026-01-17 15:02:28.84	332.11	29.52	-23.5	-23.7	18.5	0.00e+00	0	44	0	3774873600	7	3683
2026-01-17 15:02:29.84	332.19	29.34	-23.5	-23.7	18.4	0.00e+00	0	44	0	3782213632	7	3693
2026-01-17 15:02:30.83	332.27	29.16	-23.7	-24.1	18.3	0.00e+00	0	44	0	3789553664	7	3781
2026-01-17 15:02:31.83	332.35	28.98	-23.7	-24.1	18.3	0.00e+00	0	44	0	3796893696	7	3780
2026-01-17 15:02:32.83	332.43	28.80	-23.9	-24.5	18.1	0.00e+00	0	44	0	3804233728	7	3859
2026-01-17 15:02:33.84	332.51	28.62	-23.8	-24.4	18.1	0.00e+00	0	44	0	3810525184	7	3841
2026-01-17 15:02:34.84	332.58	28.45	-23.7	-24.2	18.2	0.00e+00	0	44	0	3817865216	7	3805
2026-01-17 15:02:35.84	332.66	28.27	-23.9	-24.5	18.1	0.00e+00	0	44	0	3825205248	7	3873
2026-01-17 15:02:36.84	332.74	28.10	-23.9	-24.5	18.1	0.00e+00	0	44	0	3832545280	7	3866
2026-01-17 15:02:37.85	332.81	27.92	-23.9	-24.6	18.0	0.00e+00	0	44	0	3839885312	7	3895
2026-01-17 15:02:38.85	332.88	27.75	-23.8	-24.4	18.1	0.00e+00	0	44	0	3847225344	7	3852
2026-01-17 15:02:39.84	332.96	27.58	-23.7	-24.1	18.2	0.00e+00	0	44	0	3854565376	7	3783
2026-01-17 15:02:40.85	333.03	27.41	-23.8	-24.4	18.1	0.00e+00	0	44	0	3861905408	7	3844
2026-01-17 15:02:41.85	333.10	27.24	-23.9	-24.6	18.0	0.00e+00	0	44	0	3869245440	7	3887
2026-01-17 15:02:42.85	333.17	27.08	-24.0	-24.8	17.9	0.00e+00	0	44	0	3876585472	7	3946
2026-01-17 15:02:43.85	333.24	26.91	-24.0	-24.7	17.9	0.00e+00	0	44	0	3883925504	7	3911
2026-01-17 15:02:44.85	333.31	26.74	-24.2	-24.7	17.7	0.00e+00	0	44	0	3890216960	8	3810
2026-01-17 15:02:45.84	333.38	26.58	-24.5	-25.4	17.3	0.00e+00	0	44	0	3897556992	8	3967
2026-01-17 15:02:46.84	333.45	26.42	-24.3	-24.9	17.6	0.00e+00	0	44	0	3904897024	8	3860
2026-01-17 15:02:47.84	333.51	26.25	-24.2	-24.6	17.8	0.00e+00	0	44	0	3912237056	8	3788
2026-01-17 15:02:48.83	333.58	26.09	-24.1	-24.4	17.8	0.00e+00	0	44	0	3919577088	8	3756
2026-01-17 15:02:49.83	333.65	25.93	-24.1	-24.6	17.8	0.00e+00	0	44	0	3926917120	8	3785
2026-01-17 15:02:50.83	333.71	25.77	-24.0	-24.2	17.9	0.00e+00	0	44	0	3933208576	8	3709
2026-01-17 15:02:51.83	333.78	25.61	-24.0	-24.3	17.9	0.00e+00	0	44	0	3940548608	8	3712
2026-01-17 15:02:52.83	333.84	25.46	-24.0	-24.2	18.0	0.00e+00	0	44	0	3947888640	8	3696
2026-01-17 15:02:53.82	333.90	25.30	-24.0	-24.2	17.9	0.00e+00	0	44	0	3955228672	8	3698
2026-01-17 15:02:54.82	333.97	25.14	-24.1	-24.5	17.8	0.00e+00	0	44	0	3962568704	8	3757
2026-01-17 15:02:55.83	334.03	24.99	-24.0	-24.2	17.9	0.00e+00	0	44	0	3969908736	8	3702
2026-01-17 15:02:56.83	334.09	24.83	-23.7	-23.7	18.2	0.00e+00	0	44	0	3977248768	8	3598
2026-01-17 15:02:57.83	334.15	24.68	-23.7	-23.6	18.2	0.00e+00	0	44	0	3984588800	8	3563
2026-01-17 15:02:58.83	334.21	24.53	-23.8	-23.8	18.1	0.00e+00	0	44	0	3991928832	8	3601
2026-01-17 15:02:59.83	334.27	24.37	-23.7	-23.6	18.2	0.00e+00	0	44	0	3998220288	8	3555
2026-01-17 15:03:00.83	334.33	24.22	-23.6	-23.4	18.3	0.00e+00	0	44	0	4005560320	8	3520
2026-01-17 15:03:01.83	334.39	24.07	-23.7	-23.6	18.2	0.00e+00	0	44	0	4012900352	8	3566
2026-01-17 15:03:02.82	334.45	23.92	-23.6	-23.4	18.3	0.00e+00	0	44	0	4020240384	8	3524
2026-01-17 15:03:03.83	334.51	23.77	-23.5	-23.3	18.4	0.00e+00	0	44	0	4027580416	8	3500
2026-01-17 15:03:04.83	334.57	23.63	-23.6	-23.3	18.3	0.00e+00	0	44	0	4034920448	8	3510
2026-01-17 15:03:05.83	334.63	23.48	-23.4	-23.1	18.4	0.00e+00	0	44	0	4042260480	8	3464
2026-01-17 15:03:06.84	334.68	23.33	-23.5	-23.1	18.4	0.00e+00	0	44	0	4049600512	8	3467
2026-01-17 15:03:07.84	334.74	23.19	-23.6	-23.4	18.3	0.00e+00	0	44	0	4055891968	8	3529
2026-01-17 15:03:08.84	334.79	23.04	-23.7	-23.7	18.1	0.00e+00	0	44	0	4063232000	8	3583
2026-01-17 15:03:09.85	334.85	22.90	-23.6	-23.5	18.2	0.00e+00	0	44	0	4071620608	8	3545
2026-01-17 15:03:10.85	334.91	22.75	-23.8	-23.8	18.0	0.00e+00	0	44	0	4077912064	8	3609
2026-01-17 15:03:11.86	334.96	22.61	-23.7	-23.6	18.1	0.00e+00	0	44	0	4085252096	8	3559
2026-01-17 15:03:12.86	335.01	22.47	-23.9	-23.9	18.0	0.00e+00	0	44	0	4092592128	8	3638
2026-01-17 15:03:13.87	335.07	22.33	-23.9	-24.0	17.9	0.00e+00	0	44	0	4099932160	8	3653
2026-01-17 15:03:14.88	335.12	22.19	-23.8	-23.8	18.1	0.00e+00	0	44	0	4107272192	8	3600
2026-01-17 15:03:15.88	335.17	22.05	-23.8	-23.8	18.1	0.00e+00	0	44	0	4114612224	8	3602
2026-01-17 15:03:16.88	335.23	21.91	-23.9	-24.0	17.9	0.00e+00	0	44	0	4121952256	8	3664
2026-01-17 15:03:17.88	335.28	21.77	-23.8	-23.9	18.0	0.00e+00	0	44	0	4129292288	8	3633
2026-01-17 15:03:18.89	335.33	21.63	-24.0	-24.2	17.8	0.00e+00	0	44	0	4136632320	8	3689
2026-01-17 15:03:19.88	335.38	21.50	-24.0	-24.2	17.8	0.00e+00	0	44	0	4142923776	8	3693
2026-01-17 15:03:20.88	335.43	21.36	-24.0	-24.3	17.8	0.00e+00	0	44	0	4150263808	8	3724
2026-01-17 15:03:21.88	335.48	21.23	-24.2	-24.6	17.6	0.00e+00	0	44	0	4157603840	8	3790
2026-01-17 15:03:22.89	335.53	21.09	-24.1	-24.5	17.6	0.00e+00	0	44	0	4164943872	8	3774
2026-01-17 15:03:23.88	335.58	20.96	-24.3	-24.9	17.5	0.00e+00	0	44	0	4172283904	8	3853
2026-01-17 15:03:24.88	335.63	20.83	-24.3	-24.9	17.5	0.00e+00	0	44	0	4179623936	8	3855
2026-01-17 15:03:25.88	335.68	20.69	-24.3	-24.8	17.4	0.00e+00	0	44	0	4186963968	8	3848
2026-01-17 15:03:26.88	335.72	20.56	-24.3	-24.9	17.4	0.00e+00	0	44	0	4194304000	8	3869
2026-01-17 15:03:27.88	335.77	20.43	-24.4	-25.1	17.3	0.00e+00	0	44	0	4200595456	8	3912
2026-01-17 15:03:28.89	335.82	20.30	-24.4	-25.1	17.3	0.00e+00	0	44	0	4207935488	8	3896
2026-01-17 15:03:29.90	335.87	20.17	-24.5	-25.3	17.2	0.00e+00	0	44	0	4216324096	8	3948
2026-01-17 15:03:30.90	335.91	20.04	-24.4	-25.2	17.2	0.00e+00	0	44	0	4222615552	8	3938
2026-01-17 15:03:31.90	335.96	19.91	-24.5	-25.4	17.2	0.00e+00	0	44	0	4229955584	8	3970
2026-01-17 15:03:32.90	336.01	19.79	-24.6	-25.1	17.0	0.00e+00	0	44	0	4237295616	9	3809
2026-01-17 15:03:33.91	336.05	19.66	-24.9	-25.8	16.7	0.00e+00	0	44	0	4244635648	9	3959
2026-01-17 15:03:34.90	336.10	19.53	-24.7	-25.3	16.9	0.00e+00	0	44	0	4251975680	9	3856
2026-01-17 15:03:35.90	336.14	19.41	-24.8	-25.5	16.8	0.00e+00	0	44	0	4259315712	9	3895
2026-01-17 15:03:36.89	336.19	19.28	-24.8	-25.4	16.9	0.00e+00	0	44	0	4265607168	9	3873
2026-01-17 15:03:37.89	336.23	19.16	-24.7	-25.2	17.0	0.00e+00	0	44	0	4272947200	9	3828
2026-01-17 15:03:38.90	336.27	19.04	-24.7	-25.2	17.0	0.00e+00	0	44	0	4281335808	9	3821
2026-01-17 15:03:39.89	336.32	18.91	-24.6	-25.1	17.0	0.00e+00	0	44	0	4287627264	9	3805
2026-01-17 15:03:40.89	336.36	18.79	-24.8	-25.4	16.8	0.00e+00	0	44	0	4294967296	9	3885
2026-01-17 15:03:41.90	336.40	18.67	-24.7	-25.2	16.9	0.00e+00	0	44	0	4302307328	9	3836
2026-01-17 15:03:42.90	336.45	18.55	-24.5	-24.8	17.2	0.00e+00	0	44	0	4309647360	9	3738
2026-01-17 15:03:43.91	336.49	18.42	-24.5	-24.8	17.1	0.00e+00	0	44	0	4316987392	9	3743
2026-01-17 15:03:44.91	336.53	18.30	-24.5	-24.8	17.2	0.00e+00	0	44	0	4324327424	9	3725
2026-01-17 15:03:45.92	336.57	18.18	-24.7	-25.2	16.9	0.00e+00	0	44	0	4331667456	9	3836
2026-01-17 15:03:46.92	336.61	18.06	-24.5	-24.9	17.1	0.00e+00	0	44	0	4339007488	9	3762
2026-01-17 15:03:47.92	336.66	17.95	-24.5	-24.9	17.1	0.00e+00	0	44	0	4346347520	9	3756
2026-01-17 15:03:48.93	336.70	17.83	-24.6	-25.1	17.0	0.00e+00	0	44	0	4352638976	9	3803
2026-01-17 15:03:49.93	336.74	17.71	-24.6	-25.0	17.1	0.00e+00	0	44	0	4359979008	9	3771
2026-01-17 15:03:50.93	336.78	17.59	-24.6	-25.0	17.0	0.00e+00	0	44	0	4367319040	9	3787
2026-01-17 15:03:51.93	336.82	17.48	-24.6	-25.1	17.0	0.00e+00	0	44	0	4374659072	9	3805
2026-01-17 15:03:52.94	336.86	17.36	-24.6	-25.1	17.0	0.00e+00	0	44	0	4381999104	9	3789
2026-01-17 15:03:53.94	336.90	17.25	-24.7	-25.3	16.8	0.00e+00	0	44	0	4389339136	9	3858
2026-01-17 15:03:54.94	336.94	17.13	-24.6	-25.1	16.9	0.00e+00	0	44	0	4396679168	9	3806
2026-01-17 15:03:55.94	336.98	17.02	-24.7	-25.2	16.9	0.00e+00	0	44	0	4404019200	9	3813
2026-01-17 15:03:56.94	337.01	16.90	-24.7	-25.2	16.9	0.00e+00	0	44	0	4410310656	9	3828
2026-01-17 15:03:57.95	337.05	16.79	-24.7	-25.2	16.9	0.00e+00	0	44	0	4418699264	9	3824
2026-01-17 15:03:58.95	337.09	16.68	-24.7	-25.2	16.9	0.00e+00	0	44	0	4426039296	9	3823
2026-01-17 15:03:59.95	337.13	16.56	-24.9	-25.7	16.7	0.00e+00	0	44	0	4432330752	9	3937
2026-01-17 15:04:00.95	337.17	16.45	-24.8	-25.5	16.7	0.00e+00	0	44	0	4439670784	9	3900
2026-01-17 15:04:01.94	337.20	16.34	-24.9	-25.6	16.6	0.00e+00	0	44	0	4447010816	9	3914
2026-01-17 15:04:02.94	337.24	16.23	-25.3	-26.0	16.2	0.00e+00	0	44	0	4454350848	10	3914
2026-01-17 15:04:03.94	337.28	16.12	-25.3	-26.0	16.2	0.00e+00	0	44	0	4461690880	10	3912
2026-01-17 15:04:04.94	337.32	16.01	-25.3	-26.1	16.1	0.00e+00	0	44	0	4469030912	10	3947
2026-01-17 15:04:05.94	337.35	15.90	-25.3	-26.1	16.2	0.00e+00	0	44	0	4475322368	10	3931
2026-01-17 15:04:06.94	337.39	15.80	-25.4	-26.2	16.1	0.00e+00	0	44	0	4482662400	10	3963
2026-01-17 15:04:07.95	337.42	15.69	-25.4	-26.3	16.0	0.00e+00	0	44	0	4491051008	10	3996
2026-01-17 15:04:08.94	337.46	15.58	-25.4	-26.2	16.1	0.00e+00	0	44	0	4497342464	10	3964
2026-01-17 15:04:09.94	337.50	15.47	-25.8	-26.7	15.5	0.00e+00	0	44	0	4504682496	11	3972
2026-01-17 15:04:10.93	337.53	15.37	-25.6	-26.2	15.8	0.00e+00	0	44	0	4512022528	11	3852
2026-01-17 15:04:11.94	337.57	15.26	-25.3	-25.5	16.1	0.00e+00	0	44	0	4519362560	11	3701
2026-01-17 15:04:12.93	337.60	15.15	-25.2	-25.3	16.3	0.00e+00	0	44	0	4526702592	11	3643
2026-01-17 15:04:13.94	337.64	15.05	-25.3	-25.5	16.2	0.00e+00	0	44	0	4534042624	11	3686
2026-01-17 15:04:14.94	337.67	14.94	-25.2	-25.4	16.2	0.00e+00	0	44	0	4540334080	11	3671
2026-01-17 15:04:15.94	337.70	14.84	-25.4	-25.8	16.0	0.00e+00	0	44	0	4547674112	11	3771
2026-01-17 15:04:16.95	337.74	14.73	-25.4	-25.7	16.1	0.00e+00	0	44	0	4556062720	11	3735
2026-01-17 15:04:17.95	337.77	14.63	-25.5	-26.0	15.9	0.00e+00	0	44	0	4562354176	11	3801
2026-01-17 15:04:18.95	337.81	14.53	-25.6	-26.2	15.7	0.00e+00	0	44	0	4569694208	11	3866
2026-01-17 15:04:19.95	337.84	14.42	-25.5	-26.0	15.9	0.00e+00	0	44	0	4577034240	11	3806
2026-01-17 15:04:20.96	337.87	14.32	-25.5	-26.0	15.9	0.00e+00	0	44	0	4584374272	11	3801
2026-01-17 15:04:21.96	337.91	14.22	-25.5	-25.9	15.9	0.00e+00	0	44	0	4591714304	11	3797
2026-01-17 15:04:22.96	337.94	14.12	-25.8	-26.6	15.5	0.00e+00	0	44	0	4599054336	11	3956
2026-01-17 15:04:23.96	337.97	14.02	-25.6	-26.2	15.7	0.00e+00	0	44	0	4606394368	11	3857
2026-01-17 15:04:24.96	338.00	13.92	-25.6	-26.2	15.7	0.00e+00	0	44	0	4613734400	11	3860
2026-01-17 15:04:25.96	338.04	13.82	-25.7	-26.3	15.7	0.00e+00	0	44	0	4620025856	11	3894
2026-01-17 15:04:26.95	338.07	13.72	-25.6	-26.2	15.7	0.00e+00	0	44	0	4627365888	11	3862
2026-01-17 15:04:27.96	338.10	13.62	-25.7	-26.4	15.6	0.00e+00	0	44	0	4634705920	11	3900
2026-01-17 15:04:28.96	338.13	13.52	-25.7	-26.4	15.6	0.00e+00	0	44	0	4642045952	11	3910
2026-01-17 15:04:29.96	338.16	13.42	-25.7	-26.5	15.5	0.00e+00	0	44	0	4649385984	11	3936
2026-01-17 15:04:30.96	338.19	13.32	-26.0	-27.1	15.2	0.00e+00	0	44	0	4656726016	11	4088
2026-01-17 15:04:31.97	338.23	13.22	-25.9	-26.9	15.3	0.00e+00	0	44	0	4664066048	11	4040
2026-01-17 15:04:32.96	338.26	13.13	-25.7	-26.5	15.5	0.00e+00	0	44	0	4671406080	11	3939
2026-01-17 15:04:33.97	338.29	13.03	-25.7	-26.5	15.6	0.00e+00	0	44	0	4678746112	11	3922
2026-01-17 15:04:34.97	338.32	12.93	-25.7	-26.4	15.6	0.00e+00	0	44	0	4685037568	11	3897
2026-01-17 15:04:35.97	338.35	12.84	-25.7	-26.4	15.6	0.00e+00	0	44	0	4692377600	11	3917
2026-01-17 15:04:36.98	338.38	12.74	-25.8	-26.6	15.4	0.00e+00	0	44	0	4699717632	11	3960
2026-01-17 15:04:37.98	338.41	12.64	-25.7	-26.3	15.6	0.00e+00	0	44	0	4707057664	11	3891
2026-01-17 15:04:38.97	338.44	12.55	-25.9	-26.8	15.3	0.00e+00	0	44	0	4714397696	11	4006
2026-01-17 15:04:39.97	338.47	12.45	-25.8	-26.5	15.5	0.00e+00	0	44	0	4721737728	11	3945
2026-01-17 15:04:40.97	338.50	12.36	-25.8	-26.6	15.4	0.00e+00	0	44	0	4729077760	11	3956
2026-01-17 15:04:41.97	338.53	12.27	-25.8	-26.6	15.4	0.00e+00	0	44	0	4736417792	11	3961
2026-01-17 15:04:42.97	338.56	12.17	-25.9	-26.8	15.3	1.10e-06	0	44	0	4742709248	11	4020
2026-01-17 15:04:43.97	338.59	12.08	-26.0	-27.2	15.1	0.00e+00	0	44	0	4750049280	11	4106
2026-01-17 15:04:44.97	338.62	11.99	-25.9	-26.4	15.1	0.00e+00	0	44	0	4757389312	12	3820
2026-01-17 15:04:45.98	338.65	11.89	-26.0	-26.7	15.0	0.00e+00	0	44	0	4764729344	12	3884
2026-01-17 15:04:46.98	338.67	11.80	-25.9	-26.5	15.1	0.00e+00	0	44	0	4772069376	12	3832
2026-01-17 15:04:47.98	338.70	11.71	-26.0	-26.6	15.1	0.00e+00	0	44	0	4779409408	12	3858
2026-01-17 15:04:48.99	338.73	11.62	-26.0	-26.6	15.0	1.10e-06	0	44	0	4786749440	12	3863
2026-01-17 15:04:49.99	338.76	11.52	-25.9	-26.3	15.2	0.00e+00	0	44	0	4794089472	12	3788
2026-01-17 15:04:50.99	338.79	11.43	-25.8	-26.2	15.3	0.00e+00	0	44	0	4801429504	12	3766
2026-01-17 15:04:51.99	338.82	11.34	-25.9	-26.5	15.1	0.00e+00	0	44	0	4807720960	12	3830
2026-01-17 15:04:52.99	338.84	11.25	-25.9	-26.3	15.1	0.00e+00	0	44	0	4815060992	12	3796
2026-01-17 15:04:54.00	338.87	11.16	-25.9	-26.5	15.0	0.00e+00	0	44	0	4823449600	12	3841
2026-01-17 15:04:55.00	338.90	11.07	-25.9	-26.3	15.2	0.00e+00	0	44	0	4829741056	12	3793
2026-01-17 15:04:56.00	338.93	10.98	-26.0	-26.7	14.9	0.00e+00	0	44	0	4837081088	12	3885
2026-01-17 15:04:57.00	338.95	10.89	-26.0	-26.7	15.0	0.00e+00	0	44	0	4844421120	12	3873
2026-01-17 15:04:58.01	338.98	10.80	-26.0	-26.6	14.9	0.00e+00	0	44	0	4851761152	12	3873
2026-01-17 15:04:59.00	339.01	10.72	-26.2	-27.1	14.8	0.00e+00	0	44	0	4859101184	12	3974
2026-01-17 15:05:00.01	339.03	10.63	-26.2	-27.1	14.7	0.00e+00	0	44	0	4866441216	12	3985
2026-01-17 15:05:01.01	339.06	10.54	-26.3	-27.4	14.5	0.00e+00	0	44	0	4873781248	12	4049
2026-01-17 15:05:02.02	339.09	10.45	-26.1	-26.8	14.8	0.00e+00	0	44	0	4881121280	12	3921
2026-01-17 15:05:03.01	339.11	10.37	-26.1	-26.8	14.8	0.00e+00	0	44	0	4888461312	12	3923
2026-01-17 15:05:04.01	339.14	10.28	-26.2	-27.1	14.7	2.20e-06	0	44	0	4894752768	12	3975
2026-01-17 15:05:05.01	339.17	10.19	-26.3	-27.2	14.6	0.00e+00	0	44	0	4902092800	12	4018
2026-01-17 15:05:06.02	339.19	10.11	-26.3	-27.2	14.6	1.10e-06	0	44	0	4909432832	12	4029
2026-01-17 15:05:07.02	339.22	10.02	-26.2	-27.2	14.6	0.00e+00	0	44	0	4916772864	12	4005
2026-01-17 15:05:08.01	339.24	9.93	-26.3	-27.2	14.6	0.00e+00	0	44	0	4924112896	12	4015
