passes_logs/2026/01/17/R2M6_AANII_01/R2M6_AANII_01__20260117_121235_SUOMI_NPP_rec.log

#Pass ID: 20260117_121235_SUOMI NPP
#Satellite: SUOMI NPP
#Configuration: NPP
#almurnet v.1.7.20240730
#Start time: 2026-01-17 12:12:35

#Version: 2.2.20231116
#Station: R2M6_AANII_01
#Location: 30.233357 lon 59.946436 lat
#TLE: 1 37849U 11061A   26016.23176763  .00000061  00000+0  49926-4 0  9990
#TLE: 2 37849  98.7812 318.2698 0002434  61.5135 298.6286 14.19525545736883

#Time	Az	El	Level	Level2	SNR	BER	BlckErr	Temp	State	Recorded	gain1	gain2
2026-01-17 12:12:35.62	220.56	7.03	-31.0	-33.7	5.4	1.15e+00	0	41	0	0	23	4876
2026-01-17 12:12:36.62	220.67	7.09	-31.7	-36.2	5.0	1.24e+00	0	41	104	0	23	6083
2026-01-17 12:12:37.62	220.77	7.15	-31.6	-35.7	8.3	7.67e-02	0	41	0	0	23	5814
2026-01-17 12:12:38.62	220.88	7.21	-31.7	-36.2	8.0	5.86e-02	0	41	0	1048576	23	6054
2026-01-17 12:12:39.63	220.99	7.27	-31.7	-36.1	8.1	8.90e-02	0	41	0	3145728	23	5994
2026-01-17 12:12:40.64	221.10	7.33	-31.5	-35.1	8.9	4.28e-02	0	41	0	5242880	23	5489
2026-01-17 12:12:41.64	221.21	7.38	-31.4	-35.1	8.9	2.53e-02	0	41	0	7340032	23	5484
2026-01-17 12:12:42.64	221.32	7.44	-31.5	-35.4	8.7	3.08e-02	0	41	0	9437184	23	5642
2026-01-17 12:12:43.64	221.42	7.50	-31.6	-35.5	8.7	3.18e-02	0	41	0	10485760	23	5648
2026-01-17 12:12:44.64	221.53	7.56	-31.2	-34.2	9.7	2.17e-02	0	41	0	12582912	23	5053
2026-01-17 12:12:45.65	221.65	7.62	-31.2	-34.1	9.8	1.37e-02	0	41	0	14680064	23	5029
2026-01-17 12:12:46.65	221.76	7.68	-31.3	-34.2	9.7	1.13e-02	0	41	0	16777216	23	5076
2026-01-17 12:12:47.65	221.87	7.74	-31.4	-34.6	9.4	1.12e-02	0	42	0	17825792	23	5245
2026-01-17 12:12:48.65	221.98	7.80	-31.2	-33.9	10.1	7.08e-03	0	41	0	19922944	23	4928
2026-01-17 12:12:49.65	222.09	7.86	-31.3	-34.3	9.7	9.29e-03	0	41	0	22020096	23	5100
2026-01-17 12:12:50.64	222.20	7.92	-31.3	-34.2	9.8	1.28e-02	0	42	0	24117248	23	5061
2026-01-17 12:12:51.64	222.31	7.98	-31.2	-33.9	10.1	7.18e-03	0	42	0	26214400	23	4905
2026-01-17 12:12:52.64	222.43	8.04	-31.2	-33.9	10.0	8.89e-03	0	41	0	27262976	23	4944
2026-01-17 12:12:53.65	222.54	8.10	-31.6	-35.3	8.9	2.33e-02	0	41	0	29360128	23	5550
2026-01-17 12:12:54.65	222.65	8.16	-31.4	-34.9	9.3	1.38e-02	0	41	0	31457280	23	5337
2026-01-17 12:12:55.65	222.77	8.22	-31.3	-34.4	9.6	1.97e-02	0	42	0	33554432	23	5149
2026-01-17 12:12:56.65	222.88	8.28	-31.0	-33.2	10.5	6.67e-03	0	42	0	35651584	23	4660
2026-01-17 12:12:57.65	223.00	8.34	-31.0	-33.2	10.6	3.12e-03	0	42	0	36700160	23	4636
2026-01-17 12:12:58.65	223.11	8.40	-30.9	-33.0	10.7	5.26e-03	0	42	0	38797312	23	4560
2026-01-17 12:12:59.66	223.23	8.46	-31.1	-33.5	10.4	5.58e-03	0	42	0	40894464	23	4743
2026-01-17 12:13:00.66	223.35	8.52	-31.0	-33.2	10.5	5.26e-03	0	42	0	42991616	23	4666
2026-01-17 12:13:01.66	223.47	8.58	-30.8	-33.0	11.1	2.36e-03	0	42	0	45088768	22	4641
2026-01-17 12:13:02.66	223.58	8.64	-30.9	-33.4	10.8	2.28e-03	0	42	0	46137344	22	4804
2026-01-17 12:13:03.67	223.70	8.70	-30.8	-33.1	11.0	1.51e-03	0	42	0	48234496	22	4687
2026-01-17 12:13:04.67	223.82	8.76	-30.7	-32.9	11.2	1.12e-03	0	42	0	50331648	22	4603
2026-01-17 12:13:05.67	223.94	8.82	-30.9	-33.5	10.8	1.69e-03	0	42	0	52428800	22	4822
2026-01-17 12:13:06.67	224.06	8.89	-30.6	-32.5	11.5	1.23e-03	0	42	0	53477376	22	4461
2026-01-17 12:13:07.67	224.18	8.95	-30.4	-31.9	11.9	5.15e-04	0	42	0	55574528	22	4268
2026-01-17 12:13:08.66	224.30	9.01	-30.1	-31.4	12.6	1.01e-04	0	42	0	57671680	21	4204
2026-01-17 12:13:09.67	224.42	9.07	-30.4	-32.2	12.1	2.60e-04	0	42	0	59768832	21	4450
2026-01-17 12:13:10.67	224.54	9.13	-30.2	-31.8	12.4	2.10e-04	0	42	0	61865984	21	4306
2026-01-17 12:13:11.67	224.66	9.19	-30.3	-32.0	12.2	1.27e-04	0	42	0	62914560	21	4390
2026-01-17 12:13:12.67	224.79	9.25	-30.4	-32.3	12.0	3.11e-04	0	42	0	65011712	21	4487
2026-01-17 12:13:13.68	224.91	9.31	-30.4	-32.3	12.0	2.67e-04	0	42	0	67108864	21	4502
2026-01-17 12:13:14.68	225.03	9.37	-30.2	-31.7	12.3	2.27e-04	0	42	0	69206016	21	4299
2026-01-17 12:13:15.67	225.16	9.43	-30.5	-32.6	11.9	1.77e-04	0	42	0	71303168	21	4573
2026-01-17 12:13:16.68	225.28	9.49	-30.5	-32.7	11.8	4.32e-04	0	42	0	72351744	21	4615
2026-01-17 12:13:17.69	225.41	9.55	-30.3	-32.2	12.1	3.37e-04	0	42	0	74448896	21	4434
2026-01-17 12:13:18.69	225.53	9.62	-30.7	-33.1	11.4	6.00e-04	0	42	0	76546048	21	4783
2026-01-17 12:13:19.70	225.66	9.68	-30.7	-33.3	11.3	1.29e-03	0	42	0	78643200	21	4856
2026-01-17 12:13:20.70	225.79	9.74	-30.6	-33.0	11.5	6.84e-04	0	42	0	80740352	21	4732
2026-01-17 12:13:21.70	225.91	9.80	-30.7	-33.1	11.5	7.67e-04	0	42	0	81788928	21	4765
2026-01-17 12:13:22.70	226.04	9.86	-30.6	-32.9	11.7	6.20e-04	0	42	0	83886080	21	4679
2026-01-17 12:13:23.70	226.17	9.92	-30.7	-33.3	11.4	8.12e-04	0	42	0	85983232	21	4841
2026-01-17 12:13:24.70	226.30	9.98	-30.7	-33.0	11.5	7.60e-04	0	42	0	88080384	21	4727
2026-01-17 12:13:25.70	226.43	10.04	-30.6	-33.0	11.6	8.06e-04	0	42	0	90177536	21	4721
2026-01-17 12:13:26.69	226.56	10.10	-30.9	-33.8	11.1	1.43e-03	0	42	0	91226112	21	5012
2026-01-17 12:13:27.69	226.69	10.17	-30.8	-33.4	11.4	1.48e-03	0	42	0	93323264	21	4853
2026-01-17 12:13:28.69	226.82	10.23	-30.4	-32.2	12.2	4.94e-04	0	42	0	95420416	21	4427
2026-01-17 12:13:29.70	226.95	10.29	-30.3	-31.9	12.4	1.95e-04	0	42	0	97517568	21	4347
2026-01-17 12:13:30.70	227.08	10.35	-30.2	-31.7	12.5	1.18e-04	0	42	0	98566144	21	4277
2026-01-17 12:13:31.70	227.21	10.41	-30.3	-31.9	12.4	1.09e-04	0	42	0	100663296	21	4357
2026-01-17 12:13:32.70	227.34	10.47	-30.4	-32.1	12.2	1.07e-04	0	42	0	102760448	21	4422
2026-01-17 12:13:33.71	227.48	10.53	-30.3	-31.9	12.4	1.33e-04	0	42	0	104857600	21	4349
2026-01-17 12:13:34.71	227.61	10.59	-30.4	-32.1	12.2	1.56e-04	0	42	0	106954752	21	4421
2026-01-17 12:13:35.72	227.75	10.66	-30.3	-31.8	12.5	1.06e-04	0	42	0	108003328	21	4320
2026-01-17 12:13:36.71	227.88	10.72	-30.5	-32.5	11.9	2.49e-04	0	42	0	110100480	21	4553
2026-01-17 12:13:37.72	228.02	10.78	-30.6	-32.8	11.8	5.33e-04	0	42	0	112197632	21	4649
2026-01-17 12:13:38.72	228.15	10.84	-30.4	-32.1	12.2	2.44e-04	0	42	0	114294784	21	4420
2026-01-17 12:13:39.73	228.29	10.90	-30.4	-32.1	12.3	1.51e-04	0	42	0	116391936	21	4411
2026-01-17 12:13:40.72	228.43	10.96	-30.4	-32.3	12.2	1.49e-04	0	43	0	117440512	21	4459
2026-01-17 12:13:41.72	228.57	11.03	-30.3	-31.8	12.5	2.96e-04	0	42	0	119537664	21	4299
2026-01-17 12:13:42.72	228.70	11.09	-30.1	-31.4	12.8	8.62e-05	0	42	0	121634816	21	4188
2026-01-17 12:13:43.72	228.84	11.15	-30.2	-31.7	12.6	7.01e-05	0	42	0	123731968	21	4279
2026-01-17 12:13:44.73	228.98	11.21	-30.1	-31.4	12.7	7.55e-05	0	42	0	125829120	21	4188
2026-01-17 12:13:45.73	229.12	11.27	-30.1	-31.3	12.9	5.34e-05	0	42	0	126877696	21	4157
2026-01-17 12:13:46.73	229.26	11.33	-30.0	-31.1	13.0	3.50e-05	0	42	0	128974848	21	4073
2026-01-17 12:13:47.74	229.41	11.39	-29.9	-30.7	13.3	1.44e-05	0	42	0	131072000	21	3963
2026-01-17 12:13:48.74	229.55	11.46	-29.9	-30.8	13.3	1.60e-05	0	42	0	133169152	21	3976
2026-01-17 12:13:49.75	229.69	11.52	-29.9	-30.8	13.2	1.75e-05	0	42	0	135266304	21	3983
2026-01-17 12:13:50.75	229.83	11.58	-29.8	-30.9	13.5	1.44e-05	0	42	0	136314880	20	4107
2026-01-17 12:13:51.76	229.98	11.64	-29.9	-31.2	13.3	1.60e-05	0	43	0	138412032	20	4182
2026-01-17 12:13:52.77	230.12	11.70	-30.0	-31.5	13.1	4.34e-05	0	42	0	140509184	20	4274
2026-01-17 12:13:53.76	230.27	11.76	-30.0	-31.6	13.0	4.04e-05	0	43	0	142606336	20	4330
2026-01-17 12:13:54.76	230.41	11.83	-30.1	-31.9	12.8	4.04e-05	0	42	0	143654912	20	4428
2026-01-17 12:13:55.76	230.56	11.89	-30.2	-32.2	12.6	8.16e-05	0	43	0	145752064	20	4534
2026-01-17 12:13:56.76	230.70	11.95	-30.4	-32.7	12.2	1.15e-04	0	42	0	147849216	20	4702
2026-01-17 12:13:57.77	230.85	12.01	-30.4	-32.8	12.2	2.27e-04	0	42	0	149946368	20	4719
2026-01-17 12:13:58.77	231.00	12.07	-30.6	-32.7	12.0	1.85e-04	0	43	0	152043520	21	4605
2026-01-17 12:13:59.77	231.15	12.13	-30.6	-32.8	11.9	2.33e-04	0	43	0	153092096	21	4631
2026-01-17 12:14:00.78	231.30	12.20	-30.5	-32.4	12.2	2.30e-04	0	43	0	155189248	21	4477
2026-01-17 12:14:01.78	231.45	12.26	-30.7	-33.0	11.8	3.41e-04	0	42	0	157286400	21	4688
2026-01-17 12:14:02.78	231.60	12.32	-30.6	-32.8	11.9	5.97e-04	0	43	0	159383552	21	4642
2026-01-17 12:14:03.78	231.75	12.38	-30.8	-33.2	11.6	4.23e-04	0	43	0	161480704	21	4773
2026-01-17 12:14:04.78	231.90	12.44	-30.6	-32.6	12.0	3.65e-04	0	43	0	162529280	21	4570
2026-01-17 12:14:05.77	232.05	12.50	-30.5	-32.5	12.2	2.11e-04	0	43	0	164626432	21	4506
2026-01-17 12:14:06.76	232.20	12.56	-30.5	-32.4	12.3	2.32e-04	0	43	0	166723584	21	4482
2026-01-17 12:14:07.76	232.35	12.62	-30.7	-33.1	11.7	4.34e-04	0	43	0	168820736	21	4740
2026-01-17 12:14:08.77	232.51	12.68	-30.7	-33.0	11.8	5.78e-04	0	43	0	169869312	21	4694
2026-01-17 12:14:09.77	232.66	12.75	-30.7	-33.0	11.8	3.47e-04	0	43	0	171966464	21	4687
2026-01-17 12:14:10.77	232.82	12.81	-30.6	-32.8	11.9	5.45e-04	0	43	0	174063616	21	4635
2026-01-17 12:14:11.78	232.97	12.87	-30.5	-32.4	12.3	2.75e-04	0	43	0	176160768	21	4477
2026-01-17 12:14:12.78	233.13	12.93	-30.4	-32.2	12.3	1.59e-04	0	43	0	178257920	21	4428
2026-01-17 12:14:13.79	233.29	12.99	-30.4	-32.1	12.4	1.69e-04	0	43	0	180355072	21	4396
2026-01-17 12:14:14.79	233.45	13.05	-30.3	-31.8	12.7	8.46e-05	0	43	0	181403648	21	4266
2026-01-17 12:14:15.79	233.60	13.11	-30.3	-31.9	12.6	7.70e-05	0	43	0	183500800	21	4296
2026-01-17 12:14:16.79	233.76	13.17	-30.4	-32.1	12.4	1.07e-04	0	43	0	185597952	21	4371
2026-01-17 12:14:17.79	233.92	13.23	-30.3	-31.8	12.6	1.18e-04	0	42	0	187695104	21	4289
2026-01-17 12:14:18.79	234.08	13.29	-30.1	-31.2	13.0	4.04e-05	0	43	0	188743680	21	4108
2026-01-17 12:14:19.79	234.24	13.35	-30.1	-31.3	13.0	2.59e-05	0	43	0	190840832	21	4128
2026-01-17 12:14:20.79	234.40	13.42	-30.1	-31.2	13.1	2.28e-05	0	43	0	192937984	21	4086
2026-01-17 12:14:21.80	234.57	13.48	-30.4	-32.0	12.6	5.87e-05	0	43	0	195035136	21	4344
2026-01-17 12:14:22.80	234.73	13.54	-30.2	-31.5	12.9	6.56e-05	0	43	0	197132288	21	4174
2026-01-17 12:14:23.80	234.89	13.60	-30.3	-31.8	12.8	5.49e-05	0	43	0	198180864	21	4262
2026-01-17 12:14:24.81	235.06	13.66	-30.3	-31.7	12.8	1.05e-04	0	43	0	200278016	21	4234
2026-01-17 12:14:25.81	235.22	13.72	-30.4	-32.2	12.5	9.00e-05	0	43	0	202375168	21	4395
2026-01-17 12:14:26.81	235.38	13.78	-30.3	-31.6	12.8	8.46e-05	0	43	0	204472320	21	4224
2026-01-17 12:14:27.82	235.55	13.84	-30.1	-31.3	13.1	3.73e-05	0	43	0	206569472	21	4110
2026-01-17 12:14:28.83	235.72	13.90	-30.1	-31.3	13.0	4.27e-05	0	43	0	207618048	21	4106
2026-01-17 12:14:29.83	235.89	13.96	-30.0	-31.0	13.2	1.52e-05	0	43	0	209715200	21	4036
2026-01-17 12:14:30.82	236.05	14.02	-30.2	-31.4	13.1	1.90e-05	0	43	0	211812352	21	4154
2026-01-17 12:14:31.82	236.22	14.08	-30.1	-31.3	13.1	2.97e-05	0	43	0	213909504	21	4105
2026-01-17 12:14:32.82	236.39	14.14	-30.1	-31.3	13.1	3.12e-05	0	43	0	214958080	21	4106
2026-01-17 12:14:33.83	236.56	14.20	-30.5	-32.2	12.5	7.47e-05	0	43	0	217055232	21	4415
2026-01-17 12:14:34.83	236.73	14.26	-30.4	-32.1	12.5	1.03e-04	0	43	0	219152384	21	4383
2026-01-17 12:14:35.82	236.90	14.32	-30.5	-32.2	12.5	1.03e-04	0	43	0	221249536	21	4413
2026-01-17 12:14:36.83	237.07	14.38	-30.6	-32.7	12.1	1.04e-04	0	43	0	223346688	21	4579
2026-01-17 12:14:37.83	237.25	14.44	-30.7	-32.9	12.1	2.55e-04	0	43	0	225443840	21	4631
2026-01-17 12:14:38.83	237.42	14.50	-30.7	-32.9	12.0	2.25e-04	0	43	0	226492416	21	4651
2026-01-17 12:14:39.84	237.59	14.56	-30.9	-33.6	11.5	4.53e-04	0	43	0	228589568	21	4905
2026-01-17 12:14:40.85	237.77	14.62	-30.8	-33.2	11.9	6.69e-04	0	43	0	230686720	21	4727
2026-01-17 12:14:41.86	237.95	14.68	-30.6	-32.6	12.3	2.49e-04	0	43	0	232783872	21	4525
2026-01-17 12:14:42.86	238.12	14.73	-30.3	-31.8	12.8	8.62e-05	0	43	0	233832448	21	4264
2026-01-17 12:14:43.86	238.30	14.79	-30.3	-31.6	12.9	3.89e-05	0	43	0	235929600	21	4213
2026-01-17 12:14:44.87	238.48	14.85	-30.4	-31.8	12.8	5.34e-05	0	43	0	238026752	21	4271
2026-01-17 12:14:45.87	238.65	14.91	-30.2	-31.4	13.1	8.54e-05	0	43	0	240123904	21	4147
2026-01-17 12:14:46.88	238.83	14.97	-30.4	-31.9	12.8	3.20e-05	0	43	0	242221056	21	4307
2026-01-17 12:14:47.88	239.01	15.03	-30.3	-31.6	13.0	5.79e-05	0	43	0	243269632	21	4191
2026-01-17 12:14:48.88	239.19	15.09	-30.2	-31.5	13.0	3.96e-05	0	43	0	245366784	21	4174
2026-01-17 12:14:49.89	239.38	15.14	-30.2	-31.4	13.1	5.11e-05	0	43	0	247463936	21	4150
2026-01-17 12:14:50.89	239.56	15.20	-30.3	-31.7	12.9	3.58e-05	0	43	0	249561088	21	4237
2026-01-17 12:14:51.89	239.74	15.26	-30.2	-31.4	13.1	3.43e-05	0	43	0	251658240	21	4141
2026-01-17 12:14:52.90	239.92	15.32	-30.0	-30.9	13.5	3.66e-05	0	43	0	252706816	21	3980
2026-01-17 12:14:53.89	240.10	15.37	-29.9	-30.6	13.6	1.52e-05	0	43	0	254803968	21	3918
2026-01-17 12:14:54.89	240.29	15.43	-29.9	-30.6	13.6	3.80e-06	0	43	0	256901120	21	3904
2026-01-17 12:14:55.90	240.47	15.49	-30.1	-31.3	13.2	9.90e-06	0	43	0	258998272	21	4092
2026-01-17 12:14:56.90	240.66	15.55	-30.0	-30.7	13.6	1.83e-05	0	43	0	261095424	21	3945
2026-01-17 12:14:57.91	240.85	15.60	-29.9	-30.6	13.6	3.80e-06	0	43	0	262144000	21	3901
2026-01-17 12:14:58.91	241.03	15.66	-30.0	-30.8	13.5	8.30e-06	0	43	0	264241152	21	3947
2026-01-17 12:14:59.91	241.22	15.72	-29.8	-30.4	13.8	5.30e-06	0	43	0	266338304	21	3840
2026-01-17 12:15:00.92	241.41	15.77	-30.1	-31.0	13.4	6.10e-06	0	43	0	268435456	21	4020
2026-01-17 12:15:01.92	241.60	15.83	-29.9	-30.5	13.7	8.30e-06	0	43	0	270532608	21	3878
2026-01-17 12:15:02.93	241.79	15.89	-29.9	-30.6	13.7	6.10e-06	0	43	0	271581184	21	3888
2026-01-17 12:15:03.93	241.98	15.94	-30.0	-30.9	13.5	7.60e-06	0	43	0	273678336	21	3992
2026-01-17 12:15:04.93	242.17	16.00	-29.8	-30.4	13.8	1.44e-05	0	43	0	275775488	21	3852
2026-01-17 12:15:05.93	242.36	16.06	-29.9	-30.6	13.7	6.80e-06	0	43	0	277872640	21	3899
2026-01-17 12:15:06.92	242.55	16.11	-29.9	-31.1	13.7	3.80e-06	0	43	0	279969792	20	4119
2026-01-17 12:15:07.93	242.75	16.17	-29.8	-30.8	13.9	1.14e-05	0	43	0	281018368	20	4049
2026-01-17 12:15:08.94	242.94	16.22	-29.9	-31.1	13.7	7.60e-06	0	43	0	283115520	20	4145
2026-01-17 12:15:09.94	243.13	16.28	-29.9	-31.1	13.7	6.10e-06	0	43	0	285212672	20	4124
2026-01-17 12:15:10.94	243.33	16.33	-29.9	-31.1	13.7	3.00e-06	0	43	0	287309824	20	4143
2026-01-17 12:15:11.94	243.53	16.39	-29.9	-31.0	13.8	8.30e-06	0	43	0	289406976	20	4103
2026-01-17 12:15:12.94	243.72	16.44	-29.7	-30.6	14.0	5.30e-06	0	43	0	290455552	20	3996
2026-01-17 12:15:13.94	243.92	16.49	-29.8	-30.8	13.9	7.00e-07	0	43	0	292552704	20	4050
2026-01-17 12:15:14.94	244.12	16.55	-29.9	-31.1	13.8	1.50e-06	0	43	0	294649856	20	4114
2026-01-17 12:15:15.95	244.32	16.60	-29.7	-30.6	14.0	1.50e-06	0	43	0	296747008	20	3991
2026-01-17 12:15:16.95	244.51	16.66	-30.0	-31.4	13.5	3.00e-06	0	43	0	297795584	20	4224
2026-01-17 12:15:17.95	244.71	16.71	-30.0	-31.3	13.6	8.30e-06	0	43	0	299892736	20	4179
2026-01-17 12:15:18.95	244.91	16.76	-30.1	-31.7	13.4	1.14e-05	0	43	0	301989888	20	4304
2026-01-17 12:15:19.96	245.12	16.82	-30.2	-31.8	13.3	2.21e-05	0	43	0	304087040	20	4340
2026-01-17 12:15:20.96	245.32	16.87	-30.3	-32.0	13.1	2.89e-05	0	43	0	306184192	20	4425
2026-01-17 12:15:21.96	245.52	16.92	-30.2	-31.8	13.3	2.59e-05	0	43	0	307232768	20	4349
2026-01-17 12:15:22.96	245.72	16.97	-30.3	-32.3	13.0	2.36e-05	0	43	0	309329920	20	4486
2026-01-17 12:15:23.96	245.93	17.02	-30.1	-31.6	13.4	1.37e-05	0	43	0	311427072	20	4275
2026-01-17 12:15:24.97	246.13	17.08	-30.0	-31.4	13.5	9.10e-06	0	43	0	313524224	20	4227
2026-01-17 12:15:25.97	246.34	17.13	-30.0	-31.2	13.7	6.10e-06	0	43	0	315621376	20	4152
2026-01-17 12:15:26.97	246.55	17.18	-30.2	-31.8	13.3	9.10e-06	0	43	0	316669952	20	4323
2026-01-17 12:15:27.98	246.75	17.23	-30.3	-32.3	13.0	2.67e-05	0	43	0	318767104	20	4483
2026-01-17 12:15:28.98	246.96	17.28	-30.4	-32.5	12.9	4.27e-05	0	43	0	320864256	20	4556
2026-01-17 12:15:29.99	247.17	17.33	-30.5	-32.1	12.8	5.95e-05	0	43	0	322961408	21	4353
2026-01-17 12:15:30.98	247.38	17.38	-30.4	-32.0	12.9	4.65e-05	0	43	0	325058560	21	4317
2026-01-17 12:15:31.99	247.59	17.43	-30.5	-32.1	12.8	5.26e-05	0	43	0	326107136	21	4348
2026-01-17 12:15:32.99	247.80	17.48	-30.3	-31.6	13.1	3.43e-05	0	43	0	328204288	21	4190
2026-01-17 12:15:33.99	248.01	17.53	-30.4	-31.9	13.0	4.11e-05	0	43	0	330301440	21	4261
2026-01-17 12:15:34.99	248.22	17.58	-30.4	-31.9	13.0	4.50e-05	0	43	0	332398592	21	4274
2026-01-17 12:15:35.99	248.43	17.63	-30.5	-32.3	12.7	4.88e-05	0	43	0	334495744	21	4396
2026-01-17 12:15:36.99	248.64	17.68	-30.5	-32.2	12.7	8.16e-05	0	43	0	335544320	21	4373
2026-01-17 12:15:37.99	248.86	17.73	-30.5	-32.1	12.8	6.56e-05	0	43	0	337641472	21	4342
2026-01-17 12:15:38.99	249.07	17.77	-30.6	-32.5	12.5	7.62e-05	0	43	0	339738624	21	4471
2026-01-17 12:15:40.00	249.29	17.82	-30.7	-32.8	12.3	1.64e-04	0	43	0	341835776	21	4582
2026-01-17 12:15:40.99	249.50	17.87	-30.8	-33.1	12.1	2.10e-04	0	43	0	342884352	21	4664
2026-01-17 12:15:41.99	249.72	17.92	-30.9	-33.3	12.0	2.25e-04	0	43	0	344981504	21	4746
2026-01-17 12:15:42.98	249.93	17.96	-30.9	-33.2	12.1	2.64e-04	0	43	0	347078656	21	4719
2026-01-17 12:15:43.98	250.15	18.01	-30.8	-33.2	12.1	3.21e-04	0	43	0	349175808	21	4706
2026-01-17 12:15:44.98	250.36	18.06	-31.1	-33.3	11.7	5.35e-04	0	43	0	351272960	22	4646
2026-01-17 12:15:45.98	250.58	18.10	-31.3	-33.9	11.3	8.54e-04	0	43	0	352321536	22	4873
2026-01-17 12:15:46.97	250.80	18.15	-31.2	-33.6	11.5	8.92e-04	0	43	0	354418688	22	4747
2026-01-17 12:15:47.98	251.02	18.19	-31.3	-34.0	11.3	8.04e-04	0	43	0	356515840	22	4907
2026-01-17 12:15:48.98	251.24	18.24	-31.3	-34.0	11.2	1.11e-03	0	43	0	358612992	22	4903
2026-01-17 12:15:49.98	251.46	18.28	-31.2	-33.7	11.4	1.09e-03	0	43	0	360710144	22	4810
2026-01-17 12:15:50.98	251.68	18.33	-31.3	-34.0	11.2	1.46e-03	0	43	0	361758720	22	4902
2026-01-17 12:15:51.98	251.91	18.37	-31.4	-34.2	11.1	1.49e-03	0	43	0	363855872	22	5002
2026-01-17 12:15:52.98	252.13	18.41	-31.2	-33.8	11.3	1.38e-03	0	43	0	365953024	22	4856
2026-01-17 12:15:53.99	252.35	18.46	-31.1	-33.5	11.6	7.06e-04	0	43	0	368050176	22	4711
2026-01-17 12:15:54.99	252.58	18.50	-30.8	-32.5	12.2	3.10e-04	0	43	0	369098752	22	4387
2026-01-17 12:15:55.99	252.80	18.54	-30.9	-32.7	12.1	2.17e-04	0	43	0	371195904	22	4451
2026-01-17 12:15:57.00	253.03	18.58	-30.9	-32.6	12.2	1.82e-04	0	43	0	373293056	22	4423
2026-01-17 12:15:58.00	253.26	18.63	-30.8	-32.5	12.2	1.87e-04	0	43	0	375390208	22	4393
2026-01-17 12:15:59.00	253.48	18.67	-30.9	-32.9	12.0	2.25e-04	0	43	0	377487360	22	4507
2026-01-17 12:16:00.00	253.71	18.71	-30.9	-32.9	12.0	3.66e-04	0	43	0	378535936	22	4497
2026-01-17 12:16:01.00	253.94	18.75	-31.1	-33.4	11.7	3.20e-04	0	43	0	380633088	22	4684
2026-01-17 12:16:02.01	254.17	18.79	-30.8	-32.6	12.2	3.43e-04	0	43	0	382730240	22	4405
2026-01-17 12:16:03.01	254.40	18.83	-30.5	-31.7	12.8	9.99e-05	0	43	0	384827392	22	4125
2026-01-17 12:16:04.02	254.63	18.87	-30.4	-31.4	13.0	3.50e-05	0	43	0	386924544	22	4034
2026-01-17 12:16:05.02	254.86	18.91	-30.4	-31.4	13.0	2.59e-05	0	43	0	387973120	22	4033
2026-01-17 12:16:06.02	255.09	18.95	-30.6	-31.8	12.8	4.73e-05	0	43	0	390070272	22	4154
2026-01-17 12:16:07.02	255.32	18.99	-30.5	-31.7	12.9	5.41e-05	0	43	0	392167424	22	4103
2026-01-17 12:16:08.02	255.55	19.02	-30.7	-32.3	12.5	1.06e-04	0	43	0	394264576	22	4300
2026-01-17 12:16:09.02	255.78	19.06	-30.7	-32.1	12.5	1.46e-04	0	43	0	396361728	22	4251
2026-01-17 12:16:10.02	256.02	19.10	-30.6	-32.0	12.7	7.62e-05	0	43	0	397410304	22	4215
2026-01-17 12:16:11.02	256.25	19.14	-30.7	-32.2	12.6	5.26e-05	0	43	0	399507456	22	4261
2026-01-17 12:16:12.02	256.48	19.17	-30.8	-32.3	12.5	1.14e-04	0	43	0	401604608	22	4319
2026-01-17 12:16:13.02	256.72	19.21	-30.4	-31.2	13.1	6.40e-05	0	43	0	403701760	22	3985
2026-01-17 12:16:14.02	256.95	19.24	-30.4	-31.2	13.2	1.83e-05	0	43	0	405798912	22	3974
2026-01-17 12:16:15.03	257.19	19.28	-30.6	-31.8	12.9	3.81e-05	0	43	0	406847488	22	4138
2026-01-17 12:16:16.03	257.43	19.31	-30.7	-32.3	12.5	7.17e-05	0	43	0	408944640	22	4304
2026-01-17 12:16:17.04	257.66	19.35	-30.7	-32.2	12.5	1.50e-04	0	43	0	411041792	22	4257
2026-01-17 12:16:18.04	257.90	19.38	-30.6	-31.9	12.7	1.11e-04	0	43	0	413138944	22	4175
2026-01-17 12:16:19.05	258.14	19.42	-30.4	-31.4	13.1	3.58e-05	0	43	0	414187520	22	4020
2026-01-17 12:16:20.05	258.38	19.45	-30.3	-31.2	13.2	1.60e-05	0	43	0	416284672	22	3962
2026-01-17 12:16:21.05	258.62	19.48	-30.3	-31.2	13.2	1.52e-05	0	43	0	418381824	22	3964
2026-01-17 12:16:22.05	258.86	19.51	-30.2	-31.3	13.5	2.05e-05	0	43	0	420478976	21	4074
2026-01-17 12:16:23.06	259.10	19.55	-30.5	-32.1	12.9	2.28e-05	0	43	0	422576128	21	4324
2026-01-17 12:16:24.06	259.34	19.58	-30.3	-31.4	13.4	3.43e-05	0	43	0	423624704	21	4129
2026-01-17 12:16:25.05	259.58	19.61	-30.0	-30.9	13.7	1.14e-05	0	43	0	425721856	21	3958
2026-01-17 12:16:26.05	259.82	19.64	-29.7	-30.5	14.3	2.20e-06	0	43	0	427819008	20	3928
2026-01-17 12:16:27.06	260.06	19.67	-29.5	-29.9	14.6	0.00e+00	0	43	0	429916160	20	3793
2026-01-17 12:16:28.06	260.30	19.70	-29.4	-29.7	14.8	0.00e+00	0	43	0	432013312	20	3723
2026-01-17 12:16:29.07	260.55	19.73	-29.6	-30.1	14.5	0.00e+00	0	43	0	433061888	20	3830
2026-01-17 12:16:30.07	260.79	19.75	-29.7	-30.6	14.2	7.00e-07	0	43	0	435159040	20	3957
2026-01-17 12:16:31.07	261.03	19.78	-29.9	-31.1	13.9	3.00e-06	0	43	0	437256192	20	4117
2026-01-17 12:16:32.08	261.28	19.81	-29.9	-31.1	14.0	1.50e-06	0	43	0	439353344	20	4099
2026-01-17 12:16:33.08	261.52	19.84	-30.0	-31.2	13.8	6.10e-06	0	43	0	441450496	20	4150
2026-01-17 12:16:34.09	261.77	19.86	-29.8	-30.6	14.2	2.20e-06	0	43	0	442499072	20	3974
2026-01-17 12:16:35.09	262.01	19.89	-29.6	-30.3	14.4	7.00e-07	0	43	0	444596224	20	3879
2026-01-17 12:16:36.08	262.26	19.91	-29.6	-30.2	14.5	0.00e+00	0	43	0	446693376	20	3865
2026-01-17 12:16:37.08	262.50	19.94	-29.8	-30.7	14.1	7.00e-07	0	43	0	448790528	20	4009
2026-01-17 12:16:38.08	262.75	19.96	-29.8	-30.7	14.2	1.50e-06	0	43	0	450887680	20	3998
2026-01-17 12:16:39.08	263.00	19.99	-29.9	-31.0	14.0	3.80e-06	0	43	0	451936256	20	4089
2026-01-17 12:16:40.09	263.24	20.01	-29.8	-30.7	14.2	3.80e-06	0	43	0	454033408	20	3982
2026-01-17 12:16:41.09	263.49	20.03	-29.8	-30.6	14.2	3.00e-06	0	43	0	456130560	20	3976
2026-01-17 12:16:42.09	263.74	20.06	-29.7	-30.4	14.4	6.10e-06	0	43	0	458227712	20	3906
2026-01-17 12:16:43.09	263.99	20.08	-29.7	-30.5	14.3	0.00e+00	0	43	0	459276288	20	3942
2026-01-17 12:16:44.09	264.23	20.10	-29.8	-30.7	14.2	0.00e+00	0	43	0	461373440	20	3991
2026-01-17 12:16:45.09	264.48	20.12	-30.0	-31.2	13.9	4.50e-06	0	43	0	463470592	20	4131
2026-01-17 12:16:46.09	264.73	20.14	-30.0	-31.2	13.9	3.00e-06	0	43	0	465567744	20	4135
2026-01-17 12:16:47.09	264.98	20.16	-29.9	-31.0	14.1	5.30e-06	0	43	0	467664896	20	4086
2026-01-17 12:16:48.10	265.23	20.18	-30.0	-31.1	13.9	7.60e-06	0	43	0	468713472	20	4123
2026-01-17 12:16:49.09	265.48	20.20	-29.6	-30.1	14.5	0.00e+00	0	43	0	470810624	20	3838
2026-01-17 12:16:50.10	265.73	20.22	-29.4	-29.8	14.7	0.00e+00	0	43	0	472907776	20	3753
2026-01-17 12:16:51.11	265.98	20.24	-29.8	-30.6	14.3	7.00e-07	0	43	0	475004928	20	3968
2026-01-17 12:16:52.10	266.23	20.25	-29.9	-31.1	14.0	2.20e-06	0	43	0	477102080	20	4102
2026-01-17 12:16:53.10	266.48	20.27	-30.1	-31.4	13.8	4.50e-06	0	43	0	478150656	20	4193
2026-01-17 12:16:54.10	266.73	20.29	-30.3	-32.0	13.4	1.14e-05	0	43	0	480247808	20	4374
2026-01-17 12:16:55.11	266.99	20.30	-30.2	-31.7	13.5	1.06e-05	0	43	0	482344960	20	4286
2026-01-17 12:16:56.11	267.24	20.32	-30.0	-31.3	13.8	6.80e-06	0	43	0	484442112	20	4160
2026-01-17 12:16:57.12	267.49	20.33	-30.1	-31.4	13.7	1.37e-05	0	43	0	486539264	20	4205
2026-01-17 12:16:58.13	267.75	20.35	-30.2	-31.6	13.6	5.30e-06	0	43	0	487587840	20	4273
2026-01-17 12:16:59.12	268.00	20.36	-30.2	-31.9	13.5	9.90e-06	0	43	0	489684992	20	4337
2026-01-17 12:17:00.12	268.25	20.37	-30.3	-32.1	13.4	1.83e-05	0	43	0	491782144	20	4407
2026-01-17 12:17:01.13	268.50	20.38	-30.4	-32.1	13.3	1.98e-05	0	43	0	493879296	20	4421
2026-01-17 12:17:02.12	268.75	20.40	-30.4	-32.2	13.3	1.06e-05	0	43	0	494927872	20	4437
2026-01-17 12:17:03.12	269.01	20.41	-30.3	-32.0	13.3	1.60e-05	0	43	0	497025024	20	4384
2026-01-17 12:17:04.13	269.26	20.42	-30.4	-32.3	13.2	1.44e-05	0	43	0	499122176	20	4482
2026-01-17 12:17:05.13	269.52	20.43	-30.4	-31.9	13.1	4.19e-05	0	43	0	501219328	21	4244
2026-01-17 12:17:06.13	269.77	20.44	-30.3	-31.4	13.4	1.67e-05	0	43	0	503316480	21	4107
2026-01-17 12:17:07.13	270.02	20.45	-30.4	-31.7	13.3	1.90e-05	0	43	0	504365056	21	4192
2026-01-17 12:17:08.13	270.28	20.46	-30.3	-31.6	13.3	2.05e-05	0	43	0	506462208	21	4168
2026-01-17 12:17:09.13	270.53	20.46	-30.3	-31.5	13.4	9.10e-06	0	43	0	508559360	21	4126
2026-01-17 12:17:10.14	270.79	20.47	-30.3	-31.5	13.4	1.14e-05	0	43	0	510656512	21	4130
2026-01-17 12:17:11.14	271.04	20.48	-30.1	-31.1	13.7	1.06e-05	0	43	0	512753664	21	4013
2026-01-17 12:17:12.14	271.30	20.48	-30.1	-31.0	13.7	4.50e-06	0	43	0	513802240	21	3977
2026-01-17 12:17:13.14	271.55	20.49	-30.3	-31.5	13.3	1.06e-05	0	43	0	515899392	21	4141
2026-01-17 12:17:14.14	271.80	20.49	-30.5	-31.9	13.1	1.90e-05	0	43	0	517996544	21	4265
2026-01-17 12:17:15.13	272.06	20.50	-30.8	-33.0	12.4	6.86e-05	0	43	0	520093696	21	4607
2026-01-17 12:17:16.13	272.31	20.50	-30.8	-32.8	12.5	1.12e-04	0	43	0	522190848	21	4552
2026-01-17 12:17:17.14	272.57	20.51	-30.6	-32.5	12.8	6.94e-05	0	43	0	523239424	21	4432
2026-01-17 12:17:18.13	272.82	20.51	-30.5	-32.1	13.0	3.96e-05	0	43	0	525336576	21	4320
2026-01-17 12:17:19.12	273.07	20.51	-30.4	-31.9	13.1	3.20e-05	0	43	0	527433728	21	4248
2026-01-17 12:17:20.13	273.33	20.51	-30.4	-31.7	13.3	1.75e-05	0	43	0	529530880	21	4201
2026-01-17 12:17:21.13	273.58	20.52	-30.6	-32.5	12.7	3.28e-05	0	43	0	531628032	21	4441
2026-01-17 12:17:22.14	273.84	20.52	-30.6	-32.3	12.9	3.43e-05	0	43	0	532676608	21	4382
2026-01-17 12:17:23.14	274.09	20.52	-30.6	-32.2	13.0	4.88e-05	0	43	0	534773760	21	4349
2026-01-17 12:17:24.14	274.35	20.52	-30.6	-32.4	12.8	6.02e-05	0	43	0	536870912	21	4403
2026-01-17 12:17:25.15	274.61	20.51	-30.4	-31.9	13.2	3.43e-05	0	43	0	538968064	21	4242
2026-01-17 12:17:26.15	274.86	20.51	-30.3	-31.5	13.4	6.10e-06	0	43	0	540016640	21	4122
2026-01-17 12:17:27.15	275.12	20.51	-30.4	-31.7	13.2	1.75e-05	0	43	0	542113792	21	4200
2026-01-17 12:17:28.16	275.37	20.51	-30.6	-32.2	12.9	1.83e-05	0	43	0	544210944	21	4359
2026-01-17 12:17:29.17	275.63	20.51	-30.5	-32.1	13.0	3.81e-05	0	43	0	546308096	21	4330
2026-01-17 12:17:30.17	275.88	20.50	-30.6	-32.3	12.9	7.01e-05	0	43	0	548405248	21	4373
2026-01-17 12:17:31.17	276.14	20.50	-30.6	-32.2	12.9	4.04e-05	0	43	0	550502400	21	4347
2026-01-17 12:17:32.17	276.39	20.49	-30.3	-31.6	13.3	2.13e-05	0	43	0	551550976	21	4167
2026-01-17 12:17:33.17	276.65	20.49	-30.4	-31.6	13.3	1.22e-05	0	43	0	553648128	21	4177
2026-01-17 12:17:34.18	276.90	20.48	-30.4	-31.7	13.3	1.22e-05	0	43	0	555745280	21	4196
2026-01-17 12:17:35.17	277.15	20.47	-30.4	-31.8	13.2	2.21e-05	0	43	0	557842432	21	4240
2026-01-17 12:17:36.18	277.41	20.47	-30.6	-32.3	12.9	6.71e-05	0	43	0	558891008	21	4377
2026-01-17 12:17:37.17	277.66	20.46	-30.8	-32.8	12.5	6.40e-05	0	43	0	560988160	21	4552
2026-01-17 12:17:38.17	277.92	20.45	-30.7	-32.7	12.6	8.54e-05	0	43	0	563085312	21	4524
2026-01-17 12:17:39.17	278.17	20.44	-30.6	-32.3	12.9	6.71e-05	0	43	0	565182464	21	4385
2026-01-17 12:17:40.18	278.42	20.43	-30.6	-32.4	12.8	5.64e-05	0	43	0	567279616	21	4413
2026-01-17 12:17:41.19	278.68	20.42	-30.6	-32.2	12.9	4.42e-05	0	43	0	568328192	21	4363
2026-01-17 12:17:42.19	278.93	20.41	-30.6	-32.3	12.9	3.28e-05	0	43	0	570425344	21	4394
2026-01-17 12:17:43.19	279.19	20.40	-30.7	-32.6	12.6	7.55e-05	0	43	0	572522496	21	4497
2026-01-17 12:17:44.20	279.44	20.39	-30.8	-32.8	12.5	1.10e-04	0	43	0	574619648	21	4560
2026-01-17 12:17:45.20	279.69	20.38	-30.7	-32.6	12.6	9.76e-05	0	43	0	576716800	21	4495
2026-01-17 12:17:46.20	279.95	20.36	-30.6	-32.3	12.8	7.09e-05	0	43	0	577765376	21	4392
2026-01-17 12:17:47.21	280.20	20.35	-30.7	-32.5	12.7	7.17e-05	0	43	0	579862528	21	4443
2026-01-17 12:17:48.21	280.45	20.34	-30.5	-32.1	13.0	4.50e-05	0	43	0	581959680	21	4327
2026-01-17 12:17:49.22	280.71	20.32	-30.5	-32.2	13.0	3.20e-05	0	43	0	584056832	21	4336
2026-01-17 12:17:50.22	280.96	20.31	-30.6	-32.3	12.8	6.40e-05	0	43	0	585105408	21	4396
2026-01-17 12:17:51.23	281.21	20.29	-30.5	-31.9	13.1	2.74e-05	0	43	0	587202560	21	4264
2026-01-17 12:17:52.23	281.46	20.28	-30.4	-31.6	13.3	1.75e-05	0	43	0	589299712	21	4176
2026-01-17 12:17:53.23	281.71	20.26	-30.4	-31.7	13.3	1.52e-05	0	43	0	591396864	21	4185
2026-01-17 12:17:54.23	281.96	20.24	-30.6	-32.4	12.8	3.58e-05	0	43	0	593494016	21	4411
2026-01-17 12:17:55.22	282.21	20.23	-30.6	-32.3	12.9	5.95e-05	0	43	0	595591168	21	4379
2026-01-17 12:17:56.23	282.46	20.21	-30.6	-32.4	12.8	5.03e-05	0	43	0	596639744	21	4419
2026-01-17 12:17:57.23	282.71	20.19	-30.7	-32.6	12.7	6.10e-05	0	43	0	598736896	21	4467
2026-01-17 12:17:58.24	282.96	20.17	-30.7	-32.7	12.6	6.56e-05	0	43	0	600834048	21	4504
2026-01-17 12:17:59.24	283.21	20.15	-30.5	-32.2	13.0	6.02e-05	0	43	0	602931200	21	4340
2026-01-17 12:18:00.25	283.46	20.13	-30.5	-32.0	13.0	3.81e-05	0	43	0	603979776	21	4289
2026-01-17 12:18:01.25	283.71	20.11	-30.4	-31.8	13.2	2.28e-05	0	43	0	606076928	21	4220
2026-01-17 12:18:02.26	283.96	20.09	-30.3	-31.6	13.3	1.90e-05	0	43	0	608174080	21	4174
2026-01-17 12:18:03.26	284.21	20.07	-30.3	-31.6	13.3	1.60e-05	0	43	0	610271232	21	4159
2026-01-17 12:18:04.26	284.45	20.04	-30.4	-31.8	13.2	1.60e-05	0	43	0	612368384	21	4233
2026-01-17 12:18:05.26	284.70	20.02	-30.5	-32.2	13.0	4.11e-05	0	43	0	613416960	21	4342
2026-01-17 12:18:06.27	284.95	20.00	-30.5	-32.2	13.0	4.04e-05	0	43	0	615514112	21	4338
2026-01-17 12:18:07.27	285.20	19.98	-30.6	-32.4	12.8	5.72e-05	0	43	0	617611264	21	4399
2026-01-17 12:18:08.28	285.44	19.95	-30.6	-32.3	12.9	6.33e-05	0	43	0	619708416	21	4378
2026-01-17 12:18:09.27	285.69	19.93	-30.5	-32.0	13.0	4.11e-05	0	43	0	621805568	21	4304
2026-01-17 12:18:10.28	285.93	19.90	-30.4	-31.6	13.3	1.98e-05	0	43	0	622854144	21	4176
2026-01-17 12:18:11.27	286.18	19.88	-30.3	-31.5	13.4	1.52e-05	0	43	0	624951296	21	4120
2026-01-17 12:18:12.28	286.42	19.85	-30.4	-31.7	13.3	1.83e-05	0	43	0	627048448	21	4188
2026-01-17 12:18:13.28	286.67	19.82	-30.4	-31.8	13.2	1.06e-05	0	43	0	629145600	21	4217
2026-01-17 12:18:14.28	286.91	19.80	-30.4	-31.7	13.2	2.28e-05	0	43	0	631242752	21	4205
2026-01-17 12:18:15.27	287.15	19.77	-30.4	-31.7	13.2	2.82e-05	0	43	0	632291328	21	4205
2026-01-17 12:18:16.27	287.39	19.74	-30.3	-31.6	13.3	2.51e-05	0	43	0	634388480	21	4155
2026-01-17 12:18:17.27	287.63	19.71	-30.3	-31.6	13.3	1.67e-05	0	43	0	636485632	21	4158
2026-01-17 12:18:18.27	287.87	19.68	-30.3	-31.6	13.3	1.44e-05	0	43	0	638582784	21	4178
2026-01-17 12:18:19.28	288.12	19.65	-30.5	-31.9	13.1	3.12e-05	0	43	0	640679936	21	4269
2026-01-17 12:18:20.28	288.36	19.62	-30.5	-32.0	13.0	1.60e-05	0	43	0	641728512	21	4286
2026-01-17 12:18:21.28	288.60	19.59	-30.6	-32.2	12.9	3.50e-05	0	43	0	643825664	21	4355
2026-01-17 12:18:22.27	288.83	19.56	-30.7	-32.6	12.7	7.70e-05	0	43	0	645922816	21	4489
2026-01-17 12:18:23.27	289.07	19.53	-30.8	-33.0	12.4	6.71e-05	0	43	0	648019968	21	4622
2026-01-17 12:18:24.28	289.31	19.50	-30.9	-33.1	12.3	1.72e-04	0	43	0	649068544	21	4658
2026-01-17 12:18:25.27	289.55	19.47	-30.8	-32.9	12.4	1.47e-04	0	43	0	651165696	21	4587
2026-01-17 12:18:26.27	289.79	19.44	-30.6	-32.3	12.8	9.61e-05	0	43	0	653262848	21	4403
2026-01-17 12:18:27.27	290.02	19.40	-30.5	-32.1	12.9	3.50e-05	0	43	0	655360000	21	4337
2026-01-17 12:18:28.27	290.26	19.37	-30.3	-31.6	13.3	2.05e-05	0	43	0	657457152	21	4155
2026-01-17 12:18:29.27	290.50	19.33	-30.4	-31.7	13.3	1.60e-05	0	43	0	658505728	21	4207
2026-01-17 12:18:30.27	290.73	19.30	-30.2	-31.3	13.5	6.80e-06	0	43	0	660602880	21	4068
2026-01-17 12:18:31.27	290.97	19.27	-30.4	-31.7	13.2	1.52e-05	0	43	0	662700032	21	4197
2026-01-17 12:18:32.28	291.20	19.23	-30.4	-31.9	13.1	2.13e-05	0	43	0	664797184	21	4272
2026-01-17 12:18:33.28	291.44	19.19	-30.5	-32.1	13.0	4.42e-05	0	43	0	666894336	21	4319
2026-01-17 12:18:34.28	291.67	19.16	-30.5	-32.0	13.0	3.43e-05	0	43	0	667942912	21	4279
2026-01-17 12:18:35.29	291.91	19.12	-30.3	-31.5	13.4	1.75e-05	0	43	0	670040064	21	4133
2026-01-17 12:18:36.29	292.14	19.09	-30.3	-31.5	13.4	1.60e-05	0	43	0	672137216	21	4131
2026-01-17 12:18:37.29	292.37	19.05	-30.3	-31.5	13.3	2.05e-05	0	43	0	674234368	21	4145
2026-01-17 12:18:38.29	292.60	19.01	-30.2	-31.2	13.5	4.50e-06	0	43	0	675282944	21	4065
2026-01-17 12:18:39.30	292.83	18.97	-30.2	-31.2	13.5	3.80e-06	0	43	0	677380096	21	4056
2026-01-17 12:18:40.30	293.06	18.93	-30.2	-31.4	13.4	3.80e-06	0	43	0	679477248	21	4100
2026-01-17 12:18:41.30	293.29	18.90	-30.4	-31.8	13.2	2.05e-05	0	43	0	681574400	21	4210
2026-01-17 12:18:42.30	293.52	18.86	-30.2	-31.2	13.6	1.29e-05	0	43	0	683671552	21	4060
2026-01-17 12:18:43.30	293.75	18.82	-30.2	-31.3	13.5	7.60e-06	0	43	0	684720128	21	4074
2026-01-17 12:18:44.30	293.98	18.78	-30.2	-31.2	13.6	1.22e-05	0	43	0	686817280	21	4045
2026-01-17 12:18:45.30	294.21	18.74	-30.2	-31.3	13.5	6.80e-06	0	43	0	688914432	21	4074
2026-01-17 12:18:46.30	294.43	18.70	-30.0	-30.7	13.9	4.50e-06	0	43	0	691011584	21	3898
2026-01-17 12:18:47.30	294.66	18.65	-29.8	-30.7	14.2	5.30e-06	0	43	0	693108736	20	3986
2026-01-17 12:18:48.31	294.89	18.61	-29.9	-31.0	14.0	7.00e-07	0	43	0	694157312	20	4084
2026-01-17 12:18:49.30	295.11	18.57	-29.8	-30.7	14.1	1.50e-06	0	43	0	696254464	20	4012
2026-01-17 12:18:50.31	295.33	18.53	-29.9	-30.9	14.0	1.50e-06	0	43	0	698351616	20	4066
2026-01-17 12:18:51.31	295.56	18.49	-29.9	-30.9	14.0	7.00e-07	0	43	0	700448768	20	4058
2026-01-17 12:18:52.32	295.78	18.44	-30.1	-31.4	13.7	1.50e-06	0	43	0	702545920	20	4206
2026-01-17 12:18:53.33	296.01	18.40	-30.0	-31.4	13.7	4.50e-06	0	43	0	703594496	20	4189
2026-01-17 12:18:54.33	296.23	18.36	-29.9	-31.0	14.0	2.20e-06	0	43	0	705691648	20	4079
2026-01-17 12:18:55.33	296.45	18.31	-30.0	-31.3	13.8	6.10e-06	0	43	0	707788800	20	4160
2026-01-17 12:18:56.33	296.67	18.27	-30.1	-31.5	13.6	5.30e-06	0	43	0	709885952	20	4232
2026-01-17 12:18:57.32	296.89	18.22	-30.1	-31.6	13.5	7.60e-06	0	43	0	711983104	20	4267
2026-01-17 12:18:58.32	297.11	18.18	-30.2	-31.8	13.4	1.83e-05	0	43	0	713031680	20	4326
2026-01-17 12:18:59.32	297.33	18.14	-30.4	-32.2	13.2	1.60e-05	0	43	0	715128832	20	4459
2026-01-17 12:19:00.32	297.54	18.09	-30.3	-31.9	13.4	1.52e-05	0	43	0	717225984	20	4374
2026-01-17 12:19:01.33	297.76	18.04	-30.3	-31.9	13.3	1.52e-05	0	43	0	719323136	20	4370
2026-01-17 12:19:02.33	297.98	18.00	-30.3	-32.0	13.3	1.29e-05	0	43	0	720371712	20	4401
2026-01-17 12:19:03.33	298.19	17.95	-30.4	-32.2	13.2	1.52e-05	0	43	0	722468864	20	4449
2026-01-17 12:19:04.34	298.41	17.90	-30.5	-32.1	12.9	2.82e-05	0	43	0	724566016	21	4324
2026-01-17 12:19:05.34	298.63	17.86	-30.3	-31.6	13.2	3.28e-05	0	43	0	726663168	21	4182
2026-01-17 12:19:06.34	298.84	17.81	-30.3	-31.5	13.2	2.44e-05	0	43	0	728760320	21	4157
2026-01-17 12:19:07.34	299.05	17.76	-30.4	-31.8	13.1	3.81e-05	0	43	0	729808896	21	4218
2026-01-17 12:19:08.35	299.27	17.71	-30.3	-31.5	13.3	1.75e-05	0	43	0	731906048	21	4131
2026-01-17 12:19:09.35	299.48	17.67	-30.2	-31.4	13.3	1.67e-05	0	43	0	734003200	21	4120
2026-01-17 12:19:10.35	299.69	17.62	-30.4	-31.8	13.0	2.21e-05	0	43	0	736100352	21	4245
2026-01-17 12:19:11.36	299.90	17.57	-30.4	-31.9	13.0	3.58e-05	0	43	0	738197504	21	4272
2026-01-17 12:19:12.36	300.11	17.52	-30.7	-32.6	12.5	8.92e-05	0	43	0	739246080	21	4507
2026-01-17 12:19:13.36	300.32	17.47	-30.9	-33.2	12.1	2.94e-04	0	43	0	741343232	21	4715
2026-01-17 12:19:14.37	300.53	17.42	-31.0	-33.5	11.9	2.76e-04	0	43	0	743440384	21	4823
2026-01-17 12:19:15.37	300.74	17.37	-31.2	-33.6	11.6	6.78e-04	0	43	0	745537536	22	4763
2026-01-17 12:19:16.37	300.95	17.32	-31.2	-33.6	11.5	1.12e-03	0	43	0	747634688	22	4746
2026-01-17 12:19:17.36	301.15	17.27	-30.8	-32.5	12.3	3.89e-04	0	43	0	748683264	22	4386
2026-01-17 12:19:18.37	301.36	17.22	-30.6	-31.9	12.7	1.36e-04	0	43	0	750780416	22	4178
2026-01-17 12:19:19.37	301.57	17.17	-30.6	-31.8	12.7	6.25e-05	0	43	0	752877568	22	4161
2026-01-17 12:19:20.37	301.77	17.12	-30.6	-31.9	12.7	6.10e-05	0	43	0	754974720	22	4183
2026-01-17 12:19:21.37	301.97	17.07	-30.6	-32.0	12.6	8.08e-05	0	43	0	757071872	22	4218
2026-01-17 12:19:22.38	302.18	17.02	-30.7	-32.0	12.6	8.39e-05	0	43	0	758120448	22	4217
2026-01-17 12:19:23.38	302.38	16.96	-30.5	-31.5	12.9	7.55e-05	0	43	0	760217600	22	4049
2026-01-17 12:19:24.38	302.58	16.91	-30.5	-31.6	12.9	6.40e-05	0	43	0	762314752	22	4085
2026-01-17 12:19:25.38	302.79	16.86	-30.2	-31.4	13.3	3.89e-05	0	43	0	764411904	21	4118
2026-01-17 12:19:26.39	302.99	16.81	-30.2	-31.4	13.3	1.67e-05	0	43	0	765460480	21	4133
2026-01-17 12:19:27.39	303.19	16.75	-30.4	-31.8	13.0	2.05e-05	0	43	0	767557632	21	4248
2026-01-17 12:19:28.39	303.39	16.70	-30.6	-32.3	12.8	5.95e-05	0	43	0	769654784	21	4394
2026-01-17 12:19:29.39	303.59	16.65	-30.7	-32.6	12.4	1.28e-04	0	43	0	771751936	21	4506
2026-01-17 12:19:30.39	303.78	16.60	-30.9	-33.3	12.0	1.67e-04	0	43	0	773849088	21	4754
2026-01-17 12:19:31.40	303.98	16.54	-31.4	-34.2	11.0	5.28e-04	0	43	0	774897664	22	5010
2026-01-17 12:19:32.40	304.18	16.49	-31.2	-33.8	11.4	1.10e-03	0	43	0	776994816	22	4845
2026-01-17 12:19:33.40	304.37	16.43	-31.5	-34.3	10.6	3.44e-03	0	43	0	779091968	23	4948
2026-01-17 12:19:34.40	304.57	16.38	-31.6	-34.4	10.5	3.62e-03	0	43	0	781189120	23	4997
2026-01-17 12:19:35.39	304.76	16.33	-31.6	-34.4	10.5	4.73e-03	0	43	0	783286272	23	4996
2026-01-17 12:19:36.39	304.95	16.27	-31.6	-34.5	10.5	5.54e-03	0	43	0	784334848	23	5037
2026-01-17 12:19:37.39	305.15	16.22	-31.7	-34.9	10.1	5.57e-03	0	43	0	786432000	23	5192
2026-01-17 12:19:38.39	305.34	16.16	-31.7	-34.8	10.2	6.79e-03	0	43	0	788529152	23	5148
2026-01-17 12:19:39.39	305.53	16.11	-31.6	-34.6	10.3	4.02e-03	0	43	0	790626304	23	5089
2026-01-17 12:19:40.38	305.72	16.05	-31.8	-35.1	9.9	5.23e-03	0	43	0	792723456	23	5304
2026-01-17 12:19:41.39	305.91	16.00	-31.7	-34.9	10.1	1.03e-02	0	43	0	793772032	23	5198
2026-01-17 12:19:42.39	306.10	15.94	-31.4	-33.9	10.8	3.04e-03	0	43	0	795869184	23	4786
2026-01-17 12:19:43.40	306.29	15.89	-31.0	-32.7	11.7	1.21e-03	0	43	0	797966336	23	4357
2026-01-17 12:19:44.40	306.48	15.83	-30.8	-32.1	12.1	3.30e-04	0	43	0	800063488	23	4159
2026-01-17 12:19:45.41	306.67	15.78	-30.7	-32.1	12.5	1.38e-04	0	43	0	801112064	22	4252
2026-01-17 12:19:46.41	306.86	15.72	-30.7	-32.4	12.3	1.49e-04	0	43	0	803209216	22	4347
2026-01-17 12:19:47.42	307.04	15.66	-30.7	-32.1	12.5	1.36e-04	0	43	0	805306368	22	4259
2026-01-17 12:19:48.42	307.23	15.61	-30.7	-32.2	12.4	9.99e-05	0	43	0	807403520	22	4306
2026-01-17 12:19:49.42	307.41	15.55	-31.0	-33.1	11.8	3.33e-04	0	43	0	809500672	22	4574
2026-01-17 12:19:50.42	307.60	15.49	-31.3	-34.0	11.1	1.14e-03	0	43	0	810549248	22	4936
2026-01-17 12:19:51.42	307.78	15.44	-31.5	-34.6	10.8	2.22e-03	0	43	0	812646400	22	5144
2026-01-17 12:19:52.42	307.96	15.38	-31.5	-34.3	10.6	2.72e-03	0	43	0	814743552	23	4947
2026-01-17 12:19:53.42	308.15	15.32	-31.4	-33.7	10.9	2.34e-03	0	43	0	816840704	23	4736
2026-01-17 12:19:54.42	308.33	15.27	-31.2	-33.4	11.2	1.47e-03	0	43	0	818937856	23	4595
2026-01-17 12:19:55.41	308.51	15.21	-31.1	-32.8	11.6	1.02e-03	0	43	0	819986432	23	4389
2026-01-17 12:19:56.41	308.69	15.15	-31.1	-32.8	11.7	4.88e-04	0	43	0	822083584	23	4405
2026-01-17 12:19:57.42	308.87	15.09	-31.1	-32.8	11.6	6.38e-04	0	43	0	824180736	23	4407
2026-01-17 12:19:58.43	309.05	15.03	-31.1	-33.0	11.5	1.03e-03	0	43	0	826277888	23	4479
2026-01-17 12:19:59.43	309.22	14.98	-30.9	-32.3	12.0	4.24e-04	0	43	0	828375040	23	4221
2026-01-17 12:20:00.44	309.40	14.92	-30.9	-32.4	11.9	4.06e-04	0	43	0	829423616	23	4266
2026-01-17 12:20:01.44	309.58	14.86	-31.0	-32.7	11.7	4.22e-04	0	43	0	831520768	23	4366
2026-01-17 12:20:02.44	309.76	14.80	-31.1	-32.9	11.6	5.09e-04	0	43	0	833617920	23	4423
2026-01-17 12:20:03.44	309.93	14.74	-30.9	-32.2	12.0	6.06e-04	0	43	0	835715072	23	4217
2026-01-17 12:20:04.45	310.11	14.69	-30.7	-32.1	12.4	2.07e-04	0	43	0	837812224	22	4262
2026-01-17 12:20:05.44	310.28	14.63	-30.6	-31.9	12.6	1.11e-04	0	43	0	838860800	22	4195
2026-01-17 12:20:06.43	310.45	14.57	-30.5	-31.7	12.7	8.54e-05	0	43	0	840957952	22	4139
2026-01-17 12:20:07.43	310.62	14.51	-30.5	-31.7	12.7	8.16e-05	0	43	0	843055104	22	4133
2026-01-17 12:20:08.43	310.80	14.45	-30.5	-31.8	12.7	9.84e-05	0	43	0	845152256	22	4150
2026-01-17 12:20:09.43	310.97	14.39	-30.8	-32.5	12.2	1.17e-04	0	43	0	846200832	22	4395
2026-01-17 12:20:10.43	311.14	14.33	-30.9	-32.9	12.0	2.90e-04	0	43	0	848297984	22	4520
2026-01-17 12:20:11.43	311.31	14.28	-30.8	-32.5	12.1	2.84e-04	0	43	0	850395136	22	4383
2026-01-17 12:20:12.42	311.47	14.22	-30.9	-32.9	11.8	5.29e-04	0	43	0	852492288	22	4531
2026-01-17 12:20:13.43	311.64	14.16	-30.9	-32.8	12.0	2.84e-04	0	43	0	854589440	22	4491
2026-01-17 12:20:14.43	311.81	14.10	-31.0	-33.2	11.7	3.81e-04	0	43	0	855638016	22	4637
2026-01-17 12:20:15.44	311.98	14.04	-30.9	-32.7	11.9	7.90e-04	0	43	0	857735168	22	4472
2026-01-17 12:20:16.44	312.15	13.98	-30.6	-32.0	12.5	2.66e-04	0	43	0	859832320	22	4221
2026-01-17 12:20:17.45	312.32	13.92	-30.5	-31.8	12.6	1.14e-04	0	43	0	861929472	22	4162
2026-01-17 12:20:18.44	312.48	13.86	-30.5	-31.8	12.7	9.30e-05	0	43	0	864026624	22	4158
2026-01-17 12:20:19.45	312.65	13.80	-30.6	-32.1	12.4	8.08e-05	0	43	0	865075200	22	4259
2026-01-17 12:20:20.45	312.81	13.74	-30.8	-32.5	12.2	2.44e-04	0	43	0	867172352	22	4384
2026-01-17 12:20:21.45	312.97	13.68	-30.8	-32.5	12.1	2.42e-04	0	43	0	869269504	22	4400
2026-01-17 12:20:22.45	313.14	13.62	-30.8	-32.7	11.9	2.62e-04	0	43	0	871366656	22	4459
2026-01-17 12:20:23.45	313.30	13.56	-30.9	-32.8	11.9	4.92e-04	0	43	0	873463808	22	4483
2026-01-17 12:20:24.45	313.46	13.50	-30.8	-32.5	12.1	2.40e-04	0	43	0	874512384	22	4395
2026-01-17 12:20:25.46	313.62	13.44	-30.8	-32.5	12.1	1.73e-04	0	43	0	876609536	22	4378
2026-01-17 12:20:26.46	313.78	13.38	-30.9	-33.0	11.8	2.59e-04	0	43	0	878706688	22	4563
2026-01-17 12:20:27.46	313.94	13.32	-30.9	-33.0	11.8	5.77e-04	0	43	0	880803840	22	4556
2026-01-17 12:20:28.46	314.10	13.26	-30.8	-32.6	12.1	3.00e-04	0	43	0	881852416	22	4423
2026-01-17 12:20:29.46	314.26	13.20	-30.9	-32.9	11.8	3.82e-04	0	43	0	883949568	22	4534
2026-01-17 12:20:30.47	314.42	13.14	-30.8	-32.7	11.9	4.84e-04	0	43	0	886046720	22	4470
2026-01-17 12:20:31.47	314.58	13.08	-30.8	-32.7	11.9	3.14e-04	0	43	0	888143872	22	4458
2026-01-17 12:20:32.47	314.73	13.02	-30.8	-32.8	11.9	3.49e-04	0	43	0	890241024	22	4484
2026-01-17 12:20:33.47	314.89	12.96	-30.7	-32.2	12.3	2.75e-04	0	43	0	891289600	22	4294
2026-01-17 12:20:34.47	315.04	12.90	-30.8	-32.6	12.0	2.61e-04	0	43	0	893386752	22	4441
2026-01-17 12:20:35.48	315.20	12.84	-30.8	-32.6	12.0	5.42e-04	0	43	0	895483904	22	4430
2026-01-17 12:20:36.48	315.35	12.78	-30.3	-31.2	13.0	1.34e-04	0	43	0	897581056	22	3990
2026-01-17 12:20:37.48	315.51	12.72	-30.1	-31.1	13.3	1.75e-05	0	43	0	899678208	21	4062
2026-01-17 12:20:38.47	315.66	12.66	-29.9	-30.6	13.6	1.14e-05	0	43	0	900726784	21	3901
2026-01-17 12:20:39.48	315.81	12.59	-29.8	-30.4	13.8	9.10e-06	0	43	0	902823936	21	3839
2026-01-17 12:20:40.48	315.96	12.53	-30.0	-30.8	13.5	7.60e-06	0	43	0	904921088	21	3953
2026-01-17 12:20:41.48	316.11	12.47	-30.0	-30.8	13.5	1.22e-05	0	43	0	907018240	21	3959
2026-01-17 12:20:42.47	316.26	12.41	-30.1	-31.1	13.3	1.29e-05	0	43	0	908066816	21	4032
2026-01-17 12:20:43.47	316.41	12.35	-30.3	-31.6	13.0	2.89e-05	0	43	0	910163968	21	4198
2026-01-17 12:20:44.47	316.56	12.29	-30.3	-31.7	12.8	5.56e-05	0	43	0	912261120	21	4240
2026-01-17 12:20:45.48	316.71	12.23	-30.5	-32.1	12.6	9.38e-05	0	43	0	914358272	21	4376
2026-01-17 12:20:46.47	316.86	12.17	-30.5	-32.2	12.5	1.11e-04	0	43	0	916455424	21	4399
2026-01-17 12:20:47.47	317.00	12.11	-30.4	-32.1	12.6	1.07e-04	0	43	0	918552576	21	4356
2026-01-17 12:20:48.48	317.15	12.05	-30.4	-32.1	12.6	1.23e-04	0	43	0	919601152	21	4370
2026-01-17 12:20:49.48	317.30	11.99	-30.5	-32.4	12.4	1.63e-04	0	43	0	921698304	21	4447
2026-01-17 12:20:50.48	317.44	11.93	-30.2	-31.6	12.9	5.72e-05	0	43	0	923795456	21	4183
2026-01-17 12:20:51.48	317.59	11.87	-30.3	-31.7	12.9	5.11e-05	0	43	0	925892608	21	4226
2026-01-17 12:20:52.49	317.74	11.81	-30.3	-31.7	12.9	3.12e-05	0	43	0	926941184	21	4230
2026-01-17 12:20:53.49	317.88	11.74	-30.4	-32.0	12.7	9.00e-05	0	43	0	929038336	21	4316
2026-01-17 12:20:54.50	318.02	11.68	-30.3	-31.7	12.9	6.40e-05	0	43	0	931135488	21	4226
2026-01-17 12:20:55.50	318.17	11.62	-30.3	-31.7	12.8	4.88e-05	0	43	0	933232640	21	4236
2026-01-17 12:20:56.50	318.31	11.56	-30.4	-32.1	12.6	1.13e-04	0	43	0	935329792	21	4362
2026-01-17 12:20:57.50	318.45	11.50	-30.5	-32.4	12.4	9.84e-05	0	43	0	936378368	21	4454
2026-01-17 12:20:58.50	318.59	11.44	-30.5	-32.4	12.4	1.20e-04	0	43	0	938475520	21	4466
2026-01-17 12:20:59.50	318.73	11.38	-30.6	-32.7	12.2	1.95e-04	0	43	0	940572672	21	4560
2026-01-17 12:21:00.50	318.87	11.32	-30.5	-32.3	12.4	1.58e-04	0	43	0	942669824	21	4436
2026-01-17 12:21:01.51	319.01	11.26	-30.5	-32.4	12.3	1.70e-04	0	43	0	944766976	21	4451
2026-01-17 12:21:02.50	319.15	11.20	-30.4	-32.0	12.6	8.46e-05	0	43	0	945815552	21	4334
2026-01-17 12:21:03.50	319.29	11.14	-30.2	-31.6	12.9	6.10e-05	0	43	0	947912704	21	4206
2026-01-17 12:21:04.51	319.43	11.07	-30.3	-31.9	12.7	8.46e-05	0	43	0	950009856	21	4288
2026-01-17 12:21:05.51	319.56	11.01	-30.4	-32.0	12.6	8.69e-05	0	43	0	952107008	21	4325
2026-01-17 12:21:06.51	319.70	10.95	-30.6	-32.5	12.3	1.12e-04	0	43	0	953155584	21	4503
2026-01-17 12:21:07.51	319.84	10.89	-30.8	-33.2	11.7	4.02e-04	0	43	0	955252736	21	4753
2026-01-17 12:21:08.51	319.97	10.83	-30.9	-33.6	11.5	8.52e-04	0	43	0	957349888	21	4891
2026-01-17 12:21:09.51	320.11	10.77	-31.2	-33.9	10.9	1.50e-03	0	43	0	959447040	22	4931
2026-01-17 12:21:10.51	320.24	10.71	-31.2	-34.0	10.8	2.07e-03	0	43	0	961544192	22	4958
2026-01-17 12:21:11.51	320.37	10.65	-31.2	-34.1	10.8	2.38e-03	0	43	0	962592768	22	4988
2026-01-17 12:21:12.51	320.51	10.59	-31.2	-34.1	10.7	3.69e-03	0	43	0	964689920	22	5030
2026-01-17 12:21:13.51	320.64	10.53	-31.3	-34.4	10.5	3.01e-03	0	44	0	966787072	22	5135
2026-01-17 12:21:14.50	320.77	10.47	-31.5	-34.9	10.2	4.31e-03	0	43	0	968884224	22	5342
2026-01-17 12:21:15.50	320.90	10.41	-31.4	-34.3	10.2	6.89e-03	0	44	0	970981376	23	4999
2026-01-17 12:21:16.50	321.03	10.35	-31.1	-33.3	10.9	2.42e-03	0	43	0	972029952	23	4627
2026-01-17 12:21:17.51	321.17	10.29	-30.9	-32.5	11.5	1.00e-03	0	43	0	974127104	23	4330
2026-01-17 12:21:18.51	321.30	10.22	-30.9	-32.7	11.4	9.03e-04	0	43	0	976224256	23	4399
2026-01-17 12:21:19.51	321.43	10.16	-30.9	-32.6	11.4	9.31e-04	0	43	0	978321408	23	4372
2026-01-17 12:21:20.51	321.56	10.10	-31.1	-33.1	11.1	1.01e-03	0	43	0	980418560	23	4550
2026-01-17 12:21:21.51	321.68	10.04	-31.0	-32.7	11.4	1.30e-03	0	43	0	981467136	23	4402
2026-01-17 12:21:22.52	321.81	9.98	-31.1	-33.2	10.9	1.76e-03	0	43	0	983564288	23	4597
2026-01-17 12:21:23.53	321.94	9.92	-31.1	-33.1	11.1	2.87e-03	0	43	0	985661440	23	4539
2026-01-17 12:21:24.53	322.07	9.86	-31.0	-33.0	11.1	1.53e-03	0	43	0	987758592	23	4526
2026-01-17 12:21:25.52	322.19	9.80	-30.9	-32.7	11.3	1.28e-03	0	43	0	988807168	23	4409
2026-01-17 12:21:26.52	322.32	9.74	-30.9	-32.8	11.2	1.43e-03	0	43	0	990904320	23	4440
2026-01-17 12:21:27.51	322.44	9.68	-31.0	-32.9	11.2	1.81e-03	0	43	0	993001472	23	4481
2026-01-17 12:21:28.52	322.57	9.62	-30.8	-32.4	11.5	1.14e-03	0	43	0	995098624	23	4325
2026-01-17 12:21:29.52	322.70	9.56	-30.8	-32.7	11.7	5.26e-04	0	43	0	997195776	22	4492
2026-01-17 12:21:30.52	322.82	9.50	-30.7	-32.5	11.8	4.05e-04	0	43	0	998244352	22	4435
2026-01-17 12:21:31.52	322.94	9.44	-30.9	-33.0	11.4	5.93e-04	0	43	0	1000341504	22	4596
2026-01-17 12:21:32.52	323.07	9.38	-30.8	-32.9	11.5	1.14e-03	0	43	0	1002438656	22	4585
2026-01-17 12:21:33.52	323.19	9.32	-30.9	-33.3	11.2	1.22e-03	0	43	0	1004535808	22	4699
2026-01-17 12:21:34.53	323.31	9.26	-31.0	-33.4	11.1	1.58e-03	0	43	0	1006632960	22	4751
2026-01-17 12:21:35.53	323.43	9.20	-31.1	-33.7	10.9	1.78e-03	0	43	0	1007681536	22	4886
2026-01-17 12:21:36.54	323.56	9.14	-31.1	-33.9	10.8	2.50e-03	0	43	0	1009778688	22	4925
2026-01-17 12:21:37.54	323.68	9.08	-31.1	-33.8	10.8	2.65e-03	0	43	0	1011875840	22	4911
2026-01-17 12:21:38.54	323.80	9.02	-31.0	-33.4	11.1	2.83e-03	0	43	0	1013972992	22	4775
2026-01-17 12:21:39.54	323.92	8.96	-30.8	-32.7	11.6	1.14e-03	0	43	0	1016070144	22	4519
2026-01-17 12:21:40.54	324.04	8.90	-30.9	-33.1	11.3	7.99e-04	0	43	0	1017118720	22	4650
2026-01-17 12:21:41.54	324.15	8.84	-30.7	-32.6	11.7	7.11e-04	0	43	0	1019215872	22	4477
2026-01-17 12:21:42.54	324.27	8.78	-30.7	-32.6	11.6	5.52e-04	0	43	0	1021313024	22	4482
2026-01-17 12:21:43.55	324.39	8.72	-30.7	-32.4	11.8	4.36e-04	0	43	0	1023410176	22	4404
2026-01-17 12:21:44.54	324.51	8.66	-30.7	-32.5	11.7	6.66e-04	0	43	0	1025507328	22	4441
2026-01-17 12:21:45.54	324.62	8.60	-30.8	-32.8	11.4	5.74e-04	0	43	0	1026555904	22	4557
2026-01-17 12:21:46.54	324.74	8.54	-31.0	-33.4	11.1	1.48e-03	0	43	0	1028653056	22	4747
2026-01-17 12:21:47.55	324.86	8.48	-30.9	-33.2	11.2	2.01e-03	0	43	0	1030750208	22	4689
2026-01-17 12:21:48.55	324.97	8.42	-30.9	-33.2	11.2	1.21e-03	0	43	0	1032847360	22	4675
2026-01-17 12:21:49.56	325.09	8.36	-31.0	-33.5	11.0	1.86e-03	0	43	0	1033895936	22	4793
2026-01-17 12:21:50.56	325.20	8.30	-31.3	-34.5	10.2	3.64e-03	0	43	0	1035993088	22	5219
2026-01-17 12:21:51.56	325.32	8.24	-31.2	-34.2	10.4	5.50e-03	0	43	0	1038090240	22	5088
2026-01-17 12:21:52.56	325.43	8.18	-31.2	-34.1	10.5	3.50e-03	0	43	0	1040187392	22	5033
2026-01-17 12:21:53.56	325.55	8.12	-31.1	-33.8	10.7	3.66e-03	0	43	0	1042284544	22	4920
2026-01-17 12:21:54.56	325.66	8.06	-31.3	-34.5	10.2	5.02e-03	0	43	0	1043333120	22	5207
2026-01-17 12:21:55.57	325.77	8.00	-31.3	-34.6	10.2	9.27e-03	0	43	0	1045430272	22	5238
2026-01-17 12:21:56.56	325.88	7.94	-31.1	-33.7	10.8	2.68e-03	0	43	0	1047527424	22	4907
2026-01-17 12:21:57.57	326.00	7.89	-30.9	-33.1	11.2	1.82e-03	0	43	0	1049624576	22	4647
2026-01-17 12:21:58.58	326.11	7.83	-30.6	-32.3	11.8	9.41e-04	0	43	0	1051721728	22	4365
2026-01-17 12:21:59.57	326.22	7.77	-30.5	-32.1	11.9	4.26e-04	0	43	0	1052770304	22	4316
2026-01-17 12:22:00.58	326.33	7.71	-30.4	-31.7	12.2	1.91e-04	0	43	0	1054867456	22	4190
2026-01-17 12:22:01.58	326.44	7.65	-30.6	-32.2	11.9	4.66e-04	0	43	0	1056964608	22	4338
2026-01-17 12:22:02.57	326.55	7.59	-30.5	-31.9	12.1	3.51e-04	0	43	0	1059061760	22	4254
2026-01-17 12:22:03.57	326.66	7.53	-30.5	-32.0	12.0	3.81e-04	0	43	0	1060110336	22	4295
2026-01-17 12:22:04.57	326.76	7.47	-30.6	-32.4	11.7	6.58e-04	0	43	0	1062207488	22	4414
2026-01-17 12:22:05.57	326.87	7.41	-30.7	-32.5	11.7	7.52e-04	0	43	0	1064304640	22	4439
2026-01-17 12:22:06.56	326.98	7.36	-30.9	-33.1	11.2	7.38e-04	0	43	0	1066401792	22	4658
2026-01-17 12:22:07.56	327.09	7.30	-31.0	-33.6	10.8	2.19e-03	0	43	0	1068498944	22	4855
2026-01-17 12:22:08.57	327.19	7.24	-31.0	-33.7	10.8	2.15e-03	0	43	0	1069547520	22	4877
2026-01-17 12:22:09.56	327.30	7.18	-31.2	-34.2	10.4	4.30e-03	0	43	0	1071644672	22	5091
2026-01-17 12:22:10.56	327.41	7.12	-31.2	-34.3	10.3	3.66e-03	0	43	0	1073741824	22	5122
2026-01-17 12:22:11.56	327.51	7.06	-33.3	-45.0	3.7	2.63e-02	0	43	104	1075838976	26	13848
2026-01-17 12:22:12.56	327.62	7.01	-33.6	-46.0	3.8	1.49e+00	0	43	104	1075838976	27	14878

#Closed at: 2026-01-17 12:22:12
#Recorded file [1075 MB]: D:/data/31010_260117_151237.dat