passes_logs/2026/01/17/R2M6_AANII_01/R2M6_AANII_01__20260117_113814_AQUA_rec.log

#Pass ID: 20260117_113814_AQUA
#Satellite: AQUA
#Configuration: AQUA
#almurnet v.1.7.20240730
#Start time: 2026-01-17 11:41:04

#Version: 2.2.20231116
#Station: R2M6_AANII_01
#Location: 30.233357 lon 59.946436 lat
#TLE: 1 27424U 02022A   26016.26443506  .00000711  00000+0  15228-3 0  9999
#TLE: 2 27424  98.4083 342.7130 0002022  76.7284  27.4473 14.61823291261073

#Time	Az	El	Level	Level2	SNR	BER	BlckErr	Temp	State	Recorded	gain1	gain2
2026-01-17 11:41:04.46	136.89	28.00	-34.0	-45.0	3.8	8.46e-01	0	43	0	0	28	12836
2026-01-17 11:41:05.45	136.77	28.19	-34.9	-53.8	3.8	7.44e-01	0	43	104	0	31	31807
2026-01-17 11:41:06.45	136.65	28.39	-34.9	-53.8	3.8	7.47e-01	0	43	104	0	31	31881
2026-01-17 11:41:07.45	136.53	28.59	-34.8	-53.7	3.8	7.45e-01	0	43	104	0	31	31650
2026-01-17 11:41:08.46	136.40	28.79	-34.9	-53.8	3.8	7.48e-01	0	43	104	0	31	31764
2026-01-17 11:41:09.46	136.27	28.99	-34.9	-53.8	3.8	7.41e-01	0	43	104	0	31	31787
2026-01-17 11:41:10.45	136.15	29.19	-34.8	-53.7	3.8	7.41e-01	0	43	104	0	31	31670
2026-01-17 11:41:11.46	136.01	29.40	-34.9	-53.7	3.8	7.49e-01	0	43	104	0	31	31640
2026-01-17 11:41:12.46	135.88	29.60	-34.8	-53.7	3.8	7.45e-01	0	43	104	0	31	31686
2026-01-17 11:41:13.45	135.75	29.81	-34.8	-53.7	3.8	7.47e-01	0	43	104	0	31	31713
2026-01-17 11:41:14.46	135.61	30.02	-34.8	-53.7	3.8	7.44e-01	0	43	104	0	31	31737
2026-01-17 11:41:15.45	135.48	30.23	-34.8	-53.7	3.8	7.46e-01	0	43	104	0	31	31661
2026-01-17 11:41:16.46	135.33	30.44	-34.8	-53.7	3.8	7.47e-01	0	43	104	0	31	31654
2026-01-17 11:41:17.46	135.19	30.65	-34.8	-53.7	3.8	7.46e-01	0	43	104	0	31	31692
2026-01-17 11:41:18.46	135.05	30.87	-34.8	-53.7	3.8	7.47e-01	0	43	104	0	31	31678
2026-01-17 11:41:19.46	134.90	31.08	-34.8	-53.7	3.8	7.46e-01	0	43	104	0	31	31660
2026-01-17 11:41:20.46	134.76	31.30	-35.0	-53.9	3.8	7.43e-01	0	43	104	0	31	31989
2026-01-17 11:41:21.47	134.60	31.52	-35.0	-54.1	3.8	7.41e-01	0	43	104	0	31	32315
2026-01-17 11:41:22.47	134.45	31.74	-35.0	-54.1	3.8	7.45e-01	0	43	104	0	31	32366
2026-01-17 11:41:23.47	134.30	31.96	-35.1	-54.2	3.8	7.46e-01	0	43	104	0	31	32487
2026-01-17 11:41:24.48	134.14	32.19	-35.1	-54.3	3.8	7.43e-01	0	43	104	0	31	32686
2026-01-17 11:41:25.48	133.98	32.42	-35.1	-54.2	3.8	7.47e-01	0	43	104	0	31	32608
2026-01-17 11:41:26.49	133.82	32.64	-35.0	-54.1	3.8	7.48e-01	0	43	104	0	31	32473
2026-01-17 11:41:27.49	133.66	32.87	-34.9	-54.0	3.8	7.47e-01	0	43	104	0	31	32152
2026-01-17 11:41:28.49	133.49	33.10	-34.9	-53.9	3.8	7.47e-01	0	43	104	0	31	32110
2026-01-17 11:41:29.49	133.32	33.33	-34.8	-53.5	3.8	7.45e-01	0	43	104	0	31	31105
2026-01-17 11:41:30.49	133.15	33.57	-34.8	-53.5	3.8	7.45e-01	0	43	104	0	31	31044
2026-01-17 11:41:31.49	132.98	33.80	-34.8	-53.7	3.8	7.42e-01	0	43	104	0	31	31629
2026-01-17 11:41:32.49	132.80	34.04	-34.8	-53.7	3.8	7.43e-01	0	43	104	0	31	31596
2026-01-17 11:41:33.49	132.62	34.27	-34.8	-53.7	3.8	7.47e-01	0	44	104	0	31	31654
2026-01-17 11:41:34.50	132.44	34.52	-34.8	-53.6	3.8	7.43e-01	0	43	104	0	31	31281
2026-01-17 11:41:35.50	132.25	34.76	-34.8	-53.3	3.8	7.44e-01	0	43	104	0	31	30377
2026-01-17 11:41:36.50	132.07	35.00	-34.8	-52.9	3.8	7.48e-01	0	44	104	0	31	28949
2026-01-17 11:41:37.50	131.88	35.24	-34.8	-52.3	3.8	7.40e-01	0	43	104	0	31	27194
2026-01-17 11:41:38.51	131.68	35.49	-34.8	-52.4	3.8	7.48e-01	0	43	104	0	31	27578
2026-01-17 11:41:39.51	131.49	35.74	-34.8	-52.8	3.8	7.43e-01	0	43	104	0	31	28509
2026-01-17 11:41:40.51	131.29	35.99	-34.8	-52.6	3.8	7.46e-01	0	44	104	0	31	28020
2026-01-17 11:41:41.52	131.08	36.24	-34.8	-52.4	3.8	7.41e-01	0	43	104	0	31	27522
2026-01-17 11:41:42.53	130.87	36.50	-34.8	-52.6	3.8	7.42e-01	0	43	104	0	31	27973
2026-01-17 11:41:43.52	130.67	36.75	-34.8	-52.5	3.8	7.46e-01	0	43	104	0	31	27768
2026-01-17 11:41:44.52	130.45	37.01	-34.8	-52.4	3.8	7.45e-01	0	43	104	0	31	27524
2026-01-17 11:41:45.52	130.24	37.26	-34.7	-51.9	3.8	7.43e-01	0	44	104	0	31	25986
2026-01-17 11:41:46.52	130.02	37.52	-34.7	-50.7	4.1	7.38e-01	0	43	104	0	31	22573
2026-01-17 11:41:47.53	129.79	37.79	-34.7	-50.9	3.9	7.44e-01	0	43	104	0	31	23304
2026-01-17 11:41:48.53	129.57	38.05	-34.7	-50.5	4.1	7.35e-01	0	43	104	0	31	22050
2026-01-17 11:41:49.53	129.34	38.31	-34.7	-49.8	3.9	7.39e-01	0	43	104	0	31	20515
2026-01-17 11:41:50.54	129.10	38.58	-34.6	-47.0	5.5	6.98e-01	0	43	0	0	31	15110
2026-01-17 11:41:51.54	128.86	38.85	-34.4	-44.9	7.1	6.61e-01	0	43	0	1572864	31	12009
2026-01-17 11:41:52.53	128.62	39.12	-34.4	-44.7	7.8	6.54e-01	0	43	0	3145728	30	11854
2026-01-17 11:41:53.53	128.37	39.39	-34.4	-44.6	7.8	6.52e-01	0	43	0	5242880	30	11725
2026-01-17 11:41:54.53	128.12	39.66	-34.5	-46.9	6.1	6.86e-01	0	43	0	6815744	30	14954
2026-01-17 11:41:55.53	127.86	39.93	-34.7	-50.6	3.9	7.45e-01	0	43	104	7340032	30	22430
2026-01-17 11:41:56.54	127.60	40.21	-34.1	-42.2	9.8	6.25e-01	0	44	104	7340032	30	9169
2026-01-17 11:41:57.54	127.34	40.49	-32.9	-37.6	14.5	6.07e-01	0	43	0	1048576	28	6158
2026-01-17 11:41:58.54	127.07	40.77	-32.1	-35.6	16.8	6.06e-01	0	43	0	2621440	26	5390
2026-01-17 11:41:59.55	126.79	41.05	-32.0	-35.3	17.1	6.06e-01	0	43	0	4718592	26	5256
2026-01-17 11:42:00.55	126.51	41.33	-32.1	-35.8	16.8	6.07e-01	0	43	0	6291456	26	5470
2026-01-17 11:42:01.55	126.23	41.62	-31.8	-35.3	17.4	6.07e-01	0	43	0	8388608	25	5395
2026-01-17 11:42:02.55	125.94	41.90	-32.0	-35.8	17.1	6.04e-01	0	43	0	10485760	25	5599
2026-01-17 11:42:03.55	125.64	42.19	-32.1	-36.1	16.9	6.06e-01	0	43	0	12058624	25	5708
2026-01-17 11:42:04.55	125.34	42.48	-31.7	-35.0	17.6	6.05e-01	0	43	0	14155776	25	5261
2026-01-17 11:42:05.55	125.04	42.77	-31.4	-34.1	18.2	6.06e-01	0	43	0	15728640	25	4920
2026-01-17 11:42:06.55	124.72	43.06	-31.7	-34.8	17.7	6.05e-01	0	43	0	17825792	25	5186
2026-01-17 11:42:07.54	124.41	43.35	-31.7	-35.0	17.6	6.08e-01	0	43	0	19398656	25	5268
2026-01-17 11:42:08.54	124.09	43.64	-31.4	-34.1	18.2	6.07e-01	0	43	0	21495808	25	4896
2026-01-17 11:42:09.55	123.75	43.94	-31.3	-34.2	18.5	6.07e-01	0	43	0	23592960	24	5064
2026-01-17 11:42:10.56	123.41	44.24	-30.9	-33.3	19.0	6.04e-01	0	43	0	25165824	24	4731
2026-01-17 11:42:11.56	123.07	44.54	-30.6	-33.0	19.5	6.07e-01	0	43	0	27262976	23	4738
2026-01-17 11:42:12.56	122.72	44.83	-30.7	-33.1	19.4	6.07e-01	0	43	0	28835840	23	4773
2026-01-17 11:42:13.56	122.37	45.13	-30.8	-33.5	19.3	6.08e-01	0	43	0	30932992	23	4889
2026-01-17 11:42:14.56	122.00	45.43	-31.1	-34.2	18.8	6.05e-01	0	43	0	33030144	23	5170
2026-01-17 11:42:15.57	121.63	45.74	-30.8	-33.4	19.3	6.06e-01	0	43	0	34603008	23	4855
2026-01-17 11:42:16.57	121.25	46.04	-30.6	-32.9	19.6	6.07e-01	0	43	0	36700160	23	4713
2026-01-17 11:42:17.56	120.87	46.34	-30.8	-33.5	19.2	6.08e-01	0	43	0	38273024	23	4916
2026-01-17 11:42:18.56	120.48	46.65	-30.9	-33.6	19.1	6.04e-01	0	43	0	40370176	23	4951
2026-01-17 11:42:19.56	120.08	46.96	-30.9	-33.6	19.2	6.04e-01	0	43	0	42467328	23	4933
2026-01-17 11:42:20.56	119.67	47.26	-31.0	-34.0	19.0	6.07e-01	0	43	0	44040192	23	5072
2026-01-17 11:42:21.55	119.26	47.57	-31.2	-34.4	18.6	6.09e-01	0	43	0	45613056	23	5238
2026-01-17 11:42:22.55	118.83	47.87	-31.1	-34.2	18.8	6.06e-01	0	43	0	47710208	23	5165
2026-01-17 11:42:23.56	118.40	48.19	-31.1	-34.2	18.8	6.08e-01	0	43	0	49807360	23	5169
2026-01-17 11:42:24.56	117.95	48.49	-31.2	-34.5	18.6	6.07e-01	0	43	0	51380224	23	5278
2026-01-17 11:42:25.57	117.50	48.81	-31.3	-34.9	18.4	6.07e-01	0	43	0	53477376	23	5415
2026-01-17 11:42:26.57	117.04	49.12	-31.1	-34.3	18.8	6.07e-01	0	43	0	55574528	23	5187
2026-01-17 11:42:27.57	116.57	49.43	-31.2	-34.5	18.7	6.04e-01	0	43	0	57147392	23	5254
2026-01-17 11:42:28.57	116.08	49.74	-31.4	-35.1	18.3	6.07e-01	0	43	0	59244544	23	5491
2026-01-17 11:42:29.58	115.59	50.05	-31.3	-34.8	18.5	6.08e-01	0	43	0	60817408	23	5377
2026-01-17 11:42:30.58	115.09	50.36	-31.1	-34.2	18.8	6.08e-01	0	43	0	62914560	23	5146
2026-01-17 11:42:31.59	114.57	50.67	-30.6	-33.0	19.6	6.06e-01	0	43	0	64487424	23	4708
2026-01-17 11:42:32.58	114.05	50.98	-30.9	-33.8	19.1	6.06e-01	0	43	0	66584576	23	4987
2026-01-17 11:42:33.58	113.52	51.29	-30.8	-33.5	19.2	6.08e-01	0	43	0	68681728	23	4908
2026-01-17 11:42:34.58	112.98	51.60	-30.6	-32.9	19.7	6.05e-01	0	43	0	70254592	23	4670
2026-01-17 11:42:35.58	112.42	51.91	-31.0	-33.8	19.2	6.08e-01	0	43	0	72351744	23	4980
2026-01-17 11:42:36.58	111.85	52.21	-31.0	-33.9	19.0	6.06e-01	0	43	0	73924608	23	5051
2026-01-17 11:42:37.58	111.27	52.52	-30.7	-33.0	19.6	6.05e-01	0	43	0	76021760	23	4730
2026-01-17 11:42:38.57	110.69	52.82	-30.4	-32.4	20.0	6.06e-01	0	43	0	77594624	23	4509
2026-01-17 11:42:39.58	110.08	53.13	-30.2	-32.4	20.3	6.05e-01	0	43	0	79691776	22	4622
2026-01-17 11:42:40.57	109.47	53.43	-30.2	-32.4	20.3	6.07e-01	0	43	0	81788928	22	4635
2026-01-17 11:42:41.57	108.84	53.73	-30.5	-33.0	20.0	6.06e-01	0	43	0	83361792	22	4835
2026-01-17 11:42:42.57	108.19	54.03	-30.4	-32.9	20.0	6.09e-01	0	43	0	85458944	22	4781
2026-01-17 11:42:43.56	107.54	54.32	-30.2	-32.4	20.3	6.04e-01	0	43	0	87031808	22	4630
2026-01-17 11:42:44.56	106.87	54.62	-30.3	-32.6	20.2	6.07e-01	0	43	0	89128960	22	4697
2026-01-17 11:42:45.56	106.18	54.91	-30.5	-33.0	19.9	6.06e-01	0	43	0	90701824	22	4833
2026-01-17 11:42:46.56	105.48	55.20	-30.5	-33.0	19.9	6.06e-01	0	43	0	92798976	22	4838
2026-01-17 11:42:47.56	104.77	55.49	-30.4	-32.8	20.1	6.06e-01	0	43	0	94896128	22	4758
2026-01-17 11:42:48.57	104.03	55.77	-30.8	-33.8	19.5	6.07e-01	0	43	0	96468992	22	5093
2026-01-17 11:42:49.56	103.30	56.05	-30.5	-33.0	19.9	6.06e-01	0	43	0	98566144	22	4829
2026-01-17 11:42:50.56	102.54	56.33	-30.8	-33.8	19.5	6.07e-01	0	43	0	100139008	22	5081
2026-01-17 11:42:51.56	101.76	56.61	-30.7	-33.7	19.5	6.05e-01	0	43	0	102236160	22	5041
2026-01-17 11:42:52.57	100.96	56.88	-30.8	-33.9	19.4	6.06e-01	0	43	0	104333312	22	5144
2026-01-17 11:42:53.57	100.16	57.15	-31.1	-34.5	19.1	6.06e-01	0	43	0	105906176	22	5348
2026-01-17 11:42:54.57	99.34	57.41	-31.2	-34.2	18.9	6.04e-01	0	44	0	108003328	23	5141
2026-01-17 11:42:55.58	98.49	57.67	-31.0	-33.9	19.1	6.09e-01	0	43	0	109576192	23	5024
2026-01-17 11:42:56.58	97.63	57.92	-31.2	-34.4	18.8	6.05e-01	0	43	0	111673344	23	5188
2026-01-17 11:42:57.58	96.76	58.17	-31.3	-34.6	18.7	6.08e-01	0	43	0	113246208	23	5262
2026-01-17 11:42:58.58	95.88	58.42	-31.0	-33.9	19.1	6.09e-01	0	43	0	115343360	23	5023
2026-01-17 11:42:59.58	94.97	58.65	-31.1	-34.1	19.1	6.07e-01	0	43	0	117440512	23	5086
2026-01-17 11:43:00.57	94.06	58.88	-31.3	-34.6	18.7	6.06e-01	0	43	0	119013376	23	5281
2026-01-17 11:43:01.57	93.13	59.11	-31.0	-33.8	19.2	6.07e-01	0	44	0	121110528	23	4987
2026-01-17 11:43:02.57	92.18	59.33	-31.0	-33.9	19.2	6.02e-01	0	43	0	122683392	23	4999
2026-01-17 11:43:03.57	91.21	59.54	-31.2	-34.3	18.9	6.07e-01	0	43	0	124780544	23	5148
2026-01-17 11:43:04.58	90.21	59.75	-31.1	-34.1	19.0	6.06e-01	0	43	0	126353408	23	5107
2026-01-17 11:43:05.58	89.21	59.95	-31.1	-34.0	19.0	6.06e-01	0	43	0	128450560	23	5059
2026-01-17 11:43:06.59	88.19	60.14	-31.5	-35.2	18.4	6.06e-01	0	43	0	130547712	23	5523
2026-01-17 11:43:07.59	87.16	60.33	-31.3	-34.0	18.7	6.07e-01	0	43	0	132120576	24	4962
2026-01-17 11:43:08.59	86.11	60.51	-31.3	-34.1	18.8	6.08e-01	0	43	0	134217728	24	4972
2026-01-17 11:43:09.59	85.05	60.67	-31.4	-34.4	18.5	6.09e-01	0	43	0	135790592	24	5107
2026-01-17 11:43:10.59	83.98	60.83	-31.4	-34.4	18.6	6.06e-01	0	43	0	137887744	24	5074
2026-01-17 11:43:11.59	82.90	60.99	-31.4	-34.4	18.6	6.07e-01	0	43	0	139460608	24	5090
2026-01-17 11:43:12.59	81.80	61.13	-31.4	-34.3	18.6	6.08e-01	0	43	0	141557760	24	5059
2026-01-17 11:43:13.59	80.68	61.26	-31.7	-35.2	18.1	6.08e-01	0	43	0	143654912	24	5405
2026-01-17 11:43:14.60	79.55	61.39	-31.2	-33.8	18.9	6.08e-01	0	43	0	145227776	24	4863
2026-01-17 11:43:15.60	78.42	61.50	-31.7	-35.3	18.0	6.06e-01	0	43	0	147324928	24	5438
2026-01-17 11:43:16.60	77.27	61.61	-31.4	-34.4	18.5	6.06e-01	0	43	0	148897792	24	5102
2026-01-17 11:43:17.60	76.12	61.70	-31.6	-34.9	18.3	6.07e-01	0	43	0	150994944	24	5260
2026-01-17 11:43:18.61	74.94	61.79	-31.8	-35.5	17.9	6.05e-01	0	43	0	153092096	24	5513
2026-01-17 11:43:19.60	73.78	61.86	-31.7	-35.2	18.0	6.07e-01	0	43	0	154664960	24	5388
2026-01-17 11:43:20.61	72.60	61.93	-31.9	-35.8	17.7	6.07e-01	0	43	0	156762112	24	5624
2026-01-17 11:43:21.61	71.41	61.98	-32.1	-36.3	17.3	6.05e-01	0	43	0	158334976	24	5885
2026-01-17 11:43:22.61	70.23	62.03	-31.8	-35.0	17.8	6.06e-01	0	43	0	160432128	25	5195
2026-01-17 11:43:23.60	69.05	62.06	-31.8	-35.0	17.9	6.04e-01	0	43	0	162004992	25	5219
2026-01-17 11:43:24.61	67.84	62.09	-31.8	-35.1	17.8	6.04e-01	0	43	0	164102144	25	5246
2026-01-17 11:43:25.61	66.65	62.10	-31.8	-35.0	17.9	6.06e-01	0	43	0	166199296	25	5227
2026-01-17 11:43:26.61	65.45	62.10	-31.7	-34.8	17.9	6.06e-01	0	43	0	167772160	25	5148
2026-01-17 11:43:27.61	64.25	62.09	-31.7	-34.8	18.0	6.06e-01	0	43	0	169869312	25	5161
2026-01-17 11:43:28.62	63.05	62.07	-31.8	-35.0	17.8	6.06e-01	0	43	0	171442176	25	5228
2026-01-17 11:43:29.62	61.86	62.04	-31.5	-34.1	18.4	6.06e-01	0	43	0	173539328	25	4859
2026-01-17 11:43:30.62	60.67	62.00	-31.5	-34.3	18.3	6.07e-01	0	43	0	175636480	25	4946
2026-01-17 11:43:31.62	59.48	61.95	-31.4	-34.0	18.5	6.10e-01	0	43	0	177209344	25	4836
2026-01-17 11:43:32.63	58.29	61.89	-31.6	-34.6	18.1	6.06e-01	0	44	0	179306496	25	5045
2026-01-17 11:43:33.63	57.12	61.82	-31.6	-34.5	18.2	6.08e-01	0	43	0	180879360	25	5023
2026-01-17 11:43:34.63	55.96	61.74	-31.9	-35.3	17.6	6.08e-01	0	43	0	182976512	25	5317
2026-01-17 11:43:35.63	54.80	61.64	-31.6	-34.5	18.1	6.06e-01	0	43	0	184549376	25	5041
2026-01-17 11:43:36.63	53.65	61.54	-32.0	-35.7	17.4	6.09e-01	0	43	0	186646528	25	5489
2026-01-17 11:43:37.64	52.51	61.43	-32.0	-35.8	17.3	6.06e-01	0	43	0	188743680	25	5534
2026-01-17 11:43:38.63	51.39	61.31	-31.7	-34.9	17.9	6.07e-01	0	43	0	190316544	25	5162
2026-01-17 11:43:39.63	50.28	61.18	-32.1	-35.9	17.2	6.06e-01	0	43	0	192413696	25	5573
2026-01-17 11:43:40.64	49.16	61.04	-32.3	-36.7	16.6	6.06e-01	0	44	0	193986560	25	5959
2026-01-17 11:43:41.64	48.07	60.89	-31.6	-34.5	18.1	6.07e-01	0	43	0	196083712	25	5034
2026-01-17 11:43:42.64	46.99	60.73	-31.5	-34.2	18.4	6.07e-01	0	43	0	198180864	25	4913
2026-01-17 11:43:43.65	45.92	60.57	-31.9	-35.4	17.6	6.06e-01	0	43	0	199753728	25	5382
2026-01-17 11:43:44.65	44.87	60.39	-31.9	-35.4	17.5	6.05e-01	0	43	0	201850880	25	5404
2026-01-17 11:43:45.65	43.84	60.21	-31.4	-34.4	18.6	6.06e-01	0	43	0	203423744	24	5078
2026-01-17 11:43:46.66	42.81	60.02	-31.3	-34.3	18.5	6.07e-01	0	43	0	205520896	24	5065
2026-01-17 11:43:47.66	41.80	59.82	-31.7	-35.3	17.9	6.06e-01	0	43	0	207093760	24	5456
2026-01-17 11:43:48.66	40.82	59.62	-31.6	-35.2	18.0	6.05e-01	0	43	0	209190912	24	5407
2026-01-17 11:43:49.66	39.84	59.41	-31.4	-34.4	18.5	6.03e-01	0	43	0	211288064	24	5087
2026-01-17 11:43:50.66	38.89	59.19	-31.4	-34.5	18.4	6.05e-01	0	43	0	212860928	24	5147
2026-01-17 11:43:51.66	37.95	58.97	-31.6	-35.1	18.1	6.09e-01	0	43	0	214958080	24	5368
2026-01-17 11:43:52.66	37.02	58.74	-31.1	-33.7	18.8	6.10e-01	0	43	0	216530944	24	4849
2026-01-17 11:43:53.66	36.12	58.50	-30.8	-33.3	19.4	6.07e-01	0	43	0	218628096	23	4814
2026-01-17 11:43:54.66	35.22	58.26	-31.2	-34.4	18.8	6.08e-01	0	43	0	220725248	23	5211
2026-01-17 11:43:55.66	34.35	58.02	-30.9	-33.7	19.2	6.05e-01	0	43	0	222298112	23	4940
2026-01-17 11:43:56.67	33.48	57.76	-30.6	-32.7	19.7	6.06e-01	0	43	0	224395264	23	4621
2026-01-17 11:43:57.67	32.64	57.51	-30.8	-33.4	19.4	6.06e-01	0	43	0	225968128	23	4844
2026-01-17 11:43:58.68	31.80	57.24	-30.9	-33.5	19.3	6.06e-01	0	43	0	228065280	23	4886
2026-01-17 11:43:59.68	30.99	56.98	-30.4	-32.3	19.9	6.06e-01	0	43	0	229638144	23	4487
2026-01-17 11:44:00.68	30.20	56.71	-30.0	-31.8	20.6	6.06e-01	0	43	0	231735296	22	4421
2026-01-17 11:44:01.67	29.43	56.44	-30.3	-32.5	20.2	6.09e-01	0	44	0	233832448	22	4652
2026-01-17 11:44:02.67	28.66	56.16	-30.4	-32.8	20.0	6.06e-01	0	43	0	235405312	22	4773
2026-01-17 11:44:03.67	27.92	55.88	-30.1	-32.1	20.4	6.05e-01	0	43	0	237502464	22	4515
2026-01-17 11:44:04.67	27.18	55.60	-30.3	-32.5	20.2	6.06e-01	0	43	0	239075328	22	4673
2026-01-17 11:44:05.68	26.46	55.31	-30.1	-32.2	20.3	6.06e-01	0	43	0	241172480	22	4569
2026-01-17 11:44:06.68	25.75	55.02	-29.9	-31.7	20.6	6.08e-01	0	43	0	243269632	22	4421
2026-01-17 11:44:07.68	25.07	54.73	-29.6	-31.3	21.1	6.06e-01	0	44	0	244842496	21	4413
2026-01-17 11:44:08.68	24.39	54.44	-29.4	-30.9	21.3	6.07e-01	0	43	0	246939648	21	4279
2026-01-17 11:44:09.69	23.72	54.14	-29.7	-31.6	21.0	6.05e-01	0	43	0	248512512	21	4478
2026-01-17 11:44:10.69	23.08	53.84	-29.6	-31.5	21.0	6.07e-01	0	43	0	250609664	21	4463
2026-01-17 11:44:11.70	22.44	53.54	-29.4	-31.0	21.3	6.06e-01	0	43	0	252182528	21	4299
2026-01-17 11:44:12.70	21.82	53.24	-29.3	-31.1	21.5	6.05e-01	0	43	0	254279680	20	4445
2026-01-17 11:44:13.70	21.21	52.94	-29.6	-31.9	21.1	6.07e-01	0	43	0	256376832	20	4689
2026-01-17 11:44:14.71	20.61	52.63	-29.7	-32.3	20.8	6.04e-01	0	43	0	257949696	20	4816
2026-01-17 11:44:15.70	20.03	52.33	-29.3	-31.2	21.4	6.06e-01	0	43	0	260046848	20	4466
2026-01-17 11:44:16.71	19.45	52.02	-29.3	-31.1	21.5	6.07e-01	0	43	0	261619712	20	4451
2026-01-17 11:44:17.72	18.89	51.71	-29.3	-31.2	21.5	6.06e-01	0	43	0	263716864	20	4480
2026-01-17 11:44:18.72	18.34	51.40	-29.3	-31.3	21.4	6.06e-01	0	43	0	265814016	20	4489
2026-01-17 11:44:19.72	17.81	51.10	-29.7	-32.2	20.9	6.06e-01	0	43	0	267386880	20	4781
2026-01-17 11:44:20.72	17.28	50.79	-29.4	-31.5	21.2	6.06e-01	0	43	0	269484032	20	4563
2026-01-17 11:44:21.72	16.77	50.48	-29.3	-31.3	21.4	6.06e-01	0	43	0	271056896	20	4499
2026-01-17 11:44:22.72	16.27	50.17	-29.5	-31.7	21.2	6.07e-01	0	43	0	273154048	20	4618
2026-01-17 11:44:23.73	15.77	49.86	-29.6	-32.0	21.0	6.08e-01	0	43	0	274726912	20	4717
2026-01-17 11:44:24.73	15.29	49.55	-29.7	-32.1	20.9	6.06e-01	0	43	0	276824064	20	4768
2026-01-17 11:44:25.73	14.82	49.24	-30.1	-33.1	20.4	6.06e-01	0	43	0	278921216	20	5077
2026-01-17 11:44:26.74	14.35	48.93	-29.6	-32.0	21.0	6.05e-01	0	43	0	280494080	20	4705
2026-01-17 11:44:27.74	13.89	48.62	-29.8	-32.3	20.8	6.07e-01	0	43	0	282591232	20	4810
2026-01-17 11:44:28.74	13.45	48.31	-29.9	-32.7	20.6	6.08e-01	0	43	0	284164096	20	4945
2026-01-17 11:44:29.75	13.01	48.00	-29.8	-32.3	20.8	6.08e-01	0	43	0	286261248	20	4832
2026-01-17 11:44:30.75	12.58	47.69	-30.1	-32.8	20.3	6.04e-01	0	43	0	288358400	21	4859
2026-01-17 11:44:31.75	12.17	47.39	-29.9	-32.1	20.6	6.06e-01	0	43	0	289931264	21	4643
2026-01-17 11:44:32.75	11.76	47.08	-29.7	-31.6	20.8	6.06e-01	0	43	0	292028416	21	4493
2026-01-17 11:44:33.75	11.35	46.78	-30.0	-32.3	20.5	6.06e-01	0	43	0	293601280	21	4708
2026-01-17 11:44:34.75	10.96	46.47	-30.2	-32.8	20.2	6.07e-01	0	43	0	295698432	21	4878
2026-01-17 11:44:35.75	10.57	46.17	-30.5	-33.6	19.7	6.08e-01	0	43	0	297271296	21	5173
2026-01-17 11:44:36.75	10.20	45.87	-30.2	-32.8	20.2	6.05e-01	0	44	0	299368448	21	4860
2026-01-17 11:44:37.74	9.83	45.57	-30.0	-32.4	20.4	6.05e-01	0	43	0	301465600	21	4747
2026-01-17 11:44:38.74	9.46	45.27	-29.6	-31.3	21.0	6.07e-01	0	44	0	303038464	21	4391
2026-01-17 11:44:39.75	9.10	44.97	-29.4	-31.4	21.3	6.07e-01	0	43	0	305135616	20	4524
2026-01-17 11:44:40.75	8.75	44.67	-29.7	-32.1	20.9	6.05e-01	0	43	0	306708480	20	4762
2026-01-17 11:44:41.75	8.41	44.37	-29.8	-32.3	20.8	6.06e-01	0	43	0	308805632	20	4821
2026-01-17 11:44:42.75	8.07	44.08	-29.8	-32.5	20.6	6.06e-01	0	44	0	310378496	20	4885
2026-01-17 11:44:43.76	7.74	43.78	-29.9	-32.5	20.6	6.07e-01	0	43	0	312475648	20	4898
2026-01-17 11:44:44.76	7.41	43.49	-29.8	-32.4	20.7	6.07e-01	0	44	0	314572800	20	4860
2026-01-17 11:44:45.76	7.10	43.19	-30.1	-33.1	20.4	6.09e-01	0	43	0	316145664	20	5083
2026-01-17 11:44:46.76	6.78	42.90	-30.0	-32.5	20.3	6.05e-01	0	43	0	318242816	21	4769
2026-01-17 11:44:47.77	6.47	42.61	-30.1	-32.5	20.4	6.07e-01	0	43	0	320339968	21	4775
2026-01-17 11:44:48.77	6.17	42.33	-30.3	-33.1	20.0	6.07e-01	0	43	0	321912832	21	4962
2026-01-17 11:44:49.77	5.88	42.04	-30.5	-33.7	19.6	6.05e-01	0	43	0	324009984	21	5208
2026-01-17 11:44:50.77	5.59	41.75	-30.6	-33.4	19.5	6.05e-01	0	43	0	325582848	22	4982
2026-01-17 11:44:51.77	5.30	41.47	-30.6	-33.4	19.5	6.06e-01	0	43	0	327680000	22	4952
2026-01-17 11:44:52.77	5.02	41.19	-30.7	-33.7	19.3	6.07e-01	0	44	0	329252864	22	5071
2026-01-17 11:44:53.77	4.75	40.91	-30.6	-33.3	19.6	6.06e-01	0	43	0	331350016	22	4920
2026-01-17 11:44:54.77	4.48	40.63	-30.6	-33.3	19.5	6.07e-01	0	43	0	333447168	22	4928
2026-01-17 11:44:55.77	4.21	40.36	-30.6	-33.5	19.5	6.07e-01	0	43	0	335020032	22	4999
2026-01-17 11:44:56.77	3.95	40.08	-30.7	-33.6	19.4	6.08e-01	0	43	0	337117184	22	5041
2026-01-17 11:44:57.78	3.69	39.80	-30.8	-33.9	19.2	6.06e-01	0	43	0	338690048	22	5147
2026-01-17 11:44:58.78	3.44	39.53	-30.9	-34.2	19.0	6.06e-01	0	43	0	340787200	22	5269
2026-01-17 11:44:59.78	3.19	39.26	-31.0	-34.5	18.8	6.05e-01	0	44	0	342360064	22	5382
2026-01-17 11:45:00.79	2.94	38.99	-31.1	-34.2	18.7	6.06e-01	0	43	0	344457216	23	5170
2026-01-17 11:45:01.79	2.71	38.72	-31.2	-34.4	18.6	6.08e-01	0	43	0	346554368	23	5206
2026-01-17 11:45:02.78	2.47	38.46	-31.4	-35.1	18.1	6.06e-01	0	44	0	348127232	23	5496
2026-01-17 11:45:03.77	2.24	38.20	-31.4	-34.9	18.2	6.08e-01	0	43	0	350224384	23	5429
2026-01-17 11:45:04.77	2.02	37.94	-31.2	-34.5	18.5	6.10e-01	0	43	0	351797248	23	5270
2026-01-17 11:45:05.76	1.79	37.68	-31.1	-34.3	18.7	6.08e-01	0	44	0	353894400	23	5182
2026-01-17 11:45:06.77	1.57	37.42	-31.1	-34.3	18.6	6.06e-01	0	43	0	355467264	23	5194
2026-01-17 11:45:07.77	1.36	37.16	-31.0	-33.9	18.8	6.07e-01	0	43	0	357564416	23	5051
2026-01-17 11:45:08.77	1.14	36.91	-31.0	-33.9	18.9	6.06e-01	0	43	0	359661568	23	5041
2026-01-17 11:45:09.78	0.93	36.65	-31.1	-34.3	18.6	6.06e-01	0	43	0	361234432	23	5177
2026-01-17 11:45:10.78	0.72	36.40	-31.0	-33.9	18.9	6.05e-01	0	43	0	363331584	23	5029
2026-01-17 11:45:11.78	0.52	36.15	-30.8	-33.4	19.1	6.08e-01	0	43	0	364904448	23	4874
2026-01-17 11:45:12.78	0.32	35.90	-30.6	-32.8	19.5	6.06e-01	0	43	0	367001600	23	4680
2026-01-17 11:45:13.78	0.12	35.65	-30.4	-32.4	19.7	6.06e-01	0	43	0	368574464	23	4546
2026-01-17 11:45:14.77	359.93	35.41	-30.4	-32.9	19.7	6.07e-01	0	43	0	370671616	22	4818
2026-01-17 11:45:15.78	359.74	35.16	-30.3	-32.7	19.8	6.05e-01	0	43	0	372768768	22	4740
2026-01-17 11:45:16.78	359.55	34.92	-30.4	-33.0	19.7	6.07e-01	0	43	0	374341632	22	4833
2026-01-17 11:45:17.78	359.37	34.68	-30.4	-33.0	19.6	6.07e-01	0	44	0	376438784	22	4852
2026-01-17 11:45:18.77	359.19	34.44	-30.5	-33.1	19.6	6.04e-01	0	43	0	378011648	22	4882
2026-01-17 11:45:19.78	359.01	34.20	-30.2	-32.5	19.9	6.08e-01	0	44	0	380108800	22	4686
2026-01-17 11:45:20.78	358.83	33.97	-29.9	-31.7	20.4	6.07e-01	0	43	0	382205952	22	4412
2026-01-17 11:45:21.77	358.66	33.74	-29.8	-31.8	20.6	6.05e-01	0	43	0	383778816	21	4572
2026-01-17 11:45:22.77	358.49	33.50	-29.7	-31.8	20.6	6.07e-01	0	43	0	385875968	21	4568
2026-01-17 11:45:23.76	358.32	33.27	-29.6	-31.5	20.8	6.06e-01	0	43	0	387448832	21	4485
2026-01-17 11:45:24.76	358.15	33.04	-29.6	-31.6	20.8	6.06e-01	0	43	0	389545984	21	4486
2026-01-17 11:45:25.77	357.99	32.81	-29.7	-31.8	20.7	6.05e-01	0	44	0	391118848	21	4548
2026-01-17 11:45:26.77	357.83	32.59	-29.6	-31.6	20.7	6.05e-01	0	43	0	393216000	21	4488
2026-01-17 11:45:27.77	357.67	32.36	-29.6	-31.4	20.9	6.07e-01	0	43	0	395313152	21	4431
2026-01-17 11:45:28.77	357.51	32.14	-29.6	-31.4	20.8	6.03e-01	0	43	0	396886016	21	4436
2026-01-17 11:45:29.76	357.36	31.92	-29.6	-31.4	20.9	6.00e-01	0	43	0	398983168	21	4431
2026-01-17 11:45:30.77	357.21	31.70	-29.6	-31.5	20.8	6.02e-01	0	44	0	400556032	21	4483
2026-01-17 11:45:31.77	357.06	31.48	-29.5	-31.3	20.9	6.02e-01	0	43	0	402653184	21	4401
2026-01-17 11:45:32.76	356.91	31.27	-29.5	-31.1	21.0	6.02e-01	0	43	0	404226048	21	4368
2026-01-17 11:45:33.76	356.76	31.05	-29.6	-31.4	20.8	6.01e-01	0	43	0	406323200	21	4460
2026-01-17 11:45:34.77	356.62	30.83	-29.5	-31.3	20.9	6.02e-01	0	43	0	408420352	21	4408
2026-01-17 11:45:35.77	356.48	30.62	-29.5	-31.1	21.0	6.04e-01	0	44	0	409993216	21	4371
2026-01-17 11:45:36.76	356.34	30.41	-29.4	-31.0	21.0	6.02e-01	0	43	0	412090368	21	4340
2026-01-17 11:45:37.76	356.20	30.20	-29.5	-31.2	20.9	6.00e-01	0	43	0	413663232	21	4394
2026-01-17 11:45:38.76	356.06	29.99	-29.5	-31.3	20.9	6.04e-01	0	43	0	415760384	21	4401
2026-01-17 11:45:39.76	355.93	29.79	-29.6	-31.5	20.7	6.03e-01	0	43	0	417333248	21	4483
2026-01-17 11:45:40.76	355.80	29.58	-29.6	-31.5	20.7	6.03e-01	0	43	0	419430400	21	4489
2026-01-17 11:45:41.75	355.67	29.38	-29.6	-31.5	20.7	6.04e-01	0	43	0	421003264	21	4491
2026-01-17 11:45:42.75	355.54	29.18	-29.6	-31.6	20.6	6.00e-01	0	43	0	423100416	21	4510
2026-01-17 11:45:43.75	355.41	28.98	-29.6	-31.5	20.6	6.02e-01	0	43	0	425197568	21	4478
2026-01-17 11:45:44.75	355.28	28.78	-29.6	-31.6	20.6	6.00e-01	0	43	0	426770432	21	4510
2026-01-17 11:45:45.75	355.16	28.58	-29.7	-31.7	20.6	6.03e-01	0	43	0	428867584	21	4558
2026-01-17 11:45:46.75	355.04	28.38	-29.8	-31.9	20.5	6.03e-01	0	43	0	430440448	21	4610
2026-01-17 11:45:47.75	354.92	28.19	-29.7	-31.8	20.5	6.02e-01	0	43	0	432537600	21	4569
2026-01-17 11:45:48.75	354.80	27.99	-29.7	-31.7	20.5	6.02e-01	0	43	0	434110464	21	4538
2026-01-17 11:45:49.76	354.68	27.80	-29.8	-31.9	20.4	6.01e-01	0	43	0	436207616	21	4616
2026-01-17 11:45:50.76	354.56	27.61	-29.9	-32.1	20.3	6.02e-01	0	43	0	438304768	21	4679
2026-01-17 11:45:51.77	354.45	27.41	-30.0	-32.5	20.1	6.05e-01	0	44	0	439877632	21	4800
2026-01-17 11:45:52.77	354.33	27.22	-30.0	-32.5	20.1	6.01e-01	0	43	0	441974784	21	4803
2026-01-17 11:45:53.76	354.22	27.04	-30.2	-32.9	19.8	6.02e-01	0	43	0	444071936	21	4945
2026-01-17 11:45:54.76	354.11	26.85	-30.2	-33.1	19.7	5.99e-01	0	43	0	445644800	21	4991
2026-01-17 11:45:55.76	354.00	26.67	-30.3	-33.2	19.7	6.00e-01	0	43	0	447741952	21	5050
2026-01-17 11:45:56.76	353.90	26.48	-30.1	-32.7	19.9	6.00e-01	0	43	0	449314816	21	4875
2026-01-17 11:45:57.76	353.79	26.30	-30.0	-32.4	20.1	6.03e-01	0	44	0	451411968	21	4774
2026-01-17 11:45:58.76	353.69	26.12	-29.9	-32.3	20.1	6.02e-01	0	43	0	452984832	21	4749
2026-01-17 11:45:59.75	353.58	25.94	-29.9	-32.3	20.1	6.06e-01	0	43	0	455081984	21	4733
2026-01-17 11:46:00.75	353.48	25.76	-30.1	-32.7	19.9	6.02e-01	0	43	0	456654848	21	4854
2026-01-17 11:46:01.76	353.38	25.58	-30.1	-32.7	19.9	6.01e-01	0	44	0	458752000	21	4866
2026-01-17 11:46:02.76	353.28	25.40	-30.2	-33.1	19.7	6.02e-01	0	43	0	460849152	21	5017
2026-01-17 11:46:03.76	353.18	25.23	-30.2	-33.0	19.7	6.02e-01	0	44	0	462422016	21	4982
2026-01-17 11:46:04.76	353.08	25.05	-30.4	-33.4	19.5	6.02e-01	0	43	0	464519168	21	5137
2026-01-17 11:46:05.77	352.98	24.88	-30.3	-33.4	19.5	6.02e-01	0	43	0	466092032	21	5125
2026-01-17 11:46:06.77	352.89	24.71	-30.3	-33.3	19.5	6.00e-01	0	44	0	468189184	21	5091
2026-01-17 11:46:07.76	352.79	24.54	-30.4	-33.6	19.4	6.01e-01	0	43	0	470286336	21	5181
2026-01-17 11:46:08.76	352.70	24.37	-30.3	-33.4	19.5	6.00e-01	0	44	0	471859200	21	5131
2026-01-17 11:46:09.76	352.61	24.20	-30.6	-34.0	19.1	6.02e-01	0	43	0	473956352	21	5333
2026-01-17 11:46:10.76	352.52	24.03	-30.4	-33.6	19.3	6.01e-01	0	43	0	475529216	21	5212
2026-01-17 11:46:11.76	352.43	23.87	-30.3	-33.2	19.6	5.99e-01	0	43	0	477626368	21	5054
2026-01-17 11:46:12.76	352.34	23.70	-30.2	-33.0	19.7	6.01e-01	0	43	0	479199232	21	4968
2026-01-17 11:46:13.76	352.25	23.54	-30.2	-33.1	19.6	6.01e-01	0	44	0	481296384	21	5015
2026-01-17 11:46:14.76	352.16	23.37	-30.2	-33.1	19.6	6.00e-01	0	44	0	483393536	21	5031
2026-01-17 11:46:15.76	352.08	23.21	-30.2	-33.1	19.6	6.05e-01	0	43	0	484966400	21	5011
2026-01-17 11:46:16.76	351.99	23.05	-30.3	-33.2	19.5	6.00e-01	0	44	0	487063552	21	5061
2026-01-17 11:46:17.75	351.91	22.89	-30.3	-33.4	19.4	6.05e-01	0	44	0	488636416	21	5117
2026-01-17 11:46:18.75	351.83	22.73	-30.4	-33.6	19.3	6.02e-01	0	43	0	490733568	21	5178
2026-01-17 11:46:19.75	351.75	22.57	-30.3	-33.2	19.6	6.04e-01	0	44	0	492306432	21	5047
2026-01-17 11:46:20.75	351.66	22.42	-30.1	-32.9	19.8	5.99e-01	0	43	0	494403584	21	4932
2026-01-17 11:46:21.75	351.58	22.26	-30.2	-33.1	19.6	6.04e-01	0	44	0	495976448	21	5028
2026-01-17 11:46:22.75	351.50	22.10	-30.3	-33.3	19.5	6.02e-01	0	43	0	498073600	21	5077
2026-01-17 11:46:23.76	351.42	21.95	-30.3	-33.3	19.4	6.02e-01	0	43	0	500170752	21	5116
2026-01-17 11:46:24.75	351.35	21.80	-30.3	-33.3	19.4	6.03e-01	0	43	0	501743616	21	5097
2026-01-17 11:46:25.76	351.27	21.64	-30.4	-33.5	19.3	6.00e-01	0	43	0	503840768	21	5182
2026-01-17 11:46:26.77	351.19	21.49	-30.2	-33.2	19.5	6.01e-01	0	43	0	505937920	21	5056
2026-01-17 11:46:27.77	351.12	21.34	-30.2	-33.1	19.5	6.03e-01	0	43	0	507510784	21	5011
2026-01-17 11:46:28.76	351.04	21.19	-30.3	-33.5	19.3	6.04e-01	0	44	0	509607936	21	5153
2026-01-17 11:46:29.77	350.97	21.04	-30.2	-33.0	19.6	6.02e-01	0	43	0	511180800	21	5008
2026-01-17 11:46:30.76	350.90	20.89	-30.1	-32.9	19.6	5.99e-01	0	43	0	513277952	21	4961
2026-01-17 11:46:31.77	350.82	20.75	-30.1	-32.9	19.6	6.03e-01	0	43	0	514850816	21	4949
2026-01-17 11:46:32.77	350.75	20.60	-30.1	-32.7	19.8	6.04e-01	0	44	0	516947968	21	4888
2026-01-17 11:46:33.76	350.68	20.46	-30.1	-32.9	19.6	6.02e-01	0	43	0	519045120	21	4960
2026-01-17 11:46:34.76	350.61	20.31	-30.1	-32.9	19.6	6.02e-01	0	44	0	520617984	21	4962
2026-01-17 11:46:35.76	350.54	20.17	-30.1	-32.9	19.6	6.02e-01	0	44	0	522715136	21	4963
2026-01-17 11:46:36.76	350.48	20.03	-30.1	-32.9	19.6	6.01e-01	0	43	0	524288000	21	4976
2026-01-17 11:46:37.77	350.41	19.88	-30.2	-33.0	19.6	6.01e-01	0	43	0	526385152	21	5015
2026-01-17 11:46:38.77	350.34	19.74	-30.2	-33.0	19.5	6.02e-01	0	43	0	527958016	21	5010
2026-01-17 11:46:39.77	350.27	19.60	-30.3	-33.4	19.3	6.06e-01	0	43	0	530055168	21	5149
2026-01-17 11:46:40.77	350.21	19.46	-30.2	-33.2	19.4	6.05e-01	0	44	0	532152320	21	5085
2026-01-17 11:46:41.77	350.14	19.32	-30.2	-33.0	19.5	6.02e-01	0	43	0	533725184	21	5007
2026-01-17 11:46:42.77	350.08	19.19	-30.1	-33.0	19.5	6.01e-01	0	43	0	535822336	21	4992
2026-01-17 11:46:43.77	350.01	19.05	-30.1	-32.8	19.6	6.01e-01	0	43	0	537395200	21	4941
2026-01-17 11:46:44.76	349.95	18.92	-30.1	-33.0	19.5	6.07e-01	0	43	0	539492352	21	4995
2026-01-17 11:46:45.75	349.89	18.78	-30.1	-32.9	19.6	6.01e-01	0	44	0	541065216	21	4966
2026-01-17 11:46:46.75	349.83	18.65	-30.1	-32.8	19.6	5.97e-01	0	43	0	543162368	21	4948
2026-01-17 11:46:47.75	349.77	18.51	-30.1	-32.9	19.6	6.01e-01	0	43	0	544735232	21	4966
2026-01-17 11:46:48.75	349.71	18.38	-30.1	-32.8	19.6	6.04e-01	0	43	0	546832384	21	4945
2026-01-17 11:46:49.75	349.65	18.25	-30.1	-32.9	19.6	6.01e-01	0	43	0	548929536	21	4974
2026-01-17 11:46:50.75	349.59	18.12	-30.1	-33.0	19.5	6.00e-01	0	43	0	550502400	21	5007
2026-01-17 11:46:51.76	349.53	17.99	-30.2	-33.1	19.5	6.03e-01	0	43	0	552599552	21	5032
2026-01-17 11:46:52.75	349.47	17.86	-30.3	-33.5	19.2	6.02e-01	0	43	0	554172416	21	5175
2026-01-17 11:46:53.76	349.41	17.73	-30.2	-33.2	19.3	6.00e-01	0	44	0	556269568	21	5098
2026-01-17 11:46:54.76	349.35	17.60	-30.1	-32.8	19.6	6.00e-01	0	43	0	558366720	21	4948
2026-01-17 11:46:55.76	349.30	17.47	-30.1	-32.9	19.5	6.01e-01	0	43	0	559939584	21	4972
2026-01-17 11:46:56.76	349.24	17.34	-30.0	-32.8	19.6	6.03e-01	0	44	0	562036736	21	4934
2026-01-17 11:46:57.76	349.19	17.22	-30.1	-32.9	19.5	6.02e-01	0	43	0	563609600	21	4981
2026-01-17 11:46:58.76	349.13	17.09	-30.1	-33.0	19.5	6.02e-01	0	43	0	565706752	21	5002
2026-01-17 11:46:59.76	349.08	16.97	-30.1	-32.9	19.5	6.02e-01	0	44	0	567803904	21	4976
2026-01-17 11:47:00.76	349.02	16.84	-30.2	-33.2	19.3	6.03e-01	0	43	0	569376768	21	5076
2026-01-17 11:47:01.75	348.97	16.72	-30.2	-33.2	19.3	5.99e-01	0	43	0	571473920	21	5093
2026-01-17 11:47:02.75	348.92	16.60	-30.1	-32.9	19.4	5.99e-01	0	43	0	573046784	21	4979
2026-01-17 11:47:03.75	348.86	16.47	-30.1	-33.0	19.4	6.00e-01	0	43	0	575143936	21	5002
2026-01-17 11:47:04.75	348.81	16.35	-30.1	-32.9	19.5	6.02e-01	0	44	0	576716800	21	4969
2026-01-17 11:47:05.75	348.76	16.23	-30.1	-32.9	19.5	6.03e-01	0	43	0	578813952	21	4965
2026-01-17 11:47:06.74	348.71	16.11	-30.1	-32.8	19.4	6.03e-01	0	43	0	580386816	21	4959
2026-01-17 11:47:07.74	348.66	15.99	-30.1	-32.9	19.4	6.02e-01	0	43	0	582483968	21	4987
2026-01-17 11:47:08.74	348.61	15.87	-30.2	-33.2	19.2	6.02e-01	0	44	0	584581120	21	5106
2026-01-17 11:47:09.74	348.56	15.75	-30.2	-33.4	19.1	6.06e-01	0	43	0	586153984	21	5153
2026-01-17 11:47:10.74	348.51	15.64	-30.1	-33.0	19.3	5.98e-01	0	43	0	588251136	21	5004
2026-01-17 11:47:11.74	348.46	15.52	-30.2	-33.2	19.2	6.03e-01	0	43	0	589824000	21	5090
2026-01-17 11:47:12.74	348.41	15.40	-30.1	-33.1	19.2	6.02e-01	0	44	0	591921152	21	5055
2026-01-17 11:47:13.74	348.36	15.29	-30.1	-33.0	19.3	6.05e-01	0	43	0	593494016	21	5007
2026-01-17 11:47:14.74	348.32	15.17	-30.1	-32.9	19.3	6.04e-01	0	43	0	595591168	21	4997
2026-01-17 11:47:15.74	348.27	15.05	-30.1	-33.0	19.3	6.03e-01	0	44	0	597688320	21	5008
2026-01-17 11:47:16.74	348.22	14.94	-30.0	-32.8	19.4	6.04e-01	0	43	0	599261184	21	4965
2026-01-17 11:47:17.74	348.18	14.83	-30.0	-32.8	19.4	6.02e-01	0	43	0	601358336	21	4943
2026-01-17 11:47:18.74	348.13	14.71	-30.0	-32.7	19.4	5.98e-01	0	43	0	602931200	21	4922
2026-01-17 11:47:19.75	348.08	14.60	-30.1	-32.9	19.3	6.02e-01	0	44	0	605028352	21	4991
2026-01-17 11:47:20.75	348.04	14.49	-30.1	-32.9	19.3	6.03e-01	0	44	0	606601216	21	4989
2026-01-17 11:47:21.75	347.99	14.38	-30.1	-33.0	19.3	6.00e-01	0	43	0	608698368	21	5024
2026-01-17 11:47:22.75	347.95	14.26	-30.2	-33.3	19.1	6.02e-01	0	44	0	610795520	21	5129
2026-01-17 11:47:23.75	347.91	14.15	-30.2	-33.3	19.1	5.99e-01	0	43	0	612368384	21	5130
2026-01-17 11:47:24.74	347.86	14.05	-30.1	-33.1	19.2	6.01e-01	0	43	0	614465536	21	5071
2026-01-17 11:47:25.74	347.82	13.94	-30.3	-33.5	18.9	6.02e-01	0	44	0	616038400	21	5234
2026-01-17 11:47:26.74	347.78	13.83	-30.3	-33.4	19.0	6.02e-01	0	43	0	618135552	21	5194
2026-01-17 11:47:27.75	347.73	13.72	-30.1	-33.1	19.1	6.02e-01	0	43	0	620232704	21	5079
2026-01-17 11:47:28.75	347.69	13.61	-30.1	-33.1	19.1	6.02e-01	0	43	0	621805568	21	5076
2026-01-17 11:47:29.76	347.65	13.50	-30.1	-33.1	19.2	6.02e-01	0	44	0	623902720	21	5060
2026-01-17 11:47:30.76	347.61	13.39	-30.3	-33.5	18.9	6.03e-01	0	43	0	625475584	21	5221
2026-01-17 11:47:31.77	347.57	13.29	-30.3	-33.5	18.9	6.01e-01	0	44	0	627572736	21	5208
2026-01-17 11:47:32.77	347.53	13.18	-30.3	-33.7	18.8	6.05e-01	0	43	0	629669888	21	5283
2026-01-17 11:47:33.78	347.48	13.07	-30.3	-33.5	18.9	6.06e-01	0	43	0	631242752	21	5219
2026-01-17 11:47:34.78	347.44	12.97	-30.1	-33.2	19.1	6.03e-01	0	43	0	633339904	21	5103
2026-01-17 11:47:35.78	347.40	12.87	-30.0	-32.9	19.2	6.03e-01	0	44	0	634912768	21	5013
2026-01-17 11:47:36.79	347.37	12.76	-30.1	-33.2	19.0	6.00e-01	0	44	0	637009920	21	5111
2026-01-17 11:47:37.79	347.33	12.66	-30.1	-33.0	19.1	6.00e-01	0	44	0	638582784	21	5055
2026-01-17 11:47:38.79	347.29	12.55	-30.1	-33.1	19.0	6.04e-01	0	44	0	640679936	21	5079
2026-01-17 11:47:39.79	347.25	12.45	-30.1	-33.0	19.1	6.04e-01	0	43	0	642777088	21	5039
2026-01-17 11:47:40.79	347.21	12.35	-30.1	-33.1	19.0	6.01e-01	0	43	0	644349952	21	5091
2026-01-17 11:47:41.80	347.17	12.25	-30.1	-33.2	19.0	6.00e-01	0	44	0	646447104	21	5104
2026-01-17 11:47:42.81	347.14	12.14	-30.1	-33.2	19.0	6.01e-01	0	43	0	648019968	21	5111
2026-01-17 11:47:43.81	347.10	12.04	-30.1	-33.0	19.1	6.04e-01	0	44	0	650117120	21	5057
2026-01-17 11:47:44.81	347.06	11.94	-30.1	-33.0	19.1	6.02e-01	0	44	0	652214272	21	5062
2026-01-17 11:47:45.82	347.02	11.84	-30.1	-33.1	19.1	6.01e-01	0	44	0	653787136	21	5070
2026-01-17 11:47:46.83	346.99	11.74	-30.4	-33.8	18.6	6.02e-01	0	44	0	655884288	21	5354
2026-01-17 11:47:47.83	346.95	11.64	-30.3	-33.7	18.6	6.04e-01	0	44	0	657457152	21	5330
2026-01-17 11:47:48.83	346.92	11.55	-30.4	-33.9	18.5	6.03e-01	0	43	0	659554304	21	5408
2026-01-17 11:47:49.83	346.88	11.45	-30.3	-33.8	18.5	6.03e-01	0	44	0	661651456	21	5350
2026-01-17 11:47:50.82	346.85	11.35	-30.2	-33.5	18.7	6.04e-01	0	43	0	663224320	21	5242
2026-01-17 11:47:51.82	346.81	11.25	-30.2	-33.5	18.7	6.05e-01	0	43	0	665321472	21	5245
2026-01-17 11:47:52.82	346.78	11.16	-30.2	-33.4	18.8	6.02e-01	0	44	0	666894336	21	5187
2026-01-17 11:47:53.83	346.74	11.06	-30.3	-33.7	18.6	6.03e-01	0	43	0	668991488	21	5328
2026-01-17 11:47:54.83	346.71	10.96	-30.3	-33.8	18.6	6.01e-01	0	43	0	670564352	21	5343
2026-01-17 11:47:55.83	346.67	10.87	-30.3	-33.6	18.6	6.03e-01	0	44	0	672661504	21	5295
2026-01-17 11:47:56.83	346.64	10.77	-30.4	-34.1	18.3	6.02e-01	0	44	0	674758656	21	5478
2026-01-17 11:47:57.83	346.61	10.68	-30.2	-33.6	18.6	6.01e-01	0	43	0	676331520	21	5278
2026-01-17 11:47:58.83	346.57	10.58	-30.3	-33.7	18.6	6.04e-01	0	43	0	678428672	21	5328
2026-01-17 11:47:59.83	346.54	10.49	-30.3	-33.8	18.5	6.01e-01	0	43	0	680001536	21	5357
2026-01-17 11:48:00.83	346.51	10.40	-30.5	-34.2	18.3	6.01e-01	0	44	0	682098688	21	5512
2026-01-17 11:48:01.83	346.48	10.30	-30.3	-33.7	18.4	6.05e-01	0	43	0	683671552	21	5349
2026-01-17 11:48:02.83	346.45	10.21	-30.2	-33.6	18.6	6.03e-01	0	44	0	685768704	21	5285
2026-01-17 11:48:03.83	346.41	10.12	-30.3	-33.8	18.5	5.99e-01	0	43	0	687865856	21	5379
2026-01-17 11:48:04.83	346.38	10.03	-30.3	-33.7	18.5	6.05e-01	0	44	0	689438720	21	5324
2026-01-17 11:48:05.83	346.35	9.94	-30.2	-33.6	18.6	6.02e-01	0	44	0	691535872	21	5283
2026-01-17 11:48:06.83	346.32	9.84	-30.3	-33.9	18.4	6.02e-01	0	44	0	693108736	21	5402
2026-01-17 11:48:07.84	346.29	9.75	-30.2	-33.5	18.6	6.01e-01	0	44	0	695205888	21	5265
2026-01-17 11:48:08.83	346.26	9.66	-30.4	-33.9	18.3	6.00e-01	0	44	0	697303040	21	5412
2026-01-17 11:48:09.83	346.23	9.57	-30.2	-33.6	18.5	6.02e-01	0	44	0	698875904	21	5293
2026-01-17 11:48:10.82	346.20	9.48	-30.4	-34.0	18.2	6.02e-01	0	44	0	700973056	21	5463
2026-01-17 11:48:11.83	346.17	9.39	-30.3	-33.8	18.4	6.02e-01	0	44	0	702545920	21	5381
2026-01-17 11:48:12.83	346.14	9.30	-30.4	-34.1	18.1	6.01e-01	0	44	0	704643072	21	5518
2026-01-17 11:48:13.83	346.11	9.22	-30.4	-33.9	18.3	6.06e-01	0	44	0	706215936	21	5417
2026-01-17 11:48:14.83	346.08	9.13	-30.3	-33.8	18.3	6.01e-01	0	44	0	708313088	21	5390
2026-01-17 11:48:15.84	346.05	9.04	-30.3	-33.9	18.3	6.04e-01	0	44	0	710410240	21	5402
2026-01-17 11:48:16.84	346.02	8.95	-30.3	-33.8	18.3	6.03e-01	0	44	0	711983104	21	5372
2026-01-17 11:48:17.85	345.99	8.86	-30.4	-34.2	18.1	6.03e-01	0	43	0	714080256	21	5536
2026-01-17 11:48:18.85	345.97	8.77	-30.3	-33.8	18.3	6.01e-01	0	43	0	715653120	21	5372
2026-01-17 11:48:19.85	345.94	8.69	-30.4	-34.2	18.0	6.03e-01	0	43	0	717750272	21	5540
2026-01-17 11:48:20.85	345.91	8.60	-30.6	-34.2	17.8	6.02e-01	0	44	0	719323136	22	5456
2026-01-17 11:48:21.86	345.88	8.51	-30.4	-33.6	18.1	6.04e-01	0	44	0	721420288	22	5199
2026-01-17 11:48:22.86	345.85	8.43	-30.4	-33.7	18.0	6.03e-01	0	44	0	723517440	22	5230
2026-01-17 11:48:23.86	345.83	8.34	-30.5	-33.9	17.9	5.99e-01	0	43	0	725090304	22	5303
2026-01-17 11:48:24.87	345.80	8.26	-30.5	-33.8	17.9	6.00e-01	0	44	0	727187456	22	5293
2026-01-17 11:48:25.86	345.77	8.17	-30.5	-33.8	17.9	6.02e-01	0	44	0	728760320	22	5291
2026-01-17 11:48:26.86	345.75	8.09	-30.8	-34.7	17.3	6.02e-01	0	44	0	730857472	22	5650
2026-01-17 11:48:27.86	345.72	8.00	-30.8	-34.7	17.4	6.02e-01	0	44	0	732954624	22	5639
2026-01-17 11:48:28.86	345.69	7.92	-30.6	-34.1	17.7	6.05e-01	0	44	0	734527488	22	5410
2026-01-17 11:48:29.86	345.67	7.84	-31.0	-35.5	16.8	6.05e-01	0	44	0	736624640	22	6003
2026-01-17 11:48:30.86	345.64	7.75	-30.9	-35.0	17.0	6.02e-01	0	44	0	738197504	22	5800
2026-01-17 11:48:31.87	345.62	7.67	-30.9	-35.2	16.9	6.03e-01	0	43	0	740294656	22	5902
2026-01-17 11:48:32.87	345.59	7.59	-30.8	-34.8	17.2	5.99e-01	0	44	0	742391808	22	5698
2026-01-17 11:48:33.86	345.57	7.51	-30.8	-34.9	17.1	6.03e-01	0	43	0	743964672	22	5776
2026-01-17 11:48:34.87	345.54	7.42	-30.7	-34.6	17.3	6.03e-01	0	44	0	746061824	22	5642
2026-01-17 11:48:35.87	345.51	7.34	-31.0	-35.3	16.8	6.01e-01	0	44	0	747634688	22	5940
2026-01-17 11:48:36.87	345.49	7.26	-31.0	-35.3	16.8	6.02e-01	0	44	0	749731840	22	5955
2026-01-17 11:48:37.87	345.47	7.18	-31.0	-35.4	16.8	6.01e-01	0	43	0	751304704	22	5988
2026-01-17 11:48:38.87	345.44	7.10	-30.9	-35.3	16.8	6.02e-01	0	44	0	753401856	22	5950
2026-01-17 11:48:39.87	345.42	7.02	-33.5	-46.0	4.3	7.30e-01	0	44	104	754450432	28	15137
2026-01-17 11:48:40.87	345.39	6.94	-34.0	-52.2	3.9	7.46e-01	0	44	104	754450432	28	29059
2026-01-17 11:48:41.87	345.37	6.86	-34.3	-53.5	3.8	7.42e-01	0	44	104	754450432	29	32816

#Closed at: 2026-01-17 11:48:42
#Recorded file [754 MB]: D:/data/31010_260117_144156.dat