passes_logs/2026/01/17/R2M6_AANII_01/R2M6_AANII_01__20260117_045717_FENGYUN_3D_rec.log

#Pass ID: 20260117_045717_FENGYUN 3D
#Satellite: FENGYUN 3D
#Configuration: FENGYUN 3D
#almurnet v.1.7.20240730
#Start time: 2026-01-17 04:57:17

#Version: 2.2.20231116
#Station: R2M6_AANII_01
#Location: 30.233357 lon 59.946436 lat
#TLE: 1 43010U 17072A   26016.27214855  .00000192  00000+0  11235-3 0  9990
#TLE: 2 43010  98.9932 348.1078 0002365 105.5031 254.6406 14.19695933423435

#Time	Az	El	Level	Level2	SNR	BER	BlckErr	Temp	State	Recorded	gain1	gain2
2026-01-17 04:57:17.42	9.31	7.02	-31.3	-36.3	4.4	8.30e-01	0	41	0	0	24	6401
2026-01-17 04:57:18.42	9.19	7.07	-30.4	-33.9	5.0	7.94e-01	0	41	104	0	22	5400
2026-01-17 04:57:19.42	9.08	7.13	-30.4	-34.0	7.6	7.59e-02	0	41	0	0	22	5432
2026-01-17 04:57:20.43	8.97	7.18	-30.4	-33.7	7.9	7.76e-02	0	41	0	5242880	22	5301
2026-01-17 04:57:21.43	8.85	7.24	-30.4	-34.4	7.7	6.52e-02	0	41	0	11534336	21	5721
2026-01-17 04:57:22.43	8.74	7.29	-30.4	-34.3	7.8	7.06e-02	0	41	0	16777216	21	5650
2026-01-17 04:57:23.43	8.62	7.35	-30.5	-34.6	7.6	6.94e-02	0	41	0	22020096	21	5781
2026-01-17 04:57:24.44	8.51	7.40	-30.5	-34.8	7.5	9.31e-02	0	41	0	28311552	21	5897
2026-01-17 04:57:25.44	8.39	7.46	-30.4	-34.3	7.8	8.37e-02	0	41	0	33554432	21	5653
2026-01-17 04:57:26.45	8.27	7.51	-30.5	-34.7	7.6	8.14e-02	0	41	0	38797312	21	5822
2026-01-17 04:57:27.46	8.15	7.57	-30.4	-34.2	7.9	6.39e-02	0	41	0	45088768	21	5621
2026-01-17 04:57:28.45	8.04	7.63	-30.7	-35.3	7.2	8.53e-02	0	41	0	50331648	21	6114
2026-01-17 04:57:29.45	7.92	7.68	-30.6	-34.9	7.5	1.34e-01	0	41	0	55574528	21	5915
2026-01-17 04:57:30.45	7.80	7.74	-30.2	-33.6	8.3	5.79e-02	0	41	0	61865984	21	5338
2026-01-17 04:57:31.46	7.68	7.79	-29.6	-32.3	9.6	1.38e-02	0	41	0	67108864	20	4945
2026-01-17 04:57:32.46	7.56	7.85	-29.0	-31.2	10.8	3.24e-03	0	41	0	73400320	19	4632
2026-01-17 04:57:33.46	7.44	7.90	-28.6	-30.6	11.5	6.44e-04	0	41	0	78643200	18	4539
2026-01-17 04:57:34.46	7.32	7.96	-28.0	-29.7	12.4	1.58e-04	0	41	0	83886080	17	4372
2026-01-17 04:57:35.46	7.20	8.01	-28.3	-30.3	12.0	2.24e-04	0	41	0	90177536	17	4562
2026-01-17 04:57:36.45	7.08	8.07	-28.2	-30.2	12.1	2.20e-04	0	41	0	95420416	17	4523
2026-01-17 04:57:37.45	6.96	8.12	-28.3	-30.5	11.9	1.73e-04	0	41	0	100663296	17	4600
2026-01-17 04:57:38.45	6.84	8.18	-28.2	-30.2	12.1	1.94e-04	0	42	0	106954752	17	4514
2026-01-17 04:57:39.45	6.72	8.23	-28.0	-29.6	12.4	1.28e-04	0	41	0	112197632	17	4349
2026-01-17 04:57:40.45	6.59	8.29	-28.3	-30.3	12.0	1.72e-04	0	42	0	117440512	17	4555
2026-01-17 04:57:41.45	6.47	8.34	-28.2	-30.2	12.1	2.52e-04	0	42	0	123731968	17	4528
2026-01-17 04:57:42.45	6.35	8.40	-27.9	-29.5	12.6	9.26e-05	0	42	0	128974848	17	4309
2026-01-17 04:57:43.45	6.22	8.45	-27.8	-29.6	12.8	3.20e-05	0	41	0	135266304	16	4440
2026-01-17 04:57:44.46	6.10	8.51	-27.8	-29.6	12.8	1.03e-04	0	42	0	140509184	16	4436
2026-01-17 04:57:45.46	5.97	8.57	-27.3	-28.5	13.4	1.14e-05	0	42	0	145752064	16	4127
2026-01-17 04:57:46.46	5.85	8.62	-27.1	-28.4	13.6	2.20e-06	0	42	0	152043520	15	4227
2026-01-17 04:57:47.46	5.72	8.68	-27.0	-28.3	13.7	3.40e-06	0	41	0	157286400	15	4181
2026-01-17 04:57:48.46	5.59	8.73	-26.9	-28.2	13.8	3.40e-06	0	42	0	162529280	15	4148
2026-01-17 04:57:49.45	5.47	8.79	-27.2	-28.7	13.5	6.80e-06	0	42	0	168820736	15	4300
2026-01-17 04:57:50.46	5.34	8.84	-27.3	-28.9	13.3	8.00e-06	0	42	0	174063616	15	4351
2026-01-17 04:57:51.46	5.21	8.90	-27.0	-28.2	13.7	1.25e-05	0	42	0	179306496	15	4165
2026-01-17 04:57:52.46	5.08	8.95	-27.2	-28.9	13.4	6.80e-06	0	42	0	185597952	15	4350
2026-01-17 04:57:53.46	4.95	9.01	-27.1	-28.6	13.5	6.80e-06	0	42	0	190840832	15	4261
2026-01-17 04:57:54.46	4.82	9.06	-27.0	-28.3	13.7	2.20e-06	0	42	0	197132288	15	4196
2026-01-17 04:57:55.46	4.69	9.12	-27.0	-28.3	13.8	1.10e-06	0	42	0	202375168	15	4168
2026-01-17 04:57:56.47	4.56	9.17	-26.9	-28.1	13.9	1.10e-06	0	42	0	207618048	15	4121
2026-01-17 04:57:57.47	4.43	9.23	-27.1	-28.5	13.6	6.80e-06	0	42	0	213909504	15	4234
2026-01-17 04:57:58.47	4.30	9.28	-27.2	-28.7	13.5	1.10e-06	0	42	0	219152384	15	4282
2026-01-17 04:57:59.46	4.16	9.34	-27.2	-28.9	13.4	5.70e-06	0	42	0	224395264	15	4334
2026-01-17 04:58:00.47	4.03	9.39	-27.0	-28.3	13.7	3.40e-06	0	42	0	230686720	15	4185
2026-01-17 04:58:01.47	3.90	9.45	-26.4	-27.5	14.6	0.00e+00	0	42	0	235929600	14	4073
2026-01-17 04:58:02.47	3.76	9.50	-26.3	-27.2	14.7	0.00e+00	0	42	0	241172480	14	3995
2026-01-17 04:58:03.48	3.63	9.56	-26.5	-27.5	14.5	0.00e+00	0	42	0	247463936	14	4075
2026-01-17 04:58:04.48	3.49	9.61	-26.3	-27.3	14.7	0.00e+00	0	42	0	252706816	14	4019
2026-01-17 04:58:05.49	3.36	9.67	-26.6	-27.8	14.4	0.00e+00	0	42	0	258998272	14	4140
2026-01-17 04:58:06.49	3.22	9.72	-26.5	-27.6	14.5	0.00e+00	0	42	0	264241152	14	4085
2026-01-17 04:58:07.50	3.08	9.78	-26.3	-27.8	14.7	0.00e+00	0	42	0	270532608	13	4244
2026-01-17 04:58:08.50	2.94	9.83	-26.5	-28.0	14.5	0.00e+00	0	42	0	275775488	13	4318
2026-01-17 04:58:09.50	2.81	9.89	-26.4	-27.8	14.7	1.10e-06	0	42	0	281018368	13	4258
2026-01-17 04:58:10.50	2.67	9.94	-26.3	-27.6	14.8	0.00e+00	0	42	0	287309824	13	4196
2026-01-17 04:58:11.51	2.53	10.00	-26.4	-28.0	14.6	0.00e+00	0	42	0	292552704	13	4299
2026-01-17 04:58:12.50	2.39	10.05	-26.2	-27.5	14.9	0.00e+00	0	42	0	297795584	13	4158
2026-01-17 04:58:13.50	2.25	10.11	-26.6	-28.3	14.4	0.00e+00	0	42	0	304087040	13	4405
2026-01-17 04:58:14.50	2.11	10.16	-26.3	-27.7	14.7	0.00e+00	0	42	0	309329920	13	4217
2026-01-17 04:58:15.50	1.97	10.22	-26.3	-27.7	14.7	0.00e+00	0	42	0	314572800	13	4239
2026-01-17 04:58:16.50	1.83	10.27	-26.2	-27.5	14.9	0.00e+00	0	42	0	320864256	13	4179
2026-01-17 04:58:17.50	1.69	10.32	-26.2	-27.5	14.9	0.00e+00	0	42	0	326107136	13	4181
2026-01-17 04:58:18.51	1.54	10.38	-26.2	-27.6	14.8	1.10e-06	0	42	0	332398592	13	4190
2026-01-17 04:58:19.52	1.40	10.43	-26.3	-27.7	14.8	0.00e+00	0	42	0	337641472	13	4225
2026-01-17 04:58:20.52	1.26	10.49	-26.2	-27.5	14.9	0.00e+00	0	42	0	343932928	13	4175
2026-01-17 04:58:21.53	1.11	10.54	-26.2	-27.5	14.8	0.00e+00	0	42	0	349175808	13	4184
2026-01-17 04:58:22.52	0.97	10.60	-26.3	-27.7	14.8	1.10e-06	0	42	0	354418688	13	4214
2026-01-17 04:58:23.52	0.82	10.65	-26.3	-27.6	14.8	0.00e+00	0	42	0	359661568	13	4195
2026-01-17 04:58:24.51	0.68	10.70	-26.3	-27.8	14.7	0.00e+00	0	42	0	365953024	13	4244
2026-01-17 04:58:25.52	0.53	10.76	-26.6	-28.4	14.4	0.00e+00	0	42	0	371195904	13	4413
2026-01-17 04:58:26.53	0.38	10.81	-26.5	-28.1	14.6	1.10e-06	0	42	0	377487360	13	4323
2026-01-17 04:58:27.52	0.24	10.87	-26.1	-27.2	15.1	0.00e+00	0	42	0	382730240	13	4077
2026-01-17 04:58:28.52	0.09	10.92	-26.2	-27.4	15.0	0.00e+00	0	42	0	387973120	13	4142
2026-01-17 04:58:29.53	359.94	10.97	-26.2	-27.4	15.0	0.00e+00	0	42	0	394264576	13	4150
2026-01-17 04:58:30.54	359.79	11.03	-26.2	-27.4	15.0	1.10e-06	0	42	0	399507456	13	4142
2026-01-17 04:58:31.53	359.64	11.08	-26.3	-27.8	14.8	0.00e+00	0	42	0	405798912	13	4248
2026-01-17 04:58:32.54	359.49	11.13	-26.1	-27.3	15.1	0.00e+00	0	43	0	411041792	13	4104
2026-01-17 04:58:33.54	359.34	11.19	-26.4	-27.9	14.7	0.00e+00	0	42	0	416284672	13	4278
2026-01-17 04:58:34.54	359.19	11.24	-26.3	-27.7	14.8	1.10e-06	0	42	0	422576128	13	4235
2026-01-17 04:58:35.55	359.03	11.30	-26.2	-27.5	15.0	0.00e+00	0	43	0	427819008	13	4172
2026-01-17 04:58:36.55	358.88	11.35	-26.0	-27.1	15.2	0.00e+00	0	42	0	433061888	13	4051
2026-01-17 04:58:37.55	358.73	11.40	-25.9	-26.8	15.4	0.00e+00	0	43	0	439353344	13	3991
2026-01-17 04:58:38.55	358.57	11.45	-25.8	-27.0	15.6	0.00e+00	0	42	0	444596224	12	4141
2026-01-17 04:58:39.55	358.42	11.51	-25.7	-26.9	15.6	0.00e+00	0	42	0	449839104	12	4118
2026-01-17 04:58:40.55	358.27	11.56	-25.9	-27.2	15.4	0.00e+00	0	43	0	456130560	12	4209
2026-01-17 04:58:41.56	358.11	11.61	-25.9	-27.2	15.4	0.00e+00	0	42	0	461373440	12	4197
2026-01-17 04:58:42.56	357.95	11.67	-25.9	-27.3	15.3	0.00e+00	0	42	0	467664896	12	4231
2026-01-17 04:58:43.56	357.80	11.72	-25.9	-27.2	15.4	0.00e+00	0	43	0	472907776	12	4189
2026-01-17 04:58:44.57	357.64	11.77	-25.8	-27.0	15.6	0.00e+00	0	43	0	478150656	12	4137
2026-01-17 04:58:45.57	357.48	11.82	-25.9	-27.2	15.5	0.00e+00	0	43	0	484442112	12	4201
2026-01-17 04:58:46.58	357.32	11.88	-25.8	-27.0	15.6	0.00e+00	0	43	0	489684992	12	4134
2026-01-17 04:58:47.58	357.16	11.93	-26.2	-28.0	15.0	0.00e+00	0	42	0	495976448	12	4402
2026-01-17 04:58:48.57	357.00	11.98	-25.8	-27.1	15.5	0.00e+00	0	43	0	501219328	12	4165
2026-01-17 04:58:49.58	356.84	12.03	-25.5	-26.4	15.9	0.00e+00	0	42	0	506462208	12	3989
2026-01-17 04:58:50.59	356.68	12.08	-25.7	-26.8	15.7	0.00e+00	0	42	0	512753664	12	4077
2026-01-17 04:58:51.59	356.52	12.13	-25.7	-26.9	15.6	0.00e+00	0	42	0	517996544	12	4125
2026-01-17 04:58:52.59	356.36	12.19	-25.6	-26.6	15.8	0.00e+00	0	43	0	523239424	12	4038
2026-01-17 04:58:53.59	356.20	12.24	-25.7	-26.9	15.6	0.00e+00	0	43	0	529530880	12	4117
2026-01-17 04:58:54.59	356.03	12.29	-25.8	-27.0	15.6	0.00e+00	0	42	0	534773760	12	4142
2026-01-17 04:58:55.59	355.87	12.34	-25.8	-26.9	15.6	0.00e+00	0	43	0	541065216	12	4130
2026-01-17 04:58:56.59	355.71	12.39	-25.8	-27.1	15.5	0.00e+00	0	43	0	546308096	12	4175
2026-01-17 04:58:57.59	355.54	12.44	-25.8	-27.1	15.5	0.00e+00	0	43	0	551550976	12	4179
2026-01-17 04:58:58.59	355.38	12.49	-25.8	-26.9	15.6	0.00e+00	0	42	0	557842432	12	4121
2026-01-17 04:58:59.60	355.21	12.54	-25.7	-26.8	15.7	0.00e+00	0	43	0	563085312	12	4103
2026-01-17 04:59:00.60	355.04	12.59	-25.6	-26.6	15.8	0.00e+00	0	43	0	568328192	12	4035
2026-01-17 04:59:01.59	354.88	12.64	-25.5	-26.4	15.9	0.00e+00	0	43	0	574619648	12	3993
2026-01-17 04:59:02.60	354.71	12.69	-25.3	-26.0	16.1	0.00e+00	0	43	0	579862528	12	3890
2026-01-17 04:59:03.61	354.54	12.75	-25.4	-26.2	16.0	0.00e+00	0	43	0	585105408	12	3940
2026-01-17 04:59:04.61	354.37	12.80	-25.4	-26.3	16.0	0.00e+00	0	43	0	591396864	12	3956
2026-01-17 04:59:05.61	354.20	12.85	-25.4	-26.2	16.0	0.00e+00	0	43	0	596639744	12	3933
2026-01-17 04:59:06.62	354.03	12.90	-25.6	-26.6	15.8	0.00e+00	0	43	0	602931200	12	4030
2026-01-17 04:59:07.62	353.86	12.94	-25.5	-26.3	16.0	0.00e+00	0	43	0	608174080	12	3962
2026-01-17 04:59:08.62	353.69	12.99	-25.8	-26.9	15.6	0.00e+00	0	43	0	613416960	12	4122
2026-01-17 04:59:09.62	353.52	13.04	-25.7	-26.9	15.7	0.00e+00	0	43	0	619708416	12	4106
2026-01-17 04:59:10.62	353.35	13.09	-25.5	-26.4	16.0	0.00e+00	0	43	0	624951296	12	3978
2026-01-17 04:59:11.62	353.17	13.14	-25.4	-26.5	16.2	0.00e+00	0	43	0	630194176	11	4130
2026-01-17 04:59:12.62	353.00	13.19	-25.5	-26.9	16.0	0.00e+00	0	43	0	636485632	11	4211
2026-01-17 04:59:13.62	352.83	13.24	-25.6	-27.1	15.9	0.00e+00	0	43	0	641728512	11	4274
2026-01-17 04:59:14.62	352.65	13.29	-26.1	-27.7	15.2	0.00e+00	0	43	0	646971392	12	4326
2026-01-17 04:59:15.62	352.48	13.34	-25.6	-26.6	15.9	0.00e+00	0	43	0	653262848	12	4033
2026-01-17 04:59:16.63	352.30	13.38	-25.8	-26.9	15.7	0.00e+00	0	43	0	658505728	12	4116
2026-01-17 04:59:17.63	352.12	13.43	-26.5	-28.1	14.8	0.00e+00	0	43	0	664797184	13	4322
2026-01-17 04:59:18.63	351.95	13.48	-26.2	-27.5	15.1	1.10e-06	0	43	0	670040064	13	4159
2026-01-17 04:59:19.63	351.77	13.53	-25.9	-26.8	15.5	0.00e+00	0	43	0	676331520	13	3971
2026-01-17 04:59:20.64	351.59	13.57	-26.4	-28.0	14.8	0.00e+00	0	43	0	681574400	13	4290
2026-01-17 04:59:21.63	351.41	13.62	-25.8	-26.6	15.6	0.00e+00	0	43	0	686817280	13	3925
2026-01-17 04:59:22.64	351.23	13.67	-25.5	-26.4	16.0	1.10e-06	0	43	0	693108736	12	3981
2026-01-17 04:59:23.64	351.05	13.72	-26.3	-28.0	15.1	0.00e+00	0	43	0	698351616	12	4407
2026-01-17 04:59:24.64	350.87	13.76	-26.4	-28.3	14.9	0.00e+00	0	43	0	703594496	12	4482
2026-01-17 04:59:25.65	350.69	13.81	-26.4	-28.0	14.8	0.00e+00	0	43	0	709885952	13	4286
2026-01-17 04:59:26.65	350.51	13.85	-26.0	-27.0	15.4	0.00e+00	0	43	0	715128832	13	4041
2026-01-17 04:59:27.66	350.33	13.90	-25.6	-26.5	16.0	0.00e+00	0	43	0	721420288	12	4017
2026-01-17 04:59:28.66	350.14	13.95	-25.4	-26.2	16.1	0.00e+00	0	43	0	726663168	12	3938
2026-01-17 04:59:29.66	349.96	13.99	-25.5	-26.4	16.0	0.00e+00	0	43	0	731906048	12	3986
2026-01-17 04:59:30.66	349.78	14.04	-25.4	-26.2	16.1	0.00e+00	0	43	0	738197504	12	3926
2026-01-17 04:59:31.66	349.59	14.08	-25.2	-26.3	16.4	0.00e+00	0	43	0	743440384	11	4049
2026-01-17 04:59:32.66	349.41	14.13	-25.2	-26.1	16.5	0.00e+00	0	43	0	748683264	11	4000
2026-01-17 04:59:33.66	349.22	14.17	-25.2	-26.1	16.5	0.00e+00	0	43	0	754974720	11	4016
2026-01-17 04:59:34.66	349.04	14.22	-25.2	-26.2	16.4	0.00e+00	0	43	0	760217600	11	4044
2026-01-17 04:59:35.66	348.85	14.26	-25.2	-26.3	16.4	0.00e+00	0	43	0	765460480	11	4051
2026-01-17 04:59:36.67	348.66	14.31	-25.2	-26.2	16.4	0.00e+00	0	43	0	771751936	11	4042
2026-01-17 04:59:37.67	348.47	14.35	-25.2	-26.3	16.4	0.00e+00	0	43	0	776994816	11	4059
2026-01-17 04:59:38.66	348.29	14.39	-25.3	-26.3	16.4	0.00e+00	0	43	0	783286272	11	4062
2026-01-17 04:59:39.66	348.10	14.44	-25.4	-26.6	16.2	0.00e+00	0	43	0	788529152	11	4132
2026-01-17 04:59:40.66	347.91	14.48	-25.4	-26.6	16.2	0.00e+00	0	43	0	793772032	11	4139
2026-01-17 04:59:41.66	347.72	14.52	-25.4	-26.5	16.3	0.00e+00	0	43	0	800063488	11	4126
2026-01-17 04:59:42.66	347.53	14.57	-25.4	-26.6	16.3	0.00e+00	0	43	0	805306368	11	4134
2026-01-17 04:59:43.66	347.34	14.61	-25.4	-26.5	16.3	0.00e+00	0	43	0	810549248	11	4116
2026-01-17 04:59:44.66	347.15	14.65	-25.3	-26.4	16.4	0.00e+00	0	43	0	816840704	11	4094
2026-01-17 04:59:45.67	346.95	14.69	-25.1	-26.1	16.5	0.00e+00	0	43	0	822083584	11	3999
2026-01-17 04:59:46.67	346.76	14.73	-25.2	-26.1	16.5	0.00e+00	0	43	0	828375040	11	4005
2026-01-17 04:59:47.67	346.57	14.78	-25.1	-25.9	16.6	0.00e+00	0	43	0	833617920	11	3967
2026-01-17 04:59:48.67	346.37	14.82	-25.1	-25.9	16.6	0.00e+00	0	43	0	838860800	11	3952
2026-01-17 04:59:49.68	346.18	14.86	-24.9	-25.6	16.8	0.00e+00	0	43	0	845152256	11	3886
2026-01-17 04:59:50.69	345.98	14.90	-25.1	-26.0	16.6	0.00e+00	0	43	0	850395136	11	3983
2026-01-17 04:59:51.69	345.79	14.94	-25.0	-25.8	16.7	0.00e+00	0	43	0	856686592	11	3933
2026-01-17 04:59:52.69	345.59	14.98	-24.9	-25.6	16.8	0.00e+00	0	43	0	861929472	11	3877
2026-01-17 04:59:53.69	345.39	15.02	-25.0	-25.7	16.7	0.00e+00	0	43	0	867172352	11	3913
2026-01-17 04:59:54.69	345.20	15.06	-25.1	-26.1	16.5	0.00e+00	0	43	0	873463808	11	4002
2026-01-17 04:59:55.70	345.00	15.10	-25.0	-25.8	16.8	0.00e+00	0	43	0	878706688	11	3929
2026-01-17 04:59:56.71	344.80	15.14	-25.2	-26.1	16.5	0.00e+00	0	43	0	883949568	11	4011
2026-01-17 04:59:57.71	344.60	15.18	-25.0	-25.7	16.8	0.00e+00	0	43	0	890241024	11	3909
2026-01-17 04:59:58.72	344.40	15.22	-24.8	-25.3	17.0	0.00e+00	0	43	0	895483904	11	3808
2026-01-17 04:59:59.72	344.20	15.25	-25.0	-26.2	16.8	0.00e+00	0	43	0	900726784	10	4144
2026-01-17 05:00:00.73	344.00	15.29	-24.9	-26.1	16.8	0.00e+00	0	43	0	907018240	10	4111
2026-01-17 05:00:01.72	343.80	15.33	-25.0	-26.2	16.8	0.00e+00	0	43	0	912261120	10	4136
2026-01-17 05:00:02.72	343.60	15.37	-24.8	-25.8	17.0	0.00e+00	0	43	0	918552576	10	4041
2026-01-17 05:00:03.73	343.39	15.40	-24.8	-25.9	16.9	0.00e+00	0	43	0	923795456	10	4064
2026-01-17 05:00:04.73	343.19	15.44	-24.8	-25.7	17.0	0.00e+00	0	43	0	930086912	10	4027
2026-01-17 05:00:05.74	342.99	15.48	-24.6	-25.4	17.2	0.00e+00	0	43	0	935329792	10	3943
2026-01-17 05:00:06.74	342.78	15.51	-24.6	-25.4	17.2	0.00e+00	0	43	0	940572672	10	3951
2026-01-17 05:00:07.74	342.58	15.55	-24.5	-25.2	17.3	0.00e+00	0	43	0	946864128	10	3904
2026-01-17 05:00:08.74	342.37	15.58	-24.6	-25.3	17.2	0.00e+00	0	43	0	952107008	10	3916
2026-01-17 05:00:09.74	342.17	15.62	-24.5	-25.1	17.3	0.00e+00	0	43	0	957349888	10	3868
2026-01-17 05:00:10.74	341.96	15.65	-24.4	-25.1	17.4	0.00e+00	0	43	0	963641344	10	3859
2026-01-17 05:00:11.74	341.76	15.69	-24.3	-24.8	17.5	0.00e+00	0	43	0	968884224	10	3791
2026-01-17 05:00:12.75	341.55	15.72	-24.4	-25.5	17.4	0.00e+00	0	43	0	974127104	9	4067
2026-01-17 05:00:13.75	341.34	15.76	-24.4	-25.5	17.4	0.00e+00	0	43	0	980418560	9	4083
2026-01-17 05:00:14.75	341.14	15.79	-24.6	-25.9	17.2	0.00e+00	0	43	0	985661440	9	4178
2026-01-17 05:00:15.75	340.93	15.82	-24.3	-25.3	17.5	0.00e+00	0	43	0	991952896	9	4039
2026-01-17 05:00:16.75	340.72	15.86	-24.3	-25.3	17.5	0.00e+00	0	43	0	997195776	9	4033
2026-01-17 05:00:17.76	340.51	15.89	-24.4	-25.5	17.4	0.00e+00	0	43	0	1002438656	9	4073
2026-01-17 05:00:18.76	340.30	15.92	-24.3	-25.1	17.6	0.00e+00	0	43	0	1008730112	9	3985
2026-01-17 05:00:19.76	340.09	15.95	-24.2	-25.0	17.7	0.00e+00	0	43	0	1013972992	9	3961
2026-01-17 05:00:20.77	339.88	15.98	-24.2	-25.0	17.7	0.00e+00	0	43	0	1019215872	9	3954
2026-01-17 05:00:21.77	339.67	16.01	-24.3	-25.3	17.5	0.00e+00	0	43	0	1025507328	9	4028
2026-01-17 05:00:22.77	339.46	16.05	-24.4	-25.5	17.4	0.00e+00	0	43	0	1030750208	9	4065
2026-01-17 05:00:23.77	339.25	16.08	-24.4	-25.6	17.4	0.00e+00	0	43	0	1035993088	9	4092
2026-01-17 05:00:24.77	339.04	16.11	-24.5	-25.7	17.3	0.00e+00	0	43	0	1042284544	9	4120
2026-01-17 05:00:25.78	338.82	16.14	-24.5	-25.6	17.3	0.00e+00	0	43	0	1047527424	9	4102
2026-01-17 05:00:26.79	338.61	16.16	-24.4	-25.5	17.4	0.00e+00	0	43	0	1053818880	9	4087
2026-01-17 05:00:27.79	338.40	16.19	-24.7	-26.0	17.1	0.00e+00	0	43	0	1059061760	9	4207
2026-01-17 05:00:28.79	338.18	16.22	-24.7	-26.1	17.1	0.00e+00	0	43	0	1065353216	9	4220
2026-01-17 05:00:29.80	337.97	16.25	-24.8	-26.3	17.0	0.00e+00	0	43	0	1070596096	9	4282
2026-01-17 05:00:30.80	337.75	16.28	-24.7	-26.0	17.1	0.00e+00	0	43	0	1075838976	9	4213
2026-01-17 05:00:31.81	337.54	16.31	-24.7	-26.0	17.1	0.00e+00	0	43	0	1082130432	9	4202
2026-01-17 05:00:32.81	337.32	16.33	-24.7	-26.1	17.1	0.00e+00	0	43	0	1087373312	9	4216
2026-01-17 05:00:33.81	337.11	16.36	-24.5	-25.7	17.3	0.00e+00	0	43	0	1092616192	9	4132
2026-01-17 05:00:34.81	336.89	16.39	-24.5	-25.6	17.4	0.00e+00	0	43	0	1098907648	9	4097
2026-01-17 05:00:35.81	336.67	16.41	-24.5	-25.7	17.3	0.00e+00	0	43	0	1104150528	9	4114
2026-01-17 05:00:36.81	336.46	16.44	-24.5	-25.6	17.3	0.00e+00	0	43	0	1109393408	9	4109
2026-01-17 05:00:37.81	336.24	16.46	-24.5	-25.7	17.3	0.00e+00	0	43	0	1115684864	9	4132
2026-01-17 05:00:38.81	336.02	16.49	-24.6	-25.9	17.2	0.00e+00	0	43	0	1120927744	9	4171
2026-01-17 05:00:39.81	335.81	16.51	-24.7	-26.0	17.1	0.00e+00	0	43	0	1127219200	9	4215
2026-01-17 05:00:40.81	335.59	16.54	-24.6	-25.8	17.3	0.00e+00	0	43	0	1132462080	9	4155
2026-01-17 05:00:41.80	335.37	16.56	-24.7	-26.0	17.2	0.00e+00	0	43	0	1137704960	9	4207
2026-01-17 05:00:42.81	335.15	16.58	-24.6	-25.9	17.2	0.00e+00	0	43	0	1143996416	9	4187
2026-01-17 05:00:43.80	334.93	16.60	-24.7	-26.1	17.1	0.00e+00	0	43	0	1149239296	9	4222
2026-01-17 05:00:44.80	334.71	16.63	-24.5	-25.6	17.4	0.00e+00	0	43	0	1154482176	9	4095
2026-01-17 05:00:45.80	334.50	16.65	-24.4	-25.4	17.5	0.00e+00	0	43	0	1160773632	9	4035
2026-01-17 05:00:46.80	334.28	16.67	-24.3	-25.2	17.6	0.00e+00	0	43	0	1166016512	9	3990
2026-01-17 05:00:47.81	334.05	16.69	-24.4	-25.5	17.4	0.00e+00	0	43	0	1171259392	9	4080
2026-01-17 05:00:48.81	333.83	16.71	-24.3	-25.2	17.5	0.00e+00	0	43	0	1177550848	9	4012
2026-01-17 05:00:49.81	333.61	16.73	-24.4	-25.4	17.5	0.00e+00	0	43	0	1182793728	9	4052
2026-01-17 05:00:50.82	333.39	16.75	-24.2	-25.1	17.6	0.00e+00	0	43	0	1189085184	9	3971
2026-01-17 05:00:51.82	333.17	16.77	-24.1	-24.8	17.8	1.10e-06	0	43	0	1194328064	9	3912
2026-01-17 05:00:52.83	332.94	16.79	-24.2	-25.1	17.7	0.00e+00	0	43	0	1200619520	9	3965
2026-01-17 05:00:53.83	332.72	16.81	-24.3	-25.1	17.6	0.00e+00	0	43	0	1205862400	9	3987
2026-01-17 05:00:54.83	332.50	16.83	-24.4	-25.4	17.5	0.00e+00	0	43	0	1211105280	9	4047
2026-01-17 05:00:55.83	332.28	16.84	-24.5	-25.7	17.4	0.00e+00	0	43	0	1217396736	9	4115
2026-01-17 05:00:56.84	332.05	16.86	-24.4	-25.5	17.4	0.00e+00	0	43	0	1222639616	9	4065
2026-01-17 05:00:57.85	331.83	16.88	-24.4	-25.4	17.5	0.00e+00	0	43	0	1227882496	9	4043
2026-01-17 05:00:58.85	331.60	16.90	-24.4	-25.4	17.5	0.00e+00	0	43	0	1234173952	9	4057
2026-01-17 05:00:59.84	331.38	16.91	-24.5	-25.6	17.4	0.00e+00	0	43	0	1239416832	9	4092
2026-01-17 05:01:00.85	331.15	16.93	-24.2	-25.1	17.7	0.00e+00	0	43	0	1244659712	9	3968
2026-01-17 05:01:01.86	330.93	16.94	-24.4	-25.4	17.5	0.00e+00	0	43	0	1250951168	9	4048
2026-01-17 05:01:02.86	330.70	16.96	-24.3	-25.2	17.6	0.00e+00	0	43	0	1256194048	9	4006
2026-01-17 05:01:03.86	330.48	16.97	-24.3	-25.3	17.5	0.00e+00	0	43	0	1262485504	9	4029
2026-01-17 05:01:04.87	330.25	16.98	-24.3	-25.2	17.6	0.00e+00	0	43	0	1267728384	9	3993
2026-01-17 05:01:05.87	330.03	17.00	-24.3	-25.2	17.6	0.00e+00	0	43	0	1272971264	9	4003
2026-01-17 05:01:06.87	329.80	17.01	-24.4	-25.4	17.5	0.00e+00	0	43	0	1279262720	9	4049
2026-01-17 05:01:07.87	329.58	17.02	-24.2	-25.0	17.7	0.00e+00	0	43	0	1284505600	9	3947
2026-01-17 05:01:08.87	329.35	17.03	-24.0	-24.6	17.9	0.00e+00	0	43	0	1290797056	9	3849
2026-01-17 05:01:09.88	329.12	17.05	-24.1	-24.7	17.9	0.00e+00	0	43	0	1296039936	9	3886
2026-01-17 05:01:10.88	328.90	17.06	-24.2	-25.0	17.7	0.00e+00	0	43	0	1301282816	9	3947
2026-01-17 05:01:11.88	328.67	17.07	-24.2	-25.0	17.7	0.00e+00	0	43	0	1307574272	9	3943
2026-01-17 05:01:12.88	328.45	17.08	-24.1	-24.9	17.8	0.00e+00	0	43	0	1312817152	9	3923
2026-01-17 05:01:13.89	328.22	17.09	-24.3	-25.1	17.6	0.00e+00	0	43	0	1318060032	9	3986
2026-01-17 05:01:14.89	327.99	17.10	-24.2	-25.0	17.7	0.00e+00	0	43	0	1324351488	9	3954
2026-01-17 05:01:15.89	327.76	17.11	-24.0	-24.7	17.9	0.00e+00	0	43	0	1329594368	9	3870
2026-01-17 05:01:16.90	327.53	17.11	-24.1	-24.8	17.8	0.00e+00	0	43	0	1335885824	9	3906
2026-01-17 05:01:17.90	327.31	17.12	-24.2	-25.1	17.7	0.00e+00	0	43	0	1341128704	9	3965
2026-01-17 05:01:18.90	327.08	17.13	-24.2	-25.1	17.7	0.00e+00	0	43	0	1346371584	9	3969
2026-01-17 05:01:19.90	326.85	17.14	-24.2	-25.1	17.7	0.00e+00	0	43	0	1352663040	9	3971
2026-01-17 05:01:20.91	326.62	17.14	-24.3	-25.2	17.6	0.00e+00	0	43	0	1357905920	9	3991
2026-01-17 05:01:21.92	326.39	17.15	-24.4	-25.5	17.5	0.00e+00	0	43	0	1363148800	9	4064
2026-01-17 05:01:22.92	326.17	17.15	-24.2	-25.0	17.7	0.00e+00	0	43	0	1369440256	9	3953
2026-01-17 05:01:23.92	325.94	17.16	-24.1	-24.9	17.8	0.00e+00	0	43	0	1374683136	9	3921
2026-01-17 05:01:24.92	325.71	17.16	-24.2	-25.0	17.7	0.00e+00	0	43	0	1379926016	9	3963
2026-01-17 05:01:25.92	325.48	17.17	-24.1	-24.9	17.7	0.00e+00	0	43	0	1386217472	9	3916
2026-01-17 05:01:26.92	325.26	17.17	-24.1	-24.9	17.8	0.00e+00	0	43	0	1391460352	9	3916
2026-01-17 05:01:27.92	325.03	17.18	-24.1	-24.9	17.7	0.00e+00	0	43	0	1397751808	9	3917
2026-01-17 05:01:28.92	324.80	17.18	-24.0	-24.7	17.9	0.00e+00	0	43	0	1402994688	9	3872
2026-01-17 05:01:29.91	324.58	17.18	-24.1	-24.7	17.8	0.00e+00	0	43	0	1408237568	9	3888
2026-01-17 05:01:30.91	324.35	17.18	-24.5	-25.7	17.3	0.00e+00	0	43	0	1414529024	9	4113
2026-01-17 05:01:31.91	324.12	17.18	-24.2	-24.9	17.7	0.00e+00	0	43	0	1419771904	9	3934
2026-01-17 05:01:32.91	323.89	17.18	-23.8	-24.2	18.1	0.00e+00	0	43	0	1425014784	9	3768
2026-01-17 05:01:33.91	323.66	17.19	-23.7	-24.5	18.2	0.00e+00	0	43	0	1431306240	8	3926
2026-01-17 05:01:34.91	323.44	17.19	-23.9	-24.9	18.0	0.00e+00	0	43	0	1436549120	8	4033
2026-01-17 05:01:35.91	323.21	17.18	-23.8	-24.7	18.1	0.00e+00	0	43	0	1441792000	8	3980
2026-01-17 05:01:36.91	322.98	17.18	-24.0	-25.0	18.0	0.00e+00	0	43	0	1448083456	8	4064
2026-01-17 05:01:37.91	322.75	17.18	-24.0	-25.0	17.9	0.00e+00	0	43	0	1453326336	8	4065
2026-01-17 05:01:38.92	322.52	17.18	-24.0	-25.1	17.9	0.00e+00	0	43	0	1459617792	8	4079
2026-01-17 05:01:39.92	322.29	17.18	-24.0	-25.1	17.9	0.00e+00	0	43	0	1464860672	8	4077
2026-01-17 05:01:40.93	322.06	17.18	-24.2	-25.5	17.7	0.00e+00	0	43	0	1471152128	8	4180
2026-01-17 05:01:41.93	321.84	17.17	-24.2	-25.4	17.7	0.00e+00	0	43	0	1476395008	8	4164
2026-01-17 05:01:42.93	321.61	17.17	-24.3	-25.7	17.6	0.00e+00	0	43	0	1481637888	8	4248
2026-01-17 05:01:43.94	321.38	17.16	-24.2	-25.5	17.7	0.00e+00	0	43	0	1487929344	8	4176
2026-01-17 05:01:44.94	321.15	17.16	-24.2	-25.5	17.7	0.00e+00	0	43	0	1493172224	8	4181
2026-01-17 05:01:45.94	320.92	17.15	-24.3	-25.8	17.5	0.00e+00	0	43	0	1498415104	8	4273
2026-01-17 05:01:46.94	320.69	17.15	-24.2	-25.5	17.7	0.00e+00	0	43	0	1504706560	8	4186
2026-01-17 05:01:47.94	320.47	17.14	-24.2	-25.5	17.7	0.00e+00	0	43	0	1509949440	8	4194
2026-01-17 05:01:48.94	320.24	17.14	-24.2	-25.5	17.7	0.00e+00	0	43	0	1515192320	8	4181
2026-01-17 05:01:49.95	320.01	17.13	-24.3	-25.7	17.6	0.00e+00	0	43	0	1521483776	8	4232
2026-01-17 05:01:50.94	319.79	17.12	-24.2	-25.5	17.7	0.00e+00	0	43	0	1526726656	8	4180
2026-01-17 05:01:51.94	319.56	17.11	-24.2	-25.6	17.6	0.00e+00	0	43	0	1533018112	8	4218
2026-01-17 05:01:52.95	319.33	17.11	-24.3	-25.7	17.6	0.00e+00	0	43	0	1538260992	8	4245
2026-01-17 05:01:53.96	319.10	17.10	-24.1	-25.4	17.8	0.00e+00	0	43	0	1543503872	8	4153
2026-01-17 05:01:54.96	318.87	17.09	-24.2	-25.5	17.7	0.00e+00	0	43	0	1549795328	8	4190
2026-01-17 05:01:55.96	318.65	17.08	-24.0	-25.0	18.0	0.00e+00	0	43	0	1555038208	8	4055
2026-01-17 05:01:56.97	318.42	17.07	-24.0	-25.1	17.9	0.00e+00	0	43	0	1560281088	8	4088
2026-01-17 05:01:57.97	318.19	17.06	-24.0	-25.0	17.9	0.00e+00	0	43	0	1566572544	8	4067
2026-01-17 05:01:58.97	317.97	17.05	-24.0	-25.1	17.9	0.00e+00	0	43	0	1571815424	8	4080
2026-01-17 05:01:59.97	317.74	17.03	-24.3	-25.7	17.6	0.00e+00	0	43	0	1578106880	8	4231
2026-01-17 05:02:00.96	317.52	17.02	-24.2	-25.5	17.7	0.00e+00	0	43	0	1583349760	8	4180
2026-01-17 05:02:01.96	317.29	17.01	-24.0	-25.1	17.8	0.00e+00	0	43	0	1588592640	8	4096
2026-01-17 05:02:02.96	317.07	17.00	-24.0	-25.1	17.9	0.00e+00	0	43	0	1594884096	8	4089
2026-01-17 05:02:03.95	316.84	16.98	-24.0	-25.0	18.0	0.00e+00	0	43	0	1600126976	8	4056
2026-01-17 05:02:04.95	316.62	16.97	-23.9	-24.9	18.0	0.00e+00	0	43	0	1605369856	8	4028
2026-01-17 05:02:05.94	316.40	16.96	-24.1	-25.2	17.8	0.00e+00	0	43	0	1611661312	8	4109
2026-01-17 05:02:06.94	316.17	16.94	-23.9	-24.9	18.0	0.00e+00	0	43	0	1616904192	8	4045
2026-01-17 05:02:07.94	315.95	16.93	-23.9	-24.8	18.0	0.00e+00	0	43	0	1622147072	8	4016
2026-01-17 05:02:08.93	315.73	16.91	-24.0	-25.1	17.9	0.00e+00	0	43	0	1628438528	8	4091
2026-01-17 05:02:09.94	315.50	16.90	-24.1	-25.3	17.8	0.00e+00	0	43	0	1633681408	8	4132
2026-01-17 05:02:10.93	315.28	16.88	-24.2	-25.4	17.7	0.00e+00	0	43	0	1639972864	8	4167
2026-01-17 05:02:11.93	315.05	16.86	-24.2	-25.5	17.7	0.00e+00	0	43	0	1645215744	8	4194
2026-01-17 05:02:12.93	314.83	16.85	-24.3	-25.7	17.6	0.00e+00	0	43	0	1650458624	8	4237
2026-01-17 05:02:13.94	314.61	16.83	-24.2	-25.4	17.7	0.00e+00	0	43	0	1656750080	8	4172
2026-01-17 05:02:14.94	314.38	16.81	-24.3	-25.7	17.6	0.00e+00	0	43	0	1661992960	8	4248
2026-01-17 05:02:15.94	314.16	16.79	-24.3	-25.7	17.6	0.00e+00	0	43	0	1667235840	8	4224
2026-01-17 05:02:16.93	313.94	16.77	-24.1	-25.4	17.7	0.00e+00	0	43	0	1673527296	8	4158
2026-01-17 05:02:17.94	313.72	16.75	-24.3	-25.7	17.6	0.00e+00	0	43	0	1678770176	8	4236
2026-01-17 05:02:18.93	313.50	16.73	-24.0	-25.2	17.8	0.00e+00	0	43	0	1684013056	8	4108
2026-01-17 05:02:19.93	313.28	16.71	-24.1	-25.2	17.8	0.00e+00	0	43	0	1690304512	8	4118
2026-01-17 05:02:20.93	313.06	16.69	-24.1	-25.3	17.7	0.00e+00	0	43	0	1695547392	8	4132
2026-01-17 05:02:21.93	312.84	16.67	-24.0	-25.2	17.9	0.00e+00	0	43	0	1701838848	8	4098
2026-01-17 05:02:22.93	312.62	16.65	-24.1	-25.2	17.8	0.00e+00	0	43	0	1707081728	8	4117
2026-01-17 05:02:23.93	312.40	16.63	-24.1	-25.3	17.7	0.00e+00	0	43	0	1712324608	8	4143
2026-01-17 05:02:24.93	312.18	16.61	-24.2	-25.5	17.7	0.00e+00	0	43	0	1718616064	8	4179
2026-01-17 05:02:25.94	311.95	16.58	-24.3	-25.8	17.5	0.00e+00	0	43	0	1723858944	8	4252
2026-01-17 05:02:26.94	311.74	16.56	-24.2	-25.6	17.6	0.00e+00	0	43	0	1729101824	8	4216
2026-01-17 05:02:27.94	311.52	16.54	-24.2	-25.6	17.6	0.00e+00	0	43	0	1735393280	8	4217
2026-01-17 05:02:28.94	311.30	16.51	-24.2	-25.4	17.7	0.00e+00	0	43	0	1740636160	8	4163
2026-01-17 05:02:29.94	311.08	16.49	-24.2	-25.4	17.7	0.00e+00	0	43	0	1745879040	8	4162
2026-01-17 05:02:30.94	310.86	16.46	-24.2	-25.6	17.6	0.00e+00	0	43	0	1752170496	8	4200
2026-01-17 05:02:31.95	310.64	16.44	-24.1	-25.3	17.7	0.00e+00	0	43	0	1757413376	8	4146
2026-01-17 05:02:32.95	310.43	16.41	-24.1	-25.3	17.8	0.00e+00	0	43	0	1763704832	8	4140
2026-01-17 05:02:33.95	310.21	16.39	-24.2	-25.5	17.6	0.00e+00	0	43	0	1768947712	8	4199
2026-01-17 05:02:34.96	309.99	16.36	-24.1	-25.3	17.7	0.00e+00	0	43	0	1774190592	8	4147
2026-01-17 05:02:35.96	309.78	16.33	-24.1	-25.3	17.7	0.00e+00	0	43	0	1780482048	8	4136
2026-01-17 05:02:36.95	309.56	16.31	-24.3	-25.8	17.5	0.00e+00	0	43	0	1785724928	8	4267
2026-01-17 05:02:37.95	309.35	16.28	-24.4	-25.9	17.5	0.00e+00	0	43	0	1790967808	8	4288
2026-01-17 05:02:38.95	309.13	16.25	-24.6	-25.9	17.2	0.00e+00	0	43	0	1797259264	9	4167
2026-01-17 05:02:39.95	308.92	16.22	-24.9	-26.4	16.9	0.00e+00	0	43	0	1802502144	9	4320
2026-01-17 05:02:40.95	308.71	16.20	-24.5	-25.8	17.2	0.00e+00	0	43	0	1807745024	9	4145
2026-01-17 05:02:41.96	308.49	16.17	-24.5	-25.7	17.3	0.00e+00	0	43	0	1814036480	9	4136
2026-01-17 05:02:42.96	308.28	16.14	-24.5	-25.7	17.3	0.00e+00	0	43	0	1819279360	9	4130
2026-01-17 05:02:43.96	308.07	16.11	-24.5	-25.7	17.3	0.00e+00	0	43	0	1825570816	9	4120
2026-01-17 05:02:44.95	307.86	16.08	-24.8	-26.2	17.0	0.00e+00	0	43	0	1830813696	9	4258
2026-01-17 05:02:45.96	307.64	16.05	-24.5	-25.8	17.2	0.00e+00	0	43	0	1836056576	9	4145
2026-01-17 05:02:46.96	307.43	16.02	-24.5	-25.8	17.2	0.00e+00	0	43	0	1842348032	9	4145
2026-01-17 05:02:47.97	307.22	15.98	-24.5	-25.8	17.3	0.00e+00	0	43	0	1847590912	9	4146
2026-01-17 05:02:48.97	307.01	15.95	-24.4	-25.4	17.4	0.00e+00	0	43	0	1852833792	9	4056
2026-01-17 05:02:49.97	306.80	15.92	-24.5	-25.8	17.2	0.00e+00	0	43	0	1859125248	9	4144
2026-01-17 05:02:50.97	306.59	15.89	-24.4	-25.5	17.4	0.00e+00	0	43	0	1864368128	9	4074
2026-01-17 05:02:51.97	306.38	15.86	-24.7	-26.0	17.1	0.00e+00	0	43	0	1869611008	9	4207
2026-01-17 05:02:52.97	306.17	15.82	-24.6	-25.9	17.2	0.00e+00	0	43	0	1875902464	9	4170
2026-01-17 05:02:53.96	305.97	15.79	-24.8	-26.4	16.9	0.00e+00	0	43	0	1881145344	9	4314
2026-01-17 05:02:54.96	305.76	15.76	-24.7	-26.2	17.0	0.00e+00	0	43	0	1887436800	9	4256
2026-01-17 05:02:55.97	305.55	15.72	-24.8	-26.4	16.9	0.00e+00	0	43	0	1892679680	9	4310
2026-01-17 05:02:56.97	305.34	15.69	-24.7	-26.0	17.0	0.00e+00	0	43	0	1897922560	9	4217
2026-01-17 05:02:57.98	305.13	15.66	-24.5	-25.7	17.2	0.00e+00	0	43	0	1904214016	9	4132
2026-01-17 05:02:58.97	304.93	15.62	-24.4	-25.5	17.3	0.00e+00	0	43	0	1909456896	9	4080
2026-01-17 05:02:59.98	304.72	15.59	-24.7	-26.1	17.0	1.10e-06	0	43	0	1915748352	9	4238
2026-01-17 05:03:00.98	304.52	15.55	-24.6	-25.9	17.1	0.00e+00	0	43	0	1920991232	9	4174
2026-01-17 05:03:01.98	304.31	15.51	-24.5	-25.6	17.3	0.00e+00	0	43	0	1926234112	9	4105
2026-01-17 05:03:02.99	304.11	15.48	-24.6	-25.9	17.1	0.00e+00	0	43	0	1932525568	9	4188
2026-01-17 05:03:03.98	303.91	15.44	-24.4	-25.4	17.4	0.00e+00	0	43	0	1937768448	9	4065
2026-01-17 05:03:04.99	303.70	15.40	-24.5	-25.6	17.3	0.00e+00	0	43	0	1943011328	9	4093
2026-01-17 05:03:05.99	303.50	15.37	-24.3	-25.3	17.5	0.00e+00	0	43	0	1949302784	9	4021
2026-01-17 05:03:06.99	303.30	15.33	-24.5	-25.7	17.3	0.00e+00	0	43	0	1954545664	9	4124
2026-01-17 05:03:07.99	303.10	15.29	-24.4	-25.5	17.3	0.00e+00	0	43	0	1960837120	9	4071
2026-01-17 05:03:08.98	302.90	15.26	-24.6	-25.9	17.1	2.20e-06	0	43	0	1966080000	9	4174
2026-01-17 05:03:09.98	302.70	15.22	-24.5	-25.7	17.2	0.00e+00	0	43	0	1971322880	9	4117
2026-01-17 05:03:10.99	302.50	15.18	-24.8	-26.3	16.9	0.00e+00	0	43	0	1977614336	9	4282
2026-01-17 05:03:11.99	302.30	15.14	-24.6	-25.9	17.1	2.20e-06	0	43	0	1982857216	9	4178
2026-01-17 05:03:13.00	302.10	15.10	-24.5	-25.8	17.2	0.00e+00	0	43	0	1988100096	9	4144
2026-01-17 05:03:14.00	301.90	15.06	-24.8	-26.2	16.9	0.00e+00	0	43	0	1994391552	9	4269
2026-01-17 05:03:15.00	301.70	15.02	-24.8	-26.4	16.8	0.00e+00	0	43	0	1999634432	9	4315
2026-01-17 05:03:16.00	301.50	14.98	-24.8	-26.2	16.9	0.00e+00	0	43	0	2004877312	9	4271
2026-01-17 05:03:17.00	301.31	14.94	-24.9	-26.6	16.7	0.00e+00	0	43	0	2011168768	9	4370
2026-01-17 05:03:18.01	301.11	14.90	-24.7	-26.2	16.9	1.10e-06	0	43	0	2016411648	9	4261
2026-01-17 05:03:19.01	300.91	14.86	-24.7	-26.2	16.9	0.00e+00	0	43	0	2022703104	9	4255
2026-01-17 05:03:20.01	300.72	14.82	-24.8	-26.4	16.8	0.00e+00	0	43	0	2027945984	9	4312
2026-01-17 05:03:21.01	300.52	14.78	-25.0	-26.3	16.6	3.40e-06	0	43	0	2033188864	10	4169
2026-01-17 05:03:22.01	300.33	14.74	-25.0	-26.2	16.7	0.00e+00	0	43	0	2039480320	10	4149
2026-01-17 05:03:23.01	300.14	14.69	-25.0	-26.3	16.7	0.00e+00	0	43	0	2044723200	10	4162
2026-01-17 05:03:24.00	299.95	14.65	-24.7	-25.7	17.0	3.40e-06	0	43	0	2049966080	10	4009
2026-01-17 05:03:25.00	299.75	14.61	-24.8	-25.9	16.9	0.00e+00	0	43	0	2056257536	10	4058
2026-01-17 05:03:26.00	299.56	14.57	-24.9	-26.0	16.8	0.00e+00	0	43	0	2061500416	10	4093
2026-01-17 05:03:26.99	299.37	14.53	-24.7	-25.6	17.0	0.00e+00	0	43	0	2066743296	10	3997
2026-01-17 05:03:27.99	299.18	14.48	-25.0	-26.2	16.6	0.00e+00	0	43	0	2073034752	10	4155
2026-01-17 05:03:29.00	298.99	14.44	-24.9	-26.0	16.7	0.00e+00	0	43	0	2078277632	10	4093
2026-01-17 05:03:29.99	298.80	14.40	-24.9	-26.0	16.8	3.40e-06	0	43	0	2084569088	10	4103
2026-01-17 05:03:31.00	298.61	14.35	-25.0	-26.2	16.6	0.00e+00	0	43	0	2089811968	10	4153
2026-01-17 05:03:32.00	298.43	14.31	-24.8	-25.9	16.8	0.00e+00	0	43	0	2095054848	10	4067
2026-01-17 05:03:33.00	298.24	14.26	-24.7	-25.6	17.0	2.20e-06	0	43	0	2101346304	10	3998
2026-01-17 05:03:34.01	298.05	14.22	-24.9	-25.9	16.8	0.00e+00	0	43	0	2106589184	10	4078
2026-01-17 05:03:35.01	297.86	14.17	-24.8	-25.8	16.9	0.00e+00	0	43	0	2111832064	10	4033
2026-01-17 05:03:36.00	297.68	14.13	-24.8	-25.9	16.8	1.10e-06	0	43	0	2118123520	10	4077
2026-01-17 05:03:37.00	297.49	14.09	-24.7	-25.6	16.9	0.00e+00	0	43	0	2123366400	10	4007
2026-01-17 05:03:38.00	297.31	14.04	-24.9	-26.1	16.7	0.00e+00	0	43	0	2128609280	10	4118
2026-01-17 05:03:39.00	297.12	13.99	-24.7	-25.7	16.9	2.20e-06	0	43	0	2134900736	10	4032
2026-01-17 05:03:39.99	296.94	13.95	-24.7	-25.6	17.0	0.00e+00	0	43	0	2140143616	10	3999
2026-01-17 05:03:40.99	296.76	13.90	-24.9	-26.0	16.8	0.00e+00	0	43	0	2146435072	10	4087
2026-01-17 05:03:41.99	296.58	13.86	-24.8	-25.9	16.8	1.10e-06	0	43	0	2151677952	10	4074
2026-01-17 05:03:42.98	296.40	13.81	-24.9	-26.0	16.7	0.00e+00	0	43	0	2156920832	10	4098
2026-01-17 05:03:43.98	296.21	13.77	-25.0	-26.2	16.6	0.00e+00	0	43	0	2163212288	10	4159
2026-01-17 05:03:44.98	296.03	13.72	-24.9	-26.0	16.7	2.20e-06	0	43	0	2168455168	10	4099
2026-01-17 05:03:45.99	295.85	13.67	-24.8	-25.9	16.8	0.00e+00	0	43	0	2173698048	10	4070
2026-01-17 05:03:46.98	295.67	13.63	-24.9	-26.0	16.7	0.00e+00	0	43	0	2179989504	10	4094
2026-01-17 05:03:47.98	295.49	13.58	-25.0	-26.3	16.6	0.00e+00	0	43	0	2185232384	10	4164
2026-01-17 05:03:48.98	295.32	13.53	-24.9	-26.0	16.7	0.00e+00	0	43	0	2190475264	10	4090
2026-01-17 05:03:49.99	295.14	13.48	-25.0	-26.4	16.5	0.00e+00	0	43	0	2196766720	10	4197
2026-01-17 05:03:50.98	294.96	13.44	-25.2	-26.6	16.3	1.10e-06	0	43	0	2202009600	10	4264
2026-01-17 05:03:51.99	294.78	13.39	-25.3	-26.8	16.2	0.00e+00	0	43	0	2208301056	10	4322
2026-01-17 05:03:52.99	294.60	13.34	-25.2	-26.6	16.4	0.00e+00	0	43	0	2213543936	10	4267
2026-01-17 05:03:54.00	294.43	13.29	-25.2	-26.7	16.3	0.00e+00	0	43	0	2218786816	10	4273
2026-01-17 05:03:54.99	294.25	13.24	-25.0	-26.4	16.5	0.00e+00	0	43	0	2225078272	10	4195
2026-01-17 05:03:56.00	294.08	13.19	-24.9	-26.1	16.6	0.00e+00	0	43	0	2230321152	10	4131
2026-01-17 05:03:56.99	293.91	13.14	-25.0	-26.2	16.6	0.00e+00	0	43	0	2235564032	10	4152
2026-01-17 05:03:57.99	293.73	13.10	-25.0	-26.4	16.5	0.00e+00	0	43	0	2241855488	10	4200
2026-01-17 05:03:58.99	293.56	13.05	-25.1	-26.4	16.4	0.00e+00	0	43	0	2247098368	10	4205
2026-01-17 05:04:00.00	293.39	13.00	-25.1	-26.6	16.3	0.00e+00	0	43	0	2253389824	10	4254
2026-01-17 05:04:01.00	293.21	12.95	-25.5	-27.3	15.9	0.00e+00	0	43	0	2258632704	10	4454
2026-01-17 05:04:02.01	293.04	12.90	-25.5	-27.3	15.9	0.00e+00	0	43	0	2263875584	10	4452
2026-01-17 05:04:03.01	292.87	12.85	-25.5	-26.8	15.9	0.00e+00	0	43	0	2270167040	11	4205
2026-01-17 05:04:04.01	292.70	12.80	-25.4	-26.6	16.1	0.00e+00	0	43	0	2275409920	11	4138
2026-01-17 05:04:05.01	292.53	12.75	-25.6	-27.1	15.8	0.00e+00	0	43	0	2280652800	11	4273
2026-01-17 05:04:06.02	292.36	12.70	-25.6	-27.0	15.8	0.00e+00	0	43	0	2286944256	11	4266
2026-01-17 05:04:07.02	292.19	12.65	-25.9	-27.7	15.4	0.00e+00	0	43	0	2292187136	11	4443
2026-01-17 05:04:08.03	292.02	12.60	-25.8	-27.6	15.5	0.00e+00	0	43	0	2298478592	11	4423
2026-01-17 05:04:09.03	291.86	12.54	-25.6	-27.1	15.7	0.00e+00	0	43	0	2303721472	11	4290
2026-01-17 05:04:10.03	291.69	12.49	-25.5	-26.8	15.9	0.00e+00	0	43	0	2308964352	11	4198
2026-01-17 05:04:11.03	291.52	12.44	-25.4	-26.7	16.0	0.00e+00	0	43	0	2315255808	11	4176
2026-01-17 05:04:12.03	291.36	12.39	-25.4	-26.7	16.0	0.00e+00	0	43	0	2320498688	11	4167
2026-01-17 05:04:13.03	291.19	12.34	-25.3	-26.5	16.1	0.00e+00	0	43	0	2326790144	11	4113
2026-01-17 05:04:14.03	291.03	12.29	-25.3	-26.5	16.1	0.00e+00	0	43	0	2332033024	11	4121
2026-01-17 05:04:15.04	290.87	12.24	-25.7	-27.3	15.6	0.00e+00	0	43	0	2337275904	11	4342
2026-01-17 05:04:16.04	290.70	12.19	-25.5	-26.9	15.8	0.00e+00	0	43	0	2343567360	11	4227
2026-01-17 05:04:17.03	290.54	12.14	-25.2	-26.3	16.2	0.00e+00	0	43	0	2348810240	11	4075
2026-01-17 05:04:18.04	290.38	12.08	-25.3	-26.4	16.1	0.00e+00	0	43	0	2354053120	11	4097
2026-01-17 05:04:19.04	290.22	12.03	-25.1	-26.0	16.3	0.00e+00	0	43	0	2360344576	11	4002
2026-01-17 05:04:20.04	290.06	11.98	-25.1	-26.0	16.3	0.00e+00	0	43	0	2365587456	11	4000
2026-01-17 05:04:21.05	289.90	11.93	-25.4	-26.6	16.0	0.00e+00	0	43	0	2370830336	11	4155
2026-01-17 05:04:22.05	289.74	11.88	-25.3	-26.5	16.0	0.00e+00	0	43	0	2377121792	11	4119
2026-01-17 05:04:23.05	289.58	11.82	-25.4	-26.7	16.0	0.00e+00	0	43	0	2382364672	11	4166
2026-01-17 05:04:24.06	289.42	11.77	-25.4	-26.7	16.0	0.00e+00	0	43	0	2388656128	11	4170
2026-01-17 05:04:25.06	289.26	11.72	-25.8	-27.5	15.5	0.00e+00	0	43	0	2393899008	11	4394
2026-01-17 05:04:26.06	289.10	11.66	-25.5	-27.0	15.8	0.00e+00	0	43	0	2399141888	11	4268
2026-01-17 05:04:27.07	288.94	11.61	-25.5	-26.9	15.8	0.00e+00	0	43	0	2405433344	11	4240
2026-01-17 05:04:28.08	288.79	11.56	-25.6	-27.2	15.6	0.00e+00	0	43	0	2410676224	11	4295
2026-01-17 05:04:29.08	288.63	11.51	-25.4	-26.6	16.0	0.00e+00	0	43	0	2416967680	11	4141
2026-01-17 05:04:30.08	288.48	11.45	-25.1	-26.1	16.2	0.00e+00	0	43	0	2422210560	11	4010
2026-01-17 05:04:31.08	288.32	11.40	-25.3	-26.5	16.0	0.00e+00	0	43	0	2427453440	11	4116
2026-01-17 05:04:32.08	288.17	11.35	-25.3	-26.5	16.0	0.00e+00	0	43	0	2433744896	11	4127
2026-01-17 05:04:33.08	288.01	11.29	-25.7	-27.2	15.6	0.00e+00	0	43	0	2438987776	11	4321
2026-01-17 05:04:34.08	287.86	11.24	-25.5	-26.9	15.8	0.00e+00	0	43	0	2444230656	11	4229
2026-01-17 05:04:35.08	287.71	11.19	-25.7	-27.4	15.4	0.00e+00	0	43	0	2450522112	11	4373
2026-01-17 05:04:36.08	287.56	11.13	-25.9	-27.8	15.3	0.00e+00	0	43	0	2455764992	11	4474
2026-01-17 05:04:37.07	287.41	11.08	-25.7	-26.9	15.4	0.00e+00	0	43	0	2462056448	12	4126
2026-01-17 05:04:38.07	287.26	11.03	-25.7	-27.0	15.3	0.00e+00	0	43	0	2467299328	12	4139
2026-01-17 05:04:39.07	287.11	10.97	-25.8	-27.0	15.3	0.00e+00	0	43	0	2472542208	12	4148
2026-01-17 05:04:40.08	286.96	10.92	-26.0	-27.4	15.1	0.00e+00	0	43	0	2478833664	12	4265
2026-01-17 05:04:41.09	286.81	10.86	-25.7	-27.0	15.3	0.00e+00	0	43	0	2484076544	12	4149
2026-01-17 05:04:42.09	286.66	10.81	-26.0	-27.4	15.1	0.00e+00	0	43	0	2489319424	12	4268
2026-01-17 05:04:43.09	286.51	10.76	-26.0	-27.4	15.0	0.00e+00	0	43	0	2495610880	12	4273
2026-01-17 05:04:44.10	286.36	10.70	-26.0	-27.5	15.0	0.00e+00	0	43	0	2500853760	12	4296
2026-01-17 05:04:45.09	286.22	10.65	-26.0	-27.6	15.0	0.00e+00	0	43	0	2506096640	12	4314
2026-01-17 05:04:46.09	286.07	10.59	-26.0	-27.5	15.0	0.00e+00	0	43	0	2512388096	12	4286
2026-01-17 05:04:47.09	285.93	10.54	-26.0	-27.5	15.0	0.00e+00	0	43	0	2517630976	12	4294
2026-01-17 05:04:48.10	285.78	10.49	-26.0	-27.6	14.9	1.10e-06	0	43	0	2523922432	12	4314
2026-01-17 05:04:49.10	285.64	10.43	-26.0	-27.4	15.1	0.00e+00	0	44	0	2529165312	12	4265
2026-01-17 05:04:50.10	285.49	10.38	-25.9	-27.4	15.1	0.00e+00	0	43	0	2534408192	12	4247
2026-01-17 05:04:51.10	285.35	10.32	-26.0	-27.7	14.9	0.00e+00	0	43	0	2540699648	12	4332
2026-01-17 05:04:52.10	285.21	10.27	-26.5	-28.2	14.3	2.20e-06	0	43	0	2545942528	13	4381
2026-01-17 05:04:53.10	285.07	10.21	-26.5	-28.1	14.4	1.10e-06	0	43	0	2551185408	13	4353
2026-01-17 05:04:54.10	284.92	10.16	-26.9	-29.0	13.8	4.50e-06	0	43	0	2557476864	13	4621
2026-01-17 05:04:55.10	284.78	10.10	-26.2	-27.5	14.7	1.10e-06	0	43	0	2562719744	13	4187
2026-01-17 05:04:56.10	284.64	10.05	-26.3	-27.7	14.6	1.10e-06	0	43	0	2567962624	13	4231
2026-01-17 05:04:57.11	284.50	9.99	-26.5	-28.1	14.3	1.10e-06	0	43	0	2574254080	13	4361
2026-01-17 05:04:58.11	284.36	9.94	-26.3	-27.7	14.5	0.00e+00	0	43	0	2579496960	13	4247
2026-01-17 05:04:59.11	284.22	9.88	-26.3	-27.7	14.6	1.10e-06	0	43	0	2585788416	13	4243
2026-01-17 05:05:00.11	284.08	9.83	-26.3	-27.8	14.5	0.00e+00	0	43	0	2591031296	13	4262
2026-01-17 05:05:01.12	283.94	9.77	-26.5	-28.1	14.3	0.00e+00	0	43	0	2596274176	13	4343
2026-01-17 05:05:02.12	283.81	9.72	-26.4	-28.0	14.3	1.10e-06	0	43	0	2602565632	13	4328
2026-01-17 05:05:03.13	283.67	9.66	-26.1	-27.4	14.7	0.00e+00	0	43	0	2607808512	13	4150
2026-01-17 05:05:04.13	283.53	9.61	-26.0	-27.1	14.8	0.00e+00	0	43	0	2614099968	13	4089
2026-01-17 05:05:05.13	283.40	9.55	-25.9	-26.9	15.0	0.00e+00	0	43	0	2619342848	13	4036
2026-01-17 05:05:06.13	283.26	9.50	-26.1	-27.3	14.8	0.00e+00	0	43	0	2624585728	13	4127
2026-01-17 05:05:07.13	283.13	9.44	-26.1	-27.3	14.7	0.00e+00	0	43	0	2630877184	13	4125
2026-01-17 05:05:08.13	282.99	9.39	-26.2	-27.5	14.6	0.00e+00	0	43	0	2636120064	13	4183
2026-01-17 05:05:09.13	282.86	9.33	-26.0	-27.1	14.9	0.00e+00	0	43	0	2641362944	13	4073
2026-01-17 05:05:10.13	282.73	9.28	-26.0	-27.1	14.9	0.00e+00	0	43	0	2647654400	13	4072
2026-01-17 05:05:11.13	282.59	9.22	-26.1	-27.3	14.7	0.00e+00	0	43	0	2652897280	13	4140
2026-01-17 05:05:12.13	282.46	9.17	-25.9	-26.9	15.0	0.00e+00	0	43	0	2659188736	13	4025
2026-01-17 05:05:13.14	282.33	9.11	-26.0	-27.1	14.8	0.00e+00	0	43	0	2664431616	13	4074
2026-01-17 05:05:14.15	282.20	9.06	-26.3	-27.8	14.4	0.00e+00	0	43	0	2669674496	13	4258
2026-01-17 05:05:15.13	282.07	9.00	-26.1	-27.3	14.7	0.00e+00	0	43	0	2675965952	13	4127
2026-01-17 05:05:16.13	281.94	8.95	-26.3	-27.8	14.4	0.00e+00	0	43	0	2681208832	13	4273
2026-01-17 05:05:17.14	281.81	8.89	-26.5	-28.1	14.2	1.10e-06	0	43	0	2686451712	13	4357
2026-01-17 05:05:18.13	281.68	8.84	-26.3	-27.7	14.5	0.00e+00	0	43	0	2692743168	13	4230
2026-01-17 05:05:19.13	281.55	8.78	-26.4	-28.0	14.3	1.10e-06	0	43	0	2697986048	13	4322
2026-01-17 05:05:20.13	281.42	8.73	-26.4	-27.8	14.3	0.00e+00	0	44	0	2703228928	13	4276
2026-01-17 05:05:21.14	281.29	8.67	-26.2	-27.5	14.6	0.00e+00	0	43	0	2709520384	13	4175
2026-01-17 05:05:22.13	281.17	8.62	-26.5	-28.2	14.1	1.10e-06	0	43	0	2714763264	13	4386
2026-01-17 05:05:23.14	281.04	8.56	-26.4	-28.1	14.2	0.00e+00	0	43	0	2721054720	13	4349
2026-01-17 05:05:24.14	280.91	8.50	-26.3	-27.8	14.4	0.00e+00	0	43	0	2726297600	13	4256
2026-01-17 05:05:25.14	280.79	8.45	-26.3	-27.7	14.4	1.10e-06	0	43	0	2731540480	13	4246
2026-01-17 05:05:26.13	280.66	8.39	-26.2	-27.4	14.6	0.00e+00	0	43	0	2737831936	13	4161
2026-01-17 05:05:27.13	280.54	8.34	-26.5	-28.1	14.2	0.00e+00	0	43	0	2743074816	13	4355
2026-01-17 05:05:28.14	280.41	8.28	-26.2	-27.6	14.4	0.00e+00	0	43	0	2748317696	13	4222
2026-01-17 05:05:29.13	280.29	8.23	-26.3	-27.8	14.4	0.00e+00	0	43	0	2754609152	13	4260
2026-01-17 05:05:30.13	280.17	8.17	-26.5	-28.2	14.1	0.00e+00	0	43	0	2759852032	13	4384
2026-01-17 05:05:31.14	280.04	8.12	-26.3	-27.7	14.4	2.20e-06	0	43	0	2765094912	13	4248
2026-01-17 05:05:32.15	279.92	8.06	-26.7	-28.6	13.9	0.00e+00	0	43	0	2771386368	13	4499
2026-01-17 05:05:33.15	279.80	8.00	-26.4	-28.1	14.2	0.00e+00	0	44	0	2776629248	13	4347
2026-01-17 05:05:34.15	279.68	7.95	-26.6	-28.4	14.0	0.00e+00	0	43	0	2782920704	13	4444
2026-01-17 05:05:35.14	279.56	7.89	-26.5	-28.3	14.0	1.10e-06	0	43	0	2788163584	13	4422
2026-01-17 05:05:36.14	279.44	7.84	-26.7	-28.7	13.8	2.20e-06	0	43	0	2793406464	13	4542
2026-01-17 05:05:37.13	279.32	7.78	-26.8	-28.8	13.7	0.00e+00	0	43	0	2799697920	13	4574
2026-01-17 05:05:38.13	279.20	7.73	-27.2	-29.3	13.2	1.14e-05	0	43	0	2804940800	14	4594
2026-01-17 05:05:39.14	279.08	7.67	-26.9	-28.6	13.6	6.80e-06	0	43	0	2810183680	14	4383
2026-01-17 05:05:40.14	278.96	7.62	-26.5	-27.8	14.0	1.10e-06	0	43	0	2816475136	14	4172
2026-01-17 05:05:41.14	278.84	7.56	-26.3	-27.3	14.3	0.00e+00	0	43	0	2821718016	14	4040
2026-01-17 05:05:42.14	278.72	7.51	-26.4	-28.0	14.2	1.10e-06	0	43	0	2826960896	13	4316
2026-01-17 05:05:43.15	278.60	7.45	-26.5	-28.3	14.0	0.00e+00	0	43	0	2833252352	13	4421
2026-01-17 05:05:44.15	278.49	7.39	-26.6	-28.5	13.9	3.40e-06	0	43	0	2838495232	13	4487
2026-01-17 05:05:45.15	278.37	7.34	-26.5	-28.2	14.1	4.50e-06	0	43	0	2844786688	13	4382
2026-01-17 05:05:46.15	278.26	7.28	-27.2	-29.4	13.1	3.40e-06	0	43	0	2850029568	14	4616
2026-01-17 05:05:47.16	278.14	7.23	-26.5	-27.8	14.0	1.10e-06	0	43	0	2855272448	14	4173
2026-01-17 05:05:48.16	278.02	7.17	-27.0	-28.8	13.4	5.70e-06	0	43	0	2861563904	14	4465
2026-01-17 05:05:49.16	277.91	7.12	-26.9	-28.6	13.5	3.40e-06	0	44	0	2866806784	14	4391
2026-01-17 05:05:50.16	277.80	7.06	-27.5	-30.1	12.7	1.71e-05	0	43	0	2873098240	14	4850
2026-01-17 05:05:51.17	277.68	7.01	-32.5	-43.7	3.8	8.47e-01	0	43	104	2874146816	25	12965

#Closed at: 2026-01-17 05:05:51
#Recorded file [2874 MB]: D:/data/31010_260117_075719.dat