passes_logs/2026/01/17/R2M6_AANII_01/R2M6_AANII_01__20260117_225915_NOAA_20_JPSS-1_rec.log

#Pass ID: 20260117_225915_NOAA 20 (JPSS-1)
#Satellite: NOAA 20 (JPSS-1)
#Configuration: NOAA 20
#almurnet v.1.7.20240730
#Start time: 2026-01-17 22:59:16

#Version: 2.2.20231116
#Station: R2M6_AANII_01
#Location: 30.233357 lon 59.946436 lat
#TLE: 1 43013U 17073A   26017.30359522  .00000067  00000+0  52526-4 0  9990
#TLE: 2 43013  98.7639 318.2187 0001419  36.2087 323.9184 14.19536557423067

#Time	Az	El	Level	Level2	SNR	BER	BlckErr	Temp	State	Recorded	gain1	gain2
2026-01-17 22:59:16.86	27.54	7.10	-31.8	-37.7	5.2	1.22e+00	0	41	0	0	23	7095
2026-01-17 22:59:17.86	27.62	7.16	-32.3	-39.6	4.8	1.31e+00	0	41	104	0	24	8368
2026-01-17 22:59:18.86	27.70	7.23	-32.3	-39.3	7.0	1.69e-01	0	41	0	0	24	8108
2026-01-17 22:59:19.87	27.78	7.30	-32.5	-40.5	6.1	2.35e-01	0	41	0	1048576	24	9057
2026-01-17 22:59:20.87	27.87	7.37	-32.4	-39.5	6.5	3.07e-01	0	41	0	3145728	25	8155
2026-01-17 22:59:21.87	27.95	7.43	-32.3	-38.9	7.0	1.90e-01	0	41	0	5242880	25	7722
2026-01-17 22:59:22.88	28.03	7.50	-32.1	-38.3	7.8	1.37e-01	0	41	0	7340032	24	7330
2026-01-17 22:59:23.88	28.11	7.57	-32.0	-37.7	8.3	6.10e-02	0	41	0	9437184	24	6960
2026-01-17 22:59:24.88	28.20	7.64	-31.9	-38.0	8.5	3.90e-02	0	42	0	10485760	23	7235
2026-01-17 22:59:25.88	28.28	7.71	-32.0	-38.1	8.4	4.25e-02	0	42	0	12582912	23	7290
2026-01-17 22:59:26.89	28.36	7.77	-31.9	-37.8	8.7	3.81e-02	0	42	0	14680064	23	7084
2026-01-17 22:59:27.90	28.45	7.84	-31.7	-36.9	9.4	1.89e-02	0	42	0	16777216	23	6566
2026-01-17 22:59:28.90	28.53	7.91	-31.6	-36.8	9.5	1.50e-02	0	42	0	17825792	23	6498
2026-01-17 22:59:29.90	28.62	7.98	-30.6	-35.5	9.8	1.04e-02	0	42	0	19922944	23	6331
2026-01-17 22:59:30.90	28.70	8.05	-31.6	-36.6	9.6	9.91e-03	0	42	0	22020096	23	6395
2026-01-17 22:59:31.90	28.79	8.12	-31.4	-36.0	10.2	8.39e-03	0	42	0	24117248	23	6080
2026-01-17 22:59:32.91	28.87	8.19	-31.7	-37.1	9.3	8.36e-03	0	42	0	26214400	23	6672
2026-01-17 22:59:33.91	28.96	8.26	-31.5	-36.2	10.0	1.14e-02	0	42	0	28311552	23	6186
2026-01-17 22:59:34.91	29.05	8.33	-31.4	-35.7	10.4	4.92e-03	0	42	0	29360128	23	5911
2026-01-17 22:59:35.92	29.14	8.40	-31.2	-35.5	10.9	3.04e-03	0	42	0	31457280	22	5926
2026-01-17 22:59:36.92	29.22	8.47	-30.9	-35.1	11.6	1.99e-03	0	42	0	33554432	21	5867
2026-01-17 22:59:37.93	29.31	8.54	-31.0	-34.9	11.4	1.19e-03	0	42	0	35651584	22	5645
2026-01-17 22:59:38.93	29.40	8.61	-31.0	-35.5	11.4	8.35e-04	0	42	0	36700160	21	6013
2026-01-17 22:59:39.93	29.49	8.68	-31.0	-35.0	11.4	2.34e-03	0	42	0	38797312	22	5690
2026-01-17 22:59:40.94	29.58	8.75	-31.1	-35.3	11.2	1.38e-03	0	42	0	40894464	22	5814
2026-01-17 22:59:41.94	29.67	8.82	-31.0	-35.3	11.4	8.95e-04	0	42	0	42991616	21	5955
2026-01-17 22:59:42.94	29.76	8.89	-30.5	-34.6	11.2	9.65e-04	0	42	0	45088768	22	5799
2026-01-17 22:59:43.94	29.85	8.96	-31.2	-35.7	10.8	2.14e-03	0	42	0	46137344	22	6031
2026-01-17 22:59:44.94	29.94	9.03	-30.9	-35.0	11.7	7.30e-04	0	42	0	48234496	21	5796
2026-01-17 22:59:45.94	30.03	9.10	-31.0	-35.4	11.4	1.29e-03	0	42	0	50331648	21	5970
2026-01-17 22:59:46.95	30.12	9.17	-31.0	-34.7	11.6	7.64e-04	0	42	0	52428800	22	5559
2026-01-17 22:59:47.94	30.21	9.24	-30.8	-34.9	11.8	1.70e-03	0	42	0	54525952	21	5736
2026-01-17 22:59:48.94	30.30	9.31	-30.9	-35.1	11.7	4.87e-04	0	42	0	55574528	21	5820
2026-01-17 22:59:49.95	30.40	9.38	-30.8	-34.6	12.0	3.94e-04	0	42	0	57671680	21	5625
2026-01-17 22:59:50.95	30.49	9.46	-30.7	-34.5	12.2	8.21e-04	0	42	0	59768832	21	5570
2026-01-17 22:59:51.95	30.59	9.53	-30.8	-34.6	12.1	3.00e-04	0	42	0	61865984	21	5616
2026-01-17 22:59:52.95	30.68	9.60	-30.7	-34.5	12.2	2.10e-04	0	42	0	62914560	21	5567
2026-01-17 22:59:53.96	30.78	9.67	-30.7	-34.4	12.2	6.55e-04	0	42	0	65011712	21	5535
2026-01-17 22:59:54.97	30.87	9.75	-31.0	-35.2	11.7	1.00e-03	0	42	0	67108864	21	5875
2026-01-17 22:59:55.96	30.97	9.82	-30.8	-34.7	12.1	4.51e-04	0	42	0	69206016	21	5628
2026-01-17 22:59:56.96	31.06	9.89	-30.7	-34.4	12.2	7.45e-04	0	42	0	71303168	21	5538
2026-01-17 22:59:57.97	31.16	9.96	-30.5	-33.9	12.6	7.94e-04	0	42	0	73400320	21	5291
2026-01-17 22:59:58.97	31.26	10.04	-30.7	-34.3	12.4	1.19e-04	0	42	0	74448896	21	5472
2026-01-17 22:59:59.97	31.35	10.11	-30.6	-34.0	12.5	1.47e-04	0	42	0	76546048	21	5361
2026-01-17 23:00:00.97	31.45	10.18	-30.6	-34.0	12.6	1.22e-03	0	42	0	78643200	21	5354
2026-01-17 23:00:01.98	31.55	10.25	-30.7	-34.5	12.2	1.73e-04	0	43	0	80740352	21	5545
2026-01-17 23:00:02.98	31.65	10.33	-30.6	-34.0	12.5	1.89e-04	0	43	0	81788928	21	5343
2026-01-17 23:00:03.98	31.75	10.40	-30.6	-34.2	12.5	1.21e-03	0	43	0	83886080	21	5419
2026-01-17 23:00:04.98	31.85	10.48	-30.7	-34.3	12.3	5.74e-04	0	43	0	85983232	21	5486
2026-01-17 23:00:05.99	31.95	10.55	-30.8	-34.7	12.1	7.27e-04	0	42	0	88080384	21	5662
2026-01-17 23:00:06.99	32.05	10.62	-30.8	-34.7	12.1	3.38e-04	0	43	0	90177536	21	5638
2026-01-17 23:00:07.99	32.15	10.70	-30.9	-35.0	11.9	7.21e-04	0	43	0	91226112	21	5767
2026-01-17 23:00:09.00	32.25	10.77	-30.9	-34.9	12.0	9.00e-04	0	43	0	93323264	21	5727
2026-01-17 23:00:09.99	32.35	10.85	-30.9	-34.9	12.0	3.94e-04	0	42	0	95420416	21	5734
2026-01-17 23:00:11.00	32.46	10.92	-30.9	-35.1	11.9	6.23e-04	0	42	0	97517568	21	5798
2026-01-17 23:00:12.01	32.56	11.00	-30.9	-35.0	12.0	9.23e-04	0	43	0	99614720	21	5763
2026-01-17 23:00:13.02	32.67	11.07	-31.0	-34.7	11.8	1.14e-03	0	43	0	100663296	22	5506
2026-01-17 23:00:14.02	32.77	11.15	-30.9	-34.6	11.9	4.33e-04	0	43	0	102760448	22	5456
2026-01-17 23:00:15.02	32.87	11.22	-30.9	-34.8	12.1	7.03e-04	0	43	0	104857600	21	5682
2026-01-17 23:00:16.02	32.98	11.30	-30.9	-34.9	12.0	6.80e-04	0	42	0	106954752	21	5737
2026-01-17 23:00:17.03	33.09	11.37	-30.9	-34.9	12.1	3.08e-04	0	43	0	109051904	21	5702
2026-01-17 23:00:18.03	33.19	11.45	-30.9	-34.9	12.0	7.84e-04	0	43	0	110100480	21	5707
2026-01-17 23:00:19.02	33.30	11.52	-31.0	-35.1	11.9	7.25e-04	0	43	0	112197632	21	5786
2026-01-17 23:00:20.03	33.41	11.60	-31.1	-34.9	11.7	5.67e-04	0	43	0	114294784	22	5615
2026-01-17 23:00:21.03	33.51	11.68	-31.2	-35.5	11.3	1.35e-03	0	43	0	116391936	22	5863
2026-01-17 23:00:22.03	33.62	11.75	-31.0	-34.8	11.7	1.14e-03	0	43	0	118489088	22	5582
2026-01-17 23:00:23.03	33.73	11.83	-30.9	-34.4	12.1	2.04e-04	0	43	0	119537664	22	5398
2026-01-17 23:00:24.03	33.84	11.90	-30.8	-34.0	12.4	5.12e-04	0	43	0	121634816	22	5232
2026-01-17 23:00:25.04	33.95	11.98	-30.7	-34.4	12.4	3.58e-04	0	43	0	123731968	21	5512
2026-01-17 23:00:26.05	34.06	12.06	-30.6	-34.2	12.5	9.38e-05	0	43	0	125829120	21	5415
2026-01-17 23:00:27.05	34.17	12.14	-30.8	-34.7	12.2	3.38e-04	0	43	0	126877696	21	5618
2026-01-17 23:00:28.05	34.28	12.21	-30.7	-34.3	12.5	3.57e-04	0	43	0	128974848	21	5472
2026-01-17 23:00:29.06	34.40	12.29	-30.8	-34.6	12.3	1.74e-04	0	43	0	131072000	21	5587
2026-01-17 23:00:30.05	34.51	12.37	-30.7	-34.3	12.5	2.99e-04	0	43	0	133169152	21	5466
2026-01-17 23:00:31.05	34.62	12.45	-30.5	-33.9	12.8	2.51e-04	0	43	0	135266304	21	5308
2026-01-17 23:00:32.06	34.74	12.52	-30.6	-34.0	12.7	6.10e-05	0	43	0	136314880	21	5314
2026-01-17 23:00:33.06	34.85	12.60	-30.7	-34.2	12.5	1.72e-04	0	43	0	138412032	21	5429
2026-01-17 23:00:34.06	34.97	12.68	-30.7	-34.2	12.6	1.80e-04	0	43	0	140509184	21	5417
2026-01-17 23:00:35.06	35.08	12.76	-30.6	-34.0	12.7	6.71e-05	0	43	0	142606336	21	5327
2026-01-17 23:00:36.07	35.20	12.84	-30.6	-33.9	12.8	1.20e-04	0	43	0	144703488	21	5302
2026-01-17 23:00:37.07	35.32	12.91	-30.8	-34.5	12.4	1.63e-04	0	43	0	145752064	21	5535
2026-01-17 23:00:38.07	35.43	12.99	-30.5	-33.7	13.0	4.50e-05	0	43	0	147849216	21	5206
2026-01-17 23:00:39.08	35.55	13.07	-30.5	-33.7	12.9	4.42e-05	0	43	0	149946368	21	5198
2026-01-17 23:00:40.08	35.67	13.15	-30.5	-33.8	12.9	4.19e-05	0	43	0	152043520	21	5244
2026-01-17 23:00:41.09	35.79	13.23	-30.7	-34.2	12.6	7.17e-05	0	43	0	154140672	21	5417
2026-01-17 23:00:42.09	35.91	13.31	-30.6	-34.0	12.8	5.95e-05	0	43	0	155189248	21	5306
2026-01-17 23:00:43.09	36.03	13.39	-30.6	-34.0	12.8	8.01e-05	0	43	0	157286400	21	5319
2026-01-17 23:00:44.09	36.15	13.47	-30.6	-34.1	12.7	5.95e-05	0	43	0	159383552	21	5365
2026-01-17 23:00:45.09	36.27	13.55	-30.8	-34.6	12.4	1.15e-04	0	43	0	161480704	21	5559
2026-01-17 23:00:46.10	36.40	13.63	-30.8	-34.5	12.5	1.07e-04	0	43	0	163577856	21	5515
2026-01-17 23:00:47.10	36.52	13.71	-30.8	-34.7	12.3	1.37e-04	0	43	0	164626432	21	5603
2026-01-17 23:00:48.09	36.64	13.79	-30.8	-34.6	12.4	2.41e-04	0	43	0	166723584	21	5565
2026-01-17 23:00:49.10	36.77	13.87	-30.8	-34.7	12.3	1.90e-04	0	43	0	168820736	21	5615
2026-01-17 23:00:50.10	36.89	13.95	-30.8	-34.5	12.5	1.43e-04	0	43	0	170917888	21	5514
2026-01-17 23:00:51.11	37.02	14.03	-30.6	-34.0	12.8	2.38e-04	0	43	0	173015040	21	5322
2026-01-17 23:00:52.11	37.15	14.11	-30.5	-33.7	13.0	4.57e-05	0	43	0	174063616	21	5215
2026-01-17 23:00:53.12	37.27	14.19	-30.6	-33.9	12.9	3.66e-05	0	43	0	176160768	21	5278
2026-01-17 23:00:54.12	37.40	14.27	-30.6	-34.0	12.9	1.59e-04	0	43	0	178257920	21	5294
2026-01-17 23:00:55.12	37.53	14.35	-30.8	-34.4	12.6	8.54e-05	0	43	0	180355072	21	5476
2026-01-17 23:00:56.13	37.66	14.44	-30.8	-34.7	12.4	1.25e-04	0	43	0	181403648	21	5591
2026-01-17 23:00:57.13	37.79	14.52	-30.8	-34.6	12.4	1.87e-04	0	43	0	183500800	21	5565
2026-01-17 23:00:58.13	37.92	14.60	-30.9	-34.8	12.3	1.27e-04	0	43	0	185597952	21	5656
2026-01-17 23:00:59.14	38.05	14.68	-31.1	-35.0	11.8	2.78e-04	0	43	0	187695104	22	5633
2026-01-17 23:01:00.14	38.18	14.76	-31.3	-35.5	11.5	6.77e-04	0	43	0	189792256	22	5835
2026-01-17 23:01:01.15	38.32	14.85	-31.1	-34.8	12.0	5.72e-04	0	43	0	190840832	22	5533
2026-01-17 23:01:02.15	38.45	14.93	-31.2	-35.1	11.8	4.65e-04	0	43	0	192937984	22	5641
2026-01-17 23:01:03.15	38.58	15.01	-31.0	-34.5	12.2	3.10e-04	0	43	0	195035136	22	5404
2026-01-17 23:01:04.16	38.72	15.09	-31.0	-34.5	12.3	2.39e-04	0	43	0	197132288	22	5382
2026-01-17 23:01:05.16	38.85	15.18	-30.7	-33.8	12.7	7.85e-05	0	43	0	199229440	22	5108
2026-01-17 23:01:06.16	38.99	15.26	-30.6	-33.4	13.0	3.89e-05	0	43	0	200278016	22	4983
2026-01-17 23:01:07.17	39.13	15.34	-30.8	-33.9	12.7	7.55e-05	0	43	0	202375168	22	5148
2026-01-17 23:01:08.17	39.26	15.42	-30.7	-33.7	12.8	6.56e-05	0	43	0	204472320	22	5074
2026-01-17 23:01:09.17	39.40	15.51	-30.6	-33.3	13.1	3.58e-05	0	43	0	206569472	22	4913
2026-01-17 23:01:10.18	39.54	15.59	-30.4	-32.9	13.4	1.52e-05	0	43	0	208666624	22	4780
2026-01-17 23:01:11.17	39.68	15.67	-30.4	-33.4	13.3	3.75e-04	0	43	0	209715200	21	5067
2026-01-17 23:01:12.17	39.82	15.76	-30.4	-33.4	13.4	1.90e-05	0	43	0	211812352	21	5065
2026-01-17 23:01:13.18	39.96	15.84	-30.4	-33.7	13.5	1.22e-05	0	43	0	213909504	20	5296
2026-01-17 23:01:14.18	40.11	15.92	-30.4	-33.7	13.5	4.43e-04	0	43	0	216006656	20	5286
2026-01-17 23:01:15.19	40.25	16.01	-30.5	-34.0	13.3	1.44e-05	0	43	0	218103808	20	5407
2026-01-17 23:01:16.19	40.39	16.09	-30.4	-33.8	13.5	1.37e-05	0	43	0	219152384	20	5318
2026-01-17 23:01:17.20	40.54	16.18	-30.4	-33.7	13.5	6.10e-06	0	43	0	221249536	20	5274
2026-01-17 23:01:18.20	40.68	16.26	-30.5	-33.9	13.3	8.30e-06	0	43	0	223346688	20	5374
2026-01-17 23:01:19.21	40.83	16.35	-30.4	-33.9	13.4	7.60e-06	0	43	0	225443840	20	5369
2026-01-17 23:01:20.21	40.98	16.43	-30.4	-33.9	13.4	1.67e-05	0	43	0	227540992	20	5346
2026-01-17 23:01:21.21	41.12	16.52	-30.4	-33.3	13.4	2.13e-05	0	43	0	228589568	21	5026
2026-01-17 23:01:22.21	41.27	16.60	-30.5	-33.6	13.3	1.83e-05	0	43	0	230686720	21	5129
2026-01-17 23:01:23.22	41.42	16.69	-30.5	-33.6	13.2	2.67e-05	0	43	0	232783872	21	5153
2026-01-17 23:01:24.22	41.57	16.77	-30.3	-33.0	13.6	1.67e-05	0	43	0	234881024	21	4929
2026-01-17 23:01:25.22	41.72	16.86	-30.1	-32.5	14.0	2.20e-06	0	43	0	236978176	21	4747
2026-01-17 23:01:26.23	41.88	16.94	-30.0	-32.2	14.2	7.00e-07	0	43	0	238026752	21	4625
2026-01-17 23:01:27.23	42.03	17.03	-30.0	-32.3	14.1	0.00e+00	0	43	0	240123904	21	4665
2026-01-17 23:01:28.23	42.18	17.11	-30.0	-32.2	14.2	0.00e+00	0	43	0	242221056	21	4631
2026-01-17 23:01:29.24	42.34	17.20	-30.0	-32.1	14.2	0.00e+00	0	43	0	244318208	21	4605
2026-01-17 23:01:30.24	42.49	17.28	-29.9	-32.1	14.3	7.00e-07	0	43	0	245366784	21	4592
2026-01-17 23:01:31.25	42.65	17.37	-30.1	-32.3	14.1	7.00e-07	0	43	0	247463936	21	4680
2026-01-17 23:01:32.26	42.81	17.46	-30.1	-32.4	14.1	1.50e-06	0	43	0	249561088	21	4687
2026-01-17 23:01:33.26	42.96	17.54	-30.0	-32.2	14.2	3.00e-06	0	43	0	251658240	21	4644
2026-01-17 23:01:34.27	43.12	17.63	-30.2	-32.8	13.9	0.00e+00	0	43	0	253755392	21	4820
2026-01-17 23:01:35.27	43.28	17.71	-30.1	-32.5	14.1	6.10e-06	0	43	0	254803968	21	4716
2026-01-17 23:01:36.27	43.44	17.80	-30.1	-32.5	14.1	4.50e-06	0	43	0	256901120	21	4726
2026-01-17 23:01:37.27	43.60	17.89	-30.2	-32.6	14.0	1.50e-06	0	44	0	258998272	21	4775
2026-01-17 23:01:38.27	43.77	17.97	-30.1	-32.4	14.1	1.50e-06	0	43	0	261095424	21	4706
2026-01-17 23:01:39.28	43.93	18.06	-30.1	-32.4	14.1	2.20e-06	0	43	0	263192576	21	4696
2026-01-17 23:01:40.28	44.09	18.15	-30.1	-32.4	14.1	3.80e-06	0	43	0	264241152	21	4695
2026-01-17 23:01:41.28	44.26	18.23	-30.1	-32.4	14.2	7.00e-07	0	43	0	266338304	21	4690
2026-01-17 23:01:42.29	44.43	18.32	-30.2	-32.7	13.9	3.00e-06	0	43	0	268435456	21	4812
2026-01-17 23:01:43.29	44.59	18.41	-30.0	-32.2	14.3	2.20e-06	0	43	0	270532608	21	4632
2026-01-17 23:01:44.29	44.76	18.49	-29.9	-32.0	14.4	7.00e-07	0	43	0	272629760	21	4569
2026-01-17 23:01:45.30	44.93	18.58	-29.9	-31.9	14.4	7.00e-07	0	43	0	273678336	21	4545
2026-01-17 23:01:46.30	45.10	18.67	-29.9	-32.0	14.4	7.00e-07	0	43	0	275775488	21	4557
2026-01-17 23:01:47.30	45.27	18.75	-29.8	-31.6	14.6	1.50e-06	0	43	0	277872640	21	4453
2026-01-17 23:01:48.30	45.44	18.84	-29.7	-31.9	14.7	0.00e+00	0	43	0	279969792	20	4640
2026-01-17 23:01:49.31	45.61	18.93	-29.7	-31.9	14.8	0.00e+00	0	43	0	282066944	20	4631
2026-01-17 23:01:50.31	45.79	19.02	-29.6	-31.7	14.9	0.00e+00	0	43	0	283115520	20	4574
2026-01-17 23:01:51.31	45.96	19.10	-29.7	-31.9	14.8	0.00e+00	0	43	0	285212672	20	4633
2026-01-17 23:01:52.32	46.14	19.19	-29.8	-32.1	14.7	2.20e-06	0	43	0	287309824	20	4699
2026-01-17 23:01:53.32	46.31	19.28	-29.7	-31.8	14.9	0.00e+00	0	43	0	289406976	20	4594
2026-01-17 23:01:54.32	46.49	19.37	-29.8	-32.0	14.7	0.00e+00	0	43	0	291504128	20	4674
2026-01-17 23:01:55.32	46.67	19.45	-29.8	-32.1	14.7	0.00e+00	0	43	0	292552704	20	4705
2026-01-17 23:01:56.32	46.85	19.54	-29.9	-32.3	14.6	7.00e-07	0	43	0	294649856	20	4751
2026-01-17 23:01:57.32	47.03	19.63	-29.7	-32.2	15.0	7.00e-07	0	43	0	296747008	19	4839
2026-01-17 23:01:58.33	47.21	19.72	-29.6	-32.0	15.1	0.00e+00	0	43	0	298844160	19	4770
2026-01-17 23:01:59.33	47.39	19.80	-29.6	-32.2	15.1	0.00e+00	0	43	0	300941312	19	4808
2026-01-17 23:02:00.34	47.58	19.89	-29.7	-32.3	15.0	7.00e-07	0	44	0	301989888	19	4848
2026-01-17 23:02:01.34	47.76	19.98	-29.7	-32.2	15.0	0.00e+00	0	43	0	304087040	19	4832
2026-01-17 23:02:02.35	47.95	20.07	-29.6	-32.2	15.1	0.00e+00	0	44	0	306184192	19	4814
2026-01-17 23:02:03.36	48.13	20.16	-29.7	-32.4	14.9	8.41e-04	0	43	0	308281344	19	4885
2026-01-17 23:02:04.36	48.32	20.24	-29.7	-32.2	15.0	7.00e-07	0	43	0	310378496	19	4836
2026-01-17 23:02:05.36	48.51	20.33	-29.8	-32.5	14.9	0.00e+00	0	44	0	311427072	19	4926
2026-01-17 23:02:06.37	48.70	20.42	-29.7	-32.4	14.9	6.42e-04	0	43	0	313524224	19	4888
2026-01-17 23:02:07.37	48.89	20.51	-29.6	-32.1	15.1	5.02e-04	0	43	0	315621376	19	4777
2026-01-17 23:02:08.37	49.08	20.60	-29.8	-32.5	14.9	0.00e+00	0	43	0	317718528	19	4912
2026-01-17 23:02:09.38	49.28	20.68	-29.4	-31.7	15.4	4.35e-04	0	43	0	318767104	19	4645
2026-01-17 23:02:10.38	49.47	20.77	-29.3	-31.8	15.7	1.98e-04	0	43	0	320864256	18	4792
2026-01-17 23:02:11.39	49.67	20.86	-29.3	-31.9	15.6	0.00e+00	0	43	0	322961408	18	4831
2026-01-17 23:02:12.39	49.86	20.95	-29.3	-31.9	15.6	0.00e+00	0	44	0	325058560	18	4817
2026-01-17 23:02:13.39	50.06	21.03	-29.4	-32.1	15.4	5.11e-05	0	44	0	327155712	18	4915
2026-01-17 23:02:14.39	50.26	21.12	-29.3	-31.7	15.7	0.00e+00	0	44	0	328204288	18	4782
2026-01-17 23:02:15.40	50.46	21.21	-29.4	-32.1	15.5	7.00e-07	0	44	0	330301440	18	4898
2026-01-17 23:02:16.40	50.66	21.30	-29.4	-32.1	15.4	0.00e+00	0	43	0	332398592	18	4909
2026-01-17 23:02:17.40	50.86	21.39	-29.6	-31.9	15.3	0.00e+00	0	43	0	334495744	19	4738
2026-01-17 23:02:18.40	51.06	21.47	-29.7	-32.4	15.0	7.00e-07	0	43	0	336592896	19	4875
2026-01-17 23:02:19.40	51.26	21.56	-29.8	-32.5	14.9	0.00e+00	0	44	0	337641472	19	4916
2026-01-17 23:02:20.41	51.47	21.65	-29.9	-32.8	14.8	0.00e+00	0	43	0	339738624	19	5016
2026-01-17 23:02:21.41	51.67	21.73	-30.0	-32.6	14.5	3.00e-06	0	43	0	341835776	20	4843
2026-01-17 23:02:22.41	51.88	21.82	-30.0	-32.5	14.5	2.20e-06	0	43	0	343932928	20	4811
2026-01-17 23:02:23.42	52.09	21.91	-29.8	-32.0	14.9	7.00e-07	0	44	0	346030080	20	4648
2026-01-17 23:02:24.42	52.30	22.00	-29.7	-31.8	15.0	6.02e-05	0	44	0	347078656	20	4601
2026-01-17 23:02:25.42	52.51	22.08	-29.7	-31.8	15.0	9.38e-05	0	44	0	349175808	20	4571
2026-01-17 23:02:26.42	52.72	22.17	-29.7	-31.9	14.9	0.00e+00	0	43	0	351272960	20	4624
2026-01-17 23:02:27.42	52.93	22.26	-29.8	-32.5	15.0	4.44e-04	0	44	0	353370112	19	4911
2026-01-17 23:02:28.42	53.15	22.34	-29.8	-32.4	15.0	6.32e-04	0	43	0	355467264	19	4897
2026-01-17 23:02:29.43	53.36	22.43	-29.9	-32.7	14.8	0.00e+00	0	43	0	356515840	19	4992
2026-01-17 23:02:30.43	53.58	22.52	-29.9	-32.8	14.8	7.86e-04	0	43	0	358612992	19	5021
2026-01-17 23:02:31.43	53.80	22.60	-29.8	-32.4	15.0	9.70e-04	0	44	0	360710144	19	4898
2026-01-17 23:02:32.44	54.02	22.69	-29.8	-32.4	15.0	0.00e+00	0	43	0	362807296	19	4881
2026-01-17 23:02:33.43	54.24	22.78	-29.6	-31.9	15.3	1.56e-04	0	44	0	363855872	19	4733
2026-01-17 23:02:34.44	54.46	22.86	-29.6	-32.0	15.3	8.23e-05	0	43	0	365953024	19	4766
2026-01-17 23:02:35.44	54.68	22.95	-29.7	-32.3	15.1	0.00e+00	0	43	0	368050176	19	4840
2026-01-17 23:02:36.45	54.91	23.03	-29.7	-32.3	15.1	1.92e-04	0	43	0	370147328	19	4840
2026-01-17 23:02:37.45	55.13	23.12	-29.6	-32.0	15.3	6.71e-05	0	44	0	372244480	19	4758
2026-01-17 23:02:38.45	55.36	23.20	-29.6	-31.9	15.3	0.00e+00	0	43	0	373293056	19	4723
2026-01-17 23:02:39.46	55.58	23.29	-29.7	-32.3	15.1	0.00e+00	0	44	0	375390208	19	4851
2026-01-17 23:02:40.46	55.81	23.38	-29.8	-32.6	15.0	1.06e-05	0	44	0	377487360	19	4942
2026-01-17 23:02:41.47	56.04	23.46	-29.9	-32.6	14.9	0.00e+00	0	44	0	379584512	19	4960
2026-01-17 23:02:42.47	56.27	23.55	-29.9	-32.7	14.9	6.79e-05	0	43	0	381681664	19	4998
2026-01-17 23:02:43.47	56.51	23.63	-30.0	-32.5	14.6	1.50e-06	0	44	0	382730240	20	4820
2026-01-17 23:02:44.47	56.74	23.71	-30.0	-32.6	14.6	7.00e-07	0	44	0	384827392	20	4829
2026-01-17 23:02:45.47	56.97	23.80	-30.0	-32.4	14.7	1.20e-04	0	43	0	386924544	20	4781
2026-01-17 23:02:46.47	57.21	23.88	-29.9	-32.3	14.7	1.06e-04	0	44	0	389021696	20	4745
2026-01-17 23:02:47.47	57.44	23.96	-30.0	-32.4	14.7	0.00e+00	0	44	0	391118848	20	4778
2026-01-17 23:02:48.47	57.68	24.05	-30.0	-32.5	14.7	1.18e-04	0	43	0	392167424	20	4796
2026-01-17 23:02:49.47	57.92	24.13	-30.0	-32.6	14.6	1.57e-04	0	44	0	394264576	20	4846
2026-01-17 23:02:50.47	58.16	24.21	-30.2	-33.0	14.3	0.00e+00	0	44	0	396361728	20	4984
2026-01-17 23:02:51.47	58.40	24.30	-30.2	-33.0	14.4	1.01e-04	0	43	0	398458880	20	4976
2026-01-17 23:02:52.47	58.65	24.38	-30.2	-33.1	14.3	5.34e-05	0	43	0	400556032	20	5000
2026-01-17 23:02:53.48	58.89	24.46	-30.2	-33.1	14.3	0.00e+00	0	44	0	401604608	20	5026
2026-01-17 23:02:54.48	59.14	24.54	-30.2	-33.1	14.3	7.00e-07	0	43	0	403701760	20	5020
2026-01-17 23:02:55.48	59.38	24.62	-30.2	-33.0	14.4	0.00e+00	0	43	0	405798912	20	4971
2026-01-17 23:02:56.49	59.63	24.71	-30.2	-33.1	14.3	1.50e-06	0	43	0	407896064	20	5027
2026-01-17 23:02:57.49	59.88	24.79	-30.2	-33.2	14.3	7.00e-07	0	44	0	408944640	20	5031
2026-01-17 23:02:58.49	60.13	24.87	-30.2	-33.0	14.3	0.00e+00	0	44	0	411041792	20	4990
2026-01-17 23:02:59.49	60.39	24.95	-30.2	-33.1	14.3	0.00e+00	0	43	0	413138944	20	5029
2026-01-17 23:03:00.49	60.64	25.03	-30.4	-33.5	14.1	2.20e-06	0	43	0	415236096	20	5144
2026-01-17 23:03:01.49	60.89	25.11	-30.4	-33.7	13.9	1.50e-06	0	44	0	417333248	20	5215
2026-01-17 23:03:02.49	61.15	25.19	-30.6	-33.6	13.7	6.10e-06	0	44	0	418381824	21	5072
2026-01-17 23:03:03.49	61.40	25.26	-30.9	-34.3	13.2	2.41e-04	0	43	0	420478976	21	5357
2026-01-17 23:03:04.49	61.66	25.34	-31.0	-34.1	13.1	4.04e-05	0	44	0	422576128	22	5148
2026-01-17 23:03:05.50	61.92	25.42	-31.0	-34.1	13.0	2.59e-05	0	44	0	424673280	22	5170
2026-01-17 23:03:06.51	62.19	25.50	-31.0	-34.2	13.0	3.92e-04	0	43	0	426770432	22	5203
2026-01-17 23:03:07.51	62.45	25.58	-31.1	-34.3	12.9	4.19e-05	0	44	0	427819008	22	5252
2026-01-17 23:03:08.52	62.71	25.65	-31.1	-34.3	12.9	4.95e-05	0	44	0	429916160	22	5245
2026-01-17 23:03:09.52	62.98	25.73	-31.1	-34.4	12.9	6.25e-05	0	43	0	432013312	22	5265
2026-01-17 23:03:10.52	63.24	25.81	-31.2	-34.8	12.6	8.85e-05	0	44	0	434110464	22	5441
2026-01-17 23:03:11.52	63.51	25.88	-31.5	-35.5	12.2	1.84e-04	0	44	0	436207616	22	5724
2026-01-17 23:03:12.53	63.78	25.96	-31.5	-35.1	12.0	3.54e-04	0	44	0	437256192	23	5463
2026-01-17 23:03:13.53	64.05	26.03	-31.4	-34.9	12.2	2.98e-04	0	44	0	439353344	23	5363
2026-01-17 23:03:14.53	64.32	26.11	-31.4	-34.7	12.3	1.66e-04	0	44	0	441450496	23	5301
2026-01-17 23:03:15.53	64.59	26.18	-31.4	-34.9	12.2	2.05e-04	0	43	0	443547648	23	5390
2026-01-17 23:03:16.54	64.87	26.26	-31.5	-35.1	12.1	2.72e-04	0	44	0	445644800	23	5438
2026-01-17 23:03:17.54	65.14	26.33	-31.5	-35.0	12.1	2.09e-04	0	44	0	446693376	23	5420
2026-01-17 23:03:18.54	65.42	26.40	-31.6	-35.3	11.9	4.57e-04	0	43	0	448790528	23	5554
2026-01-17 23:03:19.54	65.69	26.47	-31.5	-35.1	12.1	2.62e-04	0	44	0	450887680	23	5449
2026-01-17 23:03:20.54	65.97	26.54	-31.5	-35.1	12.1	2.26e-04	0	44	0	452984832	23	5456
2026-01-17 23:03:21.54	66.25	26.61	-31.6	-35.3	11.9	4.13e-04	0	44	0	454033408	23	5539
2026-01-17 23:03:22.54	66.53	26.69	-31.6	-35.4	11.9	3.66e-04	0	44	0	456130560	23	5586
2026-01-17 23:03:23.54	66.81	26.75	-31.6	-35.4	11.8	4.11e-04	0	43	0	458227712	23	5578
2026-01-17 23:03:24.55	67.10	26.82	-31.6	-35.6	11.8	4.70e-04	0	43	0	460324864	23	5647
2026-01-17 23:03:25.55	67.38	26.89	-31.6	-35.4	11.8	4.97e-04	0	44	0	462422016	23	5585
2026-01-17 23:03:26.56	67.67	26.96	-31.5	-35.2	12.0	3.34e-04	0	44	0	464519168	23	5478
2026-01-17 23:03:27.55	67.95	27.03	-31.5	-35.2	12.1	2.59e-04	0	44	0	465567744	23	5478
2026-01-17 23:03:28.56	68.24	27.10	-31.5	-35.0	12.2	2.79e-04	0	44	0	467664896	23	5409
2026-01-17 23:03:29.55	68.53	27.16	-31.4	-34.8	12.3	2.01e-04	0	44	0	469762048	23	5319
2026-01-17 23:03:30.56	68.82	27.23	-31.4	-34.8	12.3	2.04e-04	0	44	0	471859200	23	5332
2026-01-17 23:03:31.55	69.11	27.29	-31.4	-34.7	12.3	1.85e-04	0	44	0	472907776	23	5283
2026-01-17 23:03:32.56	69.41	27.36	-31.4	-34.7	12.4	1.20e-04	0	44	0	475004928	23	5277
2026-01-17 23:03:33.56	69.70	27.42	-31.4	-34.6	12.4	1.91e-04	0	44	0	477102080	23	5258
2026-01-17 23:03:34.56	69.99	27.49	-31.3	-34.6	12.4	1.42e-04	0	44	0	479199232	23	5241
2026-01-17 23:03:35.56	70.29	27.55	-31.4	-34.7	12.2	1.45e-04	0	44	0	481296384	23	5280
2026-01-17 23:03:36.57	70.59	27.61	-31.4	-35.3	12.1	1.75e-04	0	44	0	482344960	22	5629
2026-01-17 23:03:37.57	70.89	27.67	-31.4	-35.3	12.4	1.85e-04	0	43	0	484442112	22	5617
2026-01-17 23:03:38.57	71.19	27.73	-31.4	-35.4	12.3	1.74e-04	0	44	0	486539264	22	5660
2026-01-17 23:03:39.58	71.49	27.79	-31.4	-34.8	12.3	2.33e-04	0	44	0	488636416	23	5319
2026-01-17 23:03:40.58	71.79	27.85	-31.3	-34.5	12.5	1.52e-04	0	44	0	490733568	23	5199
2026-01-17 23:03:41.57	72.09	27.91	-31.3	-34.4	12.6	9.84e-05	0	44	0	491782144	23	5153
2026-01-17 23:03:42.57	72.39	27.97	-31.2	-34.1	12.8	8.16e-05	0	44	0	493879296	23	5037
2026-01-17 23:03:43.57	72.70	28.02	-31.3	-34.4	12.6	6.63e-05	0	44	0	495976448	23	5144
2026-01-17 23:03:44.58	73.01	28.08	-31.4	-34.9	12.2	1.32e-04	0	44	0	498073600	23	5343
2026-01-17 23:03:45.58	73.31	28.14	-31.7	-35.7	11.7	4.15e-04	0	44	0	499122176	23	5695
2026-01-17 23:03:46.58	73.62	28.19	-32.0	-36.6	11.1	1.16e-03	0	43	0	501219328	23	6136
2026-01-17 23:03:47.59	73.93	28.25	-32.2	-36.7	10.6	2.57e-03	0	44	0	503316480	24	6079
2026-01-17 23:03:48.59	74.24	28.30	-32.3	-37.1	10.4	4.39e-03	0	44	0	505413632	24	6254
2026-01-17 23:03:49.59	74.55	28.35	-32.3	-37.1	10.4	4.73e-03	0	44	0	507510784	24	6250
2026-01-17 23:03:50.59	74.87	28.40	-32.2	-36.7	10.6	5.00e-03	0	44	0	508559360	24	6083
2026-01-17 23:03:51.59	75.18	28.45	-32.1	-36.4	10.8	2.84e-03	0	44	0	510656512	24	5913
2026-01-17 23:03:52.59	75.49	28.50	-32.0	-36.0	11.1	1.75e-03	0	44	0	512753664	24	5726
2026-01-17 23:03:53.59	75.81	28.55	-31.9	-36.0	11.2	1.33e-03	0	44	0	514850816	24	5712
2026-01-17 23:03:54.59	76.12	28.60	-31.9	-35.9	11.2	1.45e-03	0	44	0	516947968	24	5675
2026-01-17 23:03:55.59	76.44	28.65	-31.9	-35.7	11.4	9.19e-04	0	44	0	517996544	24	5588
2026-01-17 23:03:56.59	76.76	28.69	-31.9	-35.7	11.3	1.22e-03	0	43	0	520093696	24	5608
2026-01-17 23:03:57.59	77.08	28.74	-31.9	-35.7	11.4	1.23e-03	0	44	0	522190848	24	5604
2026-01-17 23:03:58.59	77.40	28.78	-31.8	-35.4	11.5	8.20e-04	0	43	0	524288000	24	5474
2026-01-17 23:03:59.59	77.72	28.83	-31.8	-35.6	11.4	8.48e-04	0	44	0	526385152	24	5544
2026-01-17 23:04:00.59	78.04	28.87	-32.0	-36.0	11.1	1.22e-03	0	43	0	527433728	24	5739
2026-01-17 23:04:01.59	78.36	28.91	-31.9	-35.9	11.2	1.32e-03	0	44	0	529530880	24	5687
2026-01-17 23:04:02.59	78.68	28.95	-32.0	-36.1	11.0	1.78e-03	0	43	0	531628032	24	5781
2026-01-17 23:04:03.60	79.01	29.00	-31.9	-35.9	11.2	1.55e-03	0	44	0	533725184	24	5689
2026-01-17 23:04:04.59	79.33	29.03	-31.8	-35.6	11.4	1.04e-03	0	44	0	534773760	24	5570
2026-01-17 23:04:05.60	79.66	29.07	-31.9	-35.9	11.2	1.33e-03	0	44	0	536870912	24	5697
2026-01-17 23:04:06.60	79.98	29.11	-31.9	-36.0	11.1	1.78e-03	0	44	0	538968064	24	5745
2026-01-17 23:04:07.61	80.31	29.15	-31.9	-36.0	11.1	1.45e-03	0	44	0	541065216	24	5739
2026-01-17 23:04:08.61	80.64	29.18	-32.0	-36.2	11.0	1.78e-03	0	44	0	543162368	24	5831
2026-01-17 23:04:09.62	80.97	29.22	-31.9	-35.8	11.2	1.46e-03	0	43	0	545259520	24	5651
2026-01-17 23:04:10.62	81.30	29.25	-31.9	-35.9	11.2	1.31e-03	0	44	0	546308096	24	5712
2026-01-17 23:04:11.61	81.63	29.28	-32.0	-36.3	10.9	1.82e-03	0	43	0	548405248	24	5880
2026-01-17 23:04:12.61	81.96	29.32	-31.9	-35.7	11.3	1.50e-03	0	44	0	550502400	24	5610
2026-01-17 23:04:13.61	82.29	29.35	-31.9	-35.7	11.3	1.09e-03	0	44	0	552599552	24	5624
2026-01-17 23:04:14.62	82.62	29.38	-31.7	-35.3	11.6	1.03e-03	0	44	0	553648128	24	5418
2026-01-17 23:04:15.62	82.96	29.41	-31.7	-35.3	11.7	6.45e-04	0	44	0	555745280	24	5412
2026-01-17 23:04:16.62	83.29	29.43	-31.7	-35.4	11.6	6.87e-04	0	44	0	557842432	24	5459
2026-01-17 23:04:17.62	83.62	29.46	-31.7	-35.2	11.7	8.28e-04	0	44	0	559939584	24	5374
2026-01-17 23:04:18.62	83.96	29.49	-31.6	-35.0	11.9	4.92e-04	0	44	0	562036736	24	5300
2026-01-17 23:04:19.62	84.29	29.51	-31.7	-35.1	11.8	4.65e-04	0	44	0	563085312	24	5325
2026-01-17 23:04:20.62	84.63	29.53	-31.6	-35.0	11.9	5.31e-04	0	44	0	565182464	24	5283
2026-01-17 23:04:21.63	84.96	29.56	-31.8	-35.4	11.5	5.78e-04	0	44	0	567279616	24	5494
2026-01-17 23:04:22.62	85.30	29.58	-31.8	-35.4	11.6	8.76e-04	0	44	0	569376768	24	5454
2026-01-17 23:04:23.62	85.63	29.60	-31.7	-35.1	11.8	5.77e-04	0	44	0	571473920	24	5339
2026-01-17 23:04:24.63	85.97	29.62	-31.6	-34.9	12.0	4.65e-04	0	44	0	572522496	24	5242
2026-01-17 23:04:25.63	86.31	29.64	-31.5	-34.5	12.2	2.90e-04	0	44	0	574619648	24	5102
2026-01-17 23:04:26.62	86.64	29.65	-31.4	-34.3	12.3	2.07e-04	0	44	0	576716800	24	5028
2026-01-17 23:04:27.62	86.98	29.67	-31.4	-34.3	12.3	1.43e-04	0	44	0	578813952	24	5027
2026-01-17 23:04:28.63	87.32	29.69	-31.5	-34.4	12.3	1.92e-04	0	43	0	579862528	24	5066
2026-01-17 23:04:29.63	87.66	29.70	-31.5	-34.6	12.2	1.98e-04	0	44	0	581959680	24	5132
2026-01-17 23:04:30.63	88.00	29.71	-31.8	-35.3	11.7	3.75e-04	0	44	0	584056832	24	5418
2026-01-17 23:04:31.63	88.34	29.73	-31.9	-35.7	11.4	7.28e-04	0	44	0	586153984	24	5585
2026-01-17 23:04:32.64	88.68	29.74	-31.9	-35.6	11.4	1.03e-03	0	44	0	588251136	24	5567
2026-01-17 23:04:33.65	89.02	29.75	-31.8	-35.4	11.6	7.74e-04	0	44	0	589299712	24	5446
2026-01-17 23:04:34.65	89.36	29.76	-31.6	-34.8	12.0	4.28e-04	0	44	0	591396864	24	5200
2026-01-17 23:04:35.65	89.70	29.76	-31.4	-34.4	12.3	2.22e-04	0	44	0	593494016	24	5042
2026-01-17 23:04:36.65	90.04	29.77	-31.4	-34.3	12.4	1.47e-04	0	44	0	595591168	24	4999
2026-01-17 23:04:37.66	90.39	29.78	-31.3	-34.3	12.7	1.47e-04	0	44	0	597688320	23	5125
2026-01-17 23:04:38.66	90.73	29.78	-31.1	-33.8	13.1	1.83e-04	0	44	0	598736896	23	4932
2026-01-17 23:04:39.67	91.07	29.78	-31.0	-34.2	13.1	3.12e-04	0	43	0	600834048	22	5169
2026-01-17 23:04:40.67	91.41	29.79	-31.1	-34.3	13.0	2.97e-05	0	44	0	602931200	22	5236
2026-01-17 23:04:41.67	91.75	29.79	-31.2	-34.6	12.9	5.00e-04	0	44	0	605028352	22	5329
2026-01-17 23:04:42.68	92.10	29.79	-31.3	-34.9	12.7	5.17e-04	0	44	0	607125504	22	5460
2026-01-17 23:04:43.68	92.44	29.79	-31.3	-35.1	12.5	1.11e-04	0	44	0	608174080	22	5534
2026-01-17 23:04:44.68	92.78	29.79	-31.5	-35.5	12.2	3.59e-04	0	44	0	610271232	22	5746
2026-01-17 23:04:45.68	93.12	29.78	-31.6	-35.5	11.9	4.52e-04	0	44	0	612368384	23	5611
2026-01-17 23:04:46.68	93.46	29.78	-31.5	-35.2	12.1	3.62e-04	0	44	0	614465536	23	5484
2026-01-17 23:04:47.69	93.80	29.77	-31.3	-34.5	12.6	2.10e-04	0	44	0	616562688	23	5190
2026-01-17 23:04:48.69	94.14	29.77	-31.1	-34.0	12.9	9.53e-05	0	44	0	617611264	23	5026
2026-01-17 23:04:49.70	94.49	29.76	-31.1	-34.0	12.9	3.73e-05	0	43	0	619708416	23	4997
2026-01-17 23:04:50.70	94.82	29.75	-31.4	-34.8	12.4	1.04e-04	0	44	0	621805568	23	5332
2026-01-17 23:04:51.70	95.16	29.74	-31.6	-35.4	11.9	2.66e-04	0	44	0	623902720	23	5580
2026-01-17 23:04:52.70	95.50	29.73	-31.8	-36.2	11.4	5.28e-04	0	44	0	624951296	23	5943
2026-01-17 23:04:53.71	95.85	29.72	-32.1	-36.5	10.7	2.36e-03	0	43	0	627048448	24	6015
2026-01-17 23:04:54.72	96.19	29.71	-32.1	-36.7	10.6	3.70e-03	0	44	0	629145600	24	6100
2026-01-17 23:04:55.72	96.53	29.69	-32.0	-36.3	10.9	3.19e-03	0	44	0	631242752	24	5877
2026-01-17 23:04:56.72	96.87	29.68	-31.9	-35.9	11.2	1.41e-03	0	44	0	633339904	24	5707
2026-01-17 23:04:57.72	97.20	29.66	-31.9	-35.8	11.4	1.03e-03	0	43	0	635437056	24	5648
2026-01-17 23:04:58.72	97.54	29.64	-31.7	-35.1	11.8	8.36e-04	0	44	0	636485632	24	5365
2026-01-17 23:04:59.72	97.88	29.63	-31.7	-35.2	11.8	4.07e-04	0	44	0	638582784	24	5380
2026-01-17 23:05:00.73	98.22	29.61	-31.7	-35.2	11.8	6.62e-04	0	44	0	640679936	24	5393
2026-01-17 23:05:01.73	98.56	29.59	-31.8	-35.5	11.6	6.54e-04	0	44	0	642777088	24	5502
2026-01-17 23:05:02.73	98.89	29.56	-32.1	-36.6	10.7	1.35e-03	0	44	0	643825664	24	6024
2026-01-17 23:05:03.73	99.23	29.54	-32.3	-37.2	10.3	4.42e-03	0	44	0	645922816	24	6343
2026-01-17 23:05:04.73	99.56	29.52	-32.4	-37.4	10.1	6.64e-03	0	44	0	648019968	24	6432
2026-01-17 23:05:05.73	99.90	29.49	-32.4	-37.4	10.2	7.38e-03	0	44	0	650117120	24	6397
2026-01-17 23:05:06.74	100.24	29.47	-32.3	-37.3	10.2	6.59e-03	0	44	0	652214272	24	6383
2026-01-17 23:05:07.75	100.57	29.44	-32.2	-36.7	10.7	5.12e-03	0	44	0	653262848	24	6042
2026-01-17 23:05:08.75	100.91	29.41	-32.1	-36.3	11.0	2.30e-03	0	44	0	655360000	24	5875
2026-01-17 23:05:09.75	101.24	29.39	-31.9	-36.0	11.2	1.72e-03	0	44	0	657457152	24	5718
2026-01-17 23:05:10.76	101.58	29.36	-32.0	-36.0	11.2	1.33e-03	0	44	0	659554304	24	5715
2026-01-17 23:05:11.77	101.91	29.33	-31.9	-35.7	11.3	1.26e-03	0	44	0	661651456	24	5582
2026-01-17 23:05:12.77	102.24	29.29	-31.8	-35.5	11.5	1.08e-03	0	44	0	662700032	24	5521
2026-01-17 23:05:13.77	102.57	29.26	-31.9	-35.8	11.3	1.01e-03	0	44	0	664797184	24	5640
2026-01-17 23:05:14.78	102.90	29.23	-31.9	-35.6	11.4	1.03e-03	0	44	0	666894336	24	5572
2026-01-17 23:05:15.79	103.24	29.19	-31.9	-35.9	11.2	9.95e-04	0	44	0	668991488	24	5694
2026-01-17 23:05:16.79	103.56	29.16	-32.1	-36.6	10.7	2.31e-03	0	44	0	671088640	24	6014
2026-01-17 23:05:17.79	103.89	29.12	-32.3	-37.1	10.3	5.55e-03	0	44	0	672137216	24	6260
2026-01-17 23:05:18.79	104.22	29.08	-32.2	-36.9	10.4	4.67e-03	0	44	0	674234368	24	6176
2026-01-17 23:05:19.80	104.55	29.05	-32.1	-36.6	10.7	3.92e-03	0	44	0	676331520	24	6009
2026-01-17 23:05:20.81	104.88	29.01	-31.9	-35.8	11.2	1.59e-03	0	44	0	678428672	24	5659
2026-01-17 23:05:21.81	105.20	28.97	-31.8	-35.5	11.5	8.78e-04	0	44	0	680525824	24	5520
2026-01-17 23:05:22.81	105.52	28.92	-31.8	-35.6	11.4	7.86e-04	0	44	0	681574400	24	5539
2026-01-17 23:05:23.82	105.85	28.88	-32.0	-36.1	11.0	1.44e-03	0	44	0	683671552	24	5771
2026-01-17 23:05:24.83	106.18	28.84	-32.0	-36.3	10.9	2.10e-03	0	44	0	685768704	24	5866
2026-01-17 23:05:25.83	106.50	28.79	-32.0	-36.0	11.2	2.24e-03	0	44	0	687865856	24	5726
2026-01-17 23:05:26.84	106.82	28.75	-31.8	-35.5	11.5	9.89e-04	0	43	0	689963008	24	5513
2026-01-17 23:05:27.84	107.14	28.70	-31.7	-35.2	11.7	5.70e-04	0	44	0	691011584	24	5367
2026-01-17 23:05:28.85	107.46	28.66	-31.8	-35.4	11.5	6.18e-04	0	44	0	693108736	24	5476
2026-01-17 23:05:29.84	107.78	28.61	-31.8	-35.4	11.6	8.83e-04	0	43	0	695205888	24	5451
2026-01-17 23:05:30.85	108.10	28.56	-32.0	-36.1	11.1	1.23e-03	0	44	0	697303040	24	5766
2026-01-17 23:05:31.85	108.41	28.51	-31.9	-35.9	11.1	2.10e-03	0	44	0	698351616	24	5705
2026-01-17 23:05:32.86	108.73	28.46	-31.8	-35.4	11.6	1.08e-03	0	44	0	700448768	24	5464
2026-01-17 23:05:33.87	109.05	28.41	-31.5	-34.7	12.0	3.56e-04	0	44	0	702545920	24	5197
2026-01-17 23:05:34.87	109.36	28.36	-31.3	-34.0	12.5	1.78e-04	0	44	0	704643072	24	4907
2026-01-17 23:05:35.88	109.68	28.31	-31.1	-33.8	13.0	7.40e-05	0	44	0	706740224	23	4934
2026-01-17 23:05:36.88	109.99	28.25	-30.9	-33.3	13.3	1.75e-05	0	44	0	708837376	23	4739
2026-01-17 23:05:37.88	110.30	28.20	-30.8	-33.6	13.5	3.80e-06	0	44	0	709885952	22	4967
2026-01-17 23:05:38.89	110.61	28.14	-30.6	-33.0	13.9	7.60e-06	0	44	0	711983104	22	4734
2026-01-17 23:05:39.89	110.92	28.09	-30.5	-32.8	14.0	3.00e-06	0	44	0	714080256	22	4682
2026-01-17 23:05:40.89	111.22	28.03	-30.6	-32.9	13.9	4.50e-06	0	44	0	716177408	22	4720
2026-01-17 23:05:41.90	111.53	27.97	-30.8	-33.6	13.5	3.00e-06	0	44	0	718274560	22	4953
2026-01-17 23:05:42.90	111.84	27.92	-30.9	-33.8	13.4	1.83e-05	0	44	0	719323136	22	5038
2026-01-17 23:05:43.89	112.14	27.86	-31.2	-34.8	12.7	8.92e-05	0	44	0	721420288	22	5442
2026-01-17 23:05:44.90	112.44	27.80	-31.4	-35.3	12.3	1.31e-04	0	44	0	723517440	22	5659
2026-01-17 23:05:45.90	112.74	27.74	-31.6	-35.5	11.8	2.73e-04	0	44	0	725614592	23	5597
2026-01-17 23:05:46.91	113.05	27.68	-31.6	-35.5	11.8	5.27e-04	0	44	0	726663168	23	5623
2026-01-17 23:05:47.90	113.34	27.62	-31.6	-35.5	11.8	3.97e-04	0	44	0	728760320	23	5617
2026-01-17 23:05:48.91	113.64	27.55	-31.7	-35.6	11.7	5.69e-04	0	44	0	730857472	23	5653
2026-01-17 23:05:49.90	113.94	27.49	-31.7	-35.7	11.6	6.12e-04	0	44	0	732954624	23	5730
2026-01-17 23:05:50.91	114.24	27.43	-31.7	-35.9	11.5	8.41e-04	0	44	0	735051776	23	5799
2026-01-17 23:05:51.91	114.53	27.36	-31.6	-35.5	11.8	6.55e-04	0	44	0	736100352	23	5639
2026-01-17 23:05:52.92	114.83	27.30	-31.6	-35.5	11.8	4.99e-04	0	44	0	738197504	23	5638
2026-01-17 23:05:53.92	115.12	27.23	-31.7	-35.9	11.5	6.48e-04	0	44	0	740294656	23	5791
2026-01-17 23:05:54.92	115.41	27.17	-31.5	-35.1	12.0	5.70e-04	0	44	0	742391808	23	5481
2026-01-17 23:05:55.92	115.70	27.10	-31.4	-34.9	12.2	2.53e-04	0	44	0	744488960	23	5391
2026-01-17 23:05:56.93	115.99	27.03	-31.3	-34.6	12.3	1.87e-04	0	44	0	745537536	23	5277
2026-01-17 23:05:57.94	116.28	26.97	-31.3	-34.6	12.3	1.48e-04	0	44	0	747634688	23	5265
2026-01-17 23:05:58.94	116.57	26.90	-31.5	-35.2	12.0	2.31e-04	0	44	0	749731840	23	5489
2026-01-17 23:05:59.94	116.85	26.83	-31.6	-35.4	11.8	4.16e-04	0	44	0	751828992	23	5579
2026-01-17 23:06:00.94	117.14	26.76	-31.6	-35.4	11.8	4.09e-04	0	44	0	753926144	23	5584
2026-01-17 23:06:01.94	117.42	26.69	-31.6	-35.6	11.7	5.16e-04	0	44	0	754974720	23	5677
2026-01-17 23:06:02.95	117.70	26.62	-31.6	-35.5	11.8	5.23e-04	0	44	0	757071872	23	5628
2026-01-17 23:06:03.95	117.98	26.55	-31.6	-35.5	11.7	5.63e-04	0	44	0	759169024	23	5636
2026-01-17 23:06:04.96	118.27	26.47	-31.6	-35.7	11.6	8.01e-04	0	44	0	761266176	23	5730
2026-01-17 23:06:05.96	118.54	26.40	-31.6	-35.4	11.8	8.86e-04	0	44	0	763363328	23	5592
2026-01-17 23:06:06.96	118.82	26.33	-31.5	-35.1	12.0	4.52e-04	0	44	0	764411904	23	5472
2026-01-17 23:06:07.97	119.10	26.26	-31.4	-34.8	12.2	3.55e-04	0	44	0	766509056	23	5357
2026-01-17 23:06:08.97	119.37	26.18	-31.3	-34.6	12.3	2.25e-04	0	44	0	768606208	23	5258
2026-01-17 23:06:09.97	119.64	26.11	-31.1	-34.1	12.7	1.28e-04	0	44	0	770703360	23	5059
2026-01-17 23:06:10.98	119.92	26.03	-31.0	-33.8	12.9	5.87e-05	0	44	0	771751936	23	4950
2026-01-17 23:06:11.98	120.19	25.96	-30.9	-33.4	13.1	5.95e-05	0	44	0	773849088	23	4815
2026-01-17 23:06:12.99	120.46	25.88	-30.9	-33.4	13.2	2.89e-05	0	44	0	775946240	23	4790
2026-01-17 23:06:13.99	120.73	25.80	-30.9	-33.8	13.2	2.05e-05	0	44	0	778043392	22	5053
2026-01-17 23:06:14.99	120.99	25.73	-30.6	-33.6	13.7	4.22e-04	0	44	0	780140544	21	5076
2026-01-17 23:06:16.00	121.26	25.65	-30.6	-33.6	13.6	6.80e-06	0	44	0	782237696	21	5081
2026-01-17 23:06:17.00	121.53	25.57	-30.9	-34.6	13.0	9.10e-06	0	44	0	783286272	21	5485
2026-01-17 23:06:18.00	121.79	25.50	-30.8	-34.3	13.2	3.86e-04	0	44	0	785383424	21	5355
2026-01-17 23:06:19.01	122.05	25.42	-31.4	-35.4	12.1	1.07e-04	0	44	0	787480576	22	5702
2026-01-17 23:06:20.01	122.31	25.34	-31.3	-35.1	12.3	2.94e-04	0	44	0	789577728	22	5566
2026-01-17 23:06:21.01	122.57	25.26	-31.3	-35.2	12.2	2.17e-04	0	44	0	790626304	22	5632
2026-01-17 23:06:22.01	122.83	25.18	-31.3	-35.2	12.2	2.77e-04	0	44	0	792723456	22	5618
2026-01-17 23:06:23.02	123.09	25.10	-31.4	-35.5	12.0	2.25e-04	0	44	0	794820608	22	5733
2026-01-17 23:06:24.02	123.34	25.02	-31.7	-36.0	11.3	4.71e-04	0	44	0	796917760	23	5873
2026-01-17 23:06:25.02	123.60	24.94	-31.6	-35.5	11.6	8.09e-04	0	44	0	799014912	23	5649
2026-01-17 23:06:26.02	123.85	24.86	-31.8	-36.2	11.2	8.99e-04	0	44	0	800063488	23	5959
2026-01-17 23:06:27.02	124.10	24.78	-31.5	-35.2	11.8	1.01e-03	0	44	0	802160640	23	5537
2026-01-17 23:06:28.03	124.35	24.70	-31.6	-35.6	11.6	6.51e-04	0	44	0	804257792	23	5680
2026-01-17 23:06:29.03	124.60	24.61	-31.8	-36.2	11.1	1.31e-03	0	44	0	806354944	23	5973
2026-01-17 23:06:30.04	124.85	24.53	-31.4	-34.9	12.0	9.70e-04	0	44	0	808452096	23	5379
2026-01-17 23:06:31.05	125.10	24.45	-31.2	-34.4	12.3	1.39e-04	0	44	0	809500672	23	5207
2026-01-17 23:06:32.04	125.34	24.37	-31.2	-34.5	12.3	2.78e-04	0	44	0	811597824	23	5243
2026-01-17 23:06:33.04	125.59	24.28	-31.5	-35.5	11.6	4.96e-04	0	44	0	813694976	23	5669
2026-01-17 23:06:34.04	125.83	24.20	-31.7	-36.1	11.1	1.20e-03	0	44	0	815792128	23	5940
2026-01-17 23:06:35.04	126.07	24.12	-31.4	-35.0	11.8	7.16e-04	0	44	0	817889280	23	5477
2026-01-17 23:06:36.05	126.31	24.03	-31.1	-34.2	12.5	3.11e-04	0	44	0	818937856	23	5130
2026-01-17 23:06:37.05	126.55	23.95	-30.9	-33.4	13.0	6.25e-05	0	44	0	821035008	23	4818
2026-01-17 23:06:38.05	126.79	23.87	-30.9	-33.6	12.9	4.80e-05	0	44	0	823132160	23	4887
2026-01-17 23:06:39.05	127.03	23.78	-31.2	-34.9	12.4	2.30e-04	0	44	0	825229312	22	5494
2026-01-17 23:06:40.06	127.26	23.70	-31.4	-35.5	11.9	2.56e-04	0	44	0	827326464	22	5767
2026-01-17 23:06:41.06	127.50	23.61	-31.6	-35.5	11.6	8.89e-04	0	44	0	828375040	23	5678
2026-01-17 23:06:42.07	127.73	23.53	-31.8	-36.2	11.0	1.68e-03	0	44	0	830472192	23	6003
2026-01-17 23:06:43.07	127.96	23.44	-31.4	-35.0	11.9	8.09e-04	0	44	0	832569344	23	5453
2026-01-17 23:06:44.07	128.19	23.36	-31.0	-34.3	12.7	5.73e-04	0	44	0	834666496	22	5253
2026-01-17 23:06:45.08	128.43	23.27	-30.7	-33.5	13.3	2.36e-05	0	44	0	835715072	22	4956
2026-01-17 23:06:46.08	128.65	23.18	-30.7	-33.6	13.2	2.44e-05	0	44	0	837812224	22	4999
2026-01-17 23:06:47.09	128.88	23.10	-30.9	-34.1	12.8	5.64e-05	0	44	0	839909376	22	5220
2026-01-17 23:06:48.09	129.11	23.01	-31.2	-34.9	12.3	8.01e-05	0	44	0	842006528	22	5531
2026-01-17 23:06:49.10	129.33	22.92	-31.3	-35.3	12.0	3.39e-04	0	44	0	844103680	22	5710
2026-01-17 23:06:50.11	129.56	22.84	-31.0	-34.3	12.6	2.50e-04	0	44	0	846200832	22	5306
2026-01-17 23:06:51.11	129.78	22.75	-30.6	-33.2	13.4	1.20e-04	0	44	0	847249408	22	4860
2026-01-17 23:06:52.11	130.00	22.66	-30.2	-32.7	14.0	3.80e-06	0	44	0	849346560	21	4791
2026-01-17 23:06:53.12	130.22	22.58	-30.2	-32.7	14.0	2.99e-04	0	44	0	851443712	21	4799
2026-01-17 23:06:54.12	130.44	22.49	-30.1	-33.0	14.2	2.27e-04	0	44	0	853540864	20	4992
2026-01-17 23:06:55.12	130.66	22.40	-30.4	-33.6	13.8	3.00e-06	0	44	0	854589440	20	5236
2026-01-17 23:06:56.12	130.87	22.32	-30.7	-34.0	13.2	1.29e-05	0	44	0	856686592	21	5258
2026-01-17 23:06:57.13	131.09	22.23	-30.9	-34.5	12.8	9.00e-05	0	44	0	858783744	21	5474
2026-01-17 23:06:58.13	131.30	22.14	-30.9	-34.8	12.7	9.00e-05	0	44	0	860880896	21	5589
2026-01-17 23:06:59.13	131.51	22.05	-30.8	-34.5	12.8	6.40e-05	0	44	0	862978048	21	5467
2026-01-17 23:07:00.13	131.73	21.97	-30.8	-34.2	13.0	4.88e-05	0	44	0	864026624	21	5356
2026-01-17 23:07:01.13	131.93	21.88	-30.8	-34.5	12.9	4.73e-05	0	44	0	866123776	21	5452
2026-01-17 23:07:02.13	132.14	21.79	-30.6	-33.8	13.2	2.28e-05	0	44	0	868220928	21	5208
2026-01-17 23:07:03.13	132.35	21.70	-30.8	-34.3	12.9	2.44e-05	0	44	0	870318080	21	5411
2026-01-17 23:07:04.13	132.56	21.62	-31.1	-34.7	12.4	7.47e-05	0	44	0	872415232	22	5449
2026-01-17 23:07:05.14	132.76	21.53	-31.2	-35.3	11.9	3.17e-04	0	44	0	873463808	22	5713
2026-01-17 23:07:06.14	132.97	21.44	-31.3	-35.3	11.8	4.94e-04	0	44	0	875560960	22	5738
2026-01-17 23:07:07.15	133.17	21.35	-31.1	-34.8	12.2	3.22e-04	0	44	0	877658112	22	5529
2026-01-17 23:07:08.15	133.38	21.26	-30.8	-34.0	12.7	4.37e-04	0	44	0	879755264	22	5204
2026-01-17 23:07:09.16	133.58	21.17	-30.7	-33.5	13.1	3.05e-05	0	44	0	881852416	22	4975
2026-01-17 23:07:10.15	133.78	21.09	-30.5	-33.1	13.3	1.67e-05	0	44	0	882900992	22	4834
2026-01-17 23:07:11.16	133.98	21.00	-30.3	-33.0	13.7	8.01e-05	0	44	0	884998144	21	4925
2026-01-17 23:07:12.16	134.17	20.91	-30.2	-32.8	13.8	5.30e-06	0	44	0	887095296	21	4841
2026-01-17 23:07:13.16	134.37	20.82	-30.4	-33.2	13.6	7.00e-07	0	44	0	889192448	21	4992
2026-01-17 23:07:14.16	134.57	20.73	-30.4	-33.3	13.5	1.06e-05	0	44	0	891289600	21	5025
2026-01-17 23:07:15.17	134.76	20.64	-30.5	-33.5	13.3	1.75e-05	0	44	0	892338176	21	5115
2026-01-17 23:07:16.17	134.95	20.56	-30.5	-33.5	13.4	2.28e-05	0	44	0	894435328	21	5101
2026-01-17 23:07:17.17	135.15	20.47	-30.3	-33.0	13.7	1.22e-05	0	44	0	896532480	21	4923
2026-01-17 23:07:18.16	135.33	20.38	-30.0	-32.3	14.1	4.50e-06	0	44	0	898629632	21	4663
2026-01-17 23:07:19.17	135.53	20.29	-29.9	-32.1	14.2	1.50e-06	0	44	0	899678208	21	4606
2026-01-17 23:07:20.17	135.72	20.20	-30.0	-32.6	14.2	7.00e-07	0	44	0	901775360	20	4893
2026-01-17 23:07:21.17	135.90	20.11	-30.1	-33.1	13.9	1.50e-06	0	44	0	903872512	20	5059
2026-01-17 23:07:22.18	136.09	20.02	-30.2	-33.4	13.7	2.20e-06	0	44	0	905969664	20	5173
2026-01-17 23:07:23.19	136.28	19.94	-30.3	-33.5	13.6	1.06e-05	0	44	0	908066816	20	5223
2026-01-17 23:07:24.19	136.46	19.85	-30.3	-33.6	13.5	1.44e-05	0	44	0	909115392	20	5263
2026-01-17 23:07:25.19	136.65	19.76	-30.2	-33.4	13.6	7.60e-06	0	44	0	911212544	20	5180
2026-01-17 23:07:26.19	136.83	19.67	-30.2	-33.4	13.6	6.10e-06	0	44	0	913309696	20	5188
2026-01-17 23:07:27.19	137.01	19.58	-30.2	-33.3	13.6	8.30e-06	0	44	0	915406848	20	5175
2026-01-17 23:07:28.19	137.19	19.50	-30.3	-33.8	13.3	1.22e-05	0	44	0	917504000	20	5343
2026-01-17 23:07:29.20	137.37	19.41	-30.1	-33.2	13.7	9.90e-06	0	44	0	918552576	20	5124
2026-01-17 23:07:30.20	137.55	19.32	-30.2	-33.3	13.6	1.37e-05	0	44	0	920649728	20	5172
2026-01-17 23:07:31.21	137.73	19.23	-30.1	-33.1	13.8	3.80e-06	0	44	0	922746880	20	5074
2026-01-17 23:07:32.21	137.91	19.14	-30.1	-33.1	13.8	3.80e-06	0	44	0	924844032	20	5078
2026-01-17 23:07:33.22	138.08	19.05	-30.1	-33.0	13.8	3.00e-06	0	44	0	926941184	20	5070
2026-01-17 23:07:34.22	138.26	18.96	-30.0	-33.0	13.8	4.50e-06	0	44	0	927989760	20	5060
2026-01-17 23:07:35.23	138.43	18.88	-30.1	-33.2	13.6	3.00e-06	0	44	0	930086912	20	5147
2026-01-17 23:07:36.23	138.61	18.79	-29.8	-32.4	14.2	3.80e-06	0	44	0	932184064	20	4843
2026-01-17 23:07:37.24	138.78	18.70	-29.5	-31.7	14.6	2.20e-06	0	44	0	934281216	20	4632
2026-01-17 23:07:38.24	138.95	18.61	-29.2	-31.5	14.5	1.50e-06	0	44	0	936378368	20	4682
2026-01-17 23:07:39.25	139.12	18.52	-29.6	-32.5	14.4	0.00e+00	0	44	0	937426944	19	5014
2026-01-17 23:07:40.25	139.29	18.44	-29.7	-32.8	14.3	0.00e+00	0	44	0	939524096	19	5109
2026-01-17 23:07:41.25	139.46	18.35	-30.0	-33.4	13.8	2.20e-06	0	44	0	941621248	19	5374
2026-01-17 23:07:42.25	139.62	18.26	-29.9	-33.2	14.0	3.80e-06	0	44	0	943718400	19	5286
2026-01-17 23:07:43.25	139.79	18.17	-30.1	-33.4	13.5	7.60e-06	0	44	0	945815552	20	5246
2026-01-17 23:07:44.25	139.96	18.09	-30.3	-33.9	13.0	2.82e-05	0	44	0	946864128	20	5477
2026-01-17 23:07:45.25	140.12	18.00	-30.2	-33.5	13.4	3.50e-05	0	44	0	948961280	20	5280
2026-01-17 23:07:46.25	140.28	17.91	-30.2	-33.4	13.4	5.00e-04	0	44	0	951058432	20	5226
2026-01-17 23:07:47.25	140.44	17.83	-30.1	-33.2	13.5	1.22e-05	0	44	0	953155584	20	5152
2026-01-17 23:07:48.26	140.61	17.74	-30.1	-33.2	13.5	7.60e-06	0	44	0	954204160	20	5150
2026-01-17 23:07:49.26	140.77	17.65	-30.1	-33.1	13.7	6.48e-04	0	44	0	956301312	20	5081
2026-01-17 23:07:50.27	140.93	17.56	-30.0	-32.9	13.8	6.10e-06	0	44	0	958398464	20	5025
2026-01-17 23:07:51.27	141.09	17.48	-30.1	-33.1	13.6	9.90e-06	0	44	0	960495616	20	5107
2026-01-17 23:07:52.27	141.25	17.39	-30.0	-33.3	13.9	4.50e-06	0	44	0	962592768	19	5276
2026-01-17 23:07:53.27	141.40	17.31	-29.9	-33.2	13.9	1.32e-03	0	44	0	963641344	19	5226
2026-01-17 23:07:54.27	141.56	17.22	-29.9	-33.1	14.0	7.00e-07	0	44	0	965738496	19	5217
2026-01-17 23:07:55.27	141.71	17.13	-30.0	-32.8	13.8	1.50e-06	0	44	0	967835648	20	4994
2026-01-17 23:07:56.27	141.87	17.05	-30.0	-33.0	13.6	1.32e-03	0	44	0	969932800	20	5082
2026-01-17 23:07:57.28	142.02	16.96	-30.0	-33.0	13.6	3.00e-06	0	44	0	972029952	20	5079
2026-01-17 23:07:58.29	142.18	16.87	-30.1	-33.3	13.4	1.52e-05	0	44	0	973078528	20	5189
2026-01-17 23:07:59.29	142.33	16.79	-30.2	-33.5	13.3	9.90e-06	0	44	0	975175680	20	5250
2026-01-17 23:08:00.29	142.48	16.70	-30.3	-33.7	13.1	2.89e-05	0	44	0	977272832	20	5345
2026-01-17 23:08:01.29	142.63	16.62	-30.2	-33.6	13.1	2.89e-05	0	44	0	979369984	20	5300
2026-01-17 23:08:02.30	142.78	16.53	-30.3	-33.8	13.0	2.59e-05	0	44	0	981467136	20	5372
2026-01-17 23:08:03.30	142.93	16.45	-30.4	-34.2	12.7	8.01e-05	0	44	0	982515712	20	5535
2026-01-17 23:08:04.31	143.08	16.36	-30.3	-33.9	12.9	1.17e-03	0	44	0	984612864	20	5419
2026-01-17 23:08:05.32	143.23	16.27	-30.3	-33.8	12.9	4.57e-05	0	44	0	986710016	20	5401
2026-01-17 23:08:06.32	143.37	16.19	-30.3	-34.0	12.8	7.40e-05	0	44	0	988807168	20	5462
2026-01-17 23:08:07.32	143.52	16.10	-30.4	-34.0	12.8	1.43e-03	0	44	0	990904320	20	5472
2026-01-17 23:08:08.31	143.66	16.02	-30.4	-34.2	12.6	6.63e-05	0	44	0	991952896	20	5563
2026-01-17 23:08:09.31	143.80	15.94	-30.6	-34.2	12.2	1.70e-04	0	44	0	994050048	21	5473
2026-01-17 23:08:10.31	143.95	15.85	-30.5	-34.4	12.5	1.89e-03	0	44	0	996147200	20	5634
2026-01-17 23:08:11.31	144.09	15.77	-30.5	-34.0	12.3	2.02e-03	0	44	0	998244352	21	5384
2026-01-17 23:08:12.32	144.23	15.68	-30.6	-34.3	12.1	2.33e-04	0	44	0	999292928	21	5525
2026-01-17 23:08:13.33	144.37	15.60	-30.7	-34.5	12.0	2.23e-03	0	44	0	1001390080	21	5609
2026-01-17 23:08:14.33	144.51	15.51	-30.8	-35.0	11.7	2.73e-03	0	44	0	1003487232	21	5816
2026-01-17 23:08:15.32	144.65	15.43	-30.6	-34.3	12.1	4.99e-04	0	44	0	1005584384	21	5514
2026-01-17 23:08:16.32	144.79	15.35	-30.5	-34.5	12.4	1.72e-04	0	44	0	1007681536	20	5690
2026-01-17 23:08:17.32	144.93	15.26	-30.5	-34.4	12.4	2.28e-03	0	44	0	1008730112	20	5679
2026-01-17 23:08:18.33	145.06	15.18	-30.4	-34.4	12.4	1.19e-04	0	44	0	1010827264	20	5663
2026-01-17 23:08:19.33	145.20	15.10	-30.6	-34.3	12.2	1.69e-04	0	44	0	1012924416	21	5502
2026-01-17 23:08:20.33	145.34	15.01	-30.7	-34.6	11.9	2.55e-03	0	44	0	1015021568	21	5643
2026-01-17 23:08:21.33	145.47	14.93	-30.6	-34.4	12.1	3.16e-04	0	44	0	1017118720	21	5564
2026-01-17 23:08:22.34	145.61	14.85	-30.7	-34.8	11.8	2.52e-03	0	44	0	1018167296	21	5739
2026-01-17 23:08:23.34	145.74	14.76	-30.8	-35.1	11.5	6.92e-04	0	44	0	1020264448	21	5905
2026-01-17 23:08:24.35	145.87	14.68	-30.8	-35.1	11.6	7.96e-04	0	44	0	1022361600	21	5907
2026-01-17 23:08:25.35	146.00	14.60	-30.9	-35.4	11.3	3.57e-03	0	44	0	1024458752	21	6042
2026-01-17 23:08:26.35	146.14	14.52	-30.6	-34.6	11.8	3.24e-03	0	44	0	1026555904	21	5721
2026-01-17 23:08:27.35	146.27	14.43	-30.6	-34.7	11.7	6.83e-04	0	44	0	1027604480	21	5788
2026-01-17 23:08:28.35	146.40	14.35	-30.6	-34.7	11.7	3.05e-03	0	44	0	1029701632	21	5777
2026-01-17 23:08:29.36	146.53	14.27	-30.6	-34.7	11.7	2.64e-03	0	44	0	1031798784	21	5781
2026-01-17 23:08:30.37	146.66	14.19	-30.7	-35.0	11.5	1.02e-03	0	44	0	1033895936	21	5883
2026-01-17 23:08:31.37	146.78	14.11	-30.5	-34.3	12.0	2.73e-03	0	44	0	1035993088	21	5582
2026-01-17 23:08:32.37	146.91	14.02	-30.6	-34.4	12.0	2.80e-03	0	44	0	1037041664	21	5594
2026-01-17 23:08:33.37	147.04	13.94	-30.7	-34.6	11.9	5.45e-04	0	44	0	1039138816	21	5641
2026-01-17 23:08:34.38	147.16	13.86	-30.5	-34.2	12.1	2.66e-03	0	44	0	1041235968	21	5507
2026-01-17 23:08:35.38	147.29	13.78	-30.5	-34.3	12.1	2.55e-03	0	44	0	1043333120	21	5550
2026-01-17 23:08:36.38	147.41	13.70	-30.5	-34.4	12.0	5.44e-04	0	44	0	1044381696	21	5596
2026-01-17 23:08:37.38	147.54	13.62	-30.6	-34.6	11.8	2.84e-03	0	44	0	1046478848	21	5680
2026-01-17 23:08:38.38	147.66	13.54	-30.7	-34.8	11.6	2.78e-03	0	44	0	1048576000	21	5802
2026-01-17 23:08:39.38	147.78	13.46	-30.7	-34.7	11.7	8.38e-04	0	44	0	1050673152	21	5748
2026-01-17 23:08:40.39	147.90	13.38	-30.7	-34.8	11.6	6.12e-04	0	44	0	1052770304	21	5792
2026-01-17 23:08:41.39	148.02	13.30	-30.8	-35.2	11.4	3.72e-03	0	44	0	1053818880	21	5962
2026-01-17 23:08:42.39	148.14	13.22	-30.8	-35.2	11.4	1.32e-03	0	44	0	1055916032	21	5930
2026-01-17 23:08:43.40	148.27	13.14	-30.9	-35.4	11.2	3.85e-03	0	44	0	1058013184	21	6049
2026-01-17 23:08:44.40	148.38	13.06	-31.0	-35.6	11.1	1.43e-03	0	44	0	1060110336	21	6118
2026-01-17 23:08:45.41	148.50	12.98	-31.2	-35.8	10.6	2.82e-03	0	44	0	1062207488	22	6122
2026-01-17 23:08:46.41	148.62	12.90	-31.4	-36.5	10.0	6.79e-03	0	44	0	1063256064	22	6514
2026-01-17 23:08:47.41	148.74	12.82	-31.4	-36.2	9.9	1.13e-02	0	44	0	1065353216	23	6233
2026-01-17 23:08:48.42	148.86	12.74	-31.2	-35.3	10.5	5.52e-03	0	44	0	1067450368	23	5795
2026-01-17 23:08:49.42	148.97	12.66	-31.1	-35.7	10.6	5.74e-03	0	44	0	1069547520	22	6099
2026-01-17 23:08:50.42	149.09	12.58	-31.1	-35.6	10.7	3.46e-03	0	44	0	1071644672	22	6051
2026-01-17 23:08:51.42	149.20	12.50	-31.2	-35.9	10.4	3.73e-03	0	44	0	1072693248	22	6218
2026-01-17 23:08:52.42	149.32	12.42	-31.1	-35.8	10.5	8.16e-03	0	44	0	1074790400	22	6171
2026-01-17 23:08:53.43	149.43	12.35	-30.9	-35.1	11.0	5.59e-03	0	44	0	1076887552	22	5845
2026-01-17 23:08:54.43	149.55	12.27	-30.8	-34.8	11.1	1.49e-03	0	44	0	1078984704	22	5714
2026-01-17 23:08:55.43	149.66	12.19	-30.7	-35.1	11.3	1.16e-03	0	44	0	1081081856	21	5946
2026-01-17 23:08:56.43	149.77	12.11	-30.8	-35.2	11.2	3.66e-03	0	44	0	1082130432	21	5985
2026-01-17 23:08:57.44	149.88	12.03	-30.8	-35.3	11.1	1.73e-03	0	44	0	1084227584	21	6030
2026-01-17 23:08:58.45	149.99	11.95	-30.8	-35.1	11.3	1.12e-03	0	44	0	1086324736	21	5917
2026-01-17 23:08:59.45	150.10	11.88	-30.7	-34.8	11.6	3.47e-03	0	44	0	1088421888	21	5763
2026-01-17 23:09:00.46	150.22	11.80	-30.8	-35.0	11.4	8.54e-04	0	44	0	1090519040	21	5863
2026-01-17 23:09:01.47	150.33	11.72	-30.8	-35.3	11.2	1.08e-03	0	44	0	1091567616	21	6017
2026-01-17 23:09:02.46	150.43	11.65	-30.9	-35.7	10.8	2.47e-03	0	44	0	1093664768	21	6246
2026-01-17 23:09:03.47	150.54	11.57	-30.7	-35.2	11.1	2.35e-03	0	44	0	1095761920	21	6018
2026-01-17 23:09:04.47	150.65	11.49	-30.5	-34.9	11.3	1.30e-03	0	44	0	1097859072	21	5922
2026-01-17 23:09:05.48	150.76	11.41	-30.4	-34.7	11.3	1.38e-03	0	44	0	1099956224	21	5869
2026-01-17 23:09:06.47	150.86	11.34	-30.3	-34.8	11.6	1.01e-03	0	44	0	1101004800	20	6056
2026-01-17 23:09:07.48	150.97	11.26	-30.4	-35.2	11.3	1.05e-03	0	44	0	1103101952	20	6233
2026-01-17 23:09:08.48	151.08	11.19	-30.4	-35.2	11.2	1.27e-03	0	44	0	1105199104	20	6253
2026-01-17 23:09:09.49	151.18	11.11	-30.4	-35.2	11.3	1.13e-03	0	44	0	1107296256	20	6238
2026-01-17 23:09:10.49	151.29	11.03	-30.5	-35.1	11.0	4.15e-03	0	44	0	1108344832	21	6078
2026-01-17 23:09:11.49	151.39	10.96	-30.7	-35.6	10.5	2.62e-03	0	44	0	1110441984	21	6364
2026-01-17 23:09:12.49	151.49	10.88	-30.7	-35.4	10.6	5.19e-03	0	44	0	1112539136	21	6241
2026-01-17 23:09:13.50	151.60	10.81	-30.4	-34.4	11.4	1.89e-03	0	44	0	1114636288	21	5736
2026-01-17 23:09:14.50	151.70	10.73	-30.3	-34.7	11.7	6.81e-04	0	44	0	1116733440	20	5937
2026-01-17 23:09:15.51	151.80	10.66	-30.3	-34.4	11.9	4.68e-04	0	44	0	1117782016	20	5809
2026-01-17 23:09:16.51	151.90	10.58	-30.1	-34.0	12.2	2.26e-04	0	44	0	1119879168	20	5583
2026-01-17 23:09:17.52	152.00	10.51	-30.3	-34.4	11.9	3.30e-04	0	44	0	1121976320	20	5771
2026-01-17 23:09:18.52	152.10	10.43	-30.4	-34.8	11.6	6.09e-04	0	44	0	1124073472	20	5973
2026-01-17 23:09:19.52	152.20	10.36	-30.4	-34.8	11.6	6.39e-04	0	44	0	1126170624	20	5990
2026-01-17 23:09:20.52	152.30	10.28	-30.3	-34.6	11.6	6.33e-04	0	44	0	1127219200	20	5931
2026-01-17 23:09:21.51	152.40	10.21	-30.5	-34.9	11.1	1.40e-03	0	44	0	1129316352	21	5950
2026-01-17 23:09:22.51	152.50	10.14	-30.4	-34.6	11.3	1.80e-03	0	44	0	1131413504	21	5843
2026-01-17 23:09:23.51	152.60	10.06	-30.5	-35.5	10.9	1.16e-03	0	44	0	1133510656	20	6400
2026-01-17 23:09:24.51	152.70	9.99	-30.3	-34.9	11.3	1.34e-03	0	44	0	1135607808	20	6129
2026-01-17 23:09:25.52	152.79	9.91	-30.3	-35.0	11.2	1.03e-03	0	44	0	1136656384	20	6178
2026-01-17 23:09:26.51	152.89	9.84	-30.3	-35.1	11.1	1.84e-03	0	44	0	1138753536	20	6252
2026-01-17 23:09:27.52	152.99	9.77	-30.4	-35.2	11.1	1.65e-03	0	44	0	1140850688	20	6260
2026-01-17 23:09:28.52	153.08	9.70	-30.3	-34.9	11.3	1.13e-03	0	44	0	1142947840	20	6106
2026-01-17 23:09:29.52	153.18	9.62	-30.5	-35.3	11.1	1.20e-03	0	44	0	1145044992	20	6262
2026-01-17 23:09:30.53	153.27	9.55	-30.6	-35.1	10.9	1.75e-03	0	44	0	1146093568	21	6024
2026-01-17 23:09:31.53	153.37	9.48	-30.6	-35.0	11.0	2.13e-03	0	44	0	1148190720	21	5971
2026-01-17 23:09:32.53	153.46	9.40	-30.4	-34.5	11.3	9.31e-04	0	44	0	1150287872	21	5749
2026-01-17 23:09:33.53	153.55	9.33	-30.4	-35.1	11.2	1.27e-03	0	44	0	1152385024	20	6165
2026-01-17 23:09:34.53	153.65	9.26	-30.4	-34.6	11.2	1.67e-03	0	44	0	1153433600	21	5861
2026-01-17 23:09:35.54	153.74	9.19	-29.4	-34.0	11.4	1.38e-03	0	44	0	1155530752	20	6061
2026-01-17 23:09:36.55	153.83	9.12	-30.2	-34.6	11.5	6.72e-04	0	44	0	1157627904	20	5958
2026-01-17 23:09:37.55	153.92	9.04	-30.3	-34.8	11.4	1.10e-03	0	44	0	1159725056	20	6044
2026-01-17 23:09:38.55	154.01	8.97	-30.5	-35.0	10.9	1.57e-03	0	44	0	1161822208	21	6001
2026-01-17 23:09:39.55	154.11	8.90	-30.6	-35.1	10.8	3.28e-03	0	44	0	1162870784	21	6020
2026-01-17 23:09:40.55	154.20	8.83	-30.4	-35.0	11.3	1.35e-03	0	44	0	1164967936	20	6113
2026-01-17 23:09:41.55	154.29	8.76	-30.5	-34.7	11.1	1.67e-03	0	44	0	1167065088	21	5845
2026-01-17 23:09:42.55	154.37	8.69	-30.6	-35.0	11.0	1.76e-03	0	44	0	1169162240	21	5964
2026-01-17 23:09:43.55	154.46	8.62	-30.7	-35.3	10.7	3.09e-03	0	44	0	1171259392	21	6120
2026-01-17 23:09:44.56	154.55	8.55	-30.6	-35.2	10.8	2.95e-03	0	44	0	1172307968	21	6104
2026-01-17 23:09:45.56	154.64	8.47	-30.6	-35.2	10.8	4.75e-03	0	44	0	1174405120	21	6083
2026-01-17 23:09:46.56	154.73	8.40	-30.6	-35.3	10.7	3.65e-03	0	44	0	1176502272	21	6160
2026-01-17 23:09:47.57	154.82	8.33	-30.4	-35.0	10.8	2.96e-03	0	44	0	1178599424	21	6100
2026-01-17 23:09:48.57	154.90	8.26	-30.3	-35.4	10.8	4.62e-03	0	44	0	1180696576	20	6430
2026-01-17 23:09:49.57	154.99	8.19	-30.2	-35.0	11.1	2.30e-03	0	44	0	1181745152	20	6245
2026-01-17 23:09:50.58	155.08	8.12	-30.4	-35.6	10.6	1.89e-03	0	44	0	1183842304	20	6580
2026-01-17 23:09:51.58	155.16	8.05	-30.4	-35.8	10.5	3.48e-03	0	44	0	1185939456	20	6655
2026-01-17 23:09:52.58	155.25	7.98	-30.3	-35.0	11.1	4.72e-03	0	44	0	1188036608	20	6227
2026-01-17 23:09:53.58	155.33	7.91	-30.8	-36.1	10.0	3.74e-03	0	44	0	1190133760	21	6664
2026-01-17 23:09:54.57	155.42	7.85	-30.7	-35.8	10.2	8.86e-03	0	44	0	1191182336	21	6447
2026-01-17 23:09:55.58	155.50	7.78	-30.5	-34.8	11.0	4.58e-03	0	44	0	1193279488	21	5916
2026-01-17 23:09:56.58	155.59	7.71	-30.5	-34.8	11.1	2.11e-03	0	44	0	1195376640	21	5876
2026-01-17 23:09:57.58	155.67	7.64	-30.7	-35.3	10.7	1.71e-03	0	44	0	1197473792	21	6115
2026-01-17 23:09:58.58	155.75	7.57	-30.9	-35.8	10.4	3.65e-03	0	44	0	1198522368	21	6331
2026-01-17 23:09:59.58	155.84	7.50	-30.8	-35.3	10.8	3.45e-03	0	44	0	1200619520	21	6085
2026-01-17 23:10:00.58	155.92	7.43	-30.6	-34.9	11.0	1.96e-03	0	44	0	1202716672	21	5930
2026-01-17 23:10:01.59	156.00	7.36	-30.7	-35.4	10.7	1.99e-03	0	44	0	1204813824	21	6159
2026-01-17 23:10:02.59	156.08	7.30	-30.7	-35.5	10.5	3.99e-03	0	44	0	1206910976	21	6282
2026-01-17 23:10:03.59	156.16	7.23	-30.7	-35.6	10.4	6.90e-03	0	44	0	1207959552	21	6337
2026-01-17 23:10:04.59	156.24	7.16	-30.7	-35.8	10.2	6.04e-03	0	44	0	1210056704	21	6449
2026-01-17 23:10:05.60	156.33	7.09	-32.5	-47.0	3.8	8.08e-01	0	44	104	1212153856	25	19047
2026-01-17 23:10:06.60	156.41	7.02	-33.1	-47.4	3.8	1.49e+00	0	44	104	1212153856	26	18529
2026-01-17 23:10:07.60	156.49	6.96	-33.8	-48.2	3.8	1.49e+00	0	44	104	1212153856	27	18910
2026-01-17 23:10:08.61	156.57	6.89	-34.0	-48.1	3.8	1.49e+00	0	44	104	1212153856	28	18257

#Closed at: 2026-01-17 23:10:09
#Recorded file [1212 MB]: D:/data/31010_260118_015918.dat