passes_logs/2026/01/17/R2M6_AANII_01/R2M6_AANII_01__20260117_020219_AQUA_rec.log

#Pass ID: 20260117_020219_AQUA
#Satellite: AQUA
#Configuration: AQUA
#almurnet v.1.7.20240730
#Start time: 2026-01-17 02:02:19

#Version: 2.2.20231116
#Station: R2M6_AANII_01
#Location: 30.233357 lon 59.946436 lat
#TLE: 1 27424U 02022A   26016.26443506  .00000711  00000+0  15228-3 0  9999
#TLE: 2 27424  98.4083 342.7130 0002022  76.7284  27.4473 14.61823291261073

#Time	Az	El	Level	Level2	SNR	BER	BlckErr	Temp	State	Recorded	gain1	gain2
2026-01-17 02:02:19.89	17.36	7.06	-31.5	-39.0	5.1	7.13e-01	0	42	0	0	23	8509
2026-01-17 02:02:20.88	17.36	7.14	-32.0	-41.1	4.8	7.12e-01	0	41	104	0	24	10236
2026-01-17 02:02:21.89	17.37	7.22	-31.9	-39.6	11.5	6.07e-01	0	42	0	0	24	8764
2026-01-17 02:02:22.90	17.37	7.30	-31.9	-39.8	11.5	6.08e-01	0	42	0	1572864	24	8880
2026-01-17 02:02:23.90	17.37	7.39	-32.1	-40.5	10.5	6.18e-01	0	42	0	3670016	25	9402
2026-01-17 02:02:24.90	17.37	7.47	-32.1	-40.0	10.9	6.12e-01	0	42	0	5242880	25	8961
2026-01-17 02:02:25.90	17.38	7.55	-31.9	-39.4	11.9	6.08e-01	0	42	0	7340032	24	8554
2026-01-17 02:02:26.90	17.38	7.63	-31.7	-38.3	12.8	6.07e-01	0	42	0	9437184	24	7709
2026-01-17 02:02:27.90	17.38	7.72	-31.7	-38.6	12.5	6.03e-01	0	42	0	11010048	24	7927
2026-01-17 02:02:28.90	17.38	7.80	-31.6	-37.8	13.2	6.04e-01	0	42	0	13107200	24	7333
2026-01-17 02:02:29.90	17.38	7.89	-31.9	-39.2	12.1	6.08e-01	0	42	0	14680064	24	8357
2026-01-17 02:02:30.90	17.39	7.97	-31.9	-39.2	12.1	6.07e-01	0	42	0	16777216	24	8388
2026-01-17 02:02:31.90	17.39	8.06	-32.0	-39.7	11.7	6.11e-01	0	42	0	18350080	24	8800
2026-01-17 02:02:32.89	17.39	8.14	-31.9	-39.2	12.1	6.08e-01	0	42	0	20447232	24	8353
2026-01-17 02:02:33.89	17.39	8.23	-31.7	-38.2	12.9	6.03e-01	0	42	0	22544384	24	7645
2026-01-17 02:02:34.89	17.40	8.31	-31.7	-38.0	13.4	6.02e-01	0	42	0	24117248	24	7486
2026-01-17 02:02:35.89	17.40	8.40	-31.3	-36.6	14.4	6.02e-01	0	42	0	26214400	24	6600
2026-01-17 02:02:36.90	17.40	8.49	-31.3	-37.1	14.3	6.02e-01	0	42	0	27787264	23	6983
2026-01-17 02:02:37.90	17.40	8.57	-31.4	-37.5	14.0	6.05e-01	0	42	0	29884416	23	7226
2026-01-17 02:02:38.90	17.40	8.66	-30.9	-35.5	15.6	6.01e-01	0	42	0	31457280	23	6083
2026-01-17 02:02:39.90	17.41	8.75	-30.9	-35.9	15.6	6.01e-01	0	42	0	33554432	22	6408
2026-01-17 02:02:40.90	17.41	8.84	-30.8	-35.7	15.7	6.00e-01	0	42	0	35651584	22	6301
2026-01-17 02:02:41.90	17.41	8.92	-31.1	-36.3	15.0	6.04e-01	0	42	0	37224448	23	6501
2026-01-17 02:02:42.90	17.41	9.01	-31.0	-35.9	15.3	6.00e-01	0	42	0	39321600	23	6283
2026-01-17 02:02:43.90	17.41	9.10	-30.8	-35.4	16.1	5.99e-01	0	42	0	40894464	22	6126
2026-01-17 02:02:44.90	17.42	9.19	-30.6	-35.0	16.3	6.02e-01	0	42	0	42991616	22	5920
2026-01-17 02:02:45.90	17.42	9.28	-30.6	-34.9	16.4	6.02e-01	0	42	0	45088768	22	5897
2026-01-17 02:02:46.89	17.42	9.37	-30.7	-35.0	16.3	6.01e-01	0	42	0	46661632	22	5960
2026-01-17 02:02:47.89	17.42	9.46	-30.6	-34.7	16.6	6.01e-01	0	42	0	48758784	22	5790
2026-01-17 02:02:48.90	17.42	9.55	-30.6	-35.3	16.5	6.01e-01	0	42	0	50331648	21	6182
2026-01-17 02:02:49.90	17.43	9.64	-30.3	-34.5	17.1	6.02e-01	0	42	0	52428800	21	5805
2026-01-17 02:02:50.89	17.43	9.73	-30.8	-35.3	16.2	5.99e-01	0	42	0	54001664	22	6064
2026-01-17 02:02:51.90	17.43	9.83	-30.7	-34.9	16.3	5.99e-01	0	42	0	56098816	22	5904
2026-01-17 02:02:52.90	17.43	9.92	-30.7	-35.2	16.3	6.03e-01	0	42	0	58195968	22	6030
2026-01-17 02:02:53.90	17.43	10.01	-31.3	-36.8	14.7	6.01e-01	0	42	0	59768832	23	6786
2026-01-17 02:02:54.90	17.43	10.10	-31.0	-35.5	15.6	6.02e-01	0	42	0	61865984	23	6078
2026-01-17 02:02:55.90	17.44	10.20	-30.6	-34.7	16.5	6.00e-01	0	42	0	63438848	22	5783
2026-01-17 02:02:56.90	17.44	10.29	-30.4	-34.7	17.0	6.00e-01	0	42	0	65536000	21	5890
2026-01-17 02:02:57.90	17.44	10.39	-30.1	-33.7	17.6	6.01e-01	0	42	0	67108864	21	5455
2026-01-17 02:02:58.91	17.44	10.48	-29.9	-33.7	18.0	5.99e-01	0	42	0	69206016	20	5557
2026-01-17 02:02:59.92	17.44	10.58	-30.0	-33.9	17.8	5.99e-01	0	43	0	71303168	20	5644
2026-01-17 02:03:00.92	17.44	10.67	-29.9	-33.6	18.1	6.02e-01	0	42	0	72876032	20	5532
2026-01-17 02:03:01.92	17.45	10.77	-29.8	-33.5	18.1	6.02e-01	0	43	0	74973184	20	5472
2026-01-17 02:03:02.92	17.45	10.86	-29.9	-33.7	18.0	5.99e-01	0	42	0	76546048	20	5563
2026-01-17 02:03:03.92	17.45	10.96	-29.8	-33.3	18.3	6.01e-01	0	42	0	78643200	20	5389
2026-01-17 02:03:04.92	17.45	11.06	-29.7	-33.2	18.4	5.98e-01	0	43	0	80216064	20	5352
2026-01-17 02:03:05.93	17.45	11.16	-29.9	-33.7	18.0	6.01e-01	0	43	0	82313216	20	5559
2026-01-17 02:03:06.92	17.45	11.25	-29.9	-33.5	18.1	5.97e-01	0	43	0	84410368	20	5475
2026-01-17 02:03:07.92	17.46	11.35	-30.0	-33.9	17.9	6.02e-01	0	43	0	85983232	20	5648
2026-01-17 02:03:08.92	17.46	11.45	-29.9	-33.7	18.0	6.01e-01	0	43	0	88080384	20	5563
2026-01-17 02:03:09.93	17.46	11.55	-29.8	-33.4	18.3	6.01e-01	0	43	0	89653248	20	5423
2026-01-17 02:03:10.93	17.46	11.65	-29.7	-33.1	18.4	6.02e-01	0	43	0	91750400	20	5298
2026-01-17 02:03:11.93	17.46	11.75	-29.8	-33.4	18.3	6.01e-01	0	43	0	93847552	20	5425
2026-01-17 02:03:12.94	17.46	11.85	-29.6	-32.7	18.7	5.98e-01	0	43	0	95420416	20	5160
2026-01-17 02:03:13.94	17.46	11.95	-30.1	-33.6	17.8	6.03e-01	0	43	0	97517568	21	5404
2026-01-17 02:03:14.93	17.47	12.06	-30.1	-33.6	17.9	6.01e-01	0	43	0	99090432	21	5395
2026-01-17 02:03:15.94	17.47	12.16	-29.9	-33.0	18.2	6.00e-01	0	43	0	101187584	21	5148
2026-01-17 02:03:16.95	17.47	12.26	-29.7	-32.9	18.6	6.02e-01	0	43	0	103284736	20	5226
2026-01-17 02:03:17.95	17.47	12.37	-29.7	-33.1	18.5	6.02e-01	0	43	0	104857600	20	5306
2026-01-17 02:03:18.96	17.47	12.47	-30.0	-33.8	18.1	6.02e-01	0	43	0	106954752	20	5588
2026-01-17 02:03:19.96	17.47	12.57	-29.6	-32.7	18.7	6.00e-01	0	43	0	108527616	20	5160
2026-01-17 02:03:20.96	17.47	12.68	-29.5	-32.4	18.9	6.00e-01	0	43	0	110624768	20	5038
2026-01-17 02:03:21.96	17.48	12.78	-29.3	-32.4	19.3	5.99e-01	0	43	0	112197632	19	5142
2026-01-17 02:03:22.97	17.48	12.89	-29.3	-32.4	19.4	6.01e-01	0	43	0	114294784	19	5132
2026-01-17 02:03:23.97	17.48	13.00	-28.3	-31.7	19.1	6.00e-01	0	43	0	116391936	19	5295
2026-01-17 02:03:24.97	17.48	13.10	-28.5	-31.7	19.2	5.99e-01	0	43	0	117964800	19	5200
2026-01-17 02:03:25.98	17.48	13.21	-29.4	-32.5	19.2	6.01e-01	0	43	0	120061952	19	5187
2026-01-17 02:03:26.98	17.48	13.32	-29.4	-32.6	18.6	6.02e-01	0	43	0	121634816	19	5224
2026-01-17 02:03:27.98	17.48	13.43	-29.4	-32.6	18.9	6.00e-01	0	43	0	123731968	19	5206
2026-01-17 02:03:28.99	17.48	13.54	-29.5	-32.8	19.1	6.02e-01	0	43	0	125829120	19	5300
2026-01-17 02:03:30.00	17.48	13.65	-29.3	-32.3	19.3	6.02e-01	0	43	0	127401984	19	5101
2026-01-17 02:03:30.99	17.49	13.76	-29.2	-32.1	19.6	6.04e-01	0	43	0	129499136	19	5017
2026-01-17 02:03:31.99	17.49	13.87	-29.6	-32.7	18.8	5.99e-01	0	43	0	131072000	20	5131
2026-01-17 02:03:32.99	17.49	13.98	-29.5	-32.8	19.1	6.01e-01	0	43	0	133169152	19	5285
2026-01-17 02:03:33.99	17.49	14.09	-29.3	-32.2	19.5	5.99e-01	0	43	0	135266304	19	5066
2026-01-17 02:03:34.99	17.49	14.20	-29.4	-32.6	19.2	5.99e-01	0	43	0	136839168	19	5206
2026-01-17 02:03:35.99	17.49	14.31	-29.3	-32.3	18.8	6.00e-01	0	43	0	138936320	19	5097
2026-01-17 02:03:36.99	17.49	14.43	-29.3	-32.4	19.3	6.02e-01	0	43	0	140509184	19	5139
2026-01-17 02:03:37.98	17.49	14.54	-29.7	-33.0	18.6	5.99e-01	0	43	0	142606336	20	5260
2026-01-17 02:03:38.98	17.49	14.65	-29.6	-32.7	18.8	6.01e-01	0	43	0	144179200	20	5135
2026-01-17 02:03:39.99	17.49	14.77	-29.5	-32.5	18.9	6.00e-01	0	43	0	146276352	20	5076
2026-01-17 02:03:40.99	17.50	14.89	-29.7	-32.9	18.7	5.98e-01	0	43	0	148373504	20	5204
2026-01-17 02:03:42.00	17.50	15.00	-29.7	-33.0	18.7	6.01e-01	0	43	0	149946368	20	5238
2026-01-17 02:03:43.00	17.50	15.12	-29.6	-32.7	18.9	6.02e-01	0	43	0	152043520	20	5140
2026-01-17 02:03:44.00	17.50	15.24	-29.5	-32.4	19.1	6.00e-01	0	43	0	153616384	20	5036
2026-01-17 02:03:45.01	17.50	15.36	-29.3	-32.8	19.1	6.01e-01	0	43	0	155713536	19	5379
2026-01-17 02:03:46.01	17.50	15.48	-28.0	-31.4	19.0	6.04e-01	0	43	0	157286400	19	5294
2026-01-17 02:03:47.01	17.50	15.60	-29.5	-32.5	18.9	6.00e-01	0	43	0	159383552	20	5071
2026-01-17 02:03:48.01	17.50	15.72	-29.7	-33.5	18.7	6.01e-01	0	43	0	161480704	19	5530
2026-01-17 02:03:49.01	17.50	15.84	-29.4	-32.7	17.1	6.08e-01	0	43	0	163053568	19	5257
2026-01-17 02:03:50.01	17.50	15.96	-29.2	-32.2	19.4	6.03e-01	0	43	0	165150720	19	5046
2026-01-17 02:03:51.01	17.50	16.08	-29.4	-32.6	17.1	6.07e-01	0	43	0	166723584	19	5192
2026-01-17 02:03:52.01	17.50	16.20	-29.3	-32.2	17.9	6.07e-01	0	43	0	168820736	19	5040
2026-01-17 02:03:53.02	17.50	16.33	-29.2	-32.2	19.5	6.02e-01	0	43	0	170393600	19	5032
2026-01-17 02:03:54.02	17.50	16.45	-29.2	-32.2	17.5	6.01e-01	0	43	0	172490752	19	5032
2026-01-17 02:03:55.02	17.50	16.58	-29.3	-32.3	17.0	6.01e-01	0	43	0	174587904	19	5096
2026-01-17 02:03:56.03	17.50	16.70	-29.2	-32.0	19.4	6.03e-01	0	43	0	176160768	19	4968
2026-01-17 02:03:57.03	17.50	16.83	-29.1	-31.9	17.8	6.02e-01	0	43	0	178257920	19	4926
2026-01-17 02:03:58.03	17.50	16.96	-29.1	-32.1	18.7	6.02e-01	0	43	0	179830784	18	5141
2026-01-17 02:03:59.04	17.50	17.09	-29.1	-32.2	19.8	6.02e-01	0	43	0	181927936	18	5165
2026-01-17 02:04:00.04	17.50	17.21	-29.0	-31.9	20.1	6.00e-01	0	43	0	184025088	18	5073
2026-01-17 02:04:01.04	17.50	17.34	-29.1	-31.7	19.9	5.98e-01	0	43	0	185597952	19	4866
2026-01-17 02:04:02.05	17.50	17.47	-29.2	-32.0	19.8	5.99e-01	0	43	0	187695104	19	4957
2026-01-17 02:04:03.05	17.51	17.61	-29.1	-32.1	19.9	5.99e-01	0	43	0	189267968	18	5138
2026-01-17 02:04:04.04	17.51	17.74	-29.3	-32.3	19.6	6.01e-01	0	43	0	191365120	19	5066
2026-01-17 02:04:05.04	17.51	17.87	-29.4	-32.6	19.3	6.02e-01	0	43	0	193462272	19	5201
2026-01-17 02:04:06.04	17.51	18.00	-29.2	-32.0	19.8	6.01e-01	0	43	0	195035136	19	4980
2026-01-17 02:04:07.04	17.51	18.14	-29.2	-31.9	19.9	6.02e-01	0	43	0	197132288	19	4936
2026-01-17 02:04:08.05	17.51	18.27	-29.2	-32.1	19.8	6.01e-01	0	43	0	198705152	19	4995
2026-01-17 02:04:09.05	17.50	18.41	-29.3	-32.2	19.7	6.00e-01	0	43	0	200802304	19	5028
2026-01-17 02:04:10.05	17.50	18.54	-29.4	-32.5	19.5	6.01e-01	0	43	0	202375168	19	5133
2026-01-17 02:04:11.05	17.50	18.68	-29.5	-32.8	19.3	6.01e-01	0	43	0	204472320	19	5256
2026-01-17 02:04:12.06	17.50	18.82	-29.3	-32.4	19.5	6.00e-01	0	43	0	206569472	19	5104
2026-01-17 02:04:13.06	17.50	18.96	-29.4	-32.4	19.6	6.01e-01	0	43	0	208142336	19	5116
2026-01-17 02:04:14.06	17.50	19.10	-29.4	-32.5	19.5	6.01e-01	0	43	0	210239488	19	5158
2026-01-17 02:04:15.07	17.50	19.24	-29.4	-32.6	19.5	6.00e-01	0	43	0	211812352	19	5178
2026-01-17 02:04:16.07	17.50	19.38	-29.6	-33.0	19.3	6.00e-01	0	43	0	213909504	19	5313
2026-01-17 02:04:17.07	17.50	19.52	-29.5	-32.6	19.5	6.01e-01	0	43	0	215482368	19	5193
2026-01-17 02:04:18.07	17.50	19.67	-29.5	-32.4	19.2	6.04e-01	0	43	0	217579520	20	4995
2026-01-17 02:04:19.06	17.50	19.81	-29.9	-33.3	18.8	6.00e-01	0	43	0	219676672	20	5323
2026-01-17 02:04:20.07	17.50	19.96	-29.5	-32.2	19.4	5.98e-01	0	43	0	221249536	20	4915
2026-01-17 02:04:21.07	17.50	20.10	-29.4	-32.4	19.6	5.99e-01	0	43	0	223346688	19	5114
2026-01-17 02:04:22.07	17.50	20.25	-29.6	-32.5	19.2	5.99e-01	0	43	0	224919552	20	5038
2026-01-17 02:04:23.06	17.50	20.40	-29.4	-32.6	19.5	6.03e-01	0	43	0	227016704	19	5170
2026-01-17 02:04:24.07	17.50	20.55	-29.4	-32.4	19.6	5.98e-01	0	43	0	229113856	19	5116
2026-01-17 02:04:25.07	17.50	20.70	-29.5	-32.7	19.5	5.99e-01	0	43	0	230686720	19	5209
2026-01-17 02:04:26.07	17.50	20.85	-29.4	-32.5	19.6	6.01e-01	0	43	0	232783872	19	5126
2026-01-17 02:04:27.07	17.50	21.00	-29.4	-32.3	19.7	6.00e-01	0	43	0	234356736	19	5076
2026-01-17 02:04:28.07	17.49	21.15	-29.4	-32.4	19.7	6.01e-01	0	43	0	236453888	19	5112
2026-01-17 02:04:29.08	17.49	21.31	-29.5	-32.6	19.6	6.01e-01	0	43	0	238026752	19	5169
2026-01-17 02:04:30.08	17.49	21.46	-29.8	-33.2	18.9	6.01e-01	0	43	0	240123904	20	5276
2026-01-17 02:04:31.08	17.49	21.62	-29.6	-32.5	19.3	6.00e-01	0	43	0	242221056	20	5031
2026-01-17 02:04:32.08	17.49	21.78	-29.4	-32.4	19.7	6.00e-01	0	43	0	243793920	19	5090
2026-01-17 02:04:33.08	17.49	21.94	-29.4	-32.5	19.6	6.00e-01	0	43	0	245891072	19	5148
2026-01-17 02:04:34.08	17.49	22.10	-29.6	-32.5	19.3	6.03e-01	0	43	0	247463936	20	5033
2026-01-17 02:04:35.08	17.49	22.26	-30.0	-33.5	18.7	6.03e-01	0	43	0	249561088	20	5393
2026-01-17 02:04:36.08	17.48	22.42	-29.6	-32.5	19.3	6.00e-01	0	43	0	251133952	20	5024
2026-01-17 02:04:37.08	17.48	22.58	-29.5	-32.6	19.6	6.01e-01	0	43	0	253231104	19	5181
2026-01-17 02:04:38.07	17.48	22.74	-29.4	-31.9	19.6	6.02e-01	0	43	0	255328256	20	4825
2026-01-17 02:04:39.07	17.48	22.91	-29.7	-32.7	19.2	6.00e-01	0	43	0	256901120	20	5110
2026-01-17 02:04:40.07	17.48	23.07	-29.8	-33.0	19.0	6.01e-01	0	43	0	258998272	20	5203
2026-01-17 02:04:41.07	17.48	23.24	-29.9	-33.3	18.7	6.02e-01	0	43	0	260571136	20	5310
2026-01-17 02:04:42.08	17.47	23.41	-29.9	-33.3	18.8	5.99e-01	0	43	0	262668288	20	5313
2026-01-17 02:04:43.08	17.47	23.58	-29.8	-32.9	19.1	6.03e-01	0	43	0	264241152	20	5162
2026-01-17 02:04:44.09	17.47	23.75	-30.0	-33.4	18.7	5.99e-01	0	43	0	266338304	20	5353
2026-01-17 02:04:45.09	17.47	23.92	-29.9	-33.2	18.9	6.01e-01	0	43	0	268435456	20	5278
2026-01-17 02:04:46.10	17.47	24.10	-29.5	-32.3	19.4	6.01e-01	0	43	0	270008320	20	4943
2026-01-17 02:04:47.10	17.46	24.27	-29.6	-32.5	19.3	6.01e-01	0	44	0	272105472	20	5033
2026-01-17 02:04:48.10	17.46	24.45	-29.5	-32.2	19.5	6.02e-01	0	43	0	274202624	20	4906
2026-01-17 02:04:49.10	17.46	24.63	-29.5	-32.6	19.7	6.02e-01	0	43	0	275775488	19	5140
2026-01-17 02:04:50.11	17.46	24.81	-29.5	-32.1	19.7	6.04e-01	0	43	0	277872640	20	4860
2026-01-17 02:04:51.11	17.46	24.99	-29.7	-32.8	19.2	6.04e-01	0	43	0	279445504	20	5116
2026-01-17 02:04:52.11	17.45	25.17	-29.6	-32.4	19.4	5.99e-01	0	43	0	281542656	20	4997
2026-01-17 02:04:53.12	17.45	25.35	-29.5	-32.2	19.6	6.00e-01	0	43	0	283115520	20	4894
2026-01-17 02:04:54.12	17.45	25.54	-29.6	-32.4	19.5	6.02e-01	0	43	0	285212672	20	4965
2026-01-17 02:04:55.12	17.44	25.72	-29.6	-32.8	19.6	6.00e-01	0	43	0	287309824	19	5237
2026-01-17 02:04:56.12	17.44	25.91	-29.6	-32.5	19.4	6.03e-01	0	43	0	288882688	20	5003
2026-01-17 02:04:57.12	17.44	26.10	-29.7	-32.6	19.3	6.01e-01	0	43	0	290979840	20	5060
2026-01-17 02:04:58.11	17.44	26.29	-29.4	-32.0	19.7	6.00e-01	0	43	0	292552704	20	4852
2026-01-17 02:04:59.12	17.43	26.48	-29.2	-31.5	20.0	6.02e-01	0	43	0	294649856	20	4667
2026-01-17 02:05:00.12	17.43	26.67	-29.2	-31.9	20.2	6.00e-01	0	43	0	296222720	19	4899
2026-01-17 02:05:01.12	17.43	26.86	-29.2	-31.8	20.2	6.02e-01	0	43	0	298319872	19	4858
2026-01-17 02:05:02.12	17.42	27.06	-29.1	-31.6	20.3	6.02e-01	0	43	0	300417024	19	4809
2026-01-17 02:05:03.12	17.42	27.26	-29.0	-32.0	20.5	6.03e-01	0	43	0	301989888	18	5037
2026-01-17 02:05:04.12	17.42	27.46	-29.0	-31.9	20.5	5.98e-01	0	43	0	304087040	18	5016
2026-01-17 02:05:05.13	17.41	27.66	-29.0	-31.9	20.5	6.03e-01	0	43	0	305659904	18	5004
2026-01-17 02:05:06.13	17.41	27.86	-29.0	-31.9	20.5	6.03e-01	0	43	0	307757056	18	5030
2026-01-17 02:05:07.12	17.40	28.06	-29.2	-31.9	20.2	6.03e-01	0	43	0	309329920	19	4903
2026-01-17 02:05:08.12	17.40	28.27	-29.4	-32.3	19.9	6.03e-01	0	43	0	311427072	19	5041
2026-01-17 02:05:09.11	17.40	28.47	-29.5	-32.1	19.7	6.01e-01	0	44	0	313524224	20	4864
2026-01-17 02:05:10.10	17.39	28.68	-29.3	-32.1	20.0	6.03e-01	0	43	0	315097088	19	4983
2026-01-17 02:05:11.11	17.39	28.89	-29.3	-32.0	20.1	6.00e-01	0	43	0	317194240	19	4948
2026-01-17 02:05:12.11	17.38	29.10	-29.4	-32.2	19.9	6.02e-01	0	43	0	318767104	19	5006
2026-01-17 02:05:13.11	17.38	29.31	-29.2	-31.9	20.1	6.02e-01	0	43	0	320864256	19	4916
2026-01-17 02:05:14.11	17.37	29.53	-29.3	-31.6	20.0	6.04e-01	0	43	0	322961408	20	4701
2026-01-17 02:05:15.12	17.37	29.75	-29.4	-32.3	20.0	6.04e-01	0	43	0	324534272	19	5021
2026-01-17 02:05:16.12	17.37	29.97	-29.4	-32.2	20.0	6.00e-01	0	43	0	326631424	19	5014
2026-01-17 02:05:17.13	17.36	30.19	-29.6	-32.4	19.5	6.00e-01	0	43	0	328204288	20	4986
2026-01-17 02:05:18.12	17.36	30.41	-29.4	-32.3	19.9	6.02e-01	0	43	0	330301440	19	5038
2026-01-17 02:05:19.13	17.35	30.64	-29.7	-32.6	19.5	6.01e-01	0	43	0	331874304	20	5020
2026-01-17 02:05:20.13	17.34	30.86	-30.0	-33.3	19.1	5.99e-01	0	43	0	333971456	20	5303
2026-01-17 02:05:21.13	17.34	31.09	-29.5	-32.1	19.8	6.01e-01	0	43	0	336068608	20	4855
2026-01-17 02:05:22.13	17.33	31.32	-29.7	-32.7	19.4	6.00e-01	0	43	0	337641472	20	5083
2026-01-17 02:05:23.13	17.33	31.55	-30.2	-33.4	18.6	6.01e-01	0	43	0	339738624	21	5228
2026-01-17 02:05:24.14	17.32	31.79	-29.9	-32.7	19.1	6.01e-01	0	43	0	341311488	21	4945
2026-01-17 02:05:25.14	17.32	32.03	-29.7	-32.5	19.5	6.02e-01	0	43	0	343408640	20	5014
2026-01-17 02:05:26.14	17.31	32.26	-29.6	-32.3	19.9	5.99e-01	0	43	0	345505792	20	4915
2026-01-17 02:05:27.13	17.30	32.50	-29.5	-32.7	19.8	6.02e-01	0	43	0	347078656	19	5167
2026-01-17 02:05:28.14	17.30	32.75	-29.4	-31.9	19.9	6.00e-01	0	44	0	349175808	20	4775
2026-01-17 02:05:29.14	17.29	32.99	-29.2	-31.3	20.3	6.03e-01	0	43	0	350748672	20	4590
2026-01-17 02:05:30.14	17.28	33.24	-29.1	-31.5	20.5	5.99e-01	0	43	0	352845824	19	4748
2026-01-17 02:05:31.14	17.28	33.49	-29.0	-31.9	20.5	6.01e-01	0	43	0	354942976	18	5017
2026-01-17 02:05:32.14	17.27	33.74	-29.1	-31.6	20.5	6.00e-01	0	43	0	356515840	19	4792
2026-01-17 02:05:33.14	17.26	33.99	-29.4	-32.2	20.1	6.00e-01	0	43	0	358612992	19	5002
2026-01-17 02:05:34.14	17.25	34.24	-29.5	-32.4	20.0	6.02e-01	0	43	0	360185856	19	5079
2026-01-17 02:05:35.14	17.25	34.50	-29.5	-32.5	20.0	6.00e-01	0	43	0	362283008	19	5102
2026-01-17 02:05:36.15	17.24	34.76	-29.4	-32.3	20.1	6.02e-01	0	43	0	363855872	19	5038
2026-01-17 02:05:37.15	17.23	35.03	-29.5	-32.3	19.9	5.99e-01	0	43	0	365953024	20	4935
2026-01-17 02:05:38.16	17.22	35.29	-29.9	-33.0	19.3	6.01e-01	0	43	0	368050176	20	5171
2026-01-17 02:05:39.16	17.21	35.56	-29.8	-32.9	19.4	5.99e-01	0	43	0	369623040	20	5135
2026-01-17 02:05:40.17	17.20	35.83	-30.0	-33.4	19.1	6.00e-01	0	43	0	371720192	20	5322
2026-01-17 02:05:41.17	17.20	36.10	-30.1	-33.2	19.0	6.01e-01	0	44	0	373293056	21	5121
2026-01-17 02:05:42.16	17.19	36.38	-30.3	-33.8	18.6	6.02e-01	0	43	0	375390208	21	5348
2026-01-17 02:05:43.16	17.18	36.65	-30.4	-33.8	18.5	6.02e-01	0	43	0	376963072	21	5373
2026-01-17 02:05:44.16	17.17	36.93	-30.6	-34.1	18.0	5.99e-01	0	43	0	379060224	22	5374
2026-01-17 02:05:45.17	17.16	37.22	-30.6	-33.9	18.1	6.01e-01	0	44	0	381157376	22	5293
2026-01-17 02:05:46.18	17.15	37.50	-30.6	-34.1	18.0	6.01e-01	0	43	0	382730240	22	5376
2026-01-17 02:05:47.17	17.14	37.79	-30.7	-34.2	18.0	6.02e-01	0	43	0	384827392	22	5419
2026-01-17 02:05:48.18	17.13	38.08	-30.8	-34.5	17.7	6.02e-01	0	43	0	386400256	22	5536
2026-01-17 02:05:49.18	17.11	38.37	-30.6	-34.1	18.1	6.00e-01	0	43	0	388497408	22	5343
2026-01-17 02:05:50.18	17.10	38.67	-30.6	-34.0	18.1	6.01e-01	0	43	0	390594560	22	5312
2026-01-17 02:05:51.18	17.09	38.96	-30.5	-33.7	18.3	6.02e-01	0	43	0	392167424	22	5218
2026-01-17 02:05:52.18	17.08	39.26	-30.5	-34.1	18.4	6.01e-01	0	43	0	394264576	21	5476
2026-01-17 02:05:53.18	17.07	39.57	-29.8	-33.4	18.3	6.02e-01	0	43	0	395837440	21	5480
2026-01-17 02:05:54.18	17.06	39.87	-30.2	-33.5	18.7	6.00e-01	0	43	0	397934592	21	5231
2026-01-17 02:05:55.18	17.04	40.18	-30.4	-33.9	18.5	6.01e-01	0	43	0	399507456	21	5390
2026-01-17 02:05:56.18	17.03	40.49	-30.3	-33.6	18.4	6.03e-01	0	43	0	401604608	21	5284
2026-01-17 02:05:57.19	17.02	40.81	-30.3	-33.7	18.1	6.02e-01	0	44	0	403701760	21	5331
2026-01-17 02:05:58.20	17.00	41.13	-30.2	-33.3	18.9	5.99e-01	0	43	0	405274624	21	5152
2026-01-17 02:05:59.20	16.99	41.45	-30.0	-33.2	18.9	5.99e-01	0	43	0	407371776	20	5247
2026-01-17 02:06:00.19	16.97	41.77	-29.9	-33.1	19.1	5.99e-01	0	43	0	408944640	20	5206
2026-01-17 02:06:01.20	16.96	42.10	-30.1	-33.5	19.1	5.99e-01	0	44	0	411041792	20	5350
2026-01-17 02:06:02.19	16.94	42.43	-30.2	-33.3	18.8	6.00e-01	0	43	0	413138944	21	5175
2026-01-17 02:06:03.20	16.93	42.76	-30.2	-33.4	18.6	5.99e-01	0	43	0	414711808	21	5216
2026-01-17 02:06:04.20	16.91	43.10	-29.8	-32.3	19.4	6.01e-01	0	43	0	416808960	21	4818
2026-01-17 02:06:05.20	16.90	43.44	-29.5	-32.0	19.9	6.01e-01	0	43	0	418381824	20	4812
2026-01-17 02:06:06.20	16.88	43.78	-29.4	-32.3	20.1	6.00e-01	0	43	0	420478976	19	5014
2026-01-17 02:06:07.20	16.86	44.13	-29.5	-32.6	19.9	6.02e-01	0	43	0	422051840	19	5123
2026-01-17 02:06:08.20	16.84	44.48	-29.6	-32.4	19.7	6.01e-01	0	43	0	424148992	20	4959
2026-01-17 02:06:09.21	16.83	44.83	-29.6	-32.2	19.9	6.01e-01	0	43	0	426246144	20	4884
2026-01-17 02:06:10.21	16.81	45.19	-29.4	-31.9	20.0	6.02e-01	0	43	0	427819008	20	4782
2026-01-17 02:06:11.21	16.79	45.55	-29.5	-32.6	20.0	6.02e-01	0	43	0	429916160	19	5116
2026-01-17 02:06:12.22	16.77	45.91	-29.4	-32.4	20.1	6.05e-01	0	43	0	431489024	19	5055
2026-01-17 02:06:13.22	16.75	46.28	-29.6	-32.7	20.0	6.01e-01	0	44	0	433586176	19	5144
2026-01-17 02:06:14.22	16.73	46.65	-29.7	-32.6	19.7	6.00e-01	0	43	0	435159040	20	5002
2026-01-17 02:06:15.22	16.71	47.02	-30.1	-33.0	19.1	6.00e-01	0	43	0	437256192	21	5046
2026-01-17 02:06:16.22	16.68	47.39	-29.8	-32.8	19.4	6.02e-01	0	44	0	439353344	20	5108
2026-01-17 02:06:17.22	16.66	47.77	-29.6	-32.7	19.9	6.00e-01	0	43	0	440926208	19	5157
2026-01-17 02:06:18.21	16.64	48.15	-29.4	-31.8	20.1	6.00e-01	0	43	0	443023360	20	4754
2026-01-17 02:06:19.21	16.61	48.54	-29.5	-32.5	20.0	6.00e-01	0	44	0	444596224	19	5102
2026-01-17 02:06:20.21	16.59	48.93	-29.7	-32.5	19.8	6.02e-01	0	43	0	446693376	20	4966
2026-01-17 02:06:21.20	16.56	49.32	-29.5	-32.0	19.9	6.02e-01	0	43	0	448790528	20	4827
2026-01-17 02:06:22.20	16.54	49.72	-29.2	-31.7	20.6	6.00e-01	0	44	0	450363392	19	4818
2026-01-17 02:06:23.19	16.51	50.11	-29.4	-32.2	20.2	6.00e-01	0	44	0	452460544	19	5002
2026-01-17 02:06:24.20	16.48	50.52	-29.2	-31.8	20.5	6.01e-01	0	43	0	454033408	19	4852
2026-01-17 02:06:25.20	16.45	50.93	-29.3	-32.0	20.4	5.97e-01	0	43	0	456130560	19	4904
2026-01-17 02:06:26.19	16.42	51.34	-29.5	-31.9	20.0	6.01e-01	0	43	0	457703424	20	4790
2026-01-17 02:06:27.20	16.39	51.76	-29.2	-31.8	20.5	6.01e-01	0	43	0	459800576	19	4865
2026-01-17 02:06:28.21	16.36	52.18	-29.2	-31.7	20.6	6.01e-01	0	43	0	461897728	19	4820
2026-01-17 02:06:29.21	16.33	52.61	-29.0	-31.3	20.8	6.01e-01	0	43	0	463470592	19	4690
2026-01-17 02:06:30.21	16.29	53.04	-29.2	-31.7	20.5	6.01e-01	0	43	0	465567744	19	4808
2026-01-17 02:06:31.22	16.26	53.47	-28.9	-31.0	20.9	6.04e-01	0	44	0	467140608	19	4605
2026-01-17 02:06:32.22	16.22	53.91	-29.1	-31.4	20.7	6.00e-01	0	43	0	469237760	19	4721
2026-01-17 02:06:33.22	16.18	54.35	-29.4	-32.2	20.3	6.01e-01	0	44	0	470810624	19	4971
2026-01-17 02:06:34.22	16.14	54.79	-29.1	-31.4	20.7	6.01e-01	0	43	0	472907776	19	4725
2026-01-17 02:06:35.23	16.10	55.24	-28.9	-30.9	21.0	6.00e-01	0	43	0	475004928	19	4573
2026-01-17 02:06:36.22	16.06	55.69	-29.0	-31.8	20.7	6.00e-01	0	43	0	476577792	18	4980
2026-01-17 02:06:37.22	16.02	56.14	-29.1	-31.5	20.6	6.01e-01	0	44	0	478674944	19	4736
2026-01-17 02:06:38.22	15.97	56.60	-29.3	-32.1	20.3	5.98e-01	0	44	0	480247808	19	4955
2026-01-17 02:06:39.22	15.93	57.06	-29.3	-32.1	20.3	6.01e-01	0	44	0	482344960	19	4958
2026-01-17 02:06:40.23	15.88	57.54	-29.4	-32.4	20.2	6.01e-01	0	43	0	483917824	19	5048
2026-01-17 02:06:41.22	15.83	58.00	-29.5	-32.5	20.1	6.01e-01	0	43	0	486014976	19	5077
2026-01-17 02:06:42.22	15.78	58.48	-29.8	-32.9	19.5	6.01e-01	0	44	0	488112128	20	5132
2026-01-17 02:06:43.22	15.72	58.96	-29.6	-32.2	19.9	6.00e-01	0	44	0	489684992	20	4888
2026-01-17 02:06:44.22	15.67	59.44	-30.2	-33.3	19.0	6.01e-01	0	44	0	491782144	21	5144
2026-01-17 02:06:45.22	15.61	59.93	-30.2	-33.3	19.1	6.01e-01	0	44	0	493355008	21	5141
2026-01-17 02:06:46.22	15.55	60.42	-30.3	-33.5	18.9	6.01e-01	0	43	0	495452160	21	5245
2026-01-17 02:06:47.22	15.48	60.91	-30.1	-33.2	19.1	6.00e-01	0	43	0	497025024	21	5108
2026-01-17 02:06:48.22	15.42	61.41	-30.5	-34.3	18.4	6.00e-01	0	43	0	499122176	21	5565
2026-01-17 02:06:49.22	15.35	61.91	-30.5	-34.1	18.5	6.00e-01	0	44	0	501219328	21	5461
2026-01-17 02:06:50.22	15.28	62.42	-30.4	-33.9	18.6	6.01e-01	0	44	0	502792192	21	5403
2026-01-17 02:06:51.22	15.20	62.93	-30.9	-34.9	17.7	6.00e-01	0	43	0	504889344	22	5661
2026-01-17 02:06:52.22	15.12	63.44	-31.0	-35.1	17.6	6.02e-01	0	44	0	506462208	22	5747
2026-01-17 02:06:53.22	15.04	63.96	-31.3	-35.4	17.0	6.02e-01	0	43	0	508559360	23	5769
2026-01-17 02:06:54.22	14.95	64.48	-31.4	-35.7	16.9	5.98e-01	0	43	0	510656512	23	5900
2026-01-17 02:06:55.22	14.86	65.01	-32.1	-37.6	15.2	6.01e-01	0	43	0	512229376	24	6779
2026-01-17 02:06:56.23	14.77	65.54	-31.9	-36.3	15.7	6.01e-01	0	43	0	514326528	25	6007
2026-01-17 02:06:57.23	14.67	66.07	-31.7	-35.6	16.3	6.00e-01	0	44	0	515899392	25	5641
2026-01-17 02:06:58.22	14.56	66.60	-31.9	-36.2	15.8	6.01e-01	0	44	0	517996544	25	5958
2026-01-17 02:06:59.23	14.45	67.15	-31.8	-36.1	15.9	6.03e-01	0	44	0	519569408	25	5890
2026-01-17 02:07:00.23	14.33	67.69	-32.0	-36.8	15.4	6.00e-01	0	43	0	521666560	25	6255
2026-01-17 02:07:01.24	14.21	68.24	-31.8	-36.2	15.7	6.02e-01	0	43	0	523763712	25	5929
2026-01-17 02:07:02.24	14.08	68.79	-31.9	-37.0	15.6	5.99e-01	0	44	0	525336576	24	6454
2026-01-17 02:07:03.24	13.94	69.35	-32.2	-37.5	14.9	6.04e-01	0	44	0	527433728	25	6596
2026-01-17 02:07:04.25	13.79	69.91	-31.9	-36.4	15.8	6.03e-01	0	44	0	529006592	25	6028
2026-01-17 02:07:05.25	13.63	70.47	-32.1	-37.0	15.2	6.01e-01	0	44	0	531103744	25	6383
2026-01-17 02:07:06.24	13.47	71.03	-31.9	-37.1	15.5	6.00e-01	0	44	0	533200896	24	6535
2026-01-17 02:07:07.24	13.29	71.60	-32.0	-37.3	15.3	6.00e-01	0	43	0	534773760	24	6644
2026-01-17 02:07:08.24	13.10	72.17	-31.7	-36.2	16.2	6.02e-01	0	44	0	536870912	24	6030
2026-01-17 02:07:09.24	12.90	72.74	-31.7	-36.1	16.3	6.00e-01	0	44	0	538443776	24	5993
2026-01-17 02:07:10.24	12.68	73.31	-31.7	-36.0	16.3	6.01e-01	0	43	0	540540928	24	5964
2026-01-17 02:07:11.25	12.44	73.90	-31.4	-35.8	16.9	6.00e-01	0	44	0	542113792	23	5955
2026-01-17 02:07:12.25	12.18	74.48	-31.6	-35.7	16.5	6.01e-01	0	44	0	544210944	24	5796
2026-01-17 02:07:13.26	11.90	75.07	-31.5	-35.3	16.8	5.99e-01	0	44	0	546308096	24	5634
2026-01-17 02:07:14.26	11.61	75.65	-31.3	-35.4	17.1	6.01e-01	0	44	0	547880960	23	5752
2026-01-17 02:07:15.26	11.28	76.24	-31.3	-35.4	17.1	6.01e-01	0	44	0	549978112	23	5781
2026-01-17 02:07:16.27	10.92	76.83	-31.2	-35.0	17.3	6.01e-01	0	44	0	551550976	23	5595
2026-01-17 02:07:17.27	10.53	77.43	-31.0	-34.9	17.8	6.03e-01	0	44	0	553648128	22	5673
2026-01-17 02:07:18.28	10.09	78.03	-31.2	-35.0	17.5	5.99e-01	0	44	0	555745280	23	5562
2026-01-17 02:07:19.28	9.61	78.62	-30.7	-33.7	18.3	6.04e-01	0	44	0	557318144	23	5064
2026-01-17 02:07:20.29	9.07	79.22	-30.6	-33.8	18.5	6.02e-01	0	44	0	559415296	22	5219
2026-01-17 02:07:21.28	8.47	79.81	-30.5	-33.5	18.7	6.02e-01	0	44	0	560988160	22	5086
2026-01-17 02:07:22.28	7.80	80.41	-30.1	-32.6	19.2	6.00e-01	0	44	0	563085312	22	4771
2026-01-17 02:07:23.28	7.03	81.01	-30.2	-33.3	19.2	6.01e-01	0	44	0	564658176	21	5134
2026-01-17 02:07:24.28	6.15	81.61	-29.9	-32.6	19.5	6.00e-01	0	44	0	566755328	21	4879
2026-01-17 02:07:25.28	5.13	82.20	-29.9	-32.5	19.7	6.01e-01	0	44	0	568852480	21	4841
2026-01-17 02:07:26.29	3.93	82.81	-29.7	-32.5	19.9	5.99e-01	0	44	0	570425344	20	4974
2026-01-17 02:07:27.29	2.53	83.40	-30.0	-33.2	19.4	6.01e-01	0	44	0	572522496	20	5217
2026-01-17 02:07:28.29	0.84	83.99	-30.4	-33.8	18.9	6.00e-01	0	44	0	574095360	21	5307
2026-01-17 02:07:29.29	358.79	84.57	-30.6	-34.2	18.5	6.00e-01	0	43	0	576192512	21	5485
2026-01-17 02:07:30.29	356.23	85.15	-30.9	-34.7	18.0	6.01e-01	0	43	0	578289664	22	5552
2026-01-17 02:07:31.29	353.00	85.72	-31.4	-35.5	17.1	6.01e-01	0	44	0	579862528	23	5790
2026-01-17 02:07:32.29	348.79	86.27	-31.6	-35.6	16.7	5.99e-01	0	43	0	581959680	24	5759
2026-01-17 02:07:33.30	343.10	86.79	-31.5	-36.0	16.8	6.00e-01	0	43	0	583532544	23	6044
2026-01-17 02:07:34.29	335.47	87.27	-31.6	-35.6	16.7	6.00e-01	0	44	0	585629696	24	5742
2026-01-17 02:07:35.30	324.65	87.68	-31.0	-33.8	18.0	6.02e-01	0	43	0	587726848	24	4998
2026-01-17 02:07:36.29	310.24	87.98	-31.0	-34.5	17.8	6.01e-01	0	44	0	589299712	23	5374
2026-01-17 02:07:37.28	292.47	88.11	-30.6	-33.2	18.7	6.00e-01	0	44	0	591396864	23	4846
2026-01-17 02:07:38.28	273.88	88.05	-30.2	-32.5	19.4	6.02e-01	0	43	0	592969728	22	4738
2026-01-17 02:07:39.29	257.86	87.79	-30.1	-32.8	19.6	5.99e-01	0	43	0	595066880	21	4941
2026-01-17 02:07:40.28	246.05	87.42	-29.9	-32.5	19.7	6.03e-01	0	43	0	596639744	21	4852
2026-01-17 02:07:41.28	237.43	86.96	-29.8	-32.7	19.9	6.02e-01	0	44	0	598736896	20	5021
2026-01-17 02:07:42.28	231.18	86.45	-30.3	-33.6	19.0	6.00e-01	0	44	0	600834048	21	5268
2026-01-17 02:07:43.29	226.50	85.90	-30.3	-33.6	19.0	6.01e-01	0	44	0	602406912	21	5260
2026-01-17 02:07:44.29	222.97	85.34	-30.5	-34.1	18.6	6.01e-01	0	44	0	604504064	21	5431
2026-01-17 02:07:45.29	220.22	84.77	-30.8	-34.3	18.1	6.02e-01	0	43	0	606076928	22	5425
2026-01-17 02:07:46.28	218.03	84.19	-30.6	-33.8	18.5	6.01e-01	0	43	0	608174080	22	5231
2026-01-17 02:07:47.29	216.21	83.60	-30.3	-33.6	18.9	6.01e-01	0	44	0	609746944	21	5261
2026-01-17 02:07:48.29	214.72	83.00	-30.7	-34.2	18.2	6.01e-01	0	44	0	611844096	22	5359
2026-01-17 02:07:49.30	213.45	82.40	-30.3	-33.2	18.9	6.02e-01	0	44	0	613941248	22	4980
2026-01-17 02:07:50.30	212.38	81.80	-29.8	-32.2	19.7	6.01e-01	0	43	0	615514112	21	4745
2026-01-17 02:07:51.30	211.46	81.21	-30.4	-33.8	18.7	6.01e-01	0	44	0	617611264	21	5354
2026-01-17 02:07:52.30	210.66	80.61	-30.4	-33.3	18.8	6.02e-01	0	44	0	619184128	22	5036
2026-01-17 02:07:53.30	209.95	80.01	-29.6	-31.8	20.0	6.00e-01	0	44	0	621281280	21	4620
2026-01-17 02:07:54.30	209.33	79.41	-30.5	-34.3	18.5	6.02e-01	0	44	0	622854144	21	5539
2026-01-17 02:07:55.30	208.77	78.81	-30.8	-34.5	17.9	6.00e-01	0	44	0	624951296	22	5497
2026-01-17 02:07:56.30	208.28	78.22	-30.4	-34.0	18.6	6.00e-01	0	43	0	627048448	21	5398
2026-01-17 02:07:57.30	207.83	77.62	-31.1	-35.4	17.4	6.02e-01	0	44	0	628621312	22	5897
2026-01-17 02:07:58.30	207.42	77.03	-31.3	-35.3	17.1	6.03e-01	0	44	0	630718464	23	5748
2026-01-17 02:07:59.30	207.05	76.44	-31.6	-36.3	16.4	6.02e-01	0	44	0	632291328	23	6188
2026-01-17 02:08:00.30	206.72	75.85	-31.4	-35.9	16.6	6.01e-01	0	44	0	634388480	23	6003
2026-01-17 02:08:01.30	206.41	75.26	-31.8	-36.5	15.9	6.01e-01	0	43	0	635961344	24	6220
2026-01-17 02:08:02.31	206.12	74.67	-32.0	-37.4	15.2	6.03e-01	0	43	0	638058496	24	6710
2026-01-17 02:08:03.30	205.86	74.10	-31.5	-35.6	16.4	6.02e-01	0	44	0	640155648	24	5786
2026-01-17 02:08:04.30	205.62	73.52	-31.3	-35.0	16.9	6.00e-01	0	44	0	641728512	24	5503
2026-01-17 02:08:05.31	205.39	72.93	-31.1	-34.8	17.4	6.01e-01	0	43	0	643825664	23	5540
2026-01-17 02:08:06.31	205.18	72.36	-31.1	-34.8	17.3	6.02e-01	0	44	0	645398528	23	5527
2026-01-17 02:08:07.32	204.98	71.78	-31.2	-35.3	17.0	6.01e-01	0	44	0	647495680	23	5749
2026-01-17 02:08:08.32	204.80	71.21	-31.4	-35.7	16.8	6.01e-01	0	43	0	649592832	23	5950
2026-01-17 02:08:09.32	204.63	70.65	-31.8	-36.5	15.8	6.00e-01	0	43	0	651165696	24	6223
2026-01-17 02:08:10.32	204.47	70.08	-32.1	-37.1	14.9	6.01e-01	0	44	0	653262848	25	6450
2026-01-17 02:08:11.32	204.32	69.53	-31.7	-36.3	16.0	5.99e-01	0	44	0	654835712	24	6135
2026-01-17 02:08:12.32	204.18	68.97	-31.8	-36.7	15.8	6.00e-01	0	43	0	656932864	24	6316
2026-01-17 02:08:13.32	204.04	68.42	-32.2	-37.5	14.7	6.00e-01	0	43	0	658505728	25	6670
2026-01-17 02:08:14.32	203.92	67.87	-32.0	-36.8	15.3	6.01e-01	0	43	0	660602880	25	6288
2026-01-17 02:08:15.32	203.80	67.32	-31.9	-36.4	15.5	6.01e-01	0	43	0	662700032	25	6077
2026-01-17 02:08:16.32	203.68	66.78	-31.5	-35.1	16.4	6.01e-01	0	44	0	664272896	25	5466
2026-01-17 02:08:17.33	203.58	66.24	-31.4	-35.3	16.7	6.02e-01	0	44	0	666370048	24	5649
2026-01-17 02:08:18.33	203.47	65.70	-31.4	-36.0	16.5	6.01e-01	0	43	0	667942912	23	6090
2026-01-17 02:08:19.33	203.38	65.17	-31.3	-35.5	16.8	5.99e-01	0	43	0	670040064	23	5861
2026-01-17 02:08:20.34	203.28	64.64	-31.0	-35.1	17.4	6.02e-01	0	44	0	672137216	22	5782
2026-01-17 02:08:21.33	203.20	64.12	-31.1	-34.8	17.3	6.00e-01	0	43	0	673710080	23	5534
2026-01-17 02:08:22.32	203.11	63.60	-31.1	-34.8	17.3	6.00e-01	0	43	0	675807232	23	5569
2026-01-17 02:08:23.33	203.03	63.08	-30.5	-33.8	18.3	6.01e-01	0	44	0	677380096	22	5229
2026-01-17 02:08:24.33	202.95	62.57	-30.3	-33.1	18.7	6.02e-01	0	44	0	679477248	22	4986
2026-01-17 02:08:25.34	202.88	62.05	-30.4	-34.0	18.3	6.01e-01	0	43	0	681050112	21	5423
2026-01-17 02:08:26.35	202.81	61.54	-30.1	-33.1	18.9	6.01e-01	0	44	0	683147264	21	5084
2026-01-17 02:08:27.34	202.74	61.05	-30.1	-33.6	19.1	6.00e-01	0	44	0	685244416	20	5389
2026-01-17 02:08:28.35	202.68	60.54	-30.3	-33.8	18.4	6.04e-01	0	44	0	686817280	21	5367
2026-01-17 02:08:29.35	202.62	60.05	-30.1	-33.0	19.0	6.01e-01	0	43	0	688914432	21	5075
2026-01-17 02:08:30.35	202.56	59.56	-29.5	-32.0	19.9	6.05e-01	0	44	0	690487296	20	4791
2026-01-17 02:08:31.35	202.50	59.08	-29.8	-32.7	19.5	6.01e-01	0	44	0	692584448	20	5072
2026-01-17 02:08:32.35	202.45	58.60	-29.8	-33.0	19.3	6.02e-01	0	43	0	694681600	20	5180
2026-01-17 02:08:33.34	202.39	58.12	-29.4	-31.8	20.1	6.01e-01	0	43	0	696254464	20	4735
2026-01-17 02:08:34.35	202.34	57.65	-29.4	-32.4	20.1	6.01e-01	0	43	0	698351616	19	5045
2026-01-17 02:08:35.35	202.29	57.18	-29.4	-31.9	20.0	5.98e-01	0	43	0	699924480	20	4790
2026-01-17 02:08:36.35	202.25	56.71	-29.1	-31.6	20.5	6.02e-01	0	43	0	702021632	19	4802
2026-01-17 02:08:37.35	202.20	56.25	-28.8	-31.4	20.9	5.99e-01	0	43	0	703594496	18	4836
2026-01-17 02:08:38.36	202.16	55.79	-28.9	-31.5	21.0	6.02e-01	0	44	0	705691648	18	4865
2026-01-17 02:08:39.36	202.11	55.33	-28.6	-30.8	21.2	6.01e-01	0	43	0	707788800	18	4660
2026-01-17 02:08:40.36	202.07	54.88	-28.4	-30.9	21.5	6.00e-01	0	43	0	709361664	17	4794
2026-01-17 02:08:41.37	202.03	54.43	-28.4	-31.0	21.4	5.99e-01	0	44	0	711458816	17	4816
2026-01-17 02:08:42.37	201.99	53.99	-28.4	-30.9	21.4	6.02e-01	0	43	0	713031680	17	4785
2026-01-17 02:08:43.37	201.96	53.55	-28.2	-30.4	21.8	6.00e-01	0	44	0	715128832	17	4644
2026-01-17 02:08:44.38	201.92	53.11	-28.5	-31.0	21.5	6.00e-01	0	43	0	716701696	17	4823
2026-01-17 02:08:45.38	201.89	52.68	-28.8	-31.3	21.0	6.03e-01	0	43	0	718798848	18	4822
2026-01-17 02:08:46.38	201.85	52.26	-28.8	-31.2	21.0	6.00e-01	0	44	0	720896000	18	4789
2026-01-17 02:08:47.38	201.82	51.84	-28.9	-31.6	20.9	6.01e-01	0	44	0	722468864	18	4906
2026-01-17 02:08:48.38	201.79	51.42	-29.1	-31.6	20.5	6.03e-01	0	44	0	724566016	19	4782
2026-01-17 02:08:49.37	201.76	51.01	-29.0	-31.7	20.7	6.01e-01	0	44	0	726138880	18	4941
2026-01-17 02:08:50.38	201.73	50.59	-29.2	-31.8	20.4	5.97e-01	0	44	0	728236032	19	4846
2026-01-17 02:08:51.38	201.70	50.18	-29.4	-32.4	20.1	6.00e-01	0	43	0	729808896	19	5077
2026-01-17 02:08:52.39	201.67	49.78	-29.5	-32.7	20.0	6.02e-01	0	43	0	731906048	19	5157
2026-01-17 02:08:53.39	201.65	49.38	-29.5	-32.5	20.0	6.02e-01	0	44	0	734003200	19	5101
2026-01-17 02:08:54.39	201.62	48.98	-29.5	-32.2	19.8	6.03e-01	0	44	0	735576064	20	4897
2026-01-17 02:08:55.39	201.59	48.59	-29.7	-32.7	19.5	6.02e-01	0	44	0	737673216	20	5077
2026-01-17 02:08:56.40	201.57	48.19	-30.1	-33.6	19.0	6.02e-01	0	44	0	739770368	20	5408
2026-01-17 02:08:57.40	201.55	47.81	-29.7	-32.6	19.5	6.01e-01	0	44	0	741343232	20	5035
2026-01-17 02:08:58.40	201.52	47.43	-29.5	-32.5	20.0	5.99e-01	0	44	0	743440384	19	5083
2026-01-17 02:08:59.40	201.50	47.05	-29.4	-32.4	20.1	6.03e-01	0	44	0	745013248	19	5050
2026-01-17 02:09:00.41	201.48	46.67	-29.5	-32.6	19.9	6.03e-01	0	43	0	747110400	19	5122
2026-01-17 02:09:01.41	201.46	46.30	-29.3	-32.1	20.2	6.00e-01	0	44	0	748683264	19	4953
2026-01-17 02:09:02.41	201.44	45.93	-29.2	-31.8	20.4	6.00e-01	0	43	0	750780416	19	4844
2026-01-17 02:09:03.41	201.42	45.57	-29.1	-31.6	20.5	6.01e-01	0	44	0	752877568	19	4796
2026-01-17 02:09:04.42	201.40	45.20	-29.2	-31.9	20.3	6.02e-01	0	43	0	754450432	19	4893
2026-01-17 02:09:05.42	201.38	44.85	-29.4	-32.3	20.1	6.00e-01	0	44	0	756547584	19	5029
2026-01-17 02:09:06.42	201.36	44.49	-29.7	-32.7	19.5	6.01e-01	0	43	0	758120448	20	5067
2026-01-17 02:09:07.41	201.34	44.14	-29.6	-32.4	19.6	6.00e-01	0	44	0	760217600	20	4955
2026-01-17 02:09:08.41	201.32	43.80	-29.3	-32.2	20.2	6.03e-01	0	43	0	761790464	19	4977
2026-01-17 02:09:09.41	201.30	43.45	-29.4	-32.4	20.1	6.00e-01	0	44	0	763887616	19	5060
2026-01-17 02:09:10.41	201.29	43.11	-29.4	-32.0	19.9	6.01e-01	0	43	0	765984768	20	4824
2026-01-17 02:09:11.41	201.27	42.77	-29.3	-32.1	20.2	6.02e-01	0	44	0	767557632	19	4959
2026-01-17 02:09:12.41	201.26	42.44	-29.3	-32.0	20.2	6.01e-01	0	44	0	769654784	19	4942
2026-01-17 02:09:13.41	201.24	42.11	-29.3	-32.1	20.1	6.01e-01	0	43	0	771227648	19	4947
2026-01-17 02:09:14.42	201.22	41.78	-29.4	-32.4	20.0	6.02e-01	0	43	0	773324800	19	5068
2026-01-17 02:09:15.42	201.21	41.45	-29.6	-32.4	19.7	6.00e-01	0	43	0	774897664	20	4948
2026-01-17 02:09:16.42	201.20	41.13	-29.8	-32.8	19.4	6.01e-01	0	43	0	776994816	20	5098
2026-01-17 02:09:17.43	201.18	40.81	-29.7	-32.9	19.2	5.98e-01	0	43	0	779091968	20	5220
2026-01-17 02:09:18.43	201.17	40.49	-30.0	-33.4	19.1	6.02e-01	0	43	0	780664832	20	5325
2026-01-17 02:09:19.43	201.15	40.18	-30.1	-33.7	18.3	6.04e-01	0	43	0	782761984	20	5426
2026-01-17 02:09:20.43	201.14	39.86	-30.2	-33.5	18.6	6.03e-01	0	43	0	784334848	21	5263
2026-01-17 02:09:21.43	201.13	39.56	-30.2	-33.5	18.7	6.00e-01	0	43	0	786432000	21	5241
2026-01-17 02:09:22.43	201.12	39.25	-30.1	-33.2	18.8	6.02e-01	0	44	0	788529152	21	5138
2026-01-17 02:09:23.43	201.10	38.95	-30.2	-33.4	18.4	6.01e-01	0	43	0	790102016	21	5220
2026-01-17 02:09:24.44	201.09	38.65	-30.1	-33.3	18.8	6.01e-01	0	43	0	792199168	21	5177
2026-01-17 02:09:25.44	201.08	38.35	-30.2	-33.4	18.8	6.02e-01	0	43	0	793772032	21	5211
2026-01-17 02:09:26.45	201.07	38.05	-30.0	-33.0	18.9	6.01e-01	0	44	0	795869184	21	5078
2026-01-17 02:09:27.45	201.06	37.76	-29.9	-32.7	19.2	6.02e-01	0	43	0	797966336	21	4960
2026-01-17 02:09:28.45	201.05	37.48	-29.9	-33.2	19.2	6.02e-01	0	43	0	799539200	20	5248
2026-01-17 02:09:29.44	201.04	37.19	-29.8	-33.0	19.3	6.01e-01	0	43	0	801636352	20	5187
2026-01-17 02:09:30.44	201.03	36.91	-29.7	-32.7	19.5	6.00e-01	0	43	0	803209216	20	5070
2026-01-17 02:09:31.44	201.02	36.63	-29.7	-32.6	19.5	6.01e-01	0	43	0	805306368	20	5044
2026-01-17 02:09:32.44	201.01	36.35	-29.7	-32.7	19.4	6.01e-01	0	44	0	806879232	20	5060
2026-01-17 02:09:33.45	201.00	36.07	-29.8	-32.8	19.3	6.00e-01	0	43	0	808976384	20	5118
2026-01-17 02:09:34.45	200.99	35.80	-29.6	-32.5	19.6	6.00e-01	0	43	0	811073536	20	4983
2026-01-17 02:09:35.45	200.98	35.53	-29.7	-32.7	19.4	6.01e-01	0	44	0	812646400	20	5075
2026-01-17 02:09:36.45	200.97	35.26	-29.6	-32.3	19.6	6.01e-01	0	44	0	814743552	20	4945
2026-01-17 02:09:37.45	200.96	34.99	-29.5	-32.5	19.9	5.99e-01	0	43	0	816316416	19	5119
2026-01-17 02:09:38.46	200.95	34.73	-29.3	-32.2	20.0	6.03e-01	0	44	0	818413568	19	5005
2026-01-17 02:09:39.46	200.94	34.47	-29.4	-32.4	20.0	6.01e-01	0	44	0	819986432	19	5068
2026-01-17 02:09:40.46	200.94	34.21	-29.2	-31.9	20.2	6.02e-01	0	43	0	822083584	19	4910
2026-01-17 02:09:41.47	200.93	33.95	-29.0	-31.9	20.6	6.00e-01	0	43	0	824180736	18	5006
2026-01-17 02:09:42.47	200.92	33.69	-28.9	-31.6	20.7	6.01e-01	0	44	0	825753600	18	4927
2026-01-17 02:09:43.48	200.91	33.44	-29.0	-31.7	20.6	6.00e-01	0	44	0	827850752	18	4962
2026-01-17 02:09:44.48	200.90	33.19	-28.9	-31.7	20.6	6.00e-01	0	44	0	829423616	18	4960
2026-01-17 02:09:45.48	200.90	32.94	-28.8	-31.4	20.8	6.01e-01	0	44	0	831520768	18	4852
2026-01-17 02:09:46.48	200.89	32.70	-28.8	-31.3	20.9	6.03e-01	0	44	0	833617920	18	4808
2026-01-17 02:09:47.48	200.88	32.45	-28.8	-31.3	20.8	6.00e-01	0	43	0	835190784	18	4832
2026-01-17 02:09:48.49	200.88	32.21	-28.7	-31.1	20.9	6.02e-01	0	44	0	837287936	18	4762
2026-01-17 02:09:49.49	200.87	31.97	-28.5	-31.2	21.2	6.02e-01	0	43	0	838860800	17	4891
2026-01-17 02:09:50.50	200.86	31.73	-28.4	-31.0	21.3	6.02e-01	0	43	0	840957952	17	4837
2026-01-17 02:09:51.50	200.86	31.49	-28.4	-31.0	21.3	6.02e-01	0	43	0	843055104	17	4838
2026-01-17 02:09:52.50	200.85	31.26	-28.4	-30.8	21.4	6.00e-01	0	43	0	844627968	17	4788
2026-01-17 02:09:53.51	200.84	31.03	-28.4	-30.9	21.3	6.03e-01	0	43	0	846725120	17	4799
2026-01-17 02:09:54.51	200.84	30.80	-28.5	-31.1	21.2	6.01e-01	0	43	0	848297984	17	4867
2026-01-17 02:09:55.51	200.83	30.57	-28.6	-31.3	21.0	5.99e-01	0	43	0	850395136	17	4948
2026-01-17 02:09:56.51	200.83	30.35	-28.8	-31.5	20.7	6.00e-01	0	43	0	851968000	18	4883
2026-01-17 02:09:57.51	200.82	30.12	-28.9	-31.6	20.7	6.04e-01	0	43	0	854065152	18	4928
2026-01-17 02:09:58.51	200.82	29.90	-28.7	-31.2	20.9	6.02e-01	0	43	0	856162304	18	4792
2026-01-17 02:09:59.52	200.81	29.68	-28.6	-30.9	21.0	6.00e-01	0	43	0	857735168	18	4709
2026-01-17 02:10:00.52	200.81	29.46	-28.7	-31.1	21.0	6.03e-01	0	43	0	859832320	18	4755
2026-01-17 02:10:01.52	200.80	29.24	-28.8	-31.3	20.8	6.01e-01	0	43	0	861405184	18	4825
2026-01-17 02:10:02.53	200.80	29.03	-28.8	-31.5	20.7	6.02e-01	0	43	0	863502336	18	4881
2026-01-17 02:10:03.53	200.79	28.81	-28.8	-31.5	20.7	5.99e-01	0	43	0	865075200	18	4882
2026-01-17 02:10:04.53	200.79	28.60	-28.8	-31.5	20.6	6.02e-01	0	44	0	867172352	18	4914
2026-01-17 02:10:05.53	200.78	28.39	-28.9	-31.6	20.6	6.01e-01	0	43	0	869269504	18	4930
2026-01-17 02:10:06.54	200.78	28.18	-28.9	-31.7	20.6	6.01e-01	0	43	0	870842368	18	4962
2026-01-17 02:10:07.54	200.77	27.98	-28.8	-31.4	20.7	5.99e-01	0	43	0	872939520	18	4877
2026-01-17 02:10:08.54	200.77	27.77	-28.8	-31.4	20.7	6.01e-01	0	43	0	875036672	18	4857
2026-01-17 02:10:09.54	200.76	27.57	-28.8	-31.3	20.8	6.02e-01	0	43	0	876609536	18	4847
2026-01-17 02:10:10.55	200.76	27.37	-28.7	-31.2	20.8	6.01e-01	0	44	0	878706688	18	4797
2026-01-17 02:10:11.55	200.76	27.17	-28.8	-31.5	20.7	6.00e-01	0	44	0	880279552	18	4896
2026-01-17 02:10:12.55	200.75	26.97	-28.8	-31.5	20.6	6.01e-01	0	43	0	882376704	18	4918
2026-01-17 02:10:13.56	200.75	26.77	-28.8	-31.4	20.6	6.04e-01	0	44	0	883949568	18	4879
2026-01-17 02:10:14.56	200.74	26.58	-28.8	-31.5	20.6	5.99e-01	0	44	0	886046720	18	4917
2026-01-17 02:10:15.56	200.74	26.38	-28.8	-31.6	20.5	6.01e-01	0	43	0	888143872	18	4949
2026-01-17 02:10:16.56	200.74	26.19	-28.7	-31.2	20.7	6.03e-01	0	43	0	889716736	18	4832
2026-01-17 02:10:17.57	200.73	26.00	-28.8	-31.6	20.5	6.02e-01	0	43	0	891813888	18	4940
2026-01-17 02:10:18.57	200.73	25.81	-28.8	-31.5	20.5	6.00e-01	0	43	0	893386752	18	4935
2026-01-17 02:10:19.57	200.73	25.62	-28.8	-31.4	20.6	5.98e-01	0	44	0	895483904	18	4899
2026-01-17 02:10:20.58	200.72	25.43	-29.0	-32.0	20.3	6.01e-01	0	44	0	897056768	18	5104
2026-01-17 02:10:21.59	200.72	25.25	-29.2	-31.9	20.0	5.99e-01	0	44	0	899153920	19	4942
2026-01-17 02:10:22.59	200.72	25.06	-29.2	-32.0	20.0	6.01e-01	0	44	0	901251072	19	4959
2026-01-17 02:10:23.59	200.71	24.88	-29.3	-32.2	19.9	6.00e-01	0	44	0	902823936	19	5045
2026-01-17 02:10:24.59	200.71	24.70	-29.3	-32.4	19.8	6.01e-01	0	44	0	904921088	19	5113
2026-01-17 02:10:25.60	200.71	24.52	-29.4	-32.6	19.7	6.01e-01	0	43	0	907018240	19	5189
2026-01-17 02:10:26.61	200.71	24.34	-29.5	-32.8	19.6	6.03e-01	0	44	0	908591104	19	5244
2026-01-17 02:10:27.61	200.70	24.16	-29.6	-32.9	19.4	6.01e-01	0	44	0	910688256	19	5308
2026-01-17 02:10:28.61	200.70	23.99	-29.8	-33.0	19.0	6.01e-01	0	43	0	912261120	20	5247
2026-01-17 02:10:29.61	200.70	23.82	-30.0	-33.7	18.6	6.00e-01	0	43	0	914358272	20	5514
2026-01-17 02:10:30.61	200.70	23.64	-30.2	-33.6	18.3	5.99e-01	0	43	0	915931136	21	5363
2026-01-17 02:10:31.60	200.69	23.47	-30.0	-33.3	18.5	6.02e-01	0	44	0	918028288	21	5245
2026-01-17 02:10:32.61	200.69	23.30	-30.0	-33.8	18.5	6.02e-01	0	43	0	920125440	20	5551
2026-01-17 02:10:33.61	200.69	23.13	-30.1	-33.5	18.4	6.01e-01	0	44	0	921698304	21	5323
2026-01-17 02:10:34.62	200.69	22.96	-30.3	-34.0	18.1	6.01e-01	0	44	0	923795456	21	5495
2026-01-17 02:10:35.62	200.68	22.80	-30.2	-33.8	18.2	6.01e-01	0	44	0	925368320	21	5417
2026-01-17 02:10:36.63	200.68	22.63	-30.0	-33.3	18.6	6.02e-01	0	43	0	927465472	21	5218
2026-01-17 02:10:37.63	200.68	22.46	-30.1	-33.4	18.4	6.01e-01	0	44	0	929038336	21	5277
2026-01-17 02:10:38.64	200.68	22.30	-30.0	-33.2	18.6	6.02e-01	0	44	0	931135488	21	5168
2026-01-17 02:10:39.63	200.68	22.14	-29.9	-33.3	18.8	6.01e-01	0	43	0	933232640	20	5336
2026-01-17 02:10:40.63	200.67	21.98	-29.9	-33.4	18.7	6.03e-01	0	44	0	934805504	20	5351
2026-01-17 02:10:41.62	200.67	21.82	-29.7	-32.8	19.1	6.03e-01	0	43	0	936902656	20	5136
2026-01-17 02:10:42.62	200.67	21.66	-29.5	-32.2	19.4	6.01e-01	0	44	0	938475520	20	4941
2026-01-17 02:10:43.63	200.67	21.50	-29.5	-32.8	19.4	6.00e-01	0	44	0	940572672	19	5257
2026-01-17 02:10:44.63	200.67	21.34	-29.8	-33.0	19.0	6.01e-01	0	43	0	942145536	20	5222
2026-01-17 02:10:45.63	200.67	21.19	-29.9	-32.9	18.7	6.04e-01	0	43	0	944242688	21	5084
2026-01-17 02:10:46.62	200.66	21.04	-29.4	-32.1	19.5	5.99e-01	0	44	0	946339840	20	4894
2026-01-17 02:10:47.63	200.66	20.88	-29.3	-32.2	19.7	6.01e-01	0	44	0	947912704	19	5039
2026-01-17 02:10:48.63	200.66	20.73	-29.2	-32.0	19.9	6.02e-01	0	43	0	950009856	19	4962
2026-01-17 02:10:49.63	200.66	20.58	-29.3	-32.3	19.7	6.00e-01	0	44	0	951582720	19	5053
2026-01-17 02:10:50.63	200.66	20.43	-29.2	-32.0	19.9	6.00e-01	0	44	0	953679872	19	4974
2026-01-17 02:10:51.64	200.66	20.27	-29.2	-32.1	19.5	6.02e-01	0	44	0	955777024	19	4988
2026-01-17 02:10:52.65	200.66	20.12	-29.2	-31.9	19.3	6.01e-01	0	43	0	957349888	19	4933
2026-01-17 02:10:53.65	200.65	19.98	-29.2	-32.1	19.8	6.00e-01	0	43	0	959447040	19	4997
2026-01-17 02:10:54.65	200.65	19.83	-29.3	-32.1	19.8	6.00e-01	0	44	0	961019904	19	5014
2026-01-17 02:10:55.66	200.65	19.68	-29.2	-32.1	19.8	5.99e-01	0	44	0	963117056	19	4984
2026-01-17 02:10:56.66	200.65	19.54	-29.4	-32.4	19.6	6.01e-01	0	43	0	965214208	19	5103
2026-01-17 02:10:57.66	200.65	19.39	-29.3	-32.2	19.7	6.03e-01	0	43	0	966787072	19	5031
2026-01-17 02:10:58.66	200.65	19.25	-29.3	-32.3	19.7	6.03e-01	0	43	0	968884224	19	5070
2026-01-17 02:10:59.66	200.65	19.11	-29.4	-32.7	19.4	6.00e-01	0	44	0	970457088	19	5205
2026-01-17 02:11:00.66	200.65	18.97	-29.5	-32.7	19.4	6.01e-01	0	44	0	972554240	19	5241
2026-01-17 02:11:01.66	200.65	18.83	-29.5	-32.9	19.3	5.99e-01	0	43	0	974127104	19	5309
2026-01-17 02:11:02.67	200.64	18.69	-29.8	-33.1	18.8	6.00e-01	0	43	0	976224256	20	5267
2026-01-17 02:11:03.67	200.64	18.55	-29.7	-33.0	18.8	6.01e-01	0	44	0	978321408	20	5233
2026-01-17 02:11:04.67	200.64	18.41	-29.6	-32.6	19.1	6.01e-01	0	43	0	979894272	20	5076
2026-01-17 02:11:05.67	200.64	18.27	-29.5	-32.4	19.2	6.02e-01	0	44	0	981991424	20	5022
2026-01-17 02:11:06.67	200.64	18.14	-29.6	-33.0	19.2	6.01e-01	0	43	0	983564288	19	5348
2026-01-17 02:11:07.67	200.64	18.00	-29.5	-32.5	19.1	6.01e-01	0	43	0	985661440	20	5053
2026-01-17 02:11:08.67	200.64	17.87	-29.6	-32.6	19.1	6.02e-01	0	44	0	987234304	20	5095
2026-01-17 02:11:09.68	200.64	17.73	-29.6	-32.6	19.0	6.02e-01	0	44	0	989331456	20	5108
2026-01-17 02:11:10.68	200.64	17.60	-29.6	-32.5	19.1	6.00e-01	0	43	0	991428608	20	5074
2026-01-17 02:11:11.68	200.64	17.47	-29.7	-33.0	18.8	6.04e-01	0	43	0	993001472	20	5254
2026-01-17 02:11:12.68	200.64	17.34	-29.7	-33.0	18.8	6.00e-01	0	43	0	995098624	20	5231
2026-01-17 02:11:13.69	200.64	17.21	-29.6	-32.6	19.0	5.99e-01	0	43	0	997195776	20	5116
2026-01-17 02:11:14.69	200.64	17.08	-29.4	-32.1	19.3	6.01e-01	0	44	0	998768640	20	4932
2026-01-17 02:11:15.69	200.64	16.95	-29.3	-32.4	19.5	5.99e-01	0	43	0	1000865792	19	5139
2026-01-17 02:11:16.69	200.64	16.82	-29.4	-32.5	19.4	6.01e-01	0	44	0	1002438656	19	5155
2026-01-17 02:11:17.69	200.64	16.69	-29.4	-32.6	19.4	6.02e-01	0	43	0	1004535808	19	5194
2026-01-17 02:11:18.70	200.64	16.56	-29.4	-32.5	19.4	6.00e-01	0	44	0	1006108672	19	5171
2026-01-17 02:11:19.70	200.64	16.44	-29.3	-32.4	19.5	6.03e-01	0	43	0	1008205824	19	5135
2026-01-17 02:11:20.71	200.64	16.31	-29.4	-32.6	19.4	6.02e-01	0	44	0	1010302976	19	5184
2026-01-17 02:11:21.71	200.63	16.19	-29.4	-32.5	19.4	6.00e-01	0	43	0	1011875840	19	5160
2026-01-17 02:11:22.71	200.63	16.06	-29.3	-32.3	19.5	6.03e-01	0	44	0	1013972992	19	5095
2026-01-17 02:11:23.71	200.63	15.94	-29.3	-32.5	19.4	6.00e-01	0	44	0	1015545856	19	5155
2026-01-17 02:11:24.71	200.63	15.82	-29.4	-32.6	19.3	6.01e-01	0	43	0	1017643008	19	5210
2026-01-17 02:11:25.72	200.63	15.69	-29.4	-32.6	19.3	6.01e-01	0	43	0	1019215872	19	5225
2026-01-17 02:11:26.72	200.63	15.57	-29.6	-33.0	19.0	6.01e-01	0	44	0	1021313024	19	5379
2026-01-17 02:11:27.73	200.63	15.45	-29.5	-32.4	19.0	6.04e-01	0	44	0	1023410176	20	5036
2026-01-17 02:11:28.72	200.63	15.33	-29.5	-33.0	19.0	6.01e-01	0	44	0	1024983040	19	5346
2026-01-17 02:11:29.73	200.63	15.21	-29.7	-32.9	18.7	6.00e-01	0	44	0	1027080192	20	5218
2026-01-17 02:11:30.74	200.63	15.09	-30.4	-34.4	17.8	6.02e-01	0	43	0	1029177344	20	5682
2026-01-17 02:11:31.74	200.63	14.97	-29.8	-33.2	17.7	6.04e-01	0	44	0	1030750208	20	5329
2026-01-17 02:11:32.74	200.63	14.86	-29.8	-33.3	18.3	6.00e-01	0	43	0	1032847360	20	5367
2026-01-17 02:11:33.74	200.63	14.74	-29.8	-33.2	17.1	6.01e-01	0	43	0	1034420224	20	5341
2026-01-17 02:11:34.74	200.63	14.62	-29.9	-33.5	16.9	6.05e-01	0	43	0	1036517376	20	5446
2026-01-17 02:11:35.74	200.63	14.51	-29.9	-33.4	18.2	6.02e-01	0	43	0	1038090240	20	5439
2026-01-17 02:11:36.74	200.63	14.39	-29.6	-32.8	16.9	6.03e-01	0	43	0	1040187392	20	5203
2026-01-17 02:11:37.74	200.63	14.28	-29.6	-33.0	17.8	6.01e-01	0	44	0	1042284544	19	5384
2026-01-17 02:11:38.73	200.64	14.17	-29.5	-33.0	18.9	6.01e-01	0	44	0	1043857408	19	5412
2026-01-17 02:11:39.73	200.64	14.05	-29.4	-32.7	18.4	6.03e-01	0	44	0	1045954560	19	5259
2026-01-17 02:11:40.74	200.64	13.94	-29.3	-32.4	18.5	6.00e-01	0	44	0	1047527424	19	5121
2026-01-17 02:11:41.74	200.64	13.83	-29.1	-32.3	19.6	6.02e-01	0	43	0	1049624576	18	5214
2026-01-17 02:11:42.74	200.64	13.72	-29.1	-32.3	19.6	6.01e-01	0	43	0	1051197440	18	5231
2026-01-17 02:11:43.75	200.64	13.61	-29.2	-32.1	19.4	6.02e-01	0	43	0	1053294592	19	5032
2026-01-17 02:11:44.75	200.64	13.50	-29.4	-32.5	19.2	6.03e-01	0	44	0	1055391744	19	5198
2026-01-17 02:11:45.75	200.64	13.39	-29.3	-32.5	19.2	6.02e-01	0	44	0	1056964608	19	5172
2026-01-17 02:11:46.76	200.64	13.28	-29.3	-32.3	19.4	6.01e-01	0	43	0	1059061760	19	5104
2026-01-17 02:11:47.76	200.64	13.17	-29.1	-32.0	19.5	6.01e-01	0	44	0	1060634624	19	5004
2026-01-17 02:11:48.77	200.64	13.06	-29.3	-32.4	19.3	6.01e-01	0	44	0	1062731776	19	5145
2026-01-17 02:11:49.77	200.64	12.95	-29.2	-32.2	19.4	6.01e-01	0	43	0	1064304640	19	5063
2026-01-17 02:11:50.77	200.64	12.84	-29.3	-32.4	19.3	6.01e-01	0	44	0	1066401792	19	5143
2026-01-17 02:11:51.77	200.64	12.74	-29.4	-32.6	19.1	6.00e-01	0	43	0	1068498944	19	5209
2026-01-17 02:11:52.78	200.64	12.63	-29.4	-32.6	19.1	6.01e-01	0	44	0	1070071808	19	5228
2026-01-17 02:11:53.78	200.64	12.53	-29.4	-32.6	19.1	5.99e-01	0	44	0	1072168960	19	5242
2026-01-17 02:11:54.78	200.64	12.42	-29.7	-33.0	18.4	6.04e-01	0	44	0	1074266112	20	5284
2026-01-17 02:11:55.78	200.64	12.32	-29.5	-32.6	18.6	6.00e-01	0	44	0	1075838976	20	5145
2026-01-17 02:11:56.79	200.64	12.21	-29.6	-33.1	18.7	5.99e-01	0	43	0	1077936128	19	5434
2026-01-17 02:11:57.79	200.64	12.11	-29.6	-33.2	18.6	6.00e-01	0	43	0	1079508992	19	5460
2026-01-17 02:11:58.78	200.64	12.01	-29.6	-33.1	18.7	5.98e-01	0	43	0	1081606144	19	5427
2026-01-17 02:11:59.79	200.64	11.90	-29.6	-32.7	18.5	6.02e-01	0	44	0	1083179008	20	5172
2026-01-17 02:12:00.79	200.65	11.80	-29.7	-33.2	18.2	6.02e-01	0	43	0	1085276160	20	5348
2026-01-17 02:12:01.80	200.65	11.70	-29.6	-32.9	18.3	6.02e-01	0	44	0	1087373312	20	5265
2026-01-17 02:12:02.80	200.65	11.60	-29.5	-32.4	18.7	5.99e-01	0	44	0	1088946176	20	5066
2026-01-17 02:12:03.80	200.65	11.50	-29.4	-32.8	18.8	6.01e-01	0	44	0	1091043328	19	5301
2026-01-17 02:12:04.81	200.65	11.40	-29.5	-33.1	18.7	6.01e-01	0	44	0	1092616192	19	5431
2026-01-17 02:12:05.81	200.65	11.30	-29.5	-32.9	18.8	6.01e-01	0	44	0	1094713344	19	5356
2026-01-17 02:12:06.81	200.65	11.20	-29.4	-32.7	18.9	6.01e-01	0	44	0	1096286208	19	5260
2026-01-17 02:12:07.81	200.65	11.10	-29.4	-32.6	18.9	6.00e-01	0	43	0	1098383360	19	5246
2026-01-17 02:12:08.81	200.65	11.00	-29.3	-32.4	19.1	6.03e-01	0	44	0	1100480512	19	5169
2026-01-17 02:12:09.81	200.65	10.90	-29.4	-32.9	18.8	6.02e-01	0	44	0	1102053376	19	5352
2026-01-17 02:12:10.81	200.65	10.80	-29.3	-32.6	18.9	6.02e-01	0	43	0	1104150528	19	5238
2026-01-17 02:12:11.81	200.65	10.71	-29.3	-32.6	19.0	6.00e-01	0	43	0	1105723392	19	5231
2026-01-17 02:12:12.81	200.65	10.61	-29.3	-32.5	19.0	6.01e-01	0	44	0	1107820544	19	5215
2026-01-17 02:12:13.81	200.66	10.51	-29.6	-33.2	18.6	6.01e-01	0	43	0	1109393408	19	5471
2026-01-17 02:12:14.81	200.66	10.42	-29.3	-32.1	18.8	6.00e-01	0	44	0	1111490560	20	4951
2026-01-17 02:12:15.81	200.66	10.32	-29.3	-32.5	19.0	6.02e-01	0	44	0	1113587712	19	5207
2026-01-17 02:12:16.81	200.66	10.23	-29.4	-32.8	18.8	6.01e-01	0	44	0	1115160576	19	5324
2026-01-17 02:12:17.82	200.66	10.13	-29.4	-32.6	18.9	6.00e-01	0	44	0	1117257728	19	5261
2026-01-17 02:12:18.82	200.66	10.04	-29.2	-32.3	19.1	6.00e-01	0	44	0	1118830592	19	5113
2026-01-17 02:12:19.82	200.66	9.95	-29.3	-32.6	18.9	6.01e-01	0	43	0	1120927744	19	5238
2026-01-17 02:12:20.82	200.66	9.85	-29.3	-32.6	18.9	5.99e-01	0	43	0	1123024896	19	5247
2026-01-17 02:12:21.82	200.66	9.76	-29.4	-32.8	18.8	6.03e-01	0	44	0	1124597760	19	5326
2026-01-17 02:12:22.82	200.66	9.67	-29.3	-32.7	18.8	6.03e-01	0	44	0	1126694912	19	5270
2026-01-17 02:12:23.83	200.67	9.57	-29.4	-32.8	18.7	6.01e-01	0	43	0	1128267776	19	5324
2026-01-17 02:12:24.83	200.67	9.48	-29.3	-32.6	18.9	6.01e-01	0	43	0	1130364928	19	5229
2026-01-17 02:12:25.83	200.67	9.39	-29.3	-32.5	18.9	6.00e-01	0	43	0	1131937792	19	5219
2026-01-17 02:12:26.83	200.67	9.30	-29.3	-32.5	18.9	6.03e-01	0	44	0	1134034944	19	5228
2026-01-17 02:12:27.83	200.67	9.21	-29.4	-32.9	18.7	5.99e-01	0	44	0	1136132096	19	5380
2026-01-17 02:12:28.83	200.67	9.12	-29.3	-32.6	18.8	6.01e-01	0	44	0	1137704960	19	5262
2026-01-17 02:12:29.83	200.67	9.03	-29.3	-32.6	18.8	6.01e-01	0	44	0	1139802112	19	5268
2026-01-17 02:12:30.83	200.67	8.94	-29.4	-32.7	18.8	6.03e-01	0	43	0	1141374976	19	5296
2026-01-17 02:12:31.83	200.67	8.85	-29.3	-32.6	18.8	6.01e-01	0	44	0	1143472128	19	5250
2026-01-17 02:12:32.83	200.68	8.76	-29.4	-32.9	18.6	5.99e-01	0	44	0	1145569280	19	5386
2026-01-17 02:12:33.84	200.68	8.67	-29.4	-32.8	18.7	6.01e-01	0	43	0	1147142144	19	5343
2026-01-17 02:12:34.85	200.68	8.58	-29.3	-32.7	18.7	6.04e-01	0	44	0	1149239296	19	5284
2026-01-17 02:12:35.85	200.68	8.50	-29.4	-32.9	18.6	5.99e-01	0	43	0	1150812160	19	5395
2026-01-17 02:12:36.86	200.68	8.41	-29.3	-32.7	18.7	6.00e-01	0	43	0	1152909312	19	5298
2026-01-17 02:12:37.86	200.68	8.32	-29.5	-32.8	18.3	6.02e-01	0	44	0	1154482176	20	5230
2026-01-17 02:12:38.86	200.68	8.23	-29.7	-33.3	17.9	5.99e-01	0	44	0	1156579328	20	5468
2026-01-17 02:12:39.86	200.68	8.15	-29.5	-32.8	18.3	6.02e-01	0	44	0	1158676480	20	5227
2026-01-17 02:12:40.86	200.68	8.06	-29.4	-32.5	18.5	6.02e-01	0	43	0	1160249344	20	5139
2026-01-17 02:12:41.87	200.69	7.97	-29.5	-32.7	18.2	6.03e-01	0	44	0	1162346496	20	5225
2026-01-17 02:12:42.87	200.69	7.89	-29.6	-33.4	18.3	6.03e-01	0	44	0	1163919360	19	5570
2026-01-17 02:12:43.87	200.69	7.80	-29.6	-32.9	18.1	5.99e-01	0	43	0	1166016512	20	5279
2026-01-17 02:12:44.88	200.69	7.72	-29.4	-32.5	18.4	6.02e-01	0	43	0	1168113664	20	5145
2026-01-17 02:12:45.88	200.69	7.63	-29.5	-32.9	18.2	6.02e-01	0	43	0	1169686528	20	5282
2026-01-17 02:12:46.89	200.69	7.55	-29.6	-33.0	18.1	6.00e-01	0	43	0	1171783680	20	5347
2026-01-17 02:12:47.88	200.69	7.47	-29.5	-32.8	18.2	5.98e-01	0	44	0	1173356544	20	5238
2026-01-17 02:12:48.89	200.69	7.38	-29.5	-32.6	18.3	6.00e-01	0	43	0	1175453696	20	5195
2026-01-17 02:12:49.89	200.70	7.30	-29.6	-33.1	17.9	6.00e-01	0	43	0	1177550848	20	5375
2026-01-17 02:12:50.90	200.70	7.21	-29.6	-33.1	17.9	6.01e-01	0	44	0	1179123712	20	5397
2026-01-17 02:12:51.90	200.70	7.13	-29.6	-33.0	18.0	6.01e-01	0	44	0	1181220864	20	5334
2026-01-17 02:12:52.90	200.70	7.05	-33.0	-50.2	3.9	7.45e-01	0	43	104	1182269440	26	26037
2026-01-17 02:12:53.91	200.70	6.97	-33.4	-52.8	3.8	7.43e-01	0	43	104	1182269440	27	33689

#Closed at: 2026-01-17 02:12:54
#Recorded file [1182 MB]: D:/data/31010_260117_050221.dat