passes_logs/2026/01/17/R2M6_AANII_01/R2M6_AANII_01__20260117_163625_FENGYUN_3E_rec.log

#Pass ID: 20260117_163625_FENGYUN 3E
#Satellite: FENGYUN 3E
#Configuration: FENGYUN 3E
#almurnet v.1.7.20240730
#Start time: 2026-01-17 16:36:26

#Version: 2.2.20231116
#Station: R2M6_AANII_01
#Location: 30.233357 lon 59.946436 lat
#TLE: 1 49008U 21062A   26016.55599566  .00000255  00000+0  14071-3 0  9994
#TLE: 2 49008  98.7485  21.6664 0002094 134.5344 225.6004 14.19886148235063

#Time	Az	El	Level	Level2	SNR	BER	BlckErr	Temp	State	Recorded	gain1	gain2
2026-01-17 16:36:26.89	227.97	7.06	-28.2	-29.3	5.6	7.33e-01	0	41	0	0	17	4075
2026-01-17 16:36:27.89	228.08	7.12	-28.5	-29.6	5.6	7.35e-01	0	41	104	0	18	4055
2026-01-17 16:36:28.90	228.20	7.17	-28.7	-30.0	11.0	2.09e-03	0	41	0	0	18	4175
2026-01-17 16:36:29.91	228.32	7.23	-28.4	-29.3	11.5	1.16e-03	0	41	0	7340032	18	3963
2026-01-17 16:36:30.90	228.44	7.28	-28.1	-28.9	12.0	6.00e-04	0	41	0	14680064	17	3958
2026-01-17 16:36:31.90	228.55	7.33	-28.0	-28.6	12.2	3.32e-04	0	41	0	22020096	17	3897
2026-01-17 16:36:32.90	228.67	7.39	-28.2	-29.3	11.8	5.97e-04	0	41	0	28311552	17	4056
2026-01-17 16:36:33.90	228.79	7.44	-28.1	-28.9	12.0	4.08e-04	0	42	0	35651584	17	3966
2026-01-17 16:36:34.90	228.91	7.50	-27.7	-28.5	12.6	1.44e-04	0	42	0	42991616	16	3956
2026-01-17 16:36:35.90	229.03	7.55	-27.2	-27.8	13.1	3.89e-05	0	42	0	50331648	15	3886
2026-01-17 16:36:36.90	229.15	7.61	-27.1	-27.7	13.2	2.63e-05	0	42	0	57671680	15	3847
2026-01-17 16:36:37.91	229.27	7.66	-26.9	-27.6	13.6	1.25e-05	0	42	0	65011712	14	3926
2026-01-17 16:36:38.90	229.39	7.72	-26.9	-27.7	13.5	1.02e-05	0	42	0	72351744	14	3951
2026-01-17 16:36:39.91	229.51	7.77	-26.8	-27.4	13.7	1.14e-05	0	42	0	79691776	14	3868
2026-01-17 16:36:40.91	229.64	7.83	-27.1	-28.1	13.3	1.60e-05	0	42	0	85983232	14	4061
2026-01-17 16:36:41.91	229.76	7.88	-26.9	-27.8	13.5	1.48e-05	0	42	0	93323264	14	3970
2026-01-17 16:36:42.91	229.88	7.94	-26.7	-27.2	13.8	6.80e-06	0	42	0	100663296	14	3809
2026-01-17 16:36:43.91	230.00	7.99	-26.7	-27.2	13.9	5.70e-06	0	42	0	108003328	14	3823
2026-01-17 16:36:44.91	230.13	8.05	-26.8	-27.6	13.6	3.40e-06	0	42	0	115343360	14	3911
2026-01-17 16:36:45.91	230.25	8.10	-26.6	-27.0	14.0	5.70e-06	0	42	0	122683392	14	3772
2026-01-17 16:36:46.92	230.38	8.16	-26.6	-27.4	14.0	0.00e+00	0	42	0	130023424	13	3976
2026-01-17 16:36:47.92	230.50	8.21	-26.7	-27.8	13.8	1.71e-05	0	42	0	137363456	13	4069
2026-01-17 16:36:48.92	230.63	8.27	-26.4	-27.2	14.1	1.10e-06	0	42	0	144703488	13	3922
2026-01-17 16:36:49.92	230.75	8.32	-26.4	-27.0	14.2	1.10e-06	0	42	0	150994944	13	3880
2026-01-17 16:36:50.91	230.88	8.38	-26.5	-27.4	14.0	2.20e-06	0	42	0	158334976	13	3968
2026-01-17 16:36:51.92	231.01	8.43	-26.6	-27.5	14.0	2.20e-06	0	42	0	165675008	13	3996
2026-01-17 16:36:52.92	231.13	8.49	-26.4	-27.1	14.2	5.70e-06	0	42	0	173015040	13	3892
2026-01-17 16:36:53.92	231.26	8.54	-26.6	-27.6	14.0	2.20e-06	0	42	0	180355072	13	4022
2026-01-17 16:36:54.91	231.39	8.59	-26.7	-27.7	13.9	3.40e-06	0	42	0	187695104	13	4048
2026-01-17 16:36:55.92	231.52	8.65	-26.7	-27.6	13.9	1.10e-06	0	42	0	195035136	13	4031
2026-01-17 16:36:56.92	231.65	8.71	-26.4	-27.0	14.3	0.00e+00	0	42	0	202375168	13	3866
2026-01-17 16:36:57.92	231.78	8.76	-26.5	-27.4	14.1	0.00e+00	0	42	0	208666624	13	3962
2026-01-17 16:36:58.93	231.91	8.82	-26.6	-27.4	14.1	8.00e-06	0	42	0	216006656	13	3971
2026-01-17 16:36:59.93	232.04	8.87	-26.7	-27.7	13.9	0.00e+00	0	42	0	223346688	13	4049
2026-01-17 16:37:00.94	232.17	8.93	-26.6	-27.5	14.1	1.10e-06	0	42	0	230686720	13	3980
2026-01-17 16:37:01.94	232.30	8.98	-26.4	-27.1	14.3	0.00e+00	0	42	0	238026752	13	3871
2026-01-17 16:37:02.94	232.43	9.03	-26.5	-27.3	14.2	0.00e+00	0	42	0	245366784	13	3929
2026-01-17 16:37:03.94	232.57	9.09	-26.6	-27.6	13.9	9.10e-06	0	42	0	252706816	13	4012
2026-01-17 16:37:04.93	232.70	9.14	-26.7	-27.6	14.0	8.00e-06	0	43	0	260046848	13	4026
2026-01-17 16:37:05.94	232.83	9.20	-26.7	-27.8	13.9	2.20e-06	0	42	0	267386880	13	4067
2026-01-17 16:37:06.94	232.97	9.25	-26.9	-28.2	13.6	5.70e-06	0	43	0	273678336	13	4167
2026-01-17 16:37:07.94	233.10	9.31	-26.9	-28.1	13.7	9.10e-06	0	43	0	281018368	13	4139
2026-01-17 16:37:08.93	233.24	9.36	-27.0	-28.4	13.5	1.14e-05	0	42	0	288358400	13	4225
2026-01-17 16:37:09.93	233.37	9.42	-26.7	-27.8	13.9	8.00e-06	0	43	0	295698432	13	4071
2026-01-17 16:37:10.93	233.51	9.47	-26.7	-27.7	13.9	4.50e-06	0	43	0	303038464	13	4042
2026-01-17 16:37:11.93	233.64	9.53	-27.0	-28.4	13.5	1.60e-05	0	42	0	310378496	13	4244
2026-01-17 16:37:12.94	233.78	9.58	-27.0	-28.3	13.6	8.00e-06	0	42	0	317718528	13	4199
2026-01-17 16:37:13.95	233.92	9.64	-26.8	-27.9	13.8	6.80e-06	0	43	0	325058560	13	4080
2026-01-17 16:37:14.95	234.06	9.69	-26.4	-27.0	14.3	2.20e-06	0	43	0	332398592	13	3871
2026-01-17 16:37:15.95	234.20	9.75	-26.5	-27.2	14.2	0.00e+00	0	43	0	339738624	13	3926
2026-01-17 16:37:16.95	234.33	9.80	-26.6	-27.5	14.1	0.00e+00	0	43	0	347078656	13	3988
2026-01-17 16:37:17.95	234.47	9.85	-26.7	-27.7	14.0	5.70e-06	0	42	0	354418688	13	4036
2026-01-17 16:37:18.95	234.61	9.91	-26.4	-26.9	14.4	0.00e+00	0	43	0	360710144	13	3844
2026-01-17 16:37:19.96	234.76	9.96	-26.4	-27.1	14.3	0.00e+00	0	43	0	368050176	13	3890
2026-01-17 16:37:20.96	234.90	10.02	-26.4	-27.0	14.4	0.00e+00	0	43	0	375390208	13	3861
2026-01-17 16:37:21.96	235.04	10.07	-26.5	-27.3	14.2	1.10e-06	0	43	0	382730240	13	3928
2026-01-17 16:37:22.96	235.18	10.13	-26.6	-27.5	14.1	2.20e-06	0	43	0	390070272	13	3986
2026-01-17 16:37:23.96	235.32	10.18	-26.5	-27.3	14.2	0.00e+00	0	43	0	397410304	13	3925
2026-01-17 16:37:24.96	235.46	10.24	-26.2	-26.5	14.7	0.00e+00	0	43	0	404750336	13	3737
2026-01-17 16:37:25.96	235.61	10.29	-26.3	-26.9	14.5	1.10e-06	0	43	0	412090368	13	3830
2026-01-17 16:37:26.96	235.75	10.34	-26.4	-27.1	14.3	2.20e-06	0	43	0	418381824	13	3891
2026-01-17 16:37:27.96	235.90	10.40	-26.4	-27.1	14.3	0.00e+00	0	43	0	425721856	13	3892
2026-01-17 16:37:28.96	236.04	10.45	-26.6	-27.5	14.1	3.40e-06	0	43	0	433061888	13	3993
2026-01-17 16:37:29.96	236.19	10.51	-26.6	-27.4	14.2	1.10e-06	0	43	0	440401920	13	3953
2026-01-17 16:37:30.96	236.33	10.56	-26.4	-26.9	14.4	0.00e+00	0	43	0	447741952	13	3842
2026-01-17 16:37:31.96	236.48	10.61	-26.0	-26.2	14.8	0.00e+00	0	43	0	455081984	13	3678
2026-01-17 16:37:32.96	236.63	10.67	-26.0	-26.0	15.0	0.00e+00	0	43	0	462422016	13	3629
2026-01-17 16:37:33.97	236.78	10.72	-25.9	-26.5	15.0	0.00e+00	0	43	0	469762048	12	3846
2026-01-17 16:37:34.97	236.92	10.78	-26.0	-26.6	14.9	0.00e+00	0	43	0	477102080	12	3868
2026-01-17 16:37:35.98	237.07	10.83	-25.9	-26.4	15.0	1.10e-06	0	43	0	483393536	12	3809
2026-01-17 16:37:36.98	237.22	10.88	-26.0	-26.7	14.9	0.00e+00	0	43	0	490733568	12	3874
2026-01-17 16:37:37.98	237.37	10.94	-26.0	-26.5	15.0	0.00e+00	0	43	0	498073600	12	3848
2026-01-17 16:37:38.98	237.52	10.99	-25.9	-26.4	15.1	0.00e+00	0	43	0	505413632	12	3812
2026-01-17 16:37:39.98	237.67	11.04	-26.1	-26.9	14.7	8.00e-06	0	43	0	512753664	12	3939
2026-01-17 16:37:40.99	237.83	11.10	-26.2	-27.0	14.7	0.00e+00	0	43	0	520093696	12	3965
2026-01-17 16:37:41.99	237.98	11.15	-25.9	-26.4	15.1	0.00e+00	0	43	0	527433728	12	3801
2026-01-17 16:37:42.99	238.13	11.21	-26.0	-26.7	14.9	0.00e+00	0	43	0	534773760	12	3877
2026-01-17 16:37:43.99	238.28	11.26	-26.1	-26.8	14.9	0.00e+00	0	43	0	542113792	12	3917
2026-01-17 16:37:44.99	238.44	11.31	-26.0	-26.6	15.0	0.00e+00	0	43	0	548405248	12	3872
2026-01-17 16:37:45.99	238.59	11.37	-25.6	-25.8	15.4	0.00e+00	0	43	0	555745280	12	3668
2026-01-17 16:37:46.99	238.74	11.42	-26.0	-26.6	15.0	0.00e+00	0	43	0	563085312	12	3857
2026-01-17 16:37:47.98	238.90	11.47	-26.1	-26.8	14.9	0.00e+00	0	43	0	570425344	12	3904
2026-01-17 16:37:48.98	239.05	11.52	-26.1	-26.9	14.8	0.00e+00	0	43	0	577765376	12	3923
2026-01-17 16:37:49.98	239.21	11.58	-26.3	-27.3	14.6	0.00e+00	0	43	0	585105408	12	4042
2026-01-17 16:37:50.98	239.37	11.63	-26.1	-26.8	14.8	1.10e-06	0	43	0	592445440	12	3921
2026-01-17 16:37:51.99	239.53	11.68	-25.9	-26.4	15.1	2.20e-06	0	43	0	599785472	12	3817
2026-01-17 16:37:52.99	239.68	11.74	-25.9	-26.3	15.1	0.00e+00	0	43	0	606076928	12	3796
2026-01-17 16:37:53.99	239.84	11.79	-25.9	-26.3	15.1	0.00e+00	0	43	0	613416960	12	3802
2026-01-17 16:37:54.99	240.00	11.84	-25.8	-26.3	15.2	0.00e+00	0	43	0	620756992	12	3788
2026-01-17 16:37:56.00	240.16	11.89	-25.9	-26.4	15.1	0.00e+00	0	43	0	628097024	12	3817
2026-01-17 16:37:57.00	240.32	11.95	-25.9	-26.3	15.2	0.00e+00	0	43	0	635437056	12	3789
2026-01-17 16:37:58.00	240.48	12.00	-25.7	-25.9	15.4	1.10e-06	0	43	0	642777088	12	3696
2026-01-17 16:37:59.00	240.64	12.05	-25.8	-26.3	15.2	1.10e-06	0	43	0	650117120	12	3779
2026-01-17 16:38:00.00	240.80	12.10	-25.8	-26.1	15.3	0.00e+00	0	43	0	657457152	12	3738
2026-01-17 16:38:01.00	240.97	12.15	-25.8	-26.1	15.3	0.00e+00	0	43	0	664797184	12	3752
2026-01-17 16:38:02.00	241.13	12.21	-25.8	-26.1	15.3	0.00e+00	0	43	0	672137216	12	3742
2026-01-17 16:38:02.99	241.29	12.26	-25.9	-26.5	15.1	0.00e+00	0	43	0	678428672	12	3828
2026-01-17 16:38:04.00	241.46	12.31	-26.0	-26.6	15.1	1.10e-06	0	43	0	686817280	12	3855
2026-01-17 16:38:05.01	241.62	12.36	-25.9	-26.5	15.1	2.20e-06	0	43	0	693108736	12	3837
2026-01-17 16:38:06.01	241.79	12.41	-25.9	-26.4	15.2	0.00e+00	0	43	0	700448768	12	3815
2026-01-17 16:38:07.01	241.95	12.46	-25.7	-26.0	15.4	0.00e+00	0	43	0	707788800	12	3729
2026-01-17 16:38:08.01	242.12	12.51	-25.6	-25.8	15.5	0.00e+00	0	43	0	715128832	12	3684
2026-01-17 16:38:09.01	242.29	12.57	-25.7	-26.0	15.4	0.00e+00	0	44	0	722468864	12	3728
2026-01-17 16:38:10.01	242.45	12.62	-25.7	-26.0	15.4	0.00e+00	0	43	0	729808896	12	3724
2026-01-17 16:38:11.01	242.62	12.67	-25.6	-25.8	15.5	0.00e+00	0	43	0	737148928	12	3670
2026-01-17 16:38:12.01	242.79	12.72	-25.5	-25.5	15.6	0.00e+00	0	43	0	744488960	12	3612
2026-01-17 16:38:13.02	242.96	12.77	-25.5	-25.5	15.7	0.00e+00	0	43	0	751828992	12	3613
2026-01-17 16:38:14.02	243.13	12.82	-25.6	-25.7	15.5	0.00e+00	0	43	0	758120448	12	3656
2026-01-17 16:38:15.02	243.30	12.87	-25.5	-25.6	15.6	0.00e+00	0	43	0	765460480	12	3624
2026-01-17 16:38:16.02	243.47	12.92	-25.6	-25.8	15.5	0.00e+00	0	43	0	772800512	12	3672
2026-01-17 16:38:17.02	243.64	12.97	-25.6	-25.7	15.5	0.00e+00	0	43	0	780140544	12	3645
2026-01-17 16:38:18.03	243.81	13.02	-25.6	-25.8	15.5	0.00e+00	0	43	0	787480576	12	3675
2026-01-17 16:38:19.03	243.99	13.07	-25.7	-26.0	15.4	0.00e+00	0	43	0	794820608	12	3714
2026-01-17 16:38:20.03	244.16	13.12	-25.7	-26.0	15.4	0.00e+00	0	43	0	802160640	12	3730
2026-01-17 16:38:21.04	244.33	13.17	-25.6	-25.8	15.5	0.00e+00	0	43	0	809500672	12	3678
2026-01-17 16:38:22.04	244.51	13.22	-25.7	-25.9	15.5	0.00e+00	0	43	0	815792128	12	3688
2026-01-17 16:38:23.04	244.68	13.27	-25.6	-25.7	15.6	0.00e+00	0	43	0	823132160	12	3639
2026-01-17 16:38:24.05	244.86	13.32	-25.5	-25.5	15.7	0.00e+00	0	43	0	831520768	12	3603
2026-01-17 16:38:25.05	245.04	13.37	-25.5	-26.0	15.8	0.00e+00	0	43	0	837812224	11	3827
2026-01-17 16:38:26.06	245.21	13.42	-25.5	-26.0	15.8	0.00e+00	0	43	0	845152256	11	3822
2026-01-17 16:38:27.06	245.39	13.47	-25.4	-25.8	15.9	0.00e+00	0	43	0	852492288	11	3776
2026-01-17 16:38:28.06	245.57	13.52	-25.6	-26.2	15.7	0.00e+00	0	43	0	859832320	11	3863
2026-01-17 16:38:29.06	245.75	13.56	-25.6	-26.3	15.6	0.00e+00	0	44	0	867172352	11	3905
2026-01-17 16:38:30.07	245.93	13.61	-25.6	-26.3	15.6	0.00e+00	0	44	0	874512384	11	3886
2026-01-17 16:38:31.07	246.10	13.66	-25.6	-26.3	15.6	0.00e+00	0	43	0	881852416	11	3888
2026-01-17 16:38:32.06	246.28	13.71	-25.5	-26.1	15.7	0.00e+00	0	44	0	889192448	11	3845
2026-01-17 16:38:33.07	246.46	13.76	-25.5	-26.0	15.8	0.00e+00	0	43	0	896532480	11	3813
2026-01-17 16:38:34.06	246.64	13.80	-25.6	-26.2	15.7	0.00e+00	0	43	0	902823936	11	3863
2026-01-17 16:38:35.07	246.83	13.85	-25.4	-25.7	16.0	0.00e+00	0	43	0	910163968	11	3745
2026-01-17 16:38:36.07	247.01	13.90	-25.3	-25.7	16.0	0.00e+00	0	43	0	917504000	11	3733
2026-01-17 16:38:37.07	247.19	13.95	-25.3	-25.5	16.1	0.00e+00	0	43	0	924844032	11	3699
2026-01-17 16:38:38.08	247.38	13.99	-25.3	-25.6	16.0	0.00e+00	0	43	0	932184064	11	3715
2026-01-17 16:38:39.09	247.56	14.04	-25.2	-25.4	16.1	0.00e+00	0	43	0	939524096	11	3676
2026-01-17 16:38:40.09	247.74	14.09	-25.2	-25.5	16.1	0.00e+00	0	43	0	946864128	11	3685
2026-01-17 16:38:41.10	247.93	14.13	-25.2	-25.5	16.1	0.00e+00	0	44	0	954204160	11	3689
2026-01-17 16:38:42.09	248.11	14.18	-25.3	-25.7	16.0	0.00e+00	0	44	0	960495616	11	3735
2026-01-17 16:38:43.10	248.30	14.23	-25.4	-25.8	15.9	0.00e+00	0	43	0	968884224	11	3773
2026-01-17 16:38:44.10	248.49	14.27	-25.2	-25.3	16.2	0.00e+00	0	44	0	976224256	11	3657
2026-01-17 16:38:45.10	248.68	14.32	-25.2	-25.3	16.2	0.00e+00	0	43	0	982515712	11	3641
2026-01-17 16:38:46.10	248.86	14.36	-25.4	-25.8	16.0	0.00e+00	0	43	0	989855744	11	3765
2026-01-17 16:38:47.09	249.05	14.41	-25.5	-25.9	15.9	0.00e+00	0	43	0	997195776	11	3791
2026-01-17 16:38:48.09	249.24	14.45	-25.4	-25.8	15.9	0.00e+00	0	44	0	1004535808	11	3777
2026-01-17 16:38:49.09	249.43	14.50	-25.5	-26.1	15.8	0.00e+00	0	44	0	1011875840	11	3834
2026-01-17 16:38:50.10	249.62	14.54	-25.4	-25.8	16.0	0.00e+00	0	43	0	1019215872	11	3771
2026-01-17 16:38:51.10	249.81	14.59	-25.5	-25.9	15.9	0.00e+00	0	44	0	1026555904	11	3797
2026-01-17 16:38:52.10	250.00	14.63	-25.3	-25.6	16.1	0.00e+00	0	44	0	1033895936	11	3717
2026-01-17 16:38:53.10	250.19	14.67	-25.3	-25.7	16.1	0.00e+00	0	43	0	1041235968	11	3734
2026-01-17 16:38:54.10	250.38	14.72	-25.4	-25.8	16.0	0.00e+00	0	43	0	1047527424	11	3764
2026-01-17 16:38:55.10	250.58	14.76	-25.7	-26.3	15.7	0.00e+00	0	44	0	1054867456	11	3895
2026-01-17 16:38:56.10	250.77	14.81	-25.6	-26.1	15.8	0.00e+00	0	44	0	1062207488	11	3838
2026-01-17 16:38:57.10	250.96	14.85	-25.4	-25.7	16.0	0.00e+00	0	44	0	1069547520	11	3750
2026-01-17 16:38:58.11	251.16	14.89	-25.2	-25.3	16.3	0.00e+00	0	44	0	1076887552	11	3642
2026-01-17 16:38:59.11	251.35	14.93	-25.0	-25.0	16.4	0.00e+00	0	44	0	1084227584	11	3578
2026-01-17 16:39:00.11	251.55	14.98	-25.3	-25.5	16.2	0.00e+00	0	44	0	1091567616	11	3690
2026-01-17 16:39:01.12	251.75	15.02	-25.2	-25.3	16.3	0.00e+00	0	44	0	1098907648	11	3652
2026-01-17 16:39:02.12	251.94	15.06	-25.4	-25.7	16.0	0.00e+00	0	44	0	1106247680	11	3743
2026-01-17 16:39:03.12	252.14	15.10	-25.3	-25.6	16.1	0.00e+00	0	44	0	1112539136	11	3718
2026-01-17 16:39:04.12	252.34	15.14	-25.2	-25.4	16.2	0.00e+00	0	44	0	1119879168	11	3676
2026-01-17 16:39:05.12	252.53	15.19	-25.4	-25.7	16.0	0.00e+00	0	44	0	1127219200	11	3751
2026-01-17 16:39:06.13	252.73	15.23	-25.4	-25.9	16.0	0.00e+00	0	44	0	1134559232	11	3777
2026-01-17 16:39:07.13	252.93	15.27	-25.1	-25.1	16.4	0.00e+00	0	44	0	1141899264	11	3607
2026-01-17 16:39:08.12	253.13	15.31	-25.0	-24.9	16.5	0.00e+00	0	44	0	1149239296	11	3553
2026-01-17 16:39:09.12	253.33	15.35	-25.2	-25.3	16.3	0.00e+00	0	44	0	1156579328	11	3653
2026-01-17 16:39:10.12	253.53	15.39	-25.2	-25.3	16.3	0.00e+00	0	44	0	1163919360	11	3655
2026-01-17 16:39:11.12	253.73	15.43	-25.2	-25.3	16.3	0.00e+00	0	44	0	1170210816	11	3651
2026-01-17 16:39:12.13	253.93	15.47	-25.3	-25.5	16.2	3.40e-06	0	44	0	1177550848	11	3693
2026-01-17 16:39:13.13	254.14	15.51	-25.3	-25.6	16.1	0.00e+00	0	43	0	1184890880	11	3712
2026-01-17 16:39:14.13	254.34	15.54	-25.3	-25.5	16.2	0.00e+00	0	44	0	1192230912	11	3696
2026-01-17 16:39:15.13	254.54	15.58	-25.2	-25.4	16.2	0.00e+00	0	44	0	1199570944	11	3673
2026-01-17 16:39:16.13	254.75	15.62	-25.1	-25.1	16.4	0.00e+00	0	44	0	1206910976	11	3612
2026-01-17 16:39:17.14	254.95	15.66	-25.1	-25.1	16.4	0.00e+00	0	44	0	1214251008	11	3609
2026-01-17 16:39:18.13	255.15	15.70	-25.2	-25.5	16.2	1.10e-06	0	44	0	1221591040	11	3688
2026-01-17 16:39:19.13	255.36	15.73	-25.1	-25.1	16.4	0.00e+00	0	44	0	1228931072	11	3598
2026-01-17 16:39:20.13	255.56	15.77	-25.1	-25.1	16.4	0.00e+00	0	44	0	1235222528	11	3618
2026-01-17 16:39:21.13	255.77	15.81	-25.2	-25.3	16.3	5.70e-06	0	44	0	1242562560	11	3654
2026-01-17 16:39:22.12	255.97	15.84	-25.2	-25.3	16.3	0.00e+00	0	44	0	1249902592	11	3641
2026-01-17 16:39:23.12	256.18	15.88	-25.5	-26.0	15.9	0.00e+00	0	43	0	1257242624	11	3817
2026-01-17 16:39:24.12	256.39	15.92	-25.9	-26.8	15.5	0.00e+00	0	44	0	1264582656	11	4006
2026-01-17 16:39:25.12	256.60	15.95	-25.7	-26.5	15.6	0.00e+00	0	44	0	1271922688	11	3918
2026-01-17 16:39:26.12	256.81	15.99	-25.7	-26.5	15.6	0.00e+00	0	44	0	1279262720	11	3931
2026-01-17 16:39:27.12	257.01	16.02	-25.5	-26.0	15.9	0.00e+00	0	44	0	1286602752	11	3821
2026-01-17 16:39:28.13	257.23	16.06	-25.5	-26.1	15.9	0.00e+00	0	44	0	1293942784	11	3822
2026-01-17 16:39:29.12	257.43	16.09	-25.4	-25.9	16.0	0.00e+00	0	44	0	1300234240	11	3773
2026-01-17 16:39:30.13	257.65	16.13	-25.6	-26.3	15.7	1.10e-06	0	44	0	1307574272	11	3871
2026-01-17 16:39:31.12	257.85	16.16	-25.7	-26.4	15.6	0.00e+00	0	44	0	1314914304	11	3917
2026-01-17 16:39:32.12	258.07	16.19	-25.2	-25.3	16.3	0.00e+00	0	44	0	1322254336	11	3645
2026-01-17 16:39:33.12	258.28	16.23	-25.1	-25.2	16.4	5.70e-06	0	44	0	1329594368	11	3618
2026-01-17 16:39:34.13	258.49	16.26	-24.9	-24.8	16.6	0.00e+00	0	44	0	1336934400	11	3530
2026-01-17 16:39:35.13	258.70	16.29	-24.9	-24.7	16.6	0.00e+00	0	44	0	1344274432	11	3509
2026-01-17 16:39:36.13	258.92	16.32	-24.9	-25.1	16.6	4.50e-06	0	44	0	1351614464	10	3714
2026-01-17 16:39:37.13	259.13	16.36	-24.9	-25.2	16.6	0.00e+00	0	44	0	1357905920	10	3715
2026-01-17 16:39:38.13	259.34	16.39	-24.8	-25.1	16.7	0.00e+00	0	44	0	1365245952	10	3691
2026-01-17 16:39:39.13	259.56	16.42	-24.8	-25.0	16.7	0.00e+00	0	44	0	1372585984	10	3679
2026-01-17 16:39:40.13	259.77	16.45	-24.9	-25.2	16.6	0.00e+00	0	44	0	1379926016	10	3720
2026-01-17 16:39:41.14	259.99	16.48	-24.8	-24.9	16.8	0.00e+00	0	44	0	1387266048	10	3659
2026-01-17 16:39:42.14	260.21	16.51	-24.8	-24.9	16.7	0.00e+00	0	44	0	1394606080	10	3666
2026-01-17 16:39:43.15	260.42	16.54	-24.9	-25.1	16.7	0.00e+00	0	44	0	1401946112	10	3706
2026-01-17 16:39:44.15	260.64	16.57	-24.9	-25.1	16.6	0.00e+00	0	44	0	1409286144	10	3714
2026-01-17 16:39:45.16	260.86	16.60	-24.8	-25.0	16.7	0.00e+00	0	44	0	1416626176	10	3694
2026-01-17 16:39:46.16	261.08	16.63	-24.8	-25.1	16.7	0.00e+00	0	44	0	1423966208	10	3700
2026-01-17 16:39:47.16	261.29	16.66	-24.9	-25.2	16.6	0.00e+00	0	44	0	1431306240	10	3719
2026-01-17 16:39:48.16	261.51	16.68	-25.0	-25.5	16.5	0.00e+00	0	44	0	1438646272	10	3784
2026-01-17 16:39:49.16	261.73	16.71	-24.6	-24.6	16.9	0.00e+00	0	44	0	1444937728	10	3595
2026-01-17 16:39:50.17	261.95	16.74	-24.8	-25.0	16.7	0.00e+00	0	44	0	1452277760	10	3678
2026-01-17 16:39:51.17	262.17	16.76	-24.7	-24.7	16.9	0.00e+00	0	44	0	1459617792	10	3604
2026-01-17 16:39:52.17	262.39	16.79	-24.7	-24.8	16.8	0.00e+00	0	44	0	1466957824	10	3633
2026-01-17 16:39:53.17	262.61	16.82	-24.7	-24.8	16.8	0.00e+00	0	44	0	1474297856	10	3644
2026-01-17 16:39:54.17	262.83	16.84	-24.5	-24.4	17.1	0.00e+00	0	44	0	1481637888	10	3536
2026-01-17 16:39:55.17	263.05	16.87	-24.7	-24.9	16.8	0.00e+00	0	44	0	1488977920	10	3655
2026-01-17 16:39:56.17	263.27	16.89	-24.7	-24.7	16.9	0.00e+00	0	44	0	1496317952	10	3623
2026-01-17 16:39:57.17	263.49	16.92	-24.7	-24.7	16.9	0.00e+00	0	44	0	1503657984	10	3619
2026-01-17 16:39:58.17	263.72	16.94	-24.7	-24.9	16.8	0.00e+00	0	44	0	1509949440	10	3651
2026-01-17 16:39:59.17	263.94	16.97	-24.9	-25.2	16.6	0.00e+00	0	44	0	1517289472	10	3739
2026-01-17 16:40:00.17	264.16	16.99	-24.9	-25.2	16.6	0.00e+00	0	44	0	1524629504	10	3721
2026-01-17 16:40:01.18	264.38	17.01	-24.8	-25.0	16.7	0.00e+00	0	44	0	1531969536	10	3678
2026-01-17 16:40:02.19	264.61	17.04	-24.7	-24.7	16.9	0.00e+00	0	44	0	1539309568	10	3625
2026-01-17 16:40:03.18	264.83	17.06	-24.7	-24.7	16.9	0.00e+00	0	44	0	1546649600	10	3610
2026-01-17 16:40:04.19	265.06	17.08	-24.5	-24.5	17.0	0.00e+00	0	44	0	1553989632	10	3567
2026-01-17 16:40:05.19	265.28	17.10	-24.6	-24.5	17.0	0.00e+00	0	44	0	1561329664	10	3563
2026-01-17 16:40:06.20	265.51	17.12	-24.8	-25.0	16.7	0.00e+00	0	44	0	1568669696	10	3680
2026-01-17 16:40:07.20	265.73	17.14	-24.8	-24.9	16.8	1.10e-06	0	44	0	1576009728	10	3667
2026-01-17 16:40:08.20	265.96	17.16	-25.1	-25.6	16.4	1.10e-06	0	44	0	1583349760	10	3825
2026-01-17 16:40:09.20	266.18	17.18	-25.0	-25.5	16.4	0.00e+00	0	44	0	1589641216	10	3799
2026-01-17 16:40:10.20	266.41	17.20	-25.2	-25.9	16.2	0.00e+00	0	44	0	1596981248	10	3891
2026-01-17 16:40:11.20	266.63	17.22	-24.8	-25.1	16.7	0.00e+00	0	44	0	1604321280	10	3703
2026-01-17 16:40:12.20	266.86	17.24	-25.1	-25.6	16.4	0.00e+00	0	44	0	1611661312	10	3825
2026-01-17 16:40:13.20	267.09	17.26	-25.0	-25.5	16.4	0.00e+00	0	44	0	1619001344	10	3800
2026-01-17 16:40:14.20	267.31	17.28	-24.9	-25.2	16.6	0.00e+00	0	44	0	1626341376	10	3727
2026-01-17 16:40:15.21	267.54	17.29	-24.8	-24.9	16.8	0.00e+00	0	44	0	1633681408	10	3662
2026-01-17 16:40:16.21	267.77	17.31	-24.9	-25.2	16.6	0.00e+00	0	44	0	1641021440	10	3731
2026-01-17 16:40:17.21	268.00	17.33	-24.7	-24.8	16.8	0.00e+00	0	44	0	1648361472	10	3628
2026-01-17 16:40:18.21	268.22	17.34	-24.6	-24.5	17.0	0.00e+00	0	44	0	1654652928	10	3566
2026-01-17 16:40:19.21	268.45	17.36	-24.7	-24.8	16.8	0.00e+00	0	44	0	1661992960	10	3631
2026-01-17 16:40:20.21	268.68	17.37	-24.8	-25.1	16.7	0.00e+00	0	44	0	1669332992	10	3698
2026-01-17 16:40:21.22	268.91	17.39	-24.7	-24.7	16.9	0.00e+00	0	44	0	1676673024	10	3617
2026-01-17 16:40:22.23	269.14	17.40	-24.8	-25.1	16.7	0.00e+00	0	44	0	1684013056	10	3696
2026-01-17 16:40:23.23	269.37	17.42	-24.9	-25.1	16.6	0.00e+00	0	44	0	1691353088	10	3710
2026-01-17 16:40:24.24	269.60	17.43	-24.8	-25.0	16.7	0.00e+00	0	44	0	1698693120	10	3677
2026-01-17 16:40:25.25	269.83	17.44	-24.7	-24.7	16.9	0.00e+00	0	44	0	1706033152	10	3617
2026-01-17 16:40:26.25	270.06	17.46	-24.9	-25.2	16.6	0.00e+00	0	44	0	1713373184	10	3736
2026-01-17 16:40:27.26	270.29	17.47	-24.9	-25.1	16.7	0.00e+00	0	44	0	1720713216	10	3716
2026-01-17 16:40:28.26	270.52	17.48	-25.0	-25.3	16.6	0.00e+00	0	44	0	1728053248	10	3756
2026-01-17 16:40:29.26	270.75	17.49	-24.8	-25.1	16.7	0.00e+00	0	44	0	1734344704	10	3698
2026-01-17 16:40:30.27	270.98	17.50	-24.8	-24.9	16.8	0.00e+00	0	44	0	1741684736	10	3650
2026-01-17 16:40:31.27	271.21	17.51	-24.8	-24.9	16.8	0.00e+00	0	44	0	1749024768	10	3655
2026-01-17 16:40:32.26	271.44	17.52	-24.8	-24.9	16.8	1.10e-06	0	44	0	1756364800	10	3658
2026-01-17 16:40:33.26	271.67	17.53	-24.9	-25.1	16.7	0.00e+00	0	44	0	1763704832	10	3708
2026-01-17 16:40:34.26	271.90	17.54	-24.8	-25.0	16.7	0.00e+00	0	44	0	1771044864	10	3692
2026-01-17 16:40:35.26	272.13	17.55	-24.7	-24.9	16.8	4.50e-06	0	44	0	1778384896	10	3654
2026-01-17 16:40:36.27	272.36	17.56	-24.7	-24.7	16.9	0.00e+00	0	44	0	1785724928	10	3610
2026-01-17 16:40:37.27	272.60	17.57	-24.6	-24.6	17.0	0.00e+00	0	44	0	1793064960	10	3583
2026-01-17 16:40:38.27	272.83	17.57	-24.8	-25.1	16.7	2.20e-06	0	44	0	1799356416	10	3695
2026-01-17 16:40:39.27	273.06	17.58	-24.7	-24.8	16.8	0.00e+00	0	44	0	1806696448	10	3633
2026-01-17 16:40:40.27	273.29	17.59	-24.6	-24.6	16.9	0.00e+00	0	44	0	1814036480	10	3585
2026-01-17 16:40:41.27	273.52	17.59	-24.6	-24.5	17.0	0.00e+00	0	44	0	1821376512	10	3567
2026-01-17 16:40:42.26	273.75	17.60	-24.7	-24.7	16.9	0.00e+00	0	44	0	1828716544	10	3613
2026-01-17 16:40:43.27	273.98	17.60	-24.7	-24.8	16.9	0.00e+00	0	44	0	1836056576	10	3636
2026-01-17 16:40:44.27	274.21	17.61	-24.6	-24.6	16.9	0.00e+00	0	44	0	1843396608	10	3593
2026-01-17 16:40:45.27	274.44	17.61	-24.8	-25.0	16.7	0.00e+00	0	44	0	1850736640	10	3678
2026-01-17 16:40:46.27	274.68	17.62	-24.8	-24.9	16.8	0.00e+00	0	44	0	1858076672	10	3663
2026-01-17 16:40:47.27	274.91	17.62	-24.7	-24.8	16.8	0.00e+00	0	44	0	1864368128	10	3648
2026-01-17 16:40:48.27	275.14	17.62	-24.8	-25.1	16.7	0.00e+00	0	44	0	1871708160	10	3701
2026-01-17 16:40:49.27	275.37	17.63	-25.0	-25.4	16.5	0.00e+00	0	44	0	1879048192	10	3777
2026-01-17 16:40:50.28	275.60	17.63	-25.0	-25.4	16.5	0.00e+00	0	44	0	1886388224	10	3767
2026-01-17 16:40:51.28	275.84	17.63	-24.8	-25.0	16.7	0.00e+00	0	44	0	1893728256	10	3676
2026-01-17 16:40:52.28	276.07	17.63	-24.7	-24.7	16.9	0.00e+00	0	44	0	1901068288	10	3618
2026-01-17 16:40:53.28	276.30	17.63	-24.7	-24.7	16.9	0.00e+00	0	44	0	1908408320	10	3619
2026-01-17 16:40:54.28	276.53	17.63	-24.5	-24.4	17.0	0.00e+00	0	44	0	1915748352	10	3553
2026-01-17 16:40:55.28	276.76	17.63	-24.6	-24.6	16.9	0.00e+00	0	44	0	1922039808	10	3584
2026-01-17 16:40:56.29	277.00	17.63	-24.6	-24.6	16.9	0.00e+00	0	44	0	1929379840	10	3593
2026-01-17 16:40:57.29	277.23	17.63	-24.7	-24.8	16.8	0.00e+00	0	44	0	1936719872	10	3628
2026-01-17 16:40:58.28	277.46	17.63	-24.7	-24.7	16.9	0.00e+00	0	44	0	1944059904	10	3610
2026-01-17 16:40:59.28	277.69	17.63	-24.7	-24.8	16.8	0.00e+00	0	44	0	1951399936	10	3632
2026-01-17 16:41:00.27	277.92	17.62	-24.8	-25.0	16.7	0.00e+00	0	44	0	1958739968	10	3685
2026-01-17 16:41:01.26	278.15	17.62	-24.8	-24.9	16.8	0.00e+00	0	44	0	1966080000	10	3648
2026-01-17 16:41:02.27	278.38	17.62	-24.5	-24.4	17.0	0.00e+00	0	44	0	1973420032	10	3551
2026-01-17 16:41:03.26	278.61	17.61	-24.5	-24.2	17.1	0.00e+00	0	44	0	1980760064	10	3506
2026-01-17 16:41:04.26	278.84	17.61	-24.5	-24.3	17.1	0.00e+00	0	44	0	1987051520	10	3530
2026-01-17 16:41:05.26	279.07	17.60	-24.6	-24.5	17.0	0.00e+00	0	44	0	1994391552	10	3571
2026-01-17 16:41:06.26	279.31	17.60	-24.7	-24.8	16.8	0.00e+00	0	44	0	2001731584	10	3638
2026-01-17 16:41:07.26	279.54	17.59	-24.8	-24.9	16.8	0.00e+00	0	44	0	2009071616	10	3650
2026-01-17 16:41:08.26	279.77	17.59	-24.7	-24.9	16.8	0.00e+00	0	44	0	2016411648	10	3646
2026-01-17 16:41:09.27	280.00	17.58	-25.0	-25.5	16.5	0.00e+00	0	44	0	2023751680	10	3799
2026-01-17 16:41:10.27	280.23	17.57	-25.0	-25.5	16.5	0.00e+00	0	44	0	2031091712	10	3795
2026-01-17 16:41:11.28	280.46	17.57	-24.9	-25.2	16.6	0.00e+00	0	44	0	2038431744	10	3734
2026-01-17 16:41:12.28	280.69	17.56	-24.9	-25.2	16.6	0.00e+00	0	44	0	2045771776	10	3733
2026-01-17 16:41:13.29	280.93	17.55	-24.9	-25.2	16.6	0.00e+00	0	44	0	2052063232	10	3724
2026-01-17 16:41:14.29	281.16	17.54	-24.8	-24.9	16.8	0.00e+00	0	44	0	2059403264	10	3658
2026-01-17 16:41:15.28	281.39	17.53	-24.8	-25.0	16.7	0.00e+00	0	44	0	2066743296	10	3690
2026-01-17 16:41:16.29	281.62	17.52	-24.8	-25.0	16.7	0.00e+00	0	44	0	2074083328	10	3693
2026-01-17 16:41:17.29	281.85	17.51	-24.7	-24.8	16.8	0.00e+00	0	44	0	2081423360	10	3631
2026-01-17 16:41:18.29	282.08	17.50	-24.7	-24.9	16.8	0.00e+00	0	44	0	2088763392	10	3649
2026-01-17 16:41:19.28	282.31	17.49	-24.8	-25.1	16.6	0.00e+00	0	44	0	2096103424	10	3706
2026-01-17 16:41:20.28	282.53	17.48	-24.8	-25.0	16.7	0.00e+00	0	44	0	2103443456	10	3672
2026-01-17 16:41:21.29	282.77	17.47	-24.8	-25.1	16.7	0.00e+00	0	44	0	2109734912	10	3703
2026-01-17 16:41:22.29	282.99	17.46	-24.8	-25.0	16.7	0.00e+00	0	44	0	2117074944	10	3690
2026-01-17 16:41:23.29	283.22	17.44	-24.9	-25.2	16.6	0.00e+00	0	44	0	2124414976	10	3725
2026-01-17 16:41:24.29	283.45	17.43	-24.8	-25.1	16.7	0.00e+00	0	44	0	2131755008	10	3698
2026-01-17 16:41:25.29	283.68	17.42	-24.8	-25.1	16.7	0.00e+00	0	44	0	2139095040	10	3701
2026-01-17 16:41:26.29	283.91	17.40	-24.8	-25.0	16.8	0.00e+00	0	44	0	2146435072	10	3674
2026-01-17 16:41:27.30	284.14	17.39	-24.8	-25.0	16.7	0.00e+00	0	44	0	2153775104	10	3690
2026-01-17 16:41:28.30	284.37	17.37	-24.8	-25.0	16.7	0.00e+00	0	44	0	2161115136	10	3685
2026-01-17 16:41:29.31	284.60	17.36	-24.9	-25.1	16.7	0.00e+00	0	44	0	2168455168	10	3707
2026-01-17 16:41:30.31	284.82	17.34	-24.8	-25.0	16.7	0.00e+00	0	44	0	2175795200	10	3674
2026-01-17 16:41:31.31	285.05	17.33	-24.7	-24.8	16.8	0.00e+00	0	44	0	2183135232	10	3626
2026-01-17 16:41:32.31	285.28	17.31	-24.7	-24.8	16.8	0.00e+00	0	44	0	2190475264	10	3632
2026-01-17 16:41:33.31	285.51	17.29	-24.7	-24.8	16.8	0.00e+00	0	44	0	2196766720	10	3626
2026-01-17 16:41:34.31	285.73	17.27	-24.8	-25.0	16.7	0.00e+00	0	44	0	2204106752	10	3677
2026-01-17 16:41:35.31	285.96	17.26	-24.7	-24.7	16.8	0.00e+00	0	44	0	2211446784	10	3619
2026-01-17 16:41:36.31	286.18	17.24	-24.7	-24.7	16.9	0.00e+00	0	44	0	2218786816	10	3615
2026-01-17 16:41:37.31	286.41	17.22	-24.7	-24.9	16.8	0.00e+00	0	44	0	2226126848	10	3647
2026-01-17 16:41:38.32	286.64	17.20	-24.9	-25.1	16.6	0.00e+00	0	44	0	2233466880	10	3700
2026-01-17 16:41:39.31	286.86	17.18	-24.9	-25.2	16.6	0.00e+00	0	44	0	2240806912	10	3720
2026-01-17 16:41:40.31	287.08	17.16	-25.0	-25.5	16.4	0.00e+00	0	44	0	2248146944	10	3793
2026-01-17 16:41:41.32	287.31	17.14	-25.0	-25.5	16.4	0.00e+00	0	44	0	2255486976	10	3790
2026-01-17 16:41:42.31	287.53	17.12	-25.0	-25.4	16.5	0.00e+00	0	44	0	2261778432	10	3776
2026-01-17 16:41:43.31	287.76	17.10	-25.1	-25.7	16.3	0.00e+00	0	44	0	2269118464	10	3836
2026-01-17 16:41:44.31	287.98	17.08	-25.0	-25.3	16.5	0.00e+00	0	44	0	2276458496	10	3758
2026-01-17 16:41:45.32	288.20	17.06	-25.0	-25.4	16.5	0.00e+00	0	44	0	2283798528	10	3771
2026-01-17 16:41:46.32	288.43	17.03	-25.0	-25.3	16.5	0.00e+00	0	44	0	2291138560	10	3758
2026-01-17 16:41:47.31	288.65	17.01	-25.0	-25.5	16.4	0.00e+00	0	44	0	2298478592	10	3790
2026-01-17 16:41:48.31	288.87	16.99	-24.9	-25.3	16.6	0.00e+00	0	44	0	2305818624	10	3743
2026-01-17 16:41:49.31	289.09	16.97	-24.9	-25.2	16.6	0.00e+00	0	44	0	2313158656	10	3723
2026-01-17 16:41:50.31	289.31	16.94	-24.9	-25.2	16.6	0.00e+00	0	44	0	2319450112	10	3730
2026-01-17 16:41:51.32	289.54	16.92	-24.9	-25.2	16.6	0.00e+00	0	44	0	2326790144	10	3725
2026-01-17 16:41:52.32	289.76	16.89	-25.0	-25.4	16.5	0.00e+00	0	44	0	2334130176	10	3764
2026-01-17 16:41:53.32	289.98	16.87	-25.1	-25.6	16.4	0.00e+00	0	44	0	2341470208	10	3828
2026-01-17 16:41:54.31	290.20	16.84	-25.0	-25.5	16.4	0.00e+00	0	44	0	2348810240	10	3800
2026-01-17 16:41:55.31	290.42	16.82	-25.0	-25.4	16.5	0.00e+00	0	44	0	2356150272	10	3770
2026-01-17 16:41:56.31	290.64	16.79	-25.0	-25.3	16.5	0.00e+00	0	44	0	2363490304	10	3760
2026-01-17 16:41:57.32	290.86	16.76	-25.2	-25.8	16.2	0.00e+00	0	44	0	2370830336	10	3874
2026-01-17 16:41:58.33	291.08	16.74	-25.1	-25.5	16.4	0.00e+00	0	44	0	2378170368	10	3804
2026-01-17 16:41:59.32	291.29	16.71	-25.2	-25.8	16.3	0.00e+00	0	44	0	2384461824	10	3876
2026-01-17 16:42:00.33	291.51	16.68	-25.1	-25.6	16.4	0.00e+00	0	44	0	2391801856	10	3822
2026-01-17 16:42:01.33	291.73	16.65	-25.1	-25.6	16.4	0.00e+00	0	44	0	2399141888	10	3814
2026-01-17 16:42:02.33	291.95	16.63	-25.1	-25.6	16.4	0.00e+00	0	44	0	2406481920	10	3821
2026-01-17 16:42:03.33	292.16	16.60	-25.3	-26.1	16.1	0.00e+00	0	44	0	2413821952	10	3941
2026-01-17 16:42:04.32	292.38	16.57	-25.1	-25.7	16.3	0.00e+00	0	44	0	2421161984	10	3832
2026-01-17 16:42:05.33	292.60	16.54	-25.0	-25.5	16.4	0.00e+00	0	44	0	2428502016	10	3787
2026-01-17 16:42:06.33	292.81	16.51	-25.1	-25.6	16.3	0.00e+00	0	44	0	2435842048	10	3829
2026-01-17 16:42:07.33	293.03	16.48	-25.0	-25.4	16.5	0.00e+00	0	44	0	2442133504	10	3764
2026-01-17 16:42:08.33	293.24	16.45	-24.9	-25.3	16.5	0.00e+00	0	44	0	2449473536	10	3749
2026-01-17 16:42:09.32	293.45	16.42	-24.9	-25.3	16.5	0.00e+00	0	44	0	2456813568	10	3741
2026-01-17 16:42:10.32	293.67	16.39	-25.2	-25.8	16.3	0.00e+00	0	44	0	2464153600	10	3857
2026-01-17 16:42:11.33	293.88	16.36	-25.1	-25.5	16.4	0.00e+00	0	44	0	2471493632	10	3806
2026-01-17 16:42:12.33	294.09	16.33	-25.1	-25.7	16.3	0.00e+00	0	44	0	2478833664	10	3834
2026-01-17 16:42:13.33	294.31	16.29	-25.2	-25.8	16.2	0.00e+00	0	44	0	2486173696	10	3875
2026-01-17 16:42:14.32	294.52	16.26	-25.1	-25.7	16.3	0.00e+00	0	44	0	2493513728	10	3839
2026-01-17 16:42:15.32	294.73	16.23	-25.3	-26.0	16.1	0.00e+00	0	44	0	2500853760	10	3915
2026-01-17 16:42:16.32	294.94	16.20	-25.1	-25.7	16.3	0.00e+00	0	44	0	2507145216	10	3834
2026-01-17 16:42:17.33	295.15	16.16	-25.1	-25.6	16.4	0.00e+00	0	44	0	2514485248	10	3817
2026-01-17 16:42:18.32	295.36	16.13	-25.2	-25.7	16.3	0.00e+00	0	44	0	2521825280	10	3851
2026-01-17 16:42:19.32	295.57	16.10	-25.2	-25.8	16.2	0.00e+00	0	44	0	2529165312	10	3877
2026-01-17 16:42:20.33	295.78	16.06	-25.1	-25.5	16.4	0.00e+00	0	44	0	2536505344	10	3802
2026-01-17 16:42:21.33	295.99	16.03	-25.2	-25.8	16.3	0.00e+00	0	44	0	2543845376	10	3859
2026-01-17 16:42:22.33	296.20	15.99	-25.0	-25.5	16.4	0.00e+00	0	44	0	2551185408	10	3808
2026-01-17 16:42:23.33	296.40	15.96	-25.0	-25.5	16.4	0.00e+00	0	44	0	2558525440	10	3794
2026-01-17 16:42:24.33	296.61	15.92	-25.1	-25.7	16.2	0.00e+00	0	44	0	2565865472	10	3846
2026-01-17 16:42:25.33	296.82	15.89	-25.0	-25.4	16.4	0.00e+00	0	44	0	2572156928	10	3775
2026-01-17 16:42:26.32	297.02	15.85	-25.0	-25.5	16.4	0.00e+00	0	44	0	2579496960	10	3807
2026-01-17 16:42:27.33	297.23	15.81	-25.0	-25.4	16.4	0.00e+00	0	44	0	2586836992	10	3782
2026-01-17 16:42:28.33	297.44	15.78	-25.2	-25.9	16.2	0.00e+00	0	44	0	2594177024	10	3881
2026-01-17 16:42:29.33	297.64	15.74	-25.1	-25.6	16.3	0.00e+00	0	44	0	2601517056	10	3811
2026-01-17 16:42:30.33	297.85	15.70	-25.1	-25.7	16.3	0.00e+00	0	44	0	2608857088	10	3846
2026-01-17 16:42:31.33	298.05	15.66	-25.1	-25.7	16.3	0.00e+00	0	44	0	2616197120	10	3836
2026-01-17 16:42:32.34	298.25	15.63	-25.2	-25.8	16.2	0.00e+00	0	44	0	2623537152	10	3866
2026-01-17 16:42:33.34	298.46	15.59	-25.3	-26.0	16.1	0.00e+00	0	44	0	2629828608	10	3921
2026-01-17 16:42:34.33	298.66	15.55	-25.2	-25.8	16.2	0.00e+00	0	44	0	2637168640	10	3856
2026-01-17 16:42:35.34	298.86	15.51	-25.1	-25.7	16.3	0.00e+00	0	44	0	2644508672	10	3847
2026-01-17 16:42:36.35	299.06	15.47	-25.3	-26.0	16.1	0.00e+00	0	44	0	2651848704	10	3917
2026-01-17 16:42:37.35	299.26	15.43	-25.3	-26.1	16.0	0.00e+00	0	44	0	2659188736	10	3949
2026-01-17 16:42:38.35	299.47	15.39	-25.5	-26.4	15.9	0.00e+00	0	44	0	2666528768	10	4018
2026-01-17 16:42:39.35	299.66	15.35	-25.4	-26.3	16.0	0.00e+00	0	44	0	2673868800	10	3986
2026-01-17 16:42:40.34	299.86	15.31	-25.4	-26.2	16.0	0.00e+00	0	44	0	2681208832	10	3975
2026-01-17 16:42:41.35	300.06	15.27	-25.4	-26.3	15.9	0.00e+00	0	44	0	2688548864	10	3998
2026-01-17 16:42:42.34	300.26	15.23	-25.6	-26.2	15.7	0.00e+00	0	44	0	2694840320	11	3870
2026-01-17 16:42:43.34	300.46	15.19	-25.9	-26.9	15.3	0.00e+00	0	44	0	2702180352	11	4025
2026-01-17 16:42:44.34	300.65	15.15	-25.8	-26.6	15.5	0.00e+00	0	44	0	2709520384	11	3959
2026-01-17 16:42:45.35	300.85	15.11	-25.9	-26.8	15.4	0.00e+00	0	44	0	2716860416	11	4004
2026-01-17 16:42:46.35	301.05	15.07	-25.7	-26.4	15.6	0.00e+00	0	44	0	2724200448	11	3915
2026-01-17 16:42:47.36	301.25	15.03	-25.7	-26.4	15.6	0.00e+00	0	44	0	2731540480	11	3908
2026-01-17 16:42:48.36	301.44	14.99	-25.8	-26.6	15.5	0.00e+00	0	44	0	2738880512	11	3957
2026-01-17 16:42:49.36	301.63	14.94	-25.8	-26.6	15.5	0.00e+00	0	44	0	2746220544	11	3946
2026-01-17 16:42:50.37	301.83	14.90	-25.7	-26.5	15.5	0.00e+00	0	44	0	2753560576	11	3933
2026-01-17 16:42:51.37	302.02	14.86	-25.6	-26.2	15.7	0.00e+00	0	44	0	2760900608	11	3870
2026-01-17 16:42:52.37	302.22	14.82	-25.6	-26.2	15.7	0.00e+00	0	44	0	2768240640	11	3857
2026-01-17 16:42:53.38	302.41	14.77	-25.5	-26.0	15.8	0.00e+00	0	44	0	2775580672	11	3803
2026-01-17 16:42:54.38	302.60	14.73	-25.5	-26.0	15.8	0.00e+00	0	44	0	2781872128	11	3817
2026-01-17 16:42:55.38	302.79	14.69	-25.9	-26.8	15.4	0.00e+00	0	44	0	2789212160	11	3998
2026-01-17 16:42:56.38	302.98	14.64	-25.6	-26.3	15.7	0.00e+00	0	44	0	2796552192	11	3882
2026-01-17 16:42:57.38	303.17	14.60	-25.6	-26.1	15.7	0.00e+00	0	44	0	2803892224	11	3845
2026-01-17 16:42:58.37	303.36	14.55	-25.4	-25.8	15.9	0.00e+00	0	44	0	2811232256	11	3754
2026-01-17 16:42:59.37	303.55	14.51	-25.5	-26.1	15.8	0.00e+00	0	44	0	2818572288	11	3833
2026-01-17 16:43:00.37	303.74	14.47	-25.5	-26.1	15.8	0.00e+00	0	44	0	2825912320	11	3831
2026-01-17 16:43:01.37	303.93	14.42	-25.4	-25.9	15.9	0.00e+00	0	44	0	2833252352	11	3781
2026-01-17 16:43:02.36	304.11	14.38	-25.4	-25.8	15.9	0.00e+00	0	44	0	2839543808	11	3765
2026-01-17 16:43:03.36	304.30	14.33	-25.6	-26.2	15.7	0.00e+00	0	44	0	2846883840	11	3852
2026-01-17 16:43:04.36	304.49	14.29	-25.4	-25.7	16.0	0.00e+00	0	44	0	2854223872	11	3748
2026-01-17 16:43:05.36	304.67	14.24	-25.4	-25.7	16.0	0.00e+00	0	44	0	2861563904	11	3740
2026-01-17 16:43:06.36	304.86	14.20	-25.4	-25.9	15.9	0.00e+00	0	44	0	2868903936	11	3785
2026-01-17 16:43:07.36	305.04	14.15	-25.6	-26.2	15.7	0.00e+00	0	44	0	2876243968	11	3859
2026-01-17 16:43:08.36	305.22	14.10	-25.5	-26.0	15.8	1.10e-06	0	44	0	2883584000	11	3810
2026-01-17 16:43:09.36	305.41	14.06	-25.6	-26.2	15.7	1.10e-06	0	44	0	2890924032	11	3866
2026-01-17 16:43:10.36	305.59	14.01	-25.7	-26.4	15.6	0.00e+00	0	44	0	2898264064	11	3900
2026-01-17 16:43:11.37	305.77	13.96	-25.6	-26.3	15.6	0.00e+00	0	44	0	2904555520	11	3887
2026-01-17 16:43:12.37	305.96	13.92	-25.7	-26.4	15.5	0.00e+00	0	44	0	2911895552	11	3912
2026-01-17 16:43:13.37	306.14	13.87	-25.7	-26.4	15.5	0.00e+00	0	44	0	2919235584	11	3917
2026-01-17 16:43:14.37	306.32	13.82	-25.6	-26.1	15.7	0.00e+00	0	44	0	2926575616	11	3841
2026-01-17 16:43:15.37	306.50	13.78	-25.8	-26.6	15.5	0.00e+00	0	44	0	2933915648	11	3949
2026-01-17 16:43:16.36	306.68	13.73	-25.7	-26.4	15.6	0.00e+00	0	44	0	2941255680	11	3911
2026-01-17 16:43:17.36	306.85	13.68	-25.7	-26.4	15.6	0.00e+00	0	44	0	2948595712	11	3909
2026-01-17 16:43:18.36	307.03	13.63	-25.7	-26.3	15.6	0.00e+00	0	44	0	2955935744	11	3897
2026-01-17 16:43:19.35	307.21	13.59	-25.6	-26.2	15.6	0.00e+00	0	44	0	2962227200	11	3868
2026-01-17 16:43:20.35	307.39	13.54	-25.7	-26.4	15.6	0.00e+00	0	44	0	2969567232	11	3903
2026-01-17 16:43:21.35	307.56	13.49	-25.8	-26.7	15.4	0.00e+00	0	44	0	2976907264	11	3984
2026-01-17 16:43:22.35	307.74	13.44	-25.7	-26.4	15.6	0.00e+00	0	44	0	2984247296	11	3902
2026-01-17 16:43:23.35	307.91	13.39	-25.6	-26.2	15.7	0.00e+00	0	44	0	2991587328	11	3860
2026-01-17 16:43:24.36	308.09	13.34	-25.6	-26.3	15.6	0.00e+00	0	44	0	2998927360	11	3884
2026-01-17 16:43:25.36	308.27	13.30	-25.5	-26.1	15.7	0.00e+00	0	44	0	3006267392	11	3840
2026-01-17 16:43:26.36	308.44	13.25	-25.6	-26.2	15.6	0.00e+00	0	44	0	3013607424	11	3874
2026-01-17 16:43:27.36	308.61	13.20	-25.7	-26.3	15.6	0.00e+00	0	44	0	3020947456	11	3896
2026-01-17 16:43:28.37	308.79	13.15	-25.7	-26.5	15.5	0.00e+00	0	44	0	3027238912	11	3928
2026-01-17 16:43:29.37	308.96	13.10	-25.9	-26.8	15.4	0.00e+00	0	44	0	3034578944	11	4016
2026-01-17 16:43:30.37	309.13	13.05	-25.9	-26.9	15.3	0.00e+00	0	44	0	3041918976	11	4027
2026-01-17 16:43:31.37	309.30	13.00	-25.9	-27.0	15.2	0.00e+00	0	44	0	3049259008	11	4058
2026-01-17 16:43:32.37	309.47	12.95	-26.0	-27.2	15.1	0.00e+00	0	44	0	3056599040	11	4114
2026-01-17 16:43:33.37	309.64	12.90	-26.0	-27.0	15.2	1.10e-06	0	44	0	3063939072	11	4062
2026-01-17 16:43:34.38	309.81	12.85	-26.0	-27.1	15.1	0.00e+00	0	44	0	3071279104	11	4098
2026-01-17 16:43:35.37	309.98	12.80	-25.9	-26.4	15.2	0.00e+00	0	44	0	3078619136	12	3817
2026-01-17 16:43:36.37	310.15	12.75	-26.0	-26.5	15.1	0.00e+00	0	44	0	3085959168	12	3834
2026-01-17 16:43:37.38	310.32	12.70	-25.8	-26.2	15.3	0.00e+00	0	44	0	3092250624	12	3771
2026-01-17 16:43:38.38	310.49	12.65	-26.0	-26.6	15.1	0.00e+00	0	44	0	3099590656	12	3851
2026-01-17 16:43:39.38	310.65	12.60	-25.9	-26.5	15.1	0.00e+00	0	44	0	3106930688	12	3830
2026-01-17 16:43:40.38	310.82	12.55	-25.9	-26.5	15.1	0.00e+00	0	44	0	3114270720	12	3830
2026-01-17 16:43:41.38	310.98	12.50	-25.9	-26.4	15.1	0.00e+00	0	44	0	3121610752	12	3818
2026-01-17 16:43:42.39	311.15	12.45	-26.0	-26.6	15.1	0.00e+00	0	44	0	3128950784	12	3856
2026-01-17 16:43:43.39	311.31	12.39	-26.1	-26.9	14.9	0.00e+00	0	44	0	3136290816	12	3928
2026-01-17 16:43:44.39	311.48	12.34	-26.2	-27.0	14.8	0.00e+00	0	44	0	3143630848	12	3957
2026-01-17 16:43:45.39	311.64	12.29	-26.1	-26.9	14.9	0.00e+00	0	44	0	3149922304	12	3937
2026-01-17 16:43:46.40	311.81	12.24	-26.2	-27.1	14.8	0.00e+00	0	44	0	3158310912	12	3974
2026-01-17 16:43:47.40	311.97	12.19	-26.0	-26.7	15.0	0.00e+00	0	44	0	3165650944	12	3879
2026-01-17 16:43:48.40	312.13	12.14	-26.1	-26.9	14.9	0.00e+00	0	44	0	3171942400	12	3922
2026-01-17 16:43:49.40	312.29	12.09	-26.1	-26.8	14.9	1.10e-06	0	44	0	3179282432	12	3916
2026-01-17 16:43:50.40	312.45	12.03	-26.2	-27.1	14.8	0.00e+00	0	44	0	3186622464	12	3981
2026-01-17 16:43:51.40	312.61	11.98	-26.1	-26.8	14.9	0.00e+00	0	44	0	3193962496	12	3907
2026-01-17 16:43:52.39	312.77	11.93	-25.9	-26.5	15.1	0.00e+00	0	44	0	3201302528	12	3837
2026-01-17 16:43:53.40	312.93	11.88	-26.1	-26.9	14.8	0.00e+00	0	44	0	3208642560	12	3937
2026-01-17 16:43:54.40	313.09	11.83	-26.1	-26.8	14.9	0.00e+00	0	44	0	3215982592	12	3908
2026-01-17 16:43:55.40	313.25	11.77	-26.1	-26.9	14.8	0.00e+00	0	44	0	3223322624	12	3929
2026-01-17 16:43:56.41	313.40	11.72	-26.1	-26.8	14.9	0.00e+00	0	44	0	3230662656	12	3910
2026-01-17 16:43:57.41	313.56	11.67	-26.1	-26.9	14.8	0.00e+00	0	44	0	3236954112	12	3936
2026-01-17 16:43:58.42	313.72	11.62	-26.2	-27.0	14.8	1.10e-06	0	44	0	3244294144	12	3953
2026-01-17 16:43:59.42	313.87	11.56	-26.2	-27.0	14.8	1.10e-06	0	44	0	3251634176	12	3956
2026-01-17 16:44:00.43	314.03	11.51	-26.2	-27.1	14.7	1.10e-06	0	44	0	3258974208	12	3991
2026-01-17 16:44:01.43	314.19	11.46	-26.2	-27.1	14.7	1.10e-06	0	44	0	3266314240	12	3982
2026-01-17 16:44:02.43	314.34	11.41	-26.3	-27.2	14.6	0.00e+00	0	44	0	3273654272	12	4016
2026-01-17 16:44:03.43	314.49	11.35	-26.2	-27.2	14.7	0.00e+00	0	44	0	3280994304	12	4000
2026-01-17 16:44:04.43	314.65	11.30	-26.4	-27.5	14.5	0.00e+00	0	44	0	3288334336	12	4086
2026-01-17 16:44:05.42	314.80	11.25	-26.6	-27.5	14.2	5.70e-06	0	44	0	3295674368	13	3974
2026-01-17 16:44:06.43	314.95	11.20	-26.5	-27.3	14.3	1.10e-06	0	44	0	3301965824	13	3931
2026-01-17 16:44:07.42	315.10	11.14	-26.4	-27.0	14.4	0.00e+00	0	44	0	3309305856	13	3867
2026-01-17 16:44:08.42	315.25	11.09	-26.5	-27.2	14.3	2.20e-06	0	44	0	3316645888	13	3905
2026-01-17 16:44:09.42	315.40	11.04	-26.4	-26.9	14.5	1.10e-06	0	44	0	3323985920	13	3839
2026-01-17 16:44:10.42	315.55	10.98	-26.3	-26.9	14.6	1.10e-06	0	44	0	3331325952	13	3830
2026-01-17 16:44:11.42	315.70	10.93	-26.4	-27.0	14.4	1.10e-06	0	44	0	3338665984	13	3861
2026-01-17 16:44:12.42	315.85	10.88	-26.2	-26.5	14.7	1.10e-06	0	44	0	3346006016	13	3741
2026-01-17 16:44:13.42	316.00	10.82	-26.1	-26.3	14.8	0.00e+00	0	44	0	3353346048	13	3701
2026-01-17 16:44:14.42	316.14	10.77	-26.2	-26.7	14.6	1.10e-06	0	44	0	3359637504	13	3783
2026-01-17 16:44:15.43	316.29	10.72	-26.2	-26.5	14.7	0.00e+00	0	44	0	3366977536	13	3736
2026-01-17 16:44:16.43	316.44	10.66	-25.8	-26.2	15.1	0.00e+00	0	44	0	3374317568	12	3771
2026-01-17 16:44:17.43	316.59	10.61	-25.9	-26.4	15.0	0.00e+00	0	44	0	3381657600	12	3818
2026-01-17 16:44:18.43	316.73	10.56	-26.0	-26.7	14.9	0.00e+00	0	44	0	3388997632	12	3891
2026-01-17 16:44:19.43	316.88	10.50	-26.0	-26.5	15.0	0.00e+00	0	44	0	3396337664	12	3841
2026-01-17 16:44:20.43	317.02	10.45	-26.1	-26.9	14.8	0.00e+00	0	44	0	3403677696	12	3927
2026-01-17 16:44:21.42	317.16	10.40	-26.1	-26.9	14.8	0.00e+00	0	44	0	3411017728	12	3935
2026-01-17 16:44:22.43	317.31	10.34	-26.3	-27.2	14.6	1.10e-06	0	44	0	3418357760	12	4020
2026-01-17 16:44:23.42	317.45	10.29	-26.3	-27.3	14.5	0.00e+00	0	44	0	3424649216	12	4037
2026-01-17 16:44:24.43	317.59	10.24	-26.5	-27.8	14.2	2.20e-06	0	44	0	3431989248	12	4177
2026-01-17 16:44:25.43	317.74	10.18	-26.6	-27.5	14.1	4.50e-06	0	44	0	3439329280	13	3995
2026-01-17 16:44:26.42	317.88	10.13	-26.7	-27.6	14.1	3.40e-06	0	44	0	3446669312	13	4017
2026-01-17 16:44:27.43	318.02	10.07	-26.8	-28.0	13.8	3.40e-06	0	44	0	3454009344	13	4116
2026-01-17 16:44:28.43	318.16	10.02	-27.0	-28.4	13.6	8.00e-06	0	44	0	3461349376	13	4228
2026-01-17 16:44:29.44	318.30	9.97	-26.8	-27.9	13.9	3.40e-06	0	44	0	3468689408	13	4095
2026-01-17 16:44:30.43	318.44	9.91	-26.7	-27.7	14.0	4.50e-06	0	44	0	3476029440	13	4033
2026-01-17 16:44:31.44	318.58	9.86	-26.9	-28.2	13.7	1.02e-05	0	44	0	3483369472	13	4167
2026-01-17 16:44:32.44	318.72	9.80	-26.9	-28.2	13.7	1.60e-05	0	44	0	3489660928	13	4173
2026-01-17 16:44:33.44	318.86	9.75	-26.9	-28.3	13.7	1.02e-05	0	44	0	3497000960	13	4189
2026-01-17 16:44:34.44	318.99	9.70	-27.2	-28.2	13.4	1.48e-05	0	44	0	3504340992	14	4074
2026-01-17 16:44:35.44	319.13	9.64	-27.3	-28.5	13.2	2.86e-05	0	44	0	3511681024	14	4155
2026-01-17 16:44:36.43	319.27	9.59	-27.1	-28.1	13.5	1.48e-05	0	44	0	3519021056	14	4046
2026-01-17 16:44:37.43	319.40	9.53	-27.2	-28.4	13.3	3.77e-05	0	44	0	3526361088	14	4111
2026-01-17 16:44:38.44	319.54	9.48	-27.0	-27.9	13.5	5.70e-06	0	44	0	3533701120	14	3990
2026-01-17 16:44:39.44	319.67	9.43	-26.9	-27.6	13.8	6.80e-06	0	44	0	3541041152	14	3906
2026-01-17 16:44:40.44	319.81	9.37	-27.1	-28.0	13.5	1.83e-05	0	44	0	3547332608	14	4019
2026-01-17 16:44:41.44	319.94	9.32	-27.3	-28.6	13.2	1.94e-05	0	44	0	3554672640	14	4183
2026-01-17 16:44:42.44	320.08	9.26	-27.0	-28.0	13.5	1.71e-05	0	44	0	3562012672	14	4010
2026-01-17 16:44:43.44	320.21	9.21	-26.9	-27.7	13.7	3.40e-06	0	44	0	3569352704	14	3933
2026-01-17 16:44:44.44	320.34	9.15	-27.0	-27.9	13.6	6.80e-06	0	44	0	3576692736	14	3986
2026-01-17 16:44:45.44	320.47	9.10	-26.8	-27.5	13.8	1.83e-05	0	44	0	3584032768	14	3891
2026-01-17 16:44:46.44	320.61	9.05	-27.3	-28.6	13.1	3.43e-05	0	44	0	3591372800	14	4163
2026-01-17 16:44:47.43	320.74	8.99	-27.2	-28.3	13.3	1.94e-05	0	44	0	3598712832	14	4104
2026-01-17 16:44:48.44	320.87	8.94	-27.1	-28.2	13.4	1.94e-05	0	44	0	3606052864	14	4057
2026-01-17 16:44:49.44	321.00	8.88	-27.4	-28.8	13.0	3.20e-05	0	44	0	3612344320	14	4232
2026-01-17 16:44:50.44	321.13	8.83	-27.2	-28.4	13.2	3.89e-05	0	44	0	3619684352	14	4124
2026-01-17 16:44:51.44	321.26	8.78	-26.8	-27.5	13.8	5.70e-06	0	44	0	3627024384	14	3882
2026-01-17 16:44:52.44	321.39	8.72	-26.7	-27.2	13.9	4.50e-06	0	44	0	3634364416	14	3829
2026-01-17 16:44:53.44	321.51	8.67	-27.0	-27.8	13.6	8.00e-06	0	44	0	3641704448	14	3964
2026-01-17 16:44:54.44	321.64	8.61	-27.1	-28.1	13.4	2.74e-05	0	44	0	3649044480	14	4034
2026-01-17 16:44:55.45	321.77	8.56	-26.9	-27.5	13.7	3.40e-06	0	44	0	3656384512	14	3901
2026-01-17 16:44:56.45	321.90	8.50	-26.8	-27.3	13.8	1.14e-05	0	44	0	3663724544	14	3848
2026-01-17 16:44:57.44	322.02	8.45	-26.9	-27.7	13.6	1.37e-05	0	44	0	3670016000	14	3951
2026-01-17 16:44:58.44	322.15	8.40	-27.0	-27.9	13.5	5.70e-06	0	44	0	3677356032	14	3995
2026-01-17 16:44:59.45	322.28	8.34	-27.4	-28.8	12.9	1.43e-03	0	44	0	3685744640	14	4228
2026-01-17 16:45:00.45	322.40	8.29	-27.1	-28.2	13.3	1.33e-03	0	44	0	3692036096	14	4076
2026-01-17 16:45:01.46	322.53	8.23	-27.2	-28.4	13.2	7.09e-05	0	44	0	3699376128	14	4121
2026-01-17 16:45:02.46	322.65	8.18	-27.4	-28.8	12.9	1.48e-03	0	44	0	3706716160	14	4231
2026-01-17 16:45:03.46	322.78	8.12	-27.2	-28.4	13.2	2.74e-05	0	44	0	3714056192	14	4122
2026-01-17 16:45:04.46	322.90	8.07	-27.3	-28.6	13.0	1.54e-04	0	44	0	3721396224	14	4191
2026-01-17 16:45:05.46	323.02	8.01	-27.0	-28.3	13.5	1.57e-03	0	44	0	3728736256	13	4208
2026-01-17 16:45:06.46	323.15	7.96	-26.9	-28.2	13.5	1.76e-03	0	44	0	3736076288	13	4180
2026-01-17 16:45:07.45	323.27	7.91	-27.0	-28.3	13.5	1.30e-04	0	44	0	3743416320	13	4220
2026-01-17 16:45:08.46	323.39	7.85	-27.6	-29.3	12.6	5.60e-05	0	44	0	3750756352	14	4367
2026-01-17 16:45:09.46	323.51	7.80	-27.1	-28.1	13.3	1.91e-03	0	44	0	3757047808	14	4032
2026-01-17 16:45:10.47	323.63	7.74	-26.9	-27.7	13.5	1.59e-04	0	44	0	3764387840	14	3960
2026-01-17 16:45:11.47	323.75	7.69	-26.8	-27.9	13.7	1.14e-05	0	44	0	3771727872	13	4099
2026-01-17 16:45:12.48	323.87	7.63	-27.2	-28.3	13.2	1.60e-03	0	44	0	3779067904	14	4093
2026-01-17 16:45:13.48	323.99	7.58	-27.2	-28.4	13.1	5.37e-05	0	44	0	3786407936	14	4133
2026-01-17 16:45:14.48	324.11	7.53	-26.9	-28.1	13.5	1.60e-03	0	44	0	3793747968	13	4163
2026-01-17 16:45:15.48	324.23	7.47	-27.5	-29.0	12.8	5.95e-05	0	44	0	3801088000	14	4292
2026-01-17 16:45:16.49	324.35	7.42	-27.1	-28.2	13.2	3.43e-05	0	44	0	3808428032	14	4069
2026-01-17 16:45:17.49	324.47	7.36	-26.4	-27.1	14.1	1.55e-03	0	44	0	3815768064	13	3908
2026-01-17 16:45:18.49	324.59	7.31	-27.6	-29.3	12.6	8.92e-05	0	44	0	3822059520	14	4378
2026-01-17 16:45:19.49	324.70	7.25	-27.2	-27.8	13.2	7.89e-05	0	44	0	3829399552	15	3869
2026-01-17 16:45:20.50	324.82	7.20	-27.2	-28.5	13.0	3.20e-05	0	44	0	3837788160	14	4147
2026-01-17 16:45:21.50	324.94	7.15	-27.2	-28.4	13.0	4.92e-05	0	44	0	3844079616	14	4142
2026-01-17 16:45:22.50	325.05	7.09	-27.1	-28.1	13.2	1.94e-05	0	44	0	3851419648	14	4039
2026-01-17 16:45:23.50	325.17	7.04	-33.2	-42.5	3.8	8.45e-01	0	44	104	3854565376	26	10430
2026-01-17 16:45:24.51	325.28	6.98	-33.6	-43.5	3.8	8.45e-01	0	44	104	3854565376	26	11353

#Closed at: 2026-01-17 16:45:25
#Recorded file [3854 MB]: D:/data/31010_260117_193628.dat