passes_logs/2026/01/17/R2M6_AANII_01/R2M6_AANII_01__20260117_130935_FENGYUN_3D_rec.log

#Pass ID: 20260117_130935_FENGYUN 3D
#Satellite: FENGYUN 3D
#Configuration: FENGYUN 3D
#almurnet v.1.7.20240730
#Start time: 2026-01-17 13:09:35

#Version: 2.2.20231116
#Station: R2M6_AANII_01
#Location: 30.233357 lon 59.946436 lat
#TLE: 1 43010U 17072A   26016.62453405 -.00000112  00000+0 -31355-4 0  9995
#TLE: 2 43010  98.9932 348.4654 0002369 105.3910 254.7528 14.19694900423480

#Time	Az	El	Level	Level2	SNR	BER	BlckErr	Temp	State	Recorded	gain1	gain2
2026-01-17 13:09:35.72	185.08	7.03	-26.7	-28.3	5.9	7.66e-01	0	41	0	0	14	4280
2026-01-17 13:09:36.71	185.13	7.11	-28.1	-30.3	5.7	7.74e-01	0	41	104	0	16	4670
2026-01-17 13:09:37.72	185.18	7.18	-28.0	-30.0	12.7	9.84e-05	0	41	0	0	16	4560
2026-01-17 13:09:38.72	185.23	7.26	-28.1	-30.4	12.5	9.38e-05	0	41	0	5242880	16	4690
2026-01-17 13:09:39.73	185.28	7.33	-27.1	-28.5	13.8	1.29e-04	0	41	0	11534336	15	4241
2026-01-17 13:09:40.73	185.33	7.41	-27.8	-30.2	12.8	1.71e-05	0	41	0	16777216	15	4736
2026-01-17 13:09:41.73	185.38	7.48	-27.9	-30.3	12.7	9.10e-06	0	41	0	22020096	15	4781
2026-01-17 13:09:42.73	185.43	7.56	-27.2	-28.8	13.6	1.10e-06	0	41	0	28311552	15	4326
2026-01-17 13:09:43.74	185.48	7.63	-27.3	-28.9	13.5	8.00e-06	0	41	0	33554432	15	4348
2026-01-17 13:09:44.73	185.54	7.71	-27.4	-29.3	13.4	6.80e-06	0	41	0	38797312	15	4463
2026-01-17 13:09:45.74	185.59	7.78	-27.4	-29.3	13.3	1.25e-05	0	41	0	45088768	15	4470
2026-01-17 13:09:46.73	185.64	7.86	-27.8	-30.1	12.9	4.92e-05	0	41	0	50331648	15	4698
2026-01-17 13:09:47.73	185.69	7.94	-27.4	-29.2	13.4	9.10e-06	0	41	0	55574528	15	4450
2026-01-17 13:09:48.74	185.75	8.01	-27.8	-30.1	12.9	2.86e-05	0	41	0	61865984	15	4704
2026-01-17 13:09:49.74	185.80	8.09	-27.8	-30.2	12.8	2.97e-05	0	41	0	67108864	15	4739
2026-01-17 13:09:50.73	185.85	8.17	-27.4	-29.2	13.5	9.10e-06	0	42	0	73400320	15	4441
2026-01-17 13:09:51.74	185.91	8.24	-27.0	-28.2	14.1	0.00e+00	0	41	0	78643200	15	4153
2026-01-17 13:09:52.74	185.96	8.32	-26.3	-27.2	14.9	0.00e+00	0	42	0	83886080	14	3991
2026-01-17 13:09:53.74	186.01	8.40	-26.9	-28.5	14.2	0.00e+00	0	41	0	90177536	14	4328
2026-01-17 13:09:54.75	186.07	8.48	-26.5	-27.6	14.7	0.00e+00	0	41	0	95420416	14	4091
2026-01-17 13:09:55.74	186.12	8.55	-26.9	-28.5	14.3	0.00e+00	0	41	0	100663296	14	4330
2026-01-17 13:09:56.75	186.18	8.63	-26.8	-28.2	14.4	0.00e+00	0	41	0	106954752	14	4253
2026-01-17 13:09:57.77	186.24	8.71	-26.5	-27.5	14.7	0.00e+00	0	41	0	112197632	14	4072
2026-01-17 13:09:58.76	186.29	8.79	-26.5	-27.7	14.7	1.14e-05	0	41	0	117440512	14	4106
2026-01-17 13:09:59.76	186.35	8.87	-26.4	-27.4	14.8	1.10e-06	0	41	0	123731968	14	4035
2026-01-17 13:10:00.77	186.40	8.95	-26.3	-27.3	14.9	0.00e+00	0	42	0	128974848	14	3999
2026-01-17 13:10:01.77	186.46	9.03	-26.5	-27.7	14.7	4.50e-06	0	42	0	135266304	14	4118
2026-01-17 13:10:02.77	186.52	9.11	-26.6	-27.7	14.7	0.00e+00	0	42	0	140509184	14	4124
2026-01-17 13:10:03.77	186.57	9.19	-26.7	-28.0	14.6	0.00e+00	0	42	0	146800640	14	4187
2026-01-17 13:10:04.77	186.63	9.27	-26.6	-27.8	14.7	1.10e-06	0	42	0	152043520	14	4133
2026-01-17 13:10:05.77	186.69	9.35	-26.2	-27.3	15.2	0.00e+00	0	42	0	157286400	13	4120
2026-01-17 13:10:06.78	186.75	9.43	-26.2	-27.3	15.2	0.00e+00	0	42	0	163577856	13	4128
2026-01-17 13:10:07.77	186.81	9.51	-26.4	-27.8	14.9	2.51e-05	0	42	0	168820736	13	4238
2026-01-17 13:10:08.78	186.87	9.59	-26.2	-27.3	15.2	0.00e+00	0	42	0	174063616	13	4121
2026-01-17 13:10:09.79	186.92	9.68	-26.2	-27.5	15.1	0.00e+00	0	42	0	180355072	13	4152
2026-01-17 13:10:10.79	186.98	9.76	-26.3	-27.6	15.0	2.51e-05	0	42	0	185597952	13	4199
2026-01-17 13:10:11.80	187.04	9.84	-26.0	-26.9	15.5	0.00e+00	0	42	0	190840832	13	4017
2026-01-17 13:10:12.80	187.10	9.92	-26.2	-27.3	15.2	0.00e+00	0	42	0	197132288	13	4126
2026-01-17 13:10:13.81	187.16	10.00	-26.0	-27.0	15.4	1.94e-05	0	42	0	202375168	13	4022
2026-01-17 13:10:14.81	187.23	10.09	-25.8	-26.6	15.6	0.00e+00	0	42	0	208666624	13	3946
2026-01-17 13:10:15.81	187.29	10.17	-26.3	-27.7	15.1	0.00e+00	0	42	0	213909504	13	4207
2026-01-17 13:10:16.81	187.35	10.25	-26.1	-27.2	15.3	0.00e+00	0	42	0	219152384	13	4086
2026-01-17 13:10:17.81	187.41	10.34	-26.3	-27.7	15.1	0.00e+00	0	42	0	225443840	13	4216
2026-01-17 13:10:18.81	187.47	10.42	-26.3	-27.7	15.1	0.00e+00	0	42	0	230686720	13	4225
2026-01-17 13:10:19.82	187.53	10.50	-26.0	-27.0	15.4	0.00e+00	0	42	0	235929600	13	4042
2026-01-17 13:10:20.81	187.60	10.59	-26.2	-27.4	15.3	0.00e+00	0	42	0	242221056	13	4128
2026-01-17 13:10:21.81	187.66	10.67	-26.3	-27.6	15.2	0.00e+00	0	42	0	247463936	13	4191
2026-01-17 13:10:22.81	187.72	10.76	-26.2	-27.4	15.2	1.14e-05	0	42	0	252706816	13	4144
2026-01-17 13:10:23.82	187.79	10.84	-26.3	-27.7	15.1	0.00e+00	0	42	0	258998272	13	4228
2026-01-17 13:10:24.81	187.85	10.93	-26.3	-27.6	15.1	0.00e+00	0	42	0	264241152	13	4208
2026-01-17 13:10:25.81	187.91	11.01	-26.3	-27.6	15.2	0.00e+00	0	42	0	270532608	13	4190
2026-01-17 13:10:26.81	187.98	11.10	-26.1	-27.3	15.3	0.00e+00	0	42	0	275775488	13	4111
2026-01-17 13:10:27.82	188.04	11.18	-25.9	-26.7	15.6	0.00e+00	0	42	0	281018368	13	3973
2026-01-17 13:10:28.82	188.11	11.27	-26.3	-27.6	15.2	0.00e+00	0	42	0	287309824	13	4185
2026-01-17 13:10:29.83	188.17	11.36	-26.0	-27.1	15.4	0.00e+00	0	42	0	292552704	13	4054
2026-01-17 13:10:30.84	188.24	11.45	-25.9	-26.8	15.6	0.00e+00	0	42	0	298844160	13	3998
2026-01-17 13:10:31.84	188.31	11.53	-25.9	-26.9	15.6	0.00e+00	0	42	0	304087040	13	4002
2026-01-17 13:10:32.84	188.37	11.62	-25.8	-27.1	15.7	0.00e+00	0	42	0	309329920	12	4165
2026-01-17 13:10:33.84	188.44	11.71	-26.2	-28.0	15.2	0.00e+00	0	42	0	315621376	12	4417
2026-01-17 13:10:34.84	188.51	11.79	-25.9	-27.3	15.6	0.00e+00	0	42	0	320864256	12	4225
2026-01-17 13:10:35.85	188.58	11.88	-25.7	-26.8	15.9	0.00e+00	0	42	0	326107136	12	4087
2026-01-17 13:10:36.85	188.65	11.97	-25.7	-26.9	15.9	0.00e+00	0	42	0	332398592	12	4102
2026-01-17 13:10:37.84	188.71	12.06	-25.8	-27.0	15.8	0.00e+00	0	42	0	337641472	12	4144
2026-01-17 13:10:38.84	188.78	12.15	-25.4	-26.1	16.3	0.00e+00	0	42	0	343932928	12	3911
2026-01-17 13:10:39.84	188.85	12.24	-25.7	-26.8	15.9	0.00e+00	0	42	0	349175808	12	4098
2026-01-17 13:10:40.84	188.92	12.33	-25.8	-27.0	15.8	0.00e+00	0	42	0	354418688	12	4135
2026-01-17 13:10:41.85	188.99	12.42	-25.6	-26.7	16.0	0.00e+00	0	42	0	360710144	12	4056
2026-01-17 13:10:42.85	189.07	12.51	-25.8	-27.1	15.8	0.00e+00	0	43	0	365953024	12	4167
2026-01-17 13:10:43.86	189.14	12.60	-25.5	-26.5	16.1	0.00e+00	0	42	0	371195904	12	3998
2026-01-17 13:10:44.86	189.21	12.69	-25.6	-26.6	16.1	0.00e+00	0	43	0	377487360	12	4030
2026-01-17 13:10:45.87	189.28	12.78	-25.6	-26.5	16.1	0.00e+00	0	42	0	382730240	12	4014
2026-01-17 13:10:46.88	189.35	12.88	-25.6	-26.5	16.1	0.00e+00	0	42	0	389021696	12	4011
2026-01-17 13:10:47.87	189.43	12.97	-25.6	-26.5	16.1	0.00e+00	0	42	0	394264576	12	4009
2026-01-17 13:10:48.88	189.50	13.06	-25.6	-26.6	16.0	0.00e+00	0	42	0	399507456	12	4043
2026-01-17 13:10:49.88	189.57	13.15	-25.6	-26.6	16.1	0.00e+00	0	42	0	405798912	12	4046
2026-01-17 13:10:50.88	189.65	13.24	-25.6	-26.7	16.0	0.00e+00	0	43	0	411041792	12	4063
2026-01-17 13:10:51.89	189.72	13.34	-25.4	-26.2	16.3	0.00e+00	0	43	0	417333248	12	3930
2026-01-17 13:10:52.88	189.80	13.43	-25.6	-27.0	16.2	0.00e+00	0	42	0	422576128	11	4240
2026-01-17 13:10:53.88	189.87	13.52	-25.5	-26.8	16.4	0.00e+00	0	42	0	427819008	11	4184
2026-01-17 13:10:54.89	189.95	13.62	-25.5	-26.7	16.4	0.00e+00	0	42	0	434110464	11	4179
2026-01-17 13:10:55.89	190.03	13.71	-25.5	-26.9	16.3	0.00e+00	0	43	0	439353344	11	4221
2026-01-17 13:10:56.89	190.10	13.81	-25.6	-27.0	16.2	0.00e+00	0	43	0	444596224	11	4241
2026-01-17 13:10:57.90	190.18	13.90	-25.5	-26.9	16.3	0.00e+00	0	43	0	450887680	11	4225
2026-01-17 13:10:58.89	190.26	14.00	-25.5	-26.8	16.4	0.00e+00	0	43	0	456130560	11	4188
2026-01-17 13:10:59.89	190.34	14.09	-25.5	-26.9	16.3	0.00e+00	0	43	0	461373440	11	4228
2026-01-17 13:11:00.90	190.42	14.19	-25.4	-26.7	16.4	0.00e+00	0	43	0	467664896	11	4175
2026-01-17 13:11:01.91	190.50	14.29	-25.5	-26.9	16.3	0.00e+00	0	43	0	472907776	11	4215
2026-01-17 13:11:02.90	190.58	14.38	-25.6	-27.0	16.3	0.00e+00	0	43	0	479199232	11	4235
2026-01-17 13:11:03.90	190.66	14.48	-25.4	-26.7	16.5	0.00e+00	0	43	0	484442112	11	4156
2026-01-17 13:11:04.91	190.74	14.58	-25.5	-26.8	16.4	0.00e+00	0	43	0	489684992	11	4201
2026-01-17 13:11:05.91	190.82	14.67	-25.7	-27.2	16.2	0.00e+00	0	43	0	495976448	11	4294
2026-01-17 13:11:06.92	190.90	14.77	-25.5	-26.8	16.4	3.40e-06	0	43	0	501219328	11	4202
2026-01-17 13:11:07.92	190.98	14.87	-25.3	-26.4	16.6	0.00e+00	0	43	0	507510784	11	4102
2026-01-17 13:11:08.92	191.07	14.97	-25.6	-27.0	16.3	0.00e+00	0	43	0	512753664	11	4252
2026-01-17 13:11:09.93	191.15	15.07	-25.2	-26.1	16.8	0.00e+00	0	43	0	517996544	11	4007
2026-01-17 13:11:10.93	191.24	15.17	-25.1	-26.0	16.9	0.00e+00	0	43	0	524288000	11	3984
2026-01-17 13:11:11.93	191.32	15.27	-25.1	-26.0	16.9	0.00e+00	0	43	0	529530880	11	3974
2026-01-17 13:11:12.93	191.40	15.37	-24.8	-25.4	17.2	0.00e+00	0	43	0	534773760	11	3838
2026-01-17 13:11:13.94	191.49	15.47	-24.7	-25.6	17.3	0.00e+00	0	43	0	541065216	10	4006
2026-01-17 13:11:14.94	191.58	15.57	-24.8	-25.8	17.3	0.00e+00	0	43	0	546308096	10	4036
2026-01-17 13:11:15.94	191.66	15.67	-24.8	-25.7	17.3	5.70e-06	0	43	0	552599552	10	4023
2026-01-17 13:11:16.95	191.75	15.77	-24.7	-25.5	17.4	0.00e+00	0	43	0	557842432	10	3963
2026-01-17 13:11:17.95	191.84	15.88	-25.0	-26.2	17.1	0.00e+00	0	43	0	563085312	10	4143
2026-01-17 13:11:18.95	191.93	15.98	-24.9	-26.0	17.1	4.50e-06	0	43	0	569376768	10	4105
2026-01-17 13:11:19.95	192.02	16.08	-25.0	-26.2	17.0	0.00e+00	0	43	0	574619648	10	4147
2026-01-17 13:11:20.96	192.11	16.18	-25.1	-26.4	17.0	0.00e+00	0	43	0	579862528	10	4194
2026-01-17 13:11:21.96	192.20	16.29	-25.0	-26.3	17.0	1.02e-05	0	43	0	586153984	10	4164
2026-01-17 13:11:22.96	192.29	16.39	-25.2	-26.6	16.9	0.00e+00	0	43	0	591396864	10	4241
2026-01-17 13:11:23.97	192.38	16.50	-24.9	-26.0	17.2	0.00e+00	0	43	0	596639744	10	4081
2026-01-17 13:11:24.97	192.47	16.60	-25.0	-26.3	17.0	9.10e-06	0	43	0	602931200	10	4157
2026-01-17 13:11:25.97	192.57	16.71	-24.8	-25.7	17.3	0.00e+00	0	43	0	608174080	10	4022
2026-01-17 13:11:26.97	192.66	16.81	-25.1	-26.5	16.9	0.00e+00	0	43	0	614465536	10	4226
2026-01-17 13:11:27.97	192.75	16.92	-24.8	-25.8	17.3	6.80e-06	0	43	0	619708416	10	4047
2026-01-17 13:11:28.97	192.85	17.02	-24.7	-25.5	17.4	0.00e+00	0	43	0	625999872	10	3971
2026-01-17 13:11:29.98	192.94	17.13	-24.5	-25.2	17.6	0.00e+00	0	43	0	631242752	10	3884
2026-01-17 13:11:30.99	193.04	17.24	-24.5	-25.3	17.6	6.80e-06	0	43	0	636485632	10	3910
2026-01-17 13:11:31.99	193.14	17.34	-24.5	-25.2	17.6	0.00e+00	0	43	0	642777088	10	3909
2026-01-17 13:11:32.99	193.23	17.45	-24.6	-25.5	17.5	0.00e+00	0	43	0	648019968	10	3961
2026-01-17 13:11:34.00	193.33	17.56	-24.6	-25.4	17.5	0.00e+00	0	43	0	653262848	10	3934
2026-01-17 13:11:35.01	193.43	17.67	-24.5	-25.2	17.7	0.00e+00	0	43	0	659554304	10	3894
2026-01-17 13:11:36.02	193.53	17.78	-24.6	-25.3	17.6	0.00e+00	0	43	0	664797184	10	3918
2026-01-17 13:11:37.03	193.63	17.89	-24.5	-25.1	17.7	0.00e+00	0	43	0	671088640	10	3878
2026-01-17 13:11:38.03	193.73	18.00	-24.4	-24.9	17.8	0.00e+00	0	43	0	676331520	10	3831
2026-01-17 13:11:39.03	193.83	18.11	-24.3	-24.8	17.9	0.00e+00	0	43	0	681574400	10	3803
2026-01-17 13:11:40.03	193.94	18.22	-24.5	-25.2	17.7	0.00e+00	0	43	0	687865856	10	3883
2026-01-17 13:11:41.04	194.04	18.33	-24.2	-25.1	18.0	0.00e+00	0	43	0	693108736	9	3968
2026-01-17 13:11:42.04	194.14	18.44	-24.2	-25.0	18.0	0.00e+00	0	43	0	699400192	9	3949
2026-01-17 13:11:43.04	194.25	18.55	-24.2	-25.1	17.9	0.00e+00	0	43	0	704643072	9	3983
2026-01-17 13:11:44.04	194.35	18.67	-24.2	-25.0	18.0	0.00e+00	0	43	0	709885952	9	3958
2026-01-17 13:11:45.04	194.46	18.78	-24.3	-25.2	17.9	0.00e+00	0	43	0	716177408	9	4009
2026-01-17 13:11:46.04	194.56	18.89	-24.3	-25.1	17.9	0.00e+00	0	43	0	721420288	9	3988
2026-01-17 13:11:47.04	194.67	19.00	-24.3	-25.3	17.8	0.00e+00	0	43	0	726663168	9	4039
2026-01-17 13:11:48.04	194.78	19.12	-24.2	-25.1	17.9	0.00e+00	0	43	0	732954624	9	3989
2026-01-17 13:11:49.04	194.89	19.23	-24.2	-25.1	17.9	0.00e+00	0	43	0	738197504	9	3984
2026-01-17 13:11:50.05	195.00	19.35	-24.4	-25.5	17.7	0.00e+00	0	43	0	743440384	9	4071
2026-01-17 13:11:51.06	195.11	19.46	-24.2	-25.1	18.0	0.00e+00	0	43	0	749731840	9	3980
2026-01-17 13:11:52.06	195.22	19.58	-24.4	-25.4	17.8	0.00e+00	0	43	0	754974720	9	4060
2026-01-17 13:11:53.07	195.33	19.70	-24.1	-24.9	18.1	0.00e+00	0	43	0	761266176	9	3934
2026-01-17 13:11:54.07	195.45	19.81	-23.9	-24.5	18.3	0.00e+00	0	43	0	766509056	9	3833
2026-01-17 13:11:55.07	195.56	19.93	-24.0	-24.6	18.2	0.00e+00	0	43	0	771751936	9	3855
2026-01-17 13:11:56.06	195.67	20.05	-24.1	-24.8	18.1	0.00e+00	0	43	0	778043392	9	3913
2026-01-17 13:11:57.07	195.79	20.16	-24.0	-24.6	18.2	0.00e+00	0	43	0	783286272	9	3862
2026-01-17 13:11:58.07	195.91	20.28	-24.0	-24.6	18.3	0.00e+00	0	43	0	789577728	9	3852
2026-01-17 13:11:59.08	196.02	20.40	-24.1	-24.8	18.2	0.00e+00	0	43	0	794820608	9	3904
2026-01-17 13:12:00.08	196.14	20.52	-24.0	-24.7	18.2	0.00e+00	0	43	0	800063488	9	3872
2026-01-17 13:12:01.08	196.26	20.64	-24.0	-24.7	18.2	0.00e+00	0	43	0	806354944	9	3871
2026-01-17 13:12:02.08	196.38	20.76	-24.1	-24.8	18.2	0.00e+00	0	43	0	811597824	9	3908
2026-01-17 13:12:03.08	196.50	20.88	-24.0	-24.7	18.2	0.00e+00	0	43	0	817889280	9	3878
2026-01-17 13:12:04.08	196.62	21.00	-23.9	-24.5	18.3	0.00e+00	0	43	0	823132160	9	3839
2026-01-17 13:12:05.08	196.74	21.12	-23.9	-24.5	18.3	0.00e+00	0	43	0	828375040	9	3827
2026-01-17 13:12:06.08	196.87	21.24	-24.0	-24.6	18.2	0.00e+00	0	43	0	834666496	9	3870
2026-01-17 13:12:07.09	196.99	21.37	-23.9	-24.3	18.4	0.00e+00	0	43	0	839909376	9	3796
2026-01-17 13:12:08.09	197.12	21.49	-23.8	-24.6	18.6	0.00e+00	0	43	0	845152256	8	3967
2026-01-17 13:12:09.10	197.25	21.61	-23.8	-24.7	18.5	0.00e+00	0	43	0	851443712	8	3980
2026-01-17 13:12:10.10	197.37	21.74	-23.8	-24.7	18.5	0.00e+00	0	43	0	856686592	8	3981
2026-01-17 13:12:11.11	197.50	21.86	-23.7	-24.4	18.6	0.00e+00	0	43	0	861929472	8	3923
2026-01-17 13:12:12.12	197.63	21.99	-23.7	-24.5	18.6	0.00e+00	0	43	0	868220928	8	3933
2026-01-17 13:12:13.12	197.76	22.11	-24.0	-25.0	18.3	0.00e+00	0	43	0	873463808	8	4073
2026-01-17 13:12:14.12	197.89	22.24	-23.8	-24.7	18.5	0.00e+00	0	43	0	879755264	8	3986
2026-01-17 13:12:15.12	198.03	22.36	-23.7	-24.6	18.6	0.00e+00	0	43	0	884998144	8	3956
2026-01-17 13:12:16.12	198.16	22.49	-23.7	-24.4	18.6	0.00e+00	0	43	0	891289600	8	3925
2026-01-17 13:12:17.12	198.29	22.62	-23.7	-24.6	18.6	0.00e+00	0	43	0	896532480	8	3957
2026-01-17 13:12:18.11	198.43	22.74	-23.9	-25.0	18.4	0.00e+00	0	43	0	901775360	8	4050
2026-01-17 13:12:19.12	198.56	22.87	-23.6	-24.2	18.8	0.00e+00	0	43	0	907018240	8	3872
2026-01-17 13:12:20.12	198.70	23.00	-23.4	-23.9	18.9	0.00e+00	0	43	0	913309696	8	3798
2026-01-17 13:12:21.12	198.84	23.13	-23.4	-24.0	18.9	5.70e-06	0	43	0	918552576	8	3820
2026-01-17 13:12:22.12	198.98	23.26	-23.6	-24.2	18.8	0.00e+00	0	43	0	924844032	8	3879
2026-01-17 13:12:23.13	199.12	23.39	-23.5	-24.0	18.9	0.00e+00	0	43	0	930086912	8	3813
2026-01-17 13:12:24.13	199.26	23.52	-23.6	-24.3	18.8	0.00e+00	0	43	0	935329792	8	3881
2026-01-17 13:12:25.13	199.41	23.65	-23.3	-23.7	19.0	0.00e+00	0	43	0	941621248	8	3758
2026-01-17 13:12:26.13	199.55	23.78	-23.4	-24.0	18.9	0.00e+00	0	43	0	946864128	8	3815
2026-01-17 13:12:27.14	199.70	23.91	-23.3	-23.6	19.1	0.00e+00	0	43	0	953155584	8	3745
2026-01-17 13:12:28.14	199.85	24.05	-23.3	-23.6	19.1	0.00e+00	0	43	0	958398464	8	3739
2026-01-17 13:12:29.14	199.99	24.18	-23.1	-23.8	19.2	0.00e+00	0	43	0	963641344	7	3888
2026-01-17 13:12:30.14	200.14	24.31	-23.2	-23.9	19.2	5.70e-06	0	43	0	969932800	7	3906
2026-01-17 13:12:31.14	200.29	24.45	-23.3	-24.1	19.1	0.00e+00	0	43	0	975175680	7	3953
2026-01-17 13:12:32.15	200.45	24.58	-23.4	-24.4	18.9	0.00e+00	0	43	0	980418560	7	4025
2026-01-17 13:12:33.14	200.60	24.71	-23.2	-24.0	19.1	4.50e-06	0	43	0	986710016	7	3934
2026-01-17 13:12:34.14	200.75	24.85	-23.1	-23.7	19.3	0.00e+00	0	43	0	991952896	7	3859
2026-01-17 13:12:35.14	200.91	24.98	-23.0	-23.6	19.3	0.00e+00	0	43	0	997195776	7	3832
2026-01-17 13:12:36.15	201.07	25.12	-23.1	-23.6	19.3	5.70e-06	0	43	0	1003487232	7	3845
2026-01-17 13:12:37.15	201.22	25.26	-23.2	-23.9	19.2	0.00e+00	0	43	0	1008730112	7	3902
2026-01-17 13:12:38.15	201.38	25.40	-23.4	-24.3	18.9	0.00e+00	0	43	0	1015021568	7	4012
2026-01-17 13:12:39.16	201.55	25.53	-23.1	-23.7	19.3	8.00e-06	0	43	0	1020264448	7	3870
2026-01-17 13:12:40.16	201.71	25.67	-23.0	-23.5	19.4	0.00e+00	0	43	0	1025507328	7	3817
2026-01-17 13:12:41.16	201.87	25.81	-23.0	-23.5	19.4	0.00e+00	0	43	0	1031798784	7	3821
2026-01-17 13:12:42.17	202.04	25.95	-23.1	-23.7	19.3	3.40e-06	0	43	0	1037041664	7	3863
2026-01-17 13:12:43.17	202.20	26.09	-23.0	-23.5	19.4	0.00e+00	0	43	0	1043333120	7	3802
2026-01-17 13:12:44.18	202.37	26.23	-23.0	-23.6	19.4	0.00e+00	0	43	0	1048576000	7	3826
2026-01-17 13:12:45.19	202.54	26.37	-23.0	-23.5	19.4	2.20e-06	0	43	0	1053818880	7	3817
2026-01-17 13:12:46.19	202.72	26.51	-23.0	-23.6	19.4	0.00e+00	0	43	0	1060110336	7	3827
2026-01-17 13:12:47.19	202.89	26.65	-22.9	-23.4	19.5	0.00e+00	0	43	0	1065353216	7	3790
2026-01-17 13:12:48.19	203.06	26.80	-23.0	-23.5	19.4	3.40e-06	0	43	0	1070596096	7	3815
2026-01-17 13:12:49.19	203.24	26.94	-23.0	-23.5	19.4	0.00e+00	0	43	0	1076887552	7	3819
2026-01-17 13:12:50.19	203.41	27.08	-22.9	-23.4	19.5	0.00e+00	0	43	0	1082130432	7	3784
2026-01-17 13:12:51.19	203.59	27.22	-23.0	-23.6	19.4	0.00e+00	0	43	0	1088421888	7	3836
2026-01-17 13:12:52.19	203.77	27.37	-23.1	-23.6	19.3	0.00e+00	0	43	0	1093664768	7	3848
2026-01-17 13:12:53.19	203.95	27.51	-22.9	-23.3	19.5	0.00e+00	0	43	0	1098907648	7	3785
2026-01-17 13:12:54.20	204.14	27.66	-23.1	-23.7	19.3	0.00e+00	0	43	0	1105199104	7	3856
2026-01-17 13:12:55.20	204.32	27.80	-22.9	-23.3	19.5	0.00e+00	0	43	0	1110441984	7	3771
2026-01-17 13:12:56.20	204.51	27.95	-23.0	-23.4	19.5	0.00e+00	0	43	0	1115684864	7	3799
2026-01-17 13:12:57.20	204.70	28.09	-22.8	-23.1	19.6	0.00e+00	0	43	0	1121976320	7	3719
2026-01-17 13:12:58.20	204.89	28.24	-23.0	-23.6	19.4	0.00e+00	0	43	0	1127219200	7	3835
2026-01-17 13:12:59.19	205.08	28.38	-22.9	-23.4	19.5	0.00e+00	0	43	0	1132462080	7	3787
2026-01-17 13:13:00.20	205.27	28.53	-23.0	-23.5	19.5	0.00e+00	0	43	0	1138753536	7	3811
2026-01-17 13:13:01.20	205.47	28.68	-22.9	-23.4	19.5	0.00e+00	0	43	0	1143996416	7	3786
2026-01-17 13:13:02.21	205.66	28.83	-23.0	-23.5	19.4	0.00e+00	0	43	0	1150287872	7	3820
2026-01-17 13:13:03.21	205.86	28.98	-23.1	-23.6	19.3	0.00e+00	0	43	0	1155530752	7	3845
2026-01-17 13:13:04.21	206.06	29.13	-23.0	-23.5	19.4	0.00e+00	0	43	0	1160773632	7	3825
2026-01-17 13:13:05.21	206.26	29.28	-22.9	-23.4	19.5	0.00e+00	0	43	0	1167065088	7	3793
2026-01-17 13:13:06.21	206.47	29.43	-23.0	-23.5	19.4	0.00e+00	0	43	0	1172307968	7	3817
2026-01-17 13:13:07.21	206.67	29.58	-22.8	-23.2	19.6	0.00e+00	0	43	0	1177550848	7	3740
2026-01-17 13:13:08.20	206.88	29.73	-22.8	-23.2	19.6	0.00e+00	0	43	0	1183842304	7	3743
2026-01-17 13:13:09.21	207.09	29.88	-22.9	-23.2	19.6	0.00e+00	0	43	0	1189085184	7	3757
2026-01-17 13:13:10.20	207.30	30.03	-23.0	-23.5	19.5	0.00e+00	0	43	0	1194328064	7	3806
2026-01-17 13:13:11.21	207.52	30.18	-22.9	-23.3	19.6	0.00e+00	0	43	0	1200619520	7	3773
2026-01-17 13:13:12.21	207.73	30.33	-22.9	-23.3	19.5	0.00e+00	0	43	0	1205862400	7	3772
2026-01-17 13:13:13.22	207.95	30.49	-23.0	-23.5	19.5	0.00e+00	0	43	0	1212153856	7	3803
2026-01-17 13:13:14.21	208.17	30.64	-22.9	-23.2	19.6	0.00e+00	0	43	0	1217396736	7	3747
2026-01-17 13:13:15.21	208.39	30.79	-22.9	-23.2	19.6	0.00e+00	0	43	0	1222639616	7	3752
2026-01-17 13:13:16.22	208.62	30.95	-22.9	-23.3	19.6	0.00e+00	0	43	0	1228931072	7	3763
2026-01-17 13:13:17.22	208.84	31.10	-22.9	-23.4	19.6	0.00e+00	0	43	0	1234173952	7	3786
2026-01-17 13:13:18.23	209.07	31.25	-23.0	-23.6	19.5	0.00e+00	0	43	0	1240465408	7	3827
2026-01-17 13:13:19.23	209.30	31.41	-22.8	-23.1	19.7	0.00e+00	0	43	0	1245708288	7	3731
2026-01-17 13:13:20.23	209.53	31.56	-22.7	-23.3	19.8	0.00e+00	0	43	0	1250951168	6	3873
2026-01-17 13:13:21.24	209.77	31.72	-22.7	-23.4	19.8	0.00e+00	0	43	0	1257242624	6	3897
2026-01-17 13:13:22.24	210.01	31.88	-22.8	-23.6	19.7	0.00e+00	0	43	0	1262485504	6	3950
2026-01-17 13:13:23.25	210.25	32.03	-22.7	-23.4	19.8	0.00e+00	0	43	0	1267728384	6	3904
2026-01-17 13:13:24.25	210.49	32.19	-22.8	-23.6	19.7	0.00e+00	0	43	0	1274019840	6	3950
2026-01-17 13:13:25.25	210.73	32.35	-23.0	-23.9	19.6	0.00e+00	0	43	0	1279262720	6	4014
2026-01-17 13:13:26.26	210.98	32.50	-23.0	-24.1	19.4	0.00e+00	0	43	0	1285554176	6	4060
2026-01-17 13:13:27.26	211.23	32.66	-23.0	-24.0	19.5	0.00e+00	0	43	0	1290797056	6	4049
2026-01-17 13:13:28.26	211.48	32.82	-22.9	-23.9	19.5	0.00e+00	0	43	0	1296039936	6	4007
2026-01-17 13:13:29.27	211.73	32.98	-23.1	-24.2	19.4	0.00e+00	0	43	0	1302331392	6	4076
2026-01-17 13:13:30.27	211.99	33.13	-23.4	-24.8	19.1	0.00e+00	0	43	0	1307574272	6	4230
2026-01-17 13:13:31.27	212.24	33.29	-23.6	-24.7	19.1	0.00e+00	0	43	0	1312817152	7	4067
2026-01-17 13:13:32.27	212.50	33.45	-23.2	-23.9	19.5	0.00e+00	0	43	0	1319108608	7	3884
2026-01-17 13:13:33.28	212.77	33.61	-23.1	-23.7	19.6	0.00e+00	0	43	0	1324351488	7	3847
2026-01-17 13:13:34.28	213.03	33.77	-23.2	-23.8	19.6	0.00e+00	0	43	0	1330642944	7	3854
2026-01-17 13:13:35.28	213.30	33.92	-23.2	-23.8	19.6	0.00e+00	0	43	0	1335885824	7	3856
2026-01-17 13:13:36.29	213.57	34.08	-23.2	-23.9	19.5	0.00e+00	0	43	0	1341128704	7	3889
2026-01-17 13:13:37.29	213.85	34.24	-23.2	-23.8	19.6	0.00e+00	0	43	0	1347420160	7	3858
2026-01-17 13:13:38.29	214.12	34.40	-23.0	-23.4	19.8	0.00e+00	0	43	0	1352663040	7	3769
2026-01-17 13:13:39.28	214.40	34.56	-22.8	-23.1	19.9	0.00e+00	0	43	0	1358954496	7	3709
2026-01-17 13:13:40.28	214.68	34.72	-22.8	-23.4	20.0	0.00e+00	0	43	0	1364197376	6	3878
2026-01-17 13:13:41.28	214.96	34.87	-22.7	-23.3	20.1	1.10e-06	0	43	0	1369440256	6	3855
2026-01-17 13:13:42.29	215.25	35.04	-22.6	-23.2	20.2	0.00e+00	0	43	0	1375731712	6	3823
2026-01-17 13:13:43.29	215.54	35.19	-22.7	-23.3	20.1	0.00e+00	0	43	0	1380974592	6	3859
2026-01-17 13:13:44.30	215.83	35.35	-22.8	-23.5	20.0	0.00e+00	0	43	0	1386217472	6	3907
2026-01-17 13:13:45.30	216.13	35.51	-22.7	-23.4	20.0	0.00e+00	0	43	0	1392508928	6	3877
2026-01-17 13:13:46.31	216.43	35.67	-22.9	-23.7	19.9	0.00e+00	0	43	0	1397751808	6	3951
2026-01-17 13:13:47.31	216.73	35.83	-22.9	-23.7	19.9	0.00e+00	0	43	0	1402994688	6	3953
2026-01-17 13:13:48.30	217.03	35.99	-22.9	-23.6	19.9	0.00e+00	0	43	0	1409286144	6	3928
2026-01-17 13:13:49.31	217.34	36.15	-22.7	-23.3	20.1	0.00e+00	0	43	0	1414529024	6	3855
2026-01-17 13:13:50.32	217.65	36.31	-22.6	-23.1	20.2	0.00e+00	0	43	0	1420820480	6	3808
2026-01-17 13:13:51.32	217.96	36.47	-22.6	-23.0	20.3	0.00e+00	0	43	0	1426063360	6	3776
2026-01-17 13:13:52.33	218.28	36.63	-22.4	-22.6	20.4	0.00e+00	0	43	0	1432354816	6	3705
2026-01-17 13:13:53.33	218.60	36.78	-22.4	-22.7	20.4	0.00e+00	0	43	0	1437597696	6	3723
2026-01-17 13:13:54.33	218.92	36.94	-22.5	-22.9	20.3	0.00e+00	0	43	0	1442840576	6	3772
2026-01-17 13:13:55.34	219.24	37.10	-22.6	-23.1	20.2	0.00e+00	0	43	0	1449132032	6	3821
2026-01-17 13:13:56.33	219.57	37.26	-22.6	-23.1	20.2	0.00e+00	0	43	0	1454374912	6	3810
2026-01-17 13:13:57.33	219.90	37.41	-22.7	-23.3	20.1	0.00e+00	0	43	0	1459617792	6	3864
2026-01-17 13:13:58.33	220.23	37.57	-22.7	-23.3	20.1	0.00e+00	0	43	0	1465909248	6	3849
2026-01-17 13:13:59.33	220.57	37.73	-22.7	-23.3	20.1	0.00e+00	0	43	0	1471152128	6	3846
2026-01-17 13:14:00.33	220.91	37.88	-22.6	-23.0	20.3	0.00e+00	0	43	0	1476395008	6	3783
2026-01-17 13:14:01.34	221.25	38.04	-22.6	-23.2	20.2	0.00e+00	0	43	0	1482686464	6	3823
2026-01-17 13:14:02.35	221.60	38.19	-22.9	-23.6	20.0	0.00e+00	0	43	0	1487929344	6	3927
2026-01-17 13:14:03.34	221.95	38.35	-22.9	-23.7	19.9	0.00e+00	0	43	0	1494220800	6	3961
2026-01-17 13:14:04.34	222.30	38.50	-22.9	-23.8	19.9	0.00e+00	0	43	0	1499463680	6	3964
2026-01-17 13:14:05.34	222.66	38.66	-22.8	-23.5	20.0	0.00e+00	0	43	0	1504706560	6	3907
2026-01-17 13:14:06.35	223.02	38.81	-23.0	-23.9	19.8	0.00e+00	0	43	0	1510998016	6	3995
2026-01-17 13:14:07.34	223.38	38.96	-22.8	-23.5	20.0	0.00e+00	0	43	0	1516240896	6	3903
2026-01-17 13:14:08.34	223.74	39.11	-22.7	-23.3	20.1	0.00e+00	0	43	0	1521483776	6	3859
2026-01-17 13:14:09.35	224.12	39.26	-22.7	-23.3	20.1	0.00e+00	0	43	0	1527775232	6	3860
2026-01-17 13:14:10.35	224.49	39.42	-22.8	-23.4	20.1	0.00e+00	0	43	0	1533018112	6	3880
2026-01-17 13:14:11.35	224.86	39.57	-22.9	-23.7	19.9	0.00e+00	0	43	0	1539309568	6	3955
2026-01-17 13:14:12.36	225.25	39.72	-23.1	-24.1	19.7	0.00e+00	0	43	0	1544552448	6	4038
2026-01-17 13:14:13.35	225.63	39.86	-22.7	-23.2	20.2	0.00e+00	0	43	0	1549795328	6	3842
2026-01-17 13:14:14.35	226.01	40.01	-22.6	-23.1	20.2	0.00e+00	0	43	0	1556086784	6	3823
2026-01-17 13:14:15.36	226.41	40.16	-22.7	-23.2	20.2	0.00e+00	0	43	0	1561329664	6	3840
2026-01-17 13:14:16.36	226.80	40.30	-22.6	-23.0	20.3	0.00e+00	0	43	0	1566572544	6	3778
2026-01-17 13:14:17.36	227.20	40.45	-22.4	-22.6	20.4	0.00e+00	0	43	0	1572864000	6	3704
2026-01-17 13:14:18.36	227.60	40.59	-22.4	-22.7	20.4	0.00e+00	0	43	0	1578106880	6	3722
2026-01-17 13:14:19.37	228.01	40.74	-22.6	-23.0	20.3	0.00e+00	0	43	0	1583349760	6	3788
2026-01-17 13:14:20.37	228.41	40.88	-22.5	-22.8	20.4	0.00e+00	0	43	0	1589641216	6	3743
2026-01-17 13:14:21.38	228.83	41.02	-22.3	-22.5	20.5	0.00e+00	0	43	0	1594884096	6	3667
2026-01-17 13:14:22.37	229.24	41.16	-22.4	-22.7	20.5	0.00e+00	0	43	0	1601175552	6	3716
2026-01-17 13:14:23.38	229.66	41.30	-22.4	-22.6	20.5	0.00e+00	0	43	0	1606418432	6	3706
2026-01-17 13:14:24.38	230.08	41.44	-22.3	-22.5	20.6	0.00e+00	0	43	0	1612709888	6	3669
2026-01-17 13:14:25.38	230.51	41.57	-22.4	-22.7	20.4	0.00e+00	0	43	0	1617952768	6	3725
2026-01-17 13:14:26.37	230.93	41.71	-22.5	-22.9	20.4	0.00e+00	0	43	0	1623195648	6	3768
2026-01-17 13:14:27.37	231.36	41.84	-22.5	-22.8	20.4	0.00e+00	0	43	0	1629487104	6	3736
2026-01-17 13:14:28.37	231.80	41.97	-22.4	-22.8	20.4	0.00e+00	0	43	0	1634729984	6	3732
2026-01-17 13:14:29.37	232.24	42.10	-22.5	-22.8	20.4	0.00e+00	0	43	0	1639972864	6	3741
2026-01-17 13:14:30.38	232.68	42.24	-22.4	-22.7	20.4	0.00e+00	0	43	0	1646264320	6	3730
2026-01-17 13:14:31.38	233.13	42.36	-22.5	-22.9	20.3	0.00e+00	0	43	0	1651507200	6	3772
2026-01-17 13:14:32.39	233.59	42.49	-22.7	-23.2	20.2	0.00e+00	0	43	0	1656750080	6	3834
2026-01-17 13:14:33.39	234.04	42.62	-22.8	-23.6	20.0	0.00e+00	0	43	0	1663041536	6	3915
2026-01-17 13:14:34.39	234.50	42.74	-22.8	-23.4	20.1	0.00e+00	0	43	0	1668284416	6	3884
2026-01-17 13:14:35.39	234.96	42.86	-22.8	-23.5	20.1	0.00e+00	0	43	0	1674575872	6	3891
2026-01-17 13:14:36.39	235.42	42.98	-22.9	-23.7	19.9	0.00e+00	0	43	0	1679818752	6	3960
2026-01-17 13:14:37.40	235.89	43.10	-22.8	-23.5	20.1	0.00e+00	0	43	0	1685061632	6	3893
2026-01-17 13:14:38.40	236.36	43.22	-22.7	-23.2	20.2	0.00e+00	0	43	0	1691353088	6	3824
2026-01-17 13:14:39.40	236.83	43.34	-22.8	-23.5	20.1	0.00e+00	0	43	0	1696595968	6	3892
2026-01-17 13:14:40.40	237.31	43.45	-23.1	-24.1	19.8	0.00e+00	0	43	0	1701838848	6	4038
2026-01-17 13:14:41.40	237.79	43.56	-23.2	-24.4	19.6	0.00e+00	0	43	0	1708130304	6	4120
2026-01-17 13:14:42.41	238.28	43.67	-23.4	-24.7	19.5	0.00e+00	0	43	0	1713373184	6	4197
2026-01-17 13:14:43.41	238.77	43.78	-23.3	-24.6	19.5	0.00e+00	0	43	0	1718616064	6	4160
2026-01-17 13:14:44.42	239.26	43.89	-23.4	-24.7	19.5	0.00e+00	0	43	0	1724907520	6	4202
2026-01-17 13:14:45.42	239.76	43.99	-23.5	-24.4	19.4	0.00e+00	0	43	0	1730150400	7	4006
2026-01-17 13:14:46.42	240.25	44.09	-23.4	-24.3	19.5	0.00e+00	0	43	0	1736441856	7	3974
2026-01-17 13:14:47.42	240.75	44.19	-23.0	-23.5	19.9	0.00e+00	0	43	0	1741684736	7	3785
2026-01-17 13:14:48.42	241.26	44.29	-22.9	-23.2	20.0	0.00e+00	0	43	0	1747976192	7	3723
2026-01-17 13:14:49.42	241.76	44.38	-23.1	-23.6	19.8	0.00e+00	0	43	0	1753219072	7	3814
2026-01-17 13:14:50.41	242.27	44.48	-23.1	-23.7	19.7	0.00e+00	0	43	0	1758461952	7	3835
2026-01-17 13:14:51.41	242.78	44.57	-23.3	-24.1	19.6	0.00e+00	0	43	0	1763704832	7	3918
2026-01-17 13:14:52.41	243.29	44.66	-23.5	-24.4	19.4	0.00e+00	0	43	0	1769996288	7	3997
2026-01-17 13:14:53.41	243.81	44.74	-23.2	-23.8	19.7	0.00e+00	0	43	0	1775239168	7	3873
2026-01-17 13:14:54.41	244.33	44.83	-22.9	-23.3	19.9	0.00e+00	0	43	0	1780482048	7	3754
2026-01-17 13:14:55.41	244.85	44.91	-22.8	-22.9	20.1	0.00e+00	0	43	0	1786773504	7	3663
2026-01-17 13:14:56.42	245.38	44.99	-22.7	-23.4	20.1	0.00e+00	0	43	0	1792016384	6	3866
2026-01-17 13:14:57.42	245.91	45.06	-22.8	-23.5	20.1	0.00e+00	0	43	0	1798307840	6	3900
2026-01-17 13:14:58.42	246.44	45.14	-22.8	-23.5	20.1	3.40e-06	0	43	0	1803550720	6	3905
2026-01-17 13:14:59.43	246.98	45.21	-22.9	-23.7	20.0	0.00e+00	0	43	0	1809842176	6	3937
2026-01-17 13:15:00.44	247.52	45.28	-22.9	-23.8	20.0	0.00e+00	0	43	0	1815085056	6	3969
2026-01-17 13:15:01.44	248.06	45.35	-22.9	-23.7	20.0	0.00e+00	0	43	0	1820327936	6	3942
2026-01-17 13:15:02.44	248.60	45.41	-22.7	-23.3	20.2	0.00e+00	0	43	0	1826619392	6	3842
2026-01-17 13:15:03.44	249.14	45.47	-22.8	-23.4	20.1	0.00e+00	0	43	0	1831862272	6	3876
2026-01-17 13:15:04.44	249.68	45.53	-22.7	-23.4	20.1	0.00e+00	0	43	0	1837105152	6	3874
2026-01-17 13:15:05.44	250.23	45.58	-22.7	-23.3	20.2	0.00e+00	0	43	0	1843396608	6	3849
2026-01-17 13:15:06.44	250.77	45.64	-22.7	-23.3	20.2	0.00e+00	0	43	0	1848639488	6	3856
2026-01-17 13:15:07.43	251.32	45.69	-23.0	-24.0	19.9	0.00e+00	0	43	0	1853882368	6	4011
2026-01-17 13:15:08.43	251.87	45.73	-23.2	-24.2	19.7	0.00e+00	0	43	0	1860173824	6	4081
2026-01-17 13:15:09.44	252.43	45.78	-23.0	-23.8	19.9	0.00e+00	0	43	0	1865416704	6	3978
2026-01-17 13:15:10.45	252.99	45.82	-22.9	-23.7	20.0	0.00e+00	0	43	0	1871708160	6	3954
2026-01-17 13:15:11.45	253.54	45.86	-23.0	-24.0	19.8	0.00e+00	0	43	0	1876951040	6	4028
2026-01-17 13:15:12.46	254.10	45.90	-22.8	-23.6	20.1	0.00e+00	0	43	0	1882193920	6	3914
2026-01-17 13:15:13.47	254.67	45.93	-22.7	-23.3	20.2	2.20e-06	0	43	0	1888485376	6	3844
2026-01-17 13:15:14.47	255.23	45.96	-22.8	-23.5	20.1	0.00e+00	0	43	0	1893728256	6	3889
2026-01-17 13:15:15.47	255.79	45.99	-22.9	-23.8	20.0	0.00e+00	0	43	0	1900019712	6	3965
2026-01-17 13:15:16.47	256.35	46.01	-22.7	-23.3	20.2	0.00e+00	0	44	0	1905262592	6	3854
2026-01-17 13:15:17.48	256.91	46.03	-22.6	-23.1	20.3	0.00e+00	0	43	0	1910505472	6	3816
2026-01-17 13:15:18.48	257.48	46.05	-22.7	-23.3	20.2	0.00e+00	0	43	0	1916796928	6	3858
2026-01-17 13:15:19.47	258.03	46.07	-22.8	-23.5	20.1	2.20e-06	0	43	0	1922039808	6	3905
2026-01-17 13:15:20.47	258.60	46.08	-23.0	-24.0	19.9	0.00e+00	0	43	0	1927282688	6	4012
2026-01-17 13:15:21.47	259.16	46.09	-22.9	-23.8	20.0	0.00e+00	0	43	0	1933574144	6	3963
2026-01-17 13:15:22.48	259.73	46.09	-23.0	-23.9	19.9	2.20e-06	0	43	0	1938817024	6	3982
2026-01-17 13:15:23.48	260.29	46.10	-22.9	-23.8	19.9	0.00e+00	0	43	0	1945108480	6	3964
2026-01-17 13:15:24.47	260.85	46.10	-23.0	-23.9	19.9	0.00e+00	0	43	0	1950351360	6	3991
2026-01-17 13:15:25.48	261.42	46.09	-23.1	-24.0	19.8	0.00e+00	0	43	0	1955594240	6	4033
2026-01-17 13:15:26.48	261.99	46.09	-22.9	-23.7	20.0	0.00e+00	0	43	0	1961885696	6	3950
2026-01-17 13:15:27.49	262.56	46.08	-22.8	-23.4	20.2	0.00e+00	0	43	0	1967128576	6	3871
2026-01-17 13:15:28.49	263.12	46.07	-22.8	-23.6	20.1	0.00e+00	0	43	0	1972371456	6	3918
2026-01-17 13:15:29.50	263.69	46.05	-23.3	-24.5	19.6	0.00e+00	0	43	0	1978662912	6	4146
2026-01-17 13:15:30.49	264.24	46.04	-23.4	-24.1	19.5	0.00e+00	0	43	0	1983905792	7	3943
2026-01-17 13:15:31.50	264.81	46.02	-23.2	-23.7	19.8	0.00e+00	0	43	0	1989148672	7	3849
2026-01-17 13:15:32.50	265.37	45.99	-23.1	-23.7	19.8	0.00e+00	0	43	0	1995440128	7	3828
2026-01-17 13:15:33.50	265.93	45.97	-23.0	-23.4	19.9	0.00e+00	0	43	0	2000683008	7	3777
2026-01-17 13:15:34.51	266.50	45.94	-23.2	-23.8	19.7	1.10e-06	0	43	0	2006974464	7	3867
2026-01-17 13:15:35.51	267.05	45.90	-23.1	-23.6	19.8	0.00e+00	0	43	0	2012217344	7	3807
2026-01-17 13:15:36.52	267.62	45.87	-22.9	-23.2	20.0	0.00e+00	0	43	0	2017460224	7	3723
2026-01-17 13:15:37.51	268.17	45.83	-23.0	-23.3	19.9	0.00e+00	0	43	0	2023751680	7	3747
2026-01-17 13:15:38.51	268.72	45.79	-23.2	-23.8	19.7	0.00e+00	0	43	0	2028994560	7	3861
2026-01-17 13:15:39.51	269.27	45.75	-23.4	-24.2	19.5	0.00e+00	0	43	0	2034237440	7	3968
2026-01-17 13:15:40.51	269.82	45.70	-23.1	-23.6	19.8	0.00e+00	0	43	0	2040528896	7	3820
2026-01-17 13:15:41.51	270.37	45.65	-23.0	-23.4	19.9	0.00e+00	0	43	0	2045771776	7	3762
2026-01-17 13:15:42.51	270.92	45.60	-23.1	-23.6	19.8	0.00e+00	0	43	0	2051014656	7	3809
2026-01-17 13:15:43.51	271.47	45.54	-23.2	-23.8	19.7	0.00e+00	0	43	0	2057306112	7	3865
2026-01-17 13:15:44.51	272.01	45.49	-23.1	-23.7	19.8	0.00e+00	0	43	0	2062548992	7	3831
2026-01-17 13:15:45.51	272.55	45.43	-23.0	-23.5	19.9	0.00e+00	0	43	0	2068840448	7	3792
2026-01-17 13:15:46.52	273.10	45.36	-22.9	-23.3	20.0	0.00e+00	0	43	0	2074083328	7	3740
2026-01-17 13:15:47.53	273.64	45.30	-23.0	-23.4	19.9	0.00e+00	0	43	0	2080374784	7	3775
2026-01-17 13:15:48.53	274.17	45.23	-23.1	-23.7	19.8	0.00e+00	0	43	0	2085617664	7	3828
2026-01-17 13:15:49.52	274.70	45.16	-23.3	-24.1	19.6	0.00e+00	0	43	0	2090860544	7	3929
2026-01-17 13:15:50.53	275.24	45.08	-23.4	-24.2	19.5	0.00e+00	0	43	0	2097152000	7	3965
2026-01-17 13:15:51.53	275.76	45.01	-23.2	-23.9	19.7	0.00e+00	0	43	0	2102394880	7	3884
2026-01-17 13:15:52.54	276.29	44.93	-23.3	-23.9	19.6	0.00e+00	0	43	0	2107637760	7	3890
2026-01-17 13:15:53.54	276.82	44.85	-23.3	-24.1	19.6	0.00e+00	0	43	0	2113929216	7	3925
2026-01-17 13:15:54.54	277.34	44.77	-23.1	-23.7	19.8	0.00e+00	0	43	0	2119172096	7	3836
2026-01-17 13:15:55.54	277.85	44.68	-23.1	-23.5	19.8	0.00e+00	0	43	0	2124414976	7	3801
2026-01-17 13:15:56.54	278.37	44.59	-23.1	-23.6	19.8	0.00e+00	0	43	0	2130706432	7	3811
2026-01-17 13:15:57.54	278.88	44.50	-23.1	-23.6	19.8	0.00e+00	0	43	0	2135949312	7	3821
2026-01-17 13:15:58.54	279.39	44.41	-22.9	-23.3	20.0	0.00e+00	0	43	0	2142240768	7	3745
2026-01-17 13:15:59.55	279.90	44.31	-22.8	-23.1	20.1	0.00e+00	0	43	0	2147483648	7	3706
2026-01-17 13:16:00.55	280.40	44.22	-22.9	-23.2	20.0	0.00e+00	0	43	0	2152726528	7	3736
2026-01-17 13:16:01.55	280.90	44.12	-22.9	-23.3	20.0	0.00e+00	0	43	0	2159017984	7	3748
2026-01-17 13:16:02.55	281.40	44.02	-22.9	-23.1	20.1	0.00e+00	0	43	0	2164260864	7	3705
2026-01-17 13:16:03.56	281.90	43.91	-22.9	-23.1	20.0	0.00e+00	0	43	0	2169503744	7	3713
2026-01-17 13:16:04.56	282.39	43.81	-22.8	-23.0	20.1	0.00e+00	0	43	0	2175795200	7	3689
2026-01-17 13:16:05.57	282.88	43.70	-22.9	-23.3	20.0	0.00e+00	0	43	0	2181038080	7	3744
2026-01-17 13:16:06.56	283.36	43.59	-23.1	-23.7	19.8	0.00e+00	0	43	0	2186280960	7	3830
2026-01-17 13:16:07.56	283.84	43.48	-23.2	-23.8	19.7	0.00e+00	0	43	0	2192572416	7	3873
2026-01-17 13:16:08.56	284.32	43.37	-23.4	-24.1	19.5	0.00e+00	0	43	0	2197815296	7	3938
2026-01-17 13:16:09.56	284.79	43.26	-23.3	-24.1	19.6	0.00e+00	0	43	0	2204106752	7	3929
2026-01-17 13:16:10.56	285.26	43.14	-23.4	-24.2	19.5	0.00e+00	0	43	0	2209349632	7	3968
2026-01-17 13:16:11.56	285.73	43.02	-23.4	-24.1	19.5	0.00e+00	0	43	0	2214592512	7	3942
2026-01-17 13:16:12.56	286.19	42.90	-23.0	-23.5	19.9	0.00e+00	0	43	0	2220883968	7	3786
2026-01-17 13:16:13.56	286.65	42.78	-22.9	-23.2	20.0	0.00e+00	0	43	0	2226126848	7	3729
2026-01-17 13:16:14.56	287.11	42.66	-23.1	-23.5	19.8	0.00e+00	0	43	0	2231369728	7	3799
2026-01-17 13:16:15.56	287.56	42.53	-23.3	-24.0	19.6	0.00e+00	0	43	0	2237661184	7	3905
2026-01-17 13:16:16.57	288.01	42.41	-23.3	-24.0	19.6	0.00e+00	0	43	0	2242904064	7	3905
2026-01-17 13:16:17.58	288.46	42.28	-23.1	-23.5	19.8	0.00e+00	0	43	0	2249195520	7	3803
2026-01-17 13:16:18.58	288.91	42.15	-22.8	-23.0	20.1	0.00e+00	0	43	0	2254438400	7	3686
2026-01-17 13:16:19.58	289.35	42.02	-22.8	-23.0	20.1	0.00e+00	0	43	0	2259681280	7	3678
2026-01-17 13:16:20.58	289.78	41.89	-22.3	-22.7	20.2	0.00e+00	0	43	0	2265972736	6	3796
2026-01-17 13:16:21.58	290.21	41.75	-22.7	-23.3	20.2	0.00e+00	0	43	0	2271215616	6	3857
2026-01-17 13:16:22.58	290.64	41.62	-22.9	-23.7	20.1	0.00e+00	0	43	0	2277507072	6	3946
2026-01-17 13:16:23.58	291.07	41.48	-22.9	-23.7	20.0	0.00e+00	0	43	0	2282749952	6	3954
2026-01-17 13:16:24.58	291.49	41.35	-23.0	-23.9	19.9	0.00e+00	0	43	0	2287992832	6	3992
2026-01-17 13:16:25.58	291.91	41.21	-22.8	-23.5	20.1	0.00e+00	0	43	0	2294284288	6	3894
2026-01-17 13:16:26.58	292.32	41.07	-22.5	-22.8	20.4	0.00e+00	0	43	0	2299527168	6	3746
2026-01-17 13:16:27.57	292.73	40.93	-22.5	-22.8	20.5	0.00e+00	0	43	0	2304770048	6	3743
2026-01-17 13:16:28.57	293.14	40.79	-22.6	-23.1	20.3	0.00e+00	0	43	0	2311061504	6	3802
2026-01-17 13:16:29.57	293.54	40.65	-22.9	-23.7	20.0	0.00e+00	0	43	0	2316304384	6	3945
2026-01-17 13:16:30.57	293.94	40.51	-23.3	-24.5	19.6	0.00e+00	0	43	0	2322595840	6	4139
2026-01-17 13:16:31.57	294.34	40.36	-23.2	-24.4	19.6	0.00e+00	0	43	0	2327838720	6	4118
2026-01-17 13:16:32.57	294.73	40.22	-22.9	-23.8	20.0	0.00e+00	0	43	0	2333081600	6	3963
2026-01-17 13:16:33.58	295.12	40.07	-22.8	-23.4	20.1	0.00e+00	0	43	0	2339373056	6	3871
2026-01-17 13:16:34.58	295.51	39.92	-22.7	-23.3	20.2	0.00e+00	0	43	0	2344615936	6	3863
2026-01-17 13:16:35.58	295.89	39.78	-22.6	-23.1	20.3	0.00e+00	0	43	0	2349858816	6	3805
2026-01-17 13:16:36.58	296.27	39.63	-22.6	-23.0	20.4	0.00e+00	0	43	0	2356150272	6	3779
2026-01-17 13:16:37.58	296.65	39.48	-22.5	-22.9	20.4	0.00e+00	0	43	0	2361393152	6	3754
2026-01-17 13:16:38.57	297.02	39.33	-22.5	-22.9	20.4	0.00e+00	0	43	0	2366636032	6	3754
2026-01-17 13:16:39.58	297.39	39.18	-22.5	-22.9	20.4	0.00e+00	0	43	0	2372927488	6	3773
2026-01-17 13:16:40.58	297.76	39.03	-22.5	-22.9	20.4	0.00e+00	0	43	0	2378170368	6	3764
2026-01-17 13:16:41.59	298.12	38.87	-22.5	-22.9	20.4	0.00e+00	0	43	0	2384461824	6	3769
2026-01-17 13:16:42.59	298.48	38.72	-22.6	-23.0	20.4	0.00e+00	0	43	0	2389704704	6	3779
2026-01-17 13:16:43.60	298.84	38.57	-22.7	-23.2	20.3	0.00e+00	0	43	0	2394947584	6	3821
2026-01-17 13:16:44.60	299.19	38.42	-22.7	-23.2	20.3	0.00e+00	0	43	0	2401239040	6	3830
2026-01-17 13:16:45.60	299.54	38.26	-22.5	-22.9	20.4	0.00e+00	0	43	0	2406481920	6	3766
2026-01-17 13:16:46.59	299.89	38.11	-22.6	-23.0	20.4	0.00e+00	0	43	0	2411724800	6	3781
2026-01-17 13:16:47.59	300.23	37.96	-22.5	-23.0	20.4	0.00e+00	0	43	0	2418016256	6	3778
2026-01-17 13:16:48.59	300.57	37.80	-22.5	-23.0	20.4	0.00e+00	0	44	0	2423259136	6	3776
2026-01-17 13:16:49.60	300.91	37.64	-22.6	-23.1	20.3	0.00e+00	0	44	0	2428502016	6	3801
2026-01-17 13:16:50.60	301.24	37.49	-22.6	-23.1	20.3	0.00e+00	0	43	0	2434793472	6	3814
2026-01-17 13:16:51.60	301.57	37.33	-22.7	-23.4	20.2	0.00e+00	0	43	0	2440036352	6	3867
2026-01-17 13:16:52.61	301.90	37.17	-22.9	-23.7	20.0	0.00e+00	0	43	0	2446327808	6	3954
2026-01-17 13:16:53.61	302.23	37.02	-23.1	-24.0	19.8	0.00e+00	0	43	0	2451570688	6	4033
2026-01-17 13:16:54.61	302.55	36.86	-23.1	-24.2	19.7	0.00e+00	0	43	0	2456813568	6	4078
2026-01-17 13:16:55.61	302.86	36.70	-23.0	-23.8	20.0	0.00e+00	0	43	0	2463105024	6	3976
2026-01-17 13:16:56.61	303.18	36.55	-22.9	-23.6	20.1	0.00e+00	0	43	0	2468347904	6	3915
2026-01-17 13:16:57.61	303.49	36.39	-22.9	-23.7	20.0	0.00e+00	0	44	0	2473590784	6	3934
2026-01-17 13:16:58.61	303.80	36.23	-22.9	-23.7	20.0	0.00e+00	0	43	0	2479882240	6	3956
2026-01-17 13:16:59.61	304.11	36.08	-23.2	-24.3	19.7	0.00e+00	0	43	0	2485125120	6	4104
2026-01-17 13:17:00.61	304.41	35.92	-23.5	-24.5	19.3	0.00e+00	0	43	0	2490368000	7	4038
2026-01-17 13:17:01.62	304.71	35.76	-23.3	-24.0	19.6	0.00e+00	0	43	0	2496659456	7	3915
2026-01-17 13:17:02.62	305.01	35.60	-23.1	-23.6	19.8	0.00e+00	0	43	0	2501902336	7	3809
2026-01-17 13:17:03.63	305.31	35.44	-22.9	-23.3	20.0	0.00e+00	0	43	0	2508193792	7	3741
2026-01-17 13:17:04.62	305.60	35.28	-22.9	-23.3	19.9	0.00e+00	0	43	0	2513436672	7	3736
2026-01-17 13:17:05.63	305.89	35.12	-22.8	-22.9	20.1	0.00e+00	0	43	0	2519728128	7	3661
2026-01-17 13:17:06.63	306.17	34.97	-22.6	-23.1	20.2	0.00e+00	0	43	0	2524971008	6	3815
2026-01-17 13:17:07.63	306.46	34.81	-22.7	-23.2	20.2	0.00e+00	0	43	0	2530213888	6	3836
2026-01-17 13:17:08.62	306.74	34.65	-22.9	-23.7	20.0	0.00e+00	0	43	0	2536505344	6	3942
2026-01-17 13:17:09.63	307.02	34.49	-22.9	-23.8	19.9	0.00e+00	0	43	0	2541748224	6	3962
2026-01-17 13:17:10.63	307.29	34.34	-22.8	-23.4	20.1	0.00e+00	0	43	0	2546991104	6	3879
2026-01-17 13:17:11.64	307.57	34.18	-22.7	-23.2	20.2	0.00e+00	0	43	0	2553282560	6	3830
2026-01-17 13:17:12.64	307.84	34.02	-22.8	-23.5	20.1	0.00e+00	0	43	0	2558525440	6	3895
2026-01-17 13:17:13.64	308.11	33.86	-22.8	-23.5	20.0	0.00e+00	0	43	0	2563768320	6	3910
2026-01-17 13:17:14.65	308.37	33.70	-22.9	-23.6	20.0	0.00e+00	0	43	0	2570059776	6	3935
2026-01-17 13:17:15.65	308.64	33.55	-23.0	-23.9	19.8	0.00e+00	0	43	0	2575302656	6	4009
2026-01-17 13:17:16.66	308.90	33.39	-23.0	-24.0	19.8	0.00e+00	0	43	0	2581594112	6	4015
2026-01-17 13:17:17.66	309.16	33.23	-23.0	-24.0	19.8	0.00e+00	0	43	0	2586836992	6	4017
2026-01-17 13:17:18.66	309.41	33.07	-23.0	-24.0	19.8	0.00e+00	0	43	0	2592079872	6	4023
2026-01-17 13:17:19.66	309.66	32.92	-22.9	-23.7	19.9	0.00e+00	0	43	0	2598371328	6	3941
2026-01-17 13:17:20.66	309.92	32.76	-22.8	-23.5	20.1	0.00e+00	0	43	0	2603614208	6	3891
2026-01-17 13:17:21.66	310.16	32.61	-22.9	-23.6	20.0	0.00e+00	0	43	0	2608857088	6	3921
2026-01-17 13:17:22.66	310.41	32.45	-22.9	-23.8	19.9	0.00e+00	0	43	0	2615148544	6	3971
2026-01-17 13:17:23.66	310.65	32.30	-23.0	-23.9	19.8	0.00e+00	0	43	0	2620391424	6	4004
2026-01-17 13:17:24.67	310.90	32.14	-23.1	-24.1	19.7	0.00e+00	0	43	0	2625634304	6	4055
2026-01-17 13:17:25.67	311.13	31.98	-23.2	-24.4	19.6	0.00e+00	0	43	0	2631925760	6	4121
2026-01-17 13:17:26.66	311.37	31.83	-23.5	-24.9	19.3	0.00e+00	0	43	0	2637168640	6	4242
2026-01-17 13:17:27.67	311.61	31.67	-23.4	-24.3	19.4	0.00e+00	0	43	0	2643460096	7	3984
2026-01-17 13:17:28.68	311.84	31.52	-23.2	-23.8	19.6	0.00e+00	0	43	0	2648702976	7	3854
2026-01-17 13:17:29.68	312.07	31.37	-23.0	-23.5	19.8	0.00e+00	0	44	0	2654994432	7	3799
2026-01-17 13:17:30.68	312.30	31.21	-23.1	-23.5	19.8	0.00e+00	0	44	0	2660237312	7	3800
2026-01-17 13:17:31.68	312.52	31.06	-23.0	-23.3	19.8	0.00e+00	0	43	0	2665480192	7	3750
2026-01-17 13:17:32.68	312.75	30.91	-23.1	-23.6	19.7	0.00e+00	0	43	0	2671771648	7	3812
2026-01-17 13:17:33.68	312.97	30.75	-23.1	-23.7	19.7	0.00e+00	0	43	0	2677014528	7	3836
2026-01-17 13:17:34.68	313.19	30.60	-23.4	-24.2	19.4	0.00e+00	0	43	0	2682257408	7	3961
2026-01-17 13:17:35.68	313.41	30.45	-23.3	-24.1	19.5	0.00e+00	0	43	0	2688548864	7	3923
2026-01-17 13:17:36.69	313.63	30.30	-23.3	-24.0	19.5	0.00e+00	0	43	0	2693791744	7	3924
2026-01-17 13:17:37.69	313.84	30.15	-23.3	-24.1	19.5	0.00e+00	0	43	0	2699034624	7	3928
2026-01-17 13:17:38.68	314.05	30.00	-23.2	-23.9	19.6	0.00e+00	0	43	0	2705326080	7	3881
2026-01-17 13:17:39.69	314.26	29.85	-23.1	-23.7	19.7	0.00e+00	0	43	0	2710568960	7	3838
2026-01-17 13:17:40.70	314.47	29.70	-23.1	-23.7	19.6	0.00e+00	0	43	0	2716860416	7	3849
2026-01-17 13:17:41.70	314.68	29.55	-23.3	-24.0	19.5	0.00e+00	0	43	0	2722103296	7	3917
2026-01-17 13:17:42.71	314.88	29.40	-23.2	-23.7	19.6	0.00e+00	0	44	0	2727346176	7	3847
2026-01-17 13:17:43.71	315.09	29.25	-22.9	-23.1	19.9	0.00e+00	0	43	0	2733637632	7	3711
2026-01-17 13:17:44.71	315.29	29.10	-22.8	-22.9	20.0	0.00e+00	0	43	0	2738880512	7	3670
2026-01-17 13:17:45.70	315.48	28.95	-22.8	-23.4	20.0	0.00e+00	0	43	0	2744123392	6	3884
2026-01-17 13:17:46.71	315.68	28.80	-22.9	-23.6	19.9	0.00e+00	0	43	0	2750414848	6	3927
2026-01-17 13:17:47.72	315.88	28.66	-23.0	-23.8	19.8	0.00e+00	0	43	0	2755657728	6	3978
2026-01-17 13:17:48.72	316.07	28.51	-23.0	-23.9	19.8	0.00e+00	0	44	0	2760900608	6	4007
2026-01-17 13:17:49.72	316.26	28.36	-23.1	-24.2	19.6	0.00e+00	0	43	0	2767192064	6	4072
2026-01-17 13:17:50.72	316.45	28.22	-23.2	-24.3	19.6	0.00e+00	0	43	0	2772434944	6	4097
2026-01-17 13:17:51.72	316.64	28.07	-23.3	-24.6	19.4	0.00e+00	0	43	0	2778726400	6	4168
2026-01-17 13:17:52.72	316.83	27.93	-23.3	-24.6	19.4	0.00e+00	0	43	0	2783969280	6	4184
2026-01-17 13:17:53.73	317.02	27.78	-23.5	-24.9	19.3	0.00e+00	0	43	0	2790260736	6	4239
2026-01-17 13:17:54.73	317.20	27.64	-23.4	-24.8	19.3	0.00e+00	0	43	0	2795503616	6	4229
2026-01-17 13:17:55.73	317.38	27.50	-23.6	-24.6	19.2	0.00e+00	0	43	0	2800746496	7	4061
2026-01-17 13:17:56.73	317.56	27.35	-23.8	-25.0	19.0	0.00e+00	0	43	0	2807037952	7	4159
2026-01-17 13:17:57.74	317.74	27.21	-23.7	-24.9	19.0	0.00e+00	0	43	0	2812280832	7	4132
2026-01-17 13:17:58.75	317.92	27.07	-23.9	-25.4	18.8	0.00e+00	0	43	0	2817523712	7	4246
2026-01-17 13:17:59.75	318.10	26.92	-23.9	-24.8	18.9	0.00e+00	0	43	0	2823815168	8	3996
2026-01-17 13:18:00.74	318.27	26.78	-23.6	-24.2	19.1	0.00e+00	0	43	0	2829058048	8	3852
2026-01-17 13:18:01.75	318.44	26.64	-23.5	-23.9	19.3	0.00e+00	0	43	0	2834300928	8	3786
2026-01-17 13:18:02.75	318.61	26.50	-23.5	-24.0	19.2	0.00e+00	0	43	0	2840592384	8	3810
2026-01-17 13:18:03.75	318.78	26.36	-23.6	-24.1	19.2	0.00e+00	0	43	0	2845835264	8	3842
2026-01-17 13:18:04.76	318.95	26.22	-23.5	-24.0	19.2	0.00e+00	0	43	0	2852126720	8	3809
2026-01-17 13:18:05.75	319.12	26.08	-23.6	-24.1	19.2	0.00e+00	0	43	0	2857369600	8	3824
2026-01-17 13:18:06.76	319.29	25.95	-23.5	-24.0	19.3	0.00e+00	0	43	0	2862612480	8	3797
2026-01-17 13:18:07.75	319.45	25.81	-23.6	-24.2	19.1	0.00e+00	0	43	0	2868903936	8	3850
2026-01-17 13:18:08.75	319.61	25.67	-23.5	-24.0	19.2	0.00e+00	0	43	0	2874146816	8	3800
2026-01-17 13:18:09.76	319.77	25.53	-23.3	-23.6	19.4	0.00e+00	0	43	0	2879389696	8	3709
2026-01-17 13:18:10.77	319.94	25.40	-23.3	-23.6	19.4	0.00e+00	0	43	0	2885681152	8	3714
2026-01-17 13:18:11.76	320.09	25.26	-23.4	-23.7	19.4	0.00e+00	0	43	0	2890924032	8	3736
2026-01-17 13:18:12.77	320.25	25.12	-23.3	-23.6	19.4	0.00e+00	0	43	0	2897215488	8	3714
2026-01-17 13:18:13.77	320.41	24.99	-23.5	-23.9	19.2	0.00e+00	0	43	0	2902458368	8	3785
2026-01-17 13:18:14.77	320.56	24.86	-23.5	-24.0	19.2	0.00e+00	0	43	0	2907701248	8	3813
2026-01-17 13:18:15.78	320.72	24.72	-23.7	-24.4	19.0	0.00e+00	0	43	0	2913992704	8	3897
2026-01-17 13:18:16.78	320.87	24.59	-23.7	-24.5	19.0	0.00e+00	0	43	0	2919235584	8	3931
2026-01-17 13:18:17.79	321.02	24.45	-23.9	-24.7	18.8	1.10e-06	0	43	0	2925527040	8	3981
2026-01-17 13:18:18.79	321.17	24.32	-23.9	-24.9	18.7	0.00e+00	0	43	0	2930769920	8	4025
2026-01-17 13:18:19.79	321.32	24.19	-23.9	-24.9	18.8	0.00e+00	0	43	0	2936012800	8	4015
2026-01-17 13:18:20.79	321.47	24.06	-24.0	-25.0	18.7	0.00e+00	0	43	0	2942304256	8	4057
2026-01-17 13:18:21.79	321.61	23.93	-23.9	-24.8	18.8	0.00e+00	0	43	0	2947547136	8	4001
2026-01-17 13:18:22.79	321.76	23.80	-23.8	-24.6	18.9	0.00e+00	0	43	0	2952790016	8	3949
2026-01-17 13:18:23.79	321.90	23.67	-23.8	-24.7	18.9	0.00e+00	0	43	0	2959081472	8	3964
2026-01-17 13:18:24.79	322.04	23.54	-23.7	-24.4	19.0	0.00e+00	0	43	0	2964324352	8	3892
2026-01-17 13:18:25.80	322.19	23.41	-23.7	-24.4	19.0	0.00e+00	0	43	0	2969567232	8	3892
2026-01-17 13:18:26.79	322.32	23.28	-23.7	-24.3	19.0	0.00e+00	0	43	0	2975858688	8	3858
2026-01-17 13:18:27.79	322.46	23.15	-23.6	-24.2	19.1	0.00e+00	0	43	0	2981101568	8	3843
2026-01-17 13:18:28.79	322.60	23.02	-23.7	-24.4	19.0	0.00e+00	0	43	0	2987393024	8	3898
2026-01-17 13:18:29.79	322.74	22.90	-23.8	-24.5	18.9	0.00e+00	0	43	0	2992635904	8	3927
2026-01-17 13:18:30.79	322.87	22.77	-23.9	-24.9	18.7	0.00e+00	0	43	0	2997878784	8	4013
2026-01-17 13:18:31.79	323.01	22.64	-24.1	-25.2	18.5	0.00e+00	0	43	0	3004170240	8	4087
2026-01-17 13:18:32.80	323.14	22.52	-24.1	-25.3	18.5	0.00e+00	0	43	0	3009413120	8	4118
2026-01-17 13:18:33.80	323.28	22.39	-24.2	-25.4	18.5	0.00e+00	0	43	0	3014656000	8	4132
2026-01-17 13:18:34.81	323.41	22.26	-24.3	-25.5	18.4	0.00e+00	0	43	0	3020947456	8	4178
2026-01-17 13:18:35.81	323.54	22.14	-24.3	-25.7	18.3	0.00e+00	0	43	0	3026190336	8	4218
2026-01-17 13:18:36.81	323.67	22.02	-24.3	-25.6	18.3	0.00e+00	0	43	0	3031433216	8	4186
2026-01-17 13:18:37.81	323.80	21.89	-24.3	-25.7	18.3	0.00e+00	0	43	0	3037724672	8	4231
2026-01-17 13:18:38.81	323.93	21.77	-24.3	-25.6	18.3	0.00e+00	0	43	0	3042967552	8	4184
2026-01-17 13:18:39.81	324.05	21.65	-24.3	-25.6	18.3	0.00e+00	0	43	0	3049259008	8	4202
2026-01-17 13:18:40.81	324.18	21.52	-24.2	-25.5	18.4	0.00e+00	0	43	0	3054501888	8	4166
2026-01-17 13:18:41.82	324.31	21.40	-24.2	-25.5	18.4	0.00e+00	0	43	0	3060793344	8	4175
2026-01-17 13:18:42.81	324.43	21.28	-24.3	-25.7	18.3	0.00e+00	0	43	0	3066036224	8	4209
2026-01-17 13:18:43.82	324.55	21.16	-24.4	-25.8	18.2	0.00e+00	0	43	0	3071279104	8	4238
2026-01-17 13:18:44.82	324.67	21.04	-24.6	-25.7	18.0	0.00e+00	0	43	0	3077570560	9	4105
2026-01-17 13:18:45.82	324.80	20.92	-24.7	-26.0	17.9	0.00e+00	0	43	0	3082813440	9	4180
2026-01-17 13:18:46.83	324.92	20.80	-24.7	-26.1	17.8	0.00e+00	0	43	0	3088056320	9	4198
2026-01-17 13:18:47.83	325.04	20.68	-24.9	-26.3	17.7	0.00e+00	0	43	0	3094347776	9	4271
2026-01-17 13:18:48.83	325.15	20.56	-24.8	-26.3	17.7	0.00e+00	0	43	0	3099590656	9	4257
2026-01-17 13:18:49.84	325.27	20.44	-24.9	-26.5	17.6	0.00e+00	0	43	0	3104833536	9	4320
2026-01-17 13:18:50.85	325.39	20.32	-24.8	-26.3	17.7	0.00e+00	0	43	0	3111124992	9	4263
2026-01-17 13:18:51.85	325.51	20.21	-25.0	-26.6	17.5	0.00e+00	0	43	0	3116367872	9	4328
2026-01-17 13:18:52.85	325.62	20.09	-24.9	-26.4	17.6	0.00e+00	0	43	0	3122659328	9	4275
2026-01-17 13:18:53.86	325.74	19.97	-24.6	-25.7	18.0	0.00e+00	0	43	0	3127902208	9	4102
2026-01-17 13:18:54.86	325.85	19.86	-24.6	-25.8	17.9	0.00e+00	0	43	0	3133145088	9	4119
2026-01-17 13:18:55.86	325.96	19.74	-24.5	-25.5	18.1	0.00e+00	0	43	0	3139436544	9	4051
2026-01-17 13:18:56.86	326.07	19.63	-24.7	-25.9	17.9	0.00e+00	0	43	0	3144679424	9	4150
2026-01-17 13:18:57.86	326.18	19.51	-24.5	-25.6	18.0	0.00e+00	0	43	0	3149922304	9	4088
2026-01-17 13:18:58.86	326.29	19.40	-24.5	-25.5	18.1	0.00e+00	0	43	0	3156213760	9	4052
2026-01-17 13:18:59.85	326.40	19.29	-24.6	-25.7	17.9	0.00e+00	0	43	0	3161456640	9	4115
2026-01-17 13:19:00.86	326.51	19.17	-24.5	-25.7	18.0	0.00e+00	0	43	0	3166699520	9	4091
2026-01-17 13:19:01.85	326.62	19.06	-24.6	-25.9	17.9	0.00e+00	0	43	0	3172990976	9	4150
2026-01-17 13:19:02.85	326.73	18.95	-24.7	-25.9	17.8	0.00e+00	0	43	0	3178233856	9	4169
2026-01-17 13:19:03.85	326.83	18.83	-24.8	-26.1	17.7	0.00e+00	0	43	0	3184525312	9	4222
2026-01-17 13:19:04.85	326.94	18.72	-25.0	-26.6	17.4	0.00e+00	0	43	0	3189768192	9	4346
2026-01-17 13:19:05.84	327.04	18.61	-25.0	-26.1	17.5	0.00e+00	0	43	0	3195011072	10	4092
2026-01-17 13:19:06.85	327.15	18.50	-25.0	-26.1	17.5	0.00e+00	0	43	0	3201302528	10	4090
2026-01-17 13:19:07.84	327.25	18.39	-25.0	-26.1	17.5	0.00e+00	0	43	0	3206545408	10	4110
2026-01-17 13:19:08.84	327.35	18.28	-25.2	-26.5	17.3	0.00e+00	0	43	0	3211788288	10	4210
2026-01-17 13:19:09.84	327.45	18.17	-25.1	-26.4	17.3	0.00e+00	0	43	0	3218079744	10	4179
2026-01-17 13:19:10.85	327.56	18.06	-25.2	-26.6	17.2	0.00e+00	0	43	0	3223322624	10	4230
2026-01-17 13:19:11.85	327.66	17.95	-25.1	-26.4	17.3	0.00e+00	0	43	0	3229614080	10	4163
2026-01-17 13:19:12.85	327.76	17.85	-25.0	-26.2	17.4	0.00e+00	0	43	0	3234856960	10	4127
2026-01-17 13:19:13.86	327.86	17.74	-25.1	-26.4	17.3	0.00e+00	0	43	0	3240099840	10	4163
2026-01-17 13:19:14.86	327.95	17.63	-25.0	-26.1	17.4	0.00e+00	0	43	0	3246391296	10	4107
2026-01-17 13:19:15.86	328.05	17.52	-25.2	-26.5	17.3	0.00e+00	0	43	0	3251634176	10	4190
2026-01-17 13:19:16.85	328.15	17.42	-25.1	-26.3	17.4	0.00e+00	0	43	0	3256877056	10	4158
2026-01-17 13:19:17.85	328.24	17.31	-25.1	-26.4	17.3	0.00e+00	0	43	0	3263168512	10	4163
2026-01-17 13:19:18.86	328.34	17.20	-25.1	-26.4	17.3	0.00e+00	0	43	0	3268411392	10	4167
2026-01-17 13:19:19.86	328.44	17.10	-25.3	-26.8	17.1	0.00e+00	0	43	0	3273654272	10	4270
2026-01-17 13:19:20.87	328.53	16.99	-25.2	-26.7	17.1	0.00e+00	0	43	0	3279945728	10	4242
2026-01-17 13:19:21.86	328.63	16.89	-25.4	-27.0	17.0	0.00e+00	0	43	0	3285188608	10	4321
2026-01-17 13:19:22.87	328.72	16.78	-25.3	-26.9	17.0	0.00e+00	0	43	0	3291480064	10	4306
2026-01-17 13:19:23.87	328.81	16.68	-25.4	-27.0	16.9	0.00e+00	0	43	0	3296722944	10	4328
2026-01-17 13:19:24.88	328.91	16.57	-25.5	-27.2	16.9	0.00e+00	0	43	0	3303014400	10	4383
2026-01-17 13:19:25.88	329.00	16.47	-25.5	-26.8	16.8	0.00e+00	0	43	0	3308257280	11	4168
2026-01-17 13:19:26.87	329.09	16.37	-25.6	-27.1	16.7	0.00e+00	0	43	0	3313500160	11	4233
2026-01-17 13:19:27.88	329.18	16.26	-25.6	-27.0	16.6	0.00e+00	0	43	0	3319791616	11	4225
2026-01-17 13:19:28.87	329.27	16.16	-25.7	-27.2	16.6	0.00e+00	0	43	0	3325034496	11	4261
2026-01-17 13:19:29.88	329.36	16.06	-25.7	-27.2	16.6	0.00e+00	0	44	0	3330277376	11	4267
2026-01-17 13:19:30.88	329.45	15.96	-25.8	-27.3	16.5	0.00e+00	0	43	0	3336568832	11	4305
2026-01-17 13:19:31.88	329.53	15.86	-25.9	-27.5	16.4	0.00e+00	0	44	0	3341811712	11	4361
2026-01-17 13:19:32.88	329.62	15.76	-25.8	-27.3	16.5	0.00e+00	0	43	0	3347054592	11	4285
2026-01-17 13:19:33.88	329.71	15.66	-25.7	-27.2	16.6	0.00e+00	0	43	0	3353346048	11	4266
2026-01-17 13:19:34.88	329.79	15.56	-25.7	-27.3	16.5	0.00e+00	0	43	0	3358588928	11	4288
2026-01-17 13:19:35.89	329.88	15.46	-25.9	-27.6	16.3	0.00e+00	0	44	0	3364880384	11	4368
2026-01-17 13:19:36.89	329.97	15.36	-25.7	-27.2	16.5	1.10e-06	0	43	0	3370123264	11	4281
2026-01-17 13:19:37.90	330.05	15.26	-26.0	-27.2	16.2	1.10e-06	0	43	0	3375366144	12	4169
2026-01-17 13:19:38.91	330.14	15.16	-26.2	-27.8	15.8	0.00e+00	0	43	0	3381657600	12	4316
2026-01-17 13:19:39.91	330.22	15.06	-26.0	-27.3	16.1	0.00e+00	0	43	0	3386900480	12	4198
2026-01-17 13:19:40.91	330.30	14.96	-25.8	-26.8	16.4	0.00e+00	0	43	0	3392143360	12	4059
2026-01-17 13:19:41.91	330.39	14.86	-25.6	-26.4	16.6	0.00e+00	0	43	0	3398434816	12	3960
2026-01-17 13:19:42.91	330.47	14.77	-25.5	-26.3	16.7	0.00e+00	0	43	0	3403677696	12	3921
2026-01-17 13:19:43.90	330.55	14.67	-25.5	-26.2	16.7	0.00e+00	0	44	0	3408920576	12	3903
2026-01-17 13:19:44.90	330.63	14.58	-25.7	-26.7	16.4	0.00e+00	0	44	0	3415212032	12	4044
2026-01-17 13:19:45.91	330.71	14.48	-25.7	-26.6	16.5	0.00e+00	0	43	0	3420454912	12	4005
2026-01-17 13:19:46.91	330.79	14.38	-25.8	-26.9	16.3	0.00e+00	0	43	0	3426746368	12	4077
2026-01-17 13:19:47.91	330.87	14.29	-25.8	-26.9	16.3	2.20e-06	0	43	0	3431989248	12	4087
2026-01-17 13:19:48.91	330.95	14.19	-25.9	-27.1	16.2	0.00e+00	0	43	0	3437232128	12	4143
2026-01-17 13:19:49.92	331.03	14.10	-25.9	-27.1	16.2	0.00e+00	0	44	0	3443523584	12	4141
2026-01-17 13:19:50.92	331.11	14.00	-26.0	-27.4	16.0	0.00e+00	0	43	0	3448766464	12	4218
2026-01-17 13:19:51.92	331.19	13.91	-26.1	-27.5	15.9	0.00e+00	0	43	0	3455057920	12	4250
2026-01-17 13:19:52.92	331.26	13.81	-26.1	-27.6	15.9	0.00e+00	0	43	0	3460300800	12	4287
2026-01-17 13:19:53.93	331.34	13.72	-26.3	-28.0	15.7	0.00e+00	0	43	0	3465543680	12	4388
2026-01-17 13:19:54.92	331.42	13.63	-26.3	-28.1	15.6	6.80e-06	0	43	0	3471835136	12	4416
2026-01-17 13:19:55.93	331.49	13.53	-26.3	-28.1	15.6	0.00e+00	0	43	0	3477078016	12	4417
2026-01-17 13:19:56.93	331.57	13.44	-26.6	-28.3	15.2	0.00e+00	0	43	0	3482320896	13	4358
2026-01-17 13:19:57.93	331.64	13.35	-26.4	-27.7	15.5	1.10e-06	0	43	0	3488612352	13	4182
2026-01-17 13:19:58.93	331.72	13.26	-26.4	-27.7	15.5	0.00e+00	0	43	0	3493855232	13	4183
2026-01-17 13:19:59.94	331.79	13.16	-26.3	-27.6	15.6	1.10e-06	0	43	0	3500146688	13	4177
2026-01-17 13:20:00.93	331.87	13.07	-26.5	-28.0	15.4	0.00e+00	0	43	0	3505389568	13	4267
2026-01-17 13:20:01.93	331.94	12.98	-26.3	-27.4	15.6	1.10e-06	0	43	0	3510632448	13	4124
2026-01-17 13:20:02.93	332.01	12.89	-26.3	-27.4	15.6	1.10e-06	0	44	0	3516923904	13	4120
2026-01-17 13:20:03.93	332.08	12.80	-26.4	-27.7	15.5	1.10e-06	0	43	0	3522166784	13	4189
2026-01-17 13:20:04.93	332.16	12.71	-26.2	-27.3	15.7	0.00e+00	0	43	0	3527409664	13	4076
2026-01-17 13:20:05.93	332.23	12.62	-26.2	-27.4	15.7	1.10e-06	0	43	0	3533701120	13	4107
2026-01-17 13:20:06.93	332.30	12.53	-26.2	-27.2	15.7	0.00e+00	0	43	0	3538944000	13	4070
2026-01-17 13:20:07.94	332.37	12.44	-26.4	-27.7	15.4	0.00e+00	0	43	0	3544186880	13	4198
2026-01-17 13:20:08.94	332.44	12.35	-26.3	-27.6	15.5	0.00e+00	0	43	0	3550478336	13	4168
2026-01-17 13:20:09.94	332.51	12.26	-26.2	-27.3	15.7	0.00e+00	0	43	0	3555721216	13	4080
2026-01-17 13:20:10.94	332.58	12.17	-26.3	-27.4	15.6	0.00e+00	0	43	0	3562012672	13	4121
2026-01-17 13:20:11.93	332.65	12.09	-26.2	-27.4	15.6	0.00e+00	0	43	0	3567255552	13	4117
2026-01-17 13:20:12.94	332.72	12.00	-26.2	-27.3	15.7	0.00e+00	0	43	0	3572498432	13	4081
2026-01-17 13:20:13.94	332.79	11.91	-26.3	-27.6	15.5	0.00e+00	0	43	0	3578789888	13	4174
2026-01-17 13:20:14.94	332.85	11.82	-26.4	-27.7	15.4	0.00e+00	0	43	0	3584032768	13	4199
2026-01-17 13:20:15.95	332.92	11.74	-26.4	-27.8	15.4	0.00e+00	0	43	0	3589275648	13	4221
2026-01-17 13:20:16.95	332.99	11.65	-26.6	-28.3	15.1	0.00e+00	0	43	0	3595567104	13	4367
2026-01-17 13:20:17.95	333.06	11.56	-26.7	-28.4	15.0	0.00e+00	0	43	0	3600809984	13	4373
2026-01-17 13:20:18.95	333.12	11.48	-26.7	-28.4	15.0	0.00e+00	0	43	0	3606052864	13	4398
2026-01-17 13:20:19.95	333.19	11.39	-26.6	-28.3	15.1	0.00e+00	0	43	0	3612344320	13	4366
2026-01-17 13:20:20.95	333.26	11.30	-26.6	-28.2	15.1	0.00e+00	0	43	0	3617587200	13	4347
2026-01-17 13:20:21.95	333.32	11.22	-26.7	-28.4	15.0	0.00e+00	0	43	0	3623878656	13	4379
2026-01-17 13:20:22.95	333.39	11.13	-26.9	-28.8	14.7	0.00e+00	0	43	0	3629121536	13	4514
2026-01-17 13:20:23.95	333.45	11.05	-26.7	-28.5	14.9	0.00e+00	0	43	0	3634364416	13	4413
2026-01-17 13:20:24.95	333.52	10.96	-26.7	-28.5	14.9	0.00e+00	0	43	0	3640655872	13	4407
2026-01-17 13:20:25.96	333.58	10.88	-26.5	-28.1	15.1	0.00e+00	0	43	0	3645898752	13	4302
2026-01-17 13:20:26.96	333.64	10.80	-26.5	-28.1	15.1	0.00e+00	0	43	0	3651141632	13	4306
2026-01-17 13:20:27.96	333.71	10.71	-26.7	-28.4	15.0	0.00e+00	0	43	0	3657433088	13	4390
2026-01-17 13:20:28.97	333.77	10.63	-26.6	-28.2	15.0	0.00e+00	0	43	0	3662675968	13	4348
2026-01-17 13:20:29.97	333.83	10.54	-26.5	-28.0	15.1	0.00e+00	0	43	0	3668967424	13	4295
2026-01-17 13:20:30.97	333.90	10.46	-26.5	-28.1	15.1	0.00e+00	0	43	0	3674210304	13	4307
2026-01-17 13:20:31.97	333.96	10.38	-26.6	-28.2	15.1	0.00e+00	0	43	0	3679453184	13	4329
2026-01-17 13:20:32.97	334.02	10.30	-26.6	-28.2	15.1	0.00e+00	0	43	0	3685744640	13	4338
2026-01-17 13:20:33.97	334.08	10.21	-26.6	-28.3	15.0	0.00e+00	0	43	0	3690987520	13	4352
2026-01-17 13:20:34.97	334.14	10.13	-26.4	-27.9	15.2	0.00e+00	0	43	0	3696230400	13	4242
2026-01-17 13:20:35.97	334.20	10.05	-26.6	-28.3	15.0	0.00e+00	0	43	0	3702521856	13	4354
2026-01-17 13:20:36.97	334.26	9.97	-26.6	-28.3	15.0	0.00e+00	0	43	0	3707764736	13	4372
2026-01-17 13:20:37.97	334.32	9.89	-26.7	-28.3	14.9	0.00e+00	0	43	0	3714056192	13	4371
2026-01-17 13:20:38.97	334.38	9.81	-26.6	-28.2	15.0	0.00e+00	0	43	0	3719299072	13	4324
2026-01-17 13:20:39.97	334.44	9.72	-26.8	-28.6	14.8	0.00e+00	0	43	0	3724541952	13	4456
2026-01-17 13:20:40.98	334.50	9.64	-26.6	-28.2	15.0	0.00e+00	0	43	0	3730833408	13	4336
2026-01-17 13:20:41.98	334.56	9.56	-26.7	-28.5	14.8	0.00e+00	0	44	0	3736076288	13	4409
2026-01-17 13:20:42.98	334.62	9.48	-26.7	-28.5	14.8	0.00e+00	0	43	0	3741319168	13	4431
2026-01-17 13:20:43.99	334.68	9.40	-26.6	-28.2	15.0	0.00e+00	0	43	0	3747610624	13	4349
2026-01-17 13:20:45.00	334.74	9.32	-26.9	-29.0	14.5	1.10e-06	0	43	0	3752853504	13	4570
2026-01-17 13:20:46.01	334.80	9.24	-26.8	-28.8	14.7	0.00e+00	0	43	0	3759144960	13	4498
2026-01-17 13:20:47.01	334.86	9.16	-27.1	-28.9	14.3	0.00e+00	0	43	0	3764387840	14	4419
2026-01-17 13:20:48.01	334.91	9.08	-27.0	-28.7	14.5	0.00e+00	0	43	0	3769630720	14	4360
2026-01-17 13:20:49.01	334.97	9.01	-27.0	-28.7	14.4	0.00e+00	0	44	0	3775922176	14	4370
2026-01-17 13:20:50.02	335.03	8.93	-27.2	-29.1	14.2	1.10e-06	0	43	0	3781165056	14	4492
2026-01-17 13:20:51.02	335.08	8.85	-27.1	-28.8	14.4	1.10e-06	0	43	0	3786407936	14	4399
2026-01-17 13:20:52.01	335.14	8.77	-27.3	-29.4	14.0	0.00e+00	0	43	0	3792699392	14	4582
2026-01-17 13:20:53.02	335.19	8.69	-27.2	-29.1	14.2	2.20e-06	0	43	0	3797942272	14	4482
2026-01-17 13:20:54.02	335.25	8.61	-27.2	-29.1	14.1	1.10e-06	0	43	0	3804233728	14	4485
2026-01-17 13:20:55.02	335.31	8.54	-27.2	-29.1	14.2	0.00e+00	0	43	0	3809476608	14	4475
2026-01-17 13:20:56.02	335.36	8.46	-27.2	-29.1	14.1	0.00e+00	0	43	0	3814719488	14	4497
2026-01-17 13:20:57.03	335.42	8.38	-27.3	-29.4	14.0	0.00e+00	0	43	0	3821010944	14	4563
2026-01-17 13:20:58.03	335.47	8.31	-27.3	-29.3	14.0	2.20e-06	0	43	0	3826253824	14	4537
2026-01-17 13:20:59.03	335.52	8.23	-27.3	-29.3	14.0	2.20e-06	0	43	0	3832545280	14	4556
2026-01-17 13:21:00.04	335.58	8.15	-27.2	-29.1	14.1	4.50e-06	0	43	0	3837788160	14	4493
