passes_logs/2026/01/17/R2M6_AANII_01/R2M6_AANII_01__20260117_003732_SUOMI_NPP_rec.log

#Pass ID: 20260117_003732_SUOMI NPP
#Satellite: SUOMI NPP
#Configuration: NPP
#almurnet v.1.7.20240730
#Start time: 2026-01-17 00:37:32

#Version: 2.2.20231116
#Station: R2M6_AANII_01
#Location: 30.233357 lon 59.946436 lat
#TLE: 1 37849U 11061A   26016.23176763  .00000061  00000+0  49926-4 0  9990
#TLE: 2 37849  98.7812 318.2698 0002434  61.5135 298.6286 14.19525545736883

#Time	Az	El	Level	Level2	SNR	BER	BlckErr	Temp	State	Recorded	gain1	gain2
2026-01-17 00:37:32.43	17.13	7.01	-31.9	-38.7	4.4	1.41e+00	0	41	0	0	23	7872
2026-01-17 00:37:33.43	17.13	7.08	-32.3	-40.7	4.0	1.46e+00	0	42	104	0	24	9528
2026-01-17 00:37:34.43	17.12	7.16	-32.2	-39.7	4.9	9.59e-01	0	41	0	0	24	8536
2026-01-17 00:37:35.43	17.11	7.24	-32.2	-39.5	5.1	5.98e-01	0	42	0	1048576	24	8415
2026-01-17 00:37:36.44	17.11	7.31	-32.3	-40.7	4.5	9.55e-01	0	41	0	3145728	24	9458
2026-01-17 00:37:37.44	17.10	7.39	-32.2	-39.4	5.1	7.58e-01	0	42	0	5242880	24	8272
2026-01-17 00:37:38.45	17.09	7.47	-32.0	-38.2	5.8	5.35e-01	0	42	0	7340032	24	7356
2026-01-17 00:37:39.44	17.08	7.55	-31.9	-37.5	6.3	3.00e-01	0	41	0	9437184	24	6825
2026-01-17 00:37:40.44	17.07	7.63	-32.0	-37.7	6.2	2.73e-01	0	42	0	10485760	24	6955
2026-01-17 00:37:41.44	17.07	7.71	-32.1	-38.4	5.7	3.07e-01	0	42	0	12582912	24	7459
2026-01-17 00:37:42.44	17.06	7.79	-32.0	-38.1	6.0	3.32e-01	0	42	0	14680064	24	7219
2026-01-17 00:37:43.45	17.05	7.87	-32.1	-38.4	5.8	4.27e-01	0	42	0	16777216	24	7485
2026-01-17 00:37:44.45	17.04	7.94	-32.0	-38.0	6.0	3.83e-01	0	42	0	17825792	24	7193
2026-01-17 00:37:45.44	17.04	8.02	-32.0	-38.0	6.0	2.93e-01	0	42	0	19922944	24	7171
2026-01-17 00:37:46.45	17.03	8.10	-32.0	-38.0	6.1	2.72e-01	0	42	0	22020096	24	7123
2026-01-17 00:37:47.45	17.02	8.18	-32.0	-37.8	6.2	2.47e-01	0	42	0	24117248	24	7003
2026-01-17 00:37:48.46	17.01	8.27	-32.0	-37.7	6.2	2.46e-01	0	42	0	26214400	24	6970
2026-01-17 00:37:49.46	17.00	8.35	-32.0	-38.1	6.0	3.54e-01	0	42	0	27262976	24	7197
2026-01-17 00:37:50.46	16.99	8.43	-32.0	-37.5	6.4	2.96e-01	0	42	0	29360128	24	6822
2026-01-17 00:37:51.46	16.99	8.51	-31.9	-37.4	6.8	1.80e-01	0	42	0	31457280	23	6845
2026-01-17 00:37:52.47	16.98	8.59	-32.0	-38.0	6.5	1.61e-01	0	42	0	33554432	23	7181
2026-01-17 00:37:53.47	16.97	8.67	-32.0	-37.5	6.5	2.45e-01	0	42	0	35651584	24	6781
2026-01-17 00:37:54.47	16.96	8.76	-32.0	-37.6	6.4	2.15e-01	0	42	0	36700160	24	6834
2026-01-17 00:37:55.48	16.95	8.84	-31.9	-37.4	6.9	1.73e-01	0	42	0	38797312	23	6783
2026-01-17 00:37:56.48	16.94	8.92	-31.8	-37.0	7.2	1.54e-01	0	42	0	40894464	23	6560
2026-01-17 00:37:57.49	16.93	9.01	-31.7	-36.5	7.6	1.36e-01	0	42	0	42991616	23	6240
2026-01-17 00:37:58.48	16.92	9.09	-31.5	-35.7	8.2	8.10e-02	0	42	0	45088768	23	5820
2026-01-17 00:37:59.48	16.92	9.17	-31.4	-35.2	8.7	4.06e-02	0	42	0	46137344	23	5574
2026-01-17 00:38:00.48	16.91	9.25	-31.4	-35.7	8.7	3.97e-02	0	42	0	48234496	22	5917
2026-01-17 00:38:01.48	16.90	9.34	-31.5	-35.6	8.3	3.85e-02	0	42	0	50331648	23	5765
2026-01-17 00:38:02.48	16.89	9.42	-31.6	-36.1	8.0	5.47e-02	0	42	0	52428800	23	6038
2026-01-17 00:38:03.49	16.88	9.51	-31.6	-35.9	8.1	6.13e-02	0	42	0	54525952	23	5931
2026-01-17 00:38:04.48	16.87	9.59	-31.5	-35.6	8.4	4.64e-02	0	42	0	55574528	23	5741
2026-01-17 00:38:05.49	16.86	9.68	-30.7	-34.7	8.5	4.56e-02	0	42	0	57671680	23	5712
2026-01-17 00:38:06.49	16.85	9.76	-30.7	-35.0	8.6	3.02e-02	0	42	0	59768832	22	5846
2026-01-17 00:38:07.49	16.84	9.85	-31.4	-36.0	8.4	3.03e-02	0	42	0	61865984	21	6121
2026-01-17 00:38:08.50	16.83	9.94	-31.6	-35.7	8.2	3.71e-02	0	42	0	62914560	23	5809
2026-01-17 00:38:09.49	16.82	10.02	-31.5	-35.7	8.3	4.54e-02	0	42	0	65011712	22	5855
2026-01-17 00:38:10.50	16.81	10.11	-31.4	-35.3	8.8	2.38e-02	0	42	0	67108864	22	5663
2026-01-17 00:38:11.50	16.80	10.20	-31.2	-34.6	9.5	1.29e-02	0	42	0	69206016	22	5340
2026-01-17 00:38:12.51	16.79	10.28	-30.9	-34.4	10.0	9.53e-03	0	42	0	71303168	21	5332
2026-01-17 00:38:13.50	16.78	10.37	-31.0	-34.4	10.0	6.76e-03	0	43	0	72351744	21	5335
2026-01-17 00:38:14.51	16.77	10.46	-31.0	-34.2	9.9	8.35e-03	0	42	0	74448896	22	5157
2026-01-17 00:38:15.51	16.76	10.55	-31.2	-34.6	9.7	1.03e-02	0	42	0	76546048	22	5326
2026-01-17 00:38:16.51	16.75	10.64	-31.1	-34.5	9.8	1.47e-02	0	42	0	78643200	22	5282
2026-01-17 00:38:17.51	16.74	10.73	-31.0	-34.1	10.0	8.61e-03	0	43	0	80740352	22	5123
2026-01-17 00:38:18.51	16.73	10.81	-31.0	-34.4	10.2	6.81e-03	0	43	0	81788928	21	5330
2026-01-17 00:38:19.51	16.72	10.90	-30.0	-33.2	10.3	7.78e-03	0	43	0	83886080	21	5201
2026-01-17 00:38:20.51	16.71	10.99	-30.8	-33.9	10.5	4.38e-03	0	43	0	85983232	21	5151
2026-01-17 00:38:21.51	16.70	11.08	-31.5	-35.0	9.9	7.12e-03	0	43	0	88080384	22	5405
2026-01-17 00:38:22.50	16.69	11.17	-31.0	-34.4	9.9	6.82e-03	0	43	0	90177536	21	5356
2026-01-17 00:38:23.51	16.67	11.27	-31.1	-34.2	10.1	7.16e-03	0	43	0	91226112	22	5149
2026-01-17 00:38:24.52	16.66	11.36	-30.8	-33.7	10.5	5.23e-03	0	43	0	93323264	21	5060
2026-01-17 00:38:25.52	16.65	11.45	-30.8	-33.7	10.5	2.90e-03	0	43	0	95420416	21	5049
2026-01-17 00:38:26.52	16.64	11.54	-30.7	-33.4	10.9	1.85e-03	0	43	0	97517568	21	4926
2026-01-17 00:38:27.52	16.63	11.63	-30.5	-33.2	11.4	4.17e-03	0	43	0	98566144	20	4924
2026-01-17 00:38:28.52	16.62	11.73	-30.5	-32.9	11.2	9.67e-04	0	43	0	100663296	21	4748
2026-01-17 00:38:29.53	16.61	11.82	-30.5	-32.9	11.3	1.27e-03	0	43	0	102760448	21	4745
2026-01-17 00:38:30.53	16.59	11.91	-30.5	-33.2	11.5	4.64e-03	0	43	0	104857600	20	4941
2026-01-17 00:38:31.54	16.58	12.01	-30.4	-32.9	11.6	6.87e-04	0	43	0	106954752	20	4813
2026-01-17 00:38:32.54	16.57	12.10	-30.3	-32.7	11.9	7.80e-04	0	43	0	108003328	20	4730
2026-01-17 00:38:33.54	16.56	12.20	-30.5	-33.2	11.5	4.19e-03	0	43	0	110100480	20	4927
2026-01-17 00:38:34.54	16.55	12.29	-30.6	-33.0	11.2	4.09e-03	0	43	0	112197632	21	4777
2026-01-17 00:38:35.54	16.53	12.39	-30.3	-32.7	11.9	4.75e-04	0	43	0	114294784	20	4737
2026-01-17 00:38:36.54	16.52	12.48	-30.4	-32.9	11.7	5.07e-04	0	43	0	116391936	20	4805
2026-01-17 00:38:37.54	16.51	12.58	-30.4	-32.9	11.7	4.07e-03	0	43	0	117440512	20	4792
2026-01-17 00:38:38.54	16.50	12.67	-30.3	-32.7	11.9	8.68e-04	0	43	0	119537664	20	4719
2026-01-17 00:38:39.55	16.48	12.77	-30.3	-32.5	12.0	3.05e-04	0	43	0	121634816	20	4668
2026-01-17 00:38:40.55	16.47	12.87	-30.2	-32.4	12.1	3.90e-03	0	43	0	123731968	20	4627
2026-01-17 00:38:41.55	16.46	12.96	-30.1	-32.2	12.3	6.94e-04	0	43	0	125829120	20	4559
2026-01-17 00:38:42.55	16.45	13.06	-30.3	-32.5	12.0	2.23e-04	0	43	0	126877696	20	4666
2026-01-17 00:38:43.55	16.43	13.16	-30.1	-32.1	12.4	2.29e-04	0	43	0	128974848	20	4507
2026-01-17 00:38:44.55	16.42	13.26	-30.0	-31.8	12.5	6.20e-04	0	43	0	131072000	20	4432
2026-01-17 00:38:45.56	16.41	13.36	-30.0	-31.7	12.6	2.89e-03	0	43	0	133169152	20	4367
2026-01-17 00:38:46.56	16.39	13.46	-30.0	-31.8	12.6	6.40e-05	0	43	0	135266304	20	4407
2026-01-17 00:38:47.56	16.38	13.56	-30.0	-31.8	12.6	5.13e-04	0	43	0	136314880	20	4413
2026-01-17 00:38:48.57	16.36	13.66	-30.0	-32.1	12.8	2.56e-03	0	43	0	138412032	19	4588
2026-01-17 00:38:49.57	16.35	13.76	-29.9	-32.0	12.9	6.25e-05	0	43	0	140509184	19	4558
2026-01-17 00:38:50.57	16.34	13.86	-30.0	-31.7	12.7	5.14e-04	0	43	0	142606336	20	4384
2026-01-17 00:38:51.57	16.32	13.96	-29.9	-32.0	12.9	4.00e-03	0	43	0	143654912	19	4568
2026-01-17 00:38:52.57	16.31	14.06	-29.9	-31.9	13.0	2.82e-03	0	43	0	145752064	19	4520
2026-01-17 00:38:53.58	16.29	14.17	-29.9	-31.5	12.8	4.65e-05	0	43	0	147849216	20	4313
2026-01-17 00:38:54.58	16.28	14.27	-30.0	-32.1	12.8	3.68e-03	0	43	0	149946368	19	4604
2026-01-17 00:38:55.57	16.27	14.37	-29.9	-31.8	13.0	3.33e-03	0	43	0	152043520	19	4496
2026-01-17 00:38:56.58	16.25	14.48	-29.9	-31.9	13.0	4.36e-04	0	43	0	153092096	19	4521
2026-01-17 00:38:57.58	16.24	14.58	-29.9	-32.0	12.9	3.30e-03	0	43	0	155189248	19	4550
2026-01-17 00:38:58.57	16.22	14.68	-30.0	-31.7	12.7	3.65e-03	0	43	0	157286400	20	4382
2026-01-17 00:38:59.57	16.21	14.79	-29.9	-31.5	12.9	5.13e-04	0	43	0	159383552	20	4295
2026-01-17 00:39:00.57	16.19	14.89	-30.1	-31.8	12.7	3.81e-05	0	43	0	161480704	20	4412
2026-01-17 00:39:01.58	16.18	15.00	-29.9	-31.5	12.9	3.53e-03	0	43	0	162529280	20	4311
2026-01-17 00:39:02.58	16.16	15.11	-29.9	-31.4	13.0	4.41e-04	0	43	0	164626432	20	4288
2026-01-17 00:39:03.58	16.14	15.21	-30.0	-31.7	12.8	2.81e-03	0	43	0	166723584	20	4361
2026-01-17 00:39:04.58	16.13	15.32	-29.9	-31.4	12.9	3.41e-03	0	43	0	168820736	20	4285
2026-01-17 00:39:05.59	16.11	15.43	-29.9	-31.7	13.1	4.10e-04	0	43	0	170917888	19	4461
2026-01-17 00:39:06.58	16.10	15.54	-30.0	-31.8	12.7	2.54e-03	0	43	0	171966464	20	4397
2026-01-17 00:39:07.58	16.08	15.64	-29.8	-31.2	13.1	2.90e-03	0	43	0	174063616	20	4208
2026-01-17 00:39:08.58	16.06	15.75	-29.7	-31.2	13.5	4.12e-04	0	43	0	176160768	19	4292
2026-01-17 00:39:09.59	16.05	15.86	-29.7	-31.4	13.3	3.59e-03	0	43	0	178257920	19	4353
2026-01-17 00:39:10.60	16.03	15.98	-29.7	-31.1	13.5	2.62e-03	0	43	0	180355072	19	4274
2026-01-17 00:39:11.60	16.01	16.09	-29.7	-31.2	13.5	3.90e-04	0	43	0	181403648	19	4293
2026-01-17 00:39:12.60	16.00	16.20	-29.6	-31.0	13.7	3.51e-03	0	43	0	183500800	19	4217
2026-01-17 00:39:13.60	15.98	16.31	-29.7	-31.2	13.5	3.28e-03	0	43	0	185597952	19	4288
2026-01-17 00:39:14.61	15.96	16.42	-29.8	-31.5	13.4	1.52e-05	0	43	0	187695104	19	4384
2026-01-17 00:39:15.60	15.94	16.53	-29.7	-31.3	13.5	3.37e-03	0	43	0	188743680	19	4311
2026-01-17 00:39:16.60	15.93	16.65	-29.6	-31.0	13.6	3.57e-03	0	43	0	190840832	19	4236
2026-01-17 00:39:17.61	15.91	16.76	-29.7	-31.3	13.5	3.39e-04	0	43	0	192937984	19	4319
2026-01-17 00:39:18.62	15.89	16.88	-29.7	-31.3	13.5	3.70e-03	0	43	0	195035136	19	4321
2026-01-17 00:39:19.62	15.87	16.99	-29.7	-31.3	13.6	3.42e-03	0	43	0	197132288	19	4312
2026-01-17 00:39:20.63	15.85	17.11	-29.8	-31.4	13.4	3.62e-04	0	43	0	198180864	19	4350
2026-01-17 00:39:21.63	15.84	17.22	-29.8	-31.5	13.4	7.48e-04	0	43	0	200278016	19	4366
2026-01-17 00:39:22.63	15.82	17.34	-29.8	-31.6	13.4	3.31e-03	0	43	0	202375168	19	4399
2026-01-17 00:39:23.62	15.80	17.46	-29.6	-30.8	13.9	3.20e-04	0	43	0	204472320	19	4167
2026-01-17 00:39:24.63	15.78	17.57	-29.6	-31.1	13.7	2.36e-03	0	43	0	206569472	19	4240
2026-01-17 00:39:25.63	15.76	17.69	-29.8	-31.4	13.5	9.86e-04	0	43	0	207618048	19	4339
2026-01-17 00:39:26.63	15.74	17.81	-29.7	-31.2	13.7	3.63e-04	0	43	0	209715200	19	4264
2026-01-17 00:39:27.62	15.72	17.93	-29.7	-31.2	13.6	3.63e-03	0	43	0	211812352	19	4277
2026-01-17 00:39:28.63	15.70	18.05	-29.6	-31.1	13.7	9.48e-04	0	43	0	213909504	19	4232
2026-01-17 00:39:29.63	15.68	18.17	-29.6	-31.0	13.8	3.13e-04	0	43	0	214958080	19	4218
2026-01-17 00:39:30.62	15.66	18.29	-29.6	-31.0	13.8	3.44e-03	0	43	0	217055232	19	4205
2026-01-17 00:39:31.63	15.64	18.41	-29.6	-31.0	13.8	3.22e-03	0	43	0	219152384	19	4219
2026-01-17 00:39:32.63	15.62	18.53	-29.6	-31.0	13.7	9.90e-06	0	43	0	221249536	19	4228
2026-01-17 00:39:33.63	15.60	18.66	-29.6	-30.8	13.9	3.12e-03	0	43	0	223346688	19	4169
2026-01-17 00:39:34.64	15.58	18.78	-29.6	-30.9	13.9	3.39e-03	0	43	0	225443840	19	4191
2026-01-17 00:39:35.64	15.56	18.91	-29.5	-30.8	14.0	1.50e-06	0	43	0	226492416	19	4140
2026-01-17 00:39:36.64	15.54	19.03	-29.5	-30.7	13.9	8.75e-04	0	43	0	228589568	19	4141
2026-01-17 00:39:37.64	15.51	19.16	-29.6	-30.9	13.9	3.32e-03	0	43	0	230686720	19	4180
2026-01-17 00:39:38.65	15.49	19.28	-29.7	-31.1	13.7	6.10e-06	0	43	0	232783872	19	4254
2026-01-17 00:39:39.65	15.47	19.41	-29.6	-30.8	13.9	5.97e-04	0	43	0	233832448	19	4158
2026-01-17 00:39:40.65	15.45	19.54	-29.6	-31.0	13.8	3.07e-03	0	43	0	235929600	19	4218
2026-01-17 00:39:41.65	15.43	19.66	-29.7	-31.1	13.7	2.95e-04	0	43	0	238026752	19	4245
2026-01-17 00:39:42.64	15.40	19.79	-29.7	-31.3	13.6	5.73e-04	0	43	0	240123904	19	4307
2026-01-17 00:39:43.64	15.38	19.92	-29.9	-31.6	13.4	5.77e-04	0	43	0	242221056	19	4403
2026-01-17 00:39:44.65	15.36	20.05	-29.7	-30.8	13.5	3.19e-04	0	43	0	243269632	20	4080
2026-01-17 00:39:45.64	15.33	20.18	-29.8	-31.5	13.5	1.60e-05	0	43	0	245366784	19	4380
2026-01-17 00:39:46.65	15.31	20.31	-29.9	-31.8	13.4	4.96e-04	0	43	0	247463936	19	4470
2026-01-17 00:39:47.65	15.29	20.44	-29.9	-31.7	13.4	8.01e-05	0	43	0	249561088	19	4428
2026-01-17 00:39:48.66	15.26	20.58	-29.9	-31.7	13.4	3.20e-03	0	43	0	251658240	19	4417
2026-01-17 00:39:49.66	15.24	20.71	-29.8	-31.5	13.5	4.25e-04	0	43	0	252706816	19	4375
2026-01-17 00:39:50.67	15.21	20.85	-29.8	-31.4	13.6	7.60e-06	0	43	0	254803968	19	4338
2026-01-17 00:39:51.67	15.19	20.98	-29.9	-31.6	13.5	2.83e-03	0	43	0	256901120	19	4389
2026-01-17 00:39:52.66	15.16	21.11	-29.8	-31.0	13.5	1.29e-05	0	43	0	258998272	20	4131
2026-01-17 00:39:53.66	15.14	21.25	-29.8	-31.3	13.7	8.30e-06	0	43	0	261095424	19	4298
2026-01-17 00:39:54.67	15.11	21.39	-29.9	-31.7	13.4	4.74e-04	0	43	0	262144000	19	4414
2026-01-17 00:39:55.67	15.09	21.53	-29.7	-31.3	13.7	6.80e-06	0	43	0	264241152	19	4291
2026-01-17 00:39:56.67	15.06	21.66	-29.7	-31.2	13.8	6.80e-06	0	43	0	266338304	19	4256
2026-01-17 00:39:57.67	15.03	21.80	-29.7	-31.0	13.9	4.26e-04	0	43	0	268435456	19	4217
2026-01-17 00:39:58.67	15.01	21.94	-29.8	-31.3	13.7	2.70e-03	0	43	0	269484032	19	4306
2026-01-17 00:39:59.67	14.98	22.08	-29.7	-31.0	13.9	8.30e-06	0	43	0	271581184	19	4217
2026-01-17 00:40:00.65	14.95	22.22	-29.6	-31.0	13.9	4.23e-04	0	43	0	273678336	19	4193
2026-01-17 00:40:01.66	14.93	22.37	-29.7	-31.1	13.8	4.25e-04	0	43	0	275775488	19	4252
2026-01-17 00:40:02.65	14.90	22.51	-29.7	-31.2	13.7	8.30e-06	0	43	0	277872640	19	4280
2026-01-17 00:40:03.65	14.87	22.65	-29.6	-31.0	13.9	3.80e-06	0	43	0	278921216	19	4195
2026-01-17 00:40:04.65	14.84	22.80	-29.8	-31.5	13.6	5.73e-04	0	43	0	281018368	19	4348
2026-01-17 00:40:05.65	14.81	22.94	-29.6	-30.8	14.0	1.49e-04	0	43	0	283115520	19	4162
2026-01-17 00:40:06.65	14.79	23.09	-29.6	-30.8	14.0	1.50e-06	0	43	0	285212672	19	4148
2026-01-17 00:40:07.66	14.76	23.24	-29.5	-30.5	14.2	5.96e-04	0	43	0	287309824	19	4065
2026-01-17 00:40:08.65	14.73	23.38	-29.4	-30.5	14.3	7.00e-07	0	43	0	288358400	19	4050
2026-01-17 00:40:09.65	14.70	23.53	-29.4	-30.9	14.4	7.00e-07	0	43	0	290455552	18	4254
2026-01-17 00:40:10.65	14.67	23.68	-29.4	-30.8	14.4	0.00e+00	0	43	0	292552704	18	4230
2026-01-17 00:40:11.65	14.64	23.83	-29.3	-30.6	14.5	1.50e-06	0	44	0	294649856	18	4178
2026-01-17 00:40:12.66	14.60	23.98	-29.4	-30.7	14.4	4.23e-04	0	43	0	295698432	18	4219
2026-01-17 00:40:13.65	14.57	24.13	-29.6	-30.7	14.1	4.50e-06	0	43	0	297795584	19	4113
2026-01-17 00:40:14.65	14.54	24.29	-29.7	-31.0	14.0	7.00e-07	0	43	0	299892736	19	4192
2026-01-17 00:40:15.65	14.51	24.44	-29.8	-31.4	13.7	3.58e-04	0	43	0	301989888	19	4309
2026-01-17 00:40:16.65	14.48	24.59	-29.8	-31.4	13.7	8.30e-06	0	43	0	304087040	19	4330
2026-01-17 00:40:17.65	14.45	24.75	-29.8	-31.2	13.8	3.80e-06	0	43	0	305135616	19	4276
2026-01-17 00:40:18.65	14.41	24.91	-29.9	-31.7	13.5	3.92e-04	0	43	0	307232768	19	4416
2026-01-17 00:40:19.65	14.38	25.06	-29.7	-31.1	13.9	3.84e-04	0	43	0	309329920	19	4242
2026-01-17 00:40:20.65	14.35	25.22	-29.8	-31.2	13.8	2.20e-06	0	43	0	311427072	19	4270
2026-01-17 00:40:21.65	14.31	25.38	-29.8	-31.3	13.9	1.06e-05	0	43	0	313524224	19	4278
2026-01-17 00:40:22.65	14.28	25.54	-29.6	-30.9	14.0	4.84e-04	0	43	0	314572800	19	4163
2026-01-17 00:40:23.66	14.24	25.71	-29.5	-30.6	14.2	1.50e-06	0	43	0	316669952	19	4088
2026-01-17 00:40:24.66	14.21	25.87	-29.6	-30.8	14.0	1.50e-06	0	43	0	318767104	19	4153
2026-01-17 00:40:25.67	14.17	26.03	-29.8	-31.2	13.8	6.96e-04	0	43	0	320864256	19	4268
2026-01-17 00:40:26.66	14.14	26.19	-30.0	-31.8	13.5	2.20e-06	0	43	0	322961408	19	4455
2026-01-17 00:40:27.67	14.10	26.36	-29.6	-30.8	14.1	2.20e-06	0	43	0	324009984	19	4139
2026-01-17 00:40:28.67	14.06	26.53	-29.5	-30.7	14.3	1.50e-06	0	43	0	326107136	19	4097
2026-01-17 00:40:29.67	14.02	26.70	-29.7	-31.1	14.0	2.20e-06	0	43	0	328204288	19	4209
2026-01-17 00:40:30.67	13.99	26.86	-29.8	-31.3	13.8	5.30e-06	0	43	0	330301440	19	4282
2026-01-17 00:40:31.67	13.95	27.03	-30.0	-31.7	13.5	6.10e-06	0	43	0	331350016	19	4425
2026-01-17 00:40:32.68	13.91	27.20	-30.0	-31.5	13.3	2.51e-05	0	43	0	333447168	20	4260
2026-01-17 00:40:33.68	13.87	27.38	-30.1	-31.7	12.3	1.83e-05	0	44	0	335544320	20	4333
2026-01-17 00:40:34.69	13.83	27.55	-30.4	-32.4	12.6	2.82e-05	0	44	0	337641472	20	4571
2026-01-17 00:40:35.69	13.79	27.72	-30.2	-31.9	12.5	1.60e-05	0	43	0	339738624	20	4392
2026-01-17 00:40:36.69	13.75	27.90	-30.1	-31.6	12.9	9.04e-04	0	43	0	340787200	20	4297
2026-01-17 00:40:37.69	13.71	28.07	-30.0	-31.4	13.4	3.35e-05	0	43	0	342884352	20	4222
2026-01-17 00:40:38.69	13.67	28.25	-30.0	-31.3	13.4	1.44e-05	0	43	0	344981504	20	4194
2026-01-17 00:40:39.70	13.62	28.43	-30.5	-32.4	13.4	9.10e-06	0	43	0	347078656	20	4462
2026-01-17 00:40:40.70	13.58	28.61	-29.9	-31.1	13.6	1.06e-05	0	44	0	349175808	20	4147
2026-01-17 00:40:41.70	13.54	28.79	-29.8	-31.4	13.8	4.50e-06	0	44	0	350224384	19	4315
2026-01-17 00:40:42.71	13.50	28.97	-30.0	-31.5	13.4	8.30e-06	0	43	0	352321536	20	4249
2026-01-17 00:40:43.71	13.45	29.16	-30.1	-31.5	13.4	5.22e-04	0	44	0	354418688	20	4270
2026-01-17 00:40:44.71	13.41	29.34	-30.2	-32.0	13.0	2.21e-05	0	44	0	356515840	20	4427
2026-01-17 00:40:45.72	13.36	29.53	-30.3	-32.2	12.9	9.38e-05	0	43	0	358612992	20	4498
2026-01-17 00:40:46.72	13.31	29.71	-30.6	-32.6	12.3	1.11e-04	0	43	0	359661568	21	4524
2026-01-17 00:40:47.72	13.27	29.90	-30.8	-33.0	12.0	1.93e-03	0	43	0	361758720	21	4679
2026-01-17 00:40:48.73	13.22	30.09	-30.7	-32.8	12.1	3.29e-04	0	43	0	363855872	21	4603
2026-01-17 00:40:49.72	13.17	30.28	-30.7	-32.8	12.1	4.39e-04	0	43	0	365953024	21	4610
2026-01-17 00:40:50.73	13.13	30.47	-30.8	-33.1	11.9	1.92e-03	0	44	0	368050176	21	4716
2026-01-17 00:40:51.73	13.08	30.66	-30.6	-32.7	12.2	1.46e-04	0	43	0	369098752	21	4544
2026-01-17 00:40:52.73	13.03	30.86	-30.9	-33.5	11.7	2.14e-04	0	43	0	371195904	21	4849
2026-01-17 00:40:53.74	12.98	31.05	-30.9	-33.4	11.8	5.30e-04	0	43	0	373293056	21	4817
2026-01-17 00:40:54.74	12.93	31.25	-31.1	-33.6	11.3	2.19e-03	0	43	0	375390208	22	4770
2026-01-17 00:40:55.74	12.87	31.45	-31.4	-34.6	10.6	1.16e-03	0	44	0	377487360	22	5169
2026-01-17 00:40:56.74	12.82	31.65	-31.5	-34.7	10.5	2.55e-03	0	43	0	378535936	22	5234
2026-01-17 00:40:57.75	12.77	31.85	-31.8	-35.5	9.5	1.29e-02	0	43	0	380633088	23	5492
2026-01-17 00:40:58.75	12.72	32.05	-32.2	-36.3	8.6	2.62e-02	0	44	0	382730240	24	5812
2026-01-17 00:40:59.76	12.66	32.26	-32.2	-36.5	8.4	3.85e-02	0	44	0	384827392	24	5905
2026-01-17 00:41:00.77	12.60	32.46	-32.2	-36.4	8.5	4.67e-02	0	44	0	385875968	24	5849
2026-01-17 00:41:01.77	12.55	32.67	-32.1	-35.8	8.9	4.90e-02	0	43	0	387973120	24	5560
2026-01-17 00:41:02.78	12.49	32.88	-32.1	-36.0	8.8	3.80e-02	0	43	0	390070272	24	5623
2026-01-17 00:41:03.78	12.43	33.08	-32.1	-35.8	8.9	2.60e-02	0	44	0	392167424	24	5556
2026-01-17 00:41:04.78	12.38	33.29	-31.8	-35.0	9.5	1.37e-02	0	44	0	394264576	24	5178
2026-01-17 00:41:05.79	12.32	33.51	-31.8	-35.0	9.5	1.96e-02	0	44	0	396361728	24	5181
2026-01-17 00:41:06.78	12.26	33.72	-32.0	-35.7	8.9	1.61e-02	0	44	0	397410304	24	5510
2026-01-17 00:41:07.78	12.20	33.93	-31.7	-34.7	9.9	1.10e-02	0	44	0	399507456	24	5057
2026-01-17 00:41:08.78	12.14	34.15	-31.4	-34.1	10.4	6.28e-03	0	43	0	401604608	23	4882
2026-01-17 00:41:09.79	12.07	34.37	-31.1	-33.5	11.3	4.07e-03	0	43	0	403701760	22	4747
2026-01-17 00:41:10.79	12.01	34.59	-30.9	-33.0	11.7	1.00e-03	0	43	0	404750336	22	4585
2026-01-17 00:41:11.78	11.95	34.80	-30.7	-32.8	12.2	7.13e-04	0	44	0	406847488	21	4594
2026-01-17 00:41:12.78	11.88	35.02	-30.2	-32.3	12.8	5.11e-04	0	43	0	408944640	20	4559
2026-01-17 00:41:13.78	11.82	35.25	-30.0	-30.9	13.5	5.34e-05	0	44	0	411041792	21	3998
2026-01-17 00:41:14.79	11.75	35.47	-29.8	-30.8	13.9	3.60e-04	0	44	0	413138944	20	4056
2026-01-17 00:41:15.79	11.68	35.70	-29.7	-31.1	14.1	3.32e-04	0	44	0	414187520	19	4223
2026-01-17 00:41:16.79	11.61	35.93	-29.5	-30.4	14.4	2.20e-06	0	43	0	416284672	19	4024
2026-01-17 00:41:17.79	11.54	36.16	-29.5	-30.7	14.3	5.28e-04	0	44	0	418381824	19	4093
2026-01-17 00:41:18.79	11.47	36.39	-29.3	-30.5	14.8	2.94e-04	0	44	0	420478976	18	4152
2026-01-17 00:41:19.79	11.40	36.62	-29.1	-30.1	15.0	7.00e-07	0	44	0	422576128	18	4029
2026-01-17 00:41:20.79	11.33	36.86	-29.1	-30.0	15.0	0.00e+00	0	44	0	423624704	18	4015
2026-01-17 00:41:21.79	11.25	37.09	-28.8	-29.7	15.5	3.52e-04	0	44	0	425721856	17	4026
2026-01-17 00:41:22.79	11.18	37.33	-28.4	-28.7	16.2	0.00e+00	0	44	0	427819008	17	3760
2026-01-17 00:41:23.79	11.10	37.57	-28.4	-28.8	16.0	9.68e-05	0	44	0	429916160	17	3781
2026-01-17 00:41:24.80	11.02	37.81	-28.7	-29.5	15.7	3.16e-04	0	43	0	430964736	17	3957
2026-01-17 00:41:25.79	10.94	38.05	-28.8	-29.9	15.4	0.00e+00	0	44	0	433061888	17	4061
2026-01-17 00:41:26.79	10.86	38.29	-29.1	-30.1	15.0	4.34e-05	0	44	0	435159040	18	4021
2026-01-17 00:41:27.80	10.78	38.54	-29.2	-30.2	14.9	0.00e+00	0	43	0	437256192	18	4045
2026-01-17 00:41:28.80	10.70	38.79	-29.9	-31.7	13.7	3.80e-06	0	44	0	439353344	19	4413
2026-01-17 00:41:29.81	10.61	39.04	-30.0	-31.4	13.5	4.50e-06	0	44	0	440401920	20	4253
2026-01-17 00:41:30.82	10.53	39.30	-29.8	-31.4	13.9	1.60e-05	0	44	0	442499072	19	4336
2026-01-17 00:41:31.82	10.44	39.55	-30.2	-31.9	13.2	1.22e-05	0	43	0	444596224	20	4411
2026-01-17 00:41:32.82	10.35	39.80	-30.4	-32.7	12.7	3.58e-05	0	43	0	446693376	20	4666
2026-01-17 00:41:33.82	10.26	40.06	-30.5	-32.3	12.4	8.85e-05	0	43	0	448790528	21	4459
2026-01-17 00:41:34.82	10.17	40.32	-30.8	-33.2	11.9	2.55e-04	0	44	0	449839104	21	4743
2026-01-17 00:41:35.83	10.08	40.58	-31.0	-33.5	11.4	1.83e-03	0	44	0	451936256	22	4783
2026-01-17 00:41:36.83	9.98	40.84	-31.2	-33.9	11.2	1.18e-03	0	44	0	454033408	22	4929
2026-01-17 00:41:37.83	9.89	41.11	-31.0	-33.4	11.5	9.01e-04	0	44	0	456130560	22	4728
2026-01-17 00:41:38.84	9.79	41.37	-31.0	-33.5	11.4	1.91e-03	0	43	0	458227712	22	4773
2026-01-17 00:41:39.84	9.69	41.64	-30.8	-33.2	11.9	9.57e-04	0	44	0	459276288	21	4763
2026-01-17 00:41:40.84	9.59	41.91	-30.6	-32.7	12.4	2.02e-04	0	44	0	461373440	21	4575
2026-01-17 00:41:41.84	9.49	42.18	-30.5	-32.4	12.5	5.39e-04	0	44	0	463470592	21	4462
2026-01-17 00:41:42.84	9.38	42.46	-30.6	-32.6	12.3	4.94e-04	0	44	0	465567744	21	4554
2026-01-17 00:41:43.85	9.27	42.73	-31.1	-33.8	11.4	2.01e-04	0	44	0	467664896	22	4862
2026-01-17 00:41:44.85	9.17	43.01	-31.2	-33.9	11.1	1.47e-03	0	43	0	468713472	22	4935
2026-01-17 00:41:45.86	9.05	43.29	-31.4	-34.5	10.7	2.81e-03	0	44	0	470810624	22	5155
2026-01-17 00:41:46.86	8.94	43.57	-31.5	-34.5	10.3	2.64e-03	0	44	0	472907776	23	5063
2026-01-17 00:41:47.86	8.83	43.86	-31.6	-34.7	10.3	3.96e-03	0	44	0	475004928	23	5142
2026-01-17 00:41:48.87	8.71	44.14	-31.6	-34.7	10.2	5.41e-03	0	44	0	476053504	23	5171
2026-01-17 00:41:49.87	8.59	44.43	-31.6	-34.7	10.3	8.34e-03	0	43	0	478150656	23	5156
2026-01-17 00:41:50.87	8.47	44.72	-31.8	-35.6	9.6	8.33e-03	0	44	0	480247808	23	5537
2026-01-17 00:41:51.87	8.35	45.01	-31.8	-35.4	9.7	1.18e-02	0	44	0	482344960	23	5444
2026-01-17 00:41:52.87	8.22	45.30	-31.4	-34.1	10.7	4.68e-03	0	44	0	484442112	23	4892
2026-01-17 00:41:53.87	8.09	45.60	-31.3	-33.5	11.1	2.93e-03	0	44	0	485490688	23	4681
2026-01-17 00:41:54.86	7.96	45.89	-31.1	-33.6	11.5	2.11e-03	0	44	0	487587840	22	4765
2026-01-17 00:41:55.86	7.83	46.19	-31.1	-33.5	11.5	7.18e-04	0	44	0	489684992	22	4753
2026-01-17 00:41:56.87	7.69	46.49	-31.3	-34.2	11.0	1.84e-03	0	44	0	491782144	22	5023
2026-01-17 00:41:57.87	7.55	46.79	-31.1	-33.6	11.4	1.81e-03	0	44	0	493879296	22	4795
2026-01-17 00:41:58.88	7.41	47.10	-30.9	-32.9	11.9	1.06e-03	0	43	0	494927872	22	4538
2026-01-17 00:41:59.88	7.27	47.41	-30.4	-32.0	12.8	5.75e-04	0	44	0	497025024	21	4333
2026-01-17 00:42:00.88	7.12	47.72	-30.5	-32.2	12.7	9.73e-04	0	44	0	499122176	21	4392
2026-01-17 00:42:01.88	6.97	48.03	-30.1	-31.0	13.5	3.66e-05	0	44	0	501219328	21	4006
2026-01-17 00:42:02.89	6.82	48.34	-30.0	-31.2	13.7	2.92e-04	0	44	0	503316480	20	4165
2026-01-17 00:42:03.89	6.66	48.66	-29.9	-31.0	13.9	6.03e-04	0	44	0	504365056	20	4100
2026-01-17 00:42:04.90	6.50	48.98	-29.7	-30.4	14.1	1.50e-06	0	44	0	506462208	20	3934
2026-01-17 00:42:05.90	6.34	49.30	-29.7	-31.1	14.3	2.46e-04	0	44	0	508559360	19	4200
2026-01-17 00:42:06.90	6.17	49.62	-29.6	-30.7	14.5	2.82e-04	0	44	0	510656512	19	4088
2026-01-17 00:42:07.91	6.00	49.95	-29.6	-30.7	14.5	7.00e-07	0	44	0	512753664	19	4084
2026-01-17 00:42:08.90	5.82	50.27	-29.3	-30.5	14.9	4.92e-04	0	44	0	513802240	18	4128
2026-01-17 00:42:09.91	5.64	50.60	-29.3	-30.0	14.9	3.20e-04	0	44	0	515899392	19	3903
2026-01-17 00:42:10.91	5.46	50.93	-29.4	-30.2	14.7	0.00e+00	0	44	0	517996544	19	3951
2026-01-17 00:42:11.91	5.28	51.26	-29.1	-29.9	15.2	1.22e-03	0	44	0	520093696	18	3969
2026-01-17 00:42:12.91	5.09	51.59	-29.0	-29.7	15.4	2.30e-04	0	44	0	522190848	18	3903
2026-01-17 00:42:13.90	4.89	51.92	-29.5	-30.4	14.6	0.00e+00	0	44	0	523239424	19	4007
2026-01-17 00:42:14.90	4.69	52.26	-29.5	-30.9	14.6	1.71e-03	0	44	0	525336576	18	4254
2026-01-17 00:42:15.91	4.49	52.60	-29.4	-30.3	14.7	5.87e-05	0	44	0	527433728	19	3979
2026-01-17 00:42:16.91	4.28	52.94	-29.8	-31.3	14.1	0.00e+00	0	44	0	529530880	19	4275
2026-01-17 00:42:17.91	4.07	53.29	-29.4	-30.3	14.7	3.00e-06	0	44	0	530579456	19	3966
2026-01-17 00:42:18.91	3.85	53.63	-29.2	-29.6	15.1	1.89e-03	0	44	0	532676608	19	3797
2026-01-17 00:42:19.92	3.62	53.98	-29.3	-29.9	14.9	0.00e+00	0	44	0	534773760	19	3859
2026-01-17 00:42:20.93	3.39	54.34	-29.4	-30.2	14.8	0.00e+00	0	44	0	536870912	19	3960
2026-01-17 00:42:21.93	3.15	54.69	-29.1	-30.0	15.2	0.00e+00	0	44	0	538968064	18	3985
2026-01-17 00:42:22.93	2.91	55.04	-29.4	-30.7	14.7	7.00e-07	0	44	0	540016640	18	4196
2026-01-17 00:42:23.93	2.66	55.39	-29.3	-30.1	14.9	7.00e-07	0	44	0	542113792	19	3921
2026-01-17 00:42:24.93	2.41	55.75	-29.4	-30.8	14.7	0.00e+00	0	44	0	544210944	18	4215
2026-01-17 00:42:25.93	2.15	56.11	-29.8	-31.2	14.2	2.20e-06	0	43	0	546308096	19	4231
2026-01-17 00:42:26.93	1.88	56.47	-29.4	-30.2	14.6	0.00e+00	0	44	0	548405248	19	3948
2026-01-17 00:42:27.94	1.60	56.83	-29.4	-30.2	14.7	0.00e+00	0	44	0	549453824	19	3962
2026-01-17 00:42:28.94	1.32	57.20	-29.4	-30.2	14.8	7.00e-07	0	44	0	551550976	19	3944
2026-01-17 00:42:29.94	1.03	57.56	-30.0	-31.4	13.6	1.50e-06	0	43	0	553648128	20	4231
2026-01-17 00:42:30.94	0.73	57.93	-30.0	-31.5	13.6	3.89e-05	0	44	0	555745280	20	4251
2026-01-17 00:42:31.94	0.42	58.30	-29.9	-31.0	13.8	7.60e-06	0	43	0	557842432	20	4091
2026-01-17 00:42:32.94	0.10	58.67	-29.8	-31.3	14.1	1.50e-06	0	44	0	558891008	19	4282
2026-01-17 00:42:33.94	359.78	59.04	-29.9	-31.5	14.0	4.65e-05	0	43	0	560988160	19	4345
2026-01-17 00:42:34.95	359.44	59.41	-29.3	-29.5	14.7	1.50e-06	0	44	0	563085312	20	3682
2026-01-17 00:42:35.95	359.10	59.79	-28.8	-29.3	15.6	3.80e-06	0	44	0	565182464	18	3798
2026-01-17 00:42:36.96	358.74	60.16	-28.2	-28.4	16.3	0.00e+00	0	43	0	567279616	17	3674
2026-01-17 00:42:37.96	358.37	60.54	-28.3	-28.6	16.2	0.00e+00	0	44	0	568328192	17	3715
2026-01-17 00:42:38.96	358.00	60.92	-28.8	-29.9	15.5	0.00e+00	0	44	0	570425344	17	4057
2026-01-17 00:42:39.97	357.61	61.30	-29.3	-30.4	14.9	0.00e+00	0	44	0	572522496	18	4128
2026-01-17 00:42:40.96	357.21	61.68	-29.1	-30.0	15.2	0.00e+00	0	44	0	574619648	18	3993
2026-01-17 00:42:41.97	356.79	62.06	-28.9	-29.6	15.4	0.00e+00	0	44	0	575668224	18	3893
2026-01-17 00:42:42.97	356.37	62.44	-29.7	-31.0	14.3	0.00e+00	0	43	0	577765376	19	4183
2026-01-17 00:42:43.98	355.92	62.83	-29.9	-31.6	13.9	8.30e-06	0	44	0	579862528	19	4381
2026-01-17 00:42:44.98	355.47	63.21	-29.9	-31.3	13.7	8.30e-06	0	44	0	581959680	20	4197
2026-01-17 00:42:45.98	355.00	63.59	-29.6	-30.4	14.3	2.20e-06	0	43	0	584056832	20	3946
2026-01-17 00:42:46.98	354.52	63.98	-29.9	-31.7	12.9	4.50e-06	0	44	0	585105408	19	4410
2026-01-17 00:42:47.98	354.01	64.36	-29.3	-30.2	14.5	3.80e-06	0	44	0	587202560	19	3954
2026-01-17 00:42:48.98	353.50	64.74	-28.8	-29.2	15.7	0.00e+00	0	44	0	589299712	18	3787
2026-01-17 00:42:49.97	352.97	65.12	-28.2	-28.2	16.4	0.00e+00	0	44	0	591396864	17	3634
2026-01-17 00:42:50.97	352.41	65.51	-28.3	-28.6	16.3	0.00e+00	0	44	0	593494016	17	3710
2026-01-17 00:42:51.97	351.84	65.89	-28.9	-30.1	15.4	0.00e+00	0	44	0	594542592	17	4107
2026-01-17 00:42:52.98	351.23	66.28	-29.4	-30.8	14.0	0.00e+00	0	44	0	596639744	18	4208
2026-01-17 00:42:53.98	350.62	66.66	-29.7	-30.9	13.9	7.00e-07	0	44	0	598736896	19	4179
2026-01-17 00:42:54.98	349.98	67.04	-29.6	-30.7	14.5	7.00e-07	0	44	0	600834048	19	4113
2026-01-17 00:42:55.99	349.31	67.43	-29.6	-30.8	14.4	3.00e-06	0	44	0	602931200	19	4139
2026-01-17 00:42:56.99	348.62	67.81	-29.8	-31.4	14.0	1.21e-03	0	44	0	603979776	19	4318
2026-01-17 00:42:57.99	347.90	68.18	-29.8	-31.3	14.1	3.80e-06	0	44	0	606076928	19	4279
2026-01-17 00:42:58.99	347.16	68.56	-29.8	-31.4	14.0	2.20e-06	0	44	0	608174080	19	4320
2026-01-17 00:42:59.99	346.39	68.94	-29.9	-31.7	13.8	5.87e-05	0	44	0	610271232	19	4420
2026-01-17 00:43:01.00	345.58	69.31	-30.7	-32.9	12.3	6.48e-05	0	44	0	612368384	21	4638
2026-01-17 00:43:02.00	344.74	69.68	-30.7	-32.9	12.2	2.85e-04	0	44	0	613416960	21	4651
2026-01-17 00:43:03.00	343.88	70.05	-30.3	-32.2	13.1	2.61e-04	0	44	0	615514112	20	4488
2026-01-17 00:43:04.01	342.96	70.42	-29.7	-30.7	14.1	8.30e-06	0	44	0	617611264	20	4014
2026-01-17 00:43:05.01	342.03	70.78	-29.9	-31.3	13.7	3.80e-06	0	43	0	619708416	20	4197
2026-01-17 00:43:06.01	341.05	71.13	-30.1	-31.6	13.5	1.60e-05	0	43	0	620756992	20	4298
2026-01-17 00:43:07.02	340.02	71.49	-29.4	-29.9	14.5	2.89e-05	0	44	0	622854144	20	3808
2026-01-17 00:43:08.02	338.96	71.84	-29.7	-31.2	14.1	1.99e-04	0	44	0	624951296	19	4249
2026-01-17 00:43:09.02	337.86	72.18	-30.3	-32.4	12.9	9.90e-06	0	44	0	627048448	20	4560
2026-01-17 00:43:10.02	336.71	72.52	-31.4	-34.6	10.7	5.30e-04	0	44	0	629145600	22	5171
2026-01-17 00:43:11.02	335.52	72.85	-31.5	-34.3	10.7	3.52e-03	0	44	0	630194176	23	4982
2026-01-17 00:43:12.03	334.26	73.18	-31.1	-33.1	11.4	4.49e-03	0	44	0	632291328	23	4543
2026-01-17 00:43:13.03	332.96	73.49	-30.6	-32.1	12.5	8.87e-04	0	44	0	634388480	22	4280
2026-01-17 00:43:14.03	331.61	73.80	-30.0	-31.5	13.6	2.04e-04	0	44	0	636485632	20	4270
2026-01-17 00:43:15.03	330.21	74.11	-30.3	-32.3	13.1	3.04e-04	0	44	0	638582784	20	4510
2026-01-17 00:43:16.04	328.73	74.40	-30.9	-33.6	11.8	1.31e-04	0	44	0	639631360	21	4906
2026-01-17 00:43:17.03	327.23	74.68	-31.8	-35.4	9.8	4.53e-03	0	44	0	641728512	23	5475
2026-01-17 00:43:18.03	325.65	74.96	-31.4	-33.9	11.0	3.40e-03	0	44	0	643825664	23	4792
2026-01-17 00:43:19.04	324.00	75.22	-31.5	-34.3	10.8	2.01e-03	0	44	0	645922816	23	4958
2026-01-17 00:43:20.05	322.29	75.48	-31.3	-33.6	11.2	1.63e-03	0	44	0	648019968	23	4685
2026-01-17 00:43:21.05	320.53	75.72	-31.2	-33.6	11.6	8.28e-04	0	44	0	649068544	22	4746
2026-01-17 00:43:22.05	318.71	75.94	-31.2	-33.5	11.7	3.72e-04	0	44	0	651165696	22	4739
2026-01-17 00:43:23.05	316.83	76.15	-31.1	-33.3	11.7	4.86e-04	0	44	0	653262848	22	4663
2026-01-17 00:43:24.04	314.92	76.35	-31.2	-33.6	11.7	8.44e-04	0	43	0	655360000	22	4759
2026-01-17 00:43:25.04	312.92	76.53	-31.5	-34.2	10.9	6.01e-04	0	44	0	657457152	23	4890
2026-01-17 00:43:26.05	310.86	76.70	-31.4	-33.9	11.0	2.77e-03	0	43	0	658505728	23	4752
2026-01-17 00:43:27.05	308.76	76.85	-31.7	-34.5	10.7	2.72e-03	0	43	0	660602880	23	4997
2026-01-17 00:43:28.05	306.62	76.98	-31.8	-34.9	10.5	2.53e-03	0	44	0	662700032	23	5146
2026-01-17 00:43:29.05	304.43	77.09	-31.7	-34.2	10.3	7.69e-03	0	44	0	664797184	24	4790
2026-01-17 00:43:30.05	302.21	77.19	-32.1	-35.5	9.5	6.17e-03	0	44	0	665845760	24	5333
2026-01-17 00:43:31.05	299.96	77.26	-32.2	-35.8	9.2	2.26e-02	0	44	0	667942912	24	5482
2026-01-17 00:43:32.05	297.68	77.32	-31.2	-32.9	11.7	4.71e-03	0	43	0	670040064	23	4406
2026-01-17 00:43:33.05	295.38	77.35	-31.3	-33.9	11.3	1.72e-03	0	44	0	672137216	22	4871
2026-01-17 00:43:34.05	293.08	77.37	-31.9	-35.4	9.9	2.25e-03	0	44	0	674234368	23	5414
2026-01-17 00:43:35.05	290.77	77.37	-32.2	-36.3	8.8	2.65e-02	0	43	0	675282944	24	5736
2026-01-17 00:43:36.05	288.47	77.35	-32.1	-36.0	9.0	2.43e-02	0	44	0	677380096	24	5616
2026-01-17 00:43:37.05	286.18	77.30	-32.7	-38.1	7.0	7.36e-02	0	44	0	679477248	25	6697
2026-01-17 00:43:38.06	283.88	77.24	-32.2	-36.4	8.8	5.43e-02	0	44	0	681574400	24	5778
2026-01-17 00:43:39.06	281.64	77.16	-32.1	-35.8	9.1	2.54e-02	0	44	0	683671552	24	5526
2026-01-17 00:43:40.06	279.43	77.06	-32.5	-37.2	8.2	3.85e-02	0	44	0	684720128	24	6209
2026-01-17 00:43:41.06	277.26	76.94	-32.2	-36.1	9.0	3.33e-02	0	44	0	686817280	24	5660
2026-01-17 00:43:42.06	275.13	76.80	-32.2	-36.0	9.2	1.64e-02	0	44	0	688914432	24	5586
2026-01-17 00:43:43.06	273.04	76.65	-32.5	-37.1	7.8	6.00e-02	0	44	0	691011584	25	6059
2026-01-17 00:43:44.06	271.01	76.47	-32.5	-36.8	8.1	7.78e-02	0	44	0	692060160	25	5927
2026-01-17 00:43:45.07	269.02	76.29	-32.1	-35.7	9.3	2.34e-02	0	44	0	694157312	24	5440
2026-01-17 00:43:46.07	267.10	76.08	-31.3	-33.0	11.3	5.44e-03	0	44	0	696254464	24	4362
2026-01-17 00:43:47.07	265.24	75.87	-30.1	-31.5	13.6	2.42e-03	0	44	0	698351616	20	4246
2026-01-17 00:43:48.08	263.42	75.63	-30.7	-32.7	12.5	9.10e-06	0	44	0	700448768	21	4534
2026-01-17 00:43:49.08	261.68	75.39	-31.8	-35.3	9.9	4.88e-03	0	44	0	701497344	23	5349
2026-01-17 00:43:50.08	260.01	75.14	-31.5	-34.1	10.8	1.17e-02	0	44	0	703594496	23	4874
2026-01-17 00:43:51.08	258.39	74.87	-32.0	-35.7	9.7	5.20e-03	0	44	0	705691648	23	5534
2026-01-17 00:43:52.08	256.83	74.59	-32.2	-36.1	9.0	3.96e-02	0	44	0	707788800	24	5652
2026-01-17 00:43:53.08	255.33	74.31	-31.6	-34.2	10.3	1.78e-02	0	44	0	709885952	24	4819
2026-01-17 00:43:54.09	253.87	74.01	-31.5	-34.3	10.6	4.44e-03	0	44	0	710934528	23	4978
2026-01-17 00:43:55.09	252.49	73.70	-32.2	-36.2	8.7	3.14e-02	0	44	0	713031680	24	5757
2026-01-17 00:43:56.10	251.14	73.38	-32.3	-37.0	8.1	5.68e-02	0	44	0	715128832	24	6161
2026-01-17 00:43:57.10	249.86	73.06	-32.4	-37.2	7.9	6.34e-02	0	44	0	717225984	24	6258
2026-01-17 00:43:58.10	248.63	72.74	-32.5	-37.5	7.8	6.64e-02	0	44	0	719323136	24	6447
2026-01-17 00:43:59.10	247.45	72.40	-32.5	-37.1	7.7	7.49e-02	0	44	0	720371712	25	6106
2026-01-17 00:44:00.11	246.31	72.06	-32.5	-37.0	7.7	7.95e-02	0	44	0	722468864	25	6085
2026-01-17 00:44:01.11	245.22	71.71	-32.5	-37.0	7.8	1.15e-01	0	44	0	724566016	25	6041
2026-01-17 00:44:02.12	244.16	71.36	-32.5	-37.0	7.8	8.03e-02	0	44	0	726663168	25	6023
2026-01-17 00:44:03.12	243.16	71.01	-32.8	-38.3	6.8	1.81e-01	0	44	0	728760320	25	6823
2026-01-17 00:44:04.12	242.19	70.65	-32.5	-36.8	8.1	1.01e-01	0	44	0	729808896	25	5914
2026-01-17 00:44:05.12	241.27	70.28	-32.7	-37.7	7.3	9.05e-02	0	43	0	731906048	25	6434
2026-01-17 00:44:06.12	240.38	69.92	-33.1	-39.7	5.7	3.68e-01	0	44	0	734003200	26	7657
2026-01-17 00:44:07.12	239.52	69.55	-32.9	-38.4	6.4	3.72e-01	0	44	0	736100352	26	6797
2026-01-17 00:44:08.11	238.70	69.18	-32.7	-38.0	7.0	1.23e-01	0	43	0	737148928	25	6580
2026-01-17 00:44:09.11	237.91	68.81	-32.9	-39.1	6.2	2.72e-01	0	44	0	739246080	25	7355
2026-01-17 00:44:10.11	237.15	68.43	-32.7	-38.1	7.1	1.95e-01	0	44	0	741343232	25	6705
2026-01-17 00:44:11.11	236.41	68.06	-32.5	-37.2	7.7	8.84e-02	0	44	0	743440384	25	6176
2026-01-17 00:44:12.11	235.71	67.68	-32.5	-37.2	7.7	8.40e-02	0	44	0	745537536	25	6174
2026-01-17 00:44:13.11	235.02	67.30	-32.2	-35.7	8.8	6.34e-02	0	44	0	746586112	25	5393
2026-01-17 00:44:14.12	234.36	66.91	-32.0	-35.6	9.2	2.08e-02	0	44	0	748683264	24	5413
2026-01-17 00:44:15.12	233.73	66.53	-32.2	-36.1	8.8	2.52e-02	0	44	0	750780416	24	5700
2026-01-17 00:44:16.11	233.12	66.15	-31.9	-35.3	9.4	3.52e-02	0	44	0	752877568	24	5297
2026-01-17 00:44:17.12	232.53	65.76	-30.5	-31.8	12.7	3.64e-03	0	44	0	754974720	22	4154
2026-01-17 00:44:18.12	231.96	65.38	-30.0	-31.3	13.6	2.01e-03	0	44	0	756023296	20	4182
2026-01-17 00:44:19.12	231.41	64.99	-29.8	-30.8	13.9	7.32e-05	0	44	0	758120448	20	4056
2026-01-17 00:44:20.12	230.88	64.61	-28.8	-28.8	15.5	0.00e+00	0	44	0	760217600	19	3602
2026-01-17 00:44:21.11	230.37	64.23	-28.1	-28.0	16.5	1.99e-03	0	44	0	762314752	17	3565
2026-01-17 00:44:22.12	229.87	63.84	-27.4	-27.0	17.4	0.00e+00	0	44	0	764411904	16	3439
2026-01-17 00:44:23.12	229.39	63.45	-27.7	-28.2	16.8	9.30e-05	0	44	0	765460480	15	3815
2026-01-17 00:44:24.11	228.93	63.07	-29.3	-30.5	14.8	1.71e-03	0	44	0	767557632	18	4143
2026-01-17 00:44:25.11	228.48	62.69	-28.8	-29.3	15.4	0.00e+00	0	44	0	769654784	18	3823
2026-01-17 00:44:26.11	228.04	62.31	-28.5	-29.1	16.0	1.01e-04	0	44	0	771751936	17	3839
2026-01-17 00:44:27.11	227.62	61.92	-28.5	-29.2	15.8	1.01e-04	0	44	0	772800512	17	3877
2026-01-17 00:44:28.11	227.21	61.54	-29.2	-30.3	14.7	7.00e-07	0	44	0	774897664	18	4097
2026-01-17 00:44:29.11	226.81	61.16	-29.4	-30.8	14.6	1.14e-03	0	44	0	776994816	18	4235
2026-01-17 00:44:30.11	226.43	60.78	-30.3	-32.2	13.0	2.17e-04	0	44	0	779091968	20	4501
2026-01-17 00:44:31.11	226.05	60.41	-30.2	-31.9	13.1	4.42e-05	0	43	0	781189120	20	4396
2026-01-17 00:44:32.11	225.69	60.03	-30.4	-32.0	12.8	1.96e-03	0	44	0	782237696	21	4341
2026-01-17 00:44:33.11	225.34	59.65	-31.1	-33.8	11.2	8.50e-04	0	44	0	784334848	22	4912
2026-01-17 00:44:34.12	224.99	59.28	-32.1	-36.5	8.5	2.50e-02	0	44	0	786432000	24	5925
2026-01-17 00:44:35.13	224.66	58.90	-31.4	-34.0	10.6	1.17e-02	0	44	0	788529152	23	4889
2026-01-17 00:44:36.13	224.34	58.53	-29.9	-30.7	13.6	5.64e-05	0	44	0	790626304	21	3930
2026-01-17 00:44:37.13	224.02	58.16	-29.9	-31.1	13.7	5.30e-06	0	44	0	791674880	20	4140
2026-01-17 00:44:38.13	223.72	57.79	-29.7	-31.1	14.0	8.39e-05	0	44	0	793772032	19	4229
2026-01-17 00:44:39.12	223.42	57.43	-29.4	-30.7	14.6	1.49e-03	0	44	0	795869184	18	4204
2026-01-17 00:44:40.11	223.14	57.06	-29.6	-30.9	14.2	7.00e-07	0	44	0	797966336	19	4160
2026-01-17 00:44:41.12	222.86	56.70	-29.7	-31.1	14.0	5.30e-06	0	44	0	800063488	19	4241
2026-01-17 00:44:42.12	222.58	56.33	-29.8	-31.5	13.9	7.40e-05	0	44	0	801112064	19	4360
2026-01-17 00:44:43.12	222.31	55.97	-29.6	-30.7	14.3	3.80e-06	0	44	0	803209216	19	4117
2026-01-17 00:44:44.11	222.06	55.62	-29.6	-30.9	14.2	6.80e-06	0	44	0	805306368	19	4169
2026-01-17 00:44:45.11	221.80	55.26	-29.8	-31.3	13.9	0.00e+00	0	44	0	807403520	19	4300
2026-01-17 00:44:46.11	221.56	54.91	-29.4	-30.0	14.3	7.60e-06	0	44	0	808452096	20	3828
2026-01-17 00:44:47.11	221.32	54.55	-28.9	-29.1	15.3	0.00e+00	0	44	0	810549248	19	3681
2026-01-17 00:44:48.10	221.08	54.21	-29.0	-29.8	15.1	0.00e+00	0	44	0	812646400	18	3966
2026-01-17 00:44:49.10	220.86	53.86	-29.7	-31.2	14.0	6.80e-06	0	44	0	814743552	19	4255
2026-01-17 00:44:50.11	220.63	53.51	-29.4	-30.3	14.6	5.23e-04	0	44	0	816840704	19	3994
2026-01-17 00:44:51.11	220.41	53.16	-28.7	-29.0	15.5	1.14e-05	0	43	0	817889280	18	3753
2026-01-17 00:44:52.12	220.20	52.81	-28.7	-29.1	15.6	0.00e+00	0	44	0	819986432	18	3762
2026-01-17 00:44:53.12	219.99	52.47	-29.2	-30.4	14.8	5.94e-04	0	44	0	822083584	18	4133
2026-01-17 00:44:54.12	219.78	52.13	-29.3	-30.2	14.5	1.38e-04	0	44	0	824180736	19	3982
2026-01-17 00:44:55.13	219.58	51.79	-29.4	-30.4	14.5	0.00e+00	0	44	0	826277888	19	4037
2026-01-17 00:44:56.13	219.39	51.46	-30.1	-31.8	13.1	1.06e-04	0	44	0	827326464	20	4381
2026-01-17 00:44:57.13	219.20	51.12	-30.5	-32.5	12.4	5.78e-04	0	44	0	829423616	21	4526
2026-01-17 00:44:58.13	219.02	50.79	-31.2	-34.1	11.2	1.03e-03	0	44	0	831520768	22	5035
2026-01-17 00:44:59.13	218.83	50.46	-30.7	-32.6	11.7	1.05e-03	0	44	0	833617920	22	4495
2026-01-17 00:45:00.14	218.66	50.13	-30.9	-33.6	11.5	1.84e-03	0	44	0	835715072	21	4938
2026-01-17 00:45:01.14	218.48	49.80	-30.2	-31.7	12.9	1.40e-04	0	44	0	836763648	21	4266
2026-01-17 00:45:02.14	218.31	49.48	-30.3	-32.3	12.8	2.43e-04	0	44	0	838860800	20	4557
2026-01-17 00:45:03.14	218.15	49.16	-30.1	-31.9	13.1	3.00e-04	0	44	0	840957952	20	4419
2026-01-17 00:45:04.15	217.98	48.84	-30.3	-32.5	12.7	7.32e-05	0	44	0	843055104	20	4627
2026-01-17 00:45:05.15	217.82	48.52	-29.9	-31.2	13.5	2.45e-04	0	43	0	845152256	20	4190
2026-01-17 00:45:06.16	217.66	48.20	-30.2	-32.1	13.3	3.34e-04	0	44	0	846200832	20	4477
2026-01-17 00:45:07.16	217.51	47.89	-30.1	-31.8	13.1	2.89e-05	0	44	0	848297984	20	4382
2026-01-17 00:45:08.18	217.36	47.57	-30.2	-32.2	12.8	4.92e-04	0	44	0	850395136	20	4523
2026-01-17 00:45:09.17	217.21	47.26	-30.0	-31.7	13.2	5.32e-04	0	44	0	852492288	20	4363
2026-01-17 00:45:10.17	217.07	46.96	-30.3	-32.4	12.7	2.21e-05	0	44	0	853540864	20	4580
2026-01-17 00:45:11.17	216.93	46.65	-30.3	-32.4	12.7	5.87e-05	0	43	0	855638016	20	4591
2026-01-17 00:45:12.18	216.79	46.35	-30.5	-32.9	12.4	5.25e-04	0	44	0	857735168	20	4771
2026-01-17 00:45:13.17	216.66	46.05	-30.7	-33.2	11.8	2.18e-04	0	44	0	859832320	21	4799
2026-01-17 00:45:14.18	216.52	45.75	-31.0	-33.6	11.3	1.31e-03	0	44	0	861929472	22	4831
2026-01-17 00:45:15.17	216.39	45.45	-31.0	-33.5	11.3	3.02e-03	0	44	0	862978048	22	4790
2026-01-17 00:45:16.18	216.27	45.15	-30.0	-31.1	13.1	1.94e-04	0	44	0	865075200	21	4075
2026-01-17 00:45:17.18	216.14	44.86	-29.4	-30.4	14.4	2.56e-04	0	44	0	867172352	19	4029
2026-01-17 00:45:18.18	216.02	44.57	-29.6	-31.0	14.0	1.50e-06	0	44	0	869269504	19	4223
2026-01-17 00:45:19.18	215.90	44.28	-30.3	-32.5	12.7	2.51e-05	0	44	0	871366656	20	4616
2026-01-17 00:45:20.18	215.78	43.99	-30.7	-33.1	12.0	3.71e-04	0	44	0	872415232	21	4746
2026-01-17 00:45:21.18	215.66	43.71	-31.0	-33.3	11.3	1.62e-03	0	44	0	874512384	22	4736
2026-01-17 00:45:22.18	215.55	43.43	-30.3	-31.5	12.3	3.43e-04	0	44	0	876609536	22	4106
2026-01-17 00:45:23.19	215.43	43.14	-30.7	-33.5	11.8	3.97e-04	0	44	0	878706688	20	4987
2026-01-17 00:45:24.18	215.32	42.87	-30.8	-33.3	11.7	4.00e-04	0	44	0	880803840	21	4822
2026-01-17 00:45:25.19	215.22	42.59	-30.7	-33.2	11.3	4.52e-04	0	44	0	881852416	21	4771
2026-01-17 00:45:26.19	215.11	42.31	-30.4	-32.7	11.9	1.94e-04	0	44	0	883949568	20	4709
2026-01-17 00:45:27.19	215.00	42.04	-30.4	-32.6	12.6	1.24e-04	0	44	0	886046720	20	4650
2026-01-17 00:45:28.20	214.90	41.76	-30.8	-33.2	11.7	2.55e-04	0	44	0	888143872	21	4790
2026-01-17 00:45:29.19	214.80	41.50	-31.5	-34.8	10.0	2.79e-03	0	44	0	890241024	23	5215
2026-01-17 00:45:30.19	214.70	41.23	-31.9	-35.5	8.3	1.55e-02	0	44	0	891289600	24	5473
2026-01-17 00:45:31.20	214.60	40.96	-32.5	-37.9	6.9	1.11e-01	0	44	0	893386752	25	6681
2026-01-17 00:45:32.19	214.51	40.70	-32.4	-37.6	7.3	1.73e-01	0	44	0	895483904	24	6603
2026-01-17 00:45:33.20	214.41	40.43	-31.9	-35.6	8.9	6.06e-02	0	43	0	897581056	24	5508
2026-01-17 00:45:34.19	214.32	40.18	-31.5	-34.5	10.1	1.66e-02	0	44	0	898629632	23	5094
2026-01-17 00:45:35.19	214.23	39.92	-31.2	-33.9	11.0	2.05e-03	0	44	0	900726784	22	4942
2026-01-17 00:45:36.19	214.14	39.66	-31.4	-34.2	10.4	5.20e-03	0	44	0	902823936	23	4970
2026-01-17 00:45:37.19	214.05	39.41	-31.1	-33.8	11.0	2.92e-03	0	44	0	904921088	22	4908
2026-01-17 00:45:38.19	213.97	39.15	-31.3	-34.0	10.4	7.10e-03	0	44	0	907018240	23	4884
2026-01-17 00:45:39.20	213.88	38.90	-31.0	-32.9	11.4	1.92e-03	0	44	0	908066816	23	4476
2026-01-17 00:45:40.20	213.79	38.65	-30.9	-33.1	11.5	1.47e-03	0	44	0	910163968	22	4662
2026-01-17 00:45:41.21	213.71	38.40	-30.3	-32.0	12.6	6.55e-04	0	44	0	912261120	21	4348
2026-01-17 00:45:42.20	213.63	38.15	-30.3	-32.1	12.5	7.32e-05	0	44	0	914358272	21	4394
2026-01-17 00:45:43.20	213.55	37.91	-30.4	-32.8	12.3	1.22e-04	0	44	0	916455424	20	4747
2026-01-17 00:45:44.21	213.47	37.66	-30.7	-33.2	11.7	2.43e-04	0	44	0	917504000	21	4794
2026-01-17 00:45:45.21	213.39	37.42	-31.2	-34.3	10.6	2.53e-03	0	44	0	919601152	22	5139
2026-01-17 00:45:46.21	213.32	37.18	-31.3	-34.6	10.9	3.15e-03	0	44	0	921698304	22	5250
2026-01-17 00:45:47.21	213.24	36.95	-31.2	-34.1	10.7	7.65e-03	0	44	0	923795456	22	5044
2026-01-17 00:45:48.21	213.17	36.71	-30.7	-32.8	11.7	1.65e-03	0	44	0	924844032	22	4546
2026-01-17 00:45:49.21	213.09	36.48	-30.4	-32.8	12.3	1.52e-03	0	44	0	926941184	20	4743
2026-01-17 00:45:50.22	213.02	36.24	-30.2	-32.3	12.7	8.08e-05	0	44	0	929038336	20	4562
2026-01-17 00:45:51.22	212.95	36.01	-30.6	-32.9	11.9	1.85e-04	0	44	0	931135488	21	4698
2026-01-17 00:45:52.22	212.88	35.78	-30.8	-33.7	11.3	9.99e-04	0	44	0	933232640	21	4988
2026-01-17 00:45:53.23	212.81	35.55	-31.0	-34.3	10.9	9.84e-04	0	44	0	934281216	21	5263
2026-01-17 00:45:54.23	212.74	35.32	-31.0	-33.8	10.7	3.18e-03	0	44	0	936378368	22	4967
2026-01-17 00:45:55.24	212.67	35.10	-31.0	-34.0	10.7	2.72e-03	0	44	0	938475520	22	5090
2026-01-17 00:45:56.24	212.61	34.87	-31.1	-34.4	10.4	5.10e-03	0	44	0	940572672	22	5235
2026-01-17 00:45:57.24	212.54	34.65	-31.1	-34.4	10.3	4.82e-03	0	44	0	942669824	22	5254
2026-01-17 00:45:58.25	212.48	34.43	-30.7	-33.4	11.3	1.58e-03	0	44	0	943718400	21	4913
2026-01-17 00:45:59.26	212.41	34.21	-30.5	-32.8	11.9	1.74e-03	0	44	0	945815552	21	4686
2026-01-17 00:46:00.27	212.35	33.99	-30.3	-32.3	12.3	3.55e-04	0	44	0	947912704	21	4497
2026-01-17 00:46:01.27	212.29	33.77	-30.0	-31.7	13.0	8.62e-05	0	44	0	950009856	20	4403
2026-01-17 00:46:02.27	212.23	33.56	-29.9	-32.1	13.2	1.55e-03	0	44	0	952107008	19	4620
2026-01-17 00:46:03.27	212.17	33.35	-29.7	-31.5	13.5	2.21e-05	0	44	0	953155584	19	4441
2026-01-17 00:46:04.27	212.11	33.13	-29.8	-31.7	13.4	1.75e-05	0	44	0	955252736	19	4490
2026-01-17 00:46:05.27	212.05	32.92	-29.8	-31.7	13.3	1.67e-05	0	44	0	957349888	19	4502
2026-01-17 00:46:06.27	211.99	32.72	-30.1	-32.2	12.7	4.80e-05	0	44	0	959447040	20	4556
2026-01-17 00:46:07.28	211.94	32.51	-30.2	-32.6	12.3	9.60e-04	0	44	0	961544192	20	4701
2026-01-17 00:46:08.28	211.88	32.30	-30.6	-33.2	11.6	3.86e-04	0	44	0	962592768	21	4841
2026-01-17 00:46:09.28	211.83	32.10	-30.7	-33.7	11.2	1.09e-03	0	44	0	964689920	21	5058
2026-01-17 00:46:10.28	211.77	31.89	-31.1	-33.9	10.3	5.13e-03	0	44	0	966787072	23	4941
2026-01-17 00:46:11.28	211.72	31.69	-31.6	-35.9	8.7	1.10e-02	0	44	0	968884224	23	5903
2026-01-17 00:46:12.28	211.66	31.49	-31.6	-35.8	8.8	1.85e-02	0	44	0	969932800	23	5830
2026-01-17 00:46:13.28	211.61	31.29	-31.5	-35.6	8.9	3.19e-02	0	44	0	972029952	23	5764
2026-01-17 00:46:14.29	211.56	31.09	-31.3	-35.0	9.8	2.36e-02	0	44	0	974127104	22	5538
2026-01-17 00:46:15.30	211.51	30.89	-31.1	-34.2	10.3	7.61e-03	0	44	0	976224256	22	5185
2026-01-17 00:46:16.31	211.46	30.70	-31.1	-34.2	10.4	6.36e-03	0	44	0	978321408	22	5177
2026-01-17 00:46:17.31	211.41	30.50	-30.9	-34.1	10.9	4.69e-03	0	44	0	980418560	21	5196
2026-01-17 00:46:18.31	211.36	30.31	-31.0	-34.3	10.8	1.51e-03	0	43	0	981467136	21	5261
2026-01-17 00:46:19.32	211.31	30.12	-30.9	-33.9	11.1	4.68e-03	0	44	0	983564288	21	5086
2026-01-17 00:46:20.32	211.26	29.93	-30.8	-33.7	11.2	4.30e-03	0	44	0	985661440	21	5021
2026-01-17 00:46:21.32	211.21	29.74	-31.1	-34.0	10.7	1.99e-03	0	44	0	987758592	22	5053
2026-01-17 00:46:22.32	211.17	29.55	-31.2	-34.4	10.3	3.17e-03	0	44	0	988807168	22	5222
2026-01-17 00:46:23.32	211.12	29.36	-30.8	-33.8	11.1	4.98e-03	0	44	0	990904320	21	5064
2026-01-17 00:46:24.32	211.08	29.18	-30.5	-32.9	11.8	1.38e-03	0	44	0	993001472	21	4719
2026-01-17 00:46:25.32	211.03	29.00	-30.3	-32.4	12.1	3.42e-03	0	44	0	995098624	21	4538
2026-01-17 00:46:26.32	210.99	28.81	-30.3	-32.7	12.2	3.14e-03	0	44	0	997195776	20	4764
2026-01-17 00:46:27.33	210.94	28.63	-30.3	-32.9	12.1	5.94e-04	0	44	0	998244352	20	4844
2026-01-17 00:46:28.33	210.90	28.45	-30.0	-32.0	12.7	2.86e-03	0	44	0	1000341504	20	4525
2026-01-17 00:46:29.33	210.86	28.27	-29.6	-31.4	13.4	2.61e-03	0	44	0	1002438656	19	4400
2026-01-17 00:46:30.33	210.81	28.09	-29.4	-30.7	13.9	3.92e-04	0	44	0	1004535808	19	4194
2026-01-17 00:46:31.34	210.77	27.91	-29.5	-31.5	13.7	2.53e-03	0	44	0	1006632960	18	4542
2026-01-17 00:46:32.34	210.73	27.74	-29.4	-31.3	13.8	2.31e-03	0	44	0	1007681536	18	4497
2026-01-17 00:46:33.34	210.69	27.56	-29.5	-31.2	13.5	4.38e-04	0	44	0	1009778688	19	4381
2026-01-17 00:46:34.34	210.65	27.39	-29.9	-32.2	12.8	2.34e-03	0	44	0	1011875840	19	4724
2026-01-17 00:46:35.34	210.61	27.22	-30.2	-32.8	12.0	2.77e-03	0	44	0	1013972992	20	4840
2026-01-17 00:46:36.35	210.57	27.04	-30.4	-33.6	11.4	1.23e-03	0	44	0	1016070144	20	5205
2026-01-17 00:46:37.34	210.53	26.87	-30.8	-34.3	10.5	4.98e-03	0	44	0	1017118720	21	5398
2026-01-17 00:46:38.34	210.49	26.70	-30.9	-35.0	10.0	6.00e-03	0	44	0	1019215872	21	5713
2026-01-17 00:46:39.34	210.45	26.54	-30.8	-34.5	10.4	6.87e-03	0	44	0	1021313024	21	5475
2026-01-17 00:46:40.34	210.42	26.37	-30.6	-33.5	11.1	4.87e-03	0	44	0	1023410176	21	5048
2026-01-17 00:46:41.34	210.38	26.20	-30.3	-33.1	11.8	2.94e-03	0	44	0	1025507328	20	4966
2026-01-17 00:46:42.34	210.34	26.04	-30.1	-32.6	12.0	6.19e-04	0	44	0	1026555904	20	4800
2026-01-17 00:46:43.33	210.30	25.87	-29.9	-32.1	12.4	1.48e-03	0	44	0	1028653056	20	4625
2026-01-17 00:46:44.34	210.27	25.71	-29.7	-31.9	12.8	1.93e-03	0	44	0	1030750208	19	4631
2026-01-17 00:46:45.34	210.23	25.55	-29.7	-31.9	13.0	2.46e-04	0	44	0	1032847360	19	4621
2026-01-17 00:46:46.35	210.20	25.38	-29.5	-31.1	13.6	1.39e-03	0	44	0	1033895936	19	4348
2026-01-17 00:46:47.35	210.16	25.22	-29.3	-31.1	13.9	1.25e-03	0	44	0	1035993088	18	4428
2026-01-17 00:46:48.35	210.13	25.06	-29.5	-31.0	13.7	1.40e-04	0	44	0	1038090240	19	4297
2026-01-17 00:46:49.35	210.09	24.90	-29.6	-31.3	13.4	3.33e-04	0	44	0	1040187392	19	4386
2026-01-17 00:46:50.35	210.06	24.75	-29.7	-31.5	13.3	9.98e-04	0	44	0	1042284544	19	4451
2026-01-17 00:46:51.35	210.03	24.59	-29.7	-31.5	13.3	5.72e-05	0	44	0	1043333120	19	4471
2026-01-17 00:46:52.35	209.99	24.43	-29.5	-31.2	13.5	3.73e-05	0	44	0	1045430272	19	4365
2026-01-17 00:46:53.35	209.96	24.28	-29.6	-31.4	13.3	7.63e-04	0	44	0	1047527424	19	4422
2026-01-17 00:46:54.35	209.93	24.12	-29.7	-31.6	13.2	1.22e-05	0	44	0	1049624576	19	4479
2026-01-17 00:46:55.34	209.90	23.97	-29.9	-32.1	12.9	1.69e-04	0	44	0	1051721728	19	4660
2026-01-17 00:46:56.34	209.87	23.82	-29.7	-31.6	13.2	3.32e-04	0	44	0	1052770304	19	4471
2026-01-17 00:46:57.33	209.83	23.67	-29.6	-31.3	13.4	1.29e-05	0	44	0	1054867456	19	4400
2026-01-17 00:46:58.33	209.80	23.52	-29.6	-31.3	13.3	5.86e-04	0	44	0	1056964608	19	4404
2026-01-17 00:46:59.33	209.77	23.37	-29.7	-31.5	13.3	6.39e-04	0	44	0	1059061760	19	4459
2026-01-17 00:47:00.33	209.74	23.22	-29.8	-31.9	13.0	2.67e-05	0	44	0	1060110336	19	4576
2026-01-17 00:47:01.33	209.71	23.07	-29.7	-31.7	13.1	4.86e-04	0	44	0	1062207488	19	4526
2026-01-17 00:47:02.34	209.68	22.93	-29.7	-31.7	13.1	1.06e-03	0	44	0	1064304640	19	4539
2026-01-17 00:47:03.34	209.65	22.78	-29.6	-31.5	13.2	4.88e-05	0	44	0	1066401792	19	4489
2026-01-17 00:47:04.34	209.62	22.63	-29.6	-31.4	13.3	3.95e-04	0	44	0	1068498944	19	4443
2026-01-17 00:47:05.34	209.59	22.49	-29.5	-31.2	13.4	1.32e-03	0	44	0	1069547520	19	4360
2026-01-17 00:47:06.35	209.57	22.34	-29.7	-31.7	13.0	2.21e-05	0	44	0	1071644672	19	4552
2026-01-17 00:47:07.35	209.54	22.20	-29.8	-32.0	12.8	4.23e-04	0	44	0	1073741824	19	4675
2026-01-17 00:47:08.35	209.51	22.06	-29.7	-31.7	13.0	4.49e-04	0	44	0	1075838976	19	4563
2026-01-17 00:47:09.35	209.48	21.92	-29.8	-32.2	12.7	4.42e-05	0	44	0	1077936128	19	4738
2026-01-17 00:47:10.35	209.45	21.78	-30.0	-32.3	12.2	1.79e-03	0	44	0	1078984704	20	4684
2026-01-17 00:47:11.35	209.43	21.64	-30.1	-32.5	11.9	7.74e-04	0	44	0	1081081856	20	4789
2026-01-17 00:47:12.35	209.40	21.50	-30.1	-32.7	11.9	3.92e-04	0	44	0	1083179008	20	4856
2026-01-17 00:47:13.35	209.37	21.36	-30.1	-32.6	11.9	2.22e-03	0	44	0	1085276160	20	4821
2026-01-17 00:47:14.35	209.35	21.22	-30.3	-33.2	11.5	1.17e-03	0	44	0	1087373312	20	5045
2026-01-17 00:47:15.35	209.32	21.08	-30.3	-33.3	11.4	1.12e-03	0	44	0	1088421888	20	5082
2026-01-17 00:47:16.35	209.30	20.95	-30.3	-33.4	11.3	2.95e-03	0	44	0	1090519040	20	5145
2026-01-17 00:47:17.35	209.27	20.81	-30.5	-33.5	10.8	3.46e-03	0	44	0	1092616192	21	5086
2026-01-17 00:47:18.35	209.25	20.68	-30.5	-33.4	10.9	2.99e-03	0	44	0	1094713344	21	5044
2026-01-17 00:47:19.36	209.22	20.54	-30.3	-33.3	11.4	2.32e-03	0	44	0	1095761920	20	5087
2026-01-17 00:47:20.36	209.19	20.41	-30.5	-33.4	10.9	3.07e-03	0	44	0	1097859072	21	5041
2026-01-17 00:47:21.36	209.17	20.28	-30.6	-33.7	10.7	2.44e-03	0	44	0	1099956224	21	5166
2026-01-17 00:47:22.36	209.15	20.14	-30.6	-33.7	10.7	4.89e-03	0	44	0	1102053376	21	5167
2026-01-17 00:47:23.37	209.12	20.01	-30.7	-34.0	10.5	6.22e-03	0	44	0	1104150528	21	5287
2026-01-17 00:47:24.37	209.10	19.88	-30.7	-34.0	10.3	5.85e-03	0	44	0	1105199104	21	5302
2026-01-17 00:47:25.37	209.07	19.75	-30.8	-34.1	10.1	8.30e-03	0	44	0	1107296256	22	5229
2026-01-17 00:47:26.37	209.05	19.62	-30.8	-34.3	10.2	6.14e-03	0	44	0	1109393408	21	5437
2026-01-17 00:47:27.37	209.03	19.49	-30.6	-33.8	10.6	5.03e-03	0	44	0	1111490560	21	5200
2026-01-17 00:47:28.37	209.00	19.37	-30.5	-33.6	10.6	2.64e-03	0	44	0	1113587712	21	5148
2026-01-17 00:47:29.38	208.98	19.24	-30.4	-33.9	10.9	2.21e-03	0	44	0	1114636288	20	5349
2026-01-17 00:47:30.38	208.96	19.11	-30.5	-33.4	10.9	2.74e-03	0	44	0	1116733440	21	5056
2026-01-17 00:47:31.38	208.94	18.99	-30.6	-33.7	10.6	3.54e-03	0	44	0	1118830592	21	5161
2026-01-17 00:47:32.38	208.91	18.86	-30.6	-33.9	10.5	2.27e-03	0	44	0	1120927744	21	5245
2026-01-17 00:47:33.39	208.89	18.73	-30.7	-33.8	10.6	4.74e-03	0	44	0	1123024896	21	5189
2026-01-17 00:47:34.39	208.87	18.61	-30.4	-33.1	11.2	4.15e-03	0	44	0	1124073472	21	4875
2026-01-17 00:47:35.40	208.85	18.49	-30.3	-32.5	11.6	1.02e-03	0	44	0	1126170624	21	4642
2026-01-17 00:47:36.40	208.83	18.36	-30.5	-33.3	11.0	1.19e-03	0	44	0	1128267776	21	4988
2026-01-17 00:47:37.41	208.81	18.24	-30.5	-33.5	10.8	4.96e-03	0	44	0	1130364928	21	5045
2026-01-17 00:47:38.42	208.79	18.12	-30.6	-33.6	10.8	2.56e-03	0	44	0	1132462080	21	5088
2026-01-17 00:47:39.41	208.76	18.00	-30.3	-32.9	11.3	1.19e-03	0	44	0	1133510656	21	4815
2026-01-17 00:47:40.42	208.74	17.87	-30.2	-33.0	11.5	1.22e-03	0	44	0	1135607808	20	4958
2026-01-17 00:47:41.41	208.72	17.76	-30.3	-33.2	11.3	1.17e-03	0	44	0	1137704960	20	5040
2026-01-17 00:47:42.42	208.70	17.64	-30.4	-33.6	11.1	1.53e-03	0	44	0	1139802112	20	5180
2026-01-17 00:47:43.42	208.68	17.52	-30.3	-33.3	11.3	1.53e-03	0	44	0	1140850688	20	5061
2026-01-17 00:47:44.42	208.66	17.40	-30.3	-33.3	11.3	8.39e-04	0	44	0	1142947840	20	5076
2026-01-17 00:47:45.42	208.64	17.28	-30.3	-33.4	11.2	1.18e-03	0	44	0	1145044992	20	5145
2026-01-17 00:47:46.42	208.62	17.16	-30.4	-33.6	11.0	1.19e-03	0	44	0	1147142144	20	5242
2026-01-17 00:47:47.42	208.61	17.05	-30.4	-33.7	10.9	2.20e-03	0	44	0	1149239296	20	5270
2026-01-17 00:47:48.41	208.59	16.93	-30.2	-33.1	11.4	1.17e-03	0	44	0	1150287872	20	4992
2026-01-17 00:47:49.42	208.57	16.82	-30.2	-32.7	11.7	7.80e-04	0	44	0	1152385024	20	4838
2026-01-17 00:47:50.42	208.55	16.70	-30.0	-32.1	12.1	3.20e-04	0	44	0	1154482176	20	4600
2026-01-17 00:47:51.42	208.53	16.59	-30.1	-32.3	12.1	2.08e-04	0	44	0	1156579328	20	4659
2026-01-17 00:47:52.43	208.51	16.47	-30.3	-32.8	11.7	4.94e-04	0	44	0	1158676480	20	4846
2026-01-17 00:47:53.43	208.49	16.36	-30.3	-32.9	11.7	4.63e-04	0	44	0	1159725056	20	4862
2026-01-17 00:47:54.44	208.47	16.25	-30.4	-33.4	11.3	7.77e-04	0	44	0	1161822208	20	5070
2026-01-17 00:47:55.45	208.46	16.13	-30.4	-32.9	11.3	1.33e-03	0	44	0	1163919360	21	4771
2026-01-17 00:47:56.45	208.44	16.02	-30.4	-33.4	11.3	1.28e-03	0	44	0	1166016512	20	5050
2026-01-17 00:47:57.45	208.42	15.91	-30.4	-32.8	11.3	1.26e-03	0	44	0	1168113664	21	4739
2026-01-17 00:47:58.45	208.40	15.80	-30.4	-33.4	11.2	1.24e-03	0	44	0	1169162240	20	5068
2026-01-17 00:47:59.45	208.39	15.69	-30.7	-33.5	10.7	2.46e-03	0	44	0	1171259392	21	5026
2026-01-17 00:48:00.45	208.37	15.58	-30.6	-33.4	10.9	2.53e-03	0	44	0	1173356544	21	4980
2026-01-17 00:48:01.45	208.35	15.47	-30.5	-33.3	10.9	2.26e-03	0	44	0	1175453696	21	4961
2026-01-17 00:48:02.45	208.33	15.36	-30.6	-33.7	10.6	3.29e-03	0	44	0	1177550848	21	5127
2026-01-17 00:48:03.45	208.32	15.25	-30.4	-33.1	11.0	4.16e-03	0	44	0	1178599424	21	4905
2026-01-17 00:48:04.45	208.30	15.15	-30.5	-33.2	11.0	2.76e-03	0	44	0	1180696576	21	4901
2026-01-17 00:48:05.45	208.28	15.04	-30.5	-33.7	11.0	1.56e-03	0	44	0	1182793728	20	5206
2026-01-17 00:48:06.44	208.27	14.93	-30.6	-33.7	10.6	2.64e-03	0	44	0	1184890880	21	5109
2026-01-17 00:48:07.45	208.25	14.82	-30.7	-33.9	10.3	5.47e-03	0	44	0	1185939456	21	5205
2026-01-17 00:48:08.45	208.24	14.72	-30.4	-33.2	10.9	1.90e-03	0	44	0	1188036608	21	4929
2026-01-17 00:48:09.45	208.22	14.61	-29.3	-32.2	11.4	1.19e-03	0	44	0	1190133760	20	4997
2026-01-17 00:48:10.45	208.20	14.51	-29.8	-32.9	10.7	1.31e-03	0	44	0	1192230912	21	5126
2026-01-17 00:48:11.45	208.19	14.40	-30.5	-33.2	10.9	2.74e-03	0	44	0	1194328064	21	4902
2026-01-17 00:48:12.46	208.17	14.30	-30.5	-33.3	10.4	1.73e-03	0	44	0	1195376640	21	4946
2026-01-17 00:48:13.45	208.16	14.20	-30.4	-33.5	10.6	1.16e-03	0	44	0	1197473792	20	5135
2026-01-17 00:48:14.45	208.14	14.09	-30.3	-33.2	11.2	1.75e-03	0	44	0	1199570944	20	5021
2026-01-17 00:48:15.45	208.13	13.99	-30.3	-33.1	11.1	9.85e-04	0	44	0	1201668096	20	4995
2026-01-17 00:48:16.45	208.11	13.89	-30.3	-33.4	11.0	1.28e-03	0	44	0	1203765248	20	5104
2026-01-17 00:48:17.45	208.10	13.79	-30.3	-32.9	11.1	4.00e-03	0	44	0	1204813824	21	4841
2026-01-17 00:48:18.45	208.08	13.68	-30.1	-32.7	11.5	1.27e-03	0	44	0	1206910976	20	4828
2026-01-17 00:48:19.44	208.07	13.58	-30.2	-32.9	11.4	2.21e-03	0	44	0	1209008128	20	4902
2026-01-17 00:48:20.45	208.05	13.48	-30.3	-33.2	11.1	1.75e-03	0	44	0	1211105280	20	5075
2026-01-17 00:48:21.45	208.04	13.38	-30.1	-32.5	11.6	9.02e-04	0	44	0	1213202432	20	4781
2026-01-17 00:48:22.45	208.02	13.28	-30.3	-33.3	11.2	8.99e-04	0	44	0	1214251008	20	5054
2026-01-17 00:48:23.45	208.01	13.18	-30.4	-33.4	11.0	1.61e-03	0	44	0	1216348160	20	5112
2026-01-17 00:48:24.44	208.00	13.09	-30.0	-32.3	11.8	7.53e-04	0	44	0	1218445312	20	4696
2026-01-17 00:48:25.44	207.98	12.99	-30.0	-32.5	11.6	8.79e-04	0	44	0	1220542464	20	4795
2026-01-17 00:48:26.43	207.97	12.89	-30.3	-33.1	11.2	1.08e-03	0	44	0	1221591040	20	4988
2026-01-17 00:48:27.44	207.95	12.79	-30.4	-33.5	10.9	1.06e-03	0	44	0	1223688192	20	5183
2026-01-17 00:48:28.43	207.94	12.69	-30.3	-33.5	10.9	1.75e-03	0	44	0	1225785344	20	5201
2026-01-17 00:48:29.44	207.93	12.60	-30.3	-33.3	11.0	2.80e-03	0	44	0	1227882496	20	5117
2026-01-17 00:48:30.44	207.91	12.50	-30.4	-33.9	10.6	2.82e-03	0	44	0	1229979648	20	5358
2026-01-17 00:48:31.44	207.90	12.40	-30.5	-33.5	10.5	4.69e-03	0	44	0	1231028224	21	5096
2026-01-17 00:48:32.44	207.89	12.31	-30.4	-33.2	10.8	3.63e-03	0	44	0	1233125376	21	4966
2026-01-17 00:48:33.44	207.87	12.21	-30.5	-33.4	10.6	4.88e-03	0	44	0	1235222528	21	5022
2026-01-17 00:48:34.44	207.86	12.12	-30.6	-33.7	10.4	3.17e-03	0	44	0	1237319680	21	5144
2026-01-17 00:48:35.45	207.85	12.02	-30.5	-33.4	10.6	2.99e-03	0	44	0	1239416832	21	5036
2026-01-17 00:48:36.45	207.83	11.93	-30.7	-34.0	10.1	8.85e-03	0	44	0	1240465408	21	5311
2026-01-17 00:48:37.45	207.82	11.83	-30.7	-34.1	10.2	7.21e-03	0	44	0	1242562560	21	5323
2026-01-17 00:48:38.45	207.81	11.74	-30.5	-33.6	10.4	5.29e-03	0	44	0	1244659712	21	5132
2026-01-17 00:48:39.45	207.80	11.65	-30.8	-34.6	9.7	5.30e-03	0	44	0	1246756864	21	5546
2026-01-17 00:48:40.45	207.78	11.55	-30.7	-34.3	9.8	1.25e-02	0	44	0	1247805440	21	5417
2026-01-17 00:48:41.46	207.77	11.46	-30.7	-34.3	9.8	7.62e-03	0	44	0	1249902592	21	5484
2026-01-17 00:48:42.46	207.76	11.37	-30.7	-34.5	9.5	1.06e-02	0	44	0	1251999744	21	5619
2026-01-17 00:48:43.46	207.75	11.28	-30.4	-34.2	10.2	9.56e-03	0	44	0	1254096896	20	5521
2026-01-17 00:48:44.47	207.74	11.18	-30.6	-33.9	10.1	6.99e-03	0	44	0	1256194048	21	5271
2026-01-17 00:48:45.47	207.72	11.09	-30.7	-34.2	9.9	1.36e-02	0	44	0	1257242624	21	5390
2026-01-17 00:48:46.47	207.71	11.00	-30.5	-33.6	10.3	7.10e-03	0	44	0	1259339776	21	5129
2026-01-17 00:48:47.47	207.70	10.91	-30.4	-33.9	10.4	5.14e-03	0	44	0	1261436928	20	5389
2026-01-17 00:48:48.47	207.69	10.82	-30.1	-33.5	10.5	4.18e-03	0	44	0	1263534080	20	5295
2026-01-17 00:48:49.48	207.68	10.73	-30.4	-34.2	10.1	3.56e-03	0	44	0	1265631232	20	5567
2026-01-17 00:48:50.48	207.67	10.64	-30.3	-34.0	10.2	5.26e-03	0	44	0	1266679808	20	5488
2026-01-17 00:48:51.48	207.65	10.55	-30.4	-33.9	10.4	8.34e-03	0	44	0	1268776960	20	5392
2026-01-17 00:48:52.48	207.64	10.46	-30.6	-33.8	10.1	5.60e-03	0	44	0	1270874112	21	5255
2026-01-17 00:48:53.48	207.63	10.37	-30.8	-34.5	9.6	1.38e-02	0	44	0	1272971264	21	5531
2026-01-17 00:48:54.49	207.62	10.28	-30.6	-34.1	10.0	1.51e-02	0	44	0	1275068416	21	5329
2026-01-17 00:48:55.49	207.61	10.20	-30.8	-34.5	9.7	1.13e-02	0	44	0	1276116992	21	5550
2026-01-17 00:48:56.49	207.60	10.11	-30.7	-34.4	9.6	1.54e-02	0	44	0	1278214144	21	5517
2026-01-17 00:48:57.49	207.59	10.02	-30.7	-34.5	9.6	1.49e-02	0	44	0	1280311296	21	5531
2026-01-17 00:48:58.49	207.58	9.93	-30.5	-33.8	10.0	1.14e-02	0	44	0	1282408448	21	5250
2026-01-17 00:48:59.49	207.57	9.85	-30.6	-34.2	9.7	9.36e-03	0	44	0	1284505600	21	5452
2026-01-17 00:49:00.49	207.55	9.76	-30.8	-34.3	9.8	1.26e-02	0	44	0	1285554176	21	5386
2026-01-17 00:49:01.50	207.54	9.67	-30.9	-34.5	9.8	1.06e-02	0	44	0	1287651328	21	5449
