passes_logs/2026/01/17/R2M6_AANII_01/R2M6_AANII_01__20260117_014823_NOAA_21_JPSS-2_rec.log

#Pass ID: 20260117_014823_NOAA 21 (JPSS-2)
#Satellite: NOAA 21 (JPSS-2)
#Configuration: NOAA 21
#almurnet v.1.7.20240730
#Start time: 2026-01-17 01:48:25

#Version: 2.2.20231116
#Station: R2M6_AANII_01
#Location: 30.233357 lon 59.946436 lat
#TLE: 1 54234U 22150A   26016.21096038  .00000027  00000+0  33607-4 0  9993
#TLE: 2 54234  98.7500 317.0960 0000625 282.3388  77.7718 14.19534911164985

#Time	Az	El	Level	Level2	SNR	BER	BlckErr	Temp	State	Recorded	gain1	gain2
2026-01-17 01:48:25.35	11.75	7.13	-33.8	-45.8	3.8	1.49e+00	0	44	0	0	27	14453
2026-01-17 01:48:26.35	11.68	7.20	-34.0	-46.2	3.8	1.49e+00	0	44	104	0	27	14799
2026-01-17 01:48:27.35	11.61	7.27	-34.0	-46.3	3.8	1.49e+00	0	44	104	0	27	14838
2026-01-17 01:48:28.36	11.53	7.34	-33.9	-46.2	3.8	1.49e+00	0	43	104	0	27	14765
2026-01-17 01:48:29.35	11.46	7.41	-33.9	-46.2	3.8	1.49e+00	0	43	104	0	27	14752
2026-01-17 01:48:30.36	11.39	7.48	-33.9	-46.1	3.8	1.49e+00	0	44	104	0	27	14721
2026-01-17 01:48:31.36	11.32	7.55	-33.8	-46.1	3.8	1.49e+00	0	44	104	0	27	14704
2026-01-17 01:48:32.37	11.24	7.63	-33.8	-46.0	3.8	1.49e+00	0	44	104	0	27	14627
2026-01-17 01:48:33.36	11.17	7.70	-33.8	-46.0	3.8	1.49e+00	0	44	104	0	27	14625
2026-01-17 01:48:34.36	11.10	7.77	-33.8	-45.9	3.8	1.49e+00	0	44	104	0	27	14565
2026-01-17 01:48:35.37	11.02	7.84	-33.7	-45.8	3.8	1.49e+00	0	44	104	0	27	14451
2026-01-17 01:48:36.36	10.95	7.91	-33.7	-45.8	3.8	1.49e+00	0	44	104	0	27	14416
2026-01-17 01:48:37.36	10.87	7.98	-33.7	-45.6	3.8	1.49e+00	0	43	104	0	27	14298
2026-01-17 01:48:38.36	10.80	8.05	-33.6	-45.5	3.8	1.49e+00	0	44	104	0	27	14227
2026-01-17 01:48:39.36	10.72	8.12	-33.5	-45.3	3.8	1.49e+00	0	44	104	0	27	14002
2026-01-17 01:48:40.37	10.64	8.19	-33.4	-45.6	3.8	1.49e+00	0	44	104	0	26	14740
2026-01-17 01:48:41.38	10.57	8.27	-33.2	-45.3	3.8	1.49e+00	0	44	104	0	26	14354
2026-01-17 01:48:42.38	10.49	8.34	-32.9	-43.6	3.8	1.49e+00	0	44	104	0	26	12321
2026-01-17 01:48:43.38	10.41	8.41	-32.8	-43.9	3.8	1.49e+00	0	44	104	0	25	12990
2026-01-17 01:48:44.38	10.33	8.48	-32.7	-43.8	3.8	1.49e+00	0	44	104	0	25	12929
2026-01-17 01:48:45.38	10.26	8.55	-32.8	-44.0	3.8	1.49e+00	0	44	104	0	25	13171
2026-01-17 01:48:46.38	10.18	8.63	-32.8	-44.3	3.8	1.49e+00	0	44	104	0	25	13563
2026-01-17 01:48:47.38	10.10	8.70	-32.8	-44.7	3.8	1.49e+00	0	44	104	0	25	14117
2026-01-17 01:48:48.38	10.02	8.77	-32.8	-44.9	3.8	1.49e+00	0	44	104	0	25	14448
2026-01-17 01:48:49.38	9.94	8.84	-32.9	-45.1	3.8	1.49e+00	0	44	104	0	25	14671
2026-01-17 01:48:50.39	9.86	8.92	-32.8	-44.8	3.8	1.49e+00	0	44	104	0	25	14248
2026-01-17 01:48:51.39	9.78	8.99	-32.8	-44.2	3.8	1.49e+00	0	44	104	0	25	13364
2026-01-17 01:48:52.39	9.69	9.06	-32.7	-43.3	3.8	1.49e+00	0	44	104	0	25	12261
2026-01-17 01:48:53.39	9.61	9.14	-32.4	-41.4	4.2	1.47e+00	0	43	104	0	24	10144
2026-01-17 01:48:54.39	9.53	9.21	-32.2	-40.3	4.0	1.47e+00	0	44	104	0	24	9214
2026-01-17 01:48:55.39	9.45	9.29	-31.9	-38.7	5.5	5.44e-01	0	43	0	0	23	7874
2026-01-17 01:48:56.38	9.37	9.36	-31.6	-37.1	6.4	2.94e-01	0	43	0	3145728	23	6828
2026-01-17 01:48:57.39	9.28	9.43	-31.3	-36.8	7.0	1.64e-01	0	44	0	6291456	22	6710
2026-01-17 01:48:58.39	9.20	9.51	-31.5	-36.3	7.7	1.12e-01	0	44	0	9437184	22	6218
2026-01-17 01:48:59.39	9.11	9.58	-31.0	-35.3	8.0	8.56e-02	0	44	0	12582912	22	5936
2026-01-17 01:49:00.39	9.03	9.66	-30.8	-35.5	8.2	5.72e-02	0	44	0	15728640	21	6142
2026-01-17 01:49:01.39	8.94	9.73	-30.8	-35.4	8.3	6.03e-02	0	44	0	18874368	21	6081
2026-01-17 01:49:02.39	8.86	9.81	-30.7	-35.1	8.5	4.99e-02	0	44	0	22020096	21	5944
2026-01-17 01:49:03.39	8.77	9.88	-30.6	-34.7	8.8	3.12e-02	0	43	0	24117248	21	5754
2026-01-17 01:49:04.39	8.69	9.96	-30.7	-34.9	8.7	4.46e-02	0	43	0	27262976	21	5829
2026-01-17 01:49:05.39	8.60	10.03	-30.7	-35.1	8.5	3.90e-02	0	44	0	30408704	21	5934
2026-01-17 01:49:06.40	8.51	10.11	-30.6	-34.7	8.8	3.54e-02	0	44	0	33554432	21	5731
2026-01-17 01:49:07.40	8.42	10.19	-30.5	-34.3	9.1	3.71e-02	0	44	0	37748736	21	5576
2026-01-17 01:49:08.40	8.33	10.26	-30.0	-33.2	10.2	7.54e-03	0	44	0	40894464	20	5217
2026-01-17 01:49:09.40	8.25	10.34	-29.6	-32.6	11.1	2.02e-03	0	44	0	44040192	19	5084
2026-01-17 01:49:10.40	8.16	10.41	-29.1	-31.6	12.0	5.23e-03	0	44	0	47185920	18	4847
2026-01-17 01:49:11.41	8.06	10.49	-28.7	-31.2	12.6	4.74e-03	0	44	0	49283072	17	4812
2026-01-17 01:49:12.41	7.97	10.57	-28.3	-30.7	13.3	6.27e-04	0	44	0	52428800	16	4748
2026-01-17 01:49:13.42	7.88	10.65	-28.1	-30.3	13.5	2.24e-04	0	44	0	55574528	16	4627
2026-01-17 01:49:14.42	7.79	10.72	-27.5	-29.4	14.2	1.51e-04	0	44	0	58720256	15	4465
2026-01-17 01:49:15.43	7.70	10.80	-27.5	-29.3	14.3	4.94e-04	0	44	0	61865984	15	4431
2026-01-17 01:49:16.43	7.61	10.88	-27.5	-29.4	14.2	4.00e-03	0	44	0	65011712	15	4465
2026-01-17 01:49:17.43	7.51	10.95	-27.4	-29.6	14.4	4.55e-03	0	44	0	68157440	14	4654
2026-01-17 01:49:18.44	7.42	11.03	-27.5	-29.8	14.3	2.20e-06	0	44	0	71303168	14	4699
2026-01-17 01:49:19.44	7.32	11.11	-27.6	-29.6	14.1	1.16e-04	0	44	0	74448896	15	4541
2026-01-17 01:49:20.44	7.23	11.19	-27.5	-29.4	14.2	2.03e-04	0	44	0	77594624	15	4477
2026-01-17 01:49:21.44	7.14	11.27	-27.6	-29.5	14.1	3.68e-04	0	44	0	80740352	15	4506
2026-01-17 01:49:22.44	7.04	11.35	-27.6	-29.6	14.1	3.04e-03	0	44	0	83886080	15	4533
2026-01-17 01:49:23.45	6.94	11.42	-27.5	-29.3	14.3	1.80e-04	0	44	0	87031808	15	4447
2026-01-17 01:49:24.45	6.85	11.50	-27.3	-29.4	14.5	0.00e+00	0	44	0	90177536	14	4578
2026-01-17 01:49:25.45	6.75	11.58	-27.5	-29.8	14.3	1.36e-04	0	44	0	93323264	14	4716
2026-01-17 01:49:26.46	6.65	11.66	-27.4	-29.6	14.4	4.80e-05	0	44	0	96468992	14	4650
2026-01-17 01:49:27.46	6.55	11.74	-27.3	-29.4	14.5	2.20e-06	0	44	0	99614720	14	4586
2026-01-17 01:49:28.46	6.45	11.82	-27.4	-29.7	14.3	3.43e-05	0	44	0	102760448	14	4673
2026-01-17 01:49:29.47	6.35	11.90	-27.3	-29.4	14.5	1.73e-04	0	44	0	105906176	14	4574
2026-01-17 01:49:30.47	6.25	11.98	-27.2	-29.2	14.7	7.00e-07	0	43	0	109051904	14	4507
2026-01-17 01:49:31.47	6.15	12.06	-27.3	-29.4	14.5	2.52e-04	0	44	0	112197632	14	4594
2026-01-17 01:49:32.48	6.05	12.14	-27.3	-29.3	14.6	3.31e-04	0	44	0	115343360	14	4538
2026-01-17 01:49:33.48	5.95	12.22	-27.3	-29.4	14.5	0.00e+00	0	43	0	118489088	14	4580
2026-01-17 01:49:34.49	5.85	12.30	-27.2	-29.1	14.7	3.71e-04	0	43	0	121634816	14	4496
2026-01-17 01:49:35.49	5.74	12.38	-27.2	-29.1	14.7	3.56e-04	0	44	0	124780544	14	4492
2026-01-17 01:49:36.49	5.64	12.46	-27.3	-29.4	14.5	7.00e-07	0	44	0	127926272	14	4591
2026-01-17 01:49:37.49	5.54	12.54	-27.4	-29.6	14.5	1.50e-06	0	43	0	131072000	14	4633
2026-01-17 01:49:38.49	5.43	12.63	-27.5	-29.4	14.3	2.63e-04	0	44	0	134217728	15	4457
2026-01-17 01:49:39.49	5.33	12.71	-27.7	-29.7	14.1	7.00e-07	0	44	0	137363456	15	4559
2026-01-17 01:49:40.49	5.22	12.79	-27.7	-29.7	14.1	2.56e-04	0	44	0	140509184	15	4555
2026-01-17 01:49:41.49	5.11	12.87	-27.6	-29.6	14.2	3.80e-06	0	44	0	143654912	15	4523
2026-01-17 01:49:42.50	5.01	12.95	-27.5	-29.3	14.4	7.00e-07	0	44	0	146800640	15	4422
2026-01-17 01:49:43.50	4.90	13.03	-27.6	-29.5	14.3	7.00e-07	0	44	0	149946368	15	4491
2026-01-17 01:49:44.50	4.79	13.12	-27.6	-29.5	14.2	3.74e-04	0	44	0	153092096	15	4496
2026-01-17 01:49:45.50	4.68	13.20	-27.4	-29.1	14.5	1.50e-06	0	44	0	156237824	15	4380
2026-01-17 01:49:46.50	4.57	13.28	-27.5	-29.4	14.3	7.00e-07	0	44	0	159383552	15	4472
2026-01-17 01:49:47.51	4.46	13.36	-27.5	-29.2	14.4	0.00e+00	0	44	0	162529280	15	4403
2026-01-17 01:49:48.51	4.35	13.45	-27.3	-29.4	14.6	0.00e+00	0	44	0	165675008	14	4588
2026-01-17 01:49:49.52	4.24	13.53	-27.2	-29.1	14.8	0.00e+00	0	44	0	168820736	14	4485
2026-01-17 01:49:50.52	4.13	13.61	-27.1	-28.9	14.9	0.00e+00	0	44	0	171966464	14	4424
2026-01-17 01:49:51.53	4.01	13.70	-27.1	-28.9	14.9	0.00e+00	0	44	0	175112192	14	4424
2026-01-17 01:49:52.53	3.90	13.78	-27.2	-29.1	14.8	0.00e+00	0	44	0	178257920	14	4482
2026-01-17 01:49:53.53	3.78	13.87	-27.2	-29.2	14.7	0.00e+00	0	44	0	181403648	14	4514
2026-01-17 01:49:54.53	3.67	13.95	-27.3	-29.5	14.6	7.00e-07	0	44	0	184549376	14	4590
2026-01-17 01:49:55.53	3.55	14.03	-27.3	-29.4	14.6	0.00e+00	0	43	0	187695104	14	4569
2026-01-17 01:49:56.53	3.44	14.12	-27.3	-28.8	14.7	7.00e-07	0	44	0	190840832	15	4302
2026-01-17 01:49:57.53	3.32	14.20	-27.2	-29.2	14.7	0.00e+00	0	44	0	193986560	14	4513
2026-01-17 01:49:58.53	3.20	14.29	-27.1	-29.0	14.9	0.00e+00	0	44	0	197132288	14	4443
2026-01-17 01:49:59.54	3.09	14.37	-27.2	-29.0	14.9	0.00e+00	0	44	0	200278016	14	4450
2026-01-17 01:50:00.54	2.97	14.46	-27.2	-29.1	14.8	0.00e+00	0	44	0	203423744	14	4479
2026-01-17 01:50:01.54	2.85	14.54	-27.2	-29.0	14.9	0.00e+00	0	44	0	206569472	14	4458
2026-01-17 01:50:02.54	2.73	14.63	-27.3	-29.2	14.8	0.00e+00	0	44	0	209715200	14	4513
2026-01-17 01:50:03.54	2.61	14.71	-27.1	-28.9	15.0	0.00e+00	0	44	0	212860928	14	4420
2026-01-17 01:50:04.54	2.48	14.80	-27.1	-28.8	15.0	0.00e+00	0	44	0	216006656	14	4390
2026-01-17 01:50:05.54	2.36	14.88	-27.0	-28.7	15.1	7.00e-07	0	44	0	219152384	14	4361
2026-01-17 01:50:06.55	2.24	14.97	-27.0	-28.7	15.1	0.00e+00	0	44	0	222298112	14	4365
2026-01-17 01:50:07.55	2.11	15.06	-27.1	-29.0	14.9	7.00e-07	0	44	0	225443840	14	4434
2026-01-17 01:50:08.55	1.99	15.14	-27.2	-29.1	14.9	0.00e+00	0	44	0	228589568	14	4465
2026-01-17 01:50:09.55	1.86	15.23	-27.3	-29.3	14.8	7.00e-07	0	44	0	231735296	14	4545
2026-01-17 01:50:10.54	1.74	15.31	-27.4	-29.5	14.7	0.00e+00	0	44	0	234881024	14	4588
2026-01-17 01:50:11.55	1.61	15.40	-27.4	-28.9	14.7	0.00e+00	0	44	0	238026752	15	4309
2026-01-17 01:50:12.54	1.49	15.49	-27.4	-29.1	14.6	7.00e-07	0	43	0	241172480	15	4361
2026-01-17 01:50:13.54	1.36	15.58	-27.4	-29.5	14.7	0.00e+00	0	44	0	244318208	14	4592
2026-01-17 01:50:14.54	1.23	15.66	-27.4	-29.1	14.6	0.00e+00	0	44	0	247463936	15	4374
2026-01-17 01:50:15.54	1.10	15.75	-27.7	-29.8	14.3	0.00e+00	0	44	0	250609664	15	4565
2026-01-17 01:50:16.54	0.97	15.84	-27.7	-29.8	14.3	2.20e-06	0	44	0	252706816	15	4564
2026-01-17 01:50:17.55	0.83	15.93	-27.7	-29.7	14.3	0.00e+00	0	44	0	256901120	15	4549
2026-01-17 01:50:18.54	0.70	16.01	-27.5	-29.3	14.5	3.00e-06	0	44	0	258998272	15	4421
2026-01-17 01:50:19.54	0.57	16.10	-27.6	-29.6	14.4	0.00e+00	0	44	0	262144000	15	4521
2026-01-17 01:50:20.54	0.44	16.19	-27.6	-29.4	14.4	1.50e-06	0	44	0	265289728	15	4467
2026-01-17 01:50:21.54	0.30	16.28	-27.5	-29.3	14.5	0.00e+00	0	44	0	268435456	15	4414
2026-01-17 01:50:22.55	0.17	16.37	-27.4	-29.1	14.7	0.00e+00	0	44	0	272629760	15	4363
2026-01-17 01:50:23.55	0.03	16.46	-27.7	-29.7	14.3	7.00e-07	0	44	0	275775488	15	4531
2026-01-17 01:50:24.54	359.89	16.54	-27.6	-29.5	14.5	7.00e-07	0	44	0	277872640	15	4469
2026-01-17 01:50:25.55	359.75	16.63	-27.8	-30.0	14.1	7.00e-07	0	44	0	281018368	15	4644
2026-01-17 01:50:26.55	359.62	16.72	-27.9	-30.1	14.1	2.20e-06	0	44	0	284164096	15	4658
2026-01-17 01:50:27.55	359.48	16.81	-27.6	-29.4	14.5	7.00e-07	0	44	0	287309824	15	4446
2026-01-17 01:50:28.55	359.34	16.90	-27.5	-29.2	14.6	2.20e-06	0	44	0	290455552	15	4384
2026-01-17 01:50:29.55	359.19	16.99	-27.5	-29.3	14.6	0.00e+00	0	44	0	293601280	15	4431
2026-01-17 01:50:30.55	359.05	17.08	-27.5	-29.2	14.6	0.00e+00	0	44	0	296747008	15	4407
2026-01-17 01:50:31.54	358.91	17.17	-27.5	-29.3	14.5	7.00e-07	0	44	0	299892736	15	4434
2026-01-17 01:50:32.55	358.77	17.26	-27.4	-29.0	14.8	0.00e+00	0	44	0	303038464	15	4345
2026-01-17 01:50:33.55	358.62	17.35	-27.4	-29.7	14.6	7.00e-07	0	44	0	306184192	14	4642
2026-01-17 01:50:34.55	358.48	17.44	-27.3	-29.2	14.9	0.00e+00	0	44	0	309329920	14	4515
2026-01-17 01:50:35.55	358.33	17.53	-27.4	-29.5	14.7	0.00e+00	0	44	0	312475648	14	4600
2026-01-17 01:50:36.56	358.18	17.62	-27.4	-29.4	14.7	0.00e+00	0	44	0	315621376	14	4571
2026-01-17 01:50:37.57	358.03	17.71	-27.2	-29.0	15.0	0.00e+00	0	44	0	318767104	14	4457
2026-01-17 01:50:38.57	357.88	17.80	-27.3	-29.2	14.9	0.00e+00	0	44	0	321912832	14	4502
2026-01-17 01:50:39.58	357.73	17.90	-27.2	-29.2	14.9	0.00e+00	0	44	0	325058560	14	4487
2026-01-17 01:50:40.58	357.58	17.99	-27.1	-28.9	15.1	0.00e+00	0	44	0	328204288	14	4420
2026-01-17 01:50:41.59	357.42	18.08	-27.1	-28.9	15.1	0.00e+00	0	44	0	331350016	14	4403
2026-01-17 01:50:42.58	357.27	18.17	-27.2	-29.0	15.0	0.00e+00	0	44	0	334495744	14	4442
2026-01-17 01:50:43.59	357.12	18.26	-27.4	-29.4	14.8	0.00e+00	0	44	0	337641472	14	4567
2026-01-17 01:50:44.59	356.96	18.35	-27.3	-28.8	14.9	7.00e-07	0	44	0	340787200	15	4281
2026-01-17 01:50:45.58	356.81	18.44	-27.1	-29.0	15.1	0.00e+00	0	44	0	343932928	14	4432
2026-01-17 01:50:46.58	356.65	18.54	-27.0	-28.6	15.3	0.00e+00	0	44	0	347078656	14	4337
2026-01-17 01:50:47.57	356.50	18.63	-27.0	-29.0	15.3	0.00e+00	0	44	0	350224384	13	4572
2026-01-17 01:50:48.57	356.34	18.72	-26.9	-29.0	15.3	0.00e+00	0	44	0	353370112	13	4567
2026-01-17 01:50:49.58	356.17	18.81	-27.0	-28.6	15.3	0.00e+00	0	44	0	356515840	14	4337
2026-01-17 01:50:50.58	356.01	18.90	-27.0	-28.5	15.3	0.00e+00	0	44	0	359661568	14	4315
2026-01-17 01:50:51.58	355.85	19.00	-26.0	-27.2	15.2	0.00e+00	0	44	0	362807296	14	4127
2026-01-17 01:50:52.59	355.69	19.09	-25.9	-27.5	15.3	0.00e+00	0	44	0	365953024	13	4336
2026-01-17 01:50:53.59	355.52	19.18	-26.5	-27.9	15.4	0.00e+00	0	44	0	369098752	13	4235
2026-01-17 01:50:54.60	355.36	19.28	-26.5	-27.9	14.0	0.00e+00	0	44	0	372244480	13	4245
2026-01-17 01:50:55.60	355.19	19.37	-26.4	-28.2	16.0	3.90e-03	0	44	0	375390208	12	4438
2026-01-17 01:50:56.60	355.03	19.46	-26.5	-28.4	15.9	5.17e-04	0	44	0	378535936	12	4513
2026-01-17 01:50:57.61	354.86	19.56	-26.5	-28.1	15.9	0.00e+00	0	44	0	381681664	13	4292
2026-01-17 01:50:58.61	354.69	19.65	-26.5	-28.1	15.9	0.00e+00	0	44	0	384827392	13	4299
2026-01-17 01:50:59.61	354.52	19.74	-26.5	-27.9	15.9	0.00e+00	0	44	0	387973120	13	4245
2026-01-17 01:51:00.61	354.35	19.83	-26.4	-27.8	16.1	3.71e-03	0	43	0	391118848	13	4204
2026-01-17 01:51:01.61	354.17	19.93	-26.4	-28.2	16.1	3.35e-03	0	44	0	394264576	12	4433
2026-01-17 01:51:02.62	354.00	20.02	-26.4	-28.2	16.1	0.00e+00	0	44	0	397410304	12	4437
2026-01-17 01:51:03.62	353.82	20.12	-26.3	-28.1	16.1	0.00e+00	0	44	0	400556032	12	4418
2026-01-17 01:51:04.62	353.65	20.21	-26.3	-28.0	16.2	0.00e+00	0	44	0	403701760	12	4377
2026-01-17 01:51:05.62	353.47	20.30	-26.3	-28.1	16.2	5.24e-04	0	44	0	406847488	12	4398
2026-01-17 01:51:06.62	353.30	20.40	-26.4	-28.3	16.0	3.45e-03	0	44	0	409993216	12	4466
2026-01-17 01:51:07.63	353.11	20.49	-26.3	-28.0	16.2	0.00e+00	0	44	0	413138944	12	4388
2026-01-17 01:51:08.63	352.93	20.58	-26.3	-28.0	16.2	0.00e+00	0	44	0	416284672	12	4372
2026-01-17 01:51:09.62	352.76	20.68	-26.3	-28.1	16.1	0.00e+00	0	44	0	419430400	12	4415
2026-01-17 01:51:10.62	352.57	20.77	-26.3	-28.0	16.2	2.82e-03	0	44	0	422576128	12	4379
2026-01-17 01:51:11.63	352.39	20.87	-26.3	-27.9	16.3	4.01e-04	0	44	0	425721856	12	4360
2026-01-17 01:51:12.63	352.20	20.96	-26.3	-28.0	16.2	2.84e-03	0	44	0	428867584	12	4390
2026-01-17 01:51:13.63	352.02	21.05	-26.4	-28.2	16.1	0.00e+00	0	44	0	432013312	12	4445
2026-01-17 01:51:14.63	351.83	21.15	-26.6	-28.2	15.8	0.00e+00	0	44	0	435159040	13	4322
2026-01-17 01:51:15.62	351.65	21.24	-26.7	-28.4	15.7	2.27e-03	0	44	0	438304768	13	4376
2026-01-17 01:51:16.62	351.46	21.33	-26.5	-28.1	15.9	2.23e-03	0	44	0	441450496	13	4286
2026-01-17 01:51:17.62	351.27	21.43	-26.4	-27.8	16.1	1.55e-04	0	44	0	444596224	13	4200
2026-01-17 01:51:18.62	351.08	21.52	-26.2	-27.9	16.3	0.00e+00	0	44	0	447741952	12	4344
2026-01-17 01:51:19.62	350.88	21.62	-26.2	-27.9	16.3	0.00e+00	0	44	0	450887680	12	4342
2026-01-17 01:51:20.62	350.69	21.71	-26.3	-28.1	16.2	2.26e-04	0	44	0	454033408	12	4394
2026-01-17 01:51:21.62	350.50	21.80	-26.3	-28.1	16.2	3.36e-03	0	44	0	457179136	12	4412
2026-01-17 01:51:22.62	350.30	21.90	-26.3	-27.9	16.3	3.76e-03	0	44	0	459276288	12	4351
2026-01-17 01:51:23.62	350.10	21.99	-26.2	-27.7	16.4	4.44e-04	0	44	0	462422016	12	4299
2026-01-17 01:51:24.62	349.90	22.09	-26.1	-27.6	16.5	0.00e+00	0	44	0	465567744	12	4280
2026-01-17 01:51:25.62	349.70	22.18	-26.2	-27.7	16.4	3.56e-03	0	44	0	468713472	12	4307
2026-01-17 01:51:26.62	349.50	22.27	-26.1	-27.6	16.5	5.29e-04	0	44	0	471859200	12	4258
2026-01-17 01:51:27.62	349.30	22.37	-26.1	-27.6	16.4	3.32e-03	0	44	0	475004928	12	4263
2026-01-17 01:51:28.63	349.10	22.46	-26.2	-27.8	16.3	3.10e-03	0	44	0	478150656	12	4328
2026-01-17 01:51:29.63	348.89	22.56	-26.1	-27.6	16.5	0.00e+00	0	44	0	481296384	12	4271
2026-01-17 01:51:30.63	348.69	22.65	-26.1	-27.5	16.6	2.50e-03	0	44	0	484442112	12	4233
2026-01-17 01:51:31.62	348.48	22.74	-26.2	-27.7	16.4	2.24e-03	0	44	0	487587840	12	4299
2026-01-17 01:51:32.62	348.27	22.84	-26.3	-28.1	16.3	3.13e-04	0	44	0	490733568	12	4393
2026-01-17 01:51:33.62	348.06	22.93	-26.3	-28.1	16.2	1.18e-03	0	44	0	493879296	12	4408
2026-01-17 01:51:34.62	347.85	23.02	-26.6	-28.2	15.9	0.00e+00	0	43	0	497025024	13	4317
2026-01-17 01:51:35.62	347.64	23.12	-26.7	-28.3	15.8	2.04e-04	0	44	0	500170752	13	4356
2026-01-17 01:51:36.62	347.43	23.21	-26.7	-28.5	15.8	1.08e-04	0	43	0	503316480	13	4408
2026-01-17 01:51:37.62	347.21	23.30	-26.4	-27.8	16.1	4.42e-05	0	44	0	506462208	13	4207
2026-01-17 01:51:38.62	346.99	23.40	-26.2	-27.3	16.4	0.00e+00	0	44	0	509607936	13	4090
2026-01-17 01:51:39.62	346.78	23.49	-26.2	-27.2	16.4	0.00e+00	0	44	0	512753664	13	4057
2026-01-17 01:51:40.63	346.56	23.58	-26.3	-27.5	16.3	0.00e+00	0	44	0	515899392	13	4142
2026-01-17 01:51:41.63	346.34	23.67	-26.3	-27.5	16.3	0.00e+00	0	44	0	519045120	13	4141
2026-01-17 01:51:42.62	346.12	23.77	-26.4	-27.8	16.2	9.19e-04	0	44	0	522190848	13	4212
2026-01-17 01:51:43.62	345.89	23.86	-26.4	-28.3	16.1	2.06e-03	0	44	0	525336576	12	4477
2026-01-17 01:51:44.62	345.67	23.95	-26.5	-27.9	16.1	0.00e+00	0	44	0	528482304	13	4239
2026-01-17 01:51:45.62	345.44	24.04	-26.5	-28.0	16.1	3.21e-03	0	44	0	531628032	13	4266
2026-01-17 01:51:46.62	345.22	24.14	-26.5	-27.8	16.1	3.34e-03	0	44	0	534773760	13	4227
2026-01-17 01:51:47.62	344.99	24.23	-26.3	-27.5	16.3	0.00e+00	0	44	0	537919488	13	4131
2026-01-17 01:51:48.63	344.76	24.32	-26.4	-28.1	16.2	3.32e-03	0	44	0	541065216	12	4419
2026-01-17 01:51:49.63	344.53	24.41	-26.3	-27.9	16.3	3.82e-03	0	44	0	544210944	12	4354
2026-01-17 01:51:50.64	344.29	24.50	-26.1	-27.6	16.5	0.00e+00	0	44	0	547356672	12	4269
2026-01-17 01:51:51.64	344.06	24.59	-26.1	-27.6	16.5	3.78e-03	0	44	0	550502400	12	4273
2026-01-17 01:51:52.64	343.82	24.68	-26.2	-27.8	16.4	3.70e-03	0	44	0	553648128	12	4318
2026-01-17 01:51:53.64	343.59	24.78	-26.3	-28.1	16.2	0.00e+00	0	44	0	556793856	12	4408
2026-01-17 01:51:54.65	343.35	24.87	-26.3	-28.0	16.3	3.35e-03	0	44	0	559939584	12	4378
2026-01-17 01:51:55.65	343.11	24.96	-26.4	-28.2	16.3	5.71e-04	0	44	0	563085312	12	4422
2026-01-17 01:51:56.65	342.87	25.05	-26.3	-28.1	16.3	0.00e+00	0	44	0	566231040	12	4393
2026-01-17 01:51:57.65	342.63	25.14	-26.4	-28.3	16.2	3.49e-03	0	44	0	569376768	12	4447
2026-01-17 01:51:58.65	342.38	25.23	-26.4	-28.3	16.2	4.29e-03	0	44	0	572522496	12	4462
2026-01-17 01:51:59.65	342.14	25.31	-26.5	-28.0	16.0	0.00e+00	0	43	0	575668224	13	4273
2026-01-17 01:52:00.66	341.89	25.40	-26.7	-28.4	15.8	2.62e-04	0	44	0	578813952	13	4369
2026-01-17 01:52:01.65	341.65	25.49	-26.7	-28.4	15.8	3.89e-04	0	44	0	581959680	13	4387
2026-01-17 01:52:02.66	341.39	25.58	-26.9	-28.8	15.7	0.00e+00	0	44	0	585105408	13	4476
2026-01-17 01:52:03.67	341.14	25.67	-26.9	-28.9	15.6	4.66e-03	0	44	0	588251136	13	4521
2026-01-17 01:52:04.68	340.89	25.76	-26.9	-28.8	15.6	9.37e-04	0	44	0	591396864	13	4490
2026-01-17 01:52:05.68	340.63	25.85	-27.0	-29.0	15.5	0.00e+00	0	44	0	594542592	13	4543
2026-01-17 01:52:06.68	340.38	25.93	-26.9	-28.8	15.6	8.80e-04	0	44	0	597688320	13	4479
2026-01-17 01:52:07.68	340.12	26.02	-26.8	-28.7	15.7	1.31e-03	0	44	0	600834048	13	4448
2026-01-17 01:52:08.68	339.87	26.11	-26.8	-28.7	15.7	0.00e+00	0	44	0	603979776	13	4452
2026-01-17 01:52:09.68	339.61	26.19	-26.6	-28.2	16.0	1.93e-03	0	44	0	607125504	13	4317
2026-01-17 01:52:10.68	339.35	26.28	-26.7	-28.3	15.9	2.37e-03	0	44	0	610271232	13	4342
2026-01-17 01:52:11.69	339.08	26.36	-26.5	-28.0	16.1	0.00e+00	0	44	0	613416960	13	4256
2026-01-17 01:52:12.69	338.82	26.45	-26.6	-28.1	16.0	2.82e-03	0	44	0	616562688	13	4299
2026-01-17 01:52:13.70	338.55	26.53	-26.7	-28.4	15.9	0.00e+00	0	44	0	619708416	13	4383
2026-01-17 01:52:14.70	338.29	26.62	-26.8	-28.5	15.8	0.00e+00	0	44	0	622854144	13	4412
2026-01-17 01:52:15.70	338.02	26.70	-26.8	-28.6	15.7	2.94e-03	0	44	0	625999872	13	4441
2026-01-17 01:52:16.70	337.75	26.78	-26.9	-28.9	15.6	2.86e-03	0	44	0	629145600	13	4515
2026-01-17 01:52:17.71	337.48	26.87	-27.0	-28.6	15.5	0.00e+00	0	44	0	632291328	14	4314
2026-01-17 01:52:18.71	337.21	26.95	-26.9	-28.9	15.6	0.00e+00	0	44	0	635437056	13	4520
2026-01-17 01:52:19.71	336.93	27.03	-26.8	-28.7	15.7	0.00e+00	0	44	0	638582784	13	4450
2026-01-17 01:52:20.71	336.66	27.11	-26.8	-28.7	15.7	0.00e+00	0	44	0	641728512	13	4470
2026-01-17 01:52:21.71	336.38	27.19	-26.8	-28.6	15.8	2.67e-03	0	44	0	644874240	13	4421
2026-01-17 01:52:22.71	336.11	27.27	-26.8	-28.6	15.8	3.00e-04	0	44	0	648019968	13	4421
2026-01-17 01:52:23.71	335.83	27.35	-26.8	-28.7	15.7	0.00e+00	0	44	0	651165696	13	4455
2026-01-17 01:52:24.70	335.55	27.43	-26.8	-28.5	15.8	0.00e+00	0	44	0	654311424	13	4413
2026-01-17 01:52:25.70	335.27	27.51	-26.8	-28.7	15.7	2.97e-03	0	44	0	657457152	13	4460
2026-01-17 01:52:26.70	334.99	27.59	-26.7	-28.3	15.9	0.00e+00	0	44	0	660602880	13	4345
2026-01-17 01:52:27.70	334.70	27.67	-26.8	-28.7	15.7	0.00e+00	0	44	0	663748608	13	4450
2026-01-17 01:52:28.71	334.41	27.74	-26.7	-28.3	15.9	0.00e+00	0	44	0	665845760	13	4350
2026-01-17 01:52:29.71	334.13	27.82	-26.5	-28.0	16.1	0.00e+00	0	44	0	668991488	13	4273
2026-01-17 01:52:30.72	333.83	27.90	-26.6	-28.2	16.0	8.84e-04	0	44	0	672137216	13	4326
2026-01-17 01:52:31.72	333.54	27.97	-26.7	-28.4	15.9	8.89e-04	0	44	0	675282944	13	4377
2026-01-17 01:52:32.73	333.25	28.05	-26.9	-28.7	15.7	0.00e+00	0	44	0	678428672	13	4472
2026-01-17 01:52:33.73	332.96	28.12	-26.8	-28.5	15.8	0.00e+00	0	44	0	681574400	13	4409
2026-01-17 01:52:34.74	332.66	28.19	-26.8	-28.7	15.7	0.00e+00	0	44	0	684720128	13	4448
2026-01-17 01:52:35.74	332.37	28.27	-26.8	-28.7	15.7	0.00e+00	0	44	0	687865856	13	4451
2026-01-17 01:52:36.75	332.07	28.34	-26.9	-28.9	15.6	0.00e+00	0	44	0	691011584	13	4512
2026-01-17 01:52:37.75	331.77	28.41	-27.0	-28.6	15.5	0.00e+00	0	44	0	694157312	14	4329
2026-01-17 01:52:38.75	331.47	28.48	-27.0	-28.6	15.5	0.00e+00	0	44	0	697303040	14	4326
2026-01-17 01:52:39.75	331.17	28.55	-27.1	-28.7	15.5	0.00e+00	0	44	0	700448768	14	4338
2026-01-17 01:52:40.75	330.87	28.62	-27.0	-28.5	15.6	0.00e+00	0	44	0	703594496	14	4299
2026-01-17 01:52:41.76	330.56	28.69	-26.8	-28.7	15.7	0.00e+00	0	43	0	706740224	13	4445
2026-01-17 01:52:42.76	330.25	28.76	-26.7	-28.3	15.9	0.00e+00	0	44	0	709885952	13	4350
2026-01-17 01:52:43.76	329.95	28.82	-26.6	-28.1	16.1	0.00e+00	0	44	0	713031680	13	4272
2026-01-17 01:52:44.76	329.64	28.89	-26.7	-28.3	15.9	0.00e+00	0	44	0	716177408	13	4342
2026-01-17 01:52:45.75	329.34	28.95	-26.7	-28.4	15.9	0.00e+00	0	44	0	719323136	13	4364
2026-01-17 01:52:46.76	329.02	29.02	-26.6	-28.2	16.0	0.00e+00	0	44	0	722468864	13	4325
2026-01-17 01:52:47.77	328.71	29.08	-26.9	-28.7	15.8	0.00e+00	0	44	0	725614592	13	4457
2026-01-17 01:52:48.77	328.40	29.15	-26.9	-28.4	15.7	0.00e+00	0	44	0	728760320	14	4250
2026-01-17 01:52:49.77	328.08	29.21	-26.8	-28.6	15.8	0.00e+00	0	44	0	731906048	13	4432
2026-01-17 01:52:50.77	327.77	29.27	-26.7	-28.4	15.9	0.00e+00	0	44	0	735051776	13	4372
2026-01-17 01:52:51.77	327.45	29.33	-27.0	-29.0	15.6	0.00e+00	0	44	0	738197504	13	4532
2026-01-17 01:52:52.78	327.13	29.39	-26.9	-28.9	15.6	0.00e+00	0	44	0	741343232	13	4500
2026-01-17 01:52:53.77	326.82	29.45	-27.0	-28.6	15.5	0.00e+00	0	44	0	744488960	14	4309
2026-01-17 01:52:54.77	326.50	29.51	-27.0	-28.5	15.6	0.00e+00	0	44	0	747634688	14	4297
2026-01-17 01:52:55.78	326.17	29.57	-27.2	-28.9	15.4	0.00e+00	0	44	0	750780416	14	4392
2026-01-17 01:52:56.78	325.85	29.62	-27.1	-28.7	15.5	0.00e+00	0	43	0	753926144	14	4340
2026-01-17 01:52:57.79	325.53	29.68	-27.0	-28.5	15.6	0.00e+00	0	44	0	757071872	14	4292
2026-01-17 01:52:58.78	325.20	29.73	-27.1	-28.7	15.5	0.00e+00	0	44	0	760217600	14	4351
2026-01-17 01:52:59.78	324.88	29.78	-27.1	-28.7	15.5	0.00e+00	0	44	0	763363328	14	4341
2026-01-17 01:53:00.78	324.55	29.84	-27.1	-28.8	15.4	0.00e+00	0	44	0	766509056	14	4360
2026-01-17 01:53:01.78	324.23	29.89	-27.2	-28.9	15.4	0.00e+00	0	44	0	769654784	14	4396
2026-01-17 01:53:02.78	323.90	29.94	-27.1	-28.8	15.4	0.00e+00	0	44	0	772800512	14	4361
2026-01-17 01:53:03.78	323.57	29.99	-26.9	-28.4	15.7	0.00e+00	0	44	0	775946240	14	4253
2026-01-17 01:53:04.78	323.24	30.04	-27.0	-28.6	15.5	0.00e+00	0	44	0	779091968	14	4308
2026-01-17 01:53:05.78	322.91	30.09	-27.1	-28.7	15.5	0.00e+00	0	44	0	782237696	14	4331
2026-01-17 01:53:06.78	322.57	30.13	-27.2	-29.0	15.3	0.00e+00	0	44	0	785383424	14	4431
2026-01-17 01:53:07.79	322.24	30.18	-27.1	-28.9	15.4	0.00e+00	0	44	0	788529152	14	4390
2026-01-17 01:53:08.80	321.90	30.22	-27.3	-29.1	15.3	0.00e+00	0	44	0	791674880	14	4453
2026-01-17 01:53:09.80	321.56	30.27	-27.2	-29.1	15.3	0.00e+00	0	44	0	794820608	14	4445
2026-01-17 01:53:10.80	321.23	30.31	-27.1	-28.8	15.4	0.00e+00	0	44	0	797966336	14	4366
2026-01-17 01:53:11.80	320.89	30.35	-27.1	-28.8	15.4	0.00e+00	0	44	0	801112064	14	4374
2026-01-17 01:53:12.80	320.55	30.39	-27.3	-29.3	15.1	0.00e+00	0	43	0	804257792	14	4499
2026-01-17 01:53:13.80	320.21	30.43	-27.5	-29.3	14.9	7.00e-07	0	44	0	807403520	15	4387
2026-01-17 01:53:14.80	319.87	30.47	-27.4	-29.0	15.1	0.00e+00	0	44	0	810549248	15	4303
2026-01-17 01:53:15.81	319.53	30.51	-27.5	-29.6	15.0	0.00e+00	0	44	0	813694976	14	4618
2026-01-17 01:53:16.81	319.19	30.54	-27.6	-29.5	14.8	0.00e+00	0	44	0	816840704	15	4466
2026-01-17 01:53:17.81	318.85	30.58	-27.8	-29.8	14.6	0.00e+00	0	44	0	819986432	15	4556
2026-01-17 01:53:18.81	318.50	30.61	-27.8	-29.8	14.6	7.00e-07	0	44	0	823132160	15	4541
2026-01-17 01:53:19.82	318.16	30.64	-27.8	-29.8	14.6	0.00e+00	0	44	0	826277888	15	4556
2026-01-17 01:53:20.82	317.81	30.67	-28.0	-30.3	14.3	0.00e+00	0	44	0	829423616	15	4703
2026-01-17 01:53:21.83	317.47	30.71	-27.8	-29.3	14.8	0.00e+00	0	44	0	832569344	16	4275
2026-01-17 01:53:22.83	317.12	30.73	-27.1	-28.3	15.4	0.00e+00	0	44	0	835715072	15	4112
2026-01-17 01:53:23.84	316.77	30.76	-27.0	-28.5	15.6	0.00e+00	0	44	0	838860800	14	4282
2026-01-17 01:53:24.84	316.42	30.79	-27.0	-28.5	15.6	0.00e+00	0	44	0	842006528	14	4279
2026-01-17 01:53:25.85	316.07	30.82	-27.2	-29.0	14.8	0.00e+00	0	44	0	845152256	14	4431
2026-01-17 01:53:26.84	315.73	30.84	-27.2	-29.1	15.3	0.00e+00	0	44	0	848297984	14	4443
2026-01-17 01:53:27.84	315.38	30.86	-27.2	-29.0	15.3	0.00e+00	0	44	0	851443712	14	4424
2026-01-17 01:53:28.84	315.03	30.89	-27.2	-29.0	15.3	0.00e+00	0	44	0	854589440	14	4419
2026-01-17 01:53:29.84	314.68	30.91	-27.0	-28.6	15.6	0.00e+00	0	43	0	857735168	14	4304
2026-01-17 01:53:30.84	314.33	30.93	-27.1	-28.7	15.5	0.00e+00	0	43	0	860880896	14	4345
2026-01-17 01:53:31.85	313.98	30.95	-27.2	-29.1	15.3	0.00e+00	0	44	0	864026624	14	4443
2026-01-17 01:53:32.86	313.62	30.96	-27.2	-28.9	15.4	3.67e-03	0	44	0	867172352	14	4396
2026-01-17 01:53:33.86	313.27	30.98	-26.9	-28.8	15.7	0.00e+00	0	44	0	870318080	13	4496
2026-01-17 01:53:34.86	312.92	31.00	-27.0	-29.0	15.6	0.00e+00	0	44	0	873463808	13	4536
2026-01-17 01:53:35.86	312.57	31.01	-27.1	-28.8	15.5	0.00e+00	0	44	0	876609536	14	4356
2026-01-17 01:53:36.87	312.22	31.02	-27.3	-29.2	15.3	0.00e+00	0	44	0	879755264	14	4484
2026-01-17 01:53:37.86	311.87	31.03	-27.3	-29.2	15.2	2.81e-04	0	44	0	882900992	14	4495
2026-01-17 01:53:38.87	311.51	31.04	-27.4	-29.3	15.2	0.00e+00	0	44	0	886046720	14	4520
2026-01-17 01:53:39.87	311.16	31.05	-27.4	-29.4	15.1	0.00e+00	0	44	0	889192448	14	4544
2026-01-17 01:53:40.88	310.80	31.06	-27.3	-29.1	15.2	0.00e+00	0	44	0	892338176	14	4465
2026-01-17 01:53:41.88	310.45	31.07	-27.2	-28.9	15.4	0.00e+00	0	44	0	894435328	14	4396
2026-01-17 01:53:42.89	310.09	31.07	-27.3	-29.1	15.3	3.41e-03	0	44	0	897581056	14	4456
2026-01-17 01:53:43.88	309.74	31.08	-27.3	-29.2	15.2	4.12e-04	0	44	0	900726784	14	4477
2026-01-17 01:53:44.89	309.39	31.08	-27.4	-29.4	15.1	0.00e+00	0	44	0	903872512	14	4546
2026-01-17 01:53:45.88	309.04	31.08	-27.5	-29.1	15.0	0.00e+00	0	44	0	907018240	15	4346
2026-01-17 01:53:46.88	308.68	31.08	-27.6	-29.3	14.9	0.00e+00	0	44	0	910163968	15	4397
2026-01-17 01:53:47.88	308.33	31.08	-27.6	-29.5	14.8	3.79e-03	0	44	0	913309696	15	4450
2026-01-17 01:53:48.88	307.97	31.08	-27.3	-29.3	15.2	3.58e-03	0	44	0	916455424	14	4498
2026-01-17 01:53:49.88	307.62	31.08	-27.0	-28.5	15.6	0.00e+00	0	44	0	919601152	14	4289
2026-01-17 01:53:50.89	307.26	31.07	-26.9	-28.8	15.7	0.00e+00	0	44	0	922746880	13	4486
2026-01-17 01:53:51.89	306.91	31.07	-27.1	-28.8	15.4	0.00e+00	0	44	0	925892608	14	4372
2026-01-17 01:53:52.89	306.56	31.06	-27.4	-29.5	15.0	6.18e-04	0	44	0	929038336	14	4579
2026-01-17 01:53:53.90	306.20	31.05	-27.5	-29.1	15.0	3.71e-03	0	44	0	932184064	15	4352
2026-01-17 01:53:54.90	305.85	31.04	-27.7	-29.6	14.8	4.20e-03	0	44	0	935329792	15	4483
2026-01-17 01:53:55.90	305.50	31.03	-28.2	-30.1	14.3	0.00e+00	0	44	0	938475520	16	4526
2026-01-17 01:53:56.90	305.14	31.02	-28.0	-29.8	14.5	0.00e+00	0	44	0	941621248	16	4426
2026-01-17 01:53:57.90	304.79	31.01	-27.6	-29.4	14.9	3.97e-03	0	44	0	944766976	15	4419
2026-01-17 01:53:58.90	304.44	30.99	-27.3	-29.3	15.1	3.55e-04	0	44	0	947912704	14	4519
2026-01-17 01:53:59.89	304.09	30.98	-27.2	-29.0	15.2	5.57e-03	0	44	0	951058432	14	4422
2026-01-17 01:54:00.89	303.74	30.96	-27.1	-28.7	15.5	0.00e+00	0	44	0	954204160	14	4345
2026-01-17 01:54:01.89	303.39	30.94	-27.2	-29.0	15.3	0.00e+00	0	44	0	957349888	14	4424
2026-01-17 01:54:02.90	303.04	30.92	-27.1	-28.8	15.5	3.35e-03	0	43	0	960495616	14	4367
2026-01-17 01:54:03.90	302.69	30.90	-27.2	-28.9	15.4	3.62e-03	0	44	0	963641344	14	4398
2026-01-17 01:54:04.90	302.34	30.88	-27.0	-28.5	15.6	1.25e-04	0	44	0	966787072	14	4289
2026-01-17 01:54:05.90	301.99	30.86	-26.9	-28.8	15.7	4.06e-03	0	44	0	969932800	13	4475
2026-01-17 01:54:06.90	301.64	30.83	-27.1	-28.8	15.5	0.00e+00	0	44	0	973078528	14	4356
2026-01-17 01:54:07.90	301.29	30.81	-27.3	-29.2	15.2	2.97e-05	0	44	0	976224256	14	4489
2026-01-17 01:54:08.90	300.94	30.78	-27.4	-29.4	15.2	3.75e-03	0	44	0	979369984	14	4535
2026-01-17 01:54:09.90	300.60	30.76	-27.5	-29.3	14.9	3.35e-03	0	44	0	982515712	15	4397
2026-01-17 01:54:10.89	300.26	30.73	-27.3	-28.8	15.2	2.70e-04	0	44	0	985661440	15	4270
2026-01-17 01:54:11.90	299.91	30.70	-27.1	-28.7	15.5	3.35e-03	0	44	0	988807168	14	4345
2026-01-17 01:54:12.90	299.56	30.67	-27.0	-28.6	15.5	3.60e-03	0	44	0	991952896	14	4322
2026-01-17 01:54:13.90	299.22	30.63	-27.0	-28.6	15.5	3.85e-04	0	44	0	995098624	14	4325
2026-01-17 01:54:14.91	298.87	30.60	-27.2	-29.0	15.3	4.13e-03	0	43	0	998244352	14	4437
2026-01-17 01:54:15.91	298.53	30.57	-27.1	-28.8	15.4	3.91e-03	0	44	0	1001390080	14	4384
2026-01-17 01:54:16.91	298.18	30.53	-27.2	-29.1	15.3	4.72e-04	0	44	0	1004535808	14	4446
2026-01-17 01:54:17.91	297.84	30.50	-27.1	-28.9	15.4	3.61e-03	0	44	0	1007681536	14	4394
2026-01-17 01:54:18.91	297.50	30.46	-27.2	-28.9	15.4	2.85e-03	0	44	0	1010827264	14	4395
2026-01-17 01:54:19.90	297.17	30.42	-27.2	-29.0	15.3	4.23e-04	0	44	0	1013972992	14	4426
2026-01-17 01:54:20.90	296.83	30.38	-27.0	-28.5	15.6	3.55e-03	0	44	0	1017118720	14	4288
2026-01-17 01:54:21.89	296.49	30.34	-26.9	-28.9	15.7	1.81e-03	0	44	0	1020264448	13	4508
2026-01-17 01:54:22.89	296.15	30.30	-27.1	-28.7	15.6	1.94e-04	0	44	0	1023410176	14	4328
2026-01-17 01:54:23.89	295.82	30.26	-26.9	-28.9	15.6	4.07e-03	0	44	0	1026555904	13	4512
2026-01-17 01:54:24.90	295.48	30.21	-27.0	-28.6	15.6	4.72e-03	0	44	0	1029701632	14	4318
2026-01-17 01:54:25.90	295.14	30.17	-27.3	-29.1	15.3	6.34e-04	0	44	0	1032847360	14	4455
2026-01-17 01:54:26.90	294.81	30.12	-27.4	-29.3	15.2	4.43e-04	0	44	0	1035993088	14	4525
2026-01-17 01:54:27.90	294.48	30.07	-27.6	-29.4	14.8	2.32e-04	0	44	0	1039138816	15	4433
2026-01-17 01:54:28.90	294.15	30.03	-27.8	-29.8	14.6	2.52e-04	0	44	0	1042284544	15	4554
2026-01-17 01:54:29.90	293.82	29.98	-27.6	-29.3	14.8	3.32e-03	0	44	0	1045430272	15	4410
2026-01-17 01:54:30.90	293.49	29.93	-27.3	-29.2	15.2	3.87e-03	0	43	0	1048576000	14	4477
2026-01-17 01:54:31.90	293.16	29.88	-27.2	-29.0	15.3	0.00e+00	0	44	0	1051721728	14	4438
2026-01-17 01:54:32.90	292.83	29.82	-27.5	-29.6	15.0	0.00e+00	0	44	0	1054867456	14	4612
2026-01-17 01:54:33.90	292.50	29.77	-27.6	-29.5	14.8	3.61e-03	0	44	0	1058013184	15	4450
2026-01-17 01:54:34.90	292.18	29.72	-27.7	-29.7	14.6	2.41e-04	0	44	0	1061158912	15	4521
2026-01-17 01:54:35.91	291.85	29.66	-27.9	-30.1	14.4	3.99e-03	0	44	0	1064304640	15	4634
2026-01-17 01:54:36.91	291.53	29.61	-27.7	-29.6	14.6	0.00e+00	0	44	0	1067450368	15	4506
2026-01-17 01:54:37.91	291.20	29.55	-27.5	-29.2	14.9	7.00e-07	0	44	0	1070596096	15	4367
2026-01-17 01:54:38.92	290.88	29.49	-27.3	-29.1	15.2	7.00e-07	0	44	0	1072693248	14	4462
2026-01-17 01:54:39.91	290.56	29.43	-27.2	-29.0	15.3	4.54e-03	0	44	0	1075838976	14	4423
2026-01-17 01:54:40.92	290.24	29.37	-27.3	-29.3	15.1	1.46e-04	0	44	0	1078984704	14	4511
2026-01-17 01:54:41.93	289.92	29.31	-27.3	-29.3	15.1	2.53e-04	0	43	0	1082130432	14	4531
2026-01-17 01:54:42.93	289.60	29.25	-27.4	-29.6	15.0	2.14e-04	0	44	0	1085276160	14	4609
2026-01-17 01:54:43.93	289.29	29.19	-27.4	-29.4	15.0	0.00e+00	0	44	0	1088421888	14	4545
2026-01-17 01:54:44.93	288.97	29.13	-27.3	-29.4	15.1	4.14e-03	0	44	0	1091567616	14	4539
2026-01-17 01:54:45.93	288.66	29.07	-27.3	-29.2	15.2	3.53e-03	0	44	0	1094713344	14	4479
2026-01-17 01:54:46.93	288.35	29.00	-27.2	-29.0	15.2	0.00e+00	0	44	0	1097859072	14	4441
2026-01-17 01:54:47.92	288.04	28.94	-26.9	-28.3	15.7	0.00e+00	0	44	0	1101004800	14	4236
2026-01-17 01:54:48.92	287.73	28.87	-26.6	-28.1	16.0	0.00e+00	0	44	0	1104150528	13	4294
2026-01-17 01:54:49.93	287.42	28.80	-26.5	-27.9	16.2	0.00e+00	0	44	0	1107296256	13	4221
2026-01-17 01:54:50.93	287.12	28.74	-26.6	-28.2	15.9	4.01e-03	0	44	0	1110441984	13	4331
2026-01-17 01:54:51.94	286.81	28.67	-26.7	-28.3	15.9	0.00e+00	0	44	0	1113587712	13	4349
2026-01-17 01:54:52.94	286.50	28.60	-26.8	-28.6	15.7	0.00e+00	0	43	0	1116733440	13	4438
2026-01-17 01:54:53.93	286.21	28.53	-26.9	-28.8	15.6	0.00e+00	0	44	0	1119879168	13	4487
2026-01-17 01:54:54.94	285.90	28.46	-27.0	-28.9	15.5	0.00e+00	0	44	0	1123024896	13	4528
2026-01-17 01:54:55.94	285.60	28.39	-26.8	-28.1	15.7	0.00e+00	0	44	0	1126170624	14	4178
2026-01-17 01:54:56.94	285.30	28.32	-26.6	-28.1	16.0	3.09e-04	0	44	0	1129316352	13	4295
2026-01-17 01:54:57.95	285.00	28.24	-26.5	-28.3	16.2	4.98e-04	0	44	0	1132462080	12	4466
2026-01-17 01:54:58.95	284.71	28.17	-26.5	-27.9	16.1	0.00e+00	0	44	0	1135607808	13	4238
2026-01-17 01:54:59.96	284.41	28.10	-26.7	-28.4	15.9	0.00e+00	0	43	0	1138753536	13	4369
2026-01-17 01:55:00.96	284.12	28.02	-26.5	-28.0	16.0	0.00e+00	0	44	0	1141899264	13	4271
2026-01-17 01:55:01.97	283.82	27.95	-26.6	-28.1	16.1	0.00e+00	0	44	0	1145044992	13	4278
2026-01-17 01:55:02.97	283.53	27.87	-26.7	-28.4	15.9	2.36e-05	0	43	0	1148190720	13	4366
2026-01-17 01:55:03.98	283.24	27.79	-26.8	-28.7	15.7	0.00e+00	0	43	0	1151336448	13	4452
2026-01-17 01:55:04.97	282.95	27.72	-26.9	-28.7	15.7	0.00e+00	0	44	0	1154482176	13	4472
2026-01-17 01:55:05.99	282.66	27.64	-26.7	-28.3	15.9	0.00e+00	0	44	0	1157627904	13	4337
2026-01-17 01:55:06.99	282.38	27.56	-26.7	-28.4	15.8	0.00e+00	0	44	0	1160773632	13	4383
2026-01-17 01:55:07.99	282.09	27.48	-26.5	-28.0	16.0	0.00e+00	0	44	0	1163919360	13	4254
2026-01-17 01:55:09.00	281.81	27.40	-26.6	-28.1	16.0	0.00e+00	0	44	0	1167065088	13	4293
2026-01-17 01:55:10.00	281.53	27.32	-26.7	-28.3	15.9	0.00e+00	0	44	0	1170210816	13	4356
2026-01-17 01:55:11.00	281.25	27.24	-26.7	-28.5	15.8	0.00e+00	0	44	0	1173356544	13	4404
2026-01-17 01:55:12.00	280.97	27.16	-26.7	-28.5	15.8	0.00e+00	0	44	0	1176502272	13	4393
2026-01-17 01:55:13.00	280.70	27.08	-26.6	-28.3	15.9	0.00e+00	0	44	0	1179648000	13	4335
2026-01-17 01:55:14.00	280.42	27.00	-26.6	-28.2	15.9	0.00e+00	0	44	0	1182793728	13	4315
2026-01-17 01:55:14.99	280.15	26.92	-26.6	-28.2	15.9	0.00e+00	0	44	0	1185939456	13	4329
2026-01-17 01:55:15.99	279.88	26.84	-26.7	-28.4	15.8	0.00e+00	0	44	0	1189085184	13	4368
2026-01-17 01:55:16.99	279.61	26.75	-26.2	-27.3	16.4	0.00e+00	0	43	0	1192230912	13	4084
2026-01-17 01:55:18.00	279.33	26.67	-26.1	-27.5	16.6	4.50e-06	0	44	0	1195376640	12	4231
2026-01-17 01:55:19.00	279.07	26.58	-26.1	-27.6	16.5	0.00e+00	0	44	0	1198522368	12	4257
2026-01-17 01:55:20.00	278.80	26.50	-26.4	-28.1	16.2	0.00e+00	0	44	0	1201668096	12	4414
2026-01-17 01:55:21.01	278.53	26.41	-26.5	-27.9	16.1	3.00e-06	0	43	0	1204813824	13	4238
2026-01-17 01:55:22.01	278.27	26.33	-26.8	-28.6	15.7	0.00e+00	0	44	0	1207959552	13	4432
2026-01-17 01:55:23.01	278.01	26.24	-26.8	-28.7	15.6	0.00e+00	0	44	0	1211105280	13	4478
2026-01-17 01:55:24.02	277.74	26.16	-27.2	-29.0	15.2	0.00e+00	0	43	0	1214251008	14	4430
2026-01-17 01:55:25.02	277.48	26.07	-26.6	-27.8	15.8	0.00e+00	0	44	0	1217396736	14	4099
2026-01-17 01:55:26.02	277.23	25.98	-26.2	-27.2	16.4	0.00e+00	0	44	0	1220542464	13	4067
2026-01-17 01:55:27.03	276.97	25.90	-25.8	-27.0	16.8	1.50e-06	0	44	0	1223688192	12	4108
2026-01-17 01:55:28.03	276.71	25.81	-25.8	-27.4	16.9	0.00e+00	0	43	0	1226833920	11	4327
2026-01-17 01:55:29.03	276.46	25.72	-26.0	-27.8	16.7	0.00e+00	0	44	0	1229979648	11	4424
2026-01-17 01:55:30.02	276.21	25.63	-26.1	-27.6	16.4	7.00e-07	0	44	0	1233125376	12	4267
2026-01-17 01:55:31.03	275.96	25.54	-26.5	-28.4	16.1	0.00e+00	0	44	0	1236271104	12	4480
2026-01-17 01:55:32.04	275.70	25.46	-26.5	-28.1	15.9	0.00e+00	0	43	0	1239416832	13	4288
2026-01-17 01:55:33.03	275.46	25.37	-26.6	-28.2	15.8	0.00e+00	0	44	0	1242562560	13	4320
2026-01-17 01:55:34.04	275.21	25.28	-26.7	-28.4	15.7	0.00e+00	0	44	0	1245708288	13	4396
2026-01-17 01:55:35.04	274.96	25.19	-26.6	-28.3	15.8	0.00e+00	0	44	0	1248854016	13	4353
2026-01-17 01:55:36.05	274.72	25.10	-26.7	-28.4	15.7	0.00e+00	0	44	0	1251999744	13	4396
2026-01-17 01:55:37.05	274.47	25.01	-26.6	-28.2	15.8	0.00e+00	0	44	0	1255145472	13	4336
2026-01-17 01:55:38.05	274.23	24.92	-26.7	-28.4	15.7	0.00e+00	0	43	0	1258291200	13	4382
2026-01-17 01:55:39.06	273.99	24.83	-27.0	-28.6	15.3	0.00e+00	0	43	0	1261436928	14	4335
2026-01-17 01:55:40.05	273.76	24.74	-26.9	-28.3	15.5	0.00e+00	0	44	0	1264582656	14	4239
2026-01-17 01:55:41.05	273.52	24.64	-26.8	-28.3	15.6	0.00e+00	0	44	0	1267728384	14	4233
2026-01-17 01:55:42.05	273.28	24.55	-26.9	-28.4	15.5	0.00e+00	0	44	0	1270874112	14	4285
2026-01-17 01:55:43.05	273.05	24.46	-27.1	-28.9	15.2	0.00e+00	0	44	0	1274019840	14	4404
2026-01-17 01:55:44.06	272.81	24.37	-27.1	-28.9	15.2	0.00e+00	0	44	0	1277165568	14	4413
2026-01-17 01:55:45.06	272.58	24.28	-26.9	-28.3	15.5	0.00e+00	0	44	0	1280311296	14	4238
2026-01-17 01:55:46.06	272.35	24.19	-26.6	-28.2	15.8	0.00e+00	0	44	0	1283457024	13	4317
2026-01-17 01:55:47.06	272.12	24.09	-26.5	-27.9	16.0	0.00e+00	0	44	0	1286602752	13	4255
2026-01-17 01:55:48.07	271.89	24.00	-26.6	-28.1	15.9	0.00e+00	0	44	0	1289748480	13	4295
2026-01-17 01:55:49.07	271.67	23.91	-26.6	-28.1	15.9	0.00e+00	0	44	0	1292894208	13	4287
2026-01-17 01:55:50.07	271.44	23.81	-27.1	-28.7	15.3	0.00e+00	0	44	0	1296039936	14	4360
2026-01-17 01:55:51.08	271.22	23.72	-26.9	-28.4	15.5	0.00e+00	0	44	0	1299185664	14	4264
2026-01-17 01:55:52.08	271.00	23.63	-26.8	-28.6	15.6	0.00e+00	0	44	0	1302331392	13	4455
2026-01-17 01:55:53.09	270.77	23.53	-26.9	-29.0	15.4	0.00e+00	0	44	0	1304428544	13	4549
2026-01-17 01:55:54.09	270.55	23.44	-27.1	-28.8	15.2	0.00e+00	0	44	0	1307574272	14	4392
2026-01-17 01:55:55.09	270.34	23.35	-27.4	-29.5	14.8	7.00e-07	0	44	0	1310720000	14	4592
2026-01-17 01:55:56.09	270.12	23.25	-27.5	-29.7	14.7	0.00e+00	0	43	0	1313865728	14	4643
2026-01-17 01:55:57.10	269.90	23.16	-27.3	-29.2	15.0	0.00e+00	0	44	0	1318060032	14	4498
2026-01-17 01:55:58.10	269.69	23.07	-27.1	-28.8	15.2	0.00e+00	0	44	0	1321205760	14	4370
2026-01-17 01:55:59.10	269.47	22.97	-27.1	-28.7	15.3	0.00e+00	0	44	0	1324351488	14	4362
2026-01-17 01:56:00.10	269.26	22.88	-27.1	-28.8	15.2	0.00e+00	0	44	0	1327497216	14	4367
2026-01-17 01:56:01.10	269.05	22.78	-27.2	-28.9	15.1	0.00e+00	0	44	0	1329594368	14	4421
2026-01-17 01:56:02.11	268.84	22.69	-27.2	-29.0	15.1	0.00e+00	0	44	0	1332740096	14	4443
2026-01-17 01:56:03.11	268.63	22.60	-26.8	-28.0	15.6	0.00e+00	0	44	0	1335885824	14	4167
2026-01-17 01:56:04.10	268.43	22.50	-26.4	-27.8	16.0	0.00e+00	0	44	0	1339031552	13	4235
2026-01-17 01:56:05.10	268.22	22.41	-25.4	-26.9	14.6	0.00e+00	0	44	0	1342177280	12	4286
2026-01-17 01:56:06.11	268.02	22.31	-26.1	-27.5	14.2	0.00e+00	0	43	0	1345323008	12	4254
2026-01-17 01:56:07.11	267.82	22.22	-26.2	-27.7	16.0	0.00e+00	0	44	0	1348468736	12	4298
2026-01-17 01:56:08.11	267.61	22.12	-26.4	-28.1	15.3	0.00e+00	0	44	0	1351614464	12	4424
2026-01-17 01:56:09.11	267.41	22.03	-26.3	-28.0	15.7	7.13e-04	0	44	0	1354760192	12	4395
2026-01-17 01:56:10.11	267.21	21.94	-26.6	-28.3	15.7	0.00e+00	0	44	0	1357905920	13	4356
2026-01-17 01:56:11.11	267.02	21.84	-26.5	-28.0	15.8	0.00e+00	0	44	0	1361051648	13	4279
2026-01-17 01:56:12.12	266.82	21.75	-26.9	-28.8	15.4	0.00e+00	0	44	0	1364197376	13	4506
2026-01-17 01:56:13.12	266.62	21.65	-26.7	-28.4	15.6	0.00e+00	0	44	0	1367343104	13	4397
2026-01-17 01:56:14.13	266.43	21.56	-26.5	-28.0	15.9	1.92e-03	0	44	0	1370488832	13	4285
2026-01-17 01:56:15.13	266.23	21.46	-26.5	-28.4	15.9	0.00e+00	0	44	0	1373634560	12	4513
2026-01-17 01:56:16.12	266.04	21.37	-26.5	-27.9	15.9	0.00e+00	0	43	0	1376780288	13	4255
2026-01-17 01:56:17.12	265.85	21.27	-25.8	-27.3	15.9	0.00e+00	0	44	0	1379926016	13	4271
2026-01-17 01:56:18.13	265.66	21.18	-26.4	-28.3	13.3	0.00e+00	0	44	0	1383071744	12	4474
2026-01-17 01:56:19.13	265.47	21.08	-26.4	-28.3	16.0	7.11e-04	0	44	0	1386217472	12	4460
2026-01-17 01:56:20.13	265.29	20.99	-26.4	-28.3	15.7	8.78e-03	0	43	0	1389363200	12	4466
2026-01-17 01:56:21.14	265.10	20.89	-26.6	-28.2	15.7	0.00e+00	0	44	0	1392508928	13	4338
2026-01-17 01:56:22.14	264.91	20.80	-26.8	-28.7	15.5	0.00e+00	0	44	0	1395654656	13	4463
2026-01-17 01:56:23.14	264.73	20.71	-26.6	-28.2	15.7	0.00e+00	0	44	0	1398800384	13	4332
2026-01-17 01:56:24.15	264.55	20.61	-26.4	-28.3	15.9	3.92e-03	0	44	0	1401946112	12	4481
2026-01-17 01:56:25.15	264.36	20.52	-26.4	-28.3	15.9	3.05e-05	0	44	0	1405091840	12	4480
2026-01-17 01:56:26.15	264.18	20.42	-26.4	-28.4	15.9	4.86e-03	0	44	0	1408237568	12	4490
2026-01-17 01:56:27.16	264.00	20.33	-26.5	-27.9	15.9	0.00e+00	0	44	0	1411383296	13	4260
2026-01-17 01:56:28.17	263.82	20.23	-26.4	-27.8	15.9	0.00e+00	0	44	0	1414529024	13	4229
2026-01-17 01:56:29.17	263.65	20.14	-26.5	-28.1	15.8	1.45e-03	0	44	0	1417674752	13	4299
2026-01-17 01:56:30.17	263.47	20.05	-26.6	-28.2	15.7	3.53e-03	0	44	0	1420820480	13	4340
2026-01-17 01:56:31.18	263.29	19.95	-26.6	-28.2	15.7	0.00e+00	0	44	0	1423966208	13	4326
2026-01-17 01:56:32.18	263.12	19.86	-26.7	-28.4	15.6	3.63e-03	0	44	0	1427111936	13	4389
2026-01-17 01:56:33.18	262.95	19.76	-26.6	-28.3	15.6	0.00e+00	0	44	0	1430257664	13	4361
2026-01-17 01:56:34.18	262.78	19.67	-26.6	-28.3	15.7	0.00e+00	0	44	0	1433403392	13	4351
2026-01-17 01:56:35.18	262.61	19.58	-26.8	-28.6	15.5	3.77e-03	0	44	0	1436549120	13	4439
2026-01-17 01:56:36.18	262.44	19.48	-26.4	-27.9	15.9	4.40e-03	0	44	0	1439694848	13	4240
2026-01-17 01:56:37.19	262.27	19.39	-26.3	-27.5	16.0	0.00e+00	0	44	0	1442840576	13	4148
2026-01-17 01:56:38.19	262.10	19.30	-26.2	-27.9	16.1	0.00e+00	0	44	0	1445986304	12	4362
2026-01-17 01:56:39.19	261.93	19.20	-26.3	-28.1	16.0	2.82e-03	0	44	0	1449132032	12	4425
2026-01-17 01:56:40.20	261.76	19.11	-26.1	-27.6	16.3	7.00e-07	0	44	0	1452277760	12	4276
2026-01-17 01:56:41.20	261.60	19.02	-26.1	-27.6	16.3	3.43e-03	0	44	0	1455423488	12	4279
2026-01-17 01:56:42.21	261.44	18.92	-26.2	-27.7	16.2	2.91e-03	0	44	0	1458569216	12	4311
2026-01-17 01:56:43.21	261.27	18.83	-26.1	-27.7	16.2	0.00e+00	0	44	0	1461714944	12	4302
2026-01-17 01:56:44.21	261.11	18.74	-26.3	-28.0	16.0	4.89e-04	0	44	0	1464860672	12	4391
2026-01-17 01:56:45.22	260.95	18.64	-26.6	-28.2	15.7	3.30e-03	0	44	0	1468006400	13	4322
2026-01-17 01:56:46.22	260.79	18.55	-26.7	-28.5	15.5	0.00e+00	0	44	0	1471152128	13	4431
2026-01-17 01:56:47.22	260.63	18.46	-27.0	-29.0	15.2	3.85e-03	0	44	0	1474297856	13	4579
2026-01-17 01:56:48.22	260.47	18.37	-27.0	-28.7	15.1	3.83e-03	0	44	0	1477443584	14	4375
2026-01-17 01:56:49.21	260.32	18.28	-27.1	-29.0	15.0	0.00e+00	0	44	0	1480589312	14	4444
2026-01-17 01:56:50.22	260.16	18.18	-27.2	-29.2	14.8	4.11e-03	0	44	0	1483735040	14	4511
2026-01-17 01:56:51.23	260.01	18.09	-27.1	-29.0	15.0	3.91e-03	0	44	0	1486880768	14	4447
2026-01-17 01:56:52.23	259.85	18.00	-27.1	-28.9	15.0	5.40e-04	0	44	0	1490026496	14	4431
2026-01-17 01:56:53.23	259.70	17.91	-27.2	-29.0	14.9	3.59e-03	0	44	0	1493172224	14	4459
2026-01-17 01:56:54.23	259.55	17.82	-26.9	-28.5	15.2	0.00e+00	0	44	0	1496317952	14	4302
2026-01-17 01:56:55.23	259.40	17.72	-26.7	-28.4	15.5	2.48e-04	0	44	0	1499463680	13	4389
2026-01-17 01:56:56.23	259.25	17.63	-26.6	-28.3	15.6	2.96e-03	0	44	0	1502609408	13	4362
2026-01-17 01:56:57.23	259.10	17.54	-26.5	-28.0	15.7	1.40e-04	0	44	0	1505755136	13	4291
2026-01-17 01:56:58.23	258.95	17.45	-26.6	-28.4	15.5	0.00e+00	0	44	0	1508900864	13	4382
2026-01-17 01:56:59.23	258.80	17.36	-26.8	-28.7	15.4	9.10e-06	0	44	0	1512046592	13	4477
2026-01-17 01:57:00.24	258.66	17.27	-26.8	-28.8	15.3	0.00e+00	0	44	0	1515192320	13	4499
2026-01-17 01:57:01.25	258.51	17.18	-27.2	-29.1	14.8	7.00e-07	0	44	0	1518338048	14	4482
2026-01-17 01:57:02.26	258.36	17.09	-27.5	-29.2	14.5	6.25e-03	0	44	0	1521483776	15	4409
2026-01-17 01:57:03.26	258.22	17.00	-27.5	-29.7	14.5	4.91e-03	0	44	0	1524629504	14	4667
2026-01-17 01:57:04.26	258.08	16.91	-27.5	-29.7	14.5	7.00e-07	0	44	0	1527775232	14	4673
2026-01-17 01:57:05.25	257.94	16.82	-27.5	-29.7	14.5	0.00e+00	0	44	0	1530920960	14	4673
2026-01-17 01:57:06.25	257.80	16.73	-27.6	-29.5	14.3	0.00e+00	0	44	0	1534066688	15	4491
2026-01-17 01:57:07.26	257.65	16.64	-27.7	-29.7	14.2	7.00e-07	0	44	0	1537212416	15	4563
2026-01-17 01:57:08.26	257.52	16.55	-27.3	-29.4	14.6	3.81e-04	0	44	0	1540358144	14	4582
2026-01-17 01:57:09.26	257.38	16.46	-27.4	-29.6	14.5	0.00e+00	0	44	0	1543503872	14	4630
2026-01-17 01:57:10.26	257.24	16.37	-27.5	-29.4	14.3	0.00e+00	0	44	0	1546649600	15	4460
2026-01-17 01:57:11.26	257.10	16.28	-27.3	-29.2	14.7	0.00e+00	0	44	0	1549795328	14	4525
2026-01-17 01:57:12.26	256.97	16.19	-26.9	-28.9	15.2	0.00e+00	0	44	0	1552941056	13	4533
2026-01-17 01:57:13.26	256.83	16.10	-26.9	-28.9	15.1	0.00e+00	0	44	0	1556086784	13	4549
2026-01-17 01:57:14.26	256.70	16.02	-27.4	-29.5	14.5	0.00e+00	0	44	0	1558183936	14	4616
2026-01-17 01:57:15.26	256.56	15.93	-27.7	-29.7	14.1	2.20e-06	0	44	0	1561329664	15	4561
2026-01-17 01:57:16.26	256.43	15.84	-27.6	-29.5	14.2	7.00e-07	0	44	0	1564475392	15	4503
2026-01-17 01:57:17.27	256.30	15.75	-27.7	-29.7	14.1	7.00e-07	0	44	0	1567621120	15	4558
2026-01-17 01:57:18.27	256.17	15.66	-27.8	-30.0	14.0	3.92e-03	0	44	0	1570766848	15	4648
2026-01-17 01:57:19.28	256.03	15.57	-27.7	-29.7	14.1	7.00e-07	0	44	0	1573912576	15	4561
2026-01-17 01:57:20.28	255.90	15.49	-27.6	-29.6	14.2	1.50e-06	0	44	0	1577058304	15	4532
2026-01-17 01:57:21.28	255.78	15.40	-27.5	-29.4	14.3	1.50e-06	0	44	0	1580204032	15	4470
2026-01-17 01:57:22.29	255.65	15.31	-27.6	-29.6	14.2	1.50e-06	0	44	0	1583349760	15	4526
2026-01-17 01:57:23.29	255.52	15.22	-27.6	-29.5	14.2	3.23e-03	0	44	0	1586495488	15	4483
2026-01-17 01:57:24.29	255.39	15.14	-27.3	-29.5	14.5	0.00e+00	0	44	0	1589641216	14	4597
2026-01-17 01:57:25.30	255.27	15.05	-27.5	-29.3	14.3	1.50e-06	0	44	0	1592786944	15	4441
2026-01-17 01:57:26.30	255.14	14.96	-27.6	-29.6	14.2	7.00e-07	0	44	0	1595932672	15	4517
2026-01-17 01:57:27.31	255.01	14.88	-27.8	-30.0	13.9	4.50e-06	0	44	0	1599078400	15	4658
2026-01-17 01:57:28.30	254.89	14.79	-27.4	-29.2	14.4	7.00e-07	0	44	0	1602224128	15	4388
2026-01-17 01:57:29.30	254.77	14.70	-27.2	-29.0	14.7	7.00e-07	0	44	0	1605369856	14	4463
2026-01-17 01:57:30.31	254.65	14.62	-27.0	-28.7	14.9	0.00e+00	0	44	0	1608515584	14	4367
2026-01-17 01:57:31.31	254.52	14.53	-26.9	-29.1	15.0	0.00e+00	0	44	0	1611661312	13	4596
2026-01-17 01:57:32.32	254.40	14.45	-27.2	-29.1	14.7	7.00e-07	0	44	0	1614807040	14	4487
2026-01-17 01:57:33.32	254.28	14.36	-27.2	-29.1	14.7	7.00e-07	0	44	0	1617952768	14	4492
2026-01-17 01:57:34.33	254.16	14.27	-27.4	-29.5	14.4	1.50e-06	0	44	0	1621098496	14	4604
2026-01-17 01:57:35.33	254.04	14.19	-27.3	-29.3	14.6	7.00e-07	0	44	0	1624244224	14	4549
2026-01-17 01:57:36.33	253.93	14.11	-27.4	-29.5	14.4	0.00e+00	0	44	0	1627389952	14	4626
2026-01-17 01:57:37.33	253.81	14.02	-27.5	-29.8	14.3	0.00e+00	0	44	0	1630535680	14	4688
2026-01-17 01:57:38.33	253.69	13.94	-27.6	-29.6	14.1	2.20e-06	0	44	0	1633681408	15	4542
2026-01-17 01:57:39.34	253.57	13.85	-27.8	-30.1	13.8	7.60e-06	0	44	0	1636827136	15	4677
2026-01-17 01:57:40.34	253.46	13.77	-27.5	-29.5	14.1	3.00e-06	0	44	0	1639972864	15	4503
2026-01-17 01:57:41.34	253.35	13.68	-27.2	-29.2	14.6	7.00e-07	0	44	0	1643118592	14	4534
2026-01-17 01:57:42.34	253.23	13.60	-27.1	-28.9	14.8	7.00e-07	0	44	0	1646264320	14	4420
2026-01-17 01:57:43.35	253.12	13.51	-27.1	-29.0	14.7	0.00e+00	0	43	0	1649410048	14	4466
2026-01-17 01:57:44.35	253.00	13.43	-27.0	-28.8	14.8	0.00e+00	0	44	0	1652555776	14	4396
2026-01-17 01:57:45.35	252.89	13.35	-26.9	-29.0	14.9	0.00e+00	0	44	0	1655701504	13	4577
2026-01-17 01:57:46.35	252.78	13.27	-26.8	-28.7	15.1	0.00e+00	0	44	0	1658847232	13	4478
2026-01-17 01:57:47.35	252.67	13.18	-26.9	-28.9	15.0	0.00e+00	0	44	0	1661992960	13	4561
2026-01-17 01:57:48.35	252.56	13.10	-26.9	-29.0	14.9	0.00e+00	0	44	0	1665138688	13	4572
2026-01-17 01:57:49.36	252.45	13.02	-26.8	-28.7	15.1	0.00e+00	0	44	0	1668284416	13	4486
2026-01-17 01:57:50.36	252.34	12.93	-26.8	-28.8	15.0	0.00e+00	0	44	0	1671430144	13	4525
2026-01-17 01:57:51.37	252.23	12.85	-26.8	-28.7	15.1	0.00e+00	0	44	0	1674575872	13	4484
2026-01-17 01:57:52.37	252.12	12.77	-26.9	-28.9	15.0	7.00e-07	0	44	0	1677721600	13	4556
2026-01-17 01:57:53.38	252.02	12.69	-27.1	-28.9	14.7	7.00e-07	0	44	0	1680867328	14	4443
2026-01-17 01:57:54.38	251.91	12.60	-27.0	-28.8	14.8	0.00e+00	0	44	0	1684013056	14	4414
2026-01-17 01:57:55.39	251.80	12.52	-27.2	-29.2	14.5	7.00e-07	0	44	0	1687158784	14	4524
2026-01-17 01:57:56.39	251.70	12.44	-27.3	-29.4	14.4	0.00e+00	0	44	0	1690304512	14	4603
2026-01-17 01:57:57.39	251.59	12.36	-27.5	-29.5	14.0	0.00e+00	0	44	0	1693450240	15	4500
2026-01-17 01:57:58.39	251.49	12.28	-27.6	-29.8	13.9	3.00e-06	0	44	0	1696595968	15	4587
2026-01-17 01:57:59.39	251.39	12.20	-27.8	-30.1	13.7	8.30e-06	0	44	0	1699741696	15	4682
2026-01-17 01:58:00.40	251.28	12.12	-27.8	-30.2	13.6	7.60e-06	0	44	0	1702887424	15	4740
2026-01-17 01:58:01.40	251.18	12.04	-27.9	-30.3	13.6	1.29e-05	0	44	0	1706033152	15	4753
2026-01-17 01:58:02.40	251.08	11.96	-27.9	-30.4	13.5	1.52e-05	0	44	0	1709178880	15	4797
2026-01-17 01:58:03.40	250.98	11.88	-27.7	-29.9	13.8	7.60e-06	0	44	0	1712324608	15	4639
2026-01-17 01:58:04.41	250.88	11.80	-27.7	-29.9	13.8	6.10e-06	0	44	0	1715470336	15	4632
2026-01-17 01:58:05.41	250.78	11.72	-27.7	-29.9	13.8	6.10e-06	0	44	0	1718616064	15	4614
2026-01-17 01:58:06.42	250.68	11.64	-27.6	-29.7	13.9	6.10e-06	0	44	0	1721761792	15	4560
2026-01-17 01:58:07.42	250.58	11.56	-27.8	-30.1	13.7	7.60e-06	0	44	0	1724907520	15	4681
2026-01-17 01:58:08.42	250.48	11.48	-27.8	-30.1	13.7	7.60e-06	0	44	0	1728053248	15	4676
2026-01-17 01:58:09.42	250.38	11.40	-27.9	-30.3	13.5	1.14e-05	0	44	0	1731198976	15	4740
2026-01-17 01:58:10.43	250.28	11.32	-27.6	-29.5	14.0	4.50e-06	0	44	0	1734344704	15	4518
2026-01-17 01:58:11.43	250.19	11.24	-27.5	-29.3	14.1	1.50e-06	0	44	0	1737490432	15	4459
2026-01-17 01:58:12.43	250.09	11.16	-27.4	-29.7	14.1	0.00e+00	0	44	0	1740636160	14	4683
2026-01-17 01:58:13.43	249.99	11.08	-27.5	-29.3	14.1	1.14e-05	0	44	0	1743781888	15	4455
2026-01-17 01:58:14.43	249.90	11.00	-27.7	-30.0	13.7	5.30e-06	0	44	0	1746927616	15	4651
2026-01-17 01:58:15.43	249.80	10.93	-27.5	-29.5	14.0	7.60e-06	0	44	0	1750073344	15	4497
2026-01-17 01:58:16.43	249.71	10.85	-27.7	-30.0	13.7	1.50e-06	0	44	0	1753219072	15	4662
2026-01-17 01:58:17.42	249.62	10.77	-27.8	-30.1	13.6	5.30e-06	0	44	0	1756364800	15	4698
2026-01-17 01:58:18.43	249.52	10.69	-27.8	-30.1	13.6	8.30e-06	0	44	0	1759510528	15	4692
2026-01-17 01:58:19.42	249.43	10.62	-27.8	-30.1	13.6	1.83e-05	0	44	0	1762656256	15	4714
2026-01-17 01:58:20.43	249.34	10.54	-28.0	-30.6	13.3	1.06e-05	0	44	0	1765801984	15	4870
2026-01-17 01:58:21.44	249.25	10.46	-28.1	-30.4	13.3	2.21e-05	0	44	0	1768947712	16	4677
2026-01-17 01:58:22.44	249.15	10.38	-28.1	-30.3	13.3	1.67e-05	0	44	0	1772093440	16	4654
2026-01-17 01:58:23.44	249.06	10.31	-28.2	-30.6	13.2	3.81e-05	0	44	0	1775239168	16	4722
2026-01-17 01:58:24.44	248.97	10.23	-28.3	-30.8	13.0	2.74e-05	0	44	0	1778384896	16	4812
2026-01-17 01:58:25.44	248.88	10.16	-28.3	-30.7	13.1	4.27e-05	0	44	0	1781530624	16	4777
2026-01-17 01:58:26.45	248.79	10.08	-27.5	-30.2	12.4	8.09e-04	0	44	0	1784676352	16	4936
2026-01-17 01:58:27.46	248.70	10.00	-28.4	-31.0	12.1	4.57e-05	0	44	0	1787822080	16	4856
2026-01-17 01:58:28.45	248.62	9.93	-28.4	-31.0	10.7	7.85e-05	0	44	0	1790967808	16	4889
2026-01-17 01:58:29.45	248.53	9.85	-28.3	-30.9	11.9	4.27e-05	0	44	0	1794113536	16	4834
2026-01-17 01:58:30.46	248.44	9.77	-28.3	-30.8	12.9	2.44e-05	0	44	0	1797259264	16	4790
2026-01-17 01:58:31.47	248.35	9.70	-28.3	-31.0	12.7	2.15e-03	0	44	0	1800404992	16	4858
2026-01-17 01:58:32.47	248.27	9.62	-28.4	-31.0	12.8	6.71e-05	0	44	0	1803550720	16	4867
2026-01-17 01:58:33.48	248.18	9.55	-28.2	-30.6	13.0	5.26e-05	0	44	0	1806696448	16	4739
2026-01-17 01:58:34.48	248.10	9.47	-28.2	-30.7	13.0	3.35e-05	0	44	0	1809842176	16	4760
2026-01-17 01:58:35.48	248.01	9.40	-28.3	-30.8	12.9	6.10e-05	0	44	0	1811939328	16	4823
2026-01-17 01:58:36.49	247.92	9.32	-28.2	-30.5	13.1	2.67e-03	0	44	0	1815085056	16	4725
2026-01-17 01:58:37.49	247.84	9.25	-28.5	-31.2	12.6	7.28e-03	0	44	0	1818230784	16	4955
2026-01-17 01:58:38.50	247.76	9.17	-28.3	-30.8	12.8	6.50e-03	0	44	0	1822425088	16	4825
2026-01-17 01:58:39.50	247.67	9.10	-28.3	-30.8	12.9	5.49e-05	0	44	0	1825570816	16	4800
2026-01-17 01:58:40.51	247.59	9.03	-27.9	-30.5	13.2	4.95e-05	0	44	0	1828716544	15	4851
2026-01-17 01:58:41.52	247.51	8.95	-28.5	-31.3	12.5	6.28e-03	0	44	0	1831862272	16	4998
2026-01-17 01:58:42.52	247.42	8.88	-28.5	-31.3	12.5	2.47e-03	0	44	0	1833959424	16	4985
2026-01-17 01:58:43.53	247.34	8.80	-28.5	-30.9	12.5	6.02e-03	0	44	0	1837105152	17	4736
2026-01-17 01:58:44.54	247.26	8.73	-28.8	-31.6	12.0	1.91e-04	0	44	0	1840250880	17	4983
2026-01-17 01:58:45.53	247.18	8.66	-28.9	-31.9	11.8	5.35e-04	0	44	0	1843396608	17	5098
2026-01-17 01:58:46.53	247.10	8.58	-28.6	-31.2	12.3	5.23e-03	0	44	0	1846542336	17	4848
2026-01-17 01:58:47.53	247.02	8.51	-28.7	-31.4	12.1	4.77e-03	0	44	0	1849688064	17	4904
2026-01-17 01:58:48.54	246.94	8.44	-28.8	-31.7	11.9	8.65e-04	0	44	0	1852833792	17	5022
2026-01-17 01:58:49.53	246.86	8.37	-29.0	-31.8	11.5	6.85e-04	0	44	0	1855979520	18	4948
2026-01-17 01:58:50.52	246.78	8.29	-28.8	-31.7	11.9	1.48e-03	0	44	0	1859125248	17	5015
2026-01-17 01:58:51.53	246.71	8.22	-28.9	-32.0	11.7	6.70e-04	0	44	0	1862270976	17	5126
2026-01-17 01:58:52.53	246.63	8.15	-28.8	-31.8	11.8	5.04e-03	0	44	0	1865416704	17	5046
2026-01-17 01:58:53.54	246.55	8.08	-29.0	-32.2	11.6	5.42e-03	0	44	0	1868562432	17	5194
2026-01-17 01:58:54.55	246.47	8.01	-29.1	-32.0	11.4	1.40e-03	0	44	0	1871708160	18	5005
2026-01-17 01:58:55.55	246.39	7.93	-28.9	-31.8	11.8	4.51e-03	0	44	0	1874853888	17	5075
2026-01-17 01:58:56.56	246.32	7.86	-28.8	-31.6	11.9	5.22e-03	0	44	0	1877999616	17	4987
2026-01-17 01:58:57.56	246.24	7.79	-28.8	-31.7	11.9	6.81e-04	0	44	0	1881145344	17	5009
2026-01-17 01:58:58.57	246.17	7.72	-28.6	-31.1	12.2	4.77e-03	0	44	0	1884291072	17	4832
2026-01-17 01:58:59.57	246.09	7.65	-29.0	-32.2	11.5	5.00e-03	0	44	0	1887436800	17	5200
2026-01-17 01:59:00.57	246.02	7.58	-28.8	-31.6	11.9	6.70e-04	0	44	0	1890582528	17	5005
2026-01-17 01:59:01.57	245.94	7.51	-28.8	-31.8	11.8	4.00e-03	0	44	0	1893728256	17	5063
2026-01-17 01:59:02.58	245.87	7.44	-28.8	-31.8	11.7	2.55e-03	0	44	0	1896873984	17	5078
2026-01-17 01:59:03.58	245.79	7.37	-28.8	-31.6	11.8	5.58e-04	0	44	0	1900019712	17	5003
2026-01-17 01:59:04.57	245.72	7.30	-28.7	-31.4	12.0	1.55e-03	0	44	0	1903165440	17	4924
2026-01-17 01:59:05.58	245.65	7.23	-28.6	-31.3	12.1	8.86e-04	0	44	0	1906311168	17	4883
2026-01-17 01:59:06.58	245.57	7.16	-28.8	-31.7	11.8	4.07e-04	0	44	0	1909456896	17	5020
2026-01-17 01:59:07.58	245.50	7.09	-32.6	-44.0	3.8	9.21e-02	0	44	104	1912602624	25	13501
2026-01-17 01:59:08.58	245.43	7.02	-32.9	-45.2	3.8	1.49e+00	0	44	104	1912602624	25	14809

#Closed at: 2026-01-17 01:59:09
#Recorded file [1912 MB]: D:/data/31010_260117_044855.dat