passes_logs/2026/01/17/R2M6_AANII_01/R2M6_AANII_01__20260117_002517_AQUA_rec.log

#Pass ID: 20260117_002517_AQUA
#Satellite: AQUA
#Configuration: AQUA
#almurnet v.1.7.20240730
#Start time: 2026-01-17 00:25:17

#Version: 2.2.20231116
#Station: R2M6_AANII_01
#Location: 30.233357 lon 59.946436 lat
#TLE: 1 27424U 02022A   26016.26443506  .00000711  00000+0  15228-3 0  9999
#TLE: 2 27424  98.4083 342.7130 0002022  76.7284  27.4473 14.61823291261073

#Time	Az	El	Level	Level2	SNR	BER	BlckErr	Temp	State	Recorded	gain1	gain2
2026-01-17 00:25:17.22	33.78	7.01	-30.9	-37.5	5.1	7.09e-01	0	41	0	0	22	7612
2026-01-17 00:25:18.22	33.90	7.07	-31.9	-41.5	4.8	7.13e-01	0	41	104	0	24	10773
2026-01-17 00:25:19.22	34.01	7.13	-32.0	-41.0	10.3	6.17e-01	0	41	0	0	24	10115
2026-01-17 00:25:20.23	34.13	7.19	-32.0	-40.5	10.8	6.14e-01	0	41	0	1572864	24	9624
2026-01-17 00:25:21.23	34.25	7.26	-32.0	-40.7	10.5	6.15e-01	0	41	0	3670016	24	9829
2026-01-17 00:25:22.23	34.37	7.32	-31.9	-39.7	11.5	6.12e-01	0	41	0	5242880	24	8823
2026-01-17 00:25:23.24	34.49	7.39	-31.8	-39.0	12.1	6.07e-01	0	41	0	7340032	24	8301
2026-01-17 00:25:24.24	34.61	7.45	-31.6	-38.0	13.0	6.09e-01	0	41	0	9437184	24	7545
2026-01-17 00:25:25.24	34.73	7.51	-31.5	-37.5	13.5	6.05e-01	0	41	0	11010048	24	7181
2026-01-17 00:25:26.24	34.85	7.58	-31.4	-37.4	13.9	6.04e-01	0	42	0	13107200	23	7224
2026-01-17 00:25:27.25	34.97	7.64	-31.5	-38.0	13.4	6.04e-01	0	41	0	14680064	23	7636
2026-01-17 00:25:28.24	35.09	7.70	-31.3	-37.4	13.9	6.05e-01	0	42	0	16777216	23	7222
2026-01-17 00:25:29.24	35.21	7.77	-31.1	-36.5	14.6	6.03e-01	0	42	0	18350080	23	6674
2026-01-17 00:25:30.24	35.34	7.83	-30.9	-35.7	15.2	6.03e-01	0	42	0	20447232	23	6269
2026-01-17 00:25:31.24	35.46	7.89	-30.7	-35.0	15.7	6.05e-01	0	42	0	22544384	23	5924
2026-01-17 00:25:32.25	35.59	7.96	-30.5	-35.3	16.2	6.03e-01	0	42	0	24117248	21	6255
2026-01-17 00:25:33.25	35.71	8.02	-30.6	-35.4	15.8	6.03e-01	0	42	0	26214400	22	6234
2026-01-17 00:25:34.25	35.84	8.09	-30.8	-35.8	15.4	6.06e-01	0	42	0	27787264	22	6458
2026-01-17 00:25:35.25	35.96	8.15	-30.5	-34.9	16.0	6.04e-01	0	42	0	29884416	22	5982
2026-01-17 00:25:36.25	36.09	8.22	-30.3	-34.7	16.6	6.02e-01	0	42	0	31457280	21	5967
2026-01-17 00:25:37.25	36.22	8.28	-30.1	-34.1	17.1	6.03e-01	0	42	0	33554432	21	5693
2026-01-17 00:25:38.26	36.35	8.34	-30.0	-33.8	17.4	6.03e-01	0	42	0	35651584	21	5553
2026-01-17 00:25:39.26	36.47	8.41	-30.0	-34.1	17.5	6.02e-01	0	42	0	37224448	20	5772
2026-01-17 00:25:40.27	36.60	8.47	-29.9	-33.4	17.6	6.04e-01	0	42	0	39321600	21	5370
2026-01-17 00:25:41.27	36.73	8.54	-30.2	-34.2	17.2	6.03e-01	0	42	0	40894464	21	5702
2026-01-17 00:25:42.26	36.86	8.60	-30.3	-34.7	16.8	6.03e-01	0	42	0	42991616	21	5936
2026-01-17 00:25:43.27	36.99	8.67	-30.1	-34.0	17.3	6.01e-01	0	42	0	45088768	21	5601
2026-01-17 00:25:44.27	37.13	8.73	-30.1	-33.7	17.4	6.03e-01	0	42	0	46661632	21	5508
2026-01-17 00:25:45.27	37.26	8.80	-30.0	-33.6	17.5	6.03e-01	0	42	0	48758784	21	5426
2026-01-17 00:25:46.27	37.39	8.86	-30.0	-33.7	17.4	6.03e-01	0	42	0	50331648	21	5513
2026-01-17 00:25:47.28	37.52	8.93	-30.3	-34.5	16.8	6.03e-01	0	42	0	52428800	21	5855
2026-01-17 00:25:48.28	37.66	8.99	-30.0	-33.5	17.4	6.04e-01	0	42	0	54525952	21	5419
2026-01-17 00:25:49.29	37.79	9.06	-29.6	-33.1	17.8	6.03e-01	0	42	0	56098816	20	5363
2026-01-17 00:25:50.29	37.93	9.13	-29.6	-33.1	17.6	6.03e-01	0	42	0	58195968	20	5397
2026-01-17 00:25:51.29	38.06	9.19	-29.7	-33.4	17.5	6.02e-01	0	42	0	59768832	20	5492
2026-01-17 00:25:52.29	38.20	9.26	-29.7	-33.4	17.5	6.06e-01	0	42	0	61865984	20	5485
2026-01-17 00:25:53.29	38.34	9.32	-29.7	-33.3	17.8	6.01e-01	0	42	0	63438848	20	5467
2026-01-17 00:25:54.29	38.48	9.39	-29.8	-33.4	17.9	6.05e-01	0	42	0	65536000	20	5505
2026-01-17 00:25:55.29	38.61	9.45	-29.7	-33.3	17.8	5.99e-01	0	42	0	67633152	20	5443
2026-01-17 00:25:56.29	38.75	9.52	-29.6	-33.1	17.9	6.02e-01	0	42	0	69206016	20	5371
2026-01-17 00:25:57.30	38.89	9.58	-29.6	-33.1	18.0	6.04e-01	0	42	0	71303168	20	5376
2026-01-17 00:25:58.31	39.03	9.65	-29.7	-33.2	18.0	6.03e-01	0	42	0	72876032	20	5407
2026-01-17 00:25:59.31	39.18	9.72	-29.5	-32.9	18.1	6.03e-01	0	42	0	74973184	20	5284
2026-01-17 00:26:00.31	39.32	9.78	-29.4	-32.7	18.0	6.04e-01	0	42	0	76546048	20	5247
2026-01-17 00:26:01.31	39.46	9.85	-29.5	-33.0	17.8	6.01e-01	0	42	0	78643200	20	5374
2026-01-17 00:26:02.31	39.60	9.91	-29.7	-33.3	17.9	6.02e-01	0	42	0	80740352	20	5463
2026-01-17 00:26:03.32	39.75	9.98	-29.6	-33.0	18.1	6.00e-01	0	42	0	82313216	20	5341
2026-01-17 00:26:04.32	39.89	10.05	-29.4	-32.6	18.2	6.01e-01	0	42	0	84410368	20	5201
2026-01-17 00:26:05.32	40.04	10.11	-29.3	-32.9	17.9	6.04e-01	0	42	0	85983232	19	5447
2026-01-17 00:26:06.32	40.18	10.18	-29.3	-33.1	17.2	6.03e-01	0	42	0	88080384	19	5598
2026-01-17 00:26:07.32	40.33	10.24	-28.9	-32.7	16.4	6.02e-01	0	42	0	90177536	19	5601
2026-01-17 00:26:08.32	40.48	10.31	-28.5	-32.6	14.9	6.06e-01	0	42	0	91750400	19	5812
2026-01-17 00:26:09.32	40.62	10.38	-28.1	-32.9	13.9	6.05e-01	0	43	0	93847552	18	6251
2026-01-17 00:26:10.32	40.77	10.44	-28.4	-32.9	14.7	6.03e-01	0	42	0	95420416	18	6050
2026-01-17 00:26:11.32	40.92	10.51	-28.7	-32.8	16.6	6.03e-01	0	42	0	97517568	18	5742
2026-01-17 00:26:12.31	41.07	10.58	-29.1	-33.3	17.1	6.03e-01	0	42	0	99090432	18	5877
2026-01-17 00:26:13.32	41.22	10.64	-28.9	-33.1	16.9	6.03e-01	0	42	0	101187584	18	5859
2026-01-17 00:26:14.32	41.37	10.71	-29.0	-33.4	16.5	6.06e-01	0	42	0	103284736	18	6025
2026-01-17 00:26:15.32	41.52	10.78	-28.9	-33.6	15.7	6.03e-01	0	42	0	104857600	18	6214
2026-01-17 00:26:16.32	41.68	10.84	-28.9	-33.3	16.3	6.05e-01	0	42	0	106954752	18	5948
2026-01-17 00:26:17.32	41.83	10.91	-29.3	-33.0	17.6	6.02e-01	0	42	0	108527616	19	5520
2026-01-17 00:26:18.32	41.98	10.97	-29.6	-32.8	18.4	6.03e-01	0	42	0	110624768	20	5231
2026-01-17 00:26:19.33	42.14	11.04	-29.6	-32.8	18.6	6.01e-01	0	42	0	112721920	20	5202
2026-01-17 00:26:20.33	42.30	11.11	-29.7	-32.9	18.6	6.04e-01	0	42	0	114294784	20	5251
2026-01-17 00:26:21.32	42.45	11.17	-29.8	-33.4	18.2	6.02e-01	0	42	0	116391936	20	5425
2026-01-17 00:26:22.32	42.61	11.24	-29.6	-32.9	18.5	6.03e-01	0	42	0	117964800	20	5219
2026-01-17 00:26:23.32	42.77	11.31	-29.5	-32.7	18.5	6.01e-01	0	43	0	120061952	20	5166
2026-01-17 00:26:24.31	42.92	11.37	-29.4	-32.5	18.5	6.03e-01	0	43	0	121634816	20	5090
2026-01-17 00:26:25.32	43.08	11.44	-29.6	-32.7	18.6	6.02e-01	0	43	0	123731968	20	5165
2026-01-17 00:26:26.32	43.24	11.51	-29.7	-33.0	18.5	6.05e-01	0	42	0	125304832	20	5286
2026-01-17 00:26:27.32	43.41	11.57	-29.4	-32.4	19.0	6.03e-01	0	43	0	127401984	20	5032
2026-01-17 00:26:28.32	43.57	11.64	-29.6	-32.6	18.7	6.02e-01	0	42	0	129499136	20	5135
2026-01-17 00:26:29.32	43.73	11.71	-29.5	-32.5	18.7	6.01e-01	0	43	0	131072000	20	5105
2026-01-17 00:26:30.32	43.89	11.78	-29.5	-32.6	18.7	6.02e-01	0	43	0	133169152	20	5123
2026-01-17 00:26:31.32	44.06	11.84	-28.9	-31.9	18.8	6.03e-01	0	43	0	134742016	20	5107
2026-01-17 00:26:32.33	44.22	11.91	-29.6	-32.8	18.5	6.04e-01	0	43	0	136839168	20	5184
2026-01-17 00:26:33.33	44.39	11.98	-29.5	-32.4	18.9	6.04e-01	0	43	0	138936320	20	5027
2026-01-17 00:26:34.33	44.56	12.04	-29.5	-32.5	18.8	6.02e-01	0	43	0	140509184	20	5087
2026-01-17 00:26:35.33	44.72	12.11	-29.6	-32.7	18.8	6.02e-01	0	43	0	142606336	20	5155
2026-01-17 00:26:36.33	44.89	12.18	-29.6	-32.7	18.8	6.03e-01	0	43	0	144179200	20	5166
2026-01-17 00:26:37.32	45.06	12.24	-29.5	-32.6	18.2	6.03e-01	0	43	0	146276352	20	5118
2026-01-17 00:26:38.32	45.23	12.31	-29.7	-33.0	18.2	6.01e-01	0	43	0	147849216	20	5282
2026-01-17 00:26:39.33	45.40	12.38	-29.6	-32.7	18.8	6.06e-01	0	43	0	149946368	20	5135
2026-01-17 00:26:40.33	45.57	12.44	-29.5	-33.0	19.1	6.04e-01	0	43	0	152043520	19	5353
2026-01-17 00:26:41.33	45.74	12.51	-29.5	-32.8	19.1	6.04e-01	0	43	0	153616384	19	5304
2026-01-17 00:26:42.33	45.91	12.58	-29.6	-33.1	19.0	6.03e-01	0	43	0	155713536	19	5425
2026-01-17 00:26:43.33	46.09	12.64	-29.8	-33.4	18.4	6.03e-01	0	43	0	157286400	20	5408
2026-01-17 00:26:44.33	46.26	12.71	-30.0	-33.4	18.0	6.03e-01	0	43	0	159383552	21	5316
2026-01-17 00:26:45.33	46.44	12.78	-29.9	-33.0	18.3	6.04e-01	0	43	0	161480704	21	5144
2026-01-17 00:26:46.34	46.62	12.84	-29.9	-32.9	18.4	6.03e-01	0	43	0	163053568	21	5107
2026-01-17 00:26:47.34	46.79	12.91	-29.9	-33.0	18.4	6.04e-01	0	43	0	165150720	21	5148
2026-01-17 00:26:48.34	46.97	12.98	-29.8	-32.6	18.7	6.02e-01	0	43	0	166723584	21	5006
2026-01-17 00:26:49.34	47.15	13.04	-29.8	-32.7	18.6	6.04e-01	0	43	0	168820736	21	5026
2026-01-17 00:26:50.34	47.33	13.11	-29.8	-32.7	18.6	6.01e-01	0	43	0	170393600	21	5035
2026-01-17 00:26:51.35	47.51	13.18	-30.1	-33.5	18.1	6.03e-01	0	43	0	172490752	21	5338
2026-01-17 00:26:52.35	47.69	13.24	-30.0	-33.4	18.1	6.02e-01	0	43	0	174587904	21	5323
2026-01-17 00:26:53.36	47.88	13.31	-29.8	-32.6	18.6	6.04e-01	0	43	0	176160768	21	5012
2026-01-17 00:26:54.36	48.06	13.38	-29.6	-32.1	18.9	6.01e-01	0	43	0	178257920	21	4827
2026-01-17 00:26:55.36	48.24	13.44	-29.5	-32.3	19.2	6.03e-01	0	43	0	179830784	20	4989
2026-01-17 00:26:56.36	48.43	13.51	-29.5	-32.9	19.2	6.02e-01	0	43	0	181927936	19	5307
2026-01-17 00:26:57.37	48.61	13.58	-29.6	-33.0	19.1	6.01e-01	0	43	0	184025088	19	5365
2026-01-17 00:26:58.37	48.80	13.64	-29.6	-32.6	19.0	6.05e-01	0	43	0	185597952	20	5109
2026-01-17 00:26:59.37	48.99	13.71	-29.5	-32.5	19.0	6.02e-01	0	43	0	187695104	20	5057
2026-01-17 00:27:00.38	49.18	13.78	-29.6	-32.8	18.9	6.02e-01	0	43	0	189267968	20	5163
2026-01-17 00:27:01.38	49.37	13.84	-29.5	-32.9	19.2	6.03e-01	0	43	0	191365120	19	5324
2026-01-17 00:27:02.38	49.56	13.91	-29.5	-32.8	19.3	6.04e-01	0	43	0	193462272	19	5281
2026-01-17 00:27:03.38	49.75	13.97	-29.6	-32.6	19.0	6.04e-01	0	43	0	195035136	20	5093
2026-01-17 00:27:04.39	49.94	14.04	-29.7	-32.9	18.8	6.03e-01	0	43	0	197132288	20	5227
2026-01-17 00:27:05.39	50.13	14.11	-29.9	-33.3	18.5	6.04e-01	0	43	0	198705152	20	5380
2026-01-17 00:27:06.39	50.33	14.17	-29.8	-33.1	18.7	6.03e-01	0	43	0	200802304	20	5265
2026-01-17 00:27:07.40	50.52	14.24	-29.5	-32.3	19.2	6.00e-01	0	43	0	202375168	20	4990
2026-01-17 00:27:08.40	50.72	14.30	-29.4	-32.7	19.3	6.01e-01	0	43	0	204472320	19	5215
2026-01-17 00:27:09.39	50.91	14.37	-29.4	-32.6	19.4	6.02e-01	0	43	0	206569472	19	5207
2026-01-17 00:27:10.39	51.11	14.43	-29.4	-32.6	19.4	6.02e-01	0	43	0	208142336	19	5197
2026-01-17 00:27:11.39	51.31	14.50	-29.3	-32.4	19.5	6.03e-01	0	43	0	210239488	19	5126
2026-01-17 00:27:12.39	51.51	14.56	-29.3	-32.4	19.6	6.04e-01	0	43	0	211812352	19	5114
2026-01-17 00:27:13.39	51.71	14.63	-29.3	-32.2	19.7	6.02e-01	0	43	0	213909504	19	5066
2026-01-17 00:27:14.39	51.91	14.69	-29.4	-32.5	19.5	6.03e-01	0	43	0	215482368	19	5152
2026-01-17 00:27:15.39	52.11	14.76	-29.3	-32.3	19.6	6.04e-01	0	43	0	217579520	19	5088
2026-01-17 00:27:16.39	52.31	14.82	-29.3	-32.2	19.6	6.04e-01	0	43	0	219676672	19	5062
2026-01-17 00:27:17.39	52.51	14.88	-29.3	-32.4	19.6	6.03e-01	0	43	0	221249536	19	5108
2026-01-17 00:27:18.39	52.72	14.95	-29.3	-32.3	19.6	6.02e-01	0	43	0	223346688	19	5094
2026-01-17 00:27:19.39	52.92	15.01	-29.4	-32.5	19.5	6.03e-01	0	43	0	224919552	19	5137
2026-01-17 00:27:20.40	53.13	15.08	-29.4	-32.5	19.5	6.04e-01	0	43	0	227016704	19	5146
2026-01-17 00:27:21.40	53.34	15.14	-29.2	-32.1	19.7	6.02e-01	0	43	0	229113856	19	5001
2026-01-17 00:27:22.41	53.55	15.21	-29.3	-32.2	19.6	6.02e-01	0	43	0	230686720	19	5042
2026-01-17 00:27:23.41	53.76	15.27	-29.3	-32.2	19.7	6.02e-01	0	43	0	232783872	19	5042
2026-01-17 00:27:24.41	53.97	15.33	-29.4	-32.5	19.5	6.04e-01	0	43	0	234356736	19	5141
2026-01-17 00:27:25.42	54.18	15.40	-29.3	-32.2	19.7	6.02e-01	0	43	0	236453888	19	5025
2026-01-17 00:27:26.42	54.39	15.46	-29.3	-32.2	19.7	6.01e-01	0	43	0	238026752	19	5041
2026-01-17 00:27:27.42	54.61	15.52	-29.3	-32.2	19.7	6.03e-01	0	43	0	240123904	19	5027
2026-01-17 00:27:28.41	54.82	15.58	-29.3	-32.2	19.7	6.02e-01	0	43	0	242221056	19	5026
2026-01-17 00:27:29.41	55.03	15.65	-29.2	-32.0	19.8	6.04e-01	0	43	0	243793920	19	4960
2026-01-17 00:27:30.42	55.25	15.71	-29.3	-32.3	19.6	6.02e-01	0	43	0	245891072	19	5085
2026-01-17 00:27:31.41	55.46	15.77	-29.3	-32.2	19.7	6.04e-01	0	43	0	247463936	19	5027
2026-01-17 00:27:32.41	55.68	15.83	-29.4	-32.5	19.5	6.01e-01	0	43	0	249561088	19	5142
2026-01-17 00:27:33.41	55.90	15.89	-29.3	-32.3	19.6	6.02e-01	0	43	0	251133952	19	5088
2026-01-17 00:27:34.41	56.12	15.96	-29.2	-32.1	19.8	6.02e-01	0	43	0	253231104	19	4988
2026-01-17 00:27:35.41	56.34	16.02	-29.3	-32.2	19.7	6.01e-01	0	43	0	255328256	19	5053
2026-01-17 00:27:36.41	56.56	16.08	-29.3	-32.2	19.6	6.03e-01	0	43	0	256901120	19	5057
2026-01-17 00:27:37.41	56.78	16.14	-29.3	-32.2	19.6	6.02e-01	0	43	0	258998272	19	5057
2026-01-17 00:27:38.42	57.01	16.20	-29.4	-32.6	19.5	6.03e-01	0	43	0	260571136	19	5183
2026-01-17 00:27:39.42	57.23	16.26	-29.2	-31.9	19.9	6.02e-01	0	43	0	262668288	19	4938
2026-01-17 00:27:40.42	57.46	16.32	-29.2	-32.1	19.8	6.03e-01	0	43	0	264241152	19	4992
2026-01-17 00:27:41.42	57.68	16.38	-29.2	-31.9	20.0	6.02e-01	0	43	0	266338304	19	4938
2026-01-17 00:27:42.42	57.91	16.44	-29.1	-31.8	20.0	6.03e-01	0	43	0	268435456	19	4909
2026-01-17 00:27:43.43	58.14	16.50	-29.1	-31.7	20.0	6.05e-01	0	43	0	270008320	19	4880
2026-01-17 00:27:44.43	58.37	16.56	-29.2	-31.9	19.9	6.02e-01	0	43	0	272105472	19	4939
2026-01-17 00:27:45.43	58.60	16.62	-29.2	-31.9	19.9	6.04e-01	0	43	0	274202624	19	4927
2026-01-17 00:27:46.43	58.83	16.68	-29.2	-32.1	19.8	6.02e-01	0	43	0	275775488	19	4992
2026-01-17 00:27:47.43	59.06	16.74	-29.3	-32.3	19.7	6.01e-01	0	43	0	277872640	19	5080
2026-01-17 00:27:48.43	59.29	16.79	-29.4	-32.5	19.5	6.02e-01	0	43	0	279445504	19	5132
2026-01-17 00:27:49.44	59.53	16.85	-29.3	-32.3	19.7	6.03e-01	0	43	0	281542656	19	5079
2026-01-17 00:27:50.44	59.76	16.91	-29.4	-32.5	19.5	6.03e-01	0	43	0	283115520	19	5150
2026-01-17 00:27:51.45	60.00	16.97	-29.6	-32.6	19.2	6.03e-01	0	43	0	285212672	20	5067
2026-01-17 00:27:52.45	60.24	17.02	-29.5	-32.3	19.3	6.03e-01	0	43	0	287309824	20	4963
2026-01-17 00:27:53.44	60.47	17.08	-29.6	-32.9	19.3	6.02e-01	0	43	0	288882688	19	5298
2026-01-17 00:27:54.44	60.71	17.14	-29.5	-32.6	19.5	6.04e-01	0	43	0	290979840	19	5195
2026-01-17 00:27:55.44	60.95	17.19	-29.6	-33.0	19.3	6.04e-01	0	43	0	292552704	19	5317
2026-01-17 00:27:56.44	61.19	17.25	-29.6	-32.5	19.2	6.03e-01	0	43	0	294649856	20	5054
2026-01-17 00:27:57.44	61.43	17.30	-29.6	-32.6	19.1	6.03e-01	0	43	0	296222720	20	5080
2026-01-17 00:27:58.45	61.67	17.36	-29.4	-32.0	19.5	6.02e-01	0	43	0	298319872	20	4867
2026-01-17 00:27:59.44	61.91	17.41	-29.4	-32.5	19.5	6.03e-01	0	43	0	300417024	19	5133
2026-01-17 00:28:00.45	62.16	17.47	-29.4	-32.4	19.6	6.02e-01	0	43	0	301989888	19	5122
2026-01-17 00:28:01.45	62.40	17.52	-29.4	-32.4	19.7	6.02e-01	0	43	0	304087040	19	5096
2026-01-17 00:28:02.45	62.65	17.58	-29.3	-32.2	19.8	6.02e-01	0	43	0	305659904	19	5017
2026-01-17 00:28:03.45	62.90	17.63	-29.5	-32.6	19.6	6.03e-01	0	43	0	307757056	19	5181
2026-01-17 00:28:04.45	63.14	17.68	-29.5	-32.2	19.4	6.04e-01	0	43	0	309329920	20	4938
2026-01-17 00:28:05.45	63.39	17.74	-29.6	-32.9	19.4	6.02e-01	0	43	0	311427072	19	5301
2026-01-17 00:28:06.45	63.64	17.79	-29.7	-32.9	19.0	6.02e-01	0	43	0	313524224	20	5169
2026-01-17 00:28:07.45	63.89	17.84	-29.8	-32.9	19.0	6.02e-01	0	43	0	315097088	20	5192
2026-01-17 00:28:08.45	64.14	17.89	-29.5	-32.2	19.4	6.05e-01	0	43	0	317194240	20	4918
2026-01-17 00:28:09.46	64.40	17.94	-29.4	-32.0	19.5	6.03e-01	0	43	0	318767104	20	4867
2026-01-17 00:28:10.46	64.65	17.99	-29.3	-32.3	19.7	6.05e-01	0	43	0	320864256	19	5050
2026-01-17 00:28:11.45	64.90	18.04	-29.4	-32.4	19.6	6.02e-01	0	43	0	322961408	19	5104
2026-01-17 00:28:12.46	65.16	18.09	-29.4	-32.5	19.6	6.03e-01	0	43	0	324534272	19	5124
2026-01-17 00:28:13.45	65.41	18.14	-29.4	-32.5	19.6	6.03e-01	0	43	0	326631424	19	5141
2026-01-17 00:28:14.46	65.67	18.19	-29.4	-32.5	19.6	6.04e-01	0	43	0	328204288	19	5141
2026-01-17 00:28:15.46	65.92	18.24	-29.6	-32.9	19.4	6.02e-01	0	43	0	330301440	19	5277
2026-01-17 00:28:16.46	66.18	18.29	-29.8	-33.0	19.0	6.03e-01	0	43	0	331874304	20	5211
2026-01-17 00:28:17.47	66.44	18.34	-29.9	-33.3	18.7	6.02e-01	0	43	0	333971456	20	5348
2026-01-17 00:28:18.47	66.70	18.39	-29.8	-33.1	18.9	6.03e-01	0	43	0	336068608	20	5260
2026-01-17 00:28:19.47	66.96	18.43	-29.8	-33.1	18.9	6.04e-01	0	43	0	337641472	20	5247
2026-01-17 00:28:20.47	67.23	18.48	-29.8	-33.1	18.8	6.01e-01	0	43	0	339738624	20	5277
2026-01-17 00:28:21.47	67.49	18.52	-29.7	-32.8	19.1	6.02e-01	0	43	0	341311488	20	5149
2026-01-17 00:28:22.48	67.75	18.57	-29.4	-32.0	19.5	6.04e-01	0	43	0	343408640	20	4865
2026-01-17 00:28:23.48	68.02	18.62	-29.5	-32.8	19.5	6.02e-01	0	43	0	345505792	19	5258
2026-01-17 00:28:24.49	68.28	18.66	-29.6	-32.6	19.2	6.03e-01	0	43	0	347078656	20	5079
2026-01-17 00:28:25.49	68.55	18.70	-29.7	-32.9	19.0	6.03e-01	0	43	0	349175808	20	5175
2026-01-17 00:28:26.50	68.82	18.75	-29.5	-32.2	19.5	6.02e-01	0	43	0	350748672	20	4927
2026-01-17 00:28:27.50	69.09	18.79	-29.4	-31.9	19.7	6.02e-01	0	43	0	352845824	20	4818
2026-01-17 00:28:28.51	69.36	18.83	-29.4	-32.0	19.6	6.03e-01	0	43	0	354418688	20	4844
2026-01-17 00:28:29.51	69.62	18.88	-29.5	-32.7	19.5	6.04e-01	0	43	0	356515840	19	5206
2026-01-17 00:28:30.51	69.89	18.92	-29.4	-32.3	19.7	6.03e-01	0	43	0	358612992	19	5081
2026-01-17 00:28:31.51	70.16	18.96	-29.2	-32.0	19.9	6.03e-01	0	43	0	360185856	19	4950
2026-01-17 00:28:32.51	70.43	19.00	-29.2	-32.0	20.0	6.03e-01	0	43	0	362283008	19	4943
2026-01-17 00:28:33.52	70.71	19.04	-29.2	-31.9	20.1	6.01e-01	0	43	0	363855872	19	4923
2026-01-17 00:28:34.51	70.98	19.08	-29.3	-32.2	19.9	6.05e-01	0	43	0	365953024	19	5016
2026-01-17 00:28:35.51	71.25	19.12	-29.4	-32.4	19.8	6.02e-01	0	43	0	368050176	19	5099
2026-01-17 00:28:36.52	71.53	19.16	-29.3	-32.1	19.9	6.05e-01	0	43	0	369623040	19	5007
2026-01-17 00:28:37.52	71.80	19.19	-29.3	-32.2	19.8	6.02e-01	0	43	0	371720192	19	5010
2026-01-17 00:28:38.52	72.08	19.23	-29.3	-32.3	19.8	6.02e-01	0	43	0	373293056	19	5057
2026-01-17 00:28:39.53	72.36	19.27	-29.3	-32.1	19.9	6.02e-01	0	43	0	375390208	19	4997
2026-01-17 00:28:40.54	72.64	19.30	-29.2	-32.0	19.9	6.03e-01	0	43	0	377487360	19	4962
2026-01-17 00:28:41.54	72.91	19.34	-29.2	-32.1	19.9	6.04e-01	0	43	0	379060224	19	4980
2026-01-17 00:28:42.54	73.19	19.38	-29.3	-32.3	19.9	6.03e-01	0	43	0	381157376	19	5043
2026-01-17 00:28:43.54	73.47	19.41	-29.4	-32.4	19.7	6.04e-01	0	43	0	382730240	19	5113
2026-01-17 00:28:44.54	73.75	19.44	-29.4	-32.5	19.7	6.03e-01	0	43	0	384827392	19	5120
2026-01-17 00:28:45.55	74.03	19.48	-29.2	-32.0	19.9	6.02e-01	0	43	0	386400256	19	4968
2026-01-17 00:28:46.56	74.32	19.51	-29.5	-32.7	19.6	6.02e-01	0	43	0	388497408	19	5206
2026-01-17 00:28:47.56	74.60	19.54	-29.5	-32.6	19.6	6.03e-01	0	43	0	390594560	19	5176
2026-01-17 00:28:48.56	74.88	19.57	-29.3	-32.2	19.8	6.02e-01	0	43	0	392167424	19	5010
2026-01-17 00:28:49.56	75.16	19.60	-29.3	-32.3	19.8	6.01e-01	0	43	0	394264576	19	5059
2026-01-17 00:28:50.56	75.44	19.63	-29.3	-32.3	19.8	6.04e-01	0	43	0	395837440	19	5046
2026-01-17 00:28:51.57	75.73	19.66	-29.4	-32.4	19.7	6.00e-01	0	43	0	397934592	19	5090
2026-01-17 00:28:52.57	76.01	19.69	-29.4	-32.5	19.7	6.01e-01	0	43	0	400031744	19	5118
2026-01-17 00:28:53.57	76.30	19.72	-29.4	-32.6	19.7	6.07e-01	0	43	0	401604608	19	5165
2026-01-17 00:28:54.58	76.59	19.75	-29.5	-32.6	19.7	6.02e-01	0	43	0	403701760	19	5171
2026-01-17 00:28:55.58	76.87	19.78	-29.5	-32.6	19.6	6.02e-01	0	43	0	405274624	19	5177
2026-01-17 00:28:56.58	77.16	19.80	-29.4	-32.6	19.6	6.04e-01	0	43	0	407371776	19	5154
2026-01-17 00:28:57.58	77.45	19.83	-29.4	-32.5	19.7	6.03e-01	0	43	0	409468928	19	5116
2026-01-17 00:28:58.57	77.73	19.85	-29.5	-32.6	19.6	6.03e-01	0	43	0	411041792	19	5150
2026-01-17 00:28:59.58	78.02	19.88	-29.6	-32.9	19.5	6.02e-01	0	43	0	413138944	19	5281
2026-01-17 00:29:00.57	78.31	19.90	-29.5	-32.7	19.6	6.03e-01	0	43	0	414711808	19	5207
2026-01-17 00:29:01.57	78.60	19.92	-29.5	-32.8	19.6	6.04e-01	0	43	0	416808960	19	5225
2026-01-17 00:29:02.57	78.88	19.95	-29.7	-32.8	19.2	6.01e-01	0	43	0	418381824	20	5134
2026-01-17 00:29:03.57	79.17	19.97	-29.8	-33.0	19.0	6.02e-01	0	43	0	420478976	20	5234
2026-01-17 00:29:04.58	79.47	19.99	-29.8	-33.0	19.0	6.03e-01	0	43	0	422576128	20	5204
2026-01-17 00:29:05.58	79.76	20.01	-29.7	-32.9	19.1	6.03e-01	0	43	0	424148992	20	5164
2026-01-17 00:29:06.58	80.05	20.03	-29.6	-32.6	19.2	6.03e-01	0	43	0	426246144	20	5055
2026-01-17 00:29:07.57	80.34	20.05	-29.6	-32.9	19.4	6.01e-01	0	43	0	427819008	19	5286
2026-01-17 00:29:08.57	80.63	20.07	-29.6	-32.5	19.3	6.03e-01	0	43	0	429916160	20	5032
2026-01-17 00:29:09.57	80.92	20.08	-29.7	-32.9	19.1	6.02e-01	0	43	0	431489024	20	5165
2026-01-17 00:29:10.58	81.22	20.10	-29.6	-32.6	19.3	6.02e-01	0	43	0	433586176	20	5057
2026-01-17 00:29:11.57	81.51	20.12	-29.5	-32.2	19.5	6.03e-01	0	43	0	435159040	20	4935
2026-01-17 00:29:12.57	81.80	20.13	-29.5	-32.6	19.6	6.04e-01	0	43	0	437256192	19	5170
2026-01-17 00:29:13.57	82.09	20.15	-29.5	-32.7	19.6	6.02e-01	0	43	0	439353344	19	5213
2026-01-17 00:29:14.58	82.39	20.16	-29.5	-32.8	19.5	6.03e-01	0	43	0	440926208	19	5230
2026-01-17 00:29:15.58	82.68	20.17	-29.4	-32.1	19.5	6.04e-01	0	43	0	443023360	20	4883
2026-01-17 00:29:16.58	82.98	20.19	-29.3	-32.3	19.7	6.03e-01	0	43	0	445120512	19	5064
2026-01-17 00:29:17.58	83.27	20.20	-29.4	-32.4	19.7	6.04e-01	0	43	0	446693376	19	5120
2026-01-17 00:29:18.58	83.57	20.21	-29.6	-32.9	19.4	6.01e-01	0	43	0	448790528	19	5296
2026-01-17 00:29:19.58	83.86	20.22	-29.4	-32.6	19.6	6.03e-01	0	43	0	450363392	19	5159
2026-01-17 00:29:20.58	84.16	20.23	-29.4	-32.4	19.7	6.04e-01	0	43	0	452460544	19	5095
2026-01-17 00:29:21.58	84.45	20.24	-29.5	-32.8	19.5	6.05e-01	0	43	0	454033408	19	5261
2026-01-17 00:29:22.58	84.75	20.25	-29.5	-32.6	19.6	6.03e-01	0	43	0	456130560	19	5167
2026-01-17 00:29:23.59	85.04	20.25	-29.6	-32.9	19.4	6.03e-01	0	43	0	458227712	19	5270
2026-01-17 00:29:24.58	85.34	20.26	-29.6	-32.4	19.3	6.05e-01	0	43	0	459800576	20	5000
2026-01-17 00:29:25.59	85.64	20.27	-29.5	-32.3	19.4	6.02e-01	0	43	0	461897728	20	4969
2026-01-17 00:29:26.59	85.93	20.27	-29.5	-32.3	19.5	6.02e-01	0	43	0	463470592	20	4955
2026-01-17 00:29:27.59	86.23	20.28	-29.4	-31.9	19.7	6.03e-01	0	43	0	465567744	20	4836
2026-01-17 00:29:28.59	86.52	20.28	-29.3	-31.7	19.8	6.02e-01	0	43	0	467140608	20	4765
2026-01-17 00:29:29.59	86.82	20.28	-29.4	-32.0	19.7	6.04e-01	0	43	0	469237760	20	4838
2026-01-17 00:29:30.60	87.12	20.29	-29.5	-32.2	19.5	6.05e-01	0	43	0	471334912	20	4907
2026-01-17 00:29:31.59	87.41	20.29	-29.4	-32.0	19.6	6.02e-01	0	43	0	472907776	20	4852
2026-01-17 00:29:32.59	87.71	20.29	-29.3	-31.8	19.7	6.04e-01	0	43	0	475004928	20	4782
2026-01-17 00:29:33.60	88.01	20.29	-29.4	-32.0	19.6	6.02e-01	0	43	0	476577792	20	4855
2026-01-17 00:29:34.60	88.31	20.29	-29.4	-31.9	19.7	6.02e-01	0	43	0	478674944	20	4833
2026-01-17 00:29:35.60	88.60	20.29	-29.4	-32.0	19.6	6.03e-01	0	43	0	480247808	20	4848
2026-01-17 00:29:36.61	88.90	20.29	-29.5	-32.7	19.6	6.03e-01	0	43	0	482344960	19	5223
2026-01-17 00:29:37.61	89.20	20.28	-29.5	-32.8	19.5	6.03e-01	0	43	0	484442112	19	5244
2026-01-17 00:29:38.61	89.49	20.28	-29.5	-32.2	19.5	6.01e-01	0	43	0	486014976	20	4921
2026-01-17 00:29:39.62	89.79	20.28	-29.5	-32.2	19.5	6.02e-01	0	43	0	488112128	20	4918
2026-01-17 00:29:40.62	90.09	20.27	-29.6	-32.5	19.3	6.03e-01	0	43	0	489684992	20	5022
2026-01-17 00:29:41.62	90.39	20.26	-29.7	-32.7	19.2	6.04e-01	0	43	0	491782144	20	5101
2026-01-17 00:29:42.62	90.68	20.26	-29.8	-33.0	19.0	6.02e-01	0	43	0	493879296	20	5203
2026-01-17 00:29:43.63	90.98	20.25	-29.7	-32.7	19.2	6.02e-01	0	43	0	495452160	20	5096
2026-01-17 00:29:44.63	91.28	20.24	-29.7	-32.7	19.2	6.03e-01	0	43	0	497549312	20	5117
2026-01-17 00:29:45.63	91.57	20.23	-29.6	-32.5	19.3	6.02e-01	0	43	0	499122176	20	5054
2026-01-17 00:29:46.64	91.87	20.23	-29.4	-32.1	19.6	6.01e-01	0	43	0	501219328	20	4881
2026-01-17 00:29:47.64	92.17	20.22	-29.4	-32.2	19.6	6.02e-01	0	43	0	503316480	20	4919
2026-01-17 00:29:48.64	92.46	20.20	-29.4	-32.2	19.5	6.02e-01	0	43	0	504889344	20	4923
2026-01-17 00:29:49.64	92.76	20.19	-29.4	-32.1	19.5	6.02e-01	0	43	0	506986496	20	4890
2026-01-17 00:29:50.64	93.05	20.18	-29.5	-32.3	19.4	6.01e-01	0	43	0	508559360	20	4959
2026-01-17 00:29:51.64	93.34	20.17	-29.6	-32.5	19.3	6.04e-01	0	43	0	510656512	20	5023
2026-01-17 00:29:52.65	93.64	20.15	-29.5	-32.6	19.6	6.04e-01	0	43	0	512229376	19	5181
2026-01-17 00:29:53.64	93.93	20.14	-29.4	-32.4	19.7	6.04e-01	0	43	0	514326528	19	5110
2026-01-17 00:29:54.65	94.23	20.12	-29.6	-32.9	19.4	6.03e-01	0	43	0	516423680	19	5288
2026-01-17 00:29:55.65	94.52	20.11	-29.9	-33.4	18.8	6.04e-01	0	43	0	517996544	20	5369
2026-01-17 00:29:56.65	94.82	20.09	-30.0	-33.6	18.6	6.02e-01	0	43	0	520093696	20	5457
2026-01-17 00:29:57.65	95.11	20.08	-30.0	-33.5	18.6	6.03e-01	0	43	0	521666560	20	5414
2026-01-17 00:29:58.66	95.40	20.06	-30.2	-33.7	18.2	6.04e-01	0	44	0	523763712	21	5369
2026-01-17 00:29:59.65	95.69	20.04	-30.2	-33.6	18.3	6.01e-01	0	43	0	525336576	21	5346
2026-01-17 00:30:00.65	95.98	20.02	-30.1	-33.3	18.5	6.04e-01	0	43	0	527433728	21	5210
2026-01-17 00:30:01.65	96.27	20.00	-29.9	-32.8	18.8	6.04e-01	0	44	0	529530880	21	5048
2026-01-17 00:30:02.66	96.57	19.98	-29.9	-32.8	18.8	6.03e-01	0	43	0	531103744	21	5025
2026-01-17 00:30:03.66	96.86	19.96	-29.9	-33.0	18.7	6.04e-01	0	43	0	533200896	21	5099
2026-01-17 00:30:04.66	97.15	19.94	-30.0	-33.1	18.6	6.03e-01	0	43	0	534773760	21	5147
2026-01-17 00:30:05.67	97.44	19.91	-30.3	-33.8	18.2	6.03e-01	0	43	0	536870912	21	5444
2026-01-17 00:30:06.67	97.73	19.89	-30.1	-33.5	18.3	6.03e-01	0	43	0	538968064	21	5311
2026-01-17 00:30:07.67	98.02	19.87	-29.7	-32.2	19.1	6.04e-01	0	43	0	540540928	21	4826
2026-01-17 00:30:08.67	98.31	19.84	-29.5	-31.8	19.4	6.02e-01	0	43	0	542638080	21	4681
2026-01-17 00:30:09.68	98.60	19.82	-29.4	-32.1	19.6	6.01e-01	0	43	0	544210944	20	4895
2026-01-17 00:30:10.68	98.88	19.79	-29.5	-32.2	19.5	6.04e-01	0	43	0	546308096	20	4941
2026-01-17 00:30:11.68	99.17	19.76	-29.5	-32.2	19.5	6.02e-01	0	43	0	548405248	20	4946
2026-01-17 00:30:12.68	99.46	19.74	-29.5	-32.2	19.5	6.05e-01	0	43	0	549978112	20	4914
2026-01-17 00:30:13.69	99.75	19.71	-29.5	-32.3	19.4	6.02e-01	0	43	0	552075264	20	4958
2026-01-17 00:30:14.69	100.03	19.68	-29.6	-32.5	19.2	6.02e-01	0	43	0	553648128	20	5050
2026-01-17 00:30:15.68	100.31	19.65	-29.5	-32.8	19.4	6.03e-01	0	43	0	555745280	19	5250
2026-01-17 00:30:16.68	100.60	19.62	-29.4	-32.6	19.6	6.03e-01	0	43	0	557318144	19	5169
2026-01-17 00:30:17.68	100.88	19.59	-29.6	-33.0	19.4	6.04e-01	0	43	0	559415296	19	5323
2026-01-17 00:30:18.68	101.16	19.56	-29.9	-33.4	18.7	6.02e-01	0	43	0	561512448	20	5386
2026-01-17 00:30:19.69	101.45	19.53	-29.8	-33.2	18.8	6.04e-01	0	43	0	563085312	20	5316
2026-01-17 00:30:20.70	101.73	19.49	-29.6	-32.6	19.2	6.03e-01	0	44	0	565182464	20	5074
2026-01-17 00:30:21.70	102.01	19.46	-29.4	-31.9	19.6	6.02e-01	0	43	0	566755328	20	4832
2026-01-17 00:30:22.70	102.29	19.43	-29.4	-32.4	19.7	6.01e-01	0	43	0	568852480	19	5118
2026-01-17 00:30:23.70	102.57	19.39	-29.5	-32.7	19.5	6.01e-01	0	43	0	570425344	19	5219
2026-01-17 00:30:24.71	102.86	19.36	-29.4	-32.4	19.7	6.04e-01	0	43	0	572522496	19	5103
2026-01-17 00:30:25.72	103.14	19.32	-29.3	-32.2	19.8	6.04e-01	0	43	0	574619648	19	5027
2026-01-17 00:30:26.72	103.41	19.29	-29.4	-32.6	19.6	6.04e-01	0	44	0	576192512	19	5188
2026-01-17 00:30:27.71	103.69	19.25	-29.4	-32.6	19.6	6.02e-01	0	43	0	578289664	19	5181
2026-01-17 00:30:28.71	103.97	19.21	-29.3	-32.3	19.8	6.04e-01	0	43	0	579862528	19	5082
2026-01-17 00:30:29.72	104.24	19.18	-29.5	-32.7	19.5	6.02e-01	0	43	0	581959680	19	5215
2026-01-17 00:30:30.72	104.52	19.14	-29.5	-32.3	19.4	6.04e-01	0	43	0	584056832	20	4972
2026-01-17 00:30:31.72	104.79	19.10	-29.5	-32.7	19.5	6.02e-01	0	43	0	585629696	19	5220
2026-01-17 00:30:32.72	105.07	19.06	-29.5	-32.6	19.5	6.03e-01	0	43	0	587726848	19	5187
2026-01-17 00:30:33.72	105.34	19.02	-29.4	-32.5	19.6	6.04e-01	0	43	0	589299712	19	5152
2026-01-17 00:30:34.71	105.61	18.98	-29.4	-32.5	19.6	6.05e-01	0	43	0	591396864	19	5145
2026-01-17 00:30:35.71	105.88	18.94	-29.5	-32.3	19.4	6.03e-01	0	43	0	592969728	20	4965
2026-01-17 00:30:36.72	106.15	18.90	-29.6	-32.7	19.2	6.01e-01	0	43	0	595066880	20	5096
2026-01-17 00:30:37.72	106.42	18.85	-29.5	-32.3	19.3	6.06e-01	0	43	0	597164032	20	4982
2026-01-17 00:30:38.71	106.69	18.81	-29.4	-32.1	19.5	6.02e-01	0	43	0	598736896	20	4889
2026-01-17 00:30:39.72	106.96	18.77	-29.4	-32.0	19.6	6.04e-01	0	43	0	600834048	20	4848
2026-01-17 00:30:40.72	107.23	18.73	-29.4	-32.0	19.5	6.00e-01	0	43	0	602406912	20	4866
2026-01-17 00:30:41.73	107.50	18.68	-29.6	-32.5	19.3	6.02e-01	0	43	0	604504064	20	5029
2026-01-17 00:30:42.73	107.76	18.64	-29.5	-32.3	19.4	6.01e-01	0	43	0	606601216	20	4951
2026-01-17 00:30:43.72	108.03	18.59	-29.4	-32.4	19.6	6.03e-01	0	43	0	608174080	19	5083
2026-01-17 00:30:44.73	108.29	18.55	-29.4	-32.4	19.7	6.02e-01	0	43	0	610271232	19	5087
2026-01-17 00:30:45.73	108.56	18.50	-29.5	-32.8	19.5	6.03e-01	0	43	0	611844096	19	5238
2026-01-17 00:30:46.73	108.82	18.45	-29.5	-32.1	19.4	6.00e-01	0	43	0	613941248	20	4908
2026-01-17 00:30:47.74	109.08	18.41	-29.3	-31.8	19.7	6.05e-01	0	43	0	615514112	20	4802
2026-01-17 00:30:48.73	109.34	18.36	-29.2	-31.6	19.8	6.03e-01	0	43	0	617611264	20	4736
2026-01-17 00:30:49.74	109.61	18.31	-29.4	-32.4	19.7	6.04e-01	0	43	0	619708416	19	5106
2026-01-17 00:30:50.74	109.87	18.26	-29.3	-32.2	19.8	6.03e-01	0	43	0	621281280	19	5037
2026-01-17 00:30:51.74	110.12	18.21	-29.2	-32.1	19.8	6.03e-01	0	43	0	623378432	19	4995
2026-01-17 00:30:52.75	110.38	18.17	-29.3	-32.4	19.6	6.02e-01	0	43	0	624951296	19	5095
2026-01-17 00:30:53.75	110.64	18.12	-29.3	-32.2	19.7	6.02e-01	0	43	0	627048448	19	5024
2026-01-17 00:30:54.75	110.90	18.07	-29.2	-31.9	19.9	6.02e-01	0	43	0	629145600	19	4942
2026-01-17 00:30:55.76	111.15	18.01	-29.2	-32.1	19.8	6.04e-01	0	43	0	630718464	19	5021
2026-01-17 00:30:56.76	111.41	17.96	-29.3	-32.4	19.7	6.05e-01	0	43	0	632815616	19	5104
2026-01-17 00:30:57.76	111.66	17.91	-29.3	-32.3	19.7	6.03e-01	0	43	0	634388480	19	5073
2026-01-17 00:30:58.76	111.91	17.86	-29.3	-32.2	19.8	6.03e-01	0	43	0	636485632	19	5052
2026-01-17 00:30:59.76	112.17	17.81	-29.4	-32.4	19.7	6.01e-01	0	43	0	638058496	19	5116
2026-01-17 00:31:00.76	112.42	17.76	-29.4	-32.4	19.6	6.06e-01	0	43	0	640155648	19	5124
2026-01-17 00:31:01.76	112.67	17.70	-29.2	-32.1	19.7	6.02e-01	0	43	0	642252800	19	5031
2026-01-17 00:31:02.77	112.92	17.65	-29.3	-32.3	19.6	6.02e-01	0	43	0	643825664	19	5083
2026-01-17 00:31:03.77	113.17	17.60	-29.4	-32.5	19.5	6.03e-01	0	43	0	645922816	19	5170
2026-01-17 00:31:04.77	113.41	17.54	-29.3	-32.4	19.6	6.01e-01	0	43	0	647495680	19	5120
2026-01-17 00:31:05.77	113.66	17.49	-29.2	-32.2	19.7	6.02e-01	0	43	0	649592832	19	5048
2026-01-17 00:31:06.77	113.90	17.43	-29.2	-32.2	19.7	6.02e-01	0	44	0	651165696	19	5053
2026-01-17 00:31:07.78	114.15	17.38	-29.2	-32.2	19.7	6.00e-01	0	43	0	653262848	19	5054
2026-01-17 00:31:08.78	114.39	17.32	-29.2	-32.1	19.8	6.04e-01	0	43	0	655360000	19	5008
2026-01-17 00:31:09.78	114.64	17.27	-29.3	-32.2	19.7	6.03e-01	0	43	0	656932864	19	5071
2026-01-17 00:31:10.79	114.88	17.21	-29.3	-32.4	19.6	6.02e-01	0	43	0	659030016	19	5114
2026-01-17 00:31:11.79	115.12	17.15	-29.3	-32.2	19.6	6.02e-01	0	43	0	661127168	19	5055
2026-01-17 00:31:12.79	115.36	17.10	-29.4	-32.4	19.5	6.03e-01	0	43	0	662700032	19	5128
2026-01-17 00:31:13.80	115.60	17.04	-29.4	-32.4	19.6	6.04e-01	0	43	0	664797184	19	5130
2026-01-17 00:31:14.80	115.84	16.98	-29.3	-32.4	19.5	6.03e-01	0	43	0	666370048	19	5132
2026-01-17 00:31:15.81	116.08	16.93	-29.5	-32.8	19.2	6.03e-01	0	43	0	668467200	19	5285
2026-01-17 00:31:16.81	116.31	16.87	-29.5	-32.9	19.2	6.01e-01	0	43	0	670040064	19	5336
2026-01-17 00:31:17.81	116.55	16.81	-29.6	-33.1	19.1	6.03e-01	0	44	0	672137216	19	5388
2026-01-17 00:31:18.82	116.79	16.75	-29.4	-32.6	19.4	6.02e-01	0	44	0	674234368	19	5208
2026-01-17 00:31:19.82	117.02	16.69	-29.4	-32.7	19.4	6.00e-01	0	43	0	675807232	19	5240
2026-01-17 00:31:20.82	117.25	16.63	-29.4	-32.6	19.4	6.01e-01	0	44	0	677904384	19	5183
2026-01-17 00:31:21.83	117.48	16.57	-29.5	-32.9	19.2	6.04e-01	0	43	0	679477248	19	5331
2026-01-17 00:31:22.83	117.71	16.51	-29.6	-33.0	19.2	6.03e-01	0	43	0	681574400	19	5327
2026-01-17 00:31:23.84	117.95	16.45	-29.7	-32.9	18.9	6.00e-01	0	43	0	683671552	20	5184
2026-01-17 00:31:24.84	118.17	16.39	-30.0	-33.7	18.4	6.04e-01	0	43	0	685244416	20	5504
2026-01-17 00:31:25.84	118.40	16.33	-29.8	-33.1	18.7	6.04e-01	0	43	0	687341568	20	5294
2026-01-17 00:31:26.84	118.63	16.27	-29.5	-32.3	19.2	6.03e-01	0	43	0	688914432	20	4971
2026-01-17 00:31:27.85	118.86	16.21	-29.3	-31.9	19.4	6.04e-01	0	43	0	691011584	20	4854
2026-01-17 00:31:28.85	119.08	16.15	-29.1	-31.4	19.8	6.02e-01	0	43	0	692584448	20	4680
2026-01-17 00:31:29.85	119.30	16.09	-29.3	-32.3	19.6	6.03e-01	0	43	0	694681600	19	5094
2026-01-17 00:31:30.86	119.53	16.03	-29.3	-32.2	19.6	6.02e-01	0	43	0	696778752	19	5060
2026-01-17 00:31:31.86	119.75	15.97	-29.3	-32.3	19.6	6.02e-01	0	43	0	698351616	19	5083
2026-01-17 00:31:32.86	119.97	15.90	-29.3	-32.3	19.6	6.04e-01	0	43	0	700448768	19	5084
2026-01-17 00:31:33.86	120.19	15.84	-29.4	-32.7	19.4	6.02e-01	0	43	0	702021632	19	5229
2026-01-17 00:31:34.86	120.41	15.78	-29.3	-32.5	19.5	6.03e-01	0	43	0	704118784	19	5160
2026-01-17 00:31:35.86	120.63	15.72	-29.3	-32.4	19.5	6.01e-01	0	43	0	706215936	19	5124
2026-01-17 00:31:36.87	120.85	15.65	-29.3	-32.3	19.6	6.01e-01	0	43	0	707788800	19	5085
2026-01-17 00:31:37.87	121.06	15.59	-29.4	-32.5	19.5	6.01e-01	0	44	0	709885952	19	5154
2026-01-17 00:31:38.87	121.28	15.53	-29.4	-32.5	19.4	6.04e-01	0	43	0	711458816	19	5164
2026-01-17 00:31:39.86	121.49	15.46	-29.4	-32.5	19.4	6.02e-01	0	43	0	713555968	19	5175
2026-01-17 00:31:40.86	121.70	15.40	-29.6	-33.1	19.1	6.03e-01	0	43	0	715128832	19	5379
2026-01-17 00:31:41.86	121.92	15.34	-29.3	-31.9	19.4	6.06e-01	0	43	0	717225984	20	4862
2026-01-17 00:31:42.86	122.13	15.27	-29.3	-32.4	19.5	6.03e-01	0	43	0	719323136	19	5129
2026-01-17 00:31:43.86	122.34	15.21	-29.4	-32.6	19.4	6.04e-01	0	43	0	720896000	19	5211
2026-01-17 00:31:44.86	122.55	15.15	-29.3	-32.3	19.5	6.01e-01	0	43	0	722993152	19	5105
2026-01-17 00:31:45.86	122.75	15.08	-29.2	-32.2	19.6	6.02e-01	0	43	0	724566016	19	5046
2026-01-17 00:31:46.86	122.96	15.02	-29.3	-32.4	19.5	6.01e-01	0	43	0	726663168	19	5118
2026-01-17 00:31:47.87	123.17	14.95	-29.3	-32.3	19.5	6.02e-01	0	43	0	728236032	19	5111
2026-01-17 00:31:48.87	123.38	14.89	-29.3	-32.4	19.5	6.01e-01	0	43	0	730333184	19	5127
2026-01-17 00:31:49.86	123.58	14.82	-29.3	-32.4	19.4	6.03e-01	0	43	0	732430336	19	5145
2026-01-17 00:31:50.87	123.79	14.76	-29.3	-32.4	19.5	6.05e-01	0	43	0	734003200	19	5131
2026-01-17 00:31:51.87	123.99	14.69	-29.4	-32.6	19.3	6.04e-01	0	43	0	736100352	19	5232
2026-01-17 00:31:52.87	124.19	14.63	-29.3	-32.4	19.4	6.04e-01	0	44	0	737673216	19	5138
2026-01-17 00:31:53.87	124.39	14.56	-29.2	-32.2	19.5	6.03e-01	0	43	0	739770368	19	5051
2026-01-17 00:31:54.86	124.59	14.50	-29.2	-32.1	19.6	6.04e-01	0	43	0	741343232	19	5035
2026-01-17 00:31:55.87	124.79	14.43	-29.3	-32.4	19.4	6.03e-01	0	43	0	743440384	19	5130
2026-01-17 00:31:56.87	124.99	14.37	-29.3	-32.3	19.5	6.01e-01	0	43	0	745537536	19	5092
2026-01-17 00:31:57.87	125.19	14.30	-29.3	-32.4	19.4	6.02e-01	0	43	0	747110400	19	5142
2026-01-17 00:31:58.87	125.38	14.23	-29.2	-32.2	19.6	6.03e-01	0	43	0	749207552	19	5069
2026-01-17 00:31:59.87	125.58	14.17	-29.2	-32.1	19.6	6.04e-01	0	43	0	750780416	19	5042
2026-01-17 00:32:00.88	125.78	14.10	-29.3	-32.3	19.5	6.03e-01	0	43	0	752877568	19	5087
2026-01-17 00:32:01.88	125.97	14.04	-29.3	-32.3	19.5	6.02e-01	0	43	0	754974720	19	5121
2026-01-17 00:32:02.88	126.16	13.97	-29.3	-32.4	19.4	6.04e-01	0	43	0	756547584	19	5158
2026-01-17 00:32:03.89	126.36	13.90	-29.3	-32.5	19.3	6.03e-01	0	43	0	758644736	19	5180
2026-01-17 00:32:04.89	126.55	13.84	-29.3	-32.4	19.4	6.05e-01	0	43	0	760217600	19	5144
2026-01-17 00:32:05.89	126.74	13.77	-29.2	-32.2	19.5	6.02e-01	0	43	0	762314752	19	5083
2026-01-17 00:32:06.89	126.93	13.70	-29.3	-32.5	19.3	6.04e-01	0	43	0	764411904	19	5171
2026-01-17 00:32:07.88	127.11	13.64	-29.3	-32.3	19.4	6.03e-01	0	43	0	765984768	19	5117
2026-01-17 00:32:08.89	127.30	13.57	-29.4	-32.6	19.2	6.02e-01	0	43	0	768081920	19	5209
2026-01-17 00:32:09.89	127.49	13.50	-29.4	-32.6	19.2	6.03e-01	0	44	0	769654784	19	5229
2026-01-17 00:32:10.88	127.67	13.44	-29.4	-32.7	19.1	6.03e-01	0	44	0	771751936	19	5279
2026-01-17 00:32:11.88	127.86	13.37	-29.4	-32.7	19.1	6.02e-01	0	43	0	773324800	19	5290
2026-01-17 00:32:12.88	128.04	13.30	-29.4	-32.8	19.0	6.03e-01	0	43	0	775421952	19	5321
2026-01-17 00:32:13.89	128.23	13.24	-29.4	-32.7	19.1	6.03e-01	0	43	0	777519104	19	5306
2026-01-17 00:32:14.89	128.41	13.17	-29.5	-33.1	18.9	6.02e-01	0	43	0	779091968	19	5440
2026-01-17 00:32:15.90	128.59	13.10	-29.5	-33.0	18.9	6.02e-01	0	44	0	781189120	19	5402
2026-01-17 00:32:16.90	128.77	13.03	-29.6	-33.3	18.7	6.00e-01	0	43	0	782761984	19	5518
2026-01-17 00:32:17.89	128.95	12.97	-29.5	-32.4	18.9	6.03e-01	0	43	0	784859136	20	5069
2026-01-17 00:32:18.90	129.13	12.90	-29.3	-32.1	19.1	6.03e-01	0	43	0	786432000	20	4958
2026-01-17 00:32:19.90	129.31	12.83	-29.3	-32.0	19.2	6.03e-01	0	43	0	788529152	20	4910
2026-01-17 00:32:20.89	129.49	12.77	-29.4	-32.4	18.9	6.03e-01	0	44	0	790626304	20	5041
2026-01-17 00:32:21.89	129.66	12.70	-29.4	-32.3	18.9	6.03e-01	0	43	0	792199168	20	5032
2026-01-17 00:32:22.89	129.84	12.63	-29.5	-32.6	18.7	6.03e-01	0	43	0	794296320	20	5159
2026-01-17 00:32:23.89	130.01	12.56	-29.4	-32.3	18.9	6.02e-01	0	43	0	795869184	20	5055
2026-01-17 00:32:24.90	130.19	12.50	-29.2	-32.0	19.0	6.03e-01	0	43	0	797966336	20	4938
2026-01-17 00:32:25.90	130.36	12.43	-29.3	-32.2	18.9	6.03e-01	0	43	0	799539200	20	4999
2026-01-17 00:32:26.90	130.53	12.36	-29.3	-32.2	18.9	6.04e-01	0	43	0	801636352	20	5026
2026-01-17 00:32:27.90	130.71	12.29	-29.4	-32.5	18.7	6.02e-01	0	43	0	803733504	20	5121
2026-01-17 00:32:28.90	130.88	12.23	-29.4	-32.4	18.8	6.02e-01	0	43	0	805306368	20	5098
2026-01-17 00:32:29.90	131.05	12.16	-29.4	-32.9	18.9	6.04e-01	0	43	0	807403520	19	5365
2026-01-17 00:32:30.90	131.22	12.09	-29.5	-32.7	18.6	6.03e-01	0	44	0	808976384	20	5191
2026-01-17 00:32:31.90	131.38	12.02	-29.6	-33.0	18.4	6.01e-01	0	43	0	811073536	20	5305
2026-01-17 00:32:32.90	131.55	11.96	-29.5	-32.6	18.6	6.04e-01	0	43	0	813170688	20	5151
2026-01-17 00:32:33.91	131.72	11.89	-29.5	-33.2	18.6	6.03e-01	0	43	0	814743552	19	5487
2026-01-17 00:32:34.91	131.89	11.82	-29.6	-33.4	18.5	6.03e-01	0	43	0	816840704	19	5582
2026-01-17 00:32:35.91	132.05	11.75	-29.4	-33.0	18.7	6.03e-01	0	43	0	818413568	19	5454
2026-01-17 00:32:36.91	132.21	11.69	-29.3	-32.7	18.9	6.03e-01	0	43	0	820510720	19	5346
2026-01-17 00:32:37.91	132.38	11.62	-29.4	-32.8	18.8	6.03e-01	0	44	0	822083584	19	5371
2026-01-17 00:32:38.92	132.54	11.55	-29.4	-32.9	18.9	6.02e-01	0	43	0	824180736	19	5374
2026-01-17 00:32:39.92	132.70	11.48	-29.5	-33.1	18.7	6.03e-01	0	43	0	826277888	19	5461
2026-01-17 00:32:40.92	132.86	11.42	-29.6	-33.2	18.6	6.01e-01	0	43	0	827850752	19	5487
2026-01-17 00:32:41.93	133.03	11.35	-29.5	-33.2	18.6	6.05e-01	0	44	0	829947904	19	5473
2026-01-17 00:32:42.93	133.19	11.28	-29.6	-32.8	18.4	6.03e-01	0	44	0	831520768	20	5237
2026-01-17 00:32:43.94	133.35	11.21	-29.9	-33.8	17.8	6.04e-01	0	44	0	833617920	20	5672
2026-01-17 00:32:44.94	133.50	11.15	-29.6	-32.9	18.4	6.02e-01	0	43	0	835715072	20	5322
2026-01-17 00:32:45.95	133.66	11.08	-29.4	-33.1	18.6	6.05e-01	0	43	0	837287936	19	5497
2026-01-17 00:32:46.95	133.82	11.01	-29.6	-33.5	18.3	6.02e-01	0	43	0	839385088	19	5684
2026-01-17 00:32:47.95	133.98	10.94	-29.4	-33.2	18.5	6.02e-01	0	43	0	840957952	19	5555
2026-01-17 00:32:48.95	134.13	10.88	-29.4	-33.2	18.5	6.04e-01	0	43	0	843055104	19	5558
2026-01-17 00:32:49.95	134.29	10.81	-29.6	-33.2	18.1	6.01e-01	0	44	0	845152256	20	5442
2026-01-17 00:32:50.96	134.44	10.74	-29.4	-32.5	18.5	6.03e-01	0	44	0	846725120	20	5177
2026-01-17 00:32:51.96	134.59	10.67	-29.6	-33.4	18.4	6.03e-01	0	44	0	848822272	19	5593
2026-01-17 00:32:52.96	134.74	10.61	-29.5	-33.3	18.4	6.03e-01	0	43	0	850395136	19	5526
2026-01-17 00:32:53.96	134.90	10.54	-29.7	-33.3	18.1	6.03e-01	0	43	0	852492288	20	5455
2026-01-17 00:32:54.96	135.05	10.47	-29.6	-33.0	18.3	6.04e-01	0	44	0	854065152	20	5301
2026-01-17 00:32:55.96	135.20	10.41	-29.6	-33.0	18.2	6.03e-01	0	43	0	856162304	20	5330
2026-01-17 00:32:56.97	135.35	10.34	-29.7	-33.2	18.1	6.02e-01	0	43	0	858259456	20	5429
2026-01-17 00:32:57.97	135.50	10.27	-29.8	-33.7	17.7	6.05e-01	0	44	0	859832320	20	5600
2026-01-17 00:32:58.98	135.64	10.20	-29.6	-33.1	18.1	6.03e-01	0	43	0	861929472	20	5366
2026-01-17 00:32:59.98	135.79	10.14	-29.8	-33.6	17.8	6.02e-01	0	43	0	863502336	20	5577
2026-01-17 00:33:00.98	135.94	10.07	-29.6	-32.9	18.2	6.03e-01	0	44	0	865599488	20	5311
2026-01-17 00:33:01.98	136.08	10.00	-30.0	-34.1	17.4	6.03e-01	0	43	0	867696640	20	5814
2026-01-17 00:33:02.98	136.23	9.94	-29.8	-33.6	17.8	6.02e-01	0	44	0	869269504	20	5576
2026-01-17 00:33:03.98	136.37	9.87	-29.8	-33.6	17.7	6.02e-01	0	43	0	871366656	20	5583
2026-01-17 00:33:04.98	136.52	9.80	-29.8	-33.8	17.5	6.02e-01	0	44	0	872939520	20	5693
2026-01-17 00:33:05.98	136.66	9.74	-29.6	-33.3	17.9	6.04e-01	0	44	0	875036672	20	5496
2026-01-17 00:33:06.98	136.80	9.67	-29.7	-33.7	17.5	6.03e-01	0	43	0	876609536	20	5697
2026-01-17 00:33:07.98	136.94	9.61	-29.6	-33.4	17.8	6.02e-01	0	43	0	878706688	20	5565
2026-01-17 00:33:08.97	137.08	9.54	-29.8	-34.2	17.2	6.02e-01	0	43	0	880279552	20	5938
2026-01-17 00:33:09.97	137.22	9.47	-29.6	-33.5	17.7	6.01e-01	0	43	0	882376704	20	5615
2026-01-17 00:33:10.98	137.36	9.41	-29.7	-33.6	17.6	6.02e-01	0	43	0	884473856	20	5650
2026-01-17 00:33:11.98	137.50	9.34	-29.8	-33.9	17.5	6.02e-01	0	43	0	886046720	20	5758
2026-01-17 00:33:12.98	137.64	9.27	-30.1	-34.6	17.0	6.03e-01	0	43	0	888143872	20	6091
2026-01-17 00:33:13.99	137.78	9.21	-29.9	-33.6	17.4	6.04e-01	0	43	0	890241024	21	5481
2026-01-17 00:33:14.99	137.92	9.14	-30.1	-34.0	17.1	6.04e-01	0	43	0	891813888	21	5678
2026-01-17 00:33:15.99	138.05	9.08	-30.0	-34.1	17.3	6.02e-01	0	44	0	893911040	20	5827
2026-01-17 00:33:16.99	138.19	9.01	-29.8	-33.8	17.5	6.04e-01	0	43	0	895483904	20	5675
2026-01-17 00:33:17.99	138.32	8.94	-29.9	-34.1	17.3	6.02e-01	0	43	0	897581056	20	5817
2026-01-17 00:33:19.00	138.46	8.88	-30.1	-34.6	17.0	6.03e-01	0	44	0	899153920	20	6035
2026-01-17 00:33:20.01	138.59	8.81	-30.0	-34.5	17.0	6.03e-01	0	43	0	901251072	20	6027
2026-01-17 00:33:21.01	138.73	8.75	-30.0	-34.6	16.9	6.03e-01	0	43	0	903348224	20	6084
2026-01-17 00:33:22.01	138.86	8.68	-30.3	-35.0	16.2	6.04e-01	0	43	0	904921088	21	6185
2026-01-17 00:33:23.00	138.99	8.62	-30.0	-34.1	16.8	6.01e-01	0	44	0	907018240	21	5766
2026-01-17 00:33:24.00	139.12	8.55	-30.0	-34.0	16.8	6.03e-01	0	43	0	908591104	21	5745
2026-01-17 00:33:25.00	139.25	8.48	-29.9	-33.8	17.0	6.03e-01	0	43	0	910688256	21	5644
2026-01-17 00:33:26.00	139.38	8.42	-30.0	-34.1	16.8	6.03e-01	0	43	0	912261120	21	5765
2026-01-17 00:33:27.00	139.51	8.35	-30.1	-34.7	16.7	6.03e-01	0	44	0	914358272	20	6151
2026-01-17 00:33:28.01	139.64	8.29	-30.2	-34.6	16.5	6.04e-01	0	44	0	916455424	21	5978
2026-01-17 00:33:29.01	139.77	8.22	-29.9	-33.8	16.9	6.03e-01	0	43	0	918028288	21	5643
2026-01-17 00:33:30.01	139.90	8.16	-29.7	-33.3	17.2	6.03e-01	0	43	0	920125440	21	5476
2026-01-17 00:33:31.01	140.02	8.09	-29.6	-33.8	17.2	6.02e-01	0	43	0	921698304	20	5817
2026-01-17 00:33:32.02	140.15	8.03	-29.7	-34.2	16.8	6.05e-01	0	44	0	923795456	20	6048
2026-01-17 00:33:33.02	140.28	7.96	-29.6	-34.1	16.8	6.03e-01	0	44	0	925368320	20	6072
2026-01-17 00:33:34.02	140.40	7.90	-29.7	-34.7	16.3	6.00e-01	0	44	0	927465472	20	6409
2026-01-17 00:33:35.02	140.53	7.83	-28.8	-33.5	16.9	6.05e-01	0	44	0	929562624	19	6184
2026-01-17 00:33:36.02	140.65	7.77	-29.4	-34.8	16.5	6.09e-01	0	43	0	931135488	18	6679
2026-01-17 00:33:37.01	140.77	7.71	-29.6	-34.5	16.3	6.03e-01	0	43	0	933232640	20	6361
2026-01-17 00:33:38.02	140.90	7.64	-29.6	-34.5	15.9	6.07e-01	0	43	0	934805504	20	6398
2026-01-17 00:33:39.02	141.02	7.58	-29.8	-35.5	15.1	6.07e-01	0	43	0	936902656	20	6908
2026-01-17 00:33:40.02	141.14	7.51	-29.8	-35.6	15.4	6.03e-01	0	43	0	938475520	20	6980
2026-01-17 00:33:41.02	141.26	7.45	-29.9	-35.7	14.8	6.02e-01	0	44	0	940572672	20	7049
2026-01-17 00:33:42.02	141.38	7.38	-29.9	-35.9	15.0	6.02e-01	0	43	0	942669824	20	7116
2026-01-17 00:33:43.02	141.50	7.32	-29.7	-34.9	16.0	6.02e-01	0	43	0	944242688	20	6557
2026-01-17 00:33:44.01	141.62	7.26	-30.1	-36.1	14.5	6.04e-01	0	43	0	946339840	21	7164
2026-01-17 00:33:45.02	141.74	7.19	-30.1	-36.4	14.8	6.04e-01	0	43	0	947912704	20	7401
2026-01-17 00:33:46.03	141.86	7.13	-30.1	-35.9	14.7	6.02e-01	0	44	0	950009856	21	7051
2026-01-17 00:33:47.03	141.98	7.06	-30.4	-37.5	13.5	6.05e-01	0	44	0	952107008	21	8136
2026-01-17 00:33:48.02	142.09	7.00	-32.8	-51.1	3.8	7.39e-01	0	44	104	952631296	26	29549

#Closed at: 2026-01-17 00:33:48
#Recorded file [952 MB]: D:/data/31010_260117_032519.dat