passes_logs/2026/01/17/R2M6_AANII_01/R2M6_AANII_01__20260117_023854_NOAA_20_JPSS-1_rec.log

#Pass ID: 20260117_023854_NOAA 20 (JPSS-1)
#Satellite: NOAA 20 (JPSS-1)
#Configuration: NOAA 20
#almurnet v.1.7.20240730
#Start time: 2026-01-17 02:38:54

#Version: 2.2.20231116
#Station: R2M6_AANII_01
#Location: 30.233357 lon 59.946436 lat
#TLE: 1 43013U 17073A   26016.24631778  .00000038  00000+0  39093-4 0  9990
#TLE: 2 43013  98.7637 317.1726 0001455  37.6755 322.4523 14.19536243422915

#Time	Az	El	Level	Level2	SNR	BER	BlckErr	Temp	State	Recorded	gain1	gain2
2026-01-17 02:38:54.77	9.20	7.02	-32.2	-43.0	4.0	1.47e+00	0	41	0	0	24	12489
2026-01-17 02:38:55.77	9.09	7.07	-32.0	-40.9	4.3	1.40e+00	0	41	104	0	24	10044
2026-01-17 02:38:56.77	8.99	7.13	-32.0	-40.7	5.2	6.52e-01	0	41	0	0	24	9760
2026-01-17 02:38:57.78	8.88	7.19	-32.0	-40.9	5.1	6.88e-01	0	41	0	1048576	24	9983
2026-01-17 02:38:58.79	8.77	7.25	-32.1	-41.1	5.0	5.79e-01	0	41	0	3145728	24	10211
2026-01-17 02:38:59.79	8.66	7.31	-32.0	-40.7	5.2	6.66e-01	0	41	0	5242880	24	9794
2026-01-17 02:39:00.79	8.56	7.37	-32.0	-40.7	5.2	6.09e-01	0	41	0	7340032	24	9761
2026-01-17 02:39:01.79	8.45	7.43	-32.1	-41.3	5.0	7.26e-01	0	41	0	9437184	24	10340
2026-01-17 02:39:02.79	8.34	7.48	-32.2	-41.8	4.7	7.89e-01	0	41	0	10485760	24	10903
2026-01-17 02:39:03.79	8.23	7.54	-32.2	-41.6	4.8	9.16e-01	0	41	0	12582912	24	10711
2026-01-17 02:39:04.79	8.12	7.60	-32.0	-40.5	5.4	5.55e-01	0	41	0	14680064	24	9578
2026-01-17 02:39:05.79	8.01	7.66	-32.0	-40.3	5.8	4.22e-01	0	41	0	16777216	23	9390
2026-01-17 02:39:06.80	7.90	7.72	-31.8	-39.1	6.7	2.98e-01	0	41	0	17825792	23	8334
2026-01-17 02:39:07.80	7.79	7.78	-31.7	-38.6	7.0	1.65e-01	0	41	0	19922944	23	8006
2026-01-17 02:39:08.80	7.68	7.84	-31.4	-37.8	8.0	9.02e-02	0	41	0	22020096	22	7486
2026-01-17 02:39:09.80	7.57	7.90	-31.3	-37.0	8.7	4.54e-02	0	42	0	24117248	22	6989
2026-01-17 02:39:10.81	7.45	7.96	-31.1	-36.2	9.3	2.62e-02	0	42	0	26214400	22	6512
2026-01-17 02:39:11.81	7.34	8.01	-31.0	-36.4	9.6	1.65e-02	0	41	0	27262976	21	6719
2026-01-17 02:39:12.81	7.23	8.07	-31.0	-36.4	9.6	1.17e-02	0	42	0	29360128	21	6711
2026-01-17 02:39:13.82	7.11	8.13	-31.0	-36.3	9.6	1.09e-02	0	42	0	31457280	21	6672
2026-01-17 02:39:14.82	7.00	8.19	-30.9	-36.1	9.8	1.40e-02	0	42	0	33554432	21	6568
2026-01-17 02:39:15.81	6.89	8.25	-31.0	-36.4	9.6	1.39e-02	0	42	0	35651584	21	6727
2026-01-17 02:39:16.82	6.77	8.31	-31.0	-36.3	9.7	1.16e-02	0	42	0	36700160	21	6663
2026-01-17 02:39:17.82	6.66	8.37	-30.9	-36.2	9.7	9.92e-03	0	42	0	38797312	21	6609
2026-01-17 02:39:18.82	6.54	8.43	-31.0	-36.3	9.7	1.30e-02	0	42	0	40894464	21	6648
2026-01-17 02:39:19.82	6.42	8.49	-31.1	-36.3	9.4	1.46e-02	0	42	0	42991616	22	6531
2026-01-17 02:39:20.81	6.31	8.55	-31.3	-36.9	8.8	2.26e-02	0	42	0	45088768	22	6929
2026-01-17 02:39:21.82	6.19	8.61	-31.2	-36.6	9.1	2.81e-02	0	42	0	46137344	22	6727
2026-01-17 02:39:22.83	6.07	8.67	-31.0	-36.0	9.5	1.67e-02	0	42	0	48234496	22	6402
2026-01-17 02:39:23.83	5.95	8.72	-31.0	-36.3	9.6	1.16e-02	0	42	0	50331648	21	6654
2026-01-17 02:39:24.83	5.83	8.78	-31.0	-36.4	9.7	1.48e-02	0	42	0	52428800	21	6700
2026-01-17 02:39:25.83	5.71	8.84	-31.0	-35.8	9.7	1.14e-02	0	42	0	54525952	22	6262
2026-01-17 02:39:26.83	5.59	8.90	-30.9	-36.1	9.8	1.16e-02	0	42	0	55574528	21	6522
2026-01-17 02:39:27.83	5.47	8.96	-30.9	-36.1	9.9	9.43e-03	0	42	0	57671680	21	6532
2026-01-17 02:39:28.83	5.35	9.02	-31.0	-36.4	9.7	9.64e-03	0	42	0	59768832	21	6682
2026-01-17 02:39:29.83	5.23	9.08	-30.9	-35.9	10.0	1.26e-02	0	42	0	61865984	21	6423
2026-01-17 02:39:30.84	5.11	9.14	-30.8	-35.7	10.2	7.02e-03	0	42	0	62914560	21	6332
2026-01-17 02:39:31.84	4.98	9.20	-30.8	-35.5	10.3	6.46e-03	0	42	0	65011712	21	6232
2026-01-17 02:39:32.85	4.86	9.26	-30.8	-35.7	10.2	8.59e-03	0	42	0	67108864	21	6317
2026-01-17 02:39:33.86	4.74	9.32	-30.7	-35.4	10.4	9.15e-03	0	42	0	69206016	21	6170
2026-01-17 02:39:34.86	4.61	9.38	-30.9	-36.0	10.1	4.73e-03	0	42	0	71303168	21	6446
2026-01-17 02:39:35.86	4.49	9.44	-30.8	-35.4	10.4	8.52e-03	0	42	0	72351744	21	6178
2026-01-17 02:39:36.86	4.36	9.50	-30.6	-35.0	10.8	6.38e-03	0	42	0	74448896	21	5947
2026-01-17 02:39:37.86	4.24	9.56	-30.5	-34.6	11.0	2.19e-03	0	42	0	76546048	21	5782
2026-01-17 02:39:38.86	4.11	9.62	-30.5	-35.0	11.2	4.40e-03	0	42	0	78643200	20	6074
2026-01-17 02:39:39.86	3.98	9.68	-30.5	-34.9	11.2	4.25e-03	0	42	0	80740352	20	6034
2026-01-17 02:39:40.86	3.86	9.74	-30.4	-34.8	11.3	1.61e-03	0	42	0	81788928	20	5958
2026-01-17 02:39:41.86	3.73	9.80	-30.5	-34.4	11.2	1.59e-03	0	42	0	83886080	21	5686
2026-01-17 02:39:42.85	3.60	9.85	-30.5	-34.6	11.1	4.15e-03	0	42	0	85983232	21	5785
2026-01-17 02:39:43.86	3.47	9.91	-30.5	-34.6	11.2	2.20e-03	0	42	0	88080384	21	5745
2026-01-17 02:39:44.86	3.34	9.97	-30.5	-34.6	11.1	3.15e-03	0	42	0	90177536	21	5777
2026-01-17 02:39:45.86	3.21	10.03	-30.7	-35.2	10.6	5.70e-03	0	42	0	91226112	21	6062
2026-01-17 02:39:46.86	3.08	10.09	-30.7	-35.1	10.8	3.45e-03	0	42	0	93323264	21	5986
2026-01-17 02:39:47.87	2.95	10.15	-30.6	-34.9	10.9	5.43e-03	0	43	0	95420416	21	5925
2026-01-17 02:39:48.88	2.82	10.21	-30.8	-35.7	10.3	6.99e-03	0	42	0	97517568	21	6320
2026-01-17 02:39:49.88	2.69	10.27	-30.6	-35.0	10.8	4.12e-03	0	42	0	99614720	21	5947
2026-01-17 02:39:50.89	2.55	10.33	-30.5	-35.0	11.2	4.32e-03	0	42	0	100663296	20	6069
2026-01-17 02:39:51.89	2.42	10.39	-30.5	-34.6	11.1	4.26e-03	0	43	0	102760448	21	5776
2026-01-17 02:39:52.90	2.28	10.45	-30.6	-35.0	10.9	2.43e-03	0	42	0	104857600	21	5937
2026-01-17 02:39:53.90	2.15	10.51	-30.5	-34.7	11.1	4.89e-03	0	43	0	106954752	21	5791
2026-01-17 02:39:54.89	2.02	10.57	-30.5	-34.5	11.2	4.27e-03	0	43	0	108003328	21	5714
2026-01-17 02:39:55.89	1.88	10.63	-30.4	-34.2	11.4	1.72e-03	0	43	0	110100480	21	5573
2026-01-17 02:39:56.90	1.74	10.69	-30.4	-34.7	11.4	4.05e-03	0	42	0	112197632	20	5921
2026-01-17 02:39:57.90	1.61	10.75	-30.4	-34.6	11.5	3.66e-03	0	43	0	114294784	20	5848
2026-01-17 02:39:58.90	1.47	10.81	-30.4	-34.6	11.5	9.31e-04	0	43	0	116391936	20	5852
2026-01-17 02:39:59.90	1.33	10.87	-30.4	-34.8	11.4	3.99e-03	0	43	0	117440512	20	5948
2026-01-17 02:40:00.90	1.20	10.93	-30.5	-34.6	11.2	3.71e-03	0	43	0	119537664	21	5759
2026-01-17 02:40:01.90	1.06	10.99	-30.7	-35.1	10.8	2.49e-03	0	43	0	121634816	21	6002
2026-01-17 02:40:02.91	0.92	11.05	-30.7	-35.3	10.6	5.79e-03	0	43	0	123731968	21	6087
2026-01-17 02:40:03.92	0.77	11.11	-30.8	-35.5	10.5	6.76e-03	0	43	0	125829120	21	6206
2026-01-17 02:40:04.92	0.63	11.16	-31.2	-36.6	9.3	1.10e-02	0	43	0	126877696	22	6674
2026-01-17 02:40:05.92	0.49	11.22	-31.0	-35.8	10.0	9.73e-03	0	43	0	128974848	22	6207
2026-01-17 02:40:06.92	0.35	11.28	-30.8	-35.4	10.6	8.38e-03	0	43	0	131072000	21	6128
2026-01-17 02:40:07.92	0.21	11.34	-30.6	-34.8	11.0	3.76e-03	0	43	0	133169152	21	5857
2026-01-17 02:40:08.92	0.07	11.40	-30.5	-34.4	11.3	4.49e-03	0	43	0	135266304	21	5671
2026-01-17 02:40:09.92	359.92	11.46	-30.4	-34.8	11.4	8.54e-04	0	43	0	136314880	20	5947
2026-01-17 02:40:10.93	359.78	11.52	-30.3	-34.4	11.7	1.41e-03	0	43	0	138412032	20	5763
2026-01-17 02:40:11.93	359.63	11.58	-30.4	-34.6	11.6	3.19e-03	0	43	0	140509184	20	5835
2026-01-17 02:40:12.93	359.49	11.64	-30.5	-34.9	11.4	7.84e-04	0	43	0	142606336	20	5987
2026-01-17 02:40:13.94	359.34	11.70	-30.2	-34.1	11.9	1.29e-03	0	43	0	144703488	20	5633
2026-01-17 02:40:14.94	359.19	11.76	-30.5	-34.5	11.3	3.43e-03	0	43	0	145752064	21	5714
2026-01-17 02:40:15.93	359.05	11.81	-30.4	-34.1	11.6	8.13e-04	0	43	0	147849216	21	5523
2026-01-17 02:40:16.94	358.90	11.87	-30.3	-34.3	11.8	6.71e-04	0	43	0	149946368	20	5729
2026-01-17 02:40:17.94	358.75	11.93	-30.4	-34.5	11.7	3.63e-03	0	43	0	152043520	20	5797
2026-01-17 02:40:18.94	358.60	11.99	-30.5	-34.8	11.5	3.27e-03	0	43	0	153092096	20	5927
2026-01-17 02:40:19.94	358.45	12.05	-30.5	-34.8	11.4	1.11e-03	0	43	0	155189248	20	5958
2026-01-17 02:40:20.94	358.30	12.11	-30.5	-34.5	11.3	3.75e-03	0	43	0	157286400	21	5697
2026-01-17 02:40:21.95	358.15	12.17	-30.4	-34.6	11.7	3.69e-03	0	43	0	159383552	20	5848
2026-01-17 02:40:22.94	358.00	12.23	-30.4	-34.5	11.7	1.04e-03	0	43	0	161480704	20	5805
2026-01-17 02:40:23.94	357.85	12.28	-30.5	-34.8	11.5	9.01e-04	0	43	0	162529280	20	5938
2026-01-17 02:40:24.95	357.69	12.34	-30.4	-34.6	11.7	3.50e-03	0	43	0	164626432	20	5825
2026-01-17 02:40:25.94	357.54	12.40	-30.5	-34.6	11.3	1.29e-03	0	43	0	166723584	21	5715
2026-01-17 02:40:26.94	357.39	12.46	-30.5	-34.5	11.3	1.50e-03	0	43	0	168820736	21	5697
2026-01-17 02:40:27.94	357.23	12.52	-30.5	-34.5	11.4	9.54e-04	0	43	0	170917888	21	5685
2026-01-17 02:40:28.94	357.08	12.58	-30.6	-34.8	11.2	2.30e-03	0	43	0	171966464	21	5816
2026-01-17 02:40:29.93	356.93	12.63	-30.6	-34.7	11.2	2.21e-03	0	43	0	174063616	21	5782
2026-01-17 02:40:30.93	356.77	12.69	-30.7	-35.0	11.0	1.51e-03	0	43	0	176160768	21	5910
2026-01-17 02:40:31.94	356.61	12.75	-30.7	-35.0	11.1	2.91e-03	0	43	0	178257920	21	5900
2026-01-17 02:40:32.95	356.45	12.81	-30.8	-35.5	10.7	4.79e-03	0	43	0	180355072	21	6186
2026-01-17 02:40:33.95	356.29	12.87	-30.8	-35.3	10.8	2.71e-03	0	43	0	181403648	21	6049
2026-01-17 02:40:34.95	356.14	12.92	-30.7	-34.9	11.1	2.15e-03	0	43	0	183500800	21	5865
2026-01-17 02:40:35.95	355.98	12.98	-30.7	-34.9	11.1	4.44e-03	0	43	0	185597952	21	5885
2026-01-17 02:40:36.96	355.81	13.04	-30.7	-34.9	11.1	1.54e-03	0	43	0	187695104	21	5878
2026-01-17 02:40:37.96	355.65	13.10	-30.7	-34.9	11.2	2.02e-03	0	43	0	188743680	21	5857
2026-01-17 02:40:38.96	355.49	13.15	-30.8	-35.3	10.8	4.45e-03	0	43	0	190840832	21	6052
2026-01-17 02:40:39.96	355.33	13.21	-30.6	-34.7	11.3	4.40e-03	0	43	0	192937984	21	5777
2026-01-17 02:40:40.96	355.17	13.27	-30.6	-34.6	11.3	1.81e-03	0	43	0	195035136	21	5743
2026-01-17 02:40:41.96	355.00	13.32	-30.6	-34.7	11.3	2.08e-03	0	43	0	197132288	21	5764
2026-01-17 02:40:42.97	354.84	13.38	-30.6	-34.6	11.4	3.69e-03	0	43	0	198180864	21	5704
2026-01-17 02:40:43.96	354.68	13.44	-30.6	-34.7	11.3	1.50e-03	0	43	0	200278016	21	5776
2026-01-17 02:40:44.96	354.51	13.49	-30.7	-34.9	11.1	1.94e-03	0	43	0	202375168	21	5866
2026-01-17 02:40:45.96	354.35	13.55	-30.7	-35.0	11.1	1.34e-03	0	43	0	204472320	21	5886
2026-01-17 02:40:46.96	354.18	13.61	-30.8	-35.2	10.9	2.89e-03	0	43	0	206569472	21	6025
2026-01-17 02:40:47.96	354.01	13.66	-30.7	-34.9	11.2	2.23e-03	0	43	0	207618048	21	5861
2026-01-17 02:40:48.96	353.84	13.72	-30.6	-34.8	11.2	1.34e-03	0	43	0	209715200	21	5827
2026-01-17 02:40:49.96	353.68	13.78	-30.7	-35.0	11.1	2.46e-03	0	43	0	211812352	21	5894
2026-01-17 02:40:50.95	353.51	13.83	-30.6	-34.6	11.4	1.52e-03	0	43	0	213909504	21	5726
2026-01-17 02:40:51.96	353.34	13.89	-30.6	-34.6	11.4	1.00e-03	0	43	0	214958080	21	5730
2026-01-17 02:40:52.96	353.17	13.94	-30.5	-34.4	11.6	1.49e-03	0	43	0	217055232	21	5615
2026-01-17 02:40:53.96	353.00	14.00	-30.4	-34.6	11.7	2.77e-03	0	43	0	219152384	20	5829
2026-01-17 02:40:54.96	352.82	14.06	-30.4	-34.6	11.8	4.50e-04	0	43	0	221249536	20	5811
2026-01-17 02:40:55.97	352.65	14.11	-30.4	-34.6	11.8	7.76e-04	0	43	0	223346688	20	5804
2026-01-17 02:40:56.97	352.48	14.17	-30.4	-34.4	11.9	2.35e-03	0	43	0	225443840	20	5725
2026-01-17 02:40:57.97	352.30	14.22	-30.3	-34.2	12.1	2.81e-04	0	43	0	226492416	20	5627
2026-01-17 02:40:58.97	352.13	14.28	-30.3	-34.1	12.1	6.14e-04	0	43	0	228589568	20	5596
2026-01-17 02:40:59.96	351.96	14.33	-30.4	-34.4	11.9	6.16e-04	0	43	0	230686720	20	5736
2026-01-17 02:41:00.95	351.78	14.39	-30.2	-33.8	12.3	2.28e-04	0	43	0	232783872	20	5492
2026-01-17 02:41:01.95	351.61	14.44	-30.1	-33.7	12.4	4.48e-04	0	43	0	233832448	20	5456
2026-01-17 02:41:02.96	351.43	14.49	-30.1	-33.6	12.5	4.18e-04	0	43	0	235929600	20	5407
2026-01-17 02:41:03.95	351.25	14.55	-30.1	-33.8	12.4	1.17e-04	0	43	0	238026752	20	5479
2026-01-17 02:41:04.96	351.07	14.60	-30.0	-33.5	12.5	1.21e-04	0	43	0	240123904	20	5372
2026-01-17 02:41:05.96	350.89	14.66	-30.1	-33.6	12.5	5.07e-04	0	43	0	242221056	20	5425
2026-01-17 02:41:06.97	350.71	14.71	-30.1	-33.8	12.4	1.36e-04	0	43	0	243269632	20	5484
2026-01-17 02:41:07.96	350.53	14.76	-30.0	-33.3	12.7	8.54e-05	0	43	0	245366784	20	5301
2026-01-17 02:41:08.97	350.35	14.82	-29.9	-33.7	12.8	4.00e-04	0	43	0	247463936	19	5557
2026-01-17 02:41:09.97	350.17	14.87	-29.9	-33.7	12.8	4.80e-05	0	43	0	249561088	19	5579
2026-01-17 02:41:10.98	349.98	14.93	-29.9	-33.6	12.9	4.04e-05	0	43	0	251658240	19	5502
2026-01-17 02:41:11.98	349.80	14.98	-29.8	-33.4	13.1	3.20e-05	0	43	0	252706816	19	5408
2026-01-17 02:41:12.97	349.62	15.03	-29.7	-33.0	13.3	2.28e-05	0	43	0	254803968	19	5251
2026-01-17 02:41:13.96	349.44	15.08	-29.8	-33.3	13.2	2.86e-04	0	43	0	256901120	19	5366
2026-01-17 02:41:14.96	349.25	15.13	-29.7	-33.1	13.3	2.36e-05	0	43	0	258998272	19	5282
2026-01-17 02:41:15.96	349.07	15.19	-29.7	-33.0	13.4	1.67e-05	0	43	0	260046848	19	5247
2026-01-17 02:41:16.97	348.88	15.24	-29.6	-32.8	13.4	2.41e-04	0	43	0	262144000	19	5201
2026-01-17 02:41:17.97	348.69	15.29	-29.7	-33.1	13.3	1.60e-05	0	43	0	264241152	19	5306
2026-01-17 02:41:18.97	348.50	15.34	-29.5	-32.6	13.5	1.22e-05	0	43	0	266338304	19	5148
2026-01-17 02:41:19.97	348.32	15.39	-29.5	-32.5	13.6	2.32e-04	0	43	0	268435456	19	5080
2026-01-17 02:41:20.97	348.13	15.45	-29.5	-32.5	13.6	2.62e-04	0	43	0	269484032	19	5070
2026-01-17 02:41:21.98	347.94	15.50	-29.5	-32.3	13.8	6.10e-06	0	43	0	271581184	19	4973
2026-01-17 02:41:22.98	347.75	15.55	-29.5	-32.3	13.9	3.00e-06	0	43	0	273678336	19	4962
2026-01-17 02:41:23.98	347.55	15.60	-29.5	-32.4	13.8	1.66e-04	0	43	0	275775488	19	5007
2026-01-17 02:41:24.99	347.36	15.65	-29.4	-31.9	14.1	1.50e-06	0	43	0	277872640	19	4839
2026-01-17 02:41:25.99	347.17	15.70	-29.4	-31.9	14.1	1.50e-06	0	43	0	278921216	19	4846
2026-01-17 02:41:27.00	346.97	15.75	-29.4	-31.9	14.1	1.46e-04	0	43	0	281018368	19	4850
2026-01-17 02:41:27.99	346.78	15.80	-29.4	-32.1	14.0	7.00e-07	0	43	0	283115520	19	4899
2026-01-17 02:41:29.00	346.59	15.85	-29.3	-32.0	14.1	3.00e-06	0	43	0	285212672	19	4872
2026-01-17 02:41:30.00	346.39	15.90	-28.5	-31.6	14.0	2.20e-06	0	43	0	287309824	18	5179
2026-01-17 02:41:31.00	346.20	15.95	-29.3	-32.4	14.1	7.00e-07	0	43	0	288358400	18	5151
2026-01-17 02:41:32.00	346.00	15.99	-29.3	-32.5	13.0	3.00e-06	0	43	0	290455552	18	5162
2026-01-17 02:41:33.01	345.80	16.04	-29.4	-32.6	12.7	2.20e-06	0	43	0	292552704	18	5199
2026-01-17 02:41:34.01	345.61	16.09	-29.3	-32.4	14.1	4.50e-06	0	43	0	294649856	18	5130
2026-01-17 02:41:35.00	345.41	16.14	-29.5	-32.7	13.1	1.86e-04	0	43	0	295698432	18	5251
2026-01-17 02:41:36.00	345.21	16.19	-29.4	-32.6	13.6	3.80e-06	0	43	0	297795584	18	5195
2026-01-17 02:41:37.01	345.01	16.23	-29.3	-32.3	14.2	5.30e-06	0	43	0	299892736	18	5086
2026-01-17 02:41:38.01	344.81	16.28	-29.3	-32.4	14.1	2.01e-04	0	43	0	301989888	18	5123
2026-01-17 02:41:39.02	344.61	16.33	-29.5	-32.4	13.8	7.74e-04	0	43	0	304087040	19	5005
2026-01-17 02:41:40.03	344.40	16.38	-29.8	-33.1	13.4	9.90e-06	0	43	0	306184192	19	5257
2026-01-17 02:41:41.03	344.20	16.42	-29.6	-32.7	13.6	7.60e-06	0	43	0	307232768	19	5115
2026-01-17 02:41:42.03	344.00	16.47	-29.9	-33.5	13.1	2.33e-03	0	43	0	309329920	19	5413
2026-01-17 02:41:43.03	343.80	16.51	-29.7	-32.7	13.7	8.30e-06	0	43	0	311427072	19	5128
2026-01-17 02:41:44.04	343.59	16.56	-29.6	-32.7	13.7	8.30e-06	0	43	0	313524224	19	5100
2026-01-17 02:41:45.04	343.39	16.61	-29.7	-32.9	13.6	1.47e-04	0	43	0	314572800	19	5199
2026-01-17 02:41:46.04	343.18	16.65	-29.8	-33.1	13.4	1.90e-05	0	43	0	316669952	19	5265
2026-01-17 02:41:47.05	342.97	16.70	-29.7	-32.8	13.6	6.80e-06	0	43	0	318767104	19	5133
2026-01-17 02:41:48.04	342.77	16.74	-29.7	-32.8	13.6	2.20e-06	0	43	0	320864256	19	5145
2026-01-17 02:41:49.04	342.56	16.78	-29.7	-32.8	13.6	7.47e-05	0	43	0	322961408	19	5168
2026-01-17 02:41:50.04	342.36	16.83	-29.9	-33.3	13.3	1.06e-05	0	43	0	324009984	19	5335
2026-01-17 02:41:51.04	342.15	16.87	-30.1	-33.3	12.9	3.20e-05	0	43	0	326107136	20	5255
2026-01-17 02:41:52.04	341.94	16.91	-30.3	-34.0	12.4	4.11e-05	0	43	0	328204288	20	5511
2026-01-17 02:41:53.04	341.73	16.96	-30.2	-33.8	12.6	2.98e-03	0	43	0	330301440	20	5431
2026-01-17 02:41:54.04	341.52	17.00	-30.0	-33.5	13.2	1.52e-05	0	43	0	332398592	19	5418
2026-01-17 02:41:55.04	341.31	17.04	-29.9	-33.3	13.3	1.98e-05	0	43	0	333447168	19	5337
2026-01-17 02:41:56.04	341.10	17.08	-30.0	-33.0	13.1	2.76e-03	0	43	0	335544320	20	5130
2026-01-17 02:41:57.05	340.88	17.12	-29.8	-33.1	13.4	2.16e-03	0	43	0	337641472	19	5271
2026-01-17 02:41:58.05	340.67	17.17	-30.1	-33.4	12.9	3.20e-05	0	43	0	339738624	20	5273
2026-01-17 02:41:59.06	340.46	17.21	-29.8	-33.1	13.4	3.43e-05	0	43	0	340787200	19	5256
2026-01-17 02:42:00.05	340.25	17.25	-30.4	-34.5	12.2	3.10e-03	0	43	0	342884352	20	5726
2026-01-17 02:42:01.06	340.03	17.29	-29.9	-32.7	13.3	2.02e-04	0	43	0	344981504	20	5019
2026-01-17 02:42:02.06	339.82	17.33	-30.1	-33.5	12.9	2.44e-05	0	43	0	347078656	20	5327
2026-01-17 02:42:03.07	339.60	17.37	-29.7	-32.8	13.6	2.88e-03	0	43	0	349175808	19	5154
2026-01-17 02:42:04.07	339.38	17.41	-29.6	-32.6	13.7	2.39e-04	0	43	0	351272960	19	5084
2026-01-17 02:42:05.07	339.17	17.45	-29.5	-32.3	14.0	7.60e-06	0	43	0	352321536	19	4959
2026-01-17 02:42:06.06	338.95	17.48	-29.4	-32.4	14.3	2.50e-03	0	43	0	354418688	18	5101
2026-01-17 02:42:07.06	338.73	17.52	-29.2	-32.1	14.5	2.61e-04	0	43	0	356515840	18	4984
2026-01-17 02:42:08.06	338.52	17.56	-29.4	-32.4	14.3	0.00e+00	0	43	0	358612992	18	5084
2026-01-17 02:42:09.06	338.30	17.60	-29.2	-32.0	14.5	7.00e-07	0	43	0	359661568	18	4954
2026-01-17 02:42:10.07	338.08	17.63	-29.1	-31.7	14.7	2.18e-04	0	43	0	361758720	18	4860
2026-01-17 02:42:11.07	337.86	17.67	-29.0	-31.5	14.8	2.72e-03	0	43	0	363855872	18	4777
2026-01-17 02:42:12.07	337.64	17.71	-29.1	-31.6	14.7	0.00e+00	0	44	0	365953024	18	4827
2026-01-17 02:42:13.06	337.42	17.74	-29.1	-31.6	14.7	2.08e-04	0	44	0	368050176	18	4819
2026-01-17 02:42:14.07	337.19	17.78	-29.3	-32.4	14.2	2.48e-03	0	44	0	369098752	18	5100
2026-01-17 02:42:15.06	336.98	17.81	-29.2	-31.9	14.5	2.32e-03	0	43	0	371195904	18	4925
2026-01-17 02:42:16.06	336.75	17.85	-29.1	-31.8	14.6	0.00e+00	0	43	0	373293056	18	4898
2026-01-17 02:42:17.06	336.53	17.88	-29.8	-33.0	13.6	2.52e-03	0	43	0	375390208	19	5204
2026-01-17 02:42:18.06	336.31	17.91	-29.5	-32.4	14.0	2.67e-03	0	44	0	376438784	19	4992
2026-01-17 02:42:19.06	336.08	17.95	-28.8	-31.5	14.0	5.30e-06	0	43	0	378535936	19	4947
2026-01-17 02:42:20.06	335.86	17.98	-28.8	-31.5	14.8	2.44e-03	0	43	0	380633088	17	4900
2026-01-17 02:42:21.07	335.63	18.01	-28.9	-31.6	15.0	2.41e-03	0	43	0	382730240	17	4949
2026-01-17 02:42:22.06	335.41	18.05	-28.9	-31.2	14.1	3.80e-06	0	44	0	384827392	18	4690
2026-01-17 02:42:23.06	335.18	18.08	-28.9	-31.6	14.1	7.00e-07	0	44	0	385875968	17	4938
2026-01-17 02:42:24.06	334.96	18.11	-28.9	-31.5	15.2	2.30e-03	0	44	0	387973120	17	4903
2026-01-17 02:42:25.06	334.73	18.14	-28.9	-31.7	14.9	0.00e+00	0	43	0	390070272	17	4980
2026-01-17 02:42:26.06	334.50	18.17	-29.2	-31.9	14.6	0.00e+00	0	44	0	392167424	18	4916
2026-01-17 02:42:27.06	334.28	18.20	-29.4	-32.6	14.2	2.59e-03	0	43	0	394264576	18	5162
2026-01-17 02:42:28.06	334.05	18.23	-29.1	-31.8	14.7	7.00e-07	0	44	0	395313152	18	4883
2026-01-17 02:42:29.07	333.82	18.26	-29.0	-31.4	14.9	2.43e-03	0	44	0	397410304	18	4765
2026-01-17 02:42:30.06	333.59	18.29	-28.9	-31.3	15.0	0.00e+00	0	43	0	399507456	18	4706
2026-01-17 02:42:31.06	333.36	18.32	-28.9	-31.3	15.0	0.00e+00	0	44	0	401604608	18	4730
2026-01-17 02:42:32.06	333.13	18.34	-29.1	-31.8	14.6	2.29e-03	0	43	0	402653184	18	4890
2026-01-17 02:42:33.07	332.90	18.37	-29.1	-31.7	14.7	7.00e-07	0	43	0	404750336	18	4850
2026-01-17 02:42:34.07	332.67	18.40	-29.1	-31.6	14.8	6.06e-04	0	44	0	406847488	18	4821
2026-01-17 02:42:35.07	332.44	18.42	-29.2	-31.9	14.5	2.11e-03	0	43	0	408944640	18	4918
2026-01-17 02:42:36.06	332.21	18.45	-29.2	-31.9	14.6	2.45e-03	0	43	0	411041792	18	4914
2026-01-17 02:42:37.07	331.97	18.48	-29.1	-31.8	14.6	3.68e-04	0	44	0	413138944	18	4888
2026-01-17 02:42:38.07	331.74	18.50	-29.1	-31.6	14.8	2.37e-03	0	43	0	414187520	18	4829
2026-01-17 02:42:39.08	331.51	18.53	-29.3	-32.1	14.4	2.24e-03	0	43	0	416284672	18	5000
2026-01-17 02:42:40.08	331.27	18.55	-29.1	-31.8	14.6	0.00e+00	0	43	0	418381824	18	4896
2026-01-17 02:42:41.08	331.04	18.57	-29.1	-31.8	14.6	3.41e-03	0	44	0	420478976	18	4905
2026-01-17 02:42:42.08	330.81	18.60	-29.2	-32.1	14.5	2.28e-03	0	44	0	421527552	18	4985
2026-01-17 02:42:43.08	330.57	18.62	-29.3	-32.4	14.3	3.80e-06	0	43	0	423624704	18	5090
2026-01-17 02:42:44.08	330.34	18.64	-29.5	-32.3	14.0	3.33e-03	0	43	0	425721856	19	4964
2026-01-17 02:42:45.08	330.10	18.66	-29.5	-32.3	14.0	2.51e-03	0	44	0	427819008	19	4975
2026-01-17 02:42:46.08	329.87	18.68	-29.6	-32.6	13.8	0.00e+00	0	43	0	429916160	19	5081
2026-01-17 02:42:47.08	329.63	18.71	-29.7	-32.7	13.7	2.51e-03	0	44	0	430964736	19	5103
2026-01-17 02:42:48.07	329.40	18.73	-29.7	-32.8	13.6	2.47e-03	0	43	0	433061888	19	5158
2026-01-17 02:42:49.08	329.16	18.75	-29.7	-32.7	13.7	6.80e-06	0	44	0	435159040	19	5126
2026-01-17 02:42:50.08	328.92	18.77	-29.7	-32.9	13.5	2.51e-03	0	44	0	437256192	19	5183
2026-01-17 02:42:51.09	328.68	18.78	-29.8	-33.2	13.4	2.31e-03	0	44	0	439353344	19	5289
2026-01-17 02:42:52.09	328.45	18.80	-29.9	-33.4	13.3	8.15e-04	0	44	0	440401920	19	5356
2026-01-17 02:42:53.09	328.21	18.82	-30.1	-33.3	12.9	2.30e-03	0	43	0	442499072	20	5240
2026-01-17 02:42:54.10	327.97	18.84	-30.0	-33.3	12.9	5.11e-05	0	43	0	444596224	20	5248
2026-01-17 02:42:55.10	327.73	18.85	-29.8	-33.2	13.4	6.74e-04	0	44	0	446693376	19	5293
2026-01-17 02:42:56.09	327.50	18.87	-29.7	-32.9	13.6	2.48e-03	0	44	0	448790528	19	5163
2026-01-17 02:42:57.09	327.26	18.89	-29.8	-33.2	13.4	2.30e-03	0	43	0	449839104	19	5289
2026-01-17 02:42:58.09	327.02	18.90	-29.9	-33.3	13.3	4.96e-04	0	43	0	451936256	19	5333
2026-01-17 02:42:59.09	326.78	18.92	-29.9	-32.9	13.2	2.75e-03	0	43	0	454033408	20	5075
2026-01-17 02:43:00.09	326.54	18.93	-29.8	-33.2	13.4	2.15e-03	0	44	0	456130560	19	5303
2026-01-17 02:43:01.09	326.30	18.95	-29.8	-33.2	13.4	4.90e-04	0	44	0	457179136	19	5287
2026-01-17 02:43:02.09	326.06	18.96	-29.9	-33.2	13.4	2.61e-03	0	44	0	459276288	19	5306
2026-01-17 02:43:03.09	325.82	18.97	-29.9	-33.3	13.3	2.51e-03	0	43	0	461373440	19	5351
2026-01-17 02:43:04.10	325.58	18.98	-30.0	-33.0	13.1	6.17e-05	0	43	0	463470592	20	5141
2026-01-17 02:43:05.10	325.34	19.00	-30.1	-33.5	12.7	2.60e-04	0	44	0	465567744	20	5328
2026-01-17 02:43:06.09	325.10	19.01	-30.0	-33.2	13.0	2.62e-03	0	44	0	466616320	20	5213
2026-01-17 02:43:07.09	324.86	19.02	-29.9	-32.9	13.1	1.84e-04	0	44	0	468713472	20	5106
2026-01-17 02:43:08.09	324.62	19.03	-29.9	-33.5	13.2	2.44e-05	0	44	0	470810624	19	5409
2026-01-17 02:43:09.09	324.38	19.04	-30.0	-33.5	13.2	2.14e-03	0	44	0	472907776	19	5435
2026-01-17 02:43:10.09	324.14	19.05	-30.0	-33.3	12.9	4.63e-04	0	44	0	475004928	20	5248
2026-01-17 02:43:11.09	323.90	19.06	-30.0	-33.3	12.9	2.11e-03	0	43	0	476053504	20	5247
2026-01-17 02:43:12.08	323.66	19.06	-30.1	-33.5	12.7	4.95e-05	0	44	0	478150656	20	5333
2026-01-17 02:43:13.08	323.42	19.07	-30.1	-33.5	12.8	8.47e-04	0	44	0	480247808	20	5327
2026-01-17 02:43:14.08	323.18	19.08	-30.1	-33.5	12.8	2.74e-03	0	44	0	482344960	20	5320
2026-01-17 02:43:15.08	322.93	19.08	-30.2	-33.8	12.5	8.16e-05	0	44	0	483393536	20	5446
2026-01-17 02:43:16.08	322.69	19.09	-30.2	-33.8	12.6	5.55e-04	0	44	0	485490688	20	5429
2026-01-17 02:43:17.08	322.45	19.10	-30.4	-34.4	12.2	3.46e-03	0	44	0	487587840	20	5680
2026-01-17 02:43:18.08	322.21	19.10	-30.2	-33.8	12.6	2.71e-03	0	43	0	489684992	20	5457
2026-01-17 02:43:19.08	321.97	19.11	-30.2	-33.7	12.7	1.57e-04	0	44	0	491782144	20	5392
2026-01-17 02:43:20.08	321.72	19.11	-30.1	-33.5	12.8	2.41e-03	0	44	0	492830720	20	5325
2026-01-17 02:43:21.08	321.48	19.11	-30.1	-33.5	12.8	2.45e-03	0	43	0	494927872	20	5322
2026-01-17 02:43:22.08	321.24	19.12	-29.9	-33.0	13.1	5.34e-05	0	43	0	497025024	20	5136
2026-01-17 02:43:23.08	321.00	19.12	-29.9	-33.4	13.3	2.67e-05	0	44	0	499122176	19	5366
2026-01-17 02:43:24.08	320.75	19.12	-29.8	-33.2	13.4	1.98e-03	0	43	0	501219328	19	5298
2026-01-17 02:43:25.08	320.51	19.12	-29.9	-33.4	13.3	2.38e-04	0	43	0	502267904	19	5377
2026-01-17 02:43:26.08	320.27	19.12	-30.0	-33.3	12.9	3.81e-05	0	43	0	504365056	20	5249
2026-01-17 02:43:27.09	320.03	19.12	-30.1	-33.4	12.8	2.42e-03	0	43	0	506462208	20	5263
2026-01-17 02:43:28.08	319.79	19.12	-29.9	-32.8	13.3	9.71e-04	0	43	0	508559360	20	5041
2026-01-17 02:43:29.09	319.54	19.12	-29.8	-33.1	13.4	1.67e-05	0	43	0	510656512	19	5262
2026-01-17 02:43:30.09	319.30	19.12	-29.9	-33.5	13.1	3.12e-05	0	43	0	511705088	19	5410
2026-01-17 02:43:31.09	319.06	19.12	-29.9	-33.4	13.2	1.31e-03	0	44	0	513802240	19	5358
2026-01-17 02:43:32.08	318.82	19.11	-29.9	-33.4	13.3	1.76e-03	0	43	0	515899392	19	5384
2026-01-17 02:43:33.08	318.57	19.11	-30.2	-33.6	12.7	4.11e-05	0	43	0	517996544	20	5363
2026-01-17 02:43:34.08	318.33	19.11	-30.4	-34.3	12.2	4.58e-04	0	44	0	519045120	20	5662
2026-01-17 02:43:35.08	318.09	19.10	-30.3	-33.9	12.6	1.79e-03	0	43	0	521142272	20	5464
2026-01-17 02:43:36.09	317.84	19.10	-30.4	-34.5	12.2	1.69e-04	0	43	0	523239424	20	5720
2026-01-17 02:43:37.09	317.60	19.09	-30.5	-34.1	12.0	7.32e-04	0	44	0	525336576	21	5470
2026-01-17 02:43:38.09	317.36	19.09	-30.7	-34.8	11.5	3.26e-03	0	43	0	527433728	21	5768
2026-01-17 02:43:39.09	317.12	19.08	-30.5	-34.1	12.0	2.85e-03	0	43	0	528482304	21	5455
2026-01-17 02:43:40.09	316.88	19.07	-30.3	-34.1	12.4	7.63e-04	0	44	0	530579456	20	5555
2026-01-17 02:43:41.10	316.63	19.07	-30.1	-33.4	12.8	1.00e-03	0	43	0	532676608	20	5282
2026-01-17 02:43:42.10	316.39	19.06	-30.0	-33.1	13.1	2.31e-03	0	43	0	534773760	20	5150
2026-01-17 02:43:43.11	316.15	19.05	-29.9	-33.0	13.1	9.54e-04	0	44	0	536870912	20	5122
2026-01-17 02:43:44.11	315.91	19.04	-29.8	-33.2	13.3	8.90e-04	0	44	0	537919488	19	5311
2026-01-17 02:43:45.12	315.66	19.03	-29.9	-33.3	13.3	2.11e-03	0	43	0	540016640	19	5329
2026-01-17 02:43:46.12	315.42	19.02	-30.1	-33.4	12.8	2.36e-05	0	43	0	542113792	20	5276
2026-01-17 02:43:47.12	315.18	19.01	-30.3	-34.0	12.5	3.36e-04	0	44	0	544210944	20	5507
2026-01-17 02:43:48.12	314.94	19.00	-29.8	-32.5	13.4	5.56e-05	0	43	0	546308096	20	4951
2026-01-17 02:43:49.13	314.70	18.99	-29.5	-32.4	13.9	4.50e-06	0	43	0	547356672	19	4991
2026-01-17 02:43:50.12	314.46	18.98	-29.3	-32.1	14.3	4.44e-04	0	44	0	549453824	18	5012
2026-01-17 02:43:51.13	314.22	18.96	-29.2	-32.0	14.5	7.00e-07	0	44	0	551550976	18	4966
2026-01-17 02:43:52.12	313.98	18.95	-29.2	-32.0	14.5	7.53e-04	0	44	0	553648128	18	4972
2026-01-17 02:43:53.13	313.74	18.94	-29.2	-32.0	14.5	7.00e-07	0	44	0	555745280	18	4952
2026-01-17 02:43:54.13	313.50	18.92	-29.2	-32.1	14.4	0.00e+00	0	44	0	556793856	18	5000
2026-01-17 02:43:55.14	313.26	18.91	-29.3	-32.2	14.3	1.57e-03	0	44	0	558891008	18	5031
2026-01-17 02:43:56.14	313.02	18.89	-29.2	-32.0	14.5	1.50e-06	0	44	0	560988160	18	4971
2026-01-17 02:43:57.15	312.78	18.88	-29.3	-32.3	14.3	3.00e-06	0	44	0	563085312	18	5061
2026-01-17 02:43:58.15	312.54	18.86	-29.5	-32.2	14.0	1.60e-03	0	43	0	564133888	19	4931
2026-01-17 02:43:59.15	312.30	18.85	-29.2	-32.1	14.4	1.59e-03	0	44	0	566231040	18	4997
2026-01-17 02:44:00.15	312.06	18.83	-29.1	-31.7	14.6	7.00e-07	0	44	0	568328192	18	4878
2026-01-17 02:44:01.15	311.82	18.81	-29.1	-31.8	14.6	1.42e-03	0	44	0	570425344	18	4884
2026-01-17 02:44:02.16	311.58	18.79	-29.0	-31.4	14.8	1.44e-03	0	43	0	572522496	18	4774
2026-01-17 02:44:03.16	311.35	18.77	-28.9	-31.7	14.9	0.00e+00	0	44	0	573571072	17	4971
2026-01-17 02:44:04.15	311.11	18.75	-28.9	-31.7	14.9	0.00e+00	0	44	0	575668224	17	4978
2026-01-17 02:44:05.16	310.87	18.74	-28.9	-31.7	14.9	1.69e-03	0	44	0	577765376	17	4994
2026-01-17 02:44:06.16	310.64	18.71	-28.8	-31.4	15.1	0.00e+00	0	43	0	579862528	17	4883
2026-01-17 02:44:07.16	310.40	18.69	-28.7	-31.1	15.3	0.00e+00	0	44	0	581959680	17	4779
2026-01-17 02:44:08.17	310.16	18.67	-28.7	-31.2	15.2	1.53e-03	0	44	0	583008256	17	4805
2026-01-17 02:44:09.17	309.93	18.65	-28.7	-31.2	15.2	0.00e+00	0	43	0	585105408	17	4794
2026-01-17 02:44:10.17	309.69	18.63	-28.6	-30.9	15.4	0.00e+00	0	44	0	587202560	17	4709
2026-01-17 02:44:11.17	309.46	18.61	-28.7	-31.1	15.3	0.00e+00	0	44	0	589299712	17	4779
2026-01-17 02:44:12.18	309.22	18.58	-28.7	-31.1	15.3	0.00e+00	0	44	0	591396864	17	4787
2026-01-17 02:44:13.18	308.99	18.56	-28.8	-31.6	15.0	0.00e+00	0	44	0	592445440	17	4928
2026-01-17 02:44:14.19	308.75	18.54	-28.8	-31.6	15.0	7.00e-07	0	44	0	594542592	17	4935
2026-01-17 02:44:15.18	308.52	18.51	-28.9	-31.7	14.9	0.00e+00	0	44	0	596639744	17	4975
2026-01-17 02:44:16.19	308.29	18.49	-28.9	-31.7	15.0	3.96e-04	0	44	0	598736896	17	4965
2026-01-17 02:44:17.19	308.05	18.46	-28.9	-31.8	14.9	0.00e+00	0	43	0	600834048	17	5000
2026-01-17 02:44:18.19	307.82	18.44	-28.9	-31.7	14.9	0.00e+00	0	43	0	601882624	17	4974
2026-01-17 02:44:19.20	307.59	18.41	-29.0	-31.9	14.8	3.21e-04	0	43	0	603979776	17	5061
2026-01-17 02:44:20.19	307.36	18.38	-29.0	-31.6	14.7	0.00e+00	0	44	0	606076928	18	4855
2026-01-17 02:44:21.20	307.13	18.35	-28.5	-31.4	14.3	3.80e-06	0	44	0	608174080	18	5071
2026-01-17 02:44:22.20	306.90	18.33	-27.9	-30.7	14.1	0.00e+00	0	44	0	609222656	17	5001
2026-01-17 02:44:23.20	306.67	18.30	-29.2	-32.4	13.4	2.84e-04	0	44	0	611319808	17	5249
2026-01-17 02:44:24.21	306.43	18.27	-29.2	-31.9	14.3	0.00e+00	0	43	0	613416960	18	4939
2026-01-17 02:44:25.21	306.21	18.24	-29.3	-32.3	13.1	0.00e+00	0	44	0	615514112	18	5064
2026-01-17 02:44:26.21	305.98	18.21	-29.4	-32.4	13.1	1.47e-03	0	43	0	617611264	18	5124
2026-01-17 02:44:27.21	305.75	18.18	-29.5	-32.7	13.9	3.80e-06	0	43	0	618659840	18	5216
2026-01-17 02:44:28.21	305.52	18.15	-29.4	-32.4	13.9	3.00e-06	0	43	0	620756992	18	5122
2026-01-17 02:44:29.21	305.29	18.12	-29.2	-31.9	14.3	7.00e-07	0	43	0	622854144	18	4942
2026-01-17 02:44:30.21	305.07	18.09	-29.4	-32.6	14.1	7.00e-07	0	43	0	624951296	18	5172
2026-01-17 02:44:31.21	304.84	18.06	-29.2	-32.0	14.4	7.00e-07	0	44	0	627048448	18	4959
2026-01-17 02:44:32.21	304.62	18.03	-29.1	-31.8	14.6	0.00e+00	0	44	0	628097024	18	4893
2026-01-17 02:44:33.21	304.39	17.99	-29.1	-31.7	14.6	7.00e-07	0	44	0	630194176	18	4859
2026-01-17 02:44:34.21	304.16	17.96	-29.1	-31.7	14.6	2.34e-03	0	43	0	632291328	18	4869
2026-01-17 02:44:35.21	303.94	17.93	-29.2	-32.1	14.4	1.50e-06	0	44	0	634388480	18	4984
2026-01-17 02:44:36.21	303.72	17.89	-29.4	-32.5	14.1	0.00e+00	0	44	0	635437056	18	5145
2026-01-17 02:44:37.21	303.49	17.86	-29.4	-32.6	14.1	1.11e-03	0	43	0	637534208	18	5170
2026-01-17 02:44:38.21	303.27	17.83	-29.4	-32.4	14.2	7.00e-07	0	44	0	639631360	18	5120
2026-01-17 02:44:39.21	303.05	17.79	-29.5	-32.2	14.0	3.00e-06	0	43	0	641728512	19	4931
2026-01-17 02:44:40.21	302.83	17.76	-29.6	-32.6	13.7	3.00e-06	0	44	0	643825664	19	5092
2026-01-17 02:44:41.21	302.60	17.72	-29.7	-32.7	13.7	1.66e-03	0	44	0	644874240	19	5106
2026-01-17 02:44:42.21	302.38	17.68	-29.7	-32.9	13.5	9.10e-06	0	44	0	646971392	19	5183
2026-01-17 02:44:43.21	302.16	17.65	-29.8	-33.0	13.5	8.30e-06	0	44	0	649068544	19	5221
2026-01-17 02:44:44.21	301.94	17.61	-29.8	-33.1	13.4	2.98e-04	0	43	0	651165696	19	5259
2026-01-17 02:44:45.21	301.72	17.57	-29.8	-33.2	13.3	2.13e-05	0	44	0	653262848	19	5297
2026-01-17 02:44:46.21	301.51	17.54	-29.8	-33.0	13.4	1.67e-05	0	44	0	654311424	19	5233
2026-01-17 02:44:47.21	301.29	17.50	-29.8	-33.1	13.4	1.83e-05	0	44	0	656408576	19	5274
2026-01-17 02:44:48.21	301.07	17.46	-29.8	-33.0	13.4	3.20e-04	0	43	0	658505728	19	5243
2026-01-17 02:44:49.21	300.85	17.42	-29.6	-32.7	13.6	1.37e-05	0	44	0	660602880	19	5112
2026-01-17 02:44:50.21	300.64	17.38	-29.5	-32.4	13.8	6.80e-06	0	44	0	662700032	19	5004
2026-01-17 02:44:51.22	300.42	17.34	-29.4	-32.2	14.0	1.89e-04	0	44	0	663748608	19	4918
2026-01-17 02:44:52.22	300.20	17.30	-29.5	-32.3	13.9	1.16e-04	0	44	0	665845760	19	4954
2026-01-17 02:44:53.22	299.99	17.26	-29.6	-32.4	13.8	6.10e-06	0	44	0	667942912	19	5015
2026-01-17 02:44:54.23	299.77	17.22	-29.7	-32.8	13.5	6.17e-05	0	44	0	670040064	19	5159
2026-01-17 02:44:55.23	299.56	17.18	-29.7	-32.7	13.7	1.59e-03	0	44	0	672137216	19	5114
2026-01-17 02:44:56.23	299.35	17.14	-29.8	-33.0	13.4	1.06e-05	0	44	0	673185792	19	5228
2026-01-17 02:44:57.24	299.13	17.10	-29.6	-32.5	13.8	8.30e-06	0	44	0	675282944	19	5038
2026-01-17 02:44:58.24	298.92	17.06	-29.4	-32.1	14.0	1.90e-03	0	44	0	677380096	19	4910
2026-01-17 02:44:59.25	298.71	17.01	-29.3	-32.3	14.2	2.04e-03	0	44	0	679477248	18	5089
2026-01-17 02:45:00.25	298.50	16.97	-29.5	-32.2	13.9	5.30e-06	0	44	0	680525824	19	4931
2026-01-17 02:45:01.25	298.29	16.93	-29.4	-32.5	13.7	2.44e-03	0	44	0	682622976	18	5153
2026-01-17 02:45:02.25	298.08	16.89	-29.4	-32.0	14.1	2.21e-03	0	44	0	684720128	19	4857
2026-01-17 02:45:03.26	297.87	16.84	-29.5	-32.7	13.8	1.50e-06	0	44	0	686817280	18	5237
2026-01-17 02:45:04.26	297.66	16.80	-29.6	-32.6	13.6	5.30e-06	0	44	0	688914432	19	5079
2026-01-17 02:45:05.26	297.45	16.75	-29.6	-32.5	13.7	2.12e-03	0	44	0	689963008	19	5057
2026-01-17 02:45:06.27	297.24	16.71	-29.6	-32.6	13.6	1.04e-03	0	44	0	692060160	19	5088
2026-01-17 02:45:07.26	297.04	16.66	-29.7	-32.7	13.6	7.60e-06	0	44	0	694157312	19	5117
2026-01-17 02:45:08.26	296.83	16.62	-29.6	-32.6	13.7	2.38e-03	0	44	0	696254464	19	5081
2026-01-17 02:45:09.26	296.63	16.57	-29.7	-32.7	13.6	7.76e-04	0	43	0	698351616	19	5135
2026-01-17 02:45:10.26	296.42	16.53	-29.6	-32.7	13.6	1.93e-03	0	44	0	699400192	19	5119
2026-01-17 02:45:11.26	296.22	16.48	-29.6	-32.5	13.7	9.90e-06	0	44	0	701497344	19	5035
2026-01-17 02:45:12.26	296.01	16.44	-29.5	-32.4	13.8	3.70e-04	0	44	0	703594496	19	5028
2026-01-17 02:45:13.26	295.81	16.39	-29.5	-32.2	13.9	2.24e-03	0	43	0	705691648	19	4955
2026-01-17 02:45:14.26	295.61	16.34	-29.5	-32.3	13.8	6.10e-06	0	43	0	707788800	19	4983
2026-01-17 02:45:15.27	295.41	16.30	-29.7	-32.8	13.6	1.36e-03	0	44	0	708837376	19	5154
2026-01-17 02:45:16.27	295.20	16.25	-29.8	-33.1	13.3	2.27e-03	0	44	0	710934528	19	5276
2026-01-17 02:45:17.27	295.00	16.20	-29.8	-33.2	13.3	2.63e-03	0	44	0	713031680	19	5323
2026-01-17 02:45:18.28	294.80	16.15	-29.9	-33.4	13.1	1.71e-03	0	44	0	715128832	19	5392
2026-01-17 02:45:19.28	294.60	16.11	-29.9	-33.5	13.0	4.11e-03	0	44	0	717225984	19	5419
2026-01-17 02:45:20.28	294.41	16.06	-29.9	-33.1	12.9	2.81e-03	0	44	0	718274560	20	5189
2026-01-17 02:45:21.28	294.21	16.01	-30.0	-33.6	13.0	3.96e-05	0	44	0	720371712	19	5481
2026-01-17 02:45:22.28	294.01	15.96	-29.9	-33.3	13.2	3.62e-03	0	44	0	722468864	19	5358
2026-01-17 02:45:23.29	293.81	15.91	-29.8	-33.1	13.4	2.77e-03	0	43	0	724566016	19	5278
2026-01-17 02:45:24.29	293.62	15.86	-29.8	-33.2	13.2	6.49e-04	0	44	0	726663168	19	5318
2026-01-17 02:45:25.29	293.42	15.81	-29.8	-33.1	13.2	4.30e-03	0	44	0	727711744	19	5283
2026-01-17 02:45:26.29	293.23	15.76	-29.9	-33.5	13.0	2.95e-03	0	44	0	729808896	19	5416
2026-01-17 02:45:27.30	293.03	15.71	-29.8	-33.3	13.2	9.32e-04	0	44	0	731906048	19	5342
2026-01-17 02:45:28.30	292.84	15.66	-29.9	-32.9	13.0	2.82e-03	0	44	0	734003200	20	5112
2026-01-17 02:45:29.31	292.65	15.61	-29.9	-33.5	13.0	2.65e-03	0	44	0	735051776	19	5440
2026-01-17 02:45:30.31	292.45	15.56	-29.9	-33.4	13.1	1.45e-03	0	44	0	737148928	19	5382
2026-01-17 02:45:31.31	292.26	15.51	-29.9	-33.6	12.9	2.51e-03	0	44	0	739246080	19	5473
2026-01-17 02:45:32.31	292.07	15.46	-30.0	-33.2	12.8	2.41e-03	0	44	0	741343232	20	5226
2026-01-17 02:45:33.32	291.88	15.41	-30.2	-33.8	12.4	2.10e-03	0	44	0	743440384	20	5474
2026-01-17 02:45:34.32	291.69	15.36	-30.0	-33.4	12.6	2.60e-03	0	43	0	744488960	20	5310
2026-01-17 02:45:35.33	291.50	15.31	-30.1	-33.5	12.6	9.99e-05	0	43	0	746586112	20	5345
2026-01-17 02:45:36.33	291.31	15.25	-30.2	-33.8	12.4	2.12e-03	0	43	0	748683264	20	5458
2026-01-17 02:45:37.33	291.13	15.20	-30.2	-33.8	12.3	5.16e-03	0	44	0	750780416	20	5467
2026-01-17 02:45:38.33	290.94	15.15	-30.1	-33.5	12.5	2.95e-03	0	44	0	752877568	20	5355
2026-01-17 02:45:39.33	290.76	15.10	-30.1	-33.7	12.4	2.11e-03	0	44	0	753926144	20	5439
2026-01-17 02:45:40.33	290.57	15.04	-30.1	-33.7	12.4	4.56e-03	0	44	0	756023296	20	5433
2026-01-17 02:45:41.33	290.39	14.99	-30.2	-34.0	12.2	2.79e-03	0	44	0	758120448	20	5556
2026-01-17 02:45:42.33	290.20	14.94	-30.2	-33.9	12.2	2.15e-03	0	44	0	760217600	20	5534
2026-01-17 02:45:43.33	290.02	14.89	-30.3	-34.1	12.0	4.90e-03	0	43	0	762314752	20	5626
2026-01-17 02:45:44.33	289.84	14.83	-30.5	-34.8	11.6	3.25e-03	0	44	0	763363328	20	5904
2026-01-17 02:45:45.34	289.65	14.78	-30.4	-34.6	11.8	5.79e-04	0	44	0	765460480	20	5814
2026-01-17 02:45:46.34	289.47	14.72	-30.6	-34.6	11.4	3.17e-03	0	44	0	767557632	21	5721
2026-01-17 02:45:47.34	289.29	14.67	-30.7	-35.1	11.0	4.62e-03	0	44	0	769654784	21	5968
2026-01-17 02:45:48.34	289.11	14.62	-30.6	-34.6	11.3	3.51e-03	0	44	0	771751936	21	5739
2026-01-17 02:45:49.34	288.93	14.56	-30.8	-35.3	10.8	3.54e-03	0	44	0	772800512	21	6046
2026-01-17 02:45:50.34	288.75	14.51	-30.6	-34.7	11.3	4.30e-03	0	44	0	774897664	21	5768
2026-01-17 02:45:51.35	288.57	14.45	-30.4	-34.7	11.6	2.38e-03	0	44	0	776994816	20	5875
2026-01-17 02:45:52.35	288.40	14.40	-30.3	-34.4	11.8	2.87e-03	0	44	0	779091968	20	5748
2026-01-17 02:45:53.35	288.22	14.34	-30.3	-34.4	11.8	7.36e-04	0	44	0	780140544	20	5755
2026-01-17 02:45:54.36	288.04	14.29	-30.3	-34.3	11.9	1.92e-03	0	44	0	782237696	20	5696
2026-01-17 02:45:55.36	287.87	14.23	-30.2	-33.8	12.2	3.76e-03	0	44	0	784334848	20	5507
2026-01-17 02:45:56.36	287.69	14.18	-30.2	-33.8	12.2	2.29e-04	0	44	0	786432000	20	5501
2026-01-17 02:45:57.37	287.52	14.12	-30.3	-34.2	11.9	2.05e-03	0	44	0	788529152	20	5676
2026-01-17 02:45:58.37	287.34	14.07	-30.3	-34.4	11.8	4.83e-03	0	44	0	789577728	20	5757
2026-01-17 02:45:59.37	287.17	14.01	-30.4	-34.7	11.6	5.92e-04	0	44	0	791674880	20	5911
2026-01-17 02:46:00.36	287.00	13.96	-30.5	-34.5	11.3	2.91e-03	0	44	0	793772032	21	5714
2026-01-17 02:46:01.36	286.83	13.90	-30.6	-34.8	11.1	6.48e-03	0	44	0	795869184	21	5857
2026-01-17 02:46:02.35	286.66	13.84	-30.5	-34.5	11.3	4.94e-03	0	44	0	797966336	21	5708
2026-01-17 02:46:03.36	286.49	13.79	-30.5	-34.6	11.2	3.53e-03	0	44	0	799014912	21	5760
2026-01-17 02:46:04.37	286.32	13.73	-30.6	-34.9	10.9	3.53e-03	0	44	0	801112064	21	5911
2026-01-17 02:46:05.36	286.15	13.68	-30.6	-34.9	11.0	5.08e-03	0	44	0	803209216	21	5899
2026-01-17 02:46:06.37	285.98	13.62	-30.5	-34.5	11.3	1.35e-03	0	44	0	805306368	21	5725
2026-01-17 02:46:07.37	285.81	13.56	-30.4	-34.1	11.6	3.57e-03	0	44	0	807403520	21	5514
2026-01-17 02:46:08.37	285.65	13.51	-30.5	-34.4	11.4	3.89e-03	0	44	0	808452096	21	5651
2026-01-17 02:46:09.37	285.48	13.45	-30.6	-35.0	10.9	1.90e-03	0	44	0	810549248	21	5918
2026-01-17 02:46:10.38	285.31	13.39	-30.7	-35.1	10.8	4.34e-03	0	44	0	812646400	21	6001
2026-01-17 02:46:11.38	285.15	13.33	-30.7	-35.0	10.9	1.99e-03	0	44	0	814743552	21	5928
2026-01-17 02:46:12.38	284.99	13.28	-30.8	-35.6	10.5	5.49e-03	0	43	0	816840704	21	6211
2026-01-17 02:46:13.38	284.82	13.22	-30.8	-35.4	10.6	3.71e-03	0	44	0	817889280	21	6139
2026-01-17 02:46:14.38	284.66	13.16	-30.5	-34.6	11.2	1.74e-03	0	44	0	819986432	21	5769
2026-01-17 02:46:15.38	284.50	13.10	-30.5	-35.0	11.3	3.08e-03	0	44	0	822083584	20	6033
2026-01-17 02:46:16.38	284.33	13.05	-30.6	-34.8	11.1	1.80e-03	0	43	0	824180736	21	5827
2026-01-17 02:46:17.38	284.17	12.99	-30.7	-35.1	10.9	1.58e-03	0	44	0	825229312	21	5969
2026-01-17 02:46:18.38	284.01	12.93	-30.7	-35.0	10.8	3.67e-03	0	44	0	827326464	21	5958
2026-01-17 02:46:19.38	283.85	12.87	-30.7	-35.1	10.8	5.77e-03	0	44	0	829423616	21	5969
2026-01-17 02:46:20.38	283.69	12.82	-30.7	-35.1	10.8	2.18e-03	0	44	0	831520768	21	5989
2026-01-17 02:46:21.38	283.54	12.76	-30.6	-34.9	10.9	2.18e-03	0	44	0	833617920	21	5904
2026-01-17 02:46:22.38	283.38	12.70	-30.7	-35.3	10.6	5.84e-03	0	44	0	834666496	21	6081
2026-01-17 02:46:23.38	283.22	12.64	-30.8	-35.6	10.4	5.01e-03	0	44	0	836763648	21	6252
2026-01-17 02:46:24.38	283.06	12.58	-30.7	-35.2	10.7	3.16e-03	0	44	0	838860800	21	6033
2026-01-17 02:46:25.38	282.91	12.53	-30.5	-34.7	11.1	2.58e-03	0	44	0	840957952	21	5792
2026-01-17 02:46:26.39	282.75	12.47	-30.3	-34.6	11.5	3.94e-03	0	44	0	843055104	20	5848
2026-01-17 02:46:27.39	282.60	12.41	-30.3	-34.4	11.6	7.24e-04	0	44	0	844103680	20	5787
2026-01-17 02:46:28.40	282.44	12.35	-30.4	-34.6	11.5	1.93e-03	0	44	0	846200832	20	5862
2026-01-17 02:46:29.40	282.29	12.29	-30.5	-34.5	11.2	1.21e-03	0	44	0	848297984	21	5692
2026-01-17 02:46:30.40	282.14	12.23	-30.4	-34.7	11.4	1.04e-03	0	44	0	850395136	20	5902
2026-01-17 02:46:31.40	281.98	12.17	-30.4	-34.9	11.3	9.38e-04	0	44	0	851443712	20	6015
2026-01-17 02:46:32.40	281.83	12.12	-30.5	-34.7	11.1	2.12e-03	0	44	0	853540864	21	5799
2026-01-17 02:46:33.40	281.68	12.06	-30.5	-34.7	11.1	3.75e-03	0	44	0	855638016	21	5788
2026-01-17 02:46:34.41	281.53	12.00	-30.5	-34.5	11.2	1.53e-03	0	44	0	857735168	21	5733
2026-01-17 02:46:35.41	281.38	11.94	-30.6	-34.8	11.0	1.34e-03	0	44	0	859832320	21	5848
2026-01-17 02:46:36.41	281.23	11.88	-30.5	-34.6	11.1	3.13e-03	0	44	0	860880896	21	5758
2026-01-17 02:46:37.42	281.08	11.82	-30.3	-34.3	11.8	7.56e-04	0	44	0	862978048	20	5720
2026-01-17 02:46:38.42	280.93	11.76	-30.3	-34.3	11.8	6.10e-04	0	44	0	865075200	20	5715
2026-01-17 02:46:39.43	280.78	11.70	-30.2	-34.0	11.9	1.04e-03	0	43	0	867172352	20	5579
2026-01-17 02:46:40.43	280.64	11.64	-30.2	-34.0	12.0	2.97e-04	0	43	0	869269504	20	5578
2026-01-17 02:46:41.43	280.49	11.58	-30.1	-33.8	12.1	2.73e-04	0	44	0	870318080	20	5491
2026-01-17 02:46:42.44	280.34	11.52	-30.0	-33.6	12.2	2.30e-04	0	44	0	872415232	20	5419
2026-01-17 02:46:43.44	280.20	11.46	-30.1	-33.7	12.2	2.00e-03	0	44	0	874512384	20	5457
2026-01-17 02:46:44.44	280.05	11.41	-30.1	-33.7	12.2	2.84e-04	0	43	0	876609536	20	5450
2026-01-17 02:46:45.44	279.91	11.35	-29.9	-33.2	12.5	1.44e-04	0	44	0	878706688	20	5260
2026-01-17 02:46:46.45	279.77	11.29	-29.9	-33.7	12.6	2.60e-03	0	44	0	879755264	19	5546
2026-01-17 02:46:47.45	279.62	11.23	-30.0	-33.5	12.3	1.37e-04	0	44	0	881852416	20	5387
2026-01-17 02:46:48.45	279.48	11.17	-30.0	-33.5	12.2	1.65e-04	0	44	0	883949568	20	5391
2026-01-17 02:46:49.45	279.34	11.11	-30.1	-33.8	12.0	4.88e-04	0	44	0	886046720	20	5534
2026-01-17 02:46:50.46	279.20	11.05	-29.9	-33.2	12.4	1.93e-04	0	44	0	888143872	20	5278
2026-01-17 02:46:51.46	279.06	10.99	-30.1	-33.8	12.0	2.49e-04	0	44	0	889192448	20	5502
2026-01-17 02:46:52.47	278.92	10.93	-29.9	-33.3	12.3	2.08e-04	0	44	0	891289600	20	5323
2026-01-17 02:46:53.47	278.78	10.87	-29.9	-33.3	12.4	1.54e-04	0	43	0	893386752	20	5333
2026-01-17 02:46:54.48	278.64	10.81	-29.8	-33.6	12.5	1.07e-04	0	44	0	895483904	19	5571
2026-01-17 02:46:55.48	278.50	10.75	-30.0	-34.0	12.3	7.47e-05	0	44	0	897581056	19	5703
2026-01-17 02:46:56.48	278.36	10.69	-30.0	-33.8	12.0	2.39e-04	0	44	0	898629632	20	5522
2026-01-17 02:46:57.49	278.22	10.63	-29.0	-32.9	11.7	3.48e-04	0	44	0	900726784	20	5659
2026-01-17 02:46:58.50	278.09	10.57	-30.0	-34.3	11.9	4.96e-04	0	44	0	902823936	19	5888
2026-01-17 02:46:59.50	277.95	10.51	-29.9	-33.9	12.1	2.75e-04	0	44	0	904921088	19	5652
2026-01-17 02:47:00.50	277.82	10.45	-29.9	-33.8	11.3	1.13e-04	0	44	0	907018240	19	5605
2026-01-17 02:47:01.50	277.68	10.39	-29.9	-33.8	11.2	1.78e-04	0	44	0	908066816	19	5614
2026-01-17 02:47:02.50	277.55	10.33	-29.8	-33.4	12.1	1.23e-04	0	44	0	910163968	19	5443
2026-01-17 02:47:03.50	277.41	10.27	-29.7	-33.2	12.2	9.30e-05	0	43	0	912261120	19	5352
2026-01-17 02:47:04.50	277.28	10.21	-29.8	-33.5	12.3	7.24e-05	0	44	0	914358272	19	5475
2026-01-17 02:47:05.51	277.15	10.15	-29.7	-33.2	12.8	1.17e-04	0	44	0	915406848	19	5357
2026-01-17 02:47:06.50	277.02	10.09	-29.8	-33.4	12.5	5.79e-05	0	43	0	917504000	19	5477
2026-01-17 02:47:07.50	276.89	10.03	-29.8	-33.4	12.6	1.09e-04	0	44	0	919601152	19	5447
2026-01-17 02:47:08.50	276.75	9.97	-29.6	-32.8	13.0	5.49e-05	0	44	0	921698304	19	5234
2026-01-17 02:47:09.50	276.62	9.92	-29.3	-32.7	13.4	1.75e-05	0	44	0	923795456	18	5280
2026-01-17 02:47:10.50	276.49	9.86	-29.4	-32.8	13.3	1.52e-05	0	44	0	924844032	18	5341
2026-01-17 02:47:11.50	276.37	9.80	-29.4	-32.9	13.2	2.04e-04	0	43	0	926941184	18	5386
2026-01-17 02:47:12.50	276.24	9.74	-29.3	-32.6	13.4	1.37e-05	0	43	0	929038336	18	5262
2026-01-17 02:47:13.51	276.11	9.68	-29.4	-32.8	13.3	1.75e-05	0	44	0	931135488	18	5316
2026-01-17 02:47:14.51	275.98	9.62	-29.4	-32.8	13.3	1.83e-05	0	44	0	933232640	18	5336
2026-01-17 02:47:15.51	275.85	9.56	-29.6	-32.9	12.9	2.67e-05	0	44	0	934281216	19	5258
2026-01-17 02:47:16.52	275.73	9.50	-29.6	-32.8	13.0	4.65e-05	0	44	0	936378368	19	5214
2026-01-17 02:47:17.52	275.60	9.44	-29.6	-32.8	13.0	2.97e-05	0	44	0	938475520	19	5212
2026-01-17 02:47:18.52	275.47	9.38	-29.6	-32.8	13.0	2.22e-03	0	44	0	940572672	19	5217
2026-01-17 02:47:19.52	275.35	9.32	-29.6	-32.9	12.9	4.34e-05	0	44	0	941621248	19	5275
2026-01-17 02:47:20.52	275.23	9.26	-29.5	-32.6	13.1	2.97e-05	0	44	0	943718400	19	5137
2026-01-17 02:47:21.53	275.10	9.20	-29.5	-32.8	13.0	2.28e-03	0	44	0	945815552	19	5221
2026-01-17 02:47:22.52	274.98	9.14	-29.6	-33.0	12.9	4.88e-05	0	44	0	947912704	19	5292
2026-01-17 02:47:23.52	274.86	9.08	-29.6	-32.9	12.9	4.57e-05	0	44	0	950009856	19	5260
2026-01-17 02:47:24.52	274.73	9.02	-29.5	-32.8	13.0	4.87e-03	0	44	0	952107008	19	5224
2026-01-17 02:47:25.53	274.61	8.96	-29.7	-33.3	12.6	2.47e-03	0	44	0	953155584	19	5438
2026-01-17 02:47:26.53	274.49	8.90	-29.7	-33.2	12.6	1.30e-04	0	44	0	955252736	19	5385
2026-01-17 02:47:27.53	274.37	8.84	-29.8	-33.5	12.4	1.01e-04	0	44	0	957349888	19	5522
2026-01-17 02:47:28.54	274.25	8.78	-29.7	-33.2	12.7	2.27e-03	0	44	0	959447040	19	5385
2026-01-17 02:47:29.54	274.13	8.72	-29.7	-33.2	12.6	1.10e-04	0	44	0	960495616	19	5410
2026-01-17 02:47:30.53	274.01	8.66	-29.8	-33.4	12.5	8.54e-05	0	44	0	962592768	19	5472
2026-01-17 02:47:31.53	273.89	8.60	-29.7	-33.1	12.6	2.53e-03	0	44	0	964689920	19	5381
2026-01-17 02:47:32.54	273.77	8.54	-29.8	-33.5	12.5	7.10e-04	0	44	0	966787072	19	5508
2026-01-17 02:47:33.54	273.65	8.48	-29.9	-33.9	12.2	2.15e-04	0	44	0	968884224	19	5677
2026-01-17 02:47:34.54	273.54	8.43	-29.6	-33.1	12.6	1.38e-04	0	44	0	969932800	19	5378
2026-01-17 02:47:35.54	273.42	8.37	-29.5	-32.7	12.9	2.91e-03	0	44	0	972029952	19	5223
2026-01-17 02:47:36.54	273.30	8.31	-29.5	-32.7	12.9	1.51e-03	0	43	0	974127104	19	5221
2026-01-17 02:47:37.54	273.19	8.25	-29.6	-32.9	12.8	4.27e-05	0	44	0	976224256	19	5295
2026-01-17 02:47:38.54	273.07	8.19	-29.7	-33.1	12.6	2.91e-03	0	44	0	978321408	19	5365
2026-01-17 02:47:39.55	272.95	8.13	-29.6	-32.9	12.7	5.01e-03	0	44	0	979369984	19	5300
2026-01-17 02:47:40.55	272.84	8.07	-29.6	-33.0	12.6	6.02e-05	0	44	0	981467136	19	5327
2026-01-17 02:47:41.54	272.73	8.01	-29.5	-32.6	12.9	9.91e-05	0	44	0	983564288	19	5186
2026-01-17 02:47:42.54	272.61	7.95	-29.5	-33.2	12.9	4.95e-03	0	44	0	985661440	18	5508
2026-01-17 02:47:43.55	272.50	7.89	-29.5	-32.7	12.8	3.44e-03	0	44	0	987758592	19	5224
2026-01-17 02:47:44.54	272.39	7.83	-29.5	-32.9	12.7	5.64e-05	0	44	0	988807168	19	5283
2026-01-17 02:47:45.54	272.28	7.78	-29.6	-33.1	12.5	4.04e-03	0	44	0	990904320	19	5395
2026-01-17 02:47:46.54	272.16	7.72	-29.6	-33.2	12.5	3.68e-03	0	44	0	993001472	19	5397
2026-01-17 02:47:47.54	272.05	7.66	-29.6	-33.1	12.5	1.30e-04	0	44	0	995098624	19	5357
2026-01-17 02:47:48.53	271.94	7.60	-29.9	-34.0	11.9	1.42e-04	0	44	0	996147200	19	5757
2026-01-17 02:47:49.53	271.83	7.54	-29.8	-33.6	12.3	4.27e-03	0	44	0	998244352	19	5571
2026-01-17 02:47:50.53	271.72	7.48	-30.0	-33.8	11.6	2.41e-03	0	44	0	1000341504	20	5588
2026-01-17 02:47:51.53	271.61	7.42	-29.9	-33.5	11.8	6.45e-04	0	44	0	1002438656	20	5454
2026-01-17 02:47:52.53	271.51	7.36	-29.8	-33.7	12.1	4.15e-03	0	43	0	1004535808	19	5629
2026-01-17 02:47:53.53	271.40	7.31	-30.1	-34.0	11.4	2.95e-03	0	44	0	1005584384	20	5685
2026-01-17 02:47:54.53	271.29	7.25	-29.9	-34.1	11.8	9.17e-04	0	44	0	1007681536	19	5810
2026-01-17 02:47:55.53	271.18	7.19	-29.9	-33.9	11.9	6.01e-04	0	44	0	1009778688	19	5727
2026-01-17 02:47:56.53	271.07	7.13	-30.0	-33.8	11.5	2.87e-03	0	44	0	1011875840	20	5606
2026-01-17 02:47:57.53	270.97	7.07	-32.5	-46.2	3.8	5.59e-02	0	44	104	1012924416	25	17292
2026-01-17 02:47:58.54	270.86	7.01	-32.8	-47.2	3.8	1.49e+00	0	44	104	1012924416	25	18807

#Closed at: 2026-01-17 02:47:59
#Recorded file [1012 MB]: D:/data/31010_260117_053856.dat