passes_logs/2026/01/17/R2M6_AANII_01/R2M6_AANII_01__20260117_050105_FENGYUN_3E_rec.log

#Pass ID: 20260117_050105_FENGYUN 3E
#Satellite: FENGYUN 3E
#Configuration: FENGYUN 3E
#almurnet v.1.7.20240730
#Start time: 2026-01-17 05:05:58

#Version: 2.2.20231116
#Station: R2M6_AANII_01
#Location: 30.233357 lon 59.946436 lat
#TLE: 1 49008U 21062A   26016.27412410  .00000434  00000+0  22502-3 0  9992
#TLE: 2 49008  98.7486  21.3880 0002096 134.9721 225.1626 14.19886506235025

#Time	Az	El	Level	Level2	SNR	BER	BlckErr	Temp	State	Recorded	gain1	gain2
2026-01-17 05:05:58.38	349.04	52.93	-32.9	-44.4	3.8	8.47e-01	0	43	0	0	25	13493
2026-01-17 05:05:59.38	348.63	53.22	-33.7	-42.7	3.8	8.45e-01	0	43	104	0	28	10123
2026-01-17 05:06:00.38	348.21	53.51	-33.7	-43.0	3.8	8.43e-01	0	43	104	0	27	10456
2026-01-17 05:06:01.37	347.79	53.81	-33.0	-38.4	4.3	8.40e-01	0	43	104	0	27	6650
2026-01-17 05:06:02.38	347.35	54.10	-33.7	-42.8	3.8	8.43e-01	0	43	104	0	27	10224
2026-01-17 05:06:03.38	346.90	54.40	-33.8	-43.3	3.8	8.46e-01	0	43	104	0	27	10735
2026-01-17 05:06:04.38	346.45	54.69	-33.8	-43.5	3.8	8.47e-01	0	43	104	0	27	11004
2026-01-17 05:06:05.38	345.98	54.98	-33.8	-43.6	3.8	8.46e-01	0	43	104	0	27	11025
2026-01-17 05:06:06.39	345.50	55.28	-33.8	-43.6	3.8	8.45e-01	0	43	104	0	27	11035
2026-01-17 05:06:07.39	345.02	55.57	-33.9	-43.5	3.8	8.45e-01	0	43	104	0	27	10990
2026-01-17 05:06:08.39	344.52	55.86	-33.8	-43.5	3.8	8.47e-01	0	43	104	0	27	10982
2026-01-17 05:06:09.38	344.02	56.15	-33.8	-43.5	3.8	8.46e-01	0	44	104	0	27	11019
2026-01-17 05:06:10.38	343.51	56.44	-33.8	-43.5	3.8	8.45e-01	0	43	104	0	27	10977
2026-01-17 05:06:11.38	342.98	56.73	-33.8	-43.4	3.8	8.46e-01	0	44	104	0	27	10931
2026-01-17 05:06:12.37	342.45	57.02	-33.8	-43.4	3.8	8.46e-01	0	43	104	0	27	10928
2026-01-17 05:06:13.37	341.90	57.31	-33.8	-43.4	3.8	8.45e-01	0	43	104	0	27	10928
2026-01-17 05:06:14.36	341.34	57.59	-33.8	-43.4	3.8	8.46e-01	0	43	104	0	27	10927
2026-01-17 05:06:15.36	340.77	57.88	-33.8	-43.4	3.8	8.46e-01	0	43	104	0	27	10891
2026-01-17 05:06:16.35	340.19	58.16	-33.8	-43.5	3.8	8.46e-01	0	43	104	0	27	10999
2026-01-17 05:06:17.35	339.59	58.44	-33.8	-43.5	3.8	8.46e-01	0	44	104	0	27	10996
2026-01-17 05:06:18.35	338.98	58.73	-33.8	-43.5	3.8	8.45e-01	0	43	104	0	27	10952
2026-01-17 05:06:19.34	338.36	59.00	-33.8	-43.4	3.8	8.47e-01	0	44	104	0	27	10899
2026-01-17 05:06:20.35	337.72	59.28	-33.8	-43.4	3.8	8.46e-01	0	44	104	0	27	10863
2026-01-17 05:06:21.34	337.07	59.56	-33.8	-43.4	3.8	8.46e-01	0	44	104	0	27	10898
2026-01-17 05:06:22.34	336.41	59.83	-33.7	-43.3	3.8	8.47e-01	0	43	104	0	27	10835
2026-01-17 05:06:23.34	335.73	60.10	-33.7	-43.3	3.8	8.47e-01	0	43	104	0	27	10814
2026-01-17 05:06:24.34	335.03	60.37	-33.7	-43.3	3.8	8.46e-01	0	43	104	0	27	10822
2026-01-17 05:06:25.34	334.32	60.64	-33.7	-43.3	3.8	8.46e-01	0	43	104	0	27	10807
2026-01-17 05:06:26.35	333.59	60.90	-33.7	-43.3	3.8	8.46e-01	0	44	104	0	27	10777
2026-01-17 05:06:27.35	332.85	61.16	-33.7	-43.3	3.8	8.46e-01	0	44	104	0	27	10841
2026-01-17 05:06:28.34	332.10	61.41	-33.7	-43.3	3.8	8.46e-01	0	44	104	0	27	10794
2026-01-17 05:06:29.35	331.32	61.67	-33.7	-43.1	3.8	8.46e-01	0	44	104	0	27	10676
2026-01-17 05:06:30.35	330.54	61.92	-33.7	-43.0	3.8	8.47e-01	0	44	104	0	27	10533
2026-01-17 05:06:31.36	329.73	62.17	-33.7	-43.0	3.8	8.46e-01	0	44	104	0	27	10563
2026-01-17 05:06:32.36	328.91	62.41	-33.7	-43.0	3.8	8.46e-01	0	44	104	0	27	10526
2026-01-17 05:06:33.36	328.07	62.65	-33.7	-43.0	3.8	8.46e-01	0	44	104	0	27	10508
2026-01-17 05:06:34.36	327.22	62.88	-33.7	-42.8	3.8	8.46e-01	0	44	104	0	27	10340
2026-01-17 05:06:35.36	326.35	63.11	-33.6	-42.6	3.8	8.46e-01	0	44	104	0	27	10089
2026-01-17 05:06:36.36	325.46	63.33	-33.6	-42.1	3.8	8.46e-01	0	44	104	0	27	9656
2026-01-17 05:06:37.36	324.56	63.55	-33.5	-42.0	3.8	8.46e-01	0	44	104	0	27	9514
2026-01-17 05:06:38.36	323.64	63.76	-33.5	-42.0	3.8	8.46e-01	0	44	104	0	27	9583
2026-01-17 05:06:39.36	322.71	63.97	-33.6	-42.4	3.8	8.45e-01	0	44	104	0	27	9903
2026-01-17 05:06:40.36	321.75	64.17	-33.6	-42.3	3.8	8.47e-01	0	44	104	0	27	9791
2026-01-17 05:06:41.36	320.78	64.37	-33.4	-41.1	3.8	8.46e-01	0	44	104	0	27	8699
2026-01-17 05:06:42.36	319.80	64.56	-33.2	-39.7	3.9	8.44e-01	0	44	104	0	27	7658
2026-01-17 05:06:43.36	318.79	64.74	-33.2	-39.9	3.9	8.44e-01	0	44	104	0	27	7758
2026-01-17 05:06:44.37	317.77	64.92	-33.5	-41.6	3.8	8.44e-01	0	44	104	0	27	9149
2026-01-17 05:06:45.37	316.73	65.09	-33.6	-42.4	3.8	8.46e-01	0	44	104	0	27	9966
2026-01-17 05:06:46.37	315.68	65.25	-33.7	-43.1	3.8	8.46e-01	0	44	104	0	27	10618
2026-01-17 05:06:47.38	314.60	65.40	-33.6	-42.5	3.8	8.46e-01	0	44	104	0	27	9995
2026-01-17 05:06:48.38	313.52	65.55	-33.6	-42.3	3.8	8.47e-01	0	44	104	0	27	9833
2026-01-17 05:06:49.37	312.44	65.69	-33.6	-42.4	3.8	8.45e-01	0	44	104	0	27	9904
2026-01-17 05:06:50.38	311.32	65.82	-33.0	-38.5	4.0	8.44e-01	0	44	104	0	27	6773
2026-01-17 05:06:51.39	310.19	65.95	-28.1	-28.8	5.7	3.57e-01	0	43	104	0	17	3881
2026-01-17 05:06:52.40	309.05	66.06	-25.2	-25.4	16.3	0.00e+00	0	43	104	0	11	3663
2026-01-17 05:06:53.40	307.90	66.17	-25.3	-25.5	16.3	0.00e+00	0	44	0	3145728	11	3685
2026-01-17 05:06:54.40	306.74	66.27	-25.4	-25.7	16.1	0.00e+00	0	44	0	10485760	11	3744
2026-01-17 05:06:55.40	305.58	66.36	-25.3	-25.6	16.2	0.00e+00	0	44	0	17825792	11	3709
2026-01-17 05:06:56.40	304.40	66.44	-25.7	-26.4	15.7	0.00e+00	0	44	0	25165824	11	3895
2026-01-17 05:06:57.40	303.22	66.51	-25.3	-25.6	16.2	0.00e+00	0	44	0	32505856	11	3712
2026-01-17 05:06:58.40	302.03	66.57	-25.2	-25.4	16.3	0.00e+00	0	44	0	39845888	11	3674
2026-01-17 05:06:59.40	300.83	66.63	-25.0	-24.9	16.5	0.00e+00	0	44	0	47185920	11	3548
2026-01-17 05:07:00.40	299.63	66.67	-24.8	-24.9	16.8	0.00e+00	0	44	0	53477376	10	3665
2026-01-17 05:07:01.39	298.43	66.70	-24.1	-24.1	17.4	0.00e+00	0	44	0	60817408	9	3576
2026-01-17 05:07:02.40	297.21	66.73	-23.6	-23.5	18.0	0.00e+00	0	44	0	68157440	8	3557
2026-01-17 05:07:03.40	295.99	66.74	-23.0	-22.6	18.7	0.00e+00	0	44	0	75497472	7	3455
2026-01-17 05:07:04.39	294.79	66.75	-22.3	-22.2	19.4	0.00e+00	0	44	0	82837504	5	3564
2026-01-17 05:07:05.39	293.58	66.74	-22.1	-21.9	19.6	0.00e+00	0	44	0	90177536	5	3500
2026-01-17 05:07:06.39	292.36	66.73	-21.9	-21.9	19.7	0.00e+00	0	44	0	97517568	4	3597
2026-01-17 05:07:07.40	291.14	66.71	-22.0	-22.1	19.7	0.00e+00	0	44	0	104857600	4	3646
2026-01-17 05:07:08.39	289.94	66.67	-22.4	-22.9	19.3	0.00e+00	0	44	0	112197632	4	3835
2026-01-17 05:07:09.40	288.72	66.63	-22.9	-23.4	18.8	0.00e+00	0	44	0	118489088	5	3835
2026-01-17 05:07:10.40	287.53	66.58	-23.0	-23.6	18.7	0.00e+00	0	44	0	125829120	5	3881
2026-01-17 05:07:11.40	286.33	66.52	-23.2	-23.5	18.5	0.00e+00	0	44	0	133169152	6	3756
2026-01-17 05:07:12.41	285.13	66.45	-23.1	-23.3	18.6	0.00e+00	0	44	0	140509184	6	3711
2026-01-17 05:07:13.41	283.96	66.37	-22.6	-22.4	19.1	0.00e+00	0	44	0	147849216	6	3501
2026-01-17 05:07:14.41	282.79	66.28	-22.5	-22.3	19.2	0.00e+00	0	44	0	155189248	6	3478
2026-01-17 05:07:15.41	281.63	66.18	-22.6	-22.4	19.0	0.00e+00	0	44	0	162529280	6	3507
2026-01-17 05:07:16.42	280.47	66.08	-22.3	-22.3	19.2	0.00e+00	0	44	0	169869312	5	3581
2026-01-17 05:07:17.42	279.34	65.96	-22.1	-21.7	19.7	0.00e+00	0	44	0	176160768	5	3468
2026-01-17 05:07:18.42	278.21	65.84	-22.4	-22.5	19.3	0.00e+00	0	44	0	183500800	5	3630
2026-01-17 05:07:19.42	277.10	65.71	-22.7	-23.0	19.0	0.00e+00	0	44	0	190840832	5	3739
2026-01-17 05:07:20.43	276.00	65.57	-22.6	-22.8	19.0	0.00e+00	0	44	0	198180864	5	3700
2026-01-17 05:07:21.44	274.90	65.42	-22.6	-23.0	19.1	0.00e+00	0	44	0	205520896	5	3737
2026-01-17 05:07:22.44	273.83	65.27	-22.5	-22.7	19.2	0.00e+00	0	44	0	212860928	5	3679
2026-01-17 05:07:23.44	272.78	65.11	-22.7	-23.1	19.0	0.00e+00	0	44	0	220200960	5	3760
2026-01-17 05:07:24.45	271.73	64.93	-22.6	-23.0	19.0	0.00e+00	0	44	0	227540992	5	3740
2026-01-17 05:07:25.44	270.72	64.76	-22.5	-22.7	19.2	0.00e+00	0	44	0	234881024	5	3673
2026-01-17 05:07:26.45	269.71	64.58	-22.5	-22.6	19.2	0.00e+00	0	44	0	242221056	5	3657
2026-01-17 05:07:27.45	268.72	64.39	-22.6	-23.0	19.0	0.00e+00	0	43	0	249561088	5	3737
2026-01-17 05:07:28.46	267.73	64.19	-22.7	-23.1	19.0	0.00e+00	0	44	0	256901120	5	3754
2026-01-17 05:07:29.46	266.78	63.99	-22.3	-22.3	19.3	0.00e+00	0	44	0	263192576	5	3591
2026-01-17 05:07:30.46	265.84	63.78	-22.3	-22.2	19.4	0.00e+00	0	44	0	270532608	5	3569
2026-01-17 05:07:31.46	264.92	63.57	-22.8	-23.2	18.9	0.00e+00	0	44	0	277872640	5	3793
2026-01-17 05:07:32.46	264.01	63.35	-23.3	-23.7	18.4	0.00e+00	0	44	0	285212672	6	3802
2026-01-17 05:07:33.46	263.12	63.13	-23.4	-24.1	18.2	0.00e+00	0	44	0	292552704	6	3893
2026-01-17 05:07:34.46	262.25	62.90	-23.1	-23.5	18.4	0.00e+00	0	44	0	299892736	6	3746
2026-01-17 05:07:35.47	261.39	62.66	-22.8	-22.8	18.8	0.00e+00	0	44	0	307232768	6	3598
2026-01-17 05:07:36.47	260.55	62.43	-23.0	-23.2	18.7	0.00e+00	0	44	0	314572800	6	3680
2026-01-17 05:07:37.47	259.73	62.19	-23.6	-24.4	18.0	0.00e+00	0	44	0	321912832	6	3965
2026-01-17 05:07:38.47	258.92	61.94	-23.7	-24.2	17.9	0.00e+00	0	44	0	328204288	7	3816
2026-01-17 05:07:39.47	258.13	61.69	-24.0	-24.7	17.6	0.00e+00	0	44	0	335544320	7	3926
2026-01-17 05:07:40.48	257.35	61.43	-23.9	-24.6	17.7	0.00e+00	0	44	0	342884352	7	3907
2026-01-17 05:07:41.47	256.60	61.18	-24.0	-24.2	17.7	0.00e+00	0	44	0	350224384	8	3703
2026-01-17 05:07:42.48	255.85	60.92	-23.5	-23.2	18.2	0.00e+00	0	44	0	357564416	8	3492
2026-01-17 05:07:43.48	255.12	60.65	-23.6	-23.9	18.1	2.20e-06	0	44	0	364904448	7	3734
2026-01-17 05:07:44.49	254.40	60.39	-23.7	-24.3	17.9	0.00e+00	0	44	0	372244480	7	3822
2026-01-17 05:07:45.49	253.70	60.12	-24.2	-24.7	17.4	0.00e+00	0	44	0	379584512	8	3824
2026-01-17 05:07:46.50	253.02	59.84	-24.6	-25.0	17.0	0.00e+00	0	44	0	386924544	9	3787
2026-01-17 05:07:47.50	252.35	59.57	-24.2	-24.2	17.3	0.00e+00	0	44	0	394264576	9	3615
2026-01-17 05:07:48.51	251.69	59.29	-23.6	-23.5	18.0	0.00e+00	0	44	0	401604608	8	3546
2026-01-17 05:07:49.51	251.05	59.01	-23.5	-23.3	18.0	0.00e+00	0	44	0	407896064	8	3509
2026-01-17 05:07:50.51	250.42	58.73	-23.5	-23.3	18.1	0.00e+00	0	44	0	415236096	8	3501
2026-01-17 05:07:51.52	249.80	58.45	-23.8	-23.8	17.6	0.00e+00	0	44	0	422576128	8	3623
2026-01-17 05:07:52.52	249.20	58.16	-24.1	-24.6	17.4	0.00e+00	0	44	0	429916160	8	3788
2026-01-17 05:07:53.52	248.61	57.88	-24.1	-24.6	17.3	0.00e+00	0	44	0	437256192	8	3800
2026-01-17 05:07:54.52	248.04	57.59	-23.9	-24.1	17.6	0.00e+00	0	44	0	444596224	8	3692
2026-01-17 05:07:55.53	247.47	57.30	-23.7	-23.6	17.9	0.00e+00	0	44	0	451936256	8	3579
2026-01-17 05:07:56.53	246.92	57.01	-23.7	-23.8	17.8	0.00e+00	0	44	0	459276288	8	3609
2026-01-17 05:07:57.53	246.38	56.72	-23.6	-23.4	18.0	0.00e+00	0	44	0	466616320	8	3515
2026-01-17 05:07:58.53	245.85	56.43	-23.1	-22.8	18.5	0.00e+00	0	44	0	472907776	7	3503
2026-01-17 05:07:59.54	245.33	56.13	-23.2	-23.1	18.4	0.00e+00	0	44	0	481296384	7	3561
2026-01-17 05:08:00.53	244.83	55.84	-23.5	-23.7	18.1	0.00e+00	0	44	0	488636416	7	3693
2026-01-17 05:08:01.53	244.33	55.55	-23.7	-24.2	17.8	0.00e+00	0	44	0	494927872	7	3813
2026-01-17 05:08:02.54	243.84	55.25	-23.6	-24.0	17.9	0.00e+00	0	44	0	502267904	7	3768
2026-01-17 05:08:03.54	243.37	54.96	-23.4	-23.5	18.2	0.00e+00	0	44	0	509607936	7	3642
2026-01-17 05:08:04.53	242.91	54.67	-23.7	-24.1	17.9	0.00e+00	0	44	0	516947968	7	3780
2026-01-17 05:08:05.54	242.44	54.37	-24.0	-24.3	17.5	0.00e+00	0	44	0	524288000	8	3715
2026-01-17 05:08:06.54	242.00	54.08	-24.2	-24.7	17.3	0.00e+00	0	44	0	531628032	8	3815
2026-01-17 05:08:07.54	241.56	53.78	-24.3	-25.1	17.1	0.00e+00	0	44	0	538968064	8	3906
2026-01-17 05:08:08.54	241.13	53.49	-24.4	-25.1	17.1	0.00e+00	0	44	0	546308096	8	3913
2026-01-17 05:08:09.54	240.71	53.19	-24.4	-25.2	17.1	0.00e+00	0	44	0	553648128	8	3934
2026-01-17 05:08:10.54	240.30	52.90	-24.5	-25.4	17.0	0.00e+00	0	44	0	559939584	8	3978
2026-01-17 05:08:11.55	239.89	52.60	-24.6	-25.1	16.9	0.00e+00	0	44	0	567279616	9	3798
2026-01-17 05:08:12.55	239.50	52.31	-24.8	-25.5	16.7	0.00e+00	0	44	0	574619648	9	3893
2026-01-17 05:08:13.55	239.11	52.01	-24.9	-25.7	16.5	0.00e+00	0	44	0	581959680	9	3949
2026-01-17 05:08:14.55	238.73	51.72	-24.9	-25.8	16.5	0.00e+00	0	44	0	589299712	9	3968
2026-01-17 05:08:15.55	238.36	51.43	-24.8	-25.5	16.6	0.00e+00	0	44	0	596639744	9	3913
2026-01-17 05:08:16.55	237.99	51.13	-24.7	-25.2	16.7	0.00e+00	0	44	0	603979776	9	3841
2026-01-17 05:08:17.57	237.63	50.84	-24.8	-25.5	16.5	0.00e+00	0	44	0	611319808	9	3902
2026-01-17 05:08:18.58	237.27	50.54	-25.2	-25.9	16.2	0.00e+00	0	44	0	617611264	10	3904
2026-01-17 05:08:19.58	236.93	50.25	-25.3	-26.1	16.0	0.00e+00	0	44	0	624951296	10	3929
2026-01-17 05:08:20.57	236.60	49.97	-24.9	-25.3	16.5	0.00e+00	0	44	0	632291328	10	3747
2026-01-17 05:08:21.58	236.26	49.68	-24.6	-24.6	16.8	0.00e+00	0	44	0	639631360	10	3605
2026-01-17 05:08:22.58	235.94	49.39	-24.4	-24.2	17.0	0.00e+00	0	44	0	646971392	10	3507
2026-01-17 05:08:23.58	235.62	49.10	-24.4	-24.6	17.0	0.00e+00	0	44	0	654311424	9	3705
2026-01-17 05:08:24.58	235.30	48.81	-24.4	-24.7	17.0	0.00e+00	0	44	0	661651456	9	3732
2026-01-17 05:08:25.59	234.99	48.53	-24.2	-24.2	17.3	0.00e+00	0	44	0	668991488	9	3605
2026-01-17 05:08:26.59	234.69	48.24	-24.2	-24.2	17.3	0.00e+00	0	44	0	676331520	9	3600
2026-01-17 05:08:27.59	234.40	47.96	-24.0	-23.9	17.4	0.00e+00	0	44	0	683671552	9	3549
2026-01-17 05:08:28.59	234.11	47.68	-23.8	-24.0	17.6	0.00e+00	0	44	0	691011584	8	3663
2026-01-17 05:08:29.60	233.82	47.39	-23.7	-23.6	17.8	0.00e+00	0	44	0	698351616	8	3572
2026-01-17 05:08:30.60	233.54	47.11	-23.4	-23.1	18.0	0.00e+00	0	43	0	704643072	8	3473
2026-01-17 05:08:31.60	233.26	46.83	-23.5	-23.3	18.0	0.00e+00	0	44	0	711983104	8	3518
2026-01-17 05:08:32.60	232.99	46.56	-23.4	-23.1	18.1	0.00e+00	0	44	0	719323136	8	3461
2026-01-17 05:08:33.60	232.73	46.28	-23.4	-23.6	18.0	0.00e+00	0	44	0	726663168	7	3670
2026-01-17 05:08:34.61	232.46	46.00	-23.3	-23.3	18.2	0.00e+00	0	43	0	734003200	7	3604
2026-01-17 05:08:35.62	232.21	45.73	-23.1	-22.8	18.3	0.00e+00	0	44	0	741343232	7	3510
2026-01-17 05:08:36.62	231.95	45.45	-22.9	-22.6	18.6	0.00e+00	0	44	0	748683264	7	3459
2026-01-17 05:08:37.62	231.71	45.18	-23.1	-22.9	18.4	0.00e+00	0	44	0	756023296	7	3520
2026-01-17 05:08:38.62	231.46	44.91	-23.0	-22.6	17.7	0.00e+00	0	44	0	762314752	7	3466
2026-01-17 05:08:39.61	231.23	44.64	-22.9	-22.6	18.5	0.00e+00	0	44	0	769654784	7	3457
2026-01-17 05:08:40.62	230.99	44.37	-22.9	-23.0	18.5	0.00e+00	0	44	0	776994816	6	3645
2026-01-17 05:08:41.62	230.76	44.11	-22.8	-22.7	18.7	0.00e+00	0	44	0	784334848	6	3584
2026-01-17 05:08:42.62	230.53	43.84	-22.7	-22.5	18.8	0.00e+00	0	44	0	791674880	6	3547
2026-01-17 05:08:43.62	230.31	43.58	-22.7	-22.6	18.8	0.00e+00	0	44	0	799014912	6	3553
2026-01-17 05:08:44.62	230.09	43.31	-22.7	-22.6	18.8	0.00e+00	0	44	0	806354944	6	3560
2026-01-17 05:08:45.62	229.87	43.05	-22.7	-22.7	18.7	0.00e+00	0	44	0	813694976	6	3573
2026-01-17 05:08:46.63	229.66	42.79	-23.1	-23.4	18.4	0.00e+00	0	44	0	821035008	6	3724
2026-01-17 05:08:47.63	229.45	42.53	-23.1	-23.5	18.3	0.00e+00	0	44	0	828375040	6	3756
2026-01-17 05:08:48.64	229.24	42.27	-23.4	-24.1	17.9	0.00e+00	0	44	0	835715072	6	3887
2026-01-17 05:08:49.64	229.04	42.02	-23.4	-23.5	18.1	0.00e+00	0	44	0	843055104	7	3657
2026-01-17 05:08:50.64	228.84	41.76	-23.1	-23.0	18.3	0.00e+00	0	44	0	849346560	7	3549
2026-01-17 05:08:51.64	228.65	41.51	-23.0	-22.8	18.4	0.00e+00	0	44	0	856686592	7	3498
2026-01-17 05:08:52.65	228.45	41.25	-23.1	-22.8	18.4	0.00e+00	0	44	0	864026624	7	3512
2026-01-17 05:08:53.65	228.26	41.00	-23.0	-22.7	18.5	0.00e+00	0	44	0	871366656	7	3485
2026-01-17 05:08:54.65	228.07	40.75	-22.9	-22.9	18.6	0.00e+00	0	44	0	878706688	6	3634
2026-01-17 05:08:55.65	227.89	40.51	-23.0	-23.1	18.5	0.00e+00	0	44	0	886046720	6	3677
2026-01-17 05:08:56.65	227.71	40.26	-23.0	-23.2	18.4	0.00e+00	0	44	0	893386752	6	3688
2026-01-17 05:08:57.65	227.53	40.01	-23.1	-23.3	18.3	0.00e+00	0	44	0	900726784	6	3720
2026-01-17 05:08:58.65	227.36	39.77	-23.2	-23.6	18.2	0.00e+00	0	44	0	908066816	6	3771
2026-01-17 05:08:59.65	227.18	39.53	-23.3	-23.8	17.8	0.00e+00	0	44	0	914358272	6	3837
2026-01-17 05:09:00.65	227.01	39.29	-23.3	-23.8	18.1	0.00e+00	0	44	0	921698304	6	3825
2026-01-17 05:09:01.65	226.84	39.05	-23.2	-23.6	18.2	0.00e+00	0	44	0	929038336	6	3771
2026-01-17 05:09:02.65	226.68	38.81	-23.3	-23.9	18.0	0.00e+00	0	44	0	936378368	6	3840
2026-01-17 05:09:03.66	226.51	38.57	-23.0	-23.2	18.4	0.00e+00	0	44	0	943718400	6	3692
2026-01-17 05:09:04.65	226.35	38.34	-22.8	-22.7	18.7	0.00e+00	0	44	0	951058432	6	3581
2026-01-17 05:09:05.65	226.20	38.10	-22.8	-22.8	18.6	0.00e+00	0	44	0	958398464	6	3601
2026-01-17 05:09:06.65	226.04	37.87	-22.6	-22.4	18.9	0.00e+00	0	44	0	965738496	6	3506
2026-01-17 05:09:07.65	225.89	37.64	-22.7	-22.5	18.7	0.00e+00	0	44	0	972029952	6	3544
2026-01-17 05:09:08.66	225.73	37.41	-22.6	-22.5	18.8	0.00e+00	0	44	0	979369984	6	3528
2026-01-17 05:09:09.66	225.58	37.18	-22.6	-22.4	18.7	0.00e+00	0	44	0	986710016	6	3517
2026-01-17 05:09:10.66	225.44	36.95	-22.7	-22.6	18.6	0.00e+00	0	44	0	994050048	6	3562
2026-01-17 05:09:11.67	225.29	36.72	-22.7	-22.5	18.7	0.00e+00	0	44	0	1001390080	6	3543
2026-01-17 05:09:12.67	225.15	36.50	-22.7	-22.7	18.7	0.00e+00	0	44	0	1008730112	6	3574
2026-01-17 05:09:13.67	225.01	36.27	-22.6	-22.5	18.8	0.00e+00	0	44	0	1016070144	6	3527
2026-01-17 05:09:14.67	224.87	36.05	-22.5	-22.2	18.9	0.00e+00	0	43	0	1023410176	6	3481
2026-01-17 05:09:15.67	224.73	35.83	-22.6	-22.4	18.8	0.00e+00	0	44	0	1030750208	6	3509
2026-01-17 05:09:16.67	224.59	35.61	-22.5	-22.2	18.9	0.00e+00	0	44	0	1037041664	6	3471
2026-01-17 05:09:17.68	224.46	35.39	-22.5	-22.1	19.0	0.00e+00	0	44	0	1044381696	6	3448
2026-01-17 05:09:18.68	224.33	35.18	-22.5	-22.7	18.9	0.00e+00	0	43	0	1052770304	5	3676
2026-01-17 05:09:19.69	224.20	34.96	-22.5	-22.7	18.6	0.00e+00	0	44	0	1059061760	5	3689
2026-01-17 05:09:20.69	224.07	34.75	-22.6	-22.9	18.8	0.00e+00	0	44	0	1066401792	5	3737
2026-01-17 05:09:21.69	223.94	34.53	-22.6	-23.0	18.7	0.00e+00	0	44	0	1073741824	5	3752
2026-01-17 05:09:22.69	223.82	34.32	-22.6	-22.9	18.7	0.00e+00	0	44	0	1081081856	5	3731
2026-01-17 05:09:23.68	223.70	34.11	-22.5	-22.7	18.8	0.00e+00	0	44	0	1088421888	5	3693
2026-01-17 05:09:24.69	223.57	33.90	-22.7	-23.1	18.6	0.00e+00	0	44	0	1095761920	5	3780
2026-01-17 05:09:25.68	223.45	33.70	-22.6	-22.8	18.8	0.00e+00	0	44	0	1103101952	5	3702
2026-01-17 05:09:26.69	223.33	33.49	-22.3	-22.2	19.1	0.00e+00	0	44	0	1110441984	5	3575
2026-01-17 05:09:27.69	223.22	33.28	-22.2	-22.1	19.2	0.00e+00	0	44	0	1117782016	5	3539
2026-01-17 05:09:28.69	223.10	33.08	-22.3	-22.3	19.1	0.00e+00	0	44	0	1124073472	5	3599
2026-01-17 05:09:29.69	222.99	32.88	-22.3	-22.2	19.1	0.00e+00	0	44	0	1131413504	5	3563
2026-01-17 05:09:30.69	222.87	32.67	-22.4	-22.6	18.9	0.00e+00	0	44	0	1138753536	5	3650
2026-01-17 05:09:31.69	222.76	32.47	-22.5	-22.7	18.8	0.00e+00	0	44	0	1146093568	5	3688
2026-01-17 05:09:32.69	222.65	32.28	-22.6	-22.9	18.7	0.00e+00	0	44	0	1153433600	5	3740
2026-01-17 05:09:33.69	222.55	32.08	-22.7	-23.2	18.6	0.00e+00	0	44	0	1160773632	5	3794
2026-01-17 05:09:34.70	222.44	31.88	-22.8	-23.3	18.5	0.00e+00	0	44	0	1168113664	5	3822
2026-01-17 05:09:35.70	222.33	31.68	-22.8	-23.3	18.6	0.00e+00	0	44	0	1175453696	5	3809
2026-01-17 05:09:36.70	222.23	31.49	-22.7	-23.2	18.6	0.00e+00	0	44	0	1181745152	5	3793
2026-01-17 05:09:37.70	222.12	31.30	-22.8	-23.2	18.6	0.00e+00	0	44	0	1189085184	5	3799
2026-01-17 05:09:38.70	222.02	31.10	-22.8	-23.3	18.5	0.00e+00	0	44	0	1196425216	5	3825
2026-01-17 05:09:39.70	221.92	30.91	-22.7	-23.2	18.6	0.00e+00	0	44	0	1203765248	5	3795
2026-01-17 05:09:40.70	221.82	30.72	-22.6	-22.9	18.6	0.00e+00	0	44	0	1211105280	5	3718
2026-01-17 05:09:41.71	221.72	30.53	-22.6	-22.8	18.8	0.00e+00	0	44	0	1218445312	5	3704
2026-01-17 05:09:42.71	221.63	30.35	-22.6	-22.8	18.8	0.00e+00	0	44	0	1225785344	5	3709
2026-01-17 05:09:43.72	221.53	30.16	-22.6	-22.8	18.8	0.00e+00	0	44	0	1233125376	5	3709
2026-01-17 05:09:44.72	221.43	29.97	-22.6	-22.9	18.7	0.00e+00	0	44	0	1240465408	5	3735
2026-01-17 05:09:45.73	221.34	29.79	-22.6	-23.0	18.6	0.00e+00	0	44	0	1246756864	5	3738
2026-01-17 05:09:46.74	221.25	29.60	-22.7	-23.0	18.6	0.00e+00	0	44	0	1255145472	5	3758
2026-01-17 05:09:47.74	221.15	29.42	-22.6	-23.0	18.7	0.00e+00	0	44	0	1262485504	5	3748
2026-01-17 05:09:48.73	221.07	29.24	-22.5	-22.6	18.8	0.00e+00	0	44	0	1268776960	5	3668
2026-01-17 05:09:49.73	220.98	29.06	-22.5	-22.7	18.7	0.00e+00	0	44	0	1276116992	5	3690
2026-01-17 05:09:50.74	220.89	28.88	-22.5	-22.7	18.8	0.00e+00	0	44	0	1283457024	5	3686
2026-01-17 05:09:51.74	220.80	28.70	-22.6	-22.8	18.7	0.00e+00	0	44	0	1290797056	5	3710
2026-01-17 05:09:52.75	220.71	28.52	-22.5	-22.8	18.7	0.00e+00	0	44	0	1298137088	5	3699
2026-01-17 05:09:53.75	220.63	28.35	-22.5	-22.7	18.8	0.00e+00	0	44	0	1305477120	5	3694
2026-01-17 05:09:54.75	220.54	28.17	-22.6	-22.8	18.7	0.00e+00	0	44	0	1312817152	5	3713
2026-01-17 05:09:55.75	220.46	28.00	-22.6	-22.8	18.7	0.00e+00	0	44	0	1320157184	5	3713
2026-01-17 05:09:56.76	220.38	27.83	-22.7	-23.1	18.6	0.00e+00	0	44	0	1326448640	5	3769
2026-01-17 05:09:57.77	220.29	27.65	-22.6	-23.0	18.7	0.00e+00	0	44	0	1333788672	5	3738
2026-01-17 05:09:58.77	220.21	27.48	-22.7	-23.0	18.6	0.00e+00	0	44	0	1341128704	5	3757
2026-01-17 05:09:59.76	220.13	27.32	-22.6	-23.0	18.6	0.00e+00	0	44	0	1348468736	5	3745
2026-01-17 05:10:00.77	220.05	27.15	-22.6	-22.9	18.7	0.00e+00	0	44	0	1355808768	5	3717
2026-01-17 05:10:01.77	219.97	26.98	-22.7	-23.1	18.6	0.00e+00	0	44	0	1363148800	5	3767
2026-01-17 05:10:02.78	219.90	26.81	-22.6	-22.8	18.7	0.00e+00	0	44	0	1370488832	5	3712
2026-01-17 05:10:03.78	219.82	26.64	-22.5	-22.7	18.7	0.00e+00	0	44	0	1377828864	5	3693
2026-01-17 05:10:04.79	219.74	26.48	-22.6	-23.0	18.6	0.00e+00	0	44	0	1385168896	5	3742
2026-01-17 05:10:05.79	219.67	26.31	-22.6	-23.0	18.6	0.00e+00	0	44	0	1392508928	5	3752
2026-01-17 05:10:06.79	219.60	26.15	-22.5	-22.8	18.7	0.00e+00	0	44	0	1399848960	5	3705
2026-01-17 05:10:07.79	219.52	25.99	-22.6	-22.9	18.6	0.00e+00	0	44	0	1407188992	5	3729
2026-01-17 05:10:08.80	219.45	25.83	-22.7	-23.1	18.6	0.00e+00	0	44	0	1413480448	5	3764
2026-01-17 05:10:09.80	219.38	25.67	-22.7	-23.1	18.5	0.00e+00	0	44	0	1420820480	5	3764
2026-01-17 05:10:10.80	219.31	25.51	-22.8	-23.2	18.4	0.00e+00	0	44	0	1428160512	5	3799
2026-01-17 05:10:11.80	219.24	25.35	-22.8	-23.3	18.3	0.00e+00	0	44	0	1435500544	5	3810
2026-01-17 05:10:12.81	219.17	25.19	-22.8	-23.4	18.4	0.00e+00	0	44	0	1442840576	5	3847
2026-01-17 05:10:13.81	219.10	25.04	-22.8	-22.8	18.4	0.00e+00	0	44	0	1450180608	6	3604
2026-01-17 05:10:14.81	219.03	24.88	-22.8	-22.9	18.4	0.00e+00	0	44	0	1457520640	6	3628
2026-01-17 05:10:15.81	218.96	24.72	-22.8	-22.9	18.3	0.00e+00	0	44	0	1464860672	6	3628
2026-01-17 05:10:16.81	218.89	24.57	-22.9	-23.1	18.2	0.00e+00	0	44	0	1472200704	6	3680
2026-01-17 05:10:17.81	218.83	24.42	-22.9	-23.0	18.3	0.00e+00	0	44	0	1478492160	6	3661
2026-01-17 05:10:18.81	218.76	24.27	-23.0	-23.3	18.2	0.00e+00	0	44	0	1485832192	6	3714
2026-01-17 05:10:19.81	218.70	24.11	-22.9	-23.1	18.3	0.00e+00	0	44	0	1493172224	6	3678
2026-01-17 05:10:20.81	218.63	23.96	-23.1	-23.4	18.1	0.00e+00	0	44	0	1500512256	6	3745
2026-01-17 05:10:21.81	218.57	23.81	-23.0	-23.3	18.1	0.00e+00	0	43	0	1507852288	6	3713
2026-01-17 05:10:22.82	218.51	23.66	-23.1	-23.4	18.1	0.00e+00	0	44	0	1515192320	6	3733
2026-01-17 05:10:23.81	218.45	23.52	-23.0	-23.3	18.1	0.00e+00	0	44	0	1522532352	6	3730
2026-01-17 05:10:24.81	218.38	23.37	-23.1	-23.4	18.1	0.00e+00	0	44	0	1529872384	6	3735
2026-01-17 05:10:25.81	218.32	23.22	-23.0	-23.4	18.1	0.00e+00	0	44	0	1536163840	6	3731
2026-01-17 05:10:26.82	218.26	23.08	-23.1	-23.6	18.0	0.00e+00	0	44	0	1543503872	6	3776
2026-01-17 05:10:27.82	218.20	22.93	-23.0	-23.3	18.1	0.00e+00	0	44	0	1550843904	6	3715
2026-01-17 05:10:28.82	218.14	22.79	-23.0	-23.2	18.2	0.00e+00	0	44	0	1558183936	6	3700
2026-01-17 05:10:29.83	218.08	22.64	-23.0	-23.3	18.1	0.00e+00	0	44	0	1565523968	6	3727
2026-01-17 05:10:30.84	218.03	22.50	-23.2	-23.7	17.9	0.00e+00	0	44	0	1572864000	6	3801
2026-01-17 05:10:31.84	217.97	22.36	-23.0	-23.3	18.1	0.00e+00	0	44	0	1580204032	6	3723
2026-01-17 05:10:32.85	217.91	22.22	-23.0	-23.2	18.1	0.00e+00	0	44	0	1587544064	6	3702
2026-01-17 05:10:33.86	217.85	22.07	-23.0	-23.2	18.1	0.00e+00	0	43	0	1594884096	6	3695
2026-01-17 05:10:34.85	217.80	21.94	-23.0	-23.3	18.1	0.00e+00	0	44	0	1602224128	6	3727
2026-01-17 05:10:35.85	217.74	21.80	-23.2	-23.6	17.9	0.00e+00	0	44	0	1609564160	6	3790
2026-01-17 05:10:36.86	217.69	21.66	-23.1	-23.4	18.0	0.00e+00	0	44	0	1616904192	6	3726
2026-01-17 05:10:37.86	217.63	21.52	-23.0	-23.3	18.1	0.00e+00	0	44	0	1623195648	6	3724
2026-01-17 05:10:38.86	217.58	21.38	-23.4	-24.0	17.7	0.00e+00	0	44	0	1630535680	6	3873
2026-01-17 05:10:39.86	217.53	21.25	-23.1	-23.5	18.0	0.00e+00	0	44	0	1637875712	6	3765
2026-01-17 05:10:40.87	217.47	21.11	-23.2	-23.7	17.8	0.00e+00	0	44	0	1645215744	6	3817
2026-01-17 05:10:41.87	217.42	20.98	-23.1	-23.4	18.0	0.00e+00	0	44	0	1652555776	6	3735
2026-01-17 05:10:42.88	217.37	20.84	-23.2	-23.6	17.9	0.00e+00	0	44	0	1659895808	6	3791
2026-01-17 05:10:43.88	217.32	20.71	-23.5	-24.4	17.5	0.00e+00	0	44	0	1667235840	6	3971
2026-01-17 05:10:44.89	217.26	20.58	-23.3	-23.9	17.7	0.00e+00	0	44	0	1674575872	6	3854
2026-01-17 05:10:45.89	217.21	20.44	-23.6	-24.0	17.4	0.00e+00	0	44	0	1681915904	7	3768
2026-01-17 05:10:46.90	217.16	20.31	-23.4	-23.6	17.6	0.00e+00	0	44	0	1689255936	7	3685
2026-01-17 05:10:47.90	217.11	20.18	-23.5	-23.9	17.5	0.00e+00	0	44	0	1696595968	7	3742
2026-01-17 05:10:48.90	217.06	20.05	-23.4	-23.7	17.6	0.00e+00	0	44	0	1702887424	7	3699
2026-01-17 05:10:49.91	217.02	19.92	-23.5	-23.8	17.5	0.00e+00	0	44	0	1710227456	7	3741
2026-01-17 05:10:50.91	216.97	19.79	-23.5	-23.8	17.5	0.00e+00	0	44	0	1717567488	7	3734
2026-01-17 05:10:51.91	216.92	19.67	-23.7	-24.2	17.3	0.00e+00	0	44	0	1724907520	7	3828
2026-01-17 05:10:52.91	216.87	19.54	-23.7	-24.3	17.2	0.00e+00	0	44	0	1732247552	7	3847
2026-01-17 05:10:53.91	216.82	19.41	-23.8	-24.4	17.2	0.00e+00	0	44	0	1739587584	7	3867
2026-01-17 05:10:54.91	216.78	19.29	-24.1	-25.1	16.8	0.00e+00	0	44	0	1746927616	7	4029
2026-01-17 05:10:55.92	216.73	19.16	-24.0	-24.3	17.0	0.00e+00	0	44	0	1754267648	8	3752
2026-01-17 05:10:56.93	216.69	19.03	-23.7	-23.8	17.2	0.00e+00	0	44	0	1761607680	8	3639
2026-01-17 05:10:57.93	216.64	18.91	-23.8	-24.0	17.1	0.00e+00	0	44	0	1767899136	8	3681
2026-01-17 05:10:58.93	216.60	18.79	-23.8	-23.9	17.2	0.00e+00	0	44	0	1775239168	8	3649
2026-01-17 05:10:59.93	216.55	18.66	-24.1	-24.5	16.9	0.00e+00	0	44	0	1782579200	8	3789
2026-01-17 05:11:00.93	216.51	18.54	-23.9	-24.1	17.1	0.00e+00	0	44	0	1789919232	8	3696
2026-01-17 05:11:01.94	216.46	18.42	-24.0	-24.3	17.0	0.00e+00	0	44	0	1797259264	8	3746
2026-01-17 05:11:02.94	216.42	18.30	-24.0	-24.4	16.9	0.00e+00	0	44	0	1804599296	8	3756
2026-01-17 05:11:03.95	216.37	18.17	-24.0	-24.3	17.0	0.00e+00	0	44	0	1811939328	8	3742
2026-01-17 05:11:04.95	216.33	18.05	-24.0	-24.4	16.9	0.00e+00	0	44	0	1819279360	8	3761
2026-01-17 05:11:05.95	216.29	17.94	-23.9	-24.3	17.0	0.00e+00	0	44	0	1826619392	8	3730
2026-01-17 05:11:06.95	216.25	17.82	-24.1	-24.7	16.8	0.00e+00	0	44	0	1833959424	8	3827
2026-01-17 05:11:07.95	216.21	17.70	-24.2	-24.7	16.7	0.00e+00	0	44	0	1841299456	8	3845
2026-01-17 05:11:08.95	216.16	17.58	-24.3	-25.0	16.6	0.00e+00	0	44	0	1848639488	8	3903
2026-01-17 05:11:09.95	216.12	17.46	-24.3	-24.9	16.6	0.00e+00	0	44	0	1854930944	8	3885
2026-01-17 05:11:10.95	216.08	17.35	-24.4	-25.3	16.4	0.00e+00	0	44	0	1862270976	8	3973
2026-01-17 05:11:11.95	216.04	17.23	-24.3	-25.0	16.5	0.00e+00	0	44	0	1869611008	8	3909
2026-01-17 05:11:12.94	216.00	17.12	-24.3	-24.9	16.6	0.00e+00	0	44	0	1876951040	8	3891
2026-01-17 05:11:13.95	215.96	17.00	-24.3	-25.0	16.5	0.00e+00	0	44	0	1884291072	8	3915
2026-01-17 05:11:14.95	215.92	16.89	-24.3	-25.1	16.5	0.00e+00	0	44	0	1891631104	8	3918
2026-01-17 05:11:15.94	215.88	16.77	-24.3	-25.0	16.5	0.00e+00	0	44	0	1898971136	8	3908
2026-01-17 05:11:16.95	215.85	16.66	-24.2	-24.8	16.6	0.00e+00	0	44	0	1906311168	8	3866
2026-01-17 05:11:17.95	215.81	16.54	-24.5	-25.4	16.3	0.00e+00	0	44	0	1912602624	8	4014
2026-01-17 05:11:18.95	215.77	16.43	-24.3	-25.1	16.4	0.00e+00	0	44	0	1919942656	8	3938
2026-01-17 05:11:19.95	215.73	16.32	-24.2	-24.9	16.6	1.10e-06	0	44	0	1927282688	8	3885
2026-01-17 05:11:20.95	215.69	16.21	-24.4	-25.2	16.4	0.00e+00	0	44	0	1934622720	8	3956
2026-01-17 05:11:21.96	215.66	16.10	-24.4	-25.1	16.4	0.00e+00	0	44	0	1941962752	8	3945
2026-01-17 05:11:22.96	215.62	15.99	-24.4	-25.3	16.3	0.00e+00	0	44	0	1949302784	8	3974
2026-01-17 05:11:23.96	215.58	15.88	-24.4	-25.2	16.3	0.00e+00	0	44	0	1956642816	8	3969
2026-01-17 05:11:24.96	215.55	15.77	-24.5	-25.4	16.2	0.00e+00	0	44	0	1963982848	8	4001
2026-01-17 05:11:25.95	215.51	15.66	-24.4	-25.3	16.3	0.00e+00	0	44	0	1971322880	8	3991
2026-01-17 05:11:26.95	215.48	15.55	-24.5	-25.5	16.2	0.00e+00	0	44	0	1977614336	8	4037
2026-01-17 05:11:27.95	215.44	15.44	-24.4	-25.2	16.4	0.00e+00	0	44	0	1984954368	8	3950
2026-01-17 05:11:28.95	215.40	15.33	-24.7	-25.3	16.0	0.00e+00	0	44	0	1992294400	9	3880
2026-01-17 05:11:29.95	215.37	15.23	-24.4	-24.8	16.3	0.00e+00	0	44	0	1999634432	9	3751
2026-01-17 05:11:30.95	215.33	15.12	-24.5	-24.9	16.3	0.00e+00	0	44	0	2006974464	9	3790
2026-01-17 05:11:31.95	215.30	15.01	-24.5	-24.9	16.3	0.00e+00	0	44	0	2014314496	9	3771
2026-01-17 05:11:32.96	215.27	14.91	-24.4	-24.8	16.3	0.00e+00	0	44	0	2021654528	9	3756
2026-01-17 05:11:33.96	215.23	14.80	-24.7	-25.5	15.9	0.00e+00	0	44	0	2028994560	9	3917
2026-01-17 05:11:34.96	215.20	14.70	-24.5	-25.0	16.2	0.00e+00	0	44	0	2036334592	9	3806
2026-01-17 05:11:35.97	215.16	14.59	-24.6	-25.3	16.0	0.00e+00	0	44	0	2042626048	9	3872
2026-01-17 05:11:36.97	215.13	14.49	-24.8	-25.5	15.9	0.00e+00	0	44	0	2049966080	9	3925
2026-01-17 05:11:37.97	215.10	14.38	-24.6	-25.1	16.1	0.00e+00	0	44	0	2057306112	9	3831
2026-01-17 05:11:38.97	215.07	14.28	-24.6	-25.1	16.1	0.00e+00	0	44	0	2064646144	9	3828
2026-01-17 05:11:39.98	215.03	14.18	-24.6	-25.1	16.1	0.00e+00	0	44	0	2071986176	9	3834
2026-01-17 05:11:40.99	215.00	14.07	-24.8	-25.7	15.8	0.00e+00	0	44	0	2079326208	9	3966
2026-01-17 05:11:41.99	214.97	13.97	-24.6	-25.2	16.0	0.00e+00	0	44	0	2086666240	9	3854
2026-01-17 05:11:42.99	214.94	13.87	-24.6	-25.1	16.0	0.00e+00	0	44	0	2094006272	9	3830
2026-01-17 05:11:44.00	214.91	13.77	-24.6	-25.1	16.1	0.00e+00	0	44	0	2101346304	9	3827
2026-01-17 05:11:45.00	214.87	13.67	-24.6	-25.1	16.1	0.00e+00	0	44	0	2108686336	9	3818
2026-01-17 05:11:46.00	214.84	13.57	-24.6	-25.2	16.0	0.00e+00	0	44	0	2116026368	9	3849
2026-01-17 05:11:47.00	214.81	13.47	-24.7	-25.4	15.8	0.00e+00	0	44	0	2122317824	9	3911
2026-01-17 05:11:48.00	214.78	13.37	-24.7	-25.4	15.9	0.00e+00	0	44	0	2129657856	9	3894
2026-01-17 05:11:49.01	214.75	13.27	-24.6	-25.3	16.0	0.00e+00	0	44	0	2136997888	9	3868
2026-01-17 05:11:50.02	214.72	13.17	-24.7	-25.4	15.9	0.00e+00	0	44	0	2144337920	9	3902
2026-01-17 05:11:51.02	214.69	13.07	-24.8	-25.5	15.8	1.10e-06	0	44	0	2151677952	9	3921
2026-01-17 05:11:52.03	214.66	12.97	-25.0	-26.0	15.5	0.00e+00	0	44	0	2159017984	9	4035
2026-01-17 05:11:53.03	214.63	12.87	-24.8	-25.6	15.7	0.00e+00	0	44	0	2166358016	9	3956
2026-01-17 05:11:54.04	214.60	12.78	-24.9	-25.8	15.6	0.00e+00	0	44	0	2173698048	9	3994
2026-01-17 05:11:55.04	214.57	12.68	-24.9	-25.8	15.6	0.00e+00	0	44	0	2181038080	9	4003
2026-01-17 05:11:56.04	214.55	12.58	-24.9	-25.9	15.6	0.00e+00	0	44	0	2188378112	9	4012
2026-01-17 05:11:57.04	214.52	12.49	-25.0	-26.0	15.5	0.00e+00	0	44	0	2195718144	9	4038
2026-01-17 05:11:58.04	214.49	12.39	-25.0	-25.5	15.5	0.00e+00	0	44	0	2203058176	10	3820
2026-01-17 05:11:59.04	214.46	12.30	-25.3	-26.3	15.1	0.00e+00	0	44	0	2209349632	10	4017
2026-01-17 05:12:00.04	214.43	12.20	-25.0	-25.6	15.5	0.00e+00	0	44	0	2216689664	10	3843
2026-01-17 05:12:01.05	214.40	12.11	-25.0	-25.6	15.4	0.00e+00	0	44	0	2224029696	10	3842
2026-01-17 05:12:02.05	214.38	12.01	-25.2	-25.9	15.3	0.00e+00	0	44	0	2231369728	10	3920
2026-01-17 05:12:03.05	214.35	11.92	-25.1	-25.9	15.3	1.10e-06	0	44	0	2238709760	10	3912
2026-01-17 05:12:04.06	214.32	11.82	-25.2	-26.0	15.2	0.00e+00	0	44	0	2246049792	10	3948
2026-01-17 05:12:05.05	214.30	11.73	-25.2	-26.0	15.2	0.00e+00	0	44	0	2253389824	10	3948
2026-01-17 05:12:06.06	214.27	11.64	-25.4	-26.4	15.0	0.00e+00	0	44	0	2260729856	10	4042
2026-01-17 05:12:07.06	214.24	11.55	-25.4	-26.4	15.0	0.00e+00	0	44	0	2267021312	10	4054
2026-01-17 05:12:08.07	214.22	11.45	-25.5	-26.7	14.8	0.00e+00	0	44	0	2274361344	10	4111
2026-01-17 05:12:09.06	214.19	11.36	-25.6	-26.3	14.8	0.00e+00	0	44	0	2281701376	11	3917
2026-01-17 05:12:10.06	214.16	11.27	-25.8	-26.8	14.5	0.00e+00	0	44	0	2289041408	11	4045
2026-01-17 05:12:11.07	214.14	11.18	-25.7	-26.7	14.5	0.00e+00	0	44	0	2296381440	11	4014
2026-01-17 05:12:12.07	214.11	11.09	-25.7	-26.6	14.6	0.00e+00	0	44	0	2303721472	11	3987
2026-01-17 05:12:13.07	214.09	11.00	-25.6	-26.4	14.6	1.10e-06	0	44	0	2311061504	11	3950
2026-01-17 05:12:14.08	214.06	10.91	-25.9	-27.1	14.3	0.00e+00	0	44	0	2318401536	11	4117
2026-01-17 05:12:15.08	214.04	10.82	-25.7	-26.6	14.5	0.00e+00	0	44	0	2325741568	11	3998
2026-01-17 05:12:16.08	214.01	10.73	-26.1	-27.1	13.9	2.20e-06	0	44	0	2332033024	12	4022
2026-01-17 05:12:17.09	213.98	10.64	-25.9	-26.6	14.2	2.20e-06	0	44	0	2340421632	12	3894
2026-01-17 05:12:18.09	213.96	10.55	-25.7	-26.1	14.4	0.00e+00	0	44	0	2347761664	12	3788
2026-01-17 05:12:19.09	213.94	10.46	-25.6	-25.8	14.6	0.00e+00	0	44	0	2354053120	12	3714
2026-01-17 05:12:20.09	213.91	10.37	-25.9	-26.6	14.2	1.10e-06	0	44	0	2361393152	12	3890
2026-01-17 05:12:21.10	213.89	10.28	-25.6	-26.0	14.5	0.00e+00	0	44	0	2368733184	12	3759
2026-01-17 05:12:22.10	213.86	10.20	-25.8	-26.4	14.3	0.00e+00	0	44	0	2376073216	12	3842
2026-01-17 05:12:23.10	213.84	10.11	-25.8	-26.3	14.3	1.10e-06	0	44	0	2383413248	12	3821
2026-01-17 05:12:24.11	213.82	10.02	-25.8	-26.4	14.3	1.10e-06	0	44	0	2390753280	12	3844
2026-01-17 05:12:25.12	213.79	9.93	-25.9	-26.7	14.1	0.00e+00	0	44	0	2398093312	12	3915
2026-01-17 05:12:26.12	213.77	9.85	-25.7	-26.0	14.4	0.00e+00	0	44	0	2405433344	12	3763
2026-01-17 05:12:27.13	213.74	9.76	-25.7	-26.2	14.3	1.10e-06	0	44	0	2412773376	12	3811
2026-01-17 05:12:28.13	213.72	9.67	-25.7	-26.2	14.3	1.10e-06	0	44	0	2419064832	12	3813
2026-01-17 05:12:29.12	213.70	9.59	-26.0	-26.9	13.9	0.00e+00	0	44	0	2426404864	12	3983
2026-01-17 05:12:30.12	213.68	9.51	-25.6	-26.0	14.4	0.00e+00	0	44	0	2433744896	12	3751
2026-01-17 05:12:31.12	213.65	9.42	-25.7	-26.2	14.3	0.00e+00	0	44	0	2441084928	12	3810
2026-01-17 05:12:32.13	213.63	9.33	-25.6	-26.0	14.4	0.00e+00	0	44	0	2448424960	12	3754
2026-01-17 05:12:33.12	213.61	9.25	-25.8	-26.3	14.2	1.10e-06	0	44	0	2455764992	12	3837
2026-01-17 05:12:34.12	213.59	9.17	-25.8	-26.5	14.1	0.00e+00	0	44	0	2463105024	12	3864
2026-01-17 05:12:35.12	213.56	9.08	-25.9	-26.6	14.1	0.00e+00	0	44	0	2470445056	12	3898
2026-01-17 05:12:36.13	213.54	9.00	-25.7	-26.2	14.3	1.10e-06	0	44	0	2476736512	12	3812
2026-01-17 05:12:37.12	213.52	8.92	-26.1	-27.0	13.9	3.40e-06	0	44	0	2484076544	12	3992
2026-01-17 05:12:38.13	213.50	8.83	-25.8	-26.4	14.2	1.10e-06	0	44	0	2491416576	12	3853
2026-01-17 05:12:39.14	213.48	8.75	-25.8	-26.3	14.2	1.10e-06	0	44	0	2498756608	12	3841
2026-01-17 05:12:40.14	213.46	8.67	-25.7	-26.3	14.2	0.00e+00	0	44	0	2506096640	12	3819
2026-01-17 05:12:41.14	213.43	8.59	-26.2	-27.2	13.6	1.02e-05	0	44	0	2513436672	12	4069
2026-01-17 05:12:42.14	213.41	8.50	-25.8	-26.4	14.1	1.10e-06	0	44	0	2520776704	12	3866
2026-01-17 05:12:43.14	213.39	8.42	-26.3	-27.4	13.5	3.40e-06	0	44	0	2528116736	12	4117
2026-01-17 05:12:44.14	213.37	8.34	-26.0	-26.9	13.8	3.40e-06	0	44	0	2535456768	12	3982
2026-01-17 05:12:45.14	213.35	8.26	-26.0	-26.8	13.8	8.00e-06	0	44	0	2542796800	12	3960
2026-01-17 05:12:46.14	213.33	8.18	-25.9	-26.7	13.9	5.70e-06	0	44	0	2550136832	12	3925
2026-01-17 05:12:47.15	213.31	8.10	-26.1	-27.1	13.7	1.10e-06	0	44	0	2557476864	12	4035
2026-01-17 05:12:48.14	213.29	8.02	-26.3	-27.5	13.4	1.14e-05	0	44	0	2563768320	12	4146
2026-01-17 05:12:49.14	213.27	7.94	-26.3	-27.5	13.5	9.10e-06	0	44	0	2571108352	12	4130
2026-01-17 05:12:50.14	213.25	7.86	-26.0	-26.9	13.8	3.40e-06	0	44	0	2578448384	12	3987
2026-01-17 05:12:51.14	213.23	7.78	-25.9	-26.5	13.9	0.00e+00	0	44	0	2585788416	12	3895
2026-01-17 05:12:52.14	213.21	7.70	-26.1	-27.1	13.6	9.10e-06	0	44	0	2593128448	12	4030
2026-01-17 05:12:53.14	213.19	7.62	-25.9	-26.7	13.8	3.40e-06	0	44	0	2600468480	12	3945
2026-01-17 05:12:54.14	213.17	7.54	-25.9	-26.5	13.9	1.10e-06	0	44	0	2607808512	12	3890
2026-01-17 05:12:55.13	213.15	7.46	-26.1	-27.0	13.6	1.25e-05	0	44	0	2614099968	12	4023
2026-01-17 05:12:56.14	213.13	7.38	-26.0	-26.9	13.7	9.10e-06	0	44	0	2621440000	12	3987
2026-01-17 05:12:57.14	213.11	7.31	-26.1	-27.2	13.6	1.02e-05	0	44	0	2628780032	12	4052
2026-01-17 05:12:58.14	213.09	7.23	-26.1	-27.0	13.6	3.40e-06	0	44	0	2636120064	12	4026
2026-01-17 05:12:59.14	213.07	7.15	-26.1	-27.0	13.6	1.02e-05	0	44	0	2643460096	12	4014
2026-01-17 05:13:00.14	213.06	7.07	-26.7	-27.9	12.9	2.86e-05	0	44	0	2650800128	13	4146
2026-01-17 05:13:01.13	213.04	7.00	-32.6	-42.6	3.8	8.45e-01	0	44	104	2652897280	24	11390
2026-01-17 05:13:02.14	213.02	6.92	-32.9	-42.7	3.8	8.46e-01	0	44	104	2652897280	25	11112

#Closed at: 2026-01-17 05:13:02
#Recorded file [2652 MB]: D:/data/31010_260117_080652.dat